passes_logs/2025/01/12/SPB_Silybum_02/SPB_Silybum_02__20250112_092212_SUOMI_NPP_rec.log

#Pass ID: 20250112_092212_SUOMI NPP
#Satellite: SUOMI NPP
#Configuration: NPP
#Start time: 2025-01-12 09:27:47

#Version: 2.0.20230423
#Station: SPB_Silybum_02
#Location: 30.233357 lon 59.946436 lat
#TLE: 1 37849U 11061A   25011.81852258  .00000147  00000+0  90749-4 0  9992
#TLE: 2 37849  98.7442 312.8475 0001799  45.9067 314.2257 14.19536766684464

#Time	Az	El	Level	Level2	SNR	BER	Gain	Gain2
2025-01-12 09:27:49.16	84.32	42.07	
2025-01-12 09:27:49.37	84.22	42.10	
2025-01-12 09:27:49.57	84.13	42.12	
2025-01-12 09:27:49.78	84.04	42.15	
2025-01-12 09:27:49.98	83.95	42.17	
2025-01-12 09:27:50.19	83.85	42.19	
2025-01-12 09:27:50.39	83.76	42.22	
2025-01-12 09:27:50.59	83.67	42.24	
2025-01-12 09:27:50.80	83.58	42.27	
2025-01-12 09:27:51.01	83.48	42.29	
2025-01-12 09:27:51.21	83.39	42.32	
2025-01-12 09:27:51.42	83.30	42.34	
2025-01-12 09:27:51.62	83.21	42.36	
2025-01-12 09:27:51.83	83.11	42.39	
2025-01-12 09:27:52.03	83.02	42.41	
2025-01-12 09:27:52.24	82.92	42.44	
2025-01-12 09:27:52.44	82.83	42.46	
2025-01-12 09:27:52.65	82.73	42.48	
2025-01-12 09:27:52.85	82.64	42.51	
2025-01-12 09:27:53.06	82.55	42.53	
2025-01-12 09:27:53.26	82.45	42.55	
2025-01-12 09:27:53.47	82.36	42.58	
2025-01-12 09:27:53.68	82.26	42.60	
2025-01-12 09:27:53.88	82.17	42.62	
2025-01-12 09:27:54.09	82.07	42.65	
2025-01-12 09:27:54.29	81.98	42.67	
2025-01-12 09:27:54.50	81.88	42.69	
2025-01-12 09:27:54.70	81.79	42.72	
2025-01-12 09:27:54.90	81.69	42.74	
2025-01-12 09:27:55.11	81.60	42.76	
2025-01-12 09:27:55.32	81.50	42.79	
2025-01-12 09:27:55.52	81.40	42.81	
2025-01-12 09:27:55.72	81.31	42.83	
2025-01-12 09:27:55.93	81.21	42.85	
2025-01-12 09:27:56.13	81.12	42.88	
2025-01-12 09:27:56.34	81.02	42.90	
2025-01-12 09:27:56.55	80.92	42.92	
2025-01-12 09:27:56.75	80.83	42.94	
2025-01-12 09:27:56.96	80.73	42.97	
2025-01-12 09:27:57.16	80.63	42.99	
2025-01-12 09:27:57.37	80.53	43.01	
2025-01-12 09:27:57.57	80.44	43.03	
2025-01-12 09:27:57.78	80.34	43.05	
2025-01-12 09:27:57.98	80.24	43.07	
2025-01-12 09:27:58.19	80.14	43.10	
2025-01-12 09:27:58.39	80.05	43.12	
2025-01-12 09:27:58.60	79.95	43.14	
2025-01-12 09:27:58.80	79.85	43.16	
2025-01-12 09:27:59.01	79.75	43.18	
2025-01-12 09:27:59.21	79.65	43.20	
2025-01-12 09:27:59.42	79.55	43.22	
2025-01-12 09:27:59.62	79.46	43.24	
2025-01-12 09:27:59.83	79.36	43.27	
2025-01-12 09:28:00.03	79.26	43.29	
2025-01-12 09:28:00.23	79.16	43.31	
2025-01-12 09:28:00.44	79.06	43.33	
2025-01-12 09:28:00.65	78.96	43.35	
2025-01-12 09:28:00.85	78.86	43.37	
2025-01-12 09:28:01.06	78.76	43.39	
2025-01-12 09:28:01.27	78.66	43.41	
2025-01-12 09:28:01.47	78.56	43.43	
2025-01-12 09:28:01.68	78.46	43.45	
2025-01-12 09:28:01.88	78.36	43.47	
2025-01-12 09:28:02.09	78.26	43.49	
2025-01-12 09:28:02.29	78.16	43.51	
2025-01-12 09:28:02.50	78.06	43.53	
2025-01-12 09:28:02.71	77.95	43.55	
2025-01-12 09:28:02.91	77.86	43.57	
2025-01-12 09:28:03.12	77.75	43.59	
2025-01-12 09:28:03.32	77.66	43.61	
2025-01-12 09:28:03.53	77.55	43.63	
2025-01-12 09:28:03.73	77.45	43.65	
2025-01-12 09:28:03.94	77.35	43.67	
2025-01-12 09:28:04.14	77.25	43.69	
2025-01-12 09:28:04.35	77.15	43.71	
2025-01-12 09:28:04.55	77.05	43.73	
2025-01-12 09:28:04.76	76.94	43.74	
2025-01-12 09:28:04.96	76.84	43.76	
2025-01-12 09:28:05.17	76.74	43.78	
2025-01-12 09:28:05.37	76.64	43.80	
2025-01-12 09:28:05.58	76.53	43.82	
2025-01-12 09:28:05.79	76.43	43.84	
2025-01-12 09:28:05.99	76.33	43.86	
2025-01-12 09:28:06.20	76.23	43.87	
2025-01-12 09:28:06.40	76.12	43.89	
2025-01-12 09:28:06.61	76.02	43.91	
2025-01-12 09:28:06.81	75.92	43.93	
2025-01-12 09:28:07.02	75.81	43.95	
2025-01-12 09:28:07.22	75.71	43.96	
2025-01-12 09:28:07.43	75.61	43.98	
2025-01-12 09:28:07.63	75.51	44.00	
2025-01-12 09:28:07.84	75.40	44.02	
2025-01-12 09:28:08.04	75.30	44.03	
2025-01-12 09:28:08.25	75.19	44.05	
2025-01-12 09:28:08.45	75.09	44.07	
2025-01-12 09:28:08.66	74.99	44.09	
2025-01-12 09:28:08.86	74.88	44.10	
2025-01-12 09:28:09.07	74.78	44.12	
2025-01-12 09:28:09.27	74.68	44.14	
2025-01-12 09:28:09.48	74.57	44.15	
2025-01-12 09:28:09.68	74.47	44.17	
2025-01-12 09:28:09.89	74.36	44.19	
2025-01-12 09:28:10.09	74.26	44.20	
2025-01-12 09:28:10.30	74.15	44.22	
2025-01-12 09:28:10.50	74.05	44.23	
2025-01-12 09:28:10.71	73.94	44.25	
2025-01-12 09:28:10.91	73.84	44.27	
2025-01-12 09:28:11.12	73.73	44.28	
2025-01-12 09:28:11.32	73.63	44.30	
2025-01-12 09:28:11.53	73.52	44.31	
2025-01-12 09:28:11.73	73.42	44.33	
2025-01-12 09:28:11.94	73.31	44.34	
2025-01-12 09:28:12.14	73.20	44.36	
2025-01-12 09:28:12.35	73.10	44.38	
2025-01-12 09:28:12.56	72.99	44.39	
2025-01-12 09:28:12.76	72.88	44.41	
2025-01-12 09:28:12.96	72.78	44.42	
2025-01-12 09:28:13.17	72.67	44.44	
2025-01-12 09:28:13.37	72.57	44.45	
2025-01-12 09:28:13.58	72.46	44.46	
2025-01-12 09:28:13.79	72.35	44.48	
2025-01-12 09:28:13.99	72.25	44.49	
2025-01-12 09:28:14.20	72.14	44.51	
2025-01-12 09:28:14.40	72.03	44.52	
2025-01-12 09:28:14.61	71.92	44.54	
2025-01-12 09:28:14.81	71.82	44.55	
2025-01-12 09:28:15.03	71.70	44.57	
2025-01-12 09:28:15.24	71.59	44.58	
2025-01-12 09:28:15.44	71.49	44.59	
2025-01-12 09:28:15.65	71.38	44.61	
2025-01-12 09:28:15.85	71.27	44.62	
2025-01-12 09:28:16.07	71.16	44.63	
2025-01-12 09:28:16.28	71.05	44.65	
2025-01-12 09:28:16.48	70.94	44.66	
2025-01-12 09:28:16.69	70.83	44.67	
2025-01-12 09:28:16.89	70.73	44.69	
2025-01-12 09:28:17.10	70.62	44.70	
2025-01-12 09:28:17.30	70.51	44.71	
2025-01-12 09:28:17.51	70.40	44.72	
2025-01-12 09:28:17.71	70.29	44.74	
2025-01-12 09:28:17.92	70.18	44.75	
2025-01-12 09:28:18.13	70.07	44.76	
2025-01-12 09:28:18.34	69.96	44.77	
2025-01-12 09:28:18.54	69.86	44.79	
2025-01-12 09:28:18.75	69.74	44.80	
2025-01-12 09:28:18.96	69.63	44.81	
2025-01-12 09:28:19.16	69.53	44.82	
2025-01-12 09:28:19.36	69.42	44.83	
2025-01-12 09:28:19.57	69.31	44.84	
2025-01-12 09:28:19.77	69.20	44.86	
2025-01-12 09:28:19.98	69.09	44.87	
2025-01-12 09:28:20.18	68.98	44.88	
2025-01-12 09:28:20.39	68.87	44.89	
2025-01-12 09:28:20.59	68.76	44.90	
2025-01-12 09:28:20.80	68.65	44.91	
2025-01-12 09:28:21.00	68.55	44.92	
2025-01-12 09:28:21.21	68.43	44.93	
2025-01-12 09:28:21.42	68.32	44.94	
2025-01-12 09:28:21.63	68.21	44.95	
2025-01-12 09:28:21.84	68.10	44.96	
2025-01-12 09:28:22.05	67.98	44.97	
2025-01-12 09:28:22.26	67.87	44.98	
2025-01-12 09:28:22.48	67.75	44.99	
2025-01-12 09:28:22.68	67.65	45.00	
2025-01-12 09:28:22.89	67.53	45.01	
2025-01-12 09:28:23.09	67.42	45.02	
2025-01-12 09:28:23.30	67.31	45.03	
2025-01-12 09:28:23.50	67.20	45.04	
2025-01-12 09:28:23.71	67.09	45.05	
2025-01-12 09:28:23.91	66.98	45.06	
2025-01-12 09:28:24.12	66.87	45.07	
2025-01-12 09:28:24.32	66.76	45.08	
2025-01-12 09:28:24.53	66.65	45.09	
2025-01-12 09:28:24.73	66.54	45.09	
2025-01-12 09:28:24.94	66.43	45.10	
2025-01-12 09:28:25.14	66.32	45.11	
2025-01-12 09:28:25.35	66.20	45.12	
2025-01-12 09:28:25.55	66.10	45.13	
2025-01-12 09:28:25.76	65.98	45.14	
2025-01-12 09:28:25.96	65.87	45.14	
2025-01-12 09:28:26.17	65.76	45.15	
2025-01-12 09:28:26.37	65.65	45.16	
2025-01-12 09:28:26.58	65.54	45.17	
2025-01-12 09:28:26.78	65.43	45.17	
2025-01-12 09:28:26.99	65.32	45.18	
2025-01-12 09:28:27.19	65.21	45.19	
2025-01-12 09:28:27.40	65.09	45.19	
2025-01-12 09:28:27.60	64.98	45.20	
2025-01-12 09:28:27.82	64.86	45.21	
2025-01-12 09:28:28.03	64.75	45.22	
2025-01-12 09:28:28.23	64.64	45.22	
2025-01-12 09:28:28.44	64.53	45.23	
2025-01-12 09:28:28.64	64.42	45.23	
2025-01-12 09:28:28.85	64.30	45.24	
2025-01-12 09:28:29.05	64.19	45.25	
2025-01-12 09:28:29.26	64.08	45.25	
2025-01-12 09:28:29.46	63.97	45.26	
2025-01-12 09:28:29.67	63.86	45.26	
2025-01-12 09:28:29.87	63.75	45.27	
2025-01-12 09:28:30.08	63.63	45.28	
2025-01-12 09:28:30.28	63.52	45.28	
2025-01-12 09:28:30.49	63.41	45.29	
2025-01-12 09:28:30.70	63.29	45.29	
2025-01-12 09:28:30.90	63.18	45.30	
2025-01-12 09:28:31.10	63.07	45.30	
2025-01-12 09:28:31.31	62.96	45.31	
2025-01-12 09:28:31.52	62.84	45.31	
2025-01-12 09:28:31.72	62.73	45.31	
2025-01-12 09:28:31.93	62.62	45.32	
2025-01-12 09:28:32.14	62.50	45.32	
2025-01-12 09:28:32.35	62.39	45.33	
2025-01-12 09:28:32.55	62.28	45.33	
2025-01-12 09:28:32.76	62.16	45.34	
2025-01-12 09:28:32.97	62.05	45.34	
2025-01-12 09:28:33.17	61.94	45.34	
2025-01-12 09:28:33.37	61.83	45.35	
2025-01-12 09:28:33.58	61.71	45.35	
2025-01-12 09:28:33.79	61.60	45.35	
2025-01-12 09:28:33.99	61.49	45.36	
2025-01-12 09:28:34.21	61.37	45.36	
2025-01-12 09:28:34.41	61.26	45.36	
2025-01-12 09:28:34.62	61.14	45.36	
2025-01-12 09:28:34.82	61.03	45.37	
2025-01-12 09:28:35.03	60.92	45.37	
2025-01-12 09:28:35.23	60.81	45.37	
2025-01-12 09:28:35.44	60.69	45.37	
2025-01-12 09:28:35.64	60.58	45.38	
2025-01-12 09:28:35.85	60.47	45.38	
2025-01-12 09:28:36.05	60.36	45.38	
2025-01-12 09:28:36.26	60.24	45.38	
2025-01-12 09:28:36.46	60.13	45.38	
2025-01-12 09:28:36.67	60.01	45.39	
2025-01-12 09:28:36.88	59.90	45.39	
2025-01-12 09:28:37.08	59.79	45.39	
2025-01-12 09:28:37.29	59.67	45.39	
2025-01-12 09:28:37.49	59.56	45.39	
2025-01-12 09:28:37.70	59.45	45.39	
2025-01-12 09:28:37.90	59.34	45.39	
2025-01-12 09:28:38.11	59.22	45.39	
2025-01-12 09:28:38.31	59.11	45.39	
2025-01-12 09:28:38.52	59.00	45.39	
2025-01-12 09:28:38.72	58.89	45.39	
2025-01-12 09:28:38.93	58.77	45.39	
2025-01-12 09:28:39.13	58.66	45.39	
2025-01-12 09:28:39.34	58.54	45.39	
2025-01-12 09:28:39.54	58.43	45.39	
2025-01-12 09:28:39.75	58.32	45.39	
2025-01-12 09:28:39.95	58.21	45.39	
2025-01-12 09:28:40.16	58.09	45.39	
2025-01-12 09:28:40.36	57.98	45.39	
2025-01-12 09:28:40.56	57.87	45.39	
2025-01-12 09:28:40.77	57.76	45.39	
2025-01-12 09:28:40.98	57.64	45.39	
2025-01-12 09:28:41.18	57.53	45.39	
2025-01-12 09:28:41.39	57.42	45.39	
2025-01-12 09:28:41.59	57.31	45.38	
2025-01-12 09:28:41.80	57.19	45.38	
2025-01-12 09:28:42.00	57.08	45.38	
2025-01-12 09:28:42.21	56.97	45.38	
2025-01-12 09:28:42.41	56.86	45.38	
2025-01-12 09:28:42.62	56.74	45.38	
2025-01-12 09:28:42.83	56.62	45.37	
2025-01-12 09:28:43.04	56.51	45.37	
2025-01-12 09:28:43.24	56.40	45.37	
2025-01-12 09:28:43.45	56.28	45.37	
2025-01-12 09:28:43.66	56.17	45.36	
2025-01-12 09:28:43.87	56.05	45.36	
2025-01-12 09:28:44.08	55.94	45.36	
2025-01-12 09:28:44.28	55.83	45.35	
2025-01-12 09:28:44.49	55.71	45.35	
2025-01-12 09:28:44.70	55.60	45.35	
2025-01-12 09:28:44.90	55.49	45.34	
2025-01-12 09:28:45.10	55.38	45.34	
2025-01-12 09:28:45.31	55.26	45.34	
2025-01-12 09:28:45.51	55.15	45.33	
2025-01-12 09:28:45.72	55.04	45.33	
2025-01-12 09:28:45.92	54.93	45.32	
2025-01-12 09:28:46.13	54.81	45.32	
2025-01-12 09:28:46.33	54.70	45.32	
2025-01-12 09:28:46.54	54.59	45.31	
2025-01-12 09:28:46.74	54.48	45.31	
2025-01-12 09:28:46.95	54.36	45.30	
2025-01-12 09:28:47.15	54.25	45.30	
2025-01-12 09:28:47.36	54.14	45.29	
2025-01-12 09:28:47.56	54.03	45.29	
2025-01-12 09:28:47.77	53.92	45.28	
2025-01-12 09:28:47.97	53.81	45.28	
2025-01-12 09:28:48.18	53.69	45.27	
2025-01-12 09:28:48.38	53.58	45.27	
2025-01-12 09:28:48.59	53.47	45.26	
2025-01-12 09:28:48.80	53.35	45.26	
2025-01-12 09:28:49.00	53.24	45.25	
2025-01-12 09:28:49.20	53.13	45.24	
2025-01-12 09:28:49.41	53.02	45.24	
2025-01-12 09:28:49.62	52.91	45.23	
2025-01-12 09:28:49.82	52.80	45.22	
2025-01-12 09:28:50.03	52.68	45.22	
2025-01-12 09:28:50.23	52.57	45.21	
2025-01-12 09:28:50.44	52.46	45.21	
2025-01-12 09:28:50.64	52.35	45.20	
2025-01-12 09:28:50.85	52.24	45.19	
2025-01-12 09:28:51.05	52.13	45.18	
2025-01-12 09:28:51.26	52.01	45.18	
2025-01-12 09:28:51.46	51.91	45.17	
2025-01-12 09:28:51.67	51.79	45.16	
2025-01-12 09:28:51.87	51.68	45.15	
2025-01-12 09:28:52.08	51.57	45.15	
2025-01-12 09:28:52.28	51.46	45.14	
2025-01-12 09:28:52.49	51.35	45.13	
2025-01-12 09:28:52.69	51.24	45.12	
2025-01-12 09:28:52.90	51.13	45.12	
2025-01-12 09:28:53.10	51.02	45.11	
2025-01-12 09:28:53.31	50.90	45.10	
2025-01-12 09:28:53.51	50.80	45.09	
2025-01-12 09:28:53.72	50.68	45.08	
2025-01-12 09:28:53.93	50.57	45.07	
2025-01-12 09:28:54.13	50.46	45.06	
2025-01-12 09:28:54.33	50.35	45.06	
2025-01-12 09:28:54.54	50.24	45.05	
2025-01-12 09:28:54.74	50.13	45.04	
2025-01-12 09:28:54.95	50.02	45.03	
2025-01-12 09:28:55.16	49.91	45.02	
2025-01-12 09:28:55.36	49.80	45.01	
2025-01-12 09:28:55.57	49.69	45.00	
2025-01-12 09:28:55.77	49.58	44.99	
2025-01-12 09:28:55.98	49.47	44.98	
2025-01-12 09:28:56.18	49.36	44.97	
2025-01-12 09:28:56.39	49.25	44.96	
2025-01-12 09:28:56.61	49.13	44.95	
2025-01-12 09:28:56.81	49.02	44.94	
2025-01-12 09:28:57.02	48.91	44.93	
2025-01-12 09:28:57.22	48.80	44.92	
2025-01-12 09:28:57.43	48.69	44.91	
2025-01-12 09:28:57.65	48.57	44.89	
2025-01-12 09:28:57.85	48.47	44.88	
2025-01-12 09:28:58.06	48.36	44.87	
2025-01-12 09:28:58.27	48.24	44.86	
2025-01-12 09:28:58.47	48.14	44.85	
2025-01-12 09:28:58.67	48.03	44.84	
2025-01-12 09:28:58.88	47.92	44.83	
2025-01-12 09:28:59.08	47.81	44.82	
2025-01-12 09:28:59.29	47.70	44.80	
2025-01-12 09:28:59.49	47.60	44.79	
2025-01-12 09:28:59.70	47.49	44.78	
2025-01-12 09:28:59.91	47.37	44.77	
2025-01-12 09:29:00.11	47.27	44.76	
2025-01-12 09:29:00.32	47.16	44.74	
2025-01-12 09:29:00.52	47.05	44.73	
2025-01-12 09:29:00.72	46.95	44.72	
2025-01-12 09:29:00.94	46.83	44.71	
2025-01-12 09:29:01.15	46.72	44.69	
2025-01-12 09:29:01.35	46.61	44.68	
2025-01-12 09:29:01.55	46.51	44.67	
2025-01-12 09:29:01.76	46.40	44.65	
2025-01-12 09:29:01.96	46.29	44.64	
2025-01-12 09:29:02.17	46.18	44.63	
2025-01-12 09:29:02.37	46.08	44.61	
2025-01-12 09:29:02.58	45.97	44.60	
2025-01-12 09:29:02.78	45.86	44.59	
2025-01-12 09:29:02.98	45.76	44.57	
2025-01-12 09:29:03.19	45.65	44.56	
2025-01-12 09:29:03.40	45.54	44.55	
2025-01-12 09:29:03.60	45.44	44.53	
2025-01-12 09:29:03.81	45.33	44.52	
2025-01-12 09:29:04.01	45.22	44.50	
2025-01-12 09:29:04.22	45.11	44.49	
2025-01-12 09:29:04.42	45.01	44.48	
2025-01-12 09:29:04.63	44.90	44.46	
2025-01-12 09:29:04.84	44.79	44.45	
2025-01-12 09:29:05.04	44.69	44.43	
2025-01-12 09:29:05.25	44.58	44.42	
2025-01-12 09:29:05.45	44.48	44.40	
2025-01-12 09:29:05.66	44.37	44.39	
2025-01-12 09:29:05.86	44.26	44.37	
2025-01-12 09:29:06.07	44.16	44.36	
2025-01-12 09:29:06.27	44.05	44.34	
2025-01-12 09:29:06.48	43.95	44.32	
2025-01-12 09:29:06.68	43.84	44.31	
2025-01-12 09:29:06.89	43.74	44.29	
2025-01-12 09:29:07.09	43.63	44.28	
2025-01-12 09:29:07.29	43.53	44.26	
2025-01-12 09:29:07.50	43.42	44.25	
2025-01-12 09:29:07.71	43.32	44.23	
2025-01-12 09:29:07.91	43.21	44.21	
2025-01-12 09:29:08.12	43.11	44.20	
2025-01-12 09:29:08.32	43.00	44.18	
2025-01-12 09:29:08.53	42.90	44.16	
2025-01-12 09:29:08.73	42.80	44.15	
2025-01-12 09:29:08.93	42.69	44.13	
2025-01-12 09:29:09.14	42.59	44.12	
2025-01-12 09:29:09.35	42.48	44.10	
2025-01-12 09:29:09.55	42.38	44.08	
2025-01-12 09:29:09.76	42.27	44.06	
2025-01-12 09:29:09.96	42.17	44.05	
2025-01-12 09:29:10.17	42.07	44.03	
2025-01-12 09:29:10.38	41.96	44.01	
2025-01-12 09:29:10.58	41.86	43.99	
2025-01-12 09:29:10.79	41.75	43.98	
2025-01-12 09:29:10.99	41.65	43.96	
2025-01-12 09:29:11.20	41.55	43.94	
2025-01-12 09:29:11.40	41.45	43.92	
2025-01-12 09:29:11.61	41.34	43.91	
2025-01-12 09:29:11.81	41.24	43.89	
2025-01-12 09:29:12.02	41.14	43.87	
2025-01-12 09:29:12.22	41.04	43.85	
2025-01-12 09:29:12.43	40.93	43.83	
2025-01-12 09:29:12.63	40.83	43.82	
2025-01-12 09:29:12.84	40.73	43.80	
2025-01-12 09:29:13.05	40.62	43.78	
2025-01-12 09:29:13.25	40.52	43.76	
2025-01-12 09:29:13.46	40.42	43.74	
2025-01-12 09:29:13.66	40.32	43.72	
2025-01-12 09:29:13.87	40.22	43.70	
2025-01-12 09:29:14.07	40.12	43.68	
2025-01-12 09:29:14.28	40.01	43.66	
2025-01-12 09:29:14.48	39.92	43.65	
2025-01-12 09:29:14.69	39.81	43.63	
2025-01-12 09:29:14.89	39.71	43.61	
2025-01-12 09:29:15.10	39.61	43.59	
2025-01-12 09:29:15.30	39.51	43.57	
2025-01-12 09:29:15.51	39.41	43.55	
2025-01-12 09:29:15.72	39.31	43.53	
2025-01-12 09:29:15.92	39.21	43.51	
2025-01-12 09:29:16.13	39.11	43.49	
2025-01-12 09:29:16.33	39.01	43.47	
2025-01-12 09:29:16.54	38.91	43.45	
2025-01-12 09:29:16.74	38.81	43.43	
2025-01-12 09:29:16.95	38.71	43.41	
2025-01-12 09:29:17.15	38.61	43.39	
2025-01-12 09:29:17.36	38.51	43.37	
2025-01-12 09:29:17.56	38.41	43.35	
2025-01-12 09:29:17.77	38.31	43.32	
2025-01-12 09:29:17.97	38.22	43.30	
2025-01-12 09:29:18.18	38.11	43.28	
2025-01-12 09:29:18.38	38.02	43.26	
2025-01-12 09:29:18.59	37.92	43.24	
2025-01-12 09:29:18.79	37.82	43.22	
2025-01-12 09:29:19.00	37.72	43.20	
2025-01-12 09:29:19.20	37.62	43.18	
2025-01-12 09:29:19.41	37.52	43.16	
2025-01-12 09:29:19.61	37.43	43.14	
2025-01-12 09:29:19.82	37.33	43.11	
2025-01-12 09:29:20.02	37.23	43.09	
2025-01-12 09:29:20.23	37.13	43.07	
2025-01-12 09:29:20.43	37.04	43.05	
2025-01-12 09:29:20.64	36.94	43.03	
2025-01-12 09:29:20.85	36.84	43.00	
2025-01-12 09:29:21.05	36.75	42.98	
2025-01-12 09:29:21.25	36.65	42.96	
2025-01-12 09:29:21.46	36.55	42.94	
2025-01-12 09:29:21.67	36.45	42.92	
2025-01-12 09:29:21.87	36.36	42.89	
2025-01-12 09:29:22.08	36.26	42.87	
2025-01-12 09:29:22.28	36.17	42.85	
2025-01-12 09:29:22.49	36.07	42.83	
2025-01-12 09:29:22.69	35.97	42.81	
2025-01-12 09:29:22.90	35.88	42.78	
2025-01-12 09:29:23.10	35.78	42.76	
2025-01-12 09:29:23.31	35.69	42.74	
2025-01-12 09:29:23.51	35.59	42.71	
2025-01-12 09:29:23.72	35.50	42.69	
2025-01-12 09:29:23.92	35.40	42.67	
2025-01-12 09:29:24.13	35.31	42.64	
2025-01-12 09:29:24.34	35.21	42.62	
2025-01-12 09:29:24.54	35.12	42.60	
2025-01-12 09:29:24.75	35.02	42.57	
2025-01-12 09:29:24.95	34.93	42.55	
2025-01-12 09:29:25.16	34.83	42.53	
2025-01-12 09:29:25.36	34.74	42.50	
2025-01-12 09:29:25.57	34.64	42.48	
2025-01-12 09:29:25.77	34.55	42.46	
2025-01-12 09:29:25.98	34.46	42.43	
2025-01-12 09:29:26.18	34.36	42.41	
2025-01-12 09:29:26.39	34.27	42.38	
2025-01-12 09:29:26.59	34.18	42.36	
2025-01-12 09:29:26.80	34.08	42.34	
2025-01-12 09:29:27.00	33.99	42.31	
2025-01-12 09:29:27.21	33.90	42.29	
2025-01-12 09:29:27.42	33.80	42.26	
2025-01-12 09:29:27.62	33.71	42.24	
2025-01-12 09:29:27.83	33.62	42.22	
2025-01-12 09:29:28.03	33.53	42.19	
2025-01-12 09:29:28.24	33.43	42.17	
2025-01-12 09:29:28.44	33.34	42.14	
2025-01-12 09:29:28.65	33.25	42.12	
2025-01-12 09:29:28.85	33.16	42.09	
2025-01-12 09:29:29.06	33.07	42.07	
2025-01-12 09:29:29.27	32.97	42.04	
2025-01-12 09:29:29.47	32.88	42.02	
2025-01-12 09:29:29.67	32.79	41.99	
2025-01-12 09:29:29.88	32.70	41.97	
2025-01-12 09:29:30.08	32.61	41.94	
2025-01-12 09:29:30.29	32.52	41.92	
2025-01-12 09:29:30.49	32.43	41.89	
2025-01-12 09:29:30.70	32.34	41.87	
2025-01-12 09:29:30.90	32.25	41.84	
2025-01-12 09:29:31.11	32.16	41.82	
2025-01-12 09:29:31.31	32.07	41.79	
2025-01-12 09:29:31.52	31.98	41.77	
2025-01-12 09:29:31.72	31.89	41.74	
2025-01-12 09:29:31.93	31.80	41.71	
2025-01-12 09:29:32.13	31.71	41.69	
2025-01-12 09:29:32.34	31.62	41.66	
2025-01-12 09:29:32.54	31.53	41.64	
2025-01-12 09:29:32.75	31.44	41.61	
2025-01-12 09:29:32.95	31.36	41.59	
2025-01-12 09:29:33.16	31.27	41.56	
2025-01-12 09:29:33.37	31.17	41.53	
2025-01-12 09:29:33.58	31.08	41.51	
2025-01-12 09:29:33.78	31.00	41.48	
2025-01-12 09:29:33.99	30.91	41.45	
2025-01-12 09:29:34.19	30.82	41.43	
2025-01-12 09:29:34.40	30.73	41.40	
2025-01-12 09:29:34.60	30.65	41.37	
2025-01-12 09:29:34.81	30.56	41.35	
2025-01-12 09:29:35.01	30.47	41.32	
2025-01-12 09:29:35.22	30.38	41.29	
2025-01-12 09:29:35.42	30.30	41.27	
2025-01-12 09:29:35.63	30.21	41.24	
2025-01-12 09:29:35.83	30.12	41.21	
2025-01-12 09:29:36.04	30.03	41.19	
2025-01-12 09:29:36.24	29.95	41.16	
2025-01-12 09:29:36.45	29.86	41.13	
2025-01-12 09:29:36.65	29.78	41.11	
2025-01-12 09:29:36.86	29.69	41.08	
2025-01-12 09:29:37.06	29.61	41.05	
2025-01-12 09:29:37.26	29.52	41.03	
2025-01-12 09:29:37.47	29.43	41.00	
2025-01-12 09:29:37.68	29.35	40.97	
2025-01-12 09:29:37.88	29.26	40.94	
2025-01-12 09:29:38.09	29.18	40.92	
2025-01-12 09:29:38.29	29.09	40.89	
2025-01-12 09:29:38.50	29.01	40.86	
2025-01-12 09:29:38.70	28.92	40.83	
2025-01-12 09:29:38.91	28.84	40.81	
2025-01-12 09:29:39.11	28.75	40.78	
2025-01-12 09:29:39.32	28.67	40.75	
2025-01-12 09:29:39.52	28.59	40.72	
2025-01-12 09:29:39.73	28.50	40.70	
2025-01-12 09:29:39.93	28.42	40.67	
2025-01-12 09:29:40.14	28.33	40.64	
2025-01-12 09:29:40.34	28.25	40.61	
2025-01-12 09:29:40.55	28.17	40.58	
2025-01-12 09:29:40.76	28.08	40.55	
2025-01-12 09:29:40.96	28.00	40.53	
2025-01-12 09:29:41.17	27.91	40.50	
2025-01-12 09:29:41.37	27.83	40.47	
2025-01-12 09:29:41.57	27.75	40.44	
2025-01-12 09:29:41.78	27.67	40.42	
2025-01-12 09:29:41.99	27.58	40.39	
2025-01-12 09:29:42.19	27.50	40.36	
2025-01-12 09:29:42.40	27.42	40.33	
2025-01-12 09:29:42.60	27.34	40.30	
2025-01-12 09:29:42.81	27.26	40.27	
2025-01-12 09:29:43.01	27.18	40.24	
2025-01-12 09:29:43.22	27.09	40.22	
2025-01-12 09:29:43.43	27.01	40.19	
2025-01-12 09:29:43.63	26.93	40.16	
2025-01-12 09:29:43.83	26.85	40.13	
2025-01-12 09:29:44.04	26.77	40.10	
2025-01-12 09:29:44.24	26.69	40.07	
2025-01-12 09:29:44.45	26.61	40.04	
2025-01-12 09:29:44.65	26.53	40.02	
2025-01-12 09:29:44.86	26.45	39.99	
2025-01-12 09:29:45.06	26.37	39.96	
2025-01-12 09:29:45.27	26.29	39.93	
2025-01-12 09:29:45.47	26.21	39.90	
2025-01-12 09:29:45.68	26.13	39.87	
2025-01-12 09:29:45.88	26.05	39.84	
2025-01-12 09:29:46.09	25.97	39.81	
2025-01-12 09:29:46.29	25.89	39.78	
2025-01-12 09:29:46.50	25.81	39.75	
2025-01-12 09:29:46.70	25.73	39.73	
2025-01-12 09:29:46.91	25.65	39.70	
2025-01-12 09:29:47.11	25.57	39.67	
2025-01-12 09:29:47.32	25.49	39.64	
2025-01-12 09:29:47.52	25.42	39.61	
2025-01-12 09:29:47.73	25.34	39.58	
2025-01-12 09:29:47.93	25.26	39.55	
2025-01-12 09:29:48.14	25.18	39.52	
2025-01-12 09:29:48.35	25.10	39.49	
2025-01-12 09:29:48.56	25.02	39.46	
2025-01-12 09:29:48.77	24.94	39.43	
2025-01-12 09:29:48.97	24.86	39.40	
2025-01-12 09:29:49.17	24.79	39.37	
2025-01-12 09:29:49.38	24.71	39.34	
2025-01-12 09:29:49.58	24.63	39.31	
2025-01-12 09:29:49.79	24.56	39.28	
2025-01-12 09:29:49.99	24.48	39.25	
2025-01-12 09:29:50.20	24.40	39.22	
2025-01-12 09:29:50.41	24.32	39.19	
2025-01-12 09:29:50.61	24.25	39.16	
2025-01-12 09:29:50.82	24.17	39.13	
2025-01-12 09:29:51.02	24.10	39.10	
2025-01-12 09:29:51.22	24.02	39.07	
2025-01-12 09:29:51.43	23.95	39.04	
2025-01-12 09:29:51.64	23.87	39.01	
2025-01-12 09:29:51.84	23.79	38.98	
2025-01-12 09:29:52.05	23.72	38.95	
2025-01-12 09:29:52.26	23.64	38.92	
2025-01-12 09:29:52.47	23.56	38.89	
2025-01-12 09:29:52.68	23.49	38.86	
2025-01-12 09:29:52.88	23.41	38.83	
2025-01-12 09:29:53.09	23.34	38.80	
2025-01-12 09:29:53.29	23.26	38.77	
2025-01-12 09:29:53.50	23.19	38.74	
2025-01-12 09:29:53.70	23.12	38.71	
2025-01-12 09:29:53.91	23.04	38.68	
2025-01-12 09:29:54.11	22.97	38.65	
2025-01-12 09:29:54.32	22.89	38.62	
2025-01-12 09:29:54.52	22.82	38.59	
2025-01-12 09:29:54.73	22.74	38.55	
2025-01-12 09:29:54.93	22.67	38.52	
2025-01-12 09:29:55.14	22.60	38.49	
2025-01-12 09:29:55.36	22.52	38.46	
2025-01-12 09:29:55.56	22.45	38.43	
2025-01-12 09:29:55.77	22.37	38.40	
2025-01-12 09:29:55.97	22.30	38.37	
2025-01-12 09:29:56.18	22.23	38.34	
2025-01-12 09:29:56.38	22.16	38.31	
2025-01-12 09:29:56.59	22.08	38.28	
2025-01-12 09:29:56.79	22.01	38.25	
2025-01-12 09:29:57.00	21.94	38.22	
2025-01-12 09:29:57.20	21.87	38.19	
2025-01-12 09:29:57.41	21.80	38.15	
2025-01-12 09:29:57.61	21.73	38.12	
2025-01-12 09:29:57.82	21.65	38.09	
2025-01-12 09:29:58.02	21.58	38.06	
2025-01-12 09:29:58.23	21.51	38.03	
2025-01-12 09:29:58.43	21.44	38.00	
2025-01-12 09:29:58.64	21.37	37.97	
2025-01-12 09:29:58.84	21.30	37.94	
2025-01-12 09:29:59.05	21.23	37.91	
2025-01-12 09:29:59.25	21.16	37.88	
2025-01-12 09:29:59.46	21.09	37.84	
2025-01-12 09:29:59.66	21.02	37.81	
2025-01-12 09:29:59.87	20.95	37.78	
2025-01-12 09:30:00.07	20.88	37.75	
2025-01-12 09:30:00.28	20.81	37.72	
2025-01-12 09:30:00.49	20.73	37.69	
2025-01-12 09:30:00.69	20.67	37.66	
2025-01-12 09:30:00.90	20.59	37.63	
2025-01-12 09:30:01.10	20.53	37.60	
2025-01-12 09:30:01.31	20.46	37.56	
2025-01-12 09:30:01.51	20.39	37.53	
2025-01-12 09:30:01.73	20.32	37.50	
2025-01-12 09:30:01.94	20.24	37.47	
2025-01-12 09:30:02.14	20.18	37.44	
2025-01-12 09:30:02.35	20.11	37.41	
2025-01-12 09:30:02.55	20.04	37.37	
2025-01-12 09:30:02.76	19.97	37.34	
2025-01-12 09:30:02.96	19.90	37.31	
2025-01-12 09:30:03.17	19.84	37.28	
2025-01-12 09:30:03.37	19.77	37.25	
2025-01-12 09:30:03.58	19.70	37.22	
2025-01-12 09:30:03.79	19.63	37.19	
2025-01-12 09:30:03.99	19.56	37.15	
2025-01-12 09:30:04.19	19.50	37.12	
2025-01-12 09:30:04.40	19.43	37.09	
2025-01-12 09:30:04.61	19.36	37.06	
2025-01-12 09:30:04.82	19.29	37.03	
2025-01-12 09:30:05.02	19.23	37.00	
2025-01-12 09:30:05.23	19.16	36.96	
2025-01-12 09:30:05.43	19.09	36.93	
2025-01-12 09:30:05.64	19.03	36.90	
2025-01-12 09:30:05.84	18.96	36.87	
2025-01-12 09:30:06.04	18.90	36.84	
2025-01-12 09:30:06.25	18.83	36.81	
2025-01-12 09:30:06.45	18.77	36.78	
2025-01-12 09:30:06.66	18.70	36.74	
2025-01-12 09:30:06.86	18.63	36.71	
2025-01-12 09:30:07.07	18.57	36.68	
2025-01-12 09:30:07.27	18.50	36.65	
2025-01-12 09:30:07.48	18.44	36.62	
2025-01-12 09:30:07.69	18.37	36.59	
2025-01-12 09:30:07.89	18.31	36.55	
2025-01-12 09:30:08.10	18.24	36.52	
2025-01-12 09:30:08.30	18.18	36.49	
2025-01-12 09:30:08.51	18.11	36.46	
2025-01-12 09:30:08.71	18.05	36.43	
2025-01-12 09:30:08.92	17.98	36.40	
2025-01-12 09:30:09.12	17.92	36.36	
2025-01-12 09:30:09.32	17.86	36.33	
2025-01-12 09:30:09.53	17.79	36.30	
2025-01-12 09:30:09.73	17.73	36.27	
2025-01-12 09:30:09.94	17.66	36.24	
2025-01-12 09:30:10.14	17.60	36.21	
2025-01-12 09:30:10.35	17.54	36.17	
2025-01-12 09:30:10.55	17.47	36.14	
2025-01-12 09:30:10.76	17.41	36.11	
2025-01-12 09:30:10.96	17.35	36.08	
2025-01-12 09:30:11.17	17.28	36.05	
2025-01-12 09:30:11.37	17.22	36.02	
2025-01-12 09:30:11.58	17.16	35.98	
2025-01-12 09:30:11.78	17.10	35.95	
2025-01-12 09:30:11.99	17.03	35.92	
2025-01-12 09:30:12.20	16.97	35.89	
2025-01-12 09:30:12.40	16.91	35.86	
2025-01-12 09:30:12.60	16.85	35.82	
2025-01-12 09:30:12.81	16.78	35.79	
2025-01-12 09:30:13.01	16.72	35.76	
2025-01-12 09:30:13.22	16.66	35.73	
2025-01-12 09:30:13.42	16.60	35.70	
2025-01-12 09:30:13.63	16.54	35.66	
2025-01-12 09:30:13.83	16.48	35.63	
2025-01-12 09:30:14.04	16.42	35.60	
2025-01-12 09:30:14.25	16.35	35.57	
2025-01-12 09:30:14.45	16.29	35.54	
2025-01-12 09:30:14.65	16.23	35.51	
2025-01-12 09:30:14.86	16.17	35.47	
2025-01-12 09:30:15.06	16.11	35.44	
2025-01-12 09:30:15.27	16.05	35.41	
2025-01-12 09:30:15.47	15.99	35.38	
2025-01-12 09:30:15.68	15.93	35.34	
2025-01-12 09:30:15.88	15.87	35.31	
2025-01-12 09:30:16.09	15.81	35.28	
2025-01-12 09:30:16.29	15.75	35.25	
2025-01-12 09:30:16.50	15.69	35.22	
2025-01-12 09:30:16.70	15.63	35.19	
2025-01-12 09:30:16.91	15.57	35.15	
2025-01-12 09:30:17.11	15.51	35.12	
2025-01-12 09:30:17.32	15.45	35.09	
2025-01-12 09:30:17.52	15.39	35.06	
2025-01-12 09:30:17.73	15.33	35.03	
2025-01-12 09:30:17.93	15.28	34.99	
2025-01-12 09:30:18.14	15.22	34.96	
2025-01-12 09:30:18.34	15.16	34.93	
2025-01-12 09:30:18.55	15.10	34.90	
2025-01-12 09:30:18.75	15.04	34.87	
2025-01-12 09:30:18.96	14.98	34.83	
2025-01-12 09:30:19.16	14.92	34.80	
2025-01-12 09:30:19.37	14.87	34.77	
2025-01-12 09:30:19.58	14.81	34.74	
2025-01-12 09:30:19.78	14.75	34.71	
2025-01-12 09:30:19.99	14.69	34.67	
2025-01-12 09:30:20.19	14.63	34.64	
2025-01-12 09:30:20.40	14.57	34.61	
2025-01-12 09:30:20.60	14.52	34.58	
2025-01-12 09:30:20.81	14.46	34.54	
2025-01-12 09:30:21.01	14.40	34.51	
2025-01-12 09:30:21.22	14.35	34.48	
2025-01-12 09:30:21.43	14.29	34.45	
2025-01-12 09:30:21.63	14.23	34.42	
2025-01-12 09:30:21.84	14.17	34.38	
2025-01-12 09:30:22.05	14.12	34.35	
2025-01-12 09:30:22.26	14.06	34.32	
2025-01-12 09:30:22.46	14.00	34.29	
2025-01-12 09:30:22.67	13.94	34.25	
2025-01-12 09:30:22.87	13.89	34.22	
2025-01-12 09:30:23.08	13.83	34.19	
2025-01-12 09:30:23.28	13.78	34.16	
2025-01-12 09:30:23.49	13.72	34.13	
2025-01-12 09:30:23.70	13.66	34.09	
2025-01-12 09:30:23.90	13.61	34.06	
2025-01-12 09:30:24.10	13.55	34.03	
2025-01-12 09:30:24.31	13.50	34.00	
2025-01-12 09:30:24.51	13.44	33.97	
2025-01-12 09:30:24.72	13.39	33.93	
2025-01-12 09:30:24.93	13.33	33.90	
2025-01-12 09:30:25.13	13.28	33.87	
2025-01-12 09:30:25.34	13.22	33.84	
2025-01-12 09:30:25.54	13.17	33.81	
2025-01-12 09:30:25.75	13.11	33.77	
2025-01-12 09:30:25.95	13.06	33.74	
2025-01-12 09:30:26.16	13.00	33.71	
2025-01-12 09:30:26.36	12.95	33.68	
2025-01-12 09:30:26.57	12.89	33.65	
2025-01-12 09:30:26.77	12.84	33.61	
2025-01-12 09:30:26.98	12.79	33.58	
2025-01-12 09:30:27.18	12.73	33.55	
2025-01-12 09:30:27.39	12.68	33.52	
2025-01-12 09:30:27.59	12.63	33.49	
2025-01-12 09:30:27.80	12.57	33.45	
2025-01-12 09:30:28.00	12.52	33.42	
2025-01-12 09:30:28.21	12.46	33.39	
2025-01-12 09:30:28.41	12.41	33.36	
2025-01-12 09:30:28.62	12.36	33.33	
2025-01-12 09:30:28.82	12.31	33.30	
2025-01-12 09:30:29.03	12.25	33.26	
2025-01-12 09:30:29.23	12.20	33.23	
2025-01-12 09:30:29.44	12.15	33.20	
2025-01-12 09:30:29.64	12.09	33.17	
2025-01-12 09:30:29.85	12.04	33.14	
2025-01-12 09:30:30.06	11.99	33.10	
2025-01-12 09:30:30.26	11.94	33.07	
2025-01-12 09:30:30.47	11.88	33.04	
2025-01-12 09:30:30.67	11.83	33.01	
2025-01-12 09:30:30.88	11.78	32.98	
2025-01-12 09:30:31.08	11.73	32.94	
2025-01-12 09:30:31.29	11.67	32.91	
2025-01-12 09:30:31.49	11.62	32.88	
2025-01-12 09:30:31.70	11.57	32.85	
2025-01-12 09:30:31.90	11.52	32.82	
2025-01-12 09:30:32.11	11.47	32.78	
2025-01-12 09:30:32.31	11.42	32.75	
2025-01-12 09:30:32.52	11.37	32.72	
2025-01-12 09:30:32.72	11.32	32.69	
2025-01-12 09:30:32.93	11.26	32.66	
2025-01-12 09:30:33.13	11.21	32.63	
2025-01-12 09:30:33.34	11.16	32.59	
2025-01-12 09:30:33.55	11.11	32.56	
2025-01-12 09:30:33.75	11.06	32.53	
2025-01-12 09:30:33.96	11.01	32.50	
2025-01-12 09:30:34.16	10.96	32.47	
2025-01-12 09:30:34.37	10.91	32.43	
2025-01-12 09:30:34.57	10.86	32.40	
2025-01-12 09:30:34.78	10.81	32.37	
2025-01-12 09:30:34.98	10.76	32.34	
2025-01-12 09:30:35.19	10.71	32.31	
2025-01-12 09:30:35.40	10.66	32.28	
2025-01-12 09:30:35.60	10.61	32.24	
2025-01-12 09:30:35.81	10.56	32.21	
2025-01-12 09:30:36.01	10.51	32.18	
2025-01-12 09:30:36.22	10.46	32.15	
2025-01-12 09:30:36.42	10.41	32.12	
2025-01-12 09:30:36.63	10.36	32.09	
2025-01-12 09:30:36.83	10.31	32.06	
2025-01-12 09:30:37.03	10.26	32.02	
2025-01-12 09:30:37.24	10.21	31.99	
2025-01-12 09:30:37.44	10.17	31.96	
2025-01-12 09:30:37.66	10.11	31.93	
2025-01-12 09:30:37.86	10.07	31.90	
2025-01-12 09:30:38.07	10.02	31.86	
2025-01-12 09:30:38.28	9.97	31.83	
2025-01-12 09:30:38.48	9.92	31.80	
2025-01-12 09:30:38.69	9.87	31.77	
2025-01-12 09:30:38.89	9.82	31.74	
2025-01-12 09:30:39.09	9.78	31.71	
2025-01-12 09:30:39.30	9.73	31.68	
2025-01-12 09:30:39.51	9.68	31.64	
2025-01-12 09:30:39.71	9.63	31.61	
2025-01-12 09:30:39.92	9.58	31.58	
2025-01-12 09:30:40.12	9.54	31.55	
2025-01-12 09:30:40.33	9.49	31.52	
2025-01-12 09:30:40.53	9.44	31.49	
2025-01-12 09:30:40.74	9.39	31.45	
2025-01-12 09:30:40.95	9.35	31.42	
2025-01-12 09:30:41.15	9.30	31.39	
2025-01-12 09:30:41.36	9.25	31.36	
2025-01-12 09:30:41.56	9.21	31.33	
2025-01-12 09:30:41.77	9.16	31.30	
2025-01-12 09:30:41.97	9.11	31.27	
2025-01-12 09:30:42.18	9.06	31.23	
2025-01-12 09:30:42.38	9.02	31.20	
2025-01-12 09:30:42.59	8.97	31.17	
2025-01-12 09:30:42.79	8.93	31.14	
2025-01-12 09:30:43.00	8.88	31.11	
2025-01-12 09:30:43.20	8.83	31.08	
2025-01-12 09:30:43.41	8.79	31.05	
2025-01-12 09:30:43.61	8.74	31.02	
2025-01-12 09:30:43.82	8.69	30.98	
2025-01-12 09:30:44.03	8.65	30.95	
2025-01-12 09:30:44.24	8.60	30.92	
2025-01-12 09:30:44.44	8.56	30.89	
2025-01-12 09:30:44.64	8.51	30.86	
2025-01-12 09:30:44.85	8.46	30.83	
2025-01-12 09:30:45.05	8.42	30.80	
2025-01-12 09:30:45.26	8.37	30.77	
2025-01-12 09:30:45.46	8.33	30.74	
2025-01-12 09:30:45.67	8.28	30.70	
2025-01-12 09:30:45.87	8.24	30.67	
2025-01-12 09:30:46.08	8.19	30.64	
2025-01-12 09:30:46.28	8.15	30.61	
2025-01-12 09:30:46.49	8.10	30.58	
2025-01-12 09:30:46.71	8.06	30.55	
2025-01-12 09:30:46.91	8.01	30.52	
2025-01-12 09:30:47.12	7.97	30.48	
2025-01-12 09:30:47.32	7.92	30.45	
2025-01-12 09:30:47.53	7.88	30.42	
2025-01-12 09:30:47.73	7.83	30.39	
2025-01-12 09:30:47.94	7.79	30.36	
2025-01-12 09:30:48.15	7.74	30.33	
2025-01-12 09:30:48.35	7.70	30.30	
2025-01-12 09:30:48.56	7.66	30.27	
2025-01-12 09:30:48.76	7.61	30.24	
2025-01-12 09:30:48.97	7.57	30.20	
2025-01-12 09:30:49.17	7.53	30.17	
2025-01-12 09:30:49.38	7.48	30.14	
2025-01-12 09:30:49.59	7.44	30.11	
2025-01-12 09:30:49.81	7.39	30.08	
2025-01-12 09:30:50.01	7.35	30.05	
2025-01-12 09:30:50.22	7.30	30.02	
2025-01-12 09:30:50.42	7.26	29.99	
2025-01-12 09:30:50.63	7.22	29.96	
2025-01-12 09:30:50.83	7.18	29.93	
2025-01-12 09:30:51.04	7.13	29.89	
2025-01-12 09:30:51.24	7.09	29.86	
2025-01-12 09:30:51.45	7.05	29.83	
2025-01-12 09:30:51.65	7.01	29.80	
2025-01-12 09:30:51.86	6.96	29.77	
2025-01-12 09:30:52.06	6.92	29.74	
2025-01-12 09:30:52.27	6.88	29.71	
2025-01-12 09:30:52.47	6.84	29.68	
2025-01-12 09:30:52.68	6.79	29.65	
2025-01-12 09:30:52.89	6.75	29.62	
2025-01-12 09:30:53.09	6.71	29.59	
2025-01-12 09:30:53.30	6.66	29.56	
2025-01-12 09:30:53.50	6.62	29.53	
2025-01-12 09:30:53.70	6.58	29.50	
2025-01-12 09:30:53.91	6.54	29.47	
2025-01-12 09:30:54.11	6.50	29.44	
2025-01-12 09:30:54.32	6.46	29.40	
2025-01-12 09:30:54.52	6.42	29.37	
2025-01-12 09:30:54.73	6.37	29.34	
2025-01-12 09:30:54.93	6.33	29.31	
2025-01-12 09:30:55.14	6.29	29.28	
2025-01-12 09:30:55.34	6.25	29.25	
2025-01-12 09:30:55.55	6.21	29.22	
2025-01-12 09:30:55.75	6.17	29.19	
2025-01-12 09:30:55.96	6.13	29.16	
2025-01-12 09:30:56.16	6.09	29.13	
2025-01-12 09:30:56.36	6.05	29.10	
2025-01-12 09:30:56.57	6.01	29.07	
2025-01-12 09:30:56.78	5.96	29.04	
2025-01-12 09:30:56.98	5.92	29.01	
2025-01-12 09:30:57.19	5.88	28.98	
2025-01-12 09:30:57.39	5.84	28.95	
2025-01-12 09:30:57.60	5.80	28.92	
2025-01-12 09:30:57.80	5.76	28.89	
2025-01-12 09:30:58.01	5.72	28.86	
2025-01-12 09:30:58.21	5.68	28.83	
2025-01-12 09:30:58.42	5.64	28.80	
2025-01-12 09:30:58.62	5.60	28.77	
2025-01-12 09:30:58.83	5.56	28.74	
2025-01-12 09:30:59.05	5.52	28.71	
2025-01-12 09:30:59.25	5.48	28.68	
2025-01-12 09:30:59.46	5.44	28.65	
2025-01-12 09:30:59.66	5.40	28.62	
2025-01-12 09:30:59.87	5.36	28.59	
2025-01-12 09:31:00.07	5.32	28.56	
2025-01-12 09:31:00.28	5.28	28.53	
2025-01-12 09:31:00.48	5.24	28.50	
2025-01-12 09:31:00.69	5.20	28.47	
2025-01-12 09:31:00.89	5.17	28.44	
2025-01-12 09:31:01.10	5.13	28.41	
2025-01-12 09:31:01.30	5.09	28.38	
2025-01-12 09:31:01.51	5.05	28.35	
2025-01-12 09:31:01.71	5.01	28.32	
2025-01-12 09:31:01.92	4.97	28.29	
2025-01-12 09:31:02.13	4.93	28.26	
2025-01-12 09:31:02.33	4.89	28.23	
2025-01-12 09:31:02.54	4.85	28.20	
2025-01-12 09:31:02.74	4.82	28.17	
2025-01-12 09:31:02.96	4.77	28.14	
2025-01-12 09:31:03.16	4.74	28.11	
2025-01-12 09:31:03.37	4.70	28.08	
2025-01-12 09:31:03.57	4.66	28.05	
2025-01-12 09:31:03.78	4.62	28.02	
2025-01-12 09:31:03.98	4.59	27.99	
2025-01-12 09:31:04.19	4.55	27.96	
2025-01-12 09:31:04.39	4.51	27.93	
2025-01-12 09:31:04.60	4.47	27.90	
2025-01-12 09:31:04.80	4.43	27.87	
2025-01-12 09:31:05.01	4.40	27.84	
2025-01-12 09:31:05.21	4.36	27.81	
2025-01-12 09:31:05.42	4.32	27.78	
2025-01-12 09:31:05.62	4.28	27.75	
2025-01-12 09:31:05.83	4.25	27.72	
2025-01-12 09:31:06.03	4.21	27.69	
2025-01-12 09:31:06.24	4.17	27.66	
2025-01-12 09:31:06.44	4.13	27.63	
2025-01-12 09:31:06.65	4.10	27.60	
2025-01-12 09:31:06.85	4.06	27.57	
2025-01-12 09:31:07.06	4.02	27.54	
2025-01-12 09:31:07.26	3.99	27.51	
2025-01-12 09:31:07.47	3.95	27.48	
2025-01-12 09:31:07.67	3.91	27.46	
2025-01-12 09:31:07.88	3.88	27.43	
2025-01-12 09:31:08.08	3.84	27.40	
2025-01-12 09:31:08.29	3.80	27.37	
2025-01-12 09:31:08.49	3.77	27.34	
2025-01-12 09:31:08.70	3.73	27.31	
2025-01-12 09:31:08.90	3.69	27.28	
2025-01-12 09:31:09.11	3.66	27.25	
2025-01-12 09:31:09.31	3.62	27.22	
2025-01-12 09:31:09.52	3.58	27.19	
2025-01-12 09:31:09.72	3.55	27.16	
2025-01-12 09:31:09.93	3.51	27.13	
2025-01-12 09:31:10.13	3.48	27.11	
2025-01-12 09:31:10.34	3.44	27.08	
2025-01-12 09:31:10.54	3.41	27.05	
2025-01-12 09:31:10.75	3.37	27.02	
2025-01-12 09:31:10.96	3.33	26.99	
2025-01-12 09:31:11.16	3.30	26.96	
2025-01-12 09:31:11.37	3.26	26.93	
2025-01-12 09:31:11.57	3.23	26.90	
2025-01-12 09:31:11.78	3.19	26.87	
2025-01-12 09:31:11.98	3.16	26.84	
2025-01-12 09:31:12.19	3.12	26.81	
2025-01-12 09:31:12.39	3.09	26.79	
2025-01-12 09:31:12.60	3.05	26.76	
2025-01-12 09:31:12.80	3.02	26.73	
2025-01-12 09:31:13.01	2.98	26.70	
2025-01-12 09:31:13.21	2.95	26.67	
2025-01-12 09:31:13.42	2.91	26.64	
2025-01-12 09:31:13.62	2.88	26.61	
2025-01-12 09:31:13.83	2.84	26.58	
2025-01-12 09:31:14.03	2.81	26.55	
2025-01-12 09:31:14.24	2.77	26.52	
2025-01-12 09:31:14.46	2.73	26.49	
2025-01-12 09:31:14.66	2.70	26.47	
2025-01-12 09:31:14.87	2.67	26.44	
2025-01-12 09:31:15.08	2.63	26.41	
2025-01-12 09:31:15.28	2.60	26.38	
2025-01-12 09:31:15.48	2.56	26.35	
2025-01-12 09:31:15.69	2.53	26.32	
2025-01-12 09:31:15.90	2.49	26.29	
2025-01-12 09:31:16.10	2.46	26.26	
2025-01-12 09:31:16.31	2.43	26.24	
2025-01-12 09:31:16.52	2.39	26.21	
2025-01-12 09:31:16.73	2.36	26.18	
2025-01-12 09:31:16.94	2.32	26.15	
2025-01-12 09:31:17.14	2.29	26.12	
2025-01-12 09:31:17.35	2.25	26.09	
2025-01-12 09:31:17.57	2.22	26.06	
2025-01-12 09:31:17.77	2.18	26.03	
2025-01-12 09:31:17.98	2.15	26.00	
2025-01-12 09:31:18.18	2.12	25.98	
2025-01-12 09:31:18.39	2.08	25.95	
2025-01-12 09:31:18.59	2.05	25.92	
2025-01-12 09:31:18.80	2.02	25.89	
2025-01-12 09:31:19.01	1.98	25.86	
2025-01-12 09:31:19.21	1.95	25.83	
2025-01-12 09:31:19.42	1.92	25.80	
2025-01-12 09:31:19.62	1.88	25.78	
2025-01-12 09:31:19.83	1.85	25.75	
2025-01-12 09:31:20.03	1.82	25.72	
2025-01-12 09:31:20.24	1.79	25.69	
2025-01-12 09:31:20.45	1.75	25.66	
2025-01-12 09:31:20.65	1.72	25.64	
2025-01-12 09:31:20.87	1.68	25.61	
2025-01-12 09:31:21.07	1.65	25.58	
2025-01-12 09:31:21.28	1.62	25.55	
2025-01-12 09:31:21.48	1.59	25.52	
2025-01-12 09:31:21.69	1.56	25.49	
2025-01-12 09:31:21.90	1.52	25.46	
2025-01-12 09:31:22.10	1.49	25.44	
2025-01-12 09:31:22.31	1.46	25.41	
2025-01-12 09:31:22.51	1.43	25.38	
2025-01-12 09:31:22.72	1.39	25.35	
2025-01-12 09:31:22.93	1.36	25.32	
2025-01-12 09:31:23.14	1.33	25.29	
2025-01-12 09:31:23.34	1.30	25.27	
2025-01-12 09:31:23.55	1.26	25.24	
2025-01-12 09:31:23.76	1.23	25.21	
2025-01-12 09:31:23.96	1.20	25.18	
2025-01-12 09:31:24.16	1.17	25.16	
2025-01-12 09:31:24.37	1.14	25.13	
2025-01-12 09:31:24.58	1.10	25.10	
2025-01-12 09:31:24.78	1.07	25.07	
2025-01-12 09:31:24.99	1.04	25.04	
2025-01-12 09:31:25.19	1.01	25.02	
2025-01-12 09:31:25.40	0.98	24.99	
2025-01-12 09:31:25.60	0.95	24.96	
2025-01-12 09:31:25.81	0.92	24.93	
2025-01-12 09:31:26.01	0.89	24.91	
2025-01-12 09:31:26.22	0.85	24.88	
2025-01-12 09:31:26.42	0.82	24.85	
2025-01-12 09:31:26.63	0.79	24.82	
2025-01-12 09:31:26.84	0.76	24.79	
2025-01-12 09:31:27.04	0.73	24.77	
2025-01-12 09:31:27.24	0.70	24.74	
2025-01-12 09:31:27.45	0.67	24.71	
2025-01-12 09:31:27.65	0.64	24.69	
2025-01-12 09:31:27.86	0.61	24.66	
2025-01-12 09:31:28.07	0.58	24.63	
2025-01-12 09:31:28.28	0.54	24.60	
2025-01-12 09:31:28.49	0.51	24.57	
2025-01-12 09:31:28.69	0.48	24.55	
2025-01-12 09:31:28.90	0.45	24.52	
2025-01-12 09:31:29.11	0.42	24.49	
2025-01-12 09:31:29.31	0.39	24.46	
2025-01-12 09:31:29.51	0.36	24.44	
2025-01-12 09:31:29.72	0.33	24.41	
2025-01-12 09:31:29.93	0.30	24.38	
2025-01-12 09:31:30.13	0.27	24.35	
2025-01-12 09:31:30.34	0.24	24.33	
2025-01-12 09:31:30.54	0.21	24.30	
2025-01-12 09:31:30.75	0.18	24.27	
2025-01-12 09:31:30.95	0.15	24.25	
2025-01-12 09:31:31.16	0.12	24.22	
2025-01-12 09:31:31.36	0.09	24.19	
2025-01-12 09:31:31.57	0.06	24.16	
2025-01-12 09:31:31.78	0.03	24.14	
2025-01-12 09:31:31.98	0.00	24.11	
2025-01-12 09:31:32.19	359.97	24.08	
2025-01-12 09:31:32.39	359.94	24.06	
2025-01-12 09:31:32.59	359.91	24.03	
2025-01-12 09:31:32.80	359.88	24.00	
2025-01-12 09:31:33.00	359.86	23.98	
2025-01-12 09:31:33.21	359.83	23.95	
2025-01-12 09:31:33.42	359.80	23.92	
2025-01-12 09:31:33.62	359.77	23.89	
2025-01-12 09:31:33.83	359.74	23.87	
2025-01-12 09:31:34.03	359.71	23.84	
2025-01-12 09:31:34.23	359.68	23.81	
2025-01-12 09:31:34.44	359.65	23.79	
2025-01-12 09:31:34.64	359.62	23.76	
2025-01-12 09:31:34.85	359.59	23.73	
2025-01-12 09:31:35.06	359.56	23.71	
2025-01-12 09:31:35.26	359.53	23.68	
2025-01-12 09:31:35.47	359.51	23.65	
2025-01-12 09:31:35.67	359.48	23.63	
2025-01-12 09:31:35.88	359.45	23.60	
2025-01-12 09:31:36.08	359.42	23.57	
2025-01-12 09:31:36.29	359.39	23.54	
2025-01-12 09:31:36.49	359.36	23.52	
2025-01-12 09:31:36.70	359.33	23.49	
2025-01-12 09:31:36.90	359.31	23.47	
2025-01-12 09:31:37.11	359.28	23.44	
2025-01-12 09:31:37.31	359.25	23.41	
2025-01-12 09:31:37.52	359.22	23.39	
2025-01-12 09:31:37.72	359.19	23.36	
2025-01-12 09:31:37.92	359.17	23.33	
2025-01-12 09:31:38.13	359.14	23.31	
2025-01-12 09:31:38.34	359.11	23.28	
2025-01-12 09:31:38.54	359.08	23.25	
2025-01-12 09:31:38.75	359.05	23.23	
2025-01-12 09:31:38.97	359.02	23.20	
2025-01-12 09:31:39.17	359.00	23.17	
2025-01-12 09:31:39.38	358.97	23.15	
2025-01-12 09:31:39.58	358.94	23.12	
2025-01-12 09:31:39.79	358.91	23.09	
2025-01-12 09:31:39.99	358.88	23.07	
2025-01-12 09:31:40.20	358.86	23.04	
2025-01-12 09:31:40.40	358.83	23.01	
2025-01-12 09:31:40.61	358.80	22.99	
2025-01-12 09:31:40.82	358.77	22.96	
2025-01-12 09:31:41.02	358.75	22.94	
2025-01-12 09:31:41.23	358.72	22.91	
2025-01-12 09:31:41.43	358.69	22.88	
2025-01-12 09:31:41.64	358.66	22.86	
2025-01-12 09:31:41.85	358.64	22.83	
2025-01-12 09:31:42.05	358.61	22.80	
2025-01-12 09:31:42.25	358.58	22.78	
2025-01-12 09:31:42.46	358.56	22.75	
2025-01-12 09:31:42.66	358.53	22.73	
2025-01-12 09:31:42.87	358.50	22.70	
2025-01-12 09:31:43.07	358.47	22.67	
2025-01-12 09:31:43.28	358.45	22.65	
2025-01-12 09:31:43.48	358.42	22.62	
2025-01-12 09:31:43.69	358.39	22.60	
2025-01-12 09:31:43.89	358.37	22.57	
2025-01-12 09:31:44.10	358.34	22.54	
2025-01-12 09:31:44.30	358.31	22.52	
2025-01-12 09:31:44.51	358.29	22.49	
2025-01-12 09:31:44.72	358.26	22.47	
2025-01-12 09:31:44.92	358.23	22.44	
2025-01-12 09:31:45.13	358.21	22.41	
2025-01-12 09:31:45.33	358.18	22.39	
2025-01-12 09:31:45.53	358.15	22.36	
2025-01-12 09:31:45.74	358.13	22.34	
2025-01-12 09:31:45.94	358.10	22.31	
2025-01-12 09:31:46.15	358.08	22.29	
2025-01-12 09:31:46.37	358.05	22.26	
2025-01-12 09:31:46.57	358.02	22.23	
2025-01-12 09:31:46.78	357.99	22.21	
2025-01-12 09:31:46.98	357.97	22.18	
2025-01-12 09:31:47.19	357.94	22.16	
2025-01-12 09:31:47.39	357.92	22.13	
2025-01-12 09:31:47.60	357.89	22.10	
2025-01-12 09:31:47.80	357.87	22.08	
2025-01-12 09:31:48.01	357.84	22.05	
2025-01-12 09:31:48.22	357.81	22.03	
2025-01-12 09:31:48.42	357.79	22.00	
2025-01-12 09:31:48.63	357.76	21.98	
2025-01-12 09:31:48.83	357.74	21.95	
2025-01-12 09:31:49.04	357.71	21.93	
2025-01-12 09:31:49.24	357.68	21.90	
2025-01-12 09:31:49.44	357.66	21.88	
2025-01-12 09:31:49.65	357.63	21.85	
2025-01-12 09:31:49.85	357.61	21.82	
2025-01-12 09:31:50.06	357.58	21.80	
2025-01-12 09:31:50.26	357.56	21.77	
2025-01-12 09:31:50.47	357.53	21.75	
2025-01-12 09:31:50.67	357.51	21.72	
2025-01-12 09:31:50.88	357.48	21.70	
2025-01-12 09:31:51.09	357.46	21.67	
2025-01-12 09:31:51.29	357.43	21.65	
2025-01-12 09:31:51.50	357.41	21.62	
2025-01-12 09:31:51.70	357.38	21.60	
2025-01-12 09:31:51.91	357.36	21.57	
2025-01-12 09:31:52.11	357.33	21.55	
2025-01-12 09:31:52.32	357.31	21.52	
2025-01-12 09:31:52.52	357.28	21.50	
2025-01-12 09:31:52.74	357.25	21.47	
2025-01-12 09:31:52.95	357.23	21.44	
2025-01-12 09:31:53.15	357.20	21.42	
2025-01-12 09:31:53.36	357.18	21.39	
2025-01-12 09:31:53.56	357.16	21.37	
2025-01-12 09:31:53.77	357.13	21.34	
2025-01-12 09:31:53.97	357.11	21.32	
2025-01-12 09:31:54.18	357.08	21.29	
2025-01-12 09:31:54.38	357.06	21.27	
2025-01-12 09:31:54.59	357.03	21.24	
2025-01-12 09:31:54.79	357.01	21.22	
2025-01-12 09:31:54.99	356.98	21.19	
2025-01-12 09:31:55.20	356.96	21.17	
2025-01-12 09:31:55.41	356.93	21.14	
2025-01-12 09:31:55.61	356.91	21.12	
2025-01-12 09:31:55.82	356.89	21.09	
2025-01-12 09:31:56.02	356.86	21.07	
2025-01-12 09:31:56.23	356.84	21.04	
2025-01-12 09:31:56.43	356.81	21.02	
2025-01-12 09:31:56.64	356.79	21.00	
2025-01-12 09:31:56.84	356.77	20.97	
2025-01-12 09:31:57.06	356.74	20.94	
2025-01-12 09:31:57.26	356.72	20.92	
2025-01-12 09:31:57.46	356.69	20.90	
2025-01-12 09:31:57.67	356.67	20.87	
2025-01-12 09:31:57.87	356.64	20.85	
2025-01-12 09:31:58.08	356.62	20.82	
2025-01-12 09:31:58.28	356.60	20.80	
2025-01-12 09:31:58.49	356.57	20.77	
2025-01-12 09:31:58.70	356.55	20.75	
2025-01-12 09:31:58.90	356.53	20.72	
2025-01-12 09:31:59.11	356.50	20.70	
2025-01-12 09:31:59.31	356.48	20.67	
2025-01-12 09:31:59.52	356.45	20.65	
2025-01-12 09:31:59.72	356.43	20.63	
2025-01-12 09:31:59.93	356.41	20.60	
2025-01-12 09:32:00.13	356.38	20.58	
2025-01-12 09:32:00.34	356.36	20.55	
2025-01-12 09:32:00.54	356.34	20.53	
2025-01-12 09:32:00.75	356.31	20.50	
2025-01-12 09:32:00.95	356.29	20.48	
2025-01-12 09:32:01.15	356.27	20.46	
2025-01-12 09:32:01.36	356.24	20.43	
2025-01-12 09:32:01.56	356.22	20.41	
2025-01-12 09:32:01.77	356.20	20.38	
2025-01-12 09:32:01.97	356.18	20.36	
2025-01-12 09:32:02.18	356.15	20.33	
2025-01-12 09:32:02.38	356.13	20.31	
2025-01-12 09:32:02.59	356.11	20.29	
2025-01-12 09:32:02.79	356.08	20.26	
2025-01-12 09:32:03.00	356.06	20.24	
2025-01-12 09:32:03.21	356.04	20.21	
2025-01-12 09:32:03.41	356.01	20.19	
2025-01-12 09:32:03.61	355.99	20.17	
2025-01-12 09:32:03.82	355.97	20.14	
2025-01-12 09:32:04.03	355.95	20.12	
2025-01-12 09:32:04.23	355.92	20.09	
2025-01-12 09:32:04.43	355.90	20.07	
2025-01-12 09:32:04.64	355.88	20.04	
2025-01-12 09:32:04.84	355.86	20.02	
2025-01-12 09:32:05.05	355.83	20.00	
2025-01-12 09:32:05.25	355.81	19.97	
2025-01-12 09:32:05.46	355.79	19.95	
2025-01-12 09:32:05.66	355.77	19.92	
2025-01-12 09:32:05.87	355.74	19.90	
2025-01-12 09:32:06.07	355.72	19.88	
2025-01-12 09:32:06.28	355.70	19.85	
2025-01-12 09:32:06.48	355.68	19.83	
2025-01-12 09:32:06.68	355.65	19.81	
2025-01-12 09:32:06.89	355.63	19.78	
2025-01-12 09:32:07.09	355.61	19.76	
2025-01-12 09:32:07.30	355.59	19.73	
2025-01-12 09:32:07.50	355.57	19.71	
2025-01-12 09:32:07.72	355.54	19.69	
2025-01-12 09:32:07.93	355.52	19.66	
2025-01-12 09:32:08.13	355.50	19.64	
2025-01-12 09:32:08.34	355.48	19.61	
2025-01-12 09:32:08.54	355.45	19.59	
2025-01-12 09:32:08.76	355.43	19.57	
2025-01-12 09:32:08.96	355.41	19.54	
2025-01-12 09:32:09.17	355.39	19.52	
2025-01-12 09:32:09.37	355.37	19.50	
2025-01-12 09:32:09.58	355.34	19.47	
2025-01-12 09:32:09.78	355.32	19.45	
2025-01-12 09:32:09.99	355.30	19.42	
2025-01-12 09:32:10.19	355.28	19.40	
2025-01-12 09:32:10.40	355.26	19.38	
2025-01-12 09:32:10.61	355.24	19.35	
2025-01-12 09:32:10.81	355.21	19.33	
2025-01-12 09:32:11.01	355.19	19.31	
2025-01-12 09:32:11.22	355.17	19.28	
2025-01-12 09:32:11.43	355.15	19.26	
2025-01-12 09:32:11.63	355.13	19.24	
2025-01-12 09:32:11.84	355.11	19.21	
2025-01-12 09:32:12.04	355.09	19.19	
2025-01-12 09:32:12.25	355.06	19.17	
2025-01-12 09:32:12.45	355.04	19.14	
2025-01-12 09:32:12.66	355.02	19.12	
2025-01-12 09:32:12.87	355.00	19.09	
2025-01-12 09:32:13.08	354.98	19.07	
2025-01-12 09:32:13.29	354.96	19.05	
2025-01-12 09:32:13.49	354.94	19.02	
2025-01-12 09:32:13.70	354.91	19.00	
2025-01-12 09:32:13.91	354.89	18.98	
2025-01-12 09:32:14.11	354.87	18.95	
2025-01-12 09:32:14.31	354.85	18.93	
2025-01-12 09:32:14.52	354.83	18.91	
2025-01-12 09:32:14.73	354.81	18.88	
2025-01-12 09:32:14.93	354.79	18.86	
2025-01-12 09:32:15.13	354.77	18.84	
2025-01-12 09:32:15.34	354.75	18.82	
2025-01-12 09:32:15.54	354.73	18.79	
2025-01-12 09:32:15.75	354.70	18.77	
2025-01-12 09:32:15.95	354.68	18.75	
2025-01-12 09:32:16.16	354.66	18.72	
2025-01-12 09:32:16.38	354.64	18.70	
2025-01-12 09:32:16.58	354.62	18.68	
2025-01-12 09:32:16.79	354.60	18.65	
2025-01-12 09:32:16.99	354.58	18.63	
2025-01-12 09:32:17.19	354.56	18.61	
2025-01-12 09:32:17.40	354.54	18.58	
2025-01-12 09:32:17.61	354.52	18.56	
2025-01-12 09:32:17.81	354.50	18.54	
2025-01-12 09:32:18.02	354.48	18.52	
2025-01-12 09:32:18.22	354.46	18.49	
2025-01-12 09:32:18.43	354.44	18.47	
2025-01-12 09:32:18.63	354.42	18.45	
2025-01-12 09:32:18.84	354.40	18.42	
2025-01-12 09:32:19.05	354.38	18.40	
2025-01-12 09:32:19.25	354.36	18.38	
2025-01-12 09:32:19.45	354.34	18.36	
2025-01-12 09:32:19.66	354.32	18.33	
2025-01-12 09:32:19.87	354.29	18.31	
2025-01-12 09:32:20.07	354.28	18.29	
2025-01-12 09:32:20.28	354.25	18.26	
2025-01-12 09:32:20.48	354.24	18.24	
2025-01-12 09:32:20.69	354.21	18.22	
2025-01-12 09:32:20.89	354.20	18.20	
2025-01-12 09:32:21.10	354.17	18.17	
2025-01-12 09:32:21.30	354.16	18.15	
2025-01-12 09:32:21.51	354.13	18.13	
2025-01-12 09:32:21.71	354.12	18.11	
2025-01-12 09:32:21.92	354.10	18.08	
2025-01-12 09:32:22.13	354.08	18.06	
2025-01-12 09:32:22.33	354.06	18.04	
2025-01-12 09:32:22.54	354.04	18.02	
2025-01-12 09:32:22.74	354.02	17.99	
2025-01-12 09:32:22.94	354.00	17.97	
2025-01-12 09:32:23.15	353.98	17.95	
2025-01-12 09:32:23.36	353.96	17.93	
2025-01-12 09:32:23.56	353.94	17.90	
2025-01-12 09:32:23.76	353.92	17.88	
2025-01-12 09:32:23.97	353.90	17.86	
2025-01-12 09:32:24.17	353.88	17.84	
2025-01-12 09:32:24.38	353.86	17.82	
2025-01-12 09:32:24.58	353.84	17.79	
2025-01-12 09:32:24.79	353.82	17.77	
2025-01-12 09:32:24.99	353.80	17.75	
2025-01-12 09:32:25.20	353.78	17.73	
2025-01-12 09:32:25.41	353.76	17.70	
2025-01-12 09:32:25.61	353.74	17.68	
2025-01-12 09:32:25.82	353.72	17.66	
2025-01-12 09:32:26.02	353.71	17.64	
2025-01-12 09:32:26.22	353.69	17.62	
2025-01-12 09:32:26.43	353.67	17.59	
2025-01-12 09:32:26.64	353.65	17.57	
2025-01-12 09:32:26.84	353.63	17.55	
2025-01-12 09:32:27.05	353.61	17.53	
2025-01-12 09:32:27.25	353.59	17.50	
2025-01-12 09:32:27.46	353.57	17.48	
2025-01-12 09:32:27.66	353.55	17.46	
2025-01-12 09:32:27.87	353.53	17.44	
2025-01-12 09:32:28.07	353.52	17.42	
2025-01-12 09:32:28.28	353.50	17.39	
2025-01-12 09:32:28.48	353.48	17.37	
2025-01-12 09:32:28.69	353.46	17.35	
2025-01-12 09:32:28.89	353.44	17.33	
2025-01-12 09:32:29.10	353.42	17.31	
2025-01-12 09:32:29.30	353.40	17.28	
2025-01-12 09:32:29.51	353.38	17.26	
2025-01-12 09:32:29.72	353.36	17.24	
2025-01-12 09:32:29.92	353.35	17.22	
2025-01-12 09:32:30.13	353.33	17.20	
2025-01-12 09:32:30.33	353.31	17.17	
2025-01-12 09:32:30.54	353.29	17.15	
2025-01-12 09:32:30.74	353.27	17.13	
2025-01-12 09:32:30.95	353.25	17.11	
2025-01-12 09:32:31.15	353.23	17.09	
2025-01-12 09:32:31.35	353.22	17.07	
2025-01-12 09:32:31.56	353.20	17.04	
2025-01-12 09:32:31.77	353.18	17.02	
2025-01-12 09:32:31.97	353.16	17.00	
2025-01-12 09:32:32.18	353.14	16.98	
2025-01-12 09:32:32.39	353.12	16.96	
2025-01-12 09:32:32.59	353.11	16.93	
2025-01-12 09:32:32.80	353.09	16.91	
2025-01-12 09:32:33.00	353.07	16.89	
2025-01-12 09:32:33.21	353.05	16.87	
2025-01-12 09:32:33.42	353.03	16.85	
2025-01-12 09:32:33.63	353.01	16.83	
2025-01-12 09:32:33.84	352.99	16.80	
2025-01-12 09:32:34.04	352.98	16.78	
2025-01-12 09:32:34.25	352.96	16.76	
2025-01-12 09:32:34.45	352.94	16.74	
2025-01-12 09:32:34.66	352.92	16.72	
2025-01-12 09:32:34.86	352.90	16.70	
2025-01-12 09:32:35.07	352.89	16.67	
2025-01-12 09:32:35.28	352.87	16.65	
2025-01-12 09:32:35.48	352.85	16.63	
2025-01-12 09:32:35.68	352.83	16.61	
2025-01-12 09:32:35.89	352.81	16.59	
2025-01-12 09:32:36.10	352.80	16.57	
2025-01-12 09:32:36.30	352.78	16.55	
2025-01-12 09:32:36.51	352.76	16.52	
2025-01-12 09:32:36.71	352.74	16.50	
2025-01-12 09:32:36.92	352.73	16.48	
2025-01-12 09:32:37.12	352.71	16.46	
2025-01-12 09:32:37.33	352.69	16.44	
2025-01-12 09:32:37.53	352.67	16.42	
2025-01-12 09:32:37.74	352.65	16.40	
2025-01-12 09:32:37.94	352.64	16.37	
2025-01-12 09:32:38.15	352.62	16.35	
2025-01-12 09:32:38.36	352.60	16.33	
2025-01-12 09:32:38.56	352.58	16.31	
2025-01-12 09:32:38.78	352.57	16.29	
2025-01-12 09:32:38.99	352.55	16.27	
2025-01-12 09:32:39.19	352.53	16.25	
2025-01-12 09:32:39.40	352.51	16.22	
2025-01-12 09:32:39.60	352.50	16.20	
2025-01-12 09:32:39.80	352.48	16.18	
2025-01-12 09:32:40.01	352.46	16.16	
2025-01-12 09:32:40.22	352.44	16.14	
2025-01-12 09:32:40.42	352.43	16.12	
2025-01-12 09:32:40.63	352.41	16.10	
2025-01-12 09:32:40.85	352.39	16.07	
2025-01-12 09:32:41.05	352.37	16.05	
2025-01-12 09:32:41.26	352.36	16.03	
2025-01-12 09:32:41.46	352.34	16.01	
2025-01-12 09:32:41.67	352.32	15.99	
2025-01-12 09:32:41.87	352.31	15.97	
2025-01-12 09:32:42.08	352.29	15.95	
2025-01-12 09:32:42.28	352.27	15.93	
2025-01-12 09:32:42.49	352.25	15.91	
2025-01-12 09:32:42.69	352.24	15.89	
2025-01-12 09:32:42.90	352.22	15.87	
2025-01-12 09:32:43.10	352.20	15.85	
2025-01-12 09:32:43.31	352.19	15.82	
2025-01-12 09:32:43.51	352.17	15.80	
2025-01-12 09:32:43.72	352.15	15.78	
2025-01-12 09:32:43.92	352.14	15.76	
2025-01-12 09:32:44.13	352.12	15.74	
2025-01-12 09:32:44.33	352.10	15.72	
2025-01-12 09:32:44.54	352.08	15.70	
2025-01-12 09:32:44.74	352.07	15.68	
2025-01-12 09:32:44.95	352.05	15.66	
2025-01-12 09:32:45.16	352.03	15.64	
2025-01-12 09:32:45.36	352.02	15.62	
2025-01-12 09:32:45.57	352.00	15.59	
2025-01-12 09:32:45.77	351.98	15.57	
2025-01-12 09:32:45.98	351.97	15.55	
2025-01-12 09:32:46.19	351.95	15.53	
2025-01-12 09:32:46.40	351.93	15.51	
2025-01-12 09:32:46.60	351.92	15.49	
2025-01-12 09:32:46.81	351.90	15.47	
2025-01-12 09:32:47.01	351.88	15.45	
2025-01-12 09:32:47.22	351.87	15.43	
2025-01-12 09:32:47.42	351.85	15.41	
2025-01-12 09:32:47.63	351.83	15.39	
2025-01-12 09:32:47.83	351.82	15.37	
2025-01-12 09:32:48.04	351.80	15.35	
2025-01-12 09:32:48.24	351.79	15.33	
2025-01-12 09:32:48.45	351.77	15.31	
2025-01-12 09:32:48.65	351.75	15.29	
2025-01-12 09:32:48.86	351.74	15.27	
2025-01-12 09:32:49.07	351.72	15.24	
2025-01-12 09:32:49.27	351.70	15.22	
2025-01-12 09:32:49.49	351.69	15.20	
2025-01-12 09:32:49.69	351.67	15.18	
2025-01-12 09:32:49.90	351.65	15.16	
2025-01-12 09:32:50.10	351.64	15.14	
2025-01-12 09:32:50.31	351.62	15.12	
2025-01-12 09:32:50.51	351.61	15.10	
2025-01-12 09:32:50.72	351.59	15.08	
2025-01-12 09:32:50.92	351.57	15.06	
2025-01-12 09:32:51.13	351.56	15.04	
2025-01-12 09:32:51.33	351.54	15.02	
2025-01-12 09:32:51.54	351.53	15.00	
2025-01-12 09:32:51.74	351.51	14.98	
2025-01-12 09:32:51.95	351.49	14.96	
2025-01-12 09:32:52.16	351.48	14.94	
2025-01-12 09:32:52.36	351.46	14.92	
2025-01-12 09:32:52.57	351.45	14.90	
2025-01-12 09:32:52.77	351.43	14.88	
2025-01-12 09:32:52.98	351.41	14.86	
2025-01-12 09:32:53.18	351.40	14.84	
2025-01-12 09:32:53.39	351.38	14.82	
2025-01-12 09:32:53.59	351.37	14.80	
2025-01-12 09:32:53.79	351.35	14.78	
2025-01-12 09:32:54.00	351.34	14.76	
2025-01-12 09:32:54.20	351.32	14.74	
2025-01-12 09:32:54.41	351.30	14.72	
2025-01-12 09:32:54.62	351.29	14.70	
2025-01-12 09:32:54.82	351.27	14.68	
2025-01-12 09:32:55.02	351.26	14.66	
2025-01-12 09:32:55.23	351.24	14.64	
2025-01-12 09:32:55.44	351.23	14.62	
2025-01-12 09:32:55.64	351.21	14.60	
2025-01-12 09:32:55.85	351.19	14.58	
2025-01-12 09:32:56.05	351.18	14.56	
2025-01-12 09:32:56.26	351.16	14.54	
2025-01-12 09:32:56.46	351.15	14.52	
2025-01-12 09:32:56.67	351.13	14.50	
2025-01-12 09:32:56.87	351.12	14.48	
2025-01-12 09:32:57.07	351.10	14.46	
2025-01-12 09:32:57.28	351.09	14.44	
2025-01-12 09:32:57.49	351.07	14.42	
2025-01-12 09:32:57.69	351.06	14.40	
2025-01-12 09:32:57.90	351.04	14.38	
2025-01-12 09:32:58.10	351.03	14.36	
2025-01-12 09:32:58.31	351.01	14.34	
2025-01-12 09:32:58.51	351.00	14.32	
2025-01-12 09:32:58.72	350.98	14.30	
2025-01-12 09:32:58.92	350.97	14.28	
2025-01-12 09:32:59.13	350.95	14.26	
2025-01-12 09:32:59.33	350.93	14.24	
2025-01-12 09:32:59.54	350.92	14.22	
2025-01-12 09:32:59.74	350.90	14.20	
2025-01-12 09:32:59.95	350.89	14.18	
2025-01-12 09:33:00.17	350.87	14.16	
2025-01-12 09:33:00.38	350.86	14.14	
2025-01-12 09:33:00.58	350.84	14.12	
2025-01-12 09:33:00.79	350.83	14.10	
2025-01-12 09:33:00.99	350.81	14.08	
2025-01-12 09:33:01.20	350.80	14.06	
2025-01-12 09:33:01.40	350.78	14.04	
2025-01-12 09:33:01.61	350.77	14.02	
2025-01-12 09:33:01.81	350.75	14.00	
2025-01-12 09:33:02.02	350.74	13.98	
2025-01-12 09:33:02.23	350.72	13.96	
2025-01-12 09:33:02.44	350.71	13.94	
2025-01-12 09:33:02.65	350.69	13.92	
2025-01-12 09:33:02.86	350.68	13.90	
2025-01-12 09:33:03.07	350.66	13.88	
2025-01-12 09:33:03.27	350.65	13.86	
2025-01-12 09:33:03.48	350.63	13.84	
2025-01-12 09:33:03.68	350.62	13.83	
2025-01-12 09:33:03.89	350.60	13.81	
2025-01-12 09:33:04.10	350.59	13.79	
2025-01-12 09:33:04.30	350.57	13.77	
2025-01-12 09:33:04.50	350.56	13.75	
2025-01-12 09:33:04.71	350.54	13.73	
2025-01-12 09:33:04.92	350.53	13.71	
2025-01-12 09:33:05.12	350.52	13.69	
2025-01-12 09:33:05.34	350.50	13.67	
2025-01-12 09:33:05.54	350.49	13.65	
2025-01-12 09:33:05.75	350.47	13.63	
2025-01-12 09:33:05.95	350.46	13.61	
2025-01-12 09:33:06.16	350.44	13.59	
2025-01-12 09:33:06.36	350.43	13.57	
2025-01-12 09:33:06.58	350.41	13.55	
2025-01-12 09:33:06.79	350.40	13.53	
2025-01-12 09:33:06.99	350.38	13.51	
2025-01-12 09:33:07.20	350.37	13.49	
2025-01-12 09:33:07.41	350.35	13.47	
2025-01-12 09:33:07.61	350.34	13.46	
2025-01-12 09:33:07.82	350.33	13.44	
2025-01-12 09:33:08.03	350.31	13.42	
2025-01-12 09:33:08.24	350.30	13.40	
2025-01-12 09:33:08.44	350.28	13.38	
2025-01-12 09:33:08.65	350.27	13.36	
2025-01-12 09:33:08.85	350.25	13.34	
2025-01-12 09:33:09.06	350.24	13.32	
2025-01-12 09:33:09.26	350.23	13.30	
2025-01-12 09:33:09.47	350.21	13.28	
2025-01-12 09:33:09.67	350.20	13.26	
2025-01-12 09:33:09.88	350.18	13.24	
2025-01-12 09:33:10.08	350.17	13.23	
2025-01-12 09:33:10.29	350.15	13.21	
2025-01-12 09:33:10.50	350.14	13.19	
2025-01-12 09:33:10.70	350.13	13.17	
2025-01-12 09:33:10.90	350.11	13.15	
2025-01-12 09:33:11.11	350.10	13.13	
2025-01-12 09:33:11.32	350.08	13.11	
2025-01-12 09:33:11.52	350.07	13.09	
2025-01-12 09:33:11.73	350.06	13.07	
2025-01-12 09:33:11.93	350.04	13.06	
2025-01-12 09:33:12.14	350.03	13.04	
2025-01-12 09:33:12.34	350.01	13.02	
2025-01-12 09:33:12.55	350.00	13.00	
2025-01-12 09:33:12.75	349.99	12.98	
2025-01-12 09:33:12.96	349.97	12.96	
2025-01-12 09:33:13.16	349.96	12.94	
2025-01-12 09:33:13.37	349.95	12.92	
2025-01-12 09:33:13.58	349.93	12.90	
2025-01-12 09:33:13.78	349.92	12.89	
2025-01-12 09:33:13.98	349.90	12.87	
2025-01-12 09:33:14.19	349.89	12.85	
2025-01-12 09:33:14.41	349.88	12.83	
2025-01-12 09:33:14.61	349.86	12.81	
2025-01-12 09:33:14.82	349.85	12.79	
2025-01-12 09:33:15.02	349.84	12.77	
2025-01-12 09:33:15.23	349.82	12.75	
2025-01-12 09:33:15.44	349.81	12.73	
2025-01-12 09:33:15.64	349.79	12.72	
2025-01-12 09:33:15.85	349.78	12.70	
2025-01-12 09:33:16.05	349.77	12.68	
2025-01-12 09:33:16.26	349.75	12.66	
2025-01-12 09:33:16.46	349.74	12.64	
2025-01-12 09:33:16.67	349.73	12.62	
2025-01-12 09:33:16.87	349.71	12.60	
2025-01-12 09:33:17.08	349.70	12.58	
2025-01-12 09:33:17.28	349.69	12.57	
2025-01-12 09:33:17.49	349.67	12.55	
2025-01-12 09:33:17.70	349.66	12.53	
2025-01-12 09:33:17.90	349.65	12.51	
2025-01-12 09:33:18.11	349.63	12.49	
2025-01-12 09:33:18.31	349.62	12.47	
2025-01-12 09:33:18.51	349.61	12.46	
2025-01-12 09:33:18.72	349.59	12.44	
2025-01-12 09:33:18.93	349.58	12.42	
2025-01-12 09:33:19.13	349.57	12.40	
2025-01-12 09:33:19.35	349.55	12.38	
2025-01-12 09:33:19.56	349.54	12.36	
2025-01-12 09:33:19.76	349.52	12.34	
2025-01-12 09:33:19.97	349.51	12.32	
2025-01-12 09:33:20.17	349.50	12.31	
2025-01-12 09:33:20.38	349.48	12.29	
2025-01-12 09:33:20.58	349.47	12.27	
2025-01-12 09:33:20.79	349.46	12.25	
2025-01-12 09:33:21.00	349.45	12.23	
2025-01-12 09:33:21.20	349.43	12.21	
2025-01-12 09:33:21.41	349.42	12.20	
2025-01-12 09:33:21.61	349.41	12.18	
2025-01-12 09:33:21.82	349.39	12.16	
2025-01-12 09:33:22.02	349.38	12.14	
2025-01-12 09:33:22.23	349.37	12.12	
2025-01-12 09:33:22.43	349.35	12.10	
2025-01-12 09:33:22.64	349.34	12.09	
2025-01-12 09:33:22.84	349.33	12.07	
2025-01-12 09:33:23.05	349.31	12.05	
2025-01-12 09:33:23.26	349.30	12.03	
2025-01-12 09:33:23.46	349.29	12.01	
2025-01-12 09:33:23.68	349.28	11.99	
2025-01-12 09:33:23.89	349.26	11.98	
2025-01-12 09:33:24.09	349.25	11.96	
2025-01-12 09:33:24.30	349.24	11.94	
2025-01-12 09:33:24.50	349.22	11.92	
2025-01-12 09:33:24.70	349.21	11.90	
2025-01-12 09:33:24.91	349.20	11.88	
2025-01-12 09:33:25.11	349.19	11.87	
2025-01-12 09:33:25.32	349.17	11.85	
2025-01-12 09:33:25.53	349.16	11.83	
2025-01-12 09:33:25.73	349.15	11.81	
2025-01-12 09:33:25.93	349.13	11.79	
2025-01-12 09:33:26.14	349.12	11.78	
2025-01-12 09:33:26.35	349.11	11.76	
2025-01-12 09:33:26.55	349.10	11.74	
2025-01-12 09:33:26.76	349.08	11.72	
2025-01-12 09:33:26.96	349.07	11.70	
2025-01-12 09:33:27.17	349.06	11.69	
2025-01-12 09:33:27.37	349.05	11.67	
2025-01-12 09:33:27.58	349.03	11.65	
