passes_logs/2025/01/12/SPB_Silybum_02/SPB_Silybum_02__20250112_073834_TERRA_rec.log

#Pass ID: 20250112_073834_TERRA
#Satellite: TERRA
#Configuration: TERRA
#Start time: 2025-01-12 07:38:33

#Version: 2.0.20230423
#Station: SPB_Silybum_02
#Location: 30.233357 lon 59.946436 lat
#TLE: 1 25994U 99068A   25011.77277381  .00000769  00000+0  16824-3 0  9997
#TLE: 2 25994  98.0222  74.9057 0003526  79.1717  32.7508 14.60388914333608

#Time	Az	El	Level	Level2	SNR	BER	Gain	Gain2
2025-01-12 07:38:35.54	20.84	4.05	
2025-01-12 07:38:35.75	20.84	4.07	
2025-01-12 07:38:35.95	20.85	4.08	
2025-01-12 07:38:36.16	20.86	4.10	
2025-01-12 07:38:36.36	20.87	4.11	
2025-01-12 07:38:36.57	20.88	4.13	
2025-01-12 07:38:36.77	20.89	4.14	
2025-01-12 07:38:36.98	20.90	4.15	
2025-01-12 07:38:37.20	20.91	4.17	
2025-01-12 07:38:37.40	20.92	4.18	
2025-01-12 07:38:37.61	20.93	4.20	
2025-01-12 07:38:37.81	20.94	4.21	
2025-01-12 07:38:38.02	20.95	4.23	
2025-01-12 07:38:38.22	20.96	4.24	
2025-01-12 07:38:38.42	20.97	4.25	
2025-01-12 07:38:38.63	20.98	4.27	
2025-01-12 07:38:38.83	20.99	4.28	
2025-01-12 07:38:39.04	20.99	4.30	
2025-01-12 07:38:39.24	21.00	4.31	
2025-01-12 07:38:39.44	21.01	4.32	
2025-01-12 07:38:39.65	21.02	4.34	
2025-01-12 07:38:39.86	21.03	4.35	
2025-01-12 07:38:40.06	21.04	4.37	
2025-01-12 07:38:40.27	21.05	4.38	
2025-01-12 07:38:40.47	21.06	4.40	
2025-01-12 07:38:40.68	21.07	4.41	
2025-01-12 07:38:40.88	21.08	4.42	
2025-01-12 07:38:41.09	21.09	4.44	
2025-01-12 07:38:41.29	21.10	4.45	
2025-01-12 07:38:41.50	21.11	4.47	
2025-01-12 07:38:41.70	21.12	4.48	
2025-01-12 07:38:41.91	21.13	4.50	
2025-01-12 07:38:42.12	21.14	4.51	
2025-01-12 07:38:42.32	21.15	4.53	
2025-01-12 07:38:42.53	21.16	4.54	
2025-01-12 07:38:42.73	21.17	4.55	
2025-01-12 07:38:42.94	21.18	4.57	
2025-01-12 07:38:43.14	21.19	4.58	
2025-01-12 07:38:43.35	21.20	4.60	
2025-01-12 07:38:43.55	21.20	4.61	
2025-01-12 07:38:43.75	21.21	4.63	
2025-01-12 07:38:43.96	21.22	4.64	
2025-01-12 07:38:44.16	21.23	4.65	
2025-01-12 07:38:44.37	21.24	4.67	
2025-01-12 07:38:44.57	21.25	4.68	
2025-01-12 07:38:44.79	21.26	4.70	
2025-01-12 07:38:45.00	21.27	4.71	
2025-01-12 07:38:45.20	21.28	4.73	
2025-01-12 07:38:45.41	21.29	4.74	
2025-01-12 07:38:45.62	21.30	4.76	
2025-01-12 07:38:45.82	21.31	4.77	
2025-01-12 07:38:46.02	21.32	4.79	
2025-01-12 07:38:46.23	21.33	4.80	
2025-01-12 07:38:46.43	21.34	4.82	
2025-01-12 07:38:46.64	21.35	4.83	
2025-01-12 07:38:46.86	21.36	4.85	
2025-01-12 07:38:47.06	21.37	4.86	
2025-01-12 07:38:47.27	21.38	4.87	
2025-01-12 07:38:47.47	21.39	4.89	
2025-01-12 07:38:47.68	21.40	4.90	
2025-01-12 07:38:47.88	21.41	4.92	
2025-01-12 07:38:48.09	21.42	4.93	
2025-01-12 07:38:48.29	21.43	4.95	
2025-01-12 07:38:48.50	21.44	4.96	
2025-01-12 07:38:48.70	21.45	4.98	
2025-01-12 07:38:48.91	21.46	4.99	
2025-01-12 07:38:49.11	21.47	5.01	
2025-01-12 07:38:49.32	21.48	5.02	
2025-01-12 07:38:49.52	21.49	5.03	
2025-01-12 07:38:49.73	21.50	5.05	
2025-01-12 07:38:49.94	21.51	5.06	
2025-01-12 07:38:50.14	21.52	5.08	
2025-01-12 07:38:50.34	21.53	5.09	
2025-01-12 07:38:50.55	21.54	5.11	
2025-01-12 07:38:50.76	21.55	5.12	
2025-01-12 07:38:50.96	21.56	5.14	
2025-01-12 07:38:51.16	21.57	5.15	
2025-01-12 07:38:51.37	21.58	5.17	
2025-01-12 07:38:51.57	21.59	5.18	
2025-01-12 07:38:51.78	21.60	5.20	
2025-01-12 07:38:51.99	21.61	5.21	
2025-01-12 07:38:52.19	21.62	5.23	
2025-01-12 07:38:52.39	21.63	5.24	
2025-01-12 07:38:52.60	21.64	5.26	
2025-01-12 07:38:52.80	21.65	5.27	
2025-01-12 07:38:53.01	21.66	5.29	
2025-01-12 07:38:53.21	21.67	5.30	
2025-01-12 07:38:53.42	21.68	5.32	
2025-01-12 07:38:53.63	21.69	5.33	
2025-01-12 07:38:53.83	21.70	5.34	
2025-01-12 07:38:54.04	21.71	5.36	
2025-01-12 07:38:54.24	21.72	5.37	
2025-01-12 07:38:54.45	21.73	5.39	
2025-01-12 07:38:54.66	21.74	5.40	
2025-01-12 07:38:54.86	21.75	5.42	
2025-01-12 07:38:55.07	21.76	5.43	
2025-01-12 07:38:55.27	21.77	5.45	
2025-01-12 07:38:55.48	21.78	5.46	
2025-01-12 07:38:55.68	21.79	5.48	
2025-01-12 07:38:55.89	21.80	5.49	
2025-01-12 07:38:56.09	21.81	5.51	
2025-01-12 07:38:56.30	21.82	5.52	
2025-01-12 07:38:56.50	21.83	5.54	
2025-01-12 07:38:56.71	21.84	5.55	
2025-01-12 07:38:56.91	21.85	5.57	
2025-01-12 07:38:57.12	21.86	5.58	
2025-01-12 07:38:57.32	21.87	5.60	
2025-01-12 07:38:57.53	21.88	5.61	
2025-01-12 07:38:57.73	21.89	5.63	
2025-01-12 07:38:57.94	21.91	5.64	
2025-01-12 07:38:58.14	21.92	5.66	
2025-01-12 07:38:58.35	21.93	5.67	
2025-01-12 07:38:58.55	21.94	5.69	
2025-01-12 07:38:58.76	21.95	5.70	
2025-01-12 07:38:58.97	21.96	5.72	
2025-01-12 07:38:59.17	21.97	5.73	
2025-01-12 07:38:59.38	21.98	5.75	
2025-01-12 07:38:59.58	21.99	5.76	
2025-01-12 07:38:59.79	22.00	5.78	
2025-01-12 07:39:00.00	22.01	5.80	
2025-01-12 07:39:00.21	22.02	5.81	
2025-01-12 07:39:00.42	22.03	5.83	
2025-01-12 07:39:00.62	22.04	5.84	
2025-01-12 07:39:00.83	22.05	5.86	
2025-01-12 07:39:01.03	22.06	5.87	
2025-01-12 07:39:01.24	22.07	5.89	
2025-01-12 07:39:01.44	22.08	5.90	
2025-01-12 07:39:01.65	22.09	5.92	
2025-01-12 07:39:01.85	22.10	5.93	
2025-01-12 07:39:02.06	22.12	5.95	
2025-01-12 07:39:02.26	22.13	5.96	
2025-01-12 07:39:02.47	22.14	5.98	
2025-01-12 07:39:02.67	22.15	5.99	
2025-01-12 07:39:02.88	22.16	6.01	
2025-01-12 07:39:03.08	22.17	6.02	
2025-01-12 07:39:03.28	22.18	6.04	
2025-01-12 07:39:03.49	22.19	6.05	
2025-01-12 07:39:03.69	22.20	6.07	
2025-01-12 07:39:03.90	22.21	6.08	
2025-01-12 07:39:04.10	22.22	6.10	
2025-01-12 07:39:04.31	22.23	6.11	
2025-01-12 07:39:04.51	22.24	6.13	
2025-01-12 07:39:04.72	22.25	6.15	
2025-01-12 07:39:04.92	22.26	6.16	
2025-01-12 07:39:05.13	22.27	6.18	
2025-01-12 07:39:05.34	22.29	6.19	
2025-01-12 07:39:05.54	22.30	6.21	
2025-01-12 07:39:05.75	22.31	6.22	
2025-01-12 07:39:05.95	22.32	6.24	
2025-01-12 07:39:06.16	22.33	6.25	
2025-01-12 07:39:06.36	22.34	6.27	
2025-01-12 07:39:06.57	22.35	6.28	
2025-01-12 07:39:06.77	22.36	6.30	
2025-01-12 07:39:06.98	22.37	6.31	
2025-01-12 07:39:07.18	22.38	6.33	
2025-01-12 07:39:07.39	22.39	6.35	
2025-01-12 07:39:07.59	22.40	6.36	
2025-01-12 07:39:07.80	22.42	6.38	
2025-01-12 07:39:08.01	22.43	6.39	
2025-01-12 07:39:08.21	22.44	6.41	
2025-01-12 07:39:08.41	22.45	6.42	
2025-01-12 07:39:08.62	22.46	6.44	
2025-01-12 07:39:08.83	22.47	6.45	
2025-01-12 07:39:09.03	22.48	6.47	
2025-01-12 07:39:09.23	22.49	6.48	
2025-01-12 07:39:09.44	22.50	6.50	
2025-01-12 07:39:09.64	22.51	6.52	
2025-01-12 07:39:09.85	22.52	6.53	
2025-01-12 07:39:10.05	22.54	6.55	
2025-01-12 07:39:10.26	22.55	6.56	
2025-01-12 07:39:10.46	22.56	6.58	
2025-01-12 07:39:10.67	22.57	6.59	
2025-01-12 07:39:10.88	22.58	6.61	
2025-01-12 07:39:11.08	22.59	6.62	
2025-01-12 07:39:11.28	22.60	6.64	
2025-01-12 07:39:11.49	22.61	6.66	
2025-01-12 07:39:11.69	22.62	6.67	
2025-01-12 07:39:11.90	22.63	6.69	
2025-01-12 07:39:12.11	22.65	6.70	
2025-01-12 07:39:12.31	22.66	6.72	
2025-01-12 07:39:12.52	22.67	6.73	
2025-01-12 07:39:12.72	22.68	6.75	
2025-01-12 07:39:12.93	22.69	6.77	
2025-01-12 07:39:13.14	22.70	6.78	
2025-01-12 07:39:13.34	22.71	6.80	
2025-01-12 07:39:13.54	22.72	6.81	
2025-01-12 07:39:13.75	22.74	6.83	
2025-01-12 07:39:13.96	22.75	6.84	
2025-01-12 07:39:14.16	22.76	6.86	
2025-01-12 07:39:14.37	22.77	6.88	
2025-01-12 07:39:14.57	22.78	6.89	
2025-01-12 07:39:14.78	22.79	6.91	
2025-01-12 07:39:14.98	22.80	6.92	
2025-01-12 07:39:15.19	22.81	6.94	
2025-01-12 07:39:15.39	22.83	6.95	
2025-01-12 07:39:15.60	22.84	6.97	
2025-01-12 07:39:15.80	22.85	6.99	
2025-01-12 07:39:16.01	22.86	7.00	
2025-01-12 07:39:16.21	22.87	7.02	
2025-01-12 07:39:16.42	22.88	7.03	
2025-01-12 07:39:16.63	22.89	7.05	
2025-01-12 07:39:16.83	22.91	7.07	
2025-01-12 07:39:17.03	22.92	7.08	
2025-01-12 07:39:17.24	22.93	7.10	
2025-01-12 07:39:17.44	22.94	7.11	
2025-01-12 07:39:17.65	22.95	7.13	
2025-01-12 07:39:17.85	22.96	7.15	
2025-01-12 07:39:18.06	22.97	7.16	
2025-01-12 07:39:18.26	22.98	7.18	
2025-01-12 07:39:18.47	23.00	7.19	
2025-01-12 07:39:18.67	23.01	7.21	
2025-01-12 07:39:18.88	23.02	7.23	
2025-01-12 07:39:19.08	23.03	7.24	
2025-01-12 07:39:19.29	23.04	7.26	
2025-01-12 07:39:19.50	23.05	7.27	
2025-01-12 07:39:19.70	23.07	7.29	
2025-01-12 07:39:19.90	23.08	7.31	
2025-01-12 07:39:20.11	23.09	7.32	
2025-01-12 07:39:20.32	23.10	7.34	
2025-01-12 07:39:20.52	23.11	7.35	
2025-01-12 07:39:20.73	23.12	7.37	
2025-01-12 07:39:20.93	23.14	7.39	
2025-01-12 07:39:21.13	23.15	7.40	
2025-01-12 07:39:21.34	23.16	7.42	
2025-01-12 07:39:21.54	23.17	7.43	
2025-01-12 07:39:21.75	23.18	7.45	
2025-01-12 07:39:21.95	23.19	7.47	
2025-01-12 07:39:22.16	23.21	7.48	
2025-01-12 07:39:22.36	23.22	7.50	
2025-01-12 07:39:22.57	23.23	7.51	
2025-01-12 07:39:22.78	23.24	7.53	
2025-01-12 07:39:22.98	23.25	7.55	
2025-01-12 07:39:23.19	23.26	7.56	
2025-01-12 07:39:23.39	23.28	7.58	
2025-01-12 07:39:23.60	23.29	7.60	
2025-01-12 07:39:23.80	23.30	7.61	
2025-01-12 07:39:24.01	23.31	7.63	
2025-01-12 07:39:24.21	23.32	7.64	
2025-01-12 07:39:24.41	23.33	7.66	
2025-01-12 07:39:24.62	23.35	7.68	
2025-01-12 07:39:24.83	23.36	7.69	
2025-01-12 07:39:25.03	23.37	7.71	
2025-01-12 07:39:25.24	23.38	7.73	
2025-01-12 07:39:25.44	23.39	7.74	
2025-01-12 07:39:25.64	23.41	7.76	
2025-01-12 07:39:25.85	23.42	7.78	
2025-01-12 07:39:26.06	23.43	7.79	
2025-01-12 07:39:26.26	23.44	7.81	
2025-01-12 07:39:26.46	23.45	7.82	
2025-01-12 07:39:26.67	23.47	7.84	
2025-01-12 07:39:26.87	23.48	7.86	
2025-01-12 07:39:27.08	23.49	7.87	
2025-01-12 07:39:27.29	23.50	7.89	
2025-01-12 07:39:27.49	23.51	7.91	
2025-01-12 07:39:27.70	23.53	7.92	
2025-01-12 07:39:27.90	23.54	7.94	
2025-01-12 07:39:28.11	23.55	7.96	
2025-01-12 07:39:28.31	23.56	7.97	
2025-01-12 07:39:28.52	23.58	7.99	
2025-01-12 07:39:28.72	23.59	8.00	
2025-01-12 07:39:28.93	23.60	8.02	
2025-01-12 07:39:29.13	23.61	8.04	
2025-01-12 07:39:29.34	23.62	8.05	
2025-01-12 07:39:29.54	23.64	8.07	
2025-01-12 07:39:29.75	23.65	8.09	
2025-01-12 07:39:29.95	23.66	8.10	
2025-01-12 07:39:30.16	23.67	8.12	
2025-01-12 07:39:30.37	23.69	8.14	
2025-01-12 07:39:30.57	23.70	8.15	
2025-01-12 07:39:30.78	23.71	8.17	
2025-01-12 07:39:30.98	23.72	8.19	
2025-01-12 07:39:31.19	23.73	8.20	
2025-01-12 07:39:31.39	23.75	8.22	
2025-01-12 07:39:31.60	23.76	8.24	
2025-01-12 07:39:31.82	23.77	8.26	
2025-01-12 07:39:32.02	23.78	8.27	
2025-01-12 07:39:32.23	23.80	8.29	
2025-01-12 07:39:32.43	23.81	8.31	
2025-01-12 07:39:32.64	23.82	8.32	
2025-01-12 07:39:32.84	23.83	8.34	
2025-01-12 07:39:33.05	23.85	8.36	
2025-01-12 07:39:33.25	23.86	8.37	
2025-01-12 07:39:33.46	23.87	8.39	
2025-01-12 07:39:33.67	23.88	8.41	
2025-01-12 07:39:33.87	23.90	8.42	
2025-01-12 07:39:34.07	23.91	8.44	
2025-01-12 07:39:34.28	23.92	8.46	
2025-01-12 07:39:34.49	23.93	8.47	
2025-01-12 07:39:34.69	23.95	8.49	
2025-01-12 07:39:34.89	23.96	8.51	
2025-01-12 07:39:35.10	23.97	8.52	
2025-01-12 07:39:35.30	23.98	8.54	
2025-01-12 07:39:35.51	24.00	8.56	
2025-01-12 07:39:35.72	24.01	8.57	
2025-01-12 07:39:35.92	24.02	8.59	
2025-01-12 07:39:36.14	24.04	8.61	
2025-01-12 07:39:36.34	24.05	8.63	
2025-01-12 07:39:36.55	24.06	8.64	
2025-01-12 07:39:36.75	24.07	8.66	
2025-01-12 07:39:36.96	24.09	8.68	
2025-01-12 07:39:37.16	24.10	8.69	
2025-01-12 07:39:37.37	24.11	8.71	
2025-01-12 07:39:37.57	24.12	8.73	
2025-01-12 07:39:37.78	24.14	8.75	
2025-01-12 07:39:37.98	24.15	8.76	
2025-01-12 07:39:38.19	24.16	8.78	
2025-01-12 07:39:38.39	24.18	8.80	
2025-01-12 07:39:38.60	24.19	8.81	
2025-01-12 07:39:38.80	24.20	8.83	
2025-01-12 07:39:39.01	24.21	8.85	
2025-01-12 07:39:39.23	24.23	8.87	
2025-01-12 07:39:39.43	24.24	8.88	
2025-01-12 07:39:39.64	24.25	8.90	
2025-01-12 07:39:39.84	24.27	8.92	
2025-01-12 07:39:40.05	24.28	8.93	
2025-01-12 07:39:40.26	24.29	8.95	
2025-01-12 07:39:40.46	24.31	8.97	
2025-01-12 07:39:40.67	24.32	8.99	
2025-01-12 07:39:40.87	24.33	9.00	
2025-01-12 07:39:41.08	24.35	9.02	
2025-01-12 07:39:41.28	24.36	9.04	
2025-01-12 07:39:41.49	24.37	9.05	
2025-01-12 07:39:41.69	24.38	9.07	
2025-01-12 07:39:41.90	24.40	9.09	
2025-01-12 07:39:42.10	24.41	9.11	
2025-01-12 07:39:42.31	24.42	9.12	
2025-01-12 07:39:42.51	24.44	9.14	
2025-01-12 07:39:42.72	24.45	9.16	
2025-01-12 07:39:42.92	24.46	9.18	
2025-01-12 07:39:43.13	24.48	9.19	
2025-01-12 07:39:43.33	24.49	9.21	
2025-01-12 07:39:43.54	24.50	9.23	
2025-01-12 07:39:43.74	24.52	9.24	
2025-01-12 07:39:43.94	24.53	9.26	
2025-01-12 07:39:44.15	24.54	9.28	
2025-01-12 07:39:44.36	24.56	9.30	
2025-01-12 07:39:44.56	24.57	9.31	
2025-01-12 07:39:44.77	24.58	9.33	
2025-01-12 07:39:44.97	24.60	9.35	
2025-01-12 07:39:45.18	24.61	9.37	
2025-01-12 07:39:45.38	24.62	9.38	
2025-01-12 07:39:45.58	24.64	9.40	
2025-01-12 07:39:45.79	24.65	9.42	
2025-01-12 07:39:46.00	24.66	9.44	
2025-01-12 07:39:46.20	24.68	9.45	
2025-01-12 07:39:46.41	24.69	9.47	
2025-01-12 07:39:46.61	24.70	9.49	
2025-01-12 07:39:46.82	24.72	9.51	
2025-01-12 07:39:47.03	24.73	9.52	
2025-01-12 07:39:47.23	24.74	9.54	
2025-01-12 07:39:47.44	24.76	9.56	
2025-01-12 07:39:47.65	24.77	9.58	
2025-01-12 07:39:47.85	24.78	9.59	
2025-01-12 07:39:48.06	24.80	9.61	
2025-01-12 07:39:48.26	24.81	9.63	
2025-01-12 07:39:48.47	24.83	9.65	
2025-01-12 07:39:48.67	24.84	9.67	
2025-01-12 07:39:48.89	24.85	9.68	
2025-01-12 07:39:49.09	24.87	9.70	
2025-01-12 07:39:49.29	24.88	9.72	
2025-01-12 07:39:49.50	24.89	9.74	
2025-01-12 07:39:49.70	24.91	9.75	
2025-01-12 07:39:49.91	24.92	9.77	
2025-01-12 07:39:50.11	24.93	9.79	
2025-01-12 07:39:50.32	24.95	9.81	
2025-01-12 07:39:50.52	24.96	9.83	
2025-01-12 07:39:50.73	24.98	9.84	
2025-01-12 07:39:50.93	24.99	9.86	
2025-01-12 07:39:51.14	25.00	9.88	
2025-01-12 07:39:51.34	25.02	9.90	
2025-01-12 07:39:51.55	25.03	9.91	
2025-01-12 07:39:51.75	25.04	9.93	
2025-01-12 07:39:51.95	25.06	9.95	
2025-01-12 07:39:52.16	25.07	9.97	
2025-01-12 07:39:52.36	25.09	9.99	
2025-01-12 07:39:52.57	25.10	10.00	
2025-01-12 07:39:52.78	25.11	10.02	
2025-01-12 07:39:52.99	25.13	10.04	
2025-01-12 07:39:53.19	25.14	10.06	
2025-01-12 07:39:53.40	25.16	10.08	
2025-01-12 07:39:53.60	25.17	10.09	
2025-01-12 07:39:53.81	25.19	10.11	
2025-01-12 07:39:54.01	25.20	10.13	
2025-01-12 07:39:54.22	25.21	10.15	
2025-01-12 07:39:54.42	25.23	10.17	
2025-01-12 07:39:54.63	25.24	10.18	
2025-01-12 07:39:54.83	25.26	10.20	
2025-01-12 07:39:55.04	25.27	10.22	
2025-01-12 07:39:55.24	25.28	10.24	
2025-01-12 07:39:55.45	25.30	10.26	
2025-01-12 07:39:55.65	25.31	10.27	
2025-01-12 07:39:55.86	25.33	10.29	
2025-01-12 07:39:56.06	25.34	10.31	
2025-01-12 07:39:56.27	25.35	10.33	
2025-01-12 07:39:56.47	25.37	10.35	
2025-01-12 07:39:56.68	25.38	10.37	
2025-01-12 07:39:56.88	25.40	10.38	
2025-01-12 07:39:57.09	25.41	10.40	
2025-01-12 07:39:57.29	25.43	10.42	
2025-01-12 07:39:57.50	25.44	10.44	
2025-01-12 07:39:57.70	25.45	10.46	
2025-01-12 07:39:57.91	25.47	10.47	
2025-01-12 07:39:58.11	25.48	10.49	
2025-01-12 07:39:58.32	25.50	10.51	
2025-01-12 07:39:58.53	25.51	10.53	
2025-01-12 07:39:58.74	25.53	10.55	
2025-01-12 07:39:58.95	25.54	10.57	
2025-01-12 07:39:59.16	25.56	10.59	
2025-01-12 07:39:59.36	25.57	10.60	
2025-01-12 07:39:59.57	25.59	10.62	
2025-01-12 07:39:59.77	25.60	10.64	
2025-01-12 07:39:59.98	25.62	10.66	
2025-01-12 07:40:00.18	25.63	10.68	
2025-01-12 07:40:00.39	25.64	10.70	
2025-01-12 07:40:00.59	25.66	10.71	
2025-01-12 07:40:00.80	25.67	10.73	
2025-01-12 07:40:01.00	25.69	10.75	
2025-01-12 07:40:01.21	25.70	10.77	
2025-01-12 07:40:01.41	25.72	10.79	
2025-01-12 07:40:01.62	25.73	10.81	
2025-01-12 07:40:01.82	25.75	10.82	
2025-01-12 07:40:02.03	25.76	10.84	
2025-01-12 07:40:02.23	25.78	10.86	
2025-01-12 07:40:02.44	25.79	10.88	
2025-01-12 07:40:02.65	25.81	10.90	
2025-01-12 07:40:02.85	25.82	10.92	
2025-01-12 07:40:03.05	25.84	10.94	
2025-01-12 07:40:03.26	25.85	10.96	
2025-01-12 07:40:03.47	25.87	10.97	
2025-01-12 07:40:03.67	25.88	10.99	
2025-01-12 07:40:03.87	25.90	11.01	
2025-01-12 07:40:04.08	25.91	11.03	
2025-01-12 07:40:04.29	25.93	11.05	
2025-01-12 07:40:04.49	25.94	11.07	
2025-01-12 07:40:04.70	25.96	11.09	
2025-01-12 07:40:04.90	25.97	11.10	
2025-01-12 07:40:05.10	25.99	11.12	
2025-01-12 07:40:05.31	26.00	11.14	
2025-01-12 07:40:05.52	26.02	11.16	
2025-01-12 07:40:05.72	26.03	11.18	
2025-01-12 07:40:05.92	26.05	11.20	
2025-01-12 07:40:06.13	26.06	11.22	
2025-01-12 07:40:06.33	26.08	11.24	
2025-01-12 07:40:06.54	26.09	11.25	
2025-01-12 07:40:06.74	26.11	11.27	
2025-01-12 07:40:06.95	26.12	11.29	
2025-01-12 07:40:07.16	26.14	11.31	
2025-01-12 07:40:07.36	26.15	11.33	
2025-01-12 07:40:07.57	26.17	11.35	
2025-01-12 07:40:07.77	26.18	11.37	
2025-01-12 07:40:07.98	26.20	11.39	
2025-01-12 07:40:08.18	26.21	11.41	
2025-01-12 07:40:08.39	26.23	11.43	
2025-01-12 07:40:08.59	26.24	11.44	
2025-01-12 07:40:08.80	26.26	11.46	
2025-01-12 07:40:09.00	26.28	11.48	
2025-01-12 07:40:09.21	26.29	11.50	
2025-01-12 07:40:09.41	26.31	11.52	
2025-01-12 07:40:09.62	26.32	11.54	
2025-01-12 07:40:09.82	26.34	11.56	
2025-01-12 07:40:10.03	26.35	11.58	
2025-01-12 07:40:10.23	26.37	11.60	
2025-01-12 07:40:10.44	26.38	11.62	
2025-01-12 07:40:10.64	26.40	11.63	
2025-01-12 07:40:10.85	26.42	11.65	
2025-01-12 07:40:11.05	26.43	11.67	
2025-01-12 07:40:11.26	26.45	11.69	
2025-01-12 07:40:11.46	26.46	11.71	
2025-01-12 07:40:11.67	26.48	11.73	
2025-01-12 07:40:11.87	26.49	11.75	
2025-01-12 07:40:12.08	26.51	11.77	
2025-01-12 07:40:12.28	26.53	11.79	
2025-01-12 07:40:12.49	26.54	11.81	
2025-01-12 07:40:12.69	26.56	11.83	
2025-01-12 07:40:12.90	26.57	11.85	
2025-01-12 07:40:13.10	26.59	11.87	
2025-01-12 07:40:13.31	26.60	11.89	
2025-01-12 07:40:13.51	26.62	11.90	
2025-01-12 07:40:13.72	26.64	11.92	
2025-01-12 07:40:13.93	26.65	11.94	
2025-01-12 07:40:14.13	26.67	11.96	
2025-01-12 07:40:14.34	26.68	11.98	
2025-01-12 07:40:14.54	26.70	12.00	
2025-01-12 07:40:14.75	26.72	12.02	
2025-01-12 07:40:14.95	26.73	12.04	
2025-01-12 07:40:15.16	26.75	12.06	
2025-01-12 07:40:15.36	26.76	12.08	
2025-01-12 07:40:15.57	26.78	12.10	
2025-01-12 07:40:15.77	26.80	12.12	
2025-01-12 07:40:15.98	26.81	12.14	
2025-01-12 07:40:16.18	26.83	12.16	
2025-01-12 07:40:16.39	26.85	12.18	
2025-01-12 07:40:16.59	26.86	12.20	
2025-01-12 07:40:16.80	26.88	12.22	
2025-01-12 07:40:17.00	26.89	12.24	
2025-01-12 07:40:17.21	26.91	12.26	
2025-01-12 07:40:17.41	26.93	12.27	
2025-01-12 07:40:17.61	26.94	12.29	
2025-01-12 07:40:17.82	26.96	12.31	
2025-01-12 07:40:18.03	26.98	12.33	
2025-01-12 07:40:18.23	26.99	12.35	
2025-01-12 07:40:18.44	27.01	12.37	
2025-01-12 07:40:18.64	27.02	12.39	
2025-01-12 07:40:18.85	27.04	12.41	
2025-01-12 07:40:19.05	27.06	12.43	
2025-01-12 07:40:19.25	27.07	12.45	
2025-01-12 07:40:19.46	27.09	12.47	
2025-01-12 07:40:19.67	27.11	12.49	
2025-01-12 07:40:19.87	27.12	12.51	
2025-01-12 07:40:20.07	27.14	12.53	
2025-01-12 07:40:20.28	27.16	12.55	
2025-01-12 07:40:20.49	27.17	12.57	
2025-01-12 07:40:20.69	27.19	12.59	
2025-01-12 07:40:20.89	27.21	12.61	
2025-01-12 07:40:21.10	27.22	12.63	
2025-01-12 07:40:21.30	27.24	12.65	
2025-01-12 07:40:21.51	27.26	12.67	
2025-01-12 07:40:21.72	27.27	12.69	
2025-01-12 07:40:21.93	27.29	12.71	
2025-01-12 07:40:22.14	27.31	12.73	
2025-01-12 07:40:22.34	27.32	12.75	
2025-01-12 07:40:22.55	27.34	12.77	
2025-01-12 07:40:22.75	27.36	12.79	
2025-01-12 07:40:22.96	27.38	12.81	
2025-01-12 07:40:23.16	27.39	12.83	
2025-01-12 07:40:23.37	27.41	12.85	
2025-01-12 07:40:23.58	27.43	12.87	
2025-01-12 07:40:23.78	27.44	12.89	
2025-01-12 07:40:23.99	27.46	12.91	
2025-01-12 07:40:24.19	27.48	12.93	
2025-01-12 07:40:24.40	27.50	12.95	
2025-01-12 07:40:24.60	27.51	12.97	
2025-01-12 07:40:24.81	27.53	12.99	
2025-01-12 07:40:25.01	27.55	13.01	
2025-01-12 07:40:25.22	27.56	13.03	
2025-01-12 07:40:25.42	27.58	13.05	
2025-01-12 07:40:25.63	27.60	13.08	
2025-01-12 07:40:25.84	27.62	13.10	
2025-01-12 07:40:26.04	27.63	13.12	
2025-01-12 07:40:26.24	27.65	13.14	
2025-01-12 07:40:26.45	27.67	13.16	
2025-01-12 07:40:26.65	27.68	13.18	
2025-01-12 07:40:26.86	27.70	13.20	
2025-01-12 07:40:27.07	27.72	13.22	
2025-01-12 07:40:27.27	27.74	13.24	
2025-01-12 07:40:27.48	27.75	13.26	
2025-01-12 07:40:27.68	27.77	13.28	
2025-01-12 07:40:27.89	27.79	13.30	
2025-01-12 07:40:28.09	27.81	13.32	
2025-01-12 07:40:28.30	27.82	13.34	
2025-01-12 07:40:28.50	27.84	13.36	
2025-01-12 07:40:28.71	27.86	13.38	
2025-01-12 07:40:28.91	27.88	13.40	
2025-01-12 07:40:29.12	27.89	13.42	
2025-01-12 07:40:29.32	27.91	13.44	
2025-01-12 07:40:29.53	27.93	13.46	
2025-01-12 07:40:29.73	27.95	13.48	
2025-01-12 07:40:29.94	27.97	13.51	
2025-01-12 07:40:30.14	27.98	13.53	
2025-01-12 07:40:30.35	28.00	13.55	
2025-01-12 07:40:30.57	28.02	13.57	
2025-01-12 07:40:30.77	28.04	13.59	
2025-01-12 07:40:30.98	28.06	13.61	
2025-01-12 07:40:31.18	28.07	13.63	
2025-01-12 07:40:31.39	28.09	13.65	
2025-01-12 07:40:31.60	28.11	13.67	
2025-01-12 07:40:31.81	28.13	13.69	
2025-01-12 07:40:32.02	28.15	13.72	
2025-01-12 07:40:32.22	28.16	13.74	
2025-01-12 07:40:32.43	28.18	13.76	
2025-01-12 07:40:32.63	28.20	13.78	
2025-01-12 07:40:32.84	28.22	13.80	
2025-01-12 07:40:33.04	28.24	13.82	
2025-01-12 07:40:33.25	28.25	13.84	
2025-01-12 07:40:33.45	28.27	13.86	
2025-01-12 07:40:33.66	28.29	13.88	
2025-01-12 07:40:33.86	28.31	13.90	
2025-01-12 07:40:34.07	28.33	13.93	
2025-01-12 07:40:34.27	28.35	13.95	
2025-01-12 07:40:34.48	28.36	13.97	
2025-01-12 07:40:34.70	28.38	13.99	
2025-01-12 07:40:34.90	28.40	14.01	
2025-01-12 07:40:35.11	28.42	14.03	
2025-01-12 07:40:35.31	28.44	14.05	
2025-01-12 07:40:35.52	28.46	14.07	
2025-01-12 07:40:35.72	28.48	14.09	
2025-01-12 07:40:35.93	28.49	14.12	
2025-01-12 07:40:36.13	28.51	14.14	
2025-01-12 07:40:36.34	28.53	14.16	
2025-01-12 07:40:36.54	28.55	14.18	
2025-01-12 07:40:36.75	28.57	14.20	
2025-01-12 07:40:36.95	28.59	14.22	
2025-01-12 07:40:37.16	28.61	14.24	
2025-01-12 07:40:37.36	28.62	14.26	
2025-01-12 07:40:37.57	28.64	14.29	
2025-01-12 07:40:37.78	28.66	14.31	
2025-01-12 07:40:37.98	28.68	14.33	
2025-01-12 07:40:38.18	28.70	14.35	
2025-01-12 07:40:38.39	28.72	14.37	
2025-01-12 07:40:38.60	28.74	14.39	
2025-01-12 07:40:38.80	28.76	14.41	
2025-01-12 07:40:39.01	28.78	14.44	
2025-01-12 07:40:39.21	28.79	14.46	
2025-01-12 07:40:39.42	28.81	14.48	
2025-01-12 07:40:39.62	28.83	14.50	
2025-01-12 07:40:39.82	28.85	14.52	
2025-01-12 07:40:40.03	28.87	14.54	
2025-01-12 07:40:40.23	28.89	14.56	
2025-01-12 07:40:40.44	28.91	14.59	
2025-01-12 07:40:40.64	28.93	14.61	
2025-01-12 07:40:40.85	28.95	14.63	
2025-01-12 07:40:41.05	28.96	14.65	
2025-01-12 07:40:41.26	28.98	14.67	
2025-01-12 07:40:41.47	29.00	14.69	
2025-01-12 07:40:41.67	29.02	14.72	
2025-01-12 07:40:41.88	29.04	14.74	
2025-01-12 07:40:42.08	29.06	14.76	
2025-01-12 07:40:42.29	29.08	14.78	
2025-01-12 07:40:42.49	29.10	14.80	
2025-01-12 07:40:42.70	29.12	14.83	
2025-01-12 07:40:42.90	29.14	14.85	
2025-01-12 07:40:43.10	29.16	14.87	
2025-01-12 07:40:43.32	29.18	14.89	
2025-01-12 07:40:43.53	29.20	14.91	
2025-01-12 07:40:43.74	29.22	14.94	
2025-01-12 07:40:43.94	29.24	14.96	
2025-01-12 07:40:44.15	29.26	14.98	
2025-01-12 07:40:44.35	29.28	15.00	
2025-01-12 07:40:44.56	29.30	15.02	
2025-01-12 07:40:44.76	29.32	15.04	
2025-01-12 07:40:44.97	29.34	15.07	
2025-01-12 07:40:45.18	29.36	15.09	
2025-01-12 07:40:45.38	29.38	15.11	
2025-01-12 07:40:45.58	29.40	15.13	
2025-01-12 07:40:45.79	29.42	15.16	
2025-01-12 07:40:45.99	29.44	15.18	
2025-01-12 07:40:46.20	29.46	15.20	
2025-01-12 07:40:46.40	29.48	15.22	
2025-01-12 07:40:46.61	29.50	15.24	
2025-01-12 07:40:46.81	29.51	15.27	
2025-01-12 07:40:47.02	29.54	15.29	
2025-01-12 07:40:47.22	29.56	15.31	
2025-01-12 07:40:47.43	29.58	15.33	
2025-01-12 07:40:47.63	29.60	15.35	
2025-01-12 07:40:47.84	29.62	15.38	
2025-01-12 07:40:48.04	29.64	15.40	
2025-01-12 07:40:48.25	29.66	15.42	
2025-01-12 07:40:48.46	29.68	15.44	
2025-01-12 07:40:48.67	29.70	15.47	
2025-01-12 07:40:48.88	29.72	15.49	
2025-01-12 07:40:49.09	29.74	15.51	
2025-01-12 07:40:49.29	29.76	15.53	
2025-01-12 07:40:49.50	29.78	15.56	
2025-01-12 07:40:49.70	29.80	15.58	
2025-01-12 07:40:49.91	29.82	15.60	
2025-01-12 07:40:50.11	29.84	15.62	
2025-01-12 07:40:50.32	29.86	15.65	
2025-01-12 07:40:50.52	29.88	15.67	
2025-01-12 07:40:50.73	29.90	15.69	
2025-01-12 07:40:50.93	29.92	15.71	
2025-01-12 07:40:51.14	29.94	15.74	
2025-01-12 07:40:51.34	29.96	15.76	
2025-01-12 07:40:51.55	29.99	15.78	
2025-01-12 07:40:51.75	30.01	15.80	
2025-01-12 07:40:51.96	30.03	15.83	
2025-01-12 07:40:52.17	30.05	15.85	
2025-01-12 07:40:52.37	30.07	15.87	
2025-01-12 07:40:52.58	30.09	15.90	
2025-01-12 07:40:52.78	30.11	15.92	
2025-01-12 07:40:52.99	30.13	15.94	
2025-01-12 07:40:53.19	30.15	15.96	
2025-01-12 07:40:53.40	30.17	15.99	
2025-01-12 07:40:53.60	30.19	16.01	
2025-01-12 07:40:53.81	30.22	16.03	
2025-01-12 07:40:54.02	30.24	16.06	
2025-01-12 07:40:54.23	30.26	16.08	
2025-01-12 07:40:54.43	30.28	16.10	
2025-01-12 07:40:54.64	30.30	16.13	
2025-01-12 07:40:54.84	30.32	16.15	
2025-01-12 07:40:55.05	30.34	16.17	
2025-01-12 07:40:55.26	30.37	16.20	
2025-01-12 07:40:55.46	30.39	16.22	
2025-01-12 07:40:55.67	30.41	16.24	
2025-01-12 07:40:55.87	30.43	16.26	
2025-01-12 07:40:56.09	30.45	16.29	
2025-01-12 07:40:56.29	30.47	16.31	
2025-01-12 07:40:56.50	30.50	16.33	
2025-01-12 07:40:56.70	30.52	16.36	
2025-01-12 07:40:56.91	30.54	16.38	
2025-01-12 07:40:57.11	30.56	16.40	
2025-01-12 07:40:57.32	30.58	16.43	
2025-01-12 07:40:57.52	30.60	16.45	
2025-01-12 07:40:57.73	30.62	16.47	
2025-01-12 07:40:57.93	30.65	16.50	
2025-01-12 07:40:58.14	30.67	16.52	
2025-01-12 07:40:58.34	30.69	16.54	
2025-01-12 07:40:58.55	30.71	16.57	
2025-01-12 07:40:58.75	30.73	16.59	
2025-01-12 07:40:58.96	30.76	16.61	
2025-01-12 07:40:59.16	30.78	16.64	
2025-01-12 07:40:59.37	30.80	16.66	
2025-01-12 07:40:59.57	30.82	16.68	
2025-01-12 07:40:59.78	30.84	16.71	
2025-01-12 07:40:59.98	30.87	16.73	
2025-01-12 07:41:00.19	30.89	16.75	
2025-01-12 07:41:00.39	30.91	16.78	
2025-01-12 07:41:00.59	30.93	16.80	
2025-01-12 07:41:00.80	30.95	16.82	
2025-01-12 07:41:01.00	30.98	16.85	
2025-01-12 07:41:01.21	31.00	16.87	
2025-01-12 07:41:01.43	31.02	16.90	
2025-01-12 07:41:01.63	31.04	16.92	
2025-01-12 07:41:01.84	31.07	16.94	
2025-01-12 07:41:02.04	31.09	16.97	
2025-01-12 07:41:02.25	31.11	16.99	
2025-01-12 07:41:02.45	31.13	17.01	
2025-01-12 07:41:02.66	31.16	17.04	
2025-01-12 07:41:02.86	31.18	17.06	
2025-01-12 07:41:03.07	31.20	17.09	
2025-01-12 07:41:03.28	31.23	17.11	
2025-01-12 07:41:03.49	31.25	17.13	
2025-01-12 07:41:03.70	31.27	17.16	
2025-01-12 07:41:03.90	31.29	17.18	
2025-01-12 07:41:04.11	31.32	17.21	
2025-01-12 07:41:04.31	31.34	17.23	
2025-01-12 07:41:04.52	31.36	17.25	
2025-01-12 07:41:04.73	31.39	17.28	
2025-01-12 07:41:04.93	31.41	17.30	
2025-01-12 07:41:05.14	31.43	17.33	
2025-01-12 07:41:05.34	31.45	17.35	
2025-01-12 07:41:05.55	31.48	17.37	
2025-01-12 07:41:05.75	31.50	17.40	
2025-01-12 07:41:05.96	31.52	17.42	
2025-01-12 07:41:06.16	31.55	17.45	
2025-01-12 07:41:06.37	31.57	17.47	
2025-01-12 07:41:06.58	31.59	17.50	
2025-01-12 07:41:06.78	31.62	17.52	
2025-01-12 07:41:06.99	31.64	17.54	
2025-01-12 07:41:07.19	31.66	17.57	
2025-01-12 07:41:07.40	31.69	17.59	
2025-01-12 07:41:07.61	31.71	17.62	
2025-01-12 07:41:07.81	31.74	17.64	
2025-01-12 07:41:08.02	31.76	17.67	
2025-01-12 07:41:08.22	31.78	17.69	
2025-01-12 07:41:08.43	31.81	17.71	
2025-01-12 07:41:08.63	31.83	17.74	
2025-01-12 07:41:08.84	31.85	17.76	
2025-01-12 07:41:09.04	31.88	17.79	
2025-01-12 07:41:09.25	31.90	17.81	
2025-01-12 07:41:09.45	31.92	17.84	
2025-01-12 07:41:09.66	31.95	17.86	
2025-01-12 07:41:09.86	31.97	17.88	
2025-01-12 07:41:10.07	32.00	17.91	
2025-01-12 07:41:10.27	32.02	17.93	
2025-01-12 07:41:10.48	32.04	17.96	
2025-01-12 07:41:10.68	32.07	17.98	
2025-01-12 07:41:10.89	32.09	18.01	
2025-01-12 07:41:11.09	32.12	18.03	
2025-01-12 07:41:11.30	32.14	18.06	
2025-01-12 07:41:11.51	32.17	18.08	
2025-01-12 07:41:11.71	32.19	18.11	
2025-01-12 07:41:11.92	32.21	18.13	
2025-01-12 07:41:12.12	32.24	18.16	
2025-01-12 07:41:12.33	32.26	18.18	
2025-01-12 07:41:12.53	32.29	18.21	
2025-01-12 07:41:12.74	32.31	18.23	
2025-01-12 07:41:12.95	32.34	18.26	
2025-01-12 07:41:13.15	32.36	18.28	
2025-01-12 07:41:13.36	32.39	18.31	
2025-01-12 07:41:13.56	32.41	18.33	
2025-01-12 07:41:13.77	32.43	18.36	
2025-01-12 07:41:13.97	32.46	18.38	
2025-01-12 07:41:14.17	32.48	18.40	
2025-01-12 07:41:14.38	32.51	18.43	
2025-01-12 07:41:14.58	32.53	18.45	
2025-01-12 07:41:14.79	32.56	18.48	
2025-01-12 07:41:14.99	32.58	18.50	
2025-01-12 07:41:15.20	32.61	18.53	
2025-01-12 07:41:15.40	32.63	18.56	
2025-01-12 07:41:15.61	32.66	18.58	
2025-01-12 07:41:15.81	32.68	18.61	
2025-01-12 07:41:16.02	32.71	18.63	
2025-01-12 07:41:16.22	32.73	18.66	
2025-01-12 07:41:16.43	32.76	18.68	
2025-01-12 07:41:16.63	32.78	18.71	
2025-01-12 07:41:16.84	32.81	18.73	
2025-01-12 07:41:17.05	32.83	18.76	
2025-01-12 07:41:17.25	32.86	18.78	
2025-01-12 07:41:17.45	32.88	18.81	
2025-01-12 07:41:17.66	32.91	18.83	
2025-01-12 07:41:17.87	32.94	18.86	
2025-01-12 07:41:18.07	32.96	18.88	
2025-01-12 07:41:18.28	32.99	18.91	
2025-01-12 07:41:18.48	33.01	18.94	
2025-01-12 07:41:18.69	33.04	18.96	
2025-01-12 07:41:18.89	33.06	18.99	
2025-01-12 07:41:19.10	33.09	19.01	
2025-01-12 07:41:19.30	33.11	19.04	
2025-01-12 07:41:19.51	33.14	19.06	
2025-01-12 07:41:19.71	33.17	19.09	
2025-01-12 07:41:19.92	33.19	19.11	
2025-01-12 07:41:20.12	33.22	19.14	
2025-01-12 07:41:20.33	33.24	19.17	
2025-01-12 07:41:20.53	33.27	19.19	
2025-01-12 07:41:20.74	33.30	19.22	
2025-01-12 07:41:20.94	33.32	19.24	
2025-01-12 07:41:21.15	33.35	19.27	
2025-01-12 07:41:21.35	33.37	19.29	
2025-01-12 07:41:21.56	33.40	19.32	
2025-01-12 07:41:21.76	33.43	19.35	
2025-01-12 07:41:21.97	33.45	19.37	
2025-01-12 07:41:22.17	33.48	19.40	
2025-01-12 07:41:22.38	33.51	19.42	
2025-01-12 07:41:22.58	33.53	19.45	
2025-01-12 07:41:22.79	33.56	19.48	
2025-01-12 07:41:22.99	33.59	19.50	
2025-01-12 07:41:23.20	33.61	19.53	
2025-01-12 07:41:23.41	33.64	19.55	
2025-01-12 07:41:23.61	33.67	19.58	
2025-01-12 07:41:23.82	33.69	19.61	
2025-01-12 07:41:24.02	33.72	19.63	
2025-01-12 07:41:24.23	33.75	19.66	
2025-01-12 07:41:24.43	33.77	19.68	
2025-01-12 07:41:24.64	33.80	19.71	
2025-01-12 07:41:24.85	33.83	19.74	
2025-01-12 07:41:25.06	33.86	19.76	
2025-01-12 07:41:25.27	33.88	19.79	
2025-01-12 07:41:25.47	33.91	19.82	
2025-01-12 07:41:25.67	33.94	19.84	
2025-01-12 07:41:25.88	33.97	19.87	
2025-01-12 07:41:26.08	33.99	19.90	
2025-01-12 07:41:26.29	34.02	19.92	
2025-01-12 07:41:26.49	34.05	19.95	
2025-01-12 07:41:26.70	34.08	19.98	
2025-01-12 07:41:26.90	34.10	20.00	
2025-01-12 07:41:27.11	34.13	20.03	
2025-01-12 07:41:27.31	34.16	20.05	
2025-01-12 07:41:27.52	34.19	20.08	
2025-01-12 07:41:27.72	34.21	20.11	
2025-01-12 07:41:27.92	34.24	20.13	
2025-01-12 07:41:28.13	34.27	20.16	
2025-01-12 07:41:28.34	34.30	20.19	
2025-01-12 07:41:28.54	34.32	20.21	
2025-01-12 07:41:28.75	34.35	20.24	
2025-01-12 07:41:28.95	34.38	20.27	
2025-01-12 07:41:29.15	34.41	20.29	
2025-01-12 07:41:29.36	34.44	20.32	
2025-01-12 07:41:29.57	34.46	20.35	
2025-01-12 07:41:29.77	34.49	20.37	
2025-01-12 07:41:29.98	34.52	20.40	
2025-01-12 07:41:30.20	34.55	20.43	
2025-01-12 07:41:30.40	34.58	20.46	
2025-01-12 07:41:30.61	34.61	20.48	
2025-01-12 07:41:30.81	34.64	20.51	
2025-01-12 07:41:31.02	34.66	20.54	
2025-01-12 07:41:31.22	34.69	20.56	
2025-01-12 07:41:31.43	34.72	20.59	
2025-01-12 07:41:31.63	34.75	20.62	
2025-01-12 07:41:31.84	34.78	20.65	
2025-01-12 07:41:32.05	34.81	20.67	
2025-01-12 07:41:32.25	34.84	20.70	
2025-01-12 07:41:32.45	34.86	20.73	
2025-01-12 07:41:32.66	34.89	20.75	
2025-01-12 07:41:32.87	34.92	20.78	
2025-01-12 07:41:33.07	34.95	20.81	
2025-01-12 07:41:33.28	34.98	20.84	
2025-01-12 07:41:33.48	35.01	20.86	
2025-01-12 07:41:33.69	35.04	20.89	
2025-01-12 07:41:33.89	35.07	20.92	
2025-01-12 07:41:34.11	35.10	20.95	
2025-01-12 07:41:34.31	35.13	20.97	
2025-01-12 07:41:34.52	35.16	21.00	
2025-01-12 07:41:34.72	35.19	21.03	
2025-01-12 07:41:34.93	35.22	21.06	
2025-01-12 07:41:35.13	35.25	21.08	
2025-01-12 07:41:35.34	35.28	21.11	
2025-01-12 07:41:35.56	35.31	21.14	
2025-01-12 07:41:35.76	35.34	21.17	
2025-01-12 07:41:35.96	35.37	21.20	
2025-01-12 07:41:36.17	35.40	21.22	
2025-01-12 07:41:36.38	35.43	21.25	
2025-01-12 07:41:36.58	35.46	21.28	
2025-01-12 07:41:36.79	35.49	21.31	
2025-01-12 07:41:36.99	35.52	21.33	
2025-01-12 07:41:37.20	35.55	21.36	
2025-01-12 07:41:37.40	35.58	21.39	
2025-01-12 07:41:37.60	35.61	21.42	
2025-01-12 07:41:37.81	35.64	21.45	
2025-01-12 07:41:38.02	35.67	21.47	
2025-01-12 07:41:38.22	35.70	21.50	
2025-01-12 07:41:38.43	35.73	21.53	
2025-01-12 07:41:38.64	35.76	21.56	
2025-01-12 07:41:38.85	35.79	21.59	
2025-01-12 07:41:39.06	35.82	21.62	
2025-01-12 07:41:39.26	35.85	21.64	
2025-01-12 07:41:39.47	35.88	21.67	
2025-01-12 07:41:39.67	35.91	21.70	
2025-01-12 07:41:39.88	35.95	21.73	
2025-01-12 07:41:40.08	35.98	21.75	
2025-01-12 07:41:40.30	36.01	21.78	
2025-01-12 07:41:40.50	36.04	21.81	
2025-01-12 07:41:40.71	36.07	21.84	
2025-01-12 07:41:40.91	36.10	21.87	
2025-01-12 07:41:41.12	36.13	21.90	
2025-01-12 07:41:41.32	36.16	21.93	
2025-01-12 07:41:41.53	36.20	21.95	
2025-01-12 07:41:41.73	36.23	21.98	
2025-01-12 07:41:41.94	36.26	22.01	
2025-01-12 07:41:42.14	36.29	22.04	
2025-01-12 07:41:42.35	36.32	22.07	
2025-01-12 07:41:42.55	36.35	22.10	
2025-01-12 07:41:42.76	36.38	22.12	
2025-01-12 07:41:42.96	36.42	22.15	
2025-01-12 07:41:43.16	36.45	22.18	
2025-01-12 07:41:43.37	36.48	22.21	
2025-01-12 07:41:43.58	36.51	22.24	
2025-01-12 07:41:43.78	36.54	22.27	
2025-01-12 07:41:43.99	36.58	22.30	
2025-01-12 07:41:44.19	36.61	22.32	
2025-01-12 07:41:44.40	36.64	22.35	
2025-01-12 07:41:44.60	36.67	22.38	
2025-01-12 07:41:44.81	36.70	22.41	
2025-01-12 07:41:45.01	36.73	22.44	
2025-01-12 07:41:45.22	36.77	22.47	
2025-01-12 07:41:45.42	36.80	22.50	
2025-01-12 07:41:45.63	36.83	22.52	
2025-01-12 07:41:45.84	36.87	22.55	
2025-01-12 07:41:46.04	36.90	22.58	
2025-01-12 07:41:46.24	36.93	22.61	
2025-01-12 07:41:46.45	36.96	22.64	
2025-01-12 07:41:46.65	37.00	22.67	
2025-01-12 07:41:46.86	37.03	22.70	
2025-01-12 07:41:47.06	37.06	22.73	
2025-01-12 07:41:47.27	37.09	22.76	
2025-01-12 07:41:47.47	37.13	22.78	
2025-01-12 07:41:47.68	37.16	22.81	
2025-01-12 07:41:47.88	37.19	22.84	
2025-01-12 07:41:48.09	37.23	22.87	
2025-01-12 07:41:48.29	37.26	22.90	
2025-01-12 07:41:48.50	37.29	22.93	
2025-01-12 07:41:48.71	37.33	22.96	
2025-01-12 07:41:48.91	37.36	22.99	
2025-01-12 07:41:49.12	37.39	23.02	
2025-01-12 07:41:49.32	37.43	23.05	
2025-01-12 07:41:49.52	37.46	23.08	
2025-01-12 07:41:49.73	37.49	23.11	
2025-01-12 07:41:49.94	37.53	23.14	
2025-01-12 07:41:50.14	37.56	23.17	
2025-01-12 07:41:50.34	37.60	23.19	
2025-01-12 07:41:50.55	37.63	23.22	
2025-01-12 07:41:50.75	37.66	23.25	
2025-01-12 07:41:50.96	37.70	23.28	
2025-01-12 07:41:51.16	37.73	23.31	
2025-01-12 07:41:51.37	37.77	23.34	
2025-01-12 07:41:51.57	37.80	23.37	
2025-01-12 07:41:51.78	37.84	23.40	
2025-01-12 07:41:51.99	37.87	23.43	
2025-01-12 07:41:52.19	37.90	23.46	
2025-01-12 07:41:52.40	37.94	23.49	
2025-01-12 07:41:52.61	37.98	23.52	
2025-01-12 07:41:52.82	38.01	23.55	
2025-01-12 07:41:53.02	38.04	23.58	
2025-01-12 07:41:53.23	38.08	23.61	
2025-01-12 07:41:53.44	38.12	23.64	
2025-01-12 07:41:53.64	38.15	23.67	
2025-01-12 07:41:53.84	38.18	23.70	
2025-01-12 07:41:54.05	38.22	23.73	
2025-01-12 07:41:54.25	38.25	23.76	
2025-01-12 07:41:54.46	38.29	23.79	
2025-01-12 07:41:54.66	38.33	23.82	
2025-01-12 07:41:54.87	38.36	23.85	
2025-01-12 07:41:55.07	38.40	23.88	
2025-01-12 07:41:55.28	38.43	23.91	
2025-01-12 07:41:55.48	38.47	23.94	
2025-01-12 07:41:55.69	38.50	23.97	
2025-01-12 07:41:55.90	38.54	24.00	
2025-01-12 07:41:56.10	38.57	24.03	
2025-01-12 07:41:56.31	38.61	24.06	
2025-01-12 07:41:56.51	38.65	24.09	
2025-01-12 07:41:56.71	38.68	24.12	
2025-01-12 07:41:56.92	38.72	24.15	
2025-01-12 07:41:57.12	38.75	24.18	
2025-01-12 07:41:57.34	38.79	24.21	
2025-01-12 07:41:57.54	38.83	24.24	
2025-01-12 07:41:57.75	38.87	24.28	
2025-01-12 07:41:57.95	38.90	24.30	
2025-01-12 07:41:58.15	38.94	24.33	
2025-01-12 07:41:58.36	38.97	24.37	
2025-01-12 07:41:58.56	39.01	24.40	
2025-01-12 07:41:58.77	39.05	24.43	
2025-01-12 07:41:58.97	39.08	24.46	
2025-01-12 07:41:59.18	39.12	24.49	
2025-01-12 07:41:59.39	39.16	24.52	
2025-01-12 07:41:59.59	39.20	24.55	
2025-01-12 07:41:59.80	39.23	24.58	
2025-01-12 07:42:00.00	39.27	24.61	
2025-01-12 07:42:00.22	39.31	24.64	
2025-01-12 07:42:00.42	39.35	24.67	
2025-01-12 07:42:00.63	39.38	24.70	
2025-01-12 07:42:00.83	39.42	24.73	
2025-01-12 07:42:01.04	39.46	24.77	
2025-01-12 07:42:01.24	39.50	24.80	
2025-01-12 07:42:01.45	39.53	24.83	
2025-01-12 07:42:01.65	39.57	24.86	
2025-01-12 07:42:01.86	39.61	24.89	
2025-01-12 07:42:02.06	39.65	24.92	
2025-01-12 07:42:02.27	39.69	24.95	
2025-01-12 07:42:02.47	39.72	24.98	
2025-01-12 07:42:02.67	39.76	25.01	
2025-01-12 07:42:02.88	39.80	25.04	
2025-01-12 07:42:03.08	39.84	25.07	
2025-01-12 07:42:03.29	39.88	25.11	
2025-01-12 07:42:03.49	39.91	25.14	
2025-01-12 07:42:03.70	39.95	25.17	
2025-01-12 07:42:03.91	39.99	25.20	
2025-01-12 07:42:04.11	40.03	25.23	
2025-01-12 07:42:04.31	40.07	25.26	
2025-01-12 07:42:04.52	40.11	25.29	
2025-01-12 07:42:04.74	40.15	25.33	
2025-01-12 07:42:04.94	40.19	25.36	
2025-01-12 07:42:05.15	40.23	25.39	
2025-01-12 07:42:05.35	40.27	25.42	
2025-01-12 07:42:05.56	40.31	25.45	
2025-01-12 07:42:05.76	40.34	25.48	
2025-01-12 07:42:05.97	40.38	25.52	
2025-01-12 07:42:06.17	40.42	25.55	
2025-01-12 07:42:06.37	40.46	25.58	
2025-01-12 07:42:06.58	40.50	25.61	
2025-01-12 07:42:06.79	40.54	25.64	
2025-01-12 07:42:06.99	40.58	25.67	
2025-01-12 07:42:07.20	40.62	25.71	
2025-01-12 07:42:07.40	40.66	25.74	
2025-01-12 07:42:07.61	40.70	25.77	
2025-01-12 07:42:07.81	40.74	25.80	
2025-01-12 07:42:08.02	40.78	25.83	
2025-01-12 07:42:08.22	40.82	25.86	
2025-01-12 07:42:08.42	40.86	25.89	
2025-01-12 07:42:08.63	40.90	25.93	
2025-01-12 07:42:08.83	40.94	25.96	
2025-01-12 07:42:09.04	40.98	25.99	
2025-01-12 07:42:09.24	41.02	26.02	
2025-01-12 07:42:09.45	41.07	26.05	
2025-01-12 07:42:09.65	41.10	26.09	
2025-01-12 07:42:09.86	41.15	26.12	
2025-01-12 07:42:10.06	41.19	26.15	
2025-01-12 07:42:10.27	41.23	26.18	
2025-01-12 07:42:10.48	41.27	26.22	
2025-01-12 07:42:10.68	41.31	26.25	
2025-01-12 07:42:10.89	41.35	26.28	
2025-01-12 07:42:11.09	41.39	26.31	
2025-01-12 07:42:11.30	41.44	26.34	
2025-01-12 07:42:11.50	41.48	26.38	
2025-01-12 07:42:11.71	41.52	26.41	
2025-01-12 07:42:11.91	41.56	26.44	
2025-01-12 07:42:12.12	41.60	26.47	
2025-01-12 07:42:12.32	41.64	26.50	
2025-01-12 07:42:12.53	41.69	26.54	
2025-01-12 07:42:12.73	41.73	26.57	
2025-01-12 07:42:12.94	41.77	26.60	
2025-01-12 07:42:13.14	41.81	26.63	
2025-01-12 07:42:13.35	41.86	26.67	
2025-01-12 07:42:13.55	41.90	26.70	
2025-01-12 07:42:13.76	41.94	26.73	
2025-01-12 07:42:13.96	41.98	26.76	
2025-01-12 07:42:14.17	42.03	26.80	
2025-01-12 07:42:14.37	42.07	26.83	
2025-01-12 07:42:14.58	42.11	26.86	
2025-01-12 07:42:14.79	42.16	26.90	
2025-01-12 07:42:15.00	42.20	26.93	
2025-01-12 07:42:15.21	42.25	26.96	
2025-01-12 07:42:15.41	42.29	26.99	
2025-01-12 07:42:15.62	42.33	27.03	
2025-01-12 07:42:15.82	42.37	27.06	
2025-01-12 07:42:16.03	42.42	27.09	
2025-01-12 07:42:16.23	42.46	27.13	
2025-01-12 07:42:16.44	42.51	27.16	
2025-01-12 07:42:16.65	42.55	27.19	
2025-01-12 07:42:16.85	42.59	27.22	
2025-01-12 07:42:17.05	42.64	27.26	
2025-01-12 07:42:17.26	42.68	27.29	
2025-01-12 07:42:17.46	42.73	27.32	
2025-01-12 07:42:17.67	42.77	27.36	
2025-01-12 07:42:17.87	42.81	27.39	
2025-01-12 07:42:18.08	42.86	27.42	
2025-01-12 07:42:18.28	42.90	27.45	
2025-01-12 07:42:18.49	42.95	27.49	
2025-01-12 07:42:18.69	42.99	27.52	
2025-01-12 07:42:18.90	43.04	27.55	
2025-01-12 07:42:19.10	43.08	27.59	
2025-01-12 07:42:19.31	43.13	27.62	
2025-01-12 07:42:19.51	43.17	27.65	
2025-01-12 07:42:19.72	43.22	27.69	
2025-01-12 07:42:19.92	43.26	27.72	
2025-01-12 07:42:20.12	43.31	27.75	
2025-01-12 07:42:20.33	43.35	27.79	
2025-01-12 07:42:20.53	43.40	27.82	
2025-01-12 07:42:20.74	43.45	27.85	
2025-01-12 07:42:20.95	43.49	27.89	
2025-01-12 07:42:21.15	43.54	27.92	
2025-01-12 07:42:21.35	43.58	27.95	
2025-01-12 07:42:21.56	43.63	27.99	
2025-01-12 07:42:21.77	43.68	28.02	
2025-01-12 07:42:21.97	43.72	28.05	
2025-01-12 07:42:22.17	43.77	28.09	
2025-01-12 07:42:22.39	43.82	28.12	
2025-01-12 07:42:22.59	43.86	28.16	
2025-01-12 07:42:22.80	43.91	28.19	
2025-01-12 07:42:23.01	43.96	28.22	
2025-01-12 07:42:23.21	44.00	28.26	
2025-01-12 07:42:23.42	44.05	28.29	
2025-01-12 07:42:23.62	44.10	28.32	
2025-01-12 07:42:23.83	44.15	28.36	
2025-01-12 07:42:24.03	44.19	28.39	
2025-01-12 07:42:24.24	44.24	28.43	
2025-01-12 07:42:24.45	44.29	28.46	
2025-01-12 07:42:24.65	44.34	28.49	
2025-01-12 07:42:24.85	44.38	28.53	
2025-01-12 07:42:25.06	44.43	28.56	
2025-01-12 07:42:25.26	44.48	28.59	
2025-01-12 07:42:25.47	44.53	28.63	
2025-01-12 07:42:25.67	44.57	28.66	
2025-01-12 07:42:25.88	44.62	28.70	
2025-01-12 07:42:26.08	44.67	28.73	
2025-01-12 07:42:26.29	44.72	28.77	
2025-01-12 07:42:26.49	44.77	28.80	
2025-01-12 07:42:26.70	44.82	28.83	
2025-01-12 07:42:26.90	44.87	28.87	
2025-01-12 07:42:27.11	44.92	28.90	
2025-01-12 07:42:27.31	44.96	28.94	
2025-01-12 07:42:27.52	45.01	28.97	
2025-01-12 07:42:27.72	45.06	29.00	
2025-01-12 07:42:27.93	45.11	29.04	
2025-01-12 07:42:28.13	45.16	29.07	
2025-01-12 07:42:28.34	45.21	29.11	
2025-01-12 07:42:28.55	45.26	29.14	
2025-01-12 07:42:28.75	45.31	29.18	
2025-01-12 07:42:28.96	45.36	29.21	
2025-01-12 07:42:29.16	45.41	29.24	
2025-01-12 07:42:29.37	45.46	29.28	
2025-01-12 07:42:29.57	45.51	29.31	
2025-01-12 07:42:29.78	45.56	29.35	
2025-01-12 07:42:29.98	45.61	29.38	
2025-01-12 07:42:30.19	45.66	29.42	
2025-01-12 07:42:30.39	45.71	29.45	
2025-01-12 07:42:30.60	45.76	29.49	
2025-01-12 07:42:30.80	45.81	29.52	
2025-01-12 07:42:31.01	45.87	29.56	
2025-01-12 07:42:31.21	45.92	29.59	
2025-01-12 07:42:31.42	45.97	29.62	
2025-01-12 07:42:31.62	46.02	29.66	
2025-01-12 07:42:31.83	46.07	29.69	
2025-01-12 07:42:32.03	46.12	29.73	
2025-01-12 07:42:32.24	46.17	29.76	
2025-01-12 07:42:32.44	46.22	29.80	
2025-01-12 07:42:32.65	46.28	29.83	
2025-01-12 07:42:32.85	46.33	29.87	
2025-01-12 07:42:33.05	46.38	29.90	
2025-01-12 07:42:33.26	46.43	29.94	
2025-01-12 07:42:33.47	46.49	29.97	
2025-01-12 07:42:33.67	46.54	30.01	
2025-01-12 07:42:33.88	46.59	30.04	
2025-01-12 07:42:34.08	46.64	30.07	
2025-01-12 07:42:34.29	46.70	30.11	
2025-01-12 07:42:34.49	46.75	30.14	
2025-01-12 07:42:34.70	46.80	30.18	
2025-01-12 07:42:34.90	46.85	30.21	
2025-01-12 07:42:35.11	46.91	30.25	
2025-01-12 07:42:35.31	46.96	30.28	
2025-01-12 07:42:35.52	47.01	30.32	
2025-01-12 07:42:35.73	47.07	30.36	
2025-01-12 07:42:35.93	47.12	30.39	
2025-01-12 07:42:36.14	47.18	30.43	
2025-01-12 07:42:36.35	47.23	30.46	
2025-01-12 07:42:36.56	47.29	30.50	
2025-01-12 07:42:36.77	47.34	30.53	
2025-01-12 07:42:36.97	47.40	30.57	
2025-01-12 07:42:37.18	47.45	30.60	
2025-01-12 07:42:37.40	47.51	30.64	
2025-01-12 07:42:37.60	47.56	30.68	
2025-01-12 07:42:37.80	47.62	30.71	
2025-01-12 07:42:38.01	47.67	30.75	
2025-01-12 07:42:38.22	47.73	30.78	
2025-01-12 07:42:38.42	47.78	30.82	
2025-01-12 07:42:38.62	47.84	30.85	
2025-01-12 07:42:38.83	47.89	30.89	
2025-01-12 07:42:39.03	47.95	30.92	
2025-01-12 07:42:39.24	48.00	30.96	
2025-01-12 07:42:39.44	48.06	30.99	
2025-01-12 07:42:39.65	48.12	31.03	
2025-01-12 07:42:39.85	48.17	31.06	
2025-01-12 07:42:40.06	48.23	31.10	
2025-01-12 07:42:40.26	48.28	31.13	
2025-01-12 07:42:40.47	48.34	31.17	
2025-01-12 07:42:40.67	48.40	31.21	
2025-01-12 07:42:40.87	48.45	31.24	
2025-01-12 07:42:41.08	48.51	31.28	
2025-01-12 07:42:41.29	48.57	31.31	
2025-01-12 07:42:41.49	48.62	31.35	
2025-01-12 07:42:41.70	48.68	31.38	
2025-01-12 07:42:41.90	48.74	31.42	
2025-01-12 07:42:42.11	48.80	31.46	
2025-01-12 07:42:42.31	48.85	31.49	
2025-01-12 07:42:42.52	48.91	31.53	
2025-01-12 07:42:42.73	48.97	31.56	
2025-01-12 07:42:42.94	49.03	31.60	
2025-01-12 07:42:43.15	49.09	31.64	
2025-01-12 07:42:43.35	49.15	31.67	
2025-01-12 07:42:43.56	49.21	31.71	
2025-01-12 07:42:43.76	49.26	31.74	
2025-01-12 07:42:43.96	49.32	31.78	
2025-01-12 07:42:44.17	49.38	31.81	
2025-01-12 07:42:44.37	49.44	31.85	
2025-01-12 07:42:44.58	49.50	31.89	
2025-01-12 07:42:44.78	49.55	31.92	
2025-01-12 07:42:44.99	49.62	31.96	
2025-01-12 07:42:45.19	49.67	31.99	
2025-01-12 07:42:45.40	49.73	32.03	
2025-01-12 07:42:45.61	49.80	32.06	
2025-01-12 07:42:45.81	49.85	32.10	
2025-01-12 07:42:46.02	49.91	32.14	
2025-01-12 07:42:46.22	49.97	32.17	
2025-01-12 07:42:46.43	50.03	32.21	
2025-01-12 07:42:46.63	50.09	32.24	
2025-01-12 07:42:46.84	50.16	32.28	
2025-01-12 07:42:47.04	50.21	32.32	
2025-01-12 07:42:47.25	50.28	32.35	
2025-01-12 07:42:47.45	50.34	32.39	
2025-01-12 07:42:47.66	50.40	32.42	
2025-01-12 07:42:47.86	50.46	32.46	
2025-01-12 07:42:48.08	50.52	32.50	
2025-01-12 07:42:48.29	50.59	32.53	
2025-01-12 07:42:48.49	50.65	32.57	
2025-01-12 07:42:48.70	50.71	32.61	
2025-01-12 07:42:48.90	50.77	32.64	
2025-01-12 07:42:49.12	50.84	32.68	
2025-01-12 07:42:49.33	50.90	32.72	
2025-01-12 07:42:49.53	50.96	32.75	
2025-01-12 07:42:49.74	51.02	32.79	
2025-01-12 07:42:49.95	51.09	32.83	
2025-01-12 07:42:50.15	51.15	32.86	
2025-01-12 07:42:50.35	51.21	32.90	
2025-01-12 07:42:50.56	51.28	32.93	
2025-01-12 07:42:50.76	51.34	32.97	
2025-01-12 07:42:50.97	51.40	33.01	
2025-01-12 07:42:51.17	51.46	33.04	
2025-01-12 07:42:51.38	51.53	33.08	
2025-01-12 07:42:51.58	51.59	33.11	
2025-01-12 07:42:51.79	51.66	33.15	
2025-01-12 07:42:51.99	51.72	33.19	
2025-01-12 07:42:52.20	51.78	33.22	
2025-01-12 07:42:52.40	51.85	33.26	
2025-01-12 07:42:52.61	51.91	33.30	
2025-01-12 07:42:52.81	51.98	33.33	
2025-01-12 07:42:53.02	52.04	33.37	
2025-01-12 07:42:53.23	52.11	33.40	
2025-01-12 07:42:53.43	52.17	33.44	
2025-01-12 07:42:53.63	52.23	33.48	
2025-01-12 07:42:53.84	52.30	33.51	
2025-01-12 07:42:54.05	52.37	33.55	
2025-01-12 07:42:54.25	52.43	33.59	
2025-01-12 07:42:54.45	52.50	33.62	
2025-01-12 07:42:54.66	52.56	33.66	
2025-01-12 07:42:54.86	52.63	33.69	
2025-01-12 07:42:55.07	52.70	33.73	
2025-01-12 07:42:55.28	52.76	33.77	
2025-01-12 07:42:55.48	52.83	33.80	
2025-01-12 07:42:55.68	52.89	33.84	
2025-01-12 07:42:55.89	52.96	33.88	
2025-01-12 07:42:56.09	53.03	33.91	
2025-01-12 07:42:56.31	53.10	33.95	
2025-01-12 07:42:56.52	53.17	33.99	
2025-01-12 07:42:56.72	53.23	34.02	
2025-01-12 07:42:56.93	53.30	34.06	
2025-01-12 07:42:57.13	53.37	34.09	
2025-01-12 07:42:57.34	53.44	34.13	
2025-01-12 07:42:57.54	53.50	34.17	
2025-01-12 07:42:57.75	53.57	34.20	
2025-01-12 07:42:57.95	53.64	34.24	
2025-01-12 07:42:58.16	53.71	34.28	
2025-01-12 07:42:58.36	53.78	34.31	
2025-01-12 07:42:58.57	53.85	34.35	
2025-01-12 07:42:58.77	53.92	34.39	
2025-01-12 07:42:58.98	53.99	34.42	
2025-01-12 07:42:59.19	54.06	34.46	
2025-01-12 07:42:59.39	54.12	34.50	
2025-01-12 07:42:59.60	54.20	34.53	
2025-01-12 07:42:59.80	54.26	34.57	
2025-01-12 07:43:00.01	54.33	34.61	
2025-01-12 07:43:00.21	54.40	34.64	
2025-01-12 07:43:00.42	54.48	34.68	
2025-01-12 07:43:00.62	54.54	34.71	
2025-01-12 07:43:00.84	54.62	34.75	
2025-01-12 07:43:01.05	54.69	34.79	
2025-01-12 07:43:01.25	54.76	34.83	
2025-01-12 07:43:01.46	54.83	34.86	
2025-01-12 07:43:01.66	54.90	34.90	
2025-01-12 07:43:01.86	54.97	34.93	
2025-01-12 07:43:02.07	55.05	34.97	
2025-01-12 07:43:02.28	55.12	35.01	
2025-01-12 07:43:02.48	55.19	35.04	
2025-01-12 07:43:02.68	55.26	35.08	
2025-01-12 07:43:02.89	55.33	35.12	
2025-01-12 07:43:03.09	55.40	35.15	
2025-01-12 07:43:03.30	55.48	35.19	
2025-01-12 07:43:03.50	55.55	35.22	
2025-01-12 07:43:03.71	55.62	35.26	
2025-01-12 07:43:03.91	55.69	35.30	
2025-01-12 07:43:04.11	55.76	35.33	
2025-01-12 07:43:04.32	55.84	35.37	
2025-01-12 07:43:04.53	55.91	35.41	
2025-01-12 07:43:04.73	55.99	35.44	
2025-01-12 07:43:04.94	56.06	35.48	
2025-01-12 07:43:05.14	56.13	35.51	
2025-01-12 07:43:05.35	56.21	35.55	
2025-01-12 07:43:05.55	56.28	35.59	
2025-01-12 07:43:05.76	56.36	35.62	
2025-01-12 07:43:05.96	56.43	35.66	
2025-01-12 07:43:06.17	56.51	35.70	
2025-01-12 07:43:06.37	56.58	35.73	
2025-01-12 07:43:06.58	56.66	35.77	
2025-01-12 07:43:06.78	56.73	35.80	
2025-01-12 07:43:06.99	56.81	35.84	
2025-01-12 07:43:07.19	56.88	35.88	
2025-01-12 07:43:07.40	56.96	35.91	
2025-01-12 07:43:07.60	57.03	35.95	
2025-01-12 07:43:07.81	57.11	35.98	
2025-01-12 07:43:08.01	57.19	36.02	
2025-01-12 07:43:08.22	57.26	36.06	
2025-01-12 07:43:08.42	57.34	36.09	
2025-01-12 07:43:08.63	57.42	36.13	
2025-01-12 07:43:08.83	57.49	36.16	
2025-01-12 07:43:09.04	57.57	36.20	
2025-01-12 07:43:09.24	57.65	36.24	
2025-01-12 07:43:09.45	57.73	36.27	
2025-01-12 07:43:09.65	57.80	36.31	
2025-01-12 07:43:09.86	57.88	36.35	
2025-01-12 07:43:10.07	57.96	36.38	
2025-01-12 07:43:10.27	58.04	36.42	
2025-01-12 07:43:10.47	58.11	36.45	
2025-01-12 07:43:10.68	58.19	36.49	
2025-01-12 07:43:10.88	58.27	36.52	
2025-01-12 07:43:11.09	58.35	36.56	
2025-01-12 07:43:11.30	58.43	36.60	
2025-01-12 07:43:11.50	58.51	36.63	
2025-01-12 07:43:11.71	58.59	36.67	
2025-01-12 07:43:11.91	58.67	36.70	
2025-01-12 07:43:12.12	58.75	36.74	
2025-01-12 07:43:12.32	58.83	36.78	
2025-01-12 07:43:12.52	58.91	36.81	
2025-01-12 07:43:12.73	58.99	36.85	
2025-01-12 07:43:12.94	59.07	36.88	
2025-01-12 07:43:13.14	59.15	36.92	
2025-01-12 07:43:13.35	59.23	36.96	
2025-01-12 07:43:13.55	59.31	36.99	
2025-01-12 07:43:13.76	59.39	37.03	
2025-01-12 07:43:13.96	59.47	37.06	
2025-01-12 07:43:14.17	59.56	37.10	
2025-01-12 07:43:14.37	59.64	37.13	
2025-01-12 07:43:14.58	59.72	37.17	
2025-01-12 07:43:14.78	59.80	37.20	
2025-01-12 07:43:14.99	59.88	37.24	
2025-01-12 07:43:15.19	59.97	37.27	
2025-01-12 07:43:15.40	60.05	37.31	
2025-01-12 07:43:15.60	60.13	37.35	
2025-01-12 07:43:15.81	60.22	37.38	
2025-01-12 07:43:16.01	60.30	37.42	
2025-01-12 07:43:16.22	60.38	37.45	
2025-01-12 07:43:16.43	60.47	37.49	
2025-01-12 07:43:16.63	60.55	37.52	
2025-01-12 07:43:16.84	60.63	37.56	
2025-01-12 07:43:17.04	60.72	37.59	
2025-01-12 07:43:17.25	60.80	37.63	
2025-01-12 07:43:17.45	60.89	37.66	
2025-01-12 07:43:17.66	60.97	37.70	
2025-01-12 07:43:17.86	61.05	37.74	
2025-01-12 07:43:18.07	61.14	37.77	
2025-01-12 07:43:18.27	61.22	37.81	
2025-01-12 07:43:18.48	61.31	37.84	
2025-01-12 07:43:18.68	61.40	37.88	
2025-01-12 07:43:18.89	61.48	37.91	
2025-01-12 07:43:19.09	61.57	37.95	
2025-01-12 07:43:19.30	61.66	37.98	
2025-01-12 07:43:19.50	61.74	38.02	
2025-01-12 07:43:19.71	61.83	38.05	
2025-01-12 07:43:19.92	61.92	38.09	
2025-01-12 07:43:20.12	62.00	38.12	
2025-01-12 07:43:20.32	62.09	38.15	
2025-01-12 07:43:20.53	62.18	38.19	
2025-01-12 07:43:20.74	62.27	38.23	
2025-01-12 07:43:20.94	62.35	38.26	
2025-01-12 07:43:21.16	62.45	38.30	
2025-01-12 07:43:21.36	62.53	38.33	
2025-01-12 07:43:21.58	62.63	38.37	
2025-01-12 07:43:21.78	62.71	38.40	
2025-01-12 07:43:21.99	62.80	38.44	
2025-01-12 07:43:22.19	62.89	38.47	
2025-01-12 07:43:22.40	62.98	38.51	
2025-01-12 07:43:22.60	63.07	38.54	
2025-01-12 07:43:22.81	63.16	38.57	
2025-01-12 07:43:23.02	63.25	38.61	
2025-01-12 07:43:23.22	63.34	38.64	
2025-01-12 07:43:23.42	63.43	38.68	
2025-01-12 07:43:23.63	63.52	38.71	
2025-01-12 07:43:23.84	63.61	38.75	
2025-01-12 07:43:24.04	63.70	38.78	
2025-01-12 07:43:24.24	63.79	38.81	
2025-01-12 07:43:24.45	63.88	38.85	
2025-01-12 07:43:24.66	63.97	38.88	
2025-01-12 07:43:24.86	64.06	38.92	
2025-01-12 07:43:25.07	64.16	38.95	
2025-01-12 07:43:25.27	64.25	38.98	
2025-01-12 07:43:25.47	64.33	39.02	
2025-01-12 07:43:25.68	64.43	39.05	
2025-01-12 07:43:25.89	64.52	39.09	
2025-01-12 07:43:26.09	64.61	39.12	
2025-01-12 07:43:26.30	64.71	39.15	
2025-01-12 07:43:26.50	64.80	39.19	
2025-01-12 07:43:26.70	64.89	39.22	
2025-01-12 07:43:26.91	64.99	39.25	
2025-01-12 07:43:27.12	65.08	39.29	
2025-01-12 07:43:27.32	65.17	39.32	
2025-01-12 07:43:27.52	65.26	39.35	
2025-01-12 07:43:27.73	65.36	39.39	
2025-01-12 07:43:27.94	65.46	39.42	
2025-01-12 07:43:28.14	65.55	39.45	
2025-01-12 07:43:28.35	65.64	39.49	
2025-01-12 07:43:28.56	65.74	39.52	
2025-01-12 07:43:28.77	65.84	39.55	
2025-01-12 07:43:28.98	65.94	39.59	
2025-01-12 07:43:29.19	66.03	39.62	
2025-01-12 07:43:29.39	66.13	39.65	
2025-01-12 07:43:29.60	66.23	39.69	
2025-01-12 07:43:29.80	66.32	39.72	
2025-01-12 07:43:30.01	66.42	39.75	
2025-01-12 07:43:30.21	66.51	39.79	
2025-01-12 07:43:30.42	66.61	39.82	
2025-01-12 07:43:30.62	66.70	39.85	
2025-01-12 07:43:30.83	66.80	39.88	
2025-01-12 07:43:31.03	66.90	39.92	
2025-01-12 07:43:31.24	67.00	39.95	
2025-01-12 07:43:31.44	67.09	39.98	
2025-01-12 07:43:31.65	67.19	40.01	
2025-01-12 07:43:31.87	67.30	40.05	
2025-01-12 07:43:32.07	67.39	40.08	
2025-01-12 07:43:32.28	67.49	40.11	
2025-01-12 07:43:32.48	67.59	40.14	
2025-01-12 07:43:32.69	67.69	40.18	
2025-01-12 07:43:32.89	67.79	40.21	
2025-01-12 07:43:33.09	67.89	40.24	
2025-01-12 07:43:33.30	67.99	40.27	
2025-01-12 07:43:33.51	68.09	40.30	
2025-01-12 07:43:33.71	68.19	40.33	
2025-01-12 07:43:33.91	68.28	40.36	
2025-01-12 07:43:34.12	68.39	40.40	
2025-01-12 07:43:34.33	68.49	40.43	
2025-01-12 07:43:34.53	68.59	40.46	
2025-01-12 07:43:34.74	68.69	40.49	
2025-01-12 07:43:34.95	68.79	40.52	
2025-01-12 07:43:35.16	68.90	40.56	
2025-01-12 07:43:35.36	69.00	40.59	
2025-01-12 07:43:35.58	69.10	40.62	
2025-01-12 07:43:35.79	69.21	40.65	
2025-01-12 07:43:35.99	69.31	40.68	
2025-01-12 07:43:36.20	69.41	40.71	
2025-01-12 07:43:36.41	69.52	40.74	
2025-01-12 07:43:36.61	69.62	40.77	
2025-01-12 07:43:36.82	69.72	40.81	
2025-01-12 07:43:37.02	69.82	40.84	
2025-01-12 07:43:37.23	69.93	40.87	
2025-01-12 07:43:37.43	70.03	40.90	
2025-01-12 07:43:37.64	70.13	40.93	
2025-01-12 07:43:37.85	70.24	40.96	
2025-01-12 07:43:38.05	70.34	40.99	
2025-01-12 07:43:38.25	70.44	41.02	
2025-01-12 07:43:38.46	70.55	41.05	
2025-01-12 07:43:38.66	70.65	41.08	
2025-01-12 07:43:38.87	70.76	41.11	
2025-01-12 07:43:39.07	70.86	41.14	
2025-01-12 07:43:39.28	70.97	41.17	
2025-01-12 07:43:39.48	71.07	41.20	
2025-01-12 07:43:39.69	71.18	41.23	
2025-01-12 07:43:39.89	71.28	41.26	
2025-01-12 07:43:40.10	71.39	41.29	
2025-01-12 07:43:40.30	71.49	41.31	
2025-01-12 07:43:40.51	71.60	41.34	
2025-01-12 07:43:40.72	71.71	41.37	
2025-01-12 07:43:40.92	71.82	41.40	
2025-01-12 07:43:41.13	71.92	41.43	
2025-01-12 07:43:41.33	72.03	41.46	
2025-01-12 07:43:41.54	72.14	41.49	
2025-01-12 07:43:41.74	72.24	41.52	
2025-01-12 07:43:41.95	72.35	41.55	
2025-01-12 07:43:42.16	72.46	41.58	
2025-01-12 07:43:42.36	72.57	41.60	
2025-01-12 07:43:42.56	72.67	41.63	
2025-01-12 07:43:42.77	72.79	41.66	
2025-01-12 07:43:42.98	72.90	41.69	
2025-01-12 07:43:43.18	73.00	41.72	
2025-01-12 07:43:43.39	73.11	41.75	
2025-01-12 07:43:43.59	73.22	41.77	
2025-01-12 07:43:43.80	73.33	41.80	
2025-01-12 07:43:44.00	73.44	41.83	
2025-01-12 07:43:44.21	73.55	41.86	
2025-01-12 07:43:44.41	73.66	41.88	
2025-01-12 07:43:44.61	73.77	41.91	
2025-01-12 07:43:44.82	73.88	41.94	
2025-01-12 07:43:45.02	73.99	41.96	
2025-01-12 07:43:45.23	74.10	41.99	
2025-01-12 07:43:45.43	74.21	42.02	
2025-01-12 07:43:45.64	74.32	42.05	
2025-01-12 07:43:45.84	74.43	42.07	
2025-01-12 07:43:46.05	74.54	42.10	
2025-01-12 07:43:46.25	74.65	42.13	
2025-01-12 07:43:46.46	74.77	42.15	
2025-01-12 07:43:46.66	74.88	42.18	
2025-01-12 07:43:46.87	74.99	42.21	
2025-01-12 07:43:47.08	75.11	42.23	
2025-01-12 07:43:47.28	75.22	42.26	
2025-01-12 07:43:47.48	75.33	42.29	
2025-01-12 07:43:47.69	75.44	42.31	
2025-01-12 07:43:47.89	75.55	42.34	
2025-01-12 07:43:48.11	75.67	42.36	
2025-01-12 07:43:48.32	75.79	42.39	
2025-01-12 07:43:48.52	75.90	42.42	
2025-01-12 07:43:48.72	76.01	42.44	
2025-01-12 07:43:48.93	76.13	42.47	
2025-01-12 07:43:49.13	76.24	42.49	
2025-01-12 07:43:49.33	76.35	42.52	
2025-01-12 07:43:49.54	76.47	42.54	
2025-01-12 07:43:49.75	76.58	42.57	
2025-01-12 07:43:49.95	76.70	42.59	
2025-01-12 07:43:50.15	76.81	42.62	
2025-01-12 07:43:50.36	76.93	42.64	
2025-01-12 07:43:50.56	77.04	42.67	
2025-01-12 07:43:50.77	77.16	42.69	
2025-01-12 07:43:50.97	77.27	42.71	
2025-01-12 07:43:51.18	77.39	42.74	
2025-01-12 07:43:51.38	77.50	42.76	
2025-01-12 07:43:51.59	77.62	42.79	
2025-01-12 07:43:51.79	77.74	42.81	
2025-01-12 07:43:52.00	77.85	42.83	
2025-01-12 07:43:52.21	77.97	42.86	
2025-01-12 07:43:52.41	78.09	42.88	
2025-01-12 07:43:52.62	78.21	42.91	
2025-01-12 07:43:52.82	78.32	42.93	
2025-01-12 07:43:53.02	78.44	42.95	
2025-01-12 07:43:53.23	78.56	42.98	
2025-01-12 07:43:53.44	78.68	43.00	
2025-01-12 07:43:53.64	78.79	43.02	
2025-01-12 07:43:53.85	78.91	43.04	
2025-01-12 07:43:54.05	79.03	43.07	
2025-01-12 07:43:54.25	79.15	43.09	
2025-01-12 07:43:54.46	79.27	43.11	
2025-01-12 07:43:54.67	79.39	43.13	
2025-01-12 07:43:54.87	79.50	43.16	
2025-01-12 07:43:55.08	79.63	43.18	
2025-01-12 07:43:55.28	79.74	43.20	
2025-01-12 07:43:55.48	79.86	43.22	
2025-01-12 07:43:55.69	79.98	43.24	
2025-01-12 07:43:55.89	80.10	43.26	
2025-01-12 07:43:56.10	80.22	43.29	
2025-01-12 07:43:56.30	80.34	43.31	
2025-01-12 07:43:56.51	80.46	43.33	
2025-01-12 07:43:56.72	80.59	43.35	
2025-01-12 07:43:56.92	80.70	43.37	
2025-01-12 07:43:57.13	80.83	43.39	
2025-01-12 07:43:57.33	80.94	43.41	
2025-01-12 07:43:57.53	81.06	43.43	
2025-01-12 07:43:57.74	81.19	43.45	
2025-01-12 07:43:57.94	81.31	43.47	
2025-01-12 07:43:58.15	81.43	43.49	
2025-01-12 07:43:58.35	81.55	43.51	
2025-01-12 07:43:58.56	81.67	43.53	
2025-01-12 07:43:58.76	81.79	43.55	
2025-01-12 07:43:58.97	81.92	43.57	
2025-01-12 07:43:59.18	82.04	43.59	
2025-01-12 07:43:59.38	82.16	43.61	
2025-01-12 07:43:59.59	82.29	43.63	
2025-01-12 07:43:59.79	82.41	43.65	
2025-01-12 07:44:00.00	82.53	43.67	
2025-01-12 07:44:00.20	82.65	43.69	
2025-01-12 07:44:00.41	82.78	43.71	
2025-01-12 07:44:00.61	82.90	43.73	
2025-01-12 07:44:00.82	83.03	43.74	
2025-01-12 07:44:01.02	83.15	43.76	
2025-01-12 07:44:01.23	83.27	43.78	
2025-01-12 07:44:01.43	83.40	43.80	
2025-01-12 07:44:01.65	83.53	43.82	
2025-01-12 07:44:01.85	83.65	43.84	
2025-01-12 07:44:02.06	83.78	43.85	
2025-01-12 07:44:02.27	83.90	43.87	
2025-01-12 07:44:02.47	84.03	43.89	
2025-01-12 07:44:02.67	84.15	43.91	
2025-01-12 07:44:02.88	84.28	43.92	
2025-01-12 07:44:03.08	84.40	43.94	
2025-01-12 07:44:03.29	84.53	43.96	
2025-01-12 07:44:03.49	84.65	43.97	
2025-01-12 07:44:03.69	84.77	43.99	
2025-01-12 07:44:03.90	84.90	44.01	
2025-01-12 07:44:04.11	85.03	44.02	
2025-01-12 07:44:04.31	85.15	44.04	
2025-01-12 07:44:04.52	85.28	44.05	
2025-01-12 07:44:04.72	85.40	44.07	
2025-01-12 07:44:04.93	85.53	44.09	
2025-01-12 07:44:05.13	85.65	44.10	
2025-01-12 07:44:05.34	85.78	44.12	
2025-01-12 07:44:05.54	85.91	44.13	
2025-01-12 07:44:05.75	86.04	44.15	
2025-01-12 07:44:05.96	86.17	44.16	
2025-01-12 07:44:06.16	86.29	44.18	
2025-01-12 07:44:06.37	86.42	44.19	
2025-01-12 07:44:06.57	86.55	44.21	
2025-01-12 07:44:06.78	86.68	44.22	
2025-01-12 07:44:06.98	86.80	44.24	
2025-01-12 07:44:07.18	86.92	44.25	
2025-01-12 07:44:07.39	87.06	44.26	
2025-01-12 07:44:07.60	87.19	44.28	
2025-01-12 07:44:07.80	87.31	44.29	
2025-01-12 07:44:08.01	87.44	44.30	
2025-01-12 07:44:08.21	87.57	44.32	
2025-01-12 07:44:08.42	87.70	44.33	
2025-01-12 07:44:08.62	87.82	44.34	
2025-01-12 07:44:08.83	87.96	44.36	
2025-01-12 07:44:09.03	88.08	44.37	
2025-01-12 07:44:09.24	88.21	44.38	
2025-01-12 07:44:09.44	88.34	44.40	
2025-01-12 07:44:09.65	88.47	44.41	
2025-01-12 07:44:09.86	88.60	44.42	
2025-01-12 07:44:10.06	88.73	44.43	
2025-01-12 07:44:10.27	88.86	44.44	
2025-01-12 07:44:10.47	88.99	44.46	
2025-01-12 07:44:10.68	89.12	44.47	
2025-01-12 07:44:10.88	89.24	44.48	
2025-01-12 07:44:11.09	89.38	44.49	
2025-01-12 07:44:11.29	89.50	44.50	
2025-01-12 07:44:11.50	89.64	44.51	
2025-01-12 07:44:11.70	89.76	44.52	
2025-01-12 07:44:11.90	89.89	44.53	
2025-01-12 07:44:12.11	90.02	44.54	
2025-01-12 07:44:12.32	90.16	44.55	
2025-01-12 07:44:12.52	90.28	44.56	
2025-01-12 07:44:12.72	90.41	44.57	
2025-01-12 07:44:12.93	90.54	44.58	
2025-01-12 07:44:13.14	90.68	44.59	
2025-01-12 07:44:13.34	90.80	44.60	
2025-01-12 07:44:13.55	90.94	44.61	
2025-01-12 07:44:13.75	91.07	44.62	
2025-01-12 07:44:13.95	91.19	44.63	
2025-01-12 07:44:14.16	91.33	44.64	
2025-01-12 07:44:14.36	91.45	44.65	
2025-01-12 07:44:14.57	91.59	44.66	
2025-01-12 07:44:14.77	91.72	44.66	
2025-01-12 07:44:14.98	91.85	44.67	
2025-01-12 07:44:15.18	91.98	44.68	
2025-01-12 07:44:15.39	92.11	44.69	
2025-01-12 07:44:15.59	92.24	44.70	
2025-01-12 07:44:15.80	92.38	44.70	
2025-01-12 07:44:16.00	92.50	44.71	
2025-01-12 07:44:16.21	92.64	44.72	
2025-01-12 07:44:16.42	92.77	44.73	
2025-01-12 07:44:16.62	92.90	44.73	
2025-01-12 07:44:16.83	93.04	44.74	
2025-01-12 07:44:17.03	93.16	44.75	
2025-01-12 07:44:17.24	93.30	44.75	
2025-01-12 07:44:17.44	93.43	44.76	
2025-01-12 07:44:17.65	93.56	44.77	
