passes_logs/2025/01/12/SPB_Silybum_02/SPB_Silybum_02__20250112_024953_SUOMI_NPP_rec.log

#Pass ID: 20250112_024953_SUOMI NPP
#Satellite: SUOMI NPP
#Configuration: NPP
#Start time: 2025-01-12 02:49:51

#Version: 2.0.20230423
#Station: SPB_Silybum_02
#Location: 30.233357 lon 59.946436 lat
#TLE: 1 37849U 11061A   25010.83173011  .00000170  00000+0  10148-3 0  9996
#TLE: 2 37849  98.7441 311.8732 0001811  47.3940 312.7388 14.19536379684322

#Time	Az	El	Level	Level2	SNR	BER	Gain	Gain2
2025-01-12 02:49:53.64	14.10	4.03	
2025-01-12 02:49:53.84	14.08	4.04	
2025-01-12 02:49:54.05	14.06	4.05	
2025-01-12 02:49:54.25	14.04	4.06	
2025-01-12 02:49:54.46	14.02	4.07	
2025-01-12 02:49:54.67	14.00	4.09	
2025-01-12 02:49:54.87	13.99	4.10	
2025-01-12 02:49:55.08	13.97	4.11	
2025-01-12 02:49:55.28	13.95	4.12	
2025-01-12 02:49:55.49	13.93	4.13	
2025-01-12 02:49:55.69	13.91	4.14	
2025-01-12 02:49:55.90	13.89	4.15	
2025-01-12 02:49:56.11	13.87	4.16	
2025-01-12 02:49:56.32	13.85	4.17	
2025-01-12 02:49:56.53	13.83	4.19	
2025-01-12 02:49:56.73	13.81	4.20	
2025-01-12 02:49:56.94	13.80	4.21	
2025-01-12 02:49:57.14	13.78	4.22	
2025-01-12 02:49:57.34	13.76	4.23	
2025-01-12 02:49:57.55	13.74	4.24	
2025-01-12 02:49:57.76	13.72	4.25	
2025-01-12 02:49:57.96	13.70	4.26	
2025-01-12 02:49:58.17	13.68	4.27	
2025-01-12 02:49:58.37	13.66	4.28	
2025-01-12 02:49:58.57	13.64	4.29	
2025-01-12 02:49:58.78	13.62	4.31	
2025-01-12 02:49:58.99	13.61	4.32	
2025-01-12 02:49:59.19	13.59	4.33	
2025-01-12 02:49:59.39	13.57	4.34	
2025-01-12 02:49:59.60	13.55	4.35	
2025-01-12 02:49:59.80	13.53	4.36	
2025-01-12 02:50:00.01	13.51	4.37	
2025-01-12 02:50:00.21	13.49	4.38	
2025-01-12 02:50:00.42	13.47	4.39	
2025-01-12 02:50:00.62	13.45	4.40	
2025-01-12 02:50:00.83	13.43	4.42	
2025-01-12 02:50:01.04	13.41	4.43	
2025-01-12 02:50:01.24	13.39	4.44	
2025-01-12 02:50:01.44	13.38	4.45	
2025-01-12 02:50:01.65	13.36	4.46	
2025-01-12 02:50:01.85	13.34	4.47	
2025-01-12 02:50:02.06	13.32	4.48	
2025-01-12 02:50:02.27	13.30	4.49	
2025-01-12 02:50:02.47	13.28	4.50	
2025-01-12 02:50:02.68	13.26	4.52	
2025-01-12 02:50:02.88	13.24	4.53	
2025-01-12 02:50:03.09	13.22	4.54	
2025-01-12 02:50:03.29	13.20	4.55	
2025-01-12 02:50:03.50	13.18	4.56	
2025-01-12 02:50:03.70	13.16	4.57	
2025-01-12 02:50:03.91	13.14	4.58	
2025-01-12 02:50:04.11	13.12	4.59	
2025-01-12 02:50:04.32	13.10	4.60	
2025-01-12 02:50:04.52	13.08	4.61	
2025-01-12 02:50:04.73	13.06	4.63	
2025-01-12 02:50:04.93	13.04	4.64	
2025-01-12 02:50:05.14	13.02	4.65	
2025-01-12 02:50:05.34	13.01	4.66	
2025-01-12 02:50:05.55	12.99	4.67	
2025-01-12 02:50:05.75	12.97	4.68	
2025-01-12 02:50:05.95	12.95	4.69	
2025-01-12 02:50:06.16	12.93	4.70	
2025-01-12 02:50:06.36	12.91	4.71	
2025-01-12 02:50:06.57	12.89	4.73	
2025-01-12 02:50:06.77	12.87	4.74	
2025-01-12 02:50:06.98	12.85	4.75	
2025-01-12 02:50:07.18	12.83	4.76	
2025-01-12 02:50:07.39	12.81	4.77	
2025-01-12 02:50:07.59	12.79	4.78	
2025-01-12 02:50:07.80	12.77	4.79	
2025-01-12 02:50:08.00	12.75	4.80	
2025-01-12 02:50:08.21	12.73	4.81	
2025-01-12 02:50:08.41	12.71	4.82	
2025-01-12 02:50:08.62	12.69	4.84	
2025-01-12 02:50:08.82	12.67	4.85	
2025-01-12 02:50:09.03	12.65	4.86	
2025-01-12 02:50:09.23	12.63	4.87	
2025-01-12 02:50:09.44	12.61	4.88	
2025-01-12 02:50:09.64	12.59	4.89	
2025-01-12 02:50:09.85	12.57	4.90	
2025-01-12 02:50:10.07	12.55	4.91	
2025-01-12 02:50:10.27	12.53	4.93	
2025-01-12 02:50:10.48	12.51	4.94	
2025-01-12 02:50:10.68	12.49	4.95	
2025-01-12 02:50:10.89	12.47	4.96	
2025-01-12 02:50:11.10	12.45	4.97	
2025-01-12 02:50:11.31	12.43	4.98	
2025-01-12 02:50:11.52	12.41	4.99	
2025-01-12 02:50:11.72	12.39	5.00	
2025-01-12 02:50:11.93	12.37	5.01	
2025-01-12 02:50:12.13	12.35	5.03	
2025-01-12 02:50:12.34	12.33	5.04	
2025-01-12 02:50:12.54	12.31	5.05	
2025-01-12 02:50:12.75	12.29	5.06	
2025-01-12 02:50:12.95	12.27	5.07	
2025-01-12 02:50:13.16	12.25	5.08	
2025-01-12 02:50:13.36	12.23	5.09	
2025-01-12 02:50:13.57	12.21	5.10	
2025-01-12 02:50:13.77	12.19	5.11	
2025-01-12 02:50:13.98	12.17	5.13	
2025-01-12 02:50:14.18	12.15	5.14	
2025-01-12 02:50:14.39	12.13	5.15	
2025-01-12 02:50:14.59	12.11	5.16	
2025-01-12 02:50:14.80	12.09	5.17	
2025-01-12 02:50:15.00	12.07	5.18	
2025-01-12 02:50:15.21	12.04	5.19	
2025-01-12 02:50:15.43	12.02	5.20	
2025-01-12 02:50:15.63	12.00	5.22	
2025-01-12 02:50:15.84	11.98	5.23	
2025-01-12 02:50:16.05	11.96	5.24	
2025-01-12 02:50:16.25	11.94	5.25	
2025-01-12 02:50:16.47	11.92	5.26	
2025-01-12 02:50:16.67	11.90	5.27	
2025-01-12 02:50:16.88	11.88	5.28	
2025-01-12 02:50:17.09	11.86	5.29	
2025-01-12 02:50:17.29	11.84	5.31	
2025-01-12 02:50:17.50	11.82	5.32	
2025-01-12 02:50:17.70	11.80	5.33	
2025-01-12 02:50:17.91	11.78	5.34	
2025-01-12 02:50:18.11	11.76	5.35	
2025-01-12 02:50:18.32	11.73	5.36	
2025-01-12 02:50:18.52	11.71	5.37	
2025-01-12 02:50:18.73	11.69	5.38	
2025-01-12 02:50:18.93	11.67	5.39	
2025-01-12 02:50:19.14	11.65	5.41	
2025-01-12 02:50:19.34	11.63	5.42	
2025-01-12 02:50:19.55	11.61	5.43	
2025-01-12 02:50:19.75	11.59	5.44	
2025-01-12 02:50:19.96	11.57	5.45	
2025-01-12 02:50:20.16	11.55	5.46	
2025-01-12 02:50:20.37	11.53	5.47	
2025-01-12 02:50:20.58	11.51	5.48	
2025-01-12 02:50:20.79	11.49	5.50	
2025-01-12 02:50:21.00	11.46	5.51	
2025-01-12 02:50:21.21	11.44	5.52	
2025-01-12 02:50:21.41	11.42	5.53	
2025-01-12 02:50:21.62	11.40	5.54	
2025-01-12 02:50:21.82	11.38	5.55	
2025-01-12 02:50:22.03	11.36	5.56	
2025-01-12 02:50:22.23	11.34	5.57	
2025-01-12 02:50:22.44	11.32	5.59	
2025-01-12 02:50:22.64	11.30	5.60	
2025-01-12 02:50:22.85	11.28	5.61	
2025-01-12 02:50:23.05	11.26	5.62	
2025-01-12 02:50:23.26	11.23	5.63	
2025-01-12 02:50:23.46	11.21	5.64	
2025-01-12 02:50:23.67	11.19	5.65	
2025-01-12 02:50:23.87	11.17	5.66	
2025-01-12 02:50:24.08	11.15	5.67	
2025-01-12 02:50:24.28	11.13	5.69	
2025-01-12 02:50:24.49	11.11	5.70	
2025-01-12 02:50:24.69	11.09	5.71	
2025-01-12 02:50:24.90	11.07	5.72	
2025-01-12 02:50:25.10	11.04	5.73	
2025-01-12 02:50:25.31	11.02	5.74	
2025-01-12 02:50:25.51	11.00	5.75	
2025-01-12 02:50:25.72	10.98	5.76	
2025-01-12 02:50:25.92	10.96	5.77	
2025-01-12 02:50:26.13	10.94	5.79	
2025-01-12 02:50:26.33	10.92	5.80	
2025-01-12 02:50:26.53	10.90	5.81	
2025-01-12 02:50:26.74	10.88	5.82	
2025-01-12 02:50:26.95	10.85	5.83	
2025-01-12 02:50:27.16	10.83	5.84	
2025-01-12 02:50:27.37	10.81	5.85	
2025-01-12 02:50:27.57	10.79	5.86	
2025-01-12 02:50:27.78	10.77	5.88	
2025-01-12 02:50:27.98	10.75	5.89	
2025-01-12 02:50:28.19	10.72	5.90	
2025-01-12 02:50:28.39	10.70	5.91	
2025-01-12 02:50:28.60	10.68	5.92	
2025-01-12 02:50:28.81	10.66	5.93	
2025-01-12 02:50:29.01	10.64	5.94	
2025-01-12 02:50:29.21	10.62	5.95	
2025-01-12 02:50:29.42	10.60	5.97	
2025-01-12 02:50:29.62	10.57	5.98	
2025-01-12 02:50:29.83	10.55	5.99	
2025-01-12 02:50:30.03	10.53	6.00	
2025-01-12 02:50:30.24	10.51	6.01	
2025-01-12 02:50:30.44	10.49	6.02	
2025-01-12 02:50:30.65	10.47	6.03	
2025-01-12 02:50:30.86	10.44	6.04	
2025-01-12 02:50:31.06	10.42	6.06	
2025-01-12 02:50:31.27	10.40	6.07	
2025-01-12 02:50:31.47	10.38	6.08	
2025-01-12 02:50:31.68	10.36	6.09	
2025-01-12 02:50:31.88	10.34	6.10	
2025-01-12 02:50:32.09	10.31	6.11	
2025-01-12 02:50:32.29	10.29	6.12	
2025-01-12 02:50:32.50	10.27	6.13	
2025-01-12 02:50:32.71	10.25	6.15	
2025-01-12 02:50:32.91	10.23	6.16	
2025-01-12 02:50:33.12	10.21	6.17	
2025-01-12 02:50:33.32	10.18	6.18	
2025-01-12 02:50:33.54	10.16	6.19	
2025-01-12 02:50:33.74	10.14	6.20	
2025-01-12 02:50:33.95	10.12	6.21	
2025-01-12 02:50:34.15	10.10	6.22	
2025-01-12 02:50:34.36	10.07	6.24	
2025-01-12 02:50:34.56	10.05	6.25	
2025-01-12 02:50:34.77	10.03	6.26	
2025-01-12 02:50:34.97	10.01	6.27	
2025-01-12 02:50:35.18	9.99	6.28	
2025-01-12 02:50:35.39	9.96	6.29	
2025-01-12 02:50:35.59	9.94	6.30	
2025-01-12 02:50:35.79	9.92	6.31	
2025-01-12 02:50:36.00	9.90	6.33	
2025-01-12 02:50:36.21	9.87	6.34	
2025-01-12 02:50:36.41	9.85	6.35	
2025-01-12 02:50:36.62	9.83	6.36	
2025-01-12 02:50:36.82	9.81	6.37	
2025-01-12 02:50:37.03	9.79	6.38	
2025-01-12 02:50:37.23	9.76	6.39	
2025-01-12 02:50:37.44	9.74	6.40	
2025-01-12 02:50:37.65	9.72	6.42	
2025-01-12 02:50:37.85	9.70	6.43	
2025-01-12 02:50:38.06	9.67	6.44	
2025-01-12 02:50:38.26	9.65	6.45	
2025-01-12 02:50:38.47	9.63	6.46	
2025-01-12 02:50:38.67	9.61	6.47	
2025-01-12 02:50:38.88	9.59	6.48	
2025-01-12 02:50:39.08	9.56	6.49	
2025-01-12 02:50:39.29	9.54	6.51	
2025-01-12 02:50:39.49	9.52	6.52	
2025-01-12 02:50:39.70	9.50	6.53	
2025-01-12 02:50:39.92	9.47	6.54	
2025-01-12 02:50:40.12	9.45	6.55	
2025-01-12 02:50:40.33	9.43	6.56	
2025-01-12 02:50:40.53	9.41	6.57	
2025-01-12 02:50:40.74	9.38	6.59	
2025-01-12 02:50:40.95	9.36	6.60	
2025-01-12 02:50:41.15	9.34	6.61	
2025-01-12 02:50:41.36	9.31	6.62	
2025-01-12 02:50:41.56	9.29	6.63	
2025-01-12 02:50:41.77	9.27	6.64	
2025-01-12 02:50:41.97	9.25	6.65	
2025-01-12 02:50:42.18	9.22	6.66	
2025-01-12 02:50:42.39	9.20	6.68	
2025-01-12 02:50:42.59	9.18	6.69	
2025-01-12 02:50:42.80	9.16	6.70	
2025-01-12 02:50:43.00	9.13	6.71	
2025-01-12 02:50:43.21	9.11	6.72	
2025-01-12 02:50:43.41	9.09	6.73	
2025-01-12 02:50:43.62	9.07	6.74	
2025-01-12 02:50:43.82	9.04	6.75	
2025-01-12 02:50:44.03	9.02	6.77	
2025-01-12 02:50:44.23	9.00	6.78	
2025-01-12 02:50:44.44	8.97	6.79	
2025-01-12 02:50:44.64	8.95	6.80	
2025-01-12 02:50:44.85	8.93	6.81	
2025-01-12 02:50:45.05	8.91	6.82	
2025-01-12 02:50:45.26	8.88	6.83	
2025-01-12 02:50:45.46	8.86	6.84	
2025-01-12 02:50:45.67	8.84	6.86	
2025-01-12 02:50:45.87	8.82	6.87	
2025-01-12 02:50:46.08	8.79	6.88	
2025-01-12 02:50:46.28	8.77	6.89	
2025-01-12 02:50:46.49	8.75	6.90	
2025-01-12 02:50:46.69	8.72	6.91	
2025-01-12 02:50:46.89	8.70	6.92	
2025-01-12 02:50:47.10	8.68	6.93	
2025-01-12 02:50:47.30	8.66	6.94	
2025-01-12 02:50:47.51	8.63	6.96	
2025-01-12 02:50:47.71	8.61	6.97	
2025-01-12 02:50:47.92	8.59	6.98	
2025-01-12 02:50:48.13	8.56	6.99	
2025-01-12 02:50:48.33	8.54	7.00	
2025-01-12 02:50:48.55	8.51	7.01	
2025-01-12 02:50:48.75	8.49	7.02	
2025-01-12 02:50:48.96	8.47	7.04	
2025-01-12 02:50:49.17	8.44	7.05	
2025-01-12 02:50:49.37	8.42	7.06	
2025-01-12 02:50:49.58	8.40	7.07	
2025-01-12 02:50:49.78	8.38	7.08	
2025-01-12 02:50:49.99	8.35	7.09	
2025-01-12 02:50:50.19	8.33	7.10	
2025-01-12 02:50:50.40	8.30	7.12	
2025-01-12 02:50:50.60	8.28	7.13	
2025-01-12 02:50:50.81	8.26	7.14	
2025-01-12 02:50:51.02	8.23	7.15	
2025-01-12 02:50:51.22	8.21	7.16	
2025-01-12 02:50:51.43	8.19	7.17	
2025-01-12 02:50:51.63	8.16	7.18	
2025-01-12 02:50:51.84	8.14	7.19	
2025-01-12 02:50:52.05	8.12	7.21	
2025-01-12 02:50:52.25	8.09	7.22	
2025-01-12 02:50:52.46	8.07	7.23	
2025-01-12 02:50:52.66	8.05	7.24	
2025-01-12 02:50:52.87	8.02	7.25	
2025-01-12 02:50:53.07	8.00	7.26	
2025-01-12 02:50:53.28	7.98	7.27	
2025-01-12 02:50:53.49	7.95	7.29	
2025-01-12 02:50:53.69	7.93	7.30	
2025-01-12 02:50:53.90	7.90	7.31	
2025-01-12 02:50:54.10	7.88	7.32	
2025-01-12 02:50:54.31	7.86	7.33	
2025-01-12 02:50:54.51	7.83	7.34	
2025-01-12 02:50:54.72	7.81	7.35	
2025-01-12 02:50:54.92	7.79	7.36	
2025-01-12 02:50:55.13	7.76	7.38	
2025-01-12 02:50:55.34	7.74	7.39	
2025-01-12 02:50:55.54	7.71	7.40	
2025-01-12 02:50:55.75	7.69	7.41	
2025-01-12 02:50:55.95	7.67	7.42	
2025-01-12 02:50:56.16	7.64	7.43	
2025-01-12 02:50:56.36	7.62	7.44	
2025-01-12 02:50:56.57	7.59	7.45	
2025-01-12 02:50:56.77	7.57	7.47	
2025-01-12 02:50:56.98	7.55	7.48	
2025-01-12 02:50:57.18	7.52	7.49	
2025-01-12 02:50:57.39	7.50	7.50	
2025-01-12 02:50:57.59	7.48	7.51	
2025-01-12 02:50:57.80	7.45	7.52	
2025-01-12 02:50:58.00	7.43	7.53	
2025-01-12 02:50:58.21	7.40	7.54	
2025-01-12 02:50:58.41	7.38	7.56	
2025-01-12 02:50:58.62	7.36	7.57	
2025-01-12 02:50:58.82	7.33	7.58	
2025-01-12 02:50:59.03	7.31	7.59	
2025-01-12 02:50:59.23	7.28	7.60	
2025-01-12 02:50:59.44	7.26	7.61	
2025-01-12 02:50:59.65	7.23	7.62	
2025-01-12 02:50:59.85	7.21	7.63	
2025-01-12 02:51:00.05	7.19	7.65	
2025-01-12 02:51:00.26	7.16	7.66	
2025-01-12 02:51:00.46	7.14	7.67	
2025-01-12 02:51:00.67	7.11	7.68	
2025-01-12 02:51:00.87	7.09	7.69	
2025-01-12 02:51:01.08	7.06	7.70	
2025-01-12 02:51:01.28	7.04	7.71	
2025-01-12 02:51:01.49	7.02	7.73	
2025-01-12 02:51:01.69	6.99	7.74	
2025-01-12 02:51:01.90	6.97	7.75	
2025-01-12 02:51:02.11	6.94	7.76	
2025-01-12 02:51:02.32	6.92	7.77	
2025-01-12 02:51:02.53	6.89	7.78	
2025-01-12 02:51:02.74	6.87	7.79	
2025-01-12 02:51:02.94	6.84	7.80	
2025-01-12 02:51:03.14	6.82	7.82	
2025-01-12 02:51:03.35	6.79	7.83	
2025-01-12 02:51:03.56	6.77	7.84	
2025-01-12 02:51:03.76	6.75	7.85	
2025-01-12 02:51:03.96	6.72	7.86	
2025-01-12 02:51:04.17	6.70	7.87	
2025-01-12 02:51:04.37	6.67	7.88	
2025-01-12 02:51:04.58	6.65	7.89	
2025-01-12 02:51:04.79	6.62	7.91	
2025-01-12 02:51:04.99	6.60	7.92	
2025-01-12 02:51:05.20	6.57	7.93	
2025-01-12 02:51:05.40	6.55	7.94	
2025-01-12 02:51:05.61	6.52	7.95	
2025-01-12 02:51:05.81	6.50	7.96	
2025-01-12 02:51:06.02	6.47	7.97	
2025-01-12 02:51:06.22	6.45	7.99	
2025-01-12 02:51:06.43	6.42	8.00	
2025-01-12 02:51:06.63	6.40	8.01	
2025-01-12 02:51:06.84	6.37	8.02	
2025-01-12 02:51:07.04	6.35	8.03	
2025-01-12 02:51:07.25	6.32	8.04	
2025-01-12 02:51:07.45	6.30	8.05	
2025-01-12 02:51:07.67	6.27	8.06	
2025-01-12 02:51:07.88	6.25	8.08	
2025-01-12 02:51:08.08	6.22	8.09	
2025-01-12 02:51:08.29	6.20	8.10	
2025-01-12 02:51:08.49	6.17	8.11	
2025-01-12 02:51:08.69	6.15	8.12	
2025-01-12 02:51:08.90	6.12	8.13	
2025-01-12 02:51:09.11	6.10	8.14	
2025-01-12 02:51:09.31	6.07	8.16	
2025-01-12 02:51:09.52	6.05	8.17	
2025-01-12 02:51:09.72	6.02	8.18	
2025-01-12 02:51:09.93	6.00	8.19	
2025-01-12 02:51:10.13	5.97	8.20	
2025-01-12 02:51:10.34	5.95	8.21	
2025-01-12 02:51:10.54	5.92	8.22	
2025-01-12 02:51:10.75	5.90	8.23	
2025-01-12 02:51:10.95	5.87	8.25	
2025-01-12 02:51:11.16	5.85	8.26	
2025-01-12 02:51:11.36	5.82	8.27	
2025-01-12 02:51:11.56	5.80	8.28	
2025-01-12 02:51:11.77	5.77	8.29	
2025-01-12 02:51:11.99	5.74	8.30	
2025-01-12 02:51:12.19	5.72	8.31	
2025-01-12 02:51:12.40	5.69	8.33	
2025-01-12 02:51:12.61	5.67	8.34	
2025-01-12 02:51:12.81	5.64	8.35	
2025-01-12 02:51:13.03	5.62	8.36	
2025-01-12 02:51:13.23	5.59	8.37	
2025-01-12 02:51:13.44	5.56	8.38	
2025-01-12 02:51:13.65	5.54	8.39	
2025-01-12 02:51:13.85	5.51	8.40	
2025-01-12 02:51:14.06	5.49	8.42	
2025-01-12 02:51:14.26	5.46	8.43	
2025-01-12 02:51:14.47	5.44	8.44	
2025-01-12 02:51:14.67	5.41	8.45	
2025-01-12 02:51:14.88	5.38	8.46	
2025-01-12 02:51:15.08	5.36	8.47	
2025-01-12 02:51:15.29	5.33	8.48	
2025-01-12 02:51:15.49	5.31	8.49	
2025-01-12 02:51:15.70	5.28	8.51	
2025-01-12 02:51:15.90	5.26	8.52	
2025-01-12 02:51:16.11	5.23	8.53	
2025-01-12 02:51:16.33	5.20	8.54	
2025-01-12 02:51:16.53	5.18	8.55	
2025-01-12 02:51:16.74	5.15	8.56	
2025-01-12 02:51:16.94	5.13	8.57	
2025-01-12 02:51:17.15	5.10	8.59	
2025-01-12 02:51:17.35	5.07	8.60	
2025-01-12 02:51:17.56	5.05	8.61	
2025-01-12 02:51:17.77	5.02	8.62	
2025-01-12 02:51:17.97	5.00	8.63	
2025-01-12 02:51:18.18	4.97	8.64	
2025-01-12 02:51:18.38	4.94	8.65	
2025-01-12 02:51:18.59	4.92	8.67	
2025-01-12 02:51:18.80	4.89	8.68	
2025-01-12 02:51:19.00	4.87	8.69	
2025-01-12 02:51:19.21	4.84	8.70	
2025-01-12 02:51:19.42	4.81	8.71	
2025-01-12 02:51:19.63	4.79	8.72	
2025-01-12 02:51:19.83	4.76	8.73	
2025-01-12 02:51:20.04	4.73	8.74	
2025-01-12 02:51:20.24	4.71	8.76	
2025-01-12 02:51:20.44	4.68	8.77	
2025-01-12 02:51:20.65	4.66	8.78	
2025-01-12 02:51:20.85	4.63	8.79	
2025-01-12 02:51:21.06	4.60	8.80	
2025-01-12 02:51:21.27	4.58	8.81	
2025-01-12 02:51:21.47	4.55	8.82	
2025-01-12 02:51:21.68	4.52	8.83	
2025-01-12 02:51:21.88	4.50	8.85	
2025-01-12 02:51:22.09	4.47	8.86	
2025-01-12 02:51:22.29	4.44	8.87	
2025-01-12 02:51:22.50	4.42	8.88	
2025-01-12 02:51:22.70	4.39	8.89	
2025-01-12 02:51:22.91	4.36	8.90	
2025-01-12 02:51:23.11	4.34	8.91	
2025-01-12 02:51:23.32	4.31	8.92	
2025-01-12 02:51:23.52	4.29	8.94	
2025-01-12 02:51:23.73	4.26	8.95	
2025-01-12 02:51:23.93	4.23	8.96	
2025-01-12 02:51:24.14	4.21	8.97	
2025-01-12 02:51:24.35	4.18	8.98	
2025-01-12 02:51:24.55	4.15	8.99	
2025-01-12 02:51:24.75	4.13	9.00	
2025-01-12 02:51:24.96	4.10	9.01	
2025-01-12 02:51:25.17	4.07	9.03	
2025-01-12 02:51:25.37	4.05	9.04	
2025-01-12 02:51:25.58	4.02	9.05	
2025-01-12 02:51:25.80	3.99	9.06	
2025-01-12 02:51:26.00	3.96	9.07	
2025-01-12 02:51:26.21	3.94	9.08	
2025-01-12 02:51:26.41	3.91	9.09	
2025-01-12 02:51:26.62	3.88	9.11	
2025-01-12 02:51:26.82	3.86	9.12	
2025-01-12 02:51:27.02	3.83	9.13	
2025-01-12 02:51:27.23	3.80	9.14	
2025-01-12 02:51:27.44	3.78	9.15	
2025-01-12 02:51:27.64	3.75	9.16	
2025-01-12 02:51:27.85	3.72	9.17	
2025-01-12 02:51:28.05	3.70	9.18	
2025-01-12 02:51:28.26	3.67	9.20	
2025-01-12 02:51:28.46	3.64	9.21	
2025-01-12 02:51:28.67	3.61	9.22	
2025-01-12 02:51:28.88	3.59	9.23	
2025-01-12 02:51:29.08	3.56	9.24	
2025-01-12 02:51:29.29	3.53	9.25	
2025-01-12 02:51:29.49	3.51	9.26	
2025-01-12 02:51:29.70	3.48	9.27	
2025-01-12 02:51:29.90	3.45	9.28	
2025-01-12 02:51:30.11	3.42	9.30	
2025-01-12 02:51:30.31	3.40	9.31	
2025-01-12 02:51:30.52	3.37	9.32	
2025-01-12 02:51:30.72	3.34	9.33	
2025-01-12 02:51:30.93	3.31	9.34	
2025-01-12 02:51:31.13	3.29	9.35	
2025-01-12 02:51:31.34	3.26	9.36	
2025-01-12 02:51:31.54	3.23	9.37	
2025-01-12 02:51:31.75	3.20	9.39	
2025-01-12 02:51:31.95	3.18	9.40	
2025-01-12 02:51:32.15	3.15	9.41	
2025-01-12 02:51:32.36	3.12	9.42	
2025-01-12 02:51:32.57	3.10	9.43	
2025-01-12 02:51:32.77	3.07	9.44	
2025-01-12 02:51:32.98	3.04	9.45	
2025-01-12 02:51:33.19	3.01	9.46	
2025-01-12 02:51:33.39	2.99	9.48	
2025-01-12 02:51:33.59	2.96	9.49	
2025-01-12 02:51:33.80	2.93	9.50	
2025-01-12 02:51:34.01	2.90	9.51	
2025-01-12 02:51:34.21	2.87	9.52	
2025-01-12 02:51:34.43	2.85	9.53	
2025-01-12 02:51:34.64	2.82	9.54	
2025-01-12 02:51:34.84	2.79	9.55	
2025-01-12 02:51:35.05	2.76	9.57	
2025-01-12 02:51:35.25	2.73	9.58	
2025-01-12 02:51:35.47	2.70	9.59	
2025-01-12 02:51:35.68	2.68	9.60	
2025-01-12 02:51:35.88	2.65	9.61	
2025-01-12 02:51:36.09	2.62	9.62	
2025-01-12 02:51:36.30	2.59	9.63	
2025-01-12 02:51:36.50	2.57	9.64	
2025-01-12 02:51:36.70	2.54	9.66	
2025-01-12 02:51:36.91	2.51	9.67	
2025-01-12 02:51:37.12	2.48	9.68	
2025-01-12 02:51:37.32	2.45	9.69	
2025-01-12 02:51:37.53	2.42	9.70	
2025-01-12 02:51:37.73	2.40	9.71	
2025-01-12 02:51:37.94	2.37	9.72	
2025-01-12 02:51:38.14	2.34	9.73	
2025-01-12 02:51:38.35	2.31	9.75	
2025-01-12 02:51:38.55	2.29	9.76	
2025-01-12 02:51:38.76	2.26	9.77	
2025-01-12 02:51:38.96	2.23	9.78	
2025-01-12 02:51:39.17	2.20	9.79	
2025-01-12 02:51:39.37	2.17	9.80	
2025-01-12 02:51:39.58	2.14	9.81	
2025-01-12 02:51:39.78	2.12	9.82	
2025-01-12 02:51:39.99	2.09	9.83	
2025-01-12 02:51:40.19	2.06	9.85	
2025-01-12 02:51:40.40	2.03	9.86	
2025-01-12 02:51:40.61	2.00	9.87	
2025-01-12 02:51:40.81	1.97	9.88	
2025-01-12 02:51:41.02	1.95	9.89	
2025-01-12 02:51:41.22	1.92	9.90	
2025-01-12 02:51:41.43	1.89	9.91	
2025-01-12 02:51:41.63	1.86	9.92	
2025-01-12 02:51:41.84	1.83	9.93	
2025-01-12 02:51:42.04	1.80	9.95	
2025-01-12 02:51:42.25	1.77	9.96	
2025-01-12 02:51:42.45	1.75	9.97	
2025-01-12 02:51:42.66	1.72	9.98	
2025-01-12 02:51:42.86	1.69	9.99	
2025-01-12 02:51:43.07	1.66	10.00	
2025-01-12 02:51:43.27	1.63	10.01	
2025-01-12 02:51:43.48	1.60	10.02	
2025-01-12 02:51:43.68	1.58	10.03	
2025-01-12 02:51:43.89	1.55	10.05	
2025-01-12 02:51:44.09	1.52	10.06	
2025-01-12 02:51:44.30	1.49	10.07	
2025-01-12 02:51:44.51	1.46	10.08	
2025-01-12 02:51:44.71	1.43	10.09	
2025-01-12 02:51:44.92	1.40	10.10	
2025-01-12 02:51:45.12	1.37	10.11	
2025-01-12 02:51:45.33	1.34	10.12	
2025-01-12 02:51:45.53	1.32	10.13	
2025-01-12 02:51:45.74	1.29	10.15	
2025-01-12 02:51:45.94	1.26	10.16	
2025-01-12 02:51:46.16	1.23	10.17	
2025-01-12 02:51:46.36	1.20	10.18	
2025-01-12 02:51:46.57	1.17	10.19	
2025-01-12 02:51:46.78	1.14	10.20	
2025-01-12 02:51:46.98	1.11	10.21	
2025-01-12 02:51:47.19	1.08	10.22	
2025-01-12 02:51:47.39	1.05	10.24	
2025-01-12 02:51:47.60	1.02	10.25	
2025-01-12 02:51:47.80	1.00	10.26	
2025-01-12 02:51:48.01	0.97	10.27	
2025-01-12 02:51:48.21	0.94	10.28	
2025-01-12 02:51:48.41	0.91	10.29	
2025-01-12 02:51:48.62	0.88	10.30	
2025-01-12 02:51:48.83	0.85	10.31	
2025-01-12 02:51:49.03	0.82	10.32	
2025-01-12 02:51:49.24	0.79	10.33	
2025-01-12 02:51:49.44	0.76	10.35	
2025-01-12 02:51:49.65	0.73	10.36	
2025-01-12 02:51:49.85	0.70	10.37	
2025-01-12 02:51:50.06	0.67	10.38	
2025-01-12 02:51:50.26	0.65	10.39	
2025-01-12 02:51:50.47	0.62	10.40	
2025-01-12 02:51:50.67	0.59	10.41	
2025-01-12 02:51:50.88	0.56	10.42	
2025-01-12 02:51:51.08	0.53	10.43	
2025-01-12 02:51:51.29	0.50	10.45	
2025-01-12 02:51:51.49	0.47	10.46	
2025-01-12 02:51:51.70	0.44	10.47	
2025-01-12 02:51:51.90	0.41	10.48	
2025-01-12 02:51:52.11	0.38	10.49	
2025-01-12 02:51:52.31	0.35	10.50	
2025-01-12 02:51:52.52	0.32	10.51	
2025-01-12 02:51:52.72	0.29	10.52	
2025-01-12 02:51:52.93	0.26	10.53	
2025-01-12 02:51:53.13	0.23	10.54	
2025-01-12 02:51:53.34	0.20	10.56	
2025-01-12 02:51:53.56	0.17	10.57	
2025-01-12 02:51:53.76	0.14	10.58	
2025-01-12 02:51:53.97	0.11	10.59	
2025-01-12 02:51:54.17	0.08	10.60	
2025-01-12 02:51:54.38	0.05	10.61	
2025-01-12 02:51:54.58	0.02	10.62	
2025-01-12 02:51:54.79	359.99	10.63	
2025-01-12 02:51:55.00	359.96	10.64	
2025-01-12 02:51:55.20	359.93	10.65	
2025-01-12 02:51:55.41	359.90	10.67	
2025-01-12 02:51:55.61	359.87	10.68	
2025-01-12 02:51:55.82	359.84	10.69	
2025-01-12 02:51:56.02	359.81	10.70	
2025-01-12 02:51:56.23	359.78	10.71	
2025-01-12 02:51:56.43	359.75	10.72	
2025-01-12 02:51:56.64	359.72	10.73	
2025-01-12 02:51:56.84	359.69	10.74	
2025-01-12 02:51:57.05	359.66	10.75	
2025-01-12 02:51:57.25	359.63	10.76	
2025-01-12 02:51:57.46	359.60	10.78	
2025-01-12 02:51:57.66	359.57	10.79	
2025-01-12 02:51:57.87	359.54	10.80	
2025-01-12 02:51:58.07	359.51	10.81	
2025-01-12 02:51:58.28	359.48	10.82	
2025-01-12 02:51:58.48	359.45	10.83	
2025-01-12 02:51:58.69	359.42	10.84	
2025-01-12 02:51:58.89	359.39	10.85	
2025-01-12 02:51:59.10	359.36	10.86	
2025-01-12 02:51:59.30	359.33	10.87	
2025-01-12 02:51:59.51	359.30	10.88	
2025-01-12 02:51:59.71	359.27	10.90	
2025-01-12 02:51:59.92	359.24	10.91	
2025-01-12 02:52:00.12	359.21	10.92	
2025-01-12 02:52:00.32	359.18	10.93	
2025-01-12 02:52:00.53	359.15	10.94	
2025-01-12 02:52:00.74	359.11	10.95	
2025-01-12 02:52:00.94	359.08	10.96	
2025-01-12 02:52:01.15	359.05	10.97	
2025-01-12 02:52:01.35	359.02	10.98	
2025-01-12 02:52:01.56	358.99	10.99	
2025-01-12 02:52:01.76	358.96	11.00	
2025-01-12 02:52:01.97	358.93	11.02	
2025-01-12 02:52:02.17	358.90	11.03	
2025-01-12 02:52:02.38	358.87	11.04	
2025-01-12 02:52:02.58	358.84	11.05	
2025-01-12 02:52:02.79	358.81	11.06	
2025-01-12 02:52:02.99	358.78	11.07	
2025-01-12 02:52:03.20	358.75	11.08	
2025-01-12 02:52:03.40	358.72	11.09	
2025-01-12 02:52:03.61	358.69	11.10	
2025-01-12 02:52:03.81	358.65	11.11	
2025-01-12 02:52:04.01	358.62	11.12	
2025-01-12 02:52:04.22	358.59	11.13	
2025-01-12 02:52:04.42	358.56	11.15	
2025-01-12 02:52:04.63	358.53	11.16	
2025-01-12 02:52:04.83	358.50	11.17	
2025-01-12 02:52:05.04	358.47	11.18	
2025-01-12 02:52:05.24	358.44	11.19	
2025-01-12 02:52:05.45	358.41	11.20	
2025-01-12 02:52:05.66	358.38	11.21	
2025-01-12 02:52:05.86	358.35	11.22	
2025-01-12 02:52:06.07	358.31	11.23	
2025-01-12 02:52:06.27	358.28	11.24	
2025-01-12 02:52:06.48	358.25	11.25	
2025-01-12 02:52:06.69	358.22	11.26	
2025-01-12 02:52:06.89	358.19	11.28	
2025-01-12 02:52:07.10	358.16	11.29	
2025-01-12 02:52:07.30	358.13	11.30	
2025-01-12 02:52:07.51	358.09	11.31	
2025-01-12 02:52:07.71	358.06	11.32	
2025-01-12 02:52:07.92	358.03	11.33	
2025-01-12 02:52:08.12	358.00	11.34	
2025-01-12 02:52:08.33	357.97	11.35	
2025-01-12 02:52:08.53	357.94	11.36	
2025-01-12 02:52:08.74	357.91	11.37	
2025-01-12 02:52:08.94	357.88	11.38	
2025-01-12 02:52:09.15	357.84	11.39	
2025-01-12 02:52:09.35	357.81	11.40	
2025-01-12 02:52:09.56	357.78	11.42	
2025-01-12 02:52:09.76	357.75	11.43	
2025-01-12 02:52:09.97	357.72	11.44	
2025-01-12 02:52:10.17	357.69	11.45	
2025-01-12 02:52:10.38	357.65	11.46	
2025-01-12 02:52:10.58	357.62	11.47	
2025-01-12 02:52:10.79	357.59	11.48	
2025-01-12 02:52:10.99	357.56	11.49	
2025-01-12 02:52:11.20	357.53	11.50	
2025-01-12 02:52:11.40	357.50	11.51	
2025-01-12 02:52:11.61	357.46	11.52	
2025-01-12 02:52:11.81	357.43	11.53	
2025-01-12 02:52:12.02	357.40	11.54	
2025-01-12 02:52:12.22	357.37	11.55	
2025-01-12 02:52:12.43	357.34	11.57	
2025-01-12 02:52:12.63	357.30	11.58	
2025-01-12 02:52:12.84	357.27	11.59	
2025-01-12 02:52:13.04	357.24	11.60	
2025-01-12 02:52:13.25	357.21	11.61	
2025-01-12 02:52:13.46	357.18	11.62	
2025-01-12 02:52:13.66	357.14	11.63	
2025-01-12 02:52:13.86	357.11	11.64	
2025-01-12 02:52:14.07	357.08	11.65	
2025-01-12 02:52:14.27	357.05	11.66	
2025-01-12 02:52:14.48	357.02	11.67	
2025-01-12 02:52:14.68	356.98	11.68	
2025-01-12 02:52:14.89	356.95	11.69	
2025-01-12 02:52:15.09	356.92	11.70	
2025-01-12 02:52:15.30	356.89	11.71	
2025-01-12 02:52:15.51	356.85	11.73	
2025-01-12 02:52:15.71	356.82	11.74	
2025-01-12 02:52:15.93	356.79	11.75	
2025-01-12 02:52:16.13	356.76	11.76	
2025-01-12 02:52:16.34	356.72	11.77	
2025-01-12 02:52:16.54	356.69	11.78	
2025-01-12 02:52:16.75	356.66	11.79	
2025-01-12 02:52:16.95	356.63	11.80	
2025-01-12 02:52:17.16	356.59	11.81	
2025-01-12 02:52:17.37	356.56	11.82	
2025-01-12 02:52:17.57	356.53	11.83	
2025-01-12 02:52:17.78	356.50	11.84	
2025-01-12 02:52:17.98	356.46	11.85	
2025-01-12 02:52:18.19	356.43	11.86	
2025-01-12 02:52:18.40	356.40	11.87	
2025-01-12 02:52:18.60	356.37	11.89	
2025-01-12 02:52:18.81	356.33	11.90	
2025-01-12 02:52:19.01	356.30	11.91	
2025-01-12 02:52:19.22	356.27	11.92	
2025-01-12 02:52:19.42	356.24	11.93	
2025-01-12 02:52:19.64	356.20	11.94	
2025-01-12 02:52:19.85	356.17	11.95	
2025-01-12 02:52:20.05	356.14	11.96	
2025-01-12 02:52:20.26	356.10	11.97	
2025-01-12 02:52:20.46	356.07	11.98	
2025-01-12 02:52:20.67	356.04	11.99	
2025-01-12 02:52:20.87	356.00	12.00	
2025-01-12 02:52:21.08	355.97	12.01	
2025-01-12 02:52:21.28	355.94	12.02	
2025-01-12 02:52:21.49	355.90	12.03	
2025-01-12 02:52:21.69	355.87	12.04	
2025-01-12 02:52:21.90	355.84	12.05	
2025-01-12 02:52:22.10	355.81	12.06	
2025-01-12 02:52:22.31	355.77	12.08	
2025-01-12 02:52:22.51	355.74	12.09	
2025-01-12 02:52:22.72	355.71	12.10	
2025-01-12 02:52:22.92	355.67	12.11	
2025-01-12 02:52:23.13	355.64	12.12	
2025-01-12 02:52:23.33	355.61	12.13	
2025-01-12 02:52:23.53	355.58	12.14	
2025-01-12 02:52:23.74	355.54	12.15	
2025-01-12 02:52:23.95	355.51	12.16	
2025-01-12 02:52:24.15	355.48	12.17	
2025-01-12 02:52:24.35	355.44	12.18	
2025-01-12 02:52:24.56	355.41	12.19	
2025-01-12 02:52:24.76	355.38	12.20	
2025-01-12 02:52:24.97	355.34	12.21	
2025-01-12 02:52:25.17	355.31	12.22	
2025-01-12 02:52:25.38	355.28	12.23	
2025-01-12 02:52:25.58	355.24	12.24	
2025-01-12 02:52:25.79	355.21	12.25	
2025-01-12 02:52:25.99	355.18	12.26	
2025-01-12 02:52:26.20	355.14	12.27	
2025-01-12 02:52:26.41	355.11	12.28	
2025-01-12 02:52:26.61	355.08	12.29	
2025-01-12 02:52:26.82	355.04	12.30	
2025-01-12 02:52:27.02	355.01	12.31	
2025-01-12 02:52:27.23	354.97	12.33	
2025-01-12 02:52:27.43	354.94	12.34	
2025-01-12 02:52:27.64	354.91	12.35	
2025-01-12 02:52:27.84	354.87	12.36	
2025-01-12 02:52:28.05	354.84	12.37	
2025-01-12 02:52:28.25	354.81	12.38	
2025-01-12 02:52:28.46	354.77	12.39	
2025-01-12 02:52:28.66	354.74	12.40	
2025-01-12 02:52:28.87	354.70	12.41	
2025-01-12 02:52:29.07	354.67	12.42	
2025-01-12 02:52:29.28	354.64	12.43	
2025-01-12 02:52:29.49	354.60	12.44	
2025-01-12 02:52:29.69	354.57	12.45	
2025-01-12 02:52:29.90	354.53	12.46	
2025-01-12 02:52:30.10	354.50	12.47	
2025-01-12 02:52:30.31	354.47	12.48	
2025-01-12 02:52:30.51	354.43	12.49	
2025-01-12 02:52:30.72	354.40	12.50	
2025-01-12 02:52:30.92	354.37	12.51	
2025-01-12 02:52:31.13	354.33	12.52	
2025-01-12 02:52:31.34	354.30	12.53	
2025-01-12 02:52:31.54	354.26	12.54	
2025-01-12 02:52:31.75	354.23	12.55	
2025-01-12 02:52:31.95	354.19	12.56	
2025-01-12 02:52:32.16	354.16	12.57	
2025-01-12 02:52:32.36	354.13	12.58	
2025-01-12 02:52:32.57	354.09	12.59	
2025-01-12 02:52:32.77	354.06	12.60	
2025-01-12 02:52:32.98	354.02	12.61	
2025-01-12 02:52:33.18	353.99	12.62	
2025-01-12 02:52:33.39	353.95	12.63	
2025-01-12 02:52:33.59	353.92	12.64	
2025-01-12 02:52:33.80	353.88	12.65	
2025-01-12 02:52:34.00	353.85	12.66	
2025-01-12 02:52:34.21	353.82	12.67	
2025-01-12 02:52:34.41	353.78	12.68	
2025-01-12 02:52:34.62	353.75	12.69	
2025-01-12 02:52:34.82	353.71	12.70	
2025-01-12 02:52:35.03	353.68	12.71	
2025-01-12 02:52:35.23	353.64	12.72	
2025-01-12 02:52:35.44	353.61	12.74	
2025-01-12 02:52:35.65	353.57	12.75	
2025-01-12 02:52:35.85	353.54	12.76	
2025-01-12 02:52:36.05	353.51	12.77	
2025-01-12 02:52:36.26	353.47	12.78	
2025-01-12 02:52:36.46	353.44	12.79	
2025-01-12 02:52:36.67	353.40	12.80	
2025-01-12 02:52:36.87	353.37	12.81	
2025-01-12 02:52:37.08	353.33	12.82	
2025-01-12 02:52:37.29	353.30	12.83	
2025-01-12 02:52:37.49	353.26	12.84	
2025-01-12 02:52:37.70	353.23	12.85	
2025-01-12 02:52:37.91	353.19	12.86	
2025-01-12 02:52:38.12	353.16	12.87	
2025-01-12 02:52:38.32	353.12	12.88	
2025-01-12 02:52:38.53	353.09	12.89	
2025-01-12 02:52:38.74	353.05	12.90	
2025-01-12 02:52:38.94	353.02	12.91	
2025-01-12 02:52:39.15	352.98	12.92	
2025-01-12 02:52:39.35	352.95	12.93	
2025-01-12 02:52:39.56	352.91	12.94	
2025-01-12 02:52:39.76	352.88	12.95	
2025-01-12 02:52:39.97	352.84	12.96	
2025-01-12 02:52:40.19	352.80	12.97	
2025-01-12 02:52:40.39	352.77	12.98	
2025-01-12 02:52:40.60	352.73	12.99	
2025-01-12 02:52:40.80	352.70	13.00	
2025-01-12 02:52:41.01	352.66	13.01	
2025-01-12 02:52:41.22	352.63	13.02	
2025-01-12 02:52:41.42	352.59	13.03	
2025-01-12 02:52:41.62	352.56	13.04	
2025-01-12 02:52:41.83	352.52	13.05	
2025-01-12 02:52:42.04	352.48	13.06	
2025-01-12 02:52:42.24	352.45	13.07	
2025-01-12 02:52:42.45	352.41	13.08	
2025-01-12 02:52:42.65	352.38	13.09	
2025-01-12 02:52:42.86	352.34	13.10	
2025-01-12 02:52:43.06	352.31	13.11	
2025-01-12 02:52:43.27	352.27	13.12	
2025-01-12 02:52:43.47	352.24	13.13	
2025-01-12 02:52:43.68	352.20	13.14	
2025-01-12 02:52:43.89	352.16	13.15	
2025-01-12 02:52:44.09	352.13	13.16	
2025-01-12 02:52:44.30	352.09	13.17	
2025-01-12 02:52:44.51	352.06	13.18	
2025-01-12 02:52:44.71	352.02	13.19	
2025-01-12 02:52:44.92	351.99	13.20	
2025-01-12 02:52:45.12	351.95	13.21	
2025-01-12 02:52:45.33	351.91	13.22	
2025-01-12 02:52:45.53	351.88	13.23	
2025-01-12 02:52:45.74	351.84	13.24	
2025-01-12 02:52:45.94	351.81	13.24	
2025-01-12 02:52:46.15	351.77	13.25	
2025-01-12 02:52:46.35	351.74	13.26	
2025-01-12 02:52:46.56	351.70	13.27	
2025-01-12 02:52:46.77	351.66	13.28	
2025-01-12 02:52:46.97	351.63	13.29	
2025-01-12 02:52:47.17	351.59	13.30	
2025-01-12 02:52:47.38	351.56	13.31	
2025-01-12 02:52:47.59	351.52	13.32	
2025-01-12 02:52:47.79	351.48	13.33	
2025-01-12 02:52:47.99	351.45	13.34	
2025-01-12 02:52:48.20	351.41	13.35	
2025-01-12 02:52:48.41	351.37	13.36	
2025-01-12 02:52:48.62	351.34	13.37	
2025-01-12 02:52:48.82	351.30	13.38	
2025-01-12 02:52:49.03	351.27	13.39	
2025-01-12 02:52:49.23	351.23	13.40	
2025-01-12 02:52:49.44	351.19	13.41	
2025-01-12 02:52:49.64	351.16	13.42	
2025-01-12 02:52:49.85	351.12	13.43	
2025-01-12 02:52:50.05	351.08	13.44	
2025-01-12 02:52:50.26	351.05	13.45	
2025-01-12 02:52:50.46	351.01	13.46	
2025-01-12 02:52:50.67	350.98	13.47	
2025-01-12 02:52:50.87	350.94	13.48	
2025-01-12 02:52:51.08	350.90	13.49	
2025-01-12 02:52:51.28	350.87	13.50	
2025-01-12 02:52:51.49	350.83	13.51	
2025-01-12 02:52:51.69	350.79	13.52	
2025-01-12 02:52:51.90	350.76	13.53	
2025-01-12 02:52:52.11	350.72	13.54	
2025-01-12 02:52:52.31	350.68	13.55	
2025-01-12 02:52:52.52	350.65	13.55	
2025-01-12 02:52:52.72	350.61	13.56	
2025-01-12 02:52:52.93	350.57	13.57	
2025-01-12 02:52:53.13	350.54	13.58	
2025-01-12 02:52:53.34	350.50	13.59	
2025-01-12 02:52:53.54	350.46	13.60	
2025-01-12 02:52:53.75	350.43	13.61	
2025-01-12 02:52:53.95	350.39	13.62	
2025-01-12 02:52:54.16	350.35	13.63	
2025-01-12 02:52:54.37	350.32	13.64	
2025-01-12 02:52:54.58	350.28	13.65	
2025-01-12 02:52:54.79	350.24	13.66	
2025-01-12 02:52:54.99	350.20	13.67	
2025-01-12 02:52:55.20	350.17	13.68	
2025-01-12 02:52:55.40	350.13	13.69	
2025-01-12 02:52:55.61	350.09	13.70	
2025-01-12 02:52:55.81	350.06	13.71	
2025-01-12 02:52:56.02	350.02	13.72	
2025-01-12 02:52:56.23	349.98	13.73	
2025-01-12 02:52:56.44	349.94	13.74	
2025-01-12 02:52:56.65	349.90	13.75	
2025-01-12 02:52:56.85	349.87	13.75	
2025-01-12 02:52:57.06	349.83	13.76	
2025-01-12 02:52:57.26	349.79	13.77	
2025-01-12 02:52:57.47	349.76	13.78	
2025-01-12 02:52:57.67	349.72	13.79	
2025-01-12 02:52:57.88	349.68	13.80	
2025-01-12 02:52:58.08	349.65	13.81	
2025-01-12 02:52:58.29	349.61	13.82	
2025-01-12 02:52:58.49	349.57	13.83	
2025-01-12 02:52:58.71	349.53	13.84	
2025-01-12 02:52:58.92	349.49	13.85	
2025-01-12 02:52:59.12	349.46	13.86	
2025-01-12 02:52:59.33	349.42	13.87	
2025-01-12 02:52:59.53	349.38	13.88	
2025-01-12 02:52:59.74	349.34	13.89	
2025-01-12 02:52:59.94	349.31	13.89	
2025-01-12 02:53:00.15	349.27	13.90	
2025-01-12 02:53:00.35	349.23	13.91	
2025-01-12 02:53:00.56	349.19	13.92	
2025-01-12 02:53:00.77	349.16	13.93	
2025-01-12 02:53:00.99	349.11	13.94	
2025-01-12 02:53:01.19	349.08	13.95	
2025-01-12 02:53:01.40	349.04	13.96	
2025-01-12 02:53:01.60	349.00	13.97	
2025-01-12 02:53:01.80	348.97	13.98	
2025-01-12 02:53:02.01	348.93	13.99	
2025-01-12 02:53:02.21	348.89	14.00	
2025-01-12 02:53:02.42	348.85	14.01	
2025-01-12 02:53:02.62	348.82	14.01	
2025-01-12 02:53:02.83	348.78	14.02	
2025-01-12 02:53:03.03	348.74	14.03	
2025-01-12 02:53:03.24	348.70	14.04	
2025-01-12 02:53:03.44	348.66	14.05	
2025-01-12 02:53:03.65	348.63	14.06	
2025-01-12 02:53:03.86	348.59	14.07	
2025-01-12 02:53:04.06	348.55	14.08	
2025-01-12 02:53:04.26	348.51	14.09	
2025-01-12 02:53:04.47	348.47	14.10	
2025-01-12 02:53:04.68	348.44	14.11	
2025-01-12 02:53:04.88	348.40	14.11	
2025-01-12 02:53:05.08	348.36	14.12	
2025-01-12 02:53:05.29	348.32	14.13	
2025-01-12 02:53:05.50	348.28	14.14	
2025-01-12 02:53:05.70	348.25	14.15	
2025-01-12 02:53:05.90	348.21	14.16	
2025-01-12 02:53:06.11	348.17	14.17	
2025-01-12 02:53:06.31	348.13	14.18	
2025-01-12 02:53:06.52	348.09	14.19	
2025-01-12 02:53:06.72	348.06	14.20	
2025-01-12 02:53:06.93	348.02	14.20	
2025-01-12 02:53:07.14	347.98	14.21	
2025-01-12 02:53:07.34	347.94	14.22	
2025-01-12 02:53:07.55	347.90	14.23	
2025-01-12 02:53:07.75	347.86	14.24	
2025-01-12 02:53:07.96	347.82	14.25	
2025-01-12 02:53:08.16	347.79	14.26	
2025-01-12 02:53:08.37	347.75	14.27	
2025-01-12 02:53:08.57	347.71	14.28	
2025-01-12 02:53:08.78	347.67	14.28	
2025-01-12 02:53:08.98	347.63	14.29	
2025-01-12 02:53:09.19	347.59	14.30	
2025-01-12 02:53:09.39	347.56	14.31	
2025-01-12 02:53:09.60	347.52	14.32	
2025-01-12 02:53:09.80	347.48	14.33	
2025-01-12 02:53:10.01	347.44	14.34	
2025-01-12 02:53:10.21	347.40	14.35	
2025-01-12 02:53:10.42	347.36	14.36	
2025-01-12 02:53:10.62	347.32	14.36	
2025-01-12 02:53:10.83	347.29	14.37	
2025-01-12 02:53:11.03	347.25	14.38	
2025-01-12 02:53:11.24	347.21	14.39	
2025-01-12 02:53:11.45	347.17	14.40	
2025-01-12 02:53:11.65	347.13	14.41	
2025-01-12 02:53:11.85	347.09	14.42	
2025-01-12 02:53:12.06	347.05	14.43	
2025-01-12 02:53:12.27	347.01	14.43	
2025-01-12 02:53:12.47	346.98	14.44	
2025-01-12 02:53:12.68	346.94	14.45	
2025-01-12 02:53:12.88	346.90	14.46	
2025-01-12 02:53:13.09	346.86	14.47	
2025-01-12 02:53:13.29	346.82	14.48	
2025-01-12 02:53:13.50	346.78	14.49	
2025-01-12 02:53:13.71	346.74	14.49	
2025-01-12 02:53:13.91	346.70	14.50	
2025-01-12 02:53:14.12	346.66	14.51	
2025-01-12 02:53:14.32	346.62	14.52	
2025-01-12 02:53:14.52	346.59	14.53	
2025-01-12 02:53:14.73	346.55	14.54	
2025-01-12 02:53:14.93	346.51	14.55	
2025-01-12 02:53:15.14	346.47	14.55	
2025-01-12 02:53:15.35	346.43	14.56	
2025-01-12 02:53:15.55	346.39	14.57	
2025-01-12 02:53:15.76	346.35	14.58	
2025-01-12 02:53:15.96	346.31	14.59	
2025-01-12 02:53:16.17	346.27	14.60	
2025-01-12 02:53:16.37	346.23	14.61	
2025-01-12 02:53:16.58	346.19	14.61	
2025-01-12 02:53:16.79	346.15	14.62	
2025-01-12 02:53:16.99	346.11	14.63	
2025-01-12 02:53:17.20	346.07	14.64	
2025-01-12 02:53:17.40	346.03	14.65	
2025-01-12 02:53:17.61	345.99	14.66	
2025-01-12 02:53:17.81	345.96	14.66	
2025-01-12 02:53:18.02	345.91	14.67	
2025-01-12 02:53:18.22	345.88	14.68	
2025-01-12 02:53:18.43	345.84	14.69	
2025-01-12 02:53:18.63	345.80	14.70	
2025-01-12 02:53:18.84	345.76	14.71	
2025-01-12 02:53:19.04	345.72	14.71	
2025-01-12 02:53:19.25	345.68	14.72	
2025-01-12 02:53:19.46	345.64	14.73	
2025-01-12 02:53:19.66	345.60	14.74	
2025-01-12 02:53:19.87	345.56	14.75	
2025-01-12 02:53:20.07	345.52	14.76	
2025-01-12 02:53:20.28	345.48	14.76	
2025-01-12 02:53:20.48	345.44	14.77	
2025-01-12 02:53:20.69	345.40	14.78	
2025-01-12 02:53:20.89	345.36	14.79	
2025-01-12 02:53:21.09	345.32	14.80	
2025-01-12 02:53:21.30	345.28	14.81	
2025-01-12 02:53:21.50	345.24	14.81	
2025-01-12 02:53:21.71	345.20	14.82	
2025-01-12 02:53:21.91	345.16	14.83	
2025-01-12 02:53:22.12	345.12	14.84	
2025-01-12 02:53:22.32	345.08	14.85	
2025-01-12 02:53:22.53	345.04	14.85	
2025-01-12 02:53:22.74	345.00	14.86	
2025-01-12 02:53:22.94	344.96	14.87	
2025-01-12 02:53:23.15	344.92	14.88	
2025-01-12 02:53:23.35	344.88	14.89	
2025-01-12 02:53:23.56	344.84	14.90	
2025-01-12 02:53:23.76	344.80	14.90	
2025-01-12 02:53:23.97	344.76	14.91	
2025-01-12 02:53:24.17	344.72	14.92	
2025-01-12 02:53:24.38	344.68	14.93	
2025-01-12 02:53:24.58	344.64	14.94	
2025-01-12 02:53:24.79	344.60	14.94	
2025-01-12 02:53:24.99	344.56	14.95	
2025-01-12 02:53:25.20	344.52	14.96	
2025-01-12 02:53:25.40	344.48	14.97	
2025-01-12 02:53:25.61	344.44	14.98	
2025-01-12 02:53:25.81	344.40	14.98	
2025-01-12 02:53:26.02	344.36	14.99	
2025-01-12 02:53:26.22	344.32	15.00	
2025-01-12 02:53:26.43	344.28	15.01	
2025-01-12 02:53:26.63	344.24	15.02	
2025-01-12 02:53:26.84	344.20	15.02	
2025-01-12 02:53:27.04	344.16	15.03	
2025-01-12 02:53:27.25	344.11	15.04	
2025-01-12 02:53:27.46	344.07	15.05	
2025-01-12 02:53:27.66	344.03	15.05	
2025-01-12 02:53:27.86	343.99	15.06	
2025-01-12 02:53:28.07	343.95	15.07	
2025-01-12 02:53:28.27	343.91	15.08	
2025-01-12 02:53:28.48	343.87	15.09	
2025-01-12 02:53:28.68	343.83	15.09	
2025-01-12 02:53:28.89	343.79	15.10	
2025-01-12 02:53:29.09	343.75	15.11	
2025-01-12 02:53:29.30	343.71	15.12	
2025-01-12 02:53:29.50	343.67	15.12	
2025-01-12 02:53:29.72	343.63	15.13	
2025-01-12 02:53:29.93	343.58	15.14	
2025-01-12 02:53:30.13	343.54	15.15	
2025-01-12 02:53:30.34	343.50	15.16	
2025-01-12 02:53:30.55	343.46	15.16	
2025-01-12 02:53:30.75	343.42	15.17	
2025-01-12 02:53:30.96	343.38	15.18	
2025-01-12 02:53:31.16	343.34	15.19	
2025-01-12 02:53:31.37	343.30	15.19	
2025-01-12 02:53:31.57	343.26	15.20	
2025-01-12 02:53:31.79	343.21	15.21	
2025-01-12 02:53:31.99	343.17	15.22	
2025-01-12 02:53:32.20	343.13	15.23	
2025-01-12 02:53:32.40	343.09	15.23	
2025-01-12 02:53:32.61	343.05	15.24	
2025-01-12 02:53:32.81	343.01	15.25	
2025-01-12 02:53:33.02	342.97	15.26	
2025-01-12 02:53:33.22	342.93	15.26	
2025-01-12 02:53:33.43	342.88	15.27	
2025-01-12 02:53:33.64	342.84	15.28	
2025-01-12 02:53:33.84	342.80	15.29	
2025-01-12 02:53:34.06	342.76	15.29	
2025-01-12 02:53:34.27	342.72	15.30	
2025-01-12 02:53:34.47	342.68	15.31	
2025-01-12 02:53:34.67	342.64	15.32	
2025-01-12 02:53:34.88	342.59	15.32	
2025-01-12 02:53:35.08	342.55	15.33	
2025-01-12 02:53:35.29	342.51	15.34	
2025-01-12 02:53:35.50	342.47	15.35	
2025-01-12 02:53:35.70	342.43	15.35	
2025-01-12 02:53:35.91	342.39	15.36	
2025-01-12 02:53:36.11	342.34	15.37	
2025-01-12 02:53:36.32	342.30	15.38	
2025-01-12 02:53:36.53	342.26	15.38	
2025-01-12 02:53:36.73	342.22	15.39	
2025-01-12 02:53:36.94	342.18	15.40	
2025-01-12 02:53:37.14	342.14	15.40	
2025-01-12 02:53:37.34	342.10	15.41	
2025-01-12 02:53:37.55	342.05	15.42	
2025-01-12 02:53:37.75	342.01	15.43	
2025-01-12 02:53:37.96	341.97	15.43	
2025-01-12 02:53:38.16	341.93	15.44	
2025-01-12 02:53:38.36	341.89	15.45	
2025-01-12 02:53:38.57	341.85	15.46	
2025-01-12 02:53:38.77	341.81	15.46	
2025-01-12 02:53:38.98	341.76	15.47	
2025-01-12 02:53:39.18	341.72	15.48	
2025-01-12 02:53:39.39	341.68	15.48	
2025-01-12 02:53:39.59	341.64	15.49	
2025-01-12 02:53:39.80	341.60	15.50	
2025-01-12 02:53:40.00	341.56	15.50	
2025-01-12 02:53:40.21	341.51	15.51	
2025-01-12 02:53:40.41	341.47	15.52	
2025-01-12 02:53:40.62	341.43	15.53	
2025-01-12 02:53:40.82	341.39	15.53	
2025-01-12 02:53:41.03	341.35	15.54	
2025-01-12 02:53:41.24	341.30	15.55	
2025-01-12 02:53:41.44	341.26	15.55	
2025-01-12 02:53:41.64	341.22	15.56	
2025-01-12 02:53:41.85	341.18	15.57	
2025-01-12 02:53:42.06	341.13	15.58	
2025-01-12 02:53:42.26	341.09	15.58	
2025-01-12 02:53:42.46	341.05	15.59	
2025-01-12 02:53:42.67	341.01	15.60	
2025-01-12 02:53:42.88	340.97	15.60	
2025-01-12 02:53:43.08	340.93	15.61	
2025-01-12 02:53:43.29	340.88	15.62	
2025-01-12 02:53:43.49	340.84	15.62	
2025-01-12 02:53:43.70	340.80	15.63	
2025-01-12 02:53:43.90	340.76	15.64	
2025-01-12 02:53:44.11	340.71	15.64	
2025-01-12 02:53:44.31	340.67	15.65	
2025-01-12 02:53:44.52	340.63	15.66	
2025-01-12 02:53:44.72	340.59	15.66	
2025-01-12 02:53:44.93	340.55	15.67	
2025-01-12 02:53:45.13	340.50	15.68	
2025-01-12 02:53:45.34	340.46	15.68	
2025-01-12 02:53:45.55	340.42	15.69	
2025-01-12 02:53:45.75	340.38	15.70	
2025-01-12 02:53:45.96	340.33	15.71	
2025-01-12 02:53:46.16	340.29	15.71	
2025-01-12 02:53:46.37	340.25	15.72	
2025-01-12 02:53:46.58	340.20	15.73	
2025-01-12 02:53:46.78	340.16	15.73	
2025-01-12 02:53:46.98	340.12	15.74	
2025-01-12 02:53:47.19	340.08	15.75	
2025-01-12 02:53:47.39	340.04	15.75	
2025-01-12 02:53:47.60	339.99	15.76	
2025-01-12 02:53:47.80	339.95	15.76	
2025-01-12 02:53:48.01	339.91	15.77	
2025-01-12 02:53:48.21	339.87	15.78	
2025-01-12 02:53:48.42	339.82	15.78	
2025-01-12 02:53:48.62	339.78	15.79	
2025-01-12 02:53:48.83	339.74	15.80	
2025-01-12 02:53:49.03	339.70	15.80	
2025-01-12 02:53:49.24	339.65	15.81	
2025-01-12 02:53:49.44	339.61	15.82	
2025-01-12 02:53:49.65	339.57	15.82	
2025-01-12 02:53:49.85	339.53	15.83	
2025-01-12 02:53:50.06	339.48	15.84	
2025-01-12 02:53:50.26	339.44	15.84	
2025-01-12 02:53:50.47	339.40	15.85	
2025-01-12 02:53:50.67	339.35	15.86	
2025-01-12 02:53:50.88	339.31	15.86	
2025-01-12 02:53:51.08	339.27	15.87	
2025-01-12 02:53:51.29	339.22	15.87	
2025-01-12 02:53:51.49	339.18	15.88	
2025-01-12 02:53:51.70	339.14	15.89	
2025-01-12 02:53:51.90	339.10	15.89	
2025-01-12 02:53:52.11	339.05	15.90	
2025-01-12 02:53:52.31	339.01	15.91	
2025-01-12 02:53:52.52	338.97	15.91	
2025-01-12 02:53:52.72	338.93	15.92	
2025-01-12 02:53:52.93	338.88	15.92	
2025-01-12 02:53:53.13	338.84	15.93	
2025-01-12 02:53:53.34	338.80	15.94	
2025-01-12 02:53:53.55	338.75	15.94	
2025-01-12 02:53:53.75	338.71	15.95	
2025-01-12 02:53:53.96	338.67	15.96	
2025-01-12 02:53:54.16	338.62	15.96	
2025-01-12 02:53:54.37	338.58	15.97	
2025-01-12 02:53:54.58	338.53	15.97	
2025-01-12 02:53:54.78	338.49	15.98	
2025-01-12 02:53:54.99	338.45	15.99	
2025-01-12 02:53:55.19	338.41	15.99	
2025-01-12 02:53:55.41	338.36	16.00	
2025-01-12 02:53:55.62	338.32	16.00	
2025-01-12 02:53:55.82	338.27	16.01	
2025-01-12 02:53:56.02	338.23	16.02	
2025-01-12 02:53:56.23	338.19	16.02	
2025-01-12 02:53:56.43	338.14	16.03	
2025-01-12 02:53:56.63	338.10	16.03	
2025-01-12 02:53:56.84	338.06	16.04	
2025-01-12 02:53:57.04	338.02	16.05	
2025-01-12 02:53:57.24	337.97	16.05	
2025-01-12 02:53:57.45	337.93	16.06	
2025-01-12 02:53:57.65	337.89	16.06	
2025-01-12 02:53:57.86	337.84	16.07	
2025-01-12 02:53:58.06	337.80	16.07	
2025-01-12 02:53:58.27	337.76	16.08	
2025-01-12 02:53:58.47	337.71	16.09	
2025-01-12 02:53:58.68	337.67	16.09	
2025-01-12 02:53:58.89	337.62	16.10	
2025-01-12 02:53:59.09	337.58	16.10	
2025-01-12 02:53:59.30	337.54	16.11	
2025-01-12 02:53:59.50	337.49	16.12	
2025-01-12 02:53:59.71	337.45	16.12	
2025-01-12 02:53:59.91	337.41	16.13	
2025-01-12 02:54:00.13	337.36	16.13	
2025-01-12 02:54:00.34	337.32	16.14	
2025-01-12 02:54:00.54	337.27	16.14	
2025-01-12 02:54:00.75	337.23	16.15	
2025-01-12 02:54:00.95	337.19	16.16	
2025-01-12 02:54:01.16	337.14	16.16	
2025-01-12 02:54:01.36	337.10	16.17	
2025-01-12 02:54:01.57	337.05	16.17	
2025-01-12 02:54:01.79	337.01	16.18	
2025-01-12 02:54:01.99	336.96	16.18	
2025-01-12 02:54:02.20	336.92	16.19	
2025-01-12 02:54:02.40	336.88	16.19	
2025-01-12 02:54:02.61	336.83	16.20	
2025-01-12 02:54:02.81	336.79	16.21	
2025-01-12 02:54:03.02	336.74	16.21	
2025-01-12 02:54:03.23	336.70	16.22	
2025-01-12 02:54:03.43	336.66	16.22	
2025-01-12 02:54:03.64	336.61	16.23	
2025-01-12 02:54:03.84	336.57	16.23	
2025-01-12 02:54:04.04	336.53	16.24	
2025-01-12 02:54:04.25	336.48	16.24	
2025-01-12 02:54:04.45	336.44	16.25	
2025-01-12 02:54:04.66	336.39	16.25	
2025-01-12 02:54:04.86	336.35	16.26	
2025-01-12 02:54:05.07	336.30	16.27	
2025-01-12 02:54:05.27	336.26	16.27	
2025-01-12 02:54:05.48	336.22	16.28	
2025-01-12 02:54:05.69	336.17	16.28	
2025-01-12 02:54:05.89	336.13	16.29	
2025-01-12 02:54:06.09	336.09	16.29	
2025-01-12 02:54:06.30	336.04	16.30	
2025-01-12 02:54:06.51	336.00	16.30	
2025-01-12 02:54:06.71	335.95	16.31	
2025-01-12 02:54:06.92	335.91	16.31	
2025-01-12 02:54:07.12	335.86	16.32	
2025-01-12 02:54:07.33	335.82	16.32	
2025-01-12 02:54:07.53	335.78	16.33	
2025-01-12 02:54:07.74	335.73	16.33	
2025-01-12 02:54:07.94	335.69	16.34	
2025-01-12 02:54:08.15	335.64	16.34	
2025-01-12 02:54:08.35	335.60	16.35	
2025-01-12 02:54:08.56	335.55	16.35	
2025-01-12 02:54:08.76	335.51	16.36	
2025-01-12 02:54:08.97	335.46	16.36	
2025-01-12 02:54:09.17	335.42	16.37	
2025-01-12 02:54:09.38	335.38	16.37	
2025-01-12 02:54:09.58	335.33	16.38	
2025-01-12 02:54:09.79	335.29	16.38	
2025-01-12 02:54:09.99	335.24	16.39	
2025-01-12 02:54:10.20	335.20	16.39	
2025-01-12 02:54:10.40	335.16	16.40	
2025-01-12 02:54:10.61	335.11	16.40	
2025-01-12 02:54:10.81	335.07	16.41	
2025-01-12 02:54:11.02	335.02	16.41	
2025-01-12 02:54:11.22	334.98	16.42	
2025-01-12 02:54:11.43	334.93	16.42	
2025-01-12 02:54:11.63	334.89	16.43	
2025-01-12 02:54:11.84	334.84	16.43	
2025-01-12 02:54:12.05	334.80	16.44	
2025-01-12 02:54:12.25	334.75	16.44	
2025-01-12 02:54:12.45	334.71	16.44	
2025-01-12 02:54:12.66	334.67	16.45	
2025-01-12 02:54:12.86	334.62	16.45	
2025-01-12 02:54:13.07	334.58	16.46	
2025-01-12 02:54:13.28	334.53	16.46	
2025-01-12 02:54:13.49	334.48	16.47	
2025-01-12 02:54:13.70	334.44	16.47	
2025-01-12 02:54:13.91	334.39	16.48	
2025-01-12 02:54:14.11	334.35	16.48	
2025-01-12 02:54:14.32	334.30	16.49	
2025-01-12 02:54:14.52	334.26	16.49	
2025-01-12 02:54:14.73	334.21	16.50	
2025-01-12 02:54:14.93	334.17	16.50	
2025-01-12 02:54:15.14	334.13	16.51	
2025-01-12 02:54:15.35	334.08	16.51	
2025-01-12 02:54:15.55	334.04	16.51	
2025-01-12 02:54:15.75	333.99	16.52	
2025-01-12 02:54:15.96	333.95	16.52	
2025-01-12 02:54:16.16	333.90	16.53	
2025-01-12 02:54:16.37	333.86	16.53	
2025-01-12 02:54:16.58	333.81	16.54	
2025-01-12 02:54:16.78	333.77	16.54	
2025-01-12 02:54:16.98	333.72	16.54	
2025-01-12 02:54:17.19	333.68	16.55	
2025-01-12 02:54:17.39	333.63	16.55	
2025-01-12 02:54:17.60	333.59	16.56	
2025-01-12 02:54:17.82	333.54	16.56	
2025-01-12 02:54:18.02	333.50	16.57	
2025-01-12 02:54:18.23	333.45	16.57	
2025-01-12 02:54:18.43	333.41	16.57	
2025-01-12 02:54:18.64	333.36	16.58	
2025-01-12 02:54:18.85	333.31	16.58	
2025-01-12 02:54:19.06	333.27	16.59	
2025-01-12 02:54:19.26	333.22	16.59	
2025-01-12 02:54:19.47	333.18	16.60	
2025-01-12 02:54:19.68	333.13	16.60	
2025-01-12 02:54:19.88	333.09	16.60	
2025-01-12 02:54:20.08	333.04	16.61	
2025-01-12 02:54:20.29	333.00	16.61	
2025-01-12 02:54:20.49	332.95	16.62	
2025-01-12 02:54:20.70	332.91	16.62	
2025-01-12 02:54:20.90	332.86	16.62	
2025-01-12 02:54:21.11	332.82	16.63	
2025-01-12 02:54:21.31	332.77	16.63	
2025-01-12 02:54:21.52	332.73	16.64	
2025-01-12 02:54:21.73	332.68	16.64	
2025-01-12 02:54:21.93	332.64	16.64	
2025-01-12 02:54:22.13	332.59	16.65	
2025-01-12 02:54:22.34	332.55	16.65	
2025-01-12 02:54:22.55	332.50	16.66	
2025-01-12 02:54:22.75	332.46	16.66	
2025-01-12 02:54:22.96	332.41	16.66	
2025-01-12 02:54:23.17	332.36	16.67	
2025-01-12 02:54:23.38	332.32	16.67	
2025-01-12 02:54:23.59	332.27	16.68	
2025-01-12 02:54:23.79	332.23	16.68	
2025-01-12 02:54:24.00	332.18	16.68	
2025-01-12 02:54:24.21	332.13	16.69	
2025-01-12 02:54:24.42	332.09	16.69	
2025-01-12 02:54:24.63	332.04	16.69	
2025-01-12 02:54:24.83	332.00	16.70	
2025-01-12 02:54:25.04	331.95	16.70	
2025-01-12 02:54:25.24	331.91	16.70	
2025-01-12 02:54:25.45	331.86	16.71	
2025-01-12 02:54:25.65	331.82	16.71	
2025-01-12 02:54:25.86	331.77	16.72	
2025-01-12 02:54:26.06	331.72	16.72	
2025-01-12 02:54:26.27	331.68	16.72	
2025-01-12 02:54:26.47	331.63	16.73	
2025-01-12 02:54:26.68	331.59	16.73	
2025-01-12 02:54:26.88	331.54	16.73	
2025-01-12 02:54:27.09	331.50	16.74	
2025-01-12 02:54:27.29	331.45	16.74	
2025-01-12 02:54:27.49	331.41	16.74	
2025-01-12 02:54:27.70	331.36	16.75	
2025-01-12 02:54:27.91	331.32	16.75	
2025-01-12 02:54:28.11	331.27	16.75	
2025-01-12 02:54:28.32	331.22	16.76	
2025-01-12 02:54:28.54	331.18	16.76	
2025-01-12 02:54:28.74	331.13	16.76	
2025-01-12 02:54:28.94	331.09	16.77	
2025-01-12 02:54:29.15	331.04	16.77	
2025-01-12 02:54:29.36	330.99	16.77	
2025-01-12 02:54:29.56	330.95	16.78	
2025-01-12 02:54:29.77	330.90	16.78	
2025-01-12 02:54:29.97	330.86	16.78	
2025-01-12 02:54:30.18	330.81	16.79	
2025-01-12 02:54:30.38	330.77	16.79	
2025-01-12 02:54:30.60	330.72	16.79	
2025-01-12 02:54:30.81	330.67	16.80	
2025-01-12 02:54:31.01	330.63	16.80	
2025-01-12 02:54:31.22	330.58	16.80	
2025-01-12 02:54:31.42	330.53	16.81	
2025-01-12 02:54:31.64	330.49	16.81	
2025-01-12 02:54:31.85	330.44	16.81	
2025-01-12 02:54:32.05	330.39	16.82	
2025-01-12 02:54:32.26	330.35	16.82	
2025-01-12 02:54:32.46	330.30	16.82	
2025-01-12 02:54:32.66	330.26	16.82	
2025-01-12 02:54:32.87	330.21	16.83	
2025-01-12 02:54:33.08	330.17	16.83	
2025-01-12 02:54:33.28	330.12	16.83	
2025-01-12 02:54:33.49	330.07	16.84	
2025-01-12 02:54:33.69	330.03	16.84	
2025-01-12 02:54:33.89	329.98	16.84	
2025-01-12 02:54:34.10	329.94	16.84	
2025-01-12 02:54:34.31	329.89	16.85	
2025-01-12 02:54:34.51	329.85	16.85	
2025-01-12 02:54:34.72	329.80	16.85	
2025-01-12 02:54:34.92	329.75	16.86	
2025-01-12 02:54:35.13	329.71	16.86	
2025-01-12 02:54:35.33	329.66	16.86	
2025-01-12 02:54:35.54	329.62	16.86	
2025-01-12 02:54:35.74	329.57	16.87	
2025-01-12 02:54:35.94	329.53	16.87	
2025-01-12 02:54:36.15	329.48	16.87	
2025-01-12 02:54:36.36	329.43	16.87	
2025-01-12 02:54:36.56	329.39	16.88	
2025-01-12 02:54:36.77	329.34	16.88	
2025-01-12 02:54:36.97	329.30	16.88	
2025-01-12 02:54:37.18	329.25	16.89	
2025-01-12 02:54:37.38	329.20	16.89	
2025-01-12 02:54:37.59	329.16	16.89	
2025-01-12 02:54:37.80	329.11	16.89	
2025-01-12 02:54:38.00	329.07	16.90	
2025-01-12 02:54:38.20	329.02	16.90	
2025-01-12 02:54:38.41	328.97	16.90	
2025-01-12 02:54:38.62	328.93	16.90	
2025-01-12 02:54:38.82	328.88	16.91	
2025-01-12 02:54:39.03	328.83	16.91	
2025-01-12 02:54:39.23	328.79	16.91	
2025-01-12 02:54:39.43	328.74	16.91	
2025-01-12 02:54:39.64	328.70	16.91	
2025-01-12 02:54:39.85	328.65	16.92	
2025-01-12 02:54:40.05	328.61	16.92	
2025-01-12 02:54:40.27	328.56	16.92	
2025-01-12 02:54:40.48	328.51	16.92	
2025-01-12 02:54:40.68	328.46	16.93	
2025-01-12 02:54:40.89	328.42	16.93	
2025-01-12 02:54:41.09	328.37	16.93	
2025-01-12 02:54:41.30	328.33	16.93	
2025-01-12 02:54:41.50	328.28	16.94	
2025-01-12 02:54:41.71	328.23	16.94	
2025-01-12 02:54:41.91	328.19	16.94	
2025-01-12 02:54:42.12	328.14	16.94	
2025-01-12 02:54:42.34	328.09	16.94	
2025-01-12 02:54:42.54	328.05	16.95	
2025-01-12 02:54:42.75	328.00	16.95	
2025-01-12 02:54:42.95	327.95	16.95	
2025-01-12 02:54:43.16	327.91	16.95	
2025-01-12 02:54:43.36	327.86	16.95	
2025-01-12 02:54:43.57	327.81	16.96	
2025-01-12 02:54:43.77	327.77	16.96	
2025-01-12 02:54:43.98	327.72	16.96	
2025-01-12 02:54:44.18	327.68	16.96	
2025-01-12 02:54:44.39	327.63	16.96	
2025-01-12 02:54:44.59	327.59	16.97	
2025-01-12 02:54:44.80	327.54	16.97	
2025-01-12 02:54:45.00	327.49	16.97	
2025-01-12 02:54:45.21	327.45	16.97	
2025-01-12 02:54:45.41	327.40	16.97	
2025-01-12 02:54:45.62	327.35	16.98	
2025-01-12 02:54:45.82	327.31	16.98	
2025-01-12 02:54:46.03	327.26	16.98	
2025-01-12 02:54:46.24	327.21	16.98	
2025-01-12 02:54:46.44	327.17	16.98	
2025-01-12 02:54:46.65	327.12	16.98	
2025-01-12 02:54:46.85	327.08	16.99	
2025-01-12 02:54:47.06	327.03	16.99	
2025-01-12 02:54:47.26	326.98	16.99	
2025-01-12 02:54:47.47	326.94	16.99	
2025-01-12 02:54:47.67	326.89	16.99	
2025-01-12 02:54:47.88	326.84	16.99	
2025-01-12 02:54:48.08	326.80	17.00	
2025-01-12 02:54:48.29	326.75	17.00	
2025-01-12 02:54:48.49	326.71	17.00	
2025-01-12 02:54:48.70	326.66	17.00	
2025-01-12 02:54:48.90	326.61	17.00	
2025-01-12 02:54:49.11	326.57	17.00	
2025-01-12 02:54:49.31	326.52	17.00	
2025-01-12 02:54:49.52	326.47	17.01	
2025-01-12 02:54:49.72	326.43	17.01	
2025-01-12 02:54:49.93	326.38	17.01	
2025-01-12 02:54:50.14	326.33	17.01	
2025-01-12 02:54:50.34	326.29	17.01	
2025-01-12 02:54:50.55	326.24	17.01	
2025-01-12 02:54:50.75	326.20	17.01	
2025-01-12 02:54:50.96	326.15	17.02	
2025-01-12 02:54:51.16	326.10	17.02	
2025-01-12 02:54:51.37	326.06	17.02	
2025-01-12 02:54:51.57	326.01	17.02	
2025-01-12 02:54:51.78	325.96	17.02	
2025-01-12 02:54:51.98	325.92	17.02	
2025-01-12 02:54:52.19	325.87	17.02	
2025-01-12 02:54:52.39	325.83	17.02	
2025-01-12 02:54:52.60	325.78	17.03	
2025-01-12 02:54:52.80	325.73	17.03	
2025-01-12 02:54:53.01	325.69	17.03	
2025-01-12 02:54:53.21	325.64	17.03	
2025-01-12 02:54:53.42	325.59	17.03	
2025-01-12 02:54:53.62	325.55	17.03	
2025-01-12 02:54:53.83	325.50	17.03	
2025-01-12 02:54:54.03	325.46	17.03	
2025-01-12 02:54:54.24	325.41	17.03	
2025-01-12 02:54:54.44	325.36	17.03	
2025-01-12 02:54:54.65	325.31	17.04	
2025-01-12 02:54:54.86	325.27	17.04	
2025-01-12 02:54:55.06	325.22	17.04	
2025-01-12 02:54:55.27	325.17	17.04	
2025-01-12 02:54:55.47	325.13	17.04	
2025-01-12 02:54:55.68	325.08	17.04	
2025-01-12 02:54:55.88	325.04	17.04	
2025-01-12 02:54:56.09	324.99	17.04	
2025-01-12 02:54:56.29	324.94	17.04	
2025-01-12 02:54:56.50	324.90	17.04	
2025-01-12 02:54:56.70	324.85	17.04	
2025-01-12 02:54:56.91	324.80	17.05	
2025-01-12 02:54:57.11	324.76	17.05	
2025-01-12 02:54:57.32	324.71	17.05	
2025-01-12 02:54:57.52	324.67	17.05	
2025-01-12 02:54:57.73	324.62	17.05	
2025-01-12 02:54:57.94	324.57	17.05	
2025-01-12 02:54:58.14	324.53	17.05	
2025-01-12 02:54:58.34	324.48	17.05	
2025-01-12 02:54:58.55	324.43	17.05	
2025-01-12 02:54:58.76	324.38	17.05	
2025-01-12 02:54:58.96	324.34	17.05	
2025-01-12 02:54:59.17	324.29	17.05	
2025-01-12 02:54:59.37	324.25	17.05	
2025-01-12 02:54:59.58	324.20	17.05	
2025-01-12 02:54:59.79	324.15	17.05	
2025-01-12 02:54:59.99	324.11	17.05	
2025-01-12 02:55:00.21	324.06	17.05	
2025-01-12 02:55:00.41	324.01	17.06	
2025-01-12 02:55:00.62	323.96	17.06	
2025-01-12 02:55:00.82	323.92	17.06	
2025-01-12 02:55:01.03	323.87	17.06	
2025-01-12 02:55:01.23	323.83	17.06	
2025-01-12 02:55:01.44	323.78	17.06	
2025-01-12 02:55:01.64	323.73	17.06	
2025-01-12 02:55:01.85	323.68	17.06	
2025-01-12 02:55:02.05	323.64	17.06	
2025-01-12 02:55:02.26	323.59	17.06	
2025-01-12 02:55:02.46	323.55	17.06	
2025-01-12 02:55:02.67	323.50	17.06	
2025-01-12 02:55:02.87	323.45	17.06	
2025-01-12 02:55:03.08	323.41	17.06	
2025-01-12 02:55:03.29	323.36	17.06	
2025-01-12 02:55:03.49	323.31	17.06	
2025-01-12 02:55:03.69	323.27	17.06	
2025-01-12 02:55:03.90	323.22	17.06	
2025-01-12 02:55:04.10	323.18	17.06	
2025-01-12 02:55:04.31	323.13	17.06	
2025-01-12 02:55:04.52	323.08	17.06	
2025-01-12 02:55:04.72	323.03	17.06	
2025-01-12 02:55:04.92	322.99	17.06	
2025-01-12 02:55:05.13	322.94	17.06	
2025-01-12 02:55:05.34	322.89	17.06	
2025-01-12 02:55:05.54	322.85	17.06	
2025-01-12 02:55:05.74	322.80	17.06	
2025-01-12 02:55:05.95	322.76	17.06	
2025-01-12 02:55:06.15	322.71	17.06	
2025-01-12 02:55:06.35	322.67	17.06	
2025-01-12 02:55:06.56	322.62	17.06	
2025-01-12 02:55:06.77	322.57	17.06	
2025-01-12 02:55:06.97	322.52	17.06	
2025-01-12 02:55:07.18	322.48	17.06	
2025-01-12 02:55:07.38	322.43	17.06	
2025-01-12 02:55:07.59	322.38	17.06	
2025-01-12 02:55:07.79	322.34	17.06	
2025-01-12 02:55:08.00	322.29	17.06	
2025-01-12 02:55:08.20	322.25	17.06	
2025-01-12 02:55:08.41	322.20	17.06	
2025-01-12 02:55:08.61	322.15	17.06	
2025-01-12 02:55:08.82	322.11	17.06	
2025-01-12 02:55:09.02	322.06	17.06	
2025-01-12 02:55:09.23	322.01	17.06	
2025-01-12 02:55:09.43	321.97	17.05	
2025-01-12 02:55:09.64	321.92	17.05	
2025-01-12 02:55:09.84	321.87	17.05	
2025-01-12 02:55:10.05	321.83	17.05	
2025-01-12 02:55:10.25	321.78	17.05	
2025-01-12 02:55:10.46	321.73	17.05	
2025-01-12 02:55:10.66	321.69	17.05	
2025-01-12 02:55:10.87	321.64	17.05	
2025-01-12 02:55:11.08	321.59	17.05	
2025-01-12 02:55:11.28	321.55	17.05	
2025-01-12 02:55:11.49	321.50	17.05	
2025-01-12 02:55:11.69	321.46	17.05	
2025-01-12 02:55:11.90	321.41	17.05	
2025-01-12 02:55:12.10	321.36	17.05	
2025-01-12 02:55:12.31	321.32	17.05	
2025-01-12 02:55:12.52	321.27	17.05	
2025-01-12 02:55:12.72	321.22	17.05	
2025-01-12 02:55:12.93	321.17	17.04	
2025-01-12 02:55:13.13	321.13	17.04	
2025-01-12 02:55:13.35	321.08	17.04	
2025-01-12 02:55:13.56	321.03	17.04	
2025-01-12 02:55:13.76	320.99	17.04	
2025-01-12 02:55:13.97	320.94	17.04	
2025-01-12 02:55:14.17	320.89	17.04	
2025-01-12 02:55:14.38	320.85	17.04	
2025-01-12 02:55:14.58	320.80	17.04	
2025-01-12 02:55:14.79	320.75	17.04	
2025-01-12 02:55:14.99	320.71	17.04	
2025-01-12 02:55:15.20	320.66	17.04	
2025-01-12 02:55:15.40	320.62	17.03	
2025-01-12 02:55:15.61	320.57	17.03	
2025-01-12 02:55:15.82	320.52	17.03	
2025-01-12 02:55:16.02	320.48	17.03	
2025-01-12 02:55:16.23	320.43	17.03	
2025-01-12 02:55:16.43	320.38	17.03	
2025-01-12 02:55:16.63	320.34	17.03	
2025-01-12 02:55:16.84	320.29	17.03	
2025-01-12 02:55:17.04	320.25	17.03	
2025-01-12 02:55:17.25	320.20	17.02	
2025-01-12 02:55:17.45	320.15	17.02	
2025-01-12 02:55:17.66	320.10	17.02	
2025-01-12 02:55:17.86	320.06	17.02	
2025-01-12 02:55:18.08	320.01	17.02	
2025-01-12 02:55:18.29	319.96	17.02	
2025-01-12 02:55:18.49	319.92	17.02	
2025-01-12 02:55:18.69	319.87	17.02	
2025-01-12 02:55:18.90	319.82	17.01	
2025-01-12 02:55:19.11	319.78	17.01	
2025-01-12 02:55:19.31	319.73	17.01	
2025-01-12 02:55:19.52	319.68	17.01	
2025-01-12 02:55:19.72	319.64	17.01	
2025-01-12 02:55:19.93	319.59	17.01	
2025-01-12 02:55:20.13	319.55	17.01	
2025-01-12 02:55:20.34	319.50	17.01	
2025-01-12 02:55:20.54	319.45	17.00	
2025-01-12 02:55:20.75	319.41	17.00	
2025-01-12 02:55:20.95	319.36	17.00	
2025-01-12 02:55:21.16	319.31	17.00	
2025-01-12 02:55:21.37	319.27	17.00	
2025-01-12 02:55:21.57	319.22	17.00	
2025-01-12 02:55:21.77	319.18	16.99	
2025-01-12 02:55:21.98	319.13	16.99	
2025-01-12 02:55:22.19	319.08	16.99	
2025-01-12 02:55:22.39	319.04	16.99	
2025-01-12 02:55:22.60	318.99	16.99	
2025-01-12 02:55:22.80	318.94	16.99	
2025-01-12 02:55:23.01	318.90	16.98	
2025-01-12 02:55:23.21	318.85	16.98	
2025-01-12 02:55:23.42	318.80	16.98	
2025-01-12 02:55:23.62	318.76	16.98	
2025-01-12 02:55:23.83	318.71	16.98	
2025-01-12 02:55:24.03	318.67	16.98	
2025-01-12 02:55:24.24	318.62	16.97	
2025-01-12 02:55:24.44	318.57	16.97	
2025-01-12 02:55:24.64	318.53	16.97	
2025-01-12 02:55:24.85	318.48	16.97	
2025-01-12 02:55:25.05	318.44	16.97	
2025-01-12 02:55:25.26	318.39	16.96	
2025-01-12 02:55:25.46	318.34	16.96	
2025-01-12 02:55:25.67	318.30	16.96	
2025-01-12 02:55:25.87	318.25	16.96	
2025-01-12 02:55:26.08	318.21	16.96	
2025-01-12 02:55:26.28	318.16	16.96	
2025-01-12 02:55:26.49	318.11	16.95	
2025-01-12 02:55:26.70	318.07	16.95	
2025-01-12 02:55:26.90	318.02	16.95	
2025-01-12 02:55:27.11	317.97	16.95	
2025-01-12 02:55:27.31	317.93	16.94	
2025-01-12 02:55:27.53	317.88	16.94	
2025-01-12 02:55:27.74	317.83	16.94	
2025-01-12 02:55:27.94	317.79	16.94	
2025-01-12 02:55:28.15	317.74	16.94	
2025-01-12 02:55:28.35	317.69	16.93	
2025-01-12 02:55:28.56	317.65	16.93	
2025-01-12 02:55:28.77	317.60	16.93	
2025-01-12 02:55:28.97	317.56	16.93	
2025-01-12 02:55:29.18	317.51	16.93	
2025-01-12 02:55:29.38	317.46	16.92	
2025-01-12 02:55:29.59	317.42	16.92	
2025-01-12 02:55:29.79	317.37	16.92	
2025-01-12 02:55:30.00	317.32	16.92	
2025-01-12 02:55:30.20	317.28	16.91	
2025-01-12 02:55:30.41	317.23	16.91	
2025-01-12 02:55:30.61	317.19	16.91	
2025-01-12 02:55:30.82	317.14	16.91	
2025-01-12 02:55:31.03	317.09	16.90	
2025-01-12 02:55:31.23	317.05	16.90	
2025-01-12 02:55:31.44	317.00	16.90	
2025-01-12 02:55:31.64	316.96	16.90	
2025-01-12 02:55:31.85	316.91	16.89	
2025-01-12 02:55:32.05	316.86	16.89	
2025-01-12 02:55:32.26	316.82	16.89	
2025-01-12 02:55:32.46	316.77	16.89	
2025-01-12 02:55:32.67	316.73	16.88	
2025-01-12 02:55:32.87	316.68	16.88	
