passes_logs/2025/01/12/SPB_Silybum_02/SPB_Silybum_02__20250112_091616_TERRA_rec.log

#Pass ID: 20250112_091616_TERRA
#Satellite: TERRA
#Configuration: TERRA
#Start time: 2025-01-12 09:16:16

#Version: 2.0.20230423
#Station: SPB_Silybum_02
#Location: 30.233357 lon 59.946436 lat
#TLE: 1 25994U 99068A   25011.77277381  .00000769  00000+0  16824-3 0  9997
#TLE: 2 25994  98.0222  74.9057 0003526  79.1717  32.7508 14.60388914333608

#Time	Az	El	Level	Level2	SNR	BER	Gain	Gain2
2025-01-12 09:16:18.40	12.55	4.10	
2025-01-12 09:16:18.61	12.54	4.12	
2025-01-12 09:16:18.82	12.53	4.13	
2025-01-12 09:16:19.02	12.52	4.15	
2025-01-12 09:16:19.23	12.51	4.16	
2025-01-12 09:16:19.43	12.51	4.17	
2025-01-12 09:16:19.64	12.50	4.19	
2025-01-12 09:16:19.84	12.49	4.20	
2025-01-12 09:16:20.05	12.48	4.22	
2025-01-12 09:16:20.25	12.47	4.23	
2025-01-12 09:16:20.46	12.46	4.25	
2025-01-12 09:16:20.66	12.45	4.26	
2025-01-12 09:16:20.87	12.44	4.27	
2025-01-12 09:16:21.07	12.43	4.29	
2025-01-12 09:16:21.28	12.42	4.30	
2025-01-12 09:16:21.49	12.41	4.32	
2025-01-12 09:16:21.69	12.41	4.33	
2025-01-12 09:16:21.90	12.40	4.35	
2025-01-12 09:16:22.10	12.39	4.36	
2025-01-12 09:16:22.31	12.38	4.37	
2025-01-12 09:16:22.51	12.37	4.39	
2025-01-12 09:16:22.71	12.36	4.40	
2025-01-12 09:16:22.92	12.35	4.42	
2025-01-12 09:16:23.13	12.34	4.43	
2025-01-12 09:16:23.33	12.33	4.45	
2025-01-12 09:16:23.54	12.32	4.46	
2025-01-12 09:16:23.74	12.31	4.48	
2025-01-12 09:16:23.95	12.31	4.49	
2025-01-12 09:16:24.15	12.30	4.50	
2025-01-12 09:16:24.36	12.29	4.52	
2025-01-12 09:16:24.56	12.28	4.53	
2025-01-12 09:16:24.76	12.27	4.55	
2025-01-12 09:16:24.97	12.26	4.56	
2025-01-12 09:16:25.18	12.25	4.58	
2025-01-12 09:16:25.38	12.24	4.59	
2025-01-12 09:16:25.59	12.23	4.61	
2025-01-12 09:16:25.79	12.22	4.62	
2025-01-12 09:16:26.00	12.21	4.63	
2025-01-12 09:16:26.21	12.20	4.65	
2025-01-12 09:16:26.41	12.19	4.66	
2025-01-12 09:16:26.62	12.18	4.68	
2025-01-12 09:16:26.82	12.17	4.69	
2025-01-12 09:16:27.04	12.16	4.71	
2025-01-12 09:16:27.25	12.16	4.72	
2025-01-12 09:16:27.45	12.15	4.74	
2025-01-12 09:16:27.66	12.14	4.75	
2025-01-12 09:16:27.86	12.13	4.77	
2025-01-12 09:16:28.07	12.12	4.78	
2025-01-12 09:16:28.27	12.11	4.79	
2025-01-12 09:16:28.48	12.10	4.81	
2025-01-12 09:16:28.68	12.09	4.82	
2025-01-12 09:16:28.89	12.08	4.84	
2025-01-12 09:16:29.11	12.07	4.85	
2025-01-12 09:16:29.31	12.06	4.87	
2025-01-12 09:16:29.52	12.05	4.88	
2025-01-12 09:16:29.72	12.04	4.90	
2025-01-12 09:16:29.93	12.03	4.91	
2025-01-12 09:16:30.13	12.02	4.93	
2025-01-12 09:16:30.33	12.01	4.94	
2025-01-12 09:16:30.55	12.00	4.96	
2025-01-12 09:16:30.76	11.99	4.97	
2025-01-12 09:16:30.96	11.98	4.99	
2025-01-12 09:16:31.17	11.97	5.00	
2025-01-12 09:16:31.37	11.96	5.02	
2025-01-12 09:16:31.57	11.95	5.03	
2025-01-12 09:16:31.78	11.94	5.05	
2025-01-12 09:16:31.98	11.94	5.06	
2025-01-12 09:16:32.19	11.93	5.07	
2025-01-12 09:16:32.41	11.92	5.09	
2025-01-12 09:16:32.61	11.91	5.10	
2025-01-12 09:16:32.82	11.90	5.12	
2025-01-12 09:16:33.02	11.89	5.13	
2025-01-12 09:16:33.23	11.88	5.15	
2025-01-12 09:16:33.45	11.87	5.17	
2025-01-12 09:16:33.65	11.86	5.18	
2025-01-12 09:16:33.86	11.85	5.19	
2025-01-12 09:16:34.06	11.84	5.21	
2025-01-12 09:16:34.27	11.83	5.22	
2025-01-12 09:16:34.47	11.82	5.24	
2025-01-12 09:16:34.68	11.81	5.25	
2025-01-12 09:16:34.88	11.80	5.27	
2025-01-12 09:16:35.09	11.79	5.28	
2025-01-12 09:16:35.30	11.78	5.30	
2025-01-12 09:16:35.50	11.77	5.31	
2025-01-12 09:16:35.70	11.76	5.33	
2025-01-12 09:16:35.91	11.75	5.34	
2025-01-12 09:16:36.11	11.74	5.36	
2025-01-12 09:16:36.32	11.73	5.37	
2025-01-12 09:16:36.52	11.72	5.39	
2025-01-12 09:16:36.73	11.71	5.40	
2025-01-12 09:16:36.93	11.70	5.42	
2025-01-12 09:16:37.14	11.69	5.43	
2025-01-12 09:16:37.34	11.68	5.45	
2025-01-12 09:16:37.55	11.67	5.46	
2025-01-12 09:16:37.75	11.66	5.48	
2025-01-12 09:16:37.96	11.65	5.49	
2025-01-12 09:16:38.17	11.64	5.51	
2025-01-12 09:16:38.37	11.63	5.52	
2025-01-12 09:16:38.58	11.62	5.54	
2025-01-12 09:16:38.78	11.61	5.55	
2025-01-12 09:16:38.99	11.60	5.57	
2025-01-12 09:16:39.19	11.59	5.58	
2025-01-12 09:16:39.40	11.58	5.60	
2025-01-12 09:16:39.60	11.57	5.61	
2025-01-12 09:16:39.81	11.56	5.63	
2025-01-12 09:16:40.01	11.55	5.64	
2025-01-12 09:16:40.22	11.54	5.66	
2025-01-12 09:16:40.42	11.53	5.67	
2025-01-12 09:16:40.63	11.52	5.69	
2025-01-12 09:16:40.83	11.51	5.70	
2025-01-12 09:16:41.04	11.50	5.72	
2025-01-12 09:16:41.24	11.49	5.73	
2025-01-12 09:16:41.45	11.48	5.75	
2025-01-12 09:16:41.65	11.47	5.76	
2025-01-12 09:16:41.86	11.46	5.78	
2025-01-12 09:16:42.06	11.45	5.79	
2025-01-12 09:16:42.27	11.44	5.81	
2025-01-12 09:16:42.47	11.43	5.82	
2025-01-12 09:16:42.68	11.42	5.84	
2025-01-12 09:16:42.88	11.41	5.85	
2025-01-12 09:16:43.09	11.39	5.87	
2025-01-12 09:16:43.29	11.38	5.88	
2025-01-12 09:16:43.50	11.37	5.90	
2025-01-12 09:16:43.70	11.36	5.91	
2025-01-12 09:16:43.91	11.35	5.93	
2025-01-12 09:16:44.11	11.34	5.94	
2025-01-12 09:16:44.32	11.33	5.96	
2025-01-12 09:16:44.53	11.32	5.98	
2025-01-12 09:16:44.73	11.31	5.99	
2025-01-12 09:16:44.94	11.30	6.01	
2025-01-12 09:16:45.14	11.29	6.02	
2025-01-12 09:16:45.35	11.28	6.04	
2025-01-12 09:16:45.55	11.27	6.05	
2025-01-12 09:16:45.76	11.26	6.07	
2025-01-12 09:16:45.97	11.25	6.08	
2025-01-12 09:16:46.17	11.24	6.10	
2025-01-12 09:16:46.38	11.23	6.11	
2025-01-12 09:16:46.58	11.22	6.13	
2025-01-12 09:16:46.79	11.21	6.14	
2025-01-12 09:16:46.99	11.20	6.16	
2025-01-12 09:16:47.20	11.19	6.17	
2025-01-12 09:16:47.40	11.18	6.19	
2025-01-12 09:16:47.61	11.16	6.21	
2025-01-12 09:16:47.81	11.15	6.22	
2025-01-12 09:16:48.02	11.14	6.24	
2025-01-12 09:16:48.22	11.13	6.25	
2025-01-12 09:16:48.43	11.12	6.27	
2025-01-12 09:16:48.63	11.11	6.28	
2025-01-12 09:16:48.84	11.10	6.30	
2025-01-12 09:16:49.04	11.09	6.31	
2025-01-12 09:16:49.25	11.08	6.33	
2025-01-12 09:16:49.47	11.07	6.35	
2025-01-12 09:16:49.67	11.06	6.36	
2025-01-12 09:16:49.88	11.05	6.38	
2025-01-12 09:16:50.08	11.04	6.39	
2025-01-12 09:16:50.29	11.03	6.41	
2025-01-12 09:16:50.49	11.01	6.42	
2025-01-12 09:16:50.70	11.00	6.44	
2025-01-12 09:16:50.90	10.99	6.45	
2025-01-12 09:16:51.11	10.98	6.47	
2025-01-12 09:16:51.32	10.97	6.49	
2025-01-12 09:16:51.52	10.96	6.50	
2025-01-12 09:16:51.72	10.95	6.52	
2025-01-12 09:16:51.93	10.94	6.53	
2025-01-12 09:16:52.14	10.93	6.55	
2025-01-12 09:16:52.34	10.92	6.56	
2025-01-12 09:16:52.55	10.91	6.58	
2025-01-12 09:16:52.75	10.89	6.59	
2025-01-12 09:16:52.96	10.88	6.61	
2025-01-12 09:16:53.16	10.87	6.63	
2025-01-12 09:16:53.37	10.86	6.64	
2025-01-12 09:16:53.58	10.85	6.66	
2025-01-12 09:16:53.78	10.84	6.67	
2025-01-12 09:16:53.99	10.83	6.69	
2025-01-12 09:16:54.19	10.82	6.70	
2025-01-12 09:16:54.40	10.81	6.72	
2025-01-12 09:16:54.60	10.80	6.74	
2025-01-12 09:16:54.81	10.78	6.75	
2025-01-12 09:16:55.01	10.77	6.77	
2025-01-12 09:16:55.22	10.76	6.78	
2025-01-12 09:16:55.42	10.75	6.80	
2025-01-12 09:16:55.63	10.74	6.81	
2025-01-12 09:16:55.83	10.73	6.83	
2025-01-12 09:16:56.03	10.72	6.84	
2025-01-12 09:16:56.24	10.71	6.86	
2025-01-12 09:16:56.45	10.70	6.88	
2025-01-12 09:16:56.65	10.68	6.89	
2025-01-12 09:16:56.86	10.67	6.91	
2025-01-12 09:16:57.06	10.66	6.92	
2025-01-12 09:16:57.27	10.65	6.94	
2025-01-12 09:16:57.47	10.64	6.96	
2025-01-12 09:16:57.68	10.63	6.97	
2025-01-12 09:16:57.88	10.62	6.99	
2025-01-12 09:16:58.09	10.61	7.00	
2025-01-12 09:16:58.29	10.59	7.02	
2025-01-12 09:16:58.50	10.58	7.04	
2025-01-12 09:16:58.70	10.57	7.05	
2025-01-12 09:16:58.91	10.56	7.07	
2025-01-12 09:16:59.11	10.55	7.08	
2025-01-12 09:16:59.32	10.54	7.10	
2025-01-12 09:16:59.52	10.53	7.11	
2025-01-12 09:16:59.73	10.51	7.13	
2025-01-12 09:16:59.93	10.50	7.15	
2025-01-12 09:17:00.14	10.49	7.16	
2025-01-12 09:17:00.34	10.48	7.18	
2025-01-12 09:17:00.56	10.47	7.20	
2025-01-12 09:17:00.76	10.46	7.21	
2025-01-12 09:17:00.97	10.45	7.23	
2025-01-12 09:17:01.17	10.43	7.24	
2025-01-12 09:17:01.38	10.42	7.26	
2025-01-12 09:17:01.58	10.41	7.27	
2025-01-12 09:17:01.79	10.40	7.29	
2025-01-12 09:17:02.00	10.39	7.31	
2025-01-12 09:17:02.20	10.38	7.32	
2025-01-12 09:17:02.40	10.37	7.34	
2025-01-12 09:17:02.61	10.35	7.36	
2025-01-12 09:17:02.83	10.34	7.37	
2025-01-12 09:17:03.03	10.33	7.39	
2025-01-12 09:17:03.23	10.32	7.40	
2025-01-12 09:17:03.44	10.31	7.42	
2025-01-12 09:17:03.64	10.29	7.44	
2025-01-12 09:17:03.85	10.28	7.45	
2025-01-12 09:17:04.06	10.27	7.47	
2025-01-12 09:17:04.26	10.26	7.49	
2025-01-12 09:17:04.46	10.25	7.50	
2025-01-12 09:17:04.68	10.24	7.52	
2025-01-12 09:17:04.88	10.22	7.53	
2025-01-12 09:17:05.09	10.21	7.55	
2025-01-12 09:17:05.30	10.20	7.57	
2025-01-12 09:17:05.51	10.19	7.58	
2025-01-12 09:17:05.72	10.18	7.60	
2025-01-12 09:17:05.92	10.16	7.62	
2025-01-12 09:17:06.13	10.15	7.63	
2025-01-12 09:17:06.34	10.14	7.65	
2025-01-12 09:17:06.54	10.13	7.67	
2025-01-12 09:17:06.75	10.12	7.68	
2025-01-12 09:17:06.95	10.10	7.70	
2025-01-12 09:17:07.16	10.09	7.71	
2025-01-12 09:17:07.36	10.08	7.73	
2025-01-12 09:17:07.56	10.07	7.75	
2025-01-12 09:17:07.77	10.06	7.76	
2025-01-12 09:17:07.98	10.04	7.78	
2025-01-12 09:17:08.18	10.03	7.80	
2025-01-12 09:17:08.39	10.02	7.81	
2025-01-12 09:17:08.59	10.01	7.83	
2025-01-12 09:17:08.80	10.00	7.85	
2025-01-12 09:17:09.00	9.98	7.86	
2025-01-12 09:17:09.21	9.97	7.88	
2025-01-12 09:17:09.41	9.96	7.89	
2025-01-12 09:17:09.62	9.95	7.91	
2025-01-12 09:17:09.82	9.94	7.93	
2025-01-12 09:17:10.03	9.92	7.94	
2025-01-12 09:17:10.23	9.91	7.96	
2025-01-12 09:17:10.44	9.90	7.98	
2025-01-12 09:17:10.64	9.89	7.99	
2025-01-12 09:17:10.85	9.87	8.01	
2025-01-12 09:17:11.05	9.86	8.03	
2025-01-12 09:17:11.26	9.85	8.04	
2025-01-12 09:17:11.47	9.84	8.06	
2025-01-12 09:17:11.68	9.82	8.08	
2025-01-12 09:17:11.88	9.81	8.09	
2025-01-12 09:17:12.09	9.80	8.11	
2025-01-12 09:17:12.29	9.79	8.13	
2025-01-12 09:17:12.50	9.78	8.14	
2025-01-12 09:17:12.70	9.76	8.16	
2025-01-12 09:17:12.91	9.75	8.18	
2025-01-12 09:17:13.11	9.74	8.19	
2025-01-12 09:17:13.32	9.73	8.21	
2025-01-12 09:17:13.53	9.71	8.23	
2025-01-12 09:17:13.73	9.70	8.24	
2025-01-12 09:17:13.94	9.69	8.26	
2025-01-12 09:17:14.14	9.68	8.28	
2025-01-12 09:17:14.34	9.66	8.29	
2025-01-12 09:17:14.55	9.65	8.31	
2025-01-12 09:17:14.76	9.64	8.33	
2025-01-12 09:17:14.96	9.63	8.34	
2025-01-12 09:17:15.17	9.61	8.36	
2025-01-12 09:17:15.37	9.60	8.38	
2025-01-12 09:17:15.58	9.59	8.39	
2025-01-12 09:17:15.78	9.58	8.41	
2025-01-12 09:17:15.99	9.56	8.43	
2025-01-12 09:17:16.19	9.55	8.44	
2025-01-12 09:17:16.40	9.54	8.46	
2025-01-12 09:17:16.60	9.52	8.48	
2025-01-12 09:17:16.81	9.51	8.49	
2025-01-12 09:17:17.01	9.50	8.51	
2025-01-12 09:17:17.21	9.49	8.53	
2025-01-12 09:17:17.42	9.47	8.54	
2025-01-12 09:17:17.63	9.46	8.56	
2025-01-12 09:17:17.83	9.45	8.58	
2025-01-12 09:17:18.04	9.44	8.60	
2025-01-12 09:17:18.24	9.42	8.61	
2025-01-12 09:17:18.44	9.41	8.63	
2025-01-12 09:17:18.65	9.40	8.65	
2025-01-12 09:17:18.86	9.38	8.66	
2025-01-12 09:17:19.06	9.37	8.68	
2025-01-12 09:17:19.27	9.36	8.70	
2025-01-12 09:17:19.47	9.35	8.71	
2025-01-12 09:17:19.68	9.33	8.73	
2025-01-12 09:17:19.88	9.32	8.75	
2025-01-12 09:17:20.09	9.31	8.76	
2025-01-12 09:17:20.29	9.29	8.78	
2025-01-12 09:17:20.50	9.28	8.80	
2025-01-12 09:17:20.70	9.27	8.82	
2025-01-12 09:17:20.91	9.25	8.83	
2025-01-12 09:17:21.11	9.24	8.85	
2025-01-12 09:17:21.32	9.23	8.87	
2025-01-12 09:17:21.52	9.22	8.88	
2025-01-12 09:17:21.73	9.20	8.90	
2025-01-12 09:17:21.93	9.19	8.92	
2025-01-12 09:17:22.14	9.18	8.93	
2025-01-12 09:17:22.34	9.16	8.95	
2025-01-12 09:17:22.55	9.15	8.97	
2025-01-12 09:17:22.75	9.14	8.99	
2025-01-12 09:17:22.96	9.12	9.00	
2025-01-12 09:17:23.16	9.11	9.02	
2025-01-12 09:17:23.37	9.10	9.04	
2025-01-12 09:17:23.58	9.08	9.06	
2025-01-12 09:17:23.79	9.07	9.07	
2025-01-12 09:17:24.00	9.06	9.09	
2025-01-12 09:17:24.20	9.04	9.11	
2025-01-12 09:17:24.41	9.03	9.13	
2025-01-12 09:17:24.61	9.02	9.14	
2025-01-12 09:17:24.82	9.00	9.16	
2025-01-12 09:17:25.02	8.99	9.18	
2025-01-12 09:17:25.22	8.98	9.19	
2025-01-12 09:17:25.43	8.96	9.21	
2025-01-12 09:17:25.63	8.95	9.23	
2025-01-12 09:17:25.84	8.94	9.25	
2025-01-12 09:17:26.04	8.92	9.26	
2025-01-12 09:17:26.24	8.91	9.28	
2025-01-12 09:17:26.45	8.89	9.30	
2025-01-12 09:17:26.66	8.88	9.31	
2025-01-12 09:17:26.86	8.87	9.33	
2025-01-12 09:17:27.07	8.85	9.35	
2025-01-12 09:17:27.27	8.84	9.37	
2025-01-12 09:17:27.48	8.83	9.38	
2025-01-12 09:17:27.68	8.81	9.40	
2025-01-12 09:17:27.90	8.80	9.42	
2025-01-12 09:17:28.10	8.79	9.44	
2025-01-12 09:17:28.31	8.77	9.46	
2025-01-12 09:17:28.52	8.76	9.47	
2025-01-12 09:17:28.72	8.74	9.49	
2025-01-12 09:17:28.93	8.73	9.51	
2025-01-12 09:17:29.13	8.72	9.52	
2025-01-12 09:17:29.34	8.70	9.54	
2025-01-12 09:17:29.54	8.69	9.56	
2025-01-12 09:17:29.75	8.67	9.58	
2025-01-12 09:17:29.95	8.66	9.60	
2025-01-12 09:17:30.16	8.65	9.61	
2025-01-12 09:17:30.36	8.63	9.63	
2025-01-12 09:17:30.57	8.62	9.65	
2025-01-12 09:17:30.78	8.60	9.67	
2025-01-12 09:17:30.98	8.59	9.68	
2025-01-12 09:17:31.18	8.58	9.70	
2025-01-12 09:17:31.39	8.56	9.72	
2025-01-12 09:17:31.60	8.55	9.74	
2025-01-12 09:17:31.80	8.54	9.75	
2025-01-12 09:17:32.01	8.52	9.77	
2025-01-12 09:17:32.21	8.51	9.79	
2025-01-12 09:17:32.42	8.49	9.81	
2025-01-12 09:17:32.62	8.48	9.82	
2025-01-12 09:17:32.83	8.46	9.84	
2025-01-12 09:17:33.03	8.45	9.86	
2025-01-12 09:17:33.24	8.44	9.88	
2025-01-12 09:17:33.44	8.42	9.90	
2025-01-12 09:17:33.65	8.41	9.91	
2025-01-12 09:17:33.85	8.39	9.93	
2025-01-12 09:17:34.06	8.38	9.95	
2025-01-12 09:17:34.26	8.37	9.97	
2025-01-12 09:17:34.47	8.35	9.99	
2025-01-12 09:17:34.67	8.34	10.00	
2025-01-12 09:17:34.88	8.32	10.02	
2025-01-12 09:17:35.08	8.31	10.04	
2025-01-12 09:17:35.29	8.29	10.06	
2025-01-12 09:17:35.49	8.28	10.07	
2025-01-12 09:17:35.70	8.26	10.09	
2025-01-12 09:17:35.90	8.25	10.11	
2025-01-12 09:17:36.11	8.24	10.13	
2025-01-12 09:17:36.32	8.22	10.15	
2025-01-12 09:17:36.52	8.21	10.16	
2025-01-12 09:17:36.72	8.19	10.18	
2025-01-12 09:17:36.93	8.18	10.20	
2025-01-12 09:17:37.14	8.16	10.22	
2025-01-12 09:17:37.34	8.15	10.24	
2025-01-12 09:17:37.56	8.13	10.26	
2025-01-12 09:17:37.77	8.12	10.27	
2025-01-12 09:17:37.97	8.10	10.29	
2025-01-12 09:17:38.18	8.09	10.31	
2025-01-12 09:17:38.38	8.07	10.33	
2025-01-12 09:17:38.60	8.06	10.35	
2025-01-12 09:17:38.81	8.04	10.37	
2025-01-12 09:17:39.01	8.03	10.38	
2025-01-12 09:17:39.22	8.01	10.40	
2025-01-12 09:17:39.42	8.00	10.42	
2025-01-12 09:17:39.63	7.98	10.44	
2025-01-12 09:17:39.83	7.97	10.46	
2025-01-12 09:17:40.04	7.96	10.47	
2025-01-12 09:17:40.24	7.94	10.49	
2025-01-12 09:17:40.45	7.93	10.51	
2025-01-12 09:17:40.65	7.91	10.53	
2025-01-12 09:17:40.86	7.90	10.55	
2025-01-12 09:17:41.06	7.88	10.56	
2025-01-12 09:17:41.27	7.87	10.58	
2025-01-12 09:17:41.48	7.85	10.60	
2025-01-12 09:17:41.68	7.84	10.62	
2025-01-12 09:17:41.89	7.82	10.64	
2025-01-12 09:17:42.09	7.81	10.66	
2025-01-12 09:17:42.29	7.79	10.67	
2025-01-12 09:17:42.50	7.78	10.69	
2025-01-12 09:17:42.70	7.76	10.71	
2025-01-12 09:17:42.91	7.75	10.73	
2025-01-12 09:17:43.11	7.73	10.75	
2025-01-12 09:17:43.32	7.71	10.77	
2025-01-12 09:17:43.53	7.70	10.79	
2025-01-12 09:17:43.73	7.68	10.80	
2025-01-12 09:17:43.95	7.67	10.82	
2025-01-12 09:17:44.16	7.65	10.84	
2025-01-12 09:17:44.36	7.64	10.86	
2025-01-12 09:17:44.57	7.62	10.88	
2025-01-12 09:17:44.77	7.61	10.90	
2025-01-12 09:17:44.97	7.59	10.92	
2025-01-12 09:17:45.18	7.58	10.93	
2025-01-12 09:17:45.38	7.56	10.95	
2025-01-12 09:17:45.59	7.55	10.97	
2025-01-12 09:17:45.79	7.53	10.99	
2025-01-12 09:17:46.00	7.51	11.01	
2025-01-12 09:17:46.20	7.50	11.03	
2025-01-12 09:17:46.41	7.48	11.05	
2025-01-12 09:17:46.61	7.47	11.06	
2025-01-12 09:17:46.82	7.45	11.08	
2025-01-12 09:17:47.02	7.44	11.10	
2025-01-12 09:17:47.23	7.42	11.12	
2025-01-12 09:17:47.43	7.41	11.14	
2025-01-12 09:17:47.64	7.39	11.16	
2025-01-12 09:17:47.84	7.37	11.18	
2025-01-12 09:17:48.05	7.36	11.19	
2025-01-12 09:17:48.25	7.34	11.21	
2025-01-12 09:17:48.46	7.33	11.23	
2025-01-12 09:17:48.66	7.31	11.25	
2025-01-12 09:17:48.87	7.30	11.27	
2025-01-12 09:17:49.07	7.28	11.29	
2025-01-12 09:17:49.28	7.26	11.31	
2025-01-12 09:17:49.48	7.25	11.33	
2025-01-12 09:17:49.69	7.23	11.34	
2025-01-12 09:17:49.89	7.22	11.36	
2025-01-12 09:17:50.10	7.20	11.38	
2025-01-12 09:17:50.32	7.18	11.40	
2025-01-12 09:17:50.52	7.17	11.42	
2025-01-12 09:17:50.73	7.15	11.44	
2025-01-12 09:17:50.94	7.14	11.46	
2025-01-12 09:17:51.14	7.12	11.48	
2025-01-12 09:17:51.34	7.10	11.50	
2025-01-12 09:17:51.55	7.09	11.52	
2025-01-12 09:17:51.76	7.07	11.54	
2025-01-12 09:17:51.96	7.06	11.55	
2025-01-12 09:17:52.17	7.04	11.57	
2025-01-12 09:17:52.37	7.02	11.59	
2025-01-12 09:17:52.57	7.01	11.61	
2025-01-12 09:17:52.78	6.99	11.63	
2025-01-12 09:17:52.98	6.97	11.65	
2025-01-12 09:17:53.19	6.96	11.67	
2025-01-12 09:17:53.40	6.94	11.69	
2025-01-12 09:17:53.60	6.93	11.71	
2025-01-12 09:17:53.81	6.91	11.73	
2025-01-12 09:17:54.01	6.89	11.74	
2025-01-12 09:17:54.22	6.88	11.76	
2025-01-12 09:17:54.42	6.86	11.78	
2025-01-12 09:17:54.63	6.84	11.80	
2025-01-12 09:17:54.83	6.83	11.82	
2025-01-12 09:17:55.04	6.81	11.84	
2025-01-12 09:17:55.24	6.79	11.86	
2025-01-12 09:17:55.45	6.78	11.88	
2025-01-12 09:17:55.65	6.76	11.90	
2025-01-12 09:17:55.86	6.74	11.92	
2025-01-12 09:17:56.06	6.73	11.94	
2025-01-12 09:17:56.27	6.71	11.96	
2025-01-12 09:17:56.47	6.69	11.97	
2025-01-12 09:17:56.68	6.68	11.99	
2025-01-12 09:17:56.88	6.66	12.01	
2025-01-12 09:17:57.09	6.64	12.03	
2025-01-12 09:17:57.29	6.63	12.05	
2025-01-12 09:17:57.50	6.61	12.07	
2025-01-12 09:17:57.70	6.59	12.09	
2025-01-12 09:17:57.91	6.58	12.11	
2025-01-12 09:17:58.11	6.56	12.13	
2025-01-12 09:17:58.32	6.54	12.15	
2025-01-12 09:17:58.52	6.53	12.17	
2025-01-12 09:17:58.73	6.51	12.19	
2025-01-12 09:17:58.93	6.49	12.21	
2025-01-12 09:17:59.14	6.48	12.23	
2025-01-12 09:17:59.34	6.46	12.25	
2025-01-12 09:17:59.55	6.44	12.27	
2025-01-12 09:17:59.75	6.43	12.28	
2025-01-12 09:17:59.95	6.41	12.30	
2025-01-12 09:18:00.16	6.39	12.32	
2025-01-12 09:18:00.36	6.37	12.34	
2025-01-12 09:18:00.57	6.36	12.36	
2025-01-12 09:18:00.77	6.34	12.38	
2025-01-12 09:18:00.98	6.32	12.40	
2025-01-12 09:18:01.18	6.31	12.42	
2025-01-12 09:18:01.39	6.29	12.44	
2025-01-12 09:18:01.59	6.27	12.46	
2025-01-12 09:18:01.80	6.25	12.48	
2025-01-12 09:18:02.00	6.24	12.50	
2025-01-12 09:18:02.21	6.22	12.52	
2025-01-12 09:18:02.41	6.20	12.54	
2025-01-12 09:18:02.62	6.18	12.56	
2025-01-12 09:18:02.82	6.17	12.58	
2025-01-12 09:18:03.03	6.15	12.60	
2025-01-12 09:18:03.23	6.13	12.62	
2025-01-12 09:18:03.44	6.11	12.64	
2025-01-12 09:18:03.64	6.10	12.66	
2025-01-12 09:18:03.84	6.08	12.68	
2025-01-12 09:18:04.05	6.06	12.70	
2025-01-12 09:18:04.25	6.04	12.72	
2025-01-12 09:18:04.46	6.03	12.74	
2025-01-12 09:18:04.68	6.01	12.76	
2025-01-12 09:18:04.88	5.99	12.78	
2025-01-12 09:18:05.09	5.97	12.80	
2025-01-12 09:18:05.29	5.95	12.82	
2025-01-12 09:18:05.50	5.94	12.84	
2025-01-12 09:18:05.70	5.92	12.86	
2025-01-12 09:18:05.91	5.90	12.88	
2025-01-12 09:18:06.12	5.88	12.90	
2025-01-12 09:18:06.33	5.86	12.92	
2025-01-12 09:18:06.54	5.85	12.94	
2025-01-12 09:18:06.74	5.83	12.96	
2025-01-12 09:18:06.95	5.81	12.98	
2025-01-12 09:18:07.16	5.79	13.00	
2025-01-12 09:18:07.37	5.77	13.02	
2025-01-12 09:18:07.58	5.75	13.04	
2025-01-12 09:18:07.79	5.74	13.06	
2025-01-12 09:18:07.99	5.72	13.08	
2025-01-12 09:18:08.20	5.70	13.10	
2025-01-12 09:18:08.40	5.68	13.12	
2025-01-12 09:18:08.61	5.66	13.14	
2025-01-12 09:18:08.81	5.65	13.16	
2025-01-12 09:18:09.02	5.63	13.18	
2025-01-12 09:18:09.23	5.61	13.20	
2025-01-12 09:18:09.43	5.59	13.22	
2025-01-12 09:18:09.63	5.57	13.24	
2025-01-12 09:18:09.84	5.55	13.26	
2025-01-12 09:18:10.04	5.54	13.28	
2025-01-12 09:18:10.25	5.52	13.30	
2025-01-12 09:18:10.45	5.50	13.32	
2025-01-12 09:18:10.66	5.48	13.35	
2025-01-12 09:18:10.87	5.46	13.37	
2025-01-12 09:18:11.07	5.44	13.39	
2025-01-12 09:18:11.29	5.42	13.41	
2025-01-12 09:18:11.49	5.41	13.43	
2025-01-12 09:18:11.70	5.39	13.45	
2025-01-12 09:18:11.90	5.37	13.47	
2025-01-12 09:18:12.11	5.35	13.49	
2025-01-12 09:18:12.32	5.33	13.51	
2025-01-12 09:18:12.52	5.31	13.53	
2025-01-12 09:18:12.72	5.29	13.55	
2025-01-12 09:18:12.93	5.27	13.57	
2025-01-12 09:18:13.14	5.25	13.59	
2025-01-12 09:18:13.34	5.24	13.61	
2025-01-12 09:18:13.55	5.22	13.63	
2025-01-12 09:18:13.75	5.20	13.65	
2025-01-12 09:18:13.96	5.18	13.67	
2025-01-12 09:18:14.16	5.16	13.69	
2025-01-12 09:18:14.37	5.14	13.72	
2025-01-12 09:18:14.57	5.12	13.74	
2025-01-12 09:18:14.78	5.10	13.76	
2025-01-12 09:18:14.98	5.08	13.78	
2025-01-12 09:18:15.19	5.06	13.80	
2025-01-12 09:18:15.40	5.05	13.82	
2025-01-12 09:18:15.60	5.03	13.84	
2025-01-12 09:18:15.82	5.01	13.86	
2025-01-12 09:18:16.03	4.99	13.88	
2025-01-12 09:18:16.23	4.97	13.90	
2025-01-12 09:18:16.44	4.95	13.92	
2025-01-12 09:18:16.64	4.93	13.95	
2025-01-12 09:18:16.85	4.91	13.97	
2025-01-12 09:18:17.05	4.89	13.99	
2025-01-12 09:18:17.26	4.87	14.01	
2025-01-12 09:18:17.47	4.85	14.03	
2025-01-12 09:18:17.68	4.83	14.05	
2025-01-12 09:18:17.88	4.81	14.07	
2025-01-12 09:18:18.09	4.79	14.09	
2025-01-12 09:18:18.29	4.77	14.11	
2025-01-12 09:18:18.50	4.75	14.13	
2025-01-12 09:18:18.70	4.73	14.16	
2025-01-12 09:18:18.91	4.71	14.18	
2025-01-12 09:18:19.11	4.69	14.20	
2025-01-12 09:18:19.32	4.67	14.22	
2025-01-12 09:18:19.52	4.65	14.24	
2025-01-12 09:18:19.73	4.63	14.26	
2025-01-12 09:18:19.93	4.61	14.28	
2025-01-12 09:18:20.15	4.59	14.30	
2025-01-12 09:18:20.36	4.57	14.33	
2025-01-12 09:18:20.56	4.55	14.35	
2025-01-12 09:18:20.77	4.53	14.37	
2025-01-12 09:18:20.97	4.51	14.39	
2025-01-12 09:18:21.17	4.49	14.41	
2025-01-12 09:18:21.38	4.47	14.43	
2025-01-12 09:18:21.58	4.45	14.45	
2025-01-12 09:18:21.79	4.43	14.47	
2025-01-12 09:18:22.00	4.41	14.49	
2025-01-12 09:18:22.20	4.39	14.52	
2025-01-12 09:18:22.40	4.37	14.54	
2025-01-12 09:18:22.61	4.35	14.56	
2025-01-12 09:18:22.82	4.33	14.58	
2025-01-12 09:18:23.02	4.31	14.60	
2025-01-12 09:18:23.23	4.29	14.62	
2025-01-12 09:18:23.43	4.27	14.64	
2025-01-12 09:18:23.63	4.25	14.66	
2025-01-12 09:18:23.84	4.23	14.69	
2025-01-12 09:18:24.05	4.21	14.71	
2025-01-12 09:18:24.25	4.19	14.73	
2025-01-12 09:18:24.46	4.17	14.75	
2025-01-12 09:18:24.66	4.15	14.77	
2025-01-12 09:18:24.87	4.13	14.79	
2025-01-12 09:18:25.07	4.11	14.81	
2025-01-12 09:18:25.28	4.09	14.84	
2025-01-12 09:18:25.48	4.07	14.86	
2025-01-12 09:18:25.69	4.05	14.88	
2025-01-12 09:18:25.89	4.02	14.90	
2025-01-12 09:18:26.10	4.00	14.92	
2025-01-12 09:18:26.30	3.98	14.94	
2025-01-12 09:18:26.50	3.96	14.97	
2025-01-12 09:18:26.71	3.94	14.99	
2025-01-12 09:18:26.92	3.92	15.01	
2025-01-12 09:18:27.12	3.90	15.03	
2025-01-12 09:18:27.33	3.88	15.05	
2025-01-12 09:18:27.53	3.86	15.07	
2025-01-12 09:18:27.74	3.84	15.10	
2025-01-12 09:18:27.94	3.82	15.12	
2025-01-12 09:18:28.15	3.79	15.14	
2025-01-12 09:18:28.35	3.77	15.16	
2025-01-12 09:18:28.56	3.75	15.18	
2025-01-12 09:18:28.76	3.73	15.20	
2025-01-12 09:18:28.97	3.71	15.23	
2025-01-12 09:18:29.17	3.69	15.25	
2025-01-12 09:18:29.38	3.67	15.27	
2025-01-12 09:18:29.59	3.64	15.29	
2025-01-12 09:18:29.79	3.62	15.31	
2025-01-12 09:18:30.00	3.60	15.34	
2025-01-12 09:18:30.20	3.58	15.36	
2025-01-12 09:18:30.41	3.56	15.38	
2025-01-12 09:18:30.61	3.54	15.40	
2025-01-12 09:18:30.82	3.52	15.42	
2025-01-12 09:18:31.02	3.49	15.45	
2025-01-12 09:18:31.23	3.47	15.47	
2025-01-12 09:18:31.44	3.45	15.49	
2025-01-12 09:18:31.64	3.43	15.51	
2025-01-12 09:18:31.84	3.41	15.53	
2025-01-12 09:18:32.05	3.39	15.56	
2025-01-12 09:18:32.26	3.36	15.58	
2025-01-12 09:18:32.46	3.34	15.60	
2025-01-12 09:18:32.67	3.32	15.62	
2025-01-12 09:18:32.87	3.30	15.65	
2025-01-12 09:18:33.08	3.28	15.67	
2025-01-12 09:18:33.28	3.25	15.69	
2025-01-12 09:18:33.49	3.23	15.71	
2025-01-12 09:18:33.69	3.21	15.73	
2025-01-12 09:18:33.90	3.19	15.76	
2025-01-12 09:18:34.10	3.17	15.78	
2025-01-12 09:18:34.31	3.14	15.80	
2025-01-12 09:18:34.52	3.12	15.82	
2025-01-12 09:18:34.72	3.10	15.85	
2025-01-12 09:18:34.93	3.08	15.87	
2025-01-12 09:18:35.13	3.05	15.89	
2025-01-12 09:18:35.34	3.03	15.91	
2025-01-12 09:18:35.54	3.01	15.94	
2025-01-12 09:18:35.75	2.99	15.96	
2025-01-12 09:18:35.95	2.96	15.98	
2025-01-12 09:18:36.16	2.94	16.00	
2025-01-12 09:18:36.36	2.92	16.03	
2025-01-12 09:18:36.57	2.90	16.05	
2025-01-12 09:18:36.77	2.87	16.07	
2025-01-12 09:18:36.98	2.85	16.09	
2025-01-12 09:18:37.18	2.83	16.12	
2025-01-12 09:18:37.38	2.81	16.14	
2025-01-12 09:18:37.59	2.78	16.16	
2025-01-12 09:18:37.79	2.76	16.18	
2025-01-12 09:18:38.00	2.74	16.21	
2025-01-12 09:18:38.20	2.72	16.23	
2025-01-12 09:18:38.41	2.69	16.25	
2025-01-12 09:18:38.61	2.67	16.27	
2025-01-12 09:18:38.82	2.65	16.30	
2025-01-12 09:18:39.02	2.62	16.32	
2025-01-12 09:18:39.22	2.60	16.34	
2025-01-12 09:18:39.43	2.58	16.36	
2025-01-12 09:18:39.63	2.56	16.39	
2025-01-12 09:18:39.83	2.53	16.41	
2025-01-12 09:18:40.04	2.51	16.43	
2025-01-12 09:18:40.24	2.49	16.45	
2025-01-12 09:18:40.44	2.46	16.48	
2025-01-12 09:18:40.65	2.44	16.50	
2025-01-12 09:18:40.86	2.42	16.52	
2025-01-12 09:18:41.06	2.39	16.55	
2025-01-12 09:18:41.27	2.37	16.57	
2025-01-12 09:18:41.48	2.34	16.59	
2025-01-12 09:18:41.69	2.32	16.62	
2025-01-12 09:18:41.90	2.30	16.64	
2025-01-12 09:18:42.10	2.27	16.66	
2025-01-12 09:18:42.31	2.25	16.69	
2025-01-12 09:18:42.51	2.23	16.71	
2025-01-12 09:18:42.71	2.20	16.73	
2025-01-12 09:18:42.92	2.18	16.75	
2025-01-12 09:18:43.12	2.16	16.78	
2025-01-12 09:18:43.33	2.13	16.80	
2025-01-12 09:18:43.53	2.11	16.82	
2025-01-12 09:18:43.74	2.08	16.85	
2025-01-12 09:18:43.95	2.06	16.87	
2025-01-12 09:18:44.15	2.04	16.89	
2025-01-12 09:18:44.36	2.01	16.92	
2025-01-12 09:18:44.56	1.99	16.94	
2025-01-12 09:18:44.76	1.96	16.96	
2025-01-12 09:18:44.97	1.94	16.99	
2025-01-12 09:18:45.17	1.92	17.01	
2025-01-12 09:18:45.38	1.89	17.03	
2025-01-12 09:18:45.58	1.87	17.06	
2025-01-12 09:18:45.79	1.84	17.08	
2025-01-12 09:18:46.00	1.82	17.10	
2025-01-12 09:18:46.20	1.79	17.13	
2025-01-12 09:18:46.41	1.77	17.15	
2025-01-12 09:18:46.61	1.74	17.17	
2025-01-12 09:18:46.82	1.72	17.20	
2025-01-12 09:18:47.02	1.69	17.22	
2025-01-12 09:18:47.23	1.67	17.24	
2025-01-12 09:18:47.43	1.65	17.27	
2025-01-12 09:18:47.64	1.62	17.29	
2025-01-12 09:18:47.84	1.60	17.31	
2025-01-12 09:18:48.05	1.57	17.34	
2025-01-12 09:18:48.25	1.55	17.36	
2025-01-12 09:18:48.46	1.52	17.39	
2025-01-12 09:18:48.66	1.50	17.41	
2025-01-12 09:18:48.87	1.47	17.43	
2025-01-12 09:18:49.07	1.45	17.46	
2025-01-12 09:18:49.28	1.42	17.48	
2025-01-12 09:18:49.48	1.40	17.50	
2025-01-12 09:18:49.69	1.37	17.53	
2025-01-12 09:18:49.89	1.35	17.55	
2025-01-12 09:18:50.10	1.32	17.58	
2025-01-12 09:18:50.30	1.30	17.60	
2025-01-12 09:18:50.51	1.27	17.62	
2025-01-12 09:18:50.71	1.25	17.65	
2025-01-12 09:18:50.92	1.22	17.67	
2025-01-12 09:18:51.12	1.19	17.69	
2025-01-12 09:18:51.33	1.17	17.72	
2025-01-12 09:18:51.54	1.14	17.74	
2025-01-12 09:18:51.74	1.12	17.77	
2025-01-12 09:18:51.95	1.09	17.79	
2025-01-12 09:18:52.15	1.07	17.81	
2025-01-12 09:18:52.36	1.04	17.84	
2025-01-12 09:18:52.56	1.01	17.86	
2025-01-12 09:18:52.77	0.99	17.89	
2025-01-12 09:18:52.97	0.96	17.91	
2025-01-12 09:18:53.18	0.94	17.93	
2025-01-12 09:18:53.38	0.91	17.96	
2025-01-12 09:18:53.59	0.88	17.98	
2025-01-12 09:18:53.79	0.86	18.01	
2025-01-12 09:18:54.00	0.83	18.03	
2025-01-12 09:18:54.20	0.81	18.05	
2025-01-12 09:18:54.41	0.78	18.08	
2025-01-12 09:18:54.61	0.75	18.10	
2025-01-12 09:18:54.82	0.73	18.13	
2025-01-12 09:18:55.02	0.70	18.15	
2025-01-12 09:18:55.23	0.67	18.18	
2025-01-12 09:18:55.43	0.65	18.20	
2025-01-12 09:18:55.64	0.62	18.22	
2025-01-12 09:18:55.84	0.60	18.25	
2025-01-12 09:18:56.05	0.57	18.27	
2025-01-12 09:18:56.25	0.54	18.30	
2025-01-12 09:18:56.46	0.52	18.32	
2025-01-12 09:18:56.66	0.49	18.35	
2025-01-12 09:18:56.87	0.46	18.37	
2025-01-12 09:18:57.08	0.44	18.40	
2025-01-12 09:18:57.28	0.41	18.42	
2025-01-12 09:18:57.48	0.38	18.44	
2025-01-12 09:18:57.69	0.36	18.47	
2025-01-12 09:18:57.89	0.33	18.49	
2025-01-12 09:18:58.10	0.30	18.52	
2025-01-12 09:18:58.30	0.28	18.54	
2025-01-12 09:18:58.52	0.25	18.57	
2025-01-12 09:18:58.73	0.22	18.59	
2025-01-12 09:18:58.93	0.19	18.62	
2025-01-12 09:18:59.14	0.16	18.64	
2025-01-12 09:18:59.34	0.14	18.67	
2025-01-12 09:18:59.54	0.11	18.69	
2025-01-12 09:18:59.75	0.08	18.72	
2025-01-12 09:18:59.96	0.05	18.74	
2025-01-12 09:19:00.16	0.03	18.77	
2025-01-12 09:19:00.37	360.00	18.79	
2025-01-12 09:19:00.57	359.97	18.82	
2025-01-12 09:19:00.78	359.94	18.84	
2025-01-12 09:19:00.98	359.92	18.86	
2025-01-12 09:19:01.19	359.89	18.89	
2025-01-12 09:19:01.39	359.86	18.91	
2025-01-12 09:19:01.60	359.83	18.94	
2025-01-12 09:19:01.80	359.81	18.96	
2025-01-12 09:19:02.01	359.78	18.99	
2025-01-12 09:19:02.21	359.75	19.01	
2025-01-12 09:19:02.42	359.72	19.04	
2025-01-12 09:19:02.62	359.69	19.06	
2025-01-12 09:19:02.84	359.66	19.09	
2025-01-12 09:19:03.04	359.64	19.12	
2025-01-12 09:19:03.25	359.61	19.14	
2025-01-12 09:19:03.46	359.58	19.17	
2025-01-12 09:19:03.66	359.55	19.19	
2025-01-12 09:19:03.86	359.52	19.22	
2025-01-12 09:19:04.07	359.49	19.24	
2025-01-12 09:19:04.27	359.47	19.27	
2025-01-12 09:19:04.48	359.44	19.29	
2025-01-12 09:19:04.69	359.41	19.32	
2025-01-12 09:19:04.90	359.38	19.34	
2025-01-12 09:19:05.11	359.35	19.37	
2025-01-12 09:19:05.32	359.32	19.40	
2025-01-12 09:19:05.52	359.29	19.42	
2025-01-12 09:19:05.73	359.26	19.45	
2025-01-12 09:19:05.93	359.23	19.47	
2025-01-12 09:19:06.14	359.20	19.50	
2025-01-12 09:19:06.34	359.18	19.52	
2025-01-12 09:19:06.55	359.15	19.55	
2025-01-12 09:19:06.76	359.12	19.57	
2025-01-12 09:19:06.96	359.09	19.60	
2025-01-12 09:19:07.17	359.06	19.62	
2025-01-12 09:19:07.37	359.03	19.65	
2025-01-12 09:19:07.58	359.00	19.68	
2025-01-12 09:19:07.78	358.97	19.70	
2025-01-12 09:19:07.99	358.94	19.73	
2025-01-12 09:19:08.19	358.91	19.75	
2025-01-12 09:19:08.40	358.88	19.78	
2025-01-12 09:19:08.60	358.85	19.80	
2025-01-12 09:19:08.81	358.82	19.83	
2025-01-12 09:19:09.01	358.79	19.85	
2025-01-12 09:19:09.22	358.76	19.88	
2025-01-12 09:19:09.42	358.73	19.90	
2025-01-12 09:19:09.63	358.70	19.93	
2025-01-12 09:19:09.83	358.68	19.96	
2025-01-12 09:19:10.04	358.64	19.98	
2025-01-12 09:19:10.24	358.62	20.01	
2025-01-12 09:19:10.45	358.58	20.03	
2025-01-12 09:19:10.65	358.56	20.06	
2025-01-12 09:19:10.86	358.52	20.09	
2025-01-12 09:19:11.06	358.49	20.11	
2025-01-12 09:19:11.27	358.46	20.14	
2025-01-12 09:19:11.47	358.43	20.16	
2025-01-12 09:19:11.68	358.40	20.19	
2025-01-12 09:19:11.89	358.37	20.22	
2025-01-12 09:19:12.09	358.34	20.24	
2025-01-12 09:19:12.29	358.31	20.27	
2025-01-12 09:19:12.50	358.28	20.29	
2025-01-12 09:19:12.71	358.25	20.32	
2025-01-12 09:19:12.91	358.22	20.35	
2025-01-12 09:19:13.12	358.19	20.37	
2025-01-12 09:19:13.32	358.16	20.40	
2025-01-12 09:19:13.53	358.13	20.42	
2025-01-12 09:19:13.73	358.10	20.45	
2025-01-12 09:19:13.94	358.06	20.48	
2025-01-12 09:19:14.14	358.03	20.50	
2025-01-12 09:19:14.35	358.00	20.53	
2025-01-12 09:19:14.55	357.97	20.55	
2025-01-12 09:19:14.76	357.94	20.58	
2025-01-12 09:19:14.96	357.91	20.61	
2025-01-12 09:19:15.17	357.88	20.63	
2025-01-12 09:19:15.37	357.85	20.66	
2025-01-12 09:19:15.57	357.82	20.69	
2025-01-12 09:19:15.78	357.78	20.71	
2025-01-12 09:19:15.99	357.75	20.74	
2025-01-12 09:19:16.19	357.72	20.76	
2025-01-12 09:19:16.40	357.69	20.79	
2025-01-12 09:19:16.60	357.66	20.82	
2025-01-12 09:19:16.80	357.63	20.84	
2025-01-12 09:19:17.01	357.59	20.87	
2025-01-12 09:19:17.22	357.56	20.90	
2025-01-12 09:19:17.42	357.53	20.92	
2025-01-12 09:19:17.63	357.50	20.95	
2025-01-12 09:19:17.83	357.47	20.98	
2025-01-12 09:19:18.04	357.43	21.00	
2025-01-12 09:19:18.24	357.40	21.03	
2025-01-12 09:19:18.45	357.37	21.06	
2025-01-12 09:19:18.65	357.34	21.08	
2025-01-12 09:19:18.85	357.31	21.11	
2025-01-12 09:19:19.06	357.27	21.14	
2025-01-12 09:19:19.26	357.24	21.16	
2025-01-12 09:19:19.47	357.21	21.19	
2025-01-12 09:19:19.68	357.17	21.22	
2025-01-12 09:19:19.88	357.14	21.24	
2025-01-12 09:19:20.09	357.11	21.27	
2025-01-12 09:19:20.29	357.08	21.30	
2025-01-12 09:19:20.49	357.04	21.32	
2025-01-12 09:19:20.70	357.01	21.35	
2025-01-12 09:19:20.90	356.98	21.38	
2025-01-12 09:19:21.11	356.94	21.40	
2025-01-12 09:19:21.32	356.91	21.43	
2025-01-12 09:19:21.52	356.88	21.46	
2025-01-12 09:19:21.73	356.84	21.49	
2025-01-12 09:19:21.93	356.81	21.51	
2025-01-12 09:19:22.15	356.78	21.54	
2025-01-12 09:19:22.35	356.74	21.57	
2025-01-12 09:19:22.56	356.71	21.60	
2025-01-12 09:19:22.76	356.68	21.62	
2025-01-12 09:19:22.97	356.64	21.65	
2025-01-12 09:19:23.17	356.61	21.68	
2025-01-12 09:19:23.38	356.57	21.70	
2025-01-12 09:19:23.58	356.54	21.73	
2025-01-12 09:19:23.79	356.51	21.76	
2025-01-12 09:19:23.99	356.47	21.78	
2025-01-12 09:19:24.20	356.44	21.81	
2025-01-12 09:19:24.40	356.41	21.84	
2025-01-12 09:19:24.61	356.37	21.87	
2025-01-12 09:19:24.81	356.34	21.89	
2025-01-12 09:19:25.02	356.30	21.92	
2025-01-12 09:19:25.22	356.27	21.95	
2025-01-12 09:19:25.43	356.23	21.98	
2025-01-12 09:19:25.64	356.20	22.00	
2025-01-12 09:19:25.84	356.16	22.03	
2025-01-12 09:19:26.05	356.13	22.06	
2025-01-12 09:19:26.27	356.09	22.09	
2025-01-12 09:19:26.47	356.06	22.12	
2025-01-12 09:19:26.68	356.02	22.14	
2025-01-12 09:19:26.88	355.99	22.17	
2025-01-12 09:19:27.09	355.95	22.20	
2025-01-12 09:19:27.29	355.92	22.23	
2025-01-12 09:19:27.49	355.88	22.25	
2025-01-12 09:19:27.70	355.85	22.28	
2025-01-12 09:19:27.91	355.81	22.31	
2025-01-12 09:19:28.11	355.78	22.34	
2025-01-12 09:19:28.31	355.74	22.36	
2025-01-12 09:19:28.52	355.71	22.39	
2025-01-12 09:19:28.72	355.67	22.42	
2025-01-12 09:19:28.93	355.64	22.45	
2025-01-12 09:19:29.14	355.60	22.47	
2025-01-12 09:19:29.34	355.56	22.50	
2025-01-12 09:19:29.54	355.53	22.53	
2025-01-12 09:19:29.75	355.49	22.56	
2025-01-12 09:19:29.96	355.46	22.59	
2025-01-12 09:19:30.16	355.42	22.61	
2025-01-12 09:19:30.37	355.38	22.64	
2025-01-12 09:19:30.58	355.35	22.67	
2025-01-12 09:19:30.79	355.31	22.70	
2025-01-12 09:19:31.00	355.27	22.73	
2025-01-12 09:19:31.20	355.24	22.75	
2025-01-12 09:19:31.41	355.20	22.78	
2025-01-12 09:19:31.61	355.17	22.81	
2025-01-12 09:19:31.81	355.13	22.84	
2025-01-12 09:19:32.02	355.09	22.87	
2025-01-12 09:19:32.23	355.06	22.89	
2025-01-12 09:19:32.43	355.02	22.92	
2025-01-12 09:19:32.64	354.98	22.95	
2025-01-12 09:19:32.84	354.95	22.98	
2025-01-12 09:19:33.04	354.91	23.01	
2025-01-12 09:19:33.25	354.87	23.03	
2025-01-12 09:19:33.46	354.83	23.06	
2025-01-12 09:19:33.66	354.80	23.09	
2025-01-12 09:19:33.87	354.76	23.12	
2025-01-12 09:19:34.07	354.72	23.15	
2025-01-12 09:19:34.28	354.69	23.18	
2025-01-12 09:19:34.48	354.65	23.20	
2025-01-12 09:19:34.68	354.61	23.23	
2025-01-12 09:19:34.89	354.57	23.26	
2025-01-12 09:19:35.10	354.54	23.29	
2025-01-12 09:19:35.30	354.50	23.32	
2025-01-12 09:19:35.51	354.46	23.35	
2025-01-12 09:19:35.71	354.42	23.37	
2025-01-12 09:19:35.93	354.38	23.40	
2025-01-12 09:19:36.14	354.34	23.43	
2025-01-12 09:19:36.34	354.31	23.46	
2025-01-12 09:19:36.55	354.27	23.49	
2025-01-12 09:19:36.75	354.23	23.52	
2025-01-12 09:19:36.96	354.19	23.55	
2025-01-12 09:19:37.16	354.15	23.58	
2025-01-12 09:19:37.37	354.11	23.60	
2025-01-12 09:19:37.57	354.08	23.63	
2025-01-12 09:19:37.78	354.04	23.66	
2025-01-12 09:19:37.98	354.00	23.69	
2025-01-12 09:19:38.19	353.96	23.72	
2025-01-12 09:19:38.39	353.92	23.75	
2025-01-12 09:19:38.60	353.88	23.78	
2025-01-12 09:19:38.80	353.84	23.80	
2025-01-12 09:19:39.01	353.80	23.83	
2025-01-12 09:19:39.21	353.77	23.86	
2025-01-12 09:19:39.42	353.73	23.89	
2025-01-12 09:19:39.62	353.69	23.92	
2025-01-12 09:19:39.83	353.65	23.95	
2025-01-12 09:19:40.03	353.61	23.98	
2025-01-12 09:19:40.24	353.57	24.01	
2025-01-12 09:19:40.44	353.53	24.03	
2025-01-12 09:19:40.65	353.49	24.06	
2025-01-12 09:19:40.85	353.45	24.09	
2025-01-12 09:19:41.06	353.41	24.12	
2025-01-12 09:19:41.26	353.37	24.15	
2025-01-12 09:19:41.47	353.33	24.18	
2025-01-12 09:19:41.67	353.29	24.21	
2025-01-12 09:19:41.88	353.25	24.24	
2025-01-12 09:19:42.08	353.21	24.27	
2025-01-12 09:19:42.29	353.17	24.30	
2025-01-12 09:19:42.49	353.13	24.32	
2025-01-12 09:19:42.70	353.09	24.35	
2025-01-12 09:19:42.90	353.05	24.38	
2025-01-12 09:19:43.11	353.01	24.41	
2025-01-12 09:19:43.31	352.97	24.44	
2025-01-12 09:19:43.52	352.93	24.47	
2025-01-12 09:19:43.72	352.89	24.50	
2025-01-12 09:19:43.93	352.84	24.53	
2025-01-12 09:19:44.14	352.80	24.56	
2025-01-12 09:19:44.34	352.76	24.59	
2025-01-12 09:19:44.55	352.72	24.62	
2025-01-12 09:19:44.75	352.68	24.65	
2025-01-12 09:19:44.96	352.64	24.68	
2025-01-12 09:19:45.17	352.59	24.71	
2025-01-12 09:19:45.37	352.55	24.74	
2025-01-12 09:19:45.57	352.51	24.76	
2025-01-12 09:19:45.78	352.47	24.79	
2025-01-12 09:19:45.99	352.43	24.82	
2025-01-12 09:19:46.19	352.39	24.85	
2025-01-12 09:19:46.40	352.34	24.88	
2025-01-12 09:19:46.60	352.30	24.91	
2025-01-12 09:19:46.81	352.26	24.94	
2025-01-12 09:19:47.01	352.22	24.97	
2025-01-12 09:19:47.22	352.18	25.00	
2025-01-12 09:19:47.42	352.13	25.03	
2025-01-12 09:19:47.63	352.09	25.06	
2025-01-12 09:19:47.83	352.05	25.09	
2025-01-12 09:19:48.04	352.01	25.12	
2025-01-12 09:19:48.25	351.96	25.15	
2025-01-12 09:19:48.45	351.92	25.18	
2025-01-12 09:19:48.65	351.88	25.21	
2025-01-12 09:19:48.86	351.83	25.24	
2025-01-12 09:19:49.06	351.79	25.27	
2025-01-12 09:19:49.27	351.75	25.30	
2025-01-12 09:19:49.48	351.70	25.33	
2025-01-12 09:19:49.68	351.66	25.36	
2025-01-12 09:19:49.88	351.62	25.39	
2025-01-12 09:19:50.09	351.58	25.42	
2025-01-12 09:19:50.29	351.53	25.45	
2025-01-12 09:19:50.50	351.49	25.48	
2025-01-12 09:19:50.72	351.44	25.51	
2025-01-12 09:19:50.92	351.40	25.54	
2025-01-12 09:19:51.13	351.35	25.57	
2025-01-12 09:19:51.34	351.31	25.60	
2025-01-12 09:19:51.54	351.27	25.63	
2025-01-12 09:19:51.75	351.22	25.66	
2025-01-12 09:19:51.95	351.18	25.69	
2025-01-12 09:19:52.16	351.13	25.72	
2025-01-12 09:19:52.36	351.09	25.75	
2025-01-12 09:19:52.57	351.04	25.78	
2025-01-12 09:19:52.77	351.00	25.81	
2025-01-12 09:19:52.98	350.95	25.84	
2025-01-12 09:19:53.19	350.91	25.87	
2025-01-12 09:19:53.39	350.86	25.90	
2025-01-12 09:19:53.60	350.82	25.93	
2025-01-12 09:19:53.80	350.77	25.96	
2025-01-12 09:19:54.01	350.73	25.99	
2025-01-12 09:19:54.21	350.68	26.02	
2025-01-12 09:19:54.42	350.64	26.05	
2025-01-12 09:19:54.62	350.59	26.08	
2025-01-12 09:19:54.83	350.55	26.11	
2025-01-12 09:19:55.03	350.50	26.14	
2025-01-12 09:19:55.24	350.46	26.17	
2025-01-12 09:19:55.45	350.41	26.20	
2025-01-12 09:19:55.65	350.36	26.23	
2025-01-12 09:19:55.86	350.32	26.26	
2025-01-12 09:19:56.06	350.27	26.29	
2025-01-12 09:19:56.27	350.23	26.32	
2025-01-12 09:19:56.47	350.18	26.35	
2025-01-12 09:19:56.67	350.14	26.38	
2025-01-12 09:19:56.88	350.09	26.41	
2025-01-12 09:19:57.08	350.04	26.44	
2025-01-12 09:19:57.29	349.99	26.47	
2025-01-12 09:19:57.49	349.95	26.50	
2025-01-12 09:19:57.70	349.90	26.53	
2025-01-12 09:19:57.90	349.86	26.56	
2025-01-12 09:19:58.11	349.81	26.60	
2025-01-12 09:19:58.31	349.76	26.62	
2025-01-12 09:19:58.52	349.71	26.66	
2025-01-12 09:19:58.72	349.67	26.69	
2025-01-12 09:19:58.93	349.62	26.72	
2025-01-12 09:19:59.14	349.57	26.75	
2025-01-12 09:19:59.34	349.52	26.78	
2025-01-12 09:19:59.54	349.48	26.81	
2025-01-12 09:19:59.75	349.43	26.84	
2025-01-12 09:19:59.96	349.38	26.87	
2025-01-12 09:20:00.16	349.33	26.90	
2025-01-12 09:20:00.36	349.29	26.93	
2025-01-12 09:20:00.57	349.24	26.96	
2025-01-12 09:20:00.77	349.19	26.99	
2025-01-12 09:20:00.98	349.14	27.02	
2025-01-12 09:20:01.19	349.09	27.05	
2025-01-12 09:20:01.39	349.04	27.08	
2025-01-12 09:20:01.59	349.00	27.11	
2025-01-12 09:20:01.80	348.95	27.15	
2025-01-12 09:20:02.01	348.90	27.18	
2025-01-12 09:20:02.21	348.85	27.21	
2025-01-12 09:20:02.41	348.80	27.24	
2025-01-12 09:20:02.62	348.75	27.27	
2025-01-12 09:20:02.82	348.70	27.30	
2025-01-12 09:20:03.03	348.65	27.33	
2025-01-12 09:20:03.23	348.60	27.36	
2025-01-12 09:20:03.44	348.55	27.39	
2025-01-12 09:20:03.64	348.50	27.42	
2025-01-12 09:20:03.85	348.45	27.45	
2025-01-12 09:20:04.05	348.40	27.48	
2025-01-12 09:20:04.26	348.35	27.52	
2025-01-12 09:20:04.46	348.30	27.55	
2025-01-12 09:20:04.67	348.25	27.58	
2025-01-12 09:20:04.87	348.20	27.61	
2025-01-12 09:20:05.08	348.15	27.64	
2025-01-12 09:20:05.28	348.10	27.67	
2025-01-12 09:20:05.49	348.05	27.70	
2025-01-12 09:20:05.69	348.00	27.73	
2025-01-12 09:20:05.90	347.95	27.76	
2025-01-12 09:20:06.10	347.90	27.79	
2025-01-12 09:20:06.31	347.85	27.83	
2025-01-12 09:20:06.52	347.80	27.86	
2025-01-12 09:20:06.72	347.75	27.89	
2025-01-12 09:20:06.93	347.69	27.92	
2025-01-12 09:20:07.13	347.64	27.95	
2025-01-12 09:20:07.34	347.59	27.98	
2025-01-12 09:20:07.54	347.54	28.01	
2025-01-12 09:20:07.75	347.49	28.05	
2025-01-12 09:20:07.95	347.44	28.08	
2025-01-12 09:20:08.16	347.38	28.11	
2025-01-12 09:20:08.36	347.33	28.14	
2025-01-12 09:20:08.57	347.28	28.17	
2025-01-12 09:20:08.77	347.23	28.20	
2025-01-12 09:20:08.98	347.18	28.23	
2025-01-12 09:20:09.18	347.12	28.26	
2025-01-12 09:20:09.39	347.07	28.29	
2025-01-12 09:20:09.59	347.02	28.33	
2025-01-12 09:20:09.80	346.97	28.36	
2025-01-12 09:20:10.00	346.91	28.39	
2025-01-12 09:20:10.21	346.86	28.42	
2025-01-12 09:20:10.41	346.81	28.45	
2025-01-12 09:20:10.62	346.75	28.48	
2025-01-12 09:20:10.82	346.70	28.51	
2025-01-12 09:20:11.03	346.65	28.55	
2025-01-12 09:20:11.23	346.59	28.58	
2025-01-12 09:20:11.44	346.54	28.61	
2025-01-12 09:20:11.64	346.49	28.64	
2025-01-12 09:20:11.85	346.43	28.67	
2025-01-12 09:20:12.05	346.38	28.70	
2025-01-12 09:20:12.26	346.32	28.73	
2025-01-12 09:20:12.46	346.27	28.76	
2025-01-12 09:20:12.67	346.22	28.80	
2025-01-12 09:20:12.87	346.16	28.83	
2025-01-12 09:20:13.08	346.11	28.86	
2025-01-12 09:20:13.28	346.05	28.89	
2025-01-12 09:20:13.49	346.00	28.92	
2025-01-12 09:20:13.69	345.94	28.95	
2025-01-12 09:20:13.90	345.89	28.98	
2025-01-12 09:20:14.11	345.83	29.02	
2025-01-12 09:20:14.31	345.78	29.05	
2025-01-12 09:20:14.51	345.72	29.08	
2025-01-12 09:20:14.72	345.67	29.11	
2025-01-12 09:20:14.92	345.61	29.14	
2025-01-12 09:20:15.13	345.56	29.17	
2025-01-12 09:20:15.33	345.50	29.20	
2025-01-12 09:20:15.54	345.44	29.24	
2025-01-12 09:20:15.75	345.39	29.27	
2025-01-12 09:20:15.95	345.33	29.30	
2025-01-12 09:20:16.16	345.27	29.33	
2025-01-12 09:20:16.36	345.22	29.36	
2025-01-12 09:20:16.57	345.16	29.40	
2025-01-12 09:20:16.77	345.11	29.43	
2025-01-12 09:20:16.98	345.05	29.46	
2025-01-12 09:20:17.18	344.99	29.49	
2025-01-12 09:20:17.39	344.94	29.52	
2025-01-12 09:20:17.59	344.88	29.55	
2025-01-12 09:20:17.80	344.82	29.59	
2025-01-12 09:20:18.00	344.77	29.62	
2025-01-12 09:20:18.21	344.71	29.65	
2025-01-12 09:20:18.41	344.65	29.68	
2025-01-12 09:20:18.61	344.59	29.71	
2025-01-12 09:20:18.82	344.54	29.74	
2025-01-12 09:20:19.03	344.48	29.78	
2025-01-12 09:20:19.23	344.42	29.81	
2025-01-12 09:20:19.44	344.36	29.84	
2025-01-12 09:20:19.64	344.30	29.87	
2025-01-12 09:20:19.85	344.24	29.90	
2025-01-12 09:20:20.05	344.19	29.93	
2025-01-12 09:20:20.26	344.13	29.97	
2025-01-12 09:20:20.46	344.07	30.00	
2025-01-12 09:20:20.67	344.01	30.03	
2025-01-12 09:20:20.87	343.95	30.06	
2025-01-12 09:20:21.08	343.89	30.09	
2025-01-12 09:20:21.28	343.83	30.12	
2025-01-12 09:20:21.49	343.77	30.16	
2025-01-12 09:20:21.69	343.71	30.19	
2025-01-12 09:20:21.90	343.65	30.22	
2025-01-12 09:20:22.11	343.59	30.25	
2025-01-12 09:20:22.31	343.53	30.28	
2025-01-12 09:20:22.52	343.47	30.32	
2025-01-12 09:20:22.73	343.41	30.35	
2025-01-12 09:20:22.94	343.35	30.38	
2025-01-12 09:20:23.14	343.29	30.41	
2025-01-12 09:20:23.35	343.23	30.44	
2025-01-12 09:20:23.55	343.17	30.47	
2025-01-12 09:20:23.76	343.11	30.51	
2025-01-12 09:20:23.97	343.05	30.54	
2025-01-12 09:20:24.17	342.99	30.57	
2025-01-12 09:20:24.38	342.92	30.60	
2025-01-12 09:20:24.58	342.86	30.63	
2025-01-12 09:20:24.79	342.80	30.67	
2025-01-12 09:20:24.99	342.74	30.70	
2025-01-12 09:20:25.20	342.68	30.73	
2025-01-12 09:20:25.41	342.62	30.76	
2025-01-12 09:20:25.61	342.56	30.79	
2025-01-12 09:20:25.82	342.49	30.83	
2025-01-12 09:20:26.02	342.43	30.86	
2025-01-12 09:20:26.22	342.37	30.89	
2025-01-12 09:20:26.43	342.31	30.92	
2025-01-12 09:20:26.64	342.24	30.95	
2025-01-12 09:20:26.84	342.18	30.98	
2025-01-12 09:20:27.04	342.12	31.02	
2025-01-12 09:20:27.25	342.06	31.05	
2025-01-12 09:20:27.46	341.99	31.08	
2025-01-12 09:20:27.66	341.93	31.11	
2025-01-12 09:20:27.87	341.87	31.14	
2025-01-12 09:20:28.07	341.80	31.17	
2025-01-12 09:20:28.28	341.74	31.21	
2025-01-12 09:20:28.48	341.68	31.24	
2025-01-12 09:20:28.69	341.61	31.27	
2025-01-12 09:20:28.89	341.55	31.30	
2025-01-12 09:20:29.09	341.49	31.33	
2025-01-12 09:20:29.30	341.42	31.37	
2025-01-12 09:20:29.50	341.36	31.40	
2025-01-12 09:20:29.71	341.29	31.43	
2025-01-12 09:20:29.91	341.23	31.46	
2025-01-12 09:20:30.12	341.16	31.49	
2025-01-12 09:20:30.32	341.10	31.52	
2025-01-12 09:20:30.53	341.03	31.56	
2025-01-12 09:20:30.73	340.97	31.59	
2025-01-12 09:20:30.94	340.90	31.62	
2025-01-12 09:20:31.14	340.84	31.65	
2025-01-12 09:20:31.36	340.77	31.68	
2025-01-12 09:20:31.57	340.70	31.72	
2025-01-12 09:20:31.77	340.64	31.75	
2025-01-12 09:20:31.98	340.57	31.78	
2025-01-12 09:20:32.18	340.51	31.81	
2025-01-12 09:20:32.39	340.44	31.84	
2025-01-12 09:20:32.59	340.38	31.87	
2025-01-12 09:20:32.80	340.31	31.91	
2025-01-12 09:20:33.00	340.24	31.94	
2025-01-12 09:20:33.21	340.17	31.97	
2025-01-12 09:20:33.41	340.11	32.00	
2025-01-12 09:20:33.62	340.04	32.03	
2025-01-12 09:20:33.82	339.98	32.06	
2025-01-12 09:20:34.03	339.91	32.10	
2025-01-12 09:20:34.23	339.84	32.13	
2025-01-12 09:20:34.44	339.77	32.16	
2025-01-12 09:20:34.64	339.71	32.19	
2025-01-12 09:20:34.85	339.64	32.22	
2025-01-12 09:20:35.05	339.57	32.25	
2025-01-12 09:20:35.26	339.50	32.29	
2025-01-12 09:20:35.46	339.43	32.32	
2025-01-12 09:20:35.67	339.36	32.35	
2025-01-12 09:20:35.88	339.29	32.38	
2025-01-12 09:20:36.08	339.23	32.41	
2025-01-12 09:20:36.29	339.16	32.45	
2025-01-12 09:20:36.49	339.09	32.48	
2025-01-12 09:20:36.70	339.02	32.51	
2025-01-12 09:20:36.91	338.95	32.54	
2025-01-12 09:20:37.11	338.88	32.57	
2025-01-12 09:20:37.31	338.81	32.60	
2025-01-12 09:20:37.52	338.74	32.63	
2025-01-12 09:20:37.72	338.67	32.66	
2025-01-12 09:20:37.93	338.60	32.70	
2025-01-12 09:20:38.14	338.53	32.73	
2025-01-12 09:20:38.34	338.46	32.76	
2025-01-12 09:20:38.55	338.39	32.79	
2025-01-12 09:20:38.75	338.32	32.82	
2025-01-12 09:20:38.96	338.25	32.85	
2025-01-12 09:20:39.16	338.18	32.89	
2025-01-12 09:20:39.37	338.11	32.92	
2025-01-12 09:20:39.57	338.04	32.95	
2025-01-12 09:20:39.77	337.97	32.98	
2025-01-12 09:20:39.98	337.90	33.01	
2025-01-12 09:20:40.19	337.82	33.04	
2025-01-12 09:20:40.39	337.75	33.07	
2025-01-12 09:20:40.60	337.68	33.11	
2025-01-12 09:20:40.80	337.61	33.14	
2025-01-12 09:20:41.01	337.54	33.17	
2025-01-12 09:20:41.21	337.47	33.20	
2025-01-12 09:20:41.42	337.39	33.23	
2025-01-12 09:20:41.63	337.32	33.26	
2025-01-12 09:20:41.83	337.25	33.29	
2025-01-12 09:20:42.03	337.18	33.32	
2025-01-12 09:20:42.24	337.10	33.35	
2025-01-12 09:20:42.44	337.03	33.39	
2025-01-12 09:20:42.65	336.96	33.42	
2025-01-12 09:20:42.85	336.89	33.45	
2025-01-12 09:20:43.05	336.81	33.48	
2025-01-12 09:20:43.26	336.74	33.51	
2025-01-12 09:20:43.46	336.67	33.54	
2025-01-12 09:20:43.67	336.59	33.57	
2025-01-12 09:20:43.87	336.52	33.60	
2025-01-12 09:20:44.09	336.44	33.63	
2025-01-12 09:20:44.30	336.36	33.67	
2025-01-12 09:20:44.50	336.29	33.70	
2025-01-12 09:20:44.71	336.22	33.73	
2025-01-12 09:20:44.91	336.14	33.76	
2025-01-12 09:20:45.11	336.07	33.79	
2025-01-12 09:20:45.32	335.99	33.82	
2025-01-12 09:20:45.52	335.92	33.85	
2025-01-12 09:20:45.73	335.84	33.88	
2025-01-12 09:20:45.94	335.76	33.91	
2025-01-12 09:20:46.14	335.69	33.94	
2025-01-12 09:20:46.35	335.61	33.97	
2025-01-12 09:20:46.55	335.54	34.00	
2025-01-12 09:20:46.76	335.46	34.04	
2025-01-12 09:20:46.96	335.39	34.07	
2025-01-12 09:20:47.17	335.31	34.10	
2025-01-12 09:20:47.37	335.23	34.13	
2025-01-12 09:20:47.57	335.16	34.16	
2025-01-12 09:20:47.78	335.08	34.19	
2025-01-12 09:20:47.99	335.00	34.22	
2025-01-12 09:20:48.19	334.93	34.25	
2025-01-12 09:20:48.39	334.85	34.28	
2025-01-12 09:20:48.60	334.77	34.31	
2025-01-12 09:20:48.80	334.70	34.34	
2025-01-12 09:20:49.01	334.62	34.37	
2025-01-12 09:20:49.22	334.54	34.40	
2025-01-12 09:20:49.42	334.46	34.43	
2025-01-12 09:20:49.63	334.38	34.46	
2025-01-12 09:20:49.83	334.31	34.49	
2025-01-12 09:20:50.04	334.23	34.52	
2025-01-12 09:20:50.24	334.15	34.55	
2025-01-12 09:20:50.45	334.07	34.58	
2025-01-12 09:20:50.65	333.99	34.61	
2025-01-12 09:20:50.86	333.91	34.64	
2025-01-12 09:20:51.06	333.83	34.67	
2025-01-12 09:20:51.27	333.75	34.70	
2025-01-12 09:20:51.47	333.67	34.73	
2025-01-12 09:20:51.67	333.60	34.76	
2025-01-12 09:20:51.88	333.52	34.79	
2025-01-12 09:20:52.09	333.43	34.82	
2025-01-12 09:20:52.29	333.36	34.85	
2025-01-12 09:20:52.49	333.28	34.88	
2025-01-12 09:20:52.70	333.19	34.91	
2025-01-12 09:20:52.91	333.11	34.94	
2025-01-12 09:20:53.11	333.03	34.97	
2025-01-12 09:20:53.32	332.95	35.00	
2025-01-12 09:20:53.52	332.87	35.03	
2025-01-12 09:20:53.73	332.79	35.06	
2025-01-12 09:20:53.93	332.71	35.09	
2025-01-12 09:20:54.14	332.63	35.12	
2025-01-12 09:20:54.34	332.55	35.15	
2025-01-12 09:20:54.55	332.46	35.18	
2025-01-12 09:20:54.75	332.38	35.21	
2025-01-12 09:20:54.96	332.30	35.24	
2025-01-12 09:20:55.16	332.22	35.27	
2025-01-12 09:20:55.37	332.13	35.30	
2025-01-12 09:20:55.57	332.05	35.33	
2025-01-12 09:20:55.77	331.97	35.36	
2025-01-12 09:20:55.98	331.89	35.39	
2025-01-12 09:20:56.19	331.80	35.42	
2025-01-12 09:20:56.39	331.72	35.45	
2025-01-12 09:20:56.60	331.64	35.48	
2025-01-12 09:20:56.80	331.56	35.50	
2025-01-12 09:20:57.01	331.47	35.53	
2025-01-12 09:20:57.21	331.39	35.56	
2025-01-12 09:20:57.42	331.30	35.59	
2025-01-12 09:20:57.63	331.22	35.62	
2025-01-12 09:20:57.83	331.13	35.65	
2025-01-12 09:20:58.03	331.05	35.68	
2025-01-12 09:20:58.24	330.97	35.71	
2025-01-12 09:20:58.44	330.88	35.74	
2025-01-12 09:20:58.65	330.80	35.77	
2025-01-12 09:20:58.86	330.71	35.79	
2025-01-12 09:20:59.08	330.62	35.83	
2025-01-12 09:20:59.28	330.53	35.85	
2025-01-12 09:20:59.49	330.45	35.88	
2025-01-12 09:20:59.69	330.36	35.91	
2025-01-12 09:20:59.90	330.28	35.94	
2025-01-12 09:21:00.11	330.19	35.97	
2025-01-12 09:21:00.32	330.10	36.00	
2025-01-12 09:21:00.53	330.01	36.03	
2025-01-12 09:21:00.73	329.93	36.05	
2025-01-12 09:21:00.94	329.84	36.08	
2025-01-12 09:21:01.14	329.75	36.11	
2025-01-12 09:21:01.35	329.66	36.14	
2025-01-12 09:21:01.55	329.58	36.17	
2025-01-12 09:21:01.76	329.49	36.20	
2025-01-12 09:21:01.96	329.40	36.22	
2025-01-12 09:21:02.17	329.32	36.25	
2025-01-12 09:21:02.37	329.23	36.28	
2025-01-12 09:21:02.58	329.14	36.31	
2025-01-12 09:21:02.78	329.05	36.34	
2025-01-12 09:21:02.99	328.96	36.36	
2025-01-12 09:21:03.19	328.88	36.39	
2025-01-12 09:21:03.39	328.79	36.42	
2025-01-12 09:21:03.60	328.70	36.45	
2025-01-12 09:21:03.80	328.61	36.47	
2025-01-12 09:21:04.01	328.52	36.50	
2025-01-12 09:21:04.22	328.43	36.53	
2025-01-12 09:21:04.42	328.35	36.56	
2025-01-12 09:21:04.63	328.25	36.58	
2025-01-12 09:21:04.83	328.17	36.61	
2025-01-12 09:21:05.04	328.07	36.64	
2025-01-12 09:21:05.24	327.99	36.67	
2025-01-12 09:21:05.46	327.89	36.69	
2025-01-12 09:21:05.67	327.80	36.72	
2025-01-12 09:21:05.87	327.71	36.75	
2025-01-12 09:21:06.08	327.62	36.78	
2025-01-12 09:21:06.28	327.53	36.80	
2025-01-12 09:21:06.49	327.44	36.83	
2025-01-12 09:21:06.69	327.35	36.86	
2025-01-12 09:21:06.90	327.25	36.88	
2025-01-12 09:21:07.11	327.16	36.91	
2025-01-12 09:21:07.31	327.07	36.94	
2025-01-12 09:21:07.52	326.98	36.96	
2025-01-12 09:21:07.72	326.89	36.99	
2025-01-12 09:21:07.93	326.79	37.02	
2025-01-12 09:21:08.13	326.70	37.04	
2025-01-12 09:21:08.34	326.61	37.07	
2025-01-12 09:21:08.54	326.52	37.10	
2025-01-12 09:21:08.75	326.43	37.12	
2025-01-12 09:21:08.95	326.34	37.15	
2025-01-12 09:21:09.16	326.24	37.17	
2025-01-12 09:21:09.36	326.15	37.20	
2025-01-12 09:21:09.57	326.05	37.23	
2025-01-12 09:21:09.79	325.95	37.25	
2025-01-12 09:21:09.99	325.86	37.28	
2025-01-12 09:21:10.20	325.77	37.31	
2025-01-12 09:21:10.40	325.68	37.33	
2025-01-12 09:21:10.61	325.58	37.36	
2025-01-12 09:21:10.81	325.49	37.38	
2025-01-12 09:21:11.02	325.39	37.41	
2025-01-12 09:21:11.22	325.30	37.43	
2025-01-12 09:21:11.43	325.20	37.46	
2025-01-12 09:21:11.63	325.11	37.48	
2025-01-12 09:21:11.84	325.01	37.51	
2025-01-12 09:21:12.04	324.92	37.53	
2025-01-12 09:21:12.25	324.82	37.56	
2025-01-12 09:21:12.45	324.73	37.58	
2025-01-12 09:21:12.66	324.63	37.61	
2025-01-12 09:21:12.86	324.54	37.63	
2025-01-12 09:21:13.07	324.44	37.66	
2025-01-12 09:21:13.27	324.35	37.68	
2025-01-12 09:21:13.48	324.25	37.71	
2025-01-12 09:21:13.69	324.15	37.73	
2025-01-12 09:21:13.89	324.06	37.76	
2025-01-12 09:21:14.09	323.96	37.78	
2025-01-12 09:21:14.30	323.87	37.81	
2025-01-12 09:21:14.51	323.77	37.83	
2025-01-12 09:21:14.71	323.67	37.86	
2025-01-12 09:21:14.92	323.57	37.88	
2025-01-12 09:21:15.14	323.47	37.91	
2025-01-12 09:21:15.34	323.37	37.93	
2025-01-12 09:21:15.55	323.27	37.96	
2025-01-12 09:21:15.75	323.18	37.98	
2025-01-12 09:21:15.96	323.08	38.00	
2025-01-12 09:21:16.16	322.98	38.03	
2025-01-12 09:21:16.37	322.88	38.05	
2025-01-12 09:21:16.57	322.79	38.07	
2025-01-12 09:21:16.78	322.69	38.10	
2025-01-12 09:21:16.98	322.59	38.12	
2025-01-12 09:21:17.19	322.49	38.14	
2025-01-12 09:21:17.39	322.39	38.17	
2025-01-12 09:21:17.60	322.29	38.19	
2025-01-12 09:21:17.80	322.20	38.21	
2025-01-12 09:21:18.01	322.09	38.24	
2025-01-12 09:21:18.21	322.00	38.26	
2025-01-12 09:21:18.42	321.90	38.28	
2025-01-12 09:21:18.63	321.79	38.31	
2025-01-12 09:21:18.83	321.70	38.33	
2025-01-12 09:21:19.04	321.59	38.35	
2025-01-12 09:21:19.24	321.50	38.37	
2025-01-12 09:21:19.45	321.39	38.40	
2025-01-12 09:21:19.65	321.30	38.42	
2025-01-12 09:21:19.86	321.19	38.44	
2025-01-12 09:21:20.06	321.09	38.46	
2025-01-12 09:21:20.27	320.99	38.49	
2025-01-12 09:21:20.47	320.89	38.51	
2025-01-12 09:21:20.68	320.79	38.53	
2025-01-12 09:21:20.88	320.69	38.55	
2025-01-12 09:21:21.09	320.59	38.57	
2025-01-12 09:21:21.29	320.49	38.59	
2025-01-12 09:21:21.50	320.38	38.62	
2025-01-12 09:21:21.70	320.28	38.64	
2025-01-12 09:21:21.91	320.18	38.66	
2025-01-12 09:21:22.12	320.08	38.68	
2025-01-12 09:21:22.32	319.98	38.70	
2025-01-12 09:21:22.54	319.87	38.73	
2025-01-12 09:21:22.74	319.77	38.75	
2025-01-12 09:21:22.95	319.66	38.77	
2025-01-12 09:21:23.15	319.56	38.79	
2025-01-12 09:21:23.36	319.46	38.81	
2025-01-12 09:21:23.57	319.35	38.83	
2025-01-12 09:21:23.77	319.25	38.85	
2025-01-12 09:21:23.98	319.14	38.87	
2025-01-12 09:21:24.18	319.04	38.89	
2025-01-12 09:21:24.39	318.94	38.91	
2025-01-12 09:21:24.59	318.84	38.93	
2025-01-12 09:21:24.80	318.73	38.95	
2025-01-12 09:21:25.01	318.62	38.97	
2025-01-12 09:21:25.21	318.52	38.99	
2025-01-12 09:21:25.42	318.41	39.01	
2025-01-12 09:21:25.62	318.31	39.03	
2025-01-12 09:21:25.83	318.21	39.05	
2025-01-12 09:21:26.03	318.10	39.07	
2025-01-12 09:21:26.24	318.00	39.09	
2025-01-12 09:21:26.45	317.89	39.11	
2025-01-12 09:21:26.65	317.79	39.13	
2025-01-12 09:21:26.85	317.68	39.15	
2025-01-12 09:21:27.06	317.58	39.17	
2025-01-12 09:21:27.27	317.47	39.19	
2025-01-12 09:21:27.47	317.37	39.21	
2025-01-12 09:21:27.68	317.26	39.23	
2025-01-12 09:21:27.88	317.15	39.24	
2025-01-12 09:21:28.09	317.05	39.26	
2025-01-12 09:21:28.30	316.94	39.28	
2025-01-12 09:21:28.50	316.83	39.30	
2025-01-12 09:21:28.71	316.73	39.32	
2025-01-12 09:21:28.91	316.62	39.34	
2025-01-12 09:21:29.12	316.51	39.36	
2025-01-12 09:21:29.32	316.41	39.37	
2025-01-12 09:21:29.53	316.30	39.39	
2025-01-12 09:21:29.73	316.20	39.41	
2025-01-12 09:21:29.93	316.09	39.43	
2025-01-12 09:21:30.14	315.98	39.45	
2025-01-12 09:21:30.34	315.88	39.46	
2025-01-12 09:21:30.55	315.77	39.48	
2025-01-12 09:21:30.76	315.66	39.50	
2025-01-12 09:21:30.96	315.55	39.51	
2025-01-12 09:21:31.17	315.44	39.53	
2025-01-12 09:21:31.37	315.34	39.55	
2025-01-12 09:21:31.58	315.23	39.57	
2025-01-12 09:21:31.78	315.12	39.58	
2025-01-12 09:21:31.99	315.01	39.60	
2025-01-12 09:21:32.21	314.89	39.62	
2025-01-12 09:21:32.41	314.79	39.63	
2025-01-12 09:21:32.62	314.68	39.65	
2025-01-12 09:21:32.82	314.57	39.67	
2025-01-12 09:21:33.03	314.46	39.68	
2025-01-12 09:21:33.23	314.35	39.70	
2025-01-12 09:21:33.44	314.24	39.72	
2025-01-12 09:21:33.64	314.14	39.73	
2025-01-12 09:21:33.85	314.02	39.75	
2025-01-12 09:21:34.06	313.91	39.76	
2025-01-12 09:21:34.26	313.80	39.78	
2025-01-12 09:21:34.46	313.70	39.79	
2025-01-12 09:21:34.67	313.59	39.81	
2025-01-12 09:21:34.87	313.48	39.82	
2025-01-12 09:21:35.08	313.37	39.84	
2025-01-12 09:21:35.28	313.26	39.85	
2025-01-12 09:21:35.49	313.15	39.87	
2025-01-12 09:21:35.69	313.04	39.88	
2025-01-12 09:21:35.90	312.93	39.90	
2025-01-12 09:21:36.10	312.82	39.91	
2025-01-12 09:21:36.31	312.71	39.93	
2025-01-12 09:21:36.51	312.60	39.94	
2025-01-12 09:21:36.72	312.48	39.96	
2025-01-12 09:21:36.92	312.38	39.97	
2025-01-12 09:21:37.13	312.26	39.98	
2025-01-12 09:21:37.33	312.15	40.00	
2025-01-12 09:21:37.53	312.05	40.01	
2025-01-12 09:21:37.74	311.93	40.02	
2025-01-12 09:21:37.95	311.82	40.04	
2025-01-12 09:21:38.15	311.71	40.05	
2025-01-12 09:21:38.36	311.60	40.07	
2025-01-12 09:21:38.57	311.48	40.08	
2025-01-12 09:21:38.78	311.37	40.09	
2025-01-12 09:21:38.98	311.26	40.10	
2025-01-12 09:21:39.19	311.14	40.12	
2025-01-12 09:21:39.40	311.03	40.13	
2025-01-12 09:21:39.60	310.92	40.14	
2025-01-12 09:21:39.80	310.81	40.16	
2025-01-12 09:21:40.01	310.70	40.17	
2025-01-12 09:21:40.22	310.58	40.18	
2025-01-12 09:21:40.42	310.47	40.19	
2025-01-12 09:21:40.63	310.36	40.20	
2025-01-12 09:21:40.83	310.25	40.22	
2025-01-12 09:21:41.04	310.13	40.23	
2025-01-12 09:21:41.24	310.02	40.24	
2025-01-12 09:21:41.45	309.91	40.25	
2025-01-12 09:21:41.65	309.80	40.26	
2025-01-12 09:21:41.86	309.68	40.27	
2025-01-12 09:21:42.06	309.57	40.28	
2025-01-12 09:21:42.27	309.46	40.30	
2025-01-12 09:21:42.48	309.34	40.31	
2025-01-12 09:21:42.68	309.23	40.32	
2025-01-12 09:21:42.89	309.11	40.33	
2025-01-12 09:21:43.09	309.00	40.34	
2025-01-12 09:21:43.30	308.89	40.35	
2025-01-12 09:21:43.50	308.78	40.36	
2025-01-12 09:21:43.71	308.66	40.37	
2025-01-12 09:21:43.91	308.55	40.38	
2025-01-12 09:21:44.12	308.43	40.39	
2025-01-12 09:21:44.32	308.32	40.40	
2025-01-12 09:21:44.53	308.20	40.41	
2025-01-12 09:21:44.73	308.09	40.42	
2025-01-12 09:21:44.94	307.98	40.43	
2025-01-12 09:21:45.14	307.86	40.44	
2025-01-12 09:21:45.34	307.75	40.45	
2025-01-12 09:21:45.55	307.64	40.46	
2025-01-12 09:21:45.75	307.53	40.46	
2025-01-12 09:21:45.96	307.41	40.47	
2025-01-12 09:21:46.16	307.30	40.48	
2025-01-12 09:21:46.37	307.18	40.49	
2025-01-12 09:21:46.57	307.07	40.50	
2025-01-12 09:21:46.78	306.95	40.51	
2025-01-12 09:21:46.99	306.83	40.52	
2025-01-12 09:21:47.19	306.72	40.52	
2025-01-12 09:21:47.40	306.60	40.53	
2025-01-12 09:21:47.60	306.49	40.54	
2025-01-12 09:21:47.81	306.37	40.55	
2025-01-12 09:21:48.01	306.26	40.56	
2025-01-12 09:21:48.22	306.14	40.56	
2025-01-12 09:21:48.42	306.03	40.57	
2025-01-12 09:21:48.63	305.91	40.58	
2025-01-12 09:21:48.84	305.80	40.58	
2025-01-12 09:21:49.04	305.68	40.59	
2025-01-12 09:21:49.26	305.56	40.60	
2025-01-12 09:21:49.47	305.44	40.61	
2025-01-12 09:21:49.67	305.33	40.61	
2025-01-12 09:21:49.88	305.21	40.62	
2025-01-12 09:21:50.09	305.09	40.62	
2025-01-12 09:21:50.29	304.98	40.63	
2025-01-12 09:21:50.50	304.86	40.64	
2025-01-12 09:21:50.70	304.75	40.64	
2025-01-12 09:21:50.91	304.63	40.65	
2025-01-12 09:21:51.12	304.51	40.65	
2025-01-12 09:21:51.32	304.40	40.66	
2025-01-12 09:21:51.52	304.29	40.66	
2025-01-12 09:21:51.73	304.17	40.67	
2025-01-12 09:21:51.93	304.05	40.67	
2025-01-12 09:21:52.14	303.94	40.68	
2025-01-12 09:21:52.34	303.82	40.68	
2025-01-12 09:21:52.55	303.70	40.69	
2025-01-12 09:21:52.75	303.59	40.69	
2025-01-12 09:21:52.96	303.47	40.70	
2025-01-12 09:21:53.16	303.36	40.70	
2025-01-12 09:21:53.37	303.24	40.71	
2025-01-12 09:21:53.57	303.13	40.71	
2025-01-12 09:21:53.78	303.01	40.72	
2025-01-12 09:21:53.98	302.89	40.72	
2025-01-12 09:21:54.19	302.78	40.72	
2025-01-12 09:21:54.39	302.66	40.73	
2025-01-12 09:21:54.60	302.54	40.73	
2025-01-12 09:21:54.80	302.43	40.73	
2025-01-12 09:21:55.01	302.31	40.74	
2025-01-12 09:21:55.21	302.20	40.74	
2025-01-12 09:21:55.42	302.08	40.74	
2025-01-12 09:21:55.62	301.96	40.74	
2025-01-12 09:21:55.83	301.85	40.75	
2025-01-12 09:21:56.04	301.73	40.75	
2025-01-12 09:21:56.24	301.61	40.75	
2025-01-12 09:21:56.45	301.49	40.75	
2025-01-12 09:21:56.65	301.38	40.76	
2025-01-12 09:21:56.85	301.27	40.76	
2025-01-12 09:21:57.07	301.14	40.76	
2025-01-12 09:21:57.28	301.02	40.76	
2025-01-12 09:21:57.48	300.91	40.76	
2025-01-12 09:21:57.69	300.79	40.76	
2025-01-12 09:21:57.91	300.66	40.77	
2025-01-12 09:21:58.11	300.55	40.77	
2025-01-12 09:21:58.32	300.43	40.77	
2025-01-12 09:21:58.52	300.32	40.77	
2025-01-12 09:21:58.73	300.20	40.77	
