passes_logs/2025/01/12/SPB_Silybum_02/SPB_Silybum_02__20250112_125145_AQUA_rec.log

#Pass ID: 20250112_125145_AQUA
#Satellite: AQUA
#Configuration: AQUA
#Start time: 2025-01-12 12:55:11

#Version: 2.0.20230423
#Station: SPB_Silybum_02
#Location: 30.233357 lon 59.946436 lat
#TLE: 1 27424U 02022A   25011.85338958  .00001740  00000+0  36730-3 0  9996
#TLE: 2 27424  98.3583 328.4891 0001585 114.5213 298.5366 14.60670077207161

#Time	Az	El	Level	Level2	SNR	BER	Gain	Gain2
2025-01-12 12:55:13.20	239.42	18.61	
2025-01-12 12:55:13.40	239.47	18.63	
2025-01-12 12:55:13.60	239.52	18.64	
2025-01-12 12:55:13.81	239.57	18.66	
2025-01-12 12:55:14.01	239.62	18.67	
2025-01-12 12:55:14.22	239.67	18.68	
2025-01-12 12:55:14.43	239.72	18.70	
2025-01-12 12:55:14.63	239.77	18.71	
2025-01-12 12:55:14.84	239.82	18.73	
2025-01-12 12:55:15.04	239.87	18.74	
2025-01-12 12:55:15.25	239.92	18.75	
2025-01-12 12:55:15.45	239.97	18.77	
2025-01-12 12:55:15.66	240.02	18.78	
2025-01-12 12:55:15.88	240.07	18.80	
2025-01-12 12:55:16.08	240.12	18.81	
2025-01-12 12:55:16.29	240.17	18.82	
2025-01-12 12:55:16.49	240.22	18.84	
2025-01-12 12:55:16.70	240.27	18.85	
2025-01-12 12:55:16.91	240.33	18.87	
2025-01-12 12:55:17.12	240.38	18.88	
2025-01-12 12:55:17.32	240.43	18.89	
2025-01-12 12:55:17.53	240.48	18.91	
2025-01-12 12:55:17.74	240.53	18.92	
2025-01-12 12:55:17.94	240.58	18.93	
2025-01-12 12:55:18.15	240.63	18.95	
2025-01-12 12:55:18.35	240.68	18.96	
2025-01-12 12:55:18.56	240.74	18.98	
2025-01-12 12:55:18.76	240.79	18.99	
2025-01-12 12:55:18.97	240.84	19.00	
2025-01-12 12:55:19.17	240.89	19.02	
2025-01-12 12:55:19.38	240.94	19.03	
2025-01-12 12:55:19.58	240.99	19.04	
2025-01-12 12:55:19.79	241.04	19.06	
2025-01-12 12:55:19.99	241.09	19.07	
2025-01-12 12:55:20.19	241.14	19.08	
2025-01-12 12:55:20.40	241.20	19.10	
2025-01-12 12:55:20.60	241.25	19.11	
2025-01-12 12:55:20.81	241.30	19.13	
2025-01-12 12:55:21.02	241.35	19.14	
2025-01-12 12:55:21.22	241.40	19.15	
2025-01-12 12:55:21.43	241.45	19.17	
2025-01-12 12:55:21.63	241.50	19.18	
2025-01-12 12:55:21.84	241.56	19.19	
2025-01-12 12:55:22.04	241.61	19.21	
2025-01-12 12:55:22.26	241.66	19.22	
2025-01-12 12:55:22.47	241.72	19.23	
2025-01-12 12:55:22.67	241.77	19.25	
2025-01-12 12:55:22.87	241.82	19.26	
2025-01-12 12:55:23.08	241.87	19.27	
2025-01-12 12:55:23.28	241.92	19.29	
2025-01-12 12:55:23.49	241.98	19.30	
2025-01-12 12:55:23.69	242.03	19.31	
2025-01-12 12:55:23.90	242.08	19.33	
2025-01-12 12:55:24.10	242.13	19.34	
2025-01-12 12:55:24.31	242.18	19.35	
2025-01-12 12:55:24.51	242.24	19.37	
2025-01-12 12:55:24.72	242.29	19.38	
2025-01-12 12:55:24.92	242.34	19.39	
2025-01-12 12:55:25.13	242.39	19.41	
2025-01-12 12:55:25.33	242.44	19.42	
2025-01-12 12:55:25.54	242.50	19.43	
2025-01-12 12:55:25.74	242.55	19.45	
2025-01-12 12:55:25.95	242.60	19.46	
2025-01-12 12:55:26.15	242.66	19.47	
2025-01-12 12:55:26.36	242.71	19.49	
2025-01-12 12:55:26.56	242.76	19.50	
2025-01-12 12:55:26.77	242.81	19.51	
2025-01-12 12:55:26.98	242.87	19.53	
2025-01-12 12:55:27.18	242.92	19.54	
2025-01-12 12:55:27.38	242.97	19.55	
2025-01-12 12:55:27.59	243.03	19.56	
2025-01-12 12:55:27.79	243.08	19.58	
2025-01-12 12:55:28.00	243.13	19.59	
2025-01-12 12:55:28.20	243.18	19.60	
2025-01-12 12:55:28.41	243.24	19.62	
2025-01-12 12:55:28.61	243.29	19.63	
2025-01-12 12:55:28.82	243.35	19.64	
2025-01-12 12:55:29.03	243.40	19.66	
2025-01-12 12:55:29.23	243.45	19.67	
2025-01-12 12:55:29.44	243.51	19.68	
2025-01-12 12:55:29.64	243.56	19.69	
2025-01-12 12:55:29.85	243.61	19.71	
2025-01-12 12:55:30.05	243.67	19.72	
2025-01-12 12:55:30.26	243.72	19.73	
2025-01-12 12:55:30.46	243.77	19.75	
2025-01-12 12:55:30.66	243.83	19.76	
2025-01-12 12:55:30.87	243.88	19.77	
2025-01-12 12:55:31.07	243.93	19.78	
2025-01-12 12:55:31.28	243.99	19.80	
2025-01-12 12:55:31.48	244.04	19.81	
2025-01-12 12:55:31.69	244.10	19.82	
2025-01-12 12:55:31.89	244.15	19.83	
2025-01-12 12:55:32.10	244.20	19.85	
2025-01-12 12:55:32.30	244.26	19.86	
2025-01-12 12:55:32.51	244.31	19.87	
2025-01-12 12:55:32.71	244.37	19.88	
2025-01-12 12:55:32.92	244.42	19.90	
2025-01-12 12:55:33.13	244.48	19.91	
2025-01-12 12:55:33.33	244.53	19.92	
2025-01-12 12:55:33.53	244.58	19.93	
2025-01-12 12:55:33.74	244.64	19.95	
2025-01-12 12:55:33.94	244.69	19.96	
2025-01-12 12:55:34.15	244.75	19.97	
2025-01-12 12:55:34.35	244.80	19.98	
2025-01-12 12:55:34.56	244.86	20.00	
2025-01-12 12:55:34.76	244.91	20.01	
2025-01-12 12:55:34.97	244.97	20.02	
2025-01-12 12:55:35.17	245.02	20.03	
2025-01-12 12:55:35.38	245.08	20.05	
2025-01-12 12:55:35.58	245.13	20.06	
2025-01-12 12:55:35.79	245.19	20.07	
2025-01-12 12:55:35.99	245.24	20.08	
2025-01-12 12:55:36.19	245.29	20.10	
2025-01-12 12:55:36.40	245.35	20.11	
2025-01-12 12:55:36.60	245.40	20.12	
2025-01-12 12:55:36.81	245.46	20.13	
2025-01-12 12:55:37.01	245.51	20.15	
2025-01-12 12:55:37.22	245.57	20.16	
2025-01-12 12:55:37.42	245.62	20.17	
2025-01-12 12:55:37.63	245.68	20.18	
2025-01-12 12:55:37.83	245.73	20.19	
2025-01-12 12:55:38.04	245.79	20.21	
2025-01-12 12:55:38.24	245.84	20.22	
2025-01-12 12:55:38.45	245.90	20.23	
2025-01-12 12:55:38.65	245.96	20.24	
2025-01-12 12:55:38.86	246.01	20.25	
2025-01-12 12:55:39.06	246.07	20.27	
2025-01-12 12:55:39.28	246.13	20.28	
2025-01-12 12:55:39.49	246.18	20.29	
2025-01-12 12:55:39.69	246.24	20.30	
2025-01-12 12:55:39.90	246.29	20.32	
2025-01-12 12:55:40.10	246.35	20.33	
2025-01-12 12:55:40.31	246.41	20.34	
2025-01-12 12:55:40.51	246.46	20.35	
2025-01-12 12:55:40.72	246.52	20.36	
2025-01-12 12:55:40.93	246.58	20.38	
2025-01-12 12:55:41.13	246.63	20.39	
2025-01-12 12:55:41.33	246.68	20.40	
2025-01-12 12:55:41.54	246.74	20.41	
2025-01-12 12:55:41.74	246.80	20.42	
2025-01-12 12:55:41.95	246.85	20.43	
2025-01-12 12:55:42.16	246.91	20.45	
2025-01-12 12:55:42.36	246.97	20.46	
2025-01-12 12:55:42.57	247.02	20.47	
2025-01-12 12:55:42.77	247.08	20.48	
2025-01-12 12:55:42.98	247.14	20.49	
2025-01-12 12:55:43.20	247.20	20.51	
2025-01-12 12:55:43.40	247.25	20.52	
2025-01-12 12:55:43.62	247.31	20.53	
2025-01-12 12:55:43.82	247.37	20.54	
2025-01-12 12:55:44.03	247.43	20.55	
2025-01-12 12:55:44.23	247.48	20.56	
2025-01-12 12:55:44.44	247.54	20.58	
2025-01-12 12:55:44.64	247.60	20.59	
2025-01-12 12:55:44.84	247.65	20.60	
2025-01-12 12:55:45.05	247.71	20.61	
2025-01-12 12:55:45.26	247.77	20.62	
2025-01-12 12:55:45.46	247.82	20.63	
2025-01-12 12:55:45.66	247.88	20.64	
2025-01-12 12:55:45.87	247.94	20.66	
2025-01-12 12:55:46.07	247.99	20.67	
2025-01-12 12:55:46.28	248.05	20.68	
2025-01-12 12:55:46.49	248.11	20.69	
2025-01-12 12:55:46.69	248.17	20.70	
2025-01-12 12:55:46.89	248.22	20.71	
2025-01-12 12:55:47.10	248.28	20.72	
2025-01-12 12:55:47.30	248.34	20.73	
2025-01-12 12:55:47.51	248.40	20.75	
2025-01-12 12:55:47.71	248.45	20.76	
2025-01-12 12:55:47.92	248.51	20.77	
2025-01-12 12:55:48.13	248.57	20.78	
2025-01-12 12:55:48.33	248.63	20.79	
2025-01-12 12:55:48.54	248.68	20.80	
2025-01-12 12:55:48.74	248.74	20.81	
2025-01-12 12:55:48.94	248.80	20.82	
2025-01-12 12:55:49.15	248.86	20.83	
2025-01-12 12:55:49.36	248.92	20.85	
2025-01-12 12:55:49.56	248.97	20.86	
2025-01-12 12:55:49.77	249.03	20.87	
2025-01-12 12:55:49.98	249.09	20.88	
2025-01-12 12:55:50.19	249.15	20.89	
2025-01-12 12:55:50.39	249.21	20.90	
2025-01-12 12:55:50.60	249.27	20.91	
2025-01-12 12:55:50.80	249.32	20.92	
2025-01-12 12:55:51.01	249.38	20.93	
2025-01-12 12:55:51.21	249.44	20.94	
2025-01-12 12:55:51.42	249.50	20.95	
2025-01-12 12:55:51.62	249.55	20.97	
2025-01-12 12:55:51.83	249.61	20.98	
2025-01-12 12:55:52.05	249.68	20.99	
2025-01-12 12:55:52.25	249.73	21.00	
2025-01-12 12:55:52.46	249.79	21.01	
2025-01-12 12:55:52.66	249.85	21.02	
2025-01-12 12:55:52.87	249.91	21.03	
2025-01-12 12:55:53.07	249.97	21.04	
2025-01-12 12:55:53.28	250.03	21.05	
2025-01-12 12:55:53.48	250.08	21.06	
2025-01-12 12:55:53.68	250.14	21.07	
2025-01-12 12:55:53.89	250.20	21.08	
2025-01-12 12:55:54.10	250.26	21.09	
2025-01-12 12:55:54.30	250.32	21.10	
2025-01-12 12:55:54.50	250.38	21.11	
2025-01-12 12:55:54.71	250.44	21.12	
2025-01-12 12:55:54.92	250.50	21.13	
2025-01-12 12:55:55.12	250.55	21.14	
2025-01-12 12:55:55.34	250.62	21.16	
2025-01-12 12:55:55.54	250.68	21.17	
2025-01-12 12:55:55.75	250.74	21.18	
2025-01-12 12:55:55.95	250.79	21.19	
2025-01-12 12:55:56.16	250.85	21.20	
2025-01-12 12:55:56.36	250.91	21.21	
2025-01-12 12:55:56.57	250.97	21.22	
2025-01-12 12:55:56.77	251.03	21.23	
2025-01-12 12:55:56.98	251.09	21.24	
2025-01-12 12:55:57.19	251.15	21.25	
2025-01-12 12:55:57.39	251.21	21.26	
2025-01-12 12:55:57.59	251.27	21.27	
2025-01-12 12:55:57.80	251.33	21.28	
2025-01-12 12:55:58.00	251.39	21.29	
2025-01-12 12:55:58.21	251.45	21.30	
2025-01-12 12:55:58.41	251.51	21.31	
2025-01-12 12:55:58.62	251.57	21.32	
2025-01-12 12:55:58.82	251.63	21.33	
2025-01-12 12:55:59.03	251.69	21.34	
2025-01-12 12:55:59.23	251.74	21.35	
2025-01-12 12:55:59.44	251.81	21.36	
2025-01-12 12:55:59.64	251.86	21.37	
2025-01-12 12:55:59.84	251.92	21.38	
2025-01-12 12:56:00.05	251.98	21.39	
2025-01-12 12:56:00.25	252.04	21.39	
2025-01-12 12:56:00.46	252.10	21.40	
2025-01-12 12:56:00.68	252.17	21.41	
2025-01-12 12:56:00.88	252.23	21.42	
2025-01-12 12:56:01.09	252.29	21.43	
2025-01-12 12:56:01.29	252.35	21.44	
2025-01-12 12:56:01.50	252.41	21.45	
2025-01-12 12:56:01.70	252.47	21.46	
2025-01-12 12:56:01.91	252.53	21.47	
2025-01-12 12:56:02.11	252.59	21.48	
2025-01-12 12:56:02.32	252.65	21.49	
2025-01-12 12:56:02.52	252.71	21.50	
2025-01-12 12:56:02.73	252.77	21.51	
2025-01-12 12:56:02.93	252.83	21.52	
2025-01-12 12:56:03.14	252.89	21.53	
2025-01-12 12:56:03.34	252.95	21.54	
2025-01-12 12:56:03.55	253.01	21.55	
2025-01-12 12:56:03.75	253.07	21.56	
2025-01-12 12:56:03.95	253.13	21.56	
2025-01-12 12:56:04.16	253.19	21.57	
2025-01-12 12:56:04.37	253.25	21.58	
2025-01-12 12:56:04.57	253.31	21.59	
2025-01-12 12:56:04.78	253.38	21.60	
2025-01-12 12:56:04.98	253.43	21.61	
2025-01-12 12:56:05.19	253.50	21.62	
2025-01-12 12:56:05.39	253.56	21.63	
2025-01-12 12:56:05.60	253.62	21.64	
2025-01-12 12:56:05.80	253.68	21.65	
2025-01-12 12:56:06.01	253.74	21.66	
2025-01-12 12:56:06.21	253.80	21.66	
2025-01-12 12:56:06.42	253.86	21.67	
2025-01-12 12:56:06.63	253.93	21.68	
2025-01-12 12:56:06.83	253.98	21.69	
2025-01-12 12:56:07.03	254.04	21.70	
2025-01-12 12:56:07.24	254.11	21.71	
2025-01-12 12:56:07.44	254.17	21.72	
2025-01-12 12:56:07.65	254.23	21.73	
2025-01-12 12:56:07.86	254.29	21.73	
2025-01-12 12:56:08.06	254.35	21.74	
2025-01-12 12:56:08.27	254.41	21.75	
2025-01-12 12:56:08.47	254.47	21.76	
2025-01-12 12:56:08.68	254.54	21.77	
2025-01-12 12:56:08.89	254.60	21.78	
2025-01-12 12:56:09.09	254.66	21.79	
2025-01-12 12:56:09.30	254.72	21.79	
2025-01-12 12:56:09.50	254.78	21.80	
2025-01-12 12:56:09.71	254.85	21.81	
2025-01-12 12:56:09.91	254.91	21.82	
2025-01-12 12:56:10.12	254.97	21.83	
2025-01-12 12:56:10.34	255.04	21.84	
2025-01-12 12:56:10.54	255.10	21.85	
2025-01-12 12:56:10.75	255.16	21.85	
2025-01-12 12:56:10.95	255.22	21.86	
2025-01-12 12:56:11.16	255.28	21.87	
2025-01-12 12:56:11.37	255.35	21.88	
2025-01-12 12:56:11.57	255.41	21.89	
2025-01-12 12:56:11.78	255.47	21.89	
2025-01-12 12:56:11.98	255.53	21.90	
2025-01-12 12:56:12.19	255.59	21.91	
2025-01-12 12:56:12.39	255.65	21.92	
2025-01-12 12:56:12.60	255.72	21.93	
2025-01-12 12:56:12.81	255.78	21.94	
2025-01-12 12:56:13.01	255.84	21.94	
2025-01-12 12:56:13.22	255.91	21.95	
2025-01-12 12:56:13.42	255.97	21.96	
2025-01-12 12:56:13.62	256.03	21.97	
2025-01-12 12:56:13.83	256.09	21.97	
2025-01-12 12:56:14.04	256.16	21.98	
2025-01-12 12:56:14.24	256.22	21.99	
2025-01-12 12:56:14.45	256.28	22.00	
2025-01-12 12:56:14.65	256.34	22.01	
2025-01-12 12:56:14.86	256.40	22.01	
2025-01-12 12:56:15.06	256.47	22.02	
2025-01-12 12:56:15.27	256.53	22.03	
2025-01-12 12:56:15.47	256.59	22.04	
2025-01-12 12:56:15.68	256.65	22.04	
2025-01-12 12:56:15.88	256.72	22.05	
2025-01-12 12:56:16.09	256.78	22.06	
2025-01-12 12:56:16.29	256.84	22.07	
2025-01-12 12:56:16.50	256.90	22.07	
2025-01-12 12:56:16.70	256.97	22.08	
2025-01-12 12:56:16.90	257.03	22.09	
2025-01-12 12:56:17.11	257.09	22.09	
2025-01-12 12:56:17.31	257.15	22.10	
2025-01-12 12:56:17.52	257.22	22.11	
2025-01-12 12:56:17.72	257.28	22.12	
2025-01-12 12:56:17.93	257.34	22.12	
2025-01-12 12:56:18.13	257.40	22.13	
2025-01-12 12:56:18.34	257.47	22.14	
2025-01-12 12:56:18.54	257.53	22.15	
2025-01-12 12:56:18.74	257.59	22.15	
2025-01-12 12:56:18.95	257.66	22.16	
2025-01-12 12:56:19.15	257.72	22.17	
2025-01-12 12:56:19.36	257.78	22.17	
2025-01-12 12:56:19.56	257.84	22.18	
2025-01-12 12:56:19.77	257.91	22.19	
2025-01-12 12:56:19.97	257.97	22.19	
2025-01-12 12:56:20.18	258.03	22.20	
2025-01-12 12:56:20.38	258.10	22.21	
2025-01-12 12:56:20.59	258.16	22.21	
2025-01-12 12:56:20.81	258.23	22.22	
2025-01-12 12:56:21.01	258.29	22.23	
2025-01-12 12:56:21.22	258.36	22.23	
2025-01-12 12:56:21.42	258.42	22.24	
2025-01-12 12:56:21.63	258.48	22.25	
2025-01-12 12:56:21.83	258.54	22.25	
2025-01-12 12:56:22.04	258.61	22.26	
2025-01-12 12:56:22.24	258.67	22.27	
2025-01-12 12:56:22.45	258.74	22.27	
2025-01-12 12:56:22.65	258.80	22.28	
2025-01-12 12:56:22.86	258.86	22.29	
2025-01-12 12:56:23.06	258.92	22.29	
2025-01-12 12:56:23.27	258.99	22.30	
2025-01-12 12:56:23.47	259.05	22.31	
2025-01-12 12:56:23.68	259.12	22.31	
2025-01-12 12:56:23.89	259.18	22.32	
2025-01-12 12:56:24.09	259.24	22.32	
2025-01-12 12:56:24.29	259.31	22.33	
2025-01-12 12:56:24.50	259.37	22.34	
2025-01-12 12:56:24.70	259.43	22.34	
2025-01-12 12:56:24.91	259.50	22.35	
2025-01-12 12:56:25.11	259.56	22.36	
2025-01-12 12:56:25.32	259.63	22.36	
2025-01-12 12:56:25.53	259.69	22.37	
2025-01-12 12:56:25.73	259.75	22.37	
2025-01-12 12:56:25.94	259.82	22.38	
2025-01-12 12:56:26.14	259.88	22.38	
2025-01-12 12:56:26.35	259.95	22.39	
2025-01-12 12:56:26.55	260.01	22.40	
2025-01-12 12:56:26.76	260.08	22.40	
2025-01-12 12:56:26.96	260.14	22.41	
2025-01-12 12:56:27.17	260.20	22.41	
2025-01-12 12:56:27.37	260.27	22.42	
2025-01-12 12:56:27.57	260.33	22.42	
2025-01-12 12:56:27.78	260.39	22.43	
2025-01-12 12:56:27.98	260.46	22.44	
2025-01-12 12:56:28.19	260.52	22.44	
2025-01-12 12:56:28.39	260.59	22.45	
2025-01-12 12:56:28.60	260.65	22.45	
2025-01-12 12:56:28.80	260.71	22.46	
2025-01-12 12:56:29.01	260.78	22.46	
2025-01-12 12:56:29.21	260.84	22.47	
2025-01-12 12:56:29.42	260.91	22.47	
2025-01-12 12:56:29.62	260.97	22.48	
2025-01-12 12:56:29.83	261.04	22.48	
2025-01-12 12:56:30.03	261.10	22.49	
2025-01-12 12:56:30.24	261.17	22.50	
2025-01-12 12:56:30.44	261.23	22.50	
2025-01-12 12:56:30.65	261.30	22.51	
2025-01-12 12:56:30.85	261.36	22.51	
2025-01-12 12:56:31.06	261.42	22.52	
2025-01-12 12:56:31.26	261.49	22.52	
2025-01-12 12:56:31.47	261.55	22.53	
2025-01-12 12:56:31.67	261.62	22.53	
2025-01-12 12:56:31.88	261.68	22.54	
2025-01-12 12:56:32.08	261.75	22.54	
2025-01-12 12:56:32.29	261.81	22.55	
2025-01-12 12:56:32.49	261.87	22.55	
2025-01-12 12:56:32.71	261.94	22.56	
2025-01-12 12:56:32.92	262.01	22.56	
2025-01-12 12:56:33.12	262.07	22.56	
2025-01-12 12:56:33.33	262.14	22.57	
2025-01-12 12:56:33.53	262.20	22.57	
2025-01-12 12:56:33.74	262.27	22.58	
2025-01-12 12:56:33.94	262.33	22.58	
2025-01-12 12:56:34.15	262.40	22.59	
2025-01-12 12:56:34.35	262.46	22.59	
2025-01-12 12:56:34.56	262.53	22.60	
2025-01-12 12:56:34.76	262.59	22.60	
2025-01-12 12:56:34.97	262.66	22.61	
2025-01-12 12:56:35.18	262.72	22.61	
2025-01-12 12:56:35.38	262.79	22.61	
2025-01-12 12:56:35.59	262.85	22.62	
2025-01-12 12:56:35.79	262.92	22.62	
2025-01-12 12:56:36.00	262.98	22.63	
2025-01-12 12:56:36.20	263.05	22.63	
2025-01-12 12:56:36.41	263.11	22.64	
2025-01-12 12:56:36.61	263.18	22.64	
2025-01-12 12:56:36.82	263.24	22.64	
2025-01-12 12:56:37.02	263.31	22.65	
2025-01-12 12:56:37.23	263.37	22.65	
2025-01-12 12:56:37.43	263.44	22.66	
2025-01-12 12:56:37.64	263.50	22.66	
2025-01-12 12:56:37.84	263.57	22.66	
2025-01-12 12:56:38.05	263.63	22.67	
2025-01-12 12:56:38.25	263.70	22.67	
2025-01-12 12:56:38.46	263.76	22.67	
2025-01-12 12:56:38.67	263.83	22.68	
2025-01-12 12:56:38.87	263.90	22.68	
2025-01-12 12:56:39.07	263.96	22.69	
2025-01-12 12:56:39.28	264.03	22.69	
2025-01-12 12:56:39.49	264.09	22.69	
2025-01-12 12:56:39.69	264.16	22.70	
2025-01-12 12:56:39.90	264.22	22.70	
2025-01-12 12:56:40.10	264.29	22.70	
2025-01-12 12:56:40.30	264.35	22.71	
2025-01-12 12:56:40.51	264.42	22.71	
2025-01-12 12:56:40.72	264.48	22.71	
2025-01-12 12:56:40.92	264.55	22.72	
2025-01-12 12:56:41.13	264.61	22.72	
2025-01-12 12:56:41.33	264.68	22.72	
2025-01-12 12:56:41.54	264.75	22.73	
2025-01-12 12:56:41.74	264.81	22.73	
2025-01-12 12:56:41.95	264.88	22.73	
2025-01-12 12:56:42.15	264.94	22.74	
2025-01-12 12:56:42.36	265.01	22.74	
2025-01-12 12:56:42.56	265.07	22.74	
2025-01-12 12:56:42.77	265.14	22.75	
2025-01-12 12:56:42.97	265.20	22.75	
2025-01-12 12:56:43.18	265.27	22.75	
2025-01-12 12:56:43.38	265.33	22.75	
2025-01-12 12:56:43.59	265.40	22.76	
2025-01-12 12:56:43.79	265.46	22.76	
2025-01-12 12:56:44.00	265.53	22.76	
2025-01-12 12:56:44.20	265.59	22.77	
2025-01-12 12:56:44.41	265.66	22.77	
2025-01-12 12:56:44.61	265.73	22.77	
2025-01-12 12:56:44.82	265.79	22.77	
2025-01-12 12:56:45.02	265.86	22.78	
2025-01-12 12:56:45.23	265.92	22.78	
2025-01-12 12:56:45.43	265.99	22.78	
2025-01-12 12:56:45.64	266.06	22.78	
2025-01-12 12:56:45.84	266.12	22.79	
2025-01-12 12:56:46.05	266.19	22.79	
2025-01-12 12:56:46.26	266.25	22.79	
2025-01-12 12:56:46.46	266.32	22.79	
2025-01-12 12:56:46.67	266.39	22.80	
2025-01-12 12:56:46.87	266.45	22.80	
2025-01-12 12:56:47.08	266.52	22.80	
2025-01-12 12:56:47.28	266.58	22.80	
2025-01-12 12:56:47.49	266.65	22.81	
2025-01-12 12:56:47.69	266.71	22.81	
2025-01-12 12:56:47.90	266.78	22.81	
2025-01-12 12:56:48.10	266.84	22.81	
2025-01-12 12:56:48.31	266.91	22.81	
2025-01-12 12:56:48.51	266.98	22.82	
2025-01-12 12:56:48.72	267.04	22.82	
2025-01-12 12:56:48.92	267.11	22.82	
2025-01-12 12:56:49.13	267.17	22.82	
2025-01-12 12:56:49.33	267.24	22.82	
2025-01-12 12:56:49.54	267.31	22.83	
2025-01-12 12:56:49.74	267.37	22.83	
2025-01-12 12:56:49.95	267.44	22.83	
2025-01-12 12:56:50.15	267.50	22.83	
2025-01-12 12:56:50.36	267.57	22.83	
2025-01-12 12:56:50.56	267.63	22.83	
2025-01-12 12:56:50.77	267.70	22.84	
2025-01-12 12:56:50.97	267.76	22.84	
2025-01-12 12:56:51.18	267.83	22.84	
2025-01-12 12:56:51.39	267.90	22.84	
2025-01-12 12:56:51.59	267.96	22.84	
2025-01-12 12:56:51.80	268.03	22.84	
2025-01-12 12:56:52.00	268.10	22.84	
2025-01-12 12:56:52.21	268.16	22.85	
2025-01-12 12:56:52.41	268.23	22.85	
2025-01-12 12:56:52.62	268.29	22.85	
2025-01-12 12:56:52.82	268.36	22.85	
2025-01-12 12:56:53.02	268.42	22.85	
2025-01-12 12:56:53.23	268.49	22.85	
2025-01-12 12:56:53.43	268.56	22.85	
2025-01-12 12:56:53.64	268.62	22.85	
2025-01-12 12:56:53.85	268.69	22.85	
2025-01-12 12:56:54.06	268.76	22.86	
2025-01-12 12:56:54.27	268.83	22.86	
2025-01-12 12:56:54.48	268.89	22.86	
2025-01-12 12:56:54.68	268.96	22.86	
2025-01-12 12:56:54.89	269.02	22.86	
2025-01-12 12:56:55.09	269.09	22.86	
2025-01-12 12:56:55.29	269.15	22.86	
2025-01-12 12:56:55.50	269.22	22.86	
2025-01-12 12:56:55.71	269.29	22.86	
2025-01-12 12:56:55.91	269.35	22.86	
2025-01-12 12:56:56.11	269.42	22.86	
2025-01-12 12:56:56.32	269.48	22.86	
2025-01-12 12:56:56.53	269.55	22.86	
2025-01-12 12:56:56.73	269.62	22.87	
2025-01-12 12:56:56.93	269.68	22.87	
2025-01-12 12:56:57.14	269.75	22.87	
2025-01-12 12:56:57.34	269.81	22.87	
2025-01-12 12:56:57.55	269.88	22.87	
2025-01-12 12:56:57.75	269.94	22.87	
2025-01-12 12:56:57.96	270.01	22.87	
2025-01-12 12:56:58.16	270.08	22.87	
2025-01-12 12:56:58.37	270.14	22.87	
2025-01-12 12:56:58.57	270.21	22.87	
2025-01-12 12:56:58.78	270.28	22.87	
2025-01-12 12:56:58.98	270.34	22.87	
2025-01-12 12:56:59.19	270.41	22.87	
2025-01-12 12:56:59.39	270.47	22.87	
2025-01-12 12:56:59.60	270.54	22.87	
2025-01-12 12:56:59.80	270.60	22.87	
2025-01-12 12:57:00.01	270.67	22.87	
2025-01-12 12:57:00.22	270.74	22.87	
2025-01-12 12:57:00.43	270.81	22.87	
2025-01-12 12:57:00.64	270.87	22.87	
2025-01-12 12:57:00.84	270.94	22.87	
2025-01-12 12:57:01.05	271.01	22.87	
2025-01-12 12:57:01.25	271.07	22.87	
2025-01-12 12:57:01.46	271.14	22.87	
2025-01-12 12:57:01.66	271.20	22.87	
2025-01-12 12:57:01.87	271.27	22.87	
2025-01-12 12:57:02.07	271.33	22.87	
2025-01-12 12:57:02.27	271.40	22.86	
2025-01-12 12:57:02.48	271.47	22.86	
2025-01-12 12:57:02.68	271.53	22.86	
2025-01-12 12:57:02.89	271.60	22.86	
2025-01-12 12:57:03.09	271.66	22.86	
2025-01-12 12:57:03.30	271.73	22.86	
2025-01-12 12:57:03.50	271.79	22.86	
2025-01-12 12:57:03.70	271.86	22.86	
2025-01-12 12:57:03.91	271.93	22.86	
2025-01-12 12:57:04.12	271.99	22.86	
2025-01-12 12:57:04.32	272.06	22.86	
2025-01-12 12:57:04.53	272.13	22.86	
2025-01-12 12:57:04.73	272.19	22.86	
2025-01-12 12:57:04.93	272.25	22.85	
2025-01-12 12:57:05.14	272.32	22.85	
2025-01-12 12:57:05.34	272.39	22.85	
2025-01-12 12:57:05.55	272.45	22.85	
2025-01-12 12:57:05.75	272.52	22.85	
2025-01-12 12:57:05.96	272.59	22.85	
2025-01-12 12:57:06.16	272.65	22.85	
2025-01-12 12:57:06.37	272.72	22.85	
2025-01-12 12:57:06.57	272.78	22.85	
2025-01-12 12:57:06.78	272.85	22.84	
2025-01-12 12:57:06.98	272.91	22.84	
2025-01-12 12:57:07.18	272.98	22.84	
2025-01-12 12:57:07.39	273.04	22.84	
2025-01-12 12:57:07.60	273.11	22.84	
2025-01-12 12:57:07.80	273.18	22.84	
2025-01-12 12:57:08.00	273.24	22.84	
2025-01-12 12:57:08.21	273.31	22.83	
2025-01-12 12:57:08.42	273.37	22.83	
2025-01-12 12:57:08.62	273.44	22.83	
2025-01-12 12:57:08.83	273.51	22.83	
2025-01-12 12:57:09.03	273.57	22.83	
2025-01-12 12:57:09.24	273.64	22.83	
2025-01-12 12:57:09.44	273.70	22.82	
2025-01-12 12:57:09.65	273.77	22.82	
2025-01-12 12:57:09.85	273.83	22.82	
2025-01-12 12:57:10.05	273.90	22.82	
2025-01-12 12:57:10.26	273.97	22.82	
2025-01-12 12:57:10.46	274.03	22.81	
2025-01-12 12:57:10.67	274.10	22.81	
2025-01-12 12:57:10.88	274.16	22.81	
2025-01-12 12:57:11.08	274.23	22.81	
2025-01-12 12:57:11.28	274.29	22.81	
2025-01-12 12:57:11.49	274.36	22.80	
2025-01-12 12:57:11.69	274.42	22.80	
2025-01-12 12:57:11.90	274.49	22.80	
2025-01-12 12:57:12.10	274.55	22.80	
2025-01-12 12:57:12.31	274.62	22.79	
2025-01-12 12:57:12.52	274.69	22.79	
2025-01-12 12:57:12.72	274.75	22.79	
2025-01-12 12:57:12.93	274.82	22.79	
2025-01-12 12:57:13.13	274.88	22.78	
2025-01-12 12:57:13.34	274.95	22.78	
2025-01-12 12:57:13.54	275.02	22.78	
2025-01-12 12:57:13.75	275.08	22.78	
2025-01-12 12:57:13.96	275.15	22.77	
2025-01-12 12:57:14.16	275.21	22.77	
2025-01-12 12:57:14.36	275.28	22.77	
2025-01-12 12:57:14.57	275.34	22.77	
2025-01-12 12:57:14.78	275.41	22.76	
2025-01-12 12:57:14.98	275.48	22.76	
2025-01-12 12:57:15.19	275.54	22.76	
2025-01-12 12:57:15.39	275.61	22.75	
2025-01-12 12:57:15.59	275.67	22.75	
2025-01-12 12:57:15.80	275.74	22.75	
2025-01-12 12:57:16.01	275.80	22.75	
2025-01-12 12:57:16.21	275.87	22.74	
2025-01-12 12:57:16.42	275.93	22.74	
2025-01-12 12:57:16.62	276.00	22.74	
2025-01-12 12:57:16.83	276.07	22.73	
2025-01-12 12:57:17.03	276.13	22.73	
2025-01-12 12:57:17.24	276.20	22.73	
2025-01-12 12:57:17.44	276.26	22.72	
2025-01-12 12:57:17.66	276.33	22.72	
2025-01-12 12:57:17.87	276.40	22.72	
2025-01-12 12:57:18.07	276.46	22.71	
2025-01-12 12:57:18.28	276.53	22.71	
2025-01-12 12:57:18.48	276.59	22.71	
2025-01-12 12:57:18.68	276.65	22.70	
2025-01-12 12:57:18.89	276.72	22.70	
2025-01-12 12:57:19.10	276.79	22.70	
2025-01-12 12:57:19.30	276.85	22.69	
2025-01-12 12:57:19.50	276.92	22.69	
2025-01-12 12:57:19.71	276.98	22.69	
2025-01-12 12:57:19.91	277.05	22.68	
2025-01-12 12:57:20.12	277.11	22.68	
2025-01-12 12:57:20.32	277.18	22.67	
2025-01-12 12:57:20.53	277.24	22.67	
2025-01-12 12:57:20.73	277.31	22.67	
2025-01-12 12:57:20.94	277.37	22.66	
2025-01-12 12:57:21.14	277.44	22.66	
2025-01-12 12:57:21.34	277.50	22.66	
2025-01-12 12:57:21.55	277.57	22.65	
2025-01-12 12:57:21.77	277.64	22.65	
2025-01-12 12:57:21.97	277.70	22.64	
2025-01-12 12:57:22.18	277.77	22.64	
2025-01-12 12:57:22.38	277.83	22.63	
2025-01-12 12:57:22.59	277.90	22.63	
2025-01-12 12:57:22.80	277.96	22.63	
2025-01-12 12:57:23.00	278.02	22.62	
2025-01-12 12:57:23.21	278.09	22.62	
2025-01-12 12:57:23.41	278.15	22.61	
2025-01-12 12:57:23.62	278.22	22.61	
2025-01-12 12:57:23.82	278.28	22.61	
2025-01-12 12:57:24.03	278.35	22.60	
2025-01-12 12:57:24.23	278.41	22.60	
2025-01-12 12:57:24.44	278.48	22.59	
2025-01-12 12:57:24.64	278.54	22.59	
2025-01-12 12:57:24.85	278.61	22.58	
2025-01-12 12:57:25.05	278.67	22.58	
2025-01-12 12:57:25.26	278.74	22.57	
2025-01-12 12:57:25.46	278.80	22.57	
2025-01-12 12:57:25.67	278.87	22.56	
2025-01-12 12:57:25.87	278.93	22.56	
2025-01-12 12:57:26.08	279.00	22.55	
2025-01-12 12:57:26.28	279.06	22.55	
2025-01-12 12:57:26.49	279.13	22.55	
2025-01-12 12:57:26.70	279.19	22.54	
2025-01-12 12:57:26.90	279.26	22.54	
2025-01-12 12:57:27.10	279.32	22.53	
2025-01-12 12:57:27.31	279.38	22.53	
2025-01-12 12:57:27.51	279.45	22.52	
2025-01-12 12:57:27.72	279.51	22.52	
2025-01-12 12:57:27.92	279.58	22.51	
2025-01-12 12:57:28.13	279.64	22.51	
2025-01-12 12:57:28.35	279.71	22.50	
2025-01-12 12:57:28.55	279.77	22.50	
2025-01-12 12:57:28.76	279.84	22.49	
2025-01-12 12:57:28.96	279.90	22.48	
2025-01-12 12:57:29.17	279.97	22.48	
2025-01-12 12:57:29.38	280.03	22.47	
2025-01-12 12:57:29.59	280.10	22.47	
2025-01-12 12:57:29.79	280.16	22.46	
2025-01-12 12:57:30.00	280.23	22.46	
2025-01-12 12:57:30.20	280.29	22.45	
2025-01-12 12:57:30.41	280.36	22.45	
2025-01-12 12:57:30.61	280.42	22.44	
2025-01-12 12:57:30.82	280.48	22.44	
2025-01-12 12:57:31.02	280.55	22.43	
2025-01-12 12:57:31.23	280.61	22.42	
2025-01-12 12:57:31.43	280.67	22.42	
2025-01-12 12:57:31.64	280.74	22.41	
2025-01-12 12:57:31.84	280.80	22.41	
2025-01-12 12:57:32.05	280.87	22.40	
2025-01-12 12:57:32.25	280.93	22.40	
2025-01-12 12:57:32.46	281.00	22.39	
2025-01-12 12:57:32.67	281.06	22.38	
2025-01-12 12:57:32.87	281.12	22.38	
2025-01-12 12:57:33.08	281.19	22.37	
2025-01-12 12:57:33.28	281.25	22.37	
2025-01-12 12:57:33.49	281.32	22.36	
2025-01-12 12:57:33.69	281.38	22.35	
2025-01-12 12:57:33.89	281.44	22.35	
2025-01-12 12:57:34.10	281.51	22.34	
2025-01-12 12:57:34.31	281.57	22.34	
2025-01-12 12:57:34.51	281.63	22.33	
2025-01-12 12:57:34.72	281.70	22.32	
2025-01-12 12:57:34.92	281.76	22.32	
2025-01-12 12:57:35.13	281.82	22.31	
2025-01-12 12:57:35.33	281.89	22.31	
2025-01-12 12:57:35.54	281.95	22.30	
2025-01-12 12:57:35.76	282.02	22.29	
2025-01-12 12:57:35.96	282.08	22.29	
2025-01-12 12:57:36.17	282.15	22.28	
2025-01-12 12:57:36.37	282.21	22.27	
2025-01-12 12:57:36.58	282.27	22.27	
2025-01-12 12:57:36.78	282.34	22.26	
2025-01-12 12:57:36.99	282.40	22.25	
2025-01-12 12:57:37.19	282.46	22.25	
2025-01-12 12:57:37.40	282.53	22.24	
2025-01-12 12:57:37.61	282.59	22.23	
2025-01-12 12:57:37.82	282.66	22.23	
2025-01-12 12:57:38.03	282.72	22.22	
2025-01-12 12:57:38.23	282.78	22.21	
2025-01-12 12:57:38.44	282.85	22.21	
2025-01-12 12:57:38.64	282.91	22.20	
2025-01-12 12:57:38.85	282.97	22.19	
2025-01-12 12:57:39.06	283.04	22.19	
2025-01-12 12:57:39.26	283.10	22.18	
2025-01-12 12:57:39.47	283.16	22.17	
2025-01-12 12:57:39.67	283.22	22.17	
2025-01-12 12:57:39.88	283.29	22.16	
2025-01-12 12:57:40.08	283.35	22.15	
2025-01-12 12:57:40.28	283.41	22.14	
2025-01-12 12:57:40.49	283.48	22.14	
2025-01-12 12:57:40.70	283.54	22.13	
2025-01-12 12:57:40.90	283.60	22.12	
2025-01-12 12:57:41.11	283.67	22.12	
2025-01-12 12:57:41.31	283.73	22.11	
2025-01-12 12:57:41.52	283.79	22.10	
2025-01-12 12:57:41.72	283.85	22.09	
2025-01-12 12:57:41.93	283.92	22.09	
2025-01-12 12:57:42.13	283.98	22.08	
2025-01-12 12:57:42.34	284.04	22.07	
2025-01-12 12:57:42.54	284.10	22.06	
2025-01-12 12:57:42.75	284.17	22.06	
2025-01-12 12:57:42.95	284.23	22.05	
2025-01-12 12:57:43.16	284.29	22.04	
2025-01-12 12:57:43.36	284.35	22.04	
2025-01-12 12:57:43.57	284.42	22.03	
2025-01-12 12:57:43.78	284.48	22.02	
2025-01-12 12:57:43.98	284.54	22.01	
2025-01-12 12:57:44.19	284.60	22.00	
2025-01-12 12:57:44.39	284.66	22.00	
2025-01-12 12:57:44.60	284.73	21.99	
2025-01-12 12:57:44.80	284.79	21.98	
2025-01-12 12:57:45.01	284.85	21.97	
2025-01-12 12:57:45.21	284.91	21.97	
2025-01-12 12:57:45.41	284.97	21.96	
2025-01-12 12:57:45.62	285.04	21.95	
2025-01-12 12:57:45.82	285.10	21.94	
2025-01-12 12:57:46.03	285.16	21.93	
2025-01-12 12:57:46.24	285.22	21.93	
2025-01-12 12:57:46.44	285.28	21.92	
2025-01-12 12:57:46.65	285.35	21.91	
2025-01-12 12:57:46.85	285.41	21.90	
2025-01-12 12:57:47.06	285.47	21.89	
2025-01-12 12:57:47.26	285.53	21.89	
2025-01-12 12:57:47.46	285.59	21.88	
2025-01-12 12:57:47.67	285.66	21.87	
2025-01-12 12:57:47.87	285.72	21.86	
2025-01-12 12:57:48.08	285.78	21.85	
2025-01-12 12:57:48.28	285.84	21.85	
2025-01-12 12:57:48.49	285.90	21.84	
2025-01-12 12:57:48.69	285.96	21.83	
2025-01-12 12:57:48.90	286.02	21.82	
2025-01-12 12:57:49.10	286.08	21.81	
2025-01-12 12:57:49.31	286.15	21.80	
2025-01-12 12:57:49.51	286.21	21.80	
2025-01-12 12:57:49.73	286.27	21.79	
2025-01-12 12:57:49.93	286.33	21.78	
2025-01-12 12:57:50.14	286.40	21.77	
2025-01-12 12:57:50.35	286.46	21.76	
2025-01-12 12:57:50.55	286.52	21.75	
2025-01-12 12:57:50.76	286.58	21.74	
2025-01-12 12:57:50.96	286.64	21.74	
2025-01-12 12:57:51.17	286.70	21.73	
2025-01-12 12:57:51.37	286.76	21.72	
2025-01-12 12:57:51.58	286.82	21.71	
2025-01-12 12:57:51.80	286.89	21.70	
2025-01-12 12:57:52.00	286.95	21.69	
2025-01-12 12:57:52.21	287.01	21.68	
2025-01-12 12:57:52.42	287.07	21.67	
2025-01-12 12:57:52.62	287.13	21.66	
2025-01-12 12:57:52.83	287.20	21.66	
2025-01-12 12:57:53.03	287.26	21.65	
2025-01-12 12:57:53.24	287.32	21.64	
2025-01-12 12:57:53.44	287.38	21.63	
2025-01-12 12:57:53.65	287.44	21.62	
2025-01-12 12:57:53.85	287.50	21.61	
2025-01-12 12:57:54.06	287.56	21.60	
2025-01-12 12:57:54.26	287.62	21.59	
2025-01-12 12:57:54.47	287.68	21.58	
2025-01-12 12:57:54.67	287.74	21.58	
2025-01-12 12:57:54.88	287.80	21.57	
2025-01-12 12:57:55.08	287.86	21.56	
2025-01-12 12:57:55.29	287.92	21.55	
2025-01-12 12:57:55.49	287.98	21.54	
2025-01-12 12:57:55.70	288.04	21.53	
2025-01-12 12:57:55.90	288.10	21.52	
2025-01-12 12:57:56.12	288.17	21.51	
2025-01-12 12:57:56.33	288.23	21.50	
2025-01-12 12:57:56.53	288.29	21.49	
2025-01-12 12:57:56.74	288.35	21.48	
2025-01-12 12:57:56.94	288.41	21.47	
2025-01-12 12:57:57.15	288.47	21.46	
2025-01-12 12:57:57.35	288.53	21.45	
2025-01-12 12:57:57.56	288.59	21.44	
2025-01-12 12:57:57.76	288.65	21.43	
2025-01-12 12:57:57.97	288.71	21.42	
2025-01-12 12:57:58.17	288.77	21.42	
2025-01-12 12:57:58.38	288.83	21.41	
2025-01-12 12:57:58.58	288.89	21.40	
2025-01-12 12:57:58.79	288.95	21.39	
2025-01-12 12:57:58.99	289.01	21.38	
2025-01-12 12:57:59.20	289.07	21.37	
2025-01-12 12:57:59.40	289.12	21.36	
2025-01-12 12:57:59.61	289.19	21.35	
2025-01-12 12:57:59.81	289.24	21.34	
2025-01-12 12:58:00.02	289.30	21.33	
2025-01-12 12:58:00.22	289.36	21.32	
2025-01-12 12:58:00.42	289.42	21.31	
2025-01-12 12:58:00.63	289.48	21.30	
2025-01-12 12:58:00.83	289.54	21.29	
2025-01-12 12:58:01.04	289.60	21.28	
2025-01-12 12:58:01.24	289.66	21.27	
2025-01-12 12:58:01.45	289.72	21.26	
2025-01-12 12:58:01.65	289.78	21.25	
2025-01-12 12:58:01.86	289.84	21.24	
2025-01-12 12:58:02.06	289.89	21.23	
2025-01-12 12:58:02.27	289.95	21.22	
2025-01-12 12:58:02.47	290.01	21.21	
2025-01-12 12:58:02.68	290.07	21.20	
2025-01-12 12:58:02.88	290.13	21.19	
2025-01-12 12:58:03.09	290.19	21.18	
2025-01-12 12:58:03.30	290.25	21.17	
2025-01-12 12:58:03.50	290.31	21.16	
2025-01-12 12:58:03.71	290.37	21.15	
2025-01-12 12:58:03.91	290.43	21.14	
2025-01-12 12:58:04.12	290.49	21.13	
2025-01-12 12:58:04.32	290.54	21.12	
2025-01-12 12:58:04.53	290.60	21.11	
2025-01-12 12:58:04.73	290.66	21.10	
2025-01-12 12:58:04.93	290.72	21.09	
2025-01-12 12:58:05.14	290.78	21.08	
2025-01-12 12:58:05.34	290.83	21.06	
2025-01-12 12:58:05.55	290.89	21.05	
2025-01-12 12:58:05.75	290.95	21.04	
2025-01-12 12:58:05.96	291.01	21.03	
2025-01-12 12:58:06.16	291.07	21.02	
2025-01-12 12:58:06.37	291.13	21.01	
2025-01-12 12:58:06.58	291.19	21.00	
2025-01-12 12:58:06.79	291.25	20.99	
2025-01-12 12:58:07.00	291.31	20.98	
2025-01-12 12:58:07.20	291.36	20.97	
2025-01-12 12:58:07.41	291.42	20.96	
2025-01-12 12:58:07.61	291.48	20.95	
2025-01-12 12:58:07.82	291.54	20.94	
2025-01-12 12:58:08.03	291.60	20.93	
2025-01-12 12:58:08.23	291.65	20.92	
2025-01-12 12:58:08.44	291.71	20.90	
2025-01-12 12:58:08.64	291.77	20.89	
2025-01-12 12:58:08.85	291.83	20.88	
2025-01-12 12:58:09.05	291.88	20.87	
2025-01-12 12:58:09.26	291.94	20.86	
2025-01-12 12:58:09.46	292.00	20.85	
2025-01-12 12:58:09.67	292.06	20.84	
2025-01-12 12:58:09.87	292.11	20.83	
2025-01-12 12:58:10.08	292.17	20.82	
2025-01-12 12:58:10.28	292.23	20.81	
2025-01-12 12:58:10.49	292.29	20.79	
2025-01-12 12:58:10.69	292.34	20.78	
2025-01-12 12:58:10.90	292.40	20.77	
2025-01-12 12:58:11.10	292.46	20.76	
2025-01-12 12:58:11.31	292.52	20.75	
2025-01-12 12:58:11.51	292.57	20.74	
2025-01-12 12:58:11.72	292.63	20.73	
2025-01-12 12:58:11.92	292.69	20.72	
2025-01-12 12:58:12.13	292.75	20.71	
2025-01-12 12:58:12.33	292.80	20.70	
2025-01-12 12:58:12.54	292.86	20.68	
2025-01-12 12:58:12.74	292.92	20.67	
2025-01-12 12:58:12.95	292.97	20.66	
2025-01-12 12:58:13.15	293.03	20.65	
2025-01-12 12:58:13.36	293.09	20.64	
2025-01-12 12:58:13.56	293.14	20.63	
2025-01-12 12:58:13.77	293.20	20.62	
2025-01-12 12:58:13.97	293.26	20.60	
2025-01-12 12:58:14.18	293.31	20.59	
2025-01-12 12:58:14.38	293.37	20.58	
2025-01-12 12:58:14.59	293.43	20.57	
2025-01-12 12:58:14.80	293.48	20.56	
2025-01-12 12:58:15.00	293.54	20.55	
2025-01-12 12:58:15.20	293.59	20.54	
2025-01-12 12:58:15.41	293.65	20.52	
2025-01-12 12:58:15.61	293.71	20.51	
2025-01-12 12:58:15.82	293.77	20.50	
2025-01-12 12:58:16.03	293.82	20.49	
2025-01-12 12:58:16.23	293.88	20.48	
2025-01-12 12:58:16.43	293.93	20.47	
2025-01-12 12:58:16.64	293.99	20.45	
2025-01-12 12:58:16.85	294.05	20.44	
2025-01-12 12:58:17.05	294.10	20.43	
2025-01-12 12:58:17.26	294.16	20.42	
2025-01-12 12:58:17.47	294.22	20.41	
2025-01-12 12:58:17.68	294.27	20.39	
2025-01-12 12:58:17.89	294.33	20.38	
2025-01-12 12:58:18.09	294.38	20.37	
2025-01-12 12:58:18.30	294.44	20.36	
2025-01-12 12:58:18.50	294.50	20.35	
2025-01-12 12:58:18.71	294.55	20.34	
2025-01-12 12:58:18.92	294.61	20.32	
2025-01-12 12:58:19.12	294.66	20.31	
2025-01-12 12:58:19.33	294.72	20.30	
2025-01-12 12:58:19.53	294.78	20.29	
2025-01-12 12:58:19.74	294.83	20.28	
2025-01-12 12:58:19.94	294.89	20.26	
2025-01-12 12:58:20.15	294.94	20.25	
2025-01-12 12:58:20.35	295.00	20.24	
2025-01-12 12:58:20.56	295.05	20.23	
2025-01-12 12:58:20.76	295.11	20.22	
2025-01-12 12:58:20.97	295.16	20.20	
2025-01-12 12:58:21.17	295.22	20.19	
2025-01-12 12:58:21.38	295.27	20.18	
2025-01-12 12:58:21.59	295.33	20.17	
2025-01-12 12:58:21.79	295.38	20.15	
2025-01-12 12:58:21.99	295.44	20.14	
2025-01-12 12:58:22.20	295.49	20.13	
2025-01-12 12:58:22.41	295.55	20.12	
2025-01-12 12:58:22.61	295.60	20.11	
2025-01-12 12:58:22.82	295.66	20.09	
2025-01-12 12:58:23.02	295.71	20.08	
2025-01-12 12:58:23.23	295.77	20.07	
2025-01-12 12:58:23.43	295.82	20.06	
2025-01-12 12:58:23.64	295.88	20.04	
2025-01-12 12:58:23.84	295.93	20.03	
2025-01-12 12:58:24.05	295.99	20.02	
2025-01-12 12:58:24.25	296.04	20.01	
2025-01-12 12:58:24.46	296.10	19.99	
2025-01-12 12:58:24.66	296.15	19.98	
2025-01-12 12:58:24.86	296.20	19.97	
2025-01-12 12:58:25.07	296.26	19.96	
2025-01-12 12:58:25.28	296.31	19.95	
2025-01-12 12:58:25.48	296.37	19.93	
2025-01-12 12:58:25.69	296.42	19.92	
2025-01-12 12:58:25.89	296.47	19.91	
2025-01-12 12:58:26.09	296.53	19.90	
2025-01-12 12:58:26.30	296.58	19.88	
2025-01-12 12:58:26.50	296.63	19.87	
2025-01-12 12:58:26.71	296.69	19.86	
2025-01-12 12:58:26.91	296.74	19.85	
2025-01-12 12:58:27.13	296.80	19.83	
2025-01-12 12:58:27.33	296.85	19.82	
2025-01-12 12:58:27.54	296.91	19.81	
2025-01-12 12:58:27.75	296.96	19.79	
2025-01-12 12:58:27.95	297.01	19.78	
2025-01-12 12:58:28.15	297.07	19.77	
2025-01-12 12:58:28.36	297.12	19.76	
2025-01-12 12:58:28.57	297.18	19.74	
2025-01-12 12:58:28.77	297.23	19.73	
2025-01-12 12:58:28.97	297.28	19.72	
2025-01-12 12:58:29.18	297.33	19.70	
2025-01-12 12:58:29.38	297.39	19.69	
2025-01-12 12:58:29.59	297.44	19.68	
2025-01-12 12:58:29.79	297.49	19.67	
2025-01-12 12:58:30.00	297.55	19.65	
2025-01-12 12:58:30.20	297.60	19.64	
2025-01-12 12:58:30.41	297.65	19.63	
2025-01-12 12:58:30.61	297.70	19.62	
2025-01-12 12:58:30.82	297.76	19.60	
2025-01-12 12:58:31.03	297.81	19.59	
2025-01-12 12:58:31.23	297.86	19.58	
2025-01-12 12:58:31.43	297.92	19.56	
2025-01-12 12:58:31.64	297.97	19.55	
2025-01-12 12:58:31.84	298.02	19.54	
2025-01-12 12:58:32.05	298.08	19.52	
2025-01-12 12:58:32.25	298.13	19.51	
2025-01-12 12:58:32.46	298.18	19.50	
2025-01-12 12:58:32.66	298.23	19.49	
2025-01-12 12:58:32.87	298.29	19.47	
2025-01-12 12:58:33.07	298.34	19.46	
2025-01-12 12:58:33.28	298.39	19.45	
2025-01-12 12:58:33.48	298.44	19.43	
2025-01-12 12:58:33.69	298.50	19.42	
2025-01-12 12:58:33.89	298.55	19.41	
2025-01-12 12:58:34.10	298.60	19.39	
2025-01-12 12:58:34.30	298.65	19.38	
2025-01-12 12:58:34.52	298.71	19.37	
2025-01-12 12:58:34.72	298.76	19.35	
2025-01-12 12:58:34.93	298.81	19.34	
2025-01-12 12:58:35.13	298.86	19.33	
2025-01-12 12:58:35.34	298.91	19.31	
2025-01-12 12:58:35.54	298.96	19.30	
2025-01-12 12:58:35.75	299.02	19.29	
2025-01-12 12:58:35.95	299.07	19.27	
2025-01-12 12:58:36.16	299.12	19.26	
2025-01-12 12:58:36.36	299.17	19.25	
2025-01-12 12:58:36.56	299.22	19.23	
2025-01-12 12:58:36.77	299.28	19.22	
2025-01-12 12:58:36.98	299.33	19.21	
2025-01-12 12:58:37.18	299.38	19.19	
2025-01-12 12:58:37.39	299.43	19.18	
2025-01-12 12:58:37.59	299.48	19.17	
2025-01-12 12:58:37.80	299.53	19.15	
2025-01-12 12:58:38.00	299.58	19.14	
2025-01-12 12:58:38.21	299.64	19.13	
2025-01-12 12:58:38.42	299.69	19.11	
2025-01-12 12:58:38.62	299.74	19.10	
2025-01-12 12:58:38.84	299.79	19.09	
2025-01-12 12:58:39.05	299.85	19.07	
2025-01-12 12:58:39.25	299.90	19.06	
2025-01-12 12:58:39.46	299.95	19.04	
2025-01-12 12:58:39.66	300.00	19.03	
2025-01-12 12:58:39.88	300.05	19.02	
2025-01-12 12:58:40.09	300.10	19.00	
2025-01-12 12:58:40.29	300.15	18.99	
2025-01-12 12:58:40.50	300.21	18.98	
2025-01-12 12:58:40.70	300.25	18.96	
2025-01-12 12:58:40.91	300.31	18.95	
2025-01-12 12:58:41.11	300.36	18.94	
2025-01-12 12:58:41.32	300.41	18.92	
2025-01-12 12:58:41.53	300.46	18.91	
2025-01-12 12:58:41.73	300.51	18.89	
2025-01-12 12:58:41.94	300.56	18.88	
2025-01-12 12:58:42.14	300.61	18.87	
2025-01-12 12:58:42.35	300.66	18.85	
2025-01-12 12:58:42.55	300.71	18.84	
2025-01-12 12:58:42.76	300.76	18.83	
2025-01-12 12:58:42.96	300.81	18.81	
2025-01-12 12:58:43.16	300.86	18.80	
2025-01-12 12:58:43.37	300.91	18.78	
2025-01-12 12:58:43.58	300.96	18.77	
2025-01-12 12:58:43.78	301.01	18.76	
2025-01-12 12:58:43.99	301.06	18.74	
2025-01-12 12:58:44.19	301.11	18.73	
2025-01-12 12:58:44.39	301.16	18.72	
2025-01-12 12:58:44.60	301.21	18.70	
2025-01-12 12:58:44.81	301.26	18.69	
2025-01-12 12:58:45.01	301.31	18.67	
2025-01-12 12:58:45.23	301.36	18.66	
2025-01-12 12:58:45.44	301.41	18.65	
2025-01-12 12:58:45.64	301.46	18.63	
2025-01-12 12:58:45.85	301.51	18.62	
2025-01-12 12:58:46.05	301.56	18.60	
2025-01-12 12:58:46.26	301.61	18.59	
2025-01-12 12:58:46.46	301.66	18.58	
2025-01-12 12:58:46.67	301.71	18.56	
2025-01-12 12:58:46.87	301.76	18.55	
2025-01-12 12:58:47.08	301.81	18.53	
2025-01-12 12:58:47.28	301.86	18.52	
2025-01-12 12:58:47.49	301.91	18.51	
2025-01-12 12:58:47.70	301.96	18.49	
2025-01-12 12:58:47.90	302.01	18.48	
2025-01-12 12:58:48.11	302.06	18.46	
2025-01-12 12:58:48.31	302.10	18.45	
2025-01-12 12:58:48.52	302.15	18.44	
2025-01-12 12:58:48.73	302.20	18.42	
2025-01-12 12:58:48.93	302.25	18.41	
2025-01-12 12:58:49.14	302.30	18.39	
2025-01-12 12:58:49.34	302.35	18.38	
2025-01-12 12:58:49.55	302.40	18.36	
2025-01-12 12:58:49.75	302.45	18.35	
2025-01-12 12:58:49.96	302.50	18.34	
2025-01-12 12:58:50.16	302.54	18.32	
2025-01-12 12:58:50.37	302.59	18.31	
2025-01-12 12:58:50.59	302.64	18.29	
2025-01-12 12:58:50.79	302.69	18.28	
2025-01-12 12:58:51.00	302.74	18.26	
2025-01-12 12:58:51.20	302.79	18.25	
2025-01-12 12:58:51.41	302.84	18.24	
2025-01-12 12:58:51.61	302.88	18.22	
2025-01-12 12:58:51.82	302.93	18.21	
2025-01-12 12:58:52.02	302.98	18.19	
2025-01-12 12:58:52.23	303.03	18.18	
2025-01-12 12:58:52.43	303.08	18.17	
2025-01-12 12:58:52.64	303.13	18.15	
2025-01-12 12:58:52.84	303.17	18.14	
2025-01-12 12:58:53.05	303.22	18.12	
2025-01-12 12:58:53.25	303.27	18.11	
2025-01-12 12:58:53.46	303.32	18.09	
2025-01-12 12:58:53.66	303.36	18.08	
2025-01-12 12:58:53.87	303.41	18.07	
2025-01-12 12:58:54.07	303.46	18.05	
2025-01-12 12:58:54.28	303.51	18.04	
2025-01-12 12:58:54.48	303.55	18.02	
2025-01-12 12:58:54.69	303.60	18.01	
2025-01-12 12:58:54.89	303.65	17.99	
2025-01-12 12:58:55.10	303.70	17.98	
2025-01-12 12:58:55.30	303.74	17.97	
2025-01-12 12:58:55.51	303.79	17.95	
2025-01-12 12:58:55.72	303.84	17.94	
2025-01-12 12:58:55.92	303.89	17.92	
2025-01-12 12:58:56.12	303.93	17.91	
2025-01-12 12:58:56.33	303.98	17.89	
2025-01-12 12:58:56.53	304.03	17.88	
2025-01-12 12:58:56.74	304.08	17.86	
2025-01-12 12:58:56.96	304.13	17.85	
2025-01-12 12:58:57.16	304.17	17.83	
2025-01-12 12:58:57.37	304.22	17.82	
2025-01-12 12:58:57.58	304.27	17.81	
2025-01-12 12:58:57.78	304.31	17.79	
2025-01-12 12:58:58.00	304.36	17.78	
2025-01-12 12:58:58.20	304.41	17.76	
2025-01-12 12:58:58.41	304.46	17.75	
2025-01-12 12:58:58.62	304.50	17.73	
2025-01-12 12:58:58.82	304.55	17.72	
2025-01-12 12:58:59.03	304.60	17.70	
2025-01-12 12:58:59.23	304.64	17.69	
2025-01-12 12:58:59.44	304.69	17.67	
2025-01-12 12:58:59.64	304.74	17.66	
2025-01-12 12:58:59.85	304.78	17.64	
2025-01-12 12:59:00.05	304.83	17.63	
2025-01-12 12:59:00.26	304.88	17.62	
2025-01-12 12:59:00.46	304.92	17.60	
2025-01-12 12:59:00.67	304.97	17.59	
2025-01-12 12:59:00.87	305.01	17.57	
2025-01-12 12:59:01.08	305.06	17.56	
2025-01-12 12:59:01.28	305.10	17.54	
2025-01-12 12:59:01.49	305.15	17.53	
2025-01-12 12:59:01.69	305.20	17.51	
2025-01-12 12:59:01.91	305.25	17.50	
2025-01-12 12:59:02.11	305.29	17.48	
2025-01-12 12:59:02.32	305.34	17.47	
2025-01-12 12:59:02.52	305.38	17.45	
2025-01-12 12:59:02.73	305.43	17.44	
2025-01-12 12:59:02.93	305.47	17.43	
2025-01-12 12:59:03.14	305.52	17.41	
2025-01-12 12:59:03.36	305.57	17.39	
2025-01-12 12:59:03.56	305.61	17.38	
2025-01-12 12:59:03.77	305.66	17.37	
2025-01-12 12:59:03.97	305.70	17.35	
2025-01-12 12:59:04.18	305.75	17.34	
2025-01-12 12:59:04.38	305.79	17.32	
2025-01-12 12:59:04.59	305.84	17.31	
2025-01-12 12:59:04.79	305.88	17.29	
2025-01-12 12:59:05.00	305.93	17.28	
2025-01-12 12:59:05.21	305.98	17.26	
2025-01-12 12:59:05.41	306.02	17.25	
2025-01-12 12:59:05.61	306.07	17.23	
2025-01-12 12:59:05.82	306.11	17.22	
2025-01-12 12:59:06.03	306.16	17.20	
2025-01-12 12:59:06.23	306.20	17.19	
2025-01-12 12:59:06.44	306.25	17.17	
2025-01-12 12:59:06.64	306.29	17.16	
2025-01-12 12:59:06.85	306.34	17.14	
2025-01-12 12:59:07.05	306.38	17.13	
2025-01-12 12:59:07.26	306.43	17.11	
2025-01-12 12:59:07.46	306.47	17.10	
2025-01-12 12:59:07.67	306.51	17.08	
2025-01-12 12:59:07.87	306.56	17.07	
2025-01-12 12:59:08.08	306.60	17.06	
2025-01-12 12:59:08.28	306.65	17.04	
2025-01-12 12:59:08.49	306.69	17.03	
2025-01-12 12:59:08.69	306.74	17.01	
2025-01-12 12:59:08.90	306.78	17.00	
2025-01-12 12:59:09.10	306.82	16.98	
2025-01-12 12:59:09.31	306.87	16.97	
2025-01-12 12:59:09.51	306.91	16.95	
2025-01-12 12:59:09.72	306.96	16.94	
2025-01-12 12:59:09.92	307.00	16.92	
2025-01-12 12:59:10.13	307.05	16.91	
2025-01-12 12:59:10.33	307.09	16.89	
2025-01-12 12:59:10.54	307.13	16.88	
2025-01-12 12:59:10.74	307.18	16.86	
2025-01-12 12:59:10.95	307.22	16.85	
2025-01-12 12:59:11.15	307.26	16.83	
2025-01-12 12:59:11.36	307.31	16.82	
2025-01-12 12:59:11.57	307.35	16.80	
2025-01-12 12:59:11.77	307.40	16.79	
2025-01-12 12:59:11.97	307.44	16.77	
2025-01-12 12:59:12.18	307.48	16.76	
2025-01-12 12:59:12.38	307.53	16.74	
2025-01-12 12:59:12.59	307.57	16.73	
2025-01-12 12:59:12.79	307.61	16.71	
2025-01-12 12:59:13.00	307.66	16.70	
2025-01-12 12:59:13.20	307.70	16.68	
2025-01-12 12:59:13.41	307.74	16.67	
2025-01-12 12:59:13.61	307.79	16.65	
2025-01-12 12:59:13.82	307.83	16.64	
2025-01-12 12:59:14.03	307.88	16.62	
2025-01-12 12:59:14.23	307.92	16.61	
2025-01-12 12:59:14.44	307.96	16.59	
2025-01-12 12:59:14.65	308.01	16.58	
2025-01-12 12:59:14.85	308.05	16.56	
2025-01-12 12:59:15.07	308.09	16.55	
2025-01-12 12:59:15.27	308.14	16.53	
2025-01-12 12:59:15.48	308.18	16.52	
2025-01-12 12:59:15.68	308.22	16.50	
2025-01-12 12:59:15.89	308.26	16.49	
2025-01-12 12:59:16.09	308.31	16.47	
2025-01-12 12:59:16.30	308.35	16.46	
2025-01-12 12:59:16.50	308.39	16.44	
2025-01-12 12:59:16.71	308.44	16.43	
2025-01-12 12:59:16.92	308.48	16.41	
2025-01-12 12:59:17.12	308.52	16.40	
2025-01-12 12:59:17.33	308.56	16.38	
2025-01-12 12:59:17.53	308.61	16.37	
2025-01-12 12:59:17.74	308.65	16.35	
2025-01-12 12:59:17.94	308.69	16.34	
2025-01-12 12:59:18.15	308.73	16.32	
2025-01-12 12:59:18.35	308.77	16.31	
2025-01-12 12:59:18.56	308.82	16.29	
2025-01-12 12:59:18.76	308.86	16.28	
2025-01-12 12:59:18.97	308.90	16.26	
2025-01-12 12:59:19.17	308.94	16.25	
2025-01-12 12:59:19.38	308.99	16.23	
2025-01-12 12:59:19.60	309.03	16.22	
2025-01-12 12:59:19.80	309.07	16.20	
2025-01-12 12:59:20.00	309.11	16.19	
2025-01-12 12:59:20.21	309.16	16.17	
2025-01-12 12:59:20.41	309.20	16.16	
2025-01-12 12:59:20.62	309.24	16.14	
2025-01-12 12:59:20.83	309.28	16.12	
2025-01-12 12:59:21.04	309.32	16.11	
2025-01-12 12:59:21.25	309.37	16.09	
2025-01-12 12:59:21.45	309.41	16.08	
2025-01-12 12:59:21.66	309.45	16.06	
2025-01-12 12:59:21.86	309.49	16.05	
2025-01-12 12:59:22.06	309.53	16.03	
2025-01-12 12:59:22.27	309.57	16.02	
2025-01-12 12:59:22.47	309.61	16.00	
2025-01-12 12:59:22.68	309.66	15.99	
2025-01-12 12:59:22.88	309.70	15.97	
2025-01-12 12:59:23.09	309.74	15.96	
2025-01-12 12:59:23.29	309.78	15.94	
2025-01-12 12:59:23.50	309.82	15.93	
2025-01-12 12:59:23.70	309.86	15.91	
2025-01-12 12:59:23.91	309.90	15.90	
2025-01-12 12:59:24.11	309.94	15.88	
2025-01-12 12:59:24.32	309.99	15.87	
2025-01-12 12:59:24.52	310.02	15.85	
2025-01-12 12:59:24.73	310.07	15.84	
2025-01-12 12:59:24.93	310.11	15.82	
2025-01-12 12:59:25.14	310.15	15.81	
2025-01-12 12:59:25.34	310.19	15.79	
2025-01-12 12:59:25.55	310.23	15.78	
2025-01-12 12:59:25.75	310.27	15.76	
2025-01-12 12:59:25.96	310.31	15.75	
2025-01-12 12:59:26.16	310.35	15.73	
2025-01-12 12:59:26.37	310.39	15.72	
2025-01-12 12:59:26.57	310.43	15.70	
2025-01-12 12:59:26.77	310.47	15.69	
2025-01-12 12:59:26.98	310.51	15.67	
2025-01-12 12:59:27.18	310.55	15.66	
2025-01-12 12:59:27.39	310.59	15.64	
2025-01-12 12:59:27.60	310.63	15.62	
2025-01-12 12:59:27.80	310.67	15.61	
2025-01-12 12:59:28.00	310.71	15.59	
2025-01-12 12:59:28.21	310.75	15.58	
2025-01-12 12:59:28.42	310.80	15.56	
2025-01-12 12:59:28.62	310.83	15.55	
2025-01-12 12:59:28.83	310.88	15.53	
2025-01-12 12:59:29.03	310.91	15.52	
2025-01-12 12:59:29.23	310.95	15.50	
2025-01-12 12:59:29.44	310.99	15.49	
2025-01-12 12:59:29.64	311.03	15.47	
2025-01-12 12:59:29.85	311.07	15.46	
2025-01-12 12:59:30.05	311.11	15.44	
2025-01-12 12:59:30.26	311.15	15.43	
2025-01-12 12:59:30.46	311.19	15.41	
2025-01-12 12:59:30.67	311.23	15.40	
2025-01-12 12:59:30.88	311.27	15.38	
2025-01-12 12:59:31.08	311.31	15.37	
2025-01-12 12:59:31.28	311.35	15.35	
2025-01-12 12:59:31.49	311.39	15.34	
2025-01-12 12:59:31.70	311.43	15.32	
2025-01-12 12:59:31.90	311.47	15.31	
2025-01-12 12:59:32.10	311.51	15.29	
2025-01-12 12:59:32.31	311.55	15.28	
2025-01-12 12:59:32.51	311.59	15.26	
2025-01-12 12:59:32.72	311.63	15.24	
2025-01-12 12:59:32.93	311.67	15.23	
2025-01-12 12:59:33.13	311.71	15.21	
2025-01-12 12:59:33.33	311.74	15.20	
2025-01-12 12:59:33.54	311.78	15.18	
2025-01-12 12:59:33.74	311.82	15.17	
2025-01-12 12:59:33.95	311.86	15.15	
2025-01-12 12:59:34.16	311.90	15.14	
2025-01-12 12:59:34.36	311.94	15.12	
2025-01-12 12:59:34.57	311.98	15.11	
2025-01-12 12:59:34.77	312.02	15.09	
2025-01-12 12:59:34.97	312.05	15.08	
2025-01-12 12:59:35.18	312.09	15.06	
2025-01-12 12:59:35.40	312.14	15.05	
2025-01-12 12:59:35.61	312.18	15.03	
2025-01-12 12:59:35.81	312.21	15.02	
2025-01-12 12:59:36.02	312.25	15.00	
2025-01-12 12:59:36.22	312.29	14.98	
2025-01-12 12:59:36.42	312.33	14.97	
2025-01-12 12:59:36.63	312.37	14.95	
2025-01-12 12:59:36.83	312.40	14.94	
2025-01-12 12:59:37.04	312.44	14.92	
2025-01-12 12:59:37.24	312.48	14.91	
2025-01-12 12:59:37.45	312.52	14.89	
2025-01-12 12:59:37.65	312.56	14.88	
2025-01-12 12:59:37.86	312.60	14.86	
2025-01-12 12:59:38.06	312.63	14.85	
2025-01-12 12:59:38.27	312.67	14.83	
2025-01-12 12:59:38.47	312.71	14.82	
2025-01-12 12:59:38.68	312.75	14.80	
2025-01-12 12:59:38.88	312.79	14.79	
2025-01-12 12:59:39.09	312.83	14.77	
2025-01-12 12:59:39.29	312.86	14.76	
2025-01-12 12:59:39.50	312.90	14.74	
2025-01-12 12:59:39.70	312.94	14.73	
2025-01-12 12:59:39.91	312.98	14.71	
2025-01-12 12:59:40.11	313.01	14.70	
2025-01-12 12:59:40.32	313.05	14.68	
2025-01-12 12:59:40.52	313.09	14.66	
2025-01-12 12:59:40.73	313.13	14.65	
2025-01-12 12:59:40.93	313.16	14.63	
2025-01-12 12:59:41.14	313.20	14.62	
2025-01-12 12:59:41.34	313.24	14.60	
2025-01-12 12:59:41.55	313.28	14.59	
2025-01-12 12:59:41.75	313.31	14.57	
2025-01-12 12:59:41.96	313.35	14.56	
2025-01-12 12:59:42.16	313.39	14.54	
2025-01-12 12:59:42.37	313.43	14.53	
2025-01-12 12:59:42.57	313.46	14.51	
2025-01-12 12:59:42.78	313.50	14.50	
2025-01-12 12:59:42.98	313.54	14.48	
2025-01-12 12:59:43.19	313.58	14.47	
2025-01-12 12:59:43.39	313.61	14.45	
2025-01-12 12:59:43.59	313.65	14.44	
2025-01-12 12:59:43.80	313.69	14.42	
2025-01-12 12:59:44.01	313.72	14.41	
2025-01-12 12:59:44.21	313.76	14.39	
2025-01-12 12:59:44.42	313.80	14.37	
2025-01-12 12:59:44.62	313.83	14.36	
2025-01-12 12:59:44.83	313.87	14.34	
2025-01-12 12:59:45.03	313.91	14.33	
2025-01-12 12:59:45.24	313.95	14.31	
2025-01-12 12:59:45.44	313.98	14.30	
2025-01-12 12:59:45.65	314.02	14.28	
2025-01-12 12:59:45.85	314.05	14.27	
2025-01-12 12:59:46.06	314.09	14.25	
2025-01-12 12:59:46.26	314.13	14.24	
2025-01-12 12:59:46.47	314.16	14.22	
2025-01-12 12:59:46.67	314.20	14.21	
2025-01-12 12:59:46.88	314.24	14.19	
2025-01-12 12:59:47.10	314.28	14.18	
2025-01-12 12:59:47.30	314.31	14.16	
2025-01-12 12:59:47.51	314.35	14.14	
2025-01-12 12:59:47.72	314.39	14.13	
2025-01-12 12:59:47.92	314.42	14.11	
2025-01-12 12:59:48.12	314.46	14.10	
2025-01-12 12:59:48.33	314.49	14.08	
2025-01-12 12:59:48.54	314.53	14.07	
2025-01-12 12:59:48.74	314.57	14.05	
2025-01-12 12:59:48.95	314.60	14.04	
2025-01-12 12:59:49.15	314.64	14.02	
2025-01-12 12:59:49.36	314.68	14.01	
2025-01-12 12:59:49.56	314.71	13.99	
2025-01-12 12:59:49.77	314.75	13.98	
2025-01-12 12:59:49.98	314.78	13.96	
2025-01-12 12:59:50.19	314.82	13.95	
2025-01-12 12:59:50.39	314.86	13.93	
2025-01-12 12:59:50.60	314.89	13.91	
2025-01-12 12:59:50.80	314.93	13.90	
2025-01-12 12:59:51.01	314.96	13.88	
2025-01-12 12:59:51.21	315.00	13.87	
2025-01-12 12:59:51.41	315.03	13.85	
2025-01-12 12:59:51.62	315.07	13.84	
2025-01-12 12:59:51.83	315.11	13.82	
2025-01-12 12:59:52.03	315.14	13.81	
2025-01-12 12:59:52.24	315.18	13.79	
2025-01-12 12:59:52.44	315.21	13.78	
2025-01-12 12:59:52.65	315.25	13.76	
2025-01-12 12:59:52.85	315.28	13.75	
2025-01-12 12:59:53.06	315.32	13.73	
2025-01-12 12:59:53.26	315.35	13.72	
2025-01-12 12:59:53.47	315.39	13.70	
2025-01-12 12:59:53.67	315.42	13.69	
2025-01-12 12:59:53.88	315.46	13.67	
2025-01-12 12:59:54.09	315.49	13.66	
2025-01-12 12:59:54.29	315.53	13.64	
2025-01-12 12:59:54.50	315.57	13.63	
2025-01-12 12:59:54.70	315.60	13.61	
2025-01-12 12:59:54.91	315.63	13.59	
2025-01-12 12:59:55.11	315.67	13.58	
2025-01-12 12:59:55.32	315.70	13.56	
2025-01-12 12:59:55.52	315.74	13.55	
2025-01-12 12:59:55.73	315.77	13.53	
2025-01-12 12:59:55.93	315.81	13.52	
2025-01-12 12:59:56.14	315.84	13.50	
2025-01-12 12:59:56.34	315.88	13.49	
2025-01-12 12:59:56.55	315.91	13.47	
2025-01-12 12:59:56.76	315.95	13.46	
2025-01-12 12:59:56.97	315.98	13.44	
2025-01-12 12:59:57.17	316.02	13.43	
2025-01-12 12:59:57.38	316.05	13.41	
2025-01-12 12:59:57.59	316.09	13.40	
2025-01-12 12:59:57.79	316.12	13.38	
2025-01-12 12:59:58.00	316.16	13.37	
2025-01-12 12:59:58.20	316.19	13.35	
2025-01-12 12:59:58.41	316.23	13.34	
2025-01-12 12:59:58.61	316.26	13.32	
2025-01-12 12:59:58.82	316.29	13.30	
2025-01-12 12:59:59.03	316.33	13.29	
2025-01-12 12:59:59.24	316.36	13.27	
2025-01-12 12:59:59.44	316.40	13.26	
2025-01-12 12:59:59.65	316.43	13.24	
2025-01-12 12:59:59.85	316.47	13.23	
2025-01-12 13:00:00.05	316.50	13.21	
2025-01-12 13:00:00.26	316.53	13.20	
2025-01-12 13:00:00.46	316.57	13.18	
2025-01-12 13:00:00.67	316.60	13.17	
2025-01-12 13:00:00.87	316.63	13.15	
2025-01-12 13:00:01.08	316.67	13.14	
2025-01-12 13:00:01.28	316.70	13.12	
2025-01-12 13:00:01.48	316.74	13.11	
2025-01-12 13:00:01.68	316.77	13.09	
2025-01-12 13:00:01.89	316.80	13.08	
2025-01-12 13:00:02.11	316.84	13.06	
2025-01-12 13:00:02.31	316.87	13.05	
2025-01-12 13:00:02.52	316.91	13.03	
2025-01-12 13:00:02.72	316.94	13.02	
2025-01-12 13:00:02.93	316.97	13.00	
2025-01-12 13:00:03.15	317.01	12.98	
2025-01-12 13:00:03.35	317.04	12.97	
2025-01-12 13:00:03.56	317.08	12.95	
2025-01-12 13:00:03.76	317.11	12.94	
2025-01-12 13:00:03.97	317.14	12.92	
2025-01-12 13:00:04.17	317.18	12.91	
2025-01-12 13:00:04.38	317.21	12.89	
2025-01-12 13:00:04.58	317.24	12.88	
2025-01-12 13:00:04.79	317.28	12.86	
2025-01-12 13:00:04.99	317.31	12.85	
2025-01-12 13:00:05.20	317.34	12.83	
2025-01-12 13:00:05.40	317.37	12.82	
2025-01-12 13:00:05.61	317.41	12.80	
2025-01-12 13:00:05.81	317.44	12.79	
2025-01-12 13:00:06.02	317.47	12.77	
2025-01-12 13:00:06.22	317.51	12.76	
2025-01-12 13:00:06.43	317.54	12.74	
2025-01-12 13:00:06.63	317.57	12.73	
2025-01-12 13:00:06.84	317.61	12.71	
2025-01-12 13:00:07.04	317.64	12.70	
2025-01-12 13:00:07.25	317.67	12.68	
2025-01-12 13:00:07.45	317.70	12.67	
2025-01-12 13:00:07.66	317.74	12.65	
2025-01-12 13:00:07.87	317.77	12.64	
2025-01-12 13:00:08.07	317.80	12.62	
2025-01-12 13:00:08.28	317.84	12.61	
2025-01-12 13:00:08.48	317.87	12.59	
2025-01-12 13:00:08.69	317.90	12.58	
2025-01-12 13:00:08.89	317.93	12.56	
2025-01-12 13:00:09.10	317.97	12.55	
2025-01-12 13:00:09.30	318.00	12.53	
2025-01-12 13:00:09.50	318.03	12.52	
2025-01-12 13:00:09.71	318.06	12.50	
2025-01-12 13:00:09.92	318.09	12.49	
2025-01-12 13:00:10.12	318.13	12.47	
2025-01-12 13:00:10.33	318.16	12.46	
2025-01-12 13:00:10.53	318.19	12.44	
2025-01-12 13:00:10.74	318.22	12.43	
2025-01-12 13:00:10.94	318.26	12.41	
2025-01-12 13:00:11.15	318.29	12.40	
2025-01-12 13:00:11.35	318.32	12.38	
2025-01-12 13:00:11.55	318.35	12.37	
2025-01-12 13:00:11.76	318.38	12.35	
2025-01-12 13:00:11.96	318.41	12.34	
2025-01-12 13:00:12.17	318.45	12.32	
2025-01-12 13:00:12.37	318.48	12.31	
2025-01-12 13:00:12.58	318.51	12.29	
2025-01-12 13:00:12.78	318.54	12.28	
2025-01-12 13:00:12.98	318.57	12.26	
2025-01-12 13:00:13.19	318.61	12.25	
2025-01-12 13:00:13.40	318.64	12.23	
2025-01-12 13:00:13.60	318.67	12.22	
2025-01-12 13:00:13.81	318.70	12.20	
2025-01-12 13:00:14.01	318.73	12.19	
2025-01-12 13:00:14.22	318.76	12.17	
2025-01-12 13:00:14.42	318.80	12.16	
2025-01-12 13:00:14.63	318.83	12.14	
2025-01-12 13:00:14.83	318.86	12.13	
2025-01-12 13:00:15.04	318.89	12.11	
2025-01-12 13:00:15.24	318.92	12.10	
2025-01-12 13:00:15.45	318.95	12.08	
2025-01-12 13:00:15.65	318.98	12.07	
2025-01-12 13:00:15.86	319.02	12.05	
2025-01-12 13:00:16.06	319.05	12.04	
2025-01-12 13:00:16.27	319.08	12.02	
2025-01-12 13:00:16.47	319.11	12.01	
2025-01-12 13:00:16.68	319.14	11.99	
2025-01-12 13:00:16.88	319.17	11.98	
2025-01-12 13:00:17.09	319.20	11.96	
2025-01-12 13:00:17.29	319.23	11.95	
2025-01-12 13:00:17.50	319.27	11.93	
2025-01-12 13:00:17.71	319.30	11.92	
2025-01-12 13:00:17.92	319.33	11.90	
2025-01-12 13:00:18.12	319.36	11.89	
2025-01-12 13:00:18.33	319.39	11.87	
2025-01-12 13:00:18.53	319.42	11.86	
2025-01-12 13:00:18.74	319.45	11.84	
2025-01-12 13:00:18.95	319.48	11.83	
2025-01-12 13:00:19.15	319.51	11.81	
2025-01-12 13:00:19.36	319.55	11.80	
2025-01-12 13:00:19.56	319.58	11.78	
2025-01-12 13:00:19.77	319.61	11.77	
2025-01-12 13:00:19.97	319.64	11.75	
2025-01-12 13:00:20.18	319.67	11.74	
2025-01-12 13:00:20.38	319.70	11.72	
2025-01-12 13:00:20.59	319.73	11.71	
2025-01-12 13:00:20.79	319.76	11.69	
2025-01-12 13:00:21.00	319.79	11.68	
2025-01-12 13:00:21.20	319.82	11.66	
2025-01-12 13:00:21.41	319.85	11.65	
2025-01-12 13:00:21.62	319.88	11.63	
2025-01-12 13:00:21.82	319.91	11.62	
2025-01-12 13:00:22.03	319.94	11.60	
2025-01-12 13:00:22.23	319.97	11.59	
2025-01-12 13:00:22.44	320.00	11.57	
2025-01-12 13:00:22.64	320.03	11.56	
2025-01-12 13:00:22.85	320.07	11.54	
2025-01-12 13:00:23.05	320.09	11.53	
2025-01-12 13:00:23.26	320.13	11.51	
2025-01-12 13:00:23.46	320.16	11.50	
2025-01-12 13:00:23.67	320.19	11.48	
2025-01-12 13:00:23.87	320.22	11.47	
2025-01-12 13:00:24.08	320.25	11.45	
2025-01-12 13:00:24.29	320.28	11.44	
2025-01-12 13:00:24.50	320.31	11.42	
2025-01-12 13:00:24.71	320.34	11.41	
2025-01-12 13:00:24.91	320.37	11.39	
2025-01-12 13:00:25.12	320.40	11.38	
2025-01-12 13:00:25.32	320.43	11.36	
2025-01-12 13:00:25.53	320.46	11.35	
2025-01-12 13:00:25.73	320.49	11.33	
2025-01-12 13:00:25.94	320.52	11.32	
2025-01-12 13:00:26.15	320.55	11.30	
2025-01-12 13:00:26.35	320.58	11.29	
2025-01-12 13:00:26.56	320.61	11.27	
2025-01-12 13:00:26.77	320.64	11.26	
2025-01-12 13:00:26.98	320.67	11.24	
2025-01-12 13:00:27.18	320.70	11.23	
2025-01-12 13:00:27.39	320.73	11.21	
2025-01-12 13:00:27.59	320.76	11.20	
2025-01-12 13:00:27.80	320.79	11.18	
2025-01-12 13:00:28.00	320.81	11.17	
2025-01-12 13:00:28.21	320.84	11.15	
2025-01-12 13:00:28.41	320.87	11.14	
2025-01-12 13:00:28.62	320.90	11.12	
2025-01-12 13:00:28.82	320.93	11.11	
2025-01-12 13:00:29.03	320.96	11.09	
2025-01-12 13:00:29.24	320.99	11.08	
2025-01-12 13:00:29.44	321.02	11.07	
2025-01-12 13:00:29.65	321.05	11.05	
2025-01-12 13:00:29.85	321.08	11.04	
2025-01-12 13:00:30.06	321.11	11.02	
2025-01-12 13:00:30.26	321.14	11.01	
2025-01-12 13:00:30.47	321.17	10.99	
2025-01-12 13:00:30.67	321.19	10.98	
2025-01-12 13:00:30.89	321.23	10.96	
2025-01-12 13:00:31.10	321.26	10.95	
2025-01-12 13:00:31.30	321.28	10.93	
2025-01-12 13:00:31.51	321.31	10.92	
2025-01-12 13:00:31.71	321.34	10.90	
2025-01-12 13:00:31.92	321.37	10.89	
2025-01-12 13:00:32.12	321.40	10.87	
2025-01-12 13:00:32.33	321.43	10.86	
2025-01-12 13:00:32.53	321.46	10.84	
2025-01-12 13:00:32.74	321.49	10.83	
2025-01-12 13:00:32.94	321.51	10.81	
2025-01-12 13:00:33.15	321.54	10.80	
2025-01-12 13:00:33.35	321.57	10.78	
2025-01-12 13:00:33.57	321.60	10.77	
2025-01-12 13:00:33.78	321.63	10.75	
2025-01-12 13:00:33.98	321.66	10.74	
2025-01-12 13:00:34.18	321.69	10.72	
2025-01-12 13:00:34.39	321.72	10.71	
2025-01-12 13:00:34.59	321.74	10.70	
2025-01-12 13:00:34.80	321.77	10.68	
2025-01-12 13:00:35.00	321.80	10.67	
2025-01-12 13:00:35.21	321.83	10.65	
2025-01-12 13:00:35.41	321.86	10.64	
2025-01-12 13:00:35.62	321.89	10.62	
2025-01-12 13:00:35.82	321.91	10.61	
2025-01-12 13:00:36.03	321.94	10.59	
2025-01-12 13:00:36.23	321.97	10.58	
2025-01-12 13:00:36.44	322.00	10.56	
2025-01-12 13:00:36.64	322.03	10.55	
2025-01-12 13:00:36.85	322.06	10.53	
2025-01-12 13:00:37.06	322.09	10.52	
2025-01-12 13:00:37.26	322.11	10.51	
2025-01-12 13:00:37.47	322.14	10.49	
2025-01-12 13:00:37.67	322.17	10.48	
2025-01-12 13:00:37.88	322.20	10.46	
2025-01-12 13:00:38.08	322.22	10.45	
2025-01-12 13:00:38.29	322.25	10.43	
2025-01-12 13:00:38.49	322.28	10.42	
2025-01-12 13:00:38.70	322.31	10.40	
2025-01-12 13:00:38.90	322.34	10.39	
2025-01-12 13:00:39.11	322.36	10.37	
2025-01-12 13:00:39.31	322.39	10.36	
2025-01-12 13:00:39.52	322.42	10.34	
2025-01-12 13:00:39.72	322.45	10.33	
2025-01-12 13:00:39.93	322.48	10.32	
2025-01-12 13:00:40.13	322.50	10.30	
2025-01-12 13:00:40.34	322.53	10.29	
2025-01-12 13:00:40.54	322.56	10.27	
2025-01-12 13:00:40.75	322.59	10.26	
2025-01-12 13:00:40.95	322.61	10.24	
2025-01-12 13:00:41.16	322.64	10.23	
2025-01-12 13:00:41.36	322.67	10.21	
2025-01-12 13:00:41.57	322.70	10.20	
2025-01-12 13:00:41.77	322.72	10.18	
2025-01-12 13:00:41.98	322.75	10.17	
2025-01-12 13:00:42.18	322.78	10.16	
2025-01-12 13:00:42.39	322.81	10.14	
2025-01-12 13:00:42.59	322.83	10.13	
2025-01-12 13:00:42.80	322.86	10.11	
2025-01-12 13:00:43.00	322.89	10.10	
2025-01-12 13:00:43.21	322.91	10.08	
2025-01-12 13:00:43.41	322.94	10.07	
2025-01-12 13:00:43.62	322.97	10.05	
2025-01-12 13:00:43.82	323.00	10.04	
2025-01-12 13:00:44.03	323.02	10.02	
