passes_logs/2025/01/12/SPB_Silybum_02/SPB_Silybum_02__20250112_105417_TERRA_rec.log

#Pass ID: 20250112_105417_TERRA
#Satellite: TERRA
#Configuration: TERRA
#Start time: 2025-01-12 10:54:16

#Version: 2.0.20230423
#Station: SPB_Silybum_02
#Location: 30.233357 lon 59.946436 lat
#TLE: 1 25994U 99068A   25011.77277381  .00000769  00000+0  16824-3 0  9997
#TLE: 2 25994  98.0222  74.9057 0003526  79.1717  32.7508 14.60388914333608

#Time	Az	El	Level	Level2	SNR	BER	Gain	Gain2
2025-01-12 10:54:18.44	6.83	4.05	
2025-01-12 10:54:18.64	6.81	4.06	
2025-01-12 10:54:18.85	6.78	4.07	
2025-01-12 10:54:19.06	6.76	4.09	
2025-01-12 10:54:19.27	6.73	4.10	
2025-01-12 10:54:19.47	6.71	4.11	
2025-01-12 10:54:19.68	6.68	4.12	
2025-01-12 10:54:19.88	6.66	4.13	
2025-01-12 10:54:20.09	6.64	4.14	
2025-01-12 10:54:20.29	6.61	4.15	
2025-01-12 10:54:20.50	6.59	4.16	
2025-01-12 10:54:20.71	6.57	4.17	
2025-01-12 10:54:20.91	6.54	4.18	
2025-01-12 10:54:21.12	6.52	4.19	
2025-01-12 10:54:21.32	6.49	4.20	
2025-01-12 10:54:21.52	6.47	4.21	
2025-01-12 10:54:21.73	6.45	4.22	
2025-01-12 10:54:21.94	6.42	4.23	
2025-01-12 10:54:22.14	6.40	4.24	
2025-01-12 10:54:22.34	6.38	4.25	
2025-01-12 10:54:22.55	6.35	4.26	
2025-01-12 10:54:22.75	6.33	4.27	
2025-01-12 10:54:22.96	6.30	4.28	
2025-01-12 10:54:23.16	6.28	4.29	
2025-01-12 10:54:23.37	6.25	4.30	
2025-01-12 10:54:23.58	6.23	4.32	
2025-01-12 10:54:23.78	6.21	4.33	
2025-01-12 10:54:23.99	6.18	4.34	
2025-01-12 10:54:24.19	6.16	4.35	
2025-01-12 10:54:24.40	6.13	4.36	
2025-01-12 10:54:24.60	6.11	4.37	
2025-01-12 10:54:24.81	6.08	4.38	
2025-01-12 10:54:25.01	6.06	4.39	
2025-01-12 10:54:25.22	6.04	4.40	
2025-01-12 10:54:25.42	6.01	4.41	
2025-01-12 10:54:25.62	5.99	4.42	
2025-01-12 10:54:25.83	5.96	4.43	
2025-01-12 10:54:26.03	5.94	4.44	
2025-01-12 10:54:26.24	5.92	4.45	
2025-01-12 10:54:26.45	5.89	4.46	
2025-01-12 10:54:26.65	5.87	4.47	
2025-01-12 10:54:26.85	5.84	4.48	
2025-01-12 10:54:27.06	5.82	4.49	
2025-01-12 10:54:27.26	5.79	4.50	
2025-01-12 10:54:27.47	5.77	4.51	
2025-01-12 10:54:27.67	5.74	4.52	
2025-01-12 10:54:27.88	5.72	4.53	
2025-01-12 10:54:28.08	5.70	4.54	
2025-01-12 10:54:28.29	5.67	4.56	
2025-01-12 10:54:28.49	5.65	4.57	
2025-01-12 10:54:28.70	5.62	4.58	
2025-01-12 10:54:28.90	5.60	4.59	
2025-01-12 10:54:29.11	5.57	4.60	
2025-01-12 10:54:29.31	5.55	4.61	
2025-01-12 10:54:29.52	5.52	4.62	
2025-01-12 10:54:29.72	5.50	4.63	
2025-01-12 10:54:29.93	5.47	4.64	
2025-01-12 10:54:30.13	5.45	4.65	
2025-01-12 10:54:30.34	5.42	4.66	
2025-01-12 10:54:30.54	5.40	4.67	
2025-01-12 10:54:30.75	5.37	4.68	
2025-01-12 10:54:30.95	5.35	4.69	
2025-01-12 10:54:31.16	5.32	4.70	
2025-01-12 10:54:31.36	5.30	4.71	
2025-01-12 10:54:31.57	5.28	4.72	
2025-01-12 10:54:31.77	5.25	4.73	
2025-01-12 10:54:31.98	5.23	4.74	
2025-01-12 10:54:32.19	5.20	4.75	
2025-01-12 10:54:32.40	5.17	4.76	
2025-01-12 10:54:32.60	5.15	4.77	
2025-01-12 10:54:32.81	5.12	4.79	
2025-01-12 10:54:33.01	5.10	4.80	
2025-01-12 10:54:33.22	5.07	4.81	
2025-01-12 10:54:33.42	5.05	4.82	
2025-01-12 10:54:33.63	5.02	4.83	
2025-01-12 10:54:33.83	5.00	4.84	
2025-01-12 10:54:34.04	4.97	4.85	
2025-01-12 10:54:34.24	4.95	4.86	
2025-01-12 10:54:34.45	4.92	4.87	
2025-01-12 10:54:34.65	4.90	4.88	
2025-01-12 10:54:34.86	4.87	4.89	
2025-01-12 10:54:35.06	4.85	4.90	
2025-01-12 10:54:35.27	4.82	4.91	
2025-01-12 10:54:35.47	4.80	4.92	
2025-01-12 10:54:35.68	4.77	4.93	
2025-01-12 10:54:35.88	4.75	4.94	
2025-01-12 10:54:36.09	4.72	4.95	
2025-01-12 10:54:36.29	4.70	4.96	
2025-01-12 10:54:36.50	4.67	4.97	
2025-01-12 10:54:36.70	4.65	4.98	
2025-01-12 10:54:36.91	4.62	4.99	
2025-01-12 10:54:37.11	4.60	5.00	
2025-01-12 10:54:37.32	4.57	5.01	
2025-01-12 10:54:37.52	4.54	5.02	
2025-01-12 10:54:37.72	4.52	5.03	
2025-01-12 10:54:37.93	4.49	5.05	
2025-01-12 10:54:38.13	4.47	5.06	
2025-01-12 10:54:38.34	4.44	5.07	
2025-01-12 10:54:38.54	4.42	5.08	
2025-01-12 10:54:38.74	4.39	5.09	
2025-01-12 10:54:38.95	4.37	5.10	
2025-01-12 10:54:39.16	4.34	5.11	
2025-01-12 10:54:39.36	4.32	5.12	
2025-01-12 10:54:39.58	4.29	5.13	
2025-01-12 10:54:39.79	4.26	5.14	
2025-01-12 10:54:39.99	4.24	5.15	
2025-01-12 10:54:40.20	4.21	5.16	
2025-01-12 10:54:40.41	4.18	5.17	
2025-01-12 10:54:40.61	4.16	5.18	
2025-01-12 10:54:40.82	4.13	5.19	
2025-01-12 10:54:41.02	4.11	5.20	
2025-01-12 10:54:41.22	4.08	5.21	
2025-01-12 10:54:41.43	4.06	5.22	
2025-01-12 10:54:41.63	4.03	5.23	
2025-01-12 10:54:41.85	4.00	5.24	
2025-01-12 10:54:42.06	3.98	5.26	
2025-01-12 10:54:42.27	3.95	5.27	
2025-01-12 10:54:42.47	3.92	5.28	
2025-01-12 10:54:42.69	3.90	5.29	
2025-01-12 10:54:42.89	3.87	5.30	
2025-01-12 10:54:43.10	3.84	5.31	
2025-01-12 10:54:43.30	3.82	5.32	
2025-01-12 10:54:43.51	3.79	5.33	
2025-01-12 10:54:43.72	3.77	5.34	
2025-01-12 10:54:43.93	3.74	5.35	
2025-01-12 10:54:44.14	3.71	5.36	
2025-01-12 10:54:44.34	3.69	5.37	
2025-01-12 10:54:44.55	3.66	5.38	
2025-01-12 10:54:44.76	3.63	5.39	
2025-01-12 10:54:44.97	3.61	5.40	
2025-01-12 10:54:45.18	3.58	5.41	
2025-01-12 10:54:45.38	3.55	5.42	
2025-01-12 10:54:45.59	3.53	5.43	
2025-01-12 10:54:45.80	3.50	5.44	
2025-01-12 10:54:46.00	3.47	5.46	
2025-01-12 10:54:46.20	3.45	5.47	
2025-01-12 10:54:46.41	3.42	5.48	
2025-01-12 10:54:46.61	3.40	5.49	
2025-01-12 10:54:46.82	3.37	5.50	
2025-01-12 10:54:47.03	3.34	5.51	
2025-01-12 10:54:47.23	3.32	5.52	
2025-01-12 10:54:47.44	3.29	5.53	
2025-01-12 10:54:47.64	3.26	5.54	
2025-01-12 10:54:47.85	3.24	5.55	
2025-01-12 10:54:48.05	3.21	5.56	
2025-01-12 10:54:48.26	3.18	5.57	
2025-01-12 10:54:48.46	3.16	5.58	
2025-01-12 10:54:48.67	3.13	5.59	
2025-01-12 10:54:48.87	3.10	5.60	
2025-01-12 10:54:49.08	3.08	5.61	
2025-01-12 10:54:49.28	3.05	5.62	
2025-01-12 10:54:49.49	3.02	5.63	
2025-01-12 10:54:49.69	3.00	5.64	
2025-01-12 10:54:49.90	2.97	5.65	
2025-01-12 10:54:50.11	2.94	5.66	
2025-01-12 10:54:50.32	2.91	5.67	
2025-01-12 10:54:50.53	2.89	5.68	
2025-01-12 10:54:50.73	2.86	5.69	
2025-01-12 10:54:50.94	2.83	5.71	
2025-01-12 10:54:51.14	2.81	5.72	
2025-01-12 10:54:51.34	2.78	5.73	
2025-01-12 10:54:51.55	2.75	5.74	
2025-01-12 10:54:51.76	2.73	5.75	
2025-01-12 10:54:51.96	2.70	5.76	
2025-01-12 10:54:52.17	2.67	5.77	
2025-01-12 10:54:52.37	2.65	5.78	
2025-01-12 10:54:52.58	2.62	5.79	
2025-01-12 10:54:52.78	2.59	5.80	
2025-01-12 10:54:52.99	2.56	5.81	
2025-01-12 10:54:53.19	2.54	5.82	
2025-01-12 10:54:53.40	2.51	5.83	
2025-01-12 10:54:53.60	2.48	5.84	
2025-01-12 10:54:53.81	2.46	5.85	
2025-01-12 10:54:54.02	2.43	5.86	
2025-01-12 10:54:54.22	2.40	5.87	
2025-01-12 10:54:54.43	2.37	5.88	
2025-01-12 10:54:54.63	2.35	5.89	
2025-01-12 10:54:54.84	2.32	5.90	
2025-01-12 10:54:55.04	2.29	5.91	
2025-01-12 10:54:55.25	2.26	5.92	
2025-01-12 10:54:55.45	2.24	5.93	
2025-01-12 10:54:55.67	2.21	5.94	
2025-01-12 10:54:55.88	2.18	5.96	
2025-01-12 10:54:56.08	2.15	5.97	
2025-01-12 10:54:56.29	2.13	5.98	
2025-01-12 10:54:56.49	2.10	5.99	
2025-01-12 10:54:56.70	2.07	6.00	
2025-01-12 10:54:56.90	2.04	6.01	
2025-01-12 10:54:57.11	2.02	6.02	
2025-01-12 10:54:57.32	1.99	6.03	
2025-01-12 10:54:57.52	1.96	6.04	
2025-01-12 10:54:57.72	1.93	6.05	
2025-01-12 10:54:57.93	1.91	6.06	
2025-01-12 10:54:58.14	1.88	6.07	
2025-01-12 10:54:58.34	1.85	6.08	
2025-01-12 10:54:58.55	1.82	6.09	
2025-01-12 10:54:58.76	1.79	6.10	
2025-01-12 10:54:58.96	1.77	6.11	
2025-01-12 10:54:59.17	1.74	6.12	
2025-01-12 10:54:59.37	1.71	6.13	
2025-01-12 10:54:59.58	1.68	6.14	
2025-01-12 10:54:59.78	1.66	6.15	
2025-01-12 10:54:59.99	1.63	6.16	
2025-01-12 10:55:00.19	1.60	6.17	
2025-01-12 10:55:00.39	1.57	6.18	
2025-01-12 10:55:00.60	1.55	6.19	
2025-01-12 10:55:00.80	1.52	6.20	
2025-01-12 10:55:01.01	1.49	6.21	
2025-01-12 10:55:01.21	1.46	6.22	
2025-01-12 10:55:01.42	1.43	6.23	
2025-01-12 10:55:01.62	1.41	6.24	
2025-01-12 10:55:01.83	1.38	6.25	
2025-01-12 10:55:02.03	1.35	6.26	
2025-01-12 10:55:02.24	1.32	6.28	
2025-01-12 10:55:02.45	1.29	6.29	
2025-01-12 10:55:02.66	1.26	6.30	
2025-01-12 10:55:02.87	1.24	6.31	
2025-01-12 10:55:03.07	1.21	6.32	
2025-01-12 10:55:03.28	1.18	6.33	
2025-01-12 10:55:03.48	1.15	6.34	
2025-01-12 10:55:03.69	1.12	6.35	
2025-01-12 10:55:03.89	1.10	6.36	
2025-01-12 10:55:04.10	1.07	6.37	
2025-01-12 10:55:04.31	1.04	6.38	
2025-01-12 10:55:04.52	1.01	6.39	
2025-01-12 10:55:04.73	0.98	6.40	
2025-01-12 10:55:04.93	0.95	6.41	
2025-01-12 10:55:05.13	0.92	6.42	
2025-01-12 10:55:05.35	0.89	6.43	
2025-01-12 10:55:05.56	0.87	6.44	
2025-01-12 10:55:05.76	0.84	6.45	
2025-01-12 10:55:05.97	0.81	6.46	
2025-01-12 10:55:06.18	0.78	6.47	
2025-01-12 10:55:06.39	0.75	6.48	
2025-01-12 10:55:06.60	0.72	6.49	
2025-01-12 10:55:06.80	0.69	6.50	
2025-01-12 10:55:07.01	0.66	6.51	
2025-01-12 10:55:07.21	0.64	6.52	
2025-01-12 10:55:07.42	0.61	6.54	
2025-01-12 10:55:07.62	0.58	6.55	
2025-01-12 10:55:07.82	0.55	6.56	
2025-01-12 10:55:08.03	0.52	6.57	
2025-01-12 10:55:08.24	0.49	6.58	
2025-01-12 10:55:08.44	0.46	6.59	
2025-01-12 10:55:08.64	0.44	6.60	
2025-01-12 10:55:08.85	0.41	6.61	
2025-01-12 10:55:09.07	0.38	6.62	
2025-01-12 10:55:09.27	0.35	6.63	
2025-01-12 10:55:09.48	0.32	6.64	
2025-01-12 10:55:09.68	0.29	6.65	
2025-01-12 10:55:09.89	0.26	6.66	
2025-01-12 10:55:10.09	0.23	6.67	
2025-01-12 10:55:10.30	0.20	6.68	
2025-01-12 10:55:10.50	0.17	6.69	
2025-01-12 10:55:10.71	0.14	6.70	
2025-01-12 10:55:10.91	0.12	6.71	
2025-01-12 10:55:11.12	0.09	6.72	
2025-01-12 10:55:11.33	0.06	6.73	
2025-01-12 10:55:11.53	0.03	6.74	
2025-01-12 10:55:11.74	360.00	6.75	
2025-01-12 10:55:11.94	359.97	6.76	
2025-01-12 10:55:12.15	359.94	6.77	
2025-01-12 10:55:12.35	359.91	6.78	
2025-01-12 10:55:12.56	359.88	6.79	
2025-01-12 10:55:12.76	359.85	6.80	
2025-01-12 10:55:12.97	359.82	6.81	
2025-01-12 10:55:13.17	359.80	6.82	
2025-01-12 10:55:13.38	359.77	6.83	
2025-01-12 10:55:13.59	359.74	6.84	
2025-01-12 10:55:13.79	359.71	6.85	
2025-01-12 10:55:14.00	359.68	6.86	
2025-01-12 10:55:14.20	359.65	6.87	
2025-01-12 10:55:14.41	359.62	6.88	
2025-01-12 10:55:14.61	359.59	6.89	
2025-01-12 10:55:14.82	359.56	6.90	
2025-01-12 10:55:15.02	359.53	6.91	
2025-01-12 10:55:15.23	359.50	6.93	
2025-01-12 10:55:15.43	359.47	6.93	
2025-01-12 10:55:15.64	359.44	6.95	
2025-01-12 10:55:15.85	359.41	6.96	
2025-01-12 10:55:16.05	359.38	6.97	
2025-01-12 10:55:16.26	359.35	6.98	
2025-01-12 10:55:16.46	359.32	6.99	
2025-01-12 10:55:16.67	359.29	7.00	
2025-01-12 10:55:16.87	359.26	7.01	
2025-01-12 10:55:17.08	359.23	7.02	
2025-01-12 10:55:17.28	359.21	7.03	
2025-01-12 10:55:17.49	359.18	7.04	
2025-01-12 10:55:17.69	359.15	7.05	
2025-01-12 10:55:17.90	359.12	7.06	
2025-01-12 10:55:18.10	359.09	7.07	
2025-01-12 10:55:18.31	359.06	7.08	
2025-01-12 10:55:18.52	359.03	7.09	
2025-01-12 10:55:18.72	359.00	7.10	
2025-01-12 10:55:18.93	358.97	7.11	
2025-01-12 10:55:19.15	358.93	7.12	
2025-01-12 10:55:19.35	358.90	7.13	
2025-01-12 10:55:19.55	358.88	7.14	
2025-01-12 10:55:19.76	358.84	7.15	
2025-01-12 10:55:19.96	358.82	7.16	
2025-01-12 10:55:20.17	358.78	7.17	
2025-01-12 10:55:20.37	358.76	7.18	
2025-01-12 10:55:20.58	358.72	7.19	
2025-01-12 10:55:20.78	358.70	7.20	
2025-01-12 10:55:20.99	358.66	7.21	
2025-01-12 10:55:21.19	358.64	7.22	
2025-01-12 10:55:21.40	358.60	7.23	
2025-01-12 10:55:21.61	358.57	7.24	
2025-01-12 10:55:21.81	358.54	7.25	
2025-01-12 10:55:22.02	358.51	7.26	
2025-01-12 10:55:22.22	358.48	7.27	
2025-01-12 10:55:22.43	358.45	7.28	
2025-01-12 10:55:22.63	358.42	7.29	
2025-01-12 10:55:22.84	358.39	7.30	
2025-01-12 10:55:23.05	358.36	7.31	
2025-01-12 10:55:23.25	358.33	7.32	
2025-01-12 10:55:23.45	358.30	7.33	
2025-01-12 10:55:23.66	358.27	7.34	
2025-01-12 10:55:23.87	358.24	7.35	
2025-01-12 10:55:24.07	358.21	7.36	
2025-01-12 10:55:24.28	358.18	7.37	
2025-01-12 10:55:24.48	358.15	7.38	
2025-01-12 10:55:24.69	358.12	7.39	
2025-01-12 10:55:24.89	358.09	7.40	
2025-01-12 10:55:25.10	358.06	7.41	
2025-01-12 10:55:25.30	358.03	7.42	
2025-01-12 10:55:25.51	358.00	7.43	
2025-01-12 10:55:25.71	357.97	7.44	
2025-01-12 10:55:25.92	357.93	7.45	
2025-01-12 10:55:26.12	357.90	7.46	
2025-01-12 10:55:26.33	357.87	7.47	
2025-01-12 10:55:26.53	357.84	7.48	
2025-01-12 10:55:26.74	357.81	7.49	
2025-01-12 10:55:26.94	357.78	7.50	
2025-01-12 10:55:27.15	357.75	7.51	
2025-01-12 10:55:27.36	357.72	7.52	
2025-01-12 10:55:27.56	357.69	7.53	
2025-01-12 10:55:27.78	357.65	7.54	
2025-01-12 10:55:27.99	357.62	7.55	
2025-01-12 10:55:28.19	357.59	7.56	
2025-01-12 10:55:28.40	357.56	7.57	
2025-01-12 10:55:28.60	357.53	7.58	
2025-01-12 10:55:28.82	357.50	7.59	
2025-01-12 10:55:29.02	357.47	7.60	
2025-01-12 10:55:29.23	357.44	7.61	
2025-01-12 10:55:29.44	357.40	7.63	
2025-01-12 10:55:29.64	357.37	7.63	
2025-01-12 10:55:29.85	357.34	7.65	
2025-01-12 10:55:30.05	357.31	7.65	
2025-01-12 10:55:30.26	357.28	7.67	
2025-01-12 10:55:30.46	357.25	7.67	
2025-01-12 10:55:30.67	357.22	7.69	
2025-01-12 10:55:30.87	357.19	7.69	
2025-01-12 10:55:31.08	357.15	7.71	
2025-01-12 10:55:31.28	357.12	7.71	
2025-01-12 10:55:31.49	357.09	7.73	
2025-01-12 10:55:31.70	357.06	7.74	
2025-01-12 10:55:31.90	357.03	7.75	
2025-01-12 10:55:32.11	357.00	7.76	
2025-01-12 10:55:32.31	356.97	7.76	
2025-01-12 10:55:32.52	356.93	7.78	
2025-01-12 10:55:32.72	356.90	7.78	
2025-01-12 10:55:32.93	356.87	7.80	
2025-01-12 10:55:33.13	356.84	7.80	
2025-01-12 10:55:33.34	356.81	7.81	
2025-01-12 10:55:33.54	356.78	7.82	
2025-01-12 10:55:33.74	356.75	7.83	
2025-01-12 10:55:33.95	356.71	7.84	
2025-01-12 10:55:34.15	356.68	7.85	
2025-01-12 10:55:34.36	356.65	7.86	
2025-01-12 10:55:34.57	356.62	7.87	
2025-01-12 10:55:34.77	356.59	7.88	
2025-01-12 10:55:34.98	356.56	7.89	
2025-01-12 10:55:35.18	356.52	7.90	
2025-01-12 10:55:35.39	356.49	7.91	
2025-01-12 10:55:35.59	356.46	7.92	
2025-01-12 10:55:35.80	356.43	7.93	
2025-01-12 10:55:36.00	356.40	7.94	
2025-01-12 10:55:36.21	356.37	7.95	
2025-01-12 10:55:36.41	356.33	7.96	
2025-01-12 10:55:36.62	356.30	7.97	
2025-01-12 10:55:36.83	356.27	7.98	
2025-01-12 10:55:37.03	356.24	7.99	
2025-01-12 10:55:37.24	356.20	8.00	
2025-01-12 10:55:37.44	356.17	8.01	
2025-01-12 10:55:37.65	356.14	8.02	
2025-01-12 10:55:37.85	356.11	8.03	
2025-01-12 10:55:38.06	356.08	8.04	
2025-01-12 10:55:38.26	356.05	8.05	
2025-01-12 10:55:38.47	356.01	8.06	
2025-01-12 10:55:38.67	355.98	8.07	
2025-01-12 10:55:38.88	355.95	8.08	
2025-01-12 10:55:39.08	355.92	8.09	
2025-01-12 10:55:39.29	355.88	8.10	
2025-01-12 10:55:39.49	355.85	8.11	
2025-01-12 10:55:39.70	355.82	8.12	
2025-01-12 10:55:39.91	355.79	8.13	
2025-01-12 10:55:40.11	355.75	8.14	
2025-01-12 10:55:40.32	355.72	8.15	
2025-01-12 10:55:40.52	355.69	8.16	
2025-01-12 10:55:40.73	355.66	8.17	
2025-01-12 10:55:40.93	355.63	8.18	
2025-01-12 10:55:41.14	355.59	8.19	
2025-01-12 10:55:41.35	355.56	8.20	
2025-01-12 10:55:41.55	355.53	8.21	
2025-01-12 10:55:41.76	355.49	8.22	
2025-01-12 10:55:41.96	355.46	8.23	
2025-01-12 10:55:42.17	355.43	8.24	
2025-01-12 10:55:42.37	355.40	8.25	
2025-01-12 10:55:42.58	355.36	8.26	
2025-01-12 10:55:42.78	355.33	8.27	
2025-01-12 10:55:42.99	355.30	8.28	
2025-01-12 10:55:43.20	355.26	8.29	
2025-01-12 10:55:43.40	355.23	8.30	
2025-01-12 10:55:43.61	355.20	8.31	
2025-01-12 10:55:43.81	355.17	8.32	
2025-01-12 10:55:44.02	355.13	8.33	
2025-01-12 10:55:44.22	355.10	8.34	
2025-01-12 10:55:44.42	355.07	8.35	
2025-01-12 10:55:44.63	355.04	8.36	
2025-01-12 10:55:44.84	355.00	8.37	
2025-01-12 10:55:45.04	354.97	8.38	
2025-01-12 10:55:45.25	354.94	8.39	
2025-01-12 10:55:45.45	354.90	8.40	
2025-01-12 10:55:45.66	354.87	8.41	
2025-01-12 10:55:45.88	354.84	8.42	
2025-01-12 10:55:46.08	354.80	8.43	
2025-01-12 10:55:46.29	354.77	8.44	
2025-01-12 10:55:46.49	354.74	8.44	
2025-01-12 10:55:46.70	354.70	8.45	
2025-01-12 10:55:46.90	354.67	8.46	
2025-01-12 10:55:47.10	354.64	8.47	
2025-01-12 10:55:47.31	354.60	8.48	
2025-01-12 10:55:47.52	354.57	8.49	
2025-01-12 10:55:47.72	354.54	8.50	
2025-01-12 10:55:47.93	354.50	8.51	
2025-01-12 10:55:48.13	354.47	8.52	
2025-01-12 10:55:48.34	354.44	8.53	
2025-01-12 10:55:48.54	354.41	8.54	
2025-01-12 10:55:48.75	354.37	8.55	
2025-01-12 10:55:48.95	354.34	8.56	
2025-01-12 10:55:49.16	354.30	8.57	
2025-01-12 10:55:49.36	354.27	8.58	
2025-01-12 10:55:49.57	354.24	8.59	
2025-01-12 10:55:49.77	354.21	8.60	
2025-01-12 10:55:49.98	354.17	8.61	
2025-01-12 10:55:50.19	354.14	8.62	
2025-01-12 10:55:50.40	354.10	8.63	
2025-01-12 10:55:50.61	354.07	8.64	
2025-01-12 10:55:50.81	354.04	8.65	
2025-01-12 10:55:51.02	354.00	8.66	
2025-01-12 10:55:51.22	353.97	8.67	
2025-01-12 10:55:51.42	353.94	8.68	
2025-01-12 10:55:51.63	353.90	8.69	
2025-01-12 10:55:51.84	353.87	8.70	
2025-01-12 10:55:52.04	353.83	8.71	
2025-01-12 10:55:52.25	353.80	8.72	
2025-01-12 10:55:52.45	353.77	8.72	
2025-01-12 10:55:52.66	353.73	8.73	
2025-01-12 10:55:52.86	353.70	8.74	
2025-01-12 10:55:53.07	353.66	8.75	
2025-01-12 10:55:53.27	353.63	8.76	
2025-01-12 10:55:53.48	353.60	8.77	
2025-01-12 10:55:53.68	353.56	8.78	
2025-01-12 10:55:53.89	353.53	8.79	
2025-01-12 10:55:54.10	353.49	8.80	
2025-01-12 10:55:54.30	353.46	8.81	
2025-01-12 10:55:54.50	353.43	8.82	
2025-01-12 10:55:54.71	353.39	8.83	
2025-01-12 10:55:54.91	353.36	8.84	
2025-01-12 10:55:55.12	353.32	8.85	
2025-01-12 10:55:55.33	353.29	8.86	
2025-01-12 10:55:55.53	353.26	8.87	
2025-01-12 10:55:55.74	353.22	8.88	
2025-01-12 10:55:55.94	353.19	8.89	
2025-01-12 10:55:56.15	353.15	8.90	
2025-01-12 10:55:56.36	353.12	8.91	
2025-01-12 10:55:56.56	353.08	8.92	
2025-01-12 10:55:56.76	353.05	8.92	
2025-01-12 10:55:56.97	353.02	8.93	
2025-01-12 10:55:57.18	352.98	8.94	
2025-01-12 10:55:57.38	352.95	8.95	
2025-01-12 10:55:57.59	352.91	8.96	
2025-01-12 10:55:57.79	352.88	8.97	
2025-01-12 10:55:58.00	352.84	8.98	
2025-01-12 10:55:58.20	352.81	8.99	
2025-01-12 10:55:58.41	352.77	9.00	
2025-01-12 10:55:58.61	352.74	9.01	
2025-01-12 10:55:58.82	352.70	9.02	
2025-01-12 10:55:59.03	352.67	9.03	
2025-01-12 10:55:59.23	352.64	9.04	
2025-01-12 10:55:59.44	352.60	9.05	
2025-01-12 10:55:59.64	352.57	9.06	
2025-01-12 10:55:59.85	352.53	9.07	
2025-01-12 10:56:00.05	352.50	9.08	
2025-01-12 10:56:00.26	352.46	9.09	
2025-01-12 10:56:00.46	352.43	9.09	
2025-01-12 10:56:00.67	352.39	9.10	
2025-01-12 10:56:00.87	352.36	9.11	
2025-01-12 10:56:01.08	352.32	9.12	
2025-01-12 10:56:01.29	352.29	9.13	
2025-01-12 10:56:01.49	352.25	9.14	
2025-01-12 10:56:01.70	352.22	9.15	
2025-01-12 10:56:01.92	352.18	9.16	
2025-01-12 10:56:02.12	352.15	9.17	
2025-01-12 10:56:02.33	352.11	9.18	
2025-01-12 10:56:02.53	352.08	9.19	
2025-01-12 10:56:02.74	352.04	9.20	
2025-01-12 10:56:02.94	352.01	9.21	
2025-01-12 10:56:03.14	351.97	9.22	
2025-01-12 10:56:03.35	351.94	9.23	
2025-01-12 10:56:03.55	351.90	9.23	
2025-01-12 10:56:03.76	351.87	9.24	
2025-01-12 10:56:03.96	351.83	9.25	
2025-01-12 10:56:04.17	351.79	9.26	
2025-01-12 10:56:04.37	351.76	9.27	
2025-01-12 10:56:04.58	351.72	9.28	
2025-01-12 10:56:04.78	351.69	9.29	
2025-01-12 10:56:05.00	351.65	9.30	
2025-01-12 10:56:05.20	351.62	9.31	
2025-01-12 10:56:05.41	351.58	9.32	
2025-01-12 10:56:05.61	351.55	9.33	
2025-01-12 10:56:05.82	351.51	9.34	
2025-01-12 10:56:06.02	351.48	9.35	
2025-01-12 10:56:06.23	351.44	9.36	
2025-01-12 10:56:06.43	351.41	9.36	
2025-01-12 10:56:06.64	351.37	9.37	
2025-01-12 10:56:06.84	351.33	9.38	
2025-01-12 10:56:07.05	351.30	9.39	
2025-01-12 10:56:07.25	351.26	9.40	
2025-01-12 10:56:07.46	351.23	9.41	
2025-01-12 10:56:07.67	351.19	9.42	
2025-01-12 10:56:07.87	351.16	9.43	
2025-01-12 10:56:08.08	351.12	9.44	
2025-01-12 10:56:08.28	351.08	9.45	
2025-01-12 10:56:08.49	351.05	9.46	
2025-01-12 10:56:08.70	351.01	9.47	
2025-01-12 10:56:08.90	350.98	9.47	
2025-01-12 10:56:09.11	350.94	9.48	
2025-01-12 10:56:09.31	350.91	9.49	
2025-01-12 10:56:09.51	350.87	9.50	
2025-01-12 10:56:09.72	350.83	9.51	
2025-01-12 10:56:09.93	350.80	9.52	
2025-01-12 10:56:10.13	350.76	9.53	
2025-01-12 10:56:10.33	350.73	9.54	
2025-01-12 10:56:10.54	350.69	9.55	
2025-01-12 10:56:10.75	350.65	9.56	
2025-01-12 10:56:10.95	350.62	9.56	
2025-01-12 10:56:11.16	350.58	9.57	
2025-01-12 10:56:11.36	350.55	9.58	
2025-01-12 10:56:11.57	350.51	9.59	
2025-01-12 10:56:11.77	350.47	9.60	
2025-01-12 10:56:11.98	350.44	9.61	
2025-01-12 10:56:12.18	350.40	9.62	
2025-01-12 10:56:12.39	350.36	9.63	
2025-01-12 10:56:12.59	350.33	9.64	
2025-01-12 10:56:12.80	350.29	9.65	
2025-01-12 10:56:13.00	350.26	9.66	
2025-01-12 10:56:13.21	350.22	9.66	
2025-01-12 10:56:13.42	350.18	9.67	
2025-01-12 10:56:13.62	350.15	9.68	
2025-01-12 10:56:13.82	350.11	9.69	
2025-01-12 10:56:14.03	350.07	9.70	
2025-01-12 10:56:14.25	350.04	9.71	
2025-01-12 10:56:14.46	350.00	9.72	
2025-01-12 10:56:14.66	349.96	9.73	
2025-01-12 10:56:14.87	349.93	9.74	
2025-01-12 10:56:15.07	349.89	9.75	
2025-01-12 10:56:15.28	349.85	9.75	
2025-01-12 10:56:15.48	349.82	9.76	
2025-01-12 10:56:15.68	349.78	9.77	
2025-01-12 10:56:15.89	349.74	9.78	
2025-01-12 10:56:16.10	349.71	9.79	
2025-01-12 10:56:16.30	349.67	9.80	
2025-01-12 10:56:16.51	349.63	9.81	
2025-01-12 10:56:16.71	349.60	9.82	
2025-01-12 10:56:16.91	349.56	9.82	
2025-01-12 10:56:17.12	349.52	9.83	
2025-01-12 10:56:17.33	349.49	9.84	
2025-01-12 10:56:17.53	349.45	9.85	
2025-01-12 10:56:17.74	349.41	9.86	
2025-01-12 10:56:17.94	349.38	9.87	
2025-01-12 10:56:18.15	349.34	9.88	
2025-01-12 10:56:18.35	349.30	9.89	
2025-01-12 10:56:18.56	349.27	9.90	
2025-01-12 10:56:18.76	349.23	9.90	
2025-01-12 10:56:18.97	349.19	9.91	
2025-01-12 10:56:19.17	349.16	9.92	
2025-01-12 10:56:19.38	349.12	9.93	
2025-01-12 10:56:19.58	349.08	9.94	
2025-01-12 10:56:19.79	349.04	9.95	
2025-01-12 10:56:20.00	349.01	9.96	
2025-01-12 10:56:20.21	348.97	9.97	
2025-01-12 10:56:20.41	348.93	9.97	
2025-01-12 10:56:20.62	348.89	9.98	
2025-01-12 10:56:20.83	348.86	9.99	
2025-01-12 10:56:21.03	348.82	10.00	
2025-01-12 10:56:21.23	348.78	10.01	
2025-01-12 10:56:21.44	348.74	10.02	
2025-01-12 10:56:21.65	348.71	10.03	
2025-01-12 10:56:21.85	348.67	10.04	
2025-01-12 10:56:22.06	348.63	10.04	
2025-01-12 10:56:22.26	348.60	10.05	
2025-01-12 10:56:22.47	348.56	10.06	
2025-01-12 10:56:22.68	348.52	10.07	
2025-01-12 10:56:22.89	348.48	10.08	
2025-01-12 10:56:23.09	348.44	10.09	
2025-01-12 10:56:23.30	348.41	10.10	
2025-01-12 10:56:23.51	348.37	10.11	
2025-01-12 10:56:23.71	348.33	10.11	
2025-01-12 10:56:23.92	348.29	10.12	
2025-01-12 10:56:24.12	348.26	10.13	
2025-01-12 10:56:24.33	348.22	10.14	
2025-01-12 10:56:24.53	348.18	10.15	
2025-01-12 10:56:24.74	348.14	10.16	
2025-01-12 10:56:24.94	348.11	10.17	
2025-01-12 10:56:25.15	348.07	10.17	
2025-01-12 10:56:25.35	348.03	10.18	
2025-01-12 10:56:25.56	347.99	10.19	
2025-01-12 10:56:25.76	347.95	10.20	
2025-01-12 10:56:25.97	347.92	10.21	
2025-01-12 10:56:26.18	347.88	10.22	
2025-01-12 10:56:26.38	347.84	10.23	
2025-01-12 10:56:26.59	347.80	10.23	
2025-01-12 10:56:26.79	347.76	10.24	
2025-01-12 10:56:27.00	347.73	10.25	
2025-01-12 10:56:27.20	347.69	10.26	
2025-01-12 10:56:27.41	347.65	10.27	
2025-01-12 10:56:27.61	347.61	10.28	
2025-01-12 10:56:27.82	347.57	10.28	
2025-01-12 10:56:28.02	347.54	10.29	
2025-01-12 10:56:28.23	347.50	10.30	
2025-01-12 10:56:28.43	347.46	10.31	
2025-01-12 10:56:28.63	347.42	10.32	
2025-01-12 10:56:28.84	347.38	10.33	
2025-01-12 10:56:29.05	347.35	10.34	
2025-01-12 10:56:29.25	347.31	10.34	
2025-01-12 10:56:29.46	347.27	10.35	
2025-01-12 10:56:29.66	347.23	10.36	
2025-01-12 10:56:29.87	347.19	10.37	
2025-01-12 10:56:30.07	347.16	10.38	
2025-01-12 10:56:30.28	347.12	10.39	
2025-01-12 10:56:30.48	347.08	10.39	
2025-01-12 10:56:30.70	347.04	10.40	
2025-01-12 10:56:30.91	347.00	10.41	
2025-01-12 10:56:31.11	346.96	10.42	
2025-01-12 10:56:31.32	346.92	10.43	
2025-01-12 10:56:31.52	346.88	10.44	
2025-01-12 10:56:31.73	346.84	10.44	
2025-01-12 10:56:31.93	346.81	10.45	
2025-01-12 10:56:32.14	346.77	10.46	
2025-01-12 10:56:32.34	346.73	10.47	
2025-01-12 10:56:32.55	346.69	10.48	
2025-01-12 10:56:32.75	346.65	10.49	
2025-01-12 10:56:32.96	346.61	10.49	
2025-01-12 10:56:33.16	346.58	10.50	
2025-01-12 10:56:33.37	346.54	10.51	
2025-01-12 10:56:33.57	346.50	10.52	
2025-01-12 10:56:33.78	346.46	10.53	
2025-01-12 10:56:33.99	346.42	10.53	
2025-01-12 10:56:34.19	346.38	10.54	
2025-01-12 10:56:34.39	346.34	10.55	
2025-01-12 10:56:34.60	346.30	10.56	
2025-01-12 10:56:34.81	346.26	10.57	
2025-01-12 10:56:35.01	346.23	10.58	
2025-01-12 10:56:35.21	346.19	10.58	
2025-01-12 10:56:35.42	346.15	10.59	
2025-01-12 10:56:35.62	346.11	10.60	
2025-01-12 10:56:35.83	346.07	10.61	
2025-01-12 10:56:36.03	346.03	10.62	
2025-01-12 10:56:36.24	345.99	10.62	
2025-01-12 10:56:36.44	345.96	10.63	
2025-01-12 10:56:36.65	345.92	10.64	
2025-01-12 10:56:36.86	345.88	10.65	
2025-01-12 10:56:37.07	345.84	10.66	
2025-01-12 10:56:37.28	345.80	10.66	
2025-01-12 10:56:37.48	345.76	10.67	
2025-01-12 10:56:37.69	345.72	10.68	
2025-01-12 10:56:37.90	345.68	10.69	
2025-01-12 10:56:38.10	345.64	10.70	
2025-01-12 10:56:38.30	345.60	10.70	
2025-01-12 10:56:38.51	345.56	10.71	
2025-01-12 10:56:38.72	345.52	10.72	
2025-01-12 10:56:38.92	345.48	10.73	
2025-01-12 10:56:39.12	345.44	10.74	
2025-01-12 10:56:39.33	345.40	10.74	
2025-01-12 10:56:39.53	345.36	10.75	
2025-01-12 10:56:39.74	345.32	10.76	
2025-01-12 10:56:39.94	345.29	10.77	
2025-01-12 10:56:40.15	345.25	10.78	
2025-01-12 10:56:40.37	345.20	10.78	
2025-01-12 10:56:40.57	345.16	10.79	
2025-01-12 10:56:40.78	345.12	10.80	
2025-01-12 10:56:40.98	345.09	10.81	
2025-01-12 10:56:41.19	345.05	10.82	
2025-01-12 10:56:41.39	345.01	10.82	
2025-01-12 10:56:41.60	344.97	10.83	
2025-01-12 10:56:41.80	344.93	10.84	
2025-01-12 10:56:42.01	344.89	10.85	
2025-01-12 10:56:42.21	344.85	10.85	
2025-01-12 10:56:42.41	344.81	10.86	
2025-01-12 10:56:42.62	344.77	10.87	
2025-01-12 10:56:42.83	344.73	10.88	
2025-01-12 10:56:43.03	344.69	10.89	
2025-01-12 10:56:43.24	344.65	10.89	
2025-01-12 10:56:43.44	344.61	10.90	
2025-01-12 10:56:43.65	344.57	10.91	
2025-01-12 10:56:43.85	344.53	10.92	
2025-01-12 10:56:44.06	344.49	10.92	
2025-01-12 10:56:44.26	344.45	10.93	
2025-01-12 10:56:44.47	344.41	10.94	
2025-01-12 10:56:44.67	344.37	10.95	
2025-01-12 10:56:44.88	344.33	10.96	
2025-01-12 10:56:45.08	344.29	10.96	
2025-01-12 10:56:45.29	344.25	10.97	
2025-01-12 10:56:45.49	344.21	10.98	
2025-01-12 10:56:45.71	344.17	10.99	
2025-01-12 10:56:45.92	344.13	10.99	
2025-01-12 10:56:46.12	344.09	11.00	
2025-01-12 10:56:46.33	344.05	11.01	
2025-01-12 10:56:46.54	344.01	11.02	
2025-01-12 10:56:46.74	343.97	11.02	
2025-01-12 10:56:46.94	343.93	11.03	
2025-01-12 10:56:47.15	343.89	11.04	
2025-01-12 10:56:47.35	343.85	11.05	
2025-01-12 10:56:47.56	343.81	11.06	
2025-01-12 10:56:47.76	343.77	11.06	
2025-01-12 10:56:47.97	343.73	11.07	
2025-01-12 10:56:48.17	343.69	11.08	
2025-01-12 10:56:48.38	343.64	11.09	
2025-01-12 10:56:48.58	343.61	11.09	
2025-01-12 10:56:48.79	343.56	11.10	
2025-01-12 10:56:48.99	343.52	11.11	
2025-01-12 10:56:49.20	343.48	11.11	
2025-01-12 10:56:49.40	343.44	11.12	
2025-01-12 10:56:49.61	343.40	11.13	
2025-01-12 10:56:49.81	343.36	11.14	
2025-01-12 10:56:50.02	343.32	11.14	
2025-01-12 10:56:50.22	343.28	11.15	
2025-01-12 10:56:50.43	343.24	11.16	
2025-01-12 10:56:50.63	343.20	11.17	
2025-01-12 10:56:50.84	343.16	11.17	
2025-01-12 10:56:51.04	343.12	11.18	
2025-01-12 10:56:51.25	343.08	11.19	
2025-01-12 10:56:51.46	343.04	11.20	
2025-01-12 10:56:51.66	343.00	11.20	
2025-01-12 10:56:51.87	342.95	11.21	
2025-01-12 10:56:52.07	342.92	11.22	
2025-01-12 10:56:52.28	342.87	11.23	
2025-01-12 10:56:52.48	342.83	11.23	
2025-01-12 10:56:52.69	342.79	11.24	
2025-01-12 10:56:52.89	342.75	11.25	
2025-01-12 10:56:53.10	342.71	11.25	
2025-01-12 10:56:53.30	342.67	11.26	
2025-01-12 10:56:53.51	342.63	11.27	
2025-01-12 10:56:53.71	342.59	11.28	
2025-01-12 10:56:53.92	342.55	11.28	
2025-01-12 10:56:54.12	342.51	11.29	
2025-01-12 10:56:54.33	342.46	11.30	
2025-01-12 10:56:54.53	342.42	11.31	
2025-01-12 10:56:54.74	342.38	11.31	
2025-01-12 10:56:54.95	342.34	11.32	
2025-01-12 10:56:55.15	342.30	11.33	
2025-01-12 10:56:55.35	342.26	11.33	
2025-01-12 10:56:55.56	342.22	11.34	
2025-01-12 10:56:55.76	342.18	11.35	
2025-01-12 10:56:55.97	342.14	11.36	
2025-01-12 10:56:56.17	342.10	11.36	
2025-01-12 10:56:56.38	342.05	11.37	
2025-01-12 10:56:56.59	342.01	11.38	
2025-01-12 10:56:56.79	341.97	11.38	
2025-01-12 10:56:57.00	341.93	11.39	
2025-01-12 10:56:57.20	341.89	11.40	
2025-01-12 10:56:57.41	341.85	11.40	
2025-01-12 10:56:57.61	341.81	11.41	
2025-01-12 10:56:57.82	341.76	11.42	
2025-01-12 10:56:58.02	341.72	11.43	
2025-01-12 10:56:58.23	341.68	11.43	
2025-01-12 10:56:58.43	341.64	11.44	
2025-01-12 10:56:58.64	341.60	11.45	
2025-01-12 10:56:58.84	341.56	11.45	
2025-01-12 10:56:59.05	341.52	11.46	
2025-01-12 10:56:59.25	341.47	11.47	
2025-01-12 10:56:59.46	341.43	11.47	
2025-01-12 10:56:59.66	341.39	11.48	
2025-01-12 10:56:59.87	341.35	11.49	
2025-01-12 10:57:00.07	341.31	11.49	
2025-01-12 10:57:00.28	341.27	11.50	
2025-01-12 10:57:00.48	341.23	11.51	
2025-01-12 10:57:00.69	341.18	11.52	
2025-01-12 10:57:00.89	341.14	11.52	
2025-01-12 10:57:01.10	341.10	11.53	
2025-01-12 10:57:01.30	341.06	11.54	
2025-01-12 10:57:01.51	341.02	11.54	
2025-01-12 10:57:01.71	340.98	11.55	
2025-01-12 10:57:01.92	340.93	11.56	
2025-01-12 10:57:02.12	340.89	11.56	
2025-01-12 10:57:02.33	340.85	11.57	
2025-01-12 10:57:02.53	340.81	11.58	
2025-01-12 10:57:02.74	340.76	11.58	
2025-01-12 10:57:02.94	340.72	11.59	
2025-01-12 10:57:03.15	340.68	11.60	
2025-01-12 10:57:03.35	340.64	11.60	
2025-01-12 10:57:03.55	340.60	11.61	
2025-01-12 10:57:03.76	340.56	11.62	
2025-01-12 10:57:03.97	340.51	11.62	
2025-01-12 10:57:04.17	340.47	11.63	
2025-01-12 10:57:04.37	340.43	11.64	
2025-01-12 10:57:04.58	340.39	11.64	
2025-01-12 10:57:04.80	340.34	11.65	
2025-01-12 10:57:05.00	340.30	11.66	
2025-01-12 10:57:05.21	340.26	11.66	
2025-01-12 10:57:05.41	340.22	11.67	
2025-01-12 10:57:05.62	340.17	11.68	
2025-01-12 10:57:05.82	340.13	11.68	
2025-01-12 10:57:06.03	340.09	11.69	
2025-01-12 10:57:06.23	340.05	11.70	
2025-01-12 10:57:06.44	340.01	11.70	
2025-01-12 10:57:06.64	339.96	11.71	
2025-01-12 10:57:06.85	339.92	11.71	
2025-01-12 10:57:07.05	339.88	11.72	
2025-01-12 10:57:07.26	339.84	11.73	
2025-01-12 10:57:07.46	339.80	11.73	
2025-01-12 10:57:07.67	339.75	11.74	
2025-01-12 10:57:07.87	339.71	11.75	
2025-01-12 10:57:08.07	339.67	11.75	
2025-01-12 10:57:08.28	339.63	11.76	
2025-01-12 10:57:08.49	339.58	11.77	
2025-01-12 10:57:08.69	339.54	11.77	
2025-01-12 10:57:08.90	339.50	11.78	
2025-01-12 10:57:09.10	339.46	11.78	
2025-01-12 10:57:09.31	339.41	11.79	
2025-01-12 10:57:09.51	339.37	11.80	
2025-01-12 10:57:09.72	339.33	11.80	
2025-01-12 10:57:09.92	339.29	11.81	
2025-01-12 10:57:10.14	339.24	11.82	
2025-01-12 10:57:10.35	339.20	11.82	
2025-01-12 10:57:10.55	339.16	11.83	
2025-01-12 10:57:10.76	339.11	11.84	
2025-01-12 10:57:10.97	339.07	11.84	
2025-01-12 10:57:11.17	339.03	11.85	
2025-01-12 10:57:11.38	338.98	11.85	
2025-01-12 10:57:11.58	338.94	11.86	
2025-01-12 10:57:11.79	338.90	11.87	
2025-01-12 10:57:11.99	338.86	11.87	
2025-01-12 10:57:12.20	338.81	11.88	
2025-01-12 10:57:12.40	338.77	11.89	
2025-01-12 10:57:12.61	338.73	11.89	
2025-01-12 10:57:12.81	338.68	11.90	
2025-01-12 10:57:13.02	338.64	11.90	
2025-01-12 10:57:13.22	338.60	11.91	
2025-01-12 10:57:13.43	338.55	11.92	
2025-01-12 10:57:13.64	338.51	11.92	
2025-01-12 10:57:13.85	338.47	11.93	
2025-01-12 10:57:14.06	338.42	11.93	
2025-01-12 10:57:14.26	338.38	11.94	
2025-01-12 10:57:14.46	338.34	11.95	
2025-01-12 10:57:14.67	338.29	11.95	
2025-01-12 10:57:14.87	338.25	11.96	
2025-01-12 10:57:15.08	338.21	11.96	
2025-01-12 10:57:15.29	338.16	11.97	
2025-01-12 10:57:15.51	338.12	11.98	
2025-01-12 10:57:15.71	338.08	11.98	
2025-01-12 10:57:15.92	338.03	11.99	
2025-01-12 10:57:16.12	337.99	11.99	
2025-01-12 10:57:16.33	337.95	12.00	
2025-01-12 10:57:16.53	337.90	12.01	
2025-01-12 10:57:16.74	337.86	12.01	
2025-01-12 10:57:16.95	337.81	12.02	
2025-01-12 10:57:17.15	337.77	12.02	
2025-01-12 10:57:17.36	337.73	12.03	
2025-01-12 10:57:17.56	337.69	12.03	
2025-01-12 10:57:17.77	337.64	12.04	
2025-01-12 10:57:17.97	337.60	12.05	
2025-01-12 10:57:18.18	337.55	12.05	
2025-01-12 10:57:18.38	337.51	12.06	
2025-01-12 10:57:18.59	337.47	12.06	
2025-01-12 10:57:18.79	337.43	12.07	
2025-01-12 10:57:19.00	337.38	12.07	
2025-01-12 10:57:19.20	337.34	12.08	
2025-01-12 10:57:19.41	337.29	12.09	
2025-01-12 10:57:19.62	337.25	12.09	
2025-01-12 10:57:19.82	337.21	12.10	
2025-01-12 10:57:20.03	337.16	12.10	
2025-01-12 10:57:20.23	337.12	12.11	
2025-01-12 10:57:20.44	337.08	12.11	
2025-01-12 10:57:20.64	337.03	12.12	
2025-01-12 10:57:20.85	336.99	12.13	
2025-01-12 10:57:21.05	336.95	12.13	
2025-01-12 10:57:21.26	336.90	12.14	
2025-01-12 10:57:21.46	336.86	12.14	
2025-01-12 10:57:21.67	336.81	12.15	
2025-01-12 10:57:21.89	336.77	12.15	
2025-01-12 10:57:22.09	336.72	12.16	
2025-01-12 10:57:22.30	336.68	12.16	
2025-01-12 10:57:22.51	336.63	12.17	
2025-01-12 10:57:22.71	336.59	12.18	
2025-01-12 10:57:22.92	336.55	12.18	
2025-01-12 10:57:23.12	336.50	12.19	
2025-01-12 10:57:23.33	336.46	12.19	
2025-01-12 10:57:23.53	336.42	12.20	
2025-01-12 10:57:23.74	336.37	12.20	
2025-01-12 10:57:23.94	336.33	12.21	
2025-01-12 10:57:24.15	336.28	12.21	
2025-01-12 10:57:24.35	336.24	12.22	
2025-01-12 10:57:24.56	336.20	12.22	
2025-01-12 10:57:24.77	336.15	12.23	
2025-01-12 10:57:24.97	336.11	12.23	
2025-01-12 10:57:25.17	336.07	12.24	
2025-01-12 10:57:25.38	336.02	12.24	
2025-01-12 10:57:25.59	335.98	12.25	
2025-01-12 10:57:25.79	335.93	12.26	
2025-01-12 10:57:26.00	335.89	12.26	
2025-01-12 10:57:26.20	335.84	12.27	
2025-01-12 10:57:26.41	335.80	12.27	
2025-01-12 10:57:26.62	335.75	12.28	
2025-01-12 10:57:26.82	335.71	12.28	
2025-01-12 10:57:27.03	335.67	12.29	
2025-01-12 10:57:27.23	335.62	12.29	
2025-01-12 10:57:27.44	335.58	12.30	
2025-01-12 10:57:27.64	335.53	12.30	
2025-01-12 10:57:27.85	335.49	12.31	
2025-01-12 10:57:28.05	335.45	12.31	
2025-01-12 10:57:28.26	335.40	12.32	
2025-01-12 10:57:28.46	335.36	12.32	
2025-01-12 10:57:28.67	335.31	12.33	
2025-01-12 10:57:28.87	335.27	12.33	
2025-01-12 10:57:29.08	335.22	12.34	
2025-01-12 10:57:29.28	335.18	12.34	
2025-01-12 10:57:29.49	335.14	12.35	
2025-01-12 10:57:29.69	335.09	12.35	
2025-01-12 10:57:29.90	335.05	12.36	
2025-01-12 10:57:30.11	335.00	12.36	
2025-01-12 10:57:30.31	334.96	12.37	
2025-01-12 10:57:30.51	334.92	12.37	
2025-01-12 10:57:30.72	334.87	12.38	
2025-01-12 10:57:30.93	334.82	12.38	
2025-01-12 10:57:31.13	334.78	12.39	
2025-01-12 10:57:31.34	334.74	12.39	
2025-01-12 10:57:31.56	334.69	12.40	
2025-01-12 10:57:31.76	334.64	12.40	
2025-01-12 10:57:31.97	334.60	12.41	
2025-01-12 10:57:32.18	334.55	12.41	
2025-01-12 10:57:32.38	334.51	12.42	
2025-01-12 10:57:32.58	334.47	12.42	
2025-01-12 10:57:32.79	334.42	12.42	
2025-01-12 10:57:33.00	334.37	12.43	
2025-01-12 10:57:33.20	334.33	12.43	
2025-01-12 10:57:33.41	334.29	12.44	
2025-01-12 10:57:33.61	334.24	12.44	
2025-01-12 10:57:33.81	334.20	12.45	
2025-01-12 10:57:34.02	334.15	12.45	
2025-01-12 10:57:34.23	334.11	12.46	
2025-01-12 10:57:34.43	334.06	12.46	
2025-01-12 10:57:34.63	334.02	12.47	
2025-01-12 10:57:34.84	333.97	12.47	
2025-01-12 10:57:35.05	333.93	12.48	
2025-01-12 10:57:35.25	333.88	12.48	
2025-01-12 10:57:35.46	333.84	12.48	
2025-01-12 10:57:35.66	333.79	12.49	
2025-01-12 10:57:35.87	333.75	12.49	
2025-01-12 10:57:36.07	333.71	12.50	
2025-01-12 10:57:36.28	333.66	12.50	
2025-01-12 10:57:36.48	333.62	12.51	
2025-01-12 10:57:36.69	333.57	12.51	
2025-01-12 10:57:36.90	333.52	12.52	
2025-01-12 10:57:37.12	333.48	12.52	
2025-01-12 10:57:37.33	333.43	12.53	
2025-01-12 10:57:37.53	333.39	12.53	
2025-01-12 10:57:37.74	333.34	12.53	
2025-01-12 10:57:37.94	333.30	12.54	
2025-01-12 10:57:38.15	333.25	12.54	
2025-01-12 10:57:38.36	333.20	12.55	
2025-01-12 10:57:38.56	333.16	12.55	
2025-01-12 10:57:38.77	333.11	12.56	
2025-01-12 10:57:38.98	333.07	12.56	
2025-01-12 10:57:39.19	333.02	12.56	
2025-01-12 10:57:39.39	332.98	12.57	
2025-01-12 10:57:39.60	332.93	12.57	
2025-01-12 10:57:39.81	332.89	12.58	
2025-01-12 10:57:40.01	332.84	12.58	
2025-01-12 10:57:40.22	332.80	12.59	
2025-01-12 10:57:40.42	332.75	12.59	
2025-01-12 10:57:40.63	332.70	12.59	
2025-01-12 10:57:40.84	332.66	12.60	
2025-01-12 10:57:41.04	332.61	12.60	
2025-01-12 10:57:41.24	332.57	12.61	
2025-01-12 10:57:41.45	332.52	12.61	
2025-01-12 10:57:41.66	332.48	12.61	
2025-01-12 10:57:41.86	332.43	12.62	
2025-01-12 10:57:42.06	332.39	12.62	
2025-01-12 10:57:42.27	332.34	12.63	
2025-01-12 10:57:42.47	332.30	12.63	
2025-01-12 10:57:42.68	332.25	12.63	
2025-01-12 10:57:42.89	332.21	12.64	
2025-01-12 10:57:43.09	332.16	12.64	
2025-01-12 10:57:43.31	332.11	12.65	
2025-01-12 10:57:43.51	332.07	12.65	
2025-01-12 10:57:43.72	332.02	12.65	
2025-01-12 10:57:43.92	331.98	12.66	
2025-01-12 10:57:44.13	331.93	12.66	
2025-01-12 10:57:44.34	331.89	12.67	
2025-01-12 10:57:44.54	331.84	12.67	
2025-01-12 10:57:44.75	331.80	12.67	
2025-01-12 10:57:44.95	331.75	12.68	
2025-01-12 10:57:45.16	331.70	12.68	
2025-01-12 10:57:45.37	331.66	12.68	
2025-01-12 10:57:45.57	331.61	12.69	
2025-01-12 10:57:45.78	331.57	12.69	
2025-01-12 10:57:45.98	331.52	12.70	
2025-01-12 10:57:46.19	331.48	12.70	
2025-01-12 10:57:46.39	331.43	12.70	
2025-01-12 10:57:46.60	331.38	12.71	
2025-01-12 10:57:46.80	331.34	12.71	
2025-01-12 10:57:47.01	331.29	12.71	
2025-01-12 10:57:47.21	331.25	12.72	
2025-01-12 10:57:47.42	331.20	12.72	
2025-01-12 10:57:47.62	331.16	12.73	
2025-01-12 10:57:47.83	331.11	12.73	
2025-01-12 10:57:48.03	331.07	12.73	
2025-01-12 10:57:48.24	331.02	12.74	
2025-01-12 10:57:48.45	330.97	12.74	
2025-01-12 10:57:48.65	330.93	12.74	
2025-01-12 10:57:48.85	330.88	12.75	
2025-01-12 10:57:49.06	330.84	12.75	
2025-01-12 10:57:49.27	330.79	12.75	
2025-01-12 10:57:49.47	330.75	12.76	
2025-01-12 10:57:49.69	330.70	12.76	
2025-01-12 10:57:49.90	330.65	12.76	
2025-01-12 10:57:50.10	330.61	12.77	
2025-01-12 10:57:50.31	330.56	12.77	
2025-01-12 10:57:50.51	330.51	12.77	
2025-01-12 10:57:50.73	330.47	12.78	
2025-01-12 10:57:50.94	330.42	12.78	
2025-01-12 10:57:51.14	330.37	12.78	
2025-01-12 10:57:51.35	330.33	12.79	
2025-01-12 10:57:51.56	330.28	12.79	
2025-01-12 10:57:51.76	330.24	12.79	
2025-01-12 10:57:51.97	330.19	12.80	
2025-01-12 10:57:52.17	330.14	12.80	
2025-01-12 10:57:52.38	330.10	12.80	
2025-01-12 10:57:52.58	330.05	12.81	
2025-01-12 10:57:52.78	330.01	12.81	
2025-01-12 10:57:52.99	329.96	12.81	
2025-01-12 10:57:53.20	329.91	12.82	
2025-01-12 10:57:53.40	329.87	12.82	
2025-01-12 10:57:53.61	329.82	12.82	
2025-01-12 10:57:53.81	329.78	12.83	
2025-01-12 10:57:54.02	329.73	12.83	
2025-01-12 10:57:54.22	329.68	12.83	
2025-01-12 10:57:54.43	329.64	12.83	
2025-01-12 10:57:54.63	329.59	12.84	
2025-01-12 10:57:54.84	329.55	12.84	
2025-01-12 10:57:55.04	329.50	12.84	
2025-01-12 10:57:55.25	329.45	12.85	
2025-01-12 10:57:55.45	329.41	12.85	
2025-01-12 10:57:55.66	329.36	12.85	
2025-01-12 10:57:55.87	329.31	12.86	
2025-01-12 10:57:56.07	329.27	12.86	
2025-01-12 10:57:56.27	329.23	12.86	
2025-01-12 10:57:56.48	329.18	12.86	
2025-01-12 10:57:56.68	329.13	12.87	
2025-01-12 10:57:56.89	329.09	12.87	
2025-01-12 10:57:57.09	329.04	12.87	
2025-01-12 10:57:57.30	328.99	12.88	
2025-01-12 10:57:57.50	328.95	12.88	
2025-01-12 10:57:57.71	328.90	12.88	
2025-01-12 10:57:57.91	328.86	12.88	
2025-01-12 10:57:58.12	328.81	12.89	
2025-01-12 10:57:58.32	328.76	12.89	
2025-01-12 10:57:58.53	328.72	12.89	
2025-01-12 10:57:58.73	328.67	12.89	
2025-01-12 10:57:58.94	328.62	12.90	
2025-01-12 10:57:59.14	328.58	12.90	
2025-01-12 10:57:59.35	328.53	12.90	
2025-01-12 10:57:59.56	328.48	12.91	
2025-01-12 10:57:59.76	328.44	12.91	
2025-01-12 10:57:59.97	328.39	12.91	
2025-01-12 10:58:00.17	328.35	12.91	
2025-01-12 10:58:00.37	328.30	12.92	
2025-01-12 10:58:00.58	328.26	12.92	
2025-01-12 10:58:00.79	328.21	12.92	
2025-01-12 10:58:00.99	328.16	12.92	
2025-01-12 10:58:01.20	328.12	12.93	
2025-01-12 10:58:01.40	328.07	12.93	
2025-01-12 10:58:01.62	328.02	12.93	
2025-01-12 10:58:01.82	327.98	12.93	
2025-01-12 10:58:02.03	327.93	12.94	
2025-01-12 10:58:02.23	327.88	12.94	
2025-01-12 10:58:02.44	327.84	12.94	
2025-01-12 10:58:02.64	327.79	12.94	
2025-01-12 10:58:02.85	327.74	12.94	
2025-01-12 10:58:03.05	327.70	12.95	
2025-01-12 10:58:03.26	327.65	12.95	
2025-01-12 10:58:03.46	327.60	12.95	
2025-01-12 10:58:03.67	327.56	12.95	
2025-01-12 10:58:03.88	327.51	12.96	
2025-01-12 10:58:04.08	327.46	12.96	
2025-01-12 10:58:04.29	327.42	12.96	
2025-01-12 10:58:04.49	327.37	12.96	
2025-01-12 10:58:04.70	327.32	12.97	
2025-01-12 10:58:04.90	327.28	12.97	
2025-01-12 10:58:05.11	327.23	12.97	
2025-01-12 10:58:05.32	327.18	12.97	
2025-01-12 10:58:05.52	327.14	12.97	
2025-01-12 10:58:05.73	327.09	12.98	
2025-01-12 10:58:05.93	327.05	12.98	
2025-01-12 10:58:06.13	327.00	12.98	
2025-01-12 10:58:06.34	326.95	12.98	
2025-01-12 10:58:06.55	326.91	12.98	
2025-01-12 10:58:06.76	326.86	12.99	
2025-01-12 10:58:06.97	326.81	12.99	
2025-01-12 10:58:07.17	326.76	12.99	
2025-01-12 10:58:07.38	326.72	12.99	
2025-01-12 10:58:07.59	326.67	12.99	
2025-01-12 10:58:07.79	326.62	13.00	
2025-01-12 10:58:08.00	326.58	13.00	
2025-01-12 10:58:08.20	326.53	13.00	
2025-01-12 10:58:08.40	326.49	13.00	
2025-01-12 10:58:08.61	326.44	13.00	
2025-01-12 10:58:08.81	326.39	13.01	
2025-01-12 10:58:09.02	326.34	13.01	
2025-01-12 10:58:09.23	326.30	13.01	
2025-01-12 10:58:09.43	326.25	13.01	
2025-01-12 10:58:09.64	326.20	13.01	
2025-01-12 10:58:09.84	326.16	13.01	
2025-01-12 10:58:10.05	326.11	13.02	
2025-01-12 10:58:10.25	326.07	13.02	
2025-01-12 10:58:10.46	326.02	13.02	
2025-01-12 10:58:10.66	325.97	13.02	
2025-01-12 10:58:10.87	325.92	13.02	
2025-01-12 10:58:11.07	325.88	13.02	
2025-01-12 10:58:11.28	325.83	13.03	
2025-01-12 10:58:11.48	325.79	13.03	
2025-01-12 10:58:11.69	325.74	13.03	
2025-01-12 10:58:11.90	325.69	13.03	
2025-01-12 10:58:12.11	325.64	13.03	
2025-01-12 10:58:12.32	325.59	13.03	
2025-01-12 10:58:12.52	325.55	13.04	
2025-01-12 10:58:12.73	325.50	13.04	
2025-01-12 10:58:12.93	325.46	13.04	
2025-01-12 10:58:13.14	325.41	13.04	
2025-01-12 10:58:13.35	325.36	13.04	
2025-01-12 10:58:13.55	325.31	13.04	
2025-01-12 10:58:13.76	325.27	13.04	
2025-01-12 10:58:13.96	325.22	13.05	
2025-01-12 10:58:14.17	325.17	13.05	
2025-01-12 10:58:14.37	325.13	13.05	
2025-01-12 10:58:14.58	325.08	13.05	
2025-01-12 10:58:14.78	325.03	13.05	
2025-01-12 10:58:14.99	324.99	13.05	
2025-01-12 10:58:15.19	324.94	13.05	
2025-01-12 10:58:15.40	324.89	13.05	
2025-01-12 10:58:15.60	324.85	13.06	
2025-01-12 10:58:15.81	324.80	13.06	
2025-01-12 10:58:16.02	324.75	13.06	
2025-01-12 10:58:16.22	324.71	13.06	
2025-01-12 10:58:16.43	324.66	13.06	
2025-01-12 10:58:16.63	324.61	13.06	
2025-01-12 10:58:16.84	324.57	13.06	
2025-01-12 10:58:17.04	324.52	13.06	
2025-01-12 10:58:17.25	324.47	13.07	
2025-01-12 10:58:17.47	324.42	13.07	
2025-01-12 10:58:17.67	324.38	13.07	
2025-01-12 10:58:17.88	324.33	13.07	
2025-01-12 10:58:18.08	324.28	13.07	
2025-01-12 10:58:18.29	324.23	13.07	
2025-01-12 10:58:18.50	324.19	13.07	
2025-01-12 10:58:18.70	324.14	13.07	
2025-01-12 10:58:18.91	324.09	13.07	
2025-01-12 10:58:19.11	324.05	13.07	
2025-01-12 10:58:19.33	324.00	13.08	
2025-01-12 10:58:19.53	323.95	13.08	
2025-01-12 10:58:19.74	323.90	13.08	
2025-01-12 10:58:19.95	323.86	13.08	
2025-01-12 10:58:20.15	323.81	13.08	
2025-01-12 10:58:20.36	323.76	13.08	
2025-01-12 10:58:20.56	323.72	13.08	
2025-01-12 10:58:20.77	323.67	13.08	
2025-01-12 10:58:20.97	323.62	13.08	
2025-01-12 10:58:21.18	323.58	13.08	
2025-01-12 10:58:21.38	323.53	13.08	
2025-01-12 10:58:21.59	323.48	13.08	
2025-01-12 10:58:21.79	323.44	13.09	
2025-01-12 10:58:22.00	323.39	13.09	
2025-01-12 10:58:22.20	323.34	13.09	
2025-01-12 10:58:22.41	323.29	13.09	
2025-01-12 10:58:22.62	323.25	13.09	
2025-01-12 10:58:22.82	323.20	13.09	
2025-01-12 10:58:23.02	323.15	13.09	
2025-01-12 10:58:23.23	323.11	13.09	
2025-01-12 10:58:23.44	323.06	13.09	
2025-01-12 10:58:23.64	323.01	13.09	
2025-01-12 10:58:23.86	322.96	13.09	
2025-01-12 10:58:24.07	322.91	13.09	
2025-01-12 10:58:24.27	322.87	13.09	
2025-01-12 10:58:24.48	322.82	13.09	
2025-01-12 10:58:24.68	322.78	13.09	
2025-01-12 10:58:24.89	322.73	13.09	
2025-01-12 10:58:25.09	322.68	13.09	
2025-01-12 10:58:25.30	322.63	13.10	
2025-01-12 10:58:25.50	322.59	13.10	
2025-01-12 10:58:25.71	322.54	13.10	
2025-01-12 10:58:25.91	322.49	13.10	
2025-01-12 10:58:26.12	322.45	13.10	
2025-01-12 10:58:26.32	322.40	13.10	
2025-01-12 10:58:26.53	322.35	13.10	
2025-01-12 10:58:26.74	322.30	13.10	
2025-01-12 10:58:26.94	322.26	13.10	
2025-01-12 10:58:27.15	322.21	13.10	
2025-01-12 10:58:27.35	322.17	13.10	
2025-01-12 10:58:27.56	322.12	13.10	
2025-01-12 10:58:27.77	322.07	13.10	
2025-01-12 10:58:27.97	322.02	13.10	
2025-01-12 10:58:28.18	321.98	13.10	
2025-01-12 10:58:28.38	321.93	13.10	
2025-01-12 10:58:28.59	321.88	13.10	
2025-01-12 10:58:28.79	321.84	13.10	
2025-01-12 10:58:29.00	321.79	13.10	
2025-01-12 10:58:29.22	321.74	13.10	
2025-01-12 10:58:29.42	321.69	13.10	
2025-01-12 10:58:29.63	321.64	13.10	
2025-01-12 10:58:29.83	321.60	13.10	
2025-01-12 10:58:30.04	321.55	13.10	
2025-01-12 10:58:30.24	321.50	13.10	
2025-01-12 10:58:30.45	321.46	13.10	
2025-01-12 10:58:30.66	321.41	13.10	
2025-01-12 10:58:30.86	321.36	13.10	
2025-01-12 10:58:31.07	321.31	13.10	
2025-01-12 10:58:31.27	321.27	13.10	
2025-01-12 10:58:31.48	321.22	13.10	
2025-01-12 10:58:31.68	321.18	13.10	
2025-01-12 10:58:31.89	321.13	13.10	
2025-01-12 10:58:32.10	321.08	13.10	
2025-01-12 10:58:32.30	321.03	13.10	
2025-01-12 10:58:32.51	320.99	13.10	
2025-01-12 10:58:32.71	320.94	13.10	
2025-01-12 10:58:32.92	320.89	13.10	
2025-01-12 10:58:33.12	320.85	13.10	
2025-01-12 10:58:33.32	320.80	13.10	
2025-01-12 10:58:33.53	320.75	13.10	
2025-01-12 10:58:33.73	320.71	13.10	
2025-01-12 10:58:33.94	320.66	13.10	
2025-01-12 10:58:34.14	320.61	13.10	
2025-01-12 10:58:34.35	320.56	13.10	
2025-01-12 10:58:34.56	320.52	13.10	
2025-01-12 10:58:34.76	320.47	13.09	
2025-01-12 10:58:34.97	320.42	13.09	
2025-01-12 10:58:35.17	320.38	13.09	
2025-01-12 10:58:35.38	320.33	13.09	
2025-01-12 10:58:35.58	320.28	13.09	
2025-01-12 10:58:35.79	320.24	13.09	
2025-01-12 10:58:35.99	320.19	13.09	
2025-01-12 10:58:36.20	320.14	13.09	
2025-01-12 10:58:36.40	320.10	13.09	
2025-01-12 10:58:36.61	320.05	13.09	
2025-01-12 10:58:36.81	320.00	13.09	
2025-01-12 10:58:37.02	319.95	13.09	
2025-01-12 10:58:37.22	319.91	13.09	
2025-01-12 10:58:37.43	319.86	13.09	
2025-01-12 10:58:37.63	319.82	13.09	
2025-01-12 10:58:37.84	319.77	13.09	
2025-01-12 10:58:38.04	319.72	13.09	
2025-01-12 10:58:38.25	319.67	13.08	
2025-01-12 10:58:38.45	319.63	13.08	
2025-01-12 10:58:38.66	319.58	13.08	
2025-01-12 10:58:38.86	319.53	13.08	
2025-01-12 10:58:39.07	319.49	13.08	
2025-01-12 10:58:39.28	319.44	13.08	
2025-01-12 10:58:39.48	319.39	13.08	
2025-01-12 10:58:39.69	319.34	13.08	
2025-01-12 10:58:39.89	319.30	13.08	
2025-01-12 10:58:40.10	319.25	13.08	
2025-01-12 10:58:40.30	319.21	13.08	
2025-01-12 10:58:40.51	319.16	13.08	
2025-01-12 10:58:40.71	319.11	13.07	
2025-01-12 10:58:40.92	319.06	13.07	
2025-01-12 10:58:41.12	319.02	13.07	
2025-01-12 10:58:41.33	318.97	13.07	
2025-01-12 10:58:41.53	318.92	13.07	
2025-01-12 10:58:41.74	318.88	13.07	
2025-01-12 10:58:41.94	318.83	13.07	
2025-01-12 10:58:42.15	318.78	13.07	
2025-01-12 10:58:42.36	318.74	13.07	
2025-01-12 10:58:42.56	318.69	13.07	
2025-01-12 10:58:42.77	318.64	13.06	
2025-01-12 10:58:42.97	318.60	13.06	
2025-01-12 10:58:43.18	318.55	13.06	
2025-01-12 10:58:43.39	318.50	13.06	
2025-01-12 10:58:43.59	318.45	13.06	
2025-01-12 10:58:43.80	318.41	13.06	
2025-01-12 10:58:44.01	318.36	13.06	
2025-01-12 10:58:44.21	318.31	13.06	
2025-01-12 10:58:44.41	318.27	13.06	
2025-01-12 10:58:44.62	318.22	13.05	
2025-01-12 10:58:44.83	318.17	13.05	
2025-01-12 10:58:45.03	318.13	13.05	
2025-01-12 10:58:45.25	318.08	13.05	
2025-01-12 10:58:45.46	318.03	13.05	
2025-01-12 10:58:45.66	317.98	13.05	
2025-01-12 10:58:45.87	317.94	13.05	
2025-01-12 10:58:46.07	317.89	13.04	
2025-01-12 10:58:46.27	317.84	13.04	
2025-01-12 10:58:46.48	317.80	13.04	
2025-01-12 10:58:46.69	317.75	13.04	
2025-01-12 10:58:46.89	317.70	13.04	
2025-01-12 10:58:47.10	317.66	13.04	
2025-01-12 10:58:47.30	317.61	13.04	
2025-01-12 10:58:47.51	317.56	13.03	
2025-01-12 10:58:47.71	317.52	13.03	
2025-01-12 10:58:47.92	317.47	13.03	
2025-01-12 10:58:48.14	317.42	13.03	
2025-01-12 10:58:48.34	317.37	13.03	
2025-01-12 10:58:48.54	317.33	13.03	
2025-01-12 10:58:48.76	317.28	13.02	
2025-01-12 10:58:48.97	317.23	13.02	
2025-01-12 10:58:49.17	317.18	13.02	
2025-01-12 10:58:49.37	317.14	13.02	
2025-01-12 10:58:49.58	317.09	13.02	
2025-01-12 10:58:49.79	317.04	13.02	
2025-01-12 10:58:49.99	317.00	13.01	
2025-01-12 10:58:50.20	316.95	13.01	
2025-01-12 10:58:50.40	316.90	13.01	
2025-01-12 10:58:50.61	316.86	13.01	
2025-01-12 10:58:50.81	316.81	13.01	
2025-01-12 10:58:51.02	316.76	13.01	
2025-01-12 10:58:51.22	316.72	13.00	
2025-01-12 10:58:51.43	316.67	13.00	
2025-01-12 10:58:51.63	316.63	13.00	
2025-01-12 10:58:51.84	316.58	13.00	
2025-01-12 10:58:52.04	316.53	13.00	
2025-01-12 10:58:52.25	316.48	12.99	
2025-01-12 10:58:52.46	316.44	12.99	
2025-01-12 10:58:52.66	316.39	12.99	
2025-01-12 10:58:52.87	316.34	12.99	
2025-01-12 10:58:53.07	316.30	12.99	
2025-01-12 10:58:53.28	316.25	12.98	
2025-01-12 10:58:53.48	316.21	12.98	
2025-01-12 10:58:53.69	316.16	12.98	
2025-01-12 10:58:53.89	316.11	12.98	
2025-01-12 10:58:54.10	316.06	12.98	
2025-01-12 10:58:54.30	316.02	12.97	
2025-01-12 10:58:54.51	315.97	12.97	
2025-01-12 10:58:54.71	315.93	12.97	
2025-01-12 10:58:54.92	315.88	12.97	
2025-01-12 10:58:55.12	315.83	12.97	
2025-01-12 10:58:55.33	315.79	12.96	
2025-01-12 10:58:55.53	315.74	12.96	
2025-01-12 10:58:55.74	315.69	12.96	
2025-01-12 10:58:55.96	315.64	12.96	
2025-01-12 10:58:56.16	315.60	12.95	
2025-01-12 10:58:56.37	315.55	12.95	
2025-01-12 10:58:56.58	315.50	12.95	
2025-01-12 10:58:56.78	315.46	12.95	
2025-01-12 10:58:57.00	315.41	12.94	
2025-01-12 10:58:57.20	315.36	12.94	
2025-01-12 10:58:57.41	315.32	12.94	
2025-01-12 10:58:57.61	315.27	12.94	
2025-01-12 10:58:57.82	315.22	12.93	
2025-01-12 10:58:58.02	315.18	12.93	
2025-01-12 10:58:58.23	315.13	12.93	
2025-01-12 10:58:58.43	315.08	12.93	
2025-01-12 10:58:58.64	315.04	12.93	
2025-01-12 10:58:58.84	314.99	12.92	
2025-01-12 10:58:59.05	314.94	12.92	
2025-01-12 10:58:59.25	314.90	12.92	
2025-01-12 10:58:59.46	314.85	12.92	
2025-01-12 10:58:59.66	314.81	12.91	
2025-01-12 10:58:59.87	314.76	12.91	
2025-01-12 10:59:00.09	314.71	12.91	
2025-01-12 10:59:00.29	314.67	12.90	
2025-01-12 10:59:00.50	314.62	12.90	
2025-01-12 10:59:00.70	314.57	12.90	
2025-01-12 10:59:00.91	314.53	12.90	
2025-01-12 10:59:01.11	314.48	12.89	
2025-01-12 10:59:01.31	314.44	12.89	
2025-01-12 10:59:01.52	314.39	12.89	
2025-01-12 10:59:01.73	314.34	12.89	
2025-01-12 10:59:01.93	314.30	12.88	
2025-01-12 10:59:02.14	314.25	12.88	
2025-01-12 10:59:02.35	314.20	12.88	
2025-01-12 10:59:02.56	314.15	12.87	
2025-01-12 10:59:02.77	314.11	12.87	
2025-01-12 10:59:02.97	314.06	12.87	
2025-01-12 10:59:03.18	314.01	12.87	
2025-01-12 10:59:03.40	313.96	12.86	
2025-01-12 10:59:03.60	313.92	12.86	
2025-01-12 10:59:03.81	313.87	12.86	
2025-01-12 10:59:04.02	313.83	12.85	
2025-01-12 10:59:04.22	313.78	12.85	
2025-01-12 10:59:04.42	313.74	12.85	
2025-01-12 10:59:04.63	313.69	12.85	
2025-01-12 10:59:04.84	313.64	12.84	
2025-01-12 10:59:05.04	313.60	12.84	
2025-01-12 10:59:05.25	313.55	12.84	
2025-01-12 10:59:05.45	313.50	12.83	
2025-01-12 10:59:05.65	313.46	12.83	
2025-01-12 10:59:05.86	313.41	12.83	
2025-01-12 10:59:06.06	313.37	12.82	
2025-01-12 10:59:06.27	313.32	12.82	
2025-01-12 10:59:06.48	313.27	12.82	
2025-01-12 10:59:06.69	313.23	12.82	
2025-01-12 10:59:06.89	313.18	12.81	
2025-01-12 10:59:07.10	313.13	12.81	
2025-01-12 10:59:07.30	313.09	12.81	
2025-01-12 10:59:07.51	313.04	12.80	
2025-01-12 10:59:07.71	313.00	12.80	
2025-01-12 10:59:07.92	312.95	12.80	
2025-01-12 10:59:08.12	312.91	12.79	
2025-01-12 10:59:08.33	312.86	12.79	
2025-01-12 10:59:08.53	312.81	12.79	
2025-01-12 10:59:08.74	312.77	12.78	
2025-01-12 10:59:08.94	312.72	12.78	
2025-01-12 10:59:09.15	312.68	12.78	
2025-01-12 10:59:09.36	312.63	12.77	
2025-01-12 10:59:09.56	312.58	12.77	
2025-01-12 10:59:09.76	312.54	12.77	
2025-01-12 10:59:09.97	312.49	12.76	
2025-01-12 10:59:10.18	312.45	12.76	
2025-01-12 10:59:10.38	312.40	12.76	
2025-01-12 10:59:10.59	312.35	12.75	
2025-01-12 10:59:10.79	312.31	12.75	
2025-01-12 10:59:11.00	312.26	12.75	
2025-01-12 10:59:11.20	312.22	12.74	
2025-01-12 10:59:11.41	312.17	12.74	
2025-01-12 10:59:11.61	312.13	12.74	
2025-01-12 10:59:11.82	312.08	12.73	
2025-01-12 10:59:12.02	312.04	12.73	
2025-01-12 10:59:12.23	311.99	12.72	
2025-01-12 10:59:12.44	311.94	12.72	
2025-01-12 10:59:12.64	311.90	12.72	
2025-01-12 10:59:12.85	311.85	12.71	
2025-01-12 10:59:13.05	311.81	12.71	
2025-01-12 10:59:13.26	311.76	12.71	
2025-01-12 10:59:13.46	311.72	12.70	
2025-01-12 10:59:13.67	311.67	12.70	
2025-01-12 10:59:13.87	311.62	12.70	
2025-01-12 10:59:14.08	311.58	12.69	
2025-01-12 10:59:14.28	311.53	12.69	
2025-01-12 10:59:14.49	311.49	12.68	
2025-01-12 10:59:14.69	311.44	12.68	
2025-01-12 10:59:14.90	311.40	12.68	
2025-01-12 10:59:15.10	311.35	12.67	
2025-01-12 10:59:15.31	311.30	12.67	
2025-01-12 10:59:15.51	311.26	12.66	
2025-01-12 10:59:15.72	311.21	12.66	
2025-01-12 10:59:15.93	311.17	12.66	
2025-01-12 10:59:16.13	311.12	12.65	
2025-01-12 10:59:16.33	311.08	12.65	
2025-01-12 10:59:16.54	311.03	12.65	
2025-01-12 10:59:16.75	310.99	12.64	
2025-01-12 10:59:16.95	310.94	12.64	
2025-01-12 10:59:17.15	310.90	12.63	
2025-01-12 10:59:17.36	310.85	12.63	
2025-01-12 10:59:17.56	310.81	12.63	
2025-01-12 10:59:17.77	310.76	12.62	
2025-01-12 10:59:17.98	310.71	12.62	
2025-01-12 10:59:18.18	310.67	12.61	
2025-01-12 10:59:18.38	310.63	12.61	
2025-01-12 10:59:18.59	310.58	12.61	
2025-01-12 10:59:18.80	310.53	12.60	
2025-01-12 10:59:19.00	310.49	12.60	
2025-01-12 10:59:19.21	310.44	12.59	
2025-01-12 10:59:19.41	310.40	12.59	
2025-01-12 10:59:19.62	310.35	12.58	
2025-01-12 10:59:19.82	310.31	12.58	
2025-01-12 10:59:20.03	310.26	12.58	
2025-01-12 10:59:20.23	310.22	12.57	
2025-01-12 10:59:20.44	310.17	12.57	
2025-01-12 10:59:20.64	310.13	12.56	
2025-01-12 10:59:20.85	310.08	12.56	
2025-01-12 10:59:21.05	310.04	12.56	
2025-01-12 10:59:21.26	309.99	12.55	
2025-01-12 10:59:21.46	309.95	12.55	
2025-01-12 10:59:21.67	309.90	12.54	
2025-01-12 10:59:21.88	309.86	12.54	
2025-01-12 10:59:22.08	309.81	12.53	
2025-01-12 10:59:22.29	309.77	12.53	
2025-01-12 10:59:22.49	309.72	12.52	
2025-01-12 10:59:22.69	309.68	12.52	
2025-01-12 10:59:22.90	309.63	12.52	
2025-01-12 10:59:23.11	309.59	12.51	
2025-01-12 10:59:23.31	309.54	12.51	
2025-01-12 10:59:23.52	309.50	12.50	
2025-01-12 10:59:23.72	309.45	12.50	
2025-01-12 10:59:23.93	309.41	12.49	
2025-01-12 10:59:24.13	309.36	12.49	
2025-01-12 10:59:24.34	309.32	12.48	
2025-01-12 10:59:24.55	309.27	12.48	
2025-01-12 10:59:24.75	309.23	12.48	
2025-01-12 10:59:24.95	309.18	12.47	
2025-01-12 10:59:25.16	309.14	12.47	
2025-01-12 10:59:25.37	309.09	12.46	
2025-01-12 10:59:25.57	309.05	12.46	
2025-01-12 10:59:25.78	309.00	12.45	
2025-01-12 10:59:25.98	308.96	12.45	
2025-01-12 10:59:26.19	308.91	12.44	
2025-01-12 10:59:26.39	308.87	12.44	
2025-01-12 10:59:26.60	308.82	12.43	
2025-01-12 10:59:26.80	308.78	12.43	
2025-01-12 10:59:27.01	308.73	12.42	
2025-01-12 10:59:27.21	308.69	12.42	
2025-01-12 10:59:27.42	308.64	12.42	
2025-01-12 10:59:27.62	308.60	12.41	
2025-01-12 10:59:27.83	308.55	12.41	
2025-01-12 10:59:28.03	308.51	12.40	
2025-01-12 10:59:28.24	308.47	12.40	
2025-01-12 10:59:28.44	308.42	12.39	
2025-01-12 10:59:28.65	308.38	12.39	
2025-01-12 10:59:28.86	308.33	12.38	
2025-01-12 10:59:29.08	308.28	12.38	
2025-01-12 10:59:29.28	308.24	12.37	
2025-01-12 10:59:29.49	308.19	12.37	
2025-01-12 10:59:29.69	308.15	12.36	
2025-01-12 10:59:29.90	308.11	12.36	
2025-01-12 10:59:30.10	308.06	12.35	
2025-01-12 10:59:30.31	308.02	12.35	
2025-01-12 10:59:30.51	307.97	12.34	
2025-01-12 10:59:30.72	307.93	12.34	
2025-01-12 10:59:30.92	307.88	12.33	
2025-01-12 10:59:31.13	307.84	12.33	
2025-01-12 10:59:31.33	307.80	12.32	
2025-01-12 10:59:31.54	307.75	12.32	
2025-01-12 10:59:31.74	307.71	12.31	
2025-01-12 10:59:31.95	307.66	12.31	
2025-01-12 10:59:32.15	307.62	12.30	
2025-01-12 10:59:32.36	307.57	12.30	
2025-01-12 10:59:32.56	307.53	12.29	
2025-01-12 10:59:32.77	307.49	12.29	
2025-01-12 10:59:32.97	307.44	12.28	
2025-01-12 10:59:33.18	307.40	12.28	
2025-01-12 10:59:33.38	307.35	12.27	
2025-01-12 10:59:33.59	307.31	12.27	
2025-01-12 10:59:33.79	307.27	12.26	
2025-01-12 10:59:34.00	307.22	12.26	
2025-01-12 10:59:34.20	307.18	12.25	
2025-01-12 10:59:34.41	307.13	12.24	
2025-01-12 10:59:34.61	307.09	12.24	
2025-01-12 10:59:34.82	307.04	12.23	
2025-01-12 10:59:35.02	307.00	12.23	
2025-01-12 10:59:35.23	306.96	12.22	
2025-01-12 10:59:35.43	306.91	12.22	
2025-01-12 10:59:35.64	306.87	12.21	
2025-01-12 10:59:35.84	306.83	12.21	
2025-01-12 10:59:36.05	306.78	12.20	
2025-01-12 10:59:36.25	306.74	12.20	
2025-01-12 10:59:36.46	306.69	12.19	
2025-01-12 10:59:36.66	306.65	12.19	
2025-01-12 10:59:36.87	306.60	12.18	
2025-01-12 10:59:37.07	306.56	12.18	
2025-01-12 10:59:37.28	306.52	12.17	
2025-01-12 10:59:37.48	306.47	12.16	
2025-01-12 10:59:37.68	306.43	12.16	
2025-01-12 10:59:37.89	306.39	12.15	
2025-01-12 10:59:38.10	306.34	12.15	
2025-01-12 10:59:38.30	306.30	12.14	
2025-01-12 10:59:38.51	306.25	12.14	
2025-01-12 10:59:38.71	306.21	12.13	
2025-01-12 10:59:38.92	306.17	12.13	
2025-01-12 10:59:39.12	306.12	12.12	
2025-01-12 10:59:39.33	306.08	12.11	
2025-01-12 10:59:39.53	306.04	12.11	
2025-01-12 10:59:39.75	305.99	12.10	
2025-01-12 10:59:39.96	305.95	12.10	
2025-01-12 10:59:40.16	305.90	12.09	
2025-01-12 10:59:40.37	305.86	12.09	
2025-01-12 10:59:40.57	305.82	12.08	
2025-01-12 10:59:40.79	305.77	12.07	
2025-01-12 10:59:41.00	305.72	12.07	
2025-01-12 10:59:41.20	305.68	12.06	
2025-01-12 10:59:41.41	305.64	12.06	
2025-01-12 10:59:41.61	305.60	12.05	
2025-01-12 10:59:41.83	305.55	12.05	
2025-01-12 10:59:42.04	305.50	12.04	
2025-01-12 10:59:42.24	305.46	12.03	
2025-01-12 10:59:42.45	305.42	12.03	
2025-01-12 10:59:42.65	305.38	12.02	
2025-01-12 10:59:42.86	305.33	12.02	
2025-01-12 10:59:43.06	305.29	12.01	
2025-01-12 10:59:43.27	305.24	12.00	
2025-01-12 10:59:43.47	305.20	12.00	
2025-01-12 10:59:43.68	305.16	11.99	
2025-01-12 10:59:43.88	305.12	11.99	
2025-01-12 10:59:44.08	305.07	11.98	
2025-01-12 10:59:44.29	305.03	11.98	
2025-01-12 10:59:44.50	304.98	11.97	
2025-01-12 10:59:44.70	304.94	11.96	
2025-01-12 10:59:44.90	304.90	11.96	
2025-01-12 10:59:45.11	304.86	11.95	
2025-01-12 10:59:45.31	304.81	11.95	
2025-01-12 10:59:45.52	304.77	11.94	
2025-01-12 10:59:45.72	304.73	11.93	
2025-01-12 10:59:45.93	304.68	11.93	
2025-01-12 10:59:46.13	304.64	11.92	
2025-01-12 10:59:46.33	304.60	11.92	
2025-01-12 10:59:46.54	304.56	11.91	
2025-01-12 10:59:46.75	304.51	11.90	
2025-01-12 10:59:46.95	304.47	11.90	
2025-01-12 10:59:47.15	304.43	11.89	
2025-01-12 10:59:47.36	304.38	11.89	
2025-01-12 10:59:47.56	304.34	11.88	
2025-01-12 10:59:47.78	304.30	11.87	
2025-01-12 10:59:47.99	304.25	11.87	
2025-01-12 10:59:48.19	304.21	11.86	
2025-01-12 10:59:48.40	304.17	11.85	
2025-01-12 10:59:48.60	304.12	11.85	
2025-01-12 10:59:48.81	304.08	11.84	
2025-01-12 10:59:49.02	304.04	11.84	
2025-01-12 10:59:49.22	304.00	11.83	
2025-01-12 10:59:49.44	303.95	11.82	
2025-01-12 10:59:49.64	303.91	11.82	
2025-01-12 10:59:49.85	303.86	11.81	
2025-01-12 10:59:50.05	303.82	11.80	
2025-01-12 10:59:50.26	303.78	11.80	
2025-01-12 10:59:50.46	303.74	11.79	
2025-01-12 10:59:50.67	303.69	11.78	
2025-01-12 10:59:50.87	303.65	11.78	
2025-01-12 10:59:51.08	303.61	11.77	
2025-01-12 10:59:51.29	303.56	11.77	
2025-01-12 10:59:51.49	303.52	11.76	
2025-01-12 10:59:51.70	303.48	11.75	
2025-01-12 10:59:51.90	303.44	11.75	
2025-01-12 10:59:52.11	303.39	11.74	
2025-01-12 10:59:52.32	303.35	11.73	
2025-01-12 10:59:52.52	303.31	11.73	
2025-01-12 10:59:52.73	303.27	11.72	
2025-01-12 10:59:52.93	303.23	11.71	
2025-01-12 10:59:53.14	303.18	11.71	
2025-01-12 10:59:53.35	303.14	11.70	
2025-01-12 10:59:53.55	303.10	11.69	
2025-01-12 10:59:53.75	303.06	11.69	
2025-01-12 10:59:53.96	303.01	11.68	
2025-01-12 10:59:54.17	302.97	11.68	
2025-01-12 10:59:54.37	302.93	11.67	
2025-01-12 10:59:54.58	302.88	11.66	
2025-01-12 10:59:54.78	302.84	11.66	
2025-01-12 10:59:54.99	302.80	11.65	
2025-01-12 10:59:55.19	302.76	11.64	
2025-01-12 10:59:55.40	302.72	11.64	
2025-01-12 10:59:55.60	302.67	11.63	
2025-01-12 10:59:55.81	302.63	11.62	
