passes_logs/2026/01/23/R2.0S_Moscow/R2.0S_Moscow__20260123_080706_NOAA_21_JPSS-2_rec.log

#Pass ID: 20260123_080706_NOAA 21 (JPSS-2)
#Satellite: NOAA 21 (JPSS-2)
#Configuration: NOAA-21
#almurnet v.1.7.20251203
#Start time: 2026-01-23 08:07:09

#Version: 2.2.20231116
#Station: R2.0S_Moscow
#Location: 37.707566 lon 55.798166 lat
#TLE: 1 54234U 22150A   26022.41365820  .00000211  00000+0  12084-3 0  9990
#TLE: 2 54234  98.7507 323.2240 0000658 234.5287 125.5828 14.19537645165864

#Time	Az	El	Level	Level2	SNR	BER	BlckErr	Temp	State	Recorded	gain1	gain2
2026-01-23 08:07:09.28	107.46	2.13	-33.0	-47.4	4.0	1.50e+00	0	51	0	0	37	19101
2026-01-23 08:07:10.29	107.39	2.19	-31.2	-47.1	4.1	1.51e+00	0	52	104	0	25	36697
2026-01-23 08:07:11.31	107.31	2.24	-26.8	-41.1	3.6	1.52e+00	0	52	104	0	13	36721
2026-01-23 08:07:12.32	107.24	2.30	-26.6	-45.5	3.9	1.51e+00	0	52	104	0	23	34111
2026-01-23 08:07:13.33	107.17	2.35	-17.5	-37.9	3.6	1.51e+00	0	52	104	0	18	19106
2026-01-23 08:07:14.33	107.09	2.41	-30.3	-44.3	4.2	1.50e+00	0	52	104	0	34	15833
2026-01-23 08:07:15.35	107.02	2.47	-29.5	-44.3	4.1	1.51e+00	0	52	104	0	29	21164
2026-01-23 08:07:16.36	106.94	2.52	-31.9	-44.7	3.9	1.51e+00	0	52	104	0	25	28011
2026-01-23 08:07:17.36	106.87	2.58	-24.6	-39.1	3.9	1.51e+00	0	52	104	0	19	20691
2026-01-23 08:07:18.37	106.79	2.63	-27.8	-44.8	3.9	1.51e+00	0	52	104	0	24	29707
2026-01-23 08:07:19.38	106.72	2.69	-19.7	-37.9	3.7	1.53e+00	0	52	104	0	11	28363
2026-01-23 08:07:20.39	106.64	2.75	-34.1	-48.4	4.2	1.50e+00	0	52	104	0	39	19103
2026-01-23 08:07:21.41	106.56	2.80	-21.1	-38.5	4.4	1.51e+00	0	52	104	0	33	8596
2026-01-23 08:07:22.41	106.49	2.86	-29.8	-46.6	4.2	1.51e+00	0	52	104	0	31	24663
2026-01-23 08:07:23.42	106.41	2.92	-27.8	-43.8	4.3	1.52e+00	0	53	104	0	26	23655
2026-01-23 08:07:24.44	106.33	2.97	-27.1	-40.4	3.7	1.51e+00	0	53	104	0	26	16048
2026-01-23 08:07:25.45	106.26	3.03	-26.7	-42.8	3.8	1.51e+00	0	53	104	0	23	25208
2026-01-23 08:07:26.45	106.18	3.08	-31.7	-46.0	4.4	1.51e+00	0	53	104	0	28	27332
2026-01-23 08:07:27.46	106.10	3.14	-29.6	-45.3	3.8	1.51e+00	0	53	104	0	20	39593
2026-01-23 08:07:28.47	106.02	3.20	-33.1	-47.1	3.9	1.50e+00	0	53	104	0	34	21928
2026-01-23 08:07:29.49	105.94	3.26	-16.5	-36.1	3.9	1.51e+00	0	53	104	0	21	12970
2026-01-23 08:07:30.50	105.86	3.31	-23.0	-39.3	3.8	1.51e+00	0	53	104	0	21	18843
2026-01-23 08:07:31.50	105.79	3.37	-16.7	-36.3	3.9	1.51e+00	0	53	104	0	13	21174
2026-01-23 08:07:32.52	105.71	3.43	-30.1	-42.2	4.2	1.51e+00	0	53	104	0	20	27829
2026-01-23 08:07:33.53	105.63	3.48	-32.5	-45.3	3.8	1.51e+00	0	53	104	0	26	28124
2026-01-23 08:07:34.54	105.55	3.54	-23.1	-41.7	3.9	1.51e+00	0	54	104	0	31	13932
2026-01-23 08:07:35.55	105.46	3.60	-32.9	-46.9	4.1	1.51e+00	0	54	104	0	27	32124
2026-01-23 08:07:36.56	105.38	3.66	-29.4	-44.5	3.9	1.50e+00	0	54	104	0	32	18103
2026-01-23 08:07:37.57	105.30	3.71	-22.9	-40.9	4.1	1.51e+00	0	53	104	0	25	18047
2026-01-23 08:07:38.58	105.22	3.77	-29.4	-45.4	4.3	1.51e+00	0	54	104	0	38	14238
2026-01-23 08:07:39.59	105.14	3.83	-33.8	-47.3	4.2	1.51e+00	0	54	104	0	35	21070
2026-01-23 08:07:40.60	105.06	3.89	-29.4	-44.4	3.9	1.50e+00	0	54	104	0	31	19107
2026-01-23 08:07:41.61	104.97	3.94	-32.8	-42.2	4.3	1.51e+00	0	54	104	0	32	14038
2026-01-23 08:07:42.62	104.89	4.00	-34.9	-48.3	4.2	1.50e+00	0	54	104	0	38	19914
2026-01-23 08:07:43.63	104.81	4.06	-30.7	-44.9	3.9	1.51e+00	0	54	104	0	29	22592
2026-01-23 08:07:44.63	104.73	4.12	-32.4	-46.9	4.1	1.51e+00	0	54	104	0	36	19131
2026-01-23 08:07:45.64	104.64	4.17	-28.6	-41.1	3.8	1.51e+00	0	54	104	0	29	14663
2026-01-23 08:07:46.66	104.56	4.23	-19.2	-36.8	3.4	1.51e+00	0	54	104	0	31	7960
2026-01-23 08:07:47.67	104.47	4.29	-24.6	-41.5	3.8	1.51e+00	0	54	104	0	24	20436
2026-01-23 08:07:48.68	104.39	4.35	-27.8	-41.0	3.6	1.51e+00	0	54	104	0	23	20414
2026-01-23 08:07:49.69	104.30	4.41	-34.1	-45.3	4.0	1.51e+00	0	54	104	0	29	23643
2026-01-23 08:07:50.70	104.22	4.46	-29.0	-45.4	3.9	1.51e+00	0	54	104	0	34	18056
2026-01-23 08:07:51.71	104.13	4.52	-22.8	-37.7	3.4	1.51e+00	0	54	104	0	7	34935
2026-01-23 08:07:52.72	104.04	4.58	-31.4	-45.3	3.9	1.51e+00	0	54	104	0	31	21148
2026-01-23 08:07:53.73	103.96	4.64	-35.3	-48.8	4.2	1.51e+00	0	55	104	0	38	21052
2026-01-23 08:07:54.74	103.87	4.70	-30.8	-42.4	3.4	1.51e+00	0	55	104	0	23	23997
2026-01-23 08:07:55.75	103.78	4.76	-32.5	-47.3	3.9	1.50e+00	0	55	104	0	37	18846
2026-01-23 08:07:56.76	103.69	4.81	-30.7	-45.6	3.9	1.51e+00	0	55	104	0	35	17351
2026-01-23 08:07:57.77	103.61	4.87	-29.8	-43.6	4.0	1.50e+00	0	55	104	0	31	17431
2026-01-23 08:07:58.78	103.52	4.93	-27.8	-42.5	3.7	1.50e+00	0	55	104	0	29	17114
2026-01-23 08:07:59.79	103.43	4.99	-21.6	-37.3	3.9	1.51e+00	0	55	104	0	30	8913
2026-01-23 08:08:00.80	103.34	5.05	-33.6	-48.5	3.9	1.51e+00	0	55	104	0	37	21513
2026-01-23 08:08:01.81	103.25	5.11	-33.5	-46.2	4.1	1.51e+00	0	55	104	0	31	23331
2026-01-23 08:08:02.82	103.16	5.17	-33.1	-43.9	4.1	1.50e+00	0	55	104	0	34	15100
2026-01-23 08:08:03.83	103.07	5.23	-25.9	-42.3	4.0	1.51e+00	0	55	104	0	22	25170
2026-01-23 08:08:04.84	102.98	5.29	-32.5	-46.7	4.2	1.50e+00	0	55	104	0	33	22092
2026-01-23 08:08:05.85	102.89	5.35	-27.7	-41.4	3.9	1.51e+00	0	55	104	0	23	21362
2026-01-23 08:08:06.86	102.80	5.40	-30.9	-47.6	3.9	1.51e+00	0	55	104	0	31	27606
2026-01-23 08:08:07.87	102.70	5.46	-25.1	-44.2	4.2	1.51e+00	0	55	104	0	29	20806
2026-01-23 08:08:08.88	102.61	5.52	-31.9	-44.8	4.3	1.51e+00	0	55	104	0	23	31513
2026-01-23 08:08:09.89	102.52	5.58	-24.1	-38.4	4.3	1.51e+00	0	55	104	0	24	14289
2026-01-23 08:08:10.90	102.43	5.64	-31.2	-46.3	4.2	1.51e+00	0	55	104	0	35	18947
2026-01-23 08:08:11.91	102.33	5.70	-34.2	-48.2	4.1	1.50e+00	0	56	104	0	36	22249
2026-01-23 08:08:12.92	102.24	5.76	-34.5	-47.8	4.1	1.51e+00	0	56	104	0	36	21121
2026-01-23 08:08:13.93	102.14	5.82	-33.7	-45.3	4.1	1.51e+00	0	56	104	0	35	16851
2026-01-23 08:08:14.94	102.05	5.88	-31.8	-46.3	4.0	1.50e+00	0	56	104	0	32	22390
2026-01-23 08:08:15.95	101.95	5.94	-22.3	-38.7	3.7	1.51e+00	0	56	104	0	18	20998
2026-01-23 08:08:16.96	101.86	6.00	-31.4	-45.9	4.0	1.50e+00	0	55	104	0	30	23961
2026-01-23 08:08:17.97	101.76	6.06	-28.1	-43.4	4.0	1.50e+00	0	56	104	0	31	17045
2026-01-23 08:08:18.98	101.67	6.12	-31.8	-46.7	4.1	1.50e+00	0	56	104	0	37	17489
2026-01-23 08:08:19.99	101.57	6.18	-28.4	-44.6	4.0	1.51e+00	0	56	104	0	30	20666
2026-01-23 08:08:21.00	101.47	6.24	-27.1	-41.3	3.9	1.51e+00	0	56	104	0	24	19982
2026-01-23 08:08:22.01	101.38	6.30	-27.3	-43.1	3.6	1.51e+00	0	56	104	0	15	41441
2026-01-23 08:08:23.02	101.28	6.36	-24.6	-42.3	3.7	1.51e+00	0	56	104	0	26	19852
2026-01-23 08:08:24.03	101.18	6.42	-18.8	-38.5	3.8	1.51e+00	0	56	104	0	28	11457
2026-01-23 08:08:25.04	101.08	6.48	-22.9	-37.7	3.8	1.51e+00	0	56	104	0	17	19693
2026-01-23 08:08:26.05	100.98	6.54	-34.7	-48.1	4.0	1.51e+00	0	56	104	0	37	20540
2026-01-23 08:08:27.06	100.88	6.60	-26.5	-39.7	3.9	1.50e+00	0	56	104	0	30	11764
2026-01-23 08:08:28.07	100.78	6.66	-30.7	-45.2	4.1	1.50e+00	0	56	104	0	35	16619
2026-01-23 08:08:29.08	100.68	6.72	-33.5	-47.0	4.0	1.50e+00	0	56	104	0	33	22888
2026-01-23 08:08:30.09	100.58	6.78	-33.6	-43.0	3.7	1.51e+00	0	56	104	0	24	24369
2026-01-23 08:08:31.10	100.48	6.85	-25.1	-38.3	4.0	1.50e+00	0	56	104	0	25	13275
2026-01-23 08:08:32.11	100.38	6.91	-34.1	-47.5	4.3	1.50e+00	0	56	104	0	37	19325
2026-01-23 08:08:33.12	100.28	6.97	-28.9	-45.2	4.1	1.51e+00	0	56	104	0	34	17602
2026-01-23 08:08:34.13	100.17	7.03	-33.8	-47.5	4.3	1.50e+00	0	56	104	0	38	18192
2026-01-23 08:08:35.14	100.07	7.09	-23.6	-37.5	3.8	1.50e+00	0	57	104	0	17	19186
2026-01-23 08:08:36.15	99.97	7.15	-31.5	-46.2	4.2	1.50e+00	0	56	104	0	38	15677
2026-01-23 08:08:37.16	99.86	7.21	-32.0	-45.4	4.1	1.50e+00	0	56	104	0	34	18002
2026-01-23 08:08:38.17	99.76	7.27	-31.9	-45.2	4.2	1.51e+00	0	57	104	0	32	19760
2026-01-23 08:08:39.18	99.65	7.33	-28.3	-41.0	4.0	1.51e+00	0	57	104	0	26	17235
2026-01-23 08:08:40.19	99.55	7.40	-33.9	-49.2	4.1	1.50e+00	0	57	104	0	38	22122
2026-01-23 08:08:41.20	99.44	7.46	-27.1	-41.9	3.9	1.50e+00	0	57	104	0	23	22755
2026-01-23 08:08:42.21	99.34	7.52	-28.7	-41.5	3.9	1.50e+00	0	57	104	0	27	17223
2026-01-23 08:08:43.22	99.23	7.58	-32.7	-44.3	3.9	1.51e+00	0	57	104	0	23	29696
2026-01-23 08:08:44.23	99.12	7.64	-28.6	-43.3	4.1	1.50e+00	0	57	104	0	31	16806
2026-01-23 08:08:45.24	99.02	7.70	-32.5	-46.3	4.2	1.50e+00	0	57	104	0	35	18811
2026-01-23 08:08:46.25	98.91	7.76	-33.2	-46.2	4.0	1.50e+00	0	57	104	0	34	19700
2026-01-23 08:08:47.26	98.80	7.83	-31.1	-44.7	4.2	1.50e+00	0	57	104	0	30	20910
2026-01-23 08:08:48.27	98.69	7.89	-31.6	-46.0	4.2	1.50e+00	0	57	104	0	37	16249
2026-01-23 08:08:49.28	98.58	7.95	-33.0	-44.9	4.2	1.49e+00	0	57	104	0	34	16983
2026-01-23 08:08:50.29	98.47	8.01	-31.0	-44.9	4.3	1.49e+00	0	57	104	0	34	16990
2026-01-23 08:08:51.30	98.36	8.07	-32.0	-43.8	4.3	1.49e+00	0	57	104	0	34	14999
2026-01-23 08:08:52.31	98.25	8.13	-34.3	-47.7	4.1	1.50e+00	0	57	104	0	36	21009
2026-01-23 08:08:53.32	98.14	8.20	-33.6	-44.4	4.2	1.50e+00	0	57	104	0	34	15957
2026-01-23 08:08:54.33	98.03	8.26	-28.1	-44.2	4.2	1.50e+00	0	57	104	0	33	16513
2026-01-23 08:08:55.34	97.92	8.32	-29.1	-43.1	3.5	1.50e+00	0	57	104	0	26	21857
2026-01-23 08:08:56.34	97.80	8.38	-27.6	-42.4	4.1	1.50e+00	0	57	104	0	28	18013
2026-01-23 08:08:57.35	97.69	8.44	-30.5	-42.5	4.1	1.48e+00	0	57	104	0	24	22951
2026-01-23 08:08:58.36	97.58	8.51	-32.8	-42.6	4.5	1.47e+00	0	57	104	0	31	15564
2026-01-23 08:08:59.37	97.46	8.57	-29.0	-41.4	4.5	1.47e+00	0	57	104	0	37	9517
2026-01-23 08:09:00.38	97.35	8.63	-30.3	-42.7	4.2	1.24e+00	0	58	104	0	37	11064
2026-01-23 08:09:01.39	97.23	8.69	-29.2	-41.2	4.3	1.48e+00	0	57	104	0	36	9841
2026-01-23 08:09:02.40	97.12	8.76	-31.8	-48.4	3.9	1.50e+00	0	57	104	0	38	20277
2026-01-23 08:09:03.41	97.00	8.82	-27.2	-41.4	3.9	1.50e+00	0	58	104	0	28	15973
2026-01-23 08:09:04.42	96.88	8.88	-34.4	-46.7	4.1	1.50e+00	0	57	104	0	41	13968
2026-01-23 08:09:05.43	96.77	8.94	-34.6	-49.1	4.1	1.50e+00	0	57	104	0	39	20645
2026-01-23 08:09:06.43	96.65	9.01	-19.9	-37.7	3.7	1.50e+00	0	58	104	0	14	23436
2026-01-23 08:09:07.44	96.53	9.07	-32.6	-48.6	4.1	1.50e+00	0	57	104	0	36	23273
2026-01-23 08:09:08.46	96.41	9.13	-30.1	-47.7	3.8	1.50e+00	0	58	104	0	41	15608
2026-01-23 08:09:09.47	96.29	9.19	-38.5	-51.3	3.7	1.50e+00	0	58	104	0	47	16768
2026-01-23 08:09:10.48	96.17	9.26	-38.8	-51.8	3.9	1.49e+00	0	58	104	0	47	17813
2026-01-23 08:09:11.48	96.05	9.32	-35.1	-50.8	3.8	1.50e+00	0	58	104	0	41	22397
2026-01-23 08:09:12.49	95.93	9.38	-30.8	-47.0	3.3	1.50e+00	0	58	104	0	31	25789
2026-01-23 08:09:13.50	95.81	9.44	-36.8	-51.1	4.0	1.50e+00	0	58	104	0	44	19422
2026-01-23 08:09:14.51	95.69	9.51	-31.1	-48.0	3.9	1.50e+00	0	57	104	0	40	17122
2026-01-23 08:09:15.52	95.57	9.57	-34.3	-48.1	3.9	1.50e+00	0	58	104	0	29	32630
2026-01-23 08:09:16.53	95.44	9.63	-39.6	-52.3	3.7	1.50e+00	0	57	104	0	36	35559
2026-01-23 08:09:17.54	95.32	9.70	-40.4	-51.6	3.9	1.49e+00	0	58	104	0	51	13874
2026-01-23 08:09:18.55	95.20	9.76	-40.4	-52.5	3.7	1.49e+00	0	58	104	0	51	15392
2026-01-23 08:09:19.56	95.07	9.82	-40.6	-50.3	4.1	1.48e+00	0	58	104	0	51	11849
2026-01-23 08:09:20.56	94.95	9.88	-37.6	-51.8	3.9	1.50e+00	0	58	104	0	47	17690
2026-01-23 08:09:21.57	94.82	9.95	-39.6	-51.0	4.1	1.49e+00	0	58	104	0	46	17087
2026-01-23 08:09:22.58	94.70	10.01	-30.9	-49.2	3.7	1.49e+00	0	58	104	0	47	13246
2026-01-23 08:09:23.59	94.57	10.07	-40.6	-52.0	3.9	1.49e+00	0	58	104	0	51	14488
2026-01-23 08:09:24.60	94.44	10.14	-38.6	-51.9	3.8	1.49e+00	0	58	104	0	51	14254
2026-01-23 08:09:25.61	94.31	10.20	-39.3	-47.0	6.1	1.48e+00	0	58	104	0	52	7636
2026-01-23 08:09:26.62	94.19	10.26	-42.2	-52.6	3.9	1.47e+00	0	58	104	0	55	12269
2026-01-23 08:09:27.63	94.06	10.33	-40.6	-48.3	4.9	1.22e+00	0	58	0	0	52	8949
2026-01-23 08:09:28.64	93.93	10.39	-39.3	-47.9	4.9	1.32e+00	0	58	104	0	50	9540
2026-01-23 08:09:29.65	93.80	10.45	-40.5	-46.6	6.1	3.15e-01	0	58	0	2097152	51	7735
2026-01-23 08:09:30.66	93.67	10.52	-40.3	-46.1	6.6	2.35e-01	0	58	0	5242880	50	7730
2026-01-23 08:09:31.67	93.53	10.58	-40.4	-46.4	6.5	2.35e-01	0	58	0	8388608	51	7565
2026-01-23 08:09:32.68	93.40	10.64	-40.2	-45.6	7.1	1.50e-01	0	58	0	11534336	51	6916
2026-01-23 08:09:33.69	93.27	10.71	-39.6	-43.8	9.0	5.81e-02	0	58	0	14680064	50	5984
2026-01-23 08:09:34.70	93.14	10.77	-39.1	-42.7	10.1	9.39e-03	0	58	0	17825792	48	5902
2026-01-23 08:09:35.71	93.00	10.83	-38.9	-42.3	10.5	4.16e-03	0	58	0	20971520	48	5653
2026-01-23 08:09:36.72	92.87	10.90	-39.3	-43.2	9.7	1.27e-02	0	58	0	24117248	49	5882
2026-01-23 08:09:37.73	92.73	10.96	-39.6	-43.8	9.0	1.47e-02	0	58	0	27262976	49	6287
2026-01-23 08:09:38.74	92.60	11.02	-39.8	-44.0	8.8	3.25e-02	0	58	0	30408704	50	6120
2026-01-23 08:09:39.75	92.46	11.09	-40.1	-44.8	8.1	3.59e-02	0	58	0	33554432	50	6664
2026-01-23 08:09:40.76	92.33	11.15	-40.1	-45.0	7.9	7.96e-02	0	58	0	36700160	51	6436
2026-01-23 08:09:41.77	92.19	11.21	-40.2	-45.3	7.5	9.37e-02	0	58	0	39845888	51	6704
2026-01-23 08:09:42.78	92.05	11.28	-40.3	-45.4	7.3	1.29e-01	0	58	0	42991616	51	6797
2026-01-23 08:09:43.78	91.91	11.34	-39.9	-44.7	8.1	6.84e-02	0	58	0	46137344	51	6217
2026-01-23 08:09:44.79	91.78	11.40	-39.7	-44.9	7.9	7.93e-02	0	58	0	49283072	50	6776
2026-01-23 08:09:45.81	91.63	11.47	-39.9	-44.3	8.6	5.06e-02	0	58	0	52428800	50	6298
2026-01-23 08:09:46.81	91.50	11.53	-40.0	-44.5	8.4	4.29e-02	0	58	0	55574528	50	6483
2026-01-23 08:09:47.82	91.35	11.59	-40.1	-44.8	8.1	5.18e-02	0	58	0	58720256	50	6695
2026-01-23 08:09:48.83	91.21	11.66	-39.7	-43.7	9.4	2.20e-02	0	58	0	61865984	50	5889
2026-01-23 08:09:49.84	91.07	11.72	-39.1	-42.6	10.6	4.03e-03	0	58	0	66060288	50	5161
2026-01-23 08:09:50.85	90.93	11.78	-39.4	-43.1	10.0	6.92e-03	0	59	0	68157440	50	5522
2026-01-23 08:09:51.86	90.78	11.85	-40.0	-44.5	8.5	2.53e-02	0	58	0	71303168	50	6472
2026-01-23 08:09:52.87	90.64	11.91	-40.7	-46.6	6.4	1.47e-01	0	58	0	74448896	51	7803
2026-01-23 08:09:53.88	90.50	11.97	-41.0	-48.1	5.3	4.42e-01	0	59	0	77594624	52	8697
2026-01-23 08:09:54.89	90.35	12.04	-41.3	-51.0	3.9	1.43e+00	0	59	104	78643200	53	11448
2026-01-23 08:09:55.90	90.20	12.10	-41.4	-52.2	3.8	1.48e+00	0	59	104	78643200	53	13226
2026-01-23 08:09:56.91	90.06	12.16	-41.4	-53.0	3.8	1.49e+00	0	58	104	78643200	53	14375
2026-01-23 08:09:57.92	89.91	12.23	-41.2	-53.6	3.8	1.49e+00	0	59	104	78643200	53	15418
2026-01-23 08:09:58.93	89.76	12.29	-42.2	-54.2	3.8	1.49e+00	0	58	104	78643200	54	15731
2026-01-23 08:09:59.94	89.61	12.35	-41.5	-53.9	3.8	1.49e+00	0	59	104	78643200	55	14223
2026-01-23 08:10:00.95	89.47	12.42	-41.7	-53.7	3.8	1.49e+00	0	59	104	78643200	54	14843
2026-01-23 08:10:01.96	89.32	12.48	-41.6	-53.9	3.8	1.49e+00	0	59	104	78643200	54	15166
2026-01-23 08:10:02.97	89.17	12.54	-41.5	-53.9	3.8	1.49e+00	0	59	104	78643200	54	15186
2026-01-23 08:10:03.98	89.01	12.61	-41.5	-53.9	3.8	1.49e+00	0	59	104	78643200	54	15087
2026-01-23 08:10:04.99	88.86	12.67	-41.4	-53.7	3.8	1.49e+00	0	59	104	78643200	53	15742
2026-01-23 08:10:06.00	88.71	12.73	-41.6	-54.0	3.8	1.49e+00	0	59	104	78643200	53	16148
2026-01-23 08:10:07.01	88.56	12.79	-41.3	-53.7	3.8	1.49e+00	0	59	104	78643200	53	15643
2026-01-23 08:10:08.01	88.41	12.86	-42.3	-54.2	3.8	1.49e+00	0	59	104	78643200	55	14714
2026-01-23 08:10:09.02	88.25	12.92	-41.0	-53.4	3.8	1.49e+00	0	59	104	78643200	54	14284
2026-01-23 08:10:10.03	88.10	12.98	-40.9	-53.3	3.8	1.49e+00	0	59	104	78643200	53	14973
2026-01-23 08:10:11.04	87.94	13.05	-40.7	-53.2	3.8	1.49e+00	0	59	104	78643200	52	15687
2026-01-23 08:10:12.05	87.78	13.11	-40.8	-53.2	3.8	1.49e+00	0	59	104	78643200	52	15622
2026-01-23 08:10:13.06	87.63	13.17	-40.9	-53.2	3.8	1.49e+00	0	59	104	78643200	52	15700
2026-01-23 08:10:14.07	87.47	13.23	-40.9	-53.3	3.8	1.49e+00	0	59	104	78643200	52	15814
2026-01-23 08:10:15.08	87.31	13.30	-42.3	-53.8	3.8	1.49e+00	0	59	104	78643200	55	14208
2026-01-23 08:10:16.09	87.15	13.36	-41.9	-54.0	3.8	1.49e+00	0	59	104	78643200	55	14446
2026-01-23 08:10:17.10	86.99	13.42	-41.9	-53.5	3.8	1.49e+00	0	59	104	78643200	55	13674
2026-01-23 08:10:18.11	86.83	13.48	-41.9	-52.8	3.8	1.49e+00	0	59	104	78643200	54	13325
2026-01-23 08:10:19.12	86.67	13.55	-41.8	-52.1	3.9	1.49e+00	0	59	104	78643200	54	12248
2026-01-23 08:10:20.13	86.51	13.61	-41.7	-51.7	3.9	1.48e+00	0	59	104	78643200	54	11701
2026-01-23 08:10:21.14	86.35	13.67	-41.6	-51.2	4.1	1.48e+00	0	59	104	78643200	54	11085
2026-01-23 08:10:22.15	86.18	13.73	-41.8	-53.0	3.8	1.49e+00	0	59	104	78643200	54	13669
2026-01-23 08:10:23.16	86.02	13.79	-40.8	-53.1	3.8	1.49e+00	0	59	104	78643200	53	14660
2026-01-23 08:10:24.17	85.85	13.86	-41.0	-52.4	3.8	1.49e+00	0	59	104	78643200	53	13554
2026-01-23 08:10:25.18	85.69	13.92	-41.1	-52.9	3.8	1.48e+00	0	59	104	78643200	53	14222
2026-01-23 08:10:26.19	85.52	13.98	-40.8	-50.3	4.1	1.47e+00	0	59	104	78643200	53	10553
2026-01-23 08:10:27.20	85.36	14.04	-40.7	-50.1	4.1	1.47e+00	0	59	104	78643200	53	10385
2026-01-23 08:10:28.21	85.19	14.10	-40.6	-49.4	4.4	1.44e+00	0	59	104	78643200	53	9533
2026-01-23 08:10:29.22	85.02	14.17	-40.4	-47.5	5.3	5.83e-01	0	59	0	79691776	52	8144
2026-01-23 08:10:30.23	84.85	14.23	-40.9	-50.6	3.9	1.48e+00	0	59	104	80740352	52	11625
2026-01-23 08:10:31.24	84.68	14.29	-41.1	-49.6	4.0	1.47e+00	0	59	104	81788928	52	10309
2026-01-23 08:10:32.25	84.51	14.35	-41.7	-52.5	3.9	1.49e+00	0	59	104	81788928	54	12841
2026-01-23 08:10:33.26	84.34	14.41	-40.4	-48.9	4.0	1.01e+00	0	59	104	81788928	52	9587
2026-01-23 08:10:34.27	84.17	14.47	-39.9	-44.9	7.7	1.02e-01	0	59	0	83886080	51	6365
2026-01-23 08:10:35.28	84.00	14.53	-39.9	-44.8	7.9	7.73e-02	0	59	0	87031808	51	6278
2026-01-23 08:10:36.29	83.83	14.59	-40.0	-44.9	7.8	7.56e-02	0	59	0	90177536	51	6392
2026-01-23 08:10:37.29	83.65	14.65	-40.0	-45.1	7.5	9.28e-02	0	59	0	93323264	51	6558
2026-01-23 08:10:38.30	83.48	14.71	-40.1	-45.4	7.3	1.21e-01	0	59	0	96468992	51	6738
2026-01-23 08:10:39.31	83.30	14.78	-40.2	-45.5	7.2	1.24e-01	0	59	0	99614720	51	6823
2026-01-23 08:10:40.32	83.13	14.84	-40.1	-45.1	7.7	9.99e-02	0	60	0	102760448	51	6497
2026-01-23 08:10:41.33	82.95	14.90	-40.0	-44.6	8.3	5.77e-02	0	59	0	105906176	51	6197
2026-01-23 08:10:42.34	82.77	14.96	-40.2	-44.9	8.0	6.24e-02	0	59	0	109051904	51	6402
2026-01-23 08:10:43.35	82.60	15.02	-40.3	-45.1	8.0	6.91e-02	0	60	0	112197632	51	6509
2026-01-23 08:10:44.36	82.42	15.08	-40.4	-45.2	7.8	7.69e-02	0	59	0	115343360	51	6645
2026-01-23 08:10:45.37	82.24	15.14	-40.4	-45.3	7.8	7.93e-02	0	59	0	118489088	51	6677
2026-01-23 08:10:46.38	82.06	15.20	-40.4	-45.2	7.9	6.93e-02	0	59	0	121634816	51	6606
2026-01-23 08:10:47.39	81.88	15.26	-40.3	-44.9	8.3	5.74e-02	0	59	0	124780544	51	6381
2026-01-23 08:10:48.40	81.70	15.31	-40.3	-44.9	8.4	5.26e-02	0	59	0	127926272	51	6367
2026-01-23 08:10:49.41	81.51	15.37	-40.4	-45.1	8.3	4.91e-02	0	59	0	131072000	51	6509
2026-01-23 08:10:50.42	81.33	15.43	-40.5	-45.3	8.1	5.91e-02	0	59	0	134217728	51	6663
2026-01-23 08:10:51.43	81.15	15.49	-40.6	-45.5	7.8	7.67e-02	0	59	0	137363456	51	6852
2026-01-23 08:10:52.44	80.96	15.55	-40.6	-45.5	7.7	8.55e-02	0	59	0	140509184	51	6853
2026-01-23 08:10:53.45	80.78	15.61	-40.6	-45.8	7.4	1.01e-01	0	59	0	143654912	51	7049
2026-01-23 08:10:54.46	80.59	15.67	-40.5	-45.7	7.4	1.17e-01	0	60	0	146800640	51	6970
2026-01-23 08:10:55.47	80.40	15.73	-40.5	-45.7	7.3	1.12e-01	0	60	0	149946368	51	6993
2026-01-23 08:10:56.48	80.22	15.78	-40.5	-45.8	7.2	1.30e-01	0	59	0	153092096	51	7108
2026-01-23 08:10:57.49	80.03	15.84	-40.9	-47.2	6.0	1.95e-01	0	59	0	156237824	52	7894
2026-01-23 08:10:58.50	79.84	15.90	-40.5	-45.9	7.1	5.55e-01	0	60	0	157286400	53	6365
2026-01-23 08:10:59.51	79.65	15.96	-41.9	-51.0	4.3	1.47e+00	0	59	104	158334976	54	10816
2026-01-23 08:11:00.52	79.46	16.02	-40.7	-45.7	5.8	1.49e+00	0	60	104	158334976	53	6228
2026-01-23 08:11:01.53	79.27	16.07	-41.0	-46.7	6.6	1.37e+00	2	60	104	159383552	53	7024
2026-01-23 08:11:02.54	79.08	16.13	-40.5	-45.4	7.9	6.46e-02	0	59	0	161480704	53	6010
2026-01-23 08:11:03.55	78.88	16.19	-40.4	-45.2	8.1	6.40e-02	0	59	0	164626432	52	6219
2026-01-23 08:11:04.56	78.69	16.24	-40.3	-45.0	8.2	5.56e-02	0	59	0	167772160	52	6096
2026-01-23 08:11:05.57	78.49	16.30	-40.3	-45.1	8.0	6.22e-02	0	60	0	170917888	52	6141
2026-01-23 08:11:06.58	78.30	16.36	-40.3	-45.2	7.8	8.14e-02	0	60	0	174063616	52	6272
2026-01-23 08:11:07.59	78.10	16.41	-40.3	-45.5	7.4	9.35e-02	0	59	0	177209344	52	6486
2026-01-23 08:11:08.60	77.91	16.47	-40.3	-45.4	7.5	1.12e-01	0	60	0	180355072	52	6355
2026-01-23 08:11:09.61	77.71	16.52	-40.1	-44.9	8.0	7.61e-02	0	59	0	183500800	52	6035
2026-01-23 08:11:10.61	77.52	16.58	-40.0	-44.8	8.0	6.42e-02	0	60	0	186646528	52	5969
2026-01-23 08:11:11.62	77.32	16.63	-40.2	-45.2	7.7	8.32e-02	0	60	0	189792256	52	6203
2026-01-23 08:11:12.63	77.12	16.69	-40.2	-45.3	7.6	9.33e-02	0	60	0	192937984	52	6293
2026-01-23 08:11:13.64	76.92	16.74	-40.3	-45.3	7.7	8.63e-02	0	60	0	196083712	52	6283
2026-01-23 08:11:14.65	76.72	16.80	-40.2	-45.0	8.0	7.57e-02	0	60	0	199229440	52	6099
2026-01-23 08:11:15.66	76.52	16.85	-40.1	-44.7	8.3	5.35e-02	0	60	0	202375168	52	5917
2026-01-23 08:11:16.67	76.31	16.91	-40.0	-44.4	8.7	3.88e-02	0	60	0	205520896	51	6022
2026-01-23 08:11:17.68	76.11	16.96	-39.9	-44.2	8.9	2.98e-02	0	59	0	208666624	51	5867
2026-01-23 08:11:18.69	75.91	17.01	-39.9	-44.1	9.0	2.59e-02	0	60	0	211812352	51	5835
2026-01-23 08:11:19.70	75.70	17.07	-39.9	-44.3	8.8	3.04e-02	0	60	0	214958080	51	5936
2026-01-23 08:11:20.71	75.50	17.12	-40.1	-44.6	8.5	3.83e-02	0	60	0	218103808	51	6178
2026-01-23 08:11:21.72	75.29	17.17	-40.1	-44.7	8.3	4.82e-02	0	60	0	221249536	51	6251
2026-01-23 08:11:22.73	75.09	17.22	-40.2	-44.8	8.2	5.47e-02	0	60	0	224395264	51	6341
2026-01-23 08:11:23.74	74.88	17.28	-40.2	-45.0	8.0	6.40e-02	0	60	0	227540992	51	6489
2026-01-23 08:11:24.75	74.67	17.33	-40.4	-45.4	7.6	8.80e-02	0	60	0	230686720	51	6787
2026-01-23 08:11:25.76	74.46	17.38	-40.4	-45.7	7.3	1.19e-01	0	60	0	233832448	51	7013
2026-01-23 08:11:26.77	74.25	17.43	-40.5	-45.8	7.2	1.34e-01	0	60	0	236978176	51	7108
2026-01-23 08:11:27.78	74.04	17.48	-40.5	-45.9	7.1	1.42e-01	0	60	0	240123904	51	7146
2026-01-23 08:11:28.78	73.83	17.53	-40.5	-45.9	7.1	1.47e-01	0	60	0	243269632	51	7163
2026-01-23 08:11:29.79	73.62	17.58	-40.5	-45.9	7.2	1.38e-01	0	60	0	246415360	51	7171
2026-01-23 08:11:30.80	73.41	17.63	-42.0	-51.4	3.9	4.44e-01	0	60	104	249561088	54	11345
2026-01-23 08:11:31.81	73.20	17.68	-41.2	-49.3	4.7	2.45e-01	0	60	0	249561088	52	10005
2026-01-23 08:11:32.82	72.98	17.73	-41.3	-49.3	4.7	8.01e-01	0	60	104	249561088	53	9395
2026-01-23 08:11:33.83	72.77	17.78	-41.2	-49.0	4.9	3.66e-01	0	60	0	250609664	52	9672
2026-01-23 08:11:34.84	72.55	17.83	-40.4	-46.0	6.9	5.98e-01	0	60	0	251658240	52	6838
2026-01-23 08:11:35.85	72.34	17.88	-40.4	-45.7	7.3	1.26e-01	0	60	0	254803968	52	6571
2026-01-23 08:11:36.86	72.12	17.93	-40.3	-45.4	7.6	1.01e-01	0	60	0	256901120	52	6404
2026-01-23 08:11:37.87	71.90	17.97	-40.3	-45.1	8.0	7.98e-02	0	60	0	260046848	52	6192
2026-01-23 08:11:38.88	71.69	18.02	-40.1	-44.6	8.6	4.24e-02	0	60	0	263192576	52	5845
2026-01-23 08:11:39.89	71.47	18.07	-40.0	-44.3	9.1	2.51e-02	0	60	0	267386880	52	5600
2026-01-23 08:11:40.90	71.25	18.12	-40.0	-44.1	9.5	1.75e-02	0	60	0	270532608	51	5793
2026-01-23 08:11:41.91	71.03	18.16	-40.0	-43.8	9.9	9.42e-03	0	60	0	273678336	51	5626
2026-01-23 08:11:42.92	70.81	18.21	-40.1	-43.7	10.2	6.90e-03	0	60	0	276824064	51	5581
2026-01-23 08:11:43.93	70.59	18.26	-40.0	-43.5	10.4	4.97e-03	0	60	0	279969792	51	5455
2026-01-23 08:11:44.94	70.37	18.30	-39.9	-43.3	10.7	3.30e-03	0	60	0	283115520	51	5326
2026-01-23 08:11:45.95	70.14	18.35	-39.9	-43.2	10.9	2.22e-03	0	60	0	286261248	51	5223
2026-01-23 08:11:46.97	69.92	18.39	-39.8	-43.0	11.2	1.57e-03	0	60	0	289406976	51	5120
2026-01-23 08:11:47.98	69.69	18.44	-39.9	-43.1	11.2	1.52e-03	0	60	0	292552704	51	5173
2026-01-23 08:11:48.99	69.47	18.48	-39.8	-42.8	11.6	8.25e-04	0	60	0	295698432	51	5028
2026-01-23 08:11:50.00	69.24	18.52	-39.8	-42.7	11.9	4.28e-04	0	60	0	298844160	51	4931
2026-01-23 08:11:51.01	69.02	18.57	-39.8	-42.6	12.1	2.57e-04	0	60	0	301989888	51	4906
2026-01-23 08:11:52.01	68.79	18.61	-39.8	-42.6	12.3	1.94e-04	0	60	0	305135616	51	4877
2026-01-23 08:11:53.02	68.57	18.65	-39.8	-42.4	12.6	9.76e-05	0	60	0	308281344	51	4809
2026-01-23 08:11:54.03	68.34	18.69	-39.8	-42.4	12.7	8.16e-05	0	60	0	311427072	51	4798
2026-01-23 08:11:55.04	68.11	18.74	-39.7	-42.2	12.9	5.95e-05	0	60	0	314572800	51	4693
2026-01-23 08:11:56.05	67.88	18.78	-39.5	-42.0	13.3	1.90e-05	0	60	0	317718528	51	4548
2026-01-23 08:11:57.06	67.65	18.82	-39.5	-41.9	13.4	1.22e-05	0	60	0	320864256	50	4778
2026-01-23 08:11:58.07	67.42	18.86	-39.5	-41.9	13.4	1.90e-05	0	60	0	324009984	50	4796
2026-01-23 08:11:59.08	67.19	18.90	-39.4	-41.8	13.5	1.52e-05	0	60	0	327155712	50	4723
2026-01-23 08:12:00.09	66.96	18.94	-39.5	-41.8	13.6	8.30e-06	0	60	0	330301440	50	4737
2026-01-23 08:12:01.10	66.73	18.98	-39.4	-41.7	13.7	8.30e-06	0	60	0	333447168	50	4672
2026-01-23 08:12:02.11	66.50	19.02	-39.5	-41.8	13.6	5.30e-06	0	60	0	336592896	50	4719
2026-01-23 08:12:03.12	66.26	19.05	-39.4	-41.7	13.8	7.60e-06	0	60	0	339738624	50	4655
2026-01-23 08:12:04.13	66.03	19.09	-39.4	-41.7	13.8	2.20e-06	0	60	0	342884352	50	4669
2026-01-23 08:12:05.14	65.79	19.13	-39.4	-41.7	13.8	2.20e-06	0	60	0	346030080	50	4684
2026-01-23 08:12:06.15	65.56	19.17	-39.5	-41.7	13.8	1.50e-06	0	60	0	349175808	50	4704
2026-01-23 08:12:07.15	65.33	19.20	-39.4	-41.7	13.9	3.00e-06	0	60	0	352321536	50	4659
2026-01-23 08:12:08.16	65.09	19.24	-39.5	-41.7	13.9	4.50e-06	0	60	0	355467264	50	4684
2026-01-23 08:12:09.17	64.85	19.27	-39.4	-41.6	14.0	3.80e-06	0	60	0	358612992	50	4644
2026-01-23 08:12:10.19	64.61	19.31	-39.4	-41.6	14.0	2.20e-06	0	60	0	361758720	50	4609
2026-01-23 08:12:11.19	64.38	19.34	-39.4	-41.6	14.1	0.00e+00	0	60	0	364904448	50	4608
2026-01-23 08:12:12.20	64.14	19.38	-39.4	-41.6	14.0	1.50e-06	0	60	0	368050176	50	4633
2026-01-23 08:12:13.21	63.90	19.41	-39.4	-41.6	14.0	3.00e-06	0	60	0	371195904	50	4651
2026-01-23 08:12:14.22	63.66	19.45	-39.4	-41.6	14.1	7.00e-07	0	60	0	374341632	50	4621
2026-01-23 08:12:15.23	63.42	19.48	-39.4	-41.6	14.0	1.50e-06	0	60	0	377487360	50	4623
2026-01-23 08:12:16.24	63.18	19.51	-39.5	-41.8	13.9	1.50e-06	0	60	0	380633088	50	4714
2026-01-23 08:12:17.25	62.94	19.54	-39.5	-41.7	13.9	2.20e-06	0	60	0	383778816	50	4676
2026-01-23 08:12:18.26	62.70	19.57	-39.5	-41.7	13.9	3.80e-06	0	60	0	386924544	50	4666
2026-01-23 08:12:19.28	62.46	19.61	-39.5	-41.7	13.9	1.50e-06	0	60	0	390070272	50	4704
2026-01-23 08:12:20.29	62.21	19.64	-39.5	-41.8	13.9	3.80e-06	0	60	0	393216000	50	4718
2026-01-23 08:12:21.30	61.97	19.67	-39.6	-41.9	13.8	3.80e-06	0	60	0	396361728	50	4761
2026-01-23 08:12:22.31	61.73	19.70	-39.6	-41.8	13.8	2.20e-06	0	60	0	399507456	50	4752
2026-01-23 08:12:23.32	61.48	19.72	-39.6	-41.8	13.9	4.50e-06	0	60	0	402653184	50	4750
2026-01-23 08:12:24.33	61.24	19.75	-39.6	-41.9	13.8	2.20e-06	0	60	0	405798912	50	4779
2026-01-23 08:12:25.34	61.00	19.78	-39.6	-41.8	13.9	2.20e-06	0	60	0	408944640	50	4753
2026-01-23 08:12:26.34	60.75	19.81	-39.6	-41.9	13.9	5.30e-06	0	60	0	412090368	50	4766
2026-01-23 08:12:27.35	60.51	19.83	-39.6	-41.8	13.9	3.00e-06	0	60	0	415236096	50	4747
2026-01-23 08:12:28.36	60.26	19.86	-39.6	-41.9	13.8	4.50e-06	0	60	0	418381824	50	4777
2026-01-23 08:12:29.38	60.01	19.89	-39.6	-41.8	13.9	3.80e-06	0	60	0	421527552	50	4726
2026-01-23 08:12:30.39	59.77	19.91	-39.5	-41.8	14.0	4.50e-06	0	60	0	424673280	50	4706
2026-01-23 08:12:31.40	59.52	19.94	-39.6	-41.8	13.9	5.30e-06	0	60	0	427819008	50	4748
2026-01-23 08:12:32.40	59.27	19.96	-39.7	-41.9	13.8	6.80e-06	0	60	0	430964736	50	4798
2026-01-23 08:12:33.41	59.03	19.99	-39.7	-41.9	13.8	5.30e-06	0	60	0	434110464	50	4804
2026-01-23 08:12:34.42	58.78	20.01	-39.7	-42.0	13.7	3.00e-06	0	60	0	437256192	50	4857
2026-01-23 08:12:35.43	58.53	20.03	-39.8	-42.2	13.6	1.06e-05	0	60	0	440401920	50	4928
2026-01-23 08:12:36.44	58.28	20.05	-39.9	-42.2	13.5	1.22e-05	0	60	0	443547648	50	4974
2026-01-23 08:12:37.45	58.03	20.07	-39.9	-42.3	13.5	7.60e-06	0	60	0	446693376	50	4987
2026-01-23 08:12:38.46	57.78	20.10	-39.9	-42.2	13.5	9.90e-06	0	60	0	449839104	50	4982
2026-01-23 08:12:39.47	57.53	20.12	-39.8	-42.2	13.6	1.06e-05	0	60	0	452984832	50	4946
2026-01-23 08:12:40.48	57.28	20.14	-39.9	-42.2	13.5	5.30e-06	0	60	0	456130560	50	4967
2026-01-23 08:12:41.49	57.03	20.15	-39.8	-42.1	13.6	6.80e-06	0	60	0	459276288	50	4923
2026-01-23 08:12:42.50	56.78	20.17	-39.7	-42.0	13.8	7.60e-06	0	60	0	462422016	50	4835
2026-01-23 08:12:43.51	56.53	20.19	-39.7	-41.9	13.8	1.50e-06	0	60	0	465567744	50	4810
2026-01-23 08:12:44.52	56.28	20.21	-39.6	-41.8	13.9	3.80e-06	0	60	0	468713472	50	4755
2026-01-23 08:12:45.53	56.02	20.23	-39.6	-41.8	14.0	3.80e-06	0	60	0	471859200	50	4754
2026-01-23 08:12:46.54	55.77	20.24	-39.6	-41.8	14.0	1.50e-06	0	60	0	475004928	50	4753
2026-01-23 08:12:47.55	55.52	20.26	-39.7	-41.9	13.8	9.90e-06	0	60	0	478150656	50	4812
2026-01-23 08:12:48.56	55.27	20.27	-39.8	-42.0	13.7	6.10e-06	0	60	0	481296384	50	4868
2026-01-23 08:12:49.57	55.01	20.29	-39.7	-42.0	13.8	6.80e-06	0	60	0	484442112	50	4854
2026-01-23 08:12:50.58	54.76	20.30	-39.7	-42.0	13.8	2.20e-06	0	60	0	487587840	50	4818
2026-01-23 08:12:51.59	54.51	20.32	-39.6	-41.9	13.9	4.50e-06	0	60	0	490733568	50	4781
2026-01-23 08:12:52.60	54.25	20.33	-39.6	-41.8	14.0	3.80e-06	0	60	0	493879296	50	4742
2026-01-23 08:12:53.61	54.00	20.34	-39.6	-41.8	14.0	1.50e-06	0	60	0	497025024	50	4732
2026-01-23 08:12:54.62	53.75	20.35	-39.5	-41.7	14.1	2.20e-06	0	60	0	500170752	50	4690
2026-01-23 08:12:55.63	53.49	20.36	-39.5	-41.7	14.0	1.50e-06	0	60	0	503316480	50	4699
2026-01-23 08:12:56.64	53.24	20.38	-39.6	-41.8	14.0	7.00e-07	0	60	0	506462208	50	4709
2026-01-23 08:12:57.64	52.99	20.39	-39.6	-41.8	14.0	2.20e-06	0	60	0	509607936	50	4749
2026-01-23 08:12:58.65	52.73	20.39	-39.7	-41.9	13.9	3.00e-06	0	60	0	512753664	50	4797
2026-01-23 08:12:59.66	52.48	20.40	-39.7	-42.0	13.8	9.90e-06	0	60	0	515899392	50	4822
2026-01-23 08:13:00.67	52.22	20.41	-39.7	-41.9	13.9	3.80e-06	0	60	0	519045120	50	4803
2026-01-23 08:13:01.68	51.97	20.42	-39.6	-41.9	13.9	6.10e-06	0	60	0	522190848	50	4780
2026-01-23 08:13:02.69	51.71	20.43	-39.6	-41.9	13.9	3.00e-06	0	60	0	525336576	50	4777
2026-01-23 08:13:03.70	51.46	20.43	-39.6	-41.8	14.0	3.00e-06	0	60	0	528482304	50	4729
2026-01-23 08:13:04.71	51.20	20.44	-39.5	-41.7	14.1	1.50e-06	0	60	0	531628032	50	4656
2026-01-23 08:13:05.72	50.94	20.44	-39.6	-41.8	14.0	2.20e-06	0	60	0	534773760	50	4725
2026-01-23 08:13:06.73	50.69	20.45	-39.6	-41.9	13.9	3.80e-06	0	60	0	537919488	50	4766
2026-01-23 08:13:07.74	50.43	20.45	-39.6	-41.8	14.0	3.00e-06	0	60	0	541065216	50	4738
2026-01-23 08:13:08.75	50.18	20.46	-39.6	-41.8	14.1	2.20e-06	0	60	0	544210944	50	4719
2026-01-23 08:13:09.76	49.92	20.46	-39.6	-41.9	13.9	3.80e-06	0	61	0	547356672	50	4780
2026-01-23 08:13:10.77	49.67	20.46	-39.7	-42.0	13.8	4.50e-06	0	60	0	550502400	50	4836
2026-01-23 08:13:11.78	49.41	20.46	-39.8	-42.1	13.7	6.10e-06	0	61	0	553648128	50	4885
2026-01-23 08:13:12.79	49.15	20.46	-39.8	-42.1	13.7	3.80e-06	0	60	0	556793856	50	4921
2026-01-23 08:13:13.80	48.90	20.47	-39.8	-42.2	13.6	8.30e-06	0	60	0	559939584	50	4938
2026-01-23 08:13:14.81	48.64	20.47	-39.9	-42.3	13.5	6.80e-06	0	60	0	563085312	50	4986
2026-01-23 08:13:15.81	48.39	20.46	-39.9	-42.3	13.4	1.06e-05	0	60	0	566231040	50	5035
2026-01-23 08:13:16.82	48.13	20.46	-39.9	-42.3	13.5	1.29e-05	0	60	0	569376768	50	5022
2026-01-23 08:13:17.83	47.88	20.46	-40.0	-42.3	13.5	1.29e-05	0	60	0	572522496	50	5039
2026-01-23 08:13:18.84	47.62	20.46	-39.9	-42.2	13.6	1.22e-05	0	60	0	575668224	50	4951
2026-01-23 08:13:19.85	47.37	20.46	-39.7	-42.0	13.8	3.00e-06	0	60	0	578813952	50	4839
2026-01-23 08:13:20.86	47.11	20.45	-39.6	-41.8	14.1	2.20e-06	0	60	0	581959680	50	4708
2026-01-23 08:13:21.87	46.86	20.45	-39.5	-41.6	14.2	1.50e-06	0	60	0	585105408	50	4650
2026-01-23 08:13:22.88	46.60	20.44	-39.5	-41.6	14.2	2.20e-06	0	60	0	588251136	50	4643
2026-01-23 08:13:23.89	46.34	20.44	-39.5	-41.7	14.1	1.50e-06	0	60	0	592445440	50	4681
2026-01-23 08:13:24.90	46.09	20.43	-39.5	-41.7	14.1	2.20e-06	0	60	0	594542592	50	4693
2026-01-23 08:13:25.91	45.83	20.42	-39.5	-41.7	14.2	2.20e-06	0	60	0	597688320	50	4653
2026-01-23 08:13:26.92	45.58	20.42	-39.5	-41.7	14.1	1.50e-06	0	60	0	600834048	50	4687
2026-01-23 08:13:27.93	45.32	20.41	-39.6	-41.8	14.1	3.00e-06	0	60	0	603979776	50	4714
2026-01-23 08:13:28.94	45.07	20.40	-39.5	-41.7	14.2	1.50e-06	0	60	0	608174080	50	4655
2026-01-23 08:13:29.95	44.81	20.39	-39.5	-41.7	14.1	0.00e+00	0	60	0	611319808	50	4695
2026-01-23 08:13:30.96	44.56	20.38	-39.6	-41.8	14.0	2.20e-06	0	60	0	614465536	50	4730
2026-01-23 08:13:31.97	44.31	20.37	-39.6	-41.9	14.0	1.50e-06	0	60	0	617611264	50	4766
2026-01-23 08:13:32.98	44.05	20.36	-39.7	-41.9	13.9	4.50e-06	0	60	0	619708416	50	4779
2026-01-23 08:13:33.98	43.80	20.35	-39.7	-42.0	13.8	3.80e-06	0	60	0	623902720	50	4840
2026-01-23 08:13:34.99	43.55	20.34	-39.8	-42.0	13.8	8.30e-06	0	60	0	627048448	50	4861
2026-01-23 08:13:36.00	43.29	20.33	-39.8	-42.0	13.8	3.80e-06	0	60	0	630194176	50	4869
2026-01-23 08:13:37.01	43.04	20.31	-39.7	-41.9	13.9	7.60e-06	0	61	0	633339904	50	4813
2026-01-23 08:13:38.02	42.79	20.30	-39.8	-42.0	13.8	2.20e-06	0	60	0	636485632	50	4869
2026-01-23 08:13:39.04	42.53	20.28	-39.7	-42.0	13.8	5.30e-06	0	60	0	639631360	50	4852
2026-01-23 08:13:40.05	42.28	20.27	-39.7	-42.0	13.9	1.50e-06	0	60	0	642777088	50	4824
2026-01-23 08:13:41.05	42.03	20.25	-39.6	-41.8	14.0	0.00e+00	0	60	0	645922816	50	4754
2026-01-23 08:13:42.06	41.78	20.24	-39.6	-41.8	14.0	7.00e-07	0	60	0	649068544	50	4735
2026-01-23 08:13:43.08	41.52	20.22	-39.6	-41.8	14.0	3.00e-06	0	61	0	652214272	50	4729
2026-01-23 08:13:44.09	41.27	20.20	-39.6	-41.8	14.0	7.00e-07	0	60	0	655360000	50	4730
2026-01-23 08:13:45.10	41.02	20.19	-39.6	-41.8	14.0	1.50e-06	0	60	0	658505728	50	4749
2026-01-23 08:13:46.11	40.77	20.17	-39.7	-42.0	13.9	2.20e-06	0	60	0	661651456	50	4818
2026-01-23 08:13:47.12	40.52	20.15	-39.7	-41.9	14.0	1.50e-06	0	60	0	664797184	50	4779
2026-01-23 08:13:48.13	40.27	20.13	-39.6	-41.9	14.0	4.50e-06	0	60	0	667942912	50	4780
2026-01-23 08:13:49.14	40.02	20.11	-39.7	-42.0	13.9	1.50e-06	0	60	0	671088640	50	4815
2026-01-23 08:13:50.15	39.77	20.09	-39.7	-42.0	13.8	3.80e-06	0	60	0	674234368	50	4869
2026-01-23 08:13:51.16	39.52	20.07	-39.8	-42.1	13.7	4.50e-06	0	60	0	677380096	50	4925
2026-01-23 08:13:52.17	39.27	20.05	-39.8	-42.1	13.7	9.90e-06	0	61	0	680525824	50	4904
2026-01-23 08:13:53.18	39.02	20.02	-39.9	-42.2	13.7	6.80e-06	0	61	0	683671552	50	4951
2026-01-23 08:13:54.19	38.77	20.00	-39.9	-42.2	13.6	6.80e-06	0	61	0	686817280	50	4979
2026-01-23 08:13:55.20	38.53	19.98	-39.8	-42.2	13.7	5.30e-06	0	61	0	689963008	50	4930
2026-01-23 08:13:56.21	38.28	19.95	-39.7	-41.9	13.9	3.00e-06	0	60	0	693108736	50	4809
2026-01-23 08:13:57.22	38.03	19.93	-39.6	-41.9	14.0	2.20e-06	0	60	0	696254464	50	4763
2026-01-23 08:13:58.23	37.79	19.90	-39.6	-41.9	14.0	7.00e-07	0	60	0	699400192	50	4764
2026-01-23 08:13:59.24	37.54	19.88	-39.6	-41.9	14.0	5.30e-06	0	60	0	702545920	50	4763
2026-01-23 08:14:00.25	37.29	19.85	-39.6	-41.8	14.0	1.50e-06	0	61	0	705691648	50	4748
2026-01-23 08:14:01.26	37.05	19.83	-39.7	-41.9	13.9	6.80e-06	0	61	0	708837376	50	4804
2026-01-23 08:14:02.27	36.80	19.80	-39.7	-42.0	13.9	6.80e-06	0	61	0	711983104	50	4835
2026-01-23 08:14:03.28	36.56	19.77	-39.8	-42.1	13.8	4.50e-06	0	60	0	715128832	50	4893
2026-01-23 08:14:04.28	36.32	19.74	-39.8	-42.2	13.7	5.30e-06	0	61	0	718274560	50	4933
2026-01-23 08:14:05.29	36.07	19.72	-39.9	-42.2	13.6	9.10e-06	0	60	0	721420288	50	4975
2026-01-23 08:14:06.30	35.83	19.69	-39.9	-42.3	13.6	5.30e-06	0	60	0	724566016	50	4988
2026-01-23 08:14:07.31	35.59	19.66	-39.9	-42.2	13.7	9.90e-06	0	61	0	727711744	50	4938
2026-01-23 08:14:08.32	35.35	19.63	-39.8	-42.2	13.7	4.50e-06	0	60	0	730857472	50	4928
2026-01-23 08:14:09.33	35.10	19.60	-39.8	-42.1	13.7	4.50e-06	0	61	0	734003200	50	4896
2026-01-23 08:14:10.34	34.86	19.57	-39.9	-42.2	13.6	6.80e-06	0	60	0	737148928	50	4952
2026-01-23 08:14:11.35	34.62	19.53	-39.9	-42.2	13.6	7.60e-06	0	61	0	740294656	50	4957
2026-01-23 08:14:12.36	34.38	19.50	-39.8	-42.1	13.7	4.50e-06	0	61	0	743440384	50	4925
2026-01-23 08:14:13.37	34.14	19.47	-39.9	-42.2	13.6	1.06e-05	0	61	0	746586112	50	4970
2026-01-23 08:14:14.38	33.90	19.44	-39.9	-42.2	13.6	7.60e-06	0	61	0	749731840	50	4955
2026-01-23 08:14:15.39	33.67	19.40	-39.9	-42.2	13.6	9.90e-06	0	61	0	752877568	50	4970
2026-01-23 08:14:16.40	33.43	19.37	-39.8	-42.1	13.7	3.80e-06	0	60	0	756023296	50	4926
2026-01-23 08:14:17.41	33.19	19.33	-39.8	-42.1	13.8	4.50e-06	0	61	0	759169024	50	4897
2026-01-23 08:14:18.42	32.95	19.30	-39.8	-42.1	13.7	3.80e-06	0	61	0	762314752	50	4924
2026-01-23 08:14:19.43	32.72	19.26	-39.8	-42.1	13.8	6.10e-06	0	61	0	765460480	50	4881
2026-01-23 08:14:20.44	32.48	19.23	-39.8	-42.0	13.8	0.00e+00	0	60	0	768606208	50	4857
2026-01-23 08:14:21.45	32.25	19.19	-39.7	-42.0	13.9	2.20e-06	0	60	0	771751936	50	4835
2026-01-23 08:14:22.46	32.01	19.16	-39.8	-42.1	13.8	6.10e-06	0	60	0	774897664	50	4877
2026-01-23 08:14:23.46	31.78	19.12	-39.7	-42.0	13.9	3.00e-06	0	61	0	778043392	50	4831
2026-01-23 08:14:24.47	31.55	19.08	-39.7	-42.0	13.8	6.80e-06	0	61	0	781189120	50	4848
2026-01-23 08:14:25.49	31.31	19.04	-39.8	-42.1	13.8	3.80e-06	0	61	0	784334848	50	4900
2026-01-23 08:14:26.49	31.08	19.00	-39.8	-42.1	13.7	5.30e-06	0	60	0	787480576	50	4925
2026-01-23 08:14:27.50	30.85	18.97	-39.8	-42.1	13.8	4.50e-06	0	61	0	790626304	50	4893
2026-01-23 08:14:28.51	30.62	18.93	-39.7	-41.9	14.0	3.80e-06	0	61	0	793772032	50	4779
2026-01-23 08:14:29.52	30.39	18.89	-39.6	-41.8	14.1	2.20e-06	0	61	0	796917760	50	4713
2026-01-23 08:14:30.53	30.16	18.85	-39.6	-41.8	14.0	3.80e-06	0	60	0	800063488	50	4755
2026-01-23 08:14:31.54	29.93	18.81	-39.7	-42.0	13.8	6.10e-06	0	60	0	803209216	50	4839
2026-01-23 08:14:32.55	29.70	18.77	-39.8	-42.1	13.7	5.30e-06	0	61	0	806354944	50	4880
2026-01-23 08:14:33.55	29.47	18.72	-39.9	-42.3	13.6	6.10e-06	0	60	0	809500672	50	4987
2026-01-23 08:14:34.56	29.25	18.68	-39.9	-42.3	13.6	9.90e-06	0	61	0	812646400	50	4990
2026-01-23 08:14:35.57	29.02	18.64	-40.0	-42.3	13.5	1.06e-05	0	61	0	815792128	50	5039
2026-01-23 08:14:36.58	28.79	18.60	-40.0	-42.3	13.5	9.10e-06	0	60	0	818937856	50	5039
2026-01-23 08:14:37.59	28.57	18.56	-40.0	-42.3	13.5	1.29e-05	0	60	0	822083584	50	5030
2026-01-23 08:14:38.60	28.34	18.51	-40.0	-42.4	13.4	1.14e-05	0	61	0	825229312	50	5066
2026-01-23 08:14:39.61	28.12	18.47	-40.0	-42.4	13.4	1.75e-05	0	61	0	828375040	50	5063
2026-01-23 08:14:40.61	27.90	18.42	-39.9	-42.3	13.6	1.22e-05	0	61	0	831520768	50	4997
2026-01-23 08:14:41.62	27.67	18.38	-39.9	-42.2	13.6	6.10e-06	0	60	0	834666496	50	4962
2026-01-23 08:14:42.63	27.45	18.34	-39.9	-42.2	13.6	9.90e-06	0	61	0	837812224	50	4961
2026-01-23 08:14:43.65	27.23	18.29	-39.8	-42.1	13.7	1.14e-05	0	61	0	840957952	50	4925
2026-01-23 08:14:44.65	27.01	18.24	-39.9	-42.3	13.5	1.29e-05	0	61	0	844103680	50	5018
2026-01-23 08:14:45.66	26.79	18.20	-40.0	-42.4	13.5	9.90e-06	0	61	0	847249408	50	5057
2026-01-23 08:14:46.67	26.57	18.15	-40.1	-42.5	13.3	1.67e-05	0	61	0	850395136	50	5110
2026-01-23 08:14:47.68	26.35	18.11	-40.1	-42.6	13.2	1.67e-05	0	61	0	853540864	50	5174
2026-01-23 08:14:48.69	26.13	18.06	-40.1	-42.6	13.2	2.97e-05	0	61	0	856686592	50	5177
2026-01-23 08:14:49.70	25.92	18.01	-40.1	-42.6	13.2	2.44e-05	0	61	0	859832320	50	5184
2026-01-23 08:14:50.71	25.70	17.96	-40.1	-42.5	13.3	2.21e-05	0	61	0	862978048	50	5108
2026-01-23 08:14:51.73	25.48	17.92	-40.0	-42.4	13.4	1.22e-05	0	60	0	866123776	50	5060
2026-01-23 08:14:52.73	25.27	17.87	-40.1	-42.5	13.3	1.06e-05	0	61	0	869269504	50	5107
2026-01-23 08:14:53.74	25.05	17.82	-39.9	-42.2	13.6	5.30e-06	0	61	0	872415232	50	4958
2026-01-23 08:14:54.75	24.84	17.77	-39.8	-42.1	13.7	6.80e-06	0	60	0	875560960	50	4922
2026-01-23 08:14:55.76	24.63	17.72	-39.8	-42.1	13.7	1.22e-05	0	61	0	878706688	50	4878
2026-01-23 08:14:56.77	24.41	17.67	-39.8	-42.1	13.7	7.60e-06	0	60	0	881852416	50	4896
2026-01-23 08:14:57.78	24.20	17.62	-39.9	-42.3	13.5	1.06e-05	0	61	0	884998144	50	4988
2026-01-23 08:14:58.79	23.99	17.57	-39.9	-42.3	13.5	1.44e-05	0	60	0	888143872	50	5007
2026-01-23 08:14:59.80	23.78	17.52	-40.0	-42.4	13.4	1.22e-05	0	61	0	891289600	50	5065
2026-01-23 08:15:00.81	23.57	17.47	-40.0	-42.4	13.3	1.75e-05	0	60	0	894435328	50	5098
2026-01-23 08:15:01.82	23.36	17.42	-40.1	-42.6	13.2	2.13e-05	0	61	0	897581056	50	5174
2026-01-23 08:15:02.83	23.15	17.37	-40.1	-42.6	13.2	2.59e-05	0	60	0	900726784	50	5172
2026-01-23 08:15:03.84	22.94	17.32	-40.1	-42.6	13.1	2.21e-05	0	60	0	903872512	50	5180
2026-01-23 08:15:04.85	22.74	17.27	-40.2	-42.7	13.1	3.73e-05	0	61	0	907018240	50	5227
2026-01-23 08:15:05.86	22.53	17.21	-40.1	-42.6	13.1	2.36e-05	0	60	0	910163968	50	5186
2026-01-23 08:15:06.87	22.33	17.16	-40.1	-42.5	13.2	3.28e-05	0	61	0	913309696	50	5151
2026-01-23 08:15:07.88	22.12	17.11	-39.9	-42.3	13.4	1.37e-05	0	61	0	916455424	50	4987
2026-01-23 08:15:08.89	21.92	17.06	-39.8	-42.2	13.5	1.29e-05	0	61	0	919601152	50	4936
2026-01-23 08:15:09.90	21.71	17.00	-39.8	-42.1	13.6	8.30e-06	0	61	0	922746880	50	4920
2026-01-23 08:15:10.91	21.51	16.95	-39.8	-42.1	13.6	1.50e-06	0	60	0	925892608	50	4877
2026-01-23 08:15:11.92	21.31	16.90	-39.8	-42.1	13.6	4.50e-06	0	61	0	929038336	50	4880
2026-01-23 08:15:12.92	21.11	16.84	-39.7	-42.1	13.7	6.80e-06	0	61	0	933232640	50	4871
2026-01-23 08:15:13.93	20.91	16.79	-39.8	-42.2	13.5	1.14e-05	0	61	0	935329792	50	4933
2026-01-23 08:15:14.94	20.71	16.73	-39.9	-42.2	13.5	9.90e-06	0	60	0	938475520	50	4966
2026-01-23 08:15:15.95	20.51	16.68	-39.9	-42.3	13.4	1.67e-05	0	61	0	941621248	50	5003
2026-01-23 08:15:16.96	20.31	16.62	-40.0	-42.4	13.3	1.67e-05	0	61	0	944766976	50	5067
2026-01-23 08:15:17.97	20.12	16.57	-40.0	-42.5	13.2	2.82e-05	0	60	0	947912704	50	5104
2026-01-23 08:15:18.98	19.92	16.51	-40.1	-42.5	13.1	2.74e-05	0	61	0	952107008	50	5148
2026-01-23 08:15:19.99	19.72	16.46	-40.1	-42.6	13.1	3.20e-05	0	61	0	955252736	50	5162
2026-01-23 08:15:21.00	19.53	16.40	-40.1	-42.6	13.1	3.05e-05	0	61	0	957349888	50	5184
2026-01-23 08:15:22.01	19.33	16.35	-40.1	-42.6	13.0	3.96e-05	0	60	0	960495616	50	5202
2026-01-23 08:15:23.01	19.14	16.29	-40.0	-42.5	13.1	2.82e-05	0	61	0	963641344	50	5135
2026-01-23 08:15:24.02	18.95	16.24	-40.0	-42.5	13.2	3.43e-05	0	61	0	967835648	50	5103
2026-01-23 08:15:25.03	18.76	16.18	-40.0	-42.4	13.2	2.59e-05	0	61	0	970981376	50	5085
2026-01-23 08:15:26.04	18.57	16.12	-40.0	-42.4	13.2	2.82e-05	0	61	0	974127104	50	5071
2026-01-23 08:15:27.05	18.38	16.07	-39.9	-42.4	13.2	2.05e-05	0	61	0	977272832	50	5058
2026-01-23 08:15:28.06	18.19	16.01	-40.0	-42.4	13.2	3.05e-05	0	61	0	980418560	50	5084
2026-01-23 08:15:29.07	18.00	15.95	-40.0	-42.5	13.2	2.67e-05	0	61	0	982515712	50	5108
2026-01-23 08:15:30.08	17.81	15.89	-40.0	-42.4	13.2	2.28e-05	0	61	0	986710016	50	5083
2026-01-23 08:15:31.09	17.62	15.84	-40.1	-42.5	13.1	3.12e-05	0	61	0	989855744	50	5145
2026-01-23 08:15:32.10	17.43	15.78	-40.1	-42.6	13.0	3.28e-05	0	60	0	993001472	50	5195
2026-01-23 08:15:33.11	17.25	15.72	-40.1	-42.7	12.9	3.66e-05	0	60	0	996147200	50	5224
2026-01-23 08:15:34.12	17.06	15.66	-40.2	-42.8	12.8	5.56e-05	0	61	0	999292928	50	5300
2026-01-23 08:15:35.13	16.88	15.60	-40.2	-42.8	12.8	5.18e-05	0	61	0	1002438656	50	5285
2026-01-23 08:15:36.14	16.69	15.55	-40.2	-42.8	12.8	5.03e-05	0	61	0	1005584384	50	5295
2026-01-23 08:15:37.15	16.51	15.49	-40.2	-42.9	12.8	6.94e-05	0	61	0	1008730112	51	5045
2026-01-23 08:15:38.16	16.33	15.43	-40.2	-42.8	12.8	4.80e-05	0	61	0	1011875840	51	4997
2026-01-23 08:15:39.17	16.14	15.37	-40.3	-42.9	12.7	7.62e-05	0	61	0	1015021568	51	5092
2026-01-23 08:15:40.18	15.96	15.31	-40.3	-42.9	12.7	6.63e-05	0	61	0	1018167296	51	5079
2026-01-23 08:15:41.19	15.78	15.25	-40.3	-42.9	12.7	7.70e-05	0	61	0	1021313024	51	5070
2026-01-23 08:15:42.19	15.60	15.19	-40.2	-42.9	12.8	6.56e-05	0	61	0	1024458752	51	5047
2026-01-23 08:15:43.20	15.42	15.13	-40.1	-42.7	12.9	6.02e-05	0	61	0	1027604480	51	4972
2026-01-23 08:15:44.21	15.25	15.07	-40.1	-42.7	12.9	4.80e-05	0	61	0	1030750208	51	4950
2026-01-23 08:15:45.22	15.07	15.01	-40.1	-42.6	12.9	4.11e-05	0	61	0	1033895936	51	4903
2026-01-23 08:15:46.23	14.89	14.95	-40.1	-42.6	12.9	4.65e-05	0	61	0	1037041664	51	4909
2026-01-23 08:15:47.24	14.72	14.89	-40.0	-42.6	13.0	4.50e-05	0	61	0	1040187392	51	4873
2026-01-23 08:15:48.25	14.54	14.83	-40.0	-42.5	13.1	2.74e-05	0	61	0	1043333120	51	4818
2026-01-23 08:15:49.26	14.37	14.77	-40.1	-42.6	12.9	4.42e-05	0	61	0	1046478848	51	4902
2026-01-23 08:15:50.27	14.19	14.71	-40.1	-42.7	12.8	4.88e-05	0	61	0	1049624576	51	4942
2026-01-23 08:15:51.28	14.02	14.65	-40.0	-42.6	12.9	4.19e-05	0	61	0	1052770304	51	4899
2026-01-23 08:15:52.29	13.85	14.59	-40.1	-42.7	12.8	4.42e-05	0	61	0	1055916032	51	4942
2026-01-23 08:15:53.30	13.67	14.53	-40.1	-42.7	12.7	7.24e-05	0	61	0	1059061760	51	4974
2026-01-23 08:15:54.31	13.50	14.47	-40.2	-42.8	12.6	8.39e-05	0	61	0	1062207488	51	5027
2026-01-23 08:15:55.32	13.33	14.41	-40.2	-42.9	12.5	1.20e-04	0	61	0	1065353216	51	5057
2026-01-23 08:15:56.33	13.16	14.35	-40.2	-42.9	12.5	1.25e-04	0	61	0	1068498944	51	5058
2026-01-23 08:15:57.34	12.99	14.29	-40.2	-43.0	12.4	1.51e-04	0	61	0	1071644672	51	5104
2026-01-23 08:15:58.35	12.83	14.23	-40.1	-42.8	12.5	1.40e-04	0	61	0	1074790400	51	5025
2026-01-23 08:15:59.36	12.66	14.16	-40.1	-42.7	12.5	1.25e-04	0	61	0	1077936128	51	4981
2026-01-23 08:16:00.37	12.49	14.10	-40.0	-42.7	12.5	9.91e-05	0	61	0	1081081856	51	4964
2026-01-23 08:16:01.38	12.33	14.04	-40.0	-42.7	12.5	1.30e-04	0	61	0	1084227584	51	4939
2026-01-23 08:16:02.39	12.16	13.98	-40.0	-42.7	12.5	1.22e-04	0	61	0	1087373312	51	4952
2026-01-23 08:16:03.40	11.99	13.92	-40.0	-42.7	12.5	1.10e-04	0	61	0	1090519040	51	4964
2026-01-23 08:16:04.42	11.83	13.86	-40.0	-42.6	12.6	1.06e-04	0	61	0	1093664768	51	4906
2026-01-23 08:16:05.42	11.67	13.79	-40.0	-42.7	12.4	1.33e-04	0	61	0	1096810496	51	4946
2026-01-23 08:16:06.43	11.50	13.73	-40.0	-42.7	12.4	1.37e-04	0	61	0	1099956224	51	4970
2026-01-23 08:16:07.44	11.34	13.67	-40.0	-42.8	12.2	2.02e-04	0	61	0	1103101952	51	5032
2026-01-23 08:16:08.45	11.18	13.61	-40.0	-42.8	12.2	2.12e-04	0	61	0	1106247680	51	5020
2026-01-23 08:16:09.46	11.02	13.55	-40.1	-42.9	12.1	2.72e-04	0	61	0	1109393408	51	5074
2026-01-23 08:16:10.47	10.86	13.48	-40.1	-43.0	11.9	3.75e-04	0	61	0	1112539136	51	5129
2026-01-23 08:16:11.48	10.70	13.42	-40.2	-43.1	11.9	4.26e-04	0	61	0	1115684864	51	5160
2026-01-23 08:16:12.49	10.54	13.36	-40.1	-42.9	12.0	3.66e-04	0	61	0	1118830592	51	5069
2026-01-23 08:16:13.50	10.39	13.30	-39.9	-42.7	12.2	2.65e-04	0	61	0	1121976320	51	4930
2026-01-23 08:16:14.51	10.23	13.24	-39.6	-42.3	12.5	1.40e-04	0	61	0	1125122048	51	4722
2026-01-23 08:16:15.52	10.07	13.17	-39.6	-42.3	12.4	1.69e-04	0	61	0	1128267776	51	4707
2026-01-23 08:16:16.53	9.92	13.11	-39.6	-42.3	12.2	2.37e-04	0	61	0	1131413504	51	4743
2026-01-23 08:16:17.54	9.76	13.05	-39.7	-42.6	11.8	4.01e-04	0	61	0	1134559232	51	4902
2026-01-23 08:16:18.55	9.61	12.98	-39.8	-42.8	11.6	6.16e-04	0	61	0	1137704960	51	4986
2026-01-23 08:16:19.56	9.45	12.92	-39.9	-43.0	11.3	9.14e-04	0	61	0	1140850688	51	5135
2026-01-23 08:16:20.57	9.30	12.86	-39.9	-43.0	11.3	1.22e-03	0	61	0	1143996416	51	5149
2026-01-23 08:16:21.58	9.15	12.80	-40.0	-43.1	11.2	1.25e-03	0	61	0	1147142144	51	5190
2026-01-23 08:16:22.59	9.00	12.73	-39.8	-42.8	11.3	1.14e-03	0	61	0	1150287872	51	5039
2026-01-23 08:16:23.60	8.84	12.67	-39.9	-43.0	11.2	1.27e-03	0	61	0	1153433600	51	5147
2026-01-23 08:16:24.61	8.69	12.61	-39.6	-42.7	11.3	1.36e-03	0	61	0	1156579328	51	4932
2026-01-23 08:16:25.62	8.54	12.55	-39.4	-42.4	11.5	9.31e-04	0	61	0	1159725056	50	5063
2026-01-23 08:16:26.63	8.39	12.48	-39.6	-42.7	11.0	1.57e-03	0	61	0	1162870784	50	5256
2026-01-23 08:16:27.64	8.25	12.42	-39.5	-42.7	10.9	1.73e-03	0	61	0	1166016512	50	5221
2026-01-23 08:16:28.65	8.10	12.36	-39.3	-42.4	10.9	1.80e-03	0	61	0	1169162240	50	5094
2026-01-23 08:16:29.65	7.95	12.29	-39.4	-42.7	10.5	3.82e-03	0	61	0	1172307968	50	5225
2026-01-23 08:16:30.66	7.81	12.23	-39.4	-42.7	10.3	4.59e-03	0	61	0	1175453696	50	5258
2026-01-23 08:16:31.67	7.66	12.17	-39.3	-42.6	10.3	4.48e-03	0	61	0	1178599424	50	5197
2026-01-23 08:16:32.69	7.51	12.10	-39.5	-43.0	9.8	9.62e-03	0	61	0	1181745152	50	5454
2026-01-23 08:16:33.69	7.37	12.04	-39.8	-43.7	9.2	1.43e-02	0	61	0	1184890880	50	5864
2026-01-23 08:16:34.70	7.23	11.98	-40.1	-44.6	8.2	4.51e-02	0	61	0	1188036608	50	6512
2026-01-23 08:16:35.72	7.08	11.92	-40.4	-45.6	7.2	1.10e-01	0	61	0	1191182336	51	6914
2026-01-23 08:16:36.73	6.94	11.85	-40.6	-46.7	6.2	2.33e-01	0	61	0	1194328064	51	7812
2026-01-23 08:16:37.73	6.80	11.79	-40.7	-47.4	5.6	4.11e-01	0	61	0	1197473792	52	8071
2026-01-23 08:16:38.74	6.66	11.73	-40.8	-48.2	5.0	6.60e-01	0	61	0	1200619520	52	8767
2026-01-23 08:16:39.75	6.52	11.66	-40.9	-49.3	4.5	1.47e+00	10	61	104	1202716672	52	9961
2026-01-23 08:16:40.76	6.37	11.60	-41.0	-51.0	3.9	1.46e+00	0	61	104	1202716672	52	12138
2026-01-23 08:16:41.77	6.24	11.54	-41.0	-51.7	3.9	1.49e+00	0	61	104	1202716672	52	13110
2026-01-23 08:16:42.79	6.09	11.47	-41.5	-50.8	4.1	1.48e+00	0	61	104	1202716672	53	11285
2026-01-23 08:16:43.79	5.96	11.41	-40.7	-53.1	3.8	1.49e+00	0	61	104	1202716672	53	14567
2026-01-23 08:16:44.80	5.82	11.35	-40.8	-52.7	3.8	1.49e+00	0	61	104	1202716672	53	13990
2026-01-23 08:16:45.81	5.68	11.28	-41.5	-52.7	3.8	1.49e+00	0	61	104	1202716672	53	14006
2026-01-23 08:16:46.83	5.54	11.22	-41.3	-52.7	3.8	1.49e+00	0	61	104	1202716672	53	13966
2026-01-23 08:16:47.84	5.41	11.16	-41.2	-53.0	3.8	1.49e+00	0	61	104	1202716672	53	14423
2026-01-23 08:16:48.85	5.27	11.09	-41.1	-53.1	3.8	1.49e+00	0	61	104	1202716672	53	14570
2026-01-23 08:16:49.86	5.14	11.03	-40.8	-52.9	3.8	1.49e+00	0	61	104	1202716672	53	14350
2026-01-23 08:16:50.86	5.01	10.97	-41.1	-53.2	3.8	1.49e+00	0	61	104	1202716672	53	14795
2026-01-23 08:16:51.87	4.87	10.91	-40.3	-52.6	3.8	1.49e+00	0	61	104	1202716672	52	14662
2026-01-23 08:16:52.88	4.74	10.84	-40.2	-52.5	3.8	1.49e+00	0	61	104	1202716672	52	14431
2026-01-23 08:16:53.89	4.61	10.78	-40.5	-52.8	3.8	1.49e+00	0	61	104	1202716672	52	15016
2026-01-23 08:16:54.90	4.47	10.72	-40.2	-52.5	3.8	1.49e+00	0	61	104	1202716672	52	14496
2026-01-23 08:16:55.91	4.34	10.65	-40.2	-52.5	3.8	1.49e+00	0	61	104	1202716672	52	14441
2026-01-23 08:16:56.92	4.21	10.59	-40.1	-52.5	3.8	1.49e+00	0	61	104	1202716672	52	14405
2026-01-23 08:16:57.93	4.08	10.53	-40.1	-52.4	3.8	1.49e+00	0	61	104	1202716672	52	14307
2026-01-23 08:16:58.94	3.95	10.46	-40.1	-52.4	3.8	1.49e+00	0	61	104	1202716672	52	14344
2026-01-23 08:16:59.95	3.82	10.40	-40.6	-53.0	3.8	1.49e+00	0	61	104	1202716672	52	15343
2026-01-23 08:17:00.96	3.69	10.34	-40.0	-52.4	3.8	1.49e+00	0	61	104	1202716672	52	14310
2026-01-23 08:17:01.97	3.57	10.27	-40.1	-52.5	3.8	1.49e+00	0	61	104	1202716672	52	14501
2026-01-23 08:17:02.98	3.44	10.21	-40.1	-52.4	3.8	1.49e+00	0	61	104	1202716672	52	14357
2026-01-23 08:17:03.99	3.31	10.15	-40.0	-52.4	3.8	1.49e+00	0	61	104	1202716672	52	14292
2026-01-23 08:17:05.00	3.19	10.09	-40.0	-52.4	3.8	1.49e+00	0	61	104	1202716672	52	14269
2026-01-23 08:17:06.01	3.06	10.02	-40.0	-52.4	3.8	1.49e+00	0	61	104	1202716672	51	15073
2026-01-23 08:17:07.02	2.94	9.96	-40.0	-52.4	3.8	1.49e+00	0	61	104	1202716672	51	15108
2026-01-23 08:17:08.03	2.81	9.90	-40.4	-52.8	3.8	1.49e+00	0	61	104	1202716672	51	15836
2026-01-23 08:17:09.04	2.69	9.83	-40.2	-52.5	3.8	1.49e+00	0	61	104	1202716672	51	15316
2026-01-23 08:17:10.05	2.56	9.77	-40.3	-52.6	3.8	1.49e+00	0	61	104	1202716672	51	15509
2026-01-23 08:17:11.06	2.44	9.71	-40.3	-52.6	3.8	1.49e+00	0	61	104	1202716672	51	15568
2026-01-23 08:17:12.07	2.32	9.65	-40.1	-52.4	3.8	1.49e+00	0	61	104	1202716672	51	15214
2026-01-23 08:17:13.08	2.20	9.58	-40.1	-52.4	3.8	1.49e+00	0	61	104	1202716672	51	15186
2026-01-23 08:17:14.09	2.08	9.52	-40.2	-52.5	3.8	1.49e+00	0	61	104	1202716672	51	15341
2026-01-23 08:17:15.10	1.96	9.46	-40.2	-52.5	3.8	1.49e+00	0	61	104	1202716672	51	15392
2026-01-23 08:17:16.10	1.84	9.40	-40.2	-52.5	3.8	1.49e+00	0	61	104	1202716672	51	15261
2026-01-23 08:17:17.11	1.72	9.33	-40.1	-52.4	3.8	1.49e+00	0	61	104	1202716672	51	15168
2026-01-23 08:17:18.12	1.60	9.27	-40.2	-52.5	3.8	1.49e+00	0	61	104	1202716672	51	15339
2026-01-23 08:17:19.13	1.48	9.21	-40.2	-52.5	3.8	1.49e+00	0	61	104	1202716672	51	15246
2026-01-23 08:17:20.14	1.36	9.15	-40.1	-52.5	3.8	1.49e+00	0	61	104	1202716672	51	15231
2026-01-23 08:17:21.15	1.24	9.08	-40.1	-52.4	3.8	1.49e+00	0	61	104	1202716672	51	15082
2026-01-23 08:17:22.16	1.13	9.02	-40.1	-52.5	3.8	1.49e+00	0	61	104	1202716672	51	15296
2026-01-23 08:17:23.17	1.01	8.96	-40.1	-52.4	3.8	1.49e+00	0	61	104	1202716672	51	15218
2026-01-23 08:17:24.18	0.89	8.90	-40.0	-52.4	3.8	1.49e+00	0	61	104	1202716672	51	15118
2026-01-23 08:17:25.19	0.78	8.83	-40.1	-52.4	3.8	1.49e+00	0	61	104	1202716672	51	15065
2026-01-23 08:17:26.20	0.66	8.77	-40.1	-52.4	3.8	1.49e+00	0	61	104	1202716672	51	15195
2026-01-23 08:17:27.21	0.55	8.71	-40.1	-52.5	3.8	1.49e+00	0	61	104	1202716672	51	15250
2026-01-23 08:17:28.22	0.43	8.65	-40.0	-52.3	3.8	1.49e+00	0	61	104	1202716672	51	15041
2026-01-23 08:17:29.23	0.32	8.59	-40.1	-52.4	3.8	1.49e+00	0	61	104	1202716672	51	15162
2026-01-23 08:17:30.24	0.21	8.52	-40.1	-52.4	3.8	1.49e+00	0	61	104	1202716672	51	15140
2026-01-23 08:17:31.25	0.10	8.46	-40.1	-52.5	3.8	1.49e+00	0	61	104	1202716672	51	15268
2026-01-23 08:17:32.26	359.98	8.40	-40.1	-52.4	3.8	1.49e+00	0	61	104	1202716672	51	15137
2026-01-23 08:17:33.27	359.87	8.34	-40.1	-52.4	3.8	1.49e+00	0	61	104	1202716672	51	15147
2026-01-23 08:17:34.28	359.76	8.28	-40.1	-52.4	3.8	1.49e+00	0	61	104	1202716672	51	15195
2026-01-23 08:17:35.28	359.65	8.22	-40.1	-52.5	3.8	1.49e+00	0	61	104	1202716672	51	15289
2026-01-23 08:17:36.29	359.54	8.15	-40.0	-52.4	3.8	1.49e+00	0	61	104	1202716672	51	15101
2026-01-23 08:17:37.30	359.43	8.09	-40.0	-52.4	3.8	1.49e+00	0	61	104	1202716672	51	15083
2026-01-23 08:17:38.31	359.32	8.03	-40.1	-52.4	3.8	1.49e+00	0	61	104	1202716672	51	15158
2026-01-23 08:17:39.32	359.21	7.97	-41.0	-53.4	3.8	1.49e+00	0	61	104	1202716672	52	16064
2026-01-23 08:17:40.33	359.11	7.91	-44.6	-56.8	3.8	1.49e+00	0	61	104	1202716672	59	15901
2026-01-23 08:17:41.34	359.00	7.85	-45.0	-57.5	3.8	1.49e+00	0	61	104	1202716672	60	16205
2026-01-23 08:17:42.35	358.89	7.78	-45.2	-57.7	3.8	1.49e+00	0	61	104	1202716672	60	16569
2026-01-23 08:17:43.36	358.78	7.72	-45.3	-57.8	3.8	1.49e+00	0	61	104	1202716672	61	15830
2026-01-23 08:17:44.37	358.68	7.66	-45.4	-57.8	3.8	1.49e+00	0	61	104	1202716672	61	15894
2026-01-23 08:17:45.38	358.57	7.60	-45.5	-57.9	3.8	1.49e+00	0	61	104	1202716672	61	16096
2026-01-23 08:17:46.39	358.47	7.54	-45.4	-57.9	3.8	1.49e+00	0	61	104	1202716672	61	16101
2026-01-23 08:17:47.41	358.36	7.48	-45.4	-57.9	3.8	1.49e+00	0	61	104	1202716672	61	16042
2026-01-23 08:17:48.42	358.26	7.42	-45.4	-57.9	3.8	1.49e+00	0	61	104	1202716672	61	15960
2026-01-23 08:17:49.43	358.15	7.36	-45.1	-57.8	3.8	1.49e+00	0	61	104	1202716672	60	16712
2026-01-23 08:17:50.44	358.05	7.29	-45.3	-57.7	3.8	1.49e+00	0	61	104	1202716672	61	15640
2026-01-23 08:17:51.45	357.95	7.23	-45.2	-57.7	3.8	1.49e+00	0	61	104	1202716672	61	15583
2026-01-23 08:17:52.46	357.84	7.17	-45.3	-57.6	3.8	1.49e+00	0	61	104	1202716672	61	15541
2026-01-23 08:17:53.47	357.74	7.11	-45.3	-57.6	3.8	1.49e+00	0	61	104	1202716672	61	15483
2026-01-23 08:17:54.48	357.64	7.05	-45.1	-57.5	3.8	1.49e+00	0	61	104	1202716672	61	15243
2026-01-23 08:17:55.49	357.54	6.99	-45.2	-57.5	3.8	1.49e+00	0	61	104	1202716672	61	15357
2026-01-23 08:17:56.50	357.44	6.93	-45.0	-57.5	3.8	1.49e+00	0	61	104	1202716672	61	15297
2026-01-23 08:17:57.51	357.34	6.87	-45.1	-57.5	3.8	1.49e+00	0	61	104	1202716672	61	15361
2026-01-23 08:17:58.51	357.24	6.81	-45.2	-57.5	3.8	1.49e+00	0	61	104	1202716672	61	15313
2026-01-23 08:17:59.52	357.14	6.75	-45.2	-57.5	3.8	1.49e+00	0	61	104	1202716672	61	15333
2026-01-23 08:18:00.53	357.04	6.69	-45.2	-57.5	3.8	1.49e+00	0	61	104	1202716672	61	15328
2026-01-23 08:18:01.54	356.94	6.63	-45.2	-57.5	3.8	1.49e+00	0	61	104	1202716672	61	15274
2026-01-23 08:18:02.55	356.84	6.57	-45.2	-57.5	3.8	1.49e+00	0	61	104	1202716672	61	15359
2026-01-23 08:18:03.56	356.74	6.51	-45.2	-57.5	3.8	1.49e+00	0	61	104	1202716672	61	15318
2026-01-23 08:18:04.58	356.64	6.45	-45.2	-57.5	3.8	1.49e+00	0	61	104	1202716672	61	15310
2026-01-23 08:18:05.59	356.55	6.39	-45.2	-57.5	3.8	1.49e+00	0	61	104	1202716672	61	15248
2026-01-23 08:18:06.60	356.45	6.33	-45.1	-57.5	3.8	1.49e+00	0	61	104	1202716672	61	15348
2026-01-23 08:18:07.61	356.35	6.27	-45.1	-57.5	3.8	1.49e+00	0	61	104	1202716672	61	15278
2026-01-23 08:18:08.62	356.26	6.21	-44.9	-57.5	3.8	1.49e+00	0	61	104	1202716672	60	16148
2026-01-23 08:18:09.63	356.16	6.15	-45.1	-57.5	3.8	1.49e+00	0	61	104	1202716672	60	16196
2026-01-23 08:18:10.64	356.07	6.09	-45.1	-57.5	3.8	1.49e+00	0	61	104	1202716672	60	16196
2026-01-23 08:18:11.65	355.97	6.03	-45.1	-57.5	3.8	1.49e+00	0	61	104	1202716672	60	16150
2026-01-23 08:18:12.66	355.88	5.97	-45.2	-57.5	3.8	1.49e+00	0	61	104	1202716672	60	16180
2026-01-23 08:18:13.67	355.79	5.91	-45.1	-57.5	3.8	1.49e+00	0	61	104	1202716672	60	16210
2026-01-23 08:18:14.68	355.69	5.85	-45.1	-57.5	3.8	1.49e+00	0	61	104	1202716672	60	16242
2026-01-23 08:18:15.69	355.60	5.79	-45.0	-57.5	3.8	1.49e+00	0	61	104	1202716672	60	16184
2026-01-23 08:18:16.70	355.51	5.73	-44.8	-57.5	3.8	1.49e+00	0	61	104	1202716672	60	16202
2026-01-23 08:18:17.71	355.41	5.67	-45.1	-57.5	3.8	1.49e+00	0	61	104	1202716672	60	16217
2026-01-23 08:18:18.72	355.32	5.61	-45.1	-57.5	3.8	1.49e+00	0	61	104	1202716672	60	16183
2026-01-23 08:18:19.74	355.23	5.55	-45.1	-57.5	3.8	1.49e+00	0	61	104	1202716672	60	16131
2026-01-23 08:18:20.75	355.14	5.49	-45.1	-57.5	3.8	1.49e+00	0	61	104	1202716672	60	16133
2026-01-23 08:18:21.76	355.05	5.43	-45.1	-57.5	3.8	1.49e+00	0	61	104	1202716672	60	16222
2026-01-23 08:18:22.77	354.96	5.37	-44.9	-57.5	3.8	1.49e+00	0	61	104	1202716672	60	16161
2026-01-23 08:18:23.78	354.87	5.31	-45.1	-57.5	3.8	1.49e+00	0	61	104	1202716672	60	16167
2026-01-23 08:18:24.79	354.78	5.25	-45.1	-57.5	3.8	1.49e+00	0	61	104	1202716672	60	16171
2026-01-23 08:18:25.80	354.69	5.20	-45.1	-57.5	3.8	1.49e+00	0	61	104	1202716672	60	16177
2026-01-23 08:18:26.81	354.60	5.14	-45.1	-57.4	3.8	1.49e+00	0	61	104	1202716672	60	16113
2026-01-23 08:18:27.82	354.51	5.08	-45.1	-57.5	3.8	1.49e+00	0	61	104	1202716672	60	16240
2026-01-23 08:18:28.83	354.42	5.02	-45.1	-57.4	3.8	1.49e+00	0	61	104	1202716672	60	16123
2026-01-23 08:18:29.84	354.34	4.96	-45.1	-57.5	3.8	1.49e+00	0	61	104	1202716672	60	16172
2026-01-23 08:18:30.85	354.25	4.90	-45.1	-57.5	3.8	1.49e+00	0	61	104	1202716672	60	16198
2026-01-23 08:18:31.86	354.16	4.84	-45.1	-57.5	3.8	1.49e+00	0	61	104	1202716672	60	16162
2026-01-23 08:18:32.87	354.08	4.79	-45.1	-57.5	3.8	1.49e+00	0	61	104	1202716672	60	16203
2026-01-23 08:18:33.88	353.99	4.73	-45.0	-57.5	3.8	1.49e+00	0	61	104	1202716672	60	16185
2026-01-23 08:18:34.89	353.90	4.67	-44.9	-57.5	3.8	1.49e+00	0	61	104	1202716672	60	16196
2026-01-23 08:18:35.90	353.82	4.61	-45.0	-57.5	3.8	1.49e+00	0	61	104	1202716672	60	16180
2026-01-23 08:18:36.91	353.73	4.55	-45.1	-57.4	3.8	1.49e+00	0	61	104	1202716672	60	16067
2026-01-23 08:18:37.92	353.65	4.49	-44.9	-57.4	3.8	1.49e+00	0	61	104	1202716672	60	16117
2026-01-23 08:18:38.93	353.56	4.44	-45.0	-57.5	3.8	1.49e+00	0	61	104	1202716672	60	16152
2026-01-23 08:18:39.94	353.48	4.38	-44.9	-57.4	3.8	1.49e+00	0	61	104	1202716672	60	16113
2026-01-23 08:18:40.95	353.40	4.32	-45.0	-57.5	3.8	1.49e+00	0	61	104	1202716672	60	16130
2026-01-23 08:18:41.96	353.31	4.26	-45.0	-57.4	3.8	1.49e+00	0	62	104	1202716672	60	16096
2026-01-23 08:18:42.97	353.23	4.20	-45.1	-57.4	3.8	1.49e+00	0	61	104	1202716672	60	16081
2026-01-23 08:18:43.99	353.15	4.15	-45.0	-57.4	3.8	1.49e+00	0	61	104	1202716672	60	16123
2026-01-23 08:18:44.99	353.06	4.09	-45.1	-57.4	3.8	1.49e+00	0	61	104	1202716672	60	16117
2026-01-23 08:18:46.01	352.98	4.03	-44.9	-57.4	3.8	1.49e+00	0	61	104	1202716672	60	16063
2026-01-23 08:18:47.02	352.90	3.97	-45.1	-57.5	3.8	1.49e+00	0	61	104	1202716672	60	16258
2026-01-23 08:18:48.03	352.82	3.92	-45.0	-57.4	3.8	1.49e+00	0	61	104	1202716672	60	16105
2026-01-23 08:18:49.04	352.74	3.86	-45.1	-57.4	3.8	1.49e+00	0	61	104	1202716672	60	16085
2026-01-23 08:18:50.05	352.66	3.80	-45.1	-57.5	3.8	1.49e+00	0	61	104	1202716672	60	16144
2026-01-23 08:18:51.06	352.58	3.74	-45.1	-57.4	3.8	1.49e+00	0	61	104	1202716672	60	16110
2026-01-23 08:18:52.07	352.50	3.69	-45.1	-57.5	3.8	1.49e+00	0	61	104	1202716672	60	16155
2026-01-23 08:18:53.08	352.42	3.63	-45.1	-57.5	3.8	1.49e+00	0	61	104	1202716672	60	16141
2026-01-23 08:18:54.09	352.34	3.57	-45.1	-57.5	3.8	1.49e+00	0	61	104	1202716672	60	16161
