passes_logs/2026/01/23/R2.0S_Moscow/R2.0S_Moscow__20260123_085608_NOAA_20_JPSS-1_rec.log

#Pass ID: 20260123_085608_NOAA 20 (JPSS-1)
#Satellite: NOAA 20 (JPSS-1)
#Configuration: NOAA 20
#almurnet v.1.7.20251203
#Start time: 2026-01-23 08:56:09

#Version: 2.2.20231116
#Station: R2.0S_Moscow
#Location: 37.707566 lon 55.798166 lat
#TLE: 1 43013U 17073A   26022.44900781  .00000193  00000+0  11233-3 0  9999
#TLE: 2 43013  98.7645 323.3100 0001197  28.8413 331.2829 14.19538802423792

#Time	Az	El	Level	Level2	SNR	BER	BlckErr	Temp	State	Recorded	gain1	gain2
2026-01-23 08:56:09.35	131.78	2.07	-14.9	-28.7	3.9	1.50e+00	0	52	0	0	0	18536
2026-01-23 08:56:10.35	131.74	2.13	-19.8	-31.9	3.8	1.50e+00	0	53	104	0	6	19142
2026-01-23 08:56:11.36	131.70	2.19	-17.9	-32.2	3.6	1.50e+00	0	53	0	0	7	18599
2026-01-23 08:56:12.37	131.66	2.26	-15.7	-29.6	3.6	1.50e+00	0	53	104	0	9	12306
2026-01-23 08:56:13.38	131.61	2.32	-22.5	-37.9	3.2	1.50e+00	0	53	104	0	15	22763
2026-01-23 08:56:14.39	131.57	2.38	-15.9	-30.0	3.5	1.50e+00	0	53	104	0	3	18239
2026-01-23 08:56:15.40	131.53	2.44	-16.9	-33.7	3.4	1.50e+00	0	53	104	0	15	13964
2026-01-23 08:56:16.41	131.49	2.51	-17.7	-33.3	3.5	1.50e+00	0	53	104	0	11	16884
2026-01-23 08:56:17.42	131.45	2.57	-17.2	-32.3	3.7	1.50e+00	0	53	104	0	10	15839
2026-01-23 08:56:18.43	131.40	2.63	-12.8	-27.0	3.7	1.51e+00	0	53	104	0	0	15268
2026-01-23 08:56:19.44	131.36	2.70	-16.8	-33.3	3.7	1.50e+00	0	53	104	0	6	22453
2026-01-23 08:56:20.45	131.32	2.76	-20.2	-32.5	3.6	1.50e+00	0	53	104	0	9	17168
2026-01-23 08:56:21.46	131.28	2.82	-17.9	-33.3	3.6	1.50e+00	0	54	104	0	5	23844
2026-01-23 08:56:22.47	131.23	2.89	-16.6	-32.4	3.5	1.51e+00	0	54	104	0	8	18094
2026-01-23 08:56:23.48	131.19	2.95	-16.1	-30.1	3.8	1.50e+00	0	54	104	0	4	17329
2026-01-23 08:56:24.49	131.15	3.02	-15.0	-29.0	3.6	1.50e+00	0	54	104	0	1	18264
2026-01-23 08:56:25.50	131.10	3.08	-20.1	-32.9	3.6	1.50e+00	0	54	104	0	7	20242
2026-01-23 08:56:26.51	131.06	3.15	-21.8	-35.3	3.9	1.50e+00	0	54	104	0	11	21084
2026-01-23 08:56:27.52	131.01	3.21	-14.4	-26.5	3.7	1.50e+00	0	54	104	0	0	14530
2026-01-23 08:56:28.53	130.97	3.27	-16.2	-29.6	3.7	1.50e+00	0	54	0	0	4	16487
2026-01-23 08:56:29.54	130.93	3.34	-18.8	-32.0	3.4	1.51e+00	0	54	104	0	6	19214
2026-01-23 08:56:30.55	130.88	3.40	-20.5	-34.4	3.5	1.50e+00	0	54	104	0	13	17063
2026-01-23 08:56:31.56	130.84	3.47	-17.0	-30.9	3.8	1.50e+00	0	54	104	0	5	17929
2026-01-23 08:56:32.57	130.79	3.53	-18.5	-29.8	3.8	1.50e+00	0	54	104	0	8	13323
2026-01-23 08:56:33.59	130.74	3.60	-20.5	-35.6	3.3	1.50e+00	0	54	104	0	12	20677
2026-01-23 08:56:34.59	130.70	3.67	-19.1	-33.9	3.7	1.50e+00	0	54	0	0	11	18042
2026-01-23 08:56:35.61	130.65	3.73	-17.2	-31.1	3.7	1.50e+00	0	54	104	0	7	16385
2026-01-23 08:56:36.62	130.61	3.80	-18.1	-33.3	3.7	1.51e+00	0	54	104	0	9	18733
2026-01-23 08:56:37.62	130.56	3.86	-17.2	-32.9	3.5	1.50e+00	0	54	104	0	10	16983
2026-01-23 08:56:38.63	130.51	3.93	-17.7	-32.7	3.7	1.51e+00	0	54	104	0	10	16661
2026-01-23 08:56:39.64	130.47	3.99	-17.0	-31.6	3.7	1.50e+00	0	55	104	0	4	20571
2026-01-23 08:56:40.66	130.42	4.06	-19.7	-31.2	3.8	1.50e+00	0	54	104	0	5	18685
2026-01-23 08:56:41.67	130.37	4.13	-17.1	-32.4	3.5	1.50e+00	0	55	104	0	6	20246
2026-01-23 08:56:42.68	130.33	4.20	-17.2	-33.6	3.5	1.50e+00	0	55	104	0	10	18332
2026-01-23 08:56:43.69	130.28	4.26	-15.8	-28.8	3.5	1.50e+00	0	55	104	0	3	15802
2026-01-23 08:56:44.70	130.23	4.33	-18.0	-34.0	3.5	1.50e+00	0	55	104	0	9	20320
2026-01-23 08:56:45.71	130.18	4.40	-17.8	-30.5	3.7	1.50e+00	0	55	0	0	5	17129
2026-01-23 08:56:46.72	130.13	4.46	-23.1	-35.3	3.8	1.50e+00	0	55	104	0	9	23613
2026-01-23 08:56:47.73	130.09	4.53	-12.4	-24.8	3.4	1.50e+00	0	55	104	0	0	11950
2026-01-23 08:56:48.74	130.04	4.60	-21.3	-36.4	3.4	1.50e+00	0	55	104	0	13	21272
2026-01-23 08:56:49.75	129.99	4.67	-20.8	-31.4	3.7	1.50e+00	0	55	104	0	2	22539
2026-01-23 08:56:50.76	129.94	4.73	-17.3	-31.4	3.6	1.50e+00	0	55	104	0	5	18960
2026-01-23 08:56:51.77	129.89	4.80	-13.8	-25.1	3.8	1.51e+00	0	55	104	0	0	12370
2026-01-23 08:56:52.78	129.84	4.87	-18.6	-29.9	3.6	1.50e+00	0	55	104	0	5	16104
2026-01-23 08:56:53.79	129.79	4.94	-21.8	-34.7	3.7	1.50e+00	0	55	104	0	9	22184
2026-01-23 08:56:54.80	129.74	5.01	-17.8	-33.2	3.6	1.50e+00	0	55	104	0	7	20896
2026-01-23 08:56:55.81	129.69	5.07	-16.5	-28.5	4.0	1.50e+00	0	55	104	0	5	13680
2026-01-23 08:56:56.82	129.64	5.14	-16.1	-34.0	3.6	1.50e+00	0	55	104	0	8	21676
2026-01-23 08:56:57.83	129.59	5.21	-22.3	-36.4	3.4	1.50e+00	0	56	104	0	12	22618
2026-01-23 08:56:58.84	129.53	5.28	-15.3	-31.1	3.6	1.50e+00	0	55	104	0	5	18477
2026-01-23 08:56:59.85	129.48	5.35	-20.8	-37.1	3.4	1.50e+00	0	55	104	0	14	21762
2026-01-23 08:57:00.86	129.43	5.42	-14.6	-30.3	3.5	1.50e+00	0	56	0	0	11	11834
2026-01-23 08:57:01.87	129.38	5.49	-12.9	-25.0	4.1	1.50e+00	0	56	104	0	0	12164
2026-01-23 08:57:02.88	129.33	5.56	-16.7	-30.0	3.8	1.50e+00	0	56	104	0	6	15325
2026-01-23 08:57:03.89	129.27	5.63	-15.9	-27.8	3.8	1.50e+00	0	55	104	0	1	15833
2026-01-23 08:57:04.90	129.22	5.70	-14.7	-29.3	3.7	1.51e+00	0	56	104	0	2	17685
2026-01-23 08:57:05.91	129.17	5.77	-19.6	-33.1	3.7	1.51e+00	0	56	104	0	9	18443
2026-01-23 08:57:06.92	129.12	5.84	-19.9	-36.7	3.3	1.50e+00	0	56	104	0	10	26429
2026-01-23 08:57:07.93	129.06	5.91	-16.3	-32.6	3.9	1.50e+00	0	56	104	0	8	18374
2026-01-23 08:57:08.94	129.01	5.98	-16.1	-28.5	3.8	1.50e+00	0	56	0	0	2	16246
2026-01-23 08:57:09.95	128.95	6.05	-19.6	-34.1	3.4	1.50e+00	0	56	104	0	6	24513
2026-01-23 08:57:10.96	128.90	6.12	-14.2	-29.8	3.9	1.50e+00	0	56	104	0	2	18795
2026-01-23 08:57:11.97	128.84	6.19	-17.9	-32.5	3.9	1.50e+00	0	56	104	0	7	19307
2026-01-23 08:57:12.98	128.79	6.27	-20.8	-35.0	3.4	1.50e+00	0	56	104	0	11	20351
2026-01-23 08:57:13.99	128.73	6.34	-16.5	-31.6	3.6	1.50e+00	0	56	104	0	9	15548
2026-01-23 08:57:15.00	128.68	6.41	-17.8	-32.2	3.6	1.50e+00	0	56	104	0	4	22013
2026-01-23 08:57:16.01	128.62	6.48	-15.4	-33.2	3.6	1.50e+00	0	56	104	0	5	23500
2026-01-23 08:57:17.02	128.57	6.55	-17.5	-32.1	3.7	1.50e+00	0	56	104	0	4	21924
2026-01-23 08:57:18.03	128.51	6.62	-17.6	-33.2	3.7	1.50e+00	0	56	104	0	11	16654
2026-01-23 08:57:19.04	128.45	6.70	-16.2	-30.1	3.9	1.50e+00	0	56	104	0	2	19502
2026-01-23 08:57:20.05	128.40	6.77	-19.5	-33.3	3.8	1.50e+00	0	56	104	0	4	25233
2026-01-23 08:57:21.06	128.34	6.84	-16.8	-34.4	3.7	1.51e+00	0	56	104	0	10	20300
2026-01-23 08:57:22.07	128.28	6.92	-16.8	-32.1	3.7	1.50e+00	0	57	104	0	7	18422
2026-01-23 08:57:23.08	128.22	6.99	-14.3	-32.8	3.5	1.50e+00	0	56	104	0	5	22482
2026-01-23 08:57:24.10	128.17	7.06	-22.1	-35.0	3.7	1.50e+00	0	56	104	0	10	21597
2026-01-23 08:57:25.10	128.11	7.14	-16.1	-32.1	3.8	1.50e+00	0	57	104	0	5	20661
2026-01-23 08:57:26.11	128.05	7.21	-21.9	-36.2	3.6	1.50e+00	0	57	104	0	12	22210
2026-01-23 08:57:27.12	127.99	7.28	-17.5	-33.0	3.6	1.50e+00	0	57	104	0	7	20459
2026-01-23 08:57:28.14	127.93	7.36	-20.2	-34.7	3.6	1.50e+00	0	57	104	0	10	20928
2026-01-23 08:57:29.15	127.87	7.43	-18.7	-32.1	3.5	1.50e+00	0	57	104	0	9	16419
2026-01-23 08:57:30.16	127.81	7.51	-22.2	-36.8	3.5	1.50e+00	0	57	104	0	13	22436
2026-01-23 08:57:31.17	127.75	7.58	-18.6	-35.4	3.5	1.50e+00	0	57	104	0	12	20242
2026-01-23 08:57:32.18	127.69	7.66	-21.0	-35.7	3.5	1.50e+00	0	57	104	0	13	19652
2026-01-23 08:57:33.19	127.63	7.73	-20.6	-33.5	3.6	1.50e+00	0	57	104	0	7	21586
2026-01-23 08:57:34.20	127.57	7.81	-21.0	-34.7	3.5	1.50e+00	0	57	104	0	9	22240
2026-01-23 08:57:35.21	127.50	7.88	-17.9	-33.8	3.6	1.50e+00	0	57	104	0	6	23681
2026-01-23 08:57:36.22	127.44	7.96	-15.8	-28.5	3.8	1.50e+00	0	57	104	0	3	15372
2026-01-23 08:57:37.23	127.38	8.03	-14.2	-28.2	3.9	1.50e+00	0	57	104	0	5	13255
2026-01-23 08:57:38.24	127.32	8.11	-27.2	-42.3	3.4	1.51e+00	0	57	104	0	22	25181
2026-01-23 08:57:39.25	127.25	8.18	-20.2	-33.3	3.6	1.51e+00	0	57	0	0	8	20001
2026-01-23 08:57:40.25	127.19	8.26	-19.4	-32.6	3.6	1.51e+00	0	57	104	0	9	17451
2026-01-23 08:57:41.26	127.13	8.34	-22.4	-35.9	3.6	1.51e+00	0	57	104	0	16	16893
2026-01-23 08:57:42.27	127.06	8.41	-17.8	-33.1	3.7	1.51e+00	0	57	104	0	14	13746
2026-01-23 08:57:43.28	127.00	8.49	-18.6	-30.6	4.0	1.50e+00	0	57	0	0	10	12987
2026-01-23 08:57:44.29	126.93	8.57	-18.3	-33.2	4.0	1.50e+00	0	57	104	0	10	17517
2026-01-23 08:57:45.30	126.87	8.64	-19.1	-34.0	3.8	1.50e+00	0	57	0	0	13	16142
2026-01-23 08:57:46.31	126.80	8.72	-22.7	-38.1	3.8	1.51e+00	0	57	104	0	17	20717
2026-01-23 08:57:47.32	126.74	8.80	-19.6	-36.0	3.9	1.51e+00	0	57	104	0	16	17099
2026-01-23 08:57:48.33	126.67	8.88	-19.3	-32.3	3.7	1.51e+00	0	57	104	0	10	15920
2026-01-23 08:57:49.34	126.61	8.96	-21.2	-33.6	3.6	1.51e+00	0	57	104	0	13	15453
2026-01-23 08:57:50.35	126.54	9.03	-21.0	-34.3	3.3	1.51e+00	0	57	104	0	11	18860
2026-01-23 08:57:51.36	126.47	9.11	-22.1	-36.1	3.9	1.51e+00	0	57	104	0	14	19438
2026-01-23 08:57:52.37	126.40	9.19	-23.3	-37.7	3.4	1.51e+00	0	57	104	0	14	23421
2026-01-23 08:57:53.38	126.34	9.27	-21.3	-35.8	3.5	1.51e+00	0	58	104	0	14	18735
2026-01-23 08:57:54.39	126.27	9.35	-21.4	-35.4	3.8	1.51e+00	0	58	104	0	15	16962
2026-01-23 08:57:55.40	126.20	9.43	-20.7	-35.8	3.7	1.51e+00	0	58	104	0	18	15029
2026-01-23 08:57:56.41	126.13	9.51	-21.7	-39.5	3.6	1.51e+00	0	58	104	0	20	20329
2026-01-23 08:57:57.42	126.06	9.59	-20.9	-38.7	3.8	1.51e+00	0	58	104	0	21	17555
2026-01-23 08:57:58.43	125.99	9.67	-23.6	-39.2	3.5	1.51e+00	0	58	104	0	17	23443
2026-01-23 08:57:59.44	125.92	9.75	-19.9	-36.4	3.7	1.51e+00	0	57	0	0	14	20292
2026-01-23 08:58:00.45	125.85	9.83	-18.7	-36.2	3.8	1.51e+00	0	58	104	0	13	20802
2026-01-23 08:58:01.46	125.78	9.91	-15.0	-30.3	3.9	1.50e+00	0	58	104	0	6	15794
2026-01-23 08:58:02.47	125.70	9.99	-19.3	-34.0	3.6	1.51e+00	0	58	104	0	14	15234
2026-01-23 08:58:03.48	125.63	10.07	-24.9	-37.2	3.9	1.51e+00	0	58	104	0	15	20795
2026-01-23 08:58:04.48	125.56	10.15	-29.6	-43.2	4.1	1.51e+00	0	58	104	0	26	22178
2026-01-23 08:58:05.49	125.49	10.23	-23.6	-37.0	3.8	1.51e+00	0	58	104	0	19	16269
2026-01-23 08:58:06.50	125.41	10.32	-23.4	-36.7	3.8	1.51e+00	0	58	104	0	17	17572
2026-01-23 08:58:07.51	125.34	10.40	-21.1	-35.2	3.8	1.51e+00	0	58	104	0	17	14747
2026-01-23 08:58:08.52	125.27	10.48	-24.4	-41.0	3.6	1.51e+00	0	58	104	0	24	19283
2026-01-23 08:58:09.53	125.19	10.56	-20.1	-33.5	3.5	1.51e+00	0	58	104	0	17	12189
2026-01-23 08:58:10.54	125.12	10.65	-22.4	-38.5	3.8	1.51e+00	0	58	0	0	23	15306
2026-01-23 08:58:11.55	125.04	10.73	-25.5	-41.7	4.2	1.50e+00	0	58	104	0	25	19789
2026-01-23 08:58:12.56	124.97	10.81	-28.8	-46.6	4.4	1.50e+00	0	58	104	0	36	18514
2026-01-23 08:58:13.57	124.89	10.90	-26.3	-41.6	4.1	1.50e+00	0	58	104	0	27	17435
2026-01-23 08:58:14.58	124.81	10.98	-29.9	-42.4	4.3	1.51e+00	0	58	104	0	28	18049
2026-01-23 08:58:15.59	124.74	11.06	-24.9	-42.9	4.2	1.51e+00	0	58	104	0	24	23885
2026-01-23 08:58:16.60	124.66	11.15	-33.4	-48.7	4.2	1.51e+00	0	58	104	0	33	27931
2026-01-23 08:58:17.61	124.58	11.23	-30.9	-46.3	4.7	1.50e+00	0	58	104	0	34	19985
2026-01-23 08:58:18.62	124.50	11.32	-33.7	-48.5	4.6	1.48e+00	0	58	104	0	36	22826
2026-01-23 08:58:19.63	124.42	11.40	-30.6	-44.9	4.4	1.50e+00	0	58	104	0	31	20130
2026-01-23 08:58:20.64	124.34	11.49	-32.1	-45.5	3.9	1.48e+00	0	58	104	0	19	43070
2026-01-23 08:58:21.65	124.26	11.57	-21.3	-37.9	3.9	1.48e+00	0	58	104	0	13	25348
2026-01-23 08:58:22.66	124.18	11.66	-30.7	-45.5	3.8	1.51e+00	0	58	0	0	24	32220
2026-01-23 08:58:23.67	124.10	11.74	-19.3	-38.4	3.5	1.50e+00	0	58	104	0	14	25346
2026-01-23 08:58:24.68	124.02	11.83	-31.2	-46.5	3.8	1.50e+00	0	58	104	0	24	36125
2026-01-23 08:58:25.69	123.94	11.91	-36.7	-47.9	4.9	1.49e+00	0	58	104	0	40	16946
2026-01-23 08:58:26.70	123.85	12.00	-30.6	-46.4	4.4	1.45e+00	0	59	104	0	32	22704
2026-01-23 08:58:27.71	123.77	12.09	-26.3	-42.2	4.5	9.59e-01	0	58	104	0	38	9837
2026-01-23 08:58:28.72	123.69	12.18	-33.3	-51.9	4.3	1.50e+00	0	58	104	0	43	22557
2026-01-23 08:58:29.73	123.60	12.26	-33.9	-47.2	4.7	1.48e+00	0	58	104	0	39	16625
2026-01-23 08:58:30.74	123.52	12.35	-36.6	-46.6	4.3	1.46e+00	0	59	104	0	40	14617
2026-01-23 08:58:31.75	123.43	12.44	-27.0	-41.5	4.4	1.06e+00	28	59	0	0	29	15338
2026-01-23 08:58:32.76	123.35	12.53	-27.4	-43.5	4.3	1.43e+00	0	58	104	0	26	22997
2026-01-23 08:58:33.77	123.26	12.61	-32.1	-45.5	5.3	1.05e+00	48	59	0	0	35	17234
2026-01-23 08:58:34.78	123.18	12.70	-37.5	-47.1	4.9	1.48e+00	0	59	104	0	45	11628
2026-01-23 08:58:35.79	123.09	12.79	-34.6	-47.9	4.5	4.63e-01	2	58	0	0	32	26933
2026-01-23 08:58:36.80	123.00	12.88	-38.4	-50.3	6.2	4.82e-01	9	59	0	0	50	12627
2026-01-23 08:58:37.80	122.91	12.97	-37.6	-55.9	3.2	1.42e+00	0	59	104	0	47	28407
2026-01-23 08:58:38.81	122.83	13.06	-20.7	-42.8	4.3	1.16e+00	0	59	0	0	17	35580
2026-01-23 08:58:39.82	122.74	13.15	-25.6	-45.3	4.2	1.48e+00	0	59	104	0	23	33399
2026-01-23 08:58:40.83	122.65	13.24	-30.3	-46.9	4.5	1.46e+00	0	59	104	0	29	28513
2026-01-23 08:58:41.84	122.56	13.33	-29.6	-45.1	4.5	1.21e+00	0	59	0	0	24	31024
2026-01-23 08:58:42.85	122.46	13.42	-31.5	-45.0	4.6	1.43e+00	0	59	104	0	24	30492
2026-01-23 08:58:43.86	122.37	13.51	-28.6	-46.7	6.0	7.94e-01	33	59	0	0	37	17596
2026-01-23 08:58:44.87	122.28	13.60	-29.3	-46.3	5.4	5.56e-01	23	59	0	2097152	40	14177
2026-01-23 08:58:45.88	122.19	13.69	-29.8	-45.0	4.6	6.43e-01	0	59	104	3145728	34	17120
2026-01-23 08:58:46.89	122.09	13.78	-30.2	-47.9	6.0	3.49e-01	24	59	0	4194304	45	12791
2026-01-23 08:58:47.90	122.00	13.88	-35.5	-53.8	4.3	2.26e-01	62	59	0	5242880	53	15926
2026-01-23 08:58:48.91	121.91	13.97	-40.7	-54.9	4.3	1.49e+00	0	59	104	5242880	48	24070
2026-01-23 08:58:49.92	121.81	14.06	-38.6	-50.1	5.6	1.50e-01	14	59	0	6291456	42	19478
2026-01-23 08:58:50.93	121.71	14.15	-40.4	-47.1	8.6	3.96e-01	0	59	0	7340032	46	11023
2026-01-23 08:58:51.94	121.62	14.25	-34.8	-46.0	6.4	4.24e-01	19	59	0	9437184	36	17187
2026-01-23 08:58:52.94	121.52	14.34	-40.6	-47.5	8.8	1.35e-01	4	59	0	10485760	52	8153
2026-01-23 08:58:53.95	121.42	14.43	-39.2	-47.7	8.1	2.06e-01	1	59	0	12582912	48	10527
2026-01-23 08:58:54.96	121.33	14.53	-39.9	-47.8	8.6	2.09e-01	0	59	0	14680064	51	8872
2026-01-23 08:58:55.97	121.23	14.62	-40.6	-47.4	8.7	1.61e-01	0	59	0	16777216	50	9052
2026-01-23 08:58:56.98	121.13	14.72	-39.4	-47.1	8.2	2.33e-01	0	59	0	18874368	47	10391
2026-01-23 08:58:57.99	121.03	14.81	-31.3	-43.5	4.7	5.23e-01	0	59	104	19922944	34	14396
2026-01-23 08:58:59.00	120.93	14.91	-41.0	-47.6	9.1	1.42e+00	0	59	0	19922944	51	8724
2026-01-23 08:59:00.01	120.83	15.00	-34.1	-47.3	7.7	2.25e-01	3	59	0	22020096	45	11880
2026-01-23 08:59:01.02	120.72	15.10	-40.5	-47.8	8.4	2.86e-01	0	59	0	23068672	50	9464
2026-01-23 08:59:02.03	120.62	15.19	-37.2	-47.9	7.8	1.95e-01	6	59	0	25165824	47	11324
2026-01-23 08:59:03.04	120.52	15.29	-37.9	-47.8	7.3	2.90e-01	3	59	0	27262976	46	11820
2026-01-23 08:59:04.05	120.41	15.38	-37.1	-47.5	7.1	3.47e-01	12	59	0	29360128	45	12109
2026-01-23 08:59:05.05	120.31	15.48	-40.7	-47.3	9.2	2.62e-01	0	59	0	30408704	52	7980
2026-01-23 08:59:06.06	120.20	15.58	-35.8	-46.6	8.0	2.05e-01	4	59	0	32505856	42	13094
2026-01-23 08:59:07.07	120.10	15.67	-38.0	-47.2	8.2	2.47e-01	1	59	0	34603008	43	13235
2026-01-23 08:59:08.08	119.99	15.77	-40.6	-47.1	9.0	1.39e-01	0	59	0	36700160	46	10941
2026-01-23 08:59:09.09	119.88	15.87	-39.4	-47.4	9.6	1.00e-01	0	59	0	37748736	51	8519
2026-01-23 08:59:10.10	119.77	15.97	-40.5	-47.5	7.8	1.49e-01	3	59	0	39845888	48	10236
2026-01-23 08:59:11.11	119.66	16.07	-40.4	-47.6	8.4	4.53e-02	1	60	0	41943040	49	9739
2026-01-23 08:59:12.12	119.55	16.17	-36.1	-46.6	7.1	1.04e-01	8	59	0	44040192	44	11626
2026-01-23 08:59:13.13	119.44	16.26	-34.7	-46.1	5.8	4.54e-01	50	59	0	46137344	41	13078
2026-01-23 08:59:14.14	119.33	16.36	-39.2	-47.2	10.0	3.25e-01	0	59	0	47185920	53	7438
2026-01-23 08:59:15.14	119.22	16.46	-41.9	-47.3	10.1	3.42e-02	0	59	0	49283072	53	7493
2026-01-23 08:59:16.15	119.11	16.56	-42.2	-47.5	9.9	1.48e-01	0	59	0	51380224	50	9098
2026-01-23 08:59:17.15	119.00	16.66	-31.4	-45.6	6.6	2.60e-01	4	59	0	53477376	33	19605
2026-01-23 08:59:18.16	118.88	16.76	-33.1	-45.9	6.6	2.86e-01	13	59	0	55574528	32	21265
2026-01-23 08:59:19.17	118.77	16.86	-40.7	-47.3	10.0	3.81e-02	0	59	0	56623104	53	7485
2026-01-23 08:59:20.18	118.65	16.96	-41.1	-47.1	9.3	2.58e-02	0	59	0	58720256	50	8733
2026-01-23 08:59:21.19	118.53	17.06	-37.6	-46.8	8.0	1.96e-01	0	59	0	60817408	43	12585
2026-01-23 08:59:22.20	118.42	17.17	-42.1	-47.1	10.1	1.06e-01	0	59	0	62914560	52	7773
2026-01-23 08:59:23.21	118.30	17.27	-41.9	-47.3	10.4	1.02e-02	0	59	0	65011712	55	6720
2026-01-23 08:59:24.22	118.18	17.37	-41.8	-46.9	10.8	5.56e-03	0	59	0	66060288	54	6732
2026-01-23 08:59:25.23	118.06	17.47	-42.1	-46.9	10.9	3.49e-03	0	59	0	68157440	55	6349
2026-01-23 08:59:26.23	117.94	17.58	-42.1	-46.8	11.0	4.32e-03	0	59	0	70254592	54	6668
2026-01-23 08:59:27.24	117.82	17.68	-42.1	-46.7	11.1	3.91e-03	0	59	0	72351744	54	6582
2026-01-23 08:59:28.25	117.69	17.78	-42.0	-46.4	11.4	2.30e-03	0	59	0	74448896	54	6416
2026-01-23 08:59:29.26	117.57	17.89	-42.0	-46.5	11.3	2.77e-03	0	59	0	75497472	54	6438
2026-01-23 08:59:30.27	117.45	17.99	-42.1	-46.4	11.6	9.96e-03	0	60	0	77594624	54	6363
2026-01-23 08:59:31.28	117.32	18.09	-42.2	-46.5	11.5	1.07e-03	0	60	0	79691776	54	6439
2026-01-23 08:59:32.29	117.20	18.20	-42.1	-46.6	11.4	1.10e-03	0	60	0	81788928	54	6500
2026-01-23 08:59:33.30	117.07	18.30	-42.2	-46.5	11.4	9.73e-04	0	59	0	83886080	55	6125
2026-01-23 08:59:34.31	116.94	18.41	-42.2	-46.5	11.5	1.17e-03	0	60	0	84934656	54	6444
2026-01-23 08:59:35.32	116.81	18.51	-42.1	-46.4	11.7	6.90e-04	0	59	0	87031808	54	6349
2026-01-23 08:59:36.33	116.68	18.62	-42.2	-46.5	11.5	7.85e-04	0	60	0	89128960	54	6451
2026-01-23 08:59:37.34	116.55	18.73	-42.1	-46.4	11.7	7.04e-04	0	59	0	91226112	55	6005
2026-01-23 08:59:38.35	116.42	18.83	-42.2	-46.6	11.5	7.47e-04	0	60	0	93323264	55	6141
2026-01-23 08:59:39.36	116.29	18.94	-42.2	-46.6	11.4	9.74e-04	0	60	0	95420416	55	6153
2026-01-23 08:59:40.37	116.16	19.05	-42.2	-46.5	11.5	1.35e-03	0	60	0	96468992	54	6431
2026-01-23 08:59:41.37	116.02	19.15	-42.1	-46.4	11.5	8.87e-04	0	59	0	98566144	54	6395
2026-01-23 08:59:42.39	115.89	19.26	-41.8	-46.6	11.4	7.78e-04	0	60	0	100663296	55	6166
2026-01-23 08:59:43.39	115.75	19.37	-42.3	-46.7	11.3	9.70e-04	0	59	0	102760448	55	6223
2026-01-23 08:59:44.40	115.61	19.48	-42.4	-46.9	11.1	1.17e-03	0	60	0	104857600	55	6375
2026-01-23 08:59:45.41	115.48	19.59	-42.3	-46.8	11.2	1.31e-03	0	60	0	105906176	55	6317
2026-01-23 08:59:46.42	115.34	19.69	-42.3	-46.8	11.3	1.52e-03	0	60	0	108003328	55	6278
2026-01-23 08:59:47.43	115.20	19.80	-42.4	-46.8	11.2	1.22e-03	0	60	0	110100480	55	6336
2026-01-23 08:59:48.44	115.05	19.91	-42.4	-46.9	11.1	1.79e-03	0	60	0	112197632	55	6405
2026-01-23 08:59:49.45	114.91	20.02	-42.4	-46.9	11.0	1.73e-03	0	60	0	113246208	55	6416
2026-01-23 08:59:50.46	114.77	20.13	-42.4	-46.9	11.1	1.90e-03	0	60	0	115343360	55	6389
2026-01-23 08:59:51.47	114.62	20.24	-42.4	-46.9	11.1	1.60e-03	0	60	0	117440512	55	6411
2026-01-23 08:59:52.48	114.48	20.35	-42.4	-47.0	11.1	1.83e-03	0	60	0	119537664	55	6433
2026-01-23 08:59:53.48	114.33	20.46	-42.5	-47.0	11.1	1.53e-03	0	60	0	121634816	55	6431
2026-01-23 08:59:54.49	114.19	20.57	-42.4	-46.8	11.3	1.36e-03	0	60	0	123731968	55	6303
2026-01-23 08:59:55.50	114.04	20.69	-42.3	-46.6	11.5	1.21e-03	0	60	0	124780544	55	6177
2026-01-23 08:59:56.51	113.89	20.80	-42.3	-46.6	11.5	8.78e-04	0	60	0	126877696	55	6166
2026-01-23 08:59:57.53	113.74	20.91	-42.4	-46.7	11.4	8.08e-04	0	60	0	128974848	55	6228
2026-01-23 08:59:58.53	113.59	21.02	-42.3	-46.6	11.6	7.24e-04	0	60	0	131072000	55	6159
2026-01-23 08:59:59.54	113.43	21.13	-42.3	-46.7	11.4	9.25e-04	0	60	0	133169152	55	6217
2026-01-23 09:00:00.55	113.28	21.25	-42.3	-46.7	11.5	8.67e-04	0	60	0	134217728	55	6207
2026-01-23 09:00:01.56	113.12	21.36	-42.3	-46.6	11.6	6.60e-04	0	60	0	136314880	55	6132
2026-01-23 09:00:02.57	112.97	21.47	-42.3	-46.5	11.6	7.20e-04	0	60	0	138412032	55	6103
2026-01-23 09:00:03.58	112.81	21.59	-42.2	-46.3	11.9	5.97e-04	0	60	0	140509184	55	5951
2026-01-23 09:00:04.59	112.65	21.70	-42.2	-46.3	11.8	4.65e-04	0	60	0	142606336	55	5980
2026-01-23 09:00:05.60	112.49	21.82	-42.2	-46.4	11.8	3.84e-04	0	60	0	143654912	55	6009
2026-01-23 09:00:06.61	112.33	21.93	-42.2	-46.3	11.8	4.72e-04	0	60	0	145752064	55	5988
2026-01-23 09:00:07.62	112.17	22.05	-42.2	-46.4	11.8	4.97e-04	0	60	0	147849216	55	6007
2026-01-23 09:00:08.63	112.00	22.16	-42.2	-46.2	11.9	4.48e-04	0	60	0	149946368	55	5899
2026-01-23 09:00:09.64	111.84	22.28	-42.2	-46.2	12.0	3.25e-04	0	60	0	152043520	55	5879
2026-01-23 09:00:10.65	111.67	22.39	-42.2	-46.3	11.9	3.74e-04	0	60	0	153092096	55	5967
2026-01-23 09:00:11.66	111.50	22.51	-42.3	-46.4	11.8	4.93e-04	0	60	0	155189248	55	6034
2026-01-23 09:00:12.66	111.34	22.62	-42.3	-46.4	11.8	4.85e-04	0	60	0	157286400	55	6031
2026-01-23 09:00:13.67	111.17	22.74	-42.3	-46.5	11.7	5.38e-04	0	60	0	159383552	55	6116
2026-01-23 09:00:14.68	111.00	22.86	-42.1	-46.1	12.1	3.33e-04	0	60	0	161480704	55	5833
2026-01-23 09:00:15.69	110.82	22.97	-42.0	-45.9	12.3	1.90e-04	0	60	0	162529280	55	5694
2026-01-23 09:00:16.70	110.65	23.09	-42.1	-46.0	12.2	1.90e-04	0	60	0	164626432	55	5758
2026-01-23 09:00:17.71	110.47	23.21	-42.2	-46.2	12.1	3.23e-04	0	60	0	166723584	55	5859
2026-01-23 09:00:18.72	110.30	23.32	-42.2	-46.3	12.0	3.94e-04	0	60	0	168820736	55	5954
2026-01-23 09:00:19.73	110.12	23.44	-42.2	-46.3	11.9	4.40e-04	0	60	0	170917888	55	5962
2026-01-23 09:00:20.74	109.94	23.56	-42.2	-46.3	12.0	3.38e-04	0	60	0	171966464	55	5939
2026-01-23 09:00:21.75	109.76	23.68	-42.3	-46.3	11.9	3.22e-04	0	60	0	174063616	55	5989
2026-01-23 09:00:22.76	109.58	23.80	-42.2	-46.2	12.0	2.91e-04	0	60	0	176160768	55	5896
2026-01-23 09:00:23.77	109.40	23.92	-42.2	-46.3	11.9	3.67e-04	0	60	0	178257920	55	5972
2026-01-23 09:00:24.78	109.21	24.04	-42.2	-46.3	11.9	4.44e-04	0	60	0	180355072	55	5977
2026-01-23 09:00:25.78	109.03	24.15	-42.3	-46.4	11.8	4.47e-04	0	60	0	181403648	55	6024
2026-01-23 09:00:26.79	108.84	24.27	-42.2	-46.3	11.9	4.68e-04	0	60	0	183500800	55	5968
2026-01-23 09:00:27.80	108.65	24.39	-42.3	-46.5	11.7	4.94e-04	0	60	0	185597952	55	6076
2026-01-23 09:00:28.81	108.46	24.51	-42.3	-46.5	11.7	5.55e-04	0	60	0	187695104	55	6093
2026-01-23 09:00:29.82	108.27	24.63	-42.4	-46.7	11.5	6.07e-04	0	60	0	189792256	55	6246
2026-01-23 09:00:30.83	108.07	24.75	-42.5	-46.9	11.4	1.01e-03	0	60	0	191889408	55	6348
2026-01-23 09:00:31.84	107.88	24.87	-42.6	-47.0	11.3	1.09e-03	0	60	0	192937984	55	6453
2026-01-23 09:00:32.85	107.68	24.99	-42.6	-47.1	11.1	1.19e-03	0	60	0	195035136	55	6548
2026-01-23 09:00:33.86	107.48	25.11	-42.7	-47.3	11.0	1.96e-03	0	60	0	197132288	55	6666
2026-01-23 09:00:34.87	107.28	25.24	-42.9	-47.5	10.8	2.48e-03	0	60	0	199229440	56	6482
2026-01-23 09:00:35.89	107.08	25.36	-42.9	-47.7	10.7	2.82e-03	0	60	0	201326592	56	6581
2026-01-23 09:00:36.90	106.88	25.48	-43.0	-47.9	10.5	3.52e-03	0	60	0	202375168	56	6729
2026-01-23 09:00:37.91	106.67	25.60	-43.0	-47.8	10.6	3.41e-03	0	60	0	204472320	56	6700
2026-01-23 09:00:38.91	106.47	25.72	-43.0	-47.9	10.5	3.64e-03	0	60	0	206569472	56	6743
2026-01-23 09:00:39.93	106.26	25.84	-43.1	-48.0	10.4	3.93e-03	0	60	0	208666624	56	6872
2026-01-23 09:00:40.93	106.05	25.97	-43.1	-48.2	10.2	5.42e-03	0	60	0	210763776	56	6965
2026-01-23 09:00:41.94	105.84	26.09	-43.1	-48.2	10.2	5.85e-03	0	60	0	211812352	56	6961
2026-01-23 09:00:42.95	105.63	26.21	-43.1	-48.1	10.3	5.81e-03	0	60	0	213909504	56	6934
2026-01-23 09:00:43.96	105.42	26.33	-43.2	-48.3	10.1	6.44e-03	0	60	0	216006656	56	7074
2026-01-23 09:00:44.97	105.20	26.45	-43.1	-48.1	10.3	6.12e-03	0	60	0	218103808	56	6918
2026-01-23 09:00:45.98	104.99	26.58	-43.1	-47.9	10.5	4.73e-03	0	60	0	220200960	56	6763
2026-01-23 09:00:46.99	104.77	26.70	-43.1	-47.9	10.5	4.01e-03	0	60	0	221249536	56	6779
2026-01-23 09:00:48.00	104.55	26.82	-43.0	-47.8	10.6	3.46e-03	0	60	0	223346688	56	6677
2026-01-23 09:00:49.01	104.32	26.94	-43.1	-47.9	10.5	3.32e-03	0	60	0	225443840	56	6767
2026-01-23 09:00:50.02	104.10	27.07	-43.1	-48.1	10.4	4.28e-03	0	60	0	227540992	56	6903
2026-01-23 09:00:51.03	103.87	27.19	-43.2	-48.2	10.2	5.56e-03	0	60	0	229638144	57	6605
2026-01-23 09:00:52.04	103.65	27.31	-43.1	-48.1	10.3	6.04e-03	0	60	0	230686720	57	6528
2026-01-23 09:00:53.05	103.42	27.44	-43.1	-48.0	10.4	5.01e-03	0	60	0	232783872	57	6485
2026-01-23 09:00:54.06	103.19	27.56	-43.2	-48.2	10.2	4.76e-03	0	60	0	234881024	57	6629
2026-01-23 09:00:55.07	102.95	27.68	-43.2	-48.1	10.3	5.58e-03	0	60	0	236978176	57	6560
2026-01-23 09:00:56.08	102.72	27.81	-43.2	-48.2	10.2	5.72e-03	0	60	0	239075328	57	6624
2026-01-23 09:00:57.08	102.48	27.93	-43.2	-48.2	10.2	6.03e-03	0	60	0	240123904	57	6617
2026-01-23 09:00:58.10	102.24	28.05	-43.2	-48.3	10.1	6.02e-03	0	60	0	242221056	57	6706
2026-01-23 09:00:59.11	102.00	28.17	-43.2	-48.1	10.3	6.63e-03	0	60	0	244318208	57	6535
2026-01-23 09:01:00.11	101.76	28.30	-43.2	-48.1	10.3	5.73e-03	0	60	0	246415360	57	6555
2026-01-23 09:01:01.12	101.52	28.42	-43.2	-48.2	10.3	5.33e-03	0	60	0	248512512	57	6582
2026-01-23 09:01:02.13	101.27	28.54	-43.2	-48.3	10.2	5.78e-03	0	60	0	249561088	57	6680
2026-01-23 09:01:03.14	101.02	28.67	-43.2	-48.3	10.1	7.11e-03	0	60	0	251658240	57	6700
2026-01-23 09:01:04.15	100.78	28.79	-43.2	-48.3	10.2	6.53e-03	0	60	0	253755392	57	6667
2026-01-23 09:01:05.16	100.52	28.91	-43.2	-48.3	10.1	6.47e-03	0	60	0	255852544	57	6686
2026-01-23 09:01:06.17	100.27	29.03	-43.3	-48.4	10.0	7.21e-03	0	60	0	257949696	57	6770
2026-01-23 09:01:07.18	100.01	29.16	-43.3	-48.3	10.1	7.41e-03	0	60	0	260046848	57	6720
2026-01-23 09:01:08.19	99.76	29.28	-43.2	-48.3	10.2	5.62e-03	0	60	0	261095424	57	6694
2026-01-23 09:01:09.20	99.50	29.40	-43.2	-48.3	10.2	7.18e-03	0	60	0	263192576	57	6681
2026-01-23 09:01:10.21	99.24	29.52	-43.2	-48.2	10.3	6.12e-03	0	60	0	265289728	57	6625
2026-01-23 09:01:11.22	98.97	29.65	-43.2	-48.2	10.2	5.92e-03	0	60	0	267386880	57	6626
2026-01-23 09:01:12.23	98.71	29.77	-43.2	-48.1	10.3	5.45e-03	0	60	0	269484032	57	6568
2026-01-23 09:01:13.23	98.44	29.89	-43.2	-48.2	10.3	4.98e-03	0	60	0	270532608	57	6597
2026-01-23 09:01:14.24	98.17	30.01	-43.2	-48.2	10.3	5.27e-03	0	60	0	272629760	57	6582
2026-01-23 09:01:15.25	97.90	30.13	-43.2	-48.1	10.4	4.66e-03	0	60	0	274726912	57	6502
2026-01-23 09:01:16.26	97.63	30.25	-43.1	-47.9	10.6	4.17e-03	0	60	0	276824064	57	6415
2026-01-23 09:01:17.27	97.35	30.37	-43.2	-48.1	10.4	3.97e-03	0	60	0	278921216	57	6514
2026-01-23 09:01:18.28	97.07	30.49	-43.2	-48.2	10.3	5.11e-03	0	60	0	279969792	57	6630
2026-01-23 09:01:19.29	96.79	30.61	-43.2	-48.2	10.2	5.63e-03	0	61	0	282066944	57	6640
2026-01-23 09:01:20.30	96.51	30.73	-43.4	-48.8	9.6	9.59e-03	0	60	0	284164096	57	7095
2026-01-23 09:01:21.31	96.23	30.85	-43.6	-49.3	9.1	1.62e-02	0	60	0	286261248	57	7519
2026-01-23 09:01:22.32	95.94	30.97	-43.7	-49.7	8.7	3.03e-02	0	60	0	288358400	57	7820
2026-01-23 09:01:23.33	95.65	31.09	-43.8	-49.9	8.5	4.15e-02	0	60	0	289406976	58	7597
2026-01-23 09:01:24.34	95.36	31.21	-43.8	-49.9	8.5	4.26e-02	0	60	0	291504128	58	7606
2026-01-23 09:01:25.35	95.07	31.33	-43.8	-49.8	8.6	4.12e-02	0	61	0	293601280	58	7532
2026-01-23 09:01:26.36	94.78	31.45	-43.8	-49.9	8.5	4.30e-02	0	60	0	295698432	58	7590
2026-01-23 09:01:27.37	94.48	31.57	-43.9	-50.0	8.4	4.40e-02	0	60	0	297795584	58	7714
2026-01-23 09:01:28.38	94.18	31.68	-43.9	-50.1	8.4	4.65e-02	0	60	0	298844160	58	7733
2026-01-23 09:01:29.39	93.88	31.80	-43.9	-50.3	8.1	5.52e-02	0	60	0	300941312	58	7951
2026-01-23 09:01:30.40	93.58	31.92	-44.0	-50.4	8.0	6.71e-02	0	61	0	303038464	58	8022
2026-01-23 09:01:31.41	93.27	32.03	-44.0	-50.5	7.9	6.03e-02	0	61	0	305135616	58	8118
2026-01-23 09:01:32.42	92.96	32.15	-44.0	-50.6	7.8	8.30e-02	0	61	0	307232768	58	8235
2026-01-23 09:01:33.43	92.65	32.26	-44.0	-50.6	7.8	7.65e-02	0	61	0	308281344	58	8233
2026-01-23 09:01:34.44	92.34	32.38	-44.1	-50.9	7.6	8.09e-02	0	61	0	310378496	58	8464
2026-01-23 09:01:35.45	92.03	32.49	-44.2	-51.2	7.2	1.28e-01	0	60	0	312475648	58	8839
2026-01-23 09:01:36.46	91.71	32.60	-44.2	-51.3	7.2	1.40e-01	0	60	0	314572800	59	8415
2026-01-23 09:01:37.47	91.39	32.72	-44.2	-51.5	7.1	1.38e-01	0	60	0	316669952	59	8582
2026-01-23 09:01:38.48	91.07	32.83	-44.3	-51.8	6.7	1.56e-01	0	60	0	317718528	59	8887
2026-01-23 09:01:39.49	90.75	32.94	-44.4	-52.5	6.1	2.26e-01	0	60	0	319815680	59	9687
2026-01-23 09:01:40.50	90.42	33.05	-44.3	-52.4	6.3	1.28e+00	0	60	0	321912832	60	9010
2026-01-23 09:01:41.51	90.09	33.16	-45.0	-57.7	3.9	1.30e+00	0	61	104	321912832	60	16662
2026-01-23 09:01:42.51	89.77	33.27	-44.5	-52.8	5.9	1.48e+00	0	60	104	321912832	60	9445
2026-01-23 09:01:43.52	89.43	33.38	-44.7	-54.4	5.0	1.39e+00	0	60	0	321912832	60	11329
2026-01-23 09:01:44.53	89.10	33.49	-43.2	-52.6	6.0	3.27e-01	0	60	0	324009984	59	9761
2026-01-23 09:01:45.54	88.76	33.60	-44.5	-52.8	5.9	3.50e-01	0	60	0	326107136	59	9987
2026-01-23 09:01:46.55	88.42	33.70	-44.4	-52.4	6.2	3.26e-01	0	61	0	328204288	59	9595
2026-01-23 09:01:47.56	88.08	33.81	-44.4	-52.3	6.3	2.88e-01	0	61	0	329252864	59	9406
2026-01-23 09:01:48.57	87.74	33.91	-44.3	-51.6	6.9	1.89e-01	0	60	0	331350016	59	8699
2026-01-23 09:01:49.58	87.39	34.02	-44.1	-50.8	7.8	1.15e-01	0	60	0	333447168	59	7942
2026-01-23 09:01:50.59	87.05	34.12	-44.2	-51.4	7.3	1.15e-01	0	61	0	335544320	59	8477
2026-01-23 09:01:51.60	86.70	34.22	-44.0	-50.3	8.3	7.24e-01	0	61	0	337641472	59	7482
2026-01-23 09:01:52.61	86.34	34.33	-44.8	-55.6	4.0	1.48e+00	0	61	104	337641472	60	13008
2026-01-23 09:01:53.62	85.99	34.43	-43.9	-50.1	8.4	9.42e-01	0	61	0	338690048	59	7305
2026-01-23 09:01:54.63	85.63	34.53	-44.0	-51.0	7.4	6.49e-01	0	61	0	339738624	60	7633
2026-01-23 09:01:55.63	85.28	34.63	-43.7	-49.5	8.9	2.81e-02	0	61	0	341835776	59	6837
2026-01-23 09:01:56.64	84.92	34.72	-43.7	-49.4	9.0	2.75e-02	0	61	0	343932928	59	6762
2026-01-23 09:01:57.65	84.55	34.82	-43.6	-49.1	9.4	2.15e-02	0	60	0	346030080	59	6509
2026-01-23 09:01:58.66	84.19	34.92	-43.5	-49.0	9.4	1.60e-02	0	61	0	348127232	59	6462
2026-01-23 09:01:59.67	83.82	35.01	-43.5	-48.8	9.7	1.34e-02	0	61	0	349175808	58	6680
2026-01-23 09:02:00.68	83.45	35.10	-43.4	-48.5	10.0	9.61e-03	0	60	0	351272960	58	6476
2026-01-23 09:02:01.69	83.08	35.20	-43.2	-48.1	10.4	5.52e-03	0	60	0	353370112	58	6196
2026-01-23 09:02:02.70	82.71	35.29	-43.0	-47.6	11.0	2.55e-03	0	61	0	355467264	58	5798
2026-01-23 09:02:03.71	82.33	35.38	-42.8	-47.1	11.5	1.41e-03	0	61	0	357564416	57	5829
2026-01-23 09:02:04.72	81.95	35.47	-42.7	-47.0	11.6	6.42e-04	0	61	0	358612992	57	5748
2026-01-23 09:02:05.73	81.57	35.56	-42.8	-47.1	11.6	7.61e-04	0	61	0	360710144	57	5789
2026-01-23 09:02:06.74	81.19	35.64	-42.8	-47.2	11.4	7.36e-04	0	61	0	362807296	57	5884
2026-01-23 09:02:07.75	80.81	35.73	-42.8	-47.2	11.5	9.89e-04	0	61	0	364904448	57	5867
2026-01-23 09:02:08.76	80.42	35.81	-42.8	-47.0	11.6	7.22e-04	0	61	0	367001600	57	5738
2026-01-23 09:02:09.77	80.03	35.90	-42.7	-46.9	11.8	5.51e-04	0	61	0	369098752	57	5665
2026-01-23 09:02:10.78	79.64	35.98	-42.7	-46.8	11.8	5.15e-04	0	61	0	370147328	57	5614
2026-01-23 09:02:11.79	79.25	36.06	-42.7	-46.9	11.7	5.31e-04	0	61	0	372244480	57	5666
2026-01-23 09:02:12.80	78.86	36.14	-42.7	-46.9	11.8	4.79e-04	0	60	0	374341632	57	5668
2026-01-23 09:02:13.80	78.47	36.22	-42.6	-46.6	12.0	4.38e-04	0	61	0	376438784	57	5522
2026-01-23 09:02:14.81	78.07	36.29	-42.5	-46.4	12.2	2.23e-04	0	61	0	378535936	56	5695
2026-01-23 09:02:15.82	77.67	36.37	-42.5	-46.4	12.3	1.81e-04	0	61	0	379584512	56	5693
2026-01-23 09:02:16.83	77.27	36.44	-42.5	-46.4	12.3	1.79e-04	0	61	0	381681664	56	5667
2026-01-23 09:02:17.84	76.86	36.51	-42.4	-46.2	12.5	1.36e-04	0	61	0	383778816	56	5569
2026-01-23 09:02:18.85	76.46	36.59	-42.5	-46.3	12.3	1.22e-04	0	61	0	385875968	56	5653
2026-01-23 09:02:19.86	76.05	36.65	-42.3	-46.1	12.6	1.68e-04	0	61	0	387973120	56	5469
2026-01-23 09:02:20.87	75.64	36.72	-42.3	-46.0	12.7	9.76e-05	0	61	0	389021696	56	5430
2026-01-23 09:02:21.88	75.23	36.79	-42.2	-45.8	12.9	6.63e-05	0	61	0	391118848	56	5297
2026-01-23 09:02:22.89	74.82	36.85	-42.1	-45.5	13.2	3.20e-05	0	61	0	393216000	56	5157
2026-01-23 09:02:23.90	74.41	36.92	-42.0	-45.4	13.3	1.83e-05	0	61	0	395313152	56	5068
2026-01-23 09:02:24.91	73.99	36.98	-41.7	-45.0	13.6	3.80e-06	0	61	0	397410304	55	5115
2026-01-23 09:02:25.92	73.58	37.04	-41.6	-44.8	13.7	3.00e-06	0	61	0	398458880	55	5033
2026-01-23 09:02:26.93	73.16	37.10	-41.7	-44.9	13.7	7.60e-06	0	61	0	400556032	55	5087
2026-01-23 09:02:27.94	72.74	37.15	-41.7	-45.0	13.5	8.30e-06	0	61	0	402653184	55	5149
2026-01-23 09:02:28.95	72.32	37.21	-41.7	-45.0	13.6	9.10e-06	0	61	0	404750336	55	5146
2026-01-23 09:02:29.96	71.90	37.26	-41.8	-45.1	13.4	9.90e-06	0	61	0	406847488	55	5200
2026-01-23 09:02:30.97	71.47	37.31	-41.9	-45.4	13.1	2.05e-05	0	61	0	407896064	55	5388
2026-01-23 09:02:31.97	71.05	37.36	-42.0	-45.5	13.0	4.42e-05	0	61	0	409993216	55	5459
2026-01-23 09:02:32.98	70.63	37.41	-41.9	-45.5	13.1	3.58e-05	0	61	0	412090368	55	5416
2026-01-23 09:02:33.99	70.20	37.46	-41.9	-45.4	13.1	3.73e-05	0	61	0	414187520	55	5389
2026-01-23 09:02:35.00	69.77	37.50	-41.7	-45.0	13.6	6.80e-06	0	60	0	416284672	55	5136
2026-01-23 09:02:36.01	69.34	37.55	-41.6	-44.7	13.9	3.80e-06	0	61	0	417333248	55	4973
2026-01-23 09:02:37.02	68.91	37.59	-41.5	-44.7	13.9	1.50e-06	0	61	0	419430400	54	5239
2026-01-23 09:02:38.03	68.48	37.63	-41.6	-44.8	13.8	2.20e-06	0	60	0	421527552	54	5309
2026-01-23 09:02:39.04	68.05	37.66	-41.5	-44.7	13.9	1.50e-06	0	61	0	423624704	54	5239
2026-01-23 09:02:40.05	67.61	37.70	-41.5	-44.6	14.0	3.80e-06	0	61	0	425721856	54	5176
2026-01-23 09:02:41.06	67.18	37.73	-41.5	-44.6	14.0	3.00e-06	0	61	0	426770432	54	5207
2026-01-23 09:02:42.07	66.74	37.76	-41.5	-44.7	13.9	7.00e-07	0	60	0	428867584	54	5250
2026-01-23 09:02:43.08	66.31	37.80	-41.7	-45.0	13.6	3.00e-06	0	61	0	430964736	54	5422
2026-01-23 09:02:44.09	65.87	37.82	-41.8	-45.3	13.3	7.60e-06	0	61	0	433061888	54	5596
2026-01-23 09:02:45.10	65.43	37.85	-41.9	-45.4	13.2	2.36e-05	0	61	0	435159040	54	5665
2026-01-23 09:02:46.11	64.99	37.87	-42.1	-45.6	12.9	2.67e-05	0	61	0	437256192	54	5850
2026-01-23 09:02:47.12	64.55	37.90	-42.2	-45.8	12.7	4.50e-05	0	61	0	438304768	54	5989
2026-01-23 09:02:48.13	64.11	37.92	-42.2	-45.9	12.7	6.71e-05	0	61	0	440401920	54	6006
2026-01-23 09:02:49.14	63.67	37.94	-42.3	-46.2	12.4	7.47e-05	0	60	0	442499072	55	5863
2026-01-23 09:02:50.15	63.23	37.95	-42.4	-46.4	12.1	1.54e-04	0	61	0	444596224	55	6011
2026-01-23 09:02:51.16	62.79	37.97	-42.6	-46.7	11.8	3.62e-04	0	61	0	446693376	55	6234
2026-01-23 09:02:52.17	62.35	37.98	-42.6	-46.8	11.7	5.51e-04	0	61	0	447741952	55	6295
2026-01-23 09:02:53.18	61.91	37.99	-42.5	-46.6	12.0	5.32e-04	0	61	0	449839104	55	6137
2026-01-23 09:02:54.19	61.46	38.00	-42.5	-46.5	12.1	2.79e-04	0	61	0	451936256	55	6068
2026-01-23 09:02:55.20	61.02	38.01	-42.5	-46.6	11.9	3.00e-04	0	61	0	454033408	55	6178
2026-01-23 09:02:56.20	60.58	38.01	-42.7	-46.9	11.6	4.71e-04	0	61	0	456130560	55	6410
2026-01-23 09:02:57.21	60.14	38.02	-42.9	-47.2	11.4	7.26e-04	0	61	0	457179136	56	6254
2026-01-23 09:02:58.22	59.70	38.02	-42.9	-47.2	11.5	9.03e-04	0	61	0	459276288	56	6241
2026-01-23 09:02:59.23	59.25	38.02	-42.9	-47.1	11.5	8.71e-04	0	61	0	461373440	56	6199
2026-01-23 09:03:00.24	58.81	38.02	-42.9	-47.2	11.4	9.61e-04	0	61	0	463470592	56	6251
2026-01-23 09:03:01.25	58.37	38.01	-42.9	-47.3	11.4	9.63e-04	0	61	0	465567744	56	6291
2026-01-23 09:03:02.26	57.93	38.01	-43.0	-47.3	11.3	1.22e-03	0	61	0	466616320	56	6312
2026-01-23 09:03:03.27	57.48	38.00	-43.0	-47.4	11.3	1.19e-03	0	61	0	468713472	56	6382
2026-01-23 09:03:04.28	57.04	37.99	-42.9	-47.2	11.5	1.02e-03	0	61	0	470810624	56	6223
2026-01-23 09:03:05.29	56.60	37.97	-42.9	-47.1	11.6	7.18e-04	0	61	0	472907776	56	6135
2026-01-23 09:03:06.29	56.16	37.96	-42.8	-47.0	11.7	5.01e-04	0	61	0	475004928	56	6082
2026-01-23 09:03:07.30	55.72	37.94	-43.1	-47.5	11.1	1.03e-03	0	61	0	476053504	56	6489
2026-01-23 09:03:08.32	55.28	37.93	-43.2	-48.1	10.6	2.48e-03	0	61	0	478150656	57	6497
2026-01-23 09:03:09.33	54.84	37.91	-43.3	-48.1	10.5	3.60e-03	0	61	0	480247808	57	6555
2026-01-23 09:03:10.33	54.40	37.88	-43.2	-48.0	10.7	3.85e-03	0	61	0	482344960	57	6437
2026-01-23 09:03:11.34	53.97	37.86	-43.3	-48.1	10.6	2.98e-03	0	61	0	484442112	57	6523
2026-01-23 09:03:12.35	53.53	37.84	-43.4	-48.3	10.3	4.37e-03	0	61	0	485490688	57	6686
2026-01-23 09:03:13.36	53.09	37.81	-43.4	-48.3	10.3	4.98e-03	0	61	0	487587840	57	6698
2026-01-23 09:03:14.37	52.65	37.78	-43.4	-48.3	10.3	5.49e-03	0	61	0	489684992	57	6688
2026-01-23 09:03:15.38	52.22	37.75	-43.3	-48.3	10.4	5.35e-03	0	61	0	491782144	57	6652
2026-01-23 09:03:16.39	51.78	37.71	-43.5	-48.7	9.9	7.72e-03	0	61	0	493879296	57	6985
2026-01-23 09:03:17.40	51.35	37.68	-43.6	-48.8	9.8	1.02e-02	0	61	0	494927872	57	7087
2026-01-23 09:03:18.41	50.92	37.64	-43.5	-48.7	9.8	1.05e-02	0	61	0	497025024	57	7035
2026-01-23 09:03:19.42	50.48	37.60	-43.6	-49.0	9.6	1.12e-02	0	61	0	499122176	57	7210
2026-01-23 09:03:20.43	50.05	37.56	-43.7	-49.1	9.4	1.52e-02	0	61	0	501219328	57	7342
2026-01-23 09:03:21.44	49.62	37.52	-43.7	-49.1	9.5	1.84e-02	0	61	0	503316480	58	6934
2026-01-23 09:03:22.44	49.20	37.48	-43.6	-49.0	9.5	1.44e-02	0	61	0	504365056	58	6826
2026-01-23 09:03:23.45	48.77	37.43	-43.5	-48.7	9.9	8.83e-03	0	61	0	506462208	58	6612
2026-01-23 09:03:24.46	48.35	37.39	-43.6	-48.9	9.7	9.96e-03	0	61	0	508559360	58	6794
2026-01-23 09:03:25.47	47.92	37.34	-43.6	-49.0	9.6	1.27e-02	0	61	0	510656512	58	6836
2026-01-23 09:03:26.48	47.50	37.29	-43.6	-49.0	9.7	1.32e-02	0	61	0	512753664	58	6808
2026-01-23 09:03:27.49	47.08	37.23	-43.5	-48.7	9.9	1.12e-02	0	61	0	513802240	58	6591
2026-01-23 09:03:28.50	46.65	37.18	-43.3	-48.2	10.4	7.45e-03	0	61	0	515899392	58	6248
2026-01-23 09:03:29.51	46.24	37.12	-43.3	-48.1	10.5	4.28e-03	0	61	0	517996544	58	6201
2026-01-23 09:03:30.52	45.82	37.07	-43.2	-47.9	10.7	3.47e-03	0	61	0	520093696	58	6054
2026-01-23 09:03:31.53	45.40	37.01	-43.1	-47.7	11.0	2.37e-03	0	61	0	522190848	58	5882
2026-01-23 09:03:32.54	44.99	36.95	-43.0	-47.4	11.3	1.48e-03	0	60	0	523239424	58	5712
2026-01-23 09:03:33.55	44.57	36.88	-42.9	-47.3	11.4	9.26e-04	0	61	0	525336576	57	5943
2026-01-23 09:03:34.56	44.16	36.82	-42.8	-47.0	11.6	7.38e-04	0	61	0	527433728	57	5769
2026-01-23 09:03:35.57	43.75	36.75	-42.8	-47.0	11.7	6.00e-04	0	61	0	529530880	57	5764
2026-01-23 09:03:36.58	43.34	36.69	-42.8	-47.0	11.7	5.78e-04	0	61	0	531628032	57	5753
2026-01-23 09:03:37.59	42.94	36.62	-42.7	-46.7	12.0	4.52e-04	0	61	0	533725184	57	5576
2026-01-23 09:03:38.60	42.53	36.55	-42.4	-46.2	12.5	1.82e-04	0	61	0	534773760	56	5578
2026-01-23 09:03:39.61	42.13	36.48	-42.3	-46.0	12.7	6.33e-05	0	61	0	536870912	56	5422
2026-01-23 09:03:40.62	41.73	36.40	-42.2	-45.8	12.9	5.34e-05	0	61	0	538968064	56	5303
2026-01-23 09:03:41.63	41.33	36.33	-42.2	-45.8	13.0	4.42e-05	0	61	0	541065216	56	5301
2026-01-23 09:03:42.64	40.93	36.25	-42.2	-45.8	12.9	3.50e-05	0	61	0	543162368	56	5308
2026-01-23 09:03:43.65	40.53	36.18	-42.3	-45.9	12.8	5.03e-05	0	61	0	544210944	56	5369
2026-01-23 09:03:44.66	40.14	36.10	-42.2	-45.8	12.9	5.11e-05	0	61	0	546308096	56	5318
2026-01-23 09:03:45.66	39.75	36.02	-42.0	-45.5	13.3	1.67e-05	0	61	0	548405248	56	5104
2026-01-23 09:03:46.67	39.36	35.94	-42.0	-45.4	13.3	1.67e-05	0	61	0	550502400	56	5074
2026-01-23 09:03:47.68	38.97	35.86	-42.1	-45.6	13.1	1.52e-05	0	61	0	552599552	56	5181
2026-01-23 09:03:48.69	38.59	35.77	-42.3	-45.9	12.9	5.26e-05	0	61	0	553648128	56	5356
2026-01-23 09:03:49.70	38.20	35.69	-42.3	-46.0	12.8	7.01e-05	0	61	0	555745280	56	5408
2026-01-23 09:03:50.71	37.82	35.60	-42.4	-46.1	12.6	9.00e-05	0	61	0	557842432	56	5485
2026-01-23 09:03:51.72	37.44	35.51	-42.4	-46.3	12.4	1.05e-04	0	61	0	559939584	56	5603
2026-01-23 09:03:52.73	37.07	35.43	-42.6	-46.6	12.1	2.39e-04	0	61	0	562036736	56	5830
2026-01-23 09:03:53.74	36.69	35.34	-42.7	-46.8	12.0	3.60e-04	0	61	0	563085312	56	5947
2026-01-23 09:03:54.75	36.32	35.25	-42.7	-46.9	11.8	3.75e-04	0	61	0	565182464	56	6019
2026-01-23 09:03:55.76	35.94	35.15	-42.7	-46.9	11.8	4.81e-04	0	61	0	567279616	56	5997
2026-01-23 09:03:56.77	35.57	35.06	-42.8	-47.1	11.5	7.04e-04	0	61	0	569376768	56	6165
2026-01-23 09:03:57.78	35.21	34.97	-42.8	-47.0	11.7	7.36e-04	0	61	0	571473920	56	6107
2026-01-23 09:03:58.79	34.84	34.87	-42.8	-46.9	11.7	5.74e-04	0	61	0	572522496	56	6040
2026-01-23 09:03:59.79	34.48	34.78	-42.8	-46.9	11.8	5.10e-04	0	61	0	574619648	56	6031
2026-01-23 09:04:00.80	34.12	34.68	-42.9	-47.1	11.5	7.42e-04	0	61	0	576716800	56	6202
2026-01-23 09:04:01.81	33.76	34.58	-42.9	-47.2	11.4	8.35e-04	0	61	0	578813952	56	6259
2026-01-23 09:04:02.82	33.41	34.48	-42.9	-47.3	11.4	1.04e-03	0	61	0	580911104	56	6306
2026-01-23 09:04:03.83	33.05	34.38	-42.8	-47.0	11.6	7.71e-04	0	61	0	581959680	56	6127
2026-01-23 09:04:04.84	32.70	34.28	-42.9	-47.3	11.3	8.89e-04	0	61	0	584056832	56	6284
2026-01-23 09:04:05.85	32.35	34.18	-42.9	-47.3	11.4	1.06e-03	0	61	0	586153984	56	6299
2026-01-23 09:04:06.86	32.00	34.08	-42.9	-47.3	11.4	1.21e-03	0	61	0	588251136	56	6287
2026-01-23 09:04:07.87	31.66	33.97	-42.9	-47.3	11.4	1.01e-03	0	61	0	590348288	56	6286
2026-01-23 09:04:08.88	31.31	33.87	-43.0	-47.4	11.2	1.28e-03	0	61	0	591396864	56	6383
2026-01-23 09:04:09.89	30.97	33.76	-43.0	-47.4	11.2	1.24e-03	0	61	0	593494016	56	6376
2026-01-23 09:04:10.90	30.63	33.66	-43.0	-47.4	11.2	1.23e-03	0	61	0	595591168	56	6356
2026-01-23 09:04:11.91	30.30	33.55	-42.9	-47.4	11.3	1.28e-03	0	61	0	597688320	56	6352
2026-01-23 09:04:12.92	29.96	33.44	-42.9	-47.2	11.4	1.01e-03	0	61	0	599785472	56	6244
2026-01-23 09:04:13.93	29.63	33.33	-42.8	-47.1	11.5	9.50e-04	0	61	0	601882624	56	6153
2026-01-23 09:04:14.94	29.30	33.23	-42.9	-47.1	11.5	8.09e-04	0	61	0	602931200	56	6186
2026-01-23 09:04:15.95	28.97	33.12	-42.8	-47.1	11.5	8.38e-04	0	61	0	605028352	56	6145
2026-01-23 09:04:16.96	28.65	33.01	-42.9	-47.3	11.4	1.02e-03	0	61	0	607125504	56	6291
2026-01-23 09:04:17.97	28.33	32.89	-43.0	-47.3	11.2	1.12e-03	0	61	0	609222656	56	6330
2026-01-23 09:04:18.98	28.01	32.78	-43.1	-47.7	10.9	1.75e-03	0	61	0	611319808	56	6609
2026-01-23 09:04:19.99	27.69	32.67	-43.2	-48.0	10.5	2.81e-03	0	61	0	612368384	57	6476
2026-01-23 09:04:20.99	27.37	32.56	-43.2	-48.1	10.5	4.06e-03	0	61	0	614465536	57	6516
2026-01-23 09:04:22.00	27.06	32.45	-43.2	-48.1	10.4	4.54e-03	0	61	0	616562688	57	6522
2026-01-23 09:04:23.01	26.75	32.33	-43.2	-48.0	10.5	4.28e-03	0	61	0	618659840	57	6471
2026-01-23 09:04:24.02	26.44	32.22	-43.2	-48.1	10.4	3.82e-03	0	61	0	620756992	57	6501
2026-01-23 09:04:25.03	26.13	32.10	-43.3	-48.3	10.2	5.96e-03	0	61	0	621805568	57	6699
2026-01-23 09:04:26.04	25.82	31.99	-43.4	-48.4	10.1	6.37e-03	0	61	0	623902720	57	6779
2026-01-23 09:04:27.05	25.52	31.87	-43.4	-48.5	10.0	8.20e-03	0	61	0	625999872	57	6828
2026-01-23 09:04:28.06	25.22	31.76	-43.5	-48.7	9.8	9.79e-03	0	61	0	628097024	57	7028
2026-01-23 09:04:29.07	24.92	31.64	-43.4	-48.7	9.8	9.19e-03	0	61	0	630194176	57	6981
2026-01-23 09:04:30.08	24.62	31.52	-43.5	-48.6	9.8	8.90e-03	0	61	0	631242752	57	6946
2026-01-23 09:04:31.09	24.33	31.41	-43.5	-48.7	9.7	1.09e-02	0	61	0	633339904	57	7036
2026-01-23 09:04:32.10	24.04	31.29	-43.5	-48.9	9.5	1.26e-02	0	61	0	635437056	57	7166
2026-01-23 09:04:33.11	23.75	31.17	-43.6	-49.0	9.4	1.68e-02	0	61	0	637534208	57	7269
2026-01-23 09:04:34.12	23.46	31.05	-43.6	-49.2	9.3	1.88e-02	0	61	0	639631360	57	7385
2026-01-23 09:04:35.13	23.17	30.93	-43.5	-48.9	9.5	1.61e-02	0	61	0	640679936	57	7178
2026-01-23 09:04:36.14	22.89	30.81	-43.5	-48.8	9.7	1.36e-02	0	61	0	642777088	57	7049
2026-01-23 09:04:37.15	22.61	30.69	-43.4	-48.4	10.0	8.89e-03	0	61	0	644874240	57	6785
2026-01-23 09:04:38.16	22.33	30.57	-43.3	-48.2	10.3	5.78e-03	0	61	0	646971392	57	6605
2026-01-23 09:04:39.16	22.05	30.46	-43.2	-48.1	10.4	4.75e-03	0	61	0	649068544	57	6514
2026-01-23 09:04:40.17	21.78	30.34	-43.3	-48.2	10.3	4.60e-03	0	61	0	650117120	57	6585
2026-01-23 09:04:41.19	21.50	30.21	-43.3	-48.3	10.1	5.60e-03	0	61	0	652214272	57	6722
2026-01-23 09:04:42.20	21.23	30.09	-43.3	-48.4	10.1	6.85e-03	0	61	0	654311424	57	6752
2026-01-23 09:04:43.20	20.96	29.97	-43.2	-48.1	10.3	6.64e-03	0	61	0	656408576	57	6555
2026-01-23 09:04:44.21	20.70	29.85	-43.2	-48.0	10.5	4.32e-03	0	61	0	658505728	57	6462
2026-01-23 09:04:45.22	20.43	29.73	-43.1	-47.7	10.7	3.11e-03	0	61	0	659554304	57	6257
2026-01-23 09:04:46.23	20.17	29.61	-43.0	-47.6	10.9	2.50e-03	0	61	0	661651456	57	6162
2026-01-23 09:04:47.24	19.91	29.49	-43.0	-47.4	11.1	1.68e-03	0	61	0	663748608	57	6053
2026-01-23 09:04:48.25	19.65	29.37	-42.9	-47.3	11.1	1.40e-03	0	61	0	665845760	57	5991
2026-01-23 09:04:49.26	19.39	29.24	-42.8	-47.1	11.4	1.06e-03	0	61	0	667942912	57	5846
2026-01-23 09:04:50.27	19.13	29.12	-42.8	-47.1	11.5	1.01e-03	0	61	0	670040064	57	5798
2026-01-23 09:04:51.28	18.88	29.00	-42.8	-47.0	11.5	7.85e-04	0	61	0	671088640	57	5735
2026-01-23 09:04:52.29	18.63	28.88	-42.8	-47.1	11.4	8.48e-04	0	61	0	673185792	57	5823
2026-01-23 09:04:53.30	18.38	28.76	-42.6	-46.9	11.6	9.68e-04	0	61	0	675282944	57	5702
2026-01-23 09:04:54.31	18.13	28.63	-42.7	-46.9	11.6	6.74e-04	0	61	0	677380096	57	5708
2026-01-23 09:04:55.32	17.89	28.51	-42.8	-47.0	11.6	6.93e-04	0	61	0	679477248	57	5727
2026-01-23 09:04:56.32	17.65	28.39	-42.8	-47.1	11.4	7.29e-04	0	61	0	680525824	57	5833
2026-01-23 09:04:57.33	17.40	28.27	-42.7	-46.8	11.6	6.50e-04	0	61	0	682622976	57	5649
2026-01-23 09:04:58.35	17.16	28.14	-42.7	-46.8	11.7	5.77e-04	0	61	0	684720128	57	5637
2026-01-23 09:04:59.35	16.93	28.02	-42.6	-46.7	11.8	5.78e-04	0	61	0	686817280	57	5580
2026-01-23 09:05:00.36	16.69	27.90	-42.6	-46.6	11.9	4.42e-04	0	61	0	688914432	57	5524
2026-01-23 09:05:01.37	16.46	27.78	-42.5	-46.5	12.0	3.60e-04	0	61	0	689963008	56	5745
2026-01-23 09:05:02.38	16.22	27.66	-42.5	-46.5	12.0	2.83e-04	0	61	0	692060160	56	5771
2026-01-23 09:05:03.39	15.99	27.53	-42.5	-46.5	12.0	3.58e-04	0	61	0	694157312	56	5769
2026-01-23 09:05:04.40	15.76	27.41	-42.6	-46.6	11.9	3.18e-04	0	61	0	696254464	56	5819
2026-01-23 09:05:05.41	15.54	27.29	-42.6	-46.6	11.9	4.21e-04	0	61	0	698351616	56	5854
2026-01-23 09:05:06.42	15.31	27.17	-42.6	-46.6	11.9	4.24e-04	0	61	0	699400192	56	5821
2026-01-23 09:05:07.43	15.09	27.04	-42.5	-46.5	12.0	3.64e-04	0	61	0	701497344	56	5787
2026-01-23 09:05:08.44	14.86	26.92	-42.5	-46.6	12.0	3.20e-04	0	61	0	703594496	56	5792
2026-01-23 09:05:09.44	14.65	26.80	-42.5	-46.6	12.0	3.58e-04	0	61	0	705691648	56	5810
2026-01-23 09:05:10.45	14.43	26.68	-42.5	-46.6	11.9	3.74e-04	0	61	0	707788800	56	5808
2026-01-23 09:05:11.46	14.21	26.56	-42.6	-46.7	11.8	4.39e-04	0	61	0	708837376	56	5891
2026-01-23 09:05:12.47	13.99	26.43	-42.5	-46.5	12.0	3.74e-04	0	61	0	710934528	56	5770
2026-01-23 09:05:13.48	13.78	26.31	-42.5	-46.5	12.0	3.07e-04	0	61	0	713031680	56	5744
2026-01-23 09:05:14.49	13.57	26.19	-42.5	-46.5	12.0	3.39e-04	0	61	0	715128832	56	5763
2026-01-23 09:05:15.50	13.36	26.07	-42.6	-46.6	11.8	4.63e-04	0	61	0	717225984	56	5846
2026-01-23 09:05:16.51	13.15	25.95	-42.6	-46.6	11.8	4.13e-04	0	61	0	718274560	56	5848
2026-01-23 09:05:17.52	12.94	25.83	-42.5	-46.6	11.9	4.03e-04	0	61	0	720371712	56	5817
2026-01-23 09:05:18.53	12.74	25.71	-42.5	-46.5	12.0	4.55e-04	0	61	0	722468864	56	5780
2026-01-23 09:05:19.54	12.53	25.58	-42.5	-46.6	11.9	3.58e-04	0	61	0	724566016	56	5791
2026-01-23 09:05:20.55	12.33	25.46	-42.5	-46.5	12.0	3.44e-04	0	61	0	726663168	56	5749
2026-01-23 09:05:21.56	12.13	25.34	-42.4	-46.4	12.0	3.11e-04	0	61	0	727711744	56	5702
2026-01-23 09:05:22.57	11.93	25.22	-42.4	-46.4	12.0	2.96e-04	0	61	0	729808896	56	5706
2026-01-23 09:05:23.58	11.73	25.10	-42.4	-46.4	12.1	2.62e-04	0	61	0	731906048	56	5660
2026-01-23 09:05:24.59	11.54	24.98	-42.4	-46.3	12.1	2.52e-04	0	61	0	734003200	56	5642
2026-01-23 09:05:25.60	11.34	24.86	-42.4	-46.3	12.1	2.17e-04	0	61	0	736100352	56	5615
2026-01-23 09:05:26.60	11.15	24.74	-42.4	-46.3	12.2	2.55e-04	0	61	0	738197504	56	5596
2026-01-23 09:05:27.61	10.96	24.62	-42.4	-46.3	12.1	2.16e-04	0	61	0	739246080	56	5634
2026-01-23 09:05:28.62	10.77	24.50	-42.5	-46.5	11.9	3.09e-04	0	61	0	741343232	56	5756
2026-01-23 09:05:29.63	10.58	24.39	-42.5	-46.6	11.8	4.74e-04	0	61	0	743440384	56	5848
2026-01-23 09:05:30.64	10.39	24.27	-42.6	-46.8	11.6	5.71e-04	0	61	0	745537536	56	5947
2026-01-23 09:05:31.65	10.21	24.15	-42.6	-46.8	11.7	5.84e-04	0	61	0	746586112	56	5937
2026-01-23 09:05:32.66	10.02	24.03	-42.6	-46.8	11.6	7.64e-04	0	61	0	748683264	56	5949
2026-01-23 09:05:33.67	9.84	23.91	-42.5	-46.7	11.7	6.84e-04	0	61	0	750780416	56	5889
2026-01-23 09:05:34.68	9.66	23.79	-42.5	-46.8	11.6	6.41e-04	0	61	0	752877568	56	5948
2026-01-23 09:05:35.69	9.48	23.68	-42.5	-46.7	11.6	6.91e-04	0	61	0	754974720	56	5897
2026-01-23 09:05:36.70	9.30	23.56	-42.5	-46.7	11.7	5.92e-04	0	61	0	756023296	56	5877
2026-01-23 09:05:37.71	9.12	23.44	-42.5	-46.8	11.6	6.66e-04	0	61	0	758120448	56	5937
2026-01-23 09:05:38.72	8.95	23.32	-42.6	-46.8	11.5	7.77e-04	0	61	0	760217600	56	5983
2026-01-23 09:05:39.72	8.77	23.21	-42.6	-47.0	11.4	1.13e-03	0	61	0	762314752	56	6075
2026-01-23 09:05:40.73	8.60	23.09	-42.7	-47.1	11.2	1.28e-03	0	61	0	764411904	56	6193
2026-01-23 09:05:41.74	8.43	22.97	-42.7	-47.3	11.0	1.59e-03	0	61	0	766509056	56	6309
2026-01-23 09:05:42.75	8.26	22.86	-42.7	-47.4	10.9	1.98e-03	0	61	0	767557632	56	6391
2026-01-23 09:05:43.76	8.09	22.74	-42.8	-47.5	10.8	2.69e-03	0	61	0	769654784	56	6452
2026-01-23 09:05:44.77	7.92	22.63	-42.7	-47.4	10.9	2.44e-03	0	61	0	771751936	56	6374
2026-01-23 09:05:45.78	7.75	22.51	-42.8	-47.5	10.8	2.50e-03	0	61	0	773849088	56	6439
2026-01-23 09:05:46.79	7.59	22.40	-42.8	-47.5	10.8	2.72e-03	0	61	0	775946240	56	6430
2026-01-23 09:05:47.80	7.42	22.28	-42.8	-47.4	10.9	2.43e-03	0	61	0	776994816	56	6374
2026-01-23 09:05:48.81	7.26	22.17	-42.8	-47.3	11.0	2.10e-03	0	61	0	779091968	56	6315
2026-01-23 09:05:49.82	7.10	22.05	-42.9	-47.6	10.7	2.42e-03	0	61	0	781189120	56	6496
2026-01-23 09:05:50.83	6.94	21.94	-42.8	-47.4	10.8	2.77e-03	0	61	0	783286272	56	6413
2026-01-23 09:05:51.84	6.78	21.82	-42.8	-47.5	10.8	2.65e-03	0	61	0	785383424	56	6423
2026-01-23 09:05:52.85	6.62	21.71	-42.8	-47.5	10.8	2.86e-03	0	61	0	786432000	56	6433
2026-01-23 09:05:53.86	6.46	21.60	-42.8	-47.5	10.8	2.62e-03	0	61	0	788529152	56	6430
2026-01-23 09:05:54.87	6.31	21.48	-42.8	-47.4	10.9	2.65e-03	0	61	0	790626304	56	6365
2026-01-23 09:05:55.88	6.15	21.37	-42.7	-47.3	10.8	2.18e-03	0	61	0	792723456	56	6346
2026-01-23 09:05:56.89	6.00	21.26	-42.7	-47.3	10.9	2.28e-03	0	61	0	794820608	56	6328
2026-01-23 09:05:57.90	5.84	21.15	-42.7	-47.2	11.0	2.37e-03	0	61	0	795869184	56	6264
2026-01-23 09:05:58.90	5.69	21.03	-42.6	-47.1	11.0	1.90e-03	0	61	0	797966336	56	6197
2026-01-23 09:05:59.91	5.54	20.92	-42.7	-47.2	11.0	2.00e-03	0	61	0	800063488	56	6269
2026-01-23 09:06:00.92	5.39	20.81	-42.8	-47.4	10.8	2.44e-03	0	61	0	802160640	56	6400
2026-01-23 09:06:01.93	5.25	20.70	-42.8	-47.5	10.7	2.78e-03	0	61	0	804257792	56	6443
2026-01-23 09:06:02.94	5.10	20.59	-42.8	-47.5	10.5	3.38e-03	0	61	0	805306368	56	6458
2026-01-23 09:06:03.95	4.95	20.48	-42.8	-47.7	10.5	3.71e-03	0	61	0	807403520	56	6578
2026-01-23 09:06:04.96	4.81	20.37	-42.8	-47.7	10.5	4.39e-03	0	61	0	809500672	56	6588
2026-01-23 09:06:05.97	4.66	20.26	-42.9	-47.8	10.3	4.74e-03	0	61	0	811597824	56	6657
2026-01-23 09:06:06.98	4.52	20.15	-42.8	-47.7	10.4	4.92e-03	0	61	0	813694976	56	6609
2026-01-23 09:06:07.99	4.38	20.04	-42.8	-47.8	10.3	4.90e-03	0	61	0	814743552	56	6647
2026-01-23 09:06:09.00	4.24	19.93	-42.8	-47.5	10.6	3.87e-03	0	61	0	816840704	56	6472
2026-01-23 09:06:10.01	4.10	19.82	-42.8	-47.6	10.5	3.66e-03	0	61	0	818937856	56	6503
2026-01-23 09:06:11.02	3.96	19.71	-42.7	-47.5	10.5	3.81e-03	0	61	0	821035008	56	6463
2026-01-23 09:06:12.03	3.82	19.61	-42.7	-47.4	10.6	3.22e-03	0	61	0	823132160	56	6405
2026-01-23 09:06:13.04	3.69	19.50	-42.6	-47.3	10.7	2.96e-03	0	61	0	824180736	56	6318
2026-01-23 09:06:14.05	3.55	19.39	-42.7	-47.4	10.7	2.90e-03	0	61	0	826277888	56	6374
2026-01-23 09:06:15.06	3.42	19.28	-42.6	-47.3	10.8	2.91e-03	0	61	0	828375040	56	6291
2026-01-23 09:06:16.07	3.28	19.18	-42.6	-47.2	10.8	2.68e-03	0	61	0	830472192	56	6243
2026-01-23 09:06:17.08	3.15	19.07	-42.6	-47.2	10.8	2.99e-03	0	61	0	832569344	56	6229
2026-01-23 09:06:18.09	3.02	18.96	-42.5	-47.1	10.9	2.47e-03	0	61	0	834666496	56	6187
2026-01-23 09:06:19.10	2.89	18.86	-42.5	-47.2	10.8	2.51e-03	0	61	0	835715072	56	6235
2026-01-23 09:06:20.10	2.76	18.75	-42.6	-47.3	10.6	2.74e-03	0	61	0	837812224	56	6326
2026-01-23 09:06:21.11	2.63	18.65	-42.6	-47.3	10.6	3.43e-03	0	61	0	839909376	56	6312
2026-01-23 09:06:22.12	2.50	18.54	-42.6	-47.4	10.5	3.91e-03	0	61	0	842006528	56	6402
2026-01-23 09:06:23.13	2.37	18.44	-42.6	-47.5	10.4	4.51e-03	0	61	0	844103680	56	6444
2026-01-23 09:06:24.15	2.25	18.33	-42.7	-47.6	10.3	4.71e-03	0	61	0	845152256	56	6546
2026-01-23 09:06:25.15	2.12	18.23	-42.7	-47.6	10.2	5.52e-03	0	61	0	847249408	56	6517
2026-01-23 09:06:26.17	2.00	18.12	-42.6	-47.5	10.4	4.95e-03	0	61	0	849346560	56	6430
2026-01-23 09:06:27.17	1.87	18.02	-42.6	-47.6	10.3	4.97e-03	0	61	0	851443712	56	6498
2026-01-23 09:06:28.18	1.75	17.92	-42.7	-47.6	10.1	6.33e-03	0	61	0	853540864	56	6555
2026-01-23 09:06:29.19	1.63	17.81	-42.6	-47.4	10.3	5.78e-03	0	61	0	854589440	56	6415
2026-01-23 09:06:30.20	1.51	17.71	-42.5	-47.3	10.4	4.57e-03	0	61	0	856686592	56	6321
2026-01-23 09:06:31.21	1.39	17.61	-42.5	-47.3	10.5	4.22e-03	0	61	0	858783744	56	6290
2026-01-23 09:06:32.22	1.27	17.51	-42.5	-47.4	10.3	4.24e-03	0	61	0	860880896	56	6377
2026-01-23 09:06:33.23	1.15	17.40	-42.4	-47.2	10.5	4.86e-03	0	61	0	862978048	56	6227
2026-01-23 09:06:34.24	1.03	17.30	-42.4	-47.3	10.4	4.19e-03	0	61	0	864026624	56	6278
2026-01-23 09:06:35.25	0.91	17.20	-42.4	-47.3	10.4	4.53e-03	0	61	0	866123776	56	6275
2026-01-23 09:06:36.26	0.80	17.10	-42.4	-47.3	10.3	4.71e-03	0	61	0	868220928	56	6329
2026-01-23 09:06:37.27	0.68	17.00	-42.3	-47.1	10.5	4.73e-03	0	61	0	870318080	56	6200
2026-01-23 09:06:38.27	0.57	16.90	-42.4	-47.2	10.3	5.05e-03	0	61	0	872415232	56	6267
2026-01-23 09:06:39.28	0.45	16.80	-42.3	-47.1	10.4	4.50e-03	0	61	0	873463808	56	6181
2026-01-23 09:06:40.29	0.34	16.70	-42.3	-47.2	10.2	5.52e-03	0	61	0	875560960	56	6241
2026-01-23 09:06:41.30	0.23	16.60	-42.2	-47.1	10.3	5.35e-03	0	61	0	877658112	56	6145
2026-01-23 09:06:42.31	0.12	16.50	-42.2	-47.1	10.3	5.48e-03	0	61	0	879755264	56	6149
2026-01-23 09:06:43.32	0.01	16.40	-42.1	-47.0	10.3	5.64e-03	0	61	0	881852416	56	6094
2026-01-23 09:06:44.33	359.90	16.30	-42.0	-46.8	10.5	4.06e-03	0	61	0	882900992	56	5931
2026-01-23 09:06:45.34	359.79	16.20	-42.1	-46.9	10.4	4.26e-03	0	61	0	884998144	56	6007
2026-01-23 09:06:46.35	359.68	16.11	-42.1	-47.1	10.1	6.24e-03	0	61	0	887095296	56	6189
2026-01-23 09:06:47.36	359.57	16.01	-42.1	-47.0	10.2	5.62e-03	0	61	0	889192448	56	6087
2026-01-23 09:06:48.37	359.46	15.91	-42.1	-47.2	10.0	7.28e-03	0	61	0	891289600	56	6216
2026-01-23 09:06:49.38	359.36	15.81	-42.2	-47.4	9.7	9.86e-03	0	61	0	892338176	56	6413
2026-01-23 09:06:50.39	359.25	15.72	-42.1	-47.3	9.7	1.13e-02	0	61	0	894435328	56	6329
2026-01-23 09:06:51.40	359.15	15.62	-42.2	-47.4	9.6	1.08e-02	0	61	0	896532480	56	6393
2026-01-23 09:06:52.41	359.04	15.52	-42.3	-47.8	9.2	1.52e-02	0	61	0	898629632	56	6658
2026-01-23 09:06:53.42	358.94	15.43	-42.2	-47.8	9.2	2.00e-02	0	61	0	900726784	56	6685
2026-01-23 09:06:54.43	358.84	15.33	-42.2	-47.7	9.2	2.03e-02	0	61	0	902823936	56	6603
2026-01-23 09:06:55.43	358.74	15.24	-42.1	-47.8	9.0	2.31e-02	0	61	0	903872512	56	6687
2026-01-23 09:06:56.44	358.63	15.14	-42.2	-48.1	8.6	3.47e-02	0	61	0	905969664	56	6888
2026-01-23 09:06:57.45	358.53	15.05	-42.1	-47.9	8.7	3.81e-02	0	61	0	908066816	56	6780
2026-01-23 09:06:58.46	358.43	14.95	-42.0	-47.7	8.9	3.15e-02	0	61	0	910163968	56	6633
2026-01-23 09:06:59.47	358.33	14.86	-41.8	-47.4	9.0	2.60e-02	0	61	0	912261120	55	6748
2026-01-23 09:07:00.48	358.23	14.76	-41.7	-47.2	9.2	2.38e-02	0	61	0	913309696	55	6617
2026-01-23 09:07:01.49	358.14	14.67	-41.6	-47.1	9.2	2.01e-02	0	61	0	915406848	55	6559
2026-01-23 09:07:02.50	358.04	14.58	-41.6	-47.3	9.0	2.23e-02	0	61	0	917504000	55	6647
2026-01-23 09:07:03.51	357.94	14.48	-41.6	-47.5	8.5	3.13e-02	0	61	0	919601152	55	6874
2026-01-23 09:07:04.52	357.85	14.39	-41.7	-48.0	8.0	5.73e-02	0	61	0	921698304	55	7239
2026-01-23 09:07:05.53	357.75	14.30	-41.6	-47.8	8.1	7.54e-02	0	61	0	922746880	55	7116
2026-01-23 09:07:06.54	357.65	14.20	-41.5	-47.8	8.0	5.95e-02	0	61	0	924844032	55	7085
2026-01-23 09:07:07.55	357.56	14.11	-41.3	-47.5	8.2	6.49e-02	0	61	0	926941184	54	7239
2026-01-23 09:07:08.56	357.47	14.02	-41.3	-47.7	7.9	5.89e-02	0	61	0	929038336	54	7383
2026-01-23 09:07:09.57	357.37	13.93	-41.3	-47.8	7.7	8.57e-02	0	61	0	931135488	54	7507
2026-01-23 09:07:10.58	357.28	13.84	-41.3	-47.7	7.9	7.19e-02	0	61	0	932184064	54	7390
2026-01-23 09:07:11.59	357.19	13.75	-41.3	-48.2	7.2	1.08e-01	0	61	0	934281216	54	7892
2026-01-23 09:07:12.60	357.10	13.65	-41.3	-48.3	7.1	1.56e-01	0	61	0	936378368	54	7933
2026-01-23 09:07:13.61	357.01	13.56	-41.2	-47.9	7.4	1.14e-01	0	61	0	938475520	54	7607
2026-01-23 09:07:14.62	356.92	13.47	-41.2	-47.9	7.4	1.01e-01	0	61	0	940572672	54	7630
2026-01-23 09:07:15.63	356.83	13.38	-41.2	-48.1	7.2	1.26e-01	0	61	0	941621248	54	7762
2026-01-23 09:07:16.65	356.74	13.29	-41.4	-49.0	6.5	1.49e-01	0	61	0	943718400	54	8597
2026-01-23 09:07:17.65	356.65	13.20	-41.6	-53.1	4.1	2.51e-01	46	61	0	945815552	54	13847
2026-01-23 09:07:18.66	356.56	13.11	-41.3	-52.7	3.9	1.49e+00	0	61	104	945815552	54	13118
2026-01-23 09:07:19.67	356.47	13.03	-41.5	-49.6	5.9	1.42e+00	0	61	0	945815552	54	9270
2026-01-23 09:07:20.69	356.38	12.94	-41.5	-50.0	5.6	1.04e+00	0	61	0	947912704	54	9655
2026-01-23 09:07:21.70	356.30	12.85	-41.3	-49.7	5.7	3.98e-01	0	61	0	948961280	54	9284
2026-01-23 09:07:22.70	356.21	12.76	-41.2	-50.1	5.3	4.65e-01	0	61	0	951058432	54	9747
2026-01-23 09:07:23.72	356.13	12.67	-41.2	-50.9	4.8	7.12e-01	0	61	0	953155584	54	10689
2026-01-23 09:07:24.73	356.04	12.58	-41.3	-51.8	4.4	9.69e-01	86	61	0	955252736	54	11878
2026-01-23 09:07:25.74	355.96	12.50	-41.2	-53.0	3.9	1.38e+00	0	61	104	955252736	54	13660
2026-01-23 09:07:26.74	355.88	12.41	-41.2	-53.8	3.8	1.48e+00	0	61	104	955252736	54	15017
2026-01-23 09:07:27.76	355.79	12.32	-41.1	-54.6	3.8	1.49e+00	0	61	104	955252736	54	16378
2026-01-23 09:07:28.76	355.71	12.24	-41.4	-55.3	3.8	1.49e+00	0	61	104	955252736	54	17736
2026-01-23 09:07:29.77	355.63	12.15	-40.8	-55.2	3.8	1.49e+00	0	61	104	955252736	53	18696
2026-01-23 09:07:30.78	355.55	12.06	-40.6	-55.2	3.8	1.49e+00	0	61	104	955252736	53	18582
2026-01-23 09:07:31.79	355.46	11.98	-40.5	-55.0	3.8	1.49e+00	0	61	104	955252736	53	18270
2026-01-23 09:07:32.80	355.38	11.89	-41.0	-55.4	3.8	1.49e+00	0	61	104	955252736	52	20205
2026-01-23 09:07:33.81	355.30	11.80	-40.7	-55.3	3.8	1.49e+00	0	61	104	955252736	52	19918
2026-01-23 09:07:34.82	355.22	11.72	-40.5	-55.1	3.8	1.49e+00	0	61	104	955252736	52	19446
2026-01-23 09:07:35.83	355.14	11.63	-40.4	-55.0	3.8	1.49e+00	0	61	104	955252736	52	19206
2026-01-23 09:07:36.84	355.07	11.55	-40.7	-55.3	3.8	1.49e+00	0	61	104	955252736	52	19893
2026-01-23 09:07:37.85	354.99	11.46	-40.7	-55.3	3.8	1.49e+00	0	61	104	955252736	52	19865
2026-01-23 09:07:38.86	354.91	11.38	-40.4	-55.0	3.8	1.49e+00	0	61	104	955252736	52	19218
2026-01-23 09:07:39.86	354.83	11.30	-40.4	-54.9	3.8	1.49e+00	0	61	104	955252736	52	19126
2026-01-23 09:07:40.88	354.75	11.21	-40.6	-55.1	3.8	1.49e+00	0	61	104	955252736	52	19607
2026-01-23 09:07:41.89	354.68	11.13	-40.5	-55.1	3.8	1.49e+00	0	61	104	955252736	52	19538
2026-01-23 09:07:42.90	354.60	11.05	-40.3	-54.9	3.8	1.49e+00	0	61	104	955252736	52	19139
2026-01-23 09:07:43.90	354.53	10.96	-40.3	-54.9	3.8	1.49e+00	0	61	104	955252736	52	19130
2026-01-23 09:07:44.91	354.45	10.88	-40.5	-55.0	3.8	1.49e+00	0	61	104	955252736	52	19345
2026-01-23 09:07:45.92	354.38	10.80	-40.4	-55.0	3.8	1.49e+00	0	61	104	955252736	52	19248
2026-01-23 09:07:46.93	354.30	10.71	-40.3	-54.9	3.8	1.49e+00	0	61	104	955252736	52	19023
2026-01-23 09:07:47.94	354.23	10.63	-40.3	-54.9	3.8	1.49e+00	0	61	104	955252736	52	19036
2026-01-23 09:07:48.95	354.16	10.55	-40.4	-54.9	3.8	1.49e+00	0	61	104	955252736	52	19153
2026-01-23 09:07:49.96	354.08	10.47	-40.4	-54.9	3.8	1.49e+00	0	61	104	955252736	52	19083
2026-01-23 09:07:50.97	354.01	10.39	-40.3	-54.8	3.8	1.49e+00	0	61	104	955252736	52	18879
2026-01-23 09:07:51.98	353.94	10.31	-40.3	-54.9	3.8	1.49e+00	0	61	104	955252736	52	19036
2026-01-23 09:07:52.99	353.87	10.22	-40.3	-54.9	3.8	1.49e+00	0	61	104	955252736	52	19093
2026-01-23 09:07:53.99	353.80	10.14	-40.4	-54.9	3.8	1.49e+00	0	61	104	955252736	52	19131
2026-01-23 09:07:55.00	353.73	10.06	-40.2	-54.8	3.8	1.49e+00	0	61	104	955252736	52	18808
2026-01-23 09:07:56.01	353.66	9.98	-40.4	-54.9	3.8	1.49e+00	0	61	104	955252736	52	19160
2026-01-23 09:07:57.02	353.59	9.90	-40.3	-54.9	3.8	1.49e+00	0	61	104	955252736	52	19021
