passes_logs/2026/01/23/R2.0S_Moscow/R2.0S_Moscow__20260123_222544_SUOMI_NPP_rec.log

#Pass ID: 20260123_222544_SUOMI NPP
#Satellite: SUOMI NPP
#Configuration: NPP
#almurnet v.1.7.20251203
#Start time: 2026-01-23 22:25:43

#Version: 2.2.20231116
#Station: R2.0S_Moscow
#Location: 37.707566 lon 55.798166 lat
#TLE: 1 37849U 11061A   26022.92790088  .00000200  00000+0  11571-3 0  9994
#TLE: 2 37849  98.7820 324.9085 0002258  50.1112 310.0263 14.19528452737839

#Time	Az	El	Level	Level2	SNR	BER	BlckErr	Temp	State	Recorded	gain1	gain2
2026-01-23 22:25:43.99	23.81	1.98	-42.7	-57.2	3.8	1.49e+00	0	52	0	0	57	18559
2026-01-23 22:25:44.99	23.88	2.03	-42.7	-57.2	3.8	1.49e+00	0	52	104	0	57	18571
2026-01-23 22:25:46.01	23.94	2.09	-42.7	-57.1	3.8	1.49e+00	0	52	104	0	57	18509
2026-01-23 22:25:47.02	24.00	2.15	-42.7	-57.2	3.8	1.49e+00	0	52	104	0	57	18555
2026-01-23 22:25:48.03	24.07	2.21	-42.7	-57.2	3.8	1.49e+00	0	52	104	0	57	18546
2026-01-23 22:25:49.04	24.13	2.26	-42.7	-57.2	3.8	1.49e+00	0	52	104	0	57	18534
2026-01-23 22:25:50.05	24.20	2.32	-42.7	-57.1	3.8	1.49e+00	0	52	104	0	57	18501
2026-01-23 22:25:51.06	24.26	2.38	-42.7	-57.2	3.8	1.49e+00	0	52	104	0	57	18540
2026-01-23 22:25:52.07	24.33	2.44	-42.7	-57.2	3.8	1.49e+00	0	52	104	0	57	18529
2026-01-23 22:25:53.08	24.39	2.49	-42.7	-57.1	3.8	1.49e+00	0	53	104	0	57	18508
2026-01-23 22:25:54.09	24.46	2.55	-42.7	-57.1	3.8	1.49e+00	0	52	104	0	57	18506
2026-01-23 22:25:55.10	24.53	2.61	-42.7	-57.1	3.8	1.49e+00	0	52	104	0	57	18494
2026-01-23 22:25:56.11	24.59	2.67	-42.7	-57.1	3.8	1.49e+00	0	53	104	0	57	18510
2026-01-23 22:25:57.12	24.66	2.73	-42.7	-57.2	3.8	1.49e+00	0	53	104	0	57	18524
2026-01-23 22:25:58.13	24.73	2.78	-42.7	-57.1	3.8	1.49e+00	0	53	104	0	57	18482
2026-01-23 22:25:59.14	24.79	2.84	-42.7	-57.2	3.8	1.49e+00	0	53	104	0	57	18544
2026-01-23 22:26:00.15	24.86	2.90	-42.7	-57.2	3.8	1.49e+00	0	53	104	0	57	18566
2026-01-23 22:26:01.16	24.93	2.96	-42.7	-57.1	3.8	1.49e+00	0	53	104	0	57	18465
2026-01-23 22:26:02.17	25.00	3.02	-42.7	-57.2	3.8	1.49e+00	0	53	104	0	57	18575
2026-01-23 22:26:03.18	25.06	3.08	-42.7	-57.1	3.8	1.49e+00	0	53	104	0	57	18503
2026-01-23 22:26:04.19	25.13	3.13	-42.7	-57.1	3.8	1.49e+00	0	53	104	0	57	18472
2026-01-23 22:26:05.21	25.20	3.19	-42.6	-57.1	3.8	1.49e+00	0	53	104	0	57	18480
2026-01-23 22:26:06.22	25.27	3.25	-42.7	-57.1	3.8	1.49e+00	0	53	104	0	57	18514
2026-01-23 22:26:07.23	25.34	3.31	-42.7	-57.1	3.8	1.49e+00	0	53	104	0	57	18441
2026-01-23 22:26:08.24	25.41	3.37	-42.6	-57.1	3.8	1.49e+00	0	53	104	0	57	18479
2026-01-23 22:26:09.25	25.48	3.43	-42.5	-57.1	3.8	1.49e+00	0	53	104	0	57	18479
2026-01-23 22:26:10.26	25.55	3.49	-42.6	-57.1	3.8	1.49e+00	0	53	104	0	57	18516
2026-01-23 22:26:11.27	25.62	3.55	-42.6	-57.1	3.8	1.49e+00	0	53	104	0	57	18497
2026-01-23 22:26:12.28	25.69	3.61	-42.6	-57.1	3.8	1.49e+00	0	54	104	0	57	18475
2026-01-23 22:26:13.29	25.76	3.67	-42.6	-57.1	3.8	1.49e+00	0	54	104	0	57	18478
2026-01-23 22:26:14.30	25.83	3.73	-42.6	-57.1	3.8	1.49e+00	0	54	104	0	57	18502
2026-01-23 22:26:15.31	25.90	3.79	-42.6	-57.1	3.8	1.49e+00	0	54	104	0	57	18491
2026-01-23 22:26:16.32	25.97	3.85	-42.6	-57.1	3.8	1.49e+00	0	54	104	0	57	18449
2026-01-23 22:26:17.33	26.04	3.91	-42.6	-57.1	3.8	1.49e+00	0	54	104	0	57	18482
2026-01-23 22:26:18.34	26.12	3.97	-42.6	-57.1	3.8	1.49e+00	0	54	104	0	57	18479
2026-01-23 22:26:19.35	26.19	4.03	-42.6	-57.1	3.8	1.49e+00	0	54	104	0	57	18504
2026-01-23 22:26:20.36	26.26	4.09	-42.6	-57.2	3.8	1.49e+00	0	54	104	0	57	18522
2026-01-23 22:26:21.37	26.33	4.15	-42.7	-57.1	3.8	1.49e+00	0	54	104	0	57	18485
2026-01-23 22:26:22.38	26.41	4.21	-42.7	-57.1	3.8	1.49e+00	0	55	104	0	57	18486
2026-01-23 22:26:23.39	26.48	4.27	-42.6	-57.1	3.8	1.49e+00	0	54	104	0	57	18503
2026-01-23 22:26:24.40	26.55	4.33	-42.7	-57.1	3.8	1.49e+00	0	54	104	0	57	18451
2026-01-23 22:26:25.41	26.63	4.39	-42.6	-57.1	3.8	1.49e+00	0	54	104	0	57	18474
2026-01-23 22:26:26.42	26.70	4.45	-42.7	-57.1	3.8	1.49e+00	0	55	104	0	57	18481
2026-01-23 22:26:27.43	26.78	4.51	-42.6	-57.1	3.8	1.49e+00	0	55	104	0	57	18475
2026-01-23 22:26:28.44	26.85	4.58	-42.6	-57.1	3.8	1.49e+00	0	55	104	0	57	18511
2026-01-23 22:26:29.45	26.93	4.64	-42.6	-57.1	3.8	1.49e+00	0	55	104	0	57	18438
2026-01-23 22:26:30.46	27.00	4.70	-42.6	-57.2	3.8	1.49e+00	0	55	104	0	57	18527
2026-01-23 22:26:31.47	27.08	4.76	-42.6	-57.1	3.8	1.49e+00	0	55	104	0	57	18508
2026-01-23 22:26:32.48	27.16	4.82	-42.6	-57.1	3.8	1.49e+00	0	55	104	0	57	18418
2026-01-23 22:26:33.50	27.23	4.88	-42.6	-57.1	3.8	1.49e+00	0	55	104	0	57	18458
2026-01-23 22:26:34.51	27.31	4.95	-42.6	-57.1	3.8	1.49e+00	0	55	104	0	57	18515
2026-01-23 22:26:35.52	27.39	5.01	-42.6	-57.1	3.8	1.49e+00	0	55	104	0	57	18415
2026-01-23 22:26:36.53	27.46	5.07	-42.6	-57.1	3.8	1.49e+00	0	55	104	0	57	18492
2026-01-23 22:26:37.54	27.54	5.13	-42.6	-57.1	3.8	1.49e+00	0	55	104	0	57	18488
2026-01-23 22:26:38.55	27.62	5.19	-42.7	-57.1	3.8	1.49e+00	0	55	104	0	57	18478
2026-01-23 22:26:39.56	27.70	5.26	-42.6	-57.1	3.8	1.49e+00	0	55	104	0	57	18457
2026-01-23 22:26:40.57	27.78	5.32	-42.6	-57.1	3.8	1.49e+00	0	55	104	0	57	18461
2026-01-23 22:26:41.58	27.85	5.38	-42.6	-57.1	3.8	1.49e+00	0	55	104	0	57	18444
2026-01-23 22:26:42.59	27.93	5.44	-42.6	-57.1	3.8	1.49e+00	0	55	104	0	57	18501
2026-01-23 22:26:43.60	28.01	5.51	-42.7	-57.1	3.8	1.49e+00	0	55	104	0	57	18453
2026-01-23 22:26:44.61	28.09	5.57	-42.6	-57.1	3.8	1.49e+00	0	55	104	0	57	18489
2026-01-23 22:26:45.62	28.17	5.63	-42.6	-57.1	3.8	1.49e+00	0	55	104	0	57	18408
2026-01-23 22:26:46.63	28.25	5.70	-42.6	-57.1	3.8	1.49e+00	0	56	104	0	57	18469
2026-01-23 22:26:47.64	28.33	5.76	-42.6	-57.1	3.8	1.49e+00	0	55	104	0	57	18437
2026-01-23 22:26:48.65	28.41	5.82	-42.6	-57.1	3.8	1.49e+00	0	56	104	0	57	18490
2026-01-23 22:26:49.67	28.50	5.89	-42.6	-57.1	3.8	1.49e+00	0	55	104	0	57	18442
2026-01-23 22:26:50.68	28.58	5.95	-42.6	-57.1	3.8	1.49e+00	0	56	104	0	57	18449
2026-01-23 22:26:51.69	28.66	6.01	-42.6	-57.1	3.8	1.49e+00	0	56	104	0	57	18456
2026-01-23 22:26:52.70	28.74	6.08	-42.6	-57.1	3.8	1.49e+00	0	56	104	0	57	18384
2026-01-23 22:26:53.71	28.83	6.14	-42.6	-57.1	3.8	1.49e+00	0	56	104	0	57	18383
2026-01-23 22:26:54.72	28.91	6.20	-42.6	-57.1	3.8	1.49e+00	0	56	104	0	57	18340
2026-01-23 22:26:55.73	28.99	6.27	-42.6	-57.1	3.8	1.49e+00	0	56	104	0	57	18327
2026-01-23 22:26:56.74	29.08	6.33	-42.6	-57.0	3.8	1.49e+00	0	56	104	0	57	18152
2026-01-23 22:26:57.75	29.16	6.40	-42.6	-56.9	3.8	1.49e+00	0	56	104	0	57	18066
2026-01-23 22:26:58.76	29.25	6.46	-42.6	-57.0	3.8	1.49e+00	0	56	104	0	57	18099
2026-01-23 22:26:59.77	29.33	6.53	-42.6	-57.0	3.8	1.49e+00	0	56	104	0	57	18150
2026-01-23 22:27:00.77	29.41	6.59	-42.6	-56.7	3.8	1.49e+00	0	56	104	0	57	17634
2026-01-23 22:27:01.79	29.50	6.66	-42.6	-56.9	3.8	1.49e+00	0	56	104	0	57	17950
2026-01-23 22:27:02.80	29.59	6.72	-42.6	-56.7	3.8	1.49e+00	0	56	104	0	57	17674
2026-01-23 22:27:03.81	29.67	6.79	-42.6	-56.5	3.8	1.49e+00	0	56	104	0	57	17095
2026-01-23 22:27:04.82	29.76	6.85	-42.6	-56.2	3.8	1.49e+00	0	56	104	0	57	16693
2026-01-23 22:27:05.83	29.85	6.92	-42.5	-55.3	3.8	1.49e+00	0	56	104	0	57	14892
2026-01-23 22:27:06.84	29.93	6.98	-42.5	-55.2	3.8	1.49e+00	0	56	104	0	57	14878
2026-01-23 22:27:07.85	30.02	7.05	-42.4	-54.1	3.9	1.45e+00	0	56	104	0	56	13857
2026-01-23 22:27:08.86	30.11	7.11	-42.5	-55.4	3.8	1.47e+00	0	56	104	0	56	16062
2026-01-23 22:27:09.87	30.20	7.18	-42.5	-55.6	3.8	1.49e+00	0	57	104	0	56	16403
2026-01-23 22:27:10.88	30.29	7.24	-42.6	-56.3	3.8	1.49e+00	0	56	104	0	56	17866
2026-01-23 22:27:11.89	30.38	7.31	-42.5	-55.4	3.8	1.49e+00	0	56	104	0	56	16050
2026-01-23 22:27:12.90	30.47	7.37	-42.3	-52.7	4.5	1.33e+00	0	57	0	0	56	11781
2026-01-23 22:27:13.91	30.56	7.44	-42.2	-52.0	4.8	8.34e-01	0	57	0	2097152	56	10889
2026-01-23 22:27:14.93	30.65	7.51	-42.2	-51.6	5.0	8.25e-01	0	57	0	4194304	56	10295
2026-01-23 22:27:15.94	30.74	7.57	-42.1	-51.0	5.3	6.04e-01	0	57	0	5242880	56	9645
2026-01-23 22:27:16.95	30.83	7.64	-41.8	-49.9	5.9	3.99e-01	0	57	0	7340032	55	9023
2026-01-23 22:27:17.96	30.92	7.71	-41.6	-48.8	6.9	2.27e-01	0	57	0	9437184	55	7901
2026-01-23 22:27:18.97	31.01	7.77	-41.3	-47.8	7.8	9.36e-02	0	57	0	11534336	54	7484
2026-01-23 22:27:19.98	31.11	7.84	-41.2	-47.2	8.3	5.43e-02	0	57	0	13631488	54	6969
2026-01-23 22:27:20.99	31.20	7.91	-41.1	-46.9	8.7	3.41e-02	0	57	0	14680064	54	6798
2026-01-23 22:27:22.00	31.29	7.97	-41.2	-47.3	8.4	4.48e-02	0	57	0	16777216	54	7088
2026-01-23 22:27:23.01	31.39	8.04	-41.4	-48.0	7.6	7.29e-02	0	57	0	18874368	54	7675
2026-01-23 22:27:24.02	31.48	8.11	-42.2	-49.2	7.2	4.32e-02	0	57	0	20971520	55	8294
2026-01-23 22:27:25.03	31.57	8.18	-42.2	-50.3	6.0	1.42e-01	0	57	0	23068672	55	9421
2026-01-23 22:27:26.04	31.67	8.24	-42.0	-53.0	4.3	6.13e-01	0	57	0	24117248	55	12825
2026-01-23 22:27:27.05	31.76	8.31	-41.6	-55.9	3.8	1.47e+00	0	57	104	25165824	55	18061
2026-01-23 22:27:28.06	31.86	8.38	-42.6	-50.5	6.2	1.30e+00	0	57	0	25165824	55	9657
2026-01-23 22:27:29.07	31.96	8.45	-41.6	-47.2	9.1	3.55e-02	0	57	0	27262976	55	6593
2026-01-23 22:27:30.08	32.05	8.51	-41.6	-47.3	9.0	2.50e-02	0	57	0	28311552	55	6692
2026-01-23 22:27:31.09	32.15	8.58	-41.7	-47.4	8.9	2.27e-02	0	57	0	30408704	55	6731
2026-01-23 22:27:32.09	32.25	8.65	-41.6	-47.2	9.1	2.42e-02	0	57	0	32505856	55	6632
2026-01-23 22:27:33.10	32.34	8.72	-41.5	-46.8	9.5	1.64e-02	0	58	0	34603008	54	6671
2026-01-23 22:27:34.11	32.44	8.79	-41.5	-46.9	9.5	1.53e-02	0	57	0	36700160	54	6724
2026-01-23 22:27:35.12	32.54	8.86	-41.6	-47.0	9.4	1.63e-02	0	57	0	37748736	54	6820
2026-01-23 22:27:36.13	32.64	8.92	-41.5	-46.7	9.6	1.23e-02	0	58	0	39845888	54	6629
2026-01-23 22:27:37.14	32.74	8.99	-41.5	-46.8	9.6	1.03e-02	0	58	0	41943040	54	6694
2026-01-23 22:27:38.15	32.84	9.06	-41.5	-46.6	9.9	1.19e-02	0	57	0	44040192	54	6569
2026-01-23 22:27:39.16	32.94	9.13	-41.4	-46.3	10.2	5.90e-03	0	57	0	46137344	54	6320
2026-01-23 22:27:40.17	33.04	9.20	-41.5	-46.5	10.1	8.46e-03	0	58	0	47185920	54	6438
2026-01-23 22:27:41.18	33.14	9.27	-41.4	-46.1	10.6	5.47e-03	0	58	0	49283072	54	6159
2026-01-23 22:27:42.19	33.25	9.34	-41.5	-46.3	10.4	4.45e-03	0	58	0	51380224	54	6340
2026-01-23 22:27:43.20	33.35	9.41	-41.5	-46.2	10.5	4.57e-03	0	58	0	53477376	54	6266
2026-01-23 22:27:44.21	33.45	9.48	-41.4	-46.1	10.6	4.16e-03	0	58	0	55574528	54	6198
2026-01-23 22:27:45.22	33.55	9.55	-41.5	-46.3	10.5	4.17e-03	0	58	0	56623104	54	6305
2026-01-23 22:27:46.23	33.66	9.62	-41.5	-46.1	10.7	3.11e-03	0	58	0	58720256	54	6196
2026-01-23 22:27:47.24	33.76	9.69	-41.5	-46.1	10.7	2.58e-03	0	58	0	60817408	54	6150
2026-01-23 22:27:48.25	33.87	9.76	-41.4	-46.0	10.9	2.33e-03	0	58	0	62914560	54	6077
2026-01-23 22:27:49.26	33.97	9.83	-41.4	-46.0	10.9	2.65e-03	0	58	0	65011712	54	6081
2026-01-23 22:27:50.26	34.08	9.90	-41.5	-46.0	10.9	2.71e-03	0	58	0	66060288	54	6129
2026-01-23 22:27:51.27	34.18	9.97	-41.5	-46.1	10.9	2.08e-03	0	58	0	68157440	54	6163
2026-01-23 22:27:52.28	34.29	10.04	-41.5	-46.2	10.7	2.54e-03	0	58	0	70254592	54	6240
2026-01-23 22:27:53.29	34.40	10.11	-41.5	-46.0	11.0	1.94e-03	0	58	0	72351744	54	6077
2026-01-23 22:27:54.30	34.50	10.18	-41.6	-46.1	10.9	1.93e-03	0	58	0	74448896	54	6159
2026-01-23 22:27:55.31	34.61	10.25	-41.5	-46.0	11.0	2.10e-03	0	58	0	75497472	54	6127
2026-01-23 22:27:56.32	34.72	10.32	-41.6	-46.2	10.7	2.14e-03	0	58	0	77594624	54	6270
2026-01-23 22:27:57.33	34.83	10.39	-41.5	-46.0	11.1	2.54e-03	0	58	0	79691776	54	6070
2026-01-23 22:27:58.34	34.94	10.46	-41.7	-46.3	10.8	2.15e-03	0	58	0	81788928	54	6295
2026-01-23 22:27:59.35	35.05	10.54	-41.6	-46.2	10.9	2.60e-03	0	58	0	83886080	54	6271
2026-01-23 22:28:00.36	35.16	10.61	-41.6	-46.1	11.0	2.32e-03	0	58	0	85983232	54	6179
2026-01-23 22:28:01.37	35.27	10.68	-41.7	-46.3	10.8	2.42e-03	0	58	0	87031808	54	6280
2026-01-23 22:28:02.38	35.38	10.75	-41.6	-46.0	11.1	2.13e-03	0	58	0	89128960	54	6099
2026-01-23 22:28:03.39	35.50	10.82	-41.6	-46.1	11.0	1.59e-03	0	58	0	91226112	54	6199
2026-01-23 22:28:04.40	35.61	10.89	-41.6	-46.2	11.0	2.11e-03	0	58	0	93323264	54	6210
2026-01-23 22:28:05.41	35.72	10.97	-41.7	-46.2	10.9	2.30e-03	0	58	0	95420416	54	6232
2026-01-23 22:28:06.42	35.84	11.04	-41.6	-46.1	11.0	2.23e-03	0	58	0	96468992	54	6182
2026-01-23 22:28:07.43	35.95	11.11	-41.7	-46.1	11.1	1.51e-03	0	58	0	98566144	54	6200
2026-01-23 22:28:08.43	36.06	11.18	-41.7	-46.2	11.0	1.62e-03	0	58	0	100663296	54	6234
2026-01-23 22:28:09.44	36.18	11.25	-41.6	-46.0	11.2	1.37e-03	0	58	0	102760448	54	6113
2026-01-23 22:28:10.45	36.30	11.33	-41.7	-46.2	11.0	1.52e-03	0	58	0	104857600	54	6263
2026-01-23 22:28:11.46	36.41	11.40	-41.8	-46.4	10.9	2.14e-03	0	59	0	105906176	54	6373
2026-01-23 22:28:12.47	36.53	11.47	-41.7	-46.2	11.1	1.59e-03	0	58	0	108003328	54	6234
2026-01-23 22:28:13.48	36.65	11.55	-41.8	-46.4	10.9	2.11e-03	0	58	0	110100480	54	6414
2026-01-23 22:28:14.49	36.77	11.62	-41.9	-46.5	10.8	2.48e-03	0	58	0	112197632	54	6428
2026-01-23 22:28:15.50	36.88	11.69	-41.9	-46.6	10.7	2.69e-03	0	59	0	114294784	54	6521
2026-01-23 22:28:16.51	37.00	11.77	-41.9	-46.5	10.8	2.38e-03	0	58	0	115343360	54	6457
2026-01-23 22:28:17.52	37.12	11.84	-41.9	-46.6	10.7	2.96e-03	0	58	0	117440512	54	6550
2026-01-23 22:28:18.53	37.24	11.91	-41.9	-46.6	10.7	3.17e-03	0	58	0	119537664	54	6537
2026-01-23 22:28:19.54	37.37	11.99	-41.8	-46.4	11.0	2.42e-03	0	59	0	121634816	54	6354
2026-01-23 22:28:20.55	37.49	12.06	-41.9	-46.5	10.9	2.25e-03	0	58	0	123731968	54	6425
2026-01-23 22:28:21.56	37.61	12.13	-41.8	-46.3	11.0	2.19e-03	0	58	0	124780544	54	6340
2026-01-23 22:28:22.57	37.73	12.21	-41.9	-46.4	11.0	2.23e-03	0	59	0	126877696	54	6361
2026-01-23 22:28:23.58	37.86	12.28	-41.9	-46.4	11.0	1.79e-03	0	59	0	128974848	54	6365
2026-01-23 22:28:24.59	37.98	12.36	-41.8	-46.2	11.2	1.46e-03	0	59	0	131072000	54	6252
2026-01-23 22:28:25.59	38.10	12.43	-41.8	-46.2	11.2	1.56e-03	0	59	0	133169152	54	6222
2026-01-23 22:28:26.61	38.23	12.50	-41.8	-46.2	11.2	9.56e-04	0	59	0	134217728	54	6204
2026-01-23 22:28:27.61	38.36	12.58	-41.7	-45.9	11.5	8.46e-04	0	59	0	136314880	54	6046
2026-01-23 22:28:28.62	38.48	12.65	-41.6	-45.8	11.6	6.35e-04	0	59	0	138412032	54	5980
2026-01-23 22:28:29.63	38.61	12.73	-41.6	-45.8	11.7	6.35e-04	0	59	0	140509184	54	5924
2026-01-23 22:28:30.64	38.74	12.80	-41.5	-45.5	11.9	4.19e-04	0	59	0	142606336	54	5760
2026-01-23 22:28:31.65	38.87	12.88	-41.5	-45.5	12.0	3.35e-04	0	59	0	143654912	54	5778
2026-01-23 22:28:32.67	39.00	12.95	-41.4	-45.4	12.1	3.06e-04	0	59	0	145752064	54	5660
2026-01-23 22:28:33.67	39.12	13.03	-41.4	-45.3	12.2	2.31e-04	0	59	0	147849216	54	5636
2026-01-23 22:28:34.68	39.25	13.10	-41.4	-45.3	12.2	2.02e-04	0	59	0	149946368	54	5607
2026-01-23 22:28:35.69	39.39	13.18	-41.4	-45.3	12.2	1.89e-04	0	59	0	152043520	54	5626
2026-01-23 22:28:36.70	39.52	13.25	-41.4	-45.2	12.3	2.15e-04	0	59	0	154140672	54	5575
2026-01-23 22:28:37.71	39.65	13.33	-41.4	-45.2	12.3	1.46e-04	0	59	0	155189248	54	5581
2026-01-23 22:28:38.72	39.78	13.41	-41.5	-45.4	12.1	1.61e-04	0	59	0	157286400	54	5676
2026-01-23 22:28:39.73	39.92	13.48	-41.4	-45.2	12.4	1.62e-04	0	59	0	159383552	54	5557
2026-01-23 22:28:40.74	40.05	13.56	-41.4	-45.2	12.3	1.39e-04	0	59	0	161480704	54	5571
2026-01-23 22:28:41.75	40.19	13.63	-41.4	-45.1	12.4	1.72e-04	0	59	0	163577856	54	5521
2026-01-23 22:28:42.76	40.32	13.71	-41.4	-45.2	12.4	1.52e-04	0	59	0	164626432	54	5533
2026-01-23 22:28:43.77	40.46	13.78	-41.4	-45.2	12.4	1.17e-04	0	59	0	166723584	54	5551
2026-01-23 22:28:44.78	40.59	13.86	-41.3	-45.1	12.4	1.50e-04	0	59	0	168820736	54	5520
2026-01-23 22:28:45.79	40.73	13.94	-41.4	-45.1	12.4	1.41e-04	0	59	0	170917888	54	5516
2026-01-23 22:28:46.80	40.87	14.01	-41.4	-45.2	12.3	1.26e-04	0	59	0	173015040	54	5575
2026-01-23 22:28:47.81	41.01	14.09	-41.4	-45.2	12.4	1.69e-04	0	59	0	174063616	54	5560
2026-01-23 22:28:48.82	41.15	14.17	-41.5	-45.4	12.2	1.79e-04	0	59	0	176160768	54	5690
2026-01-23 22:28:49.83	41.29	14.24	-41.4	-45.3	12.3	1.82e-04	0	59	0	178257920	54	5623
2026-01-23 22:28:50.84	41.43	14.32	-41.6	-45.6	12.0	2.90e-04	0	59	0	180355072	54	5796
2026-01-23 22:28:51.84	41.57	14.40	-41.5	-45.5	12.1	3.66e-04	0	59	0	182452224	54	5727
2026-01-23 22:28:52.85	41.71	14.47	-41.7	-45.8	11.8	3.78e-04	0	59	0	183500800	54	5969
2026-01-23 22:28:53.86	41.86	14.55	-41.8	-45.9	11.7	5.35e-04	0	59	0	185597952	54	6059
2026-01-23 22:28:54.87	42.00	14.63	-41.8	-45.9	11.7	6.56e-04	0	59	0	187695104	54	6023
2026-01-23 22:28:55.88	42.15	14.70	-41.8	-46.0	11.6	6.45e-04	0	59	0	189792256	54	6095
2026-01-23 22:28:56.89	42.29	14.78	-41.8	-46.1	11.5	8.65e-04	0	59	0	191889408	54	6154
2026-01-23 22:28:57.90	42.44	14.86	-41.8	-46.1	11.6	6.79e-04	0	59	0	192937984	54	6148
2026-01-23 22:28:58.91	42.58	14.94	-41.8	-45.9	11.7	6.10e-04	0	59	0	195035136	54	6008
2026-01-23 22:28:59.92	42.73	15.01	-41.8	-45.9	11.7	5.74e-04	0	59	0	197132288	54	6003
2026-01-23 22:29:00.93	42.88	15.09	-41.8	-45.9	11.8	4.57e-04	0	59	0	199229440	54	6036
2026-01-23 22:29:01.94	43.03	15.17	-41.6	-45.6	12.0	4.36e-04	0	59	0	201326592	54	5817
2026-01-23 22:29:02.95	43.18	15.25	-41.7	-45.7	11.9	4.12e-04	0	59	0	202375168	54	5889
2026-01-23 22:29:03.96	43.33	15.33	-41.6	-45.4	12.2	3.34e-04	0	59	0	204472320	54	5709
2026-01-23 22:29:04.96	43.48	15.40	-41.6	-45.5	12.2	1.70e-04	0	59	0	206569472	54	5726
2026-01-23 22:29:05.97	43.63	15.48	-41.4	-45.2	12.4	1.47e-04	0	59	0	208666624	54	5549
2026-01-23 22:29:06.98	43.78	15.56	-41.4	-45.1	12.6	1.24e-04	0	59	0	210763776	54	5515
2026-01-23 22:29:07.99	43.94	15.64	-41.3	-44.8	12.9	6.02e-05	0	60	0	211812352	54	5311
2026-01-23 22:29:09.00	44.09	15.71	-41.2	-44.7	13.0	3.28e-05	0	60	0	213909504	54	5235
2026-01-23 22:29:10.01	44.25	15.79	-41.3	-44.9	12.8	6.02e-05	0	59	0	216006656	54	5372
2026-01-23 22:29:11.02	44.40	15.87	-41.4	-45.0	12.7	4.80e-05	0	59	0	218103808	54	5462
2026-01-23 22:29:12.03	44.56	15.95	-41.3	-44.9	12.9	5.72e-05	0	60	0	220200960	54	5367
2026-01-23 22:29:13.04	44.72	16.03	-41.3	-44.9	12.8	5.64e-05	0	59	0	221249536	54	5358
2026-01-23 22:29:14.05	44.88	16.11	-41.2	-44.7	13.0	3.28e-05	0	59	0	223346688	54	5279
2026-01-23 22:29:15.06	45.04	16.18	-41.2	-44.6	13.1	3.28e-05	0	59	0	225443840	54	5194
2026-01-23 22:29:16.07	45.20	16.26	-41.0	-44.4	13.3	1.52e-05	0	59	0	227540992	54	5064
2026-01-23 22:29:17.08	45.36	16.34	-41.0	-44.3	13.4	4.50e-06	0	59	0	229638144	53	5317
2026-01-23 22:29:18.09	45.52	16.42	-40.9	-44.2	13.5	1.60e-05	0	60	0	230686720	53	5221
2026-01-23 22:29:19.10	45.68	16.50	-41.0	-44.4	13.4	1.22e-05	0	59	0	232783872	53	5355
2026-01-23 22:29:20.11	45.85	16.58	-41.0	-44.4	13.4	1.67e-05	0	59	0	234881024	53	5344
2026-01-23 22:29:21.12	46.01	16.66	-41.1	-44.6	13.1	1.90e-05	0	60	0	236978176	53	5493
2026-01-23 22:29:22.13	46.17	16.73	-41.2	-44.8	13.1	2.28e-05	0	60	0	239075328	53	5606
2026-01-23 22:29:23.14	46.34	16.81	-41.4	-45.0	12.7	3.05e-05	0	60	0	240123904	53	5780
2026-01-23 22:29:24.15	46.51	16.89	-41.4	-45.1	12.7	7.17e-05	0	60	0	242221056	53	5839
2026-01-23 22:29:25.16	46.68	16.97	-41.3	-45.0	12.8	6.63e-05	0	60	0	244318208	53	5733
2026-01-23 22:29:26.17	46.84	17.05	-41.5	-45.2	12.6	1.05e-04	0	59	0	246415360	53	5863
2026-01-23 22:29:27.18	47.01	17.13	-41.4	-45.0	12.7	7.55e-05	0	60	0	248512512	53	5770
2026-01-23 22:29:28.19	47.18	17.21	-41.4	-45.0	12.8	6.48e-05	0	60	0	250609664	53	5725
2026-01-23 22:29:29.20	47.35	17.29	-41.3	-44.9	12.9	4.57e-05	0	60	0	251658240	53	5675
2026-01-23 22:29:30.20	47.52	17.36	-41.3	-44.9	12.8	5.26e-05	0	60	0	253755392	53	5695
2026-01-23 22:29:31.22	47.70	17.44	-41.3	-44.8	13.0	5.56e-05	0	60	0	255852544	53	5623
2026-01-23 22:29:32.23	47.87	17.52	-41.4	-44.9	12.9	6.94e-05	0	60	0	257949696	53	5716
2026-01-23 22:29:33.23	48.05	17.60	-41.5	-45.2	12.6	9.84e-05	0	60	0	260046848	53	5862
2026-01-23 22:29:34.25	48.22	17.68	-41.5	-45.1	12.6	7.85e-05	0	59	0	261095424	53	5840
2026-01-23 22:29:35.26	48.40	17.76	-41.5	-45.3	12.5	1.22e-04	0	60	0	263192576	53	5929
2026-01-23 22:29:36.27	48.58	17.84	-41.4	-45.0	12.8	1.05e-04	0	60	0	265289728	53	5749
2026-01-23 22:29:37.28	48.75	17.92	-41.3	-44.8	13.0	6.02e-05	0	60	0	267386880	53	5643
2026-01-23 22:29:38.29	48.93	18.00	-41.2	-44.7	13.1	4.34e-05	0	60	0	269484032	53	5542
2026-01-23 22:29:39.30	49.11	18.08	-41.1	-44.5	13.3	2.05e-05	0	60	0	270532608	53	5411
2026-01-23 22:29:40.31	49.29	18.15	-41.0	-44.3	13.5	1.14e-05	0	60	0	272629760	53	5317
2026-01-23 22:29:41.31	49.47	18.23	-41.0	-44.2	13.7	8.30e-06	0	60	0	274726912	53	5224
2026-01-23 22:29:42.32	49.66	18.31	-40.9	-44.2	13.7	9.10e-06	0	60	0	276824064	53	5228
2026-01-23 22:29:43.33	49.84	18.39	-40.9	-44.1	13.8	6.10e-06	0	60	0	278921216	53	5180
2026-01-23 22:29:44.34	50.03	18.47	-40.9	-44.1	13.7	4.50e-06	0	60	0	279969792	53	5189
2026-01-23 22:29:45.35	50.21	18.55	-40.9	-44.0	13.9	3.80e-06	0	60	0	282066944	53	5123
2026-01-23 22:29:46.36	50.40	18.63	-40.7	-43.8	14.1	1.50e-06	0	60	0	284164096	53	4985
2026-01-23 22:29:47.37	50.59	18.70	-40.6	-43.6	14.3	1.50e-06	0	60	0	286261248	53	4914
2026-01-23 22:29:48.38	50.77	18.78	-40.6	-43.6	14.3	0.00e+00	0	60	0	288358400	53	4899
2026-01-23 22:29:49.39	50.96	18.86	-40.6	-43.5	14.4	0.00e+00	0	60	0	289406976	52	5126
2026-01-23 22:29:50.40	51.15	18.94	-40.6	-43.5	14.4	0.00e+00	0	60	0	291504128	52	5135
2026-01-23 22:29:51.41	51.34	19.02	-40.5	-43.4	14.4	3.00e-06	0	60	0	293601280	52	5096
2026-01-23 22:29:52.42	51.54	19.10	-40.5	-43.5	14.5	1.50e-06	0	60	0	295698432	52	5107
2026-01-23 22:29:53.43	51.73	19.18	-40.5	-43.4	14.5	0.00e+00	0	60	0	297795584	52	5048
2026-01-23 22:29:54.44	51.92	19.25	-40.5	-43.4	14.5	0.00e+00	0	60	0	298844160	52	5067
2026-01-23 22:29:55.45	52.12	19.33	-40.5	-43.3	14.5	0.00e+00	0	60	0	300941312	52	5039
2026-01-23 22:29:56.46	52.31	19.41	-40.4	-43.2	14.7	0.00e+00	0	60	0	303038464	52	4930
2026-01-23 22:29:57.47	52.51	19.49	-40.3	-43.1	14.8	0.00e+00	0	60	0	305135616	52	4880
2026-01-23 22:29:58.47	52.71	19.57	-40.3	-43.0	14.9	0.00e+00	0	60	0	307232768	52	4843
2026-01-23 22:29:59.48	52.91	19.64	-40.3	-43.0	14.9	0.00e+00	0	60	0	308281344	52	4850
2026-01-23 22:30:00.49	53.11	19.72	-40.3	-43.0	14.9	0.00e+00	0	60	0	310378496	52	4844
2026-01-23 22:30:01.50	53.31	19.80	-40.3	-43.1	14.7	0.00e+00	0	60	0	312475648	52	4916
2026-01-23 22:30:02.51	53.51	19.88	-40.3	-43.1	14.7	0.00e+00	0	60	0	314572800	52	4920
2026-01-23 22:30:03.52	53.71	19.95	-40.3	-43.1	14.8	0.00e+00	0	60	0	316669952	52	4891
2026-01-23 22:30:04.53	53.92	20.03	-40.4	-43.3	14.6	0.00e+00	0	60	0	318767104	52	4984
2026-01-23 22:30:05.54	54.12	20.11	-40.5	-43.3	14.6	0.00e+00	0	60	0	319815680	52	5019
2026-01-23 22:30:06.55	54.33	20.19	-40.5	-43.4	14.4	0.00e+00	0	60	0	321912832	52	5092
2026-01-23 22:30:07.56	54.54	20.26	-40.5	-43.4	14.5	7.00e-07	0	60	0	324009984	52	5095
2026-01-23 22:30:08.57	54.74	20.34	-40.6	-43.6	14.3	7.00e-07	0	60	0	326107136	52	5160
2026-01-23 22:30:09.58	54.95	20.42	-40.6	-43.5	14.4	1.50e-06	0	60	0	328204288	52	5139
2026-01-23 22:30:10.59	55.16	20.49	-40.6	-43.5	14.4	7.00e-07	0	60	0	329252864	52	5159
2026-01-23 22:30:11.60	55.37	20.57	-40.6	-43.6	14.4	0.00e+00	0	60	0	331350016	52	5163
2026-01-23 22:30:12.61	55.59	20.65	-40.5	-43.4	14.5	0.00e+00	0	60	0	333447168	52	5080
2026-01-23 22:30:13.62	55.80	20.72	-40.5	-43.4	14.5	0.00e+00	0	60	0	335544320	52	5089
2026-01-23 22:30:14.63	56.01	20.80	-40.4	-43.3	14.6	0.00e+00	0	60	0	337641472	52	5004
2026-01-23 22:30:15.64	56.23	20.87	-40.4	-43.2	14.6	0.00e+00	0	60	0	338690048	52	4968
2026-01-23 22:30:16.65	56.45	20.95	-40.3	-43.1	14.8	0.00e+00	0	60	0	340787200	52	4897
2026-01-23 22:30:17.65	56.66	21.02	-40.4	-43.2	14.7	0.00e+00	0	60	0	342884352	52	4978
2026-01-23 22:30:18.66	56.88	21.10	-40.4	-43.2	14.7	0.00e+00	0	60	0	344981504	52	4968
2026-01-23 22:30:19.67	57.10	21.17	-40.6	-43.5	14.5	7.00e-07	0	60	0	347078656	52	5131
2026-01-23 22:30:20.68	57.32	21.25	-40.7	-43.6	14.3	0.00e+00	0	60	0	348127232	52	5210
2026-01-23 22:30:21.69	57.54	21.32	-40.8	-43.8	14.1	1.50e-06	0	60	0	350224384	52	5325
2026-01-23 22:30:22.70	57.76	21.40	-40.8	-43.9	14.0	1.50e-06	0	60	0	352321536	52	5361
2026-01-23 22:30:23.71	57.99	21.47	-40.8	-43.9	14.1	2.20e-06	0	60	0	354418688	52	5377
2026-01-23 22:30:24.72	58.21	21.55	-40.7	-43.7	14.3	2.20e-06	0	60	0	356515840	52	5228
2026-01-23 22:30:25.73	58.44	21.62	-40.7	-43.8	14.1	7.00e-07	0	60	0	357564416	52	5290
2026-01-23 22:30:26.74	58.66	21.69	-40.8	-43.8	14.0	4.50e-06	0	60	0	359661568	52	5315
2026-01-23 22:30:27.75	58.89	21.77	-40.7	-43.7	14.2	7.00e-07	0	60	0	361758720	52	5258
2026-01-23 22:30:28.76	59.12	21.84	-40.8	-43.9	14.0	7.00e-07	0	60	0	363855872	52	5363
2026-01-23 22:30:29.77	59.35	21.91	-41.0	-44.2	13.7	7.60e-06	0	60	0	365953024	52	5575
2026-01-23 22:30:30.78	59.58	21.99	-41.0	-44.2	13.7	3.80e-06	0	60	0	367001600	52	5575
2026-01-23 22:30:31.79	59.81	22.06	-40.9	-44.0	13.9	4.50e-06	0	60	0	369098752	52	5439
2026-01-23 22:30:32.80	60.05	22.13	-40.7	-43.8	14.1	2.20e-06	0	60	0	371195904	52	5285
2026-01-23 22:30:33.81	60.28	22.20	-40.7	-43.7	14.2	1.50e-06	0	60	0	373293056	52	5220
2026-01-23 22:30:34.81	60.51	22.27	-40.8	-43.9	14.1	7.00e-07	0	60	0	375390208	52	5349
2026-01-23 22:30:35.82	60.75	22.34	-40.9	-44.1	13.8	3.00e-06	0	60	0	376438784	52	5495
2026-01-23 22:30:36.83	60.99	22.42	-41.1	-44.5	13.3	3.80e-06	0	60	0	378535936	52	5745
2026-01-23 22:30:37.84	61.23	22.49	-41.4	-45.0	12.8	5.03e-05	0	60	0	380633088	53	5754
2026-01-23 22:30:38.85	61.47	22.56	-41.4	-45.1	12.8	6.02e-05	0	60	0	382730240	53	5795
2026-01-23 22:30:39.86	61.71	22.63	-41.4	-44.9	13.0	5.26e-05	0	60	0	384827392	53	5698
2026-01-23 22:30:40.87	61.95	22.70	-41.2	-44.5	13.4	1.90e-05	0	60	0	386924544	53	5427
2026-01-23 22:30:41.88	62.19	22.77	-40.9	-44.0	13.8	6.80e-06	0	60	0	387973120	53	5133
2026-01-23 22:30:42.89	62.44	22.83	-40.9	-44.1	13.8	3.80e-06	0	60	0	390070272	53	5168
2026-01-23 22:30:43.90	62.68	22.90	-40.9	-44.0	13.8	7.60e-06	0	60	0	392167424	53	5154
2026-01-23 22:30:44.91	62.93	22.97	-41.2	-44.6	13.3	1.52e-05	0	60	0	394264576	53	5468
2026-01-23 22:30:45.92	63.17	23.04	-41.5	-45.1	12.8	3.43e-05	0	60	0	396361728	53	5827
2026-01-23 22:30:46.93	63.42	23.11	-41.5	-45.2	12.6	9.46e-05	0	60	0	397410304	53	5900
2026-01-23 22:30:47.94	63.67	23.17	-41.6	-45.2	12.7	7.62e-05	0	60	0	399507456	53	5909
2026-01-23 22:30:48.95	63.92	23.24	-41.3	-44.8	13.0	5.56e-05	0	60	0	401604608	53	5637
2026-01-23 22:30:49.96	64.17	23.31	-41.3	-44.8	13.1	2.36e-05	0	60	0	403701760	53	5610
2026-01-23 22:30:50.97	64.42	23.37	-41.5	-45.1	12.8	6.33e-05	0	60	0	405798912	53	5800
2026-01-23 22:30:51.98	64.68	23.44	-41.8	-45.6	12.3	1.05e-04	0	60	0	406847488	54	5823
2026-01-23 22:30:52.99	64.93	23.51	-41.9	-45.8	12.1	1.96e-04	0	60	0	408944640	54	5966
2026-01-23 22:30:54.00	65.19	23.57	-41.9	-46.0	11.9	3.25e-04	0	60	0	411041792	54	6080
2026-01-23 22:30:55.01	65.44	23.63	-41.9	-46.0	11.9	3.71e-04	0	60	0	413138944	54	6066
2026-01-23 22:30:56.02	65.70	23.70	-41.7	-45.4	12.4	2.66e-04	0	60	0	415236096	54	5708
2026-01-23 22:30:57.03	65.96	23.76	-41.7	-45.5	12.4	1.30e-04	0	60	0	416284672	54	5739
2026-01-23 22:30:58.04	66.22	23.83	-41.6	-45.3	12.6	8.01e-05	0	60	0	418381824	54	5632
2026-01-23 22:30:59.05	66.48	23.89	-41.7	-45.5	12.4	1.17e-04	0	61	0	420478976	54	5742
2026-01-23 22:31:00.06	66.74	23.95	-41.9	-45.9	12.0	2.01e-04	0	60	0	422576128	54	6008
2026-01-23 22:31:01.04	67.00	24.01	-42.1	-46.2	11.7	4.13e-04	0	60	0	424673280	54	6239
2026-01-23 22:31:02.05	67.26	24.07	-42.2	-46.4	11.5	5.83e-04	0	61	0	425721856	54	6391
2026-01-23 22:31:03.06	67.53	24.13	-42.4	-47.0	10.9	1.40e-03	0	60	0	427819008	55	6453
2026-01-23 22:31:04.07	67.79	24.19	-42.4	-47.1	10.7	2.07e-03	0	60	0	429916160	55	6529
2026-01-23 22:31:05.08	68.06	24.25	-42.5	-47.3	10.6	3.45e-03	0	60	0	432013312	55	6649
2026-01-23 22:31:06.09	68.33	24.31	-42.5	-47.2	10.6	3.37e-03	0	60	0	434110464	55	6609
2026-01-23 22:31:07.10	68.59	24.37	-42.6	-47.3	10.5	3.53e-03	0	60	0	435159040	55	6716
2026-01-23 22:31:08.11	68.86	24.43	-42.2	-46.5	11.3	1.74e-03	0	60	0	437256192	55	6122
2026-01-23 22:31:09.12	69.14	24.49	-42.0	-46.0	11.8	7.48e-04	0	60	0	439353344	55	5772
2026-01-23 22:31:10.13	69.41	24.54	-41.8	-45.7	12.2	1.99e-04	0	60	0	441450496	55	5590
2026-01-23 22:31:11.14	69.68	24.60	-41.7	-45.5	12.4	1.33e-04	0	60	0	443547648	55	5438
2026-01-23 22:31:12.15	69.95	24.66	-42.0	-46.0	11.9	2.18e-04	0	61	0	444596224	55	5756
2026-01-23 22:31:13.16	70.23	24.71	-42.3	-46.9	11.0	1.36e-03	0	61	0	446693376	55	6349
2026-01-23 22:31:14.17	70.50	24.77	-42.7	-47.7	10.1	4.75e-03	0	60	0	448790528	55	7017
2026-01-23 22:31:15.18	70.78	24.82	-43.1	-48.5	9.4	1.03e-02	0	60	0	450887680	56	7286
2026-01-23 22:31:16.19	71.06	24.88	-43.2	-48.8	9.1	2.16e-02	0	60	0	452984832	56	7521
2026-01-23 22:31:17.20	71.34	24.93	-43.2	-48.8	9.1	1.97e-02	0	61	0	455081984	56	7504
2026-01-23 22:31:18.21	71.61	24.98	-43.1	-48.4	9.5	2.23e-02	0	61	0	456130560	56	7201
2026-01-23 22:31:19.22	71.89	25.04	-43.1	-48.5	9.5	1.41e-02	0	61	0	458227712	56	7220
2026-01-23 22:31:20.23	72.18	25.09	-43.1	-48.6	9.4	1.44e-02	0	60	0	460324864	56	7338
2026-01-23 22:31:21.24	72.46	25.14	-43.2	-48.7	9.3	1.77e-02	0	61	0	462422016	56	7421
2026-01-23 22:31:22.24	72.74	25.19	-43.0	-48.2	9.8	1.50e-02	0	61	0	463470592	56	6991
2026-01-23 22:31:23.25	73.02	25.24	-42.8	-47.7	10.4	5.57e-03	0	61	0	465567744	56	6593
2026-01-23 22:31:24.26	73.31	25.29	-42.5	-47.1	10.9	3.38e-03	0	60	0	467664896	56	6146
2026-01-23 22:31:25.27	73.59	25.33	-42.6	-47.3	10.7	2.46e-03	0	60	0	469762048	56	6318
2026-01-23 22:31:26.28	73.88	25.38	-42.8	-47.6	10.4	3.75e-03	0	61	0	471859200	56	6539
2026-01-23 22:31:27.29	74.17	25.43	-43.0	-48.2	9.8	7.66e-03	0	60	0	472907776	56	6998
2026-01-23 22:31:28.30	74.45	25.48	-43.2	-48.9	9.1	1.05e-02	0	61	0	475004928	56	7614
2026-01-23 22:31:29.31	74.74	25.52	-43.2	-48.8	9.1	2.48e-02	0	60	0	477102080	57	7119
2026-01-23 22:31:30.32	75.03	25.57	-43.1	-48.6	9.4	1.69e-02	0	61	0	479199232	57	6885
2026-01-23 22:31:31.33	75.32	25.61	-43.0	-48.2	9.8	1.16e-02	0	61	0	481296384	57	6620
2026-01-23 22:31:32.34	75.61	25.66	-43.0	-48.2	9.9	8.14e-03	0	61	0	483393536	57	6594
2026-01-23 22:31:33.35	75.91	25.70	-43.2	-48.7	9.3	1.18e-02	0	61	0	484442112	57	6972
2026-01-23 22:31:34.36	76.20	25.74	-43.3	-49.1	8.9	1.83e-02	0	60	0	486539264	57	7361
2026-01-23 22:31:35.37	76.49	25.78	-43.4	-49.4	8.5	3.73e-02	0	61	0	488636416	57	7595
2026-01-23 22:31:36.38	76.79	25.82	-43.3	-49.2	8.7	3.27e-02	0	61	0	490733568	57	7433
2026-01-23 22:31:37.39	77.08	25.86	-43.2	-48.6	9.3	2.54e-02	0	60	0	492830720	57	6955
2026-01-23 22:31:38.40	77.38	25.90	-42.9	-48.0	10.1	1.25e-02	0	60	0	493879296	57	6427
2026-01-23 22:31:39.40	77.67	25.94	-42.8	-47.7	10.3	5.11e-03	0	61	0	495976448	57	6222
2026-01-23 22:31:40.41	77.97	25.98	-42.6	-47.1	10.8	2.46e-03	0	60	0	498073600	57	5847
2026-01-23 22:31:41.42	78.27	26.02	-42.6	-47.1	11.0	1.65e-03	0	61	0	500170752	56	6147
2026-01-23 22:31:42.43	78.57	26.05	-42.5	-47.0	11.1	1.49e-03	0	61	0	502267904	56	6098
2026-01-23 22:31:43.44	78.87	26.09	-42.5	-47.0	11.1	1.58e-03	0	60	0	503316480	56	6087
2026-01-23 22:31:44.45	79.17	26.12	-42.7	-47.2	10.9	1.72e-03	0	61	0	505413632	56	6269
2026-01-23 22:31:45.46	79.47	26.16	-42.7	-47.4	10.6	2.57e-03	0	61	0	507510784	56	6390
2026-01-23 22:31:46.47	79.77	26.19	-42.6	-47.3	10.7	3.18e-03	0	61	0	509607936	56	6337
2026-01-23 22:31:47.48	80.07	26.22	-42.8	-47.8	10.2	3.87e-03	0	60	0	511705088	56	6653
2026-01-23 22:31:48.49	80.37	26.25	-42.8	-47.8	10.3	5.53e-03	0	60	0	512753664	56	6658
2026-01-23 22:31:49.50	80.68	26.29	-42.8	-47.8	10.3	5.38e-03	0	61	0	514850816	56	6685
2026-01-23 22:31:50.51	80.98	26.32	-42.9	-47.9	10.1	6.45e-03	0	61	0	516947968	56	6765
2026-01-23 22:31:51.52	81.28	26.34	-42.8	-47.7	10.4	4.72e-03	0	61	0	519045120	56	6588
2026-01-23 22:31:52.53	81.59	26.37	-42.6	-47.1	10.9	2.29e-03	0	61	0	521142272	56	6160
2026-01-23 22:31:53.54	81.89	26.40	-42.4	-46.8	11.3	1.06e-03	0	60	0	522190848	56	5939
2026-01-23 22:31:54.55	82.20	26.43	-42.4	-46.7	11.4	7.79e-04	0	61	0	524288000	56	5868
2026-01-23 22:31:55.56	82.51	26.45	-42.5	-46.9	11.3	1.02e-03	0	61	0	526385152	56	6003
2026-01-23 22:31:56.57	82.81	26.48	-42.7	-47.4	10.6	2.11e-03	0	61	0	528482304	56	6407
2026-01-23 22:31:57.58	83.12	26.50	-42.8	-47.7	10.4	3.66e-03	0	61	0	530579456	56	6588
2026-01-23 22:31:58.59	83.43	26.53	-42.9	-47.9	10.2	6.11e-03	0	61	0	531628032	56	6727
2026-01-23 22:31:59.60	83.74	26.55	-42.8	-47.7	10.4	5.18e-03	0	61	0	533725184	56	6604
2026-01-23 22:32:00.61	84.05	26.57	-42.5	-47.0	11.1	2.23e-03	0	61	0	535822336	56	6104
2026-01-23 22:32:01.62	84.36	26.59	-42.3	-46.5	11.5	1.40e-03	0	61	0	537919488	56	5788
2026-01-23 22:32:02.63	84.67	26.61	-42.4	-46.6	11.5	6.69e-04	0	61	0	540016640	56	5853
2026-01-23 22:32:03.64	84.98	26.63	-42.4	-46.7	11.5	7.57e-04	0	61	0	541065216	56	5900
2026-01-23 22:32:04.65	85.29	26.65	-42.6	-47.1	11.0	1.11e-03	0	61	0	543162368	56	6182
2026-01-23 22:32:05.66	85.60	26.67	-42.6	-47.1	11.1	1.85e-03	0	61	0	545259520	56	6141
2026-01-23 22:32:06.67	85.91	26.68	-42.6	-47.2	10.9	1.96e-03	0	61	0	547356672	56	6228
2026-01-23 22:32:07.68	86.22	26.70	-42.5	-46.9	11.3	1.70e-03	0	61	0	549453824	56	6036
2026-01-23 22:32:08.69	86.53	26.71	-42.5	-46.8	11.4	1.11e-03	0	61	0	551550976	56	5930
2026-01-23 22:32:09.70	86.84	26.73	-42.6	-47.0	11.2	1.11e-03	0	61	0	552599552	56	6085
2026-01-23 22:32:10.71	87.15	26.74	-42.6	-47.0	11.1	1.36e-03	0	61	0	554696704	56	6127
2026-01-23 22:32:11.72	87.47	26.75	-42.7	-47.4	10.7	2.31e-03	0	61	0	556793856	56	6384
2026-01-23 22:32:12.72	87.78	26.76	-42.7	-47.2	11.0	2.30e-03	0	60	0	558891008	56	6269
2026-01-23 22:32:13.73	88.09	26.77	-42.5	-46.8	11.3	1.40e-03	0	61	0	560988160	56	5980
2026-01-23 22:32:14.75	88.41	26.78	-42.3	-46.4	11.8	4.67e-04	0	61	0	562036736	56	5705
2026-01-23 22:32:15.76	88.72	26.79	-42.3	-46.4	11.8	4.32e-04	0	61	0	564133888	56	5665
2026-01-23 22:32:16.76	89.03	26.80	-42.5	-46.8	11.4	6.06e-04	0	61	0	566231040	56	5992
2026-01-23 22:32:17.77	89.34	26.81	-42.7	-47.4	10.7	1.64e-03	0	61	0	568328192	56	6383
2026-01-23 22:32:18.78	89.66	26.81	-42.9	-47.7	10.4	3.12e-03	0	61	0	570425344	56	6611
2026-01-23 22:32:19.79	89.97	26.82	-42.8	-47.5	10.6	3.99e-03	0	61	0	571473920	56	6494
2026-01-23 22:32:20.80	90.28	26.82	-42.6	-47.1	11.2	2.59e-03	0	61	0	573571072	56	6141
2026-01-23 22:32:21.81	90.60	26.83	-42.5	-46.9	11.3	1.08e-03	0	61	0	575668224	56	6039
2026-01-23 22:32:22.82	90.91	26.83	-42.4	-46.7	11.5	8.55e-04	0	61	0	577765376	56	5899
2026-01-23 22:32:23.83	91.23	26.83	-42.5	-46.8	11.4	8.93e-04	0	61	0	579862528	56	5959
2026-01-23 22:32:24.84	91.54	26.83	-42.5	-46.8	11.4	1.03e-03	0	61	0	580911104	56	5944
2026-01-23 22:32:25.85	91.85	26.83	-42.4	-46.6	11.6	9.73e-04	0	61	0	583008256	56	5830
2026-01-23 22:32:26.86	92.17	26.83	-42.3	-46.3	11.9	4.61e-04	0	61	0	585105408	56	5629
2026-01-23 22:32:27.87	92.48	26.83	-42.3	-46.3	11.9	3.90e-04	0	61	0	587202560	56	5614
2026-01-23 22:32:28.88	92.80	26.82	-42.4	-46.5	11.7	5.41e-04	0	61	0	589299712	56	5770
2026-01-23 22:32:29.88	93.11	26.82	-42.5	-46.9	11.3	6.31e-04	0	61	0	590348288	56	5995
2026-01-23 22:32:30.90	93.43	26.81	-42.7	-47.3	10.9	1.87e-03	0	61	0	592445440	56	6278
2026-01-23 22:32:31.91	93.74	26.81	-42.9	-47.7	10.5	3.50e-03	0	61	0	594542592	56	6613
2026-01-23 22:32:32.92	94.05	26.80	-43.0	-48.0	10.1	5.54e-03	0	61	0	596639744	56	6851
2026-01-23 22:32:33.93	94.37	26.79	-42.9	-47.8	10.4	6.22e-03	0	61	0	598736896	56	6647
2026-01-23 22:32:34.94	94.68	26.78	-42.8	-47.4	10.7	3.71e-03	0	61	0	599785472	56	6403
2026-01-23 22:32:35.95	94.99	26.77	-42.6	-46.9	11.2	1.78e-03	0	61	0	601882624	56	6044
2026-01-23 22:32:36.96	95.31	26.76	-42.3	-46.3	11.9	7.33e-04	0	61	0	603979776	56	5639
2026-01-23 22:32:37.97	95.62	26.75	-42.2	-46.2	12.1	4.32e-04	0	61	0	606076928	56	5529
2026-01-23 22:32:38.98	95.93	26.74	-42.2	-46.2	12.1	2.77e-04	0	61	0	608174080	56	5534
2026-01-23 22:32:39.99	96.24	26.73	-42.3	-46.4	11.9	3.29e-04	0	61	0	609222656	56	5668
2026-01-23 22:32:41.00	96.56	26.71	-42.3	-46.4	11.8	5.05e-04	0	61	0	611319808	56	5722
2026-01-23 22:32:42.01	96.87	26.70	-42.3	-46.3	11.9	4.77e-04	0	61	0	613416960	56	5653
2026-01-23 22:32:43.02	97.18	26.68	-42.1	-46.0	12.2	2.93e-04	0	61	0	615514112	56	5431
2026-01-23 22:32:44.03	97.49	26.67	-42.0	-45.8	12.5	1.65e-04	0	61	0	617611264	56	5300
2026-01-23 22:32:45.04	97.80	26.65	-41.8	-45.5	12.6	1.18e-04	0	61	0	619708416	55	5428
2026-01-23 22:32:46.04	98.11	26.63	-42.0	-46.0	12.1	1.56e-04	0	61	0	620756992	55	5730
2026-01-23 22:32:47.05	98.42	26.61	-42.1	-46.0	12.0	1.96e-04	0	61	0	622854144	55	5773
2026-01-23 22:32:48.06	98.73	26.59	-42.0	-46.0	12.2	2.52e-04	0	61	0	624951296	55	5744
2026-01-23 22:32:49.07	99.04	26.57	-42.0	-45.9	12.2	2.63e-04	0	61	0	627048448	55	5680
2026-01-23 22:32:50.08	99.35	26.55	-41.8	-45.5	12.6	1.39e-04	0	61	0	629145600	55	5454
2026-01-23 22:32:51.09	99.66	26.53	-41.7	-45.4	12.7	8.54e-05	0	61	0	630194176	55	5353
2026-01-23 22:32:52.10	99.97	26.50	-41.5	-45.0	13.1	4.57e-05	0	61	0	632291328	55	5117
2026-01-23 22:32:53.11	100.27	26.48	-41.5	-44.9	13.2	2.13e-05	0	61	0	634388480	54	5354
2026-01-23 22:32:54.12	100.58	26.45	-41.6	-45.1	13.1	2.59e-05	0	61	0	636485632	54	5496
2026-01-23 22:32:55.13	100.89	26.43	-41.8	-45.5	12.6	6.40e-05	0	61	0	638582784	54	5757
2026-01-23 22:32:56.14	101.19	26.40	-42.2	-46.3	11.8	1.62e-04	0	61	0	639631360	54	6309
2026-01-23 22:32:57.15	101.50	26.37	-42.3	-46.6	11.5	1.05e-03	0	61	0	641728512	55	6185
2026-01-23 22:32:58.16	101.81	26.34	-42.5	-46.9	11.2	1.41e-03	0	61	0	643825664	55	6364
2026-01-23 22:32:59.17	102.11	26.31	-42.5	-46.9	11.1	1.62e-03	0	61	0	645922816	55	6414
2026-01-23 22:33:00.18	102.41	26.28	-42.3	-46.6	11.4	1.16e-03	0	61	0	648019968	55	6169
2026-01-23 22:33:01.18	102.72	26.25	-42.1	-46.1	11.9	4.56e-04	0	61	0	649068544	55	5851
2026-01-23 22:33:02.19	103.02	26.22	-41.8	-45.6	12.5	2.35e-04	0	61	0	651165696	55	5479
2026-01-23 22:33:03.20	103.32	26.19	-41.8	-45.4	12.7	8.08e-05	0	61	0	653262848	55	5382
2026-01-23 22:33:04.21	103.62	26.16	-41.5	-45.0	13.1	5.49e-05	0	61	0	655360000	55	5121
2026-01-23 22:33:05.22	103.92	26.12	-41.3	-44.6	13.6	2.36e-05	0	61	0	657457152	54	5185
2026-01-23 22:33:06.23	104.22	26.09	-41.2	-44.3	13.9	8.30e-06	0	61	0	658505728	54	5002
2026-01-23 22:33:07.24	104.52	26.05	-40.9	-43.9	14.3	1.50e-06	0	61	0	660602880	53	5044
2026-01-23 22:33:08.25	104.82	26.01	-40.9	-43.8	14.3	1.50e-06	0	61	0	662700032	53	5021
2026-01-23 22:33:09.26	105.12	25.98	-41.1	-44.2	14.0	7.00e-07	0	61	0	664797184	53	5220
2026-01-23 22:33:10.27	105.42	25.94	-41.1	-44.3	13.9	7.00e-07	0	61	0	666894336	53	5287
2026-01-23 22:33:11.28	105.72	25.90	-41.4	-44.8	13.3	1.14e-05	0	61	0	667942912	53	5643
2026-01-23 22:33:12.29	106.01	25.86	-41.7	-45.2	13.0	5.26e-05	0	61	0	670040064	54	5556
2026-01-23 22:33:13.30	106.31	25.82	-41.7	-45.2	12.9	5.56e-05	0	61	0	672137216	54	5587
2026-01-23 22:33:14.31	106.61	25.78	-41.5	-44.9	13.2	3.12e-05	0	61	0	674234368	54	5390
2026-01-23 22:33:15.32	106.90	25.74	-41.2	-44.3	13.8	6.80e-06	0	61	0	676331520	54	5038
2026-01-23 22:33:16.33	107.19	25.69	-41.0	-44.1	14.0	4.50e-06	0	61	0	677380096	54	4890
2026-01-23 22:33:17.34	107.49	25.65	-40.9	-43.8	14.3	7.00e-07	0	61	0	679477248	53	5035
2026-01-23 22:33:18.35	107.78	25.61	-40.9	-43.9	14.2	0.00e+00	0	61	0	681574400	53	5079
2026-01-23 22:33:19.36	108.07	25.56	-40.9	-43.9	14.3	7.00e-07	0	61	0	683671552	53	5054
2026-01-23 22:33:20.37	108.36	25.52	-40.8	-43.7	14.4	2.20e-06	0	61	0	685768704	53	4972
2026-01-23 22:33:21.38	108.65	25.47	-40.8	-43.7	14.4	0.00e+00	0	61	0	687865856	53	4983
2026-01-23 22:33:22.39	108.94	25.42	-40.5	-43.3	14.9	0.00e+00	0	61	0	688914432	53	4709
2026-01-23 22:33:23.40	109.23	25.38	-40.3	-43.0	15.2	0.00e+00	0	61	0	691011584	52	4817
2026-01-23 22:33:24.41	109.51	25.33	-40.3	-42.9	15.2	0.00e+00	0	61	0	693108736	52	4811
2026-01-23 22:33:25.42	109.80	25.28	-40.5	-43.2	15.0	0.00e+00	0	61	0	695205888	52	4946
2026-01-23 22:33:26.43	110.09	25.23	-40.6	-43.4	14.7	7.00e-07	0	61	0	697303040	52	5096
2026-01-23 22:33:27.44	110.37	25.18	-41.0	-44.1	14.0	7.00e-07	0	61	0	698351616	52	5491
2026-01-23 22:33:28.45	110.65	25.13	-41.1	-44.3	13.8	3.00e-06	0	61	0	700448768	52	5627
2026-01-23 22:33:29.46	110.94	25.08	-41.1	-44.3	13.8	7.00e-07	0	61	0	702545920	53	5308
2026-01-23 22:33:30.47	111.22	25.03	-41.0	-44.0	14.1	1.50e-06	0	61	0	704643072	53	5129
2026-01-23 22:33:31.48	111.50	24.98	-40.8	-43.7	14.5	7.00e-07	0	61	0	706740224	53	4947
2026-01-23 22:33:32.49	111.78	24.92	-40.7	-43.5	14.6	7.00e-07	0	61	0	707788800	53	4862
2026-01-23 22:33:33.50	112.06	24.87	-40.3	-43.0	15.2	0.00e+00	0	61	0	709885952	52	4824
2026-01-23 22:33:34.51	112.34	24.81	-40.4	-43.1	15.0	0.00e+00	0	61	0	711983104	52	4912
2026-01-23 22:33:35.52	112.61	24.76	-40.4	-43.1	15.0	0.00e+00	0	61	0	714080256	52	4878
2026-01-23 22:33:36.53	112.89	24.70	-40.6	-43.4	14.7	0.00e+00	0	61	0	716177408	52	5073
2026-01-23 22:33:37.54	113.17	24.65	-40.4	-43.1	15.0	7.00e-07	0	61	0	717225984	52	4920
2026-01-23 22:33:38.55	113.44	24.59	-40.6	-43.4	14.7	0.00e+00	0	61	0	719323136	52	5088
2026-01-23 22:33:39.56	113.71	24.53	-40.7	-43.7	14.5	0.00e+00	0	61	0	721420288	52	5230
2026-01-23 22:33:40.57	113.99	24.48	-40.8	-43.8	14.3	1.50e-06	0	61	0	723517440	52	5310
2026-01-23 22:33:41.58	114.26	24.42	-40.9	-43.9	14.2	2.20e-06	0	61	0	725614592	52	5363
2026-01-23 22:33:42.59	114.53	24.36	-40.8	-43.8	14.3	2.20e-06	0	61	0	726663168	52	5294
2026-01-23 22:33:43.60	114.80	24.30	-40.7	-43.6	14.5	0.00e+00	0	61	0	728760320	52	5187
2026-01-23 22:33:44.61	115.07	24.24	-40.6	-43.4	14.8	0.00e+00	0	61	0	730857472	52	5043
2026-01-23 22:33:45.62	115.33	24.18	-40.5	-43.2	14.9	0.00e+00	0	61	0	732954624	52	4970
2026-01-23 22:33:46.63	115.60	24.12	-40.5	-43.2	14.9	0.00e+00	0	61	0	735051776	52	4974
2026-01-23 22:33:47.64	115.87	24.06	-40.6	-43.4	14.6	7.00e-07	0	61	0	736100352	52	5097
2026-01-23 22:33:48.65	116.13	24.00	-40.8	-43.7	14.4	7.00e-07	0	61	0	738197504	52	5251
2026-01-23 22:33:49.66	116.39	23.93	-40.8	-43.8	14.3	1.50e-06	0	61	0	740294656	52	5338
2026-01-23 22:33:50.66	116.65	23.87	-40.8	-43.8	14.3	7.00e-07	0	61	0	742391808	52	5298
2026-01-23 22:33:51.67	116.91	23.81	-40.8	-43.7	14.5	7.00e-07	0	61	0	744488960	52	5236
2026-01-23 22:33:52.68	117.17	23.75	-40.8	-43.7	14.4	0.00e+00	0	61	0	745537536	52	5278
2026-01-23 22:33:53.69	117.43	23.68	-40.8	-43.8	14.3	0.00e+00	0	61	0	747634688	52	5328
2026-01-23 22:33:54.70	117.69	23.62	-41.1	-44.3	13.8	2.20e-06	0	61	0	749731840	52	5598
2026-01-23 22:33:55.71	117.95	23.55	-41.4	-44.9	13.2	1.37e-05	0	61	0	751828992	53	5696
2026-01-23 22:33:56.72	118.21	23.49	-41.5	-44.9	13.1	3.05e-05	0	61	0	753926144	53	5710
2026-01-23 22:33:57.73	118.46	23.42	-41.6	-45.2	12.9	6.10e-05	0	61	0	756023296	53	5891
2026-01-23 22:33:58.74	118.72	23.36	-41.4	-44.8	13.3	4.11e-05	0	61	0	757071872	53	5625
2026-01-23 22:33:59.75	118.97	23.29	-41.3	-44.6	13.5	1.14e-05	0	61	0	759169024	53	5511
2026-01-23 22:34:00.76	119.22	23.22	-41.0	-44.2	13.9	6.80e-06	0	61	0	761266176	53	5235
2026-01-23 22:34:01.77	119.47	23.15	-40.9	-44.0	14.0	4.50e-06	0	61	0	763363328	53	5111
2026-01-23 22:34:02.78	119.72	23.09	-40.9	-43.9	14.2	3.00e-06	0	61	0	765460480	53	5068
2026-01-23 22:34:03.79	119.97	23.02	-40.9	-43.9	14.2	2.20e-06	0	61	0	766509056	53	5065
2026-01-23 22:34:04.80	120.22	22.95	-40.9	-43.9	14.2	7.00e-07	0	61	0	768606208	53	5090
2026-01-23 22:34:05.81	120.46	22.88	-40.9	-43.9	14.2	2.20e-06	0	61	0	770703360	53	5069
2026-01-23 22:34:06.82	120.71	22.81	-40.9	-43.9	14.1	1.50e-06	0	61	0	772800512	53	5095
2026-01-23 22:34:07.83	120.96	22.74	-40.8	-43.8	14.3	0.00e+00	0	61	0	774897664	53	5017
2026-01-23 22:34:08.84	121.20	22.67	-41.1	-44.2	13.9	1.50e-06	0	61	0	775946240	53	5261
2026-01-23 22:34:09.84	121.44	22.60	-41.2	-44.5	13.6	5.30e-06	0	61	0	778043392	53	5404
2026-01-23 22:34:10.85	121.68	22.53	-41.2	-44.5	13.5	3.80e-06	0	61	0	780140544	53	5461
2026-01-23 22:34:11.86	121.92	22.46	-41.3	-44.6	13.4	1.52e-05	0	61	0	782237696	53	5525
2026-01-23 22:34:12.87	122.16	22.39	-41.3	-44.7	13.4	6.10e-06	0	61	0	784334848	53	5532
2026-01-23 22:34:13.88	122.40	22.32	-41.2	-44.4	13.7	1.14e-05	0	61	0	785383424	53	5369
2026-01-23 22:34:14.89	122.64	22.25	-41.1	-44.2	13.8	1.06e-05	0	61	0	787480576	53	5257
2026-01-23 22:34:15.90	122.87	22.17	-41.1	-44.4	13.7	5.30e-06	0	61	0	789577728	53	5343
2026-01-23 22:34:16.91	123.11	22.10	-41.3	-44.7	13.3	1.06e-05	0	61	0	791674880	53	5558
2026-01-23 22:34:17.92	123.34	22.03	-41.4	-44.8	13.2	1.29e-05	0	61	0	793772032	53	5630
2026-01-23 22:34:18.93	123.57	21.96	-41.5	-45.0	13.0	2.59e-05	0	61	0	794820608	53	5755
2026-01-23 22:34:19.94	123.81	21.88	-41.4	-44.9	13.2	1.83e-05	0	61	0	796917760	53	5659
2026-01-23 22:34:20.95	124.04	21.81	-41.2	-44.5	13.5	1.06e-05	0	61	0	799014912	53	5460
2026-01-23 22:34:21.96	124.27	21.74	-41.2	-44.5	13.5	1.14e-05	0	61	0	801112064	53	5424
2026-01-23 22:34:22.97	124.49	21.66	-41.2	-44.5	13.6	1.37e-05	0	61	0	803209216	53	5436
2026-01-23 22:34:23.98	124.72	21.59	-41.4	-44.8	13.2	1.22e-05	0	61	0	804257792	53	5654
2026-01-23 22:34:24.99	124.95	21.51	-41.6	-45.4	12.7	5.64e-05	0	61	0	806354944	53	5999
2026-01-23 22:34:26.00	125.17	21.44	-41.9	-45.8	12.2	1.78e-04	0	61	0	808452096	54	5967
2026-01-23 22:34:27.00	125.40	21.37	-41.9	-45.9	12.1	3.33e-04	0	61	0	810549248	54	6000
2026-01-23 22:34:28.01	125.62	21.29	-41.9	-45.9	12.2	2.20e-04	0	61	0	812646400	54	6004
2026-01-23 22:34:29.02	125.84	21.22	-41.6	-45.3	12.7	1.23e-04	0	61	0	813694976	54	5623
2026-01-23 22:34:30.03	126.06	21.14	-41.2	-44.5	13.6	2.51e-05	0	61	0	815792128	54	5101
2026-01-23 22:34:31.04	126.28	21.06	-41.1	-44.3	13.8	1.22e-05	0	61	0	817889280	54	5003
2026-01-23 22:34:32.05	126.50	20.99	-40.8	-43.8	14.2	2.20e-06	0	61	0	819986432	53	5011
2026-01-23 22:34:33.06	126.72	20.91	-40.8	-43.7	14.3	7.00e-07	0	61	0	822083584	53	4972
2026-01-23 22:34:34.07	126.94	20.84	-41.0	-44.1	13.9	1.50e-06	0	61	0	823132160	53	5178
2026-01-23 22:34:35.08	127.15	20.76	-41.1	-44.4	13.7	2.20e-06	0	61	0	825229312	53	5359
2026-01-23 22:34:36.09	127.37	20.68	-41.4	-44.9	13.1	1.37e-05	0	61	0	827326464	53	5680
2026-01-23 22:34:37.10	127.58	20.61	-41.4	-45.0	13.0	1.98e-05	0	61	0	829423616	53	5741
2026-01-23 22:34:38.11	127.79	20.53	-41.4	-45.0	13.0	3.50e-05	0	61	0	831520768	53	5735
2026-01-23 22:34:39.12	128.01	20.45	-41.6	-45.2	12.8	6.86e-05	0	61	0	833617920	53	5892
2026-01-23 22:34:40.13	128.22	20.38	-41.8	-45.6	12.4	9.30e-05	0	61	0	834666496	54	5804
2026-01-23 22:34:41.14	128.43	20.30	-41.9	-45.8	12.2	1.89e-04	0	61	0	836763648	54	5965
2026-01-23 22:34:42.15	128.64	20.22	-41.9	-45.8	12.1	2.64e-04	0	61	0	838860800	54	5983
2026-01-23 22:34:43.16	128.84	20.14	-41.9	-46.0	12.0	2.93e-04	0	61	0	840957952	54	6075
2026-01-23 22:34:44.17	129.05	20.06	-41.7	-45.4	12.5	1.28e-04	0	61	0	843055104	54	5704
2026-01-23 22:34:45.17	129.25	19.99	-41.4	-44.9	13.0	4.34e-05	0	61	0	844103680	54	5386
2026-01-23 22:34:46.18	129.46	19.91	-41.2	-44.4	13.5	1.98e-05	0	61	0	846200832	54	5092
2026-01-23 22:34:47.19	129.66	19.83	-40.7	-43.7	14.2	3.80e-06	0	61	0	848297984	53	4964
2026-01-23 22:34:48.20	129.86	19.75	-40.7	-43.6	14.3	1.50e-06	0	61	0	850395136	53	4914
2026-01-23 22:34:49.21	130.07	19.68	-40.7	-43.6	14.3	1.83e-05	0	61	0	852492288	52	5216
2026-01-23 22:34:50.22	130.27	19.60	-40.8	-43.9	14.0	3.73e-05	0	61	0	853540864	52	5364
2026-01-23 22:34:51.23	130.47	19.52	-41.2	-44.5	13.4	3.67e-04	0	61	0	855638016	52	5780
2026-01-23 22:34:52.24	130.67	19.44	-41.5	-45.1	12.7	1.55e-03	0	61	0	857735168	53	5841
2026-01-23 22:34:53.25	130.86	19.36	-41.8	-45.7	12.1	9.28e-04	0	61	0	859832320	54	5871
2026-01-23 22:34:54.26	131.06	19.28	-41.9	-45.8	12.0	6.29e-04	0	61	0	861929472	54	5980
2026-01-23 22:34:55.27	131.26	19.20	-41.7	-45.5	12.4	5.00e-04	0	61	0	862978048	54	5751
2026-01-23 22:34:56.28	131.45	19.12	-41.4	-45.2	12.7	6.87e-04	0	61	0	865075200	53	5865
2026-01-23 22:34:57.29	131.64	19.05	-41.3	-44.8	12.8	9.75e-04	0	61	0	867172352	53	5653
2026-01-23 22:34:58.30	131.84	18.97	-41.2	-44.5	13.4	2.04e-04	0	61	0	869269504	52	5782
2026-01-23 22:34:59.31	132.03	18.89	-41.2	-44.7	12.8	2.73e-04	0	61	0	871366656	53	5542
2026-01-23 22:35:00.32	132.22	18.81	-41.3	-44.9	12.9	1.78e-04	0	61	0	872415232	53	5661
2026-01-23 22:35:01.33	132.41	18.73	-41.2	-44.7	13.0	1.01e-03	0	61	0	874512384	52	5868
2026-01-23 22:35:02.34	132.60	18.65	-41.3	-44.8	13.1	6.74e-04	0	61	0	876609536	53	5634
2026-01-23 22:35:03.35	132.79	18.57	-41.2	-44.6	13.3	1.09e-04	0	61	0	878706688	52	5812
2026-01-23 22:35:04.36	132.97	18.49	-41.0	-44.3	13.5	1.92e-03	0	61	0	880803840	52	5653
2026-01-23 22:35:05.37	133.16	18.41	-40.8	-44.0	13.9	1.55e-02	0	61	0	881852416	52	5427
2026-01-23 22:35:06.38	133.34	18.33	-40.6	-43.8	14.0	5.48e-04	0	61	0	883949568	52	5306
2026-01-23 22:35:07.39	133.53	18.25	-40.7	-43.8	14.0	2.73e-04	0	61	0	886046720	52	5316
2026-01-23 22:35:08.40	133.71	18.17	-40.8	-43.9	14.0	2.44e-04	0	61	0	888143872	52	5344
2026-01-23 22:35:09.41	133.89	18.09	-40.9	-44.1	13.7	3.04e-02	0	61	0	890241024	52	5475
2026-01-23 22:35:10.41	134.07	18.01	-41.0	-44.3	12.8	2.89e-03	0	61	0	891289600	52	5608
2026-01-23 22:35:11.42	134.25	17.94	-40.9	-44.5	11.4	5.41e-03	0	61	0	893386752	52	5764
2026-01-23 22:35:12.43	134.43	17.86	-41.2	-44.8	13.1	9.95e-04	0	61	0	895483904	53	5598
2026-01-23 22:35:13.44	134.61	17.78	-41.2	-44.6	13.2	3.78e-04	0	61	0	897581056	53	5486
2026-01-23 22:35:14.45	134.79	17.70	-41.2	-44.6	13.2	3.88e-04	0	61	0	899678208	52	5820
2026-01-23 22:35:15.46	134.97	17.62	-41.0	-44.6	13.2	3.84e-04	0	61	0	901775360	53	5499
2026-01-23 22:35:16.47	135.14	17.54	-41.1	-44.8	13.0	6.25e-04	0	61	0	902823936	53	5604
2026-01-23 22:35:17.48	135.32	17.46	-41.3	-44.9	12.9	8.67e-03	0	61	0	904921088	53	5696
2026-01-23 22:35:18.49	135.49	17.38	-41.3	-45.2	12.6	4.29e-04	0	61	0	907018240	53	5875
2026-01-23 22:35:19.49	135.66	17.30	-41.4	-45.7	12.0	1.53e-03	0	61	0	909115392	53	6206
2026-01-23 22:35:20.50	135.83	17.22	-41.9	-46.1	11.6	1.02e-03	0	61	0	911212544	54	6187
2026-01-23 22:35:21.51	136.01	17.14	-41.9	-46.2	11.6	1.13e-03	0	61	0	912261120	54	6241
2026-01-23 22:35:22.53	136.18	17.06	-41.8	-45.9	11.8	1.11e-03	0	61	0	914358272	54	6032
2026-01-23 22:35:23.53	136.35	16.98	-41.7	-45.6	12.1	6.48e-04	0	61	0	916455424	54	5838
2026-01-23 22:35:24.54	136.51	16.90	-41.5	-45.3	12.4	4.32e-04	0	61	0	918552576	54	5652
2026-01-23 22:35:25.55	136.68	16.82	-41.3	-45.0	12.8	2.42e-04	0	61	0	920649728	53	5743
2026-01-23 22:35:26.56	136.85	16.74	-41.3	-44.9	12.8	5.86e-04	0	61	0	921698304	53	5674
2026-01-23 22:35:27.57	137.02	16.66	-41.1	-44.5	13.3	7.65e-03	0	61	0	923795456	52	5773
2026-01-23 22:35:28.58	137.18	16.58	-41.1	-44.5	13.2	9.38e-05	0	61	0	925892608	52	5778
2026-01-23 22:35:29.59	137.35	16.50	-41.0	-44.4	13.4	9.07e-05	0	61	0	927989760	52	5699
2026-01-23 22:35:30.60	137.51	16.43	-41.0	-44.4	13.3	5.11e-05	0	61	0	930086912	52	5715
2026-01-23 22:35:31.61	137.67	16.35	-41.0	-44.4	13.4	1.61e-04	0	61	0	931135488	52	5659
2026-01-23 22:35:32.62	137.83	16.27	-40.9	-44.2	13.5	1.40e-03	0	61	0	933232640	52	5591
2026-01-23 22:35:33.63	138.00	16.19	-40.9	-44.1	13.6	2.03e-04	0	61	0	935329792	52	5508
2026-01-23 22:35:34.64	138.16	16.11	-40.8	-44.0	13.8	3.20e-05	0	61	0	937426944	52	5414
2026-01-23 22:35:35.65	138.32	16.03	-40.7	-43.9	13.9	2.36e-04	0	61	0	939524096	52	5352
2026-01-23 22:35:36.66	138.47	15.95	-40.7	-43.9	13.8	2.67e-05	0	61	0	940572672	52	5355
2026-01-23 22:35:37.67	138.63	15.87	-40.8	-43.9	13.8	2.89e-05	0	61	0	942669824	52	5393
2026-01-23 22:35:38.68	138.79	15.79	-40.8	-44.2	13.5	2.28e-05	0	61	0	944766976	52	5562
2026-01-23 22:35:39.69	138.95	15.71	-41.0	-44.3	13.4	3.12e-05	0	61	0	946864128	52	5647
2026-01-23 22:35:40.70	139.10	15.63	-41.1	-44.6	13.2	1.83e-05	0	61	0	948961280	52	5791
2026-01-23 22:35:41.70	139.25	15.56	-41.2	-44.8	13.0	3.66e-05	0	61	0	950009856	52	5944
2026-01-23 22:35:42.71	139.41	15.48	-41.3	-45.0	12.7	6.94e-05	0	61	0	952107008	53	5757
2026-01-23 22:35:43.72	139.56	15.40	-41.4	-45.2	12.5	8.39e-05	0	61	0	954204160	53	5888
2026-01-23 22:35:44.73	139.71	15.32	-41.6	-45.6	12.0	1.79e-04	0	61	0	956301312	53	6182
2026-01-23 22:35:45.74	139.86	15.24	-41.6	-45.6	12.1	2.45e-04	0	61	0	958398464	53	6176
2026-01-23 22:35:46.75	140.02	15.16	-41.7	-45.7	12.0	2.65e-04	0	61	0	959447040	53	6239
2026-01-23 22:35:47.76	140.17	15.08	-41.7	-45.8	11.8	3.90e-04	0	61	0	961544192	53	6327
2026-01-23 22:35:48.77	140.31	15.01	-41.7	-45.7	11.9	4.60e-04	0	61	0	963641344	54	5912
2026-01-23 22:35:49.78	140.46	14.93	-41.6	-45.6	12.1	3.63e-04	0	61	0	965738496	54	5804
2026-01-23 22:35:50.79	140.61	14.85	-41.6	-45.5	12.2	3.01e-04	0	61	0	967835648	54	5771
2026-01-23 22:35:51.80	140.76	14.77	-41.4	-45.3	12.4	1.98e-04	0	61	0	969932800	54	5613
2026-01-23 22:35:52.81	140.90	14.69	-41.4	-45.2	12.5	1.61e-04	0	61	0	970981376	54	5558
2026-01-23 22:35:53.82	141.05	14.62	-41.4	-45.2	12.6	1.17e-04	0	61	0	973078528	54	5529
2026-01-23 22:35:54.83	141.19	14.54	-41.3	-44.9	12.7	6.94e-05	0	61	0	975175680	54	5397
2026-01-23 22:35:55.84	141.34	14.46	-41.2	-44.8	12.8	5.87e-05	0	61	0	977272832	54	5331
2026-01-23 22:35:56.85	141.48	14.38	-41.2	-44.8	12.9	5.26e-05	0	61	0	979369984	54	5291
2026-01-23 22:35:57.86	141.62	14.31	-41.1	-44.7	13.0	4.34e-05	0	61	0	980418560	54	5254
2026-01-23 22:35:58.87	141.77	14.23	-41.2	-44.8	12.9	4.57e-05	0	61	0	982515712	54	5304
2026-01-23 22:35:59.88	141.91	14.15	-41.1	-44.7	13.0	4.50e-05	0	61	0	984612864	54	5238
2026-01-23 22:36:00.89	142.05	14.07	-41.1	-44.5	13.1	3.05e-05	0	61	0	986710016	54	5147
2026-01-23 22:36:01.90	142.19	14.00	-41.0	-44.5	13.2	3.43e-05	0	61	0	988807168	53	5414
2026-01-23 22:36:02.91	142.33	13.92	-41.0	-44.4	13.3	9.10e-06	0	61	0	989855744	53	5345
2026-01-23 22:36:03.91	142.46	13.84	-40.8	-44.2	13.4	1.06e-05	0	61	0	991952896	53	5235
2026-01-23 22:36:04.92	142.60	13.77	-40.9	-44.3	13.4	1.75e-05	0	61	0	994050048	53	5283
2026-01-23 22:36:05.93	142.74	13.69	-40.9	-44.4	13.3	1.37e-05	0	61	0	996147200	53	5350
2026-01-23 22:36:06.94	142.87	13.61	-41.1	-44.6	13.0	2.51e-05	0	61	0	998244352	53	5473
2026-01-23 22:36:07.95	143.01	13.53	-41.1	-44.7	12.9	4.65e-05	0	61	0	999292928	53	5547
2026-01-23 22:36:08.96	143.15	13.46	-41.3	-45.0	12.6	9.46e-05	0	61	0	1001390080	53	5725
2026-01-23 22:36:09.97	143.28	13.38	-41.4	-45.2	12.4	1.46e-04	0	61	0	1003487232	53	5863
2026-01-23 22:36:10.98	143.41	13.31	-41.5	-45.4	12.2	1.70e-04	0	61	0	1005584384	53	6048
2026-01-23 22:36:11.99	143.55	13.23	-41.7	-45.8	11.7	2.72e-04	0	61	0	1007681536	53	6312
2026-01-23 22:36:13.00	143.68	13.15	-41.8	-46.0	11.5	6.48e-04	0	61	0	1008730112	54	6102
2026-01-23 22:36:14.01	143.81	13.08	-41.8	-46.0	11.5	6.86e-04	0	61	0	1010827264	54	6125
2026-01-23 22:36:15.02	143.94	13.00	-41.7	-46.0	11.5	7.74e-04	0	61	0	1012924416	54	6100
2026-01-23 22:36:16.02	144.07	12.93	-41.6	-45.7	11.8	6.04e-04	0	61	0	1015021568	54	5858
2026-01-23 22:36:17.03	144.20	12.85	-41.6	-45.7	11.8	4.55e-04	0	61	0	1017118720	54	5917
2026-01-23 22:36:18.04	144.33	12.77	-41.6	-45.7	11.8	5.00e-04	0	61	0	1018167296	54	5870
2026-01-23 22:36:19.06	144.46	12.70	-41.6	-45.6	12.0	2.99e-04	0	61	0	1020264448	54	5801
2026-01-23 22:36:20.06	144.58	12.62	-41.4	-45.4	12.2	2.22e-04	0	61	0	1022361600	54	5669
2026-01-23 22:36:21.07	144.71	12.55	-41.4	-45.4	12.2	2.54e-04	0	61	0	1024458752	54	5670
2026-01-23 22:36:22.08	144.84	12.47	-41.4	-45.2	12.3	2.01e-04	0	61	0	1026555904	54	5588
2026-01-23 22:36:23.09	144.96	12.40	-41.5	-45.5	11.9	2.59e-04	0	61	0	1027604480	54	5746
2026-01-23 22:36:24.10	145.09	12.32	-41.6	-45.6	11.9	4.90e-04	0	61	0	1029701632	54	5847
2026-01-23 22:36:25.11	145.21	12.25	-41.7	-45.9	11.6	5.29e-04	0	61	0	1031798784	54	6017
2026-01-23 22:36:26.12	145.34	12.17	-41.8	-46.1	11.4	8.77e-04	0	61	0	1033895936	54	6176
2026-01-23 22:36:27.13	145.46	12.10	-41.8	-46.2	11.3	9.99e-04	0	61	0	1035993088	54	6232
2026-01-23 22:36:28.14	145.58	12.02	-41.9	-46.5	10.9	1.20e-03	0	61	0	1037041664	54	6447
2026-01-23 22:36:29.15	145.71	11.95	-41.9	-46.5	10.8	2.37e-03	0	61	0	1039138816	54	6482
2026-01-23 22:36:30.16	145.83	11.87	-41.9	-46.4	11.0	1.98e-03	0	61	0	1041235968	54	6369
2026-01-23 22:36:31.17	145.95	11.80	-41.9	-46.6	10.8	2.23e-03	0	61	0	1043333120	54	6533
2026-01-23 22:36:32.18	146.07	11.73	-41.8	-46.3	11.1	1.94e-03	0	61	0	1045430272	54	6322
2026-01-23 22:36:33.19	146.19	11.65	-41.8	-46.4	11.0	1.49e-03	0	61	0	1046478848	54	6367
2026-01-23 22:36:34.20	146.31	11.58	-41.9	-46.4	11.0	2.02e-03	0	61	0	1048576000	54	6404
2026-01-23 22:36:35.21	146.43	11.50	-41.8	-46.2	11.1	1.45e-03	0	61	0	1050673152	54	6269
2026-01-23 22:36:36.22	146.54	11.43	-41.8	-46.2	11.2	1.72e-03	0	61	0	1052770304	54	6260
2026-01-23 22:36:37.23	146.66	11.36	-41.7	-46.0	11.3	1.64e-03	0	61	0	1054867456	54	6106
2026-01-23 22:36:38.24	146.78	11.28	-41.6	-45.8	11.5	8.24e-04	0	61	0	1055916032	54	5972
2026-01-23 22:36:39.24	146.89	11.21	-41.7	-46.0	11.3	1.20e-03	0	61	0	1058013184	54	6113
2026-01-23 22:36:40.25	147.01	11.14	-41.7	-46.1	11.2	1.26e-03	0	61	0	1060110336	54	6195
2026-01-23 22:36:41.26	147.13	11.06	-41.8	-46.5	10.8	1.79e-03	0	61	0	1062207488	54	6447
2026-01-23 22:36:42.27	147.24	10.99	-41.9	-46.6	10.6	2.83e-03	0	61	0	1064304640	54	6560
2026-01-23 22:36:43.28	147.35	10.92	-41.8	-46.5	10.8	3.01e-03	0	62	0	1066401792	54	6475
2026-01-23 22:36:44.29	147.47	10.85	-41.9	-46.6	10.6	2.97e-03	0	61	0	1067450368	54	6559
2026-01-23 22:36:45.30	147.58	10.77	-41.8	-46.4	10.8	3.10e-03	0	61	0	1069547520	54	6410
2026-01-23 22:36:46.31	147.69	10.70	-41.8	-46.4	10.8	2.26e-03	0	61	0	1071644672	54	6402
2026-01-23 22:36:47.32	147.81	10.63	-41.8	-46.4	10.9	2.43e-03	0	61	0	1073741824	54	6372
2026-01-23 22:36:48.33	147.92	10.56	-41.7	-46.2	11.1	1.88e-03	0	61	0	1075838976	54	6218
2026-01-23 22:36:49.34	148.03	10.48	-41.7	-46.3	11.0	1.63e-03	0	61	0	1076887552	54	6286
2026-01-23 22:36:50.35	148.14	10.41	-41.7	-46.2	11.0	1.89e-03	0	61	0	1078984704	54	6256
2026-01-23 22:36:51.36	148.25	10.34	-41.5	-45.9	11.4	1.35e-03	0	61	0	1081081856	54	6001
2026-01-23 22:36:52.37	148.36	10.27	-41.6	-46.1	11.1	1.35e-03	0	61	0	1083179008	54	6133
2026-01-23 22:36:53.38	148.47	10.20	-41.5	-45.8	11.4	1.39e-03	0	61	0	1085276160	54	5974
2026-01-23 22:36:54.39	148.57	10.12	-41.6	-46.0	11.2	1.22e-03	0	61	0	1086324736	54	6116
2026-01-23 22:36:55.40	148.68	10.05	-41.6	-46.2	11.0	1.66e-03	0	61	0	1088421888	54	6218
2026-01-23 22:36:56.40	148.79	9.98	-41.7	-46.4	10.8	2.15e-03	0	61	0	1090519040	54	6363
2026-01-23 22:36:57.41	148.90	9.91	-41.8	-46.6	10.6	2.69e-03	0	61	0	1092616192	54	6507
2026-01-23 22:36:58.42	149.00	9.84	-41.8	-46.7	10.4	5.22e-03	0	61	0	1094713344	54	6581
2026-01-23 22:36:59.43	149.11	9.77	-41.8	-46.7	10.3	5.10e-03	0	61	0	1095761920	54	6640
2026-01-23 22:37:00.44	149.21	9.70	-42.0	-47.3	9.8	7.56e-03	0	61	0	1097859072	54	7044
2026-01-23 22:37:01.45	149.32	9.63	-42.0	-47.3	9.7	9.48e-03	0	61	0	1099956224	54	7077
2026-01-23 22:37:02.46	149.42	9.56	-42.1	-47.5	9.5	1.07e-02	0	61	0	1102053376	54	7256
2026-01-23 22:37:03.47	149.53	9.49	-42.2	-47.7	9.2	1.64e-02	0	61	0	1104150528	54	7446
2026-01-23 22:37:04.48	149.63	9.41	-42.2	-47.8	9.2	1.85e-02	0	61	0	1105199104	54	7476
2026-01-23 22:37:05.49	149.73	9.34	-42.1	-47.8	9.1	1.80e-02	0	61	0	1107296256	54	7488
2026-01-23 22:37:06.50	149.83	9.27	-42.1	-47.7	9.2	2.29e-02	0	62	0	1109393408	54	7436
2026-01-23 22:37:07.51	149.94	9.20	-42.1	-47.7	9.1	2.18e-02	0	61	0	1111490560	54	7450
2026-01-23 22:37:08.52	150.04	9.13	-42.1	-47.8	9.1	2.52e-02	0	61	0	1113587712	54	7477
2026-01-23 22:37:09.53	150.14	9.06	-41.9	-47.6	9.3	1.90e-02	0	61	0	1114636288	54	7330
2026-01-23 22:37:10.54	150.24	8.99	-42.0	-47.4	9.5	1.73e-02	0	61	0	1116733440	54	7186
2026-01-23 22:37:11.55	150.34	8.93	-42.0	-47.4	9.4	1.60e-02	0	61	0	1118830592	54	7144
2026-01-23 22:37:12.56	150.44	8.86	-41.9	-47.1	9.7	1.23e-02	0	61	0	1120927744	54	6931
2026-01-23 22:37:13.57	150.54	8.79	-41.8	-47.1	9.8	8.67e-03	0	61	0	1123024896	54	6900
2026-01-23 22:37:14.58	150.64	8.72	-41.7	-46.8	10.1	8.55e-03	0	61	0	1124073472	54	6651
2026-01-23 22:37:15.59	150.74	8.65	-41.7	-46.6	10.2	7.10e-03	0	61	0	1126170624	54	6528
2026-01-23 22:37:16.60	150.83	8.58	-41.7	-46.6	10.2	5.64e-03	0	61	0	1128267776	54	6549
2026-01-23 22:37:17.61	150.93	8.51	-41.6	-46.5	10.3	4.78e-03	0	61	0	1130364928	54	6488
2026-01-23 22:37:18.62	151.03	8.44	-41.6	-46.4	10.4	4.47e-03	0	61	0	1132462080	54	6419
2026-01-23 22:37:19.63	151.12	8.37	-41.5	-46.2	10.5	4.74e-03	0	61	0	1134559232	54	6265
2026-01-23 22:37:20.64	151.22	8.30	-41.5	-46.3	10.5	3.93e-03	0	61	0	1135607808	54	6282
2026-01-23 22:37:21.65	151.32	8.24	-41.5	-46.3	10.5	3.69e-03	0	61	0	1137704960	54	6301
2026-01-23 22:37:22.66	151.41	8.17	-41.4	-46.2	10.6	3.63e-03	0	61	0	1139802112	54	6203
2026-01-23 22:37:23.67	151.51	8.10	-41.4	-46.1	10.6	2.98e-03	0	61	0	1141899264	54	6199
2026-01-23 22:37:24.68	151.60	8.03	-41.5	-46.3	10.4	4.17e-03	0	61	0	1143996416	54	6320
2026-01-23 22:37:25.69	151.69	7.96	-43.5	-54.5	4.3	5.14e-03	0	61	0	1145044992	57	13581
2026-01-23 22:37:26.70	151.79	7.90	-44.5	-59.0	3.8	1.49e+00	0	61	104	1146093568	59	20331
