passes_logs/2026/01/23/R2.0S_Moscow/R2.0S_Moscow__20260123_112709_NOAA_21_JPSS-2_rec.log

#Pass ID: 20260123_112709_NOAA 21 (JPSS-2)
#Satellite: NOAA 21 (JPSS-2)
#Configuration: NOAA-21
#almurnet v.1.7.20251203
#Start time: 2026-01-23 11:27:22

#Version: 2.2.20231116
#Station: R2.0S_Moscow
#Location: 37.707566 lon 55.798166 lat
#TLE: 1 54234U 22150A   26022.41365820  .00000211  00000+0  12084-3 0  9990
#TLE: 2 54234  98.7507 323.2240 0000658 234.5287 125.5828 14.19537645165864

#Time	Az	El	Level	Level2	SNR	BER	BlckErr	Temp	State	Recorded	gain1	gain2
2026-01-23 11:27:22.01	207.98	2.71	-44.6	-56.7	3.8	8.46e-01	0	62	0	0	60	14843
2026-01-23 11:27:23.01	208.06	2.77	-45.3	-57.7	3.8	1.49e+00	0	62	104	0	62	14848
2026-01-23 11:27:24.02	208.13	2.83	-45.3	-57.8	3.8	1.49e+00	0	62	104	0	62	14882
2026-01-23 11:27:25.03	208.21	2.88	-45.2	-57.7	3.8	1.49e+00	0	62	104	0	62	14862
2026-01-23 11:27:26.04	208.28	2.94	-45.2	-57.6	3.8	1.49e+00	0	62	104	0	62	14707
2026-01-23 11:27:27.05	208.36	3.00	-45.2	-57.6	3.8	1.49e+00	0	62	104	0	62	14601
2026-01-23 11:27:28.06	208.44	3.05	-45.2	-57.6	3.8	1.49e+00	0	62	104	0	62	14613
2026-01-23 11:27:29.07	208.51	3.11	-45.0	-57.5	3.8	1.49e+00	0	62	104	0	62	14427
2026-01-23 11:27:30.08	208.59	3.17	-44.9	-57.4	3.8	1.49e+00	0	62	104	0	61	15168
2026-01-23 11:27:31.09	208.67	3.23	-44.8	-57.3	3.8	1.49e+00	0	62	104	0	61	14902
2026-01-23 11:27:32.10	208.75	3.28	-44.5	-57.1	3.8	1.49e+00	0	62	104	0	60	15440
2026-01-23 11:27:33.11	208.82	3.34	-44.3	-56.5	3.8	1.49e+00	0	62	104	0	59	15317
2026-01-23 11:27:34.12	208.90	3.40	-44.2	-56.4	3.8	1.49e+00	0	62	104	0	59	15197
2026-01-23 11:27:35.13	208.98	3.46	-44.2	-56.4	3.8	1.49e+00	0	62	104	0	59	15138
2026-01-23 11:27:36.15	209.06	3.51	-44.2	-56.4	3.8	1.49e+00	0	62	104	0	59	15183
2026-01-23 11:27:37.15	209.14	3.57	-44.2	-56.4	3.8	1.49e+00	0	62	104	0	59	15141
2026-01-23 11:27:38.17	209.22	3.63	-44.2	-56.4	3.8	1.49e+00	0	62	104	0	59	15170
2026-01-23 11:27:39.18	209.30	3.69	-44.2	-56.4	3.8	1.49e+00	0	62	104	0	59	15147
2026-01-23 11:27:40.19	209.38	3.75	-44.2	-56.4	3.8	1.49e+00	0	62	104	0	59	15182
2026-01-23 11:27:41.20	209.46	3.80	-44.1	-56.4	3.8	1.49e+00	0	62	104	0	59	15099
2026-01-23 11:27:42.21	209.54	3.86	-44.2	-56.4	3.8	1.49e+00	0	62	104	0	59	15175
2026-01-23 11:27:43.22	209.62	3.92	-44.1	-56.4	3.8	1.49e+00	0	62	104	0	59	15122
2026-01-23 11:27:44.23	209.70	3.98	-44.1	-56.4	3.8	1.49e+00	0	62	104	0	59	15112
2026-01-23 11:27:45.24	209.79	4.04	-44.1	-56.4	3.8	1.49e+00	0	62	104	0	59	15126
2026-01-23 11:27:46.25	209.87	4.09	-44.2	-56.4	3.8	1.49e+00	0	62	104	0	59	15135
2026-01-23 11:27:47.26	209.95	4.15	-44.1	-56.4	3.8	1.49e+00	0	62	104	0	59	15075
2026-01-23 11:27:48.27	210.03	4.21	-44.1	-56.4	3.8	1.49e+00	0	62	104	0	59	15104
2026-01-23 11:27:49.29	210.12	4.27	-44.2	-56.4	3.8	1.49e+00	0	62	104	0	59	15065
2026-01-23 11:27:50.29	210.20	4.33	-44.1	-56.4	3.8	1.49e+00	0	62	104	0	59	15112
2026-01-23 11:27:51.31	210.28	4.39	-44.1	-56.4	3.8	1.49e+00	0	62	104	0	59	15105
2026-01-23 11:27:52.32	210.37	4.45	-44.1	-56.4	3.8	1.49e+00	0	62	104	0	59	15099
2026-01-23 11:27:53.33	210.45	4.51	-44.1	-56.4	3.8	1.49e+00	0	62	104	0	59	15098
2026-01-23 11:27:54.34	210.54	4.57	-44.1	-56.4	3.8	1.49e+00	0	62	104	0	59	15060
2026-01-23 11:27:55.35	210.62	4.62	-44.1	-56.4	3.8	1.49e+00	0	62	104	0	59	15072
2026-01-23 11:27:56.35	210.71	4.68	-44.1	-56.4	3.8	1.49e+00	0	62	104	0	59	15054
2026-01-23 11:27:57.36	210.79	4.74	-44.1	-56.4	3.8	1.49e+00	0	62	104	0	59	15068
2026-01-23 11:27:58.37	210.88	4.80	-44.1	-56.4	3.8	1.49e+00	0	62	104	0	59	15101
2026-01-23 11:27:59.38	210.96	4.86	-44.1	-56.4	3.8	1.49e+00	0	62	104	0	59	15114
2026-01-23 11:28:00.39	211.05	4.92	-44.1	-56.3	3.8	1.49e+00	0	62	104	0	59	15034
2026-01-23 11:28:01.40	211.14	4.98	-44.1	-56.3	3.8	1.49e+00	0	62	104	0	59	15009
2026-01-23 11:28:02.41	211.22	5.04	-44.1	-56.3	3.8	1.49e+00	0	62	104	0	59	15038
2026-01-23 11:28:03.42	211.31	5.10	-44.1	-56.3	3.8	1.49e+00	0	62	104	0	59	14910
2026-01-23 11:28:04.43	211.40	5.16	-44.1	-56.3	3.8	1.49e+00	0	62	104	0	59	14893
2026-01-23 11:28:05.44	211.49	5.22	-44.1	-56.2	3.8	1.49e+00	0	62	104	0	59	14826
2026-01-23 11:28:06.45	211.58	5.28	-44.1	-56.2	3.8	1.49e+00	0	62	104	0	59	14732
2026-01-23 11:28:07.46	211.67	5.34	-44.1	-56.2	3.8	1.49e+00	0	62	104	0	59	14806
2026-01-23 11:28:08.47	211.75	5.40	-44.1	-56.1	3.8	1.49e+00	0	62	104	0	59	14674
2026-01-23 11:28:09.48	211.84	5.46	-44.1	-56.1	3.8	1.49e+00	0	62	104	0	59	14582
2026-01-23 11:28:10.49	211.93	5.52	-44.1	-56.0	3.8	1.49e+00	0	62	104	0	59	14529
2026-01-23 11:28:11.50	212.03	5.58	-44.1	-56.1	3.8	1.49e+00	0	62	104	0	59	14576
2026-01-23 11:28:12.51	212.12	5.64	-44.1	-56.0	3.8	1.49e+00	0	62	104	0	59	14400
2026-01-23 11:28:13.52	212.21	5.70	-44.1	-56.0	3.8	1.49e+00	0	62	104	0	59	14406
2026-01-23 11:28:14.53	212.30	5.76	-44.1	-55.9	3.8	1.49e+00	0	62	104	0	59	14349
2026-01-23 11:28:15.54	212.39	5.82	-44.1	-55.9	3.8	1.49e+00	0	62	104	0	59	14283
2026-01-23 11:28:16.55	212.48	5.89	-44.0	-55.7	3.8	1.49e+00	0	62	104	0	59	13971
2026-01-23 11:28:17.56	212.58	5.95	-44.0	-55.6	3.8	1.49e+00	0	62	104	0	59	13728
2026-01-23 11:28:18.57	212.67	6.01	-44.0	-55.3	3.8	1.49e+00	0	62	104	0	59	13414
2026-01-23 11:28:19.58	212.76	6.07	-44.0	-55.1	3.8	1.49e+00	0	62	104	0	59	13027
2026-01-23 11:28:20.59	212.86	6.13	-43.9	-54.9	3.8	1.49e+00	0	62	104	0	59	12747
2026-01-23 11:28:21.60	212.95	6.19	-43.9	-54.5	3.8	1.49e+00	0	62	104	0	59	12219
2026-01-23 11:28:22.61	213.04	6.25	-43.8	-53.7	4.0	1.49e+00	0	62	104	0	59	11115
2026-01-23 11:28:23.62	213.14	6.31	-43.8	-53.6	3.9	1.47e+00	0	62	104	0	59	10920
2026-01-23 11:28:24.63	213.23	6.37	-43.7	-52.5	4.3	1.46e+00	0	62	104	0	59	9619
2026-01-23 11:28:25.64	213.33	6.44	-43.6	-52.0	4.0	1.40e+00	0	62	104	0	59	9098
2026-01-23 11:28:26.65	213.43	6.50	-43.5	-51.4	4.7	1.16e+00	0	62	104	0	59	8547
2026-01-23 11:28:27.66	213.52	6.56	-43.4	-50.7	5.0	7.04e-01	0	62	0	0	58	8322
2026-01-23 11:28:28.67	213.62	6.62	-43.3	-50.2	5.4	5.42e-01	0	62	0	3145728	58	7837
2026-01-23 11:28:29.68	213.72	6.68	-43.2	-49.9	5.5	4.89e-01	0	62	0	6291456	58	7617
2026-01-23 11:28:30.69	213.81	6.75	-43.1	-49.7	5.7	4.23e-01	0	62	0	9437184	58	7412
2026-01-23 11:28:31.70	213.91	6.81	-43.1	-49.7	5.7	4.12e-01	0	62	0	12582912	58	7382
2026-01-23 11:28:32.71	214.01	6.87	-43.1	-49.5	5.8	3.92e-01	0	62	0	15728640	58	7273
2026-01-23 11:28:33.71	214.11	6.93	-43.1	-49.5	5.8	3.84e-01	0	62	0	18874368	58	7260
2026-01-23 11:28:34.72	214.21	6.99	-43.1	-49.5	5.8	3.86e-01	0	62	0	22020096	58	7256
2026-01-23 11:28:35.73	214.31	7.06	-43.2	-49.9	5.6	4.30e-01	0	62	0	25165824	58	7554
2026-01-23 11:28:36.74	214.41	7.12	-43.3	-50.3	5.3	5.21e-01	0	62	0	28311552	58	7955
2026-01-23 11:28:37.75	214.51	7.18	-43.3	-50.4	5.2	5.81e-01	0	62	0	31457280	58	8011
2026-01-23 11:28:38.76	214.61	7.24	-43.3	-50.3	5.3	5.63e-01	0	62	0	34603008	58	7922
2026-01-23 11:28:39.77	214.71	7.31	-43.2	-50.0	5.5	5.16e-01	0	62	0	37748736	58	7667
2026-01-23 11:28:40.78	214.81	7.37	-43.0	-49.3	5.9	3.71e-01	0	62	0	40894464	58	7079
2026-01-23 11:28:41.79	214.91	7.43	-42.8	-48.6	6.5	2.48e-01	0	62	0	44040192	57	6905
2026-01-23 11:28:42.81	215.02	7.50	-42.5	-47.7	7.3	1.61e-01	0	62	0	47185920	57	6249
2026-01-23 11:28:43.82	215.12	7.56	-42.1	-46.7	8.3	6.66e-02	0	62	0	50331648	56	5888
2026-01-23 11:28:44.83	215.22	7.62	-41.8	-46.0	8.7	3.83e-02	0	62	0	53477376	55	5785
2026-01-23 11:28:45.84	215.33	7.68	-41.3	-45.1	9.7	1.44e-02	0	62	0	56623104	54	5495
2026-01-23 11:28:46.85	215.43	7.75	-41.2	-44.8	10.0	7.84e-03	0	62	0	59768832	54	5331
2026-01-23 11:28:47.86	215.54	7.81	-41.0	-44.5	10.3	5.56e-03	0	62	0	62914560	54	5157
2026-01-23 11:28:48.87	215.64	7.87	-40.9	-44.3	10.6	3.30e-03	0	62	0	66060288	53	5298
2026-01-23 11:28:49.88	215.75	7.94	-40.9	-44.2	10.6	3.74e-03	0	62	0	69206016	53	5272
2026-01-23 11:28:50.89	215.85	8.00	-40.9	-44.4	10.5	3.30e-03	0	62	0	72351744	53	5370
2026-01-23 11:28:51.90	215.96	8.07	-44.3	-53.9	4.0	1.48e+00	0	62	104	74448896	59	11376
2026-01-23 11:28:52.91	216.07	8.13	-43.8	-54.5	3.9	5.10e-01	3	62	104	74448896	58	12839
2026-01-23 11:28:53.92	216.18	8.19	-42.2	-46.7	8.6	4.51e-03	0	62	0	74448896	54	6595
2026-01-23 11:28:54.93	216.28	8.26	-41.9	-46.1	9.0	2.20e-02	0	62	0	77594624	55	5807
2026-01-23 11:28:55.94	216.39	8.32	-43.2	-49.6	5.8	4.09e-03	0	62	0	80740352	56	8255
2026-01-23 11:28:56.95	216.50	8.38	-40.8	-44.1	11.0	1.30e-02	0	62	0	83886080	53	5167
2026-01-23 11:28:57.96	216.61	8.45	-40.8	-44.0	11.0	1.61e-03	0	62	0	87031808	53	5158
2026-01-23 11:28:58.97	216.72	8.51	-40.8	-43.9	11.1	1.73e-03	0	62	0	90177536	53	5090
2026-01-23 11:28:59.97	216.83	8.58	-40.6	-43.7	11.3	1.19e-03	0	62	0	93323264	53	4980
2026-01-23 11:29:00.97	216.94	8.64	-40.4	-43.4	11.6	7.07e-04	0	62	0	96468992	52	5072
2026-01-23 11:29:01.98	217.05	8.70	-40.5	-43.5	11.6	6.24e-04	0	62	0	99614720	52	5122
2026-01-23 11:29:02.99	217.16	8.77	-40.5	-43.5	11.6	6.96e-04	0	62	0	102760448	52	5112
2026-01-23 11:29:04.00	217.27	8.83	-40.4	-43.4	11.7	6.51e-04	0	62	0	105906176	52	5053
2026-01-23 11:29:05.01	217.39	8.90	-40.5	-43.5	11.6	6.58e-04	0	62	0	109051904	52	5129
2026-01-23 11:29:06.02	217.50	8.96	-40.5	-43.5	11.6	6.75e-04	0	62	0	112197632	52	5139
2026-01-23 11:29:07.02	217.61	9.03	-40.5	-43.4	11.7	6.08e-04	0	62	0	115343360	52	5098
2026-01-23 11:29:08.03	217.73	9.09	-40.5	-43.4	11.7	6.01e-04	0	62	0	118489088	52	5083
2026-01-23 11:29:09.04	217.84	9.16	-40.4	-43.3	11.8	5.08e-04	0	62	0	121634816	52	5032
2026-01-23 11:29:10.06	217.96	9.22	-40.4	-43.2	11.9	4.00e-04	0	62	0	124780544	52	4972
2026-01-23 11:29:11.07	218.07	9.29	-40.4	-43.3	11.9	3.66e-04	0	62	0	127926272	52	5015
2026-01-23 11:29:12.08	218.19	9.35	-40.5	-43.3	11.8	3.77e-04	0	62	0	131072000	52	5028
2026-01-23 11:29:13.09	218.30	9.42	-40.5	-43.3	11.8	4.03e-04	0	62	0	134217728	52	5041
2026-01-23 11:29:14.10	218.42	9.48	-40.4	-43.2	12.0	3.43e-04	0	62	0	137363456	52	4962
2026-01-23 11:29:15.10	218.54	9.55	-40.3	-43.1	12.1	2.49e-04	0	62	0	140509184	52	4908
2026-01-23 11:29:16.11	218.66	9.61	-40.3	-43.1	12.2	2.30e-04	0	62	0	143654912	52	4897
2026-01-23 11:29:17.13	218.78	9.68	-40.4	-43.2	12.1	2.30e-04	0	62	0	146800640	52	4939
2026-01-23 11:29:18.14	218.89	9.74	-40.3	-43.0	12.2	2.24e-04	0	62	0	149946368	52	4865
2026-01-23 11:29:19.14	219.01	9.81	-40.3	-43.1	12.2	2.29e-04	0	62	0	153092096	52	4895
2026-01-23 11:29:20.15	219.13	9.87	-40.3	-43.0	12.3	1.65e-04	0	62	0	156237824	52	4832
2026-01-23 11:29:21.16	219.25	9.94	-40.4	-43.1	12.2	2.17e-04	0	62	0	159383552	52	4902
2026-01-23 11:29:22.17	219.37	10.01	-40.4	-43.1	12.2	2.24e-04	0	62	0	162529280	52	4906
2026-01-23 11:29:23.18	219.50	10.07	-40.3	-43.1	12.2	1.98e-04	0	62	0	165675008	52	4885
2026-01-23 11:29:24.19	219.62	10.14	-40.4	-43.1	12.2	1.92e-04	0	62	0	168820736	52	4892
2026-01-23 11:29:25.20	219.74	10.20	-40.3	-43.1	12.3	1.90e-04	0	62	0	171966464	52	4881
2026-01-23 11:29:26.21	219.86	10.27	-40.4	-43.2	12.2	2.17e-04	0	62	0	175112192	52	4929
2026-01-23 11:29:27.22	219.99	10.34	-40.3	-43.0	12.4	1.55e-04	0	62	0	178257920	52	4823
2026-01-23 11:29:28.24	220.11	10.40	-40.3	-43.0	12.4	1.33e-04	0	62	0	181403648	52	4815
2026-01-23 11:29:29.25	220.24	10.47	-40.2	-42.9	12.5	1.14e-04	0	62	0	184549376	52	4770
2026-01-23 11:29:30.25	220.36	10.53	-40.2	-42.9	12.5	1.42e-04	0	62	0	187695104	52	4780
2026-01-23 11:29:31.26	220.49	10.60	-40.2	-42.8	12.6	8.92e-05	0	62	0	191889408	52	4709
2026-01-23 11:29:32.28	220.62	10.67	-40.1	-42.7	12.7	7.70e-05	0	62	0	195035136	52	4665
2026-01-23 11:29:33.29	220.74	10.73	-40.1	-42.7	12.7	7.47e-05	0	62	0	197132288	52	4666
2026-01-23 11:29:34.29	220.87	10.80	-40.1	-42.7	12.7	7.47e-05	0	62	0	200278016	52	4700
2026-01-23 11:29:35.30	221.00	10.87	-40.1	-42.7	12.7	8.23e-05	0	62	0	203423744	52	4685
2026-01-23 11:29:36.31	221.13	10.93	-40.1	-42.6	12.8	6.17e-05	0	62	0	207618048	52	4647
2026-01-23 11:29:37.32	221.26	11.00	-40.1	-42.6	12.8	6.02e-05	0	62	0	210763776	52	4628
2026-01-23 11:29:38.33	221.39	11.07	-40.1	-42.6	12.8	5.11e-05	0	62	0	213909504	52	4633
2026-01-23 11:29:39.34	221.52	11.13	-40.1	-42.6	12.8	7.40e-05	0	62	0	217055232	52	4647
2026-01-23 11:29:40.35	221.65	11.20	-40.1	-42.7	12.8	6.17e-05	0	62	0	220200960	52	4653
2026-01-23 11:29:41.36	221.78	11.27	-40.0	-42.6	12.9	4.73e-05	0	62	0	222298112	52	4608
2026-01-23 11:29:42.37	221.91	11.33	-40.0	-42.5	12.9	4.95e-05	0	62	0	226492416	52	4571
2026-01-23 11:29:43.38	222.04	11.40	-40.0	-42.5	12.9	4.27e-05	0	62	0	229638144	52	4577
2026-01-23 11:29:44.39	222.18	11.47	-40.0	-42.5	12.9	4.19e-05	0	62	0	232783872	52	4595
2026-01-23 11:29:45.40	222.31	11.53	-40.0	-42.5	13.0	3.50e-05	0	62	0	235929600	51	4840
2026-01-23 11:29:46.41	222.45	11.60	-40.0	-42.5	13.1	3.96e-05	0	62	0	239075328	51	4841
2026-01-23 11:29:47.41	222.58	11.67	-40.0	-42.5	13.0	3.28e-05	0	62	0	242221056	51	4849
2026-01-23 11:29:48.42	222.72	11.73	-40.1	-42.6	13.0	4.57e-05	0	62	0	245366784	51	4881
2026-01-23 11:29:49.43	222.85	11.80	-40.1	-42.7	12.9	3.96e-05	0	62	0	248512512	51	4937
2026-01-23 11:29:50.44	222.99	11.87	-40.1	-42.6	13.0	4.11e-05	0	62	0	251658240	51	4884
2026-01-23 11:29:51.45	223.13	11.94	-40.1	-42.6	13.0	5.64e-05	0	62	0	254803968	51	4898
2026-01-23 11:29:52.46	223.26	12.00	-40.0	-42.4	13.2	2.67e-05	0	62	0	257949696	51	4790
2026-01-23 11:29:53.47	223.40	12.07	-40.0	-42.4	13.2	1.60e-05	0	62	0	261095424	51	4779
2026-01-23 11:29:54.48	223.54	12.14	-40.0	-42.4	13.2	2.97e-05	0	62	0	264241152	51	4809
2026-01-23 11:29:55.49	223.68	12.21	-40.0	-42.4	13.2	1.67e-05	0	62	0	267386880	51	4800
2026-01-23 11:29:56.50	223.82	12.27	-40.0	-42.4	13.2	2.59e-05	0	62	0	270532608	51	4789
2026-01-23 11:29:57.50	223.96	12.34	-40.0	-42.4	13.2	2.97e-05	0	62	0	273678336	51	4810
2026-01-23 11:29:58.52	224.11	12.41	-39.9	-42.4	13.3	2.05e-05	0	62	0	276824064	51	4763
2026-01-23 11:29:59.53	224.25	12.48	-39.9	-42.3	13.3	2.13e-05	0	62	0	279969792	51	4749
2026-01-23 11:30:00.54	224.39	12.54	-39.9	-42.2	13.4	1.06e-05	0	62	0	283115520	51	4683
2026-01-23 11:30:01.55	224.54	12.61	-39.9	-42.2	13.4	9.10e-06	0	62	0	286261248	51	4673
2026-01-23 11:30:02.55	224.68	12.68	-39.9	-42.2	13.4	1.44e-05	0	62	0	289406976	51	4690
2026-01-23 11:30:03.56	224.82	12.75	-39.9	-42.3	13.4	1.52e-05	0	62	0	292552704	51	4712
2026-01-23 11:30:04.57	224.97	12.81	-39.8	-42.2	13.5	1.06e-05	0	62	0	295698432	51	4671
2026-01-23 11:30:05.58	225.12	12.88	-39.9	-42.2	13.4	1.22e-05	0	62	0	298844160	51	4671
2026-01-23 11:30:06.59	225.26	12.95	-39.9	-42.2	13.4	1.52e-05	0	62	0	301989888	51	4685
2026-01-23 11:30:07.60	225.41	13.02	-39.8	-42.1	13.5	1.06e-05	0	62	0	305135616	51	4643
2026-01-23 11:30:08.61	225.56	13.08	-39.7	-42.0	13.7	5.30e-06	0	62	0	308281344	51	4561
2026-01-23 11:30:09.62	225.71	13.15	-39.8	-42.1	13.6	8.30e-06	0	62	0	311427072	51	4629
2026-01-23 11:30:10.63	225.86	13.22	-39.8	-42.1	13.6	9.90e-06	0	62	0	314572800	51	4615
2026-01-23 11:30:11.64	226.01	13.29	-39.8	-42.1	13.5	6.10e-06	0	62	0	317718528	51	4634
2026-01-23 11:30:12.65	226.16	13.35	-39.8	-42.1	13.6	1.52e-05	0	62	0	320864256	51	4604
2026-01-23 11:30:13.66	226.31	13.42	-39.8	-42.0	13.6	1.22e-05	0	62	0	324009984	51	4584
2026-01-23 11:30:14.66	226.46	13.49	-39.8	-42.1	13.5	9.90e-06	0	62	0	327155712	51	4638
2026-01-23 11:30:15.67	226.62	13.56	-39.9	-42.3	13.4	1.29e-05	0	62	0	330301440	51	4706
2026-01-23 11:30:16.68	226.77	13.62	-39.9	-42.2	13.5	5.30e-06	0	62	0	333447168	51	4690
2026-01-23 11:30:17.69	226.92	13.69	-39.9	-42.3	13.4	1.06e-05	0	62	0	336592896	51	4709
2026-01-23 11:30:18.70	227.08	13.76	-39.9	-42.2	13.4	1.06e-05	0	62	0	339738624	51	4695
2026-01-23 11:30:19.71	227.23	13.83	-39.8	-42.2	13.6	1.06e-05	0	62	0	342884352	51	4655
2026-01-23 11:30:20.72	227.39	13.90	-39.9	-42.2	13.5	8.30e-06	0	62	0	346030080	51	4669
2026-01-23 11:30:21.72	227.55	13.96	-39.9	-42.2	13.5	9.10e-06	0	62	0	349175808	51	4689
2026-01-23 11:30:22.74	227.71	14.03	-39.9	-42.2	13.5	9.10e-06	0	62	0	352321536	51	4665
2026-01-23 11:30:23.75	227.86	14.10	-39.8	-42.2	13.4	1.14e-05	0	62	0	355467264	51	4696
2026-01-23 11:30:24.76	228.02	14.17	-39.9	-42.3	13.4	1.67e-05	0	62	0	358612992	51	4713
2026-01-23 11:30:25.76	228.18	14.23	-40.0	-42.3	13.4	1.14e-05	0	62	0	361758720	51	4752
2026-01-23 11:30:26.77	228.34	14.30	-40.0	-42.4	13.4	1.90e-05	0	62	0	364904448	51	4771
2026-01-23 11:30:27.78	228.50	14.37	-40.0	-42.4	13.3	1.75e-05	0	62	0	368050176	51	4782
2026-01-23 11:30:28.79	228.67	14.44	-40.0	-42.3	13.4	1.98e-05	0	62	0	371195904	51	4744
2026-01-23 11:30:29.80	228.83	14.50	-40.0	-42.4	13.4	1.52e-05	0	62	0	374341632	51	4766
2026-01-23 11:30:30.81	228.99	14.57	-39.9	-42.2	13.5	9.10e-06	0	62	0	377487360	51	4690
2026-01-23 11:30:31.82	229.16	14.64	-39.8	-42.1	13.5	1.37e-05	0	62	0	380633088	51	4646
2026-01-23 11:30:32.83	229.32	14.71	-39.9	-42.2	13.5	6.10e-06	0	62	0	383778816	51	4672
2026-01-23 11:30:33.84	229.49	14.77	-39.8	-42.2	13.5	9.10e-06	0	62	0	386924544	51	4666
2026-01-23 11:30:34.85	229.65	14.84	-39.8	-42.1	13.6	6.80e-06	0	62	0	390070272	51	4631
2026-01-23 11:30:35.86	229.82	14.91	-39.8	-42.1	13.6	7.60e-06	0	62	0	393216000	51	4638
2026-01-23 11:30:36.87	229.99	14.98	-39.9	-42.2	13.5	6.80e-06	0	62	0	396361728	51	4682
2026-01-23 11:30:37.88	230.16	15.04	-39.9	-42.2	13.5	1.37e-05	0	62	0	399507456	51	4689
2026-01-23 11:30:38.89	230.33	15.11	-39.8	-42.1	13.6	4.50e-06	0	62	0	402653184	51	4630
2026-01-23 11:30:39.90	230.50	15.18	-39.8	-42.1	13.7	5.30e-06	0	62	0	405798912	51	4605
2026-01-23 11:30:40.91	230.67	15.25	-39.8	-42.1	13.6	6.80e-06	0	62	0	408944640	51	4635
2026-01-23 11:30:41.92	230.84	15.31	-39.9	-42.2	13.4	8.30e-06	0	62	0	412090368	51	4705
2026-01-23 11:30:42.93	231.01	15.38	-39.9	-42.2	13.5	6.80e-06	0	62	0	415236096	51	4682
2026-01-23 11:30:43.94	231.18	15.45	-39.9	-42.2	13.5	8.30e-06	0	62	0	418381824	51	4665
2026-01-23 11:30:44.95	231.36	15.51	-39.9	-42.2	13.5	6.80e-06	0	62	0	421527552	51	4697
2026-01-23 11:30:45.97	231.53	15.58	-39.9	-42.3	13.4	1.14e-05	0	62	0	424673280	51	4735
2026-01-23 11:30:46.98	231.71	15.65	-39.9	-42.3	13.4	1.06e-05	0	62	0	427819008	51	4731
2026-01-23 11:30:47.99	231.89	15.71	-39.9	-42.2	13.5	1.44e-05	0	62	0	430964736	51	4682
2026-01-23 11:30:49.00	232.06	15.78	-39.9	-42.2	13.5	1.29e-05	0	62	0	434110464	51	4679
2026-01-23 11:30:50.01	232.24	15.85	-39.8	-42.1	13.7	7.60e-06	0	62	0	437256192	51	4603
2026-01-23 11:30:51.02	232.42	15.91	-39.8	-42.0	13.7	3.00e-06	0	62	0	440401920	51	4592
2026-01-23 11:30:52.02	232.60	15.98	-39.8	-42.0	13.7	5.30e-06	0	62	0	443547648	51	4589
2026-01-23 11:30:53.03	232.78	16.05	-39.8	-42.1	13.7	4.50e-06	0	62	0	446693376	51	4627
2026-01-23 11:30:54.04	232.96	16.11	-39.8	-42.1	13.7	6.80e-06	0	62	0	449839104	51	4608
2026-01-23 11:30:55.06	233.14	16.18	-39.8	-42.0	13.7	5.30e-06	0	62	0	452984832	51	4588
2026-01-23 11:30:56.07	233.32	16.25	-39.8	-42.0	13.7	6.80e-06	0	62	0	456130560	51	4593
2026-01-23 11:30:57.07	233.50	16.31	-39.8	-42.0	13.7	9.10e-06	0	62	0	459276288	51	4591
2026-01-23 11:30:58.08	233.69	16.38	-39.8	-42.0	13.7	6.80e-06	0	62	0	462422016	51	4586
2026-01-23 11:30:59.09	233.87	16.44	-39.7	-41.9	13.8	3.80e-06	0	62	0	465567744	51	4519
2026-01-23 11:31:00.10	234.06	16.51	-39.6	-41.8	13.9	7.00e-07	0	62	0	468713472	51	4477
2026-01-23 11:31:01.11	234.24	16.57	-39.6	-41.9	13.9	4.50e-06	0	62	0	471859200	51	4494
2026-01-23 11:31:02.11	234.43	16.64	-39.6	-41.8	14.0	2.20e-06	0	62	0	475004928	51	4465
2026-01-23 11:31:03.12	234.62	16.70	-39.6	-41.8	14.0	7.60e-06	0	62	0	478150656	51	4447
2026-01-23 11:31:04.13	234.81	16.77	-39.6	-41.8	13.9	3.00e-06	0	62	0	481296384	51	4484
2026-01-23 11:31:05.14	235.00	16.83	-39.7	-41.9	13.9	6.10e-06	0	62	0	484442112	51	4496
2026-01-23 11:31:06.15	235.19	16.90	-39.6	-41.8	14.0	7.00e-07	0	62	0	487587840	51	4449
2026-01-23 11:31:07.16	235.38	16.96	-39.7	-41.9	13.9	2.20e-06	0	62	0	490733568	51	4500
2026-01-23 11:31:08.17	235.57	17.03	-39.7	-41.9	13.9	5.30e-06	0	62	0	493879296	51	4524
2026-01-23 11:31:09.18	235.76	17.09	-39.7	-41.8	14.0	3.00e-06	0	62	0	497025024	51	4489
2026-01-23 11:31:10.19	235.95	17.16	-39.6	-41.8	14.0	3.80e-06	0	62	0	500170752	51	4466
2026-01-23 11:31:11.20	236.15	17.22	-39.6	-41.9	13.9	3.80e-06	0	62	0	503316480	51	4496
2026-01-23 11:31:12.21	236.34	17.29	-39.6	-41.8	14.0	2.20e-06	0	62	0	506462208	51	4443
2026-01-23 11:31:13.22	236.54	17.35	-39.6	-41.8	14.0	7.00e-07	0	62	0	509607936	51	4446
2026-01-23 11:31:14.23	236.74	17.41	-39.6	-41.8	14.0	1.50e-06	0	62	0	512753664	51	4445
2026-01-23 11:31:15.24	236.93	17.48	-39.6	-41.8	14.0	2.20e-06	0	62	0	515899392	51	4450
2026-01-23 11:31:16.24	237.13	17.54	-39.7	-41.9	13.9	5.30e-06	0	62	0	519045120	51	4495
2026-01-23 11:31:17.25	237.33	17.60	-39.6	-41.8	14.0	3.80e-06	0	62	0	522190848	51	4478
2026-01-23 11:31:18.26	237.53	17.67	-39.6	-41.8	14.0	2.20e-06	0	62	0	525336576	51	4472
2026-01-23 11:31:19.27	237.73	17.73	-39.7	-41.9	13.9	5.30e-06	0	62	0	528482304	51	4498
2026-01-23 11:31:20.28	237.93	17.79	-39.7	-41.9	13.9	2.20e-06	0	62	0	531628032	51	4499
2026-01-23 11:31:21.29	238.13	17.85	-39.7	-41.9	13.9	4.50e-06	0	62	0	534773760	51	4532
2026-01-23 11:31:22.30	238.34	17.92	-39.7	-42.0	13.9	3.00e-06	0	62	0	537919488	51	4546
2026-01-23 11:31:23.31	238.54	17.98	-39.8	-42.1	13.8	3.80e-06	0	62	0	541065216	51	4603
2026-01-23 11:31:24.32	238.74	18.04	-39.8	-42.0	13.8	1.50e-06	0	62	0	544210944	51	4562
2026-01-23 11:31:25.33	238.95	18.10	-39.8	-42.1	13.8	3.00e-06	0	62	0	547356672	51	4600
2026-01-23 11:31:26.34	239.16	18.17	-39.7	-41.9	13.9	2.20e-06	0	62	0	550502400	51	4508
2026-01-23 11:31:27.35	239.36	18.23	-39.6	-41.8	14.0	3.80e-06	0	62	0	553648128	51	4483
2026-01-23 11:31:28.36	239.57	18.29	-39.6	-41.7	14.1	1.50e-06	0	62	0	557842432	51	4432
2026-01-23 11:31:29.37	239.78	18.35	-39.5	-41.7	14.1	1.50e-06	0	62	0	560988160	51	4410
2026-01-23 11:31:30.38	239.99	18.41	-39.6	-41.8	14.0	1.50e-06	0	62	0	563085312	51	4449
2026-01-23 11:31:31.39	240.20	18.47	-39.6	-41.7	14.0	7.00e-07	0	62	0	566231040	51	4440
2026-01-23 11:31:32.40	240.41	18.53	-39.6	-41.7	14.1	1.50e-06	0	62	0	569376768	51	4435
2026-01-23 11:31:33.41	240.62	18.59	-39.6	-41.8	14.0	1.50e-06	0	62	0	573571072	51	4459
2026-01-23 11:31:34.42	240.84	18.65	-39.7	-41.9	13.9	3.00e-06	0	62	0	576716800	51	4534
2026-01-23 11:31:35.43	241.05	18.71	-39.7	-42.0	13.9	2.20e-06	0	62	0	579862528	51	4549
2026-01-23 11:31:36.44	241.26	18.77	-39.8	-42.1	13.8	2.20e-06	0	62	0	583008256	51	4605
2026-01-23 11:31:37.45	241.48	18.83	-39.8	-42.1	13.7	8.30e-06	0	62	0	585105408	51	4614
2026-01-23 11:31:38.46	241.70	18.89	-39.8	-42.1	13.7	7.60e-06	0	62	0	588251136	51	4639
2026-01-23 11:31:39.47	241.91	18.95	-39.9	-42.2	13.6	8.30e-06	0	62	0	592445440	51	4659
2026-01-23 11:31:40.48	242.13	19.00	-39.9	-42.2	13.5	1.22e-05	0	62	0	595591168	51	4705
2026-01-23 11:31:41.48	242.35	19.06	-39.9	-42.2	13.6	6.80e-06	0	62	0	598736896	51	4685
2026-01-23 11:31:42.49	242.57	19.12	-39.9	-42.1	13.7	4.50e-06	0	62	0	601882624	51	4638
2026-01-23 11:31:43.50	242.79	19.18	-39.9	-42.1	13.7	6.80e-06	0	62	0	605028352	51	4633
2026-01-23 11:31:44.51	243.01	19.23	-39.8	-42.0	13.8	6.10e-06	0	62	0	608174080	51	4593
2026-01-23 11:31:45.52	243.23	19.29	-39.8	-42.0	13.8	7.60e-06	0	62	0	611319808	51	4575
2026-01-23 11:31:46.53	243.45	19.35	-39.8	-42.0	13.8	3.80e-06	0	62	0	614465536	51	4581
2026-01-23 11:31:47.54	243.68	19.40	-39.8	-42.1	13.7	6.10e-06	0	62	0	617611264	51	4599
2026-01-23 11:31:48.55	243.90	19.46	-39.9	-42.2	13.6	7.60e-06	0	62	0	620756992	51	4661
2026-01-23 11:31:49.56	244.12	19.52	-39.9	-42.2	13.5	9.10e-06	0	62	0	623902720	51	4693
2026-01-23 11:31:50.57	244.35	19.57	-39.9	-42.2	13.6	1.22e-05	0	62	0	627048448	51	4677
2026-01-23 11:31:51.58	244.58	19.63	-39.9	-42.2	13.5	8.30e-06	0	62	0	630194176	51	4704
2026-01-23 11:31:52.59	244.80	19.68	-39.9	-42.1	13.6	8.30e-06	0	62	0	633339904	51	4646
2026-01-23 11:31:53.60	245.03	19.74	-39.7	-42.0	13.8	3.80e-06	0	62	0	636485632	51	4557
2026-01-23 11:31:54.61	245.26	19.79	-39.7	-41.9	13.9	3.80e-06	0	62	0	639631360	51	4536
2026-01-23 11:31:55.62	245.49	19.84	-39.7	-41.9	13.9	3.00e-06	0	62	0	642777088	51	4529
2026-01-23 11:31:56.63	245.72	19.90	-39.6	-41.8	14.0	3.80e-06	0	62	0	645922816	51	4443
2026-01-23 11:31:57.64	245.95	19.95	-39.6	-41.8	14.1	3.80e-06	0	62	0	649068544	51	4451
2026-01-23 11:31:58.65	246.18	20.00	-39.7	-42.0	13.8	9.90e-06	0	62	0	652214272	51	4546
2026-01-23 11:31:59.65	246.42	20.06	-39.6	-41.8	14.0	2.20e-06	0	62	0	655360000	51	4474
2026-01-23 11:32:00.66	246.65	20.11	-39.7	-42.0	13.8	7.00e-07	0	62	0	658505728	51	4548
2026-01-23 11:32:01.67	246.88	20.16	-39.8	-42.0	13.8	3.80e-06	0	62	0	661651456	51	4588
2026-01-23 11:32:02.68	247.12	20.21	-39.8	-42.0	13.8	5.30e-06	0	63	0	664797184	51	4593
2026-01-23 11:32:03.69	247.35	20.26	-39.7	-42.0	13.8	3.80e-06	0	62	0	667942912	51	4549
2026-01-23 11:32:04.71	247.59	20.31	-39.7	-41.9	13.9	6.10e-06	0	62	0	671088640	51	4536
2026-01-23 11:32:05.72	247.83	20.36	-39.7	-41.9	13.9	3.80e-06	0	62	0	674234368	51	4532
2026-01-23 11:32:06.73	248.07	20.41	-39.6	-41.8	14.0	2.20e-06	0	62	0	677380096	51	4458
2026-01-23 11:32:07.73	248.31	20.46	-39.7	-41.8	14.0	7.00e-07	0	62	0	680525824	51	4486
2026-01-23 11:32:08.74	248.55	20.51	-39.6	-41.7	14.1	3.00e-06	0	62	0	683671552	51	4433
2026-01-23 11:32:09.75	248.79	20.56	-39.5	-41.7	14.1	1.50e-06	0	62	0	686817280	51	4399
2026-01-23 11:32:10.76	249.03	20.61	-39.6	-41.8	14.1	3.00e-06	0	62	0	689963008	51	4477
2026-01-23 11:32:11.77	249.27	20.65	-39.7	-41.9	13.9	2.20e-06	0	62	0	693108736	51	4505
2026-01-23 11:32:12.79	249.51	20.70	-39.6	-41.7	14.1	2.20e-06	0	62	0	696254464	51	4432
2026-01-23 11:32:13.79	249.75	20.75	-39.6	-41.7	14.1	2.20e-06	0	62	0	699400192	51	4428
2026-01-23 11:32:14.80	250.00	20.80	-39.5	-41.7	14.1	7.00e-07	0	62	0	702545920	51	4403
2026-01-23 11:32:15.81	250.24	20.84	-39.6	-41.7	14.1	3.00e-06	0	62	0	705691648	51	4414
2026-01-23 11:32:16.82	250.49	20.89	-39.5	-41.6	14.2	7.00e-07	0	62	0	708837376	51	4363
2026-01-23 11:32:17.83	250.74	20.93	-39.4	-41.5	14.3	7.00e-07	0	62	0	711983104	50	4580
2026-01-23 11:32:18.84	250.98	20.98	-39.4	-41.5	14.3	1.50e-06	0	62	0	715128832	50	4564
2026-01-23 11:32:19.85	251.23	21.02	-39.4	-41.5	14.3	0.00e+00	0	62	0	718274560	50	4586
2026-01-23 11:32:20.86	251.48	21.07	-39.5	-41.6	14.2	7.00e-07	0	62	0	721420288	50	4610
2026-01-23 11:32:21.87	251.73	21.11	-39.5	-41.7	14.2	1.50e-06	0	62	0	724566016	50	4653
2026-01-23 11:32:22.88	251.98	21.15	-39.5	-41.7	14.1	3.00e-06	0	62	0	727711744	50	4662
2026-01-23 11:32:23.89	252.23	21.19	-39.5	-41.6	14.2	7.00e-07	0	62	0	730857472	50	4639
2026-01-23 11:32:24.90	252.48	21.24	-39.5	-41.6	14.3	7.00e-07	0	62	0	734003200	50	4608
2026-01-23 11:32:25.91	252.73	21.28	-39.4	-41.5	14.4	7.00e-07	0	62	0	737148928	50	4549
2026-01-23 11:32:26.92	252.98	21.32	-39.3	-41.4	14.5	0.00e+00	0	62	0	740294656	50	4516
2026-01-23 11:32:27.93	253.23	21.36	-39.4	-41.4	14.4	0.00e+00	0	62	0	743440384	50	4535
2026-01-23 11:32:28.94	253.49	21.40	-39.3	-41.4	14.5	0.00e+00	0	62	0	746586112	50	4518
2026-01-23 11:32:29.95	253.74	21.44	-39.4	-41.4	14.4	1.50e-06	0	62	0	749731840	50	4526
2026-01-23 11:32:30.96	254.00	21.48	-39.4	-41.5	14.3	1.50e-06	0	62	0	752877568	50	4585
2026-01-23 11:32:31.97	254.25	21.52	-39.5	-41.7	14.2	1.50e-06	0	62	0	756023296	50	4654
2026-01-23 11:32:32.98	254.51	21.55	-39.5	-41.6	14.2	3.00e-06	0	62	0	759169024	50	4629
2026-01-23 11:32:33.98	254.76	21.59	-39.5	-41.7	14.2	7.00e-07	0	62	0	762314752	50	4654
2026-01-23 11:32:34.99	255.02	21.63	-39.5	-41.6	14.3	7.00e-07	0	62	0	765460480	50	4603
2026-01-23 11:32:36.00	255.28	21.66	-39.3	-41.3	14.5	0.00e+00	0	62	0	768606208	50	4489
2026-01-23 11:32:37.01	255.54	21.70	-39.2	-41.2	14.6	0.00e+00	0	62	0	771751936	50	4419
2026-01-23 11:32:38.02	255.79	21.73	-39.2	-41.2	14.6	0.00e+00	0	62	0	774897664	50	4429
2026-01-23 11:32:39.03	256.05	21.77	-39.3	-41.4	14.4	7.00e-07	0	62	0	778043392	50	4512
2026-01-23 11:32:40.04	256.31	21.80	-39.4	-41.5	14.3	1.50e-06	0	62	0	781189120	50	4548
2026-01-23 11:32:41.05	256.57	21.84	-39.5	-41.6	14.1	3.00e-06	0	62	0	784334848	50	4645
2026-01-23 11:32:42.06	256.84	21.87	-39.5	-41.7	14.2	1.50e-06	0	62	0	787480576	50	4656
2026-01-23 11:32:43.07	257.10	21.90	-39.5	-41.6	14.2	2.20e-06	0	62	0	790626304	50	4647
2026-01-23 11:32:44.08	257.36	21.93	-39.4	-41.5	14.3	7.00e-07	0	62	0	793772032	50	4571
2026-01-23 11:32:45.09	257.62	21.97	-39.5	-41.6	14.3	1.50e-06	0	62	0	796917760	50	4606
2026-01-23 11:32:46.09	257.88	22.00	-39.4	-41.5	14.3	1.50e-06	0	62	0	800063488	50	4572
2026-01-23 11:32:47.10	258.15	22.03	-39.3	-41.4	14.4	7.00e-07	0	62	0	803209216	50	4514
2026-01-23 11:32:48.11	258.41	22.06	-39.3	-41.3	14.5	0.00e+00	0	62	0	806354944	50	4490
2026-01-23 11:32:49.12	258.68	22.09	-39.2	-41.3	14.6	0.00e+00	0	62	0	809500672	50	4449
2026-01-23 11:32:50.13	258.94	22.11	-39.3	-41.4	14.5	7.00e-07	0	62	0	812646400	50	4510
2026-01-23 11:32:51.14	259.21	22.14	-39.4	-41.4	14.4	0.00e+00	0	62	0	815792128	50	4543
2026-01-23 11:32:52.15	259.47	22.17	-39.5	-41.6	14.3	0.00e+00	0	62	0	818937856	50	4606
2026-01-23 11:32:53.16	259.74	22.20	-39.4	-41.5	14.3	7.00e-07	0	62	0	822083584	50	4576
2026-01-23 11:32:54.17	260.01	22.22	-39.4	-41.5	14.3	0.00e+00	0	62	0	825229312	50	4559
2026-01-23 11:32:55.18	260.27	22.25	-39.4	-41.5	14.3	2.20e-06	0	62	0	828375040	50	4555
2026-01-23 11:32:56.19	260.54	22.27	-39.4	-41.4	14.3	1.50e-06	0	62	0	831520768	50	4538
2026-01-23 11:32:57.20	260.81	22.30	-39.4	-41.5	14.3	0.00e+00	0	62	0	834666496	50	4560
2026-01-23 11:32:58.21	261.08	22.32	-39.5	-41.6	14.2	7.00e-07	0	62	0	837812224	50	4602
2026-01-23 11:32:59.22	261.35	22.34	-39.3	-41.4	14.4	3.00e-06	0	62	0	840957952	50	4523
2026-01-23 11:33:00.23	261.62	22.37	-39.2	-41.2	14.6	7.00e-07	0	63	0	844103680	50	4425
2026-01-23 11:33:01.24	261.89	22.39	-39.2	-41.3	14.5	0.00e+00	0	62	0	847249408	50	4442
2026-01-23 11:33:02.25	262.16	22.41	-39.2	-41.2	14.6	0.00e+00	0	62	0	850395136	50	4435
2026-01-23 11:33:03.26	262.43	22.43	-39.2	-41.3	14.6	0.00e+00	0	62	0	853540864	50	4454
2026-01-23 11:33:04.27	262.70	22.45	-39.3	-41.3	14.5	1.50e-06	0	62	0	856686592	50	4481
2026-01-23 11:33:05.28	262.97	22.47	-39.4	-41.5	14.4	7.00e-07	0	63	0	859832320	50	4551
2026-01-23 11:33:06.29	263.24	22.49	-39.5	-41.6	14.2	1.50e-06	0	62	0	862978048	50	4636
2026-01-23 11:33:07.30	263.51	22.51	-39.6	-41.7	14.2	4.50e-06	0	62	0	866123776	50	4692
2026-01-23 11:33:08.31	263.79	22.52	-39.6	-41.7	14.1	7.00e-07	0	62	0	869269504	50	4694
2026-01-23 11:33:09.32	264.06	22.54	-39.4	-41.5	14.3	2.20e-06	0	62	0	872415232	50	4575
2026-01-23 11:33:10.33	264.33	22.56	-39.5	-41.6	14.3	0.00e+00	0	63	0	875560960	50	4610
2026-01-23 11:33:11.34	264.60	22.57	-39.4	-41.4	14.3	0.00e+00	0	62	0	878706688	50	4540
2026-01-23 11:33:12.34	264.87	22.59	-39.3	-41.3	14.5	7.00e-07	0	62	0	881852416	50	4466
2026-01-23 11:33:13.35	265.15	22.60	-39.2	-41.2	14.7	0.00e+00	0	62	0	884998144	50	4401
2026-01-23 11:33:14.37	265.42	22.61	-39.1	-41.1	14.7	0.00e+00	0	62	0	888143872	50	4374
2026-01-23 11:33:15.38	265.70	22.63	-39.2	-41.1	14.7	0.00e+00	0	62	0	891289600	50	4389
2026-01-23 11:33:16.39	265.97	22.64	-39.2	-41.2	14.6	7.00e-07	0	62	0	894435328	50	4410
2026-01-23 11:33:17.40	266.25	22.65	-39.2	-41.3	14.6	0.00e+00	0	62	0	897581056	50	4444
2026-01-23 11:33:18.41	266.52	22.66	-39.2	-41.2	14.6	1.50e-06	0	62	0	900726784	50	4431
2026-01-23 11:33:19.42	266.80	22.67	-39.4	-41.4	14.4	0.00e+00	0	62	0	903872512	50	4538
2026-01-23 11:33:20.43	267.07	22.68	-39.4	-41.5	14.4	0.00e+00	0	63	0	907018240	50	4556
2026-01-23 11:33:21.44	267.34	22.69	-39.4	-41.5	14.4	2.20e-06	0	62	0	910163968	50	4573
2026-01-23 11:33:22.45	267.62	22.70	-39.4	-41.5	14.4	0.00e+00	0	62	0	913309696	50	4559
2026-01-23 11:33:23.45	267.89	22.71	-39.4	-41.5	14.3	7.00e-07	0	62	0	916455424	50	4581
2026-01-23 11:33:24.46	268.17	22.71	-39.4	-41.4	14.4	0.00e+00	0	62	0	920649728	50	4523
2026-01-23 11:33:25.47	268.44	22.72	-39.4	-41.5	14.3	1.50e-06	0	62	0	923795456	50	4562
2026-01-23 11:33:26.48	268.72	22.72	-39.5	-41.7	14.2	0.00e+00	0	62	0	925892608	50	4661
2026-01-23 11:33:27.49	268.99	22.73	-39.4	-41.5	14.3	7.00e-07	0	62	0	929038336	50	4595
2026-01-23 11:33:28.50	269.27	22.73	-39.4	-41.5	14.4	7.00e-07	0	62	0	932184064	50	4556
2026-01-23 11:33:29.51	269.55	22.74	-39.3	-41.4	14.4	1.50e-06	0	62	0	936378368	50	4516
2026-01-23 11:33:30.52	269.82	22.74	-39.3	-41.4	14.4	7.00e-07	0	62	0	939524096	50	4522
2026-01-23 11:33:31.54	270.10	22.74	-39.4	-41.4	14.4	7.00e-07	0	62	0	942669824	50	4531
2026-01-23 11:33:32.55	270.38	22.74	-39.4	-41.5	14.3	1.50e-06	0	62	0	945815552	50	4565
2026-01-23 11:33:33.56	270.65	22.74	-39.3	-41.4	14.4	2.20e-06	0	62	0	948961280	50	4522
2026-01-23 11:33:34.57	270.93	22.74	-39.3	-41.4	14.4	0.00e+00	0	62	0	952107008	50	4512
2026-01-23 11:33:35.58	271.20	22.74	-39.3	-41.3	14.5	7.00e-07	0	62	0	955252736	50	4486
2026-01-23 11:33:36.59	271.48	22.74	-39.2	-41.3	14.6	0.00e+00	0	62	0	958398464	50	4444
2026-01-23 11:33:37.60	271.76	22.74	-39.1	-41.1	14.7	0.00e+00	0	62	0	961544192	50	4363
2026-01-23 11:33:38.60	272.03	22.74	-39.1	-41.1	14.7	0.00e+00	0	62	0	964689920	50	4374
2026-01-23 11:33:39.61	272.30	22.73	-39.1	-41.1	14.7	0.00e+00	0	62	0	967835648	50	4374
2026-01-23 11:33:40.62	272.58	22.73	-39.2	-41.2	14.7	7.00e-07	0	62	0	970981376	50	4418
2026-01-23 11:33:41.63	272.86	22.73	-39.3	-41.4	14.5	0.00e+00	0	62	0	974127104	50	4494
2026-01-23 11:33:42.64	273.13	22.72	-39.3	-41.4	14.5	0.00e+00	0	62	0	977272832	50	4508
2026-01-23 11:33:43.65	273.41	22.71	-39.3	-41.4	14.5	0.00e+00	0	62	0	980418560	50	4514
2026-01-23 11:33:44.66	273.68	22.71	-39.3	-41.3	14.5	7.00e-07	0	62	0	983564288	50	4491
2026-01-23 11:33:45.67	273.96	22.70	-39.3	-41.4	14.5	0.00e+00	0	62	0	986710016	50	4496
2026-01-23 11:33:46.68	274.23	22.69	-39.4	-41.5	14.3	7.00e-07	0	62	0	989855744	50	4567
2026-01-23 11:33:47.69	274.51	22.68	-39.4	-41.5	14.3	2.20e-06	0	62	0	993001472	50	4576
2026-01-23 11:33:48.70	274.78	22.67	-39.4	-41.5	14.3	7.00e-07	0	62	0	996147200	50	4583
2026-01-23 11:33:49.71	275.06	22.66	-39.5	-41.6	14.2	0.00e+00	0	62	0	999292928	50	4647
2026-01-23 11:33:50.71	275.33	22.65	-39.5	-41.6	14.2	1.50e-06	0	62	0	1002438656	50	4607
2026-01-23 11:33:51.73	275.60	22.64	-39.4	-41.4	14.4	1.50e-06	0	62	0	1005584384	50	4534
2026-01-23 11:33:52.73	275.88	22.63	-39.4	-41.5	14.4	0.00e+00	0	62	0	1008730112	50	4547
2026-01-23 11:33:53.74	276.15	22.62	-39.4	-41.5	14.3	0.00e+00	0	62	0	1011875840	50	4592
2026-01-23 11:33:54.75	276.42	22.61	-39.4	-41.5	14.3	7.00e-07	0	62	0	1015021568	50	4570
2026-01-23 11:33:55.76	276.70	22.59	-39.4	-41.5	14.3	0.00e+00	0	62	0	1018167296	50	4552
2026-01-23 11:33:56.77	276.97	22.58	-39.4	-41.4	14.3	0.00e+00	0	63	0	1021313024	50	4541
2026-01-23 11:33:57.78	277.24	22.56	-39.4	-41.4	14.4	7.00e-07	0	62	0	1024458752	50	4544
2026-01-23 11:33:58.79	277.51	22.55	-39.3	-41.3	14.5	0.00e+00	0	62	0	1027604480	50	4464
2026-01-23 11:33:59.80	277.79	22.53	-39.1	-41.1	14.7	0.00e+00	0	62	0	1030750208	50	4387
2026-01-23 11:34:00.81	278.06	22.51	-39.2	-41.2	14.6	1.50e-06	0	62	0	1033895936	50	4392
2026-01-23 11:34:01.82	278.33	22.49	-39.1	-41.0	14.7	0.00e+00	0	62	0	1037041664	50	4333
2026-01-23 11:34:02.83	278.60	22.48	-39.1	-41.0	14.7	7.00e-07	0	62	0	1040187392	50	4330
2026-01-23 11:34:03.84	278.87	22.46	-39.1	-41.1	14.7	7.00e-07	0	62	0	1043333120	50	4365
2026-01-23 11:34:04.85	279.14	22.44	-39.2	-41.1	14.7	0.00e+00	0	63	0	1046478848	50	4390
2026-01-23 11:34:05.86	279.41	22.42	-39.1	-41.1	14.7	7.00e-07	0	62	0	1049624576	50	4347
2026-01-23 11:34:06.87	279.68	22.40	-39.1	-41.1	14.7	0.00e+00	0	62	0	1052770304	50	4343
2026-01-23 11:34:07.88	279.95	22.37	-39.1	-41.1	14.7	7.00e-07	0	62	0	1055916032	50	4354
2026-01-23 11:34:08.89	280.22	22.35	-39.2	-41.2	14.6	0.00e+00	0	62	0	1059061760	50	4424
2026-01-23 11:34:09.90	280.49	22.33	-39.2	-41.2	14.6	7.00e-07	0	62	0	1062207488	50	4402
2026-01-23 11:34:10.91	280.76	22.31	-39.1	-41.1	14.7	0.00e+00	0	62	0	1065353216	50	4364
2026-01-23 11:34:11.91	281.02	22.28	-39.1	-41.1	14.7	0.00e+00	0	62	0	1068498944	50	4348
2026-01-23 11:34:12.93	281.29	22.26	-39.1	-41.1	14.7	0.00e+00	0	62	0	1071644672	50	4364
2026-01-23 11:34:13.93	281.56	22.23	-39.1	-41.1	14.7	0.00e+00	0	62	0	1074790400	50	4380
2026-01-23 11:34:14.94	281.82	22.21	-39.1	-41.1	14.7	1.50e-06	0	62	0	1077936128	50	4356
2026-01-23 11:34:15.95	282.09	22.18	-39.1	-41.1	14.7	1.50e-06	0	62	0	1081081856	50	4389
2026-01-23 11:34:16.96	282.36	22.15	-39.2	-41.2	14.6	7.00e-07	0	63	0	1084227584	50	4421
2026-01-23 11:34:17.97	282.62	22.13	-39.2	-41.3	14.5	0.00e+00	0	62	0	1087373312	50	4455
2026-01-23 11:34:18.98	282.89	22.10	-39.2	-41.2	14.6	7.00e-07	0	62	0	1090519040	50	4408
2026-01-23 11:34:19.99	283.15	22.07	-39.2	-41.2	14.6	0.00e+00	0	62	0	1093664768	50	4422
2026-01-23 11:34:21.00	283.41	22.04	-39.2	-41.3	14.5	2.20e-06	0	62	0	1096810496	50	4458
2026-01-23 11:34:22.01	283.68	22.01	-39.3	-41.4	14.4	0.00e+00	0	63	0	1099956224	50	4502
2026-01-23 11:34:23.02	283.94	21.98	-39.4	-41.5	14.3	7.00e-07	0	62	0	1103101952	50	4559
2026-01-23 11:34:24.03	284.20	21.95	-39.4	-41.5	14.3	1.50e-06	0	62	0	1106247680	50	4576
2026-01-23 11:34:25.04	284.46	21.92	-39.4	-41.5	14.3	1.50e-06	0	62	0	1109393408	50	4577
2026-01-23 11:34:26.05	284.72	21.88	-39.4	-41.5	14.3	4.50e-06	0	62	0	1112539136	50	4595
2026-01-23 11:34:27.06	284.99	21.85	-39.3	-41.4	14.4	0.00e+00	0	62	0	1115684864	50	4521
2026-01-23 11:34:28.07	285.25	21.82	-39.3	-41.3	14.5	1.50e-06	0	62	0	1118830592	50	4482
2026-01-23 11:34:29.08	285.51	21.78	-39.3	-41.4	14.4	0.00e+00	0	62	0	1121976320	50	4499
2026-01-23 11:34:30.09	285.76	21.75	-39.3	-41.4	14.4	0.00e+00	0	63	0	1125122048	50	4540
2026-01-23 11:34:31.09	286.02	21.71	-39.4	-41.6	14.2	7.00e-07	0	62	0	1128267776	50	4604
2026-01-23 11:34:32.10	286.28	21.68	-39.4	-41.5	14.3	1.50e-06	0	62	0	1131413504	50	4550
2026-01-23 11:34:33.11	286.54	21.64	-39.3	-41.3	14.5	1.50e-06	0	62	0	1134559232	50	4476
2026-01-23 11:34:34.12	286.79	21.61	-39.2	-41.2	14.6	7.00e-07	0	62	0	1137704960	50	4434
2026-01-23 11:34:35.13	287.05	21.57	-39.2	-41.2	14.5	0.00e+00	0	62	0	1140850688	50	4441
2026-01-23 11:34:36.14	287.30	21.53	-39.2	-41.3	14.5	1.50e-06	0	62	0	1143996416	50	4456
2026-01-23 11:34:37.15	287.56	21.49	-39.3	-41.4	14.4	0.00e+00	0	62	0	1147142144	50	4502
2026-01-23 11:34:38.16	287.81	21.46	-39.4	-41.5	14.3	7.00e-07	0	62	0	1150287872	50	4562
2026-01-23 11:34:39.17	288.07	21.42	-39.4	-41.5	14.3	0.00e+00	0	62	0	1153433600	50	4576
2026-01-23 11:34:40.18	288.32	21.38	-39.4	-41.5	14.3	7.00e-07	0	62	0	1156579328	50	4595
2026-01-23 11:34:41.19	288.57	21.34	-39.4	-41.5	14.3	7.00e-07	0	62	0	1159725056	50	4547
2026-01-23 11:34:42.20	288.82	21.30	-39.2	-41.2	14.5	7.00e-07	0	62	0	1162870784	50	4435
2026-01-23 11:34:43.21	289.07	21.26	-39.2	-41.2	14.6	0.00e+00	0	62	0	1166016512	50	4401
2026-01-23 11:34:44.22	289.32	21.21	-39.2	-41.3	14.5	7.00e-07	0	62	0	1169162240	50	4442
2026-01-23 11:34:45.23	289.57	21.17	-39.2	-41.2	14.5	1.50e-06	0	62	0	1172307968	50	4422
2026-01-23 11:34:46.24	289.82	21.13	-39.2	-41.2	14.5	0.00e+00	0	62	0	1175453696	50	4436
2026-01-23 11:34:47.25	290.07	21.09	-39.3	-41.3	14.4	0.00e+00	0	62	0	1178599424	50	4489
2026-01-23 11:34:48.26	290.32	21.04	-39.3	-41.4	14.3	0.00e+00	0	62	0	1181745152	50	4535
2026-01-23 11:34:49.27	290.57	21.00	-39.3	-41.3	14.4	7.00e-07	0	63	0	1184890880	50	4480
2026-01-23 11:34:50.28	290.81	20.95	-39.3	-41.3	14.4	0.00e+00	0	62	0	1188036608	50	4469
2026-01-23 11:34:51.29	291.06	20.91	-39.3	-41.3	14.4	0.00e+00	0	62	0	1191182336	50	4487
2026-01-23 11:34:52.30	291.30	20.86	-39.3	-41.4	14.4	1.50e-06	0	63	0	1194328064	50	4506
2026-01-23 11:34:53.31	291.55	20.82	-39.3	-41.4	14.4	7.00e-07	0	62	0	1197473792	50	4513
2026-01-23 11:34:54.32	291.79	20.77	-39.3	-41.4	14.4	0.00e+00	0	62	0	1200619520	50	4508
2026-01-23 11:34:55.33	292.03	20.73	-39.4	-41.4	14.4	7.00e-07	0	62	0	1203765248	50	4535
2026-01-23 11:34:56.34	292.27	20.68	-39.4	-41.4	14.3	7.00e-07	0	62	0	1206910976	50	4544
2026-01-23 11:34:57.35	292.52	20.63	-39.3	-41.3	14.4	1.50e-06	0	62	0	1210056704	50	4483
2026-01-23 11:34:58.36	292.76	20.58	-39.3	-41.3	14.4	7.00e-07	0	62	0	1213202432	50	4473
2026-01-23 11:34:59.37	293.00	20.54	-39.3	-41.3	14.4	0.00e+00	0	63	0	1216348160	50	4465
2026-01-23 11:35:00.38	293.23	20.49	-39.3	-41.3	14.4	0.00e+00	0	62	0	1219493888	50	4479
2026-01-23 11:35:01.39	293.47	20.44	-39.4	-41.4	14.3	0.00e+00	0	62	0	1222639616	50	4544
2026-01-23 11:35:02.40	293.71	20.39	-39.4	-41.5	14.3	7.00e-07	0	62	0	1225785344	50	4559
2026-01-23 11:35:03.41	293.95	20.34	-39.4	-41.6	14.2	1.50e-06	0	63	0	1228931072	50	4603
2026-01-23 11:35:04.41	294.18	20.29	-39.4	-41.4	14.3	3.00e-06	0	62	0	1232076800	50	4536
2026-01-23 11:35:05.42	294.42	20.24	-39.4	-41.5	14.2	2.20e-06	0	62	0	1235222528	50	4563
2026-01-23 11:35:06.43	294.65	20.19	-39.4	-41.5	14.2	0.00e+00	0	62	0	1238368256	50	4557
2026-01-23 11:35:07.44	294.88	20.14	-39.4	-41.5	14.2	7.00e-07	0	62	0	1241513984	50	4564
2026-01-23 11:35:08.45	295.12	20.09	-39.4	-41.5	14.2	1.50e-06	0	62	0	1244659712	50	4578
2026-01-23 11:35:09.46	295.35	20.03	-39.4	-41.5	14.2	2.20e-06	0	62	0	1247805440	50	4588
2026-01-23 11:35:10.47	295.58	19.98	-39.4	-41.5	14.2	7.00e-07	0	62	0	1250951168	50	4568
2026-01-23 11:35:11.48	295.81	19.93	-39.4	-41.5	14.3	1.50e-06	0	62	0	1254096896	50	4547
2026-01-23 11:35:12.49	296.04	19.88	-39.3	-41.4	14.3	0.00e+00	0	62	0	1257242624	50	4518
2026-01-23 11:35:13.50	296.27	19.82	-39.3	-41.4	14.3	7.00e-07	0	62	0	1260388352	50	4531
2026-01-23 11:35:14.51	296.50	19.77	-39.3	-41.4	14.3	0.00e+00	0	62	0	1263534080	50	4527
2026-01-23 11:35:15.52	296.73	19.72	-39.3	-41.4	14.3	1.50e-06	0	63	0	1266679808	50	4518
2026-01-23 11:35:16.53	296.95	19.66	-39.4	-41.5	14.2	2.20e-06	0	62	0	1269825536	50	4563
2026-01-23 11:35:17.54	297.18	19.61	-39.4	-41.6	14.1	7.00e-07	0	62	0	1272971264	50	4610
2026-01-23 11:35:18.55	297.40	19.55	-39.4	-41.6	14.2	1.50e-06	0	63	0	1276116992	50	4602
2026-01-23 11:35:19.56	297.63	19.50	-39.4	-41.5	14.2	1.50e-06	0	62	0	1279262720	50	4593
2026-01-23 11:35:20.57	297.85	19.44	-39.4	-41.5	14.2	2.20e-06	0	63	0	1283457024	50	4564
2026-01-23 11:35:21.58	298.07	19.39	-39.4	-41.5	14.2	1.50e-06	0	63	0	1286602752	50	4592
2026-01-23 11:35:22.59	298.30	19.33	-39.5	-41.6	14.1	1.50e-06	0	62	0	1288699904	50	4637
2026-01-23 11:35:23.60	298.52	19.27	-39.6	-41.8	13.9	3.00e-06	0	62	0	1291845632	50	4716
2026-01-23 11:35:24.61	298.74	19.22	-39.6	-41.8	13.9	5.30e-06	0	63	0	1294991360	50	4744
2026-01-23 11:35:25.62	298.96	19.16	-39.6	-41.8	13.9	2.20e-06	0	62	0	1299185664	50	4734
2026-01-23 11:35:26.63	299.18	19.10	-39.6	-41.8	13.9	3.80e-06	0	62	0	1302331392	50	4752
2026-01-23 11:35:27.64	299.39	19.04	-39.6	-41.8	14.0	2.20e-06	0	62	0	1305477120	50	4709
2026-01-23 11:35:28.65	299.61	18.99	-39.5	-41.6	14.1	3.00e-06	0	62	0	1308622848	50	4636
2026-01-23 11:35:29.66	299.83	18.93	-39.4	-41.5	14.2	2.20e-06	0	62	0	1311768576	50	4591
2026-01-23 11:35:30.67	300.04	18.87	-39.4	-41.5	14.2	2.20e-06	0	63	0	1314914304	50	4563
2026-01-23 11:35:31.68	300.26	18.81	-39.3	-41.4	14.2	1.50e-06	0	62	0	1318060032	50	4524
2026-01-23 11:35:32.69	300.47	18.75	-39.4	-41.5	14.2	7.00e-07	0	62	0	1321205760	50	4565
2026-01-23 11:35:33.70	300.68	18.69	-39.3	-41.4	14.2	7.00e-07	0	62	0	1324351488	50	4530
2026-01-23 11:35:34.71	300.90	18.63	-39.3	-41.3	14.4	3.00e-06	0	62	0	1327497216	50	4479
2026-01-23 11:35:35.73	301.11	18.57	-39.3	-41.3	14.4	7.00e-07	0	62	0	1330642944	50	4493
2026-01-23 11:35:36.74	301.32	18.51	-39.3	-41.3	14.4	0.00e+00	0	62	0	1333788672	50	4479
2026-01-23 11:35:37.75	301.53	18.45	-39.4	-41.5	14.2	0.00e+00	0	62	0	1336934400	50	4554
2026-01-23 11:35:38.76	301.74	18.39	-39.4	-41.5	14.2	0.00e+00	0	62	0	1340080128	50	4595
2026-01-23 11:35:39.77	301.95	18.33	-39.5	-41.7	14.0	7.00e-07	0	62	0	1343225856	50	4665
2026-01-23 11:35:40.78	302.15	18.27	-39.6	-41.8	13.9	0.00e+00	0	62	0	1346371584	50	4715
2026-01-23 11:35:41.79	302.36	18.21	-39.6	-41.8	13.9	3.80e-06	0	62	0	1349517312	50	4749
2026-01-23 11:35:42.80	302.57	18.15	-39.7	-41.9	13.8	1.50e-06	0	62	0	1352663040	50	4777
2026-01-23 11:35:43.81	302.77	18.09	-39.7	-41.9	13.8	1.06e-05	0	62	0	1355808768	50	4790
2026-01-23 11:35:44.82	302.98	18.03	-39.6	-41.8	13.8	3.80e-06	0	63	0	1358954496	50	4749
2026-01-23 11:35:45.83	303.18	17.97	-39.6	-41.8	13.8	3.80e-06	0	62	0	1362100224	50	4739
2026-01-23 11:35:46.84	303.38	17.91	-39.6	-41.8	13.9	6.80e-06	0	63	0	1365245952	50	4744
2026-01-23 11:35:47.85	303.58	17.84	-39.6	-41.8	13.8	6.10e-06	0	62	0	1368391680	50	4741
2026-01-23 11:35:48.86	303.78	17.78	-39.5	-41.7	14.0	5.30e-06	0	62	0	1371537408	50	4678
2026-01-23 11:35:49.87	303.98	17.72	-39.5	-41.7	13.9	3.80e-06	0	63	0	1374683136	50	4699
2026-01-23 11:35:50.88	304.18	17.66	-39.6	-41.8	13.9	3.00e-06	0	62	0	1377828864	50	4707
2026-01-23 11:35:51.89	304.38	17.59	-39.6	-41.8	13.9	4.50e-06	0	62	0	1380974592	50	4708
2026-01-23 11:35:52.90	304.58	17.53	-39.6	-41.8	13.8	4.50e-06	0	62	0	1384120320	50	4755
2026-01-23 11:35:53.91	304.78	17.47	-39.7	-42.0	13.7	6.10e-06	0	62	0	1387266048	50	4830
2026-01-23 11:35:54.92	304.97	17.40	-39.9	-42.2	13.5	1.52e-05	0	62	0	1390411776	50	4947
2026-01-23 11:35:55.93	305.17	17.34	-39.9	-42.3	13.4	1.52e-05	0	62	0	1393557504	50	5012
2026-01-23 11:35:56.94	305.36	17.28	-40.0	-42.4	13.2	2.36e-05	0	62	0	1396703232	50	5084
2026-01-23 11:35:57.95	305.56	17.21	-40.1	-42.5	13.1	2.05e-05	0	63	0	1399848960	50	5136
2026-01-23 11:35:58.96	305.75	17.15	-40.1	-42.5	13.1	2.82e-05	0	63	0	1402994688	50	5138
2026-01-23 11:35:59.97	305.94	17.09	-39.9	-42.3	13.4	1.67e-05	0	62	0	1406140416	50	4996
2026-01-23 11:36:00.98	306.13	17.02	-39.8	-42.1	13.5	9.10e-06	0	63	0	1409286144	50	4901
2026-01-23 11:36:01.99	306.32	16.96	-39.8	-42.0	13.6	6.80e-06	0	63	0	1412431872	50	4861
2026-01-23 11:36:03.00	306.51	16.89	-39.7	-42.0	13.6	6.80e-06	0	63	0	1415577600	50	4847
2026-01-23 11:36:04.01	306.70	16.83	-39.8	-42.1	13.6	1.14e-05	0	63	0	1418723328	50	4880
2026-01-23 11:36:05.02	306.89	16.77	-39.8	-42.2	13.4	1.14e-05	0	63	0	1421869056	50	4939
2026-01-23 11:36:06.03	307.08	16.70	-39.9	-42.2	13.4	1.83e-05	0	62	0	1425014784	50	4953
2026-01-23 11:36:07.04	307.26	16.64	-39.8	-42.1	13.5	9.90e-06	0	63	0	1428160512	50	4926
2026-01-23 11:36:08.04	307.45	16.57	-39.9	-42.2	13.4	1.22e-05	0	62	0	1431306240	50	4941
2026-01-23 11:36:09.05	307.63	16.51	-39.9	-42.2	13.3	1.75e-05	0	62	0	1434451968	50	4983
2026-01-23 11:36:10.06	307.82	16.44	-40.0	-42.4	13.2	1.90e-05	0	62	0	1437597696	50	5043
2026-01-23 11:36:11.07	308.00	16.38	-40.0	-42.4	13.1	2.36e-05	0	62	0	1440743424	50	5099
2026-01-23 11:36:12.08	308.18	16.31	-40.1	-42.5	13.1	3.66e-05	0	62	0	1443889152	50	5153
2026-01-23 11:36:13.09	308.36	16.25	-40.1	-42.6	13.1	2.89e-05	0	62	0	1447034880	50	5171
2026-01-23 11:36:14.10	308.54	16.18	-40.1	-42.6	13.0	3.12e-05	0	62	0	1450180608	50	5180
2026-01-23 11:36:15.11	308.72	16.11	-40.2	-42.6	13.0	3.96e-05	0	62	0	1453326336	50	5218
2026-01-23 11:36:16.12	308.90	16.05	-40.1	-42.7	13.0	4.88e-05	0	62	0	1456472064	50	5219
2026-01-23 11:36:17.13	309.08	15.98	-40.1	-42.5	13.1	4.19e-05	0	62	0	1459617792	50	5148
2026-01-23 11:36:18.14	309.26	15.92	-40.1	-42.5	13.1	3.28e-05	0	62	0	1462763520	50	5135
2026-01-23 11:36:19.16	309.44	15.85	-40.1	-42.5	13.1	3.05e-05	0	62	0	1465909248	50	5139
2026-01-23 11:36:20.17	309.62	15.78	-40.0	-42.5	13.1	2.89e-05	0	63	0	1469054976	50	5116
2026-01-23 11:36:21.18	309.79	15.72	-40.0	-42.5	13.1	3.96e-05	0	62	0	1472200704	50	5124
2026-01-23 11:36:22.19	309.97	15.65	-40.1	-42.5	13.0	3.05e-05	0	62	0	1475346432	50	5146
2026-01-23 11:36:23.19	310.14	15.59	-40.0	-42.5	13.1	2.74e-05	0	62	0	1478492160	50	5109
2026-01-23 11:36:24.20	310.31	15.52	-40.1	-42.5	13.1	2.51e-05	0	62	0	1481637888	50	5153
2026-01-23 11:36:25.21	310.49	15.45	-40.0	-42.4	13.2	3.73e-05	0	62	0	1484783616	50	5089
2026-01-23 11:36:26.22	310.66	15.39	-40.0	-42.4	13.2	2.51e-05	0	62	0	1487929344	50	5059
2026-01-23 11:36:27.23	310.83	15.32	-40.0	-42.4	13.2	1.75e-05	0	62	0	1491075072	50	5057
2026-01-23 11:36:28.24	311.00	15.26	-39.8	-42.2	13.4	1.75e-05	0	63	0	1494220800	50	4959
2026-01-23 11:36:29.25	311.17	15.19	-39.9	-42.3	13.3	1.52e-05	0	62	0	1497366528	50	4989
2026-01-23 11:36:30.26	311.34	15.12	-39.8	-42.2	13.4	1.29e-05	0	62	0	1500512256	50	4958
2026-01-23 11:36:31.27	311.51	15.06	-39.8	-42.2	13.4	1.29e-05	0	62	0	1503657984	50	4945
2026-01-23 11:36:32.28	311.67	14.99	-39.9	-42.3	13.2	1.29e-05	0	62	0	1506803712	50	5040
2026-01-23 11:36:33.29	311.84	14.92	-39.9	-42.3	13.2	2.05e-05	0	62	0	1509949440	50	5022
2026-01-23 11:36:34.30	312.01	14.86	-39.9	-42.4	13.2	2.36e-05	0	63	0	1513095168	50	5049
2026-01-23 11:36:35.31	312.17	14.79	-40.0	-42.4	13.2	2.74e-05	0	62	0	1516240896	50	5055
2026-01-23 11:36:36.32	312.34	14.72	-40.0	-42.4	13.1	1.90e-05	0	63	0	1519386624	50	5093
2026-01-23 11:36:37.33	312.50	14.65	-40.0	-42.5	13.1	3.05e-05	0	62	0	1522532352	50	5112
2026-01-23 11:36:38.34	312.66	14.59	-39.9	-42.3	13.3	2.36e-05	0	62	0	1525678080	50	4994
2026-01-23 11:36:39.35	312.83	14.52	-39.9	-42.2	13.3	1.14e-05	0	62	0	1528823808	50	4978
2026-01-23 11:36:40.36	312.99	14.45	-39.9	-42.3	13.3	1.44e-05	0	62	0	1531969536	50	5023
2026-01-23 11:36:41.37	313.15	14.39	-39.9	-42.4	13.2	2.36e-05	0	63	0	1535115264	50	5049
2026-01-23 11:36:42.38	313.31	14.32	-40.0	-42.5	13.1	2.21e-05	0	62	0	1538260992	50	5118
2026-01-23 11:36:43.39	313.47	14.25	-40.0	-42.4	13.2	3.20e-05	0	62	0	1541406720	50	5066
2026-01-23 11:36:44.40	313.63	14.19	-39.9	-42.3	13.3	2.51e-05	0	62	0	1544552448	50	5021
2026-01-23 11:36:45.41	313.79	14.12	-39.8	-42.2	13.4	1.52e-05	0	62	0	1547698176	50	4936
2026-01-23 11:36:46.42	313.94	14.05	-39.8	-42.2	13.4	1.29e-05	0	63	0	1550843904	50	4947
2026-01-23 11:36:47.43	314.10	13.99	-39.9	-42.3	13.3	1.98e-05	0	63	0	1553989632	50	4998
2026-01-23 11:36:48.44	314.26	13.92	-39.8	-42.1	13.4	1.22e-05	0	63	0	1557135360	50	4909
2026-01-23 11:36:49.45	314.41	13.85	-39.8	-42.2	13.4	1.52e-05	0	62	0	1560281088	50	4937
2026-01-23 11:36:50.46	314.57	13.78	-39.9	-42.3	13.3	1.83e-05	0	62	0	1563426816	50	4989
2026-01-23 11:36:51.47	314.72	13.72	-39.9	-42.3	13.3	2.44e-05	0	62	0	1566572544	50	4985
2026-01-23 11:36:52.48	314.87	13.65	-39.9	-42.3	13.2	2.28e-05	0	62	0	1569718272	50	5034
2026-01-23 11:36:53.49	315.03	13.58	-39.9	-42.3	13.2	2.36e-05	0	62	0	1572864000	50	5022
2026-01-23 11:36:54.50	315.18	13.52	-39.9	-42.3	13.2	1.98e-05	0	62	0	1576009728	50	5027
2026-01-23 11:36:55.51	315.33	13.45	-40.0	-42.5	13.1	3.20e-05	0	62	0	1580204032	50	5116
2026-01-23 11:36:56.52	315.48	13.38	-40.0	-42.5	13.0	3.35e-05	0	62	0	1582301184	50	5122
2026-01-23 11:36:57.53	315.63	13.31	-40.1	-42.6	12.9	5.49e-05	0	62	0	1585446912	50	5183
2026-01-23 11:36:58.54	315.78	13.25	-40.1	-42.6	12.9	5.56e-05	0	62	0	1588592640	50	5203
2026-01-23 11:36:59.55	315.93	13.18	-40.1	-42.6	12.9	6.10e-05	0	62	0	1591738368	50	5186
2026-01-23 11:37:00.56	316.08	13.11	-40.1	-42.7	12.8	4.73e-05	0	62	0	1594884096	50	5240
2026-01-23 11:37:01.57	316.23	13.05	-40.1	-42.7	12.8	6.02e-05	0	62	0	1599078400	50	5231
2026-01-23 11:37:02.58	316.37	12.98	-40.2	-42.8	12.7	6.33e-05	0	62	0	1602224128	50	5294
2026-01-23 11:37:03.59	316.52	12.91	-40.1	-42.7	12.8	5.79e-05	0	62	0	1604321280	50	5250
2026-01-23 11:37:04.60	316.66	12.85	-40.1	-42.7	12.8	6.17e-05	0	62	0	1607467008	50	5234
2026-01-23 11:37:05.61	316.81	12.78	-40.2	-42.8	12.7	6.48e-05	0	62	0	1610612736	50	5286
2026-01-23 11:37:06.62	316.95	12.71	-40.2	-42.8	12.7	7.32e-05	0	62	0	1614807040	50	5283
2026-01-23 11:37:07.63	317.10	12.64	-40.2	-42.8	12.6	8.39e-05	0	62	0	1617952768	50	5295
2026-01-23 11:37:08.64	317.24	12.58	-40.3	-42.9	12.5	1.26e-04	0	62	0	1621098496	51	5077
2026-01-23 11:37:09.65	317.38	12.51	-40.3	-43.0	12.4	1.29e-04	0	62	0	1624244224	51	5109
2026-01-23 11:37:10.65	317.52	12.45	-40.4	-43.1	12.3	1.50e-04	0	62	0	1627389952	51	5163
2026-01-23 11:37:11.66	317.66	12.38	-40.4	-43.2	12.2	2.28e-04	0	62	0	1630535680	51	5223
2026-01-23 11:37:12.67	317.81	12.31	-40.4	-43.1	12.2	2.08e-04	0	62	0	1633681408	51	5194
2026-01-23 11:37:13.69	317.95	12.24	-40.4	-43.2	12.2	2.10e-04	0	62	0	1636827136	51	5221
2026-01-23 11:37:14.70	318.09	12.18	-40.5	-43.3	12.1	2.20e-04	0	62	0	1639972864	51	5281
2026-01-23 11:37:15.70	318.22	12.11	-40.5	-43.2	12.1	2.34e-04	0	62	0	1643118592	51	5258
2026-01-23 11:37:16.72	318.36	12.04	-40.5	-43.2	12.1	2.85e-04	0	62	0	1646264320	51	5254
2026-01-23 11:37:17.73	318.50	11.98	-40.4	-43.2	12.2	2.59e-04	0	63	0	1649410048	51	5234
2026-01-23 11:37:18.74	318.64	11.91	-40.4	-43.1	12.2	2.14e-04	0	62	0	1652555776	51	5200
2026-01-23 11:37:19.75	318.77	11.84	-40.4	-43.1	12.3	1.88e-04	0	62	0	1655701504	51	5184
2026-01-23 11:37:20.76	318.91	11.78	-40.3	-43.0	12.4	1.32e-04	0	62	0	1658847232	51	5107
2026-01-23 11:37:21.77	319.04	11.71	-40.3	-42.9	12.5	1.46e-04	0	62	0	1661992960	51	5077
2026-01-23 11:37:22.78	319.18	11.65	-40.3	-42.9	12.4	1.52e-04	0	62	0	1665138688	51	5096
2026-01-23 11:37:23.79	319.31	11.58	-40.3	-43.0	12.4	1.46e-04	0	62	0	1668284416	51	5102
2026-01-23 11:37:24.80	319.45	11.51	-40.3	-43.0	12.4	1.42e-04	0	62	0	1671430144	51	5129
2026-01-23 11:37:25.81	319.58	11.45	-40.3	-43.0	12.4	1.52e-04	0	62	0	1674575872	51	5134
2026-01-23 11:37:26.82	319.71	11.38	-40.4	-43.1	12.3	1.70e-04	0	62	0	1677721600	51	5178
2026-01-23 11:37:27.83	319.84	11.31	-40.3	-43.0	12.4	1.69e-04	0	62	0	1680867328	51	5142
2026-01-23 11:37:28.84	319.97	11.25	-40.3	-43.0	12.3	1.55e-04	0	62	0	1684013056	51	5135
2026-01-23 11:37:29.85	320.10	11.18	-40.4	-43.1	12.3	1.61e-04	0	62	0	1687158784	51	5178
2026-01-23 11:37:30.86	320.23	11.12	-40.4	-43.2	12.2	2.30e-04	0	62	0	1690304512	51	5231
2026-01-23 11:37:31.87	320.36	11.05	-40.5	-43.3	12.1	3.07e-04	0	62	0	1693450240	51	5295
2026-01-23 11:37:32.88	320.49	10.98	-40.5	-43.3	12.0	3.05e-04	0	62	0	1696595968	51	5314
2026-01-23 11:37:33.89	320.62	10.92	-40.5	-43.4	12.0	3.45e-04	0	62	0	1699741696	51	5341
2026-01-23 11:37:34.90	320.75	10.85	-40.5	-43.4	11.9	3.67e-04	0	62	0	1702887424	51	5353
2026-01-23 11:37:35.91	320.88	10.79	-40.6	-43.5	11.8	3.93e-04	0	62	0	1706033152	51	5423
2026-01-23 11:37:36.92	321.00	10.72	-40.6	-43.5	11.8	4.71e-04	0	62	0	1709178880	51	5410
2026-01-23 11:37:37.93	321.13	10.66	-40.6	-43.5	11.8	4.25e-04	0	62	0	1712324608	51	5415
2026-01-23 11:37:38.95	321.25	10.59	-40.6	-43.5	11.8	4.76e-04	0	62	0	1715470336	51	5415
2026-01-23 11:37:39.96	321.38	10.52	-40.6	-43.6	11.7	5.16e-04	0	62	0	1718616064	51	5475
2026-01-23 11:37:40.97	321.50	10.46	-40.5	-43.4	11.9	4.52e-04	0	62	0	1721761792	51	5388
2026-01-23 11:37:41.97	321.63	10.39	-40.6	-43.4	11.8	4.94e-04	0	62	0	1724907520	51	5400
2026-01-23 11:37:42.98	321.75	10.33	-40.6	-43.4	11.8	4.95e-04	0	62	0	1728053248	51	5399
2026-01-23 11:37:43.99	321.87	10.26	-40.6	-43.4	11.8	4.80e-04	0	62	0	1731198976	51	5393
2026-01-23 11:37:45.00	322.00	10.20	-40.6	-43.5	11.7	5.52e-04	0	62	0	1734344704	51	5446
2026-01-23 11:37:46.01	322.12	10.13	-40.6	-43.5	11.8	6.10e-04	0	62	0	1737490432	51	5403
2026-01-23 11:37:47.02	322.24	10.07	-40.6	-43.6	11.6	5.68e-04	0	62	0	1740636160	51	5494
2026-01-23 11:37:48.03	322.36	10.00	-40.7	-43.7	11.5	7.29e-04	0	62	0	1743781888	51	5554
2026-01-23 11:37:49.04	322.48	9.94	-40.6	-43.6	11.6	6.80e-04	0	62	0	1746927616	51	5509
2026-01-23 11:37:50.05	322.60	9.87	-40.7	-43.7	11.5	7.16e-04	0	62	0	1750073344	51	5536
2026-01-23 11:37:51.05	322.72	9.81	-40.7	-43.7	11.4	9.31e-04	0	62	0	1753219072	52	5257
2026-01-23 11:37:52.06	322.84	9.74	-40.7	-43.9	11.2	1.23e-03	0	62	0	1756364800	52	5348
2026-01-23 11:37:53.07	322.95	9.68	-40.6	-43.6	11.5	7.80e-04	0	62	0	1759510528	52	5181
2026-01-23 11:37:54.09	323.07	9.61	-40.6	-43.6	11.5	7.78e-04	0	62	0	1762656256	52	5188
2026-01-23 11:37:55.09	323.19	9.55	-40.5	-43.5	11.6	7.67e-04	0	62	0	1765801984	52	5134
2026-01-23 11:37:56.10	323.31	9.49	-40.5	-43.5	11.6	7.26e-04	0	62	0	1768947712	52	5143
2026-01-23 11:37:57.11	323.42	9.42	-40.6	-43.6	11.5	7.50e-04	0	62	0	1772093440	52	5184
2026-01-23 11:37:58.12	323.54	9.36	-40.6	-43.5	11.6	6.96e-04	0	62	0	1775239168	52	5156
2026-01-23 11:37:59.13	323.65	9.29	-40.6	-43.6	11.5	8.09e-04	0	62	0	1778384896	52	5205
2026-01-23 11:38:00.14	323.77	9.23	-40.6	-43.7	11.4	9.63e-04	0	62	0	1781530624	52	5234
2026-01-23 11:38:01.15	323.88	9.16	-40.6	-43.7	11.4	9.38e-04	0	62	0	1784676352	52	5225
2026-01-23 11:38:02.16	324.00	9.10	-40.6	-43.7	11.4	9.57e-04	0	62	0	1787822080	52	5241
2026-01-23 11:38:03.17	324.11	9.04	-40.7	-43.8	11.2	1.02e-03	0	62	0	1790967808	52	5304
2026-01-23 11:38:04.18	324.22	8.97	-40.7	-43.8	11.2	1.37e-03	0	62	0	1794113536	52	5323
2026-01-23 11:38:05.19	324.33	8.91	-40.7	-43.9	11.1	1.45e-03	0	62	0	1797259264	52	5374
2026-01-23 11:38:06.20	324.45	8.84	-40.7	-43.8	11.2	1.42e-03	0	62	0	1800404992	52	5319
2026-01-23 11:38:07.21	324.56	8.78	-40.7	-43.8	11.2	1.56e-03	0	62	0	1803550720	52	5322
2026-01-23 11:38:08.21	324.67	8.72	-40.7	-43.9	11.1	1.57e-03	0	62	0	1806696448	52	5383
2026-01-23 11:38:09.22	324.78	8.65	-40.8	-44.0	11.0	1.81e-03	0	62	0	1809842176	52	5408
2026-01-23 11:38:10.24	324.89	8.59	-40.8	-44.1	10.9	2.14e-03	0	62	0	1812987904	52	5470
2026-01-23 11:38:11.25	325.00	8.53	-40.8	-44.1	10.9	2.11e-03	0	62	0	1816133632	52	5495
2026-01-23 11:38:12.26	325.11	8.46	-40.8	-44.0	11.0	1.96e-03	0	62	0	1819279360	52	5415
2026-01-23 11:38:13.26	325.22	8.40	-40.8	-44.0	10.9	2.05e-03	0	62	0	1822425088	52	5448
2026-01-23 11:38:14.27	325.32	8.34	-40.8	-44.0	10.9	2.23e-03	0	62	0	1825570816	52	5448
2026-01-23 11:38:15.28	325.43	8.27	-40.7	-44.0	11.0	1.85e-03	0	63	0	1828716544	52	5410
2026-01-23 11:38:16.29	325.54	8.21	-40.7	-43.9	11.1	1.89e-03	0	62	0	1831862272	52	5357
2026-01-23 11:38:17.30	325.65	8.15	-40.6	-43.7	11.2	1.34e-03	0	62	0	1835008000	52	5273
2026-01-23 11:38:18.31	325.75	8.08	-40.7	-43.8	11.1	1.57e-03	0	62	0	1838153728	52	5339
2026-01-23 11:38:19.32	325.86	8.02	-40.7	-43.9	11.0	1.60e-03	0	62	0	1841299456	52	5382
2026-01-23 11:38:20.33	325.96	7.96	-44.4	-55.5	3.8	1.47e+00	0	62	104	1842348032	59	13599
2026-01-23 11:38:21.34	326.07	7.90	-44.7	-57.1	3.8	1.49e+00	0	63	104	1842348032	60	15516
2026-01-23 11:38:22.35	326.17	7.83	-44.9	-57.3	3.8	1.49e+00	0	62	104	1842348032	60	15838
2026-01-23 11:38:23.36	326.28	7.77	-45.0	-57.4	3.8	1.49e+00	0	62	104	1842348032	60	16126
2026-01-23 11:38:24.37	326.38	7.71	-45.1	-57.5	3.8	1.49e+00	0	63	104	1842348032	60	16314
2026-01-23 11:38:25.38	326.49	7.65	-45.2	-57.6	3.8	1.49e+00	0	62	104	1842348032	61	15543
2026-01-23 11:38:26.39	326.59	7.58	-45.3	-57.7	3.8	1.49e+00	0	62	104	1842348032	61	15617
2026-01-23 11:38:27.40	326.69	7.52	-45.3	-57.7	3.8	1.49e+00	0	62	104	1842348032	61	15648
2026-01-23 11:38:28.41	326.79	7.46	-45.0	-57.5	3.8	1.49e+00	0	62	104	1842348032	61	15378
2026-01-23 11:38:29.42	326.89	7.40	-45.2	-57.6	3.8	1.49e+00	0	62	104	1842348032	61	15555
2026-01-23 11:38:30.43	327.00	7.34	-45.1	-57.6	3.8	1.49e+00	0	62	104	1842348032	61	15454
2026-01-23 11:38:31.44	327.10	7.27	-45.2	-57.6	3.8	1.49e+00	0	62	104	1842348032	60	16397
2026-01-23 11:38:32.45	327.20	7.21	-45.2	-57.5	3.8	1.49e+00	0	62	104	1842348032	61	15380
2026-01-23 11:38:33.46	327.30	7.15	-45.2	-57.6	3.8	1.49e+00	0	62	104	1842348032	61	15509
2026-01-23 11:38:34.47	327.40	7.09	-45.1	-57.5	3.8	1.49e+00	0	62	104	1842348032	61	15300
2026-01-23 11:38:35.47	327.50	7.03	-45.1	-57.5	3.8	1.49e+00	0	62	104	1842348032	60	16248
2026-01-23 11:38:36.49	327.60	6.97	-45.1	-57.5	3.8	1.49e+00	0	62	104	1842348032	60	16215
2026-01-23 11:38:37.50	327.69	6.90	-45.1	-57.5	3.8	1.49e+00	0	62	104	1842348032	60	16205
2026-01-23 11:38:38.51	327.79	6.84	-45.7	-57.8	3.8	1.49e+00	0	62	104	1842348032	60	16743
2026-01-23 11:38:39.52	327.89	6.78	-45.1	-57.5	3.8	1.49e+00	0	62	104	1842348032	60	16246
2026-01-23 11:38:40.53	327.99	6.72	-45.1	-57.5	3.8	1.49e+00	0	62	104	1842348032	60	16182
2026-01-23 11:38:41.54	328.08	6.66	-45.1	-57.5	3.8	1.49e+00	0	62	104	1842348032	60	16188
2026-01-23 11:38:42.55	328.18	6.60	-45.1	-57.5	3.8	1.49e+00	0	62	104	1842348032	60	16152
2026-01-23 11:38:43.56	328.28	6.54	-45.1	-57.5	3.8	1.49e+00	0	62	104	1842348032	60	16218
2026-01-23 11:38:44.57	328.37	6.48	-45.1	-57.5	3.8	1.49e+00	0	62	104	1842348032	60	16182
2026-01-23 11:38:45.58	328.47	6.42	-45.1	-57.5	3.8	1.49e+00	0	62	104	1842348032	60	16158
2026-01-23 11:38:46.59	328.56	6.35	-45.1	-57.5	3.8	1.49e+00	0	62	104	1842348032	60	16220
2026-01-23 11:38:47.60	328.66	6.29	-45.1	-57.5	3.8	1.49e+00	0	62	104	1842348032	60	16217
2026-01-23 11:38:48.61	328.75	6.23	-45.1	-57.5	3.8	1.49e+00	0	62	104	1842348032	60	16135
2026-01-23 11:38:49.62	328.85	6.17	-45.1	-57.5	3.8	1.49e+00	0	62	104	1842348032	60	16139
2026-01-23 11:38:50.63	328.94	6.11	-45.1	-57.5	3.8	1.49e+00	0	63	104	1842348032	60	16192
2026-01-23 11:38:51.64	329.03	6.05	-45.1	-57.4	3.8	1.49e+00	0	62	104	1842348032	60	16122
2026-01-23 11:38:52.65	329.13	5.99	-45.1	-57.5	3.8	1.49e+00	0	62	104	1842348032	60	16184
2026-01-23 11:38:53.66	329.22	5.93	-45.1	-57.5	3.8	1.49e+00	0	62	104	1842348032	60	16246
2026-01-23 11:38:54.67	329.31	5.87	-45.1	-57.5	3.8	1.49e+00	0	62	104	1842348032	60	16203
