passes_logs/2026/01/23/R2.0S_Moscow/R2.0S_Moscow__20260123_233609_NOAA_21_JPSS-2_rec.log

#Pass ID: 20260123_233609_NOAA 21 (JPSS-2)
#Satellite: NOAA 21 (JPSS-2)
#Configuration: NOAA-21
#almurnet v.1.7.20251203
#Start time: 2026-01-23 23:36:09

#Version: 2.2.20231116
#Station: R2.0S_Moscow
#Location: 37.707566 lon 55.798166 lat
#TLE: 1 54234U 22150A   26022.90705406  .00000208  00000+0  11937-3 0  9994
#TLE: 2 54234  98.7507 323.7115 0000669 231.3756 128.7360 14.19537879165931

#Time	Az	El	Level	Level2	SNR	BER	BlckErr	Temp	State	Recorded	gain1	gain2
2026-01-23 23:36:09.93	16.45	2.05	-42.3	-54.7	3.8	1.49e+00	0	52	0	0	56	14735
2026-01-23 23:36:10.93	16.45	2.11	-42.3	-54.7	3.8	1.49e+00	0	52	104	0	56	14742
2026-01-23 23:36:11.94	16.46	2.18	-42.3	-54.7	3.8	1.49e+00	0	52	104	0	56	14798
2026-01-23 23:36:12.95	16.47	2.24	-42.3	-54.7	3.8	1.49e+00	0	52	104	0	56	14776
2026-01-23 23:36:13.96	16.47	2.31	-42.3	-54.7	3.8	1.49e+00	0	52	104	0	56	14784
2026-01-23 23:36:14.97	16.48	2.37	-42.3	-54.7	3.8	1.49e+00	0	52	104	0	56	14775
2026-01-23 23:36:15.99	16.49	2.44	-42.3	-54.7	3.8	1.49e+00	0	53	104	0	56	14763
2026-01-23 23:36:17.00	16.49	2.50	-42.3	-54.7	3.8	1.49e+00	0	53	104	0	56	14749
2026-01-23 23:36:18.01	16.50	2.57	-42.3	-54.7	3.8	1.49e+00	0	53	104	0	56	14778
2026-01-23 23:36:19.02	16.51	2.64	-42.1	-54.5	3.8	1.49e+00	0	53	104	0	55	15336
2026-01-23 23:36:20.03	16.52	2.70	-42.1	-54.5	3.8	1.49e+00	0	53	104	0	55	15341
2026-01-23 23:36:21.04	16.52	2.77	-42.1	-54.5	3.8	1.49e+00	0	53	104	0	55	15336
2026-01-23 23:36:22.05	16.53	2.83	-42.1	-54.5	3.8	1.49e+00	0	53	104	0	55	15263
2026-01-23 23:36:23.06	16.54	2.90	-42.1	-54.5	3.8	1.49e+00	0	53	104	0	55	15318
2026-01-23 23:36:24.07	16.54	2.97	-42.1	-54.5	3.8	1.49e+00	0	53	104	0	55	15319
2026-01-23 23:36:25.08	16.55	3.03	-42.1	-54.5	3.8	1.49e+00	0	53	104	0	55	15310
2026-01-23 23:36:26.09	16.56	3.10	-42.1	-54.5	3.8	1.49e+00	0	53	104	0	55	15302
2026-01-23 23:36:27.10	16.57	3.17	-42.1	-54.5	3.8	1.49e+00	0	53	104	0	55	15352
2026-01-23 23:36:28.11	16.57	3.23	-42.1	-54.5	3.8	1.49e+00	0	53	104	0	55	15334
2026-01-23 23:36:29.12	16.58	3.30	-42.1	-54.5	3.8	1.49e+00	0	53	104	0	55	15335
2026-01-23 23:36:30.13	16.59	3.37	-42.1	-54.5	3.8	1.49e+00	0	53	104	0	55	15334
2026-01-23 23:36:31.14	16.59	3.44	-42.1	-54.5	3.8	1.49e+00	0	54	104	0	55	15303
2026-01-23 23:36:32.15	16.60	3.50	-42.1	-54.5	3.8	1.49e+00	0	54	104	0	55	15319
2026-01-23 23:36:33.16	16.61	3.57	-42.1	-54.5	3.8	1.49e+00	0	54	104	0	55	15349
2026-01-23 23:36:34.17	16.62	3.64	-42.1	-54.5	3.8	1.49e+00	0	54	104	0	55	15291
2026-01-23 23:36:35.18	16.62	3.71	-42.1	-54.5	3.8	1.49e+00	0	54	104	0	55	15272
2026-01-23 23:36:36.19	16.63	3.78	-42.1	-54.5	3.8	1.49e+00	0	54	104	0	55	15266
2026-01-23 23:36:37.20	16.64	3.85	-42.1	-54.5	3.8	1.49e+00	0	54	104	0	55	15298
2026-01-23 23:36:38.21	16.64	3.91	-42.1	-54.5	3.8	1.49e+00	0	54	104	0	55	15278
2026-01-23 23:36:39.22	16.65	3.98	-42.1	-54.5	3.8	1.49e+00	0	54	104	0	55	15309
2026-01-23 23:36:40.23	16.66	4.05	-42.1	-54.5	3.8	1.49e+00	0	54	104	0	55	15276
2026-01-23 23:36:41.25	16.67	4.12	-42.1	-54.5	3.8	1.49e+00	0	54	104	0	55	15293
2026-01-23 23:36:42.25	16.67	4.19	-42.1	-54.5	3.8	1.49e+00	0	54	104	0	55	15319
2026-01-23 23:36:43.26	16.68	4.26	-42.1	-54.5	3.8	1.49e+00	0	54	104	0	55	15296
2026-01-23 23:36:44.28	16.69	4.33	-42.1	-54.5	3.8	1.49e+00	0	54	104	0	55	15292
2026-01-23 23:36:45.29	16.70	4.40	-42.1	-54.5	3.8	1.49e+00	0	54	104	0	55	15255
2026-01-23 23:36:46.30	16.70	4.47	-42.1	-54.5	3.8	1.49e+00	0	55	104	0	55	15267
2026-01-23 23:36:47.31	16.71	4.54	-42.1	-54.5	3.8	1.49e+00	0	54	104	0	55	15301
2026-01-23 23:36:48.32	16.72	4.61	-42.1	-54.5	3.8	1.49e+00	0	55	104	0	55	15279
2026-01-23 23:36:49.33	16.72	4.68	-42.1	-54.5	3.8	1.49e+00	0	55	104	0	55	15332
2026-01-23 23:36:50.34	16.73	4.75	-42.1	-54.5	3.8	1.49e+00	0	55	104	0	55	15334
2026-01-23 23:36:51.35	16.74	4.82	-42.1	-54.5	3.8	1.49e+00	0	55	104	0	55	15314
2026-01-23 23:36:52.36	16.75	4.90	-42.1	-54.5	3.8	1.49e+00	0	55	104	0	55	15309
2026-01-23 23:36:53.37	16.75	4.97	-42.1	-54.5	3.8	1.49e+00	0	55	104	0	55	15294
2026-01-23 23:36:54.38	16.76	5.04	-42.1	-54.5	3.8	1.49e+00	0	55	104	0	55	15265
2026-01-23 23:36:55.39	16.77	5.11	-42.1	-54.5	3.8	1.49e+00	0	55	104	0	55	15255
2026-01-23 23:36:56.40	16.78	5.18	-42.1	-54.5	3.8	1.49e+00	0	55	104	0	55	15324
2026-01-23 23:36:57.41	16.78	5.26	-42.1	-54.4	3.8	1.49e+00	0	55	104	0	55	15224
2026-01-23 23:36:58.42	16.79	5.33	-42.1	-54.5	3.8	1.49e+00	0	55	104	0	55	15246
2026-01-23 23:36:59.43	16.80	5.40	-42.1	-54.5	3.8	1.49e+00	0	55	104	0	55	15234
2026-01-23 23:37:00.44	16.81	5.47	-42.1	-54.5	3.8	1.49e+00	0	55	104	0	55	15251
2026-01-23 23:37:01.45	16.81	5.55	-42.1	-54.5	3.8	1.49e+00	0	55	104	0	55	15268
2026-01-23 23:37:02.46	16.82	5.62	-42.1	-54.5	3.8	1.49e+00	0	55	104	0	55	15238
2026-01-23 23:37:03.47	16.83	5.69	-42.1	-54.5	3.8	1.49e+00	0	55	104	0	55	15256
2026-01-23 23:37:04.48	16.84	5.77	-42.1	-54.4	3.8	1.49e+00	0	56	104	0	55	15202
2026-01-23 23:37:05.49	16.84	5.84	-42.1	-54.5	3.8	1.49e+00	0	56	104	0	55	15256
2026-01-23 23:37:06.50	16.85	5.91	-42.1	-54.5	3.8	1.49e+00	0	56	104	0	55	15262
2026-01-23 23:37:07.51	16.86	5.99	-42.1	-54.5	3.8	1.49e+00	0	55	104	0	55	15255
2026-01-23 23:37:08.52	16.87	6.06	-42.1	-54.5	3.8	1.49e+00	0	56	104	0	55	15300
2026-01-23 23:37:09.53	16.88	6.14	-42.1	-54.5	3.8	1.49e+00	0	55	104	0	55	15237
2026-01-23 23:37:10.55	16.88	6.21	-42.0	-54.4	3.8	1.49e+00	0	56	104	0	55	15185
2026-01-23 23:37:11.56	16.89	6.29	-42.1	-54.5	3.8	1.49e+00	0	56	104	0	55	15263
2026-01-23 23:37:12.57	16.90	6.36	-42.1	-54.5	3.8	1.49e+00	0	56	104	0	55	15261
2026-01-23 23:37:13.58	16.91	6.44	-42.1	-54.4	3.8	1.49e+00	0	56	104	0	55	15221
2026-01-23 23:37:14.59	16.91	6.52	-42.1	-54.4	3.8	1.49e+00	0	56	104	0	55	15142
2026-01-23 23:37:15.60	16.92	6.59	-42.1	-54.4	3.8	1.49e+00	0	56	104	0	55	15103
2026-01-23 23:37:16.61	16.93	6.67	-42.1	-54.3	3.8	1.49e+00	0	56	104	0	55	14939
2026-01-23 23:37:17.62	16.94	6.75	-42.1	-54.2	3.8	1.49e+00	0	56	104	0	55	14794
2026-01-23 23:37:18.63	16.95	6.82	-42.1	-54.1	3.8	1.49e+00	0	56	104	0	55	14644
2026-01-23 23:37:19.64	16.95	6.90	-42.1	-54.0	3.8	1.49e+00	0	56	104	0	55	14439
2026-01-23 23:37:20.65	16.96	6.98	-42.0	-53.8	3.8	1.49e+00	0	56	104	0	55	14164
2026-01-23 23:37:21.66	16.97	7.05	-42.0	-53.8	3.8	1.49e+00	0	56	104	0	55	14127
2026-01-23 23:37:22.67	16.98	7.13	-42.0	-53.7	3.8	1.49e+00	0	56	104	0	55	13910
2026-01-23 23:37:23.68	16.98	7.21	-42.0	-53.4	3.8	1.49e+00	0	56	104	0	55	13469
2026-01-23 23:37:24.69	16.99	7.29	-41.9	-53.0	3.8	1.49e+00	0	56	104	0	55	12834
2026-01-23 23:37:25.70	17.00	7.37	-41.9	-52.0	3.8	1.49e+00	0	56	104	0	55	11485
2026-01-23 23:37:26.71	17.01	7.44	-41.7	-50.7	4.2	1.47e+00	0	56	104	0	55	9866
2026-01-23 23:37:27.72	17.02	7.52	-41.5	-49.6	4.7	1.15e+00	2	57	104	0	55	8674
2026-01-23 23:37:28.73	17.02	7.60	-41.3	-48.5	5.3	6.29e-01	0	57	0	2097152	54	8091
2026-01-23 23:37:29.74	17.03	7.68	-41.0	-47.3	6.0	3.73e-01	0	57	0	5242880	54	7116
2026-01-23 23:37:30.75	17.04	7.76	-40.7	-46.2	7.0	1.73e-01	0	57	0	8388608	53	6584
2026-01-23 23:37:31.76	17.05	7.84	-40.3	-45.0	8.1	8.61e-02	0	56	0	11534336	52	6129
2026-01-23 23:37:32.77	17.06	7.92	-40.0	-44.3	8.9	3.69e-02	0	57	0	14680064	51	5975
2026-01-23 23:37:33.78	17.07	8.00	-39.8	-43.8	9.5	1.58e-02	0	57	0	17825792	51	5599
2026-01-23 23:37:34.79	17.07	8.08	-39.8	-43.5	10.1	7.64e-03	0	57	0	20971520	51	5459
2026-01-23 23:37:35.80	17.08	8.16	-40.7	-44.6	9.7	4.39e-03	0	57	0	24117248	51	6138
2026-01-23 23:37:36.81	17.09	8.24	-41.4	-51.4	3.9	6.45e-01	0	57	104	27262976	53	12060
2026-01-23 23:37:37.82	17.10	8.33	-42.1	-51.7	3.9	1.49e+00	0	57	104	27262976	54	11770
2026-01-23 23:37:38.83	17.11	8.41	-40.9	-45.2	8.9	6.44e-02	0	57	0	28311552	52	6244
2026-01-23 23:37:39.84	17.11	8.49	-40.4	-44.1	10.0	2.26e-02	0	57	0	31457280	52	5502
2026-01-23 23:37:40.85	17.12	8.57	-40.1	-43.5	10.6	4.48e-03	0	57	0	34603008	52	5129
2026-01-23 23:37:41.86	17.13	8.65	-40.0	-43.4	10.7	2.65e-03	0	57	0	37748736	52	5075
2026-01-23 23:37:42.87	17.14	8.74	-40.2	-43.6	10.6	3.62e-03	0	57	0	40894464	52	5194
2026-01-23 23:37:43.87	17.15	8.82	-40.2	-43.7	10.5	3.54e-03	0	57	0	44040192	52	5250
2026-01-23 23:37:44.88	17.16	8.90	-40.2	-43.6	10.7	3.87e-03	0	57	0	47185920	52	5193
2026-01-23 23:37:45.89	17.16	8.99	-40.0	-43.2	11.2	1.83e-03	0	57	0	50331648	51	5239
2026-01-23 23:37:46.91	17.17	9.07	-40.0	-43.2	11.2	1.27e-03	0	57	0	53477376	51	5254
2026-01-23 23:37:47.92	17.18	9.15	-40.1	-43.4	11.1	1.75e-03	0	57	0	56623104	51	5360
2026-01-23 23:37:48.92	17.19	9.24	-40.0	-43.2	11.3	1.16e-03	0	57	0	59768832	51	5226
2026-01-23 23:37:49.93	17.20	9.32	-40.3	-43.6	10.9	1.65e-03	0	57	0	62914560	51	5471
2026-01-23 23:37:50.94	17.21	9.41	-40.2	-43.5	11.0	2.13e-03	0	57	0	66060288	51	5439
2026-01-23 23:37:51.95	17.22	9.49	-40.1	-43.3	11.2	1.36e-03	0	57	0	69206016	51	5321
2026-01-23 23:37:52.96	17.22	9.58	-40.4	-43.8	10.8	2.06e-03	0	57	0	72351744	51	5597
2026-01-23 23:37:53.97	17.23	9.67	-40.2	-43.4	11.2	1.75e-03	0	58	0	75497472	51	5361
2026-01-23 23:37:54.98	17.24	9.75	-40.3	-43.5	11.2	1.14e-03	0	57	0	78643200	51	5429
2026-01-23 23:37:55.99	17.25	9.84	-40.2	-43.4	11.3	1.69e-03	0	57	0	81788928	51	5358
2026-01-23 23:37:57.00	17.26	9.92	-40.2	-43.4	11.3	1.09e-03	0	57	0	84934656	51	5368
2026-01-23 23:37:58.01	17.27	10.01	-40.1	-43.2	11.6	8.60e-04	0	58	0	88080384	51	5229
2026-01-23 23:37:59.02	17.28	10.10	-40.1	-43.1	11.7	6.53e-04	0	57	0	91226112	51	5197
2026-01-23 23:38:00.03	17.28	10.19	-40.1	-43.0	11.8	5.18e-04	0	58	0	94371840	51	5123
2026-01-23 23:38:01.04	17.29	10.27	-40.1	-43.0	11.8	4.52e-04	0	57	0	97517568	51	5155
2026-01-23 23:38:02.05	17.30	10.36	-40.1	-43.1	11.7	5.45e-04	0	58	0	100663296	51	5185
2026-01-23 23:38:03.05	17.31	10.45	-40.2	-43.2	11.7	6.42e-04	0	58	0	103809024	51	5224
2026-01-23 23:38:04.07	17.32	10.54	-40.1	-43.0	11.8	4.42e-04	0	58	0	106954752	51	5146
2026-01-23 23:38:05.08	17.33	10.63	-40.1	-43.0	11.9	4.23e-04	0	57	0	110100480	51	5105
2026-01-23 23:38:06.08	17.34	10.72	-40.1	-42.9	12.0	3.15e-04	0	58	0	113246208	51	5076
2026-01-23 23:38:07.09	17.35	10.81	-40.0	-42.9	12.1	2.46e-04	0	58	0	116391936	51	5043
2026-01-23 23:38:08.11	17.36	10.90	-39.9	-42.7	12.3	1.99e-04	0	58	0	119537664	51	4955
2026-01-23 23:38:09.11	17.36	10.99	-40.0	-42.8	12.1	2.68e-04	0	58	0	122683392	51	5040
2026-01-23 23:38:10.12	17.37	11.08	-40.0	-42.8	12.2	2.05e-04	0	58	0	125829120	51	5032
2026-01-23 23:38:11.13	17.38	11.17	-40.0	-42.7	12.3	1.76e-04	0	58	0	128974848	51	4976
2026-01-23 23:38:12.15	17.39	11.26	-40.0	-42.8	12.3	1.85e-04	0	58	0	132120576	51	5019
2026-01-23 23:38:13.16	17.40	11.36	-40.0	-42.7	12.4	1.64e-04	0	58	0	135266304	51	4952
2026-01-23 23:38:14.17	17.41	11.45	-40.0	-42.7	12.4	1.63e-04	0	58	0	138412032	51	4939
2026-01-23 23:38:15.17	17.42	11.54	-40.0	-42.7	12.4	1.42e-04	0	58	0	141557760	51	4931
2026-01-23 23:38:16.18	17.43	11.63	-40.0	-42.7	12.4	1.42e-04	0	58	0	144703488	51	4965
2026-01-23 23:38:17.19	17.44	11.73	-40.0	-42.8	12.4	1.56e-04	0	58	0	147849216	51	5005
2026-01-23 23:38:18.21	17.45	11.82	-40.0	-42.8	12.4	1.57e-04	0	58	0	150994944	51	5007
2026-01-23 23:38:19.21	17.46	11.92	-40.0	-42.6	12.5	1.09e-04	0	58	0	154140672	51	4922
2026-01-23 23:38:20.22	17.47	12.01	-39.9	-42.6	12.6	1.12e-04	0	58	0	157286400	51	4904
2026-01-23 23:38:21.23	17.47	12.10	-39.9	-42.6	12.6	9.68e-05	0	58	0	160432128	51	4875
2026-01-23 23:38:22.24	17.48	12.20	-39.9	-42.6	12.6	8.62e-05	0	58	0	163577856	51	4878
2026-01-23 23:38:23.26	17.49	12.30	-39.9	-42.5	12.7	7.32e-05	0	58	0	166723584	51	4835
2026-01-23 23:38:24.26	17.50	12.39	-39.8	-42.4	12.9	5.64e-05	0	58	0	169869312	51	4762
2026-01-23 23:38:25.27	17.51	12.49	-39.8	-42.4	12.8	4.88e-05	0	58	0	173015040	51	4808
2026-01-23 23:38:26.28	17.52	12.58	-39.8	-42.4	12.8	5.34e-05	0	58	0	176160768	51	4790
2026-01-23 23:38:27.30	17.53	12.68	-39.7	-42.3	13.0	5.18e-05	0	58	0	179306496	51	4727
2026-01-23 23:38:28.31	17.54	12.78	-39.8	-42.4	12.9	5.26e-05	0	58	0	182452224	51	4782
2026-01-23 23:38:29.32	17.55	12.88	-39.8	-42.4	12.9	4.65e-05	0	58	0	185597952	51	4779
2026-01-23 23:38:30.33	17.56	12.98	-39.8	-42.4	12.9	4.42e-05	0	58	0	188743680	51	4778
2026-01-23 23:38:31.34	17.57	13.08	-39.8	-42.3	13.0	4.65e-05	0	58	0	191889408	51	4726
2026-01-23 23:38:32.35	17.58	13.17	-39.7	-42.2	13.0	4.34e-05	0	58	0	195035136	51	4686
2026-01-23 23:38:33.36	17.59	13.27	-39.8	-42.3	13.0	3.20e-05	0	58	0	198180864	51	4746
2026-01-23 23:38:34.37	17.60	13.37	-39.8	-42.3	12.9	5.41e-05	0	58	0	201326592	51	4755
2026-01-23 23:38:35.38	17.61	13.47	-39.7	-42.3	13.0	3.89e-05	0	58	0	204472320	51	4716
2026-01-23 23:38:36.39	17.62	13.57	-39.8	-42.3	12.9	3.96e-05	0	59	0	207618048	51	4748
2026-01-23 23:38:37.40	17.63	13.68	-39.6	-42.1	13.2	2.28e-05	0	58	0	210763776	51	4627
2026-01-23 23:38:38.41	17.64	13.78	-39.7	-42.1	13.2	2.21e-05	0	59	0	213909504	51	4632
2026-01-23 23:38:39.42	17.65	13.88	-39.7	-42.1	13.2	1.67e-05	0	58	0	217055232	51	4646
2026-01-23 23:38:40.42	17.66	13.98	-39.7	-42.1	13.2	1.75e-05	0	59	0	220200960	51	4630
2026-01-23 23:38:41.43	17.67	14.08	-39.8	-42.2	13.2	4.19e-05	0	59	0	223346688	51	4700
2026-01-23 23:38:42.44	17.68	14.19	-39.7	-42.2	13.2	2.51e-05	0	58	0	226492416	51	4660
2026-01-23 23:38:43.45	17.69	14.29	-39.7	-42.1	13.3	1.14e-05	0	59	0	229638144	51	4614
2026-01-23 23:38:44.46	17.70	14.40	-39.7	-42.1	13.2	1.29e-05	0	58	0	232783872	51	4648
2026-01-23 23:38:45.47	17.71	14.50	-39.8	-42.2	13.2	1.75e-05	0	59	0	235929600	51	4661
2026-01-23 23:38:46.48	17.72	14.61	-39.8	-42.2	13.2	2.36e-05	0	59	0	239075328	51	4673
2026-01-23 23:38:47.49	17.73	14.71	-39.7	-42.1	13.3	1.29e-05	0	59	0	242221056	51	4650
2026-01-23 23:38:48.50	17.74	14.82	-39.7	-42.1	13.3	1.90e-05	0	59	0	245366784	51	4640
2026-01-23 23:38:49.51	17.75	14.92	-39.8	-42.2	13.2	2.67e-05	0	59	0	248512512	51	4689
2026-01-23 23:38:50.52	17.76	15.03	-39.8	-42.2	13.3	2.67e-05	0	59	0	251658240	51	4688
2026-01-23 23:38:51.53	17.77	15.14	-39.8	-42.2	13.3	2.13e-05	0	59	0	254803968	51	4689
2026-01-23 23:38:52.54	17.78	15.25	-39.7	-42.1	13.3	1.67e-05	0	59	0	257949696	51	4649
2026-01-23 23:38:53.55	17.79	15.35	-39.7	-42.1	13.4	1.67e-05	0	59	0	261095424	51	4609
2026-01-23 23:38:54.56	17.80	15.46	-39.7	-42.1	13.4	1.52e-05	0	59	0	264241152	51	4623
2026-01-23 23:38:55.57	17.82	15.57	-39.8	-42.2	13.3	1.83e-05	0	59	0	267386880	51	4661
2026-01-23 23:38:56.58	17.83	15.68	-39.7	-42.1	13.4	1.60e-05	0	59	0	270532608	51	4625
2026-01-23 23:38:57.59	17.84	15.79	-39.8	-42.2	13.3	1.44e-05	0	59	0	273678336	51	4660
2026-01-23 23:38:58.60	17.85	15.90	-39.9	-42.3	13.3	1.83e-05	0	59	0	276824064	51	4725
2026-01-23 23:38:59.61	17.86	16.01	-39.8	-42.3	13.2	1.67e-05	0	59	0	279969792	51	4708
2026-01-23 23:39:00.62	17.87	16.13	-39.9	-42.3	13.2	2.67e-05	0	59	0	283115520	51	4745
2026-01-23 23:39:01.63	17.88	16.24	-39.8	-42.3	13.3	1.83e-05	0	59	0	286261248	51	4711
2026-01-23 23:39:02.64	17.89	16.35	-39.7	-42.1	13.4	1.67e-05	0	59	0	289406976	51	4638
2026-01-23 23:39:03.65	17.90	16.47	-39.7	-42.1	13.5	1.29e-05	0	59	0	292552704	51	4603
2026-01-23 23:39:04.66	17.91	16.58	-39.7	-42.1	13.5	1.44e-05	0	59	0	295698432	51	4604
2026-01-23 23:39:05.66	17.93	16.69	-39.7	-42.1	13.5	1.06e-05	0	59	0	298844160	51	4632
2026-01-23 23:39:06.67	17.94	16.81	-39.8	-42.2	13.4	1.60e-05	0	59	0	301989888	51	4665
2026-01-23 23:39:07.68	17.95	16.92	-39.6	-42.0	13.5	9.10e-06	0	59	0	305135616	51	4597
2026-01-23 23:39:08.69	17.96	17.04	-39.8	-42.1	13.5	1.14e-05	0	59	0	308281344	51	4648
2026-01-23 23:39:09.70	17.97	17.16	-39.8	-42.1	13.5	1.22e-05	0	59	0	311427072	51	4635
2026-01-23 23:39:10.71	17.98	17.27	-39.8	-42.1	13.5	6.80e-06	0	59	0	314572800	51	4640
2026-01-23 23:39:11.72	17.99	17.39	-39.8	-42.2	13.5	1.06e-05	0	59	0	317718528	51	4671
2026-01-23 23:39:12.73	18.01	17.51	-39.8	-42.2	13.5	9.10e-06	0	59	0	321912832	51	4653
2026-01-23 23:39:13.74	18.02	17.63	-39.8	-42.2	13.5	9.10e-06	0	59	0	324009984	51	4670
2026-01-23 23:39:14.75	18.03	17.75	-39.8	-42.2	13.5	8.30e-06	0	59	0	327155712	51	4662
2026-01-23 23:39:15.76	18.04	17.87	-39.8	-42.2	13.5	5.30e-06	0	59	0	330301440	51	4678
2026-01-23 23:39:16.77	18.05	17.99	-39.8	-42.2	13.5	9.90e-06	0	59	0	333447168	51	4663
2026-01-23 23:39:17.78	18.06	18.11	-39.8	-42.2	13.6	1.44e-05	0	59	0	336592896	51	4662
2026-01-23 23:39:18.79	18.08	18.23	-39.9	-42.3	13.5	6.10e-06	0	59	0	340787200	51	4729
2026-01-23 23:39:19.80	18.09	18.36	-39.9	-42.3	13.5	1.29e-05	0	59	0	343932928	51	4711
2026-01-23 23:39:20.81	18.10	18.48	-39.9	-42.2	13.6	8.30e-06	0	59	0	347078656	51	4676
2026-01-23 23:39:21.82	18.11	18.60	-39.9	-42.2	13.5	1.14e-05	0	59	0	349175808	51	4678
2026-01-23 23:39:22.83	18.13	18.73	-39.9	-42.3	13.5	1.06e-05	0	59	0	352321536	51	4718
2026-01-23 23:39:23.83	18.14	18.85	-39.8	-42.1	13.6	8.30e-06	0	59	0	356515840	51	4650
2026-01-23 23:39:24.84	18.15	18.98	-39.8	-42.2	13.5	8.30e-06	0	59	0	359661568	51	4675
2026-01-23 23:39:25.86	18.16	19.10	-39.9	-42.2	13.5	7.60e-06	0	59	0	362807296	51	4699
2026-01-23 23:39:26.86	18.18	19.23	-39.7	-42.0	13.7	6.80e-06	0	59	0	365953024	51	4585
2026-01-23 23:39:27.88	18.19	19.36	-39.7	-41.9	13.9	5.30e-06	0	59	0	369098752	51	4515
2026-01-23 23:39:28.88	18.20	19.49	-39.7	-42.0	13.8	4.50e-06	0	59	0	372244480	51	4566
2026-01-23 23:39:29.90	18.21	19.62	-39.7	-42.0	13.8	4.50e-06	0	59	0	375390208	51	4578
2026-01-23 23:39:30.91	18.23	19.75	-39.7	-42.0	13.8	7.60e-06	0	59	0	378535936	51	4579
2026-01-23 23:39:31.92	18.24	19.88	-39.7	-41.9	13.9	3.00e-06	0	59	0	381681664	51	4530
2026-01-23 23:39:32.93	18.25	20.01	-39.7	-41.9	13.9	3.00e-06	0	59	0	384827392	51	4533
2026-01-23 23:39:33.94	18.26	20.14	-39.7	-41.9	13.9	3.80e-06	0	59	0	387973120	51	4528
2026-01-23 23:39:34.95	18.28	20.27	-39.6	-41.8	14.0	1.50e-06	0	60	0	391118848	51	4490
2026-01-23 23:39:35.96	18.29	20.40	-39.6	-41.8	14.0	2.20e-06	0	59	0	394264576	51	4487
2026-01-23 23:39:36.97	18.30	20.54	-39.6	-41.8	14.0	1.50e-06	0	59	0	397410304	51	4486
2026-01-23 23:39:37.98	18.32	20.67	-39.6	-41.7	14.1	7.00e-07	0	60	0	400556032	51	4435
2026-01-23 23:39:38.98	18.33	20.81	-39.6	-41.8	14.1	3.00e-06	0	59	0	403701760	51	4456
2026-01-23 23:39:40.00	18.34	20.94	-39.5	-41.7	14.2	1.50e-06	0	59	0	406847488	51	4401
2026-01-23 23:39:41.01	18.36	21.08	-39.4	-41.6	14.3	1.50e-06	0	60	0	409993216	50	4607
2026-01-23 23:39:42.01	18.37	21.22	-39.4	-41.5	14.4	3.80e-06	0	59	0	413138944	50	4574
2026-01-23 23:39:43.03	18.39	21.36	-39.4	-41.5	14.4	7.00e-07	0	59	0	416284672	50	4567
2026-01-23 23:39:44.04	18.40	21.50	-39.4	-41.5	14.3	2.20e-06	0	59	0	419430400	50	4588
2026-01-23 23:39:45.05	18.41	21.64	-39.4	-41.5	14.3	0.00e+00	0	59	0	422576128	50	4582
2026-01-23 23:39:46.06	18.43	21.78	-39.3	-41.3	14.5	0.00e+00	0	59	0	425721856	50	4483
2026-01-23 23:39:47.07	18.44	21.92	-39.2	-41.2	14.7	0.00e+00	0	59	0	428867584	50	4420
2026-01-23 23:39:48.08	18.46	22.06	-39.1	-41.1	14.8	7.00e-07	0	59	0	432013312	50	4381
2026-01-23 23:39:49.09	18.47	22.20	-39.1	-41.1	14.8	0.00e+00	0	60	0	435159040	50	4350
2026-01-23 23:39:50.10	18.49	22.35	-39.1	-41.2	14.7	0.00e+00	0	60	0	438304768	50	4392
2026-01-23 23:39:51.10	18.50	22.49	-39.1	-41.0	14.9	0.00e+00	0	59	0	441450496	50	4335
2026-01-23 23:39:52.11	18.51	22.64	-39.0	-41.0	14.9	0.00e+00	0	60	0	444596224	50	4312
2026-01-23 23:39:53.12	18.53	22.78	-39.1	-41.1	14.8	0.00e+00	0	60	0	447741952	50	4356
2026-01-23 23:39:54.13	18.54	22.93	-38.9	-40.9	15.0	7.00e-07	0	59	0	450887680	49	4508
2026-01-23 23:39:55.14	18.56	23.08	-38.8	-40.7	15.2	0.00e+00	0	60	0	454033408	49	4411
2026-01-23 23:39:56.16	18.57	23.23	-38.8	-40.8	15.2	0.00e+00	0	60	0	457179136	49	4444
2026-01-23 23:39:57.17	18.59	23.38	-38.8	-40.7	15.2	0.00e+00	0	60	0	460324864	49	4416
2026-01-23 23:39:58.18	18.60	23.53	-38.8	-40.7	15.2	0.00e+00	0	60	0	463470592	49	4420
2026-01-23 23:39:59.18	18.62	23.68	-38.9	-40.8	15.2	0.00e+00	0	60	0	466616320	49	4450
2026-01-23 23:40:00.19	18.63	23.83	-38.8	-40.6	15.3	0.00e+00	0	60	0	469762048	49	4384
2026-01-23 23:40:01.20	18.65	23.98	-38.7	-40.6	15.3	0.00e+00	0	60	0	472907776	49	4373
2026-01-23 23:40:02.21	18.67	24.14	-38.8	-40.6	15.3	0.00e+00	0	60	0	476053504	49	4378
2026-01-23 23:40:03.22	18.68	24.29	-38.7	-40.6	15.3	0.00e+00	0	60	0	479199232	49	4372
2026-01-23 23:40:04.23	18.70	24.45	-38.7	-40.6	15.4	0.00e+00	0	60	0	482344960	49	4379
2026-01-23 23:40:05.23	18.71	24.60	-38.8	-40.7	15.3	0.00e+00	0	60	0	485490688	49	4428
2026-01-23 23:40:06.24	18.73	24.76	-38.9	-40.8	15.2	0.00e+00	0	60	0	488636416	49	4461
2026-01-23 23:40:07.25	18.75	24.92	-38.9	-40.8	15.2	0.00e+00	0	60	0	491782144	49	4485
2026-01-23 23:40:08.26	18.76	25.08	-39.0	-40.9	15.1	0.00e+00	0	60	0	494927872	49	4514
2026-01-23 23:40:09.27	18.78	25.24	-39.1	-41.0	15.0	7.00e-07	0	60	0	498073600	49	4583
2026-01-23 23:40:10.28	18.80	25.40	-39.0	-41.0	15.0	7.00e-07	0	60	0	501219328	49	4562
2026-01-23 23:40:11.29	18.81	25.57	-39.1	-41.1	14.9	0.00e+00	0	60	0	504365056	49	4621
2026-01-23 23:40:12.30	18.83	25.73	-39.2	-41.3	14.8	0.00e+00	0	60	0	507510784	49	4708
2026-01-23 23:40:13.32	18.85	25.90	-39.3	-41.3	14.7	0.00e+00	0	60	0	510656512	49	4749
2026-01-23 23:40:14.32	18.86	26.06	-39.4	-41.4	14.6	0.00e+00	0	60	0	513802240	49	4795
2026-01-23 23:40:15.34	18.88	26.23	-39.5	-41.6	14.4	0.00e+00	0	60	0	516947968	49	4883
2026-01-23 23:40:16.35	18.90	26.40	-39.6	-41.7	14.3	0.00e+00	0	60	0	520093696	49	4943
2026-01-23 23:40:17.36	18.92	26.56	-39.6	-41.8	14.2	7.00e-07	0	60	0	523239424	49	5027
2026-01-23 23:40:18.37	18.93	26.73	-39.7	-41.9	14.2	2.20e-06	0	60	0	526385152	49	5053
2026-01-23 23:40:19.38	18.95	26.91	-39.8	-42.0	14.0	2.20e-06	0	60	0	529530880	50	4835
2026-01-23 23:40:20.39	18.97	27.08	-39.9	-42.1	13.9	3.00e-06	0	60	0	532676608	50	4917
2026-01-23 23:40:21.40	18.99	27.25	-39.9	-42.2	13.9	4.50e-06	0	60	0	535822336	50	4951
2026-01-23 23:40:22.41	19.01	27.43	-40.1	-42.4	13.7	1.06e-05	0	60	0	538968064	50	5055
2026-01-23 23:40:23.42	19.03	27.60	-40.1	-42.5	13.6	9.10e-06	0	60	0	542113792	50	5121
2026-01-23 23:40:24.43	19.04	27.78	-40.1	-42.5	13.5	1.06e-05	0	60	0	545259520	50	5133
2026-01-23 23:40:25.44	19.06	27.95	-40.2	-42.6	13.4	8.30e-06	0	60	0	548405248	51	4920
2026-01-23 23:40:26.45	19.08	28.13	-40.2	-42.5	13.5	1.44e-05	0	60	0	551550976	51	4860
2026-01-23 23:40:27.46	19.10	28.31	-40.2	-42.6	13.4	5.30e-06	0	60	0	554696704	51	4880
2026-01-23 23:40:28.46	19.12	28.49	-40.3	-42.7	13.3	1.60e-05	0	60	0	557842432	51	4938
2026-01-23 23:40:29.47	19.14	28.68	-40.1	-42.5	13.5	9.10e-06	0	60	0	560988160	51	4851
2026-01-23 23:40:30.48	19.16	28.86	-40.2	-42.5	13.5	1.67e-05	0	60	0	564133888	51	4862
2026-01-23 23:40:31.49	19.18	29.04	-40.2	-42.6	13.3	1.44e-05	0	60	0	567279616	51	4913
2026-01-23 23:40:32.50	19.20	29.23	-40.2	-42.6	13.3	1.52e-05	0	60	0	570425344	51	4918
2026-01-23 23:40:33.52	19.22	29.42	-40.1	-42.4	13.6	6.80e-06	0	60	0	573571072	51	4796
2026-01-23 23:40:34.52	19.24	29.61	-40.0	-42.2	13.7	6.10e-06	0	60	0	576716800	51	4693
2026-01-23 23:40:35.54	19.26	29.80	-39.7	-41.9	14.1	3.80e-06	0	60	0	579862528	51	4496
2026-01-23 23:40:36.54	19.28	29.99	-39.7	-41.8	14.2	1.50e-06	0	60	0	583008256	51	4475
2026-01-23 23:40:37.55	19.30	30.18	-39.6	-41.7	14.2	1.50e-06	0	60	0	586153984	51	4439
2026-01-23 23:40:38.56	19.32	30.37	-39.5	-41.6	14.4	7.00e-07	0	60	0	589299712	51	4371
2026-01-23 23:40:39.57	19.35	30.57	-39.4	-41.5	14.5	0.00e+00	0	60	0	592445440	50	4550
2026-01-23 23:40:40.58	19.37	30.76	-39.4	-41.4	14.6	0.00e+00	0	60	0	595591168	50	4511
2026-01-23 23:40:41.58	19.39	30.96	-39.4	-41.4	14.6	0.00e+00	0	60	0	598736896	50	4543
2026-01-23 23:40:42.60	19.41	31.16	-39.2	-41.2	14.8	0.00e+00	0	60	0	601882624	50	4423
2026-01-23 23:40:43.60	19.43	31.36	-39.1	-41.1	14.9	0.00e+00	0	60	0	605028352	50	4361
2026-01-23 23:40:44.61	19.46	31.56	-39.2	-41.2	14.8	0.00e+00	0	60	0	608174080	50	4420
2026-01-23 23:40:45.62	19.48	31.76	-39.2	-41.2	14.9	0.00e+00	0	60	0	611319808	50	4402
2026-01-23 23:40:46.63	19.50	31.97	-39.3	-41.3	14.8	0.00e+00	0	60	0	614465536	50	4442
2026-01-23 23:40:47.64	19.53	32.17	-39.4	-41.4	14.7	7.00e-07	0	60	0	617611264	50	4498
2026-01-23 23:40:48.65	19.55	32.38	-39.4	-41.5	14.6	7.00e-07	0	60	0	620756992	50	4563
2026-01-23 23:40:49.66	19.57	32.59	-39.5	-41.5	14.6	7.00e-07	0	60	0	623902720	50	4573
2026-01-23 23:40:50.67	19.60	32.80	-39.5	-41.6	14.5	0.00e+00	0	60	0	627048448	50	4619
2026-01-23 23:40:51.68	19.62	33.01	-39.6	-41.6	14.5	0.00e+00	0	60	0	630194176	50	4641
2026-01-23 23:40:52.70	19.65	33.23	-39.8	-41.9	14.2	1.50e-06	0	60	0	633339904	50	4778
2026-01-23 23:40:53.70	19.67	33.44	-39.8	-42.0	14.1	2.20e-06	0	60	0	636485632	50	4835
2026-01-23 23:40:54.71	19.70	33.66	-39.8	-42.0	14.1	7.00e-07	0	60	0	639631360	50	4854
2026-01-23 23:40:55.72	19.72	33.88	-40.0	-42.2	13.9	7.00e-07	0	60	0	642777088	50	4953
2026-01-23 23:40:56.73	19.75	34.09	-40.0	-42.2	13.9	3.00e-06	0	60	0	645922816	50	4964
2026-01-23 23:40:57.74	19.77	34.32	-40.0	-42.3	13.8	3.80e-06	0	60	0	649068544	50	4987
2026-01-23 23:40:58.75	19.80	34.54	-40.1	-42.5	13.7	3.80e-06	0	60	0	652214272	50	5111
2026-01-23 23:40:59.76	19.83	34.76	-40.1	-42.4	13.7	6.10e-06	0	60	0	655360000	50	5075
2026-01-23 23:41:00.76	19.85	34.99	-40.3	-42.7	13.3	1.44e-05	0	60	0	658505728	51	4977
2026-01-23 23:41:01.78	19.88	35.22	-40.4	-42.8	13.3	1.52e-05	0	60	0	661651456	51	4997
2026-01-23 23:41:02.79	19.91	35.44	-40.5	-43.0	13.1	2.51e-05	0	60	0	664797184	51	5110
2026-01-23 23:41:03.79	19.94	35.67	-40.6	-43.1	12.9	4.50e-05	0	60	0	667942912	51	5216
2026-01-23 23:41:04.80	19.96	35.91	-40.6	-43.2	12.8	4.50e-05	0	60	0	671088640	52	4957
2026-01-23 23:41:05.81	19.99	36.14	-40.6	-43.1	12.9	4.19e-05	0	60	0	674234368	52	4916
2026-01-23 23:41:06.82	20.02	36.38	-40.8	-43.4	12.6	1.07e-04	0	60	0	677380096	52	5077
2026-01-23 23:41:07.83	20.05	36.61	-40.7	-43.3	12.7	6.33e-05	0	61	0	681574400	52	5003
2026-01-23 23:41:08.84	20.08	36.85	-40.9	-43.7	12.4	1.53e-04	0	61	0	684720128	52	5233
2026-01-23 23:41:09.85	20.11	37.09	-40.9	-43.6	12.4	1.44e-04	0	60	0	687865856	52	5204
2026-01-23 23:41:10.86	20.14	37.34	-40.9	-43.7	12.3	1.92e-04	0	60	0	689963008	52	5252
2026-01-23 23:41:11.87	20.17	37.58	-41.0	-43.8	12.2	2.01e-04	0	60	0	693108736	52	5327
2026-01-23 23:41:12.88	20.20	37.83	-41.0	-43.9	12.1	2.37e-04	0	60	0	697303040	52	5350
2026-01-23 23:41:13.89	20.24	38.08	-41.0	-43.7	12.3	2.02e-04	0	61	0	700448768	52	5269
2026-01-23 23:41:14.90	20.27	38.33	-40.9	-43.7	12.3	1.84e-04	0	60	0	703594496	52	5240
2026-01-23 23:41:15.91	20.30	38.58	-40.8	-43.5	12.6	9.99e-05	0	60	0	706740224	52	5142
2026-01-23 23:41:16.92	20.33	38.83	-40.9	-43.7	12.3	1.41e-04	0	60	0	709885952	52	5243
2026-01-23 23:41:17.93	20.37	39.09	-40.7	-43.4	12.7	7.93e-05	0	60	0	713031680	52	5057
2026-01-23 23:41:18.94	20.40	39.34	-40.7	-43.3	12.8	5.95e-05	0	60	0	716177408	52	4994
2026-01-23 23:41:19.95	20.44	39.60	-40.7	-43.3	12.7	6.48e-05	0	61	0	719323136	52	5019
2026-01-23 23:41:20.96	20.47	39.87	-40.7	-43.3	12.7	7.55e-05	0	60	0	722468864	52	5014
2026-01-23 23:41:21.97	20.51	40.13	-40.8	-43.4	12.6	8.23e-05	0	60	0	725614592	52	5084
2026-01-23 23:41:22.98	20.54	40.39	-40.8	-43.4	12.6	1.07e-04	0	60	0	728760320	52	5080
2026-01-23 23:41:23.99	20.58	40.66	-40.7	-43.3	12.8	6.33e-05	0	60	0	731906048	52	4986
2026-01-23 23:41:25.00	20.62	40.93	-40.8	-43.4	12.6	8.69e-05	0	60	0	735051776	52	5058
2026-01-23 23:41:26.01	20.65	41.20	-40.8	-43.4	12.6	8.85e-05	0	60	0	738197504	52	5081
2026-01-23 23:41:27.02	20.69	41.48	-40.9	-43.5	12.5	1.29e-04	0	61	0	741343232	52	5132
2026-01-23 23:41:28.03	20.73	41.75	-41.0	-43.8	12.2	2.22e-04	0	60	0	744488960	52	5311
2026-01-23 23:41:29.04	20.77	42.03	-41.1	-43.9	12.0	3.20e-04	0	60	0	747634688	52	5382
2026-01-23 23:41:30.04	20.81	42.31	-41.3	-44.3	11.6	5.70e-04	0	60	0	750780416	53	5322
2026-01-23 23:41:31.05	20.85	42.59	-41.5	-44.5	11.5	8.38e-04	0	60	0	753926144	53	5443
2026-01-23 23:41:32.06	20.89	42.87	-41.6	-44.7	11.2	1.07e-03	0	60	0	757071872	53	5585
2026-01-23 23:41:33.07	20.93	43.16	-41.7	-44.9	11.0	1.81e-03	0	60	0	760217600	54	5369
2026-01-23 23:41:34.08	20.98	43.45	-41.8	-45.1	10.9	1.91e-03	0	60	0	763363328	54	5505
2026-01-23 23:41:35.09	21.02	43.74	-41.8	-45.2	10.9	2.15e-03	0	60	0	766509056	54	5535
2026-01-23 23:41:36.10	21.06	44.03	-41.8	-45.1	10.9	2.21e-03	0	60	0	769654784	54	5469
2026-01-23 23:41:37.11	21.11	44.33	-41.6	-44.7	11.3	1.37e-03	0	60	0	772800512	54	5230
2026-01-23 23:41:38.12	21.15	44.62	-41.6	-44.8	11.2	1.36e-03	0	60	0	775946240	54	5296
2026-01-23 23:41:39.13	21.20	44.92	-41.6	-44.8	11.3	1.25e-03	0	60	0	779091968	54	5287
2026-01-23 23:41:40.14	21.25	45.23	-41.7	-44.9	11.1	1.38e-03	0	60	0	782237696	54	5365
2026-01-23 23:41:41.15	21.30	45.53	-41.9	-45.3	10.7	2.57e-03	0	61	0	785383424	54	5621
2026-01-23 23:41:42.16	21.35	45.84	-42.1	-45.7	10.3	5.01e-03	0	60	0	788529152	54	5889
2026-01-23 23:41:43.17	21.40	46.14	-42.3	-46.0	9.8	7.56e-03	0	60	0	791674880	55	5766
2026-01-23 23:41:44.18	21.45	46.46	-42.3	-46.1	9.7	1.06e-02	0	61	0	794820608	55	5825
2026-01-23 23:41:45.19	21.50	46.77	-42.2	-45.9	10.0	8.30e-03	0	61	0	797966336	55	5711
2026-01-23 23:41:46.20	21.55	47.08	-42.1	-45.7	10.1	7.63e-03	0	61	0	801112064	55	5585
2026-01-23 23:41:47.21	21.60	47.40	-42.1	-45.6	10.3	5.41e-03	0	61	0	804257792	55	5518
2026-01-23 23:41:48.22	21.66	47.72	-42.0	-45.5	10.4	4.33e-03	0	61	0	807403520	55	5439
2026-01-23 23:41:49.23	21.72	48.05	-41.9	-45.3	10.7	3.41e-03	0	60	0	810549248	55	5299
2026-01-23 23:41:50.24	21.77	48.37	-41.8	-45.1	10.8	2.23e-03	0	60	0	813694976	55	5170
2026-01-23 23:41:51.25	21.83	48.70	-41.6	-44.8	11.2	1.41e-03	0	61	0	816840704	55	4999
2026-01-23 23:41:52.26	21.89	49.03	-41.5	-44.5	11.4	1.08e-03	0	60	0	819986432	55	4855
2026-01-23 23:41:53.27	21.95	49.36	-41.3	-44.2	11.8	5.27e-04	0	60	0	823132160	54	4946
2026-01-23 23:41:54.28	22.01	49.70	-41.2	-44.0	11.9	3.40e-04	0	60	0	826277888	54	4866
2026-01-23 23:41:55.29	22.07	50.03	-41.1	-43.9	12.1	3.13e-04	0	60	0	829423616	54	4802
2026-01-23 23:41:56.30	22.14	50.37	-41.0	-43.8	12.2	2.50e-04	0	61	0	832569344	54	4739
2026-01-23 23:41:57.31	22.20	50.72	-41.1	-43.9	12.1	2.61e-04	0	61	0	835715072	54	4766
2026-01-23 23:41:58.32	22.27	51.06	-40.8	-43.4	12.5	1.55e-04	0	61	0	838860800	53	4807
2026-01-23 23:41:59.33	22.34	51.41	-40.7	-43.3	12.8	6.48e-05	0	61	0	842006528	53	4713
2026-01-23 23:42:00.34	22.41	51.76	-40.6	-43.1	12.9	4.65e-05	0	60	0	845152256	53	4610
2026-01-23 23:42:01.35	22.48	52.11	-40.6	-43.1	12.9	6.79e-05	0	61	0	848297984	53	4622
2026-01-23 23:42:02.36	22.56	52.47	-40.5	-43.0	13.0	3.81e-05	0	61	0	851443712	52	4825
2026-01-23 23:42:03.37	22.63	52.83	-40.3	-42.7	13.3	2.13e-05	0	61	0	854589440	52	4677
2026-01-23 23:42:04.38	22.71	53.19	-40.3	-42.6	13.3	2.13e-05	0	61	0	857735168	52	4646
2026-01-23 23:42:05.39	22.79	53.55	-40.3	-42.6	13.4	1.90e-05	0	61	0	860880896	52	4637
2026-01-23 23:42:06.40	22.87	53.91	-40.2	-42.6	13.5	7.60e-06	0	61	0	864026624	52	4607
2026-01-23 23:42:07.41	22.95	54.28	-40.1	-42.4	13.7	7.60e-06	0	60	0	867172352	52	4497
2026-01-23 23:42:08.42	23.03	54.65	-40.0	-42.2	13.9	1.50e-06	0	61	0	870318080	51	4663
2026-01-23 23:42:09.43	23.12	55.03	-39.9	-42.0	14.1	5.30e-06	0	61	0	873463808	51	4569
2026-01-23 23:42:10.44	23.21	55.40	-39.6	-41.7	14.4	7.00e-07	0	61	0	876609536	51	4398
2026-01-23 23:42:11.45	23.30	55.78	-39.4	-41.4	14.7	0.00e+00	0	61	0	879755264	50	4515
2026-01-23 23:42:12.46	23.40	56.16	-39.4	-41.4	14.7	0.00e+00	0	61	0	882900992	50	4502
2026-01-23 23:42:13.46	23.49	56.54	-39.5	-41.5	14.6	0.00e+00	0	61	0	886046720	50	4562
2026-01-23 23:42:14.47	23.59	56.93	-39.7	-41.8	14.4	1.50e-06	0	61	0	889192448	50	4731
2026-01-23 23:42:15.48	23.69	57.32	-39.8	-42.0	14.2	2.20e-06	0	61	0	892338176	50	4817
2026-01-23 23:42:16.49	23.80	57.71	-39.8	-42.0	14.2	1.50e-06	0	61	0	895483904	50	4827
2026-01-23 23:42:17.50	23.90	58.10	-39.9	-42.0	14.1	7.00e-07	0	61	0	898629632	50	4837
2026-01-23 23:42:18.51	24.01	58.50	-39.6	-41.6	14.5	7.00e-07	0	61	0	901775360	50	4649
2026-01-23 23:42:19.52	24.13	58.90	-39.5	-41.5	14.7	7.00e-07	0	61	0	904921088	50	4589
2026-01-23 23:42:20.53	24.24	59.30	-39.1	-41.1	15.1	0.00e+00	0	61	0	908066816	50	4345
2026-01-23 23:42:21.54	24.37	59.71	-39.0	-40.9	15.2	0.00e+00	0	61	0	911212544	50	4276
2026-01-23 23:42:22.55	24.49	60.11	-38.9	-40.7	15.4	0.00e+00	0	61	0	914358272	49	4440
2026-01-23 23:42:23.56	24.62	60.52	-38.7	-40.5	15.7	0.00e+00	0	61	0	917504000	49	4294
2026-01-23 23:42:24.57	24.75	60.93	-38.8	-40.6	15.6	0.00e+00	0	60	0	920649728	49	4363
2026-01-23 23:42:25.58	24.89	61.35	-38.7	-40.5	15.7	0.00e+00	0	61	0	923795456	49	4300
2026-01-23 23:42:26.59	25.03	61.77	-38.7	-40.5	15.7	0.00e+00	0	61	0	926941184	49	4303
2026-01-23 23:42:27.60	25.17	62.19	-38.6	-40.3	15.8	0.00e+00	0	61	0	930086912	49	4227
2026-01-23 23:42:28.61	25.33	62.61	-38.5	-40.3	15.9	0.00e+00	0	61	0	933232640	49	4198
2026-01-23 23:42:29.62	25.48	63.03	-38.5	-40.3	15.9	0.00e+00	0	61	0	936378368	49	4206
2026-01-23 23:42:30.63	25.64	63.46	-38.4	-40.1	16.1	0.00e+00	0	61	0	939524096	48	4349
2026-01-23 23:42:31.64	25.81	63.89	-38.4	-40.1	16.0	0.00e+00	0	60	0	942669824	48	4365
2026-01-23 23:42:32.65	25.99	64.32	-38.6	-40.3	15.9	0.00e+00	0	61	0	945815552	48	4473
2026-01-23 23:42:33.66	26.17	64.75	-38.6	-40.3	15.8	0.00e+00	0	61	0	948961280	48	4491
2026-01-23 23:42:34.67	26.35	65.19	-38.5	-40.2	15.9	0.00e+00	0	61	0	952107008	48	4436
2026-01-23 23:42:35.68	26.55	65.63	-38.4	-40.1	16.0	0.00e+00	0	61	0	955252736	48	4383
2026-01-23 23:42:36.69	26.75	66.07	-38.3	-40.0	16.1	0.00e+00	0	61	0	958398464	48	4303
2026-01-23 23:42:37.70	26.96	66.51	-38.1	-39.8	16.3	0.00e+00	0	61	0	961544192	48	4208
2026-01-23 23:42:38.71	27.18	66.96	-38.3	-40.0	16.0	0.00e+00	0	61	0	964689920	48	4329
2026-01-23 23:42:39.71	27.41	67.40	-38.8	-40.6	15.5	0.00e+00	0	61	0	967835648	48	4608
2026-01-23 23:42:40.73	27.65	67.85	-39.0	-40.9	15.2	0.00e+00	0	61	0	970981376	48	4777
2026-01-23 23:42:41.74	27.90	68.30	-38.7	-40.4	15.6	0.00e+00	0	61	0	974127104	48	4545
2026-01-23 23:42:42.75	28.16	68.76	-38.4	-40.1	15.9	0.00e+00	0	61	0	977272832	48	4368
2026-01-23 23:42:43.76	28.43	69.21	-38.4	-40.1	15.9	0.00e+00	0	61	0	980418560	48	4388
2026-01-23 23:42:44.77	28.72	69.67	-38.5	-40.2	15.8	0.00e+00	0	61	0	983564288	48	4438
2026-01-23 23:42:45.78	29.02	70.13	-38.5	-40.2	15.7	0.00e+00	0	61	0	986710016	48	4432
2026-01-23 23:42:46.79	29.33	70.59	-38.2	-39.9	16.0	1.50e-06	0	61	0	989855744	48	4274
2026-01-23 23:42:47.80	29.67	71.05	-38.0	-39.7	16.3	0.00e+00	0	61	0	993001472	48	4149
2026-01-23 23:42:48.81	30.01	71.51	-38.0	-39.6	16.3	0.00e+00	0	61	0	996147200	48	4140
2026-01-23 23:42:49.82	30.38	71.98	-38.0	-39.7	16.2	0.00e+00	0	61	0	999292928	47	4414
2026-01-23 23:42:50.83	30.77	72.44	-38.1	-39.7	16.2	0.00e+00	0	61	0	1002438656	47	4420
2026-01-23 23:42:51.83	31.18	72.91	-38.1	-39.7	16.2	0.00e+00	0	61	0	1005584384	47	4413
2026-01-23 23:42:52.84	31.61	73.37	-38.1	-39.7	16.1	0.00e+00	0	61	0	1008730112	47	4439
2026-01-23 23:42:53.85	32.07	73.84	-38.1	-39.8	16.0	0.00e+00	0	61	0	1011875840	47	4464
2026-01-23 23:42:54.86	32.56	74.31	-38.2	-39.9	15.9	0.00e+00	0	61	0	1015021568	47	4533
2026-01-23 23:42:55.87	33.08	74.78	-37.9	-39.6	16.3	0.00e+00	0	61	0	1018167296	47	4350
2026-01-23 23:42:56.88	33.63	75.25	-37.8	-39.4	16.5	0.00e+00	0	61	0	1022361600	47	4258
2026-01-23 23:42:57.89	34.23	75.73	-38.1	-39.8	16.1	0.00e+00	0	61	0	1025507328	47	4460
2026-01-23 23:42:58.90	34.86	76.20	-38.8	-40.7	15.3	0.00e+00	0	61	0	1028653056	48	4675
2026-01-23 23:42:59.91	35.54	76.67	-38.9	-40.7	15.2	0.00e+00	0	61	0	1030750208	48	4692
2026-01-23 23:43:00.92	36.27	77.14	-38.7	-40.5	15.5	0.00e+00	0	61	0	1033895936	48	4566
2026-01-23 23:43:01.93	37.06	77.61	-38.6	-40.4	15.5	0.00e+00	0	61	0	1038090240	48	4532
2026-01-23 23:43:02.94	37.91	78.08	-39.0	-40.9	15.1	0.00e+00	0	61	0	1041235968	48	4802
2026-01-23 23:43:03.95	38.84	78.55	-39.2	-41.2	14.8	0.00e+00	0	61	0	1044381696	49	4669
2026-01-23 23:43:04.96	39.84	79.01	-39.2	-41.1	14.9	0.00e+00	0	61	0	1047527424	49	4632
2026-01-23 23:43:05.97	40.93	79.48	-39.2	-41.1	14.9	0.00e+00	0	61	0	1050673152	49	4646
2026-01-23 23:43:06.98	42.13	79.94	-39.1	-41.0	14.8	7.00e-07	0	61	0	1053818880	49	4589
2026-01-23 23:43:07.99	43.44	80.39	-38.6	-40.4	15.5	7.00e-07	0	60	0	1056964608	49	4267
2026-01-23 23:43:09.00	44.88	80.85	-38.4	-40.1	15.8	0.00e+00	0	61	0	1060110336	48	4376
2026-01-23 23:43:10.00	46.46	81.29	-38.7	-40.4	15.5	0.00e+00	0	61	0	1063256064	48	4539
2026-01-23 23:43:11.01	48.23	81.73	-39.0	-40.9	15.0	0.00e+00	0	61	0	1066401792	48	4772
2026-01-23 23:43:12.02	50.19	82.16	-39.0	-40.9	14.9	0.00e+00	0	61	0	1069547520	48	4812
2026-01-23 23:43:13.03	52.39	82.59	-38.7	-40.5	15.3	0.00e+00	0	61	0	1072693248	48	4593
2026-01-23 23:43:14.04	54.85	83.00	-38.8	-40.6	15.3	0.00e+00	0	61	0	1075838976	48	4634
2026-01-23 23:43:15.05	57.61	83.40	-39.0	-40.9	14.9	7.00e-07	0	61	0	1078984704	48	4778
2026-01-23 23:43:16.06	60.73	83.78	-38.9	-40.9	15.1	0.00e+00	0	61	0	1082130432	48	4762
2026-01-23 23:43:17.07	64.24	84.14	-38.8	-40.7	15.2	0.00e+00	0	61	0	1085276160	48	4672
2026-01-23 23:43:18.08	68.20	84.48	-39.0	-40.9	15.0	0.00e+00	0	61	0	1088421888	48	4780
2026-01-23 23:43:19.09	72.65	84.79	-39.2	-41.2	14.7	0.00e+00	0	61	0	1091567616	48	4938
2026-01-23 23:43:20.10	77.63	85.06	-39.3	-41.4	14.5	7.00e-07	0	61	0	1094713344	49	4789
2026-01-23 23:43:21.11	83.15	85.29	-39.3	-41.3	14.6	0.00e+00	0	61	0	1097859072	49	4706
2026-01-23 23:43:22.12	89.19	85.48	-39.4	-41.3	14.6	0.00e+00	0	61	0	1101004800	49	4758
2026-01-23 23:43:23.13	95.66	85.61	-39.6	-41.7	14.2	0.00e+00	0	61	0	1104150528	49	4945
2026-01-23 23:43:24.14	102.44	85.68	-39.1	-41.0	14.9	7.00e-07	0	61	0	1107296256	49	4570
2026-01-23 23:43:25.15	109.35	85.69	-38.7	-40.5	15.4	0.00e+00	0	61	0	1110441984	49	4305
2026-01-23 23:43:26.16	116.19	85.64	-38.8	-40.7	15.2	0.00e+00	0	61	0	1113587712	49	4419
2026-01-23 23:43:27.17	122.78	85.53	-39.0	-40.9	15.0	0.00e+00	0	61	0	1116733440	49	4506
2026-01-23 23:43:28.18	128.98	85.36	-38.8	-40.6	15.3	0.00e+00	0	61	0	1119879168	49	4387
2026-01-23 23:43:29.19	134.68	85.14	-39.0	-40.9	15.0	0.00e+00	0	61	0	1123024896	49	4539
2026-01-23 23:43:30.20	139.84	84.88	-38.9	-40.7	15.2	0.00e+00	0	61	0	1126170624	49	4435
2026-01-23 23:43:31.21	144.47	84.59	-38.6	-40.4	15.4	0.00e+00	0	61	0	1129316352	49	4283
2026-01-23 23:43:32.22	148.60	84.26	-38.9	-40.7	15.2	0.00e+00	0	61	0	1132462080	49	4423
2026-01-23 23:43:33.23	152.26	83.90	-39.2	-41.2	14.7	0.00e+00	0	61	0	1135607808	49	4659
2026-01-23 23:43:34.24	155.50	83.53	-38.9	-40.8	15.1	0.00e+00	0	61	0	1138753536	49	4452
2026-01-23 23:43:35.25	158.38	83.13	-38.6	-40.3	15.5	0.00e+00	0	61	0	1141899264	49	4237
2026-01-23 23:43:36.26	160.94	82.73	-38.7	-40.5	15.4	0.00e+00	0	61	0	1145044992	49	4292
2026-01-23 23:43:37.27	163.22	82.31	-38.6	-40.3	15.5	0.00e+00	0	61	0	1148190720	49	4219
2026-01-23 23:43:38.28	165.26	81.88	-38.7	-40.6	15.3	0.00e+00	0	61	0	1151336448	48	4607
2026-01-23 23:43:39.29	167.09	81.44	-39.4	-41.5	14.4	0.00e+00	0	61	0	1154482176	49	4827
2026-01-23 23:43:40.30	168.74	80.99	-39.5	-41.6	14.3	0.00e+00	0	61	0	1157627904	49	4884
2026-01-23 23:43:41.31	170.23	80.54	-39.0	-40.9	15.0	7.00e-07	0	61	0	1160773632	49	4545
2026-01-23 23:43:42.32	171.58	80.08	-38.7	-40.5	15.4	0.00e+00	0	61	0	1163919360	49	4318
2026-01-23 23:43:43.33	172.81	79.62	-38.5	-40.3	15.6	0.00e+00	0	61	0	1167065088	49	4213
2026-01-23 23:43:44.34	173.94	79.16	-38.4	-40.1	15.8	0.00e+00	0	61	0	1170210816	48	4381
2026-01-23 23:43:45.35	174.97	78.69	-38.6	-40.3	15.6	0.00e+00	0	61	0	1173356544	48	4471
2026-01-23 23:43:46.36	175.92	78.23	-38.5	-40.2	15.7	0.00e+00	0	61	0	1176502272	48	4436
2026-01-23 23:43:47.37	176.79	77.76	-38.3	-39.9	16.0	0.00e+00	0	61	0	1179648000	48	4286
2026-01-23 23:43:48.38	177.60	77.29	-38.1	-39.8	16.2	0.00e+00	0	61	0	1182793728	48	4209
2026-01-23 23:43:49.39	178.35	76.81	-38.2	-39.8	16.1	0.00e+00	0	61	0	1185939456	48	4236
2026-01-23 23:43:50.39	179.04	76.35	-38.7	-40.4	15.5	0.00e+00	0	61	0	1189085184	48	4545
2026-01-23 23:43:51.40	179.69	75.88	-38.8	-40.6	15.4	0.00e+00	0	61	0	1192230912	48	4599
2026-01-23 23:43:52.41	180.30	75.40	-38.9	-40.8	15.1	7.00e-07	0	61	0	1195376640	48	4726
2026-01-23 23:43:53.42	180.86	74.93	-38.6	-40.4	15.5	0.00e+00	0	61	0	1198522368	48	4509
2026-01-23 23:43:54.43	181.40	74.46	-38.6	-40.4	15.5	0.00e+00	0	61	0	1201668096	48	4521
2026-01-23 23:43:55.44	181.90	73.99	-38.8	-40.6	15.3	0.00e+00	0	61	0	1204813824	48	4629
2026-01-23 23:43:56.45	182.37	73.52	-39.3	-41.3	14.7	0.00e+00	0	61	0	1207959552	49	4728
2026-01-23 23:43:57.46	182.81	73.05	-39.1	-41.0	15.0	0.00e+00	0	61	0	1211105280	49	4581
2026-01-23 23:43:58.47	183.23	72.58	-39.0	-40.8	15.1	0.00e+00	0	61	0	1214251008	49	4493
2026-01-23 23:43:59.48	183.62	72.11	-38.6	-40.4	15.4	0.00e+00	0	61	0	1217396736	49	4262
2026-01-23 23:44:00.49	184.00	71.65	-38.1	-39.8	16.0	0.00e+00	0	61	0	1220542464	48	4213
2026-01-23 23:44:01.50	184.35	71.18	-38.0	-39.6	16.2	0.00e+00	0	61	0	1223688192	48	4133
2026-01-23 23:44:02.51	184.69	70.72	-37.9	-39.6	16.3	0.00e+00	0	61	0	1226833920	47	4341
2026-01-23 23:44:03.52	185.01	70.26	-38.3	-40.0	15.8	0.00e+00	0	61	0	1229979648	47	4595
2026-01-23 23:44:04.53	185.31	69.80	-39.1	-41.0	15.0	0.00e+00	0	61	0	1233125376	48	4870
2026-01-23 23:44:05.54	185.60	69.34	-39.5	-41.6	14.4	7.00e-07	0	61	0	1236271104	49	4904
2026-01-23 23:44:06.55	185.88	68.88	-39.3	-41.3	14.6	7.00e-07	0	61	0	1239416832	49	4740
2026-01-23 23:44:07.56	186.14	68.43	-38.9	-40.8	15.2	0.00e+00	0	61	0	1242562560	49	4465
2026-01-23 23:44:08.56	186.39	67.98	-38.5	-40.2	15.7	0.00e+00	0	61	0	1245708288	49	4174
2026-01-23 23:44:09.57	186.64	67.53	-38.5	-40.3	15.7	0.00e+00	0	61	0	1248854016	48	4453
2026-01-23 23:44:10.58	186.87	67.08	-39.0	-40.9	15.1	0.00e+00	0	61	0	1251999744	48	4793
2026-01-23 23:44:11.59	187.09	66.63	-39.5	-41.6	14.4	1.50e-06	0	61	0	1255145472	49	4917
2026-01-23 23:44:12.60	187.31	66.19	-39.0	-40.9	15.1	7.00e-07	0	61	0	1258291200	49	4533
2026-01-23 23:44:13.61	187.51	65.74	-38.3	-40.1	15.9	0.00e+00	0	61	0	1261436928	48	4341
2026-01-23 23:44:14.62	187.71	65.30	-38.2	-39.9	16.1	0.00e+00	0	61	0	1264582656	48	4258
2026-01-23 23:44:15.63	187.90	64.86	-37.8	-39.5	16.4	0.00e+00	0	61	0	1267728384	47	4302
2026-01-23 23:44:16.64	188.08	64.43	-37.7	-39.3	16.6	0.00e+00	0	61	0	1270874112	47	4223
2026-01-23 23:44:17.64	188.25	64.00	-38.0	-39.7	16.2	0.00e+00	0	61	0	1274019840	47	4392
2026-01-23 23:44:18.65	188.42	63.57	-38.5	-40.3	15.6	0.00e+00	0	61	0	1277165568	47	4718
2026-01-23 23:44:19.66	188.59	63.14	-39.3	-41.3	14.7	0.00e+00	0	61	0	1280311296	49	4758
2026-01-23 23:44:20.67	188.75	62.71	-39.8	-42.0	14.0	1.50e-06	0	61	0	1283457024	50	4870
2026-01-23 23:44:21.68	188.90	62.29	-39.6	-41.8	14.1	3.00e-06	0	61	0	1286602752	50	4713
2026-01-23 23:44:22.69	189.05	61.87	-39.3	-41.3	14.5	0.00e+00	0	61	0	1289748480	50	4457
2026-01-23 23:44:23.70	189.19	61.45	-39.0	-40.8	15.1	0.00e+00	0	61	0	1292894208	49	4485
2026-01-23 23:44:24.71	189.33	61.03	-39.1	-41.0	14.9	0.00e+00	0	61	0	1296039936	49	4592
2026-01-23 23:44:25.72	189.46	60.62	-39.5	-41.6	14.4	7.00e-07	0	61	0	1299185664	49	4888
2026-01-23 23:44:26.73	189.59	60.21	-39.7	-41.8	14.2	0.00e+00	0	61	0	1302331392	49	5013
2026-01-23 23:44:27.74	189.72	59.80	-39.6	-41.7	14.4	1.50e-06	0	61	0	1305477120	50	4691
2026-01-23 23:44:28.75	189.84	59.39	-39.5	-41.6	14.5	0.00e+00	0	61	0	1308622848	50	4607
2026-01-23 23:44:29.76	189.96	58.99	-39.6	-41.7	14.3	7.00e-07	0	61	0	1311768576	50	4690
2026-01-23 23:44:30.77	190.07	58.58	-39.9	-42.1	13.9	5.30e-06	0	61	0	1314914304	50	4901
2026-01-23 23:44:31.78	190.18	58.18	-39.5	-41.6	14.4	0.00e+00	0	61	0	1318060032	50	4603
2026-01-23 23:44:32.79	190.29	57.79	-39.2	-41.1	14.8	2.20e-06	0	61	0	1321205760	50	4375
2026-01-23 23:44:33.79	190.40	57.40	-39.1	-41.0	15.0	0.00e+00	0	61	0	1324351488	50	4321
2026-01-23 23:44:34.80	190.50	57.01	-39.5	-41.5	14.6	0.00e+00	0	61	0	1327497216	50	4566
2026-01-23 23:44:35.80	190.60	56.62	-39.9	-42.0	14.0	6.10e-06	0	61	0	1330642944	50	4858
2026-01-23 23:44:36.81	190.69	56.24	-40.5	-42.9	13.1	1.52e-05	0	61	0	1333788672	51	5100
2026-01-23 23:44:37.82	190.79	55.85	-40.8	-43.4	12.6	9.53e-05	0	61	0	1336934400	52	5081
2026-01-23 23:44:38.83	190.88	55.47	-40.9	-43.7	12.3	1.86e-04	0	61	0	1340080128	52	5223
2026-01-23 23:44:39.84	190.97	55.09	-40.6	-43.1	12.8	8.85e-05	0	61	0	1343225856	52	4903
2026-01-23 23:44:40.85	191.06	54.72	-40.4	-42.8	13.1	4.34e-05	0	61	0	1346371584	52	4725
2026-01-23 23:44:41.86	191.14	54.35	-40.1	-42.5	13.4	1.44e-05	0	61	0	1349517312	52	4563
2026-01-23 23:44:42.87	191.23	53.98	-40.0	-42.3	13.7	6.80e-06	0	61	0	1352663040	51	4712
2026-01-23 23:44:43.88	191.31	53.61	-39.8	-42.0	14.0	3.00e-06	0	61	0	1355808768	51	4560
2026-01-23 23:44:44.89	191.39	53.24	-39.6	-41.6	14.4	1.50e-06	0	61	0	1358954496	51	4384
2026-01-23 23:44:45.90	191.46	52.88	-39.8	-41.9	14.1	1.50e-06	0	61	0	1362100224	51	4543
2026-01-23 23:44:46.91	191.54	52.52	-40.4	-42.7	13.3	1.06e-05	0	61	0	1365245952	51	4962
2026-01-23 23:44:47.92	191.61	52.16	-40.9	-43.6	12.4	8.23e-05	0	61	0	1368391680	52	5198
2026-01-23 23:44:48.93	191.68	51.81	-41.2	-44.1	11.9	3.73e-04	0	61	0	1371537408	52	5477
2026-01-23 23:44:49.94	191.75	51.45	-41.2	-44.1	11.8	5.10e-04	0	61	0	1374683136	53	5162
2026-01-23 23:44:50.95	191.82	51.10	-41.1	-44.0	11.9	4.83e-04	0	61	0	1377828864	53	5110
2026-01-23 23:44:51.96	191.89	50.76	-40.8	-43.4	12.4	1.21e-04	0	61	0	1380974592	53	4785
2026-01-23 23:44:52.96	191.96	50.42	-40.8	-43.4	12.5	1.07e-04	0	61	0	1384120320	53	4777
2026-01-23 23:44:53.97	192.02	50.07	-41.2	-44.0	11.8	2.33e-04	0	61	0	1388314624	53	5146
2026-01-23 23:44:54.98	192.08	49.73	-41.3	-44.3	11.6	6.83e-04	0	61	0	1391460352	53	5301
2026-01-23 23:44:55.99	192.15	49.40	-41.2	-44.1	11.7	5.62e-04	0	61	0	1393557504	53	5171
2026-01-23 23:44:57.00	192.21	49.06	-41.1	-44.0	11.8	5.32e-04	0	61	0	1396703232	53	5114
2026-01-23 23:44:58.01	192.27	48.73	-40.9	-43.6	12.2	2.46e-04	0	61	0	1399848960	53	4900
2026-01-23 23:44:59.02	192.32	48.40	-40.8	-43.4	12.4	1.44e-04	0	61	0	1402994688	53	4766
2026-01-23 23:45:00.03	192.38	48.07	-41.1	-43.9	12.0	3.08e-04	0	61	0	1407188992	53	5051
2026-01-23 23:45:01.04	192.44	47.75	-41.4	-44.4	11.5	5.84e-04	0	61	0	1410334720	53	5355
2026-01-23 23:45:02.05	192.49	47.43	-41.5	-44.6	11.3	9.89e-04	0	61	0	1413480448	53	5485
2026-01-23 23:45:03.05	192.55	47.11	-41.6	-44.8	11.1	1.75e-03	0	61	0	1415577600	53	5621
2026-01-23 23:45:04.07	192.60	46.79	-41.6	-44.8	11.0	1.89e-03	0	61	0	1418723328	53	5615
2026-01-23 23:45:05.08	192.65	46.47	-41.4	-44.4	11.3	1.17e-03	0	61	0	1422917632	53	5391
2026-01-23 23:45:06.09	192.70	46.16	-41.2	-44.1	11.7	6.27e-04	0	61	0	1426063360	53	5194
2026-01-23 23:45:07.09	192.75	45.85	-41.1	-43.9	12.0	3.99e-04	0	61	0	1429209088	53	5067
2026-01-23 23:45:08.10	192.80	45.54	-41.2	-44.0	11.9	3.25e-04	0	61	0	1432354816	53	5125
2026-01-23 23:45:09.11	192.85	45.24	-41.4	-44.4	11.5	6.57e-04	0	61	0	1435500544	53	5350
2026-01-23 23:45:10.13	192.90	44.93	-41.8	-45.1	10.8	1.93e-03	0	61	0	1438646272	54	5477
2026-01-23 23:45:11.14	192.94	44.63	-42.2	-45.8	10.0	5.70e-03	0	61	0	1441792000	54	5971
2026-01-23 23:45:12.15	192.99	44.33	-42.2	-46.0	9.9	8.96e-03	0	61	0	1444937728	55	5724
2026-01-23 23:45:13.16	193.03	44.03	-42.0	-45.5	10.3	7.89e-03	0	61	0	1448083456	55	5444
2026-01-23 23:45:14.17	193.08	43.74	-41.7	-44.9	10.9	2.68e-03	0	61	0	1451229184	55	5081
2026-01-23 23:45:15.18	193.12	43.45	-41.4	-44.5	11.4	1.27e-03	0	61	0	1454374912	54	5121
2026-01-23 23:45:16.19	193.16	43.15	-41.4	-44.4	11.4	9.42e-04	0	61	0	1457520640	54	5098
2026-01-23 23:45:17.20	193.20	42.87	-41.4	-44.4	11.4	9.28e-04	0	61	0	1460666368	54	5092
2026-01-23 23:45:18.21	193.25	42.58	-41.2	-44.1	11.8	5.01e-04	0	61	0	1463812096	54	4893
2026-01-23 23:45:19.21	193.29	42.30	-41.2	-44.1	11.8	4.60e-04	0	61	0	1466957824	54	4896
2026-01-23 23:45:20.22	193.33	42.02	-41.5	-44.6	11.3	1.06e-03	0	61	0	1470103552	54	5205
2026-01-23 23:45:21.23	193.37	41.74	-41.8	-45.1	10.7	2.04e-03	0	61	0	1473249280	54	5501
2026-01-23 23:45:22.24	193.40	41.46	-42.0	-45.5	10.3	4.40e-03	0	61	0	1476395008	54	5771
2026-01-23 23:45:23.25	193.44	41.19	-42.1	-45.8	10.1	7.51e-03	0	61	0	1479540736	54	5929
2026-01-23 23:45:24.26	193.48	40.91	-42.0	-45.6	10.3	5.76e-03	0	61	0	1482686464	54	5794
2026-01-23 23:45:25.27	193.52	40.64	-41.8	-45.2	10.6	4.11e-03	0	61	0	1485832192	54	5583
2026-01-23 23:45:26.28	193.55	40.37	-41.7	-45.0	10.9	2.30e-03	0	61	0	1488977920	54	5419
2026-01-23 23:45:27.29	193.59	40.10	-41.6	-44.8	11.1	1.79e-03	0	61	0	1492123648	54	5312
2026-01-23 23:45:28.30	193.62	39.84	-41.4	-44.4	11.5	1.18e-03	0	61	0	1495269376	54	5068
2026-01-23 23:45:29.31	193.66	39.58	-41.0	-43.7	12.2	3.75e-04	0	61	0	1498415104	54	4703
2026-01-23 23:45:30.32	193.69	39.32	-40.7	-43.3	12.6	1.14e-04	0	61	0	1501560832	53	4737
2026-01-23 23:45:31.33	193.73	39.06	-40.7	-43.3	12.6	6.25e-05	0	61	0	1504706560	53	4710
2026-01-23 23:45:32.34	193.76	38.80	-40.9	-43.6	12.3	1.69e-04	0	61	0	1507852288	53	4882
2026-01-23 23:45:33.35	193.79	38.54	-41.0	-43.8	12.1	2.46e-04	0	61	0	1510998016	53	5026
2026-01-23 23:45:34.36	193.83	38.29	-41.0	-43.7	12.1	2.74e-04	0	61	0	1514143744	53	4973
2026-01-23 23:45:35.37	193.86	38.04	-40.7	-43.4	12.5	1.44e-04	0	61	0	1517289472	53	4781
2026-01-23 23:45:36.37	193.89	37.79	-40.5	-42.9	13.0	5.72e-05	0	61	0	1520435200	52	4803
2026-01-23 23:45:37.38	193.92	37.54	-40.4	-42.8	13.0	3.50e-05	0	61	0	1523580928	52	4734
2026-01-23 23:45:38.39	193.95	37.30	-40.3	-42.7	13.1	3.81e-05	0	61	0	1526726656	52	4673
2026-01-23 23:45:39.40	193.98	37.05	-40.3	-42.7	13.2	2.05e-05	0	61	0	1529872384	52	4675
2026-01-23 23:45:40.41	194.01	36.81	-40.4	-42.9	13.0	3.05e-05	0	61	0	1533018112	52	4767
2026-01-23 23:45:41.42	194.04	36.57	-40.5	-43.0	12.9	5.26e-05	0	61	0	1536163840	52	4825
2026-01-23 23:45:42.43	194.07	36.33	-40.7	-43.3	12.6	9.84e-05	0	61	0	1539309568	52	5002
2026-01-23 23:45:43.44	194.10	36.09	-40.8	-43.6	12.2	1.43e-04	0	61	0	1542455296	52	5180
2026-01-23 23:45:44.45	194.13	35.86	-40.9	-43.8	12.1	2.93e-04	0	61	0	1545601024	52	5290
2026-01-23 23:45:45.46	194.15	35.62	-41.1	-43.9	11.9	3.82e-04	0	61	0	1548746752	52	5389
2026-01-23 23:45:46.47	194.18	35.39	-41.0	-43.9	11.8	4.39e-04	0	61	0	1551892480	52	5349
2026-01-23 23:45:47.48	194.21	35.16	-41.0	-43.9	11.7	5.11e-04	0	61	0	1555038208	52	5376
2026-01-23 23:45:48.49	194.24	34.93	-41.1	-44.0	11.6	7.48e-04	0	61	0	1558183936	52	5449
2026-01-23 23:45:49.50	194.26	34.70	-41.0	-43.9	11.8	5.64e-04	0	61	0	1561329664	52	5365
2026-01-23 23:45:50.51	194.29	34.48	-40.9	-43.8	12.0	4.10e-04	0	61	0	1564475392	52	5287
2026-01-23 23:45:51.52	194.32	34.25	-40.8	-43.6	12.1	2.78e-04	0	61	0	1567621120	52	5169
2026-01-23 23:45:52.53	194.34	34.03	-40.8	-43.6	12.2	2.48e-04	0	61	0	1570766848	52	5165
2026-01-23 23:45:53.54	194.37	33.81	-40.6	-43.2	12.6	1.31e-04	0	61	0	1573912576	52	4928
2026-01-23 23:45:54.55	194.39	33.59	-40.3	-42.8	13.0	6.63e-05	0	61	0	1577058304	52	4735
2026-01-23 23:45:55.56	194.42	33.37	-40.1	-42.5	13.3	1.67e-05	0	61	0	1580204032	52	4557
2026-01-23 23:45:56.57	194.44	33.16	-40.1	-42.5	13.4	1.06e-05	0	61	0	1583349760	52	4546
2026-01-23 23:45:57.58	194.46	32.94	-40.1	-42.4	13.3	1.52e-05	0	61	0	1586495488	52	4542
2026-01-23 23:45:58.59	194.49	32.73	-40.1	-42.4	13.4	1.90e-05	0	61	0	1589641216	52	4534
2026-01-23 23:45:59.60	194.51	32.52	-40.0	-42.2	13.7	3.00e-06	0	61	0	1592786944	51	4704
2026-01-23 23:46:00.61	194.54	32.31	-39.9	-42.1	13.8	4.50e-06	0	61	0	1595932672	51	4615
2026-01-23 23:46:01.62	194.56	32.10	-39.8	-42.0	13.9	3.00e-06	0	61	0	1599078400	51	4594
2026-01-23 23:46:02.63	194.58	31.89	-39.7	-41.9	14.0	2.20e-06	0	61	0	1602224128	51	4526
2026-01-23 23:46:03.64	194.60	31.69	-39.7	-41.9	14.1	4.50e-06	0	61	0	1605369856	51	4498
2026-01-23 23:46:04.65	194.63	31.48	-39.6	-41.8	14.2	0.00e+00	0	61	0	1608515584	51	4453
2026-01-23 23:46:05.66	194.65	31.28	-39.7	-41.9	14.0	2.20e-06	0	61	0	1611661312	51	4535
2026-01-23 23:46:06.67	194.67	31.08	-39.8	-42.0	14.0	1.50e-06	0	61	0	1614807040	51	4551
2026-01-23 23:46:07.68	194.69	30.88	-40.0	-42.2	13.7	6.80e-06	0	61	0	1617952768	51	4698
2026-01-23 23:46:08.69	194.71	30.68	-40.1	-42.4	13.5	9.90e-06	0	61	0	1621098496	51	4798
2026-01-23 23:46:09.70	194.74	30.48	-40.1	-42.6	13.3	1.37e-05	0	61	0	1624244224	51	4878
2026-01-23 23:46:10.71	194.76	30.28	-40.1	-42.5	13.4	2.05e-05	0	61	0	1627389952	51	4867
2026-01-23 23:46:11.72	194.78	30.09	-40.1	-42.4	13.5	9.90e-06	0	61	0	1630535680	51	4787
2026-01-23 23:46:12.73	194.80	29.90	-40.1	-42.5	13.5	1.29e-05	0	61	0	1633681408	51	4821
2026-01-23 23:46:13.74	194.82	29.70	-40.0	-42.3	13.6	6.10e-06	0	61	0	1636827136	51	4742
2026-01-23 23:46:14.75	194.84	29.51	-39.9	-42.2	13.7	3.80e-06	0	61	0	1639972864	51	4701
2026-01-23 23:46:15.76	194.86	29.32	-39.9	-42.2	13.7	5.30e-06	0	61	0	1643118592	51	4681
2026-01-23 23:46:16.77	194.88	29.14	-39.9	-42.2	13.6	3.80e-06	0	61	0	1646264320	51	4696
2026-01-23 23:46:17.78	194.90	28.95	-39.9	-42.1	13.7	3.80e-06	0	61	0	1649410048	51	4647
2026-01-23 23:46:18.79	194.92	28.76	-39.9	-42.2	13.6	6.10e-06	0	61	0	1652555776	51	4682
2026-01-23 23:46:19.80	194.94	28.58	-39.8	-42.1	13.8	1.14e-05	0	61	0	1655701504	51	4616
2026-01-23 23:46:20.81	194.96	28.39	-39.8	-42.0	13.8	5.30e-06	0	62	0	1658847232	51	4589
2026-01-23 23:46:21.82	194.97	28.21	-39.6	-41.7	14.2	7.00e-07	0	61	0	1661992960	51	4404
2026-01-23 23:46:22.83	194.99	28.03	-39.4	-41.5	14.3	1.50e-06	0	61	0	1665138688	50	4579
2026-01-23 23:46:23.84	195.01	27.85	-39.4	-41.4	14.4	7.00e-07	0	61	0	1668284416	50	4539
2026-01-23 23:46:24.84	195.03	27.67	-39.4	-41.4	14.4	7.00e-07	0	61	0	1671430144	50	4538
2026-01-23 23:46:25.85	195.05	27.50	-39.4	-41.5	14.3	7.00e-07	0	61	0	1674575872	50	4550
2026-01-23 23:46:26.87	195.07	27.32	-39.3	-41.4	14.4	0.00e+00	0	61	0	1677721600	50	4507
2026-01-23 23:46:27.88	195.08	27.14	-39.2	-41.3	14.5	7.00e-07	0	61	0	1680867328	50	4460
2026-01-23 23:46:28.89	195.10	26.97	-39.1	-41.1	14.7	0.00e+00	0	61	0	1684013056	50	4373
2026-01-23 23:46:29.89	195.12	26.80	-39.1	-41.1	14.7	7.00e-07	0	61	0	1687158784	50	4372
2026-01-23 23:46:30.90	195.14	26.63	-39.1	-41.1	14.7	0.00e+00	0	61	0	1690304512	50	4361
2026-01-23 23:46:31.91	195.15	26.45	-39.1	-41.1	14.7	7.00e-07	0	61	0	1693450240	50	4377
2026-01-23 23:46:32.92	195.17	26.28	-39.0	-41.0	14.8	7.00e-07	0	61	0	1696595968	50	4294
2026-01-23 23:46:33.93	195.19	26.12	-38.9	-40.8	15.0	0.00e+00	0	61	0	1699741696	49	4480
2026-01-23 23:46:34.94	195.21	25.95	-38.8	-40.7	15.1	0.00e+00	0	61	0	1702887424	49	4424
2026-01-23 23:46:35.95	195.22	25.78	-38.8	-40.6	15.1	0.00e+00	0	61	0	1706033152	49	4376
2026-01-23 23:46:36.96	195.24	25.62	-38.9	-40.8	15.0	7.00e-07	0	61	0	1709178880	49	4459
2026-01-23 23:46:37.97	195.25	25.45	-38.8	-40.7	15.1	0.00e+00	0	61	0	1712324608	49	4418
2026-01-23 23:46:38.98	195.27	25.29	-38.8	-40.7	15.1	0.00e+00	0	61	0	1715470336	49	4429
2026-01-23 23:46:39.99	195.29	25.13	-38.8	-40.7	15.1	7.00e-07	0	61	0	1718616064	49	4406
2026-01-23 23:46:41.00	195.30	24.96	-38.8	-40.7	15.1	0.00e+00	0	61	0	1721761792	49	4429
2026-01-23 23:46:42.00	195.32	24.80	-38.8	-40.7	15.1	0.00e+00	0	61	0	1724907520	49	4402
2026-01-23 23:46:43.01	195.33	24.64	-38.7	-40.6	15.2	0.00e+00	0	61	0	1728053248	49	4370
2026-01-23 23:46:44.02	195.35	24.49	-38.7	-40.6	15.2	0.00e+00	0	62	0	1731198976	49	4356
2026-01-23 23:46:45.03	195.37	24.33	-38.7	-40.6	15.2	0.00e+00	0	62	0	1734344704	49	4372
2026-01-23 23:46:46.04	195.38	24.17	-38.8	-40.7	15.1	0.00e+00	0	62	0	1737490432	49	4438
2026-01-23 23:46:47.05	195.40	24.02	-38.9	-40.9	15.0	0.00e+00	0	61	0	1740636160	49	4498
2026-01-23 23:46:48.06	195.41	23.86	-38.9	-40.9	14.9	0.00e+00	0	61	0	1743781888	49	4513
2026-01-23 23:46:49.07	195.43	23.71	-39.0	-41.0	14.8	0.00e+00	0	61	0	1747976192	49	4569
2026-01-23 23:46:50.08	195.44	23.55	-39.1	-41.1	14.7	7.00e-07	0	61	0	1751121920	49	4628
2026-01-23 23:46:51.09	195.46	23.40	-39.1	-41.2	14.7	0.00e+00	0	61	0	1754267648	49	4655
2026-01-23 23:46:52.10	195.47	23.25	-39.2	-41.3	14.5	7.00e-07	0	61	0	1756364800	49	4717
2026-01-23 23:46:53.11	195.48	23.10	-39.3	-41.3	14.5	7.00e-07	0	61	0	1759510528	49	4755
2026-01-23 23:46:54.12	195.50	22.95	-39.3	-41.3	14.5	1.50e-06	0	61	0	1763704832	49	4745
2026-01-23 23:46:55.13	195.51	22.80	-39.3	-41.4	14.5	0.00e+00	0	62	0	1766850560	49	4781
2026-01-23 23:46:56.14	195.53	22.65	-39.3	-41.4	14.4	3.00e-06	0	61	0	1769996288	49	4813
2026-01-23 23:46:57.15	195.54	22.51	-39.3	-41.4	14.4	2.20e-06	0	61	0	1773142016	49	4797
2026-01-23 23:46:58.17	195.56	22.36	-39.3	-41.4	14.4	0.00e+00	0	61	0	1776287744	49	4777
2026-01-23 23:46:59.17	195.57	22.21	-39.3	-41.3	14.6	0.00e+00	0	61	0	1779433472	49	4731
2026-01-23 23:47:00.18	195.58	22.07	-39.3	-41.4	14.5	7.00e-07	0	61	0	1782579200	49	4765
2026-01-23 23:47:01.19	195.60	21.93	-39.3	-41.4	14.4	0.00e+00	0	61	0	1785724928	49	4805
2026-01-23 23:47:02.20	195.61	21.78	-39.3	-41.4	14.4	7.00e-07	0	61	0	1788870656	49	4800
2026-01-23 23:47:03.21	195.62	21.64	-39.2	-41.3	14.5	7.00e-07	0	61	0	1792016384	49	4723
2026-01-23 23:47:04.22	195.64	21.50	-39.2	-41.2	14.6	2.20e-06	0	61	0	1795162112	49	4705
2026-01-23 23:47:05.23	195.65	21.36	-39.2	-41.3	14.5	0.00e+00	0	61	0	1798307840	49	4741
2026-01-23 23:47:06.24	195.66	21.22	-39.2	-41.3	14.6	7.00e-07	0	61	0	1801453568	49	4712
2026-01-23 23:47:07.25	195.68	21.08	-39.3	-41.4	14.4	0.00e+00	0	61	0	1804599296	49	4766
2026-01-23 23:47:08.26	195.69	20.94	-39.3	-41.4	14.4	0.00e+00	0	61	0	1807745024	49	4770
2026-01-23 23:47:09.27	195.70	20.81	-39.3	-41.5	14.3	0.00e+00	0	61	0	1810890752	49	4825
2026-01-23 23:47:10.28	195.72	20.67	-39.3	-41.4	14.4	1.50e-06	0	61	0	1814036480	49	4772
2026-01-23 23:47:11.29	195.73	20.53	-39.3	-41.4	14.4	7.00e-07	0	61	0	1817182208	49	4768
2026-01-23 23:47:12.30	195.74	20.40	-39.3	-41.3	14.4	0.00e+00	0	61	0	1820327936	49	4749
2026-01-23 23:47:13.31	195.75	20.26	-39.2	-41.3	14.4	1.50e-06	0	61	0	1823473664	49	4750
2026-01-23 23:47:14.32	195.77	20.13	-39.2	-41.3	14.5	7.00e-07	0	61	0	1826619392	49	4728
2026-01-23 23:47:15.33	195.78	20.00	-39.3	-41.4	14.3	0.00e+00	0	61	0	1829765120	49	4794
2026-01-23 23:47:16.34	195.79	19.86	-39.3	-41.4	14.3	2.20e-06	0	61	0	1832910848	49	4773
2026-01-23 23:47:17.35	195.80	19.73	-39.3	-41.4	14.3	7.00e-07	0	62	0	1836056576	49	4803
2026-01-23 23:47:18.36	195.82	19.60	-39.3	-41.4	14.3	2.20e-06	0	62	0	1839202304	49	4802
2026-01-23 23:47:19.37	195.83	19.47	-39.4	-41.5	14.2	7.00e-07	0	61	0	1842348032	49	4857
2026-01-23 23:47:20.38	195.84	19.34	-39.4	-41.6	14.1	3.00e-06	0	61	0	1845493760	49	4879
2026-01-23 23:47:21.39	195.85	19.21	-39.4	-41.6	14.1	1.50e-06	0	61	0	1848639488	49	4879
2026-01-23 23:47:22.40	195.86	19.08	-39.4	-41.6	14.1	0.00e+00	0	61	0	1851785216	49	4884
2026-01-23 23:47:23.40	195.88	18.96	-39.5	-41.6	14.0	4.50e-06	0	61	0	1854930944	49	4917
2026-01-23 23:47:24.41	195.89	18.83	-39.6	-41.8	13.9	1.50e-06	0	61	0	1858076672	49	4993
2026-01-23 23:47:25.42	195.90	18.70	-39.6	-41.8	13.9	3.80e-06	0	61	0	1861222400	49	4991
2026-01-23 23:47:26.43	195.91	18.58	-39.5	-41.7	13.9	6.10e-06	0	61	0	1864368128	49	4963
2026-01-23 23:47:27.44	195.92	18.45	-39.6	-41.8	13.9	3.80e-06	0	61	0	1867513856	49	5006
2026-01-23 23:47:28.45	195.93	18.33	-39.6	-41.9	13.8	6.10e-06	0	61	0	1870659584	49	5060
2026-01-23 23:47:29.46	195.94	18.21	-39.6	-41.8	13.8	6.80e-06	0	61	0	1873805312	49	5039
2026-01-23 23:47:30.47	195.96	18.08	-39.6	-41.9	13.8	3.00e-06	0	61	0	1876951040	49	5055
2026-01-23 23:47:31.48	195.97	17.96	-39.7	-42.0	13.7	5.30e-06	0	61	0	1880096768	49	5130
2026-01-23 23:47:32.49	195.98	17.84	-39.7	-42.0	13.7	6.10e-06	0	61	0	1883242496	50	4852
2026-01-23 23:47:33.50	195.99	17.72	-39.8	-42.1	13.6	7.60e-06	0	61	0	1886388224	50	4890
2026-01-23 23:47:34.51	196.00	17.60	-39.8	-42.1	13.6	1.14e-05	0	61	0	1889533952	50	4908
2026-01-23 23:47:35.52	196.01	17.48	-39.8	-42.1	13.6	1.14e-05	0	61	0	1892679680	50	4891
2026-01-23 23:47:36.53	196.02	17.36	-39.8	-42.2	13.5	9.90e-06	0	61	0	1895825408	50	4931
2026-01-23 23:47:37.54	196.03	17.24	-39.8	-42.2	13.5	6.80e-06	0	61	0	1898971136	50	4932
2026-01-23 23:47:38.55	196.04	17.12	-39.9	-42.2	13.5	1.14e-05	0	61	0	1902116864	50	4980
2026-01-23 23:47:39.56	196.05	17.00	-39.9	-42.3	13.5	1.29e-05	0	61	0	1905262592	50	4986
2026-01-23 23:47:40.57	196.07	16.88	-39.8	-42.1	13.6	6.10e-06	0	61	0	1908408320	50	4919
2026-01-23 23:47:41.57	196.08	16.77	-39.8	-42.1	13.6	1.22e-05	0	61	0	1911554048	50	4919
2026-01-23 23:47:42.58	196.09	16.65	-39.9	-42.2	13.5	8.30e-06	0	61	0	1914699776	50	4949
2026-01-23 23:47:43.59	196.10	16.54	-39.9	-42.2	13.5	1.29e-05	0	61	0	1917845504	50	4954
2026-01-23 23:47:44.60	196.11	16.42	-39.9	-42.2	13.5	8.30e-06	0	62	0	1920991232	50	4954
2026-01-23 23:47:45.61	196.12	16.31	-39.8	-42.1	13.5	9.90e-06	0	61	0	1924136960	50	4923
2026-01-23 23:47:46.62	196.13	16.19	-39.7	-42.0	13.7	9.90e-06	0	61	0	1927282688	50	4860
2026-01-23 23:47:47.63	196.14	16.08	-39.8	-42.0	13.6	9.90e-06	0	61	0	1930428416	50	4861
