passes_logs/2026/01/23/R2.0S_Moscow/R2.0S_Moscow__20260123_115752_SUOMI_NPP_rec.log

#Pass ID: 20260123_115752_SUOMI NPP
#Satellite: SUOMI NPP
#Configuration: NPP
#almurnet v.1.7.20251203
#Start time: 2026-01-23 11:57:53

#Version: 2.2.20231116
#Station: R2.0S_Moscow
#Location: 37.707566 lon 55.798166 lat
#TLE: 1 37849U 11061A   26022.50498765  .00000208  00000+0  11976-3 0  9992
#TLE: 2 37849  98.7820 324.4892 0002275  50.8149 309.3229 14.19528284737775

#Time	Az	El	Level	Level2	SNR	BER	BlckErr	Temp	State	Recorded	gain1	gain2
2026-01-23 11:57:53.52	221.89	2.05	-44.2	-58.9	3.8	1.49e+00	0	52	0	0	60	19093
2026-01-23 11:57:54.53	221.98	2.10	-44.2	-58.9	3.8	1.49e+00	0	53	104	0	60	19018
2026-01-23 11:57:55.54	222.08	2.15	-44.2	-58.9	3.8	1.49e+00	0	53	104	0	60	19033
2026-01-23 11:57:56.55	222.17	2.20	-44.2	-58.9	3.8	1.49e+00	0	53	104	0	60	18998
2026-01-23 11:57:57.56	222.26	2.25	-44.2	-58.9	3.8	1.49e+00	0	53	104	0	60	19005
2026-01-23 11:57:58.57	222.35	2.30	-44.2	-58.9	3.8	1.49e+00	0	53	104	0	60	19000
2026-01-23 11:57:59.58	222.45	2.35	-44.2	-58.9	3.8	1.49e+00	0	53	104	0	60	18953
2026-01-23 11:58:00.59	222.54	2.40	-44.2	-58.9	3.8	1.49e+00	0	53	104	0	60	19036
2026-01-23 11:58:01.60	222.63	2.45	-44.2	-58.9	3.8	1.49e+00	0	53	104	0	60	19015
2026-01-23 11:58:02.61	222.73	2.50	-44.2	-58.9	3.8	1.49e+00	0	53	104	0	60	19039
2026-01-23 11:58:03.62	222.82	2.55	-44.2	-58.9	3.8	1.49e+00	0	53	104	0	60	18991
2026-01-23 11:58:04.63	222.91	2.60	-44.2	-58.9	3.8	1.49e+00	0	53	104	0	60	18997
2026-01-23 11:58:05.64	223.01	2.65	-44.2	-58.9	3.8	1.49e+00	0	54	104	0	60	19009
2026-01-23 11:58:06.65	223.10	2.70	-44.2	-58.9	3.8	1.49e+00	0	54	104	0	60	19016
2026-01-23 11:58:07.66	223.20	2.75	-44.2	-58.9	3.8	1.49e+00	0	53	104	0	60	18994
2026-01-23 11:58:08.67	223.29	2.80	-44.2	-58.9	3.8	1.49e+00	0	53	104	0	60	18964
2026-01-23 11:58:09.68	223.39	2.85	-44.2	-58.9	3.8	1.49e+00	0	54	104	0	60	19068
2026-01-23 11:58:10.69	223.48	2.89	-44.2	-58.9	3.8	1.49e+00	0	54	104	0	60	19025
2026-01-23 11:58:11.71	223.58	2.95	-44.2	-58.9	3.8	1.49e+00	0	54	104	0	60	19075
2026-01-23 11:58:12.71	223.68	2.99	-44.2	-58.9	3.8	1.49e+00	0	54	104	0	60	19001
2026-01-23 11:58:13.73	223.78	3.04	-44.2	-58.9	3.8	1.49e+00	0	54	104	0	60	18998
2026-01-23 11:58:14.74	223.87	3.09	-44.2	-58.9	3.8	1.49e+00	0	54	104	0	60	19011
2026-01-23 11:58:15.74	223.97	3.14	-44.2	-58.9	3.8	1.49e+00	0	54	104	0	60	19057
2026-01-23 11:58:16.75	224.07	3.19	-44.2	-58.9	3.8	1.49e+00	0	54	104	0	60	19010
2026-01-23 11:58:17.76	224.17	3.24	-44.2	-58.9	3.8	1.49e+00	0	54	104	0	60	18994
2026-01-23 11:58:18.77	224.26	3.29	-44.2	-58.9	3.8	1.49e+00	0	54	104	0	60	19004
2026-01-23 11:58:19.79	224.36	3.34	-44.2	-58.9	3.8	1.49e+00	0	54	104	0	60	19042
2026-01-23 11:58:20.80	224.46	3.39	-44.2	-58.9	3.8	1.49e+00	0	54	104	0	60	19001
2026-01-23 11:58:21.81	224.56	3.44	-44.2	-58.9	3.8	1.49e+00	0	54	104	0	60	18975
2026-01-23 11:58:22.82	224.66	3.49	-44.2	-58.8	3.8	1.49e+00	0	55	104	0	60	18919
2026-01-23 11:58:23.83	224.76	3.54	-44.2	-58.9	3.8	1.49e+00	0	54	104	0	60	19030
2026-01-23 11:58:24.84	224.86	3.59	-44.2	-58.9	3.8	1.49e+00	0	55	104	0	60	18962
2026-01-23 11:58:25.85	224.96	3.64	-44.2	-58.9	3.8	1.49e+00	0	55	104	0	60	18977
2026-01-23 11:58:26.86	225.07	3.69	-44.2	-58.9	3.8	1.49e+00	0	55	104	0	60	19065
2026-01-23 11:58:27.87	225.17	3.74	-44.2	-58.9	3.8	1.49e+00	0	55	104	0	60	18964
2026-01-23 11:58:28.88	225.27	3.79	-44.2	-58.9	3.8	1.49e+00	0	55	104	0	60	18980
2026-01-23 11:58:29.89	225.37	3.84	-44.2	-58.9	3.8	1.49e+00	0	55	104	0	60	18967
2026-01-23 11:58:30.90	225.47	3.89	-44.2	-58.8	3.8	1.49e+00	0	55	104	0	60	18924
2026-01-23 11:58:31.91	225.58	3.95	-44.2	-58.9	3.8	1.49e+00	0	55	104	0	60	18994
2026-01-23 11:58:32.92	225.68	4.00	-44.2	-58.8	3.8	1.49e+00	0	55	104	0	60	18937
2026-01-23 11:58:33.93	225.78	4.05	-44.2	-58.9	3.8	1.49e+00	0	55	104	0	60	18975
2026-01-23 11:58:34.94	225.89	4.10	-44.2	-58.9	3.8	1.49e+00	0	55	104	0	60	18967
2026-01-23 11:58:35.95	225.99	4.15	-44.2	-58.9	3.8	1.49e+00	0	55	104	0	60	18974
2026-01-23 11:58:36.96	226.10	4.20	-44.2	-58.9	3.8	1.49e+00	0	55	104	0	60	18985
2026-01-23 11:58:37.97	226.20	4.25	-44.2	-58.9	3.8	1.49e+00	0	55	104	0	60	18994
2026-01-23 11:58:38.98	226.31	4.30	-44.2	-58.9	3.8	1.49e+00	0	56	104	0	60	18949
2026-01-23 11:58:39.99	226.41	4.35	-44.2	-58.8	3.8	1.49e+00	0	56	104	0	60	18941
2026-01-23 11:58:41.00	226.52	4.40	-44.1	-58.9	3.8	1.49e+00	0	56	104	0	60	19018
2026-01-23 11:58:42.01	226.62	4.45	-44.2	-58.8	3.8	1.49e+00	0	56	104	0	60	18916
2026-01-23 11:58:43.02	226.73	4.50	-44.2	-58.9	3.8	1.49e+00	0	56	104	0	60	18958
2026-01-23 11:58:44.03	226.84	4.55	-44.2	-58.9	3.8	1.49e+00	0	56	104	0	60	18952
2026-01-23 11:58:45.04	226.95	4.60	-44.2	-58.9	3.8	1.49e+00	0	55	104	0	60	18958
2026-01-23 11:58:46.06	227.05	4.65	-44.2	-58.9	3.8	1.49e+00	0	56	104	0	60	18979
2026-01-23 11:58:47.07	227.16	4.70	-44.2	-58.8	3.8	1.49e+00	0	56	104	0	60	18946
2026-01-23 11:58:48.08	227.27	4.75	-44.2	-58.8	3.8	1.49e+00	0	56	104	0	60	18855
2026-01-23 11:58:49.09	227.38	4.80	-44.2	-58.9	3.8	1.49e+00	0	56	104	0	60	18969
2026-01-23 11:58:50.10	227.49	4.85	-44.2	-58.8	3.8	1.49e+00	0	56	104	0	60	18904
2026-01-23 11:58:51.11	227.60	4.90	-44.2	-58.9	3.8	1.49e+00	0	56	104	0	60	19017
2026-01-23 11:58:52.12	227.71	4.95	-44.2	-58.9	3.8	1.49e+00	0	56	104	0	60	18959
2026-01-23 11:58:53.13	227.82	5.00	-44.2	-58.9	3.8	1.49e+00	0	56	104	0	60	18966
2026-01-23 11:58:54.14	227.93	5.05	-44.2	-58.9	3.8	1.49e+00	0	56	104	0	60	18974
2026-01-23 11:58:55.14	228.04	5.10	-44.2	-58.9	3.8	1.49e+00	0	56	104	0	60	19009
2026-01-23 11:58:56.15	228.15	5.15	-44.2	-58.9	3.8	1.49e+00	0	56	104	0	60	18975
2026-01-23 11:58:57.17	228.26	5.20	-44.2	-58.8	3.8	1.49e+00	0	56	104	0	60	18945
2026-01-23 11:58:58.18	228.38	5.26	-44.2	-58.9	3.8	1.49e+00	0	56	104	0	60	18953
2026-01-23 11:58:59.19	228.49	5.31	-44.2	-58.8	3.8	1.49e+00	0	56	104	0	60	18903
2026-01-23 11:59:00.20	228.60	5.36	-44.2	-58.8	3.8	1.49e+00	0	56	104	0	60	18905
2026-01-23 11:59:01.21	228.71	5.41	-44.2	-58.8	3.8	1.49e+00	0	57	104	0	60	18896
2026-01-23 11:59:02.22	228.83	5.46	-44.2	-58.8	3.8	1.49e+00	0	56	104	0	60	18939
2026-01-23 11:59:03.22	228.94	5.51	-44.2	-58.8	3.8	1.49e+00	0	57	104	0	60	18886
2026-01-23 11:59:04.23	229.06	5.56	-44.2	-58.8	3.8	1.49e+00	0	57	104	0	60	18913
2026-01-23 11:59:05.24	229.17	5.61	-44.2	-58.8	3.8	1.49e+00	0	57	104	0	60	18847
2026-01-23 11:59:06.25	229.29	5.66	-44.2	-58.8	3.8	1.49e+00	0	57	104	0	60	18803
2026-01-23 11:59:07.26	229.40	5.71	-44.2	-58.7	3.8	1.49e+00	0	57	104	0	60	18697
2026-01-23 11:59:08.27	229.52	5.76	-44.2	-58.8	3.8	1.49e+00	0	57	104	0	60	18762
2026-01-23 11:59:09.28	229.63	5.81	-44.2	-58.7	3.8	1.49e+00	0	57	104	0	60	18645
2026-01-23 11:59:10.29	229.75	5.86	-44.2	-58.7	3.8	1.49e+00	0	57	104	0	60	18679
2026-01-23 11:59:11.30	229.87	5.91	-44.2	-58.7	3.8	1.49e+00	0	57	104	0	60	18566
2026-01-23 11:59:12.31	229.98	5.96	-44.2	-58.7	3.8	1.49e+00	0	57	104	0	60	18555
2026-01-23 11:59:13.32	230.10	6.01	-44.2	-58.7	3.8	1.49e+00	0	57	104	0	60	18593
2026-01-23 11:59:14.33	230.22	6.06	-44.2	-58.6	3.8	1.49e+00	0	57	104	0	60	18368
2026-01-23 11:59:15.34	230.34	6.11	-44.2	-58.6	3.8	1.49e+00	0	57	104	0	60	18397
2026-01-23 11:59:16.35	230.46	6.16	-44.2	-58.6	3.8	1.49e+00	0	57	104	0	60	18316
2026-01-23 11:59:17.36	230.58	6.22	-44.2	-58.5	3.8	1.49e+00	0	57	104	0	60	18236
2026-01-23 11:59:18.37	230.70	6.27	-44.2	-58.5	3.8	1.49e+00	0	57	104	0	60	18157
2026-01-23 11:59:19.38	230.82	6.32	-44.1	-58.4	3.8	1.49e+00	0	57	104	0	60	18070
2026-01-23 11:59:20.39	230.94	6.37	-44.1	-58.4	3.8	1.49e+00	0	57	104	0	60	17997
2026-01-23 11:59:21.40	231.06	6.42	-44.1	-58.2	3.8	1.49e+00	0	57	104	0	60	17597
2026-01-23 11:59:22.41	231.18	6.47	-44.1	-58.1	3.8	1.49e+00	0	57	104	0	60	17406
2026-01-23 11:59:23.42	231.30	6.52	-44.1	-58.0	3.8	1.49e+00	0	57	104	0	60	17128
2026-01-23 11:59:24.43	231.43	6.57	-44.1	-57.8	3.8	1.49e+00	0	57	104	0	60	16766
2026-01-23 11:59:25.44	231.55	6.62	-44.1	-57.6	3.8	1.49e+00	0	57	104	0	60	16355
2026-01-23 11:59:26.45	231.67	6.67	-44.1	-57.3	3.8	1.49e+00	0	57	104	0	60	15892
2026-01-23 11:59:27.46	231.80	6.72	-44.0	-57.0	3.8	1.49e+00	0	58	104	0	60	15299
2026-01-23 11:59:28.47	231.92	6.77	-44.0	-56.7	3.8	1.49e+00	0	58	104	0	60	14811
2026-01-23 11:59:29.48	232.04	6.82	-44.1	-56.1	3.9	1.48e+00	0	57	104	0	59	14672
2026-01-23 11:59:30.50	232.17	6.87	-44.0	-55.6	4.1	1.48e+00	0	58	0	0	59	13766
2026-01-23 11:59:31.51	232.29	6.92	-44.0	-55.1	4.2	1.41e+00	0	58	0	0	59	12973
2026-01-23 11:59:32.52	232.42	6.97	-43.9	-54.5	4.4	1.28e+00	0	58	0	1048576	59	12095
2026-01-23 11:59:33.53	232.55	7.02	-43.9	-54.0	4.6	1.02e+00	0	58	0	2097152	59	11449
2026-01-23 11:59:34.54	232.67	7.07	-43.7	-53.3	4.9	8.32e-01	0	58	0	4194304	59	10632
2026-01-23 11:59:35.55	232.80	7.12	-43.7	-53.0	5.1	6.89e-01	0	58	0	6291456	59	10266
2026-01-23 11:59:36.56	232.93	7.17	-43.6	-52.7	5.2	5.92e-01	0	58	0	8388608	59	9924
2026-01-23 11:59:37.57	233.06	7.22	-43.6	-52.6	5.3	5.56e-01	0	58	0	10485760	59	9734
2026-01-23 11:59:38.58	233.18	7.27	-43.6	-52.5	5.3	5.28e-01	0	58	0	11534336	59	9715
2026-01-23 11:59:39.59	233.31	7.32	-43.6	-52.7	5.3	5.62e-01	0	58	0	13631488	59	9861
2026-01-23 11:59:40.60	233.44	7.37	-43.6	-52.9	5.1	5.90e-01	0	58	0	15728640	59	10095
2026-01-23 11:59:41.61	233.57	7.42	-43.6	-53.3	4.9	6.97e-01	0	58	0	17825792	59	10586
2026-01-23 11:59:42.62	233.70	7.47	-43.7	-53.6	4.8	8.22e-01	0	58	0	19922944	59	10950
2026-01-23 11:59:43.63	233.83	7.52	-43.7	-53.7	4.7	8.43e-01	0	58	0	20971520	59	11065
2026-01-23 11:59:44.64	233.96	7.58	-43.7	-53.5	4.8	8.40e-01	0	58	0	23068672	59	10783
2026-01-23 11:59:45.65	234.09	7.63	-43.7	-52.9	5.1	7.07e-01	0	58	0	25165824	59	10111
2026-01-23 11:59:46.66	234.22	7.68	-43.5	-51.8	5.8	5.21e-01	0	58	0	27262976	59	8929
2026-01-23 11:59:47.67	234.36	7.73	-43.4	-51.1	6.4	3.35e-01	0	58	0	29360128	58	8713
2026-01-23 11:59:48.68	234.49	7.78	-43.2	-50.1	7.3	1.53e-01	0	58	0	30408704	58	7766
2026-01-23 11:59:49.69	234.62	7.83	-43.0	-49.2	8.2	8.70e-02	0	58	0	32505856	58	7026
2026-01-23 11:59:50.71	234.76	7.88	-42.8	-48.5	8.9	3.91e-02	0	58	0	34603008	57	6869
2026-01-23 11:59:51.72	234.89	7.93	-42.7	-48.3	9.1	2.14e-02	0	58	0	36700160	57	6713
2026-01-23 11:59:52.73	235.02	7.98	-42.7	-48.2	9.2	1.99e-02	0	58	0	38797312	57	6618
2026-01-23 11:59:53.74	235.16	8.02	-42.7	-48.3	9.1	1.95e-02	0	58	0	39845888	57	6690
2026-01-23 11:59:54.75	235.29	8.07	-42.8	-48.3	9.2	1.37e-02	0	58	0	41943040	57	6712
2026-01-23 11:59:55.76	235.43	8.12	-43.2	-49.7	7.8	3.48e-02	0	58	0	44040192	57	7897
2026-01-23 11:59:56.77	235.57	8.17	-43.5	-51.1	6.6	6.42e-02	0	58	0	46137344	57	9234
2026-01-23 11:59:57.78	235.70	8.22	-44.2	-58.3	3.8	1.20e+00	0	58	104	47185920	58	19906
2026-01-23 11:59:58.78	235.84	8.27	-42.7	-48.0	9.7	8.13e-01	0	58	0	47185920	56	6849
2026-01-23 11:59:59.79	235.98	8.32	-42.6	-47.9	9.6	1.20e-01	0	58	0	49283072	57	6351
2026-01-23 12:00:00.80	236.11	8.37	-42.5	-47.5	10.0	9.32e-03	0	59	0	50331648	57	6110
2026-01-23 12:00:01.81	236.25	8.42	-42.4	-47.3	10.2	5.94e-03	0	58	0	52428800	56	6299
2026-01-23 12:00:02.82	236.39	8.47	-42.4	-47.2	10.3	4.53e-03	0	59	0	54525952	56	6246
2026-01-23 12:00:03.83	236.53	8.52	-42.3	-47.2	10.4	5.57e-03	0	59	0	56623104	56	6224
2026-01-23 12:00:04.84	236.67	8.57	-42.3	-47.1	10.4	5.24e-03	0	58	0	58720256	56	6170
2026-01-23 12:00:05.85	236.81	8.62	-42.3	-47.1	10.4	4.97e-03	0	59	0	59768832	56	6182
2026-01-23 12:00:06.86	236.95	8.67	-42.4	-47.3	10.3	4.50e-03	0	59	0	61865984	56	6283
2026-01-23 12:00:07.87	237.09	8.72	-42.4	-47.3	10.3	5.16e-03	0	59	0	63963136	56	6330
2026-01-23 12:00:08.87	237.23	8.77	-42.3	-47.1	10.5	4.25e-03	0	59	0	66060288	56	6136
2026-01-23 12:00:09.89	237.38	8.82	-42.3	-47.1	10.4	3.82e-03	0	59	0	68157440	56	6179
2026-01-23 12:00:10.90	237.52	8.86	-42.3	-46.9	10.7	3.16e-03	0	59	0	69206016	56	6033
2026-01-23 12:00:11.90	237.66	8.91	-42.2	-46.8	10.8	2.68e-03	0	59	0	71303168	56	5982
2026-01-23 12:00:12.91	237.80	8.96	-42.1	-46.6	11.0	2.41e-03	0	59	0	73400320	56	5835
2026-01-23 12:00:13.92	237.95	9.01	-42.1	-46.6	11.0	1.40e-03	0	59	0	75497472	56	5814
2026-01-23 12:00:14.94	238.09	9.06	-42.0	-46.3	11.4	1.32e-03	0	59	0	77594624	56	5595
2026-01-23 12:00:15.94	238.24	9.11	-41.8	-46.0	11.5	1.02e-03	0	59	0	78643200	55	5737
2026-01-23 12:00:16.95	238.38	9.16	-41.8	-46.0	11.4	8.57e-04	0	59	0	80740352	55	5768
2026-01-23 12:00:17.96	238.53	9.21	-41.8	-46.1	11.4	7.51e-04	0	59	0	82837504	55	5828
2026-01-23 12:00:18.97	238.67	9.25	-41.8	-46.1	11.4	8.49e-04	0	59	0	84934656	55	5796
2026-01-23 12:00:19.98	238.82	9.30	-41.8	-46.0	11.5	8.72e-04	0	59	0	87031808	55	5759
2026-01-23 12:00:20.99	238.97	9.35	-41.8	-46.0	11.5	7.41e-04	0	59	0	88080384	55	5732
2026-01-23 12:00:22.00	239.11	9.40	-41.8	-46.0	11.4	8.32e-04	0	59	0	90177536	55	5787
2026-01-23 12:00:23.01	239.26	9.45	-41.7	-45.8	11.7	5.96e-04	0	59	0	92274688	55	5616
2026-01-23 12:00:24.02	239.41	9.50	-41.6	-45.6	11.8	4.53e-04	0	59	0	94371840	55	5515
2026-01-23 12:00:25.03	239.56	9.54	-41.5	-45.4	12.1	2.93e-04	0	59	0	96468992	55	5374
2026-01-23 12:00:26.03	239.71	9.59	-41.5	-45.3	12.3	2.24e-04	0	59	0	97517568	55	5307
2026-01-23 12:00:27.05	239.86	9.64	-41.4	-45.1	12.5	1.56e-04	0	59	0	99614720	54	5485
2026-01-23 12:00:28.06	240.01	9.69	-41.4	-45.1	12.4	1.17e-04	0	59	0	101711872	54	5522
2026-01-23 12:00:29.07	240.16	9.73	-41.4	-45.1	12.5	1.50e-04	0	59	0	103809024	54	5472
2026-01-23 12:00:30.07	240.31	9.78	-41.4	-45.2	12.4	1.49e-04	0	59	0	105906176	54	5543
2026-01-23 12:00:31.08	240.46	9.83	-41.5	-45.3	12.3	1.79e-04	0	59	0	108003328	54	5627
2026-01-23 12:00:32.09	240.62	9.88	-41.6	-45.5	12.1	2.29e-04	0	59	0	109051904	54	5731
2026-01-23 12:00:33.10	240.77	9.92	-41.7	-45.7	11.8	3.39e-04	0	59	0	111149056	54	5902
2026-01-23 12:00:34.11	240.92	9.97	-41.7	-45.8	11.7	5.06e-04	0	59	0	113246208	54	5954
2026-01-23 12:00:35.12	241.08	10.02	-41.8	-45.9	11.6	5.72e-04	0	59	0	115343360	54	6009
2026-01-23 12:00:36.13	241.23	10.07	-41.8	-45.9	11.6	6.38e-04	0	59	0	117440512	54	6025
2026-01-23 12:00:37.14	241.38	10.11	-41.8	-46.0	11.6	6.24e-04	0	59	0	118489088	54	6067
2026-01-23 12:00:38.15	241.54	10.16	-41.7	-45.7	11.8	4.86e-04	0	59	0	120586240	54	5895
2026-01-23 12:00:39.16	241.70	10.21	-41.7	-45.7	11.9	4.08e-04	0	59	0	122683392	54	5908
2026-01-23 12:00:40.18	241.85	10.25	-41.6	-45.6	11.9	3.71e-04	0	59	0	124780544	54	5832
2026-01-23 12:00:41.19	242.01	10.30	-41.6	-45.5	12.0	3.50e-04	0	60	0	126877696	54	5788
2026-01-23 12:00:42.19	242.17	10.35	-41.6	-45.6	11.9	3.73e-04	0	60	0	127926272	54	5817
2026-01-23 12:00:43.21	242.32	10.39	-41.7	-45.6	11.9	3.75e-04	0	59	0	130023424	54	5836
2026-01-23 12:00:44.21	242.48	10.44	-41.7	-45.8	11.8	3.89e-04	0	59	0	132120576	54	5947
2026-01-23 12:00:45.22	242.64	10.49	-41.7	-45.8	11.8	4.78e-04	0	60	0	134217728	54	5963
2026-01-23 12:00:46.23	242.80	10.53	-41.7	-45.7	11.9	5.19e-04	0	59	0	136314880	54	5887
2026-01-23 12:00:47.25	242.96	10.58	-41.7	-45.8	11.8	4.74e-04	0	60	0	137363456	54	5950
2026-01-23 12:00:48.26	243.12	10.62	-41.8	-45.9	11.7	5.23e-04	0	60	0	139460608	54	6027
2026-01-23 12:00:49.27	243.28	10.67	-41.7	-45.7	11.8	4.44e-04	0	59	0	141557760	54	5911
2026-01-23 12:00:50.28	243.44	10.72	-41.6	-45.6	12.0	4.34e-04	0	59	0	143654912	54	5819
2026-01-23 12:00:51.29	243.60	10.76	-41.7	-45.6	12.0	2.68e-04	0	59	0	145752064	54	5846
2026-01-23 12:00:52.30	243.77	10.81	-41.7	-45.6	12.0	3.50e-04	0	59	0	146800640	54	5817
2026-01-23 12:00:53.31	243.93	10.85	-41.7	-45.6	12.0	3.65e-04	0	60	0	148897792	54	5832
2026-01-23 12:00:54.31	244.09	10.90	-41.8	-45.8	11.7	3.75e-04	0	60	0	150994944	54	5985
2026-01-23 12:00:55.32	244.25	10.94	-41.7	-45.7	11.9	4.29e-04	0	60	0	153092096	54	5880
2026-01-23 12:00:56.33	244.42	10.99	-41.7	-45.7	11.9	3.73e-04	0	60	0	155189248	54	5873
2026-01-23 12:00:57.35	244.58	11.03	-41.8	-45.8	11.8	4.11e-04	0	60	0	156237824	54	5981
2026-01-23 12:00:58.35	244.75	11.08	-41.7	-45.7	11.9	3.56e-04	0	60	0	158334976	54	5871
2026-01-23 12:00:59.36	244.91	11.12	-41.7	-45.7	11.9	3.62e-04	0	60	0	160432128	54	5911
2026-01-23 12:01:00.37	245.08	11.17	-41.7	-45.7	11.9	3.96e-04	0	60	0	162529280	54	5911
2026-01-23 12:01:01.38	245.24	11.21	-41.7	-45.7	12.0	2.75e-04	0	60	0	164626432	54	5868
2026-01-23 12:01:02.39	245.41	11.25	-41.6	-45.5	12.2	2.49e-04	0	60	0	165675008	54	5734
2026-01-23 12:01:03.41	245.58	11.30	-41.6	-45.5	12.2	2.78e-04	0	60	0	167772160	54	5728
2026-01-23 12:01:04.41	245.75	11.34	-41.7	-45.5	12.1	3.10e-04	0	60	0	169869312	54	5784
2026-01-23 12:01:05.42	245.91	11.39	-41.7	-45.7	12.0	2.78e-04	0	60	0	171966464	54	5880
2026-01-23 12:01:06.43	246.08	11.43	-41.9	-46.0	11.6	5.67e-04	0	60	0	174063616	54	6130
2026-01-23 12:01:07.44	246.25	11.47	-41.9	-46.1	11.4	8.01e-04	0	60	0	176160768	54	6201
2026-01-23 12:01:08.45	246.42	11.52	-42.0	-46.2	11.4	9.80e-04	0	60	0	177209344	54	6270
2026-01-23 12:01:09.46	246.59	11.56	-41.9	-46.1	11.5	9.25e-04	0	60	0	179306496	54	6167
2026-01-23 12:01:10.47	246.76	11.60	-41.8	-45.9	11.7	8.12e-04	0	60	0	181403648	54	6019
2026-01-23 12:01:11.48	246.93	11.65	-41.9	-46.1	11.5	7.40e-04	0	60	0	183500800	54	6135
2026-01-23 12:01:12.49	247.11	11.69	-41.8	-45.8	11.9	6.96e-04	0	60	0	185597952	54	5934
2026-01-23 12:01:13.50	247.28	11.73	-41.8	-45.8	11.8	5.87e-04	0	60	0	186646528	54	5979
2026-01-23 12:01:14.51	247.45	11.77	-41.8	-45.9	11.7	6.01e-04	0	60	0	188743680	54	6025
2026-01-23 12:01:15.52	247.62	11.82	-41.8	-45.8	11.8	4.56e-04	0	60	0	190840832	54	5959
2026-01-23 12:01:16.53	247.80	11.86	-41.9	-46.0	11.6	5.48e-04	0	60	0	192937984	54	6120
2026-01-23 12:01:17.54	247.97	11.90	-41.9	-46.1	11.6	5.96e-04	0	60	0	195035136	54	6136
2026-01-23 12:01:18.55	248.15	11.94	-41.9	-46.2	11.4	8.32e-04	0	60	0	196083712	54	6234
2026-01-23 12:01:19.56	248.32	11.98	-42.0	-46.2	11.4	9.50e-04	0	60	0	198180864	54	6250
2026-01-23 12:01:20.57	248.50	12.02	-42.0	-46.3	11.3	9.87e-04	0	60	0	200278016	54	6277
2026-01-23 12:01:21.58	248.67	12.07	-42.0	-46.2	11.4	9.50e-04	0	60	0	202375168	54	6255
2026-01-23 12:01:22.59	248.85	12.11	-42.0	-46.2	11.4	9.02e-04	0	60	0	204472320	54	6226
2026-01-23 12:01:23.59	249.03	12.15	-42.0	-46.3	11.3	9.23e-04	0	60	0	205520896	54	6322
2026-01-23 12:01:24.60	249.20	12.19	-41.9	-46.1	11.5	7.72e-04	0	60	0	207618048	54	6177
2026-01-23 12:01:25.61	249.38	12.23	-42.0	-46.3	11.3	8.98e-04	0	60	0	209715200	54	6292
2026-01-23 12:01:26.62	249.56	12.27	-42.0	-46.3	11.4	9.61e-04	0	60	0	211812352	54	6318
2026-01-23 12:01:27.63	249.74	12.31	-42.0	-46.2	11.4	1.01e-03	0	60	0	213909504	54	6250
2026-01-23 12:01:28.64	249.92	12.35	-41.9	-46.2	11.5	8.57e-04	0	60	0	214958080	54	6216
2026-01-23 12:01:29.65	250.10	12.39	-42.1	-46.4	11.3	1.01e-03	0	60	0	217055232	54	6354
2026-01-23 12:01:30.66	250.28	12.43	-42.1	-46.5	11.0	1.28e-03	0	60	0	219152384	54	6491
2026-01-23 12:01:31.67	250.46	12.47	-42.1	-46.5	11.1	1.52e-03	0	60	0	221249536	54	6457
2026-01-23 12:01:32.68	250.64	12.51	-42.1	-46.6	11.1	1.60e-03	0	60	0	223346688	54	6498
2026-01-23 12:01:33.69	250.82	12.55	-42.2	-46.7	10.9	1.76e-03	0	60	0	224395264	54	6631
2026-01-23 12:01:34.70	251.00	12.58	-42.3	-46.9	10.7	2.51e-03	0	60	0	226492416	55	6360
2026-01-23 12:01:35.71	251.19	12.62	-42.2	-46.8	10.8	2.86e-03	0	60	0	228589568	55	6299
2026-01-23 12:01:36.72	251.37	12.66	-42.3	-46.9	10.7	3.05e-03	0	60	0	230686720	55	6388
2026-01-23 12:01:37.73	251.55	12.70	-42.4	-47.1	10.5	3.38e-03	0	60	0	232783872	55	6539
2026-01-23 12:01:38.74	251.74	12.74	-42.3	-47.0	10.6	4.18e-03	0	60	0	233832448	55	6466
2026-01-23 12:01:39.75	251.92	12.78	-42.4	-47.1	10.5	4.00e-03	0	60	0	235929600	55	6524
2026-01-23 12:01:40.76	252.11	12.81	-42.3	-47.1	10.5	3.69e-03	0	60	0	238026752	55	6514
2026-01-23 12:01:41.77	252.29	12.85	-42.4	-47.1	10.5	3.78e-03	0	60	0	240123904	55	6535
2026-01-23 12:01:42.78	252.48	12.89	-42.4	-47.3	10.4	4.93e-03	0	60	0	242221056	55	6656
2026-01-23 12:01:43.79	252.67	12.92	-42.4	-47.2	10.3	5.40e-03	0	60	0	244318208	55	6609
2026-01-23 12:01:44.79	252.85	12.96	-42.5	-47.5	10.2	5.82e-03	0	60	0	245366784	55	6802
2026-01-23 12:01:45.80	253.04	13.00	-42.6	-47.6	10.0	7.88e-03	0	60	0	247463936	55	6940
2026-01-23 12:01:46.81	253.23	13.03	-42.6	-47.7	9.9	9.29e-03	0	60	0	249561088	55	7014
2026-01-23 12:01:47.82	253.41	13.07	-42.7	-47.9	9.7	9.11e-03	0	60	0	251658240	55	7162
2026-01-23 12:01:48.83	253.60	13.11	-42.7	-47.9	9.7	1.09e-02	0	60	0	253755392	55	7169
2026-01-23 12:01:49.84	253.79	13.14	-42.6	-47.7	9.9	8.61e-03	0	60	0	254803968	55	7001
2026-01-23 12:01:50.85	253.98	13.18	-42.6	-47.6	10.0	9.26e-03	0	60	0	256901120	55	6924
2026-01-23 12:01:51.86	254.17	13.21	-42.6	-47.7	9.9	8.59e-03	0	60	0	258998272	55	6995
2026-01-23 12:01:52.87	254.36	13.25	-42.6	-47.7	9.8	8.42e-03	0	60	0	261095424	55	7023
2026-01-23 12:01:53.88	254.55	13.28	-42.6	-47.8	9.7	9.47e-03	0	60	0	263192576	55	7095
2026-01-23 12:01:54.89	254.74	13.32	-42.7	-48.0	9.5	1.29e-02	0	60	0	264241152	55	7276
2026-01-23 12:01:55.90	254.93	13.35	-42.7	-47.9	9.7	1.05e-02	0	60	0	266338304	55	7150
2026-01-23 12:01:56.91	255.13	13.38	-42.7	-47.8	9.8	1.09e-02	0	60	0	268435456	55	7114
2026-01-23 12:01:57.92	255.32	13.42	-42.8	-47.9	9.8	1.21e-02	0	60	0	270532608	56	6781
2026-01-23 12:01:58.93	255.51	13.45	-42.8	-47.9	9.8	8.89e-03	0	61	0	272629760	56	6771
2026-01-23 12:01:59.94	255.70	13.48	-42.7	-47.6	10.1	8.56e-03	0	60	0	273678336	56	6560
2026-01-23 12:02:00.94	255.90	13.52	-42.7	-47.6	10.1	6.51e-03	0	60	0	275775488	56	6537
2026-01-23 12:02:01.95	256.09	13.55	-42.7	-47.6	10.2	6.21e-03	0	61	0	277872640	56	6517
2026-01-23 12:02:02.96	256.29	13.58	-42.7	-47.7	10.0	7.18e-03	0	60	0	279969792	56	6621
2026-01-23 12:02:03.97	256.48	13.61	-42.7	-47.7	10.0	9.09e-03	0	60	0	282066944	56	6625
2026-01-23 12:02:04.98	256.68	13.64	-42.7	-47.9	9.9	8.01e-03	0	60	0	283115520	56	6739
2026-01-23 12:02:05.99	256.87	13.68	-42.8	-48.0	9.6	1.18e-02	0	60	0	285212672	56	6879
2026-01-23 12:02:07.00	257.07	13.71	-42.8	-48.1	9.7	1.31e-02	0	61	0	287309824	56	6903
2026-01-23 12:02:08.01	257.26	13.74	-42.8	-48.1	9.7	1.34e-02	0	61	0	289406976	56	6904
2026-01-23 12:02:09.02	257.46	13.77	-42.8	-48.0	9.7	1.12e-02	0	61	0	291504128	56	6852
2026-01-23 12:02:10.02	257.66	13.80	-42.8	-48.1	9.7	9.83e-03	0	60	0	292552704	56	6921
2026-01-23 12:02:11.03	257.85	13.83	-42.8	-47.9	9.9	9.39e-03	0	60	0	294649856	56	6730
2026-01-23 12:02:12.04	258.05	13.86	-42.7	-47.8	9.9	1.16e-02	0	61	0	296747008	56	6715
2026-01-23 12:02:13.05	258.25	13.89	-42.7	-47.8	9.9	8.96e-03	0	60	0	298844160	56	6679
2026-01-23 12:02:14.06	258.45	13.92	-42.7	-47.8	10.0	7.46e-03	0	60	0	300941312	56	6656
2026-01-23 12:02:15.07	258.65	13.95	-42.7	-47.7	10.2	7.31e-03	0	61	0	301989888	56	6599
2026-01-23 12:02:16.08	258.85	13.98	-42.6	-47.4	10.4	5.48e-03	0	61	0	304087040	56	6360
2026-01-23 12:02:17.09	259.05	14.01	-42.5	-47.2	10.6	4.04e-03	0	61	0	306184192	56	6274
2026-01-23 12:02:18.10	259.25	14.03	-42.4	-47.0	10.8	3.18e-03	0	60	0	308281344	56	6110
2026-01-23 12:02:19.11	259.45	14.06	-42.4	-47.0	10.8	2.37e-03	0	61	0	310378496	56	6075
2026-01-23 12:02:20.12	259.65	14.09	-42.2	-46.6	11.3	1.29e-03	0	61	0	312475648	56	5813
2026-01-23 12:02:21.13	259.85	14.12	-42.1	-46.4	11.4	1.01e-03	0	60	0	313524224	56	5693
2026-01-23 12:02:22.14	260.05	14.14	-42.1	-46.2	11.6	7.69e-04	0	60	0	315621376	56	5589
2026-01-23 12:02:23.14	260.25	14.17	-42.0	-46.1	11.7	7.41e-04	0	61	0	317718528	56	5505
2026-01-23 12:02:24.15	260.46	14.20	-41.8	-45.8	11.8	3.97e-04	0	61	0	319815680	55	5644
2026-01-23 12:02:25.16	260.66	14.22	-41.9	-46.0	11.6	6.51e-04	0	61	0	321912832	55	5786
2026-01-23 12:02:26.17	260.86	14.25	-41.9	-46.1	11.5	6.19e-04	0	61	0	322961408	55	5811
2026-01-23 12:02:27.18	261.07	14.27	-41.9	-46.0	11.7	5.71e-04	0	61	0	325058560	55	5749
2026-01-23 12:02:28.19	261.27	14.30	-42.0	-46.1	11.5	7.84e-04	0	61	0	327155712	55	5854
2026-01-23 12:02:29.20	261.47	14.32	-42.0	-46.2	11.4	7.41e-04	0	61	0	329252864	55	5923
2026-01-23 12:02:30.21	261.68	14.35	-42.0	-46.2	11.4	1.01e-03	0	61	0	330301440	55	5910
2026-01-23 12:02:31.22	261.88	14.37	-42.0	-46.3	11.4	9.72e-04	0	61	0	332398592	55	5933
2026-01-23 12:02:32.22	262.09	14.40	-42.0	-46.1	11.5	7.22e-04	0	60	0	334495744	55	5844
2026-01-23 12:02:33.23	262.29	14.42	-41.8	-45.8	11.8	6.51e-04	0	60	0	336592896	55	5645
2026-01-23 12:02:34.24	262.50	14.44	-41.6	-45.4	12.2	2.47e-04	0	61	0	338690048	55	5395
2026-01-23 12:02:35.25	262.70	14.47	-41.6	-45.4	12.3	1.73e-04	0	61	0	340787200	55	5383
2026-01-23 12:02:36.26	262.91	14.49	-41.6	-45.3	12.4	1.72e-04	0	61	0	341835776	55	5334
2026-01-23 12:02:37.27	263.12	14.51	-41.7	-45.6	12.1	2.67e-04	0	61	0	343932928	55	5515
2026-01-23 12:02:38.28	263.32	14.53	-41.8	-45.8	11.9	2.55e-04	0	61	0	346030080	55	5594
2026-01-23 12:02:39.29	263.53	14.56	-41.9	-46.0	11.7	5.13e-04	0	61	0	348127232	55	5780
2026-01-23 12:02:40.30	263.74	14.58	-42.0	-46.1	11.5	8.08e-04	0	61	0	350224384	55	5855
2026-01-23 12:02:41.30	263.95	14.60	-42.0	-46.2	11.5	7.82e-04	0	61	0	351272960	55	5874
2026-01-23 12:02:42.31	264.15	14.62	-41.9	-46.0	11.7	8.36e-04	0	61	0	353370112	55	5747
2026-01-23 12:02:43.32	264.36	14.64	-41.8	-45.7	11.9	4.49e-04	0	61	0	355467264	55	5583
2026-01-23 12:02:44.33	264.57	14.66	-41.8	-45.8	11.9	3.49e-04	0	61	0	357564416	55	5609
2026-01-23 12:02:45.34	264.78	14.68	-41.8	-45.7	12.0	3.75e-04	0	61	0	359661568	55	5556
2026-01-23 12:02:46.34	264.99	14.70	-41.9	-46.1	11.6	4.60e-04	0	61	0	360710144	55	5817
2026-01-23 12:02:47.35	265.20	14.72	-42.0	-46.3	11.3	1.06e-03	0	61	0	362807296	55	5991
2026-01-23 12:02:48.36	265.41	14.74	-42.1	-46.5	11.1	1.52e-03	0	61	0	364904448	55	6118
2026-01-23 12:02:49.37	265.62	14.75	-42.3	-46.8	10.8	2.18e-03	0	61	0	367001600	55	6314
2026-01-23 12:02:50.38	265.83	14.77	-42.2	-46.7	11.0	2.27e-03	0	60	0	369098752	55	6238
2026-01-23 12:02:51.38	266.03	14.79	-42.0	-46.3	11.4	1.79e-03	0	61	0	370147328	55	5924
2026-01-23 12:02:52.39	266.25	14.81	-42.0	-46.3	11.4	9.15e-04	0	61	0	372244480	55	5954
2026-01-23 12:02:53.40	266.46	14.82	-42.0	-46.3	11.3	1.08e-03	0	61	0	374341632	55	5962
2026-01-23 12:02:54.41	266.67	14.84	-42.1	-46.6	11.1	1.32e-03	0	61	0	376438784	55	6134
2026-01-23 12:02:55.42	266.88	14.86	-42.4	-47.2	10.4	2.53e-03	0	61	0	378535936	55	6593
2026-01-23 12:02:56.42	267.09	14.87	-42.5	-47.5	10.1	5.33e-03	0	61	0	379584512	55	6877
2026-01-23 12:02:57.43	267.30	14.89	-42.6	-47.9	9.7	1.21e-02	0	61	0	381681664	55	7139
2026-01-23 12:02:58.44	267.51	14.90	-42.8	-48.0	9.8	1.28e-02	0	61	0	383778816	56	6815
2026-01-23 12:02:59.45	267.72	14.92	-42.7	-47.6	10.1	8.17e-03	0	61	0	385875968	56	6565
2026-01-23 12:03:00.46	267.94	14.93	-42.5	-47.1	10.7	3.56e-03	0	61	0	387973120	56	6173
2026-01-23 12:03:01.47	268.15	14.95	-42.2	-46.5	11.3	1.35e-03	0	61	0	389021696	56	5728
2026-01-23 12:03:02.48	268.36	14.96	-42.0	-46.0	11.8	6.27e-04	0	61	0	391118848	56	5427
2026-01-23 12:03:03.49	268.58	14.97	-41.8	-45.8	11.8	4.41e-04	0	61	0	393216000	55	5626
2026-01-23 12:03:04.50	268.79	14.99	-41.9	-46.1	11.5	6.60e-04	0	61	0	395313152	55	5814
2026-01-23 12:03:05.51	269.00	15.00	-42.0	-46.4	11.2	8.53e-04	0	61	0	397410304	55	6037
2026-01-23 12:03:06.51	269.21	15.01	-42.2	-46.8	10.8	2.03e-03	0	61	0	398458880	55	6276
2026-01-23 12:03:07.52	269.43	15.02	-42.2	-46.6	11.0	2.22e-03	0	61	0	400556032	55	6192
2026-01-23 12:03:08.53	269.64	15.03	-42.1	-46.4	11.2	1.65e-03	0	61	0	402653184	55	6039
2026-01-23 12:03:09.54	269.86	15.05	-42.0	-46.2	11.4	1.11e-03	0	61	0	404750336	55	5873
2026-01-23 12:03:10.55	270.07	15.06	-41.8	-45.9	11.8	7.71e-04	0	61	0	406847488	55	5664
2026-01-23 12:03:11.56	270.28	15.07	-41.6	-45.5	12.1	3.31e-04	0	61	0	407896064	55	5432
2026-01-23 12:03:12.57	270.50	15.08	-41.6	-45.5	12.1	2.43e-04	0	61	0	409993216	55	5423
2026-01-23 12:03:13.58	270.71	15.09	-41.7	-45.6	12.0	2.43e-04	0	61	0	412090368	55	5503
2026-01-23 12:03:14.59	270.93	15.10	-41.7	-45.7	12.0	3.77e-04	0	61	0	414187520	55	5547
2026-01-23 12:03:15.60	271.14	15.11	-41.8	-45.8	11.8	4.38e-04	0	61	0	416284672	55	5640
2026-01-23 12:03:16.61	271.36	15.11	-41.7	-45.7	11.9	3.99e-04	0	61	0	417333248	55	5560
2026-01-23 12:03:17.61	271.57	15.12	-41.6	-45.5	12.1	3.09e-04	0	61	0	419430400	55	5440
2026-01-23 12:03:18.62	271.79	15.13	-41.6	-45.4	12.2	2.28e-04	0	61	0	421527552	55	5373
2026-01-23 12:03:19.63	272.00	15.14	-41.6	-45.4	12.2	2.16e-04	0	61	0	423624704	55	5375
2026-01-23 12:03:20.64	272.22	15.14	-41.7	-45.6	12.1	2.55e-04	0	61	0	425721856	55	5473
2026-01-23 12:03:21.65	272.43	15.15	-41.8	-45.8	11.8	3.02e-04	0	61	0	426770432	55	5615
2026-01-23 12:03:22.66	272.65	15.16	-41.9	-46.2	11.5	5.38e-04	0	61	0	428867584	55	5864
2026-01-23 12:03:23.67	272.86	15.16	-42.0	-46.2	11.4	9.74e-04	0	61	0	430964736	55	5916
2026-01-23 12:03:24.68	273.08	15.17	-42.0	-46.2	11.4	1.31e-03	0	61	0	433061888	55	5899
2026-01-23 12:03:25.69	273.29	15.17	-41.9	-46.1	11.5	8.62e-04	0	61	0	435159040	55	5799
2026-01-23 12:03:26.70	273.51	15.18	-41.7	-45.7	11.8	5.07e-04	0	61	0	437256192	55	5588
2026-01-23 12:03:27.70	273.72	15.18	-41.5	-45.3	12.3	2.78e-04	0	61	0	438304768	55	5307
2026-01-23 12:03:28.71	273.94	15.19	-41.6	-45.4	12.3	1.75e-04	0	61	0	440401920	55	5345
2026-01-23 12:03:29.72	274.16	15.19	-41.6	-45.5	12.1	2.01e-04	0	61	0	442499072	55	5429
2026-01-23 12:03:30.73	274.37	15.20	-41.7	-45.8	11.9	3.33e-04	0	61	0	444596224	55	5593
2026-01-23 12:03:31.74	274.59	15.20	-41.9	-46.2	11.4	6.45e-04	0	61	0	446693376	55	5876
2026-01-23 12:03:32.75	274.80	15.20	-42.0	-46.4	11.2	1.17e-03	0	61	0	447741952	55	6011
2026-01-23 12:03:33.76	275.02	15.20	-42.1	-46.4	11.2	1.51e-03	0	61	0	449839104	55	6053
2026-01-23 12:03:34.77	275.24	15.20	-42.0	-46.3	11.3	1.47e-03	0	61	0	451936256	55	5963
2026-01-23 12:03:35.78	275.45	15.21	-42.0	-46.2	11.3	1.11e-03	0	61	0	454033408	55	5909
2026-01-23 12:03:36.79	275.67	15.21	-41.9	-46.2	11.4	1.05e-03	0	61	0	456130560	55	5870
2026-01-23 12:03:37.79	275.88	15.21	-42.0	-46.2	11.4	1.02e-03	0	61	0	457179136	55	5907
2026-01-23 12:03:38.80	276.10	15.21	-42.0	-46.2	11.3	1.05e-03	0	61	0	459276288	55	5923
2026-01-23 12:03:39.81	276.32	15.21	-42.0	-46.4	11.2	1.30e-03	0	61	0	461373440	55	6036
2026-01-23 12:03:40.82	276.53	15.21	-42.0	-46.3	11.3	1.29e-03	0	61	0	463470592	55	5955
2026-01-23 12:03:41.83	276.75	15.21	-42.0	-46.2	11.4	1.13e-03	0	61	0	465567744	55	5907
2026-01-23 12:03:42.84	276.96	15.21	-41.8	-45.9	11.6	8.70e-04	0	61	0	466616320	55	5708
2026-01-23 12:03:43.85	277.18	15.20	-41.8	-45.9	11.7	5.97e-04	0	61	0	468713472	55	5677
2026-01-23 12:03:44.86	277.40	15.20	-41.9	-46.0	11.6	5.92e-04	0	61	0	470810624	55	5744
2026-01-23 12:03:45.87	277.61	15.20	-42.0	-46.2	11.4	9.40e-04	0	61	0	472907776	55	5896
2026-01-23 12:03:46.88	277.83	15.20	-42.1	-46.5	11.1	1.36e-03	0	61	0	475004928	55	6097
2026-01-23 12:03:47.89	278.04	15.19	-42.1	-46.6	10.9	1.93e-03	0	61	0	476053504	55	6183
2026-01-23 12:03:48.90	278.26	15.19	-42.1	-46.4	11.1	2.06e-03	0	61	0	478150656	55	6058
2026-01-23 12:03:49.91	278.48	15.19	-42.0	-46.4	11.2	1.52e-03	0	61	0	480247808	55	6007
2026-01-23 12:03:50.91	278.69	15.18	-41.9	-46.0	11.6	8.01e-04	0	61	0	482344960	55	5761
2026-01-23 12:03:51.92	278.91	15.18	-41.6	-45.4	12.2	2.53e-04	0	61	0	484442112	55	5400
2026-01-23 12:03:52.93	279.12	15.17	-41.6	-45.4	12.1	2.78e-04	0	61	0	485490688	55	5382
2026-01-23 12:03:53.94	279.34	15.17	-41.6	-45.6	12.0	2.76e-04	0	61	0	487587840	55	5471
2026-01-23 12:03:54.95	279.55	15.16	-41.7	-45.7	11.9	2.68e-04	0	61	0	489684992	55	5557
2026-01-23 12:03:55.96	279.77	15.16	-41.8	-45.9	11.6	5.79e-04	0	61	0	491782144	55	5683
2026-01-23 12:03:56.97	279.98	15.15	-41.8	-45.9	11.7	6.21e-04	0	61	0	493879296	55	5664
2026-01-23 12:03:57.98	280.20	15.14	-41.7	-45.8	11.8	6.21e-04	0	61	0	494927872	55	5633
2026-01-23 12:03:58.99	280.41	15.13	-41.6	-45.6	12.0	3.98e-04	0	61	0	497025024	55	5498
2026-01-23 12:04:00.00	280.63	15.13	-41.6	-45.5	12.0	3.33e-04	0	61	0	499122176	55	5440
2026-01-23 12:04:01.01	280.84	15.12	-41.5	-45.3	12.2	2.58e-04	0	61	0	501219328	55	5331
2026-01-23 12:04:02.02	281.06	15.11	-41.5	-45.3	12.3	1.81e-04	0	61	0	503316480	54	5625
2026-01-23 12:04:03.03	281.27	15.10	-41.6	-45.4	12.1	2.40e-04	0	61	0	505413632	54	5712
2026-01-23 12:04:04.04	281.49	15.09	-41.7	-45.7	11.9	3.39e-04	0	61	0	506462208	54	5861
2026-01-23 12:04:05.05	281.70	15.08	-41.7	-45.7	11.8	4.35e-04	0	61	0	508559360	54	5923
2026-01-23 12:04:06.06	281.92	15.07	-41.7	-45.8	11.8	4.06e-04	0	61	0	510656512	54	5928
2026-01-23 12:04:07.07	282.13	15.06	-41.6	-45.6	11.9	4.42e-04	0	61	0	512753664	54	5802
2026-01-23 12:04:08.08	282.34	15.05	-41.5	-45.3	12.3	2.51e-04	0	61	0	514850816	54	5594
2026-01-23 12:04:09.09	282.56	15.04	-41.3	-45.0	12.5	1.22e-04	0	61	0	515899392	54	5448
2026-01-23 12:04:10.10	282.77	15.03	-41.3	-44.8	12.7	7.62e-05	0	61	0	517996544	54	5338
2026-01-23 12:04:11.11	282.99	15.02	-41.2	-44.7	12.9	5.95e-05	0	61	0	520093696	54	5226
2026-01-23 12:04:12.12	283.20	15.01	-41.1	-44.6	13.0	3.96e-05	0	61	0	522190848	54	5195
2026-01-23 12:04:13.13	283.41	14.99	-41.2	-44.7	12.9	4.34e-05	0	61	0	524288000	54	5246
2026-01-23 12:04:14.14	283.62	14.98	-41.3	-44.9	12.6	7.62e-05	0	61	0	525336576	54	5380
2026-01-23 12:04:15.15	283.84	14.97	-41.4	-45.1	12.4	1.38e-04	0	61	0	527433728	54	5503
2026-01-23 12:04:16.16	284.05	14.95	-41.5	-45.3	12.2	2.33e-04	0	61	0	529530880	54	5641
2026-01-23 12:04:17.17	284.26	14.94	-41.5	-45.5	12.0	2.46e-04	0	61	0	531628032	54	5724
2026-01-23 12:04:18.18	284.47	14.93	-41.6	-45.5	12.0	2.85e-04	0	61	0	533725184	54	5754
2026-01-23 12:04:19.19	284.69	14.91	-41.5	-45.4	12.1	2.40e-04	0	61	0	534773760	54	5678
2026-01-23 12:04:20.20	284.90	14.90	-41.5	-45.4	12.0	2.75e-04	0	61	0	536870912	54	5672
2026-01-23 12:04:21.21	285.11	14.88	-41.5	-45.5	12.0	3.43e-04	0	61	0	538968064	54	5755
2026-01-23 12:04:22.22	285.32	14.87	-41.6	-45.6	11.7	3.91e-04	0	61	0	541065216	54	5847
2026-01-23 12:04:23.23	285.53	14.85	-41.5	-45.5	11.9	4.25e-04	0	61	0	543162368	54	5773
2026-01-23 12:04:24.24	285.74	14.83	-41.5	-45.5	11.9	4.03e-04	0	61	0	544210944	54	5780
2026-01-23 12:04:25.25	285.95	14.82	-41.5	-45.5	11.9	3.71e-04	0	61	0	546308096	54	5760
2026-01-23 12:04:26.26	286.16	14.80	-41.6	-45.7	11.7	5.07e-04	0	61	0	548405248	54	5891
2026-01-23 12:04:27.27	286.37	14.78	-41.5	-45.6	11.9	4.29e-04	0	61	0	550502400	54	5790
2026-01-23 12:04:28.27	286.58	14.76	-41.6	-45.6	11.7	4.62e-04	0	61	0	552599552	54	5847
2026-01-23 12:04:29.28	286.79	14.75	-41.6	-45.8	11.6	5.62e-04	0	61	0	553648128	54	5931
2026-01-23 12:04:30.29	287.00	14.73	-41.6	-45.8	11.6	6.72e-04	0	61	0	555745280	54	5925
2026-01-23 12:04:31.30	287.21	14.71	-41.7	-46.0	11.3	8.28e-04	0	61	0	557842432	54	6082
2026-01-23 12:04:32.31	287.42	14.69	-41.7	-46.0	11.4	8.44e-04	0	61	0	559939584	54	6068
2026-01-23 12:04:33.32	287.63	14.67	-41.7	-45.9	11.4	9.96e-04	0	61	0	562036736	54	6052
2026-01-23 12:04:34.33	287.84	14.65	-41.6	-45.8	11.5	8.55e-04	0	61	0	563085312	54	5960
2026-01-23 12:04:35.34	288.04	14.63	-41.5	-45.6	11.7	7.23e-04	0	61	0	565182464	54	5810
2026-01-23 12:04:36.35	288.25	14.61	-41.5	-45.6	11.8	5.08e-04	0	61	0	567279616	54	5794
2026-01-23 12:04:37.36	288.46	14.59	-41.5	-45.4	11.9	3.71e-04	0	61	0	569376768	54	5720
2026-01-23 12:04:38.37	288.67	14.57	-41.4	-45.4	11.9	3.97e-04	0	61	0	571473920	54	5696
2026-01-23 12:04:39.38	288.87	14.55	-41.3	-45.2	12.1	2.59e-04	0	61	0	573571072	54	5556
2026-01-23 12:04:40.39	289.08	14.52	-41.3	-45.2	12.1	2.34e-04	0	61	0	574619648	54	5547
2026-01-23 12:04:41.40	289.29	14.50	-41.2	-45.0	12.3	1.75e-04	0	61	0	576716800	54	5428
2026-01-23 12:04:42.41	289.49	14.48	-41.0	-44.6	12.7	1.11e-04	0	61	0	578813952	54	5199
2026-01-23 12:04:43.42	289.70	14.46	-41.0	-44.5	12.8	5.79e-05	0	61	0	580911104	53	5437
2026-01-23 12:04:44.43	289.90	14.43	-40.9	-44.4	12.9	5.64e-05	0	61	0	583008256	53	5358
2026-01-23 12:04:45.44	290.11	14.41	-40.9	-44.4	12.9	5.87e-05	0	61	0	584056832	53	5363
2026-01-23 12:04:46.44	290.31	14.39	-40.9	-44.4	12.9	4.88e-05	0	61	0	586153984	53	5399
2026-01-23 12:04:47.45	290.51	14.36	-41.0	-44.5	12.8	5.11e-05	0	61	0	588251136	53	5454
2026-01-23 12:04:48.46	290.72	14.34	-40.9	-44.4	12.9	4.95e-05	0	61	0	590348288	53	5389
2026-01-23 12:04:49.47	290.92	14.31	-40.8	-44.3	13.0	4.95e-05	0	61	0	592445440	53	5298
2026-01-23 12:04:50.48	291.13	14.29	-40.7	-44.0	13.3	2.51e-05	0	61	0	593494016	53	5128
2026-01-23 12:04:51.49	291.33	14.26	-40.5	-43.8	13.5	2.89e-05	0	61	0	595591168	53	4993
2026-01-23 12:04:52.50	291.53	14.24	-40.6	-43.9	13.3	1.52e-05	0	61	0	597688320	53	5094
2026-01-23 12:04:53.51	291.73	14.21	-40.6	-43.9	13.3	2.13e-05	0	61	0	599785472	53	5080
2026-01-23 12:04:54.52	291.94	14.19	-40.7	-44.1	13.1	3.50e-05	0	61	0	601882624	53	5208
2026-01-23 12:04:55.53	292.14	14.16	-40.9	-44.4	12.8	4.19e-05	0	61	0	602931200	53	5381
2026-01-23 12:04:56.53	292.34	14.13	-40.9	-44.4	12.8	6.56e-05	0	61	0	605028352	53	5399
2026-01-23 12:04:57.54	292.54	14.11	-41.0	-44.7	12.5	9.76e-05	0	61	0	607125504	53	5536
2026-01-23 12:04:58.55	292.74	14.08	-41.0	-44.7	12.4	1.34e-04	0	61	0	609222656	53	5572
2026-01-23 12:04:59.56	292.94	14.05	-41.1	-44.9	12.3	1.57e-04	0	61	0	611319808	53	5695
2026-01-23 12:05:00.57	293.14	14.02	-41.1	-44.8	12.3	2.39e-04	0	61	0	612368384	53	5643
2026-01-23 12:05:01.58	293.34	14.00	-41.2	-45.1	12.1	2.73e-04	0	61	0	614465536	53	5794
2026-01-23 12:05:02.59	293.54	13.97	-41.2	-45.1	12.0	3.31e-04	0	61	0	616562688	53	5802
2026-01-23 12:05:03.60	293.74	13.94	-41.2	-45.1	12.0	2.87e-04	0	61	0	618659840	53	5841
2026-01-23 12:05:04.60	293.93	13.91	-41.2	-45.0	12.2	3.14e-04	0	61	0	620756992	53	5747
2026-01-23 12:05:05.61	294.13	13.88	-41.1	-44.8	12.4	1.80e-04	0	61	0	621805568	53	5635
2026-01-23 12:05:06.62	294.33	13.85	-41.1	-44.7	12.5	1.43e-04	0	61	0	623902720	53	5585
2026-01-23 12:05:07.63	294.52	13.82	-40.9	-44.5	12.7	7.47e-05	0	61	0	625999872	53	5426
2026-01-23 12:05:08.64	294.72	13.79	-40.9	-44.5	12.7	8.01e-05	0	61	0	628097024	53	5434
2026-01-23 12:05:09.65	294.92	13.76	-40.8	-44.4	12.8	6.86e-05	0	61	0	630194176	53	5352
2026-01-23 12:05:10.66	295.11	13.73	-40.7	-44.2	13.0	5.41e-05	0	61	0	631242752	53	5254
2026-01-23 12:05:11.67	295.31	13.70	-40.8	-44.3	12.9	4.88e-05	0	61	0	633339904	53	5308
2026-01-23 12:05:12.68	295.50	13.67	-40.8	-44.3	12.9	3.58e-05	0	61	0	635437056	53	5321
2026-01-23 12:05:13.69	295.70	13.64	-40.6	-43.9	13.3	2.44e-05	0	61	0	637534208	53	5084
2026-01-23 12:05:14.70	295.89	13.60	-40.6	-43.8	13.4	9.90e-06	0	61	0	639631360	52	5333
2026-01-23 12:05:15.70	296.09	13.57	-40.6	-43.8	13.5	1.14e-05	0	61	0	640679936	52	5300
2026-01-23 12:05:16.71	296.28	13.54	-40.6	-43.8	13.5	4.50e-06	0	61	0	642777088	52	5303
2026-01-23 12:05:17.72	296.47	13.51	-40.6	-43.9	13.4	1.29e-05	0	61	0	644874240	52	5385
2026-01-23 12:05:18.74	296.67	13.47	-40.7	-44.0	13.3	1.22e-05	0	61	0	646971392	52	5411
2026-01-23 12:05:19.74	296.86	13.44	-40.7	-44.0	13.3	2.13e-05	0	61	0	649068544	52	5441
2026-01-23 12:05:20.75	297.05	13.41	-40.8	-44.2	13.2	1.67e-05	0	61	0	650117120	52	5540
2026-01-23 12:05:21.76	297.24	13.38	-40.8	-44.2	13.2	2.05e-05	0	61	0	652214272	52	5536
2026-01-23 12:05:22.78	297.43	13.34	-40.7	-44.1	13.3	2.28e-05	0	61	0	654311424	52	5470
2026-01-23 12:05:23.78	297.62	13.31	-40.9	-44.3	13.1	1.52e-05	0	61	0	656408576	52	5612
2026-01-23 12:05:24.79	297.81	13.27	-40.8	-44.2	13.2	1.75e-05	0	62	0	658505728	52	5556
2026-01-23 12:05:25.80	298.00	13.24	-41.0	-44.5	12.9	2.89e-05	0	61	0	659554304	52	5741
2026-01-23 12:05:26.81	298.19	13.20	-41.1	-44.6	12.8	5.79e-05	0	61	0	661651456	52	5819
2026-01-23 12:05:27.82	298.38	13.17	-41.1	-44.7	12.7	7.47e-05	0	61	0	663748608	52	5907
2026-01-23 12:05:28.83	298.57	13.13	-41.2	-44.8	12.6	9.53e-05	0	62	0	665845760	52	5963
2026-01-23 12:05:29.84	298.76	13.10	-41.1	-44.7	12.8	6.40e-05	0	61	0	667942912	52	5888
2026-01-23 12:05:30.85	298.94	13.06	-41.1	-44.7	12.7	7.01e-05	0	61	0	670040064	52	5883
2026-01-23 12:05:31.86	299.13	13.03	-41.1	-44.6	12.9	3.66e-05	0	61	0	671088640	52	5817
2026-01-23 12:05:32.87	299.32	12.99	-41.0	-44.5	13.0	3.89e-05	0	61	0	673185792	52	5778
2026-01-23 12:05:33.87	299.50	12.96	-41.0	-44.4	13.1	4.11e-05	0	61	0	675282944	52	5678
2026-01-23 12:05:34.88	299.69	12.92	-41.1	-44.6	12.9	4.50e-05	0	61	0	677380096	52	5828
2026-01-23 12:05:35.89	299.87	12.88	-41.2	-44.7	12.7	5.95e-05	0	62	0	679477248	52	5923
2026-01-23 12:05:36.90	300.06	12.85	-41.2	-44.8	12.7	1.16e-04	0	61	0	680525824	53	5624
2026-01-23 12:05:37.91	300.24	12.81	-41.2	-44.8	12.6	9.91e-05	0	61	0	682622976	53	5641
2026-01-23 12:05:38.92	300.43	12.77	-41.2	-44.9	12.6	9.91e-05	0	61	0	684720128	53	5660
2026-01-23 12:05:39.93	300.61	12.73	-41.1	-44.7	12.8	6.33e-05	0	61	0	686817280	53	5540
2026-01-23 12:05:40.94	300.79	12.70	-41.1	-44.6	12.8	6.56e-05	0	62	0	688914432	53	5508
2026-01-23 12:05:41.95	300.98	12.66	-41.1	-44.7	12.8	5.18e-05	0	62	0	689963008	53	5561
2026-01-23 12:05:42.96	301.16	12.62	-41.1	-44.7	12.8	5.95e-05	0	61	0	692060160	53	5582
2026-01-23 12:05:43.97	301.34	12.58	-41.2	-44.8	12.7	9.99e-05	0	61	0	694157312	53	5638
2026-01-23 12:05:44.98	301.52	12.54	-41.4	-45.1	12.3	1.60e-04	0	61	0	696254464	53	5843
2026-01-23 12:05:45.99	301.70	12.50	-41.4	-45.2	12.2	1.62e-04	0	61	0	698351616	53	5881
2026-01-23 12:05:47.00	301.88	12.46	-41.5	-45.4	12.0	2.82e-04	0	61	0	699400192	53	6030
2026-01-23 12:05:48.01	302.06	12.43	-41.6	-45.7	11.8	3.58e-04	0	61	0	701497344	53	6211
2026-01-23 12:05:49.02	302.24	12.39	-41.6	-45.7	11.7	4.96e-04	0	61	0	703594496	53	6273
2026-01-23 12:05:50.03	302.42	12.35	-41.6	-45.7	11.7	4.66e-04	0	62	0	705691648	53	6222
2026-01-23 12:05:51.03	302.60	12.31	-41.6	-45.7	11.7	5.43e-04	0	62	0	707788800	53	6227
2026-01-23 12:05:52.04	302.77	12.27	-41.6	-45.7	11.8	4.44e-04	0	61	0	708837376	53	6206
2026-01-23 12:05:53.05	302.95	12.23	-41.5	-45.5	11.9	3.28e-04	0	61	0	710934528	53	6116
2026-01-23 12:05:54.06	303.13	12.19	-41.5	-45.5	11.9	3.52e-04	0	61	0	713031680	53	6093
2026-01-23 12:05:55.07	303.30	12.15	-41.5	-45.4	12.0	3.42e-04	0	61	0	715128832	53	6056
2026-01-23 12:05:56.08	303.48	12.11	-41.6	-45.6	11.8	4.03e-04	0	61	0	717225984	53	6174
2026-01-23 12:05:57.09	303.66	12.07	-41.7	-45.9	11.5	5.07e-04	0	62	0	718274560	53	6369
2026-01-23 12:05:58.10	303.83	12.02	-41.9	-46.2	11.3	6.87e-04	0	61	0	720371712	54	6219
2026-01-23 12:05:59.11	304.01	11.98	-42.0	-46.5	10.9	1.77e-03	0	61	0	722468864	54	6431
2026-01-23 12:06:00.12	304.18	11.94	-42.1	-46.8	10.6	2.54e-03	0	62	0	724566016	54	6651
2026-01-23 12:06:01.13	304.35	11.90	-42.2	-46.9	10.4	4.15e-03	0	62	0	726663168	55	6418
2026-01-23 12:06:02.14	304.53	11.86	-42.2	-47.1	10.3	5.32e-03	0	62	0	727711744	55	6498
2026-01-23 12:06:03.15	304.70	11.82	-42.2	-47.1	10.3	5.95e-03	0	61	0	729808896	55	6496
2026-01-23 12:06:04.16	304.87	11.78	-42.2	-47.0	10.3	4.66e-03	0	62	0	731906048	55	6473
2026-01-23 12:06:05.17	305.04	11.73	-42.1	-46.9	10.4	4.46e-03	0	62	0	734003200	55	6391
2026-01-23 12:06:06.18	305.21	11.69	-42.2	-47.0	10.3	5.69e-03	0	61	0	736100352	55	6484
2026-01-23 12:06:07.19	305.38	11.65	-42.2	-47.0	10.3	5.10e-03	0	62	0	737148928	55	6456
2026-01-23 12:06:08.20	305.55	11.61	-42.2	-47.1	10.2	5.29e-03	0	61	0	739246080	55	6568
2026-01-23 12:06:09.21	305.72	11.56	-42.3	-47.4	9.9	7.33e-03	0	61	0	741343232	55	6740
2026-01-23 12:06:10.22	305.89	11.52	-42.3	-47.4	9.9	8.79e-03	0	61	0	743440384	55	6781
2026-01-23 12:06:11.23	306.06	11.48	-42.3	-47.3	10.0	9.10e-03	0	61	0	745537536	55	6652
2026-01-23 12:06:12.24	306.23	11.44	-42.2	-47.0	10.3	6.08e-03	0	61	0	747634688	55	6458
2026-01-23 12:06:13.25	306.40	11.39	-42.1	-46.7	10.6	4.96e-03	0	61	0	748683264	55	6260
2026-01-23 12:06:14.26	306.57	11.35	-42.0	-46.6	10.7	3.50e-03	0	62	0	750780416	55	6185
2026-01-23 12:06:15.27	306.73	11.30	-41.9	-46.4	11.0	1.99e-03	0	61	0	752877568	55	5999
2026-01-23 12:06:16.28	306.90	11.26	-41.9	-46.2	11.2	1.59e-03	0	61	0	754974720	55	5917
2026-01-23 12:06:17.29	307.07	11.22	-41.9	-46.4	10.9	1.80e-03	0	62	0	757071872	55	6058
2026-01-23 12:06:18.30	307.23	11.17	-42.0	-46.5	10.8	1.95e-03	0	61	0	758120448	55	6104
2026-01-23 12:06:19.30	307.39	11.13	-42.1	-46.8	10.6	3.22e-03	0	62	0	760217600	55	6293
2026-01-23 12:06:20.32	307.56	11.09	-42.2	-47.2	10.1	5.19e-03	0	62	0	762314752	55	6580
2026-01-23 12:06:21.32	307.72	11.04	-42.3	-47.5	9.8	6.85e-03	0	62	0	764411904	55	6802
2026-01-23 12:06:22.33	307.89	11.00	-42.4	-47.6	9.7	1.15e-02	0	61	0	766509056	55	6932
2026-01-23 12:06:23.34	308.05	10.95	-42.4	-47.6	9.7	1.34e-02	0	61	0	767557632	55	6894
2026-01-23 12:06:24.35	308.21	10.91	-42.4	-47.7	9.5	1.36e-02	0	61	0	769654784	55	7029
2026-01-23 12:06:25.36	308.37	10.86	-42.4	-47.7	9.6	1.22e-02	0	61	0	771751936	55	6989
2026-01-23 12:06:26.37	308.53	10.82	-42.4	-47.8	9.5	1.16e-02	0	61	0	773849088	55	7052
2026-01-23 12:06:27.38	308.70	10.77	-42.4	-47.7	9.5	1.33e-02	0	61	0	775946240	55	7032
2026-01-23 12:06:28.39	308.86	10.73	-42.4	-47.8	9.5	1.38e-02	0	61	0	776994816	55	7075
2026-01-23 12:06:29.40	309.02	10.68	-42.5	-47.9	9.4	1.52e-02	0	62	0	779091968	55	7130
2026-01-23 12:06:30.41	309.18	10.64	-42.4	-47.6	9.6	1.21e-02	0	61	0	781189120	55	6924
2026-01-23 12:06:31.42	309.34	10.59	-42.4	-47.7	9.6	1.41e-02	0	61	0	783286272	55	6973
2026-01-23 12:06:32.43	309.49	10.55	-42.4	-47.6	9.6	1.39e-02	0	62	0	785383424	55	6911
2026-01-23 12:06:33.44	309.65	10.50	-42.2	-47.2	10.0	8.61e-03	0	61	0	786432000	55	6613
2026-01-23 12:06:34.45	309.81	10.45	-42.2	-47.2	10.0	8.18e-03	0	61	0	788529152	55	6614
2026-01-23 12:06:35.46	309.97	10.41	-42.2	-47.1	10.1	6.89e-03	0	61	0	790626304	55	6545
2026-01-23 12:06:36.47	310.12	10.36	-42.3	-47.4	9.8	7.15e-03	0	61	0	792723456	55	6798
2026-01-23 12:06:37.48	310.28	10.32	-42.3	-47.4	9.9	8.32e-03	0	61	0	794820608	55	6737
2026-01-23 12:06:38.49	310.44	10.27	-42.3	-47.4	9.8	8.89e-03	0	61	0	795869184	55	6759
2026-01-23 12:06:39.50	310.59	10.22	-42.3	-47.4	9.8	1.34e-02	0	62	0	797966336	55	6795
2026-01-23 12:06:40.51	310.75	10.18	-42.2	-47.4	9.8	1.34e-02	0	61	0	800063488	55	6756
2026-01-23 12:06:41.52	310.90	10.13	-42.3	-47.4	9.7	1.06e-02	0	61	0	802160640	55	6784
2026-01-23 12:06:42.53	311.05	10.08	-42.1	-47.0	10.2	9.55e-03	0	61	0	804257792	55	6487
2026-01-23 12:06:43.54	311.21	10.04	-42.0	-46.8	10.4	6.65e-03	0	62	0	805306368	55	6304
2026-01-23 12:06:44.55	311.36	9.99	-41.9	-46.5	10.6	3.33e-03	0	61	0	807403520	55	6128
2026-01-23 12:06:45.56	311.51	9.94	-41.9	-46.5	10.7	2.87e-03	0	61	0	809500672	55	6092
2026-01-23 12:06:46.57	311.66	9.90	-41.9	-46.5	10.7	2.78e-03	0	61	0	811597824	55	6088
2026-01-23 12:06:47.58	311.82	9.85	-41.8	-46.3	10.8	2.44e-03	0	61	0	813694976	55	5985
2026-01-23 12:06:48.59	311.97	9.80	-41.8	-46.4	10.7	2.67e-03	0	62	0	815792128	55	6046
2026-01-23 12:06:49.60	312.12	9.76	-41.8	-46.4	10.7	2.84e-03	0	61	0	816840704	55	6046
2026-01-23 12:06:50.61	312.27	9.71	-42.0	-46.8	10.4	3.82e-03	0	61	0	818937856	55	6283
2026-01-23 12:06:51.62	312.42	9.66	-42.1	-47.2	9.9	7.96e-03	0	61	0	821035008	55	6620
2026-01-23 12:06:52.63	312.57	9.61	-42.2	-47.3	9.8	7.40e-03	0	62	0	823132160	55	6719
2026-01-23 12:06:53.64	312.71	9.57	-42.3	-47.7	9.4	9.46e-03	0	62	0	825229312	55	6961
2026-01-23 12:06:54.65	312.86	9.52	-42.3	-47.7	9.4	1.47e-02	0	62	0	826277888	55	6973
2026-01-23 12:06:55.66	313.01	9.47	-42.3	-47.7	9.5	1.43e-02	0	62	0	828375040	55	6978
2026-01-23 12:06:56.67	313.16	9.42	-42.4	-48.1	9.0	1.64e-02	0	62	0	830472192	55	7329
2026-01-23 12:06:57.67	313.30	9.38	-42.3	-47.8	9.3	1.86e-02	0	61	0	832569344	55	7050
2026-01-23 12:06:58.68	313.45	9.33	-42.3	-47.6	9.5	1.50e-02	0	62	0	834666496	55	6913
2026-01-23 12:06:59.69	313.60	9.28	-42.2	-47.3	9.7	1.65e-02	0	62	0	835715072	55	6709
2026-01-23 12:07:00.70	313.74	9.23	-42.2	-47.4	9.7	1.17e-02	0	62	0	837812224	55	6728
2026-01-23 12:07:01.71	313.89	9.18	-42.1	-47.3	9.7	1.03e-02	0	61	0	839909376	55	6662
2026-01-23 12:07:02.72	314.03	9.14	-42.0	-46.8	10.2	9.05e-03	0	61	0	842006528	55	6345
2026-01-23 12:07:03.73	314.17	9.09	-42.0	-47.1	10.0	6.77e-03	0	62	0	844103680	55	6512
2026-01-23 12:07:04.74	314.32	9.04	-42.0	-47.0	10.0	7.00e-03	0	62	0	845152256	55	6476
2026-01-23 12:07:05.75	314.46	8.99	-41.9	-46.7	10.3	7.77e-03	0	62	0	847249408	55	6244
2026-01-23 12:07:06.76	314.60	8.94	-41.9	-46.6	10.4	4.47e-03	0	62	0	849346560	55	6184
2026-01-23 12:07:07.77	314.75	8.90	-41.9	-46.7	10.4	4.91e-03	0	61	0	851443712	55	6214
2026-01-23 12:07:08.78	314.89	8.85	-41.8	-46.5	10.6	4.36e-03	0	62	0	853540864	55	6086
2026-01-23 12:07:09.79	315.03	8.80	-41.8	-46.4	10.6	2.92e-03	0	62	0	854589440	55	6052
2026-01-23 12:07:10.80	315.17	8.75	-41.8	-46.5	10.6	4.06e-03	0	61	0	856686592	55	6091
2026-01-23 12:07:11.81	315.31	8.70	-41.8	-46.5	10.6	3.05e-03	0	61	0	858783744	55	6072
2026-01-23 12:07:12.82	315.45	8.65	-41.7	-46.3	10.8	3.19e-03	0	62	0	860880896	55	5942
2026-01-23 12:07:13.83	315.59	8.60	-41.7	-46.3	10.8	2.48e-03	0	62	0	862978048	55	5926
2026-01-23 12:07:14.83	315.73	8.56	-41.8	-46.4	10.7	2.78e-03	0	61	0	864026624	55	5995
2026-01-23 12:07:15.84	315.86	8.51	-41.8	-46.4	10.7	2.59e-03	0	62	0	866123776	55	6000
2026-01-23 12:07:16.85	316.00	8.46	-41.8	-46.5	10.5	3.27e-03	0	61	0	868220928	55	6113
2026-01-23 12:07:17.86	316.14	8.41	-41.8	-46.4	10.7	3.34e-03	0	62	0	870318080	55	6020
2026-01-23 12:07:18.87	316.28	8.36	-41.9	-46.6	10.5	3.29e-03	0	61	0	872415232	55	6167
2026-01-23 12:07:19.88	316.41	8.31	-41.8	-46.5	10.6	3.57e-03	0	61	0	873463808	55	6084
2026-01-23 12:07:20.89	316.55	8.26	-41.8	-46.4	10.7	3.05e-03	0	62	0	875560960	55	6030
2026-01-23 12:07:21.90	316.69	8.21	-41.8	-46.4	10.7	3.19e-03	0	61	0	877658112	55	6021
2026-01-23 12:07:22.91	316.82	8.16	-41.7	-46.1	11.0	2.72e-03	0	61	0	879755264	55	5831
2026-01-23 12:07:23.92	316.96	8.11	-41.7	-46.1	11.0	1.61e-03	0	62	0	881852416	55	5818
2026-01-23 12:07:24.93	317.09	8.07	-41.7	-46.1	11.0	1.95e-03	0	62	0	883949568	55	5822
2026-01-23 12:07:25.94	317.23	8.02	-41.7	-46.1	11.0	1.70e-03	0	62	0	884998144	55	5796
2026-01-23 12:07:26.95	317.36	7.97	-44.2	-56.7	3.8	1.11e+00	0	62	104	886046720	58	16614
2026-01-23 12:07:27.96	317.49	7.92	-44.6	-59.1	3.8	1.49e+00	0	62	104	886046720	59	20678
2026-01-23 12:07:28.97	317.63	7.87	-44.8	-59.5	3.8	1.49e+00	0	62	104	886046720	60	20341
2026-01-23 12:07:29.98	317.76	7.82	-45.0	-59.6	3.8	1.49e+00	0	62	104	886046720	60	20701
2026-01-23 12:07:30.99	317.89	7.77	-45.1	-59.7	3.8	1.49e+00	0	62	104	886046720	60	20991
2026-01-23 12:07:32.00	318.02	7.72	-45.2	-59.8	3.8	1.49e+00	0	62	104	886046720	60	21226
2026-01-23 12:07:33.01	318.15	7.67	-45.2	-59.9	3.8	1.49e+00	0	61	104	886046720	61	20092
2026-01-23 12:07:34.02	318.28	7.62	-45.3	-59.9	3.8	1.49e+00	0	61	104	886046720	61	20208
2026-01-23 12:07:35.03	318.41	7.57	-45.3	-59.9	3.8	1.49e+00	0	62	104	886046720	61	20241
2026-01-23 12:07:36.04	318.54	7.52	-45.3	-59.9	3.8	1.49e+00	0	62	104	886046720	61	20204
2026-01-23 12:07:37.05	318.67	7.47	-45.2	-59.9	3.8	1.49e+00	0	62	104	886046720	61	20115
2026-01-23 12:07:38.06	318.80	7.42	-44.9	-59.8	3.8	1.49e+00	0	61	104	886046720	60	21212
2026-01-23 12:07:39.07	318.93	7.37	-45.2	-59.8	3.8	1.49e+00	0	62	104	886046720	60	21173
2026-01-23 12:07:40.08	319.06	7.32	-45.2	-59.8	3.8	1.49e+00	0	62	104	886046720	60	21164
2026-01-23 12:07:41.09	319.19	7.27	-45.2	-59.8	3.8	1.49e+00	0	62	104	886046720	60	21028
2026-01-23 12:07:42.10	319.31	7.22	-45.1	-59.7	3.8	1.49e+00	0	62	104	886046720	60	21008
2026-01-23 12:07:43.11	319.44	7.18	-45.1	-59.7	3.8	1.49e+00	0	61	104	886046720	60	20961
2026-01-23 12:07:44.12	319.57	7.13	-45.0	-59.7	3.8	1.49e+00	0	61	104	886046720	60	20908
2026-01-23 12:07:45.13	319.69	7.08	-45.1	-59.7	3.8	1.49e+00	0	61	104	886046720	60	20879
2026-01-23 12:07:46.14	319.82	7.03	-45.1	-59.7	3.8	1.49e+00	0	62	104	886046720	60	20949
2026-01-23 12:07:47.15	319.94	6.98	-45.1	-59.7	3.8	1.49e+00	0	62	104	886046720	60	20913
2026-01-23 12:07:48.16	320.07	6.93	-45.1	-59.7	3.8	1.49e+00	0	62	104	886046720	60	20877
2026-01-23 12:07:49.18	320.19	6.88	-45.0	-59.7	3.8	1.49e+00	0	62	104	886046720	60	20842
2026-01-23 12:07:50.19	320.32	6.83	-45.1	-59.7	3.8	1.49e+00	0	62	104	886046720	60	20842
2026-01-23 12:07:51.20	320.44	6.78	-45.1	-59.7	3.8	1.49e+00	0	62	104	886046720	60	20884
2026-01-23 12:07:52.21	320.56	6.73	-45.1	-59.7	3.8	1.49e+00	0	62	104	886046720	60	20795
2026-01-23 12:07:53.21	320.68	6.68	-45.1	-59.7	3.8	1.49e+00	0	62	104	886046720	60	20941
2026-01-23 12:07:54.22	320.81	6.63	-45.1	-59.7	3.8	1.49e+00	0	62	104	886046720	60	20880
2026-01-23 12:07:55.23	320.93	6.58	-45.0	-59.7	3.8	1.49e+00	0	62	104	886046720	60	20928
2026-01-23 12:07:56.24	321.05	6.53	-45.1	-59.7	3.8	1.49e+00	0	62	104	886046720	60	20955
2026-01-23 12:07:57.25	321.17	6.48	-45.1	-59.7	3.8	1.49e+00	0	61	104	886046720	60	20906
2026-01-23 12:07:58.26	321.29	6.43	-45.1	-59.7	3.8	1.49e+00	0	62	104	886046720	60	20922
2026-01-23 12:07:59.27	321.41	6.38	-45.1	-59.7	3.8	1.49e+00	0	62	104	886046720	60	20883
2026-01-23 12:08:00.28	321.53	6.33	-45.1	-59.7	3.8	1.49e+00	0	62	104	886046720	60	20915
2026-01-23 12:08:01.29	321.65	6.28	-44.9	-59.7	3.8	1.49e+00	0	62	104	886046720	60	20845
2026-01-23 12:08:02.31	321.77	6.23	-45.0	-59.7	3.8	1.49e+00	0	62	104	886046720	60	20952
2026-01-23 12:08:03.31	321.89	6.18	-45.1	-59.7	3.8	1.49e+00	0	62	104	886046720	60	20881
2026-01-23 12:08:04.33	322.01	6.13	-45.1	-59.7	3.8	1.49e+00	0	62	104	886046720	60	20864
2026-01-23 12:08:05.34	322.13	6.08	-45.1	-59.7	3.8	1.49e+00	0	62	104	886046720	60	20869
2026-01-23 12:08:06.34	322.24	6.03	-45.1	-59.7	3.8	1.49e+00	0	62	104	886046720	60	20819
2026-01-23 12:08:07.35	322.36	5.98	-45.1	-59.7	3.8	1.49e+00	0	61	104	886046720	60	20827
2026-01-23 12:08:08.37	322.48	5.93	-45.1	-59.7	3.8	1.49e+00	0	61	104	886046720	60	20826
2026-01-23 12:08:09.38	322.60	5.88	-45.1	-59.7	3.8	1.49e+00	0	62	104	886046720	60	20885
2026-01-23 12:08:10.39	322.71	5.83	-45.1	-59.7	3.8	1.49e+00	0	62	104	886046720	60	20800
2026-01-23 12:08:11.40	322.83	5.78	-45.1	-59.7	3.8	1.49e+00	0	62	104	886046720	60	20786
2026-01-23 12:08:12.41	322.94	5.73	-45.1	-59.7	3.8	1.49e+00	0	62	104	886046720	60	20869
2026-01-23 12:08:13.42	323.06	5.68	-45.1	-59.7	3.8	1.49e+00	0	62	104	886046720	60	20818
2026-01-23 12:08:14.43	323.17	5.63	-45.1	-59.7	3.8	1.49e+00	0	62	104	886046720	60	20823
2026-01-23 12:08:15.44	323.29	5.58	-45.1	-59.7	3.8	1.49e+00	0	62	104	886046720	60	20896
2026-01-23 12:08:16.45	323.40	5.53	-45.1	-59.7	3.8	1.49e+00	0	62	104	886046720	60	20859
2026-01-23 12:08:17.46	323.51	5.48	-45.1	-59.7	3.8	1.49e+00	0	62	104	886046720	60	20854
2026-01-23 12:08:18.47	323.63	5.43	-45.0	-59.7	3.8	1.49e+00	0	62	104	886046720	60	20877
2026-01-23 12:08:19.48	323.74	5.38	-44.4	-59.6	3.8	1.49e+00	0	62	104	886046720	60	20740
2026-01-23 12:08:20.49	323.85	5.33	-45.1	-59.7	3.8	1.49e+00	0	62	104	886046720	60	20857
2026-01-23 12:08:21.50	323.96	5.28	-44.4	-59.7	3.8	1.49e+00	0	62	104	886046720	60	20824
2026-01-23 12:08:22.51	324.07	5.23	-45.0	-59.7	3.8	1.49e+00	0	62	104	886046720	60	20801
2026-01-23 12:08:23.52	324.19	5.18	-45.0	-59.7	3.8	1.49e+00	0	62	104	886046720	60	20838
2026-01-23 12:08:24.53	324.30	5.13	-45.1	-59.7	3.8	1.49e+00	0	62	104	886046720	60	20828
2026-01-23 12:08:25.54	324.41	5.08	-45.0	-59.7	3.8	1.49e+00	0	62	104	886046720	60	20807
2026-01-23 12:08:26.55	324.52	5.03	-45.0	-59.7	3.8	1.49e+00	0	62	104	886046720	60	20793
2026-01-23 12:08:27.56	324.63	4.98	-45.1	-59.7	3.8	1.49e+00	0	62	104	886046720	60	20811
2026-01-23 12:08:28.57	324.74	4.93	-45.0	-59.7	3.8	1.49e+00	0	62	104	886046720	60	20823
2026-01-23 12:08:29.58	324.84	4.88	-45.0	-59.7	3.8	1.49e+00	0	62	104	886046720	60	20827
2026-01-23 12:08:30.59	324.95	4.83	-45.0	-59.7	3.8	1.49e+00	0	62	104	886046720	60	20862
2026-01-23 12:08:31.60	325.06	4.78	-45.0	-59.7	3.8	1.49e+00	0	62	104	886046720	60	20851
2026-01-23 12:08:32.61	325.17	4.73	-45.0	-59.7	3.8	1.49e+00	0	62	104	886046720	60	20893
2026-01-23 12:08:33.62	325.28	4.68	-45.0	-59.7	3.8	1.49e+00	0	62	104	886046720	60	20793
2026-01-23 12:08:34.63	325.38	4.63	-45.1	-59.7	3.8	1.49e+00	0	62	104	886046720	60	20854
2026-01-23 12:08:35.64	325.49	4.58	-45.1	-59.7	3.8	1.49e+00	0	62	104	886046720	60	20811
2026-01-23 12:08:36.65	325.60	4.53	-45.0	-59.7	3.8	1.49e+00	0	62	104	886046720	60	20886
2026-01-23 12:08:37.66	325.70	4.48	-45.0	-59.7	3.8	1.49e+00	0	62	104	886046720	60	20822
2026-01-23 12:08:38.66	325.81	4.43	-45.0	-59.6	3.8	1.49e+00	0	61	104	886046720	60	20772
2026-01-23 12:08:39.67	325.91	4.38	-45.0	-59.7	3.8	1.49e+00	0	62	104	886046720	60	20792
2026-01-23 12:08:40.69	326.02	4.33	-45.1	-59.6	3.8	1.49e+00	0	62	104	886046720	60	20771
2026-01-23 12:08:41.69	326.12	4.28	-45.1	-59.7	3.8	1.49e+00	0	62	104	886046720	60	20807
2026-01-23 12:08:42.70	326.23	4.24	-45.1	-59.6	3.8	1.49e+00	0	62	104	886046720	60	20771
2026-01-23 12:08:43.71	326.33	4.19	-45.0	-59.7	3.8	1.49e+00	0	62	104	886046720	60	20800
2026-01-23 12:08:44.72	326.44	4.14	-45.0	-59.7	3.8	1.49e+00	0	62	104	886046720	60	20792
2026-01-23 12:08:45.73	326.54	4.09	-45.0	-59.7	3.8	1.49e+00	0	62	104	886046720	60	20830
2026-01-23 12:08:46.74	326.64	4.04	-45.0	-59.7	3.8	1.49e+00	0	62	104	886046720	60	20783
2026-01-23 12:08:47.75	326.75	3.99	-45.1	-59.7	3.8	1.49e+00	0	62	104	886046720	60	20799
2026-01-23 12:08:48.76	326.85	3.94	-45.0	-59.6	3.8	1.49e+00	0	62	104	886046720	60	20761
2026-01-23 12:08:49.77	326.95	3.89	-45.0	-59.6	3.8	1.49e+00	0	62	104	886046720	60	20766
2026-01-23 12:08:50.78	327.05	3.84	-45.0	-59.7	3.8	1.49e+00	0	62	104	886046720	60	20802
2026-01-23 12:08:51.79	327.15	3.79	-44.5	-59.6	3.8	1.49e+00	0	62	104	886046720	60	20750
2026-01-23 12:08:52.80	327.26	3.74	-45.0	-59.7	3.8	1.49e+00	0	62	104	886046720	60	20805
2026-01-23 12:08:53.81	327.36	3.69	-45.0	-59.7	3.8	1.49e+00	0	62	104	886046720	60	20853
2026-01-23 12:08:54.82	327.46	3.64	-44.6	-59.6	3.8	1.49e+00	0	62	104	886046720	60	20762
2026-01-23 12:08:55.83	327.56	3.59	-45.0	-59.6	3.8	1.49e+00	0	62	104	886046720	60	20752
2026-01-23 12:08:56.84	327.66	3.54	-45.0	-59.7	3.8	1.49e+00	0	62	104	886046720	60	20795
2026-01-23 12:08:57.85	327.76	3.49	-45.0	-59.7	3.8	1.49e+00	0	62	104	886046720	60	20795
2026-01-23 12:08:58.86	327.86	3.44	-45.0	-59.7	3.8	1.49e+00	0	62	104	886046720	60	20805
2026-01-23 12:08:59.87	327.96	3.39	-45.0	-59.6	3.8	1.49e+00	0	62	104	886046720	60	20775
2026-01-23 12:09:00.88	328.05	3.35	-44.9	-59.7	3.8	1.49e+00	0	62	104	886046720	60	20787
2026-01-23 12:09:01.89	328.15	3.30	-45.0	-59.7	3.8	1.49e+00	0	62	104	886046720	60	20819
2026-01-23 12:09:02.90	328.25	3.25	-45.0	-59.7	3.8	1.49e+00	0	62	104	886046720	60	20803
2026-01-23 12:09:03.91	328.35	3.20	-45.0	-59.6	3.8	1.49e+00	0	62	104	886046720	60	20761
2026-01-23 12:09:04.92	328.45	3.15	-44.9	-59.6	3.8	1.49e+00	0	62	104	886046720	60	20776
2026-01-23 12:09:05.93	328.54	3.10	-45.0	-59.6	3.8	1.49e+00	0	62	104	886046720	60	20765
2026-01-23 12:09:06.94	328.64	3.05	-45.0	-59.7	3.8	1.49e+00	0	62	104	886046720	60	20852
2026-01-23 12:09:07.95	328.74	3.00	-45.0	-59.6	3.8	1.49e+00	0	62	104	886046720	60	20747
2026-01-23 12:09:08.96	328.83	2.95	-45.0	-59.6	3.8	1.49e+00	0	62	104	886046720	60	20774
2026-01-23 12:09:09.97	328.93	2.90	-44.8	-59.6	3.8	1.49e+00	0	62	104	886046720	60	20694
2026-01-23 12:09:10.98	329.02	2.85	-44.9	-59.7	3.8	1.49e+00	0	62	104	886046720	60	20832
2026-01-23 12:09:11.99	329.12	2.80	-45.0	-59.7	3.8	1.49e+00	0	62	104	886046720	60	20852
2026-01-23 12:09:13.00	329.21	2.76	-45.0	-59.7	3.8	1.49e+00	0	62	104	886046720	60	20804
2026-01-23 12:09:14.01	329.31	2.71	-45.0	-59.7	3.8	1.49e+00	0	62	104	886046720	60	20791
2026-01-23 12:09:15.02	329.40	2.66	-45.0	-59.6	3.8	1.49e+00	0	62	104	886046720	60	20734
2026-01-23 12:09:16.03	329.50	2.61	-45.0	-59.6	3.8	1.49e+00	0	62	104	886046720	60	20706
2026-01-23 12:09:17.04	329.59	2.56	-45.0	-59.6	3.8	1.49e+00	0	62	104	886046720	60	20766
2026-01-23 12:09:18.05	329.68	2.51	-45.0	-59.6	3.8	1.49e+00	0	62	104	886046720	60	20698
2026-01-23 12:09:19.06	329.78	2.46	-45.0	-59.6	3.8	1.49e+00	0	62	104	886046720	60	20677
2026-01-23 12:09:20.08	329.87	2.41	-45.0	-59.6	3.8	1.49e+00	0	62	104	886046720	60	20707
2026-01-23 12:09:21.09	329.96	2.36	-45.0	-59.6	3.8	1.49e+00	0	62	104	886046720	60	20596
2026-01-23 12:09:22.10	330.06	2.32	-45.0	-59.6	3.8	1.49e+00	0	62	104	886046720	60	20712
2026-01-23 12:09:23.10	330.15	2.27	-45.0	-59.6	3.8	1.49e+00	0	62	104	886046720	60	20734
2026-01-23 12:09:24.11	330.24	2.22	-44.8	-59.6	3.8	1.49e+00	0	62	104	886046720	60	20727
2026-01-23 12:09:25.12	330.33	2.17	-44.8	-59.6	3.8	1.49e+00	0	62	104	886046720	60	20663
2026-01-23 12:09:26.13	330.42	2.12	-45.0	-59.6	3.8	1.49e+00	0	62	104	886046720	60	20709
2026-01-23 12:09:27.15	330.51	2.07	-45.0	-59.7	3.8	1.49e+00	0	62	104	886046720	60	20780
2026-01-23 12:09:28.15	330.60	2.02	-44.5	-59.6	3.8	1.49e+00	0	62	104	886046720	60	20708

#Closed at: 2026-01-23 12:09:29
#Recorded file [886 MB]: D:/lorett/data/31039_260123_145753.dat