passes_logs/2026/01/23/R2.0S_Moscow/R2.0S_Moscow__20260123_111314_FENGYUN_3D_rec.log

#Pass ID: 20260123_111314_FENGYUN 3D
#Satellite: FENGYUN 3D
#Configuration: FENGYUN 3D
#almurnet v.1.7.20251203
#Start time: 2026-01-23 11:13:14

#Version: 2.2.20231116
#Station: R2.0S_Moscow
#Location: 37.707566 lon 55.798166 lat
#TLE: 1 43010U 17072A   26022.47411728  .00000617  00000+0  31375-3 0  9996
#TLE: 2 43010  98.9952 354.4060 0002481  95.7964 264.3494 14.19699924424319

#Time	Az	El	Level	Level2	SNR	BER	BlckErr	Temp	State	Recorded	gain1	gain2
2026-01-23 11:13:14.97	138.32	2.02	-31.4	-45.4	4.3	8.36e-01	0	53	0	0	28	25410
2026-01-23 11:13:15.99	138.29	2.08	-34.4	-46.2	4.1	8.34e-01	0	53	104	0	27	29424
2026-01-23 11:13:17.00	138.26	2.15	-28.6	-45.4	4.3	8.36e-01	0	53	104	0	33	19164
2026-01-23 11:13:18.01	138.23	2.21	-25.2	-43.1	3.9	8.34e-01	0	53	104	0	25	23072
2026-01-23 11:13:19.02	138.20	2.28	-27.4	-42.9	4.0	8.32e-01	0	53	104	0	26	21345
2026-01-23 11:13:20.03	138.16	2.34	-21.6	-36.3	4.1	8.38e-01	0	53	104	0	18	15849
2026-01-23 11:13:21.04	138.13	2.40	-36.5	-48.4	4.2	8.36e-01	0	54	104	0	35	24035
2026-01-23 11:13:22.05	138.10	2.47	-22.9	-38.4	3.9	8.31e-01	0	53	104	0	16	22746
2026-01-23 11:13:23.06	138.07	2.53	-22.9	-37.0	3.7	8.30e-01	0	54	104	0	16	19273
2026-01-23 11:13:24.07	138.04	2.60	-22.7	-41.9	3.8	8.35e-01	0	53	104	0	27	18046
2026-01-23 11:13:25.08	138.01	2.66	-30.2	-44.7	3.9	8.30e-01	0	54	104	0	31	19648
2026-01-23 11:13:26.09	137.97	2.73	-30.1	-43.9	4.2	8.30e-01	0	54	104	0	30	19026
2026-01-23 11:13:27.10	137.94	2.79	-30.1	-43.6	3.7	8.35e-01	0	54	104	0	30	18458
2026-01-23 11:13:28.11	137.91	2.86	-27.8	-42.5	3.8	8.38e-01	0	54	104	0	33	13718
2026-01-23 11:13:29.12	137.88	2.92	-35.3	-47.4	3.7	8.35e-01	0	54	104	0	29	30294
2026-01-23 11:13:30.13	137.84	2.99	-27.5	-42.3	4.0	8.35e-01	0	54	104	0	24	22336
2026-01-23 11:13:31.14	137.81	3.05	-32.8	-46.6	3.7	8.30e-01	0	54	104	0	20	46008
2026-01-23 11:13:32.15	137.78	3.12	-25.2	-38.7	4.1	8.37e-01	0	54	104	0	23	15593
2026-01-23 11:13:33.16	137.74	3.18	-27.1	-41.6	3.9	8.35e-01	0	54	104	0	23	21991
2026-01-23 11:13:34.17	137.71	3.25	-29.5	-42.4	4.1	8.41e-01	0	54	104	0	29	16926
2026-01-23 11:13:35.18	137.68	3.32	-29.1	-42.6	3.9	8.29e-01	0	54	104	0	26	20632
2026-01-23 11:13:36.19	137.64	3.38	-35.3	-47.0	3.7	8.38e-01	0	55	104	0	36	19237
2026-01-23 11:13:37.20	137.61	3.45	-27.6	-48.4	4.0	8.35e-01	0	54	104	0	36	22608
2026-01-23 11:13:38.21	137.57	3.52	-33.3	-48.6	4.4	8.38e-01	0	55	104	0	36	23130
2026-01-23 11:13:39.22	137.54	3.58	-25.3	-38.0	4.6	8.35e-01	0	55	104	0	36	6827
2026-01-23 11:13:40.23	137.51	3.65	-24.4	-39.0	4.2	8.31e-01	0	55	104	0	21	18116
2026-01-23 11:13:41.24	137.47	3.72	-24.9	-45.1	4.0	8.31e-01	0	55	104	0	18	43586
2026-01-23 11:13:42.25	137.44	3.78	-30.0	-45.5	3.9	8.34e-01	0	55	104	0	34	18151
2026-01-23 11:13:43.26	137.40	3.85	-33.4	-48.7	4.1	8.38e-01	0	55	104	0	36	23332
2026-01-23 11:13:44.27	137.37	3.92	-26.4	-42.0	4.2	8.39e-01	0	55	104	0	28	17216
2026-01-23 11:13:45.28	137.33	3.99	-30.0	-47.5	4.3	8.37e-01	0	55	104	0	33	24164
2026-01-23 11:13:46.29	137.30	4.06	-20.5	-38.9	3.8	8.28e-01	0	55	104	0	22	17016
2026-01-23 11:13:47.30	137.26	4.12	-27.9	-41.9	3.9	8.31e-01	0	55	104	0	26	19048
2026-01-23 11:13:48.31	137.22	4.19	-25.0	-42.5	3.9	8.34e-01	0	55	104	0	26	20399
2026-01-23 11:13:49.32	137.19	4.26	-25.1	-39.5	3.9	8.35e-01	0	55	104	0	25	15400
2026-01-23 11:13:50.33	137.15	4.33	-29.2	-42.6	3.7	8.35e-01	0	55	104	0	24	23252
2026-01-23 11:13:51.34	137.12	4.40	-23.7	-36.9	4.3	8.28e-01	0	55	104	0	28	9578
2026-01-23 11:13:52.35	137.08	4.47	-23.9	-39.2	4.1	8.35e-01	0	55	104	0	26	13968
2026-01-23 11:13:53.36	137.04	4.54	-22.6	-33.9	3.7	8.28e-01	0	56	104	0	21	10097
2026-01-23 11:13:54.37	137.00	4.60	-26.3	-40.8	4.2	8.35e-01	0	56	104	0	27	15857
2026-01-23 11:13:55.38	136.97	4.67	-27.3	-45.9	3.7	8.34e-01	0	56	104	0	27	28428
2026-01-23 11:13:56.39	136.93	4.74	-31.3	-47.6	4.0	8.35e-01	0	56	104	0	23	43439
2026-01-23 11:13:57.40	136.89	4.81	-29.4	-43.0	4.0	8.36e-01	0	56	104	0	31	16308
2026-01-23 11:13:58.41	136.86	4.88	-25.5	-41.2	4.5	8.36e-01	0	56	104	0	27	16568
2026-01-23 11:13:59.42	136.82	4.95	-29.9	-41.7	3.8	8.36e-01	0	56	104	0	27	17548
2026-01-23 11:14:00.43	136.78	5.02	-29.6	-42.5	3.8	8.35e-01	0	56	104	0	23	24141
2026-01-23 11:14:01.44	136.74	5.09	-27.3	-46.0	3.9	8.30e-01	0	56	104	0	30	24263
2026-01-23 11:14:02.45	136.70	5.16	-24.5	-39.7	4.2	8.37e-01	0	56	104	0	30	11734
2026-01-23 11:14:03.46	136.66	5.23	-30.6	-48.4	4.3	8.29e-01	0	56	104	0	28	35703
2026-01-23 11:14:04.47	136.62	5.31	-32.7	-45.5	4.4	8.21e-01	0	56	0	0	33	19214
2026-01-23 11:14:05.48	136.59	5.38	-22.6	-38.1	3.8	8.35e-01	0	56	104	0	27	11652
2026-01-23 11:14:06.49	136.55	5.45	-35.0	-48.7	3.9	8.32e-01	0	56	104	0	27	39587
2026-01-23 11:14:07.50	136.51	5.52	-30.1	-46.8	4.2	8.31e-01	0	56	104	0	33	22364
2026-01-23 11:14:08.51	136.47	5.59	-36.0	-49.3	3.7	8.33e-01	0	56	104	0	31	33443
2026-01-23 11:14:09.52	136.43	5.66	-27.8	-44.3	4.6	8.33e-01	0	56	104	0	30	20065
2026-01-23 11:14:10.53	136.39	5.74	-22.0	-34.4	3.6	8.32e-01	0	57	104	0	24	9059
2026-01-23 11:14:11.54	136.35	5.81	-26.0	-38.5	3.9	8.30e-01	0	57	104	0	20	18155
2026-01-23 11:14:12.55	136.31	5.88	-28.7	-42.0	3.9	8.34e-01	0	57	104	0	30	15354
2026-01-23 11:14:13.56	136.27	5.95	-24.1	-37.6	4.3	8.32e-01	0	57	104	0	29	9784
2026-01-23 11:14:14.58	136.22	6.03	-29.6	-40.8	5.0	8.29e-01	0	57	104	0	24	18896
2026-01-23 11:14:15.59	136.18	6.10	-32.6	-44.8	4.2	8.34e-01	0	57	104	0	28	23785
2026-01-23 11:14:16.60	136.14	6.17	-24.4	-40.2	3.8	8.34e-01	0	57	104	0	27	14829
2026-01-23 11:14:17.61	136.10	6.25	-23.3	-37.6	4.0	8.31e-01	0	57	104	0	21	15500
2026-01-23 11:14:18.62	136.06	6.32	-34.1	-46.5	3.8	8.24e-01	0	57	104	0	29	27346
2026-01-23 11:14:19.63	136.02	6.39	-27.6	-47.1	4.5	8.26e-01	0	57	104	0	30	27533
2026-01-23 11:14:20.64	135.97	6.47	-33.7	-47.9	4.2	8.33e-01	0	57	104	0	36	21332
2026-01-23 11:14:21.65	135.93	6.54	-23.7	-34.7	4.3	8.36e-01	0	57	104	0	24	9329
2026-01-23 11:14:22.66	135.89	6.61	-29.6	-42.6	4.1	8.33e-01	0	57	104	0	29	17307
2026-01-23 11:14:23.67	135.85	6.69	-32.0	-48.6	4.2	8.32e-01	0	57	104	0	34	25950
2026-01-23 11:14:24.68	135.80	6.76	-35.3	-45.2	3.9	8.31e-01	0	57	104	0	33	18717
2026-01-23 11:14:25.70	135.76	6.84	-27.5	-40.4	4.4	8.33e-01	0	57	104	0	32	11326
2026-01-23 11:14:26.71	135.71	6.91	-30.2	-47.0	4.1	8.37e-01	0	57	104	0	32	24377
2026-01-23 11:14:27.72	135.67	6.99	-30.9	-46.6	4.0	8.32e-01	0	57	104	0	36	18309
2026-01-23 11:14:28.73	135.63	7.07	-27.7	-45.3	4.0	8.35e-01	0	57	104	0	30	22355
2026-01-23 11:14:29.73	135.58	7.14	-32.4	-48.6	4.3	8.38e-01	0	58	104	0	42	16362
2026-01-23 11:14:30.74	135.54	7.22	-38.5	-50.8	3.9	8.39e-01	0	57	104	0	39	25132
2026-01-23 11:14:31.75	135.49	7.29	-37.5	-50.0	4.1	8.24e-01	0	58	104	0	38	24361
2026-01-23 11:14:32.77	135.45	7.37	-31.5	-47.8	4.3	8.37e-01	0	58	104	0	37	19962
2026-01-23 11:14:33.76	135.40	7.45	-36.0	-46.2	3.8	8.31e-01	0	58	104	0	24	35275
2026-01-23 11:14:34.77	135.36	7.52	-31.8	-46.3	4.1	8.35e-01	0	58	104	0	33	21053
2026-01-23 11:14:35.78	135.31	7.60	-26.3	-42.1	3.8	8.37e-01	0	58	104	0	31	14664
2026-01-23 11:14:36.79	135.27	7.68	-23.8	-39.9	3.8	8.28e-01	0	58	104	0	24	16952
2026-01-23 11:14:37.80	135.22	7.75	-29.5	-43.8	4.0	8.35e-01	0	58	104	0	33	15837
2026-01-23 11:14:38.81	135.17	7.83	-33.2	-46.3	4.4	8.32e-01	0	58	104	0	38	15859
2026-01-23 11:14:39.83	135.12	7.91	-25.1	-41.4	4.3	8.36e-01	0	58	104	0	31	13548
2026-01-23 11:14:40.84	135.08	7.99	-29.2	-43.5	4.1	8.36e-01	0	58	104	0	32	16187
2026-01-23 11:14:41.85	135.03	8.07	-28.0	-44.0	4.3	8.31e-01	0	58	104	0	29	20399
2026-01-23 11:14:42.86	134.98	8.14	-33.2	-48.3	4.5	8.38e-01	0	58	104	0	40	17753
2026-01-23 11:14:43.86	134.93	8.22	-25.5	-37.3	3.6	8.23e-01	0	58	104	0	17	18829
2026-01-23 11:14:44.87	134.89	8.30	-20.7	-32.8	3.8	8.09e-01	0	58	104	0	10	16834
2026-01-23 11:14:45.89	134.84	8.38	-29.1	-43.1	4.0	8.19e-01	0	58	104	0	26	21816
2026-01-23 11:14:46.90	134.79	8.46	-24.0	-40.7	4.1	8.27e-01	0	58	104	0	24	18540
2026-01-23 11:14:47.91	134.74	8.54	-26.1	-40.9	3.7	8.17e-01	0	58	104	0	22	21292
2026-01-23 11:14:48.91	134.69	8.62	-23.0	-34.2	3.5	8.10e-01	0	58	104	0	15	14831
2026-01-23 11:14:49.93	134.64	8.70	-37.0	-45.5	4.1	8.23e-01	0	58	104	0	29	24357
2026-01-23 11:14:50.94	134.59	8.78	-24.5	-38.8	3.8	8.16e-01	0	58	104	0	21	17885
2026-01-23 11:14:51.94	134.54	8.86	-33.8	-49.0	4.2	8.22e-01	0	58	104	0	31	32254
2026-01-23 11:14:52.95	134.49	8.94	-22.6	-35.8	3.6	8.12e-01	0	58	104	0	7	28091
2026-01-23 11:14:53.96	134.44	9.02	-18.3	-29.2	3.8	8.19e-01	0	58	104	0	13	9368
2026-01-23 11:14:54.97	134.39	9.10	-18.7	-33.3	3.5	8.11e-01	0	58	104	0	7	21132
2026-01-23 11:14:55.98	134.34	9.19	-16.6	-27.7	3.9	8.26e-01	0	59	104	0	3	13984
2026-01-23 11:14:56.99	134.28	9.27	-14.5	-26.4	3.6	8.40e-01	0	58	104	0	1	13556
2026-01-23 11:14:58.00	134.23	9.35	-14.8	-28.9	3.4	8.27e-01	0	59	104	0	1	17946
2026-01-23 11:14:59.01	134.18	9.43	-16.6	-26.2	3.7	8.28e-01	0	58	104	0	3	11762
2026-01-23 11:15:00.02	134.13	9.52	-19.9	-31.2	3.7	8.12e-01	0	58	104	0	10	13934
2026-01-23 11:15:01.03	134.07	9.60	-26.8	-39.9	3.7	8.33e-01	0	58	0	0	14	30271
2026-01-23 11:15:02.04	134.02	9.68	-14.6	-22.3	3.8	8.38e-01	0	59	104	0	2	7977
2026-01-23 11:15:03.05	133.97	9.76	-21.5	-34.9	3.4	8.43e-01	0	59	104	0	6	26787
2026-01-23 11:15:04.06	133.91	9.85	-14.1	-24.5	4.1	8.38e-01	0	59	104	0	0	11437
2026-01-23 11:15:05.07	133.86	9.93	-15.4	-27.4	3.9	8.35e-01	0	59	104	0	0	15970
2026-01-23 11:15:06.08	133.80	10.02	-16.2	-26.0	3.8	8.29e-01	0	59	0	0	3	11514
2026-01-23 11:15:07.09	133.75	10.10	-18.8	-29.5	3.4	8.31e-01	0	59	104	0	5	15322
2026-01-23 11:15:08.10	133.69	10.19	-28.6	-38.1	4.1	8.03e-01	0	59	104	0	18	19469
2026-01-23 11:15:09.11	133.64	10.27	-14.4	-28.4	4.1	8.15e-01	0	59	104	0	8	11325
2026-01-23 11:15:10.12	133.58	10.36	-18.3	-26.1	3.9	8.09e-01	0	59	104	0	11	7314
2026-01-23 11:15:11.13	133.53	10.44	-18.7	-30.8	3.5	8.23e-01	0	59	0	0	8	14977
2026-01-23 11:15:12.14	133.47	10.53	-13.6	-26.3	3.9	8.08e-01	0	59	104	0	9	8409
2026-01-23 11:15:13.15	133.41	10.61	-16.5	-28.8	3.8	8.15e-01	0	59	104	0	8	11910
2026-01-23 11:15:14.16	133.36	10.70	-19.4	-32.8	3.6	8.23e-01	0	59	104	0	7	19937
2026-01-23 11:15:15.17	133.30	10.79	-19.2	-33.2	4.0	8.30e-01	0	59	104	0	10	17595
2026-01-23 11:15:16.18	133.24	10.87	-23.9	-38.6	3.7	8.24e-01	0	59	104	0	20	18338
2026-01-23 11:15:17.19	133.18	10.96	-14.6	-27.1	3.8	8.19e-01	0	59	104	0	11	8240
2026-01-23 11:15:18.20	133.12	11.05	-15.1	-23.8	3.8	8.26e-01	0	59	104	0	7	7044
2026-01-23 11:15:19.21	133.06	11.13	-21.4	-34.1	4.2	8.33e-01	0	59	104	0	14	15563
2026-01-23 11:15:20.22	133.00	11.22	-14.3	-27.5	4.1	8.33e-01	0	59	104	0	11	8595
2026-01-23 11:15:21.23	132.94	11.31	-12.9	-26.8	3.8	8.41e-01	0	59	104	0	0	14977
2026-01-23 11:15:22.24	132.88	11.40	-18.7	-32.0	3.6	8.42e-01	0	59	104	0	11	14462
2026-01-23 11:15:23.25	132.82	11.49	-15.3	-27.6	3.7	8.35e-01	0	59	104	0	1	15446
2026-01-23 11:15:24.26	132.76	11.58	-29.1	-43.2	4.3	8.37e-01	0	59	104	0	27	20831
2026-01-23 11:15:25.27	132.70	11.67	-18.9	-32.2	3.8	8.39e-01	0	59	104	0	12	13891
2026-01-23 11:15:26.27	132.64	11.76	-15.2	-26.9	3.9	8.30e-01	0	59	104	0	1	14356
2026-01-23 11:15:27.28	132.58	11.85	-19.5	-33.1	3.7	8.30e-01	0	59	104	0	8	19570
2026-01-23 11:15:28.29	132.51	11.94	-21.3	-33.4	3.9	8.35e-01	0	59	104	0	10	17900
2026-01-23 11:15:29.30	132.45	12.03	-20.0	-33.3	4.0	8.31e-01	0	59	0	0	12	15888
2026-01-23 11:15:30.31	132.39	12.12	-24.2	-35.7	4.4	8.37e-01	0	59	104	0	18	14744
2026-01-23 11:15:31.32	132.32	12.21	-22.8	-35.0	4.1	8.28e-01	0	60	104	0	18	13674
2026-01-23 11:15:32.33	132.26	12.30	-19.6	-30.9	3.7	8.31e-01	0	59	104	0	11	12764
2026-01-23 11:15:33.34	132.20	12.39	-27.2	-39.7	4.7	8.37e-01	0	59	104	0	30	11777
2026-01-23 11:15:34.35	132.13	12.48	-15.3	-28.3	3.9	8.44e-01	0	59	104	0	5	13414
2026-01-23 11:15:35.36	132.07	12.58	-20.3	-29.9	4.0	8.34e-01	0	59	104	0	12	10691
2026-01-23 11:15:36.37	132.00	12.67	-21.3	-32.5	4.1	8.32e-01	0	60	104	0	15	12144
2026-01-23 11:15:37.38	131.93	12.76	-20.0	-33.5	4.5	8.30e-01	0	60	104	0	15	13606
2026-01-23 11:15:38.38	131.87	12.85	-19.3	-30.6	3.7	8.37e-01	0	60	104	0	7	15514
2026-01-23 11:15:39.39	131.80	12.95	-16.3	-29.0	4.0	8.35e-01	0	59	104	0	14	8586
2026-01-23 11:15:40.40	131.73	13.04	-29.9	-44.7	4.1	8.36e-01	0	60	104	0	34	16658
2026-01-23 11:15:41.41	131.66	13.14	-23.5	-37.0	4.5	8.35e-01	0	59	104	0	23	12914
2026-01-23 11:15:42.42	131.60	13.23	-23.9	-37.8	4.6	8.28e-01	0	59	104	0	21	15885
2026-01-23 11:15:43.43	131.53	13.33	-28.0	-39.2	4.2	8.31e-01	0	60	104	0	21	18520
2026-01-23 11:15:44.44	131.46	13.42	-28.0	-38.2	4.1	8.33e-01	0	60	104	0	15	23389
2026-01-23 11:15:45.45	131.39	13.52	-23.4	-37.1	3.9	8.25e-01	0	59	104	0	17	18339
2026-01-23 11:15:46.46	131.32	13.61	-35.6	-48.2	4.2	8.33e-01	0	60	104	0	47	11734
2026-01-23 11:15:47.47	131.25	13.71	-26.3	-38.8	5.3	8.35e-01	0	60	104	0	27	12541
2026-01-23 11:15:48.48	131.17	13.81	-21.0	-34.5	4.7	8.25e-01	0	60	104	0	22	10236
2026-01-23 11:15:49.49	131.10	13.90	-31.1	-42.4	4.8	8.30e-01	0	60	104	0	39	9548
2026-01-23 11:15:50.50	131.03	14.00	-17.2	-31.9	3.6	8.20e-01	0	60	104	0	15	11316
2026-01-23 11:15:51.51	130.96	14.10	-21.9	-33.8	3.8	8.08e-01	0	60	104	0	18	11867
2026-01-23 11:15:52.52	130.88	14.20	-21.3	-40.6	3.9	8.13e-01	0	60	104	0	21	21902
2026-01-23 11:15:53.53	130.81	14.29	-23.4	-40.6	3.9	8.26e-01	0	60	104	0	28	14579
2026-01-23 11:15:54.54	130.74	14.39	-33.0	-43.0	5.1	8.34e-01	0	60	104	0	26	21744
2026-01-23 11:15:55.54	130.66	14.49	-36.1	-40.7	9.0	7.54e-01	0	60	104	0	34	10493
2026-01-23 11:15:56.55	130.59	14.59	-40.4	-47.7	4.8	8.27e-01	0	60	104	0	54	7430
2026-01-23 11:15:57.56	130.51	14.69	-32.4	-40.0	9.3	2.79e-01	0	60	0	2097152	42	6113
2026-01-23 11:15:58.57	130.43	14.79	-33.4	-42.7	5.0	8.24e-01	0	60	104	3145728	40	9313
2026-01-23 11:15:59.58	130.36	14.89	-36.9	-43.3	5.2	8.12e-01	0	60	104	3145728	43	8422
2026-01-23 11:16:00.59	130.28	14.99	-36.6	-43.3	8.0	7.54e-01	0	60	104	3145728	40	9969
2026-01-23 11:16:01.60	130.20	15.09	-25.9	-36.9	4.6	8.23e-01	0	60	104	3145728	26	10765
2026-01-23 11:16:02.61	130.12	15.19	-38.3	-40.9	8.9	7.71e-01	0	60	104	3145728	45	5698
2026-01-23 11:16:03.62	130.04	15.30	-22.8	-35.9	4.3	8.36e-01	0	60	104	3145728	17	16020
2026-01-23 11:16:04.63	129.96	15.40	-23.3	-35.5	4.0	8.39e-01	0	60	104	3145728	17	15392
2026-01-23 11:16:05.64	129.88	15.50	-25.5	-37.7	5.0	8.21e-01	0	60	104	3145728	26	11810
2026-01-23 11:16:06.65	129.80	15.60	-28.6	-38.6	4.9	8.25e-01	0	60	104	3145728	28	11642
2026-01-23 11:16:07.66	129.72	15.71	-31.8	-41.5	5.8	6.51e-01	0	60	0	3145728	31	13594
2026-01-23 11:16:08.67	129.64	15.81	-39.0	-43.4	11.1	2.75e-01	0	60	0	4194304	50	5693
2026-01-23 11:16:09.68	129.56	15.92	-41.6	-45.6	9.1	1.82e-01	0	60	0	8388608	53	6182
2026-01-23 11:16:10.69	129.47	16.02	-32.7	-43.6	6.6	2.32e-01	0	60	0	12582912	28	20717
2026-01-23 11:16:11.70	129.39	16.13	-29.3	-43.0	5.7	8.33e-01	0	60	104	13631488	28	19266
2026-01-23 11:16:12.70	129.31	16.23	-36.1	-43.5	10.0	3.46e-02	0	60	0	16777216	42	9121
2026-01-23 11:16:13.71	129.22	16.34	-40.3	-43.6	9.5	1.11e-02	0	61	0	23068672	48	6526
2026-01-23 11:16:14.72	129.14	16.44	-40.4	-43.6	11.0	1.18e-01	0	60	0	28311552	51	5483
2026-01-23 11:16:15.73	129.05	16.55	-40.2	-43.3	11.4	6.45e-02	0	60	0	33554432	51	5304
2026-01-23 11:16:16.74	128.96	16.66	-39.6	-42.3	12.5	2.09e-03	0	60	0	39845888	50	5008
2026-01-23 11:16:17.75	128.88	16.76	-38.8	-41.5	13.2	2.39e-04	0	60	0	45088768	49	4870
2026-01-23 11:16:18.76	128.79	16.87	-38.5	-40.7	14.0	5.72e-05	0	60	0	51380224	48	4696
2026-01-23 11:16:19.77	128.70	16.98	-38.0	-40.1	14.7	1.92e-04	0	60	0	56623104	47	4605
2026-01-23 11:16:20.78	128.61	17.09	-37.8	-39.7	15.1	2.17e-05	0	60	0	61865984	47	4412
2026-01-23 11:16:21.79	128.52	17.20	-37.6	-39.5	15.4	3.31e-05	0	60	0	68157440	45	4832
2026-01-23 11:16:22.80	128.43	17.31	-37.5	-39.4	15.5	0.00e+00	0	60	0	73400320	45	4764
2026-01-23 11:16:23.81	128.34	17.42	-37.5	-39.4	15.5	3.43e-05	0	60	0	79691776	45	4760
2026-01-23 11:16:24.82	128.24	17.53	-37.4	-39.3	15.2	5.95e-05	0	60	0	84934656	45	4707
2026-01-23 11:16:25.83	128.15	17.64	-37.4	-39.2	15.0	2.51e-05	0	60	0	90177536	45	4691
2026-01-23 11:16:26.84	128.06	17.75	-37.4	-39.2	15.4	5.60e-05	0	60	0	96468992	45	4692
2026-01-23 11:16:27.85	127.96	17.86	-37.4	-39.3	15.6	9.15e-05	0	60	0	101711872	45	4718
2026-01-23 11:16:28.86	127.87	17.97	-37.4	-39.3	15.6	1.14e-05	0	60	0	108003328	45	4729
2026-01-23 11:16:29.87	127.77	18.08	-37.3	-39.2	15.8	8.00e-06	0	60	0	113246208	45	4658
2026-01-23 11:16:30.88	127.68	18.20	-37.1	-39.2	15.2	1.52e-04	0	60	0	119537664	45	4658
2026-01-23 11:16:31.89	127.58	18.31	-37.3	-39.3	15.6	9.58e-04	0	60	0	124780544	45	4708
2026-01-23 11:16:32.90	127.48	18.42	-37.2	-39.1	15.8	0.00e+00	0	60	0	130023424	45	4633
2026-01-23 11:16:33.91	127.38	18.54	-37.3	-39.2	15.7	2.20e-06	0	60	0	136314880	45	4675
2026-01-23 11:16:34.92	127.28	18.65	-37.4	-39.2	15.7	0.00e+00	0	61	0	141557760	45	4685
2026-01-23 11:16:35.93	127.18	18.77	-37.4	-39.2	15.7	3.40e-06	0	61	0	147849216	45	4674
2026-01-23 11:16:36.94	127.08	18.88	-37.4	-39.2	15.7	5.70e-06	0	61	0	153092096	45	4699
2026-01-23 11:16:37.95	126.98	19.00	-37.3	-39.1	15.8	0.00e+00	0	60	0	158334976	45	4650
2026-01-23 11:16:38.96	126.88	19.12	-37.2	-38.9	16.0	0.00e+00	0	61	0	164626432	45	4543
2026-01-23 11:16:39.97	126.78	19.23	-37.2	-38.9	16.0	0.00e+00	0	61	0	169869312	45	4531
2026-01-23 11:16:40.98	126.67	19.35	-37.1	-38.9	16.1	1.37e-05	0	61	0	176160768	45	4514
2026-01-23 11:16:41.99	126.57	19.47	-36.9	-38.8	16.2	0.00e+00	0	61	0	181403648	45	4451
2026-01-23 11:16:43.00	126.46	19.59	-36.9	-38.7	16.1	4.50e-06	0	61	0	186646528	45	4417
2026-01-23 11:16:44.01	126.35	19.70	-37.0	-38.7	16.2	1.10e-06	0	61	0	192937984	45	4427
2026-01-23 11:16:45.02	126.25	19.82	-37.0	-38.7	16.2	0.00e+00	0	61	0	198180864	45	4424
2026-01-23 11:16:46.02	126.14	19.94	-36.9	-38.7	16.3	1.10e-06	0	61	0	204472320	45	4393
2026-01-23 11:16:47.03	126.03	20.06	-36.9	-38.6	16.4	0.00e+00	0	61	0	209715200	45	4364
2026-01-23 11:16:48.04	125.92	20.18	-36.9	-38.7	16.4	0.00e+00	0	61	0	216006656	45	4397
2026-01-23 11:16:49.05	125.81	20.30	-36.9	-38.6	16.4	0.00e+00	0	61	0	221249536	45	4348
2026-01-23 11:16:50.06	125.70	20.43	-36.8	-38.5	16.5	0.00e+00	0	61	0	227540992	45	4332
2026-01-23 11:16:51.07	125.58	20.55	-36.8	-38.5	16.5	0.00e+00	0	61	0	232783872	45	4321
2026-01-23 11:16:52.08	125.47	20.67	-36.8	-38.5	16.4	0.00e+00	0	61	0	238026752	45	4337
2026-01-23 11:16:53.09	125.36	20.79	-36.9	-38.5	16.5	0.00e+00	0	61	0	244318208	45	4337
2026-01-23 11:16:54.10	125.24	20.92	-36.9	-38.6	16.4	0.00e+00	0	61	0	249561088	45	4354
2026-01-23 11:16:55.11	125.12	21.04	-36.9	-38.7	16.4	0.00e+00	0	61	0	255852544	45	4399
2026-01-23 11:16:56.12	125.01	21.16	-36.9	-38.6	16.5	0.00e+00	0	61	0	261095424	45	4349
2026-01-23 11:16:57.13	124.89	21.29	-36.9	-38.6	16.5	0.00e+00	0	61	0	266338304	45	4359
2026-01-23 11:16:58.14	124.77	21.41	-36.9	-38.7	16.4	0.00e+00	0	61	0	272629760	45	4394
2026-01-23 11:16:59.15	124.65	21.54	-36.9	-38.6	16.4	0.00e+00	0	61	0	277872640	45	4376
2026-01-23 11:17:00.16	124.53	21.67	-36.8	-38.5	16.6	0.00e+00	0	61	0	284164096	45	4324
2026-01-23 11:17:01.17	124.40	21.79	-36.8	-38.5	16.5	0.00e+00	0	61	0	289406976	45	4321
2026-01-23 11:17:02.18	124.28	21.92	-36.8	-38.5	16.6	0.00e+00	0	61	0	294649856	45	4292
2026-01-23 11:17:03.19	124.16	22.05	-36.8	-38.4	16.6	0.00e+00	0	61	0	300941312	45	4291
2026-01-23 11:17:04.19	124.03	22.17	-36.7	-38.4	16.6	0.00e+00	0	61	0	306184192	45	4272
2026-01-23 11:17:05.20	123.90	22.30	-36.8	-38.5	16.6	0.00e+00	0	61	0	312475648	45	4295
2026-01-23 11:17:06.21	123.78	22.43	-36.8	-38.4	16.7	0.00e+00	0	61	0	317718528	45	4284
2026-01-23 11:17:07.22	123.65	22.56	-36.8	-38.5	16.6	0.00e+00	0	61	0	324009984	45	4306
2026-01-23 11:17:08.23	123.52	22.69	-36.8	-38.4	16.6	0.00e+00	0	61	0	329252864	45	4285
2026-01-23 11:17:09.24	123.39	22.82	-36.8	-38.5	16.6	0.00e+00	0	61	0	334495744	45	4292
2026-01-23 11:17:10.25	123.26	22.95	-36.8	-38.5	16.6	0.00e+00	0	61	0	340787200	45	4297
2026-01-23 11:17:11.26	123.12	23.09	-36.8	-38.4	16.7	0.00e+00	0	61	0	346030080	45	4280
2026-01-23 11:17:12.27	122.99	23.22	-36.7	-38.4	16.7	0.00e+00	0	61	0	352321536	45	4254
2026-01-23 11:17:13.28	122.85	23.35	-36.7	-38.4	16.7	0.00e+00	0	61	0	357564416	45	4263
2026-01-23 11:17:14.29	122.72	23.48	-36.7	-38.4	16.7	0.00e+00	0	61	0	362807296	45	4264
2026-01-23 11:17:15.30	122.58	23.62	-36.6	-38.2	16.9	0.00e+00	0	61	0	369098752	45	4192
2026-01-23 11:17:16.31	122.44	23.75	-36.6	-38.3	16.8	0.00e+00	0	61	0	374341632	45	4195
2026-01-23 11:17:17.32	122.30	23.89	-36.5	-38.1	17.0	0.00e+00	0	61	0	380633088	44	4361
2026-01-23 11:17:18.33	122.16	24.02	-36.5	-38.1	17.0	0.00e+00	0	61	0	385875968	44	4354
2026-01-23 11:17:19.34	122.01	24.16	-36.5	-38.1	17.0	0.00e+00	0	61	0	391118848	44	4385
2026-01-23 11:17:20.35	121.87	24.29	-36.4	-38.0	17.1	0.00e+00	0	61	0	397410304	44	4302
2026-01-23 11:17:21.35	121.73	24.43	-36.4	-37.9	17.2	0.00e+00	0	61	0	402653184	44	4291
2026-01-23 11:17:22.36	121.58	24.57	-36.3	-37.9	17.1	0.00e+00	0	61	0	408944640	44	4279
2026-01-23 11:17:23.37	121.43	24.71	-36.3	-37.9	17.1	0.00e+00	0	61	0	414187520	44	4291
2026-01-23 11:17:24.38	121.28	24.84	-36.4	-38.0	17.1	0.00e+00	0	61	0	420478976	44	4315
2026-01-23 11:17:25.39	121.13	24.98	-36.5	-38.1	17.0	0.00e+00	0	61	0	425721856	44	4361
2026-01-23 11:17:26.40	120.98	25.12	-36.4	-38.1	17.1	0.00e+00	0	61	0	430964736	44	4347
2026-01-23 11:17:27.41	120.83	25.26	-36.3	-37.9	17.2	0.00e+00	0	61	0	437256192	44	4277
2026-01-23 11:17:28.42	120.67	25.40	-36.3	-37.9	17.2	0.00e+00	0	61	0	442499072	44	4265
2026-01-23 11:17:29.43	120.52	25.54	-36.4	-38.0	17.2	0.00e+00	0	61	0	448790528	44	4296
2026-01-23 11:17:30.44	120.36	25.69	-36.3	-37.8	17.3	0.00e+00	0	61	0	454033408	44	4237
2026-01-23 11:17:31.45	120.20	25.83	-36.3	-38.0	17.1	0.00e+00	0	61	0	459276288	44	4294
2026-01-23 11:17:32.46	120.04	25.97	-36.4	-38.1	17.0	0.00e+00	0	61	0	465567744	44	4347
2026-01-23 11:17:33.47	119.88	26.11	-36.3	-38.0	17.2	0.00e+00	0	61	0	470810624	44	4299
2026-01-23 11:17:34.48	119.71	26.26	-36.2	-37.8	17.3	0.00e+00	0	61	0	477102080	44	4231
2026-01-23 11:17:35.49	119.55	26.40	-36.2	-37.8	17.3	0.00e+00	0	61	0	482344960	44	4220
2026-01-23 11:17:36.50	119.38	26.54	-36.4	-38.0	17.1	0.00e+00	0	61	0	487587840	44	4314
2026-01-23 11:17:37.51	119.21	26.69	-36.3	-37.9	17.2	0.00e+00	0	61	0	493879296	44	4274
2026-01-23 11:17:38.52	119.04	26.83	-36.3	-37.9	17.2	0.00e+00	0	61	0	499122176	44	4257
2026-01-23 11:17:39.53	118.87	26.98	-36.3	-38.0	17.1	0.00e+00	0	61	0	505413632	44	4297
2026-01-23 11:17:40.54	118.70	27.13	-36.4	-38.0	17.1	0.00e+00	0	61	0	510656512	44	4308
2026-01-23 11:17:41.55	118.53	27.27	-36.3	-37.9	17.2	0.00e+00	0	61	0	516947968	44	4251
2026-01-23 11:17:42.56	118.35	27.42	-36.1	-37.7	17.4	0.00e+00	0	61	0	522190848	44	4170
2026-01-23 11:17:43.57	118.17	27.57	-36.0	-37.5	17.6	0.00e+00	0	61	0	528482304	44	4079
2026-01-23 11:17:44.58	117.99	27.72	-36.0	-37.6	17.5	0.00e+00	0	61	0	533725184	44	4100
2026-01-23 11:17:45.59	117.81	27.87	-36.0	-37.6	17.5	0.00e+00	0	61	0	538968064	44	4106
2026-01-23 11:17:46.60	117.63	28.02	-36.1	-37.6	17.5	0.00e+00	0	61	0	545259520	44	4135
2026-01-23 11:17:47.61	117.45	28.17	-36.1	-37.6	17.5	0.00e+00	0	61	0	550502400	44	4123
2026-01-23 11:17:48.62	117.26	28.32	-36.1	-37.6	17.5	0.00e+00	0	61	0	556793856	44	4143
2026-01-23 11:17:49.63	117.07	28.47	-36.1	-37.6	17.6	0.00e+00	0	61	0	562036736	44	4119
2026-01-23 11:17:50.64	116.88	28.62	-36.0	-37.5	17.6	0.00e+00	0	61	0	567279616	44	4098
2026-01-23 11:17:51.65	116.69	28.77	-35.7	-37.2	17.8	0.00e+00	0	61	0	573571072	43	4167
2026-01-23 11:17:52.66	116.50	28.92	-35.6	-37.1	17.9	0.00e+00	0	61	0	578813952	43	4129
2026-01-23 11:17:53.67	116.30	29.08	-35.6	-37.1	17.8	0.00e+00	0	61	0	585105408	43	4133
2026-01-23 11:17:54.68	116.11	29.23	-35.8	-37.3	17.7	0.00e+00	0	61	0	590348288	43	4197
2026-01-23 11:17:55.68	115.91	29.38	-35.8	-37.3	17.6	0.00e+00	0	62	0	595591168	43	4221
2026-01-23 11:17:56.70	115.71	29.54	-35.8	-37.3	17.7	0.00e+00	0	61	0	601882624	43	4236
2026-01-23 11:17:57.71	115.50	29.69	-35.8	-37.3	17.7	0.00e+00	0	61	0	607125504	43	4242
2026-01-23 11:17:58.71	115.30	29.85	-35.8	-37.4	17.7	0.00e+00	0	61	0	613416960	43	4243
2026-01-23 11:17:59.73	115.09	30.00	-35.8	-37.3	17.7	0.00e+00	0	61	0	618659840	43	4226
2026-01-23 11:18:00.74	114.88	30.16	-35.8	-37.3	17.7	0.00e+00	0	61	0	624951296	43	4235
2026-01-23 11:18:01.75	114.67	30.31	-35.8	-37.3	17.7	0.00e+00	0	61	0	630194176	43	4229
2026-01-23 11:18:02.76	114.46	30.47	-35.9	-37.4	17.7	0.00e+00	0	61	0	635437056	43	4258
2026-01-23 11:18:03.76	114.24	30.63	-35.7	-37.2	17.9	0.00e+00	0	61	0	641728512	43	4161
2026-01-23 11:18:04.77	114.03	30.78	-35.7	-37.2	17.9	0.00e+00	0	61	0	646971392	43	4150
2026-01-23 11:18:05.78	113.81	30.94	-35.8	-37.3	17.8	0.00e+00	0	61	0	653262848	43	4203
2026-01-23 11:18:06.79	113.59	31.10	-35.9	-37.4	17.6	0.00e+00	0	61	0	658505728	43	4253
2026-01-23 11:18:07.80	113.36	31.26	-35.9	-37.4	17.6	0.00e+00	0	61	0	663748608	43	4258
2026-01-23 11:18:08.81	113.14	31.42	-36.0	-37.6	17.5	0.00e+00	0	61	0	670040064	43	4347
2026-01-23 11:18:09.82	112.91	31.58	-36.1	-37.6	17.4	0.00e+00	0	61	0	675282944	43	4385
2026-01-23 11:18:10.83	112.68	31.74	-35.9	-37.5	17.5	0.00e+00	0	61	0	681574400	43	4319
2026-01-23 11:18:11.84	112.45	31.90	-35.9	-37.4	17.6	0.00e+00	0	61	0	686817280	43	4291
2026-01-23 11:18:12.84	112.21	32.05	-35.9	-37.5	17.6	0.00e+00	0	62	0	692060160	43	4299
2026-01-23 11:18:13.85	111.98	32.21	-35.7	-37.3	17.7	0.00e+00	0	61	0	698351616	43	4207
2026-01-23 11:18:14.86	111.74	32.38	-35.6	-37.1	17.9	0.00e+00	0	61	0	703594496	43	4103
2026-01-23 11:18:15.87	111.49	32.54	-35.5	-37.0	18.0	0.00e+00	0	61	0	709885952	43	4065
2026-01-23 11:18:16.88	111.25	32.70	-35.6	-37.1	17.9	0.00e+00	0	62	0	715128832	43	4121
2026-01-23 11:18:17.89	111.00	32.86	-35.6	-37.1	17.9	0.00e+00	0	62	0	721420288	43	4139
2026-01-23 11:18:18.90	110.75	33.02	-35.8	-37.3	17.7	0.00e+00	0	62	0	726663168	43	4207
2026-01-23 11:18:19.91	110.50	33.18	-35.8	-37.3	17.7	0.00e+00	0	61	0	732954624	43	4220
2026-01-23 11:18:20.92	110.25	33.35	-35.8	-37.3	17.7	0.00e+00	0	61	0	738197504	43	4218
2026-01-23 11:18:21.93	109.99	33.51	-35.8	-37.4	17.7	0.00e+00	0	62	0	743440384	43	4254
2026-01-23 11:18:22.94	109.73	33.67	-35.8	-37.3	17.7	0.00e+00	0	61	0	749731840	43	4238
2026-01-23 11:18:23.95	109.47	33.83	-35.8	-37.3	17.8	0.00e+00	0	62	0	754974720	43	4207
2026-01-23 11:18:24.96	109.20	34.00	-35.6	-37.1	17.9	0.00e+00	0	62	0	760217600	43	4126
2026-01-23 11:18:25.97	108.93	34.16	-35.5	-37.0	18.0	0.00e+00	0	62	0	766509056	43	4066
2026-01-23 11:18:26.98	108.66	34.32	-35.6	-37.1	17.9	0.00e+00	0	61	0	771751936	43	4125
2026-01-23 11:18:27.99	108.39	34.49	-35.7	-37.2	17.8	0.00e+00	0	62	0	778043392	43	4180
2026-01-23 11:18:29.00	108.11	34.65	-35.6	-37.1	17.9	0.00e+00	0	61	0	783286272	43	4129
2026-01-23 11:18:30.01	107.83	34.82	-35.5	-37.0	18.0	0.00e+00	0	61	0	788529152	43	4073
2026-01-23 11:18:31.01	107.56	34.98	-35.6	-37.0	18.0	0.00e+00	0	61	0	794820608	43	4097
2026-01-23 11:18:32.02	107.27	35.14	-35.6	-37.1	17.9	0.00e+00	0	62	0	800063488	43	4133
2026-01-23 11:18:33.03	106.98	35.31	-35.6	-37.1	18.0	0.00e+00	0	61	0	806354944	43	4100
2026-01-23 11:18:34.04	106.69	35.47	-35.7	-37.2	17.9	0.00e+00	0	62	0	811597824	43	4158
2026-01-23 11:18:35.05	106.40	35.63	-35.8	-37.3	17.8	0.00e+00	0	62	0	817889280	43	4220
2026-01-23 11:18:36.06	106.10	35.80	-35.6	-37.0	18.0	0.00e+00	0	62	0	823132160	43	4096
2026-01-23 11:18:37.07	105.80	35.96	-35.6	-37.0	18.0	0.00e+00	0	62	0	829423616	43	4093
2026-01-23 11:18:38.08	105.50	36.13	-35.5	-37.0	18.0	0.00e+00	0	61	0	834666496	43	4083
2026-01-23 11:18:39.09	105.20	36.29	-35.6	-37.0	18.0	0.00e+00	0	61	0	839909376	43	4084
2026-01-23 11:18:40.10	104.89	36.45	-35.5	-37.0	18.1	0.00e+00	0	62	0	846200832	43	4071
2026-01-23 11:18:41.11	104.58	36.62	-35.6	-37.0	18.0	0.00e+00	0	62	0	851443712	43	4085
2026-01-23 11:18:42.12	104.26	36.78	-35.6	-37.1	18.0	0.00e+00	0	61	0	857735168	43	4103
2026-01-23 11:18:43.13	103.94	36.94	-35.5	-37.0	18.1	0.00e+00	0	62	0	862978048	43	4079
2026-01-23 11:18:44.14	103.62	37.11	-35.6	-37.1	18.0	0.00e+00	0	62	0	868220928	43	4119
2026-01-23 11:18:45.15	103.30	37.27	-35.6	-37.1	18.0	0.00e+00	0	61	0	874512384	43	4126
2026-01-23 11:18:46.16	102.97	37.43	-35.7	-37.2	17.9	0.00e+00	0	61	0	879755264	43	4161
2026-01-23 11:18:47.17	102.64	37.59	-35.6	-37.1	18.0	0.00e+00	0	62	0	886046720	43	4114
2026-01-23 11:18:48.18	102.31	37.75	-35.6	-37.1	17.9	0.00e+00	0	62	0	891289600	43	4135
2026-01-23 11:18:49.19	101.97	37.92	-35.7	-37.2	17.9	0.00e+00	0	62	0	896532480	43	4184
2026-01-23 11:18:50.20	101.63	38.08	-35.8	-37.3	17.8	0.00e+00	0	61	0	902823936	43	4211
2026-01-23 11:18:51.21	101.28	38.24	-35.9	-37.4	17.7	0.00e+00	0	62	0	908066816	43	4291
2026-01-23 11:18:52.22	100.94	38.40	-36.0	-37.6	17.6	0.00e+00	0	62	0	914358272	43	4345
2026-01-23 11:18:53.24	100.58	38.56	-35.9	-37.4	17.7	0.00e+00	0	62	0	919601152	43	4254
2026-01-23 11:18:54.24	100.23	38.72	-35.8	-37.3	17.9	0.00e+00	0	61	0	925892608	43	4201
2026-01-23 11:18:55.26	99.87	38.88	-35.8	-37.3	17.8	0.00e+00	0	62	0	931135488	43	4235
2026-01-23 11:18:56.27	99.51	39.03	-35.8	-37.3	17.8	0.00e+00	0	62	0	937426944	43	4232
2026-01-23 11:18:57.28	99.14	39.19	-35.8	-37.3	17.8	0.00e+00	0	61	0	942669824	43	4225
2026-01-23 11:18:58.29	98.77	39.35	-35.8	-37.3	17.8	0.00e+00	0	61	0	947912704	43	4229
2026-01-23 11:18:59.30	98.40	39.51	-35.9	-37.4	17.8	0.00e+00	0	62	0	954204160	43	4257
2026-01-23 11:19:00.31	98.02	39.66	-35.7	-37.2	17.9	0.00e+00	0	61	0	959447040	43	4175
2026-01-23 11:19:01.32	97.64	39.82	-35.8	-37.3	17.8	0.00e+00	0	62	0	965738496	43	4212
2026-01-23 11:19:02.33	97.26	39.97	-35.9	-37.4	17.8	0.00e+00	0	62	0	970981376	43	4253
2026-01-23 11:19:03.34	96.87	40.12	-35.8	-37.3	17.8	0.00e+00	0	62	0	976224256	43	4225
2026-01-23 11:19:04.35	96.48	40.28	-35.8	-37.3	17.9	0.00e+00	0	62	0	982515712	43	4226
2026-01-23 11:19:05.36	96.09	40.43	-35.8	-37.3	17.9	0.00e+00	0	62	0	987758592	43	4199
2026-01-23 11:19:06.37	95.69	40.58	-35.8	-37.2	17.9	0.00e+00	0	62	0	994050048	43	4191
2026-01-23 11:19:07.38	95.29	40.73	-35.7	-37.2	18.0	0.00e+00	0	62	0	999292928	43	4161
2026-01-23 11:19:08.39	94.88	40.88	-35.8	-37.3	17.9	0.00e+00	0	62	0	1004535808	43	4198
2026-01-23 11:19:09.40	94.47	41.02	-35.5	-37.0	18.2	0.00e+00	0	62	0	1010827264	43	4053
2026-01-23 11:19:10.40	94.06	41.17	-35.5	-36.9	18.3	0.00e+00	0	62	0	1016070144	42	4274
2026-01-23 11:19:11.41	93.65	41.32	-35.5	-36.9	18.2	0.00e+00	0	62	0	1022361600	42	4282
2026-01-23 11:19:12.42	93.23	41.46	-35.5	-36.9	18.3	0.00e+00	0	62	0	1027604480	42	4260
2026-01-23 11:19:13.43	92.80	41.60	-35.5	-37.0	18.2	0.00e+00	0	62	0	1033895936	42	4309
2026-01-23 11:19:14.44	92.38	41.74	-35.6	-37.0	18.1	0.00e+00	0	62	0	1039138816	42	4338
2026-01-23 11:19:15.45	91.94	41.89	-35.5	-37.0	18.2	0.00e+00	0	62	0	1044381696	42	4298
2026-01-23 11:19:16.46	91.51	42.02	-35.3	-36.7	18.5	0.00e+00	0	62	0	1050673152	42	4178
2026-01-23 11:19:17.47	91.07	42.16	-35.4	-36.8	18.4	0.00e+00	0	62	0	1055916032	42	4235
2026-01-23 11:19:18.48	90.63	42.30	-35.6	-37.1	18.2	0.00e+00	0	62	0	1062207488	42	4347
2026-01-23 11:19:19.49	90.18	42.43	-35.6	-37.1	18.1	0.00e+00	0	62	0	1067450368	42	4368
2026-01-23 11:19:20.50	89.73	42.57	-35.5	-36.9	18.3	0.00e+00	0	62	0	1072693248	42	4273
2026-01-23 11:19:21.51	89.27	42.70	-35.5	-36.9	18.3	0.00e+00	0	62	0	1078984704	42	4281
2026-01-23 11:19:22.52	88.82	42.83	-35.6	-37.0	18.2	0.00e+00	0	62	0	1084227584	42	4316
2026-01-23 11:19:23.53	88.35	42.96	-35.6	-37.0	18.2	0.00e+00	0	62	0	1090519040	42	4323
2026-01-23 11:19:24.54	87.89	43.09	-35.4	-36.8	18.4	0.00e+00	0	62	0	1095761920	42	4204
2026-01-23 11:19:25.54	87.42	43.21	-35.4	-36.8	18.4	0.00e+00	0	62	0	1101004800	42	4236
2026-01-23 11:19:26.56	86.95	43.34	-35.5	-36.9	18.3	0.00e+00	0	62	0	1107296256	42	4261
2026-01-23 11:19:27.56	86.47	43.46	-35.4	-36.8	18.4	0.00e+00	0	62	0	1112539136	42	4218
2026-01-23 11:19:28.57	85.99	43.58	-35.4	-36.8	18.4	0.00e+00	0	62	0	1118830592	42	4234
2026-01-23 11:19:29.58	85.51	43.69	-35.5	-36.9	18.3	0.00e+00	0	62	0	1124073472	42	4288
2026-01-23 11:19:30.59	85.02	43.81	-35.7	-37.2	18.1	0.00e+00	0	62	0	1130364928	42	4408
2026-01-23 11:19:31.60	84.53	43.92	-35.7	-37.2	18.0	0.00e+00	0	62	0	1135607808	42	4416
2026-01-23 11:19:32.61	84.04	44.04	-35.7	-37.2	18.1	0.00e+00	0	62	0	1141899264	42	4417
2026-01-23 11:19:33.62	83.54	44.15	-35.8	-37.2	18.0	0.00e+00	0	62	0	1147142144	42	4427
2026-01-23 11:19:34.63	83.04	44.25	-35.7	-37.1	18.2	0.00e+00	0	62	0	1152385024	42	4353
2026-01-23 11:19:35.64	82.54	44.36	-35.5	-36.9	18.3	0.00e+00	0	62	0	1158676480	42	4287
2026-01-23 11:19:36.64	82.03	44.46	-35.7	-37.2	18.1	0.00e+00	0	62	0	1163919360	42	4394
2026-01-23 11:19:37.65	81.52	44.56	-35.9	-37.4	17.9	0.00e+00	0	62	0	1169162240	42	4506
2026-01-23 11:19:38.67	81.00	44.66	-35.7	-37.1	18.1	0.00e+00	0	62	0	1175453696	42	4390
2026-01-23 11:19:39.68	80.49	44.76	-35.6	-37.1	18.2	0.00e+00	0	62	0	1180696576	42	4363
2026-01-23 11:19:40.69	79.96	44.85	-35.7	-37.2	18.1	0.00e+00	0	62	0	1186988032	42	4414
2026-01-23 11:19:41.70	79.44	44.95	-35.9	-37.4	17.9	0.00e+00	0	62	0	1192230912	42	4517
2026-01-23 11:19:42.71	78.91	45.04	-36.4	-37.9	17.6	0.00e+00	0	62	0	1198522368	44	4262
2026-01-23 11:19:43.72	78.38	45.12	-36.0	-37.5	17.8	0.00e+00	0	62	0	1203765248	44	4077
2026-01-23 11:19:44.73	77.85	45.21	-36.1	-37.6	17.8	0.00e+00	0	62	0	1209008128	44	4107
2026-01-23 11:19:45.74	77.32	45.29	-36.1	-37.6	17.7	0.00e+00	0	62	0	1215299584	44	4142
2026-01-23 11:19:46.75	76.78	45.37	-36.1	-37.6	17.8	0.00e+00	0	62	0	1220542464	44	4136
2026-01-23 11:19:47.76	76.24	45.44	-36.1	-37.5	17.9	0.00e+00	0	62	0	1226833920	44	4094
2026-01-23 11:19:48.77	75.70	45.52	-36.0	-37.5	17.9	0.00e+00	0	62	0	1232076800	44	4073
2026-01-23 11:19:49.78	75.15	45.59	-36.1	-37.6	17.8	0.00e+00	0	62	0	1238368256	44	4132
2026-01-23 11:19:50.78	74.61	45.66	-36.1	-37.6	17.8	0.00e+00	0	62	0	1243611136	44	4122
2026-01-23 11:19:51.79	74.06	45.72	-35.8	-37.3	18.0	0.00e+00	0	62	0	1248854016	43	4209
2026-01-23 11:19:52.81	73.50	45.78	-35.7	-37.2	18.1	0.00e+00	0	62	0	1255145472	43	4156
2026-01-23 11:19:53.81	72.95	45.84	-35.8	-37.3	17.9	0.00e+00	0	62	0	1260388352	43	4229
2026-01-23 11:19:54.82	72.39	45.90	-35.8	-37.3	17.9	0.00e+00	0	62	0	1266679808	43	4232
2026-01-23 11:19:55.83	71.83	45.95	-35.8	-37.3	17.9	0.00e+00	0	62	0	1271922688	43	4219
2026-01-23 11:19:56.84	71.27	46.00	-35.9	-37.4	17.9	0.00e+00	0	62	0	1277165568	43	4246
2026-01-23 11:19:57.85	70.71	46.05	-35.9	-37.4	17.8	0.00e+00	0	62	0	1283457024	43	4279
2026-01-23 11:19:58.86	70.15	46.10	-35.9	-37.3	17.9	0.00e+00	0	62	0	1288699904	43	4223
2026-01-23 11:19:59.87	69.58	46.14	-35.9	-37.3	17.9	0.00e+00	0	62	0	1294991360	43	4234
2026-01-23 11:20:00.88	69.01	46.18	-35.8	-37.3	18.0	0.00e+00	0	62	0	1300234240	43	4215
2026-01-23 11:20:01.89	68.45	46.21	-35.8	-37.2	18.0	0.00e+00	0	62	0	1305477120	43	4193
2026-01-23 11:20:02.90	67.88	46.25	-35.8	-37.2	18.0	0.00e+00	0	62	0	1311768576	43	4182
2026-01-23 11:20:03.91	67.31	46.28	-36.0	-37.5	17.8	0.00e+00	0	62	0	1317011456	43	4315
2026-01-23 11:20:04.92	66.73	46.30	-36.0	-37.4	17.8	0.00e+00	0	62	0	1323302912	43	4291
2026-01-23 11:20:05.93	66.16	46.33	-35.8	-37.3	17.9	0.00e+00	0	62	0	1328545792	43	4217
2026-01-23 11:20:06.94	65.59	46.35	-35.9	-37.4	17.9	0.00e+00	0	62	0	1334837248	43	4267
2026-01-23 11:20:07.95	65.02	46.36	-36.0	-37.5	17.8	0.00e+00	0	62	0	1340080128	43	4294
2026-01-23 11:20:08.96	64.44	46.38	-35.8	-37.3	18.0	0.00e+00	0	62	0	1346371584	43	4208
2026-01-23 11:20:09.97	63.87	46.39	-35.7	-37.1	18.1	0.00e+00	0	62	0	1351614464	43	4145
2026-01-23 11:20:10.98	63.29	46.39	-35.8	-37.3	18.0	0.00e+00	0	62	0	1356857344	43	4197
2026-01-23 11:20:11.99	62.72	46.40	-35.9	-37.3	17.9	0.00e+00	0	62	0	1363148800	43	4233
2026-01-23 11:20:13.00	62.14	46.40	-36.0	-37.4	17.8	0.00e+00	0	62	0	1368391680	43	4287
2026-01-23 11:20:14.02	61.56	46.40	-36.0	-37.6	17.8	0.00e+00	0	62	0	1374683136	43	4342
2026-01-23 11:20:15.02	60.99	46.39	-35.8	-37.3	18.0	0.00e+00	0	62	0	1379926016	43	4204
2026-01-23 11:20:16.03	60.41	46.38	-35.7	-37.2	18.1	0.00e+00	0	62	0	1385168896	43	4155
2026-01-23 11:20:17.04	59.84	46.37	-35.9	-37.3	17.9	0.00e+00	0	62	0	1391460352	43	4235
2026-01-23 11:20:18.05	59.26	46.36	-35.9	-37.4	17.9	0.00e+00	0	62	0	1396703232	43	4267
2026-01-23 11:20:19.06	58.69	46.34	-35.9	-37.4	17.8	0.00e+00	0	62	0	1402994688	43	4279
2026-01-23 11:20:20.07	58.12	46.32	-36.0	-37.5	17.7	0.00e+00	0	62	0	1408237568	43	4336
2026-01-23 11:20:21.08	57.55	46.30	-36.2	-37.7	17.5	0.00e+00	0	62	0	1413480448	43	4415
2026-01-23 11:20:22.09	56.97	46.27	-36.0	-37.5	17.8	0.00e+00	0	62	0	1419771904	43	4321
2026-01-23 11:20:23.10	56.40	46.24	-36.1	-37.6	17.7	0.00e+00	0	62	0	1425014784	43	4355
2026-01-23 11:20:24.11	55.84	46.20	-35.9	-37.4	17.9	0.00e+00	0	62	0	1431306240	43	4267
2026-01-23 11:20:25.13	55.26	46.17	-36.0	-37.4	17.9	0.00e+00	0	62	0	1436549120	43	4279
2026-01-23 11:20:26.14	54.70	46.13	-36.0	-37.4	17.9	0.00e+00	0	62	0	1442840576	43	4281
2026-01-23 11:20:27.15	54.13	46.08	-36.3	-37.8	17.6	0.00e+00	0	62	0	1448083456	43	4454
2026-01-23 11:20:28.16	53.57	46.04	-36.2	-37.7	17.6	0.00e+00	0	62	0	1454374912	43	4414
2026-01-23 11:20:29.17	53.01	45.99	-36.1	-37.6	17.7	0.00e+00	0	62	0	1459617792	43	4354
2026-01-23 11:20:30.18	52.45	45.94	-36.2	-37.7	17.6	0.00e+00	0	62	0	1464860672	43	4420
2026-01-23 11:20:31.18	51.90	45.88	-36.3	-37.8	17.4	0.00e+00	0	62	0	1471152128	43	4485
2026-01-23 11:20:32.19	51.34	45.83	-36.1	-37.6	17.6	0.00e+00	0	62	0	1476395008	43	4378
2026-01-23 11:20:33.20	50.79	45.77	-35.8	-37.3	18.0	0.00e+00	0	62	0	1481637888	43	4210
2026-01-23 11:20:34.21	50.24	45.70	-35.9	-37.4	17.9	0.00e+00	0	62	0	1487929344	43	4262
2026-01-23 11:20:35.22	49.69	45.64	-35.9	-37.4	17.9	0.00e+00	0	62	0	1493172224	43	4255
2026-01-23 11:20:36.23	49.14	45.57	-35.8	-37.3	18.0	0.00e+00	0	62	0	1499463680	43	4200
2026-01-23 11:20:37.24	48.60	45.50	-35.6	-37.1	18.2	0.00e+00	0	62	0	1504706560	43	4104
2026-01-23 11:20:38.25	48.05	45.42	-35.6	-37.1	18.2	0.00e+00	0	62	0	1509949440	43	4101
2026-01-23 11:20:39.26	47.51	45.35	-35.7	-37.1	18.2	0.00e+00	0	62	0	1516240896	43	4126
2026-01-23 11:20:40.27	46.98	45.27	-35.7	-37.1	18.1	0.00e+00	0	62	0	1521483776	43	4136
2026-01-23 11:20:41.28	46.44	45.18	-35.7	-37.2	18.1	0.00e+00	0	62	0	1527775232	43	4159
2026-01-23 11:20:42.29	45.91	45.10	-36.0	-37.4	17.8	0.00e+00	0	62	0	1533018112	43	4286
2026-01-23 11:20:43.30	45.39	45.01	-35.7	-37.2	18.1	0.00e+00	0	62	0	1539309568	43	4162
2026-01-23 11:20:44.31	44.86	44.92	-35.7	-37.1	18.2	0.00e+00	0	62	0	1544552448	43	4112
2026-01-23 11:20:45.32	44.34	44.83	-35.7	-37.2	18.1	0.00e+00	0	62	0	1550843904	43	4151
2026-01-23 11:20:46.33	43.82	44.74	-35.8	-37.2	18.1	0.00e+00	0	62	0	1556086784	43	4181
2026-01-23 11:20:47.34	43.30	44.64	-35.8	-37.2	18.0	0.00e+00	0	62	0	1561329664	43	4192
2026-01-23 11:20:48.35	42.79	44.54	-35.7	-37.1	18.1	0.00e+00	0	62	0	1567621120	43	4137
2026-01-23 11:20:49.36	42.28	44.44	-35.7	-37.1	18.2	0.00e+00	0	62	0	1572864000	43	4112
2026-01-23 11:20:50.37	41.78	44.33	-35.7	-37.1	18.1	0.00e+00	0	62	0	1579155456	43	4134
2026-01-23 11:20:51.38	41.27	44.23	-35.6	-37.0	18.2	0.00e+00	0	62	0	1584398336	43	4096
2026-01-23 11:20:52.39	40.77	44.12	-35.6	-37.0	18.2	0.00e+00	0	62	0	1589641216	43	4072
2026-01-23 11:20:53.40	40.28	44.01	-35.5	-36.9	18.3	0.00e+00	0	62	0	1595932672	43	4014
2026-01-23 11:20:54.41	39.79	43.90	-35.6	-37.0	18.3	0.00e+00	0	62	0	1601175552	42	4305
2026-01-23 11:20:55.42	39.30	43.78	-35.6	-37.1	18.2	0.00e+00	0	62	0	1607467008	42	4348
2026-01-23 11:20:56.43	38.81	43.67	-35.5	-36.9	18.4	0.00e+00	0	62	0	1612709888	42	4263
2026-01-23 11:20:57.43	38.33	43.55	-35.6	-37.0	18.3	0.00e+00	0	62	0	1617952768	42	4295
2026-01-23 11:20:58.44	37.86	43.43	-35.5	-36.9	18.3	0.00e+00	0	62	0	1624244224	42	4279
2026-01-23 11:20:59.45	37.38	43.31	-35.5	-37.0	18.3	0.00e+00	0	62	0	1629487104	42	4295
2026-01-23 11:21:00.46	36.91	43.18	-35.6	-37.0	18.2	0.00e+00	0	62	0	1635778560	42	4335
2026-01-23 11:21:01.47	36.44	43.06	-35.7	-37.1	18.1	0.00e+00	0	62	0	1641021440	42	4373
2026-01-23 11:21:02.48	35.98	42.93	-35.6	-37.1	18.1	0.00e+00	0	62	0	1647312896	42	4356
2026-01-23 11:21:03.49	35.52	42.80	-35.5	-37.0	18.2	0.00e+00	0	62	0	1652555776	42	4298
2026-01-23 11:21:04.50	35.07	42.67	-35.4	-36.8	18.3	0.00e+00	0	62	0	1657798656	42	4236
2026-01-23 11:21:05.51	34.61	42.54	-35.4	-36.7	18.4	0.00e+00	0	62	0	1664090112	42	4191
2026-01-23 11:21:06.52	34.16	42.40	-35.3	-36.7	18.5	0.00e+00	0	62	0	1669332992	42	4151
2026-01-23 11:21:07.53	33.72	42.27	-35.4	-36.8	18.4	0.00e+00	0	62	0	1675624448	42	4205
2026-01-23 11:21:08.54	33.28	42.13	-35.3	-36.7	18.4	0.00e+00	0	62	0	1680867328	42	4165
2026-01-23 11:21:09.55	32.84	41.99	-35.3	-36.7	18.4	0.00e+00	0	62	0	1686110208	42	4165
2026-01-23 11:21:10.56	32.41	41.86	-35.4	-36.8	18.3	0.00e+00	0	62	0	1692401664	42	4211
2026-01-23 11:21:11.57	31.98	41.71	-35.4	-36.8	18.3	0.00e+00	0	62	0	1697644544	42	4242
2026-01-23 11:21:12.59	31.55	41.57	-35.5	-37.0	18.2	0.00e+00	0	62	0	1703936000	42	4307
2026-01-23 11:21:13.59	31.13	41.43	-35.6	-37.0	18.1	0.00e+00	0	62	0	1709178880	42	4312
2026-01-23 11:21:14.60	30.71	41.29	-35.6	-37.1	18.1	0.00e+00	0	62	0	1714421760	42	4343
2026-01-23 11:21:15.61	30.30	41.14	-35.6	-37.0	18.2	0.00e+00	0	62	0	1720713216	42	4315
2026-01-23 11:21:16.62	29.89	40.99	-35.6	-37.0	18.2	0.00e+00	0	62	0	1725956096	42	4307
2026-01-23 11:21:17.63	29.48	40.85	-35.5	-36.9	18.3	0.00e+00	0	62	0	1732247552	42	4263
2026-01-23 11:21:18.64	29.08	40.70	-35.4	-36.8	18.3	0.00e+00	0	62	0	1737490432	42	4229
2026-01-23 11:21:19.65	28.68	40.55	-35.4	-36.8	18.3	0.00e+00	0	62	0	1743781888	42	4214
2026-01-23 11:21:20.66	28.28	40.40	-35.5	-36.9	18.2	0.00e+00	0	62	0	1749024768	42	4285
2026-01-23 11:21:21.67	27.89	40.25	-35.7	-37.0	18.4	0.00e+00	0	62	0	1755316224	42	4333
2026-01-23 11:21:22.69	27.50	40.09	-35.8	-37.1	18.3	0.00e+00	0	62	0	1760559104	42	4384
2026-01-23 11:21:23.70	27.11	39.94	-35.9	-37.2	18.2	0.00e+00	0	62	0	1765801984	42	4433
2026-01-23 11:21:24.70	26.73	39.79	-35.9	-37.2	18.2	0.00e+00	0	62	0	1772093440	42	4426
2026-01-23 11:21:25.71	26.36	39.63	-35.9	-37.2	18.2	0.00e+00	0	62	0	1777336320	42	4434
2026-01-23 11:21:26.72	25.98	39.48	-35.8	-37.1	18.3	0.00e+00	0	62	0	1783627776	42	4387
2026-01-23 11:21:27.73	25.61	39.32	-35.7	-37.0	18.4	0.00e+00	0	62	0	1788870656	42	4316
2026-01-23 11:21:28.74	25.25	39.17	-35.6	-36.9	18.5	0.00e+00	0	62	0	1794113536	42	4284
2026-01-23 11:21:29.75	24.88	39.01	-35.6	-36.9	18.5	0.00e+00	0	62	0	1800404992	42	4269
2026-01-23 11:21:30.76	24.52	38.85	-35.6	-36.9	18.5	0.00e+00	0	62	0	1805647872	42	4291
2026-01-23 11:21:31.77	24.17	38.69	-35.7	-37.0	18.4	0.00e+00	0	62	0	1811939328	42	4300
2026-01-23 11:21:32.78	23.81	38.53	-35.7	-37.1	18.3	0.00e+00	0	62	0	1817182208	42	4345
2026-01-23 11:21:33.79	23.46	38.37	-35.6	-37.0	18.4	0.00e+00	0	62	0	1822425088	42	4295
2026-01-23 11:21:34.80	23.12	38.21	-35.5	-36.8	18.6	0.00e+00	0	62	0	1828716544	42	4228
2026-01-23 11:21:35.81	22.78	38.05	-35.6	-36.9	18.5	0.00e+00	0	62	0	1833959424	42	4249
2026-01-23 11:21:36.82	22.44	37.89	-35.5	-36.8	18.6	0.00e+00	0	62	0	1840250880	42	4219
2026-01-23 11:21:37.83	22.10	37.73	-35.6	-36.9	18.5	0.00e+00	0	62	0	1845493760	42	4249
2026-01-23 11:21:38.84	21.77	37.57	-35.6	-36.9	18.5	0.00e+00	0	62	0	1851785216	42	4275
2026-01-23 11:21:39.85	21.44	37.41	-35.5	-36.8	18.6	0.00e+00	0	62	0	1857028096	42	4232
2026-01-23 11:21:40.86	21.11	37.25	-35.4	-36.7	18.7	0.00e+00	0	62	0	1863319552	42	4178
2026-01-23 11:21:41.87	20.79	37.09	-35.4	-36.7	18.6	0.00e+00	0	62	0	1868562432	42	4185
2026-01-23 11:21:42.88	20.47	36.92	-35.5	-36.8	18.6	0.00e+00	0	62	0	1873805312	42	4199
2026-01-23 11:21:43.89	20.16	36.76	-35.5	-36.8	18.6	0.00e+00	0	62	0	1880096768	42	4201
2026-01-23 11:21:44.90	19.84	36.60	-35.4	-36.7	18.7	0.00e+00	0	62	0	1885339648	42	4178
2026-01-23 11:21:45.91	19.53	36.44	-35.4	-36.7	18.6	0.00e+00	0	62	0	1891631104	42	4183
2026-01-23 11:21:46.92	19.23	36.27	-35.4	-36.7	18.7	0.00e+00	0	62	0	1896873984	42	4172
2026-01-23 11:21:47.93	18.92	36.11	-35.3	-36.6	18.8	0.00e+00	0	62	0	1902116864	42	4124
2026-01-23 11:21:48.94	18.62	35.95	-35.3	-36.6	18.8	0.00e+00	0	62	0	1908408320	42	4110
2026-01-23 11:21:49.95	18.33	35.78	-35.3	-36.6	18.8	0.00e+00	0	62	0	1913651200	42	4105
2026-01-23 11:21:50.96	18.03	35.62	-35.4	-36.7	18.7	0.00e+00	0	62	0	1919942656	42	4174
2026-01-23 11:21:51.97	17.74	35.46	-35.6	-36.9	18.5	0.00e+00	0	62	0	1925185536	42	4251
2026-01-23 11:21:52.98	17.45	35.29	-35.5	-36.8	18.5	0.00e+00	0	62	0	1930428416	42	4238
2026-01-23 11:21:53.99	17.17	35.13	-35.5	-36.8	18.5	0.00e+00	0	62	0	1936719872	42	4238
2026-01-23 11:21:55.00	16.88	34.97	-35.5	-36.8	18.5	0.00e+00	0	62	0	1941962752	42	4224
2026-01-23 11:21:56.01	16.60	34.80	-35.5	-36.8	18.5	0.00e+00	0	62	0	1948254208	42	4223
2026-01-23 11:21:57.02	16.33	34.64	-35.5	-36.8	18.5	0.00e+00	0	62	0	1953497088	42	4232
2026-01-23 11:21:58.03	16.05	34.48	-35.5	-36.8	18.5	0.00e+00	0	62	0	1959788544	42	4231
2026-01-23 11:21:59.04	15.78	34.31	-35.5	-36.8	18.5	0.00e+00	0	62	0	1965031424	42	4238
2026-01-23 11:22:00.05	15.51	34.15	-35.5	-36.8	18.5	0.00e+00	0	62	0	1970274304	42	4222
2026-01-23 11:22:01.06	15.25	33.99	-35.5	-36.8	18.5	0.00e+00	0	62	0	1976565760	42	4208
2026-01-23 11:22:02.06	14.99	33.83	-35.5	-36.8	18.5	0.00e+00	0	62	0	1981808640	42	4238
2026-01-23 11:22:03.08	14.72	33.66	-35.5	-36.8	18.5	0.00e+00	0	62	0	1988100096	42	4239
2026-01-23 11:22:04.09	14.46	33.50	-35.5	-36.8	18.5	0.00e+00	0	62	0	1993342976	42	4236
2026-01-23 11:22:05.10	14.21	33.34	-35.5	-36.8	18.5	0.00e+00	0	62	0	1998585856	42	4231
2026-01-23 11:22:06.11	13.96	33.18	-35.5	-36.7	18.6	0.00e+00	0	62	0	2004877312	42	4191
2026-01-23 11:22:07.12	13.71	33.02	-35.5	-36.8	18.5	0.00e+00	0	62	0	2010120192	42	4233
2026-01-23 11:22:08.13	13.46	32.86	-35.6	-36.9	18.4	0.00e+00	0	62	0	2016411648	42	4247
2026-01-23 11:22:09.13	13.21	32.70	-35.7	-37.0	18.3	0.00e+00	0	62	0	2021654528	42	4304
2026-01-23 11:22:10.14	12.97	32.54	-35.7	-37.0	18.3	0.00e+00	0	62	0	2026897408	42	4332
2026-01-23 11:22:11.15	12.73	32.38	-35.7	-37.0	18.3	0.00e+00	0	62	0	2033188864	42	4339
2026-01-23 11:22:12.16	12.49	32.22	-35.7	-37.0	18.3	0.00e+00	0	62	0	2038431744	42	4313
2026-01-23 11:22:13.17	12.26	32.06	-35.7	-37.0	18.3	0.00e+00	0	62	0	2044723200	42	4314
2026-01-23 11:22:14.18	12.02	31.90	-35.7	-37.0	18.3	0.00e+00	0	62	0	2049966080	42	4332
2026-01-23 11:22:15.19	11.79	31.74	-35.6	-36.9	18.3	0.00e+00	0	62	0	2056257536	42	4274
2026-01-23 11:22:16.20	11.56	31.58	-35.5	-36.8	18.5	0.00e+00	0	62	0	2061500416	42	4206
2026-01-23 11:22:17.21	11.34	31.42	-35.6	-36.9	18.4	0.00e+00	0	62	0	2066743296	42	4260
2026-01-23 11:22:18.22	11.11	31.26	-35.6	-36.9	18.4	0.00e+00	0	62	0	2073034752	42	4284
2026-01-23 11:22:19.22	10.89	31.11	-35.7	-37.0	18.3	0.00e+00	0	62	0	2078277632	42	4317
2026-01-23 11:22:20.23	10.67	30.95	-35.7	-37.0	18.3	0.00e+00	0	62	0	2084569088	42	4309
2026-01-23 11:22:21.24	10.45	30.79	-35.7	-37.1	18.2	0.00e+00	0	62	0	2089811968	42	4352
2026-01-23 11:22:22.25	10.24	30.63	-35.7	-37.1	18.2	0.00e+00	0	62	0	2095054848	42	4343
2026-01-23 11:22:23.26	10.02	30.48	-35.8	-37.2	18.1	0.00e+00	0	62	0	2101346304	42	4403
2026-01-23 11:22:24.27	9.81	30.32	-35.9	-37.3	18.0	0.00e+00	0	62	0	2106589184	42	4470
2026-01-23 11:22:25.29	9.60	30.17	-36.1	-37.5	17.7	0.00e+00	0	62	0	2112880640	42	4589
2026-01-23 11:22:26.29	9.40	30.01	-36.1	-37.6	17.7	0.00e+00	0	62	0	2118123520	42	4602
2026-01-23 11:22:27.30	9.19	29.86	-36.1	-37.5	17.7	0.00e+00	0	62	0	2123366400	42	4580
2026-01-23 11:22:28.31	8.99	29.70	-36.1	-37.5	17.7	0.00e+00	0	62	0	2129657856	42	4580
2026-01-23 11:22:29.32	8.79	29.55	-36.1	-37.5	17.8	0.00e+00	0	62	0	2134900736	42	4550
2026-01-23 11:22:30.33	8.59	29.40	-36.0	-37.4	17.8	0.00e+00	0	62	0	2141192192	42	4522
2026-01-23 11:22:31.34	8.39	29.24	-36.1	-37.4	17.8	0.00e+00	0	62	0	2146435072	42	4545
2026-01-23 11:22:32.35	8.19	29.09	-36.0	-37.4	17.8	0.00e+00	0	62	0	2152726528	42	4538
2026-01-23 11:22:33.36	8.00	28.94	-36.0	-37.4	17.8	0.00e+00	0	62	0	2157969408	42	4515
2026-01-23 11:22:34.37	7.81	28.79	-36.0	-37.4	17.8	0.00e+00	0	62	0	2164260864	42	4542
2026-01-23 11:22:35.38	7.62	28.64	-36.1	-37.5	17.7	0.00e+00	0	62	0	2169503744	42	4565
2026-01-23 11:22:36.39	7.43	28.49	-36.1	-37.5	17.7	0.00e+00	0	62	0	2174746624	42	4551
2026-01-23 11:22:37.39	7.24	28.34	-36.0	-37.3	17.8	0.00e+00	0	62	0	2181038080	42	4488
2026-01-23 11:22:38.40	7.06	28.19	-35.9	-37.3	17.9	0.00e+00	0	62	0	2186280960	42	4462
2026-01-23 11:22:39.41	6.88	28.04	-36.0	-37.3	17.9	0.00e+00	0	62	0	2192572416	42	4486
2026-01-23 11:22:40.42	6.69	27.89	-36.1	-37.5	17.7	0.00e+00	0	62	0	2197815296	42	4576
2026-01-23 11:22:41.43	6.52	27.74	-36.2	-37.6	17.6	0.00e+00	0	62	0	2203058176	42	4617
2026-01-23 11:22:42.44	6.34	27.59	-36.2	-37.6	17.6	0.00e+00	0	62	0	2209349632	42	4650
2026-01-23 11:22:43.45	6.16	27.45	-36.3	-37.8	17.4	0.00e+00	0	62	0	2214592512	43	4459
2026-01-23 11:22:44.46	5.99	27.30	-36.3	-37.7	17.4	0.00e+00	0	62	0	2220883968	43	4434
2026-01-23 11:22:45.47	5.81	27.15	-36.3	-37.7	17.5	0.00e+00	0	62	0	2226126848	43	4420
2026-01-23 11:22:46.48	5.64	27.01	-36.3	-37.8	17.4	0.00e+00	0	62	0	2231369728	43	4467
2026-01-23 11:22:47.49	5.47	26.86	-36.3	-37.8	17.4	0.00e+00	0	62	0	2237661184	43	4444
2026-01-23 11:22:48.50	5.30	26.72	-36.3	-37.7	17.4	0.00e+00	0	62	0	2242904064	43	4434
2026-01-23 11:22:49.51	5.14	26.57	-36.2	-37.7	17.5	0.00e+00	0	62	0	2249195520	43	4404
2026-01-23 11:22:50.52	4.97	26.43	-36.1	-37.5	17.6	0.00e+00	0	62	0	2254438400	43	4316
2026-01-23 11:22:51.53	4.81	26.29	-36.0	-37.4	17.7	0.00e+00	0	62	0	2260729856	43	4270
2026-01-23 11:22:52.54	4.65	26.14	-36.1	-37.5	17.7	0.00e+00	0	62	0	2265972736	43	4297
2026-01-23 11:22:53.55	4.49	26.00	-36.1	-37.5	17.6	0.00e+00	0	62	0	2271215616	43	4335
2026-01-23 11:22:54.56	4.33	25.86	-36.1	-37.5	17.6	0.00e+00	0	62	0	2277507072	43	4312
2026-01-23 11:22:55.57	4.17	25.72	-36.1	-37.5	17.6	0.00e+00	0	62	0	2282749952	43	4327
2026-01-23 11:22:56.58	4.01	25.58	-36.0	-37.5	17.7	0.00e+00	0	62	0	2289041408	43	4296
2026-01-23 11:22:57.59	3.86	25.44	-36.0	-37.4	17.7	0.00e+00	0	62	0	2294284288	43	4255
2026-01-23 11:22:58.60	3.70	25.30	-36.1	-37.5	17.7	0.00e+00	0	62	0	2299527168	43	4299
2026-01-23 11:22:59.61	3.55	25.16	-36.0	-37.4	17.7	0.00e+00	0	62	0	2305818624	43	4287
2026-01-23 11:23:00.62	3.40	25.02	-36.0	-37.4	17.7	0.00e+00	0	62	0	2311061504	43	4249
2026-01-23 11:23:01.63	3.25	24.88	-36.0	-37.4	17.7	0.00e+00	0	62	0	2317352960	43	4267
2026-01-23 11:23:02.64	3.10	24.74	-36.1	-37.5	17.6	0.00e+00	0	62	0	2322595840	43	4301
2026-01-23 11:23:03.65	2.96	24.61	-36.1	-37.5	17.6	0.00e+00	0	62	0	2327838720	43	4323
2026-01-23 11:23:04.66	2.81	24.47	-36.2	-37.7	17.4	0.00e+00	0	62	0	2334130176	43	4403
2026-01-23 11:23:05.67	2.67	24.33	-36.2	-37.6	17.5	0.00e+00	0	62	0	2339373056	43	4370
2026-01-23 11:23:06.68	2.52	24.20	-36.2	-37.7	17.4	0.00e+00	0	62	0	2345664512	43	4395
2026-01-23 11:23:07.69	2.38	24.06	-36.3	-37.7	17.3	0.00e+00	0	62	0	2350907392	43	4419
2026-01-23 11:23:08.70	2.24	23.93	-36.2	-37.7	17.4	0.00e+00	0	62	0	2357198848	43	4414
2026-01-23 11:23:09.71	2.10	23.79	-36.2	-37.7	17.4	0.00e+00	0	62	0	2362441728	43	4413
2026-01-23 11:23:10.71	1.97	23.66	-36.3	-37.7	17.3	0.00e+00	0	62	0	2368733184	43	4416
2026-01-23 11:23:11.72	1.83	23.53	-36.2	-37.7	17.3	0.00e+00	0	62	0	2373976064	43	4414
2026-01-23 11:23:12.74	1.69	23.40	-36.2	-37.7	17.3	0.00e+00	0	62	0	2379218944	43	4411
2026-01-23 11:23:13.74	1.56	23.26	-36.2	-37.6	17.4	0.00e+00	0	62	0	2385510400	43	4391
2026-01-23 11:23:14.75	1.43	23.13	-36.3	-37.8	17.2	0.00e+00	0	62	0	2390753280	43	4460
2026-01-23 11:23:15.77	1.29	23.00	-36.4	-37.8	17.2	0.00e+00	0	62	0	2397044736	43	4492
2026-01-23 11:23:16.78	1.16	22.87	-36.4	-37.9	17.1	0.00e+00	0	62	0	2402287616	43	4530
2026-01-23 11:23:17.78	1.03	22.74	-36.5	-38.0	17.0	0.00e+00	0	62	0	2407530496	43	4562
2026-01-23 11:23:18.79	0.91	22.61	-36.5	-38.0	17.0	0.00e+00	0	62	0	2413821952	43	4587
2026-01-23 11:23:19.80	0.78	22.48	-36.5	-38.0	17.0	0.00e+00	0	62	0	2419064832	43	4580
2026-01-23 11:23:20.81	0.65	22.35	-36.5	-38.0	16.9	0.00e+00	0	62	0	2425356288	43	4585
2026-01-23 11:23:21.82	0.53	22.23	-36.5	-38.0	16.9	0.00e+00	0	62	0	2430599168	43	4579
2026-01-23 11:23:22.83	0.40	22.10	-36.5	-38.0	16.9	0.00e+00	0	62	0	2435842048	43	4594
2026-01-23 11:23:23.84	0.28	21.97	-36.5	-38.0	16.9	0.00e+00	0	62	0	2442133504	43	4553
2026-01-23 11:23:24.85	0.16	21.84	-36.4	-37.9	16.9	0.00e+00	0	62	0	2447376384	43	4529
2026-01-23 11:23:25.86	0.03	21.72	-36.4	-37.9	17.0	0.00e+00	0	62	0	2453667840	43	4509
2026-01-23 11:23:26.87	359.91	21.59	-36.4	-37.9	17.0	0.00e+00	0	62	0	2458910720	43	4511
2026-01-23 11:23:27.88	359.79	21.47	-36.4	-38.0	16.9	0.00e+00	0	62	0	2465202176	43	4549
2026-01-23 11:23:28.89	359.68	21.34	-36.4	-37.9	16.9	0.00e+00	0	62	0	2470445056	43	4505
2026-01-23 11:23:29.90	359.56	21.22	-36.5	-38.0	16.8	0.00e+00	0	62	0	2475687936	43	4561
2026-01-23 11:23:30.91	359.44	21.09	-36.4	-37.9	16.9	0.00e+00	0	62	0	2481979392	43	4495
2026-01-23 11:23:31.92	359.33	20.97	-36.4	-37.9	16.9	0.00e+00	0	62	0	2487222272	43	4502
2026-01-23 11:23:32.93	359.21	20.85	-36.4	-37.9	16.8	0.00e+00	0	62	0	2493513728	43	4511
2026-01-23 11:23:33.94	359.10	20.73	-36.5	-38.0	16.7	0.00e+00	0	62	0	2498756608	43	4587
2026-01-23 11:23:34.95	358.99	20.60	-36.5	-38.0	16.7	0.00e+00	0	62	0	2503999488	43	4571
2026-01-23 11:23:35.95	358.88	20.48	-36.5	-38.0	16.6	0.00e+00	0	62	0	2510290944	43	4584
2026-01-23 11:23:36.96	358.76	20.36	-36.5	-38.0	16.6	0.00e+00	0	62	0	2515533824	43	4586
2026-01-23 11:23:37.97	358.65	20.24	-36.5	-38.1	16.5	0.00e+00	0	62	0	2521825280	43	4633
2026-01-23 11:23:38.98	358.55	20.12	-36.7	-38.3	16.2	0.00e+00	0	62	0	2527068160	43	4718
2026-01-23 11:23:39.99	358.44	20.00	-36.9	-38.6	16.1	0.00e+00	0	62	0	2532311040	44	4602
2026-01-23 11:23:41.00	358.33	19.88	-36.8	-38.5	16.2	0.00e+00	0	62	0	2538602496	44	4555
2026-01-23 11:23:42.01	358.22	19.77	-36.9	-38.6	16.1	0.00e+00	0	62	0	2543845376	44	4608
2026-01-23 11:23:43.02	358.12	19.65	-37.1	-38.8	15.8	0.00e+00	0	62	0	2550136832	44	4739
2026-01-23 11:23:44.03	358.01	19.53	-37.3	-39.1	15.4	0.00e+00	0	62	0	2555379712	45	4633
2026-01-23 11:23:45.04	357.91	19.41	-37.4	-39.2	15.2	0.00e+00	0	62	0	2561671168	45	4687
2026-01-23 11:23:46.05	357.81	19.30	-37.4	-39.3	15.1	0.00e+00	0	62	0	2566914048	45	4712
2026-01-23 11:23:47.06	357.70	19.18	-37.3	-39.1	15.2	0.00e+00	0	62	0	2573205504	45	4629
2026-01-23 11:23:48.07	357.60	19.06	-37.2	-39.0	15.3	0.00e+00	0	62	0	2578448384	45	4562
2026-01-23 11:23:49.08	357.50	18.95	-37.0	-38.8	15.3	0.00e+00	0	62	0	2583691264	45	4481
2026-01-23 11:23:50.09	357.40	18.83	-36.9	-38.7	15.3	0.00e+00	0	62	0	2589982720	45	4420
2026-01-23 11:23:51.10	357.30	18.72	-36.9	-38.7	15.2	0.00e+00	0	62	0	2595225600	45	4423
2026-01-23 11:23:52.11	357.20	18.61	-37.0	-38.8	15.1	0.00e+00	0	62	0	2601517056	45	4480
2026-01-23 11:23:53.12	357.11	18.49	-37.0	-38.8	15.0	1.10e-06	0	62	0	2606759936	45	4465
2026-01-23 11:23:54.13	357.01	18.38	-37.0	-38.8	15.0	0.00e+00	0	62	0	2612002816	45	4459
2026-01-23 11:23:55.14	356.91	18.27	-36.8	-38.6	15.0	0.00e+00	0	62	0	2618294272	45	4381
2026-01-23 11:23:56.15	356.82	18.15	-36.8	-38.6	14.9	0.00e+00	0	62	0	2623537152	45	4378
2026-01-23 11:23:57.17	356.72	18.04	-37.0	-38.9	14.5	0.00e+00	0	62	0	2629828608	45	4531
2026-01-23 11:23:58.18	356.63	17.93	-37.2	-39.2	14.2	1.10e-06	0	62	0	2635071488	45	4666
2026-01-23 11:23:59.19	356.54	17.82	-37.4	-39.6	13.6	8.00e-06	0	62	0	2640314368	45	4895
2026-01-23 11:24:00.19	356.44	17.71	-37.7	-40.0	13.1	2.51e-05	0	62	0	2646605824	45	5124
2026-01-23 11:24:01.20	356.35	17.60	-38.1	-40.7	12.3	1.45e-04	0	62	0	2651848704	46	5227
2026-01-23 11:24:02.21	356.26	17.49	-38.5	-41.3	11.5	6.27e-04	0	62	0	2658140160	47	5326
2026-01-23 11:24:03.22	356.17	17.38	-39.1	-42.3	10.5	3.53e-03	0	62	0	2663383040	48	5597
2026-01-23 11:24:04.23	356.08	17.27	-39.5	-43.1	9.4	1.25e-02	0	62	0	2669674496	49	5855
2026-01-23 11:24:05.24	355.99	17.16	-39.9	-44.1	8.3	4.41e-02	0	62	0	2674917376	50	6132
2026-01-23 11:24:06.25	355.90	17.05	-40.2	-44.8	7.4	9.40e-02	0	62	0	2680160256	50	6719
2026-01-23 11:24:07.26	355.82	16.95	-40.4	-45.7	6.5	2.17e-01	0	62	0	2686451712	51	7017
2026-01-23 11:24:08.27	355.73	16.84	-40.7	-46.7	5.7	3.95e-01	0	62	0	2691694592	51	7866
2026-01-23 11:24:09.28	355.64	16.73	-40.6	-47.4	5.1	7.41e-01	0	62	0	2693791744	52	8009
2026-01-23 11:24:10.29	355.56	16.62	-40.8	-48.4	4.5	8.01e-01	0	62	0	2693791744	52	9039
2026-01-23 11:24:11.30	355.47	16.52	-40.9	-49.7	4.1	8.37e-01	0	62	0	2693791744	52	10521
2026-01-23 11:24:12.31	355.39	16.41	-41.0	-51.1	3.8	8.47e-01	0	62	104	2693791744	52	12359
2026-01-23 11:24:13.33	355.30	16.31	-41.7	-52.3	3.8	8.46e-01	0	62	104	2693791744	54	12650
2026-01-23 11:24:14.34	355.22	16.20	-41.1	-52.6	3.8	8.47e-01	0	62	104	2693791744	53	13729
2026-01-23 11:24:15.34	355.14	16.10	-41.7	-50.6	4.1	8.42e-01	0	62	0	2693791744	53	10912
2026-01-23 11:24:16.35	355.05	15.99	-41.6	-50.8	3.8	8.43e-01	0	62	104	2693791744	53	11252
2026-01-23 11:24:17.36	354.97	15.89	-41.5	-51.2	3.9	8.44e-01	0	62	104	2693791744	53	11716
2026-01-23 11:24:18.37	354.89	15.79	-41.5	-51.6	3.8	8.47e-01	0	62	104	2693791744	53	12294
2026-01-23 11:24:19.38	354.81	15.68	-41.4	-51.8	3.8	8.45e-01	0	62	104	2693791744	53	12662
2026-01-23 11:24:20.39	354.73	15.58	-41.1	-52.4	3.8	8.46e-01	0	62	104	2693791744	53	13464
2026-01-23 11:24:21.40	354.65	15.48	-40.7	-52.2	3.8	8.46e-01	0	62	104	2693791744	53	13161
2026-01-23 11:24:22.41	354.57	15.38	-40.9	-52.4	3.8	8.46e-01	0	62	104	2693791744	53	13475
2026-01-23 11:24:23.42	354.50	15.28	-40.9	-52.4	3.8	8.46e-01	0	62	104	2693791744	53	13559
2026-01-23 11:24:24.43	354.42	15.17	-40.7	-52.2	3.8	8.45e-01	0	62	104	2693791744	53	13237
2026-01-23 11:24:25.44	354.34	15.07	-40.9	-52.5	3.8	8.47e-01	0	62	104	2693791744	53	13603
2026-01-23 11:24:26.45	354.26	14.97	-40.7	-52.3	3.8	8.46e-01	0	62	104	2693791744	53	13273
2026-01-23 11:24:27.46	354.19	14.87	-40.8	-52.4	3.8	8.45e-01	0	62	104	2693791744	53	13476
2026-01-23 11:24:28.47	354.11	14.77	-40.7	-52.3	3.8	8.46e-01	0	62	104	2693791744	53	13288
2026-01-23 11:24:29.48	354.04	14.67	-40.7	-52.3	3.8	8.46e-01	0	62	104	2693791744	53	13275
2026-01-23 11:24:30.49	353.96	14.57	-40.7	-52.3	3.8	8.47e-01	0	62	104	2693791744	53	13280
2026-01-23 11:24:31.50	353.89	14.48	-40.7	-52.3	3.8	8.45e-01	0	62	104	2693791744	53	13265
2026-01-23 11:24:32.51	353.82	14.38	-40.7	-52.3	3.8	8.45e-01	0	62	104	2693791744	53	13283
2026-01-23 11:24:33.52	353.74	14.28	-40.6	-52.2	3.8	8.46e-01	0	62	104	2693791744	53	13185
2026-01-23 11:24:34.53	353.67	14.18	-40.7	-52.2	3.8	8.45e-01	0	62	104	2693791744	53	13244
2026-01-23 11:24:35.54	353.60	14.08	-40.6	-52.1	3.8	8.46e-01	0	62	104	2693791744	53	13102
2026-01-23 11:24:36.55	353.53	13.99	-40.6	-52.2	3.8	8.46e-01	0	62	104	2693791744	53	13180
2026-01-23 11:24:37.56	353.46	13.89	-40.6	-52.2	3.8	8.47e-01	0	62	104	2693791744	53	13183
2026-01-23 11:24:38.57	353.39	13.79	-40.6	-52.2	3.8	8.47e-01	0	62	104	2693791744	53	13127
2026-01-23 11:24:39.58	353.32	13.70	-40.6	-52.1	3.8	8.46e-01	0	62	104	2693791744	53	13058
2026-01-23 11:24:40.59	353.25	13.60	-40.6	-52.2	3.8	8.46e-01	0	62	104	2693791744	53	13145
2026-01-23 11:24:41.60	353.18	13.51	-40.7	-52.3	3.8	8.45e-01	0	62	104	2693791744	53	13278
2026-01-23 11:24:42.61	353.11	13.41	-40.6	-52.1	3.8	8.46e-01	0	62	104	2693791744	53	13028
2026-01-23 11:24:43.62	353.04	13.32	-40.6	-52.2	3.8	8.46e-01	0	62	104	2693791744	53	13132
2026-01-23 11:24:44.63	352.98	13.22	-40.6	-52.2	3.8	8.47e-01	0	62	104	2693791744	53	13158
2026-01-23 11:24:45.64	352.91	13.13	-40.8	-52.4	3.8	8.46e-01	0	62	104	2693791744	53	13511
2026-01-23 11:24:46.65	352.84	13.04	-40.6	-52.1	3.8	8.46e-01	0	62	104	2693791744	53	13055
2026-01-23 11:24:47.66	352.78	12.94	-40.7	-52.3	3.8	8.46e-01	0	62	104	2693791744	53	13310
2026-01-23 11:24:48.67	352.71	12.85	-40.6	-52.2	3.8	8.46e-01	0	62	104	2693791744	53	13141
2026-01-23 11:24:49.68	352.64	12.76	-40.9	-52.4	3.8	8.47e-01	0	62	104	2693791744	53	13506
2026-01-23 11:24:50.69	352.58	12.66	-40.6	-52.1	3.8	8.45e-01	0	62	104	2693791744	53	13054
2026-01-23 11:24:51.70	352.52	12.57	-40.8	-52.3	3.8	8.46e-01	0	62	104	2693791744	53	13412
2026-01-23 11:24:52.71	352.45	12.48	-40.6	-52.2	3.8	8.47e-01	0	62	104	2693791744	53	13189
2026-01-23 11:24:53.72	352.39	12.39	-40.8	-52.3	3.8	8.46e-01	0	62	104	2693791744	53	13359
2026-01-23 11:24:54.72	352.33	12.30	-40.7	-52.3	3.8	8.47e-01	0	62	104	2693791744	53	13266
2026-01-23 11:24:55.73	352.26	12.21	-40.7	-52.3	3.8	8.46e-01	0	62	104	2693791744	53	13288
2026-01-23 11:24:56.74	352.20	12.12	-40.7	-52.2	3.8	8.45e-01	0	62	104	2693791744	53	13246
