passes_logs/2026/01/23/R2.0S_Moscow/R2.0S_Moscow__20260123_103603_NOAA_20_JPSS-1_rec.log

#Pass ID: 20260123_103603_NOAA 20 (JPSS-1)
#Satellite: NOAA 20 (JPSS-1)
#Configuration: NOAA 20
#almurnet v.1.7.20251203
#Start time: 2026-01-23 10:44:11

#Version: 2.2.20231116
#Station: R2.0S_Moscow
#Location: 37.707566 lon 55.798166 lat
#TLE: 1 43013U 17073A   26022.44900781  .00000193  00000+0  11233-3 0  9999
#TLE: 2 43013  98.7645 323.3100 0001197  28.8413 331.2829 14.19538802423792

#Time	Az	El	Level	Level2	SNR	BER	BlckErr	Temp	State	Recorded	gain1	gain2
2026-01-23 10:44:11.53	295.30	42.98	-45.9	-64.1	3.8	7.46e-01	0	62	0	0	62	30988
2026-01-23 10:44:12.53	295.72	42.82	-44.8	-59.8	3.8	1.49e+00	0	62	104	0	60	21226
2026-01-23 10:44:13.55	296.14	42.66	-45.3	-59.9	3.8	1.49e+00	0	62	104	0	61	20162
2026-01-23 10:44:14.56	296.56	42.49	-45.3	-59.8	3.8	1.49e+00	0	62	104	0	61	20060
2026-01-23 10:44:15.57	296.97	42.33	-45.2	-59.8	3.8	1.49e+00	0	62	104	0	61	20050
2026-01-23 10:44:16.58	297.38	42.16	-45.2	-59.8	3.8	1.49e+00	0	62	104	0	61	20024
2026-01-23 10:44:17.59	297.78	41.99	-45.2	-59.8	3.8	1.49e+00	0	62	104	0	61	19908
2026-01-23 10:44:18.60	298.18	41.83	-45.2	-59.8	3.8	1.49e+00	0	62	104	0	61	19901
2026-01-23 10:44:19.61	298.57	41.66	-45.2	-59.8	3.8	1.49e+00	0	62	104	0	61	19923
2026-01-23 10:44:20.62	298.96	41.49	-45.2	-59.7	3.8	1.49e+00	0	62	104	0	61	19834
2026-01-23 10:44:21.63	299.35	41.32	-45.2	-59.7	3.8	1.49e+00	0	62	104	0	61	19830
2026-01-23 10:44:22.64	299.73	41.15	-45.2	-59.8	3.8	1.49e+00	0	62	104	0	61	19862
2026-01-23 10:44:23.65	300.11	40.98	-45.2	-59.8	3.8	1.49e+00	0	62	104	0	61	19871
2026-01-23 10:44:24.66	300.48	40.80	-45.2	-59.8	3.8	1.49e+00	0	62	104	0	61	19892
2026-01-23 10:44:25.68	300.86	40.63	-45.2	-59.8	3.8	1.49e+00	0	62	104	0	61	19895
2026-01-23 10:44:26.69	301.23	40.46	-45.2	-59.8	3.8	1.49e+00	0	62	104	0	61	19868
2026-01-23 10:44:27.70	301.59	40.29	-45.2	-59.8	3.8	1.49e+00	0	62	104	0	61	19855
2026-01-23 10:44:28.71	301.95	40.11	-45.2	-59.8	3.8	1.49e+00	0	62	104	0	61	19888
2026-01-23 10:44:29.72	302.30	39.94	-45.2	-59.8	3.8	1.49e+00	0	62	104	0	61	19863
2026-01-23 10:44:30.73	302.65	39.76	-45.2	-59.8	3.8	1.49e+00	0	62	104	0	61	19850
2026-01-23 10:44:31.74	303.00	39.59	-45.1	-59.7	3.8	1.49e+00	0	62	104	0	61	19798
2026-01-23 10:44:32.75	303.35	39.42	-45.1	-59.7	3.8	1.49e+00	0	62	104	0	61	19759
2026-01-23 10:44:33.76	303.69	39.24	-45.2	-59.7	3.8	1.49e+00	0	62	104	0	61	19699
2026-01-23 10:44:34.77	304.02	39.07	-45.2	-59.6	3.8	1.49e+00	0	62	104	0	61	19583
2026-01-23 10:44:35.78	304.36	38.89	-45.2	-59.6	3.8	1.49e+00	0	62	104	0	61	19591
2026-01-23 10:44:36.79	304.69	38.72	-45.1	-59.6	3.8	1.49e+00	0	62	104	0	61	19487
2026-01-23 10:44:37.80	305.01	38.54	-45.1	-59.6	3.8	1.49e+00	0	62	104	0	61	19482
2026-01-23 10:44:38.81	305.34	38.36	-45.1	-59.6	3.8	1.49e+00	0	62	104	0	61	19502
2026-01-23 10:44:39.82	305.66	38.19	-45.1	-59.7	3.8	1.49e+00	0	62	104	0	61	19663
2026-01-23 10:44:40.83	305.97	38.01	-45.2	-59.7	3.8	1.49e+00	0	62	104	0	61	19737
2026-01-23 10:44:41.84	306.28	37.84	-45.2	-59.7	3.8	1.49e+00	0	62	104	0	61	19800
2026-01-23 10:44:42.85	306.59	37.66	-45.2	-59.7	3.8	1.49e+00	0	62	104	0	61	19686
2026-01-23 10:44:43.86	306.90	37.49	-45.1	-59.6	3.8	1.49e+00	0	62	104	0	61	19485
2026-01-23 10:44:44.87	307.20	37.31	-45.1	-59.4	3.8	1.49e+00	0	62	104	0	61	19026
2026-01-23 10:44:45.88	307.50	37.13	-45.1	-59.3	3.8	1.49e+00	0	62	104	0	61	18784
2026-01-23 10:44:46.89	307.80	36.96	-45.1	-59.5	3.8	1.49e+00	0	62	104	0	61	19183
2026-01-23 10:44:47.90	308.09	36.78	-45.1	-59.6	3.8	1.49e+00	0	62	104	0	61	19423
2026-01-23 10:44:48.91	308.38	36.61	-45.1	-59.5	3.8	1.49e+00	0	62	104	0	61	19333
2026-01-23 10:44:49.92	308.67	36.43	-45.1	-59.5	3.8	1.49e+00	0	62	104	0	61	19217
2026-01-23 10:44:50.93	308.95	36.26	-45.1	-59.2	3.8	1.49e+00	0	62	104	0	61	18670
2026-01-23 10:44:51.94	309.24	36.08	-45.1	-58.4	3.8	1.49e+00	0	62	104	0	61	16915
2026-01-23 10:44:52.95	309.51	35.91	-45.0	-56.7	4.1	1.49e+00	0	62	104	0	61	13984
2026-01-23 10:44:53.96	309.79	35.74	-44.8	-54.7	4.7	1.28e+00	0	62	0	0	61	11126
2026-01-23 10:44:54.97	310.06	35.56	-44.6	-53.6	5.4	5.76e-01	0	62	0	2097152	61	9727
2026-01-23 10:44:55.98	310.33	35.39	-44.6	-53.3	5.5	4.79e-01	0	62	0	4194304	61	9482
2026-01-23 10:44:57.00	310.60	35.21	-44.7	-54.0	5.1	5.30e-01	0	62	0	6291456	61	10231
2026-01-23 10:44:58.01	310.87	35.04	-44.7	-54.6	4.8	7.89e-01	0	62	0	8388608	61	10926
2026-01-23 10:44:59.02	311.13	34.87	-44.8	-54.9	4.7	8.53e-01	0	62	0	9437184	61	11295
2026-01-23 10:45:00.02	311.38	34.70	-44.7	-54.5	4.8	8.43e-01	0	62	0	11534336	61	10885
2026-01-23 10:45:01.04	311.64	34.52	-44.7	-53.9	5.1	6.76e-01	0	62	0	13631488	61	10143
2026-01-23 10:45:02.05	311.89	34.35	-44.4	-52.2	6.3	3.92e-01	0	62	0	15728640	60	8849
2026-01-23 10:45:03.06	312.14	34.18	-43.9	-50.0	8.3	1.12e-01	0	62	0	17825792	59	7217
2026-01-23 10:45:04.07	312.39	34.01	-43.5	-48.8	9.6	2.52e-02	0	62	0	19922944	59	6311
2026-01-23 10:45:05.08	312.64	33.84	-43.5	-48.7	9.6	1.12e-02	0	62	0	20971520	59	6260
2026-01-23 10:45:06.09	312.88	33.67	-45.1	-59.2	3.8	1.49e+00	0	62	104	22020096	60	19626
2026-01-23 10:45:07.10	313.12	33.50	-44.9	-56.0	4.2	1.49e+00	0	62	104	22020096	60	13616
2026-01-23 10:45:08.11	313.36	33.33	-44.7	-54.3	5.0	2.79e-01	0	62	0	23068672	60	11246
2026-01-23 10:45:09.12	313.60	33.16	-44.9	-56.6	3.9	8.73e-01	0	62	104	24117248	60	14593
2026-01-23 10:45:10.13	313.83	32.99	-44.9	-56.1	4.2	5.61e-02	0	62	0	24117248	60	13842
2026-01-23 10:45:11.14	314.06	32.82	-43.1	-47.6	10.8	5.61e-03	0	62	0	26214400	58	5815
2026-01-23 10:45:12.15	314.29	32.65	-42.9	-47.3	11.1	1.74e-03	0	62	0	28311552	57	5927
2026-01-23 10:45:13.16	314.51	32.48	-42.9	-47.3	11.1	1.22e-03	0	62	0	30408704	57	5953
2026-01-23 10:45:14.17	314.74	32.32	-43.3	-48.2	10.1	2.83e-03	0	62	0	31457280	57	6633
2026-01-23 10:45:15.18	314.96	32.15	-43.8	-49.8	8.5	2.30e-02	0	62	0	33554432	58	7468
2026-01-23 10:45:16.19	315.18	31.99	-44.2	-51.4	6.9	9.11e-02	0	62	0	35651584	59	8510
2026-01-23 10:45:17.20	315.40	31.82	-44.3	-51.8	6.6	1.79e-01	0	62	0	37748736	59	8881
2026-01-23 10:45:18.20	315.61	31.66	-44.1	-50.7	7.5	1.44e-01	0	62	0	39845888	59	7863
2026-01-23 10:45:19.21	315.82	31.49	-43.5	-49.0	9.2	4.53e-02	0	62	0	40894464	59	6445
2026-01-23 10:45:20.22	316.03	31.33	-43.0	-47.6	10.8	8.67e-03	0	62	0	42991616	58	5821
2026-01-23 10:45:21.23	316.24	31.16	-42.6	-46.7	11.7	8.96e-04	0	62	0	45088768	57	5541
2026-01-23 10:45:22.24	316.45	31.00	-42.4	-46.3	12.1	3.52e-04	0	62	0	47185920	56	5604
2026-01-23 10:45:23.25	316.65	30.84	-42.5	-46.5	12.0	2.67e-04	0	62	0	49283072	56	5725
2026-01-23 10:45:24.26	316.86	30.68	-42.6	-46.5	11.9	3.58e-04	0	62	0	50331648	56	5775
2026-01-23 10:45:25.27	317.06	30.52	-42.9	-47.4	11.0	1.15e-03	0	62	0	52428800	56	6362
2026-01-23 10:45:26.28	317.26	30.35	-43.2	-48.0	10.4	2.95e-03	0	62	0	54525952	56	6815
2026-01-23 10:45:27.29	317.45	30.19	-43.5	-48.8	9.5	1.16e-02	0	62	0	56623104	57	7075
2026-01-23 10:45:28.30	317.65	30.03	-43.6	-49.2	9.1	2.00e-02	0	62	0	58720256	57	7377
2026-01-23 10:45:29.31	317.84	29.88	-43.5	-48.9	9.4	1.96e-02	0	62	0	59768832	57	7131
2026-01-23 10:45:30.32	318.03	29.72	-43.4	-48.7	9.6	1.50e-02	0	62	0	61865984	57	6962
2026-01-23 10:45:31.33	318.22	29.56	-43.3	-48.3	10.0	9.12e-03	0	62	0	63963136	57	6673
2026-01-23 10:45:32.34	318.41	29.40	-43.2	-48.2	10.1	8.45e-03	0	62	0	66060288	57	6572
2026-01-23 10:45:33.35	318.60	29.24	-43.0	-47.6	10.7	4.73e-03	0	62	0	68157440	57	6181
2026-01-23 10:45:34.36	318.78	29.09	-43.0	-47.6	10.8	2.61e-03	0	62	0	69206016	57	6135
2026-01-23 10:45:35.37	318.96	28.93	-42.9	-47.4	10.9	2.44e-03	0	62	0	71303168	57	6035
2026-01-23 10:45:36.37	319.14	28.78	-43.1	-47.8	10.6	2.24e-03	0	62	0	73400320	57	6279
2026-01-23 10:45:37.38	319.32	28.62	-43.2	-48.2	10.2	5.23e-03	0	62	0	75497472	57	6574
2026-01-23 10:45:38.39	319.50	28.47	-43.2	-48.2	10.1	6.45e-03	0	62	0	77594624	57	6588
2026-01-23 10:45:39.40	319.67	28.32	-43.1	-47.9	10.4	6.32e-03	0	62	0	78643200	57	6407
2026-01-23 10:45:40.41	319.85	28.16	-42.8	-47.2	11.0	2.36e-03	0	62	0	80740352	57	5911
2026-01-23 10:45:41.42	320.02	28.01	-42.6	-46.6	11.7	8.30e-04	0	62	0	82837504	57	5504
2026-01-23 10:45:42.43	320.19	27.86	-42.3	-46.2	12.2	3.52e-04	0	62	0	84934656	56	5542
2026-01-23 10:45:43.44	320.36	27.71	-42.1	-45.6	12.8	7.70e-05	0	62	0	87031808	56	5195
2026-01-23 10:45:44.45	320.53	27.56	-42.0	-45.6	12.8	5.72e-05	0	62	0	89128960	56	5170
2026-01-23 10:45:45.45	320.69	27.41	-41.8	-45.3	13.0	6.56e-05	0	62	0	90177536	55	5286
2026-01-23 10:45:46.47	320.86	27.26	-41.7	-45.0	13.3	2.36e-05	0	62	0	92274688	55	5114
2026-01-23 10:45:47.48	321.02	27.11	-41.8	-45.3	13.0	2.51e-05	0	62	0	94371840	55	5283
2026-01-23 10:45:48.48	321.18	26.96	-41.9	-45.4	12.8	5.95e-05	0	62	0	96468992	55	5399
2026-01-23 10:45:49.50	321.34	26.81	-42.1	-45.9	12.3	9.99e-05	0	62	0	98566144	55	5660
2026-01-23 10:45:50.50	321.50	26.67	-42.3	-46.2	12.0	2.79e-04	0	62	0	99614720	55	5891
2026-01-23 10:45:51.51	321.66	26.52	-42.4	-46.4	11.8	4.19e-04	0	62	0	101711872	55	6013
2026-01-23 10:45:52.52	321.81	26.37	-42.3	-46.3	11.9	4.91e-04	0	62	0	103809024	55	5957
2026-01-23 10:45:53.53	321.97	26.23	-42.3	-46.3	11.9	4.39e-04	0	62	0	105906176	55	5935
2026-01-23 10:45:54.54	322.12	26.08	-42.3	-46.3	11.9	4.93e-04	0	62	0	108003328	55	5984
2026-01-23 10:45:55.55	322.27	25.94	-42.3	-46.2	11.9	3.77e-04	0	62	0	109051904	55	5885
2026-01-23 10:45:56.56	322.42	25.79	-42.2	-46.1	12.1	2.46e-04	0	62	0	111149056	55	5794
2026-01-23 10:45:57.57	322.57	25.65	-42.1	-45.9	12.2	2.39e-04	0	62	0	113246208	55	5702
2026-01-23 10:45:58.58	322.72	25.51	-42.1	-45.8	12.4	1.61e-04	0	62	0	115343360	55	5606
2026-01-23 10:45:59.59	322.87	25.37	-42.1	-45.9	12.3	1.85e-04	0	62	0	117440512	55	5667
2026-01-23 10:46:00.61	323.01	25.22	-42.0	-45.7	12.5	1.80e-04	0	62	0	118489088	55	5566
2026-01-23 10:46:01.61	323.16	25.08	-42.0	-45.7	12.4	1.39e-04	0	62	0	120586240	55	5585
2026-01-23 10:46:02.62	323.30	24.94	-42.0	-45.7	12.5	1.45e-04	0	62	0	122683392	55	5548
2026-01-23 10:46:03.63	323.44	24.80	-41.9	-45.5	12.7	7.85e-05	0	62	0	124780544	55	5434
2026-01-23 10:46:04.64	323.58	24.66	-41.9	-45.6	12.5	1.05e-04	0	62	0	126877696	55	5493
2026-01-23 10:46:05.65	323.72	24.53	-42.0	-45.8	12.4	1.26e-04	0	62	0	127926272	55	5622
2026-01-23 10:46:06.66	323.86	24.39	-42.1	-45.9	12.2	2.08e-04	0	62	0	130023424	55	5711
2026-01-23 10:46:07.67	324.00	24.25	-42.3	-46.3	11.8	3.55e-04	0	62	0	132120576	55	5947
2026-01-23 10:46:08.68	324.13	24.11	-42.4	-46.6	11.6	5.58e-04	0	62	0	134217728	55	6140
2026-01-23 10:46:09.69	324.27	23.98	-42.6	-46.9	11.1	1.31e-03	0	62	0	136314880	55	6411
2026-01-23 10:46:10.70	324.40	23.84	-42.7	-47.1	10.9	1.89e-03	0	62	0	137363456	55	6566
2026-01-23 10:46:11.70	324.53	23.71	-42.9	-47.5	10.7	2.82e-03	0	62	0	139460608	56	6435
2026-01-23 10:46:12.71	324.66	23.57	-42.8	-47.4	10.8	3.09e-03	0	62	0	141557760	56	6369
2026-01-23 10:46:13.72	324.79	23.44	-42.8	-47.4	10.8	2.25e-03	0	62	0	143654912	56	6360
2026-01-23 10:46:14.73	324.92	23.30	-42.6	-46.9	11.3	1.45e-03	0	62	0	145752064	56	6045
2026-01-23 10:46:15.74	325.05	23.17	-42.4	-46.5	11.7	7.33e-04	0	62	0	146800640	56	5745
2026-01-23 10:46:16.75	325.18	23.04	-42.4	-46.4	11.8	4.46e-04	0	62	0	148897792	56	5679
2026-01-23 10:46:17.76	325.30	22.91	-42.2	-46.1	12.2	3.06e-04	0	62	0	150994944	56	5486
2026-01-23 10:46:18.77	325.43	22.78	-42.2	-45.9	12.3	1.69e-04	0	62	0	153092096	56	5378
2026-01-23 10:46:19.78	325.55	22.64	-42.2	-46.1	12.2	2.27e-04	0	62	0	155189248	56	5476
2026-01-23 10:46:20.79	325.67	22.51	-42.3	-46.1	12.1	2.51e-04	0	62	0	157286400	56	5519
2026-01-23 10:46:21.80	325.80	22.38	-42.4	-46.4	11.8	3.13e-04	0	62	0	158334976	56	5673
2026-01-23 10:46:22.81	325.92	22.26	-42.4	-46.5	11.7	5.48e-04	0	62	0	160432128	56	5771
2026-01-23 10:46:23.82	326.04	22.13	-42.5	-46.6	11.6	6.02e-04	0	62	0	162529280	56	5819
2026-01-23 10:46:24.83	326.15	22.00	-42.5	-46.7	11.5	7.12e-04	0	62	0	164626432	56	5862
2026-01-23 10:46:25.84	326.27	21.87	-42.4	-46.6	11.7	6.65e-04	0	62	0	166723584	56	5796
2026-01-23 10:46:26.85	326.39	21.74	-42.4	-46.5	11.7	6.48e-04	0	62	0	167772160	56	5771
2026-01-23 10:46:27.86	326.51	21.62	-42.4	-46.4	11.7	6.71e-04	0	62	0	169869312	56	5714
2026-01-23 10:46:28.87	326.62	21.49	-42.3	-46.2	12.0	4.63e-04	0	62	0	171966464	56	5540
2026-01-23 10:46:29.88	326.74	21.37	-42.3	-46.2	12.0	2.91e-04	0	62	0	174063616	56	5572
2026-01-23 10:46:30.89	326.85	21.24	-42.3	-46.1	12.0	3.31e-04	0	62	0	176160768	56	5524
2026-01-23 10:46:31.90	326.96	21.12	-42.3	-46.2	12.0	3.55e-04	0	62	0	177209344	56	5550
2026-01-23 10:46:32.90	327.07	20.99	-42.2	-46.0	12.1	2.56e-04	0	62	0	179306496	56	5461
2026-01-23 10:46:33.92	327.19	20.87	-42.1	-45.9	12.3	2.43e-04	0	62	0	181403648	56	5357
2026-01-23 10:46:34.93	327.30	20.74	-42.1	-45.9	12.3	1.83e-04	0	62	0	183500800	56	5351
2026-01-23 10:46:35.94	327.40	20.62	-42.2	-46.0	12.1	2.47e-04	0	62	0	185597952	56	5450
2026-01-23 10:46:36.94	327.51	20.50	-42.2	-46.1	12.1	2.77e-04	0	62	0	186646528	56	5475
2026-01-23 10:46:37.95	327.62	20.38	-42.2	-46.2	12.0	2.72e-04	0	62	0	188743680	56	5534
2026-01-23 10:46:38.96	327.73	20.26	-42.2	-46.2	12.0	3.20e-04	0	62	0	190840832	56	5540
2026-01-23 10:46:39.97	327.83	20.14	-42.3	-46.3	11.8	4.11e-04	0	62	0	192937984	56	5607
2026-01-23 10:46:40.98	327.94	20.02	-42.3	-46.4	11.7	4.60e-04	0	62	0	195035136	56	5660
2026-01-23 10:46:41.99	328.04	19.90	-42.3	-46.3	11.8	4.60e-04	0	62	0	196083712	56	5619
2026-01-23 10:46:43.00	328.15	19.78	-42.3	-46.2	11.9	4.30e-04	0	62	0	198180864	56	5590
2026-01-23 10:46:44.01	328.25	19.66	-42.3	-46.3	11.8	4.65e-04	0	62	0	200278016	56	5625
2026-01-23 10:46:45.02	328.35	19.54	-42.3	-46.4	11.7	5.34e-04	0	62	0	202375168	56	5706
2026-01-23 10:46:46.03	328.45	19.43	-42.3	-46.4	11.6	6.75e-04	0	62	0	204472320	56	5712
2026-01-23 10:46:47.03	328.55	19.31	-42.4	-46.6	11.5	7.50e-04	0	62	0	205520896	56	5821
2026-01-23 10:46:48.04	328.65	19.19	-42.4	-46.5	11.5	8.67e-04	0	62	0	207618048	56	5778
2026-01-23 10:46:49.05	328.75	19.08	-42.4	-46.7	11.4	8.43e-04	0	62	0	209715200	56	5867
2026-01-23 10:46:50.06	328.85	18.96	-42.4	-46.7	11.3	9.27e-04	0	62	0	211812352	56	5879
2026-01-23 10:46:51.07	328.95	18.85	-42.5	-46.7	11.3	1.03e-03	0	62	0	213909504	56	5918
2026-01-23 10:46:52.08	329.04	18.73	-42.4	-46.7	11.3	1.14e-03	0	62	0	214958080	56	5903
2026-01-23 10:46:53.09	329.14	18.62	-42.5	-46.9	11.2	1.36e-03	0	62	0	217055232	56	5994
2026-01-23 10:46:54.10	329.24	18.50	-42.5	-46.8	11.3	1.34e-03	0	62	0	219152384	56	5937
2026-01-23 10:46:55.11	329.33	18.39	-42.5	-46.8	11.2	1.26e-03	0	62	0	221249536	56	5948
2026-01-23 10:46:56.12	329.42	18.28	-42.5	-46.8	11.2	1.38e-03	0	62	0	223346688	56	5988
2026-01-23 10:46:57.13	329.52	18.16	-42.4	-46.7	11.3	1.25e-03	0	62	0	224395264	56	5889
2026-01-23 10:46:58.14	329.61	18.05	-42.4	-46.7	11.3	1.13e-03	0	62	0	226492416	56	5903
2026-01-23 10:46:59.15	329.70	17.94	-42.4	-46.7	11.3	1.22e-03	0	62	0	228589568	56	5891
2026-01-23 10:47:00.15	329.79	17.83	-42.5	-46.8	11.2	1.31e-03	0	62	0	230686720	56	5971
2026-01-23 10:47:01.16	329.89	17.72	-42.4	-46.7	11.3	1.48e-03	0	62	0	232783872	56	5910
2026-01-23 10:47:02.17	329.98	17.61	-42.4	-46.7	11.3	1.02e-03	0	62	0	233832448	56	5890
2026-01-23 10:47:03.18	330.07	17.50	-42.4	-46.8	11.2	1.26e-03	0	62	0	235929600	56	5953
2026-01-23 10:47:04.19	330.16	17.39	-42.4	-46.7	11.2	1.57e-03	0	62	0	238026752	56	5915
2026-01-23 10:47:05.20	330.24	17.28	-42.4	-46.7	11.3	1.10e-03	0	62	0	240123904	56	5894
2026-01-23 10:47:06.21	330.33	17.17	-42.5	-46.9	11.0	1.57e-03	0	62	0	242221056	56	6019
2026-01-23 10:47:07.22	330.42	17.06	-42.4	-46.7	11.3	1.48e-03	0	62	0	243269632	56	5885
2026-01-23 10:47:08.23	330.51	16.96	-42.4	-46.7	11.2	1.40e-03	0	62	0	245366784	56	5896
2026-01-23 10:47:09.24	330.59	16.85	-42.4	-46.7	11.2	1.36e-03	0	62	0	247463936	56	5923
2026-01-23 10:47:10.25	330.68	16.74	-42.4	-46.7	11.2	1.35e-03	0	62	0	249561088	56	5873
2026-01-23 10:47:11.26	330.76	16.63	-42.4	-46.7	11.3	1.24e-03	0	62	0	251658240	56	5887
2026-01-23 10:47:12.27	330.85	16.53	-42.4	-46.7	11.2	1.32e-03	0	62	0	253755392	56	5885
2026-01-23 10:47:13.28	330.93	16.42	-42.4	-46.7	11.2	1.42e-03	0	62	0	254803968	56	5888
2026-01-23 10:47:14.29	331.01	16.32	-42.3	-46.6	11.3	1.29e-03	0	62	0	256901120	56	5840
2026-01-23 10:47:15.30	331.10	16.21	-42.3	-46.5	11.3	1.14e-03	0	62	0	258998272	56	5786
2026-01-23 10:47:16.31	331.18	16.11	-42.2	-46.5	11.4	9.56e-04	0	62	0	261095424	56	5732
2026-01-23 10:47:17.32	331.26	16.00	-42.3	-46.5	11.4	9.57e-04	0	62	0	263192576	56	5766
2026-01-23 10:47:18.32	331.34	15.90	-42.3	-46.5	11.3	1.03e-03	0	62	0	264241152	56	5766
2026-01-23 10:47:19.33	331.42	15.80	-42.3	-46.5	11.3	1.11e-03	0	62	0	266338304	56	5783
2026-01-23 10:47:20.34	331.50	15.69	-42.3	-46.5	11.3	1.06e-03	0	62	0	268435456	56	5772
2026-01-23 10:47:21.35	331.58	15.59	-42.2	-46.4	11.4	1.04e-03	0	62	0	270532608	56	5718
2026-01-23 10:47:22.36	331.66	15.49	-42.2	-46.3	11.5	8.48e-04	0	62	0	272629760	56	5656
2026-01-23 10:47:23.37	331.74	15.39	-42.2	-46.4	11.5	8.49e-04	0	62	0	273678336	56	5668
2026-01-23 10:47:24.38	331.82	15.29	-42.2	-46.5	11.3	9.47e-04	0	62	0	275775488	56	5727
2026-01-23 10:47:25.39	331.89	15.19	-42.2	-46.5	11.3	1.04e-03	0	62	0	277872640	56	5736
2026-01-23 10:47:26.40	331.97	15.08	-42.2	-46.5	11.3	1.09e-03	0	62	0	279969792	56	5775
2026-01-23 10:47:27.41	332.05	14.98	-42.3	-46.6	11.2	1.33e-03	0	62	0	282066944	56	5790
2026-01-23 10:47:28.42	332.12	14.88	-42.3	-46.6	11.1	1.41e-03	0	62	0	283115520	56	5840
2026-01-23 10:47:29.43	332.20	14.78	-42.3	-46.7	11.1	1.65e-03	0	62	0	285212672	56	5878
2026-01-23 10:47:30.44	332.28	14.69	-42.3	-46.8	10.9	1.76e-03	0	62	0	287309824	56	5961
2026-01-23 10:47:31.44	332.35	14.59	-42.4	-46.9	10.8	2.29e-03	0	62	0	289406976	56	6049
2026-01-23 10:47:32.45	332.42	14.49	-42.4	-47.1	10.7	2.89e-03	0	62	0	291504128	56	6145
2026-01-23 10:47:33.46	332.50	14.39	-42.5	-47.1	10.6	3.38e-03	0	62	0	292552704	56	6202
2026-01-23 10:47:34.47	332.57	14.29	-42.5	-47.2	10.5	3.79e-03	0	62	0	294649856	56	6229
2026-01-23 10:47:35.48	332.64	14.20	-42.5	-47.3	10.4	4.49e-03	0	62	0	296747008	56	6325
2026-01-23 10:47:36.49	332.72	14.10	-42.5	-47.3	10.3	4.79e-03	0	62	0	298844160	56	6339
2026-01-23 10:47:37.50	332.79	14.00	-42.6	-47.5	10.2	5.74e-03	0	62	0	300941312	56	6437
2026-01-23 10:47:38.51	332.86	13.91	-42.6	-47.6	10.1	6.91e-03	0	62	0	301989888	56	6522
2026-01-23 10:47:39.52	332.93	13.81	-42.6	-47.6	10.0	7.11e-03	0	62	0	304087040	56	6569
2026-01-23 10:47:40.53	333.00	13.71	-42.6	-47.5	10.1	7.48e-03	0	62	0	306184192	56	6493
2026-01-23 10:47:41.54	333.07	13.62	-42.5	-47.5	10.2	6.99e-03	0	62	0	308281344	56	6423
2026-01-23 10:47:42.55	333.14	13.52	-42.5	-47.4	10.2	5.72e-03	0	62	0	310378496	56	6374
2026-01-23 10:47:43.56	333.21	13.43	-42.5	-47.3	10.3	5.84e-03	0	62	0	311427072	56	6328
2026-01-23 10:47:44.57	333.28	13.33	-42.4	-47.3	10.3	5.34e-03	0	62	0	313524224	56	6306
2026-01-23 10:47:45.58	333.35	13.24	-42.5	-47.3	10.3	5.30e-03	0	62	0	315621376	56	6320
2026-01-23 10:47:46.59	333.42	13.15	-42.5	-47.3	10.3	5.48e-03	0	62	0	317718528	56	6309
2026-01-23 10:47:47.60	333.48	13.05	-42.4	-47.1	10.4	4.81e-03	0	62	0	319815680	56	6191
2026-01-23 10:47:48.60	333.55	12.96	-42.2	-46.8	10.8	3.41e-03	0	62	0	321912832	56	5940
2026-01-23 10:47:49.61	333.62	12.87	-42.2	-46.6	10.9	2.30e-03	0	62	0	322961408	56	5855
2026-01-23 10:47:50.62	333.68	12.78	-42.2	-46.7	10.8	2.32e-03	0	62	0	325058560	56	5905
2026-01-23 10:47:51.63	333.75	12.68	-42.2	-46.6	10.9	2.23e-03	0	62	0	327155712	56	5853
2026-01-23 10:47:52.64	333.82	12.59	-42.1	-46.6	10.9	2.07e-03	0	62	0	329252864	56	5825
2026-01-23 10:47:53.65	333.88	12.50	-42.1	-46.6	11.0	2.04e-03	0	62	0	331350016	56	5808
2026-01-23 10:47:54.66	333.95	12.41	-42.1	-46.5	11.0	1.97e-03	0	62	0	332398592	56	5781
2026-01-23 10:47:55.67	334.01	12.32	-42.1	-46.5	11.0	1.88e-03	0	62	0	334495744	56	5764
2026-01-23 10:47:56.68	334.08	12.23	-42.0	-46.4	11.1	1.66e-03	0	62	0	336592896	56	5690
2026-01-23 10:47:57.69	334.14	12.14	-42.1	-46.5	11.0	1.66e-03	0	62	0	338690048	56	5742
2026-01-23 10:47:58.70	334.20	12.05	-42.1	-46.6	10.9	1.89e-03	0	62	0	340787200	56	5797
2026-01-23 10:47:59.71	334.27	11.96	-42.1	-46.5	10.9	2.00e-03	0	62	0	341835776	56	5774
2026-01-23 10:48:00.72	334.33	11.87	-42.0	-46.5	11.0	1.91e-03	0	62	0	343932928	56	5727
2026-01-23 10:48:01.73	334.39	11.78	-42.1	-46.6	10.8	2.21e-03	0	62	0	346030080	56	5803
2026-01-23 10:48:02.73	334.45	11.69	-42.1	-46.7	10.8	2.49e-03	0	62	0	348127232	56	5877
2026-01-23 10:48:03.75	334.52	11.60	-42.1	-46.7	10.6	3.01e-03	0	62	0	350224384	56	5923
2026-01-23 10:48:04.75	334.58	11.52	-42.2	-46.8	10.6	3.63e-03	0	62	0	351272960	56	5974
2026-01-23 10:48:05.77	334.64	11.43	-42.2	-47.0	10.4	3.81e-03	0	62	0	353370112	56	6065
2026-01-23 10:48:06.77	334.70	11.34	-42.3	-47.2	10.2	5.74e-03	0	62	0	355467264	56	6222
2026-01-23 10:48:07.78	334.76	11.25	-42.3	-47.3	10.0	6.72e-03	0	62	0	357564416	56	6300
2026-01-23 10:48:08.79	334.82	11.17	-42.3	-47.3	10.0	8.22e-03	0	62	0	359661568	56	6341
2026-01-23 10:48:09.80	334.88	11.08	-42.3	-47.5	9.8	9.37e-03	0	62	0	360710144	56	6425
2026-01-23 10:48:10.81	334.94	10.99	-42.4	-47.7	9.5	1.18e-02	0	62	0	362807296	56	6629
2026-01-23 10:48:11.82	335.00	10.91	-42.5	-47.9	9.4	1.54e-02	0	62	0	364904448	56	6750
2026-01-23 10:48:12.83	335.06	10.82	-42.5	-48.1	9.1	1.97e-02	0	62	0	367001600	56	6929
2026-01-23 10:48:13.84	335.12	10.74	-42.6	-48.2	9.0	2.45e-02	0	62	0	369098752	56	6983
2026-01-23 10:48:14.85	335.17	10.65	-42.6	-48.2	9.0	2.37e-02	0	62	0	370147328	56	7000
2026-01-23 10:48:15.86	335.23	10.57	-42.5	-48.2	9.0	2.57e-02	0	62	0	372244480	56	6995
2026-01-23 10:48:16.87	335.29	10.48	-42.5	-48.2	8.9	2.69e-02	0	62	0	374341632	56	6962
2026-01-23 10:48:17.88	335.35	10.40	-42.5	-48.2	8.9	2.95e-02	0	62	0	376438784	56	6994
2026-01-23 10:48:18.89	335.40	10.31	-42.6	-48.4	8.6	3.23e-02	0	62	0	378535936	56	7187
2026-01-23 10:48:19.89	335.46	10.23	-42.5	-48.4	8.6	3.55e-02	0	62	0	379584512	56	7188
2026-01-23 10:48:20.90	335.52	10.15	-42.5	-48.3	8.7	3.59e-02	0	62	0	381681664	56	7112
2026-01-23 10:48:21.91	335.57	10.06	-42.5	-48.3	8.6	3.62e-02	0	62	0	383778816	56	7117
2026-01-23 10:48:22.92	335.63	9.98	-42.4	-48.2	8.7	3.57e-02	0	62	0	385875968	56	7039
2026-01-23 10:48:23.93	335.68	9.90	-42.4	-48.2	8.7	3.52e-02	0	62	0	387973120	56	7022
2026-01-23 10:48:24.94	335.74	9.81	-42.4	-48.4	8.5	3.96e-02	0	62	0	390070272	56	7149
2026-01-23 10:48:25.95	335.79	9.73	-42.4	-48.3	8.5	4.44e-02	0	62	0	391118848	56	7093
2026-01-23 10:48:26.96	335.85	9.65	-42.4	-48.4	8.5	4.07e-02	0	62	0	393216000	56	7133
2026-01-23 10:48:27.97	335.90	9.57	-42.4	-48.3	8.4	4.41e-02	0	62	0	395313152	56	7109
2026-01-23 10:48:28.98	335.96	9.49	-42.4	-48.2	8.5	4.02e-02	0	62	0	397410304	56	7036
2026-01-23 10:48:29.99	336.01	9.40	-42.3	-48.0	8.8	3.49e-02	0	62	0	399507456	56	6856
2026-01-23 10:48:31.00	336.06	9.32	-42.2	-47.8	9.0	2.65e-02	0	62	0	400556032	56	6660
2026-01-23 10:48:32.01	336.12	9.24	-42.2	-47.7	9.0	2.34e-02	0	62	0	402653184	56	6631
2026-01-23 10:48:33.01	336.17	9.16	-42.2	-47.8	9.0	2.55e-02	0	62	0	404750336	56	6679
2026-01-23 10:48:34.02	336.22	9.08	-42.2	-47.8	8.9	2.70e-02	0	62	0	406847488	56	6708
2026-01-23 10:48:35.03	336.27	9.00	-42.2	-47.9	8.9	2.85e-02	0	62	0	408944640	56	6732
2026-01-23 10:48:36.04	336.33	8.92	-42.1	-47.7	9.0	2.50e-02	0	62	0	409993216	56	6601
2026-01-23 10:48:37.05	336.38	8.84	-42.1	-47.6	9.1	2.33e-02	0	62	0	412090368	56	6530
2026-01-23 10:48:38.06	336.43	8.76	-42.1	-47.7	9.0	2.51e-02	0	62	0	414187520	56	6636
2026-01-23 10:48:39.07	336.48	8.68	-42.0	-47.5	9.2	2.36e-02	0	62	0	416284672	56	6433
2026-01-23 10:48:40.08	336.53	8.60	-41.8	-47.3	9.3	1.70e-02	0	62	0	418381824	55	6648
2026-01-23 10:48:41.09	336.58	8.53	-41.9	-47.3	9.2	1.94e-02	0	62	0	419430400	55	6684
2026-01-23 10:48:42.10	336.63	8.45	-41.8	-47.2	9.3	2.01e-02	0	62	0	421527552	55	6639
2026-01-23 10:48:43.10	336.68	8.37	-41.8	-47.2	9.2	1.90e-02	0	62	0	423624704	55	6645
2026-01-23 10:48:44.11	336.73	8.29	-41.8	-47.3	9.1	2.21e-02	0	62	0	425721856	55	6710
2026-01-23 10:48:45.13	336.79	8.21	-41.8	-47.4	9.0	2.25e-02	0	62	0	427819008	55	6760
2026-01-23 10:48:46.13	336.83	8.14	-41.9	-47.5	8.8	2.74e-02	0	62	0	428867584	55	6865
2026-01-23 10:48:47.15	336.88	8.06	-41.8	-47.5	8.9	3.06e-02	0	62	0	430964736	55	6820
2026-01-23 10:48:48.16	336.93	7.98	-44.2	-58.4	3.8	9.72e-01	0	62	104	432013312	58	20171
2026-01-23 10:48:49.17	336.98	7.90	-44.7	-59.0	3.8	1.49e+00	0	62	104	432013312	59	20487
2026-01-23 10:48:50.17	337.03	7.83	-44.8	-59.4	3.8	1.49e+00	0	62	104	432013312	60	20135
2026-01-23 10:48:51.18	337.08	7.75	-45.0	-59.6	3.8	1.49e+00	0	62	104	432013312	60	20707
2026-01-23 10:48:52.19	337.13	7.68	-45.2	-59.8	3.8	1.49e+00	0	62	104	432013312	60	21091
2026-01-23 10:48:53.20	337.18	7.60	-45.2	-59.8	3.8	1.49e+00	0	62	104	432013312	61	20030
2026-01-23 10:48:54.21	337.22	7.52	-45.3	-59.9	3.8	1.49e+00	0	62	104	432013312	61	20297
2026-01-23 10:48:55.22	337.27	7.45	-45.3	-60.0	3.8	1.49e+00	0	62	104	432013312	61	20319
2026-01-23 10:48:56.23	337.32	7.37	-45.3	-60.0	3.8	1.49e+00	0	62	104	432013312	61	20356
2026-01-23 10:48:57.24	337.37	7.30	-45.3	-59.9	3.8	1.49e+00	0	62	104	432013312	61	20287
2026-01-23 10:48:58.25	337.41	7.22	-45.3	-60.0	3.8	1.49e+00	0	62	104	432013312	61	20312
2026-01-23 10:48:59.26	337.46	7.15	-45.3	-59.9	3.8	1.49e+00	0	62	104	432013312	61	20260
2026-01-23 10:49:00.27	337.51	7.07	-45.3	-59.9	3.8	1.49e+00	0	62	104	432013312	61	20241
2026-01-23 10:49:01.28	337.55	7.00	-45.3	-59.9	3.8	1.49e+00	0	62	104	432013312	61	20129
2026-01-23 10:49:02.29	337.60	6.92	-45.3	-59.9	3.8	1.49e+00	0	62	104	432013312	61	20211
2026-01-23 10:49:03.30	337.64	6.85	-45.2	-59.8	3.8	1.49e+00	0	62	104	432013312	61	19969
2026-01-23 10:49:04.31	337.69	6.78	-45.2	-59.8	3.8	1.49e+00	0	62	104	432013312	61	19957
2026-01-23 10:49:05.32	337.74	6.70	-45.2	-59.8	3.8	1.49e+00	0	62	104	432013312	61	19922
2026-01-23 10:49:06.33	337.78	6.63	-45.2	-59.8	3.8	1.49e+00	0	62	104	432013312	61	19891
2026-01-23 10:49:07.34	337.83	6.56	-45.2	-59.8	3.9	1.49e+00	0	62	104	432013312	61	19996
2026-01-23 10:49:08.35	337.87	6.48	-45.2	-59.8	3.8	1.49e+00	0	62	104	432013312	61	19949
2026-01-23 10:49:09.36	337.92	6.41	-45.2	-59.8	3.8	1.49e+00	0	62	104	432013312	61	19947
2026-01-23 10:49:10.37	337.96	6.34	-45.2	-59.8	3.8	1.49e+00	0	62	104	432013312	61	20016
2026-01-23 10:49:11.38	338.00	6.26	-45.2	-59.8	3.8	1.49e+00	0	62	104	432013312	61	19936
2026-01-23 10:49:12.39	338.05	6.19	-45.2	-59.8	3.8	1.49e+00	0	62	104	432013312	60	21147
2026-01-23 10:49:13.41	338.09	6.12	-45.2	-59.8	3.8	1.49e+00	0	62	104	432013312	61	19857
2026-01-23 10:49:14.42	338.14	6.05	-45.1	-59.8	3.8	1.49e+00	0	62	104	432013312	61	19854
2026-01-23 10:49:15.43	338.18	5.98	-45.1	-59.8	3.8	1.49e+00	0	62	104	432013312	61	19918
2026-01-23 10:49:16.44	338.22	5.90	-45.0	-59.8	3.8	1.49e+00	0	62	104	432013312	61	19843
2026-01-23 10:49:17.45	338.27	5.83	-45.2	-59.8	3.8	1.49e+00	0	62	104	432013312	61	19916
2026-01-23 10:49:18.46	338.31	5.76	-45.2	-59.7	3.8	1.49e+00	0	62	104	432013312	61	19827
2026-01-23 10:49:19.47	338.35	5.69	-45.2	-59.8	3.8	1.49e+00	0	62	104	432013312	61	19972
2026-01-23 10:49:20.48	338.39	5.62	-45.0	-59.8	3.8	1.49e+00	0	62	104	432013312	61	19932
2026-01-23 10:49:21.49	338.44	5.55	-45.2	-59.8	3.8	1.49e+00	0	62	104	432013312	61	19930
2026-01-23 10:49:22.50	338.48	5.48	-45.2	-59.8	3.8	1.49e+00	0	62	104	432013312	61	19937
2026-01-23 10:49:23.51	338.52	5.41	-45.2	-59.8	3.8	1.49e+00	0	62	104	432013312	61	19906
2026-01-23 10:49:24.52	338.56	5.34	-45.2	-59.8	3.8	1.49e+00	0	62	104	432013312	60	21133
2026-01-23 10:49:25.53	338.60	5.27	-45.0	-59.8	3.8	1.49e+00	0	62	104	432013312	60	21060
2026-01-23 10:49:26.54	338.65	5.20	-45.1	-59.8	3.8	1.49e+00	0	62	104	432013312	60	21087
2026-01-23 10:49:27.55	338.69	5.13	-45.2	-59.8	3.8	1.49e+00	0	62	104	432013312	60	21089
2026-01-23 10:49:28.56	338.73	5.06	-45.2	-59.8	3.8	1.49e+00	0	62	104	432013312	60	21110
2026-01-23 10:49:29.57	338.77	4.99	-45.2	-59.8	3.8	1.49e+00	0	62	104	432013312	60	21100
2026-01-23 10:49:30.58	338.81	4.92	-45.2	-59.8	3.8	1.49e+00	0	62	104	432013312	60	21067
2026-01-23 10:49:31.59	338.85	4.85	-45.2	-59.8	3.8	1.49e+00	0	62	104	432013312	60	21155
2026-01-23 10:49:32.60	338.89	4.78	-45.2	-59.8	3.8	1.49e+00	0	62	104	432013312	60	21116
2026-01-23 10:49:33.61	338.93	4.72	-45.1	-59.8	3.8	1.49e+00	0	62	104	432013312	60	21073
2026-01-23 10:49:34.62	338.97	4.65	-45.1	-59.8	3.8	1.49e+00	0	62	104	432013312	60	21089
2026-01-23 10:49:35.63	339.01	4.58	-44.7	-59.7	3.8	1.49e+00	0	62	104	432013312	60	21001
2026-01-23 10:49:36.64	339.05	4.51	-45.1	-59.8	3.8	1.49e+00	0	62	104	432013312	60	21049
2026-01-23 10:49:37.65	339.09	4.44	-45.2	-59.8	3.8	1.49e+00	0	62	104	432013312	60	21046
2026-01-23 10:49:38.66	339.13	4.38	-45.2	-59.8	3.8	1.49e+00	0	62	104	432013312	60	21057
2026-01-23 10:49:39.67	339.17	4.31	-45.2	-59.7	3.8	1.49e+00	0	62	104	432013312	60	20989
2026-01-23 10:49:40.68	339.21	4.24	-45.2	-59.8	3.8	1.49e+00	0	62	104	432013312	60	21075
2026-01-23 10:49:41.69	339.25	4.17	-45.2	-59.8	3.8	1.49e+00	0	62	104	432013312	60	21054
2026-01-23 10:49:42.70	339.29	4.11	-45.2	-59.7	3.8	1.49e+00	0	62	104	432013312	60	20980
2026-01-23 10:49:43.71	339.32	4.04	-45.0	-59.8	3.8	1.49e+00	0	62	104	432013312	60	21117
2026-01-23 10:49:44.72	339.36	3.97	-45.2	-59.8	3.8	1.49e+00	0	62	104	432013312	60	21107
2026-01-23 10:49:45.73	339.40	3.91	-45.2	-59.7	3.8	1.49e+00	0	62	104	432013312	60	20988
2026-01-23 10:49:46.74	339.44	3.84	-45.2	-59.8	3.8	1.49e+00	0	62	104	432013312	60	21067
2026-01-23 10:49:47.75	339.48	3.77	-45.2	-59.8	3.8	1.49e+00	0	62	104	432013312	60	21077
2026-01-23 10:49:48.76	339.52	3.71	-45.2	-59.8	3.8	1.49e+00	0	62	104	432013312	60	21053
2026-01-23 10:49:49.78	339.55	3.64	-45.2	-59.7	3.8	1.49e+00	0	62	104	432013312	60	20999
2026-01-23 10:49:50.79	339.59	3.58	-45.2	-59.7	3.8	1.49e+00	0	62	104	432013312	60	20938
2026-01-23 10:49:51.80	339.63	3.51	-45.2	-59.7	3.8	1.49e+00	0	62	104	432013312	60	21014
2026-01-23 10:49:52.80	339.67	3.44	-45.2	-59.7	3.8	1.49e+00	0	62	104	432013312	60	20946
2026-01-23 10:49:53.82	339.70	3.38	-45.2	-59.8	3.8	1.49e+00	0	62	104	432013312	60	21039
2026-01-23 10:49:54.83	339.74	3.31	-45.1	-59.7	3.8	1.49e+00	0	62	104	432013312	60	21009
2026-01-23 10:49:55.84	339.78	3.25	-45.1	-59.7	3.8	1.49e+00	0	62	104	432013312	60	21010
2026-01-23 10:49:56.85	339.81	3.18	-45.2	-59.7	3.8	1.49e+00	0	62	104	432013312	60	20942
2026-01-23 10:49:57.86	339.85	3.12	-45.1	-59.7	3.8	1.49e+00	0	62	104	432013312	60	21009
2026-01-23 10:49:58.87	339.89	3.05	-45.1	-59.7	3.8	1.49e+00	0	62	104	432013312	60	20925
2026-01-23 10:49:59.88	339.92	2.99	-45.1	-59.7	3.8	1.49e+00	0	62	104	432013312	60	20976
2026-01-23 10:50:00.89	339.96	2.92	-45.1	-59.7	3.8	1.49e+00	0	63	104	432013312	60	20933
2026-01-23 10:50:01.90	340.00	2.86	-45.1	-59.7	3.8	1.49e+00	0	62	104	432013312	60	20942
2026-01-23 10:50:02.91	340.03	2.80	-45.0	-59.7	3.8	1.49e+00	0	62	104	432013312	60	20859
2026-01-23 10:50:03.92	340.07	2.73	-44.8	-59.7	3.8	1.49e+00	0	62	104	432013312	60	20941
2026-01-23 10:50:04.93	340.10	2.67	-45.2	-59.8	3.8	1.49e+00	0	62	104	432013312	60	21088
2026-01-23 10:50:05.94	340.14	2.61	-45.2	-59.7	3.8	1.49e+00	0	62	104	432013312	60	21005
2026-01-23 10:50:06.95	340.17	2.54	-45.2	-59.7	3.8	1.49e+00	0	62	104	432013312	60	20983
2026-01-23 10:50:07.96	340.21	2.48	-45.1	-59.7	3.8	1.49e+00	0	62	104	432013312	60	20958
2026-01-23 10:50:08.97	340.24	2.41	-45.2	-59.7	3.8	1.49e+00	0	62	104	432013312	60	20883
2026-01-23 10:50:09.98	340.28	2.35	-45.1	-59.7	3.8	1.49e+00	0	62	104	432013312	60	20967
2026-01-23 10:50:10.99	340.31	2.29	-45.1	-59.7	3.8	1.49e+00	0	62	104	432013312	60	20935
2026-01-23 10:50:12.00	340.35	2.23	-45.1	-59.7	3.8	1.49e+00	0	62	104	432013312	60	20895
2026-01-23 10:50:13.01	340.38	2.16	-45.1	-59.7	3.8	1.49e+00	0	62	104	432013312	60	20929
2026-01-23 10:50:14.02	340.42	2.10	-45.1	-59.7	3.8	1.49e+00	0	62	104	432013312	60	20931
2026-01-23 10:50:15.03	340.45	2.04	-45.1	-59.7	3.8	1.49e+00	0	62	104	432013312	60	20970
2026-01-23 10:50:16.04	340.49	1.98	-45.0	-59.7	3.8	1.49e+00	0	62	104	432013312	60	20840

#Closed at: 2026-01-23 10:50:16
#Recorded file [432 MB]: D:/lorett/data/31039_260123_134411.dat