passes_logs/2026/01/23/R2.0S_Moscow/R2.0S_Moscow__20260123_174656_FENGYUN_3G_rec.log

#Pass ID: 20260123_174656_FENGYUN 3G
#Satellite: FENGYUN 3G
#Configuration: FENGYUN 3G
#almurnet v.1.7.20251203
#Start time: 2026-01-23 17:46:58

#Version: 2.2.20231116
#Station: R2.0S_Moscow
#Location: 37.707566 lon 55.798166 lat
#TLE: 1 56232U 23055A   26022.95932522  .00036289  00000+0  55235-3 0  9992
#TLE: 2 56232  49.9946  14.8507 0004090  68.3647 291.7756 15.54106507157434

#Time	Az	El	Level	Level2	SNR	BER	BlckErr	Temp	State	Recorded	gain1	gain2
2026-01-23 17:46:58.52	212.69	2.10	-44.0	-62.0	3.8	8.46e-01	0	51	0	0	59	28887
2026-01-23 17:46:59.52	212.58	2.16	-44.0	-62.0	3.8	8.45e-01	0	52	104	0	59	28887
2026-01-23 17:47:00.54	212.47	2.22	-44.0	-62.0	3.8	8.45e-01	0	52	104	0	59	28885
2026-01-23 17:47:01.55	212.36	2.28	-44.0	-62.0	3.8	8.46e-01	0	52	104	0	59	28825
2026-01-23 17:47:02.56	212.25	2.34	-44.0	-62.0	3.8	8.46e-01	0	52	104	0	59	28815
2026-01-23 17:47:03.57	212.14	2.40	-44.0	-62.0	3.8	8.46e-01	0	52	104	0	59	28872
2026-01-23 17:47:04.58	212.03	2.46	-44.0	-62.0	3.8	8.45e-01	0	52	104	0	59	28835
2026-01-23 17:47:05.59	211.92	2.52	-44.0	-62.0	3.8	8.45e-01	0	52	104	0	59	28877
2026-01-23 17:47:06.60	211.81	2.58	-44.0	-62.0	3.8	8.46e-01	0	52	104	0	59	28819
2026-01-23 17:47:07.62	211.69	2.64	-44.0	-62.0	3.8	8.47e-01	0	52	104	0	59	28814
2026-01-23 17:47:08.63	211.58	2.70	-44.0	-62.0	3.8	8.47e-01	0	52	104	0	59	28840
2026-01-23 17:47:09.64	211.46	2.76	-44.0	-62.0	3.8	8.46e-01	0	53	104	0	59	28836
2026-01-23 17:47:10.65	211.35	2.83	-44.0	-62.0	3.8	8.45e-01	0	53	104	0	59	28779
2026-01-23 17:47:11.66	211.23	2.89	-44.0	-62.0	3.8	8.45e-01	0	53	104	0	59	28834
2026-01-23 17:47:12.67	211.12	2.95	-44.0	-62.0	3.8	8.46e-01	0	53	104	0	59	28884
2026-01-23 17:47:13.68	211.00	3.01	-44.0	-62.0	3.8	8.46e-01	0	53	104	0	59	28865
2026-01-23 17:47:14.69	210.88	3.07	-44.0	-62.0	3.8	8.45e-01	0	53	104	0	59	28844
2026-01-23 17:47:15.70	210.76	3.13	-44.0	-62.0	3.8	8.45e-01	0	53	104	0	59	28810
2026-01-23 17:47:16.71	210.64	3.19	-44.0	-62.0	3.8	8.46e-01	0	53	104	0	59	28757
2026-01-23 17:47:17.72	210.52	3.25	-44.0	-62.0	3.8	8.46e-01	0	53	104	0	59	28816
2026-01-23 17:47:18.73	210.40	3.32	-44.0	-62.0	3.8	8.46e-01	0	53	104	0	59	28759
2026-01-23 17:47:19.74	210.28	3.38	-43.9	-62.0	3.8	8.46e-01	0	53	104	0	59	28782
2026-01-23 17:47:20.75	210.16	3.44	-44.0	-62.0	3.8	8.46e-01	0	53	104	0	59	28800
2026-01-23 17:47:21.76	210.04	3.50	-44.0	-62.0	3.8	8.46e-01	0	53	104	0	59	28783
2026-01-23 17:47:22.77	209.91	3.57	-44.0	-62.0	3.8	8.46e-01	0	54	104	0	59	28686
2026-01-23 17:47:23.79	209.79	3.63	-44.0	-62.0	3.8	8.46e-01	0	54	104	0	59	28744
2026-01-23 17:47:24.80	209.66	3.69	-43.9	-62.0	3.8	8.45e-01	0	54	104	0	59	28774
2026-01-23 17:47:25.81	209.53	3.75	-44.0	-61.9	3.8	8.45e-01	0	54	104	0	59	28592
2026-01-23 17:47:26.82	209.41	3.82	-44.0	-61.9	3.8	8.45e-01	0	54	104	0	59	28657
2026-01-23 17:47:27.83	209.28	3.88	-44.0	-61.9	3.8	8.47e-01	0	54	104	0	59	28615
2026-01-23 17:47:28.84	209.15	3.94	-44.0	-62.0	3.8	8.47e-01	0	54	104	0	59	28680
2026-01-23 17:47:29.85	209.02	4.01	-44.0	-62.0	3.8	8.46e-01	0	54	104	0	59	28707
2026-01-23 17:47:30.86	208.89	4.07	-44.0	-61.9	3.8	8.46e-01	0	54	104	0	59	28678
2026-01-23 17:47:31.87	208.76	4.13	-44.0	-61.8	3.8	8.46e-01	0	54	104	0	59	28340
2026-01-23 17:47:32.88	208.63	4.20	-44.0	-61.9	3.8	8.46e-01	0	54	104	0	59	28595
2026-01-23 17:47:33.89	208.50	4.26	-44.0	-61.9	3.8	8.45e-01	0	54	104	0	59	28414
2026-01-23 17:47:34.90	208.36	4.32	-43.9	-61.9	3.8	8.45e-01	0	54	104	0	59	28418
2026-01-23 17:47:35.91	208.23	4.39	-44.0	-61.9	3.8	8.46e-01	0	54	104	0	59	28402
2026-01-23 17:47:36.92	208.09	4.45	-43.9	-61.9	3.8	8.47e-01	0	54	104	0	59	28461
2026-01-23 17:47:37.93	207.96	4.52	-44.0	-61.9	3.8	8.46e-01	0	54	104	0	59	28509
2026-01-23 17:47:38.94	207.82	4.58	-44.0	-61.9	3.8	8.46e-01	0	54	104	0	59	28352
2026-01-23 17:47:39.95	207.68	4.65	-43.9	-61.9	3.8	8.46e-01	0	54	104	0	59	28455
2026-01-23 17:47:40.96	207.54	4.71	-44.0	-61.9	3.8	8.48e-01	0	55	104	0	59	28633
2026-01-23 17:47:41.97	207.40	4.77	-44.0	-61.9	3.8	8.48e-01	0	54	104	0	59	28601
2026-01-23 17:47:42.98	207.26	4.84	-43.9	-61.9	3.8	8.45e-01	0	54	104	0	59	28464
2026-01-23 17:47:43.99	207.12	4.90	-43.9	-61.9	3.8	8.46e-01	0	55	104	0	59	28555
2026-01-23 17:47:45.00	206.98	4.97	-43.9	-61.9	3.8	8.46e-01	0	55	104	0	59	28570
2026-01-23 17:47:46.02	206.83	5.04	-43.9	-61.7	3.8	8.46e-01	0	55	104	0	59	27942
2026-01-23 17:47:47.03	206.69	5.10	-43.9	-61.6	3.8	8.45e-01	0	55	104	0	59	27494
2026-01-23 17:47:48.04	206.55	5.17	-43.9	-61.6	3.8	8.45e-01	0	55	104	0	59	27623
2026-01-23 17:47:49.04	206.40	5.23	-43.9	-61.7	3.8	8.45e-01	0	55	104	0	59	27904
2026-01-23 17:47:50.06	206.25	5.30	-43.9	-61.8	3.8	8.46e-01	0	55	104	0	59	28043
2026-01-23 17:47:51.07	206.11	5.36	-43.9	-61.9	3.8	8.46e-01	0	55	104	0	59	28401
2026-01-23 17:47:52.08	205.96	5.43	-43.9	-61.9	3.8	8.46e-01	0	55	104	0	59	28594
2026-01-23 17:47:53.09	205.81	5.49	-43.9	-61.8	3.8	8.46e-01	0	55	104	0	59	28344
2026-01-23 17:47:54.10	205.66	5.56	-43.9	-61.9	3.8	8.47e-01	0	55	104	0	59	28580
2026-01-23 17:47:55.11	205.50	5.63	-43.9	-61.8	3.8	8.47e-01	0	55	104	0	59	28341
2026-01-23 17:47:56.12	205.35	5.69	-43.9	-61.9	3.8	8.46e-01	0	55	104	0	59	28626
2026-01-23 17:47:57.13	205.20	5.76	-43.9	-61.9	3.8	8.47e-01	0	55	104	0	59	28425
2026-01-23 17:47:58.14	205.04	5.83	-43.9	-61.7	3.8	8.47e-01	0	55	104	0	59	27717
2026-01-23 17:47:59.15	204.89	5.89	-43.9	-61.4	3.8	8.46e-01	0	55	104	0	59	26976
2026-01-23 17:48:00.16	204.73	5.96	-43.9	-60.8	3.8	8.46e-01	0	55	104	0	59	25185
2026-01-23 17:48:01.17	204.57	6.03	-43.9	-60.4	3.8	8.46e-01	0	56	104	0	59	24029
2026-01-23 17:48:02.18	204.41	6.09	-43.9	-60.1	3.8	8.46e-01	0	55	104	0	59	23273
2026-01-23 17:48:03.20	204.25	6.16	-43.9	-60.6	3.8	8.46e-01	0	56	104	0	59	24449
2026-01-23 17:48:04.21	204.09	6.23	-43.9	-61.0	3.8	8.47e-01	0	56	104	0	59	25804
2026-01-23 17:48:05.22	203.93	6.30	-43.9	-61.3	3.8	8.47e-01	0	56	104	0	59	26670
2026-01-23 17:48:06.23	203.77	6.36	-43.9	-61.6	3.8	8.47e-01	0	56	104	0	59	27648
2026-01-23 17:48:07.24	203.60	6.43	-43.9	-61.4	3.8	8.46e-01	0	56	104	0	59	26812
2026-01-23 17:48:08.25	203.44	6.50	-43.9	-60.8	3.8	8.46e-01	0	56	104	0	59	25224
2026-01-23 17:48:09.26	203.27	6.57	-43.9	-60.2	3.8	8.46e-01	0	56	104	0	59	23359
2026-01-23 17:48:10.27	203.10	6.63	-43.9	-59.5	3.8	8.46e-01	0	56	104	0	59	21528
2026-01-23 17:48:11.28	202.94	6.70	-43.8	-58.6	4.1	8.46e-01	0	56	104	0	59	19443
2026-01-23 17:48:12.29	202.77	6.77	-43.8	-58.4	4.2	8.42e-01	0	56	0	0	59	19056
2026-01-23 17:48:13.30	202.60	6.84	-43.8	-58.2	4.3	8.38e-01	0	56	0	0	59	18644
2026-01-23 17:48:14.31	202.42	6.91	-43.8	-57.7	4.4	8.38e-01	0	56	0	0	59	17651
2026-01-23 17:48:15.32	202.25	6.98	-43.8	-57.1	4.6	8.33e-01	0	56	0	0	59	16335
2026-01-23 17:48:16.33	202.08	7.04	-43.7	-56.3	5.1	8.13e-01	0	56	0	0	59	15017
2026-01-23 17:48:17.34	201.90	7.11	-43.6	-54.4	6.3	6.86e-01	0	56	0	0	59	12054
2026-01-23 17:48:18.35	201.73	7.18	-43.4	-52.8	7.9	6.86e-01	0	56	0	1048576	58	10555
2026-01-23 17:48:19.36	201.55	7.25	-43.2	-51.8	8.8	1.47e-01	0	56	0	2621440	58	9456
2026-01-23 17:48:20.37	201.37	7.32	-43.1	-51.0	9.6	3.53e-02	0	56	0	3670016	58	8661
2026-01-23 17:48:21.38	201.19	7.39	-43.0	-50.8	9.9	3.53e-02	0	56	0	4718592	58	8450
2026-01-23 17:48:22.40	201.01	7.46	-43.1	-51.4	9.3	1.18e-02	0	56	0	5767168	58	9007
2026-01-23 17:48:23.40	200.83	7.52	-43.5	-53.6	7.2	2.90e-02	0	56	0	6815744	58	11609
2026-01-23 17:48:24.41	200.64	7.59	-43.8	-57.8	4.4	2.90e-02	0	56	0	7340032	58	18751
2026-01-23 17:48:25.42	200.46	7.66	-43.9	-60.8	3.8	4.60e-01	0	56	104	7340032	58	26588
2026-01-23 17:48:26.44	200.27	7.73	-43.5	-54.2	6.4	8.43e-01	0	56	0	7340032	58	12421
2026-01-23 17:48:27.45	200.08	7.80	-42.9	-50.3	10.2	2.40e-01	0	57	0	8388608	57	8426
2026-01-23 17:48:28.46	199.90	7.87	-42.0	-47.4	13.4	2.40e-01	0	56	0	9437184	56	6371
2026-01-23 17:48:29.47	199.71	7.94	-41.3	-45.9	14.8	9.29e-04	0	57	0	10485760	54	6053
2026-01-23 17:48:30.48	199.52	8.01	-41.1	-45.5	15.3	0.00e+00	0	57	0	12058624	54	5743
2026-01-23 17:48:31.49	199.32	8.08	-41.2	-45.4	15.9	0.00e+00	0	57	0	13107200	53	6025
2026-01-23 17:48:32.50	199.13	8.15	-43.3	-50.7	10.2	7.98e-04	0	57	0	14155776	58	8304
2026-01-23 17:48:33.51	198.94	8.22	-41.1	-45.2	15.9	4.95e-02	0	57	0	15204352	54	5590
2026-01-23 17:48:34.52	198.74	8.29	-42.9	-50.4	8.8	4.95e-02	0	57	0	15728640	57	8472
2026-01-23 17:48:35.53	198.54	8.36	-41.2	-45.5	15.6	2.97e-01	0	56	0	16777216	54	5744
2026-01-23 17:48:36.54	198.34	8.43	-42.4	-48.4	11.9	8.91e-03	0	57	0	18350080	57	6795
2026-01-23 17:48:37.55	198.14	8.50	-41.3	-45.7	15.1	8.91e-03	0	57	0	19398656	54	5922
2026-01-23 17:48:38.56	197.94	8.57	-41.1	-45.3	15.7	3.90e-03	0	57	0	20447232	54	5604
2026-01-23 17:48:39.57	197.74	8.64	-40.9	-44.9	16.1	0.00e+00	0	57	0	21495808	53	5673
2026-01-23 17:48:40.58	197.54	8.71	-40.8	-44.5	16.5	0.00e+00	0	57	0	22544384	53	5444
2026-01-23 17:48:41.59	197.33	8.78	-40.6	-44.2	16.9	0.00e+00	0	57	0	23592960	53	5229
2026-01-23 17:48:42.60	197.12	8.85	-40.5	-44.0	17.1	0.00e+00	0	57	0	25165824	53	5152
2026-01-23 17:48:43.61	196.92	8.92	-40.6	-44.1	17.0	0.00e+00	0	57	0	26214400	53	5193
2026-01-23 17:48:44.62	196.71	8.99	-40.6	-44.1	17.0	0.00e+00	0	57	0	27262976	53	5210
2026-01-23 17:48:45.63	196.50	9.06	-40.6	-44.2	16.9	0.00e+00	0	57	0	28311552	53	5261
2026-01-23 17:48:46.64	196.28	9.13	-40.7	-44.3	16.9	0.00e+00	0	57	0	29360128	53	5288
2026-01-23 17:48:47.65	196.07	9.20	-40.8	-44.5	16.6	0.00e+00	0	57	0	30408704	53	5435
2026-01-23 17:48:48.65	195.86	9.27	-40.9	-44.6	16.5	0.00e+00	0	57	0	31457280	53	5521
2026-01-23 17:48:49.66	195.64	9.34	-41.0	-44.8	16.4	0.00e+00	0	57	0	33030144	53	5605
2026-01-23 17:48:50.67	195.42	9.41	-41.0	-44.8	16.4	0.00e+00	0	57	0	34078720	53	5595
2026-01-23 17:48:51.68	195.20	9.48	-40.9	-44.7	16.4	0.00e+00	0	57	0	35127296	53	5567
2026-01-23 17:48:52.69	194.98	9.55	-40.9	-44.7	16.5	0.00e+00	0	57	0	36175872	53	5541
2026-01-23 17:48:53.70	194.76	9.62	-40.9	-44.7	16.5	0.00e+00	0	57	0	37224448	53	5544
2026-01-23 17:48:54.71	194.54	9.69	-41.0	-44.8	16.4	0.00e+00	0	57	0	38273024	53	5602
2026-01-23 17:48:55.73	194.31	9.76	-40.7	-44.4	16.8	0.00e+00	0	57	0	39845888	53	5341
2026-01-23 17:48:56.73	194.09	9.83	-40.4	-43.7	17.4	0.00e+00	0	57	0	40894464	52	5279
2026-01-23 17:48:57.74	193.86	9.90	-40.2	-43.3	17.9	0.00e+00	0	57	0	41943040	52	5033
2026-01-23 17:48:58.75	193.63	9.97	-40.1	-43.2	18.0	0.00e+00	0	57	0	42991616	52	4967
2026-01-23 17:48:59.76	193.40	10.04	-40.2	-43.4	17.8	0.00e+00	0	57	0	44040192	52	5081
2026-01-23 17:49:00.77	193.17	10.11	-40.4	-43.6	17.6	0.00e+00	0	57	0	45088768	52	5203
2026-01-23 17:49:01.78	192.93	10.18	-40.4	-43.8	17.5	0.00e+00	0	57	0	46661632	52	5288
2026-01-23 17:49:02.79	192.70	10.25	-40.4	-43.7	17.6	0.00e+00	0	57	0	47710208	52	5267
2026-01-23 17:49:03.80	192.46	10.32	-40.5	-43.9	17.4	0.00e+00	0	57	0	48758784	52	5366
2026-01-23 17:49:04.81	192.22	10.39	-40.6	-44.0	17.3	0.00e+00	0	58	0	49807360	52	5462
2026-01-23 17:49:05.82	191.98	10.46	-40.5	-43.9	17.4	0.00e+00	0	58	0	50855936	52	5373
2026-01-23 17:49:06.83	191.74	10.52	-40.5	-43.8	17.5	0.00e+00	0	58	0	52428800	52	5316
2026-01-23 17:49:07.83	191.50	10.59	-40.5	-43.8	17.5	0.00e+00	0	58	0	53477376	52	5314
2026-01-23 17:49:08.85	191.25	10.66	-40.3	-43.6	17.7	0.00e+00	0	58	0	54525952	52	5207
2026-01-23 17:49:09.86	191.01	10.73	-40.3	-43.5	17.8	0.00e+00	0	57	0	55574528	52	5102
2026-01-23 17:49:10.86	190.76	10.80	-40.1	-43.2	18.1	0.00e+00	0	58	0	56623104	52	4945
2026-01-23 17:49:11.87	190.51	10.87	-40.1	-43.3	18.0	0.00e+00	0	58	0	57671680	52	4991
2026-01-23 17:49:12.88	190.26	10.94	-40.0	-43.1	18.3	0.00e+00	0	58	0	59244544	52	4881
2026-01-23 17:49:13.89	190.01	11.01	-40.1	-43.2	18.1	0.00e+00	0	58	0	60293120	52	4938
2026-01-23 17:49:14.90	189.76	11.08	-40.0	-43.2	18.1	0.00e+00	0	58	0	61341696	52	4936
2026-01-23 17:49:15.91	189.50	11.14	-40.2	-43.4	18.0	0.00e+00	0	58	0	62390272	52	5056
2026-01-23 17:49:16.92	189.24	11.21	-40.1	-43.3	18.0	0.00e+00	0	58	0	63438848	52	4995
2026-01-23 17:49:17.93	188.98	11.28	-40.2	-43.3	18.0	0.00e+00	0	58	0	64487424	52	5006
2026-01-23 17:49:18.94	188.72	11.35	-40.2	-43.3	18.0	0.00e+00	0	58	0	66060288	52	5027
2026-01-23 17:49:19.95	188.46	11.42	-40.2	-43.3	17.9	0.00e+00	0	58	0	67108864	52	5039
2026-01-23 17:49:20.96	188.20	11.48	-40.2	-43.4	17.9	0.00e+00	0	58	0	68157440	52	5081
2026-01-23 17:49:21.97	187.93	11.55	-40.2	-43.4	18.0	0.00e+00	0	58	0	69206016	52	5044
2026-01-23 17:49:22.98	187.67	11.62	-40.2	-43.4	17.9	0.00e+00	0	58	0	70254592	52	5065
2026-01-23 17:49:23.98	187.40	11.68	-40.2	-43.3	18.0	0.00e+00	0	58	0	71303168	52	5015
2026-01-23 17:49:24.99	187.13	11.75	-40.0	-43.1	18.2	0.00e+00	0	58	0	72351744	52	4888
2026-01-23 17:49:26.00	186.86	11.82	-40.0	-42.9	18.5	0.00e+00	0	58	0	73924608	51	5096
2026-01-23 17:49:27.01	186.59	11.88	-40.0	-42.9	18.5	0.00e+00	0	58	0	74973184	51	5082
2026-01-23 17:49:28.02	186.31	11.95	-40.0	-42.9	18.5	0.00e+00	0	58	0	76021760	51	5100
2026-01-23 17:49:29.03	186.03	12.01	-39.9	-42.9	18.6	0.00e+00	0	58	0	77070336	51	5051
2026-01-23 17:49:30.04	185.76	12.08	-40.0	-43.0	18.4	0.00e+00	0	58	0	78118912	51	5143
2026-01-23 17:49:31.05	185.48	12.15	-40.2	-43.3	18.2	0.00e+00	0	58	0	79167488	51	5287
2026-01-23 17:49:32.06	185.20	12.21	-40.3	-43.4	18.0	0.00e+00	0	58	0	80740352	51	5397
2026-01-23 17:49:33.07	184.91	12.27	-40.3	-43.5	18.0	0.00e+00	0	58	0	81788928	51	5407
2026-01-23 17:49:34.08	184.63	12.34	-40.4	-43.7	17.8	0.00e+00	0	58	0	82837504	51	5561
2026-01-23 17:49:35.08	184.34	12.40	-40.5	-43.8	17.6	0.00e+00	0	58	0	83886080	51	5623
2026-01-23 17:49:36.09	184.06	12.47	-40.6	-43.9	17.5	0.00e+00	0	58	0	84934656	51	5706
2026-01-23 17:49:37.10	183.77	12.53	-40.6	-43.9	17.5	0.00e+00	0	58	0	85983232	51	5702
2026-01-23 17:49:38.11	183.48	12.59	-40.5	-43.8	17.6	0.00e+00	0	58	0	87556096	51	5655
2026-01-23 17:49:39.12	183.18	12.66	-40.5	-43.9	17.6	0.00e+00	0	58	0	88604672	51	5663
2026-01-23 17:49:40.13	182.89	12.72	-40.3	-43.5	17.9	0.00e+00	0	58	0	89653248	51	5432
2026-01-23 17:49:41.14	182.59	12.78	-40.1	-43.1	18.3	0.00e+00	0	58	0	90701824	51	5196
2026-01-23 17:49:42.15	182.29	12.84	-39.9	-42.9	18.6	0.00e+00	0	58	0	91750400	51	5056
2026-01-23 17:49:43.16	182.00	12.90	-39.9	-42.8	18.6	0.00e+00	0	58	0	92798976	51	5005
2026-01-23 17:49:44.17	181.69	12.96	-39.8	-42.7	18.8	0.00e+00	0	58	0	94371840	51	4936
2026-01-23 17:49:45.18	181.39	13.02	-39.9	-42.9	18.6	0.00e+00	0	58	0	95420416	51	5048
2026-01-23 17:49:46.19	181.09	13.08	-40.0	-43.0	18.5	0.00e+00	0	58	0	96468992	51	5132
2026-01-23 17:49:47.20	180.78	13.14	-40.1	-43.1	18.4	0.00e+00	0	58	0	97517568	51	5205
2026-01-23 17:49:48.21	180.47	13.20	-40.2	-43.3	18.2	0.00e+00	0	58	0	98566144	51	5283
2026-01-23 17:49:49.22	180.17	13.26	-40.3	-43.5	17.9	0.00e+00	0	59	0	99614720	51	5442
2026-01-23 17:49:50.23	179.85	13.32	-40.3	-43.4	18.0	0.00e+00	0	58	0	101187584	51	5368
2026-01-23 17:49:51.24	179.54	13.38	-40.3	-43.5	18.0	0.00e+00	0	58	0	102236160	51	5428
2026-01-23 17:49:52.24	179.23	13.44	-40.1	-43.1	18.4	0.00e+00	0	58	0	103284736	51	5193
2026-01-23 17:49:53.25	178.92	13.49	-40.0	-43.0	18.6	0.00e+00	0	58	0	104333312	51	5101
2026-01-23 17:49:54.26	178.60	13.55	-40.0	-43.0	18.5	0.00e+00	0	59	0	105381888	51	5103
2026-01-23 17:49:55.27	178.28	13.61	-39.9	-42.9	18.6	0.00e+00	0	59	0	106430464	51	5047
2026-01-23 17:49:56.28	177.96	13.66	-39.9	-42.7	18.7	0.00e+00	0	58	0	108003328	51	4977
2026-01-23 17:49:57.29	177.64	13.72	-39.7	-42.6	18.9	0.00e+00	0	59	0	109051904	51	4878
2026-01-23 17:49:58.30	177.32	13.77	-39.7	-42.6	18.9	0.00e+00	0	59	0	110100480	51	4877
2026-01-23 17:49:59.31	176.99	13.82	-39.7	-42.5	19.0	0.00e+00	0	59	0	111149056	51	4816
2026-01-23 17:50:00.31	176.67	13.88	-39.7	-42.5	19.0	0.00e+00	0	59	0	112197632	51	4859
2026-01-23 17:50:01.32	176.34	13.93	-39.6	-42.4	19.1	0.00e+00	0	59	0	113246208	51	4775
2026-01-23 17:50:02.34	176.01	13.98	-39.6	-42.3	19.2	0.00e+00	0	59	0	114819072	51	4750
2026-01-23 17:50:03.35	175.68	14.03	-39.6	-42.3	19.2	0.00e+00	0	58	0	115867648	51	4739
2026-01-23 17:50:04.36	175.35	14.08	-39.6	-42.4	19.1	0.00e+00	0	59	0	116916224	51	4794
2026-01-23 17:50:05.37	175.01	14.14	-39.5	-42.2	19.4	0.00e+00	0	59	0	117964800	51	4671
2026-01-23 17:50:06.38	174.68	14.18	-39.5	-42.2	19.4	0.00e+00	0	59	0	119013376	51	4690
2026-01-23 17:50:07.39	174.34	14.23	-39.6	-42.3	19.3	0.00e+00	0	58	0	120061952	51	4749
2026-01-23 17:50:08.40	174.00	14.28	-39.5	-42.2	19.4	0.00e+00	0	58	0	121634816	51	4675
2026-01-23 17:50:09.40	173.67	14.33	-39.4	-42.1	19.5	0.00e+00	0	59	0	122683392	50	4884
2026-01-23 17:50:10.41	173.33	14.38	-39.7	-42.2	19.6	0.00e+00	0	59	0	123731968	50	4981
2026-01-23 17:50:11.42	172.98	14.42	-39.5	-42.2	19.6	0.00e+00	0	59	0	124780544	50	4937
2026-01-23 17:50:12.43	172.64	14.47	-39.5	-42.2	19.6	0.00e+00	0	59	0	125829120	50	4932
2026-01-23 17:50:13.44	172.30	14.51	-39.5	-42.1	19.7	0.00e+00	0	59	0	126877696	50	4887
2026-01-23 17:50:14.45	171.95	14.56	-39.5	-42.1	19.5	0.00e+00	0	59	0	128450560	50	4921
2026-01-23 17:50:15.46	171.60	14.60	-39.5	-42.1	19.6	0.00e+00	0	59	0	129499136	50	4873
2026-01-23 17:50:16.47	171.25	14.64	-39.4	-41.9	19.7	0.00e+00	0	59	0	130547712	50	4812
2026-01-23 17:50:17.48	170.90	14.69	-39.4	-42.0	19.7	0.00e+00	0	59	0	131596288	50	4851
2026-01-23 17:50:18.49	170.55	14.73	-39.4	-42.0	19.7	0.00e+00	0	59	0	132644864	50	4830
2026-01-23 17:50:19.50	170.20	14.77	-39.4	-42.0	19.7	0.00e+00	0	59	0	133693440	50	4815
2026-01-23 17:50:20.51	169.85	14.81	-39.2	-41.7	20.0	0.00e+00	0	59	0	135266304	50	4675
2026-01-23 17:50:21.52	169.49	14.85	-39.2	-41.6	20.1	0.00e+00	0	59	0	136314880	50	4626
2026-01-23 17:50:22.53	169.14	14.88	-39.1	-41.5	20.2	0.00e+00	0	59	0	137363456	50	4589
2026-01-23 17:50:23.54	168.78	14.92	-39.1	-41.5	20.3	0.00e+00	0	59	0	138412032	50	4581
2026-01-23 17:50:24.55	168.42	14.96	-39.3	-41.7	20.1	0.00e+00	0	59	0	139460608	50	4688
2026-01-23 17:50:25.56	168.06	14.99	-39.3	-41.7	20.1	0.00e+00	0	59	0	140509184	50	4687
2026-01-23 17:50:26.57	167.70	15.03	-39.3	-41.8	20.0	0.00e+00	0	59	0	142082048	50	4732
2026-01-23 17:50:27.58	167.34	15.06	-39.4	-41.9	19.9	0.00e+00	0	59	0	143130624	50	4796
2026-01-23 17:50:28.59	166.98	15.10	-39.5	-42.0	19.9	0.00e+00	0	59	0	144179200	50	4827
2026-01-23 17:50:29.60	166.61	15.13	-39.3	-41.8	20.0	0.00e+00	0	59	0	145227776	50	4757
2026-01-23 17:50:30.61	166.25	15.16	-39.4	-41.9	19.9	0.00e+00	0	59	0	146276352	50	4803
2026-01-23 17:50:31.62	165.88	15.19	-39.6	-42.1	19.7	0.00e+00	0	59	0	147324928	50	4913
2026-01-23 17:50:32.63	165.52	15.22	-39.5	-42.1	19.8	0.00e+00	0	59	0	148897792	50	4876
2026-01-23 17:50:33.64	165.15	15.25	-39.5	-42.1	19.7	0.00e+00	0	59	0	149946368	50	4902
2026-01-23 17:50:34.65	164.78	15.28	-39.5	-42.0	19.8	0.00e+00	0	59	0	150994944	50	4842
2026-01-23 17:50:35.66	164.41	15.30	-39.4	-41.9	19.9	0.00e+00	0	59	0	152043520	50	4789
2026-01-23 17:50:36.67	164.04	15.33	-39.5	-42.0	19.9	0.00e+00	0	59	0	153092096	50	4846
2026-01-23 17:50:37.68	163.67	15.35	-39.4	-41.9	20.0	0.00e+00	0	59	0	154140672	50	4780
2026-01-23 17:50:38.69	163.30	15.38	-39.2	-41.7	20.2	0.00e+00	0	59	0	155713536	50	4676
2026-01-23 17:50:39.70	162.93	15.40	-39.3	-41.8	20.1	0.00e+00	0	59	0	156762112	50	4728
2026-01-23 17:50:40.71	162.56	15.42	-39.3	-41.8	20.1	0.00e+00	0	59	0	157810688	50	4723
2026-01-23 17:50:41.72	162.18	15.44	-39.4	-41.8	20.1	0.00e+00	0	59	0	158859264	50	4753
2026-01-23 17:50:42.73	161.81	15.46	-39.3	-41.8	20.1	0.00e+00	0	59	0	159907840	50	4755
2026-01-23 17:50:43.74	161.43	15.48	-39.5	-42.1	19.8	0.00e+00	0	59	0	160956416	50	4923
2026-01-23 17:50:44.75	161.06	15.50	-39.6	-42.2	19.7	0.00e+00	0	59	0	162529280	50	4956
2026-01-23 17:50:45.76	160.68	15.52	-39.6	-42.3	19.6	0.00e+00	0	59	0	163577856	49	5282
2026-01-23 17:50:46.77	160.31	15.53	-39.7	-42.3	19.6	0.00e+00	0	59	0	164626432	49	5324
2026-01-23 17:50:47.78	159.93	15.55	-39.9	-42.6	19.4	0.00e+00	0	59	0	165675008	50	5193
2026-01-23 17:50:48.79	159.55	15.56	-40.0	-42.8	19.2	0.00e+00	0	59	0	166723584	50	5286
2026-01-23 17:50:49.80	159.17	15.58	-40.3	-43.2	18.7	0.00e+00	0	59	0	167772160	51	5269
2026-01-23 17:50:50.80	158.80	15.59	-40.4	-43.3	18.6	0.00e+00	0	59	0	169345024	51	5339
2026-01-23 17:50:51.81	158.42	15.60	-40.3	-43.2	18.7	0.00e+00	0	59	0	170393600	51	5249
2026-01-23 17:50:52.82	158.04	15.61	-40.1	-43.0	18.9	0.00e+00	0	59	0	171442176	51	5142
2026-01-23 17:50:53.83	157.66	15.62	-40.2	-43.0	18.9	0.00e+00	0	59	0	172490752	51	5159
2026-01-23 17:50:54.84	157.28	15.63	-40.0	-42.8	19.1	0.00e+00	0	59	0	173539328	51	5003
2026-01-23 17:50:55.85	156.90	15.64	-39.9	-42.7	19.2	0.00e+00	0	59	0	174587904	51	4954
2026-01-23 17:50:56.86	156.52	15.64	-39.8	-42.6	19.3	0.00e+00	0	59	0	176160768	51	4879
2026-01-23 17:50:57.87	156.14	15.65	-39.7	-42.4	19.4	0.00e+00	0	59	0	177209344	51	4799
2026-01-23 17:50:58.88	155.76	15.65	-39.9	-42.7	19.2	0.00e+00	0	59	0	178257920	51	4945
2026-01-23 17:50:59.88	155.39	15.65	-39.7	-42.4	19.6	0.00e+00	0	59	0	179306496	51	4769
2026-01-23 17:51:00.89	155.01	15.66	-39.6	-42.2	19.7	0.00e+00	0	59	0	180355072	51	4701
2026-01-23 17:51:01.90	154.63	15.66	-39.3	-41.8	20.1	0.00e+00	0	59	0	181403648	50	4732
2026-01-23 17:51:02.91	154.25	15.66	-39.4	-42.0	19.9	0.00e+00	0	59	0	182976512	50	4857
2026-01-23 17:51:03.92	153.87	15.65	-39.2	-41.7	20.2	0.00e+00	0	59	0	184025088	50	4698
2026-01-23 17:51:04.93	153.49	15.65	-39.2	-41.7	20.2	0.00e+00	0	59	0	185073664	50	4694
2026-01-23 17:51:05.94	153.11	15.65	-39.3	-41.9	20.0	0.00e+00	0	59	0	186122240	50	4763
2026-01-23 17:51:06.95	152.73	15.64	-39.2	-41.7	20.1	0.00e+00	0	59	0	187170816	50	4698
2026-01-23 17:51:07.96	152.35	15.64	-39.3	-41.9	20.0	0.00e+00	0	59	0	188219392	50	4783
2026-01-23 17:51:08.97	151.97	15.63	-39.5	-42.1	19.8	0.00e+00	0	59	0	189792256	50	4880
2026-01-23 17:51:09.98	151.59	15.63	-39.7	-42.4	19.6	0.00e+00	0	59	0	190840832	50	5044
2026-01-23 17:51:10.99	151.21	15.62	-39.4	-42.0	19.9	0.00e+00	0	59	0	191889408	50	4855
2026-01-23 17:51:12.00	150.83	15.61	-39.6	-42.2	19.7	0.00e+00	0	59	0	192937984	50	4975
2026-01-23 17:51:13.00	150.45	15.60	-39.8	-42.5	19.4	0.00e+00	0	59	0	193986560	50	5129
2026-01-23 17:51:14.01	150.07	15.59	-39.7	-42.4	19.5	0.00e+00	0	59	0	195035136	50	5066
2026-01-23 17:51:15.02	149.70	15.57	-39.7	-42.4	19.5	0.00e+00	0	59	0	196608000	50	5095
2026-01-23 17:51:16.03	149.32	15.56	-39.7	-42.4	19.5	0.00e+00	0	59	0	197656576	50	5098
2026-01-23 17:51:17.04	148.94	15.55	-39.7	-42.4	19.5	0.00e+00	0	59	0	198705152	50	5075
2026-01-23 17:51:18.05	148.57	15.53	-39.5	-42.2	19.6	0.00e+00	0	59	0	199753728	50	4958
2026-01-23 17:51:19.06	148.19	15.51	-39.6	-42.3	19.6	0.00e+00	0	59	0	200802304	50	5029
2026-01-23 17:51:20.07	147.81	15.50	-39.6	-42.2	19.7	0.00e+00	0	59	0	201850880	50	4970
2026-01-23 17:51:21.08	147.44	15.48	-39.6	-42.3	19.6	0.00e+00	0	59	0	203423744	50	5025
2026-01-23 17:51:22.09	147.07	15.46	-39.7	-42.6	19.3	0.00e+00	0	59	0	204472320	50	5171
2026-01-23 17:51:23.10	146.69	15.44	-39.9	-42.8	19.0	0.00e+00	0	59	0	205520896	50	5310
2026-01-23 17:51:24.11	146.32	15.42	-39.7	-42.8	18.3	0.00e+00	0	59	0	206569472	50	5319
2026-01-23 17:51:25.12	145.95	15.39	-39.7	-43.0	18.6	0.00e+00	0	59	0	207618048	50	5416
2026-01-23 17:51:26.13	145.58	15.37	-39.9	-42.9	18.8	5.70e-06	0	59	0	208666624	50	5398
2026-01-23 17:51:27.14	145.20	15.35	-39.8	-42.6	18.8	1.60e-05	0	59	0	210239488	49	5505
2026-01-23 17:51:28.15	144.83	15.32	-39.5	-42.2	16.9	1.74e-04	0	59	0	211288064	45	6614
2026-01-23 17:51:29.16	144.47	15.30	-38.9	-42.1	17.4	1.74e-04	0	59	0	212336640	45	6546
2026-01-23 17:51:30.17	144.10	15.27	-39.1	-42.0	19.0	1.66e-04	0	59	0	213385216	49	5120
2026-01-23 17:51:31.18	143.73	15.24	-39.2	-41.9	18.5	1.27e-04	0	59	0	214433792	49	5078
2026-01-23 17:51:32.19	143.36	15.21	-37.0	-41.8	17.3	1.27e-04	0	59	0	215482368	46	5930
2026-01-23 17:51:33.20	143.00	15.18	-36.8	-41.7	17.5	6.03e-04	0	60	0	217055232	47	5592
2026-01-23 17:51:34.21	142.63	15.15	-39.0	-42.4	18.5	1.93e-04	0	59	0	218103808	49	5363
2026-01-23 17:51:35.21	142.27	15.12	-39.8	-42.7	17.7	1.93e-04	0	59	0	219152384	50	5252
2026-01-23 17:51:36.23	141.91	15.09	-39.1	-42.5	17.7	6.75e-05	0	59	0	220200960	47	6118
2026-01-23 17:51:37.24	141.55	15.05	-38.9	-42.1	19.1	1.67e-04	0	60	0	221249536	48	5476
2026-01-23 17:51:38.25	141.18	15.02	-39.3	-42.0	19.6	4.50e-06	0	59	0	222298112	49	5136
2026-01-23 17:51:39.26	140.83	14.98	-39.3	-41.9	19.8	4.50e-06	0	60	0	223870976	49	5069
2026-01-23 17:51:40.27	140.47	14.95	-39.3	-41.9	19.9	0.00e+00	0	59	0	224919552	49	5052
2026-01-23 17:51:41.27	140.11	14.91	-39.5	-42.1	19.7	0.00e+00	0	60	0	225968128	49	5208
2026-01-23 17:51:42.28	139.76	14.88	-39.6	-42.4	19.4	0.00e+00	0	59	0	227016704	49	5381
2026-01-23 17:51:43.29	139.40	14.84	-39.6	-42.4	19.2	0.00e+00	0	60	0	228065280	49	5371
2026-01-23 17:51:44.31	139.04	14.80	-38.8	-42.3	19.1	1.10e-06	0	59	0	229113856	49	5331
2026-01-23 17:51:45.32	138.69	14.76	-39.4	-42.0	19.5	1.10e-06	0	59	0	230686720	49	5129
2026-01-23 17:51:46.33	138.34	14.72	-32.8	-41.7	15.2	1.25e-05	0	59	0	231735296	40	8335
2026-01-23 17:51:47.33	137.99	14.68	-38.7	-41.6	19.3	1.19e-03	0	59	0	232783872	47	5484
2026-01-23 17:51:48.34	137.65	14.63	-38.4	-41.7	17.9	1.19e-03	0	60	0	233832448	48	5235
2026-01-23 17:51:49.35	137.30	14.59	-39.0	-41.9	18.2	5.04e-03	0	60	0	234881024	48	5385
2026-01-23 17:51:50.36	136.95	14.55	-29.1	-41.2	8.2	8.37e-03	0	59	0	235929600	28	15752
2026-01-23 17:51:51.37	136.61	14.50	-31.2	-42.6	11.0	2.68e-01	0	59	0	236978176	38	10305
2026-01-23 17:51:52.38	136.26	14.46	-29.3	-42.2	8.4	2.68e-01	0	59	0	237502464	33	13211
2026-01-23 17:51:53.39	135.92	14.41	-31.6	-41.4	6.3	3.81e-01	0	59	0	238026752	26	17992
2026-01-23 17:51:54.40	135.58	14.37	-23.1	-39.8	4.9	5.59e-01	0	60	0	238551040	20	21188
2026-01-23 17:51:55.41	135.24	14.32	-28.3	-42.0	11.9	5.59e-01	0	60	0	239075328	42	7645
2026-01-23 17:51:56.42	134.90	14.27	-35.4	-41.8	7.1	4.48e-01	0	59	0	239599616	30	14973
2026-01-23 17:51:57.43	134.57	14.22	-38.4	-42.1	14.4	3.59e-01	0	60	0	240648192	47	5837
2026-01-23 17:51:58.44	134.23	14.17	-25.1	-40.0	5.7	3.59e-01	0	60	0	241172480	25	16256
2026-01-23 17:51:59.45	133.90	14.12	-25.8	-41.4	9.4	3.82e-01	0	60	0	241696768	31	13484
2026-01-23 17:52:00.45	133.57	14.07	-33.8	-42.0	11.3	1.96e-01	0	59	0	242745344	41	8167
2026-01-23 17:52:01.46	133.24	14.02	-27.9	-42.1	12.7	1.96e-01	0	60	0	243793920	42	7731
2026-01-23 17:52:02.48	132.90	13.97	-24.6	-39.3	7.8	1.64e-01	0	59	104	244318208	26	14076
2026-01-23 17:52:03.49	132.58	13.92	-34.5	-42.2	10.6	5.13e-01	0	59	0	244842496	39	9368
2026-01-23 17:52:04.50	132.25	13.87	-35.5	-42.4	10.9	2.67e-01	0	59	0	245366784	39	9547
2026-01-23 17:52:05.50	131.93	13.81	-26.7	-41.4	9.3	2.67e-01	0	59	0	245891072	32	12782
2026-01-23 17:52:06.51	131.61	13.76	-27.2	-40.9	4.5	4.29e-01	0	60	104	246415360	17	28630
2026-01-23 17:52:07.52	131.28	13.70	-24.4	-38.1	6.5	6.06e-01	0	60	0	246415360	25	13040
2026-01-23 17:52:08.53	130.96	13.65	-31.9	-40.8	7.4	6.06e-01	0	59	104	246415360	28	14905
2026-01-23 17:52:09.54	130.65	13.59	-26.3	-40.6	7.3	6.40e-01	0	60	0	246939648	27	15534
2026-01-23 17:52:10.55	130.33	13.54	-19.7	-35.6	3.9	4.78e-01	0	60	104	246939648	11	21778
2026-01-23 17:52:11.56	130.01	13.48	-18.8	-34.5	3.9	4.78e-01	0	59	104	246939648	8	23035
2026-01-23 17:52:12.57	129.70	13.42	-18.4	-38.3	3.9	8.43e-01	0	60	104	246939648	8	35394
2026-01-23 17:52:13.58	129.39	13.37	-31.2	-42.1	10.3	8.34e-01	0	60	0	246939648	31	14597
2026-01-23 17:52:14.59	129.08	13.31	-21.6	-39.6	3.9	8.34e-01	0	59	104	246939648	18	23270
2026-01-23 17:52:15.60	128.77	13.25	-21.8	-45.2	4.0	6.44e-01	0	60	104	246939648	20	39267
2026-01-23 17:52:16.61	128.46	13.19	-20.1	-37.1	3.8	8.39e-01	0	59	104	246939648	9	29329
2026-01-23 17:52:17.62	128.15	13.13	-21.1	-35.6	3.9	8.38e-01	0	60	104	246939648	7	27576
2026-01-23 17:52:18.62	127.85	13.07	-20.3	-39.3	4.1	8.38e-01	0	60	104	246939648	13	29913
2026-01-23 17:52:19.63	127.55	13.01	-20.8	-37.5	4.0	8.35e-01	0	60	104	246939648	14	22936
2026-01-23 17:52:20.64	127.25	12.95	-20.0	-37.4	4.1	8.32e-01	0	60	104	246939648	12	25284
2026-01-23 17:52:21.65	126.95	12.89	-18.3	-43.6	4.0	8.32e-01	0	60	104	246939648	20	32628
2026-01-23 17:52:22.66	126.65	12.83	-22.8	-40.6	4.4	8.37e-01	0	60	104	246939648	17	27697
2026-01-23 17:52:23.67	126.35	12.77	-30.1	-40.9	4.5	8.24e-01	0	60	104	246939648	24	19081
2026-01-23 17:52:24.68	126.06	12.71	-18.3	-38.6	3.9	8.24e-01	0	60	104	246939648	10	32909
2026-01-23 17:52:25.69	125.77	12.65	-23.7	-42.4	3.8	8.30e-01	0	59	104	246939648	17	33767
2026-01-23 17:52:26.70	125.47	12.58	-19.1	-39.9	4.2	8.24e-01	0	60	104	246939648	17	25429
2026-01-23 17:52:27.71	125.18	12.52	-20.5	-38.4	3.7	8.24e-01	0	60	104	246939648	10	31999
2026-01-23 17:52:28.72	124.90	12.46	-19.4	-39.1	4.0	8.30e-01	0	60	104	246939648	12	30927
2026-01-23 17:52:29.73	124.61	12.39	-23.7	-40.5	4.1	8.39e-01	0	60	104	246939648	13	34278
2026-01-23 17:52:30.74	124.33	12.33	-23.8	-40.7	4.9	8.35e-01	0	60	104	246939648	18	26356
2026-01-23 17:52:31.75	124.04	12.26	-23.8	-48.5	4.3	8.35e-01	0	59	104	246939648	24	45716
2026-01-23 17:52:32.75	123.76	12.20	-21.7	-39.9	4.7	8.28e-01	0	60	104	246939648	16	26921
2026-01-23 17:52:33.76	123.48	12.14	-25.2	-42.0	4.8	8.26e-01	0	60	104	246939648	19	28717
2026-01-23 17:52:34.78	123.20	12.07	-28.4	-42.8	6.0	8.26e-01	0	60	0	246939648	25	22270
2026-01-23 17:52:35.78	122.93	12.01	-25.1	-41.8	7.4	6.86e-01	0	60	0	246939648	26	18918
2026-01-23 17:52:36.79	122.65	11.94	-27.7	-43.2	6.0	7.26e-01	0	60	0	246939648	24	24949
2026-01-23 17:52:37.80	122.38	11.87	-34.6	-43.8	7.9	7.26e-01	0	60	0	246939648	34	14995
2026-01-23 17:52:38.81	122.11	11.81	-30.1	-45.0	8.6	5.17e-01	0	60	0	247988224	37	14489
2026-01-23 17:52:39.82	121.84	11.74	-30.7	-43.6	10.5	3.15e-01	0	59	0	249036800	37	12341
2026-01-23 17:52:40.83	121.57	11.68	-27.5	-43.6	6.4	3.07e-01	0	60	0	249561088	31	17321
2026-01-23 17:52:41.84	121.30	11.61	-28.8	-44.2	7.3	3.07e-01	0	60	0	250085376	31	18559
2026-01-23 17:52:42.85	121.04	11.54	-30.9	-44.8	9.8	4.89e-01	0	60	0	251133952	35	15802
2026-01-23 17:52:43.86	120.77	11.47	-36.4	-44.3	13.1	8.42e-02	0	60	0	252182528	43	9454
2026-01-23 17:52:44.87	120.51	11.41	-38.0	-44.6	12.6	8.42e-02	0	60	0	253231104	45	8730
2026-01-23 17:52:45.88	120.25	11.34	-29.5	-43.9	10.8	4.09e-02	0	60	0	254279680	39	11397
2026-01-23 17:52:46.89	119.99	11.27	-36.1	-44.7	11.2	1.46e-01	0	60	0	255328256	39	12450
2026-01-23 17:52:47.90	119.74	11.20	-31.4	-44.1	7.6	1.46e-01	0	60	0	256376832	31	18448
2026-01-23 17:52:48.90	119.48	11.14	-31.5	-43.5	8.6	1.71e-01	0	60	0	257425408	31	17271
2026-01-23 17:52:49.91	119.23	11.07	-25.5	-43.4	8.7	2.21e-01	0	60	0	258473984	29	19021
2026-01-23 17:52:50.92	118.98	11.00	-23.5	-43.4	8.3	2.21e-01	0	60	0	258998272	25	24080
2026-01-23 17:52:51.93	118.72	10.93	-26.6	-43.8	7.9	3.45e-01	0	60	0	260046848	27	22387
2026-01-23 17:52:52.94	118.48	10.86	-17.9	-43.6	6.5	4.78e-01	0	60	0	260571136	24	25976
2026-01-23 17:52:53.95	118.23	10.80	-22.4	-41.0	3.7	7.20e-01	0	60	104	260571136	7	51113
2026-01-23 17:52:54.96	117.98	10.73	-16.4	-39.8	4.4	7.20e-01	0	60	104	260571136	10	37445
2026-01-23 17:52:55.97	117.74	10.66	-26.1	-44.6	3.4	7.52e-01	0	60	104	260571136	16	45997
2026-01-23 17:52:56.98	117.49	10.59	-26.9	-43.2	5.6	7.75e-01	0	60	0	260571136	21	29540
2026-01-23 17:52:57.99	117.25	10.52	-24.6	-44.3	2.8	7.75e-01	0	60	104	260571136	19	37766
2026-01-23 17:52:59.00	117.01	10.45	-21.8	-43.5	3.8	7.65e-01	0	60	104	260571136	19	34417
2026-01-23 17:53:00.01	116.77	10.38	-20.3	-44.8	3.8	8.30e-01	0	60	104	260571136	19	39955
2026-01-23 17:53:01.02	116.54	10.31	-31.5	-53.2	4.0	8.30e-01	0	60	104	260571136	34	44241
2026-01-23 17:53:02.03	116.30	10.24	-25.4	-43.0	4.5	8.07e-01	0	60	0	260571136	21	28769
2026-01-23 17:53:03.04	116.07	10.17	-26.5	-46.6	5.0	7.60e-01	0	60	0	260571136	25	34641
2026-01-23 17:53:04.05	115.83	10.10	-24.4	-42.0	5.2	7.60e-01	0	60	0	260571136	22	24257
2026-01-23 17:53:05.06	115.60	10.03	-25.7	-42.2	5.2	7.66e-01	0	60	0	260571136	23	23337
2026-01-23 17:53:06.07	115.37	9.96	-20.7	-41.8	3.5	7.16e-01	0	60	104	260571136	12	42203
2026-01-23 17:53:07.08	115.15	9.90	-22.0	-42.1	5.0	7.57e-01	0	60	0	260571136	20	27418
2026-01-23 17:53:08.08	114.92	9.83	-24.5	-41.7	4.8	7.57e-01	0	60	104	260571136	22	23464
2026-01-23 17:53:09.09	114.70	9.76	-23.7	-42.3	3.8	7.72e-01	0	60	104	260571136	21	26738
2026-01-23 17:53:10.10	114.47	9.69	-18.6	-40.8	5.2	7.84e-01	0	60	0	260571136	18	26651
2026-01-23 17:53:11.11	114.25	9.62	-21.4	-43.8	3.9	7.84e-01	0	60	104	260571136	13	50103
2026-01-23 17:53:12.12	114.03	9.55	-24.0	-44.9	3.9	8.22e-01	0	60	104	260571136	11	63692
2026-01-23 17:53:13.13	113.81	9.48	-30.9	-49.9	4.2	8.36e-01	0	60	104	260571136	24	53537
2026-01-23 17:53:14.14	113.59	9.41	-19.1	-44.3	3.8	8.36e-01	0	60	104	260571136	12	56310
2026-01-23 17:53:15.15	113.38	9.34	-19.5	-45.3	3.9	8.30e-01	0	60	104	260571136	12	63281
2026-01-23 17:53:16.16	113.16	9.27	-20.1	-44.1	4.0	8.32e-01	0	60	104	260571136	13	51916
2026-01-23 17:53:17.17	112.95	9.20	-20.8	-44.1	3.8	8.32e-01	0	60	104	260571136	13	52182
2026-01-23 17:53:18.18	112.74	9.13	-24.1	-46.4	4.1	8.37e-01	0	60	104	260571136	15	60444
2026-01-23 17:53:19.19	112.53	9.06	-23.3	-43.3	6.4	8.35e-01	0	60	104	260571136	21	30024
2026-01-23 17:53:20.20	112.32	8.99	-19.4	-45.3	4.2	7.16e-01	0	60	104	260571136	16	49894
2026-01-23 17:53:21.21	112.11	8.92	-31.1	-54.3	4.0	7.16e-01	0	60	104	260571136	33	52862
2026-01-23 17:53:22.22	111.90	8.85	-24.5	-46.4	4.0	8.33e-01	0	60	104	260571136	20	45034
2026-01-23 17:53:23.23	111.70	8.78	-24.4	-45.3	4.5	8.36e-01	0	60	104	260571136	24	31519
2026-01-23 17:53:24.24	111.49	8.71	-26.9	-45.3	4.3	8.36e-01	0	60	104	260571136	25	30023
2026-01-23 17:53:25.25	111.29	8.64	-23.6	-43.7	5.4	8.23e-01	0	60	0	260571136	19	35029
2026-01-23 17:53:26.26	111.09	8.57	-24.0	-44.0	5.0	7.40e-01	0	60	0	260571136	21	32252
2026-01-23 17:53:27.27	110.89	8.50	-25.0	-45.3	5.5	7.40e-01	0	60	0	260571136	24	31561
2026-01-23 17:53:28.27	110.69	8.43	-27.2	-44.0	5.7	7.22e-01	0	60	0	260571136	23	28794
2026-01-23 17:53:29.28	110.50	8.36	-30.7	-45.0	6.0	6.79e-01	0	60	0	260571136	27	25811
2026-01-23 17:53:30.29	110.30	8.29	-28.9	-47.1	5.6	6.79e-01	0	60	0	260571136	29	29075
2026-01-23 17:53:31.30	110.11	8.22	-32.3	-47.1	5.6	7.30e-01	0	60	0	260571136	31	25941
2026-01-23 17:53:32.31	109.91	8.15	-32.2	-46.2	9.8	5.20e-01	0	60	0	261095424	42	12483
2026-01-23 17:53:33.32	109.72	8.08	-32.8	-50.2	4.4	4.08e-01	0	60	104	261619712	38	24906
2026-01-23 17:53:34.33	109.53	8.02	-35.7	-51.3	5.0	4.08e-01	0	60	0	261619712	44	19863
2026-01-23 17:53:35.34	109.34	7.95	-39.9	-58.3	4.1	4.36e-01	0	60	104	262144000	51	29816
2026-01-23 17:53:36.35	109.15	7.88	-45.2	-63.2	3.9	8.16e-01	0	60	104	262144000	59	32989
2026-01-23 17:53:37.36	108.96	7.81	-44.8	-63.0	3.8	8.16e-01	0	60	104	262144000	60	30665
2026-01-23 17:53:38.37	108.78	7.74	-45.1	-63.3	3.8	8.46e-01	0	60	104	262144000	60	31662
2026-01-23 17:53:39.38	108.59	7.67	-45.3	-63.5	3.8	8.46e-01	0	60	104	262144000	61	30703
2026-01-23 17:53:40.39	108.41	7.60	-45.4	-63.7	3.8	8.46e-01	0	60	104	262144000	61	31129
2026-01-23 17:53:41.40	108.23	7.53	-45.5	-63.8	3.8	8.45e-01	0	60	104	262144000	61	31732
2026-01-23 17:53:42.41	108.05	7.46	-45.7	-64.0	3.8	8.45e-01	0	60	104	262144000	62	30506
2026-01-23 17:53:43.43	107.86	7.39	-45.7	-64.0	3.8	8.45e-01	0	60	104	262144000	62	30625
2026-01-23 17:53:44.44	107.69	7.33	-45.7	-64.0	3.8	8.46e-01	0	60	104	262144000	62	30481
2026-01-23 17:53:45.45	107.51	7.26	-45.6	-63.9	3.8	8.47e-01	0	60	104	262144000	62	30154
2026-01-23 17:53:46.46	107.33	7.19	-45.5	-63.7	3.8	8.45e-01	0	60	104	262144000	62	29609
2026-01-23 17:53:47.47	107.16	7.12	-45.5	-63.6	3.8	8.45e-01	0	60	104	262144000	62	29240
2026-01-23 17:53:48.48	106.98	7.05	-45.4	-63.6	3.8	8.47e-01	0	60	104	262144000	62	29152
2026-01-23 17:53:49.49	106.81	6.98	-45.4	-63.5	3.8	8.46e-01	0	60	104	262144000	62	28868
2026-01-23 17:53:50.50	106.64	6.92	-45.4	-63.5	3.8	8.46e-01	0	60	104	262144000	62	28789
2026-01-23 17:53:51.51	106.47	6.85	-45.2	-63.3	3.8	8.47e-01	0	60	104	262144000	61	29895
2026-01-23 17:53:52.52	106.30	6.78	-45.2	-63.3	3.8	8.46e-01	0	60	104	262144000	61	29923
2026-01-23 17:53:53.53	106.13	6.71	-45.2	-63.3	3.8	8.46e-01	0	60	104	262144000	61	29832
2026-01-23 17:53:54.55	105.96	6.64	-45.2	-63.3	3.8	8.47e-01	0	60	104	262144000	61	29908
2026-01-23 17:53:55.56	105.80	6.58	-45.2	-63.3	3.8	8.45e-01	0	60	104	262144000	61	29868
2026-01-23 17:53:56.57	105.63	6.51	-45.2	-63.3	3.8	8.45e-01	0	60	104	262144000	61	29795
2026-01-23 17:53:57.58	105.47	6.44	-45.2	-63.3	3.8	8.46e-01	0	60	104	262144000	61	29816
2026-01-23 17:53:58.59	105.30	6.37	-45.2	-63.3	3.8	8.47e-01	0	60	104	262144000	61	29859
2026-01-23 17:53:59.60	105.14	6.31	-45.2	-63.3	3.8	8.46e-01	0	60	104	262144000	61	29852
2026-01-23 17:54:00.61	104.98	6.24	-45.2	-63.3	3.8	8.46e-01	0	60	104	262144000	61	29820
2026-01-23 17:54:01.62	104.82	6.17	-45.2	-63.3	3.8	8.48e-01	0	60	104	262144000	61	29866
2026-01-23 17:54:02.63	104.66	6.11	-45.2	-63.3	3.8	8.46e-01	0	60	104	262144000	61	29848
2026-01-23 17:54:03.64	104.51	6.04	-45.2	-63.3	3.8	8.46e-01	0	60	104	262144000	61	29828
2026-01-23 17:54:04.65	104.35	5.97	-45.2	-63.3	3.8	8.45e-01	0	60	104	262144000	61	29826
2026-01-23 17:54:05.66	104.19	5.91	-45.2	-63.2	3.8	8.46e-01	0	60	104	262144000	61	29669
2026-01-23 17:54:06.67	104.04	5.84	-45.2	-63.3	3.8	8.46e-01	0	60	104	262144000	61	29715
2026-01-23 17:54:07.68	103.89	5.77	-45.2	-63.3	3.8	8.46e-01	0	60	104	262144000	61	29708
2026-01-23 17:54:08.69	103.73	5.71	-45.2	-63.3	3.8	8.46e-01	0	60	104	262144000	61	29723
2026-01-23 17:54:09.70	103.58	5.64	-45.2	-63.3	3.8	8.46e-01	0	60	104	262144000	61	29784
2026-01-23 17:54:10.71	103.43	5.58	-45.1	-63.3	3.8	8.46e-01	0	60	104	262144000	61	29704
2026-01-23 17:54:11.72	103.28	5.51	-45.2	-63.3	3.8	8.47e-01	0	60	104	262144000	61	29694
2026-01-23 17:54:12.73	103.13	5.44	-45.2	-63.3	3.8	8.47e-01	0	60	104	262144000	61	29713
2026-01-23 17:54:13.74	102.98	5.38	-45.2	-63.3	3.8	8.47e-01	0	60	104	262144000	61	29748
2026-01-23 17:54:14.75	102.84	5.31	-45.2	-63.3	3.8	8.46e-01	0	60	104	262144000	61	29796
2026-01-23 17:54:15.76	102.69	5.25	-45.0	-63.3	3.8	8.46e-01	0	60	104	262144000	61	29742
2026-01-23 17:54:16.77	102.55	5.18	-45.2	-63.3	3.8	8.46e-01	0	60	104	262144000	61	29694
2026-01-23 17:54:17.78	102.40	5.12	-45.2	-63.2	3.8	8.46e-01	0	60	104	262144000	61	29605
2026-01-23 17:54:18.79	102.26	5.05	-45.2	-63.2	3.8	8.48e-01	0	60	104	262144000	61	29644
2026-01-23 17:54:19.80	102.12	4.99	-45.2	-63.2	3.8	8.48e-01	0	60	104	262144000	61	29598
2026-01-23 17:54:20.82	101.98	4.92	-45.2	-63.2	3.8	8.46e-01	0	60	104	262144000	61	29676
2026-01-23 17:54:21.83	101.83	4.86	-45.2	-63.2	3.8	8.45e-01	0	60	104	262144000	61	29574
2026-01-23 17:54:22.84	101.70	4.79	-45.2	-63.2	3.8	8.46e-01	0	60	104	262144000	60	31402
2026-01-23 17:54:23.85	101.56	4.73	-45.1	-63.3	3.8	8.46e-01	0	60	104	262144000	60	31556
2026-01-23 17:54:24.86	101.42	4.66	-45.2	-63.2	3.8	8.47e-01	0	61	104	262144000	60	31406
2026-01-23 17:54:25.87	101.28	4.60	-45.2	-63.3	3.8	8.45e-01	0	60	104	262144000	60	31470
2026-01-23 17:54:26.88	101.15	4.54	-45.2	-63.3	3.8	8.45e-01	0	60	104	262144000	60	31462
2026-01-23 17:54:27.89	101.01	4.47	-45.2	-63.2	3.8	8.46e-01	0	61	104	262144000	60	31383
2026-01-23 17:54:28.90	100.88	4.41	-45.2	-63.2	3.8	8.44e-01	0	60	104	262144000	60	31387
2026-01-23 17:54:29.91	100.74	4.34	-45.1	-63.2	3.8	8.44e-01	0	60	104	262144000	60	31425
2026-01-23 17:54:30.92	100.61	4.28	-45.1	-63.2	3.8	8.45e-01	0	61	104	262144000	60	31431
2026-01-23 17:54:31.93	100.48	4.22	-45.2	-63.2	3.8	8.45e-01	0	60	104	262144000	60	31369
2026-01-23 17:54:32.94	100.35	4.15	-45.2	-63.2	3.8	8.45e-01	0	60	104	262144000	60	31290
2026-01-23 17:54:33.95	100.22	4.09	-45.1	-63.2	3.8	8.46e-01	0	60	104	262144000	60	31425
2026-01-23 17:54:34.96	100.09	4.03	-45.1	-63.2	3.8	8.45e-01	0	60	104	262144000	60	31356
2026-01-23 17:54:35.98	99.96	3.96	-45.2	-63.2	3.8	8.46e-01	0	60	104	262144000	60	31430
2026-01-23 17:54:36.99	99.83	3.90	-45.1	-63.2	3.8	8.46e-01	0	60	104	262144000	60	31348
2026-01-23 17:54:38.00	99.71	3.84	-45.1	-63.2	3.8	8.46e-01	0	60	104	262144000	60	31390
2026-01-23 17:54:39.01	99.58	3.77	-45.2	-63.2	3.8	8.46e-01	0	60	104	262144000	60	31421
2026-01-23 17:54:40.02	99.45	3.71	-45.1	-63.2	3.8	8.46e-01	0	60	104	262144000	60	31329
2026-01-23 17:54:41.03	99.33	3.65	-45.1	-63.2	3.8	8.46e-01	0	60	104	262144000	60	31389
2026-01-23 17:54:42.04	99.21	3.59	-45.1	-63.2	3.8	8.46e-01	0	60	104	262144000	60	31313
2026-01-23 17:54:43.05	99.08	3.53	-45.1	-63.2	3.8	8.46e-01	0	60	104	262144000	60	31338
2026-01-23 17:54:44.06	98.96	3.46	-45.1	-63.2	3.8	8.45e-01	0	60	104	262144000	60	31213
2026-01-23 17:54:45.07	98.84	3.40	-45.1	-63.2	3.8	8.46e-01	0	60	104	262144000	60	31353
2026-01-23 17:54:46.08	98.72	3.34	-45.1	-63.2	3.8	8.46e-01	0	60	104	262144000	60	31345
2026-01-23 17:54:47.09	98.60	3.28	-45.1	-63.2	3.8	8.46e-01	0	60	104	262144000	60	31345
2026-01-23 17:54:48.10	98.48	3.22	-45.1	-63.2	3.8	8.47e-01	0	60	104	262144000	60	31243
2026-01-23 17:54:49.11	98.36	3.16	-45.1	-63.2	3.8	8.45e-01	0	60	104	262144000	60	31255
2026-01-23 17:54:50.12	98.24	3.09	-45.1	-63.2	3.8	8.45e-01	0	60	104	262144000	60	31237
2026-01-23 17:54:51.13	98.13	3.03	-45.1	-63.2	3.8	8.46e-01	0	60	104	262144000	60	31238
2026-01-23 17:54:52.14	98.01	2.97	-45.1	-63.2	3.8	8.46e-01	0	60	104	262144000	60	31251
2026-01-23 17:54:53.16	97.89	2.91	-45.1	-63.2	3.8	8.46e-01	0	60	104	262144000	60	31250
2026-01-23 17:54:54.17	97.78	2.85	-45.1	-63.2	3.8	8.46e-01	0	61	104	262144000	60	31291
2026-01-23 17:54:55.18	97.66	2.79	-45.1	-63.2	3.8	8.46e-01	0	60	104	262144000	60	31268
2026-01-23 17:54:56.19	97.55	2.73	-45.1	-63.2	3.8	8.46e-01	0	61	104	262144000	60	31239
2026-01-23 17:54:57.20	97.44	2.67	-45.1	-63.2	3.8	8.46e-01	0	60	104	262144000	60	31316
2026-01-23 17:54:58.21	97.33	2.61	-45.1	-63.2	3.8	8.46e-01	0	60	104	262144000	60	31279
2026-01-23 17:54:59.22	97.21	2.55	-45.1	-63.2	3.8	8.46e-01	0	60	104	262144000	60	31271
2026-01-23 17:55:00.23	97.10	2.49	-45.1	-63.2	3.8	8.45e-01	0	60	104	262144000	60	31248
2026-01-23 17:55:01.24	96.99	2.43	-45.1	-63.2	3.8	8.47e-01	0	61	104	262144000	60	31217
2026-01-23 17:55:02.25	96.88	2.37	-45.1	-63.2	3.8	8.46e-01	0	60	104	262144000	60	31276
2026-01-23 17:55:03.26	96.78	2.31	-45.1	-63.2	3.8	8.46e-01	0	60	104	262144000	60	31201
2026-01-23 17:55:04.27	96.67	2.25	-45.1	-63.2	3.8	8.46e-01	0	61	104	262144000	60	31247
2026-01-23 17:55:05.28	96.56	2.19	-45.1	-63.2	3.8	8.47e-01	0	60	104	262144000	60	31244
2026-01-23 17:55:06.29	96.45	2.13	-45.1	-63.2	3.8	8.47e-01	0	60	104	262144000	60	31212
2026-01-23 17:55:07.30	96.35	2.07	-45.1	-63.2	3.8	8.45e-01	0	61	104	262144000	60	31152
2026-01-23 17:55:08.31	96.24	2.01	-45.1	-63.2	3.8	8.45e-01	0	60	104	262144000	60	31223

#Closed at: 2026-01-23 17:55:09
#Recorded file [262 MB]: D:/lorett/data/31039_260123_204658.dat