passes_logs/2026/01/23/R2.0S_Moscow/R2.0S_Moscow__20260123_083607_SUOMI_NPP_rec.log

#Pass ID: 20260123_083607_SUOMI NPP
#Satellite: SUOMI NPP
#Configuration: NPP
#almurnet v.1.7.20251203
#Start time: 2026-01-23 08:36:07

#Version: 2.2.20231116
#Station: R2.0S_Moscow
#Location: 37.707566 lon 55.798166 lat
#TLE: 1 37849U 11061A   26022.50498765  .00000208  00000+0  11976-3 0  9992
#TLE: 2 37849  98.7820 324.4892 0002275  50.8149 309.3229 14.19528284737775

#Time	Az	El	Level	Level2	SNR	BER	BlckErr	Temp	State	Recorded	gain1	gain2
2026-01-23 08:36:07.22	119.76	2.01	-17.1	-35.6	3.6	1.50e+00	0	51	0	0	9	24670
2026-01-23 08:36:08.23	119.71	2.07	-18.5	-38.9	3.8	1.50e+00	0	52	104	0	12	30126
2026-01-23 08:36:09.24	119.65	2.13	-19.9	-38.9	3.7	1.50e+00	0	51	104	0	11	31981
2026-01-23 08:36:10.25	119.59	2.19	-14.4	-34.3	3.7	1.50e+00	0	51	104	0	5	26737
2026-01-23 08:36:11.26	119.53	2.25	-15.0	-33.5	3.7	1.50e+00	0	51	104	0	4	25770
2026-01-23 08:36:12.27	119.47	2.31	-23.1	-40.6	3.5	1.50e+00	0	52	104	0	6	52050
2026-01-23 08:36:13.28	119.42	2.37	-17.7	-35.8	3.5	1.50e+00	0	52	104	0	4	33618
2026-01-23 08:36:14.29	119.36	2.43	-22.7	-41.9	3.8	1.50e+00	0	52	104	0	16	33894
2026-01-23 08:36:15.30	119.30	2.49	-19.9	-38.7	3.8	1.50e+00	0	52	104	0	11	31443
2026-01-23 08:36:16.31	119.24	2.55	-19.2	-38.6	3.6	1.50e+00	0	52	104	0	10	32860
2026-01-23 08:36:17.32	119.18	2.61	-17.6	-35.3	3.6	1.50e+00	0	52	104	0	6	28156
2026-01-23 08:36:18.34	119.12	2.67	-17.9	-37.5	3.5	1.50e+00	0	52	104	0	6	36423
2026-01-23 08:36:19.35	119.06	2.73	-23.0	-38.6	4.0	1.50e+00	0	52	104	0	9	34777
2026-01-23 08:36:20.35	119.00	2.79	-14.5	-35.5	3.5	1.50e+00	0	52	104	0	1	38375
2026-01-23 08:36:21.37	118.94	2.85	-14.2	-34.0	3.7	1.50e+00	0	52	104	0	0	34399
2026-01-23 08:36:22.38	118.88	2.92	-21.8	-37.8	3.9	1.50e+00	0	53	104	0	3	44631
2026-01-23 08:36:23.39	118.82	2.98	-20.8	-34.7	3.7	1.50e+00	0	52	104	0	1	35076
2026-01-23 08:36:24.40	118.76	3.04	-22.0	-39.0	3.8	1.50e+00	0	53	104	0	8	38333
2026-01-23 08:36:25.41	118.69	3.10	-19.3	-40.6	4.1	1.50e+00	0	53	104	0	13	34868
2026-01-23 08:36:26.42	118.63	3.16	-19.0	-37.3	3.9	1.50e+00	0	53	104	0	6	35463
2026-01-23 08:36:27.43	118.57	3.22	-18.5	-37.1	3.7	1.50e+00	0	53	104	0	1	46197
2026-01-23 08:36:28.44	118.51	3.28	-15.1	-36.6	3.9	1.50e+00	0	53	104	0	5	34492
2026-01-23 08:36:29.45	118.45	3.34	-13.5	-32.3	4.2	1.50e+00	0	53	104	0	0	28061
2026-01-23 08:36:30.46	118.38	3.40	-17.8	-39.2	3.8	1.50e+00	0	53	104	0	9	37374
2026-01-23 08:36:31.47	118.32	3.47	-14.7	-34.7	3.8	1.50e+00	0	53	104	0	4	29466
2026-01-23 08:36:32.48	118.26	3.53	-20.2	-38.0	4.0	1.50e+00	0	53	104	0	14	24369
2026-01-23 08:36:33.49	118.19	3.59	-20.3	-38.4	3.6	1.50e+00	0	53	104	0	12	28374
2026-01-23 08:36:34.50	118.13	3.65	-17.3	-36.0	3.3	1.50e+00	0	53	104	0	5	32551
2026-01-23 08:36:35.52	118.06	3.71	-17.5	-36.7	3.5	1.50e+00	0	53	104	0	9	27899
2026-01-23 08:36:36.53	118.00	3.78	-18.2	-38.5	3.8	1.50e+00	0	53	104	0	10	32532
2026-01-23 08:36:37.54	117.93	3.84	-22.5	-41.0	4.0	1.50e+00	0	53	104	0	16	30387
2026-01-23 08:36:38.55	117.87	3.90	-22.1	-40.7	3.9	1.50e+00	0	53	104	0	15	31389
2026-01-23 08:36:39.56	117.80	3.96	-21.8	-34.3	3.8	1.50e+00	0	54	104	0	1	33444
2026-01-23 08:36:40.57	117.74	4.03	-21.2	-36.8	4.1	1.50e+00	0	53	104	0	11	25068
2026-01-23 08:36:41.58	117.67	4.09	-17.4	-37.0	3.6	1.50e+00	0	54	104	0	11	25662
2026-01-23 08:36:42.59	117.61	4.15	-14.1	-36.1	4.0	1.50e+00	0	54	104	0	9	26087
2026-01-23 08:36:43.60	117.54	4.21	-21.8	-38.5	3.9	1.50e+00	0	54	104	0	13	27171
2026-01-23 08:36:44.61	117.47	4.28	-22.2	-37.8	3.8	1.50e+00	0	54	104	0	12	26750
2026-01-23 08:36:45.62	117.40	4.34	-20.6	-38.9	3.8	1.50e+00	0	54	104	0	14	26965
2026-01-23 08:36:46.63	117.34	4.40	-19.3	-37.3	3.9	1.50e+00	0	54	104	0	6	35377
2026-01-23 08:36:47.64	117.27	4.47	-22.2	-39.7	3.9	1.50e+00	0	54	104	0	14	29684
2026-01-23 08:36:48.65	117.20	4.53	-23.3	-38.4	3.7	1.50e+00	0	54	104	0	7	38066
2026-01-23 08:36:49.66	117.13	4.59	-22.5	-40.6	3.6	1.50e+00	0	54	104	0	13	34733
2026-01-23 08:36:50.67	117.06	4.66	-23.1	-41.9	3.8	1.50e+00	0	54	104	0	16	33700
2026-01-23 08:36:51.68	117.00	4.72	-19.4	-38.1	4.0	1.50e+00	0	54	104	0	13	25871
2026-01-23 08:36:52.69	116.93	4.79	-23.1	-37.9	3.8	1.50e+00	0	55	104	0	12	26849
2026-01-23 08:36:53.70	116.86	4.85	-22.9	-40.2	4.0	1.50e+00	0	54	104	0	14	31264
2026-01-23 08:36:54.71	116.79	4.91	-21.4	-38.6	3.7	1.50e+00	0	55	104	0	10	32878
2026-01-23 08:36:55.72	116.72	4.98	-21.9	-40.9	4.0	1.50e+00	0	54	104	0	13	35741
2026-01-23 08:36:56.73	116.65	5.04	-23.3	-40.5	4.1	1.50e+00	0	54	104	0	13	34254
2026-01-23 08:36:57.74	116.57	5.11	-22.0	-37.7	4.1	1.50e+00	0	55	104	0	12	26287
2026-01-23 08:36:58.75	116.50	5.17	-22.1	-37.9	3.9	1.50e+00	0	55	104	0	12	26988
2026-01-23 08:36:59.76	116.43	5.24	-19.9	-38.0	3.8	1.50e+00	0	55	104	0	11	28827
2026-01-23 08:37:00.77	116.36	5.30	-20.2	-37.6	4.2	1.50e+00	0	55	104	0	10	29198
2026-01-23 08:37:01.78	116.29	5.37	-21.5	-39.6	3.7	1.50e+00	0	55	104	0	5	48850
2026-01-23 08:37:02.79	116.22	5.43	-21.0	-38.1	3.8	1.50e+00	0	55	104	0	13	26018
2026-01-23 08:37:03.80	116.14	5.50	-21.0	-37.3	3.9	1.50e+00	0	55	104	0	9	29707
2026-01-23 08:37:04.81	116.07	5.56	-20.0	-37.2	3.8	1.50e+00	0	55	104	0	7	33298
2026-01-23 08:37:05.82	116.00	5.63	-17.5	-32.7	4.0	1.50e+00	0	55	104	0	7	19725
2026-01-23 08:37:06.83	115.92	5.69	-18.5	-33.8	3.9	1.50e+00	0	55	104	0	1	31633
2026-01-23 08:37:07.84	115.85	5.76	-16.6	-33.3	4.1	1.50e+00	0	55	104	0	1	29767
2026-01-23 08:37:08.85	115.77	5.82	-17.7	-34.8	4.1	1.50e+00	0	55	104	0	3	31675
2026-01-23 08:37:09.86	115.70	5.89	-18.1	-33.9	4.1	1.50e+00	0	55	104	0	1	32026
2026-01-23 08:37:10.87	115.62	5.96	-18.7	-35.5	3.7	1.50e+00	0	55	104	0	7	27269
2026-01-23 08:37:11.88	115.55	6.02	-16.5	-33.6	3.8	1.50e+00	0	55	104	0	4	26111
2026-01-23 08:37:12.89	115.47	6.09	-18.7	-33.0	3.8	1.50e+00	0	55	104	0	7	20491
2026-01-23 08:37:13.90	115.39	6.16	-14.5	-31.5	3.7	1.50e+00	0	55	104	0	3	21663
2026-01-23 08:37:14.91	115.32	6.22	-13.0	-31.6	3.8	1.50e+00	0	55	104	0	0	25879
2026-01-23 08:37:15.92	115.24	6.29	-13.2	-31.9	3.9	1.50e+00	0	55	104	0	0	26897
2026-01-23 08:37:16.94	115.16	6.36	-19.3	-37.0	3.8	1.50e+00	0	56	104	0	8	30414
2026-01-23 08:37:17.95	115.08	6.42	-15.6	-33.5	3.8	1.50e+00	0	56	104	0	2	28851
2026-01-23 08:37:18.96	115.01	6.49	-19.2	-36.8	3.7	1.50e+00	0	56	104	0	7	31604
2026-01-23 08:37:19.97	114.93	6.56	-15.0	-32.6	3.7	1.50e+00	0	56	104	0	0	29275
2026-01-23 08:37:20.98	114.85	6.62	-19.7	-36.5	4.0	1.50e+00	0	56	104	0	8	28937
2026-01-23 08:37:21.99	114.77	6.69	-18.7	-34.9	3.9	1.50e+00	0	56	104	0	4	30102
2026-01-23 08:37:23.00	114.69	6.76	-15.7	-32.9	3.7	1.50e+00	0	56	104	0	8	19038
2026-01-23 08:37:24.01	114.61	6.83	-15.0	-32.3	3.9	1.50e+00	0	56	104	0	1	26558
2026-01-23 08:37:25.02	114.53	6.90	-18.7	-35.7	3.6	1.50e+00	0	56	104	0	6	29626
2026-01-23 08:37:26.03	114.45	6.96	-17.7	-35.5	3.9	1.50e+00	0	56	104	0	10	22810
2026-01-23 08:37:27.04	114.37	7.03	-19.9	-36.5	3.9	1.50e+00	0	56	104	0	8	28844
2026-01-23 08:37:28.05	114.29	7.10	-19.3	-36.7	3.7	1.50e+00	0	56	104	0	9	27845
2026-01-23 08:37:29.06	114.20	7.17	-16.1	-34.6	3.9	1.50e+00	0	56	104	0	10	20541
2026-01-23 08:37:30.07	114.12	7.24	-19.7	-35.5	3.6	1.50e+00	0	56	104	0	8	25834
2026-01-23 08:37:31.08	114.04	7.30	-19.0	-35.3	3.6	1.50e+00	0	56	104	0	10	22323
2026-01-23 08:37:32.09	113.96	7.37	-15.1	-30.9	3.8	1.50e+00	0	56	104	0	6	16965
2026-01-23 08:37:33.10	113.87	7.44	-18.3	-34.4	4.1	1.50e+00	0	56	104	0	9	21420
2026-01-23 08:37:34.11	113.79	7.51	-16.5	-33.5	4.2	1.50e+00	0	56	104	0	2	28770
2026-01-23 08:37:35.12	113.70	7.58	-19.9	-36.5	3.9	1.50e+00	0	56	104	0	9	27188
2026-01-23 08:37:36.13	113.62	7.65	-18.3	-34.8	3.8	1.50e+00	0	56	104	0	8	23775
2026-01-23 08:37:37.14	113.53	7.72	-21.6	-37.7	3.5	1.50e+00	0	56	104	0	6	37121
2026-01-23 08:37:38.15	113.45	7.79	-16.1	-35.9	3.8	1.50e+00	0	57	104	0	8	27017
2026-01-23 08:37:39.16	113.36	7.86	-18.7	-34.3	3.8	1.50e+00	0	56	104	0	8	22412
2026-01-23 08:37:40.18	113.27	7.93	-18.9	-35.0	3.8	1.50e+00	0	56	104	0	8	24164
2026-01-23 08:37:41.18	113.19	8.00	-18.0	-36.5	3.9	1.50e+00	0	57	104	0	7	30595
2026-01-23 08:37:42.19	113.10	8.07	-19.6	-38.1	4.0	1.50e+00	0	56	104	0	11	29208
2026-01-23 08:37:43.20	113.01	8.14	-20.1	-37.5	4.0	1.50e+00	0	56	104	0	12	25657
2026-01-23 08:37:44.21	112.92	8.21	-20.0	-37.4	3.9	1.50e+00	0	57	104	0	10	28365
2026-01-23 08:37:45.22	112.84	8.28	-19.2	-39.5	3.9	1.50e+00	0	57	104	0	9	38595
2026-01-23 08:37:46.23	112.75	8.35	-15.1	-35.3	3.6	1.50e+00	0	57	104	0	2	35312
2026-01-23 08:37:47.24	112.66	8.42	-15.7	-34.4	3.7	1.50e+00	0	57	104	0	4	28551
2026-01-23 08:37:48.25	112.57	8.49	-20.3	-36.9	3.9	1.50e+00	0	57	104	0	6	34032
2026-01-23 08:37:49.26	112.48	8.56	-20.1	-37.3	3.8	1.50e+00	0	57	104	0	6	35510
2026-01-23 08:37:50.27	112.39	8.63	-18.0	-34.9	3.6	1.50e+00	0	57	104	0	8	23937
2026-01-23 08:37:51.28	112.29	8.70	-21.9	-41.2	3.9	1.50e+00	0	57	104	0	15	33011
2026-01-23 08:37:52.28	112.20	8.77	-21.2	-37.9	3.8	1.50e+00	0	57	104	0	13	25342
2026-01-23 08:37:53.29	112.11	8.84	-28.0	-46.7	4.4	1.50e+00	0	57	104	0	29	27897
2026-01-23 08:37:54.30	112.02	8.92	-25.2	-44.0	3.8	1.50e+00	0	57	104	0	21	32214
2026-01-23 08:37:55.31	111.93	8.99	-21.5	-41.1	3.8	1.50e+00	0	57	104	0	18	27542
2026-01-23 08:37:56.32	111.83	9.06	-19.2	-36.1	4.1	1.50e+00	0	57	104	0	13	20578
2026-01-23 08:37:57.33	111.74	9.13	-24.2	-41.0	3.8	1.50e+00	0	57	104	0	20	24267
2026-01-23 08:37:58.34	111.64	9.20	-28.1	-45.7	4.0	1.50e+00	0	57	104	0	23	35232
2026-01-23 08:37:59.35	111.55	9.28	-30.0	-42.5	3.9	1.50e+00	0	57	104	0	17	34086
2026-01-23 08:38:00.36	111.45	9.35	-32.2	-46.6	4.6	1.48e+00	0	57	104	0	33	21930
2026-01-23 08:38:01.37	111.36	9.42	-35.7	-54.0	4.2	1.50e+00	0	57	104	0	41	32411
2026-01-23 08:38:02.38	111.26	9.49	-21.5	-41.0	3.6	1.49e+00	0	57	104	0	24	19315
2026-01-23 08:38:03.39	111.16	9.57	-31.4	-45.6	4.1	1.46e+00	0	57	104	0	27	27689
2026-01-23 08:38:04.40	111.06	9.64	-32.6	-48.6	6.0	1.42e+00	0	57	104	0	39	19575
2026-01-23 08:38:05.41	110.97	9.71	-35.1	-48.3	4.6	1.25e+00	0	57	104	0	37	21114
2026-01-23 08:38:06.42	110.87	9.78	-34.4	-47.3	6.1	1.38e+00	0	57	104	0	41	14971
2026-01-23 08:38:07.43	110.77	9.86	-36.6	-48.0	6.2	1.15e+00	0	57	0	0	38	19218
2026-01-23 08:38:08.44	110.67	9.93	-33.1	-47.8	5.8	1.16e+00	0	58	0	1048576	33	25229
2026-01-23 08:38:09.45	110.57	10.00	-29.1	-48.8	5.6	8.65e-01	0	57	0	3145728	38	21036
2026-01-23 08:38:10.46	110.47	10.08	-34.6	-48.8	5.2	1.45e+00	0	57	104	3145728	39	19994
2026-01-23 08:38:11.46	110.37	10.15	-29.4	-44.9	4.1	1.36e+00	0	58	104	3145728	29	22640
2026-01-23 08:38:12.47	110.27	10.23	-38.6	-55.1	4.0	1.50e+00	0	57	104	3145728	45	29144
2026-01-23 08:38:13.48	110.16	10.30	-36.1	-48.2	4.6	1.49e+00	0	57	104	3145728	39	18667
2026-01-23 08:38:14.49	110.06	10.37	-23.9	-47.4	4.1	1.48e+00	0	58	104	3145728	33	24092
2026-01-23 08:38:15.50	109.96	10.45	-35.6	-48.7	4.4	1.49e+00	0	58	104	3145728	42	16616
2026-01-23 08:38:16.51	109.85	10.52	-33.9	-50.1	4.2	1.49e+00	0	58	104	3145728	38	24464
2026-01-23 08:38:17.52	109.75	10.60	-33.3	-49.9	4.2	1.49e+00	0	58	104	3145728	32	34075
2026-01-23 08:38:18.53	109.65	10.67	-33.7	-51.0	4.4	1.49e+00	0	57	104	3145728	38	27083
2026-01-23 08:38:19.54	109.54	10.75	-31.1	-50.6	4.2	1.50e+00	0	57	104	3145728	38	26040
2026-01-23 08:38:20.55	109.43	10.82	-31.9	-50.1	3.9	1.50e+00	0	58	104	3145728	26	48829
2026-01-23 08:38:21.56	109.33	10.90	-28.5	-45.2	4.2	1.48e+00	0	57	104	3145728	31	20828
2026-01-23 08:38:22.57	109.22	10.97	-41.1	-51.9	4.4	1.49e+00	0	58	104	3145728	49	16124
2026-01-23 08:38:23.58	109.11	11.05	-38.2	-49.4	5.7	1.26e+00	0	58	0	3145728	46	14335
2026-01-23 08:38:24.59	109.00	11.12	-32.4	-49.2	4.4	1.47e+00	0	58	104	3145728	42	17503
2026-01-23 08:38:25.60	108.90	11.20	-40.4	-50.6	4.5	1.45e+00	0	58	104	3145728	51	12258
2026-01-23 08:38:26.61	108.79	11.27	-38.2	-50.2	5.4	5.74e-01	0	58	0	4194304	48	13897
2026-01-23 08:38:27.61	108.68	11.35	-34.1	-49.1	5.4	7.99e-01	0	58	0	5242880	45	14598
2026-01-23 08:38:28.62	108.57	11.43	-38.7	-49.1	6.3	3.05e-01	0	58	0	7340032	49	11663
2026-01-23 08:38:29.63	108.46	11.50	-38.5	-48.7	6.4	1.11e+00	0	58	104	8388608	47	12465
2026-01-23 08:38:30.64	108.34	11.58	-38.0	-48.5	6.7	2.28e-01	0	58	0	9437184	47	12181
2026-01-23 08:38:31.65	108.23	11.65	-37.5	-51.1	4.3	9.09e-01	0	58	104	11534336	42	21821
2026-01-23 08:38:32.66	108.12	11.73	-32.0	-45.3	6.1	1.07e+00	0	58	0	11534336	38	14058
2026-01-23 08:38:33.67	108.01	11.81	-37.3	-51.1	4.9	8.64e-01	0	58	0	13631488	47	16410
2026-01-23 08:38:34.68	107.89	11.88	-39.9	-49.3	6.8	9.81e-01	0	58	104	13631488	52	9994
2026-01-23 08:38:35.69	107.78	11.96	-40.2	-50.1	4.6	1.48e+00	0	58	104	13631488	48	13844
2026-01-23 08:38:36.70	107.66	12.04	-39.3	-48.4	6.7	3.36e-01	0	58	0	14680064	49	10723
2026-01-23 08:38:37.71	107.55	12.12	-39.1	-49.0	6.2	2.95e-01	0	58	0	16777216	48	12183
2026-01-23 08:38:38.72	107.43	12.19	-33.9	-47.7	7.1	3.03e-01	0	58	0	17825792	49	9868
2026-01-23 08:38:39.73	107.31	12.27	-40.2	-48.6	6.6	3.83e-01	0	58	0	19922944	47	12316
2026-01-23 08:38:40.74	107.19	12.35	-40.1	-49.0	6.8	3.00e-01	0	58	0	22020096	51	10246
2026-01-23 08:38:41.75	107.08	12.43	-42.9	-49.2	7.5	2.34e-01	0	58	0	24117248	52	9909
2026-01-23 08:38:42.76	106.96	12.50	-40.1	-49.8	5.0	4.22e-01	0	58	0	26214400	45	15908
2026-01-23 08:38:43.77	106.84	12.58	-33.4	-49.5	5.5	4.33e-01	0	58	0	27262976	46	14397
2026-01-23 08:38:44.78	106.72	12.66	-36.9	-53.2	4.2	1.48e+00	0	58	104	27262976	45	23375
2026-01-23 08:38:45.78	106.60	12.74	-36.6	-49.0	6.2	1.41e+00	0	58	104	27262976	47	12839
2026-01-23 08:38:46.79	106.48	12.82	-33.2	-47.9	5.0	1.24e+00	0	58	0	28311552	38	18977
2026-01-23 08:38:47.80	106.35	12.89	-41.0	-49.2	6.3	5.74e-01	0	58	0	29360128	46	13961
2026-01-23 08:38:48.81	106.23	12.97	-36.5	-48.8	5.8	6.12e-01	0	58	0	31457280	44	14884
2026-01-23 08:38:49.82	106.11	13.05	-33.8	-47.8	5.6	4.62e-01	0	58	0	33554432	42	14964
2026-01-23 08:38:50.83	105.98	13.13	-36.2	-47.7	6.7	5.52e-01	0	58	0	35651584	43	14036
2026-01-23 08:38:51.84	105.86	13.21	-38.9	-47.4	6.2	4.84e-01	0	58	0	37748736	43	13539
2026-01-23 08:38:52.85	105.73	13.29	-34.0	-46.7	7.4	3.56e-01	0	58	0	38797312	42	13253
2026-01-23 08:38:53.86	105.60	13.37	-32.1	-48.1	4.6	5.42e-01	0	58	0	40894464	36	21874
2026-01-23 08:38:54.87	105.48	13.45	-38.8	-53.5	4.2	3.83e-01	0	59	0	42991616	50	18253
2026-01-23 08:38:55.88	105.35	13.53	-35.1	-49.8	4.8	1.46e+00	0	58	104	42991616	44	16777
2026-01-23 08:38:56.89	105.22	13.61	-37.1	-51.0	5.1	3.77e-01	0	58	0	44040192	47	16180
2026-01-23 08:38:57.90	105.09	13.69	-37.6	-46.1	7.8	3.40e-01	0	59	0	46137344	43	11681
2026-01-23 08:38:58.91	104.96	13.77	-34.7	-46.1	7.6	1.63e-01	0	59	0	48234496	46	9788
2026-01-23 08:38:59.92	104.83	13.85	-35.3	-45.4	8.4	1.33e-01	0	58	0	50331648	40	12680
2026-01-23 08:39:00.93	104.70	13.93	-33.7	-45.5	8.9	1.21e-01	0	59	0	51380224	43	10824
2026-01-23 08:39:01.94	104.57	14.01	-36.6	-46.2	9.3	9.51e-02	0	59	0	53477376	46	9918
2026-01-23 08:39:02.95	104.44	14.09	-35.1	-46.2	8.0	4.51e-02	0	59	0	55574528	43	11788
2026-01-23 08:39:03.96	104.30	14.17	-41.4	-46.2	8.1	7.93e-02	0	59	0	57671680	43	11701
2026-01-23 08:39:04.97	104.17	14.25	-41.3	-46.1	10.1	6.61e-02	0	58	0	59768832	51	7299
2026-01-23 08:39:05.98	104.03	14.33	-37.6	-45.4	10.3	4.53e-02	0	59	0	60817408	48	8032
2026-01-23 08:39:06.99	103.90	14.41	-39.5	-45.7	9.7	2.88e-02	0	59	0	62914560	46	9351
2026-01-23 08:39:08.00	103.76	14.49	-36.2	-45.5	8.7	2.48e-02	0	59	0	65011712	45	9682
2026-01-23 08:39:09.01	103.62	14.57	-41.5	-47.0	9.7	5.42e-02	0	59	0	67108864	49	9087
2026-01-23 08:39:10.02	103.49	14.65	-40.0	-46.8	10.1	6.75e-02	0	59	0	69206016	54	6693
2026-01-23 08:39:11.03	103.35	14.73	-37.9	-46.4	9.1	2.39e-02	0	59	0	70254592	47	9577
2026-01-23 08:39:12.03	103.21	14.81	-38.0	-46.1	10.7	3.07e-02	0	59	0	72351744	51	7298
2026-01-23 08:39:13.04	103.07	14.89	-38.4	-45.8	9.6	1.12e-02	0	59	0	74448896	46	9418
2026-01-23 08:39:14.05	102.93	14.98	-39.8	-45.7	11.2	6.64e-03	0	59	0	76546048	51	7017
2026-01-23 08:39:15.06	102.79	15.06	-40.7	-45.9	10.7	4.17e-03	0	59	0	78643200	52	6749
2026-01-23 08:39:16.07	102.64	15.14	-40.8	-46.3	10.2	1.10e-02	0	59	0	79691776	52	7100
2026-01-23 08:39:17.08	102.50	15.22	-40.7	-46.4	10.8	8.45e-03	0	59	0	81788928	51	7620
2026-01-23 08:39:18.09	102.36	15.30	-40.3	-46.5	10.4	1.27e-02	0	59	0	83886080	53	6806
2026-01-23 08:39:19.10	102.21	15.38	-40.7	-46.5	10.6	7.21e-03	0	59	0	85983232	53	6813
2026-01-23 08:39:20.11	102.06	15.47	-40.7	-46.2	10.8	5.57e-03	0	59	0	88080384	53	6595
2026-01-23 08:39:21.12	101.92	15.55	-40.8	-45.4	11.4	3.87e-03	0	59	0	89128960	52	6394
2026-01-23 08:39:22.13	101.77	15.63	-41.0	-45.8	11.2	9.84e-04	0	59	0	91226112	53	6285
2026-01-23 08:39:23.14	101.62	15.71	-40.9	-45.9	11.1	3.38e-03	0	59	0	93323264	51	7194
2026-01-23 08:39:24.15	101.47	15.79	-41.6	-46.5	10.6	6.00e-03	0	59	0	95420416	53	6830
2026-01-23 08:39:25.16	101.32	15.88	-42.0	-46.6	10.9	4.21e-03	0	59	0	97517568	54	6567
2026-01-23 08:39:26.17	101.17	15.96	-40.7	-46.2	10.8	4.27e-03	0	59	0	98566144	53	6636
2026-01-23 08:39:27.18	101.02	16.04	-40.5	-45.8	11.7	1.67e-03	0	59	0	100663296	53	6318
2026-01-23 08:39:28.19	100.87	16.12	-41.3	-45.7	11.7	8.31e-04	0	59	0	102760448	53	6259
2026-01-23 08:39:29.19	100.72	16.21	-41.6	-46.0	11.3	9.04e-04	0	59	0	104857600	52	6861
2026-01-23 08:39:30.20	100.56	16.29	-41.5	-46.4	11.0	1.77e-03	0	59	0	106954752	54	6377
2026-01-23 08:39:31.21	100.41	16.37	-42.1	-47.0	10.6	2.50e-03	0	59	0	108003328	55	6455
2026-01-23 08:39:32.22	100.25	16.45	-41.9	-46.9	10.5	3.80e-03	0	59	0	110100480	54	6792
2026-01-23 08:39:33.23	100.09	16.54	-41.8	-46.5	11.0	3.31e-03	0	59	0	112197632	54	6457
2026-01-23 08:39:34.24	99.94	16.62	-41.7	-46.1	11.4	1.77e-03	0	59	0	114294784	54	6166
2026-01-23 08:39:35.25	99.78	16.70	-41.1	-46.3	11.0	2.02e-03	0	59	0	116391936	53	6671
2026-01-23 08:39:36.26	99.62	16.79	-42.1	-46.9	10.7	3.08e-03	0	59	0	118489088	54	6727
2026-01-23 08:39:37.27	99.46	16.87	-42.4	-47.4	10.3	6.87e-03	0	59	0	119537664	55	6774
2026-01-23 08:39:38.28	99.30	16.95	-42.3	-47.7	9.9	9.36e-03	0	59	0	121634816	55	7040
2026-01-23 08:39:39.28	99.14	17.04	-41.9	-47.5	10.1	7.62e-03	0	59	0	123731968	54	7207
2026-01-23 08:39:40.30	98.97	17.12	-41.5	-46.8	10.8	3.78e-03	0	59	0	125829120	55	6318
2026-01-23 08:39:41.31	98.81	17.20	-42.2	-46.8	10.9	3.04e-03	0	59	0	127926272	54	6689
2026-01-23 08:39:42.32	98.64	17.29	-42.7	-47.0	10.9	2.32e-03	0	59	0	128974848	55	6476
2026-01-23 08:39:43.33	98.48	17.37	-42.2	-47.4	10.0	6.22e-03	0	59	0	131072000	55	6753
2026-01-23 08:39:44.34	98.31	17.45	-42.5	-47.6	10.1	8.01e-03	0	59	0	133169152	55	6905
2026-01-23 08:39:45.35	98.14	17.54	-42.4	-47.3	10.4	6.78e-03	0	59	0	135266304	55	6689
2026-01-23 08:39:46.35	97.98	17.62	-42.3	-47.1	10.6	4.95e-03	0	59	0	137363456	55	6507
2026-01-23 08:39:47.36	97.81	17.70	-42.3	-47.1	10.5	4.58e-03	0	59	0	138412032	55	6563
2026-01-23 08:39:48.37	97.64	17.79	-42.4	-47.2	10.5	3.58e-03	0	59	0	140509184	55	6639
2026-01-23 08:39:49.38	97.46	17.87	-42.4	-47.2	10.6	4.10e-03	0	59	0	142606336	55	6583
2026-01-23 08:39:50.39	97.29	17.95	-42.4	-47.4	10.4	4.08e-03	0	59	0	144703488	55	6743
2026-01-23 08:39:51.40	97.12	18.04	-42.5	-47.4	10.3	4.68e-03	0	59	0	146800640	55	6780
2026-01-23 08:39:52.41	96.94	18.12	-42.5	-47.5	10.2	5.96e-03	0	59	0	147849216	55	6815
2026-01-23 08:39:53.42	96.77	18.21	-42.5	-47.5	10.3	5.83e-03	0	59	0	149946368	55	6827
2026-01-23 08:39:54.43	96.59	18.29	-42.4	-47.1	10.7	4.86e-03	0	59	0	152043520	55	6518
2026-01-23 08:39:55.44	96.42	18.37	-42.4	-47.2	10.6	2.89e-03	0	59	0	154140672	55	6576
2026-01-23 08:39:56.45	96.24	18.46	-42.3	-46.9	10.9	2.32e-03	0	59	0	156237824	55	6373
2026-01-23 08:39:57.46	96.06	18.54	-42.3	-46.9	10.8	2.07e-03	0	59	0	157286400	55	6410
2026-01-23 08:39:58.47	95.88	18.62	-42.3	-47.0	10.8	1.99e-03	0	59	0	159383552	55	6426
2026-01-23 08:39:59.48	95.70	18.71	-42.1	-46.4	11.4	1.25e-03	0	60	0	161480704	55	6002
2026-01-23 08:40:00.48	95.52	18.79	-42.1	-46.5	11.3	7.99e-04	0	59	0	163577856	55	6066
2026-01-23 08:40:01.49	95.33	18.87	-42.3	-46.8	10.9	1.49e-03	0	60	0	165675008	55	6334
2026-01-23 08:40:02.51	95.15	18.96	-42.4	-47.1	10.7	2.56e-03	0	59	0	166723584	55	6553
2026-01-23 08:40:03.51	94.96	19.04	-42.3	-46.9	10.9	2.74e-03	0	60	0	168820736	55	6392
2026-01-23 08:40:04.52	94.78	19.12	-42.3	-46.8	10.9	2.03e-03	0	60	0	170917888	55	6343
2026-01-23 08:40:05.53	94.59	19.21	-42.3	-46.8	11.0	1.84e-03	0	60	0	173015040	55	6324
2026-01-23 08:40:06.54	94.40	19.29	-42.4	-47.0	10.8	2.28e-03	0	59	0	175112192	55	6474
2026-01-23 08:40:07.55	94.21	19.38	-42.3	-46.9	10.8	2.52e-03	0	59	0	176160768	55	6400
2026-01-23 08:40:08.56	94.02	19.46	-42.2	-46.6	11.2	1.71e-03	0	59	0	178257920	55	6193
2026-01-23 08:40:09.57	93.83	19.54	-41.9	-46.0	11.8	7.18e-04	0	59	0	180355072	55	5758
2026-01-23 08:40:10.58	93.64	19.63	-41.9	-45.9	11.9	3.62e-04	0	60	0	182452224	55	5716
2026-01-23 08:40:11.59	93.44	19.71	-41.8	-45.8	12.0	4.09e-04	0	59	0	184549376	55	5644
2026-01-23 08:40:12.60	93.25	19.79	-41.9	-46.1	11.7	4.91e-04	0	59	0	186646528	55	5819
2026-01-23 08:40:13.61	93.05	19.87	-42.2	-46.6	11.2	1.20e-03	0	60	0	187695104	55	6186
2026-01-23 08:40:14.62	92.86	19.96	-42.0	-46.4	11.5	1.10e-03	0	59	0	189792256	55	5995
2026-01-23 08:40:15.63	92.66	20.04	-42.0	-46.2	11.6	6.82e-04	0	59	0	191889408	55	5885
2026-01-23 08:40:16.64	92.46	20.12	-42.0	-46.2	11.5	7.00e-04	0	60	0	193986560	55	5879
2026-01-23 08:40:17.65	92.26	20.21	-42.0	-46.3	11.4	7.69e-04	0	59	0	196083712	55	5988
2026-01-23 08:40:18.66	92.06	20.29	-42.3	-47.1	10.6	3.24e-03	0	60	0	197132288	55	6536
2026-01-23 08:40:19.67	91.86	20.37	-42.3	-47.2	10.5	4.16e-03	0	59	0	199229440	55	6610
2026-01-23 08:40:20.68	91.65	20.45	-42.2	-47.0	10.6	3.83e-03	0	60	0	201326592	55	6451
2026-01-23 08:40:21.68	91.45	20.54	-42.2	-46.8	10.8	2.21e-03	0	60	0	203423744	55	6297
2026-01-23 08:40:22.69	91.25	20.62	-42.0	-46.4	11.2	1.40e-03	0	59	0	205520896	55	6012
2026-01-23 08:40:23.70	91.04	20.70	-41.9	-46.4	11.2	1.14e-03	0	60	0	206569472	55	5993
2026-01-23 08:40:24.71	90.83	20.78	-41.9	-46.2	11.4	7.98e-04	0	60	0	208666624	55	5880
2026-01-23 08:40:25.72	90.62	20.86	-41.9	-46.4	11.2	1.17e-03	0	60	0	210763776	55	6001
2026-01-23 08:40:26.73	90.41	20.94	-41.7	-46.0	11.6	9.51e-04	0	60	0	212860928	55	5728
2026-01-23 08:40:27.74	90.20	21.03	-41.7	-46.0	11.5	8.44e-04	0	60	0	214958080	55	5733
2026-01-23 08:40:28.75	89.99	21.11	-41.6	-45.7	11.7	4.90e-04	0	60	0	216006656	55	5585
2026-01-23 08:40:29.76	89.78	21.19	-41.5	-45.6	11.8	3.62e-04	0	60	0	218103808	54	5811
2026-01-23 08:40:30.77	89.56	21.27	-41.6	-45.9	11.5	6.32e-04	0	60	0	220200960	54	6025
2026-01-23 08:40:31.78	89.35	21.35	-41.6	-45.8	11.5	6.96e-04	0	60	0	222298112	54	5967
2026-01-23 08:40:32.79	89.13	21.43	-41.6	-46.0	11.4	1.03e-03	0	60	0	224395264	54	6077
2026-01-23 08:40:33.80	88.91	21.51	-41.6	-46.0	11.4	1.03e-03	0	59	0	225443840	54	6069
2026-01-23 08:40:34.81	88.69	21.59	-41.6	-45.9	11.5	7.06e-04	0	60	0	227540992	54	6009
2026-01-23 08:40:35.82	88.47	21.67	-41.7	-46.0	11.4	9.09e-04	0	60	0	229638144	54	6069
2026-01-23 08:40:36.83	88.25	21.75	-41.7	-46.1	11.4	1.01e-03	0	60	0	231735296	54	6137
2026-01-23 08:40:37.84	88.03	21.83	-41.7	-46.0	11.4	9.85e-04	0	60	0	233832448	54	6101
2026-01-23 08:40:38.85	87.80	21.91	-41.6	-45.9	11.5	8.73e-04	0	60	0	234881024	54	6005
2026-01-23 08:40:39.86	87.58	21.99	-41.6	-45.9	11.6	6.42e-04	0	60	0	236978176	54	6014
2026-01-23 08:40:40.86	87.36	22.07	-41.4	-45.3	12.1	5.08e-04	0	60	0	239075328	54	5652
2026-01-23 08:40:41.87	87.13	22.15	-41.3	-45.2	12.3	1.96e-04	0	60	0	241172480	54	5538
2026-01-23 08:40:42.88	86.90	22.23	-41.4	-45.3	12.2	2.62e-04	0	60	0	243269632	54	5633
2026-01-23 08:40:43.89	86.67	22.31	-41.4	-45.2	12.4	1.52e-04	0	60	0	244318208	54	5533
2026-01-23 08:40:44.90	86.44	22.38	-41.5	-45.5	12.0	2.14e-04	0	60	0	246415360	54	5776
2026-01-23 08:40:45.91	86.21	22.46	-41.5	-45.5	12.1	3.58e-04	0	60	0	248512512	54	5732
2026-01-23 08:40:46.92	85.98	22.54	-41.4	-45.2	12.4	2.33e-04	0	59	0	250609664	54	5547
2026-01-23 08:40:47.93	85.74	22.62	-41.3	-44.9	12.7	6.86e-05	0	60	0	252706816	54	5371
2026-01-23 08:40:48.94	85.51	22.69	-41.1	-44.6	13.1	7.01e-05	0	60	0	254803968	54	5198
2026-01-23 08:40:49.95	85.27	22.77	-41.2	-44.7	12.9	4.04e-05	0	60	0	255852544	54	5252
2026-01-23 08:40:50.96	85.03	22.85	-41.2	-44.7	12.9	3.89e-05	0	60	0	257949696	54	5262
2026-01-23 08:40:51.97	84.79	22.92	-41.1	-44.4	13.3	2.44e-05	0	60	0	260046848	54	5096
2026-01-23 08:40:52.98	84.55	23.00	-40.8	-44.0	13.7	8.30e-06	0	60	0	262144000	53	5152
2026-01-23 08:40:53.99	84.31	23.07	-40.8	-44.0	13.7	6.10e-06	0	60	0	264241152	53	5155
2026-01-23 08:40:55.00	84.07	23.15	-40.9	-44.2	13.6	3.80e-06	0	60	0	265289728	53	5244
2026-01-23 08:40:56.01	83.83	23.22	-41.2	-44.7	13.1	1.67e-05	0	60	0	267386880	53	5529
2026-01-23 08:40:57.02	83.58	23.30	-41.3	-44.8	12.9	3.12e-05	0	60	0	269484032	53	5653
2026-01-23 08:40:58.02	83.34	23.37	-41.2	-44.7	13.1	3.96e-05	0	60	0	271581184	53	5581
2026-01-23 08:40:59.03	83.09	23.45	-41.3	-44.8	12.9	4.27e-05	0	60	0	273678336	53	5639
2026-01-23 08:41:00.04	82.84	23.52	-41.2	-44.7	13.1	3.81e-05	0	60	0	274726912	53	5569
2026-01-23 08:41:01.05	82.59	23.59	-41.2	-44.7	13.2	1.60e-05	0	60	0	276824064	53	5531
2026-01-23 08:41:02.06	82.34	23.66	-41.1	-44.6	13.2	2.05e-05	0	60	0	278921216	53	5502
2026-01-23 08:41:03.07	82.09	23.74	-41.1	-44.6	13.2	1.52e-05	0	60	0	281018368	53	5497
2026-01-23 08:41:04.08	81.84	23.81	-41.2	-44.7	13.2	1.98e-05	0	60	0	283115520	53	5546
2026-01-23 08:41:05.09	81.59	23.88	-41.3	-45.0	12.8	4.34e-05	0	60	0	284164096	53	5758
2026-01-23 08:41:06.10	81.33	23.95	-41.3	-44.9	13.0	5.79e-05	0	60	0	286261248	53	5658
2026-01-23 08:41:07.11	81.07	24.02	-41.4	-45.2	12.7	4.57e-05	0	60	0	288358400	53	5861
2026-01-23 08:41:08.12	80.82	24.09	-41.6	-45.5	12.3	1.08e-04	0	60	0	290455552	53	6129
2026-01-23 08:41:09.13	80.56	24.16	-41.5	-45.4	12.5	1.36e-04	0	60	0	292552704	53	6018
2026-01-23 08:41:10.14	80.30	24.23	-41.3	-44.9	13.0	7.09e-05	0	60	0	293601280	53	5707
2026-01-23 08:41:11.15	80.04	24.30	-41.2	-44.6	13.2	1.37e-05	0	60	0	295698432	53	5514
2026-01-23 08:41:12.16	79.78	24.37	-41.3	-44.9	13.1	3.05e-05	0	60	0	297795584	53	5660
2026-01-23 08:41:13.17	79.51	24.44	-41.4	-45.1	12.8	4.95e-05	0	60	0	299892736	53	5841
2026-01-23 08:41:14.18	79.25	24.50	-41.3	-45.0	13.0	4.57e-05	0	60	0	301989888	53	5740
2026-01-23 08:41:15.19	78.98	24.57	-41.3	-44.8	13.2	2.97e-05	0	60	0	303038464	53	5654
2026-01-23 08:41:16.20	78.72	24.64	-41.1	-44.5	13.4	1.37e-05	0	60	0	305135616	53	5445
2026-01-23 08:41:17.21	78.45	24.70	-41.1	-44.6	13.3	1.60e-05	0	60	0	307232768	53	5505
2026-01-23 08:41:18.22	78.18	24.77	-41.3	-44.9	13.0	3.58e-05	0	60	0	309329920	53	5709
2026-01-23 08:41:19.23	77.91	24.83	-41.4	-45.0	12.9	4.27e-05	0	60	0	311427072	53	5779
2026-01-23 08:41:20.24	77.64	24.90	-41.3	-44.9	13.0	3.58e-05	0	60	0	312475648	53	5722
2026-01-23 08:41:21.25	77.37	24.96	-41.4	-45.0	13.0	4.50e-05	0	60	0	314572800	53	5739
2026-01-23 08:41:22.25	77.10	25.02	-41.2	-44.7	13.3	2.97e-05	0	60	0	316669952	53	5583
2026-01-23 08:41:23.26	76.82	25.09	-41.2	-44.7	13.2	2.97e-05	0	60	0	318767104	53	5546
2026-01-23 08:41:24.27	76.55	25.15	-41.2	-44.7	13.2	1.90e-05	0	60	0	320864256	53	5542
2026-01-23 08:41:25.28	76.27	25.21	-41.1	-44.5	13.4	1.06e-05	0	60	0	322961408	53	5459
2026-01-23 08:41:26.29	75.99	25.27	-41.0	-44.3	13.7	9.90e-06	0	60	0	324009984	53	5291
2026-01-23 08:41:27.30	75.72	25.33	-41.0	-44.3	13.7	6.80e-06	0	60	0	326107136	53	5280
2026-01-23 08:41:28.31	75.44	25.39	-41.0	-44.3	13.7	7.60e-06	0	60	0	328204288	53	5295
2026-01-23 08:41:29.32	75.15	25.45	-41.0	-44.2	13.8	8.30e-06	0	60	0	330301440	53	5256
2026-01-23 08:41:30.33	74.87	25.51	-40.9	-44.1	13.8	6.10e-06	0	60	0	332398592	53	5214
2026-01-23 08:41:31.34	74.59	25.57	-41.1	-44.5	13.5	9.10e-06	0	60	0	333447168	53	5409
2026-01-23 08:41:32.35	74.31	25.62	-41.2	-44.6	13.3	8.30e-06	0	60	0	335544320	53	5519
2026-01-23 08:41:33.36	74.02	25.68	-41.2	-44.6	13.4	1.14e-05	0	60	0	337641472	53	5501
2026-01-23 08:41:34.37	73.74	25.73	-41.1	-44.6	13.4	1.44e-05	0	60	0	339738624	53	5471
2026-01-23 08:41:35.38	73.45	25.79	-41.1	-44.5	13.5	2.36e-05	0	60	0	341835776	53	5448
2026-01-23 08:41:36.39	73.16	25.84	-41.1	-44.5	13.5	1.60e-05	0	60	0	342884352	53	5425
2026-01-23 08:41:37.40	72.87	25.90	-41.2	-44.7	13.2	2.21e-05	0	60	0	344981504	53	5580
2026-01-23 08:41:38.41	72.58	25.95	-41.4	-45.0	13.0	1.29e-05	0	60	0	347078656	53	5776
2026-01-23 08:41:39.42	72.29	26.00	-41.2	-44.6	13.4	1.44e-05	0	60	0	349175808	53	5492
2026-01-23 08:41:40.43	72.00	26.06	-41.3	-44.9	13.1	1.83e-05	0	60	0	351272960	53	5677
2026-01-23 08:41:41.44	71.71	26.11	-41.5	-45.1	12.9	4.42e-05	0	60	0	352321536	53	5830
2026-01-23 08:41:42.45	71.41	26.16	-41.5	-45.3	12.6	7.01e-05	0	60	0	354418688	53	5964
2026-01-23 08:41:43.46	71.12	26.21	-41.7	-45.6	12.4	1.76e-04	0	60	0	356515840	54	5812
2026-01-23 08:41:44.47	70.82	26.25	-41.9	-46.0	12.0	1.89e-04	0	60	0	358612992	54	6102
2026-01-23 08:41:45.48	70.53	26.30	-42.1	-46.4	11.6	4.24e-04	0	60	0	360710144	54	6385
2026-01-23 08:41:46.49	70.23	26.35	-42.1	-46.4	11.6	6.89e-04	0	60	0	361758720	54	6387
2026-01-23 08:41:47.50	69.93	26.40	-42.0	-46.3	11.6	7.90e-04	0	60	0	363855872	54	6327
2026-01-23 08:41:48.51	69.63	26.44	-42.2	-46.6	11.5	1.05e-03	0	60	0	365953024	55	6139
2026-01-23 08:41:49.52	69.33	26.49	-42.3	-46.9	11.1	1.51e-03	0	60	0	368050176	55	6418
2026-01-23 08:41:50.53	69.03	26.53	-42.5	-47.3	10.7	2.40e-03	0	60	0	370147328	55	6658
2026-01-23 08:41:51.54	68.73	26.57	-42.3	-46.8	11.1	2.04e-03	0	60	0	371195904	55	6346
2026-01-23 08:41:52.55	68.43	26.62	-42.0	-46.2	11.8	6.04e-04	0	60	0	373293056	55	5915
2026-01-23 08:41:53.56	68.13	26.66	-41.9	-45.9	12.2	3.29e-04	0	60	0	375390208	55	5684
2026-01-23 08:41:54.57	67.82	26.70	-41.8	-45.6	12.4	2.49e-04	0	60	0	377487360	55	5525
2026-01-23 08:41:55.57	67.52	26.74	-42.0	-46.0	12.0	3.49e-04	0	60	0	379584512	55	5788
2026-01-23 08:41:56.58	67.21	26.78	-42.1	-46.4	11.7	6.13e-04	0	60	0	380633088	55	5999
2026-01-23 08:41:57.59	66.91	26.82	-42.2	-46.5	11.5	6.75e-04	0	60	0	382730240	55	6096
2026-01-23 08:41:58.60	66.60	26.85	-42.3	-46.8	11.3	8.35e-04	0	60	0	384827392	55	6292
2026-01-23 08:41:59.61	66.29	26.89	-42.3	-46.9	11.1	1.70e-03	0	60	0	386924544	55	6375
2026-01-23 08:42:00.62	65.99	26.93	-42.4	-47.1	10.9	2.34e-03	0	60	0	389021696	55	6519
2026-01-23 08:42:01.63	65.68	26.96	-42.4	-47.0	11.0	2.41e-03	0	60	0	391118848	55	6474
2026-01-23 08:42:02.64	65.37	27.00	-42.4	-47.0	11.0	2.15e-03	0	60	0	392167424	55	6462
2026-01-23 08:42:03.65	65.06	27.03	-42.5	-47.2	10.8	2.70e-03	0	60	0	394264576	55	6605
2026-01-23 08:42:04.66	64.75	27.06	-42.3	-46.7	11.3	1.91e-03	0	60	0	396361728	55	6240
2026-01-23 08:42:05.67	64.43	27.09	-42.0	-46.2	11.9	3.89e-04	0	60	0	398458880	55	5869
2026-01-23 08:42:06.68	64.12	27.12	-42.0	-46.2	11.9	4.15e-04	0	60	0	400556032	55	5883
2026-01-23 08:42:07.69	63.81	27.15	-42.2	-46.6	11.4	6.51e-04	0	60	0	401604608	55	6157
2026-01-23 08:42:08.70	63.50	27.18	-42.3	-46.9	11.2	1.21e-03	0	60	0	403701760	55	6383
2026-01-23 08:42:09.71	63.18	27.21	-42.3	-46.9	11.2	1.47e-03	0	60	0	405798912	55	6383
2026-01-23 08:42:10.72	62.87	27.24	-42.2	-46.5	11.5	6.90e-04	0	60	0	407896064	55	6122
2026-01-23 08:42:11.73	62.55	27.26	-42.0	-46.3	11.8	4.57e-04	0	60	0	409993216	55	5939
2026-01-23 08:42:12.73	62.24	27.29	-42.1	-46.3	11.8	4.31e-04	0	60	0	411041792	55	5966
2026-01-23 08:42:13.75	61.92	27.31	-42.0	-46.2	11.8	4.54e-04	0	60	0	413138944	55	5872
2026-01-23 08:42:14.76	61.61	27.33	-41.9	-45.9	12.2	3.96e-04	0	60	0	415236096	55	5693
2026-01-23 08:42:15.77	61.29	27.36	-41.8	-45.8	12.1	2.97e-04	0	60	0	417333248	55	5656
2026-01-23 08:42:16.77	60.98	27.38	-42.0	-46.3	11.7	3.79e-04	0	60	0	419430400	55	5960
2026-01-23 08:42:17.79	60.65	27.40	-42.2	-46.7	11.4	6.19e-04	0	60	0	420478976	55	6222
2026-01-23 08:42:18.79	60.34	27.42	-42.4	-47.1	10.9	1.47e-03	0	60	0	422576128	55	6536
2026-01-23 08:42:19.80	60.02	27.44	-42.5	-47.3	10.7	2.68e-03	0	60	0	424673280	55	6718
2026-01-23 08:42:20.81	59.70	27.45	-42.6	-47.6	10.5	3.53e-03	0	60	0	426770432	55	6886
2026-01-23 08:42:21.82	59.38	27.47	-42.8	-47.9	10.3	6.12e-03	0	60	0	428867584	56	6738
2026-01-23 08:42:22.83	59.06	27.48	-42.9	-48.4	9.8	7.61e-03	0	60	0	429916160	56	7137
2026-01-23 08:42:23.84	58.74	27.50	-43.0	-48.4	9.8	6.51e-03	0	60	0	432013312	56	7171
2026-01-23 08:42:24.85	58.42	27.51	-42.6	-47.4	10.7	2.96e-03	0	60	0	434110464	56	6412
2026-01-23 08:42:25.86	58.10	27.53	-42.4	-46.9	11.4	1.22e-03	0	60	0	436207616	56	5994
2026-01-23 08:42:26.87	57.78	27.54	-42.2	-46.4	11.9	7.22e-04	0	60	0	438304768	56	5675
2026-01-23 08:42:27.88	57.46	27.55	-42.0	-45.9	12.4	2.82e-04	0	60	0	439353344	56	5344
2026-01-23 08:42:28.89	57.14	27.56	-41.7	-45.5	12.7	9.84e-05	0	61	0	441450496	55	5452
2026-01-23 08:42:29.90	56.82	27.57	-41.8	-45.7	12.4	6.86e-05	0	60	0	443547648	55	5552
2026-01-23 08:42:30.91	56.50	27.57	-41.8	-45.8	12.4	1.08e-04	0	60	0	445644800	55	5600
2026-01-23 08:42:31.93	56.18	27.58	-42.0	-46.2	12.0	1.86e-04	0	60	0	447741952	55	5878
2026-01-23 08:42:32.93	55.86	27.58	-42.1	-46.2	11.9	3.87e-04	0	61	0	448790528	55	5917
2026-01-23 08:42:33.94	55.54	27.59	-42.1	-46.3	11.8	3.46e-04	0	60	0	450887680	55	5941
2026-01-23 08:42:34.95	55.21	27.59	-42.1	-46.2	11.9	4.14e-04	0	60	0	452984832	55	5905
2026-01-23 08:42:35.96	54.89	27.60	-42.2	-46.4	11.7	4.82e-04	0	60	0	455081984	55	6050
2026-01-23 08:42:36.97	54.57	27.60	-42.2	-46.4	11.7	5.02e-04	0	60	0	457179136	55	6008
2026-01-23 08:42:37.98	54.25	27.60	-42.0	-46.1	12.1	3.12e-04	0	60	0	459276288	55	5813
2026-01-23 08:42:38.99	53.93	27.60	-41.9	-45.8	12.4	1.75e-04	0	60	0	460324864	55	5635
2026-01-23 08:42:40.00	53.61	27.60	-41.8	-45.7	12.4	9.84e-05	0	60	0	462422016	55	5550
2026-01-23 08:42:41.01	53.28	27.59	-41.7	-45.5	12.7	1.09e-04	0	60	0	464519168	55	5409
2026-01-23 08:42:42.02	52.96	27.59	-41.9	-45.9	12.3	1.33e-04	0	61	0	466616320	55	5680
2026-01-23 08:42:43.03	52.64	27.59	-42.0	-46.1	12.2	2.68e-04	0	60	0	468713472	55	5812
2026-01-23 08:42:44.04	52.32	27.58	-42.1	-46.2	12.0	2.37e-04	0	60	0	469762048	55	5864
2026-01-23 08:42:45.05	52.00	27.57	-42.2	-46.5	11.7	4.46e-04	0	60	0	471859200	55	6072
2026-01-23 08:42:46.05	51.68	27.57	-42.3	-46.7	11.4	5.48e-04	0	61	0	473956352	55	6236
2026-01-23 08:42:47.06	51.36	27.56	-42.4	-47.1	11.1	1.13e-03	0	61	0	476053504	55	6506
2026-01-23 08:42:48.07	51.04	27.55	-42.5	-47.1	11.0	1.65e-03	0	61	0	478150656	55	6559
2026-01-23 08:42:49.08	50.72	27.54	-42.3	-46.7	11.4	1.30e-03	0	60	0	479199232	55	6271
2026-01-23 08:42:50.09	50.40	27.53	-42.0	-46.1	12.0	4.10e-04	0	60	0	481296384	55	5820
2026-01-23 08:42:51.10	50.08	27.51	-41.7	-45.4	12.7	1.09e-04	0	60	0	483393536	55	5392
2026-01-23 08:42:52.11	49.76	27.50	-41.5	-44.9	13.3	2.28e-05	0	61	0	485490688	54	5388
2026-01-23 08:42:53.12	49.44	27.49	-41.4	-44.8	13.4	1.06e-05	0	60	0	487587840	54	5333
2026-01-23 08:42:54.13	49.12	27.47	-41.4	-44.7	13.5	6.80e-06	0	60	0	488636416	54	5264
2026-01-23 08:42:55.14	48.80	27.45	-41.5	-45.0	13.2	1.90e-05	0	60	0	490733568	54	5445
2026-01-23 08:42:56.15	48.48	27.44	-41.6	-45.3	12.9	1.52e-05	0	61	0	492830720	54	5627
2026-01-23 08:42:57.16	48.17	27.42	-41.6	-45.1	13.1	2.97e-05	0	60	0	494927872	54	5504
2026-01-23 08:42:58.17	47.85	27.40	-41.6	-45.1	13.1	4.04e-05	0	60	0	497025024	54	5521
2026-01-23 08:42:59.18	47.53	27.38	-41.4	-44.9	13.3	2.97e-05	0	61	0	498073600	54	5378
2026-01-23 08:43:00.18	47.22	27.36	-41.4	-44.8	13.4	1.60e-05	0	61	0	500170752	54	5334
2026-01-23 08:43:01.19	46.90	27.34	-41.5	-45.0	13.2	1.67e-05	0	60	0	502267904	54	5432
2026-01-23 08:43:02.20	46.58	27.31	-41.5	-45.0	13.2	2.05e-05	0	61	0	504365056	54	5435
2026-01-23 08:43:03.21	46.27	27.29	-41.6	-45.2	13.0	1.67e-05	0	60	0	506462208	54	5565
2026-01-23 08:43:04.22	45.95	27.26	-41.7	-45.4	12.8	5.56e-05	0	60	0	507510784	54	5664
2026-01-23 08:43:05.23	45.64	27.24	-41.8	-45.6	12.6	6.86e-05	0	60	0	509607936	54	5851
2026-01-23 08:43:06.24	45.33	27.21	-41.9	-45.7	12.6	1.60e-04	0	60	0	511705088	54	5857
2026-01-23 08:43:07.25	45.01	27.18	-41.9	-45.8	12.5	1.25e-04	0	61	0	513802240	54	5924
2026-01-23 08:43:08.26	44.70	27.16	-41.7	-45.2	13.0	5.64e-05	0	60	0	515899392	54	5584
2026-01-23 08:43:09.27	44.39	27.13	-41.6	-45.1	13.1	2.21e-05	0	61	0	516947968	54	5509
2026-01-23 08:43:10.28	44.07	27.10	-41.7	-45.3	12.9	2.97e-05	0	61	0	519045120	54	5613
2026-01-23 08:43:11.29	43.76	27.06	-41.9	-45.9	12.4	8.54e-05	0	61	0	521142272	54	5993
2026-01-23 08:43:12.30	43.45	27.03	-42.2	-46.3	11.9	3.51e-04	0	60	0	523239424	54	6318
2026-01-23 08:43:13.31	43.14	27.00	-42.1	-46.1	12.1	2.87e-04	0	61	0	525336576	54	6200
2026-01-23 08:43:14.32	42.83	26.97	-42.1	-46.0	12.2	2.04e-04	0	60	0	526385152	54	6109
2026-01-23 08:43:15.33	42.53	26.93	-42.1	-46.1	12.1	1.47e-04	0	61	0	528482304	54	6157
2026-01-23 08:43:16.34	42.22	26.90	-42.1	-46.0	12.2	1.45e-04	0	60	0	530579456	54	6079
2026-01-23 08:43:17.34	41.91	26.86	-41.9	-45.7	12.5	1.58e-04	0	61	0	532676608	54	5886
2026-01-23 08:43:18.35	41.61	26.82	-41.8	-45.4	12.8	8.23e-05	0	61	0	534773760	54	5720
2026-01-23 08:43:19.36	41.30	26.78	-41.7	-45.2	13.1	5.03e-05	0	60	0	535822336	54	5549
2026-01-23 08:43:20.37	41.00	26.74	-41.8	-45.4	12.9	3.35e-05	0	61	0	537919488	54	5658
2026-01-23 08:43:21.38	40.69	26.70	-41.7	-45.3	13.0	3.05e-05	0	60	0	540016640	54	5629
2026-01-23 08:43:22.39	40.39	26.66	-42.0	-45.8	12.4	5.56e-05	0	61	0	542113792	54	5976
2026-01-23 08:43:23.40	40.09	26.62	-41.9	-45.6	12.6	1.12e-04	0	60	0	544210944	54	5845
2026-01-23 08:43:24.41	39.79	26.58	-41.9	-45.6	12.6	6.40e-05	0	61	0	545259520	54	5821
2026-01-23 08:43:25.42	39.48	26.54	-41.8	-45.4	12.9	5.87e-05	0	60	0	547356672	54	5696
2026-01-23 08:43:26.43	39.18	26.49	-41.9	-45.7	12.6	9.38e-05	0	60	0	549453824	54	5910
2026-01-23 08:43:27.44	38.89	26.45	-42.0	-46.0	12.3	1.49e-04	0	60	0	551550976	54	6070
2026-01-23 08:43:28.45	38.59	26.40	-42.0	-46.0	12.2	1.90e-04	0	60	0	553648128	54	6119
2026-01-23 08:43:29.46	38.29	26.36	-42.0	-46.0	12.2	2.19e-04	0	60	0	555745280	54	6118
2026-01-23 08:43:30.47	37.99	26.31	-42.3	-46.5	11.7	4.90e-04	0	61	0	556793856	55	6097
2026-01-23 08:43:31.48	37.70	26.26	-42.3	-46.7	11.5	7.97e-04	0	60	0	558891008	55	6242
2026-01-23 08:43:32.49	37.40	26.21	-42.5	-47.0	11.1	1.09e-03	0	60	0	560988160	55	6477
2026-01-23 08:43:33.50	37.11	26.16	-42.6	-47.2	11.0	2.19e-03	0	61	0	563085312	55	6608
2026-01-23 08:43:34.51	36.82	26.11	-42.6	-47.3	10.9	2.07e-03	0	60	0	565182464	55	6686
2026-01-23 08:43:35.52	36.52	26.06	-42.5	-47.1	11.0	2.24e-03	0	61	0	566231040	55	6550
2026-01-23 08:43:36.53	36.23	26.01	-42.7	-47.4	10.9	2.15e-03	0	61	0	568328192	56	6376
2026-01-23 08:43:37.54	35.94	25.96	-42.8	-47.6	10.8	2.44e-03	0	61	0	570425344	56	6537
2026-01-23 08:43:38.55	35.65	25.91	-42.7	-47.4	10.9	2.72e-03	0	60	0	572522496	56	6396
2026-01-23 08:43:39.55	35.37	25.85	-42.8	-47.6	10.7	2.82e-03	0	61	0	574619648	56	6513
2026-01-23 08:43:40.56	35.08	25.80	-42.8	-47.7	10.7	2.72e-03	0	61	0	575668224	56	6599
2026-01-23 08:43:41.57	34.80	25.74	-42.9	-47.8	10.5	3.39e-03	0	60	0	577765376	56	6654
2026-01-23 08:43:42.58	34.51	25.69	-42.7	-47.3	11.0	2.93e-03	0	61	0	579862528	56	6287
2026-01-23 08:43:43.59	34.23	25.63	-42.6	-47.2	11.0	1.75e-03	0	61	0	581959680	56	6268
2026-01-23 08:43:44.60	33.94	25.57	-42.6	-47.1	11.2	1.39e-03	0	60	0	584056832	56	6163
2026-01-23 08:43:45.61	33.66	25.52	-42.6	-47.1	11.2	1.37e-03	0	61	0	585105408	56	6177
2026-01-23 08:43:46.62	33.38	25.46	-42.5	-47.0	11.3	1.40e-03	0	61	0	587202560	56	6083
2026-01-23 08:43:47.63	33.10	25.40	-42.4	-46.7	11.7	8.03e-04	0	60	0	589299712	56	5884
2026-01-23 08:43:48.64	32.82	25.34	-42.2	-46.3	12.0	4.29e-04	0	61	0	591396864	56	5645
2026-01-23 08:43:49.65	32.54	25.28	-42.1	-46.1	12.2	1.98e-04	0	61	0	593494016	56	5524
2026-01-23 08:43:50.66	32.27	25.22	-42.2	-46.2	12.1	2.62e-04	0	61	0	594542592	56	5578
2026-01-23 08:43:51.67	31.99	25.16	-42.2	-46.5	11.9	3.49e-04	0	61	0	596639744	56	5731
2026-01-23 08:43:52.68	31.72	25.10	-42.2	-46.3	12.0	3.43e-04	0	61	0	598736896	56	5601
2026-01-23 08:43:53.69	31.44	25.03	-41.8	-45.7	12.4	1.52e-04	0	61	0	600834048	55	5576
2026-01-23 08:43:54.70	31.17	24.97	-41.7	-45.4	12.8	9.38e-05	0	61	0	602931200	55	5391
2026-01-23 08:43:55.71	30.90	24.91	-41.6	-45.4	12.8	6.25e-05	0	61	0	603979776	55	5361
2026-01-23 08:43:56.72	30.63	24.84	-41.8	-45.7	12.5	9.30e-05	0	60	0	606076928	55	5576
2026-01-23 08:43:57.73	30.36	24.78	-42.2	-46.4	11.9	2.05e-04	0	61	0	608174080	55	6004
2026-01-23 08:43:58.74	30.09	24.71	-42.4	-47.0	11.1	5.97e-04	0	61	0	610271232	55	6470
2026-01-23 08:43:59.75	29.83	24.65	-42.4	-46.9	11.3	1.38e-03	0	60	0	612368384	55	6394
2026-01-23 08:44:00.76	29.56	24.58	-42.5	-47.3	10.9	2.02e-03	0	61	0	613416960	55	6680
2026-01-23 08:44:01.77	29.30	24.52	-42.6	-47.3	10.8	2.66e-03	0	60	0	615514112	55	6719
2026-01-23 08:44:02.78	29.03	24.45	-42.6	-47.6	10.5	3.70e-03	0	60	0	617611264	55	6913
2026-01-23 08:44:03.79	28.77	24.38	-42.5	-47.3	10.9	2.33e-03	0	61	0	619708416	55	6677
2026-01-23 08:44:04.79	28.51	24.31	-42.4	-47.1	10.9	2.21e-03	0	61	0	621805568	55	6556
2026-01-23 08:44:05.80	28.25	24.25	-42.4	-47.1	11.0	2.13e-03	0	60	0	622854144	55	6551
2026-01-23 08:44:06.81	27.99	24.18	-42.3	-46.9	11.3	1.51e-03	0	61	0	624951296	55	6364
2026-01-23 08:44:07.82	27.74	24.11	-42.2	-46.6	11.6	8.65e-04	0	61	0	627048448	55	6194
2026-01-23 08:44:08.83	27.48	24.04	-42.3	-46.7	11.5	7.27e-04	0	61	0	629145600	55	6249
2026-01-23 08:44:09.84	27.22	23.97	-42.3	-46.7	11.4	1.00e-03	0	60	0	631242752	55	6256
2026-01-23 08:44:10.85	26.97	23.90	-42.3	-46.8	11.4	8.88e-04	0	61	0	633339904	55	6310
2026-01-23 08:44:11.86	26.72	23.83	-42.4	-46.9	11.3	1.15e-03	0	61	0	634388480	55	6407
2026-01-23 08:44:12.87	26.46	23.75	-42.4	-46.9	11.4	1.23e-03	0	61	0	636485632	55	6391
2026-01-23 08:44:13.88	26.21	23.68	-42.4	-47.0	11.1	1.54e-03	0	61	0	638582784	55	6465
2026-01-23 08:44:14.89	25.96	23.61	-42.3	-46.8	11.4	1.14e-03	0	61	0	640679936	55	6309
2026-01-23 08:44:15.90	25.72	23.54	-42.2	-46.6	11.7	6.18e-04	0	61	0	642777088	55	6142
2026-01-23 08:44:16.91	25.47	23.46	-42.0	-46.0	12.2	3.65e-04	0	61	0	643825664	55	5741
2026-01-23 08:44:17.92	25.22	23.39	-41.8	-45.6	12.6	1.75e-04	0	61	0	645922816	55	5506
2026-01-23 08:44:18.93	24.98	23.32	-41.6	-45.3	12.9	4.73e-05	0	61	0	648019968	55	5312
2026-01-23 08:44:19.94	24.73	23.24	-41.7	-45.4	12.8	6.79e-05	0	61	0	650117120	55	5369
2026-01-23 08:44:20.95	24.49	23.17	-41.6	-45.2	13.1	4.65e-05	0	61	0	652214272	55	5228
2026-01-23 08:44:21.96	24.25	23.09	-41.6	-45.2	13.0	3.12e-05	0	61	0	653262848	55	5264
2026-01-23 08:44:22.96	24.01	23.02	-41.5	-45.2	13.0	4.11e-05	0	61	0	655360000	55	5230
2026-01-23 08:44:23.97	23.77	22.94	-41.7	-45.4	12.7	3.96e-05	0	61	0	657457152	55	5401
2026-01-23 08:44:24.98	23.54	22.87	-41.6	-45.2	13.0	5.49e-05	0	61	0	659554304	55	5251
2026-01-23 08:44:25.99	23.30	22.79	-41.5	-45.0	13.2	2.51e-05	0	61	0	661651456	54	5431
2026-01-23 08:44:27.00	23.06	22.71	-41.4	-44.9	13.3	1.29e-05	0	61	0	662700032	54	5345
2026-01-23 08:44:28.01	22.83	22.64	-41.3	-44.7	13.5	2.05e-05	0	61	0	664797184	54	5261
2026-01-23 08:44:29.02	22.60	22.56	-41.1	-44.4	13.7	9.10e-06	0	61	0	666894336	54	5088
2026-01-23 08:44:30.03	22.36	22.48	-41.1	-44.3	13.9	3.00e-06	0	61	0	668991488	54	5003
2026-01-23 08:44:31.04	22.13	22.41	-40.9	-44.1	14.1	1.50e-06	0	61	0	671088640	53	5163
2026-01-23 08:44:32.04	21.91	22.33	-40.8	-43.8	14.4	0.00e+00	0	61	0	672137216	53	5018
2026-01-23 08:44:33.05	21.68	22.25	-40.7	-43.8	14.4	7.00e-07	0	61	0	674234368	53	4987
2026-01-23 08:44:34.05	21.45	22.17	-40.7	-43.7	14.4	0.00e+00	0	61	0	676331520	53	4969
2026-01-23 08:44:35.06	21.23	22.10	-40.9	-44.0	14.1	3.00e-06	0	60	0	678428672	53	5149
2026-01-23 08:44:36.07	21.00	22.02	-41.0	-44.2	13.9	1.50e-06	0	61	0	680525824	53	5262
2026-01-23 08:44:37.08	20.78	21.94	-41.2	-44.5	13.7	4.50e-06	0	61	0	681574400	53	5423
2026-01-23 08:44:38.09	20.56	21.86	-41.3	-44.8	13.4	8.30e-06	0	61	0	683671552	53	5603
2026-01-23 08:44:39.10	20.33	21.78	-41.5	-45.1	13.1	1.90e-05	0	61	0	685768704	53	5819
2026-01-23 08:44:40.11	20.11	21.70	-41.5	-45.2	13.0	4.19e-05	0	61	0	687865856	53	5882
2026-01-23 08:44:41.12	19.89	21.62	-41.7	-45.5	12.6	7.55e-05	0	60	0	689963008	54	5764
2026-01-23 08:44:42.13	19.68	21.54	-41.7	-45.6	12.5	1.12e-04	0	61	0	691011584	54	5817
2026-01-23 08:44:43.14	19.46	21.46	-41.7	-45.6	12.5	8.31e-05	0	61	0	693108736	54	5792
2026-01-23 08:44:44.15	19.24	21.38	-41.6	-45.3	12.8	8.08e-05	0	61	0	695205888	54	5634
2026-01-23 08:44:45.16	19.03	21.30	-41.5	-45.1	13.1	2.82e-05	0	61	0	697303040	54	5494
2026-01-23 08:44:46.17	18.82	21.22	-41.3	-44.8	13.3	2.67e-05	0	61	0	699400192	54	5326
2026-01-23 08:44:47.18	18.60	21.14	-41.4	-44.9	13.2	2.13e-05	0	61	0	701497344	54	5397
2026-01-23 08:44:48.19	18.39	21.06	-41.6	-45.2	12.9	2.67e-05	0	61	0	702545920	54	5580
2026-01-23 08:44:49.19	18.18	20.98	-41.5	-45.2	12.9	4.57e-05	0	61	0	704643072	54	5543
2026-01-23 08:44:50.20	17.97	20.90	-41.4	-45.0	13.2	3.73e-05	0	61	0	706740224	54	5418
2026-01-23 08:44:51.22	17.76	20.81	-41.1	-44.4	13.7	8.30e-06	0	61	0	708837376	54	5080
2026-01-23 08:44:52.23	17.56	20.73	-41.0	-44.1	14.0	3.80e-06	0	61	0	710934528	53	5192
2026-01-23 08:44:53.23	17.35	20.65	-40.8	-43.9	14.2	3.00e-06	0	61	0	711983104	53	5074
2026-01-23 08:44:54.24	17.15	20.57	-40.5	-43.4	14.8	1.50e-06	0	61	0	714080256	53	4760
2026-01-23 08:44:55.25	16.95	20.49	-40.5	-43.3	14.8	7.00e-07	0	61	0	716177408	52	4993
2026-01-23 08:44:56.26	16.74	20.40	-40.5	-43.3	14.8	0.00e+00	0	61	0	718274560	52	5027
2026-01-23 08:44:57.27	16.54	20.32	-40.6	-43.6	14.5	0.00e+00	0	61	0	720371712	52	5182
2026-01-23 08:44:58.28	16.34	20.24	-40.7	-43.7	14.4	2.20e-06	0	60	0	721420288	52	5231
2026-01-23 08:44:59.29	16.14	20.16	-40.8	-43.8	14.3	1.50e-06	0	61	0	723517440	52	5329
2026-01-23 08:45:00.30	15.95	20.08	-40.9	-44.1	14.0	1.50e-06	0	61	0	725614592	52	5475
2026-01-23 08:45:01.31	15.75	19.99	-40.9	-44.0	14.1	3.00e-06	0	61	0	727711744	52	5450
2026-01-23 08:45:02.32	15.55	19.91	-40.8	-44.0	14.1	2.20e-06	0	61	0	729808896	52	5424
2026-01-23 08:45:03.33	15.36	19.83	-41.0	-44.2	13.9	7.00e-07	0	61	0	730857472	52	5566
2026-01-23 08:45:04.34	15.16	19.75	-41.0	-44.3	13.8	2.20e-06	0	61	0	732954624	52	5603
2026-01-23 08:45:05.35	14.97	19.66	-41.0	-44.1	14.0	3.00e-06	0	61	0	735051776	52	5522
2026-01-23 08:45:06.36	14.78	19.58	-41.0	-44.2	13.9	2.20e-06	0	61	0	737148928	52	5529
2026-01-23 08:45:07.37	14.59	19.50	-41.0	-44.2	13.9	3.80e-06	0	61	0	739246080	52	5586
2026-01-23 08:45:08.38	14.40	19.41	-41.0	-44.3	13.8	6.10e-06	0	61	0	740294656	52	5600
2026-01-23 08:45:09.39	14.21	19.33	-41.1	-44.3	13.8	3.80e-06	0	61	0	742391808	52	5625
2026-01-23 08:45:10.40	14.02	19.25	-41.1	-44.3	13.7	7.60e-06	0	61	0	744488960	52	5647
2026-01-23 08:45:11.41	13.84	19.16	-41.2	-44.5	13.6	1.37e-05	0	61	0	746586112	52	5785
2026-01-23 08:45:12.42	13.65	19.08	-41.2	-44.5	13.5	9.10e-06	0	61	0	748683264	53	5456
2026-01-23 08:45:13.43	13.47	19.00	-41.3	-44.6	13.4	9.90e-06	0	61	0	749731840	53	5525
2026-01-23 08:45:14.43	13.29	18.92	-41.3	-44.7	13.3	2.44e-05	0	61	0	751828992	53	5588
2026-01-23 08:45:15.44	13.10	18.83	-41.3	-44.7	13.3	2.89e-05	0	61	0	753926144	53	5589
2026-01-23 08:45:16.45	12.92	18.75	-41.2	-44.5	13.5	1.37e-05	0	61	0	756023296	53	5421
2026-01-23 08:45:17.46	12.74	18.67	-41.0	-44.2	13.8	5.30e-06	0	61	0	758120448	53	5272
2026-01-23 08:45:18.47	12.56	18.58	-41.0	-44.2	13.8	6.10e-06	0	61	0	759169024	53	5238
2026-01-23 08:45:19.48	12.39	18.50	-40.9	-44.1	13.9	4.50e-06	0	61	0	761266176	53	5164
2026-01-23 08:45:20.49	12.21	18.42	-40.8	-43.8	14.2	0.00e+00	0	61	0	763363328	53	5011
2026-01-23 08:45:21.50	12.03	18.33	-40.7	-43.7	14.3	7.00e-07	0	61	0	765460480	53	4930
2026-01-23 08:45:22.51	11.86	18.25	-40.7	-43.7	14.3	1.50e-06	0	61	0	767557632	53	4929
2026-01-23 08:45:23.52	11.68	18.17	-41.0	-44.2	13.8	4.50e-06	0	61	0	769654784	53	5271
2026-01-23 08:45:24.53	11.51	18.08	-41.1	-44.5	13.5	8.30e-06	0	61	0	770703360	53	5417
2026-01-23 08:45:25.54	11.34	18.00	-41.4	-45.0	12.9	2.21e-05	0	61	0	772800512	53	5760
2026-01-23 08:45:26.55	11.17	17.92	-41.5	-45.2	12.7	5.41e-05	0	61	0	774897664	53	5878
2026-01-23 08:45:27.56	10.99	17.83	-41.8	-45.7	12.2	1.20e-04	0	61	0	776994816	54	5889
2026-01-23 08:45:28.57	10.83	17.75	-41.7	-45.6	12.3	2.04e-04	0	61	0	779091968	54	5799
2026-01-23 08:45:29.58	10.66	17.67	-41.7	-45.5	12.4	1.62e-04	0	61	0	780140544	54	5751
2026-01-23 08:45:30.58	10.49	17.58	-41.5	-45.2	12.6	1.06e-04	0	61	0	782237696	54	5579
2026-01-23 08:45:31.59	10.32	17.50	-41.4	-45.1	12.8	7.93e-05	0	61	0	784334848	54	5524
2026-01-23 08:45:32.60	10.16	17.42	-41.4	-45.0	12.9	5.41e-05	0	61	0	786432000	54	5424
2026-01-23 08:45:33.61	9.99	17.34	-41.3	-44.9	13.0	2.89e-05	0	61	0	788529152	54	5372
2026-01-23 08:45:34.62	9.83	17.25	-41.4	-45.0	12.9	5.49e-05	0	61	0	789577728	54	5414
2026-01-23 08:45:35.63	9.67	17.17	-41.3	-44.9	13.0	7.32e-05	0	61	0	791674880	54	5370
2026-01-23 08:45:36.64	9.50	17.09	-41.3	-44.9	12.9	3.89e-05	0	61	0	793772032	54	5390
2026-01-23 08:45:37.65	9.34	17.00	-41.5	-45.3	12.5	7.17e-05	0	61	0	795869184	54	5607
2026-01-23 08:45:38.66	9.18	16.92	-41.6	-45.5	12.3	1.29e-04	0	61	0	797966336	54	5728
2026-01-23 08:45:39.67	9.02	16.84	-41.6	-45.6	12.1	1.75e-04	0	61	0	799014912	54	5845
2026-01-23 08:45:40.68	8.87	16.75	-41.7	-45.8	11.9	2.78e-04	0	61	0	801112064	54	5976
2026-01-23 08:45:41.69	8.71	16.67	-41.9	-46.3	11.4	8.70e-04	0	61	0	803209216	54	6297
2026-01-23 08:45:42.70	8.55	16.59	-41.9	-46.4	11.3	1.14e-03	0	61	0	805306368	54	6350
2026-01-23 08:45:43.71	8.40	16.51	-42.1	-46.8	10.9	1.81e-03	0	61	0	807403520	54	6660
2026-01-23 08:45:44.72	8.24	16.42	-42.2	-46.9	10.7	2.64e-03	0	61	0	808452096	54	6736
2026-01-23 08:45:45.73	8.09	16.34	-42.1	-46.7	10.9	2.68e-03	0	61	0	810549248	54	6624
2026-01-23 08:45:46.74	7.93	16.26	-41.8	-46.2	11.4	1.56e-03	0	61	0	812646400	54	6214
2026-01-23 08:45:47.75	7.78	16.18	-41.8	-46.1	11.5	9.95e-04	0	61	0	814743552	54	6136
2026-01-23 08:45:48.76	7.63	16.09	-41.6	-45.6	11.9	5.72e-04	0	61	0	816840704	54	5854
2026-01-23 08:45:49.76	7.48	16.01	-41.5	-45.5	12.1	2.14e-04	0	61	0	817889280	54	5723
2026-01-23 08:45:50.77	7.33	15.93	-41.4	-45.3	12.2	2.44e-04	0	61	0	819986432	54	5618
2026-01-23 08:45:51.78	7.18	15.85	-41.3	-45.1	12.4	1.70e-04	0	61	0	822083584	54	5476
2026-01-23 08:45:52.79	7.03	15.77	-41.4	-45.4	12.1	1.88e-04	0	61	0	824180736	54	5678
2026-01-23 08:45:53.80	6.89	15.69	-41.5	-45.6	11.8	3.21e-04	0	61	0	826277888	54	5832
2026-01-23 08:45:54.81	6.74	15.60	-41.7	-46.1	11.3	7.04e-04	0	61	0	827326464	54	6142
2026-01-23 08:45:55.82	6.59	15.52	-41.7	-46.2	11.2	8.94e-04	0	61	0	829423616	54	6214
2026-01-23 08:45:56.83	6.45	15.44	-41.8	-46.4	11.0	1.82e-03	0	61	0	831520768	54	6416
2026-01-23 08:45:57.84	6.31	15.36	-41.7	-46.2	11.1	2.25e-03	0	61	0	833617920	54	6206
2026-01-23 08:45:58.84	6.16	15.28	-41.6	-46.0	11.3	1.18e-03	0	61	0	835715072	54	6115
2026-01-23 08:45:59.85	6.02	15.20	-41.5	-45.9	11.3	1.23e-03	0	61	0	836763648	54	6022
2026-01-23 08:46:00.86	5.88	15.12	-41.4	-45.6	11.5	6.37e-04	0	61	0	838860800	54	5844
2026-01-23 08:46:01.87	5.74	15.03	-41.3	-45.5	11.7	7.70e-04	0	61	0	840957952	54	5750
2026-01-23 08:46:02.88	5.60	14.95	-41.1	-45.1	12.0	3.00e-04	0	61	0	843055104	54	5503
2026-01-23 08:46:03.89	5.46	14.87	-41.2	-45.3	11.8	5.32e-04	0	61	0	845152256	54	5642
2026-01-23 08:46:04.90	5.32	14.79	-41.0	-44.9	12.2	4.10e-04	0	61	0	846200832	54	5378
2026-01-23 08:46:05.91	5.18	14.71	-41.1	-45.1	11.9	3.92e-04	0	61	0	848297984	53	5841
2026-01-23 08:46:06.92	5.05	14.63	-41.1	-45.2	11.6	6.30e-04	0	61	0	850395136	53	5916
2026-01-23 08:46:07.93	4.91	14.55	-40.9	-44.9	11.8	5.08e-04	0	61	0	852492288	53	5702
2026-01-23 08:46:08.94	4.77	14.47	-40.7	-44.7	12.0	4.70e-04	0	61	0	854589440	53	5557
2026-01-23 08:46:09.95	4.64	14.39	-40.8	-45.0	11.6	5.03e-04	0	61	0	855638016	53	5753
2026-01-23 08:46:10.96	4.51	14.31	-41.1	-45.6	10.9	1.41e-03	0	61	0	857735168	53	6162
2026-01-23 08:46:11.97	4.37	14.23	-41.0	-45.6	10.9	2.30e-03	0	61	0	859832320	53	6137
2026-01-23 08:46:12.98	4.24	14.15	-41.0	-45.6	10.8	2.84e-03	0	61	0	861929472	53	6182
2026-01-23 08:46:13.99	4.11	14.07	-40.8	-45.2	11.1	2.23e-03	0	61	0	864026624	53	5884
2026-01-23 08:46:15.00	3.98	13.99	-40.8	-45.3	11.0	1.86e-03	0	61	0	866123776	53	5947
2026-01-23 08:46:16.01	3.85	13.91	-40.5	-44.7	11.4	1.16e-03	0	61	0	867172352	53	5577
2026-01-23 08:46:17.02	3.72	13.83	-40.6	-45.0	11.0	1.40e-03	0	61	0	869269504	52	6131
2026-01-23 08:46:18.03	3.59	13.75	-40.4	-44.7	11.2	1.48e-03	0	61	0	871366656	52	5922
2026-01-23 08:46:19.04	3.46	13.67	-40.4	-44.8	11.1	1.16e-03	0	61	0	873463808	52	5975
2026-01-23 08:46:20.05	3.33	13.59	-40.6	-45.5	10.2	4.42e-03	0	61	0	875560960	52	6494
2026-01-23 08:46:21.06	3.21	13.51	-40.6	-45.7	10.0	7.10e-03	0	61	0	876609536	52	6573
2026-01-23 08:46:22.07	3.08	13.43	-40.8	-46.5	9.1	1.84e-02	0	61	0	878706688	52	7244
2026-01-23 08:46:23.08	2.95	13.35	-41.1	-47.7	7.7	6.03e-02	0	61	0	880803840	52	8344
2026-01-23 08:46:24.08	2.83	13.28	-41.2	-48.6	6.8	1.28e-01	0	61	0	882900992	52	9176
2026-01-23 08:46:25.09	2.71	13.20	-41.4	-49.6	5.9	2.28e-01	0	61	0	884998144	53	9765
2026-01-23 08:46:26.10	2.58	13.12	-41.4	-51.0	4.9	6.01e-01	0	61	0	886046720	53	11489
2026-01-23 08:46:27.11	2.46	13.04	-41.5	-52.1	4.4	9.83e-01	0	61	0	888143872	53	13099
2026-01-23 08:46:28.12	2.34	12.96	-41.4	-53.2	4.0	1.38e+00	0	61	0	889192448	53	14736
2026-01-23 08:46:29.13	2.22	12.88	-41.4	-54.3	3.8	1.49e+00	0	61	104	889192448	53	16784
2026-01-23 08:46:30.14	2.10	12.81	-41.9	-54.9	3.8	1.49e+00	0	61	104	889192448	54	16997
2026-01-23 08:46:31.15	1.98	12.73	-40.7	-55.3	3.8	1.49e+00	0	61	104	889192448	53	18816
2026-01-23 08:46:32.16	1.86	12.65	-40.9	-55.5	3.8	1.49e+00	0	61	104	889192448	53	19221
2026-01-23 08:46:33.17	1.74	12.57	-41.7	-55.9	3.8	1.49e+00	0	61	104	889192448	54	18993
2026-01-23 08:46:34.18	1.62	12.50	-41.1	-55.4	3.8	1.49e+00	0	61	104	889192448	54	18005
2026-01-23 08:46:35.19	1.50	12.42	-41.0	-55.5	3.8	1.49e+00	0	61	104	889192448	54	18098
2026-01-23 08:46:36.20	1.39	12.34	-40.9	-55.4	3.8	1.49e+00	0	61	104	889192448	53	19075
2026-01-23 08:46:37.21	1.27	12.26	-40.8	-55.3	3.8	1.49e+00	0	61	104	889192448	53	18865
2026-01-23 08:46:38.22	1.15	12.19	-41.1	-55.6	3.8	1.49e+00	0	61	104	889192448	53	19453
2026-01-23 08:46:39.23	1.04	12.11	-40.3	-54.9	3.8	1.49e+00	0	61	104	889192448	52	19032
2026-01-23 08:46:40.24	0.92	12.03	-40.2	-54.8	3.8	1.49e+00	0	61	104	889192448	52	18763
2026-01-23 08:46:41.25	0.81	11.96	-40.4	-55.0	3.8	1.49e+00	0	61	104	889192448	52	19366
2026-01-23 08:46:42.26	0.70	11.88	-40.2	-54.8	3.8	1.49e+00	0	61	104	889192448	52	18765
2026-01-23 08:46:43.27	0.59	11.80	-40.2	-54.7	3.8	1.49e+00	0	61	104	889192448	52	18648
2026-01-23 08:46:44.28	0.47	11.73	-40.2	-54.7	3.8	1.49e+00	0	61	104	889192448	52	18713
2026-01-23 08:46:45.29	0.36	11.65	-40.1	-54.7	3.8	1.49e+00	0	61	104	889192448	52	18582
2026-01-23 08:46:46.30	0.25	11.57	-40.2	-54.8	3.8	1.49e+00	0	61	104	889192448	52	18895
2026-01-23 08:46:47.31	0.14	11.50	-40.7	-55.3	3.8	1.49e+00	0	61	104	889192448	52	20024
2026-01-23 08:46:48.32	0.03	11.42	-40.1	-54.7	3.8	1.49e+00	0	61	104	889192448	52	18654
2026-01-23 08:46:49.33	359.92	11.35	-40.2	-54.8	3.8	1.49e+00	0	61	104	889192448	52	18875
2026-01-23 08:46:50.34	359.81	11.27	-40.1	-54.7	3.8	1.49e+00	0	61	104	889192448	52	18693
2026-01-23 08:46:51.35	359.71	11.20	-40.1	-54.7	3.8	1.49e+00	0	61	104	889192448	52	18657
2026-01-23 08:46:52.36	359.60	11.12	-40.1	-54.7	3.8	1.49e+00	0	61	104	889192448	52	18629
2026-01-23 08:46:53.37	359.49	11.05	-40.0	-54.6	3.8	1.49e+00	0	61	104	889192448	52	18443
2026-01-23 08:46:54.38	359.39	10.97	-40.1	-54.7	3.8	1.49e+00	0	61	104	889192448	52	18685
2026-01-23 08:46:55.39	359.28	10.90	-40.4	-54.9	3.8	1.49e+00	0	61	104	889192448	52	19154
2026-01-23 08:46:56.40	359.18	10.82	-40.1	-54.6	3.8	1.49e+00	0	61	104	889192448	52	18452
2026-01-23 08:46:57.40	359.07	10.75	-40.1	-54.7	3.8	1.49e+00	0	61	104	889192448	52	18648
2026-01-23 08:46:58.41	358.97	10.67	-40.0	-54.6	3.8	1.49e+00	0	61	104	889192448	52	18422
2026-01-23 08:46:59.42	358.87	10.60	-40.0	-54.6	3.8	1.49e+00	0	61	104	889192448	52	18404
2026-01-23 08:47:00.43	358.76	10.52	-40.0	-54.6	3.8	1.49e+00	0	61	104	889192448	52	18382
2026-01-23 08:47:01.44	358.66	10.45	-40.1	-54.6	3.8	1.49e+00	0	61	104	889192448	51	19547
2026-01-23 08:47:02.45	358.56	10.38	-40.1	-54.7	3.8	1.49e+00	0	61	104	889192448	51	19713
2026-01-23 08:47:03.46	358.46	10.30	-40.3	-54.8	3.8	1.49e+00	0	61	104	889192448	51	20063
2026-01-23 08:47:04.47	358.36	10.23	-40.1	-54.7	3.8	1.49e+00	0	61	104	889192448	51	19779
2026-01-23 08:47:05.48	358.26	10.16	-40.3	-54.9	3.8	1.49e+00	0	61	104	889192448	51	20096
2026-01-23 08:47:06.49	358.16	10.08	-40.2	-54.8	3.8	1.49e+00	0	61	104	889192448	51	19883
2026-01-23 08:47:07.50	358.06	10.01	-40.1	-54.6	3.8	1.49e+00	0	61	104	889192448	51	19581
2026-01-23 08:47:08.51	357.96	9.94	-40.1	-54.7	3.8	1.49e+00	0	61	104	889192448	51	19685
2026-01-23 08:47:09.52	357.86	9.86	-40.2	-54.8	3.8	1.49e+00	0	61	104	889192448	51	20031
2026-01-23 08:47:10.53	357.76	9.79	-40.1	-54.7	3.8	1.49e+00	0	61	104	889192448	51	19747
2026-01-23 08:47:11.54	357.67	9.72	-40.1	-54.7	3.8	1.49e+00	0	61	104	889192448	51	19641
2026-01-23 08:47:12.55	357.57	9.64	-40.1	-54.7	3.8	1.49e+00	0	61	104	889192448	51	19621
2026-01-23 08:47:13.56	357.47	9.57	-40.2	-54.8	3.8	1.49e+00	0	61	104	889192448	51	19922
2026-01-23 08:47:14.57	357.38	9.50	-40.1	-54.7	3.8	1.49e+00	0	61	104	889192448	51	19722
2026-01-23 08:47:15.58	357.28	9.43	-40.1	-54.6	3.8	1.49e+00	0	61	104	889192448	51	19579
2026-01-23 08:47:16.59	357.19	9.36	-40.1	-54.7	3.8	1.49e+00	0	61	104	889192448	51	19632
2026-01-23 08:47:17.60	357.10	9.28	-40.1	-54.7	3.8	1.49e+00	0	61	104	889192448	51	19737
2026-01-23 08:47:18.61	357.00	9.21	-40.1	-54.7	3.8	1.49e+00	0	61	104	889192448	51	19698
2026-01-23 08:47:19.62	356.91	9.14	-40.0	-54.6	3.8	1.49e+00	0	61	104	889192448	51	19517
2026-01-23 08:47:20.63	356.82	9.07	-40.1	-54.6	3.8	1.49e+00	0	61	104	889192448	51	19539
2026-01-23 08:47:21.64	356.72	9.00	-40.1	-54.7	3.8	1.49e+00	0	61	104	889192448	51	19625
2026-01-23 08:47:22.64	356.63	8.93	-40.1	-54.7	3.8	1.49e+00	0	61	104	889192448	51	19617
2026-01-23 08:47:23.65	356.54	8.86	-40.1	-54.6	3.8	1.49e+00	0	61	104	889192448	51	19542
2026-01-23 08:47:24.66	356.45	8.78	-40.0	-54.6	3.8	1.49e+00	0	61	104	889192448	51	19549
2026-01-23 08:47:25.67	356.36	8.71	-40.1	-54.6	3.8	1.49e+00	0	61	104	889192448	51	19587
2026-01-23 08:47:26.68	356.27	8.64	-40.1	-54.6	3.8	1.49e+00	0	61	104	889192448	51	19566
2026-01-23 08:47:27.69	356.18	8.57	-40.1	-54.6	3.8	1.49e+00	0	61	104	889192448	51	19561
2026-01-23 08:47:28.70	356.09	8.50	-40.0	-54.6	3.8	1.49e+00	0	61	104	889192448	51	19547
2026-01-23 08:47:29.71	356.00	8.43	-40.1	-54.7	3.8	1.49e+00	0	61	104	889192448	51	19717
2026-01-23 08:47:30.72	355.92	8.36	-40.1	-54.6	3.8	1.49e+00	0	61	104	889192448	51	19599
2026-01-23 08:47:31.73	355.83	8.29	-40.2	-54.7	3.8	1.49e+00	0	61	104	889192448	51	19654
2026-01-23 08:47:32.74	355.74	8.22	-40.1	-54.6	3.8	1.49e+00	0	61	104	889192448	51	19594
2026-01-23 08:47:33.75	355.65	8.15	-40.2	-54.7	3.8	1.49e+00	0	61	104	889192448	51	19753
2026-01-23 08:47:34.76	355.57	8.08	-40.1	-54.7	3.8	1.49e+00	0	61	104	889192448	51	19653
2026-01-23 08:47:35.77	355.48	8.01	-40.1	-54.6	3.8	1.49e+00	0	61	104	889192448	51	19538
2026-01-23 08:47:36.78	355.40	7.94	-41.6	-56.1	3.8	1.49e+00	0	61	104	889192448	53	20775
2026-01-23 08:47:37.79	355.31	7.87	-44.6	-59.1	3.8	1.49e+00	0	61	104	889192448	59	20580
2026-01-23 08:47:38.79	355.23	7.80	-44.9	-59.7	3.8	1.49e+00	0	61	104	889192448	60	20827
2026-01-23 08:47:39.80	355.14	7.74	-45.1	-59.9	3.8	1.49e+00	0	61	104	889192448	60	21267
2026-01-23 08:47:40.81	355.06	7.67	-45.2	-60.0	3.8	1.49e+00	0	61	104	889192448	61	20335
2026-01-23 08:47:41.82	354.98	7.60	-45.4	-60.1	3.8	1.49e+00	0	61	104	889192448	61	20692
2026-01-23 08:47:42.83	354.89	7.53	-45.4	-60.1	3.8	1.49e+00	0	61	104	889192448	61	20696
2026-01-23 08:47:43.84	354.81	7.46	-45.4	-60.1	3.8	1.49e+00	0	61	104	889192448	61	20701
2026-01-23 08:47:44.85	354.73	7.39	-45.4	-60.1	3.8	1.49e+00	0	61	104	889192448	61	20606
2026-01-23 08:47:45.86	354.65	7.32	-45.3	-60.0	3.8	1.49e+00	0	61	104	889192448	61	20479
2026-01-23 08:47:46.87	354.57	7.26	-45.4	-60.0	3.8	1.49e+00	0	61	104	889192448	61	20424
2026-01-23 08:47:47.88	354.48	7.19	-45.3	-60.0	3.8	1.49e+00	0	61	104	889192448	61	20329
2026-01-23 08:47:48.89	354.40	7.12	-45.3	-59.9	3.8	1.49e+00	0	61	104	889192448	61	20200
2026-01-23 08:47:49.90	354.32	7.05	-45.3	-59.8	3.8	1.49e+00	0	61	104	889192448	61	20067
2026-01-23 08:47:50.91	354.24	6.98	-45.3	-59.8	3.8	1.49e+00	0	61	104	889192448	61	20058
2026-01-23 08:47:51.92	354.16	6.92	-45.2	-59.8	3.8	1.49e+00	0	61	104	889192448	61	19869
2026-01-23 08:47:52.93	354.09	6.85	-45.2	-59.8	3.8	1.49e+00	0	61	104	889192448	61	19853
