passes_logs/2026/01/23/R2.0S_Moscow/R2.0S_Moscow__20260123_215613_NOAA_21_JPSS-2_rec.log

#Pass ID: 20260123_215613_NOAA 21 (JPSS-2)
#Satellite: NOAA 21 (JPSS-2)
#Configuration: NOAA-21
#almurnet v.1.7.20251203
#Start time: 2026-01-23 21:56:14

#Version: 2.2.20231116
#Station: R2.0S_Moscow
#Location: 37.707566 lon 55.798166 lat
#TLE: 1 54234U 22150A   26022.90705406  .00000208  00000+0  11937-3 0  9994
#TLE: 2 54234  98.7507 323.7115 0000669 231.3756 128.7360 14.19537879165931

#Time	Az	El	Level	Level2	SNR	BER	BlckErr	Temp	State	Recorded	gain1	gain2
2026-01-23 21:56:14.58	27.40	2.06	-42.7	-55.0	3.8	1.49e+00	0	52	0	0	57	14417
2026-01-23 21:56:15.58	27.48	2.11	-42.7	-55.0	3.8	1.49e+00	0	52	104	0	57	14500
2026-01-23 21:56:16.59	27.57	2.17	-42.7	-55.0	3.8	1.49e+00	0	52	104	0	57	14468
2026-01-23 21:56:17.60	27.65	2.22	-42.7	-55.0	3.8	1.49e+00	0	52	104	0	57	14462
2026-01-23 21:56:18.61	27.73	2.27	-42.7	-55.0	3.8	1.49e+00	0	52	104	0	57	14464
2026-01-23 21:56:19.62	27.82	2.32	-42.7	-55.0	3.8	1.49e+00	0	52	104	0	57	14472
2026-01-23 21:56:20.63	27.90	2.37	-42.7	-55.0	3.8	1.49e+00	0	52	104	0	57	14470
2026-01-23 21:56:21.64	27.98	2.43	-42.7	-55.0	3.8	1.49e+00	0	52	104	0	57	14442
2026-01-23 21:56:22.66	28.07	2.48	-42.7	-55.0	3.8	1.49e+00	0	53	104	0	57	14415
2026-01-23 21:56:23.67	28.15	2.53	-42.7	-55.0	3.8	1.49e+00	0	53	104	0	57	14428
2026-01-23 21:56:24.68	28.24	2.58	-42.7	-55.0	3.8	1.49e+00	0	53	104	0	57	14450
2026-01-23 21:56:25.69	28.32	2.63	-42.7	-55.0	3.8	1.49e+00	0	53	104	0	57	14453
2026-01-23 21:56:26.70	28.41	2.69	-42.7	-55.0	3.8	1.49e+00	0	53	104	0	57	14466
2026-01-23 21:56:27.71	28.49	2.74	-42.7	-55.0	3.8	1.49e+00	0	53	104	0	57	14426
2026-01-23 21:56:28.72	28.58	2.79	-42.7	-55.0	3.8	1.49e+00	0	53	104	0	57	14459
2026-01-23 21:56:29.73	28.67	2.84	-42.7	-55.0	3.8	1.49e+00	0	53	104	0	57	14457
2026-01-23 21:56:30.74	28.75	2.90	-42.7	-55.0	3.8	1.49e+00	0	53	104	0	57	14393
2026-01-23 21:56:31.75	28.84	2.95	-42.7	-55.0	3.8	1.49e+00	0	53	104	0	57	14465
2026-01-23 21:56:32.76	28.93	3.00	-42.7	-55.0	3.8	1.49e+00	0	53	104	0	57	14407
2026-01-23 21:56:33.77	29.01	3.05	-42.7	-55.0	3.8	1.49e+00	0	53	104	0	57	14416
2026-01-23 21:56:34.78	29.10	3.11	-42.7	-55.0	3.8	1.49e+00	0	53	104	0	57	14437
2026-01-23 21:56:35.79	29.19	3.16	-42.7	-55.0	3.8	1.49e+00	0	53	104	0	57	14429
2026-01-23 21:56:36.80	29.28	3.21	-42.7	-55.0	3.8	1.49e+00	0	53	104	0	57	14428
2026-01-23 21:56:37.81	29.37	3.27	-42.7	-55.0	3.8	1.49e+00	0	53	104	0	57	14433
2026-01-23 21:56:38.82	29.46	3.32	-42.7	-55.0	3.8	1.49e+00	0	54	104	0	57	14399
2026-01-23 21:56:39.83	29.55	3.37	-42.7	-55.0	3.8	1.49e+00	0	53	104	0	57	14376
2026-01-23 21:56:40.84	29.64	3.42	-42.7	-55.0	3.8	1.49e+00	0	54	104	0	57	14418
2026-01-23 21:56:41.86	29.73	3.48	-42.7	-55.0	3.8	1.49e+00	0	54	104	0	57	14423
2026-01-23 21:56:42.87	29.82	3.53	-42.7	-55.0	3.8	1.49e+00	0	54	104	0	57	14441
2026-01-23 21:56:43.88	29.91	3.58	-42.7	-55.0	3.8	1.49e+00	0	54	104	0	57	14446
2026-01-23 21:56:44.89	30.00	3.64	-42.7	-54.9	3.8	1.49e+00	0	54	104	0	57	14372
2026-01-23 21:56:45.90	30.09	3.69	-42.7	-55.0	3.8	1.49e+00	0	54	104	0	57	14441
2026-01-23 21:56:46.91	30.18	3.74	-42.7	-55.0	3.8	1.49e+00	0	54	104	0	57	14412
2026-01-23 21:56:47.92	30.27	3.80	-42.7	-55.0	3.8	1.49e+00	0	54	104	0	57	14400
2026-01-23 21:56:48.93	30.36	3.85	-42.7	-55.0	3.8	1.49e+00	0	54	104	0	57	14416
2026-01-23 21:56:49.94	30.46	3.90	-42.7	-55.0	3.8	1.49e+00	0	54	104	0	57	14403
2026-01-23 21:56:50.95	30.55	3.96	-42.7	-55.0	3.8	1.49e+00	0	54	104	0	57	14406
2026-01-23 21:56:51.96	30.64	4.01	-42.7	-55.0	3.8	1.49e+00	0	54	104	0	57	14445
2026-01-23 21:56:52.97	30.74	4.06	-42.7	-55.0	3.8	1.49e+00	0	55	104	0	57	14406
2026-01-23 21:56:53.98	30.83	4.12	-42.7	-55.0	3.8	1.49e+00	0	55	104	0	57	14388
2026-01-23 21:56:54.99	30.92	4.17	-42.7	-55.0	3.8	1.49e+00	0	55	104	0	57	14426
2026-01-23 21:56:56.00	31.02	4.22	-42.7	-55.0	3.8	1.49e+00	0	55	104	0	57	14409
2026-01-23 21:56:57.01	31.11	4.28	-42.7	-55.0	3.8	1.49e+00	0	55	104	0	57	14376
2026-01-23 21:56:58.02	31.21	4.33	-42.7	-55.0	3.8	1.49e+00	0	55	104	0	57	14383
2026-01-23 21:56:59.03	31.30	4.39	-42.7	-55.0	3.8	1.49e+00	0	55	104	0	57	14389
2026-01-23 21:57:00.04	31.40	4.44	-42.7	-55.0	3.8	1.49e+00	0	55	104	0	57	14397
2026-01-23 21:57:01.05	31.49	4.49	-42.7	-55.0	3.8	1.49e+00	0	55	104	0	57	14440
2026-01-23 21:57:02.06	31.59	4.55	-42.7	-55.0	3.8	1.49e+00	0	55	104	0	57	14387
2026-01-23 21:57:03.07	31.69	4.60	-42.7	-55.0	3.8	1.49e+00	0	55	104	0	57	14429
2026-01-23 21:57:04.08	31.78	4.66	-42.7	-55.0	3.8	1.49e+00	0	55	104	0	57	14428
2026-01-23 21:57:05.09	31.88	4.71	-42.7	-55.0	3.8	1.49e+00	0	55	104	0	57	14422
2026-01-23 21:57:06.10	31.98	4.76	-42.7	-55.0	3.8	1.49e+00	0	55	104	0	57	14397
2026-01-23 21:57:07.11	32.08	4.82	-42.7	-55.0	3.8	1.49e+00	0	55	104	0	57	14384
2026-01-23 21:57:08.12	32.18	4.87	-42.7	-55.0	3.8	1.49e+00	0	55	104	0	57	14430
2026-01-23 21:57:09.13	32.27	4.93	-42.7	-55.0	3.8	1.49e+00	0	55	104	0	57	14434
2026-01-23 21:57:10.14	32.37	4.98	-42.7	-55.0	3.8	1.49e+00	0	56	104	0	57	14424
2026-01-23 21:57:11.15	32.47	5.03	-42.7	-55.0	3.8	1.49e+00	0	55	104	0	57	14406
2026-01-23 21:57:12.16	32.57	5.09	-42.7	-55.0	3.8	1.49e+00	0	55	104	0	57	14385
2026-01-23 21:57:13.17	32.67	5.14	-42.7	-55.0	3.8	1.49e+00	0	56	104	0	57	14381
2026-01-23 21:57:14.18	32.77	5.20	-42.7	-55.0	3.8	1.49e+00	0	56	104	0	57	14381
2026-01-23 21:57:15.19	32.87	5.25	-42.7	-55.0	3.8	1.49e+00	0	56	104	0	57	14422
2026-01-23 21:57:16.20	32.98	5.31	-42.7	-55.0	3.8	1.49e+00	0	56	104	0	57	14425
2026-01-23 21:57:17.21	33.08	5.36	-42.7	-55.0	3.8	1.49e+00	0	56	104	0	57	14379
2026-01-23 21:57:18.22	33.18	5.42	-42.7	-55.0	3.8	1.49e+00	0	56	104	0	57	14407
2026-01-23 21:57:19.23	33.28	5.47	-42.7	-55.0	3.8	1.49e+00	0	56	104	0	57	14438
2026-01-23 21:57:20.25	33.39	5.53	-42.7	-54.9	3.8	1.49e+00	0	56	104	0	57	14365
2026-01-23 21:57:21.26	33.49	5.58	-42.7	-55.0	3.8	1.49e+00	0	56	104	0	57	14447
2026-01-23 21:57:22.27	33.59	5.64	-42.7	-54.9	3.8	1.49e+00	0	56	104	0	57	14365
2026-01-23 21:57:23.28	33.70	5.69	-42.7	-54.9	3.8	1.49e+00	0	56	104	0	57	14319
2026-01-23 21:57:24.29	33.80	5.75	-42.7	-55.0	3.8	1.49e+00	0	56	104	0	57	14416
2026-01-23 21:57:25.30	33.90	5.80	-42.7	-54.9	3.8	1.49e+00	0	56	104	0	57	14362
2026-01-23 21:57:26.31	34.01	5.86	-42.7	-54.9	3.8	1.49e+00	0	56	104	0	57	14362
2026-01-23 21:57:27.32	34.11	5.91	-42.7	-55.0	3.8	1.49e+00	0	56	104	0	57	14421
2026-01-23 21:57:28.33	34.22	5.97	-42.7	-55.0	3.8	1.49e+00	0	56	104	0	57	14404
2026-01-23 21:57:29.34	34.33	6.02	-42.7	-55.0	3.8	1.49e+00	0	56	104	0	57	14414
2026-01-23 21:57:30.35	34.43	6.08	-42.7	-54.9	3.8	1.49e+00	0	56	104	0	57	14372
2026-01-23 21:57:31.36	34.54	6.13	-42.7	-55.0	3.8	1.49e+00	0	56	104	0	57	14424
2026-01-23 21:57:32.37	34.65	6.19	-42.7	-55.0	3.8	1.49e+00	0	56	104	0	57	14377
2026-01-23 21:57:33.39	34.76	6.24	-42.7	-55.0	3.8	1.49e+00	0	56	104	0	57	14381
2026-01-23 21:57:34.40	34.86	6.30	-42.7	-54.9	3.8	1.49e+00	0	56	104	0	57	14359
2026-01-23 21:57:35.41	34.97	6.35	-42.7	-54.9	3.8	1.49e+00	0	56	104	0	57	14323
2026-01-23 21:57:36.42	35.08	6.41	-42.7	-54.9	3.8	1.49e+00	0	57	104	0	57	14356
2026-01-23 21:57:37.43	35.19	6.46	-42.7	-55.0	3.8	1.49e+00	0	56	104	0	57	14394
2026-01-23 21:57:38.44	35.30	6.52	-42.7	-55.0	3.8	1.49e+00	0	56	104	0	57	14378
2026-01-23 21:57:39.45	35.41	6.57	-42.7	-55.0	3.8	1.49e+00	0	57	104	0	57	14390
2026-01-23 21:57:40.46	35.52	6.63	-42.7	-55.0	3.8	1.49e+00	0	56	104	0	57	14404
2026-01-23 21:57:41.47	35.63	6.68	-42.7	-55.0	3.8	1.49e+00	0	57	104	0	57	14377
2026-01-23 21:57:42.48	35.74	6.74	-42.7	-55.0	3.8	1.49e+00	0	57	104	0	57	14387
2026-01-23 21:57:43.49	35.85	6.79	-42.7	-55.0	3.8	1.49e+00	0	57	104	0	57	14399
2026-01-23 21:57:44.50	35.96	6.85	-42.7	-55.0	3.8	1.49e+00	0	57	104	0	57	14381
2026-01-23 21:57:45.51	36.08	6.91	-42.7	-54.8	3.8	1.49e+00	0	57	104	0	57	14144
2026-01-23 21:57:46.52	36.19	6.96	-42.7	-54.7	3.8	1.49e+00	0	57	104	0	57	14030
2026-01-23 21:57:47.53	36.30	7.02	-42.7	-54.9	3.8	1.49e+00	0	57	104	0	57	14297
2026-01-23 21:57:48.55	36.42	7.07	-42.7	-54.9	3.8	1.49e+00	0	57	104	0	57	14311
2026-01-23 21:57:49.56	36.53	7.13	-42.7	-54.9	3.8	1.49e+00	0	57	104	0	57	14366
2026-01-23 21:57:50.57	36.65	7.19	-42.7	-54.9	3.8	1.49e+00	0	57	104	0	57	14359
2026-01-23 21:57:51.58	36.76	7.24	-42.7	-54.9	3.8	1.49e+00	0	57	104	0	57	14325
2026-01-23 21:57:52.59	36.88	7.30	-42.7	-54.9	3.8	1.49e+00	0	57	104	0	57	14279
2026-01-23 21:57:53.60	36.99	7.35	-42.7	-54.8	3.8	1.49e+00	0	57	104	0	57	14168
2026-01-23 21:57:54.61	37.11	7.41	-42.7	-54.8	3.8	1.49e+00	0	57	104	0	57	14186
2026-01-23 21:57:55.62	37.23	7.46	-42.7	-54.9	3.8	1.49e+00	0	57	104	0	57	14319
2026-01-23 21:57:56.63	37.34	7.52	-42.7	-55.0	3.8	1.49e+00	0	57	104	0	57	14385
2026-01-23 21:57:57.64	37.46	7.58	-42.6	-54.4	3.8	1.49e+00	0	57	104	0	57	13515
2026-01-23 21:57:58.65	37.58	7.63	-42.5	-53.7	3.8	1.49e+00	0	57	104	0	57	12411
2026-01-23 21:57:59.66	37.70	7.69	-42.4	-51.9	4.1	1.48e+00	0	57	104	0	56	10777
2026-01-23 21:58:00.67	37.81	7.74	-41.8	-49.1	5.1	9.66e-01	0	57	0	0	55	8177
2026-01-23 21:58:01.68	37.93	7.80	-41.1	-46.7	6.9	2.21e-01	0	58	0	3145728	54	6575
2026-01-23 21:58:02.69	38.05	7.86	-40.5	-45.1	8.4	6.20e-02	0	57	0	6291456	53	5803
2026-01-23 21:58:03.70	38.17	7.91	-40.0	-43.9	9.5	2.07e-02	0	58	0	9437184	52	5377
2026-01-23 21:58:04.71	38.29	7.97	-39.9	-43.7	9.9	9.22e-03	0	57	0	12582912	51	5531
2026-01-23 21:58:05.72	38.42	8.02	-40.0	-43.9	9.7	8.40e-03	0	57	0	15728640	51	5663
2026-01-23 21:58:06.73	38.54	8.08	-40.5	-44.4	9.6	1.24e-02	0	57	0	18874368	51	6012
2026-01-23 21:58:07.75	38.66	8.14	-42.1	-53.1	3.8	4.54e-01	0	57	104	20971520	54	13873
2026-01-23 21:58:08.76	38.78	8.19	-40.8	-44.9	9.3	1.19e-01	0	58	0	20971520	52	6002
2026-01-23 21:58:09.77	38.91	8.25	-41.8	-47.0	7.3	9.30e-02	0	57	0	24117248	54	6813
2026-01-23 21:58:10.78	39.03	8.31	-40.7	-44.9	9.2	1.67e-02	0	58	0	27262976	52	6035
2026-01-23 21:58:11.79	39.15	8.36	-40.5	-44.4	9.7	7.77e-02	0	58	0	30408704	53	5344
2026-01-23 21:58:12.79	39.28	8.42	-40.4	-44.1	9.9	1.01e-02	0	58	0	33554432	52	5517
2026-01-23 21:58:13.80	39.40	8.47	-40.5	-44.3	9.8	1.09e-02	0	58	0	36700160	52	5604
2026-01-23 21:58:14.81	39.52	8.53	-40.3	-43.9	10.2	5.96e-03	0	58	0	39845888	52	5379
2026-01-23 21:58:15.82	39.65	8.59	-40.4	-44.0	10.1	5.64e-03	0	58	0	42991616	52	5460
2026-01-23 21:58:16.83	39.78	8.64	-40.4	-43.9	10.4	6.09e-03	0	58	0	46137344	52	5360
2026-01-23 21:58:17.84	39.90	8.70	-40.3	-43.8	10.5	3.74e-03	0	58	0	49283072	52	5323
2026-01-23 21:58:18.85	40.03	8.75	-40.2	-43.6	10.7	3.12e-03	0	58	0	52428800	52	5190
2026-01-23 21:58:19.86	40.16	8.81	-40.3	-43.7	10.7	3.26e-03	0	58	0	55574528	52	5257
2026-01-23 21:58:20.87	40.29	8.87	-40.3	-43.6	10.8	2.47e-03	0	58	0	58720256	52	5216
2026-01-23 21:58:21.88	40.41	8.92	-40.4	-43.7	10.8	2.88e-03	0	58	0	61865984	52	5278
2026-01-23 21:58:22.89	40.54	8.98	-40.3	-43.6	10.9	2.06e-03	0	58	0	65011712	52	5203
2026-01-23 21:58:23.90	40.67	9.04	-40.4	-43.7	10.8	2.48e-03	0	58	0	68157440	52	5221
2026-01-23 21:58:24.91	40.80	9.09	-40.4	-43.7	10.9	2.18e-03	0	58	0	71303168	52	5230
2026-01-23 21:58:25.91	40.93	9.15	-40.4	-43.7	10.9	2.48e-03	0	58	0	74448896	52	5249
2026-01-23 21:58:26.92	41.06	9.20	-40.4	-43.8	10.8	2.94e-03	0	58	0	77594624	52	5288
2026-01-23 21:58:27.94	41.19	9.26	-40.5	-43.9	10.7	2.86e-03	0	58	0	80740352	52	5341
2026-01-23 21:58:28.95	41.33	9.32	-40.5	-43.8	10.7	2.63e-03	0	58	0	83886080	52	5331
2026-01-23 21:58:29.96	41.46	9.37	-40.5	-43.9	10.7	3.09e-03	0	58	0	87031808	52	5371
2026-01-23 21:58:30.97	41.59	9.43	-40.5	-44.0	10.7	3.29e-03	0	58	0	90177536	52	5403
2026-01-23 21:58:31.98	41.72	9.49	-40.6	-44.0	10.5	3.64e-03	0	58	0	93323264	52	5464
2026-01-23 21:58:32.99	41.86	9.54	-40.6	-44.1	10.6	3.62e-03	0	58	0	96468992	52	5467
2026-01-23 21:58:34.00	41.99	9.60	-40.6	-44.1	10.6	3.58e-03	0	58	0	99614720	52	5468
2026-01-23 21:58:35.01	42.13	9.65	-40.7	-44.1	10.5	3.74e-03	0	58	0	102760448	52	5499
2026-01-23 21:58:36.02	42.26	9.71	-40.6	-43.9	10.8	2.77e-03	0	58	0	105906176	52	5380
2026-01-23 21:58:37.03	42.40	9.77	-40.6	-43.9	10.8	2.70e-03	0	58	0	109051904	52	5400
2026-01-23 21:58:38.04	42.53	9.82	-40.5	-43.8	11.0	2.03e-03	0	58	0	112197632	52	5288
2026-01-23 21:58:39.05	42.67	9.88	-40.4	-43.5	11.2	1.65e-03	0	58	0	115343360	52	5144
2026-01-23 21:58:40.06	42.81	9.94	-40.3	-43.5	11.3	1.12e-03	0	58	0	118489088	52	5115
2026-01-23 21:58:41.07	42.95	9.99	-40.3	-43.4	11.4	9.57e-04	0	58	0	121634816	52	5049
2026-01-23 21:58:42.08	43.08	10.05	-40.2	-43.3	11.6	7.11e-04	0	59	0	124780544	52	5005
2026-01-23 21:58:43.09	43.22	10.10	-40.2	-43.2	11.6	7.48e-04	0	58	0	127926272	52	4965
2026-01-23 21:58:44.10	43.36	10.16	-40.2	-43.3	11.6	7.29e-04	0	58	0	131072000	52	4989
2026-01-23 21:58:45.11	43.50	10.22	-40.3	-43.3	11.5	7.22e-04	0	58	0	134217728	52	5014
2026-01-23 21:58:46.12	43.64	10.27	-40.3	-43.4	11.5	8.28e-04	0	58	0	137363456	52	5074
2026-01-23 21:58:47.13	43.78	10.33	-40.2	-43.2	11.7	6.26e-04	0	58	0	140509184	52	4981
2026-01-23 21:58:48.14	43.93	10.39	-40.2	-43.2	11.8	5.39e-04	0	58	0	143654912	52	4947
2026-01-23 21:58:49.15	44.07	10.44	-40.2	-43.2	11.8	5.26e-04	0	59	0	146800640	52	4928
2026-01-23 21:58:50.16	44.21	10.50	-40.2	-43.1	11.8	5.33e-04	0	59	0	149946368	52	4918
2026-01-23 21:58:51.17	44.35	10.55	-40.1	-43.0	11.9	4.08e-04	0	59	0	153092096	52	4843
2026-01-23 21:58:52.18	44.50	10.61	-40.1	-43.0	12.0	3.47e-04	0	59	0	156237824	52	4835
2026-01-23 21:58:53.19	44.64	10.67	-40.1	-42.9	12.1	2.62e-04	0	58	0	159383552	52	4780
2026-01-23 21:58:54.20	44.79	10.72	-40.0	-42.8	12.2	2.60e-04	0	59	0	162529280	52	4738
2026-01-23 21:58:55.21	44.93	10.78	-40.1	-42.8	12.2	2.20e-04	0	59	0	165675008	51	5037
2026-01-23 21:58:56.22	45.08	10.83	-40.1	-42.8	12.3	1.88e-04	0	58	0	168820736	51	5023
2026-01-23 21:58:57.23	45.22	10.89	-40.1	-42.8	12.3	1.81e-04	0	59	0	171966464	51	5018
2026-01-23 21:58:58.24	45.37	10.94	-40.1	-42.8	12.3	1.65e-04	0	59	0	175112192	51	5032
2026-01-23 21:58:59.25	45.52	11.00	-40.1	-42.9	12.2	1.46e-04	0	59	0	178257920	51	5043
2026-01-23 21:59:00.25	45.66	11.06	-40.0	-42.8	12.3	2.17e-04	0	59	0	181403648	51	5007
2026-01-23 21:59:01.26	45.81	11.11	-40.1	-42.9	12.2	1.89e-04	0	59	0	184549376	51	5063
2026-01-23 21:59:02.27	45.96	11.17	-40.1	-42.8	12.3	1.56e-04	0	59	0	187695104	51	4998
2026-01-23 21:59:03.28	46.11	11.22	-40.1	-42.8	12.3	1.60e-04	0	59	0	190840832	51	5027
2026-01-23 21:59:04.29	46.26	11.28	-40.1	-42.8	12.3	1.77e-04	0	59	0	193986560	51	5024
2026-01-23 21:59:05.30	46.41	11.33	-40.1	-42.8	12.4	1.74e-04	0	59	0	197132288	51	5001
2026-01-23 21:59:06.31	46.56	11.39	-40.1	-42.8	12.3	1.78e-04	0	59	0	200278016	51	5024
2026-01-23 21:59:07.32	46.71	11.44	-40.1	-42.8	12.4	1.68e-04	0	59	0	203423744	51	5015
2026-01-23 21:59:08.33	46.87	11.50	-40.1	-42.9	12.4	1.60e-04	0	59	0	206569472	51	5046
2026-01-23 21:59:09.34	47.02	11.55	-40.1	-42.9	12.3	1.72e-04	0	59	0	210763776	51	5073
2026-01-23 21:59:10.35	47.17	11.61	-40.2	-43.0	12.3	1.81e-04	0	59	0	213909504	51	5110
2026-01-23 21:59:11.36	47.33	11.66	-40.2	-42.9	12.3	1.85e-04	0	59	0	216006656	51	5097
2026-01-23 21:59:12.37	47.48	11.72	-40.2	-43.0	12.3	1.66e-04	0	59	0	219152384	51	5108
2026-01-23 21:59:13.38	47.64	11.77	-40.1	-42.8	12.4	1.65e-04	0	59	0	222298112	51	5024
2026-01-23 21:59:14.39	47.79	11.83	-40.1	-42.9	12.4	1.46e-04	0	59	0	226492416	51	5046
2026-01-23 21:59:15.40	47.95	11.88	-40.0	-42.7	12.5	1.32e-04	0	59	0	229638144	51	4956
2026-01-23 21:59:16.41	48.10	11.94	-40.0	-42.7	12.6	9.61e-05	0	59	0	232783872	51	4943
2026-01-23 21:59:17.42	48.26	11.99	-39.9	-42.5	12.8	6.17e-05	0	59	0	235929600	51	4842
2026-01-23 21:59:18.43	48.42	12.05	-39.9	-42.5	12.8	6.33e-05	0	59	0	238026752	51	4838
2026-01-23 21:59:19.44	48.58	12.10	-40.0	-42.6	12.7	7.85e-05	0	59	0	242221056	51	4896
2026-01-23 21:59:20.45	48.74	12.16	-39.9	-42.5	12.8	6.63e-05	0	59	0	245366784	51	4822
2026-01-23 21:59:21.46	48.90	12.21	-39.9	-42.4	12.8	5.56e-05	0	59	0	248512512	51	4800
2026-01-23 21:59:22.47	49.06	12.27	-39.9	-42.5	12.8	5.18e-05	0	59	0	251658240	51	4822
2026-01-23 21:59:23.48	49.22	12.32	-39.9	-42.5	12.8	5.95e-05	0	59	0	254803968	51	4839
2026-01-23 21:59:24.49	49.38	12.38	-39.9	-42.5	12.8	6.40e-05	0	59	0	257949696	51	4836
2026-01-23 21:59:25.50	49.54	12.43	-39.9	-42.5	12.8	8.16e-05	0	59	0	261095424	51	4862
2026-01-23 21:59:26.51	49.70	12.48	-40.0	-42.6	12.6	7.01e-05	0	59	0	264241152	51	4916
2026-01-23 21:59:27.52	49.87	12.54	-40.0	-42.6	12.7	8.85e-05	0	59	0	267386880	51	4915
2026-01-23 21:59:28.53	50.03	12.59	-40.0	-42.6	12.7	8.08e-05	0	59	0	270532608	51	4924
2026-01-23 21:59:29.54	50.19	12.65	-40.0	-42.6	12.7	7.17e-05	0	59	0	273678336	51	4924
2026-01-23 21:59:30.55	50.36	12.70	-40.0	-42.6	12.7	8.54e-05	0	59	0	276824064	51	4906
2026-01-23 21:59:31.56	50.52	12.75	-40.0	-42.6	12.8	6.94e-05	0	59	0	279969792	51	4875
2026-01-23 21:59:32.57	50.69	12.81	-40.0	-42.6	12.7	6.17e-05	0	59	0	283115520	51	4890
2026-01-23 21:59:33.58	50.86	12.86	-40.1	-42.8	12.6	9.76e-05	0	59	0	286261248	51	5000
2026-01-23 21:59:34.59	51.02	12.91	-40.1	-42.7	12.6	9.76e-05	0	59	0	289406976	51	4957
2026-01-23 21:59:35.60	51.19	12.97	-40.1	-42.8	12.6	9.46e-05	0	59	0	292552704	51	4986
2026-01-23 21:59:36.61	51.36	13.02	-40.0	-42.7	12.7	7.93e-05	0	59	0	295698432	51	4929
2026-01-23 21:59:37.62	51.53	13.07	-40.0	-42.6	12.8	6.17e-05	0	59	0	298844160	51	4872
2026-01-23 21:59:38.63	51.70	13.13	-40.0	-42.6	12.8	5.49e-05	0	59	0	301989888	51	4889
2026-01-23 21:59:39.64	51.87	13.18	-40.0	-42.7	12.7	6.79e-05	0	59	0	305135616	51	4927
2026-01-23 21:59:40.65	52.04	13.23	-40.0	-42.7	12.7	7.24e-05	0	59	0	308281344	51	4928
2026-01-23 21:59:41.66	52.21	13.28	-40.0	-42.6	12.7	7.01e-05	0	59	0	311427072	51	4913
2026-01-23 21:59:42.67	52.38	13.34	-40.0	-42.6	12.8	6.94e-05	0	59	0	314572800	51	4909
2026-01-23 21:59:43.68	52.56	13.39	-40.0	-42.6	12.7	6.25e-05	0	59	0	317718528	51	4893
2026-01-23 21:59:44.69	52.73	13.44	-40.1	-42.7	12.7	8.85e-05	0	59	0	320864256	51	4937
2026-01-23 21:59:45.70	52.90	13.49	-40.1	-42.7	12.6	8.16e-05	0	59	0	324009984	51	4940
2026-01-23 21:59:46.71	53.08	13.55	-40.1	-42.7	12.6	1.01e-04	0	59	0	327155712	51	4965
2026-01-23 21:59:47.72	53.25	13.60	-40.1	-42.8	12.5	1.06e-04	0	60	0	330301440	51	5030
2026-01-23 21:59:48.73	53.43	13.65	-40.2	-42.9	12.4	1.12e-04	0	59	0	333447168	51	5071
2026-01-23 21:59:49.74	53.60	13.70	-40.2	-42.9	12.4	1.38e-04	0	59	0	336592896	51	5079
2026-01-23 21:59:50.75	53.78	13.75	-40.2	-43.0	12.4	1.42e-04	0	59	0	339738624	51	5101
2026-01-23 21:59:51.76	53.96	13.80	-40.3	-43.0	12.4	1.57e-04	0	59	0	342884352	51	5117
2026-01-23 21:59:52.77	54.14	13.85	-40.2	-42.9	12.4	1.49e-04	0	59	0	346030080	51	5085
2026-01-23 21:59:53.78	54.31	13.90	-40.3	-43.0	12.4	1.39e-04	0	59	0	349175808	51	5131
2026-01-23 21:59:54.79	54.49	13.96	-40.2	-42.8	12.5	1.28e-04	0	59	0	352321536	51	5032
2026-01-23 21:59:55.80	54.67	14.01	-40.1	-42.8	12.6	9.61e-05	0	59	0	355467264	51	4987
2026-01-23 21:59:56.81	54.85	14.06	-40.1	-42.8	12.6	9.91e-05	0	59	0	358612992	51	4989
2026-01-23 21:59:57.81	55.03	14.11	-40.1	-42.7	12.6	9.38e-05	0	60	0	361758720	51	4974
2026-01-23 21:59:58.82	55.21	14.16	-40.0	-42.6	12.8	6.56e-05	0	60	0	364904448	51	4923
2026-01-23 21:59:59.83	55.40	14.21	-39.9	-42.4	12.9	4.80e-05	0	59	0	368050176	51	4812
2026-01-23 22:00:00.84	55.58	14.26	-40.0	-42.5	12.9	4.88e-05	0	59	0	371195904	51	4847
2026-01-23 22:00:01.85	55.76	14.31	-40.0	-42.6	12.8	4.65e-05	0	59	0	374341632	51	4914
2026-01-23 22:00:02.86	55.95	14.36	-40.1	-42.8	12.6	8.77e-05	0	59	0	377487360	51	4999
2026-01-23 22:00:03.87	56.13	14.41	-40.0	-42.6	12.7	5.79e-05	0	60	0	380633088	51	4907
2026-01-23 22:00:04.88	56.32	14.46	-40.1	-42.8	12.6	1.07e-04	0	60	0	383778816	51	5012
2026-01-23 22:00:05.89	56.50	14.50	-40.1	-42.8	12.6	1.09e-04	0	59	0	386924544	51	5017
2026-01-23 22:00:06.90	56.69	14.55	-40.0	-42.7	12.7	9.15e-05	0	60	0	390070272	51	4943
2026-01-23 22:00:07.91	56.87	14.60	-40.0	-42.6	12.7	9.91e-05	0	60	0	393216000	51	4884
2026-01-23 22:00:08.92	57.06	14.65	-40.1	-42.7	12.6	7.55e-05	0	60	0	396361728	51	4979
2026-01-23 22:00:09.93	57.25	14.70	-40.1	-42.8	12.6	6.02e-05	0	60	0	399507456	51	4984
2026-01-23 22:00:10.95	57.44	14.75	-40.0	-42.6	12.8	7.17e-05	0	60	0	402653184	51	4924
2026-01-23 22:00:11.96	57.63	14.80	-39.9	-42.5	12.9	5.03e-05	0	60	0	405798912	51	4832
2026-01-23 22:00:12.97	57.82	14.84	-39.9	-42.4	13.0	2.89e-05	0	60	0	408944640	51	4805
2026-01-23 22:00:13.98	58.01	14.89	-39.9	-42.5	12.9	3.81e-05	0	60	0	412090368	51	4826
2026-01-23 22:00:14.98	58.20	14.94	-39.9	-42.5	12.9	6.17e-05	0	60	0	415236096	51	4829
2026-01-23 22:00:15.99	58.39	14.98	-39.9	-42.5	12.9	4.80e-05	0	60	0	418381824	51	4848
2026-01-23 22:00:17.00	58.58	15.03	-40.0	-42.6	12.8	5.95e-05	0	60	0	421527552	51	4905
2026-01-23 22:00:18.01	58.78	15.08	-40.0	-42.6	12.8	6.17e-05	0	60	0	424673280	51	4892
2026-01-23 22:00:19.02	58.97	15.12	-40.0	-42.6	12.8	8.08e-05	0	60	0	427819008	51	4907
2026-01-23 22:00:20.03	59.16	15.17	-39.9	-42.5	12.8	7.40e-05	0	60	0	430964736	51	4849
2026-01-23 22:00:21.04	59.36	15.22	-40.0	-42.5	12.8	6.10e-05	0	60	0	434110464	51	4860
2026-01-23 22:00:22.05	59.55	15.26	-39.9	-42.5	12.9	5.87e-05	0	60	0	437256192	51	4821
2026-01-23 22:00:23.06	59.75	15.31	-40.1	-42.7	12.6	8.16e-05	0	60	0	440401920	51	4950
2026-01-23 22:00:24.06	59.94	15.35	-40.0	-42.5	12.7	6.25e-05	0	60	0	443547648	51	4868
2026-01-23 22:00:25.07	60.14	15.40	-40.0	-42.6	12.8	7.09e-05	0	60	0	446693376	51	4912
2026-01-23 22:00:26.08	60.34	15.44	-39.9	-42.4	13.0	4.42e-05	0	60	0	449839104	51	4786
2026-01-23 22:00:27.09	60.54	15.49	-39.8	-42.3	13.1	3.50e-05	0	60	0	452984832	51	4719
2026-01-23 22:00:28.10	60.74	15.53	-39.8	-42.3	13.1	2.74e-05	0	60	0	456130560	51	4755
2026-01-23 22:00:29.11	60.94	15.58	-39.8	-42.4	13.0	3.43e-05	0	59	0	459276288	51	4771
2026-01-23 22:00:30.12	61.14	15.62	-39.8	-42.3	13.1	2.28e-05	0	60	0	462422016	51	4740
2026-01-23 22:00:31.13	61.34	15.67	-39.8	-42.3	13.1	2.05e-05	0	60	0	465567744	51	4732
2026-01-23 22:00:32.14	61.54	15.71	-39.8	-42.3	13.0	4.73e-05	0	60	0	468713472	51	4710
2026-01-23 22:00:33.15	61.74	15.75	-39.8	-42.3	13.0	3.50e-05	0	60	0	471859200	51	4757
2026-01-23 22:00:34.16	61.94	15.79	-39.8	-42.3	13.0	3.43e-05	0	60	0	475004928	51	4753
2026-01-23 22:00:35.18	62.15	15.84	-39.8	-42.3	13.0	4.27e-05	0	60	0	478150656	51	4745
2026-01-23 22:00:36.19	62.35	15.88	-39.8	-42.3	13.1	2.74e-05	0	60	0	481296384	51	4715
2026-01-23 22:00:37.20	62.55	15.92	-39.7	-42.2	13.1	2.05e-05	0	60	0	484442112	51	4672
2026-01-23 22:00:38.21	62.76	15.96	-39.6	-41.9	13.4	1.06e-05	0	60	0	487587840	51	4543
2026-01-23 22:00:39.21	62.96	16.01	-39.6	-42.0	13.4	1.52e-05	0	60	0	490733568	51	4551
2026-01-23 22:00:40.22	63.17	16.05	-39.5	-41.9	13.4	1.60e-05	0	60	0	493879296	51	4503
2026-01-23 22:00:41.23	63.37	16.09	-39.5	-41.9	13.4	1.44e-05	0	60	0	497025024	51	4543
2026-01-23 22:00:42.24	63.58	16.13	-39.6	-42.0	13.3	1.44e-05	0	60	0	500170752	51	4563
2026-01-23 22:00:43.25	63.79	16.17	-39.7	-42.2	13.1	2.05e-05	0	60	0	503316480	51	4654
2026-01-23 22:00:44.26	63.99	16.21	-39.7	-42.1	13.1	2.44e-05	0	60	0	506462208	51	4644
2026-01-23 22:00:45.27	64.20	16.25	-39.7	-42.2	13.1	2.74e-05	0	60	0	509607936	51	4682
2026-01-23 22:00:46.28	64.41	16.29	-39.7	-42.2	13.0	2.89e-05	0	60	0	512753664	51	4696
2026-01-23 22:00:47.29	64.62	16.33	-39.7	-42.3	13.0	3.12e-05	0	60	0	515899392	51	4709
2026-01-23 22:00:48.30	64.83	16.37	-39.7	-42.2	13.0	2.82e-05	0	60	0	519045120	51	4679
2026-01-23 22:00:49.31	65.04	16.41	-39.7	-42.2	13.0	3.43e-05	0	60	0	522190848	51	4694
2026-01-23 22:00:50.32	65.25	16.45	-39.8	-42.3	12.9	4.88e-05	0	60	0	525336576	51	4739
2026-01-23 22:00:51.33	65.46	16.48	-39.7	-42.2	13.0	3.43e-05	0	60	0	528482304	51	4695
2026-01-23 22:00:52.34	65.68	16.52	-39.5	-42.0	13.2	2.21e-05	0	60	0	531628032	51	4552
2026-01-23 22:00:53.35	65.89	16.56	-39.7	-42.2	12.9	5.56e-05	0	60	0	534773760	51	4675
2026-01-23 22:00:54.36	66.10	16.60	-39.7	-42.2	12.9	4.34e-05	0	60	0	537919488	51	4694
2026-01-23 22:00:55.37	66.32	16.63	-39.7	-42.2	12.8	6.56e-05	0	60	0	541065216	51	4697
2026-01-23 22:00:56.38	66.53	16.67	-39.5	-42.0	13.1	4.73e-05	0	60	0	545259520	51	4589
2026-01-23 22:00:57.39	66.74	16.71	-39.6	-42.1	13.0	3.81e-05	0	60	0	548405248	51	4601
2026-01-23 22:00:58.40	66.96	16.74	-39.5	-42.0	12.9	3.81e-05	0	60	0	551550976	51	4597
2026-01-23 22:00:59.41	67.18	16.78	-39.6	-42.1	12.8	6.02e-05	0	60	0	554696704	51	4650
2026-01-23 22:01:00.42	67.39	16.81	-39.6	-42.2	12.7	8.23e-05	0	60	0	556793856	51	4664
2026-01-23 22:01:01.43	67.61	16.85	-39.6	-42.3	12.5	1.01e-04	0	60	0	559939584	51	4738
2026-01-23 22:01:02.43	67.82	16.88	-39.7	-42.4	12.3	2.30e-04	0	60	0	564133888	51	4809
2026-01-23 22:01:03.45	68.04	16.92	-39.7	-42.5	12.1	2.65e-04	0	60	0	567279616	51	4838
2026-01-23 22:01:04.45	68.26	16.95	-39.6	-42.4	12.2	2.61e-04	0	60	0	570425344	51	4776
2026-01-23 22:01:05.46	68.48	16.98	-39.6	-42.5	12.0	2.91e-04	0	60	0	573571072	51	4818
2026-01-23 22:01:06.47	68.70	17.02	-39.6	-42.5	11.8	4.31e-04	0	60	0	576716800	51	4848
2026-01-23 22:01:07.48	68.92	17.05	-39.6	-42.6	11.7	5.81e-04	0	60	0	579862528	51	4916
2026-01-23 22:01:08.49	69.14	17.08	-39.7	-42.7	11.5	9.12e-04	0	60	0	583008256	51	4950
2026-01-23 22:01:09.50	69.36	17.11	-39.7	-42.8	11.4	1.04e-03	0	60	0	586153984	51	5002
2026-01-23 22:01:10.51	69.58	17.15	-39.7	-42.9	11.2	1.30e-03	0	60	0	589299712	51	5047
2026-01-23 22:01:11.53	69.80	17.18	-39.7	-42.9	11.0	1.76e-03	0	60	0	592445440	51	5070
2026-01-23 22:01:12.53	70.02	17.21	-39.7	-43.1	10.7	2.44e-03	0	60	0	595591168	51	5169
2026-01-23 22:01:13.55	70.25	17.24	-39.8	-43.4	10.3	4.84e-03	0	60	0	598736896	51	5368
2026-01-23 22:01:14.56	70.47	17.27	-39.9	-43.7	9.8	9.74e-03	0	60	0	601882624	51	5579
2026-01-23 22:01:15.57	70.69	17.30	-39.9	-44.0	9.5	1.35e-02	0	60	0	605028352	51	5726
2026-01-23 22:01:16.58	70.92	17.33	-39.9	-44.1	9.2	1.86e-02	0	60	0	608174080	51	5799
2026-01-23 22:01:17.59	71.14	17.36	-39.9	-44.2	9.0	2.37e-02	0	60	0	611319808	51	5877
2026-01-23 22:01:18.60	71.37	17.39	-40.0	-44.3	8.9	2.61e-02	0	60	0	614465536	51	5957
2026-01-23 22:01:19.61	71.59	17.42	-40.0	-44.3	8.9	2.84e-02	0	60	0	617611264	51	5971
2026-01-23 22:01:20.62	71.82	17.44	-40.1	-44.5	8.6	3.44e-02	0	60	0	620756992	51	6098
2026-01-23 22:01:21.63	72.04	17.47	-40.1	-44.7	8.4	4.07e-02	0	60	0	623902720	51	6251
2026-01-23 22:01:22.64	72.27	17.50	-40.2	-44.8	8.3	5.13e-02	0	60	0	627048448	51	6320
2026-01-23 22:01:23.65	72.49	17.53	-40.1	-44.7	8.5	4.45e-02	0	60	0	630194176	51	6219
2026-01-23 22:01:24.66	72.72	17.55	-40.1	-44.7	8.4	4.66e-02	0	60	0	633339904	51	6271
2026-01-23 22:01:25.67	72.95	17.58	-40.1	-44.7	8.4	4.66e-02	0	60	0	636485632	51	6249
2026-01-23 22:01:26.68	73.18	17.60	-40.2	-44.8	8.3	4.81e-02	0	60	0	639631360	51	6310
2026-01-23 22:01:27.68	73.40	17.63	-40.2	-44.9	8.2	5.36e-02	0	60	0	642777088	51	6351
2026-01-23 22:01:28.69	73.63	17.65	-40.2	-45.0	8.1	6.13e-02	0	60	0	645922816	51	6464
2026-01-23 22:01:29.70	73.86	17.68	-40.2	-45.0	8.1	6.23e-02	0	60	0	649068544	51	6426
2026-01-23 22:01:30.71	74.09	17.70	-40.2	-44.9	8.2	5.80e-02	0	60	0	652214272	51	6380
2026-01-23 22:01:31.72	74.32	17.72	-40.3	-44.9	8.1	5.67e-02	0	60	0	655360000	51	6420
2026-01-23 22:01:32.73	74.55	17.75	-40.3	-45.0	8.2	5.61e-02	0	60	0	658505728	51	6421
2026-01-23 22:01:33.74	74.78	17.77	-40.3	-44.7	8.5	4.46e-02	0	60	0	661651456	51	6274
2026-01-23 22:01:34.75	75.01	17.79	-40.2	-44.6	8.7	3.32e-02	0	60	0	664797184	51	6136
2026-01-23 22:01:35.76	75.24	17.81	-40.2	-44.5	8.8	3.10e-02	0	60	0	667942912	51	6102
2026-01-23 22:01:36.77	75.47	17.84	-40.1	-44.3	9.0	2.54e-02	0	60	0	671088640	51	5975
2026-01-23 22:01:37.78	75.70	17.86	-40.0	-44.2	9.2	2.14e-02	0	60	0	674234368	51	5867
2026-01-23 22:01:38.79	75.94	17.88	-40.0	-44.1	9.3	1.86e-02	0	60	0	677380096	51	5825
2026-01-23 22:01:39.80	76.17	17.90	-40.1	-44.2	9.2	1.92e-02	0	60	0	680525824	51	5857
2026-01-23 22:01:40.81	76.40	17.92	-40.0	-44.0	9.4	1.62e-02	0	61	0	683671552	51	5752
2026-01-23 22:01:41.82	76.63	17.94	-40.0	-44.1	9.3	1.65e-02	0	60	0	686817280	51	5801
2026-01-23 22:01:42.83	76.87	17.96	-40.1	-44.3	9.2	2.06e-02	0	60	0	689963008	51	5936
2026-01-23 22:01:43.84	77.10	17.97	-40.0	-44.1	9.4	1.83e-02	0	60	0	693108736	51	5796
2026-01-23 22:01:44.85	77.33	17.99	-39.9	-43.8	9.6	1.38e-02	0	60	0	696254464	51	5630
2026-01-23 22:01:45.86	77.57	18.01	-39.9	-43.9	9.6	1.30e-02	0	60	0	699400192	51	5667
2026-01-23 22:01:46.86	77.80	18.03	-39.9	-43.8	9.7	1.21e-02	0	60	0	702545920	51	5606
2026-01-23 22:01:47.87	78.04	18.04	-39.9	-43.7	9.8	1.06e-02	0	60	0	705691648	51	5557
2026-01-23 22:01:48.88	78.27	18.06	-39.9	-43.7	9.7	1.03e-02	0	60	0	708837376	51	5575
2026-01-23 22:01:49.89	78.51	18.07	-40.0	-43.9	9.6	1.17e-02	0	60	0	711983104	51	5687
2026-01-23 22:01:50.90	78.74	18.09	-40.0	-44.0	9.5	1.39e-02	0	60	0	715128832	51	5747
2026-01-23 22:01:51.91	78.98	18.10	-40.1	-44.3	9.1	2.02e-02	0	60	0	718274560	51	5987
2026-01-23 22:01:52.92	79.21	18.12	-40.3	-44.7	8.8	3.10e-02	0	61	0	721420288	51	6213
2026-01-23 22:01:53.93	79.45	18.13	-40.2	-44.6	8.8	3.43e-02	0	60	0	724566016	51	6164
2026-01-23 22:01:54.94	79.68	18.14	-40.2	-44.6	8.8	3.35e-02	0	60	0	727711744	51	6157
2026-01-23 22:01:55.95	79.92	18.16	-40.2	-44.5	8.9	3.05e-02	0	60	0	730857472	51	6099
2026-01-23 22:01:56.96	80.16	18.17	-40.1	-44.2	9.3	2.23e-02	0	60	0	734003200	51	5882
2026-01-23 22:01:57.97	80.39	18.18	-40.0	-43.8	9.9	1.11e-02	0	61	0	737148928	51	5611
2026-01-23 22:01:58.98	80.63	18.19	-39.9	-43.4	10.5	5.12e-03	0	61	0	740294656	51	5396
2026-01-23 22:01:59.99	80.87	18.20	-39.9	-43.3	10.7	3.06e-03	0	61	0	743440384	51	5310
2026-01-23 22:02:01.00	81.11	18.22	-39.9	-43.2	11.0	2.20e-03	0	60	0	746586112	51	5246
2026-01-23 22:02:02.01	81.34	18.23	-39.8	-43.0	11.2	1.44e-03	0	61	0	749731840	51	5114
2026-01-23 22:02:03.02	81.58	18.23	-39.8	-42.9	11.4	1.09e-03	0	60	0	752877568	51	5047
2026-01-23 22:02:04.02	81.82	18.24	-39.8	-42.9	11.4	9.56e-04	0	60	0	756023296	51	5052
2026-01-23 22:02:05.03	82.05	18.25	-39.7	-42.8	11.4	1.04e-03	0	60	0	759169024	51	5030
2026-01-23 22:02:06.04	82.29	18.26	-39.7	-42.8	11.4	9.12e-04	0	61	0	762314752	51	5014
2026-01-23 22:02:07.05	82.53	18.27	-39.7	-42.8	11.5	8.04e-04	0	60	0	765460480	51	5003
2026-01-23 22:02:08.06	82.77	18.28	-39.7	-42.6	11.8	5.62e-04	0	60	0	768606208	51	4894
2026-01-23 22:02:09.07	83.01	18.28	-39.8	-42.7	11.8	4.76e-04	0	61	0	771751936	51	4932
2026-01-23 22:02:10.08	83.25	18.29	-39.8	-42.7	11.8	4.70e-04	0	61	0	774897664	51	4934
2026-01-23 22:02:11.10	83.49	18.29	-39.8	-42.8	11.7	5.92e-04	0	60	0	778043392	51	4995
2026-01-23 22:02:12.11	83.73	18.30	-39.8	-42.9	11.6	7.10e-04	0	60	0	781189120	51	5043
2026-01-23 22:02:13.12	83.96	18.30	-39.8	-42.8	11.5	7.61e-04	0	61	0	784334848	51	5025
2026-01-23 22:02:14.13	84.20	18.31	-39.7	-42.9	11.3	1.09e-03	0	60	0	787480576	51	5050
2026-01-23 22:02:15.14	84.44	18.31	-39.6	-42.8	11.3	1.23e-03	0	60	0	790626304	51	5012
2026-01-23 22:02:16.15	84.68	18.32	-39.6	-42.8	11.2	1.39e-03	0	60	0	793772032	51	5030
2026-01-23 22:02:17.16	84.92	18.32	-39.7	-43.0	11.0	1.74e-03	0	60	0	796917760	51	5125
2026-01-23 22:02:18.17	85.16	18.32	-39.7	-43.1	10.9	2.18e-03	0	61	0	800063488	51	5168
2026-01-23 22:02:19.18	85.40	18.32	-39.9	-43.3	10.7	2.48e-03	0	61	0	803209216	51	5309
2026-01-23 22:02:20.19	85.64	18.32	-40.0	-43.5	10.6	3.16e-03	0	60	0	806354944	51	5406
2026-01-23 22:02:21.20	85.88	18.33	-40.1	-43.6	10.5	4.01e-03	0	61	0	809500672	51	5520
2026-01-23 22:02:22.21	86.12	18.33	-40.1	-43.5	10.6	3.79e-03	0	61	0	812646400	51	5458
2026-01-23 22:02:23.22	86.36	18.33	-40.0	-43.5	10.6	3.36e-03	0	61	0	815792128	51	5415
2026-01-23 22:02:24.23	86.59	18.33	-40.0	-43.6	10.5	3.94e-03	0	61	0	818937856	51	5482
2026-01-23 22:02:25.24	86.83	18.32	-40.2	-43.8	10.2	5.22e-03	0	61	0	822083584	51	5641
2026-01-23 22:02:26.25	87.07	18.32	-40.2	-43.9	10.2	6.42e-03	0	61	0	825229312	51	5657
2026-01-23 22:02:27.26	87.31	18.32	-40.2	-43.9	10.2	6.81e-03	0	60	0	828375040	51	5668
2026-01-23 22:02:28.27	87.55	18.32	-40.2	-43.7	10.5	4.41e-03	0	60	0	831520768	51	5550
2026-01-23 22:02:29.28	87.79	18.32	-40.2	-43.5	10.9	2.51e-03	0	61	0	834666496	51	5403
2026-01-23 22:02:30.29	88.03	18.31	-40.0	-43.1	11.5	1.19e-03	0	60	0	837812224	51	5160
2026-01-23 22:02:31.30	88.27	18.31	-39.9	-42.8	11.8	4.92e-04	0	61	0	840957952	51	5025
2026-01-23 22:02:32.31	88.51	18.30	-39.8	-42.7	12.0	3.04e-04	0	61	0	844103680	51	4944
2026-01-23 22:02:33.32	88.75	18.30	-39.7	-42.6	12.1	2.88e-04	0	61	0	847249408	51	4875
2026-01-23 22:02:34.33	88.99	18.29	-39.7	-42.6	12.0	3.51e-04	0	61	0	850395136	51	4880
2026-01-23 22:02:35.34	89.22	18.29	-39.6	-42.4	12.2	2.11e-04	0	61	0	853540864	51	4798
2026-01-23 22:02:36.35	89.46	18.28	-39.6	-42.3	12.3	1.97e-04	0	60	0	856686592	51	4722
2026-01-23 22:02:37.36	89.70	18.27	-39.6	-42.3	12.3	1.75e-04	0	61	0	859832320	51	4742
2026-01-23 22:02:38.37	89.94	18.27	-39.6	-42.3	12.4	1.47e-04	0	61	0	862978048	51	4755
2026-01-23 22:02:39.38	90.18	18.26	-39.6	-42.3	12.6	1.07e-04	0	61	0	866123776	51	4733
2026-01-23 22:02:40.39	90.42	18.25	-39.6	-42.3	12.7	8.77e-05	0	61	0	870318080	51	4706
2026-01-23 22:02:41.40	90.65	18.24	-39.5	-42.0	13.0	4.34e-05	0	61	0	872415232	51	4590
2026-01-23 22:02:42.41	90.89	18.23	-39.5	-41.9	13.1	3.73e-05	0	61	0	875560960	50	4810
2026-01-23 22:02:43.42	91.13	18.22	-39.6	-42.1	13.1	2.67e-05	0	61	0	878706688	50	4871
2026-01-23 22:02:44.43	91.37	18.21	-39.6	-42.2	13.0	3.73e-05	0	61	0	881852416	50	4942
2026-01-23 22:02:45.44	91.61	18.20	-39.6	-42.1	13.1	3.73e-05	0	61	0	886046720	50	4914
2026-01-23 22:02:46.45	91.84	18.19	-39.6	-42.0	13.2	2.51e-05	0	61	0	889192448	50	4863
2026-01-23 22:02:47.46	92.08	18.18	-39.5	-41.9	13.4	1.06e-05	0	60	0	892338176	50	4799
2026-01-23 22:02:48.47	92.32	18.17	-39.6	-42.0	13.4	1.06e-05	0	61	0	894435328	50	4823
2026-01-23 22:02:49.48	92.55	18.16	-39.6	-42.0	13.4	1.14e-05	0	61	0	897581056	50	4828
2026-01-23 22:02:50.48	92.79	18.14	-39.4	-41.8	13.6	6.10e-06	0	61	0	901775360	50	4714
2026-01-23 22:02:51.49	93.03	18.13	-39.4	-41.7	13.7	7.60e-06	0	61	0	904921088	50	4671
2026-01-23 22:02:52.50	93.26	18.12	-39.4	-41.7	13.7	5.30e-06	0	61	0	908066816	50	4685
2026-01-23 22:02:53.51	93.50	18.10	-39.3	-41.5	14.0	7.00e-07	0	60	0	911212544	50	4580
2026-01-23 22:02:54.52	93.73	18.09	-39.3	-41.5	14.0	1.50e-06	0	61	0	914358272	50	4567
2026-01-23 22:02:55.53	93.97	18.07	-39.3	-41.5	14.0	1.50e-06	0	61	0	917504000	50	4565
2026-01-23 22:02:56.54	94.20	18.05	-39.3	-41.6	14.0	5.30e-06	0	61	0	920649728	50	4599
2026-01-23 22:02:57.55	94.44	18.04	-39.4	-41.6	13.9	4.50e-06	0	61	0	923795456	50	4650
2026-01-23 22:02:58.56	94.68	18.02	-39.3	-41.6	13.9	2.20e-06	0	61	0	926941184	50	4603
2026-01-23 22:02:59.57	94.91	18.00	-39.3	-41.5	14.0	4.50e-06	0	61	0	930086912	50	4586
2026-01-23 22:03:00.58	95.14	17.99	-39.4	-41.7	13.9	3.80e-06	0	61	0	933232640	50	4666
2026-01-23 22:03:01.59	95.38	17.97	-39.4	-41.6	14.0	2.20e-06	0	61	0	936378368	50	4608
2026-01-23 22:03:02.60	95.61	17.95	-39.3	-41.5	14.1	2.20e-06	0	60	0	939524096	50	4564
2026-01-23 22:03:03.61	95.85	17.93	-39.4	-41.6	14.0	1.50e-06	0	61	0	942669824	50	4600
2026-01-23 22:03:04.62	96.08	17.91	-39.3	-41.5	14.1	2.20e-06	0	61	0	945815552	50	4595
2026-01-23 22:03:05.63	96.31	17.89	-39.4	-41.6	14.0	1.50e-06	0	61	0	948961280	50	4606
2026-01-23 22:03:06.64	96.55	17.87	-39.3	-41.4	14.2	1.50e-06	0	61	0	952107008	50	4526
2026-01-23 22:03:07.64	96.78	17.85	-39.3	-41.5	14.0	3.80e-06	0	61	0	955252736	50	4580
2026-01-23 22:03:08.65	97.01	17.83	-39.4	-41.6	14.0	1.50e-06	0	61	0	958398464	50	4615
2026-01-23 22:03:09.66	97.24	17.81	-39.4	-41.7	13.9	4.50e-06	0	61	0	961544192	50	4670
2026-01-23 22:03:10.67	97.47	17.79	-39.5	-41.7	13.9	1.14e-05	0	61	0	964689920	50	4676
2026-01-23 22:03:11.68	97.70	17.77	-39.4	-41.7	13.9	1.50e-06	0	61	0	967835648	50	4655
2026-01-23 22:03:12.70	97.94	17.74	-39.5	-41.7	13.9	2.20e-06	0	60	0	970981376	50	4683
2026-01-23 22:03:13.70	98.16	17.72	-39.4	-41.7	13.9	2.20e-06	0	61	0	974127104	50	4668
2026-01-23 22:03:14.72	98.40	17.69	-39.5	-41.8	13.8	2.20e-06	0	61	0	977272832	50	4715
2026-01-23 22:03:15.72	98.62	17.67	-39.5	-41.8	13.9	6.80e-06	0	61	0	980418560	50	4712
2026-01-23 22:03:16.73	98.85	17.65	-39.6	-41.9	13.7	5.30e-06	0	61	0	983564288	50	4763
2026-01-23 22:03:17.74	99.08	17.62	-39.6	-41.9	13.7	3.80e-06	0	61	0	986710016	50	4799
2026-01-23 22:03:18.75	99.31	17.60	-39.5	-41.8	13.9	3.00e-06	0	61	0	989855744	50	4723
2026-01-23 22:03:19.76	99.54	17.57	-39.4	-41.6	14.0	0.00e+00	0	61	0	993001472	50	4631
2026-01-23 22:03:20.77	99.77	17.54	-39.4	-41.6	14.0	3.00e-06	0	61	0	996147200	50	4648
2026-01-23 22:03:21.78	100.00	17.52	-39.5	-41.7	13.9	1.50e-06	0	61	0	999292928	50	4675
2026-01-23 22:03:22.79	100.22	17.49	-39.5	-41.7	13.9	7.00e-07	0	61	0	1002438656	50	4705
2026-01-23 22:03:23.80	100.45	17.46	-39.4	-41.7	14.0	1.50e-06	0	60	0	1005584384	50	4670
2026-01-23 22:03:24.81	100.68	17.44	-39.4	-41.5	14.1	1.50e-06	0	61	0	1008730112	50	4597
2026-01-23 22:03:25.82	100.90	17.41	-39.4	-41.6	14.0	0.00e+00	0	61	0	1011875840	50	4624
2026-01-23 22:03:26.83	101.13	17.38	-39.3	-41.5	14.1	1.50e-06	0	61	0	1015021568	50	4559
2026-01-23 22:03:27.84	101.35	17.35	-39.3	-41.5	14.1	2.20e-06	0	61	0	1018167296	50	4570
2026-01-23 22:03:28.85	101.58	17.32	-39.4	-41.5	14.1	1.50e-06	0	61	0	1021313024	50	4592
2026-01-23 22:03:29.86	101.80	17.29	-39.3	-41.4	14.2	7.00e-07	0	61	0	1024458752	50	4543
2026-01-23 22:03:30.87	102.03	17.26	-39.3	-41.5	14.1	3.00e-06	0	61	0	1027604480	49	4854
2026-01-23 22:03:31.88	102.25	17.23	-39.3	-41.6	14.0	1.50e-06	0	61	0	1030750208	49	4898
2026-01-23 22:03:32.89	102.47	17.20	-39.5	-41.7	13.9	1.50e-06	0	61	0	1033895936	49	4963
2026-01-23 22:03:33.90	102.69	17.17	-39.4	-41.6	14.0	3.80e-06	0	61	0	1037041664	49	4916
2026-01-23 22:03:34.91	102.92	17.14	-39.5	-41.7	13.9	5.30e-06	0	61	0	1040187392	49	4950
2026-01-23 22:03:35.92	103.14	17.10	-39.5	-41.8	13.9	1.50e-06	0	61	0	1043333120	49	4986
2026-01-23 22:03:36.93	103.36	17.07	-39.4	-41.6	14.0	4.50e-06	0	61	0	1046478848	49	4906
2026-01-23 22:03:37.94	103.58	17.04	-39.4	-41.6	14.0	7.00e-07	0	61	0	1049624576	49	4913
2026-01-23 22:03:38.95	103.80	17.01	-39.4	-41.6	14.1	2.20e-06	0	60	0	1052770304	49	4901
2026-01-23 22:03:39.96	104.02	16.97	-39.4	-41.6	14.0	3.00e-06	0	61	0	1055916032	49	4923
2026-01-23 22:03:40.97	104.24	16.94	-39.4	-41.6	14.0	3.00e-06	0	61	0	1059061760	49	4924
2026-01-23 22:03:41.98	104.46	16.90	-39.3	-41.6	14.1	2.20e-06	0	61	0	1062207488	49	4871
2026-01-23 22:03:42.99	104.68	16.87	-39.4	-41.6	14.0	2.20e-06	0	61	0	1065353216	49	4904
2026-01-23 22:03:44.00	104.90	16.83	-39.5	-41.7	13.9	7.00e-07	0	61	0	1068498944	49	4945
2026-01-23 22:03:45.01	105.11	16.80	-39.5	-41.8	13.8	5.30e-06	0	61	0	1071644672	49	5015
2026-01-23 22:03:46.02	105.33	16.76	-39.6	-41.9	13.8	4.50e-06	0	61	0	1074790400	49	5049
2026-01-23 22:03:47.03	105.55	16.73	-39.5	-41.8	13.8	5.30e-06	0	61	0	1077936128	49	5018
2026-01-23 22:03:48.04	105.76	16.69	-39.5	-41.8	13.8	3.80e-06	0	61	0	1081081856	49	5033
2026-01-23 22:03:49.04	105.98	16.66	-39.5	-41.8	13.8	5.30e-06	0	61	0	1084227584	49	4993
2026-01-23 22:03:50.05	106.19	16.62	-39.4	-41.7	13.9	6.10e-06	0	61	0	1087373312	49	4948
2026-01-23 22:03:51.06	106.41	16.58	-39.5	-41.8	13.9	4.50e-06	0	61	0	1090519040	49	4988
2026-01-23 22:03:52.07	106.62	16.54	-39.5	-41.8	13.8	5.30e-06	0	61	0	1093664768	49	5024
2026-01-23 22:03:53.08	106.83	16.51	-39.5	-41.8	13.8	4.50e-06	0	60	0	1096810496	49	5015
2026-01-23 22:03:54.09	107.05	16.47	-39.5	-41.8	13.9	3.00e-06	0	61	0	1099956224	49	4987
2026-01-23 22:03:55.10	107.26	16.43	-39.5	-41.7	13.9	3.80e-06	0	61	0	1103101952	49	4977
2026-01-23 22:03:56.11	107.47	16.39	-39.5	-41.9	13.7	4.50e-06	0	61	0	1106247680	49	5042
2026-01-23 22:03:57.12	107.68	16.35	-39.6	-41.9	13.6	6.80e-06	0	61	0	1109393408	49	5091
2026-01-23 22:03:58.13	107.89	16.31	-39.7	-42.1	13.5	1.22e-05	0	61	0	1112539136	49	5169
2026-01-23 22:03:59.14	108.10	16.27	-39.7	-42.1	13.5	1.29e-05	0	61	0	1115684864	49	5178
2026-01-23 22:04:00.15	108.31	16.23	-39.8	-42.2	13.4	1.37e-05	0	61	0	1118830592	50	4944
2026-01-23 22:04:01.16	108.52	16.19	-39.8	-42.2	13.4	9.10e-06	0	61	0	1121976320	50	4964
2026-01-23 22:04:02.17	108.73	16.15	-39.9	-42.3	13.3	1.75e-05	0	61	0	1125122048	50	5016
2026-01-23 22:04:03.18	108.94	16.11	-39.9	-42.3	13.3	1.83e-05	0	61	0	1128267776	50	5038
2026-01-23 22:04:04.19	109.15	16.07	-39.8	-42.2	13.4	1.06e-05	0	61	0	1131413504	50	4976
2026-01-23 22:04:05.20	109.35	16.03	-39.7	-42.1	13.5	6.10e-06	0	61	0	1134559232	50	4911
2026-01-23 22:04:06.21	109.56	15.99	-39.7	-42.1	13.5	4.50e-06	0	61	0	1137704960	50	4888
2026-01-23 22:04:07.22	109.76	15.94	-39.7	-42.0	13.6	9.10e-06	0	61	0	1140850688	50	4864
2026-01-23 22:04:08.23	109.97	15.90	-39.7	-42.1	13.5	1.14e-05	0	61	0	1143996416	50	4889
2026-01-23 22:04:09.24	110.17	15.86	-39.7	-42.1	13.5	1.67e-05	0	61	0	1147142144	50	4899
2026-01-23 22:04:10.25	110.38	15.82	-39.8	-42.3	13.3	1.52e-05	0	61	0	1150287872	50	5000
2026-01-23 22:04:11.26	110.58	15.77	-39.9	-42.4	13.2	2.74e-05	0	61	0	1153433600	50	5068
2026-01-23 22:04:12.27	110.79	15.73	-40.0	-42.5	13.0	2.89e-05	0	61	0	1156579328	50	5142
2026-01-23 22:04:13.28	110.99	15.69	-40.0	-42.6	13.0	3.35e-05	0	61	0	1159725056	50	5160
2026-01-23 22:04:14.29	111.19	15.64	-40.0	-42.5	13.1	2.67e-05	0	61	0	1162870784	50	5103
2026-01-23 22:04:15.30	111.39	15.60	-39.9	-42.4	13.2	2.28e-05	0	61	0	1166016512	50	5088
2026-01-23 22:04:16.31	111.59	15.55	-39.9	-42.4	13.2	2.67e-05	0	61	0	1169162240	50	5073
2026-01-23 22:04:17.32	111.79	15.51	-39.9	-42.3	13.2	1.90e-05	0	61	0	1172307968	50	5018
2026-01-23 22:04:18.33	111.99	15.46	-39.8	-42.2	13.4	1.90e-05	0	61	0	1175453696	50	4959
2026-01-23 22:04:19.34	112.19	15.42	-39.8	-42.2	13.3	1.90e-05	0	61	0	1178599424	50	4963
2026-01-23 22:04:20.35	112.39	15.37	-39.7	-42.2	13.4	1.14e-05	0	61	0	1181745152	50	4929
2026-01-23 22:04:21.36	112.59	15.33	-39.8	-42.2	13.3	1.37e-05	0	61	0	1184890880	50	4973
2026-01-23 22:04:22.37	112.78	15.28	-39.8	-42.2	13.3	2.51e-05	0	61	0	1188036608	50	4982
2026-01-23 22:04:23.38	112.98	15.24	-39.8	-42.3	13.2	2.44e-05	0	61	0	1191182336	50	5000
2026-01-23 22:04:24.39	113.18	15.19	-39.9	-42.4	13.1	3.05e-05	0	61	0	1194328064	50	5085
2026-01-23 22:04:25.40	113.37	15.14	-39.9	-42.4	13.1	3.58e-05	0	61	0	1197473792	50	5095
2026-01-23 22:04:26.41	113.57	15.10	-40.0	-42.5	13.0	3.96e-05	0	61	0	1200619520	50	5129
2026-01-23 22:04:27.42	113.76	15.05	-40.0	-42.5	13.1	2.44e-05	0	61	0	1203765248	50	5103
2026-01-23 22:04:28.43	113.95	15.00	-40.0	-42.5	13.0	3.73e-05	0	61	0	1206910976	50	5148
2026-01-23 22:04:29.44	114.15	14.95	-40.0	-42.6	12.9	5.26e-05	0	61	0	1210056704	50	5180
2026-01-23 22:04:30.44	114.34	14.91	-40.0	-42.5	13.0	4.04e-05	0	61	0	1213202432	50	5147
2026-01-23 22:04:31.45	114.53	14.86	-40.0	-42.5	13.0	5.03e-05	0	61	0	1216348160	50	5132
2026-01-23 22:04:32.46	114.72	14.81	-39.9	-42.4	13.1	2.51e-05	0	61	0	1219493888	50	5047
2026-01-23 22:04:33.47	114.91	14.76	-39.8	-42.3	13.2	2.67e-05	0	61	0	1222639616	50	5005
2026-01-23 22:04:34.48	115.10	14.71	-39.9	-42.3	13.1	1.75e-05	0	61	0	1226833920	50	5036
2026-01-23 22:04:35.49	115.29	14.67	-39.8	-42.2	13.3	2.51e-05	0	61	0	1229979648	50	4963
2026-01-23 22:04:36.50	115.48	14.62	-39.7	-42.1	13.4	1.44e-05	0	61	0	1233125376	50	4883
2026-01-23 22:04:37.51	115.67	14.57	-39.7	-42.1	13.4	1.90e-05	0	61	0	1235222528	50	4903
2026-01-23 22:04:38.52	115.86	14.52	-39.8	-42.3	13.2	2.89e-05	0	61	0	1238368256	50	4998
2026-01-23 22:04:39.54	116.05	14.47	-39.9	-42.4	13.0	8.08e-05	0	61	0	1242562560	50	5059
2026-01-23 22:04:40.55	116.23	14.42	-39.8	-42.4	13.0	1.95e-04	0	61	0	1245708288	50	5073
2026-01-23 22:04:41.55	116.42	14.37	-40.0	-42.5	13.0	3.52e-04	0	61	0	1248854016	50	5132
2026-01-23 22:04:42.56	116.60	14.32	-40.0	-42.5	12.9	1.57e-04	0	61	0	1251999744	50	5155
2026-01-23 22:04:43.58	116.79	14.27	-39.9	-42.5	12.6	1.28e-04	0	61	0	1255145472	50	5135
2026-01-23 22:04:44.59	116.97	14.22	-39.7	-42.6	12.6	8.07e-03	0	61	0	1258291200	50	5190
2026-01-23 22:04:45.60	117.16	14.17	-39.9	-42.6	12.8	9.90e-04	0	61	0	1261436928	50	5160
2026-01-23 22:04:46.60	117.34	14.12	-39.9	-42.5	12.8	1.61e-04	0	61	0	1264582656	50	5102
2026-01-23 22:04:47.61	117.52	14.07	-39.8	-42.4	12.7	3.65e-04	0	61	0	1267728384	50	5092
2026-01-23 22:04:48.62	117.70	14.02	-39.9	-42.5	12.9	2.65e-04	0	61	0	1270874112	50	5114
2026-01-23 22:04:49.63	117.88	13.97	-39.9	-42.4	12.9	7.80e-04	0	61	0	1274019840	50	5079
2026-01-23 22:04:50.64	118.06	13.91	-39.7	-42.4	12.8	3.11e-04	0	61	0	1277165568	50	5063
2026-01-23 22:04:51.65	118.24	13.86	-39.8	-42.4	12.9	2.51e-04	0	61	0	1280311296	50	5070
2026-01-23 22:04:52.66	118.42	13.81	-39.8	-42.3	12.9	4.63e-04	0	61	0	1283457024	50	5036
2026-01-23 22:04:53.67	118.60	13.76	-39.7	-42.3	13.0	4.78e-04	0	61	0	1286602752	49	5286
2026-01-23 22:04:54.69	118.78	13.71	-39.2	-42.1	12.8	8.94e-03	0	61	0	1289748480	49	5202
2026-01-23 22:04:55.70	118.96	13.66	-39.5	-42.4	12.4	4.57e-03	0	61	0	1292894208	50	5048
2026-01-23 22:04:56.71	119.13	13.60	-39.8	-42.4	12.8	2.83e-03	0	61	0	1296039936	50	5083
2026-01-23 22:04:57.71	119.31	13.55	-39.4	-42.4	12.0	6.49e-03	0	61	0	1299185664	49	5378
2026-01-23 22:04:58.72	119.48	13.50	-39.0	-42.5	12.3	8.41e-03	0	61	0	1302331392	50	5132
2026-01-23 22:04:59.73	119.66	13.45	-39.7	-42.5	12.5	1.62e-02	0	61	0	1305477120	50	5124
2026-01-23 22:05:00.75	119.83	13.39	-39.8	-42.6	12.4	2.65e-03	0	61	0	1308622848	50	5177
2026-01-23 22:05:01.76	120.01	13.34	-39.8	-42.6	12.4	1.29e-03	0	61	0	1311768576	50	5194
2026-01-23 22:05:02.77	120.18	13.29	-39.9	-42.7	12.4	1.20e-03	0	61	0	1314914304	50	5231
2026-01-23 22:05:03.78	120.35	13.23	-39.5	-42.8	12.1	1.63e-03	0	61	0	1318060032	50	5289
2026-01-23 22:05:04.79	120.53	13.18	-38.8	-42.4	12.1	1.08e-02	0	61	0	1321205760	49	5379
2026-01-23 22:05:05.79	120.70	13.13	-39.8	-42.5	12.3	1.15e-03	0	61	0	1324351488	50	5132
2026-01-23 22:05:06.80	120.87	13.08	-39.8	-42.5	12.3	2.87e-03	0	61	0	1327497216	50	5153
2026-01-23 22:05:07.81	121.04	13.02	-38.5	-42.5	11.4	1.51e-02	3	61	0	1330642944	48	5733
2026-01-23 22:05:08.82	121.21	12.97	-37.3	-42.5	11.3	3.10e-02	9	61	0	1333788672	48	5750
2026-01-23 22:05:09.83	121.38	12.91	-38.6	-42.4	10.7	6.97e-02	0	61	0	1336934400	46	6351
2026-01-23 22:05:10.84	121.54	12.86	-39.5	-42.2	10.8	3.29e-02	0	61	0	1340080128	46	6235
2026-01-23 22:05:11.85	121.71	12.81	-39.1	-42.3	12.3	2.49e-03	0	61	0	1343225856	49	5314
2026-01-23 22:05:12.86	121.88	12.75	-37.7	-42.1	9.9	2.17e-01	7	61	0	1346371584	40	8693
2026-01-23 22:05:13.87	122.05	12.70	-39.9	-42.8	12.0	4.73e-01	0	61	0	1349517312	50	5288
2026-01-23 22:05:14.88	122.21	12.64	-39.3	-42.8	11.9	6.03e-03	0	61	0	1352663040	50	5303
2026-01-23 22:05:15.89	122.38	12.59	-39.6	-42.6	12.0	1.87e-02	0	61	0	1355808768	50	5189
2026-01-23 22:05:16.90	122.54	12.54	-39.7	-42.6	12.0	4.96e-02	0	61	0	1358954496	49	5505
2026-01-23 22:05:17.91	122.71	12.48	-36.7	-42.5	11.9	1.64e-02	0	61	0	1362100224	50	5129
2026-01-23 22:05:18.92	122.87	12.43	-39.6	-42.5	11.9	1.55e-02	0	61	0	1365245952	49	5458
2026-01-23 22:05:19.93	123.03	12.37	-38.8	-42.4	11.5	5.80e-02	0	61	0	1368391680	48	5710
2026-01-23 22:05:20.94	123.20	12.32	-38.7	-42.4	10.9	2.42e-02	0	61	0	1371537408	47	6004
2026-01-23 22:05:21.95	123.36	12.26	-39.0	-42.4	10.7	3.81e-02	1	61	0	1374683136	47	6058
2026-01-23 22:05:22.96	123.52	12.21	-39.3	-42.6	11.6	1.45e-02	0	61	0	1377828864	49	5489
2026-01-23 22:05:23.97	123.68	12.15	-39.0	-42.4	10.6	2.47e-02	1	61	0	1380974592	44	7173
2026-01-23 22:05:24.98	123.84	12.10	-39.2	-42.4	11.2	1.42e-02	0	61	0	1384120320	48	5699
2026-01-23 22:05:25.99	124.00	12.04	-39.5	-42.4	11.9	2.96e-02	0	61	0	1386217472	49	5390
2026-01-23 22:05:27.00	124.16	11.99	-39.3	-42.5	10.9	8.03e-02	0	61	0	1389363200	38	10201
2026-01-23 22:05:28.01	124.32	11.93	-38.5	-42.3	10.6	8.46e-02	4	61	0	1392508928	37	10591
2026-01-23 22:05:29.02	124.48	11.88	-38.5	-42.3	10.4	9.75e-02	4	61	0	1395654656	46	6315
2026-01-23 22:05:30.03	124.63	11.82	-38.7	-42.3	11.3	5.56e-02	4	61	0	1398800384	48	5621
2026-01-23 22:05:31.04	124.79	11.76	-37.4	-42.0	9.6	1.78e-01	8	61	0	1400897536	45	6485
2026-01-23 22:05:32.05	124.95	11.71	-23.4	-37.0	6.4	2.31e-01	6	61	0	1402994688	31	8138
2026-01-23 22:05:33.06	125.10	11.65	-35.8	-42.6	4.6	4.61e-01	0	61	104	1402994688	36	11559
2026-01-23 22:05:34.07	125.26	11.60	-21.6	-33.4	4.6	3.85e-01	0	61	104	1402994688	30	5716
2026-01-23 22:05:35.08	125.41	11.54	-35.3	-42.6	4.8	1.40e+00	0	61	104	1402994688	38	10396
2026-01-23 22:05:36.09	125.56	11.49	-28.0	-41.4	5.0	5.96e-01	0	61	104	1402994688	27	16947
2026-01-23 22:05:37.10	125.72	11.43	-31.9	-41.2	5.0	1.43e+00	0	61	104	1402994688	32	12436
2026-01-23 22:05:38.11	125.87	11.37	-27.9	-38.4	4.5	1.42e+00	0	61	104	1402994688	23	15205
2026-01-23 22:05:39.12	126.02	11.32	-27.0	-39.8	4.7	1.47e+00	0	61	104	1402994688	23	17786
2026-01-23 22:05:40.13	126.17	11.26	-23.5	-37.3	3.8	1.50e+00	0	61	104	1402994688	21	14928
2026-01-23 22:05:41.14	126.33	11.21	-21.9	-36.6	-1.4	1.50e+00	0	61	104	1402994688	22	13025
2026-01-23 22:05:42.15	126.48	11.15	-27.9	-40.6	4.5	1.48e+00	0	61	104	1402994688	22	20582
2026-01-23 22:05:43.16	126.63	11.09	-28.8	-42.4	4.3	1.49e+00	0	61	104	1402994688	25	21364
2026-01-23 22:05:44.17	126.78	11.04	-27.7	-41.7	5.0	1.46e+00	0	61	104	1402994688	31	13979
2026-01-23 22:05:45.18	126.92	10.98	-29.5	-41.5	4.9	1.46e+00	0	61	104	1402994688	28	16305
2026-01-23 22:05:46.19	127.07	10.93	-24.7	-37.1	4.3	1.48e+00	0	61	104	1402994688	23	13058
2026-01-23 22:05:47.20	127.22	10.87	-24.8	-38.1	4.8	1.47e+00	0	61	104	1402994688	20	17349
2026-01-23 22:05:48.21	127.37	10.81	-28.3	-41.8	4.7	1.49e+00	0	61	104	1402994688	26	18855
2026-01-23 22:05:49.21	127.51	10.76	-20.6	-34.7	4.1	1.49e+00	0	61	104	1402994688	14	16574
2026-01-23 22:05:50.22	127.66	10.70	-20.8	-34.7	3.8	1.50e+00	0	61	104	1402994688	10	20926
2026-01-23 22:05:51.23	127.80	10.64	-25.9	-37.7	3.9	1.50e+00	0	61	104	1402994688	18	18567
2026-01-23 22:05:52.24	127.95	10.59	-21.0	-36.1	3.4	1.51e+00	0	61	104	1402994688	13	20740
2026-01-23 22:05:53.25	128.09	10.53	-20.5	-32.3	3.8	1.51e+00	0	61	104	1402994688	9	16717
2026-01-23 22:05:54.26	128.24	10.47	-24.2	-37.8	3.4	1.49e+00	0	61	104	1402994688	17	19938
2026-01-23 22:05:55.27	128.38	10.42	-22.6	-36.9	3.3	1.50e+00	0	61	104	1402994688	16	19045
2026-01-23 22:05:56.28	128.52	10.36	-19.5	-32.7	3.5	1.50e+00	0	61	104	1402994688	10	16592
2026-01-23 22:05:57.29	128.67	10.30	-17.2	-30.5	3.8	1.49e+00	0	61	104	1402994688	6	16269
2026-01-23 22:05:58.30	128.81	10.25	-23.9	-37.0	3.3	1.50e+00	0	61	104	1402994688	17	18277
2026-01-23 22:05:59.31	128.95	10.19	-24.8	-37.8	3.4	1.51e+00	0	61	104	1402994688	15	22381
2026-01-23 22:06:00.32	129.09	10.13	-19.9	-30.9	3.8	1.51e+00	0	61	104	1402994688	6	16992
2026-01-23 22:06:01.33	129.23	10.08	-22.0	-33.6	3.5	1.51e+00	0	61	104	1402994688	10	18379
2026-01-23 22:06:02.34	129.37	10.02	-21.3	-32.7	3.4	1.52e+00	0	61	104	1402994688	12	14822
2026-01-23 22:06:03.35	129.51	9.96	-20.7	-32.8	3.4	1.51e+00	0	61	104	1402994688	10	16817
2026-01-23 22:06:04.36	129.65	9.91	-20.7	-33.8	3.5	1.51e+00	0	61	104	1402994688	14	14886
2026-01-23 22:06:05.37	129.79	9.85	-20.7	-32.6	3.7	1.52e+00	0	61	104	1402994688	12	14558
2026-01-23 22:06:06.37	129.92	9.79	-22.5	-35.3	3.5	1.52e+00	0	61	104	1402994688	17	15008
2026-01-23 22:06:07.38	130.06	9.74	-22.9	-36.7	3.5	1.51e+00	0	61	104	1402994688	16	18567
2026-01-23 22:06:08.39	130.20	9.68	-22.1	-35.6	3.5	1.51e+00	0	61	104	1402994688	17	15507
2026-01-23 22:06:09.40	130.33	9.62	-20.7	-34.0	3.6	1.52e+00	0	61	104	1402994688	12	17143
2026-01-23 22:06:10.41	130.47	9.57	-23.0	-35.9	3.4	1.52e+00	0	61	104	1402994688	16	16892
2026-01-23 22:06:11.42	130.60	9.51	-22.0	-34.1	3.6	1.52e+00	0	61	104	1402994688	15	14590
2026-01-23 22:06:12.43	130.74	9.45	-17.4	-27.5	4.0	1.51e+00	0	61	104	1402994688	7	10816
2026-01-23 22:06:13.44	130.87	9.39	-23.7	-36.2	3.5	1.51e+00	0	61	104	1402994688	16	17658
2026-01-23 22:06:14.45	131.00	9.34	-22.5	-37.4	3.4	1.51e+00	0	61	104	1402994688	18	17929
2026-01-23 22:06:15.46	131.14	9.28	-22.5	-36.4	3.3	1.50e+00	0	61	104	1402994688	19	15158
2026-01-23 22:06:16.47	131.27	9.22	-23.3	-34.8	3.7	1.50e+00	0	61	104	1402994688	11	20053
2026-01-23 22:06:17.48	131.40	9.17	-22.4	-32.2	3.5	1.51e+00	0	61	104	1402994688	7	18570
2026-01-23 22:06:18.49	131.53	9.11	-15.2	-34.7	3.0	1.50e+00	0	61	104	1402994688	4	29456
2026-01-23 22:06:19.50	131.66	9.05	-17.6	-35.2	3.5	1.50e+00	0	61	104	1402994688	8	24911
2026-01-23 22:06:20.51	131.79	9.00	-16.0	-33.7	3.0	1.50e+00	0	61	104	1402994688	4	26289
2026-01-23 22:06:21.51	131.92	8.94	-22.1	-36.8	3.2	1.50e+00	0	61	104	1402994688	16	18807
2026-01-23 22:06:22.52	132.05	8.88	-23.5	-39.1	3.4	1.50e+00	0	61	104	1402994688	19	20750
2026-01-23 22:06:23.53	132.18	8.83	-22.1	-35.7	3.5	1.51e+00	0	61	104	1402994688	13	19671
2026-01-23 22:06:24.54	132.31	8.77	-20.9	-37.7	3.3	1.50e+00	0	61	104	1402994688	19	17649
2026-01-23 22:06:25.55	132.44	8.71	-15.8	-32.5	3.2	1.51e+00	0	61	104	1402994688	10	16150
2026-01-23 22:06:26.56	132.57	8.65	-16.5	-28.4	4.0	1.51e+00	0	61	104	1402994688	8	11397
2026-01-23 22:06:27.57	132.69	8.60	-23.3	-38.0	3.4	1.50e+00	0	61	104	1402994688	18	19206
2026-01-23 22:06:28.58	132.82	8.54	-25.6	-38.7	3.2	1.50e+00	0	61	104	1402994688	15	24828
2026-01-23 22:06:29.59	132.95	8.48	-26.8	-41.2	3.8	1.51e+00	0	61	104	1402994688	22	22009
2026-01-23 22:06:30.60	133.07	8.43	-28.8	-43.6	4.2	1.51e+00	0	61	104	1402994688	25	24452
2026-01-23 22:06:31.61	133.20	8.37	-26.1	-42.1	4.4	1.51e+00	0	61	104	1402994688	28	17418
2026-01-23 22:06:32.62	133.32	8.31	-28.7	-45.6	4.1	1.51e+00	0	61	104	1402994688	27	27395
2026-01-23 22:06:33.63	133.45	8.26	-28.4	-43.1	3.9	1.51e+00	0	61	104	1402994688	21	29227
2026-01-23 22:06:34.63	133.57	8.20	-32.1	-47.5	4.4	1.51e+00	0	61	104	1402994688	32	25852
2026-01-23 22:06:35.64	133.69	8.14	-27.1	-43.4	3.7	1.51e+00	0	61	104	1402994688	18	35765
2026-01-23 22:06:36.65	133.82	8.09	-28.4	-44.5	4.3	1.51e+00	0	61	104	1402994688	23	30460
2026-01-23 22:06:37.66	133.94	8.03	-35.0	-48.0	4.1	1.51e+00	0	61	104	1402994688	39	18304
2026-01-23 22:06:38.67	134.06	7.97	-19.3	-38.8	5.2	1.51e+00	0	61	104	1402994688	14	26735
2026-01-23 22:06:39.68	134.18	7.92	-29.8	-47.0	4.2	1.51e+00	0	61	104	1402994688	31	25803
2026-01-23 22:06:40.69	134.30	7.86	-44.8	-57.3	3.8	1.49e+00	0	61	104	1402994688	60	15939
2026-01-23 22:06:41.70	134.42	7.80	-45.0	-57.6	3.8	1.49e+00	0	61	104	1402994688	60	16425
2026-01-23 22:06:42.72	134.54	7.75	-45.2	-57.8	3.8	1.49e+00	0	62	104	1402994688	60	16781
2026-01-23 22:06:43.73	134.66	7.69	-45.3	-57.9	3.8	1.49e+00	0	61	104	1402994688	61	16023
2026-01-23 22:06:44.74	134.78	7.63	-45.4	-58.0	3.8	1.49e+00	0	61	104	1402994688	61	16240
2026-01-23 22:06:45.75	134.90	7.58	-45.5	-58.1	3.8	1.49e+00	0	61	104	1402994688	61	16422
2026-01-23 22:06:46.76	135.02	7.52	-45.6	-58.1	3.8	1.49e+00	0	61	104	1402994688	61	16470
2026-01-23 22:06:47.77	135.14	7.46	-45.6	-58.1	3.8	1.49e+00	0	61	104	1402994688	61	16498
2026-01-23 22:06:48.78	135.26	7.41	-45.5	-58.0	3.8	1.49e+00	0	62	104	1402994688	61	16276
2026-01-23 22:06:49.79	135.37	7.35	-45.5	-57.9	3.8	1.49e+00	0	61	104	1402994688	61	16100
2026-01-23 22:06:50.80	135.49	7.29	-45.4	-57.8	3.8	1.49e+00	0	61	104	1402994688	61	15898
2026-01-23 22:06:51.81	135.61	7.24	-45.4	-57.8	3.8	1.49e+00	0	61	104	1402994688	61	15875
2026-01-23 22:06:52.82	135.72	7.18	-45.3	-57.7	3.8	1.49e+00	0	61	104	1402994688	61	15739
2026-01-23 22:06:53.83	135.84	7.12	-45.3	-57.6	3.8	1.49e+00	0	61	104	1402994688	61	15573
2026-01-23 22:06:54.84	135.95	7.07	-45.2	-57.6	3.8	1.49e+00	0	61	104	1402994688	61	15447
2026-01-23 22:06:55.85	136.07	7.01	-45.2	-57.6	3.8	1.49e+00	0	61	104	1402994688	61	15454
2026-01-23 22:06:56.86	136.18	6.95	-45.2	-57.6	3.8	1.49e+00	0	61	104	1402994688	61	15429
2026-01-23 22:06:57.87	136.29	6.90	-45.2	-57.6	3.8	1.49e+00	0	61	104	1402994688	61	15440
2026-01-23 22:06:58.88	136.41	6.84	-45.2	-57.6	3.8	1.49e+00	0	61	104	1402994688	61	15432
2026-01-23 22:06:59.89	136.52	6.79	-45.2	-57.5	3.8	1.49e+00	0	61	104	1402994688	61	15365
2026-01-23 22:07:00.90	136.63	6.73	-45.2	-57.5	3.8	1.49e+00	0	61	104	1402994688	61	15356
2026-01-23 22:07:01.91	136.74	6.67	-45.2	-57.5	3.8	1.49e+00	0	61	104	1402994688	61	15326
2026-01-23 22:07:02.92	136.85	6.62	-45.1	-57.5	3.8	1.49e+00	0	61	104	1402994688	61	15333
2026-01-23 22:07:03.93	136.97	6.56	-45.1	-57.5	3.8	1.49e+00	0	61	104	1402994688	61	15339
2026-01-23 22:07:04.95	137.08	6.50	-45.1	-57.5	3.8	1.49e+00	0	62	104	1402994688	61	15285
2026-01-23 22:07:05.96	137.19	6.45	-45.1	-57.5	3.8	1.49e+00	0	62	104	1402994688	61	15359
2026-01-23 22:07:06.97	137.30	6.39	-45.1	-57.5	3.8	1.49e+00	0	62	104	1402994688	61	15314
2026-01-23 22:07:07.98	137.41	6.34	-45.1	-57.5	3.8	1.49e+00	0	61	104	1402994688	61	15301
2026-01-23 22:07:08.99	137.52	6.28	-45.1	-57.5	3.8	1.49e+00	0	62	104	1402994688	61	15316
2026-01-23 22:07:10.00	137.62	6.22	-45.1	-57.5	3.8	1.49e+00	0	61	104	1402994688	61	15299
2026-01-23 22:07:11.01	137.73	6.17	-45.1	-57.5	3.8	1.49e+00	0	61	104	1402994688	61	15351
2026-01-23 22:07:12.02	137.84	6.11	-45.1	-57.4	3.8	1.49e+00	0	62	104	1402994688	61	15219
2026-01-23 22:07:13.03	137.95	6.06	-45.1	-57.5	3.8	1.49e+00	0	62	104	1402994688	61	15298
2026-01-23 22:07:14.04	138.06	6.00	-45.1	-57.5	3.8	1.49e+00	0	61	104	1402994688	61	15268
2026-01-23 22:07:15.05	138.16	5.94	-45.1	-57.5	3.8	1.49e+00	0	61	104	1402994688	61	15298
2026-01-23 22:07:16.06	138.27	5.89	-45.1	-57.5	3.8	1.49e+00	0	61	104	1402994688	61	15338
2026-01-23 22:07:17.07	138.37	5.83	-45.1	-57.5	3.8	1.49e+00	0	61	104	1402994688	61	15290
2026-01-23 22:07:18.09	138.48	5.78	-45.1	-57.5	3.8	1.49e+00	0	61	104	1402994688	61	15281
2026-01-23 22:07:19.10	138.59	5.72	-45.1	-57.5	3.8	1.49e+00	0	62	104	1402994688	61	15297
2026-01-23 22:07:20.11	138.69	5.67	-45.1	-57.5	3.8	1.49e+00	0	62	104	1402994688	61	15280
2026-01-23 22:07:21.12	138.79	5.61	-45.1	-57.5	3.8	1.49e+00	0	62	104	1402994688	61	15277
2026-01-23 22:07:22.13	138.90	5.55	-45.1	-57.5	3.8	1.49e+00	0	62	104	1402994688	61	15261
2026-01-23 22:07:23.14	139.00	5.50	-45.1	-57.5	3.8	1.49e+00	0	61	104	1402994688	61	15257
2026-01-23 22:07:24.15	139.11	5.44	-45.1	-57.5	3.8	1.49e+00	0	61	104	1402994688	61	15316
2026-01-23 22:07:25.16	139.21	5.39	-45.1	-57.5	3.8	1.49e+00	0	62	104	1402994688	61	15234
2026-01-23 22:07:26.17	139.31	5.33	-45.1	-57.4	3.8	1.49e+00	0	62	104	1402994688	61	15184
2026-01-23 22:07:27.18	139.41	5.28	-45.1	-57.4	3.8	1.49e+00	0	61	104	1402994688	61	15211
2026-01-23 22:07:28.19	139.51	5.22	-45.1	-57.5	3.8	1.49e+00	0	62	104	1402994688	61	15269
2026-01-23 22:07:29.20	139.62	5.17	-45.1	-57.5	3.8	1.49e+00	0	61	104	1402994688	61	15227
2026-01-23 22:07:30.21	139.72	5.11	-45.1	-57.5	3.8	1.49e+00	0	62	104	1402994688	61	15261
2026-01-23 22:07:31.22	139.82	5.06	-45.1	-57.5	3.8	1.49e+00	0	61	104	1402994688	61	15266
2026-01-23 22:07:32.23	139.92	5.00	-45.1	-57.5	3.8	1.49e+00	0	61	104	1402994688	61	15244
2026-01-23 22:07:33.24	140.02	4.95	-45.1	-57.5	3.8	1.49e+00	0	61	104	1402994688	61	15235
2026-01-23 22:07:34.25	140.12	4.89	-45.1	-57.4	3.8	1.49e+00	0	61	104	1402994688	61	15211
2026-01-23 22:07:35.27	140.22	4.84	-45.1	-57.5	3.8	1.49e+00	0	62	104	1402994688	61	15231
2026-01-23 22:07:36.28	140.32	4.78	-45.1	-57.5	3.8	1.49e+00	0	61	104	1402994688	61	15226
2026-01-23 22:07:37.29	140.41	4.73	-45.1	-57.4	3.8	1.49e+00	0	61	104	1402994688	61	15218
2026-01-23 22:07:38.30	140.51	4.67	-45.1	-57.4	3.8	1.49e+00	0	61	104	1402994688	61	15217
2026-01-23 22:07:39.31	140.61	4.62	-45.1	-57.5	3.8	1.49e+00	0	62	104	1402994688	61	15281
2026-01-23 22:07:40.32	140.71	4.56	-45.1	-57.4	3.8	1.49e+00	0	61	104	1402994688	61	15221
2026-01-23 22:07:41.33	140.80	4.51	-45.1	-57.4	3.8	1.49e+00	0	61	104	1402994688	61	15213
2026-01-23 22:07:42.34	140.90	4.45	-45.1	-57.4	3.8	1.49e+00	0	61	104	1402994688	61	15190
2026-01-23 22:07:43.35	141.00	4.40	-45.1	-57.4	3.8	1.49e+00	0	61	104	1402994688	61	15216
2026-01-23 22:07:44.36	141.09	4.34	-45.1	-57.4	3.8	1.49e+00	0	61	104	1402994688	61	15220
2026-01-23 22:07:45.37	141.19	4.29	-45.1	-57.4	3.8	1.49e+00	0	62	104	1402994688	61	15177
2026-01-23 22:07:46.38	141.28	4.23	-45.1	-57.4	3.8	1.49e+00	0	62	104	1402994688	61	15222
2026-01-23 22:07:47.40	141.38	4.18	-45.1	-57.5	3.8	1.49e+00	0	61	104	1402994688	61	15244
2026-01-23 22:07:48.41	141.47	4.13	-45.1	-57.4	3.8	1.49e+00	0	61	104	1402994688	61	15205
2026-01-23 22:07:49.42	141.57	4.07	-45.1	-57.4	3.8	1.49e+00	0	62	104	1402994688	61	15206
2026-01-23 22:07:50.43	141.66	4.02	-45.1	-57.5	3.8	1.49e+00	0	61	104	1402994688	61	15226
2026-01-23 22:07:51.44	141.76	3.96	-45.1	-57.4	3.8	1.49e+00	0	62	104	1402994688	61	15216
2026-01-23 22:07:52.45	141.85	3.91	-45.1	-57.4	3.8	1.49e+00	0	61	104	1402994688	61	15183
2026-01-23 22:07:53.46	141.94	3.85	-45.1	-57.4	3.8	1.49e+00	0	61	104	1402994688	61	15180
2026-01-23 22:07:54.47	142.03	3.80	-45.1	-57.4	3.8	1.49e+00	0	61	104	1402994688	61	15196
