passes_logs/2026/01/23/R2.0S_Moscow/R2.0S_Moscow__20260123_125334_FENGYUN_3D_rec.log

#Pass ID: 20260123_125334_FENGYUN 3D
#Satellite: FENGYUN 3D
#Configuration: FENGYUN 3D
#almurnet v.1.7.20251203
#Start time: 2026-01-23 12:53:35

#Version: 2.2.20231116
#Station: R2.0S_Moscow
#Location: 37.707566 lon 55.798166 lat
#TLE: 1 43010U 17072A   26022.96745493  .00000490  00000+0  25355-3 0  9999
#TLE: 2 43010  98.9955 354.9072 0002484  95.6139 264.5320 14.19700039424383

#Time	Az	El	Level	Level2	SNR	BER	BlckErr	Temp	State	Recorded	gain1	gain2
2026-01-23 12:53:35.94	187.49	2.09	-44.1	-55.8	3.8	8.45e-01	0	53	0	0	60	13413
2026-01-23 12:53:36.95	187.53	2.15	-44.0	-55.9	3.8	8.46e-01	0	53	104	0	60	13434
2026-01-23 12:53:37.96	187.58	2.21	-44.1	-55.9	3.8	8.46e-01	0	53	104	0	60	13441
2026-01-23 12:53:38.97	187.62	2.28	-44.1	-55.8	3.8	8.46e-01	0	53	104	0	60	13369
2026-01-23 12:53:39.98	187.67	2.34	-44.1	-55.8	3.8	8.46e-01	0	53	104	0	60	13414
2026-01-23 12:53:40.99	187.71	2.40	-44.0	-55.9	3.8	8.47e-01	0	53	104	0	60	13449
2026-01-23 12:53:42.00	187.76	2.46	-44.0	-55.8	3.8	8.46e-01	0	53	104	0	60	13388
2026-01-23 12:53:43.01	187.80	2.53	-44.1	-55.9	3.8	8.46e-01	0	53	104	0	60	13421
2026-01-23 12:53:44.02	187.85	2.59	-44.1	-55.9	3.8	8.45e-01	0	53	104	0	60	13486
2026-01-23 12:53:45.03	187.89	2.65	-44.1	-55.9	3.8	8.46e-01	0	53	104	0	60	13483
2026-01-23 12:53:46.04	187.94	2.71	-44.0	-55.8	3.8	8.45e-01	0	53	104	0	60	13367
2026-01-23 12:53:47.05	187.99	2.78	-44.0	-55.9	3.8	8.45e-01	0	54	104	0	60	13418
2026-01-23 12:53:48.06	188.03	2.84	-44.0	-55.8	3.8	8.46e-01	0	53	104	0	60	13401
2026-01-23 12:53:49.07	188.08	2.90	-44.0	-55.9	3.8	8.45e-01	0	54	104	0	60	13417
2026-01-23 12:53:50.08	188.13	2.97	-44.0	-55.8	3.8	8.46e-01	0	54	104	0	60	13360
2026-01-23 12:53:51.09	188.18	3.03	-44.0	-55.9	3.8	8.47e-01	0	54	104	0	60	13428
2026-01-23 12:53:52.10	188.22	3.10	-44.0	-55.8	3.8	8.47e-01	0	54	104	0	60	13393
2026-01-23 12:53:53.11	188.27	3.16	-44.0	-55.9	3.8	8.47e-01	0	54	104	0	60	13432
2026-01-23 12:53:54.12	188.32	3.22	-44.0	-55.9	3.8	8.46e-01	0	54	104	0	60	13434
2026-01-23 12:53:55.13	188.37	3.29	-44.1	-55.7	3.8	8.46e-01	0	54	104	0	59	14025
2026-01-23 12:53:56.14	188.41	3.35	-44.1	-55.7	3.8	8.46e-01	0	54	104	0	59	14009
2026-01-23 12:53:57.15	188.46	3.42	-44.1	-55.7	3.8	8.46e-01	0	54	104	0	59	14006
2026-01-23 12:53:58.16	188.51	3.48	-44.1	-55.7	3.8	8.47e-01	0	54	104	0	59	14045
2026-01-23 12:53:59.17	188.56	3.55	-44.1	-55.8	3.8	8.45e-01	0	54	104	0	59	14049
2026-01-23 12:54:00.18	188.61	3.61	-44.1	-55.7	3.8	8.46e-01	0	54	104	0	59	14012
2026-01-23 12:54:01.19	188.66	3.68	-44.1	-55.7	3.8	8.46e-01	0	54	104	0	59	13967
2026-01-23 12:54:02.20	188.71	3.74	-44.1	-55.7	3.8	8.46e-01	0	54	104	0	59	14019
2026-01-23 12:54:03.21	188.76	3.81	-44.1	-55.7	3.8	8.46e-01	0	54	104	0	59	13981
2026-01-23 12:54:04.22	188.81	3.87	-44.1	-55.7	3.8	8.46e-01	0	55	104	0	59	13963
2026-01-23 12:54:05.23	188.86	3.94	-44.1	-55.7	3.8	8.46e-01	0	55	104	0	59	14012
2026-01-23 12:54:06.24	188.91	4.00	-44.1	-55.7	3.8	8.46e-01	0	55	104	0	59	13930
2026-01-23 12:54:07.25	188.96	4.07	-44.1	-55.7	3.8	8.46e-01	0	55	104	0	59	13994
2026-01-23 12:54:08.27	189.01	4.14	-44.1	-55.7	3.8	8.47e-01	0	55	104	0	59	13898
2026-01-23 12:54:09.28	189.06	4.20	-44.1	-55.7	3.8	8.46e-01	0	55	104	0	59	13929
2026-01-23 12:54:10.29	189.11	4.27	-44.1	-55.6	3.8	8.46e-01	0	55	104	0	59	13878
2026-01-23 12:54:11.30	189.16	4.33	-44.1	-55.6	3.8	8.46e-01	0	55	104	0	59	13832
2026-01-23 12:54:12.31	189.22	4.40	-44.1	-55.6	3.8	8.46e-01	0	55	104	0	59	13853
2026-01-23 12:54:13.32	189.27	4.47	-44.1	-55.6	3.8	8.46e-01	0	55	104	0	59	13816
2026-01-23 12:54:14.33	189.32	4.53	-44.1	-55.6	3.8	8.46e-01	0	55	104	0	59	13757
2026-01-23 12:54:15.34	189.37	4.60	-44.1	-55.5	3.8	8.46e-01	0	55	104	0	59	13711
2026-01-23 12:54:16.35	189.42	4.67	-44.1	-55.5	3.8	8.46e-01	0	55	104	0	59	13630
2026-01-23 12:54:17.36	189.48	4.74	-44.1	-55.5	3.8	8.46e-01	0	55	104	0	59	13594
2026-01-23 12:54:18.37	189.53	4.80	-44.1	-55.5	3.8	8.46e-01	0	55	104	0	59	13607
2026-01-23 12:54:19.38	189.58	4.87	-44.1	-55.4	3.8	8.45e-01	0	56	104	0	59	13565
2026-01-23 12:54:20.39	189.64	4.94	-44.1	-55.3	3.8	8.46e-01	0	56	104	0	59	13356
2026-01-23 12:54:21.40	189.69	5.01	-44.1	-55.2	3.8	8.46e-01	0	56	104	0	59	13207
2026-01-23 12:54:22.41	189.74	5.08	-44.1	-55.1	3.8	8.46e-01	0	56	104	0	59	13079
2026-01-23 12:54:23.42	189.80	5.14	-44.0	-54.9	3.8	8.46e-01	0	56	104	0	59	12762
2026-01-23 12:54:24.43	189.85	5.21	-44.0	-54.8	3.8	8.46e-01	0	55	104	0	59	12582
2026-01-23 12:54:25.44	189.91	5.28	-44.0	-54.6	3.8	8.46e-01	0	56	104	0	59	12281
2026-01-23 12:54:26.45	189.96	5.35	-44.0	-54.2	3.8	8.45e-01	0	56	104	0	59	11763
2026-01-23 12:54:27.46	190.02	5.42	-43.9	-53.8	3.8	8.46e-01	0	56	104	0	59	11226
2026-01-23 12:54:28.47	190.07	5.49	-43.8	-53.2	3.9	8.44e-01	0	56	104	0	59	10491
2026-01-23 12:54:29.48	190.13	5.56	-43.8	-52.7	4.1	8.44e-01	0	56	104	0	59	9898
2026-01-23 12:54:30.49	190.18	5.63	-43.7	-52.4	4.1	8.40e-01	0	56	0	0	59	9530
2026-01-23 12:54:31.50	190.24	5.70	-43.6	-51.9	4.2	8.38e-01	0	56	0	0	59	9028
2026-01-23 12:54:32.51	190.30	5.76	-43.5	-51.1	4.5	8.22e-01	0	56	0	0	59	8236
2026-01-23 12:54:33.52	190.35	5.83	-43.4	-50.6	4.8	8.02e-01	0	56	0	0	58	8195
2026-01-23 12:54:34.53	190.41	5.90	-43.3	-50.1	5.0	7.78e-01	0	56	0	0	58	7805
2026-01-23 12:54:35.54	190.47	5.97	-43.1	-49.6	5.3	7.44e-01	0	56	0	0	58	7295
2026-01-23 12:54:36.55	190.53	6.05	-42.9	-49.0	5.7	6.51e-01	0	57	0	1048576	57	7258
2026-01-23 12:54:37.56	190.58	6.12	-42.8	-48.6	6.0	3.73e-01	0	56	0	6291456	57	6940
2026-01-23 12:54:38.57	190.64	6.19	-42.7	-48.3	6.2	3.41e-01	0	57	0	12582912	57	6705
2026-01-23 12:54:39.58	190.70	6.26	-42.6	-48.0	6.5	2.79e-01	0	57	0	17825792	57	6454
2026-01-23 12:54:40.59	190.76	6.33	-42.6	-48.0	6.5	2.54e-01	0	57	0	24117248	57	6446
2026-01-23 12:54:41.61	190.82	6.40	-42.6	-48.1	6.4	2.75e-01	0	56	0	29360128	57	6517
2026-01-23 12:54:42.62	190.88	6.47	-42.6	-48.0	6.5	2.44e-01	0	57	0	34603008	57	6430
2026-01-23 12:54:43.63	190.94	6.54	-42.6	-48.1	6.4	2.71e-01	0	57	0	40894464	57	6545
2026-01-23 12:54:44.64	191.00	6.61	-42.7	-48.2	6.3	2.87e-01	0	57	0	46137344	57	6630
2026-01-23 12:54:45.65	191.06	6.69	-42.7	-48.4	6.2	3.16e-01	0	57	0	52428800	57	6744
2026-01-23 12:54:46.66	191.12	6.76	-42.8	-48.6	6.0	3.59e-01	0	57	0	57671680	57	6895
2026-01-23 12:54:47.67	191.18	6.83	-42.8	-48.5	6.1	3.48e-01	0	57	0	63963136	57	6873
2026-01-23 12:54:48.68	191.24	6.90	-42.8	-48.5	6.1	3.60e-01	0	57	0	69206016	57	6852
2026-01-23 12:54:49.69	191.30	6.98	-42.6	-47.9	6.5	2.64e-01	0	57	0	75497472	57	6405
2026-01-23 12:54:50.70	191.36	7.05	-42.5	-47.6	6.8	2.04e-01	0	57	0	80740352	56	6505
2026-01-23 12:54:51.71	191.42	7.12	-42.2	-46.9	7.5	1.56e-01	0	57	0	85983232	56	6033
2026-01-23 12:54:52.72	191.48	7.20	-41.8	-46.1	8.1	8.21e-02	0	57	0	92274688	55	5835
2026-01-23 12:54:53.73	191.54	7.27	-41.4	-45.4	8.8	4.85e-02	0	57	0	97517568	54	5679
2026-01-23 12:54:54.74	191.61	7.34	-40.9	-44.5	9.8	1.68e-02	0	57	0	103809024	53	5420
2026-01-23 12:54:55.75	191.67	7.42	-40.6	-44.0	10.3	9.23e-03	0	57	0	109051904	53	5105
2026-01-23 12:54:56.77	191.73	7.49	-40.3	-43.3	11.0	3.18e-03	0	57	0	114294784	52	5020
2026-01-23 12:54:57.78	191.80	7.56	-40.0	-42.9	11.5	1.58e-03	0	57	0	120586240	51	5065
2026-01-23 12:54:58.79	191.86	7.64	-39.8	-42.5	11.9	6.52e-04	0	57	0	125829120	51	4854
2026-01-23 12:54:59.80	191.92	7.71	-39.6	-42.2	12.2	4.34e-04	0	57	0	132120576	51	4698
2026-01-23 12:55:00.81	191.99	7.79	-39.5	-42.0	12.3	2.45e-04	0	57	0	137363456	51	4598
2026-01-23 12:55:01.82	192.05	7.86	-39.4	-41.9	12.5	1.81e-04	0	57	0	142606336	50	4780
2026-01-23 12:55:02.83	192.12	7.94	-39.3	-41.8	12.6	1.44e-04	0	57	0	148897792	50	4725
2026-01-23 12:55:03.84	192.18	8.01	-39.5	-42.1	12.4	2.18e-04	0	57	0	154140672	50	4881
2026-01-23 12:55:04.85	192.25	8.09	-40.0	-42.6	12.0	2.01e-04	0	57	0	160432128	50	5217
2026-01-23 12:55:05.86	192.32	8.16	-40.6	-43.7	10.9	5.62e-04	0	58	0	165675008	51	5529
2026-01-23 12:55:06.87	192.38	8.24	-42.4	-47.8	6.8	1.62e-04	0	58	0	171966464	55	7052
2026-01-23 12:55:07.88	192.45	8.32	-43.7	-52.6	4.1	6.19e-01	0	58	0	174063616	57	10985
2026-01-23 12:55:08.89	192.52	8.39	-41.1	-44.5	10.1	1.52e-02	0	58	0	176160768	52	5784
2026-01-23 12:55:09.90	192.58	8.47	-39.0	-41.3	13.3	2.04e-04	0	58	0	181403648	50	4493
2026-01-23 12:55:10.91	192.65	8.55	-39.0	-41.3	13.3	2.74e-05	0	58	0	187695104	50	4484
2026-01-23 12:55:11.92	192.72	8.62	-39.0	-41.3	13.3	2.97e-05	0	58	0	192937984	50	4493
2026-01-23 12:55:12.93	192.79	8.70	-38.9	-41.1	13.5	2.51e-05	0	58	0	198180864	49	4622
2026-01-23 12:55:13.94	192.86	8.78	-38.8	-41.1	13.5	1.37e-05	0	58	0	204472320	49	4613
2026-01-23 12:55:14.95	192.92	8.85	-38.8	-41.0	13.6	2.05e-05	0	58	0	209715200	49	4588
2026-01-23 12:55:15.96	192.99	8.93	-38.8	-41.0	13.6	1.02e-05	0	58	0	216006656	49	4578
2026-01-23 12:55:16.97	193.06	9.01	-38.8	-41.0	13.6	1.37e-05	0	58	0	221249536	49	4587
2026-01-23 12:55:17.98	193.13	9.09	-38.8	-41.1	13.6	8.00e-06	0	58	0	226492416	49	4602
2026-01-23 12:55:18.99	193.20	9.17	-38.7	-40.9	13.7	1.71e-05	0	58	0	232783872	49	4539
2026-01-23 12:55:20.00	193.27	9.24	-38.7	-40.9	13.8	5.70e-06	0	58	0	238026752	49	4500
2026-01-23 12:55:21.01	193.35	9.32	-38.7	-40.9	13.8	4.50e-06	0	58	0	244318208	49	4500
2026-01-23 12:55:22.02	193.42	9.40	-38.7	-40.9	13.8	4.50e-06	0	58	0	249561088	49	4518
2026-01-23 12:55:23.03	193.49	9.48	-38.7	-40.9	13.8	8.00e-06	0	58	0	255852544	49	4506
2026-01-23 12:55:24.05	193.56	9.56	-38.7	-40.8	13.9	1.37e-05	0	58	0	261095424	49	4483
2026-01-23 12:55:25.06	193.63	9.64	-38.7	-40.9	13.8	1.02e-05	0	58	0	267386880	49	4501
2026-01-23 12:55:26.07	193.71	9.72	-38.7	-40.8	13.9	6.80e-06	0	58	0	272629760	49	4486
2026-01-23 12:55:27.08	193.78	9.80	-38.7	-40.9	13.8	5.70e-06	0	58	0	277872640	49	4510
2026-01-23 12:55:28.09	193.85	9.88	-38.7	-40.9	13.8	4.50e-06	0	58	0	284164096	49	4504
2026-01-23 12:55:29.10	193.93	9.96	-38.7	-40.9	13.9	9.10e-06	0	58	0	289406976	49	4505
2026-01-23 12:55:30.11	194.00	10.04	-38.8	-41.0	13.8	4.50e-06	0	59	0	295698432	49	4551
2026-01-23 12:55:31.12	194.08	10.12	-38.8	-41.0	13.8	1.25e-05	0	58	0	300941312	49	4558
2026-01-23 12:55:32.13	194.15	10.20	-38.8	-41.0	13.7	8.00e-06	0	58	0	306184192	49	4589
2026-01-23 12:55:33.14	194.23	10.29	-38.8	-41.0	13.8	8.00e-06	0	58	0	312475648	49	4578
2026-01-23 12:55:34.15	194.31	10.37	-38.8	-41.0	13.8	5.70e-06	0	59	0	317718528	49	4572
2026-01-23 12:55:35.16	194.38	10.45	-38.8	-41.0	13.8	1.25e-05	0	58	0	324009984	49	4576
2026-01-23 12:55:36.17	194.46	10.53	-38.8	-41.0	13.8	6.80e-06	0	58	0	329252864	49	4558
2026-01-23 12:55:37.18	194.54	10.61	-38.8	-41.0	13.8	1.02e-05	0	59	0	334495744	49	4585
2026-01-23 12:55:38.19	194.61	10.70	-38.9	-41.1	13.7	9.10e-06	0	59	0	340787200	49	4617
2026-01-23 12:55:39.20	194.69	10.78	-38.8	-41.0	13.8	4.50e-06	0	58	0	346030080	49	4579
2026-01-23 12:55:40.21	194.77	10.86	-38.8	-41.0	13.8	6.80e-06	0	58	0	352321536	49	4587
2026-01-23 12:55:41.22	194.85	10.94	-38.8	-41.0	13.8	6.80e-06	0	59	0	357564416	49	4569
2026-01-23 12:55:42.23	194.93	11.03	-38.8	-40.9	13.9	5.70e-06	0	58	0	363855872	49	4538
2026-01-23 12:55:43.24	195.01	11.11	-38.7	-40.8	14.0	5.70e-06	0	59	0	369098752	49	4489
2026-01-23 12:55:44.24	195.09	11.19	-38.7	-40.8	14.0	4.50e-06	0	59	0	375390208	49	4484
2026-01-23 12:55:45.25	195.17	11.28	-38.7	-40.9	14.0	3.40e-06	0	59	0	380633088	49	4506
2026-01-23 12:55:46.26	195.25	11.36	-38.8	-40.9	13.9	5.70e-06	0	59	0	385875968	49	4536
2026-01-23 12:55:47.27	195.33	11.45	-38.9	-41.1	13.8	4.50e-06	0	59	0	392167424	49	4601
2026-01-23 12:55:48.28	195.42	11.53	-38.7	-40.9	14.0	4.50e-06	0	59	0	397410304	49	4506
2026-01-23 12:55:49.30	195.50	11.62	-38.7	-40.9	14.0	5.70e-06	0	59	0	403701760	49	4502
2026-01-23 12:55:50.31	195.58	11.70	-38.7	-40.8	14.1	5.70e-06	0	59	0	408944640	49	4472
2026-01-23 12:55:51.32	195.67	11.79	-38.7	-40.9	14.0	6.80e-06	0	59	0	414187520	49	4502
2026-01-23 12:55:52.33	195.75	11.88	-38.6	-40.8	14.1	0.00e+00	0	59	0	420478976	49	4446
2026-01-23 12:55:53.34	195.83	11.96	-38.6	-40.7	14.1	4.50e-06	0	59	0	425721856	49	4435
2026-01-23 12:55:54.35	195.92	12.05	-38.6	-40.8	14.2	2.20e-06	0	59	0	432013312	49	4443
2026-01-23 12:55:55.36	196.00	12.13	-38.6	-40.7	14.2	1.10e-06	0	59	0	437256192	49	4401
2026-01-23 12:55:56.37	196.09	12.22	-38.6	-40.7	14.3	3.40e-06	0	59	0	442499072	49	4393
2026-01-23 12:55:57.38	196.18	12.31	-38.7	-40.8	14.1	3.40e-06	0	59	0	448790528	49	4464
2026-01-23 12:55:58.39	196.26	12.40	-38.7	-40.8	14.1	5.70e-06	0	59	0	454033408	49	4472
2026-01-23 12:55:59.39	196.35	12.48	-38.5	-40.6	14.3	0.00e+00	0	59	0	460324864	49	4361
2026-01-23 12:56:00.40	196.44	12.57	-38.4	-40.5	14.4	1.10e-06	0	59	0	465567744	48	4565
2026-01-23 12:56:01.41	196.53	12.66	-38.5	-40.6	14.4	1.10e-06	0	59	0	471859200	48	4611
2026-01-23 12:56:02.42	196.62	12.75	-38.5	-40.5	14.4	0.00e+00	0	59	0	477102080	48	4593
2026-01-23 12:56:03.43	196.71	12.84	-38.5	-40.5	14.4	2.20e-06	0	59	0	482344960	48	4585
2026-01-23 12:56:04.44	196.80	12.92	-38.4	-40.4	14.5	3.40e-06	0	59	0	488636416	48	4535
2026-01-23 12:56:05.45	196.89	13.01	-38.4	-40.4	14.6	1.10e-06	0	59	0	493879296	48	4518
2026-01-23 12:56:06.46	196.98	13.10	-38.4	-40.4	14.5	1.10e-06	0	59	0	500170752	48	4541
2026-01-23 12:56:07.47	197.07	13.19	-38.4	-40.5	14.5	0.00e+00	0	59	0	505413632	48	4566
2026-01-23 12:56:08.48	197.16	13.28	-38.4	-40.4	14.5	2.20e-06	0	59	0	510656512	48	4532
2026-01-23 12:56:09.49	197.25	13.37	-38.4	-40.4	14.5	1.10e-06	0	59	0	516947968	48	4525
2026-01-23 12:56:10.50	197.35	13.46	-38.3	-40.3	14.7	0.00e+00	0	59	0	522190848	48	4465
2026-01-23 12:56:11.51	197.44	13.55	-38.3	-40.3	14.7	0.00e+00	0	59	0	528482304	48	4456
2026-01-23 12:56:12.52	197.53	13.65	-38.3	-40.3	14.6	1.10e-06	0	59	0	533725184	48	4475
2026-01-23 12:56:13.53	197.63	13.74	-38.2	-40.2	14.8	2.20e-06	0	59	0	538968064	48	4402
2026-01-23 12:56:14.54	197.72	13.83	-38.2	-40.2	14.8	0.00e+00	0	59	0	545259520	48	4415
2026-01-23 12:56:15.55	197.82	13.92	-38.1	-40.0	14.9	1.10e-06	0	59	0	550502400	48	4340
2026-01-23 12:56:16.57	197.92	14.01	-38.1	-40.0	14.9	0.00e+00	0	59	0	556793856	48	4321
2026-01-23 12:56:17.58	198.02	14.11	-38.1	-40.0	14.9	1.10e-06	0	59	0	562036736	48	4333
2026-01-23 12:56:18.59	198.11	14.20	-38.1	-40.1	14.9	1.10e-06	0	59	0	568328192	48	4344
2026-01-23 12:56:19.60	198.21	14.29	-38.1	-40.0	14.9	0.00e+00	0	59	0	573571072	48	4323
2026-01-23 12:56:20.61	198.31	14.38	-38.0	-39.9	15.0	0.00e+00	0	59	0	579862528	48	4288
2026-01-23 12:56:21.62	198.41	14.48	-37.9	-39.8	15.0	0.00e+00	0	60	0	585105408	47	4486
2026-01-23 12:56:22.63	198.51	14.57	-37.9	-39.8	15.0	1.10e-06	0	59	0	590348288	47	4480
2026-01-23 12:56:23.64	198.61	14.67	-37.9	-39.8	15.0	1.10e-06	0	60	0	596639744	47	4478
2026-01-23 12:56:24.65	198.71	14.76	-37.9	-39.8	15.1	0.00e+00	0	59	0	601882624	47	4467
2026-01-23 12:56:25.66	198.81	14.86	-37.9	-39.8	15.0	0.00e+00	0	60	0	608174080	47	4480
2026-01-23 12:56:26.67	198.92	14.95	-37.9	-39.9	15.0	1.10e-06	0	60	0	613416960	47	4499
2026-01-23 12:56:27.68	199.02	15.05	-37.8	-39.8	15.1	0.00e+00	0	60	0	618659840	47	4444
2026-01-23 12:56:28.69	199.12	15.14	-37.8	-39.7	15.2	0.00e+00	0	59	0	624951296	47	4437
2026-01-23 12:56:29.70	199.23	15.24	-37.7	-39.6	15.3	0.00e+00	0	60	0	630194176	47	4369
2026-01-23 12:56:30.71	199.33	15.33	-37.6	-39.5	15.4	0.00e+00	0	60	0	636485632	47	4304
2026-01-23 12:56:31.71	199.44	15.43	-37.5	-39.4	15.5	0.00e+00	0	60	0	641728512	47	4247
2026-01-23 12:56:32.72	199.55	15.53	-37.6	-39.4	15.5	0.00e+00	0	60	0	646971392	47	4273
2026-01-23 12:56:33.73	199.65	15.62	-37.7	-39.5	15.4	0.00e+00	0	60	0	653262848	47	4331
2026-01-23 12:56:34.74	199.76	15.72	-37.6	-39.4	15.5	0.00e+00	0	60	0	658505728	47	4281
2026-01-23 12:56:35.75	199.87	15.82	-37.6	-39.5	15.4	0.00e+00	0	60	0	664797184	47	4302
2026-01-23 12:56:36.76	199.98	15.92	-37.6	-39.5	15.4	0.00e+00	0	60	0	670040064	47	4298
2026-01-23 12:56:37.77	200.09	16.01	-37.7	-39.5	15.4	0.00e+00	0	60	0	676331520	47	4322
2026-01-23 12:56:38.79	200.20	16.11	-37.6	-39.4	15.5	0.00e+00	0	60	0	681574400	47	4256
2026-01-23 12:56:39.79	200.31	16.21	-37.5	-39.4	15.6	0.00e+00	0	60	0	687865856	47	4244
2026-01-23 12:56:40.81	200.42	16.31	-37.5	-39.3	15.6	0.00e+00	0	60	0	693108736	47	4232
2026-01-23 12:56:41.82	200.54	16.41	-37.5	-39.3	15.6	0.00e+00	0	60	0	698351616	47	4220
2026-01-23 12:56:42.83	200.65	16.51	-37.5	-39.3	15.6	0.00e+00	0	60	0	704643072	47	4235
2026-01-23 12:56:43.84	200.76	16.61	-37.4	-39.2	15.7	0.00e+00	0	60	0	709885952	46	4425
2026-01-23 12:56:44.85	200.88	16.71	-37.4	-39.2	15.7	0.00e+00	0	60	0	716177408	46	4425
2026-01-23 12:56:45.86	200.99	16.81	-37.4	-39.2	15.8	0.00e+00	0	60	0	721420288	46	4399
2026-01-23 12:56:46.87	201.11	16.91	-37.4	-39.2	15.7	0.00e+00	0	60	0	726663168	46	4440
2026-01-23 12:56:47.88	201.23	17.01	-37.4	-39.1	15.8	0.00e+00	0	60	0	732954624	46	4383
2026-01-23 12:56:48.89	201.35	17.12	-37.3	-39.1	15.8	0.00e+00	0	60	0	738197504	46	4370
2026-01-23 12:56:49.90	201.46	17.22	-37.4	-39.1	15.8	0.00e+00	0	60	0	744488960	46	4387
2026-01-23 12:56:50.91	201.58	17.32	-37.3	-39.0	15.9	0.00e+00	0	60	0	749731840	46	4335
2026-01-23 12:56:51.92	201.70	17.42	-37.1	-38.8	16.1	0.00e+00	0	60	0	754974720	46	4208
2026-01-23 12:56:52.93	201.83	17.52	-37.0	-38.7	16.2	0.00e+00	0	60	0	761266176	46	4192
2026-01-23 12:56:53.94	201.95	17.63	-37.0	-38.7	16.2	0.00e+00	0	60	0	766509056	46	4182
2026-01-23 12:56:54.95	202.07	17.73	-37.0	-38.7	16.3	0.00e+00	0	60	0	772800512	46	4153
2026-01-23 12:56:55.96	202.19	17.83	-36.9	-38.6	16.3	0.00e+00	0	60	0	778043392	45	4365
2026-01-23 12:56:56.97	202.32	17.94	-36.9	-38.6	16.3	0.00e+00	0	60	0	784334848	45	4369
2026-01-23 12:56:57.98	202.44	18.04	-37.0	-38.7	16.3	0.00e+00	0	60	0	789577728	45	4395
2026-01-23 12:56:58.99	202.57	18.15	-37.1	-38.8	16.2	0.00e+00	0	60	0	795869184	45	4444
2026-01-23 12:57:00.00	202.70	18.25	-37.0	-38.7	16.3	0.00e+00	0	60	0	801112064	45	4392
2026-01-23 12:57:01.01	202.82	18.36	-36.9	-38.5	16.4	0.00e+00	0	60	0	806354944	45	4336
2026-01-23 12:57:02.02	202.95	18.46	-36.8	-38.5	16.5	0.00e+00	0	60	0	812646400	45	4307
2026-01-23 12:57:03.03	203.08	18.57	-36.9	-38.6	16.4	0.00e+00	0	60	0	817889280	45	4351
2026-01-23 12:57:04.04	203.21	18.68	-37.0	-38.7	16.3	0.00e+00	0	60	0	824180736	45	4392
2026-01-23 12:57:05.05	203.34	18.78	-37.1	-38.8	16.2	0.00e+00	0	60	0	829423616	45	4450
2026-01-23 12:57:06.06	203.48	18.89	-37.2	-38.9	16.1	0.00e+00	0	60	0	834666496	45	4525
2026-01-23 12:57:07.07	203.61	19.00	-37.2	-38.9	16.1	0.00e+00	0	60	0	840957952	45	4526
2026-01-23 12:57:08.08	203.74	19.10	-37.2	-38.9	16.1	0.00e+00	0	60	0	846200832	45	4521
2026-01-23 12:57:09.09	203.88	19.21	-37.1	-38.9	16.1	0.00e+00	0	60	0	852492288	45	4509
2026-01-23 12:57:10.10	204.01	19.32	-37.1	-38.9	16.1	0.00e+00	0	60	0	857735168	45	4518
2026-01-23 12:57:11.11	204.15	19.43	-37.0	-38.8	16.2	0.00e+00	0	60	0	862978048	45	4444
2026-01-23 12:57:12.12	204.29	19.54	-36.9	-38.6	16.4	0.00e+00	0	60	0	869269504	45	4354
2026-01-23 12:57:13.13	204.43	19.65	-36.8	-38.5	16.5	0.00e+00	0	60	0	874512384	45	4304
2026-01-23 12:57:14.14	204.57	19.76	-36.8	-38.4	16.5	0.00e+00	0	60	0	880803840	45	4281
2026-01-23 12:57:15.16	204.71	19.87	-36.8	-38.5	16.5	0.00e+00	0	60	0	886046720	45	4307
2026-01-23 12:57:16.17	204.85	19.98	-36.7	-38.3	16.7	0.00e+00	0	60	0	892338176	45	4222
2026-01-23 12:57:17.17	204.99	20.09	-36.7	-38.3	16.7	0.00e+00	0	60	0	897581056	45	4214
2026-01-23 12:57:18.18	205.13	20.20	-36.7	-38.3	16.6	0.00e+00	0	60	0	902823936	45	4238
2026-01-23 12:57:19.19	205.28	20.31	-36.5	-38.1	16.9	0.00e+00	0	60	0	909115392	45	4133
2026-01-23 12:57:20.20	205.42	20.42	-36.5	-38.1	16.9	0.00e+00	0	60	0	914358272	45	4123
2026-01-23 12:57:21.21	205.57	20.53	-36.5	-38.1	16.9	0.00e+00	0	60	0	920649728	45	4124
2026-01-23 12:57:22.22	205.72	20.64	-36.5	-38.1	16.9	0.00e+00	0	60	0	925892608	44	4348
2026-01-23 12:57:23.23	205.87	20.76	-36.4	-38.0	17.0	0.00e+00	0	60	0	931135488	44	4317
2026-01-23 12:57:24.24	206.02	20.87	-36.5	-38.1	16.9	0.00e+00	0	60	0	937426944	44	4372
2026-01-23 12:57:25.25	206.17	20.98	-36.6	-38.2	16.8	0.00e+00	0	60	0	942669824	44	4423
2026-01-23 12:57:26.26	206.32	21.09	-36.7	-38.4	16.7	0.00e+00	0	60	0	948961280	44	4497
2026-01-23 12:57:27.26	206.47	21.21	-36.8	-38.4	16.6	0.00e+00	0	60	0	954204160	44	4543
2026-01-23 12:57:28.27	206.62	21.32	-36.8	-38.5	16.5	0.00e+00	0	61	0	959447040	44	4583
2026-01-23 12:57:29.28	206.78	21.44	-36.8	-38.5	16.6	0.00e+00	0	61	0	965738496	44	4556
2026-01-23 12:57:30.30	206.94	21.55	-36.8	-38.5	16.6	0.00e+00	0	60	0	970981376	44	4562
2026-01-23 12:57:31.31	207.10	21.67	-36.8	-38.5	16.5	0.00e+00	0	60	0	977272832	44	4570
2026-01-23 12:57:32.32	207.25	21.78	-36.8	-38.5	16.5	0.00e+00	0	60	0	982515712	44	4575
2026-01-23 12:57:33.33	207.41	21.90	-36.9	-38.5	16.5	0.00e+00	0	60	0	988807168	44	4596
2026-01-23 12:57:34.34	207.57	22.01	-36.8	-38.4	16.6	0.00e+00	0	60	0	994050048	44	4531
2026-01-23 12:57:35.35	207.74	22.13	-36.7	-38.3	16.8	0.00e+00	0	60	0	1000341504	44	4458
2026-01-23 12:57:36.36	207.90	22.24	-36.4	-38.0	17.0	1.10e-06	0	60	0	1005584384	44	4334
2026-01-23 12:57:37.37	208.06	22.36	-36.4	-38.0	17.0	0.00e+00	0	60	0	1010827264	44	4308
2026-01-23 12:57:38.38	208.23	22.48	-36.4	-38.0	17.1	0.00e+00	0	60	0	1017118720	44	4302
2026-01-23 12:57:39.39	208.40	22.59	-36.4	-38.0	17.0	0.00e+00	0	60	0	1022361600	44	4320
2026-01-23 12:57:40.40	208.56	22.71	-36.4	-38.0	17.1	0.00e+00	0	61	0	1028653056	44	4314
2026-01-23 12:57:41.41	208.73	22.83	-36.2	-37.8	17.2	0.00e+00	0	61	0	1033895936	44	4200
2026-01-23 12:57:42.41	208.90	22.95	-36.2	-37.7	17.3	0.00e+00	0	61	0	1039138816	44	4174
2026-01-23 12:57:43.42	209.08	23.07	-36.2	-37.7	17.3	0.00e+00	0	61	0	1045430272	44	4187
2026-01-23 12:57:44.43	209.25	23.18	-36.2	-37.7	17.3	0.00e+00	0	60	0	1050673152	44	4162
2026-01-23 12:57:45.44	209.42	23.30	-36.2	-37.7	17.3	0.00e+00	0	60	0	1056964608	44	4169
2026-01-23 12:57:46.45	209.60	23.42	-36.2	-37.7	17.3	0.00e+00	0	61	0	1062207488	44	4178
2026-01-23 12:57:47.46	209.78	23.54	-36.1	-37.7	17.4	0.00e+00	0	60	0	1067450368	44	4154
2026-01-23 12:57:48.47	209.95	23.66	-36.1	-37.6	17.4	0.00e+00	0	60	0	1073741824	44	4115
2026-01-23 12:57:49.48	210.13	23.78	-36.1	-37.6	17.4	0.00e+00	0	61	0	1078984704	44	4138
2026-01-23 12:57:50.49	210.31	23.90	-36.1	-37.7	17.4	0.00e+00	0	61	0	1085276160	44	4149
2026-01-23 12:57:51.50	210.50	24.02	-36.2	-37.7	17.3	0.00e+00	0	61	0	1090519040	44	4182
2026-01-23 12:57:52.51	210.68	24.14	-36.4	-37.9	17.1	0.00e+00	0	61	0	1096810496	44	4276
2026-01-23 12:57:53.52	210.87	24.26	-36.3	-37.9	17.2	0.00e+00	0	61	0	1102053376	44	4263
2026-01-23 12:57:54.53	211.05	24.39	-36.3	-37.9	17.2	0.00e+00	0	60	0	1107296256	44	4243
2026-01-23 12:57:55.54	211.24	24.51	-36.2	-37.7	17.3	0.00e+00	0	61	0	1113587712	44	4189
2026-01-23 12:57:56.56	211.43	24.63	-36.1	-37.6	17.4	0.00e+00	0	60	0	1118830592	44	4134
2026-01-23 12:57:57.57	211.62	24.75	-36.1	-37.6	17.4	0.00e+00	0	61	0	1125122048	44	4131
2026-01-23 12:57:58.57	211.81	24.87	-36.1	-37.6	17.5	0.00e+00	0	61	0	1130364928	44	4130
2026-01-23 12:57:59.58	212.01	25.00	-36.1	-37.6	17.5	0.00e+00	0	60	0	1136656384	44	4122
2026-01-23 12:58:00.59	212.20	25.12	-36.1	-37.6	17.4	0.00e+00	0	61	0	1141899264	44	4138
2026-01-23 12:58:01.60	212.40	25.24	-36.0	-37.6	17.5	0.00e+00	0	61	0	1147142144	44	4102
2026-01-23 12:58:02.61	212.60	25.36	-36.0	-37.5	17.6	0.00e+00	0	61	0	1153433600	44	4060
2026-01-23 12:58:03.62	212.80	25.49	-35.8	-37.3	17.6	0.00e+00	0	61	0	1158676480	43	4237
2026-01-23 12:58:04.63	213.00	25.61	-35.8	-37.3	17.6	0.00e+00	0	61	0	1164967936	43	4218
2026-01-23 12:58:05.64	213.20	25.74	-35.9	-37.4	17.5	0.00e+00	0	61	0	1170210816	43	4254
2026-01-23 12:58:06.65	213.40	25.86	-35.9	-37.5	17.5	0.00e+00	0	61	0	1175453696	43	4295
2026-01-23 12:58:07.66	213.61	25.98	-35.9	-37.4	17.5	0.00e+00	0	61	0	1181745152	43	4273
2026-01-23 12:58:08.67	213.82	26.11	-35.9	-37.5	17.4	0.00e+00	0	60	0	1186988032	43	4294
2026-01-23 12:58:09.68	214.03	26.23	-35.8	-37.3	17.5	0.00e+00	0	61	0	1193279488	43	4237
2026-01-23 12:58:10.69	214.24	26.36	-35.8	-37.2	17.6	0.00e+00	0	61	0	1198522368	43	4188
2026-01-23 12:58:11.70	214.45	26.48	-35.7	-37.2	17.7	0.00e+00	0	61	0	1204813824	43	4150
2026-01-23 12:58:12.72	214.67	26.61	-35.7	-37.2	17.7	0.00e+00	0	61	0	1210056704	43	4146
2026-01-23 12:58:13.72	214.88	26.73	-35.6	-37.1	17.8	0.00e+00	0	61	0	1215299584	43	4100
2026-01-23 12:58:14.73	215.10	26.86	-35.5	-37.0	17.9	0.00e+00	0	61	0	1221591040	43	4071
2026-01-23 12:58:15.75	215.32	26.99	-35.5	-37.0	17.9	0.00e+00	0	61	0	1226833920	43	4071
2026-01-23 12:58:16.75	215.54	27.11	-35.6	-37.0	17.9	0.00e+00	0	61	0	1233125376	43	4094
2026-01-23 12:58:17.76	215.76	27.24	-35.5	-37.0	17.9	0.00e+00	0	61	0	1238368256	43	4060
2026-01-23 12:58:18.78	215.99	27.36	-35.6	-37.1	17.8	0.00e+00	0	61	0	1243611136	43	4099
2026-01-23 12:58:19.79	216.21	27.49	-35.6	-37.0	17.9	0.00e+00	0	61	0	1249902592	43	4093
2026-01-23 12:58:20.79	216.44	27.61	-35.6	-37.0	17.9	0.00e+00	0	61	0	1255145472	42	4338
2026-01-23 12:58:21.80	216.67	27.74	-35.6	-37.1	17.8	0.00e+00	0	61	0	1261436928	42	4351
2026-01-23 12:58:22.81	216.90	27.87	-35.6	-37.1	17.8	0.00e+00	0	61	0	1266679808	42	4357
2026-01-23 12:58:23.82	217.13	27.99	-35.6	-37.1	17.8	0.00e+00	0	61	0	1271922688	42	4355
2026-01-23 12:58:24.83	217.36	28.12	-35.6	-37.1	17.8	0.00e+00	0	61	0	1278214144	42	4371
2026-01-23 12:58:25.84	217.60	28.25	-35.6	-37.0	17.9	0.00e+00	0	61	0	1283457024	42	4331
2026-01-23 12:58:26.85	217.84	28.37	-35.5	-36.9	18.0	0.00e+00	0	61	0	1289748480	42	4272
2026-01-23 12:58:27.86	218.08	28.50	-35.4	-36.9	18.0	0.00e+00	0	61	0	1294991360	42	4255
2026-01-23 12:58:28.87	218.32	28.63	-35.4	-36.9	18.0	0.00e+00	0	61	0	1301282816	42	4254
2026-01-23 12:58:29.88	218.57	28.75	-35.5	-36.9	18.0	0.00e+00	0	61	0	1306525696	42	4288
2026-01-23 12:58:30.89	218.81	28.88	-35.6	-37.0	17.9	0.00e+00	0	61	0	1312817152	42	4325
2026-01-23 12:58:31.90	219.06	29.01	-35.4	-36.9	18.1	0.00e+00	0	61	0	1318060032	42	4244
2026-01-23 12:58:32.91	219.31	29.13	-35.4	-36.9	18.1	0.00e+00	0	61	0	1323302912	42	4250
2026-01-23 12:58:33.92	219.56	29.26	-35.4	-36.8	18.1	0.00e+00	0	61	0	1329594368	42	4232
2026-01-23 12:58:34.93	219.82	29.39	-35.4	-36.9	18.0	0.00e+00	0	61	0	1334837248	42	4263
2026-01-23 12:58:35.94	220.07	29.51	-35.5	-36.9	18.0	0.00e+00	0	61	0	1341128704	42	4290
2026-01-23 12:58:36.95	220.33	29.64	-35.5	-36.9	18.0	0.00e+00	0	61	0	1346371584	42	4262
2026-01-23 12:58:37.96	220.59	29.77	-35.5	-36.9	18.0	0.00e+00	0	61	0	1351614464	42	4277
2026-01-23 12:58:38.96	220.85	29.89	-35.4	-36.8	18.1	0.00e+00	0	61	0	1357905920	42	4228
2026-01-23 12:58:39.97	221.11	30.02	-35.4	-36.8	18.1	0.00e+00	0	61	0	1363148800	42	4239
2026-01-23 12:58:40.98	221.38	30.15	-35.4	-36.8	18.1	0.00e+00	0	61	0	1368391680	42	4235
2026-01-23 12:58:41.99	221.64	30.27	-35.4	-36.8	18.1	0.00e+00	0	61	0	1374683136	42	4235
2026-01-23 12:58:43.00	221.91	30.40	-35.4	-36.8	18.1	0.00e+00	0	61	0	1379926016	42	4207
2026-01-23 12:58:44.01	222.19	30.52	-35.3	-36.7	18.2	0.00e+00	0	61	0	1386217472	42	4187
2026-01-23 12:58:45.02	222.46	30.65	-35.3	-36.7	18.2	0.00e+00	0	61	0	1391460352	42	4167
2026-01-23 12:58:46.03	222.74	30.78	-35.3	-36.8	18.1	0.00e+00	0	61	0	1397751808	42	4198
2026-01-23 12:58:47.04	223.01	30.90	-35.3	-36.8	18.2	0.00e+00	0	61	0	1402994688	42	4198
2026-01-23 12:58:48.05	223.29	31.03	-35.4	-36.9	18.1	0.00e+00	0	61	0	1409286144	42	4249
2026-01-23 12:58:49.05	223.57	31.15	-35.5	-36.9	18.0	0.00e+00	0	61	0	1414529024	42	4275
2026-01-23 12:58:50.06	223.86	31.28	-35.4	-36.8	18.1	0.00e+00	0	61	0	1419771904	42	4213
2026-01-23 12:58:51.07	224.14	31.40	-35.3	-36.7	18.3	0.00e+00	0	61	0	1426063360	42	4159
2026-01-23 12:58:52.08	224.43	31.52	-35.1	-36.5	18.4	0.00e+00	0	61	0	1431306240	42	4083
2026-01-23 12:58:53.09	224.72	31.65	-35.1	-36.5	18.4	0.00e+00	0	61	0	1437597696	42	4085
2026-01-23 12:58:54.10	225.02	31.77	-35.1	-36.5	18.4	0.00e+00	0	61	0	1442840576	42	4083
2026-01-23 12:58:55.12	225.32	31.90	-35.2	-36.6	18.3	0.00e+00	0	61	0	1448083456	42	4135
2026-01-23 12:58:56.13	225.61	32.02	-35.3	-36.8	18.1	0.00e+00	0	61	0	1454374912	42	4201
2026-01-23 12:58:57.14	225.91	32.14	-35.3	-36.7	18.2	0.00e+00	0	61	0	1459617792	42	4181
2026-01-23 12:58:58.15	226.22	32.27	-35.3	-36.7	18.2	0.00e+00	0	61	0	1465909248	42	4155
2026-01-23 12:58:59.16	226.52	32.39	-35.3	-36.7	18.2	0.00e+00	0	61	0	1471152128	42	4190
2026-01-23 12:59:00.17	226.83	32.51	-35.1	-36.5	18.4	0.00e+00	0	61	0	1476395008	42	4092
2026-01-23 12:59:01.18	227.13	32.63	-35.1	-36.5	18.4	0.00e+00	0	61	0	1482686464	42	4092
2026-01-23 12:59:02.19	227.45	32.75	-35.1	-36.5	18.4	0.00e+00	0	61	0	1487929344	42	4063
2026-01-23 12:59:03.20	227.76	32.87	-35.2	-36.6	18.3	0.00e+00	0	61	0	1494220800	42	4105
2026-01-23 12:59:04.20	228.07	32.99	-35.3	-36.7	18.2	0.00e+00	0	61	0	1499463680	42	4168
2026-01-23 12:59:05.21	228.39	33.11	-35.3	-36.8	18.1	0.00e+00	0	61	0	1505755136	42	4200
2026-01-23 12:59:06.22	228.71	33.23	-35.4	-36.8	18.0	0.00e+00	0	61	0	1510998016	42	4239
2026-01-23 12:59:07.23	229.03	33.35	-35.4	-36.8	18.0	0.00e+00	0	61	0	1516240896	42	4240
2026-01-23 12:59:08.24	229.36	33.47	-35.4	-36.8	18.0	0.00e+00	0	61	0	1522532352	42	4240
2026-01-23 12:59:09.25	229.68	33.59	-35.3	-36.7	18.2	0.00e+00	0	61	0	1527775232	42	4178
2026-01-23 12:59:10.26	230.01	33.70	-35.3	-36.7	18.2	0.00e+00	0	61	0	1534066688	42	4175
2026-01-23 12:59:11.27	230.35	33.82	-35.3	-36.8	18.1	0.00e+00	0	61	0	1539309568	42	4203
2026-01-23 12:59:12.28	230.68	33.93	-35.3	-36.8	18.1	0.00e+00	0	61	0	1544552448	42	4196
2026-01-23 12:59:13.29	231.02	34.05	-35.2	-36.6	18.3	0.00e+00	0	61	0	1550843904	42	4112
2026-01-23 12:59:14.30	231.36	34.16	-35.2	-36.7	18.2	0.00e+00	0	61	0	1556086784	42	4154
2026-01-23 12:59:15.31	231.70	34.28	-35.3	-36.7	18.2	0.00e+00	0	61	0	1562378240	42	4166
2026-01-23 12:59:16.32	232.04	34.39	-35.3	-36.7	18.2	0.00e+00	0	61	0	1567621120	42	4174
2026-01-23 12:59:17.32	232.38	34.50	-35.1	-36.5	18.4	0.00e+00	0	61	0	1572864000	42	4092
2026-01-23 12:59:18.34	232.73	34.61	-35.1	-36.5	18.4	0.00e+00	0	61	0	1579155456	42	4093
2026-01-23 12:59:19.34	233.08	34.72	-35.1	-36.4	18.4	0.00e+00	0	61	0	1584398336	42	4047
2026-01-23 12:59:20.35	233.43	34.83	-35.0	-36.4	18.5	0.00e+00	0	61	0	1590689792	42	4024
2026-01-23 12:59:21.36	233.79	34.94	-35.1	-36.4	18.5	0.00e+00	0	61	0	1595932672	42	4046
2026-01-23 12:59:22.37	234.15	35.05	-35.1	-36.4	18.5	0.00e+00	0	61	0	1602224128	42	4040
2026-01-23 12:59:23.38	234.51	35.16	-35.2	-36.6	18.3	0.00e+00	0	61	0	1607467008	42	4115
2026-01-23 12:59:24.39	234.87	35.27	-35.2	-36.7	18.2	0.00e+00	0	61	0	1613758464	42	4153
2026-01-23 12:59:25.41	235.24	35.37	-35.2	-36.6	18.2	0.00e+00	0	61	0	1619001344	42	4136
2026-01-23 12:59:26.42	235.60	35.48	-35.1	-36.6	18.3	0.00e+00	0	61	0	1624244224	42	4109
2026-01-23 12:59:27.43	235.97	35.58	-35.2	-36.6	18.3	0.00e+00	0	61	0	1630535680	42	4130
2026-01-23 12:59:28.44	236.35	35.68	-35.2	-36.6	18.2	0.00e+00	0	61	0	1635778560	42	4124
2026-01-23 12:59:29.44	236.72	35.78	-35.2	-36.6	18.3	0.00e+00	0	61	0	1642070016	42	4105
2026-01-23 12:59:30.45	237.09	35.88	-35.1	-36.5	18.3	0.00e+00	0	61	0	1647312896	42	4083
2026-01-23 12:59:31.46	237.47	35.98	-35.1	-36.6	18.3	0.00e+00	0	61	0	1652555776	42	4112
2026-01-23 12:59:32.47	237.85	36.08	-35.2	-36.6	18.2	0.00e+00	0	61	0	1658847232	42	4133
2026-01-23 12:59:33.48	238.23	36.18	-35.1	-36.6	18.3	0.00e+00	0	61	0	1664090112	42	4101
2026-01-23 12:59:34.50	238.62	36.28	-35.1	-36.5	18.4	0.00e+00	0	61	0	1670381568	42	4078
2026-01-23 12:59:35.51	239.01	36.37	-35.1	-36.5	18.4	0.00e+00	0	61	0	1675624448	42	4068
2026-01-23 12:59:36.52	239.40	36.47	-35.1	-36.5	18.4	0.00e+00	0	61	0	1680867328	42	4086
2026-01-23 12:59:37.53	239.79	36.56	-35.1	-36.5	18.4	0.00e+00	0	61	0	1687158784	42	4059
2026-01-23 12:59:38.54	240.19	36.65	-35.0	-36.3	18.5	0.00e+00	0	61	0	1692401664	41	4237
2026-01-23 12:59:39.55	240.58	36.74	-35.0	-36.4	18.4	0.00e+00	0	61	0	1698693120	41	4272
2026-01-23 12:59:40.56	240.98	36.83	-35.0	-36.4	18.5	0.00e+00	0	61	0	1703936000	41	4267
2026-01-23 12:59:41.57	241.38	36.92	-34.9	-36.3	18.5	0.00e+00	0	61	0	1710227456	41	4231
2026-01-23 12:59:42.58	241.78	37.01	-35.0	-36.3	18.5	0.00e+00	0	61	0	1715470336	41	4242
2026-01-23 12:59:43.59	242.19	37.09	-34.9	-36.3	18.6	0.00e+00	0	61	0	1720713216	41	4216
2026-01-23 12:59:44.60	242.59	37.17	-35.0	-36.3	18.5	0.00e+00	0	61	0	1727004672	41	4238
2026-01-23 12:59:45.61	243.00	37.26	-34.9	-36.3	18.6	0.00e+00	0	61	0	1732247552	41	4204
2026-01-23 12:59:46.62	243.41	37.34	-35.0	-36.3	18.5	0.00e+00	0	61	0	1738539008	41	4241
2026-01-23 12:59:47.63	243.83	37.42	-34.9	-36.2	18.6	0.00e+00	0	61	0	1743781888	41	4180
2026-01-23 12:59:48.64	244.24	37.50	-34.8	-36.2	18.7	0.00e+00	0	61	0	1750073344	41	4157
2026-01-23 12:59:49.65	244.66	37.57	-34.7	-36.1	18.8	0.00e+00	0	61	0	1755316224	41	4107
2026-01-23 12:59:50.66	245.08	37.65	-34.9	-36.2	18.7	0.00e+00	0	61	0	1760559104	41	4168
2026-01-23 12:59:51.67	245.50	37.72	-35.1	-36.5	18.4	0.00e+00	0	61	0	1766850560	41	4295
2026-01-23 12:59:52.67	245.92	37.79	-35.1	-36.5	18.3	0.00e+00	0	62	0	1772093440	41	4317
2026-01-23 12:59:53.68	246.34	37.86	-34.9	-36.3	18.6	0.00e+00	0	61	0	1778384896	41	4220
2026-01-23 12:59:54.69	246.77	37.93	-34.8	-36.2	18.7	0.00e+00	0	61	0	1783627776	41	4159
2026-01-23 12:59:55.71	247.20	38.00	-34.8	-36.1	18.8	0.00e+00	0	62	0	1788870656	41	4123
2026-01-23 12:59:56.72	247.63	38.06	-34.8	-36.2	18.7	0.00e+00	0	61	0	1795162112	41	4152
2026-01-23 12:59:57.73	248.06	38.13	-34.8	-36.2	18.7	0.00e+00	0	61	0	1800404992	41	4158
2026-01-23 12:59:58.74	248.49	38.19	-34.8	-36.1	18.7	0.00e+00	0	61	0	1806696448	41	4139
2026-01-23 12:59:59.75	248.92	38.25	-34.8	-36.2	18.7	0.00e+00	0	61	0	1811939328	41	4146
2026-01-23 13:00:00.76	249.36	38.31	-34.8	-36.1	18.7	0.00e+00	0	61	0	1818230784	41	4127
2026-01-23 13:00:01.77	249.80	38.37	-34.8	-36.2	18.7	0.00e+00	0	61	0	1823473664	41	4152
2026-01-23 13:00:02.78	250.24	38.42	-34.9	-36.3	18.6	0.00e+00	0	61	0	1828716544	41	4214
2026-01-23 13:00:03.79	250.68	38.48	-34.9	-36.3	18.6	0.00e+00	0	61	0	1835008000	41	4211
2026-01-23 13:00:04.81	251.12	38.53	-34.9	-36.3	18.6	0.00e+00	0	61	0	1840250880	41	4224
2026-01-23 13:00:05.82	251.57	38.58	-35.0	-36.4	18.5	0.00e+00	0	61	0	1846542336	41	4257
2026-01-23 13:00:06.82	252.01	38.63	-34.9	-36.3	18.6	0.00e+00	0	61	0	1851785216	41	4209
2026-01-23 13:00:07.83	252.45	38.67	-34.9	-36.2	18.6	0.00e+00	0	61	0	1858076672	41	4191
2026-01-23 13:00:08.84	252.90	38.72	-35.0	-36.4	18.5	0.00e+00	0	61	0	1863319552	41	4246
2026-01-23 13:00:09.85	253.35	38.76	-35.0	-36.4	18.4	0.00e+00	0	61	0	1868562432	41	4280
2026-01-23 13:00:10.86	253.80	38.80	-34.9	-36.3	18.6	0.00e+00	0	61	0	1874853888	41	4208
2026-01-23 13:00:11.87	254.25	38.84	-34.9	-36.3	18.6	0.00e+00	0	61	0	1880096768	41	4208
2026-01-23 13:00:12.88	254.70	38.88	-34.7	-36.1	18.8	0.00e+00	0	61	0	1885339648	41	4106
2026-01-23 13:00:13.89	255.15	38.91	-34.6	-36.0	18.9	0.00e+00	0	61	0	1891631104	41	4067
2026-01-23 13:00:14.91	255.61	38.94	-34.7	-36.0	18.8	0.00e+00	0	61	0	1896873984	41	4097
2026-01-23 13:00:15.92	256.06	38.98	-34.7	-36.1	18.8	0.00e+00	0	61	0	1903165440	41	4111
2026-01-23 13:00:16.93	256.52	39.00	-34.7	-36.0	18.8	0.00e+00	0	61	0	1908408320	41	4074
2026-01-23 13:00:17.94	256.97	39.03	-34.8	-36.1	18.7	0.00e+00	0	61	0	1914699776	41	4125
2026-01-23 13:00:18.95	257.43	39.06	-34.9	-36.3	18.6	0.00e+00	0	61	0	1919942656	41	4208
2026-01-23 13:00:19.96	257.89	39.08	-35.1	-36.6	18.3	0.00e+00	0	61	0	1925185536	41	4346
2026-01-23 13:00:20.97	258.34	39.10	-35.1	-36.6	18.3	0.00e+00	0	61	0	1931476992	41	4345
2026-01-23 13:00:21.98	258.80	39.12	-35.0	-36.4	18.4	0.00e+00	0	61	0	1936719872	41	4271
2026-01-23 13:00:22.98	259.26	39.14	-35.0	-36.3	18.5	0.00e+00	0	61	0	1943011328	41	4238
2026-01-23 13:00:23.99	259.71	39.15	-34.9	-36.2	18.6	0.00e+00	0	61	0	1948254208	41	4179
2026-01-23 13:00:25.00	260.17	39.17	-34.9	-36.3	18.6	0.00e+00	0	61	0	1954545664	41	4201
2026-01-23 13:00:26.01	260.63	39.18	-34.8	-36.2	18.7	0.00e+00	0	61	0	1959788544	41	4151
2026-01-23 13:00:27.02	261.09	39.19	-34.9	-36.2	18.6	0.00e+00	0	61	0	1965031424	41	4184
2026-01-23 13:00:28.03	261.55	39.19	-34.9	-36.3	18.5	0.00e+00	0	61	0	1971322880	41	4231
2026-01-23 13:00:29.04	262.01	39.20	-34.9	-36.3	18.5	0.00e+00	0	61	0	1976565760	41	4215
2026-01-23 13:00:30.05	262.48	39.20	-35.0	-36.4	18.5	0.00e+00	0	62	0	1982857216	41	4256
2026-01-23 13:00:31.06	262.94	39.20	-34.8	-36.2	18.6	0.00e+00	0	61	0	1988100096	41	4156
2026-01-23 13:00:32.07	263.40	39.20	-34.8	-36.2	18.7	0.00e+00	0	61	0	1993342976	41	4155
2026-01-23 13:00:33.08	263.86	39.20	-34.9	-36.3	18.6	0.00e+00	0	61	0	1999634432	41	4209
2026-01-23 13:00:34.09	264.32	39.19	-35.0	-36.3	18.5	0.00e+00	0	61	0	2004877312	41	4241
2026-01-23 13:00:35.10	264.78	39.18	-34.9	-36.3	18.6	0.00e+00	0	61	0	2011168768	41	4210
2026-01-23 13:00:36.11	265.24	39.18	-34.8	-36.2	18.7	0.00e+00	0	62	0	2016411648	41	4152
2026-01-23 13:00:37.12	265.70	39.16	-34.9	-36.2	18.6	0.00e+00	0	61	0	2021654528	41	4192
2026-01-23 13:00:38.13	266.16	39.15	-34.9	-36.3	18.6	0.00e+00	0	61	0	2027945984	41	4197
2026-01-23 13:00:39.14	266.62	39.14	-34.7	-36.0	18.8	0.00e+00	0	61	0	2033188864	41	4088
2026-01-23 13:00:40.15	267.07	39.12	-34.9	-36.1	19.1	0.00e+00	0	61	0	2039480320	41	4136
2026-01-23 13:00:41.16	267.53	39.10	-34.9	-36.2	19.0	0.00e+00	0	61	0	2044723200	41	4163
2026-01-23 13:00:42.17	267.99	39.08	-35.0	-36.3	18.9	0.00e+00	0	61	0	2051014656	41	4198
2026-01-23 13:00:43.18	268.45	39.05	-34.9	-36.1	19.0	0.00e+00	0	61	0	2056257536	41	4143
2026-01-23 13:00:44.19	268.90	39.03	-34.9	-36.1	19.1	0.00e+00	0	61	0	2062548992	41	4132
2026-01-23 13:00:45.20	269.36	39.00	-35.0	-36.2	19.0	0.00e+00	0	61	0	2067791872	41	4189
2026-01-23 13:00:46.21	269.81	38.97	-35.0	-36.2	19.0	0.00e+00	0	61	0	2073034752	41	4178
2026-01-23 13:00:47.22	270.26	38.94	-34.8	-36.0	19.2	0.00e+00	0	62	0	2079326208	41	4089
2026-01-23 13:00:48.23	270.72	38.91	-34.8	-36.0	19.1	0.00e+00	0	61	0	2084569088	41	4089
2026-01-23 13:00:49.24	271.17	38.87	-34.8	-36.0	19.1	0.00e+00	0	61	0	2090860544	41	4097
2026-01-23 13:00:50.25	271.62	38.84	-34.9	-36.1	19.1	0.00e+00	0	61	0	2096103424	41	4122
2026-01-23 13:00:51.26	272.07	38.80	-34.9	-36.1	19.1	0.00e+00	0	61	0	2101346304	41	4145
2026-01-23 13:00:52.27	272.52	38.76	-35.0	-36.2	19.0	0.00e+00	0	61	0	2107637760	41	4180
2026-01-23 13:00:53.28	272.97	38.71	-35.0	-36.2	19.0	0.00e+00	0	61	0	2112880640	41	4187
2026-01-23 13:00:54.29	273.41	38.67	-34.9	-36.2	19.0	0.00e+00	0	61	0	2119172096	41	4167
2026-01-23 13:00:55.30	273.86	38.62	-35.0	-36.2	19.0	0.00e+00	0	61	0	2124414976	41	4187
2026-01-23 13:00:56.31	274.30	38.57	-34.9	-36.2	19.0	0.00e+00	0	61	0	2129657856	41	4148
2026-01-23 13:00:57.32	274.74	38.52	-34.9	-36.1	19.1	0.00e+00	0	62	0	2135949312	41	4118
2026-01-23 13:00:58.33	275.18	38.47	-34.9	-36.2	19.1	0.00e+00	0	61	0	2141192192	41	4148
2026-01-23 13:00:59.34	275.62	38.42	-34.9	-36.1	19.1	0.00e+00	0	62	0	2147483648	41	4133
2026-01-23 13:01:00.35	276.06	38.36	-34.9	-36.2	19.0	0.00e+00	0	61	0	2152726528	41	4146
2026-01-23 13:01:01.36	276.50	38.31	-35.0	-36.2	19.0	0.00e+00	0	62	0	2159017984	41	4174
2026-01-23 13:01:02.37	276.93	38.25	-35.0	-36.2	19.0	0.00e+00	0	61	0	2164260864	41	4177
2026-01-23 13:01:03.38	277.37	38.19	-34.9	-36.2	19.0	0.00e+00	0	61	0	2170552320	41	4167
2026-01-23 13:01:04.39	277.80	38.12	-34.9	-36.1	19.1	0.00e+00	0	62	0	2175795200	41	4135
2026-01-23 13:01:05.40	278.23	38.06	-34.8	-36.0	19.2	0.00e+00	0	62	0	2181038080	41	4075
2026-01-23 13:01:06.41	278.66	37.99	-34.8	-36.1	19.2	0.00e+00	0	61	0	2187329536	41	4101
2026-01-23 13:01:07.42	279.08	37.93	-34.8	-36.0	19.1	0.00e+00	0	62	0	2192572416	41	4098
2026-01-23 13:01:08.43	279.51	37.86	-34.8	-36.0	19.1	0.00e+00	0	62	0	2197815296	41	4093
2026-01-23 13:01:09.44	279.93	37.79	-34.9	-36.1	19.1	0.00e+00	0	62	0	2204106752	41	4134
2026-01-23 13:01:10.45	280.35	37.72	-35.0	-36.3	18.9	0.00e+00	0	62	0	2209349632	41	4212
2026-01-23 13:01:11.45	280.77	37.64	-35.1	-36.4	18.8	0.00e+00	0	62	0	2215641088	41	4256
2026-01-23 13:01:12.46	281.18	37.57	-35.1	-36.3	18.9	0.00e+00	0	62	0	2220883968	41	4237
2026-01-23 13:01:13.47	281.60	37.49	-35.1	-36.3	18.8	0.00e+00	0	62	0	2226126848	41	4242
2026-01-23 13:01:14.49	282.02	37.41	-35.0	-36.3	18.9	0.00e+00	0	62	0	2232418304	41	4200
2026-01-23 13:01:15.50	282.43	37.33	-34.9	-36.1	19.1	0.00e+00	0	61	0	2237661184	41	4137
2026-01-23 13:01:16.51	282.84	37.25	-34.9	-36.1	19.1	0.00e+00	0	61	0	2243952640	41	4145
2026-01-23 13:01:17.52	283.25	37.17	-34.9	-36.2	19.0	0.00e+00	0	62	0	2249195520	41	4159
2026-01-23 13:01:18.53	283.65	37.09	-35.0	-36.2	19.0	0.00e+00	0	62	0	2255486976	41	4187
2026-01-23 13:01:19.54	284.06	37.00	-34.9	-36.2	19.0	0.00e+00	0	62	0	2260729856	41	4149
2026-01-23 13:01:20.55	284.46	36.91	-34.8	-36.1	19.1	0.00e+00	0	62	0	2267021312	41	4101
2026-01-23 13:01:21.56	284.86	36.83	-34.9	-36.2	19.0	0.00e+00	0	61	0	2272264192	41	4162
2026-01-23 13:01:22.57	285.25	36.74	-34.8	-36.1	19.1	0.00e+00	0	62	0	2277507072	41	4107
2026-01-23 13:01:23.58	285.65	36.65	-34.9	-36.2	19.0	0.00e+00	0	62	0	2283798528	41	4158
2026-01-23 13:01:24.59	286.04	36.56	-34.9	-36.2	19.0	0.00e+00	0	62	0	2289041408	41	4157
2026-01-23 13:01:25.60	286.43	36.46	-35.1	-36.3	18.8	0.00e+00	0	61	0	2295332864	41	4239
2026-01-23 13:01:26.61	286.82	36.37	-35.1	-36.3	18.9	0.00e+00	0	61	0	2300575744	41	4227
2026-01-23 13:01:27.61	287.20	36.28	-35.1	-36.3	18.8	0.00e+00	0	61	0	2305818624	41	4235
2026-01-23 13:01:28.62	287.59	36.18	-35.1	-36.3	18.8	0.00e+00	0	61	0	2312110080	41	4235
2026-01-23 13:01:29.63	287.97	36.08	-35.2	-36.5	18.7	0.00e+00	0	62	0	2317352960	41	4294
2026-01-23 13:01:30.64	288.35	35.99	-35.2	-36.4	18.7	0.00e+00	0	62	0	2323644416	41	4285
2026-01-23 13:01:31.65	288.73	35.89	-35.1	-36.4	18.8	0.00e+00	0	61	0	2328887296	41	4277
2026-01-23 13:01:32.66	289.10	35.79	-35.2	-36.4	18.8	0.00e+00	0	61	0	2334130176	41	4286
2026-01-23 13:01:33.67	289.47	35.68	-35.1	-36.4	18.8	0.00e+00	0	62	0	2340421632	41	4269
2026-01-23 13:01:34.68	289.84	35.58	-35.2	-36.4	18.8	0.00e+00	0	61	0	2345664512	41	4281
2026-01-23 13:01:35.69	290.21	35.48	-35.1	-36.4	18.8	0.00e+00	0	62	0	2351955968	41	4253
2026-01-23 13:01:36.70	290.58	35.37	-35.1	-36.4	18.8	0.00e+00	0	61	0	2357198848	41	4244
2026-01-23 13:01:37.71	290.94	35.27	-35.0	-36.3	18.9	0.00e+00	0	62	0	2363490304	41	4202
2026-01-23 13:01:38.72	291.30	35.16	-35.0	-36.2	18.9	0.00e+00	0	62	0	2368733184	41	4186
2026-01-23 13:01:39.73	291.66	35.06	-35.1	-36.3	18.8	0.00e+00	0	62	0	2373976064	41	4230
2026-01-23 13:01:40.74	292.02	34.95	-35.2	-36.5	18.6	0.00e+00	0	62	0	2380267520	41	4337
2026-01-23 13:01:41.75	292.37	34.84	-35.3	-36.6	18.6	0.00e+00	0	62	0	2385510400	41	4382
2026-01-23 13:01:42.76	292.72	34.73	-35.3	-36.6	18.5	0.00e+00	0	62	0	2391801856	41	4389
2026-01-23 13:01:43.77	293.07	34.62	-35.3	-36.6	18.6	0.00e+00	0	62	0	2397044736	41	4352
2026-01-23 13:01:44.78	293.42	34.51	-35.3	-36.6	18.6	0.00e+00	0	62	0	2402287616	41	4349
2026-01-23 13:01:45.79	293.76	34.40	-35.1	-36.4	18.8	0.00e+00	0	62	0	2408579072	41	4267
2026-01-23 13:01:46.80	294.11	34.28	-35.2	-36.4	18.7	0.00e+00	0	62	0	2413821952	41	4276
2026-01-23 13:01:47.81	294.45	34.17	-35.2	-36.5	18.7	0.00e+00	0	62	0	2420113408	41	4312
2026-01-23 13:01:48.82	294.78	34.06	-35.3	-36.6	18.6	0.00e+00	0	62	0	2425356288	41	4357
2026-01-23 13:01:49.82	295.12	33.94	-35.3	-36.6	18.5	0.00e+00	0	62	0	2430599168	41	4391
2026-01-23 13:01:50.83	295.45	33.83	-35.5	-36.8	18.4	0.00e+00	0	62	0	2436890624	41	4458
2026-01-23 13:01:51.84	295.78	33.71	-35.3	-36.6	18.5	0.00e+00	0	62	0	2442133504	41	4369
2026-01-23 13:01:52.85	296.11	33.60	-35.2	-36.5	18.7	0.00e+00	0	62	0	2448424960	41	4328
2026-01-23 13:01:53.86	296.43	33.48	-35.2	-36.5	18.6	0.00e+00	0	62	0	2453667840	41	4322
2026-01-23 13:01:54.87	296.76	33.36	-35.3	-36.5	18.6	0.00e+00	0	62	0	2459959296	41	4326
2026-01-23 13:01:55.88	297.08	33.24	-35.3	-36.5	18.6	0.00e+00	0	62	0	2465202176	41	4328
2026-01-23 13:01:56.89	297.40	33.13	-35.3	-36.5	18.6	0.00e+00	0	62	0	2471493632	41	4328
2026-01-23 13:01:57.91	297.72	33.01	-35.4	-36.6	18.5	0.00e+00	0	62	0	2476736512	41	4391
2026-01-23 13:01:58.92	298.03	32.89	-35.3	-36.6	18.6	0.00e+00	0	62	0	2481979392	41	4351
2026-01-23 13:01:59.93	298.34	32.77	-35.3	-36.6	18.6	0.00e+00	0	62	0	2488270848	41	4351
2026-01-23 13:02:00.94	298.65	32.65	-35.4	-36.7	18.5	0.00e+00	0	62	0	2493513728	41	4400
2026-01-23 13:02:01.95	298.96	32.53	-35.4	-36.7	18.4	0.00e+00	0	62	0	2499805184	41	4427
2026-01-23 13:02:02.96	299.27	32.40	-35.4	-36.7	18.4	0.00e+00	0	62	0	2505048064	41	4429
2026-01-23 13:02:03.97	299.57	32.28	-35.5	-36.8	18.4	0.00e+00	0	62	0	2510290944	41	4451
2026-01-23 13:02:04.98	299.87	32.16	-35.5	-36.9	18.3	0.00e+00	0	62	0	2516582400	41	4494
2026-01-23 13:02:05.99	300.17	32.04	-35.5	-36.8	18.3	0.00e+00	0	62	0	2521825280	41	4482
2026-01-23 13:02:07.00	300.47	31.92	-35.5	-36.9	18.3	0.00e+00	0	62	0	2528116736	41	4496
2026-01-23 13:02:08.01	300.76	31.79	-35.5	-36.8	18.4	0.00e+00	0	62	0	2533359616	41	4452
2026-01-23 13:02:09.02	301.05	31.67	-35.5	-36.8	18.3	0.00e+00	0	62	0	2538602496	41	4464
2026-01-23 13:02:10.03	301.34	31.55	-35.5	-36.8	18.3	0.00e+00	0	61	0	2544893952	41	4490
2026-01-23 13:02:11.04	301.63	31.42	-35.4	-36.7	18.4	0.00e+00	0	62	0	2550136832	41	4421
2026-01-23 13:02:12.04	301.91	31.30	-35.3	-36.5	18.6	0.00e+00	0	62	0	2556428288	41	4337
2026-01-23 13:02:13.05	302.20	31.18	-35.3	-36.6	18.5	0.00e+00	0	62	0	2561671168	41	4386
2026-01-23 13:02:14.07	302.48	31.05	-35.4	-36.8	18.4	0.00e+00	0	62	0	2567962624	41	4442
2026-01-23 13:02:15.08	302.76	30.93	-35.5	-36.8	18.3	0.00e+00	0	62	0	2573205504	41	4472
2026-01-23 13:02:16.08	303.04	30.80	-35.6	-37.0	18.2	0.00e+00	0	62	0	2579496960	41	4546
2026-01-23 13:02:17.09	303.31	30.68	-35.7	-37.0	18.1	0.00e+00	0	61	0	2584739840	41	4591
2026-01-23 13:02:18.10	303.58	30.55	-35.7	-37.1	18.1	0.00e+00	0	62	0	2589982720	42	4346
2026-01-23 13:02:19.11	303.85	30.43	-35.7	-37.1	18.1	0.00e+00	0	61	0	2596274176	42	4341
2026-01-23 13:02:20.12	304.12	30.30	-35.8	-37.2	18.0	0.00e+00	0	62	0	2601517056	42	4405
2026-01-23 13:02:21.13	304.39	30.18	-35.8	-37.2	18.0	0.00e+00	0	62	0	2606759936	42	4397
2026-01-23 13:02:22.14	304.65	30.05	-35.8	-37.2	17.9	0.00e+00	0	62	0	2613051392	42	4428
2026-01-23 13:02:23.15	304.92	29.92	-35.8	-37.1	18.0	0.00e+00	0	62	0	2618294272	42	4384
2026-01-23 13:02:24.16	305.18	29.80	-35.6	-36.9	18.2	0.00e+00	0	62	0	2624585728	42	4268
2026-01-23 13:02:25.17	305.44	29.67	-35.5	-36.8	18.3	0.00e+00	0	62	0	2629828608	42	4222
2026-01-23 13:02:26.18	305.69	29.55	-35.6	-36.9	18.2	0.00e+00	0	62	0	2635071488	42	4265
2026-01-23 13:02:27.19	305.95	29.42	-35.6	-37.0	18.1	0.00e+00	0	62	0	2641362944	42	4308
2026-01-23 13:02:28.20	306.20	29.30	-35.7	-37.1	18.1	0.00e+00	0	62	0	2646605824	42	4346
2026-01-23 13:02:29.21	306.45	29.17	-35.8	-37.1	18.0	0.00e+00	0	62	0	2652897280	42	4381
2026-01-23 13:02:30.22	306.70	29.04	-35.7	-37.1	18.0	0.00e+00	0	62	0	2658140160	42	4381
2026-01-23 13:02:31.23	306.95	28.92	-35.7	-37.1	18.0	0.00e+00	0	62	0	2664431616	42	4363
2026-01-23 13:02:32.23	307.19	28.79	-35.8	-37.1	18.0	0.00e+00	0	62	0	2669674496	42	4384
2026-01-23 13:02:33.24	307.43	28.67	-35.8	-37.2	17.9	0.00e+00	0	62	0	2675965952	42	4405
2026-01-23 13:02:34.25	307.68	28.54	-35.7	-37.1	18.0	0.00e+00	0	62	0	2681208832	42	4341
2026-01-23 13:02:35.26	307.91	28.42	-35.8	-37.2	17.9	0.00e+00	0	62	0	2686451712	42	4409
2026-01-23 13:02:36.28	308.15	28.29	-35.9	-37.3	17.8	0.00e+00	0	62	0	2692743168	42	4467
2026-01-23 13:02:37.28	308.39	28.16	-36.0	-37.4	17.7	0.00e+00	0	62	0	2697986048	42	4518
2026-01-23 13:02:38.29	308.62	28.04	-36.1	-37.5	17.6	0.00e+00	0	62	0	2704277504	42	4572
2026-01-23 13:02:39.30	308.85	27.91	-36.1	-37.5	17.6	0.00e+00	0	62	0	2709520384	42	4596
2026-01-23 13:02:40.31	309.09	27.79	-36.0	-37.4	17.7	0.00e+00	0	61	0	2714763264	42	4511
2026-01-23 13:02:41.33	309.32	27.66	-35.8	-37.2	17.9	0.00e+00	0	61	0	2721054720	42	4414
2026-01-23 13:02:42.34	309.54	27.53	-35.7	-37.1	18.0	0.00e+00	0	61	0	2726297600	42	4351
2026-01-23 13:02:43.35	309.77	27.41	-35.8	-37.2	17.9	0.00e+00	0	62	0	2732589056	42	4392
2026-01-23 13:02:44.36	309.99	27.28	-35.7	-37.1	18.0	0.00e+00	0	62	0	2737831936	42	4363
2026-01-23 13:02:45.37	310.21	27.16	-35.6	-36.9	18.2	0.00e+00	0	62	0	2743074816	42	4269
2026-01-23 13:02:46.38	310.43	27.03	-35.6	-36.9	18.2	0.00e+00	0	61	0	2749366272	42	4254
2026-01-23 13:02:47.39	310.65	26.91	-35.6	-37.0	18.1	0.00e+00	0	61	0	2754609152	42	4304
2026-01-23 13:02:48.40	310.87	26.79	-35.7	-37.1	18.0	0.00e+00	0	62	0	2760900608	42	4357
2026-01-23 13:02:49.40	311.08	26.66	-35.8	-37.2	17.9	0.00e+00	0	61	0	2766143488	42	4399
2026-01-23 13:02:50.41	311.29	26.54	-35.9	-37.3	17.8	0.00e+00	0	62	0	2772434944	42	4451
2026-01-23 13:02:51.42	311.51	26.41	-35.8	-37.2	17.9	0.00e+00	0	62	0	2777677824	42	4411
2026-01-23 13:02:52.43	311.72	26.29	-35.8	-37.2	17.8	0.00e+00	0	62	0	2782920704	42	4412
2026-01-23 13:02:53.44	311.93	26.17	-35.8	-37.2	17.9	0.00e+00	0	62	0	2789212160	42	4395
2026-01-23 13:02:54.45	312.13	26.04	-35.7	-37.0	18.0	0.00e+00	0	62	0	2794455040	42	4338
2026-01-23 13:02:55.46	312.34	25.92	-35.7	-37.0	18.0	0.00e+00	0	62	0	2800746496	42	4335
2026-01-23 13:02:56.47	312.54	25.80	-35.6	-37.0	18.1	0.00e+00	0	62	0	2805989376	42	4309
2026-01-23 13:02:57.48	312.74	25.67	-35.7	-37.1	17.9	0.00e+00	0	62	0	2811232256	42	4359
2026-01-23 13:02:58.49	312.94	25.55	-35.7	-37.0	18.0	0.00e+00	0	62	0	2817523712	42	4314
2026-01-23 13:02:59.50	313.14	25.43	-35.7	-37.1	17.9	0.00e+00	0	62	0	2822766592	42	4365
2026-01-23 13:03:00.51	313.34	25.31	-35.8	-37.2	17.8	0.00e+00	0	62	0	2829058048	42	4421
2026-01-23 13:03:01.52	313.54	25.18	-35.9	-37.3	17.7	0.00e+00	0	62	0	2834300928	42	4492
2026-01-23 13:03:02.53	313.73	25.06	-35.9	-37.3	17.7	0.00e+00	0	62	0	2839543808	42	4493
2026-01-23 13:03:03.54	313.93	24.94	-36.0	-37.4	17.6	0.00e+00	0	62	0	2845835264	42	4529
2026-01-23 13:03:04.55	314.12	24.82	-36.0	-37.4	17.6	0.00e+00	0	62	0	2851078144	42	4530
2026-01-23 13:03:05.56	314.31	24.70	-36.0	-37.4	17.6	0.00e+00	0	62	0	2857369600	42	4525
2026-01-23 13:03:06.57	314.50	24.58	-36.0	-37.4	17.6	0.00e+00	0	62	0	2862612480	42	4514
2026-01-23 13:03:07.58	314.69	24.46	-36.0	-37.3	17.7	0.00e+00	0	62	0	2868903936	42	4493
2026-01-23 13:03:08.59	314.87	24.33	-36.0	-37.4	17.6	0.00e+00	0	62	0	2874146816	42	4513
2026-01-23 13:03:09.60	315.06	24.21	-36.1	-37.5	17.6	0.00e+00	0	62	0	2880438272	42	4565
2026-01-23 13:03:10.61	315.24	24.09	-36.1	-37.5	17.5	0.00e+00	0	61	0	2885681152	42	4586
2026-01-23 13:03:11.62	315.42	23.97	-36.1	-37.5	17.5	0.00e+00	0	62	0	2890924032	42	4591
2026-01-23 13:03:12.63	315.60	23.86	-36.1	-37.5	17.5	0.00e+00	0	62	0	2897215488	42	4584
2026-01-23 13:03:13.64	315.78	23.74	-36.1	-37.5	17.4	0.00e+00	0	62	0	2902458368	42	4598
2026-01-23 13:03:14.65	315.96	23.62	-36.1	-37.6	17.4	0.00e+00	0	62	0	2908749824	42	4604
2026-01-23 13:03:15.66	316.14	23.50	-36.2	-37.6	17.4	0.00e+00	0	61	0	2913992704	42	4623
2026-01-23 13:03:16.67	316.31	23.38	-36.2	-37.6	17.4	0.00e+00	0	62	0	2919235584	43	4374
2026-01-23 13:03:17.68	316.49	23.26	-36.2	-37.6	17.4	0.00e+00	0	61	0	2925527040	43	4379
2026-01-23 13:03:18.69	316.66	23.14	-36.2	-37.6	17.4	0.00e+00	0	62	0	2930769920	43	4384
2026-01-23 13:03:19.70	316.83	23.03	-36.2	-37.6	17.4	0.00e+00	0	62	0	2937061376	43	4349
2026-01-23 13:03:20.71	317.00	22.91	-36.1	-37.5	17.5	0.00e+00	0	62	0	2942304256	43	4321
2026-01-23 13:03:21.72	317.17	22.79	-36.1	-37.5	17.4	0.00e+00	0	62	0	2947547136	43	4334
2026-01-23 13:03:22.72	317.34	22.68	-36.2	-37.6	17.4	0.00e+00	0	62	0	2953838592	43	4357
2026-01-23 13:03:23.74	317.50	22.56	-36.2	-37.6	17.4	0.00e+00	0	62	0	2959081472	43	4354
2026-01-23 13:03:24.75	317.67	22.44	-36.2	-37.6	17.4	0.00e+00	0	62	0	2965372928	43	4362
2026-01-23 13:03:25.76	317.83	22.33	-36.2	-37.7	17.3	0.00e+00	0	61	0	2970615808	43	4399
2026-01-23 13:03:26.77	318.00	22.21	-36.3	-37.7	17.2	0.00e+00	0	61	0	2976907264	43	4430
2026-01-23 13:03:27.78	318.16	22.10	-36.3	-37.7	17.2	0.00e+00	0	62	0	2982150144	43	4435
2026-01-23 13:03:28.79	318.32	21.98	-36.3	-37.8	17.1	0.00e+00	0	62	0	2988441600	43	4471
2026-01-23 13:03:29.80	318.48	21.87	-36.4	-37.9	17.0	0.00e+00	0	61	0	2993684480	43	4533
2026-01-23 13:03:30.81	318.64	21.75	-36.4	-37.9	17.1	0.00e+00	0	61	0	2998927360	43	4515
2026-01-23 13:03:31.82	318.80	21.64	-36.4	-37.9	17.0	0.00e+00	0	62	0	3005218816	43	4507
2026-01-23 13:03:32.83	318.95	21.53	-36.5	-37.9	17.0	0.00e+00	0	61	0	3010461696	43	4527
2026-01-23 13:03:33.84	319.11	21.41	-36.5	-37.9	17.0	0.00e+00	0	62	0	3016753152	43	4545
2026-01-23 13:03:34.85	319.26	21.30	-36.4	-37.9	17.1	0.00e+00	0	61	0	3021996032	43	4509
2026-01-23 13:03:35.86	319.41	21.19	-36.4	-37.9	17.0	0.00e+00	0	62	0	3027238912	43	4516
2026-01-23 13:03:36.87	319.57	21.07	-36.5	-38.0	16.9	0.00e+00	0	62	0	3033530368	43	4572
2026-01-23 13:03:37.88	319.72	20.96	-36.6	-38.1	16.9	0.00e+00	0	62	0	3038773248	43	4601
2026-01-23 13:03:38.88	319.86	20.85	-36.7	-38.2	16.7	0.00e+00	0	62	0	3045064704	43	4670
2026-01-23 13:03:39.89	320.01	20.74	-36.9	-38.5	16.6	0.00e+00	0	62	0	3050307584	44	4562
2026-01-23 13:03:40.90	320.16	20.63	-37.1	-38.7	16.4	0.00e+00	0	62	0	3055550464	44	4662
2026-01-23 13:03:41.92	320.31	20.52	-37.1	-38.7	16.4	0.00e+00	0	62	0	3061841920	44	4664
2026-01-23 13:03:42.92	320.45	20.41	-37.1	-38.7	16.4	0.00e+00	0	62	0	3067084800	44	4679
2026-01-23 13:03:43.93	320.60	20.30	-37.2	-38.7	16.3	0.00e+00	0	62	0	3073376256	44	4704
2026-01-23 13:03:44.94	320.74	20.19	-37.2	-38.8	16.3	0.00e+00	0	62	0	3078619136	44	4708
2026-01-23 13:03:45.95	320.88	20.08	-37.2	-38.8	16.2	0.00e+00	0	62	0	3084910592	45	4481
2026-01-23 13:03:46.96	321.03	19.97	-37.2	-38.8	16.3	0.00e+00	0	62	0	3090153472	45	4443
2026-01-23 13:03:47.97	321.17	19.86	-37.1	-38.6	16.4	0.00e+00	0	62	0	3095396352	45	4383
2026-01-23 13:03:48.98	321.31	19.75	-37.1	-38.6	16.4	0.00e+00	0	62	0	3101687808	45	4381
2026-01-23 13:03:49.99	321.44	19.64	-37.2	-38.8	16.3	0.00e+00	0	62	0	3106930688	45	4452
2026-01-23 13:03:51.00	321.58	19.53	-37.1	-38.7	16.4	0.00e+00	0	62	0	3113222144	45	4410
2026-01-23 13:03:52.01	321.72	19.43	-37.2	-38.7	16.3	0.00e+00	0	62	0	3118465024	45	4440
2026-01-23 13:03:53.02	321.85	19.32	-37.2	-38.8	16.3	0.00e+00	0	62	0	3123707904	45	4453
2026-01-23 13:03:54.02	321.99	19.21	-37.2	-38.9	16.2	0.00e+00	0	62	0	3129999360	45	4497
2026-01-23 13:03:55.03	322.12	19.11	-37.3	-39.0	16.0	0.00e+00	0	62	0	3135242240	45	4568
2026-01-23 13:03:56.04	322.26	19.00	-37.4	-39.0	16.0	0.00e+00	0	62	0	3141533696	45	4588
2026-01-23 13:03:57.05	322.39	18.89	-37.4	-39.0	16.0	0.00e+00	0	62	0	3146776576	45	4596
2026-01-23 13:03:58.06	322.52	18.79	-37.4	-39.1	15.9	0.00e+00	0	62	0	3152019456	45	4610
2026-01-23 13:03:59.08	322.65	18.68	-37.5	-39.2	15.8	0.00e+00	0	62	0	3158310912	45	4662
2026-01-23 13:04:00.09	322.78	18.58	-37.4	-39.1	15.9	0.00e+00	0	61	0	3163553792	45	4607
2026-01-23 13:04:01.10	322.91	18.47	-37.4	-39.1	15.9	0.00e+00	0	62	0	3169845248	45	4628
2026-01-23 13:04:02.11	323.04	18.37	-37.4	-39.1	15.9	0.00e+00	0	62	0	3175088128	45	4624
2026-01-23 13:04:03.12	323.16	18.26	-37.3	-39.0	16.0	0.00e+00	0	62	0	3181379584	45	4555
2026-01-23 13:04:04.13	323.29	18.16	-37.4	-39.0	16.0	0.00e+00	0	62	0	3186622464	45	4570
2026-01-23 13:04:05.14	323.42	18.05	-37.4	-39.1	15.9	0.00e+00	0	62	0	3192913920	45	4601
2026-01-23 13:04:06.15	323.54	17.95	-37.5	-39.2	15.8	0.00e+00	0	62	0	3198156800	45	4666
2026-01-23 13:04:07.16	323.66	17.85	-37.4	-39.0	16.0	0.00e+00	0	62	0	3203399680	45	4556
2026-01-23 13:04:08.17	323.79	17.74	-37.3	-38.9	16.0	0.00e+00	0	62	0	3209691136	45	4540
2026-01-23 13:04:09.18	323.91	17.64	-37.3	-39.0	16.0	0.00e+00	0	62	0	3214934016	45	4561
2026-01-23 13:04:10.19	324.03	17.54	-37.4	-39.1	15.8	0.00e+00	0	62	0	3221225472	45	4622
2026-01-23 13:04:11.19	324.15	17.44	-37.5	-39.1	15.8	0.00e+00	0	62	0	3226468352	45	4647
2026-01-23 13:04:12.20	324.27	17.34	-37.4	-39.1	15.9	0.00e+00	0	62	0	3231711232	45	4621
2026-01-23 13:04:13.21	324.39	17.24	-37.5	-39.1	15.8	0.00e+00	0	62	0	3238002688	45	4635
2026-01-23 13:04:14.22	324.51	17.14	-37.5	-39.2	15.8	0.00e+00	0	62	0	3243245568	45	4674
2026-01-23 13:04:15.23	324.62	17.04	-37.5	-39.2	15.7	0.00e+00	0	62	0	3248488448	45	4681
2026-01-23 13:04:16.24	324.74	16.93	-37.5	-39.2	15.8	0.00e+00	0	62	0	3254779904	45	4653
2026-01-23 13:04:17.25	324.86	16.83	-37.5	-39.2	15.7	0.00e+00	0	62	0	3260022784	45	4692
2026-01-23 13:04:18.26	324.97	16.74	-37.6	-39.3	15.6	0.00e+00	0	62	0	3266314240	45	4758
2026-01-23 13:04:19.27	325.09	16.64	-37.5	-39.2	15.7	0.00e+00	0	62	0	3271557120	45	4699
2026-01-23 13:04:20.28	325.20	16.54	-37.5	-39.2	15.7	0.00e+00	0	62	0	3277848576	45	4677
2026-01-23 13:04:21.29	325.31	16.44	-37.5	-39.3	15.7	0.00e+00	0	62	0	3283091456	45	4708
2026-01-23 13:04:22.30	325.43	16.34	-37.6	-39.3	15.6	0.00e+00	0	62	0	3289382912	45	4741
2026-01-23 13:04:23.31	325.54	16.24	-37.6	-39.3	15.6	0.00e+00	0	62	0	3294625792	45	4752
2026-01-23 13:04:24.32	325.65	16.14	-37.6	-39.3	15.6	0.00e+00	0	62	0	3299868672	45	4723
2026-01-23 13:04:25.34	325.76	16.04	-37.6	-39.3	15.6	0.00e+00	0	62	0	3306160128	45	4737
2026-01-23 13:04:26.35	325.87	15.95	-37.6	-39.3	15.5	0.00e+00	0	62	0	3311403008	45	4755
2026-01-23 13:04:27.36	325.98	15.85	-37.6	-39.4	15.5	0.00e+00	0	62	0	3317694464	45	4780
2026-01-23 13:04:28.36	326.09	15.75	-37.7	-39.4	15.4	0.00e+00	0	62	0	3322937344	45	4814
2026-01-23 13:04:29.37	326.19	15.66	-37.8	-39.5	15.4	0.00e+00	0	62	0	3328180224	46	4586
2026-01-23 13:04:30.38	326.30	15.56	-37.9	-39.7	15.2	0.00e+00	0	62	0	3334471680	46	4661
2026-01-23 13:04:31.39	326.41	15.47	-37.8	-39.5	15.3	0.00e+00	0	62	0	3339714560	46	4598
2026-01-23 13:04:32.40	326.51	15.37	-37.8	-39.5	15.3	0.00e+00	0	62	0	3346006016	46	4596
2026-01-23 13:04:33.41	326.62	15.28	-37.8	-39.6	15.3	0.00e+00	0	62	0	3351248896	46	4617
2026-01-23 13:04:34.42	326.72	15.18	-37.9	-39.7	15.2	0.00e+00	0	62	0	3356491776	46	4671
2026-01-23 13:04:35.43	326.82	15.09	-37.9	-39.7	15.1	0.00e+00	0	62	0	3362783232	46	4679
2026-01-23 13:04:36.44	326.93	14.99	-37.9	-39.7	15.2	0.00e+00	0	62	0	3368026112	46	4667
2026-01-23 13:04:37.45	327.03	14.90	-38.0	-39.8	15.1	0.00e+00	0	62	0	3374317568	46	4712
2026-01-23 13:04:38.46	327.13	14.80	-38.0	-39.8	15.0	1.10e-06	0	62	0	3379560448	46	4726
2026-01-23 13:04:39.47	327.23	14.71	-37.9	-39.7	15.1	0.00e+00	0	62	0	3385851904	46	4700
2026-01-23 13:04:40.48	327.33	14.62	-37.9	-39.7	15.1	0.00e+00	0	62	0	3391094784	46	4695
2026-01-23 13:04:41.49	327.43	14.52	-37.9	-39.8	15.0	0.00e+00	0	62	0	3397386240	46	4711
2026-01-23 13:04:42.50	327.53	14.43	-37.9	-39.8	15.1	0.00e+00	0	62	0	3402629120	46	4711
2026-01-23 13:04:43.51	327.63	14.34	-38.0	-39.8	15.0	0.00e+00	0	62	0	3407872000	46	4756
2026-01-23 13:04:44.52	327.73	14.25	-38.0	-39.9	15.0	0.00e+00	0	62	0	3414163456	46	4771
2026-01-23 13:04:45.53	327.83	14.15	-38.1	-39.9	14.9	0.00e+00	0	62	0	3419406336	46	4791
2026-01-23 13:04:46.54	327.92	14.06	-38.1	-39.9	14.8	0.00e+00	0	62	0	3425697792	46	4810
2026-01-23 13:04:47.55	328.02	13.97	-38.1	-40.0	14.8	0.00e+00	0	62	0	3430940672	46	4837
2026-01-23 13:04:48.56	328.12	13.88	-38.2	-40.1	14.7	0.00e+00	0	62	0	3436183552	46	4893
2026-01-23 13:04:49.57	328.21	13.79	-38.2	-40.1	14.6	0.00e+00	0	62	0	3442475008	47	4642
2026-01-23 13:04:50.58	328.31	13.70	-38.2	-40.1	14.6	0.00e+00	0	62	0	3447717888	47	4629
2026-01-23 13:04:51.59	328.40	13.61	-38.2	-40.2	14.6	1.10e-06	0	62	0	3454009344	47	4656
2026-01-23 13:04:52.60	328.50	13.52	-38.3	-40.3	14.5	4.50e-06	0	62	0	3459252224	47	4718
2026-01-23 13:04:53.61	328.59	13.43	-38.4	-40.3	14.4	1.10e-06	0	62	0	3464495104	47	4750
2026-01-23 13:04:54.62	328.68	13.34	-38.4	-40.3	14.4	0.00e+00	0	62	0	3470786560	47	4751
2026-01-23 13:04:55.63	328.77	13.25	-38.4	-40.4	14.3	2.20e-06	0	62	0	3476029440	47	4807
2026-01-23 13:04:56.64	328.86	13.16	-38.4	-40.4	14.3	3.40e-06	0	62	0	3482320896	47	4808
2026-01-23 13:04:57.65	328.96	13.07	-38.5	-40.5	14.2	3.40e-06	0	62	0	3487563776	47	4823
2026-01-23 13:04:58.66	329.05	12.99	-38.5	-40.5	14.2	3.40e-06	0	62	0	3493855232	47	4853
2026-01-23 13:04:59.67	329.14	12.90	-38.6	-40.6	14.1	4.50e-06	0	62	0	3499098112	47	4915
2026-01-23 13:05:00.67	329.23	12.81	-38.5	-40.6	14.1	6.80e-06	0	62	0	3504340992	47	4880
2026-01-23 13:05:01.69	329.32	12.72	-38.5	-40.6	14.1	3.40e-06	0	62	0	3510632448	47	4879
2026-01-23 13:05:02.70	329.40	12.63	-38.5	-40.6	14.1	4.50e-06	0	62	0	3515875328	47	4879
2026-01-23 13:05:03.71	329.49	12.55	-38.5	-40.6	14.1	8.00e-06	0	62	0	3522166784	47	4880
2026-01-23 13:05:04.72	329.58	12.46	-38.5	-40.5	14.2	3.40e-06	0	62	0	3527409664	47	4838
2026-01-23 13:05:05.73	329.67	12.37	-38.5	-40.5	14.1	1.10e-06	0	62	0	3532652544	47	4865
2026-01-23 13:05:06.74	329.75	12.29	-38.6	-40.6	14.0	2.20e-06	0	62	0	3538944000	47	4921
