passes_logs/2026/01/23/R2.0S_Moscow/R2.0S_Moscow__20260123_235835_AQUA_rec.log

#Pass ID: 20260123_235835_AQUA
#Satellite: AQUA
#Configuration: AQUA
#almurnet v.1.7.20251203
#Start time: 2026-01-23 23:58:35

#Version: 2.2.20231116
#Station: R2.0S_Moscow
#Location: 37.707566 lon 55.798166 lat
#TLE: 1 27424U 02022A   26022.96978264  .00001879  00000+0  38593-3 0  9993
#TLE: 2 27424  98.4100 349.5315 0001958  69.4371  21.4765 14.61848807262053

#Time	Az	El	Level	Level2	SNR	BER	BlckErr	Temp	State	Recorded	gain1	gain2
2026-01-23 23:58:35.64	26.80	2.01	-43.3	-61.6	3.8	7.46e-01	0	52	0	0	58	29082
2026-01-23 23:58:36.64	26.88	2.07	-43.3	-61.8	3.8	7.44e-01	0	52	104	0	57	31808
2026-01-23 23:58:37.65	26.97	2.13	-43.3	-61.8	3.8	7.49e-01	0	52	104	0	57	31785
2026-01-23 23:58:38.66	27.05	2.18	-43.3	-61.9	3.8	7.45e-01	0	52	104	0	57	32004
2026-01-23 23:58:39.67	27.13	2.24	-43.3	-62.0	3.8	7.48e-01	0	53	104	0	57	32292
2026-01-23 23:58:40.68	27.21	2.30	-43.3	-62.0	3.8	7.42e-01	0	53	104	0	57	32312
2026-01-23 23:58:41.69	27.29	2.36	-43.3	-62.0	3.8	7.44e-01	0	53	104	0	57	32368
2026-01-23 23:58:42.70	27.38	2.41	-43.3	-62.0	3.8	7.46e-01	0	53	104	0	57	32444
2026-01-23 23:58:43.71	27.46	2.47	-43.3	-62.0	3.8	7.43e-01	0	53	104	0	57	32363
2026-01-23 23:58:44.72	27.54	2.53	-43.2	-62.0	3.8	7.46e-01	0	53	104	0	57	32422
2026-01-23 23:58:45.73	27.63	2.59	-43.3	-62.0	3.8	7.47e-01	0	53	104	0	57	32435
2026-01-23 23:58:46.74	27.71	2.64	-43.3	-62.0	3.8	7.43e-01	0	53	104	0	57	32508
2026-01-23 23:58:47.75	27.79	2.70	-43.3	-62.0	3.8	7.45e-01	0	53	104	0	57	32300
2026-01-23 23:58:48.76	27.88	2.76	-43.2	-62.0	3.8	7.43e-01	0	53	104	0	57	32418
2026-01-23 23:58:49.77	27.96	2.82	-43.3	-62.0	3.8	7.47e-01	0	53	104	0	57	32521
2026-01-23 23:58:50.79	28.05	2.88	-43.2	-62.0	3.8	7.45e-01	0	53	104	0	57	32235
2026-01-23 23:58:51.80	28.14	2.93	-43.2	-62.0	3.8	7.47e-01	0	53	104	0	57	32541
2026-01-23 23:58:52.81	28.22	2.99	-43.2	-62.0	3.8	7.44e-01	0	53	104	0	57	32291
2026-01-23 23:58:53.82	28.31	3.05	-43.2	-62.0	3.8	7.42e-01	0	54	104	0	57	32340
2026-01-23 23:58:54.83	28.40	3.11	-43.2	-62.0	3.8	7.48e-01	0	54	104	0	57	32526
2026-01-23 23:58:55.84	28.48	3.17	-43.2	-62.0	3.8	7.45e-01	0	54	104	0	57	32528
2026-01-23 23:58:56.85	28.57	3.23	-43.2	-62.1	3.8	7.46e-01	0	54	104	0	57	32602
2026-01-23 23:58:57.86	28.66	3.28	-43.2	-62.1	3.8	7.45e-01	0	54	104	0	57	32639
2026-01-23 23:58:58.87	28.75	3.34	-43.1	-62.1	3.8	7.45e-01	0	54	104	0	57	32629
2026-01-23 23:58:59.88	28.84	3.40	-43.2	-62.0	3.8	7.41e-01	0	54	104	0	57	32519
2026-01-23 23:59:00.89	28.93	3.46	-43.2	-62.1	3.8	7.44e-01	0	54	104	0	57	32601
2026-01-23 23:59:01.90	29.01	3.52	-43.2	-62.0	3.8	7.44e-01	0	54	104	0	57	32430
2026-01-23 23:59:02.91	29.10	3.58	-43.2	-62.0	3.8	7.45e-01	0	54	104	0	57	32495
2026-01-23 23:59:03.92	29.19	3.64	-43.2	-62.0	3.8	7.48e-01	0	54	104	0	57	32507
2026-01-23 23:59:04.94	29.29	3.70	-43.2	-62.0	3.8	7.45e-01	0	55	104	0	57	32390
2026-01-23 23:59:05.95	29.38	3.76	-43.2	-62.0	3.8	7.45e-01	0	55	104	0	57	32501
2026-01-23 23:59:06.96	29.47	3.82	-43.2	-62.0	3.8	7.44e-01	0	54	104	0	57	32348
2026-01-23 23:59:07.97	29.56	3.88	-43.2	-62.0	3.8	7.45e-01	0	54	104	0	57	32458
2026-01-23 23:59:08.98	29.65	3.94	-43.2	-62.0	3.8	7.47e-01	0	55	104	0	57	32435
2026-01-23 23:59:09.99	29.74	4.00	-43.2	-62.0	3.8	7.48e-01	0	54	104	0	57	32544
2026-01-23 23:59:11.00	29.84	4.06	-43.2	-62.1	3.8	7.43e-01	0	55	104	0	57	32612
2026-01-23 23:59:12.01	29.93	4.12	-43.2	-62.0	3.8	7.41e-01	0	55	104	0	57	32551
2026-01-23 23:59:13.02	30.02	4.18	-43.3	-62.1	3.8	7.41e-01	0	55	104	0	57	32711
2026-01-23 23:59:14.03	30.12	4.24	-43.3	-62.1	3.8	7.42e-01	0	55	104	0	57	32621
2026-01-23 23:59:15.04	30.21	4.30	-43.3	-62.1	3.8	7.44e-01	0	55	104	0	57	32696
2026-01-23 23:59:16.05	30.31	4.36	-43.2	-62.1	3.8	7.45e-01	0	55	104	0	57	32577
2026-01-23 23:59:17.06	30.40	4.42	-43.2	-62.0	3.8	7.46e-01	0	55	104	0	57	32522
2026-01-23 23:59:18.07	30.50	4.48	-43.2	-62.0	3.8	7.43e-01	0	55	104	0	57	32485
2026-01-23 23:59:19.08	30.60	4.54	-43.2	-62.0	3.8	7.46e-01	0	55	104	0	57	32328
2026-01-23 23:59:20.09	30.69	4.60	-43.2	-62.0	3.8	7.47e-01	0	55	104	0	57	32335
2026-01-23 23:59:21.10	30.79	4.66	-43.2	-61.9	3.8	7.47e-01	0	55	104	0	57	31928
2026-01-23 23:59:22.11	30.89	4.72	-43.2	-62.0	3.8	7.45e-01	0	55	104	0	57	32196
2026-01-23 23:59:23.13	30.98	4.78	-43.2	-62.0	3.8	7.46e-01	0	55	104	0	57	32254
2026-01-23 23:59:24.14	31.08	4.85	-43.2	-62.0	3.8	7.44e-01	0	55	104	0	57	32209
2026-01-23 23:59:25.15	31.18	4.91	-43.2	-62.0	3.8	7.46e-01	0	55	104	0	57	32271
2026-01-23 23:59:26.16	31.28	4.97	-43.2	-62.0	3.8	7.44e-01	0	55	104	0	57	32219
2026-01-23 23:59:27.17	31.38	5.03	-43.2	-62.0	3.8	7.47e-01	0	55	104	0	57	32329
2026-01-23 23:59:28.18	31.48	5.09	-43.2	-62.0	3.8	7.47e-01	0	56	104	0	57	32261
2026-01-23 23:59:29.19	31.58	5.15	-43.2	-62.0	3.8	7.44e-01	0	55	104	0	57	32258
2026-01-23 23:59:30.20	31.68	5.21	-43.2	-62.0	3.8	7.48e-01	0	56	104	0	57	32311
2026-01-23 23:59:31.21	31.78	5.28	-43.2	-62.0	3.8	7.45e-01	0	56	104	0	57	32432
2026-01-23 23:59:32.22	31.88	5.34	-43.2	-62.0	3.8	7.47e-01	0	56	104	0	57	32356
2026-01-23 23:59:33.23	31.99	5.40	-43.2	-62.1	3.8	7.46e-01	0	56	104	0	57	32573
2026-01-23 23:59:34.25	32.09	5.46	-43.2	-62.0	3.8	7.43e-01	0	56	104	0	57	32366
2026-01-23 23:59:35.26	32.19	5.52	-43.2	-62.0	3.8	7.47e-01	0	56	104	0	57	32390
2026-01-23 23:59:36.27	32.30	5.59	-43.2	-62.1	3.8	7.43e-01	0	56	104	0	57	32581
2026-01-23 23:59:37.28	32.40	5.65	-43.2	-62.0	3.8	7.44e-01	0	56	104	0	57	32492
2026-01-23 23:59:38.29	32.51	5.71	-43.2	-62.0	3.8	7.45e-01	0	56	104	0	57	32483
2026-01-23 23:59:39.30	32.61	5.77	-43.2	-62.0	3.8	7.42e-01	0	56	104	0	57	32522
2026-01-23 23:59:40.31	32.72	5.84	-43.2	-62.0	3.8	7.47e-01	0	56	104	0	57	32414
2026-01-23 23:59:41.32	32.82	5.90	-43.2	-62.0	3.8	7.43e-01	0	56	104	0	57	32423
2026-01-23 23:59:42.33	32.93	5.96	-43.2	-62.0	3.8	7.46e-01	0	56	104	0	57	32382
2026-01-23 23:59:43.34	33.04	6.03	-43.2	-62.0	3.8	7.45e-01	0	56	104	0	57	32414
2026-01-23 23:59:44.35	33.14	6.09	-43.2	-62.0	3.8	7.45e-01	0	56	104	0	57	32347
2026-01-23 23:59:45.36	33.25	6.15	-43.2	-62.0	3.8	7.47e-01	0	56	104	0	57	32231
2026-01-23 23:59:46.37	33.36	6.21	-43.2	-62.0	3.8	7.46e-01	0	56	104	0	57	32455
2026-01-23 23:59:47.39	33.47	6.28	-43.2	-62.0	3.8	7.45e-01	0	56	104	0	57	32271
2026-01-23 23:59:48.40	33.58	6.34	-43.1	-61.9	3.8	7.47e-01	0	57	104	0	57	32147
2026-01-23 23:59:49.41	33.69	6.41	-43.1	-61.8	3.8	7.48e-01	0	56	104	0	57	31466
2026-01-23 23:59:50.42	33.80	6.47	-43.2	-61.8	3.8	7.45e-01	0	56	104	0	57	31805
2026-01-23 23:59:51.43	33.91	6.53	-43.2	-61.8	3.8	7.41e-01	0	57	104	0	57	31727
2026-01-23 23:59:52.44	34.02	6.60	-43.2	-62.0	3.8	7.45e-01	0	57	104	0	57	32315
2026-01-23 23:59:53.45	34.13	6.66	-43.2	-61.8	3.8	7.44e-01	0	57	104	0	57	31664
2026-01-23 23:59:54.46	34.24	6.72	-43.2	-61.8	3.8	7.47e-01	0	57	104	0	57	31762
2026-01-23 23:59:55.47	34.36	6.79	-43.2	-61.9	3.8	7.40e-01	0	57	104	0	57	31942
2026-01-23 23:59:56.48	34.47	6.85	-43.2	-61.8	3.8	7.44e-01	0	57	104	0	57	31682
2026-01-23 23:59:57.49	34.58	6.92	-43.2	-61.4	3.8	7.44e-01	0	57	104	0	57	30249
2026-01-23 23:59:58.50	34.70	6.98	-43.2	-61.5	3.8	7.47e-01	0	57	104	0	57	30398
2026-01-23 23:59:59.51	34.81	7.05	-43.2	-61.4	3.8	7.41e-01	0	57	104	0	57	30192
2026-01-24 00:00:00.52	34.93	7.11	-43.2	-61.6	3.8	7.48e-01	0	57	104	0	57	30849
2026-01-24 00:00:01.53	35.05	7.17	-43.2	-61.4	3.8	7.43e-01	0	57	104	0	57	30212
2026-01-24 00:00:02.54	35.16	7.24	-43.2	-61.4	3.8	7.46e-01	0	57	104	0	57	30248
2026-01-24 00:00:03.55	35.28	7.30	-43.2	-61.7	3.8	7.42e-01	0	57	104	0	57	31213
2026-01-24 00:00:04.56	35.40	7.37	-43.2	-61.7	3.8	7.45e-01	0	57	104	0	57	31300
2026-01-24 00:00:05.57	35.52	7.43	-43.2	-61.8	3.8	7.47e-01	0	57	104	0	57	31665
2026-01-24 00:00:06.58	35.63	7.50	-43.2	-62.0	3.8	7.44e-01	0	57	104	0	57	32264
2026-01-24 00:00:07.59	35.75	7.56	-43.2	-61.9	3.8	7.48e-01	0	57	104	0	57	31884
2026-01-24 00:00:08.60	35.87	7.63	-43.2	-61.1	3.8	7.44e-01	0	57	104	0	57	29281
2026-01-24 00:00:09.61	35.99	7.69	-43.2	-60.9	3.8	7.45e-01	0	57	104	0	57	28442
2026-01-24 00:00:10.62	36.12	7.76	-43.2	-59.6	4.0	7.42e-01	0	57	104	0	57	24554
2026-01-24 00:00:11.63	36.24	7.83	-43.1	-57.8	3.9	7.41e-01	0	57	104	0	57	20068
2026-01-24 00:00:12.64	36.36	7.89	-42.9	-54.8	6.0	6.87e-01	80	57	0	0	57	14076
2026-01-24 00:00:13.65	36.48	7.96	-42.7	-52.2	8.5	6.38e-01	14	57	0	1572864	57	10523
2026-01-24 00:00:14.66	36.60	8.02	-42.3	-50.3	10.5	6.21e-01	0	57	0	3670016	56	8873
2026-01-24 00:00:15.67	36.73	8.09	-42.0	-48.3	12.8	6.05e-01	0	57	0	5767168	56	7061
2026-01-24 00:00:16.68	36.85	8.15	-42.4	-48.7	13.1	6.04e-01	0	57	0	7340032	55	7851
2026-01-24 00:00:17.69	36.98	8.22	-41.6	-47.5	13.8	6.03e-01	0	57	0	9437184	54	7244
2026-01-24 00:00:18.70	37.10	8.29	-42.5	-55.8	5.6	7.04e-01	65	58	0	11010048	55	17780
2026-01-24 00:00:19.71	37.23	8.35	-42.1	-47.2	14.4	6.04e-01	0	58	0	11534336	55	6626
2026-01-24 00:00:20.72	37.36	8.42	-42.5	-48.2	13.6	6.05e-01	0	58	0	13107200	57	6592
2026-01-24 00:00:21.73	37.48	8.49	-42.2	-47.4	14.5	6.02e-01	0	58	0	15204352	56	6359
2026-01-24 00:00:22.74	37.61	8.55	-42.2	-47.4	14.4	6.02e-01	0	58	0	16777216	56	6386
2026-01-24 00:00:23.75	37.74	8.62	-42.2	-47.1	14.8	6.03e-01	0	58	0	18874368	56	6176
2026-01-24 00:00:24.76	37.87	8.68	-42.3	-47.4	14.7	6.02e-01	0	58	0	20971520	56	6350
2026-01-24 00:00:25.76	38.00	8.75	-42.1	-46.9	15.2	6.02e-01	0	58	0	22544384	56	5999
2026-01-24 00:00:26.77	38.13	8.82	-41.7	-46.2	15.7	6.05e-01	0	58	0	24641536	55	5906
2026-01-24 00:00:27.78	38.26	8.88	-41.9	-46.5	15.5	6.04e-01	0	58	0	26214400	55	6074
2026-01-24 00:00:28.79	38.39	8.95	-41.8	-46.3	15.6	6.01e-01	0	58	0	28311552	55	5980
2026-01-24 00:00:29.80	38.53	9.02	-41.8	-46.2	15.7	6.04e-01	0	58	0	30408704	55	5902
2026-01-24 00:00:30.81	38.66	9.09	-41.8	-46.3	15.7	6.03e-01	0	58	0	31981568	55	5959
2026-01-24 00:00:31.82	38.79	9.15	-41.8	-46.1	15.9	6.02e-01	0	58	0	34078720	55	5844
2026-01-24 00:00:32.83	38.93	9.22	-42.0	-46.5	15.5	6.05e-01	0	58	0	36175872	55	6101
2026-01-24 00:00:33.84	39.06	9.29	-41.7	-45.9	16.2	6.02e-01	0	58	0	37748736	55	5689
2026-01-24 00:00:34.85	39.20	9.35	-41.9	-46.2	16.0	6.03e-01	0	58	0	39845888	55	5878
2026-01-24 00:00:35.86	39.33	9.42	-41.9	-46.0	16.2	6.05e-01	0	58	0	41418752	55	5784
2026-01-24 00:00:36.87	39.47	9.49	-41.8	-45.9	16.4	6.01e-01	0	58	0	43515904	55	5714
2026-01-24 00:00:37.88	39.61	9.56	-41.9	-46.1	16.2	6.04e-01	0	58	0	45613056	55	5821
2026-01-24 00:00:38.89	39.75	9.62	-41.9	-46.0	16.4	6.02e-01	0	58	0	47185920	55	5773
2026-01-24 00:00:39.90	39.89	9.69	-41.9	-45.9	16.5	6.04e-01	0	58	0	49283072	55	5714
2026-01-24 00:00:40.91	40.03	9.76	-41.9	-45.9	16.5	6.03e-01	0	58	0	50855936	55	5689
2026-01-24 00:00:41.92	40.17	9.83	-41.9	-45.9	16.4	6.01e-01	0	58	0	52953088	55	5720
2026-01-24 00:00:42.93	40.31	9.90	-41.9	-45.9	16.4	6.03e-01	0	58	0	55050240	55	5694
2026-01-24 00:00:43.94	40.45	9.96	-41.9	-45.9	16.4	6.01e-01	0	58	0	56623104	55	5702
2026-01-24 00:00:44.95	40.59	10.03	-41.8	-45.8	16.5	6.04e-01	0	58	0	58720256	55	5647
2026-01-24 00:00:45.96	40.73	10.10	-41.9	-45.9	16.5	6.03e-01	0	58	0	60817408	55	5674
2026-01-24 00:00:46.97	40.88	10.17	-41.9	-45.9	16.4	6.03e-01	0	59	0	62390272	55	5711
2026-01-24 00:00:47.98	41.02	10.24	-41.9	-45.9	16.4	6.02e-01	0	58	0	64487424	55	5714
2026-01-24 00:00:48.99	41.17	10.30	-41.9	-45.9	16.4	6.03e-01	0	59	0	66060288	55	5679
2026-01-24 00:00:50.00	41.31	10.37	-41.9	-45.8	16.5	6.02e-01	0	58	0	68157440	55	5649
2026-01-24 00:00:51.01	41.46	10.44	-41.9	-45.8	16.7	6.03e-01	0	58	0	70254592	55	5608
2026-01-24 00:00:52.02	41.61	10.51	-41.8	-45.6	16.9	6.02e-01	0	58	0	71827456	55	5511
2026-01-24 00:00:53.03	41.76	10.58	-41.7	-45.5	17.0	6.01e-01	0	59	0	73924608	55	5415
2026-01-24 00:00:54.04	41.91	10.65	-41.8	-45.5	17.1	6.03e-01	0	58	0	75497472	55	5430
2026-01-24 00:00:55.04	42.05	10.71	-41.8	-45.5	17.1	6.01e-01	0	58	0	77594624	55	5451
2026-01-24 00:00:56.05	42.20	10.78	-41.8	-45.5	17.2	6.03e-01	0	58	0	79691776	55	5423
2026-01-24 00:00:57.06	42.36	10.85	-41.8	-45.6	17.1	6.00e-01	0	59	0	81264640	55	5505
2026-01-24 00:00:58.07	42.51	10.92	-41.9	-45.7	17.0	6.05e-01	0	59	0	83361792	55	5574
2026-01-24 00:00:59.08	42.66	10.99	-41.8	-45.5	17.1	6.04e-01	0	59	0	84934656	55	5433
2026-01-24 00:01:00.09	42.81	11.06	-41.7	-45.3	17.2	6.02e-01	0	59	0	87031808	55	5310
2026-01-24 00:01:01.10	42.97	11.13	-41.6	-45.3	17.2	6.02e-01	0	59	0	89128960	55	5287
2026-01-24 00:01:02.11	43.12	11.20	-41.7	-45.4	17.1	6.03e-01	0	59	0	90701824	55	5365
2026-01-24 00:01:03.12	43.28	11.27	-41.7	-45.4	17.0	6.03e-01	0	58	0	92798976	55	5376
2026-01-24 00:01:04.13	43.43	11.33	-41.7	-45.4	17.1	6.05e-01	0	59	0	94371840	55	5350
2026-01-24 00:01:05.14	43.59	11.40	-41.7	-45.4	17.1	6.01e-01	0	59	0	96468992	55	5372
2026-01-24 00:01:06.15	43.75	11.47	-41.7	-45.3	17.2	6.04e-01	0	59	0	98566144	55	5309
2026-01-24 00:01:07.16	43.91	11.54	-41.7	-45.3	17.3	6.01e-01	0	58	0	100139008	55	5284
2026-01-24 00:01:08.17	44.07	11.61	-41.6	-45.1	17.5	6.02e-01	0	59	0	102236160	55	5188
2026-01-24 00:01:09.18	44.23	11.68	-41.6	-45.1	17.5	6.02e-01	0	59	0	104333312	55	5206
2026-01-24 00:01:10.19	44.39	11.75	-41.7	-45.2	17.5	6.02e-01	0	59	0	105906176	55	5249
2026-01-24 00:01:11.20	44.55	11.82	-41.7	-45.3	17.4	6.04e-01	0	59	0	108003328	55	5284
2026-01-24 00:01:12.21	44.71	11.89	-41.7	-45.2	17.5	6.01e-01	0	59	0	109576192	55	5273
2026-01-24 00:01:13.22	44.88	11.96	-41.7	-45.2	17.6	6.02e-01	0	59	0	111673344	55	5246
2026-01-24 00:01:14.23	45.04	12.03	-41.6	-45.1	17.7	6.03e-01	0	59	0	113770496	55	5189
2026-01-24 00:01:15.24	45.21	12.10	-41.6	-45.1	17.7	6.02e-01	0	59	0	115343360	55	5167
2026-01-24 00:01:16.25	45.37	12.17	-41.7	-45.2	17.7	6.02e-01	0	59	0	117440512	55	5252
2026-01-24 00:01:17.25	45.54	12.23	-41.7	-45.2	17.6	6.03e-01	0	59	0	119013376	55	5260
2026-01-24 00:01:18.26	45.70	12.30	-41.7	-45.2	17.7	6.03e-01	0	59	0	121110528	55	5236
2026-01-24 00:01:19.27	45.87	12.37	-41.7	-45.2	17.7	6.02e-01	0	59	0	123207680	55	5271
2026-01-24 00:01:20.28	46.04	12.44	-41.7	-45.2	17.7	6.03e-01	0	59	0	124780544	55	5240
2026-01-24 00:01:21.29	46.21	12.51	-41.7	-45.2	17.7	6.04e-01	0	59	0	126877696	55	5241
2026-01-24 00:01:22.30	46.38	12.58	-41.7	-45.2	17.7	6.02e-01	0	59	0	128974848	55	5273
2026-01-24 00:01:23.31	46.55	12.65	-41.8	-45.3	17.6	6.02e-01	0	59	0	130547712	55	5331
2026-01-24 00:01:24.32	46.73	12.72	-41.8	-45.3	17.6	6.04e-01	0	59	0	132644864	55	5330
2026-01-24 00:01:25.33	46.90	12.79	-41.7	-45.2	17.6	6.02e-01	0	59	0	134217728	55	5248
2026-01-24 00:01:26.35	47.08	12.86	-41.6	-44.9	18.0	6.04e-01	0	59	0	136314880	55	5084
2026-01-24 00:01:27.35	47.25	12.93	-41.5	-44.9	18.1	6.02e-01	0	59	0	138412032	55	5052
2026-01-24 00:01:28.36	47.43	13.00	-41.5	-44.9	18.1	6.01e-01	0	59	0	139984896	54	5351
2026-01-24 00:01:29.37	47.60	13.07	-41.6	-45.0	17.9	6.04e-01	0	59	0	142082048	54	5435
2026-01-24 00:01:30.39	47.78	13.14	-41.7	-45.1	17.9	6.02e-01	0	59	0	143654912	54	5494
2026-01-24 00:01:31.40	47.96	13.21	-41.7	-45.2	17.8	6.02e-01	0	59	0	145752064	54	5554
2026-01-24 00:01:32.40	48.14	13.28	-41.7	-45.1	17.9	6.02e-01	0	59	0	147849216	54	5521
2026-01-24 00:01:33.41	48.32	13.35	-41.7	-45.1	17.9	6.02e-01	0	59	0	149422080	54	5499
2026-01-24 00:01:34.42	48.50	13.42	-41.7	-45.2	17.8	6.04e-01	0	59	0	151519232	54	5532
2026-01-24 00:01:35.43	48.68	13.48	-41.6	-45.0	18.0	6.01e-01	0	59	0	153092096	54	5436
2026-01-24 00:01:36.44	48.87	13.55	-41.6	-44.9	18.1	6.02e-01	0	59	0	155189248	54	5372
2026-01-24 00:01:37.45	49.05	13.62	-41.5	-44.9	18.1	6.02e-01	0	59	0	157286400	54	5355
2026-01-24 00:01:38.46	49.24	13.69	-41.6	-44.9	18.1	6.02e-01	0	59	0	158859264	54	5397
2026-01-24 00:01:39.47	49.42	13.76	-41.6	-45.0	18.0	6.03e-01	0	59	0	160956416	54	5432
2026-01-24 00:01:40.48	49.61	13.83	-41.7	-45.1	18.0	6.02e-01	0	59	0	162529280	54	5466
2026-01-24 00:01:41.49	49.80	13.90	-41.5	-44.8	18.2	6.01e-01	0	59	0	164626432	54	5328
2026-01-24 00:01:42.50	49.98	13.97	-41.5	-44.8	18.2	6.03e-01	0	59	0	166723584	54	5309
2026-01-24 00:01:43.51	50.17	14.04	-41.6	-44.9	18.1	6.02e-01	0	59	0	168296448	54	5348
2026-01-24 00:01:44.52	50.36	14.11	-41.6	-44.9	18.1	6.04e-01	0	59	0	170393600	54	5363
2026-01-24 00:01:45.53	50.56	14.18	-41.6	-44.9	18.2	5.99e-01	0	59	0	172490752	54	5355
2026-01-24 00:01:46.53	50.75	14.24	-41.6	-44.8	18.2	6.04e-01	0	59	0	174063616	54	5336
2026-01-24 00:01:47.54	50.94	14.31	-41.5	-44.7	18.3	6.03e-01	0	59	0	176160768	54	5277
2026-01-24 00:01:48.55	51.13	14.38	-41.5	-44.7	18.3	6.02e-01	0	59	0	177733632	54	5254
2026-01-24 00:01:49.56	51.33	14.45	-41.5	-44.7	18.3	6.02e-01	0	59	0	179830784	54	5269
2026-01-24 00:01:50.57	51.52	14.52	-41.5	-44.8	18.2	6.04e-01	0	59	0	181927936	54	5315
2026-01-24 00:01:51.58	51.72	14.59	-41.5	-44.8	18.2	6.03e-01	0	59	0	183500800	54	5307
2026-01-24 00:01:52.59	51.92	14.65	-41.5	-44.7	18.4	6.03e-01	0	59	0	185597952	54	5263
2026-01-24 00:01:53.60	52.12	14.72	-41.4	-44.6	18.4	6.02e-01	0	59	0	187170816	54	5214
2026-01-24 00:01:54.61	52.32	14.79	-41.5	-44.7	18.4	6.02e-01	0	59	0	189267968	54	5250
2026-01-24 00:01:55.62	52.52	14.86	-41.5	-44.7	18.4	6.04e-01	0	59	0	191365120	54	5254
2026-01-24 00:01:56.63	52.72	14.93	-41.5	-44.7	18.3	6.02e-01	0	60	0	192937984	54	5248
2026-01-24 00:01:57.64	52.92	15.00	-41.5	-44.8	18.3	6.02e-01	0	60	0	195035136	54	5288
2026-01-24 00:01:58.65	53.13	15.06	-41.5	-44.7	18.4	6.01e-01	0	60	0	197132288	54	5261
2026-01-24 00:01:59.66	53.33	15.13	-41.5	-44.8	18.4	6.01e-01	0	59	0	198705152	54	5287
2026-01-24 00:02:00.67	53.54	15.20	-41.5	-44.7	18.4	6.04e-01	0	59	0	200802304	54	5250
2026-01-24 00:02:01.68	53.74	15.27	-41.5	-44.7	18.4	6.01e-01	0	59	0	202375168	54	5267
2026-01-24 00:02:02.69	53.95	15.33	-41.6	-44.9	18.3	6.00e-01	0	59	0	204472320	54	5349
2026-01-24 00:02:03.70	54.16	15.40	-41.5	-44.8	18.3	6.02e-01	0	59	0	206569472	54	5313
2026-01-24 00:02:04.71	54.37	15.47	-41.5	-44.7	18.4	6.02e-01	0	59	0	208142336	54	5236
2026-01-24 00:02:05.72	54.58	15.53	-41.5	-44.7	18.4	6.03e-01	0	59	0	210239488	54	5229
2026-01-24 00:02:06.73	54.79	15.60	-41.6	-44.8	18.3	6.03e-01	0	60	0	211812352	54	5336
2026-01-24 00:02:07.74	55.00	15.67	-41.5	-44.7	18.4	6.00e-01	0	60	0	213909504	54	5253
2026-01-24 00:02:08.75	55.22	15.73	-41.5	-44.7	18.5	6.03e-01	0	59	0	216006656	54	5220
2026-01-24 00:02:09.76	55.43	15.80	-41.3	-44.5	18.6	6.03e-01	0	59	0	217579520	54	5110
2026-01-24 00:02:10.77	55.65	15.87	-41.4	-44.6	18.5	6.02e-01	0	60	0	219676672	54	5178
2026-01-24 00:02:11.78	55.86	15.93	-41.5	-44.7	18.4	6.02e-01	0	59	0	221249536	54	5239
2026-01-24 00:02:12.79	56.08	16.00	-41.5	-44.7	18.4	6.05e-01	0	60	0	223346688	54	5265
2026-01-24 00:02:13.79	56.30	16.06	-41.5	-44.7	18.5	6.01e-01	0	60	0	225443840	54	5224
2026-01-24 00:02:14.80	56.52	16.13	-41.4	-44.6	18.6	6.03e-01	0	60	0	227016704	54	5170
2026-01-24 00:02:15.81	56.74	16.19	-41.5	-44.7	18.5	6.01e-01	0	60	0	229113856	54	5232
2026-01-24 00:02:16.82	56.96	16.26	-41.5	-44.7	18.5	6.00e-01	0	60	0	230686720	54	5237
2026-01-24 00:02:17.83	57.18	16.32	-41.5	-44.8	18.3	6.01e-01	0	59	0	232783872	54	5308
2026-01-24 00:02:18.84	57.40	16.39	-41.5	-44.8	18.3	6.03e-01	0	60	0	234881024	54	5297
2026-01-24 00:02:19.85	57.63	16.45	-41.5	-44.7	18.4	6.02e-01	0	60	0	236453888	54	5258
2026-01-24 00:02:20.86	57.85	16.52	-41.5	-44.7	18.4	6.03e-01	0	60	0	238551040	54	5278
2026-01-24 00:02:21.87	58.08	16.58	-41.5	-44.7	18.4	6.03e-01	0	60	0	240648192	54	5270
2026-01-24 00:02:22.88	58.31	16.64	-41.4	-44.6	18.5	6.03e-01	0	60	0	242221056	54	5216
2026-01-24 00:02:23.89	58.54	16.71	-41.5	-44.7	18.5	6.04e-01	0	60	0	244318208	54	5232
2026-01-24 00:02:24.90	58.77	16.77	-41.5	-44.6	18.5	6.04e-01	0	60	0	245891072	54	5218
2026-01-24 00:02:25.91	59.00	16.83	-41.4	-44.6	18.6	5.98e-01	0	60	0	247988224	54	5182
2026-01-24 00:02:26.92	59.23	16.90	-41.6	-44.9	18.4	5.99e-01	0	60	0	250085376	54	5357
2026-01-24 00:02:27.93	59.46	16.96	-41.5	-44.7	18.4	6.01e-01	0	60	0	251658240	54	5272
2026-01-24 00:02:28.94	59.69	17.02	-41.6	-44.8	18.3	6.03e-01	0	60	0	253755392	54	5334
2026-01-24 00:02:29.95	59.93	17.08	-41.6	-44.8	18.3	6.02e-01	0	60	0	255328256	54	5322
2026-01-24 00:02:30.96	60.16	17.15	-41.5	-44.7	18.5	6.01e-01	0	60	0	257425408	54	5229
2026-01-24 00:02:31.97	60.40	17.21	-41.4	-44.6	18.6	6.02e-01	0	60	0	259522560	54	5170
2026-01-24 00:02:32.98	60.64	17.27	-41.5	-44.6	18.5	6.00e-01	0	60	0	261095424	54	5215
2026-01-24 00:02:33.99	60.88	17.33	-41.5	-44.7	18.4	6.02e-01	0	60	0	263192576	54	5252
2026-01-24 00:02:35.00	61.12	17.39	-41.5	-44.8	18.4	6.02e-01	0	60	0	265289728	54	5286
2026-01-24 00:02:36.00	61.35	17.45	-41.5	-44.8	18.3	6.02e-01	0	60	0	266862592	54	5293
2026-01-24 00:02:37.01	61.60	17.51	-41.5	-44.7	18.4	6.04e-01	0	60	0	268959744	54	5274
2026-01-24 00:02:38.02	61.84	17.57	-41.5	-44.6	18.5	6.05e-01	0	60	0	270532608	54	5209
2026-01-24 00:02:39.03	62.08	17.63	-41.5	-44.6	18.5	6.03e-01	0	60	0	272629760	54	5209
2026-01-24 00:02:40.04	62.33	17.69	-41.5	-44.7	18.5	6.02e-01	0	60	0	274726912	54	5239
2026-01-24 00:02:41.05	62.57	17.75	-41.5	-44.7	18.5	6.02e-01	0	60	0	276299776	54	5234
2026-01-24 00:02:42.06	62.82	17.81	-41.6	-44.8	18.3	6.02e-01	0	60	0	278396928	54	5316
2026-01-24 00:02:43.07	63.07	17.86	-41.6	-44.8	18.3	6.04e-01	0	60	0	279969792	54	5337
2026-01-24 00:02:44.08	63.32	17.92	-41.5	-44.7	18.5	6.01e-01	0	60	0	282066944	54	5236
2026-01-24 00:02:45.09	63.56	17.98	-41.5	-44.7	18.4	6.00e-01	0	60	0	284164096	54	5276
2026-01-24 00:02:46.10	63.82	18.04	-41.5	-44.7	18.4	6.04e-01	0	60	0	285736960	54	5237
2026-01-24 00:02:47.11	64.07	18.09	-41.6	-44.8	18.3	6.01e-01	0	60	0	287834112	54	5335
2026-01-24 00:02:48.12	64.32	18.15	-41.4	-44.6	18.5	6.03e-01	0	60	0	289406976	54	5206
2026-01-24 00:02:49.12	64.57	18.21	-41.4	-44.6	18.6	6.05e-01	0	60	0	291504128	54	5165
2026-01-24 00:02:50.13	64.82	18.26	-41.4	-44.6	18.4	6.03e-01	0	60	0	293601280	54	5210
2026-01-24 00:02:51.14	65.08	18.32	-41.6	-44.9	18.2	6.01e-01	0	60	0	295174144	54	5358
2026-01-24 00:02:52.15	65.34	18.37	-41.6	-44.9	18.2	6.00e-01	0	60	0	297271296	54	5369
2026-01-24 00:02:53.16	65.59	18.43	-41.6	-44.9	18.2	6.02e-01	0	60	0	298844160	54	5373
2026-01-24 00:02:54.17	65.85	18.48	-41.6	-44.9	18.1	6.03e-01	0	60	0	300941312	54	5393
2026-01-24 00:02:55.18	66.11	18.53	-41.6	-44.9	18.1	6.04e-01	0	60	0	303038464	54	5375
2026-01-24 00:02:56.19	66.37	18.59	-41.4	-44.6	18.4	6.02e-01	0	60	0	304611328	54	5215
2026-01-24 00:02:57.20	66.63	18.64	-41.5	-44.8	18.2	6.03e-01	0	60	0	306708480	54	5288
2026-01-24 00:02:58.21	66.90	18.69	-41.5	-44.9	18.1	6.02e-01	0	60	0	308805632	54	5368
2026-01-24 00:02:59.22	67.16	18.74	-41.5	-44.9	18.1	6.03e-01	0	60	0	310378496	54	5345
2026-01-24 00:03:00.23	67.42	18.79	-41.5	-44.8	18.0	6.01e-01	0	60	0	312475648	54	5337
2026-01-24 00:03:01.24	67.69	18.85	-41.5	-44.9	17.9	6.02e-01	0	60	0	314048512	54	5382
2026-01-24 00:03:02.25	67.95	18.90	-41.6	-45.1	17.8	6.03e-01	0	60	0	316145664	54	5477
2026-01-24 00:03:03.26	68.22	18.95	-41.5	-45.1	17.7	6.03e-01	0	60	0	318242816	54	5472
2026-01-24 00:03:04.27	68.49	19.00	-41.6	-45.2	17.5	6.01e-01	0	60	0	319815680	54	5558
2026-01-24 00:03:05.28	68.76	19.04	-41.6	-45.2	17.4	6.01e-01	0	60	0	321912832	54	5574
2026-01-24 00:03:06.29	69.03	19.09	-41.7	-45.4	17.2	6.02e-01	0	60	0	323485696	54	5718
2026-01-24 00:03:07.30	69.30	19.14	-41.6	-45.3	17.3	6.02e-01	0	60	0	325582848	54	5637
2026-01-24 00:03:08.31	69.57	19.19	-41.6	-45.3	17.2	6.02e-01	0	60	0	327680000	54	5650
2026-01-24 00:03:09.32	69.84	19.24	-41.6	-45.4	17.1	6.03e-01	0	60	0	329252864	54	5708
2026-01-24 00:03:10.33	70.11	19.28	-41.6	-45.5	17.0	6.03e-01	0	60	0	331350016	54	5728
2026-01-24 00:03:11.33	70.38	19.33	-41.7	-45.6	16.8	6.03e-01	0	60	0	332922880	54	5853
2026-01-24 00:03:12.34	70.66	19.37	-41.8	-46.0	16.4	6.02e-01	0	60	0	335020032	54	6067
2026-01-24 00:03:13.35	70.93	19.42	-41.9	-46.2	16.0	6.02e-01	0	60	0	337117184	54	6246
2026-01-24 00:03:14.36	71.21	19.46	-41.9	-46.5	15.7	6.03e-01	0	60	0	338690048	54	6440
2026-01-24 00:03:15.37	71.49	19.51	-41.9	-46.3	15.8	6.00e-01	0	60	0	340787200	54	6319
2026-01-24 00:03:16.38	71.77	19.55	-41.8	-46.4	15.7	6.02e-01	0	60	0	342360064	54	6361
2026-01-24 00:03:17.39	72.05	19.59	-41.8	-46.4	15.6	6.03e-01	0	60	0	344457216	54	6408
2026-01-24 00:03:18.40	72.33	19.64	-41.8	-46.3	15.7	6.02e-01	0	60	0	346554368	54	6328
2026-01-24 00:03:19.41	72.61	19.68	-41.9	-46.5	15.6	6.02e-01	0	60	0	348127232	54	6448
2026-01-24 00:03:20.42	72.89	19.72	-41.9	-46.6	15.4	6.02e-01	0	60	0	350224384	54	6548
2026-01-24 00:03:21.43	73.17	19.76	-42.0	-46.6	15.4	6.03e-01	0	60	0	351797248	54	6553
2026-01-24 00:03:22.44	73.45	19.80	-42.0	-46.6	15.5	6.02e-01	0	60	0	353894400	54	6569
2026-01-24 00:03:23.45	73.74	19.84	-41.9	-46.5	15.6	6.03e-01	0	60	0	355991552	54	6451
2026-01-24 00:03:24.46	74.02	19.88	-41.9	-46.4	15.6	6.02e-01	0	60	0	357564416	54	6382
2026-01-24 00:03:25.46	74.30	19.92	-41.8	-46.3	15.7	6.03e-01	0	60	0	359661568	54	6318
2026-01-24 00:03:26.47	74.59	19.95	-41.7	-46.1	15.8	6.02e-01	0	60	0	361758720	54	6179
2026-01-24 00:03:27.48	74.88	19.99	-41.7	-46.1	15.9	6.03e-01	0	60	0	363331584	54	6162
2026-01-24 00:03:28.49	75.16	20.03	-41.8	-46.2	15.9	6.03e-01	0	60	0	365428736	54	6212
2026-01-24 00:03:29.50	75.45	20.06	-41.8	-46.1	16.0	6.01e-01	0	60	0	367001600	54	6198
2026-01-24 00:03:30.51	75.74	20.10	-41.9	-46.2	16.1	6.01e-01	0	60	0	369098752	54	6219
2026-01-24 00:03:31.52	76.03	20.13	-41.9	-46.3	16.0	6.02e-01	0	60	0	371195904	54	6290
2026-01-24 00:03:32.53	76.32	20.16	-42.0	-46.4	15.9	6.00e-01	0	60	0	372768768	54	6356
2026-01-24 00:03:33.54	76.61	20.20	-42.0	-46.5	15.7	6.03e-01	0	60	0	374865920	54	6442
2026-01-24 00:03:34.55	76.90	20.23	-41.9	-46.3	15.9	6.04e-01	0	60	0	376963072	54	6282
2026-01-24 00:03:35.56	77.19	20.26	-41.8	-46.0	16.1	6.02e-01	0	60	0	378535936	54	6121
2026-01-24 00:03:36.57	77.49	20.29	-41.9	-46.2	16.0	6.05e-01	0	60	0	380633088	54	6223
2026-01-24 00:03:37.58	77.78	20.32	-41.8	-46.0	16.3	6.02e-01	0	60	0	382205952	54	6089
2026-01-24 00:03:38.59	78.07	20.35	-41.9	-45.9	16.5	6.01e-01	0	60	0	384303104	54	6041
2026-01-24 00:03:39.60	78.37	20.38	-41.9	-46.0	16.5	6.02e-01	0	60	0	386400256	54	6097
2026-01-24 00:03:40.61	78.66	20.41	-42.0	-46.2	16.3	6.02e-01	0	60	0	387973120	54	6260
2026-01-24 00:03:41.62	78.96	20.44	-42.1	-46.3	16.2	6.04e-01	0	60	0	390070272	54	6290
2026-01-24 00:03:42.62	79.25	20.47	-42.1	-46.3	16.2	6.02e-01	0	60	0	391643136	54	6292
2026-01-24 00:03:43.63	79.55	20.49	-42.0	-46.3	16.2	6.01e-01	0	60	0	393740288	54	6316
2026-01-24 00:03:44.64	79.85	20.52	-41.9	-46.1	16.3	6.02e-01	0	61	0	395837440	54	6165
2026-01-24 00:03:45.65	80.14	20.54	-41.8	-45.9	16.5	6.04e-01	0	60	0	397410304	54	6004
2026-01-24 00:03:46.66	80.44	20.57	-41.8	-45.8	16.7	6.01e-01	0	60	0	399507456	54	5950
2026-01-24 00:03:47.67	80.74	20.59	-41.8	-45.7	16.8	6.03e-01	0	60	0	401080320	54	5922
2026-01-24 00:03:48.68	81.04	20.61	-41.8	-45.7	16.9	6.02e-01	0	60	0	403177472	54	5892
2026-01-24 00:03:49.69	81.34	20.63	-41.9	-45.9	16.7	6.03e-01	0	60	0	405274624	54	5994
2026-01-24 00:03:50.70	81.64	20.66	-41.9	-45.9	16.7	6.02e-01	0	61	0	406847488	54	6004
2026-01-24 00:03:51.71	81.94	20.68	-41.9	-45.8	16.9	6.03e-01	0	60	0	408944640	54	5953
2026-01-24 00:03:52.72	82.24	20.70	-41.9	-45.9	16.8	6.02e-01	0	60	0	410517504	54	6005
2026-01-24 00:03:53.73	82.54	20.71	-41.8	-45.6	17.0	6.01e-01	0	60	0	412614656	54	5838
2026-01-24 00:03:54.74	82.85	20.73	-41.7	-45.5	17.1	6.03e-01	0	60	0	414711808	54	5754
2026-01-24 00:03:55.75	83.15	20.75	-41.7	-45.5	17.0	6.02e-01	0	60	0	416284672	54	5777
2026-01-24 00:03:56.76	83.45	20.77	-41.7	-45.5	16.9	6.02e-01	0	61	0	418381824	54	5779
2026-01-24 00:03:57.77	83.75	20.78	-41.7	-45.6	16.8	6.04e-01	0	61	0	419954688	54	5837
2026-01-24 00:03:58.78	84.06	20.80	-41.7	-45.7	16.7	6.00e-01	0	60	0	422051840	54	5873
2026-01-24 00:03:59.79	84.36	20.81	-41.7	-45.8	16.6	6.01e-01	0	60	0	424148992	54	5943
2026-01-24 00:04:00.79	84.66	20.83	-41.7	-45.9	16.4	6.03e-01	0	61	0	425721856	54	6001
2026-01-24 00:04:01.80	84.97	20.84	-41.8	-46.0	16.4	6.01e-01	0	60	0	427819008	54	6077
2026-01-24 00:04:02.81	85.27	20.85	-41.9	-46.2	16.2	6.03e-01	0	60	0	429916160	54	6242
2026-01-24 00:04:03.82	85.57	20.86	-41.9	-46.1	16.3	6.03e-01	0	60	0	431489024	54	6188
2026-01-24 00:04:04.83	85.88	20.87	-41.9	-46.0	16.4	6.03e-01	0	60	0	433586176	54	6101
2026-01-24 00:04:05.84	86.18	20.88	-41.9	-46.0	16.4	6.01e-01	0	60	0	435159040	54	6128
2026-01-24 00:04:06.85	86.49	20.89	-41.8	-45.9	16.6	6.03e-01	0	60	0	437256192	54	5998
2026-01-24 00:04:07.86	86.80	20.90	-41.8	-45.9	16.5	6.01e-01	0	61	0	439353344	54	6058
2026-01-24 00:04:08.87	87.10	20.91	-41.9	-46.0	16.5	6.01e-01	0	60	0	440926208	54	6091
2026-01-24 00:04:09.88	87.41	20.92	-41.9	-45.9	16.7	6.03e-01	0	61	0	443023360	54	6036
2026-01-24 00:04:10.89	87.71	20.92	-41.9	-45.9	16.7	6.03e-01	0	60	0	445120512	54	5994
2026-01-24 00:04:11.90	88.02	20.93	-41.9	-46.0	16.6	5.99e-01	0	61	0	446693376	54	6076
2026-01-24 00:04:12.91	88.32	20.93	-41.9	-45.9	16.7	6.03e-01	0	61	0	448790528	54	6037
2026-01-24 00:04:13.92	88.63	20.93	-41.9	-45.8	16.9	6.01e-01	0	60	0	450363392	54	5930
2026-01-24 00:04:14.93	88.94	20.94	-41.9	-45.7	17.0	6.03e-01	0	61	0	452460544	54	5893
2026-01-24 00:04:15.94	89.24	20.94	-41.9	-45.7	17.1	6.03e-01	0	60	0	454557696	54	5878
2026-01-24 00:04:16.95	89.55	20.94	-41.8	-45.6	17.2	6.03e-01	0	60	0	456130560	54	5789
2026-01-24 00:04:17.96	89.86	20.94	-41.8	-45.5	17.3	6.03e-01	0	61	0	458227712	54	5740
2026-01-24 00:04:18.97	90.16	20.94	-41.9	-45.6	17.3	6.01e-01	0	60	0	459800576	54	5800
2026-01-24 00:04:19.98	90.47	20.94	-41.9	-45.5	17.4	6.01e-01	0	60	0	461897728	54	5749
2026-01-24 00:04:20.99	90.78	20.94	-42.0	-45.6	17.4	6.03e-01	0	60	0	463994880	54	5822
2026-01-24 00:04:22.00	91.08	20.93	-42.0	-45.7	17.4	6.03e-01	0	60	0	465567744	54	5861
2026-01-24 00:04:23.01	91.39	20.93	-41.8	-45.3	17.7	6.03e-01	0	60	0	467664896	54	5643
2026-01-24 00:04:24.02	91.70	20.93	-41.9	-45.3	17.8	6.01e-01	0	61	0	469237760	54	5652
2026-01-24 00:04:25.03	92.00	20.92	-41.8	-45.3	17.9	6.02e-01	0	61	0	471334912	54	5595
2026-01-24 00:04:26.03	92.30	20.92	-41.8	-45.2	17.9	6.05e-01	0	60	0	473432064	54	5592
2026-01-24 00:04:27.04	92.61	20.91	-41.8	-45.2	18.0	6.03e-01	0	60	0	475004928	54	5562
2026-01-24 00:04:28.05	92.92	20.90	-41.8	-45.1	18.1	6.02e-01	0	60	0	477102080	54	5509
2026-01-24 00:04:29.06	93.22	20.89	-41.9	-45.2	18.0	6.03e-01	0	60	0	478674944	54	5589
2026-01-24 00:04:30.07	93.53	20.88	-41.7	-45.0	18.2	6.01e-01	0	61	0	480772096	54	5427
2026-01-24 00:04:31.08	93.83	20.87	-41.8	-45.1	18.2	6.02e-01	0	61	0	482869248	54	5479
2026-01-24 00:04:32.09	94.14	20.86	-41.8	-45.1	18.2	6.02e-01	0	61	0	484442112	54	5484
2026-01-24 00:04:33.10	94.44	20.85	-41.7	-45.0	18.3	6.02e-01	0	60	0	486539264	54	5436
2026-01-24 00:04:34.11	94.75	20.84	-41.9	-45.2	18.1	6.02e-01	0	61	0	488112128	54	5568
2026-01-24 00:04:35.12	95.05	20.83	-41.8	-45.2	18.1	6.04e-01	0	61	0	490209280	54	5548
2026-01-24 00:04:36.13	95.36	20.81	-41.8	-45.0	18.3	6.02e-01	0	61	0	492306432	54	5463
2026-01-24 00:04:37.14	95.66	20.80	-41.9	-45.2	18.2	6.03e-01	0	61	0	493879296	54	5539
2026-01-24 00:04:38.15	95.96	20.78	-41.8	-45.1	18.2	6.02e-01	0	60	0	495976448	54	5487
2026-01-24 00:04:39.16	96.27	20.77	-41.8	-45.1	18.2	6.02e-01	0	61	0	498073600	54	5523
2026-01-24 00:04:40.17	96.57	20.75	-41.8	-45.1	18.2	6.00e-01	0	60	0	499646464	54	5521
2026-01-24 00:04:41.18	96.87	20.73	-41.8	-45.1	18.2	6.02e-01	0	60	0	501743616	54	5499
2026-01-24 00:04:42.19	97.18	20.72	-41.8	-45.1	18.2	5.99e-01	0	61	0	503316480	54	5492
2026-01-24 00:04:43.20	97.48	20.70	-41.9	-45.2	18.2	6.03e-01	0	61	0	505413632	54	5553
2026-01-24 00:04:44.20	97.78	20.68	-41.9	-45.2	18.1	6.02e-01	0	61	0	507510784	54	5587
2026-01-24 00:04:45.21	98.08	20.66	-41.8	-45.1	18.2	6.02e-01	0	61	0	509083648	54	5524
2026-01-24 00:04:46.22	98.38	20.64	-41.8	-45.0	18.4	6.01e-01	0	60	0	511180800	54	5431
2026-01-24 00:04:47.23	98.68	20.61	-41.7	-44.9	18.4	6.01e-01	0	61	0	512753664	54	5380
2026-01-24 00:04:48.24	98.98	20.59	-41.8	-45.1	18.3	6.03e-01	0	61	0	514850816	54	5476
2026-01-24 00:04:49.25	99.28	20.57	-41.8	-45.1	18.2	6.02e-01	0	61	0	516947968	54	5527
2026-01-24 00:04:50.26	99.58	20.54	-41.8	-45.0	18.3	6.02e-01	0	61	0	518520832	54	5441
2026-01-24 00:04:51.27	99.87	20.52	-41.7	-44.9	18.4	6.03e-01	0	61	0	520617984	54	5387
2026-01-24 00:04:52.28	100.17	20.49	-41.8	-45.0	18.2	6.03e-01	0	60	0	522190848	54	5461
2026-01-24 00:04:53.29	100.47	20.47	-41.9	-45.2	18.1	6.04e-01	0	61	0	524288000	54	5579
2026-01-24 00:04:54.30	100.77	20.44	-41.9	-45.2	18.1	6.03e-01	0	61	0	526385152	54	5554
2026-01-24 00:04:55.31	101.06	20.41	-41.7	-45.1	18.2	6.00e-01	0	61	0	527958016	54	5501
2026-01-24 00:04:56.32	101.36	20.38	-41.9	-45.3	18.0	6.04e-01	0	61	0	530055168	54	5605
2026-01-24 00:04:57.32	101.65	20.35	-41.9	-45.3	18.0	6.02e-01	0	61	0	531628032	54	5640
2026-01-24 00:04:58.33	101.95	20.32	-41.8	-45.1	18.2	6.01e-01	0	61	0	533725184	54	5511
2026-01-24 00:04:59.34	102.24	20.29	-41.7	-45.0	18.4	6.01e-01	0	61	0	535822336	54	5431
2026-01-24 00:05:00.35	102.53	20.26	-41.7	-44.9	18.5	6.01e-01	0	61	0	537395200	54	5366
2026-01-24 00:05:01.36	102.83	20.23	-41.7	-44.9	18.5	6.01e-01	0	61	0	539492352	54	5393
2026-01-24 00:05:02.37	103.12	20.20	-41.8	-45.1	18.3	6.02e-01	0	61	0	541589504	54	5469
2026-01-24 00:05:03.38	103.41	20.17	-41.8	-45.2	18.2	6.03e-01	0	60	0	543162368	54	5542
2026-01-24 00:05:04.39	103.70	20.13	-41.7	-44.9	18.4	6.04e-01	0	61	0	545259520	54	5383
2026-01-24 00:05:05.40	103.99	20.10	-41.7	-44.9	18.4	6.02e-01	0	61	0	546832384	54	5393
2026-01-24 00:05:06.41	104.28	20.06	-41.7	-44.9	18.4	5.99e-01	0	61	0	548929536	54	5399
2026-01-24 00:05:07.42	104.57	20.03	-41.7	-45.0	18.4	6.04e-01	0	61	0	551026688	54	5405
2026-01-24 00:05:08.43	104.86	19.99	-41.7	-44.9	18.4	6.01e-01	0	61	0	552599552	54	5384
2026-01-24 00:05:09.44	105.15	19.95	-41.8	-45.0	18.3	6.03e-01	0	61	0	554696704	54	5458
2026-01-24 00:05:10.44	105.43	19.92	-41.8	-45.0	18.4	6.02e-01	0	61	0	556269568	54	5426
2026-01-24 00:05:11.45	105.72	19.88	-41.7	-44.9	18.5	6.04e-01	0	61	0	558366720	54	5354
2026-01-24 00:05:12.46	106.00	19.84	-41.7	-45.0	18.4	6.03e-01	0	61	0	560463872	54	5411
2026-01-24 00:05:13.47	106.29	19.80	-41.7	-44.9	18.4	6.04e-01	0	60	0	562036736	54	5366
2026-01-24 00:05:14.48	106.57	19.76	-41.7	-44.9	18.4	6.01e-01	0	61	0	564133888	54	5390
2026-01-24 00:05:15.49	106.85	19.72	-41.7	-45.0	18.3	6.01e-01	0	61	0	566231040	54	5437
2026-01-24 00:05:16.50	107.14	19.68	-41.7	-45.0	18.3	6.02e-01	0	61	0	567803904	54	5422
2026-01-24 00:05:17.51	107.42	19.63	-41.8	-45.0	18.3	6.02e-01	0	61	0	569901056	54	5451
2026-01-24 00:05:18.52	107.70	19.59	-41.7	-45.0	18.4	6.02e-01	0	61	0	571473920	54	5408
2026-01-24 00:05:19.53	107.98	19.55	-41.8	-45.0	18.3	6.02e-01	0	61	0	573571072	54	5458
2026-01-24 00:05:20.54	108.26	19.51	-41.7	-45.0	18.3	6.02e-01	0	61	0	575668224	54	5433
2026-01-24 00:05:21.55	108.54	19.46	-41.7	-45.0	18.4	6.00e-01	0	60	0	577241088	54	5410
2026-01-24 00:05:22.56	108.81	19.42	-41.7	-44.9	18.4	6.02e-01	0	61	0	579338240	54	5399
2026-01-24 00:05:23.57	109.09	19.37	-41.8	-45.1	18.2	6.01e-01	0	61	0	580911104	54	5492
2026-01-24 00:05:24.57	109.36	19.33	-41.8	-45.1	18.2	6.06e-01	0	61	0	583008256	54	5525
2026-01-24 00:05:25.59	109.64	19.28	-41.7	-45.0	18.4	6.01e-01	0	61	0	584581120	54	5410
2026-01-24 00:05:26.60	109.91	19.23	-41.7	-44.8	18.5	6.03e-01	0	61	0	586678272	54	5332
2026-01-24 00:05:27.61	110.19	19.19	-41.6	-44.8	18.5	6.03e-01	0	61	0	588775424	54	5323
2026-01-24 00:05:28.61	110.46	19.14	-41.7	-44.9	18.4	6.03e-01	0	61	0	590348288	54	5381
2026-01-24 00:05:29.62	110.73	19.09	-41.7	-44.9	18.4	6.03e-01	0	61	0	592445440	54	5393
2026-01-24 00:05:30.63	111.00	19.04	-41.7	-45.0	18.3	6.03e-01	0	61	0	594542592	54	5425
2026-01-24 00:05:31.64	111.27	18.99	-41.7	-45.0	18.3	6.03e-01	0	61	0	596115456	54	5411
2026-01-24 00:05:32.65	111.54	18.94	-41.7	-44.9	18.4	6.03e-01	0	61	0	598212608	54	5395
2026-01-24 00:05:33.66	111.81	18.89	-41.7	-44.9	18.4	6.02e-01	0	61	0	599785472	53	5704
2026-01-24 00:05:34.67	112.07	18.84	-41.7	-44.9	18.2	6.01e-01	0	61	0	601882624	53	5691
2026-01-24 00:05:35.68	112.34	18.79	-41.6	-44.9	18.4	6.03e-01	0	61	0	603979776	53	5667
2026-01-24 00:05:36.69	112.60	18.74	-41.7	-45.0	18.2	6.01e-01	0	61	0	605552640	53	5742
2026-01-24 00:05:37.70	112.87	18.69	-41.8	-45.1	18.1	6.05e-01	0	61	0	607649792	54	5485
2026-01-24 00:05:38.71	113.13	18.63	-41.7	-45.0	18.2	6.03e-01	0	61	0	609746944	54	5442
2026-01-24 00:05:39.71	113.39	18.58	-41.7	-45.0	17.9	6.03e-01	0	61	0	611319808	54	5440
2026-01-24 00:05:40.72	113.65	18.53	-41.7	-45.0	17.5	6.01e-01	0	61	0	613416960	54	5462
2026-01-24 00:05:41.73	113.91	18.47	-41.6	-44.8	18.1	6.02e-01	0	61	0	614989824	54	5312
2026-01-24 00:05:42.74	114.17	18.42	-41.6	-44.7	18.3	6.01e-01	0	61	0	617086976	54	5266
2026-01-24 00:05:43.75	114.43	18.36	-41.6	-44.8	18.3	6.03e-01	0	61	0	619184128	54	5299
2026-01-24 00:05:44.76	114.69	18.31	-40.9	-45.1	17.7	6.07e-01	3	61	0	620756992	53	5817
2026-01-24 00:05:45.77	114.94	18.25	-41.7	-45.1	17.9	6.01e-01	0	61	0	622854144	54	5485
2026-01-24 00:05:46.78	115.20	18.20	-41.7	-45.1	17.5	6.04e-01	0	61	0	624427008	54	5471
2026-01-24 00:05:47.79	115.45	18.14	-41.7	-45.0	17.9	6.01e-01	0	61	0	626524160	53	5749
2026-01-24 00:05:48.80	115.71	18.08	-41.7	-45.1	16.9	6.05e-01	0	60	0	628621312	53	5792
2026-01-24 00:05:49.81	115.96	18.03	-41.5	-44.9	17.4	6.03e-01	0	61	0	630194176	53	5667
2026-01-24 00:05:50.82	116.21	17.97	-41.5	-44.9	16.4	6.04e-01	0	61	0	632291328	53	5680
2026-01-24 00:05:51.83	116.46	17.91	-41.4	-44.9	16.1	6.03e-01	0	61	0	633864192	53	5663
2026-01-24 00:05:52.84	116.71	17.85	-41.5	-44.9	16.1	6.07e-01	1	61	0	635961344	53	5660
2026-01-24 00:05:53.85	116.96	17.79	-41.5	-44.8	16.9	6.06e-01	2	61	0	638058496	53	5638
2026-01-24 00:05:54.86	117.21	17.74	-41.5	-44.9	17.0	6.01e-01	1	61	0	639631360	53	5711
2026-01-24 00:05:55.87	117.46	17.68	-41.5	-44.9	16.0	6.02e-01	2	61	0	641728512	53	5711
2026-01-24 00:05:56.87	117.70	17.62	-41.4	-44.9	14.5	6.06e-01	10	61	0	643301376	53	5691
2026-01-24 00:05:57.89	117.95	17.56	-41.4	-45.0	15.6	6.03e-01	2	61	0	645398528	53	5724
2026-01-24 00:05:58.89	118.19	17.50	-41.4	-44.9	14.3	6.09e-01	24	61	0	647495680	53	5714
2026-01-24 00:05:59.90	118.43	17.44	-41.4	-44.9	16.2	6.02e-01	2	61	0	649068544	53	5668
2026-01-24 00:06:00.91	118.67	17.38	-41.3	-44.9	15.7	6.05e-01	3	61	0	651165696	53	5659
2026-01-24 00:06:01.93	118.92	17.31	-41.4	-44.8	13.6	6.06e-01	11	61	0	652738560	53	5650
2026-01-24 00:06:02.93	119.15	17.25	-41.2	-45.0	14.6	6.06e-01	15	61	0	654835712	53	5744
2026-01-24 00:06:03.95	119.39	17.19	-41.4	-44.9	15.4	6.06e-01	4	61	0	656408576	53	5708
2026-01-24 00:06:04.96	119.63	17.13	-37.3	-44.4	13.2	6.06e-01	28	61	0	658505728	52	5678
2026-01-24 00:06:05.96	119.87	17.07	-41.5	-44.9	13.0	6.11e-01	36	61	0	660078592	52	6007
2026-01-24 00:06:06.98	120.10	17.00	-41.5	-44.9	16.4	6.04e-01	2	61	0	662175744	53	5702
2026-01-24 00:06:07.98	120.34	16.94	-41.4	-45.2	15.5	6.11e-01	21	61	0	664272896	52	6228
2026-01-24 00:06:08.99	120.57	16.88	-38.6	-44.4	15.6	6.18e-01	17	61	0	665845760	51	6059
2026-01-24 00:06:10.01	120.81	16.81	-41.5	-44.8	16.1	6.03e-01	0	61	0	667942912	53	5628
2026-01-24 00:06:11.01	121.03	16.75	-41.3	-44.8	17.1	6.06e-01	1	61	0	669515776	53	5637
2026-01-24 00:06:12.02	121.27	16.69	-41.5	-44.9	17.1	6.04e-01	1	61	0	671612928	53	5657
2026-01-24 00:06:13.03	121.49	16.62	-41.5	-44.8	16.9	6.04e-01	0	61	0	673185792	53	5603
2026-01-24 00:06:14.04	121.72	16.56	-41.5	-44.5	16.1	6.05e-01	10	61	0	675282944	52	5784
2026-01-24 00:06:15.05	121.95	16.50	-41.3	-44.7	16.6	6.01e-01	1	61	0	677380096	53	5570
2026-01-24 00:06:16.06	122.18	16.43	-41.5	-44.7	17.7	6.03e-01	0	61	0	678952960	53	5581
2026-01-24 00:06:17.07	122.40	16.37	-41.5	-44.8	17.9	6.03e-01	0	61	0	681050112	53	5616
2026-01-24 00:06:18.08	122.63	16.30	-41.5	-44.8	17.7	6.01e-01	0	61	0	682622976	53	5649
2026-01-24 00:06:19.09	122.85	16.23	-41.6	-44.9	17.6	6.05e-01	0	61	0	684720128	53	5683
2026-01-24 00:06:20.10	123.07	16.17	-41.0	-45.0	14.9	6.12e-01	21	61	0	686817280	52	6080
2026-01-24 00:06:21.11	123.29	16.10	-41.0	-44.8	15.0	6.04e-01	12	61	0	688390144	53	5637
2026-01-24 00:06:22.12	123.52	16.04	-41.2	-44.8	17.4	6.02e-01	0	61	0	690487296	53	5644
2026-01-24 00:06:23.13	123.73	15.97	-41.4	-44.7	15.9	6.03e-01	5	61	0	692584448	53	5592
2026-01-24 00:06:24.14	123.95	15.90	-41.4	-44.7	17.2	6.01e-01	0	61	0	694157312	53	5585
2026-01-24 00:06:25.15	124.17	15.84	-41.4	-44.7	16.9	6.05e-01	3	61	0	696254464	53	5579
2026-01-24 00:06:26.16	124.39	15.77	-41.4	-44.8	15.0	6.02e-01	4	61	0	697827328	53	5594
2026-01-24 00:06:27.17	124.60	15.70	-40.9	-44.7	17.0	6.03e-01	1	61	0	699924480	53	5584
2026-01-24 00:06:28.18	124.82	15.64	-39.7	-44.7	13.1	6.05e-01	15	61	0	702021632	53	5558
2026-01-24 00:06:29.18	125.03	15.57	-40.7	-44.8	16.0	6.07e-01	5	61	0	703594496	53	5615
2026-01-24 00:06:30.19	125.24	15.50	-37.4	-44.4	10.2	6.43e-01	70	61	0	705691648	47	7565
2026-01-24 00:06:31.20	125.45	15.44	-41.0	-44.8	15.5	6.06e-01	7	61	0	707264512	53	5651
2026-01-24 00:06:32.21	125.66	15.37	-41.3	-44.9	15.5	6.03e-01	2	61	0	709361664	53	5713
2026-01-24 00:06:33.22	125.87	15.30	-41.1	-44.8	15.8	6.05e-01	2	61	0	711458816	53	5651
2026-01-24 00:06:34.23	126.08	15.23	-40.1	-44.8	15.0	6.07e-01	11	61	0	713031680	52	5936
2026-01-24 00:06:35.24	126.29	15.17	-40.9	-44.7	15.3	6.06e-01	9	61	0	715128832	52	5889
2026-01-24 00:06:36.25	126.50	15.10	-41.1	-44.7	15.5	6.04e-01	5	61	0	717225984	52	5915
2026-01-24 00:06:37.26	126.70	15.03	-41.0	-44.9	14.4	6.07e-01	8	61	0	718798848	52	6055
2026-01-24 00:06:38.26	126.90	14.96	-40.8	-44.7	13.6	6.19e-01	56	61	0	720896000	49	6972
2026-01-24 00:06:39.27	127.11	14.89	-40.7	-44.8	13.8	6.07e-01	12	61	0	722468864	52	5949
2026-01-24 00:06:40.28	127.31	14.82	-25.4	-40.8	5.6	6.93e-01	0	61	0	724041728	30	13285
2026-01-24 00:06:41.29	127.51	14.76	-37.4	-44.9	12.7	6.13e-01	41	61	0	724566016	48	7621
2026-01-24 00:06:42.30	127.71	14.69	-39.7	-44.9	12.9	6.13e-01	28	61	0	726138880	50	6778
2026-01-24 00:06:43.31	127.91	14.62	-35.9	-44.7	12.3	6.14e-01	50	61	0	728236032	47	7825
2026-01-24 00:06:44.32	128.11	14.55	-38.3	-44.4	11.8	6.23e-01	66	61	0	729808896	45	8542
2026-01-24 00:06:45.33	128.31	14.48	-37.9	-44.0	11.5	6.18e-01	85	61	0	730333184	44	8613
2026-01-24 00:06:46.34	128.51	14.41	-34.7	-44.1	11.8	6.15e-01	85	61	0	731906048	43	9207
2026-01-24 00:06:47.35	128.70	14.34	-28.8	-42.0	8.0	6.61e-01	32	61	0	734003200	31	14514
2026-01-24 00:06:48.36	128.90	14.27	-32.5	-44.3	10.6	6.26e-01	75	61	0	735576064	40	11159
2026-01-24 00:06:49.37	129.09	14.20	-35.0	-44.6	9.9	6.28e-01	92	61	0	737148928	39	12276
2026-01-24 00:06:50.38	129.28	14.13	-14.2	-31.7	4.6	7.47e-01	0	61	104	738721792	5	19622
2026-01-24 00:06:51.39	129.48	14.06	-31.3	-43.2	9.2	6.32e-01	92	61	0	739246080	30	17666
2026-01-24 00:06:52.40	129.67	13.99	-30.7	-43.0	9.2	6.31e-01	73	61	0	740818944	30	17095
2026-01-24 00:06:53.40	129.86	13.93	-29.1	-43.0	7.9	6.37e-01	59	61	104	741867520	30	17178
2026-01-24 00:06:54.41	130.04	13.86	-28.6	-42.8	8.8	6.41e-01	92	61	0	741867520	27	20051
2026-01-24 00:06:55.42	130.23	13.79	-24.0	-42.9	7.9	6.42e-01	89	61	0	741867520	27	20229
2026-01-24 00:06:56.43	130.42	13.72	-29.8	-43.4	8.5	6.35e-01	90	61	0	741867520	27	21307
2026-01-24 00:06:57.44	130.61	13.65	-28.7	-43.4	5.2	7.27e-01	0	61	104	741867520	25	23924
2026-01-24 00:06:58.45	130.79	13.58	-28.5	-42.7	4.8	7.23e-01	0	61	104	741867520	24	23457
2026-01-24 00:06:59.46	130.98	13.51	-27.0	-43.7	5.1	7.29e-01	0	61	104	741867520	22	29603
2026-01-24 00:07:00.47	131.16	13.44	-27.6	-39.2	5.2	7.34e-01	0	61	104	741867520	6	44297
2026-01-24 00:07:01.48	131.34	13.37	-34.6	-48.1	5.0	7.01e-01	0	61	104	741867520	43	14551
2026-01-24 00:07:02.49	131.53	13.30	-22.0	-42.9	4.8	7.45e-01	0	61	104	741867520	17	35971
2026-01-24 00:07:03.50	131.71	13.23	-25.1	-42.9	4.6	7.39e-01	0	61	104	741867520	19	31984
2026-01-24 00:07:04.51	131.89	13.16	-24.3	-43.4	5.2	7.28e-01	0	61	104	741867520	20	31966
2026-01-24 00:07:05.52	132.07	13.09	-27.3	-44.5	4.8	7.28e-01	0	61	104	741867520	21	34394
2026-01-24 00:07:06.53	132.25	13.02	-25.0	-43.4	5.1	7.41e-01	0	61	104	741867520	24	25529
2026-01-24 00:07:07.54	132.42	12.95	-24.7	-46.0	4.9	7.39e-01	0	61	104	741867520	24	34319
2026-01-24 00:07:08.55	132.60	12.88	-33.8	-44.8	5.1	7.11e-01	0	61	104	741867520	34	16864
2026-01-24 00:07:09.56	132.78	12.81	-31.5	-45.7	7.7	6.40e-01	74	61	104	741867520	41	12414
2026-01-24 00:07:10.57	132.95	12.74	-29.6	-45.4	5.0	7.08e-01	0	61	104	741867520	28	25504
2026-01-24 00:07:11.58	133.13	12.67	-28.9	-43.0	5.0	7.23e-01	0	61	104	741867520	26	21734
2026-01-24 00:07:12.58	133.30	12.60	-15.1	-33.2	-1.4	7.53e-01	0	61	104	741867520	1	29368
2026-01-24 00:07:13.60	133.47	12.53	-30.9	-46.5	4.7	7.25e-01	0	61	104	741867520	34	20494
2026-01-24 00:07:14.60	133.64	12.46	-33.1	-53.7	4.2	7.57e-01	0	61	104	741867520	40	33093
2026-01-24 00:07:15.61	133.81	12.39	-34.4	-52.2	4.7	7.34e-01	0	61	104	741867520	40	27910
2026-01-24 00:07:16.62	133.98	12.32	-39.2	-47.5	4.9	7.12e-01	0	61	104	741867520	47	10780
2026-01-24 00:07:17.63	134.15	12.25	-42.9	-55.4	4.5	7.18e-01	0	61	104	741867520	56	16094
2026-01-24 00:07:18.64	134.32	12.18	-24.3	-46.7	-4.7	7.32e-01	0	61	104	741867520	25	35105
2026-01-24 00:07:19.65	134.49	12.11	-42.2	-59.3	4.2	7.48e-01	0	61	104	741867520	54	28223
2026-01-24 00:07:20.66	134.65	12.04	-39.8	-54.4	3.5	7.62e-01	0	61	104	741867520	30	64196
2026-01-24 00:07:21.67	134.82	11.97	-40.3	-60.5	4.1	7.57e-01	0	61	104	741867520	54	32391
2026-01-24 00:07:22.68	134.98	11.90	-30.5	-49.3	3.9	7.71e-01	0	61	104	741867520	32	31514
2026-01-24 00:07:23.69	135.15	11.83	-42.2	-60.5	4.4	7.63e-01	0	61	104	741867520	54	32319
2026-01-24 00:07:24.70	135.31	11.76	-40.3	-46.2	12.0	6.11e-01	24	61	104	741867520	51	7397
2026-01-24 00:07:25.71	135.47	11.69	-40.6	-50.2	9.8	6.24e-01	44	61	104	741867520	53	10432
2026-01-24 00:07:26.72	135.63	11.62	-28.9	-43.1	6.8	6.71e-01	1	61	0	741867520	31	16409
2026-01-24 00:07:27.73	135.80	11.55	-40.8	-48.4	9.7	6.22e-01	66	61	104	741867520	49	10688
2026-01-24 00:07:28.74	135.96	11.48	-40.4	-48.4	9.3	6.25e-01	65	61	0	741867520	52	8988
2026-01-24 00:07:29.75	136.11	11.41	-40.6	-47.8	11.1	6.15e-01	38	61	0	741867520	51	8903
2026-01-24 00:07:30.76	136.27	11.34	-41.2	-48.2	10.6	6.25e-01	46	61	0	741867520	51	9383
2026-01-24 00:07:31.76	136.43	11.27	-39.9	-47.8	11.3	6.12e-01	35	61	0	741867520	52	8463
2026-01-24 00:07:32.77	136.59	11.20	-41.3	-48.8	10.7	6.18e-01	33	61	0	741867520	53	8869
2026-01-24 00:07:33.78	136.74	11.13	-39.7	-48.2	11.7	6.13e-01	15	61	0	741867520	53	8310
2026-01-24 00:07:34.79	136.90	11.06	-41.5	-47.8	12.2	6.15e-01	14	61	0	741867520	53	7966
2026-01-24 00:07:35.80	137.05	10.99	-41.3	-47.6	11.5	6.12e-01	26	61	0	741867520	49	9746
2026-01-24 00:07:36.81	137.21	10.92	-39.9	-46.8	6.1	6.57e-01	84	61	0	741867520	36	18934
2026-01-24 00:07:37.82	137.36	10.85	-40.9	-47.3	12.2	6.07e-01	9	61	0	741867520	52	7924
2026-01-24 00:07:38.83	137.51	10.78	-41.0	-47.0	12.2	6.09e-01	17	61	0	741867520	51	8143
2026-01-24 00:07:39.84	137.66	10.71	-40.7	-46.8	10.2	6.20e-01	19	61	0	741867520	48	9429
2026-01-24 00:07:40.85	137.81	10.64	-41.3	-47.5	11.3	6.16e-01	42	61	0	741867520	50	9170
2026-01-24 00:07:41.86	137.96	10.57	-38.6	-49.5	7.5	6.39e-01	41	61	0	741867520	50	11451
2026-01-24 00:07:42.87	138.11	10.50	-42.2	-52.0	7.8	6.38e-01	71	61	0	741867520	53	12811
2026-01-24 00:07:43.88	138.26	10.43	-28.0	-46.6	4.6	7.50e-01	0	61	104	741867520	27	30918
2026-01-24 00:07:44.89	138.41	10.36	-38.4	-53.8	6.4	6.78e-01	54	61	0	741867520	55	14168
2026-01-24 00:07:45.90	138.56	10.30	-42.6	-58.0	4.0	7.40e-01	0	61	104	741867520	56	21641
2026-01-24 00:07:46.91	138.70	10.23	-42.8	-56.2	5.3	6.99e-01	0	61	0	741867520	56	17496
2026-01-24 00:07:47.92	138.85	10.16	-42.9	-55.4	5.9	6.87e-01	14	61	0	741867520	55	16979
2026-01-24 00:07:48.93	138.99	10.09	-33.9	-49.1	4.0	7.54e-01	0	61	104	741867520	33	29198
2026-01-24 00:07:49.93	139.14	10.02	-42.8	-53.8	6.3	6.70e-01	85	61	0	741867520	56	13300
2026-01-24 00:07:50.95	139.28	9.95	-42.8	-51.2	9.2	6.23e-01	41	61	0	741867520	56	9894
2026-01-24 00:07:51.96	139.42	9.88	-40.7	-47.2	13.5	6.05e-01	5	61	0	741867520	53	7384
2026-01-24 00:07:52.97	139.57	9.81	-41.1	-45.6	15.0	6.03e-01	4	61	0	741867520	52	6498
2026-01-24 00:07:53.98	139.71	9.74	-41.8	-47.1	13.5	6.01e-01	7	61	0	741867520	54	6949
2026-01-24 00:07:54.99	139.85	9.68	-42.4	-48.2	12.7	6.03e-01	7	61	0	741867520	55	7373
2026-01-24 00:07:56.00	139.99	9.61	-41.6	-46.1	15.5	6.01e-01	0	61	0	741867520	53	6566
2026-01-24 00:07:57.00	140.13	9.54	-42.2	-47.3	14.4	6.02e-01	0	61	0	741867520	55	6706
2026-01-24 00:07:58.01	140.26	9.47	-41.8	-46.4	15.6	6.01e-01	0	61	0	741867520	54	6354
2026-01-24 00:07:59.02	140.40	9.40	-40.2	-46.4	11.3	6.21e-01	44	61	101	741867520	50	8062
2026-01-24 00:08:00.03	140.54	9.34	-42.1	-46.9	15.1	6.04e-01	0	61	101	741867520	54	6741
2026-01-24 00:08:01.04	140.68	9.27	-41.8	-46.2	15.8	6.00e-01	0	61	101	741867520	54	6243
2026-01-24 00:08:02.05	140.81	9.20	-41.7	-46.1	16.0	6.03e-01	0	61	101	741867520	54	6151
2026-01-24 00:08:03.06	140.95	9.13	-41.7	-46.0	16.0	6.02e-01	0	61	101	741867520	54	6093
2026-01-24 00:08:04.07	141.08	9.06	-41.7	-46.0	16.1	6.01e-01	0	61	101	741867520	54	6074
2026-01-24 00:08:05.08	141.22	9.00	-41.7	-45.9	16.3	6.04e-01	0	61	101	741867520	54	6013
2026-01-24 00:08:06.09	141.35	8.93	-41.8	-46.2	16.1	6.02e-01	0	61	101	741867520	54	6225
2026-01-24 00:08:07.10	141.48	8.86	-41.8	-46.0	16.3	6.00e-01	0	61	101	741867520	54	6112
2026-01-24 00:08:08.11	141.61	8.79	-41.8	-46.0	16.2	6.00e-01	0	61	101	741867520	54	6117
2026-01-24 00:08:09.12	141.74	8.73	-41.8	-46.1	16.2	6.01e-01	0	61	101	741867520	54	6133
2026-01-24 00:08:10.13	141.88	8.66	-42.0	-46.5	15.8	6.02e-01	0	61	101	741867520	54	6465
2026-01-24 00:08:11.14	142.01	8.59	-42.1	-46.6	15.7	6.01e-01	0	61	101	741867520	54	6496
2026-01-24 00:08:12.15	142.13	8.52	-41.9	-46.3	16.0	6.00e-01	0	61	101	741867520	54	6319
2026-01-24 00:08:13.16	142.26	8.46	-42.0	-46.4	15.8	5.99e-01	0	61	101	741867520	54	6412
2026-01-24 00:08:14.16	142.39	8.39	-42.0	-46.4	15.9	6.02e-01	0	61	101	741867520	54	6368
2026-01-24 00:08:15.17	142.52	8.32	-41.8	-46.2	16.0	6.00e-01	0	61	101	741867520	54	6244
2026-01-24 00:08:16.18	142.65	8.26	-41.7	-45.9	16.3	6.01e-01	0	61	101	741867520	54	6061
2026-01-24 00:08:17.19	142.77	8.19	-41.9	-46.2	16.0	6.01e-01	0	61	101	741867520	54	6226
2026-01-24 00:08:18.20	142.90	8.12	-41.8	-46.2	16.0	6.01e-01	0	61	101	741867520	54	6212
2026-01-24 00:08:19.21	143.02	8.06	-41.8	-46.1	16.1	5.99e-01	0	61	101	741867520	54	6200
2026-01-24 00:08:20.22	143.15	7.99	-41.8	-46.2	16.0	5.99e-01	0	61	101	741867520	54	6239
2026-01-24 00:08:21.23	143.27	7.92	-44.6	-62.8	3.8	7.46e-01	0	61	104	741867520	60	29837
2026-01-24 00:08:22.24	143.39	7.86	-36.1	-60.0	4.1	7.53e-01	0	61	104	741867520	57	25632
2026-01-24 00:08:23.25	143.52	7.79	-45.9	-64.4	3.8	7.45e-01	0	61	104	741867520	62	31902
2026-01-24 00:08:24.26	143.64	7.72	-46.1	-64.6	3.8	7.49e-01	0	61	104	741867520	62	32868
2026-01-24 00:08:25.27	143.76	7.66	-46.3	-64.9	3.8	7.49e-01	0	61	104	741867520	63	31896
2026-01-24 00:08:26.29	143.88	7.59	-46.4	-64.9	3.8	7.45e-01	0	61	104	741867520	63	32146
2026-01-24 00:08:27.30	144.00	7.53	-46.5	-65.0	3.8	7.45e-01	0	61	104	741867520	63	32517
2026-01-24 00:08:28.31	144.12	7.46	-46.6	-65.1	3.8	7.44e-01	0	61	104	741867520	63	32796
2026-01-24 00:08:29.32	144.24	7.39	-46.6	-65.1	3.8	7.43e-01	0	61	104	741867520	63	32863
2026-01-24 00:08:30.33	144.36	7.33	-46.6	-65.1	3.8	7.47e-01	0	61	104	741867520	63	32709
2026-01-24 00:08:31.34	144.48	7.26	-46.5	-65.0	3.8	7.46e-01	0	61	104	741867520	63	32315
2026-01-24 00:08:32.35	144.60	7.20	-46.4	-64.9	3.8	7.46e-01	0	61	104	741867520	63	32146
2026-01-24 00:08:33.36	144.71	7.13	-46.4	-64.9	3.8	7.46e-01	0	61	104	741867520	63	31994
2026-01-24 00:08:34.37	144.83	7.07	-46.4	-64.9	3.8	7.44e-01	0	61	104	741867520	63	31843
2026-01-24 00:08:35.38	144.95	7.00	-46.2	-64.8	3.8	7.43e-01	0	61	104	741867520	63	31514
2026-01-24 00:08:36.39	145.06	6.94	-46.2	-64.7	3.8	7.42e-01	0	61	104	741867520	63	31179
2026-01-24 00:08:37.41	145.18	6.87	-46.2	-64.7	3.8	7.43e-01	0	61	104	741867520	63	31214
2026-01-24 00:08:38.42	145.29	6.81	-46.2	-64.7	3.8	7.45e-01	0	61	104	741867520	63	31234
2026-01-24 00:08:39.43	145.41	6.74	-46.2	-64.7	3.8	7.44e-01	0	62	104	741867520	63	31220
2026-01-24 00:08:40.44	145.52	6.68	-46.2	-64.7	3.8	7.44e-01	0	62	104	741867520	63	31213
2026-01-24 00:08:41.45	145.63	6.61	-46.2	-64.7	3.8	7.45e-01	0	61	104	741867520	63	31163
2026-01-24 00:08:42.46	145.74	6.55	-46.2	-64.7	3.8	7.45e-01	0	61	104	741867520	63	31206
2026-01-24 00:08:43.47	145.86	6.48	-46.2	-64.7	3.8	7.42e-01	0	61	104	741867520	63	31113
2026-01-24 00:08:44.48	145.97	6.42	-46.2	-64.7	3.8	7.45e-01	0	62	104	741867520	63	31142
2026-01-24 00:08:45.49	146.08	6.35	-46.2	-64.7	3.8	7.47e-01	0	61	104	741867520	63	31126
2026-01-24 00:08:46.50	146.19	6.29	-46.2	-64.6	3.8	7.45e-01	0	62	104	741867520	63	31045
2026-01-24 00:08:47.51	146.30	6.23	-46.2	-64.7	3.8	7.44e-01	0	61	104	741867520	63	31153
2026-01-24 00:08:48.52	146.41	6.16	-46.2	-64.6	3.8	7.48e-01	0	61	104	741867520	63	31080
2026-01-24 00:08:49.53	146.52	6.10	-46.1	-64.6	3.8	7.45e-01	0	62	104	741867520	63	31031
2026-01-24 00:08:50.54	146.62	6.03	-46.1	-64.6	3.8	7.48e-01	0	61	104	741867520	63	31068
2026-01-24 00:08:51.55	146.73	5.97	-46.1	-64.6	3.8	7.46e-01	0	61	104	741867520	63	30993
2026-01-24 00:08:52.57	146.84	5.91	-46.1	-64.7	3.8	7.45e-01	0	61	104	741867520	63	31095
2026-01-24 00:08:53.58	146.95	5.84	-46.1	-64.6	3.8	7.47e-01	0	61	104	741867520	63	31034
2026-01-24 00:08:54.59	147.05	5.78	-46.1	-64.6	3.8	7.46e-01	0	61	104	741867520	63	30984
2026-01-24 00:08:55.60	147.16	5.72	-46.1	-64.7	3.8	7.47e-01	0	62	104	741867520	63	31105
2026-01-24 00:08:56.61	147.26	5.65	-46.1	-64.6	3.8	7.44e-01	0	61	104	741867520	63	31029
2026-01-24 00:08:57.62	147.37	5.59	-46.1	-64.6	3.8	7.48e-01	0	61	104	741867520	63	31070
2026-01-24 00:08:58.63	147.47	5.53	-46.1	-64.6	3.8	7.44e-01	0	62	104	741867520	63	31019
2026-01-24 00:08:59.64	147.58	5.46	-46.1	-64.6	3.8	7.47e-01	0	61	104	741867520	63	31030
2026-01-24 00:09:00.65	147.68	5.40	-46.1	-64.6	3.8	7.47e-01	0	61	104	741867520	63	30978
2026-01-24 00:09:01.67	147.78	5.34	-46.1	-64.6	3.8	7.45e-01	0	61	104	741867520	63	31038
2026-01-24 00:09:02.68	147.89	5.27	-46.1	-64.6	3.8	7.45e-01	0	61	104	741867520	63	31015
2026-01-24 00:09:03.69	147.99	5.21	-46.1	-64.6	3.8	7.47e-01	0	61	104	741867520	63	31023
2026-01-24 00:09:04.70	148.09	5.15	-46.1	-64.6	3.8	7.46e-01	0	61	104	741867520	63	31000
2026-01-24 00:09:05.71	148.19	5.09	-46.1	-64.6	3.8	7.43e-01	0	61	104	741867520	63	30939
2026-01-24 00:09:06.72	148.29	5.02	-46.1	-64.6	3.8	7.45e-01	0	62	104	741867520	63	31006
2026-01-24 00:09:07.73	148.39	4.96	-46.1	-64.6	3.8	7.44e-01	0	61	104	741867520	63	30931
2026-01-24 00:09:08.74	148.49	4.90	-46.1	-64.6	3.8	7.46e-01	0	61	104	741867520	63	30978
2026-01-24 00:09:09.75	148.59	4.84	-46.1	-64.6	3.8	7.47e-01	0	61	104	741867520	63	30976
2026-01-24 00:09:10.76	148.69	4.78	-46.1	-64.6	3.8	7.43e-01	0	62	104	741867520	63	30891
2026-01-24 00:09:11.77	148.79	4.71	-46.1	-64.6	3.8	7.44e-01	0	61	104	741867520	63	30972
2026-01-24 00:09:12.79	148.89	4.65	-46.1	-64.6	3.8	7.44e-01	0	61	104	741867520	63	30907
2026-01-24 00:09:13.80	148.98	4.59	-46.1	-64.6	3.8	7.45e-01	0	62	104	741867520	63	30901
2026-01-24 00:09:14.81	149.08	4.53	-46.1	-64.6	3.8	7.46e-01	0	62	104	741867520	63	30917
2026-01-24 00:09:15.82	149.18	4.47	-46.1	-64.6	3.8	7.47e-01	0	62	104	741867520	63	30907
2026-01-24 00:09:16.83	149.27	4.41	-46.1	-64.6	3.8	7.46e-01	0	62	104	741867520	63	30963
2026-01-24 00:09:17.84	149.37	4.34	-46.1	-64.6	3.8	7.45e-01	0	61	104	741867520	63	30918
2026-01-24 00:09:18.85	149.46	4.28	-46.1	-64.6	3.8	7.48e-01	0	61	104	741867520	63	30896
2026-01-24 00:09:19.86	149.56	4.22	-46.1	-64.6	3.8	7.46e-01	0	61	104	741867520	63	30889
2026-01-24 00:09:20.87	149.65	4.16	-46.1	-64.6	3.8	7.49e-01	0	61	104	741867520	63	30889
2026-01-24 00:09:21.89	149.75	4.10	-46.1	-64.6	3.8	7.42e-01	0	61	104	741867520	63	30889
2026-01-24 00:09:22.90	149.84	4.04	-46.1	-64.6	3.8	7.43e-01	0	61	104	741867520	63	30847
2026-01-24 00:09:23.91	149.93	3.98	-46.1	-64.6	3.8	7.44e-01	0	62	104	741867520	63	30871
2026-01-24 00:09:24.92	150.03	3.92	-46.1	-64.6	3.8	7.44e-01	0	62	104	741867520	63	30840
2026-01-24 00:09:25.93	150.12	3.86	-46.1	-64.6	3.8	7.48e-01	0	61	104	741867520	63	30888
2026-01-24 00:09:26.94	150.21	3.80	-46.1	-64.6	3.8	7.45e-01	0	62	104	741867520	63	30830
2026-01-24 00:09:27.95	150.30	3.74	-46.1	-64.6	3.8	7.44e-01	0	62	104	741867520	63	30933
2026-01-24 00:09:28.96	150.39	3.68	-46.1	-64.6	3.8	7.44e-01	0	61	104	741867520	63	30820
2026-01-24 00:09:29.97	150.49	3.62	-46.1	-64.6	3.8	7.46e-01	0	61	104	741867520	63	30879
2026-01-24 00:09:30.98	150.58	3.56	-46.1	-64.6	3.8	7.48e-01	0	61	104	741867520	63	30854
2026-01-24 00:09:32.00	150.67	3.50	-46.1	-64.6	3.8	7.47e-01	0	61	104	741867520	63	30830
2026-01-24 00:09:33.01	150.76	3.44	-46.1	-64.6	3.8	7.46e-01	0	62	104	741867520	63	30849
2026-01-24 00:09:34.02	150.85	3.38	-46.1	-64.6	3.8	7.49e-01	0	61	104	741867520	63	30827
2026-01-24 00:09:35.03	150.93	3.32	-46.1	-64.6	3.8	7.43e-01	0	62	104	741867520	63	30832
2026-01-24 00:09:36.04	151.02	3.26	-46.1	-64.6	3.8	7.46e-01	0	61	104	741867520	63	30889
2026-01-24 00:09:37.05	151.11	3.20	-46.1	-64.6	3.8	7.46e-01	0	62	104	741867520	63	30787
2026-01-24 00:09:38.06	151.20	3.14	-46.1	-64.6	3.8	7.45e-01	0	62	104	741867520	63	30813
2026-01-24 00:09:39.07	151.29	3.08	-46.1	-64.6	3.8	7.47e-01	0	62	104	741867520	63	30777
2026-01-24 00:09:40.08	151.37	3.02	-46.1	-64.6	3.8	7.45e-01	0	62	104	741867520	63	30793
2026-01-24 00:09:41.09	151.46	2.96	-46.1	-64.6	3.8	7.46e-01	0	62	104	741867520	63	30845
2026-01-24 00:09:42.10	151.55	2.90	-46.1	-64.6	3.8	7.49e-01	0	62	104	741867520	63	30829
2026-01-24 00:09:43.11	151.63	2.84	-46.1	-64.6	3.8	7.41e-01	0	62	104	741867520	63	30819
2026-01-24 00:09:44.13	151.72	2.78	-46.1	-64.6	3.8	7.41e-01	0	62	104	741867520	63	30781
2026-01-24 00:09:45.14	151.80	2.72	-46.1	-64.6	3.8	7.46e-01	0	61	104	741867520	63	30833
2026-01-24 00:09:46.15	151.89	2.67	-46.1	-64.6	3.8	7.44e-01	0	61	104	741867520	63	30766
2026-01-24 00:09:47.16	151.97	2.61	-46.1	-64.6	3.8	7.47e-01	0	62	104	741867520	63	30812
2026-01-24 00:09:48.17	152.06	2.55	-46.1	-64.6	3.8	7.44e-01	0	62	104	741867520	63	30789
2026-01-24 00:09:49.18	152.14	2.49	-46.1	-64.5	3.8	7.45e-01	0	62	104	741867520	63	30720
2026-01-24 00:09:50.19	152.22	2.43	-46.1	-64.6	3.8	7.44e-01	0	61	104	741867520	63	30757
2026-01-24 00:09:51.20	152.31	2.37	-46.1	-64.6	3.8	7.46e-01	0	62	104	741867520	63	30806
2026-01-24 00:09:52.22	152.39	2.32	-46.1	-64.5	3.8	7.43e-01	0	62	104	741867520	63	30709
2026-01-24 00:09:53.23	152.47	2.26	-46.1	-64.6	3.8	7.47e-01	0	62	104	741867520	63	30806
2026-01-24 00:09:54.24	152.56	2.20	-46.1	-64.6	3.8	7.43e-01	0	61	104	741867520	63	30803
2026-01-24 00:09:55.25	152.64	2.14	-46.1	-64.6	3.8	7.47e-01	0	62	104	741867520	63	30809
2026-01-24 00:09:56.26	152.72	2.08	-46.1	-64.6	3.8	7.47e-01	0	62	104	741867520	63	30767
2026-01-24 00:09:57.27	152.80	2.03	-46.1	-64.6	3.8	7.46e-01	0	61	104	741867520	63	30776
2026-01-24 00:09:58.28	152.88	1.97	-46.1	-64.6	3.8	7.48e-01	0	61	104	741867520	63	30744

#Closed at: 2026-01-24 00:09:58
#Recorded file [741 MB]: D:/lorett/data/31039_260124_025835.dat