passes_logs/2026/01/23/R2.0S_Moscow/R2.0S_Moscow__20260123_044608_FENGYUN_3E_rec.log

#Pass ID: 20260123_044608_FENGYUN 3E
#Satellite: FENGYUN 3E
#Configuration: FENGYUN 3E
#almurnet v.1.7.20251203
#Start time: 2026-01-23 04:46:08

#Version: 2.2.20231116
#Station: R2.0S_Moscow
#Location: 37.707566 lon 55.798166 lat
#TLE: 1 49008U 21062A   26022.47529509  .00000460  00000+0  23724-3 0  9995
#TLE: 2 49008  98.7486  27.5157 0002334 123.7692 236.3707 14.19888297235908

#Time	Az	El	Level	Level2	SNR	BER	BlckErr	Temp	State	Recorded	gain1	gain2
2026-01-23 04:46:08.15	12.91	1.98	-40.7	-51.4	3.8	8.46e-01	0	51	0	0	52	12062
2026-01-23 04:46:09.15	12.87	2.04	-40.7	-51.4	3.8	8.47e-01	0	52	104	0	52	12090
2026-01-23 04:46:10.17	12.84	2.11	-40.7	-51.4	3.8	8.46e-01	0	52	104	0	52	12089
2026-01-23 04:46:11.18	12.81	2.17	-40.7	-51.4	3.8	8.46e-01	0	52	104	0	52	12080
2026-01-23 04:46:12.19	12.78	2.23	-40.7	-51.4	3.8	8.46e-01	0	52	104	0	52	12085
2026-01-23 04:46:13.20	12.75	2.30	-40.7	-51.4	3.8	8.46e-01	0	52	104	0	52	12058
2026-01-23 04:46:14.21	12.71	2.36	-40.7	-51.4	3.8	8.46e-01	0	52	104	0	52	12094
2026-01-23 04:46:15.22	12.68	2.42	-40.7	-51.4	3.8	8.46e-01	0	52	104	0	52	12069
2026-01-23 04:46:16.23	12.65	2.49	-40.7	-51.4	3.8	8.46e-01	0	52	104	0	52	12055
2026-01-23 04:46:17.23	12.62	2.55	-40.7	-51.4	3.8	8.46e-01	0	52	104	0	52	12085
2026-01-23 04:46:18.24	12.58	2.61	-40.7	-51.4	3.8	8.47e-01	0	52	104	0	52	12032
2026-01-23 04:46:19.26	12.55	2.68	-40.7	-51.5	3.8	8.46e-01	0	52	104	0	52	12115
2026-01-23 04:46:20.27	12.52	2.74	-40.7	-51.4	3.8	8.46e-01	0	52	104	0	52	12081
2026-01-23 04:46:21.28	12.48	2.81	-40.7	-51.4	3.8	8.47e-01	0	52	104	0	52	12051
2026-01-23 04:46:22.28	12.45	2.87	-40.7	-51.5	3.8	8.46e-01	0	53	104	0	52	12144
2026-01-23 04:46:23.30	12.42	2.94	-40.7	-51.5	3.8	8.45e-01	0	52	104	0	52	12135
2026-01-23 04:46:24.31	12.38	3.00	-40.7	-51.5	3.8	8.47e-01	0	53	104	0	52	12099
2026-01-23 04:46:25.32	12.35	3.07	-40.7	-51.5	3.8	8.47e-01	0	52	104	0	52	12118
2026-01-23 04:46:26.33	12.31	3.13	-40.7	-51.5	3.8	8.46e-01	0	53	104	0	52	12105
2026-01-23 04:46:27.33	12.28	3.19	-40.7	-51.4	3.8	8.45e-01	0	53	104	0	52	12047
2026-01-23 04:46:28.34	12.25	3.26	-40.7	-51.4	3.8	8.46e-01	0	53	104	0	52	12064
2026-01-23 04:46:29.35	12.21	3.33	-40.7	-51.4	3.8	8.47e-01	0	53	104	0	52	12064
2026-01-23 04:46:30.36	12.18	3.39	-40.7	-51.4	3.8	8.46e-01	0	53	104	0	52	12061
2026-01-23 04:46:31.37	12.14	3.46	-40.7	-51.4	3.8	8.46e-01	0	53	104	0	52	12079
2026-01-23 04:46:32.38	12.11	3.52	-40.7	-51.5	3.8	8.47e-01	0	53	104	0	52	12097
2026-01-23 04:46:33.39	12.07	3.59	-40.7	-51.4	3.8	8.46e-01	0	53	104	0	52	12036
2026-01-23 04:46:34.40	12.03	3.65	-40.7	-51.4	3.8	8.45e-01	0	53	104	0	52	12012
2026-01-23 04:46:35.41	12.00	3.72	-40.7	-51.4	3.8	8.46e-01	0	53	104	0	52	12025
2026-01-23 04:46:36.42	11.96	3.79	-40.7	-51.4	3.8	8.46e-01	0	53	104	0	52	12010
2026-01-23 04:46:37.43	11.93	3.85	-40.7	-51.4	3.8	8.47e-01	0	54	104	0	52	12018
2026-01-23 04:46:38.44	11.89	3.92	-40.7	-51.4	3.8	8.47e-01	0	54	104	0	52	12015
2026-01-23 04:46:39.45	11.85	3.99	-40.7	-51.3	3.8	8.47e-01	0	54	104	0	52	11926
2026-01-23 04:46:40.46	11.82	4.06	-40.6	-51.3	3.8	8.46e-01	0	54	104	0	52	11951
2026-01-23 04:46:41.46	11.78	4.12	-40.6	-51.3	3.8	8.47e-01	0	54	104	0	52	11847
2026-01-23 04:46:42.48	11.74	4.19	-40.6	-51.2	3.8	8.46e-01	0	54	104	0	52	11744
2026-01-23 04:46:43.49	11.71	4.26	-40.6	-51.1	3.8	8.46e-01	0	54	104	0	52	11665
2026-01-23 04:46:44.49	11.67	4.32	-40.6	-51.1	3.8	8.45e-01	0	54	104	0	52	11585
2026-01-23 04:46:45.50	11.63	4.39	-40.6	-51.0	3.8	8.46e-01	0	54	104	0	52	11537
2026-01-23 04:46:46.51	11.59	4.46	-40.6	-50.9	3.8	8.46e-01	0	54	104	0	52	11403
2026-01-23 04:46:47.52	11.55	4.53	-40.6	-50.9	3.8	8.45e-01	0	54	104	0	52	11307
2026-01-23 04:46:48.53	11.52	4.60	-40.6	-50.9	3.8	8.46e-01	0	54	104	0	52	11328
2026-01-23 04:46:49.54	11.48	4.67	-40.6	-50.9	3.8	8.46e-01	0	54	104	0	52	11333
2026-01-23 04:46:50.55	11.44	4.73	-40.6	-50.9	3.8	8.46e-01	0	54	104	0	52	11383
2026-01-23 04:46:51.56	11.40	4.80	-40.6	-51.0	3.8	8.46e-01	0	54	104	0	52	11422
2026-01-23 04:46:52.57	11.36	4.87	-40.6	-51.1	3.8	8.46e-01	0	55	104	0	52	11574
2026-01-23 04:46:53.58	11.32	4.94	-40.6	-51.1	3.8	8.46e-01	0	54	104	0	52	11563
2026-01-23 04:46:54.59	11.28	5.01	-40.6	-51.2	3.8	8.46e-01	0	54	104	0	52	11718
2026-01-23 04:46:55.60	11.24	5.08	-40.6	-51.2	3.8	8.47e-01	0	55	104	0	52	11763
2026-01-23 04:46:56.61	11.20	5.15	-40.6	-51.2	3.8	8.46e-01	0	55	104	0	52	11798
2026-01-23 04:46:57.62	11.16	5.22	-40.6	-51.3	3.8	8.45e-01	0	55	104	0	52	11875
2026-01-23 04:46:58.63	11.12	5.29	-40.6	-51.3	3.8	8.46e-01	0	55	104	0	52	11940
2026-01-23 04:46:59.64	11.08	5.36	-40.6	-51.4	3.8	8.47e-01	0	55	104	0	52	11967
2026-01-23 04:47:00.65	11.04	5.43	-40.6	-51.4	3.8	8.47e-01	0	55	104	0	52	11980
2026-01-23 04:47:01.66	11.00	5.50	-40.6	-51.3	3.8	8.46e-01	0	55	104	0	52	11922
2026-01-23 04:47:02.67	10.96	5.57	-40.6	-51.3	3.8	8.46e-01	0	55	104	0	52	11846
2026-01-23 04:47:03.68	10.92	5.64	-40.7	-51.3	3.8	8.46e-01	0	55	104	0	52	11937
2026-01-23 04:47:04.69	10.88	5.71	-40.6	-51.3	3.8	8.46e-01	0	55	104	0	52	11854
2026-01-23 04:47:05.70	10.83	5.78	-40.6	-51.2	3.8	8.46e-01	0	55	104	0	52	11798
2026-01-23 04:47:06.71	10.79	5.86	-40.6	-51.2	3.8	8.46e-01	0	55	104	0	52	11769
2026-01-23 04:47:07.72	10.75	5.93	-40.6	-51.3	3.8	8.47e-01	0	55	104	0	52	11822
2026-01-23 04:47:08.73	10.71	6.00	-40.6	-51.2	3.8	8.46e-01	0	55	104	0	52	11774
2026-01-23 04:47:09.74	10.66	6.07	-40.6	-51.2	3.8	8.45e-01	0	55	104	0	52	11716
2026-01-23 04:47:10.75	10.62	6.14	-40.6	-51.2	3.8	8.46e-01	0	55	104	0	52	11751
2026-01-23 04:47:11.76	10.58	6.22	-40.6	-51.3	3.8	8.47e-01	0	56	104	0	52	11849
2026-01-23 04:47:12.77	10.53	6.29	-40.6	-51.2	3.8	8.46e-01	0	56	104	0	52	11780
2026-01-23 04:47:13.78	10.49	6.36	-40.6	-51.2	3.8	8.45e-01	0	56	104	0	52	11740
2026-01-23 04:47:14.79	10.45	6.43	-40.6	-51.2	3.8	8.46e-01	0	56	104	0	52	11715
2026-01-23 04:47:15.80	10.40	6.51	-40.6	-51.2	3.8	8.45e-01	0	56	104	0	52	11783
2026-01-23 04:47:16.81	10.36	6.58	-40.6	-51.3	3.8	8.46e-01	0	56	104	0	52	11898
2026-01-23 04:47:17.82	10.31	6.65	-40.6	-51.3	3.8	8.45e-01	0	56	104	0	52	11855
2026-01-23 04:47:18.83	10.27	6.73	-40.6	-51.3	3.8	8.46e-01	0	56	104	0	52	11908
2026-01-23 04:47:19.85	10.22	6.80	-40.6	-51.3	3.8	8.45e-01	0	56	104	0	52	11954
2026-01-23 04:47:20.85	10.18	6.87	-40.6	-51.3	3.8	8.46e-01	0	56	104	0	52	11949
2026-01-23 04:47:21.86	10.13	6.95	-40.6	-51.4	3.8	8.46e-01	0	56	104	0	52	11966
2026-01-23 04:47:22.87	10.09	7.02	-40.6	-51.4	3.8	8.47e-01	0	56	104	0	52	12012
2026-01-23 04:47:23.88	10.04	7.10	-40.6	-51.4	3.8	8.46e-01	0	56	104	0	52	12004
2026-01-23 04:47:24.89	9.99	7.17	-40.6	-51.4	3.8	8.45e-01	0	56	104	0	52	11999
2026-01-23 04:47:25.90	9.95	7.25	-40.6	-51.4	3.8	8.45e-01	0	56	104	0	52	12003
2026-01-23 04:47:26.91	9.90	7.32	-40.6	-51.4	3.8	8.47e-01	0	56	104	0	52	11981
2026-01-23 04:47:27.93	9.85	7.40	-40.6	-51.4	3.8	8.45e-01	0	56	104	0	52	12009
2026-01-23 04:47:28.94	9.80	7.47	-40.6	-51.4	3.8	8.46e-01	0	56	104	0	52	12050
2026-01-23 04:47:29.95	9.76	7.55	-40.6	-51.4	3.8	8.45e-01	0	57	104	0	52	12043
2026-01-23 04:47:30.96	9.71	7.63	-40.6	-51.4	3.8	8.47e-01	0	56	104	0	52	11998
2026-01-23 04:47:31.97	9.66	7.70	-40.6	-51.4	3.8	8.46e-01	0	56	104	0	52	12002
2026-01-23 04:47:32.98	9.61	7.78	-40.6	-51.3	3.8	8.46e-01	0	56	104	0	52	11930
2026-01-23 04:47:33.99	9.56	7.86	-40.6	-51.4	3.8	8.47e-01	0	57	104	0	52	11968
2026-01-23 04:47:35.00	9.51	7.93	-40.6	-51.4	3.8	8.46e-01	0	57	104	0	52	11973
2026-01-23 04:47:36.01	9.46	8.01	-40.6	-51.4	3.8	8.46e-01	0	57	104	0	52	11985
2026-01-23 04:47:37.02	9.41	8.09	-40.5	-51.3	3.8	8.46e-01	0	57	104	0	52	11847
2026-01-23 04:47:38.03	9.36	8.16	-40.6	-51.3	3.8	8.46e-01	0	56	104	0	52	11914
2026-01-23 04:47:39.04	9.31	8.24	-40.8	-51.5	3.8	8.46e-01	0	57	104	0	52	12126
2026-01-23 04:47:40.05	9.26	8.32	-40.9	-51.7	3.8	8.46e-01	0	57	104	0	52	12416
2026-01-23 04:47:41.06	9.21	8.40	-40.5	-51.2	3.8	8.47e-01	0	57	104	0	51	12488
2026-01-23 04:47:42.07	9.16	8.48	-40.7	-51.4	3.8	8.46e-01	0	57	104	0	51	12735
2026-01-23 04:47:43.07	9.11	8.55	-40.8	-51.5	3.8	8.46e-01	0	57	104	0	51	12944
2026-01-23 04:47:44.09	9.06	8.63	-41.0	-51.7	3.8	8.46e-01	0	57	104	0	51	13180
2026-01-23 04:47:45.09	9.01	8.71	-40.5	-51.2	3.8	8.46e-01	0	57	104	0	51	12495
2026-01-23 04:47:46.10	8.95	8.79	-40.7	-51.4	3.8	8.45e-01	0	57	104	0	51	12773
2026-01-23 04:47:47.11	8.90	8.87	-40.8	-51.6	3.8	8.47e-01	0	57	104	0	51	12964
2026-01-23 04:47:48.12	8.85	8.95	-41.0	-51.7	3.8	8.47e-01	0	57	104	0	51	13137
2026-01-23 04:47:49.13	8.79	9.03	-40.4	-51.2	3.8	8.45e-01	0	57	104	0	51	12460
2026-01-23 04:47:50.14	8.74	9.11	-40.7	-51.4	3.8	8.47e-01	0	57	104	0	51	12807
2026-01-23 04:47:51.15	8.69	9.19	-40.7	-51.5	3.8	8.45e-01	0	57	104	0	51	12874
2026-01-23 04:47:52.16	8.63	9.27	-40.9	-51.7	3.8	8.47e-01	0	57	104	0	51	13113
2026-01-23 04:47:53.17	8.58	9.35	-40.4	-51.1	3.8	8.47e-01	0	57	104	0	51	12349
2026-01-23 04:47:54.18	8.52	9.43	-40.4	-51.1	3.8	8.46e-01	0	57	104	0	51	12272
2026-01-23 04:47:55.19	8.47	9.52	-40.3	-51.1	3.8	8.45e-01	0	57	104	0	51	12268
2026-01-23 04:47:56.20	8.41	9.60	-40.3	-51.1	3.8	8.46e-01	0	57	104	0	51	12239
2026-01-23 04:47:57.21	8.36	9.68	-40.3	-51.1	3.8	8.46e-01	0	57	104	0	51	12287
2026-01-23 04:47:58.22	8.30	9.76	-40.4	-51.1	3.8	8.47e-01	0	57	104	0	51	12290
2026-01-23 04:47:59.23	8.24	9.84	-41.0	-51.7	3.8	8.47e-01	0	57	104	0	51	13212
2026-01-23 04:48:00.24	8.19	9.93	-40.6	-51.2	3.8	8.45e-01	0	57	104	0	51	12433
2026-01-23 04:48:01.24	8.13	10.01	-40.4	-51.1	3.8	8.46e-01	0	57	104	0	51	12287
2026-01-23 04:48:02.26	8.07	10.09	-40.5	-51.2	3.8	8.46e-01	0	58	104	0	51	12402
2026-01-23 04:48:03.26	8.01	10.17	-40.5	-51.2	3.8	8.46e-01	0	58	104	0	51	12453
2026-01-23 04:48:04.27	7.95	10.26	-40.5	-51.2	3.8	8.46e-01	0	58	104	0	51	12384
2026-01-23 04:48:05.28	7.90	10.34	-40.6	-51.3	3.8	8.45e-01	0	58	104	0	51	12551
2026-01-23 04:48:06.29	7.84	10.43	-40.5	-51.2	3.8	8.45e-01	0	58	104	0	51	12383
2026-01-23 04:48:07.30	7.78	10.51	-41.2	-51.5	3.8	8.46e-01	0	58	104	0	52	12136
2026-01-23 04:48:08.31	7.72	10.59	-40.7	-51.3	3.8	8.46e-01	0	58	104	0	52	11883
2026-01-23 04:48:09.32	7.66	10.68	-40.4	-51.1	3.8	8.47e-01	0	58	104	0	51	12241
2026-01-23 04:48:10.33	7.60	10.76	-40.6	-51.2	3.8	8.47e-01	0	58	104	0	51	12506
2026-01-23 04:48:11.34	7.54	10.85	-40.6	-51.3	3.8	8.46e-01	0	58	104	0	51	12543
2026-01-23 04:48:12.35	7.47	10.94	-40.7	-51.3	3.8	8.47e-01	0	58	104	0	51	12641
2026-01-23 04:48:13.36	7.41	11.02	-40.9	-51.5	3.8	8.46e-01	0	58	104	0	51	12915
2026-01-23 04:48:14.37	7.35	11.11	-40.9	-51.5	3.8	8.46e-01	0	58	104	0	51	12926
2026-01-23 04:48:15.38	7.29	11.19	-41.7	-49.0	4.4	8.37e-01	0	58	0	0	52	9105
2026-01-23 04:48:16.39	7.23	11.28	-41.9	-48.8	4.0	8.43e-01	0	58	104	0	54	7971
2026-01-23 04:48:17.40	7.16	11.37	-41.4	-51.1	3.8	8.46e-01	0	58	104	0	53	10956
2026-01-23 04:48:18.41	7.10	11.46	-41.4	-47.5	5.1	7.76e-01	0	58	0	0	53	7255
2026-01-23 04:48:19.42	7.03	11.54	-41.3	-47.1	5.3	7.47e-01	0	58	0	0	53	6955
2026-01-23 04:48:20.43	6.97	11.63	-41.0	-46.4	5.8	6.19e-01	0	58	0	1048576	53	6388
2026-01-23 04:48:21.44	6.91	11.72	-40.9	-45.8	6.3	2.69e-01	0	58	0	8388608	52	6301
2026-01-23 04:48:22.45	6.84	11.81	-40.9	-45.6	6.6	2.17e-01	0	58	0	15728640	52	6157
2026-01-23 04:48:23.46	6.77	11.90	-40.4	-44.3	8.1	8.23e-02	0	58	0	23068672	51	5609
2026-01-23 04:48:24.47	6.71	11.98	-40.7	-44.7	7.8	1.08e-01	0	58	0	30408704	51	5861
2026-01-23 04:48:25.47	6.64	12.07	-39.4	-42.8	9.0	3.38e-02	0	58	0	37748736	49	5300
2026-01-23 04:48:26.48	6.57	12.16	-39.6	-43.6	7.7	7.47e-01	0	58	0	40894464	50	5481
2026-01-23 04:48:27.50	6.51	12.25	-38.0	-40.5	11.5	3.96e-03	0	58	0	48234496	47	4552
2026-01-23 04:48:28.51	6.44	12.34	-40.3	-45.0	6.5	8.31e-01	0	58	104	49283072	51	6081
2026-01-23 04:48:29.51	6.37	12.43	-37.9	-40.2	11.9	7.23e-04	0	58	0	55574528	46	4683
2026-01-23 04:48:30.52	6.30	12.52	-37.3	-39.3	12.9	4.46e-05	0	58	0	62914560	45	4467
2026-01-23 04:48:31.53	6.23	12.61	-36.8	-38.6	13.7	1.48e-05	0	58	0	70254592	44	4379
2026-01-23 04:48:32.54	6.16	12.71	-36.8	-38.6	13.9	3.40e-06	0	58	0	77594624	44	4342
2026-01-23 04:48:33.55	6.09	12.80	-36.8	-38.6	13.9	0.00e+00	0	58	0	84934656	44	4378
2026-01-23 04:48:34.56	6.02	12.89	-37.1	-39.0	13.5	9.10e-06	0	58	0	92274688	44	4570
2026-01-23 04:48:35.57	5.95	12.98	-37.4	-39.4	13.1	1.14e-05	0	58	0	99614720	44	4795
2026-01-23 04:48:36.58	5.88	13.07	-37.4	-39.4	13.2	3.89e-05	0	58	0	106954752	44	4797
2026-01-23 04:48:37.59	5.81	13.17	-37.5	-39.5	13.1	3.54e-05	0	59	0	114294784	44	4858
2026-01-23 04:48:38.60	5.74	13.26	-37.5	-39.5	13.1	2.97e-05	0	59	0	121634816	45	4589
2026-01-23 04:48:39.61	5.66	13.35	-37.5	-39.5	13.2	1.60e-05	0	58	0	128974848	45	4565
2026-01-23 04:48:40.62	5.59	13.45	-37.3	-39.1	13.7	8.00e-06	0	59	0	136314880	45	4384
2026-01-23 04:48:41.63	5.52	13.54	-37.2	-39.1	13.8	0.00e+00	0	59	0	143654912	45	4365
2026-01-23 04:48:42.64	5.44	13.64	-37.4	-39.2	13.8	3.40e-06	0	58	0	150994944	45	4432
2026-01-23 04:48:43.65	5.37	13.73	-37.8	-39.7	13.3	4.50e-06	0	59	0	157286400	45	4702
2026-01-23 04:48:44.66	5.29	13.83	-37.7	-39.6	13.5	1.48e-05	0	58	0	165675008	45	4614
2026-01-23 04:48:45.66	5.22	13.92	-37.5	-39.4	13.7	8.00e-06	0	59	0	173015040	45	4511
2026-01-23 04:48:46.67	5.14	14.02	-37.2	-38.9	14.3	3.40e-06	0	59	0	179306496	45	4290
2026-01-23 04:48:47.68	5.06	14.11	-37.3	-39.0	14.4	1.10e-06	0	59	0	186646528	45	4307
2026-01-23 04:48:48.69	4.98	14.21	-37.4	-39.2	14.2	0.00e+00	0	59	0	193986560	45	4405
2026-01-23 04:48:49.70	4.91	14.30	-37.4	-39.2	14.2	0.00e+00	0	59	0	201326592	45	4417
2026-01-23 04:48:50.71	4.83	14.40	-37.3	-39.0	14.4	0.00e+00	0	59	0	208666624	45	4325
2026-01-23 04:48:51.72	4.75	14.50	-37.2	-38.8	14.6	0.00e+00	0	59	0	216006656	45	4237
2026-01-23 04:48:52.73	4.67	14.60	-37.2	-38.9	14.7	0.00e+00	0	59	0	223346688	45	4246
2026-01-23 04:48:53.74	4.59	14.69	-37.2	-38.9	14.7	0.00e+00	0	59	0	230686720	45	4255
2026-01-23 04:48:54.75	4.51	14.79	-37.4	-39.2	14.5	0.00e+00	0	59	0	238026752	45	4405
2026-01-23 04:48:55.76	4.43	14.89	-37.5	-39.2	14.5	2.20e-06	0	59	0	245366784	45	4415
2026-01-23 04:48:56.77	4.34	14.99	-37.3	-39.0	14.7	0.00e+00	0	59	0	252706816	45	4292
2026-01-23 04:48:57.78	4.26	15.09	-37.1	-38.8	15.0	0.00e+00	0	59	0	260046848	45	4196
2026-01-23 04:48:58.79	4.18	15.19	-37.4	-39.0	14.8	0.00e+00	0	59	0	267386880	45	4338
2026-01-23 04:48:59.80	4.10	15.29	-37.5	-39.1	14.7	0.00e+00	0	59	0	274726912	45	4388
2026-01-23 04:49:00.81	4.01	15.39	-37.0	-38.5	15.4	0.00e+00	0	59	0	282066944	45	4082
2026-01-23 04:49:01.82	3.93	15.49	-37.1	-38.7	15.3	0.00e+00	0	59	0	289406976	44	4395
2026-01-23 04:49:02.83	3.84	15.59	-37.3	-38.9	15.1	0.00e+00	0	59	0	296747008	44	4497
2026-01-23 04:49:03.83	3.76	15.69	-37.0	-38.6	15.5	0.00e+00	0	59	0	303038464	44	4342
2026-01-23 04:49:04.84	3.67	15.79	-36.9	-38.5	15.6	0.00e+00	0	59	0	310378496	44	4293
2026-01-23 04:49:05.85	3.58	15.90	-37.1	-38.6	15.4	0.00e+00	0	59	0	317718528	44	4357
2026-01-23 04:49:06.86	3.49	16.00	-37.0	-38.6	15.5	0.00e+00	0	59	0	325058560	44	4356
2026-01-23 04:49:07.87	3.41	16.10	-36.9	-38.3	15.7	0.00e+00	0	59	0	332398592	44	4241
2026-01-23 04:49:08.88	3.32	16.20	-36.9	-38.4	15.7	0.00e+00	0	59	0	339738624	44	4258
2026-01-23 04:49:09.90	3.23	16.31	-37.0	-38.6	15.5	0.00e+00	0	59	0	347078656	44	4354
2026-01-23 04:49:10.91	3.14	16.41	-36.9	-38.3	15.8	0.00e+00	0	59	0	354418688	44	4235
2026-01-23 04:49:11.91	3.05	16.52	-37.0	-38.5	15.6	0.00e+00	0	59	0	361758720	44	4338
2026-01-23 04:49:12.92	2.95	16.62	-37.0	-38.5	15.7	0.00e+00	0	59	0	369098752	44	4315
2026-01-23 04:49:13.93	2.86	16.73	-37.2	-38.7	15.5	0.00e+00	0	59	0	376438784	44	4420
2026-01-23 04:49:14.94	2.77	16.83	-37.0	-38.5	15.7	0.00e+00	0	59	0	383778816	44	4338
2026-01-23 04:49:15.95	2.67	16.94	-37.1	-38.6	15.7	0.00e+00	0	59	0	391118848	44	4372
2026-01-23 04:49:16.97	2.58	17.04	-37.1	-38.6	15.7	0.00e+00	0	59	0	398458880	44	4361
2026-01-23 04:49:17.98	2.48	17.15	-37.0	-38.6	15.7	0.00e+00	0	59	0	405798912	44	4346
2026-01-23 04:49:18.99	2.39	17.26	-37.0	-38.5	15.9	0.00e+00	0	59	0	413138944	44	4292
2026-01-23 04:49:19.99	2.29	17.36	-37.1	-38.7	15.7	0.00e+00	0	59	0	420478976	44	4397
2026-01-23 04:49:21.01	2.19	17.47	-36.9	-38.4	15.9	0.00e+00	0	59	0	427819008	44	4275
2026-01-23 04:49:22.02	2.10	17.58	-37.0	-38.5	15.9	0.00e+00	0	59	0	435159040	44	4298
2026-01-23 04:49:23.02	2.00	17.69	-36.9	-38.4	16.0	0.00e+00	0	59	0	442499072	44	4269
2026-01-23 04:49:24.04	1.90	17.80	-37.0	-38.5	15.9	0.00e+00	0	59	0	449839104	44	4328
2026-01-23 04:49:25.04	1.80	17.91	-37.1	-38.6	15.8	0.00e+00	0	59	0	456130560	44	4355
2026-01-23 04:49:26.06	1.70	18.02	-36.9	-38.4	16.1	0.00e+00	0	59	0	464519168	44	4267
2026-01-23 04:49:27.07	1.59	18.13	-37.0	-38.4	16.0	0.00e+00	0	59	0	471859200	44	4264
2026-01-23 04:49:28.08	1.49	18.24	-36.9	-38.4	16.1	0.00e+00	0	59	0	478150656	44	4263
2026-01-23 04:49:29.09	1.39	18.35	-36.7	-38.2	16.3	0.00e+00	0	59	0	485490688	44	4148
2026-01-23 04:49:30.10	1.28	18.46	-36.6	-38.0	16.5	0.00e+00	0	59	0	492830720	44	4082
2026-01-23 04:49:31.10	1.18	18.57	-36.4	-37.8	16.6	0.00e+00	0	59	0	500170752	43	4197
2026-01-23 04:49:32.11	1.07	18.68	-36.3	-37.7	16.7	0.00e+00	0	59	0	507510784	43	4151
2026-01-23 04:49:33.12	0.97	18.80	-36.2	-37.5	16.8	0.00e+00	0	59	0	514850816	43	4096
2026-01-23 04:49:34.13	0.86	18.91	-36.1	-37.4	16.9	0.00e+00	0	59	0	522190848	43	4022
2026-01-23 04:49:35.14	0.75	19.02	-36.2	-37.5	16.9	0.00e+00	0	59	0	529530880	42	4304
2026-01-23 04:49:36.15	0.64	19.14	-36.0	-37.3	17.0	0.00e+00	0	60	0	536870912	42	4237
2026-01-23 04:49:37.16	0.53	19.25	-35.9	-37.2	17.1	0.00e+00	0	59	0	544210944	42	4167
2026-01-23 04:49:38.17	0.42	19.36	-36.0	-37.3	17.1	0.00e+00	0	59	0	551550976	42	4200
2026-01-23 04:49:39.18	0.31	19.48	-35.9	-37.2	17.2	0.00e+00	0	59	0	558891008	42	4168
2026-01-23 04:49:40.19	0.20	19.59	-35.9	-37.2	17.1	0.00e+00	0	59	0	566231040	42	4180
2026-01-23 04:49:41.20	0.09	19.71	-35.9	-37.2	17.1	0.00e+00	0	60	0	573571072	42	4188
2026-01-23 04:49:42.21	359.97	19.83	-35.8	-37.1	17.3	0.00e+00	0	59	0	580911104	42	4104
2026-01-23 04:49:43.22	359.86	19.94	-35.9	-37.1	17.2	0.00e+00	0	60	0	588251136	42	4140
2026-01-23 04:49:44.22	359.74	20.06	-35.9	-37.2	17.1	0.00e+00	0	60	0	595591168	42	4173
2026-01-23 04:49:45.23	359.63	20.18	-35.8	-37.1	17.2	0.00e+00	0	60	0	601882624	42	4127
2026-01-23 04:49:46.24	359.51	20.29	-35.9	-37.2	17.2	0.00e+00	0	59	0	609222656	42	4167
2026-01-23 04:49:47.25	359.39	20.41	-35.9	-37.2	17.2	0.00e+00	0	60	0	616562688	42	4147
2026-01-23 04:49:48.26	359.27	20.53	-35.8	-37.1	17.2	0.00e+00	0	60	0	623902720	42	4137
2026-01-23 04:49:49.27	359.15	20.65	-35.9	-37.2	17.2	0.00e+00	0	60	0	631242752	42	4154
2026-01-23 04:49:50.28	359.03	20.77	-35.9	-37.2	17.2	0.00e+00	0	59	0	638582784	42	4166
2026-01-23 04:49:51.29	358.90	20.89	-36.0	-37.3	17.0	0.00e+00	0	60	0	645922816	42	4242
2026-01-23 04:49:52.30	358.78	21.01	-35.8	-37.1	17.2	0.00e+00	0	60	0	653262848	42	4122
2026-01-23 04:49:53.31	358.66	21.13	-35.7	-37.0	17.3	0.00e+00	0	60	0	660602880	42	4087
2026-01-23 04:49:54.32	358.53	21.25	-35.7	-37.0	17.3	0.00e+00	0	60	0	667942912	42	4079
2026-01-23 04:49:55.33	358.40	21.38	-35.7	-37.0	17.3	0.00e+00	0	60	0	675282944	42	4074
2026-01-23 04:49:56.34	358.28	21.50	-35.4	-36.7	17.6	0.00e+00	0	60	0	682622976	41	4151
2026-01-23 04:49:57.35	358.15	21.62	-35.4	-36.6	17.7	0.00e+00	0	60	0	689963008	41	4145
2026-01-23 04:49:58.36	358.02	21.74	-35.4	-36.6	17.7	0.00e+00	0	60	0	697303040	41	4110
2026-01-23 04:49:59.37	357.89	21.87	-35.4	-36.6	17.7	0.00e+00	0	60	0	704643072	41	4125
2026-01-23 04:50:00.38	357.75	21.99	-35.3	-36.6	17.7	0.00e+00	0	60	0	711983104	41	4105
2026-01-23 04:50:01.39	357.62	22.12	-35.4	-36.6	17.7	0.00e+00	0	60	0	719323136	41	4121
2026-01-23 04:50:02.40	357.49	22.24	-35.4	-36.6	17.7	0.00e+00	0	60	0	726663168	40	4357
2026-01-23 04:50:03.40	357.35	22.36	-35.4	-36.6	17.7	0.00e+00	0	60	0	734003200	40	4351
2026-01-23 04:50:04.41	357.22	22.49	-35.4	-36.6	17.7	0.00e+00	0	60	0	741343232	40	4391
2026-01-23 04:50:05.42	357.08	22.62	-35.4	-36.6	17.7	0.00e+00	0	60	0	748683264	40	4384
2026-01-23 04:50:06.43	356.94	22.74	-35.6	-36.9	17.4	0.00e+00	0	60	0	754974720	40	4521
2026-01-23 04:50:07.44	356.80	22.87	-35.6	-36.9	17.4	0.00e+00	0	60	0	762314752	41	4265
2026-01-23 04:50:08.45	356.66	23.00	-35.7	-37.0	17.4	0.00e+00	0	60	0	769654784	41	4298
2026-01-23 04:50:09.46	356.52	23.13	-35.7	-37.0	17.4	0.00e+00	0	60	0	776994816	41	4293
2026-01-23 04:50:10.47	356.38	23.25	-35.8	-37.1	17.3	0.00e+00	0	60	0	784334848	41	4352
2026-01-23 04:50:11.48	356.23	23.38	-35.8	-37.1	17.3	0.00e+00	0	60	0	791674880	41	4341
2026-01-23 04:50:12.49	356.08	23.51	-35.8	-37.1	17.3	0.00e+00	0	60	0	799014912	42	4121
2026-01-23 04:50:13.50	355.94	23.64	-35.8	-37.0	17.3	0.00e+00	0	60	0	806354944	42	4096
2026-01-23 04:50:14.51	355.79	23.77	-35.8	-37.0	17.3	0.00e+00	0	60	0	813694976	42	4083
2026-01-23 04:50:15.51	355.64	23.90	-35.7	-37.0	17.4	0.00e+00	0	60	0	821035008	42	4053
2026-01-23 04:50:16.53	355.49	24.04	-35.7	-36.9	17.5	0.00e+00	0	60	0	828375040	42	4043
2026-01-23 04:50:17.54	355.34	24.17	-35.7	-37.0	17.4	0.00e+00	0	60	0	835715072	41	4302
2026-01-23 04:50:18.55	355.18	24.30	-35.8	-37.0	17.4	0.00e+00	0	60	0	843055104	41	4316
2026-01-23 04:50:19.56	355.03	24.43	-35.8	-37.0	17.4	0.00e+00	0	60	0	850395136	41	4315
2026-01-23 04:50:20.57	354.87	24.56	-35.8	-37.0	17.4	0.00e+00	0	60	0	857735168	41	4333
2026-01-23 04:50:21.58	354.72	24.70	-35.7	-37.0	17.5	0.00e+00	0	60	0	865075200	41	4305
2026-01-23 04:50:22.59	354.56	24.83	-35.6	-36.9	17.6	0.00e+00	0	60	0	872415232	41	4261
2026-01-23 04:50:23.60	354.40	24.97	-35.9	-37.2	17.2	0.00e+00	0	60	0	878706688	41	4420
2026-01-23 04:50:24.61	354.23	25.10	-35.8	-37.1	17.4	0.00e+00	0	60	0	887095296	41	4341
2026-01-23 04:50:25.62	354.07	25.24	-35.8	-37.1	17.3	0.00e+00	0	60	0	894435328	41	4363
2026-01-23 04:50:26.63	353.91	25.37	-35.9	-37.2	17.3	0.00e+00	0	60	0	900726784	41	4394
2026-01-23 04:50:27.64	353.74	25.51	-35.8	-37.0	17.4	0.00e+00	0	60	0	908066816	41	4316
2026-01-23 04:50:28.65	353.57	25.64	-35.9	-37.1	17.3	0.00e+00	0	60	0	915406848	41	4382
2026-01-23 04:50:29.66	353.40	25.78	-35.9	-37.2	17.3	0.00e+00	0	60	0	922746880	41	4405
2026-01-23 04:50:30.67	353.23	25.92	-36.0	-37.2	17.3	0.00e+00	0	60	0	930086912	41	4437
2026-01-23 04:50:31.68	353.06	26.06	-35.9	-37.2	17.3	0.00e+00	0	60	0	937426944	41	4432
2026-01-23 04:50:32.69	352.89	26.19	-36.0	-37.3	17.2	0.00e+00	0	60	0	944766976	41	4485
2026-01-23 04:50:33.70	352.71	26.33	-35.9	-37.1	17.5	0.00e+00	0	60	0	952107008	42	4124
2026-01-23 04:50:34.71	352.54	26.47	-35.9	-37.2	17.4	0.00e+00	0	60	0	959447040	42	4166
2026-01-23 04:50:35.72	352.36	26.61	-35.9	-37.2	17.4	0.00e+00	0	60	0	966787072	42	4174
2026-01-23 04:50:36.73	352.18	26.75	-36.0	-37.3	17.4	0.00e+00	0	60	0	974127104	42	4224
2026-01-23 04:50:37.74	352.00	26.89	-36.1	-37.4	17.3	0.00e+00	0	60	0	981467136	42	4259
2026-01-23 04:50:38.75	351.82	27.03	-36.1	-37.3	17.3	0.00e+00	0	60	0	988807168	42	4235
2026-01-23 04:50:39.76	351.63	27.17	-36.0	-37.3	17.4	0.00e+00	0	60	0	996147200	42	4215
2026-01-23 04:50:40.77	351.44	27.31	-36.0	-37.3	17.4	0.00e+00	0	60	0	1003487232	42	4206
2026-01-23 04:50:41.78	351.26	27.46	-36.1	-37.3	17.4	0.00e+00	0	60	0	1010827264	42	4230
2026-01-23 04:50:42.78	351.07	27.60	-35.8	-37.0	17.7	0.00e+00	0	60	0	1018167296	42	4078
2026-01-23 04:50:43.79	350.88	27.74	-35.7	-36.9	17.8	0.00e+00	0	60	0	1025507328	42	4043
2026-01-23 04:50:44.80	350.68	27.88	-35.7	-36.9	17.8	0.00e+00	0	60	0	1031798784	41	4282
2026-01-23 04:50:45.81	350.49	28.02	-35.6	-36.9	17.9	0.00e+00	0	60	0	1040187392	41	4244
2026-01-23 04:50:46.82	350.29	28.17	-35.6	-36.8	17.9	0.00e+00	0	60	0	1047527424	41	4203
2026-01-23 04:50:47.83	350.09	28.31	-35.5	-36.7	18.0	0.00e+00	0	60	0	1053818880	41	4160
2026-01-23 04:50:48.84	349.89	28.46	-35.5	-36.7	18.0	0.00e+00	0	60	0	1061158912	41	4169
2026-01-23 04:50:49.85	349.69	28.60	-35.3	-36.4	18.3	0.00e+00	0	60	0	1068498944	41	4035
2026-01-23 04:50:50.86	349.49	28.75	-35.2	-36.3	18.4	0.00e+00	0	60	0	1075838976	41	3993
2026-01-23 04:50:51.87	349.28	28.89	-35.2	-36.3	18.4	0.00e+00	0	60	0	1083179008	41	4000
2026-01-23 04:50:52.87	349.08	29.04	-35.1	-36.2	18.6	0.00e+00	0	60	0	1090519040	41	3942
2026-01-23 04:50:53.88	348.87	29.18	-35.4	-36.5	18.2	0.00e+00	0	60	0	1097859072	40	4340
2026-01-23 04:50:54.90	348.65	29.33	-35.1	-36.3	18.5	0.00e+00	0	60	0	1105199104	40	4199
2026-01-23 04:50:55.91	348.44	29.48	-35.1	-36.2	18.6	0.00e+00	0	60	0	1112539136	40	4178
2026-01-23 04:50:56.91	348.22	29.62	-35.1	-36.3	18.6	0.00e+00	0	60	0	1119879168	40	4196
2026-01-23 04:50:57.92	348.01	29.77	-35.2	-36.3	18.5	0.00e+00	0	60	0	1127219200	40	4219
2026-01-23 04:50:58.94	347.78	29.92	-35.2	-36.4	18.4	0.00e+00	0	60	0	1134559232	40	4264
2026-01-23 04:50:59.95	347.56	30.07	-35.3	-36.5	18.4	0.00e+00	0	60	0	1141899264	40	4303
2026-01-23 04:51:00.96	347.34	30.22	-35.3	-36.5	18.4	0.00e+00	0	60	0	1149239296	40	4300
2026-01-23 04:51:01.96	347.12	30.36	-35.2	-36.4	18.5	0.00e+00	0	60	0	1156579328	40	4260
2026-01-23 04:51:02.97	346.89	30.51	-35.3	-36.5	18.4	0.00e+00	0	60	0	1163919360	40	4312
2026-01-23 04:51:03.98	346.66	30.66	-35.3	-36.5	18.5	0.00e+00	0	60	0	1171259392	40	4297
2026-01-23 04:51:04.99	346.42	30.81	-35.3	-36.4	18.4	0.00e+00	0	60	0	1178599424	40	4263
2026-01-23 04:51:06.00	346.19	30.96	-35.4	-36.5	18.3	0.00e+00	0	60	0	1184890880	40	4316
2026-01-23 04:51:07.01	345.95	31.11	-35.4	-36.6	18.3	0.00e+00	0	60	0	1193279488	40	4370
2026-01-23 04:51:08.02	345.71	31.26	-35.4	-36.6	18.3	0.00e+00	0	60	0	1199570944	40	4346
2026-01-23 04:51:09.03	345.47	31.41	-35.5	-36.7	18.2	0.00e+00	0	60	0	1206910976	40	4432
2026-01-23 04:51:10.04	345.23	31.56	-35.5	-36.6	18.3	0.00e+00	0	60	0	1214251008	41	4132
2026-01-23 04:51:11.04	344.99	31.71	-35.4	-36.6	18.3	0.00e+00	0	60	0	1221591040	41	4117
2026-01-23 04:51:12.05	344.74	31.86	-35.5	-36.7	18.2	0.00e+00	0	60	0	1228931072	41	4156
2026-01-23 04:51:13.06	344.49	32.01	-35.6	-36.7	18.1	0.00e+00	0	60	0	1236271104	41	4193
2026-01-23 04:51:14.07	344.23	32.16	-35.5	-36.7	18.2	0.00e+00	0	60	0	1243611136	41	4176
2026-01-23 04:51:15.08	343.98	32.31	-35.5	-36.6	18.3	0.00e+00	0	60	0	1250951168	41	4139
2026-01-23 04:51:16.09	343.72	32.46	-35.5	-36.6	18.3	0.00e+00	0	60	0	1258291200	41	4135
2026-01-23 04:51:17.10	343.46	32.62	-35.4	-36.6	18.3	0.00e+00	0	60	0	1265631232	41	4110
2026-01-23 04:51:18.11	343.20	32.77	-35.4	-36.6	18.3	0.00e+00	0	60	0	1272971264	41	4123
2026-01-23 04:51:19.12	342.93	32.92	-35.4	-36.6	18.4	0.00e+00	0	60	0	1280311296	41	4117
2026-01-23 04:51:20.14	342.66	33.07	-35.2	-36.4	18.5	0.00e+00	0	60	0	1287651328	41	4019
2026-01-23 04:51:21.15	342.39	33.22	-35.3	-36.4	18.5	0.00e+00	0	60	0	1294991360	41	4044
2026-01-23 04:51:22.16	342.12	33.38	-35.1	-36.3	18.7	0.00e+00	0	60	0	1302331392	41	3960
2026-01-23 04:51:23.17	341.84	33.53	-35.1	-36.2	18.7	0.00e+00	0	60	0	1309671424	41	3946
2026-01-23 04:51:24.18	341.57	33.68	-35.1	-36.2	18.8	0.00e+00	0	60	0	1317011456	41	3925
2026-01-23 04:51:25.19	341.29	33.83	-35.0	-36.1	18.9	0.00e+00	0	60	0	1324351488	40	4099
2026-01-23 04:51:26.20	341.00	33.98	-35.0	-36.1	18.9	0.00e+00	0	60	0	1330642944	40	4111
2026-01-23 04:51:27.20	340.72	34.13	-34.9	-36.0	19.0	0.00e+00	0	60	0	1339031552	40	4070
2026-01-23 04:51:28.21	340.43	34.28	-34.9	-36.0	19.0	0.00e+00	0	60	0	1346371584	40	4054
2026-01-23 04:51:29.22	340.14	34.43	-34.9	-36.0	19.0	0.00e+00	0	60	0	1352663040	40	4080
2026-01-23 04:51:30.23	339.85	34.59	-34.7	-35.7	19.2	0.00e+00	0	60	0	1360003072	40	3942
2026-01-23 04:51:31.24	339.55	34.74	-34.9	-36.0	19.0	0.00e+00	0	61	0	1367343104	40	4054
2026-01-23 04:51:32.25	339.25	34.89	-34.8	-35.9	19.1	0.00e+00	0	60	0	1374683136	40	4022
2026-01-23 04:51:33.26	338.95	35.04	-35.0	-36.1	18.9	0.00e+00	0	60	0	1382023168	40	4128
2026-01-23 04:51:34.27	338.64	35.19	-35.0	-36.1	18.9	0.00e+00	0	60	0	1389363200	40	4110
2026-01-23 04:51:35.28	338.33	35.34	-34.8	-35.8	19.2	0.00e+00	0	60	0	1396703232	40	3992
2026-01-23 04:51:36.29	338.02	35.49	-34.8	-35.9	19.1	0.00e+00	0	60	0	1404043264	40	4039
2026-01-23 04:51:37.30	337.71	35.64	-34.8	-35.8	19.1	0.00e+00	0	60	0	1411383296	40	3985
2026-01-23 04:51:38.31	337.39	35.79	-34.9	-36.0	19.0	0.00e+00	0	60	0	1418723328	40	4069
2026-01-23 04:51:39.32	337.07	35.94	-34.9	-36.0	19.0	0.00e+00	0	60	0	1426063360	40	4081
2026-01-23 04:51:40.33	336.75	36.09	-35.0	-36.2	18.8	0.00e+00	0	61	0	1433403392	40	4146
2026-01-23 04:51:41.34	336.42	36.24	-35.2	-36.3	18.7	0.00e+00	0	60	0	1440743424	40	4210
2026-01-23 04:51:42.34	336.10	36.38	-35.4	-36.6	18.4	0.00e+00	0	60	0	1448083456	40	4362
2026-01-23 04:51:43.36	335.76	36.53	-35.5	-36.7	18.4	0.00e+00	0	60	0	1455423488	40	4414
2026-01-23 04:51:44.36	335.43	36.68	-35.5	-36.7	18.3	0.00e+00	0	60	0	1462763520	40	4411
2026-01-23 04:51:45.37	335.09	36.82	-35.5	-36.7	18.4	0.00e+00	0	60	0	1470103552	40	4402
2026-01-23 04:51:46.38	334.75	36.97	-35.5	-36.7	18.3	0.00e+00	0	60	0	1477443584	41	4163
2026-01-23 04:51:47.39	334.41	37.12	-35.6	-36.7	18.3	0.00e+00	0	61	0	1483735040	41	4178
2026-01-23 04:51:48.40	334.06	37.26	-35.5	-36.7	18.4	0.00e+00	0	60	0	1491075072	41	4150
2026-01-23 04:51:49.41	333.71	37.41	-35.6	-36.7	18.3	0.00e+00	0	60	0	1499463680	41	4186
2026-01-23 04:51:50.42	333.36	37.55	-35.5	-36.6	18.4	0.00e+00	0	61	0	1505755136	41	4137
2026-01-23 04:51:51.43	333.00	37.69	-35.3	-36.5	18.5	0.00e+00	0	60	0	1513095168	41	4060
2026-01-23 04:51:52.44	332.64	37.84	-35.4	-36.5	18.5	0.00e+00	0	60	0	1520435200	41	4092
2026-01-23 04:51:53.45	332.28	37.98	-35.5	-36.7	18.3	0.00e+00	0	60	0	1527775232	41	4150
2026-01-23 04:51:54.46	331.91	38.12	-35.4	-36.6	18.5	0.00e+00	0	60	0	1535115264	41	4107
2026-01-23 04:51:55.47	331.54	38.26	-35.5	-36.7	18.4	0.00e+00	0	60	0	1542455296	41	4154
2026-01-23 04:51:56.48	331.17	38.40	-35.4	-36.6	18.5	0.00e+00	0	60	0	1549795328	41	4109
2026-01-23 04:51:57.49	330.79	38.54	-35.4	-36.6	18.5	0.00e+00	0	60	0	1557135360	41	4110
2026-01-23 04:51:58.50	330.41	38.68	-35.5	-36.6	18.5	0.00e+00	0	60	0	1564475392	41	4125
2026-01-23 04:51:59.51	330.03	38.82	-35.5	-36.7	18.4	0.00e+00	0	60	0	1571815424	41	4155
2026-01-23 04:52:00.52	329.64	38.95	-35.6	-36.8	18.3	0.00e+00	0	60	0	1579155456	41	4217
2026-01-23 04:52:01.53	329.26	39.09	-35.4	-36.5	18.5	0.00e+00	0	60	0	1586495488	41	4092
2026-01-23 04:52:02.54	328.86	39.22	-35.4	-36.6	18.5	0.00e+00	0	60	0	1593835520	41	4115
2026-01-23 04:52:03.55	328.47	39.36	-35.5	-36.7	18.3	0.00e+00	0	60	0	1601175552	41	4164
2026-01-23 04:52:04.56	328.07	39.49	-35.4	-36.5	18.5	0.00e+00	0	61	0	1608515584	41	4070
2026-01-23 04:52:05.57	327.67	39.62	-35.4	-36.5	18.5	0.00e+00	0	60	0	1615855616	41	4091
2026-01-23 04:52:06.58	327.26	39.75	-35.6	-36.7	18.3	0.00e+00	0	61	0	1623195648	41	4174
2026-01-23 04:52:07.59	326.85	39.88	-35.6	-36.7	18.3	0.00e+00	0	60	0	1629487104	41	4185
2026-01-23 04:52:08.60	326.44	40.01	-35.6	-36.8	18.3	0.00e+00	0	60	0	1637875712	41	4207
2026-01-23 04:52:09.61	326.03	40.13	-35.7	-36.9	18.2	0.00e+00	0	60	0	1645215744	41	4243
2026-01-23 04:52:10.62	325.61	40.26	-35.7	-36.9	18.1	0.00e+00	0	60	0	1651507200	41	4269
2026-01-23 04:52:11.63	325.19	40.38	-35.8	-36.9	18.1	0.00e+00	0	60	0	1658847232	41	4288
2026-01-23 04:52:12.64	324.76	40.50	-35.7	-36.8	18.2	0.00e+00	0	61	0	1666187264	41	4233
2026-01-23 04:52:13.65	324.33	40.63	-35.4	-36.6	18.5	0.00e+00	0	61	0	1673527296	41	4112
2026-01-23 04:52:14.66	323.90	40.75	-35.2	-36.3	18.7	0.00e+00	0	61	0	1680867328	41	3977
2026-01-23 04:52:15.67	323.47	40.86	-35.2	-36.3	18.8	0.00e+00	0	60	0	1688207360	41	3975
2026-01-23 04:52:16.68	323.03	40.98	-35.4	-36.5	18.6	0.00e+00	0	60	0	1695547392	41	4076
2026-01-23 04:52:17.69	322.59	41.10	-35.2	-36.3	18.7	0.00e+00	0	60	0	1702887424	41	3997
2026-01-23 04:52:18.70	322.14	41.21	-35.2	-36.3	18.7	0.00e+00	0	61	0	1710227456	41	3990
2026-01-23 04:52:19.71	321.70	41.32	-35.3	-36.4	18.7	0.00e+00	0	61	0	1717567488	41	4017
2026-01-23 04:52:20.72	321.24	41.43	-35.4	-36.5	18.6	0.00e+00	0	61	0	1724907520	41	4068
2026-01-23 04:52:21.73	320.79	41.54	-35.3	-36.5	18.6	0.00e+00	0	60	0	1732247552	41	4054
2026-01-23 04:52:22.74	320.33	41.65	-35.6	-36.8	18.3	0.00e+00	0	61	0	1739587584	41	4217
2026-01-23 04:52:23.75	319.87	41.75	-35.5	-36.7	18.4	0.00e+00	0	61	0	1746927616	41	4178
2026-01-23 04:52:24.76	319.41	41.86	-35.7	-36.8	18.2	0.00e+00	0	61	0	1754267648	41	4235
2026-01-23 04:52:25.77	318.95	41.96	-35.9	-37.1	18.0	0.00e+00	0	61	0	1761607680	41	4348
2026-01-23 04:52:26.78	318.48	42.06	-35.8	-37.0	18.1	0.00e+00	0	60	0	1768947712	41	4308
2026-01-23 04:52:27.79	318.01	42.16	-35.8	-37.0	18.1	0.00e+00	0	61	0	1776287744	41	4297
2026-01-23 04:52:28.80	317.53	42.25	-35.6	-36.8	18.3	0.00e+00	0	61	0	1782579200	41	4214
2026-01-23 04:52:29.81	317.05	42.35	-35.5	-36.6	18.5	0.00e+00	0	61	0	1790967808	41	4134
2026-01-23 04:52:30.82	316.57	42.44	-35.1	-36.3	18.8	0.00e+00	0	61	0	1798307840	41	3964
2026-01-23 04:52:31.83	316.09	42.53	-35.1	-36.2	18.8	0.00e+00	0	61	0	1804599296	41	3947
2026-01-23 04:52:32.84	315.61	42.62	-35.0	-36.1	18.9	0.00e+00	0	60	0	1811939328	41	3912
2026-01-23 04:52:33.84	315.12	42.70	-35.1	-36.2	18.8	0.00e+00	0	60	0	1819279360	41	3941
2026-01-23 04:52:34.85	314.63	42.78	-35.1	-36.2	18.8	0.00e+00	0	61	0	1826619392	41	3954
2026-01-23 04:52:35.86	314.14	42.87	-35.2	-36.4	18.7	0.00e+00	0	61	0	1833959424	41	4013
2026-01-23 04:52:36.87	313.64	42.95	-35.2	-36.3	18.7	0.00e+00	0	61	0	1841299456	41	3994
2026-01-23 04:52:37.88	313.14	43.02	-35.4	-36.5	18.6	0.00e+00	0	60	0	1848639488	41	4075
2026-01-23 04:52:38.89	312.64	43.10	-35.5	-36.6	18.4	0.00e+00	0	60	0	1855979520	41	4136
2026-01-23 04:52:39.90	312.14	43.17	-35.5	-36.6	18.4	0.00e+00	0	61	0	1863319552	41	4142
2026-01-23 04:52:40.91	311.64	43.24	-35.5	-36.6	18.4	0.00e+00	0	61	0	1870659584	41	4143
2026-01-23 04:52:41.92	311.13	43.31	-35.6	-36.7	18.4	0.00e+00	0	60	0	1877999616	41	4184
2026-01-23 04:52:42.93	310.62	43.37	-35.6	-36.7	18.3	0.00e+00	0	61	0	1885339648	41	4185
2026-01-23 04:52:43.94	310.11	43.43	-35.7	-36.8	18.3	0.00e+00	0	61	0	1892679680	41	4235
2026-01-23 04:52:44.95	309.59	43.49	-35.6	-36.8	18.3	0.00e+00	0	60	0	1900019712	41	4216
2026-01-23 04:52:45.96	309.08	43.55	-35.5	-36.6	18.4	0.00e+00	0	60	0	1907359744	41	4145
2026-01-23 04:52:46.97	308.56	43.61	-35.5	-36.6	18.5	0.00e+00	0	61	0	1914699776	41	4126
2026-01-23 04:52:47.98	308.04	43.66	-35.7	-36.9	18.2	0.00e+00	0	61	0	1922039808	41	4246
2026-01-23 04:52:48.99	307.52	43.71	-35.8	-36.9	18.1	0.00e+00	0	60	0	1928331264	41	4290
2026-01-23 04:52:50.00	307.00	43.76	-35.6	-36.7	18.4	0.00e+00	0	60	0	1935671296	41	4176
2026-01-23 04:52:51.00	306.48	43.80	-35.4	-36.5	18.6	0.00e+00	0	61	0	1944059904	41	4071
2026-01-23 04:52:52.01	305.95	43.84	-35.3	-36.4	18.7	0.00e+00	0	61	0	1950351360	41	4017
2026-01-23 04:52:53.02	305.43	43.88	-35.2	-36.4	18.7	0.00e+00	0	61	0	1957691392	41	4016
2026-01-23 04:52:54.03	304.90	43.92	-35.1	-36.3	18.8	0.00e+00	0	61	0	1965031424	41	3960
2026-01-23 04:52:55.04	304.37	43.95	-35.3	-36.4	18.6	0.00e+00	0	61	0	1972371456	41	4040
2026-01-23 04:52:56.05	303.84	43.99	-35.4	-36.5	18.6	0.00e+00	0	61	0	1979711488	41	4079
2026-01-23 04:52:57.07	303.30	44.02	-35.4	-36.6	18.5	0.00e+00	0	61	0	1987051520	41	4115
2026-01-23 04:52:58.07	302.78	44.04	-35.5	-36.7	18.4	0.00e+00	0	61	0	1994391552	41	4167
2026-01-23 04:52:59.08	302.24	44.06	-35.5	-36.7	18.4	0.00e+00	0	61	0	2001731584	41	4166
2026-01-23 04:53:00.09	301.71	44.08	-35.3	-36.5	18.6	0.00e+00	0	61	0	2009071616	41	4060
2026-01-23 04:53:01.10	301.18	44.10	-35.4	-36.6	18.5	0.00e+00	0	61	0	2016411648	41	4105
2026-01-23 04:53:02.11	300.64	44.12	-35.3	-36.4	18.7	0.00e+00	0	61	0	2023751680	41	4020
2026-01-23 04:53:03.12	300.10	44.13	-35.3	-36.4	18.7	0.00e+00	0	61	0	2031091712	41	4018
2026-01-23 04:53:04.13	299.57	44.14	-35.3	-36.5	18.6	0.00e+00	0	61	0	2038431744	41	4072
2026-01-23 04:53:05.14	299.03	44.15	-35.3	-36.4	18.6	0.00e+00	0	61	0	2045771776	41	4042
2026-01-23 04:53:06.15	298.50	44.15	-35.3	-36.5	18.6	0.00e+00	0	61	0	2053111808	41	4065
2026-01-23 04:53:07.16	297.96	44.15	-35.3	-36.5	18.6	0.00e+00	0	61	0	2060451840	41	4062
2026-01-23 04:53:08.17	297.42	44.15	-35.4	-36.5	18.6	0.00e+00	0	61	0	2067791872	41	4081
2026-01-23 04:53:09.18	296.89	44.14	-35.4	-36.5	18.5	0.00e+00	0	61	0	2075131904	41	4093
2026-01-23 04:53:10.19	296.35	44.14	-35.5	-36.6	18.4	0.00e+00	0	61	0	2081423360	41	4143
2026-01-23 04:53:11.20	295.81	44.13	-35.6	-36.8	18.3	0.00e+00	0	61	0	2088763392	41	4205
2026-01-23 04:53:12.21	295.28	44.11	-35.5	-36.7	18.4	0.00e+00	0	61	0	2097152000	41	4171
2026-01-23 04:53:13.22	294.74	44.10	-35.6	-36.7	18.3	0.00e+00	0	61	0	2103443456	41	4176
2026-01-23 04:53:14.23	294.21	44.08	-35.5	-36.6	18.4	0.00e+00	0	61	0	2110783488	41	4131
2026-01-23 04:53:15.24	293.68	44.06	-35.5	-36.6	18.4	0.00e+00	0	61	0	2118123520	41	4132
2026-01-23 04:53:16.25	293.14	44.03	-35.5	-36.6	18.5	0.00e+00	0	61	0	2125463552	41	4119
2026-01-23 04:53:17.26	292.61	44.01	-35.4	-36.6	18.5	0.00e+00	0	61	0	2132803584	41	4119
2026-01-23 04:53:18.27	292.08	43.98	-35.3	-36.4	18.6	0.00e+00	0	61	0	2140143616	41	4044
2026-01-23 04:53:19.28	291.55	43.94	-35.5	-36.7	18.4	0.00e+00	0	61	0	2147483648	41	4165
2026-01-23 04:53:20.29	291.02	43.91	-35.4	-36.5	18.5	0.00e+00	0	61	0	2154823680	41	4096
2026-01-23 04:53:21.30	290.49	43.87	-35.3	-36.4	18.7	0.00e+00	0	61	0	2162163712	41	4017
2026-01-23 04:53:22.31	289.96	43.83	-35.3	-36.4	18.6	0.00e+00	0	61	0	2169503744	41	4049
2026-01-23 04:53:23.32	289.44	43.79	-35.2	-36.4	18.7	0.00e+00	0	61	0	2176843776	41	4014
2026-01-23 04:53:24.33	288.91	43.74	-35.2	-36.4	18.7	0.00e+00	0	61	0	2184183808	41	4005
2026-01-23 04:53:25.34	288.39	43.69	-35.5	-36.6	18.4	0.00e+00	0	61	0	2191523840	41	4130
2026-01-23 04:53:26.35	287.87	43.64	-35.4	-36.6	18.5	0.00e+00	0	61	0	2198863872	41	4115
2026-01-23 04:53:27.36	287.35	43.59	-35.4	-36.5	18.5	0.00e+00	0	61	0	2206203904	41	4081
2026-01-23 04:53:28.37	286.84	43.53	-35.2	-36.4	18.7	0.00e+00	0	61	0	2213543936	41	4007
2026-01-23 04:53:29.38	286.32	43.47	-35.2	-36.3	18.8	0.00e+00	0	61	0	2220883968	41	3970
2026-01-23 04:53:30.39	285.81	43.41	-35.2	-36.3	18.7	0.00e+00	0	61	0	2227175424	41	3995
2026-01-23 04:53:31.39	285.30	43.35	-35.1	-36.2	18.9	0.00e+00	0	61	0	2234515456	41	3920
2026-01-23 04:53:32.40	284.79	43.28	-35.1	-36.2	18.8	0.00e+00	0	61	0	2241855488	41	3941
2026-01-23 04:53:33.41	284.28	43.22	-35.1	-36.2	18.9	0.00e+00	0	61	0	2249195520	41	3916
2026-01-23 04:53:34.42	283.78	43.15	-34.9	-35.9	19.1	0.00e+00	0	61	0	2256535552	40	4046
2026-01-23 04:53:35.43	283.27	43.07	-34.8	-35.9	19.1	0.00e+00	0	61	0	2263875584	40	4039
2026-01-23 04:53:36.44	282.77	43.00	-34.7	-35.8	19.2	0.00e+00	0	61	0	2271215616	40	3986
2026-01-23 04:53:37.45	282.28	42.92	-34.9	-35.9	19.1	0.00e+00	0	61	0	2278555648	40	4045
2026-01-23 04:53:38.46	281.78	42.84	-34.9	-36.0	19.0	0.00e+00	0	61	0	2285895680	40	4098
2026-01-23 04:53:39.47	281.29	42.76	-35.1	-36.2	18.9	0.00e+00	0	61	0	2293235712	40	4161
2026-01-23 04:53:40.48	280.80	42.67	-35.1	-36.3	18.8	0.00e+00	0	61	0	2300575744	40	4205
2026-01-23 04:53:41.49	280.31	42.59	-35.2	-36.3	18.7	0.00e+00	0	61	0	2307915776	40	4239
2026-01-23 04:53:42.50	279.82	42.50	-35.3	-36.4	18.7	0.00e+00	0	61	0	2315255808	40	4263
2026-01-23 04:53:43.51	279.34	42.41	-35.3	-36.5	18.6	0.00e+00	0	61	0	2322595840	40	4314
2026-01-23 04:53:44.51	278.86	42.31	-35.4	-36.6	18.5	0.00e+00	0	61	0	2329935872	40	4367
2026-01-23 04:53:45.52	278.39	42.22	-35.3	-36.5	18.6	0.00e+00	0	61	0	2337275904	40	4310
2026-01-23 04:53:46.53	277.91	42.12	-35.1	-36.3	18.8	0.00e+00	0	61	0	2344615936	40	4202
2026-01-23 04:53:47.55	277.44	42.02	-35.0	-36.1	18.9	0.00e+00	0	61	0	2351955968	40	4138
2026-01-23 04:53:48.56	276.97	41.92	-34.9	-36.0	19.0	0.00e+00	0	61	0	2359296000	40	4094
2026-01-23 04:53:49.56	276.51	41.82	-35.0	-36.1	18.9	0.00e+00	0	60	0	2366636032	40	4126
2026-01-23 04:53:50.57	276.04	41.72	-35.1	-36.3	18.8	0.00e+00	0	61	0	2373976064	40	4196
2026-01-23 04:53:51.58	275.58	41.61	-35.3	-36.4	18.7	0.00e+00	0	61	0	2380267520	40	4257
2026-01-23 04:53:52.59	275.13	41.50	-35.2	-36.3	18.7	0.00e+00	0	61	0	2387607552	40	4241
2026-01-23 04:53:53.60	274.67	41.39	-35.2	-36.3	18.7	0.00e+00	0	61	0	2394947584	40	4233
2026-01-23 04:53:54.61	274.22	41.28	-35.2	-36.3	18.8	0.00e+00	0	61	0	2402287616	40	4210
2026-01-23 04:53:55.62	273.78	41.17	-35.2	-36.4	18.7	0.00e+00	0	61	0	2409627648	40	4247
2026-01-23 04:53:56.63	273.33	41.05	-35.4	-36.5	18.5	0.00e+00	0	61	0	2416967680	40	4334
2026-01-23 04:53:57.64	272.89	40.94	-35.3	-36.4	18.6	0.00e+00	0	61	0	2424307712	40	4267
2026-01-23 04:53:58.65	272.45	40.82	-35.3	-36.5	18.6	0.00e+00	0	61	0	2431647744	40	4304
2026-01-23 04:53:59.66	272.02	40.70	-35.3	-36.5	18.6	0.00e+00	0	61	0	2438987776	40	4305
2026-01-23 04:54:00.67	271.59	40.58	-35.3	-36.4	18.6	0.00e+00	0	61	0	2446327808	40	4290
2026-01-23 04:54:01.68	271.16	40.46	-35.2	-36.3	18.8	0.00e+00	0	61	0	2453667840	40	4201
2026-01-23 04:54:02.69	270.73	40.33	-35.1	-36.3	18.8	0.00e+00	0	61	0	2461007872	40	4203
2026-01-23 04:54:03.70	270.31	40.21	-35.3	-36.4	18.6	0.00e+00	0	61	0	2468347904	40	4277
2026-01-23 04:54:04.71	269.89	40.08	-35.4	-36.6	18.4	0.00e+00	0	61	0	2475687936	40	4350
2026-01-23 04:54:05.72	269.48	39.95	-35.5	-36.7	18.4	0.00e+00	0	61	0	2483027968	40	4409
2026-01-23 04:54:06.73	269.06	39.83	-35.5	-36.7	18.4	0.00e+00	0	61	0	2490368000	40	4394
2026-01-23 04:54:07.74	268.66	39.70	-35.4	-36.6	18.4	0.00e+00	0	61	0	2497708032	40	4362
2026-01-23 04:54:08.75	268.25	39.57	-35.4	-36.5	18.5	0.00e+00	0	61	0	2503999488	40	4329
2026-01-23 04:54:09.76	267.85	39.43	-35.1	-36.2	18.8	0.00e+00	0	61	0	2512388096	40	4170
2026-01-23 04:54:10.77	267.45	39.30	-35.2	-36.3	18.7	0.00e+00	0	61	0	2519728128	40	4236
2026-01-23 04:54:11.78	267.05	39.17	-35.2	-36.3	18.7	0.00e+00	0	61	0	2526019584	40	4226
2026-01-23 04:54:12.79	266.66	39.03	-35.3	-36.4	18.6	0.00e+00	0	61	0	2533359616	40	4272
2026-01-23 04:54:13.80	266.27	38.89	-35.2	-36.3	18.7	0.00e+00	0	61	0	2540699648	40	4239
2026-01-23 04:54:14.80	265.89	38.76	-35.2	-36.3	18.8	0.00e+00	0	61	0	2548039680	40	4209
2026-01-23 04:54:15.81	265.51	38.62	-35.1	-36.2	18.8	0.00e+00	0	61	0	2555379712	40	4158
2026-01-23 04:54:16.82	265.13	38.48	-35.1	-36.2	18.8	0.00e+00	0	61	0	2562719744	40	4180
2026-01-23 04:54:17.83	264.75	38.34	-35.0	-36.1	18.9	0.00e+00	0	61	0	2570059776	40	4135
2026-01-23 04:54:18.84	264.38	38.20	-34.9	-36.0	19.0	0.00e+00	0	61	0	2577399808	40	4059
2026-01-23 04:54:19.85	264.01	38.06	-35.0	-36.1	18.9	0.00e+00	0	61	0	2584739840	40	4130
2026-01-23 04:54:20.86	263.64	37.92	-35.2	-36.4	18.7	0.00e+00	0	61	0	2592079872	40	4246
2026-01-23 04:54:21.87	263.28	37.77	-35.4	-36.5	18.5	0.00e+00	0	61	0	2599419904	40	4322
2026-01-23 04:54:22.88	262.92	37.63	-35.4	-36.6	18.3	0.00e+00	0	61	0	2606759936	40	4361
2026-01-23 04:54:23.89	262.56	37.49	-35.2	-36.4	18.7	0.00e+00	0	61	0	2614099968	40	4246
2026-01-23 04:54:24.90	262.21	37.34	-35.3	-36.5	18.6	0.00e+00	0	61	0	2621440000	40	4298
2026-01-23 04:54:25.91	261.86	37.20	-35.1	-36.3	18.7	0.00e+00	0	61	0	2628780032	40	4196
2026-01-23 04:54:26.92	261.51	37.05	-35.0	-36.1	18.9	0.00e+00	0	61	0	2636120064	40	4125
2026-01-23 04:54:27.93	261.17	36.90	-35.1	-36.3	18.8	0.00e+00	0	61	0	2643460096	40	4203
2026-01-23 04:54:28.95	260.82	36.75	-35.0	-36.1	18.9	0.00e+00	0	61	0	2650800128	40	4136
2026-01-23 04:54:29.95	260.49	36.61	-35.1	-36.2	18.8	0.00e+00	0	61	0	2658140160	40	4174
2026-01-23 04:54:30.96	260.15	36.46	-35.1	-36.3	18.8	0.00e+00	0	61	0	2665480192	40	4197
2026-01-23 04:54:31.97	259.82	36.31	-35.2	-36.3	18.7	0.00e+00	0	61	0	2672820224	40	4215
2026-01-23 04:54:32.98	259.49	36.16	-35.0	-36.1	18.9	0.00e+00	0	61	0	2679111680	40	4132
2026-01-23 04:54:33.99	259.17	36.01	-35.1	-36.2	18.8	0.00e+00	0	61	0	2686451712	40	4174
2026-01-23 04:54:35.00	258.84	35.86	-35.2	-36.3	18.7	0.00e+00	0	61	0	2694840320	40	4227
2026-01-23 04:54:36.02	258.52	35.71	-35.2	-36.3	18.7	0.00e+00	0	61	0	2701131776	40	4235
2026-01-23 04:54:37.03	258.20	35.56	-35.1	-36.2	18.8	0.00e+00	0	61	0	2708471808	40	4176
2026-01-23 04:54:38.03	257.89	35.41	-35.1	-36.3	18.7	0.00e+00	0	61	0	2715811840	40	4196
2026-01-23 04:54:39.04	257.58	35.26	-35.0	-36.1	18.9	0.00e+00	0	61	0	2723151872	40	4115
2026-01-23 04:54:40.05	257.27	35.11	-34.8	-35.9	19.1	0.00e+00	0	61	0	2730491904	40	4005
2026-01-23 04:54:41.06	256.97	34.96	-34.7	-35.8	19.2	0.00e+00	0	61	0	2737831936	40	3962
2026-01-23 04:54:42.07	256.66	34.81	-34.7	-35.8	19.2	0.00e+00	0	61	0	2745171968	40	3960
2026-01-23 04:54:43.08	256.36	34.66	-34.7	-35.8	19.2	0.00e+00	0	61	0	2752512000	40	3961
2026-01-23 04:54:44.09	256.07	34.50	-34.7	-35.8	19.2	0.00e+00	0	61	0	2759852032	40	3968
2026-01-23 04:54:45.10	255.77	34.35	-34.9	-36.0	19.0	0.00e+00	0	61	0	2767192064	40	4055
2026-01-23 04:54:46.11	255.48	34.20	-34.9	-36.0	18.9	0.00e+00	0	61	0	2774532096	40	4090
2026-01-23 04:54:47.12	255.19	34.05	-34.8	-35.9	19.0	0.00e+00	0	61	0	2781872128	40	4036
2026-01-23 04:54:48.13	254.91	33.90	-35.0	-36.1	18.9	0.00e+00	0	61	0	2789212160	40	4101
2026-01-23 04:54:49.15	254.62	33.74	-34.9	-36.0	19.0	0.00e+00	0	61	0	2796552192	40	4055
2026-01-23 04:54:50.16	254.34	33.59	-35.0	-36.1	18.9	0.00e+00	0	61	0	2803892224	40	4112
2026-01-23 04:54:51.17	254.06	33.44	-35.0	-36.1	18.8	0.00e+00	0	61	0	2811232256	40	4138
2026-01-23 04:54:52.18	253.79	33.29	-34.9	-36.0	18.9	0.00e+00	0	61	0	2818572288	40	4090
2026-01-23 04:54:53.18	253.52	33.13	-34.9	-36.0	18.9	0.00e+00	0	61	0	2824863744	40	4074
2026-01-23 04:54:54.19	253.24	32.98	-34.8	-35.9	18.8	0.00e+00	0	61	0	2832203776	40	4007
2026-01-23 04:54:55.20	252.98	32.83	-34.8	-35.9	19.1	0.00e+00	0	61	0	2840592384	40	4016
2026-01-23 04:54:56.22	252.71	32.68	-34.9	-36.0	19.0	0.00e+00	0	61	0	2846883840	40	4061
2026-01-23 04:54:57.22	252.45	32.53	-34.9	-36.0	18.9	0.00e+00	0	61	0	2854223872	40	4092
2026-01-23 04:54:58.24	252.19	32.37	-34.9	-36.0	19.0	0.00e+00	0	61	0	2861563904	40	4058
2026-01-23 04:54:59.25	251.93	32.22	-34.9	-36.0	19.0	0.00e+00	0	61	0	2868903936	40	4054
2026-01-23 04:55:00.26	251.67	32.07	-34.8	-35.9	19.1	0.00e+00	0	61	0	2876243968	40	4021
2026-01-23 04:55:01.27	251.42	31.92	-34.6	-35.6	19.3	0.00e+00	0	61	0	2883584000	40	3905
2026-01-23 04:55:02.28	251.17	31.77	-34.6	-35.6	19.4	0.00e+00	0	61	0	2890924032	39	4132
2026-01-23 04:55:03.29	250.92	31.61	-34.6	-35.6	19.3	0.00e+00	0	61	0	2898264064	39	4143
2026-01-23 04:55:04.30	250.67	31.46	-34.6	-35.6	19.3	0.00e+00	0	61	0	2905604096	39	4129
2026-01-23 04:55:05.31	250.43	31.31	-34.7	-35.8	19.2	0.00e+00	0	61	0	2912944128	39	4226
2026-01-23 04:55:06.32	250.19	31.16	-34.8	-35.9	19.1	0.00e+00	0	61	0	2920284160	39	4256
2026-01-23 04:55:07.33	249.95	31.01	-34.9	-36.0	19.0	0.00e+00	0	61	0	2927624192	39	4325
2026-01-23 04:55:08.34	249.71	30.86	-35.0	-36.1	18.9	0.00e+00	0	61	0	2934964224	39	4391
2026-01-23 04:55:09.35	249.48	30.71	-35.1	-36.2	18.8	0.00e+00	0	61	0	2942304256	39	4412
2026-01-23 04:55:10.36	249.24	30.56	-35.2	-36.3	18.7	0.00e+00	0	61	0	2949644288	39	4454
2026-01-23 04:55:11.37	249.01	30.41	-35.2	-36.3	18.6	0.00e+00	0	61	0	2956984320	40	4221
2026-01-23 04:55:12.38	248.79	30.26	-35.3	-36.5	18.5	0.00e+00	0	61	0	2964324352	40	4295
2026-01-23 04:55:13.39	248.56	30.11	-35.5	-36.6	18.3	0.00e+00	0	61	0	2971664384	40	4389
2026-01-23 04:55:14.40	248.34	29.96	-35.6	-36.8	18.2	0.00e+00	0	61	0	2977955840	40	4449
2026-01-23 04:55:15.41	248.11	29.81	-35.5	-36.7	18.2	0.00e+00	0	61	0	2986344448	40	4416
2026-01-23 04:55:16.42	247.89	29.67	-35.5	-36.7	18.2	0.00e+00	0	61	0	2993684480	40	4416
2026-01-23 04:55:17.42	247.68	29.52	-35.5	-36.7	18.3	0.00e+00	0	61	0	2999975936	40	4393
2026-01-23 04:55:18.43	247.46	29.37	-35.3	-36.5	18.4	0.00e+00	0	61	0	3007315968	40	4317
2026-01-23 04:55:19.44	247.25	29.22	-35.1	-36.2	18.7	0.00e+00	0	61	0	3014656000	40	4181
2026-01-23 04:55:20.45	247.04	29.08	-35.0	-36.1	18.8	0.00e+00	0	61	0	3021996032	40	4115
2026-01-23 04:55:21.46	246.83	28.93	-35.0	-36.1	18.7	0.00e+00	0	61	0	3029336064	40	4145
2026-01-23 04:55:22.47	246.62	28.78	-35.0	-36.1	18.8	0.00e+00	0	61	0	3036676096	40	4106
2026-01-23 04:55:23.48	246.41	28.64	-35.0	-36.1	18.8	0.00e+00	0	61	0	3044016128	40	4124
2026-01-23 04:55:24.49	246.21	28.49	-35.0	-36.1	18.8	0.00e+00	0	61	0	3051356160	40	4142
2026-01-23 04:55:25.50	246.00	28.35	-35.0	-36.2	18.7	0.00e+00	0	61	0	3058696192	40	4161
2026-01-23 04:55:26.51	245.80	28.20	-35.1	-36.3	18.7	0.00e+00	0	61	0	3066036224	40	4199
2026-01-23 04:55:27.52	245.60	28.06	-35.2	-36.3	18.6	0.00e+00	0	61	0	3073376256	40	4235
2026-01-23 04:55:28.53	245.41	27.91	-35.2	-36.3	18.5	0.00e+00	0	61	0	3080716288	40	4239
2026-01-23 04:55:29.54	245.21	27.77	-35.3	-36.4	18.5	0.00e+00	0	61	0	3088056320	40	4278
2026-01-23 04:55:30.55	245.02	27.63	-35.1	-36.2	18.6	0.00e+00	0	61	0	3095396352	40	4192
2026-01-23 04:55:31.56	244.83	27.48	-35.1	-36.2	18.7	0.00e+00	0	61	0	3102736384	40	4165
2026-01-23 04:55:32.58	244.64	27.34	-35.1	-36.2	18.7	0.00e+00	0	61	0	3110076416	40	4179
2026-01-23 04:55:33.58	244.45	27.20	-35.1	-36.2	18.6	0.00e+00	0	61	0	3117416448	40	4189
2026-01-23 04:55:34.59	244.26	27.06	-35.1	-36.2	18.7	0.00e+00	0	61	0	3123707904	40	4163
2026-01-23 04:55:35.60	244.08	26.91	-35.1	-36.2	18.6	0.00e+00	0	61	0	3131047936	40	4192
2026-01-23 04:55:36.61	243.89	26.77	-35.2	-36.4	18.5	0.00e+00	0	61	0	3139436544	40	4244
2026-01-23 04:55:37.62	243.71	26.63	-35.3	-36.4	18.5	0.00e+00	0	61	0	3145728000	40	4290
2026-01-23 04:55:38.63	243.53	26.49	-35.2	-36.4	18.5	0.00e+00	0	61	0	3153068032	40	4259
2026-01-23 04:55:39.64	243.35	26.35	-35.3	-36.5	18.4	0.00e+00	0	61	0	3160408064	40	4313
2026-01-23 04:55:40.65	243.18	26.21	-35.4	-36.5	18.4	0.00e+00	0	61	0	3167748096	40	4320
2026-01-23 04:55:41.66	243.00	26.07	-35.3	-36.5	18.4	0.00e+00	0	61	0	3175088128	40	4302
2026-01-23 04:55:42.67	242.83	25.94	-35.2	-36.3	18.5	0.00e+00	0	61	0	3182428160	40	4222
2026-01-23 04:55:43.68	242.66	25.80	-35.2	-36.3	18.5	0.00e+00	0	61	0	3189768192	40	4217
2026-01-23 04:55:44.69	242.48	25.66	-35.2	-36.3	18.5	0.00e+00	0	61	0	3197108224	40	4220
2026-01-23 04:55:45.70	242.32	25.52	-35.2	-36.3	18.5	0.00e+00	0	61	0	3204448256	40	4242
2026-01-23 04:55:46.70	242.15	25.39	-35.3	-36.5	18.4	0.00e+00	0	61	0	3211788288	40	4295
2026-01-23 04:55:47.71	241.98	25.25	-35.3	-36.5	18.4	0.00e+00	0	61	0	3219128320	40	4295
2026-01-23 04:55:48.72	241.82	25.11	-35.2	-36.4	18.5	0.00e+00	0	61	0	3226468352	40	4257
2026-01-23 04:55:49.73	241.65	24.98	-35.2	-36.4	18.5	0.00e+00	0	61	0	3233808384	40	4250
2026-01-23 04:55:50.74	241.49	24.84	-35.2	-36.3	18.5	0.00e+00	0	61	0	3241148416	40	4233
2026-01-23 04:55:51.75	241.33	24.71	-35.2	-36.4	18.5	0.00e+00	0	61	0	3248488448	40	4249
2026-01-23 04:55:52.76	241.17	24.57	-35.3	-36.4	18.4	0.00e+00	0	61	0	3255828480	40	4289
2026-01-23 04:55:53.77	241.01	24.44	-35.5	-36.6	18.2	0.00e+00	0	61	0	3263168512	40	4377
2026-01-23 04:55:54.78	240.86	24.31	-35.5	-36.6	18.2	0.00e+00	0	61	0	3270508544	40	4376
2026-01-23 04:55:55.79	240.70	24.17	-35.5	-36.7	18.1	0.00e+00	0	61	0	3276800000	40	4392
2026-01-23 04:55:56.80	240.55	24.04	-35.6	-36.7	18.1	0.00e+00	0	61	0	3284140032	40	4441
2026-01-23 04:55:57.81	240.40	23.91	-35.5	-36.7	18.1	0.00e+00	0	61	0	3292528640	40	4432
2026-01-23 04:55:58.82	240.25	23.78	-35.5	-36.7	18.2	0.00e+00	0	61	0	3298820096	40	4405
2026-01-23 04:55:59.83	240.10	23.65	-35.5	-36.7	18.1	0.00e+00	0	61	0	3306160128	40	4419
2026-01-23 04:56:00.84	239.95	23.52	-35.4	-36.6	18.2	0.00e+00	0	61	0	3313500160	40	4374
2026-01-23 04:56:01.85	239.80	23.39	-35.3	-36.4	18.4	0.00e+00	0	61	0	3320840192	40	4289
2026-01-23 04:56:02.86	239.65	23.26	-35.1	-36.3	18.5	0.00e+00	0	61	0	3328180224	40	4213
2026-01-23 04:56:03.87	239.51	23.13	-35.2	-36.4	18.5	0.00e+00	0	61	0	3335520256	40	4244
2026-01-23 04:56:04.88	239.36	23.00	-35.2	-36.3	18.5	0.00e+00	0	61	0	3342860288	40	4235
2026-01-23 04:56:05.89	239.22	22.87	-35.4	-36.5	18.3	0.00e+00	0	61	0	3350200320	40	4335
2026-01-23 04:56:06.90	239.08	22.74	-35.4	-36.6	18.2	0.00e+00	0	61	0	3357540352	40	4346
2026-01-23 04:56:07.91	238.94	22.61	-35.6	-36.8	18.1	0.00e+00	0	61	0	3364880384	40	4454
2026-01-23 04:56:08.92	238.80	22.49	-35.5	-36.7	18.1	0.00e+00	0	61	0	3372220416	40	4435
2026-01-23 04:56:09.93	238.66	22.36	-35.5	-36.7	18.0	0.00e+00	0	61	0	3379560448	40	4437
2026-01-23 04:56:10.94	238.53	22.23	-35.6	-36.8	18.0	0.00e+00	0	61	0	3386900480	40	4445
2026-01-23 04:56:11.95	238.39	22.11	-35.6	-36.8	18.0	0.00e+00	0	61	0	3394240512	40	4446
2026-01-23 04:56:12.96	238.26	21.98	-35.5	-36.7	18.1	0.00e+00	0	61	0	3401580544	40	4411
2026-01-23 04:56:13.97	238.12	21.86	-35.5	-36.7	18.1	0.00e+00	0	61	0	3408920576	40	4421
2026-01-23 04:56:14.98	237.99	21.73	-35.6	-36.8	18.0	0.00e+00	0	61	0	3416260608	40	4487
2026-01-23 04:56:15.99	237.86	21.61	-35.6	-36.8	17.9	0.00e+00	0	61	0	3422552064	40	4485
2026-01-23 04:56:17.00	237.73	21.49	-35.7	-36.9	17.9	0.00e+00	0	61	0	3429892096	40	4501
2026-01-23 04:56:18.01	237.60	21.36	-35.8	-37.0	17.8	0.00e+00	0	61	0	3438280704	41	4329
2026-01-23 04:56:19.02	237.47	21.24	-35.9	-37.1	17.7	0.00e+00	0	61	0	3444572160	41	4361
2026-01-23 04:56:20.03	237.34	21.12	-35.9	-37.1	17.6	0.00e+00	0	61	0	3451912192	41	4387
2026-01-23 04:56:21.04	237.22	21.00	-36.0	-37.2	17.6	0.00e+00	0	61	0	3459252224	41	4436
2026-01-23 04:56:22.05	237.09	20.87	-35.9	-37.2	17.6	0.00e+00	0	61	0	3466592256	41	4405
2026-01-23 04:56:23.06	236.97	20.75	-35.9	-37.1	17.7	0.00e+00	0	61	0	3473932288	41	4376
2026-01-23 04:56:24.06	236.85	20.63	-35.9	-37.1	17.6	0.00e+00	0	61	0	3481272320	41	4372
2026-01-23 04:56:25.08	236.72	20.51	-35.9	-37.1	17.6	0.00e+00	0	61	0	3488612352	41	4380
2026-01-23 04:56:26.09	236.60	20.39	-35.8	-37.1	17.7	0.00e+00	0	61	0	3495952384	41	4342
2026-01-23 04:56:27.10	236.48	20.27	-35.7	-36.9	17.8	0.00e+00	0	61	0	3503292416	41	4253
2026-01-23 04:56:28.11	236.36	20.16	-35.7	-36.9	17.8	0.00e+00	0	61	0	3510632448	41	4291
2026-01-23 04:56:29.12	236.24	20.04	-35.9	-37.1	17.7	0.00e+00	0	61	0	3517972480	41	4352
2026-01-23 04:56:30.13	236.13	19.92	-36.0	-37.2	17.6	0.00e+00	0	61	0	3525312512	41	4414
2026-01-23 04:56:31.14	236.01	19.80	-36.0	-37.2	17.5	0.00e+00	0	61	0	3532652544	41	4434
2026-01-23 04:56:32.15	235.89	19.69	-36.1	-37.4	17.4	0.00e+00	0	61	0	3539992576	41	4502
2026-01-23 04:56:33.16	235.78	19.57	-36.3	-37.6	17.2	0.00e+00	0	61	0	3547332608	42	4344
2026-01-23 04:56:34.17	235.67	19.45	-36.3	-37.6	17.2	0.00e+00	0	61	0	3554672640	42	4383
2026-01-23 04:56:35.18	235.55	19.34	-36.4	-37.7	17.1	0.00e+00	0	61	0	3562012672	42	4401
2026-01-23 04:56:36.19	235.44	19.22	-36.5	-37.8	17.0	0.00e+00	0	61	0	3569352704	42	4452
2026-01-23 04:56:37.20	235.33	19.11	-36.4	-37.8	17.0	0.00e+00	0	61	0	3575644160	42	4444
2026-01-23 04:56:38.21	235.22	18.99	-36.4	-37.8	17.0	0.00e+00	0	61	0	3584032768	42	4444
2026-01-23 04:56:39.22	235.11	18.88	-36.4	-37.7	17.0	0.00e+00	0	61	0	3591372800	42	4426
2026-01-23 04:56:40.22	235.00	18.77	-36.4	-37.8	17.0	0.00e+00	0	61	0	3597664256	42	4451
2026-01-23 04:56:41.23	234.89	18.65	-36.3	-37.6	17.1	0.00e+00	0	61	0	3605004288	42	4379
2026-01-23 04:56:42.24	234.79	18.54	-36.4	-37.7	17.1	0.00e+00	0	61	0	3612344320	42	4399
2026-01-23 04:56:43.25	234.68	18.43	-36.4	-37.7	17.0	0.00e+00	0	61	0	3619684352	42	4432
2026-01-23 04:56:44.26	234.58	18.32	-36.4	-37.7	17.0	0.00e+00	0	61	0	3627024384	42	4404
2026-01-23 04:56:45.27	234.47	18.20	-36.3	-37.6	17.1	0.00e+00	0	61	0	3634364416	42	4384
2026-01-23 04:56:46.28	234.37	18.09	-36.4	-37.7	17.0	0.00e+00	0	61	0	3641704448	42	4403
2026-01-23 04:56:47.29	234.26	17.98	-36.4	-37.7	17.0	0.00e+00	0	61	0	3649044480	42	4433
2026-01-23 04:56:48.30	234.16	17.87	-36.4	-37.7	17.0	0.00e+00	0	61	0	3656384512	42	4432
2026-01-23 04:56:49.31	234.06	17.76	-36.4	-37.8	16.9	0.00e+00	0	61	0	3663724544	42	4456
2026-01-23 04:56:50.32	233.96	17.65	-36.5	-37.9	16.8	0.00e+00	0	61	0	3671064576	42	4508
2026-01-23 04:56:51.33	233.86	17.54	-36.6	-37.9	16.8	0.00e+00	0	61	0	3678404608	42	4524
2026-01-23 04:56:52.34	233.76	17.43	-36.6	-37.9	16.8	0.00e+00	0	61	0	3685744640	42	4529
2026-01-23 04:56:53.35	233.66	17.33	-36.5	-37.9	16.8	0.00e+00	0	61	0	3693084672	42	4503
2026-01-23 04:56:54.36	233.56	17.22	-36.6	-37.9	16.7	0.00e+00	0	61	0	3700424704	42	4539
2026-01-23 04:56:55.36	233.47	17.11	-36.7	-38.1	16.6	0.00e+00	0	61	0	3707764736	42	4603
2026-01-23 04:56:56.38	233.37	17.00	-36.6	-37.9	16.7	0.00e+00	0	61	0	3715104768	42	4544
2026-01-23 04:56:57.38	233.27	16.90	-36.6	-38.0	16.6	0.00e+00	0	61	0	3721396224	42	4547
2026-01-23 04:56:58.39	233.18	16.79	-36.6	-38.0	16.7	0.00e+00	0	61	0	3728736256	42	4552
2026-01-23 04:56:59.40	233.08	16.68	-36.7	-38.0	16.6	0.00e+00	0	61	0	3736076288	42	4595
2026-01-23 04:57:00.41	232.99	16.58	-36.8	-38.2	16.5	0.00e+00	0	61	0	3743416320	43	4406
2026-01-23 04:57:01.42	232.90	16.47	-36.7	-38.1	16.5	0.00e+00	0	61	0	3750756352	43	4381
2026-01-23 04:57:02.43	232.81	16.37	-36.7	-38.1	16.6	0.00e+00	0	61	0	3758096384	43	4371
2026-01-23 04:57:03.44	232.71	16.26	-36.8	-38.2	16.5	0.00e+00	0	61	0	3765436416	43	4416
2026-01-23 04:57:04.45	232.62	16.16	-36.8	-38.2	16.5	0.00e+00	0	61	0	3772776448	43	4410
2026-01-23 04:57:05.46	232.53	16.06	-36.9	-38.3	16.4	0.00e+00	0	61	0	3780116480	43	4452
2026-01-23 04:57:06.47	232.44	15.95	-37.0	-38.4	16.2	0.00e+00	0	61	0	3787456512	43	4525
2026-01-23 04:57:07.48	232.35	15.85	-37.0	-38.4	16.2	0.00e+00	0	61	0	3794796544	43	4517
2026-01-23 04:57:08.49	232.26	15.75	-37.0	-38.5	16.2	0.00e+00	0	61	0	3802136576	43	4546
2026-01-23 04:57:09.50	232.18	15.64	-37.1	-38.5	16.1	0.00e+00	0	61	0	3809476608	43	4585
2026-01-23 04:57:10.51	232.09	15.54	-37.1	-38.6	16.0	0.00e+00	0	61	0	3816816640	43	4641
2026-01-23 04:57:11.52	232.00	15.44	-37.1	-38.6	16.0	0.00e+00	0	61	0	3824156672	43	4623
2026-01-23 04:57:12.53	231.92	15.34	-37.1	-38.6	16.0	0.00e+00	0	61	0	3831496704	43	4610
2026-01-23 04:57:13.54	231.83	15.24	-37.1	-38.6	16.0	0.00e+00	0	61	0	3838836736	43	4627
2026-01-23 04:57:14.55	231.75	15.14	-37.1	-38.6	16.0	0.00e+00	0	61	0	3846176768	43	4630
2026-01-23 04:57:15.56	231.66	15.04	-37.1	-38.5	16.1	0.00e+00	0	61	0	3853516800	43	4589
2026-01-23 04:57:16.57	231.58	14.94	-37.1	-38.5	16.1	0.00e+00	0	61	0	3860856832	43	4573
2026-01-23 04:57:17.58	231.50	14.84	-37.0	-38.5	16.1	0.00e+00	0	61	0	3868196864	43	4557
2026-01-23 04:57:18.59	231.41	14.74	-37.0	-38.5	16.1	1.10e-06	0	61	0	3874488320	43	4570
2026-01-23 04:57:19.60	231.33	14.64	-37.0	-38.5	16.1	0.00e+00	0	61	0	3881828352	43	4557
2026-01-23 04:57:20.61	231.25	14.54	-36.9	-38.4	16.2	0.00e+00	0	61	0	3890216960	43	4508
2026-01-23 04:57:21.62	231.17	14.44	-37.0	-38.4	16.2	0.00e+00	0	61	0	3896508416	43	4529
2026-01-23 04:57:22.63	231.09	14.34	-37.0	-38.4	16.1	0.00e+00	0	61	0	3903848448	43	4530
2026-01-23 04:57:23.64	231.01	14.25	-37.0	-38.4	16.1	0.00e+00	0	61	0	3911188480	43	4540
2026-01-23 04:57:24.64	230.93	14.15	-37.0	-38.4	16.1	0.00e+00	0	61	0	3918528512	43	4529
2026-01-23 04:57:25.66	230.85	14.05	-37.0	-38.4	16.1	0.00e+00	0	61	0	3925868544	43	4539
2026-01-23 04:57:26.66	230.77	13.96	-37.0	-38.5	16.1	0.00e+00	0	61	0	3933208576	43	4549
2026-01-23 04:57:27.67	230.69	13.86	-37.1	-38.5	16.0	0.00e+00	0	61	0	3940548608	43	4592
2026-01-23 04:57:28.68	230.62	13.77	-37.2	-38.7	15.9	0.00e+00	0	61	0	3947888640	43	4652
2026-01-23 04:57:29.70	230.54	13.67	-37.1	-38.6	15.9	0.00e+00	0	61	0	3955228672	43	4621
2026-01-23 04:57:30.71	230.46	13.57	-37.2	-38.7	15.8	0.00e+00	0	61	0	3962568704	43	4662
2026-01-23 04:57:31.72	230.39	13.48	-37.4	-38.9	15.8	0.00e+00	0	61	0	3969908736	44	4539
2026-01-23 04:57:32.73	230.31	13.38	-37.5	-39.0	15.7	0.00e+00	0	61	0	3977248768	44	4557
2026-01-23 04:57:33.74	230.24	13.29	-37.6	-39.1	15.6	0.00e+00	0	61	0	3984588800	44	4638
2026-01-23 04:57:34.75	230.16	13.20	-37.6	-39.1	15.5	0.00e+00	0	61	0	3991928832	44	4649
2026-01-23 04:57:35.76	230.09	13.10	-37.6	-39.1	15.6	0.00e+00	0	61	0	3999268864	44	4624
2026-01-23 04:57:36.77	230.02	13.01	-37.6	-39.2	15.5	0.00e+00	0	61	0	4006608896	44	4662
2026-01-23 04:57:37.78	229.94	12.92	-37.7	-39.2	15.4	0.00e+00	0	61	0	4013948928	44	4701
2026-01-23 04:57:38.78	229.87	12.82	-37.8	-39.3	15.3	0.00e+00	0	61	0	4020240384	45	4486
2026-01-23 04:57:39.79	229.80	12.73	-37.7	-39.3	15.3	0.00e+00	0	61	0	4027580416	45	4479
2026-01-23 04:57:40.80	229.73	12.64	-37.7	-39.3	15.3	0.00e+00	0	61	0	4034920448	45	4471
2026-01-23 04:57:41.81	229.66	12.55	-37.8	-39.4	15.2	0.00e+00	0	61	0	4042260480	45	4510
2026-01-23 04:57:42.82	229.59	12.46	-37.8	-39.4	15.2	0.00e+00	0	61	0	4049600512	45	4531
2026-01-23 04:57:43.83	229.52	12.37	-37.8	-39.5	15.2	0.00e+00	0	61	0	4056940544	45	4548
2026-01-23 04:57:44.84	229.45	12.28	-37.9	-39.5	15.1	0.00e+00	0	61	0	4064280576	45	4556
2026-01-23 04:57:45.85	229.38	12.18	-37.8	-39.4	15.2	0.00e+00	0	61	0	4071620608	45	4530
2026-01-23 04:57:46.86	229.31	12.09	-37.9	-39.5	15.1	0.00e+00	0	61	0	4078960640	45	4561
2026-01-23 04:57:47.86	229.24	12.01	-37.9	-39.5	15.0	0.00e+00	0	61	0	4086300672	45	4580
