passes_logs/2026/01/23/R2.0S_Moscow/R2.0S_Moscow__20260123_004523_NOAA_20_JPSS-1_rec.log

#Pass ID: 20260123_004523_NOAA 20 (JPSS-1)
#Satellite: NOAA 20 (JPSS-1)
#Configuration: NOAA 20
#almurnet v.1.7.20251203
#Start time: 2026-01-23 00:45:23

#Version: 2.2.20231116
#Station: R2.0S_Moscow
#Location: 37.707566 lon 55.798166 lat
#TLE: 1 43013U 17073A   26022.44900781  .00000193  00000+0  11233-3 0  9999
#TLE: 2 43013  98.7645 323.3100 0001197  28.8413 331.2829 14.19538802423792

#Time	Az	El	Level	Level2	SNR	BER	BlckErr	Temp	State	Recorded	gain1	gain2
2026-01-23 00:45:23.46	12.05	2.00	-40.0	-54.6	3.8	1.49e+00	0	52	0	0	52	18331
2026-01-23 00:45:24.46	12.01	2.06	-40.0	-54.6	3.8	1.49e+00	0	52	104	0	52	18372
2026-01-23 00:45:25.48	11.96	2.12	-40.0	-54.6	3.8	1.49e+00	0	52	104	0	52	18326
2026-01-23 00:45:26.49	11.92	2.19	-40.0	-54.6	3.8	1.49e+00	0	53	104	0	52	18310
2026-01-23 00:45:27.50	11.88	2.25	-40.0	-54.6	3.8	1.49e+00	0	52	104	0	52	18308
2026-01-23 00:45:28.51	11.84	2.31	-40.0	-54.5	3.8	1.49e+00	0	53	104	0	52	18295
2026-01-23 00:45:29.52	11.79	2.37	-40.0	-54.6	3.8	1.49e+00	0	53	104	0	52	18358
2026-01-23 00:45:30.53	11.75	2.43	-40.0	-54.5	3.8	1.49e+00	0	53	104	0	52	18286
2026-01-23 00:45:31.54	11.70	2.50	-40.0	-54.5	3.8	1.49e+00	0	53	104	0	52	18297
2026-01-23 00:45:32.55	11.66	2.56	-40.1	-54.6	3.8	1.49e+00	0	53	104	0	51	19544
2026-01-23 00:45:33.56	11.62	2.62	-40.1	-54.6	3.8	1.49e+00	0	53	104	0	51	19563
2026-01-23 00:45:34.57	11.57	2.68	-40.1	-54.6	3.8	1.49e+00	0	53	104	0	51	19566
2026-01-23 00:45:35.58	11.53	2.75	-40.1	-54.6	3.8	1.49e+00	0	53	104	0	51	19545
2026-01-23 00:45:36.59	11.48	2.81	-40.1	-54.6	3.8	1.49e+00	0	53	104	0	51	19534
2026-01-23 00:45:37.60	11.44	2.87	-40.1	-54.6	3.8	1.49e+00	0	53	104	0	51	19575
2026-01-23 00:45:38.61	11.39	2.93	-40.1	-54.6	3.8	1.49e+00	0	53	104	0	51	19592
2026-01-23 00:45:39.62	11.35	3.00	-40.1	-54.6	3.8	1.49e+00	0	53	104	0	51	19591
2026-01-23 00:45:40.63	11.30	3.06	-40.1	-54.6	3.8	1.49e+00	0	53	104	0	51	19552
2026-01-23 00:45:41.64	11.26	3.12	-40.1	-54.6	3.8	1.49e+00	0	53	104	0	51	19597
2026-01-23 00:45:42.65	11.21	3.19	-40.1	-54.6	3.8	1.49e+00	0	53	104	0	51	19588
2026-01-23 00:45:43.66	11.16	3.25	-40.1	-54.6	3.8	1.49e+00	0	54	104	0	51	19555
2026-01-23 00:45:44.67	11.12	3.32	-40.0	-54.6	3.8	1.49e+00	0	54	104	0	51	19597
2026-01-23 00:45:45.69	11.07	3.38	-40.1	-54.6	3.8	1.49e+00	0	54	104	0	51	19547
2026-01-23 00:45:46.70	11.02	3.44	-40.0	-54.6	3.8	1.49e+00	0	54	104	0	51	19541
2026-01-23 00:45:47.71	10.98	3.51	-40.1	-54.6	3.8	1.49e+00	0	54	104	0	51	19569
2026-01-23 00:45:48.72	10.93	3.57	-40.1	-54.6	3.8	1.49e+00	0	54	104	0	51	19521
2026-01-23 00:45:49.73	10.88	3.64	-40.0	-54.6	3.8	1.49e+00	0	54	104	0	51	19487
2026-01-23 00:45:50.74	10.83	3.70	-40.0	-54.6	3.8	1.49e+00	0	54	104	0	51	19519
2026-01-23 00:45:51.75	10.79	3.77	-40.0	-54.6	3.8	1.49e+00	0	54	104	0	51	19531
2026-01-23 00:45:52.76	10.74	3.83	-40.0	-54.6	3.8	1.49e+00	0	54	104	0	51	19505
2026-01-23 00:45:53.77	10.69	3.90	-40.0	-54.6	3.8	1.49e+00	0	54	104	0	51	19540
2026-01-23 00:45:54.78	10.64	3.96	-40.0	-54.6	3.8	1.49e+00	0	54	104	0	51	19504
2026-01-23 00:45:55.79	10.59	4.03	-40.0	-54.6	3.8	1.49e+00	0	54	104	0	51	19523
2026-01-23 00:45:56.80	10.54	4.09	-40.0	-54.6	3.8	1.49e+00	0	54	104	0	51	19505
2026-01-23 00:45:57.81	10.49	4.16	-40.0	-54.6	3.8	1.49e+00	0	54	104	0	51	19506
2026-01-23 00:45:58.82	10.44	4.22	-40.0	-54.6	3.8	1.49e+00	0	54	104	0	51	19493
2026-01-23 00:45:59.83	10.39	4.29	-40.0	-54.6	3.8	1.49e+00	0	54	104	0	51	19537
2026-01-23 00:46:00.84	10.34	4.35	-40.0	-54.6	3.8	1.49e+00	0	55	104	0	51	19519
2026-01-23 00:46:01.85	10.29	4.42	-40.0	-54.6	3.8	1.49e+00	0	55	104	0	51	19513
2026-01-23 00:46:02.86	10.24	4.49	-40.0	-54.6	3.8	1.49e+00	0	55	104	0	51	19515
2026-01-23 00:46:03.87	10.19	4.55	-40.0	-54.6	3.8	1.49e+00	0	55	104	0	51	19495
2026-01-23 00:46:04.88	10.14	4.62	-40.0	-54.6	3.8	1.49e+00	0	55	104	0	51	19495
2026-01-23 00:46:05.89	10.09	4.69	-40.0	-54.6	3.8	1.49e+00	0	55	104	0	51	19490
2026-01-23 00:46:06.90	10.04	4.75	-40.0	-54.6	3.8	1.49e+00	0	55	104	0	51	19470
2026-01-23 00:46:07.91	9.99	4.82	-40.0	-54.6	3.8	1.49e+00	0	55	104	0	51	19501
2026-01-23 00:46:08.92	9.93	4.89	-40.0	-54.6	3.8	1.49e+00	0	55	104	0	51	19525
2026-01-23 00:46:09.93	9.88	4.95	-40.0	-54.6	3.8	1.49e+00	0	55	104	0	51	19509
2026-01-23 00:46:10.94	9.83	5.02	-40.0	-54.6	3.8	1.49e+00	0	55	104	0	51	19473
2026-01-23 00:46:11.95	9.78	5.09	-40.0	-54.6	3.8	1.49e+00	0	55	104	0	51	19477
2026-01-23 00:46:12.96	9.72	5.16	-40.0	-54.6	3.8	1.49e+00	0	55	104	0	51	19520
2026-01-23 00:46:13.97	9.67	5.22	-40.0	-54.6	3.8	1.49e+00	0	55	104	0	51	19464
2026-01-23 00:46:14.98	9.62	5.29	-40.0	-54.6	3.8	1.49e+00	0	55	104	0	51	19500
2026-01-23 00:46:15.99	9.56	5.36	-40.0	-54.6	3.8	1.49e+00	0	55	104	0	51	19491
2026-01-23 00:46:17.01	9.51	5.43	-40.0	-54.6	3.8	1.49e+00	0	55	104	0	51	19507
2026-01-23 00:46:18.02	9.45	5.50	-40.0	-54.6	3.8	1.49e+00	0	56	104	0	51	19513
2026-01-23 00:46:19.03	9.40	5.57	-40.0	-54.6	3.8	1.49e+00	0	56	104	0	51	19561
2026-01-23 00:46:20.04	9.34	5.64	-40.0	-54.6	3.8	1.49e+00	0	56	104	0	51	19435
2026-01-23 00:46:21.05	9.29	5.70	-40.0	-54.6	3.8	1.49e+00	0	56	104	0	51	19539
2026-01-23 00:46:22.06	9.23	5.77	-40.0	-54.6	3.8	1.49e+00	0	55	104	0	51	19461
2026-01-23 00:46:23.07	9.18	5.84	-40.0	-54.6	3.8	1.49e+00	0	56	104	0	51	19491
2026-01-23 00:46:24.08	9.12	5.91	-40.0	-54.6	3.8	1.49e+00	0	56	104	0	51	19457
2026-01-23 00:46:25.09	9.06	5.98	-40.0	-54.6	3.8	1.49e+00	0	56	104	0	51	19454
2026-01-23 00:46:26.10	9.01	6.05	-40.0	-54.6	3.8	1.49e+00	0	56	104	0	51	19476
2026-01-23 00:46:27.11	8.95	6.12	-40.0	-54.6	3.8	1.49e+00	0	56	104	0	51	19498
2026-01-23 00:46:28.12	8.89	6.19	-40.0	-54.6	3.8	1.49e+00	0	56	104	0	51	19495
2026-01-23 00:46:29.13	8.84	6.26	-40.0	-54.6	3.8	1.49e+00	0	56	104	0	51	19488
2026-01-23 00:46:30.14	8.78	6.33	-40.0	-54.6	3.8	1.49e+00	0	56	104	0	51	19507
2026-01-23 00:46:31.15	8.72	6.40	-40.0	-54.6	3.8	1.49e+00	0	56	104	0	51	19481
2026-01-23 00:46:32.16	8.66	6.47	-40.0	-54.6	3.8	1.49e+00	0	56	104	0	51	19516
2026-01-23 00:46:33.17	8.60	6.54	-40.0	-54.6	3.8	1.49e+00	0	56	104	0	51	19475
2026-01-23 00:46:34.18	8.54	6.61	-40.0	-54.6	3.8	1.49e+00	0	56	104	0	51	19532
2026-01-23 00:46:35.19	8.48	6.68	-40.0	-54.6	3.8	1.49e+00	0	56	104	0	51	19511
2026-01-23 00:46:36.20	8.42	6.76	-40.0	-54.6	3.8	1.49e+00	0	56	104	0	51	19519
2026-01-23 00:46:37.21	8.36	6.83	-40.0	-54.6	3.8	1.49e+00	0	56	104	0	51	19483
2026-01-23 00:46:38.22	8.30	6.90	-40.0	-54.6	3.8	1.49e+00	0	56	104	0	51	19480
2026-01-23 00:46:39.23	8.24	6.97	-40.0	-54.6	3.8	1.49e+00	0	57	104	0	51	19503
2026-01-23 00:46:40.24	8.18	7.04	-40.0	-54.6	3.8	1.49e+00	0	56	104	0	51	19481
2026-01-23 00:46:41.25	8.12	7.11	-40.0	-54.6	3.8	1.49e+00	0	57	104	0	51	19475
2026-01-23 00:46:42.26	8.06	7.19	-40.0	-54.6	3.8	1.49e+00	0	57	104	0	51	19502
2026-01-23 00:46:43.27	8.00	7.26	-40.0	-54.6	3.8	1.49e+00	0	57	104	0	51	19481
2026-01-23 00:46:44.28	7.93	7.33	-40.0	-54.6	3.8	1.49e+00	0	57	104	0	51	19494
2026-01-23 00:46:45.28	7.87	7.40	-40.0	-54.6	3.8	1.49e+00	0	57	104	0	51	19502
2026-01-23 00:46:46.30	7.81	7.48	-40.0	-54.6	3.8	1.49e+00	0	57	104	0	51	19460
2026-01-23 00:46:47.31	7.75	7.55	-40.0	-54.6	3.8	1.49e+00	0	57	104	0	51	19495
2026-01-23 00:46:48.32	7.68	7.62	-40.0	-54.6	3.8	1.49e+00	0	57	104	0	51	19502
2026-01-23 00:46:49.33	7.62	7.70	-40.0	-54.6	3.8	1.49e+00	0	57	104	0	51	19469
2026-01-23 00:46:50.34	7.55	7.77	-40.0	-54.6	3.8	1.49e+00	0	57	104	0	51	19459
2026-01-23 00:46:51.35	7.49	7.84	-40.0	-54.6	3.8	1.49e+00	0	57	104	0	51	19493
2026-01-23 00:46:52.36	7.42	7.92	-40.0	-54.6	3.8	1.49e+00	0	57	104	0	51	19484
2026-01-23 00:46:53.37	7.36	7.99	-40.0	-54.6	3.8	1.49e+00	0	57	104	0	51	19468
2026-01-23 00:46:54.38	7.29	8.07	-40.1	-54.7	3.8	1.49e+00	0	57	104	0	51	19618
2026-01-23 00:46:55.39	7.23	8.14	-40.1	-54.7	3.8	1.49e+00	0	57	104	0	51	19720
2026-01-23 00:46:56.40	7.16	8.22	-40.1	-54.7	3.8	1.49e+00	0	57	104	0	51	19694
2026-01-23 00:46:57.41	7.09	8.29	-40.2	-54.7	3.8	1.49e+00	0	57	104	0	51	19765
2026-01-23 00:46:58.42	7.03	8.37	-40.1	-54.7	3.8	1.49e+00	0	57	104	0	51	19756
2026-01-23 00:46:59.43	6.96	8.44	-40.1	-54.6	3.8	1.49e+00	0	57	104	0	51	19539
2026-01-23 00:47:00.44	6.89	8.52	-40.1	-54.7	3.8	1.49e+00	0	57	104	0	51	19692
2026-01-23 00:47:01.45	6.82	8.59	-40.1	-54.7	3.8	1.49e+00	0	57	104	0	51	19784
2026-01-23 00:47:02.46	6.75	8.67	-40.1	-54.7	3.8	1.49e+00	0	57	104	0	51	19717
2026-01-23 00:47:03.47	6.68	8.75	-40.1	-54.6	3.8	1.49e+00	0	57	104	0	51	19559
2026-01-23 00:47:04.48	6.61	8.82	-40.1	-54.7	3.8	1.49e+00	0	57	104	0	51	19695
2026-01-23 00:47:05.49	6.54	8.90	-40.1	-54.7	3.8	1.49e+00	0	57	104	0	51	19768
2026-01-23 00:47:06.50	6.47	8.97	-40.1	-54.7	3.8	1.49e+00	0	57	104	0	51	19666
2026-01-23 00:47:07.51	6.40	9.05	-40.1	-54.6	3.8	1.49e+00	0	57	104	0	51	19578
2026-01-23 00:47:08.51	6.33	9.13	-40.1	-54.7	3.8	1.49e+00	0	57	104	0	51	19730
2026-01-23 00:47:09.52	6.26	9.20	-40.2	-54.7	3.8	1.49e+00	0	57	104	0	51	19790
2026-01-23 00:47:10.53	6.19	9.28	-40.1	-54.7	3.8	1.49e+00	0	57	104	0	51	19692
2026-01-23 00:47:11.54	6.12	9.36	-40.1	-54.7	3.8	1.49e+00	0	57	104	0	51	19742
2026-01-23 00:47:12.55	6.05	9.44	-40.2	-54.7	3.8	1.49e+00	0	57	104	0	51	19820
2026-01-23 00:47:13.56	5.97	9.52	-40.2	-54.8	3.8	1.49e+00	0	57	104	0	51	19921
2026-01-23 00:47:14.57	5.90	9.59	-40.2	-54.7	3.8	1.49e+00	0	58	104	0	51	19716
2026-01-23 00:47:15.58	5.83	9.67	-40.2	-54.8	3.8	1.49e+00	0	58	104	0	51	19923
2026-01-23 00:47:16.59	5.75	9.75	-40.2	-54.8	3.8	1.49e+00	0	57	104	0	51	19929
2026-01-23 00:47:17.60	5.68	9.83	-40.4	-54.9	3.8	1.49e+00	0	58	104	0	51	20287
2026-01-23 00:47:18.61	5.60	9.91	-40.2	-54.8	3.8	1.49e+00	0	58	104	0	51	19975
2026-01-23 00:47:19.62	5.53	9.99	-40.0	-54.6	3.8	1.49e+00	0	58	104	0	51	19452
2026-01-23 00:47:20.63	5.45	10.07	-40.0	-54.6	3.8	1.49e+00	0	58	104	0	51	19450
2026-01-23 00:47:21.64	5.37	10.15	-40.0	-54.6	3.8	1.49e+00	0	58	104	0	51	19399
2026-01-23 00:47:22.65	5.30	10.23	-40.0	-54.6	3.8	1.49e+00	0	58	104	0	51	19430
2026-01-23 00:47:23.66	5.22	10.31	-40.0	-54.6	3.8	1.49e+00	0	57	104	0	51	19532
2026-01-23 00:47:24.67	5.14	10.39	-40.6	-55.2	3.8	1.49e+00	0	58	104	0	51	20975
2026-01-23 00:47:25.68	5.06	10.47	-40.3	-54.9	3.8	1.49e+00	0	58	104	0	52	19064
2026-01-23 00:47:26.69	4.98	10.55	-40.0	-54.6	3.8	1.49e+00	0	58	104	0	52	18350
2026-01-23 00:47:27.70	4.91	10.63	-40.1	-54.7	3.8	1.49e+00	0	58	104	0	51	19684
2026-01-23 00:47:28.71	4.83	10.71	-40.2	-54.7	3.8	1.49e+00	0	58	104	0	51	19827
2026-01-23 00:47:29.71	4.75	10.79	-40.2	-54.8	3.8	1.49e+00	0	58	104	0	51	19886
2026-01-23 00:47:30.72	4.67	10.87	-40.4	-54.9	3.8	1.49e+00	0	58	104	0	51	20289
2026-01-23 00:47:31.73	4.59	10.95	-40.3	-54.8	3.8	1.49e+00	0	58	104	0	51	20051
2026-01-23 00:47:32.74	4.50	11.03	-40.8	-55.4	3.8	1.49e+00	0	58	104	0	52	20203
2026-01-23 00:47:33.75	4.42	11.12	-40.5	-55.2	3.8	1.49e+00	0	58	104	0	52	19625
2026-01-23 00:47:34.77	4.34	11.20	-40.2	-54.8	3.8	1.49e+00	0	58	104	0	52	18767
2026-01-23 00:47:35.78	4.26	11.28	-40.3	-54.9	3.8	1.49e+00	0	58	104	0	52	18980
2026-01-23 00:47:36.79	4.17	11.36	-40.3	-54.9	3.8	1.49e+00	0	58	104	0	52	18953
2026-01-23 00:47:37.79	4.09	11.45	-40.2	-54.8	3.8	1.49e+00	0	58	104	0	52	18872
2026-01-23 00:47:38.80	4.01	11.53	-40.4	-54.9	3.8	1.49e+00	0	58	104	0	52	19143
2026-01-23 00:47:39.81	3.92	11.61	-40.3	-54.9	3.8	1.49e+00	0	58	104	0	52	19015
2026-01-23 00:47:40.82	3.84	11.70	-41.3	-55.7	3.8	1.49e+00	0	58	104	0	53	19637
2026-01-23 00:47:41.83	3.75	11.78	-40.7	-55.3	3.8	1.49e+00	0	58	104	0	53	18912
2026-01-23 00:47:42.84	3.66	11.86	-40.4	-55.0	3.8	1.49e+00	0	58	104	0	52	19216
2026-01-23 00:47:43.84	3.58	11.95	-40.5	-55.1	3.8	1.49e+00	0	58	104	0	52	19459
2026-01-23 00:47:44.85	3.49	12.03	-40.5	-55.0	3.8	1.49e+00	0	59	104	0	52	19349
2026-01-23 00:47:45.86	3.40	12.12	-40.5	-55.0	3.8	1.49e+00	0	58	104	0	52	19245
2026-01-23 00:47:46.87	3.31	12.20	-40.8	-55.3	3.8	1.49e+00	0	58	104	0	52	20016
2026-01-23 00:47:47.88	3.22	12.29	-40.5	-55.2	3.8	1.49e+00	0	58	104	0	52	19634
2026-01-23 00:47:48.89	3.13	12.37	-41.5	-55.7	3.8	1.49e+00	0	58	104	0	53	19744
2026-01-23 00:47:49.90	3.04	12.46	-40.9	-55.3	3.8	1.49e+00	0	58	104	0	53	18891
2026-01-23 00:47:50.91	2.95	12.54	-40.5	-54.9	3.8	1.49e+00	0	58	104	0	53	17972
2026-01-23 00:47:51.92	2.86	12.63	-40.7	-55.2	3.8	1.49e+00	0	58	104	0	52	19811
2026-01-23 00:47:52.93	2.77	12.72	-40.7	-55.2	3.8	1.49e+00	0	59	104	0	52	19620
2026-01-23 00:47:53.94	2.68	12.80	-40.6	-55.0	3.8	1.49e+00	0	58	104	0	52	19328
2026-01-23 00:47:54.95	2.59	12.89	-40.8	-55.2	3.8	1.49e+00	0	59	104	0	52	19684
2026-01-23 00:47:55.96	2.49	12.98	-40.8	-55.2	3.8	1.49e+00	0	59	104	0	52	19749
2026-01-23 00:47:56.97	2.40	13.06	-42.3	-54.5	3.9	1.46e+00	0	58	104	0	55	15238
2026-01-23 00:47:57.97	2.30	13.15	-42.6	-54.1	4.1	1.36e+00	0	59	0	0	55	14666
2026-01-23 00:47:58.98	2.21	13.24	-41.8	-56.1	3.8	1.12e+00	0	59	104	0	55	18359
2026-01-23 00:47:59.99	2.11	13.33	-42.2	-51.1	5.3	1.48e+00	0	59	104	0	55	10348
2026-01-23 00:48:01.00	2.02	13.41	-42.2	-50.7	5.6	4.75e-01	0	59	0	1048576	55	9899
2026-01-23 00:48:02.01	1.92	13.50	-42.2	-50.6	5.8	4.18e-01	0	59	0	3145728	55	9734
2026-01-23 00:48:03.02	1.82	13.59	-42.2	-50.1	6.1	4.15e-01	0	59	0	5242880	55	9237
2026-01-23 00:48:04.03	1.73	13.68	-41.9	-49.1	7.0	2.06e-01	0	59	0	7340032	55	8204
2026-01-23 00:48:05.04	1.63	13.77	-41.7	-48.2	7.8	1.09e-01	0	59	0	8388608	55	7412
2026-01-23 00:48:06.05	1.53	13.86	-41.5	-47.4	8.5	5.92e-02	0	59	0	10485760	55	6794
2026-01-23 00:48:07.06	1.43	13.95	-41.3	-46.9	9.1	2.58e-02	0	59	0	12582912	54	6754
2026-01-23 00:48:08.07	1.33	14.04	-41.3	-46.8	9.2	2.07e-02	0	59	0	14680064	54	6684
2026-01-23 00:48:09.08	1.23	14.13	-41.2	-46.6	9.4	1.63e-02	0	59	0	16777216	54	6533
2026-01-23 00:48:10.09	1.12	14.22	-41.3	-46.6	9.4	1.50e-02	0	59	0	17825792	54	6554
2026-01-23 00:48:11.09	1.02	14.31	-41.3	-46.7	9.4	1.64e-02	0	59	0	19922944	54	6643
2026-01-23 00:48:12.10	0.92	14.40	-41.5	-46.9	9.2	1.87e-02	0	59	0	22020096	54	6800
2026-01-23 00:48:13.11	0.81	14.49	-41.5	-47.0	9.2	2.10e-02	0	59	0	24117248	54	6844
2026-01-23 00:48:14.12	0.71	14.58	-41.5	-47.0	9.3	1.89e-02	0	59	0	26214400	54	6826
2026-01-23 00:48:15.13	0.60	14.67	-41.5	-46.8	9.5	1.64e-02	0	59	0	27262976	54	6657
2026-01-23 00:48:16.14	0.50	14.77	-41.5	-46.5	10.0	1.09e-02	0	59	0	29360128	54	6443
2026-01-23 00:48:17.15	0.39	14.86	-41.6	-46.7	9.9	8.38e-03	0	59	0	31457280	54	6595
2026-01-23 00:48:18.16	0.29	14.95	-41.8	-46.9	9.7	1.03e-02	0	59	0	33554432	54	6786
2026-01-23 00:48:19.17	0.18	15.04	-41.8	-46.9	9.7	1.39e-02	0	59	0	35651584	54	6784
2026-01-23 00:48:20.18	0.07	15.14	-41.8	-47.0	9.6	1.28e-02	0	59	0	37748736	54	6877
2026-01-23 00:48:21.19	359.96	15.23	-41.7	-46.7	10.1	9.96e-03	0	59	0	38797312	54	6591
2026-01-23 00:48:22.20	359.85	15.32	-41.6	-46.4	10.4	6.40e-03	0	59	0	40894464	54	6352
2026-01-23 00:48:23.21	359.74	15.42	-41.8	-46.7	10.1	9.78e-03	0	59	0	42991616	54	6641
2026-01-23 00:48:24.21	359.63	15.51	-41.9	-46.9	9.9	1.28e-02	0	59	0	45088768	54	6756
2026-01-23 00:48:25.22	359.52	15.60	-41.8	-46.8	10.0	9.96e-03	0	59	0	47185920	54	6691
2026-01-23 00:48:26.23	359.40	15.70	-41.8	-46.6	10.3	6.73e-03	0	59	0	48234496	54	6542
2026-01-23 00:48:27.24	359.29	15.79	-41.8	-46.6	10.3	5.15e-03	0	59	0	50331648	54	6556
2026-01-23 00:48:28.25	359.18	15.89	-41.7	-46.6	10.3	5.37e-03	0	59	0	52428800	54	6504
2026-01-23 00:48:29.26	359.06	15.98	-41.7	-46.6	10.3	4.80e-03	0	59	0	54525952	54	6501
2026-01-23 00:48:30.27	358.94	16.08	-41.7	-46.5	10.4	4.75e-03	0	59	0	56623104	54	6452
2026-01-23 00:48:31.28	358.83	16.17	-41.7	-46.4	10.5	4.59e-03	0	59	0	57671680	54	6392
2026-01-23 00:48:32.29	358.71	16.27	-41.6	-46.4	10.5	4.18e-03	0	59	0	59768832	54	6390
2026-01-23 00:48:33.30	358.59	16.36	-41.7	-46.7	10.2	5.23e-03	0	59	0	61865984	54	6571
2026-01-23 00:48:34.31	358.47	16.46	-41.8	-46.8	10.0	7.89e-03	0	59	0	63963136	54	6672
2026-01-23 00:48:35.32	358.35	16.56	-41.7	-46.6	10.2	7.08e-03	0	59	0	66060288	54	6496
2026-01-23 00:48:36.33	358.23	16.65	-41.6	-46.4	10.4	4.52e-03	0	59	0	67108864	54	6360
2026-01-23 00:48:37.33	358.11	16.75	-41.6	-46.4	10.3	4.52e-03	0	59	0	69206016	54	6408
2026-01-23 00:48:38.34	357.99	16.85	-41.7	-46.8	10.0	6.59e-03	0	59	0	71303168	54	6666
2026-01-23 00:48:39.35	357.87	16.94	-41.7	-46.8	9.9	8.95e-03	0	59	0	73400320	54	6689
2026-01-23 00:48:40.36	357.74	17.04	-41.6	-46.7	9.9	9.88e-03	0	59	0	75497472	54	6622
2026-01-23 00:48:41.37	357.62	17.14	-41.5	-46.4	10.1	7.02e-03	0	59	0	76546048	54	6404
2026-01-23 00:48:42.38	357.49	17.24	-41.4	-46.3	10.3	5.47e-03	0	59	0	78643200	54	6285
2026-01-23 00:48:43.39	357.37	17.34	-41.4	-46.4	10.2	6.36e-03	0	59	0	80740352	54	6357
2026-01-23 00:48:44.40	357.24	17.44	-41.4	-46.5	10.0	6.88e-03	0	59	0	82837504	54	6421
2026-01-23 00:48:45.41	357.11	17.53	-41.4	-46.5	9.9	8.39e-03	0	59	0	84934656	54	6475
2026-01-23 00:48:46.42	356.98	17.63	-41.4	-46.4	10.0	8.66e-03	0	59	0	85983232	54	6387
2026-01-23 00:48:47.43	356.85	17.73	-41.2	-46.2	10.1	6.70e-03	0	59	0	88080384	54	6247
2026-01-23 00:48:48.44	356.72	17.83	-41.3	-46.5	9.7	7.48e-03	0	59	0	90177536	54	6445
2026-01-23 00:48:49.45	356.59	17.93	-41.3	-46.7	9.4	1.32e-02	0	59	0	92274688	54	6622
2026-01-23 00:48:50.46	356.46	18.03	-41.4	-47.3	8.7	2.59e-02	0	59	0	94371840	54	7066
2026-01-23 00:48:51.46	356.33	18.13	-41.5	-48.0	7.8	5.57e-02	0	60	0	95420416	54	7716
2026-01-23 00:48:52.47	356.19	18.23	-41.6	-48.9	6.9	1.41e-01	0	59	0	97517568	54	8551
2026-01-23 00:48:53.48	356.06	18.34	-41.7	-50.2	5.8	3.03e-01	0	59	0	99614720	54	9880
2026-01-23 00:48:54.49	355.92	18.44	-41.8	-51.6	4.8	5.99e-01	0	59	0	101711872	54	11662
2026-01-23 00:48:55.50	355.78	18.54	-41.8	-52.8	4.3	1.31e+00	19	59	0	102760448	54	13376
2026-01-23 00:48:56.51	355.65	18.64	-41.8	-53.6	4.1	1.43e+00	0	60	0	102760448	54	14564
2026-01-23 00:48:57.52	355.51	18.74	-41.6	-55.0	3.8	1.47e+00	0	60	104	102760448	54	17193
2026-01-23 00:48:58.53	355.37	18.84	-41.8	-55.1	3.8	1.49e+00	0	60	104	102760448	54	17460
2026-01-23 00:48:59.54	355.23	18.95	-42.4	-55.5	3.8	1.49e+00	0	60	104	102760448	55	17227
2026-01-23 00:49:00.55	355.09	19.05	-41.7	-56.2	3.8	1.49e+00	0	59	104	102760448	55	18614
2026-01-23 00:49:01.56	354.94	19.15	-41.2	-55.4	3.8	1.49e+00	0	59	104	102760448	54	17954
2026-01-23 00:49:02.56	354.80	19.25	-41.2	-55.4	3.8	1.49e+00	0	60	104	102760448	54	18006
2026-01-23 00:49:03.57	354.66	19.36	-41.2	-55.7	3.8	1.49e+00	0	60	104	102760448	54	18687
2026-01-23 00:49:04.58	354.51	19.46	-41.2	-55.8	3.8	1.49e+00	0	60	104	102760448	54	18753
2026-01-23 00:49:05.59	354.36	19.57	-41.2	-55.6	3.8	1.49e+00	0	60	104	102760448	54	18441
2026-01-23 00:49:06.60	354.22	19.67	-41.7	-56.1	3.8	1.49e+00	0	60	104	102760448	54	19524
2026-01-23 00:49:07.61	354.07	19.77	-41.9	-56.0	3.8	1.49e+00	0	60	104	102760448	55	18118
2026-01-23 00:49:08.62	353.92	19.88	-41.7	-56.2	3.8	1.49e+00	0	60	104	102760448	55	18539
2026-01-23 00:49:09.63	353.77	19.98	-42.0	-56.0	3.8	1.49e+00	0	59	104	102760448	55	18244
2026-01-23 00:49:10.64	353.61	20.09	-41.5	-56.0	3.8	1.49e+00	0	60	104	102760448	55	18294
2026-01-23 00:49:11.64	353.46	20.19	-41.5	-56.1	3.8	1.49e+00	0	60	104	102760448	54	19405
2026-01-23 00:49:12.65	353.31	20.30	-41.6	-55.7	3.8	1.49e+00	0	60	104	102760448	54	18711
2026-01-23 00:49:13.66	353.15	20.41	-41.6	-55.5	3.8	1.49e+00	0	60	104	102760448	54	18274
2026-01-23 00:49:14.67	353.00	20.51	-41.6	-54.9	3.8	1.49e+00	0	60	104	102760448	54	17017
2026-01-23 00:49:15.68	352.84	20.62	-41.7	-54.7	3.8	1.49e+00	0	59	104	102760448	54	16540
2026-01-23 00:49:16.69	352.68	20.72	-41.9	-54.0	3.9	1.49e+00	0	60	104	102760448	54	15371
2026-01-23 00:49:17.70	352.52	20.83	-42.5	-53.8	4.2	1.47e+00	0	60	104	102760448	55	14184
2026-01-23 00:49:18.71	352.36	20.94	-41.5	-55.4	3.8	1.34e+00	0	60	104	102760448	55	16895
2026-01-23 00:49:19.72	352.20	21.04	-42.2	-52.2	4.1	1.49e+00	0	60	104	102760448	54	12418
2026-01-23 00:49:20.72	352.04	21.15	-42.2	-53.5	4.2	6.60e-01	11	60	0	103809024	55	13627
2026-01-23 00:49:21.73	351.87	21.26	-42.1	-50.5	5.6	1.18e+00	0	60	104	103809024	55	9671
2026-01-23 00:49:22.74	351.71	21.37	-41.9	-49.2	6.8	2.23e-01	0	60	0	104857600	55	8333
2026-01-23 00:49:23.75	351.54	21.47	-41.8	-48.4	7.6	1.35e-01	0	60	0	106954752	55	7610
2026-01-23 00:49:24.76	351.37	21.58	-41.8	-48.1	8.0	8.18e-02	0	60	0	109051904	55	7357
2026-01-23 00:49:25.77	351.20	21.69	-41.8	-48.0	8.2	5.73e-02	0	60	0	111149056	55	7236
2026-01-23 00:49:26.78	351.03	21.80	-41.8	-47.7	8.4	5.26e-02	0	60	0	112197632	55	7033
2026-01-23 00:49:27.79	350.86	21.91	-41.7	-47.5	8.7	3.79e-02	0	60	0	114294784	55	6836
2026-01-23 00:49:28.80	350.69	22.02	-41.5	-46.9	9.3	2.51e-02	0	60	0	116391936	55	6420
2026-01-23 00:49:29.81	350.52	22.13	-41.4	-46.5	9.8	1.22e-02	0	60	0	118489088	54	6423
2026-01-23 00:49:30.82	350.34	22.23	-41.3	-46.3	10.0	8.25e-03	0	60	0	120586240	54	6305
2026-01-23 00:49:31.83	350.16	22.34	-41.3	-46.1	10.3	5.34e-03	0	60	0	121634816	54	6140
2026-01-23 00:49:32.84	349.99	22.45	-41.2	-45.8	10.7	4.05e-03	0	60	0	123731968	54	5950
2026-01-23 00:49:33.85	349.81	22.56	-41.4	-46.1	10.5	3.06e-03	0	60	0	125829120	54	6148
2026-01-23 00:49:34.86	349.63	22.67	-41.5	-46.3	10.4	4.41e-03	0	60	0	127926272	54	6296
2026-01-23 00:49:35.87	349.45	22.78	-41.7	-46.6	10.2	5.52e-03	0	60	0	130023424	54	6499
2026-01-23 00:49:36.88	349.26	22.89	-41.8	-46.6	10.2	6.85e-03	0	60	0	131072000	54	6564
2026-01-23 00:49:37.89	349.08	23.00	-41.9	-46.7	10.3	5.50e-03	0	60	0	133169152	54	6578
2026-01-23 00:49:38.89	348.90	23.11	-41.8	-46.4	10.6	4.27e-03	0	60	0	135266304	54	6394
2026-01-23 00:49:39.90	348.71	23.22	-41.7	-46.2	10.9	2.81e-03	0	60	0	137363456	54	6249
2026-01-23 00:49:40.91	348.52	23.34	-41.8	-46.3	10.9	1.89e-03	0	60	0	139460608	54	6323
2026-01-23 00:49:41.92	348.33	23.45	-42.0	-46.8	10.5	3.35e-03	0	60	0	141557760	54	6664
2026-01-23 00:49:42.93	348.14	23.56	-42.0	-46.7	10.6	4.26e-03	0	60	0	142606336	54	6586
2026-01-23 00:49:43.94	347.95	23.67	-41.9	-46.5	10.8	3.03e-03	0	60	0	144703488	54	6464
2026-01-23 00:49:44.95	347.75	23.78	-42.0	-46.5	10.8	2.57e-03	0	60	0	146800640	54	6478
2026-01-23 00:49:45.96	347.56	23.89	-42.0	-46.4	11.0	2.14e-03	0	60	0	148897792	54	6403
2026-01-23 00:49:46.97	347.36	24.00	-42.1	-46.5	11.0	1.67e-03	0	60	0	150994944	54	6470
2026-01-23 00:49:47.97	347.17	24.11	-42.0	-46.4	11.1	1.69e-03	0	60	0	152043520	54	6396
2026-01-23 00:49:48.98	346.97	24.23	-42.1	-46.6	10.9	1.84e-03	0	60	0	154140672	54	6518
2026-01-23 00:49:49.99	346.77	24.34	-42.1	-46.6	10.9	2.08e-03	0	60	0	156237824	54	6533
2026-01-23 00:49:51.00	346.56	24.45	-42.1	-46.5	11.1	1.79e-03	0	60	0	158334976	54	6439
2026-01-23 00:49:52.01	346.36	24.56	-42.1	-46.6	11.0	1.82e-03	0	60	0	159383552	54	6532
2026-01-23 00:49:53.02	346.15	24.67	-42.2	-46.7	10.9	1.91e-03	0	60	0	161480704	54	6576
2026-01-23 00:49:54.03	345.95	24.79	-42.3	-46.9	10.7	2.96e-03	0	60	0	163577856	55	6393
2026-01-23 00:49:55.04	345.74	24.90	-42.4	-47.1	10.5	3.56e-03	0	60	0	165675008	55	6503
2026-01-23 00:49:56.05	345.53	25.01	-42.4	-47.2	10.4	4.00e-03	0	60	0	167772160	55	6637
2026-01-23 00:49:57.06	345.32	25.12	-42.5	-47.3	10.3	5.16e-03	0	60	0	169869312	55	6710
2026-01-23 00:49:58.07	345.11	25.24	-42.5	-47.4	10.2	5.88e-03	0	60	0	170917888	55	6795
2026-01-23 00:49:59.08	344.89	25.35	-42.6	-47.6	10.0	7.10e-03	0	60	0	173015040	55	6943
2026-01-23 00:50:00.09	344.68	25.46	-42.7	-47.8	9.9	8.06e-03	0	60	0	175112192	55	7043
2026-01-23 00:50:01.09	344.46	25.57	-42.7	-47.8	9.9	8.62e-03	0	60	0	177209344	55	7047
2026-01-23 00:50:02.10	344.24	25.69	-42.7	-47.8	9.9	8.55e-03	0	60	0	179306496	55	7068
2026-01-23 00:50:03.11	344.02	25.80	-42.9	-47.9	10.0	1.01e-02	0	60	0	180355072	56	6729
2026-01-23 00:50:04.12	343.80	25.91	-43.0	-48.2	9.8	8.50e-03	0	60	0	182452224	56	6976
2026-01-23 00:50:05.13	343.58	26.02	-43.1	-48.3	9.6	1.18e-02	0	60	0	184549376	56	7099
2026-01-23 00:50:06.14	343.35	26.14	-43.1	-48.3	9.7	1.20e-02	0	60	0	186646528	56	7063
2026-01-23 00:50:07.15	343.12	26.25	-43.1	-48.4	9.6	1.27e-02	0	60	0	188743680	56	7140
2026-01-23 00:50:08.16	342.89	26.36	-43.0	-48.1	9.9	9.50e-03	0	60	0	189792256	56	6931
2026-01-23 00:50:09.17	342.66	26.47	-43.0	-47.9	10.1	7.26e-03	0	60	0	191889408	56	6762
2026-01-23 00:50:10.18	342.43	26.59	-42.9	-47.8	10.3	5.60e-03	0	60	0	193986560	56	6688
2026-01-23 00:50:11.19	342.20	26.70	-43.0	-48.0	10.1	6.98e-03	0	60	0	196083712	56	6836
2026-01-23 00:50:12.20	341.96	26.81	-43.0	-48.0	10.1	7.14e-03	0	60	0	198180864	56	6812
2026-01-23 00:50:13.21	341.73	26.92	-43.0	-48.0	10.2	7.07e-03	0	60	0	199229440	56	6816
2026-01-23 00:50:14.22	341.49	27.04	-43.0	-48.0	10.1	6.10e-03	0	60	0	201326592	56	6854
2026-01-23 00:50:15.23	341.25	27.15	-43.0	-48.0	10.2	6.69e-03	0	60	0	203423744	56	6811
2026-01-23 00:50:16.24	341.00	27.26	-43.1	-48.1	10.1	6.63e-03	0	60	0	205520896	56	6908
2026-01-23 00:50:17.25	340.76	27.37	-43.1	-48.1	10.1	6.71e-03	0	60	0	207618048	56	6897
2026-01-23 00:50:18.26	340.51	27.48	-43.0	-47.9	10.3	5.57e-03	0	60	0	208666624	56	6737
2026-01-23 00:50:19.27	340.27	27.60	-43.0	-47.9	10.3	5.27e-03	0	60	0	210763776	56	6777
2026-01-23 00:50:20.27	340.02	27.71	-43.0	-47.8	10.4	4.76e-03	0	60	0	212860928	56	6683
2026-01-23 00:50:21.28	339.77	27.82	-43.1	-47.9	10.3	5.26e-03	0	60	0	214958080	56	6770
2026-01-23 00:50:22.29	339.52	27.93	-43.1	-47.9	10.3	5.07e-03	0	60	0	217055232	56	6794
2026-01-23 00:50:23.30	339.26	28.04	-43.1	-47.9	10.3	5.33e-03	0	60	0	218103808	56	6769
2026-01-23 00:50:24.31	339.01	28.15	-43.0	-47.8	10.5	4.63e-03	0	60	0	220200960	56	6675
2026-01-23 00:50:25.32	338.75	28.26	-43.0	-47.8	10.4	4.75e-03	0	60	0	222298112	56	6701
2026-01-23 00:50:26.33	338.49	28.37	-43.1	-47.9	10.3	4.78e-03	0	60	0	224395264	56	6748
2026-01-23 00:50:27.34	338.23	28.48	-43.1	-48.0	10.3	4.61e-03	0	60	0	226492416	56	6808
2026-01-23 00:50:28.35	337.96	28.59	-43.1	-48.0	10.3	5.03e-03	0	60	0	227540992	56	6805
2026-01-23 00:50:29.36	337.70	28.70	-43.0	-47.7	10.5	4.24e-03	0	60	0	229638144	56	6631
2026-01-23 00:50:30.37	337.43	28.81	-43.0	-47.7	10.6	3.50e-03	0	60	0	231735296	56	6646
2026-01-23 00:50:31.38	337.16	28.92	-43.1	-47.8	10.4	4.22e-03	0	60	0	233832448	56	6703
2026-01-23 00:50:32.39	336.89	29.03	-43.1	-47.8	10.5	4.34e-03	0	60	0	235929600	56	6693
2026-01-23 00:50:33.39	336.62	29.14	-43.0	-47.8	10.5	3.94e-03	0	60	0	238026752	56	6664
2026-01-23 00:50:34.40	336.35	29.24	-43.0	-47.7	10.6	3.76e-03	0	60	0	239075328	56	6634
2026-01-23 00:50:35.41	336.07	29.35	-43.0	-47.6	10.7	3.06e-03	0	60	0	241172480	56	6566
2026-01-23 00:50:36.42	335.79	29.46	-43.0	-47.6	10.8	2.87e-03	0	60	0	243269632	56	6498
2026-01-23 00:50:37.43	335.51	29.57	-43.0	-47.7	10.6	3.34e-03	0	60	0	245366784	56	6623
2026-01-23 00:50:38.44	335.23	29.67	-43.0	-47.7	10.6	3.53e-03	0	60	0	247463936	56	6628
2026-01-23 00:50:39.45	334.95	29.78	-43.0	-47.7	10.6	3.71e-03	0	60	0	248512512	56	6628
2026-01-23 00:50:40.46	334.66	29.89	-43.1	-47.8	10.6	3.84e-03	0	60	0	250609664	56	6650
2026-01-23 00:50:41.47	334.37	29.99	-43.1	-47.9	10.5	4.20e-03	0	60	0	252706816	56	6741
2026-01-23 00:50:42.48	334.08	30.10	-43.2	-48.1	10.3	4.43e-03	0	60	0	254803968	56	6888
2026-01-23 00:50:43.48	333.79	30.20	-43.3	-48.3	10.0	6.31e-03	0	60	0	256901120	57	6721
2026-01-23 00:50:44.50	333.50	30.31	-43.4	-48.8	9.5	1.08e-02	0	61	0	257949696	57	7077
2026-01-23 00:50:45.51	333.20	30.41	-43.5	-49.1	9.2	1.82e-02	0	60	0	260046848	57	7304
2026-01-23 00:50:46.52	332.90	30.51	-43.7	-49.4	8.8	2.77e-02	0	60	0	262144000	57	7609
2026-01-23 00:50:47.52	332.61	30.62	-43.7	-49.4	8.8	2.94e-02	0	60	0	264241152	57	7605
2026-01-23 00:50:48.53	332.31	30.72	-43.8	-49.7	8.6	3.07e-02	0	60	0	266338304	58	7382
2026-01-23 00:50:49.54	332.00	30.82	-43.8	-49.8	8.5	3.74e-02	0	60	0	267386880	58	7496
2026-01-23 00:50:50.55	331.70	30.92	-43.8	-49.9	8.3	4.46e-02	0	60	0	269484032	58	7597
2026-01-23 00:50:51.56	331.39	31.02	-43.9	-50.1	8.2	5.88e-02	0	61	0	271581184	58	7788
2026-01-23 00:50:52.57	331.08	31.12	-43.9	-50.1	8.1	5.89e-02	0	60	0	273678336	58	7795
2026-01-23 00:50:53.58	330.77	31.22	-43.9	-50.2	8.1	6.27e-02	0	60	0	275775488	58	7876
2026-01-23 00:50:54.59	330.46	31.32	-44.0	-50.4	7.9	7.11e-02	0	60	0	276824064	58	8032
2026-01-23 00:50:55.60	330.14	31.42	-44.0	-50.6	7.7	8.38e-02	0	61	0	278921216	58	8215
2026-01-23 00:50:56.61	329.83	31.52	-44.1	-50.7	7.6	9.05e-02	0	60	0	281018368	58	8331
2026-01-23 00:50:57.62	329.51	31.61	-44.1	-50.8	7.5	1.01e-01	0	60	0	283115520	58	8396
2026-01-23 00:50:58.63	329.19	31.71	-44.1	-50.8	7.5	1.04e-01	0	60	0	285212672	58	8381
2026-01-23 00:50:59.64	328.87	31.80	-44.1	-50.7	7.6	9.29e-02	0	60	0	286261248	58	8359
2026-01-23 00:51:00.64	328.55	31.90	-44.1	-50.9	7.4	1.02e-01	0	60	0	288358400	58	8526
2026-01-23 00:51:01.65	328.22	31.99	-44.2	-51.2	7.1	1.26e-01	0	60	0	290455552	58	8860
2026-01-23 00:51:02.66	327.89	32.09	-44.2	-51.4	6.9	1.61e-01	0	60	0	292552704	59	8529
2026-01-23 00:51:03.67	327.56	32.18	-44.2	-51.5	6.9	1.66e-01	0	61	0	294649856	59	8602
2026-01-23 00:51:04.68	327.23	32.27	-44.4	-52.3	6.2	1.87e-01	0	60	0	295698432	59	9390
2026-01-23 00:51:05.69	326.90	32.36	-44.7	-54.2	5.0	4.44e-01	0	60	0	297795584	59	11733
2026-01-23 00:51:06.70	326.56	32.45	-44.5	-53.3	5.7	4.11e-01	0	60	0	299892736	60	10001
2026-01-23 00:51:07.71	326.22	32.54	-44.7	-54.9	4.7	1.31e+00	0	60	0	300941312	60	11996
2026-01-23 00:51:08.72	325.88	32.63	-44.8	-56.1	4.4	1.46e+00	52	60	0	300941312	60	13807
2026-01-23 00:51:09.73	325.54	32.72	-44.3	-52.2	6.2	1.33e+00	0	60	104	300941312	60	8803
2026-01-23 00:51:10.74	325.20	32.80	-44.0	-50.8	7.6	1.32e-01	0	60	0	301989888	60	7492
2026-01-23 00:51:11.75	324.85	32.89	-43.9	-50.3	7.9	8.79e-02	0	61	0	304087040	59	7485
2026-01-23 00:51:12.76	324.51	32.97	-43.9	-50.1	8.1	6.16e-02	0	61	0	306184192	59	7332
2026-01-23 00:51:13.77	324.16	33.06	-43.8	-49.8	8.3	4.76e-02	0	60	0	308281344	59	7100
2026-01-23 00:51:14.78	323.81	33.14	-43.8	-49.8	8.5	4.87e-02	0	61	0	309329920	59	7072
2026-01-23 00:51:15.79	323.45	33.22	-43.8	-49.8	8.4	4.30e-02	0	60	0	311427072	59	7079
2026-01-23 00:51:16.80	323.10	33.30	-43.8	-49.7	8.5	4.33e-02	0	61	0	313524224	59	7008
2026-01-23 00:51:17.81	322.74	33.38	-43.8	-49.7	8.5	4.10e-02	0	60	0	315621376	59	6994
2026-01-23 00:51:18.82	322.39	33.46	-43.8	-49.7	8.5	3.79e-02	0	60	0	317718528	59	7005
2026-01-23 00:51:19.83	322.03	33.54	-43.8	-49.7	8.6	3.61e-02	0	61	0	318767104	59	6968
2026-01-23 00:51:20.84	321.67	33.61	-43.8	-49.8	8.6	3.92e-02	0	60	0	320864256	59	7048
2026-01-23 00:51:21.85	321.30	33.69	-43.8	-49.8	8.4	4.68e-02	0	60	0	322961408	59	7116
2026-01-23 00:51:22.86	320.94	33.76	-43.8	-49.7	8.6	3.99e-02	0	60	0	325058560	59	6988
2026-01-23 00:51:23.87	320.57	33.84	-43.6	-49.3	9.0	3.28e-02	0	61	0	327155712	59	6687
2026-01-23 00:51:24.88	320.21	33.91	-43.5	-48.9	9.4	1.98e-02	0	60	0	328204288	59	6380
2026-01-23 00:51:25.89	319.84	33.98	-43.4	-48.6	9.6	1.36e-02	0	60	0	330301440	58	6534
2026-01-23 00:51:26.90	319.47	34.05	-43.3	-48.3	10.0	9.69e-03	0	60	0	332398592	58	6329
2026-01-23 00:51:27.91	319.09	34.12	-43.2	-48.2	10.2	7.67e-03	0	60	0	334495744	58	6216
2026-01-23 00:51:28.92	318.72	34.18	-43.2	-48.0	10.4	5.19e-03	0	60	0	336592896	58	6080
2026-01-23 00:51:29.92	318.35	34.25	-43.1	-47.8	10.6	4.11e-03	0	60	0	338690048	58	5954
2026-01-23 00:51:30.93	317.97	34.31	-43.0	-47.6	10.7	3.17e-03	0	60	0	339738624	58	5825
2026-01-23 00:51:31.95	317.59	34.38	-43.1	-47.7	10.7	3.07e-03	0	60	0	341835776	58	5883
2026-01-23 00:51:32.96	317.21	34.44	-43.0	-47.6	10.7	3.01e-03	0	61	0	343932928	58	5849
2026-01-23 00:51:33.97	316.83	34.50	-43.1	-47.7	10.6	2.93e-03	0	60	0	346030080	58	5880
2026-01-23 00:51:34.97	316.45	34.56	-43.0	-47.6	10.7	2.80e-03	0	60	0	348127232	58	5851
2026-01-23 00:51:35.98	316.06	34.62	-42.9	-47.4	11.0	2.22e-03	0	61	0	349175808	57	6008
2026-01-23 00:51:36.99	315.68	34.67	-42.9	-47.3	11.0	1.75e-03	0	60	0	351272960	57	5960
2026-01-23 00:51:38.00	315.29	34.73	-42.9	-47.3	11.0	1.69e-03	0	60	0	353370112	57	5976
2026-01-23 00:51:39.01	314.90	34.78	-42.8	-47.2	11.1	1.43e-03	0	60	0	355467264	57	5893
2026-01-23 00:51:40.02	314.51	34.84	-42.7	-46.9	11.4	9.54e-04	0	61	0	357564416	57	5698
2026-01-23 00:51:41.03	314.12	34.89	-42.7	-46.8	11.6	9.42e-04	0	61	0	358612992	57	5628
2026-01-23 00:51:42.04	313.73	34.94	-42.6	-46.7	11.7	6.72e-04	0	60	0	360710144	57	5588
2026-01-23 00:51:43.05	313.33	34.98	-42.6	-46.7	11.7	5.91e-04	0	60	0	362807296	57	5564
2026-01-23 00:51:44.06	312.94	35.03	-42.6	-46.7	11.7	5.63e-04	0	60	0	364904448	57	5561
2026-01-23 00:51:45.07	312.54	35.08	-42.6	-46.7	11.7	6.46e-04	0	60	0	367001600	57	5558
2026-01-23 00:51:46.08	312.15	35.12	-42.6	-46.6	11.7	6.16e-04	0	60	0	368050176	57	5512
2026-01-23 00:51:47.09	311.75	35.16	-42.5	-46.4	12.0	4.59e-04	0	61	0	370147328	56	5658
2026-01-23 00:51:48.10	311.35	35.20	-42.4	-46.2	12.2	2.05e-04	0	61	0	372244480	56	5548
2026-01-23 00:51:49.11	310.95	35.24	-42.3	-46.0	12.4	1.25e-04	0	60	0	374341632	56	5441
2026-01-23 00:51:50.12	310.55	35.28	-42.3	-45.9	12.5	1.15e-04	0	61	0	376438784	56	5380
2026-01-23 00:51:51.13	310.15	35.32	-42.3	-46.1	12.4	1.26e-04	0	61	0	377487360	56	5471
2026-01-23 00:51:52.14	309.74	35.35	-42.4	-46.1	12.3	2.06e-04	0	60	0	379584512	56	5517
2026-01-23 00:51:53.15	309.34	35.38	-42.4	-46.1	12.3	2.05e-04	0	61	0	381681664	56	5528
2026-01-23 00:51:54.16	308.94	35.41	-42.3	-46.0	12.4	1.77e-04	0	61	0	383778816	56	5459
2026-01-23 00:51:55.17	308.53	35.44	-42.1	-45.7	12.8	7.40e-05	0	61	0	385875968	56	5263
2026-01-23 00:51:56.18	308.13	35.47	-42.2	-45.9	12.6	7.70e-05	0	61	0	386924544	56	5352
2026-01-23 00:51:57.19	307.72	35.50	-42.2	-45.9	12.6	7.70e-05	0	61	0	389021696	56	5342
2026-01-23 00:51:58.19	307.32	35.52	-42.1	-45.7	12.7	8.16e-05	0	60	0	391118848	56	5252
2026-01-23 00:51:59.20	306.91	35.55	-42.1	-45.6	12.8	5.18e-05	0	61	0	393216000	56	5204
2026-01-23 00:52:00.21	306.50	35.57	-41.8	-45.2	13.1	4.50e-05	0	60	0	395313152	55	5259
2026-01-23 00:52:01.22	306.09	35.59	-41.7	-45.0	13.3	1.60e-05	0	61	0	396361728	55	5118
2026-01-23 00:52:02.23	305.68	35.61	-41.8	-45.1	13.2	2.21e-05	0	60	0	398458880	55	5204
2026-01-23 00:52:03.24	305.27	35.62	-41.9	-45.4	12.9	3.58e-05	0	60	0	400556032	55	5363
2026-01-23 00:52:04.25	304.86	35.64	-41.9	-45.5	12.8	4.95e-05	0	60	0	402653184	55	5412
2026-01-23 00:52:05.26	304.45	35.65	-42.1	-45.8	12.5	9.23e-05	0	61	0	404750336	55	5597
2026-01-23 00:52:06.27	304.04	35.66	-42.2	-45.9	12.4	1.20e-04	0	61	0	406847488	55	5675
2026-01-23 00:52:07.28	303.63	35.67	-42.1	-45.8	12.4	1.28e-04	0	61	0	407896064	55	5620
2026-01-23 00:52:08.29	303.22	35.68	-42.2	-46.1	12.2	2.10e-04	0	61	0	409993216	55	5804
2026-01-23 00:52:09.30	302.81	35.69	-42.4	-46.4	11.9	2.77e-04	0	60	0	412090368	55	5999
2026-01-23 00:52:10.31	302.39	35.69	-42.5	-46.5	11.7	4.36e-04	0	60	0	414187520	55	6130
2026-01-23 00:52:11.32	301.98	35.69	-42.4	-46.5	11.8	5.24e-04	0	61	0	416284672	55	6091
2026-01-23 00:52:12.33	301.57	35.70	-42.4	-46.3	11.9	3.87e-04	0	61	0	417333248	55	5955
2026-01-23 00:52:13.33	301.16	35.70	-42.3	-46.2	12.0	2.84e-04	0	61	0	419430400	55	5871
2026-01-23 00:52:14.34	300.75	35.69	-42.4	-46.3	12.0	3.07e-04	0	60	0	421527552	55	5973
2026-01-23 00:52:15.35	300.34	35.69	-42.4	-46.3	11.9	3.11e-04	0	60	0	423624704	55	5972
2026-01-23 00:52:16.36	299.93	35.69	-42.4	-46.4	11.8	4.43e-04	0	61	0	424673280	55	6024
2026-01-23 00:52:17.37	299.51	35.68	-42.5	-46.5	11.7	4.97e-04	0	61	0	426770432	55	6109
2026-01-23 00:52:18.38	299.10	35.67	-42.5	-46.6	11.7	6.11e-04	0	60	0	428867584	55	6149
2026-01-23 00:52:19.39	298.69	35.66	-42.4	-46.4	11.8	5.25e-04	0	61	0	430964736	55	6045
2026-01-23 00:52:20.40	298.28	35.65	-42.3	-46.2	12.1	3.84e-04	0	60	0	433061888	55	5875
2026-01-23 00:52:21.41	297.87	35.63	-42.2	-45.9	12.4	1.59e-04	0	60	0	435159040	55	5706
2026-01-23 00:52:22.42	297.46	35.62	-42.1	-45.8	12.5	1.18e-04	0	61	0	436207616	55	5600
2026-01-23 00:52:23.43	297.05	35.60	-42.2	-46.0	12.4	1.07e-04	0	61	0	438304768	55	5747
2026-01-23 00:52:24.44	296.64	35.58	-42.3	-46.2	12.1	2.08e-04	0	61	0	440401920	55	5869
2026-01-23 00:52:25.45	296.23	35.56	-42.5	-46.5	11.8	4.29e-04	0	61	0	442499072	55	6119
2026-01-23 00:52:26.45	295.83	35.54	-42.6	-46.9	11.3	7.62e-04	0	61	0	444596224	55	6405
2026-01-23 00:52:27.46	295.42	35.52	-42.9	-47.3	11.1	1.48e-03	0	60	0	445644800	56	6319
2026-01-23 00:52:28.47	295.01	35.49	-42.9	-47.4	11.1	1.88e-03	0	60	0	447741952	56	6354
2026-01-23 00:52:29.48	294.60	35.47	-42.9	-47.4	11.0	1.87e-03	0	61	0	449839104	56	6365
2026-01-23 00:52:30.50	294.19	35.44	-42.9	-47.4	11.0	1.47e-03	0	61	0	451936256	56	6365
2026-01-23 00:52:31.51	293.79	35.41	-43.0	-47.4	10.9	1.99e-03	0	61	0	454033408	56	6416
2026-01-23 00:52:32.52	293.38	35.38	-43.0	-47.6	10.7	2.65e-03	0	60	0	455081984	56	6548
2026-01-23 00:52:33.52	292.99	35.34	-43.1	-47.9	10.6	3.46e-03	0	61	0	457179136	56	6750
2026-01-23 00:52:34.54	292.58	35.31	-43.1	-47.8	10.6	3.69e-03	0	60	0	459276288	56	6671
2026-01-23 00:52:35.54	292.18	35.27	-43.1	-47.7	10.7	3.28e-03	0	61	0	461373440	56	6641
2026-01-23 00:52:36.56	291.77	35.23	-43.1	-47.9	10.5	4.13e-03	0	61	0	463470592	56	6757
2026-01-23 00:52:37.57	291.37	35.19	-43.2	-48.2	10.2	4.94e-03	0	61	0	464519168	57	6584
2026-01-23 00:52:38.58	290.98	35.15	-43.2	-48.2	10.1	5.37e-03	0	60	0	466616320	57	6575
2026-01-23 00:52:39.59	290.58	35.11	-43.3	-48.4	10.0	7.82e-03	0	61	0	468713472	57	6733
2026-01-23 00:52:40.60	290.18	35.07	-43.4	-48.5	9.8	9.84e-03	0	61	0	470810624	57	6812
2026-01-23 00:52:41.61	289.78	35.02	-43.4	-48.7	9.6	1.22e-02	0	61	0	472907776	57	6982
2026-01-23 00:52:42.61	289.39	34.97	-43.4	-48.6	9.7	1.16e-02	0	61	0	475004928	57	6906
2026-01-23 00:52:43.62	289.00	34.93	-43.4	-48.5	9.8	9.66e-03	0	61	0	476053504	57	6850
2026-01-23 00:52:44.63	288.61	34.88	-43.4	-48.6	9.8	1.05e-02	0	61	0	478150656	57	6890
2026-01-23 00:52:45.64	288.22	34.82	-43.5	-48.7	9.6	1.12e-02	0	61	0	480247808	57	7032
2026-01-23 00:52:46.65	287.83	34.77	-43.5	-48.8	9.5	1.37e-02	0	61	0	482344960	57	7060
2026-01-23 00:52:47.66	287.44	34.72	-43.3	-48.4	9.9	1.05e-02	0	61	0	483393536	57	6781
2026-01-23 00:52:48.67	287.05	34.66	-43.3	-48.4	10.0	8.44e-03	0	61	0	485490688	57	6741
2026-01-23 00:52:49.68	286.66	34.60	-43.3	-48.3	10.1	7.59e-03	0	61	0	487587840	57	6650
2026-01-23 00:52:50.69	286.28	34.55	-43.3	-48.3	10.1	7.88e-03	0	61	0	489684992	57	6672
2026-01-23 00:52:51.70	285.89	34.49	-43.3	-48.3	10.0	7.46e-03	0	61	0	491782144	57	6700
2026-01-23 00:52:52.71	285.51	34.42	-43.4	-48.5	9.8	8.54e-03	0	61	0	492830720	57	6857
2026-01-23 00:52:53.72	285.13	34.36	-43.4	-48.7	9.6	1.11e-02	0	61	0	494927872	57	6984
2026-01-23 00:52:54.73	284.75	34.30	-43.4	-48.7	9.6	1.31e-02	0	61	0	497025024	57	7001
2026-01-23 00:52:55.74	284.38	34.23	-43.4	-48.6	9.7	1.04e-02	0	61	0	499122176	57	6905
2026-01-23 00:52:56.75	284.00	34.17	-43.4	-48.5	9.7	1.07e-02	0	61	0	501219328	57	6863
2026-01-23 00:52:57.76	283.62	34.10	-43.3	-48.5	9.9	1.05e-02	0	61	0	503316480	57	6812
2026-01-23 00:52:58.77	283.25	34.03	-43.3	-48.2	10.0	8.02e-03	0	61	0	504365056	57	6598
2026-01-23 00:52:59.78	282.88	33.96	-43.1	-47.8	10.5	4.74e-03	0	61	0	506462208	57	6293
2026-01-23 00:53:00.79	282.51	33.89	-43.0	-47.5	10.8	2.61e-03	0	61	0	508559360	57	6099
2026-01-23 00:53:01.80	282.14	33.82	-43.0	-47.6	10.8	2.43e-03	0	61	0	510656512	57	6154
2026-01-23 00:53:02.81	281.78	33.74	-43.0	-47.7	10.6	3.39e-03	0	61	0	512753664	57	6231
2026-01-23 00:53:03.82	281.41	33.67	-43.1	-47.8	10.6	3.26e-03	0	61	0	513802240	57	6294
2026-01-23 00:53:04.83	281.05	33.59	-43.1	-47.9	10.4	4.35e-03	0	61	0	515899392	57	6389
2026-01-23 00:53:05.84	280.69	33.52	-43.2	-48.2	10.1	6.45e-03	0	61	0	517996544	57	6611
2026-01-23 00:53:06.85	280.33	33.44	-43.3	-48.2	10.1	6.92e-03	0	61	0	520093696	57	6621
2026-01-23 00:53:07.85	279.97	33.36	-43.2	-48.0	10.3	6.66e-03	0	61	0	522190848	57	6473
2026-01-23 00:53:08.86	279.62	33.28	-43.1	-47.7	10.6	4.47e-03	0	61	0	523239424	57	6248
2026-01-23 00:53:09.87	279.26	33.20	-43.0	-47.6	10.8	2.79e-03	0	61	0	525336576	57	6151
2026-01-23 00:53:10.88	278.91	33.12	-43.0	-47.6	10.7	3.16e-03	0	61	0	527433728	57	6195
2026-01-23 00:53:11.89	278.56	33.03	-43.1	-47.7	10.6	3.12e-03	0	61	0	529530880	57	6274
2026-01-23 00:53:12.90	278.21	32.95	-43.2	-48.0	10.4	4.75e-03	0	61	0	531628032	57	6439
2026-01-23 00:53:13.91	277.86	32.86	-43.2	-48.2	10.1	5.72e-03	0	61	0	532676608	57	6603
2026-01-23 00:53:14.92	277.51	32.78	-43.4	-48.5	9.7	7.66e-03	0	61	0	534773760	57	6863
2026-01-23 00:53:15.93	277.17	32.69	-43.4	-48.8	9.5	1.45e-02	0	61	0	536870912	57	7067
2026-01-23 00:53:16.94	276.83	32.60	-43.5	-48.9	9.3	1.51e-02	0	61	0	538968064	57	7186
2026-01-23 00:53:17.95	276.49	32.51	-43.4	-48.8	9.5	1.59e-02	0	61	0	541065216	57	7076
2026-01-23 00:53:18.96	276.15	32.43	-43.5	-48.8	9.4	1.60e-02	0	61	0	542113792	57	7088
2026-01-23 00:53:19.97	275.81	32.33	-43.4	-48.7	9.5	1.40e-02	0	61	0	544210944	57	7014
2026-01-23 00:53:20.98	275.48	32.24	-43.4	-48.7	9.6	1.19e-02	0	61	0	546308096	57	6978
2026-01-23 00:53:21.99	275.15	32.15	-43.4	-48.7	9.6	1.24e-02	0	61	0	548405248	57	6973
2026-01-23 00:53:23.00	274.82	32.06	-43.5	-48.8	9.4	1.27e-02	0	61	0	550502400	57	7090
2026-01-23 00:53:24.01	274.49	31.96	-43.4	-48.8	9.4	1.45e-02	0	61	0	551550976	57	7068
2026-01-23 00:53:25.02	274.16	31.87	-43.4	-48.7	9.5	1.40e-02	0	61	0	553648128	57	7011
2026-01-23 00:53:26.02	273.84	31.78	-43.4	-48.6	9.8	1.16e-02	0	61	0	555745280	57	6886
2026-01-23 00:53:27.03	273.52	31.68	-43.4	-48.7	9.5	1.33e-02	0	61	0	557842432	57	7025
2026-01-23 00:53:28.04	273.20	31.58	-43.5	-48.9	9.3	1.51e-02	0	61	0	559939584	57	7203
2026-01-23 00:53:29.05	272.88	31.49	-43.6	-49.1	9.1	2.03e-02	0	61	0	560988160	57	7368
2026-01-23 00:53:30.06	272.56	31.39	-43.6	-49.1	9.1	2.31e-02	0	61	0	563085312	57	7361
2026-01-23 00:53:31.07	272.24	31.29	-43.6	-49.4	8.8	2.41e-02	0	61	0	565182464	57	7582
2026-01-23 00:53:32.08	271.93	31.19	-43.6	-49.2	9.1	2.45e-02	0	61	0	567279616	57	7386
2026-01-23 00:53:33.09	271.62	31.09	-43.5	-49.0	9.2	2.15e-02	0	61	0	569376768	57	7273
2026-01-23 00:53:34.10	271.31	30.99	-43.5	-48.9	9.3	1.98e-02	0	61	0	571473920	57	7132
2026-01-23 00:53:35.11	271.00	30.89	-43.4	-48.7	9.5	1.62e-02	0	61	0	572522496	57	7032
2026-01-23 00:53:36.12	270.70	30.79	-43.3	-48.5	9.7	1.30e-02	0	61	0	574619648	57	6844
2026-01-23 00:53:37.13	270.39	30.68	-43.4	-48.6	9.6	9.78e-03	0	61	0	576716800	57	6958
2026-01-23 00:53:38.14	270.09	30.58	-43.4	-48.6	9.6	1.27e-02	0	61	0	578813952	57	6900
2026-01-23 00:53:39.15	269.79	30.48	-43.4	-48.7	9.5	1.18e-02	0	61	0	580911104	57	7029
2026-01-23 00:53:40.15	269.50	30.37	-43.3	-48.5	9.8	1.18e-02	0	61	0	581959680	57	6807
2026-01-23 00:53:41.16	269.20	30.27	-43.3	-48.6	9.6	1.07e-02	0	61	0	584056832	57	6904
2026-01-23 00:53:42.17	268.91	30.17	-43.3	-48.5	9.7	1.27e-02	0	61	0	586153984	57	6816
2026-01-23 00:53:43.18	268.61	30.06	-43.2	-48.2	10.0	9.64e-03	0	61	0	588251136	57	6645
2026-01-23 00:53:44.19	268.32	29.95	-43.2	-48.2	10.1	7.73e-03	0	61	0	590348288	57	6595
2026-01-23 00:53:45.20	268.04	29.85	-43.2	-48.2	10.1	6.92e-03	0	61	0	591396864	57	6597
2026-01-23 00:53:46.21	267.75	29.74	-43.2	-48.3	10.0	8.62e-03	0	61	0	593494016	57	6656
2026-01-23 00:53:47.22	267.46	29.63	-43.3	-48.4	9.8	8.32e-03	0	61	0	595591168	57	6777
2026-01-23 00:53:48.23	267.18	29.53	-43.3	-48.5	9.8	1.02e-02	0	61	0	597688320	57	6821
2026-01-23 00:53:49.24	266.90	29.42	-43.3	-48.4	9.8	1.06e-02	0	61	0	599785472	57	6791
2026-01-23 00:53:50.25	266.62	29.31	-43.3	-48.4	9.8	1.11e-02	0	61	0	600834048	57	6763
2026-01-23 00:53:51.26	266.34	29.20	-43.3	-48.4	9.9	1.03e-02	0	61	0	602931200	57	6733
2026-01-23 00:53:52.27	266.07	29.09	-43.2	-48.2	10.0	8.56e-03	0	61	0	605028352	57	6584
2026-01-23 00:53:53.28	265.80	28.98	-43.0	-47.8	10.5	4.86e-03	0	61	0	607125504	57	6309
2026-01-23 00:53:54.29	265.52	28.88	-43.0	-47.7	10.6	3.86e-03	0	61	0	609222656	57	6219
2026-01-23 00:53:55.30	265.26	28.77	-42.9	-47.5	10.7	3.45e-03	0	61	0	610271232	57	6126
2026-01-23 00:53:56.31	264.99	28.66	-42.9	-47.6	10.6	3.53e-03	0	61	0	612368384	57	6165
2026-01-23 00:53:57.31	264.72	28.55	-43.0	-47.8	10.5	3.78e-03	0	60	0	614465536	57	6290
2026-01-23 00:53:58.32	264.46	28.44	-43.0	-47.8	10.4	4.65e-03	0	61	0	616562688	57	6302
2026-01-23 00:53:59.33	264.20	28.33	-43.0	-47.7	10.5	4.35e-03	0	61	0	618659840	57	6266
2026-01-23 00:54:00.34	263.94	28.21	-43.0	-47.7	10.5	4.51e-03	0	61	0	619708416	57	6208
2026-01-23 00:54:01.35	263.68	28.10	-42.9	-47.5	10.8	2.69e-03	0	61	0	621805568	57	6074
2026-01-23 00:54:02.36	263.42	27.99	-42.7	-47.1	11.2	1.68e-03	0	61	0	623902720	57	5809
2026-01-23 00:54:03.37	263.17	27.88	-42.6	-46.8	11.5	1.13e-03	0	61	0	625999872	57	5607
2026-01-23 00:54:04.38	262.91	27.77	-42.5	-46.6	11.6	6.31e-04	0	61	0	628097024	57	5520
2026-01-23 00:54:05.39	262.66	27.66	-42.5	-46.5	11.8	5.08e-04	0	61	0	629145600	56	5768
2026-01-23 00:54:06.40	262.41	27.55	-42.4	-46.5	11.8	5.06e-04	0	61	0	631242752	56	5742
2026-01-23 00:54:07.41	262.16	27.43	-42.4	-46.5	11.8	4.14e-04	0	61	0	633339904	56	5747
2026-01-23 00:54:08.42	261.92	27.32	-42.4	-46.4	11.9	4.11e-04	0	61	0	635437056	56	5694
2026-01-23 00:54:09.43	261.67	27.21	-42.4	-46.4	11.9	3.81e-04	0	61	0	637534208	56	5695
2026-01-23 00:54:10.44	261.43	27.10	-42.3	-46.3	12.0	3.30e-04	0	61	0	639631360	56	5597
2026-01-23 00:54:11.45	261.19	26.98	-42.2	-46.1	12.2	2.38e-04	0	61	0	640679936	56	5491
2026-01-23 00:54:12.46	260.95	26.87	-42.1	-45.9	12.5	1.39e-04	0	61	0	642777088	56	5365
2026-01-23 00:54:13.47	260.71	26.76	-41.7	-45.2	13.0	5.56e-05	0	61	0	644874240	55	5224
2026-01-23 00:54:14.48	260.48	26.64	-41.5	-44.8	13.4	1.90e-05	0	61	0	646971392	55	5019
2026-01-23 00:54:15.49	260.24	26.53	-41.5	-44.7	13.4	9.90e-06	0	61	0	649068544	54	5272
2026-01-23 00:54:16.50	260.01	26.42	-41.5	-44.8	13.4	1.29e-05	0	61	0	650117120	54	5311
2026-01-23 00:54:17.51	259.78	26.31	-41.5	-44.8	13.4	1.37e-05	0	61	0	652214272	54	5292
2026-01-23 00:54:18.51	259.55	26.19	-41.5	-44.8	13.4	1.14e-05	0	61	0	654311424	54	5297
2026-01-23 00:54:19.52	259.32	26.08	-41.5	-44.8	13.4	1.06e-05	0	61	0	656408576	54	5289
2026-01-23 00:54:20.53	259.10	25.97	-41.5	-44.7	13.4	1.98e-05	0	61	0	658505728	54	5272
2026-01-23 00:54:21.54	258.87	25.85	-41.5	-44.8	13.4	1.37e-05	0	61	0	659554304	54	5318
2026-01-23 00:54:22.55	258.65	25.74	-41.3	-44.4	13.8	9.10e-06	0	61	0	661651456	54	5082
2026-01-23 00:54:23.56	258.43	25.63	-41.2	-44.3	13.9	4.50e-06	0	61	0	663748608	54	5025
2026-01-23 00:54:24.57	258.21	25.52	-41.2	-44.3	13.9	3.00e-06	0	61	0	665845760	54	5028
2026-01-23 00:54:25.58	257.99	25.40	-41.1	-44.1	14.1	3.00e-06	0	61	0	667942912	54	4917
2026-01-23 00:54:26.59	257.77	25.29	-41.0	-44.0	14.2	4.50e-06	0	61	0	668991488	54	4846
2026-01-23 00:54:27.60	257.56	25.18	-41.0	-44.0	14.2	7.00e-07	0	61	0	671088640	53	5120
2026-01-23 00:54:28.61	257.35	25.06	-41.1	-44.1	14.1	2.20e-06	0	61	0	673185792	53	5170
2026-01-23 00:54:29.62	257.13	24.95	-41.0	-44.0	14.1	1.50e-06	0	61	0	675282944	53	5159
2026-01-23 00:54:30.63	256.92	24.84	-41.1	-44.1	14.1	3.00e-06	0	61	0	677380096	53	5179
2026-01-23 00:54:31.64	256.72	24.72	-41.1	-44.2	14.0	4.50e-06	0	61	0	678428672	53	5247
2026-01-23 00:54:32.65	256.51	24.61	-41.1	-44.2	13.9	4.50e-06	0	61	0	680525824	53	5274
2026-01-23 00:54:33.66	256.30	24.50	-41.1	-44.2	14.0	1.50e-06	0	61	0	682622976	53	5224
2026-01-23 00:54:34.67	256.10	24.39	-41.0	-44.1	14.1	7.00e-07	0	61	0	684720128	53	5162
2026-01-23 00:54:35.68	255.89	24.27	-41.0	-44.0	14.2	3.00e-06	0	61	0	686817280	53	5108
2026-01-23 00:54:36.69	255.69	24.16	-41.0	-44.0	14.2	2.20e-06	0	61	0	687865856	53	5105
2026-01-23 00:54:37.70	255.49	24.05	-40.9	-43.8	14.3	7.00e-07	0	61	0	689963008	53	5021
2026-01-23 00:54:38.71	255.29	23.94	-40.9	-43.9	14.2	0.00e+00	0	61	0	692060160	53	5073
2026-01-23 00:54:39.71	255.10	23.83	-41.0	-44.1	14.1	2.20e-06	0	61	0	694157312	53	5179
2026-01-23 00:54:40.72	254.90	23.71	-41.1	-44.1	14.0	3.00e-06	0	61	0	696254464	53	5201
2026-01-23 00:54:41.73	254.71	23.60	-41.2	-44.3	13.8	5.30e-06	0	61	0	697303040	53	5322
2026-01-23 00:54:42.74	254.52	23.49	-41.2	-44.4	13.8	6.10e-06	0	61	0	699400192	53	5357
2026-01-23 00:54:43.75	254.32	23.38	-41.2	-44.4	13.7	3.00e-06	0	61	0	701497344	53	5374
2026-01-23 00:54:44.76	254.13	23.27	-41.3	-44.5	13.7	3.00e-06	0	61	0	703594496	53	5408
2026-01-23 00:54:45.77	253.95	23.16	-41.3	-44.5	13.6	6.10e-06	0	61	0	705691648	53	5463
2026-01-23 00:54:46.78	253.76	23.04	-41.3	-44.6	13.5	9.90e-06	0	61	0	707788800	53	5491
2026-01-23 00:54:47.79	253.57	22.93	-41.4	-44.7	13.5	1.29e-05	0	61	0	708837376	53	5530
2026-01-23 00:54:48.80	253.39	22.82	-41.3	-44.6	13.5	9.90e-06	0	61	0	710934528	53	5492
2026-01-23 00:54:49.81	253.20	22.71	-41.3	-44.6	13.5	1.14e-05	0	61	0	713031680	53	5509
2026-01-23 00:54:50.82	253.02	22.60	-41.4	-44.7	13.4	1.98e-05	0	61	0	715128832	53	5548
2026-01-23 00:54:51.83	252.84	22.49	-41.4	-44.8	13.3	1.22e-05	0	61	0	717225984	53	5614
2026-01-23 00:54:52.83	252.66	22.38	-41.6	-45.0	13.1	2.28e-05	0	61	0	718274560	53	5742
2026-01-23 00:54:53.84	252.48	22.27	-41.5	-45.0	13.1	2.44e-05	0	61	0	720371712	53	5738
2026-01-23 00:54:54.86	252.31	22.16	-41.5	-44.9	13.1	2.97e-05	0	61	0	722468864	53	5720
2026-01-23 00:54:55.87	252.13	22.05	-41.6	-45.0	13.1	3.05e-05	0	61	0	724566016	53	5776
2026-01-23 00:54:56.88	251.96	21.94	-41.5	-45.0	13.1	3.12e-05	0	61	0	726663168	53	5740
2026-01-23 00:54:57.89	251.78	21.83	-41.4	-44.6	13.4	1.44e-05	0	61	0	727711744	53	5519
2026-01-23 00:54:58.89	251.61	21.72	-41.4	-44.8	13.4	1.37e-05	0	61	0	729808896	53	5600
2026-01-23 00:54:59.90	251.44	21.62	-41.3	-44.5	13.5	9.90e-06	0	61	0	731906048	53	5460
2026-01-23 00:55:00.91	251.27	21.51	-41.4	-44.7	13.4	7.60e-06	0	61	0	734003200	53	5566
2026-01-23 00:55:01.92	251.10	21.40	-41.4	-44.7	13.3	7.60e-06	0	61	0	736100352	53	5565
2026-01-23 00:55:02.93	250.94	21.29	-41.5	-44.9	13.2	2.44e-05	0	61	0	737148928	53	5683
2026-01-23 00:55:03.94	250.77	21.18	-41.5	-45.0	13.1	3.12e-05	0	61	0	739246080	53	5744
2026-01-23 00:55:04.95	250.60	21.07	-41.5	-45.0	13.1	2.89e-05	0	61	0	741343232	53	5727
2026-01-23 00:55:05.96	250.44	20.97	-41.6	-45.1	13.0	3.73e-05	0	61	0	743440384	53	5798
2026-01-23 00:55:06.97	250.28	20.86	-41.6	-45.1	12.9	4.11e-05	0	61	0	745537536	53	5818
2026-01-23 00:55:07.98	250.12	20.75	-41.6	-45.1	12.9	4.57e-05	0	61	0	746586112	53	5835
2026-01-23 00:55:08.99	249.96	20.64	-41.6	-45.1	12.9	5.72e-05	0	61	0	748683264	53	5823
2026-01-23 00:55:10.00	249.80	20.54	-41.6	-45.2	12.9	4.27e-05	0	61	0	750780416	53	5871
2026-01-23 00:55:11.01	249.64	20.43	-41.5	-44.9	13.1	3.50e-05	0	61	0	752877568	53	5704
2026-01-23 00:55:12.02	249.48	20.32	-41.5	-45.0	13.1	3.66e-05	0	61	0	754974720	53	5737
2026-01-23 00:55:13.03	249.33	20.22	-41.5	-45.0	13.1	3.43e-05	0	61	0	756023296	53	5744
2026-01-23 00:55:14.03	249.17	20.11	-41.6	-45.1	13.0	4.34e-05	0	61	0	758120448	53	5801
2026-01-23 00:55:15.04	249.02	20.01	-41.7	-45.3	12.8	5.26e-05	0	61	0	760217600	53	5934
2026-01-23 00:55:16.05	248.87	19.90	-41.8	-45.4	12.6	8.39e-05	0	61	0	762314752	54	5705
2026-01-23 00:55:17.06	248.71	19.80	-41.8	-45.5	12.5	1.04e-04	0	61	0	764411904	54	5782
2026-01-23 00:55:18.07	248.56	19.69	-41.8	-45.5	12.5	1.02e-04	0	61	0	765460480	54	5778
2026-01-23 00:55:19.08	248.41	19.59	-41.9	-45.7	12.4	1.40e-04	0	61	0	767557632	54	5864
2026-01-23 00:55:20.09	248.27	19.48	-41.8	-45.6	12.4	1.39e-04	0	61	0	769654784	54	5820
2026-01-23 00:55:21.10	248.12	19.38	-41.9	-45.7	12.3	1.43e-04	0	61	0	771751936	54	5864
2026-01-23 00:55:22.11	247.97	19.27	-41.9	-45.6	12.3	1.45e-04	0	61	0	773849088	54	5854
2026-01-23 00:55:23.12	247.83	19.17	-41.9	-45.7	12.3	1.46e-04	0	61	0	775946240	54	5866
2026-01-23 00:55:24.13	247.68	19.07	-41.9	-45.7	12.3	1.90e-04	0	61	0	776994816	54	5872
2026-01-23 00:55:25.14	247.54	18.96	-41.9	-45.7	12.3	1.49e-04	0	61	0	779091968	54	5872
2026-01-23 00:55:26.15	247.40	18.86	-42.0	-45.8	12.1	2.24e-04	0	61	0	781189120	54	5991
2026-01-23 00:55:27.16	247.25	18.76	-41.9	-45.8	12.1	2.31e-04	0	61	0	783286272	54	5976
2026-01-23 00:55:28.17	247.11	18.65	-42.0	-45.9	12.0	2.78e-04	0	61	0	785383424	54	6040
2026-01-23 00:55:29.18	246.97	18.55	-42.1	-46.0	11.9	3.90e-04	0	61	0	786432000	54	6122
2026-01-23 00:55:30.19	246.84	18.45	-42.1	-46.2	11.7	5.05e-04	0	61	0	788529152	54	6249
2026-01-23 00:55:31.20	246.70	18.35	-42.1	-46.2	11.7	5.65e-04	0	61	0	790626304	54	6242
2026-01-23 00:55:32.21	246.56	18.25	-42.1	-46.2	11.7	6.20e-04	0	61	0	792723456	54	6250
2026-01-23 00:55:33.22	246.43	18.14	-42.1	-46.1	11.9	4.76e-04	0	61	0	794820608	54	6153
2026-01-23 00:55:34.23	246.29	18.04	-42.0	-46.0	11.9	3.62e-04	0	61	0	795869184	54	6130
2026-01-23 00:55:35.24	246.16	17.94	-42.0	-45.9	12.0	4.14e-04	0	61	0	797966336	54	6046
2026-01-23 00:55:36.25	246.02	17.84	-42.0	-46.0	11.9	3.78e-04	0	61	0	800063488	54	6103
2026-01-23 00:55:37.25	245.89	17.74	-41.9	-45.8	12.1	3.19e-04	0	61	0	802160640	54	5970
2026-01-23 00:55:38.26	245.76	17.64	-41.9	-45.8	12.2	2.57e-04	0	61	0	804257792	54	5953
2026-01-23 00:55:39.27	245.63	17.54	-42.0	-45.9	12.0	3.13e-04	0	61	0	805306368	54	6022
2026-01-23 00:55:40.28	245.50	17.44	-42.0	-46.0	11.9	3.55e-04	0	61	0	807403520	54	6095
2026-01-23 00:55:41.29	245.37	17.34	-42.1	-46.1	11.8	4.87e-04	0	61	0	809500672	54	6189
2026-01-23 00:55:42.30	245.24	17.24	-42.2	-46.4	11.6	6.35e-04	0	61	0	811597824	54	6350
2026-01-23 00:55:43.31	245.12	17.15	-42.2	-46.5	11.4	9.28e-04	0	61	0	813694976	55	6076
2026-01-23 00:55:44.32	244.99	17.05	-42.3	-46.6	11.2	1.11e-03	0	61	0	814743552	55	6191
2026-01-23 00:55:45.33	244.87	16.95	-42.3	-46.8	11.1	1.63e-03	0	61	0	816840704	55	6276
2026-01-23 00:55:46.34	244.74	16.85	-42.3	-46.7	11.2	1.46e-03	0	61	0	818937856	55	6237
2026-01-23 00:55:47.35	244.62	16.75	-42.3	-46.7	11.2	1.47e-03	0	61	0	821035008	55	6210
2026-01-23 00:55:48.36	244.49	16.65	-42.3	-46.6	11.2	1.29e-03	0	61	0	823132160	55	6176
2026-01-23 00:55:49.37	244.37	16.56	-42.3	-46.6	11.3	1.24e-03	0	61	0	824180736	55	6145
2026-01-23 00:55:50.38	244.25	16.46	-42.2	-46.5	11.4	1.06e-03	0	61	0	826277888	55	6112
2026-01-23 00:55:51.39	244.13	16.36	-42.2	-46.4	11.4	1.12e-03	0	61	0	828375040	55	6059
2026-01-23 00:55:52.40	244.01	16.27	-42.2	-46.4	11.5	9.60e-04	0	61	0	830472192	55	6005
2026-01-23 00:55:53.41	243.89	16.17	-42.2	-46.4	11.5	8.58e-04	0	61	0	832569344	55	6008
2026-01-23 00:55:54.41	243.78	16.08	-42.1	-46.3	11.5	7.17e-04	0	61	0	833617920	55	5958
2026-01-23 00:55:55.42	243.66	15.98	-42.2	-46.4	11.4	9.93e-04	0	61	0	835715072	55	6028
2026-01-23 00:55:56.43	243.54	15.88	-42.2	-46.4	11.4	8.50e-04	0	61	0	837812224	55	6040
2026-01-23 00:55:57.44	243.43	15.79	-42.2	-46.6	11.2	1.08e-03	0	61	0	839909376	55	6151
2026-01-23 00:55:58.45	243.31	15.69	-42.3	-46.6	11.2	1.41e-03	0	61	0	842006528	55	6201
2026-01-23 00:55:59.46	243.20	15.60	-42.3	-46.7	11.1	1.77e-03	0	61	0	843055104	55	6271
2026-01-23 00:56:00.47	243.08	15.50	-42.4	-46.8	10.9	1.90e-03	0	61	0	845152256	55	6347
2026-01-23 00:56:01.48	242.97	15.41	-42.3	-46.9	10.9	2.13e-03	0	61	0	847249408	55	6357
2026-01-23 00:56:02.49	242.86	15.32	-42.4	-46.9	10.9	2.26e-03	0	61	0	849346560	55	6377
2026-01-23 00:56:03.50	242.75	15.22	-42.4	-46.9	10.9	2.54e-03	0	61	0	851443712	55	6393
2026-01-23 00:56:04.51	242.63	15.13	-42.3	-46.6	11.1	1.93e-03	0	61	0	852492288	55	6190
2026-01-23 00:56:05.52	242.52	15.03	-42.2	-46.6	11.2	1.44e-03	0	61	0	854589440	55	6162
2026-01-23 00:56:06.53	242.42	14.94	-42.2	-46.6	11.2	1.39e-03	0	61	0	856686592	55	6141
2026-01-23 00:56:07.53	242.31	14.85	-42.2	-46.5	11.3	1.25e-03	0	61	0	858783744	55	6086
2026-01-23 00:56:08.54	242.20	14.76	-42.2	-46.5	11.3	1.27e-03	0	61	0	860880896	55	6106
2026-01-23 00:56:09.55	242.09	14.66	-42.1	-46.4	11.4	1.01e-03	0	61	0	861929472	55	6012
2026-01-23 00:56:10.56	241.99	14.57	-42.1	-46.4	11.3	1.01e-03	0	61	0	864026624	55	6038
2026-01-23 00:56:11.57	241.88	14.48	-42.2	-46.6	11.1	1.36e-03	0	61	0	866123776	55	6190
2026-01-23 00:56:12.58	241.77	14.39	-42.2	-46.6	11.1	1.37e-03	0	61	0	868220928	55	6199
2026-01-23 00:56:13.59	241.67	14.30	-42.3	-46.8	10.9	1.98e-03	0	61	0	870318080	55	6337
2026-01-23 00:56:14.59	241.57	14.21	-42.3	-46.9	10.8	2.39e-03	0	61	0	872415232	55	6369
2026-01-23 00:56:15.60	241.46	14.12	-42.4	-47.0	10.7	2.75e-03	0	61	0	873463808	55	6448
2026-01-23 00:56:16.61	241.36	14.03	-42.4	-47.0	10.7	2.86e-03	0	61	0	875560960	55	6455
2026-01-23 00:56:17.62	241.26	13.94	-42.4	-47.1	10.6	3.31e-03	0	61	0	877658112	55	6538
2026-01-23 00:56:18.63	241.16	13.85	-42.4	-47.0	10.7	2.86e-03	0	61	0	879755264	55	6446
2026-01-23 00:56:19.64	241.06	13.76	-42.3	-47.0	10.7	3.12e-03	0	61	0	881852416	55	6438
2026-01-23 00:56:20.65	240.96	13.67	-42.3	-46.9	10.8	2.87e-03	0	61	0	882900992	55	6399
2026-01-23 00:56:21.66	240.86	13.58	-42.3	-46.9	10.8	2.54e-03	0	61	0	884998144	55	6351
2026-01-23 00:56:22.67	240.76	13.49	-42.2	-46.7	10.9	2.09e-03	0	61	0	887095296	55	6274
2026-01-23 00:56:23.68	240.66	13.40	-42.2	-46.7	11.0	2.05e-03	0	61	0	889192448	55	6262
2026-01-23 00:56:24.69	240.56	13.31	-42.2	-46.7	10.9	1.96e-03	0	61	0	891289600	55	6273
2026-01-23 00:56:25.70	240.46	13.22	-42.2	-46.7	10.9	2.10e-03	0	61	0	892338176	55	6262
2026-01-23 00:56:26.71	240.37	13.13	-42.2	-46.8	10.9	2.18e-03	0	61	0	894435328	55	6299
2026-01-23 00:56:27.72	240.27	13.05	-42.3	-46.9	10.7	2.73e-03	0	61	0	896532480	55	6387
2026-01-23 00:56:28.72	240.18	12.96	-42.3	-46.9	10.8	2.59e-03	0	61	0	898629632	55	6353
2026-01-23 00:56:29.73	240.08	12.87	-42.3	-46.9	10.7	2.65e-03	0	61	0	900726784	55	6389
2026-01-23 00:56:30.74	239.99	12.78	-42.3	-47.0	10.7	3.02e-03	0	61	0	901775360	55	6439
2026-01-23 00:56:31.75	239.90	12.70	-42.3	-46.9	10.7	3.06e-03	0	61	0	903872512	55	6420
2026-01-23 00:56:32.76	239.80	12.61	-42.3	-47.0	10.6	3.41e-03	0	61	0	905969664	55	6482
2026-01-23 00:56:33.77	239.71	12.52	-42.3	-47.0	10.7	3.39e-03	0	61	0	908066816	55	6453
2026-01-23 00:56:34.78	239.62	12.44	-42.3	-47.1	10.5	3.31e-03	0	61	0	910163968	55	6497
2026-01-23 00:56:35.79	239.53	12.35	-42.3	-47.0	10.6	3.83e-03	0	61	0	911212544	55	6469
2026-01-23 00:56:36.80	239.44	12.27	-42.3	-46.9	10.7	3.17e-03	0	61	0	913309696	55	6361
2026-01-23 00:56:37.81	239.34	12.18	-42.3	-47.0	10.6	3.31e-03	0	61	0	915406848	55	6463
2026-01-23 00:56:38.82	239.26	12.09	-42.3	-46.9	10.6	2.98e-03	0	61	0	917504000	55	6409
2026-01-23 00:56:39.83	239.17	12.01	-42.3	-46.9	10.6	3.08e-03	0	61	0	919601152	55	6414
2026-01-23 00:56:40.84	239.08	11.92	-42.3	-47.0	10.6	3.28e-03	0	61	0	920649728	55	6432
2026-01-23 00:56:41.84	238.99	11.84	-42.3	-47.0	10.6	3.71e-03	0	61	0	922746880	55	6456
2026-01-23 00:56:42.85	238.90	11.76	-42.3	-47.1	10.5	3.58e-03	0	61	0	924844032	55	6495
2026-01-23 00:56:43.86	238.81	11.67	-42.3	-47.1	10.5	3.83e-03	0	61	0	926941184	55	6535
2026-01-23 00:56:44.87	238.73	11.59	-42.4	-47.2	10.3	4.55e-03	0	61	0	929038336	55	6624
2026-01-23 00:56:45.88	238.64	11.50	-42.4	-47.3	10.3	5.40e-03	0	61	0	930086912	55	6679
2026-01-23 00:56:46.89	238.56	11.42	-42.4	-47.4	10.2	6.17e-03	0	61	0	932184064	55	6748
2026-01-23 00:56:47.90	238.47	11.34	-42.4	-47.5	10.0	7.12e-03	0	61	0	934281216	55	6845
2026-01-23 00:56:48.91	238.39	11.25	-42.5	-47.6	9.8	8.33e-03	0	61	0	936378368	55	6956
2026-01-23 00:56:49.92	238.30	11.17	-42.5	-47.7	9.8	9.27e-03	0	61	0	938475520	55	6988
2026-01-23 00:56:50.93	238.22	11.09	-42.6	-47.9	9.6	1.09e-02	0	61	0	940572672	55	7127
2026-01-23 00:56:51.94	238.14	11.01	-42.6	-47.9	9.6	1.28e-02	0	61	0	941621248	55	7141
2026-01-23 00:56:52.95	238.05	10.92	-42.6	-47.9	9.5	1.31e-02	0	61	0	943718400	55	7181
2026-01-23 00:56:53.95	237.97	10.84	-42.6	-48.0	9.5	1.49e-02	0	61	0	945815552	55	7243
2026-01-23 00:56:54.96	237.89	10.76	-42.6	-47.8	9.7	1.29e-02	0	61	0	947912704	55	7065
2026-01-23 00:56:55.97	237.81	10.68	-42.6	-47.8	9.6	1.25e-02	0	61	0	950009856	55	7110
2026-01-23 00:56:56.98	237.73	10.60	-42.6	-47.8	9.6	1.25e-02	0	61	0	951058432	55	7115
2026-01-23 00:56:57.99	237.65	10.52	-42.5	-47.7	9.7	1.20e-02	0	61	0	953155584	55	7039
2026-01-23 00:56:59.00	237.57	10.43	-42.5	-47.7	9.7	1.18e-02	0	61	0	955252736	55	7020
2026-01-23 00:57:00.01	237.49	10.35	-42.5	-47.7	9.7	1.26e-02	0	61	0	957349888	55	7023
2026-01-23 00:57:01.02	237.41	10.27	-42.5	-47.7	9.7	1.04e-02	0	61	0	959447040	55	6986
2026-01-23 00:57:02.03	237.33	10.19	-42.4	-47.6	9.8	1.08e-02	0	61	0	960495616	55	6933
2026-01-23 00:57:03.04	237.25	10.11	-42.5	-47.7	9.8	1.07e-02	0	61	0	962592768	55	6962
2026-01-23 00:57:04.05	237.17	10.03	-42.5	-47.8	9.6	1.24e-02	0	61	0	964689920	55	7049
2026-01-23 00:57:05.06	237.10	9.95	-42.5	-47.8	9.6	1.30e-02	0	61	0	966787072	55	7063
2026-01-23 00:57:06.07	237.02	9.87	-42.5	-47.9	9.5	1.61e-02	0	61	0	968884224	55	7139
2026-01-23 00:57:07.07	236.94	9.79	-42.5	-47.9	9.6	1.45e-02	0	61	0	969932800	55	7128
2026-01-23 00:57:08.08	236.87	9.72	-42.5	-47.9	9.4	1.64e-02	0	61	0	972029952	55	7201
2026-01-23 00:57:09.09	236.79	9.64	-42.6	-48.1	9.3	1.69e-02	0	61	0	974127104	55	7314
2026-01-23 00:57:10.10	236.72	9.56	-42.6	-48.2	9.1	2.13e-02	0	61	0	976224256	55	7432
