passes_logs/2026/01/23/R2.0S_Moscow/R2.0S_Moscow__20260123_094533_NOAA_21_JPSS-2_rec.log

#Pass ID: 20260123_094533_NOAA 21 (JPSS-2)
#Satellite: NOAA 21 (JPSS-2)
#Configuration: NOAA-21
#almurnet v.1.7.20251203
#Start time: 2026-01-23 09:45:35

#Version: 2.2.20231116
#Station: R2.0S_Moscow
#Location: 37.707566 lon 55.798166 lat
#TLE: 1 54234U 22150A   26022.41365820  .00000211  00000+0  12084-3 0  9990
#TLE: 2 54234  98.7507 323.2240 0000658 234.5287 125.5828 14.19537645165864

#Time	Az	El	Level	Level2	SNR	BER	BlckErr	Temp	State	Recorded	gain1	gain2
2026-01-23 09:45:35.11	155.90	2.14	-44.0	-56.4	3.8	1.49e+00	0	52	0	0	59	15131
2026-01-23 09:45:36.11	155.89	2.20	-44.0	-56.4	3.8	1.49e+00	0	52	104	0	59	15115
2026-01-23 09:45:37.12	155.89	2.27	-44.1	-56.4	3.8	1.49e+00	0	52	104	0	59	15101
2026-01-23 09:45:38.13	155.88	2.33	-44.0	-56.4	3.8	1.49e+00	0	52	104	0	59	15062
2026-01-23 09:45:39.14	155.88	2.40	-44.0	-56.4	3.8	1.49e+00	0	52	104	0	59	15061
2026-01-23 09:45:40.15	155.87	2.46	-44.0	-56.3	3.8	1.49e+00	0	52	104	0	59	15048
2026-01-23 09:45:41.16	155.87	2.53	-44.0	-56.4	3.8	1.49e+00	0	53	104	0	59	15112
2026-01-23 09:45:42.17	155.86	2.60	-44.0	-56.4	3.8	1.49e+00	0	52	104	0	59	15116
2026-01-23 09:45:43.18	155.86	2.66	-44.0	-56.4	3.8	1.49e+00	0	53	104	0	59	15097
2026-01-23 09:45:44.19	155.85	2.73	-44.0	-56.4	3.8	1.49e+00	0	53	104	0	59	15090
2026-01-23 09:45:45.20	155.85	2.80	-44.0	-56.4	3.8	1.49e+00	0	53	104	0	59	15119
2026-01-23 09:45:46.21	155.84	2.86	-44.0	-56.4	3.8	1.49e+00	0	53	104	0	59	15055
2026-01-23 09:45:47.22	155.84	2.93	-44.0	-56.4	3.8	1.49e+00	0	53	104	0	59	15076
2026-01-23 09:45:48.23	155.83	3.00	-44.0	-56.3	3.8	1.49e+00	0	53	104	0	59	15024
2026-01-23 09:45:49.24	155.82	3.06	-44.0	-56.3	3.8	1.49e+00	0	53	104	0	59	15004
2026-01-23 09:45:50.25	155.82	3.13	-44.0	-56.3	3.8	1.49e+00	0	53	104	0	59	15046
2026-01-23 09:45:51.26	155.81	3.20	-44.0	-56.3	3.8	1.49e+00	0	53	104	0	59	14981
2026-01-23 09:45:52.27	155.81	3.27	-44.0	-56.4	3.8	1.49e+00	0	53	104	0	59	15060
2026-01-23 09:45:53.28	155.80	3.34	-44.0	-56.3	3.8	1.49e+00	0	54	104	0	59	15041
2026-01-23 09:45:54.29	155.80	3.40	-44.0	-56.3	3.8	1.49e+00	0	54	104	0	59	14983
2026-01-23 09:45:55.30	155.79	3.47	-44.0	-56.3	3.8	1.49e+00	0	54	104	0	59	15000
2026-01-23 09:45:56.31	155.79	3.54	-44.0	-56.3	3.8	1.49e+00	0	54	104	0	59	14933
2026-01-23 09:45:57.32	155.78	3.61	-44.0	-56.3	3.8	1.49e+00	0	53	104	0	59	14984
2026-01-23 09:45:58.33	155.77	3.68	-44.0	-56.3	3.8	1.49e+00	0	54	104	0	59	14990
2026-01-23 09:45:59.34	155.77	3.75	-44.0	-56.3	3.8	1.49e+00	0	54	104	0	59	15004
2026-01-23 09:46:00.35	155.76	3.82	-44.0	-56.3	3.8	1.49e+00	0	54	104	0	59	15008
2026-01-23 09:46:01.36	155.76	3.89	-44.0	-56.3	3.8	1.49e+00	0	54	104	0	59	15029
2026-01-23 09:46:02.37	155.75	3.96	-44.0	-56.3	3.8	1.49e+00	0	54	104	0	59	14996
2026-01-23 09:46:03.38	155.75	4.03	-44.0	-56.3	3.8	1.49e+00	0	54	104	0	59	14999
2026-01-23 09:46:04.39	155.74	4.10	-44.0	-56.3	3.8	1.49e+00	0	54	104	0	59	14986
2026-01-23 09:46:05.40	155.73	4.17	-44.0	-56.3	3.8	1.49e+00	0	54	104	0	59	14972
2026-01-23 09:46:06.41	155.73	4.24	-44.0	-56.3	3.8	1.49e+00	0	54	104	0	59	14996
2026-01-23 09:46:07.42	155.72	4.31	-44.0	-56.3	3.8	1.49e+00	0	54	104	0	59	15010
2026-01-23 09:46:08.43	155.72	4.38	-43.9	-56.3	3.8	1.49e+00	0	54	104	0	59	14996
2026-01-23 09:46:09.44	155.71	4.45	-44.0	-56.3	3.8	1.49e+00	0	54	104	0	59	14978
2026-01-23 09:46:10.45	155.70	4.52	-44.0	-56.3	3.8	1.49e+00	0	55	104	0	59	14970
2026-01-23 09:46:11.46	155.70	4.59	-44.0	-56.3	3.8	1.49e+00	0	54	104	0	59	15008
2026-01-23 09:46:12.47	155.69	4.66	-44.0	-56.3	3.8	1.49e+00	0	55	104	0	59	14950
2026-01-23 09:46:13.48	155.68	4.73	-43.9	-56.3	3.8	1.49e+00	0	55	104	0	59	14958
2026-01-23 09:46:14.50	155.68	4.81	-44.0	-56.3	3.8	1.49e+00	0	55	104	0	59	14887
2026-01-23 09:46:15.51	155.67	4.88	-44.0	-56.3	3.8	1.49e+00	0	55	104	0	59	14934
2026-01-23 09:46:16.52	155.67	4.95	-44.0	-56.3	3.8	1.49e+00	0	55	104	0	59	14922
2026-01-23 09:46:17.53	155.66	5.02	-44.0	-56.2	3.8	1.49e+00	0	55	104	0	59	14847
2026-01-23 09:46:18.54	155.65	5.10	-43.9	-56.2	3.8	1.49e+00	0	55	104	0	59	14834
2026-01-23 09:46:19.55	155.65	5.17	-44.0	-56.2	3.8	1.49e+00	0	55	104	0	59	14783
2026-01-23 09:46:20.56	155.64	5.24	-44.0	-56.2	3.8	1.49e+00	0	55	104	0	59	14801
2026-01-23 09:46:21.57	155.63	5.31	-44.0	-56.2	3.8	1.49e+00	0	55	104	0	59	14802
2026-01-23 09:46:22.58	155.63	5.39	-44.0	-56.1	3.8	1.49e+00	0	55	104	0	59	14641
2026-01-23 09:46:23.59	155.62	5.46	-43.9	-56.1	3.8	1.49e+00	0	55	104	0	59	14613
2026-01-23 09:46:24.60	155.61	5.54	-44.0	-56.1	3.8	1.49e+00	0	55	104	0	59	14562
2026-01-23 09:46:25.61	155.61	5.61	-43.9	-55.9	3.8	1.49e+00	0	55	104	0	59	14372
2026-01-23 09:46:26.62	155.60	5.68	-43.9	-55.8	3.8	1.49e+00	0	55	104	0	59	14116
2026-01-23 09:46:27.63	155.59	5.76	-43.9	-55.6	3.8	1.49e+00	0	55	104	0	59	13758
2026-01-23 09:46:28.64	155.59	5.83	-43.8	-55.2	3.8	1.49e+00	0	56	104	0	59	13196
2026-01-23 09:46:29.65	155.58	5.91	-43.8	-54.7	3.8	1.49e+00	0	55	104	0	59	12457
2026-01-23 09:46:30.66	155.57	5.98	-43.8	-54.3	3.8	1.48e+00	0	56	104	0	59	11938
2026-01-23 09:46:31.67	155.56	6.06	-43.7	-53.4	4.0	1.48e+00	0	55	104	0	59	10723
2026-01-23 09:46:32.68	155.56	6.13	-43.6	-53.3	3.9	1.46e+00	0	56	104	0	59	10585
2026-01-23 09:46:33.69	155.55	6.21	-43.5	-52.3	4.3	1.46e+00	0	56	104	0	59	9452
2026-01-23 09:46:34.70	155.54	6.29	-43.5	-52.5	4.0	1.40e+00	0	56	104	0	59	9669
2026-01-23 09:46:35.71	155.53	6.36	-43.5	-51.9	4.5	1.33e+00	4	56	104	0	58	9549
2026-01-23 09:46:36.72	155.53	6.44	-43.5	-52.2	4.0	1.41e+00	0	56	104	0	58	9901
2026-01-23 09:46:37.73	155.52	6.51	-43.6	-52.8	4.2	1.46e+00	0	56	104	0	58	10637
2026-01-23 09:46:38.74	155.51	6.59	-43.7	-53.4	3.9	1.47e+00	0	56	104	0	58	11359
2026-01-23 09:46:39.75	155.51	6.67	-43.7	-53.6	4.0	1.48e+00	0	56	104	0	58	11671
2026-01-23 09:46:40.76	155.50	6.75	-43.7	-54.0	3.9	1.48e+00	0	56	104	0	58	12112
2026-01-23 09:46:41.77	155.49	6.82	-43.8	-55.0	3.8	1.49e+00	0	56	104	0	58	13611
2026-01-23 09:46:42.78	155.48	6.90	-43.9	-55.6	3.8	1.49e+00	0	56	104	0	58	14693
2026-01-23 09:46:43.79	155.47	6.98	-43.9	-55.8	3.8	1.49e+00	0	56	104	0	58	14964
2026-01-23 09:46:44.81	155.47	7.06	-43.9	-55.7	3.8	1.49e+00	0	56	104	0	58	14835
2026-01-23 09:46:45.82	155.46	7.14	-43.9	-55.4	3.8	1.49e+00	0	56	104	0	58	14372
2026-01-23 09:46:46.83	155.45	7.22	-43.8	-54.6	3.8	1.49e+00	0	56	104	0	58	12974
2026-01-23 09:46:47.84	155.44	7.29	-43.6	-53.3	3.9	1.46e+00	0	56	104	0	58	11284
2026-01-23 09:46:48.84	155.43	7.37	-43.4	-51.6	4.6	1.26e+00	0	57	104	0	58	9237
2026-01-23 09:46:49.86	155.43	7.45	-43.2	-50.3	5.3	7.02e-01	0	57	0	1048576	58	7919
2026-01-23 09:46:50.87	155.42	7.53	-42.8	-49.0	6.2	3.49e-01	0	57	0	4194304	57	7209
2026-01-23 09:46:51.88	155.41	7.61	-42.5	-48.0	6.9	1.97e-01	0	57	0	7340032	57	6473
2026-01-23 09:46:52.89	155.40	7.69	-42.3	-47.2	7.7	9.51e-02	0	57	0	10485760	56	6266
2026-01-23 09:46:53.90	155.39	7.77	-41.8	-46.2	8.6	4.89e-02	0	57	0	13631488	55	5895
2026-01-23 09:46:54.91	155.39	7.85	-41.5	-45.6	9.2	2.23e-02	0	57	0	16777216	55	5501
2026-01-23 09:46:55.92	155.38	7.94	-41.3	-45.2	9.6	1.31e-02	0	57	0	19922944	54	5555
2026-01-23 09:46:56.93	155.37	8.02	-41.2	-45.0	9.9	9.95e-03	0	57	0	23068672	54	5409
2026-01-23 09:46:57.94	155.36	8.10	-44.0	-54.7	3.8	8.43e-01	0	57	104	25165824	58	13210
2026-01-23 09:46:58.95	155.35	8.18	-44.2	-56.0	3.8	1.49e+00	0	57	104	25165824	58	15274
2026-01-23 09:46:59.96	155.34	8.26	-43.1	-50.8	5.0	9.98e-02	0	57	0	25165824	56	9392
2026-01-23 09:47:00.97	155.33	8.34	-43.2	-50.2	5.4	2.86e-01	0	57	0	26214400	57	8284
2026-01-23 09:47:01.98	155.32	8.43	-41.6	-45.9	9.0	1.02e-02	0	57	0	29360128	53	6376
2026-01-23 09:47:02.99	155.32	8.51	-40.9	-44.3	10.6	6.66e-03	0	57	0	32505856	53	5321
2026-01-23 09:47:04.00	155.31	8.59	-40.8	-44.1	10.8	3.10e-03	0	57	0	35651584	53	5212
2026-01-23 09:47:05.01	155.30	8.68	-40.8	-44.3	10.6	3.28e-03	0	57	0	38797312	53	5303
2026-01-23 09:47:06.01	155.29	8.76	-40.8	-44.2	10.7	2.86e-03	0	57	0	41943040	53	5256
2026-01-23 09:47:07.02	155.28	8.84	-40.8	-44.2	10.7	2.65e-03	0	57	0	45088768	53	5242
2026-01-23 09:47:08.03	155.27	8.93	-40.7	-44.0	10.9	2.04e-03	0	57	0	48234496	53	5138
2026-01-23 09:47:09.04	155.26	9.01	-40.7	-43.9	11.0	1.83e-03	0	57	0	51380224	53	5093
2026-01-23 09:47:10.05	155.25	9.10	-40.7	-44.0	10.9	2.35e-03	0	57	0	54525952	53	5154
2026-01-23 09:47:11.06	155.24	9.18	-40.7	-44.0	11.0	1.82e-03	0	57	0	57671680	53	5134
2026-01-23 09:47:12.07	155.23	9.27	-40.8	-44.1	10.9	2.04e-03	0	57	0	60817408	53	5191
2026-01-23 09:47:13.08	155.22	9.35	-40.8	-44.1	10.9	2.25e-03	0	57	0	63963136	53	5205
2026-01-23 09:47:14.09	155.21	9.44	-40.8	-44.1	10.9	2.15e-03	0	57	0	67108864	53	5181
2026-01-23 09:47:15.10	155.20	9.53	-40.7	-44.0	11.1	1.82e-03	0	57	0	70254592	53	5115
2026-01-23 09:47:16.11	155.19	9.61	-40.7	-43.9	11.2	1.29e-03	0	57	0	73400320	53	5044
2026-01-23 09:47:17.12	155.18	9.70	-40.7	-43.9	11.2	1.45e-03	0	58	0	76546048	53	5072
2026-01-23 09:47:18.13	155.17	9.79	-40.6	-43.7	11.4	1.21e-03	0	57	0	79691776	53	4946
2026-01-23 09:47:19.14	155.16	9.87	-40.6	-43.7	11.5	7.06e-04	0	58	0	82837504	53	4928
2026-01-23 09:47:20.15	155.15	9.96	-40.6	-43.6	11.6	6.96e-04	0	58	0	85983232	53	4905
2026-01-23 09:47:21.16	155.14	10.05	-40.6	-43.6	11.5	7.40e-04	0	58	0	89128960	53	4924
2026-01-23 09:47:22.17	155.13	10.14	-40.5	-43.5	11.7	7.16e-04	0	58	0	92274688	53	4868
2026-01-23 09:47:23.18	155.12	10.23	-40.5	-43.5	11.7	5.31e-04	0	58	0	95420416	52	5134
2026-01-23 09:47:24.19	155.11	10.32	-40.5	-43.5	11.8	5.39e-04	0	58	0	98566144	52	5114
2026-01-23 09:47:25.20	155.10	10.41	-40.5	-43.4	11.7	5.53e-04	0	58	0	101711872	52	5096
2026-01-23 09:47:26.21	155.09	10.50	-40.5	-43.5	11.8	4.52e-04	0	58	0	104857600	52	5108
2026-01-23 09:47:27.22	155.08	10.59	-40.4	-43.4	11.9	3.72e-04	0	58	0	108003328	52	5044
2026-01-23 09:47:28.23	155.07	10.68	-40.5	-43.5	11.8	4.00e-04	0	58	0	111149056	52	5119
2026-01-23 09:47:29.24	155.06	10.77	-40.5	-43.4	11.9	4.58e-04	0	58	0	114294784	52	5061
2026-01-23 09:47:30.25	155.05	10.86	-40.4	-43.3	12.0	3.24e-04	0	58	0	117440512	52	5020
2026-01-23 09:47:31.26	155.04	10.95	-40.4	-43.2	12.1	3.13e-04	0	58	0	120586240	52	4971
2026-01-23 09:47:32.27	155.03	11.04	-40.3	-43.1	12.2	2.06e-04	0	58	0	123731968	52	4909
2026-01-23 09:47:33.28	155.02	11.13	-40.3	-43.1	12.3	1.81e-04	0	58	0	126877696	52	4919
2026-01-23 09:47:34.29	155.00	11.22	-40.3	-43.1	12.3	1.88e-04	0	58	0	130023424	52	4894
2026-01-23 09:47:35.30	154.99	11.32	-40.4	-43.2	12.2	1.98e-04	0	58	0	133169152	52	4939
2026-01-23 09:47:36.31	154.98	11.41	-40.3	-43.0	12.3	1.59e-04	0	58	0	136314880	52	4863
2026-01-23 09:47:37.32	154.97	11.50	-40.3	-43.0	12.4	1.40e-04	0	58	0	139460608	52	4851
2026-01-23 09:47:38.33	154.96	11.60	-40.3	-43.0	12.4	1.53e-04	0	58	0	142606336	52	4859
2026-01-23 09:47:39.34	154.95	11.69	-40.3	-43.0	12.4	1.54e-04	0	58	0	145752064	52	4864
2026-01-23 09:47:40.35	154.94	11.79	-40.2	-42.9	12.6	1.11e-04	0	58	0	148897792	52	4780
2026-01-23 09:47:41.36	154.92	11.88	-40.3	-43.0	12.5	1.09e-04	0	58	0	152043520	52	4827
2026-01-23 09:47:42.37	154.91	11.98	-40.2	-42.9	12.6	8.16e-05	0	58	0	155189248	52	4785
2026-01-23 09:47:43.38	154.90	12.07	-40.2	-42.8	12.7	7.93e-05	0	58	0	158334976	52	4750
2026-01-23 09:47:44.39	154.89	12.17	-40.1	-42.8	12.8	6.33e-05	0	58	0	161480704	52	4707
2026-01-23 09:47:45.40	154.88	12.27	-40.1	-42.7	12.7	6.40e-05	0	58	0	164626432	52	4705
2026-01-23 09:47:46.41	154.86	12.36	-40.1	-42.7	12.8	6.33e-05	0	58	0	167772160	52	4693
2026-01-23 09:47:47.42	154.85	12.46	-40.2	-42.8	12.8	5.72e-05	0	58	0	170917888	52	4730
2026-01-23 09:47:48.43	154.84	12.56	-40.2	-42.8	12.7	6.02e-05	0	58	0	174063616	52	4759
2026-01-23 09:47:49.44	154.83	12.65	-40.1	-42.7	12.9	5.18e-05	0	58	0	177209344	52	4675
2026-01-23 09:47:50.45	154.81	12.75	-40.1	-42.7	12.8	4.73e-05	0	58	0	180355072	52	4696
2026-01-23 09:47:51.46	154.80	12.85	-40.2	-42.8	12.8	5.34e-05	0	58	0	183500800	52	4722
2026-01-23 09:47:52.47	154.79	12.95	-40.1	-42.6	13.0	4.57e-05	0	58	0	186646528	52	4626
2026-01-23 09:47:53.48	154.77	13.05	-40.0	-42.6	13.0	4.50e-05	0	58	0	189792256	52	4626
2026-01-23 09:47:54.49	154.76	13.15	-40.1	-42.7	13.0	4.19e-05	0	58	0	192937984	52	4663
2026-01-23 09:47:55.50	154.75	13.25	-40.1	-42.7	13.0	4.95e-05	0	58	0	196083712	52	4669
2026-01-23 09:47:56.51	154.73	13.35	-40.1	-42.6	13.1	3.73e-05	0	59	0	199229440	52	4619
2026-01-23 09:47:57.52	154.72	13.45	-40.1	-42.6	13.1	3.96e-05	0	58	0	202375168	52	4642
2026-01-23 09:47:58.53	154.71	13.55	-40.0	-42.5	13.2	3.58e-05	0	59	0	205520896	52	4579
2026-01-23 09:47:59.54	154.69	13.66	-40.1	-42.5	13.1	3.50e-05	0	59	0	208666624	52	4596
2026-01-23 09:48:00.55	154.68	13.76	-40.0	-42.5	13.2	2.05e-05	0	59	0	211812352	52	4548
2026-01-23 09:48:01.56	154.67	13.86	-40.1	-42.5	13.3	1.75e-05	0	59	0	214958080	51	4842
2026-01-23 09:48:02.57	154.65	13.97	-40.1	-42.5	13.2	1.29e-05	0	59	0	218103808	51	4868
2026-01-23 09:48:03.58	154.64	14.07	-40.1	-42.6	13.1	2.89e-05	0	59	0	221249536	51	4919
2026-01-23 09:48:04.59	154.62	14.17	-40.1	-42.5	13.3	1.90e-05	0	59	0	224395264	51	4844
2026-01-23 09:48:05.60	154.61	14.28	-40.1	-42.6	13.3	2.13e-05	0	59	0	227540992	51	4886
2026-01-23 09:48:06.61	154.59	14.38	-40.2	-42.6	13.3	2.21e-05	0	59	0	230686720	51	4923
2026-01-23 09:48:07.62	154.58	14.49	-40.1	-42.6	13.2	1.52e-05	0	59	0	233832448	51	4893
2026-01-23 09:48:08.63	154.56	14.59	-40.2	-42.7	13.2	2.21e-05	0	59	0	236978176	51	4955
2026-01-23 09:48:09.64	154.55	14.70	-40.2	-42.6	13.2	2.21e-05	0	59	0	240123904	51	4920
2026-01-23 09:48:10.65	154.53	14.81	-40.1	-42.5	13.4	1.83e-05	0	59	0	243269632	51	4851
2026-01-23 09:48:11.65	154.52	14.91	-40.2	-42.6	13.3	1.60e-05	0	59	0	246415360	51	4902
2026-01-23 09:48:12.66	154.50	15.02	-40.2	-42.6	13.3	1.60e-05	0	59	0	249561088	51	4896
2026-01-23 09:48:13.67	154.49	15.13	-40.2	-42.6	13.3	2.74e-05	0	59	0	252706816	51	4918
2026-01-23 09:48:14.68	154.47	15.24	-40.2	-42.7	13.2	2.67e-05	0	59	0	255852544	51	4956
2026-01-23 09:48:15.69	154.46	15.35	-40.3	-42.8	13.2	2.59e-05	0	59	0	258998272	51	5017
2026-01-23 09:48:16.70	154.44	15.46	-40.3	-42.8	13.1	2.59e-05	0	59	0	262144000	51	5005
2026-01-23 09:48:17.71	154.43	15.57	-40.3	-42.9	13.0	3.28e-05	0	59	0	265289728	51	5058
2026-01-23 09:48:18.72	154.41	15.68	-40.2	-42.7	13.2	1.83e-05	0	59	0	268435456	51	4963
2026-01-23 09:48:19.73	154.39	15.79	-40.2	-42.7	13.2	2.44e-05	0	59	0	271581184	51	4961
2026-01-23 09:48:20.74	154.38	15.90	-40.3	-42.8	13.2	2.28e-05	0	59	0	274726912	51	4989
2026-01-23 09:48:21.75	154.36	16.02	-40.3	-42.7	13.2	2.44e-05	0	59	0	277872640	51	4970
2026-01-23 09:48:22.77	154.34	16.13	-40.3	-42.8	13.2	2.36e-05	0	59	0	281018368	51	4992
2026-01-23 09:48:23.78	154.33	16.24	-40.2	-42.7	13.3	1.90e-05	0	59	0	284164096	51	4947
2026-01-23 09:48:24.79	154.31	16.36	-40.3	-42.8	13.1	2.59e-05	0	59	0	287309824	51	5029
2026-01-23 09:48:25.80	154.29	16.47	-40.4	-42.9	13.1	2.89e-05	0	59	0	290455552	51	5061
2026-01-23 09:48:26.80	154.28	16.59	-40.3	-42.8	13.2	1.52e-05	0	59	0	293601280	51	5024
2026-01-23 09:48:27.81	154.26	16.70	-40.4	-42.9	13.1	2.82e-05	0	59	0	297795584	51	5055
2026-01-23 09:48:28.82	154.24	16.82	-40.3	-42.8	13.2	2.74e-05	0	59	0	299892736	51	5026
2026-01-23 09:48:29.83	154.22	16.93	-40.3	-42.8	13.2	2.21e-05	0	59	0	303038464	51	5018
2026-01-23 09:48:30.84	154.21	17.05	-40.3	-42.8	13.1	3.12e-05	0	59	0	306184192	51	5022
2026-01-23 09:48:31.85	154.19	17.17	-40.3	-42.8	13.2	2.74e-05	0	59	0	309329920	51	5009
2026-01-23 09:48:32.86	154.17	17.29	-40.3	-42.8	13.2	2.21e-05	0	59	0	312475648	51	5024
2026-01-23 09:48:33.87	154.15	17.41	-40.4	-42.9	13.1	3.12e-05	0	59	0	316669952	51	5072
2026-01-23 09:48:34.88	154.13	17.53	-40.4	-42.9	13.1	2.97e-05	0	59	0	319815680	51	5052
2026-01-23 09:48:35.89	154.11	17.65	-40.4	-42.8	13.2	2.44e-05	0	59	0	321912832	51	5033
2026-01-23 09:48:36.90	154.09	17.77	-40.4	-42.8	13.1	2.67e-05	0	59	0	325058560	51	5034
2026-01-23 09:48:37.91	154.08	17.89	-40.4	-42.9	13.1	3.35e-05	0	59	0	328204288	51	5086
2026-01-23 09:48:38.91	154.06	18.01	-40.4	-42.9	13.1	3.05e-05	0	59	0	332398592	51	5074
2026-01-23 09:48:39.92	154.04	18.13	-40.4	-42.9	13.1	2.82e-05	0	59	0	335544320	51	5057
2026-01-23 09:48:40.93	154.02	18.25	-40.5	-43.0	13.0	3.05e-05	0	59	0	338690048	51	5110
2026-01-23 09:48:41.95	154.00	18.38	-40.5	-43.0	13.0	4.95e-05	0	59	0	341835776	51	5143
2026-01-23 09:48:42.96	153.98	18.50	-40.4	-42.9	13.1	3.43e-05	0	59	0	344981504	51	5089
2026-01-23 09:48:43.96	153.96	18.63	-40.4	-42.9	13.1	3.05e-05	0	59	0	348127232	51	5098
2026-01-23 09:48:44.97	153.94	18.75	-40.4	-42.9	13.1	3.73e-05	0	59	0	351272960	51	5100
2026-01-23 09:48:45.98	153.92	18.88	-40.4	-42.9	13.2	2.59e-05	0	59	0	354418688	51	5042
2026-01-23 09:48:46.99	153.90	19.01	-40.4	-42.9	13.2	1.60e-05	0	59	0	357564416	51	5050
2026-01-23 09:48:48.00	153.87	19.13	-40.4	-42.9	13.1	2.28e-05	0	59	0	360710144	51	5054
2026-01-23 09:48:49.01	153.85	19.26	-40.4	-42.9	13.1	3.28e-05	0	59	0	363855872	51	5081
2026-01-23 09:48:50.02	153.83	19.39	-40.4	-42.9	13.1	2.74e-05	0	59	0	367001600	51	5100
2026-01-23 09:48:51.03	153.81	19.52	-40.4	-42.9	13.1	2.28e-05	0	59	0	370147328	51	5053
2026-01-23 09:48:52.04	153.79	19.65	-40.4	-42.8	13.2	3.50e-05	0	59	0	373293056	51	5037
2026-01-23 09:48:53.05	153.77	19.78	-40.3	-42.8	13.2	2.13e-05	0	59	0	376438784	51	5006
2026-01-23 09:48:54.06	153.74	19.91	-40.3	-42.8	13.3	2.05e-05	0	60	0	379584512	51	4991
2026-01-23 09:48:55.07	153.72	20.04	-40.4	-42.8	13.2	3.20e-05	0	59	0	382730240	51	5021
2026-01-23 09:48:56.08	153.70	20.18	-40.3	-42.7	13.3	1.37e-05	0	59	0	385875968	51	4963
2026-01-23 09:48:57.09	153.68	20.31	-40.3	-42.7	13.3	1.83e-05	0	60	0	389021696	51	4965
2026-01-23 09:48:58.10	153.65	20.44	-40.3	-42.7	13.3	1.98e-05	0	59	0	392167424	51	4974
2026-01-23 09:48:59.11	153.63	20.58	-40.1	-42.4	13.6	9.90e-06	0	60	0	395313152	51	4809
2026-01-23 09:49:00.12	153.61	20.71	-40.0	-42.3	13.7	8.30e-06	0	59	0	398458880	51	4751
2026-01-23 09:49:01.13	153.58	20.85	-40.0	-42.3	13.8	6.10e-06	0	60	0	401604608	51	4753
2026-01-23 09:49:02.14	153.56	20.99	-40.0	-42.2	13.9	6.10e-06	0	59	0	404750336	51	4703
2026-01-23 09:49:03.15	153.54	21.13	-39.9	-42.1	14.0	3.00e-06	0	60	0	407896064	51	4634
2026-01-23 09:49:04.16	153.51	21.27	-39.8	-42.0	14.1	2.20e-06	0	60	0	411041792	51	4570
2026-01-23 09:49:05.17	153.49	21.40	-39.8	-41.9	14.2	2.20e-06	0	60	0	414187520	51	4537
2026-01-23 09:49:06.17	153.46	21.54	-39.7	-41.9	14.2	7.00e-07	0	60	0	417333248	51	4526
2026-01-23 09:49:07.18	153.44	21.68	-39.6	-41.8	14.3	2.20e-06	0	60	0	420478976	51	4457
2026-01-23 09:49:08.20	153.41	21.83	-39.6	-41.7	14.4	0.00e+00	0	60	0	423624704	51	4417
2026-01-23 09:49:09.21	153.39	21.97	-39.6	-41.7	14.4	1.50e-06	0	60	0	426770432	51	4418
2026-01-23 09:49:10.21	153.36	22.11	-39.6	-41.8	14.4	0.00e+00	0	60	0	429916160	51	4445
2026-01-23 09:49:11.22	153.33	22.26	-39.5	-41.6	14.5	3.80e-06	0	60	0	433061888	51	4374
2026-01-23 09:49:12.23	153.31	22.40	-39.4	-41.5	14.6	7.00e-07	0	60	0	436207616	50	4583
2026-01-23 09:49:13.24	153.28	22.55	-39.4	-41.4	14.7	0.00e+00	0	60	0	439353344	50	4535
2026-01-23 09:49:14.25	153.25	22.69	-39.4	-41.5	14.7	0.00e+00	0	60	0	442499072	50	4563
2026-01-23 09:49:15.26	153.23	22.84	-39.5	-41.5	14.7	0.00e+00	0	60	0	445644800	50	4588
2026-01-23 09:49:16.27	153.20	22.99	-39.3	-41.3	14.9	0.00e+00	0	60	0	448790528	50	4463
2026-01-23 09:49:17.28	153.17	23.14	-39.3	-41.3	14.9	0.00e+00	0	60	0	451936256	50	4460
2026-01-23 09:49:18.29	153.14	23.29	-39.4	-41.4	14.8	0.00e+00	0	60	0	455081984	50	4514
2026-01-23 09:49:19.30	153.11	23.44	-39.3	-41.4	14.8	7.00e-07	0	60	0	458227712	50	4501
2026-01-23 09:49:20.31	153.08	23.59	-39.3	-41.3	14.9	0.00e+00	0	60	0	461373440	50	4469
2026-01-23 09:49:21.32	153.06	23.74	-39.2	-41.2	15.0	0.00e+00	0	60	0	464519168	50	4423
2026-01-23 09:49:22.33	153.03	23.90	-39.3	-41.2	14.9	0.00e+00	0	60	0	467664896	50	4435
2026-01-23 09:49:23.34	153.00	24.05	-39.3	-41.3	14.9	0.00e+00	0	60	0	470810624	50	4461
2026-01-23 09:49:24.35	152.97	24.21	-39.3	-41.2	14.9	0.00e+00	0	60	0	473956352	50	4441
2026-01-23 09:49:25.36	152.94	24.36	-39.3	-41.3	14.9	0.00e+00	0	60	0	477102080	50	4459
2026-01-23 09:49:26.37	152.90	24.52	-39.3	-41.3	14.8	0.00e+00	0	60	0	480247808	50	4478
2026-01-23 09:49:27.38	152.87	24.68	-39.3	-41.3	14.9	0.00e+00	0	60	0	483393536	50	4452
2026-01-23 09:49:28.38	152.84	24.84	-39.3	-41.3	14.9	0.00e+00	0	60	0	486539264	50	4465
2026-01-23 09:49:29.39	152.81	25.00	-39.4	-41.4	14.8	7.00e-07	0	60	0	489684992	50	4509
2026-01-23 09:49:30.40	152.78	25.16	-39.5	-41.5	14.7	0.00e+00	0	60	0	492830720	50	4579
2026-01-23 09:49:31.41	152.75	25.32	-39.5	-41.6	14.6	1.50e-06	0	60	0	495976448	50	4617
2026-01-23 09:49:32.42	152.71	25.48	-39.6	-41.7	14.5	7.00e-07	0	60	0	499122176	50	4652
2026-01-23 09:49:33.43	152.68	25.65	-39.6	-41.7	14.5	7.00e-07	0	60	0	502267904	50	4681
2026-01-23 09:49:34.44	152.65	25.81	-39.7	-41.9	14.4	0.00e+00	0	60	0	505413632	50	4762
2026-01-23 09:49:35.45	152.61	25.98	-39.8	-42.0	14.3	7.00e-07	0	60	0	508559360	50	4826
2026-01-23 09:49:36.46	152.58	26.14	-39.8	-42.0	14.2	1.50e-06	0	60	0	511705088	50	4826
2026-01-23 09:49:37.46	152.54	26.31	-39.9	-42.1	14.1	4.50e-06	0	60	0	514850816	50	4895
2026-01-23 09:49:38.47	152.51	26.48	-39.9	-42.1	14.1	7.00e-07	0	60	0	517996544	50	4921
2026-01-23 09:49:39.49	152.47	26.65	-40.0	-42.3	13.9	1.50e-06	0	60	0	521142272	50	5012
2026-01-23 09:49:40.50	152.44	26.82	-40.1	-42.4	13.9	6.10e-06	0	60	0	524288000	50	5047
2026-01-23 09:49:41.51	152.40	26.99	-40.1	-42.4	13.8	3.80e-06	0	60	0	527433728	50	5085
2026-01-23 09:49:42.52	152.36	27.17	-40.2	-42.5	13.7	9.90e-06	0	60	0	530579456	51	4857
2026-01-23 09:49:43.53	152.33	27.34	-40.3	-42.6	13.6	8.30e-06	0	60	0	533725184	51	4911
2026-01-23 09:49:44.53	152.29	27.52	-40.3	-42.7	13.5	8.30e-06	0	60	0	536870912	51	4970
2026-01-23 09:49:45.54	152.25	27.69	-40.3	-42.7	13.5	1.22e-05	0	60	0	540016640	51	4944
2026-01-23 09:49:46.55	152.21	27.87	-40.4	-42.8	13.5	1.14e-05	0	60	0	543162368	51	4987
2026-01-23 09:49:47.56	152.17	28.05	-40.4	-42.9	13.4	1.52e-05	0	60	0	546308096	51	5054
2026-01-23 09:49:48.57	152.13	28.23	-40.5	-42.9	13.3	1.75e-05	0	60	0	549453824	51	5088
2026-01-23 09:49:49.58	152.09	28.41	-40.6	-43.1	13.2	1.75e-05	0	60	0	552599552	51	5169
2026-01-23 09:49:50.59	152.05	28.59	-40.5	-43.0	13.2	2.36e-05	0	60	0	555745280	51	5128
2026-01-23 09:49:51.60	152.01	28.78	-40.6	-43.1	13.1	3.12e-05	0	60	0	558891008	51	5196
2026-01-23 09:49:52.61	151.97	28.96	-40.6	-43.1	13.1	3.05e-05	0	60	0	562036736	51	5190
2026-01-23 09:49:53.62	151.93	29.15	-40.6	-43.1	13.1	2.74e-05	0	60	0	565182464	51	5182
2026-01-23 09:49:54.63	151.89	29.33	-40.6	-43.1	13.1	2.51e-05	0	61	0	568328192	51	5197
2026-01-23 09:49:55.63	151.84	29.52	-40.5	-43.0	13.2	2.89e-05	0	60	0	571473920	51	5135
2026-01-23 09:49:56.64	151.80	29.71	-40.4	-42.9	13.4	1.14e-05	0	60	0	574619648	51	5045
2026-01-23 09:49:57.65	151.76	29.90	-40.4	-42.8	13.4	9.90e-06	0	60	0	577765376	51	5036
2026-01-23 09:49:58.67	151.71	30.10	-40.3	-42.6	13.6	6.80e-06	0	60	0	580911104	51	4883
2026-01-23 09:49:59.68	151.67	30.29	-40.1	-42.3	13.9	4.50e-06	0	60	0	584056832	51	4741
2026-01-23 09:50:00.69	151.62	30.48	-39.9	-42.1	14.1	2.20e-06	0	60	0	587202560	51	4620
2026-01-23 09:50:01.70	151.57	30.68	-39.9	-42.0	14.2	0.00e+00	0	60	0	590348288	51	4590
2026-01-23 09:50:02.70	151.53	30.87	-39.8	-41.9	14.3	1.50e-06	0	60	0	593494016	51	4530
2026-01-23 09:50:03.71	151.48	31.07	-39.8	-41.9	14.3	7.00e-07	0	60	0	596639744	51	4506
2026-01-23 09:50:04.73	151.43	31.28	-39.8	-41.9	14.3	7.00e-07	0	60	0	599785472	51	4531
2026-01-23 09:50:05.74	151.38	31.48	-39.7	-41.8	14.4	0.00e+00	0	61	0	602931200	51	4478
2026-01-23 09:50:06.75	151.33	31.68	-39.6	-41.7	14.5	0.00e+00	0	60	0	606076928	51	4426
2026-01-23 09:50:07.76	151.28	31.88	-39.7	-41.7	14.5	1.50e-06	0	60	0	609222656	51	4439
2026-01-23 09:50:08.77	151.23	32.09	-39.7	-41.9	14.4	1.50e-06	0	60	0	612368384	51	4497
2026-01-23 09:50:09.78	151.18	32.30	-39.8	-42.0	14.2	0.00e+00	0	60	0	615514112	51	4555
2026-01-23 09:50:10.78	151.13	32.50	-39.8	-42.0	14.2	0.00e+00	0	60	0	618659840	51	4563
2026-01-23 09:50:11.79	151.07	32.71	-40.0	-42.2	14.1	2.20e-06	0	60	0	621805568	51	4663
2026-01-23 09:50:12.80	151.02	32.92	-40.0	-42.2	14.0	2.20e-06	0	60	0	624951296	51	4654
2026-01-23 09:50:13.81	150.97	33.13	-40.0	-42.2	14.0	3.00e-06	0	61	0	628097024	51	4676
2026-01-23 09:50:14.82	150.91	33.35	-40.0	-42.2	13.9	7.00e-07	0	60	0	631242752	51	4702
2026-01-23 09:50:15.83	150.85	33.56	-40.1	-42.3	13.9	3.80e-06	0	60	0	634388480	51	4740
2026-01-23 09:50:16.84	150.80	33.78	-40.2	-42.5	13.7	3.00e-06	0	60	0	637534208	51	4861
2026-01-23 09:50:17.85	150.74	34.00	-40.3	-42.7	13.6	1.06e-05	0	60	0	640679936	51	4930
2026-01-23 09:50:18.86	150.68	34.22	-40.5	-42.9	13.4	1.14e-05	0	60	0	643825664	51	5049
2026-01-23 09:50:19.87	150.62	34.44	-40.5	-43.0	13.2	2.89e-05	0	60	0	646971392	51	5127
2026-01-23 09:50:20.88	150.56	34.66	-40.6	-43.2	12.9	3.35e-05	0	60	0	650117120	52	4943
2026-01-23 09:50:21.89	150.50	34.89	-40.7	-43.3	12.8	3.12e-05	0	60	0	653262848	52	5033
2026-01-23 09:50:22.90	150.44	35.12	-40.9	-43.5	12.6	8.08e-05	0	61	0	656408576	52	5149
2026-01-23 09:50:23.91	150.38	35.34	-40.9	-43.6	12.6	1.12e-04	0	60	0	659554304	52	5162
2026-01-23 09:50:24.92	150.31	35.57	-41.0	-43.7	12.4	1.14e-04	0	60	0	662700032	52	5229
2026-01-23 09:50:25.93	150.25	35.80	-41.0	-43.7	12.3	1.48e-04	0	60	0	665845760	52	5277
2026-01-23 09:50:26.94	150.18	36.04	-41.1	-43.9	12.2	1.98e-04	0	61	0	668991488	52	5366
2026-01-23 09:50:27.95	150.12	36.27	-41.1	-43.9	12.1	2.62e-04	0	60	0	672137216	52	5380
2026-01-23 09:50:28.96	150.05	36.51	-41.1	-43.9	12.2	1.90e-04	0	60	0	675282944	52	5387
2026-01-23 09:50:29.97	149.98	36.74	-41.2	-44.0	12.1	2.81e-04	0	61	0	679477248	52	5411
2026-01-23 09:50:30.98	149.91	36.98	-41.1	-43.9	12.2	2.19e-04	0	60	0	682622976	52	5356
2026-01-23 09:50:31.99	149.84	37.22	-41.1	-43.9	12.1	2.53e-04	0	60	0	685768704	52	5377
2026-01-23 09:50:33.00	149.77	37.47	-41.2	-44.0	12.1	2.51e-04	0	61	0	687865856	52	5427
2026-01-23 09:50:34.01	149.69	37.71	-41.2	-44.1	12.0	3.16e-04	0	60	0	691011584	53	5184
2026-01-23 09:50:35.02	149.62	37.96	-41.2	-44.0	12.0	3.09e-04	0	61	0	695205888	53	5146
2026-01-23 09:50:36.02	149.55	38.20	-41.1	-43.9	12.2	2.53e-04	0	60	0	698351616	53	5061
2026-01-23 09:50:37.03	149.47	38.45	-41.2	-44.0	12.1	2.59e-04	0	60	0	701497344	53	5143
2026-01-23 09:50:38.04	149.39	38.70	-41.2	-44.0	12.1	2.87e-04	0	61	0	704643072	53	5154
2026-01-23 09:50:39.05	149.31	38.96	-41.0	-43.7	12.4	1.40e-04	0	61	0	707788800	53	4967
2026-01-23 09:50:40.06	149.23	39.21	-41.0	-43.7	12.4	1.36e-04	0	60	0	710934528	53	4936
2026-01-23 09:50:41.07	149.15	39.47	-41.1	-43.8	12.3	1.65e-04	0	61	0	714080256	53	5014
2026-01-23 09:50:42.08	149.07	39.73	-40.9	-43.6	12.5	1.14e-04	0	60	0	717225984	53	4873
2026-01-23 09:50:43.09	148.98	39.99	-40.8	-43.3	12.8	6.40e-05	0	61	0	720371712	53	4731
2026-01-23 09:50:44.10	148.90	40.25	-40.7	-43.2	12.9	4.95e-05	0	60	0	723517440	53	4701
2026-01-23 09:50:45.11	148.81	40.52	-40.8	-43.3	12.8	6.02e-05	0	61	0	726663168	53	4746
2026-01-23 09:50:46.12	148.72	40.78	-40.8	-43.4	12.8	7.62e-05	0	61	0	729808896	53	4779
2026-01-23 09:50:47.13	148.63	41.05	-40.8	-43.4	12.7	7.55e-05	0	61	0	732954624	53	4798
2026-01-23 09:50:48.14	148.54	41.32	-41.0	-43.6	12.5	1.26e-04	0	61	0	736100352	53	4920
2026-01-23 09:50:49.15	148.45	41.59	-41.1	-43.8	12.3	1.58e-04	0	61	0	739246080	53	5012
2026-01-23 09:50:50.16	148.35	41.87	-41.3	-44.1	12.1	2.73e-04	0	60	0	742391808	53	5184
2026-01-23 09:50:51.17	148.26	42.14	-41.4	-44.4	11.8	4.39e-04	0	61	0	745537536	53	5356
2026-01-23 09:50:52.18	148.16	42.42	-41.4	-44.4	11.8	5.75e-04	0	61	0	748683264	53	5345
2026-01-23 09:50:53.19	148.06	42.70	-41.5	-44.5	11.6	6.64e-04	0	61	0	751828992	53	5443
2026-01-23 09:50:54.20	147.95	42.98	-41.6	-44.6	11.5	7.72e-04	0	61	0	754974720	53	5494
2026-01-23 09:50:55.21	147.85	43.26	-41.6	-44.6	11.4	8.89e-04	0	61	0	758120448	53	5527
2026-01-23 09:50:56.22	147.75	43.55	-41.7	-44.8	11.3	1.11e-03	0	60	0	761266176	53	5609
2026-01-23 09:50:57.23	147.64	43.84	-41.7	-44.9	11.2	1.28e-03	0	61	0	764411904	54	5343
2026-01-23 09:50:58.24	147.53	44.13	-41.8	-45.0	11.1	1.59e-03	0	61	0	767557632	54	5460
2026-01-23 09:50:59.25	147.42	44.42	-41.9	-45.2	10.9	2.45e-03	0	61	0	770703360	54	5588
2026-01-23 09:51:00.25	147.30	44.71	-41.9	-45.2	10.8	2.16e-03	0	61	0	773849088	54	5586
2026-01-23 09:51:01.26	147.19	45.01	-42.0	-45.4	10.8	2.65e-03	0	61	0	776994816	54	5683
2026-01-23 09:51:02.28	147.07	45.31	-42.1	-45.6	10.5	3.36e-03	0	61	0	780140544	54	5811
2026-01-23 09:51:03.29	146.95	45.61	-42.1	-45.6	10.5	3.51e-03	0	61	0	783286272	54	5815
2026-01-23 09:51:04.30	146.82	45.91	-42.1	-45.6	10.5	4.14e-03	0	61	0	786432000	54	5835
2026-01-23 09:51:05.31	146.70	46.22	-42.0	-45.3	10.8	2.99e-03	0	61	0	789577728	54	5619
2026-01-23 09:51:06.32	146.57	46.52	-41.8	-45.1	11.0	1.80e-03	0	61	0	792723456	54	5480
2026-01-23 09:51:07.33	146.44	46.83	-41.8	-44.9	11.1	1.74e-03	0	61	0	795869184	54	5401
2026-01-23 09:51:08.33	146.31	47.14	-41.5	-44.4	11.6	7.55e-04	0	61	0	799014912	54	5096
2026-01-23 09:51:09.35	146.17	47.45	-41.3	-44.2	11.9	4.23e-04	0	61	0	802160640	54	4965
2026-01-23 09:51:10.36	146.03	47.77	-41.3	-44.2	11.9	3.84e-04	0	61	0	805306368	54	4955
2026-01-23 09:51:11.37	145.89	48.09	-41.3	-44.1	12.0	3.28e-04	0	61	0	808452096	54	4890
2026-01-23 09:51:12.38	145.75	48.41	-41.3	-44.1	12.1	3.34e-04	0	61	0	811597824	54	4909
2026-01-23 09:51:13.39	145.60	48.73	-41.4	-44.3	11.8	4.42e-04	0	61	0	814743552	54	5023
2026-01-23 09:51:14.40	145.45	49.05	-41.5	-44.4	11.7	5.02e-04	0	61	0	817889280	54	5089
2026-01-23 09:51:15.41	145.29	49.38	-41.5	-44.5	11.6	8.13e-04	0	61	0	821035008	54	5137
2026-01-23 09:51:16.42	145.13	49.70	-41.3	-44.2	11.9	4.97e-04	0	61	0	824180736	54	4975
2026-01-23 09:51:17.42	144.98	50.03	-41.2	-44.1	12.1	3.22e-04	0	61	0	827326464	54	4884
2026-01-23 09:51:18.43	144.81	50.36	-41.1	-43.8	12.3	1.85e-04	0	61	0	830472192	54	4744
2026-01-23 09:51:19.44	144.64	50.70	-41.1	-43.8	12.3	1.43e-04	0	61	0	833617920	54	4727
2026-01-23 09:51:20.45	144.47	51.03	-41.2	-43.9	12.2	1.82e-04	0	61	0	836763648	54	4805
2026-01-23 09:51:21.46	144.29	51.37	-41.3	-44.2	11.9	3.23e-04	0	61	0	839909376	54	4948
2026-01-23 09:51:22.47	144.11	51.71	-41.3	-44.2	11.9	3.97e-04	0	61	0	843055104	54	4961
2026-01-23 09:51:23.48	143.93	52.06	-41.3	-44.2	11.9	3.81e-04	0	61	0	846200832	54	4945
2026-01-23 09:51:24.49	143.74	52.40	-41.2	-44.0	12.2	2.37e-04	0	61	0	849346560	54	4831
2026-01-23 09:51:25.50	143.55	52.75	-41.2	-44.0	12.1	2.40e-04	0	61	0	852492288	54	4815
2026-01-23 09:51:26.51	143.35	53.10	-41.0	-43.7	12.4	1.44e-04	0	61	0	855638016	53	4957
2026-01-23 09:51:27.52	143.14	53.45	-40.9	-43.6	12.5	1.29e-04	0	61	0	858783744	53	4892
2026-01-23 09:51:28.53	142.94	53.80	-40.9	-43.6	12.5	1.26e-04	0	61	0	861929472	53	4888
2026-01-23 09:51:29.54	142.72	54.16	-40.8	-43.3	12.9	5.72e-05	0	61	0	865075200	53	4734
2026-01-23 09:51:30.55	142.50	54.51	-40.5	-42.9	13.3	2.67e-05	0	61	0	868220928	53	4518
2026-01-23 09:51:31.56	142.28	54.87	-40.5	-42.9	13.3	2.05e-05	0	61	0	871366656	52	4766
2026-01-23 09:51:32.57	142.05	55.23	-40.5	-42.9	13.2	2.36e-05	0	61	0	874512384	52	4778
2026-01-23 09:51:33.58	141.81	55.60	-40.5	-42.9	13.3	1.83e-05	0	61	0	877658112	52	4796
2026-01-23 09:51:34.59	141.57	55.96	-40.4	-42.8	13.4	1.98e-05	0	61	0	880803840	52	4738
2026-01-23 09:51:35.60	141.32	56.33	-40.3	-42.7	13.5	1.22e-05	0	61	0	883949568	52	4682
2026-01-23 09:51:36.61	141.06	56.70	-40.0	-42.3	13.9	4.50e-06	0	61	0	887095296	52	4453
2026-01-23 09:51:37.62	140.80	57.07	-40.1	-42.3	14.0	3.00e-06	0	61	0	890241024	51	4716
2026-01-23 09:51:38.63	140.53	57.44	-40.0	-42.2	14.1	7.00e-07	0	61	0	893386752	51	4683
2026-01-23 09:51:39.64	140.25	57.82	-39.6	-41.6	14.6	7.00e-07	0	61	0	896532480	51	4357
2026-01-23 09:51:40.65	139.97	58.19	-39.6	-41.7	14.4	7.00e-07	0	61	0	899678208	51	4393
2026-01-23 09:51:41.65	139.67	58.57	-39.7	-41.8	14.3	7.00e-07	0	61	0	902823936	51	4453
2026-01-23 09:51:42.66	139.37	58.95	-39.8	-41.9	14.2	1.50e-06	0	61	0	905969664	51	4535
2026-01-23 09:51:43.67	139.06	59.33	-39.7	-41.8	14.3	7.00e-07	0	61	0	909115392	51	4472
2026-01-23 09:51:44.68	138.74	59.71	-39.7	-41.8	14.3	0.00e+00	0	61	0	912261120	51	4459
2026-01-23 09:51:45.69	138.41	60.10	-39.5	-41.6	14.6	0.00e+00	0	61	0	915406848	51	4346
2026-01-23 09:51:46.70	138.07	60.48	-39.6	-41.6	14.6	1.50e-06	0	61	0	918552576	51	4367
2026-01-23 09:51:47.71	137.72	60.87	-39.6	-41.7	14.5	0.00e+00	0	61	0	921698304	51	4403
2026-01-23 09:51:48.72	137.35	61.26	-39.4	-41.4	14.8	0.00e+00	0	61	0	924844032	50	4499
2026-01-23 09:51:49.73	136.98	61.65	-39.5	-41.4	14.7	7.00e-07	0	61	0	927989760	50	4545
2026-01-23 09:51:50.74	136.59	62.04	-39.5	-41.5	14.6	1.50e-06	0	61	0	931135488	50	4569
2026-01-23 09:51:51.75	136.19	62.43	-39.5	-41.5	14.7	7.00e-07	0	61	0	934281216	50	4567
2026-01-23 09:51:52.76	135.78	62.82	-39.2	-41.1	15.0	0.00e+00	0	61	0	937426944	50	4391
2026-01-23 09:51:53.77	135.36	63.22	-39.2	-41.1	15.1	0.00e+00	0	61	0	940572672	50	4349
2026-01-23 09:51:54.78	134.92	63.61	-39.1	-41.0	15.3	0.00e+00	0	61	0	943718400	50	4293
2026-01-23 09:51:55.79	134.46	64.01	-38.9	-40.7	15.4	0.00e+00	0	61	0	946864128	49	4434
2026-01-23 09:51:56.80	133.99	64.40	-38.9	-40.7	15.4	0.00e+00	0	61	0	950009856	49	4418
2026-01-23 09:51:57.81	133.50	64.80	-38.9	-40.8	15.4	0.00e+00	0	61	0	953155584	49	4445
2026-01-23 09:51:58.82	132.99	65.20	-39.0	-40.9	15.2	0.00e+00	0	61	0	956301312	49	4517
2026-01-23 09:51:59.82	132.48	65.59	-39.1	-41.0	15.2	0.00e+00	0	61	0	959447040	49	4554
2026-01-23 09:52:00.83	131.93	65.99	-39.0	-40.8	15.3	0.00e+00	0	61	0	962592768	49	4479
2026-01-23 09:52:01.84	131.37	66.38	-39.0	-40.9	15.2	0.00e+00	0	61	0	965738496	49	4496
2026-01-23 09:52:02.85	130.78	66.78	-39.2	-41.1	15.0	0.00e+00	0	61	0	968884224	49	4616
2026-01-23 09:52:03.86	130.18	67.18	-39.2	-41.1	15.0	7.00e-07	0	61	0	972029952	49	4638
2026-01-23 09:52:04.87	129.55	67.57	-39.4	-41.4	14.8	0.00e+00	0	61	0	975175680	49	4768
2026-01-23 09:52:05.88	128.89	67.97	-39.3	-41.3	14.8	0.00e+00	0	61	0	978321408	49	4752
2026-01-23 09:52:06.89	128.21	68.36	-39.2	-41.1	15.0	0.00e+00	0	61	0	981467136	49	4635
2026-01-23 09:52:07.90	127.50	68.75	-39.0	-40.8	15.3	0.00e+00	0	61	0	984612864	49	4492
2026-01-23 09:52:08.91	126.76	69.14	-38.7	-40.5	15.6	0.00e+00	0	61	0	987758592	49	4322
2026-01-23 09:52:09.92	125.99	69.53	-38.6	-40.3	15.8	0.00e+00	0	61	0	990904320	49	4212
2026-01-23 09:52:10.93	125.19	69.92	-38.6	-40.3	15.9	0.00e+00	0	61	0	994050048	49	4206
2026-01-23 09:52:11.94	124.36	70.31	-38.7	-40.5	15.6	0.00e+00	0	61	0	997195776	49	4300
2026-01-23 09:52:12.95	123.49	70.69	-38.7	-40.5	15.6	0.00e+00	0	61	0	1000341504	49	4313
2026-01-23 09:52:13.96	122.58	71.07	-38.5	-40.2	15.8	0.00e+00	0	61	0	1003487232	49	4190
2026-01-23 09:52:14.97	121.63	71.44	-38.7	-40.5	15.6	0.00e+00	0	61	0	1006632960	49	4318
2026-01-23 09:52:15.98	120.64	71.82	-38.8	-40.6	15.5	0.00e+00	0	61	0	1009778688	49	4362
2026-01-23 09:52:16.99	119.61	72.18	-38.8	-40.6	15.3	0.00e+00	0	61	0	1012924416	49	4379
2026-01-23 09:52:17.99	118.54	72.55	-38.7	-40.4	15.5	0.00e+00	0	61	0	1016070144	49	4277
2026-01-23 09:52:19.00	117.42	72.90	-38.4	-40.1	15.9	0.00e+00	0	61	0	1019215872	48	4385
2026-01-23 09:52:20.01	116.24	73.26	-38.4	-40.1	16.0	0.00e+00	0	61	0	1023410176	48	4356
2026-01-23 09:52:21.02	115.01	73.60	-38.5	-40.2	15.8	0.00e+00	0	61	0	1026555904	48	4427
2026-01-23 09:52:22.03	113.73	73.95	-38.7	-40.5	15.5	0.00e+00	0	61	0	1028653056	48	4584
2026-01-23 09:52:23.04	112.39	74.28	-38.6	-40.4	15.7	0.00e+00	0	61	0	1031798784	48	4497
2026-01-23 09:52:24.05	110.99	74.61	-38.7	-40.5	15.6	0.00e+00	0	61	0	1034944512	48	4571
2026-01-23 09:52:25.06	109.52	74.92	-38.9	-40.7	15.4	0.00e+00	0	61	0	1039138816	48	4672
2026-01-23 09:52:26.07	107.99	75.23	-39.0	-40.8	15.2	0.00e+00	0	61	0	1042284544	48	4744
2026-01-23 09:52:27.08	106.40	75.53	-39.2	-41.1	14.9	0.00e+00	0	61	0	1045430272	48	4914
2026-01-23 09:52:28.09	104.73	75.82	-39.1	-41.0	15.0	7.00e-07	0	61	0	1048576000	49	4583
2026-01-23 09:52:29.10	103.00	76.09	-39.2	-41.1	14.9	0.00e+00	0	61	0	1050673152	49	4632
2026-01-23 09:52:30.11	101.19	76.36	-39.4	-41.4	14.6	7.00e-07	0	61	0	1054867456	49	4794
2026-01-23 09:52:31.12	99.32	76.61	-39.4	-41.4	14.6	7.00e-07	0	61	0	1058013184	49	4796
2026-01-23 09:52:32.13	97.37	76.84	-39.1	-41.0	15.1	0.00e+00	0	61	0	1061158912	49	4583
2026-01-23 09:52:33.14	95.35	77.06	-38.9	-40.7	15.4	0.00e+00	0	61	0	1064304640	49	4421
2026-01-23 09:52:34.15	93.26	77.27	-38.9	-40.7	15.3	0.00e+00	0	61	0	1067450368	49	4430
2026-01-23 09:52:35.15	91.12	77.46	-38.9	-40.8	15.3	0.00e+00	0	61	0	1070596096	49	4445
2026-01-23 09:52:36.16	88.90	77.63	-38.9	-40.7	15.4	0.00e+00	0	61	0	1073741824	49	4427
2026-01-23 09:52:37.17	86.62	77.78	-38.6	-40.3	15.7	0.00e+00	0	61	0	1076887552	49	4227
2026-01-23 09:52:38.18	84.28	77.91	-38.7	-40.5	15.5	0.00e+00	0	61	0	1080033280	49	4329
2026-01-23 09:52:39.19	81.90	78.03	-39.1	-41.0	15.1	0.00e+00	0	61	0	1083179008	49	4576
2026-01-23 09:52:40.20	79.47	78.12	-39.2	-41.1	14.9	0.00e+00	0	61	0	1086324736	49	4635
2026-01-23 09:52:41.21	77.01	78.19	-38.8	-40.6	15.4	0.00e+00	0	61	0	1089470464	49	4384
2026-01-23 09:52:42.22	74.52	78.24	-38.7	-40.5	15.4	0.00e+00	0	61	0	1092616192	49	4303
2026-01-23 09:52:43.23	72.01	78.27	-38.8	-40.6	15.4	0.00e+00	0	61	0	1095761920	49	4375
2026-01-23 09:52:44.24	69.50	78.27	-39.1	-41.1	15.0	0.00e+00	0	61	0	1098907648	49	4600
2026-01-23 09:52:45.25	66.99	78.26	-39.3	-41.2	14.8	0.00e+00	0	61	0	1102053376	49	4688
2026-01-23 09:52:46.26	64.49	78.22	-39.6	-41.6	14.4	7.00e-07	0	61	0	1105199104	49	4920
2026-01-23 09:52:47.27	62.01	78.16	-39.0	-40.9	15.2	0.00e+00	0	61	0	1108344832	49	4510
2026-01-23 09:52:48.28	59.57	78.08	-38.8	-40.6	15.3	0.00e+00	0	61	0	1111490560	49	4350
2026-01-23 09:52:49.29	57.16	77.98	-39.4	-41.4	14.6	0.00e+00	0	61	0	1114636288	49	4792
2026-01-23 09:52:50.30	54.79	77.85	-39.6	-41.8	14.3	7.00e-07	0	61	0	1117782016	49	4987
2026-01-23 09:52:51.31	52.48	77.71	-39.6	-41.7	14.3	0.00e+00	0	61	0	1120927744	50	4693
2026-01-23 09:52:52.32	50.23	77.55	-39.1	-41.0	15.1	0.00e+00	0	61	0	1124073472	50	4293
2026-01-23 09:52:53.33	48.04	77.37	-39.1	-40.9	15.2	0.00e+00	0	61	0	1127219200	50	4282
2026-01-23 09:52:54.34	45.92	77.18	-39.2	-41.1	15.0	0.00e+00	0	61	0	1130364928	50	4378
2026-01-23 09:52:55.36	43.84	76.96	-38.9	-40.8	15.2	0.00e+00	0	61	0	1133510656	49	4484
2026-01-23 09:52:56.37	41.86	76.73	-39.2	-41.1	14.9	0.00e+00	0	61	0	1136656384	49	4617
2026-01-23 09:52:57.38	39.94	76.49	-39.5	-41.6	14.3	7.00e-07	0	61	0	1139802112	49	4877
2026-01-23 09:52:58.38	38.12	76.24	-39.4	-41.4	14.6	1.50e-06	0	61	0	1142947840	49	4772
2026-01-23 09:52:59.39	36.35	75.97	-39.1	-41.0	15.0	0.00e+00	0	62	0	1146093568	49	4552
2026-01-23 09:53:00.40	34.65	75.68	-39.2	-41.2	14.9	0.00e+00	0	61	0	1149239296	49	4676
2026-01-23 09:53:01.41	33.02	75.39	-39.4	-41.4	14.7	0.00e+00	0	61	0	1152385024	49	4764
2026-01-23 09:53:02.42	31.46	75.09	-39.3	-41.3	14.8	0.00e+00	0	61	0	1155530752	49	4735
2026-01-23 09:53:03.43	29.96	74.78	-38.7	-40.4	15.7	0.00e+00	0	61	0	1158676480	49	4278
2026-01-23 09:53:04.44	28.52	74.46	-38.2	-39.8	16.2	0.00e+00	0	61	0	1161822208	48	4236
2026-01-23 09:53:05.45	27.15	74.13	-38.2	-39.9	16.0	0.00e+00	0	61	0	1164967936	48	4247
2026-01-23 09:53:06.46	25.84	73.79	-38.2	-39.8	16.2	0.00e+00	0	61	0	1168113664	48	4203
2026-01-23 09:53:07.46	24.59	73.45	-38.4	-40.1	16.0	0.00e+00	0	61	0	1171259392	48	4341
2026-01-23 09:53:08.47	23.39	73.10	-39.1	-40.9	15.1	0.00e+00	0	61	0	1174405120	48	4806
2026-01-23 09:53:09.48	22.24	72.75	-39.1	-41.0	15.0	0.00e+00	0	61	0	1177550848	48	4815
2026-01-23 09:53:10.49	21.14	72.38	-38.9	-40.7	15.3	0.00e+00	0	61	0	1180696576	48	4659
2026-01-23 09:53:11.50	20.08	72.02	-38.9	-40.7	15.4	0.00e+00	0	61	0	1183842304	48	4661
2026-01-23 09:53:12.51	19.07	71.65	-39.2	-41.1	15.0	0.00e+00	0	62	0	1186988032	48	4908
2026-01-23 09:53:13.52	18.10	71.28	-39.1	-41.0	15.2	0.00e+00	0	61	0	1190133760	49	4553
2026-01-23 09:53:14.53	17.18	70.90	-38.9	-40.7	15.4	0.00e+00	0	61	0	1193279488	49	4421
2026-01-23 09:53:15.54	16.29	70.52	-38.8	-40.6	15.4	0.00e+00	0	61	0	1196425216	49	4388
2026-01-23 09:53:16.55	15.44	70.14	-38.4	-40.1	15.7	0.00e+00	0	61	0	1199570944	48	4386
2026-01-23 09:53:17.56	14.62	69.75	-38.1	-39.8	16.1	0.00e+00	0	62	0	1202716672	48	4211
2026-01-23 09:53:18.57	13.83	69.36	-38.3	-39.9	16.1	0.00e+00	0	61	0	1205862400	48	4289
2026-01-23 09:53:19.58	13.08	68.97	-39.0	-40.8	15.3	0.00e+00	0	61	0	1209008128	48	4735
2026-01-23 09:53:20.59	12.36	68.58	-39.5	-41.5	14.6	0.00e+00	0	61	0	1212153856	49	4843
2026-01-23 09:53:21.60	11.66	68.19	-39.6	-41.6	14.5	0.00e+00	0	62	0	1215299584	49	4899
2026-01-23 09:53:22.61	10.99	67.80	-39.2	-41.1	14.9	0.00e+00	0	62	0	1218445312	49	4650
2026-01-23 09:53:23.62	10.35	67.40	-39.1	-40.9	15.1	0.00e+00	0	61	0	1221591040	49	4516
2026-01-23 09:53:24.63	9.73	67.01	-39.0	-40.8	15.2	7.00e-07	0	61	0	1224736768	49	4488
2026-01-23 09:53:25.63	9.14	66.62	-39.2	-41.0	15.1	0.00e+00	0	61	0	1227882496	49	4594
2026-01-23 09:53:26.64	8.56	66.22	-39.6	-41.6	14.6	0.00e+00	0	61	0	1231028224	49	4895
2026-01-23 09:53:27.65	8.01	65.82	-40.0	-42.2	14.0	3.00e-06	0	61	0	1234173952	50	4958
2026-01-23 09:53:28.66	7.48	65.43	-40.2	-42.5	13.6	9.90e-06	0	61	0	1237319680	50	5120
2026-01-23 09:53:29.67	6.96	65.03	-39.9	-42.0	14.1	3.80e-06	0	61	0	1240465408	50	4848
2026-01-23 09:53:30.68	6.46	64.64	-39.3	-41.2	14.9	1.50e-06	0	61	0	1243611136	50	4440
2026-01-23 09:53:31.69	5.99	64.24	-39.0	-40.9	15.3	0.00e+00	0	61	0	1246756864	49	4507
2026-01-23 09:53:32.70	5.52	63.85	-39.2	-41.0	15.1	0.00e+00	0	61	0	1249902592	49	4584
2026-01-23 09:53:33.71	5.07	63.45	-39.4	-41.3	14.9	0.00e+00	0	61	0	1253048320	49	4726
2026-01-23 09:53:34.72	4.64	63.06	-40.0	-42.2	14.0	1.52e-05	0	62	0	1256194048	50	4948
2026-01-23 09:53:35.73	4.22	62.67	-40.3	-42.8	13.4	1.75e-05	0	61	0	1259339776	51	4997
2026-01-23 09:53:36.74	3.82	62.28	-40.4	-42.9	13.3	1.52e-05	0	61	0	1262485504	51	5053
2026-01-23 09:53:37.75	3.42	61.89	-40.1	-42.3	13.8	6.80e-06	0	61	0	1265631232	51	4729
2026-01-23 09:53:38.76	3.04	61.50	-39.4	-41.4	14.8	7.00e-07	0	61	0	1268776960	50	4508
2026-01-23 09:53:39.78	2.67	61.10	-39.2	-41.1	15.1	0.00e+00	0	61	0	1271922688	50	4365
2026-01-23 09:53:40.79	2.31	60.72	-39.8	-41.9	14.3	0.00e+00	0	61	0	1275068416	50	4801
2026-01-23 09:53:41.80	1.97	60.33	-40.2	-42.5	13.7	4.50e-06	0	61	0	1278214144	51	4857
2026-01-23 09:53:42.80	1.64	59.95	-40.2	-42.6	13.5	1.14e-05	0	61	0	1281359872	51	4906
2026-01-23 09:53:43.81	1.31	59.57	-40.3	-42.7	13.3	4.04e-05	0	61	0	1284505600	51	4959
2026-01-23 09:53:44.82	0.99	59.19	-40.2	-42.5	13.4	1.98e-05	0	61	0	1287651328	51	4863
2026-01-23 09:53:45.83	0.69	58.81	-40.0	-42.3	13.4	9.68e-05	0	61	0	1290797056	50	5016
2026-01-23 09:53:46.84	0.39	58.43	-39.6	-42.0	13.9	6.10e-06	0	62	0	1293942784	50	4833
2026-01-23 09:53:47.85	0.10	58.06	-39.4	-41.4	14.6	3.80e-06	0	61	0	1297088512	50	4534
2026-01-23 09:53:48.86	359.82	57.68	-39.5	-41.4	14.7	0.00e+00	0	62	0	1300234240	50	4545
2026-01-23 09:53:49.87	359.54	57.31	-39.8	-41.8	14.3	2.20e-06	0	61	0	1303379968	50	4752
2026-01-23 09:53:50.88	359.28	56.94	-40.5	-42.9	13.3	1.14e-05	0	62	0	1306525696	51	5087
2026-01-23 09:53:51.89	359.02	56.57	-41.0	-43.7	12.4	9.07e-05	0	61	0	1309671424	52	5267
2026-01-23 09:53:52.90	358.76	56.20	-40.9	-43.6	12.4	1.86e-04	0	61	0	1312817152	52	5185
2026-01-23 09:53:53.91	358.52	55.84	-40.4	-42.8	13.0	6.40e-05	0	61	0	1315962880	52	4755
2026-01-23 09:53:54.93	358.28	55.47	-40.2	-42.5	13.5	1.22e-05	0	62	0	1319108608	51	4845
2026-01-23 09:53:55.94	358.04	55.11	-40.2	-42.4	13.7	6.80e-06	0	62	0	1322254336	51	4779
2026-01-23 09:53:56.95	357.82	54.75	-40.1	-42.3	13.9	4.50e-06	0	61	0	1325400064	51	4753
2026-01-23 09:53:57.96	357.60	54.39	-39.7	-41.7	14.5	7.00e-07	0	61	0	1328545792	51	4429
2026-01-23 09:53:58.97	357.38	54.04	-39.8	-41.9	14.3	1.67e-05	0	61	0	1331691520	51	4519
2026-01-23 09:53:59.98	357.17	53.69	-40.3	-42.6	13.6	1.37e-05	0	61	0	1334837248	51	4896
2026-01-23 09:54:00.99	356.96	53.34	-40.8	-43.4	12.8	5.11e-05	0	62	0	1337982976	52	5066
2026-01-23 09:54:02.00	356.76	52.99	-41.3	-44.2	11.9	2.56e-04	0	61	0	1341128704	53	5262
2026-01-23 09:54:03.01	356.57	52.64	-41.6	-44.6	11.3	9.95e-04	0	61	0	1344274432	53	5525
2026-01-23 09:54:04.02	356.38	52.29	-41.3	-44.2	11.6	7.59e-04	0	62	0	1347420160	53	5264
2026-01-23 09:54:05.03	356.19	51.95	-41.0	-43.7	12.2	3.73e-04	0	61	0	1350565888	53	4961
2026-01-23 09:54:06.04	356.01	51.61	-40.7	-43.3	12.7	1.14e-04	0	62	0	1353711616	53	4741
2026-01-23 09:54:07.05	355.83	51.27	-40.7	-43.3	12.8	6.02e-05	0	62	0	1356857344	53	4721
2026-01-23 09:54:08.06	355.66	50.94	-40.6	-43.1	12.9	5.03e-05	0	62	0	1361051648	52	4895
2026-01-23 09:54:09.07	355.49	50.60	-40.7	-43.2	12.8	3.73e-05	0	61	0	1364197376	52	4965
2026-01-23 09:54:10.08	355.32	50.27	-41.1	-43.8	12.3	1.80e-04	0	62	0	1366294528	52	5297
2026-01-23 09:54:11.09	355.16	49.94	-41.1	-43.9	12.2	1.98e-04	0	62	0	1369440256	52	5348
2026-01-23 09:54:12.10	355.00	49.61	-41.3	-44.1	12.0	2.91e-04	0	62	0	1372585984	53	5177
2026-01-23 09:54:13.11	354.84	49.29	-41.5	-44.5	11.5	5.59e-04	0	62	0	1376780288	53	5453
2026-01-23 09:54:14.12	354.69	48.96	-41.9	-45.2	10.9	1.66e-03	0	61	0	1379926016	54	5542
2026-01-23 09:54:15.13	354.54	48.64	-42.1	-45.6	10.4	4.02e-03	0	61	0	1383071744	54	5834
2026-01-23 09:54:16.14	354.39	48.32	-42.2	-45.8	10.2	6.60e-03	0	62	0	1386217472	55	5641
2026-01-23 09:54:17.15	354.25	48.01	-42.0	-45.3	10.7	3.80e-03	0	62	0	1389363200	55	5321
2026-01-23 09:54:18.16	354.11	47.69	-41.5	-44.5	11.5	9.70e-04	0	62	0	1392508928	54	5109
2026-01-23 09:54:19.17	353.97	47.38	-41.3	-44.1	11.9	4.17e-04	0	62	0	1395654656	54	4903
2026-01-23 09:54:20.18	353.84	47.07	-41.3	-44.2	11.8	4.02e-04	0	61	0	1398800384	54	4953
2026-01-23 09:54:21.19	353.71	46.76	-41.5	-44.5	11.5	5.90e-04	0	62	0	1401946112	54	5130
2026-01-23 09:54:22.20	353.58	46.45	-41.7	-44.9	11.2	1.17e-03	0	61	0	1405091840	54	5362
2026-01-23 09:54:23.21	353.45	46.15	-41.9	-45.3	10.8	2.70e-03	0	62	0	1408237568	54	5621
2026-01-23 09:54:24.22	353.33	45.85	-42.2	-45.8	10.2	5.16e-03	0	62	0	1411383296	54	5953
2026-01-23 09:54:25.23	353.21	45.55	-42.1	-45.5	10.5	3.90e-03	0	62	0	1414529024	54	5757
2026-01-23 09:54:26.24	353.09	45.25	-41.8	-45.1	11.0	2.73e-03	0	62	0	1417674752	54	5467
2026-01-23 09:54:27.25	352.97	44.95	-41.8	-44.9	11.2	1.45e-03	0	62	0	1420820480	54	5378
2026-01-23 09:54:28.26	352.86	44.66	-41.7	-44.9	11.2	1.50e-03	0	62	0	1423966208	54	5354
2026-01-23 09:54:29.26	352.75	44.37	-42.0	-45.3	10.7	2.49e-03	0	61	0	1427111936	54	5633
2026-01-23 09:54:30.28	352.63	44.08	-42.2	-45.8	10.3	4.45e-03	0	62	0	1430257664	54	5924
2026-01-23 09:54:31.29	352.53	43.79	-42.4	-46.1	9.9	7.97e-03	0	62	0	1433403392	55	5817
2026-01-23 09:54:32.30	352.42	43.50	-42.5	-46.5	9.4	1.15e-02	0	62	0	1436549120	55	6082
2026-01-23 09:54:33.31	352.32	43.22	-42.9	-47.0	9.0	2.58e-02	0	62	0	1439694848	56	6128
2026-01-23 09:54:34.31	352.21	42.94	-42.8	-46.8	9.2	2.23e-02	0	61	0	1442840576	56	5992
2026-01-23 09:54:35.32	352.11	42.66	-42.5	-46.2	9.9	1.17e-02	0	62	0	1445986304	56	5552
2026-01-23 09:54:36.33	352.01	42.38	-42.3	-45.7	10.3	5.64e-03	0	61	0	1449132032	56	5271
2026-01-23 09:54:37.34	351.92	42.11	-42.1	-45.5	10.7	3.05e-03	0	62	0	1452277760	56	5105
2026-01-23 09:54:38.35	351.82	41.83	-41.4	-44.3	11.8	6.35e-04	0	62	0	1455423488	54	4986
2026-01-23 09:54:39.36	351.73	41.56	-41.1	-43.8	12.2	2.49e-04	0	62	0	1458569216	54	4732
2026-01-23 09:54:40.37	351.64	41.29	-41.1	-43.7	12.3	1.73e-04	0	61	0	1461714944	54	4703
2026-01-23 09:54:41.38	351.54	41.02	-41.0	-43.7	12.3	1.83e-04	0	62	0	1464860672	54	4704
2026-01-23 09:54:42.39	351.46	40.76	-41.3	-44.1	11.9	3.13e-04	0	62	0	1468006400	54	4908
2026-01-23 09:54:43.40	351.37	40.49	-41.4	-44.4	11.6	6.33e-04	0	62	0	1471152128	54	5077
2026-01-23 09:54:44.41	351.28	40.23	-41.5	-44.5	11.5	6.89e-04	0	62	0	1474297856	54	5110
2026-01-23 09:54:45.42	351.20	39.97	-41.5	-44.4	11.6	7.75e-04	0	62	0	1477443584	54	5093
2026-01-23 09:54:46.42	351.12	39.71	-41.4	-44.4	11.7	7.24e-04	0	62	0	1480589312	54	5042
2026-01-23 09:54:47.43	351.03	39.45	-41.4	-44.4	11.6	5.46e-04	0	62	0	1483735040	54	5072
2026-01-23 09:54:48.44	350.95	39.20	-41.5	-44.5	11.6	6.61e-04	0	62	0	1486880768	54	5111
2026-01-23 09:54:49.45	350.87	38.95	-41.6	-44.8	11.3	1.21e-03	0	62	0	1490026496	54	5281
2026-01-23 09:54:50.46	350.80	38.69	-41.7	-44.8	11.2	1.42e-03	0	61	0	1493172224	54	5331
2026-01-23 09:54:51.47	350.72	38.44	-41.7	-44.8	11.2	1.33e-03	0	62	0	1496317952	54	5314
2026-01-23 09:54:52.48	350.64	38.20	-41.7	-44.8	11.2	1.33e-03	0	62	0	1499463680	54	5310
2026-01-23 09:54:53.49	350.57	37.95	-41.5	-44.5	11.5	8.71e-04	0	62	0	1502609408	54	5125
2026-01-23 09:54:54.50	350.50	37.71	-41.4	-44.4	11.7	6.32e-04	0	62	0	1505755136	54	5081
2026-01-23 09:54:55.51	350.42	37.46	-41.4	-44.3	11.7	6.28e-04	0	61	0	1508900864	54	5008
2026-01-23 09:54:56.52	350.35	37.22	-41.2	-44.1	11.9	4.26e-04	0	62	0	1512046592	54	4903
2026-01-23 09:54:57.53	350.28	36.98	-41.1	-43.8	12.2	2.48e-04	0	62	0	1515192320	54	4746
2026-01-23 09:54:58.54	350.21	36.75	-40.8	-43.4	12.6	1.20e-04	0	62	0	1518338048	53	4788
2026-01-23 09:54:59.55	350.15	36.51	-40.7	-43.3	12.6	8.39e-05	0	62	0	1521483776	53	4739
2026-01-23 09:55:00.56	350.08	36.28	-40.6	-43.2	12.8	7.24e-05	0	62	0	1524629504	53	4676
2026-01-23 09:55:01.57	350.01	36.04	-40.6	-43.1	12.8	5.79e-05	0	62	0	1527775232	53	4632
2026-01-23 09:55:02.58	349.95	35.81	-40.6	-43.1	12.8	6.17e-05	0	62	0	1530920960	53	4648
2026-01-23 09:55:03.59	349.89	35.58	-40.7	-43.2	12.7	6.10e-05	0	62	0	1534066688	53	4688
2026-01-23 09:55:04.60	349.82	35.35	-40.7	-43.2	12.8	6.79e-05	0	62	0	1537212416	53	4674
2026-01-23 09:55:05.61	349.76	35.13	-40.6	-43.1	12.9	5.79e-05	0	61	0	1540358144	53	4623
2026-01-23 09:55:06.62	349.70	34.90	-40.6	-43.1	12.9	5.03e-05	0	62	0	1543503872	53	4635
2026-01-23 09:55:07.63	349.64	34.68	-40.6	-43.1	12.9	6.10e-05	0	62	0	1546649600	53	4633
2026-01-23 09:55:08.64	349.58	34.46	-40.5	-43.0	13.0	3.96e-05	0	62	0	1549795328	53	4563
2026-01-23 09:55:09.65	349.52	34.24	-40.5	-42.9	13.1	2.74e-05	0	62	0	1552941056	52	4779
2026-01-23 09:55:10.66	349.47	34.02	-40.4	-42.8	13.2	2.21e-05	0	62	0	1556086784	52	4731
2026-01-23 09:55:11.67	349.41	33.80	-40.4	-42.8	13.2	2.36e-05	0	62	0	1559232512	52	4717
2026-01-23 09:55:12.68	349.35	33.59	-40.3	-42.6	13.4	1.60e-05	0	62	0	1562378240	52	4619
2026-01-23 09:55:13.69	349.30	33.37	-40.1	-42.4	13.5	1.29e-05	0	62	0	1565523968	52	4538
2026-01-23 09:55:14.70	349.24	33.16	-40.1	-42.3	13.6	1.14e-05	0	62	0	1568669696	52	4478
2026-01-23 09:55:15.72	349.19	32.95	-40.1	-42.4	13.6	9.10e-06	0	62	0	1571815424	52	4502
2026-01-23 09:55:16.73	349.14	32.74	-40.2	-42.5	13.4	1.37e-05	0	62	0	1574961152	52	4571
2026-01-23 09:55:17.74	349.08	32.53	-40.2	-42.6	13.4	1.22e-05	0	62	0	1578106880	52	4600
2026-01-23 09:55:18.75	349.03	32.32	-40.2	-42.6	13.4	1.90e-05	0	62	0	1581252608	52	4609
2026-01-23 09:55:19.76	348.98	32.12	-40.3	-42.8	13.2	1.98e-05	0	62	0	1584398336	52	4713
2026-01-23 09:55:20.77	348.93	31.91	-40.2	-42.6	13.3	1.75e-05	0	62	0	1587544064	52	4644
2026-01-23 09:55:21.78	348.88	31.71	-40.4	-42.8	13.1	2.89e-05	0	62	0	1590689792	52	4752
2026-01-23 09:55:22.79	348.83	31.51	-40.3	-42.7	13.2	2.67e-05	0	62	0	1593835520	52	4698
2026-01-23 09:55:23.80	348.79	31.31	-40.3	-42.7	13.3	2.21e-05	0	62	0	1596981248	52	4666
2026-01-23 09:55:24.81	348.74	31.11	-40.2	-42.6	13.3	1.67e-05	0	62	0	1600126976	52	4624
2026-01-23 09:55:25.82	348.69	30.91	-40.2	-42.5	13.4	7.60e-06	0	61	0	1603272704	52	4572
2026-01-23 09:55:26.83	348.64	30.72	-40.1	-42.5	13.5	5.30e-06	0	61	0	1606418432	52	4547
2026-01-23 09:55:27.84	348.60	30.52	-40.0	-42.3	13.6	7.60e-06	0	61	0	1609564160	52	4454
2026-01-23 09:55:28.85	348.55	30.33	-40.0	-42.3	13.7	9.10e-06	0	62	0	1612709888	51	4723
2026-01-23 09:55:29.86	348.51	30.14	-40.1	-42.3	13.6	9.90e-06	0	61	0	1615855616	51	4755
2026-01-23 09:55:30.87	348.47	29.95	-40.0	-42.3	13.6	8.30e-06	0	62	0	1619001344	51	4744
2026-01-23 09:55:31.88	348.42	29.76	-40.0	-42.3	13.6	4.50e-06	0	62	0	1622147072	51	4742
2026-01-23 09:55:32.89	348.38	29.57	-40.0	-42.3	13.7	6.80e-06	0	61	0	1625292800	51	4713
2026-01-23 09:55:33.90	348.34	29.38	-40.0	-42.3	13.6	6.80e-06	0	62	0	1628438528	51	4717
2026-01-23 09:55:34.91	348.30	29.20	-40.1	-42.4	13.5	1.06e-05	0	62	0	1631584256	51	4801
2026-01-23 09:55:35.92	348.25	29.01	-40.1	-42.4	13.5	9.90e-06	0	62	0	1634729984	51	4804
2026-01-23 09:55:36.93	348.21	28.83	-40.1	-42.4	13.5	6.10e-06	0	62	0	1637875712	51	4773
2026-01-23 09:55:37.94	348.17	28.65	-40.0	-42.3	13.6	9.90e-06	0	62	0	1641021440	51	4741
2026-01-23 09:55:38.95	348.13	28.46	-40.0	-42.3	13.5	1.29e-05	0	61	0	1644167168	51	4755
2026-01-23 09:55:39.96	348.09	28.28	-40.0	-42.3	13.5	1.29e-05	0	62	0	1647312896	51	4738
2026-01-23 09:55:40.97	348.06	28.11	-40.0	-42.3	13.5	9.90e-06	0	62	0	1650458624	51	4720
2026-01-23 09:55:41.98	348.02	27.93	-40.0	-42.3	13.5	7.60e-06	0	62	0	1653604352	51	4720
2026-01-23 09:55:42.99	347.98	27.75	-39.9	-42.2	13.6	3.80e-06	0	62	0	1656750080	51	4688
2026-01-23 09:55:44.00	347.94	27.58	-39.9	-42.1	13.6	1.22e-05	0	62	0	1659895808	51	4645
2026-01-23 09:55:45.01	347.91	27.40	-39.9	-42.1	13.7	8.30e-06	0	62	0	1663041536	51	4628
2026-01-23 09:55:46.02	347.87	27.23	-39.9	-42.2	13.6	4.50e-06	0	62	0	1666187264	51	4656
2026-01-23 09:55:47.03	347.83	27.06	-39.9	-42.2	13.5	6.10e-06	0	62	0	1669332992	51	4661
2026-01-23 09:55:48.04	347.80	26.89	-39.7	-42.0	13.7	7.60e-06	0	62	0	1672478720	51	4549
2026-01-23 09:55:49.04	347.76	26.72	-39.7	-41.9	13.8	9.10e-06	0	62	0	1675624448	51	4505
2026-01-23 09:55:50.05	347.73	26.55	-39.6	-41.9	13.8	3.00e-06	0	61	0	1678770176	51	4506
2026-01-23 09:55:51.06	347.69	26.38	-39.7	-41.9	13.7	6.10e-06	0	61	0	1681915904	51	4523
2026-01-23 09:55:52.07	347.66	26.21	-39.5	-41.7	13.9	6.80e-06	0	62	0	1685061632	51	4435
2026-01-23 09:55:53.08	347.63	26.05	-39.6	-41.8	13.8	2.20e-06	0	62	0	1688207360	51	4460
2026-01-23 09:55:54.09	347.59	25.88	-39.7	-41.9	13.7	6.80e-06	0	62	0	1691353088	51	4525
2026-01-23 09:55:55.10	347.56	25.72	-39.5	-41.8	13.8	4.50e-06	0	62	0	1694498816	51	4451
2026-01-23 09:55:56.11	347.53	25.55	-39.5	-41.7	13.7	8.30e-06	0	62	0	1698693120	51	4439
2026-01-23 09:55:57.12	347.50	25.39	-39.5	-41.8	13.7	2.20e-06	0	62	0	1701838848	50	4725
2026-01-23 09:55:58.13	347.46	25.23	-39.6	-41.8	13.6	7.60e-06	0	62	0	1704984576	50	4758
2026-01-23 09:55:59.14	347.43	25.07	-39.5	-41.7	13.7	6.10e-06	0	62	0	1707081728	50	4705
2026-01-23 09:56:00.15	347.40	24.91	-39.5	-41.8	13.6	5.30e-06	0	62	0	1710227456	50	4722
2026-01-23 09:56:01.16	347.37	24.75	-39.4	-41.7	13.7	5.30e-06	0	62	0	1713373184	50	4661
2026-01-23 09:56:02.17	347.34	24.60	-39.5	-41.8	13.6	6.80e-06	0	61	0	1717567488	50	4721
2026-01-23 09:56:03.18	347.31	24.44	-39.4	-41.7	13.7	7.60e-06	0	62	0	1720713216	50	4655
2026-01-23 09:56:04.19	347.28	24.29	-39.5	-41.8	13.5	9.10e-06	0	62	0	1723858944	50	4732
2026-01-23 09:56:05.20	347.25	24.13	-39.4	-41.7	13.6	5.30e-06	0	61	0	1727004672	50	4678
2026-01-23 09:56:06.20	347.22	23.98	-39.5	-41.8	13.5	7.60e-06	0	62	0	1729101824	50	4721
2026-01-23 09:56:07.21	347.19	23.83	-39.5	-41.9	13.3	1.29e-05	0	62	0	1733296128	50	4789
2026-01-23 09:56:08.22	347.17	23.68	-39.3	-41.6	13.5	8.30e-06	0	62	0	1736441856	50	4624
2026-01-23 09:56:09.23	347.14	23.52	-39.3	-41.6	13.4	9.10e-06	0	62	0	1739587584	50	4613
2026-01-23 09:56:10.24	347.11	23.37	-39.5	-41.9	12.9	3.89e-05	0	62	0	1742733312	50	4807
2026-01-23 09:56:11.25	347.08	23.23	-39.4	-41.9	12.9	5.56e-05	0	62	0	1745879040	50	4782
2026-01-23 09:56:12.26	347.06	23.08	-39.1	-41.5	13.3	2.59e-05	0	62	0	1749024768	50	4546
2026-01-23 09:56:13.27	347.03	22.93	-39.1	-41.4	13.3	1.83e-05	0	62	0	1752170496	50	4542
2026-01-23 09:56:14.28	347.00	22.78	-39.2	-41.6	13.0	3.58e-05	0	62	0	1755316224	50	4633
2026-01-23 09:56:15.29	346.98	22.64	-39.2	-41.7	12.8	5.34e-05	0	62	0	1758461952	50	4674
2026-01-23 09:56:16.30	346.95	22.49	-39.0	-41.5	12.9	4.73e-05	0	62	0	1761607680	50	4563
2026-01-23 09:56:17.31	346.92	22.35	-38.9	-41.4	12.8	5.64e-05	0	62	0	1764753408	49	4786
2026-01-23 09:56:18.32	346.90	22.20	-38.8	-41.3	12.8	5.64e-05	0	62	0	1767899136	49	4743
2026-01-23 09:56:19.33	346.87	22.06	-38.9	-41.5	12.5	1.03e-04	0	62	0	1771044864	49	4821
2026-01-23 09:56:20.33	346.85	21.92	-39.2	-42.1	11.9	3.57e-04	0	62	0	1774190592	49	5168
2026-01-23 09:56:21.34	346.82	21.78	-39.5	-42.7	11.0	9.96e-04	0	62	0	1777336320	49	5558
2026-01-23 09:56:22.36	346.80	21.64	-39.9	-43.5	10.2	4.11e-03	0	62	0	1780482048	50	5749
2026-01-23 09:56:23.37	346.78	21.50	-40.3	-44.4	9.1	1.70e-02	0	62	0	1783627776	51	6041
2026-01-23 09:56:24.37	346.75	21.36	-40.6	-45.4	7.9	5.42e-02	0	62	0	1786773504	51	6800
2026-01-23 09:56:25.38	346.73	21.22	-40.9	-46.5	6.7	1.60e-01	0	62	0	1789919232	52	7223
2026-01-23 09:56:26.39	346.71	21.09	-41.1	-47.9	5.5	4.02e-01	0	62	0	1793064960	52	8482
2026-01-23 09:56:27.40	346.68	20.95	-41.3	-49.0	4.8	7.56e-01	0	62	0	1796210688	53	9160
2026-01-23 09:56:28.41	346.66	20.82	-41.3	-51.1	3.9	1.46e+00	0	62	104	1796210688	53	11556
2026-01-23 09:56:29.42	346.64	20.68	-41.4	-52.0	3.9	1.48e+00	0	62	104	1796210688	53	12881
2026-01-23 09:56:30.43	346.61	20.55	-41.5	-52.1	3.8	1.49e+00	0	62	104	1796210688	53	13002
2026-01-23 09:56:31.44	346.59	20.41	-41.4	-53.2	3.8	1.48e+00	0	62	104	1796210688	54	13928
2026-01-23 09:56:32.45	346.57	20.28	-41.3	-53.6	3.8	1.49e+00	0	62	104	1796210688	54	14583
2026-01-23 09:56:33.46	346.55	20.15	-41.7	-53.2	3.8	1.49e+00	0	62	104	1796210688	54	13925
2026-01-23 09:56:34.47	346.53	20.02	-41.5	-53.6	3.8	1.49e+00	0	61	104	1796210688	54	14635
2026-01-23 09:56:35.48	346.51	19.89	-41.5	-53.6	3.8	1.49e+00	0	62	104	1796210688	54	14663
2026-01-23 09:56:36.49	346.48	19.75	-41.4	-53.7	3.8	1.49e+00	0	62	104	1796210688	54	14726
2026-01-23 09:56:37.50	346.46	19.63	-41.4	-53.7	3.8	1.49e+00	0	62	104	1796210688	54	14816
2026-01-23 09:56:38.51	346.44	19.50	-41.3	-53.7	3.8	1.49e+00	0	62	104	1796210688	54	14740
2026-01-23 09:56:39.52	346.42	19.37	-41.2	-53.5	3.8	1.49e+00	0	62	104	1796210688	54	14492
2026-01-23 09:56:40.52	346.40	19.24	-41.0	-53.3	3.8	1.49e+00	0	62	104	1796210688	54	14111
2026-01-23 09:56:41.54	346.38	19.11	-41.2	-53.5	3.8	1.49e+00	0	62	104	1796210688	54	14486
2026-01-23 09:56:42.54	346.36	18.99	-41.1	-53.4	3.8	1.49e+00	0	62	104	1796210688	54	14277
2026-01-23 09:56:43.55	346.34	18.86	-41.0	-53.3	3.8	1.49e+00	0	62	104	1796210688	54	14186
2026-01-23 09:56:44.56	346.32	18.74	-41.1	-53.5	3.8	1.49e+00	0	62	104	1796210688	54	14391
2026-01-23 09:56:45.57	346.30	18.61	-41.0	-53.3	3.8	1.49e+00	0	62	104	1796210688	53	14971
2026-01-23 09:56:46.58	346.28	18.49	-41.2	-53.5	3.8	1.49e+00	0	62	104	1796210688	53	15362
2026-01-23 09:56:47.59	346.27	18.37	-41.0	-53.3	3.8	1.49e+00	0	62	104	1796210688	53	14944
2026-01-23 09:56:48.60	346.25	18.25	-40.9	-53.3	3.8	1.49e+00	0	62	104	1796210688	53	14884
2026-01-23 09:56:49.61	346.23	18.12	-41.1	-53.5	3.8	1.49e+00	0	62	104	1796210688	53	15258
2026-01-23 09:56:50.62	346.21	18.00	-41.4	-53.7	3.8	1.49e+00	0	62	104	1796210688	53	15598
2026-01-23 09:56:51.63	346.19	17.88	-41.0	-53.3	3.8	1.49e+00	0	62	104	1796210688	53	15048
2026-01-23 09:56:52.64	346.17	17.76	-41.0	-53.3	3.8	1.49e+00	0	62	104	1796210688	53	14957
2026-01-23 09:56:53.65	346.16	17.64	-41.3	-53.6	3.8	1.49e+00	0	62	104	1796210688	53	15452
2026-01-23 09:56:54.66	346.14	17.52	-41.3	-53.6	3.8	1.49e+00	0	62	104	1796210688	53	15489
2026-01-23 09:56:55.67	346.12	17.41	-41.2	-53.5	3.8	1.49e+00	0	62	104	1796210688	53	15260
2026-01-23 09:56:56.68	346.10	17.29	-41.0	-53.3	3.8	1.49e+00	0	62	104	1796210688	53	15045
2026-01-23 09:56:57.69	346.09	17.17	-41.4	-53.7	3.8	1.49e+00	0	62	104	1796210688	53	15675
2026-01-23 09:56:58.70	346.07	17.05	-41.1	-53.4	3.8	1.49e+00	0	62	104	1796210688	53	15179
2026-01-23 09:56:59.71	346.05	16.94	-41.3	-53.6	3.8	1.49e+00	0	62	104	1796210688	53	15419
2026-01-23 09:57:00.72	346.04	16.82	-41.1	-53.4	3.8	1.49e+00	0	62	104	1796210688	53	15081
2026-01-23 09:57:01.73	346.02	16.71	-41.4	-53.7	3.8	1.49e+00	0	62	104	1796210688	53	15582
2026-01-23 09:57:02.74	346.00	16.59	-41.1	-53.4	3.8	1.49e+00	0	62	104	1796210688	53	15133
2026-01-23 09:57:03.74	345.99	16.48	-41.3	-53.5	3.8	1.49e+00	0	62	104	1796210688	53	15380
2026-01-23 09:57:04.76	345.97	16.37	-40.9	-53.3	3.8	1.49e+00	0	62	104	1796210688	53	14892
2026-01-23 09:57:05.77	345.95	16.25	-41.3	-53.6	3.8	1.49e+00	0	62	104	1796210688	53	15417
2026-01-23 09:57:06.77	345.94	16.14	-41.1	-53.4	3.8	1.49e+00	0	62	104	1796210688	53	15217
2026-01-23 09:57:07.78	345.92	16.03	-41.2	-53.4	3.8	1.49e+00	0	62	104	1796210688	53	15187
2026-01-23 09:57:08.79	345.91	15.92	-40.9	-53.2	3.8	1.49e+00	0	62	104	1796210688	53	14775
