passes_logs/2026/01/23/R2.0S_Moscow/R2.0S_Moscow__20260123_012221_FENGYUN_3D_rec.log

#Pass ID: 20260123_012221_FENGYUN 3D
#Satellite: FENGYUN 3D
#Configuration: FENGYUN 3D
#almurnet v.1.7.20251203
#Start time: 2026-01-23 01:22:21

#Version: 2.2.20231116
#Station: R2.0S_Moscow
#Location: 37.707566 lon 55.798166 lat
#TLE: 1 43010U 17072A   26022.47411728  .00000617  00000+0  31375-3 0  9996
#TLE: 2 43010  98.9952 354.4060 0002481  95.7964 264.3494 14.19699924424319

#Time	Az	El	Level	Level2	SNR	BER	BlckErr	Temp	State	Recorded	gain1	gain2
2026-01-23 01:22:21.90	18.48	2.01	-42.1	-53.7	3.8	8.46e-01	0	51	0	0	56	13171
2026-01-23 01:22:22.91	18.50	2.08	-41.9	-53.5	3.8	8.46e-01	0	51	104	0	55	13693
2026-01-23 01:22:23.92	18.52	2.14	-41.9	-53.5	3.8	8.45e-01	0	52	104	0	55	13715
2026-01-23 01:22:24.93	18.54	2.20	-41.9	-53.5	3.8	8.46e-01	0	52	104	0	55	13671
2026-01-23 01:22:25.94	18.57	2.27	-41.9	-53.5	3.8	8.46e-01	0	52	104	0	55	13687
2026-01-23 01:22:26.95	18.59	2.33	-41.9	-53.5	3.8	8.45e-01	0	52	104	0	55	13655
2026-01-23 01:22:27.96	18.61	2.40	-41.9	-53.5	3.8	8.46e-01	0	52	104	0	55	13680
2026-01-23 01:22:28.97	18.63	2.46	-41.9	-53.5	3.8	8.46e-01	0	52	104	0	55	13668
2026-01-23 01:22:29.98	18.66	2.53	-41.9	-53.5	3.8	8.46e-01	0	52	104	0	55	13643
2026-01-23 01:22:30.99	18.68	2.59	-41.9	-53.5	3.8	8.45e-01	0	52	104	0	55	13677
2026-01-23 01:22:32.00	18.70	2.66	-41.9	-53.5	3.8	8.46e-01	0	52	104	0	55	13690
2026-01-23 01:22:33.01	18.72	2.72	-41.9	-53.5	3.8	8.46e-01	0	52	104	0	55	13616
2026-01-23 01:22:34.02	18.75	2.79	-41.9	-53.5	3.8	8.46e-01	0	53	104	0	55	13612
2026-01-23 01:22:35.03	18.77	2.85	-41.9	-53.5	3.8	8.47e-01	0	52	104	0	55	13654
2026-01-23 01:22:36.04	18.79	2.92	-41.9	-53.5	3.8	8.46e-01	0	52	104	0	55	13687
2026-01-23 01:22:37.05	18.81	2.98	-41.9	-53.5	3.8	8.46e-01	0	52	104	0	55	13671
2026-01-23 01:22:38.06	18.84	3.05	-41.9	-53.5	3.8	8.47e-01	0	53	104	0	55	13635
2026-01-23 01:22:39.07	18.86	3.12	-41.9	-53.5	3.8	8.46e-01	0	53	104	0	55	13627
2026-01-23 01:22:40.08	18.88	3.18	-41.9	-53.5	3.8	8.46e-01	0	53	104	0	55	13645
2026-01-23 01:22:41.09	18.91	3.25	-41.9	-53.5	3.8	8.46e-01	0	53	104	0	55	13666
2026-01-23 01:22:42.10	18.93	3.31	-41.9	-53.5	3.8	8.45e-01	0	53	104	0	55	13650
2026-01-23 01:22:43.11	18.95	3.38	-41.9	-53.5	3.8	8.47e-01	0	53	104	0	55	13696
2026-01-23 01:22:44.12	18.98	3.45	-41.9	-53.5	3.8	8.46e-01	0	53	104	0	55	13648
2026-01-23 01:22:45.13	19.00	3.52	-41.9	-53.5	3.8	8.46e-01	0	53	104	0	55	13692
2026-01-23 01:22:46.14	19.03	3.58	-41.9	-53.5	3.8	8.46e-01	0	53	104	0	55	13687
2026-01-23 01:22:47.15	19.05	3.65	-41.9	-53.5	3.8	8.46e-01	0	53	104	0	55	13667
2026-01-23 01:22:48.16	19.07	3.72	-41.9	-53.5	3.8	8.46e-01	0	53	104	0	55	13701
2026-01-23 01:22:49.17	19.10	3.79	-41.9	-53.5	3.8	8.46e-01	0	53	104	0	55	13664
2026-01-23 01:22:50.18	19.12	3.85	-41.9	-53.5	3.8	8.46e-01	0	53	104	0	55	13660
2026-01-23 01:22:51.19	19.15	3.92	-41.9	-53.5	3.8	8.46e-01	0	53	104	0	55	13634
2026-01-23 01:22:52.20	19.17	3.99	-41.9	-53.5	3.8	8.45e-01	0	54	104	0	55	13620
2026-01-23 01:22:53.21	19.19	4.06	-41.9	-53.5	3.8	8.46e-01	0	54	104	0	55	13658
2026-01-23 01:22:54.23	19.22	4.13	-41.9	-53.5	3.8	8.47e-01	0	54	104	0	55	13605
2026-01-23 01:22:55.24	19.24	4.20	-41.9	-53.5	3.8	8.46e-01	0	54	104	0	55	13688
2026-01-23 01:22:56.25	19.27	4.26	-41.9	-53.5	3.8	8.46e-01	0	54	104	0	55	13698
2026-01-23 01:22:57.26	19.29	4.33	-41.9	-53.5	3.8	8.46e-01	0	54	104	0	55	13597
2026-01-23 01:22:58.27	19.32	4.40	-41.9	-53.5	3.8	8.46e-01	0	54	104	0	55	13655
2026-01-23 01:22:59.28	19.34	4.47	-41.9	-53.5	3.8	8.46e-01	0	54	104	0	55	13579
2026-01-23 01:23:00.29	19.37	4.54	-41.9	-53.5	3.8	8.46e-01	0	54	104	0	55	13655
2026-01-23 01:23:01.30	19.39	4.61	-41.9	-53.5	3.8	8.47e-01	0	54	104	0	55	13631
2026-01-23 01:23:02.31	19.42	4.68	-41.9	-53.5	3.8	8.46e-01	0	54	104	0	55	13661
2026-01-23 01:23:03.32	19.44	4.75	-41.9	-53.5	3.8	8.45e-01	0	54	104	0	55	13638
2026-01-23 01:23:04.33	19.47	4.82	-41.9	-53.5	3.8	8.46e-01	0	54	104	0	55	13712
2026-01-23 01:23:05.33	19.49	4.89	-41.9	-53.5	3.8	8.46e-01	0	54	104	0	55	13620
2026-01-23 01:23:06.35	19.52	4.96	-41.9	-53.5	3.8	8.46e-01	0	54	104	0	55	13641
2026-01-23 01:23:07.36	19.54	5.03	-41.9	-53.5	3.8	8.46e-01	0	55	104	0	55	13602
2026-01-23 01:23:08.37	19.57	5.10	-41.9	-53.5	3.8	8.46e-01	0	54	104	0	55	13619
2026-01-23 01:23:09.38	19.60	5.18	-41.9	-53.5	3.8	8.46e-01	0	55	104	0	55	13665
2026-01-23 01:23:10.39	19.62	5.25	-41.9	-53.5	3.8	8.47e-01	0	55	104	0	55	13644
2026-01-23 01:23:11.40	19.65	5.32	-41.9	-53.5	3.8	8.45e-01	0	55	104	0	55	13629
2026-01-23 01:23:12.41	19.67	5.39	-41.9	-53.5	3.8	8.48e-01	0	55	104	0	55	13591
2026-01-23 01:23:13.42	19.70	5.46	-41.9	-53.5	3.8	8.46e-01	0	55	104	0	55	13596
2026-01-23 01:23:14.43	19.73	5.53	-41.9	-53.4	3.8	8.47e-01	0	55	104	0	55	13553
2026-01-23 01:23:15.44	19.75	5.61	-41.9	-53.5	3.8	8.46e-01	0	55	104	0	55	13619
2026-01-23 01:23:16.45	19.78	5.68	-41.9	-53.4	3.8	8.47e-01	0	55	104	0	55	13534
2026-01-23 01:23:17.46	19.81	5.75	-41.9	-53.5	3.8	8.45e-01	0	55	104	0	55	13616
2026-01-23 01:23:18.47	19.83	5.83	-41.9	-53.5	3.8	8.47e-01	0	55	104	0	55	13591
2026-01-23 01:23:19.48	19.86	5.90	-41.9	-53.5	3.8	8.45e-01	0	55	104	0	55	13580
2026-01-23 01:23:20.49	19.89	5.97	-41.9	-53.5	3.8	8.45e-01	0	55	104	0	55	13593
2026-01-23 01:23:21.50	19.92	6.05	-41.9	-53.5	3.8	8.45e-01	0	55	104	0	55	13595
2026-01-23 01:23:22.51	19.94	6.12	-41.9	-53.4	3.8	8.47e-01	0	55	104	0	55	13566
2026-01-23 01:23:23.52	19.97	6.19	-41.9	-53.5	3.8	8.47e-01	0	55	104	0	55	13598
2026-01-23 01:23:24.53	20.00	6.27	-41.9	-53.4	3.8	8.45e-01	0	55	104	0	55	13498
2026-01-23 01:23:25.54	20.03	6.34	-41.9	-53.4	3.8	8.46e-01	0	55	104	0	55	13550
2026-01-23 01:23:26.55	20.05	6.42	-41.9	-53.4	3.8	8.47e-01	0	55	104	0	55	13530
2026-01-23 01:23:27.56	20.08	6.49	-41.9	-53.4	3.8	8.47e-01	0	56	104	0	55	13453
2026-01-23 01:23:28.57	20.11	6.57	-41.9	-53.3	3.8	8.44e-01	0	55	104	0	55	13390
2026-01-23 01:23:29.58	20.14	6.64	-41.9	-53.3	3.8	8.46e-01	0	56	104	0	55	13408
2026-01-23 01:23:30.58	20.17	6.72	-41.9	-53.3	3.8	8.46e-01	0	56	104	0	55	13359
2026-01-23 01:23:31.59	20.19	6.79	-41.9	-53.3	3.8	8.46e-01	0	56	104	0	55	13279
2026-01-23 01:23:32.60	20.22	6.87	-41.9	-53.2	3.8	8.46e-01	0	56	104	0	55	13192
2026-01-23 01:23:33.61	20.25	6.94	-41.9	-53.1	3.8	8.46e-01	0	56	104	0	55	13077
2026-01-23 01:23:34.62	20.28	7.02	-41.9	-53.1	3.8	8.47e-01	0	56	104	0	55	13080
2026-01-23 01:23:35.63	20.31	7.10	-41.9	-53.1	3.8	8.46e-01	0	56	104	0	55	13063
2026-01-23 01:23:36.64	20.34	7.17	-41.9	-53.2	3.8	8.46e-01	0	56	104	0	55	13144
2026-01-23 01:23:37.66	20.37	7.25	-41.9	-53.1	3.8	8.47e-01	0	56	104	0	55	12989
2026-01-23 01:23:38.67	20.40	7.33	-41.9	-53.0	3.8	8.46e-01	0	56	104	0	55	12830
2026-01-23 01:23:39.68	20.43	7.41	-41.8	-52.7	3.8	8.46e-01	0	56	104	0	55	12467
2026-01-23 01:23:40.69	20.46	7.48	-41.8	-52.5	3.8	8.46e-01	0	56	104	0	55	12115
2026-01-23 01:23:41.70	20.49	7.56	-41.8	-52.1	3.8	8.46e-01	0	56	104	0	55	11602
2026-01-23 01:23:42.71	20.52	7.64	-41.7	-51.5	3.8	8.46e-01	0	56	104	0	55	10875
2026-01-23 01:23:43.72	20.55	7.72	-41.6	-50.8	4.0	8.44e-01	0	56	104	0	55	10039
2026-01-23 01:23:44.73	20.58	7.80	-41.5	-50.2	4.1	8.40e-01	0	56	0	0	55	9302
2026-01-23 01:23:45.74	20.61	7.88	-41.4	-49.6	4.3	8.36e-01	0	56	0	0	54	9191
2026-01-23 01:23:46.75	20.64	7.95	-41.3	-48.7	4.6	8.19e-01	0	56	0	0	54	8349
2026-01-23 01:23:47.76	20.67	8.03	-41.0	-47.6	5.2	7.78e-01	0	56	0	0	54	7367
2026-01-23 01:23:48.77	20.70	8.11	-40.5	-45.2	7.4	1.75e-01	0	57	0	2097152	53	5884
2026-01-23 01:23:49.78	20.73	8.19	-40.7	-45.0	8.2	4.19e-02	0	56	0	8388608	52	6072
2026-01-23 01:23:50.79	20.76	8.27	-41.0	-48.9	4.5	1.39e-02	0	56	0	13631488	52	9520
2026-01-23 01:23:51.80	20.79	8.35	-41.4	-48.8	4.7	8.17e-01	0	56	0	13631488	53	8888
2026-01-23 01:23:52.81	20.82	8.43	-39.7	-42.9	10.7	9.07e-02	0	56	0	15728640	49	5660
2026-01-23 01:23:53.82	20.85	8.52	-38.4	-40.8	12.6	5.25e-04	0	57	0	22020096	48	4753
2026-01-23 01:23:54.83	20.88	8.60	-38.3	-40.7	12.7	3.43e-05	0	56	0	27262976	48	4675
2026-01-23 01:23:55.83	20.92	8.68	-38.6	-41.1	12.4	7.55e-05	0	57	0	33554432	48	4882
2026-01-23 01:23:56.84	20.95	8.76	-38.9	-41.5	12.0	2.01e-04	0	57	0	38797312	48	5135
2026-01-23 01:23:57.85	20.98	8.84	-38.8	-41.5	12.0	2.30e-04	0	57	0	44040192	48	5103
2026-01-23 01:23:58.86	21.01	8.92	-38.8	-41.4	12.2	1.65e-04	0	57	0	50331648	48	5050
2026-01-23 01:23:59.87	21.04	9.01	-38.7	-41.1	12.5	1.11e-04	0	57	0	55574528	48	4908
2026-01-23 01:24:00.88	21.08	9.09	-38.6	-41.0	12.7	6.06e-05	0	57	0	61865984	48	4831
2026-01-23 01:24:01.89	21.11	9.17	-38.6	-41.0	12.7	5.83e-05	0	57	0	67108864	48	4849
2026-01-23 01:24:02.90	21.14	9.25	-38.8	-41.3	12.5	6.52e-05	0	57	0	72351744	48	5004
2026-01-23 01:24:03.91	21.17	9.34	-38.7	-41.2	12.6	7.89e-05	0	57	0	78643200	48	4934
2026-01-23 01:24:04.92	21.21	9.42	-38.4	-40.7	13.1	2.17e-05	0	57	0	83886080	48	4699
2026-01-23 01:24:05.94	21.24	9.51	-38.8	-41.3	12.6	3.89e-05	0	57	0	90177536	48	4993
2026-01-23 01:24:06.95	21.28	9.59	-38.7	-41.1	12.7	6.29e-05	0	57	0	95420416	48	4926
2026-01-23 01:24:07.95	21.31	9.67	-38.5	-40.9	13.0	2.17e-05	0	57	0	100663296	48	4766
2026-01-23 01:24:08.96	21.34	9.76	-39.1	-41.7	12.3	9.15e-05	0	57	0	106954752	48	5219
2026-01-23 01:24:09.97	21.38	9.85	-38.5	-40.8	13.1	4.69e-05	0	57	0	112197632	48	4752
2026-01-23 01:24:10.98	21.41	9.93	-39.1	-41.7	12.3	8.81e-05	0	57	0	118489088	48	5234
2026-01-23 01:24:11.99	21.44	10.02	-38.9	-41.3	12.7	8.12e-05	0	57	0	123731968	49	4756
2026-01-23 01:24:13.00	21.48	10.10	-39.4	-42.0	12.0	1.23e-04	0	57	0	130023424	49	5130
2026-01-23 01:24:14.01	21.51	10.19	-39.1	-41.6	12.4	1.49e-04	0	57	0	135266304	49	4915
2026-01-23 01:24:15.02	21.55	10.28	-39.4	-42.1	12.1	1.27e-04	0	57	0	141557760	49	5172
2026-01-23 01:24:16.03	21.58	10.36	-39.1	-41.5	12.7	9.15e-05	0	57	0	146800640	49	4840
2026-01-23 01:24:17.04	21.62	10.45	-39.3	-41.8	12.5	9.04e-05	0	57	0	152043520	49	4988
2026-01-23 01:24:18.05	21.65	10.54	-39.2	-41.7	12.6	3.54e-05	0	57	0	158334976	49	4947
2026-01-23 01:24:19.06	21.69	10.63	-39.1	-41.5	12.8	4.92e-05	0	57	0	163577856	49	4846
2026-01-23 01:24:20.07	21.73	10.71	-39.3	-41.8	12.5	7.55e-05	0	57	0	169869312	49	4996
2026-01-23 01:24:21.07	21.76	10.80	-39.0	-41.4	12.9	2.97e-05	0	57	0	175112192	49	4784
2026-01-23 01:24:22.08	21.80	10.89	-39.0	-41.4	13.0	3.08e-05	0	57	0	180355072	49	4764
2026-01-23 01:24:23.09	21.83	10.98	-39.0	-41.4	12.9	2.74e-05	0	57	0	186646528	49	4783
2026-01-23 01:24:24.10	21.87	11.07	-38.9	-41.1	13.3	1.14e-05	0	57	0	191889408	49	4628
2026-01-23 01:24:25.11	21.91	11.16	-38.9	-41.1	13.3	1.02e-05	0	57	0	198180864	49	4638
2026-01-23 01:24:26.12	21.94	11.25	-38.8	-41.0	13.5	8.00e-06	0	57	0	203423744	49	4575
2026-01-23 01:24:27.14	21.98	11.34	-38.8	-41.0	13.5	1.02e-05	0	58	0	208666624	49	4582
2026-01-23 01:24:28.15	22.02	11.43	-38.9	-41.1	13.4	6.80e-06	0	57	0	214958080	49	4626
2026-01-23 01:24:29.16	22.06	11.52	-38.8	-41.0	13.6	6.80e-06	0	58	0	220200960	49	4571
2026-01-23 01:24:30.17	22.09	11.61	-38.8	-41.0	13.6	3.40e-06	0	58	0	226492416	49	4559
2026-01-23 01:24:31.18	22.13	11.70	-38.8	-41.0	13.7	3.40e-06	0	58	0	231735296	49	4556
2026-01-23 01:24:32.19	22.17	11.80	-38.8	-40.9	13.7	4.50e-06	0	58	0	238026752	49	4531
2026-01-23 01:24:33.20	22.21	11.89	-38.7	-40.8	13.8	2.20e-06	0	58	0	243269632	49	4493
2026-01-23 01:24:34.21	22.25	11.98	-38.7	-40.9	13.8	5.70e-06	0	58	0	249561088	49	4511
2026-01-23 01:24:35.22	22.29	12.08	-38.7	-40.8	13.8	2.20e-06	0	58	0	254803968	49	4471
2026-01-23 01:24:36.22	22.33	12.17	-38.7	-40.8	13.9	0.00e+00	0	57	0	260046848	49	4489
2026-01-23 01:24:37.23	22.36	12.26	-38.6	-40.7	14.0	3.40e-06	0	58	0	266338304	49	4403
2026-01-23 01:24:38.24	22.40	12.36	-38.6	-40.6	14.1	2.20e-06	0	58	0	271581184	49	4375
2026-01-23 01:24:39.25	22.44	12.45	-38.5	-40.5	14.1	1.10e-06	0	57	0	276824064	49	4340
2026-01-23 01:24:40.26	22.48	12.55	-38.4	-40.5	14.3	1.10e-06	0	58	0	283115520	48	4555
2026-01-23 01:24:41.27	22.52	12.64	-38.5	-40.5	14.2	2.20e-06	0	58	0	288358400	48	4562
2026-01-23 01:24:42.28	22.56	12.74	-38.5	-40.5	14.3	0.00e+00	0	58	0	294649856	48	4546
2026-01-23 01:24:43.29	22.61	12.83	-38.4	-40.4	14.4	0.00e+00	0	58	0	299892736	48	4515
2026-01-23 01:24:44.30	22.65	12.93	-38.4	-40.4	14.4	0.00e+00	0	58	0	305135616	48	4517
2026-01-23 01:24:45.31	22.69	13.02	-38.3	-40.3	14.5	1.10e-06	0	58	0	311427072	48	4475
2026-01-23 01:24:46.32	22.73	13.12	-38.4	-40.3	14.5	1.10e-06	0	58	0	316669952	48	4491
2026-01-23 01:24:47.33	22.77	13.22	-38.3	-40.3	14.6	0.00e+00	0	58	0	322961408	48	4443
2026-01-23 01:24:48.34	22.81	13.32	-38.2	-40.2	14.6	2.20e-06	0	58	0	328204288	48	4394
2026-01-23 01:24:49.35	22.85	13.42	-38.3	-40.2	14.7	0.00e+00	0	58	0	334495744	48	4420
2026-01-23 01:24:50.36	22.90	13.51	-38.3	-40.2	14.6	0.00e+00	0	58	0	339738624	48	4411
2026-01-23 01:24:51.37	22.94	13.61	-38.3	-40.2	14.7	0.00e+00	0	58	0	346030080	48	4397
2026-01-23 01:24:52.38	22.98	13.71	-38.2	-40.1	14.7	0.00e+00	0	58	0	351272960	48	4361
2026-01-23 01:24:53.39	23.03	13.81	-38.2	-40.2	14.7	1.10e-06	0	58	0	356515840	48	4392
2026-01-23 01:24:54.39	23.07	13.91	-38.3	-40.2	14.7	0.00e+00	0	58	0	362807296	48	4401
2026-01-23 01:24:55.40	23.11	14.01	-38.3	-40.2	14.6	0.00e+00	0	58	0	368050176	48	4425
2026-01-23 01:24:56.42	23.16	14.11	-38.2	-40.1	14.8	0.00e+00	0	58	0	374341632	48	4372
2026-01-23 01:24:57.43	23.20	14.22	-38.2	-40.2	14.7	0.00e+00	0	58	0	379584512	48	4401
2026-01-23 01:24:58.44	23.24	14.32	-38.3	-40.2	14.7	0.00e+00	0	58	0	384827392	48	4429
2026-01-23 01:24:59.45	23.29	14.42	-38.2	-40.1	14.8	0.00e+00	0	58	0	391118848	48	4368
2026-01-23 01:25:00.46	23.33	14.52	-38.3	-40.3	14.6	0.00e+00	0	58	0	396361728	48	4448
2026-01-23 01:25:01.47	23.38	14.63	-38.3	-40.2	14.8	0.00e+00	0	58	0	402653184	48	4404
2026-01-23 01:25:02.48	23.43	14.73	-38.2	-40.1	14.8	0.00e+00	0	58	0	407896064	48	4351
2026-01-23 01:25:03.49	23.47	14.83	-38.3	-40.2	14.8	0.00e+00	0	58	0	413138944	48	4397
2026-01-23 01:25:04.50	23.52	14.94	-38.2	-40.1	14.8	0.00e+00	0	58	0	419430400	48	4372
2026-01-23 01:25:05.51	23.56	15.04	-38.2	-40.0	14.9	0.00e+00	0	58	0	424673280	48	4324
2026-01-23 01:25:06.52	23.61	15.15	-38.2	-40.0	14.9	0.00e+00	0	58	0	430964736	48	4318
2026-01-23 01:25:07.53	23.66	15.25	-38.1	-39.9	15.0	0.00e+00	0	58	0	436207616	48	4281
2026-01-23 01:25:08.54	23.71	15.36	-38.1	-39.9	15.0	0.00e+00	0	59	0	442499072	48	4276
2026-01-23 01:25:09.55	23.75	15.47	-38.1	-40.0	15.0	0.00e+00	0	58	0	447741952	48	4311
2026-01-23 01:25:10.56	23.80	15.57	-38.1	-39.9	15.1	0.00e+00	0	59	0	454033408	48	4281
2026-01-23 01:25:11.57	23.85	15.68	-38.0	-39.9	15.1	0.00e+00	0	58	0	459276288	48	4245
2026-01-23 01:25:12.58	23.90	15.79	-38.1	-40.0	15.0	0.00e+00	0	59	0	464519168	48	4318
2026-01-23 01:25:13.59	23.95	15.90	-38.0	-39.8	15.2	0.00e+00	0	58	0	470810624	48	4235
2026-01-23 01:25:14.60	24.00	16.01	-37.8	-39.6	15.3	0.00e+00	0	58	0	476053504	47	4372
2026-01-23 01:25:15.61	24.05	16.12	-37.8	-39.5	15.4	0.00e+00	0	58	0	481296384	47	4335
2026-01-23 01:25:16.62	24.10	16.23	-37.8	-39.6	15.4	0.00e+00	0	58	0	487587840	47	4354
2026-01-23 01:25:17.62	24.15	16.33	-37.6	-39.4	15.5	0.00e+00	0	59	0	492830720	47	4264
2026-01-23 01:25:18.63	24.20	16.45	-37.7	-39.5	15.4	0.00e+00	0	58	0	499122176	47	4309
2026-01-23 01:25:19.64	24.25	16.56	-37.6	-39.3	15.7	0.00e+00	0	58	0	504365056	47	4220
2026-01-23 01:25:20.65	24.30	16.67	-37.5	-39.2	15.8	0.00e+00	0	58	0	509607936	47	4157
2026-01-23 01:25:21.66	24.35	16.78	-37.5	-39.3	15.8	0.00e+00	0	58	0	515899392	46	4443
2026-01-23 01:25:22.67	24.40	16.89	-37.5	-39.2	15.8	0.00e+00	0	58	0	521142272	46	4436
2026-01-23 01:25:23.68	24.45	17.01	-37.4	-39.1	15.9	0.00e+00	0	59	0	527433728	46	4369
2026-01-23 01:25:24.69	24.51	17.12	-37.4	-39.1	15.9	0.00e+00	0	58	0	532676608	46	4375
2026-01-23 01:25:25.70	24.56	17.24	-37.4	-39.1	15.9	0.00e+00	0	59	0	538968064	46	4385
2026-01-23 01:25:26.71	24.61	17.35	-37.4	-39.1	15.9	0.00e+00	0	59	0	544210944	46	4379
2026-01-23 01:25:27.72	24.67	17.47	-37.5	-39.2	15.9	0.00e+00	0	59	0	550502400	46	4408
2026-01-23 01:25:28.73	24.72	17.58	-37.4	-39.1	15.9	0.00e+00	0	59	0	555745280	46	4374
2026-01-23 01:25:29.74	24.78	17.70	-37.5	-39.2	15.9	0.00e+00	0	59	0	560988160	46	4405
2026-01-23 01:25:30.75	24.83	17.82	-37.5	-39.2	15.9	0.00e+00	0	59	0	567279616	46	4409
2026-01-23 01:25:31.76	24.89	17.93	-37.4	-39.1	16.0	0.00e+00	0	59	0	572522496	46	4345
2026-01-23 01:25:32.78	24.94	18.05	-37.4	-39.1	16.0	0.00e+00	0	59	0	578813952	46	4353
2026-01-23 01:25:33.78	25.00	18.17	-37.4	-39.1	16.0	0.00e+00	0	59	0	584056832	46	4347
2026-01-23 01:25:34.79	25.06	18.29	-37.3	-39.0	16.1	0.00e+00	0	59	0	589299712	46	4296
2026-01-23 01:25:35.80	25.11	18.41	-37.2	-38.8	16.3	0.00e+00	0	59	0	595591168	46	4226
2026-01-23 01:25:36.81	25.17	18.53	-37.2	-38.8	16.3	0.00e+00	0	59	0	600834048	46	4211
2026-01-23 01:25:37.82	25.23	18.65	-37.1	-38.7	16.4	0.00e+00	0	59	0	607125504	46	4160
2026-01-23 01:25:38.83	25.29	18.77	-37.0	-38.5	16.5	0.00e+00	0	59	0	612368384	45	4340
2026-01-23 01:25:39.84	25.35	18.89	-37.0	-38.6	16.5	0.00e+00	0	59	0	617611264	45	4352
2026-01-23 01:25:40.85	25.40	19.02	-36.9	-38.5	16.6	0.00e+00	0	59	0	623902720	45	4327
2026-01-23 01:25:41.86	25.46	19.14	-37.0	-38.5	16.6	0.00e+00	0	59	0	629145600	45	4336
2026-01-23 01:25:42.87	25.52	19.26	-36.9	-38.5	16.6	0.00e+00	0	59	0	635437056	45	4321
2026-01-23 01:25:43.88	25.58	19.39	-37.0	-38.5	16.5	0.00e+00	0	59	0	640679936	45	4330
2026-01-23 01:25:44.89	25.65	19.51	-37.0	-38.6	16.5	0.00e+00	0	59	0	646971392	45	4348
2026-01-23 01:25:45.90	25.71	19.64	-37.0	-38.6	16.5	0.00e+00	0	59	0	652214272	45	4354
2026-01-23 01:25:46.91	25.77	19.76	-37.0	-38.6	16.5	0.00e+00	0	59	0	658505728	45	4388
2026-01-23 01:25:47.92	25.83	19.89	-37.1	-38.7	16.5	0.00e+00	0	59	0	663748608	45	4396
2026-01-23 01:25:48.93	25.89	20.02	-37.0	-38.6	16.6	0.00e+00	0	59	0	668991488	45	4354
2026-01-23 01:25:49.94	25.96	20.15	-37.1	-38.7	16.5	0.00e+00	0	59	0	675282944	45	4393
2026-01-23 01:25:50.95	26.02	20.28	-37.1	-38.7	16.4	0.00e+00	0	59	0	680525824	45	4438
2026-01-23 01:25:51.96	26.09	20.40	-37.2	-38.8	16.4	0.00e+00	0	59	0	686817280	45	4456
2026-01-23 01:25:52.97	26.15	20.53	-37.0	-38.6	16.6	0.00e+00	0	59	0	692060160	45	4349
2026-01-23 01:25:53.98	26.22	20.67	-37.0	-38.6	16.6	0.00e+00	0	59	0	697303040	45	4352
2026-01-23 01:25:54.99	26.28	20.80	-36.9	-38.5	16.7	0.00e+00	0	59	0	703594496	45	4312
2026-01-23 01:25:56.00	26.35	20.93	-37.0	-38.5	16.6	0.00e+00	0	59	0	708837376	45	4336
2026-01-23 01:25:57.01	26.42	21.06	-36.9	-38.5	16.7	0.00e+00	0	59	0	715128832	45	4301
2026-01-23 01:25:58.02	26.48	21.19	-36.9	-38.5	16.7	0.00e+00	0	59	0	720371712	45	4305
2026-01-23 01:25:59.03	26.55	21.33	-37.0	-38.5	16.7	0.00e+00	0	59	0	725614592	45	4320
2026-01-23 01:26:00.03	26.62	21.46	-36.9	-38.5	16.7	0.00e+00	0	59	0	731906048	45	4311
2026-01-23 01:26:01.04	26.69	21.60	-36.9	-38.5	16.7	0.00e+00	0	59	0	737148928	45	4318
2026-01-23 01:26:02.05	26.76	21.73	-37.0	-38.6	16.6	0.00e+00	0	59	0	743440384	45	4375
2026-01-23 01:26:03.06	26.83	21.87	-37.0	-38.6	16.6	0.00e+00	0	59	0	748683264	45	4368
2026-01-23 01:26:04.07	26.90	22.01	-36.9	-38.5	16.7	0.00e+00	0	59	0	754974720	45	4321
2026-01-23 01:26:05.08	26.97	22.14	-36.9	-38.4	16.8	0.00e+00	0	59	0	760217600	45	4273
2026-01-23 01:26:06.09	27.04	22.28	-36.8	-38.4	16.9	0.00e+00	0	59	0	765460480	45	4253
2026-01-23 01:26:07.10	27.12	22.42	-36.9	-38.4	16.8	0.00e+00	0	59	0	771751936	45	4271
2026-01-23 01:26:08.11	27.19	22.56	-36.8	-38.3	16.9	0.00e+00	0	59	0	776994816	45	4209
2026-01-23 01:26:09.12	27.26	22.70	-36.6	-38.1	17.2	0.00e+00	0	59	0	783286272	45	4105
2026-01-23 01:26:10.13	27.34	22.85	-36.4	-37.9	17.4	0.00e+00	0	59	0	788529152	44	4258
2026-01-23 01:26:11.14	27.41	22.99	-36.4	-37.8	17.5	0.00e+00	0	59	0	793772032	44	4221
2026-01-23 01:26:12.15	27.49	23.13	-36.4	-37.8	17.5	0.00e+00	0	59	0	800063488	44	4229
2026-01-23 01:26:13.16	27.57	23.28	-36.3	-37.7	17.5	0.00e+00	0	59	0	805306368	44	4189
2026-01-23 01:26:14.17	27.64	23.42	-36.3	-37.7	17.6	0.00e+00	0	59	0	811597824	44	4174
2026-01-23 01:26:15.18	27.72	23.57	-36.2	-37.6	17.6	0.00e+00	0	59	0	816840704	44	4144
2026-01-23 01:26:16.19	27.80	23.71	-36.2	-37.6	17.7	0.00e+00	0	59	0	822083584	44	4122
2026-01-23 01:26:17.20	27.88	23.86	-36.2	-37.6	17.7	0.00e+00	0	59	0	828375040	44	4126
2026-01-23 01:26:18.21	27.96	24.01	-36.2	-37.6	17.7	0.00e+00	0	59	0	833617920	44	4133
2026-01-23 01:26:19.22	28.04	24.16	-36.3	-37.7	17.6	0.00e+00	0	59	0	839909376	44	4164
2026-01-23 01:26:20.23	28.12	24.31	-36.3	-37.8	17.5	0.00e+00	0	59	0	845152256	44	4197
2026-01-23 01:26:21.24	28.20	24.46	-36.3	-37.8	17.5	0.00e+00	0	59	0	851443712	44	4208
2026-01-23 01:26:22.25	28.29	24.61	-36.4	-37.8	17.5	0.00e+00	0	59	0	856686592	44	4241
2026-01-23 01:26:23.26	28.37	24.76	-36.3	-37.7	17.6	0.00e+00	0	59	0	862978048	44	4185
2026-01-23 01:26:24.28	28.46	24.91	-36.3	-37.7	17.6	0.00e+00	0	59	0	868220928	44	4166
2026-01-23 01:26:25.29	28.54	25.07	-36.3	-37.7	17.6	0.00e+00	0	59	0	873463808	44	4174
2026-01-23 01:26:26.30	28.63	25.22	-36.3	-37.7	17.6	0.00e+00	0	59	0	879755264	44	4157
2026-01-23 01:26:27.31	28.72	25.38	-36.1	-37.5	17.8	0.00e+00	0	59	0	884998144	44	4089
2026-01-23 01:26:28.32	28.80	25.53	-36.0	-37.4	17.9	0.00e+00	0	60	0	891289600	44	4045
2026-01-23 01:26:29.33	28.89	25.69	-36.0	-37.4	18.0	0.00e+00	0	60	0	896532480	44	4027
2026-01-23 01:26:30.34	28.98	25.85	-36.1	-37.4	17.9	0.00e+00	0	59	0	901775360	44	4051
2026-01-23 01:26:31.35	29.07	26.01	-36.0	-37.4	17.9	0.00e+00	0	59	0	908066816	44	4023
2026-01-23 01:26:32.36	29.16	26.17	-36.1	-37.5	17.9	0.00e+00	0	59	0	913309696	44	4061
2026-01-23 01:26:33.37	29.26	26.33	-36.2	-37.6	17.8	0.00e+00	0	59	0	919601152	44	4128
2026-01-23 01:26:34.38	29.35	26.49	-36.3	-37.7	17.7	0.00e+00	0	59	0	924844032	44	4150
2026-01-23 01:26:35.39	29.44	26.65	-36.4	-37.8	17.6	0.00e+00	0	59	0	930086912	44	4215
2026-01-23 01:26:36.40	29.54	26.81	-36.4	-37.9	17.5	0.00e+00	0	60	0	936378368	44	4262
2026-01-23 01:26:37.40	29.63	26.98	-36.4	-37.8	17.5	0.00e+00	0	59	0	941621248	44	4233
2026-01-23 01:26:38.41	29.73	27.14	-36.4	-37.8	17.6	0.00e+00	0	59	0	947912704	44	4224
2026-01-23 01:26:39.42	29.83	27.31	-36.4	-37.8	17.6	0.00e+00	0	59	0	953155584	44	4230
2026-01-23 01:26:40.43	29.92	27.47	-36.3	-37.7	17.7	0.00e+00	0	59	0	959447040	44	4168
2026-01-23 01:26:41.44	30.02	27.64	-36.2	-37.6	17.8	0.00e+00	0	60	0	964689920	44	4128
2026-01-23 01:26:42.45	30.12	27.81	-36.2	-37.6	17.8	0.00e+00	0	59	0	969932800	44	4122
2026-01-23 01:26:43.46	30.23	27.98	-36.2	-37.6	17.8	0.00e+00	0	59	0	976224256	44	4115
2026-01-23 01:26:44.47	30.33	28.15	-36.1	-37.5	17.9	0.00e+00	0	59	0	981467136	44	4053
2026-01-23 01:26:45.48	30.43	28.32	-36.1	-37.5	17.9	0.00e+00	0	59	0	987758592	44	4070
2026-01-23 01:26:46.49	30.54	28.50	-36.2	-37.5	17.8	0.00e+00	0	60	0	993001472	44	4098
2026-01-23 01:26:47.50	30.64	28.67	-36.1	-37.5	17.9	0.00e+00	0	59	0	998244352	44	4093
2026-01-23 01:26:48.51	30.75	28.84	-36.0	-37.4	18.0	0.00e+00	0	59	0	1004535808	44	4023
2026-01-23 01:26:49.52	30.86	29.02	-35.8	-37.2	18.1	0.00e+00	0	59	0	1009778688	43	4149
2026-01-23 01:26:50.52	30.97	29.19	-35.8	-37.1	18.1	0.00e+00	0	59	0	1016070144	43	4133
2026-01-23 01:26:51.53	31.08	29.37	-35.8	-37.1	18.1	0.00e+00	0	60	0	1021313024	43	4133
2026-01-23 01:26:52.54	31.19	29.55	-35.7	-37.1	18.2	0.00e+00	0	60	0	1026555904	43	4104
2026-01-23 01:26:53.55	31.30	29.73	-35.7	-37.0	18.2	0.00e+00	0	60	0	1032847360	43	4084
2026-01-23 01:26:54.57	31.42	29.91	-35.6	-37.0	18.3	0.00e+00	0	60	0	1038090240	43	4063
2026-01-23 01:26:55.57	31.53	30.09	-35.6	-36.9	18.3	0.00e+00	0	59	0	1044381696	43	4037
2026-01-23 01:26:56.58	31.65	30.28	-35.6	-37.0	18.3	0.00e+00	0	60	0	1049624576	43	4065
2026-01-23 01:26:57.59	31.77	30.46	-35.7	-37.0	18.2	0.00e+00	0	60	0	1055916032	43	4096
2026-01-23 01:26:58.60	31.89	30.64	-35.7	-37.1	18.2	0.00e+00	0	59	0	1061158912	43	4112
2026-01-23 01:26:59.61	32.01	30.83	-35.8	-37.2	18.1	0.00e+00	0	59	0	1067450368	43	4159
2026-01-23 01:27:00.62	32.13	31.02	-35.8	-37.1	18.1	0.00e+00	0	59	0	1072693248	43	4130
2026-01-23 01:27:01.63	32.25	31.21	-35.8	-37.1	18.1	0.00e+00	0	60	0	1077936128	43	4142
2026-01-23 01:27:02.64	32.38	31.39	-35.8	-37.1	18.1	0.00e+00	0	60	0	1084227584	43	4139
2026-01-23 01:27:03.65	32.50	31.59	-35.9	-37.3	18.0	0.00e+00	0	60	0	1089470464	43	4198
2026-01-23 01:27:04.66	32.63	31.78	-35.9	-37.3	17.9	0.00e+00	0	60	0	1095761920	43	4226
2026-01-23 01:27:05.67	32.76	31.97	-36.0	-37.4	17.8	0.00e+00	0	60	0	1101004800	43	4283
2026-01-23 01:27:06.68	32.89	32.16	-36.1	-37.6	17.7	0.00e+00	0	60	0	1106247680	43	4345
2026-01-23 01:27:07.69	33.02	32.36	-36.0	-37.4	17.9	0.00e+00	0	60	0	1112539136	43	4283
2026-01-23 01:27:08.70	33.15	32.55	-35.9	-37.3	18.0	0.00e+00	0	60	0	1117782016	43	4203
2026-01-23 01:27:09.71	33.29	32.75	-35.7	-37.1	18.2	0.00e+00	0	60	0	1124073472	43	4104
2026-01-23 01:27:10.72	33.43	32.95	-35.6	-36.9	18.3	0.00e+00	0	60	0	1129316352	43	4046
2026-01-23 01:27:11.73	33.56	33.15	-35.6	-37.0	18.3	0.00e+00	0	60	0	1134559232	43	4065
2026-01-23 01:27:12.74	33.70	33.35	-35.7	-37.1	18.2	0.00e+00	0	60	0	1140850688	43	4117
2026-01-23 01:27:13.76	33.85	33.55	-35.8	-37.1	18.2	0.00e+00	0	60	0	1146093568	43	4129
2026-01-23 01:27:14.77	33.99	33.75	-35.8	-37.2	18.2	0.00e+00	0	60	0	1152385024	43	4146
2026-01-23 01:27:15.78	34.14	33.96	-35.8	-37.2	18.1	0.00e+00	0	60	0	1157627904	43	4162
2026-01-23 01:27:16.79	34.28	34.16	-35.8	-37.1	18.1	0.00e+00	0	60	0	1163919360	43	4136
2026-01-23 01:27:17.80	34.43	34.37	-35.8	-37.1	18.2	0.00e+00	0	60	0	1169162240	43	4132
2026-01-23 01:27:18.81	34.58	34.58	-35.7	-37.0	18.3	0.00e+00	0	60	0	1174405120	43	4088
2026-01-23 01:27:19.81	34.73	34.78	-35.6	-36.9	18.4	0.00e+00	0	60	0	1180696576	43	4039
2026-01-23 01:27:20.82	34.89	34.99	-35.6	-36.9	18.4	0.00e+00	0	60	0	1185939456	43	4040
2026-01-23 01:27:21.83	35.04	35.20	-35.6	-36.9	18.4	0.00e+00	0	60	0	1192230912	43	4018
2026-01-23 01:27:22.84	35.20	35.42	-35.6	-36.9	18.4	0.00e+00	0	60	0	1197473792	43	4033
2026-01-23 01:27:23.85	35.36	35.63	-35.6	-36.9	18.4	0.00e+00	0	60	0	1202716672	43	4035
2026-01-23 01:27:24.86	35.52	35.84	-35.5	-36.8	18.5	0.00e+00	0	59	0	1209008128	43	3998
2026-01-23 01:27:25.87	35.69	36.06	-35.5	-36.8	18.5	0.00e+00	0	60	0	1214251008	42	4219
2026-01-23 01:27:26.88	35.86	36.28	-35.5	-36.9	18.5	0.00e+00	0	60	0	1220542464	42	4254
2026-01-23 01:27:27.89	36.02	36.50	-35.5	-36.8	18.6	0.00e+00	0	60	0	1225785344	42	4215
2026-01-23 01:27:28.90	36.20	36.71	-35.5	-36.8	18.6	0.00e+00	0	60	0	1231028224	42	4206
2026-01-23 01:27:29.91	36.37	36.94	-35.5	-36.8	18.6	0.00e+00	0	60	0	1237319680	42	4204
2026-01-23 01:27:30.92	36.54	37.16	-35.4	-36.8	18.1	0.00e+00	0	60	0	1242562560	42	4241
2026-01-23 01:27:31.93	36.72	37.38	-35.3	-36.7	18.3	0.00e+00	0	60	0	1248854016	42	4164
2026-01-23 01:27:32.95	36.90	37.61	-35.3	-36.7	18.3	0.00e+00	0	60	0	1254096896	42	4153
2026-01-23 01:27:33.96	37.09	37.83	-35.3	-36.7	18.3	0.00e+00	0	60	0	1260388352	42	4173
2026-01-23 01:27:34.97	37.27	38.06	-35.3	-36.7	18.3	0.00e+00	0	60	0	1265631232	42	4160
2026-01-23 01:27:35.97	37.46	38.28	-35.3	-36.7	18.3	0.00e+00	0	60	0	1271922688	42	4190
2026-01-23 01:27:36.98	37.65	38.51	-35.4	-36.8	18.2	0.00e+00	0	60	0	1277165568	42	4242
2026-01-23 01:27:37.99	37.84	38.74	-35.5	-36.9	18.1	0.00e+00	0	60	0	1282408448	42	4268
2026-01-23 01:27:39.00	38.04	38.98	-35.5	-36.9	18.1	0.00e+00	0	60	0	1288699904	42	4267
2026-01-23 01:27:40.01	38.24	39.21	-35.5	-36.9	18.1	0.00e+00	0	60	0	1293942784	42	4268
2026-01-23 01:27:41.02	38.44	39.44	-35.6	-37.0	18.0	0.00e+00	0	60	0	1300234240	42	4339
2026-01-23 01:27:42.03	38.64	39.68	-35.6	-37.0	18.0	0.00e+00	0	60	0	1305477120	42	4332
2026-01-23 01:27:43.04	38.85	39.91	-35.6	-37.1	18.0	0.00e+00	0	60	0	1310720000	42	4361
2026-01-23 01:27:44.05	39.06	40.15	-35.6	-37.1	18.0	0.00e+00	0	60	0	1317011456	42	4350
2026-01-23 01:27:45.06	39.27	40.39	-35.6	-37.0	18.1	0.00e+00	0	60	0	1322254336	42	4324
2026-01-23 01:27:46.07	39.49	40.63	-35.6	-37.0	18.1	0.00e+00	0	60	0	1328545792	42	4322
2026-01-23 01:27:47.08	39.71	40.87	-35.7	-37.1	18.0	0.00e+00	0	60	0	1333788672	42	4368
2026-01-23 01:27:48.09	39.93	41.11	-35.7	-37.1	18.0	0.00e+00	0	60	0	1339031552	42	4377
2026-01-23 01:27:49.10	40.16	41.36	-35.7	-37.2	17.9	0.00e+00	0	60	0	1345323008	42	4418
2026-01-23 01:27:50.11	40.39	41.60	-35.8	-37.3	17.8	0.00e+00	0	60	0	1350565888	42	4459
2026-01-23 01:27:51.12	40.62	41.85	-35.8	-37.3	17.8	0.00e+00	0	60	0	1356857344	42	4489
2026-01-23 01:27:52.13	40.86	42.09	-35.8	-37.3	17.8	0.00e+00	0	60	0	1362100224	42	4475
2026-01-23 01:27:53.13	41.10	42.34	-35.9	-37.4	17.7	0.00e+00	0	60	0	1368391680	42	4513
2026-01-23 01:27:54.15	41.34	42.59	-36.0	-37.5	17.6	0.00e+00	0	60	0	1373634560	42	4556
2026-01-23 01:27:55.16	41.59	42.84	-36.0	-37.5	17.6	0.00e+00	0	60	0	1379926016	42	4588
2026-01-23 01:27:56.17	41.84	43.09	-36.0	-37.5	17.6	0.00e+00	0	60	0	1385168896	42	4576
2026-01-23 01:27:57.18	42.10	43.35	-35.8	-37.3	17.8	0.00e+00	0	60	0	1390411776	42	4490
2026-01-23 01:27:58.19	42.36	43.60	-35.7	-37.1	17.9	0.00e+00	0	60	0	1396703232	42	4385
2026-01-23 01:27:59.20	42.62	43.85	-35.5	-37.0	18.1	0.00e+00	0	60	0	1401946112	42	4311
2026-01-23 01:28:00.19	42.88	44.10	-35.7	-37.2	17.9	0.00e+00	0	60	0	1407188992	42	4396
2026-01-23 01:28:01.19	43.15	44.36	-35.8	-37.3	17.8	0.00e+00	0	60	0	1413480448	42	4472
2026-01-23 01:28:02.20	43.43	44.62	-36.0	-37.6	17.5	0.00e+00	0	60	0	1418723328	42	4618
2026-01-23 01:28:03.21	43.71	44.87	-35.9	-37.4	17.7	0.00e+00	0	60	0	1425014784	42	4532
2026-01-23 01:28:04.22	43.99	45.13	-36.0	-37.4	17.7	0.00e+00	0	60	0	1430257664	42	4543
2026-01-23 01:28:05.23	44.28	45.39	-35.9	-37.4	17.8	0.00e+00	0	60	0	1435500544	42	4494
2026-01-23 01:28:06.24	44.58	45.66	-35.7	-37.2	17.9	0.00e+00	0	60	0	1441792000	42	4418
2026-01-23 01:28:07.25	44.88	45.92	-35.8	-37.3	17.9	0.00e+00	0	60	0	1447034880	42	4454
2026-01-23 01:28:08.26	45.18	46.18	-35.9	-37.4	17.7	0.00e+00	0	60	0	1453326336	42	4539
2026-01-23 01:28:09.27	45.49	46.44	-36.0	-37.5	17.7	0.00e+00	0	60	0	1458569216	42	4564
2026-01-23 01:28:10.28	45.80	46.71	-36.0	-37.5	17.7	0.00e+00	0	60	0	1464860672	42	4554
2026-01-23 01:28:11.29	46.12	46.98	-36.1	-37.6	17.6	0.00e+00	0	60	0	1470103552	42	4602
2026-01-23 01:28:12.30	46.45	47.24	-36.0	-37.5	17.7	0.00e+00	0	60	0	1475346432	42	4582
2026-01-23 01:28:13.31	46.78	47.51	-36.1	-37.6	17.6	0.00e+00	0	60	0	1481637888	42	4612
2026-01-23 01:28:14.32	47.12	47.78	-36.1	-37.6	17.6	0.00e+00	0	60	0	1486880768	42	4607
2026-01-23 01:28:15.33	47.46	48.04	-36.0	-37.5	17.7	0.00e+00	0	60	0	1493172224	42	4573
2026-01-23 01:28:16.34	47.81	48.31	-36.0	-37.5	17.8	0.00e+00	0	60	0	1498415104	42	4554
2026-01-23 01:28:17.35	48.16	48.58	-36.0	-37.5	17.7	0.00e+00	0	60	0	1503657984	42	4587
2026-01-23 01:28:18.36	48.52	48.85	-36.0	-37.5	17.8	0.00e+00	0	60	0	1509949440	42	4565
2026-01-23 01:28:19.37	48.89	49.12	-35.9	-37.3	17.9	0.00e+00	0	60	0	1515192320	42	4486
2026-01-23 01:28:20.38	49.26	49.39	-35.9	-37.3	17.9	0.00e+00	0	60	0	1521483776	42	4473
2026-01-23 01:28:21.38	49.64	49.66	-36.1	-37.6	17.7	0.00e+00	0	60	0	1526726656	42	4605
2026-01-23 01:28:22.39	50.02	49.93	-36.3	-37.8	17.5	0.00e+00	0	60	0	1531969536	43	4454
2026-01-23 01:28:23.40	50.42	50.21	-36.4	-37.9	17.3	0.00e+00	0	60	0	1538260992	43	4542
2026-01-23 01:28:24.41	50.82	50.48	-36.3	-37.8	17.4	0.00e+00	0	60	0	1543503872	43	4467
2026-01-23 01:28:25.42	51.22	50.75	-36.3	-37.9	17.3	0.00e+00	0	60	0	1549795328	43	4499
2026-01-23 01:28:26.43	51.64	51.02	-36.5	-38.1	17.1	0.00e+00	0	60	0	1555038208	43	4609
2026-01-23 01:28:27.44	52.06	51.29	-36.4	-38.0	17.3	0.00e+00	0	60	0	1561329664	43	4563
2026-01-23 01:28:28.45	52.49	51.57	-36.4	-37.9	17.4	0.00e+00	0	60	0	1566572544	43	4514
2026-01-23 01:28:29.46	52.93	51.84	-36.4	-37.9	17.4	0.00e+00	0	60	0	1572864000	43	4523
2026-01-23 01:28:30.47	53.38	52.11	-36.4	-38.0	17.3	0.00e+00	0	60	0	1578106880	43	4551
2026-01-23 01:28:31.48	53.83	52.38	-36.7	-38.3	17.0	0.00e+00	0	60	0	1583349760	43	4715
2026-01-23 01:28:32.49	54.29	52.65	-36.5	-38.1	17.2	0.00e+00	0	60	0	1589641216	43	4620
2026-01-23 01:28:33.50	54.76	52.92	-36.6	-38.2	17.1	0.00e+00	0	60	0	1594884096	43	4655
2026-01-23 01:28:34.51	55.24	53.19	-36.7	-38.3	16.9	0.00e+00	0	60	0	1601175552	43	4736
2026-01-23 01:28:35.52	55.73	53.46	-36.8	-38.4	17.0	0.00e+00	0	60	0	1606418432	44	4514
2026-01-23 01:28:36.53	56.23	53.73	-36.7	-38.3	17.1	0.00e+00	0	60	0	1611661312	44	4461
2026-01-23 01:28:37.54	56.74	54.00	-36.8	-38.3	17.1	0.00e+00	0	60	0	1617952768	44	4476
2026-01-23 01:28:38.55	57.25	54.27	-36.8	-38.4	17.0	0.00e+00	0	60	0	1623195648	44	4504
2026-01-23 01:28:39.56	57.78	54.53	-36.8	-38.4	17.0	0.00e+00	0	60	0	1629487104	44	4523
2026-01-23 01:28:40.57	58.32	54.80	-36.8	-38.4	17.0	0.00e+00	0	60	0	1634729984	44	4533
2026-01-23 01:28:41.58	58.86	55.06	-36.7	-38.3	17.1	0.00e+00	0	60	0	1639972864	44	4455
2026-01-23 01:28:42.59	59.42	55.33	-36.8	-38.3	17.1	0.00e+00	0	60	0	1646264320	44	4479
2026-01-23 01:28:43.60	59.99	55.59	-36.8	-38.4	17.0	0.00e+00	0	60	0	1651507200	44	4524
2026-01-23 01:28:44.61	60.56	55.85	-36.9	-38.5	16.9	0.00e+00	0	60	0	1657798656	44	4590
2026-01-23 01:28:45.62	61.15	56.11	-37.1	-38.8	16.7	0.00e+00	0	60	0	1663041536	44	4736
2026-01-23 01:28:46.62	61.74	56.36	-37.1	-38.7	16.7	0.00e+00	0	60	0	1669332992	44	4680
2026-01-23 01:28:47.63	62.35	56.62	-37.1	-38.7	16.7	0.00e+00	0	60	0	1674575872	44	4687
2026-01-23 01:28:48.64	62.97	56.87	-37.0	-38.6	16.9	0.00e+00	0	60	0	1679818752	44	4612
2026-01-23 01:28:49.65	63.61	57.12	-37.0	-38.5	16.9	0.00e+00	0	60	0	1686110208	44	4589
2026-01-23 01:28:50.66	64.25	57.37	-36.7	-38.3	17.2	0.00e+00	0	60	0	1691353088	44	4455
2026-01-23 01:28:51.67	64.91	57.62	-36.8	-38.3	17.1	0.00e+00	0	60	0	1697644544	44	4493
2026-01-23 01:28:52.68	65.58	57.86	-36.8	-38.4	17.0	0.00e+00	0	60	0	1702887424	44	4523
2026-01-23 01:28:53.69	66.26	58.10	-36.6	-38.1	17.3	0.00e+00	0	60	0	1708130304	44	4362
2026-01-23 01:28:54.70	66.95	58.34	-36.5	-38.0	17.5	0.00e+00	0	60	0	1714421760	44	4313
2026-01-23 01:28:55.71	67.65	58.58	-36.4	-37.9	17.6	0.00e+00	0	60	0	1719664640	44	4245
2026-01-23 01:28:56.72	68.37	58.81	-36.5	-38.0	17.4	0.00e+00	0	60	0	1725956096	44	4320
2026-01-23 01:28:57.73	69.10	59.04	-36.5	-38.0	17.4	0.00e+00	0	60	0	1731198976	44	4306
2026-01-23 01:28:58.74	69.84	59.26	-36.4	-37.9	17.5	0.00e+00	0	60	0	1736441856	44	4262
2026-01-23 01:28:59.75	70.60	59.49	-36.1	-37.5	17.9	0.00e+00	0	60	0	1742733312	44	4080
2026-01-23 01:29:00.76	71.36	59.70	-35.6	-37.0	18.2	0.00e+00	0	60	0	1747976192	43	4079
2026-01-23 01:29:01.77	72.15	59.92	-35.9	-37.4	17.9	0.00e+00	0	60	0	1754267648	43	4259
2026-01-23 01:29:02.78	72.94	60.13	-35.8	-37.3	18.0	0.00e+00	0	60	0	1759510528	43	4199
2026-01-23 01:29:03.79	73.75	60.33	-35.6	-37.0	18.2	0.00e+00	0	60	0	1765801984	43	4096
2026-01-23 01:29:04.80	74.57	60.54	-35.7	-37.1	18.1	0.00e+00	0	60	0	1771044864	43	4130
2026-01-23 01:29:05.81	75.40	60.73	-35.8	-37.2	18.0	0.00e+00	0	60	0	1777336320	43	4162
2026-01-23 01:29:06.82	76.24	60.93	-36.2	-37.8	17.4	0.00e+00	0	60	0	1782579200	43	4450
2026-01-23 01:29:07.83	77.10	61.11	-36.0	-37.6	17.5	0.00e+00	0	60	0	1787822080	43	4361
2026-01-23 01:29:08.84	77.97	61.30	-35.6	-37.0	18.1	0.00e+00	0	60	0	1794113536	43	4075
2026-01-23 01:29:09.85	78.86	61.47	-35.6	-37.0	18.2	0.00e+00	0	60	0	1799356416	43	4064
2026-01-23 01:29:10.86	79.75	61.64	-35.5	-36.9	18.2	0.00e+00	0	60	0	1805647872	43	4043
2026-01-23 01:29:11.86	80.65	61.81	-35.3	-36.6	18.5	0.00e+00	0	60	0	1810890752	42	4141
2026-01-23 01:29:12.87	81.57	61.97	-35.4	-36.8	18.3	0.00e+00	0	60	0	1816133632	42	4235
2026-01-23 01:29:13.88	82.50	62.12	-35.8	-37.3	17.9	0.00e+00	0	60	0	1822425088	42	4442
2026-01-23 01:29:14.90	83.46	62.27	-35.6	-37.0	18.1	0.00e+00	0	60	0	1827667968	42	4332
2026-01-23 01:29:15.90	84.40	62.41	-35.5	-36.9	18.3	0.00e+00	0	60	0	1832910848	42	4262
2026-01-23 01:29:16.91	85.37	62.55	-35.8	-37.3	17.9	0.00e+00	0	60	0	1839202304	42	4455
2026-01-23 01:29:17.92	86.35	62.68	-36.0	-37.5	17.7	0.00e+00	0	60	0	1844445184	42	4550
2026-01-23 01:29:18.94	87.34	62.80	-35.9	-37.3	17.8	0.00e+00	0	60	0	1850736640	42	4493
2026-01-23 01:29:19.94	88.33	62.91	-35.8	-37.3	17.9	0.00e+00	0	60	0	1855979520	42	4460
2026-01-23 01:29:20.95	89.34	63.02	-35.7	-37.1	18.0	0.00e+00	0	60	0	1862270976	42	4378
2026-01-23 01:29:21.96	90.35	63.12	-35.6	-37.1	18.0	0.00e+00	0	60	0	1867513856	42	4347
2026-01-23 01:29:22.97	91.37	63.22	-35.4	-36.8	18.3	0.00e+00	0	60	0	1873805312	42	4230
2026-01-23 01:29:23.98	92.40	63.30	-35.3	-36.7	18.4	0.00e+00	0	60	0	1879048192	42	4180
2026-01-23 01:29:24.99	93.44	63.38	-35.5	-36.9	18.3	0.00e+00	0	60	0	1884291072	42	4250
2026-01-23 01:29:26.00	94.49	63.45	-35.5	-36.9	18.3	0.00e+00	0	60	0	1890582528	42	4257
2026-01-23 01:29:27.01	95.54	63.52	-35.4	-36.8	18.4	0.00e+00	0	60	0	1895825408	42	4195
2026-01-23 01:29:28.02	96.59	63.57	-35.5	-36.9	18.3	0.00e+00	0	60	0	1902116864	42	4260
2026-01-23 01:29:29.03	97.65	63.62	-35.5	-36.9	18.2	0.00e+00	0	60	0	1907359744	42	4281
2026-01-23 01:29:30.03	98.71	63.66	-35.4	-36.8	18.3	0.00e+00	0	60	0	1912602624	42	4197
2026-01-23 01:29:31.04	99.78	63.69	-35.4	-36.8	18.3	0.00e+00	0	60	0	1918894080	42	4197
2026-01-23 01:29:32.05	100.85	63.71	-35.3	-36.6	18.5	0.00e+00	0	60	0	1924136960	42	4145
2026-01-23 01:29:33.06	101.92	63.73	-35.3	-36.7	18.4	0.00e+00	0	60	0	1930428416	42	4152
2026-01-23 01:29:34.07	102.99	63.74	-35.2	-36.6	18.5	0.00e+00	0	60	0	1935671296	42	4123
2026-01-23 01:29:35.08	104.07	63.73	-35.3	-36.7	18.4	0.00e+00	0	60	0	1940914176	42	4176
2026-01-23 01:29:36.09	105.14	63.73	-35.4	-36.8	18.3	0.00e+00	0	60	0	1947205632	42	4218
2026-01-23 01:29:37.10	106.21	63.71	-35.5	-36.9	18.2	0.00e+00	0	60	0	1952448512	42	4266
2026-01-23 01:29:38.11	107.28	63.68	-35.5	-36.9	18.2	0.00e+00	0	60	0	1958739968	42	4277
2026-01-23 01:29:39.12	108.35	63.65	-35.6	-37.0	18.1	0.00e+00	0	60	0	1963982848	42	4316
2026-01-23 01:29:40.14	109.42	63.61	-35.6	-37.0	18.0	0.00e+00	0	60	0	1970274304	42	4330
2026-01-23 01:29:41.15	110.48	63.56	-35.7	-37.1	17.9	0.00e+00	0	60	0	1975517184	42	4378
2026-01-23 01:29:42.15	111.53	63.50	-35.7	-37.2	17.9	0.00e+00	0	60	0	1980760064	42	4402
2026-01-23 01:29:43.16	112.58	63.44	-35.6	-37.1	18.0	0.00e+00	0	60	0	1987051520	42	4368
2026-01-23 01:29:44.18	113.63	63.36	-35.6	-37.0	18.1	0.00e+00	0	60	0	1992294400	42	4323
2026-01-23 01:29:45.19	114.67	63.28	-35.4	-36.8	18.3	0.00e+00	0	60	0	1998585856	42	4210
2026-01-23 01:29:46.20	115.70	63.20	-35.5	-36.9	18.3	0.00e+00	0	60	0	2003828736	42	4247
2026-01-23 01:29:47.20	116.71	63.10	-35.5	-36.9	18.2	0.00e+00	0	60	0	2009071616	42	4279
2026-01-23 01:29:48.21	117.73	63.00	-35.5	-36.9	18.2	0.00e+00	0	60	0	2015363072	42	4251
2026-01-23 01:29:49.22	118.73	62.89	-35.3	-36.7	18.3	0.00e+00	0	60	0	2020605952	42	4182
2026-01-23 01:29:50.23	119.73	62.77	-35.6	-37.0	18.1	0.00e+00	0	60	0	2026897408	42	4306
2026-01-23 01:29:51.24	120.71	62.65	-35.5	-36.9	18.2	0.00e+00	0	60	0	2032140288	42	4283
2026-01-23 01:29:52.25	121.69	62.52	-35.5	-37.0	18.1	0.00e+00	0	60	0	2037383168	42	4295
2026-01-23 01:29:53.26	122.65	62.38	-35.7	-37.2	17.9	0.00e+00	0	61	0	2043674624	42	4396
2026-01-23 01:29:54.27	123.60	62.24	-35.7	-37.1	17.9	0.00e+00	0	60	0	2048917504	42	4385
2026-01-23 01:29:55.28	124.55	62.09	-35.6	-37.0	18.1	0.00e+00	0	60	0	2055208960	42	4298
2026-01-23 01:29:56.29	125.48	61.93	-35.5	-36.9	18.2	0.00e+00	0	60	0	2060451840	42	4280
2026-01-23 01:29:57.30	126.40	61.77	-35.4	-36.8	18.3	0.00e+00	0	60	0	2066743296	42	4221
2026-01-23 01:29:58.31	127.30	61.60	-35.3	-36.7	18.3	0.00e+00	0	60	0	2071986176	42	4180
2026-01-23 01:29:59.32	128.20	61.43	-35.3	-36.7	18.4	0.00e+00	0	60	0	2078277632	42	4155
2026-01-23 01:30:00.33	129.08	61.25	-35.4	-36.8	18.3	0.00e+00	0	60	0	2083520512	42	4216
2026-01-23 01:30:01.33	129.94	61.07	-35.5	-37.0	18.1	0.00e+00	0	60	0	2088763392	42	4296
2026-01-23 01:30:02.34	130.80	60.88	-35.6	-37.0	18.1	0.00e+00	0	60	0	2095054848	42	4305
2026-01-23 01:30:03.35	131.64	60.69	-35.5	-36.9	18.2	0.00e+00	0	60	0	2100297728	42	4256
2026-01-23 01:30:04.36	132.47	60.49	-35.6	-37.0	18.1	0.00e+00	0	60	0	2105540608	42	4340
2026-01-23 01:30:05.36	133.28	60.29	-35.9	-37.4	17.7	0.00e+00	0	60	0	2111832064	42	4520
2026-01-23 01:30:06.37	134.09	60.08	-36.0	-37.5	17.7	0.00e+00	0	60	0	2117074944	42	4553
2026-01-23 01:30:07.38	134.88	59.87	-35.7	-37.1	18.0	0.00e+00	0	60	0	2123366400	42	4346
2026-01-23 01:30:08.39	135.66	59.65	-35.7	-37.1	18.0	0.00e+00	0	60	0	2128609280	42	4349
2026-01-23 01:30:09.40	136.42	59.43	-35.9	-37.4	17.7	0.00e+00	0	60	0	2133852160	42	4519
2026-01-23 01:30:10.42	137.18	59.21	-36.0	-37.5	17.6	0.00e+00	0	60	0	2140143616	42	4589
2026-01-23 01:30:11.43	137.92	58.98	-36.1	-37.6	17.5	0.00e+00	0	60	0	2145386496	42	4616
2026-01-23 01:30:12.43	138.65	58.75	-36.1	-37.5	17.6	0.00e+00	0	61	0	2151677952	42	4592
2026-01-23 01:30:13.44	139.36	58.52	-36.0	-37.4	17.7	0.00e+00	0	61	0	2156920832	42	4532
2026-01-23 01:30:14.45	140.06	58.28	-36.0	-37.5	17.6	0.00e+00	0	60	0	2163212288	42	4579
2026-01-23 01:30:15.46	140.75	58.04	-36.3	-37.8	17.3	0.00e+00	0	60	0	2168455168	43	4463
2026-01-23 01:30:16.47	141.43	57.80	-36.0	-37.5	17.6	0.00e+00	0	60	0	2174746624	43	4324
2026-01-23 01:30:17.48	142.10	57.55	-35.9	-37.3	17.8	0.00e+00	0	60	0	2179989504	43	4209
2026-01-23 01:30:18.49	142.75	57.30	-36.1	-37.5	17.6	0.00e+00	0	60	0	2185232384	43	4336
2026-01-23 01:30:19.50	143.40	57.05	-36.3	-37.8	17.3	0.00e+00	0	60	0	2191523840	43	4489
2026-01-23 01:30:20.51	144.03	56.80	-36.2	-37.7	17.3	0.00e+00	0	60	0	2196766720	43	4436
2026-01-23 01:30:21.52	144.65	56.55	-36.3	-37.8	17.3	0.00e+00	0	60	0	2203058176	43	4464
2026-01-23 01:30:22.53	145.26	56.29	-36.4	-38.0	17.1	0.00e+00	0	60	0	2208301056	43	4562
2026-01-23 01:30:23.54	145.85	56.03	-36.6	-38.2	16.9	0.00e+00	0	61	0	2213543936	43	4670
2026-01-23 01:30:24.55	146.44	55.77	-36.6	-38.2	16.9	0.00e+00	0	60	0	2219835392	43	4691
2026-01-23 01:30:25.56	147.02	55.51	-36.7	-38.3	16.8	0.00e+00	0	60	0	2225078272	43	4710
2026-01-23 01:30:26.57	147.58	55.25	-36.6	-38.1	17.0	0.00e+00	0	61	0	2231369728	43	4637
2026-01-23 01:30:27.58	148.13	54.98	-36.6	-38.2	16.9	0.00e+00	0	60	0	2236612608	43	4679
2026-01-23 01:30:28.59	148.68	54.72	-37.0	-38.6	16.6	0.00e+00	0	60	0	2241855488	44	4646
2026-01-23 01:30:29.59	149.21	54.45	-36.8	-38.4	16.8	0.00e+00	0	60	0	2248146944	44	4522
2026-01-23 01:30:30.60	149.73	54.19	-36.7	-38.3	16.9	0.00e+00	0	60	0	2253389824	44	4446
2026-01-23 01:30:31.61	150.25	53.92	-36.7	-38.3	16.9	0.00e+00	0	60	0	2259681280	44	4474
2026-01-23 01:30:32.62	150.76	53.65	-36.8	-38.4	16.8	0.00e+00	0	61	0	2264924160	44	4529
2026-01-23 01:30:33.63	151.25	53.38	-36.7	-38.3	16.9	0.00e+00	0	60	0	2271215616	44	4457
2026-01-23 01:30:34.64	151.74	53.11	-36.6	-38.2	17.0	0.00e+00	0	60	0	2276458496	44	4440
2026-01-23 01:30:35.65	152.22	52.84	-36.5	-38.1	17.1	0.00e+00	0	60	0	2281701376	44	4353
2026-01-23 01:30:36.66	152.69	52.56	-36.5	-38.0	17.2	0.00e+00	0	61	0	2287992832	44	4317
2026-01-23 01:30:37.67	153.15	52.29	-36.5	-38.0	17.2	0.00e+00	0	60	0	2293235712	44	4306
2026-01-23 01:30:38.68	153.60	52.02	-36.5	-38.0	17.2	0.00e+00	0	61	0	2299527168	44	4312
2026-01-23 01:30:39.69	154.05	51.75	-36.3	-37.8	17.4	0.00e+00	0	60	0	2304770048	44	4220
2026-01-23 01:30:40.70	154.48	51.47	-36.2	-37.7	17.5	0.00e+00	0	60	0	2310012928	44	4167
2026-01-23 01:30:41.71	154.91	51.20	-36.2	-37.6	17.6	0.00e+00	0	60	0	2316304384	44	4131
2026-01-23 01:30:42.72	155.33	50.93	-36.2	-37.7	17.6	0.00e+00	0	61	0	2321547264	44	4153
2026-01-23 01:30:43.73	155.75	50.65	-36.2	-37.7	17.5	0.00e+00	0	60	0	2327838720	44	4191
2026-01-23 01:30:44.74	156.16	50.38	-36.3	-37.8	17.4	0.00e+00	0	60	0	2333081600	44	4240
2026-01-23 01:30:45.75	156.55	50.11	-36.1	-37.6	17.6	0.00e+00	0	60	0	2338324480	44	4142
2026-01-23 01:30:46.76	156.95	49.83	-36.0	-37.5	17.8	0.00e+00	0	60	0	2344615936	44	4056
2026-01-23 01:30:47.77	157.33	49.56	-36.0	-37.5	17.7	0.00e+00	0	61	0	2349858816	44	4052
2026-01-23 01:30:48.77	157.71	49.29	-36.1	-37.5	17.6	0.00e+00	0	61	0	2356150272	44	4098
2026-01-23 01:30:49.78	158.08	49.02	-36.0	-37.5	17.7	0.00e+00	0	61	0	2361393152	44	4068
2026-01-23 01:30:50.79	158.45	48.75	-36.1	-37.5	17.7	0.00e+00	0	60	0	2367684608	44	4092
2026-01-23 01:30:51.80	158.80	48.48	-36.0	-37.5	17.7	0.00e+00	0	61	0	2372927488	44	4084
2026-01-23 01:30:52.81	159.16	48.21	-35.8	-37.3	17.7	0.00e+00	0	60	0	2379218944	43	4211
2026-01-23 01:30:53.82	159.50	47.94	-35.8	-37.3	17.7	0.00e+00	0	60	0	2384461824	43	4215
2026-01-23 01:30:54.83	159.85	47.67	-35.8	-37.3	17.7	0.00e+00	0	60	0	2389704704	43	4207
2026-01-23 01:30:55.84	160.18	47.40	-35.7	-37.2	17.8	0.00e+00	0	61	0	2395996160	43	4149
2026-01-23 01:30:56.85	160.51	47.13	-35.6	-37.1	17.9	0.00e+00	0	60	0	2401239040	43	4103
2026-01-23 01:30:57.86	160.84	46.87	-35.7	-37.2	17.7	0.00e+00	0	61	0	2406481920	43	4175
2026-01-23 01:30:58.86	161.15	46.60	-35.7	-37.2	17.7	0.00e+00	0	60	0	2412773376	43	4164
2026-01-23 01:30:59.87	161.47	46.34	-35.8	-37.3	17.6	0.00e+00	0	61	0	2418016256	43	4223
2026-01-23 01:31:00.88	161.77	46.07	-35.9	-37.5	17.5	0.00e+00	0	61	0	2424307712	43	4294
2026-01-23 01:31:01.89	162.08	45.81	-35.7	-37.2	17.7	0.00e+00	0	60	0	2429550592	43	4189
2026-01-23 01:31:02.90	162.38	45.54	-35.7	-37.1	17.8	0.00e+00	0	60	0	2434793472	43	4141
2026-01-23 01:31:03.91	162.67	45.28	-35.5	-36.9	18.0	0.00e+00	0	61	0	2441084928	43	4010
2026-01-23 01:31:04.92	162.96	45.02	-35.4	-36.8	18.2	0.00e+00	0	60	0	2446327808	42	4197
2026-01-23 01:31:05.93	163.24	44.76	-35.5	-36.9	18.1	0.00e+00	0	60	0	2452619264	42	4251
2026-01-23 01:31:06.94	163.52	44.50	-35.5	-36.9	18.0	0.00e+00	0	60	0	2457862144	42	4276
2026-01-23 01:31:07.95	163.80	44.24	-35.6	-37.0	17.9	0.00e+00	0	60	0	2464153600	42	4337
2026-01-23 01:31:08.96	164.07	43.98	-35.7	-37.2	17.7	0.00e+00	0	61	0	2469396480	42	4419
2026-01-23 01:31:09.97	164.34	43.73	-35.7	-37.2	17.7	0.00e+00	0	60	0	2475687936	42	4429
2026-01-23 01:31:10.98	164.60	43.47	-35.6	-37.1	17.9	0.00e+00	0	61	0	2480930816	42	4356
2026-01-23 01:31:11.99	164.86	43.22	-35.4	-36.8	18.1	0.00e+00	0	61	0	2486173696	42	4222
2026-01-23 01:31:13.00	165.11	42.96	-35.3	-36.7	18.2	0.00e+00	0	61	0	2492465152	42	4180
2026-01-23 01:31:14.01	165.36	42.71	-35.4	-36.8	18.1	0.00e+00	0	60	0	2497708032	42	4206
2026-01-23 01:31:15.01	165.61	42.46	-35.4	-36.9	18.1	0.00e+00	0	60	0	2503999488	42	4244
2026-01-23 01:31:16.02	165.85	42.21	-35.5	-37.0	17.9	0.00e+00	0	60	0	2509242368	42	4312
2026-01-23 01:31:17.03	166.09	41.96	-35.5	-36.9	18.0	0.00e+00	0	60	0	2514485248	42	4283
2026-01-23 01:31:18.04	166.32	41.72	-35.4	-36.8	18.0	0.00e+00	0	61	0	2520776704	42	4240
2026-01-23 01:31:19.05	166.56	41.47	-35.4	-36.9	18.0	0.00e+00	0	61	0	2526019584	42	4249
2026-01-23 01:31:20.06	166.78	41.22	-35.3	-36.7	18.1	0.00e+00	0	61	0	2532311040	42	4180
2026-01-23 01:31:21.07	167.01	40.98	-35.3	-36.7	18.1	0.00e+00	0	61	0	2537553920	42	4160
2026-01-23 01:31:22.08	167.23	40.74	-35.3	-36.7	18.1	0.00e+00	0	60	0	2542796800	42	4170
2026-01-23 01:31:23.09	167.45	40.49	-35.3	-36.8	18.1	0.00e+00	0	61	0	2549088256	42	4197
2026-01-23 01:31:24.10	167.67	40.25	-35.4	-36.8	18.0	0.00e+00	0	61	0	2554331136	42	4230
2026-01-23 01:31:25.11	167.88	40.01	-35.3	-36.7	18.1	0.00e+00	0	60	0	2560622592	42	4172
2026-01-23 01:31:26.12	168.09	39.78	-35.3	-36.8	18.1	0.00e+00	0	61	0	2565865472	42	4195
2026-01-23 01:31:27.13	168.29	39.54	-35.3	-36.7	18.1	0.00e+00	0	60	0	2572156928	42	4176
2026-01-23 01:31:28.14	168.50	39.30	-35.4	-36.8	18.1	0.00e+00	0	60	0	2577399808	42	4217
2026-01-23 01:31:29.15	168.70	39.07	-35.4	-36.8	18.0	0.00e+00	0	61	0	2582642688	42	4236
2026-01-23 01:31:30.16	168.90	38.83	-35.3	-36.8	18.1	0.00e+00	0	61	0	2588934144	42	4215
2026-01-23 01:31:31.17	169.09	38.60	-35.3	-36.8	18.1	0.00e+00	0	60	0	2594177024	42	4215
2026-01-23 01:31:32.18	169.28	38.37	-35.3	-36.7	18.1	0.00e+00	0	60	0	2600468480	42	4192
2026-01-23 01:31:33.19	169.47	38.14	-35.1	-36.5	18.3	0.00e+00	0	60	0	2605711360	42	4077
2026-01-23 01:31:34.20	169.66	37.91	-34.9	-36.3	18.5	0.00e+00	0	61	0	2610954240	41	4194
2026-01-23 01:31:35.21	169.85	37.69	-34.9	-36.2	18.6	0.00e+00	0	61	0	2617245696	41	4174
2026-01-23 01:31:36.22	170.03	37.46	-34.8	-36.2	18.6	0.00e+00	0	60	0	2622488576	41	4172
2026-01-23 01:31:37.23	170.21	37.23	-34.9	-36.2	18.5	0.00e+00	0	60	0	2628780032	41	4186
2026-01-23 01:31:38.24	170.39	37.01	-34.8	-36.2	18.5	0.00e+00	0	61	0	2634022912	41	4166
2026-01-23 01:31:39.25	170.56	36.79	-34.9	-36.3	18.5	0.00e+00	0	61	0	2639265792	41	4204
2026-01-23 01:31:40.26	170.73	36.57	-35.0	-36.3	18.4	0.00e+00	0	61	0	2645557248	41	4236
2026-01-23 01:31:41.26	170.90	36.35	-35.0	-36.4	18.3	0.00e+00	0	61	0	2650800128	41	4284
2026-01-23 01:31:42.27	171.07	36.13	-35.1	-36.5	18.2	0.00e+00	0	61	0	2657091584	41	4326
2026-01-23 01:31:43.28	171.24	35.91	-35.2	-36.6	18.2	0.00e+00	0	60	0	2662334464	41	4371
2026-01-23 01:31:44.29	171.40	35.70	-35.2	-36.6	18.1	0.00e+00	0	61	0	2668625920	41	4385
2026-01-23 01:31:45.30	171.56	35.48	-35.1	-36.5	18.2	0.00e+00	0	60	0	2673868800	41	4330
2026-01-23 01:31:46.31	171.72	35.27	-35.1	-36.5	18.3	0.00e+00	0	61	0	2680160256	41	4299
2026-01-23 01:31:47.32	171.88	35.05	-35.1	-36.5	18.2	0.00e+00	0	61	0	2685403136	41	4331
2026-01-23 01:31:48.33	172.03	34.84	-35.1	-36.5	18.3	0.00e+00	0	60	0	2690646016	41	4319
2026-01-23 01:31:49.34	172.19	34.63	-35.2	-36.6	18.2	0.00e+00	0	61	0	2696937472	41	4359
2026-01-23 01:31:50.35	172.34	34.42	-35.2	-36.7	18.1	0.00e+00	0	61	0	2702180352	41	4394
2026-01-23 01:31:51.36	172.49	34.21	-35.3	-36.7	18.1	0.00e+00	0	60	0	2708471808	41	4420
2026-01-23 01:31:52.37	172.64	34.01	-35.4	-36.8	18.0	0.00e+00	0	61	0	2713714688	41	4484
2026-01-23 01:31:53.38	172.78	33.80	-35.4	-36.9	17.9	0.00e+00	0	61	0	2718957568	41	4512
2026-01-23 01:31:54.39	172.93	33.60	-35.4	-36.9	17.9	0.00e+00	0	60	0	2725249024	41	4497
2026-01-23 01:31:55.40	173.07	33.39	-35.3	-36.8	17.9	0.00e+00	0	61	0	2730491904	41	4459
2026-01-23 01:31:56.41	173.21	33.19	-35.3	-36.8	18.0	0.00e+00	0	60	0	2736783360	41	4452
2026-01-23 01:31:57.42	173.35	32.99	-35.4	-36.9	17.9	0.00e+00	0	61	0	2742026240	41	4495
2026-01-23 01:31:58.43	173.49	32.79	-35.3	-36.8	17.9	0.00e+00	0	61	0	2747269120	41	4447
2026-01-23 01:31:59.43	173.62	32.59	-35.4	-36.9	17.9	0.00e+00	0	61	0	2753560576	41	4501
2026-01-23 01:32:00.44	173.76	32.40	-35.4	-36.8	17.9	0.00e+00	0	61	0	2758803456	41	4489
2026-01-23 01:32:01.45	173.89	32.20	-35.4	-36.9	17.8	0.00e+00	0	60	0	2765094912	41	4499
2026-01-23 01:32:02.46	174.02	32.00	-35.5	-37.0	17.7	0.00e+00	0	61	0	2770337792	41	4578
2026-01-23 01:32:03.47	174.15	31.81	-35.6	-37.1	17.6	0.00e+00	0	60	0	2776629248	41	4623
2026-01-23 01:32:04.48	174.28	31.62	-35.7	-37.2	17.6	0.00e+00	0	61	0	2781872128	41	4679
2026-01-23 01:32:05.49	174.41	31.42	-35.7	-37.3	17.5	0.00e+00	0	61	0	2787115008	42	4458
2026-01-23 01:32:06.50	174.53	31.23	-35.8	-37.3	17.4	0.00e+00	0	61	0	2793406464	42	4483
2026-01-23 01:32:07.51	174.66	31.04	-35.8	-37.3	17.4	0.00e+00	0	61	0	2798649344	42	4467
2026-01-23 01:32:08.52	174.78	30.86	-35.8	-37.3	17.4	0.00e+00	0	60	0	2804940800	42	4478
2026-01-23 01:32:09.53	174.90	30.67	-35.8	-37.3	17.4	0.00e+00	0	61	0	2810183680	42	4484
2026-01-23 01:32:10.54	175.02	30.48	-35.7	-37.3	17.5	0.00e+00	0	60	0	2815426560	42	4451
2026-01-23 01:32:11.55	175.14	30.30	-35.8	-37.3	17.5	0.00e+00	0	61	0	2821718016	42	4462
2026-01-23 01:32:12.56	175.26	30.11	-35.8	-37.3	17.5	0.00e+00	0	61	0	2826960896	42	4457
2026-01-23 01:32:13.57	175.37	29.93	-35.7	-37.2	17.6	0.00e+00	0	61	0	2833252352	42	4403
2026-01-23 01:32:14.58	175.49	29.75	-35.6	-37.1	17.7	0.00e+00	0	61	0	2838495232	42	4351
2026-01-23 01:32:15.59	175.60	29.56	-35.7	-37.2	17.6	0.00e+00	0	61	0	2843738112	42	4400
2026-01-23 01:32:16.60	175.71	29.38	-35.6	-37.1	17.6	0.00e+00	0	60	0	2850029568	42	4383
2026-01-23 01:32:17.61	175.82	29.20	-35.6	-37.2	17.6	0.00e+00	0	61	0	2855272448	42	4393
2026-01-23 01:32:18.62	175.93	29.03	-35.7	-37.2	17.6	0.00e+00	0	60	0	2861563904	42	4406
2026-01-23 01:32:19.63	176.04	28.85	-35.7	-37.3	17.5	0.00e+00	0	60	0	2866806784	42	4448
2026-01-23 01:32:20.64	176.15	28.67	-35.8	-37.3	17.4	0.00e+00	0	61	0	2873098240	42	4490
2026-01-23 01:32:21.65	176.26	28.50	-35.7	-37.3	17.5	0.00e+00	0	60	0	2878341120	42	4446
2026-01-23 01:32:22.66	176.36	28.32	-35.6	-37.2	17.6	0.00e+00	0	61	0	2883584000	42	4399
2026-01-23 01:32:23.67	176.47	28.15	-35.6	-37.1	17.6	0.00e+00	0	61	0	2889875456	42	4386
2026-01-23 01:32:24.68	176.57	27.98	-35.6	-37.2	17.6	0.00e+00	0	61	0	2895118336	42	4397
2026-01-23 01:32:25.69	176.67	27.81	-35.6	-37.1	17.6	0.00e+00	0	61	0	2901409792	42	4360
2026-01-23 01:32:26.70	176.77	27.64	-35.6	-37.1	17.6	0.00e+00	0	61	0	2906652672	42	4358
2026-01-23 01:32:27.71	176.87	27.47	-35.6	-37.1	17.7	0.00e+00	0	61	0	2912944128	42	4343
2026-01-23 01:32:28.72	176.97	27.30	-35.7	-37.2	17.5	0.00e+00	0	61	0	2918187008	42	4408
2026-01-23 01:32:29.73	177.07	27.13	-35.6	-37.1	17.6	0.00e+00	0	61	0	2923429888	42	4369
2026-01-23 01:32:30.74	177.17	26.97	-35.6	-37.1	17.6	0.00e+00	0	61	0	2929721344	42	4382
2026-01-23 01:32:31.75	177.26	26.80	-35.6	-37.1	17.6	0.00e+00	0	61	0	2934964224	42	4369
2026-01-23 01:32:32.76	177.36	26.64	-35.6	-37.2	17.6	0.00e+00	0	61	0	2941255680	42	4395
2026-01-23 01:32:33.77	177.45	26.47	-35.6	-37.2	17.5	0.00e+00	0	61	0	2946498560	42	4401
2026-01-23 01:32:34.78	177.54	26.31	-35.7	-37.3	17.4	0.00e+00	0	61	0	2951741440	42	4446
2026-01-23 01:32:35.79	177.64	26.15	-35.8	-37.3	17.4	0.00e+00	0	61	0	2958032896	42	4482
2026-01-23 01:32:36.80	177.73	25.99	-35.8	-37.3	17.4	0.00e+00	0	61	0	2963275776	42	4487
2026-01-23 01:32:37.81	177.82	25.83	-35.8	-37.3	17.4	0.00e+00	0	61	0	2969567232	42	4479
2026-01-23 01:32:38.82	177.91	25.67	-35.8	-37.3	17.3	0.00e+00	0	61	0	2974810112	42	4488
2026-01-23 01:32:39.83	178.00	25.51	-35.8	-37.3	17.3	0.00e+00	0	61	0	2981101568	42	4487
2026-01-23 01:32:40.84	178.08	25.35	-35.9	-37.4	17.2	0.00e+00	0	60	0	2986344448	42	4528
2026-01-23 01:32:41.85	178.17	25.19	-35.8	-37.4	17.3	0.00e+00	0	61	0	2991587328	42	4506
2026-01-23 01:32:42.86	178.26	25.04	-35.9	-37.4	17.3	0.00e+00	0	60	0	2997878784	42	4510
2026-01-23 01:32:43.87	178.34	24.88	-35.9	-37.4	17.2	0.00e+00	0	60	0	3003121664	42	4525
2026-01-23 01:32:44.88	178.43	24.73	-35.8	-37.3	17.4	0.00e+00	0	60	0	3009413120	42	4464
2026-01-23 01:32:45.89	178.51	24.58	-35.7	-37.2	17.4	0.00e+00	0	60	0	3014656000	42	4421
2026-01-23 01:32:46.90	178.60	24.42	-35.7	-37.2	17.4	0.00e+00	0	61	0	3019898880	42	4417
2026-01-23 01:32:47.91	178.68	24.27	-35.8	-37.3	17.3	0.00e+00	0	61	0	3026190336	42	4491
2026-01-23 01:32:48.92	178.76	24.12	-35.8	-37.3	17.4	0.00e+00	0	61	0	3031433216	42	4461
2026-01-23 01:32:49.93	178.84	23.97	-35.8	-37.3	17.3	0.00e+00	0	61	0	3037724672	42	4488
2026-01-23 01:32:50.94	178.92	23.82	-35.8	-37.3	17.3	0.00e+00	0	61	0	3042967552	42	4482
2026-01-23 01:32:51.95	179.00	23.68	-35.9	-37.4	17.2	0.00e+00	0	61	0	3048210432	42	4540
2026-01-23 01:32:52.97	179.08	23.53	-36.0	-37.5	17.1	0.00e+00	0	61	0	3054501888	42	4588
2026-01-23 01:32:53.97	179.16	23.38	-36.0	-37.5	17.1	0.00e+00	0	61	0	3059744768	42	4591
2026-01-23 01:32:54.98	179.23	23.24	-36.0	-37.6	17.0	0.00e+00	0	60	0	3066036224	42	4634
2026-01-23 01:32:55.99	179.31	23.09	-36.2	-37.8	16.9	0.00e+00	0	61	0	3071279104	42	4736
2026-01-23 01:32:57.00	179.39	22.95	-36.2	-37.8	16.8	0.00e+00	0	61	0	3077570560	42	4746
2026-01-23 01:32:58.01	179.46	22.80	-36.1	-37.8	16.9	0.00e+00	0	61	0	3082813440	43	4449
2026-01-23 01:32:59.02	179.54	22.66	-36.2	-37.8	16.8	0.00e+00	0	61	0	3089104896	43	4457
2026-01-23 01:33:00.03	179.61	22.52	-36.2	-37.8	16.8	0.00e+00	0	61	0	3094347776	43	4483
2026-01-23 01:33:01.04	179.68	22.38	-36.3	-37.9	16.7	0.00e+00	0	61	0	3099590656	43	4543
2026-01-23 01:33:02.05	179.76	22.23	-36.3	-37.9	16.7	0.00e+00	0	60	0	3105882112	43	4533
2026-01-23 01:33:03.05	179.83	22.10	-36.3	-37.9	16.7	0.00e+00	0	61	0	3111124992	43	4531
2026-01-23 01:33:04.06	179.90	21.96	-36.3	-37.9	16.7	0.00e+00	0	61	0	3117416448	43	4544
2026-01-23 01:33:05.08	179.97	21.82	-36.3	-38.0	16.6	0.00e+00	0	61	0	3122659328	43	4571
2026-01-23 01:33:06.09	180.04	21.68	-36.4	-38.1	16.6	0.00e+00	0	61	0	3127902208	43	4625
2026-01-23 01:33:07.10	180.11	21.54	-36.4	-38.1	16.5	0.00e+00	0	61	0	3134193664	43	4641
2026-01-23 01:33:08.11	180.18	21.41	-36.4	-38.1	16.6	0.00e+00	0	61	0	3139436544	43	4608
2026-01-23 01:33:09.11	180.25	21.27	-36.5	-38.1	16.5	0.00e+00	0	60	0	3145728000	43	4635
2026-01-23 01:33:10.12	180.31	21.14	-36.5	-38.2	16.5	0.00e+00	0	61	0	3150970880	43	4664
2026-01-23 01:33:11.13	180.38	21.00	-36.4	-38.1	16.5	0.00e+00	0	61	0	3156213760	43	4632
2026-01-23 01:33:12.14	180.45	20.87	-36.5	-38.2	16.5	0.00e+00	0	61	0	3162505216	43	4655
2026-01-23 01:33:13.15	180.51	20.74	-36.6	-38.2	16.4	0.00e+00	0	61	0	3167748096	43	4700
2026-01-23 01:33:14.16	180.58	20.60	-36.6	-38.3	16.4	0.00e+00	0	61	0	3174039552	43	4708
2026-01-23 01:33:15.17	180.65	20.47	-36.6	-38.3	16.4	0.00e+00	0	61	0	3179282432	43	4706
2026-01-23 01:33:16.18	180.71	20.34	-36.7	-38.4	16.3	0.00e+00	0	61	0	3185573888	43	4778
2026-01-23 01:33:17.19	180.77	20.21	-36.9	-38.6	16.2	0.00e+00	0	61	0	3190816768	44	4623
2026-01-23 01:33:18.20	180.84	20.08	-36.9	-38.6	16.2	0.00e+00	0	61	0	3196059648	44	4619
2026-01-23 01:33:19.21	180.90	19.95	-36.9	-38.7	16.1	0.00e+00	0	61	0	3202351104	44	4661
2026-01-23 01:33:20.22	180.96	19.82	-37.0	-38.8	16.0	0.00e+00	0	61	0	3207593984	44	4711
2026-01-23 01:33:21.22	181.03	19.70	-37.0	-38.8	16.0	0.00e+00	0	60	0	3213885440	44	4724
2026-01-23 01:33:22.23	181.09	19.57	-36.9	-38.7	16.1	0.00e+00	0	60	0	3219128320	44	4672
2026-01-23 01:33:23.24	181.15	19.44	-36.9	-38.7	16.1	0.00e+00	0	60	0	3224371200	44	4666
2026-01-23 01:33:24.25	181.21	19.32	-37.0	-38.7	16.0	0.00e+00	0	61	0	3230662656	44	4696
2026-01-23 01:33:25.26	181.27	19.19	-37.1	-38.8	16.0	0.00e+00	0	61	0	3235905536	44	4747
2026-01-23 01:33:26.27	181.33	19.07	-37.1	-38.8	16.0	0.00e+00	0	61	0	3242196992	44	4745
2026-01-23 01:33:27.29	181.39	18.94	-37.1	-38.9	15.9	0.00e+00	0	61	0	3247439872	44	4774
2026-01-23 01:33:28.29	181.45	18.82	-37.2	-38.9	15.9	0.00e+00	0	60	0	3252682752	44	4808
2026-01-23 01:33:29.30	181.51	18.70	-37.1	-38.9	15.9	0.00e+00	0	61	0	3258974208	44	4793
2026-01-23 01:33:30.31	181.56	18.57	-37.2	-38.9	15.9	0.00e+00	0	61	0	3264217088	44	4811
2026-01-23 01:33:31.32	181.62	18.45	-37.1	-38.9	15.9	0.00e+00	0	61	0	3270508544	44	4797
2026-01-23 01:33:32.33	181.68	18.33	-37.1	-38.9	15.9	0.00e+00	0	61	0	3275751424	44	4791
2026-01-23 01:33:33.34	181.73	18.21	-37.2	-39.0	15.9	0.00e+00	0	61	0	3280994304	44	4816
2026-01-23 01:33:34.35	181.79	18.09	-37.2	-39.0	15.8	0.00e+00	0	61	0	3287285760	44	4834
2026-01-23 01:33:35.36	181.85	17.97	-37.3	-39.0	15.7	0.00e+00	0	61	0	3292528640	45	4596
2026-01-23 01:33:36.37	181.90	17.85	-37.2	-39.0	15.8	0.00e+00	0	61	0	3298820096	45	4565
2026-01-23 01:33:37.38	181.96	17.73	-37.2	-39.0	15.8	0.00e+00	0	61	0	3304062976	45	4566
2026-01-23 01:33:38.39	182.01	17.62	-37.3	-39.1	15.7	0.00e+00	0	61	0	3310354432	45	4602
2026-01-23 01:33:39.40	182.07	17.50	-37.3	-39.1	15.7	0.00e+00	0	61	0	3315597312	45	4629
2026-01-23 01:33:40.41	182.12	17.38	-37.3	-39.1	15.7	0.00e+00	0	61	0	3321888768	45	4638
2026-01-23 01:33:41.42	182.17	17.27	-37.3	-39.1	15.7	0.00e+00	0	60	0	3327131648	45	4603
2026-01-23 01:33:42.43	182.23	17.15	-37.3	-39.1	15.7	0.00e+00	0	61	0	3332374528	45	4609
2026-01-23 01:33:43.44	182.28	17.03	-37.3	-39.2	15.6	0.00e+00	0	61	0	3338665984	45	4657
2026-01-23 01:33:44.45	182.33	16.92	-37.4	-39.2	15.5	0.00e+00	0	61	0	3343908864	45	4698
2026-01-23 01:33:45.46	182.38	16.81	-37.5	-39.3	15.5	0.00e+00	0	61	0	3350200320	45	4750
2026-01-23 01:33:46.47	182.43	16.69	-37.5	-39.4	15.5	0.00e+00	0	61	0	3355443200	45	4765
2026-01-23 01:33:47.48	182.49	16.58	-37.5	-39.3	15.5	0.00e+00	0	61	0	3360686080	45	4747
2026-01-23 01:33:48.49	182.54	16.47	-37.6	-39.4	15.3	0.00e+00	0	61	0	3366977536	45	4814
2026-01-23 01:33:49.50	182.59	16.35	-37.6	-39.5	15.3	0.00e+00	0	61	0	3372220416	45	4853
2026-01-23 01:33:50.51	182.64	16.24	-37.6	-39.5	15.3	0.00e+00	0	61	0	3378511872	45	4851
2026-01-23 01:33:51.52	182.69	16.13	-37.6	-39.5	15.2	0.00e+00	0	61	0	3383754752	45	4862
2026-01-23 01:33:52.53	182.74	16.02	-37.7	-39.6	15.2	0.00e+00	0	61	0	3388997632	45	4896
2026-01-23 01:33:53.54	182.79	15.91	-37.8	-39.7	15.1	0.00e+00	0	61	0	3395289088	46	4674
2026-01-23 01:33:54.55	182.83	15.80	-37.8	-39.7	15.1	0.00e+00	0	61	0	3400531968	46	4693
2026-01-23 01:33:55.56	182.88	15.69	-37.8	-39.8	15.0	0.00e+00	0	60	0	3406823424	46	4707
2026-01-23 01:33:56.57	182.93	15.58	-37.9	-39.9	14.9	0.00e+00	0	61	0	3412066304	46	4761
2026-01-23 01:33:57.58	182.98	15.47	-37.8	-39.8	14.9	0.00e+00	0	61	0	3418357760	46	4754
2026-01-23 01:33:58.59	183.03	15.37	-37.9	-39.9	14.9	0.00e+00	0	61	0	3423600640	46	4786
2026-01-23 01:33:59.60	183.07	15.26	-38.0	-40.0	14.8	0.00e+00	0	61	0	3428843520	46	4816
