passes_logs/2026/01/23/R2.0S_Moscow/R2.0S_Moscow__20260123_002444_SUOMI_NPP_rec.log

#Pass ID: 20260123_002444_SUOMI NPP
#Satellite: SUOMI NPP
#Configuration: NPP
#almurnet v.1.7.20251203
#Start time: 2026-01-23 00:24:44

#Version: 2.2.20231116
#Station: R2.0S_Moscow
#Location: 37.707566 lon 55.798166 lat
#TLE: 1 37849U 11061A   26022.50498765  .00000208  00000+0  11976-3 0  9992
#TLE: 2 37849  98.7820 324.4892 0002275  50.8149 309.3229 14.19528284737775

#Time	Az	El	Level	Level2	SNR	BER	BlckErr	Temp	State	Recorded	gain1	gain2
2026-01-23 00:24:44.69	13.52	2.05	-41.2	-55.7	3.8	1.49e+00	0	51	0	0	54	18707
2026-01-23 00:24:45.70	13.49	2.11	-41.2	-55.7	3.8	1.49e+00	0	51	104	0	54	18725
2026-01-23 00:24:46.71	13.47	2.17	-41.2	-55.8	3.8	1.49e+00	0	51	104	0	54	18733
2026-01-23 00:24:47.73	13.44	2.24	-41.2	-55.8	3.8	1.49e+00	0	51	104	0	54	18759
2026-01-23 00:24:48.74	13.42	2.30	-41.2	-55.7	3.8	1.49e+00	0	51	104	0	54	18695
2026-01-23 00:24:49.75	13.39	2.37	-41.2	-55.8	3.8	1.49e+00	0	51	104	0	54	18748
2026-01-23 00:24:50.76	13.36	2.43	-41.2	-55.7	3.8	1.49e+00	0	51	104	0	54	18696
2026-01-23 00:24:51.77	13.34	2.49	-41.2	-55.7	3.8	1.49e+00	0	52	104	0	54	18688
2026-01-23 00:24:52.78	13.31	2.56	-41.2	-55.8	3.8	1.49e+00	0	51	104	0	54	18751
2026-01-23 00:24:53.79	13.29	2.62	-41.2	-55.7	3.8	1.49e+00	0	52	104	0	54	18672
2026-01-23 00:24:54.80	13.26	2.69	-41.2	-55.7	3.8	1.49e+00	0	52	104	0	54	18700
2026-01-23 00:24:55.81	13.23	2.75	-41.2	-55.8	3.8	1.49e+00	0	52	104	0	54	18736
2026-01-23 00:24:56.82	13.21	2.82	-41.2	-55.7	3.8	1.49e+00	0	52	104	0	54	18637
2026-01-23 00:24:57.83	13.18	2.88	-41.2	-55.7	3.8	1.49e+00	0	52	104	0	54	18675
2026-01-23 00:24:58.84	13.15	2.95	-41.2	-55.7	3.8	1.49e+00	0	52	104	0	54	18686
2026-01-23 00:24:59.85	13.13	3.01	-41.2	-55.7	3.8	1.49e+00	0	52	104	0	54	18682
2026-01-23 00:25:00.86	13.10	3.08	-41.2	-55.7	3.8	1.49e+00	0	52	104	0	54	18692
2026-01-23 00:25:01.87	13.07	3.15	-41.2	-55.7	3.8	1.49e+00	0	52	104	0	54	18649
2026-01-23 00:25:02.88	13.05	3.21	-41.2	-55.7	3.8	1.49e+00	0	52	104	0	54	18642
2026-01-23 00:25:03.89	13.02	3.28	-41.2	-55.7	3.8	1.49e+00	0	53	104	0	54	18642
2026-01-23 00:25:04.90	12.99	3.34	-41.2	-55.7	3.8	1.49e+00	0	52	104	0	54	18641
2026-01-23 00:25:05.91	12.96	3.41	-41.2	-55.7	3.8	1.49e+00	0	53	104	0	54	18646
2026-01-23 00:25:06.92	12.94	3.48	-41.2	-55.7	3.8	1.49e+00	0	53	104	0	54	18642
2026-01-23 00:25:07.93	12.91	3.54	-41.2	-55.7	3.8	1.49e+00	0	53	104	0	54	18643
2026-01-23 00:25:08.94	12.88	3.61	-41.2	-55.7	3.8	1.49e+00	0	53	104	0	54	18657
2026-01-23 00:25:09.95	12.85	3.68	-41.2	-55.7	3.8	1.49e+00	0	53	104	0	54	18630
2026-01-23 00:25:10.96	12.82	3.74	-41.2	-55.7	3.8	1.49e+00	0	53	104	0	54	18624
2026-01-23 00:25:11.97	12.79	3.81	-41.2	-55.7	3.8	1.49e+00	0	53	104	0	54	18685
2026-01-23 00:25:12.98	12.77	3.88	-41.2	-55.7	3.8	1.49e+00	0	53	104	0	54	18665
2026-01-23 00:25:13.99	12.74	3.95	-41.2	-55.7	3.8	1.49e+00	0	53	104	0	54	18542
2026-01-23 00:25:15.00	12.71	4.01	-41.2	-55.7	3.8	1.49e+00	0	53	104	0	54	18565
2026-01-23 00:25:16.01	12.68	4.08	-41.2	-55.6	3.8	1.49e+00	0	53	104	0	54	18467
2026-01-23 00:25:17.02	12.65	4.15	-41.2	-55.6	3.8	1.49e+00	0	53	104	0	54	18385
2026-01-23 00:25:18.03	12.62	4.22	-41.3	-55.6	3.8	1.49e+00	0	53	104	0	54	18465
2026-01-23 00:25:19.04	12.59	4.29	-41.2	-55.6	3.8	1.49e+00	0	54	104	0	54	18322
2026-01-23 00:25:20.05	12.56	4.36	-41.2	-55.5	3.8	1.49e+00	0	53	104	0	54	18239
2026-01-23 00:25:21.06	12.53	4.42	-41.2	-55.5	3.8	1.49e+00	0	53	104	0	54	18196
2026-01-23 00:25:22.07	12.50	4.49	-41.2	-55.5	3.8	1.49e+00	0	54	104	0	54	18150
2026-01-23 00:25:23.08	12.47	4.56	-41.2	-55.5	3.8	1.49e+00	0	54	104	0	54	18127
2026-01-23 00:25:24.09	12.44	4.63	-41.2	-55.4	3.8	1.49e+00	0	54	104	0	54	18061
2026-01-23 00:25:25.10	12.41	4.70	-41.2	-55.4	3.8	1.49e+00	0	54	104	0	54	18051
2026-01-23 00:25:26.12	12.38	4.77	-41.2	-55.4	3.8	1.49e+00	0	54	104	0	54	17924
2026-01-23 00:25:27.13	12.35	4.84	-41.2	-55.2	3.8	1.49e+00	0	54	104	0	54	17593
2026-01-23 00:25:28.14	12.32	4.91	-41.2	-55.2	3.8	1.49e+00	0	54	104	0	54	17567
2026-01-23 00:25:29.15	12.28	4.98	-41.2	-55.3	3.8	1.49e+00	0	54	104	0	54	17735
2026-01-23 00:25:30.16	12.25	5.05	-41.2	-55.2	3.8	1.49e+00	0	54	104	0	54	17602
2026-01-23 00:25:31.17	12.22	5.12	-41.2	-55.1	3.8	1.49e+00	0	54	104	0	54	17428
2026-01-23 00:25:32.18	12.19	5.19	-41.2	-55.0	3.8	1.49e+00	0	54	104	0	54	17105
2026-01-23 00:25:33.19	12.16	5.26	-41.2	-54.8	3.8	1.49e+00	0	54	104	0	54	16857
2026-01-23 00:25:34.20	12.13	5.34	-41.1	-54.7	3.8	1.49e+00	0	54	104	0	54	16589
2026-01-23 00:25:35.21	12.09	5.41	-41.1	-54.5	3.8	1.49e+00	0	54	104	0	54	16206
2026-01-23 00:25:36.22	12.06	5.48	-41.1	-54.3	3.8	1.49e+00	0	54	104	0	54	15787
2026-01-23 00:25:37.23	12.03	5.55	-41.1	-53.9	3.8	1.49e+00	0	55	104	0	54	15165
2026-01-23 00:25:38.24	12.00	5.62	-41.1	-53.5	3.8	1.49e+00	0	55	104	0	54	14538
2026-01-23 00:25:39.25	11.96	5.69	-41.1	-53.4	3.8	1.48e+00	0	54	104	0	54	14249
2026-01-23 00:25:40.26	11.93	5.77	-41.0	-53.3	3.8	1.49e+00	0	55	104	0	54	14080
2026-01-23 00:25:41.27	11.90	5.84	-41.0	-52.9	4.0	1.47e+00	0	54	104	0	54	13495
2026-01-23 00:25:42.29	11.86	5.91	-41.0	-52.9	3.9	1.46e+00	0	55	104	0	54	13463
2026-01-23 00:25:43.29	11.83	5.98	-41.0	-52.9	3.9	1.45e+00	0	55	104	0	54	13522
2026-01-23 00:25:44.31	11.79	6.06	-41.0	-53.2	3.8	1.47e+00	0	55	104	0	54	13947
2026-01-23 00:25:45.32	11.76	6.13	-41.0	-53.3	4.0	1.48e+00	0	55	104	0	54	14058
2026-01-23 00:25:46.33	11.73	6.20	-41.1	-53.6	3.8	1.48e+00	0	55	104	0	54	14688
2026-01-23 00:25:47.34	11.69	6.28	-41.1	-54.1	3.8	1.49e+00	0	55	104	0	54	15429
2026-01-23 00:25:48.35	11.66	6.35	-41.1	-54.7	3.8	1.49e+00	0	55	104	0	54	16595
2026-01-23 00:25:49.36	11.62	6.42	-41.1	-55.0	3.8	1.49e+00	0	55	104	0	54	17252
2026-01-23 00:25:50.37	11.59	6.50	-41.2	-55.4	3.8	1.49e+00	0	55	104	0	54	17913
2026-01-23 00:25:51.38	11.55	6.57	-41.2	-55.6	3.8	1.49e+00	0	55	104	0	54	18337
2026-01-23 00:25:52.39	11.51	6.65	-41.2	-55.6	3.8	1.49e+00	0	55	104	0	54	18320
2026-01-23 00:25:53.40	11.48	6.72	-41.2	-55.3	3.8	1.49e+00	0	55	104	0	54	17703
2026-01-23 00:25:54.41	11.44	6.80	-41.1	-54.8	3.8	1.49e+00	0	55	104	0	54	16755
2026-01-23 00:25:55.42	11.41	6.87	-41.1	-54.3	3.8	1.49e+00	0	56	104	0	54	15885
2026-01-23 00:25:56.43	11.37	6.95	-41.1	-53.9	3.8	1.49e+00	0	55	104	0	54	15110
2026-01-23 00:25:57.44	11.33	7.02	-41.0	-53.1	3.8	1.48e+00	0	55	104	0	54	13874
2026-01-23 00:25:58.45	11.30	7.10	-41.0	-52.6	3.9	1.46e+00	0	55	104	0	54	13014
2026-01-23 00:25:59.46	11.26	7.17	-40.9	-52.1	4.2	1.41e+00	0	56	0	0	53	13037
2026-01-23 00:26:00.47	11.22	7.25	-40.9	-52.0	4.2	1.37e+00	0	55	0	0	53	12898
2026-01-23 00:26:01.48	11.19	7.33	-40.9	-51.9	4.2	1.35e+00	0	56	0	0	53	12725
2026-01-23 00:26:02.49	11.15	7.40	-40.9	-51.8	4.3	1.34e+00	0	56	0	0	53	12537
2026-01-23 00:26:03.50	11.11	7.48	-40.9	-51.6	4.3	1.32e+00	0	56	0	1048576	53	12319
2026-01-23 00:26:04.51	11.07	7.56	-40.9	-51.5	4.4	1.27e+00	0	56	0	2097152	53	12196
2026-01-23 00:26:05.52	11.03	7.64	-40.9	-51.7	4.3	1.31e+00	0	56	0	4194304	53	12476
2026-01-23 00:26:06.53	10.99	7.71	-40.9	-52.1	4.2	1.35e+00	0	56	0	4194304	53	13081
2026-01-23 00:26:07.54	10.96	7.79	-40.9	-52.5	4.1	1.42e+00	0	56	0	4194304	53	13604
2026-01-23 00:26:08.55	10.92	7.87	-41.0	-52.9	3.9	1.44e+00	0	56	104	4194304	53	14268
2026-01-23 00:26:09.56	10.88	7.95	-41.0	-53.1	3.9	1.47e+00	0	56	104	4194304	53	14565
2026-01-23 00:26:10.57	10.84	8.03	-41.0	-53.5	3.8	1.48e+00	0	56	104	4194304	53	15308
2026-01-23 00:26:11.58	10.80	8.10	-41.0	-54.0	3.8	1.49e+00	0	56	104	4194304	53	16202
2026-01-23 00:26:12.59	10.76	8.18	-41.2	-53.5	3.9	1.49e+00	0	56	104	4194304	53	15292
2026-01-23 00:26:13.60	10.72	8.26	-41.0	-54.5	3.8	1.45e+00	0	56	104	4194304	53	17164
2026-01-23 00:26:14.61	10.68	8.34	-40.9	-55.0	3.8	1.49e+00	0	56	104	4194304	53	18204
2026-01-23 00:26:15.62	10.64	8.42	-41.4	-54.3	3.8	1.49e+00	0	56	104	4194304	53	16819
2026-01-23 00:26:16.63	10.60	8.50	-41.5	-55.0	3.8	1.49e+00	0	56	104	4194304	54	17281
2026-01-23 00:26:17.64	10.55	8.58	-41.3	-54.3	3.8	1.49e+00	0	56	104	4194304	54	15929
2026-01-23 00:26:18.65	10.51	8.66	-41.3	-54.2	3.8	1.49e+00	0	56	104	4194304	54	15738
2026-01-23 00:26:19.66	10.47	8.74	-41.3	-54.0	3.8	1.49e+00	0	56	104	4194304	54	15367
2026-01-23 00:26:20.67	10.43	8.82	-41.4	-53.9	3.8	1.49e+00	0	56	104	4194304	54	15138
2026-01-23 00:26:21.68	10.39	8.90	-40.7	-55.1	3.8	1.48e+00	0	56	104	4194304	53	18410
2026-01-23 00:26:22.69	10.34	8.98	-41.1	-55.3	3.8	1.49e+00	0	56	104	4194304	53	18864
2026-01-23 00:26:23.70	10.30	9.07	-41.5	-54.9	3.8	1.49e+00	0	56	104	4194304	53	17933
2026-01-23 00:26:24.71	10.26	9.15	-41.5	-54.9	3.8	1.49e+00	0	56	104	4194304	54	16981
2026-01-23 00:26:25.72	10.22	9.23	-41.4	-54.9	3.8	1.49e+00	0	57	104	4194304	54	17030
2026-01-23 00:26:26.73	10.17	9.31	-41.4	-55.3	3.8	1.49e+00	0	57	104	4194304	54	17810
2026-01-23 00:26:27.74	10.13	9.39	-41.3	-55.4	3.8	1.49e+00	0	57	104	4194304	54	17925
2026-01-23 00:26:28.75	10.08	9.48	-41.4	-55.5	3.8	1.49e+00	0	57	104	4194304	54	18172
2026-01-23 00:26:29.76	10.04	9.56	-40.6	-55.2	3.8	1.49e+00	0	56	104	4194304	53	18529
2026-01-23 00:26:30.76	10.00	9.64	-40.9	-55.4	3.8	1.49e+00	0	57	104	4194304	53	19126
2026-01-23 00:26:31.77	9.95	9.73	-40.9	-55.4	3.8	1.49e+00	0	57	104	4194304	53	19165
2026-01-23 00:26:32.78	9.91	9.81	-41.3	-55.4	3.8	1.49e+00	0	57	104	4194304	53	19080
2026-01-23 00:26:33.79	9.86	9.89	-40.6	-55.2	3.8	1.49e+00	0	57	104	4194304	53	18647
2026-01-23 00:26:34.80	9.81	9.98	-40.9	-55.4	3.8	1.49e+00	0	57	104	4194304	53	18986
2026-01-23 00:26:35.81	9.77	10.06	-40.9	-55.5	3.8	1.49e+00	0	57	104	4194304	53	19284
2026-01-23 00:26:36.82	9.72	10.15	-41.3	-55.1	3.8	1.49e+00	0	57	104	4194304	53	18498
2026-01-23 00:26:37.83	9.68	10.23	-40.6	-54.7	3.8	1.49e+00	0	57	104	4194304	53	17597
2026-01-23 00:26:38.84	9.63	10.32	-40.7	-55.1	3.8	1.49e+00	0	57	104	4194304	52	19503
2026-01-23 00:26:39.85	9.58	10.40	-40.5	-54.9	3.8	1.49e+00	0	57	104	4194304	52	18959
2026-01-23 00:26:40.86	9.53	10.49	-40.5	-55.1	3.8	1.49e+00	0	57	104	4194304	52	19431
2026-01-23 00:26:41.87	9.49	10.58	-40.5	-55.1	3.8	1.49e+00	0	57	104	4194304	52	19561
2026-01-23 00:26:42.88	9.44	10.66	-40.5	-55.1	3.8	1.49e+00	0	57	104	4194304	52	19429
2026-01-23 00:26:43.89	9.39	10.75	-40.6	-54.9	3.8	1.49e+00	0	57	104	4194304	52	19163
2026-01-23 00:26:44.90	9.34	10.84	-40.6	-54.9	3.8	1.49e+00	0	57	104	4194304	52	19084
2026-01-23 00:26:45.91	9.29	10.92	-41.6	-54.4	3.8	1.49e+00	0	57	104	4194304	53	17065
2026-01-23 00:26:46.92	9.24	11.01	-42.5	-54.1	4.1	1.45e+00	0	57	0	4194304	55	14556
2026-01-23 00:26:47.93	9.19	11.10	-41.3	-55.8	3.8	1.41e+00	0	57	104	4194304	54	18756
2026-01-23 00:26:48.94	9.14	11.19	-42.1	-52.4	4.5	1.40e+00	0	57	0	4194304	54	12746
2026-01-23 00:26:49.95	9.09	11.28	-42.2	-51.7	4.9	8.70e-01	0	57	0	5242880	54	11784
2026-01-23 00:26:50.96	9.04	11.37	-42.2	-51.1	5.3	6.32e-01	0	57	0	7340032	54	11023
2026-01-23 00:26:51.97	8.99	11.45	-42.2	-50.9	5.4	5.75e-01	0	58	0	9437184	55	10167
2026-01-23 00:26:52.98	8.94	11.54	-42.1	-50.5	5.6	4.65e-01	0	57	0	11534336	55	9682
2026-01-23 00:26:53.99	8.89	11.63	-42.1	-50.1	6.0	3.98e-01	0	57	0	13631488	55	9238
2026-01-23 00:26:55.00	8.84	11.72	-43.3	-57.0	3.8	3.87e-01	0	57	104	14680064	57	18129
2026-01-23 00:26:56.00	8.78	11.81	-42.3	-50.7	5.7	3.17e-01	0	57	0	14680064	56	9346
2026-01-23 00:26:57.01	8.73	11.90	-40.8	-51.5	4.4	1.47e-01	0	57	0	16777216	53	12221
2026-01-23 00:26:58.02	8.68	12.00	-41.6	-47.8	8.1	2.66e-01	0	57	0	18874368	53	7969
2026-01-23 00:26:59.03	8.62	12.09	-41.3	-55.0	3.8	7.39e-01	0	57	104	19922944	53	18182
2026-01-23 00:27:00.04	8.57	12.18	-40.4	-45.2	10.3	7.27e-01	0	58	0	19922944	52	6222
2026-01-23 00:27:01.05	8.52	12.27	-40.3	-44.8	10.9	3.54e-03	0	58	0	22020096	52	5979
2026-01-23 00:27:02.06	8.46	12.36	-40.5	-45.3	10.4	3.64e-03	0	58	0	23068672	52	6310
2026-01-23 00:27:03.07	8.41	12.46	-40.6	-45.3	10.5	3.63e-03	0	58	0	25165824	52	6301
2026-01-23 00:27:04.08	8.35	12.55	-40.4	-44.9	11.0	2.19e-03	0	58	0	27262976	52	6008
2026-01-23 00:27:05.09	8.30	12.64	-40.7	-45.4	10.5	3.10e-03	0	58	0	29360128	52	6349
2026-01-23 00:27:06.10	8.24	12.73	-40.8	-45.5	10.4	4.73e-03	0	58	0	31457280	52	6454
2026-01-23 00:27:07.11	8.18	12.83	-40.7	-45.3	10.8	2.54e-03	0	58	0	32505856	52	6325
2026-01-23 00:27:08.12	8.13	12.92	-40.8	-45.4	10.7	2.74e-03	0	58	0	34603008	52	6373
2026-01-23 00:27:09.13	8.07	13.02	-40.8	-45.5	10.7	3.05e-03	0	58	0	36700160	52	6422
2026-01-23 00:27:10.14	8.01	13.11	-40.8	-45.2	11.0	3.12e-03	0	58	0	38797312	52	6273
2026-01-23 00:27:11.15	7.95	13.21	-40.6	-44.6	11.7	1.10e-03	0	58	0	40894464	52	5844
2026-01-23 00:27:12.16	7.90	13.30	-40.5	-44.4	12.1	2.03e-04	0	58	0	41943040	52	5702
2026-01-23 00:27:13.17	7.84	13.40	-40.6	-44.4	12.2	2.70e-04	0	58	0	44040192	52	5719
2026-01-23 00:27:14.18	7.78	13.50	-40.7	-44.7	12.0	3.26e-04	0	58	0	46137344	52	5863
2026-01-23 00:27:15.19	7.72	13.59	-41.0	-45.1	11.7	6.22e-04	0	58	0	48234496	52	6144
2026-01-23 00:27:16.20	7.66	13.69	-41.0	-45.0	11.9	4.84e-04	0	58	0	50331648	52	6067
2026-01-23 00:27:17.21	7.60	13.79	-40.8	-44.5	12.4	2.75e-04	0	58	0	52428800	52	5757
2026-01-23 00:27:18.22	7.54	13.88	-40.7	-44.4	12.5	1.32e-04	0	58	0	53477376	52	5721
2026-01-23 00:27:19.23	7.48	13.98	-40.9	-44.7	12.2	1.57e-04	0	58	0	55574528	52	5911
2026-01-23 00:27:20.24	7.41	14.08	-41.0	-44.9	12.1	2.21e-04	0	58	0	57671680	52	6034
2026-01-23 00:27:21.25	7.35	14.18	-40.9	-44.7	12.4	1.69e-04	0	58	0	59768832	52	5857
2026-01-23 00:27:22.25	7.29	14.28	-40.8	-44.4	12.6	9.61e-05	0	58	0	61865984	52	5681
2026-01-23 00:27:23.26	7.23	14.38	-40.9	-44.6	12.5	9.38e-05	0	59	0	62914560	52	5824
2026-01-23 00:27:24.27	7.16	14.48	-40.9	-44.8	12.3	1.25e-04	0	58	0	65011712	52	5932
2026-01-23 00:27:25.28	7.10	14.58	-40.9	-44.6	12.5	1.12e-04	0	58	0	67108864	52	5800
2026-01-23 00:27:26.29	7.04	14.68	-40.8	-44.5	12.7	1.20e-04	0	58	0	69206016	52	5752
2026-01-23 00:27:27.30	6.97	14.78	-40.8	-44.5	12.6	9.07e-05	0	58	0	71303168	52	5737
2026-01-23 00:27:28.31	6.91	14.88	-40.9	-44.6	12.6	8.62e-05	0	58	0	72351744	52	5804
2026-01-23 00:27:29.32	6.84	14.98	-40.8	-44.5	12.6	1.02e-04	0	58	0	74448896	52	5761
2026-01-23 00:27:30.33	6.77	15.09	-40.9	-44.6	12.6	1.23e-04	0	58	0	76546048	52	5824
2026-01-23 00:27:31.34	6.71	15.19	-41.0	-44.8	12.4	1.39e-04	0	58	0	78643200	52	5939
2026-01-23 00:27:32.34	6.64	15.29	-40.9	-44.5	12.7	1.01e-04	0	58	0	80740352	52	5755
2026-01-23 00:27:33.35	6.57	15.39	-40.9	-44.5	12.7	6.17e-05	0	58	0	81788928	52	5756
2026-01-23 00:27:34.36	6.50	15.50	-40.9	-44.5	12.7	8.69e-05	0	58	0	83886080	52	5785
2026-01-23 00:27:35.37	6.44	15.60	-41.0	-44.6	12.8	7.09e-05	0	58	0	85983232	52	5812
2026-01-23 00:27:36.38	6.37	15.71	-41.1	-44.7	12.6	7.62e-05	0	58	0	88080384	52	5913
2026-01-23 00:27:37.39	6.30	15.81	-41.0	-44.5	12.8	5.41e-05	0	58	0	90177536	52	5785
2026-01-23 00:27:38.40	6.23	15.92	-41.0	-44.6	12.8	5.87e-05	0	58	0	91226112	52	5803
2026-01-23 00:27:39.41	6.16	16.02	-40.9	-44.4	12.9	5.34e-05	0	58	0	93323264	52	5721
2026-01-23 00:27:40.42	6.08	16.13	-41.0	-44.6	12.8	4.50e-05	0	58	0	95420416	52	5806
2026-01-23 00:27:41.42	6.01	16.23	-41.0	-44.5	13.0	4.88e-05	0	58	0	97517568	52	5731
2026-01-23 00:27:42.43	5.94	16.34	-41.0	-44.5	13.0	2.74e-05	0	58	0	99614720	52	5741
2026-01-23 00:27:43.44	5.87	16.45	-41.0	-44.4	13.1	4.42e-05	0	58	0	100663296	52	5719
2026-01-23 00:27:44.45	5.79	16.56	-41.0	-44.6	12.9	4.80e-05	0	58	0	102760448	52	5807
2026-01-23 00:27:45.46	5.72	16.66	-40.9	-44.4	13.1	3.20e-05	0	58	0	104857600	52	5692
2026-01-23 00:27:46.47	5.65	16.77	-41.1	-44.6	12.9	2.97e-05	0	58	0	106954752	52	5842
2026-01-23 00:27:47.48	5.57	16.88	-41.1	-44.6	13.0	5.03e-05	0	59	0	109051904	52	5820
2026-01-23 00:27:48.49	5.49	16.99	-41.0	-44.5	13.1	3.43e-05	0	59	0	110100480	52	5744
2026-01-23 00:27:49.50	5.42	17.10	-41.1	-44.6	13.0	3.81e-05	0	58	0	112197632	52	5831
2026-01-23 00:27:50.51	5.34	17.21	-41.2	-44.7	12.9	5.18e-05	0	59	0	114294784	52	5914
2026-01-23 00:27:51.52	5.26	17.32	-41.1	-44.5	13.1	6.17e-05	0	59	0	116391936	52	5774
2026-01-23 00:27:52.53	5.19	17.44	-41.2	-44.8	12.8	4.34e-05	0	59	0	118489088	52	5945
2026-01-23 00:27:53.54	5.11	17.55	-41.3	-44.9	12.7	6.79e-05	0	59	0	120586240	53	5718
2026-01-23 00:27:54.55	5.03	17.66	-41.3	-44.9	12.8	7.55e-05	0	59	0	121634816	53	5670
2026-01-23 00:27:55.56	4.95	17.77	-41.4	-45.1	12.6	8.16e-05	0	59	0	123731968	53	5794
2026-01-23 00:27:56.57	4.87	17.89	-41.3	-45.0	12.7	6.86e-05	0	59	0	125829120	53	5742
2026-01-23 00:27:57.58	4.79	18.00	-41.3	-45.0	12.7	1.02e-04	0	59	0	127926272	53	5727
2026-01-23 00:27:58.59	4.70	18.11	-41.2	-44.8	12.9	4.57e-05	0	59	0	130023424	53	5603
2026-01-23 00:27:59.60	4.62	18.23	-41.3	-45.0	12.7	4.95e-05	0	59	0	131072000	53	5725
2026-01-23 00:28:00.60	4.54	18.34	-41.3	-44.8	12.9	5.49e-05	0	59	0	133169152	53	5638
2026-01-23 00:28:01.61	4.46	18.46	-41.3	-44.8	12.9	5.64e-05	0	59	0	135266304	53	5632
2026-01-23 00:28:02.62	4.37	18.57	-41.3	-44.8	12.8	3.96e-05	0	59	0	137363456	53	5646
2026-01-23 00:28:03.63	4.29	18.69	-41.3	-44.8	12.9	5.49e-05	0	59	0	138412032	53	5635
2026-01-23 00:28:04.64	4.20	18.81	-41.3	-44.8	12.9	5.18e-05	0	59	0	140509184	53	5643
2026-01-23 00:28:05.65	4.11	18.92	-41.3	-44.8	12.9	6.02e-05	0	59	0	142606336	53	5632
2026-01-23 00:28:06.66	4.03	19.04	-41.3	-44.9	12.9	3.89e-05	0	59	0	144703488	53	5697
2026-01-23 00:28:07.67	3.94	19.16	-41.3	-44.8	13.0	4.50e-05	0	59	0	146800640	53	5647
2026-01-23 00:28:08.68	3.85	19.28	-41.3	-44.9	12.9	5.72e-05	0	59	0	148897792	53	5657
2026-01-23 00:28:09.69	3.76	19.40	-41.5	-45.1	12.7	4.65e-05	0	59	0	149946368	53	5840
2026-01-23 00:28:10.70	3.67	19.52	-41.5	-45.1	12.7	7.09e-05	0	59	0	152043520	53	5827
2026-01-23 00:28:11.71	3.58	19.64	-41.4	-45.1	12.7	8.08e-05	0	59	0	154140672	53	5800
2026-01-23 00:28:12.71	3.49	19.76	-41.5	-45.1	12.7	7.85e-05	0	59	0	156237824	53	5806
2026-01-23 00:28:13.72	3.40	19.88	-41.5	-45.1	12.7	1.18e-04	0	59	0	158334976	53	5849
2026-01-23 00:28:14.73	3.30	20.00	-41.6	-45.4	12.4	1.04e-04	0	59	0	159383552	53	6032
2026-01-23 00:28:15.74	3.21	20.13	-41.9	-45.9	12.0	1.36e-04	0	59	0	161480704	54	6026
2026-01-23 00:28:16.75	3.11	20.25	-41.7	-45.5	12.3	1.50e-04	0	59	0	163577856	54	5752
2026-01-23 00:28:17.76	3.02	20.37	-41.9	-45.8	12.0	2.04e-04	0	59	0	165675008	54	5961
2026-01-23 00:28:18.77	2.92	20.50	-42.0	-46.0	11.8	4.35e-04	0	59	0	167772160	54	6127
2026-01-23 00:28:19.78	2.83	20.62	-41.9	-45.9	11.9	3.39e-04	0	59	0	168820736	54	6025
2026-01-23 00:28:20.79	2.73	20.75	-41.9	-45.9	12.0	3.86e-04	0	59	0	170917888	54	6005
2026-01-23 00:28:21.80	2.63	20.87	-42.1	-46.3	11.5	7.64e-04	0	59	0	173015040	54	6311
2026-01-23 00:28:22.81	2.53	21.00	-41.9	-45.9	12.0	5.91e-04	0	59	0	175112192	54	6029
2026-01-23 00:28:23.82	2.43	21.13	-42.1	-46.4	11.4	3.83e-04	0	59	0	177209344	54	6397
2026-01-23 00:28:24.83	2.33	21.25	-42.1	-46.2	11.7	4.84e-04	0	59	0	178257920	54	6248
2026-01-23 00:28:25.84	2.23	21.38	-41.9	-45.9	11.9	5.92e-04	0	59	0	180355072	54	6048
2026-01-23 00:28:26.85	2.12	21.51	-41.9	-45.8	12.1	6.30e-04	0	59	0	182452224	54	5937
2026-01-23 00:28:27.86	2.02	21.64	-42.0	-46.0	11.8	4.13e-04	0	59	0	184549376	54	6117
2026-01-23 00:28:28.86	1.92	21.77	-42.0	-46.1	11.8	5.11e-04	0	59	0	186646528	54	6168
2026-01-23 00:28:29.88	1.81	21.90	-41.9	-45.9	12.0	3.68e-04	0	59	0	187695104	54	5993
2026-01-23 00:28:30.88	1.70	22.03	-42.0	-46.1	11.8	4.10e-04	0	59	0	189792256	54	6148
2026-01-23 00:28:31.89	1.60	22.16	-42.2	-46.4	11.5	5.48e-04	0	59	0	191889408	54	6392
2026-01-23 00:28:32.90	1.49	22.29	-42.0	-46.1	11.8	3.81e-04	0	59	0	193986560	54	6136
2026-01-23 00:28:33.91	1.38	22.42	-41.9	-45.8	12.0	3.67e-04	0	59	0	196083712	54	5976
2026-01-23 00:28:34.92	1.27	22.56	-41.9	-45.8	12.1	4.37e-04	0	59	0	197132288	54	5937
2026-01-23 00:28:35.93	1.16	22.69	-41.9	-45.8	12.1	2.79e-04	0	59	0	199229440	54	5981
2026-01-23 00:28:36.94	1.04	22.82	-42.0	-46.0	11.9	3.00e-04	0	59	0	201326592	54	6117
2026-01-23 00:28:37.95	0.93	22.96	-42.0	-46.0	11.9	3.22e-04	0	59	0	203423744	54	6084
2026-01-23 00:28:38.96	0.82	23.09	-42.0	-46.1	11.9	4.43e-04	0	59	0	205520896	54	6139
2026-01-23 00:28:39.97	0.70	23.23	-42.2	-46.4	11.5	9.14e-04	0	59	0	206569472	55	6014
2026-01-23 00:28:40.98	0.58	23.37	-42.1	-46.4	11.5	7.84e-04	0	59	0	208666624	55	5999
2026-01-23 00:28:41.99	0.47	23.50	-42.2	-46.4	11.5	7.66e-04	0	59	0	210763776	55	6017
2026-01-23 00:28:43.00	0.35	23.64	-42.3	-46.7	11.1	1.61e-03	0	59	0	212860928	55	6268
2026-01-23 00:28:44.01	0.23	23.78	-42.4	-46.9	11.0	1.92e-03	0	59	0	214958080	55	6358
2026-01-23 00:28:45.02	0.11	23.92	-42.5	-47.1	10.8	1.54e-03	0	59	0	217055232	55	6569
2026-01-23 00:28:46.03	359.98	24.06	-42.4	-47.0	10.9	2.25e-03	0	59	0	218103808	55	6430
2026-01-23 00:28:47.04	359.86	24.20	-42.5	-47.1	10.8	2.56e-03	0	59	0	220200960	55	6551
2026-01-23 00:28:48.05	359.74	24.34	-42.3	-46.8	11.1	2.36e-03	0	59	0	222298112	55	6282
2026-01-23 00:28:49.06	359.61	24.48	-42.4	-46.8	11.1	1.55e-03	0	59	0	224395264	55	6328
2026-01-23 00:28:50.07	359.49	24.62	-42.3	-46.6	11.3	1.55e-03	0	59	0	226492416	55	6166
2026-01-23 00:28:51.08	359.36	24.76	-42.2	-46.4	11.6	1.58e-03	0	59	0	227540992	55	5994
2026-01-23 00:28:52.09	359.23	24.91	-42.1	-46.3	11.7	5.90e-04	0	59	0	229638144	55	5928
2026-01-23 00:28:53.10	359.10	25.05	-42.4	-46.8	11.1	8.41e-04	0	59	0	231735296	55	6327
2026-01-23 00:28:54.11	358.97	25.19	-42.1	-46.3	11.7	5.25e-04	0	59	0	233832448	55	5938
2026-01-23 00:28:55.12	358.84	25.34	-42.1	-46.3	11.6	4.86e-04	0	59	0	235929600	55	5928
2026-01-23 00:28:56.13	358.70	25.48	-42.1	-46.2	11.8	9.17e-04	0	59	0	236978176	55	5873
2026-01-23 00:28:57.14	358.57	25.63	-42.3	-46.5	11.4	6.84e-04	0	59	0	239075328	55	6096
2026-01-23 00:28:58.15	358.43	25.78	-42.4	-46.8	11.2	8.16e-04	0	59	0	241172480	55	6308
2026-01-23 00:28:59.16	358.29	25.93	-42.4	-46.8	11.2	1.38e-03	0	59	0	243269632	55	6285
2026-01-23 00:29:00.17	358.15	26.07	-42.5	-47.1	10.9	1.66e-03	0	59	0	245366784	55	6561
2026-01-23 00:29:01.18	358.01	26.22	-42.9	-47.9	10.2	2.29e-03	0	59	0	246415360	56	6738
2026-01-23 00:29:02.19	357.87	26.37	-42.7	-47.3	10.9	2.73e-03	0	60	0	248512512	56	6287
2026-01-23 00:29:03.20	357.73	26.52	-42.7	-47.3	10.8	2.28e-03	0	59	0	250609664	56	6305
2026-01-23 00:29:04.21	357.58	26.67	-42.7	-47.2	10.9	3.68e-03	0	60	0	252706816	56	6244
2026-01-23 00:29:05.22	357.44	26.82	-42.6	-47.1	11.1	2.09e-03	0	59	0	254803968	56	6168
2026-01-23 00:29:06.23	357.29	26.98	-42.5	-46.7	11.4	1.11e-03	0	60	0	255852544	56	5867
2026-01-23 00:29:07.23	357.14	27.13	-42.4	-46.6	11.6	7.80e-04	0	59	0	257949696	56	5847
2026-01-23 00:29:08.24	356.99	27.28	-42.3	-46.3	11.8	6.83e-04	0	60	0	260046848	56	5641
2026-01-23 00:29:09.25	356.84	27.43	-42.3	-46.3	11.8	5.24e-04	0	60	0	262144000	56	5636
2026-01-23 00:29:10.26	356.69	27.59	-42.2	-46.1	12.1	3.34e-04	0	59	0	264241152	56	5512
2026-01-23 00:29:11.27	356.53	27.74	-42.3	-46.3	11.9	2.84e-04	0	59	0	265289728	56	5637
2026-01-23 00:29:12.28	356.38	27.90	-42.2	-46.3	12.0	4.72e-04	0	59	0	267386880	56	5598
2026-01-23 00:29:13.29	356.22	28.06	-42.3	-46.5	11.8	4.28e-04	0	60	0	269484032	56	5726
2026-01-23 00:29:14.30	356.06	28.21	-42.4	-46.8	11.6	6.35e-04	0	59	0	271581184	56	5936
2026-01-23 00:29:15.31	355.90	28.37	-42.6	-47.0	11.2	9.90e-04	0	60	0	273678336	56	6082
2026-01-23 00:29:16.32	355.74	28.53	-42.2	-46.9	11.3	7.89e-03	0	59	0	274726912	56	5994
2026-01-23 00:29:17.33	355.57	28.69	-42.3	-47.2	10.9	8.85e-03	0	59	0	276824064	56	6236
2026-01-23 00:29:18.34	355.41	28.85	-42.3	-47.0	11.1	8.91e-03	0	59	0	278921216	56	6120
2026-01-23 00:29:19.35	355.24	29.01	-42.3	-47.1	11.1	7.18e-03	0	59	0	281018368	56	6157
2026-01-23 00:29:20.36	355.07	29.17	-42.7	-47.2	10.9	1.58e-03	0	60	0	283115520	56	6264
2026-01-23 00:29:21.37	354.90	29.33	-42.5	-46.7	11.5	1.14e-03	0	60	0	285212672	56	5903
2026-01-23 00:29:22.38	354.73	29.49	-42.6	-46.9	11.4	1.00e-03	0	59	0	286261248	56	6017
2026-01-23 00:29:23.39	354.55	29.65	-42.7	-47.1	11.1	1.27e-03	0	59	0	288358400	56	6168
2026-01-23 00:29:24.39	354.38	29.82	-42.7	-47.1	11.1	1.12e-03	0	59	0	290455552	56	6157
2026-01-23 00:29:25.40	354.20	29.98	-42.8	-47.3	10.9	2.04e-03	0	59	0	292552704	56	6334
2026-01-23 00:29:26.41	354.02	30.15	-42.9	-47.6	10.6	3.34e-03	0	60	0	294649856	56	6531
2026-01-23 00:29:27.42	353.84	30.31	-42.9	-47.6	10.6	3.14e-03	0	60	0	295698432	56	6533
2026-01-23 00:29:28.43	353.65	30.48	-43.0	-47.9	10.3	4.55e-03	0	60	0	297795584	56	6743
2026-01-23 00:29:29.44	353.47	30.64	-43.1	-47.9	10.3	5.48e-03	0	59	0	299892736	56	6787
2026-01-23 00:29:30.45	353.28	30.81	-43.1	-48.1	10.1	4.99e-03	0	60	0	301989888	56	6933
2026-01-23 00:29:31.46	353.09	30.98	-43.0	-47.8	10.4	4.15e-03	0	60	0	304087040	56	6705
2026-01-23 00:29:32.47	352.90	31.15	-43.0	-47.8	10.5	4.90e-03	0	60	0	305135616	56	6716
2026-01-23 00:29:33.48	352.70	31.32	-43.0	-47.7	10.6	5.00e-03	0	60	0	307232768	57	6207
2026-01-23 00:29:34.49	352.51	31.48	-43.2	-48.3	9.9	6.88e-03	0	59	0	309329920	57	6718
2026-01-23 00:29:35.50	352.31	31.66	-43.3	-48.6	9.4	8.97e-03	0	59	0	311427072	57	6881
2026-01-23 00:29:36.51	352.11	31.83	-43.4	-49.0	9.3	1.89e-02	0	60	0	313524224	57	7208
2026-01-23 00:29:37.52	351.91	32.00	-43.6	-49.3	8.9	2.66e-02	0	60	0	314572800	57	7470
2026-01-23 00:29:38.52	351.71	32.17	-43.6	-49.5	8.7	2.58e-02	0	59	0	316669952	57	7669
2026-01-23 00:29:39.53	351.50	32.34	-43.3	-48.7	9.5	1.66e-02	0	60	0	318767104	57	6968
2026-01-23 00:29:40.54	351.29	32.51	-43.3	-48.6	9.6	1.37e-02	0	60	0	320864256	57	6923
2026-01-23 00:29:41.56	351.08	32.69	-43.3	-48.4	9.9	1.36e-02	0	60	0	322961408	57	6733
2026-01-23 00:29:42.57	350.86	32.86	-43.3	-48.5	9.7	9.75e-03	0	60	0	324009984	57	6869
2026-01-23 00:29:43.57	350.65	33.04	-43.4	-48.8	9.3	1.51e-02	0	60	0	326107136	57	7104
2026-01-23 00:29:44.58	350.43	33.21	-43.5	-49.0	9.3	2.01e-02	0	60	0	328204288	57	7233
2026-01-23 00:29:45.59	350.21	33.39	-43.6	-49.3	8.9	2.17e-02	0	60	0	330301440	57	7502
2026-01-23 00:29:46.60	349.99	33.56	-43.8	-49.8	8.4	2.79e-02	0	60	0	332398592	58	7502
2026-01-23 00:29:47.61	349.76	33.74	-43.6	-49.3	9.0	2.57e-02	0	60	0	333447168	58	7106
2026-01-23 00:29:48.62	349.53	33.92	-43.5	-48.9	9.3	2.52e-02	0	60	0	335544320	58	6757
2026-01-23 00:29:49.63	349.30	34.10	-43.4	-48.6	9.7	2.23e-02	0	60	0	337641472	58	6527
2026-01-23 00:29:50.64	349.07	34.27	-43.3	-48.4	9.9	8.85e-03	0	60	0	339738624	58	6367
2026-01-23 00:29:51.65	348.83	34.45	-43.2	-48.3	10.1	7.44e-03	0	60	0	341835776	58	6277
2026-01-23 00:29:52.65	348.60	34.63	-43.3	-48.3	10.0	8.46e-03	0	60	0	342884352	58	6326
2026-01-23 00:29:53.66	348.36	34.81	-43.2	-48.1	10.2	6.76e-03	0	60	0	344981504	58	6202
2026-01-23 00:29:54.67	348.11	34.99	-43.3	-48.3	9.9	8.85e-03	0	60	0	347078656	58	6335
2026-01-23 00:29:55.68	347.87	35.17	-43.2	-48.0	10.3	5.58e-03	0	60	0	349175808	58	6069
2026-01-23 00:29:56.69	347.62	35.35	-43.1	-47.9	10.4	4.29e-03	0	60	0	351272960	58	6034
2026-01-23 00:29:57.70	347.37	35.53	-43.2	-48.0	10.3	5.28e-03	0	60	0	353370112	58	6101
2026-01-23 00:29:58.71	347.11	35.72	-43.2	-48.0	10.3	6.28e-03	0	60	0	354418688	58	6088
2026-01-23 00:29:59.72	346.85	35.90	-43.3	-48.3	10.1	4.55e-03	0	60	0	356515840	58	6286
2026-01-23 00:30:00.72	346.59	36.08	-43.3	-48.2	10.1	5.70e-03	0	60	0	358612992	58	6248
2026-01-23 00:30:01.73	346.33	36.26	-43.2	-47.9	10.5	4.90e-03	0	60	0	360710144	58	6028
2026-01-23 00:30:02.74	346.06	36.45	-43.2	-47.9	10.4	5.52e-03	0	60	0	362807296	58	6046
2026-01-23 00:30:03.75	345.79	36.63	-43.2	-48.1	10.2	4.68e-03	0	60	0	363855872	58	6146
2026-01-23 00:30:04.76	345.52	36.81	-43.2	-47.9	10.4	5.42e-03	0	60	0	365953024	58	6036
2026-01-23 00:30:05.77	345.24	37.00	-43.2	-47.9	10.5	4.65e-03	0	60	0	368050176	58	6044
2026-01-23 00:30:06.78	344.97	37.18	-43.4	-48.7	9.5	8.84e-03	0	60	0	370147328	58	6638
2026-01-23 00:30:07.79	344.68	37.37	-43.5	-48.8	9.5	1.96e-02	0	60	0	372244480	58	6662
2026-01-23 00:30:08.80	344.40	37.55	-43.5	-48.9	9.3	1.49e-02	0	60	0	373293056	58	6799
2026-01-23 00:30:09.81	344.11	37.74	-43.4	-48.6	9.7	1.67e-02	0	60	0	375390208	58	6547
2026-01-23 00:30:10.82	343.82	37.92	-43.2	-47.9	10.4	4.95e-03	0	60	0	377487360	58	6045
2026-01-23 00:30:11.82	343.52	38.11	-43.2	-48.0	10.4	4.39e-03	0	60	0	379584512	58	6103
2026-01-23 00:30:12.83	343.22	38.29	-43.4	-48.5	9.8	7.04e-03	0	60	0	381681664	58	6430
2026-01-23 00:30:13.84	342.92	38.48	-43.4	-48.6	9.8	1.29e-02	0	60	0	382730240	58	6548
2026-01-23 00:30:14.85	342.62	38.66	-43.6	-49.0	9.3	1.94e-02	0	60	0	384827392	58	6867
2026-01-23 00:30:15.86	342.31	38.85	-43.6	-49.1	9.2	2.36e-02	0	60	0	386924544	58	6915
2026-01-23 00:30:16.87	341.99	39.04	-43.4	-48.4	9.9	3.00e-02	0	60	0	389021696	58	6406
2026-01-23 00:30:17.88	341.68	39.22	-43.1	-47.9	10.6	4.09e-03	0	60	0	391118848	58	6006
2026-01-23 00:30:18.89	341.35	39.41	-42.8	-47.1	11.3	2.01e-03	0	60	0	392167424	57	5821
2026-01-23 00:30:19.90	341.03	39.59	-42.7	-46.7	11.7	8.17e-04	0	60	0	394264576	57	5575
2026-01-23 00:30:20.91	340.70	39.78	-42.8	-47.0	11.4	1.05e-03	0	60	0	396361728	57	5733
2026-01-23 00:30:21.92	340.37	39.97	-42.7	-46.9	11.5	1.11e-03	0	60	0	398458880	57	5669
2026-01-23 00:30:22.93	340.03	40.15	-42.8	-47.0	11.5	8.69e-04	0	60	0	400556032	57	5729
2026-01-23 00:30:23.94	339.69	40.34	-42.9	-47.2	11.2	1.40e-03	0	60	0	401604608	57	5910
2026-01-23 00:30:24.96	339.35	40.52	-43.0	-47.5	10.9	1.55e-03	0	60	0	403701760	57	6127
2026-01-23 00:30:25.97	339.00	40.71	-43.3	-48.4	10.0	3.92e-03	0	60	0	405798912	57	6751
2026-01-23 00:30:26.98	338.65	40.89	-43.5	-48.8	9.4	1.21e-02	0	60	0	407896064	57	7093
2026-01-23 00:30:27.98	338.30	41.08	-43.7	-49.4	8.9	2.70e-02	0	60	0	409993216	58	7147
2026-01-23 00:30:28.99	337.94	41.26	-43.7	-49.5	8.9	3.55e-02	0	60	0	411041792	58	7235
2026-01-23 00:30:30.00	337.57	41.44	-43.5	-48.7	9.7	1.67e-02	0	60	0	413138944	58	6626
2026-01-23 00:30:31.01	337.20	41.63	-43.3	-48.1	10.4	6.01e-03	0	60	0	415236096	58	6153
2026-01-23 00:30:32.02	336.83	41.81	-43.1	-47.6	10.8	4.28e-03	0	60	0	417333248	58	5793
2026-01-23 00:30:33.03	336.45	41.99	-42.8	-47.0	11.4	1.71e-03	0	60	0	419430400	57	5762
2026-01-23 00:30:34.04	336.07	42.18	-42.8	-46.9	11.5	1.12e-03	0	60	0	421527552	57	5703
2026-01-23 00:30:35.05	335.69	42.36	-43.0	-47.4	11.0	2.05e-03	0	60	0	422576128	57	6042
2026-01-23 00:30:36.06	335.30	42.54	-43.4	-48.4	10.1	3.14e-03	0	60	0	424673280	57	6727
2026-01-23 00:30:37.06	334.91	42.72	-43.7	-49.2	9.2	1.50e-02	0	60	0	426770432	57	7416
2026-01-23 00:30:38.07	334.51	42.90	-43.8	-49.6	8.8	3.14e-02	0	60	0	428867584	58	7303
2026-01-23 00:30:39.08	334.11	43.08	-44.1	-50.7	7.7	6.71e-02	0	60	0	429916160	58	8309
2026-01-23 00:30:40.09	333.70	43.25	-44.1	-50.7	7.7	8.17e-02	0	60	0	432013312	58	8344
2026-01-23 00:30:41.10	333.29	43.43	-44.0	-50.5	7.9	8.63e-02	0	60	0	434110464	58	8130
2026-01-23 00:30:42.11	332.87	43.61	-44.1	-50.8	7.7	8.50e-02	0	60	0	436207616	58	8412
2026-01-23 00:30:43.12	332.45	43.78	-43.9	-50.1	8.2	7.39e-02	0	60	0	438304768	58	7770
2026-01-23 00:30:44.13	332.02	43.96	-43.8	-49.5	8.8	4.04e-02	0	60	0	439353344	58	7233
2026-01-23 00:30:45.14	331.59	44.13	-43.6	-48.9	9.4	3.28e-02	0	60	0	441450496	58	6770
2026-01-23 00:30:46.15	331.15	44.30	-43.4	-48.4	10.0	8.62e-03	0	60	0	443547648	58	6366
2026-01-23 00:30:47.16	330.71	44.47	-43.6	-48.8	9.4	1.02e-02	0	60	0	445644800	58	6714
2026-01-23 00:30:48.17	330.27	44.64	-43.8	-49.6	8.7	1.94e-02	0	60	0	447741952	58	7339
2026-01-23 00:30:49.18	329.82	44.81	-43.7	-49.4	8.9	2.83e-02	0	60	0	449839104	58	7178
2026-01-23 00:30:50.19	329.36	44.98	-43.5	-48.8	9.5	2.08e-02	0	60	0	450887680	58	6707
2026-01-23 00:30:51.20	328.90	45.15	-43.2	-47.8	10.5	7.52e-03	0	60	0	452984832	58	5953
2026-01-23 00:30:52.21	328.44	45.31	-42.9	-47.3	11.1	2.67e-03	0	60	0	455081984	57	5970
2026-01-23 00:30:53.22	327.97	45.48	-42.8	-46.9	11.5	8.64e-04	0	60	0	457179136	57	5698
2026-01-23 00:30:54.23	327.49	45.64	-42.7	-46.7	11.7	6.90e-04	0	60	0	459276288	57	5578
2026-01-23 00:30:55.24	327.01	45.80	-42.9	-47.2	11.2	7.37e-04	0	60	0	460324864	57	5895
2026-01-23 00:30:56.25	326.53	45.96	-43.1	-47.7	10.7	2.97e-03	0	60	0	462422016	57	6208
2026-01-23 00:30:57.26	326.04	46.11	-43.4	-48.4	9.9	7.69e-03	0	60	0	464519168	57	6793
2026-01-23 00:30:58.27	325.55	46.27	-42.9	-47.3	11.2	5.48e-03	0	60	0	466616320	57	5945
2026-01-23 00:30:59.28	325.05	46.42	-42.4	-46.1	12.5	2.21e-04	0	60	0	468713472	56	5470
2026-01-23 00:31:00.29	324.54	46.58	-42.0	-45.4	13.1	3.73e-05	0	60	0	469762048	56	5094
2026-01-23 00:31:01.30	324.04	46.73	-42.0	-45.5	12.9	2.44e-05	0	60	0	471859200	55	5421
2026-01-23 00:31:02.31	323.52	46.87	-42.2	-46.1	12.3	1.02e-04	0	60	0	473956352	55	5790
2026-01-23 00:31:03.32	323.00	47.02	-42.7	-47.0	11.3	8.40e-04	0	60	0	476053504	55	6444
2026-01-23 00:31:04.33	322.48	47.16	-43.1	-47.8	10.7	2.91e-03	0	60	0	478150656	56	6652
2026-01-23 00:31:05.34	321.95	47.30	-43.2	-48.0	10.4	4.40e-03	0	60	0	479199232	57	6438
2026-01-23 00:31:06.35	321.42	47.44	-43.3	-48.1	10.2	6.49e-03	0	60	0	481296384	57	6533
2026-01-23 00:31:07.35	320.89	47.58	-43.1	-47.8	10.6	3.00e-03	0	60	0	483393536	57	6325
2026-01-23 00:31:08.36	320.34	47.71	-43.1	-47.8	10.7	3.13e-03	0	60	0	485490688	57	6281
2026-01-23 00:31:09.37	319.80	47.85	-43.4	-48.7	9.7	8.04e-03	0	60	0	487587840	57	6963
2026-01-23 00:31:10.38	319.24	47.98	-43.9	-50.2	8.2	4.85e-02	0	60	0	488636416	58	7818
2026-01-23 00:31:11.39	318.69	48.10	-43.9	-49.9	8.3	6.47e-02	0	60	0	490733568	58	7571
2026-01-23 00:31:12.40	318.13	48.23	-43.5	-48.7	9.6	3.22e-02	0	60	0	492830720	58	6639
2026-01-23 00:31:13.41	317.56	48.35	-43.1	-47.6	10.7	8.64e-03	0	60	0	494927872	58	5854
2026-01-23 00:31:14.42	316.99	48.47	-42.9	-47.2	11.2	2.10e-03	0	60	0	497025024	57	5872
2026-01-23 00:31:15.43	316.41	48.59	-42.5	-46.4	12.1	9.67e-04	0	60	0	498073600	57	5345
2026-01-23 00:31:16.44	315.84	48.70	-42.5	-46.4	12.1	3.00e-04	0	60	0	500170752	57	5363
2026-01-23 00:31:17.45	315.25	48.81	-42.7	-46.7	11.8	4.57e-04	0	60	0	502267904	57	5550
2026-01-23 00:31:18.46	314.66	48.92	-43.1	-47.7	10.8	1.25e-03	0	60	0	504365056	57	6230
2026-01-23 00:31:19.46	314.08	49.02	-43.7	-49.3	9.1	1.52e-02	0	60	0	506462208	57	7535
2026-01-23 00:31:20.47	313.48	49.13	-44.3	-51.5	7.0	6.78e-02	0	60	0	507510784	59	8562
2026-01-23 00:31:21.48	312.88	49.22	-44.4	-51.8	6.5	2.24e-01	0	60	0	509607936	59	8936
2026-01-23 00:31:22.49	312.28	49.32	-44.2	-50.9	7.5	1.41e-01	0	60	0	511705088	59	8071
2026-01-23 00:31:23.50	311.67	49.41	-43.9	-49.9	8.3	6.80e-02	0	60	0	513802240	59	7186
2026-01-23 00:31:24.51	311.06	49.50	-43.4	-48.5	9.7	2.44e-02	0	60	0	515899392	58	6447
2026-01-23 00:31:25.52	310.45	49.59	-43.4	-48.4	10.0	6.52e-03	0	60	0	517996544	58	6361
2026-01-23 00:31:26.53	309.83	49.67	-43.2	-47.9	10.4	3.90e-03	0	60	0	519045120	58	6038
2026-01-23 00:31:27.54	309.21	49.75	-42.8	-46.9	11.4	9.80e-04	0	60	0	521142272	57	5662
2026-01-23 00:31:28.55	308.59	49.82	-43.0	-47.6	10.9	1.17e-03	0	60	0	523239424	57	6143
2026-01-23 00:31:29.56	307.96	49.90	-43.5	-48.8	9.6	6.66e-03	0	60	0	525336576	57	7081
2026-01-23 00:31:30.57	307.33	49.96	-43.8	-49.5	8.8	2.74e-02	0	60	0	527433728	58	7253
2026-01-23 00:31:31.58	306.69	50.03	-43.7	-49.2	9.1	3.30e-02	0	60	0	528482304	58	7026
2026-01-23 00:31:32.59	306.06	50.09	-43.4	-48.4	10.0	6.23e-03	0	60	0	530579456	58	6368
2026-01-23 00:31:33.60	305.42	50.15	-43.0	-47.4	11.0	3.81e-03	0	60	0	532676608	58	5703
2026-01-23 00:31:34.61	304.78	50.20	-43.0	-47.6	10.8	2.80e-03	0	60	0	534773760	58	5800
2026-01-23 00:31:35.62	304.14	50.25	-43.0	-47.5	11.0	2.60e-03	0	60	0	536870912	57	6085
2026-01-23 00:31:36.63	303.49	50.30	-42.5	-46.4	12.1	7.74e-04	0	60	0	537919488	56	5668
2026-01-23 00:31:37.64	302.85	50.34	-42.2	-45.9	12.6	1.65e-04	0	60	0	540016640	56	5345
2026-01-23 00:31:38.64	302.20	50.38	-42.1	-45.6	12.8	7.55e-05	0	60	0	542113792	56	5200
2026-01-23 00:31:39.65	301.55	50.41	-41.4	-44.5	13.8	3.96e-05	0	60	0	544210944	54	5112
2026-01-23 00:31:40.66	300.90	50.44	-41.5	-44.6	13.7	6.80e-06	0	60	0	546308096	54	5160
2026-01-23 00:31:41.67	300.25	50.47	-41.5	-44.6	13.7	6.80e-06	0	60	0	547356672	54	5180
2026-01-23 00:31:42.68	299.60	50.49	-41.3	-44.3	14.0	6.80e-06	0	60	0	549453824	54	5006
2026-01-23 00:31:43.69	298.94	50.51	-40.8	-43.4	14.9	7.00e-07	0	60	0	551550976	53	4793
2026-01-23 00:31:44.70	298.28	50.53	-40.6	-43.2	15.0	0.00e+00	0	60	0	553648128	53	4701
2026-01-23 00:31:45.71	297.63	50.54	-41.3	-44.3	14.0	0.00e+00	0	60	0	555745280	53	5321
2026-01-23 00:31:46.72	296.97	50.55	-41.7	-45.0	13.3	5.30e-06	0	60	0	556793856	54	5427
2026-01-23 00:31:47.73	296.32	50.55	-41.6	-44.8	13.6	1.67e-05	0	60	0	558891008	54	5282
2026-01-23 00:31:48.74	295.66	50.55	-41.6	-44.8	13.5	3.80e-06	0	60	0	560988160	54	5291
2026-01-23 00:31:49.75	295.00	50.54	-42.0	-45.5	12.8	3.66e-05	0	60	0	563085312	54	5750
2026-01-23 00:31:50.76	294.35	50.53	-42.7	-46.4	12.3	9.53e-05	0	60	0	565182464	55	6053
2026-01-23 00:31:51.77	293.69	50.52	-42.2	-46.0	12.2	2.17e-04	0	60	0	566231040	55	5749
2026-01-23 00:31:52.78	293.03	50.50	-42.2	-46.0	12.4	8.01e-05	0	60	0	568328192	55	5724
2026-01-23 00:31:53.79	292.38	50.48	-42.1	-45.7	12.5	1.03e-04	0	60	0	570425344	55	5580
2026-01-23 00:31:54.80	291.73	50.46	-42.1	-45.8	12.4	1.18e-04	0	60	0	572522496	55	5651
2026-01-23 00:31:55.80	291.08	50.43	-42.4	-46.4	11.8	4.23e-04	0	60	0	574619648	55	6061
2026-01-23 00:31:56.82	290.42	50.40	-42.2	-45.9	12.2	4.67e-04	0	60	0	575668224	55	5717
2026-01-23 00:31:57.83	289.77	50.36	-41.9	-45.4	12.9	6.25e-05	0	60	0	577765376	55	5391
2026-01-23 00:31:58.83	289.13	50.32	-41.6	-44.8	13.5	1.22e-05	0	61	0	579862528	55	5015
2026-01-23 00:31:59.84	288.48	50.28	-41.6	-44.9	13.4	1.83e-05	0	60	0	581959680	55	5064
2026-01-23 00:32:00.85	287.84	50.23	-41.9	-45.5	12.8	5.79e-05	0	60	0	584056832	55	5412
2026-01-23 00:32:01.86	287.20	50.18	-41.8	-45.2	13.0	3.73e-05	0	60	0	586153984	55	5279
2026-01-23 00:32:02.87	286.56	50.12	-41.6	-44.9	13.5	1.29e-05	0	60	0	587202560	55	5052
2026-01-23 00:32:03.88	285.92	50.06	-41.6	-44.8	13.3	1.52e-05	0	60	0	589299712	55	5033
2026-01-23 00:32:04.89	285.29	50.00	-41.9	-45.4	13.0	2.13e-05	0	60	0	591396864	55	5358
2026-01-23 00:32:05.90	284.65	49.93	-42.1	-45.7	12.5	9.00e-05	0	60	0	593494016	55	5576
2026-01-23 00:32:06.91	284.02	49.86	-42.0	-45.7	12.6	8.92e-05	0	60	0	595591168	55	5538
2026-01-23 00:32:07.92	283.40	49.79	-41.9	-45.4	12.9	1.01e-04	0	60	0	596639744	55	5352
2026-01-23 00:32:08.93	282.77	49.71	-41.9	-45.4	12.9	1.01e-04	0	60	0	598736896	55	5371
2026-01-23 00:32:09.94	282.15	49.63	-41.9	-45.4	12.9	3.89e-05	0	60	0	600834048	55	5365
2026-01-23 00:32:10.95	281.54	49.55	-42.0	-45.6	12.7	9.07e-05	0	60	0	602931200	55	5490
2026-01-23 00:32:11.96	280.92	49.46	-42.1	-45.8	12.5	8.69e-05	0	60	0	605028352	55	5638
2026-01-23 00:32:12.97	280.31	49.37	-42.6	-46.8	11.6	2.86e-04	0	60	0	606076928	55	6324
2026-01-23 00:32:13.98	279.71	49.28	-42.7	-46.9	11.5	5.93e-04	0	60	0	608174080	56	6044
2026-01-23 00:32:14.99	279.10	49.18	-42.7	-46.9	11.4	1.06e-03	0	60	0	610271232	56	6028
2026-01-23 00:32:16.00	278.51	49.08	-42.5	-46.5	12.0	7.74e-04	0	60	0	612368384	56	5723
2026-01-23 00:32:17.01	277.91	48.97	-42.6	-46.6	11.8	4.26e-04	0	60	0	614465536	56	5851
2026-01-23 00:32:18.02	277.32	48.87	-42.4	-46.2	12.2	2.62e-04	0	60	0	615514112	56	5564
2026-01-23 00:32:19.03	276.73	48.76	-42.2	-45.7	12.6	2.36e-04	0	60	0	617611264	56	5274
2026-01-23 00:32:20.04	276.15	48.65	-42.4	-46.1	12.3	9.61e-05	0	60	0	619708416	56	5517
2026-01-23 00:32:21.05	275.57	48.53	-43.0	-47.6	10.8	7.96e-04	0	60	0	621805568	56	6561
2026-01-23 00:32:22.05	275.01	48.41	-43.6	-49.0	9.4	6.04e-03	0	60	0	623902720	57	7264
2026-01-23 00:32:23.06	274.44	48.29	-43.4	-48.5	9.7	1.84e-02	0	60	0	624951296	57	6822
2026-01-23 00:32:24.07	273.87	48.17	-43.0	-47.5	10.9	2.82e-03	0	60	0	627048448	57	6081
2026-01-23 00:32:25.08	273.31	48.04	-42.8	-47.0	11.4	1.30e-03	0	60	0	629145600	57	5771
2026-01-23 00:32:26.09	272.76	47.91	-42.8	-46.9	11.3	5.30e-04	0	60	0	631242752	57	5700
2026-01-23 00:32:27.10	272.21	47.78	-43.1	-47.8	10.5	5.43e-03	0	60	0	633339904	57	6322
2026-01-23 00:32:28.11	271.66	47.65	-43.2	-48.1	10.3	5.69e-03	0	60	0	634388480	57	6529
2026-01-23 00:32:29.12	271.12	47.51	-42.9	-47.3	11.1	4.88e-03	0	60	0	636485632	57	5950
2026-01-23 00:32:30.13	270.58	47.37	-42.8	-47.1	11.3	1.02e-03	0	60	0	638582784	57	5823
2026-01-23 00:32:31.14	270.05	47.23	-42.9	-47.2	11.1	1.01e-03	0	60	0	640679936	57	5909
2026-01-23 00:32:32.15	269.52	47.09	-43.2	-48.1	10.3	2.92e-03	0	61	0	642777088	57	6505
2026-01-23 00:32:33.16	269.00	46.94	-43.2	-48.0	10.5	4.05e-03	0	60	0	643825664	57	6425
2026-01-23 00:32:34.17	268.48	46.80	-43.3	-48.3	10.0	8.92e-03	0	60	0	645922816	57	6670
2026-01-23 00:32:35.18	267.97	46.65	-43.3	-48.3	10.1	8.18e-03	0	61	0	648019968	57	6692
2026-01-23 00:32:36.19	267.46	46.50	-43.2	-48.0	10.3	5.34e-03	0	60	0	650117120	57	6423
2026-01-23 00:32:37.20	266.96	46.34	-43.4	-48.4	9.9	5.85e-03	0	60	0	652214272	57	6786
2026-01-23 00:32:38.20	266.47	46.19	-43.1	-47.9	10.4	3.71e-03	0	60	0	654311424	57	6376
2026-01-23 00:32:39.21	265.98	46.03	-42.8	-47.1	11.3	2.17e-03	0	60	0	655360000	57	5828
2026-01-23 00:32:40.22	265.49	45.88	-42.5	-46.5	12.1	3.32e-04	0	60	0	657457152	56	5733
2026-01-23 00:32:41.23	265.00	45.72	-42.7	-46.9	11.4	4.88e-04	0	60	0	659554304	56	6052
2026-01-23 00:32:42.24	264.53	45.55	-42.8	-47.1	11.3	1.08e-03	0	60	0	661651456	56	6175
2026-01-23 00:32:43.25	264.05	45.39	-42.9	-47.2	11.3	1.77e-03	0	61	0	663748608	56	6239
2026-01-23 00:32:44.26	263.59	45.23	-42.7	-46.9	11.5	7.74e-04	0	61	0	664797184	56	6023
2026-01-23 00:32:45.27	263.12	45.06	-42.8	-47.2	11.2	8.92e-04	0	61	0	666894336	56	6250
2026-01-23 00:32:46.28	262.66	44.89	-43.1	-47.9	10.5	1.83e-03	0	60	0	668991488	56	6747
2026-01-23 00:32:47.29	262.21	44.72	-43.3	-48.4	9.9	8.91e-03	0	61	0	671088640	57	6796
2026-01-23 00:32:48.29	261.76	44.56	-43.1	-47.6	10.7	4.75e-03	0	61	0	673185792	57	6184
2026-01-23 00:32:49.30	261.32	44.38	-42.7	-46.9	11.5	2.64e-03	0	60	0	674234368	57	5680
2026-01-23 00:32:50.32	260.88	44.21	-42.7	-46.8	11.6	4.26e-04	0	60	0	676331520	57	5605
2026-01-23 00:32:51.33	260.44	44.04	-42.8	-47.2	11.2	1.36e-03	0	60	0	678428672	57	5888
2026-01-23 00:32:52.33	260.02	43.86	-43.3	-48.4	10.0	4.04e-03	0	60	0	680525824	57	6728
2026-01-23 00:32:53.34	259.59	43.69	-43.0	-47.6	10.8	3.56e-03	0	60	0	682622976	57	6185
2026-01-23 00:32:54.36	259.17	43.51	-42.7	-46.8	11.6	1.46e-03	0	60	0	683671552	57	5594
2026-01-23 00:32:55.37	258.75	43.33	-42.4	-46.2	12.2	3.09e-04	0	60	0	685768704	56	5570
2026-01-23 00:32:56.38	258.34	43.15	-42.5	-46.4	12.1	2.27e-04	0	60	0	687865856	56	5686
2026-01-23 00:32:57.38	257.94	42.98	-42.4	-46.2	12.2	3.28e-04	0	60	0	689963008	56	5566
2026-01-23 00:32:58.39	257.53	42.80	-42.2	-45.8	12.6	1.98e-04	0	60	0	692060160	56	5312
2026-01-23 00:32:59.40	257.14	42.62	-41.7	-45.1	13.2	3.89e-05	0	60	0	693108736	55	5186
2026-01-23 00:33:00.41	256.74	42.44	-41.4	-44.4	13.8	3.80e-06	0	61	0	695205888	54	5086
2026-01-23 00:33:01.42	256.35	42.25	-41.3	-44.4	13.9	3.80e-06	0	60	0	697303040	54	5076
2026-01-23 00:33:02.43	255.97	42.07	-41.7	-45.0	13.3	2.20e-06	0	60	0	699400192	54	5404
2026-01-23 00:33:03.44	255.59	41.89	-41.8	-45.3	13.0	2.67e-05	0	60	0	701497344	54	5629
2026-01-23 00:33:04.45	255.21	41.70	-41.7	-45.2	13.1	4.27e-05	0	60	0	702545920	54	5532
2026-01-23 00:33:05.46	254.84	41.52	-41.7	-45.0	13.2	2.67e-05	0	60	0	704643072	54	5460
2026-01-23 00:33:06.47	254.48	41.34	-42.1	-45.9	12.4	6.10e-05	0	60	0	706740224	54	6025
2026-01-23 00:33:07.48	254.11	41.15	-42.5	-46.6	11.6	3.89e-04	0	60	0	708837376	55	6192
2026-01-23 00:33:08.49	253.75	40.97	-42.7	-47.0	11.1	7.01e-04	0	60	0	710934528	55	6493
2026-01-23 00:33:09.50	253.40	40.78	-43.0	-47.5	10.8	2.16e-03	0	60	0	711983104	56	6464
2026-01-23 00:33:10.51	253.05	40.60	-43.4	-48.7	9.5	9.71e-03	0	60	0	714080256	57	7011
2026-01-23 00:33:11.52	252.70	40.41	-43.8	-49.7	8.6	3.38e-02	0	60	0	716177408	58	7424
2026-01-23 00:33:12.52	252.36	40.23	-43.7	-49.4	8.9	3.38e-02	0	60	0	718274560	58	7126
2026-01-23 00:33:13.53	252.02	40.04	-43.2	-48.1	10.3	8.71e-03	0	60	0	720371712	58	6198
2026-01-23 00:33:14.54	251.69	39.85	-43.0	-47.5	10.8	2.96e-03	0	61	0	722468864	57	6120
2026-01-23 00:33:15.55	251.36	39.67	-42.9	-47.3	11.1	3.03e-03	0	60	0	723517440	57	5943
2026-01-23 00:33:16.56	251.03	39.48	-42.7	-46.9	11.5	8.48e-04	0	60	0	725614592	57	5677
2026-01-23 00:33:17.57	250.71	39.29	-42.4	-46.3	12.1	5.10e-04	0	60	0	727711744	56	5630
2026-01-23 00:33:18.58	250.39	39.11	-42.7	-46.9	11.4	4.49e-04	0	61	0	729808896	56	6014
2026-01-23 00:33:19.59	250.07	38.92	-42.9	-47.4	11.0	1.38e-03	0	61	0	731906048	56	6350
2026-01-23 00:33:20.60	249.76	38.73	-43.2	-48.1	10.3	2.43e-03	0	60	0	732954624	56	6891
2026-01-23 00:33:21.61	249.45	38.55	-43.2	-48.2	10.1	5.96e-03	0	60	0	735051776	57	6594
2026-01-23 00:33:22.62	249.14	38.36	-43.2	-48.1	10.1	6.79e-03	0	61	0	737148928	57	6547
2026-01-23 00:33:23.63	248.84	38.17	-43.1	-47.9	10.4	6.46e-03	0	61	0	739246080	57	6362
2026-01-23 00:33:24.64	248.54	37.99	-42.9	-47.5	10.8	3.19e-03	0	61	0	741343232	57	6077
2026-01-23 00:33:25.65	248.25	37.80	-42.7	-47.0	11.3	1.36e-03	0	61	0	742391808	57	5765
2026-01-23 00:33:26.66	247.96	37.61	-42.6	-46.8	11.5	9.77e-04	0	60	0	744488960	57	5656
2026-01-23 00:33:27.66	247.67	37.43	-42.9	-47.5	10.8	1.09e-03	0	60	0	746586112	57	6121
2026-01-23 00:33:28.67	247.38	37.25	-43.3	-48.5	9.8	3.55e-03	0	60	0	748683264	57	6815
2026-01-23 00:33:29.68	247.10	37.06	-43.7	-49.7	8.6	3.20e-02	0	60	0	750780416	57	7819
2026-01-23 00:33:30.69	246.82	36.87	-43.7	-49.7	8.6	5.75e-02	0	61	0	751828992	58	7410
2026-01-23 00:33:31.70	246.55	36.69	-43.6	-49.3	9.1	2.85e-02	0	60	0	753926144	58	7069
2026-01-23 00:33:32.71	246.28	36.51	-43.6	-49.4	9.0	2.08e-02	0	61	0	756023296	58	7127
2026-01-23 00:33:33.72	246.01	36.32	-44.1	-50.9	7.3	5.15e-02	0	60	0	758120448	58	8560
2026-01-23 00:33:34.73	245.74	36.14	-44.5	-53.1	5.6	2.13e-01	0	61	0	760217600	59	10346
2026-01-23 00:33:35.74	245.48	35.95	-44.6	-53.8	5.1	5.97e-01	0	61	0	761266176	59	11210
2026-01-23 00:33:36.75	245.22	35.77	-44.3	-52.2	6.2	3.83e-01	0	60	0	763363328	59	9324
2026-01-23 00:33:37.76	244.96	35.59	-44.0	-50.6	7.6	1.84e-01	0	60	0	765460480	59	7785
2026-01-23 00:33:38.77	244.70	35.41	-43.6	-49.2	9.1	3.04e-02	0	60	0	767557632	59	6632
2026-01-23 00:33:39.78	244.45	35.22	-43.4	-48.6	9.6	1.50e-02	0	60	0	769654784	58	6525
2026-01-23 00:33:40.79	244.20	35.04	-43.1	-47.9	10.2	9.19e-03	0	60	0	770703360	58	6051
2026-01-23 00:33:41.79	243.96	34.86	-43.0	-47.8	10.5	3.76e-03	0	61	0	772800512	57	6283
2026-01-23 00:33:42.80	243.72	34.68	-42.9	-47.4	10.8	3.17e-03	0	60	0	774897664	57	6039
2026-01-23 00:33:43.81	243.48	34.50	-43.0	-47.8	10.5	2.91e-03	0	61	0	776994816	57	6281
2026-01-23 00:33:44.82	243.24	34.32	-42.9	-47.4	10.9	2.93e-03	0	61	0	779091968	57	6017
2026-01-23 00:33:45.83	243.00	34.14	-42.8	-47.2	11.1	1.79e-03	0	61	0	780140544	57	5857
2026-01-23 00:33:46.84	242.77	33.96	-42.8	-47.1	11.2	2.02e-03	0	60	0	782237696	57	5798
2026-01-23 00:33:47.85	242.54	33.78	-42.7	-46.9	11.4	1.00e-03	0	61	0	784334848	57	5714
2026-01-23 00:33:48.86	242.31	33.61	-42.5	-46.5	11.5	9.99e-04	0	60	0	786432000	57	5461
2026-01-23 00:33:49.87	242.09	33.43	-42.8	-47.1	11.2	8.22e-04	0	61	0	788529152	56	6139
2026-01-23 00:33:50.87	241.87	33.25	-43.3	-48.3	9.9	3.17e-03	0	60	0	789577728	57	6716
2026-01-23 00:33:51.88	241.65	33.08	-43.5	-49.1	9.1	1.77e-02	0	61	0	791674880	57	7324
2026-01-23 00:33:52.90	241.43	32.90	-43.6	-49.4	8.8	4.23e-02	0	60	0	793772032	58	7128
2026-01-23 00:33:53.91	241.21	32.73	-43.5	-48.9	9.3	2.50e-02	0	61	0	795869184	58	6774
2026-01-23 00:33:54.91	241.00	32.55	-43.4	-48.6	9.6	1.67e-02	0	61	0	797966336	58	6544
2026-01-23 00:33:55.92	240.79	32.38	-43.3	-48.5	9.8	1.13e-02	0	61	0	799014912	58	6421
2026-01-23 00:33:56.93	240.58	32.20	-43.2	-48.3	10.1	1.22e-02	0	61	0	801112064	58	6289
2026-01-23 00:33:57.94	240.37	32.03	-43.3	-48.5	9.7	9.47e-03	0	61	0	803209216	58	6465
2026-01-23 00:33:58.95	240.17	31.86	-43.2	-48.3	9.9	1.08e-02	0	61	0	805306368	58	6297
2026-01-23 00:33:59.96	239.97	31.69	-43.0	-47.6	10.6	5.42e-03	0	61	0	807403520	58	5855
2026-01-23 00:34:00.97	239.77	31.52	-43.0	-47.6	10.7	3.67e-03	0	61	0	808452096	57	6186
2026-01-23 00:34:01.98	239.57	31.35	-43.0	-47.7	10.5	3.63e-03	0	61	0	810549248	57	6244
2026-01-23 00:34:02.99	239.37	31.18	-43.2	-48.2	10.0	4.93e-03	0	60	0	812646400	57	6609
2026-01-23 00:34:04.00	239.18	31.01	-43.5	-49.0	9.1	9.16e-03	0	61	0	814743552	57	7261
2026-01-23 00:34:05.01	238.99	30.84	-43.9	-50.5	7.6	4.38e-02	0	61	0	816840704	58	8174
2026-01-23 00:34:06.02	238.80	30.67	-44.1	-51.3	7.0	1.22e-01	0	61	0	817889280	58	8874
2026-01-23 00:34:07.03	238.61	30.50	-44.1	-51.2	7.1	1.36e-01	0	61	0	819986432	58	8762
2026-01-23 00:34:08.04	238.43	30.34	-43.7	-49.8	8.3	7.39e-02	0	61	0	822083584	58	7543
2026-01-23 00:34:09.04	238.24	30.17	-43.7	-49.6	8.5	3.93e-02	0	61	0	824180736	58	7358
2026-01-23 00:34:10.05	238.06	30.00	-43.2	-48.4	9.7	2.13e-02	0	61	0	826277888	58	6393
2026-01-23 00:34:11.06	237.88	29.84	-43.0	-47.7	10.5	3.37e-03	0	61	0	828375040	57	6266
2026-01-23 00:34:12.07	237.70	29.68	-42.5	-46.7	11.5	1.01e-03	0	61	0	829423616	57	5568
2026-01-23 00:34:13.08	237.53	29.51	-42.4	-46.5	11.8	3.75e-04	0	61	0	831520768	56	5739
2026-01-23 00:34:14.09	237.35	29.35	-42.3	-46.1	12.2	3.50e-04	0	61	0	833617920	56	5493
2026-01-23 00:34:15.10	237.18	29.19	-42.4	-46.3	12.0	3.23e-04	0	60	0	835715072	56	5630
2026-01-23 00:34:16.11	237.01	29.02	-42.8	-47.3	11.0	9.11e-04	0	60	0	837812224	56	6284
2026-01-23 00:34:17.12	236.84	28.86	-43.0	-47.8	10.4	2.32e-03	0	61	0	838860800	56	6703
2026-01-23 00:34:18.13	236.67	28.70	-43.3	-48.8	9.3	1.16e-02	0	61	0	840957952	57	7052
2026-01-23 00:34:19.14	236.51	28.54	-43.4	-49.0	9.1	1.89e-02	0	61	0	843055104	57	7255
2026-01-23 00:34:20.15	236.34	28.38	-43.5	-49.2	9.0	3.57e-02	0	61	0	845152256	57	7389
2026-01-23 00:34:21.16	236.18	28.22	-43.1	-48.2	10.0	1.37e-02	0	61	0	847249408	57	6611
2026-01-23 00:34:22.17	236.02	28.07	-42.9	-47.6	10.6	5.80e-03	0	61	0	848297984	57	6188
2026-01-23 00:34:23.18	235.86	27.91	-42.6	-46.8	11.5	2.17e-03	0	60	0	850395136	57	5637
2026-01-23 00:34:24.20	235.70	27.75	-42.5	-46.5	11.7	5.62e-04	0	60	0	852492288	56	5784
2026-01-23 00:34:25.20	235.55	27.60	-42.3	-46.2	12.1	2.80e-04	0	60	0	854589440	56	5558
2026-01-23 00:34:26.21	235.39	27.44	-42.5	-46.5	11.9	2.67e-04	0	61	0	856686592	56	5788
2026-01-23 00:34:27.22	235.24	27.29	-42.5	-46.6	11.7	5.88e-04	0	61	0	857735168	56	5829
2026-01-23 00:34:28.23	235.09	27.13	-42.4	-46.4	11.9	4.20e-04	0	61	0	859832320	56	5663
2026-01-23 00:34:29.24	234.94	26.98	-42.6	-46.8	11.5	6.77e-04	0	61	0	861929472	56	5927
2026-01-23 00:34:30.25	234.79	26.83	-42.6	-46.8	11.5	6.94e-04	0	61	0	864026624	56	5939
2026-01-23 00:34:31.26	234.64	26.67	-42.5	-46.7	11.5	9.93e-04	0	61	0	866123776	56	5881
2026-01-23 00:34:32.27	234.49	26.52	-42.3	-46.3	12.0	6.76e-04	0	61	0	867172352	56	5629
2026-01-23 00:34:33.28	234.35	26.37	-42.4	-46.4	11.8	5.71e-04	0	61	0	869269504	56	5701
2026-01-23 00:34:34.28	234.21	26.22	-42.1	-45.9	12.5	2.76e-04	0	61	0	871366656	56	5345
2026-01-23 00:34:35.29	234.07	26.07	-42.2	-46.0	12.2	1.76e-04	0	61	0	873463808	56	5462
2026-01-23 00:34:36.30	233.93	25.92	-42.3	-46.3	12.0	1.93e-04	0	60	0	875560960	56	5609
2026-01-23 00:34:37.31	233.79	25.78	-42.4	-46.3	11.9	3.04e-04	0	61	0	876609536	56	5637
2026-01-23 00:34:38.32	233.65	25.63	-42.5	-46.6	11.6	5.88e-04	0	61	0	878706688	56	5831
2026-01-23 00:34:39.33	233.51	25.48	-42.7	-47.1	11.1	1.00e-03	0	60	0	880803840	56	6195
2026-01-23 00:34:40.34	233.38	25.33	-43.0	-47.9	10.3	5.82e-03	0	60	0	882900992	56	6774
2026-01-23 00:34:41.35	233.24	25.19	-43.2	-48.4	9.8	7.89e-03	0	61	0	884998144	56	7139
2026-01-23 00:34:42.36	233.11	25.04	-43.1	-48.2	10.0	8.38e-03	0	61	0	886046720	56	6990
2026-01-23 00:34:43.37	232.98	24.90	-43.0	-47.9	10.3	6.85e-03	0	61	0	888143872	56	6746
2026-01-23 00:34:44.38	232.85	24.76	-43.0	-47.8	10.4	4.03e-03	0	61	0	890241024	56	6652
2026-01-23 00:34:45.39	232.72	24.61	-42.7	-47.1	11.1	2.18e-03	0	60	0	892338176	56	6139
2026-01-23 00:34:46.40	232.59	24.47	-42.7	-47.0	11.2	1.70e-03	0	61	0	894435328	56	6129
2026-01-23 00:34:47.41	232.47	24.33	-42.7	-47.1	11.1	1.66e-03	0	60	0	896532480	56	6170
2026-01-23 00:34:48.42	232.34	24.19	-42.7	-47.2	11.0	1.40e-03	0	60	0	897581056	56	6218
2026-01-23 00:34:49.43	232.22	24.04	-42.6	-47.0	11.1	1.89e-03	0	61	0	899678208	56	6129
2026-01-23 00:34:50.44	232.09	23.90	-42.7	-47.1	11.0	1.62e-03	0	60	0	901775360	56	6163
2026-01-23 00:34:51.45	231.97	23.76	-42.6	-47.0	11.2	1.76e-03	0	61	0	903872512	56	6099
2026-01-23 00:34:52.45	231.85	23.63	-42.5	-46.8	11.4	1.22e-03	0	61	0	905969664	56	5966
2026-01-23 00:34:53.46	231.73	23.49	-42.6	-46.9	11.4	1.10e-03	0	61	0	907018240	56	5994
2026-01-23 00:34:54.47	231.61	23.35	-42.4	-46.5	11.7	6.78e-04	0	61	0	909115392	56	5762
2026-01-23 00:34:55.49	231.49	23.21	-42.4	-46.6	11.6	5.41e-04	0	61	0	911212544	56	5794
2026-01-23 00:34:56.50	231.38	23.08	-42.5	-46.8	11.5	7.84e-04	0	61	0	913309696	56	5926
2026-01-23 00:34:57.50	231.26	22.94	-42.6	-46.9	11.2	1.24e-03	0	61	0	915406848	56	6034
2026-01-23 00:34:58.51	231.15	22.81	-42.6	-47.1	11.0	1.35e-03	0	61	0	916455424	56	6174
2026-01-23 00:34:59.52	231.03	22.67	-42.6	-47.0	11.2	1.50e-03	0	61	0	918552576	56	6116
2026-01-23 00:35:00.53	230.92	22.54	-42.6	-46.9	11.3	1.55e-03	0	61	0	920649728	56	6041
2026-01-23 00:35:01.54	230.81	22.40	-42.4	-46.7	11.6	9.43e-04	0	61	0	922746880	56	5868
2026-01-23 00:35:02.55	230.70	22.27	-42.4	-46.5	11.7	7.35e-04	0	61	0	924844032	56	5726
2026-01-23 00:35:03.57	230.59	22.14	-42.3	-46.2	11.9	4.55e-04	0	61	0	925892608	56	5577
2026-01-23 00:35:04.58	230.48	22.00	-42.3	-46.3	12.0	3.18e-04	0	61	0	927989760	56	5595
2026-01-23 00:35:05.59	230.37	21.87	-42.3	-46.3	11.9	3.11e-04	0	61	0	930086912	56	5604
2026-01-23 00:35:06.60	230.26	21.74	-42.4	-46.5	11.7	4.87e-04	0	61	0	932184064	56	5770
2026-01-23 00:35:07.60	230.16	21.61	-42.6	-47.0	11.1	1.15e-03	0	61	0	934281216	56	6115
2026-01-23 00:35:08.61	230.05	21.48	-42.8	-47.5	10.6	2.15e-03	0	61	0	935329792	56	6484
2026-01-23 00:35:09.62	229.95	21.35	-43.2	-48.4	9.7	8.99e-03	0	60	0	937426944	56	7156
2026-01-23 00:35:10.63	229.84	21.22	-43.3	-48.7	9.4	1.36e-02	0	61	0	939524096	57	6991
2026-01-23 00:35:11.64	229.74	21.10	-43.4	-49.0	9.0	2.18e-02	0	61	0	941621248	57	7285
2026-01-23 00:35:12.65	229.64	20.97	-43.4	-49.2	8.9	2.98e-02	0	61	0	943718400	57	7394
2026-01-23 00:35:13.66	229.54	20.84	-43.4	-49.1	8.9	2.77e-02	0	61	0	944766976	57	7369
2026-01-23 00:35:14.67	229.44	20.72	-43.3	-48.9	9.1	2.72e-02	0	61	0	946864128	57	7203
2026-01-23 00:35:15.68	229.34	20.59	-43.2	-48.5	9.5	1.62e-02	0	61	0	948961280	57	6837
2026-01-23 00:35:16.69	229.24	20.46	-43.0	-48.2	9.9	1.09e-02	0	61	0	951058432	57	6574
2026-01-23 00:35:17.69	229.15	20.34	-43.1	-48.2	9.9	9.92e-03	0	61	0	953155584	57	6597
2026-01-23 00:35:18.70	229.05	20.22	-43.0	-48.0	10.1	7.13e-03	0	61	0	954204160	57	6441
2026-01-23 00:35:19.71	228.95	20.09	-43.0	-48.0	10.1	6.48e-03	0	60	0	956301312	57	6435
2026-01-23 00:35:20.72	228.86	19.97	-43.0	-48.0	10.1	6.50e-03	0	61	0	958398464	57	6433
2026-01-23 00:35:21.73	228.76	19.85	-42.9	-47.7	10.3	5.79e-03	0	61	0	960495616	57	6259
2026-01-23 00:35:22.74	228.67	19.72	-42.9	-47.8	10.2	5.64e-03	0	61	0	962592768	57	6317
2026-01-23 00:35:23.75	228.58	19.60	-42.9	-47.9	10.1	6.63e-03	0	61	0	964689920	57	6399
2026-01-23 00:35:24.76	228.49	19.48	-43.0	-48.0	10.1	7.22e-03	0	60	0	965738496	57	6466
2026-01-23 00:35:25.77	228.39	19.36	-42.9	-47.8	10.2	6.03e-03	0	61	0	967835648	57	6333
2026-01-23 00:35:26.78	228.30	19.24	-43.0	-48.0	10.0	6.88e-03	0	61	0	969932800	57	6464
2026-01-23 00:35:27.79	228.21	19.12	-43.0	-48.0	10.0	7.42e-03	0	61	0	972029952	57	6477
2026-01-23 00:35:28.80	228.13	19.00	-43.0	-48.1	9.9	7.38e-03	0	61	0	974127104	57	6524
2026-01-23 00:35:29.81	228.04	18.88	-42.9	-47.9	10.1	7.13e-03	0	61	0	975175680	57	6403
2026-01-23 00:35:30.82	227.95	18.77	-42.9	-48.0	10.1	5.94e-03	0	61	0	977272832	57	6423
2026-01-23 00:35:31.83	227.86	18.65	-42.9	-47.9	10.1	6.34e-03	0	61	0	979369984	57	6406
2026-01-23 00:35:32.84	227.78	18.53	-42.9	-48.0	10.1	6.65e-03	0	61	0	981467136	57	6447
2026-01-23 00:35:33.85	227.69	18.41	-42.9	-47.8	10.3	5.60e-03	0	61	0	983564288	57	6277
2026-01-23 00:35:34.85	227.61	18.30	-42.8	-47.7	10.3	5.25e-03	0	61	0	984612864	57	6241
2026-01-23 00:35:35.86	227.52	18.18	-42.8	-47.7	10.3	5.64e-03	0	61	0	986710016	57	6272
2026-01-23 00:35:36.87	227.44	18.07	-42.8	-47.7	10.4	5.15e-03	0	61	0	988807168	57	6208
2026-01-23 00:35:37.88	227.36	17.95	-42.8	-47.5	10.4	3.64e-03	0	61	0	990904320	57	6124
2026-01-23 00:35:38.89	227.27	17.84	-42.7	-47.5	10.6	4.18e-03	0	61	0	993001472	57	6093
2026-01-23 00:35:39.90	227.19	17.72	-42.6	-47.3	10.7	2.86e-03	0	61	0	994050048	57	5928
2026-01-23 00:35:40.91	227.11	17.61	-42.7	-47.5	10.5	2.53e-03	0	61	0	996147200	57	6077
2026-01-23 00:35:41.92	227.03	17.50	-42.7	-47.4	10.6	3.23e-03	0	60	0	998244352	57	6011
2026-01-23 00:35:42.93	226.95	17.39	-42.7	-47.4	10.6	3.50e-03	0	61	0	1000341504	57	6038
2026-01-23 00:35:43.94	226.87	17.27	-42.7	-47.4	10.6	3.55e-03	0	61	0	1002438656	57	6007
2026-01-23 00:35:44.95	226.79	17.16	-42.8	-47.6	10.4	4.18e-03	0	61	0	1003487232	57	6162
2026-01-23 00:35:45.96	226.71	17.05	-42.7	-47.5	10.5	4.43e-03	0	61	0	1005584384	57	6107
2026-01-23 00:35:46.97	226.64	16.94	-42.8	-47.7	10.3	4.42e-03	0	61	0	1007681536	57	6227
2026-01-23 00:35:47.98	226.56	16.83	-42.8	-47.6	10.4	5.33e-03	0	61	0	1009778688	57	6144
2026-01-23 00:35:48.99	226.48	16.72	-42.8	-47.5	10.5	5.17e-03	0	61	0	1011875840	57	6120
2026-01-23 00:35:50.00	226.41	16.61	-42.7	-47.5	10.5	4.27e-03	0	61	0	1012924416	57	6073
2026-01-23 00:35:51.01	226.33	16.50	-42.7	-47.4	10.6	3.81e-03	0	61	0	1015021568	57	6027
2026-01-23 00:35:52.02	226.26	16.39	-42.6	-47.1	10.9	2.40e-03	0	60	0	1017118720	57	5844
2026-01-23 00:35:53.03	226.18	16.29	-42.6	-47.2	10.8	2.54e-03	0	61	0	1019215872	57	5867
2026-01-23 00:35:54.04	226.11	16.18	-42.6	-47.1	10.9	2.21e-03	0	61	0	1021313024	57	5802
2026-01-23 00:35:55.05	226.04	16.07	-42.4	-46.7	11.3	1.42e-03	0	61	0	1022361600	56	5895
2026-01-23 00:35:56.06	225.96	15.96	-42.4	-46.8	11.2	1.38e-03	0	61	0	1024458752	56	5941
2026-01-23 00:35:57.07	225.89	15.86	-42.3	-46.6	11.3	1.19e-03	0	61	0	1026555904	56	5829
2026-01-23 00:35:58.08	225.82	15.75	-42.2	-46.4	11.6	7.27e-04	0	61	0	1028653056	56	5662
2026-01-23 00:35:59.09	225.75	15.65	-42.3	-46.5	11.5	7.30e-04	0	61	0	1030750208	56	5728
2026-01-23 00:36:00.09	225.68	15.54	-42.2	-46.3	11.7	6.53e-04	0	61	0	1032847360	56	5633
2026-01-23 00:36:01.10	225.61	15.44	-42.2	-46.2	11.8	5.81e-04	0	61	0	1033895936	56	5588
2026-01-23 00:36:02.11	225.54	15.33	-42.2	-46.3	11.8	6.24e-04	0	61	0	1035993088	56	5619
2026-01-23 00:36:03.12	225.47	15.23	-42.2	-46.3	11.6	6.83e-04	0	61	0	1038090240	56	5655
2026-01-23 00:36:04.13	225.40	15.13	-42.2	-46.3	11.6	6.33e-04	0	61	0	1040187392	56	5650
2026-01-23 00:36:05.14	225.34	15.02	-42.3	-46.6	11.4	9.14e-04	0	61	0	1042284544	56	5794
2026-01-23 00:36:06.15	225.27	14.92	-42.4	-46.6	11.3	1.30e-03	0	61	0	1043333120	56	5855
2026-01-23 00:36:07.16	225.20	14.82	-42.4	-46.7	11.2	1.36e-03	0	61	0	1045430272	56	5913
2026-01-23 00:36:08.17	225.14	14.72	-42.5	-47.0	10.9	2.28e-03	0	61	0	1047527424	56	6099
2026-01-23 00:36:09.18	225.07	14.61	-42.5	-47.1	10.8	2.00e-03	0	61	0	1049624576	56	6165
2026-01-23 00:36:10.19	225.00	14.51	-42.6	-47.3	10.7	2.25e-03	0	61	0	1051721728	56	6323
2026-01-23 00:36:11.20	224.94	14.41	-42.6	-47.3	10.6	3.44e-03	0	61	0	1052770304	56	6283
2026-01-23 00:36:12.21	224.88	14.31	-42.6	-47.3	10.6	3.17e-03	0	61	0	1054867456	56	6307
2026-01-23 00:36:13.22	224.81	14.21	-42.7	-47.5	10.4	3.99e-03	0	60	0	1056964608	56	6443
2026-01-23 00:36:14.23	224.75	14.11	-42.7	-47.6	10.3	4.71e-03	0	61	0	1059061760	56	6500
2026-01-23 00:36:15.24	224.68	14.01	-42.7	-47.5	10.4	4.56e-03	0	61	0	1061158912	56	6450
2026-01-23 00:36:16.25	224.62	13.91	-42.7	-47.6	10.3	4.70e-03	0	61	0	1062207488	56	6499
2026-01-23 00:36:17.26	224.56	13.82	-42.7	-47.5	10.3	5.72e-03	0	61	0	1064304640	56	6493
2026-01-23 00:36:18.26	224.50	13.72	-42.6	-47.3	10.5	5.95e-03	0	61	0	1066401792	56	6306
2026-01-23 00:36:19.27	224.44	13.62	-42.7	-47.6	10.2	4.96e-03	0	61	0	1068498944	56	6540
2026-01-23 00:36:20.28	224.38	13.52	-42.8	-47.8	10.0	6.76e-03	0	61	0	1070596096	56	6683
2026-01-23 00:36:21.29	224.31	13.43	-42.7	-47.6	10.2	5.88e-03	0	60	0	1071644672	56	6512
2026-01-23 00:36:22.30	224.25	13.33	-42.8	-47.9	9.9	5.50e-03	0	61	0	1073741824	56	6732
2026-01-23 00:36:23.31	224.19	13.23	-42.7	-47.7	10.1	7.30e-03	0	61	0	1075838976	56	6619
2026-01-23 00:36:24.32	224.14	13.14	-42.7	-47.7	10.1	6.73e-03	0	61	0	1077936128	56	6575
2026-01-23 00:36:25.33	224.08	13.04	-42.7	-47.6	10.2	6.71e-03	0	61	0	1080033280	56	6552
2026-01-23 00:36:26.34	224.02	12.95	-42.7	-47.7	10.0	7.69e-03	0	60	0	1081081856	56	6633
2026-01-23 00:36:27.35	223.96	12.85	-42.7	-47.7	10.0	6.92e-03	0	61	0	1083179008	56	6639
