passes_logs/2026/01/23/R2.0S_Moscow/R2.0S_Moscow__20260123_023526_AQUA_rec.log

#Pass ID: 20260123_023526_AQUA
#Satellite: AQUA
#Configuration: AQUA
#almurnet v.1.7.20251203
#Start time: 2026-01-23 02:35:26

#Version: 2.2.20231116
#Station: R2.0S_Moscow
#Location: 37.707566 lon 55.798166 lat
#TLE: 1 27424U 02022A   26022.49486490  .00002153  00000+0  44069-3 0  9997
#TLE: 2 27424  98.4099 349.0485 0001970  69.5876  43.4746 14.61847233261984

#Time	Az	El	Level	Level2	SNR	BER	BlckErr	Temp	State	Recorded	gain1	gain2
2026-01-23 02:35:26.96	8.72	2.02	-40.9	-60.0	3.8	7.44e-01	0	51	0	0	53	32209
2026-01-23 02:35:27.98	8.66	2.08	-40.9	-59.9	3.8	7.49e-01	0	51	104	0	52	34062
2026-01-23 02:35:28.99	8.60	2.14	-40.9	-59.9	3.8	7.45e-01	0	51	104	0	52	34058
2026-01-23 02:35:30.00	8.54	2.21	-40.9	-59.9	3.8	7.44e-01	0	51	104	0	52	34053
2026-01-23 02:35:31.01	8.48	2.27	-40.9	-59.9	3.8	7.44e-01	0	51	104	0	52	34066
2026-01-23 02:35:32.02	8.42	2.33	-40.9	-59.9	3.8	7.45e-01	0	51	104	0	52	34081
2026-01-23 02:35:33.03	8.36	2.39	-40.9	-59.9	3.8	7.47e-01	0	51	104	0	52	34018
2026-01-23 02:35:34.04	8.30	2.46	-40.9	-59.9	3.8	7.48e-01	0	51	104	0	52	34037
2026-01-23 02:35:35.05	8.24	2.52	-40.9	-59.9	3.8	7.47e-01	0	51	104	0	52	34043
2026-01-23 02:35:36.06	8.17	2.58	-40.9	-59.9	3.8	7.43e-01	0	52	104	0	52	34030
2026-01-23 02:35:37.07	8.11	2.64	-40.9	-59.9	3.8	7.47e-01	0	52	104	0	52	34024
2026-01-23 02:35:38.08	8.05	2.71	-40.9	-59.9	3.8	7.42e-01	0	52	104	0	52	34009
2026-01-23 02:35:39.09	7.98	2.77	-40.9	-59.9	3.8	7.45e-01	0	52	104	0	52	33992
2026-01-23 02:35:40.10	7.92	2.83	-40.9	-59.9	3.8	7.46e-01	0	52	104	0	52	34007
2026-01-23 02:35:41.11	7.86	2.90	-40.9	-59.9	3.8	7.45e-01	0	52	104	0	52	34037
2026-01-23 02:35:42.12	7.79	2.96	-40.9	-59.9	3.8	7.43e-01	0	52	104	0	52	33999
2026-01-23 02:35:43.13	7.73	3.02	-40.9	-59.9	3.8	7.49e-01	0	52	104	0	52	34035
2026-01-23 02:35:44.14	7.66	3.09	-40.9	-59.9	3.8	7.45e-01	0	52	104	0	52	34012
2026-01-23 02:35:45.15	7.60	3.15	-40.9	-59.9	3.8	7.43e-01	0	52	104	0	52	33967
2026-01-23 02:35:46.16	7.53	3.21	-40.9	-59.9	3.8	7.47e-01	0	52	104	0	52	33971
2026-01-23 02:35:47.17	7.47	3.28	-40.9	-59.9	3.8	7.45e-01	0	52	104	0	52	33936
2026-01-23 02:35:48.18	7.40	3.34	-40.9	-59.9	3.8	7.45e-01	0	52	104	0	52	34003
2026-01-23 02:35:49.19	7.34	3.41	-40.9	-59.9	3.8	7.43e-01	0	52	104	0	52	33995
2026-01-23 02:35:50.20	7.27	3.47	-40.9	-59.9	3.8	7.46e-01	0	52	104	0	52	33964
2026-01-23 02:35:51.21	7.20	3.53	-40.9	-59.9	3.8	7.46e-01	0	53	104	0	52	33980
2026-01-23 02:35:52.22	7.13	3.60	-40.9	-59.9	3.8	7.46e-01	0	53	104	0	52	34013
2026-01-23 02:35:53.23	7.07	3.66	-40.9	-59.9	3.8	7.46e-01	0	53	104	0	52	33943
2026-01-23 02:35:54.24	7.00	3.73	-40.9	-59.9	3.8	7.44e-01	0	53	104	0	52	33936
2026-01-23 02:35:55.25	6.93	3.79	-40.9	-59.9	3.8	7.48e-01	0	53	104	0	52	33923
2026-01-23 02:35:56.26	6.86	3.86	-40.9	-59.9	3.8	7.42e-01	0	53	104	0	52	33909
2026-01-23 02:35:57.27	6.79	3.92	-40.9	-59.9	3.8	7.42e-01	0	53	104	0	52	33991
2026-01-23 02:35:58.28	6.72	3.99	-40.9	-59.9	3.8	7.45e-01	0	53	104	0	52	33917
2026-01-23 02:35:59.29	6.65	4.06	-40.9	-59.9	3.8	7.44e-01	0	53	104	0	52	33941
2026-01-23 02:36:00.30	6.58	4.12	-40.9	-59.9	3.8	7.44e-01	0	53	104	0	52	33922
2026-01-23 02:36:01.31	6.51	4.19	-40.9	-59.9	3.8	7.44e-01	0	53	104	0	52	33911
2026-01-23 02:36:02.32	6.44	4.25	-40.9	-59.9	3.8	7.50e-01	0	53	104	0	52	33996
2026-01-23 02:36:03.33	6.37	4.32	-40.9	-59.9	3.8	7.43e-01	0	53	104	0	52	33847
2026-01-23 02:36:04.34	6.30	4.39	-40.9	-59.9	3.8	7.44e-01	0	53	104	0	52	33945
2026-01-23 02:36:05.35	6.23	4.45	-40.9	-59.9	3.8	7.46e-01	0	53	104	0	52	33863
2026-01-23 02:36:06.36	6.15	4.52	-40.9	-59.9	3.8	7.45e-01	0	54	104	0	52	33899
2026-01-23 02:36:07.37	6.08	4.59	-40.9	-59.9	3.8	7.43e-01	0	54	104	0	52	33840
2026-01-23 02:36:08.38	6.01	4.65	-40.9	-59.9	3.8	7.46e-01	0	53	104	0	52	33843
2026-01-23 02:36:09.39	5.93	4.72	-40.9	-59.9	3.8	7.45e-01	0	54	104	0	52	33828
2026-01-23 02:36:10.40	5.86	4.79	-40.9	-59.9	3.8	7.45e-01	0	54	104	0	52	33902
2026-01-23 02:36:11.41	5.79	4.85	-40.9	-59.9	3.8	7.44e-01	0	54	104	0	52	33896
2026-01-23 02:36:12.42	5.71	4.92	-40.9	-59.9	3.8	7.43e-01	0	54	104	0	52	33814
2026-01-23 02:36:13.43	5.64	4.99	-40.9	-59.9	3.8	7.43e-01	0	54	104	0	52	33731
2026-01-23 02:36:14.44	5.56	5.06	-40.9	-59.9	3.8	7.44e-01	0	54	104	0	52	33791
2026-01-23 02:36:15.45	5.49	5.12	-40.9	-59.9	3.8	7.44e-01	0	54	104	0	52	33713
2026-01-23 02:36:16.46	5.41	5.19	-40.9	-59.9	3.8	7.43e-01	0	54	104	0	52	33825
2026-01-23 02:36:17.47	5.33	5.26	-40.9	-59.8	3.8	7.47e-01	0	54	104	0	52	33686
2026-01-23 02:36:18.48	5.25	5.33	-40.9	-59.9	3.8	7.44e-01	0	54	104	0	52	33758
2026-01-23 02:36:19.49	5.18	5.40	-40.9	-59.9	3.8	7.45e-01	0	54	104	0	52	33844
2026-01-23 02:36:20.50	5.10	5.47	-40.9	-59.9	3.8	7.43e-01	0	54	104	0	52	33854
2026-01-23 02:36:21.51	5.02	5.54	-40.9	-59.9	3.8	7.44e-01	0	54	104	0	52	33903
2026-01-23 02:36:22.52	4.94	5.60	-40.9	-59.9	3.8	7.44e-01	0	54	104	0	52	33781
2026-01-23 02:36:23.53	4.86	5.67	-40.9	-59.9	3.8	7.45e-01	0	54	104	0	52	33818
2026-01-23 02:36:24.54	4.78	5.74	-40.9	-59.9	3.8	7.46e-01	0	55	104	0	52	33740
2026-01-23 02:36:25.55	4.70	5.81	-40.9	-59.9	3.8	7.45e-01	0	54	104	0	52	33728
2026-01-23 02:36:26.56	4.62	5.88	-40.9	-59.9	3.8	7.44e-01	0	54	104	0	52	33781
2026-01-23 02:36:27.57	4.54	5.95	-40.9	-59.9	3.8	7.43e-01	0	55	104	0	52	33947
2026-01-23 02:36:28.58	4.46	6.02	-40.9	-59.9	3.8	7.46e-01	0	54	104	0	52	33809
2026-01-23 02:36:29.59	4.38	6.09	-40.9	-59.9	3.8	7.43e-01	0	55	104	0	52	33731
2026-01-23 02:36:30.60	4.29	6.16	-40.9	-59.9	3.8	7.46e-01	0	55	104	0	52	33738
2026-01-23 02:36:31.62	4.21	6.23	-40.9	-59.9	3.8	7.47e-01	0	55	104	0	52	33882
2026-01-23 02:36:32.63	4.13	6.30	-40.9	-59.9	3.8	7.46e-01	0	55	104	0	52	33826
2026-01-23 02:36:33.64	4.04	6.37	-40.9	-59.9	3.8	7.45e-01	0	55	104	0	52	33819
2026-01-23 02:36:34.65	3.96	6.44	-40.9	-59.9	3.8	7.46e-01	0	55	104	0	52	33840
2026-01-23 02:36:35.66	3.88	6.52	-40.9	-59.9	3.8	7.47e-01	0	55	104	0	52	33807
2026-01-23 02:36:36.67	3.79	6.59	-40.9	-59.9	3.8	7.44e-01	0	55	104	0	52	33788
2026-01-23 02:36:37.68	3.70	6.66	-40.9	-59.9	3.8	7.45e-01	0	55	104	0	52	33814
2026-01-23 02:36:38.69	3.62	6.73	-40.9	-59.9	3.8	7.46e-01	0	55	104	0	52	33762
2026-01-23 02:36:39.70	3.53	6.80	-40.9	-59.9	3.8	7.48e-01	0	55	104	0	52	33819
2026-01-23 02:36:40.71	3.44	6.87	-40.9	-59.9	3.8	7.45e-01	0	55	104	0	52	33813
2026-01-23 02:36:41.72	3.36	6.94	-40.9	-59.9	3.8	7.41e-01	0	55	104	0	52	33800
2026-01-23 02:36:42.73	3.27	7.02	-40.9	-59.9	3.8	7.44e-01	0	55	104	0	52	33707
2026-01-23 02:36:43.74	3.18	7.09	-40.9	-59.8	3.8	7.43e-01	0	55	104	0	52	33695
2026-01-23 02:36:44.76	3.09	7.16	-40.9	-59.9	3.8	7.45e-01	0	55	104	0	52	33713
2026-01-23 02:36:45.77	3.00	7.24	-40.9	-59.9	3.8	7.45e-01	0	55	104	0	52	33701
2026-01-23 02:36:46.78	2.91	7.31	-40.9	-59.9	3.8	7.45e-01	0	56	104	0	52	33768
2026-01-23 02:36:47.79	2.82	7.38	-40.9	-59.9	3.8	7.44e-01	0	55	104	0	52	33836
2026-01-23 02:36:48.80	2.73	7.45	-40.9	-59.9	3.8	7.43e-01	0	56	104	0	52	33796
2026-01-23 02:36:49.81	2.64	7.53	-40.9	-59.9	3.8	7.47e-01	0	56	104	0	52	33775
2026-01-23 02:36:50.81	2.55	7.60	-40.9	-59.9	3.8	7.45e-01	0	56	104	0	52	33816
2026-01-23 02:36:51.82	2.45	7.67	-40.9	-59.9	3.8	7.45e-01	0	56	104	0	52	33781
2026-01-23 02:36:52.83	2.36	7.75	-40.9	-59.9	3.8	7.44e-01	0	56	104	0	52	33788
2026-01-23 02:36:53.84	2.27	7.82	-40.9	-59.9	3.8	7.43e-01	0	56	104	0	52	33736
2026-01-23 02:36:54.85	2.17	7.90	-40.9	-59.9	3.8	7.44e-01	0	56	104	0	52	33829
2026-01-23 02:36:55.86	2.08	7.97	-40.9	-59.9	3.8	7.43e-01	0	56	104	0	52	33769
2026-01-23 02:36:56.87	1.98	8.04	-40.9	-59.9	3.8	7.43e-01	0	56	104	0	52	33816
2026-01-23 02:36:57.88	1.89	8.12	-40.9	-59.9	3.8	7.45e-01	0	56	104	0	52	33830
2026-01-23 02:36:58.89	1.79	8.19	-41.0	-60.0	3.8	7.47e-01	0	56	104	0	52	34318
2026-01-23 02:36:59.90	1.69	8.27	-40.9	-59.9	3.8	7.44e-01	0	56	104	0	52	34045
2026-01-23 02:37:00.91	1.59	8.34	-41.0	-60.0	3.8	7.46e-01	0	56	104	0	52	34101
2026-01-23 02:37:01.92	1.50	8.42	-41.0	-60.0	3.8	7.48e-01	0	56	104	0	52	34266
2026-01-23 02:37:02.93	1.40	8.49	-41.0	-60.0	3.8	7.47e-01	0	56	104	0	52	34466
2026-01-23 02:37:03.94	1.30	8.57	-40.9	-59.9	3.8	7.41e-01	0	56	104	0	52	33908
2026-01-23 02:37:04.94	1.20	8.65	-41.0	-60.0	3.8	7.48e-01	0	56	104	0	52	34177
2026-01-23 02:37:05.95	1.10	8.72	-41.0	-60.0	3.8	7.44e-01	0	56	104	0	52	34156
2026-01-23 02:37:06.96	1.00	8.80	-41.0	-60.0	3.8	7.48e-01	0	56	104	0	52	34321
2026-01-23 02:37:07.97	0.90	8.87	-40.8	-59.8	3.8	7.46e-01	0	56	104	0	52	33628
2026-01-23 02:37:08.98	0.79	8.95	-41.0	-60.0	3.8	7.41e-01	0	56	104	0	52	34204
2026-01-23 02:37:09.99	0.69	9.03	-40.9	-59.9	3.8	7.44e-01	0	56	104	0	52	33932
2026-01-23 02:37:11.00	0.59	9.10	-41.0	-60.0	3.8	7.45e-01	0	56	104	0	52	34230
2026-01-23 02:37:12.01	0.48	9.18	-40.9	-59.9	3.8	7.45e-01	0	56	104	0	52	33851
2026-01-23 02:37:13.01	0.38	9.26	-41.0	-60.0	3.8	7.44e-01	0	56	104	0	52	34124
2026-01-23 02:37:14.02	0.27	9.34	-40.9	-59.9	3.8	7.42e-01	0	56	104	0	52	33741
2026-01-23 02:37:15.03	0.17	9.41	-41.0	-60.1	3.8	7.46e-01	0	56	104	0	52	34507
2026-01-23 02:37:16.04	0.06	9.49	-40.9	-59.9	3.8	7.44e-01	0	56	104	0	52	33926
2026-01-23 02:37:17.05	359.95	9.57	-41.0	-60.0	3.8	7.46e-01	0	56	104	0	52	34247
2026-01-23 02:37:18.06	359.84	9.65	-40.9	-59.9	3.8	7.45e-01	0	56	104	0	52	33996
2026-01-23 02:37:19.07	359.74	9.73	-41.1	-60.1	3.8	7.45e-01	0	57	104	0	52	34602
2026-01-23 02:37:20.08	359.63	9.80	-40.9	-59.9	3.8	7.47e-01	0	56	104	0	52	33752
2026-01-23 02:37:21.09	359.52	9.88	-41.0	-60.0	3.8	7.48e-01	0	57	104	0	52	34317
2026-01-23 02:37:22.10	359.41	9.96	-40.9	-59.9	3.8	7.47e-01	0	57	104	0	52	34007
2026-01-23 02:37:23.11	359.30	10.04	-41.1	-60.1	3.8	7.47e-01	0	57	104	0	52	34707
2026-01-23 02:37:24.12	359.18	10.12	-40.9	-59.8	3.8	7.45e-01	0	57	104	0	52	33641
2026-01-23 02:37:25.13	359.07	10.20	-41.0	-60.0	3.8	7.45e-01	0	57	104	0	52	34445
2026-01-23 02:37:26.14	358.96	10.28	-40.9	-59.9	3.8	7.46e-01	0	57	104	0	52	33990
2026-01-23 02:37:27.15	358.84	10.36	-41.1	-60.2	3.8	7.44e-01	0	57	104	0	52	34980
2026-01-23 02:37:28.16	358.73	10.44	-40.8	-59.8	3.8	7.45e-01	0	57	104	0	52	33654
2026-01-23 02:37:29.17	358.61	10.52	-41.1	-60.1	3.8	7.48e-01	0	57	104	0	52	34573
2026-01-23 02:37:30.18	358.50	10.60	-40.9	-59.9	3.8	7.47e-01	0	57	104	0	52	34065
2026-01-23 02:37:31.19	358.38	10.68	-41.2	-60.2	3.8	7.46e-01	0	57	104	0	53	33235
2026-01-23 02:37:32.20	358.26	10.76	-40.8	-59.8	3.8	7.45e-01	0	57	104	0	53	31790
2026-01-23 02:37:33.21	358.14	10.84	-41.2	-60.2	3.8	7.44e-01	0	57	104	0	53	33213
2026-01-23 02:37:34.22	358.03	10.92	-41.0	-60.0	3.8	7.44e-01	0	57	104	0	53	32423
2026-01-23 02:37:35.23	357.91	11.00	-41.3	-60.4	3.8	7.47e-01	0	57	104	0	53	33882
2026-01-23 02:37:36.24	357.79	11.09	-40.9	-59.9	3.8	7.45e-01	0	57	104	0	53	31837
2026-01-23 02:37:37.25	357.66	11.17	-41.1	-60.0	3.8	7.45e-01	0	57	104	0	53	32484
2026-01-23 02:37:38.26	357.54	11.25	-40.9	-59.9	3.8	7.47e-01	0	57	104	0	53	31967
2026-01-23 02:37:39.26	357.42	11.33	-41.0	-59.9	3.8	7.47e-01	0	57	104	0	53	31894
2026-01-23 02:37:40.27	357.30	11.41	-41.0	-59.9	3.8	7.45e-01	0	57	104	0	53	31884
2026-01-23 02:37:41.28	357.17	11.49	-41.1	-59.9	3.8	7.45e-01	0	57	104	0	53	31985
2026-01-23 02:37:42.29	357.05	11.58	-41.2	-59.9	3.8	7.48e-01	0	57	104	0	53	31972
2026-01-23 02:37:43.31	356.92	11.66	-41.1	-59.6	3.8	7.45e-01	0	57	104	0	53	30911
2026-01-23 02:37:44.31	356.80	11.74	-42.4	-57.3	4.3	7.31e-01	0	57	104	0	55	21117
2026-01-23 02:37:45.32	356.67	11.83	-42.5	-55.7	5.0	7.06e-01	0	57	0	0	55	17588
2026-01-23 02:37:46.33	356.54	11.91	-42.0	-59.4	3.8	7.42e-01	0	57	104	0	55	26921
2026-01-23 02:37:47.34	356.41	11.99	-42.3	-53.6	6.7	6.68e-01	92	57	0	524288	55	13736
2026-01-23 02:37:48.35	356.28	12.08	-42.3	-53.1	7.1	6.61e-01	91	57	0	2097152	55	13065
2026-01-23 02:37:49.36	356.15	12.16	-42.3	-53.3	6.9	6.63e-01	92	57	0	4194304	55	13374
2026-01-23 02:37:50.37	356.02	12.24	-42.3	-53.8	6.5	6.73e-01	92	58	0	5767168	55	14054
2026-01-23 02:37:51.38	355.89	12.33	-42.3	-54.3	6.0	6.87e-01	40	57	0	7864320	55	15048
2026-01-23 02:37:52.39	355.75	12.41	-42.1	-55.2	5.3	7.04e-01	0	57	0	7864320	55	16667
2026-01-23 02:37:53.40	355.62	12.50	-41.9	-57.7	4.0	7.37e-01	0	57	104	7864320	55	22055
2026-01-23 02:37:54.41	355.49	12.58	-41.9	-54.9	5.4	6.99e-01	0	57	0	7864320	55	15992
2026-01-23 02:37:55.42	355.35	12.67	-41.6	-60.4	3.8	7.49e-01	0	57	104	7864320	55	30310
2026-01-23 02:37:56.42	355.21	12.75	-41.7	-58.8	3.8	7.44e-01	0	58	104	7864320	55	25019
2026-01-23 02:37:57.43	355.08	12.84	-42.1	-58.2	3.9	7.41e-01	0	58	104	7864320	55	23454
2026-01-23 02:37:58.44	354.94	12.92	-42.0	-58.3	3.9	7.43e-01	0	58	104	7864320	55	23787
2026-01-23 02:37:59.45	354.80	13.01	-41.9	-59.0	3.9	7.43e-01	0	57	104	7864320	55	25713
2026-01-23 02:38:00.46	354.66	13.09	-41.8	-59.7	3.8	7.47e-01	0	58	104	7864320	55	27748
2026-01-23 02:38:01.47	354.52	13.18	-41.6	-60.1	3.8	7.44e-01	0	57	104	7864320	55	29273
2026-01-23 02:38:02.48	354.38	13.26	-41.6	-60.5	3.8	7.44e-01	0	58	104	7864320	55	30569
2026-01-23 02:38:03.49	354.23	13.35	-41.7	-60.5	3.8	7.45e-01	0	58	104	7864320	55	30431
2026-01-23 02:38:04.50	354.09	13.44	-41.6	-60.4	3.8	7.45e-01	0	58	104	7864320	55	30341
2026-01-23 02:38:05.51	353.95	13.52	-41.5	-60.4	3.8	7.47e-01	0	58	104	7864320	55	30230
2026-01-23 02:38:06.52	353.80	13.61	-41.6	-60.5	3.8	7.42e-01	0	58	104	7864320	55	30478
2026-01-23 02:38:07.53	353.65	13.70	-41.7	-60.6	3.8	7.44e-01	0	58	104	7864320	55	30923
2026-01-23 02:38:08.54	353.51	13.79	-41.6	-60.5	3.8	7.46e-01	0	58	104	7864320	55	30543
2026-01-23 02:38:09.55	353.36	13.87	-41.7	-60.7	3.8	7.47e-01	0	58	104	7864320	55	31093
2026-01-23 02:38:10.56	353.21	13.96	-41.7	-60.6	3.8	7.45e-01	0	58	104	7864320	55	30908
2026-01-23 02:38:11.57	353.06	14.05	-41.6	-60.5	3.8	7.46e-01	0	58	104	7864320	55	30685
2026-01-23 02:38:12.58	352.91	14.14	-41.7	-60.6	3.8	7.44e-01	0	58	104	7864320	55	31037
2026-01-23 02:38:13.59	352.75	14.22	-41.9	-60.8	3.8	7.42e-01	0	58	104	7864320	55	31617
2026-01-23 02:38:14.59	352.60	14.31	-41.8	-60.7	3.8	7.46e-01	0	58	104	7864320	55	31268
2026-01-23 02:38:15.60	352.45	14.40	-41.7	-60.6	3.8	7.43e-01	0	58	104	7864320	55	31001
2026-01-23 02:38:16.61	352.29	14.49	-41.8	-60.8	3.8	7.44e-01	0	58	104	7864320	55	31477
2026-01-23 02:38:17.62	352.14	14.58	-41.7	-60.6	3.8	7.44e-01	0	58	104	7864320	55	31037
2026-01-23 02:38:18.63	351.98	14.66	-41.8	-60.8	3.8	7.46e-01	0	58	104	7864320	55	31469
2026-01-23 02:38:19.64	351.82	14.75	-41.8	-60.8	3.8	7.44e-01	0	58	104	7864320	55	31571
2026-01-23 02:38:20.65	351.66	14.84	-41.7	-60.7	3.8	7.44e-01	0	58	104	7864320	55	31134
2026-01-23 02:38:21.66	351.50	14.93	-41.9	-60.9	3.8	7.46e-01	0	58	104	7864320	55	31836
2026-01-23 02:38:22.67	351.34	15.02	-41.8	-60.8	3.8	7.47e-01	0	58	104	7864320	55	31532
2026-01-23 02:38:23.68	351.18	15.11	-41.8	-60.8	3.8	7.44e-01	0	58	104	7864320	55	31528
2026-01-23 02:38:24.69	351.01	15.20	-41.9	-60.9	3.8	7.46e-01	0	58	104	7864320	55	31951
2026-01-23 02:38:25.70	350.85	15.29	-42.1	-61.1	3.8	7.43e-01	0	58	104	7864320	55	32612
2026-01-23 02:38:26.70	350.69	15.38	-42.0	-61.0	3.8	7.44e-01	0	58	104	7864320	55	32311
2026-01-23 02:38:27.71	350.52	15.47	-41.9	-60.9	3.8	7.44e-01	0	58	104	7864320	55	31979
2026-01-23 02:38:28.72	350.35	15.56	-42.0	-61.0	3.8	7.49e-01	0	58	104	7864320	55	32452
2026-01-23 02:38:29.73	350.18	15.65	-42.1	-61.1	3.8	7.44e-01	0	58	104	7864320	55	32623
2026-01-23 02:38:30.74	350.01	15.74	-42.2	-61.1	3.8	7.46e-01	0	58	104	7864320	55	32661
2026-01-23 02:38:31.75	349.84	15.83	-41.9	-60.8	3.8	7.48e-01	0	58	104	7864320	55	31762
2026-01-23 02:38:32.76	349.67	15.92	-42.1	-61.1	3.8	7.47e-01	0	58	104	7864320	55	32878
2026-01-23 02:38:33.77	349.49	16.01	-42.4	-61.3	3.8	7.44e-01	0	58	104	7864320	55	33469
2026-01-23 02:38:34.78	349.32	16.10	-42.0	-61.0	3.8	7.45e-01	0	58	104	7864320	55	32230
2026-01-23 02:38:35.79	349.14	16.19	-42.0	-60.9	3.8	7.44e-01	0	58	104	7864320	55	31948
2026-01-23 02:38:36.80	348.97	16.28	-42.4	-61.3	3.8	7.47e-01	0	58	104	7864320	55	33533
2026-01-23 02:38:37.81	348.79	16.38	-42.5	-61.3	3.8	7.47e-01	0	58	104	7864320	55	33570
2026-01-23 02:38:38.82	348.61	16.47	-42.2	-61.2	3.8	7.47e-01	0	58	104	7864320	55	32942
2026-01-23 02:38:39.83	348.43	16.56	-42.3	-61.2	3.8	7.43e-01	0	58	104	7864320	55	33156
2026-01-23 02:38:40.84	348.25	16.65	-42.5	-61.3	3.8	7.46e-01	0	58	104	7864320	55	33478
2026-01-23 02:38:41.84	348.07	16.74	-42.6	-61.4	3.8	7.50e-01	0	59	104	7864320	55	33937
2026-01-23 02:38:42.85	347.88	16.83	-42.5	-61.3	3.8	7.42e-01	0	58	104	7864320	55	33669
2026-01-23 02:38:43.86	347.70	16.92	-42.3	-61.2	3.8	7.45e-01	0	58	104	7864320	55	33189
2026-01-23 02:38:44.87	347.51	17.02	-42.5	-61.3	3.8	7.44e-01	0	59	104	7864320	55	33664
2026-01-23 02:38:45.88	347.32	17.11	-42.4	-61.3	3.8	7.48e-01	0	59	104	7864320	55	33669
2026-01-23 02:38:46.89	347.13	17.20	-42.5	-61.4	3.8	7.44e-01	0	58	104	7864320	55	33824
2026-01-23 02:38:47.90	346.94	17.29	-42.1	-61.1	3.8	7.45e-01	0	59	104	7864320	55	32654
2026-01-23 02:38:48.91	346.75	17.38	-42.4	-61.3	3.8	7.45e-01	0	59	104	7864320	55	33335
2026-01-23 02:38:49.92	346.56	17.48	-42.1	-61.0	3.8	7.51e-01	0	59	104	7864320	55	32541
2026-01-23 02:38:50.93	346.37	17.57	-42.5	-61.4	3.8	7.44e-01	0	59	104	7864320	55	33741
2026-01-23 02:38:51.94	346.17	17.66	-41.9	-60.9	3.8	7.44e-01	0	58	104	7864320	55	31812
2026-01-23 02:38:52.95	345.97	17.75	-42.1	-61.0	3.8	7.44e-01	0	59	104	7864320	55	32411
2026-01-23 02:38:53.96	345.78	17.85	-41.9	-60.9	3.8	7.46e-01	0	58	104	7864320	55	31830
2026-01-23 02:38:54.97	345.58	17.94	-42.3	-61.1	3.8	7.46e-01	0	59	104	7864320	55	32912
2026-01-23 02:38:55.97	345.38	18.03	-41.9	-60.8	3.8	7.44e-01	0	59	104	7864320	55	31572
2026-01-23 02:38:56.99	345.17	18.12	-42.1	-61.0	3.8	7.45e-01	0	59	104	7864320	55	32375
2026-01-23 02:38:58.00	344.97	18.22	-41.8	-60.8	3.8	7.43e-01	0	58	104	7864320	55	31651
2026-01-23 02:38:59.00	344.77	18.31	-42.0	-61.0	3.8	7.47e-01	0	59	104	7864320	55	32205
2026-01-23 02:39:00.01	344.56	18.40	-42.1	-61.0	3.8	7.43e-01	0	59	104	7864320	55	32212
2026-01-23 02:39:01.02	344.35	18.49	-42.0	-60.9	3.8	7.47e-01	0	59	104	7864320	55	32008
2026-01-23 02:39:02.03	344.15	18.59	-41.9	-60.8	3.8	7.45e-01	0	59	104	7864320	55	31630
2026-01-23 02:39:03.04	343.94	18.68	-41.9	-60.7	3.8	7.47e-01	0	59	104	7864320	55	31324
2026-01-23 02:39:04.05	343.72	18.77	-42.2	-61.0	3.8	7.46e-01	0	59	104	7864320	55	32481
2026-01-23 02:39:05.06	343.51	18.86	-41.8	-60.7	3.8	7.44e-01	0	59	104	7864320	55	31415
2026-01-23 02:39:06.07	343.30	18.96	-42.1	-61.1	3.8	7.46e-01	0	59	104	7864320	55	32616
2026-01-23 02:39:07.08	343.08	19.05	-41.8	-60.5	3.8	7.44e-01	0	59	104	7864320	55	30690
2026-01-23 02:39:08.09	342.87	19.14	-42.2	-60.8	3.8	7.47e-01	0	59	104	7864320	55	31639
2026-01-23 02:39:09.10	342.65	19.23	-41.8	-60.5	3.8	7.43e-01	0	59	104	7864320	55	30622
2026-01-23 02:39:10.11	342.43	19.33	-41.9	-60.1	3.8	7.47e-01	0	59	104	7864320	55	29310
2026-01-23 02:39:11.12	342.21	19.42	-42.0	-60.4	3.8	7.43e-01	0	59	104	7864320	55	30294
2026-01-23 02:39:12.13	341.98	19.51	-42.0	-60.5	3.8	7.45e-01	0	59	104	7864320	55	30556
2026-01-23 02:39:13.14	341.76	19.60	-42.3	-61.3	3.8	7.46e-01	0	59	104	7864320	55	33439
2026-01-23 02:39:14.15	341.53	19.70	-42.2	-60.9	3.8	7.46e-01	0	59	104	7864320	55	32103
2026-01-23 02:39:15.16	341.31	19.79	-42.9	-60.1	3.8	7.44e-01	0	59	104	7864320	56	27591
2026-01-23 02:39:16.16	341.08	19.88	-43.8	-58.2	4.4	7.23e-01	0	59	104	7864320	58	19795
2026-01-23 02:39:17.17	340.85	19.97	-42.8	-61.3	3.8	7.44e-01	0	59	104	7864320	57	30003
2026-01-23 02:39:18.18	340.62	20.06	-43.5	-54.5	6.8	6.64e-01	92	59	0	8388608	57	13666
2026-01-23 02:39:19.19	340.39	20.15	-43.4	-53.3	8.1	6.44e-01	70	59	0	9961472	57	11880
2026-01-23 02:39:20.20	340.15	20.25	-43.3	-51.6	10.0	6.21e-01	0	59	0	12058624	57	9772
2026-01-23 02:39:21.21	339.92	20.34	-43.2	-50.3	11.7	6.06e-01	0	59	0	13631488	57	8390
2026-01-23 02:39:22.22	339.68	20.43	-43.1	-49.4	12.8	6.04e-01	0	59	0	15728640	57	7596
2026-01-23 02:39:23.23	339.44	20.52	-43.0	-48.7	13.7	6.04e-01	0	59	0	17825792	57	7017
2026-01-23 02:39:24.24	339.20	20.61	-43.0	-48.5	14.1	6.05e-01	0	59	0	19398656	57	6802
2026-01-23 02:39:25.25	338.96	20.70	-42.8	-47.7	15.0	6.02e-01	0	59	0	21495808	57	6252
2026-01-23 02:39:26.26	338.71	20.79	-42.4	-46.8	16.0	6.05e-01	0	59	0	23068672	56	5953
2026-01-23 02:39:27.26	338.47	20.88	-42.0	-45.9	17.0	6.01e-01	0	59	0	25165824	56	5368
2026-01-23 02:39:28.27	338.22	20.97	-41.9	-45.5	17.3	6.02e-01	0	59	0	27262976	55	5461
2026-01-23 02:39:29.29	337.97	21.07	-41.9	-45.5	17.4	6.03e-01	0	59	0	28835840	55	5436
2026-01-23 02:39:30.30	337.72	21.16	-41.9	-45.4	17.5	6.02e-01	0	59	0	30932992	55	5396
2026-01-23 02:39:31.31	337.47	21.25	-41.8	-45.3	17.7	6.01e-01	0	59	0	32505856	55	5336
2026-01-23 02:39:32.32	337.22	21.34	-41.8	-45.2	17.9	6.05e-01	0	59	0	34603008	55	5252
2026-01-23 02:39:33.33	336.97	21.43	-41.7	-45.0	18.1	6.02e-01	0	59	0	36700160	55	5133
2026-01-23 02:39:34.34	336.71	21.51	-41.7	-45.0	18.2	6.04e-01	0	59	0	38273024	55	5101
2026-01-23 02:39:35.34	336.45	21.60	-41.6	-44.9	18.3	6.03e-01	0	59	0	40370176	55	5085
2026-01-23 02:39:36.36	336.19	21.69	-41.7	-45.0	18.3	6.04e-01	0	59	0	41943040	55	5127
2026-01-23 02:39:37.37	335.93	21.78	-41.7	-44.9	18.4	6.03e-01	0	59	0	44040192	55	5087
2026-01-23 02:39:38.38	335.67	21.87	-41.8	-45.0	18.4	6.04e-01	0	59	0	46137344	55	5157
2026-01-23 02:39:39.38	335.41	21.96	-41.9	-45.2	18.2	6.03e-01	0	59	0	47710208	55	5232
2026-01-23 02:39:40.40	335.14	22.04	-41.8	-45.0	18.4	5.99e-01	0	59	0	49807360	55	5153
2026-01-23 02:39:41.41	334.87	22.13	-41.8	-45.0	18.4	6.03e-01	0	59	0	51904512	55	5145
2026-01-23 02:39:42.41	334.61	22.22	-41.8	-45.0	18.4	6.03e-01	0	59	0	53477376	55	5149
2026-01-23 02:39:43.42	334.34	22.31	-41.9	-45.1	18.4	6.04e-01	0	59	0	55574528	55	5201
2026-01-23 02:39:44.43	334.07	22.39	-41.8	-45.1	18.4	6.04e-01	0	59	0	57147392	55	5164
2026-01-23 02:39:45.44	333.79	22.48	-41.8	-45.0	18.5	6.02e-01	0	59	0	59244544	55	5145
2026-01-23 02:39:46.45	333.52	22.56	-41.9	-45.2	18.4	6.04e-01	0	59	0	61341696	55	5234
2026-01-23 02:39:47.46	333.24	22.65	-41.9	-45.2	18.4	6.02e-01	0	59	0	62914560	55	5229
2026-01-23 02:39:48.47	332.96	22.73	-41.9	-45.1	18.5	6.05e-01	0	59	0	65011712	55	5202
2026-01-23 02:39:49.48	332.68	22.82	-41.8	-45.0	18.6	6.04e-01	0	59	0	66584576	55	5149
2026-01-23 02:39:50.49	332.40	22.90	-41.9	-45.0	18.6	6.04e-01	0	59	0	68681728	55	5142
2026-01-23 02:39:51.50	332.12	22.99	-41.9	-45.1	18.5	6.03e-01	0	59	0	70778880	55	5175
2026-01-23 02:39:52.51	331.83	23.07	-41.9	-45.2	18.5	6.04e-01	0	59	0	72351744	55	5219
2026-01-23 02:39:53.52	331.55	23.15	-41.9	-45.1	18.4	6.03e-01	0	59	0	74448896	55	5210
2026-01-23 02:39:54.53	331.26	23.23	-41.9	-45.1	18.5	6.03e-01	0	59	0	76546048	55	5188
2026-01-23 02:39:55.54	330.97	23.32	-41.9	-45.1	18.5	6.02e-01	0	59	0	78118912	55	5171
2026-01-23 02:39:56.55	330.68	23.40	-41.9	-45.2	18.4	6.02e-01	0	59	0	80216064	55	5220
2026-01-23 02:39:57.56	330.38	23.48	-41.9	-45.2	18.5	6.01e-01	0	59	0	81788928	55	5231
2026-01-23 02:39:58.57	330.09	23.56	-41.9	-45.1	18.5	6.04e-01	0	59	0	83886080	55	5203
2026-01-23 02:39:59.58	329.79	23.64	-41.9	-45.1	18.3	6.04e-01	0	59	0	85983232	55	5205
2026-01-23 02:40:00.59	329.50	23.72	-41.9	-45.2	18.4	6.02e-01	0	59	0	87556096	55	5230
2026-01-23 02:40:01.60	329.20	23.80	-41.9	-45.1	18.5	6.03e-01	0	59	0	89653248	55	5202
2026-01-23 02:40:02.61	328.90	23.87	-42.0	-45.2	18.5	6.03e-01	0	59	0	91226112	55	5260
2026-01-23 02:40:03.62	328.59	23.95	-42.0	-45.2	18.5	6.02e-01	0	59	0	93323264	55	5230
2026-01-23 02:40:04.62	328.29	24.03	-41.9	-45.1	18.6	6.03e-01	0	59	0	95420416	55	5189
2026-01-23 02:40:05.63	327.99	24.11	-41.9	-45.1	18.6	6.05e-01	0	59	0	96993280	55	5168
2026-01-23 02:40:06.64	327.68	24.18	-41.9	-45.1	18.5	6.04e-01	0	59	0	99090432	55	5196
2026-01-23 02:40:07.65	327.37	24.26	-42.0	-45.2	18.4	6.03e-01	0	59	0	100663296	55	5250
2026-01-23 02:40:08.66	327.06	24.33	-42.0	-45.3	18.4	6.03e-01	0	59	0	102760448	55	5291
2026-01-23 02:40:09.67	326.75	24.41	-42.1	-45.3	18.4	6.04e-01	0	59	0	104857600	55	5336
2026-01-23 02:40:10.68	326.44	24.48	-42.1	-45.4	18.2	6.04e-01	0	59	0	106430464	55	5395
2026-01-23 02:40:11.69	326.12	24.55	-42.0	-45.2	18.5	6.03e-01	0	59	0	108527616	55	5233
2026-01-23 02:40:12.70	325.81	24.62	-41.9	-45.0	18.6	6.05e-01	0	59	0	110100480	55	5156
2026-01-23 02:40:13.71	325.49	24.69	-41.9	-45.0	18.7	6.03e-01	0	59	0	112197632	55	5148
2026-01-23 02:40:14.72	325.17	24.76	-42.0	-45.2	18.5	6.05e-01	0	59	0	114294784	55	5236
2026-01-23 02:40:15.73	324.85	24.83	-42.0	-45.2	18.5	6.04e-01	0	59	0	115867648	55	5241
2026-01-23 02:40:16.74	324.53	24.90	-42.0	-45.2	18.5	6.02e-01	0	59	0	117964800	55	5225
2026-01-23 02:40:17.75	324.20	24.97	-41.9	-45.0	18.6	6.05e-01	0	59	0	120061952	55	5145
2026-01-23 02:40:18.76	323.88	25.04	-41.9	-45.0	18.7	6.03e-01	0	59	0	121634816	55	5153
2026-01-23 02:40:19.77	323.55	25.11	-41.9	-45.1	18.6	6.04e-01	0	59	0	123731968	55	5183
2026-01-23 02:40:20.78	323.22	25.17	-41.9	-45.0	18.7	6.04e-01	0	59	0	125304832	55	5149
2026-01-23 02:40:21.78	322.90	25.24	-42.0	-45.1	18.5	6.03e-01	0	59	0	127401984	55	5215
2026-01-23 02:40:22.79	322.56	25.30	-41.9	-45.1	18.5	6.03e-01	0	59	0	129499136	55	5201
2026-01-23 02:40:23.80	322.23	25.36	-41.9	-45.1	18.5	6.03e-01	0	60	0	131072000	55	5214
2026-01-23 02:40:24.81	321.90	25.43	-41.9	-45.0	18.7	6.03e-01	0	59	0	133169152	55	5111
2026-01-23 02:40:25.82	321.56	25.49	-41.9	-45.0	18.7	6.02e-01	0	59	0	134742016	55	5125
2026-01-23 02:40:26.83	321.23	25.55	-41.9	-45.1	18.6	6.04e-01	0	59	0	136839168	55	5174
2026-01-23 02:40:27.84	320.89	25.61	-41.9	-45.1	18.5	6.02e-01	0	60	0	138936320	55	5179
2026-01-23 02:40:28.85	320.55	25.67	-42.0	-45.3	18.3	6.03e-01	0	60	0	140509184	55	5298
2026-01-23 02:40:29.86	320.21	25.73	-42.0	-45.1	18.4	6.04e-01	0	59	0	142606336	55	5212
2026-01-23 02:40:30.87	319.87	25.78	-41.9	-45.0	18.6	6.03e-01	0	59	0	144703488	55	5158
2026-01-23 02:40:31.88	319.52	25.84	-41.9	-45.0	18.7	6.04e-01	0	60	0	146276352	55	5101
2026-01-23 02:40:32.89	319.18	25.89	-41.8	-45.0	18.7	6.03e-01	0	59	0	148373504	55	5106
2026-01-23 02:40:33.90	318.83	25.95	-41.9	-45.0	18.7	6.03e-01	0	59	0	149946368	55	5105
2026-01-23 02:40:34.91	318.49	26.00	-42.0	-45.1	18.6	6.02e-01	0	59	0	152043520	55	5214
2026-01-23 02:40:35.92	318.14	26.05	-42.0	-45.1	18.6	6.03e-01	0	59	0	154140672	55	5204
2026-01-23 02:40:36.93	317.79	26.10	-41.9	-45.0	18.6	6.03e-01	0	59	0	155713536	55	5157
2026-01-23 02:40:37.94	317.44	26.15	-41.9	-45.0	18.6	6.02e-01	0	59	0	157810688	55	5136
2026-01-23 02:40:38.94	317.09	26.20	-41.9	-45.0	18.6	6.03e-01	0	59	0	159383552	55	5115
2026-01-23 02:40:39.95	316.74	26.25	-42.0	-45.1	18.5	6.03e-01	0	60	0	161480704	55	5216
2026-01-23 02:40:40.96	316.38	26.30	-41.9	-45.1	18.6	6.04e-01	0	59	0	163577856	55	5195
2026-01-23 02:40:41.97	316.03	26.34	-41.9	-45.1	18.6	6.06e-01	0	59	0	165150720	55	5195
2026-01-23 02:40:42.98	315.67	26.39	-41.8	-44.9	18.7	6.03e-01	0	59	0	167247872	55	5086
2026-01-23 02:40:43.99	315.31	26.43	-41.8	-44.9	18.7	6.04e-01	0	60	0	168820736	55	5067
2026-01-23 02:40:45.00	314.96	26.47	-41.8	-44.9	18.8	6.04e-01	0	60	0	170917888	55	5066
2026-01-23 02:40:46.01	314.60	26.52	-41.8	-45.0	18.7	6.03e-01	0	60	0	173015040	55	5103
2026-01-23 02:40:47.02	314.24	26.56	-41.9	-45.0	18.7	6.05e-01	0	60	0	174587904	55	5123
2026-01-23 02:40:48.03	313.88	26.60	-41.9	-45.1	18.6	5.99e-01	0	59	0	176685056	55	5181
2026-01-23 02:40:49.04	313.51	26.63	-41.8	-44.8	18.9	6.01e-01	0	59	0	178257920	55	5032
2026-01-23 02:40:50.05	313.15	26.67	-41.8	-44.9	18.8	6.06e-01	0	59	0	180355072	55	5084
2026-01-23 02:40:51.06	312.79	26.71	-41.8	-44.9	18.9	6.04e-01	0	60	0	182452224	55	5059
2026-01-23 02:40:52.06	312.43	26.74	-41.8	-44.9	18.9	6.02e-01	0	59	0	184025088	55	5078
2026-01-23 02:40:53.07	312.06	26.77	-42.0	-45.3	18.4	6.04e-01	0	59	0	186122240	55	5282
2026-01-23 02:40:54.08	311.69	26.81	-42.0	-45.2	18.5	6.04e-01	0	60	0	188219392	55	5222
2026-01-23 02:40:55.09	311.33	26.84	-41.9	-45.1	18.6	6.04e-01	0	60	0	189792256	55	5162
2026-01-23 02:40:56.10	310.96	26.87	-42.1	-45.4	18.3	6.02e-01	0	60	0	191889408	55	5385
2026-01-23 02:40:57.11	310.59	26.89	-42.1	-45.4	18.2	6.05e-01	0	60	0	193462272	55	5392
2026-01-23 02:40:58.12	310.22	26.92	-42.3	-45.8	17.8	6.04e-01	0	60	0	195559424	55	5618
2026-01-23 02:40:59.13	309.85	26.95	-42.3	-45.7	18.1	6.03e-01	0	60	0	197656576	55	5533
2026-01-23 02:41:00.14	309.48	26.97	-42.3	-45.6	18.0	6.02e-01	0	60	0	199229440	55	5520
2026-01-23 02:41:01.15	309.11	27.00	-42.3	-45.6	18.1	6.05e-01	0	59	0	201326592	55	5515
2026-01-23 02:41:02.16	308.74	27.02	-41.9	-44.9	18.8	6.02e-01	0	60	0	202899456	55	5086
2026-01-23 02:41:03.16	308.37	27.04	-42.0	-45.1	18.6	6.03e-01	0	59	0	204996608	55	5195
2026-01-23 02:41:04.17	308.00	27.06	-42.1	-45.4	18.4	6.04e-01	0	59	0	207093760	55	5359
2026-01-23 02:41:05.18	307.62	27.08	-42.1	-45.3	18.5	6.02e-01	0	60	0	208666624	55	5286
2026-01-23 02:41:06.19	307.25	27.09	-42.1	-45.3	18.4	6.04e-01	0	60	0	210763776	55	5311
2026-01-23 02:41:07.20	306.88	27.11	-42.1	-45.3	18.4	6.06e-01	0	60	0	212336640	55	5324
2026-01-23 02:41:08.21	306.50	27.12	-41.8	-44.9	18.9	6.05e-01	0	60	0	214433792	55	5049
2026-01-23 02:41:09.22	306.13	27.14	-41.9	-45.0	18.7	6.03e-01	0	60	0	216530944	55	5148
2026-01-23 02:41:10.23	305.75	27.15	-42.2	-45.6	18.2	6.01e-01	0	60	0	218103808	55	5478
2026-01-23 02:41:11.24	305.38	27.16	-42.0	-45.2	18.6	6.03e-01	0	60	0	220200960	55	5248
2026-01-23 02:41:12.25	305.00	27.17	-42.0	-45.1	18.6	6.04e-01	0	60	0	221773824	55	5201
2026-01-23 02:41:13.26	304.62	27.18	-41.9	-45.1	18.7	6.03e-01	0	59	0	223870976	55	5170
2026-01-23 02:41:14.27	304.25	27.18	-41.8	-44.9	18.8	6.00e-01	0	60	0	225968128	55	5043
2026-01-23 02:41:15.28	303.87	27.19	-42.1	-45.4	18.4	6.07e-01	0	60	0	227540992	55	5347
2026-01-23 02:41:16.28	303.50	27.19	-42.0	-45.1	18.7	6.04e-01	0	60	0	229638144	55	5205
2026-01-23 02:41:17.29	303.12	27.20	-41.7	-44.7	19.0	6.04e-01	0	60	0	231211008	55	4931
2026-01-23 02:41:18.30	302.75	27.20	-42.3	-45.7	17.8	6.02e-01	0	60	0	233308160	55	5592
2026-01-23 02:41:19.32	302.37	27.20	-42.2	-45.5	18.4	6.03e-01	0	60	0	235405312	54	5746
2026-01-23 02:41:20.33	301.99	27.20	-41.4	-44.2	19.5	6.05e-01	0	60	0	236978176	54	4956
2026-01-23 02:41:21.33	301.62	27.19	-42.0	-45.2	18.3	6.02e-01	0	60	0	239075328	55	5277
2026-01-23 02:41:22.34	301.24	27.19	-42.1	-45.4	18.3	6.05e-01	0	60	0	241172480	54	5701
2026-01-23 02:41:23.35	300.86	27.18	-41.8	-44.8	18.9	6.01e-01	0	60	0	242745344	54	5336
2026-01-23 02:41:24.36	300.49	27.18	-42.2	-45.6	18.1	6.03e-01	0	59	0	244842496	55	5506
2026-01-23 02:41:25.37	300.11	27.17	-41.5	-44.3	19.5	6.03e-01	0	60	0	246415360	54	5004
2026-01-23 02:41:26.38	299.74	27.16	-41.7	-44.8	18.7	6.03e-01	0	60	0	248512512	55	4986
2026-01-23 02:41:27.39	299.36	27.15	-42.7	-46.5	17.4	6.05e-01	0	60	0	250609664	55	6075
2026-01-23 02:41:28.40	298.99	27.14	-41.6	-44.4	19.4	6.04e-01	0	60	0	252182528	54	5084
2026-01-23 02:41:29.40	298.61	27.13	-42.0	-45.1	18.6	6.03e-01	0	60	0	254279680	55	5184
2026-01-23 02:41:30.41	298.24	27.11	-41.9	-45.0	18.8	6.05e-01	0	60	0	256376832	55	5113
2026-01-23 02:41:31.42	297.87	27.10	-41.9	-45.1	18.5	6.03e-01	0	60	0	257949696	55	5173
2026-01-23 02:41:32.43	297.49	27.08	-42.7	-46.5	17.3	6.02e-01	0	60	0	260046848	55	6103
2026-01-23 02:41:33.44	297.12	27.06	-41.7	-44.7	19.1	6.06e-01	0	60	0	261619712	55	4956
2026-01-23 02:41:34.45	296.75	27.04	-42.4	-45.8	17.8	6.06e-01	0	60	0	263716864	56	5301
2026-01-23 02:41:35.46	296.37	27.02	-42.3	-45.8	18.0	6.02e-01	0	60	0	265289728	55	5629
2026-01-23 02:41:36.47	296.00	27.00	-41.8	-44.8	18.9	6.03e-01	0	60	0	267386880	55	5024
2026-01-23 02:41:37.48	295.63	26.97	-42.1	-45.4	18.4	6.04e-01	0	60	0	269484032	55	5354
2026-01-23 02:41:38.49	295.26	26.95	-41.7	-44.7	18.9	6.05e-01	0	60	0	271056896	55	4975
2026-01-23 02:41:39.50	294.89	26.92	-42.4	-45.9	17.9	6.05e-01	0	60	0	273154048	55	5662
2026-01-23 02:41:40.51	294.52	26.90	-41.9	-45.0	18.8	6.03e-01	0	60	0	274726912	55	5126
2026-01-23 02:41:41.52	294.15	26.87	-42.0	-45.1	18.6	6.01e-01	0	60	0	276824064	55	5200
2026-01-23 02:41:42.53	293.78	26.84	-41.8	-44.9	18.8	6.02e-01	0	60	0	278921216	55	5068
2026-01-23 02:41:43.54	293.41	26.81	-42.3	-45.8	17.9	6.02e-01	0	60	0	280494080	55	5627
2026-01-23 02:41:44.55	293.05	26.78	-42.0	-45.1	18.7	6.02e-01	0	60	0	282591232	55	5187
2026-01-23 02:41:45.56	292.68	26.74	-42.0	-45.2	18.4	6.02e-01	0	60	0	284688384	55	5238
2026-01-23 02:41:46.56	292.32	26.71	-42.4	-45.9	17.9	6.02e-01	0	60	0	286261248	55	5673
2026-01-23 02:41:47.57	291.95	26.67	-41.8	-44.8	19.0	6.04e-01	0	60	0	288358400	55	5030
2026-01-23 02:41:48.58	291.59	26.64	-42.1	-45.4	18.3	6.06e-01	0	60	0	289931264	55	5373
2026-01-23 02:41:49.59	291.23	26.60	-42.1	-45.3	18.3	6.03e-01	0	60	0	292028416	55	5335
2026-01-23 02:41:50.60	290.87	26.56	-42.2	-45.5	18.3	6.05e-01	0	60	0	294125568	55	5415
2026-01-23 02:41:51.61	290.51	26.52	-42.0	-45.2	18.5	6.03e-01	0	60	0	295698432	55	5240
2026-01-23 02:41:52.62	290.15	26.48	-42.3	-45.6	18.1	6.02e-01	0	60	0	297795584	55	5519
2026-01-23 02:41:53.63	289.79	26.43	-41.8	-44.9	18.8	6.03e-01	0	60	0	299368448	55	5076
2026-01-23 02:41:54.64	289.43	26.39	-42.4	-46.0	17.8	6.03e-01	0	60	0	301465600	55	5752
2026-01-23 02:41:55.65	289.07	26.35	-41.7	-44.7	19.0	6.04e-01	0	60	0	303562752	55	4962
2026-01-23 02:41:56.65	288.72	26.30	-42.4	-45.9	17.9	6.01e-01	0	60	0	305135616	55	5693
2026-01-23 02:41:57.66	288.36	26.25	-41.7	-44.7	19.1	6.03e-01	0	60	0	307232768	55	4963
2026-01-23 02:41:58.67	288.01	26.21	-42.6	-46.3	17.4	6.02e-01	0	60	0	309329920	55	5975
2026-01-23 02:41:59.68	287.66	26.16	-42.2	-45.4	18.3	6.03e-01	0	60	0	310902784	55	5398
2026-01-23 02:42:00.70	287.30	26.11	-42.3	-45.8	17.9	6.03e-01	0	60	0	312999936	55	5600
2026-01-23 02:42:01.70	286.96	26.05	-42.1	-45.4	18.4	6.03e-01	0	60	0	314572800	55	5378
2026-01-23 02:42:02.71	286.61	26.00	-42.0	-45.2	18.5	6.02e-01	0	60	0	316669952	55	5238
2026-01-23 02:42:03.72	286.26	25.95	-42.6	-46.4	17.4	6.02e-01	0	60	0	318767104	55	5995
2026-01-23 02:42:04.73	285.91	25.90	-41.8	-44.8	18.8	6.05e-01	0	60	0	320339968	55	5014
2026-01-23 02:42:05.74	285.57	25.84	-42.6	-46.2	17.6	6.02e-01	0	60	0	322437120	55	5886
2026-01-23 02:42:06.75	285.22	25.78	-41.8	-44.8	18.8	6.03e-01	0	60	0	324009984	55	5037
2026-01-23 02:42:07.76	284.88	25.73	-42.5	-46.1	17.7	6.02e-01	0	60	0	326107136	55	5799
2026-01-23 02:42:08.77	284.54	25.67	-41.8	-44.8	18.9	6.02e-01	0	60	0	328204288	55	4986
2026-01-23 02:42:09.78	284.20	25.61	-42.7	-46.4	17.3	6.03e-01	0	60	0	329777152	55	6057
2026-01-23 02:42:10.78	283.86	25.55	-41.8	-44.8	18.8	6.04e-01	0	60	0	331874304	55	4993
2026-01-23 02:42:11.79	283.53	25.49	-42.6	-46.3	17.4	6.03e-01	0	60	0	333447168	55	5958
2026-01-23 02:42:12.81	283.19	25.43	-41.9	-44.9	18.6	6.03e-01	0	60	0	335544320	55	5074
2026-01-23 02:42:13.82	282.85	25.36	-42.3	-45.8	18.0	6.03e-01	0	60	0	337641472	55	5593
2026-01-23 02:42:14.83	282.52	25.30	-42.2	-45.6	18.1	6.02e-01	0	60	0	339214336	55	5489
2026-01-23 02:42:15.83	282.19	25.24	-42.5	-46.1	17.7	6.03e-01	0	60	0	341311488	55	5811
2026-01-23 02:42:16.84	281.86	25.17	-42.2	-45.5	18.1	6.04e-01	0	60	0	342884352	55	5410
2026-01-23 02:42:17.85	281.53	25.11	-42.3	-45.7	18.0	6.05e-01	0	60	0	344981504	55	5577
2026-01-23 02:42:18.86	281.20	25.04	-42.3	-45.7	17.9	6.02e-01	0	60	0	347078656	55	5544
2026-01-23 02:42:19.87	280.87	24.97	-42.0	-45.3	18.4	6.03e-01	0	60	0	348651520	55	5287
2026-01-23 02:42:20.88	280.55	24.90	-42.5	-46.2	17.5	6.05e-01	0	60	0	350748672	55	5863
2026-01-23 02:42:21.89	280.23	24.83	-41.8	-44.9	18.8	6.03e-01	0	60	0	352845824	55	5067
2026-01-23 02:42:22.90	279.90	24.76	-42.4	-45.9	17.8	6.02e-01	0	60	0	354418688	55	5707
2026-01-23 02:42:23.91	279.58	24.69	-42.0	-45.1	18.5	6.03e-01	0	60	0	356515840	55	5194
2026-01-23 02:42:24.92	279.26	24.62	-42.2	-45.6	18.0	6.04e-01	0	60	0	358088704	55	5511
2026-01-23 02:42:25.93	278.95	24.55	-42.4	-46.0	17.6	6.02e-01	0	60	0	360185856	55	5728
2026-01-23 02:42:26.94	278.63	24.48	-42.2	-45.5	18.1	6.03e-01	0	60	0	362283008	55	5443
2026-01-23 02:42:27.95	278.32	24.40	-42.3	-45.7	17.9	6.03e-01	0	60	0	363855872	55	5572
2026-01-23 02:42:28.96	278.00	24.33	-42.2	-45.6	18.0	6.02e-01	0	60	0	365953024	55	5508
2026-01-23 02:42:29.97	277.69	24.25	-42.4	-45.8	17.8	6.03e-01	0	60	0	367525888	55	5654
2026-01-23 02:42:30.98	277.38	24.18	-42.5	-46.1	17.6	6.04e-01	0	60	0	369623040	55	5791
2026-01-23 02:42:31.99	277.07	24.10	-42.4	-46.0	17.6	6.04e-01	0	60	0	371720192	55	5731
2026-01-23 02:42:33.00	276.77	24.03	-42.3	-45.7	17.9	6.02e-01	0	60	0	373293056	55	5553
2026-01-23 02:42:34.01	276.46	23.95	-42.2	-45.6	17.9	6.03e-01	0	60	0	375390208	55	5476
2026-01-23 02:42:35.02	276.16	23.87	-42.2	-45.7	17.8	6.04e-01	0	60	0	377487360	55	5539
2026-01-23 02:42:36.03	275.86	23.79	-42.3	-45.8	17.7	6.04e-01	0	60	0	379060224	55	5618
2026-01-23 02:42:37.04	275.56	23.71	-42.0	-45.3	18.2	6.06e-01	0	60	0	381157376	55	5312
2026-01-23 02:42:38.05	275.26	23.63	-42.2	-45.6	17.9	6.03e-01	0	60	0	382730240	55	5488
2026-01-23 02:42:39.06	274.96	23.55	-42.4	-46.1	17.5	6.03e-01	0	60	0	384827392	55	5792
2026-01-23 02:42:40.07	274.67	23.47	-42.3	-45.8	17.8	6.02e-01	0	60	0	386924544	55	5623
2026-01-23 02:42:41.07	274.37	23.39	-42.3	-45.7	17.9	6.00e-01	0	60	0	388497408	55	5587
2026-01-23 02:42:42.08	274.08	23.31	-42.4	-46.0	17.6	6.04e-01	0	60	0	390594560	55	5739
2026-01-23 02:42:43.09	273.79	23.23	-42.2	-45.6	17.9	6.03e-01	0	60	0	392167424	55	5515
2026-01-23 02:42:44.10	273.50	23.15	-42.1	-45.4	18.2	6.02e-01	0	60	0	394264576	55	5376
2026-01-23 02:42:45.11	273.21	23.06	-42.3	-45.7	17.9	6.06e-01	0	60	0	395837440	55	5561
2026-01-23 02:42:46.12	272.93	22.98	-42.3	-45.8	17.8	6.04e-01	0	60	0	397934592	55	5630
2026-01-23 02:42:47.13	272.64	22.90	-42.2	-45.5	18.1	6.03e-01	0	60	0	400031744	55	5464
2026-01-23 02:42:48.14	272.36	22.81	-42.2	-45.6	18.0	6.04e-01	0	60	0	401604608	55	5482
2026-01-23 02:42:49.15	272.08	22.73	-42.2	-45.6	17.9	6.05e-01	0	60	0	403701760	55	5527
2026-01-23 02:42:50.16	271.80	22.64	-42.2	-45.7	17.9	6.03e-01	0	60	0	405798912	55	5543
2026-01-23 02:42:51.17	271.52	22.56	-42.3	-45.7	17.9	6.01e-01	0	60	0	407371776	55	5564
2026-01-23 02:42:52.18	271.25	22.47	-42.2	-45.5	18.1	6.02e-01	0	60	0	409468928	55	5455
2026-01-23 02:42:53.19	270.97	22.38	-42.0	-45.3	18.3	6.02e-01	0	60	0	411041792	55	5300
2026-01-23 02:42:54.20	270.70	22.30	-42.2	-45.6	18.0	6.02e-01	0	60	0	413138944	55	5472
2026-01-23 02:42:55.21	270.43	22.21	-42.2	-45.7	17.9	6.05e-01	0	60	0	415236096	55	5555
2026-01-23 02:42:56.22	270.16	22.12	-42.1	-45.4	18.2	6.02e-01	0	60	0	416808960	55	5362
2026-01-23 02:42:57.23	269.89	22.03	-42.1	-45.4	18.2	6.05e-01	0	60	0	418906112	55	5381
2026-01-23 02:42:58.23	269.63	21.95	-42.2	-45.5	18.1	6.06e-01	0	60	0	421003264	55	5428
2026-01-23 02:42:59.24	269.36	21.86	-42.3	-45.8	17.7	6.03e-01	0	60	0	422576128	55	5651
2026-01-23 02:43:00.25	269.10	21.77	-42.4	-46.0	17.5	6.04e-01	0	60	0	424673280	55	5787
2026-01-23 02:43:01.26	268.83	21.68	-42.3	-45.7	17.9	6.05e-01	0	60	0	426246144	55	5554
2026-01-23 02:43:02.27	268.57	21.59	-42.1	-45.5	18.1	6.05e-01	0	60	0	428343296	55	5421
2026-01-23 02:43:03.28	268.32	21.50	-42.2	-45.6	18.0	6.03e-01	0	60	0	430440448	55	5520
2026-01-23 02:43:04.29	268.06	21.41	-42.4	-45.9	17.7	6.04e-01	0	60	0	432013312	55	5683
2026-01-23 02:43:05.30	267.80	21.32	-42.3	-45.8	17.8	6.01e-01	0	60	0	434110464	55	5650
2026-01-23 02:43:06.31	267.55	21.23	-42.1	-45.5	18.1	6.06e-01	0	60	0	435683328	55	5441
2026-01-23 02:43:07.32	267.30	21.14	-42.1	-45.5	18.1	6.05e-01	0	60	0	437780480	55	5426
2026-01-23 02:43:08.33	267.04	21.05	-42.2	-45.6	18.0	6.04e-01	0	60	0	439877632	55	5506
2026-01-23 02:43:09.34	266.80	20.96	-42.2	-45.6	18.0	6.02e-01	0	60	0	441450496	55	5494
2026-01-23 02:43:10.35	266.55	20.87	-42.2	-45.7	17.9	6.04e-01	0	60	0	443547648	55	5546
2026-01-23 02:43:11.36	266.30	20.78	-42.2	-45.7	17.9	6.05e-01	0	60	0	445120512	55	5540
2026-01-23 02:43:12.37	266.06	20.69	-42.2	-45.6	17.9	6.06e-01	0	60	0	447217664	55	5503
2026-01-23 02:43:13.38	265.81	20.60	-42.1	-45.4	18.1	6.04e-01	0	60	0	449314816	55	5397
2026-01-23 02:43:14.39	265.57	20.50	-42.1	-45.4	18.1	6.03e-01	0	60	0	450887680	55	5390
2026-01-23 02:43:15.39	265.33	20.41	-42.1	-45.4	18.2	6.02e-01	0	60	0	452984832	55	5362
2026-01-23 02:43:16.40	265.09	20.32	-42.0	-45.4	18.2	6.04e-01	0	60	0	454557696	55	5342
2026-01-23 02:43:17.41	264.86	20.23	-42.1	-45.5	18.1	6.05e-01	0	60	0	456654848	55	5417
2026-01-23 02:43:18.42	264.62	20.14	-42.1	-45.5	18.0	6.00e-01	0	60	0	458752000	55	5423
2026-01-23 02:43:19.43	264.39	20.05	-42.1	-45.4	18.1	6.04e-01	0	60	0	460324864	55	5398
2026-01-23 02:43:20.44	264.16	19.95	-42.0	-45.4	18.2	6.02e-01	0	60	0	462422016	55	5346
2026-01-23 02:43:21.45	263.92	19.86	-42.1	-45.4	18.2	6.01e-01	0	60	0	463994880	55	5351
2026-01-23 02:43:22.46	263.69	19.77	-42.1	-45.5	18.0	6.03e-01	0	60	0	466092032	55	5457
2026-01-23 02:43:23.47	263.47	19.68	-42.1	-45.5	18.1	6.03e-01	0	60	0	468189184	55	5420
2026-01-23 02:43:24.48	263.24	19.58	-42.0	-45.3	18.2	6.06e-01	0	60	0	469762048	55	5319
2026-01-23 02:43:25.49	263.01	19.49	-42.0	-45.4	18.1	6.06e-01	0	60	0	471859200	55	5341
2026-01-23 02:43:26.50	262.79	19.40	-42.0	-45.3	18.2	6.03e-01	0	60	0	473956352	55	5323
2026-01-23 02:43:27.51	262.57	19.30	-42.1	-45.5	18.0	6.04e-01	0	60	0	475529216	55	5446
2026-01-23 02:43:28.52	262.35	19.21	-42.1	-45.6	17.9	6.04e-01	0	60	0	477626368	55	5472
2026-01-23 02:43:29.52	262.13	19.12	-42.1	-45.5	18.0	6.04e-01	0	60	0	479199232	55	5447
2026-01-23 02:43:30.53	261.91	19.03	-42.0	-45.4	18.1	6.03e-01	0	60	0	481296384	55	5353
2026-01-23 02:43:31.54	261.69	18.93	-42.1	-45.4	18.1	6.01e-01	0	60	0	483393536	55	5397
2026-01-23 02:43:32.55	261.48	18.84	-42.0	-45.4	18.1	6.02e-01	0	60	0	484966400	55	5367
2026-01-23 02:43:33.56	261.26	18.75	-42.0	-45.3	18.1	6.03e-01	0	60	0	487063552	55	5340
2026-01-23 02:43:34.57	261.05	18.65	-41.9	-45.2	18.2	6.02e-01	0	60	0	488636416	55	5272
2026-01-23 02:43:35.58	260.84	18.56	-41.9	-45.3	18.2	6.02e-01	0	60	0	490733568	55	5284
2026-01-23 02:43:36.59	260.63	18.47	-41.9	-45.1	18.4	6.02e-01	0	60	0	492830720	55	5178
2026-01-23 02:43:37.60	260.42	18.37	-41.9	-45.1	18.3	6.01e-01	0	60	0	494403584	55	5204
2026-01-23 02:43:38.61	260.21	18.28	-41.9	-45.2	18.3	6.04e-01	0	60	0	496500736	55	5231
2026-01-23 02:43:39.62	260.01	18.19	-42.0	-45.3	18.2	6.02e-01	0	60	0	498597888	55	5329
2026-01-23 02:43:40.63	259.80	18.10	-41.9	-45.2	18.2	6.03e-01	0	60	0	500170752	55	5273
2026-01-23 02:43:41.64	259.60	18.00	-41.9	-45.2	18.3	6.05e-01	0	60	0	502267904	55	5232
2026-01-23 02:43:42.65	259.40	17.91	-41.8	-45.0	18.4	6.02e-01	0	60	0	503840768	55	5145
2026-01-23 02:43:43.65	259.20	17.82	-41.9	-45.2	18.3	6.04e-01	0	60	0	505937920	55	5246
2026-01-23 02:43:44.66	259.00	17.72	-42.0	-45.3	18.1	6.04e-01	0	60	0	508035072	55	5339
2026-01-23 02:43:45.67	258.80	17.63	-42.0	-45.4	18.0	6.06e-01	0	60	0	509607936	55	5384
2026-01-23 02:43:46.68	258.61	17.54	-42.0	-45.4	18.0	6.03e-01	0	60	0	511705088	55	5382
2026-01-23 02:43:47.69	258.41	17.45	-42.0	-45.4	18.1	6.07e-01	0	60	0	513277952	55	5362
2026-01-23 02:43:48.70	258.22	17.35	-42.1	-45.5	18.0	6.02e-01	0	60	0	515375104	55	5403
2026-01-23 02:43:49.71	258.03	17.26	-42.0	-45.4	18.1	6.02e-01	0	60	0	517472256	55	5362
2026-01-23 02:43:50.72	257.83	17.17	-42.1	-45.5	18.0	6.04e-01	0	60	0	519045120	55	5418
2026-01-23 02:43:51.73	257.64	17.08	-42.0	-45.4	18.1	6.05e-01	0	60	0	521142272	55	5372
2026-01-23 02:43:52.74	257.45	16.98	-42.0	-45.4	18.0	6.03e-01	0	60	0	522715136	55	5378
2026-01-23 02:43:53.76	257.26	16.89	-42.1	-45.5	18.0	6.02e-01	0	60	0	524812288	55	5411
2026-01-23 02:43:54.76	257.08	16.80	-41.9	-45.2	18.2	6.06e-01	0	60	0	526909440	55	5243
2026-01-23 02:43:55.77	256.89	16.71	-41.8	-45.0	18.4	6.06e-01	0	60	0	528482304	55	5143
2026-01-23 02:43:56.78	256.71	16.61	-41.9	-45.1	18.3	6.06e-01	0	60	0	530579456	55	5203
2026-01-23 02:43:57.79	256.53	16.52	-41.9	-45.2	18.2	6.00e-01	0	60	0	532152320	55	5244
2026-01-23 02:43:58.80	256.35	16.43	-42.0	-45.4	18.1	6.04e-01	0	60	0	534249472	55	5354
2026-01-23 02:43:59.81	256.17	16.34	-41.9	-45.2	18.2	6.01e-01	0	60	0	536346624	55	5271
2026-01-23 02:44:00.82	255.99	16.25	-41.9	-45.3	18.1	6.03e-01	0	60	0	537919488	55	5304
2026-01-23 02:44:01.83	255.81	16.16	-41.9	-45.3	18.1	6.05e-01	0	60	0	540016640	55	5282
2026-01-23 02:44:02.84	255.63	16.06	-41.9	-45.3	18.1	6.03e-01	0	60	0	542113792	55	5306
2026-01-23 02:44:03.85	255.46	15.97	-41.9	-45.3	18.1	6.04e-01	0	60	0	543686656	55	5301
2026-01-23 02:44:04.86	255.28	15.88	-41.9	-45.2	18.2	6.01e-01	0	60	0	545783808	55	5264
2026-01-23 02:44:05.87	255.11	15.79	-41.9	-45.2	18.1	6.02e-01	0	60	0	547356672	55	5272
2026-01-23 02:44:06.88	254.93	15.70	-41.9	-45.2	18.2	6.02e-01	0	60	0	549453824	55	5258
2026-01-23 02:44:07.89	254.76	15.61	-41.9	-45.2	18.2	6.05e-01	0	60	0	551550976	55	5264
2026-01-23 02:44:08.90	254.59	15.52	-41.9	-45.2	18.1	6.03e-01	0	60	0	553123840	55	5252
2026-01-23 02:44:09.91	254.42	15.43	-42.0	-45.4	18.0	6.03e-01	0	60	0	555220992	55	5349
2026-01-23 02:44:10.91	254.26	15.34	-41.9	-45.2	18.1	6.05e-01	0	60	0	556793856	55	5270
2026-01-23 02:44:11.92	254.09	15.25	-41.9	-45.2	18.2	6.03e-01	0	60	0	558891008	55	5252
2026-01-23 02:44:12.94	253.92	15.16	-41.9	-45.3	18.1	6.04e-01	0	60	0	560988160	55	5294
2026-01-23 02:44:13.94	253.76	15.07	-42.0	-45.4	18.0	6.05e-01	0	60	0	562561024	55	5347
2026-01-23 02:44:14.95	253.60	14.98	-42.0	-45.5	17.9	6.03e-01	0	60	0	564658176	55	5419
2026-01-23 02:44:15.96	253.43	14.89	-42.1	-45.6	17.8	6.04e-01	0	60	0	566755328	55	5466
2026-01-23 02:44:16.97	253.27	14.80	-42.0	-45.4	17.9	6.03e-01	0	60	0	568328192	55	5397
2026-01-23 02:44:17.98	253.11	14.71	-42.0	-45.4	17.9	6.03e-01	0	60	0	570425344	55	5371
2026-01-23 02:44:18.99	252.95	14.62	-42.0	-45.3	18.0	6.04e-01	0	60	0	571998208	55	5339
2026-01-23 02:44:20.00	252.79	14.53	-41.9	-45.3	18.0	6.03e-01	0	60	0	574095360	55	5333
2026-01-23 02:44:21.01	252.64	14.44	-41.9	-45.3	18.1	6.04e-01	0	60	0	575668224	55	5290
2026-01-23 02:44:22.02	252.48	14.35	-41.9	-45.3	18.0	6.04e-01	0	60	0	577765376	55	5328
2026-01-23 02:44:23.03	252.32	14.26	-42.0	-45.4	17.9	6.05e-01	0	60	0	579862528	55	5393
2026-01-23 02:44:24.04	252.17	14.18	-42.0	-45.4	17.9	6.04e-01	0	60	0	581435392	55	5375
2026-01-23 02:44:25.05	252.02	14.09	-42.0	-45.4	17.9	6.04e-01	0	60	0	583532544	55	5401
2026-01-23 02:44:26.06	251.86	14.00	-41.9	-45.3	18.0	6.05e-01	0	60	0	585105408	55	5324
2026-01-23 02:44:27.07	251.71	13.91	-41.9	-45.3	18.0	6.03e-01	0	60	0	587202560	55	5336
2026-01-23 02:44:28.08	251.56	13.82	-42.0	-45.5	17.8	6.04e-01	0	60	0	589299712	55	5419
2026-01-23 02:44:29.09	251.41	13.74	-42.1	-45.6	17.7	6.06e-01	0	60	0	590872576	55	5474
2026-01-23 02:44:30.09	251.27	13.65	-42.0	-45.5	17.8	6.03e-01	0	60	0	592969728	55	5439
2026-01-23 02:44:31.10	251.12	13.56	-42.1	-45.6	17.7	6.03e-01	0	60	0	595066880	55	5471
2026-01-23 02:44:32.11	250.97	13.48	-42.1	-45.6	17.7	6.04e-01	0	60	0	596639744	55	5473
2026-01-23 02:44:33.12	250.83	13.39	-42.1	-45.6	17.6	6.03e-01	0	60	0	598736896	55	5508
2026-01-23 02:44:34.12	250.68	13.30	-42.1	-45.6	17.6	6.02e-01	0	60	0	600309760	55	5501
2026-01-23 02:44:35.13	250.54	13.22	-42.0	-45.5	17.8	6.05e-01	0	60	0	602406912	55	5415
2026-01-23 02:44:36.14	250.40	13.13	-41.9	-45.3	17.9	6.05e-01	0	60	0	604504064	55	5334
2026-01-23 02:44:37.15	250.25	13.04	-41.9	-45.3	18.0	6.03e-01	0	60	0	606076928	55	5287
2026-01-23 02:44:38.16	250.11	12.96	-41.9	-45.3	17.9	6.03e-01	0	60	0	608174080	55	5332
2026-01-23 02:44:39.17	249.97	12.87	-42.0	-45.4	17.8	6.01e-01	0	60	0	610271232	55	5372
2026-01-23 02:44:40.18	249.83	12.78	-42.0	-45.5	17.8	6.03e-01	0	60	0	611844096	55	5403
2026-01-23 02:44:41.19	249.69	12.70	-42.0	-45.5	17.7	6.04e-01	0	60	0	613941248	55	5441
2026-01-23 02:44:42.20	249.56	12.61	-42.1	-45.7	17.5	6.01e-01	0	60	0	615514112	55	5588
2026-01-23 02:44:43.21	249.42	12.53	-42.1	-45.8	17.4	6.04e-01	0	60	0	617611264	55	5619
2026-01-23 02:44:44.22	249.28	12.44	-42.1	-45.7	17.5	6.03e-01	0	60	0	619708416	55	5591
2026-01-23 02:44:45.23	249.15	12.36	-42.1	-45.7	17.5	6.03e-01	0	60	0	621281280	55	5590
2026-01-23 02:44:46.24	249.01	12.27	-42.1	-45.7	17.6	6.04e-01	0	60	0	623378432	55	5541
2026-01-23 02:44:47.25	248.88	12.19	-42.0	-45.6	17.6	6.03e-01	0	60	0	624951296	55	5502
2026-01-23 02:44:48.26	248.75	12.10	-42.0	-45.6	17.6	6.02e-01	0	60	0	627048448	55	5468
2026-01-23 02:44:49.26	248.62	12.02	-42.0	-45.5	17.7	6.04e-01	0	60	0	629145600	55	5432
2026-01-23 02:44:50.28	248.49	11.94	-42.0	-45.5	17.7	6.02e-01	0	60	0	630718464	55	5440
2026-01-23 02:44:51.28	248.36	11.85	-42.1	-45.7	17.5	6.05e-01	0	60	0	632815616	55	5534
2026-01-23 02:44:52.29	248.23	11.77	-42.1	-45.7	17.5	6.03e-01	0	60	0	634388480	55	5565
2026-01-23 02:44:53.30	248.10	11.69	-42.2	-45.9	17.3	6.03e-01	0	60	0	636485632	55	5669
2026-01-23 02:44:54.31	247.97	11.60	-42.2	-45.9	17.2	6.02e-01	0	60	0	638582784	55	5694
2026-01-23 02:44:55.32	247.85	11.52	-42.1	-45.8	17.4	6.03e-01	0	60	0	640155648	55	5627
2026-01-23 02:44:56.33	247.72	11.44	-42.1	-45.7	17.5	6.03e-01	0	60	0	642252800	55	5543
2026-01-23 02:44:57.34	247.59	11.35	-42.1	-45.7	17.5	6.04e-01	0	60	0	643825664	55	5568
2026-01-23 02:44:58.35	247.47	11.27	-42.1	-45.7	17.4	6.04e-01	0	60	0	645922816	55	5550
2026-01-23 02:44:59.36	247.35	11.19	-42.1	-45.7	17.5	6.03e-01	0	60	0	648019968	55	5545
2026-01-23 02:45:00.37	247.22	11.11	-42.0	-45.6	17.5	6.02e-01	0	60	0	649592832	55	5510
2026-01-23 02:45:01.38	247.10	11.03	-42.1	-45.7	17.4	6.02e-01	0	60	0	651689984	55	5566
2026-01-23 02:45:02.39	246.98	10.94	-42.0	-45.7	17.4	6.03e-01	0	60	0	653262848	55	5553
2026-01-23 02:45:03.40	246.86	10.86	-42.1	-45.7	17.4	6.06e-01	0	60	0	655360000	55	5588
2026-01-23 02:45:04.41	246.74	10.78	-42.1	-45.7	17.4	6.04e-01	0	60	0	657457152	55	5585
2026-01-23 02:45:05.42	246.62	10.70	-42.1	-45.8	17.3	6.05e-01	0	60	0	659030016	55	5645
2026-01-23 02:45:06.43	246.50	10.62	-42.1	-45.8	17.3	6.04e-01	0	60	0	661127168	55	5655
2026-01-23 02:45:07.44	246.38	10.54	-42.2	-45.9	17.2	6.05e-01	0	60	0	663224320	55	5705
2026-01-23 02:45:08.44	246.27	10.46	-42.2	-46.0	17.1	6.02e-01	0	60	0	664797184	55	5727
2026-01-23 02:45:09.45	246.15	10.38	-42.1	-45.9	17.2	6.03e-01	0	60	0	666894336	55	5676
2026-01-23 02:45:10.46	246.03	10.30	-42.2	-46.0	17.1	6.03e-01	0	60	0	668467200	55	5749
2026-01-23 02:45:11.47	245.92	10.22	-42.2	-46.0	17.1	6.01e-01	0	60	0	670564352	55	5742
2026-01-23 02:45:12.48	245.80	10.14	-42.2	-46.0	17.1	6.03e-01	0	60	0	672661504	55	5739
2026-01-23 02:45:13.49	245.69	10.06	-42.1	-45.9	17.1	6.05e-01	0	60	0	674234368	55	5699
2026-01-23 02:45:14.50	245.58	9.98	-42.2	-46.0	17.0	6.04e-01	0	60	0	676331520	55	5752
2026-01-23 02:45:15.51	245.46	9.90	-42.2	-46.0	17.1	6.05e-01	0	60	0	678428672	55	5736
2026-01-23 02:45:16.52	245.35	9.82	-42.2	-46.1	17.0	6.03e-01	0	60	0	680001536	55	5801
2026-01-23 02:45:17.53	245.24	9.74	-42.2	-46.1	16.9	6.03e-01	0	60	0	682098688	55	5798
2026-01-23 02:45:18.54	245.13	9.66	-42.2	-46.0	17.0	6.03e-01	0	60	0	683671552	55	5784
2026-01-23 02:45:19.55	245.02	9.58	-42.2	-46.1	16.9	6.04e-01	0	60	0	685768704	55	5805
2026-01-23 02:45:20.56	244.91	9.50	-42.3	-46.2	16.8	6.05e-01	0	60	0	687865856	55	5900
2026-01-23 02:45:21.57	244.80	9.43	-42.2	-46.2	16.8	6.05e-01	0	60	0	689438720	55	5873
2026-01-23 02:45:22.58	244.70	9.35	-42.2	-46.2	16.8	6.04e-01	0	60	0	691535872	55	5901
2026-01-23 02:45:23.59	244.59	9.27	-42.3	-46.4	16.6	6.01e-01	0	60	0	693108736	55	6024
2026-01-23 02:45:24.59	244.48	9.19	-42.2	-46.2	16.7	6.03e-01	0	60	0	695205888	55	5896
2026-01-23 02:45:25.60	244.38	9.11	-42.2	-46.2	16.7	6.05e-01	0	60	0	696778752	55	5911
2026-01-23 02:45:26.61	244.27	9.04	-42.2	-46.1	16.8	6.04e-01	0	60	0	698875904	55	5830
2026-01-23 02:45:27.62	244.17	8.96	-42.3	-46.3	16.7	6.02e-01	0	60	0	700973056	55	5931
2026-01-23 02:45:28.63	244.06	8.88	-42.2	-46.2	16.7	6.04e-01	0	60	0	702545920	55	5913
2026-01-23 02:45:29.64	243.96	8.81	-42.2	-46.2	16.7	6.03e-01	0	60	0	704643072	55	5905
2026-01-23 02:45:30.65	243.86	8.73	-42.2	-46.2	16.7	6.03e-01	0	60	0	706740224	55	5923
2026-01-23 02:45:31.66	243.76	8.65	-42.2	-46.2	16.7	6.04e-01	0	60	0	708313088	55	5920
2026-01-23 02:45:32.67	243.65	8.58	-42.3	-46.4	16.5	6.02e-01	0	60	0	710410240	55	6016
2026-01-23 02:45:33.68	243.55	8.50	-42.3	-46.4	16.5	6.05e-01	0	60	0	711983104	55	6012
2026-01-23 02:45:34.69	243.45	8.42	-42.3	-46.5	16.5	6.04e-01	0	60	0	714080256	55	6095
2026-01-23 02:45:35.70	243.35	8.35	-42.3	-46.5	16.4	6.03e-01	0	60	0	716177408	55	6073
2026-01-23 02:45:36.71	243.25	8.27	-42.3	-46.4	16.5	6.04e-01	0	60	0	717750272	55	6021
2026-01-23 02:45:37.71	243.16	8.20	-42.3	-46.4	16.5	6.02e-01	0	60	0	719847424	55	6004
2026-01-23 02:45:38.73	243.06	8.12	-42.3	-46.4	16.4	6.02e-01	0	60	0	721420288	55	6061
2026-01-23 02:45:39.73	242.96	8.05	-42.3	-46.5	16.4	6.05e-01	0	60	0	723517440	55	6089
2026-01-23 02:45:40.74	242.86	7.97	-44.7	-53.2	10.1	6.20e-01	0	60	0	725614592	59	10447
2026-01-23 02:45:41.75	242.77	7.90	-45.6	-63.9	3.8	7.45e-01	0	60	104	725614592	61	31966
2026-01-23 02:45:42.76	242.67	7.82	-45.8	-64.4	3.8	7.46e-01	0	60	104	725614592	62	31923
2026-01-23 02:45:43.77	242.57	7.75	-46.0	-64.5	3.8	7.48e-01	0	60	104	725614592	62	32496
2026-01-23 02:45:44.78	242.48	7.68	-46.1	-64.6	3.8	7.47e-01	0	60	104	725614592	62	32870
2026-01-23 02:45:45.79	242.39	7.60	-46.1	-64.7	3.8	7.44e-01	0	60	104	725614592	62	33086
2026-01-23 02:45:46.80	242.29	7.53	-46.2	-64.8	3.8	7.46e-01	0	60	104	725614592	62	33396
2026-01-23 02:45:47.81	242.20	7.45	-46.2	-64.8	3.8	7.45e-01	0	60	104	725614592	62	33479
2026-01-23 02:45:48.82	242.11	7.38	-46.2	-64.8	3.8	7.46e-01	0	60	104	725614592	63	31634
2026-01-23 02:45:49.83	242.01	7.31	-46.3	-64.8	3.8	7.45e-01	0	60	104	725614592	63	31740
2026-01-23 02:45:50.84	241.92	7.23	-46.2	-64.8	3.8	7.43e-01	0	60	104	725614592	63	31651
2026-01-23 02:45:51.85	241.83	7.16	-46.2	-64.8	3.8	7.49e-01	0	60	104	725614592	63	31515
2026-01-23 02:45:52.86	241.74	7.09	-46.2	-64.7	3.8	7.43e-01	0	60	104	725614592	63	31308
2026-01-23 02:45:53.87	241.65	7.01	-46.2	-64.7	3.8	7.46e-01	0	60	104	725614592	63	31204
2026-01-23 02:45:54.88	241.56	6.94	-46.2	-64.7	3.8	7.47e-01	0	60	104	725614592	63	31168
2026-01-23 02:45:55.89	241.47	6.87	-46.2	-64.7	3.8	7.42e-01	0	60	104	725614592	63	31183
2026-01-23 02:45:56.90	241.38	6.80	-46.2	-64.7	3.8	7.45e-01	0	60	104	725614592	63	31155
2026-01-23 02:45:57.91	241.29	6.73	-46.1	-64.6	3.8	7.46e-01	0	60	104	725614592	63	30936
2026-01-23 02:45:58.92	241.21	6.65	-46.1	-64.6	3.8	7.43e-01	0	60	104	725614592	63	30864
2026-01-23 02:45:59.93	241.12	6.58	-46.1	-64.6	3.8	7.43e-01	0	60	104	725614592	63	30959
2026-01-23 02:46:00.94	241.03	6.51	-46.1	-64.6	3.8	7.40e-01	0	60	104	725614592	63	30918
2026-01-23 02:46:01.95	240.95	6.44	-46.1	-64.6	3.8	7.47e-01	0	60	104	725614592	63	30908
2026-01-23 02:46:02.96	240.86	6.37	-46.1	-64.6	3.8	7.43e-01	0	60	104	725614592	63	30801
2026-01-23 02:46:03.97	240.77	6.30	-46.1	-64.6	3.8	7.44e-01	0	60	104	725614592	63	30808
2026-01-23 02:46:04.98	240.69	6.23	-46.1	-64.6	3.8	7.47e-01	0	60	104	725614592	63	30811
2026-01-23 02:46:05.99	240.60	6.16	-46.1	-64.6	3.8	7.42e-01	0	60	104	725614592	63	30849
2026-01-23 02:46:07.00	240.52	6.08	-46.1	-64.6	3.8	7.47e-01	0	60	104	725614592	63	30885
2026-01-23 02:46:08.01	240.44	6.01	-46.1	-64.6	3.8	7.45e-01	0	60	104	725614592	63	30825
2026-01-23 02:46:09.02	240.35	5.94	-46.1	-64.6	3.8	7.46e-01	0	60	104	725614592	63	30854
2026-01-23 02:46:10.03	240.27	5.87	-46.1	-64.6	3.8	7.47e-01	0	60	104	725614592	63	30847
2026-01-23 02:46:11.04	240.19	5.80	-46.1	-64.6	3.8	7.44e-01	0	60	104	725614592	63	30774
2026-01-23 02:46:12.05	240.11	5.73	-46.1	-64.6	3.8	7.45e-01	0	60	104	725614592	63	30828
2026-01-23 02:46:13.06	240.03	5.66	-46.1	-64.6	3.8	7.46e-01	0	60	104	725614592	63	30835
2026-01-23 02:46:14.08	239.94	5.59	-46.1	-64.6	3.8	7.45e-01	0	60	104	725614592	63	30870
2026-01-23 02:46:15.09	239.86	5.52	-46.1	-64.6	3.8	7.43e-01	0	60	104	725614592	63	30812
2026-01-23 02:46:16.10	239.78	5.46	-46.1	-64.6	3.8	7.47e-01	0	60	104	725614592	63	30810
2026-01-23 02:46:17.10	239.71	5.39	-46.1	-64.6	3.8	7.43e-01	0	61	104	725614592	63	30844
2026-01-23 02:46:18.11	239.63	5.32	-46.1	-64.5	3.8	7.44e-01	0	60	104	725614592	63	30730
2026-01-23 02:46:19.12	239.55	5.25	-46.1	-64.6	3.8	7.44e-01	0	60	104	725614592	63	30782
2026-01-23 02:46:20.13	239.47	5.18	-46.1	-64.6	3.8	7.46e-01	0	61	104	725614592	63	30817
2026-01-23 02:46:21.14	239.39	5.11	-46.1	-64.6	3.8	7.44e-01	0	60	104	725614592	63	30812
2026-01-23 02:46:22.16	239.31	5.04	-46.1	-64.6	3.8	7.45e-01	0	60	104	725614592	63	30799
2026-01-23 02:46:23.17	239.24	4.98	-46.1	-64.6	3.8	7.47e-01	0	60	104	725614592	63	30843
2026-01-23 02:46:24.18	239.16	4.91	-46.1	-64.6	3.8	7.46e-01	0	60	104	725614592	63	30760
2026-01-23 02:46:25.19	239.08	4.84	-46.1	-64.6	3.8	7.46e-01	0	60	104	725614592	63	30811
2026-01-23 02:46:26.20	239.01	4.77	-46.1	-64.6	3.8	7.47e-01	0	61	104	725614592	63	30790
2026-01-23 02:46:27.21	238.93	4.70	-46.1	-64.6	3.8	7.44e-01	0	60	104	725614592	63	30786
2026-01-23 02:46:28.22	238.86	4.64	-46.1	-64.6	3.8	7.44e-01	0	60	104	725614592	63	30771
2026-01-23 02:46:29.23	238.78	4.57	-46.1	-64.6	3.8	7.45e-01	0	61	104	725614592	63	30794
2026-01-23 02:46:30.24	238.71	4.50	-46.1	-64.6	3.8	7.46e-01	0	60	104	725614592	63	30789
2026-01-23 02:46:31.25	238.63	4.44	-46.1	-64.6	3.8	7.43e-01	0	60	104	725614592	63	30767
2026-01-23 02:46:32.26	238.56	4.37	-46.1	-64.6	3.8	7.42e-01	0	61	104	725614592	63	30790
2026-01-23 02:46:33.27	238.49	4.30	-46.1	-64.6	3.8	7.47e-01	0	60	104	725614592	63	30784
2026-01-23 02:46:34.28	238.41	4.24	-46.1	-64.6	3.8	7.45e-01	0	60	104	725614592	63	30781
2026-01-23 02:46:35.29	238.34	4.17	-46.1	-64.6	3.8	7.43e-01	0	60	104	725614592	63	30815
2026-01-23 02:46:36.30	238.27	4.10	-46.1	-64.6	3.8	7.42e-01	0	60	104	725614592	63	30786
2026-01-23 02:46:37.31	238.20	4.04	-46.1	-64.6	3.8	7.45e-01	0	61	104	725614592	63	30807
2026-01-23 02:46:38.32	238.13	3.97	-46.1	-64.6	3.8	7.45e-01	0	61	104	725614592	63	30793
2026-01-23 02:46:39.33	238.06	3.91	-46.1	-64.6	3.8	7.46e-01	0	60	104	725614592	63	30778
2026-01-23 02:46:40.34	237.98	3.84	-46.1	-64.6	3.8	7.46e-01	0	60	104	725614592	63	30740
2026-01-23 02:46:41.35	237.91	3.77	-46.1	-64.6	3.8	7.46e-01	0	60	104	725614592	63	30767
2026-01-23 02:46:42.36	237.84	3.71	-46.1	-64.6	3.8	7.44e-01	0	60	104	725614592	63	30802
2026-01-23 02:46:43.37	237.77	3.64	-46.1	-64.6	3.8	7.42e-01	0	60	104	725614592	63	30810
2026-01-23 02:46:44.38	237.71	3.58	-46.1	-64.6	3.8	7.50e-01	0	60	104	725614592	63	30817
2026-01-23 02:46:45.39	237.64	3.51	-46.1	-64.6	3.8	7.44e-01	0	61	104	725614592	63	30780
2026-01-23 02:46:46.40	237.57	3.45	-46.0	-64.6	3.8	7.47e-01	0	60	104	725614592	63	30738
2026-01-23 02:46:47.41	237.50	3.38	-46.1	-64.6	3.8	7.46e-01	0	61	104	725614592	63	30770
2026-01-23 02:46:48.42	237.43	3.32	-46.0	-64.5	3.8	7.46e-01	0	60	104	725614592	63	30683
2026-01-23 02:46:49.43	237.36	3.26	-46.0	-64.6	3.8	7.45e-01	0	61	104	725614592	63	30734
2026-01-23 02:46:50.44	237.30	3.19	-46.1	-64.5	3.8	7.45e-01	0	61	104	725614592	63	30713
2026-01-23 02:46:51.45	237.23	3.13	-46.0	-64.5	3.8	7.42e-01	0	60	104	725614592	63	30663
2026-01-23 02:46:52.46	237.16	3.06	-46.0	-64.5	3.8	7.44e-01	0	61	104	725614592	63	30638
2026-01-23 02:46:53.47	237.10	3.00	-46.0	-64.5	3.8	7.45e-01	0	61	104	725614592	63	30635
2026-01-23 02:46:54.48	237.03	2.94	-46.0	-64.5	3.8	7.46e-01	0	61	104	725614592	63	30637
2026-01-23 02:46:55.49	236.97	2.87	-46.0	-64.5	3.8	7.45e-01	0	61	104	725614592	63	30676
2026-01-23 02:46:56.50	236.90	2.81	-46.0	-64.5	3.8	7.44e-01	0	61	104	725614592	63	30691
2026-01-23 02:46:57.51	236.84	2.74	-46.0	-64.5	3.8	7.45e-01	0	61	104	725614592	63	30563
2026-01-23 02:46:58.52	236.77	2.68	-46.0	-64.5	3.8	7.44e-01	0	60	104	725614592	63	30676
2026-01-23 02:46:59.53	236.71	2.62	-46.0	-64.5	3.8	7.43e-01	0	60	104	725614592	63	30583
2026-01-23 02:47:00.55	236.64	2.55	-46.0	-64.5	3.8	7.46e-01	0	60	104	725614592	63	30669
2026-01-23 02:47:01.56	236.58	2.49	-46.0	-64.5	3.8	7.44e-01	0	61	104	725614592	63	30576
2026-01-23 02:47:02.57	236.52	2.43	-46.0	-64.5	3.8	7.45e-01	0	61	104	725614592	63	30662
2026-01-23 02:47:03.58	236.45	2.37	-46.0	-64.5	3.8	7.41e-01	0	61	104	725614592	63	30648
2026-01-23 02:47:04.59	236.39	2.30	-46.0	-64.5	3.8	7.46e-01	0	61	104	725614592	63	30633
2026-01-23 02:47:05.60	236.33	2.24	-46.0	-64.5	3.8	7.46e-01	0	61	104	725614592	63	30656
2026-01-23 02:47:06.61	236.27	2.18	-46.0	-64.5	3.8	7.46e-01	0	61	104	725614592	63	30652
2026-01-23 02:47:07.62	236.20	2.12	-46.0	-64.5	3.8	7.46e-01	0	61	104	725614592	63	30674
2026-01-23 02:47:08.63	236.14	2.05	-46.0	-64.5	3.8	7.46e-01	0	61	104	725614592	63	30642
2026-01-23 02:47:09.64	236.08	1.99	-46.0	-64.5	3.8	7.46e-01	0	61	104	725614592	63	30616
2026-01-23 02:47:10.65	236.02	1.93	-46.0	-64.5	3.8	7.45e-01	0	61	104	725614592	63	30670
