passes_logs/2026/01/23/R2.0S_Moscow/R2.0S_Moscow__20260123_205837_FENGYUN_3G_rec.log

#Pass ID: 20260123_205837_FENGYUN 3G
#Satellite: FENGYUN 3G
#Configuration: FENGYUN 3G
#almurnet v.1.7.20251203
#Start time: 2026-01-23 20:58:38

#Version: 2.2.20231116
#Station: R2.0S_Moscow
#Location: 37.707566 lon 55.798166 lat
#TLE: 1 56232U 23055A   26022.95932522  .00036289  00000+0  55235-3 0  9992
#TLE: 2 56232  49.9946  14.8507 0004090  68.3647 291.7756 15.54106507157434

#Time	Az	El	Level	Level2	SNR	BER	BlckErr	Temp	State	Recorded	gain1	gain2
2026-01-23 20:58:38.28	261.21	2.07	-44.1	-62.1	3.8	8.46e-01	0	52	0	0	60	27468
2026-01-23 20:58:39.28	261.13	2.13	-44.1	-61.8	3.8	8.43e-01	0	52	104	0	60	26562
2026-01-23 20:58:40.29	261.06	2.20	-44.1	-61.7	3.8	8.47e-01	0	52	104	0	60	26268
2026-01-23 20:58:41.30	260.98	2.26	-44.1	-61.7	3.8	8.47e-01	0	52	104	0	60	26307
2026-01-23 20:58:42.31	260.91	2.33	-44.1	-61.6	3.8	8.47e-01	0	52	104	0	60	26059
2026-01-23 20:58:43.33	260.83	2.40	-44.1	-61.7	3.8	8.47e-01	0	52	104	0	60	26200
2026-01-23 20:58:44.34	260.76	2.46	-44.1	-61.7	3.8	8.47e-01	0	52	104	0	60	26299
2026-01-23 20:58:45.35	260.68	2.53	-44.1	-61.8	3.8	8.47e-01	0	52	104	0	60	26666
2026-01-23 20:58:46.36	260.60	2.59	-44.1	-62.0	3.8	8.46e-01	0	52	104	0	60	27152
2026-01-23 20:58:47.37	260.52	2.66	-44.1	-62.1	3.8	8.46e-01	0	52	104	0	60	27556
2026-01-23 20:58:48.38	260.45	2.73	-44.1	-62.2	3.8	8.46e-01	0	52	104	0	60	27804
2026-01-23 20:58:49.39	260.37	2.79	-44.1	-62.2	3.8	8.46e-01	0	53	104	0	60	27872
2026-01-23 20:58:50.40	260.29	2.86	-44.1	-62.2	3.8	8.46e-01	0	53	104	0	60	27762
2026-01-23 20:58:51.41	260.21	2.93	-44.1	-62.2	3.8	8.46e-01	0	53	104	0	60	27862
2026-01-23 20:58:52.42	260.13	3.00	-44.1	-62.2	3.8	8.46e-01	0	53	104	0	60	27832
2026-01-23 20:58:53.43	260.05	3.06	-44.1	-62.1	3.8	8.46e-01	0	53	104	0	60	27700
2026-01-23 20:58:54.44	259.96	3.13	-44.1	-62.2	3.8	8.45e-01	0	53	104	0	60	27788
2026-01-23 20:58:55.45	259.88	3.20	-44.1	-62.1	3.8	8.45e-01	0	53	104	0	60	27574
2026-01-23 20:58:56.46	259.80	3.27	-44.1	-62.1	3.8	8.46e-01	0	53	104	0	60	27407
2026-01-23 20:58:57.47	259.72	3.34	-44.1	-62.0	3.8	8.46e-01	0	53	104	0	60	27198
2026-01-23 20:58:58.48	259.63	3.41	-44.1	-62.0	3.8	8.46e-01	0	53	104	0	60	27189
2026-01-23 20:58:59.49	259.55	3.47	-44.1	-62.0	3.8	8.47e-01	0	53	104	0	60	27341
2026-01-23 20:59:00.50	259.46	3.54	-44.1	-62.1	3.8	8.47e-01	0	53	104	0	60	27604
2026-01-23 20:59:01.52	259.38	3.61	-44.1	-62.1	3.8	8.47e-01	0	53	104	0	60	27568
2026-01-23 20:59:02.53	259.29	3.68	-44.1	-62.1	3.8	8.46e-01	0	53	104	0	60	27595
2026-01-23 20:59:03.54	259.20	3.75	-44.1	-62.2	3.8	8.47e-01	0	54	104	0	60	27834
2026-01-23 20:59:04.55	259.12	3.82	-44.1	-62.2	3.8	8.45e-01	0	54	104	0	60	27855
2026-01-23 20:59:05.56	259.03	3.89	-44.1	-62.2	3.8	8.45e-01	0	54	104	0	60	27995
2026-01-23 20:59:06.57	258.94	3.96	-44.1	-62.2	3.8	8.47e-01	0	54	104	0	60	27914
2026-01-23 20:59:07.58	258.85	4.04	-44.1	-62.3	3.8	8.47e-01	0	54	104	0	60	28027
2026-01-23 20:59:08.59	258.76	4.11	-44.1	-62.2	3.8	8.47e-01	0	54	104	0	60	27927
2026-01-23 20:59:09.60	258.67	4.18	-44.1	-62.2	3.8	8.45e-01	0	54	104	0	60	27871
2026-01-23 20:59:10.61	258.58	4.25	-44.1	-62.2	3.8	8.47e-01	0	54	104	0	60	27921
2026-01-23 20:59:11.62	258.49	4.32	-44.1	-62.2	3.8	8.47e-01	0	54	104	0	60	27891
2026-01-23 20:59:12.63	258.39	4.39	-44.1	-62.2	3.8	8.46e-01	0	54	104	0	60	27871
2026-01-23 20:59:13.64	258.30	4.46	-44.1	-62.2	3.8	8.47e-01	0	54	104	0	60	27898
2026-01-23 20:59:14.65	258.21	4.54	-44.1	-62.1	3.8	8.47e-01	0	54	104	0	60	27484
2026-01-23 20:59:15.66	258.11	4.61	-44.1	-61.9	3.8	8.46e-01	0	54	104	0	60	26852
2026-01-23 20:59:16.67	258.02	4.68	-44.1	-61.6	3.8	8.46e-01	0	54	104	0	60	26143
2026-01-23 20:59:17.68	257.92	4.76	-44.1	-61.4	3.8	8.45e-01	0	54	104	0	60	25434
2026-01-23 20:59:18.69	257.82	4.83	-44.1	-61.0	3.8	8.45e-01	0	54	104	0	60	24349
2026-01-23 20:59:19.70	257.73	4.90	-44.1	-61.0	3.8	8.46e-01	0	54	104	0	60	24317
2026-01-23 20:59:20.71	257.63	4.98	-44.1	-60.9	3.8	8.45e-01	0	54	104	0	60	24084
2026-01-23 20:59:21.72	257.53	5.05	-44.1	-61.1	3.8	8.45e-01	0	55	104	0	60	24671
2026-01-23 20:59:22.73	257.43	5.13	-44.1	-61.2	3.8	8.45e-01	0	55	104	0	60	24972
2026-01-23 20:59:23.74	257.33	5.20	-44.1	-61.5	3.8	8.46e-01	0	55	104	0	60	25577
2026-01-23 20:59:24.75	257.23	5.28	-44.1	-61.8	3.8	8.46e-01	0	55	104	0	60	26715
2026-01-23 20:59:25.76	257.12	5.35	-44.1	-61.9	3.8	8.46e-01	0	55	104	0	60	26887
2026-01-23 20:59:26.77	257.02	5.43	-44.1	-61.8	3.8	8.46e-01	0	55	104	0	60	26628
2026-01-23 20:59:27.78	256.92	5.50	-44.1	-61.5	3.8	8.46e-01	0	55	104	0	60	25594
2026-01-23 20:59:28.79	256.81	5.58	-44.1	-61.0	3.8	8.47e-01	0	55	104	0	60	24325
2026-01-23 20:59:29.81	256.71	5.66	-44.1	-60.6	3.8	8.47e-01	0	55	104	0	60	23226
2026-01-23 20:59:30.82	256.60	5.73	-44.0	-60.0	3.8	8.45e-01	0	55	104	0	60	21656
2026-01-23 20:59:31.83	256.50	5.81	-44.0	-59.6	4.0	8.45e-01	0	55	0	0	60	20760
2026-01-23 20:59:32.84	256.39	5.89	-44.0	-59.3	4.1	8.44e-01	0	55	104	0	60	19856
2026-01-23 20:59:33.85	256.28	5.96	-44.0	-59.3	3.9	8.43e-01	0	55	104	0	60	19944
2026-01-23 20:59:34.86	256.17	6.04	-44.0	-58.8	4.2	8.43e-01	0	56	0	0	60	18826
2026-01-23 20:59:35.87	256.06	6.12	-44.0	-58.8	4.2	8.39e-01	0	55	0	0	60	18797
2026-01-23 20:59:36.88	255.95	6.20	-44.0	-58.5	4.3	8.37e-01	0	55	0	0	60	18130
2026-01-23 20:59:37.89	255.84	6.28	-44.0	-58.0	4.4	8.37e-01	0	55	0	0	59	18148
2026-01-23 20:59:38.90	255.73	6.35	-44.0	-57.4	4.7	8.31e-01	0	55	0	0	59	16954
2026-01-23 20:59:39.91	255.61	6.43	-43.9	-56.3	5.2	8.05e-01	0	55	0	0	59	14948
2026-01-23 20:59:40.93	255.50	6.51	-43.8	-55.1	6.0	8.05e-01	0	55	0	0	59	13037
2026-01-23 20:59:41.94	255.38	6.59	-43.7	-53.9	7.0	6.45e-01	0	56	0	1048576	59	11382
2026-01-23 20:59:42.95	255.27	6.67	-43.5	-52.7	8.2	2.09e-01	0	55	0	2097152	59	9861
2026-01-23 20:59:43.96	255.15	6.75	-43.4	-51.9	9.0	5.82e-02	0	56	0	3670016	58	9543
2026-01-23 20:59:44.97	255.03	6.83	-43.3	-51.1	9.9	5.82e-02	0	56	0	4718592	58	8679
2026-01-23 20:59:45.98	254.91	6.91	-43.2	-50.8	10.3	1.57e-02	0	56	0	5767168	58	8390
2026-01-23 20:59:46.99	254.79	7.00	-43.3	-51.0	10.1	7.55e-03	0	56	0	6815744	58	8602
2026-01-23 20:59:48.00	254.67	7.08	-43.4	-51.9	9.1	7.55e-03	0	56	0	7864320	58	9504
2026-01-23 20:59:49.01	254.55	7.16	-43.6	-53.1	7.9	1.77e-02	0	56	0	8912896	58	10981
2026-01-23 20:59:50.02	254.43	7.24	-43.9	-55.6	5.8	1.13e-01	0	56	0	10485760	58	14602
2026-01-23 20:59:51.03	254.30	7.32	-44.1	-59.7	4.0	1.13e-01	0	56	0	10485760	58	23344
2026-01-23 20:59:52.05	254.18	7.41	-44.1	-60.7	3.8	7.06e-01	0	56	104	10485760	58	26277
2026-01-23 20:59:53.06	254.05	7.49	-43.9	-56.1	5.3	8.45e-01	0	56	0	10485760	58	15472
2026-01-23 20:59:54.07	253.93	7.57	-43.5	-52.3	8.6	8.45e-01	0	56	0	11010048	58	9946
2026-01-23 20:59:55.07	253.80	7.66	-42.9	-49.5	11.5	3.94e-01	0	56	0	12582912	57	7715
2026-01-23 20:59:56.09	253.67	7.74	-42.3	-47.7	13.5	7.14e-03	0	56	0	13631488	56	6574
2026-01-23 20:59:57.10	253.54	7.82	-41.7	-46.4	14.7	3.20e-05	0	56	0	14680064	55	6004
2026-01-23 20:59:58.11	253.41	7.91	-41.4	-45.7	15.3	3.20e-05	0	56	0	15728640	54	5894
2026-01-23 20:59:59.12	253.28	7.99	-41.3	-45.5	15.5	0.00e+00	0	56	0	16777216	54	5783
2026-01-23 21:00:00.13	253.14	8.08	-41.5	-45.9	15.1	0.00e+00	0	56	0	18350080	54	6028
2026-01-23 21:00:01.14	253.01	8.16	-41.7	-46.4	14.4	0.00e+00	0	56	0	19398656	54	6388
2026-01-23 21:00:02.15	252.88	8.25	-41.7	-46.2	14.4	1.10e-06	0	56	0	20447232	54	6260
2026-01-23 21:00:03.15	252.74	8.34	-43.9	-57.2	4.9	2.63e-02	0	56	0	20971520	58	17649
2026-01-23 21:00:04.16	252.60	8.42	-42.4	-48.2	12.5	2.63e-02	0	56	0	22020096	55	7404
2026-01-23 21:00:05.17	252.46	8.51	-43.3	-51.2	9.5	3.18e-01	0	56	0	23068672	57	9282
2026-01-23 21:00:06.18	252.32	8.60	-40.8	-44.6	16.6	3.09e-03	0	57	0	24117248	53	5471
2026-01-23 21:00:07.19	252.18	8.68	-40.8	-44.6	16.5	0.00e+00	0	56	0	25165824	53	5519
2026-01-23 21:00:08.20	252.04	8.77	-40.9	-44.6	16.5	0.00e+00	0	56	0	26738688	53	5522
2026-01-23 21:00:09.21	251.90	8.86	-40.8	-44.4	16.7	0.00e+00	0	57	0	27787264	53	5390
2026-01-23 21:00:10.22	251.75	8.95	-40.8	-44.5	16.7	0.00e+00	0	57	0	28835840	53	5416
2026-01-23 21:00:11.23	251.61	9.04	-40.8	-44.4	16.8	0.00e+00	0	57	0	29884416	53	5372
2026-01-23 21:00:12.24	251.46	9.13	-40.7	-44.3	16.9	0.00e+00	0	57	0	30932992	53	5288
2026-01-23 21:00:13.25	251.31	9.22	-40.7	-44.3	16.9	0.00e+00	0	57	0	31981568	53	5321
2026-01-23 21:00:14.26	251.16	9.31	-40.7	-44.3	16.9	0.00e+00	0	57	0	33554432	53	5314
2026-01-23 21:00:15.27	251.01	9.40	-40.7	-44.3	16.9	0.00e+00	0	57	0	34603008	53	5299
2026-01-23 21:00:16.28	250.86	9.49	-40.7	-44.3	16.9	0.00e+00	0	56	0	35651584	53	5330
2026-01-23 21:00:17.29	250.71	9.58	-40.7	-44.2	17.0	0.00e+00	0	57	0	36700160	53	5264
2026-01-23 21:00:18.30	250.55	9.67	-40.6	-44.1	17.1	0.00e+00	0	57	0	37748736	53	5189
2026-01-23 21:00:19.31	250.40	9.76	-40.6	-44.1	17.1	0.00e+00	0	57	0	38797312	53	5169
2026-01-23 21:00:20.32	250.24	9.85	-40.6	-44.2	17.1	0.00e+00	0	57	0	40370176	53	5222
2026-01-23 21:00:21.32	250.08	9.94	-40.7	-44.2	17.1	0.00e+00	0	57	0	41418752	53	5234
2026-01-23 21:00:22.33	249.92	10.04	-40.6	-44.1	17.2	0.00e+00	0	57	0	42467328	53	5166
2026-01-23 21:00:23.34	249.76	10.13	-40.6	-44.0	17.3	0.00e+00	0	57	0	43515904	53	5126
2026-01-23 21:00:24.35	249.60	10.22	-40.6	-44.0	17.2	0.00e+00	0	57	0	44564480	53	5157
2026-01-23 21:00:25.36	249.43	10.32	-40.6	-44.0	17.4	0.00e+00	0	57	0	45613056	53	5107
2026-01-23 21:00:26.37	249.27	10.41	-40.6	-44.0	17.3	0.00e+00	0	57	0	46661632	53	5145
2026-01-23 21:00:27.38	249.10	10.51	-40.5	-43.9	17.4	0.00e+00	0	57	0	48234496	53	5093
2026-01-23 21:00:28.39	248.93	10.60	-40.4	-43.6	17.7	0.00e+00	0	57	0	49283072	52	5217
2026-01-23 21:00:29.40	248.76	10.70	-40.4	-43.6	17.7	0.00e+00	0	57	0	50331648	52	5189
2026-01-23 21:00:30.41	248.59	10.79	-40.3	-43.6	17.7	0.00e+00	0	57	0	51380224	52	5170
2026-01-23 21:00:31.42	248.42	10.89	-40.1	-43.3	18.0	0.00e+00	0	57	0	52428800	52	4990
2026-01-23 21:00:32.43	248.24	10.98	-40.2	-43.4	18.0	0.00e+00	0	57	0	54001664	52	5051
2026-01-23 21:00:33.44	248.07	11.08	-40.3	-43.4	17.9	0.00e+00	0	57	0	55050240	52	5086
2026-01-23 21:00:34.45	247.89	11.18	-40.2	-43.4	17.9	0.00e+00	0	57	0	56098816	52	5070
2026-01-23 21:00:35.46	247.71	11.27	-40.2	-43.4	18.0	0.00e+00	0	57	0	57147392	52	5080
2026-01-23 21:00:36.47	247.53	11.37	-40.1	-43.2	18.1	0.00e+00	0	57	0	58195968	52	4975
2026-01-23 21:00:37.47	247.35	11.47	-40.1	-43.2	18.1	0.00e+00	0	57	0	59244544	52	4979
2026-01-23 21:00:38.49	247.16	11.57	-40.1	-43.1	18.3	0.00e+00	0	57	0	60817408	52	4898
2026-01-23 21:00:39.49	246.98	11.67	-40.1	-43.1	18.3	0.00e+00	0	57	0	61865984	52	4879
2026-01-23 21:00:40.50	246.79	11.77	-40.1	-43.2	18.2	0.00e+00	0	58	0	62914560	52	4935
2026-01-23 21:00:41.51	246.60	11.86	-40.0	-43.0	18.5	0.00e+00	0	57	0	63963136	51	5108
2026-01-23 21:00:42.52	246.41	11.96	-39.9	-42.9	18.6	0.00e+00	0	57	0	65011712	51	5056
2026-01-23 21:00:43.53	246.22	12.07	-39.9	-42.8	18.7	0.00e+00	0	57	0	66060288	51	5010
2026-01-23 21:00:44.54	246.02	12.17	-39.9	-42.8	18.7	0.00e+00	0	57	0	67633152	51	5003
2026-01-23 21:00:45.55	245.83	12.27	-39.9	-42.8	18.7	0.00e+00	0	57	0	68681728	51	5000
2026-01-23 21:00:46.56	245.63	12.37	-39.8	-42.6	18.9	0.00e+00	0	57	0	69730304	51	4899
2026-01-23 21:00:47.57	245.43	12.47	-39.8	-42.6	18.9	0.00e+00	0	58	0	70778880	51	4920
2026-01-23 21:00:48.58	245.23	12.57	-39.8	-42.7	18.8	0.00e+00	0	58	0	71827456	51	4940
2026-01-23 21:00:49.59	245.02	12.67	-39.9	-42.8	18.8	0.00e+00	0	58	0	72876032	51	4988
2026-01-23 21:00:50.60	244.82	12.78	-39.8	-42.7	18.9	0.00e+00	0	58	0	74448896	51	4944
2026-01-23 21:00:51.61	244.61	12.88	-39.8	-42.6	18.9	0.00e+00	0	58	0	75497472	51	4911
2026-01-23 21:00:52.62	244.40	12.98	-39.8	-42.7	18.9	0.00e+00	0	58	0	76546048	51	4932
2026-01-23 21:00:53.63	244.19	13.09	-39.8	-42.6	19.0	0.00e+00	0	58	0	77594624	51	4878
2026-01-23 21:00:54.64	243.97	13.19	-39.7	-42.4	19.1	0.00e+00	0	58	0	78643200	51	4795
2026-01-23 21:00:55.65	243.76	13.30	-39.5	-42.1	19.4	0.00e+00	0	58	0	79691776	51	4640
2026-01-23 21:00:56.65	243.54	13.40	-39.3	-41.9	19.6	0.00e+00	0	58	0	81264640	50	4813
2026-01-23 21:00:57.66	243.32	13.50	-39.3	-41.9	19.7	0.00e+00	0	58	0	82313216	50	4761
2026-01-23 21:00:58.67	243.10	13.61	-39.3	-41.8	19.8	0.00e+00	0	58	0	83361792	50	4749
2026-01-23 21:00:59.68	242.88	13.72	-39.3	-41.9	19.7	0.00e+00	0	58	0	84410368	50	4789
2026-01-23 21:01:00.69	242.65	13.82	-39.4	-42.0	19.5	0.00e+00	0	58	0	85458944	50	4865
2026-01-23 21:01:01.70	242.43	13.93	-39.4	-42.0	19.6	0.00e+00	0	58	0	86507520	50	4826
2026-01-23 21:01:02.71	242.20	14.04	-39.4	-42.0	19.6	0.00e+00	0	58	0	87556096	50	4868
2026-01-23 21:01:03.72	241.96	14.14	-39.5	-42.2	19.5	0.00e+00	0	58	0	89128960	50	4928
2026-01-23 21:01:04.73	241.73	14.25	-39.5	-42.1	19.5	0.00e+00	0	58	0	90177536	50	4918
2026-01-23 21:01:05.74	241.49	14.36	-39.5	-42.1	19.5	0.00e+00	0	58	0	91226112	50	4905
2026-01-23 21:01:06.75	241.26	14.47	-39.5	-42.1	19.6	0.00e+00	0	58	0	92274688	50	4881
2026-01-23 21:01:07.76	241.02	14.57	-39.3	-41.8	19.8	0.00e+00	0	58	0	93323264	50	4743
2026-01-23 21:01:08.77	240.77	14.68	-39.3	-41.8	19.8	0.00e+00	0	58	0	94371840	50	4723
2026-01-23 21:01:09.78	240.53	14.79	-39.3	-41.8	19.8	0.00e+00	0	58	0	95944704	50	4734
2026-01-23 21:01:10.79	240.28	14.90	-39.2	-41.7	20.0	0.00e+00	0	58	0	96993280	50	4655
2026-01-23 21:01:11.80	240.03	15.01	-39.1	-41.6	20.1	0.00e+00	0	58	0	98041856	50	4604
2026-01-23 21:01:12.81	239.78	15.12	-39.2	-41.8	19.9	0.00e+00	0	58	0	99090432	50	4721
2026-01-23 21:01:13.81	239.52	15.23	-39.3	-41.8	19.8	0.00e+00	0	58	0	100139008	50	4751
2026-01-23 21:01:14.82	239.27	15.34	-39.1	-41.6	20.1	0.00e+00	0	58	0	101187584	50	4623
2026-01-23 21:01:15.83	239.01	15.45	-39.0	-41.4	20.3	0.00e+00	0	58	0	102760448	50	4532
2026-01-23 21:01:16.84	238.74	15.56	-38.9	-41.3	20.4	0.00e+00	0	58	0	103809024	49	4722
2026-01-23 21:01:17.85	238.48	15.67	-38.9	-41.3	20.4	0.00e+00	0	58	0	104857600	49	4716
2026-01-23 21:01:18.86	238.21	15.78	-38.8	-41.1	20.6	0.00e+00	0	58	0	105906176	49	4628
2026-01-23 21:01:19.87	237.94	15.89	-38.8	-41.1	20.5	0.00e+00	0	58	0	106954752	49	4641
2026-01-23 21:01:20.88	237.67	16.01	-38.8	-41.1	20.6	0.00e+00	0	58	0	108527616	49	4622
2026-01-23 21:01:21.89	237.40	16.12	-38.8	-41.1	20.6	0.00e+00	0	58	0	109576192	49	4615
2026-01-23 21:01:22.90	237.12	16.23	-38.9	-41.2	20.5	0.00e+00	0	58	0	110624768	49	4698
2026-01-23 21:01:23.91	236.84	16.34	-38.8	-41.2	20.5	0.00e+00	0	58	0	111673344	49	4656
2026-01-23 21:01:24.92	236.56	16.45	-38.8	-41.1	20.5	0.00e+00	0	58	0	112721920	49	4643
2026-01-23 21:01:25.93	236.27	16.57	-38.9	-41.3	20.4	0.00e+00	0	58	0	113770496	49	4740
2026-01-23 21:01:26.94	235.98	16.68	-38.9	-41.3	20.4	0.00e+00	0	59	0	115343360	49	4712
2026-01-23 21:01:27.95	235.69	16.79	-38.9	-41.3	20.4	0.00e+00	0	58	0	116391936	49	4718
2026-01-23 21:01:28.96	235.40	16.90	-38.9	-41.2	20.5	0.00e+00	0	58	0	117440512	49	4686
2026-01-23 21:01:29.97	235.10	17.02	-38.9	-41.2	20.5	0.00e+00	0	58	0	118489088	49	4675
2026-01-23 21:01:30.98	234.80	17.13	-38.8	-41.1	20.6	0.00e+00	0	58	0	119537664	49	4640
2026-01-23 21:01:31.98	234.50	17.24	-38.6	-40.9	20.8	0.00e+00	0	58	0	120586240	49	4533
2026-01-23 21:01:33.00	234.20	17.36	-38.5	-40.7	21.0	0.00e+00	0	58	0	122159104	49	4437
2026-01-23 21:01:34.00	233.89	17.47	-38.4	-40.6	21.1	0.00e+00	0	58	0	123207680	48	4639
2026-01-23 21:01:35.01	233.58	17.58	-38.5	-40.7	21.0	0.00e+00	0	58	0	124256256	48	4678
2026-01-23 21:01:36.02	233.27	17.70	-38.6	-40.9	20.8	0.00e+00	0	58	0	125304832	48	4779
2026-01-23 21:01:37.03	232.95	17.81	-38.8	-41.1	20.7	0.00e+00	0	58	0	126353408	48	4898
2026-01-23 21:01:38.04	232.63	17.92	-38.9	-41.2	20.6	0.00e+00	0	59	0	127401984	48	4960
2026-01-23 21:01:39.05	232.31	18.04	-38.8	-41.1	20.6	0.00e+00	0	58	0	128450560	48	4900
2026-01-23 21:01:40.06	231.98	18.15	-38.7	-41.0	20.8	0.00e+00	0	58	0	130023424	48	4815
2026-01-23 21:01:41.07	231.65	18.26	-38.6	-40.9	20.9	0.00e+00	0	59	0	131072000	48	4760
2026-01-23 21:01:42.08	231.32	18.37	-38.5	-40.7	21.0	0.00e+00	0	58	0	132120576	48	4699
2026-01-23 21:01:43.09	230.99	18.49	-38.5	-40.7	21.1	0.00e+00	0	59	0	133169152	48	4685
2026-01-23 21:01:44.10	230.65	18.60	-38.6	-40.8	21.0	0.00e+00	0	59	0	134217728	48	4734
2026-01-23 21:01:45.11	230.31	18.71	-38.3	-40.4	21.3	0.00e+00	0	58	0	135266304	48	4544
2026-01-23 21:01:46.12	229.97	18.82	-38.3	-40.4	21.4	0.00e+00	0	58	0	136839168	48	4529
2026-01-23 21:01:47.13	229.62	18.94	-38.3	-40.4	21.4	0.00e+00	0	59	0	137887744	48	4544
2026-01-23 21:01:48.14	229.27	19.05	-38.2	-40.3	21.4	0.00e+00	0	59	0	138936320	48	4491
2026-01-23 21:01:49.15	228.92	19.16	-38.4	-40.6	21.2	0.00e+00	0	58	0	139984896	48	4626
2026-01-23 21:01:50.16	228.56	19.27	-38.5	-40.7	21.1	0.00e+00	0	59	0	141033472	48	4683
2026-01-23 21:01:51.17	228.20	19.38	-38.4	-40.6	21.2	0.00e+00	0	58	0	142082048	48	4629
2026-01-23 21:01:52.18	227.84	19.49	-38.4	-40.6	21.2	0.00e+00	0	59	0	143654912	48	4626
2026-01-23 21:01:53.19	227.47	19.61	-38.2	-40.4	21.4	0.00e+00	0	59	0	144703488	48	4503
2026-01-23 21:01:54.20	227.10	19.72	-38.2	-40.4	21.4	0.00e+00	0	59	0	145752064	48	4497
2026-01-23 21:01:55.21	226.73	19.83	-38.0	-40.1	21.6	0.00e+00	0	59	0	146800640	48	4385
2026-01-23 21:01:56.22	226.35	19.93	-37.8	-39.8	21.9	0.00e+00	0	59	0	147849216	47	4491
2026-01-23 21:01:57.22	225.98	20.04	-37.7	-39.8	22.0	0.00e+00	0	59	0	148897792	47	4449
2026-01-23 21:01:58.23	225.60	20.15	-37.6	-39.6	22.1	0.00e+00	0	59	0	150470656	47	4376
2026-01-23 21:01:59.24	225.21	20.26	-37.7	-39.7	22.1	0.00e+00	0	59	0	151519232	47	4423
2026-01-23 21:02:00.25	224.82	20.37	-37.6	-39.6	22.2	0.00e+00	0	59	0	152567808	47	4369
2026-01-23 21:02:01.26	224.43	20.47	-37.7	-39.8	22.0	0.00e+00	0	58	0	153616384	47	4453
2026-01-23 21:02:02.27	224.03	20.58	-37.8	-39.9	21.8	0.00e+00	0	59	0	154664960	47	4524
2026-01-23 21:02:03.28	223.64	20.69	-37.9	-39.9	21.9	0.00e+00	0	59	0	156237824	47	4524
2026-01-23 21:02:04.29	223.23	20.79	-37.9	-40.0	21.8	0.00e+00	0	59	0	157286400	47	4580
2026-01-23 21:02:05.30	222.83	20.90	-37.9	-40.0	21.8	0.00e+00	0	59	0	158334976	47	4561
2026-01-23 21:02:06.31	222.42	21.00	-37.8	-39.8	22.0	0.00e+00	0	59	0	159383552	47	4477
2026-01-23 21:02:07.32	222.01	21.10	-37.9	-40.0	21.8	0.00e+00	0	59	0	160432128	47	4581
2026-01-23 21:02:08.33	221.59	21.20	-38.0	-40.1	21.8	0.00e+00	0	59	0	161480704	47	4604
2026-01-23 21:02:09.34	221.17	21.31	-37.8	-39.8	22.0	0.00e+00	0	59	0	163053568	47	4478
2026-01-23 21:02:10.35	220.75	21.41	-37.8	-39.8	22.0	0.00e+00	0	59	0	164102144	47	4461
2026-01-23 21:02:11.36	220.33	21.51	-37.8	-39.8	22.1	0.00e+00	0	59	0	165150720	47	4468
2026-01-23 21:02:12.37	219.90	21.60	-37.9	-40.0	21.9	0.00e+00	0	59	0	166199296	47	4563
2026-01-23 21:02:13.38	219.47	21.70	-37.8	-39.8	22.1	0.00e+00	0	59	0	167247872	47	4449
2026-01-23 21:02:14.39	219.03	21.80	-37.9	-39.9	21.9	0.00e+00	0	59	0	168296448	47	4543
2026-01-23 21:02:15.39	218.60	21.89	-37.8	-39.8	22.0	0.00e+00	0	59	0	169345024	47	4479
2026-01-23 21:02:16.40	218.16	21.99	-37.5	-39.5	22.3	0.00e+00	0	59	0	170917888	47	4314
2026-01-23 21:02:17.41	217.71	22.08	-37.5	-39.5	22.4	0.00e+00	0	59	0	171966464	46	4546
2026-01-23 21:02:18.42	217.26	22.17	-37.5	-39.4	22.4	0.00e+00	0	59	0	173015040	46	4524
2026-01-23 21:02:19.43	216.81	22.27	-37.5	-39.5	22.4	0.00e+00	0	59	0	174063616	46	4553
2026-01-23 21:02:20.44	216.36	22.36	-37.7	-39.7	22.2	0.00e+00	0	59	0	175112192	46	4660
2026-01-23 21:02:21.45	215.90	22.45	-37.7	-39.7	22.2	0.00e+00	0	59	0	176160768	46	4686
2026-01-23 21:02:22.46	215.44	22.53	-37.6	-39.6	22.3	0.00e+00	0	59	0	177733632	46	4615
2026-01-23 21:02:23.47	214.98	22.62	-37.5	-39.4	22.4	0.00e+00	0	59	0	178782208	46	4539
2026-01-23 21:02:24.47	214.52	22.70	-37.3	-39.2	22.6	0.00e+00	0	59	0	179830784	46	4439
2026-01-23 21:02:25.48	214.05	22.79	-37.2	-39.1	22.7	0.00e+00	0	59	0	180879360	46	4367
2026-01-23 21:02:26.49	213.57	22.87	-37.2	-39.1	22.7	0.00e+00	0	59	0	181927936	46	4365
2026-01-23 21:02:27.51	213.09	22.95	-37.3	-39.2	22.7	0.00e+00	0	59	0	182976512	46	4415
2026-01-23 21:02:28.51	212.62	23.03	-37.2	-39.1	22.7	0.00e+00	0	59	0	184549376	46	4369
2026-01-23 21:02:29.52	212.14	23.11	-37.4	-39.3	22.5	0.00e+00	0	59	0	185597952	46	4473
2026-01-23 21:02:30.53	211.66	23.18	-37.6	-39.6	22.3	0.00e+00	0	59	0	186646528	46	4602
2026-01-23 21:02:31.54	211.17	23.26	-37.5	-39.5	22.5	0.00e+00	0	59	0	187695104	46	4547
2026-01-23 21:02:32.55	210.68	23.33	-37.4	-39.3	22.5	0.00e+00	0	59	0	188743680	46	4465
2026-01-23 21:02:33.56	210.19	23.40	-37.3	-39.2	22.6	0.00e+00	0	59	0	189792256	46	4435
2026-01-23 21:02:34.57	209.69	23.47	-37.3	-39.2	22.7	0.00e+00	0	59	0	191365120	46	4394
2026-01-23 21:02:35.58	209.20	23.54	-37.2	-39.0	22.8	0.00e+00	0	59	0	192413696	46	4338
2026-01-23 21:02:36.59	208.70	23.60	-37.1	-38.9	22.9	0.00e+00	0	59	0	193462272	46	4290
2026-01-23 21:02:37.60	208.20	23.67	-37.1	-38.9	22.9	0.00e+00	0	59	0	194510848	46	4272
2026-01-23 21:02:38.61	207.69	23.73	-36.9	-38.8	23.0	0.00e+00	0	59	0	195559424	45	4447
2026-01-23 21:02:39.62	207.19	23.79	-37.1	-39.0	22.7	0.00e+00	0	59	0	196608000	45	4574
2026-01-23 21:02:40.63	206.68	23.85	-36.9	-38.8	23.0	0.00e+00	0	59	0	198180864	45	4454
2026-01-23 21:02:41.64	206.17	23.90	-37.2	-39.1	22.8	0.00e+00	0	59	0	199229440	45	4600
2026-01-23 21:02:42.65	205.65	23.96	-37.4	-39.3	22.6	0.00e+00	0	59	0	200278016	45	4722
2026-01-23 21:02:43.66	205.14	24.01	-37.2	-39.1	22.7	0.00e+00	0	59	0	201326592	45	4638
2026-01-23 21:02:44.67	204.62	24.06	-37.1	-39.0	22.8	0.00e+00	0	59	0	202375168	45	4592
2026-01-23 21:02:45.67	204.11	24.11	-36.9	-38.7	23.1	0.00e+00	0	59	0	203423744	45	4426
2026-01-23 21:02:46.68	203.58	24.16	-37.0	-38.9	22.9	0.00e+00	0	59	0	204996608	45	4506
2026-01-23 21:02:47.69	203.06	24.20	-37.3	-39.2	22.6	0.00e+00	0	59	0	206045184	45	4695
2026-01-23 21:02:48.70	202.54	24.24	-37.4	-39.3	22.5	0.00e+00	0	59	0	207093760	45	4739
2026-01-23 21:02:49.71	202.01	24.28	-37.5	-39.5	22.4	0.00e+00	0	59	0	208142336	45	4816
2026-01-23 21:02:50.72	201.48	24.32	-37.2	-39.0	22.7	0.00e+00	0	59	0	209190912	45	4597
2026-01-23 21:02:51.73	200.96	24.35	-37.2	-39.1	22.7	0.00e+00	0	59	0	210239488	45	4643
2026-01-23 21:02:52.74	200.42	24.39	-37.1	-39.0	22.9	0.00e+00	0	59	0	211812352	45	4557
2026-01-23 21:02:53.75	199.89	24.42	-37.2	-39.1	22.8	0.00e+00	0	59	0	212860928	45	4599
2026-01-23 21:02:54.76	199.36	24.44	-37.5	-39.4	22.5	0.00e+00	0	59	0	213909504	45	4790
2026-01-23 21:02:55.77	198.83	24.47	-37.6	-39.5	22.3	0.00e+00	0	59	0	214958080	45	4857
2026-01-23 21:02:56.78	198.29	24.49	-37.8	-39.8	22.1	0.00e+00	0	60	0	216006656	46	4730
2026-01-23 21:02:57.79	197.76	24.52	-37.6	-39.5	22.3	0.00e+00	0	59	0	217055232	46	4591
2026-01-23 21:02:58.80	197.22	24.53	-37.6	-39.7	22.2	0.00e+00	0	59	0	218628096	46	4655
2026-01-23 21:02:59.80	196.69	24.55	-37.4	-39.4	22.5	0.00e+00	0	60	0	219676672	46	4501
2026-01-23 21:03:00.81	196.15	24.57	-37.4	-39.3	22.5	0.00e+00	0	59	0	220725248	46	4491
2026-01-23 21:03:01.82	195.61	24.58	-37.4	-39.3	22.6	0.00e+00	0	59	0	221773824	46	4472
2026-01-23 21:03:02.83	195.07	24.59	-37.2	-39.1	22.7	0.00e+00	0	59	0	222822400	46	4355
2026-01-23 21:03:03.84	194.54	24.59	-36.8	-38.7	23.1	0.00e+00	0	59	0	223870976	45	4392
2026-01-23 21:03:04.85	194.00	24.60	-36.9	-38.7	23.1	0.00e+00	0	59	0	225443840	45	4432
2026-01-23 21:03:05.86	193.46	24.60	-36.8	-38.6	23.1	0.00e+00	0	59	0	226492416	45	4389
2026-01-23 21:03:06.87	192.92	24.60	-36.8	-38.6	23.1	0.00e+00	0	59	0	227540992	45	4375
2026-01-23 21:03:07.88	192.38	24.60	-37.0	-38.8	23.0	0.00e+00	0	59	0	228589568	45	4474
2026-01-23 21:03:08.89	191.84	24.59	-37.1	-39.0	22.8	0.00e+00	0	59	0	229638144	45	4579
2026-01-23 21:03:09.90	191.30	24.59	-37.4	-39.3	22.5	0.00e+00	0	59	0	230686720	45	4729
2026-01-23 21:03:10.91	190.76	24.58	-37.4	-39.4	22.4	0.00e+00	0	60	0	232259584	45	4771
2026-01-23 21:03:11.91	190.23	24.56	-37.2	-39.1	22.6	0.00e+00	0	59	0	233308160	45	4637
2026-01-23 21:03:12.92	189.69	24.55	-37.2	-39.1	22.7	0.00e+00	0	59	0	234356736	45	4622
2026-01-23 21:03:13.93	189.15	24.53	-37.1	-39.0	22.8	0.00e+00	0	59	0	235405312	45	4584
2026-01-23 21:03:14.94	188.62	24.51	-37.1	-39.1	22.7	0.00e+00	0	60	0	236453888	45	4602
2026-01-23 21:03:15.95	188.08	24.49	-37.0	-38.9	22.9	0.00e+00	0	59	0	237502464	45	4497
2026-01-23 21:03:16.96	187.55	24.47	-37.0	-38.8	22.9	0.00e+00	0	60	0	239075328	45	4480
2026-01-23 21:03:17.97	187.01	24.44	-36.8	-38.7	23.1	0.00e+00	0	59	0	240123904	45	4397
2026-01-23 21:03:18.98	186.48	24.41	-36.9	-38.7	23.0	0.00e+00	0	60	0	241172480	45	4420
2026-01-23 21:03:19.99	185.95	24.38	-36.9	-38.8	23.1	0.00e+00	0	60	0	242221056	45	4464
2026-01-23 21:03:21.00	185.42	24.35	-37.0	-38.8	22.9	0.00e+00	0	60	0	243269632	45	4485
2026-01-23 21:03:22.01	184.89	24.31	-37.0	-38.9	22.8	0.00e+00	0	59	0	244318208	45	4512
2026-01-23 21:03:23.02	184.36	24.27	-37.3	-39.2	22.7	0.00e+00	0	59	0	245891072	45	4664
2026-01-23 21:03:24.03	183.84	24.23	-37.6	-39.6	22.2	0.00e+00	0	60	0	246939648	45	4889
2026-01-23 21:03:25.04	183.31	24.19	-37.7	-39.7	22.0	0.00e+00	0	59	0	247988224	46	4693
2026-01-23 21:03:26.05	182.79	24.15	-37.7	-39.7	22.0	0.00e+00	0	60	0	249036800	46	4676
2026-01-23 21:03:27.05	182.27	24.10	-37.6	-39.6	22.1	0.00e+00	0	60	0	250085376	46	4640
2026-01-23 21:03:28.06	181.76	24.05	-37.5	-39.5	22.3	0.00e+00	0	59	0	251133952	46	4552
2026-01-23 21:03:29.07	181.24	24.00	-37.3	-39.2	22.4	0.00e+00	0	60	0	252706816	46	4414
2026-01-23 21:03:30.08	180.72	23.95	-37.6	-39.5	22.4	0.00e+00	0	60	0	253755392	46	4578
2026-01-23 21:03:31.09	180.21	23.90	-37.8	-39.9	21.9	0.00e+00	0	60	0	254803968	46	4788
2026-01-23 21:03:32.10	179.70	23.84	-37.5	-39.5	22.2	0.00e+00	0	59	0	255852544	46	4572
2026-01-23 21:03:33.11	179.19	23.78	-37.3	-39.2	22.5	0.00e+00	0	59	0	256901120	46	4438
2026-01-23 21:03:34.12	178.68	23.72	-37.2	-39.1	22.7	0.00e+00	0	59	0	257949696	46	4384
2026-01-23 21:03:35.13	178.18	23.66	-37.1	-39.0	22.7	0.00e+00	0	60	0	259522560	46	4327
2026-01-23 21:03:36.14	177.68	23.59	-37.0	-38.9	22.9	0.00e+00	0	60	0	260571136	46	4258
2026-01-23 21:03:37.15	177.18	23.53	-36.9	-38.8	22.9	0.00e+00	0	59	0	261619712	45	4465
2026-01-23 21:03:38.16	176.68	23.46	-36.9	-38.7	23.0	0.00e+00	0	60	0	262668288	45	4439
2026-01-23 21:03:39.17	176.19	23.39	-36.8	-38.7	23.1	0.00e+00	0	59	0	263716864	45	4396
2026-01-23 21:03:40.18	175.70	23.32	-37.0	-38.9	22.9	0.00e+00	0	59	0	264765440	45	4516
2026-01-23 21:03:41.19	175.21	23.25	-37.3	-39.2	22.9	0.00e+00	0	59	0	266338304	46	4407
2026-01-23 21:03:42.20	174.72	23.17	-37.3	-39.1	22.8	0.00e+00	0	59	0	267386880	46	4385
2026-01-23 21:03:43.21	174.24	23.09	-37.1	-39.0	22.9	0.00e+00	0	59	0	268435456	46	4314
2026-01-23 21:03:44.22	173.76	23.02	-37.0	-38.8	23.0	0.00e+00	0	60	0	269484032	45	4451
2026-01-23 21:03:45.23	173.28	22.94	-36.9	-38.7	23.1	0.00e+00	0	60	0	270532608	45	4434
2026-01-23 21:03:46.24	172.80	22.86	-36.9	-38.8	23.1	0.00e+00	0	59	0	271581184	45	4444
2026-01-23 21:03:47.25	172.33	22.77	-37.0	-38.9	22.9	0.00e+00	0	60	0	273154048	45	4541
2026-01-23 21:03:48.26	171.86	22.69	-36.9	-38.8	23.0	0.00e+00	0	60	0	274202624	44	4729
2026-01-23 21:03:49.27	171.39	22.60	-37.0	-38.9	22.9	0.00e+00	0	60	0	275251200	44	4799
2026-01-23 21:03:50.28	170.93	22.52	-37.1	-38.9	22.8	0.00e+00	0	60	0	276299776	44	4808
2026-01-23 21:03:51.28	170.48	22.43	-37.1	-38.9	22.9	0.00e+00	0	60	0	277348352	44	4813
2026-01-23 21:03:52.29	170.02	22.34	-37.3	-39.2	22.6	0.00e+00	0	60	0	278396928	45	4691
2026-01-23 21:03:53.30	169.56	22.25	-37.3	-39.2	22.6	0.00e+00	0	60	0	279969792	45	4701
2026-01-23 21:03:54.31	169.11	22.16	-37.4	-39.3	22.6	0.00e+00	0	60	0	281018368	45	4738
2026-01-23 21:03:55.32	168.67	22.07	-37.7	-39.7	22.3	0.00e+00	0	60	0	282066944	45	4930
2026-01-23 21:03:56.33	168.22	21.97	-38.0	-40.0	21.9	0.00e+00	0	60	0	283115520	46	4852
2026-01-23 21:03:57.34	167.78	21.88	-38.1	-40.2	21.8	0.00e+00	0	60	0	284164096	46	4965
2026-01-23 21:03:58.35	167.34	21.78	-38.1	-40.1	21.9	0.00e+00	0	59	0	285212672	46	4926
2026-01-23 21:03:59.36	166.91	21.69	-37.9	-39.9	22.1	0.00e+00	0	60	0	286785536	46	4807
2026-01-23 21:04:00.37	166.48	21.59	-37.7	-39.7	22.2	0.00e+00	0	60	0	287834112	46	4700
2026-01-23 21:04:01.38	166.05	21.49	-37.5	-39.4	22.5	0.00e+00	0	60	0	288882688	46	4530
2026-01-23 21:04:02.39	165.62	21.39	-37.4	-39.3	22.6	0.00e+00	0	60	0	289931264	46	4480
2026-01-23 21:04:03.40	165.20	21.29	-37.8	-39.9	22.2	0.00e+00	0	60	0	290979840	46	4764
2026-01-23 21:04:04.41	164.78	21.19	-38.2	-40.3	21.7	0.00e+00	0	60	0	292028416	46	5014
2026-01-23 21:04:05.42	164.37	21.08	-38.5	-40.7	21.2	0.00e+00	0	60	0	293601280	47	4979
2026-01-23 21:04:06.43	163.96	20.98	-38.5	-40.8	21.2	0.00e+00	0	60	0	294649856	47	4994
2026-01-23 21:04:07.44	163.55	20.88	-38.1	-40.2	21.7	0.00e+00	0	60	0	295698432	47	4690
2026-01-23 21:04:08.45	163.14	20.77	-38.0	-40.1	21.9	0.00e+00	0	60	0	296747008	47	4614
2026-01-23 21:04:09.46	162.74	20.67	-37.8	-39.8	22.0	0.00e+00	0	60	0	297795584	47	4491
2026-01-23 21:04:10.46	162.35	20.56	-37.8	-39.9	22.0	0.00e+00	0	60	0	298844160	47	4508
2026-01-23 21:04:11.47	161.95	20.46	-38.1	-40.3	21.7	0.00e+00	0	60	0	299892736	47	4712
2026-01-23 21:04:12.48	161.56	20.35	-38.0	-40.1	21.9	0.00e+00	0	60	0	301465600	47	4610
2026-01-23 21:04:13.49	161.17	20.24	-38.0	-40.1	21.9	0.00e+00	0	60	0	302514176	47	4632
2026-01-23 21:04:14.50	160.78	20.13	-38.1	-40.2	21.8	0.00e+00	0	60	0	303562752	47	4689
2026-01-23 21:04:15.51	160.40	20.02	-38.3	-40.5	21.5	0.00e+00	0	60	0	304611328	47	4839
2026-01-23 21:04:16.52	160.02	19.91	-38.4	-40.7	21.4	0.00e+00	0	60	0	305659904	47	4930
2026-01-23 21:04:17.53	159.65	19.80	-38.5	-40.7	21.3	0.00e+00	0	60	0	307232768	47	4950
2026-01-23 21:04:18.54	159.28	19.69	-38.3	-40.5	21.5	0.00e+00	0	60	0	308281344	47	4842
2026-01-23 21:04:19.55	158.91	19.58	-38.2	-40.4	21.7	0.00e+00	0	60	0	309329920	47	4786
2026-01-23 21:04:20.56	158.54	19.47	-38.2	-40.4	21.6	0.00e+00	0	60	0	310378496	47	4789
2026-01-23 21:04:21.57	158.18	19.36	-38.2	-40.4	21.6	0.00e+00	0	60	0	311427072	47	4793
2026-01-23 21:04:22.58	157.82	19.25	-38.4	-40.6	21.4	0.00e+00	0	60	0	312475648	47	4873
2026-01-23 21:04:23.59	157.46	19.14	-38.5	-40.7	21.3	0.00e+00	0	60	0	314048512	47	4947
2026-01-23 21:04:24.60	157.11	19.03	-38.5	-40.8	21.2	0.00e+00	0	60	0	315097088	47	4992
2026-01-23 21:04:25.61	156.76	18.92	-38.3	-40.5	21.4	0.00e+00	0	60	0	316145664	47	4869
2026-01-23 21:04:26.62	156.41	18.80	-38.2	-40.4	21.6	0.00e+00	0	60	0	317194240	47	4769
2026-01-23 21:04:27.62	156.07	18.69	-38.2	-40.4	21.6	0.00e+00	0	60	0	318242816	47	4786
2026-01-23 21:04:28.63	155.73	18.58	-38.2	-40.4	21.6	0.00e+00	0	60	0	319291392	47	4778
2026-01-23 21:04:29.64	155.39	18.47	-38.4	-40.6	21.4	0.00e+00	0	60	0	320864256	47	4912
2026-01-23 21:04:30.65	155.06	18.35	-38.5	-40.7	21.3	0.00e+00	0	60	0	321912832	47	4976
2026-01-23 21:04:31.66	154.73	18.24	-38.5	-40.8	21.2	0.00e+00	0	60	0	322961408	47	4993
2026-01-23 21:04:32.67	154.40	18.13	-38.4	-40.7	21.3	0.00e+00	0	60	0	324009984	47	4933
2026-01-23 21:04:33.68	154.08	18.01	-38.2	-40.4	21.6	0.00e+00	0	60	0	325058560	47	4771
2026-01-23 21:04:34.69	153.75	17.90	-38.2	-40.4	21.5	0.00e+00	0	60	0	326107136	47	4794
2026-01-23 21:04:35.70	153.43	17.79	-38.4	-40.6	21.3	0.00e+00	0	60	0	327680000	47	4924
2026-01-23 21:04:36.71	153.12	17.67	-38.6	-41.0	21.0	0.00e+00	0	60	0	328728576	47	5109
2026-01-23 21:04:37.72	152.80	17.56	-38.7	-41.0	21.0	0.00e+00	0	60	0	329777152	47	5109
2026-01-23 21:04:38.73	152.49	17.45	-38.7	-41.0	21.0	0.00e+00	0	60	0	330825728	47	5112
2026-01-23 21:04:39.74	152.19	17.33	-38.7	-41.0	21.0	0.00e+00	0	60	0	331874304	47	5121
2026-01-23 21:04:40.75	151.88	17.22	-38.8	-41.1	20.9	0.00e+00	0	60	0	332922880	48	4904
2026-01-23 21:04:41.76	151.58	17.11	-38.8	-41.1	20.8	0.00e+00	0	60	0	334495744	48	4905
2026-01-23 21:04:42.77	151.28	16.99	-38.8	-41.2	20.8	0.00e+00	0	60	0	335544320	48	4945
2026-01-23 21:04:43.78	150.98	16.88	-38.7	-41.1	20.9	0.00e+00	0	60	0	336592896	48	4879
2026-01-23 21:04:44.79	150.69	16.77	-38.8	-41.1	20.9	0.00e+00	0	60	0	337641472	48	4892
2026-01-23 21:04:45.79	150.40	16.66	-38.9	-41.2	20.7	0.00e+00	0	60	0	338690048	48	4953
2026-01-23 21:04:46.80	150.11	16.54	-38.7	-41.1	20.9	0.00e+00	0	60	0	339738624	48	4871
2026-01-23 21:04:47.81	149.83	16.43	-38.7	-41.0	20.9	0.00e+00	0	60	0	340787200	48	4843
2026-01-23 21:04:48.82	149.55	16.32	-38.9	-41.3	20.7	0.00e+00	0	60	0	342360064	48	4986
2026-01-23 21:04:49.83	149.27	16.21	-39.0	-41.4	20.5	0.00e+00	0	60	0	343408640	48	5070
2026-01-23 21:04:50.84	148.99	16.09	-39.2	-41.6	20.3	0.00e+00	0	60	0	344457216	48	5211
2026-01-23 21:04:51.85	148.71	15.98	-39.2	-41.7	20.2	0.00e+00	0	60	0	345505792	48	5250
2026-01-23 21:04:52.86	148.44	15.87	-39.1	-41.6	20.3	0.00e+00	0	60	0	346554368	48	5203
2026-01-23 21:04:53.87	148.17	15.76	-39.1	-41.6	20.3	0.00e+00	0	60	0	347602944	48	5183
2026-01-23 21:04:54.88	147.91	15.65	-39.2	-41.7	20.1	0.00e+00	0	60	0	349175808	48	5241
2026-01-23 21:04:55.89	147.64	15.54	-39.3	-41.8	20.1	0.00e+00	0	60	0	350224384	49	5014
2026-01-23 21:04:56.90	147.38	15.43	-39.3	-41.9	20.0	0.00e+00	0	60	0	351272960	49	5054
2026-01-23 21:04:57.91	147.12	15.32	-39.4	-42.0	19.9	0.00e+00	0	60	0	352321536	49	5110
2026-01-23 21:04:58.92	146.86	15.21	-39.2	-41.7	20.1	1.10e-06	0	60	0	353370112	49	4963
2026-01-23 21:04:59.93	146.61	15.10	-39.1	-41.6	20.3	0.00e+00	0	60	0	354942976	49	4890
2026-01-23 21:05:00.94	146.36	14.99	-38.6	-41.7	20.1	0.00e+00	0	60	0	355991552	49	4949
2026-01-23 21:05:01.95	146.11	14.88	-39.3	-41.9	20.0	0.00e+00	0	60	0	357040128	49	5056
2026-01-23 21:05:02.96	145.86	14.77	-39.4	-42.1	19.8	0.00e+00	0	60	0	358088704	49	5172
2026-01-23 21:05:03.97	145.61	14.66	-39.5	-42.2	19.7	0.00e+00	0	60	0	359137280	49	5228
2026-01-23 21:05:04.98	145.37	14.55	-39.6	-42.3	19.6	0.00e+00	0	60	0	360185856	49	5307
2026-01-23 21:05:05.99	145.13	14.44	-39.6	-42.4	19.0	0.00e+00	0	60	0	361758720	49	5353
2026-01-23 21:05:07.00	144.89	14.33	-39.3	-42.4	19.4	0.00e+00	0	60	0	362807296	49	5357
2026-01-23 21:05:08.01	144.65	14.22	-39.6	-42.4	19.4	3.40e-06	0	60	0	363855872	49	5342
2026-01-23 21:05:09.02	144.42	14.12	-39.6	-42.3	19.5	0.00e+00	0	60	0	364904448	49	5303
2026-01-23 21:05:10.02	144.19	14.01	-39.6	-42.4	19.5	0.00e+00	0	60	0	365953024	49	5352
2026-01-23 21:05:11.03	143.96	13.90	-39.6	-42.4	19.4	0.00e+00	0	60	0	367001600	49	5366
2026-01-23 21:05:12.04	143.73	13.80	-39.5	-42.4	19.0	1.10e-06	0	60	0	368574464	49	5398
2026-01-23 21:05:13.05	143.51	13.69	-39.8	-42.6	19.2	0.00e+00	0	60	0	369623040	50	5172
2026-01-23 21:05:14.06	143.28	13.59	-39.8	-42.6	19.1	0.00e+00	0	60	0	370671616	50	5201
2026-01-23 21:05:15.07	143.06	13.48	-39.8	-42.6	19.2	0.00e+00	0	60	0	371720192	50	5208
2026-01-23 21:05:16.08	142.84	13.37	-39.8	-42.6	19.2	2.20e-06	0	60	0	372768768	50	5208
2026-01-23 21:05:17.09	142.63	13.27	-39.7	-42.7	18.8	2.20e-06	0	60	0	373817344	50	5254
2026-01-23 21:05:18.10	142.41	13.17	-39.8	-42.7	19.1	0.00e+00	0	60	0	375390208	50	5229
2026-01-23 21:05:19.11	142.20	13.06	-39.8	-42.7	19.0	0.00e+00	0	60	0	376438784	50	5229
2026-01-23 21:05:20.11	141.99	12.96	-39.8	-42.7	18.9	0.00e+00	0	60	0	377487360	50	5274
2026-01-23 21:05:21.12	141.78	12.85	-39.7	-42.5	19.2	0.00e+00	0	60	0	378535936	50	5126
2026-01-23 21:05:22.13	141.57	12.75	-39.7	-42.6	19.1	0.00e+00	0	60	0	379584512	50	5166
2026-01-23 21:05:23.15	141.36	12.65	-39.8	-42.6	19.0	0.00e+00	0	60	0	380633088	50	5206
2026-01-23 21:05:24.16	141.16	12.55	-39.8	-42.7	18.9	0.00e+00	0	60	0	381681664	50	5244
2026-01-23 21:05:25.16	140.96	12.44	-39.9	-42.9	18.7	0.00e+00	0	60	0	383254528	50	5380
2026-01-23 21:05:26.17	140.76	12.34	-40.0	-43.1	18.5	0.00e+00	0	60	0	384303104	50	5484
2026-01-23 21:05:27.18	140.56	12.24	-40.1	-43.2	18.4	0.00e+00	0	60	0	385351680	50	5532
2026-01-23 21:05:28.19	140.37	12.14	-40.1	-43.2	18.2	0.00e+00	0	60	0	386400256	50	5590
2026-01-23 21:05:29.20	140.17	12.04	-40.2	-43.4	18.0	0.00e+00	0	60	0	387448832	50	5669
2026-01-23 21:05:30.21	139.98	11.94	-40.1	-43.4	18.0	0.00e+00	0	60	0	388497408	50	5705
2026-01-23 21:05:31.22	139.79	11.84	-40.1	-43.3	18.0	3.40e-06	0	60	0	390070272	50	5622
2026-01-23 21:05:32.23	139.60	11.74	-40.0	-43.5	17.7	4.57e-05	0	60	0	391118848	50	5761
2026-01-23 21:05:33.24	139.41	11.64	-39.9	-43.4	17.8	4.57e-05	0	60	0	392167424	50	5703
2026-01-23 21:05:34.25	139.22	11.54	-40.1	-43.5	17.6	1.10e-06	0	60	0	393216000	50	5784
2026-01-23 21:05:35.26	139.04	11.44	-40.1	-43.5	17.6	4.50e-06	0	60	0	394264576	50	5770
2026-01-23 21:05:36.27	138.86	11.34	-40.2	-43.8	16.9	4.50e-06	0	60	0	395313152	51	5631
2026-01-23 21:05:37.28	138.68	11.25	-39.9	-44.0	16.8	1.86e-02	0	60	0	396886016	51	5763
2026-01-23 21:05:38.29	138.50	11.15	-39.5	-43.2	17.2	8.23e-05	0	60	0	397934592	49	5873
2026-01-23 21:05:39.30	138.32	11.05	-39.6	-42.9	17.8	2.15e-03	0	60	0	398983168	49	5691
2026-01-23 21:05:40.30	138.14	10.96	-37.8	-43.3	16.7	2.15e-03	0	60	0	400031744	47	6651
2026-01-23 21:05:41.31	137.97	10.86	-39.3	-42.9	16.6	7.16e-02	0	60	0	401080320	48	5999
2026-01-23 21:05:42.32	137.80	10.76	-34.5	-42.1	15.4	5.87e-02	0	60	0	402128896	40	8681
2026-01-23 21:05:43.33	137.62	10.67	-35.0	-43.5	13.4	5.87e-02	0	60	0	403177472	43	8574
2026-01-23 21:05:44.34	137.45	10.57	-27.9	-42.6	7.8	6.16e-02	0	60	0	404226048	32	14626
2026-01-23 21:05:45.35	137.29	10.48	-26.8	-44.7	5.4	3.20e-01	0	60	0	404750336	29	22106
2026-01-23 21:05:46.36	137.12	10.38	-29.7	-50.3	5.2	3.20e-01	0	60	104	405274624	42	20028
2026-01-23 21:05:47.37	136.95	10.29	-40.4	-53.0	5.9	5.56e-01	0	60	104	405274624	49	18149
2026-01-23 21:05:48.38	136.79	10.20	-38.7	-54.4	4.4	7.13e-01	0	60	104	405274624	45	26972
2026-01-23 21:05:49.39	136.63	10.10	-41.3	-54.8	4.0	7.13e-01	0	60	104	405274624	48	23685
2026-01-23 21:05:50.40	136.46	10.01	-31.0	-52.9	5.0	8.35e-01	0	60	104	405274624	33	44965
2026-01-23 21:05:51.41	136.30	9.92	-40.7	-59.8	3.2	8.29e-01	0	60	104	405274624	46	47348
2026-01-23 21:05:52.42	136.15	9.82	-32.1	-53.9	3.7	8.37e-01	0	60	104	405274624	36	42812
2026-01-23 21:05:53.43	135.99	9.73	-32.2	-54.2	4.1	8.37e-01	0	60	104	405274624	41	33117
2026-01-23 21:05:54.44	135.83	9.64	-35.3	-55.7	3.9	8.42e-01	0	60	104	405274624	41	39500
2026-01-23 21:05:55.45	135.68	9.55	-31.0	-49.2	3.9	8.34e-01	0	60	104	405274624	28	39409
2026-01-23 21:05:56.46	135.52	9.46	-26.7	-48.6	4.0	8.34e-01	0	60	104	405274624	26	41408
2026-01-23 21:05:57.47	135.37	9.37	-28.7	-46.1	3.4	8.27e-01	0	60	104	405274624	13	65535
2026-01-23 21:05:58.48	135.22	9.28	-27.3	-52.4	4.0	8.16e-01	0	60	104	405274624	30	50748
2026-01-23 21:05:59.49	135.07	9.19	-31.9	-54.2	4.5	8.16e-01	0	60	104	405274624	40	35084
2026-01-23 21:06:00.50	134.92	9.10	-38.4	-51.3	4.0	8.22e-01	0	60	104	405274624	33	37722
2026-01-23 21:06:01.51	134.78	9.01	-30.4	-51.7	4.2	8.14e-01	0	60	104	405274624	28	52684
2026-01-23 21:06:02.51	134.63	8.92	-32.7	-47.1	4.3	8.14e-01	0	60	104	405274624	15	65535
2026-01-23 21:06:03.52	134.49	8.83	-17.8	-40.9	3.8	8.09e-01	0	60	104	405274624	9	45318
2026-01-23 21:06:04.53	134.34	8.74	-22.3	-43.3	3.4	8.22e-01	0	60	104	405274624	10	55929
2026-01-23 21:06:05.54	134.20	8.66	-24.6	-47.9	4.2	8.07e-01	0	60	104	405274624	22	47860
2026-01-23 21:06:06.55	134.06	8.57	-16.1	-41.3	3.7	8.07e-01	0	60	104	405274624	7	52932
2026-01-23 21:06:07.56	133.92	8.48	-18.3	-43.9	3.2	8.13e-01	0	60	104	405274624	14	47775
2026-01-23 21:06:08.57	133.78	8.40	-24.5	-47.7	3.4	8.08e-01	0	60	104	405274624	19	55847
2026-01-23 21:06:09.59	133.64	8.31	-22.3	-46.1	3.6	8.08e-01	0	60	104	405274624	16	55210
2026-01-23 21:06:10.60	133.51	8.22	-27.4	-52.5	4.1	8.06e-01	0	60	104	405274624	29	54339
2026-01-23 21:06:11.60	133.37	8.14	-28.7	-49.5	3.9	8.08e-01	0	60	104	405274624	24	51439
2026-01-23 21:06:12.61	133.24	8.05	-16.5	-41.6	3.7	8.08e-01	0	60	104	405274624	7	54728
2026-01-23 21:06:13.63	133.11	7.97	-25.7	-46.2	3.8	8.10e-01	0	60	104	405274624	19	47029
2026-01-23 21:06:14.64	132.97	7.88	-32.4	-53.7	4.4	8.11e-01	0	60	104	405274624	31	55647
2026-01-23 21:06:15.65	132.84	7.80	-44.4	-63.1	3.8	8.23e-01	0	60	104	405274624	60	30743
2026-01-23 21:06:16.66	132.71	7.71	-45.1	-63.4	3.8	8.23e-01	0	60	104	405274624	60	32028
2026-01-23 21:06:17.67	132.58	7.63	-45.3	-63.6	3.8	8.47e-01	0	60	104	405274624	61	30831
2026-01-23 21:06:18.68	132.46	7.54	-45.4	-63.7	3.8	8.45e-01	0	61	104	405274624	61	31213
2026-01-23 21:06:19.69	132.33	7.46	-45.5	-63.8	3.8	8.45e-01	0	60	104	405274624	61	31652
2026-01-23 21:06:20.70	132.20	7.38	-45.6	-63.9	3.8	8.46e-01	0	60	104	405274624	61	32018
2026-01-23 21:06:21.71	132.08	7.29	-45.7	-64.0	3.8	8.46e-01	0	60	104	405274624	61	32310
2026-01-23 21:06:22.72	131.95	7.21	-45.7	-64.0	3.8	8.46e-01	0	60	104	405274624	61	32394
2026-01-23 21:06:23.73	131.83	7.13	-45.6	-63.9	3.8	8.45e-01	0	60	104	405274624	61	31967
2026-01-23 21:06:24.74	131.71	7.05	-45.5	-63.8	3.8	8.45e-01	0	60	104	405274624	61	31467
2026-01-23 21:06:25.75	131.59	6.97	-45.5	-63.6	3.8	8.45e-01	0	60	104	405274624	61	31030
2026-01-23 21:06:26.76	131.47	6.89	-45.4	-63.6	3.8	8.47e-01	0	60	104	405274624	61	30731
2026-01-23 21:06:27.77	131.35	6.81	-45.4	-63.4	3.8	8.46e-01	0	60	104	405274624	61	30287
2026-01-23 21:06:28.78	131.23	6.72	-45.3	-63.4	3.8	8.45e-01	0	61	104	405274624	61	30212
2026-01-23 21:06:29.79	131.12	6.64	-45.2	-63.3	3.8	8.45e-01	0	60	104	405274624	61	29843
2026-01-23 21:06:30.80	131.00	6.56	-45.2	-63.3	3.8	8.46e-01	0	60	104	405274624	61	29891
2026-01-23 21:06:31.81	130.88	6.49	-45.2	-63.3	3.8	8.45e-01	0	60	104	405274624	61	29925
2026-01-23 21:06:32.83	130.77	6.40	-45.2	-63.3	3.8	8.45e-01	0	61	104	405274624	61	29882
2026-01-23 21:06:33.84	130.66	6.33	-45.2	-63.3	3.8	8.44e-01	0	60	104	405274624	61	29866
2026-01-23 21:06:34.85	130.54	6.25	-45.2	-63.3	3.8	8.46e-01	0	60	104	405274624	61	29845
2026-01-23 21:06:35.86	130.43	6.17	-45.2	-63.3	3.8	8.46e-01	0	60	104	405274624	61	29798
2026-01-23 21:06:36.87	130.32	6.09	-45.2	-63.3	3.8	8.47e-01	0	61	104	405274624	61	29751
2026-01-23 21:06:37.88	130.21	6.01	-45.2	-63.3	3.8	8.47e-01	0	60	104	405274624	61	29741
2026-01-23 21:06:38.89	130.10	5.93	-45.2	-63.3	3.8	8.47e-01	0	61	104	405274624	61	29899
2026-01-23 21:06:39.90	129.99	5.86	-45.2	-63.3	3.8	8.46e-01	0	60	104	405274624	61	29723
2026-01-23 21:06:40.91	129.89	5.78	-45.2	-63.3	3.8	8.45e-01	0	60	104	405274624	61	29796
2026-01-23 21:06:41.92	129.78	5.70	-45.2	-63.3	3.8	8.45e-01	0	60	104	405274624	61	29793
2026-01-23 21:06:42.93	129.67	5.63	-45.2	-63.3	3.8	8.45e-01	0	61	104	405274624	61	29757
2026-01-23 21:06:43.94	129.57	5.55	-45.2	-63.3	3.8	8.47e-01	0	60	104	405274624	61	29694
2026-01-23 21:06:44.95	129.46	5.47	-45.2	-63.3	3.8	8.46e-01	0	61	104	405274624	61	29756
2026-01-23 21:06:45.96	129.36	5.40	-45.2	-63.2	3.8	8.46e-01	0	60	104	405274624	61	29663
2026-01-23 21:06:46.97	129.26	5.32	-45.2	-63.3	3.8	8.45e-01	0	60	104	405274624	61	29740
2026-01-23 21:06:47.98	129.15	5.25	-45.2	-63.2	3.8	8.46e-01	0	61	104	405274624	61	29661
2026-01-23 21:06:49.00	129.05	5.17	-45.2	-63.3	3.8	8.46e-01	0	60	104	405274624	61	29701
2026-01-23 21:06:50.01	128.95	5.10	-45.2	-63.3	3.8	8.45e-01	0	60	104	405274624	61	29715
2026-01-23 21:06:51.02	128.85	5.02	-45.2	-63.3	3.8	8.45e-01	0	60	104	405274624	61	29699
2026-01-23 21:06:52.03	128.75	4.95	-45.2	-63.2	3.8	8.45e-01	0	60	104	405274624	61	29654
2026-01-23 21:06:53.04	128.65	4.88	-45.2	-63.2	3.8	8.46e-01	0	60	104	405274624	61	29625
2026-01-23 21:06:54.05	128.56	4.80	-45.2	-63.3	3.8	8.47e-01	0	60	104	405274624	61	29706
2026-01-23 21:06:55.06	128.46	4.73	-45.2	-63.2	3.8	8.47e-01	0	61	104	405274624	61	29641
2026-01-23 21:06:56.07	128.36	4.65	-45.2	-63.2	3.8	8.47e-01	0	61	104	405274624	61	29561
2026-01-23 21:06:57.08	128.27	4.58	-45.2	-63.2	3.8	8.46e-01	0	60	104	405274624	61	29618
2026-01-23 21:06:58.09	128.17	4.51	-45.2	-63.2	3.8	8.45e-01	0	60	104	405274624	61	29656
2026-01-23 21:06:59.10	128.08	4.44	-45.2	-63.2	3.8	8.45e-01	0	60	104	405274624	61	29558
2026-01-23 21:07:00.11	127.99	4.36	-45.1	-63.2	3.8	8.47e-01	0	60	104	405274624	61	29628
2026-01-23 21:07:01.12	127.89	4.29	-45.2	-63.2	3.8	8.46e-01	0	61	104	405274624	61	29563
2026-01-23 21:07:02.13	127.80	4.22	-45.1	-63.2	3.8	8.46e-01	0	60	104	405274624	61	29577
2026-01-23 21:07:03.14	127.71	4.15	-45.1	-63.2	3.8	8.47e-01	0	60	104	405274624	61	29593
2026-01-23 21:07:04.15	127.62	4.08	-44.9	-63.2	3.8	8.47e-01	0	61	104	405274624	61	29561
2026-01-23 21:07:05.16	127.53	4.01	-45.2	-63.2	3.8	8.47e-01	0	61	104	405274624	61	29607
2026-01-23 21:07:06.17	127.44	3.94	-45.1	-63.2	3.8	8.46e-01	0	60	104	405274624	61	29655
2026-01-23 21:07:07.18	127.35	3.87	-45.1	-63.2	3.8	8.46e-01	0	61	104	405274624	61	29578
2026-01-23 21:07:08.20	127.26	3.79	-45.1	-63.2	3.8	8.47e-01	0	61	104	405274624	61	29544
2026-01-23 21:07:09.21	127.17	3.72	-45.1	-63.2	3.8	8.47e-01	0	61	104	405274624	61	29600
2026-01-23 21:07:10.22	127.09	3.65	-45.1	-63.2	3.8	8.46e-01	0	61	104	405274624	61	29571
2026-01-23 21:07:11.23	127.00	3.58	-45.1	-63.2	3.8	8.47e-01	0	61	104	405274624	61	29604
2026-01-23 21:07:12.24	126.91	3.52	-45.1	-63.2	3.8	8.47e-01	0	61	104	405274624	61	29647
2026-01-23 21:07:13.25	126.83	3.45	-45.1	-63.2	3.8	8.47e-01	0	61	104	405274624	61	29550
2026-01-23 21:07:14.26	126.74	3.38	-45.1	-63.2	3.8	8.47e-01	0	61	104	405274624	61	29528
2026-01-23 21:07:15.27	126.66	3.31	-45.1	-63.2	3.8	8.47e-01	0	61	104	405274624	61	29514
2026-01-23 21:07:16.28	126.58	3.24	-45.1	-63.2	3.8	8.46e-01	0	61	104	405274624	61	29673
2026-01-23 21:07:17.29	126.49	3.17	-45.1	-63.2	3.8	8.46e-01	0	61	104	405274624	61	29577
2026-01-23 21:07:18.30	126.41	3.10	-45.1	-63.2	3.8	8.47e-01	0	60	104	405274624	61	29522
2026-01-23 21:07:19.31	126.33	3.04	-45.1	-63.2	3.8	8.47e-01	0	61	104	405274624	61	29543
2026-01-23 21:07:20.32	126.25	2.97	-45.1	-63.2	3.8	8.45e-01	0	61	104	405274624	61	29507
2026-01-23 21:07:21.33	126.17	2.90	-45.1	-63.2	3.8	8.46e-01	0	61	104	405274624	61	29554
2026-01-23 21:07:22.34	126.09	2.83	-45.1	-63.2	3.8	8.46e-01	0	60	104	405274624	61	29475
2026-01-23 21:07:23.35	126.01	2.77	-45.1	-63.2	3.8	8.47e-01	0	61	104	405274624	61	29488
2026-01-23 21:07:24.36	125.93	2.70	-45.1	-63.2	3.8	8.45e-01	0	61	104	405274624	61	29508
2026-01-23 21:07:25.37	125.85	2.63	-45.1	-63.2	3.8	8.45e-01	0	60	104	405274624	61	29590
2026-01-23 21:07:26.38	125.77	2.57	-45.1	-63.2	3.8	8.46e-01	0	61	104	405274624	61	29456
2026-01-23 21:07:27.39	125.69	2.50	-45.1	-63.2	3.8	8.46e-01	0	60	104	405274624	61	29561
2026-01-23 21:07:28.40	125.62	2.43	-45.1	-63.2	3.8	8.46e-01	0	61	104	405274624	61	29575
2026-01-23 21:07:29.41	125.54	2.37	-45.1	-63.2	3.8	8.46e-01	0	61	104	405274624	61	29452
2026-01-23 21:07:30.42	125.47	2.30	-45.1	-63.2	3.8	8.47e-01	0	61	104	405274624	61	29522
2026-01-23 21:07:31.43	125.39	2.24	-45.1	-63.2	3.8	8.46e-01	0	61	104	405274624	61	29547
2026-01-23 21:07:32.44	125.32	2.17	-45.1	-63.2	3.8	8.46e-01	0	60	104	405274624	61	29510
2026-01-23 21:07:33.45	125.24	2.11	-45.1	-63.2	3.8	8.46e-01	0	61	104	405274624	61	29433
2026-01-23 21:07:34.46	125.17	2.04	-45.1	-63.2	3.8	8.45e-01	0	61	104	405274624	61	29455
2026-01-23 21:07:35.47	125.09	1.98	-45.0	-63.2	3.8	8.45e-01	0	61	104	405274624	61	29495
2026-01-23 21:07:36.48	125.02	1.91	-45.1	-63.2	3.8	8.46e-01	0	60	104	405274624	61	29470

#Closed at: 2026-01-23 21:07:37
#Recorded file [405 MB]: D:/lorett/data/31039_260123_235838.dat