passes_logs/2026/01/23/R2.0S_Moscow/R2.0S_Moscow__20260123_192226_FENGYUN_3G_rec.log

#Pass ID: 20260123_192226_FENGYUN 3G
#Satellite: FENGYUN 3G
#Configuration: FENGYUN 3G
#almurnet v.1.7.20251203
#Start time: 2026-01-23 19:22:27

#Version: 2.2.20231116
#Station: R2.0S_Moscow
#Location: 37.707566 lon 55.798166 lat
#TLE: 1 56232U 23055A   26022.95932522  .00036289  00000+0  55235-3 0  9992
#TLE: 2 56232  49.9946  14.8507 0004090  68.3647 291.7756 15.54106507157434

#Time	Az	El	Level	Level2	SNR	BER	BlckErr	Temp	State	Recorded	gain1	gain2
2026-01-23 19:22:27.56	244.39	2.04	-44.2	-62.3	3.8	8.47e-01	0	51	0	0	60	28210
2026-01-23 19:22:28.58	244.32	2.11	-44.2	-62.3	3.8	8.43e-01	0	52	104	0	60	28197
2026-01-23 19:22:29.59	244.26	2.18	-44.2	-62.3	3.8	8.47e-01	0	52	104	0	60	28202
2026-01-23 19:22:30.60	244.19	2.24	-44.2	-62.3	3.8	8.46e-01	0	52	104	0	60	28202
2026-01-23 19:22:31.61	244.12	2.31	-44.2	-62.3	3.8	8.46e-01	0	52	104	0	60	28120
2026-01-23 19:22:32.62	244.06	2.38	-44.2	-62.3	3.8	8.46e-01	0	52	104	0	60	28127
2026-01-23 19:22:33.63	243.99	2.44	-44.2	-62.2	3.8	8.46e-01	0	52	104	0	60	27968
2026-01-23 19:22:34.64	243.92	2.51	-44.2	-62.2	3.8	8.46e-01	0	52	104	0	60	27884
2026-01-23 19:22:35.65	243.86	2.58	-44.2	-62.2	3.8	8.48e-01	0	52	104	0	60	27947
2026-01-23 19:22:36.66	243.79	2.65	-44.2	-62.2	3.8	8.45e-01	0	52	104	0	60	27931
2026-01-23 19:22:37.67	243.72	2.71	-44.2	-62.2	3.8	8.45e-01	0	52	104	0	60	27863
2026-01-23 19:22:38.69	243.65	2.78	-44.2	-62.2	3.8	8.46e-01	0	52	104	0	60	27852
2026-01-23 19:22:39.69	243.58	2.85	-44.2	-62.2	3.8	8.46e-01	0	52	104	0	60	27782
2026-01-23 19:22:40.71	243.51	2.92	-44.2	-62.2	3.8	8.46e-01	0	53	104	0	60	27931
2026-01-23 19:22:41.72	243.44	2.99	-44.2	-62.1	3.8	8.45e-01	0	53	104	0	60	27698
2026-01-23 19:22:42.73	243.37	3.06	-44.2	-62.2	3.8	8.47e-01	0	53	104	0	60	27899
2026-01-23 19:22:43.74	243.30	3.13	-44.2	-62.2	3.8	8.47e-01	0	53	104	0	60	27967
2026-01-23 19:22:44.75	243.22	3.20	-44.2	-62.2	3.8	8.47e-01	0	53	104	0	60	27914
2026-01-23 19:22:45.76	243.15	3.27	-44.2	-62.3	3.8	8.46e-01	0	53	104	0	60	28051
2026-01-23 19:22:46.77	243.08	3.34	-44.2	-62.2	3.8	8.45e-01	0	53	104	0	60	28007
2026-01-23 19:22:47.78	243.00	3.41	-44.2	-62.3	3.8	8.45e-01	0	53	104	0	60	28089
2026-01-23 19:22:48.79	242.93	3.48	-44.2	-62.2	3.8	8.46e-01	0	53	104	0	60	28021
2026-01-23 19:22:49.80	242.85	3.55	-44.2	-62.2	3.8	8.45e-01	0	53	104	0	60	27981
2026-01-23 19:22:50.81	242.78	3.62	-44.2	-62.2	3.8	8.45e-01	0	53	104	0	60	28009
2026-01-23 19:22:51.82	242.70	3.69	-44.2	-62.2	3.8	8.47e-01	0	53	104	0	60	27971
2026-01-23 19:22:52.83	242.63	3.76	-44.2	-62.3	3.8	8.46e-01	0	54	104	0	60	28076
2026-01-23 19:22:53.84	242.55	3.83	-44.1	-62.2	3.8	8.46e-01	0	54	104	0	60	27996
2026-01-23 19:22:54.86	242.47	3.91	-44.2	-62.3	3.8	8.46e-01	0	54	104	0	60	28036
2026-01-23 19:22:55.87	242.39	3.98	-44.2	-62.2	3.8	8.46e-01	0	54	104	0	60	27980
2026-01-23 19:22:56.88	242.31	4.05	-44.2	-62.1	3.8	8.45e-01	0	54	104	0	60	27655
2026-01-23 19:22:57.88	242.24	4.12	-44.1	-62.0	3.8	8.45e-01	0	54	104	0	60	27148
2026-01-23 19:22:58.90	242.15	4.20	-44.2	-61.9	3.8	8.47e-01	0	54	104	0	60	26827
2026-01-23 19:22:59.91	242.07	4.27	-44.1	-61.6	3.8	8.46e-01	0	54	104	0	60	25890
2026-01-23 19:23:00.92	241.99	4.34	-44.1	-61.4	3.8	8.46e-01	0	54	104	0	60	25512
2026-01-23 19:23:01.93	241.91	4.42	-44.1	-61.3	3.8	8.46e-01	0	54	104	0	60	25244
2026-01-23 19:23:02.94	241.83	4.49	-44.1	-61.2	3.8	8.46e-01	0	54	104	0	60	24967
2026-01-23 19:23:03.95	241.75	4.57	-44.1	-61.2	3.8	8.46e-01	0	54	104	0	60	24797
2026-01-23 19:23:04.96	241.66	4.64	-44.1	-61.2	3.8	8.45e-01	0	54	104	0	60	24909
2026-01-23 19:23:05.97	241.58	4.72	-44.1	-61.5	3.8	8.47e-01	0	54	104	0	60	25611
2026-01-23 19:23:06.98	241.49	4.79	-44.1	-61.7	3.8	8.45e-01	0	54	104	0	60	26204
2026-01-23 19:23:07.99	241.41	4.87	-44.1	-61.7	3.8	8.45e-01	0	54	104	0	60	26233
2026-01-23 19:23:09.00	241.32	4.94	-44.1	-61.6	3.8	8.47e-01	0	54	104	0	60	26087
2026-01-23 19:23:10.01	241.24	5.02	-44.1	-61.4	3.8	8.46e-01	0	55	104	0	60	25532
2026-01-23 19:23:11.02	241.15	5.10	-44.1	-61.1	3.8	8.46e-01	0	54	104	0	60	24517
2026-01-23 19:23:12.03	241.06	5.17	-44.1	-60.8	3.8	8.46e-01	0	55	104	0	60	23699
2026-01-23 19:23:13.05	240.97	5.25	-44.1	-60.3	3.8	8.46e-01	0	55	104	0	60	22334
2026-01-23 19:23:14.06	240.88	5.33	-44.1	-59.8	4.0	8.46e-01	0	55	104	0	60	21020
2026-01-23 19:23:15.07	240.79	5.40	-44.1	-59.2	4.0	8.45e-01	0	55	0	0	60	19806
2026-01-23 19:23:16.08	240.70	5.48	-44.1	-59.0	4.1	8.43e-01	0	55	0	0	60	19280
2026-01-23 19:23:17.09	240.61	5.56	-44.1	-58.8	4.1	8.43e-01	0	55	0	0	60	18917
2026-01-23 19:23:18.10	240.52	5.64	-44.0	-58.8	4.2	8.38e-01	0	55	0	0	60	18861
2026-01-23 19:23:19.11	240.42	5.72	-44.0	-58.7	4.2	8.38e-01	0	55	0	0	60	18611
2026-01-23 19:23:20.12	240.33	5.80	-44.0	-58.8	4.2	8.38e-01	0	55	0	0	60	18744
2026-01-23 19:23:21.13	240.24	5.88	-44.0	-58.6	4.2	8.38e-01	0	55	0	0	60	18352
2026-01-23 19:23:22.14	240.14	5.96	-44.0	-58.0	4.4	8.36e-01	0	55	0	0	60	17279
2026-01-23 19:23:23.15	240.05	6.04	-44.0	-57.5	4.6	8.27e-01	0	55	0	0	60	16298
2026-01-23 19:23:24.16	239.95	6.12	-44.0	-56.7	5.0	8.27e-01	0	55	0	0	59	15738
2026-01-23 19:23:25.17	239.85	6.20	-44.0	-55.8	5.5	7.95e-01	0	55	0	0	59	14181
2026-01-23 19:23:26.18	239.75	6.28	-43.9	-54.7	6.4	5.75e-01	0	55	0	524288	59	12427
2026-01-23 19:23:27.19	239.65	6.36	-43.7	-53.3	7.7	5.75e-01	0	55	0	2097152	59	10551
2026-01-23 19:23:28.20	239.55	6.44	-43.5	-51.9	9.0	1.76e-01	0	55	0	3145728	59	9043
2026-01-23 19:23:29.21	239.45	6.52	-43.3	-51.0	10.1	3.96e-02	0	55	0	4194304	58	8577
2026-01-23 19:23:30.22	239.35	6.60	-43.1	-50.2	10.9	3.96e-02	0	56	0	5242880	58	7846
2026-01-23 19:23:31.23	239.25	6.69	-43.0	-49.8	11.3	7.33e-03	0	55	0	6291456	58	7526
2026-01-23 19:23:32.24	239.15	6.77	-43.0	-49.9	11.2	2.12e-03	0	56	0	7340032	58	7619
2026-01-23 19:23:33.25	239.04	6.85	-43.2	-50.4	10.7	2.39e-03	0	56	0	8388608	58	8039
2026-01-23 19:23:34.26	238.94	6.94	-43.4	-51.3	9.8	2.39e-03	0	56	0	9961472	58	8914
2026-01-23 19:23:35.27	238.83	7.02	-43.7	-53.0	8.1	1.06e-02	0	56	0	11010048	58	10815
2026-01-23 19:23:36.28	238.73	7.10	-43.9	-55.4	5.9	1.14e-01	0	56	0	12058624	58	14350
2026-01-23 19:23:37.30	238.62	7.19	-44.1	-58.8	4.2	1.14e-01	0	56	0	12058624	58	21194
2026-01-23 19:23:38.31	238.51	7.28	-44.2	-60.1	3.9	7.24e-01	0	56	104	12058624	58	24511
2026-01-23 19:23:39.32	238.40	7.36	-44.0	-55.8	5.5	8.39e-01	0	56	0	12058624	58	15028
2026-01-23 19:23:40.33	238.29	7.45	-43.5	-52.2	8.7	8.39e-01	0	56	0	13107200	58	9861
2026-01-23 19:23:41.34	238.18	7.53	-42.9	-49.5	11.5	3.13e-01	0	56	0	14155776	57	7695
2026-01-23 19:23:42.35	238.07	7.62	-42.3	-47.7	13.4	4.79e-03	0	56	0	15204352	56	6629
2026-01-23 19:23:43.36	237.95	7.71	-41.6	-46.3	14.8	4.79e-03	0	56	0	16252928	55	5932
2026-01-23 19:23:44.37	237.84	7.79	-41.3	-45.5	15.5	2.63e-05	0	56	0	17301504	54	5773
2026-01-23 19:23:45.38	237.73	7.88	-41.2	-45.3	15.8	0.00e+00	0	56	0	18350080	54	5600
2026-01-23 19:23:46.39	237.61	7.97	-41.2	-45.3	15.8	0.00e+00	0	56	0	19922944	54	5636
2026-01-23 19:23:47.40	237.49	8.06	-40.8	-44.5	16.4	0.00e+00	0	56	0	20971520	53	5424
2026-01-23 19:23:48.41	237.38	8.15	-43.7	-52.4	8.1	8.92e-05	0	56	0	21495808	59	9603
2026-01-23 19:23:49.42	237.26	8.23	-40.7	-44.3	16.8	1.85e-01	0	56	0	23068672	53	5317
2026-01-23 19:23:50.43	237.14	8.32	-43.0	-50.0	8.6	1.85e-01	0	56	0	23592960	58	7711
2026-01-23 19:23:51.44	237.02	8.41	-40.7	-44.3	16.4	2.51e-01	0	56	0	24641536	53	5301
2026-01-23 19:23:52.45	236.89	8.50	-42.3	-47.7	12.4	2.31e-03	0	56	0	25690112	56	6603
2026-01-23 19:23:53.46	236.77	8.59	-40.6	-44.1	17.0	2.31e-03	0	56	0	27262976	53	5179
2026-01-23 19:23:54.47	236.65	8.69	-40.6	-44.1	17.0	1.21e-03	0	57	0	28311552	53	5213
2026-01-23 19:23:55.48	236.52	8.78	-40.5	-44.0	17.1	0.00e+00	0	57	0	29360128	53	5135
2026-01-23 19:23:56.49	236.40	8.87	-40.6	-44.1	17.1	0.00e+00	0	56	0	30408704	53	5197
2026-01-23 19:23:57.50	236.27	8.96	-40.6	-44.1	17.1	0.00e+00	0	57	0	31457280	53	5203
2026-01-23 19:23:58.51	236.14	9.05	-40.6	-44.1	17.1	0.00e+00	0	57	0	32505856	53	5164
2026-01-23 19:23:59.52	236.01	9.15	-40.6	-44.1	17.1	0.00e+00	0	57	0	34078720	53	5183
2026-01-23 19:24:00.53	235.88	9.24	-40.6	-44.1	17.1	0.00e+00	0	57	0	35127296	53	5179
2026-01-23 19:24:01.54	235.75	9.34	-40.4	-43.7	17.5	0.00e+00	0	57	0	36175872	52	5244
2026-01-23 19:24:02.54	235.62	9.43	-40.2	-43.5	17.7	0.00e+00	0	57	0	37224448	52	5127
2026-01-23 19:24:03.56	235.48	9.52	-40.2	-43.5	17.8	0.00e+00	0	57	0	38273024	52	5108
2026-01-23 19:24:04.56	235.35	9.62	-40.2	-43.4	17.9	0.00e+00	0	57	0	39321600	52	5051
2026-01-23 19:24:05.57	235.21	9.71	-40.1	-43.3	18.0	0.00e+00	0	57	0	40894464	52	4985
2026-01-23 19:24:06.58	235.07	9.81	-40.1	-43.3	18.0	0.00e+00	0	57	0	41943040	52	4990
2026-01-23 19:24:07.59	234.93	9.91	-40.2	-43.4	17.9	0.00e+00	0	57	0	42991616	52	5051
2026-01-23 19:24:08.60	234.79	10.00	-40.2	-43.4	17.9	0.00e+00	0	57	0	44040192	52	5070
2026-01-23 19:24:09.61	234.65	10.10	-40.2	-43.4	17.9	0.00e+00	0	57	0	45088768	52	5070
2026-01-23 19:24:10.62	234.51	10.20	-40.3	-43.6	17.7	0.00e+00	0	57	0	46661632	52	5181
2026-01-23 19:24:11.63	234.36	10.30	-40.4	-43.7	17.6	0.00e+00	0	57	0	47710208	52	5243
2026-01-23 19:24:12.64	234.22	10.40	-40.4	-43.8	17.6	0.00e+00	0	57	0	48758784	52	5296
2026-01-23 19:24:13.65	234.07	10.50	-40.4	-43.7	17.6	0.00e+00	0	57	0	49807360	52	5259
2026-01-23 19:24:14.65	233.93	10.59	-40.4	-43.7	17.6	0.00e+00	0	57	0	50855936	52	5247
2026-01-23 19:24:15.66	233.78	10.69	-40.4	-43.7	17.6	0.00e+00	0	57	0	51904512	52	5246
2026-01-23 19:24:16.68	233.62	10.80	-40.4	-43.6	17.7	0.00e+00	0	57	0	53477376	52	5204
2026-01-23 19:24:17.68	233.47	10.90	-40.2	-43.3	18.1	0.00e+00	0	57	0	54525952	52	4999
2026-01-23 19:24:18.70	233.32	11.00	-40.0	-43.0	18.3	0.00e+00	0	57	0	55574528	52	4849
2026-01-23 19:24:19.70	233.16	11.10	-39.9	-42.8	18.7	0.00e+00	0	57	0	56623104	51	4993
2026-01-23 19:24:20.72	233.00	11.20	-39.8	-42.7	18.8	0.00e+00	0	57	0	57671680	51	4927
2026-01-23 19:24:21.72	232.85	11.31	-39.9	-42.8	18.7	0.00e+00	0	57	0	58720256	51	4991
2026-01-23 19:24:22.73	232.69	11.41	-39.9	-42.8	18.7	0.00e+00	0	57	0	59768832	51	4991
2026-01-23 19:24:23.74	232.53	11.51	-39.9	-42.8	18.6	0.00e+00	0	57	0	61341696	51	5026
2026-01-23 19:24:24.75	232.36	11.62	-40.0	-42.9	18.5	0.00e+00	0	57	0	62390272	51	5072
2026-01-23 19:24:25.76	232.20	11.72	-39.9	-42.9	18.6	0.00e+00	0	57	0	63438848	51	5050
2026-01-23 19:24:26.77	232.03	11.83	-40.0	-43.0	18.5	0.00e+00	0	57	0	64487424	51	5123
2026-01-23 19:24:27.78	231.86	11.93	-40.1	-43.1	18.4	0.00e+00	0	57	0	65536000	51	5181
2026-01-23 19:24:28.79	231.70	12.04	-39.9	-42.8	18.7	0.00e+00	0	58	0	66584576	51	5011
2026-01-23 19:24:29.80	231.52	12.15	-39.8	-42.7	18.8	0.00e+00	0	57	0	68157440	51	4966
2026-01-23 19:24:30.81	231.35	12.26	-39.9	-42.7	18.8	0.00e+00	0	57	0	69206016	51	4969
2026-01-23 19:24:31.82	231.18	12.36	-39.8	-42.6	19.0	0.00e+00	0	57	0	70254592	51	4876
2026-01-23 19:24:32.82	231.00	12.47	-39.8	-42.7	18.9	0.00e+00	0	57	0	71303168	51	4934
2026-01-23 19:24:33.83	230.83	12.58	-39.8	-42.6	18.9	0.00e+00	0	58	0	72351744	51	4895
2026-01-23 19:24:34.84	230.65	12.69	-39.6	-42.3	19.2	0.00e+00	0	58	0	73400320	51	4735
2026-01-23 19:24:35.85	230.47	12.80	-39.6	-42.4	19.1	0.00e+00	0	58	0	74973184	51	4779
2026-01-23 19:24:36.86	230.28	12.91	-39.7	-42.5	19.0	0.00e+00	0	58	0	76021760	51	4843
2026-01-23 19:24:37.87	230.10	13.02	-39.8	-42.6	18.9	0.00e+00	0	58	0	77070336	51	4904
2026-01-23 19:24:38.88	229.91	13.13	-39.9	-42.7	18.9	0.00e+00	0	58	0	78118912	51	4945
2026-01-23 19:24:39.89	229.72	13.24	-39.7	-42.5	19.0	0.00e+00	0	58	0	79167488	51	4832
2026-01-23 19:24:40.90	229.53	13.36	-39.7	-42.4	19.2	0.00e+00	0	58	0	80216064	51	4778
2026-01-23 19:24:41.91	229.34	13.47	-39.7	-42.5	19.1	0.00e+00	0	58	0	81788928	51	4827
2026-01-23 19:24:42.92	229.14	13.58	-39.5	-42.2	19.4	0.00e+00	0	58	0	82837504	51	4682
2026-01-23 19:24:43.93	228.95	13.70	-39.5	-42.1	19.5	0.00e+00	0	58	0	83886080	50	4901
2026-01-23 19:24:44.94	228.75	13.81	-39.4	-42.0	19.6	0.00e+00	0	58	0	84934656	50	4818
2026-01-23 19:24:45.95	228.55	13.93	-39.4	-42.0	19.6	0.00e+00	0	58	0	85983232	50	4827
2026-01-23 19:24:46.96	228.35	14.04	-39.3	-41.9	19.7	0.00e+00	0	58	0	87031808	50	4773
2026-01-23 19:24:47.97	228.14	14.16	-39.3	-41.9	19.8	0.00e+00	0	58	0	88604672	50	4761
2026-01-23 19:24:48.98	227.94	14.28	-39.2	-41.7	19.9	0.00e+00	0	58	0	89653248	50	4668
2026-01-23 19:24:49.98	227.73	14.39	-39.1	-41.6	20.0	0.00e+00	0	58	0	90701824	50	4635
2026-01-23 19:24:50.99	227.52	14.51	-39.2	-41.8	19.9	0.00e+00	0	58	0	91750400	50	4710
2026-01-23 19:24:52.00	227.31	14.63	-39.3	-41.9	19.8	0.00e+00	0	58	0	92798976	50	4773
2026-01-23 19:24:53.01	227.09	14.75	-39.3	-41.9	19.8	0.00e+00	0	58	0	93847552	50	4771
2026-01-23 19:24:54.02	226.87	14.87	-39.3	-41.9	19.8	0.00e+00	0	58	0	95420416	50	4772
2026-01-23 19:24:55.03	226.65	14.98	-39.2	-41.7	19.9	0.00e+00	0	58	0	96468992	50	4702
2026-01-23 19:24:56.04	226.43	15.11	-39.2	-41.8	19.9	0.00e+00	0	58	0	97517568	50	4711
2026-01-23 19:24:57.05	226.21	15.23	-39.0	-41.4	20.2	0.00e+00	0	58	0	98566144	50	4529
2026-01-23 19:24:58.06	225.98	15.35	-38.9	-41.3	20.4	0.00e+00	0	58	0	99614720	49	4723
2026-01-23 19:24:59.06	225.76	15.47	-38.8	-41.1	20.5	0.00e+00	0	58	0	100663296	49	4646
2026-01-23 19:25:00.07	225.52	15.59	-38.8	-41.1	20.5	0.00e+00	0	58	0	102236160	49	4648
2026-01-23 19:25:01.08	225.29	15.71	-38.8	-41.2	20.5	0.00e+00	0	58	0	103284736	49	4659
2026-01-23 19:25:02.09	225.05	15.84	-38.8	-41.2	20.5	0.00e+00	0	58	0	104333312	49	4666
2026-01-23 19:25:03.10	224.82	15.96	-38.7	-41.0	20.6	0.00e+00	0	58	0	105381888	49	4587
2026-01-23 19:25:04.11	224.58	16.08	-38.7	-41.0	20.7	0.00e+00	0	58	0	106430464	49	4575
2026-01-23 19:25:05.12	224.33	16.21	-38.7	-41.1	20.6	0.00e+00	0	58	0	107479040	49	4613
2026-01-23 19:25:06.13	224.09	16.33	-38.7	-41.0	20.7	0.00e+00	0	58	0	109051904	49	4594
2026-01-23 19:25:07.14	223.84	16.46	-38.8	-41.1	20.6	0.00e+00	0	58	0	110100480	49	4629
2026-01-23 19:25:08.15	223.58	16.59	-38.8	-41.2	20.6	0.00e+00	0	58	0	111149056	49	4666
2026-01-23 19:25:09.16	223.33	16.71	-38.8	-41.1	20.7	0.00e+00	0	58	0	112197632	49	4613
2026-01-23 19:25:10.17	223.07	16.84	-38.6	-40.9	20.8	0.00e+00	0	58	0	113246208	49	4501
2026-01-23 19:25:11.18	222.81	16.97	-38.6	-40.9	20.8	0.00e+00	0	59	0	114294784	48	4788
2026-01-23 19:25:12.19	222.55	17.10	-38.4	-40.7	21.0	0.00e+00	0	58	0	115867648	48	4703
2026-01-23 19:25:13.20	222.29	17.22	-38.4	-40.6	21.2	0.00e+00	0	58	0	116916224	48	4613
2026-01-23 19:25:14.21	222.02	17.35	-38.5	-40.7	21.0	0.00e+00	0	58	0	117964800	48	4683
2026-01-23 19:25:15.22	221.75	17.48	-38.5	-40.7	21.0	0.00e+00	0	58	0	119013376	48	4703
2026-01-23 19:25:16.23	221.47	17.61	-38.4	-40.6	21.2	0.00e+00	0	58	0	120061952	48	4617
2026-01-23 19:25:17.23	221.20	17.74	-38.6	-40.8	21.0	0.00e+00	0	58	0	121110528	48	4746
2026-01-23 19:25:18.24	220.92	17.87	-38.6	-40.9	20.9	0.00e+00	0	58	0	122683392	48	4773
2026-01-23 19:25:19.25	220.64	18.00	-38.6	-40.9	20.9	0.00e+00	0	58	0	123731968	48	4761
2026-01-23 19:25:20.26	220.35	18.13	-38.4	-40.5	21.3	0.00e+00	0	59	0	124780544	48	4580
2026-01-23 19:25:21.27	220.06	18.26	-38.3	-40.5	21.3	0.00e+00	0	59	0	125829120	48	4559
2026-01-23 19:25:22.28	219.77	18.40	-38.2	-40.3	21.5	0.00e+00	0	58	0	126877696	48	4482
2026-01-23 19:25:23.29	219.47	18.53	-38.0	-40.1	21.7	0.00e+00	0	59	0	127926272	48	4375
2026-01-23 19:25:24.30	219.18	18.66	-38.1	-40.2	21.6	0.00e+00	0	59	0	129499136	48	4428
2026-01-23 19:25:25.31	218.87	18.79	-38.1	-40.2	21.6	0.00e+00	0	59	0	130547712	48	4397
2026-01-23 19:25:26.32	218.57	18.93	-38.2	-40.3	21.4	0.00e+00	0	59	0	131596288	48	4493
2026-01-23 19:25:27.33	218.26	19.06	-38.4	-40.6	21.2	0.00e+00	0	59	0	132644864	48	4621
2026-01-23 19:25:28.34	217.95	19.20	-38.5	-40.7	21.1	0.00e+00	0	59	0	133693440	48	4676
2026-01-23 19:25:29.35	217.64	19.33	-38.5	-40.7	21.0	0.00e+00	0	59	0	134742016	48	4703
2026-01-23 19:25:30.36	217.32	19.46	-38.5	-40.7	21.1	0.00e+00	0	59	0	136314880	48	4670
2026-01-23 19:25:31.37	217.00	19.60	-38.5	-40.7	21.1	0.00e+00	0	59	0	137363456	48	4679
2026-01-23 19:25:32.38	216.67	19.73	-38.5	-40.8	21.1	0.00e+00	0	59	0	138412032	48	4709
2026-01-23 19:25:33.39	216.34	19.87	-38.4	-40.6	21.2	0.00e+00	0	59	0	139460608	48	4633
2026-01-23 19:25:34.39	216.01	20.00	-38.1	-40.1	21.7	0.00e+00	0	59	0	140509184	48	4381
2026-01-23 19:25:35.40	215.68	20.14	-37.8	-39.9	21.9	0.00e+00	0	59	0	141557760	47	4500
2026-01-23 19:25:36.41	215.34	20.27	-37.7	-39.7	22.0	0.00e+00	0	59	0	143130624	47	4435
2026-01-23 19:25:37.42	214.99	20.41	-37.7	-39.7	22.0	0.00e+00	0	59	0	144179200	47	4440
2026-01-23 19:25:38.43	214.65	20.54	-37.8	-39.8	21.9	0.00e+00	0	59	0	145227776	47	4488
2026-01-23 19:25:39.44	214.30	20.68	-37.9	-40.0	21.8	0.00e+00	0	59	0	146276352	47	4578
2026-01-23 19:25:40.45	213.94	20.81	-38.1	-40.2	21.6	0.00e+00	0	59	0	147324928	47	4667
2026-01-23 19:25:41.46	213.59	20.95	-38.2	-40.4	21.4	0.00e+00	0	59	0	148373504	47	4782
2026-01-23 19:25:42.47	213.22	21.09	-38.1	-40.3	21.5	0.00e+00	0	59	0	149946368	47	4714
2026-01-23 19:25:43.48	212.86	21.22	-38.2	-40.3	21.5	0.00e+00	0	59	0	150994944	47	4737
2026-01-23 19:25:44.49	212.49	21.36	-38.2	-40.4	21.5	0.00e+00	0	59	0	152043520	47	4760
2026-01-23 19:25:45.50	212.12	21.49	-37.8	-39.8	22.0	0.00e+00	0	59	0	153092096	47	4474
2026-01-23 19:25:46.51	211.74	21.63	-37.6	-39.6	22.2	0.00e+00	0	59	0	154140672	47	4366
2026-01-23 19:25:47.52	211.36	21.76	-37.7	-39.7	22.1	0.00e+00	0	59	0	155189248	47	4423
2026-01-23 19:25:48.53	210.97	21.90	-37.3	-39.3	22.5	0.00e+00	0	59	0	156762112	46	4449
2026-01-23 19:25:49.54	210.58	22.03	-37.2	-39.1	22.6	0.00e+00	0	59	0	157810688	46	4375
2026-01-23 19:25:50.55	210.19	22.17	-37.4	-39.3	22.5	0.00e+00	0	59	0	158859264	46	4468
2026-01-23 19:25:51.56	209.79	22.30	-37.3	-39.3	22.5	0.00e+00	0	59	0	159907840	46	4456
2026-01-23 19:25:52.57	209.39	22.44	-37.5	-39.4	22.4	0.00e+00	0	59	0	160956416	46	4531
2026-01-23 19:25:53.58	208.99	22.57	-37.4	-39.4	22.3	0.00e+00	0	59	0	162004992	46	4518
2026-01-23 19:25:54.59	208.58	22.70	-37.5	-39.5	22.1	0.00e+00	0	59	0	163577856	46	4555
2026-01-23 19:25:55.60	208.16	22.83	-37.5	-39.5	22.1	0.00e+00	0	59	0	164626432	46	4576
2026-01-23 19:25:56.61	207.74	22.97	-37.5	-39.5	22.2	0.00e+00	0	59	0	165675008	46	4566
2026-01-23 19:25:57.62	207.32	23.10	-37.3	-39.2	22.5	0.00e+00	0	59	0	166723584	46	4437
2026-01-23 19:25:58.63	206.90	23.23	-37.1	-39.0	22.7	0.00e+00	0	59	0	167772160	46	4325
2026-01-23 19:25:59.64	206.47	23.36	-37.3	-39.2	22.5	0.00e+00	0	59	0	168820736	46	4423
2026-01-23 19:26:00.64	206.04	23.49	-37.2	-39.1	22.5	0.00e+00	0	59	0	170393600	46	4384
2026-01-23 19:26:01.65	205.60	23.62	-37.3	-39.2	22.6	0.00e+00	0	59	0	171442176	46	4415
2026-01-23 19:26:02.66	205.15	23.75	-37.3	-39.2	22.6	0.00e+00	0	59	0	172490752	46	4393
2026-01-23 19:26:03.67	204.71	23.87	-37.3	-39.2	22.6	0.00e+00	0	59	0	173539328	46	4395
2026-01-23 19:26:04.68	204.25	24.00	-37.4	-39.3	22.3	0.00e+00	0	59	0	174587904	46	4471
2026-01-23 19:26:05.69	203.80	24.13	-37.2	-39.1	22.4	0.00e+00	0	59	0	175636480	46	4347
2026-01-23 19:26:06.70	203.34	24.25	-37.2	-39.1	22.5	0.00e+00	0	59	0	177209344	46	4379
2026-01-23 19:26:07.71	202.87	24.37	-37.2	-39.1	22.7	0.00e+00	0	59	0	178257920	46	4364
2026-01-23 19:26:08.72	202.40	24.50	-37.3	-39.2	22.6	0.00e+00	0	59	0	179306496	46	4412
2026-01-23 19:26:09.73	201.93	24.62	-37.0	-38.9	22.8	0.00e+00	0	59	0	180355072	46	4260
2026-01-23 19:26:10.74	201.45	24.74	-37.0	-38.9	22.8	0.00e+00	0	59	0	181403648	45	4500
2026-01-23 19:26:11.75	200.97	24.86	-36.9	-38.8	22.8	0.00e+00	0	59	0	182452224	45	4465
2026-01-23 19:26:12.76	200.49	24.98	-36.8	-38.7	22.7	0.00e+00	0	59	0	184025088	45	4395
2026-01-23 19:26:13.77	200.00	25.09	-36.8	-38.6	22.4	0.00e+00	0	59	0	185073664	45	4386
2026-01-23 19:26:14.78	199.50	25.21	-36.8	-38.6	22.1	0.00e+00	0	59	0	186122240	45	4389
2026-01-23 19:26:15.79	199.00	25.32	-36.8	-38.6	22.3	0.00e+00	0	59	0	187170816	45	4390
2026-01-23 19:26:16.80	198.50	25.44	-36.7	-38.5	22.8	0.00e+00	0	59	0	188219392	45	4296
2026-01-23 19:26:17.80	198.00	25.55	-36.7	-38.5	23.1	0.00e+00	0	59	0	189267968	45	4312
2026-01-23 19:26:18.81	197.49	25.66	-36.7	-38.6	23.1	0.00e+00	0	59	0	190840832	45	4342
2026-01-23 19:26:19.82	196.97	25.76	-36.5	-38.3	23.0	0.00e+00	0	59	0	191889408	45	4235
2026-01-23 19:26:20.83	196.46	25.87	-36.6	-38.3	23.3	0.00e+00	0	59	0	192937984	45	4231
2026-01-23 19:26:21.84	195.93	25.98	-36.5	-38.3	23.5	0.00e+00	0	59	0	193986560	45	4211
2026-01-23 19:26:22.85	195.41	26.08	-36.4	-38.2	23.6	0.00e+00	0	59	0	195035136	44	4408
2026-01-23 19:26:23.86	194.88	26.18	-36.6	-38.3	23.4	0.00e+00	0	59	0	196083712	44	4476
2026-01-23 19:26:24.87	194.34	26.28	-36.5	-38.3	23.5	0.00e+00	0	59	0	197656576	44	4444
2026-01-23 19:26:25.88	193.80	26.38	-36.6	-38.3	23.4	0.00e+00	0	59	0	198705152	44	4478
2026-01-23 19:26:26.89	193.26	26.47	-36.5	-38.3	23.4	0.00e+00	0	59	0	199753728	44	4455
2026-01-23 19:26:27.90	192.71	26.56	-36.5	-38.2	23.5	0.00e+00	0	59	0	200802304	44	4441
2026-01-23 19:26:28.91	192.17	26.65	-36.4	-38.2	23.5	0.00e+00	0	59	0	201850880	44	4416
2026-01-23 19:26:29.92	191.61	26.74	-36.4	-38.2	23.5	0.00e+00	0	59	0	202899456	44	4408
2026-01-23 19:26:30.93	191.06	26.83	-36.5	-38.3	23.4	0.00e+00	0	59	0	204472320	44	4466
2026-01-23 19:26:31.94	190.50	26.91	-36.4	-38.1	23.6	0.00e+00	0	59	0	205520896	44	4382
2026-01-23 19:26:32.95	189.93	27.00	-36.4	-38.1	23.6	0.00e+00	0	59	0	206569472	44	4372
2026-01-23 19:26:33.96	189.37	27.07	-36.3	-38.0	23.7	0.00e+00	0	59	0	207618048	44	4308
2026-01-23 19:26:34.97	188.80	27.15	-35.7	-37.4	24.1	0.00e+00	0	59	0	208666624	43	4263
2026-01-23 19:26:35.98	188.22	27.23	-36.0	-37.7	23.7	0.00e+00	0	59	0	209715200	43	4419
2026-01-23 19:26:36.99	187.65	27.30	-35.9	-37.6	24.0	0.00e+00	0	59	0	211288064	43	4346
2026-01-23 19:26:38.00	187.07	27.37	-35.9	-37.7	23.9	0.00e+00	0	59	0	212336640	43	4396
2026-01-23 19:26:39.01	186.49	27.43	-35.7	-37.4	24.1	0.00e+00	0	59	0	213385216	43	4273
2026-01-23 19:26:40.02	185.91	27.50	-35.8	-37.4	24.1	0.00e+00	0	59	0	214433792	43	4286
2026-01-23 19:26:41.03	185.32	27.56	-35.8	-37.5	24.1	0.00e+00	0	59	0	215482368	43	4303
2026-01-23 19:26:42.04	184.73	27.62	-36.0	-37.8	23.8	0.00e+00	0	59	0	216530944	43	4443
2026-01-23 19:26:43.05	184.14	27.67	-36.2	-38.0	23.5	0.00e+00	0	59	0	218103808	43	4571
2026-01-23 19:26:44.06	183.54	27.72	-36.3	-38.1	23.5	0.00e+00	0	59	0	219152384	43	4617
2026-01-23 19:26:45.07	182.95	27.77	-36.3	-38.1	23.5	0.00e+00	0	59	0	220200960	43	4600
2026-01-23 19:26:46.08	182.35	27.82	-36.2	-38.0	23.6	0.00e+00	0	59	0	221249536	43	4566
2026-01-23 19:26:47.08	181.76	27.86	-36.3	-38.0	23.5	0.00e+00	0	59	0	222298112	43	4586
2026-01-23 19:26:48.09	181.15	27.90	-36.4	-38.2	23.4	0.00e+00	0	60	0	223346688	43	4686
2026-01-23 19:26:49.10	180.55	27.94	-36.6	-38.4	23.3	0.00e+00	0	59	0	224919552	43	4770
2026-01-23 19:26:50.12	179.94	27.97	-36.6	-38.4	23.1	0.00e+00	0	59	0	225968128	43	4805
2026-01-23 19:26:51.12	179.34	28.01	-36.4	-38.2	23.4	0.00e+00	0	59	0	227016704	43	4689
2026-01-23 19:26:52.13	178.73	28.03	-36.4	-38.2	23.4	0.00e+00	0	59	0	228065280	43	4660
2026-01-23 19:26:53.14	178.12	28.06	-36.4	-38.1	23.4	0.00e+00	0	60	0	229113856	43	4638
2026-01-23 19:26:54.15	177.51	28.08	-36.6	-38.4	23.3	0.00e+00	0	59	0	230162432	43	4802
2026-01-23 19:26:55.16	176.90	28.10	-36.7	-38.5	23.2	0.00e+00	0	59	0	231735296	43	4854
2026-01-23 19:26:56.17	176.29	28.11	-37.0	-38.8	23.0	0.00e+00	0	59	0	232783872	44	4735
2026-01-23 19:26:57.18	175.68	28.13	-37.6	-39.5	22.8	0.00e+00	0	59	0	233832448	45	4824
2026-01-23 19:26:58.19	175.07	28.14	-37.3	-39.2	22.8	0.00e+00	0	60	0	234881024	45	4659
2026-01-23 19:26:59.20	174.46	28.14	-37.3	-39.2	22.7	0.00e+00	0	59	0	235929600	45	4674
2026-01-23 19:27:00.21	173.84	28.14	-37.2	-39.0	22.9	0.00e+00	0	59	0	236978176	45	4578
2026-01-23 19:27:01.22	173.23	28.14	-37.3	-39.2	22.6	0.00e+00	0	60	0	238551040	45	4699
2026-01-23 19:27:02.23	172.62	28.14	-37.1	-38.9	23.0	0.00e+00	0	60	0	239599616	45	4521
2026-01-23 19:27:03.24	172.01	28.13	-36.8	-38.6	23.2	0.00e+00	0	60	0	240648192	45	4389
2026-01-23 19:27:04.25	171.39	28.12	-36.9	-38.7	23.2	0.00e+00	0	59	0	241696768	45	4410
2026-01-23 19:27:05.26	170.78	28.11	-36.6	-38.4	23.4	0.00e+00	0	59	0	242745344	45	4278
2026-01-23 19:27:06.27	170.17	28.09	-36.4	-38.2	23.7	0.00e+00	0	60	0	243793920	44	4399
2026-01-23 19:27:07.28	169.56	28.07	-36.6	-38.4	23.5	0.00e+00	0	60	0	245366784	44	4517
2026-01-23 19:27:08.29	168.95	28.05	-36.6	-38.3	23.5	0.00e+00	0	59	0	246415360	44	4491
2026-01-23 19:27:09.30	168.35	28.02	-36.7	-38.4	23.5	0.00e+00	0	59	0	247463936	44	4533
2026-01-23 19:27:10.31	167.74	27.99	-36.6	-38.4	23.6	0.00e+00	0	60	0	248512512	44	4514
2026-01-23 19:27:11.32	167.13	27.96	-36.8	-38.6	23.4	0.00e+00	0	59	0	249561088	44	4629
2026-01-23 19:27:12.33	166.53	27.92	-36.8	-38.6	23.3	0.00e+00	0	59	0	250609664	44	4632
2026-01-23 19:27:13.34	165.93	27.88	-36.8	-38.7	23.3	0.00e+00	0	59	0	252182528	44	4658
2026-01-23 19:27:14.35	165.33	27.84	-36.4	-38.2	23.7	0.00e+00	0	59	0	253231104	44	4420
2026-01-23 19:27:15.36	164.73	27.79	-36.1	-37.8	24.1	0.00e+00	0	60	0	254279680	44	4216
2026-01-23 19:27:16.36	164.14	27.75	-36.3	-38.0	23.9	0.00e+00	0	59	0	255328256	44	4321
2026-01-23 19:27:17.37	163.54	27.70	-36.6	-38.4	23.6	0.00e+00	0	59	0	256376832	44	4529
2026-01-23 19:27:18.38	162.95	27.64	-36.9	-38.8	23.2	0.00e+00	0	59	0	257425408	44	4709
2026-01-23 19:27:19.39	162.36	27.58	-36.8	-38.6	23.4	0.00e+00	0	60	0	258998272	44	4625
2026-01-23 19:27:20.40	161.77	27.52	-36.7	-38.5	23.5	0.00e+00	0	59	0	260046848	44	4552
2026-01-23 19:27:21.41	161.19	27.46	-36.2	-37.9	24.0	0.00e+00	0	60	0	261095424	44	4264
2026-01-23 19:27:22.42	160.61	27.40	-36.1	-37.8	24.1	0.00e+00	0	59	0	262144000	44	4211
2026-01-23 19:27:23.43	160.03	27.33	-36.1	-37.8	24.1	0.00e+00	0	60	0	263192576	44	4228
2026-01-23 19:27:24.44	159.45	27.26	-36.3	-38.1	23.9	0.00e+00	0	59	0	264241152	44	4365
2026-01-23 19:27:25.44	158.88	27.19	-36.6	-38.4	23.5	0.00e+00	0	60	0	265814016	44	4541
2026-01-23 19:27:26.45	158.31	27.11	-36.8	-38.6	23.4	0.00e+00	0	60	0	266862592	44	4636
2026-01-23 19:27:27.46	157.74	27.03	-36.6	-38.4	23.5	0.00e+00	0	60	0	267911168	44	4534
2026-01-23 19:27:28.47	157.18	26.95	-36.5	-38.3	23.7	0.00e+00	0	60	0	268959744	44	4475
2026-01-23 19:27:29.48	156.62	26.87	-36.6	-38.4	23.6	0.00e+00	0	59	0	270008320	44	4514
2026-01-23 19:27:30.49	156.06	26.78	-36.6	-38.4	23.6	0.00e+00	0	60	0	271056896	44	4500
2026-01-23 19:27:31.50	155.51	26.70	-36.7	-38.5	23.5	0.00e+00	0	60	0	272629760	44	4593
2026-01-23 19:27:32.51	154.96	26.61	-36.9	-38.7	23.3	0.00e+00	0	59	0	273678336	44	4689
2026-01-23 19:27:33.52	154.41	26.52	-36.6	-38.4	23.6	0.00e+00	0	60	0	274726912	44	4524
2026-01-23 19:27:34.53	153.86	26.42	-36.5	-38.3	23.7	0.00e+00	0	60	0	275775488	44	4472
2026-01-23 19:27:35.54	153.33	26.33	-36.4	-38.2	23.7	0.00e+00	0	60	0	276824064	44	4429
2026-01-23 19:27:36.55	152.79	26.23	-36.5	-38.3	23.8	0.00e+00	0	60	0	277872640	44	4458
2026-01-23 19:27:37.56	152.26	26.13	-36.9	-38.7	23.4	0.00e+00	0	60	0	278921216	44	4688
2026-01-23 19:27:38.57	151.73	26.03	-37.4	-39.3	22.8	0.00e+00	0	60	0	280494080	45	4735
2026-01-23 19:27:39.58	151.20	25.92	-37.7	-39.7	22.4	0.00e+00	0	60	0	281542656	45	4970
2026-01-23 19:27:40.59	150.68	25.82	-37.6	-39.6	22.5	0.00e+00	0	60	0	282591232	46	4639
2026-01-23 19:27:41.60	150.17	25.71	-37.5	-39.5	22.6	0.00e+00	0	59	0	283639808	46	4572
2026-01-23 19:27:42.61	149.66	25.60	-37.4	-39.3	22.9	0.00e+00	0	59	0	284688384	46	4450
2026-01-23 19:27:43.61	149.15	25.49	-37.4	-39.4	22.8	0.00e+00	0	60	0	285736960	46	4496
2026-01-23 19:27:44.62	148.65	25.38	-37.8	-39.8	22.3	0.00e+00	0	60	0	287309824	46	4742
2026-01-23 19:27:45.63	148.15	25.27	-37.6	-39.7	22.5	0.00e+00	0	60	0	288358400	46	4654
2026-01-23 19:27:46.64	147.65	25.15	-37.7	-39.7	22.5	0.00e+00	0	60	0	289406976	46	4660
2026-01-23 19:27:47.65	147.16	25.03	-37.8	-39.8	22.3	0.00e+00	0	60	0	290455552	46	4752
2026-01-23 19:27:48.66	146.67	24.92	-37.6	-39.6	22.5	0.00e+00	0	60	0	291504128	46	4640
2026-01-23 19:27:49.67	146.19	24.80	-37.3	-39.3	22.8	0.00e+00	0	60	0	293076992	46	4461
2026-01-23 19:27:50.68	145.71	24.68	-37.2	-39.1	23.0	0.00e+00	0	60	0	294125568	46	4369
2026-01-23 19:27:51.69	145.24	24.56	-37.3	-39.3	22.8	0.00e+00	0	60	0	295174144	46	4447
2026-01-23 19:27:52.70	144.77	24.43	-37.3	-39.3	22.8	0.00e+00	0	60	0	296222720	46	4458
2026-01-23 19:27:53.71	144.30	24.31	-37.5	-39.5	22.6	0.00e+00	0	60	0	297271296	46	4588
2026-01-23 19:27:54.72	143.84	24.19	-37.6	-39.7	22.5	0.00e+00	0	60	0	298319872	46	4655
2026-01-23 19:27:55.73	143.38	24.06	-37.6	-39.6	22.5	0.00e+00	0	60	0	299892736	46	4603
2026-01-23 19:27:56.74	142.93	23.94	-37.5	-39.5	22.6	0.00e+00	0	60	0	300941312	46	4579
2026-01-23 19:27:57.75	142.48	23.81	-37.5	-39.5	22.6	0.00e+00	0	60	0	301989888	46	4552
2026-01-23 19:27:58.76	142.03	23.68	-37.5	-39.4	22.6	0.00e+00	0	60	0	303038464	46	4533
2026-01-23 19:27:59.77	141.59	23.55	-37.4	-39.3	22.8	0.00e+00	0	60	0	304087040	46	4478
2026-01-23 19:28:00.77	141.16	23.42	-37.2	-39.1	23.0	0.00e+00	0	60	0	305135616	46	4347
2026-01-23 19:28:01.78	140.73	23.29	-37.1	-39.0	23.1	0.00e+00	0	60	0	306708480	46	4299
2026-01-23 19:28:02.79	140.30	23.16	-37.2	-39.1	22.9	0.00e+00	0	60	0	307757056	46	4362
2026-01-23 19:28:03.80	139.88	23.03	-37.4	-39.3	22.7	0.00e+00	0	60	0	308805632	46	4490
2026-01-23 19:28:04.81	139.46	22.90	-37.7	-39.7	22.3	0.00e+00	0	60	0	309854208	46	4693
2026-01-23 19:28:05.82	139.04	22.77	-37.8	-39.9	22.2	0.00e+00	0	60	0	310902784	46	4786
2026-01-23 19:28:06.83	138.63	22.64	-37.8	-39.9	22.1	0.00e+00	0	60	0	311951360	46	4796
2026-01-23 19:28:07.84	138.23	22.50	-37.6	-39.7	22.3	0.00e+00	0	60	0	313524224	46	4655
2026-01-23 19:28:08.85	137.82	22.37	-37.5	-39.5	22.6	0.00e+00	0	60	0	314572800	46	4547
2026-01-23 19:28:09.86	137.42	22.23	-37.4	-39.4	22.7	0.00e+00	0	60	0	315621376	46	4511
2026-01-23 19:28:10.88	137.03	22.10	-37.6	-39.7	22.4	0.00e+00	0	60	0	316669952	46	4656
2026-01-23 19:28:11.89	136.63	21.97	-37.8	-39.9	22.1	0.00e+00	0	60	0	317718528	46	4762
2026-01-23 19:28:12.89	136.25	21.83	-37.8	-39.8	22.2	0.00e+00	0	60	0	318767104	46	4756
2026-01-23 19:28:13.90	135.87	21.70	-37.8	-39.9	22.1	0.00e+00	0	60	0	319815680	46	4779
2026-01-23 19:28:14.92	135.49	21.56	-37.9	-40.1	22.0	0.00e+00	0	60	0	321388544	46	4876
2026-01-23 19:28:15.93	135.11	21.43	-37.8	-39.9	22.1	0.00e+00	0	60	0	322437120	46	4769
2026-01-23 19:28:16.93	134.75	21.29	-38.0	-40.1	22.0	0.00e+00	0	60	0	323485696	46	4881
2026-01-23 19:28:17.94	134.38	21.16	-38.0	-40.2	21.8	0.00e+00	0	60	0	324534272	46	4944
2026-01-23 19:28:18.95	134.01	21.02	-38.0	-40.2	21.8	0.00e+00	0	60	0	325582848	46	4928
2026-01-23 19:28:19.96	133.66	20.88	-37.9	-40.0	21.9	0.00e+00	0	60	0	326631424	46	4860
2026-01-23 19:28:20.97	133.30	20.75	-37.8	-39.9	22.1	0.00e+00	0	60	0	328204288	46	4786
2026-01-23 19:28:21.98	132.95	20.61	-37.9	-40.0	22.0	0.00e+00	0	60	0	329252864	46	4837
2026-01-23 19:28:22.99	132.60	20.48	-38.0	-40.1	21.9	0.00e+00	0	60	0	330301440	46	4890
2026-01-23 19:28:24.00	132.26	20.34	-38.1	-40.3	21.7	0.00e+00	0	60	0	331350016	46	5001
2026-01-23 19:28:25.01	131.92	20.21	-38.3	-40.6	21.3	0.00e+00	0	60	0	332398592	47	4909
2026-01-23 19:28:26.02	131.58	20.07	-38.3	-40.5	21.4	0.00e+00	0	60	0	333971456	47	4841
2026-01-23 19:28:27.03	131.24	19.94	-38.3	-40.5	21.5	0.00e+00	0	60	0	335020032	47	4822
2026-01-23 19:28:28.04	130.92	19.80	-38.1	-40.2	21.7	0.00e+00	0	60	0	336068608	47	4694
2026-01-23 19:28:29.05	130.59	19.67	-38.2	-40.3	21.7	0.00e+00	0	60	0	337117184	47	4751
2026-01-23 19:28:30.06	130.27	19.53	-38.2	-40.5	21.4	0.00e+00	0	60	0	338165760	47	4821
2026-01-23 19:28:31.07	129.95	19.40	-38.1	-40.3	20.5	0.00e+00	0	60	0	339214336	46	5007
2026-01-23 19:28:32.08	129.63	19.27	-38.0	-40.2	21.5	1.10e-06	0	60	0	340787200	46	4960
2026-01-23 19:28:33.09	129.32	19.13	-37.9	-40.2	20.7	1.10e-06	0	60	0	341835776	46	4936
2026-01-23 19:28:34.10	129.01	19.00	-36.9	-40.2	20.6	3.40e-06	0	60	0	342884352	45	5259
2026-01-23 19:28:35.10	128.71	18.87	-38.0	-40.2	21.4	1.10e-06	0	60	0	343932928	46	4975
2026-01-23 19:28:36.11	128.40	18.73	-38.1	-40.4	21.3	1.10e-06	0	60	0	344981504	46	5054
2026-01-23 19:28:37.12	128.10	18.60	-38.3	-40.6	21.1	0.00e+00	0	60	0	346030080	47	4903
2026-01-23 19:28:38.13	127.81	18.47	-38.3	-40.6	21.0	0.00e+00	0	60	0	347602944	47	4917
2026-01-23 19:28:39.14	127.51	18.34	-37.1	-40.7	20.5	0.00e+00	0	60	0	348651520	47	4956
2026-01-23 19:28:40.15	127.22	18.20	-38.3	-40.6	18.9	0.00e+00	0	60	0	349700096	47	4898
2026-01-23 19:28:41.16	126.94	18.07	-38.3	-40.6	21.2	9.10e-06	0	60	0	350748672	47	4873
2026-01-23 19:28:42.17	126.65	17.94	-38.2	-40.5	21.3	0.00e+00	0	60	0	351797248	47	4827
2026-01-23 19:28:43.18	126.37	17.81	-38.4	-40.7	21.0	0.00e+00	0	60	0	352845824	47	4976
2026-01-23 19:28:44.19	126.09	17.68	-38.5	-40.8	20.2	0.00e+00	0	60	0	354418688	47	5023
2026-01-23 19:28:45.20	125.82	17.55	-38.3	-41.0	20.7	0.00e+00	0	60	0	355467264	47	5107
2026-01-23 19:28:46.21	125.55	17.42	-38.5	-40.9	20.7	0.00e+00	0	60	0	356515840	47	5095
2026-01-23 19:28:47.22	125.28	17.29	-38.7	-41.1	20.5	0.00e+00	0	60	0	357564416	47	5194
2026-01-23 19:28:48.23	125.01	17.17	-38.8	-41.2	20.5	0.00e+00	0	60	0	358612992	48	4960
2026-01-23 19:28:49.24	124.75	17.04	-38.7	-41.4	20.1	1.10e-06	0	60	0	359661568	48	5054
2026-01-23 19:28:50.25	124.49	16.91	-38.9	-41.4	20.1	1.10e-06	0	60	0	360710144	48	5066
2026-01-23 19:28:51.26	124.23	16.78	-38.9	-41.4	20.0	4.50e-06	0	60	0	362283008	48	5065
2026-01-23 19:28:52.26	123.98	16.66	-38.5	-41.3	19.7	0.00e+00	0	60	0	363331584	47	5306
2026-01-23 19:28:53.27	123.72	16.53	-38.6	-41.1	20.0	0.00e+00	0	60	0	364380160	47	5175
2026-01-23 19:28:54.28	123.47	16.41	-38.1	-41.2	20.1	0.00e+00	0	60	0	365428736	47	5259
2026-01-23 19:28:55.29	123.23	16.28	-38.7	-41.2	20.2	9.10e-06	0	60	0	366477312	47	5243
2026-01-23 19:28:56.30	122.98	16.16	-38.8	-41.3	20.2	9.10e-06	0	60	0	367525888	48	4989
2026-01-23 19:28:57.31	122.74	16.03	-38.7	-41.6	19.7	4.50e-06	0	60	0	369098752	48	5165
2026-01-23 19:28:58.32	122.50	15.91	-38.8	-41.8	19.2	1.10e-06	0	60	0	370147328	47	5605
2026-01-23 19:28:59.33	122.26	15.78	-35.1	-41.4	17.8	1.10e-06	0	60	0	371195904	46	5695
2026-01-23 19:29:00.34	122.03	15.66	-38.8	-41.6	17.5	1.71e-05	0	60	0	372244480	47	5468
2026-01-23 19:29:01.35	121.80	15.54	-37.7	-41.9	17.5	1.11e-04	0	60	0	373293056	47	5673
2026-01-23 19:29:02.36	121.57	15.42	-37.9	-41.4	18.1	6.03e-04	0	60	0	374341632	45	6055
2026-01-23 19:29:03.37	121.34	15.30	-36.6	-41.6	17.4	6.03e-04	0	60	0	375914496	46	5811
2026-01-23 19:29:04.38	121.12	15.17	-34.9	-41.6	15.3	9.09e-04	0	60	0	376963072	45	6192
2026-01-23 19:29:05.39	120.89	15.05	-36.5	-41.7	16.9	1.30e-03	0	60	0	378011648	46	5916
2026-01-23 19:29:06.40	120.67	14.93	-35.6	-41.3	16.9	1.30e-03	0	60	0	379060224	43	6705
2026-01-23 19:29:07.41	120.46	14.82	-37.8	-42.6	14.2	2.64e-03	0	60	0	380108800	45	6883
2026-01-23 19:29:08.42	120.24	14.70	-37.0	-41.6	15.6	5.82e-03	0	60	0	381681664	41	7732
2026-01-23 19:29:09.43	120.03	14.58	-37.3	-42.1	13.4	5.82e-03	0	60	0	382730240	41	8204
2026-01-23 19:29:10.44	119.81	14.46	-35.0	-42.6	13.3	5.97e-03	0	60	0	383778816	42	8190
2026-01-23 19:29:11.44	119.61	14.34	-35.6	-42.4	13.9	1.92e-02	0	60	0	384827392	43	7592
2026-01-23 19:29:12.46	119.40	14.23	-37.5	-42.6	14.6	1.92e-02	0	60	0	385875968	45	6958
2026-01-23 19:29:13.47	119.19	14.11	-35.4	-42.3	13.3	1.98e-02	0	60	0	386924544	40	8915
2026-01-23 19:29:14.47	118.99	14.00	-29.6	-41.3	14.5	7.50e-03	0	60	0	388497408	39	8389
2026-01-23 19:29:15.48	118.79	13.88	-31.3	-41.4	14.5	9.16e-03	0	60	0	389545984	40	8020
2026-01-23 19:29:16.49	118.59	13.77	-33.1	-41.8	13.0	9.16e-03	0	60	0	390594560	38	9434
2026-01-23 19:29:17.50	118.39	13.65	-26.6	-40.8	12.7	2.58e-02	0	60	0	391643136	25	17749
2026-01-23 19:29:18.51	118.20	13.54	-35.1	-42.5	15.7	1.68e-02	0	60	0	392691712	41	8568
2026-01-23 19:29:19.52	118.01	13.42	-36.8	-43.0	13.7	1.68e-02	0	60	0	393740288	40	9705
2026-01-23 19:29:20.53	117.82	13.31	-35.9	-42.9	14.3	6.00e-03	0	60	0	394788864	41	9039
2026-01-23 19:29:21.54	117.63	13.20	-36.0	-43.2	15.3	1.54e-02	0	60	0	396361728	42	8770
2026-01-23 19:29:22.55	117.44	13.09	-34.2	-42.9	15.3	1.54e-02	0	60	0	397410304	41	9008
2026-01-23 19:29:23.56	117.25	12.98	-31.0	-41.8	14.5	3.11e-02	0	60	0	398458880	35	11239
2026-01-23 19:29:24.57	117.07	12.87	-22.4	-41.0	11.3	5.61e-03	0	60	0	399507456	27	16146
2026-01-23 19:29:25.58	116.89	12.76	-32.0	-42.4	15.8	5.61e-03	0	60	0	400556032	40	8967
2026-01-23 19:29:26.59	116.71	12.65	-35.5	-42.7	14.7	1.19e-02	0	60	0	401604608	41	8795
2026-01-23 19:29:27.60	116.53	12.54	-35.8	-43.0	14.0	3.97e-03	0	60	0	403177472	43	8125
2026-01-23 19:29:28.61	116.35	12.43	-37.0	-42.7	15.2	4.31e-03	0	60	0	404226048	43	7822
2026-01-23 19:29:29.62	116.18	12.32	-35.1	-43.3	14.3	4.31e-03	0	60	0	405274624	41	9496
2026-01-23 19:29:30.63	116.01	12.21	-36.5	-43.3	10.8	6.67e-03	0	60	0	406323200	41	9448
2026-01-23 19:29:31.64	115.83	12.11	-32.8	-42.6	14.3	1.34e-02	0	60	0	407371776	41	8704
2026-01-23 19:29:32.65	115.66	12.00	-35.5	-43.0	14.2	1.34e-02	0	60	0	408420352	40	9673
2026-01-23 19:29:33.66	115.50	11.89	-33.8	-43.2	12.3	1.07e-02	0	60	0	409993216	42	8832
2026-01-23 19:29:34.66	115.33	11.79	-35.5	-43.1	11.4	1.93e-02	0	60	0	411041792	38	10986
2026-01-23 19:29:35.67	115.17	11.68	-35.6	-43.4	11.6	1.93e-02	0	60	0	412090368	41	9546
2026-01-23 19:29:36.68	115.00	11.58	-32.9	-42.3	13.1	4.01e-02	0	61	0	413138944	41	8440
2026-01-23 19:29:37.69	114.84	11.48	-33.5	-43.1	11.7	4.57e-02	0	60	0	414187520	38	10904
2026-01-23 19:29:38.71	114.68	11.37	-31.9	-41.8	10.6	4.57e-02	0	60	0	415236096	33	12647
2026-01-23 19:29:39.71	114.52	11.27	-31.1	-43.4	9.7	5.94e-02	0	60	0	416284672	23	26955
2026-01-23 19:29:40.72	114.36	11.17	-29.3	-42.2	9.7	1.17e-01	0	60	0	417857536	35	11698
2026-01-23 19:29:41.73	114.21	11.06	-33.9	-41.8	12.0	1.10e-01	0	60	0	418906112	36	10548
2026-01-23 19:29:42.74	114.05	10.96	-33.0	-43.5	10.1	1.10e-01	0	60	0	419954688	38	11484
2026-01-23 19:29:43.75	113.90	10.86	-30.8	-44.4	8.1	9.70e-02	0	60	0	421003264	32	17964
2026-01-23 19:29:44.76	113.75	10.76	-32.1	-44.4	8.1	3.01e-01	0	60	0	421527552	33	17011
2026-01-23 19:29:45.77	113.60	10.66	-30.8	-45.5	7.7	3.01e-01	0	60	0	422576128	34	18215
2026-01-23 19:29:46.78	113.45	10.56	-31.1	-45.4	7.1	3.46e-01	0	60	0	423624704	32	20250
2026-01-23 19:29:47.79	113.30	10.46	-31.2	-45.4	7.7	3.92e-01	0	60	0	424148992	34	17900
2026-01-23 19:29:48.80	113.16	10.36	-29.7	-43.0	9.0	3.92e-01	0	60	0	425197568	30	17134
2026-01-23 19:29:49.81	113.01	10.26	-31.7	-42.3	9.6	3.44e-01	0	60	0	426246144	32	14185
2026-01-23 19:29:50.82	112.87	10.17	-31.3	-43.5	7.7	2.24e-01	0	60	0	427294720	31	17153
2026-01-23 19:29:51.83	112.73	10.07	-30.4	-42.3	9.7	2.97e-01	0	60	0	428343296	30	15924
2026-01-23 19:29:52.83	112.59	9.97	-29.3	-43.1	8.2	2.97e-01	0	60	0	429391872	33	14690
2026-01-23 19:29:53.84	112.45	9.88	-27.9	-42.9	8.2	2.71e-01	0	60	0	429916160	31	15986
2026-01-23 19:29:54.85	112.31	9.78	-32.2	-43.0	9.7	2.85e-01	0	60	0	430964736	34	13576
2026-01-23 19:29:55.86	112.17	9.68	-28.9	-42.9	8.4	2.85e-01	0	60	0	432013312	32	15135
2026-01-23 19:29:56.87	112.04	9.59	-31.1	-43.1	9.2	2.42e-01	0	60	0	433061888	33	14605
2026-01-23 19:29:57.88	111.90	9.49	-30.0	-42.6	9.6	2.73e-01	0	60	0	434110464	34	13059
2026-01-23 19:29:58.89	111.77	9.40	-30.4	-42.5	8.6	2.73e-01	0	60	0	435159040	30	16247
2026-01-23 19:29:59.90	111.64	9.30	-30.5	-42.7	8.7	2.77e-01	0	60	0	435683328	33	14018
2026-01-23 19:30:00.89	111.51	9.21	-32.8	-44.5	8.6	2.69e-01	0	60	0	436731904	37	13644
2026-01-23 19:30:01.90	111.38	9.12	-32.9	-45.0	9.6	2.69e-01	0	60	0	437780480	38	13612
2026-01-23 19:30:02.91	111.25	9.03	-31.3	-43.2	8.7	1.84e-01	0	60	0	438829056	30	17678
2026-01-23 19:30:03.92	111.12	8.93	-30.9	-44.0	8.3	2.22e-01	0	60	0	439877632	33	16219
2026-01-23 19:30:04.93	111.00	8.84	-32.7	-44.4	10.0	2.22e-01	0	60	0	440926208	38	12745
2026-01-23 19:30:05.94	110.87	8.75	-34.3	-44.3	9.6	1.71e-01	0	60	0	442499072	36	14093
2026-01-23 19:30:06.95	110.75	8.66	-34.1	-44.5	9.9	1.20e-01	0	60	0	443547648	40	11455
2026-01-23 19:30:07.96	110.62	8.57	-33.7	-44.4	9.9	1.26e-01	0	61	0	444596224	39	12090
2026-01-23 19:30:08.97	110.50	8.48	-35.3	-44.6	10.5	1.26e-01	0	60	0	445644800	40	11672
2026-01-23 19:30:09.97	110.38	8.39	-34.3	-44.5	9.9	1.03e-01	0	60	0	446693376	39	12175
2026-01-23 19:30:10.98	110.26	8.30	-34.7	-44.6	10.1	1.26e-01	0	60	0	447741952	40	11673
2026-01-23 19:30:11.99	110.14	8.21	-35.1	-44.4	10.1	1.26e-01	0	61	0	448790528	37	13511
2026-01-23 19:30:13.00	110.02	8.12	-33.7	-43.4	6.6	1.25e-01	0	60	0	449839104	31	16905
2026-01-23 19:30:14.01	109.91	8.03	-34.0	-44.2	10.2	2.10e-01	0	60	0	450887680	38	12499
2026-01-23 19:30:15.02	109.79	7.95	-40.8	-61.1	3.8	2.10e-01	0	60	104	451936256	55	32588
2026-01-23 19:30:16.03	109.68	7.86	-44.6	-62.6	3.8	3.69e-01	0	60	104	451936256	59	31075
2026-01-23 19:30:17.04	109.56	7.77	-44.9	-63.1	3.8	8.46e-01	0	60	104	451936256	60	30867
2026-01-23 19:30:18.05	109.45	7.68	-45.1	-63.2	3.8	8.46e-01	0	61	104	451936256	60	31444
2026-01-23 19:30:19.07	109.33	7.60	-45.3	-63.5	3.8	8.46e-01	0	60	104	451936256	61	30637
2026-01-23 19:30:20.08	109.22	7.51	-45.4	-63.6	3.8	8.46e-01	0	61	104	451936256	61	31082
2026-01-23 19:30:21.09	109.11	7.42	-45.5	-63.8	3.8	8.46e-01	0	60	104	451936256	61	31731
2026-01-23 19:30:22.10	109.00	7.34	-45.6	-63.9	3.8	8.46e-01	0	61	104	451936256	61	32147
2026-01-23 19:30:23.11	108.90	7.25	-45.7	-64.0	3.8	8.46e-01	0	60	104	451936256	62	30657
2026-01-23 19:30:24.12	108.79	7.17	-45.7	-64.0	3.8	8.45e-01	0	60	104	451936256	62	30650
2026-01-23 19:30:25.13	108.68	7.08	-45.6	-63.9	3.8	8.45e-01	0	60	104	451936256	62	30193
2026-01-23 19:30:26.14	108.57	7.00	-45.5	-63.7	3.8	8.46e-01	0	60	104	451936256	62	29660
2026-01-23 19:30:27.15	108.47	6.92	-45.5	-63.6	3.8	8.46e-01	0	60	104	451936256	62	29328
2026-01-23 19:30:28.16	108.37	6.83	-45.4	-63.6	3.8	8.46e-01	0	60	104	451936256	62	29015
2026-01-23 19:30:29.17	108.26	6.75	-45.4	-63.5	3.8	8.45e-01	0	60	104	451936256	62	28705
2026-01-23 19:30:30.18	108.16	6.67	-45.3	-63.4	3.8	8.46e-01	0	60	104	451936256	62	28639
2026-01-23 19:30:31.19	108.06	6.58	-45.2	-63.3	3.8	8.46e-01	0	60	104	451936256	61	29708
2026-01-23 19:30:32.20	107.96	6.50	-45.2	-63.2	3.8	8.46e-01	0	60	104	451936256	61	29686
2026-01-23 19:30:33.21	107.86	6.42	-45.2	-63.2	3.8	8.45e-01	0	61	104	451936256	61	29634
2026-01-23 19:30:34.22	107.76	6.34	-45.2	-63.3	3.8	8.46e-01	0	60	104	451936256	61	29709
2026-01-23 19:30:35.23	107.66	6.26	-45.2	-63.2	3.8	8.46e-01	0	61	104	451936256	61	29648
2026-01-23 19:30:36.24	107.56	6.18	-45.1	-63.2	3.8	8.46e-01	0	60	104	451936256	61	29617
2026-01-23 19:30:37.25	107.47	6.10	-45.1	-63.2	3.8	8.47e-01	0	61	104	451936256	61	29613
2026-01-23 19:30:38.27	107.37	6.02	-45.1	-63.2	3.8	8.47e-01	0	61	104	451936256	61	29558
2026-01-23 19:30:39.28	107.27	5.94	-45.1	-63.2	3.8	8.46e-01	0	60	104	451936256	61	29549
2026-01-23 19:30:40.29	107.18	5.86	-45.1	-63.2	3.8	8.47e-01	0	61	104	451936256	61	29637
2026-01-23 19:30:41.30	107.08	5.78	-45.1	-63.2	3.8	8.47e-01	0	61	104	451936256	61	29628
2026-01-23 19:30:42.31	106.99	5.70	-45.1	-63.2	3.8	8.47e-01	0	61	104	451936256	61	29595
2026-01-23 19:30:43.32	106.90	5.62	-45.1	-63.2	3.8	8.47e-01	0	60	104	451936256	61	29519
2026-01-23 19:30:44.33	106.81	5.54	-45.1	-63.2	3.8	8.45e-01	0	61	104	451936256	61	29516
2026-01-23 19:30:45.34	106.72	5.47	-45.1	-63.2	3.8	8.45e-01	0	61	104	451936256	61	29563
2026-01-23 19:30:46.35	106.63	5.39	-45.1	-63.2	3.8	8.46e-01	0	61	104	451936256	61	29565
2026-01-23 19:30:47.36	106.54	5.31	-45.1	-63.2	3.8	8.46e-01	0	61	104	451936256	61	29532
2026-01-23 19:30:48.37	106.45	5.23	-45.1	-63.2	3.8	8.46e-01	0	61	104	451936256	61	29500
2026-01-23 19:30:49.38	106.36	5.16	-45.1	-63.2	3.8	8.46e-01	0	61	104	451936256	61	29529
2026-01-23 19:30:50.39	106.27	5.08	-45.1	-63.2	3.8	8.46e-01	0	61	104	451936256	61	29466
2026-01-23 19:30:51.40	106.19	5.00	-45.1	-63.2	3.8	8.46e-01	0	60	104	451936256	61	29491
2026-01-23 19:30:52.41	106.10	4.93	-45.1	-63.2	3.8	8.46e-01	0	61	104	451936256	61	29461
2026-01-23 19:30:53.42	106.01	4.85	-45.1	-63.2	3.8	8.46e-01	0	61	104	451936256	61	29490
2026-01-23 19:30:54.43	105.93	4.78	-45.1	-63.2	3.8	8.46e-01	0	60	104	451936256	61	29453
2026-01-23 19:30:55.44	105.84	4.70	-45.1	-63.2	3.8	8.46e-01	0	61	104	451936256	61	29484
2026-01-23 19:30:56.45	105.76	4.63	-45.1	-63.2	3.8	8.48e-01	0	61	104	451936256	61	29463
2026-01-23 19:30:57.46	105.68	4.55	-45.0	-63.2	3.8	8.46e-01	0	61	104	451936256	61	29459
2026-01-23 19:30:58.47	105.60	4.48	-45.0	-63.2	3.8	8.46e-01	0	61	104	451936256	61	29465
2026-01-23 19:30:59.48	105.51	4.41	-45.1	-63.2	3.8	8.47e-01	0	61	104	451936256	61	29532
2026-01-23 19:31:00.49	105.43	4.33	-45.1	-63.2	3.8	8.46e-01	0	60	104	451936256	61	29437
2026-01-23 19:31:01.50	105.35	4.26	-45.1	-63.2	3.8	8.46e-01	0	61	104	451936256	61	29360
2026-01-23 19:31:02.52	105.27	4.18	-45.1	-63.2	3.8	8.47e-01	0	60	104	451936256	61	29457
2026-01-23 19:31:03.53	105.19	4.11	-45.1	-63.2	3.8	8.46e-01	0	60	104	451936256	61	29452
2026-01-23 19:31:04.54	105.11	4.04	-45.1	-63.2	3.8	8.46e-01	0	61	104	451936256	61	29435
2026-01-23 19:31:05.55	105.03	3.97	-45.1	-63.2	3.8	8.45e-01	0	61	104	451936256	61	29440
2026-01-23 19:31:06.56	104.96	3.89	-45.1	-63.2	3.8	8.47e-01	0	61	104	451936256	61	29374
2026-01-23 19:31:07.57	104.88	3.82	-45.1	-63.2	3.8	8.46e-01	0	61	104	451936256	60	31122
2026-01-23 19:31:08.58	104.80	3.75	-45.1	-63.2	3.8	8.46e-01	0	61	104	451936256	60	31163
2026-01-23 19:31:09.59	104.73	3.68	-45.1	-63.2	3.8	8.46e-01	0	60	104	451936256	60	31113
2026-01-23 19:31:10.60	104.65	3.61	-45.1	-63.1	3.8	8.46e-01	0	61	104	451936256	60	31073
2026-01-23 19:31:11.61	104.58	3.54	-45.1	-63.2	3.8	8.46e-01	0	61	104	451936256	60	31256
2026-01-23 19:31:12.62	104.50	3.47	-45.1	-63.2	3.8	8.46e-01	0	60	104	451936256	60	31237
2026-01-23 19:31:13.63	104.43	3.40	-45.1	-63.2	3.8	8.46e-01	0	61	104	451936256	60	31112
2026-01-23 19:31:14.64	104.35	3.33	-45.1	-63.2	3.8	8.46e-01	0	61	104	451936256	60	31164
2026-01-23 19:31:15.65	104.28	3.26	-45.1	-63.2	3.8	8.46e-01	0	61	104	451936256	60	31148
2026-01-23 19:31:16.67	104.21	3.19	-45.1	-63.2	3.8	8.46e-01	0	61	104	451936256	60	31163
2026-01-23 19:31:17.68	104.14	3.12	-45.1	-63.2	3.8	8.46e-01	0	61	104	451936256	60	31179
2026-01-23 19:31:18.69	104.07	3.05	-45.1	-63.2	3.8	8.47e-01	0	61	104	451936256	60	31134
2026-01-23 19:31:19.70	104.00	2.98	-45.1	-63.2	3.8	8.46e-01	0	61	104	451936256	60	31120
2026-01-23 19:31:20.71	103.92	2.91	-45.1	-63.2	3.8	8.46e-01	0	61	104	451936256	60	31124
2026-01-23 19:31:21.72	103.86	2.84	-45.1	-63.2	3.8	8.46e-01	0	61	104	451936256	60	31150
2026-01-23 19:31:22.73	103.79	2.77	-45.1	-63.2	3.8	8.46e-01	0	61	104	451936256	60	31194
2026-01-23 19:31:23.74	103.72	2.70	-45.1	-63.2	3.8	8.46e-01	0	61	104	451936256	60	31175
2026-01-23 19:31:24.75	103.65	2.64	-45.1	-63.2	3.8	8.46e-01	0	61	104	451936256	60	31184
2026-01-23 19:31:25.76	103.58	2.57	-45.1	-63.1	3.8	8.46e-01	0	61	104	451936256	60	31077
2026-01-23 19:31:26.77	103.51	2.50	-45.1	-63.1	3.8	8.46e-01	0	61	104	451936256	60	31073
2026-01-23 19:31:27.78	103.45	2.43	-45.1	-63.2	3.8	8.46e-01	0	61	104	451936256	60	31154
2026-01-23 19:31:28.79	103.38	2.37	-45.0	-63.2	3.8	8.47e-01	0	61	104	451936256	60	31099
2026-01-23 19:31:29.80	103.31	2.30	-45.1	-63.2	3.8	8.46e-01	0	61	104	451936256	60	31203
2026-01-23 19:31:30.81	103.25	2.23	-45.1	-63.2	3.8	8.46e-01	0	61	104	451936256	60	31163
2026-01-23 19:31:31.82	103.18	2.17	-45.0	-63.2	3.8	8.46e-01	0	61	104	451936256	60	31210
2026-01-23 19:31:32.83	103.12	2.10	-45.1	-63.1	3.8	8.46e-01	0	61	104	451936256	60	31058
2026-01-23 19:31:33.84	103.05	2.04	-45.1	-63.2	3.8	8.46e-01	0	61	104	451936256	60	31102
2026-01-23 19:31:34.85	102.99	1.97	-45.1	-63.2	3.8	8.46e-01	0	61	104	451936256	60	31154

#Closed at: 2026-01-23 19:31:35
#Recorded file [451 MB]: D:/lorett/data/31039_260123_222227.dat