passes_logs/2026/01/23/R2.0S_Moscow/R2.0S_Moscow__20260123_101516_SUOMI_NPP_rec.log

#Pass ID: 20260123_101516_SUOMI NPP
#Satellite: SUOMI NPP
#Configuration: NPP
#almurnet v.1.7.20251203
#Start time: 2026-01-23 10:15:18

#Version: 2.2.20231116
#Station: R2.0S_Moscow
#Location: 37.707566 lon 55.798166 lat
#TLE: 1 37849U 11061A   26022.50498765  .00000208  00000+0  11976-3 0  9992
#TLE: 2 37849  98.7820 324.4892 0002275  50.8149 309.3229 14.19528284737775

#Time	Az	El	Level	Level2	SNR	BER	BlckErr	Temp	State	Recorded	gain1	gain2
2026-01-23 10:15:18.10	168.13	2.11	-43.9	-58.4	3.8	1.49e+00	0	52	0	0	59	19042
2026-01-23 10:15:19.11	168.14	2.18	-43.9	-58.4	3.8	1.49e+00	0	53	104	0	59	19027
2026-01-23 10:15:20.12	168.16	2.24	-43.9	-58.4	3.8	1.49e+00	0	53	104	0	59	19104
2026-01-23 10:15:21.13	168.17	2.31	-43.9	-58.4	3.8	1.49e+00	0	53	104	0	59	19032
2026-01-23 10:15:22.14	168.19	2.37	-43.9	-58.4	3.8	1.49e+00	0	53	104	0	59	18999
2026-01-23 10:15:23.15	168.20	2.44	-43.9	-58.4	3.8	1.49e+00	0	53	104	0	59	19017
2026-01-23 10:15:24.17	168.21	2.50	-43.9	-58.4	3.8	1.49e+00	0	53	104	0	59	19033
2026-01-23 10:15:25.18	168.23	2.57	-43.9	-58.4	3.8	1.49e+00	0	53	104	0	59	19107
2026-01-23 10:15:26.19	168.24	2.64	-43.9	-58.4	3.8	1.49e+00	0	53	104	0	59	19020
2026-01-23 10:15:27.20	168.26	2.70	-43.9	-58.4	3.8	1.49e+00	0	53	104	0	59	19049
2026-01-23 10:15:28.21	168.27	2.77	-43.9	-58.4	3.8	1.49e+00	0	53	104	0	59	19071
2026-01-23 10:15:29.22	168.29	2.84	-43.9	-58.4	3.8	1.49e+00	0	53	104	0	59	19039
2026-01-23 10:15:30.23	168.30	2.90	-43.9	-58.4	3.8	1.49e+00	0	53	104	0	59	19049
2026-01-23 10:15:31.24	168.32	2.97	-43.9	-58.4	3.8	1.49e+00	0	54	104	0	59	19010
2026-01-23 10:15:32.25	168.33	3.04	-43.9	-58.4	3.8	1.49e+00	0	54	104	0	59	19049
2026-01-23 10:15:33.26	168.35	3.10	-43.9	-58.4	3.8	1.49e+00	0	54	104	0	59	19054
2026-01-23 10:15:34.27	168.36	3.17	-43.9	-58.4	3.8	1.49e+00	0	54	104	0	59	19035
2026-01-23 10:15:35.28	168.38	3.24	-43.9	-58.4	3.8	1.49e+00	0	54	104	0	59	18999
2026-01-23 10:15:36.29	168.39	3.31	-43.9	-58.4	3.8	1.49e+00	0	54	104	0	59	19010
2026-01-23 10:15:37.31	168.41	3.37	-43.9	-58.4	3.8	1.49e+00	0	54	104	0	59	19107
2026-01-23 10:15:38.32	168.42	3.44	-43.9	-58.4	3.8	1.49e+00	0	54	104	0	59	19014
2026-01-23 10:15:39.33	168.44	3.51	-43.9	-58.4	3.8	1.49e+00	0	54	104	0	59	19035
2026-01-23 10:15:40.34	168.45	3.58	-43.9	-58.4	3.8	1.49e+00	0	54	104	0	59	19021
2026-01-23 10:15:41.35	168.47	3.65	-43.9	-58.4	3.8	1.49e+00	0	54	104	0	59	18971
2026-01-23 10:15:42.36	168.49	3.72	-43.9	-58.4	3.8	1.49e+00	0	54	104	0	59	19022
2026-01-23 10:15:43.37	168.50	3.79	-43.9	-58.4	3.8	1.49e+00	0	54	104	0	59	19020
2026-01-23 10:15:44.38	168.52	3.85	-43.9	-58.4	3.8	1.49e+00	0	54	104	0	59	18984
2026-01-23 10:15:45.39	168.53	3.92	-43.9	-58.4	3.8	1.49e+00	0	54	104	0	59	19040
2026-01-23 10:15:46.40	168.55	3.99	-43.9	-58.4	3.8	1.49e+00	0	55	104	0	59	18971
2026-01-23 10:15:47.41	168.56	4.06	-43.9	-58.4	3.8	1.49e+00	0	55	104	0	59	19006
2026-01-23 10:15:48.42	168.58	4.13	-43.9	-58.3	3.8	1.49e+00	0	55	104	0	59	18901
2026-01-23 10:15:49.43	168.60	4.20	-43.9	-58.3	3.8	1.49e+00	0	55	104	0	59	18850
2026-01-23 10:15:50.44	168.61	4.27	-43.9	-58.3	3.8	1.49e+00	0	55	104	0	59	18751
2026-01-23 10:15:51.45	168.63	4.34	-43.9	-58.2	3.8	1.49e+00	0	55	104	0	59	18632
2026-01-23 10:15:52.46	168.65	4.41	-43.9	-58.2	3.8	1.49e+00	0	55	104	0	59	18528
2026-01-23 10:15:53.47	168.66	4.48	-43.9	-58.1	3.8	1.49e+00	0	55	104	0	59	18355
2026-01-23 10:15:54.48	168.68	4.56	-43.9	-57.9	3.8	1.49e+00	0	55	104	0	59	18061
2026-01-23 10:15:55.49	168.69	4.63	-43.9	-57.9	3.8	1.49e+00	0	55	104	0	59	17935
2026-01-23 10:15:56.50	168.71	4.70	-43.9	-57.7	3.8	1.49e+00	0	55	104	0	59	17649
2026-01-23 10:15:57.51	168.73	4.77	-43.8	-57.6	3.8	1.49e+00	0	55	104	0	59	17369
2026-01-23 10:15:58.52	168.74	4.84	-43.8	-57.4	3.8	1.49e+00	0	55	104	0	59	16977
2026-01-23 10:15:59.53	168.76	4.91	-43.8	-57.2	3.8	1.49e+00	0	55	104	0	59	16625
2026-01-23 10:16:00.54	168.78	4.98	-43.8	-57.0	3.8	1.49e+00	0	55	104	0	59	16287
2026-01-23 10:16:01.55	168.79	5.06	-43.8	-57.1	3.8	1.49e+00	0	55	104	0	59	16362
2026-01-23 10:16:02.56	168.81	5.13	-43.8	-56.9	3.8	1.49e+00	0	56	104	0	59	16079
2026-01-23 10:16:03.57	168.83	5.20	-43.8	-56.8	3.8	1.49e+00	0	55	104	0	59	15810
2026-01-23 10:16:04.58	168.84	5.27	-43.8	-56.7	3.8	1.49e+00	0	55	104	0	59	15730
2026-01-23 10:16:05.59	168.86	5.35	-43.8	-56.4	3.9	1.49e+00	0	56	104	0	59	15059
2026-01-23 10:16:06.60	168.88	5.42	-43.8	-56.5	3.8	1.49e+00	0	56	104	0	59	15255
2026-01-23 10:16:07.61	168.90	5.49	-43.7	-56.1	3.8	1.48e+00	0	56	104	0	59	14635
2026-01-23 10:16:08.62	168.91	5.57	-43.8	-56.2	3.8	1.49e+00	0	56	104	0	59	14846
2026-01-23 10:16:09.63	168.93	5.64	-43.7	-56.1	3.8	1.49e+00	0	56	104	0	59	14598
2026-01-23 10:16:10.64	168.95	5.72	-43.7	-56.0	4.0	1.49e+00	0	56	104	0	59	14427
2026-01-23 10:16:11.65	168.97	5.79	-43.7	-55.8	3.9	1.47e+00	0	56	104	0	59	14195
2026-01-23 10:16:12.66	168.98	5.86	-43.7	-55.7	4.0	1.48e+00	0	56	0	0	59	13993
2026-01-23 10:16:13.67	169.00	5.94	-43.7	-55.9	3.9	1.48e+00	0	56	104	0	59	14316
2026-01-23 10:16:14.68	169.02	6.01	-43.7	-55.8	3.9	1.47e+00	0	56	104	0	59	14069
2026-01-23 10:16:15.69	169.04	6.09	-43.7	-55.9	3.8	1.48e+00	0	56	104	0	59	14272
2026-01-23 10:16:16.70	169.05	6.16	-43.7	-55.9	4.0	1.47e+00	0	56	104	0	59	14279
2026-01-23 10:16:17.72	169.07	6.24	-43.7	-55.9	3.9	1.48e+00	0	56	104	0	59	14315
2026-01-23 10:16:18.73	169.09	6.32	-43.7	-56.0	4.0	1.48e+00	0	56	104	0	59	14452
2026-01-23 10:16:19.73	169.11	6.39	-43.7	-56.0	3.8	1.48e+00	0	56	104	0	59	14508
2026-01-23 10:16:20.75	169.13	6.47	-43.7	-56.1	3.8	1.49e+00	0	56	104	0	59	14695
2026-01-23 10:16:21.76	169.15	6.54	-43.8	-56.4	3.8	1.49e+00	0	56	104	0	59	15067
2026-01-23 10:16:22.77	169.16	6.62	-43.8	-56.5	3.8	1.49e+00	0	56	104	0	59	15285
2026-01-23 10:16:23.78	169.18	6.70	-43.8	-56.6	3.8	1.49e+00	0	56	104	0	59	15432
2026-01-23 10:16:24.79	169.20	6.77	-43.8	-56.4	3.8	1.49e+00	0	57	104	0	59	15219
2026-01-23 10:16:25.80	169.22	6.85	-43.8	-56.3	3.8	1.49e+00	0	56	104	0	59	14890
2026-01-23 10:16:26.81	169.24	6.93	-43.7	-56.0	3.8	1.49e+00	0	57	104	0	59	14472
2026-01-23 10:16:27.81	169.26	7.01	-43.7	-55.6	3.9	1.46e+00	0	57	104	0	59	13734
2026-01-23 10:16:28.82	169.28	7.08	-43.7	-55.1	4.1	1.44e+00	0	57	0	0	59	13066
2026-01-23 10:16:29.83	169.30	7.16	-43.6	-54.3	4.4	1.38e+00	0	57	0	0	59	11832
2026-01-23 10:16:30.84	169.31	7.24	-43.5	-53.5	4.7	9.87e-01	0	57	0	2097152	59	10809
2026-01-23 10:16:31.85	169.33	7.32	-43.4	-52.7	5.1	7.41e-01	0	57	0	4194304	58	10473
2026-01-23 10:16:32.86	169.35	7.40	-43.3	-51.9	5.6	5.53e-01	0	57	0	5242880	58	9570
2026-01-23 10:16:33.87	169.37	7.48	-43.2	-51.1	6.1	3.40e-01	0	57	0	7340032	58	8715
2026-01-23 10:16:34.88	169.39	7.56	-43.1	-50.5	6.6	2.46e-01	0	57	0	9437184	58	8150
2026-01-23 10:16:35.89	169.41	7.64	-42.9	-49.9	7.2	1.74e-01	0	57	0	11534336	57	7993
2026-01-23 10:16:36.90	169.43	7.72	-42.7	-49.3	7.7	8.70e-02	0	57	0	13631488	57	7466
2026-01-23 10:16:37.91	169.45	7.80	-42.7	-49.2	7.9	8.73e-02	0	57	0	14680064	57	7375
2026-01-23 10:16:38.92	169.47	7.88	-42.6	-48.9	8.1	5.89e-02	0	57	0	16777216	57	7172
2026-01-23 10:16:39.93	169.49	7.96	-42.6	-48.7	8.3	5.02e-02	0	57	0	18874368	57	7033
2026-01-23 10:16:40.94	169.51	8.04	-42.6	-48.7	8.3	4.73e-02	0	57	0	20971520	57	7023
2026-01-23 10:16:41.96	169.53	8.12	-43.8	-55.1	4.2	1.72e-01	0	57	0	22020096	58	13734
2026-01-23 10:16:42.97	169.55	8.20	-43.5	-54.8	4.2	1.36e+00	0	57	0	23068672	58	13359
2026-01-23 10:16:43.98	169.57	8.29	-43.1	-49.6	8.0	4.74e-02	0	57	0	24117248	57	7731
2026-01-23 10:16:44.98	169.59	8.37	-43.9	-53.6	4.8	1.48e-01	0	58	0	26214400	58	11683
2026-01-23 10:16:45.99	169.61	8.45	-43.7	-56.4	4.0	1.80e-01	0	57	0	28311552	57	16889
2026-01-23 10:16:47.00	169.63	8.53	-42.7	-48.6	8.6	1.67e-01	0	57	0	28311552	57	6949
2026-01-23 10:16:48.01	169.65	8.61	-42.7	-48.8	8.3	4.48e-02	0	57	0	30408704	57	7091
2026-01-23 10:16:49.02	169.67	8.70	-42.5	-48.2	8.9	4.03e-02	0	58	0	32505856	57	6630
2026-01-23 10:16:50.03	169.70	8.78	-42.5	-48.1	9.1	2.14e-02	0	57	0	34603008	56	6946
2026-01-23 10:16:51.04	169.72	8.86	-42.5	-48.0	9.2	2.28e-02	0	58	0	35651584	56	6827
2026-01-23 10:16:52.05	169.74	8.95	-42.5	-48.1	9.2	1.96e-02	0	57	0	37748736	56	6934
2026-01-23 10:16:53.06	169.76	9.03	-42.5	-48.0	9.2	2.09e-02	0	58	0	39845888	56	6850
2026-01-23 10:16:54.07	169.78	9.12	-42.6	-48.2	8.9	2.29e-02	0	58	0	41943040	56	7027
2026-01-23 10:16:55.08	169.80	9.20	-42.5	-47.9	9.3	1.98e-02	0	58	0	44040192	56	6786
2026-01-23 10:16:56.09	169.82	9.29	-42.5	-47.9	9.4	1.57e-02	0	58	0	45088768	56	6798
2026-01-23 10:16:57.10	169.84	9.37	-42.4	-47.7	9.6	1.34e-02	0	58	0	47185920	56	6590
2026-01-23 10:16:58.11	169.87	9.46	-42.4	-47.7	9.7	1.08e-02	0	58	0	49283072	56	6596
2026-01-23 10:16:59.12	169.89	9.54	-42.5	-47.7	9.6	1.26e-02	0	58	0	51380224	56	6630
2026-01-23 10:17:00.12	169.91	9.63	-42.5	-47.7	9.6	1.23e-02	0	58	0	53477376	56	6624
2026-01-23 10:17:01.14	169.93	9.72	-42.5	-47.9	9.5	1.32e-02	0	58	0	55574528	56	6734
2026-01-23 10:17:02.15	169.95	9.80	-42.4	-47.5	9.9	1.25e-02	0	58	0	56623104	56	6426
2026-01-23 10:17:03.16	169.98	9.89	-42.4	-47.5	9.9	7.40e-03	0	58	0	58720256	56	6461
2026-01-23 10:17:04.17	170.00	9.98	-42.4	-47.4	10.0	7.66e-03	0	58	0	60817408	56	6351
2026-01-23 10:17:05.18	170.02	10.07	-42.3	-47.3	10.1	7.15e-03	0	58	0	62914560	56	6301
2026-01-23 10:17:06.19	170.04	10.15	-42.3	-47.3	10.1	5.94e-03	0	58	0	65011712	56	6314
2026-01-23 10:17:07.20	170.07	10.24	-42.3	-47.2	10.3	6.65e-03	0	58	0	66060288	56	6210
2026-01-23 10:17:08.21	170.09	10.33	-42.3	-47.1	10.4	4.86e-03	0	58	0	68157440	56	6134
2026-01-23 10:17:09.21	170.11	10.42	-42.2	-46.9	10.6	3.20e-03	0	58	0	70254592	56	6051
2026-01-23 10:17:10.22	170.14	10.51	-42.2	-46.9	10.6	3.38e-03	0	58	0	72351744	56	5993
2026-01-23 10:17:11.23	170.16	10.60	-42.1	-46.6	10.9	2.40e-03	0	58	0	74448896	56	5855
2026-01-23 10:17:12.24	170.18	10.69	-42.1	-46.6	10.9	2.51e-03	0	58	0	75497472	56	5830
2026-01-23 10:17:13.25	170.21	10.78	-42.1	-46.6	10.9	2.01e-03	0	58	0	77594624	56	5816
2026-01-23 10:17:14.26	170.23	10.87	-42.1	-46.5	11.1	1.95e-03	0	58	0	79691776	56	5749
2026-01-23 10:17:15.27	170.25	10.96	-42.1	-46.5	11.1	1.62e-03	0	58	0	81788928	56	5750
2026-01-23 10:17:16.28	170.28	11.05	-42.0	-46.4	11.2	1.57e-03	0	58	0	83886080	56	5710
2026-01-23 10:17:17.29	170.30	11.14	-41.8	-46.2	11.3	1.45e-03	0	58	0	84934656	55	5858
2026-01-23 10:17:18.30	170.33	11.23	-41.9	-46.2	11.2	1.27e-03	0	58	0	87031808	55	5922
2026-01-23 10:17:19.31	170.35	11.33	-41.9	-46.3	11.2	1.44e-03	0	58	0	89128960	55	5937
2026-01-23 10:17:20.32	170.38	11.42	-41.9	-46.2	11.2	1.40e-03	0	59	0	91226112	55	5921
2026-01-23 10:17:21.33	170.40	11.51	-41.9	-46.3	11.1	1.35e-03	0	58	0	93323264	55	5980
2026-01-23 10:17:22.34	170.42	11.61	-41.9	-46.2	11.2	1.59e-03	0	59	0	94371840	55	5899
2026-01-23 10:17:23.35	170.45	11.70	-41.9	-46.2	11.3	1.06e-03	0	58	0	96468992	55	5860
2026-01-23 10:17:24.35	170.47	11.79	-41.8	-46.1	11.4	1.20e-03	0	59	0	98566144	55	5790
2026-01-23 10:17:25.36	170.50	11.89	-41.8	-45.9	11.5	8.59e-04	0	59	0	100663296	55	5713
2026-01-23 10:17:26.37	170.53	11.98	-41.9	-46.1	11.3	8.61e-04	0	59	0	102760448	55	5852
2026-01-23 10:17:27.39	170.55	12.08	-41.8	-46.1	11.4	9.44e-04	0	59	0	103809024	55	5794
2026-01-23 10:17:28.39	170.58	12.17	-41.7	-45.9	11.6	7.40e-04	0	59	0	105906176	55	5679
2026-01-23 10:17:29.40	170.60	12.27	-41.7	-45.9	11.6	6.81e-04	0	59	0	108003328	55	5683
2026-01-23 10:17:30.41	170.63	12.37	-41.7	-45.7	11.8	5.35e-04	0	59	0	110100480	55	5571
2026-01-23 10:17:31.42	170.65	12.46	-41.6	-45.6	11.9	4.13e-04	0	59	0	112197632	55	5515
2026-01-23 10:17:32.43	170.68	12.56	-41.6	-45.5	12.0	4.17e-04	0	59	0	113246208	55	5450
2026-01-23 10:17:33.44	170.71	12.66	-41.5	-45.4	12.2	2.68e-04	0	59	0	115343360	55	5352
2026-01-23 10:17:34.45	170.73	12.75	-41.6	-45.4	12.1	2.63e-04	0	59	0	117440512	55	5397
2026-01-23 10:17:35.46	170.76	12.85	-41.5	-45.4	12.2	1.88e-04	0	59	0	119537664	55	5351
2026-01-23 10:17:36.47	170.79	12.95	-41.5	-45.2	12.4	1.41e-04	0	59	0	121634816	54	5580
2026-01-23 10:17:37.48	170.81	13.05	-41.5	-45.3	12.3	1.73e-04	0	59	0	123731968	54	5627
2026-01-23 10:17:38.49	170.84	13.15	-41.5	-45.3	12.3	1.65e-04	0	59	0	124780544	54	5638
2026-01-23 10:17:39.50	170.87	13.25	-41.4	-45.1	12.5	1.13e-04	0	59	0	126877696	54	5508
2026-01-23 10:17:40.50	170.90	13.35	-41.4	-45.1	12.5	1.25e-04	0	59	0	128974848	54	5479
2026-01-23 10:17:41.51	170.92	13.45	-41.4	-45.0	12.7	7.17e-05	0	59	0	131072000	54	5405
2026-01-23 10:17:42.52	170.95	13.55	-41.4	-45.1	12.6	9.46e-05	0	59	0	133169152	54	5478
2026-01-23 10:17:43.53	170.98	13.65	-41.4	-45.0	12.6	1.01e-04	0	59	0	134217728	54	5428
2026-01-23 10:17:44.54	171.01	13.75	-41.3	-45.0	12.7	8.62e-05	0	59	0	136314880	54	5411
2026-01-23 10:17:45.55	171.04	13.86	-41.3	-44.9	12.8	1.01e-04	0	59	0	138412032	54	5358
2026-01-23 10:17:46.56	171.06	13.96	-41.4	-44.9	12.7	6.71e-05	0	59	0	140509184	54	5398
2026-01-23 10:17:47.57	171.09	14.06	-41.3	-44.9	12.8	6.86e-05	0	59	0	142606336	54	5382
2026-01-23 10:17:48.58	171.12	14.17	-41.3	-44.9	12.8	5.26e-05	0	59	0	143654912	54	5358
2026-01-23 10:17:49.59	171.15	14.27	-41.2	-44.7	13.0	5.56e-05	0	59	0	145752064	54	5244
2026-01-23 10:17:50.60	171.18	14.37	-41.4	-44.9	12.7	5.11e-05	0	59	0	147849216	54	5391
2026-01-23 10:17:51.61	171.21	14.48	-41.3	-44.9	12.8	4.50e-05	0	59	0	149946368	54	5357
2026-01-23 10:17:52.62	171.24	14.58	-41.3	-44.7	13.0	3.05e-05	0	59	0	152043520	54	5273
2026-01-23 10:17:53.63	171.27	14.69	-41.3	-44.7	13.0	4.57e-05	0	59	0	153092096	54	5279
2026-01-23 10:17:54.64	171.30	14.80	-41.3	-44.7	13.0	3.73e-05	0	59	0	155189248	54	5270
2026-01-23 10:17:55.65	171.33	14.90	-41.2	-44.6	13.1	4.27e-05	0	59	0	157286400	54	5210
2026-01-23 10:17:56.66	171.36	15.01	-41.2	-44.7	13.0	2.67e-05	0	59	0	159383552	54	5242
2026-01-23 10:17:57.67	171.39	15.12	-41.2	-44.7	13.0	3.20e-05	0	59	0	161480704	54	5232
2026-01-23 10:17:58.68	171.42	15.23	-41.1	-44.4	13.3	2.82e-05	0	59	0	162529280	54	5070
2026-01-23 10:17:59.69	171.45	15.34	-41.1	-44.4	13.3	1.83e-05	0	59	0	164626432	54	5097
2026-01-23 10:18:00.70	171.48	15.44	-41.1	-44.4	13.3	1.75e-05	0	59	0	166723584	54	5097
2026-01-23 10:18:01.71	171.51	15.55	-41.1	-44.4	13.3	1.75e-05	0	60	0	168820736	54	5080
2026-01-23 10:18:02.72	171.55	15.66	-41.1	-44.3	13.5	1.22e-05	0	59	0	170917888	54	5030
2026-01-23 10:18:03.73	171.58	15.77	-41.1	-44.4	13.4	1.52e-05	0	59	0	171966464	54	5080
2026-01-23 10:18:04.74	171.61	15.89	-41.1	-44.4	13.4	1.90e-05	0	59	0	174063616	54	5080
2026-01-23 10:18:05.75	171.64	16.00	-41.1	-44.4	13.3	1.06e-05	0	59	0	176160768	54	5084
2026-01-23 10:18:06.76	171.68	16.11	-41.1	-44.4	13.4	1.98e-05	0	59	0	178257920	54	5055
2026-01-23 10:18:07.77	171.71	16.22	-41.1	-44.3	13.5	1.44e-05	0	59	0	180355072	54	5039
2026-01-23 10:18:08.78	171.74	16.34	-41.1	-44.4	13.4	1.90e-05	0	60	0	181403648	54	5081
2026-01-23 10:18:09.79	171.77	16.45	-41.2	-44.5	13.3	1.37e-05	0	59	0	183500800	54	5122
2026-01-23 10:18:10.80	171.81	16.56	-41.3	-44.7	13.1	1.83e-05	0	59	0	185597952	54	5252
2026-01-23 10:18:11.81	171.84	16.68	-41.3	-44.7	13.1	2.21e-05	0	59	0	187695104	54	5262
2026-01-23 10:18:12.81	171.87	16.79	-41.3	-44.8	13.0	3.50e-05	0	59	0	189792256	54	5291
2026-01-23 10:18:13.82	171.91	16.91	-41.3	-44.7	13.1	3.73e-05	0	60	0	191889408	54	5267
2026-01-23 10:18:14.83	171.94	17.02	-41.4	-45.0	12.9	3.89e-05	0	60	0	192937984	54	5403
2026-01-23 10:18:15.84	171.98	17.14	-41.4	-44.8	13.0	3.81e-05	0	60	0	195035136	54	5318
2026-01-23 10:18:16.85	172.01	17.26	-41.4	-45.0	12.8	4.50e-05	0	60	0	197132288	54	5439
2026-01-23 10:18:17.86	172.05	17.38	-41.5	-45.1	12.7	7.78e-05	0	60	0	199229440	54	5496
2026-01-23 10:18:18.87	172.08	17.50	-41.5	-45.1	12.7	5.64e-05	0	60	0	201326592	54	5509
2026-01-23 10:18:19.88	172.12	17.61	-41.4	-45.0	12.8	5.72e-05	0	60	0	202375168	54	5425
2026-01-23 10:18:20.89	172.15	17.73	-41.5	-45.0	12.8	5.64e-05	0	60	0	204472320	54	5445
2026-01-23 10:18:21.91	172.19	17.86	-41.5	-45.0	12.8	7.24e-05	0	60	0	206569472	54	5456
2026-01-23 10:18:22.91	172.23	17.98	-41.5	-45.1	12.8	6.25e-05	0	60	0	208666624	54	5478
2026-01-23 10:18:23.92	172.26	18.10	-41.6	-45.3	12.5	1.10e-04	0	60	0	210763776	54	5655
2026-01-23 10:18:24.93	172.30	18.22	-41.6	-45.2	12.6	9.00e-05	0	60	0	211812352	54	5558
2026-01-23 10:18:25.95	172.34	18.34	-41.6	-45.3	12.6	1.09e-04	0	60	0	213909504	54	5599
2026-01-23 10:18:26.95	172.37	18.46	-41.6	-45.2	12.7	9.53e-05	0	60	0	216006656	54	5548
2026-01-23 10:18:27.97	172.41	18.59	-41.6	-45.3	12.6	8.31e-05	0	60	0	218103808	54	5605
2026-01-23 10:18:28.98	172.45	18.71	-41.6	-45.3	12.5	1.04e-04	0	60	0	220200960	54	5632
2026-01-23 10:18:29.98	172.49	18.84	-41.7	-45.4	12.5	1.35e-04	0	60	0	221249536	54	5679
2026-01-23 10:18:30.99	172.53	18.96	-41.8	-45.6	12.3	1.64e-04	0	60	0	223346688	54	5795
2026-01-23 10:18:32.01	172.57	19.09	-41.7	-45.5	12.4	2.34e-04	0	60	0	225443840	54	5760
2026-01-23 10:18:33.02	172.61	19.22	-41.8	-45.6	12.2	1.77e-04	0	60	0	227540992	54	5848
2026-01-23 10:18:34.02	172.64	19.34	-41.9	-45.8	12.1	2.71e-04	0	60	0	229638144	54	5934
2026-01-23 10:18:35.03	172.68	19.47	-42.0	-46.0	11.9	4.26e-04	0	60	0	230686720	54	6075
2026-01-23 10:18:36.04	172.72	19.60	-42.0	-46.1	11.8	4.48e-04	0	60	0	232783872	54	6142
2026-01-23 10:18:37.05	172.77	19.73	-42.2	-46.4	11.5	7.59e-04	0	60	0	234881024	54	6378
2026-01-23 10:18:38.06	172.81	19.86	-42.1	-46.2	11.7	7.38e-04	0	60	0	236978176	54	6241
2026-01-23 10:18:39.07	172.85	19.99	-42.1	-46.4	11.5	8.27e-04	0	60	0	239075328	55	5995
2026-01-23 10:18:40.08	172.89	20.12	-42.2	-46.5	11.3	1.13e-03	0	60	0	240123904	55	6094
2026-01-23 10:18:41.09	172.93	20.26	-42.3	-46.7	11.2	1.37e-03	0	60	0	242221056	55	6207
2026-01-23 10:18:42.10	172.97	20.39	-42.3	-46.7	11.2	1.16e-03	0	60	0	244318208	55	6268
2026-01-23 10:18:43.11	173.01	20.52	-42.3	-46.6	11.3	1.57e-03	0	60	0	246415360	55	6152
2026-01-23 10:18:44.12	173.06	20.66	-42.2	-46.6	11.3	9.45e-04	0	60	0	248512512	55	6142
2026-01-23 10:18:45.13	173.10	20.79	-42.3	-46.6	11.2	1.16e-03	0	60	0	249561088	55	6188
2026-01-23 10:18:46.14	173.14	20.93	-42.3	-46.7	11.2	1.36e-03	0	60	0	251658240	55	6255
2026-01-23 10:18:47.14	173.19	21.06	-42.3	-46.8	11.1	1.53e-03	0	60	0	253755392	55	6283
2026-01-23 10:18:48.15	173.23	21.20	-42.3	-46.7	11.2	1.38e-03	0	60	0	255852544	55	6239
2026-01-23 10:18:49.16	173.28	21.34	-42.3	-46.6	11.2	1.75e-03	0	60	0	257949696	55	6167
2026-01-23 10:18:50.17	173.32	21.48	-42.2	-46.6	11.2	1.46e-03	0	60	0	260046848	55	6137
2026-01-23 10:18:51.18	173.37	21.62	-42.3	-46.7	11.1	1.28e-03	0	60	0	261095424	55	6244
2026-01-23 10:18:52.19	173.41	21.76	-42.5	-47.0	10.8	2.08e-03	0	60	0	263192576	55	6472
2026-01-23 10:18:53.20	173.46	21.90	-42.4	-46.9	11.0	1.82e-03	0	60	0	265289728	55	6364
2026-01-23 10:18:54.21	173.50	22.04	-42.5	-47.0	10.8	1.97e-03	0	60	0	267386880	55	6477
2026-01-23 10:18:55.22	173.55	22.18	-42.4	-46.9	11.0	2.24e-03	0	60	0	269484032	55	6401
2026-01-23 10:18:56.23	173.60	22.33	-42.4	-46.8	11.1	1.97e-03	0	60	0	270532608	55	6303
2026-01-23 10:18:57.24	173.65	22.47	-42.3	-46.7	11.2	1.65e-03	0	60	0	272629760	55	6240
2026-01-23 10:18:58.25	173.69	22.62	-42.4	-46.9	10.9	1.67e-03	0	60	0	274726912	55	6379
2026-01-23 10:18:59.26	173.74	22.76	-42.3	-46.6	11.3	1.20e-03	0	60	0	276824064	55	6149
2026-01-23 10:19:00.27	173.79	22.91	-42.3	-46.5	11.4	1.01e-03	0	60	0	278921216	55	6108
2026-01-23 10:19:01.28	173.84	23.06	-42.1	-46.2	11.7	8.47e-04	0	60	0	279969792	55	5895
2026-01-23 10:19:02.29	173.89	23.20	-42.1	-46.2	11.8	7.07e-04	0	60	0	282066944	55	5874
2026-01-23 10:19:03.30	173.94	23.35	-42.1	-46.1	11.8	4.61e-04	0	60	0	284164096	55	5836
2026-01-23 10:19:04.31	173.99	23.50	-42.1	-46.1	11.8	3.61e-04	0	60	0	286261248	55	5842
2026-01-23 10:19:05.32	174.04	23.65	-42.1	-46.1	11.8	4.01e-04	0	60	0	288358400	55	5848
2026-01-23 10:19:06.33	174.09	23.81	-42.0	-45.9	12.0	3.17e-04	0	60	0	289406976	55	5682
2026-01-23 10:19:07.34	174.15	23.96	-42.0	-45.9	12.1	2.82e-04	0	60	0	291504128	55	5668
2026-01-23 10:19:08.34	174.20	24.11	-41.9	-45.7	12.3	2.17e-04	0	60	0	293601280	55	5576
2026-01-23 10:19:09.35	174.25	24.26	-42.0	-45.9	12.1	3.92e-04	0	60	0	295698432	55	5662
2026-01-23 10:19:10.36	174.30	24.42	-42.0	-45.8	12.1	3.13e-04	0	60	0	297795584	55	5652
2026-01-23 10:19:11.37	174.36	24.58	-41.8	-45.6	12.4	3.79e-04	0	60	0	298844160	55	5503
2026-01-23 10:19:12.38	174.41	24.73	-42.0	-45.8	12.2	2.72e-04	0	60	0	300941312	55	5634
2026-01-23 10:19:13.39	174.47	24.89	-41.9	-45.7	12.3	1.96e-04	0	60	0	303038464	55	5557
2026-01-23 10:19:14.40	174.52	25.05	-41.9	-45.8	12.2	1.46e-04	0	60	0	305135616	55	5605
2026-01-23 10:19:15.41	174.58	25.21	-41.7	-45.2	12.8	1.15e-04	0	60	0	307232768	55	5264
2026-01-23 10:19:16.42	174.64	25.37	-41.8	-45.5	12.4	8.01e-05	0	61	0	308281344	55	5404
2026-01-23 10:19:17.43	174.69	25.53	-41.8	-45.5	12.5	1.15e-04	0	61	0	310378496	55	5406
2026-01-23 10:19:18.44	174.75	25.69	-41.5	-45.0	13.0	5.87e-05	0	61	0	312475648	55	5123
2026-01-23 10:19:19.45	174.81	25.86	-41.7	-45.4	12.7	3.66e-05	0	61	0	314572800	55	5356
2026-01-23 10:19:20.46	174.87	26.02	-41.7	-45.3	12.7	7.78e-05	0	60	0	316669952	55	5335
2026-01-23 10:19:21.47	174.93	26.19	-41.7	-45.4	12.7	8.77e-05	0	61	0	317718528	55	5367
2026-01-23 10:19:22.48	174.99	26.35	-41.9	-45.6	12.4	1.33e-04	0	61	0	319815680	55	5520
2026-01-23 10:19:23.49	175.05	26.52	-41.9	-45.7	12.3	1.89e-04	0	60	0	321912832	55	5561
2026-01-23 10:19:24.50	175.11	26.69	-41.8	-45.6	12.4	1.32e-04	0	60	0	324009984	55	5472
2026-01-23 10:19:25.51	175.17	26.86	-41.8	-45.5	12.5	1.10e-04	0	60	0	326107136	55	5442
2026-01-23 10:19:26.52	175.23	27.03	-41.8	-45.6	12.4	1.36e-04	0	61	0	328204288	55	5510
2026-01-23 10:19:27.53	175.30	27.20	-41.8	-45.5	12.5	1.41e-04	0	61	0	329252864	55	5450
2026-01-23 10:19:28.54	175.36	27.37	-41.8	-45.5	12.6	7.70e-05	0	61	0	331350016	55	5408
2026-01-23 10:19:29.54	175.42	27.55	-41.8	-45.5	12.5	1.27e-04	0	61	0	333447168	55	5442
2026-01-23 10:19:30.55	175.49	27.72	-41.6	-45.1	12.9	1.11e-04	0	60	0	335544320	55	5193
2026-01-23 10:19:31.56	175.55	27.90	-41.9	-45.8	12.2	7.70e-05	0	61	0	337641472	55	5602
2026-01-23 10:19:32.57	175.62	28.07	-41.9	-45.8	12.2	1.62e-04	0	60	0	338690048	55	5612
2026-01-23 10:19:33.58	175.69	28.25	-41.9	-45.7	12.3	1.30e-04	0	61	0	340787200	55	5592
2026-01-23 10:19:34.59	175.75	28.43	-42.2	-46.3	11.8	2.80e-04	0	61	0	342884352	55	5932
2026-01-23 10:19:35.60	175.82	28.61	-42.0	-45.9	12.2	5.01e-04	0	61	0	344981504	55	5718
2026-01-23 10:19:36.60	175.89	28.79	-42.2	-46.3	11.7	4.72e-04	0	61	0	347078656	55	5945
2026-01-23 10:19:37.61	175.96	28.97	-42.3	-46.6	11.4	6.73e-04	0	61	0	348127232	55	6173
2026-01-23 10:19:38.62	176.03	29.16	-42.3	-46.4	11.6	6.39e-04	0	60	0	350224384	55	6024
2026-01-23 10:19:39.63	176.10	29.34	-42.2	-46.3	11.7	6.22e-04	0	61	0	352321536	55	5961
2026-01-23 10:19:40.64	176.18	29.53	-42.2	-46.3	11.7	5.35e-04	0	61	0	354418688	55	5980
2026-01-23 10:19:41.65	176.25	29.72	-42.4	-46.6	11.4	8.15e-04	0	61	0	356515840	55	6165
2026-01-23 10:19:42.66	176.32	29.90	-42.1	-46.0	12.0	3.25e-04	0	61	0	357564416	55	5758
2026-01-23 10:19:43.67	176.40	30.09	-42.2	-46.2	11.8	2.85e-04	0	61	0	359661568	55	5868
2026-01-23 10:19:44.68	176.47	30.29	-42.1	-46.1	12.0	7.81e-04	0	61	0	361758720	55	5817
2026-01-23 10:19:45.69	176.55	30.48	-42.3	-46.3	11.7	5.24e-04	0	61	0	363855872	55	5985
2026-01-23 10:19:46.70	176.63	30.67	-42.4	-46.8	11.2	7.49e-04	0	61	0	365953024	55	6285
2026-01-23 10:19:47.71	176.71	30.87	-42.5	-46.8	11.2	9.87e-04	0	61	0	367001600	55	6312
2026-01-23 10:19:48.72	176.79	31.06	-42.5	-46.8	11.2	9.59e-04	0	61	0	369098752	55	6281
2026-01-23 10:19:49.73	176.87	31.26	-42.5	-46.8	11.3	1.22e-03	0	61	0	371195904	55	6279
2026-01-23 10:19:50.74	176.95	31.46	-42.4	-46.7	11.3	8.60e-04	0	61	0	373293056	55	6246
2026-01-23 10:19:51.75	177.03	31.66	-42.5	-46.8	11.2	1.35e-03	0	61	0	375390208	55	6343
2026-01-23 10:19:52.76	177.11	31.86	-42.4	-46.7	11.3	1.37e-03	0	61	0	376438784	55	6255
2026-01-23 10:19:53.77	177.20	32.06	-42.5	-47.0	11.0	1.25e-03	0	61	0	378535936	55	6453
2026-01-23 10:19:54.78	177.28	32.26	-42.5	-46.8	11.2	1.80e-03	0	61	0	380633088	55	6330
2026-01-23 10:19:55.79	177.37	32.47	-42.6	-47.1	11.0	2.07e-03	0	61	0	382730240	55	6512
2026-01-23 10:19:56.80	177.45	32.67	-42.5	-46.9	10.9	2.92e-03	0	61	0	384827392	55	6393
2026-01-23 10:19:57.80	177.54	32.88	-42.8	-47.3	10.9	2.12e-03	0	61	0	385875968	56	6305
2026-01-23 10:19:58.81	177.63	33.09	-42.8	-47.4	10.8	2.74e-03	0	61	0	387973120	56	6394
2026-01-23 10:19:59.82	177.72	33.30	-42.5	-46.7	11.5	1.37e-03	0	61	0	390070272	56	5883
2026-01-23 10:20:00.83	177.81	33.51	-42.6	-46.9	11.3	8.53e-04	0	61	0	392167424	56	6048
2026-01-23 10:20:01.84	177.90	33.72	-42.7	-47.2	11.1	1.22e-03	0	61	0	394264576	56	6205
2026-01-23 10:20:02.85	178.00	33.94	-42.7	-47.1	11.2	1.39e-03	0	61	0	396361728	56	6145
2026-01-23 10:20:03.86	178.09	34.16	-42.9	-47.5	10.7	2.21e-03	0	61	0	397410304	56	6465
2026-01-23 10:20:04.87	178.19	34.37	-42.9	-47.5	10.8	2.18e-03	0	61	0	399507456	56	6428
2026-01-23 10:20:05.88	178.29	34.59	-42.8	-47.5	10.7	2.65e-03	0	61	0	401604608	56	6425
2026-01-23 10:20:06.89	178.38	34.81	-42.8	-47.2	10.9	2.74e-03	0	61	0	403701760	56	6270
2026-01-23 10:20:07.90	178.48	35.03	-42.8	-47.2	11.0	2.06e-03	0	61	0	405798912	56	6262
2026-01-23 10:20:08.91	178.59	35.26	-42.8	-47.3	10.9	1.89e-03	0	61	0	406847488	56	6333
2026-01-23 10:20:09.92	178.69	35.48	-42.8	-47.3	11.0	1.96e-03	0	61	0	408944640	56	6291
2026-01-23 10:20:10.93	178.79	35.71	-42.8	-47.2	11.0	1.52e-03	0	61	0	411041792	56	6247
2026-01-23 10:20:11.94	178.90	35.94	-42.6	-46.9	11.4	1.38e-03	0	61	0	413138944	56	6001
2026-01-23 10:20:12.95	179.01	36.17	-42.7	-47.0	11.2	1.53e-03	0	61	0	415236096	56	6127
2026-01-23 10:20:13.96	179.11	36.40	-42.5	-46.7	11.6	1.65e-03	0	61	0	416284672	56	5892
2026-01-23 10:20:14.97	179.22	36.63	-42.5	-46.7	11.6	1.08e-03	0	61	0	418381824	56	5879
2026-01-23 10:20:15.98	179.33	36.86	-42.4	-46.4	11.9	6.26e-04	0	61	0	420478976	56	5675
2026-01-23 10:20:16.99	179.45	37.10	-42.3	-46.2	12.0	4.03e-04	0	61	0	422576128	56	5582
2026-01-23 10:20:18.00	179.56	37.34	-42.3	-46.3	12.0	3.96e-04	0	61	0	424673280	56	5594
2026-01-23 10:20:19.01	179.68	37.57	-42.2	-46.0	12.3	1.71e-04	0	61	0	425721856	56	5423
2026-01-23 10:20:20.02	179.80	37.81	-42.2	-46.0	12.3	1.70e-04	0	61	0	427819008	56	5442
2026-01-23 10:20:21.03	179.92	38.06	-42.2	-45.9	12.4	2.35e-04	0	61	0	429916160	56	5373
2026-01-23 10:20:22.04	180.04	38.30	-42.4	-46.3	12.0	2.10e-04	0	61	0	432013312	56	5631
2026-01-23 10:20:23.05	180.16	38.54	-42.5	-46.6	11.7	3.87e-04	0	61	0	434110464	56	5819
2026-01-23 10:20:24.06	180.29	38.79	-42.5	-46.6	11.7	5.10e-04	0	61	0	435159040	56	5805
2026-01-23 10:20:25.07	180.41	39.04	-42.6	-46.9	11.4	1.07e-03	0	61	0	437256192	56	6055
2026-01-23 10:20:26.08	180.54	39.29	-42.8	-47.2	11.1	1.24e-03	0	61	0	439353344	56	6231
2026-01-23 10:20:27.09	180.67	39.54	-43.0	-47.7	10.5	2.47e-03	0	61	0	441450496	56	6614
2026-01-23 10:20:28.10	180.80	39.80	-43.1	-48.0	10.2	3.40e-03	0	61	0	443547648	56	6857
2026-01-23 10:20:29.11	180.94	40.05	-43.3	-48.7	9.4	9.14e-03	0	61	0	444596224	57	7038
2026-01-23 10:20:30.12	181.07	40.31	-43.3	-48.7	9.5	2.46e-02	0	61	0	446693376	57	6999
2026-01-23 10:20:31.13	181.21	40.57	-43.2	-48.3	10.0	1.19e-02	0	61	0	448790528	57	6688
2026-01-23 10:20:32.14	181.35	40.83	-43.4	-48.8	9.4	1.24e-02	0	61	0	450887680	57	7099
2026-01-23 10:20:33.15	181.50	41.09	-43.2	-48.4	9.8	1.06e-02	0	61	0	452984832	57	6738
2026-01-23 10:20:34.16	181.64	41.35	-43.2	-48.2	9.8	9.02e-03	0	61	0	454033408	57	6633
2026-01-23 10:20:35.17	181.79	41.62	-43.0	-47.7	10.5	4.62e-03	0	61	0	456130560	57	6221
2026-01-23 10:20:36.17	181.94	41.88	-42.9	-47.4	10.8	2.15e-03	0	61	0	458227712	57	6039
2026-01-23 10:20:37.18	182.09	42.15	-42.9	-47.4	10.8	2.37e-03	0	61	0	460324864	57	6030
2026-01-23 10:20:38.19	182.25	42.42	-42.6	-46.6	11.6	9.48e-04	0	61	0	462422016	56	5853
2026-01-23 10:20:39.20	182.41	42.69	-42.4	-46.4	11.9	4.68e-04	0	61	0	464519168	56	5665
2026-01-23 10:20:40.21	182.57	42.97	-42.2	-45.9	12.4	2.33e-04	0	61	0	465567744	56	5373
2026-01-23 10:20:41.22	182.73	43.24	-42.4	-46.3	12.0	4.51e-04	0	61	0	467664896	56	5605
2026-01-23 10:20:42.23	182.89	43.52	-42.3	-46.1	12.2	2.72e-04	0	61	0	469762048	56	5486
2026-01-23 10:20:43.24	183.06	43.80	-42.6	-46.8	11.6	5.09e-04	0	61	0	471859200	56	5956
2026-01-23 10:20:44.25	183.23	44.08	-42.5	-46.6	11.8	8.74e-04	0	61	0	472907776	56	5811
2026-01-23 10:20:45.25	183.41	44.36	-42.8	-47.1	11.2	9.59e-04	0	61	0	475004928	56	6185
2026-01-23 10:20:46.26	183.59	44.64	-42.8	-47.3	11.1	2.15e-03	0	61	0	477102080	56	6275
2026-01-23 10:20:47.27	183.77	44.93	-42.8	-47.1	11.2	2.03e-03	0	61	0	479199232	56	6156
2026-01-23 10:20:48.28	183.95	45.22	-42.9	-47.5	10.8	2.22e-03	0	61	0	481296384	56	6434
2026-01-23 10:20:49.29	184.14	45.51	-43.0	-47.8	10.3	3.51e-03	0	61	0	482344960	56	6660
2026-01-23 10:20:50.30	184.33	45.80	-43.2	-48.2	10.1	4.93e-03	0	62	0	484442112	56	6985
2026-01-23 10:20:51.31	184.52	46.09	-43.2	-48.1	10.1	3.84e-03	0	61	0	486539264	56	6934
2026-01-23 10:20:52.32	184.72	46.39	-43.3	-48.5	9.7	9.76e-03	0	61	0	488636416	57	6812
2026-01-23 10:20:53.33	184.92	46.68	-43.4	-48.7	9.4	1.91e-02	0	61	0	490733568	57	7030
2026-01-23 10:20:54.34	185.13	46.98	-43.8	-50.1	8.2	3.03e-02	0	61	0	492830720	58	7733
2026-01-23 10:20:55.35	185.34	47.28	-43.5	-49.2	9.0	2.41e-02	0	61	0	493879296	58	6960
2026-01-23 10:20:56.36	185.55	47.59	-43.6	-49.4	8.8	1.82e-02	0	61	0	495976448	58	7177
2026-01-23 10:20:57.37	185.77	47.89	-43.6	-49.4	8.8	3.44e-02	0	61	0	498073600	58	7199
2026-01-23 10:20:58.38	185.99	48.20	-43.4	-48.6	9.7	1.93e-02	0	61	0	500170752	58	6500
2026-01-23 10:20:59.39	186.21	48.50	-43.2	-48.2	10.0	1.63e-02	0	61	0	502267904	58	6259
2026-01-23 10:21:00.40	186.44	48.81	-42.9	-47.3	10.9	3.49e-03	0	61	0	503316480	57	5992
2026-01-23 10:21:01.40	186.68	49.12	-42.8	-47.2	11.0	1.39e-03	0	61	0	505413632	57	5867
2026-01-23 10:21:02.42	186.92	49.43	-42.4	-46.3	11.9	7.77e-04	0	61	0	507510784	56	5647
2026-01-23 10:21:03.42	187.16	49.75	-42.2	-45.9	12.4	3.25e-04	0	61	0	509607936	56	5378
2026-01-23 10:21:04.43	187.41	50.06	-42.0	-45.7	12.5	8.62e-05	0	61	0	511705088	55	5567
2026-01-23 10:21:05.44	187.66	50.38	-42.0	-45.8	12.4	1.24e-04	0	61	0	512753664	55	5612
2026-01-23 10:21:06.45	187.92	50.70	-41.8	-45.2	13.0	7.78e-05	0	61	0	514850816	55	5277
2026-01-23 10:21:07.46	188.19	51.02	-41.7	-45.1	13.1	2.44e-05	0	61	0	516947968	55	5204
2026-01-23 10:21:08.47	188.46	51.34	-41.3	-44.4	13.8	1.29e-05	0	61	0	519045120	54	5092
2026-01-23 10:21:09.48	188.74	51.66	-41.4	-44.6	13.7	1.50e-06	0	61	0	521142272	54	5165
2026-01-23 10:21:10.49	189.02	51.99	-41.1	-44.0	14.3	3.00e-06	0	61	0	522190848	54	4851
2026-01-23 10:21:11.50	189.31	52.31	-40.8	-43.5	14.7	0.00e+00	0	61	0	524288000	53	4835
2026-01-23 10:21:12.51	189.61	52.64	-40.8	-43.5	14.8	1.50e-06	0	61	0	526385152	53	4830
2026-01-23 10:21:13.52	189.91	52.97	-41.0	-43.8	14.4	0.00e+00	0	61	0	528482304	53	5029
2026-01-23 10:21:14.53	190.22	53.30	-41.2	-44.3	13.9	2.20e-06	0	61	0	530579456	53	5319
2026-01-23 10:21:15.54	190.53	53.63	-41.5	-44.8	13.4	7.00e-07	0	61	0	531628032	53	5640
2026-01-23 10:21:16.54	190.85	53.96	-40.9	-43.8	14.4	2.20e-06	0	61	0	533725184	53	5004
2026-01-23 10:21:17.55	191.18	54.30	-40.6	-43.3	15.0	1.50e-06	0	61	0	535822336	53	4733
2026-01-23 10:21:18.56	191.52	54.63	-40.1	-42.4	15.9	0.00e+00	0	61	0	537919488	51	4787
2026-01-23 10:21:19.57	191.87	54.97	-40.2	-42.5	15.9	0.00e+00	0	61	0	540016640	51	4861
2026-01-23 10:21:20.58	192.22	55.31	-40.2	-42.6	15.6	0.00e+00	0	61	0	541065216	51	4920
2026-01-23 10:21:21.59	192.59	55.65	-40.2	-42.7	15.6	0.00e+00	0	61	0	543162368	51	4948
2026-01-23 10:21:22.60	192.96	55.99	-40.6	-43.2	15.1	7.00e-07	0	61	0	545259520	51	5277
2026-01-23 10:21:23.61	193.34	56.33	-40.5	-43.1	15.1	0.00e+00	0	61	0	547356672	52	4917
2026-01-23 10:21:24.62	193.73	56.67	-40.7	-43.5	14.8	0.00e+00	0	61	0	549453824	52	5109
2026-01-23 10:21:25.63	194.13	57.01	-40.8	-43.5	14.7	0.00e+00	0	61	0	550502400	52	5155
2026-01-23 10:21:26.64	194.54	57.36	-40.7	-43.6	14.8	1.50e-06	0	61	0	552599552	52	5166
2026-01-23 10:21:27.65	194.96	57.70	-40.7	-43.4	14.9	0.00e+00	0	61	0	554696704	52	5086
2026-01-23 10:21:28.66	195.39	58.05	-40.8	-43.7	14.5	0.00e+00	0	61	0	556793856	52	5264
2026-01-23 10:21:29.67	195.83	58.39	-40.9	-43.8	14.5	0.00e+00	0	61	0	558891008	52	5283
2026-01-23 10:21:30.68	196.29	58.74	-40.8	-43.6	14.6	0.00e+00	0	61	0	559939584	52	5198
2026-01-23 10:21:31.69	196.75	59.08	-40.3	-42.8	15.5	7.00e-07	0	61	0	562036736	51	5034
2026-01-23 10:21:32.69	197.22	59.42	-40.1	-42.6	15.8	0.00e+00	0	61	0	564133888	51	4881
2026-01-23 10:21:33.70	197.72	59.77	-39.9	-42.2	16.2	0.00e+00	0	61	0	566231040	51	4673
2026-01-23 10:21:34.72	198.22	60.12	-40.0	-42.3	16.1	0.00e+00	0	61	0	568328192	50	5008
2026-01-23 10:21:35.73	198.74	60.47	-39.9	-42.2	16.2	0.00e+00	0	61	0	570425344	50	4941
2026-01-23 10:21:36.74	199.27	60.81	-39.8	-42.0	16.4	0.00e+00	0	61	0	571473920	50	4865
2026-01-23 10:21:37.74	199.81	61.15	-40.1	-42.5	15.9	0.00e+00	0	61	0	573571072	50	5145
2026-01-23 10:21:38.75	200.38	61.50	-40.2	-43.2	15.2	0.00e+00	0	61	0	575668224	51	5247
2026-01-23 10:21:39.76	200.95	61.84	-41.0	-43.9	14.5	0.00e+00	0	61	0	577765376	52	5360
2026-01-23 10:21:40.77	201.55	62.19	-40.9	-43.8	14.6	7.00e-07	0	61	0	579862528	52	5300
2026-01-23 10:21:41.78	202.16	62.53	-40.8	-43.5	14.8	0.00e+00	0	61	0	580911104	52	5131
2026-01-23 10:21:42.79	202.78	62.87	-40.7	-43.4	15.0	0.00e+00	0	61	0	583008256	52	5071
2026-01-23 10:21:43.80	203.43	63.21	-40.5	-43.1	15.2	0.00e+00	0	61	0	585105408	52	4882
2026-01-23 10:21:44.81	204.09	63.55	-40.7	-43.5	14.9	0.00e+00	0	62	0	587202560	52	5101
2026-01-23 10:21:45.82	204.78	63.89	-41.0	-43.9	14.4	1.50e-06	0	61	0	589299712	52	5396
2026-01-23 10:21:46.83	205.48	64.22	-41.5	-44.8	13.4	7.60e-06	0	62	0	590348288	53	5650
2026-01-23 10:21:47.84	206.20	64.56	-41.6	-44.9	13.3	4.27e-05	0	62	0	592445440	54	5376
2026-01-23 10:21:48.85	206.95	64.89	-41.2	-44.2	13.9	5.30e-06	0	61	0	594542592	54	4963
2026-01-23 10:21:49.86	207.72	65.22	-40.9	-43.7	14.6	7.00e-07	0	62	0	596639744	53	4940
2026-01-23 10:21:50.87	208.50	65.54	-41.1	-44.1	14.2	0.00e+00	0	61	0	598736896	53	5190
2026-01-23 10:21:51.88	209.32	65.86	-41.6	-44.9	13.4	8.30e-06	0	61	0	599785472	53	5721
2026-01-23 10:21:52.89	210.16	66.18	-42.0	-45.6	12.7	6.94e-05	0	61	0	601882624	54	5852
2026-01-23 10:21:53.90	211.02	66.50	-41.8	-45.3	13.0	9.07e-05	0	61	0	603979776	54	5605
2026-01-23 10:21:54.91	211.91	66.81	-41.8	-45.3	12.9	9.84e-05	0	61	0	606076928	54	5647
2026-01-23 10:21:55.92	212.82	67.12	-42.0	-45.7	12.6	1.20e-04	0	61	0	608174080	54	5885
2026-01-23 10:21:56.93	213.76	67.43	-42.4	-46.6	11.7	2.41e-04	0	61	0	609222656	55	6141
2026-01-23 10:21:57.94	214.73	67.73	-42.0	-45.6	12.5	3.26e-04	0	61	0	611319808	55	5506
2026-01-23 10:21:58.95	215.73	68.02	-42.1	-45.9	12.4	1.43e-04	0	61	0	613416960	55	5663
2026-01-23 10:21:59.96	216.75	68.31	-42.5	-46.7	11.5	5.03e-04	0	61	0	615514112	55	6247
2026-01-23 10:22:00.97	217.81	68.59	-42.7	-47.1	11.3	6.69e-04	0	62	0	617611264	56	6150
2026-01-23 10:22:01.98	218.89	68.87	-42.5	-46.4	11.9	5.04e-04	0	62	0	618659840	56	5671
2026-01-23 10:22:02.99	220.01	69.14	-42.3	-45.9	12.4	1.06e-04	0	62	0	620756992	56	5389
2026-01-23 10:22:03.99	221.15	69.40	-42.5	-46.4	11.9	1.88e-04	0	61	0	622854144	56	5710
2026-01-23 10:22:05.00	222.33	69.66	-42.7	-46.8	11.5	1.09e-03	0	61	0	624951296	56	5984
2026-01-23 10:22:06.01	223.54	69.91	-42.7	-47.0	11.4	7.84e-04	0	61	0	627048448	56	6079
2026-01-23 10:22:07.02	224.78	70.15	-42.7	-47.0	11.1	1.37e-03	0	62	0	628097024	56	6127
2026-01-23 10:22:08.03	226.06	70.39	-43.4	-48.9	9.2	5.43e-03	0	62	0	630194176	57	7168
2026-01-23 10:22:09.04	227.36	70.61	-43.5	-49.1	9.1	2.41e-02	0	62	0	632291328	57	7314
2026-01-23 10:22:10.05	228.70	70.83	-43.4	-48.7	9.7	1.29e-02	0	62	0	634388480	57	6995
2026-01-23 10:22:11.06	230.08	71.04	-43.5	-49.0	9.2	1.27e-02	0	62	0	636485632	57	7267
2026-01-23 10:22:12.07	231.48	71.23	-43.7	-49.5	8.7	4.13e-02	0	62	0	638582784	58	7260
2026-01-23 10:22:13.08	232.91	71.42	-43.1	-47.8	10.5	1.36e-02	0	62	0	639631360	58	5930
2026-01-23 10:22:14.09	234.37	71.59	-42.7	-47.0	11.3	1.85e-03	0	62	0	641728512	57	5778
2026-01-23 10:22:15.09	235.85	71.76	-43.1	-47.9	10.3	3.81e-03	0	61	0	643825664	57	6414
2026-01-23 10:22:16.10	237.37	71.91	-42.7	-46.9	11.4	4.58e-03	0	62	0	645922816	57	5690
2026-01-23 10:22:17.11	238.91	72.05	-42.2	-45.9	12.4	2.31e-04	0	62	0	648019968	56	5356
2026-01-23 10:22:18.12	240.48	72.18	-42.4	-46.4	12.0	2.91e-04	0	61	0	649068544	56	5674
2026-01-23 10:22:19.13	242.07	72.29	-42.4	-46.6	11.7	6.22e-04	0	62	0	651165696	56	5842
2026-01-23 10:22:20.14	243.68	72.39	-42.3	-46.3	12.0	6.19e-04	0	62	0	653262848	56	5600
2026-01-23 10:22:21.15	245.32	72.48	-42.2	-45.9	12.5	1.38e-04	0	62	0	655360000	56	5400
2026-01-23 10:22:22.16	246.96	72.56	-41.8	-45.3	12.9	2.51e-05	0	62	0	657457152	55	5285
2026-01-23 10:22:23.17	248.62	72.62	-41.5	-45.0	13.2	3.43e-05	0	62	0	658505728	54	5410
2026-01-23 10:22:24.18	250.29	72.67	-42.0	-45.7	12.4	5.56e-05	0	62	0	660602880	54	5909
2026-01-23 10:22:25.19	251.97	72.70	-41.8	-45.3	13.0	7.17e-05	0	62	0	662700032	54	5609
2026-01-23 10:22:26.20	253.66	72.72	-41.8	-45.3	12.9	2.44e-05	0	62	0	664797184	54	5617
2026-01-23 10:22:27.21	255.35	72.73	-41.7	-45.0	13.2	3.20e-05	0	61	0	666894336	54	5462
2026-01-23 10:22:28.22	257.04	72.72	-41.3	-44.5	13.8	1.06e-05	0	61	0	667942912	54	5104
2026-01-23 10:22:29.23	258.72	72.70	-41.1	-44.1	14.2	1.50e-06	0	61	0	670040064	52	5476
2026-01-23 10:22:30.24	260.40	72.66	-41.2	-44.3	13.9	5.30e-06	0	62	0	672137216	53	5314
2026-01-23 10:22:31.24	262.05	72.61	-41.3	-44.4	13.8	4.50e-06	0	61	0	674234368	53	5369
2026-01-23 10:22:32.25	263.71	72.55	-41.5	-44.7	13.4	1.98e-05	0	62	0	676331520	53	5581
2026-01-23 10:22:33.26	265.36	72.47	-41.6	-45.1	13.1	2.05e-05	0	62	0	677380096	54	5507
2026-01-23 10:22:34.27	266.98	72.38	-42.2	-46.2	12.1	1.43e-04	0	61	0	679477248	54	6213
2026-01-23 10:22:35.28	268.59	72.28	-43.5	-49.0	9.3	7.10e-03	0	61	0	681574400	57	7262
2026-01-23 10:22:36.29	270.18	72.16	-44.0	-51.0	7.3	7.81e-02	0	62	0	683671552	58	8578
2026-01-23 10:22:37.30	271.74	72.03	-43.9	-50.5	7.7	9.30e-02	0	62	0	685768704	58	8100
2026-01-23 10:22:38.31	273.28	71.89	-43.5	-49.1	9.2	4.06e-02	0	61	0	686817280	57	7360
2026-01-23 10:22:39.32	274.80	71.73	-43.4	-48.8	9.2	1.22e-02	0	62	0	688914432	57	7100
2026-01-23 10:22:40.33	276.28	71.57	-43.7	-50.5	7.8	3.01e-02	0	62	0	691011584	58	8145
2026-01-23 10:22:41.35	277.75	71.39	-43.8	-50.1	8.1	7.17e-02	0	62	0	693108736	58	7775
2026-01-23 10:22:42.35	279.17	71.20	-43.7	-50.3	7.8	5.13e-02	0	61	0	695205888	58	7905
2026-01-23 10:22:43.37	280.58	71.00	-44.5	-53.8	5.1	1.93e-01	0	62	0	696254464	59	11248
2026-01-23 10:22:44.38	281.94	70.80	-44.5	-54.0	4.9	8.68e-01	0	62	0	698351616	60	10881
2026-01-23 10:22:45.39	283.27	70.58	-44.2	-51.9	6.2	4.53e-01	0	62	0	700448768	59	9059
2026-01-23 10:22:46.39	284.56	70.35	-44.6	-53.9	5.0	3.04e-01	0	62	0	702545920	59	11375
2026-01-23 10:22:47.40	285.83	70.12	-44.6	-53.6	5.2	7.74e-01	0	62	0	704643072	59	10906
2026-01-23 10:22:48.41	287.07	69.88	-44.2	-51.5	6.8	2.54e-01	0	62	0	706740224	59	8578
2026-01-23 10:22:49.42	288.27	69.63	-43.6	-49.8	8.2	6.75e-01	0	62	0	707788800	59	7053
2026-01-23 10:22:50.43	289.45	69.37	-44.9	-57.8	3.8	1.49e+00	0	62	104	708837376	60	16809
2026-01-23 10:22:51.44	290.59	69.10	-43.6	-49.1	8.6	7.55e-01	0	61	0	708837376	59	6552
2026-01-23 10:22:52.45	291.70	68.83	-43.6	-49.3	8.6	1.17e-01	0	62	0	710934528	59	6651
2026-01-23 10:22:53.46	292.78	68.55	-43.1	-48.0	10.3	3.81e-03	0	62	0	713031680	56	6830
2026-01-23 10:22:54.47	293.83	68.27	-42.9	-47.3	10.9	4.32e-03	0	62	0	714080256	57	5944
2026-01-23 10:22:55.48	294.85	67.98	-42.6	-46.8	11.7	1.77e-03	0	62	0	716177408	56	5924
2026-01-23 10:22:56.49	295.84	67.68	-42.0	-45.7	12.5	1.78e-04	0	62	0	718274560	55	5531
2026-01-23 10:22:57.50	296.80	67.38	-42.2	-46.0	12.2	7.93e-05	0	62	0	720371712	55	5741
2026-01-23 10:22:58.51	297.74	67.08	-42.7	-47.5	10.8	8.43e-04	0	62	0	722468864	56	6480
2026-01-23 10:22:59.51	298.64	66.77	-42.5	-46.5	11.9	2.00e-03	0	62	0	723517440	56	5779
2026-01-23 10:23:00.52	299.52	66.46	-42.2	-45.8	12.6	1.27e-04	0	62	0	725614592	56	5283
2026-01-23 10:23:01.53	300.38	66.15	-41.6	-44.9	13.3	1.52e-05	0	62	0	727711744	55	5081
2026-01-23 10:23:02.54	301.21	65.83	-41.0	-43.9	14.3	1.37e-05	0	62	0	729808896	53	5072
2026-01-23 10:23:03.55	302.02	65.50	-40.4	-42.9	15.5	0.00e+00	0	62	0	731906048	52	4780
2026-01-23 10:23:04.56	302.80	65.18	-40.4	-43.0	15.3	0.00e+00	0	62	0	732954624	52	4845
2026-01-23 10:23:05.57	303.57	64.85	-40.5	-43.2	15.1	0.00e+00	0	62	0	735051776	52	4932
2026-01-23 10:23:06.58	304.31	64.52	-40.8	-43.7	14.7	0.00e+00	0	62	0	737148928	52	5224
2026-01-23 10:23:07.59	305.03	64.19	-41.2	-44.2	14.1	0.00e+00	0	62	0	739246080	53	5258
2026-01-23 10:23:08.60	305.73	63.85	-40.8	-43.5	14.7	7.00e-07	0	61	0	741343232	53	4838
2026-01-23 10:23:09.61	306.41	63.52	-40.5	-43.1	15.3	0.00e+00	0	62	0	742391808	52	4888
2026-01-23 10:23:10.63	307.07	63.17	-40.4	-43.0	15.3	0.00e+00	0	62	0	744488960	52	4823
2026-01-23 10:23:11.63	307.71	62.84	-40.5	-43.1	15.1	0.00e+00	0	62	0	746586112	52	4900
2026-01-23 10:23:12.64	308.33	62.50	-39.8	-42.1	16.3	0.00e+00	0	62	0	748683264	51	4602
2026-01-23 10:23:13.65	308.94	62.16	-39.3	-41.4	16.9	0.00e+00	0	62	0	750780416	50	4512
2026-01-23 10:23:14.66	309.53	61.81	-39.0	-41.1	17.2	0.00e+00	0	62	0	752877568	50	4343
2026-01-23 10:23:15.67	310.10	61.47	-39.4	-41.6	16.7	0.00e+00	0	62	0	753926144	50	4604
2026-01-23 10:23:16.68	310.66	61.13	-40.2	-42.7	15.7	0.00e+00	0	61	0	756023296	50	5224
2026-01-23 10:23:17.69	311.21	60.78	-40.7	-43.4	14.9	0.00e+00	0	62	0	758120448	52	5084
2026-01-23 10:23:18.70	311.74	60.44	-40.3	-43.0	15.2	7.00e-07	0	62	0	760217600	52	4823
2026-01-23 10:23:19.71	312.25	60.09	-39.7	-42.1	16.2	0.00e+00	0	62	0	762314752	51	4618
2026-01-23 10:23:20.72	312.75	59.75	-40.1	-42.7	15.7	0.00e+00	0	61	0	763363328	51	4936
2026-01-23 10:23:21.73	313.24	59.40	-40.6	-43.5	14.7	0.00e+00	0	62	0	765460480	52	5141
2026-01-23 10:23:22.74	313.72	59.06	-40.8	-43.8	14.4	0.00e+00	0	62	0	767557632	52	5328
2026-01-23 10:23:23.75	314.18	58.71	-40.7	-43.7	14.4	7.00e-07	0	62	0	769654784	52	5261
2026-01-23 10:23:24.76	314.63	58.37	-41.0	-44.1	14.0	7.00e-07	0	62	0	771751936	52	5523
2026-01-23 10:23:25.77	315.07	58.03	-41.1	-44.3	13.9	1.50e-06	0	62	0	772800512	52	5621
2026-01-23 10:23:26.78	315.50	57.68	-40.6	-43.3	14.9	0.00e+00	0	62	0	774897664	52	5025
2026-01-23 10:23:27.78	315.91	57.34	-41.1	-44.1	14.1	0.00e+00	0	62	0	776994816	52	5517
2026-01-23 10:23:28.80	316.33	57.00	-41.7	-45.3	13.0	1.22e-05	0	61	0	779091968	53	5937
2026-01-23 10:23:29.80	316.72	56.66	-41.6	-45.1	13.2	7.40e-05	0	62	0	781189120	54	5482
2026-01-23 10:23:30.81	317.11	56.32	-41.1	-44.1	14.2	9.10e-06	0	62	0	782237696	54	4902
2026-01-23 10:23:31.82	317.49	55.98	-40.4	-43.0	15.3	0.00e+00	0	62	0	784334848	52	4816
2026-01-23 10:23:32.83	317.86	55.64	-40.5	-43.0	15.4	0.00e+00	0	62	0	786432000	52	4862
2026-01-23 10:23:33.84	318.22	55.30	-41.0	-43.9	14.4	0.00e+00	0	62	0	788529152	52	5378
2026-01-23 10:23:34.85	318.57	54.97	-41.5	-44.8	13.5	2.20e-06	0	62	0	790626304	53	5631
2026-01-23 10:23:35.86	318.92	54.63	-40.9	-43.7	14.6	1.50e-06	0	62	0	791674880	53	4952
2026-01-23 10:23:36.87	319.25	54.30	-40.4	-43.0	15.3	0.00e+00	0	62	0	793772032	52	4845
2026-01-23 10:23:37.88	319.58	53.96	-40.3	-42.8	15.4	0.00e+00	0	62	0	795869184	52	4748
2026-01-23 10:23:38.89	319.91	53.63	-40.3	-42.8	15.5	0.00e+00	0	62	0	797966336	52	4717
2026-01-23 10:23:39.90	320.22	53.30	-40.2	-42.6	15.7	0.00e+00	0	62	0	800063488	52	4634
2026-01-23 10:23:40.91	320.53	52.97	-40.2	-42.6	15.7	0.00e+00	0	62	0	801112064	52	4608
2026-01-23 10:23:41.92	320.83	52.65	-40.9	-43.8	14.6	0.00e+00	0	62	0	803209216	52	5280
2026-01-23 10:23:42.92	321.12	52.32	-41.1	-43.9	14.4	7.00e-07	0	62	0	805306368	52	5395
2026-01-23 10:23:43.94	321.41	51.99	-40.0	-42.3	16.1	0.00e+00	0	62	0	807403520	51	4731
2026-01-23 10:23:44.95	321.69	51.67	-39.4	-41.4	17.0	0.00e+00	0	62	0	809500672	50	4525
2026-01-23 10:23:45.96	321.97	51.35	-39.6	-41.6	16.8	0.00e+00	0	62	0	810549248	50	4648
2026-01-23 10:23:46.96	322.24	51.03	-40.4	-42.8	15.6	0.00e+00	0	62	0	812646400	51	5013
2026-01-23 10:23:47.97	322.50	50.71	-41.3	-44.3	14.1	7.00e-07	0	62	0	814743552	53	5283
2026-01-23 10:23:48.98	322.76	50.40	-41.5	-44.7	13.7	1.14e-05	0	62	0	816840704	54	5231
2026-01-23 10:23:49.99	323.01	50.08	-41.6	-44.8	13.5	9.10e-06	0	62	0	818937856	54	5332
2026-01-23 10:23:51.00	323.26	49.77	-41.3	-44.4	13.9	1.50e-06	0	62	0	821035008	54	5057
2026-01-23 10:23:52.01	323.51	49.45	-41.5	-44.6	13.6	1.22e-05	0	62	0	822083584	54	5204
2026-01-23 10:23:53.02	323.75	49.14	-42.1	-45.7	12.6	2.67e-05	0	62	0	824180736	54	5902
2026-01-23 10:23:54.03	323.98	48.83	-42.2	-45.8	12.5	1.07e-04	0	62	0	826277888	55	5625
2026-01-23 10:23:55.04	324.21	48.53	-42.0	-45.4	12.8	3.05e-05	0	62	0	828375040	55	5400
2026-01-23 10:23:56.05	324.43	48.22	-42.5	-46.4	11.8	9.38e-05	0	62	0	830472192	55	6057
2026-01-23 10:23:57.06	324.66	47.92	-43.4	-48.6	9.7	3.01e-03	0	62	0	831520768	57	6948
2026-01-23 10:23:58.07	324.87	47.61	-44.0	-50.5	7.9	3.56e-02	0	62	0	833617920	58	8088
2026-01-23 10:23:59.08	325.09	47.31	-43.8	-49.6	8.6	5.72e-02	0	62	0	835715072	58	7361
2026-01-23 10:24:00.09	325.29	47.01	-43.5	-48.7	9.5	2.48e-02	0	62	0	837812224	58	6642
2026-01-23 10:24:01.10	325.50	46.72	-43.2	-47.9	10.4	4.62e-03	0	62	0	839909376	58	6041
2026-01-23 10:24:02.11	325.70	46.42	-42.7	-46.7	11.6	6.65e-04	0	61	0	840957952	57	5562
2026-01-23 10:24:03.12	325.90	46.13	-42.2	-45.8	12.6	1.15e-04	0	62	0	843055104	56	5303
2026-01-23 10:24:04.13	326.09	45.84	-41.7	-45.0	13.3	2.67e-05	0	62	0	845152256	55	5125
2026-01-23 10:24:05.14	326.28	45.55	-42.0	-45.5	12.9	3.20e-05	0	62	0	847249408	55	5405
2026-01-23 10:24:06.15	326.47	45.26	-42.7	-47.0	11.2	8.95e-04	0	62	0	849346560	55	6472
2026-01-23 10:24:07.16	326.65	44.97	-43.6	-49.2	9.0	6.65e-03	0	62	0	850395136	57	7416
2026-01-23 10:24:08.17	326.83	44.69	-43.9	-50.3	8.0	2.55e-02	0	62	0	852492288	58	7947
2026-01-23 10:24:09.18	327.01	44.40	-43.2	-48.2	10.1	1.38e-02	0	62	0	854589440	58	6241
2026-01-23 10:24:10.18	327.18	44.13	-42.5	-46.5	11.9	2.19e-03	0	62	0	856686592	57	5440
2026-01-23 10:24:11.20	327.35	43.84	-41.5	-44.7	13.6	1.30e-04	0	62	0	858783744	55	4956
2026-01-23 10:24:12.20	327.52	43.57	-41.2	-44.2	14.1	1.50e-06	0	62	0	859832320	54	4927
2026-01-23 10:24:13.21	327.69	43.29	-41.1	-44.0	14.3	2.20e-06	0	62	0	861929472	54	4844
2026-01-23 10:24:14.22	327.85	43.02	-41.5	-44.6	13.7	2.20e-06	0	62	0	864026624	53	5515
2026-01-23 10:24:15.23	328.01	42.75	-42.1	-45.9	12.5	3.43e-05	0	62	0	866123776	54	5999
2026-01-23 10:24:16.24	328.17	42.48	-42.5	-46.5	11.7	3.77e-04	0	62	0	868220928	55	6124
2026-01-23 10:24:17.25	328.32	42.21	-42.4	-46.4	11.8	8.07e-04	0	62	0	869269504	55	6036
2026-01-23 10:24:18.26	328.47	41.94	-42.0	-45.7	12.5	1.86e-04	0	62	0	871366656	55	5563
2026-01-23 10:24:19.27	328.63	41.67	-41.4	-44.5	13.8	2.74e-05	0	62	0	873463808	54	5102
2026-01-23 10:24:20.28	328.77	41.41	-40.6	-43.1	15.1	0.00e+00	0	62	0	875560960	53	4647
2026-01-23 10:24:21.29	328.92	41.15	-40.2	-42.6	15.7	0.00e+00	0	62	0	877658112	52	4619
2026-01-23 10:24:22.30	329.06	40.89	-40.0	-42.3	16.0	0.00e+00	0	62	0	878706688	52	4464
2026-01-23 10:24:23.31	329.20	40.63	-40.3	-42.8	15.5	0.00e+00	0	62	0	880803840	52	4711
2026-01-23 10:24:24.32	329.34	40.37	-40.9	-43.6	14.7	0.00e+00	0	62	0	882900992	52	5178
2026-01-23 10:24:25.32	329.48	40.12	-42.2	-45.5	13.3	3.00e-06	0	62	0	884998144	54	5739
2026-01-23 10:24:26.33	329.61	39.86	-42.2	-45.9	12.4	6.71e-05	0	62	0	887095296	54	6036
2026-01-23 10:24:27.34	329.74	39.61	-42.5	-46.5	11.7	1.72e-04	0	62	0	888143872	55	6131
2026-01-23 10:24:28.35	329.87	39.36	-43.0	-47.6	10.8	2.06e-03	0	62	0	890241024	56	6561
2026-01-23 10:24:29.36	330.00	39.11	-42.7	-46.8	11.5	1.75e-03	0	62	0	892338176	56	5972
2026-01-23 10:24:30.37	330.13	38.87	-42.6	-46.6	11.8	4.75e-04	0	62	0	894435328	56	5834
2026-01-23 10:24:31.38	330.25	38.62	-42.6	-46.8	11.6	6.16e-04	0	62	0	896532480	56	5959
2026-01-23 10:24:32.39	330.38	38.38	-42.3	-46.2	12.3	3.10e-04	0	62	0	897581056	56	5538
2026-01-23 10:24:33.40	330.50	38.13	-42.4	-46.2	12.1	4.17e-04	0	62	0	899678208	56	5582
2026-01-23 10:24:34.41	330.62	37.89	-42.0	-45.5	12.9	7.78e-05	0	62	0	901775360	56	5111
2026-01-23 10:24:35.42	330.74	37.65	-41.3	-44.3	14.0	1.22e-05	0	62	0	903872512	54	4989
2026-01-23 10:24:36.43	330.85	37.42	-40.7	-43.4	14.9	0.00e+00	0	62	0	905969664	53	4788
2026-01-23 10:24:37.44	330.97	37.18	-40.8	-43.6	14.7	0.00e+00	0	62	0	907018240	53	4894
2026-01-23 10:24:38.45	331.08	36.95	-40.9	-43.7	14.6	1.50e-06	0	62	0	909115392	53	4960
2026-01-23 10:24:39.45	331.19	36.72	-41.3	-44.4	13.9	7.00e-07	0	62	0	911212544	53	5351
2026-01-23 10:24:40.46	331.30	36.49	-41.8	-45.1	13.1	1.14e-05	0	62	0	913309696	54	5510
2026-01-23 10:24:41.47	331.41	36.26	-42.2	-45.9	12.3	8.46e-05	0	62	0	915406848	54	6031
2026-01-23 10:24:42.48	331.52	36.03	-42.1	-45.8	12.4	1.61e-04	0	62	0	916455424	54	5953
2026-01-23 10:24:43.49	331.62	35.80	-42.2	-46.1	12.1	2.07e-04	0	62	0	918552576	55	5804
2026-01-23 10:24:44.50	331.73	35.58	-42.4	-46.5	11.7	6.66e-04	0	62	0	920649728	55	6103
2026-01-23 10:24:45.51	331.83	35.35	-42.3	-46.2	12.0	3.52e-04	0	62	0	922746880	55	5869
2026-01-23 10:24:46.52	331.93	35.13	-42.2	-46.0	12.1	2.48e-04	0	62	0	924844032	55	5785
2026-01-23 10:24:47.53	332.03	34.91	-42.3	-46.3	11.9	4.61e-04	0	62	0	926941184	55	5936
2026-01-23 10:24:48.54	332.13	34.69	-42.1	-45.9	12.3	2.01e-04	0	62	0	927989760	55	5706
2026-01-23 10:24:49.55	332.23	34.47	-42.3	-46.3	11.9	3.71e-04	0	62	0	930086912	55	5974
2026-01-23 10:24:50.56	332.32	34.26	-42.2	-46.0	12.1	3.29e-04	0	62	0	932184064	55	5782
2026-01-23 10:24:51.57	332.42	34.04	-42.5	-46.6	11.6	4.35e-04	0	62	0	934281216	55	6155
2026-01-23 10:24:52.58	332.51	33.83	-42.5	-46.6	11.5	4.96e-04	0	62	0	936378368	55	6200
2026-01-23 10:24:53.59	332.60	33.62	-43.0	-47.5	10.8	1.56e-03	0	62	0	937426944	56	6427
2026-01-23 10:24:54.60	332.70	33.41	-43.0	-47.5	10.7	2.87e-03	0	62	0	939524096	56	6480
2026-01-23 10:24:55.61	332.79	33.20	-43.1	-47.7	10.5	3.09e-03	0	62	0	941621248	56	6626
2026-01-23 10:24:56.62	332.88	32.99	-43.2	-48.1	10.1	7.37e-03	0	62	0	943718400	57	6495
2026-01-23 10:24:57.62	332.96	32.78	-42.9	-47.4	10.9	3.17e-03	0	62	0	945815552	57	6009
2026-01-23 10:24:58.63	333.05	32.58	-43.0	-47.7	10.6	2.83e-03	0	62	0	946864128	57	6255
2026-01-23 10:24:59.64	333.14	32.37	-43.0	-47.6	10.6	3.76e-03	0	62	0	948961280	57	6173
2026-01-23 10:25:00.65	333.22	32.17	-42.8	-47.1	11.2	2.17e-03	0	62	0	951058432	57	5804
2026-01-23 10:25:01.66	333.31	31.97	-42.9	-47.4	10.9	1.54e-03	0	62	0	953155584	57	6006
2026-01-23 10:25:02.67	333.39	31.77	-42.7	-46.9	11.3	8.59e-04	0	62	0	955252736	57	5716
2026-01-23 10:25:03.68	333.47	31.57	-42.5	-46.5	11.8	7.60e-04	0	62	0	956301312	57	5445
2026-01-23 10:25:04.69	333.55	31.37	-42.4	-46.4	11.9	4.97e-04	0	62	0	958398464	56	5661
2026-01-23 10:25:05.70	333.63	31.18	-42.5	-46.6	11.7	6.48e-04	0	62	0	960495616	56	5829
2026-01-23 10:25:06.71	333.71	30.98	-42.5	-46.6	11.7	6.95e-04	0	62	0	962592768	56	5792
2026-01-23 10:25:07.72	333.79	30.79	-42.4	-46.4	11.9	4.39e-04	0	62	0	964689920	56	5691
2026-01-23 10:25:08.73	333.87	30.60	-42.5	-46.6	11.7	5.67e-04	0	62	0	965738496	56	5841
2026-01-23 10:25:09.74	333.95	30.41	-42.4	-46.3	12.0	3.78e-04	0	62	0	967835648	56	5632
2026-01-23 10:25:10.75	334.02	30.22	-42.6	-46.7	11.5	7.51e-04	0	62	0	969932800	56	5923
2026-01-23 10:25:11.76	334.10	30.03	-42.6	-46.7	11.6	9.77e-04	0	62	0	972029952	56	5889
2026-01-23 10:25:12.77	334.17	29.84	-42.5	-46.5	11.7	6.23e-04	0	62	0	974127104	56	5782
2026-01-23 10:25:13.77	334.25	29.65	-42.6	-46.9	11.4	5.55e-04	0	62	0	975175680	56	5997
2026-01-23 10:25:14.78	334.32	29.47	-42.8	-47.2	11.0	1.61e-03	0	62	0	977272832	56	6246
2026-01-23 10:25:15.79	334.39	29.29	-42.8	-47.3	10.9	2.20e-03	0	62	0	979369984	56	6297
2026-01-23 10:25:16.80	334.46	29.10	-43.1	-48.0	10.2	4.77e-03	0	62	0	981467136	56	6878
2026-01-23 10:25:17.81	334.53	28.92	-43.5	-49.1	9.1	1.60e-02	0	62	0	983564288	57	7299
2026-01-23 10:25:18.82	334.60	28.74	-43.6	-49.4	8.7	2.33e-02	0	62	0	984612864	57	7617
2026-01-23 10:25:19.83	334.67	28.56	-43.8	-50.4	7.7	3.43e-02	0	62	0	986710016	58	8003
2026-01-23 10:25:20.84	334.74	28.38	-43.6	-49.7	8.4	5.84e-02	0	62	0	988807168	58	7379
2026-01-23 10:25:21.85	334.81	28.21	-43.5	-49.2	8.9	3.92e-02	0	62	0	990904320	58	7015
2026-01-23 10:25:22.86	334.87	28.03	-43.4	-48.9	9.2	2.54e-02	0	62	0	993001472	58	6773
2026-01-23 10:25:23.87	334.94	27.85	-43.2	-48.3	9.8	1.18e-02	0	62	0	995098624	58	6316
2026-01-23 10:25:24.88	335.00	27.68	-42.7	-47.1	10.9	4.63e-03	0	62	0	996147200	57	5809
2026-01-23 10:25:25.89	335.07	27.51	-42.5	-46.7	11.4	1.51e-03	0	62	0	998244352	57	5550
2026-01-23 10:25:26.90	335.13	27.34	-42.2	-46.0	12.2	3.83e-04	0	62	0	1000341504	56	5421
2026-01-23 10:25:27.91	335.20	27.16	-41.5	-44.9	13.2	9.30e-05	0	62	0	1002438656	55	5066
2026-01-23 10:25:28.92	335.26	26.99	-41.4	-44.7	13.3	2.05e-05	0	62	0	1004535808	54	5257
2026-01-23 10:25:29.93	335.32	26.83	-41.0	-44.0	14.0	3.80e-06	0	62	0	1005584384	54	4859
2026-01-23 10:25:30.94	335.38	26.66	-40.7	-43.5	14.5	0.00e+00	0	62	0	1007681536	53	4849
2026-01-23 10:25:31.95	335.44	26.49	-40.5	-43.3	14.8	0.00e+00	0	62	0	1009778688	53	4709
2026-01-23 10:25:32.95	335.50	26.33	-40.5	-43.1	14.8	0.00e+00	0	62	0	1011875840	53	4640
2026-01-23 10:25:33.96	335.56	26.16	-40.5	-43.3	14.8	7.00e-07	0	62	0	1013972992	52	4990
2026-01-23 10:25:34.97	335.62	26.00	-40.7	-43.5	14.5	7.00e-07	0	62	0	1015021568	52	5153
2026-01-23 10:25:35.98	335.68	25.84	-40.8	-43.7	14.4	7.00e-07	0	62	0	1017118720	52	5220
2026-01-23 10:25:36.99	335.74	25.67	-41.2	-44.4	13.6	1.50e-06	0	62	0	1019215872	52	5680
2026-01-23 10:25:38.00	335.80	25.51	-41.4	-44.7	13.2	1.44e-05	0	62	0	1021313024	53	5585
2026-01-23 10:25:39.01	335.85	25.35	-41.5	-44.9	13.1	2.89e-05	0	62	0	1023410176	53	5700
2026-01-23 10:25:40.02	335.91	25.19	-41.7	-45.3	12.7	7.47e-05	0	62	0	1024458752	53	5937
2026-01-23 10:25:41.02	335.97	25.04	-41.9	-45.6	12.3	1.56e-04	0	62	0	1026555904	54	5850
2026-01-23 10:25:42.03	336.02	24.88	-41.8	-45.6	12.3	1.82e-04	0	62	0	1028653056	54	5829
2026-01-23 10:25:43.04	336.08	24.72	-41.7	-45.4	12.5	1.28e-04	0	62	0	1030750208	54	5717
2026-01-23 10:25:44.05	336.13	24.57	-41.7	-45.3	12.6	9.61e-05	0	62	0	1032847360	54	5619
2026-01-23 10:25:45.06	336.19	24.41	-41.6	-45.3	12.6	9.38e-05	0	62	0	1033895936	54	5608
2026-01-23 10:25:46.07	336.24	24.26	-41.4	-44.9	13.0	4.73e-05	0	62	0	1035993088	54	5351
2026-01-23 10:25:47.08	336.29	24.11	-41.4	-44.8	13.1	3.43e-05	0	62	0	1038090240	54	5298
2026-01-23 10:25:48.09	336.34	23.96	-41.4	-44.8	13.1	3.43e-05	0	62	0	1040187392	54	5296
2026-01-23 10:25:49.10	336.40	23.81	-41.2	-44.5	13.3	1.06e-05	0	62	0	1042284544	54	5116
2026-01-23 10:25:50.11	336.45	23.65	-41.1	-44.4	13.5	4.50e-06	0	62	0	1043333120	54	5048
2026-01-23 10:25:51.12	336.50	23.51	-41.0	-44.3	13.6	8.30e-06	0	62	0	1045430272	54	4986
2026-01-23 10:25:52.13	336.55	23.36	-40.9	-44.1	13.7	4.50e-06	0	62	0	1047527424	53	5189
2026-01-23 10:25:53.14	336.60	23.21	-40.9	-44.0	13.8	3.80e-06	0	62	0	1049624576	53	5131
2026-01-23 10:25:54.15	336.65	23.06	-40.8	-43.8	13.9	3.00e-06	0	62	0	1051721728	53	5020
2026-01-23 10:25:55.16	336.70	22.92	-40.9	-44.0	13.7	4.50e-06	0	62	0	1052770304	53	5154
2026-01-23 10:25:56.16	336.75	22.77	-40.8	-43.9	13.8	6.10e-06	0	62	0	1054867456	53	5075
2026-01-23 10:25:57.17	336.80	22.63	-40.8	-43.9	13.8	5.30e-06	0	62	0	1056964608	53	5058
2026-01-23 10:25:58.18	336.85	22.49	-40.6	-43.6	14.1	6.10e-06	0	62	0	1059061760	53	4903
2026-01-23 10:25:59.19	336.89	22.34	-40.8	-43.9	13.8	1.50e-06	0	62	0	1061158912	53	5078
2026-01-23 10:26:00.20	336.94	22.20	-40.5	-43.5	14.2	1.50e-06	0	62	0	1063256064	53	4847
2026-01-23 10:26:01.21	336.99	22.06	-40.6	-43.7	14.0	2.20e-06	0	62	0	1064304640	53	4929
2026-01-23 10:26:02.22	337.03	21.92	-40.6	-43.7	14.0	3.80e-06	0	62	0	1066401792	53	4945
2026-01-23 10:26:03.23	337.08	21.78	-40.8	-44.0	13.6	4.50e-06	0	62	0	1068498944	53	5109
2026-01-23 10:26:04.24	337.13	21.64	-40.8	-44.0	13.5	5.30e-06	0	62	0	1070596096	53	5139
2026-01-23 10:26:05.25	337.17	21.50	-41.1	-44.5	13.0	1.44e-05	0	62	0	1072693248	53	5459
2026-01-23 10:26:06.26	337.22	21.36	-41.1	-44.7	12.8	5.64e-05	0	62	0	1073741824	53	5537
2026-01-23 10:26:07.27	337.26	21.23	-41.2	-44.8	12.6	6.94e-05	0	62	0	1075838976	53	5624
2026-01-23 10:26:08.28	337.31	21.09	-41.1	-44.7	12.7	8.08e-05	0	62	0	1077936128	53	5568
2026-01-23 10:26:09.29	337.35	20.96	-41.3	-45.0	12.3	1.42e-04	0	62	0	1080033280	53	5780
2026-01-23 10:26:10.30	337.39	20.82	-41.2	-45.0	12.3	1.81e-04	0	62	0	1081081856	53	5749
2026-01-23 10:26:11.31	337.44	20.69	-41.3	-45.2	12.1	2.15e-04	0	62	0	1083179008	53	5868
2026-01-23 10:26:12.32	337.48	20.56	-41.4	-45.4	11.7	5.55e-04	0	62	0	1085276160	53	6018
2026-01-23 10:26:13.33	337.52	20.42	-41.2	-45.1	12.0	5.59e-04	0	62	0	1087373312	53	5850
2026-01-23 10:26:14.34	337.57	20.29	-41.2	-45.1	11.9	3.13e-04	0	62	0	1089470464	53	5838
2026-01-23 10:26:15.35	337.61	20.16	-41.1	-44.9	12.1	3.09e-04	0	62	0	1091567616	53	5715
2026-01-23 10:26:16.36	337.65	20.03	-40.9	-44.6	12.4	1.78e-04	0	62	0	1092616192	53	5496
2026-01-23 10:26:17.36	337.69	19.90	-40.8	-44.3	12.7	8.31e-05	0	62	0	1094713344	53	5315
2026-01-23 10:26:18.37	337.73	19.77	-40.5	-43.9	13.1	5.95e-05	0	62	0	1096810496	53	5078
2026-01-23 10:26:19.38	337.77	19.64	-40.5	-43.8	13.1	3.12e-05	0	62	0	1098907648	52	5339
2026-01-23 10:26:20.39	337.81	19.52	-40.2	-43.5	13.4	2.28e-05	0	62	0	1101004800	52	5102
2026-01-23 10:26:21.40	337.85	19.39	-40.1	-43.3	13.6	1.06e-05	0	62	0	1102053376	52	4988
2026-01-23 10:26:22.41	337.89	19.26	-40.0	-43.2	13.6	8.30e-06	0	62	0	1104150528	52	4952
2026-01-23 10:26:23.42	337.93	19.14	-40.1	-43.2	13.7	5.30e-06	0	62	0	1106247680	51	5246
2026-01-23 10:26:24.43	337.97	19.01	-40.0	-43.2	13.6	6.80e-06	0	62	0	1108344832	51	5232
2026-01-23 10:26:25.44	338.01	18.89	-40.0	-43.2	13.6	5.30e-06	0	62	0	1110441984	51	5256
2026-01-23 10:26:26.45	338.05	18.76	-40.0	-43.2	13.6	1.14e-05	0	62	0	1111490560	51	5255
2026-01-23 10:26:27.46	338.09	18.64	-40.2	-43.4	13.3	2.05e-05	0	62	0	1113587712	51	5397
2026-01-23 10:26:28.47	338.13	18.52	-40.2	-43.5	13.2	1.75e-05	0	62	0	1115684864	51	5438
2026-01-23 10:26:29.48	338.16	18.39	-40.3	-43.7	13.0	3.66e-05	0	62	0	1117782016	51	5569
2026-01-23 10:26:30.49	338.20	18.27	-40.3	-43.8	12.8	5.64e-05	0	62	0	1119879168	51	5626
2026-01-23 10:26:31.50	338.24	18.15	-40.4	-43.9	12.8	9.15e-05	0	62	0	1120927744	51	5676
2026-01-23 10:26:32.51	338.28	18.03	-40.5	-44.1	12.5	9.61e-05	0	62	0	1123024896	51	5805
2026-01-23 10:26:33.52	338.31	17.91	-40.5	-44.2	12.4	1.51e-04	0	62	0	1125122048	51	5887
2026-01-23 10:26:34.52	338.35	17.79	-40.6	-44.3	12.2	1.97e-04	0	62	0	1127219200	51	5959
2026-01-23 10:26:35.53	338.38	17.67	-40.5	-44.3	12.2	2.19e-04	0	62	0	1129316352	51	5937
2026-01-23 10:26:36.54	338.42	17.56	-40.5	-44.2	12.2	1.75e-04	0	62	0	1130364928	51	5915
2026-01-23 10:26:37.55	338.46	17.44	-40.6	-44.5	11.9	2.39e-04	0	62	0	1132462080	51	6119
2026-01-23 10:26:38.56	338.49	17.32	-40.3	-44.0	12.3	2.04e-04	0	62	0	1134559232	51	5780
2026-01-23 10:26:39.58	338.53	17.20	-40.4	-44.3	12.0	1.81e-04	0	62	0	1136656384	51	5938
2026-01-23 10:26:40.59	338.56	17.09	-40.5	-44.4	11.9	3.63e-04	0	62	0	1138753536	51	6058
2026-01-23 10:26:41.59	338.60	16.97	-40.3	-44.1	12.1	3.21e-04	0	62	0	1139802112	51	5855
2026-01-23 10:26:42.60	338.63	16.86	-40.4	-44.3	11.9	3.89e-04	0	62	0	1141899264	51	5959
2026-01-23 10:26:43.61	338.67	16.75	-40.5	-44.7	11.5	7.84e-04	0	62	0	1143996416	51	6213
2026-01-23 10:26:44.62	338.70	16.63	-40.6	-44.8	11.3	1.04e-03	0	62	0	1146093568	51	6309
2026-01-23 10:26:45.63	338.73	16.52	-40.6	-44.9	11.0	1.26e-03	0	62	0	1148190720	51	6407
2026-01-23 10:26:46.64	338.77	16.41	-40.7	-45.1	10.9	1.93e-03	0	62	0	1149239296	51	6551
2026-01-23 10:26:47.65	338.80	16.29	-40.7	-45.3	10.5	3.32e-03	0	62	0	1151336448	52	6337
2026-01-23 10:26:48.66	338.84	16.18	-40.7	-45.5	10.3	4.66e-03	0	62	0	1153433600	52	6492
2026-01-23 10:26:49.67	338.87	16.07	-40.8	-45.9	9.8	6.74e-03	0	62	0	1155530752	52	6771
2026-01-23 10:26:50.68	338.90	15.96	-40.9	-46.2	9.5	1.18e-02	0	62	0	1157627904	52	7036
2026-01-23 10:26:51.69	338.93	15.85	-41.0	-46.5	9.2	2.07e-02	0	62	0	1159725056	52	7225
2026-01-23 10:26:52.70	338.97	15.74	-41.1	-46.8	8.9	2.57e-02	0	62	0	1160773632	52	7487
2026-01-23 10:26:53.71	339.00	15.63	-41.3	-47.4	8.2	3.96e-02	0	62	0	1162870784	53	7577
2026-01-23 10:26:54.72	339.03	15.52	-41.3	-47.5	8.0	6.10e-02	0	62	0	1164967936	53	7666
