passes_logs/2026/01/23/R2.0S_Moscow/R2.0S_Moscow__20260123_224612_NOAA_20_JPSS-1_rec.log

#Pass ID: 20260123_224612_NOAA 20 (JPSS-1)
#Satellite: NOAA 20 (JPSS-1)
#Configuration: NOAA 20
#almurnet v.1.7.20251203
#Start time: 2026-01-23 22:46:12

#Version: 2.2.20231116
#Station: R2.0S_Moscow
#Location: 37.707566 lon 55.798166 lat
#TLE: 1 43013U 17073A   26022.94240312  .00000200  00000+0  11574-3 0  9998
#TLE: 2 43013  98.7645 323.7982 0001179  28.0279 332.0961 14.19539020423863

#Time	Az	El	Level	Level2	SNR	BER	BlckErr	Temp	State	Recorded	gain1	gain2
2026-01-23 22:46:12.55	20.93	2.03	-42.4	-56.9	3.8	1.49e+00	0	52	0	0	56	19045
2026-01-23 22:46:13.55	20.98	2.09	-42.4	-56.9	3.8	1.49e+00	0	53	104	0	56	18967
2026-01-23 22:46:14.56	21.02	2.15	-42.4	-56.9	3.8	1.49e+00	0	53	104	0	56	19052
2026-01-23 22:46:15.57	21.07	2.22	-42.4	-56.9	3.8	1.49e+00	0	53	104	0	56	18962
2026-01-23 22:46:16.58	21.11	2.28	-42.4	-56.9	3.8	1.49e+00	0	53	104	0	56	19021
2026-01-23 22:46:17.60	21.16	2.34	-42.4	-56.9	3.8	1.49e+00	0	53	104	0	56	18949
2026-01-23 22:46:18.61	21.21	2.40	-42.4	-56.9	3.8	1.49e+00	0	53	104	0	56	18983
2026-01-23 22:46:19.62	21.25	2.46	-42.4	-56.9	3.8	1.49e+00	0	53	104	0	56	19046
2026-01-23 22:46:20.63	21.30	2.52	-42.4	-56.9	3.8	1.49e+00	0	53	104	0	56	19041
2026-01-23 22:46:21.64	21.34	2.59	-42.4	-56.9	3.8	1.49e+00	0	53	104	0	56	19008
2026-01-23 22:46:22.65	21.39	2.65	-42.4	-56.9	3.8	1.49e+00	0	53	104	0	56	18989
2026-01-23 22:46:23.66	21.44	2.71	-42.4	-56.9	3.8	1.49e+00	0	53	104	0	56	18992
2026-01-23 22:46:24.67	21.48	2.77	-42.4	-56.9	3.8	1.49e+00	0	53	104	0	56	18997
2026-01-23 22:46:25.68	21.53	2.84	-42.4	-56.9	3.8	1.49e+00	0	53	104	0	56	18984
2026-01-23 22:46:26.69	21.58	2.90	-42.4	-56.9	3.8	1.49e+00	0	53	104	0	56	19003
2026-01-23 22:46:27.70	21.63	2.96	-42.4	-56.9	3.8	1.49e+00	0	53	104	0	56	19034
2026-01-23 22:46:28.71	21.67	3.02	-42.4	-56.9	3.8	1.49e+00	0	54	104	0	56	18999
2026-01-23 22:46:29.72	21.72	3.09	-42.4	-56.9	3.8	1.49e+00	0	54	104	0	56	18979
2026-01-23 22:46:30.73	21.77	3.15	-42.4	-56.9	3.8	1.49e+00	0	54	104	0	56	19021
2026-01-23 22:46:31.74	21.82	3.21	-42.4	-56.9	3.8	1.49e+00	0	54	104	0	56	18974
2026-01-23 22:46:32.75	21.87	3.28	-42.4	-56.9	3.8	1.49e+00	0	54	104	0	56	18982
2026-01-23 22:46:33.77	21.91	3.34	-42.4	-56.9	3.8	1.49e+00	0	54	104	0	56	19002
2026-01-23 22:46:34.78	21.96	3.40	-42.4	-56.9	3.8	1.49e+00	0	54	104	0	56	18999
2026-01-23 22:46:35.79	22.01	3.47	-42.4	-56.9	3.8	1.49e+00	0	54	104	0	56	18982
2026-01-23 22:46:36.80	22.06	3.53	-42.4	-56.9	3.8	1.49e+00	0	54	104	0	56	18970
2026-01-23 22:46:37.81	22.11	3.60	-42.3	-56.9	3.8	1.49e+00	0	54	104	0	56	18989
2026-01-23 22:46:38.82	22.16	3.66	-42.4	-56.9	3.8	1.49e+00	0	54	104	0	56	18983
2026-01-23 22:46:39.83	22.21	3.72	-42.3	-56.8	3.8	1.49e+00	0	55	104	0	56	18937
2026-01-23 22:46:40.84	22.26	3.79	-42.4	-56.9	3.8	1.49e+00	0	54	104	0	56	19017
2026-01-23 22:46:41.85	22.31	3.85	-42.3	-56.9	3.8	1.49e+00	0	54	104	0	56	18993
2026-01-23 22:46:42.86	22.36	3.92	-42.4	-56.9	3.8	1.49e+00	0	55	104	0	56	18994
2026-01-23 22:46:43.87	22.41	3.98	-42.4	-56.9	3.8	1.49e+00	0	55	104	0	56	18974
2026-01-23 22:46:44.88	22.46	4.05	-42.4	-56.9	3.8	1.49e+00	0	55	104	0	56	18964
2026-01-23 22:46:45.89	22.51	4.11	-42.4	-56.9	3.8	1.49e+00	0	55	104	0	56	18978
2026-01-23 22:46:46.90	22.56	4.18	-42.4	-56.9	3.8	1.49e+00	0	55	104	0	56	18965
2026-01-23 22:46:47.91	22.61	4.24	-42.4	-56.9	3.8	1.49e+00	0	55	104	0	56	19016
2026-01-23 22:46:48.92	22.67	4.31	-42.3	-56.9	3.8	1.49e+00	0	55	104	0	56	18967
2026-01-23 22:46:49.93	22.72	4.37	-42.3	-56.9	3.8	1.49e+00	0	55	104	0	56	18963
2026-01-23 22:46:50.94	22.77	4.44	-42.4	-56.9	3.8	1.49e+00	0	55	104	0	56	18959
2026-01-23 22:46:51.95	22.82	4.51	-42.4	-56.9	3.8	1.49e+00	0	55	104	0	56	18986
2026-01-23 22:46:52.96	22.87	4.57	-42.4	-56.9	3.8	1.49e+00	0	55	104	0	56	18974
2026-01-23 22:46:53.97	22.93	4.64	-42.4	-56.9	3.8	1.49e+00	0	55	104	0	56	18968
2026-01-23 22:46:54.98	22.98	4.71	-42.4	-56.9	3.8	1.49e+00	0	55	104	0	56	18969
2026-01-23 22:46:55.99	23.03	4.77	-42.4	-56.9	3.8	1.49e+00	0	55	104	0	56	18968
2026-01-23 22:46:57.00	23.08	4.84	-42.4	-56.9	3.8	1.49e+00	0	55	104	0	56	18964
2026-01-23 22:46:58.01	23.14	4.91	-42.4	-56.8	3.8	1.49e+00	0	55	104	0	56	18937
2026-01-23 22:46:59.02	23.19	4.97	-42.4	-56.9	3.8	1.49e+00	0	55	104	0	56	18966
2026-01-23 22:47:00.03	23.25	5.04	-42.3	-56.9	3.8	1.49e+00	0	55	104	0	56	18992
2026-01-23 22:47:01.04	23.30	5.11	-42.3	-56.8	3.8	1.49e+00	0	56	104	0	56	18911
2026-01-23 22:47:02.06	23.35	5.18	-42.3	-56.9	3.8	1.49e+00	0	55	104	0	56	19029
2026-01-23 22:47:03.07	23.41	5.24	-42.3	-56.9	3.8	1.49e+00	0	56	104	0	56	19003
2026-01-23 22:47:04.08	23.46	5.31	-42.3	-56.9	3.8	1.49e+00	0	56	104	0	56	19020
2026-01-23 22:47:05.09	23.52	5.38	-42.3	-56.9	3.8	1.49e+00	0	56	104	0	56	19029
2026-01-23 22:47:06.10	23.57	5.45	-42.3	-56.9	3.8	1.49e+00	0	56	104	0	56	18993
2026-01-23 22:47:07.11	23.63	5.51	-42.3	-56.9	3.8	1.49e+00	0	56	104	0	56	18972
2026-01-23 22:47:08.12	23.68	5.58	-42.3	-56.8	3.8	1.49e+00	0	56	104	0	56	18945
2026-01-23 22:47:09.13	23.74	5.65	-42.3	-56.8	3.8	1.49e+00	0	56	104	0	56	18908
2026-01-23 22:47:10.14	23.80	5.72	-42.3	-56.9	3.8	1.49e+00	0	56	104	0	56	18965
2026-01-23 22:47:11.15	23.85	5.79	-42.3	-56.8	3.8	1.49e+00	0	56	104	0	56	18928
2026-01-23 22:47:12.16	23.91	5.86	-42.3	-56.8	3.8	1.49e+00	0	56	104	0	56	18941
2026-01-23 22:47:13.17	23.97	5.93	-42.3	-56.8	3.8	1.49e+00	0	56	104	0	56	18947
2026-01-23 22:47:14.18	24.02	6.00	-42.3	-56.9	3.8	1.49e+00	0	56	104	0	56	18968
2026-01-23 22:47:15.19	24.08	6.07	-42.3	-56.8	3.8	1.49e+00	0	56	104	0	56	18940
2026-01-23 22:47:16.20	24.14	6.14	-42.3	-56.9	3.8	1.49e+00	0	56	104	0	56	18955
2026-01-23 22:47:17.21	24.20	6.21	-42.3	-56.8	3.8	1.49e+00	0	56	104	0	56	18894
2026-01-23 22:47:18.22	24.26	6.28	-42.3	-56.9	3.8	1.49e+00	0	56	104	0	56	18992
2026-01-23 22:47:19.23	24.31	6.35	-42.4	-56.9	3.8	1.49e+00	0	56	104	0	56	19002
2026-01-23 22:47:20.25	24.37	6.42	-42.3	-56.9	3.8	1.49e+00	0	56	104	0	56	18970
2026-01-23 22:47:21.26	24.43	6.49	-42.3	-56.8	3.8	1.49e+00	0	56	104	0	56	18946
2026-01-23 22:47:22.27	24.49	6.56	-42.3	-56.9	3.8	1.49e+00	0	56	104	0	56	18950
2026-01-23 22:47:23.28	24.55	6.63	-42.4	-56.8	3.8	1.49e+00	0	56	104	0	56	18925
2026-01-23 22:47:24.29	24.61	6.70	-42.3	-56.9	3.8	1.49e+00	0	57	104	0	56	18988
2026-01-23 22:47:25.30	24.67	6.77	-42.3	-56.9	3.8	1.49e+00	0	56	104	0	56	18967
2026-01-23 22:47:26.31	24.73	6.84	-42.3	-56.8	3.8	1.49e+00	0	57	104	0	56	18887
2026-01-23 22:47:27.32	24.79	6.91	-42.3	-56.8	3.8	1.49e+00	0	56	104	0	56	18849
2026-01-23 22:47:28.33	24.85	6.99	-42.4	-56.8	3.8	1.49e+00	0	57	104	0	56	18759
2026-01-23 22:47:29.34	24.91	7.06	-42.4	-56.7	3.8	1.49e+00	0	57	104	0	56	18704
2026-01-23 22:47:30.35	24.97	7.13	-42.3	-56.7	3.8	1.49e+00	0	57	104	0	56	18518
2026-01-23 22:47:31.36	25.04	7.20	-42.3	-56.6	3.8	1.49e+00	0	57	104	0	56	18438
2026-01-23 22:47:32.37	25.10	7.28	-42.3	-56.4	3.8	1.49e+00	0	57	104	0	56	17997
2026-01-23 22:47:33.38	25.16	7.35	-42.3	-56.0	3.8	1.49e+00	0	57	104	0	56	17218
2026-01-23 22:47:34.39	25.22	7.42	-42.3	-55.5	3.8	1.49e+00	0	57	104	0	56	16145
2026-01-23 22:47:35.41	25.29	7.49	-42.2	-54.8	3.8	1.49e+00	0	57	104	0	56	15022
2026-01-23 22:47:36.41	25.35	7.57	-42.2	-54.3	3.8	1.48e+00	0	57	104	0	56	14109
2026-01-23 22:47:37.42	25.41	7.64	-42.1	-53.4	4.2	1.45e+00	0	57	0	0	56	12705
2026-01-23 22:47:38.43	25.48	7.71	-42.0	-52.1	4.6	1.07e+00	0	57	0	1048576	56	11000
2026-01-23 22:47:39.44	25.54	7.79	-41.7	-50.7	5.2	7.22e-01	0	57	0	2097152	55	9862
2026-01-23 22:47:40.46	25.61	7.86	-41.5	-49.7	5.9	4.68e-01	0	57	0	4194304	55	8805
2026-01-23 22:47:41.47	25.67	7.94	-41.4	-48.8	6.6	2.42e-01	0	57	0	6291456	54	8454
2026-01-23 22:47:42.47	25.73	8.01	-41.2	-48.1	7.3	1.54e-01	0	57	0	8388608	54	7777
2026-01-23 22:47:43.48	25.80	8.08	-41.2	-47.4	8.1	1.05e-01	0	57	0	10485760	54	7202
2026-01-23 22:47:44.49	25.87	8.16	-41.5	-49.3	6.4	7.95e-02	0	57	0	11534336	54	8932
2026-01-23 22:47:45.50	25.93	8.23	-41.6	-49.8	5.4	1.49e+00	0	57	104	12582912	54	9465
2026-01-23 22:47:46.51	26.00	8.31	-42.2	-49.2	7.2	1.59e-01	0	57	0	13631488	55	8307
2026-01-23 22:47:47.52	26.06	8.38	-41.8	-48.1	8.2	1.31e-01	0	57	0	15728640	55	7329
2026-01-23 22:47:48.53	26.13	8.46	-42.0	-50.0	6.0	1.06e+00	0	57	0	17825792	55	9076
2026-01-23 22:47:49.54	26.20	8.54	-41.8	-48.1	8.1	5.91e-02	0	57	0	18874368	55	7349
2026-01-23 22:47:50.55	26.27	8.61	-41.8	-48.0	8.3	6.15e-02	0	57	0	20971520	55	7210
2026-01-23 22:47:51.56	26.33	8.69	-41.8	-47.8	8.4	4.92e-02	0	57	0	23068672	55	7117
2026-01-23 22:47:52.57	26.40	8.76	-41.7	-47.6	8.6	4.47e-02	0	57	0	25165824	55	6937
2026-01-23 22:47:53.58	26.47	8.84	-41.8	-47.7	8.6	3.89e-02	0	57	0	27262976	55	7027
2026-01-23 22:47:54.59	26.54	8.92	-41.8	-47.7	8.6	4.01e-02	0	57	0	28311552	55	6984
2026-01-23 22:47:55.60	26.61	8.99	-41.7	-47.4	9.0	2.88e-02	0	58	0	30408704	55	6730
2026-01-23 22:47:56.61	26.68	9.07	-41.7	-47.3	9.0	2.51e-02	0	57	0	32505856	55	6692
2026-01-23 22:47:57.62	26.75	9.15	-41.8	-47.6	8.8	3.08e-02	0	58	0	34603008	55	6888
2026-01-23 22:47:58.63	26.82	9.23	-41.8	-47.4	9.1	2.35e-02	0	58	0	36700160	55	6752
2026-01-23 22:47:59.64	26.89	9.30	-41.8	-47.5	8.9	2.34e-02	0	57	0	37748736	55	6852
2026-01-23 22:48:00.64	26.96	9.38	-41.9	-47.6	9.0	2.76e-02	0	58	0	39845888	55	6895
2026-01-23 22:48:01.65	27.03	9.46	-41.9	-47.3	9.3	2.03e-02	0	58	0	41943040	55	6717
2026-01-23 22:48:02.66	27.10	9.54	-41.9	-47.5	9.1	2.14e-02	0	58	0	44040192	55	6846
2026-01-23 22:48:03.67	27.17	9.62	-41.8	-47.3	9.3	2.20e-02	0	58	0	46137344	55	6701
2026-01-23 22:48:04.68	27.24	9.69	-41.9	-47.4	9.3	1.83e-02	0	58	0	47185920	55	6728
2026-01-23 22:48:05.69	27.32	9.77	-41.8	-47.1	9.7	1.51e-02	0	58	0	49283072	55	6506
2026-01-23 22:48:06.70	27.39	9.85	-41.8	-47.0	9.9	9.92e-03	0	58	0	51380224	55	6423
2026-01-23 22:48:07.71	27.46	9.93	-41.8	-46.7	10.2	7.46e-03	0	58	0	53477376	55	6271
2026-01-23 22:48:08.72	27.54	10.01	-41.8	-46.8	10.1	6.35e-03	0	58	0	55574528	55	6286
2026-01-23 22:48:09.73	27.61	10.09	-41.8	-46.7	10.3	5.96e-03	0	58	0	56623104	55	6240
2026-01-23 22:48:10.74	27.69	10.17	-41.8	-46.7	10.3	5.07e-03	0	58	0	58720256	55	6255
2026-01-23 22:48:11.75	27.76	10.25	-41.8	-46.7	10.3	4.68e-03	0	58	0	60817408	55	6248
2026-01-23 22:48:12.76	27.84	10.33	-41.9	-46.7	10.4	4.84e-03	0	58	0	62914560	55	6252
2026-01-23 22:48:13.77	27.91	10.41	-41.8	-46.6	10.5	4.18e-03	0	58	0	65011712	55	6193
2026-01-23 22:48:14.78	27.99	10.49	-41.8	-46.5	10.6	3.94e-03	0	58	0	66060288	55	6078
2026-01-23 22:48:15.79	28.06	10.58	-41.7	-46.5	10.6	3.30e-03	0	58	0	68157440	55	6065
2026-01-23 22:48:16.80	28.14	10.66	-41.7	-46.4	10.8	3.13e-03	0	58	0	70254592	55	6007
2026-01-23 22:48:17.81	28.22	10.74	-41.8	-46.4	10.8	2.65e-03	0	58	0	72351744	55	6026
2026-01-23 22:48:18.82	28.30	10.82	-41.8	-46.5	10.7	2.71e-03	0	58	0	74448896	55	6095
2026-01-23 22:48:19.83	28.37	10.90	-41.8	-46.3	10.9	2.91e-03	0	58	0	75497472	55	5983
2026-01-23 22:48:20.83	28.45	10.98	-41.8	-46.4	10.8	2.28e-03	0	58	0	77594624	55	6007
2026-01-23 22:48:21.84	28.53	11.07	-41.8	-46.4	10.8	2.43e-03	0	58	0	79691776	55	6039
2026-01-23 22:48:22.85	28.61	11.15	-41.8	-46.3	11.0	2.11e-03	0	59	0	81788928	55	5942
2026-01-23 22:48:23.86	28.69	11.23	-41.8	-46.3	11.0	2.07e-03	0	58	0	83886080	55	5946
2026-01-23 22:48:24.87	28.77	11.32	-41.8	-46.3	10.9	2.17e-03	0	58	0	85983232	55	5975
2026-01-23 22:48:25.88	28.85	11.40	-41.7	-46.2	11.1	1.82e-03	0	58	0	87031808	55	5871
2026-01-23 22:48:26.89	28.93	11.48	-41.8	-46.3	11.0	1.58e-03	0	58	0	89128960	55	5941
2026-01-23 22:48:27.90	29.01	11.57	-41.7	-46.2	11.1	1.84e-03	0	59	0	91226112	55	5894
2026-01-23 22:48:28.91	29.10	11.65	-41.8	-46.3	11.0	1.59e-03	0	59	0	93323264	55	5957
2026-01-23 22:48:29.92	29.18	11.74	-41.8	-46.2	11.1	1.72e-03	0	59	0	95420416	55	5914
2026-01-23 22:48:30.93	29.26	11.82	-41.8	-46.4	11.0	1.78e-03	0	59	0	96468992	55	6005
2026-01-23 22:48:31.93	29.34	11.90	-41.8	-46.4	10.9	2.14e-03	0	59	0	98566144	55	6020
2026-01-23 22:48:32.94	29.43	11.99	-41.8	-46.4	10.9	1.98e-03	0	59	0	100663296	55	6012
2026-01-23 22:48:33.95	29.51	12.07	-41.7	-46.1	11.2	1.57e-03	0	59	0	102760448	55	5830
2026-01-23 22:48:34.96	29.60	12.16	-41.8	-46.2	11.1	1.33e-03	0	59	0	104857600	55	5907
2026-01-23 22:48:35.97	29.68	12.25	-41.8	-46.3	11.0	1.56e-03	0	59	0	105906176	55	5989
2026-01-23 22:48:36.98	29.77	12.33	-41.8	-46.3	11.2	1.56e-03	0	58	0	108003328	55	5930
2026-01-23 22:48:37.99	29.85	12.42	-41.8	-46.2	11.2	1.52e-03	0	59	0	110100480	55	5890
2026-01-23 22:48:39.00	29.94	12.51	-41.7	-46.0	11.5	1.01e-03	0	59	0	112197632	55	5743
2026-01-23 22:48:40.01	30.03	12.59	-41.7	-45.9	11.6	7.38e-04	0	59	0	114294784	55	5683
2026-01-23 22:48:41.02	30.12	12.68	-41.6	-45.8	11.7	6.55e-04	0	59	0	115343360	55	5613
2026-01-23 22:48:42.02	30.20	12.77	-41.6	-45.7	11.8	4.92e-04	0	59	0	117440512	55	5572
2026-01-23 22:48:43.03	30.29	12.85	-41.6	-45.6	11.9	4.33e-04	0	59	0	119537664	55	5514
2026-01-23 22:48:44.04	30.38	12.94	-41.6	-45.6	11.9	4.10e-04	0	59	0	121634816	55	5519
2026-01-23 22:48:45.05	30.47	13.03	-41.6	-45.6	12.0	4.20e-04	0	59	0	123731968	55	5482
2026-01-23 22:48:46.06	30.56	13.12	-41.5	-45.6	11.9	3.96e-04	0	59	0	124780544	55	5479
2026-01-23 22:48:47.07	30.65	13.21	-41.5	-45.5	12.0	3.20e-04	0	59	0	126877696	55	5443
2026-01-23 22:48:48.08	30.74	13.30	-41.6	-45.5	12.0	3.07e-04	0	59	0	128974848	55	5454
2026-01-23 22:48:49.09	30.83	13.39	-41.5	-45.5	12.1	2.80e-04	0	59	0	131072000	55	5440
2026-01-23 22:48:50.10	30.92	13.48	-41.5	-45.5	12.1	2.53e-04	0	59	0	133169152	55	5433
2026-01-23 22:48:51.11	31.02	13.57	-41.4	-45.3	12.3	1.99e-04	0	59	0	134217728	54	5609
2026-01-23 22:48:52.12	31.11	13.66	-41.4	-45.3	12.3	1.75e-04	0	59	0	136314880	54	5614
2026-01-23 22:48:53.13	31.20	13.75	-41.4	-45.3	12.3	1.68e-04	0	59	0	138412032	54	5630
2026-01-23 22:48:54.14	31.30	13.84	-41.4	-45.3	12.3	1.50e-04	0	59	0	140509184	54	5622
2026-01-23 22:48:55.15	31.39	13.93	-41.4	-45.3	12.3	1.97e-04	0	59	0	142606336	54	5631
2026-01-23 22:48:56.15	31.49	14.02	-41.4	-45.2	12.4	1.74e-04	0	59	0	143654912	54	5577
2026-01-23 22:48:57.17	31.59	14.11	-41.4	-45.2	12.4	1.46e-04	0	59	0	145752064	54	5579
2026-01-23 22:48:58.18	31.68	14.20	-41.4	-45.2	12.5	9.68e-05	0	59	0	147849216	54	5533
2026-01-23 22:48:59.19	31.78	14.29	-41.4	-45.1	12.6	1.12e-04	0	59	0	149946368	54	5495
2026-01-23 22:49:00.20	31.88	14.39	-41.4	-45.1	12.6	1.01e-04	0	59	0	152043520	54	5495
2026-01-23 22:49:01.21	31.97	14.48	-41.4	-45.1	12.6	1.23e-04	0	59	0	154140672	54	5509
2026-01-23 22:49:02.22	32.07	14.57	-41.4	-45.2	12.6	9.61e-05	0	59	0	155189248	54	5533
2026-01-23 22:49:03.22	32.17	14.66	-41.4	-45.1	12.6	8.69e-05	0	59	0	157286400	54	5503
2026-01-23 22:49:04.24	32.27	14.76	-41.4	-45.1	12.6	1.04e-04	0	59	0	159383552	54	5467
2026-01-23 22:49:05.25	32.37	14.85	-41.4	-45.2	12.5	9.61e-05	0	59	0	161480704	54	5560
2026-01-23 22:49:06.25	32.47	14.94	-41.5	-45.2	12.5	1.15e-04	0	59	0	163577856	54	5583
2026-01-23 22:49:07.26	32.58	15.04	-41.5	-45.4	12.4	1.27e-04	0	59	0	164626432	54	5659
2026-01-23 22:49:08.27	32.68	15.13	-41.6	-45.4	12.3	1.30e-04	0	59	0	166723584	54	5697
2026-01-23 22:49:09.28	32.78	15.23	-41.6	-45.4	12.3	1.94e-04	0	59	0	168820736	54	5721
2026-01-23 22:49:10.29	32.89	15.32	-41.6	-45.4	12.3	1.67e-04	0	59	0	170917888	54	5701
2026-01-23 22:49:11.30	32.99	15.42	-41.6	-45.5	12.3	1.79e-04	0	59	0	171966464	54	5769
2026-01-23 22:49:12.31	33.09	15.51	-41.6	-45.4	12.4	1.81e-04	0	59	0	174063616	54	5690
2026-01-23 22:49:13.32	33.20	15.61	-41.7	-45.6	12.2	1.92e-04	0	59	0	176160768	54	5799
2026-01-23 22:49:14.33	33.31	15.71	-41.6	-45.5	12.3	2.14e-04	0	59	0	178257920	54	5767
2026-01-23 22:49:15.34	33.41	15.80	-41.7	-45.6	12.2	2.26e-04	0	60	0	180355072	54	5794
2026-01-23 22:49:16.34	33.52	15.90	-41.7	-45.7	12.1	2.14e-04	0	59	0	182452224	54	5870
2026-01-23 22:49:17.35	33.63	16.00	-41.7	-45.7	12.1	2.80e-04	0	59	0	183500800	54	5885
2026-01-23 22:49:18.36	33.74	16.09	-41.7	-45.6	12.2	2.42e-04	0	59	0	185597952	54	5838
2026-01-23 22:49:19.37	33.85	16.19	-41.7	-45.5	12.2	1.91e-04	0	59	0	187695104	54	5783
2026-01-23 22:49:20.38	33.96	16.29	-41.7	-45.7	12.2	2.29e-04	0	59	0	189792256	54	5865
2026-01-23 22:49:21.39	34.07	16.39	-41.7	-45.5	12.3	2.04e-04	0	59	0	191889408	54	5779
2026-01-23 22:49:22.40	34.18	16.49	-41.7	-45.6	12.3	2.23e-04	0	59	0	192937984	54	5801
2026-01-23 22:49:23.41	34.29	16.59	-41.7	-45.6	12.2	1.87e-04	0	60	0	195035136	54	5852
2026-01-23 22:49:24.42	34.41	16.68	-41.7	-45.6	12.2	2.44e-04	0	59	0	197132288	54	5813
2026-01-23 22:49:25.43	34.52	16.78	-41.7	-45.7	12.2	2.20e-04	0	59	0	199229440	54	5856
2026-01-23 22:49:26.43	34.63	16.88	-41.7	-45.6	12.2	1.98e-04	0	59	0	201326592	54	5823
2026-01-23 22:49:27.44	34.75	16.98	-41.7	-45.7	12.2	1.93e-04	0	59	0	202375168	54	5863
2026-01-23 22:49:28.45	34.87	17.08	-41.7	-45.6	12.2	1.91e-04	0	60	0	204472320	54	5846
2026-01-23 22:49:29.46	34.98	17.18	-41.7	-45.6	12.2	2.15e-04	0	59	0	206569472	54	5830
2026-01-23 22:49:30.47	35.10	17.29	-41.8	-45.7	12.2	2.30e-04	0	59	0	208666624	54	5887
2026-01-23 22:49:31.48	35.22	17.39	-41.8	-45.7	12.2	2.27e-04	0	59	0	210763776	54	5882
2026-01-23 22:49:32.49	35.34	17.49	-41.8	-45.7	12.1	2.55e-04	0	60	0	211812352	54	5916
2026-01-23 22:49:33.50	35.46	17.59	-41.8	-45.7	12.2	2.82e-04	0	60	0	213909504	54	5911
2026-01-23 22:49:34.51	35.58	17.69	-41.8	-45.7	12.1	2.18e-04	0	59	0	216006656	54	5920
2026-01-23 22:49:35.52	35.70	17.80	-41.9	-45.9	12.0	3.14e-04	0	60	0	218103808	54	5993
2026-01-23 22:49:36.53	35.82	17.90	-41.9	-46.0	11.9	3.35e-04	0	60	0	220200960	54	6074
2026-01-23 22:49:37.54	35.94	18.00	-41.9	-46.0	11.8	4.45e-04	0	60	0	221249536	54	6093
2026-01-23 22:49:38.55	36.07	18.11	-42.0	-46.2	11.8	5.61e-04	0	60	0	223346688	54	6225
2026-01-23 22:49:39.56	36.19	18.21	-42.0	-46.2	11.6	5.61e-04	0	60	0	225443840	54	6215
2026-01-23 22:49:40.57	36.32	18.31	-42.1	-46.4	11.5	7.31e-04	0	60	0	227540992	54	6369
2026-01-23 22:49:41.58	36.44	18.42	-42.1	-46.3	11.5	7.77e-04	0	60	0	229638144	54	6320
2026-01-23 22:49:42.59	36.57	18.52	-42.2	-46.5	11.3	9.76e-04	0	60	0	230686720	54	6480
2026-01-23 22:49:43.60	36.70	18.63	-42.2	-46.5	11.3	1.10e-03	0	60	0	232783872	54	6492
2026-01-23 22:49:44.60	36.83	18.73	-42.2	-46.6	11.3	1.08e-03	0	60	0	234881024	54	6500
2026-01-23 22:49:45.61	36.96	18.84	-42.2	-46.5	11.4	9.50e-04	0	60	0	236978176	54	6463
2026-01-23 22:49:46.62	37.09	18.94	-42.2	-46.5	11.3	1.06e-03	0	60	0	239075328	54	6471
2026-01-23 22:49:47.63	37.22	19.05	-42.2	-46.5	11.4	1.06e-03	0	60	0	240123904	54	6456
2026-01-23 22:49:48.64	37.35	19.16	-42.2	-46.6	11.4	1.03e-03	0	60	0	242221056	54	6498
2026-01-23 22:49:49.65	37.49	19.26	-42.2	-46.5	11.4	1.06e-03	0	60	0	244318208	55	6127
2026-01-23 22:49:50.66	37.62	19.37	-42.2	-46.6	11.3	1.15e-03	0	60	0	246415360	55	6172
2026-01-23 22:49:51.67	37.75	19.48	-42.2	-46.6	11.3	1.08e-03	0	60	0	248512512	55	6150
2026-01-23 22:49:52.68	37.89	19.59	-42.2	-46.6	11.3	1.17e-03	0	60	0	250609664	55	6185
2026-01-23 22:49:53.69	38.03	19.70	-42.2	-46.6	11.4	1.19e-03	0	60	0	251658240	55	6153
2026-01-23 22:49:54.70	38.17	19.80	-42.2	-46.6	11.4	1.02e-03	0	60	0	253755392	55	6149
2026-01-23 22:49:55.71	38.30	19.91	-42.2	-46.5	11.5	9.06e-04	0	60	0	255852544	55	6082
2026-01-23 22:49:56.72	38.44	20.02	-42.2	-46.5	11.5	8.58e-04	0	60	0	257949696	55	6077
2026-01-23 22:49:57.73	38.59	20.13	-42.2	-46.4	11.6	8.31e-04	0	60	0	260046848	55	6017
2026-01-23 22:49:58.74	38.73	20.24	-42.2	-46.4	11.6	6.96e-04	0	60	0	261095424	55	6035
2026-01-23 22:49:59.75	38.87	20.35	-42.2	-46.4	11.6	7.45e-04	0	60	0	263192576	55	6029
2026-01-23 22:50:00.76	39.01	20.46	-42.2	-46.4	11.6	6.43e-04	0	60	0	265289728	55	5995
2026-01-23 22:50:01.77	39.16	20.57	-42.2	-46.4	11.6	5.98e-04	0	60	0	267386880	55	5993
2026-01-23 22:50:02.77	39.30	20.68	-42.2	-46.4	11.6	7.30e-04	0	60	0	269484032	55	6046
2026-01-23 22:50:03.78	39.45	20.79	-42.2	-46.5	11.5	7.45e-04	0	60	0	270532608	55	6080
2026-01-23 22:50:04.79	39.60	20.91	-42.3	-46.6	11.4	9.76e-04	0	60	0	272629760	55	6141
2026-01-23 22:50:05.80	39.75	21.02	-42.2	-46.5	11.5	9.01e-04	0	60	0	274726912	55	6090
2026-01-23 22:50:06.81	39.90	21.13	-42.2	-46.6	11.4	8.32e-04	0	60	0	276824064	55	6138
2026-01-23 22:50:07.82	40.05	21.24	-42.2	-46.5	11.5	8.74e-04	0	60	0	278921216	55	6107
2026-01-23 22:50:08.83	40.20	21.36	-42.3	-46.6	11.4	8.85e-04	0	60	0	279969792	55	6143
2026-01-23 22:50:09.84	40.35	21.47	-42.2	-46.5	11.4	9.65e-04	0	60	0	282066944	55	6102
2026-01-23 22:50:10.85	40.51	21.58	-42.3	-46.6	11.4	9.36e-04	0	60	0	284164096	55	6176
2026-01-23 22:50:11.86	40.66	21.70	-42.3	-46.6	11.4	9.35e-04	0	60	0	286261248	55	6147
2026-01-23 22:50:12.87	40.82	21.81	-42.3	-46.6	11.4	1.00e-03	0	60	0	288358400	55	6196
2026-01-23 22:50:13.88	40.98	21.93	-42.3	-46.7	11.3	1.04e-03	0	60	0	289406976	55	6214
2026-01-23 22:50:14.89	41.14	22.04	-42.3	-46.6	11.4	9.40e-04	0	60	0	291504128	55	6162
2026-01-23 22:50:15.90	41.30	22.16	-42.3	-46.7	11.4	1.08e-03	0	60	0	293601280	55	6209
2026-01-23 22:50:16.91	41.46	22.27	-42.3	-46.6	11.4	1.09e-03	0	60	0	295698432	55	6189
2026-01-23 22:50:17.92	41.62	22.39	-42.3	-46.7	11.4	1.15e-03	0	60	0	297795584	55	6205
2026-01-23 22:50:18.93	41.78	22.50	-42.3	-46.6	11.4	1.01e-03	0	60	0	298844160	55	6151
2026-01-23 22:50:19.94	41.95	22.62	-42.3	-46.6	11.4	8.58e-04	0	60	0	300941312	55	6168
2026-01-23 22:50:20.95	42.11	22.74	-42.2	-46.4	11.6	6.98e-04	0	60	0	303038464	55	6054
2026-01-23 22:50:21.96	42.28	22.85	-42.2	-46.4	11.7	6.90e-04	0	60	0	305135616	55	6010
2026-01-23 22:50:22.97	42.45	22.97	-42.2	-46.3	11.7	5.98e-04	0	60	0	307232768	55	5960
2026-01-23 22:50:23.98	42.62	23.09	-42.2	-46.3	11.7	5.26e-04	0	60	0	308281344	55	5949
2026-01-23 22:50:24.99	42.79	23.21	-42.2	-46.3	11.8	5.67e-04	0	60	0	310378496	55	5954
2026-01-23 22:50:26.00	42.96	23.33	-42.2	-46.4	11.7	5.56e-04	0	60	0	312475648	55	6008
2026-01-23 22:50:27.01	43.13	23.44	-42.2	-46.3	11.7	5.65e-04	0	60	0	314572800	55	5976
2026-01-23 22:50:28.02	43.31	23.56	-42.2	-46.3	11.7	5.93e-04	0	60	0	316669952	55	5980
2026-01-23 22:50:29.03	43.48	23.68	-42.2	-46.3	11.7	6.06e-04	0	60	0	318767104	55	5976
2026-01-23 22:50:30.04	43.66	23.80	-42.1	-46.2	11.8	5.13e-04	0	60	0	319815680	55	5915
2026-01-23 22:50:31.05	43.84	23.92	-42.1	-46.2	11.8	4.65e-04	0	60	0	321912832	55	5919
2026-01-23 22:50:32.06	44.02	24.04	-42.1	-46.1	12.0	4.08e-04	0	60	0	324009984	55	5819
2026-01-23 22:50:33.07	44.20	24.16	-42.1	-46.0	12.1	2.98e-04	0	60	0	326107136	55	5769
2026-01-23 22:50:34.08	44.38	24.28	-42.0	-46.0	12.1	2.38e-04	0	60	0	328204288	55	5734
2026-01-23 22:50:35.09	44.57	24.40	-42.0	-45.9	12.2	1.94e-04	0	60	0	329252864	55	5684
2026-01-23 22:50:36.10	44.75	24.52	-41.9	-45.6	12.5	1.75e-04	0	60	0	331350016	55	5498
2026-01-23 22:50:37.11	44.94	24.64	-41.8	-45.4	12.7	9.00e-05	0	60	0	333447168	55	5367
2026-01-23 22:50:38.12	45.13	24.76	-41.8	-45.5	12.7	8.16e-05	0	60	0	335544320	55	5419
2026-01-23 22:50:39.13	45.32	24.89	-41.8	-45.4	12.8	5.64e-05	0	60	0	337641472	55	5346
2026-01-23 22:50:40.14	45.51	25.01	-41.7	-45.3	12.8	5.72e-05	0	60	0	338690048	55	5317
2026-01-23 22:50:41.15	45.70	25.13	-41.7	-45.3	12.8	6.40e-05	0	60	0	340787200	55	5340
2026-01-23 22:50:42.16	45.89	25.25	-41.7	-45.3	12.9	5.49e-05	0	60	0	342884352	55	5319
2026-01-23 22:50:43.17	46.09	25.37	-41.7	-45.2	13.0	3.81e-05	0	60	0	344981504	55	5255
2026-01-23 22:50:44.18	46.29	25.50	-41.7	-45.2	13.0	4.88e-05	0	60	0	347078656	55	5237
2026-01-23 22:50:45.19	46.48	25.62	-41.7	-45.2	13.1	3.73e-05	0	60	0	348127232	55	5227
2026-01-23 22:50:46.20	46.68	25.74	-41.7	-45.2	13.0	3.58e-05	0	60	0	350224384	55	5231
2026-01-23 22:50:47.21	46.89	25.87	-41.6	-45.0	13.2	2.67e-05	0	60	0	352321536	55	5155
2026-01-23 22:50:48.22	47.09	25.99	-41.6	-45.1	13.1	2.44e-05	0	60	0	354418688	55	5194
2026-01-23 22:50:49.23	47.29	26.11	-41.7	-45.2	13.0	2.51e-05	0	60	0	356515840	55	5227
2026-01-23 22:50:50.23	47.50	26.24	-41.7	-45.3	12.9	4.65e-05	0	60	0	357564416	55	5306
2026-01-23 22:50:51.24	47.70	26.36	-41.7	-45.3	12.9	5.49e-05	0	60	0	359661568	55	5326
2026-01-23 22:50:52.25	47.91	26.49	-41.7	-45.4	12.8	5.11e-05	0	60	0	361758720	55	5342
2026-01-23 22:50:53.26	48.12	26.61	-41.8	-45.5	12.7	7.32e-05	0	60	0	363855872	55	5415
2026-01-23 22:50:54.27	48.34	26.74	-41.9	-45.5	12.7	8.08e-05	0	60	0	365953024	55	5457
2026-01-23 22:50:55.28	48.55	26.86	-41.8	-45.5	12.7	8.69e-05	0	60	0	367001600	55	5437
2026-01-23 22:50:56.29	48.77	26.99	-41.9	-45.7	12.6	1.23e-04	0	60	0	369098752	55	5537
2026-01-23 22:50:57.30	48.98	27.11	-42.0	-45.8	12.4	1.11e-04	0	60	0	371195904	55	5599
2026-01-23 22:50:58.31	49.20	27.24	-41.9	-45.6	12.6	1.31e-04	0	60	0	373293056	55	5498
2026-01-23 22:50:59.32	49.42	27.36	-41.9	-45.6	12.6	9.23e-05	0	60	0	375390208	55	5513
2026-01-23 22:51:00.33	49.65	27.49	-42.0	-45.8	12.4	1.24e-04	0	61	0	376438784	55	5614
2026-01-23 22:51:01.34	49.87	27.61	-42.1	-45.9	12.3	1.40e-04	0	60	0	378535936	55	5680
2026-01-23 22:51:02.35	50.10	27.74	-42.2	-46.1	12.1	2.31e-04	0	60	0	380633088	55	5827
2026-01-23 22:51:03.36	50.32	27.86	-42.2	-46.3	11.9	3.72e-04	0	60	0	382730240	55	5924
2026-01-23 22:51:04.37	50.55	27.99	-42.2	-46.3	11.9	4.14e-04	0	60	0	384827392	55	5964
2026-01-23 22:51:05.38	50.78	28.12	-42.2	-46.2	12.0	3.94e-04	0	60	0	386924544	55	5910
2026-01-23 22:51:06.39	51.02	28.24	-42.2	-46.1	12.1	3.02e-04	0	61	0	387973120	55	5819
2026-01-23 22:51:07.40	51.25	28.37	-42.1	-45.9	12.3	2.35e-04	0	60	0	390070272	55	5717
2026-01-23 22:51:08.41	51.49	28.50	-42.1	-45.9	12.3	1.91e-04	0	60	0	392167424	55	5709
2026-01-23 22:51:09.42	51.73	28.62	-42.2	-46.1	12.2	2.08e-04	0	61	0	394264576	55	5812
2026-01-23 22:51:10.43	51.97	28.75	-42.3	-46.4	11.9	3.20e-04	0	60	0	396361728	55	5993
2026-01-23 22:51:11.44	52.21	28.88	-42.4	-46.7	11.5	5.78e-04	0	60	0	397410304	55	6228
2026-01-23 22:51:12.45	52.45	29.00	-42.5	-46.9	11.3	1.08e-03	0	60	0	399507456	55	6356
2026-01-23 22:51:13.46	52.70	29.13	-42.6	-47.2	11.0	1.58e-03	0	61	0	401604608	55	6589
2026-01-23 22:51:14.47	52.95	29.26	-42.9	-47.6	10.8	2.20e-03	0	60	0	403701760	56	6502
2026-01-23 22:51:15.48	53.20	29.38	-42.9	-47.5	10.8	2.65e-03	0	60	0	405798912	56	6475
2026-01-23 22:51:16.49	53.45	29.51	-42.9	-47.6	10.8	2.71e-03	0	60	0	406847488	56	6497
2026-01-23 22:51:17.50	53.70	29.64	-42.9	-47.6	10.7	2.75e-03	0	60	0	408944640	56	6550
2026-01-23 22:51:18.51	53.96	29.76	-43.0	-47.7	10.7	3.08e-03	0	60	0	411041792	56	6591
2026-01-23 22:51:19.51	54.21	29.89	-43.0	-47.9	10.5	3.87e-03	0	60	0	413138944	56	6742
2026-01-23 22:51:20.52	54.47	30.01	-43.1	-48.0	10.3	4.70e-03	0	60	0	415236096	56	6875
2026-01-23 22:51:21.53	54.74	30.14	-43.1	-48.2	10.2	5.13e-03	0	61	0	416284672	56	6971
2026-01-23 22:51:22.54	55.00	30.27	-43.1	-48.1	10.2	5.73e-03	0	61	0	418381824	56	6931
2026-01-23 22:51:23.55	55.27	30.39	-43.0	-47.9	10.4	4.45e-03	0	61	0	420478976	56	6761
2026-01-23 22:51:24.56	55.53	30.52	-43.1	-47.9	10.4	4.53e-03	0	61	0	422576128	56	6755
2026-01-23 22:51:25.57	55.80	30.65	-43.1	-48.0	10.4	4.41e-03	0	61	0	424673280	56	6821
2026-01-23 22:51:26.58	56.08	30.77	-43.2	-48.2	10.2	5.62e-03	0	60	0	425721856	56	6995
2026-01-23 22:51:27.59	56.35	30.90	-43.3	-48.5	9.8	7.22e-03	0	60	0	427819008	57	6875
2026-01-23 22:51:28.60	56.63	31.02	-43.5	-49.0	9.2	1.29e-02	0	61	0	429916160	57	7269
2026-01-23 22:51:29.61	56.90	31.15	-43.7	-49.7	8.6	2.76e-02	0	61	0	432013312	57	7827
2026-01-23 22:51:30.62	57.18	31.27	-43.8	-50.1	8.2	4.58e-02	0	61	0	434110464	58	7720
2026-01-23 22:51:31.63	57.47	31.40	-43.9	-50.2	8.0	6.47e-02	0	61	0	435159040	58	7888
2026-01-23 22:51:32.64	57.75	31.52	-43.9	-50.3	7.9	7.24e-02	0	61	0	437256192	58	7986
2026-01-23 22:51:33.64	58.04	31.65	-43.9	-50.5	7.8	7.84e-02	0	61	0	439353344	58	8134
2026-01-23 22:51:34.65	58.32	31.77	-43.9	-50.5	7.8	8.47e-02	0	61	0	441450496	58	8114
2026-01-23 22:51:35.66	58.62	31.89	-43.9	-50.5	7.9	7.72e-02	0	61	0	443547648	58	8107
2026-01-23 22:51:36.67	58.91	32.02	-43.9	-50.3	8.0	7.55e-02	0	60	0	444596224	58	7970
2026-01-23 22:51:37.68	59.20	32.14	-43.9	-50.3	7.9	7.41e-02	0	61	0	446693376	58	7976
2026-01-23 22:51:38.69	59.50	32.26	-43.8	-50.0	8.3	5.65e-02	0	61	0	448790528	58	7678
2026-01-23 22:51:39.70	59.80	32.39	-43.8	-49.9	8.4	5.31e-02	0	61	0	450887680	58	7556
2026-01-23 22:51:40.71	60.11	32.51	-43.8	-49.9	8.5	4.64e-02	0	61	0	452984832	58	7552
2026-01-23 22:51:41.72	60.41	32.63	-43.9	-50.1	8.2	5.52e-02	0	61	0	455081984	58	7808
2026-01-23 22:51:42.73	60.72	32.75	-44.0	-50.5	7.8	7.30e-02	0	61	0	456130560	58	8145
2026-01-23 22:51:43.74	61.03	32.87	-44.1	-51.0	7.3	1.03e-01	0	61	0	458227712	58	8638
2026-01-23 22:51:44.75	61.34	33.00	-44.1	-51.2	7.1	1.35e-01	0	61	0	460324864	58	8817
2026-01-23 22:51:45.76	61.65	33.12	-44.2	-51.4	7.0	1.58e-01	0	61	0	462422016	58	9009
2026-01-23 22:51:46.77	61.97	33.24	-44.1	-51.1	7.3	1.40e-01	0	61	0	464519168	58	8694
2026-01-23 22:51:47.77	62.28	33.35	-44.0	-50.8	7.5	1.24e-01	0	61	0	465567744	58	8387
2026-01-23 22:51:48.78	62.60	33.47	-44.6	-53.3	5.6	1.33e-01	0	61	0	467664896	59	10642
2026-01-23 22:51:49.80	62.93	33.59	-44.3	-52.0	6.8	1.86e-01	0	61	0	469762048	59	9098
2026-01-23 22:51:50.80	63.25	33.71	-44.8	-55.6	4.4	6.30e-01	32	61	0	471859200	60	13012
2026-01-23 22:51:51.81	63.58	33.83	-44.7	-53.4	5.8	1.39e-01	0	61	0	471859200	59	10738
2026-01-23 22:51:52.82	63.91	33.94	-43.9	-50.3	8.0	9.49e-01	0	61	0	471859200	59	7473
2026-01-23 22:51:53.83	64.24	34.06	-43.9	-50.1	8.2	4.78e-02	0	61	0	473956352	59	7363
2026-01-23 22:51:54.84	64.58	34.18	-43.8	-50.0	8.3	4.92e-02	0	61	0	475004928	59	7276
2026-01-23 22:51:55.85	64.91	34.29	-43.9	-50.2	8.2	5.51e-02	0	61	0	477102080	59	7408
2026-01-23 22:51:56.86	65.25	34.40	-43.8	-49.9	8.4	5.41e-02	0	60	0	479199232	59	7170
2026-01-23 22:51:57.87	65.59	34.52	-43.8	-49.8	8.6	4.05e-02	0	61	0	481296384	59	7051
2026-01-23 22:51:58.88	65.94	34.63	-43.7	-49.6	8.8	3.59e-02	0	61	0	483393536	59	6931
2026-01-23 22:51:59.89	66.28	34.74	-43.6	-49.3	9.0	2.90e-02	0	61	0	484442112	59	6721
2026-01-23 22:52:00.90	66.63	34.85	-43.6	-49.1	9.3	2.18e-02	0	61	0	486539264	59	6545
2026-01-23 22:52:01.91	66.98	34.97	-43.6	-49.2	9.1	1.85e-02	0	61	0	488636416	59	6612
2026-01-23 22:52:02.92	67.34	35.08	-43.4	-48.6	9.7	1.48e-02	0	61	0	490733568	58	6556
2026-01-23 22:52:03.93	67.69	35.18	-43.3	-48.4	10.0	8.86e-03	0	61	0	492830720	58	6406
2026-01-23 22:52:04.94	68.05	35.29	-43.2	-48.1	10.3	4.82e-03	0	61	0	493879296	58	6136
2026-01-23 22:52:05.94	68.41	35.40	-43.2	-48.0	10.4	4.43e-03	0	61	0	495976448	58	6079
2026-01-23 22:52:06.95	68.77	35.51	-43.2	-48.2	10.3	4.86e-03	0	61	0	498073600	58	6206
2026-01-23 22:52:07.96	69.14	35.61	-43.3	-48.3	10.1	6.91e-03	0	61	0	500170752	58	6338
2026-01-23 22:52:08.97	69.50	35.72	-43.2	-48.2	10.2	6.60e-03	0	61	0	502267904	58	6233
2026-01-23 22:52:09.98	69.87	35.82	-43.2	-48.1	10.3	5.39e-03	0	61	0	504365056	58	6156
2026-01-23 22:52:10.99	70.24	35.92	-43.0	-47.6	10.8	3.44e-03	0	61	0	505413632	58	5821
2026-01-23 22:52:12.00	70.62	36.02	-42.8	-47.1	11.4	1.18e-03	0	61	0	507510784	57	5795
2026-01-23 22:52:13.01	71.00	36.12	-42.7	-46.8	11.7	6.45e-04	0	61	0	509607936	57	5635
2026-01-23 22:52:14.02	71.38	36.22	-42.5	-46.6	11.9	6.03e-04	0	61	0	511705088	57	5471
2026-01-23 22:52:15.03	71.76	36.32	-42.5	-46.5	12.0	2.60e-04	0	61	0	513802240	56	5743
2026-01-23 22:52:16.04	72.14	36.42	-42.7	-46.9	11.6	4.58e-04	0	61	0	514850816	56	6018
2026-01-23 22:52:17.05	72.53	36.52	-42.8	-47.0	11.5	7.22e-04	0	61	0	516947968	56	6124
2026-01-23 22:52:18.06	72.91	36.61	-42.8	-47.2	11.3	1.02e-03	0	61	0	519045120	56	6259
2026-01-23 22:52:19.07	73.30	36.70	-42.7	-46.8	11.7	8.38e-04	0	61	0	521142272	56	5957
2026-01-23 22:52:20.08	73.70	36.80	-42.6	-46.7	11.9	5.12e-04	0	61	0	523239424	56	5872
2026-01-23 22:52:21.09	74.09	36.89	-42.5	-46.5	12.1	3.48e-04	0	61	0	524288000	56	5727
2026-01-23 22:52:22.09	74.48	36.98	-42.5	-46.4	12.2	2.39e-04	0	61	0	526385152	56	5682
2026-01-23 22:52:23.10	74.88	37.07	-42.5	-46.5	12.1	2.68e-04	0	61	0	528482304	56	5739
2026-01-23 22:52:24.11	75.29	37.15	-42.7	-46.9	11.7	4.77e-04	0	61	0	530579456	56	5996
2026-01-23 22:52:25.12	75.69	37.24	-42.9	-47.3	11.2	8.46e-04	0	61	0	532676608	56	6301
2026-01-23 22:52:26.13	76.09	37.33	-43.0	-47.6	10.9	1.53e-03	0	61	0	533725184	56	6506
2026-01-23 22:52:27.14	76.50	37.41	-43.0	-47.6	11.0	2.27e-03	0	61	0	535822336	56	6503
2026-01-23 22:52:28.15	76.91	37.49	-42.9	-47.4	11.1	1.55e-03	0	61	0	537919488	56	6418
2026-01-23 22:52:29.16	77.32	37.57	-42.9	-47.4	11.2	1.62e-03	0	61	0	540016640	56	6366
2026-01-23 22:52:30.17	77.74	37.65	-43.0	-47.5	11.0	1.66e-03	0	61	0	542113792	56	6466
2026-01-23 22:52:31.18	78.15	37.73	-42.9	-47.4	11.2	1.58e-03	0	61	0	543162368	56	6388
2026-01-23 22:52:32.19	78.57	37.81	-42.9	-47.4	11.1	1.66e-03	0	61	0	545259520	56	6407
2026-01-23 22:52:33.20	78.99	37.88	-43.0	-47.5	11.0	1.78e-03	0	61	0	547356672	56	6423
2026-01-23 22:52:34.21	79.41	37.95	-42.9	-47.5	11.0	1.63e-03	0	61	0	549453824	56	6427
2026-01-23 22:52:35.22	79.84	38.03	-42.8	-47.2	11.3	1.63e-03	0	61	0	551550976	56	6206
2026-01-23 22:52:36.23	80.26	38.10	-42.8	-47.1	11.4	1.05e-03	0	61	0	552599552	56	6184
2026-01-23 22:52:37.24	80.69	38.16	-42.8	-47.1	11.4	8.79e-04	0	61	0	554696704	56	6190
2026-01-23 22:52:38.25	81.12	38.23	-42.9	-47.4	11.1	1.28e-03	0	61	0	556793856	56	6405
2026-01-23 22:52:39.26	81.55	38.30	-43.1	-47.9	10.5	2.31e-03	0	61	0	558891008	56	6768
2026-01-23 22:52:40.27	81.98	38.36	-43.3	-48.4	10.0	6.14e-03	0	61	0	560988160	57	6784
2026-01-23 22:52:41.28	82.41	38.42	-43.4	-48.6	9.8	9.90e-03	0	61	0	562036736	57	6945
2026-01-23 22:52:42.29	82.85	38.48	-43.4	-48.6	9.8	9.69e-03	0	61	0	564133888	57	6909
2026-01-23 22:52:43.30	83.29	38.54	-43.2	-48.1	10.4	7.84e-03	0	61	0	566231040	57	6515
2026-01-23 22:52:44.31	83.72	38.60	-43.0	-47.7	10.8	2.89e-03	0	61	0	568328192	57	6232
2026-01-23 22:52:45.32	84.16	38.65	-43.0	-47.5	10.9	2.10e-03	0	61	0	570425344	57	6121
2026-01-23 22:52:46.33	84.61	38.71	-42.9	-47.4	11.1	1.98e-03	0	61	0	572522496	57	6033
2026-01-23 22:52:47.34	85.05	38.76	-43.1	-47.7	10.8	2.39e-03	0	61	0	573571072	57	6259
2026-01-23 22:52:48.34	85.49	38.81	-43.3	-48.2	10.2	4.63e-03	0	61	0	575668224	57	6646
2026-01-23 22:52:49.35	85.94	38.86	-43.3	-48.4	10.0	7.70e-03	0	61	0	577765376	57	6773
2026-01-23 22:52:50.36	86.38	38.90	-43.3	-48.3	10.2	6.41e-03	0	61	0	579862528	57	6667
2026-01-23 22:52:51.37	86.83	38.95	-43.2	-48.0	10.5	5.14e-03	0	61	0	581959680	57	6460
2026-01-23 22:52:52.38	87.28	38.99	-43.1	-47.9	10.6	3.69e-03	0	61	0	583008256	57	6350
2026-01-23 22:52:53.39	87.73	39.03	-43.2	-48.0	10.5	3.58e-03	0	61	0	585105408	57	6459
2026-01-23 22:52:54.40	88.18	39.07	-43.2	-48.0	10.5	4.76e-03	0	61	0	587202560	57	6488
2026-01-23 22:52:55.41	88.64	39.10	-43.5	-48.8	9.8	7.09e-03	0	61	0	589299712	57	7073
2026-01-23 22:52:56.42	89.09	39.14	-43.6	-49.1	9.4	1.68e-02	0	61	0	591396864	57	7332
2026-01-23 22:52:57.43	89.54	39.17	-43.7	-49.3	9.1	2.44e-02	0	61	0	592445440	57	7516
2026-01-23 22:52:58.44	90.00	39.20	-43.7	-49.5	8.9	2.42e-02	0	61	0	594542592	57	7641
2026-01-23 22:52:59.45	90.46	39.23	-43.7	-49.5	9.0	2.52e-02	0	61	0	596639744	57	7631
2026-01-23 22:53:00.46	90.91	39.26	-43.7	-49.4	9.0	2.54e-02	0	61	0	598736896	58	7161
2026-01-23 22:53:01.46	91.37	39.28	-43.8	-49.6	8.9	2.74e-02	0	61	0	600834048	58	7317
2026-01-23 22:53:02.47	91.83	39.30	-43.8	-49.7	8.8	2.88e-02	0	61	0	601882624	58	7396
2026-01-23 22:53:03.48	92.28	39.32	-43.8	-49.8	8.6	3.91e-02	0	61	0	603979776	58	7513
2026-01-23 22:53:04.49	92.74	39.34	-43.8	-49.9	8.5	4.19e-02	0	61	0	606076928	58	7618
2026-01-23 22:53:05.50	93.20	39.36	-43.8	-49.8	8.7	4.07e-02	0	61	0	608174080	58	7516
2026-01-23 22:53:06.51	93.67	39.37	-43.8	-49.8	8.7	3.51e-02	0	61	0	610271232	58	7488
2026-01-23 22:53:07.52	94.13	39.39	-43.8	-49.7	8.7	3.18e-02	0	61	0	611319808	58	7421
2026-01-23 22:53:08.53	94.59	39.40	-43.8	-49.6	8.9	3.22e-02	0	61	0	613416960	58	7311
2026-01-23 22:53:09.54	95.05	39.41	-43.6	-49.2	9.4	2.15e-02	0	61	0	615514112	58	6965
2026-01-23 22:53:10.55	95.51	39.41	-43.6	-49.0	9.5	1.59e-02	0	61	0	617611264	58	6832
2026-01-23 22:53:11.56	95.97	39.42	-43.5	-48.8	9.6	1.38e-02	0	61	0	619708416	58	6723
2026-01-23 22:53:12.57	96.44	39.42	-43.4	-48.4	10.1	8.39e-03	0	61	0	620756992	58	6420
2026-01-23 22:53:13.58	96.90	39.42	-43.3	-48.2	10.3	5.53e-03	0	61	0	622854144	58	6274
2026-01-23 22:53:14.59	97.36	39.42	-43.2	-48.1	10.4	4.91e-03	0	61	0	624951296	58	6166
2026-01-23 22:53:15.60	97.82	39.41	-43.2	-48.0	10.6	4.32e-03	0	61	0	627048448	58	6102
2026-01-23 22:53:16.61	98.29	39.41	-43.2	-47.9	10.6	3.37e-03	0	61	0	629145600	58	6006
2026-01-23 22:53:17.62	98.75	39.40	-43.1	-47.7	10.9	2.70e-03	0	61	0	630194176	58	5869
2026-01-23 22:53:18.62	99.20	39.39	-43.0	-47.4	11.1	1.81e-03	0	61	0	632291328	57	6050
2026-01-23 22:53:19.63	99.67	39.38	-43.0	-47.6	10.9	2.16e-03	0	61	0	634388480	57	6192
2026-01-23 22:53:20.64	100.13	39.36	-43.2	-48.0	10.5	3.43e-03	0	61	0	636485632	57	6440
2026-01-23 22:53:21.65	100.59	39.35	-43.4	-48.7	9.8	5.52e-03	0	61	0	638582784	57	6999
2026-01-23 22:53:22.66	101.05	39.33	-43.5	-48.7	9.7	1.17e-02	0	61	0	640679936	57	7033
2026-01-23 22:53:23.67	101.51	39.31	-43.3	-48.3	10.2	8.47e-03	0	61	0	641728512	57	6708
2026-01-23 22:53:24.68	101.97	39.29	-43.3	-48.2	10.2	5.31e-03	0	61	0	643825664	57	6644
2026-01-23 22:53:25.69	102.43	39.26	-43.5	-48.8	9.7	6.81e-03	0	61	0	645922816	57	7065
2026-01-23 22:53:26.70	102.88	39.24	-43.6	-49.1	9.3	1.51e-02	0	61	0	648019968	57	7329
2026-01-23 22:53:27.71	103.34	39.21	-43.7	-49.3	9.2	1.87e-02	0	61	0	650117120	57	7498
2026-01-23 22:53:28.72	103.80	39.18	-43.7	-49.4	9.1	2.23e-02	0	61	0	651165696	57	7553
2026-01-23 22:53:29.73	104.25	39.15	-43.7	-49.5	8.9	2.67e-02	0	61	0	653262848	58	7248
2026-01-23 22:53:30.74	104.71	39.11	-43.8	-49.6	8.8	2.93e-02	0	61	0	655360000	58	7357
2026-01-23 22:53:31.75	105.16	39.08	-43.7	-49.5	9.0	2.69e-02	0	61	0	657457152	58	7217
2026-01-23 22:53:32.76	105.61	39.04	-43.8	-49.8	8.6	3.61e-02	0	61	0	659554304	58	7541
2026-01-23 22:53:33.77	106.06	39.00	-43.8	-49.7	8.8	3.21e-02	0	61	0	660602880	58	7383
2026-01-23 22:53:34.77	106.51	38.96	-43.7	-49.3	9.2	2.77e-02	0	61	0	662700032	58	7069
2026-01-23 22:53:35.78	106.96	38.91	-43.5	-48.9	9.6	1.38e-02	0	61	0	664797184	58	6764
2026-01-23 22:53:36.79	107.41	38.87	-43.6	-49.0	9.4	1.47e-02	0	61	0	666894336	58	6864
2026-01-23 22:53:37.80	107.85	38.82	-43.8	-49.8	8.7	2.46e-02	0	61	0	668991488	58	7523
2026-01-23 22:53:38.81	108.30	38.77	-43.8	-49.7	8.7	3.84e-02	0	61	0	670040064	58	7422
2026-01-23 22:53:39.82	108.74	38.72	-43.5	-48.7	9.7	1.92e-02	0	61	0	672137216	58	6609
2026-01-23 22:53:40.83	109.19	38.67	-43.1	-47.7	10.8	5.31e-03	0	61	0	674234368	58	5914
2026-01-23 22:53:41.84	109.63	38.61	-43.0	-47.6	10.8	1.95e-03	0	61	0	676331520	57	6201
2026-01-23 22:53:42.85	110.07	38.56	-43.2	-47.9	10.6	2.41e-03	0	61	0	678428672	57	6415
2026-01-23 22:53:43.86	110.51	38.50	-43.3	-48.4	10.0	6.05e-03	0	61	0	679477248	57	6752
2026-01-23 22:53:44.87	110.94	38.44	-43.1	-47.8	10.7	6.11e-03	0	61	0	681574400	57	6297
2026-01-23 22:53:45.88	111.38	38.38	-42.7	-46.8	11.7	9.69e-04	0	61	0	683671552	57	5651
2026-01-23 22:53:46.89	111.81	38.31	-42.4	-46.3	12.2	2.79e-04	0	61	0	685768704	56	5642
2026-01-23 22:53:47.90	112.24	38.25	-42.5	-46.5	12.1	2.08e-04	0	61	0	687865856	56	5765
2026-01-23 22:53:48.91	112.67	38.18	-42.8	-47.0	11.6	6.18e-04	0	61	0	688914432	56	6103
2026-01-23 22:53:49.92	113.10	38.11	-43.0	-47.6	10.9	1.70e-03	0	61	0	691011584	56	6567
2026-01-23 22:53:50.93	113.53	38.04	-42.9	-47.4	11.0	2.46e-03	0	61	0	693108736	56	6405
2026-01-23 22:53:51.94	113.95	37.97	-42.6	-46.8	11.7	6.81e-04	0	61	0	695205888	56	5949
2026-01-23 22:53:52.95	114.38	37.90	-42.3	-46.2	12.4	2.62e-04	0	61	0	697303040	56	5550
2026-01-23 22:53:53.96	114.80	37.82	-42.4	-46.2	12.4	1.03e-04	0	61	0	698351616	56	5566
2026-01-23 22:53:54.97	115.22	37.75	-42.5	-46.6	12.0	3.33e-04	0	61	0	700448768	56	5796
2026-01-23 22:53:55.98	115.63	37.67	-42.4	-46.3	12.2	3.43e-04	0	61	0	702545920	56	5611
2026-01-23 22:53:56.99	116.05	37.59	-42.0	-45.6	13.0	1.09e-04	0	61	0	704643072	56	5163
2026-01-23 22:53:58.00	116.46	37.51	-41.4	-44.6	13.9	4.50e-06	0	61	0	706740224	54	5178
2026-01-23 22:53:59.01	116.87	37.43	-41.4	-44.5	14.0	3.00e-06	0	61	0	708837376	54	5105
2026-01-23 22:54:00.02	117.28	37.34	-41.5	-44.6	13.8	5.30e-06	0	61	0	709885952	54	5214
2026-01-23 22:54:01.03	117.69	37.26	-41.9	-45.4	13.0	1.06e-05	0	61	0	711983104	54	5697
2026-01-23 22:54:02.04	118.09	37.17	-42.1	-45.8	12.6	8.54e-05	0	61	0	714080256	54	5990
2026-01-23 22:54:03.05	118.50	37.09	-41.8	-45.3	13.2	5.41e-05	0	61	0	716177408	54	5609
2026-01-23 22:54:04.06	118.90	37.00	-41.5	-44.6	13.8	1.14e-05	0	61	0	718274560	54	5199
2026-01-23 22:54:05.07	119.30	36.91	-41.3	-44.4	14.1	3.00e-06	0	61	0	719323136	54	5044
2026-01-23 22:54:06.08	119.69	36.81	-41.4	-44.5	14.0	2.20e-06	0	61	0	721420288	54	5116
2026-01-23 22:54:07.09	120.09	36.72	-41.4	-44.5	14.0	3.00e-06	0	61	0	723517440	54	5123
2026-01-23 22:54:08.10	120.48	36.63	-41.2	-44.2	14.3	0.00e+00	0	61	0	725614592	54	4941
2026-01-23 22:54:09.11	120.87	36.53	-40.9	-43.7	14.7	0.00e+00	0	61	0	727711744	53	4981
2026-01-23 22:54:10.11	121.25	36.44	-40.8	-43.6	14.8	0.00e+00	0	61	0	728760320	53	4895
2026-01-23 22:54:11.12	121.64	36.34	-41.1	-44.0	14.5	0.00e+00	0	61	0	730857472	53	5116
2026-01-23 22:54:12.14	122.02	36.24	-41.4	-44.6	13.9	7.00e-07	0	61	0	732954624	53	5492
2026-01-23 22:54:13.14	122.40	36.14	-41.7	-45.1	13.4	9.90e-06	0	61	0	735051776	53	5808
2026-01-23 22:54:14.16	122.78	36.04	-41.5	-44.8	13.6	6.10e-06	0	61	0	737148928	53	5623
2026-01-23 22:54:15.16	123.15	35.94	-41.3	-44.4	14.1	3.00e-06	0	61	0	738197504	53	5364
2026-01-23 22:54:16.17	123.53	35.84	-41.3	-44.4	14.1	0.00e+00	0	61	0	740294656	53	5363
2026-01-23 22:54:17.19	123.90	35.73	-41.5	-44.6	13.8	7.00e-07	0	61	0	742391808	53	5516
2026-01-23 22:54:18.20	124.27	35.63	-42.0	-45.6	12.9	1.60e-05	0	61	0	744488960	54	5789
2026-01-23 22:54:19.20	124.64	35.52	-42.4	-46.5	11.9	1.71e-04	0	61	0	746586112	55	6080
2026-01-23 22:54:20.21	125.00	35.41	-42.4	-46.4	12.0	3.97e-04	0	61	0	747634688	55	6042
2026-01-23 22:54:21.22	125.36	35.31	-42.0	-45.7	12.8	1.02e-04	0	61	0	749731840	55	5550
2026-01-23 22:54:22.23	125.72	35.20	-41.8	-45.3	13.2	4.11e-05	0	61	0	751828992	55	5314
2026-01-23 22:54:23.24	126.08	35.09	-41.9	-45.5	12.9	2.13e-05	0	61	0	753926144	55	5448
2026-01-23 22:54:24.25	126.44	34.98	-42.3	-46.2	12.3	1.20e-04	0	61	0	756023296	55	5865
2026-01-23 22:54:25.26	126.79	34.87	-42.4	-46.4	12.0	3.13e-04	0	61	0	757071872	55	6041
2026-01-23 22:54:26.27	127.14	34.76	-42.0	-45.6	12.8	2.01e-04	0	61	0	759169024	55	5521
2026-01-23 22:54:27.27	127.48	34.65	-41.8	-45.2	13.2	3.81e-05	0	61	0	761266176	55	5261
2026-01-23 22:54:28.28	127.83	34.53	-41.8	-45.2	13.3	2.13e-05	0	61	0	763363328	55	5231
2026-01-23 22:54:29.29	128.17	34.42	-42.0	-45.6	12.8	2.28e-05	0	61	0	765460480	55	5524
2026-01-23 22:54:30.30	128.51	34.30	-42.4	-46.4	12.0	1.17e-04	0	61	0	766509056	55	6044
2026-01-23 22:54:31.31	128.85	34.19	-42.6	-46.8	11.6	6.81e-04	0	61	0	768606208	55	6339
2026-01-23 22:54:32.32	129.19	34.07	-42.5	-46.6	11.8	6.66e-04	0	61	0	770703360	55	6158
2026-01-23 22:54:33.33	129.52	33.95	-42.3	-46.3	12.2	3.86e-04	0	61	0	772800512	55	5944
2026-01-23 22:54:34.34	129.85	33.84	-42.4	-46.4	12.0	2.70e-04	0	61	0	774897664	55	6029
2026-01-23 22:54:35.35	130.18	33.72	-42.7	-47.0	11.4	5.52e-04	0	61	0	776994816	55	6483
2026-01-23 22:54:36.36	130.51	33.60	-43.1	-47.8	10.7	1.97e-03	0	61	0	778043392	56	6723
2026-01-23 22:54:37.37	130.83	33.48	-43.2	-48.1	10.4	4.70e-03	0	61	0	780140544	56	6954
2026-01-23 22:54:38.38	131.16	33.36	-43.0	-47.8	10.8	3.55e-03	0	61	0	782237696	56	6650
2026-01-23 22:54:39.39	131.48	33.24	-42.8	-47.1	11.4	1.41e-03	0	61	0	784334848	56	6166
2026-01-23 22:54:40.40	131.79	33.12	-42.8	-47.0	11.5	7.53e-04	0	61	0	785383424	56	6129
2026-01-23 22:54:41.41	132.11	33.00	-42.9	-47.4	11.2	8.57e-04	0	61	0	787480576	56	6381
2026-01-23 22:54:42.42	132.42	32.88	-43.3	-48.5	10.0	3.39e-03	0	61	0	789577728	57	6858
2026-01-23 22:54:43.43	132.73	32.76	-43.5	-48.9	9.6	1.27e-02	0	61	0	791674880	57	7157
2026-01-23 22:54:44.44	133.04	32.64	-43.2	-48.1	10.4	7.34e-03	0	61	0	793772032	57	6538
2026-01-23 22:54:45.45	133.35	32.51	-42.7	-47.0	11.6	1.96e-03	0	61	0	794820608	57	5731
2026-01-23 22:54:46.46	133.65	32.39	-42.5	-46.4	12.2	3.60e-04	0	61	0	796917760	56	5675
2026-01-23 22:54:47.46	133.95	32.27	-42.6	-46.7	11.8	3.45e-04	0	61	0	799014912	56	5907
2026-01-23 22:54:48.48	134.25	32.14	-43.1	-47.8	10.8	1.15e-03	0	61	0	801112064	56	6651
2026-01-23 22:54:49.48	134.55	32.02	-43.6	-49.1	9.3	7.18e-03	0	61	0	803209216	57	7347
2026-01-23 22:54:50.49	134.84	31.90	-43.7	-49.4	9.0	2.60e-02	0	61	0	805306368	57	7617
2026-01-23 22:54:51.50	135.13	31.77	-43.4	-48.8	9.6	1.86e-02	0	61	0	806354944	57	7073
2026-01-23 22:54:52.51	135.42	31.65	-43.1	-47.9	10.6	6.89e-03	0	61	0	808452096	57	6370
2026-01-23 22:54:53.52	135.71	31.52	-42.9	-47.4	11.0	1.93e-03	0	61	0	810549248	57	6059
2026-01-23 22:54:54.53	136.00	31.39	-43.1	-47.8	10.7	2.28e-03	0	61	0	812646400	57	6295
2026-01-23 22:54:55.54	136.28	31.27	-43.3	-48.4	10.0	4.43e-03	0	61	0	814743552	57	6754
2026-01-23 22:54:56.55	136.56	31.14	-43.6	-49.4	9.0	1.34e-02	0	61	0	815792128	57	7619
2026-01-23 22:54:57.56	136.84	31.02	-43.6	-49.4	9.0	3.06e-02	0	61	0	817889280	57	7569
2026-01-23 22:54:58.56	137.12	30.89	-43.2	-48.1	10.3	1.27e-02	0	61	0	819986432	57	6523
2026-01-23 22:54:59.57	137.39	30.77	-42.7	-46.9	11.6	2.43e-03	0	61	0	822083584	57	5677
2026-01-23 22:55:00.59	137.67	30.64	-42.4	-46.3	12.3	2.43e-04	0	61	0	824180736	56	5630
2026-01-23 22:55:01.60	137.94	30.51	-42.4	-46.3	12.3	1.79e-04	0	61	0	825229312	56	5594
2026-01-23 22:55:02.60	138.21	30.38	-42.7	-47.0	11.5	3.00e-04	0	61	0	827326464	56	6112
2026-01-23 22:55:03.61	138.47	30.26	-43.2	-48.2	10.2	3.47e-03	0	61	0	829423616	57	6632
2026-01-23 22:55:04.62	138.74	30.13	-43.3	-48.4	10.0	9.56e-03	0	61	0	831520768	57	6771
2026-01-23 22:55:05.63	139.00	30.00	-43.0	-47.7	10.7	6.06e-03	0	61	0	833617920	57	6223
2026-01-23 22:55:06.64	139.26	29.88	-42.6	-46.7	11.7	7.84e-04	0	61	0	834666496	57	5592
2026-01-23 22:55:07.65	139.52	29.75	-42.5	-46.4	12.1	2.91e-04	0	61	0	836763648	56	5692
2026-01-23 22:55:08.66	139.78	29.62	-42.4	-46.3	12.2	2.29e-04	0	61	0	838860800	56	5634
2026-01-23 22:55:09.67	140.03	29.49	-42.7	-46.8	11.6	5.31e-04	0	61	0	840957952	56	5979
2026-01-23 22:55:10.68	140.29	29.37	-43.1	-47.9	10.5	2.16e-03	0	61	0	843055104	56	6758
2026-01-23 22:55:11.69	140.54	29.24	-43.4	-48.7	9.7	8.00e-03	0	61	0	844103680	57	7008
2026-01-23 22:55:12.70	140.79	29.11	-43.3	-48.3	10.1	1.08e-02	0	61	0	846200832	57	6714
2026-01-23 22:55:13.71	141.03	28.98	-42.8	-47.2	11.2	2.49e-03	0	61	0	848297984	57	5872
2026-01-23 22:55:14.72	141.28	28.86	-42.2	-45.9	12.6	3.11e-04	0	61	0	850395136	56	5381
2026-01-23 22:55:15.73	141.52	28.73	-41.6	-45.0	13.4	4.34e-05	0	61	0	852492288	55	5106
2026-01-23 22:55:16.74	141.76	28.60	-41.5	-44.8	13.6	1.29e-05	0	61	0	853540864	55	5024
2026-01-23 22:55:17.75	142.00	28.47	-41.7	-45.1	13.2	9.90e-06	0	61	0	855638016	55	5178
2026-01-23 22:55:18.76	142.24	28.35	-42.0	-45.7	12.7	3.96e-05	0	61	0	857735168	55	5538
2026-01-23 22:55:19.77	142.48	28.22	-42.3	-46.2	12.1	2.16e-04	0	61	0	859832320	55	5921
2026-01-23 22:55:20.78	142.71	28.09	-42.3	-46.4	11.9	4.94e-04	0	61	0	861929472	55	6022
2026-01-23 22:55:21.79	142.94	27.97	-42.0	-45.8	12.5	2.44e-04	0	61	0	862978048	55	5634
2026-01-23 22:55:22.80	143.17	27.84	-41.6	-45.0	13.3	3.28e-05	0	61	0	865075200	55	5133
2026-01-23 22:55:23.81	143.40	27.71	-41.3	-44.4	14.0	6.10e-06	0	61	0	867172352	54	5048
2026-01-23 22:55:24.82	143.63	27.58	-41.3	-44.3	14.0	3.00e-06	0	61	0	869269504	54	5041
2026-01-23 22:55:25.83	143.85	27.46	-41.2	-44.3	14.1	7.00e-07	0	61	0	871366656	54	4988
2026-01-23 22:55:26.84	144.08	27.33	-41.4	-44.7	13.7	3.00e-06	0	61	0	873463808	54	5222
2026-01-23 22:55:27.85	144.30	27.20	-42.0	-45.7	12.6	2.67e-05	0	61	0	874512384	54	5874
2026-01-23 22:55:28.85	144.52	27.08	-42.4	-46.6	11.7	2.06e-04	0	61	0	876609536	55	6192
2026-01-23 22:55:29.86	144.74	26.95	-42.4	-46.6	11.6	7.76e-04	0	61	0	878706688	55	6178
2026-01-23 22:55:30.87	144.95	26.83	-42.1	-46.0	12.2	4.06e-04	0	61	0	880803840	55	5760
2026-01-23 22:55:31.88	145.17	26.70	-41.6	-45.1	13.2	8.08e-05	0	61	0	882900992	55	5189
2026-01-23 22:55:32.89	145.38	26.58	-41.4	-44.6	13.7	7.60e-06	0	61	0	883949568	54	5180
2026-01-23 22:55:33.90	145.59	26.45	-41.4	-44.6	13.7	5.30e-06	0	61	0	886046720	54	5178
2026-01-23 22:55:34.91	145.80	26.33	-41.1	-44.1	14.2	6.80e-06	0	61	0	888143872	54	4896
2026-01-23 22:55:35.92	146.01	26.20	-41.0	-44.0	14.3	0.00e+00	0	61	0	890241024	54	4842
2026-01-23 22:55:36.93	146.22	26.07	-41.3	-44.5	13.9	1.50e-06	0	61	0	892338176	54	5115
2026-01-23 22:55:37.94	146.42	25.95	-41.7	-45.1	13.2	1.29e-05	0	61	0	893386752	54	5477
2026-01-23 22:55:38.95	146.63	25.83	-41.8	-45.3	13.0	3.73e-05	0	61	0	895483904	54	5655
2026-01-23 22:55:39.96	146.83	25.70	-41.7	-45.2	13.0	5.34e-05	0	61	0	897581056	54	5576
2026-01-23 22:55:40.97	147.03	25.58	-41.3	-44.5	13.7	1.67e-05	0	61	0	899678208	54	5147
2026-01-23 22:55:41.98	147.23	25.45	-41.1	-44.0	14.3	1.50e-06	0	61	0	901775360	54	4867
2026-01-23 22:55:42.99	147.43	25.33	-40.9	-43.8	14.5	7.00e-07	0	61	0	902823936	53	5030
2026-01-23 22:55:44.00	147.62	25.21	-40.9	-43.8	14.5	7.00e-07	0	61	0	904921088	53	5031
2026-01-23 22:55:45.01	147.82	25.08	-40.9	-43.9	14.5	1.50e-06	0	61	0	907018240	53	5043
2026-01-23 22:55:46.01	148.01	24.96	-41.1	-44.2	14.1	1.50e-06	0	61	0	909115392	53	5226
2026-01-23 22:55:47.02	148.20	24.84	-41.3	-44.5	13.7	1.50e-06	0	61	0	911212544	53	5452
2026-01-23 22:55:48.03	148.39	24.72	-41.5	-44.8	13.4	1.37e-05	0	61	0	912261120	53	5634
2026-01-23 22:55:49.04	148.58	24.59	-41.5	-44.8	13.5	9.90e-06	0	61	0	914358272	53	5606
2026-01-23 22:55:50.05	148.77	24.47	-41.3	-44.6	13.7	8.30e-06	0	61	0	916455424	53	5485
2026-01-23 22:55:51.06	148.95	24.35	-41.2	-44.4	13.9	5.30e-06	0	61	0	918552576	53	5374
2026-01-23 22:55:52.07	149.14	24.23	-41.3	-44.5	13.8	1.50e-06	0	61	0	920649728	53	5404
2026-01-23 22:55:53.08	149.32	24.11	-41.2	-44.3	13.9	4.50e-06	0	61	0	921698304	53	5339
2026-01-23 22:55:54.09	149.50	23.99	-41.2	-44.3	14.0	7.00e-07	0	61	0	923795456	53	5298
2026-01-23 22:55:55.10	149.68	23.87	-41.2	-44.4	13.8	3.80e-06	0	61	0	925892608	53	5372
2026-01-23 22:55:56.11	149.86	23.74	-41.3	-44.6	13.7	2.20e-06	0	61	0	927989760	53	5477
2026-01-23 22:55:57.12	150.04	23.62	-41.5	-44.8	13.5	1.14e-05	0	61	0	930086912	53	5612
2026-01-23 22:55:58.13	150.21	23.50	-41.5	-44.8	13.4	1.22e-05	0	61	0	931135488	53	5654
2026-01-23 22:55:59.13	150.39	23.39	-41.5	-44.9	13.3	1.67e-05	0	61	0	933232640	53	5688
2026-01-23 22:56:00.14	150.56	23.27	-41.4	-44.8	13.4	2.36e-05	0	61	0	935329792	53	5623
2026-01-23 22:56:01.15	150.73	23.15	-41.4	-44.6	13.6	9.90e-06	0	61	0	937426944	53	5504
2026-01-23 22:56:02.16	150.90	23.03	-41.4	-44.7	13.5	7.60e-06	0	61	0	939524096	53	5570
2026-01-23 22:56:03.17	151.07	22.91	-41.4	-44.7	13.5	7.60e-06	0	61	0	941621248	53	5555
2026-01-23 22:56:04.18	151.24	22.79	-41.5	-44.8	13.4	1.98e-05	0	61	0	942669824	53	5630
2026-01-23 22:56:05.19	151.41	22.67	-41.6	-45.0	13.2	1.67e-05	0	61	0	944766976	53	5750
2026-01-23 22:56:06.20	151.58	22.56	-41.6	-45.1	13.1	1.83e-05	0	61	0	946864128	53	5801
2026-01-23 22:56:07.21	151.74	22.44	-41.6	-45.1	13.1	2.21e-05	0	61	0	948961280	53	5829
2026-01-23 22:56:08.22	151.91	22.32	-41.7	-45.2	13.0	3.58e-05	0	61	0	951058432	53	5895
2026-01-23 22:56:09.23	152.07	22.21	-41.6	-45.2	13.0	4.19e-05	0	61	0	952107008	53	5863
2026-01-23 22:56:10.24	152.23	22.09	-41.6	-45.0	13.2	2.51e-05	0	61	0	954204160	53	5768
2026-01-23 22:56:11.25	152.39	21.97	-41.4	-44.8	13.4	1.60e-05	0	61	0	956301312	53	5597
2026-01-23 22:56:12.26	152.55	21.86	-41.4	-44.8	13.4	1.29e-05	0	61	0	958398464	53	5601
2026-01-23 22:56:13.27	152.71	21.74	-41.5	-44.9	13.3	1.67e-05	0	61	0	960495616	53	5687
2026-01-23 22:56:14.28	152.86	21.63	-41.5	-44.9	13.4	1.06e-05	0	61	0	961544192	53	5657
2026-01-23 22:56:15.29	153.02	21.51	-41.6	-45.1	13.1	1.90e-05	0	61	0	963641344	53	5809
2026-01-23 22:56:16.29	153.17	21.40	-41.8	-45.4	12.8	5.26e-05	0	61	0	965738496	54	5688
2026-01-23 22:56:17.30	153.33	21.28	-41.8	-45.5	12.6	5.18e-05	0	61	0	967835648	54	5770
2026-01-23 22:56:18.31	153.48	21.17	-42.0	-45.9	12.2	1.73e-04	0	61	0	969932800	54	6023
2026-01-23 22:56:19.32	153.63	21.06	-42.0	-45.9	12.2	2.21e-04	0	61	0	970981376	54	6028
2026-01-23 22:56:20.33	153.78	20.94	-42.1	-46.0	12.1	2.39e-04	0	61	0	973078528	54	6122
2026-01-23 22:56:21.34	153.93	20.83	-42.1	-46.0	12.2	2.08e-04	0	61	0	975175680	54	6081
2026-01-23 22:56:22.35	154.08	20.72	-42.0	-45.8	12.3	2.08e-04	0	61	0	977272832	54	5962
2026-01-23 22:56:23.36	154.23	20.61	-42.0	-45.8	12.3	2.04e-04	0	61	0	979369984	54	5973
2026-01-23 22:56:24.37	154.37	20.49	-41.9	-45.8	12.3	1.67e-04	0	61	0	980418560	54	5959
2026-01-23 22:56:25.38	154.52	20.38	-42.0	-45.8	12.3	1.46e-04	0	61	0	982515712	54	5956
2026-01-23 22:56:26.39	154.66	20.27	-41.9	-45.7	12.5	1.50e-04	0	61	0	984612864	54	5892
2026-01-23 22:56:27.40	154.80	20.16	-41.9	-45.8	12.3	1.46e-04	0	61	0	986710016	54	5929
2026-01-23 22:56:28.41	154.94	20.05	-42.0	-45.8	12.3	1.61e-04	0	61	0	988807168	54	5964
2026-01-23 22:56:29.42	155.09	19.94	-42.0	-45.9	12.2	2.21e-04	0	61	0	989855744	54	6060
2026-01-23 22:56:30.43	155.23	19.83	-42.0	-46.0	12.1	2.72e-04	0	61	0	991952896	54	6071
2026-01-23 22:56:31.44	155.36	19.72	-42.1	-46.1	12.1	3.11e-04	0	61	0	994050048	54	6132
2026-01-23 22:56:32.45	155.50	19.61	-42.1	-46.2	11.9	3.10e-04	0	61	0	996147200	54	6212
2026-01-23 22:56:33.46	155.64	19.50	-42.1	-46.2	11.9	3.38e-04	0	61	0	998244352	54	6226
2026-01-23 22:56:34.47	155.78	19.39	-42.1	-46.1	12.0	3.29e-04	0	61	0	999292928	54	6184
2026-01-23 22:56:35.48	155.91	19.28	-42.0	-46.0	12.1	3.97e-04	0	61	0	1001390080	54	6100
2026-01-23 22:56:36.49	156.05	19.17	-42.0	-46.0	12.1	2.75e-04	0	61	0	1003487232	54	6066
2026-01-23 22:56:37.50	156.18	19.07	-42.0	-45.9	12.2	2.31e-04	0	61	0	1005584384	54	6046
2026-01-23 22:56:38.51	156.31	18.96	-41.9	-45.7	12.4	1.74e-04	0	61	0	1007681536	54	5881
2026-01-23 22:56:39.52	156.44	18.85	-41.8	-45.5	12.5	1.33e-04	0	61	0	1009778688	54	5777
2026-01-23 22:56:40.53	156.57	18.75	-41.8	-45.6	12.6	1.06e-04	0	61	0	1010827264	54	5789
2026-01-23 22:56:41.54	156.70	18.64	-41.7	-45.4	12.7	8.69e-05	0	61	0	1012924416	54	5705
2026-01-23 22:56:42.55	156.83	18.53	-41.7	-45.4	12.7	6.79e-05	0	61	0	1015021568	54	5676
2026-01-23 22:56:43.56	156.96	18.43	-41.7	-45.3	12.7	6.56e-05	0	61	0	1017118720	54	5652
2026-01-23 22:56:44.57	157.09	18.32	-41.7	-45.4	12.6	8.54e-05	0	61	0	1019215872	54	5714
2026-01-23 22:56:45.58	157.21	18.22	-41.8	-45.5	12.6	9.84e-05	0	61	0	1020264448	54	5747
2026-01-23 22:56:46.58	157.34	18.11	-41.9	-45.7	12.3	1.35e-04	0	61	0	1022361600	54	5886
2026-01-23 22:56:47.59	157.46	18.01	-41.9	-45.8	12.3	1.80e-04	0	61	0	1024458752	54	5936
2026-01-23 22:56:48.60	157.59	17.90	-42.0	-46.0	12.1	2.35e-04	0	61	0	1026555904	54	6084
2026-01-23 22:56:49.61	157.71	17.80	-42.0	-45.9	12.1	3.02e-04	0	61	0	1028653056	54	6043
2026-01-23 22:56:50.62	157.83	17.69	-42.0	-46.0	12.1	2.95e-04	0	61	0	1029701632	54	6065
2026-01-23 22:56:51.63	157.95	17.59	-42.0	-46.0	12.0	3.84e-04	0	61	0	1031798784	54	6089
2026-01-23 22:56:52.64	158.07	17.49	-41.9	-45.8	12.2	3.07e-04	0	61	0	1033895936	54	5992
2026-01-23 22:56:53.65	158.19	17.39	-41.9	-45.8	12.2	2.20e-04	0	61	0	1035993088	54	5978
2026-01-23 22:56:54.66	158.31	17.28	-41.9	-45.8	12.2	2.29e-04	0	61	0	1038090240	54	5980
2026-01-23 22:56:55.67	158.43	17.18	-41.9	-45.9	12.2	2.39e-04	0	61	0	1039138816	54	6000
2026-01-23 22:56:56.68	158.55	17.08	-41.9	-45.8	12.2	1.97e-04	0	61	0	1041235968	54	5990
2026-01-23 22:56:57.69	158.67	16.98	-42.0	-45.9	12.0	2.72e-04	0	61	0	1043333120	54	6043
2026-01-23 22:56:58.70	158.78	16.88	-41.9	-45.8	12.2	2.81e-04	0	61	0	1045430272	54	5975
2026-01-23 22:56:59.70	158.90	16.78	-41.9	-45.9	12.1	2.55e-04	0	61	0	1047527424	54	6008
2026-01-23 22:57:00.71	159.01	16.68	-42.0	-46.0	12.0	3.15e-04	0	61	0	1048576000	54	6097
2026-01-23 22:57:01.72	159.12	16.58	-42.1	-46.2	11.7	4.58e-04	0	61	0	1050673152	54	6249
2026-01-23 22:57:02.73	159.24	16.48	-42.2	-46.4	11.6	6.71e-04	0	61	0	1052770304	54	6376
2026-01-23 22:57:03.74	159.35	16.38	-42.2	-46.6	11.4	9.05e-04	0	61	0	1054867456	55	6144
2026-01-23 22:57:04.75	159.46	16.28	-42.3	-46.7	11.2	1.23e-03	0	61	0	1056964608	55	6272
2026-01-23 22:57:05.76	159.57	16.18	-42.3	-46.8	11.1	1.55e-03	0	61	0	1058013184	55	6304
2026-01-23 22:57:06.77	159.68	16.08	-42.4	-46.9	11.0	1.78e-03	0	61	0	1060110336	55	6365
2026-01-23 22:57:07.78	159.79	15.98	-42.3	-46.9	11.0	1.90e-03	0	61	0	1062207488	55	6360
2026-01-23 22:57:08.79	159.90	15.88	-42.3	-46.7	11.1	1.82e-03	0	61	0	1064304640	55	6273
2026-01-23 22:57:09.80	160.01	15.78	-42.3	-46.8	11.1	1.50e-03	0	61	0	1066401792	55	6283
2026-01-23 22:57:10.81	160.12	15.69	-42.2	-46.6	11.3	1.39e-03	0	61	0	1067450368	55	6183
2026-01-23 22:57:11.82	160.22	15.59	-42.2	-46.6	11.3	1.18e-03	0	61	0	1069547520	55	6160
2026-01-23 22:57:12.83	160.33	15.49	-42.2	-46.6	11.3	1.12e-03	0	61	0	1071644672	55	6153
2026-01-23 22:57:13.84	160.43	15.40	-42.2	-46.6	11.3	1.04e-03	0	61	0	1073741824	55	6132
2026-01-23 22:57:14.85	160.54	15.30	-42.1	-46.3	11.6	7.83e-04	0	61	0	1075838976	55	5924
2026-01-23 22:57:15.86	160.64	15.20	-42.0	-46.2	11.7	6.56e-04	0	61	0	1077936128	55	5859
2026-01-23 22:57:16.87	160.75	15.11	-42.0	-46.2	11.7	5.57e-04	0	61	0	1078984704	55	5869
2026-01-23 22:57:17.88	160.85	15.01	-42.0	-46.1	11.7	5.18e-04	0	61	0	1081081856	55	5833
2026-01-23 22:57:18.89	160.95	14.92	-42.0	-46.1	11.8	5.30e-04	0	61	0	1083179008	55	5817
2026-01-23 22:57:19.90	161.05	14.82	-42.0	-46.2	11.7	5.97e-04	0	61	0	1085276160	55	5889
2026-01-23 22:57:20.91	161.15	14.73	-42.0	-46.2	11.7	7.09e-04	0	61	0	1087373312	55	5865
2026-01-23 22:57:21.92	161.25	14.63	-42.0	-46.1	11.7	5.84e-04	0	61	0	1088421888	55	5811
2026-01-23 22:57:22.93	161.35	14.54	-42.0	-46.1	11.7	5.63e-04	0	61	0	1090519040	55	5843
2026-01-23 22:57:23.94	161.45	14.44	-42.0	-46.2	11.6	7.34e-04	0	61	0	1092616192	55	5878
2026-01-23 22:57:24.94	161.55	14.35	-42.0	-46.3	11.6	6.09e-04	0	61	0	1094713344	55	5924
2026-01-23 22:57:25.95	161.65	14.26	-42.1	-46.4	11.4	8.75e-04	0	61	0	1096810496	55	6013
2026-01-23 22:57:26.96	161.75	14.17	-42.0	-46.2	11.6	7.77e-04	0	61	0	1097859072	55	5908
2026-01-23 22:57:27.97	161.84	14.07	-42.0	-46.3	11.5	7.34e-04	0	61	0	1099956224	55	5935
2026-01-23 22:57:28.98	161.94	13.98	-42.0	-46.3	11.5	8.48e-04	0	61	0	1102053376	55	5937
2026-01-23 22:57:29.99	162.03	13.89	-42.1	-46.4	11.4	9.15e-04	0	61	0	1104150528	55	6011
2026-01-23 22:57:31.00	162.13	13.80	-42.1	-46.4	11.3	9.88e-04	0	61	0	1106247680	55	6035
2026-01-23 22:57:32.01	162.22	13.71	-42.1	-46.5	11.2	1.25e-03	0	61	0	1107296256	55	6098
2026-01-23 22:57:33.02	162.32	13.61	-42.1	-46.5	11.3	1.42e-03	0	61	0	1109393408	55	6074
2026-01-23 22:57:34.03	162.41	13.52	-42.2	-46.6	11.1	1.23e-03	0	61	0	1111490560	55	6183
2026-01-23 22:57:35.04	162.50	13.43	-42.2	-46.6	11.1	1.60e-03	0	61	0	1113587712	55	6184
2026-01-23 22:57:36.05	162.60	13.34	-42.2	-46.7	11.0	1.82e-03	0	61	0	1115684864	55	6245
2026-01-23 22:57:37.06	162.69	13.25	-42.2	-46.7	11.0	2.13e-03	0	61	0	1116733440	55	6265
2026-01-23 22:57:38.07	162.78	13.16	-42.2	-46.8	10.8	2.09e-03	0	61	0	1118830592	55	6331
2026-01-23 22:57:39.08	162.87	13.07	-42.2	-46.8	10.8	2.43e-03	0	61	0	1120927744	55	6339
2026-01-23 22:57:40.08	162.96	12.98	-42.2	-46.8	10.9	2.28e-03	0	61	0	1123024896	55	6314
2026-01-23 22:57:41.09	163.05	12.89	-42.3	-46.8	10.8	2.22e-03	0	62	0	1125122048	55	6347
2026-01-23 22:57:42.10	163.14	12.81	-42.3	-47.0	10.7	2.67e-03	0	61	0	1126170624	55	6454
2026-01-23 22:57:43.11	163.23	12.72	-42.3	-46.9	10.7	3.03e-03	0	61	0	1128267776	55	6397
2026-01-23 22:57:44.12	163.31	12.63	-42.2	-46.9	10.7	2.76e-03	0	61	0	1130364928	55	6364
2026-01-23 22:57:45.13	163.40	12.54	-42.3	-47.0	10.6	3.09e-03	0	62	0	1132462080	55	6446
2026-01-23 22:57:46.14	163.49	12.45	-42.3	-47.0	10.6	3.41e-03	0	61	0	1134559232	55	6439
2026-01-23 22:57:47.15	163.58	12.37	-42.3	-47.1	10.5	3.84e-03	0	61	0	1135607808	55	6526
2026-01-23 22:57:48.16	163.66	12.28	-42.3	-47.1	10.4	4.05e-03	0	62	0	1137704960	55	6566
2026-01-23 22:57:49.17	163.75	12.19	-42.3	-47.2	10.3	4.75e-03	0	61	0	1139802112	55	6632
2026-01-23 22:57:50.18	163.83	12.10	-42.4	-47.3	10.3	5.39e-03	0	61	0	1141899264	55	6651
2026-01-23 22:57:51.19	163.92	12.02	-42.4	-47.4	10.2	5.58e-03	0	61	0	1143996416	55	6765
2026-01-23 22:57:52.20	164.00	11.93	-42.4	-47.4	10.1	6.26e-03	0	61	0	1145044992	55	6770
2026-01-23 22:57:53.21	164.08	11.85	-42.4	-47.4	10.1	6.40e-03	0	61	0	1147142144	55	6766
2026-01-23 22:57:54.22	164.17	11.76	-42.4	-47.4	10.0	7.04e-03	0	62	0	1149239296	55	6787
2026-01-23 22:57:55.23	164.25	11.67	-42.4	-47.5	10.0	7.14e-03	0	61	0	1151336448	55	6833
