passes_logs/2026/01/23/R2.0S_Moscow/R2.0S_Moscow__20260123_005745_AQUA_rec.log

#Pass ID: 20260123_005745_AQUA
#Satellite: AQUA
#Configuration: AQUA
#almurnet v.1.7.20251203
#Start time: 2026-01-23 00:59:09

#Version: 2.2.20231116
#Station: R2.0S_Moscow
#Location: 37.707566 lon 55.798166 lat
#TLE: 1 27424U 02022A   26022.49486490  .00002153  00000+0  44069-3 0  9997
#TLE: 2 27424  98.4099 349.0485 0001970  69.5876  43.4746 14.61847233261984

#Time	Az	El	Level	Level2	SNR	BER	BlckErr	Temp	State	Recorded	gain1	gain2
2026-01-23 00:59:09.65	20.93	8.18	-45.0	-59.6	3.8	1.49e+00	0	61	0	0	61	19491
2026-01-23 00:59:10.67	20.97	8.26	-46.6	-65.1	3.8	7.47e-01	0	61	104	0	63	32841
2026-01-23 00:59:11.68	21.01	8.35	-46.5	-65.1	3.8	7.45e-01	0	61	104	0	63	32676
2026-01-23 00:59:12.69	21.05	8.43	-46.5	-64.9	3.8	7.47e-01	0	61	104	0	63	32110
2026-01-23 00:59:13.70	21.09	8.52	-46.4	-65.0	3.8	7.45e-01	0	61	104	0	63	32286
2026-01-23 00:59:14.71	21.13	8.60	-46.3	-64.8	3.8	7.45e-01	0	61	104	0	63	31762
2026-01-23 00:59:15.72	21.16	8.69	-46.1	-64.7	3.8	7.44e-01	0	61	104	0	63	31149
2026-01-23 00:59:16.73	21.20	8.78	-45.9	-64.4	3.8	7.47e-01	0	61	104	0	63	30329
2026-01-23 00:59:17.74	21.24	8.86	-45.7	-64.2	3.8	7.42e-01	0	61	104	0	63	29485
2026-01-23 00:59:18.75	21.29	8.95	-45.4	-63.9	3.8	7.47e-01	0	61	104	0	62	30104
2026-01-23 00:59:19.76	21.33	9.04	-45.3	-63.4	3.8	7.46e-01	0	61	104	0	62	28651
2026-01-23 00:59:20.77	21.37	9.13	-45.3	-63.2	3.8	7.45e-01	0	61	104	0	62	27989
2026-01-23 00:59:21.78	21.41	9.22	-45.2	-63.1	3.8	7.45e-01	0	61	104	0	62	27619
2026-01-23 00:59:22.79	21.45	9.30	-45.2	-62.9	3.8	7.45e-01	0	61	104	0	62	27026
2026-01-23 00:59:23.80	21.49	9.39	-45.2	-62.8	3.8	7.46e-01	0	61	104	0	62	26466
2026-01-23 00:59:24.81	21.53	9.48	-45.1	-62.6	3.8	7.46e-01	0	61	104	0	62	26108
2026-01-23 00:59:25.82	21.57	9.57	-45.1	-62.6	3.8	7.45e-01	0	61	104	0	62	26041
2026-01-23 00:59:26.83	21.62	9.66	-45.1	-62.5	3.8	7.47e-01	0	61	104	0	62	25722
2026-01-23 00:59:27.84	21.66	9.75	-45.1	-62.5	3.8	7.43e-01	0	61	104	0	62	25623
2026-01-23 00:59:28.85	21.70	9.84	-45.1	-62.5	3.8	7.45e-01	0	61	104	0	62	25707
2026-01-23 00:59:29.86	21.74	9.94	-45.1	-62.6	3.8	7.47e-01	0	61	104	0	62	26015
2026-01-23 00:59:30.87	21.79	10.03	-45.1	-57.8	5.3	6.99e-01	72	61	0	0	62	14998
2026-01-23 00:59:31.88	21.83	10.12	-45.1	-58.2	5.1	7.06e-01	5	61	0	0	62	15634
2026-01-23 00:59:32.89	21.88	10.21	-45.2	-59.4	4.5	7.23e-01	0	61	104	0	62	17982
2026-01-23 00:59:33.90	21.92	10.30	-45.2	-60.8	3.9	7.44e-01	0	61	104	0	62	21216
2026-01-23 00:59:34.91	21.96	10.40	-45.3	-61.0	4.1	7.37e-01	0	61	104	0	62	21656
2026-01-23 00:59:35.92	22.01	10.49	-45.2	-61.0	3.9	7.44e-01	0	61	104	0	62	21597
2026-01-23 00:59:36.93	22.05	10.58	-45.2	-59.0	4.7	7.18e-01	0	61	104	0	62	17088
2026-01-23 00:59:37.94	22.10	10.68	-45.1	-57.4	5.6	6.93e-01	79	61	0	0	62	14291
2026-01-23 00:59:38.95	22.14	10.77	-44.9	-56.0	6.7	6.67e-01	90	61	0	1572864	61	12823
2026-01-23 00:59:39.96	22.19	10.87	-44.8	-54.6	7.9	6.47e-01	86	61	0	3145728	61	10970
2026-01-23 00:59:40.97	22.24	10.96	-44.6	-53.5	9.0	6.30e-01	0	61	0	5242880	61	9705
2026-01-23 00:59:41.98	22.28	11.06	-44.5	-52.8	9.8	6.23e-01	0	61	0	6815744	61	8913
2026-01-23 00:59:43.00	22.33	11.16	-44.4	-52.3	10.3	6.16e-01	0	61	0	8912896	60	8949
2026-01-23 00:59:44.01	22.38	11.25	-44.4	-52.3	10.4	6.14e-01	0	61	0	11010048	60	8866
2026-01-23 00:59:45.02	22.42	11.35	-44.4	-52.4	10.3	6.16e-01	0	61	0	12582912	60	9027
2026-01-23 00:59:46.03	22.47	11.45	-44.5	-52.9	9.8	6.22e-01	0	61	0	14680064	60	9553
2026-01-23 00:59:47.04	22.52	11.55	-44.6	-53.6	9.0	6.30e-01	0	61	0	16252928	60	10352
2026-01-23 00:59:48.05	22.57	11.64	-44.7	-54.3	8.3	6.38e-01	39	61	0	18350080	60	11190
2026-01-23 00:59:49.06	22.62	11.74	-44.8	-54.7	7.9	6.45e-01	90	61	0	20447232	60	11784
2026-01-23 00:59:50.07	22.67	11.84	-44.8	-54.5	8.1	6.43e-01	73	61	0	22020096	60	11462
2026-01-23 00:59:51.08	22.71	11.94	-44.6	-53.2	9.4	6.27e-01	0	61	0	24117248	60	9869
2026-01-23 00:59:52.09	22.76	12.04	-44.2	-51.6	11.0	6.12e-01	0	61	0	26214400	60	8224
2026-01-23 00:59:53.10	22.81	12.14	-44.1	-50.5	12.6	6.03e-01	0	61	0	27787264	59	7707
2026-01-23 00:59:54.11	22.86	12.24	-43.6	-49.0	14.1	6.02e-01	0	61	0	29884416	59	6485
2026-01-23 00:59:55.12	22.91	12.34	-43.2	-47.9	15.2	6.01e-01	0	61	0	31457280	58	6042
2026-01-23 00:59:56.13	22.97	12.45	-42.8	-47.0	16.2	6.03e-01	0	61	0	33554432	57	5776
2026-01-23 00:59:57.14	23.02	12.55	-42.5	-46.5	16.7	6.00e-01	0	61	0	35651584	57	5407
2026-01-23 00:59:58.15	23.07	12.65	-42.3	-46.0	17.2	6.00e-01	0	61	0	37224448	56	5463
2026-01-23 00:59:59.16	23.12	12.75	-42.2	-45.9	17.4	6.01e-01	0	61	0	39321600	56	5348
2026-01-23 01:00:00.17	23.17	12.86	-42.2	-45.9	17.4	5.99e-01	0	61	0	41418752	56	5351
2026-01-23 01:00:01.18	23.22	12.96	-42.3	-46.0	17.2	6.02e-01	0	61	0	42991616	56	5446
2026-01-23 01:00:02.19	23.28	13.07	-42.5	-46.4	16.9	6.01e-01	0	61	0	45088768	56	5691
2026-01-23 01:00:03.20	23.33	13.17	-42.7	-46.8	16.4	6.03e-01	0	61	0	46661632	56	5965
2026-01-23 01:00:04.21	23.39	13.28	-43.1	-47.5	15.7	6.00e-01	0	61	0	48758784	56	6465
2026-01-23 01:00:05.22	23.44	13.38	-42.8	-46.8	16.2	6.02e-01	0	61	0	50855936	57	5653
2026-01-23 01:00:06.23	23.49	13.49	-44.7	-54.3	8.4	6.38e-01	44	61	0	52428800	60	11189
2026-01-23 01:00:07.24	23.55	13.60	-44.9	-55.4	6.6	6.63e-01	52	61	0	54001664	60	12730
2026-01-23 01:00:08.25	23.60	13.71	-44.0	-49.8	13.3	6.03e-01	0	61	0	55574528	59	7084
2026-01-23 01:00:09.26	23.66	13.81	-41.9	-45.2	18.0	6.01e-01	0	61	0	57671680	55	5272
2026-01-23 01:00:10.27	23.72	13.92	-41.8	-45.2	18.0	6.01e-01	0	61	0	59768832	55	5274
2026-01-23 01:00:11.28	23.77	14.03	-41.8	-45.2	18.1	6.02e-01	0	61	0	61341696	55	5230
2026-01-23 01:00:12.29	23.83	14.14	-41.8	-45.1	18.2	6.00e-01	0	61	0	63438848	55	5185
2026-01-23 01:00:13.30	23.89	14.25	-41.8	-45.1	18.2	6.00e-01	0	61	0	65011712	55	5185
2026-01-23 01:00:14.31	23.94	14.36	-41.7	-45.0	18.3	6.00e-01	0	61	0	67108864	55	5147
2026-01-23 01:00:15.32	24.00	14.47	-41.7	-44.9	18.4	6.02e-01	0	61	0	69206016	55	5080
2026-01-23 01:00:16.33	24.06	14.59	-41.7	-45.0	18.3	6.01e-01	0	61	0	70778880	55	5109
2026-01-23 01:00:17.33	24.12	14.70	-41.7	-45.0	18.3	6.00e-01	0	61	0	72876032	55	5128
2026-01-23 01:00:18.34	24.18	14.81	-41.7	-45.0	18.3	6.01e-01	0	61	0	74448896	55	5139
2026-01-23 01:00:19.36	24.24	14.92	-41.7	-45.0	18.3	6.02e-01	0	61	0	76546048	55	5103
2026-01-23 01:00:20.36	24.30	15.04	-41.7	-45.0	18.3	6.00e-01	0	61	0	78643200	55	5142
2026-01-23 01:00:21.37	24.36	15.15	-41.8	-45.1	18.3	6.02e-01	0	61	0	80216064	55	5161
2026-01-23 01:00:22.38	24.42	15.27	-41.7	-45.0	18.3	6.01e-01	0	61	0	82313216	55	5138
2026-01-23 01:00:23.39	24.48	15.38	-41.8	-45.0	18.3	6.03e-01	0	61	0	83886080	55	5148
2026-01-23 01:00:24.40	24.55	15.50	-41.7	-45.0	18.3	6.00e-01	0	61	0	85983232	55	5135
2026-01-23 01:00:25.41	24.61	15.62	-41.8	-45.0	18.3	5.99e-01	0	61	0	88080384	55	5145
2026-01-23 01:00:26.42	24.67	15.73	-41.8	-45.0	18.4	6.02e-01	0	61	0	89653248	55	5134
2026-01-23 01:00:27.43	24.74	15.85	-41.7	-45.0	18.4	6.00e-01	0	61	0	91750400	55	5126
2026-01-23 01:00:28.44	24.80	15.97	-41.8	-45.0	18.4	6.00e-01	0	61	0	93847552	55	5138
2026-01-23 01:00:29.45	24.87	16.09	-41.7	-45.0	18.5	6.03e-01	0	61	0	95420416	55	5101
2026-01-23 01:00:30.46	24.93	16.21	-41.7	-44.9	18.5	6.00e-01	0	61	0	97517568	55	5043
2026-01-23 01:00:31.46	25.00	16.33	-41.6	-44.8	18.6	6.03e-01	0	61	0	99090432	55	4991
2026-01-23 01:00:32.47	25.06	16.45	-41.7	-44.8	18.7	6.01e-01	0	61	0	101187584	55	5005
2026-01-23 01:00:33.48	25.13	16.57	-41.7	-44.8	18.7	6.03e-01	0	61	0	103284736	55	5021
2026-01-23 01:00:34.49	25.20	16.70	-41.7	-44.8	18.7	6.01e-01	0	61	0	104857600	55	5002
2026-01-23 01:00:35.50	25.27	16.82	-41.7	-44.8	18.7	6.01e-01	0	60	0	106954752	55	5013
2026-01-23 01:00:36.51	25.33	16.94	-41.7	-44.8	18.7	6.00e-01	0	61	0	109051904	55	5041
2026-01-23 01:00:37.52	25.40	17.07	-41.7	-44.9	18.6	6.02e-01	0	61	0	110624768	55	5066
2026-01-23 01:00:38.53	25.47	17.19	-41.7	-44.9	18.6	6.00e-01	0	61	0	112721920	55	5069
2026-01-23 01:00:39.54	25.54	17.32	-41.8	-44.9	18.5	6.04e-01	0	61	0	114294784	55	5077
2026-01-23 01:00:40.56	25.61	17.45	-41.8	-44.9	18.6	6.02e-01	0	61	0	116391936	55	5093
2026-01-23 01:00:41.57	25.69	17.58	-41.7	-44.8	18.7	6.01e-01	0	61	0	118489088	55	5036
2026-01-23 01:00:42.58	25.76	17.70	-41.7	-44.9	18.6	6.03e-01	0	61	0	120061952	55	5065
2026-01-23 01:00:43.59	25.83	17.83	-41.8	-44.9	18.6	6.00e-01	0	61	0	122159104	55	5074
2026-01-23 01:00:44.60	25.90	17.96	-41.7	-44.9	18.7	6.00e-01	0	61	0	123731968	55	5057
2026-01-23 01:00:45.61	25.98	18.09	-41.7	-44.8	18.7	6.04e-01	0	61	0	125829120	55	5011
2026-01-23 01:00:46.62	26.05	18.22	-41.7	-44.9	18.7	6.02e-01	0	61	0	127926272	55	5045
2026-01-23 01:00:47.62	26.13	18.35	-41.6	-44.7	18.9	5.98e-01	0	61	0	129499136	55	4956
2026-01-23 01:00:48.63	26.20	18.48	-41.6	-44.7	18.9	6.00e-01	0	61	0	131596288	55	4957
2026-01-23 01:00:49.64	26.28	18.62	-41.7	-44.7	18.8	6.00e-01	0	61	0	133169152	55	4981
2026-01-23 01:00:50.65	26.36	18.75	-41.7	-44.8	18.8	6.01e-01	0	60	0	135266304	55	5011
2026-01-23 01:00:51.66	26.43	18.89	-41.8	-44.9	18.7	6.00e-01	0	61	0	137363456	55	5057
2026-01-23 01:00:52.67	26.51	19.02	-41.7	-44.8	18.7	6.01e-01	0	61	0	138936320	55	5032
2026-01-23 01:00:53.68	26.59	19.16	-41.7	-44.9	18.7	5.98e-01	0	61	0	141033472	55	5047
2026-01-23 01:00:54.69	26.67	19.29	-41.8	-44.9	18.7	6.00e-01	0	61	0	142606336	55	5072
2026-01-23 01:00:55.69	26.75	19.43	-41.7	-44.8	18.8	6.00e-01	0	61	0	144703488	55	5003
2026-01-23 01:00:56.70	26.83	19.57	-41.7	-44.7	18.9	5.99e-01	0	61	0	146800640	55	4971
2026-01-23 01:00:57.71	26.92	19.71	-41.7	-44.7	18.9	6.01e-01	0	61	0	148373504	55	4967
2026-01-23 01:00:58.72	27.00	19.85	-41.7	-44.8	18.9	6.03e-01	0	61	0	150470656	55	4995
2026-01-23 01:00:59.73	27.08	19.99	-41.7	-44.7	18.9	6.00e-01	0	61	0	152567808	55	4958
2026-01-23 01:01:00.74	27.17	20.13	-41.7	-44.7	18.9	6.01e-01	0	61	0	154140672	55	4976
2026-01-23 01:01:01.75	27.25	20.27	-41.7	-44.7	18.9	5.99e-01	0	61	0	156237824	55	4958
2026-01-23 01:01:02.76	27.34	20.42	-41.7	-44.7	18.9	6.04e-01	0	61	0	157810688	55	4970
2026-01-23 01:01:03.77	27.43	20.56	-41.7	-44.8	18.9	6.00e-01	0	61	0	159907840	55	5000
2026-01-23 01:01:04.78	27.51	20.71	-41.8	-44.8	18.8	5.98e-01	0	61	0	162004992	55	5041
2026-01-23 01:01:05.79	27.60	20.85	-41.8	-44.8	18.8	5.98e-01	0	61	0	163577856	55	5041
2026-01-23 01:01:06.80	27.69	21.00	-41.7	-44.8	18.9	5.98e-01	0	61	0	165675008	55	4995
2026-01-23 01:01:07.81	27.78	21.15	-41.7	-44.8	18.9	6.02e-01	0	61	0	167247872	55	5000
2026-01-23 01:01:08.82	27.87	21.30	-41.7	-44.7	19.0	6.04e-01	0	60	0	169345024	55	4949
2026-01-23 01:01:09.83	27.97	21.45	-41.7	-44.7	19.0	6.01e-01	0	61	0	171442176	55	4964
2026-01-23 01:01:10.84	28.06	21.60	-41.8	-44.8	18.9	6.02e-01	0	61	0	173015040	55	5015
2026-01-23 01:01:11.85	28.15	21.75	-41.8	-44.9	18.8	6.01e-01	0	61	0	175112192	55	5059
2026-01-23 01:01:12.86	28.25	21.90	-41.9	-45.0	18.7	6.00e-01	0	61	0	177209344	55	5103
2026-01-23 01:01:13.87	28.34	22.05	-41.8	-44.9	18.8	6.00e-01	0	61	0	178782208	55	5062
2026-01-23 01:01:14.88	28.44	22.21	-41.9	-44.9	18.8	6.01e-01	0	61	0	180879360	55	5091
2026-01-23 01:01:15.89	28.54	22.36	-41.8	-44.9	18.8	5.99e-01	0	61	0	182452224	55	5050
2026-01-23 01:01:16.90	28.64	22.52	-41.8	-44.8	18.9	6.01e-01	0	61	0	184549376	55	5038
2026-01-23 01:01:17.91	28.74	22.67	-41.8	-44.8	18.9	6.01e-01	0	61	0	186646528	55	5034
2026-01-23 01:01:18.92	28.84	22.83	-41.8	-44.9	18.9	6.01e-01	0	61	0	188219392	55	5047
2026-01-23 01:01:19.93	28.94	22.99	-41.9	-44.9	18.8	6.02e-01	0	61	0	190316544	55	5091
2026-01-23 01:01:20.94	29.04	23.15	-41.8	-44.9	18.8	6.02e-01	0	61	0	191889408	55	5074
2026-01-23 01:01:21.95	29.14	23.31	-41.9	-45.0	18.8	6.01e-01	0	61	0	193986560	55	5125
2026-01-23 01:01:22.96	29.25	23.47	-42.0	-45.1	18.7	6.02e-01	0	61	0	196083712	55	5179
2026-01-23 01:01:23.97	29.36	23.64	-41.9	-45.1	18.7	5.98e-01	0	61	0	197656576	55	5165
2026-01-23 01:01:24.98	29.46	23.80	-42.0	-45.1	18.7	6.01e-01	0	61	0	199753728	55	5177
2026-01-23 01:01:25.99	29.57	23.97	-42.0	-45.1	18.6	6.01e-01	0	61	0	201326592	55	5208
2026-01-23 01:01:27.00	29.68	24.13	-42.0	-45.1	18.6	6.01e-01	0	61	0	203423744	55	5206
2026-01-23 01:01:28.01	29.79	24.30	-42.0	-45.1	18.6	6.01e-01	0	61	0	205520896	55	5209
2026-01-23 01:01:29.02	29.90	24.47	-42.0	-45.1	18.7	6.01e-01	0	61	0	207093760	55	5182
2026-01-23 01:01:30.03	30.02	24.64	-42.0	-45.1	18.7	6.02e-01	0	61	0	209190912	55	5161
2026-01-23 01:01:31.04	30.13	24.81	-41.9	-44.9	18.8	6.00e-01	0	61	0	210763776	55	5097
2026-01-23 01:01:32.05	30.25	24.98	-41.9	-44.9	18.9	6.02e-01	0	61	0	212860928	55	5066
2026-01-23 01:01:33.06	30.36	25.15	-41.9	-45.0	18.8	6.00e-01	0	61	0	214958080	55	5126
2026-01-23 01:01:34.07	30.48	25.33	-42.0	-45.1	18.7	5.99e-01	0	61	0	216530944	55	5169
2026-01-23 01:01:35.07	30.60	25.50	-42.0	-45.1	18.7	5.98e-01	0	61	0	218628096	55	5204
2026-01-23 01:01:36.08	30.72	25.68	-42.0	-45.2	18.6	6.01e-01	0	61	0	220200960	55	5251
2026-01-23 01:01:37.09	30.84	25.85	-42.1	-45.2	18.6	6.03e-01	0	61	0	222298112	55	5274
2026-01-23 01:01:38.10	30.96	26.03	-42.1	-45.2	18.6	6.00e-01	0	61	0	224395264	55	5249
2026-01-23 01:01:39.11	31.09	26.21	-42.0	-45.1	18.7	6.00e-01	0	61	0	225968128	55	5175
2026-01-23 01:01:40.12	31.22	26.39	-41.8	-44.8	19.0	6.02e-01	0	61	0	228065280	55	4998
2026-01-23 01:01:41.13	31.34	26.57	-41.7	-44.7	19.1	6.02e-01	0	61	0	230162432	55	4946
2026-01-23 01:01:42.14	31.47	26.76	-41.8	-44.8	19.0	6.00e-01	0	60	0	231735296	55	5029
2026-01-23 01:01:43.15	31.60	26.94	-41.9	-44.9	18.9	6.00e-01	0	61	0	233832448	55	5096
2026-01-23 01:01:44.16	31.74	27.13	-41.8	-44.9	19.0	6.02e-01	0	61	0	235405312	55	5043
2026-01-23 01:01:45.17	31.87	27.31	-41.8	-44.7	19.1	5.98e-01	0	60	0	237502464	55	4968
2026-01-23 01:01:46.18	32.00	27.50	-41.8	-44.7	19.1	6.01e-01	0	60	0	239599616	55	4978
2026-01-23 01:01:47.18	32.14	27.69	-41.8	-44.8	19.0	6.00e-01	0	61	0	241172480	55	5024
2026-01-23 01:01:48.19	32.28	27.88	-41.8	-44.8	19.1	6.03e-01	0	61	0	243269632	55	4998
2026-01-23 01:01:49.20	32.42	28.07	-41.8	-44.8	19.1	6.01e-01	0	61	0	244842496	55	5006
2026-01-23 01:01:50.21	32.56	28.26	-41.8	-44.8	19.0	6.02e-01	0	61	0	246939648	55	5011
2026-01-23 01:01:51.22	32.71	28.46	-41.9	-44.9	19.0	5.98e-01	0	61	0	249036800	55	5053
2026-01-23 01:01:52.23	32.85	28.65	-41.7	-44.7	19.2	6.01e-01	0	61	0	250609664	55	4934
2026-01-23 01:01:53.24	33.00	28.85	-41.6	-44.5	19.3	6.01e-01	0	60	0	252706816	55	4858
2026-01-23 01:01:54.25	33.15	29.05	-41.6	-44.5	19.3	6.01e-01	0	61	0	254279680	55	4854
2026-01-23 01:01:55.26	33.30	29.25	-41.6	-44.5	19.4	6.02e-01	0	61	0	256376832	55	4836
2026-01-23 01:01:56.27	33.45	29.45	-41.6	-44.4	19.4	5.99e-01	0	61	0	258473984	55	4812
2026-01-23 01:01:57.28	33.61	29.65	-41.6	-44.4	19.5	5.99e-01	0	61	0	260046848	55	4775
2026-01-23 01:01:58.28	33.76	29.85	-41.5	-44.4	19.5	6.03e-01	0	61	0	262144000	55	4770
2026-01-23 01:01:59.29	33.92	30.05	-41.6	-44.5	19.4	6.03e-01	0	61	0	263716864	55	4850
2026-01-23 01:02:00.31	34.08	30.26	-41.7	-44.6	19.3	6.01e-01	0	61	0	265814016	55	4876
2026-01-23 01:02:01.32	34.25	30.47	-41.7	-44.6	19.2	6.02e-01	0	61	0	267911168	55	4910
2026-01-23 01:02:02.33	34.41	30.68	-41.6	-44.5	19.4	6.02e-01	0	61	0	269484032	55	4837
2026-01-23 01:02:03.34	34.58	30.89	-41.7	-44.6	19.3	6.02e-01	0	61	0	271581184	55	4892
2026-01-23 01:02:04.35	34.75	31.10	-41.7	-44.7	19.2	6.02e-01	0	61	0	273678336	55	4930
2026-01-23 01:02:05.36	34.92	31.31	-41.8	-44.7	19.2	6.00e-01	0	61	0	275251200	55	4961
2026-01-23 01:02:06.37	35.09	31.53	-41.8	-44.7	19.1	6.02e-01	0	61	0	277348352	55	4975
2026-01-23 01:02:07.38	35.27	31.74	-41.8	-44.8	19.1	5.99e-01	0	61	0	278921216	55	4985
2026-01-23 01:02:08.39	35.45	31.96	-41.9	-44.8	19.0	6.00e-01	0	61	0	281018368	55	5037
2026-01-23 01:02:09.40	35.63	32.18	-41.9	-44.8	19.1	5.97e-01	0	60	0	283115520	55	5030
2026-01-23 01:02:10.41	35.81	32.40	-41.9	-44.8	19.1	6.02e-01	0	61	0	284688384	55	5026
2026-01-23 01:02:11.42	36.00	32.62	-41.9	-44.8	19.1	6.00e-01	0	61	0	286785536	55	5032
2026-01-23 01:02:12.43	36.19	32.84	-42.0	-45.0	18.9	5.99e-01	0	61	0	288882688	55	5123
2026-01-23 01:02:13.43	36.38	33.07	-42.0	-45.0	18.9	6.01e-01	0	61	0	290455552	55	5130
2026-01-23 01:02:14.44	36.57	33.29	-42.0	-45.1	18.8	6.02e-01	0	61	0	292552704	55	5177
2026-01-23 01:02:15.45	36.77	33.52	-42.1	-45.2	18.8	6.02e-01	0	61	0	294125568	55	5224
2026-01-23 01:02:16.46	36.97	33.75	-42.1	-45.2	18.8	6.00e-01	0	61	0	296222720	55	5230
2026-01-23 01:02:17.47	37.17	33.98	-42.1	-45.2	18.7	6.00e-01	0	61	0	298319872	55	5249
2026-01-23 01:02:18.48	37.38	34.21	-42.1	-45.2	18.7	6.01e-01	0	61	0	299892736	55	5263
2026-01-23 01:02:19.49	37.59	34.44	-42.2	-45.4	18.5	6.02e-01	0	61	0	301989888	55	5381
2026-01-23 01:02:20.50	37.80	34.68	-42.4	-45.7	18.2	6.00e-01	0	61	0	303562752	55	5581
2026-01-23 01:02:21.51	38.01	34.91	-42.4	-45.6	18.3	6.03e-01	0	61	0	305659904	55	5508
2026-01-23 01:02:22.52	38.23	35.15	-42.4	-45.7	18.2	6.01e-01	0	61	0	307757056	55	5592
2026-01-23 01:02:23.53	38.45	35.39	-42.6	-46.0	17.9	6.00e-01	0	61	0	309329920	55	5788
2026-01-23 01:02:24.54	38.67	35.63	-42.7	-46.2	17.8	6.02e-01	0	61	0	311427072	55	5868
2026-01-23 01:02:25.55	38.90	35.87	-42.5	-45.9	18.1	6.02e-01	0	61	0	312999936	55	5681
2026-01-23 01:02:26.56	39.13	36.12	-42.7	-46.1	17.9	6.02e-01	0	61	0	315097088	55	5829
2026-01-23 01:02:27.57	39.37	36.36	-42.9	-46.5	17.6	6.01e-01	0	61	0	317194240	56	5757
2026-01-23 01:02:28.58	39.60	36.61	-43.0	-46.7	17.3	6.02e-01	0	61	0	318767104	56	5909
2026-01-23 01:02:29.59	39.85	36.86	-43.1	-46.8	17.2	6.01e-01	0	61	0	320864256	56	5957
2026-01-23 01:02:30.60	40.09	37.11	-43.1	-46.8	17.2	6.00e-01	0	61	0	322961408	56	5974
2026-01-23 01:02:31.61	40.34	37.36	-43.1	-46.8	17.3	6.02e-01	0	61	0	324534272	56	5929
2026-01-23 01:02:32.62	40.59	37.61	-43.0	-46.7	17.4	6.01e-01	0	61	0	326631424	56	5883
2026-01-23 01:02:33.63	40.85	37.86	-43.0	-46.7	17.4	6.01e-01	0	61	0	328204288	56	5866
2026-01-23 01:02:34.64	41.11	38.12	-43.3	-47.1	16.9	6.01e-01	0	61	0	330301440	57	5854
2026-01-23 01:02:35.65	41.38	38.37	-43.2	-47.1	17.0	6.00e-01	0	61	0	331874304	57	5812
2026-01-23 01:02:36.66	41.65	38.63	-43.2	-47.0	17.1	5.99e-01	0	61	0	333971456	57	5741
2026-01-23 01:02:37.67	41.92	38.89	-43.2	-47.0	17.0	6.02e-01	0	61	0	336068608	57	5786
2026-01-23 01:02:38.67	42.20	39.15	-43.1	-46.8	17.3	6.00e-01	0	61	0	337641472	57	5644
2026-01-23 01:02:39.68	42.48	39.41	-42.9	-46.4	17.6	5.98e-01	0	61	0	339738624	57	5394
2026-01-23 01:02:40.69	42.77	39.67	-42.9	-46.4	17.7	6.04e-01	0	60	0	341835776	57	5366
2026-01-23 01:02:41.70	43.06	39.94	-42.9	-46.4	17.7	6.00e-01	0	61	0	343408640	57	5365
2026-01-23 01:02:42.71	43.36	40.21	-42.8	-46.3	17.8	5.99e-01	0	61	0	345505792	57	5318
2026-01-23 01:02:43.72	43.66	40.47	-42.8	-46.3	17.8	5.98e-01	0	61	0	347078656	57	5284
2026-01-23 01:02:44.73	43.97	40.74	-42.8	-46.2	17.9	6.01e-01	0	61	0	349175808	57	5271
2026-01-23 01:02:45.74	44.28	41.01	-42.7	-46.1	18.0	6.01e-01	0	61	0	351272960	57	5201
2026-01-23 01:02:46.75	44.60	41.28	-42.7	-46.0	18.2	5.99e-01	0	61	0	352845824	57	5112
2026-01-23 01:02:47.76	44.92	41.55	-42.5	-45.7	18.4	6.00e-01	0	61	0	354942976	57	4962
2026-01-23 01:02:48.77	45.25	41.83	-42.6	-45.8	18.3	5.99e-01	0	61	0	357040128	57	5014
2026-01-23 01:02:49.78	45.58	42.10	-42.4	-45.6	18.5	6.00e-01	0	61	0	358612992	56	5183
2026-01-23 01:02:50.79	45.92	42.38	-42.3	-45.5	18.7	6.03e-01	0	61	0	360710144	56	5107
2026-01-23 01:02:51.80	46.27	42.65	-42.3	-45.4	18.8	6.01e-01	0	61	0	362283008	56	5059
2026-01-23 01:02:52.81	46.62	42.93	-42.2	-45.3	18.9	6.01e-01	0	61	0	364380160	56	5002
2026-01-23 01:02:53.82	46.98	43.21	-42.2	-45.3	18.9	6.03e-01	0	61	0	366477312	56	4995
2026-01-23 01:02:54.82	47.34	43.49	-42.2	-45.2	19.0	6.01e-01	0	61	0	368050176	56	4930
2026-01-23 01:02:55.83	47.71	43.77	-42.0	-45.0	19.1	6.02e-01	0	61	0	370147328	56	4840
2026-01-23 01:02:56.84	48.09	44.05	-42.0	-44.9	19.2	6.01e-01	0	61	0	371720192	56	4792
2026-01-23 01:02:57.85	48.47	44.33	-41.8	-44.6	19.5	6.01e-01	0	61	0	373817344	55	4881
2026-01-23 01:02:58.86	48.86	44.62	-41.8	-44.6	19.5	6.00e-01	0	61	0	375914496	55	4913
2026-01-23 01:02:59.87	49.26	44.90	-41.7	-44.5	19.6	6.00e-01	0	61	0	377487360	55	4826
2026-01-23 01:03:00.88	49.67	45.18	-41.7	-44.5	19.6	5.98e-01	0	61	0	379584512	55	4829
2026-01-23 01:03:01.89	50.08	45.47	-41.7	-44.4	19.6	6.02e-01	0	61	0	381157376	55	4810
2026-01-23 01:03:02.90	50.50	45.75	-41.8	-44.6	19.4	6.03e-01	0	61	0	383254528	55	4918
2026-01-23 01:03:03.91	50.93	46.04	-41.7	-44.4	19.6	6.01e-01	0	61	0	385351680	55	4802
2026-01-23 01:03:04.92	51.36	46.33	-41.5	-44.2	19.9	6.03e-01	0	61	0	386924544	55	4681
2026-01-23 01:03:05.93	51.81	46.61	-41.5	-44.2	19.8	6.01e-01	0	61	0	389021696	55	4691
2026-01-23 01:03:06.94	52.26	46.90	-41.6	-44.3	19.8	6.01e-01	0	61	0	390594560	55	4716
2026-01-23 01:03:07.95	52.72	47.19	-41.5	-44.2	19.9	6.01e-01	0	60	0	392691712	55	4701
2026-01-23 01:03:08.96	53.19	47.47	-41.6	-44.4	19.8	6.05e-01	0	61	0	394788864	55	4768
2026-01-23 01:03:09.97	53.67	47.76	-41.8	-44.6	19.5	6.00e-01	0	61	0	396361728	55	4896
2026-01-23 01:03:10.98	54.16	48.05	-41.7	-44.4	19.7	6.03e-01	0	61	0	398458880	55	4811
2026-01-23 01:03:11.99	54.65	48.33	-41.7	-44.5	19.6	6.03e-01	0	61	0	400031744	55	4838
2026-01-23 01:03:12.99	55.15	48.62	-41.7	-44.5	19.6	5.99e-01	0	61	0	402128896	55	4859
2026-01-23 01:03:14.00	55.67	48.90	-41.9	-44.7	19.4	6.01e-01	0	61	0	404226048	55	4963
2026-01-23 01:03:15.01	56.19	49.19	-41.7	-44.5	19.7	6.03e-01	0	61	0	405798912	55	4827
2026-01-23 01:03:16.02	56.73	49.47	-42.0	-44.9	19.3	5.99e-01	0	61	0	407896064	55	5052
2026-01-23 01:03:17.03	57.27	49.76	-42.0	-44.9	19.2	6.00e-01	0	61	0	409993216	55	5094
2026-01-23 01:03:18.04	57.83	50.04	-41.7	-44.5	19.6	5.98e-01	0	61	0	411566080	55	4849
2026-01-23 01:03:19.05	58.39	50.32	-41.6	-44.4	19.8	5.98e-01	0	61	0	413663232	55	4767
2026-01-23 01:03:20.06	58.97	50.60	-41.8	-44.6	19.5	6.01e-01	0	61	0	415236096	55	4917
2026-01-23 01:03:21.07	59.55	50.88	-41.7	-44.5	19.6	6.02e-01	0	61	0	417333248	55	4845
2026-01-23 01:03:22.08	60.15	51.16	-41.7	-44.4	19.8	6.01e-01	0	61	0	419430400	55	4786
2026-01-23 01:03:23.09	60.76	51.44	-41.6	-44.4	19.8	6.04e-01	0	61	0	421003264	55	4769
2026-01-23 01:03:24.10	61.38	51.71	-41.7	-44.4	19.7	6.00e-01	0	61	0	423100416	55	4798
2026-01-23 01:03:25.11	62.01	51.99	-41.6	-44.3	19.9	6.01e-01	0	61	0	424673280	55	4743
2026-01-23 01:03:26.12	62.66	52.26	-41.7	-44.5	19.6	6.01e-01	0	61	0	426770432	55	4865
2026-01-23 01:03:27.13	63.31	52.53	-41.8	-44.6	19.6	6.02e-01	0	61	0	428867584	55	4884
2026-01-23 01:03:28.14	63.98	52.80	-41.9	-44.8	19.3	6.01e-01	0	60	0	430440448	55	5027
2026-01-23 01:03:29.14	64.66	53.06	-41.7	-44.5	19.8	6.01e-01	0	60	0	432537600	55	4821
2026-01-23 01:03:30.15	65.35	53.32	-41.9	-44.7	19.5	6.02e-01	0	61	0	434634752	55	4956
2026-01-23 01:03:31.16	66.05	53.58	-42.0	-44.9	19.2	6.01e-01	0	61	0	436207616	55	5096
2026-01-23 01:03:32.17	66.77	53.83	-42.0	-44.9	19.3	6.03e-01	0	61	0	438304768	55	5064
2026-01-23 01:03:33.18	67.50	54.09	-42.0	-44.9	19.3	6.02e-01	0	61	0	439877632	55	5050
2026-01-23 01:03:34.19	68.24	54.34	-42.1	-45.1	19.1	6.00e-01	0	61	0	441974784	55	5165
2026-01-23 01:03:35.20	69.00	54.58	-42.2	-45.2	19.0	6.00e-01	0	61	0	443547648	55	5262
2026-01-23 01:03:36.21	69.77	54.83	-42.1	-45.1	19.1	6.02e-01	0	61	0	445644800	55	5179
2026-01-23 01:03:37.22	70.55	55.06	-42.3	-45.3	18.9	6.01e-01	0	60	0	447741952	55	5321
2026-01-23 01:03:38.23	71.35	55.30	-42.4	-45.5	18.7	6.00e-01	0	61	0	449314816	55	5443
2026-01-23 01:03:39.24	72.16	55.53	-42.3	-45.4	18.8	6.03e-01	0	61	0	451411968	55	5387
2026-01-23 01:03:40.25	72.98	55.75	-42.4	-45.5	18.7	6.00e-01	0	61	0	452984832	55	5409
2026-01-23 01:03:41.26	73.82	55.97	-42.6	-45.8	18.4	6.01e-01	0	61	0	455081984	55	5615
2026-01-23 01:03:42.27	74.67	56.19	-42.5	-45.7	18.5	6.01e-01	0	61	0	457179136	55	5540
2026-01-23 01:03:43.28	75.53	56.40	-42.5	-45.6	18.6	6.05e-01	0	61	0	458752000	55	5520
2026-01-23 01:03:44.29	76.40	56.60	-43.0	-46.5	17.9	6.01e-01	0	60	0	460849152	56	5726
2026-01-23 01:03:45.29	77.28	56.80	-42.9	-46.2	18.1	6.01e-01	0	60	0	462946304	56	5579
2026-01-23 01:03:46.30	78.18	56.99	-43.1	-46.6	17.7	6.00e-01	0	61	0	464519168	56	5807
2026-01-23 01:03:47.31	79.10	57.18	-43.1	-46.7	17.7	6.01e-01	0	61	0	466616320	56	5875
2026-01-23 01:03:48.32	80.02	57.36	-43.2	-46.9	17.5	6.01e-01	0	60	0	468189184	57	5663
2026-01-23 01:03:49.33	80.96	57.54	-43.4	-47.2	17.1	6.00e-01	0	61	0	470286336	57	5877
2026-01-23 01:03:50.34	81.91	57.70	-43.4	-47.1	17.2	5.99e-01	0	61	0	472383488	57	5823
2026-01-23 01:03:51.35	82.87	57.86	-43.4	-47.2	17.0	6.02e-01	0	61	0	473956352	57	5921
2026-01-23 01:03:52.36	83.84	58.02	-43.4	-47.1	17.2	5.99e-01	0	61	0	476053504	57	5852
2026-01-23 01:03:53.37	84.83	58.16	-43.3	-46.9	17.4	6.00e-01	0	60	0	478150656	57	5697
2026-01-23 01:03:54.38	85.82	58.30	-43.3	-47.0	17.3	6.02e-01	0	61	0	479723520	57	5736
2026-01-23 01:03:55.39	86.83	58.43	-43.3	-46.9	17.4	6.00e-01	0	61	0	481820672	57	5677
2026-01-23 01:03:56.40	87.84	58.56	-43.2	-46.8	17.5	6.01e-01	0	61	0	483393536	57	5653
2026-01-23 01:03:57.41	88.87	58.67	-43.3	-47.0	17.2	6.02e-01	0	61	0	485490688	57	5786
2026-01-23 01:03:58.42	89.90	58.78	-43.3	-46.9	17.3	6.01e-01	0	61	0	487587840	57	5710
2026-01-23 01:03:59.42	90.93	58.88	-43.4	-47.1	17.2	6.01e-01	0	61	0	489160704	57	5839
2026-01-23 01:04:00.43	91.98	58.97	-43.4	-47.3	16.9	6.02e-01	0	61	0	491257856	57	5953
2026-01-23 01:04:01.44	93.03	59.05	-43.5	-47.4	16.8	5.99e-01	0	61	0	492830720	57	6057
2026-01-23 01:04:02.45	94.09	59.12	-43.3	-47.1	17.2	5.98e-01	0	61	0	494927872	57	5821
2026-01-23 01:04:03.46	95.16	59.19	-43.7	-47.7	16.5	6.01e-01	0	60	0	497025024	57	6249
2026-01-23 01:04:04.47	96.23	59.24	-43.5	-47.3	17.0	6.02e-01	0	61	0	498597888	57	5978
2026-01-23 01:04:05.48	97.31	59.29	-43.5	-47.4	16.8	6.00e-01	0	60	0	500695040	57	6017
2026-01-23 01:04:06.49	98.39	59.33	-43.5	-47.4	16.8	6.02e-01	0	60	0	502267904	57	6047
2026-01-23 01:04:07.50	99.47	59.35	-43.4	-47.2	17.0	6.00e-01	0	61	0	504365056	57	5878
2026-01-23 01:04:08.51	100.55	59.37	-43.3	-46.9	17.3	6.01e-01	0	60	0	506462208	57	5720
2026-01-23 01:04:09.52	101.64	59.38	-43.3	-47.1	17.1	6.01e-01	0	61	0	508035072	57	5816
2026-01-23 01:04:10.53	102.72	59.38	-43.4	-47.3	16.9	6.01e-01	0	60	0	510132224	57	5960
2026-01-23 01:04:11.54	103.81	59.37	-43.3	-47.1	17.1	5.99e-01	0	61	0	511705088	57	5819
2026-01-23 01:04:12.55	104.89	59.36	-43.3	-47.0	17.2	6.02e-01	0	60	0	513802240	57	5763
2026-01-23 01:04:13.56	105.98	59.33	-43.3	-47.1	17.2	5.99e-01	0	61	0	515899392	57	5795
2026-01-23 01:04:14.57	107.06	59.29	-43.6	-47.6	16.6	5.99e-01	0	60	0	517472256	57	6163
2026-01-23 01:04:15.57	108.12	59.25	-43.5	-47.3	16.9	6.01e-01	0	60	0	519569408	57	5978
2026-01-23 01:04:16.58	109.20	59.19	-43.5	-47.5	16.7	5.99e-01	0	61	0	521142272	57	6093
2026-01-23 01:04:17.59	110.26	59.13	-43.4	-47.2	17.0	6.00e-01	0	61	0	523239424	57	5858
2026-01-23 01:04:18.60	111.33	59.06	-43.5	-47.5	16.7	6.02e-01	0	61	0	525336576	57	6064
2026-01-23 01:04:19.61	112.38	58.98	-43.3	-47.0	17.2	6.00e-01	0	60	0	526909440	57	5728
2026-01-23 01:04:20.62	113.43	58.89	-43.0	-46.6	17.6	6.00e-01	0	61	0	529006592	57	5467
2026-01-23 01:04:21.63	114.47	58.79	-43.4	-47.3	16.9	6.00e-01	0	61	0	531103744	57	5947
2026-01-23 01:04:22.64	115.51	58.68	-43.0	-46.5	17.7	6.00e-01	0	61	0	532676608	57	5452
2026-01-23 01:04:23.65	116.53	58.57	-43.0	-46.5	17.7	5.99e-01	0	60	0	534773760	57	5437
2026-01-23 01:04:24.66	117.55	58.44	-43.0	-46.5	17.6	6.01e-01	0	61	0	536346624	57	5450
2026-01-23 01:04:25.66	118.55	58.31	-43.2	-46.9	17.3	6.01e-01	0	61	0	538443776	57	5699
2026-01-23 01:04:26.67	119.54	58.18	-43.1	-46.6	17.6	5.99e-01	0	61	0	540540928	57	5524
2026-01-23 01:04:27.68	120.53	58.03	-43.0	-46.5	17.7	6.00e-01	0	61	0	542113792	57	5427
2026-01-23 01:04:28.69	121.50	57.88	-43.0	-46.4	17.8	6.00e-01	0	61	0	544210944	57	5383
2026-01-23 01:04:29.70	122.47	57.72	-43.1	-46.7	17.6	6.02e-01	0	61	0	545783808	57	5531
2026-01-23 01:04:30.71	123.42	57.55	-43.0	-46.6	17.6	5.99e-01	0	61	0	547880960	57	5475
2026-01-23 01:04:31.72	124.36	57.38	-43.0	-46.4	17.8	5.99e-01	0	61	0	549978112	57	5383
2026-01-23 01:04:32.73	125.29	57.20	-42.9	-46.3	17.9	5.99e-01	0	61	0	551550976	57	5326
2026-01-23 01:04:33.74	126.20	57.01	-43.0	-46.5	17.7	5.98e-01	0	61	0	553648128	57	5442
2026-01-23 01:04:34.75	127.11	56.82	-42.9	-46.4	17.9	6.01e-01	0	61	0	555220992	57	5360
2026-01-23 01:04:35.76	128.00	56.62	-42.7	-46.0	18.2	6.02e-01	0	60	0	557318144	57	5108
2026-01-23 01:04:36.77	128.88	56.41	-42.4	-45.4	18.8	6.01e-01	0	60	0	559415296	56	5082
2026-01-23 01:04:37.78	129.74	56.20	-42.9	-46.3	17.9	6.00e-01	0	60	0	560988160	56	5648
2026-01-23 01:04:38.79	130.59	55.99	-42.7	-45.9	18.3	5.99e-01	0	61	0	563085312	56	5398
2026-01-23 01:04:39.80	131.43	55.77	-42.3	-45.3	18.8	6.01e-01	0	61	0	564658176	56	5041
2026-01-23 01:04:40.81	132.25	55.54	-42.3	-45.3	18.9	6.02e-01	0	61	0	566755328	56	5019
2026-01-23 01:04:41.82	133.07	55.31	-42.5	-45.7	18.5	6.03e-01	0	61	0	568852480	56	5219
2026-01-23 01:04:42.83	133.86	55.08	-42.3	-45.3	18.9	5.99e-01	0	61	0	570425344	56	4996
2026-01-23 01:04:43.84	134.65	54.84	-42.4	-45.5	18.8	6.02e-01	0	61	0	572522496	56	5111
2026-01-23 01:04:44.85	135.42	54.59	-42.3	-45.3	18.9	6.03e-01	0	60	0	574619648	56	5005
2026-01-23 01:04:45.86	136.18	54.35	-42.2	-45.2	19.0	6.02e-01	0	61	0	576192512	56	4964
2026-01-23 01:04:46.86	136.92	54.10	-42.2	-45.2	19.0	6.00e-01	0	61	0	578289664	56	4953
2026-01-23 01:04:47.87	137.65	53.85	-42.4	-45.6	18.6	6.00e-01	0	61	0	579862528	56	5191
2026-01-23 01:04:48.88	138.37	53.59	-42.4	-45.5	18.7	5.98e-01	0	61	0	581959680	56	5104
2026-01-23 01:04:49.89	139.08	53.33	-42.0	-44.8	19.4	6.03e-01	0	61	0	584056832	56	4753
2026-01-23 01:04:50.90	139.77	53.07	-42.1	-45.0	19.1	6.02e-01	0	61	0	585629696	55	5145
2026-01-23 01:04:51.91	140.46	52.80	-42.2	-45.3	18.8	6.00e-01	0	61	0	587726848	55	5282
2026-01-23 01:04:52.92	141.13	52.53	-42.3	-45.5	18.6	6.02e-01	0	61	0	589299712	55	5421
2026-01-23 01:04:53.93	141.79	52.26	-42.2	-45.2	18.5	6.03e-01	0	60	0	591396864	55	5271
2026-01-23 01:04:54.94	142.43	51.99	-42.0	-45.0	19.1	5.99e-01	0	61	0	593494016	55	5124
2026-01-23 01:04:55.95	143.07	51.72	-42.2	-45.3	18.8	5.99e-01	0	61	0	595066880	55	5303
2026-01-23 01:04:56.95	143.68	51.44	-42.2	-45.3	18.7	6.01e-01	0	60	0	597164032	55	5330
2026-01-23 01:04:57.96	144.29	51.17	-42.3	-45.4	18.7	6.00e-01	0	61	0	599261184	55	5346
2026-01-23 01:04:58.97	144.89	50.89	-42.5	-45.9	18.2	6.03e-01	0	61	0	600834048	55	5674
2026-01-23 01:04:59.98	145.48	50.61	-42.5	-45.8	18.2	6.02e-01	0	60	0	602931200	55	5599
2026-01-23 01:05:00.99	146.06	50.32	-42.2	-45.3	18.7	6.01e-01	0	61	0	604504064	55	5299
2026-01-23 01:05:02.00	146.63	50.04	-42.4	-45.6	18.4	6.03e-01	0	60	0	606601216	55	5518
2026-01-23 01:05:03.01	147.18	49.76	-42.7	-46.1	17.9	6.01e-01	0	61	0	608698368	55	5826
2026-01-23 01:05:04.02	147.73	49.47	-43.0	-46.6	17.5	6.02e-01	0	61	0	610271232	56	5845
2026-01-23 01:05:05.03	148.27	49.19	-42.9	-46.5	17.6	6.01e-01	0	60	0	612368384	56	5749
2026-01-23 01:05:06.04	148.79	48.90	-42.8	-46.2	17.9	6.01e-01	0	61	0	613941248	56	5534
2026-01-23 01:05:07.05	149.31	48.61	-42.7	-46.0	18.1	6.00e-01	0	61	0	616038400	56	5417
2026-01-23 01:05:08.05	149.81	48.33	-42.7	-46.1	18.0	6.00e-01	0	61	0	618135552	56	5477
2026-01-23 01:05:09.06	150.31	48.04	-42.7	-46.0	18.1	6.02e-01	0	60	0	619708416	56	5433
2026-01-23 01:05:10.07	150.80	47.75	-42.6	-45.9	18.2	6.00e-01	0	61	0	621805568	56	5363
2026-01-23 01:05:11.08	151.28	47.46	-42.6	-45.9	18.2	6.02e-01	0	60	0	623378432	56	5360
2026-01-23 01:05:12.09	151.75	47.17	-42.6	-45.9	18.2	5.98e-01	0	60	0	625475584	56	5343
2026-01-23 01:05:13.10	152.21	46.89	-42.6	-46.0	18.1	6.01e-01	0	61	0	627572736	56	5432
2026-01-23 01:05:14.11	152.67	46.60	-42.4	-45.5	18.5	6.01e-01	0	60	0	629145600	56	5126
2026-01-23 01:05:15.12	153.11	46.31	-42.3	-45.3	18.8	6.01e-01	0	61	0	631242752	56	5027
2026-01-23 01:05:16.13	153.55	46.02	-42.3	-45.5	18.6	6.00e-01	0	60	0	632815616	56	5126
2026-01-23 01:05:17.14	153.98	45.74	-42.6	-45.9	18.3	6.01e-01	0	61	0	634912768	56	5341
2026-01-23 01:05:18.15	154.40	45.45	-42.3	-45.5	18.6	6.00e-01	0	60	0	637009920	56	5113
2026-01-23 01:05:19.16	154.81	45.16	-42.2	-45.2	18.9	6.01e-01	0	61	0	638582784	56	4956
2026-01-23 01:05:20.17	155.22	44.88	-42.3	-45.3	18.8	5.99e-01	0	61	0	640679936	56	5023
2026-01-23 01:05:21.18	155.62	44.59	-42.4	-45.6	18.5	6.00e-01	0	60	0	642777088	56	5188
2026-01-23 01:05:22.19	156.01	44.31	-42.5	-45.8	18.3	6.00e-01	0	61	0	644349952	56	5324
2026-01-23 01:05:23.20	156.40	44.02	-42.6	-45.9	18.2	6.00e-01	0	61	0	646447104	56	5378
2026-01-23 01:05:24.21	156.78	43.74	-42.5	-45.7	18.4	6.00e-01	0	61	0	648019968	56	5248
2026-01-23 01:05:25.22	157.15	43.46	-42.3	-45.5	18.6	5.98e-01	0	61	0	650117120	56	5114
2026-01-23 01:05:26.23	157.51	43.18	-42.4	-45.5	18.6	6.00e-01	0	60	0	652214272	56	5124
2026-01-23 01:05:27.23	157.87	42.90	-42.4	-45.6	18.4	6.00e-01	0	61	0	653787136	56	5201
2026-01-23 01:05:28.24	158.22	42.62	-42.5	-45.8	18.2	6.02e-01	0	61	0	655884288	56	5320
2026-01-23 01:05:29.25	158.57	42.34	-42.4	-45.7	18.4	6.00e-01	0	60	0	657457152	56	5224
2026-01-23 01:05:30.26	158.91	42.07	-42.5	-45.7	18.4	6.00e-01	0	61	0	659554304	56	5233
2026-01-23 01:05:31.27	159.25	41.79	-42.7	-46.0	18.0	5.99e-01	0	60	0	661651456	56	5460
2026-01-23 01:05:32.28	159.58	41.52	-42.7	-46.1	17.9	6.01e-01	0	61	0	663224320	56	5508
2026-01-23 01:05:33.29	159.90	41.24	-42.7	-46.1	18.0	6.06e-01	0	61	0	665321472	56	5486
2026-01-23 01:05:34.30	160.22	40.97	-42.7	-46.2	17.9	6.00e-01	0	60	0	666894336	56	5546
2026-01-23 01:05:35.31	160.53	40.70	-42.7	-46.2	17.8	6.01e-01	0	60	0	668991488	56	5576
2026-01-23 01:05:36.32	160.84	40.43	-42.8	-46.3	17.7	6.03e-01	0	60	0	671088640	56	5641
2026-01-23 01:05:37.33	161.14	40.16	-42.8	-46.3	17.7	6.00e-01	0	61	0	672661504	56	5638
2026-01-23 01:05:38.34	161.44	39.89	-42.8	-46.2	17.8	6.01e-01	0	60	0	674758656	56	5588
2026-01-23 01:05:39.35	161.73	39.63	-42.7	-46.1	17.9	5.99e-01	0	61	0	676331520	56	5508
2026-01-23 01:05:40.35	162.02	39.37	-42.6	-45.9	18.1	6.01e-01	0	61	0	678428672	56	5381
2026-01-23 01:05:41.36	162.30	39.10	-42.6	-46.0	18.1	6.01e-01	0	60	0	680525824	56	5408
2026-01-23 01:05:42.37	162.58	38.84	-42.6	-46.0	18.0	6.02e-01	0	60	0	682098688	56	5430
2026-01-23 01:05:43.38	162.85	38.58	-42.7	-46.2	17.8	6.00e-01	0	61	0	684195840	56	5574
2026-01-23 01:05:44.40	163.13	38.32	-42.7	-46.1	17.9	6.01e-01	0	60	0	685768704	56	5510
2026-01-23 01:05:45.41	163.39	38.06	-42.7	-46.2	17.9	6.00e-01	0	61	0	687865856	56	5529
2026-01-23 01:05:46.41	163.65	37.81	-42.7	-46.2	17.8	6.04e-01	0	60	0	689963008	56	5531
2026-01-23 01:05:47.42	163.91	37.55	-42.7	-46.1	17.9	6.01e-01	0	61	0	691535872	56	5488
2026-01-23 01:05:48.43	164.16	37.30	-42.6	-46.0	18.0	5.98e-01	0	61	0	693633024	56	5454
2026-01-23 01:05:49.44	164.41	37.05	-42.6	-46.0	18.0	6.00e-01	0	60	0	695730176	56	5423
2026-01-23 01:05:50.45	164.66	36.79	-42.5	-45.7	18.2	6.03e-01	0	61	0	697303040	56	5279
2026-01-23 01:05:51.46	164.90	36.55	-42.4	-45.7	18.3	6.01e-01	0	60	0	699400192	56	5244
2026-01-23 01:05:52.47	165.14	36.30	-42.5	-45.8	18.2	6.05e-01	0	61	0	700973056	56	5287
2026-01-23 01:05:53.48	165.38	36.05	-42.3	-45.4	18.5	6.02e-01	0	60	0	703070208	56	5074
2026-01-23 01:05:54.49	165.61	35.81	-42.1	-45.2	18.7	6.00e-01	0	60	0	705167360	56	4971
2026-01-23 01:05:55.50	165.83	35.56	-42.1	-45.2	18.8	6.00e-01	0	61	0	706740224	56	4957
2026-01-23 01:05:56.51	166.06	35.32	-41.9	-44.8	19.0	6.00e-01	0	61	0	708837376	55	5040
2026-01-23 01:05:57.52	166.28	35.08	-41.8	-44.8	19.1	5.99e-01	0	61	0	710934528	55	4989
2026-01-23 01:05:58.53	166.50	34.84	-41.8	-44.7	19.2	6.02e-01	0	60	0	712507392	55	4936
2026-01-23 01:05:59.54	166.71	34.61	-41.8	-44.8	19.1	6.02e-01	0	60	0	714604544	55	4991
2026-01-23 01:06:00.55	166.92	34.37	-41.7	-44.6	19.3	6.02e-01	0	60	0	716177408	55	4899
2026-01-23 01:06:01.56	167.13	34.13	-41.7	-44.6	19.3	6.02e-01	0	61	0	718274560	55	4891
2026-01-23 01:06:02.57	167.34	33.90	-41.7	-44.7	19.2	5.99e-01	0	60	0	720371712	55	4946
2026-01-23 01:06:03.58	167.54	33.67	-41.8	-44.8	19.1	5.98e-01	0	61	0	721944576	55	4996
2026-01-23 01:06:04.58	167.74	33.44	-41.7	-44.7	19.2	5.99e-01	0	60	0	724041728	55	4934
2026-01-23 01:06:05.60	167.94	33.21	-41.8	-44.7	19.1	6.01e-01	0	61	0	725614592	55	4976
2026-01-23 01:06:06.60	168.13	32.99	-41.6	-44.5	19.3	6.01e-01	0	60	0	727711744	55	4859
2026-01-23 01:06:07.61	168.32	32.76	-41.6	-44.4	19.4	6.03e-01	0	60	0	729808896	55	4803
2026-01-23 01:06:08.62	168.51	32.54	-41.5	-44.3	19.5	6.01e-01	0	60	0	731381760	55	4728
2026-01-23 01:06:09.63	168.70	32.31	-41.5	-44.3	19.6	6.00e-01	0	60	0	733478912	55	4741
2026-01-23 01:06:10.65	168.88	32.09	-41.6	-44.5	19.3	6.01e-01	0	60	0	735051776	55	4840
2026-01-23 01:06:11.65	169.06	31.87	-41.6	-44.5	19.3	6.00e-01	0	60	0	737148928	55	4830
2026-01-23 01:06:12.66	169.24	31.66	-41.6	-44.6	19.3	6.01e-01	0	60	0	739246080	55	4871
2026-01-23 01:06:13.67	169.42	31.44	-41.5	-44.3	19.5	6.01e-01	0	60	0	740818944	55	4743
2026-01-23 01:06:14.68	169.59	31.22	-41.3	-44.0	19.7	6.02e-01	0	60	0	742916096	54	4865
2026-01-23 01:06:15.69	169.76	31.01	-41.3	-44.0	19.8	6.00e-01	0	61	0	744488960	54	4858
2026-01-23 01:06:16.70	169.93	30.80	-41.4	-44.2	19.6	6.02e-01	0	61	0	746586112	54	4937
2026-01-23 01:06:17.71	170.10	30.58	-41.4	-44.2	19.6	6.00e-01	0	60	0	748683264	54	4958
2026-01-23 01:06:18.72	170.27	30.37	-41.4	-44.1	19.6	6.00e-01	0	61	0	750256128	54	4916
2026-01-23 01:06:19.73	170.43	30.17	-41.3	-44.1	19.6	5.99e-01	0	60	0	752353280	54	4910
2026-01-23 01:06:20.74	170.59	29.96	-41.3	-44.1	19.7	5.97e-01	0	60	0	753926144	54	4875
2026-01-23 01:06:21.75	170.75	29.75	-41.2	-43.9	19.8	6.00e-01	0	60	0	756023296	54	4787
2026-01-23 01:06:22.76	170.91	29.55	-41.2	-43.9	19.8	6.02e-01	0	60	0	758120448	54	4805
2026-01-23 01:06:23.77	171.06	29.35	-41.3	-44.0	19.7	6.02e-01	0	60	0	759693312	54	4839
2026-01-23 01:06:24.78	171.21	29.14	-41.2	-44.0	19.8	6.03e-01	0	60	0	761790464	54	4821
2026-01-23 01:06:25.79	171.36	28.94	-41.2	-44.0	19.8	6.00e-01	0	61	0	763887616	54	4815
2026-01-23 01:06:26.80	171.51	28.74	-41.2	-43.9	19.8	6.00e-01	0	61	0	765460480	54	4803
2026-01-23 01:06:27.81	171.66	28.55	-41.3	-44.0	19.7	6.00e-01	0	61	0	767557632	54	4861
2026-01-23 01:06:28.82	171.81	28.35	-41.4	-44.1	19.6	5.99e-01	0	61	0	769130496	54	4920
2026-01-23 01:06:29.82	171.95	28.16	-41.4	-44.2	19.5	6.01e-01	0	60	0	771227648	54	4968
2026-01-23 01:06:30.83	172.09	27.96	-41.5	-44.4	19.3	6.04e-01	0	60	0	773324800	54	5064
2026-01-23 01:06:31.84	172.23	27.77	-41.5	-44.4	19.3	6.01e-01	0	61	0	774897664	54	5096
2026-01-23 01:06:32.85	172.37	27.58	-41.6	-44.4	19.3	6.01e-01	0	60	0	776994816	54	5099
2026-01-23 01:06:33.86	172.51	27.39	-41.6	-44.5	19.2	6.02e-01	0	60	0	779091968	54	5135
2026-01-23 01:06:34.87	172.64	27.20	-41.6	-44.5	19.2	6.01e-01	0	60	0	780664832	54	5155
2026-01-23 01:06:35.88	172.77	27.01	-41.6	-44.6	19.1	6.01e-01	0	61	0	782761984	54	5194
2026-01-23 01:06:36.89	172.91	26.83	-41.7	-44.8	18.9	5.99e-01	0	61	0	784334848	54	5281
2026-01-23 01:06:37.90	173.04	26.64	-41.7	-44.7	19.0	6.01e-01	0	61	0	786432000	54	5261
2026-01-23 01:06:38.91	173.17	26.46	-41.7	-44.7	19.0	6.04e-01	0	60	0	788529152	54	5219
2026-01-23 01:06:39.92	173.29	26.28	-41.7	-44.7	19.0	6.06e-01	0	61	0	790102016	54	5219
2026-01-23 01:06:40.93	173.42	26.09	-41.7	-44.7	19.0	6.00e-01	0	61	0	792199168	54	5239
2026-01-23 01:06:41.93	173.54	25.92	-41.7	-44.7	18.9	6.01e-01	0	61	0	793772032	54	5278
2026-01-23 01:06:42.94	173.67	25.74	-41.7	-44.7	19.0	6.02e-01	0	60	0	795869184	54	5238
2026-01-23 01:06:43.95	173.79	25.56	-41.7	-44.7	18.9	6.01e-01	0	61	0	797966336	54	5275
2026-01-23 01:06:44.96	173.91	25.38	-41.8	-44.9	18.8	6.00e-01	0	61	0	799539200	54	5352
2026-01-23 01:06:45.97	174.03	25.21	-41.8	-44.8	18.8	6.03e-01	0	60	0	801636352	54	5330
2026-01-23 01:06:46.98	174.15	25.03	-41.8	-44.9	18.8	5.99e-01	0	61	0	803209216	54	5345
2026-01-23 01:06:47.99	174.26	24.86	-41.9	-45.0	18.7	6.00e-01	0	60	0	805306368	54	5421
2026-01-23 01:06:49.00	174.38	24.69	-41.8	-44.9	18.7	6.00e-01	0	61	0	807403520	54	5387
2026-01-23 01:06:50.01	174.49	24.51	-41.8	-44.9	18.7	6.00e-01	0	60	0	808976384	54	5387
2026-01-23 01:06:51.02	174.60	24.34	-41.8	-45.0	18.7	6.00e-01	0	61	0	811073536	54	5406
2026-01-23 01:06:52.03	174.72	24.17	-41.9	-45.0	18.6	6.00e-01	0	60	0	812646400	54	5452
2026-01-23 01:06:53.04	174.83	24.01	-41.9	-45.1	18.5	6.01e-01	0	61	0	814743552	54	5508
2026-01-23 01:06:54.05	174.94	23.84	-41.9	-45.1	18.5	6.06e-01	0	61	0	816840704	54	5495
2026-01-23 01:06:55.06	175.04	23.67	-41.9	-45.1	18.5	6.00e-01	0	61	0	818413568	54	5505
2026-01-23 01:06:56.07	175.15	23.51	-41.9	-45.0	18.6	6.00e-01	0	61	0	820510720	54	5433
2026-01-23 01:06:57.08	175.26	23.35	-41.9	-45.0	18.6	6.01e-01	0	61	0	822083584	54	5461
2026-01-23 01:06:58.09	175.36	23.18	-41.9	-45.0	18.6	6.03e-01	0	61	0	824180736	54	5452
2026-01-23 01:06:59.10	175.46	23.02	-41.8	-45.0	18.6	6.03e-01	0	61	0	826277888	54	5420
2026-01-23 01:07:00.10	175.56	22.86	-41.9	-45.0	18.6	5.98e-01	0	61	0	827850752	54	5463
2026-01-23 01:07:01.11	175.67	22.70	-41.9	-45.1	18.5	6.04e-01	0	61	0	829947904	54	5467
2026-01-23 01:07:02.12	175.77	22.54	-41.9	-45.1	18.4	6.01e-01	0	61	0	832045056	54	5502
2026-01-23 01:07:03.13	175.87	22.39	-41.9	-45.0	18.5	6.02e-01	0	61	0	833617920	54	5452
2026-01-23 01:07:04.14	175.96	22.23	-41.8	-44.9	18.7	6.04e-01	0	61	0	835715072	54	5376
2026-01-23 01:07:05.15	176.06	22.07	-41.7	-44.8	18.7	6.01e-01	0	61	0	837287936	54	5325
2026-01-23 01:07:06.16	176.16	21.92	-41.7	-44.8	18.7	6.02e-01	0	61	0	839385088	54	5308
2026-01-23 01:07:07.17	176.25	21.76	-41.7	-44.8	18.7	6.03e-01	0	60	0	841482240	54	5321
2026-01-23 01:07:08.18	176.35	21.61	-41.7	-44.8	18.7	6.00e-01	0	61	0	843055104	54	5309
2026-01-23 01:07:09.19	176.44	21.46	-41.7	-44.7	18.8	6.03e-01	0	61	0	845152256	54	5268
2026-01-23 01:07:10.20	176.53	21.31	-41.7	-44.7	18.8	6.00e-01	0	61	0	846725120	54	5263
2026-01-23 01:07:11.21	176.63	21.16	-41.7	-44.7	18.8	6.01e-01	0	60	0	848822272	54	5271
2026-01-23 01:07:12.22	176.72	21.01	-41.6	-44.7	18.8	6.00e-01	0	61	0	850919424	54	5245
2026-01-23 01:07:13.23	176.81	20.86	-41.7	-44.8	18.7	6.00e-01	0	60	0	852492288	54	5297
2026-01-23 01:07:14.23	176.89	20.71	-41.7	-44.8	18.7	5.99e-01	0	60	0	854589440	54	5310
2026-01-23 01:07:15.24	176.98	20.57	-41.6	-44.6	18.9	6.00e-01	0	61	0	856162304	54	5202
2026-01-23 01:07:16.25	177.07	20.42	-41.5	-44.5	18.9	5.98e-01	0	60	0	858259456	54	5154
2026-01-23 01:07:17.26	177.16	20.28	-41.5	-44.5	19.0	6.01e-01	0	61	0	860356608	54	5146
2026-01-23 01:07:18.27	177.24	20.13	-41.5	-44.5	19.0	6.01e-01	0	61	0	861929472	54	5130
2026-01-23 01:07:19.28	177.33	19.99	-41.5	-44.5	19.0	6.01e-01	0	61	0	864026624	54	5131
2026-01-23 01:07:20.29	177.41	19.85	-41.5	-44.5	19.0	6.03e-01	0	60	0	865599488	54	5121
2026-01-23 01:07:21.30	177.49	19.71	-41.5	-44.5	19.0	6.00e-01	0	61	0	867696640	54	5104
2026-01-23 01:07:22.31	177.58	19.57	-41.5	-44.4	19.0	6.01e-01	0	60	0	869793792	54	5090
2026-01-23 01:07:23.31	177.66	19.43	-41.5	-44.5	19.0	5.99e-01	0	61	0	871366656	54	5128
2026-01-23 01:07:24.32	177.74	19.29	-41.6	-44.6	18.9	6.04e-01	0	60	0	873463808	54	5180
2026-01-23 01:07:25.33	177.82	19.15	-41.5	-44.5	18.9	6.03e-01	0	61	0	875560960	54	5136
2026-01-23 01:07:26.34	177.90	19.01	-41.5	-44.4	19.0	5.99e-01	0	60	0	877133824	54	5100
2026-01-23 01:07:27.35	177.98	18.88	-41.5	-44.6	18.9	6.01e-01	0	61	0	879230976	54	5171
2026-01-23 01:07:28.36	178.06	18.74	-41.5	-44.5	18.9	6.01e-01	0	61	0	880803840	54	5140
2026-01-23 01:07:29.37	178.13	18.60	-41.5	-44.6	18.9	6.00e-01	0	61	0	882900992	54	5166
2026-01-23 01:07:30.38	178.21	18.47	-41.5	-44.5	18.9	6.01e-01	0	60	0	884998144	54	5155
2026-01-23 01:07:31.39	178.29	18.34	-41.5	-44.6	18.8	5.99e-01	0	61	0	886571008	54	5180
2026-01-23 01:07:32.40	178.36	18.20	-41.6	-44.7	18.8	6.02e-01	0	61	0	888668160	54	5220
2026-01-23 01:07:33.40	178.44	18.07	-41.6	-44.6	18.8	6.02e-01	0	61	0	890241024	54	5203
2026-01-23 01:07:34.41	178.51	17.94	-41.5	-44.6	18.9	6.02e-01	0	60	0	892338176	54	5161
2026-01-23 01:07:35.42	178.58	17.81	-41.5	-44.6	18.8	6.02e-01	0	61	0	894435328	54	5177
2026-01-23 01:07:36.43	178.66	17.68	-41.6	-44.6	18.8	6.01e-01	0	61	0	896008192	54	5202
2026-01-23 01:07:37.44	178.73	17.55	-41.5	-44.6	18.8	6.02e-01	0	61	0	898105344	54	5170
2026-01-23 01:07:38.45	178.80	17.42	-41.5	-44.5	18.9	6.02e-01	0	61	0	899678208	54	5130
2026-01-23 01:07:39.46	178.87	17.30	-41.5	-44.6	18.8	6.03e-01	0	60	0	901775360	54	5171
2026-01-23 01:07:40.47	178.94	17.17	-41.6	-44.7	18.7	6.02e-01	0	60	0	903872512	54	5225
2026-01-23 01:07:41.48	179.01	17.04	-41.5	-44.5	18.9	6.01e-01	0	61	0	905445376	54	5143
2026-01-23 01:07:42.49	179.08	16.92	-41.5	-44.5	18.9	5.98e-01	0	60	0	907542528	54	5131
2026-01-23 01:07:43.50	179.15	16.79	-41.5	-44.5	18.9	6.01e-01	0	61	0	909115392	54	5134
2026-01-23 01:07:44.51	179.22	16.67	-41.5	-44.6	18.8	6.02e-01	0	61	0	911212544	54	5163
2026-01-23 01:07:45.52	179.28	16.54	-41.4	-44.4	18.9	6.01e-01	0	60	0	913309696	54	5088
2026-01-23 01:07:46.53	179.35	16.42	-41.4	-44.5	18.9	5.99e-01	0	61	0	914882560	54	5103
2026-01-23 01:07:47.54	179.42	16.30	-41.5	-44.5	18.9	6.01e-01	0	60	0	916979712	54	5120
2026-01-23 01:07:48.55	179.48	16.17	-41.4	-44.4	18.9	6.01e-01	0	61	0	918552576	54	5088
2026-01-23 01:07:49.56	179.55	16.05	-41.5	-44.6	18.8	6.00e-01	0	60	0	920649728	54	5168
2026-01-23 01:07:50.57	179.61	15.93	-41.4	-44.5	18.9	6.01e-01	0	60	0	922746880	54	5118
2026-01-23 01:07:51.58	179.68	15.81	-41.5	-44.6	18.8	6.05e-01	0	61	0	924319744	54	5163
2026-01-23 01:07:52.59	179.74	15.69	-41.5	-44.5	18.8	6.05e-01	0	60	0	926416896	54	5153
2026-01-23 01:07:53.60	179.80	15.58	-41.5	-44.6	18.8	6.02e-01	0	61	0	928514048	54	5161
2026-01-23 01:07:54.61	179.87	15.46	-41.5	-44.5	18.8	5.99e-01	0	61	0	930086912	54	5145
2026-01-23 01:07:55.62	179.93	15.34	-41.5	-44.5	18.8	6.00e-01	0	61	0	932184064	54	5153
2026-01-23 01:07:56.63	179.99	15.22	-41.4	-44.5	18.8	6.00e-01	0	60	0	933756928	54	5122
2026-01-23 01:07:57.64	180.05	15.11	-41.5	-44.5	18.8	6.01e-01	0	61	0	935854080	54	5133
2026-01-23 01:07:58.65	180.11	14.99	-41.5	-44.5	18.8	6.00e-01	0	60	0	937951232	54	5147
2026-01-23 01:07:59.65	180.17	14.88	-41.4	-44.5	18.8	5.99e-01	0	61	0	939524096	54	5129
2026-01-23 01:08:00.66	180.23	14.76	-41.4	-44.5	18.8	5.99e-01	0	61	0	941621248	54	5129
2026-01-23 01:08:01.68	180.29	14.65	-41.5	-44.5	18.7	6.00e-01	0	60	0	943718400	54	5150
2026-01-23 01:08:02.69	180.35	14.53	-41.4	-44.5	18.8	6.00e-01	0	60	0	945291264	54	5108
2026-01-23 01:08:03.69	180.41	14.42	-41.5	-44.5	18.7	6.02e-01	0	60	0	947388416	54	5154
2026-01-23 01:08:04.70	180.47	14.31	-41.5	-44.6	18.6	6.01e-01	0	61	0	948961280	54	5198
2026-01-23 01:08:05.71	180.52	14.20	-41.5	-44.6	18.6	6.02e-01	0	60	0	951058432	54	5187
2026-01-23 01:08:06.72	180.58	14.09	-41.4	-44.5	18.8	6.00e-01	0	60	0	953155584	54	5119
2026-01-23 01:08:07.73	180.64	13.98	-41.5	-44.5	18.7	6.00e-01	0	61	0	954728448	54	5159
2026-01-23 01:08:08.74	180.69	13.87	-41.5	-44.6	18.7	6.03e-01	0	60	0	956825600	54	5161
2026-01-23 01:08:09.75	180.75	13.76	-41.5	-44.7	18.6	6.01e-01	0	61	0	958398464	54	5226
2026-01-23 01:08:10.76	180.80	13.65	-41.5	-44.7	18.5	5.99e-01	0	60	0	960495616	54	5238
2026-01-23 01:08:11.77	180.86	13.54	-41.5	-44.7	18.5	6.02e-01	0	60	0	962592768	54	5256
2026-01-23 01:08:12.78	180.91	13.43	-41.5	-44.6	18.6	6.02e-01	0	60	0	964165632	54	5177
2026-01-23 01:08:13.79	180.97	13.32	-41.5	-44.7	18.6	6.01e-01	0	61	0	966262784	54	5220
2026-01-23 01:08:14.80	181.02	13.22	-41.5	-44.7	18.6	6.00e-01	0	60	0	967835648	54	5233
2026-01-23 01:08:15.81	181.08	13.11	-41.5	-44.6	18.6	6.01e-01	0	61	0	969932800	54	5200
2026-01-23 01:08:16.81	181.13	13.00	-41.5	-44.6	18.6	5.99e-01	0	60	0	972029952	54	5189
2026-01-23 01:08:17.82	181.18	12.90	-41.5	-44.6	18.6	6.01e-01	0	61	0	973602816	54	5200
2026-01-23 01:08:18.83	181.23	12.79	-41.5	-44.7	18.5	5.99e-01	0	61	0	975699968	54	5249
2026-01-23 01:08:19.84	181.29	12.69	-41.6	-44.8	18.4	6.00e-01	0	60	0	977272832	54	5306
2026-01-23 01:08:20.85	181.34	12.58	-41.5	-44.7	18.5	6.01e-01	0	61	0	979369984	54	5234
2026-01-23 01:08:21.86	181.39	12.48	-41.5	-44.7	18.5	6.04e-01	0	60	0	981467136	54	5232
2026-01-23 01:08:22.87	181.44	12.38	-41.5	-44.6	18.5	6.00e-01	0	61	0	983040000	54	5215
2026-01-23 01:08:23.88	181.49	12.28	-41.5	-44.7	18.5	6.03e-01	0	60	0	985137152	54	5219
2026-01-23 01:08:24.89	181.54	12.17	-41.5	-44.7	18.4	6.00e-01	0	60	0	986710016	54	5266
2026-01-23 01:08:25.90	181.59	12.07	-41.6	-44.7	18.4	6.00e-01	0	60	0	988807168	54	5278
2026-01-23 01:08:26.91	181.64	11.97	-41.5	-44.7	18.4	6.00e-01	0	60	0	990904320	54	5259
2026-01-23 01:08:27.92	181.69	11.87	-41.5	-44.7	18.4	6.01e-01	0	61	0	992477184	54	5266
2026-01-23 01:08:28.93	181.74	11.77	-41.5	-44.7	18.4	6.03e-01	0	60	0	994574336	54	5268
2026-01-23 01:08:29.94	181.78	11.67	-41.5	-44.8	18.3	5.99e-01	0	60	0	996671488	54	5284
2026-01-23 01:08:30.95	181.83	11.57	-41.6	-44.8	18.3	6.01e-01	0	60	0	998244352	54	5339
2026-01-23 01:08:31.96	181.88	11.47	-41.6	-44.8	18.3	6.01e-01	0	61	0	1000341504	54	5331
2026-01-23 01:08:32.97	181.93	11.37	-41.6	-44.9	18.2	6.01e-01	0	61	0	1001914368	54	5363
2026-01-23 01:08:33.98	181.98	11.27	-41.6	-44.9	18.3	6.00e-01	0	61	0	1004011520	54	5346
2026-01-23 01:08:34.99	182.02	11.17	-41.6	-44.9	18.1	6.00e-01	0	60	0	1006108672	54	5389
2026-01-23 01:08:36.00	182.07	11.08	-41.6	-44.9	18.1	6.00e-01	0	61	0	1007681536	54	5385
2026-01-23 01:08:37.01	182.11	10.98	-41.7	-45.0	18.0	6.02e-01	0	60	0	1009778688	54	5448
2026-01-23 01:08:38.01	182.16	10.88	-41.6	-44.9	18.1	6.02e-01	0	60	0	1011351552	54	5379
2026-01-23 01:08:39.02	182.21	10.79	-41.7	-45.0	18.0	6.01e-01	0	60	0	1013448704	54	5454
2026-01-23 01:08:40.04	182.25	10.69	-41.7	-45.0	18.0	6.02e-01	0	60	0	1015545856	54	5454
2026-01-23 01:08:41.04	182.30	10.60	-41.7	-45.1	17.9	6.02e-01	0	60	0	1017118720	54	5502
2026-01-23 01:08:42.05	182.34	10.50	-41.8	-45.2	17.9	6.01e-01	0	60	0	1019215872	54	5567
2026-01-23 01:08:43.06	182.38	10.41	-41.8	-45.2	17.8	6.02e-01	0	60	0	1021313024	54	5584
2026-01-23 01:08:44.07	182.43	10.31	-41.8	-45.3	17.7	5.98e-01	0	60	0	1022885888	54	5629
2026-01-23 01:08:45.08	182.47	10.22	-41.9	-45.4	17.6	6.01e-01	0	60	0	1024983040	54	5701
2026-01-23 01:08:46.09	182.52	10.13	-41.8	-45.3	17.6	6.00e-01	0	60	0	1026555904	54	5650
2026-01-23 01:08:47.10	182.56	10.03	-41.8	-45.2	17.8	6.00e-01	0	61	0	1028653056	54	5564
2026-01-23 01:08:48.11	182.60	9.94	-41.8	-45.3	17.6	6.00e-01	0	61	0	1030750208	54	5648
2026-01-23 01:08:49.12	182.65	9.85	-41.8	-45.3	17.7	6.01e-01	0	60	0	1032323072	54	5602
2026-01-23 01:08:50.13	182.69	9.76	-41.8	-45.4	17.6	6.01e-01	0	60	0	1034420224	54	5671
2026-01-23 01:08:51.13	182.73	9.67	-41.9	-45.4	17.6	6.02e-01	0	60	0	1035993088	54	5681
2026-01-23 01:08:52.14	182.77	9.57	-41.8	-45.4	17.6	6.01e-01	0	60	0	1038090240	54	5673
2026-01-23 01:08:53.15	182.81	9.48	-41.8	-45.3	17.6	6.02e-01	0	60	0	1040187392	54	5634
2026-01-23 01:08:54.16	182.85	9.39	-41.9	-45.4	17.5	5.99e-01	0	60	0	1041760256	54	5701
2026-01-23 01:08:55.17	182.90	9.30	-41.9	-45.5	17.4	6.01e-01	0	60	0	1043857408	54	5746
2026-01-23 01:08:56.18	182.94	9.21	-41.9	-45.5	17.4	6.03e-01	0	60	0	1045430272	54	5742
2026-01-23 01:08:57.19	182.98	9.12	-41.8	-45.3	17.6	6.03e-01	0	60	0	1047527424	54	5643
2026-01-23 01:08:58.20	183.02	9.03	-41.8	-45.4	17.5	6.01e-01	0	61	0	1049624576	54	5709
2026-01-23 01:08:59.21	183.06	8.95	-41.9	-45.5	17.4	6.02e-01	0	60	0	1051197440	54	5735
2026-01-23 01:09:00.21	183.10	8.86	-41.9	-45.5	17.4	6.02e-01	0	61	0	1053294592	54	5759
2026-01-23 01:09:01.23	183.14	8.77	-41.9	-45.6	17.2	6.03e-01	0	60	0	1054867456	54	5845
2026-01-23 01:09:02.23	183.18	8.68	-42.0	-45.7	17.2	5.98e-01	0	60	0	1056964608	54	5862
2026-01-23 01:09:03.24	183.22	8.60	-41.9	-45.5	17.3	6.00e-01	0	60	0	1059061760	54	5770
2026-01-23 01:09:04.25	183.25	8.51	-41.9	-45.6	17.2	6.01e-01	0	60	0	1060634624	54	5805
2026-01-23 01:09:05.26	183.29	8.42	-41.9	-45.5	17.3	6.00e-01	0	60	0	1062731776	54	5783
2026-01-23 01:09:06.27	183.33	8.34	-41.9	-45.5	17.3	6.02e-01	0	60	0	1064828928	54	5786
2026-01-23 01:09:07.28	183.37	8.25	-41.9	-45.6	17.2	6.01e-01	0	60	0	1066401792	54	5841
2026-01-23 01:09:08.29	183.41	8.16	-42.0	-45.7	17.1	6.01e-01	0	60	0	1068498944	54	5915
2026-01-23 01:09:09.30	183.45	8.08	-41.9	-45.7	17.0	6.03e-01	0	60	0	1070071808	54	5916
2026-01-23 01:09:10.31	183.48	7.99	-42.1	-46.0	16.9	6.04e-01	0	61	0	1072168960	54	6112
2026-01-23 01:09:11.32	183.52	7.91	-45.4	-62.2	3.8	7.47e-01	0	60	104	1073741824	61	26173
2026-01-23 01:09:12.33	183.56	7.82	-45.7	-64.2	3.8	7.44e-01	0	61	104	1073741824	62	31225
2026-01-23 01:09:13.34	183.59	7.74	-45.9	-64.4	3.8	7.44e-01	0	60	104	1073741824	62	32089
2026-01-23 01:09:14.35	183.63	7.65	-46.0	-64.5	3.8	7.44e-01	0	61	104	1073741824	62	32391
2026-01-23 01:09:15.36	183.67	7.57	-46.1	-64.6	3.8	7.47e-01	0	60	104	1073741824	62	32774
2026-01-23 01:09:16.37	183.70	7.49	-46.2	-64.7	3.8	7.43e-01	0	60	104	1073741824	62	33001
2026-01-23 01:09:17.38	183.74	7.41	-46.3	-64.7	3.8	7.47e-01	0	60	104	1073741824	63	31422
2026-01-23 01:09:18.39	183.78	7.32	-46.3	-64.8	3.8	7.46e-01	0	61	104	1073741824	63	31489
2026-01-23 01:09:19.40	183.81	7.24	-46.3	-64.8	3.8	7.43e-01	0	61	104	1073741824	63	31618
2026-01-23 01:09:20.41	183.85	7.16	-46.4	-64.8	3.8	7.43e-01	0	60	104	1073741824	63	31667
2026-01-23 01:09:21.42	183.88	7.08	-46.3	-64.8	3.8	7.45e-01	0	61	104	1073741824	63	31543
2026-01-23 01:09:22.43	183.92	6.99	-46.3	-64.8	3.8	7.46e-01	0	61	104	1073741824	63	31509
2026-01-23 01:09:23.44	183.95	6.91	-46.3	-64.7	3.8	7.46e-01	0	61	104	1073741824	63	31375
2026-01-23 01:09:24.45	183.99	6.83	-46.3	-64.7	3.8	7.46e-01	0	61	104	1073741824	63	31404
2026-01-23 01:09:25.46	184.02	6.75	-46.3	-64.7	3.8	7.42e-01	0	60	104	1073741824	63	31336
2026-01-23 01:09:26.47	184.06	6.67	-46.2	-64.7	3.8	7.45e-01	0	61	104	1073741824	63	31140
2026-01-23 01:09:27.48	184.09	6.59	-46.2	-64.7	3.8	7.46e-01	0	60	104	1073741824	63	31100
2026-01-23 01:09:28.49	184.12	6.51	-46.2	-64.6	3.8	7.49e-01	0	61	104	1073741824	63	31033
2026-01-23 01:09:29.50	184.16	6.43	-46.2	-64.7	3.8	7.42e-01	0	60	104	1073741824	63	31150
2026-01-23 01:09:30.51	184.19	6.35	-46.2	-64.7	3.8	7.45e-01	0	61	104	1073741824	63	31156
2026-01-23 01:09:31.52	184.22	6.27	-46.2	-64.7	3.8	7.48e-01	0	61	104	1073741824	63	31096
2026-01-23 01:09:32.53	184.26	6.19	-46.2	-64.7	3.8	7.48e-01	0	61	104	1073741824	63	31152
2026-01-23 01:09:33.54	184.29	6.11	-46.2	-64.6	3.8	7.44e-01	0	61	104	1073741824	63	31057
2026-01-23 01:09:34.55	184.32	6.04	-46.2	-64.7	3.8	7.46e-01	0	61	104	1073741824	63	31112
2026-01-23 01:09:35.56	184.36	5.96	-46.2	-64.6	3.8	7.45e-01	0	61	104	1073741824	63	31076
2026-01-23 01:09:36.57	184.39	5.88	-46.2	-64.6	3.8	7.45e-01	0	61	104	1073741824	63	31024
2026-01-23 01:09:37.58	184.42	5.80	-46.2	-64.6	3.8	7.45e-01	0	60	104	1073741824	63	31046
2026-01-23 01:09:38.59	184.45	5.73	-46.2	-64.6	3.8	7.44e-01	0	61	104	1073741824	63	31058
2026-01-23 01:09:39.60	184.49	5.65	-46.2	-64.6	3.8	7.46e-01	0	61	104	1073741824	63	31024
2026-01-23 01:09:40.61	184.52	5.57	-46.2	-64.6	3.8	7.44e-01	0	61	104	1073741824	63	31026
2026-01-23 01:09:41.62	184.55	5.50	-46.2	-64.6	3.8	7.46e-01	0	61	104	1073741824	63	31054
2026-01-23 01:09:42.63	184.58	5.42	-46.2	-64.6	3.8	7.44e-01	0	61	104	1073741824	63	30989
2026-01-23 01:09:43.64	184.61	5.34	-46.2	-64.6	3.8	7.44e-01	0	61	104	1073741824	63	31037
2026-01-23 01:09:44.65	184.64	5.27	-46.2	-64.6	3.8	7.40e-01	0	61	104	1073741824	63	31003
2026-01-23 01:09:45.66	184.67	5.19	-46.2	-64.6	3.8	7.47e-01	0	61	104	1073741824	63	31035
2026-01-23 01:09:46.67	184.70	5.12	-46.2	-64.6	3.8	7.45e-01	0	61	104	1073741824	63	30940
2026-01-23 01:09:47.68	184.74	5.04	-46.1	-64.6	3.8	7.45e-01	0	61	104	1073741824	63	30968
2026-01-23 01:09:48.69	184.77	4.97	-46.1	-64.6	3.8	7.45e-01	0	61	104	1073741824	63	31006
2026-01-23 01:09:49.70	184.80	4.89	-46.2	-64.6	3.8	7.45e-01	0	61	104	1073741824	63	30918
2026-01-23 01:09:50.71	184.83	4.82	-46.1	-64.6	3.8	7.47e-01	0	61	104	1073741824	63	30901
2026-01-23 01:09:51.72	184.86	4.74	-46.1	-64.6	3.8	7.44e-01	0	61	104	1073741824	63	30976
2026-01-23 01:09:52.73	184.89	4.67	-46.1	-64.6	3.8	7.45e-01	0	61	104	1073741824	63	30977
2026-01-23 01:09:53.74	184.92	4.59	-46.1	-64.6	3.8	7.45e-01	0	61	104	1073741824	63	30926
2026-01-23 01:09:54.75	184.95	4.52	-46.1	-64.6	3.8	7.44e-01	0	61	104	1073741824	63	30934
2026-01-23 01:09:55.76	184.98	4.45	-46.1	-64.6	3.8	7.45e-01	0	61	104	1073741824	63	30891
2026-01-23 01:09:56.77	185.01	4.37	-46.1	-64.6	3.8	7.46e-01	0	61	104	1073741824	63	30921
2026-01-23 01:09:57.78	185.03	4.30	-46.1	-64.6	3.8	7.45e-01	0	61	104	1073741824	63	30928
2026-01-23 01:09:58.79	185.06	4.23	-46.1	-64.6	3.8	7.47e-01	0	60	104	1073741824	63	30985
2026-01-23 01:09:59.80	185.09	4.16	-46.1	-64.6	3.8	7.49e-01	0	61	104	1073741824	63	30894
2026-01-23 01:10:00.81	185.12	4.08	-46.1	-64.6	3.8	7.44e-01	0	61	104	1073741824	63	30926
2026-01-23 01:10:01.82	185.15	4.01	-46.1	-64.6	3.8	7.44e-01	0	61	104	1073741824	63	30912
2026-01-23 01:10:02.83	185.18	3.94	-46.1	-64.6	3.8	7.46e-01	0	61	104	1073741824	63	30894
2026-01-23 01:10:03.84	185.21	3.87	-46.1	-64.6	3.8	7.46e-01	0	61	104	1073741824	63	30896
2026-01-23 01:10:04.85	185.23	3.80	-46.1	-64.6	3.8	7.42e-01	0	61	104	1073741824	63	30894
2026-01-23 01:10:05.86	185.26	3.73	-46.1	-64.6	3.8	7.44e-01	0	61	104	1073741824	63	30964
2026-01-23 01:10:06.87	185.29	3.65	-46.1	-64.6	3.8	7.45e-01	0	61	104	1073741824	63	30892
2026-01-23 01:10:07.88	185.32	3.58	-46.1	-64.6	3.8	7.46e-01	0	61	104	1073741824	63	30896
2026-01-23 01:10:08.89	185.35	3.51	-46.1	-64.6	3.8	7.48e-01	0	61	104	1073741824	63	30880
2026-01-23 01:10:09.90	185.37	3.44	-46.1	-64.6	3.8	7.43e-01	0	61	104	1073741824	63	30883
2026-01-23 01:10:10.91	185.40	3.37	-46.1	-64.6	3.8	7.45e-01	0	61	104	1073741824	63	30852
2026-01-23 01:10:11.92	185.43	3.30	-46.1	-64.6	3.8	7.45e-01	0	61	104	1073741824	63	30862
2026-01-23 01:10:12.93	185.46	3.23	-46.1	-64.6	3.8	7.45e-01	0	61	104	1073741824	63	30823
2026-01-23 01:10:13.94	185.48	3.16	-46.1	-64.6	3.8	7.45e-01	0	61	104	1073741824	63	30876
2026-01-23 01:10:14.95	185.51	3.09	-46.1	-64.6	3.8	7.43e-01	0	61	104	1073741824	63	30884
2026-01-23 01:10:15.96	185.54	3.02	-46.1	-64.6	3.8	7.44e-01	0	61	104	1073741824	63	30857
2026-01-23 01:10:16.97	185.56	2.95	-46.1	-64.6	3.8	7.43e-01	0	61	104	1073741824	63	30833
2026-01-23 01:10:17.98	185.59	2.89	-46.1	-64.6	3.8	7.45e-01	0	61	104	1073741824	63	30816
2026-01-23 01:10:18.99	185.62	2.82	-46.1	-64.6	3.8	7.48e-01	0	61	104	1073741824	63	30851
2026-01-23 01:10:20.00	185.64	2.75	-46.1	-64.6	3.8	7.47e-01	0	61	104	1073741824	63	30941
2026-01-23 01:10:21.01	185.67	2.68	-46.1	-64.6	3.8	7.47e-01	0	61	104	1073741824	63	30810
2026-01-23 01:10:22.02	185.69	2.61	-46.1	-64.6	3.8	7.41e-01	0	61	104	1073741824	63	30877
2026-01-23 01:10:23.03	185.72	2.54	-46.1	-64.6	3.8	7.45e-01	0	61	104	1073741824	63	30821
2026-01-23 01:10:24.04	185.75	2.48	-46.1	-64.6	3.8	7.44e-01	0	61	104	1073741824	63	30848
2026-01-23 01:10:25.05	185.77	2.41	-46.1	-64.6	3.8	7.47e-01	0	61	104	1073741824	63	30806
2026-01-23 01:10:26.06	185.80	2.34	-46.1	-64.6	3.8	7.43e-01	0	61	104	1073741824	63	30881
2026-01-23 01:10:27.07	185.82	2.27	-46.1	-64.6	3.8	7.46e-01	0	61	104	1073741824	63	30784
2026-01-23 01:10:28.08	185.85	2.21	-46.1	-64.6	3.8	7.43e-01	0	61	104	1073741824	63	30813
2026-01-23 01:10:29.09	185.87	2.14	-46.1	-64.6	3.8	7.44e-01	0	61	104	1073741824	63	30834
2026-01-23 01:10:30.10	185.90	2.07	-46.1	-64.6	3.8	7.46e-01	0	61	104	1073741824	63	30747
2026-01-23 01:10:31.11	185.92	2.01	-46.1	-64.6	3.8	7.47e-01	0	61	104	1073741824	63	30885
2026-01-23 01:10:32.12	185.95	1.94	-46.1	-64.6	3.8	7.45e-01	0	61	104	1073741824	63	30785
2026-01-23 01:10:33.13	185.97	1.87	-46.1	-64.6	3.8	7.48e-01	0	61	104	1073741824	63	30766

#Closed at: 2026-01-23 01:10:33
#Recorded file [1073 MB]: D:/lorett/data/31039_260123_035909.dat