passes_logs/2026/01/23/R2.0S_Moscow/R2.0S_Moscow__20260123_103216_AQUA_rec.log

#Pass ID: 20260123_103216_AQUA
#Satellite: AQUA
#Configuration: AQUA
#almurnet v.1.7.20251203
#Start time: 2026-01-23 10:32:17

#Version: 2.2.20231116
#Station: R2.0S_Moscow
#Location: 37.707566 lon 55.798166 lat
#TLE: 1 27424U 02022A   26022.49486490  .00002153  00000+0  44069-3 0  9997
#TLE: 2 27424  98.4099 349.0485 0001970  69.5876  43.4746 14.61847233261984

#Time	Az	El	Level	Level2	SNR	BER	BlckErr	Temp	State	Recorded	gain1	gain2
2026-01-23 10:32:17.20	125.58	2.05	-10.7	-23.1	4.0	7.48e-01	0	56	0	0	0	9802
2026-01-23 10:32:18.20	125.53	2.11	-15.6	-29.1	3.9	7.44e-01	0	56	104	0	3	16478
2026-01-23 10:32:19.21	125.47	2.17	-10.7	-27.8	3.5	7.48e-01	0	56	104	0	1	15916
2026-01-23 10:32:20.22	125.41	2.24	-14.1	-30.1	3.7	7.47e-01	0	56	104	0	3	18309
2026-01-23 10:32:21.23	125.35	2.30	-12.6	-27.9	3.6	7.49e-01	0	56	104	0	1	16034
2026-01-23 10:32:22.24	125.29	2.36	-12.6	-25.9	3.8	7.57e-01	0	57	104	0	0	13545
2026-01-23 10:32:23.25	125.23	2.43	-14.6	-26.7	3.6	7.33e-01	0	56	104	0	0	14878
2026-01-23 10:32:24.27	125.17	2.49	-17.2	-32.2	3.7	7.55e-01	0	57	104	0	4	22109
2026-01-23 10:32:25.28	125.11	2.55	-8.4	-25.4	3.5	7.34e-01	0	57	104	0	0	12758
2026-01-23 10:32:26.29	125.04	2.62	-13.1	-28.5	3.4	7.60e-01	0	57	104	0	2	16221
2026-01-23 10:32:27.30	124.98	2.68	-9.1	-28.1	3.7	7.57e-01	0	57	104	0	5	13060
2026-01-23 10:32:28.31	124.92	2.74	-13.2	-25.8	3.7	7.42e-01	0	57	104	0	0	13301
2026-01-23 10:32:29.32	124.86	2.81	-15.7	-32.2	3.7	7.58e-01	0	57	104	0	6	19714
2026-01-23 10:32:30.33	124.80	2.87	-14.8	-29.2	3.7	7.54e-01	0	57	104	0	1	18560
2026-01-23 10:32:31.34	124.73	2.94	-13.3	-29.5	3.9	7.54e-01	0	57	104	0	0	20358
2026-01-23 10:32:32.35	124.67	3.00	-14.1	-29.5	3.7	7.50e-01	0	57	104	0	3	17126
2026-01-23 10:32:33.36	124.61	3.07	-11.6	-29.1	3.8	7.40e-01	0	57	104	0	0	19467
2026-01-23 10:32:34.37	124.54	3.13	-13.6	-26.3	3.6	7.39e-01	0	57	104	0	1	13273
2026-01-23 10:32:35.38	124.48	3.19	-17.8	-29.0	3.5	7.57e-01	0	57	104	0	2	17144
2026-01-23 10:32:36.39	124.42	3.26	-18.4	-32.2	3.7	7.48e-01	0	57	104	0	4	22083
2026-01-23 10:32:37.40	124.35	3.32	-14.1	-27.6	3.5	7.46e-01	0	57	104	0	1	15430
2026-01-23 10:32:38.41	124.29	3.39	-13.0	-25.7	3.5	7.47e-01	0	57	104	0	0	13201
2026-01-23 10:32:39.42	124.22	3.46	-15.9	-32.4	3.8	7.52e-01	0	57	104	0	4	22552
2026-01-23 10:32:40.43	124.15	3.52	-12.9	-29.4	3.7	7.57e-01	0	57	104	0	3	17053
2026-01-23 10:32:41.45	124.09	3.59	-15.0	-29.7	3.8	7.53e-01	0	57	104	0	1	19760
2026-01-23 10:32:42.45	124.02	3.65	-16.6	-30.2	3.8	7.60e-01	0	57	104	0	1	20867
2026-01-23 10:32:43.47	123.95	3.72	-10.6	-27.1	3.9	7.58e-01	0	58	104	0	0	15415
2026-01-23 10:32:44.48	123.89	3.78	-16.2	-28.0	3.4	7.57e-01	0	57	104	0	1	16269
2026-01-23 10:32:45.49	123.82	3.85	-11.6	-24.8	3.6	7.41e-01	0	58	104	0	0	11830
2026-01-23 10:32:46.50	123.75	3.92	-12.9	-30.4	3.6	7.54e-01	0	58	104	0	2	20220
2026-01-23 10:32:47.51	123.68	3.98	-10.9	-23.7	3.8	7.53e-01	0	58	104	0	0	10514
2026-01-23 10:32:48.52	123.62	4.05	-8.9	-22.8	3.7	7.43e-01	0	58	104	0	0	9451
2026-01-23 10:32:49.53	123.55	4.12	-8.6	-23.2	3.6	7.33e-01	0	58	104	0	0	9900
2026-01-23 10:32:50.54	123.48	4.18	-10.7	-27.8	3.7	7.55e-01	0	58	104	0	1	15825
2026-01-23 10:32:51.55	123.41	4.25	-14.7	-28.8	3.7	7.54e-01	0	58	104	0	2	16874
2026-01-23 10:32:52.56	123.34	4.32	-11.9	-27.2	3.8	7.57e-01	0	58	104	0	0	15659
2026-01-23 10:32:53.57	123.27	4.39	-17.1	-30.9	3.5	7.54e-01	0	58	104	0	3	20136
2026-01-23 10:32:54.58	123.20	4.45	-9.6	-22.0	3.4	7.51e-01	0	58	104	0	0	8565
2026-01-23 10:32:55.59	123.13	4.52	-12.0	-25.5	3.7	7.55e-01	0	58	104	0	0	12942
2026-01-23 10:32:56.60	123.06	4.59	-12.3	-25.4	3.7	7.44e-01	0	58	104	0	1	11957
2026-01-23 10:32:57.61	122.99	4.66	-15.4	-31.2	3.9	7.53e-01	0	58	104	0	5	18616
2026-01-23 10:32:58.62	122.91	4.72	-16.5	-30.2	3.9	7.55e-01	0	58	104	0	0	22087
2026-01-23 10:32:59.63	122.84	4.79	-15.7	-32.2	3.9	7.52e-01	0	58	104	0	5	20982
2026-01-23 10:33:00.64	122.77	4.86	-16.3	-29.1	3.8	7.48e-01	0	58	104	0	4	15500
2026-01-23 10:33:01.65	122.69	4.93	-15.9	-29.0	3.4	7.50e-01	0	58	104	0	1	18151
2026-01-23 10:33:02.66	122.62	5.00	-10.1	-23.8	3.8	7.59e-01	0	58	104	0	0	10605
2026-01-23 10:33:03.67	122.55	5.07	-16.3	-29.0	3.8	7.70e-01	0	58	104	0	0	19332
2026-01-23 10:33:04.68	122.47	5.14	-13.5	-28.2	3.7	7.49e-01	0	58	104	0	2	15663
2026-01-23 10:33:05.69	122.40	5.21	-11.8	-27.6	3.8	7.55e-01	0	58	104	0	0	16459
2026-01-23 10:33:06.70	122.32	5.28	-9.6	-25.3	3.7	7.45e-01	0	58	104	0	0	12569
2026-01-23 10:33:07.71	122.25	5.35	-16.4	-27.8	4.0	7.42e-01	0	59	104	0	0	16869
2026-01-23 10:33:08.72	122.17	5.42	-17.1	-31.5	3.4	7.58e-01	0	58	104	0	4	20342
2026-01-23 10:33:09.73	122.09	5.48	-17.2	-31.4	3.9	7.56e-01	0	59	104	0	6	18012
2026-01-23 10:33:10.74	122.02	5.55	-14.9	-27.9	3.7	7.49e-01	0	58	104	0	0	16998
2026-01-23 10:33:11.76	121.94	5.63	-16.8	-31.1	3.8	7.50e-01	0	58	104	0	5	18432
2026-01-23 10:33:12.76	121.86	5.70	-17.0	-32.3	3.8	7.54e-01	0	59	104	0	7	18872
2026-01-23 10:33:13.77	121.79	5.77	-14.3	-28.3	3.7	7.40e-01	0	58	104	0	2	15855
2026-01-23 10:33:14.79	121.71	5.84	-16.2	-31.0	3.5	7.54e-01	0	59	104	0	3	20370
2026-01-23 10:33:15.80	121.63	5.91	-15.5	-30.5	3.6	7.51e-01	0	58	104	0	4	18290
2026-01-23 10:33:16.81	121.55	5.98	-13.5	-26.8	3.6	7.58e-01	0	59	104	0	1	14138
2026-01-23 10:33:17.82	121.47	6.05	-10.6	-25.1	3.8	7.53e-01	0	58	104	0	0	12239
2026-01-23 10:33:18.83	121.39	6.12	-12.2	-25.9	3.8	7.45e-01	0	59	104	0	0	13417
2026-01-23 10:33:19.84	121.31	6.19	-14.4	-26.2	3.6	7.53e-01	0	59	104	0	0	13899
2026-01-23 10:33:20.85	121.23	6.27	-15.0	-31.3	3.7	7.53e-01	0	59	104	0	4	20022
2026-01-23 10:33:21.86	121.14	6.34	-11.0	-27.1	3.8	7.50e-01	0	59	104	0	0	15432
2026-01-23 10:33:22.87	121.06	6.41	-14.6	-26.1	3.8	7.51e-01	0	59	104	0	0	13816
2026-01-23 10:33:23.88	120.98	6.48	-14.8	-25.8	3.7	7.43e-01	0	59	104	0	0	13290
2026-01-23 10:33:24.89	120.90	6.55	-12.8	-25.5	3.9	7.53e-01	0	59	104	0	0	12920
2026-01-23 10:33:25.90	120.81	6.63	-9.6	-22.0	3.3	7.27e-01	0	59	104	0	0	8627
2026-01-23 10:33:26.91	120.73	6.70	-11.9	-24.3	3.8	7.50e-01	0	59	104	0	0	11186
2026-01-23 10:33:27.92	120.65	6.77	-14.5	-29.4	3.7	7.50e-01	0	59	104	0	1	19074
2026-01-23 10:33:28.93	120.56	6.85	-13.6	-25.1	3.8	7.45e-01	0	59	104	0	0	12322
2026-01-23 10:33:29.94	120.48	6.92	-12.8	-27.5	3.8	7.46e-01	0	59	104	0	0	16293
2026-01-23 10:33:30.95	120.39	6.99	-13.1	-27.3	3.9	7.46e-01	0	59	104	0	0	15786
2026-01-23 10:33:31.96	120.30	7.07	-16.4	-29.0	3.8	7.58e-01	0	59	104	0	1	18250
2026-01-23 10:33:32.97	120.22	7.14	-12.3	-25.4	3.6	7.43e-01	0	59	104	0	0	12796
2026-01-23 10:33:33.98	120.13	7.21	-13.3	-27.6	3.8	7.56e-01	0	59	104	0	0	16391
2026-01-23 10:33:34.99	120.04	7.29	-14.3	-26.6	3.7	7.51e-01	0	59	104	0	2	13087
2026-01-23 10:33:36.01	119.95	7.36	-13.4	-26.4	3.7	7.39e-01	0	59	104	0	2	12742
2026-01-23 10:33:37.01	119.86	7.44	-12.9	-27.1	3.7	7.54e-01	0	59	104	0	0	15518
2026-01-23 10:33:38.03	119.77	7.51	-14.9	-29.2	3.7	7.46e-01	0	59	104	0	1	18731
2026-01-23 10:33:39.03	119.69	7.59	-11.3	-22.9	3.7	7.49e-01	0	59	104	0	0	9574
2026-01-23 10:33:40.05	119.59	7.66	-11.2	-24.7	3.8	7.55e-01	0	59	104	0	0	11787
2026-01-23 10:33:41.06	119.50	7.74	-13.4	-30.4	3.6	7.52e-01	0	59	104	0	5	16917
2026-01-23 10:33:42.07	119.41	7.81	-11.8	-25.6	3.9	7.50e-01	0	59	104	0	0	12991
2026-01-23 10:33:43.08	119.32	7.89	-16.9	-27.3	3.4	7.39e-01	0	59	104	0	1	14970
2026-01-23 10:33:44.09	119.23	7.96	-11.9	-26.5	3.8	7.50e-01	0	59	104	0	1	13613
2026-01-23 10:33:45.10	119.14	8.04	-13.8	-29.5	3.6	7.51e-01	0	59	104	0	2	18226
2026-01-23 10:33:46.11	119.04	8.12	-19.8	-32.0	3.7	7.47e-01	0	59	104	0	10	15242
2026-01-23 10:33:47.12	118.95	8.19	-17.5	-28.8	3.8	7.51e-01	0	60	104	0	3	15869
2026-01-23 10:33:48.13	118.85	8.27	-13.7	-24.7	3.5	7.44e-01	0	59	104	0	0	11689
2026-01-23 10:33:49.14	118.76	8.35	-18.7	-32.7	3.7	7.44e-01	0	60	104	0	9	17587
2026-01-23 10:33:50.15	118.66	8.42	-14.6	-27.2	3.7	7.52e-01	0	60	104	0	0	15753
2026-01-23 10:33:51.16	118.57	8.50	-14.3	-29.1	3.8	7.55e-01	0	60	104	0	2	17381
2026-01-23 10:33:52.17	118.47	8.58	-11.5	-25.9	3.8	7.45e-01	0	60	104	0	0	13420
2026-01-23 10:33:53.18	118.37	8.65	-17.0	-28.5	3.9	7.50e-01	0	60	104	0	2	16244
2026-01-23 10:33:54.19	118.27	8.73	-11.2	-25.5	3.8	7.42e-01	0	60	104	0	0	12864
2026-01-23 10:33:55.20	118.18	8.81	-14.9	-28.3	3.8	7.50e-01	0	60	104	0	2	15900
2026-01-23 10:33:56.21	118.08	8.89	-16.1	-28.9	3.7	7.64e-01	0	60	104	0	1	17925
2026-01-23 10:33:57.21	117.98	8.97	-16.6	-30.9	3.7	7.55e-01	0	60	104	0	8	15209
2026-01-23 10:33:58.22	117.88	9.04	-13.8	-27.0	4.0	7.51e-01	0	60	104	0	0	15271
2026-01-23 10:33:59.23	117.78	9.12	-10.2	-22.6	3.7	7.47e-01	0	60	104	0	0	9240
2026-01-23 10:34:00.24	117.68	9.20	-12.1	-24.6	3.7	7.46e-01	0	60	104	0	0	11653
2026-01-23 10:34:01.25	117.57	9.28	-14.8	-26.9	3.6	7.47e-01	0	60	104	0	1	14349
2026-01-23 10:34:02.26	117.47	9.36	-15.7	-29.0	3.9	7.53e-01	0	60	104	0	2	17120
2026-01-23 10:34:03.27	117.37	9.44	-12.6	-27.0	3.7	7.53e-01	0	60	104	0	1	14465
2026-01-23 10:34:04.28	117.26	9.52	-14.1	-29.6	3.5	7.54e-01	0	60	104	0	6	14551
2026-01-23 10:34:05.29	117.16	9.60	-15.0	-28.6	3.8	7.49e-01	0	60	104	0	4	14708
2026-01-23 10:34:06.29	117.05	9.68	-16.4	-29.4	3.7	7.47e-01	0	60	104	0	4	16075
2026-01-23 10:34:07.30	116.95	9.76	-12.9	-25.3	3.9	7.36e-01	0	60	104	0	0	12567
2026-01-23 10:34:08.31	116.84	9.84	-13.8	-25.1	4.0	7.51e-01	0	60	104	0	0	12270
2026-01-23 10:34:09.32	116.73	9.92	-12.6	-25.7	3.8	7.38e-01	0	60	104	0	0	13191
2026-01-23 10:34:10.33	116.63	10.00	-16.1	-28.6	3.8	7.60e-01	0	60	104	0	1	17288
2026-01-23 10:34:11.34	116.52	10.08	-16.0	-28.8	3.7	7.52e-01	0	60	104	0	3	15804
2026-01-23 10:34:12.35	116.41	10.16	-17.6	-31.9	3.7	7.47e-01	0	60	104	0	8	16945
2026-01-23 10:34:13.36	116.30	10.25	-18.5	-30.9	3.8	7.53e-01	0	60	104	0	5	17923
2026-01-23 10:34:14.37	116.19	10.33	-15.3	-27.9	3.7	7.44e-01	0	60	104	0	1	15977
2026-01-23 10:34:15.38	116.08	10.41	-16.3	-30.3	3.7	7.52e-01	0	60	104	0	4	17705
2026-01-23 10:34:16.39	115.97	10.49	-16.2	-28.4	3.6	7.48e-01	0	60	104	0	3	15224
2026-01-23 10:34:17.40	115.85	10.57	-15.5	-29.0	3.8	7.48e-01	0	60	104	0	5	14490
2026-01-23 10:34:18.41	115.74	10.66	-13.1	-26.8	3.9	7.51e-01	0	60	104	0	1	14085
2026-01-23 10:34:19.42	115.63	10.74	-22.5	-34.4	3.8	7.56e-01	0	60	104	0	10	20259
2026-01-23 10:34:20.43	115.51	10.82	-26.9	-41.7	4.1	7.53e-01	0	60	104	0	25	19797
2026-01-23 10:34:21.44	115.40	10.90	-16.7	-33.8	3.8	7.47e-01	0	60	104	0	12	16698
2026-01-23 10:34:22.45	115.28	10.99	-14.8	-30.6	3.8	7.49e-01	0	60	104	0	4	18413
2026-01-23 10:34:23.46	115.16	11.07	-19.7	-29.5	3.5	7.39e-01	0	60	104	0	6	14474
2026-01-23 10:34:24.47	115.05	11.16	-19.9	-33.1	3.9	7.48e-01	0	60	104	0	9	18481
2026-01-23 10:34:25.48	114.93	11.24	-17.8	-32.7	4.0	7.49e-01	0	60	104	0	9	17539
2026-01-23 10:34:26.49	114.81	11.32	-23.8	-37.5	3.5	7.56e-01	0	60	104	0	14	22919
2026-01-23 10:34:27.50	114.69	11.41	-25.2	-38.8	4.3	7.46e-01	0	60	104	0	21	17874
2026-01-23 10:34:28.50	114.57	11.49	-31.9	-43.2	4.3	7.63e-01	0	60	104	0	33	14847
2026-01-23 10:34:29.51	114.45	11.58	-17.1	-28.8	3.7	7.49e-01	0	60	104	0	4	14961
2026-01-23 10:34:30.52	114.33	11.66	-14.8	-27.6	3.7	7.54e-01	0	60	104	0	0	16383
2026-01-23 10:34:31.53	114.20	11.75	-15.5	-27.8	3.4	7.49e-01	0	61	104	0	2	15031
2026-01-23 10:34:32.54	114.08	11.83	-15.8	-29.1	3.7	7.44e-01	0	61	104	0	3	16360
2026-01-23 10:34:33.55	113.95	11.92	-17.5	-29.9	3.6	7.43e-01	0	60	104	0	5	16050
2026-01-23 10:34:34.56	113.83	12.00	-24.4	-31.2	3.6	7.56e-01	0	61	104	0	6	17523
2026-01-23 10:34:35.57	113.70	12.09	-25.0	-37.1	3.7	7.54e-01	0	60	104	0	19	16376
2026-01-23 10:34:36.58	113.58	12.18	-37.8	-48.2	7.1	6.37e-01	67	60	104	0	48	11107
2026-01-23 10:34:37.59	113.45	12.26	-30.0	-44.8	4.0	7.49e-01	0	60	104	0	32	18876
2026-01-23 10:34:38.60	113.32	12.35	-27.6	-41.0	3.7	7.63e-01	0	61	104	0	19	25688
2026-01-23 10:34:39.61	113.19	12.44	-26.7	-38.4	3.5	7.51e-01	0	61	104	0	18	20133
2026-01-23 10:34:40.61	113.06	12.52	-28.4	-40.7	3.7	7.57e-01	0	61	104	0	24	18666
2026-01-23 10:34:41.62	112.93	12.61	-28.9	-42.6	3.9	7.59e-01	0	61	104	0	28	18444
2026-01-23 10:34:42.63	112.80	12.70	-32.5	-46.4	4.2	7.50e-01	0	61	104	0	34	20089
2026-01-23 10:34:43.64	112.67	12.78	-34.8	-46.8	5.1	7.15e-01	0	61	104	0	47	10018
2026-01-23 10:34:44.65	112.53	12.87	-42.1	-47.9	7.1	6.44e-01	0	61	104	0	49	10168
2026-01-23 10:34:45.66	112.40	12.96	-38.1	-49.4	5.9	6.61e-01	15	61	104	0	48	12756
2026-01-23 10:34:46.67	112.26	13.05	-34.4	-47.7	5.0	7.14e-01	0	61	104	0	53	7879
2026-01-23 10:34:47.68	112.13	13.14	-32.1	-43.7	4.7	7.27e-01	0	61	104	0	43	8840
2026-01-23 10:34:48.69	111.99	13.23	-31.7	-45.6	4.2	7.19e-01	0	61	104	0	43	11025
2026-01-23 10:34:49.70	111.85	13.31	-42.4	-49.7	6.6	6.63e-01	14	61	104	0	53	9845
2026-01-23 10:34:50.71	111.71	13.40	-39.1	-50.0	7.9	6.44e-01	16	61	0	0	55	9146
2026-01-23 10:34:51.72	111.57	13.49	-42.2	-46.4	16.0	6.05e-01	0	61	0	524288	55	6021
2026-01-23 10:34:52.73	111.43	13.58	-44.3	-52.1	11.2	6.19e-01	0	61	0	2621440	59	9239
2026-01-23 10:34:53.74	111.29	13.67	-42.0	-47.0	9.0	6.60e-01	44	61	0	4194304	48	9655
2026-01-23 10:34:54.75	111.15	13.76	-38.4	-45.7	11.9	6.57e-01	9	61	0	4718592	52	6609
2026-01-23 10:34:55.76	111.00	13.85	-41.8	-45.6	14.5	6.09e-01	2	61	0	6815744	54	5848
2026-01-23 10:34:56.77	110.86	13.94	-40.7	-45.8	12.4	6.27e-01	28	61	0	8388608	53	6307
2026-01-23 10:34:57.77	110.72	14.03	-37.0	-44.7	12.7	6.37e-01	9	61	0	9961472	52	5890
2026-01-23 10:34:58.78	110.57	14.12	-38.0	-45.3	12.6	6.15e-01	16	61	0	12058624	54	5601
2026-01-23 10:34:59.79	110.42	14.21	-36.9	-44.8	13.5	6.17e-01	20	61	0	12058624	52	5981
2026-01-23 10:35:00.80	110.27	14.31	-37.2	-45.0	5.1	7.07e-01	0	61	104	13107200	50	6808
2026-01-23 10:35:01.81	110.12	14.40	-35.1	-45.3	5.2	7.12e-01	0	61	104	14155776	49	7530
2026-01-23 10:35:02.82	109.97	14.49	-40.2	-45.3	15.1	6.09e-01	2	61	0	14680064	52	6286
2026-01-23 10:35:03.83	109.82	14.58	-39.0	-45.0	11.6	6.33e-01	10	61	0	16252928	49	7265
2026-01-23 10:35:04.84	109.67	14.67	-41.2	-45.2	15.9	6.10e-01	3	61	0	18350080	53	5861
2026-01-23 10:35:05.85	109.52	14.76	-41.3	-45.2	16.5	6.05e-01	7	61	0	19922944	53	5877
2026-01-23 10:35:06.86	109.36	14.86	-38.2	-44.6	8.0	6.59e-01	44	61	0	22020096	44	9228
2026-01-23 10:35:07.87	109.21	14.95	-41.1	-45.0	16.9	6.09e-01	0	61	0	23592960	53	5783
2026-01-23 10:35:08.87	109.05	15.04	-37.6	-44.3	14.4	6.22e-01	32	61	0	25690112	51	5991
2026-01-23 10:35:09.88	108.89	15.13	-41.5	-45.0	17.4	6.05e-01	0	61	0	27262976	54	5459
2026-01-23 10:35:10.89	108.74	15.23	-41.7	-45.0	15.5	6.10e-01	1	61	0	29360128	53	5787
2026-01-23 10:35:11.90	108.58	15.32	-41.5	-45.2	14.6	6.07e-01	5	61	0	30932992	52	6204
2026-01-23 10:35:12.91	108.42	15.41	-40.1	-45.5	11.6	6.08e-01	5	61	0	32505856	49	7647
2026-01-23 10:35:13.92	108.25	15.51	-40.2	-43.8	7.3	6.92e-01	5	61	0	34078720	43	8928
2026-01-23 10:35:14.93	108.09	15.60	-32.2	-44.3	4.9	7.22e-01	0	61	104	34078720	47	7492
2026-01-23 10:35:15.94	107.93	15.69	-40.7	-44.9	5.2	6.55e-01	1	61	104	34078720	41	11371
2026-01-23 10:35:16.95	107.76	15.79	-41.0	-45.2	15.8	6.09e-01	2	61	0	35127296	53	5865
2026-01-23 10:35:17.96	107.59	15.88	-41.1	-45.0	15.9	6.07e-01	0	61	0	37224448	52	6068
2026-01-23 10:35:18.97	107.43	15.98	-40.1	-44.9	15.4	6.08e-01	0	61	0	38797312	51	6398
2026-01-23 10:35:19.97	107.26	16.07	-38.3	-45.0	13.8	6.13e-01	20	61	0	40894464	52	6106
2026-01-23 10:35:20.98	107.09	16.17	-40.2	-45.0	15.1	6.14e-01	5	61	0	42991616	50	6802
2026-01-23 10:35:21.99	106.92	16.26	-40.0	-45.0	16.2	6.08e-01	0	61	0	44564480	50	6820
2026-01-23 10:35:23.00	106.75	16.36	-39.5	-45.0	14.6	6.08e-01	0	61	0	46661632	50	6804
2026-01-23 10:35:24.01	106.57	16.45	-38.4	-44.6	10.7	6.28e-01	35	61	0	48234496	45	8723
2026-01-23 10:35:25.02	106.40	16.55	-41.8	-45.1	17.0	6.07e-01	0	61	0	50331648	54	5505
2026-01-23 10:35:26.03	106.22	16.64	-41.8	-45.2	16.0	6.08e-01	2	61	0	52428800	54	5546
2026-01-23 10:35:27.04	106.05	16.74	-41.4	-45.2	17.5	6.03e-01	0	61	0	54001664	53	5858
2026-01-23 10:35:28.05	105.87	16.83	-40.4	-45.0	17.6	6.07e-01	0	61	0	56098816	52	6104
2026-01-23 10:35:29.06	105.69	16.93	-40.9	-45.0	18.1	6.06e-01	0	61	0	58195968	53	5776
2026-01-23 10:35:30.07	105.51	17.03	-39.8	-45.0	17.6	6.07e-01	0	61	0	59768832	53	5777
2026-01-23 10:35:31.08	105.33	17.12	-40.4	-45.4	17.5	6.07e-01	0	61	0	61865984	51	6726
2026-01-23 10:35:32.09	105.15	17.22	-41.8	-45.1	18.1	6.06e-01	0	61	0	63438848	54	5495
2026-01-23 10:35:33.10	104.96	17.31	-41.7	-45.3	17.9	6.07e-01	0	61	0	65536000	54	5606
2026-01-23 10:35:34.11	104.78	17.41	-40.8	-45.2	17.7	6.06e-01	0	61	0	67633152	53	5909
2026-01-23 10:35:35.12	104.59	17.51	-40.8	-45.1	17.8	6.06e-01	0	61	0	69206016	52	6182
2026-01-23 10:35:36.13	104.40	17.60	-41.2	-45.0	18.1	6.07e-01	0	61	0	71303168	53	5787
2026-01-23 10:35:37.13	104.21	17.70	-41.4	-44.9	18.0	6.07e-01	0	61	0	72876032	52	6051
2026-01-23 10:35:38.14	104.02	17.80	-41.2	-45.0	17.7	6.05e-01	0	61	0	74973184	52	6089
2026-01-23 10:35:39.15	103.83	17.90	-40.2	-44.8	18.1	6.07e-01	0	61	0	76546048	53	5626
2026-01-23 10:35:40.16	103.64	17.99	-40.7	-44.8	17.7	6.05e-01	0	61	0	78643200	53	5655
2026-01-23 10:35:41.17	103.44	18.09	-40.0	-45.2	17.7	6.07e-01	0	61	0	80740352	52	6209
2026-01-23 10:35:42.18	103.25	18.19	-40.5	-45.1	17.8	6.06e-01	0	61	0	82313216	52	6192
2026-01-23 10:35:43.19	103.05	18.29	-39.4	-45.3	17.6	6.06e-01	0	61	0	84410368	52	6281
2026-01-23 10:35:44.20	102.85	18.38	-39.9	-45.1	17.1	6.07e-01	0	61	0	86507520	50	6925
2026-01-23 10:35:45.21	102.65	18.48	-39.7	-45.1	16.4	6.07e-01	0	61	0	88080384	51	6557
2026-01-23 10:35:46.21	102.45	18.58	-39.8	-45.0	17.8	6.05e-01	0	61	0	90177536	50	6871
2026-01-23 10:35:47.22	102.25	18.68	-38.6	-44.7	16.7	6.08e-01	0	61	0	91750400	46	8278
2026-01-23 10:35:48.23	102.04	18.77	-40.6	-45.0	17.8	6.07e-01	0	61	0	93847552	53	5740
2026-01-23 10:35:49.24	101.84	18.87	-38.3	-44.8	17.1	6.08e-01	0	61	0	95944704	49	7051
2026-01-23 10:35:50.25	101.63	18.97	-41.2	-45.1	18.0	6.04e-01	0	61	0	97517568	53	5827
2026-01-23 10:35:51.26	101.42	19.07	-40.4	-45.3	17.5	6.06e-01	0	61	0	99614720	54	5614
2026-01-23 10:35:52.27	101.21	19.17	-40.1	-45.5	17.6	6.07e-01	0	61	0	101187584	53	6115
2026-01-23 10:35:53.28	101.00	19.26	-40.8	-45.3	16.8	6.06e-01	0	61	0	103284736	50	7099
2026-01-23 10:35:54.29	100.79	19.36	-38.5	-45.4	17.1	6.06e-01	0	61	0	105381888	50	7180
2026-01-23 10:35:55.30	100.58	19.46	-39.9	-45.6	17.6	6.07e-01	0	61	0	106954752	52	6534
2026-01-23 10:35:56.30	100.36	19.56	-40.5	-45.3	17.2	6.05e-01	0	62	0	109051904	50	7061
2026-01-23 10:35:57.32	100.14	19.66	-41.1	-45.6	17.0	6.07e-01	0	61	0	111149056	50	7290
2026-01-23 10:35:58.33	99.92	19.76	-40.3	-45.2	17.7	6.05e-01	0	62	0	112721920	52	6215
2026-01-23 10:35:59.34	99.70	19.85	-39.7	-45.3	17.1	6.08e-01	0	62	0	114819072	51	6658
2026-01-23 10:36:00.35	99.48	19.95	-39.8	-45.1	17.7	6.05e-01	0	61	0	116391936	52	6174
2026-01-23 10:36:01.36	99.26	20.05	-40.9	-45.2	17.8	6.07e-01	0	62	0	118489088	53	5915
2026-01-23 10:36:02.37	99.03	20.15	-41.7	-45.2	18.2	6.06e-01	0	62	0	120586240	54	5587
2026-01-23 10:36:03.37	98.81	20.25	-41.9	-45.2	18.2	6.08e-01	0	61	0	122159104	54	5575
2026-01-23 10:36:04.38	98.58	20.35	-41.9	-45.3	18.2	6.06e-01	0	61	0	124256256	54	5594
2026-01-23 10:36:05.39	98.35	20.44	-41.4	-45.3	18.0	6.08e-01	0	62	0	125829120	54	5608
2026-01-23 10:36:06.40	98.12	20.54	-41.9	-45.3	18.0	6.05e-01	0	62	0	127926272	54	5641
2026-01-23 10:36:07.41	97.89	20.64	-41.7	-45.4	18.1	6.06e-01	0	62	0	130023424	54	5686
2026-01-23 10:36:08.42	97.66	20.74	-42.0	-45.5	18.0	6.05e-01	0	62	0	131596288	54	5731
2026-01-23 10:36:09.43	97.42	20.84	-41.9	-45.4	17.9	6.08e-01	0	62	0	133693440	54	5704
2026-01-23 10:36:10.44	97.18	20.93	-42.1	-45.4	18.0	6.08e-01	0	62	0	135266304	54	5703
2026-01-23 10:36:11.45	96.95	21.03	-42.1	-45.6	17.8	6.05e-01	0	62	0	137363456	54	5803
2026-01-23 10:36:12.46	96.71	21.13	-42.1	-45.6	16.9	6.06e-01	0	62	0	139460608	54	5837
2026-01-23 10:36:13.46	96.47	21.23	-42.0	-45.6	17.7	6.07e-01	0	61	0	141033472	54	5814
2026-01-23 10:36:14.47	96.22	21.32	-41.8	-45.6	16.8	6.06e-01	0	62	0	143130624	54	5815
2026-01-23 10:36:15.48	95.98	21.42	-42.1	-45.5	17.7	6.04e-01	0	61	0	144703488	54	5763
2026-01-23 10:36:16.49	95.73	21.52	-42.1	-45.4	17.8	6.06e-01	0	62	0	146800640	54	5701
2026-01-23 10:36:17.50	95.48	21.62	-42.0	-45.4	17.9	6.06e-01	0	62	0	148897792	54	5702
2026-01-23 10:36:18.51	95.23	21.71	-42.1	-45.5	17.9	6.07e-01	0	62	0	150470656	54	5732
2026-01-23 10:36:19.52	94.98	21.81	-42.2	-45.6	17.9	6.06e-01	0	62	0	152567808	54	5807
2026-01-23 10:36:20.53	94.73	21.91	-42.1	-45.6	17.8	6.07e-01	0	62	0	154664960	54	5835
2026-01-23 10:36:21.54	94.47	22.00	-42.2	-45.6	17.8	6.06e-01	0	62	0	156237824	54	5853
2026-01-23 10:36:22.55	94.21	22.10	-42.1	-45.4	18.1	6.07e-01	0	61	0	158334976	54	5687
2026-01-23 10:36:23.56	93.96	22.20	-42.0	-45.4	18.0	6.06e-01	0	62	0	159907840	54	5686
2026-01-23 10:36:24.57	93.70	22.29	-42.1	-45.5	17.9	6.08e-01	0	62	0	162004992	54	5770
2026-01-23 10:36:25.58	93.43	22.39	-42.1	-45.6	17.9	6.06e-01	0	62	0	164102144	54	5806
2026-01-23 10:36:26.59	93.17	22.48	-42.2	-45.8	17.5	6.06e-01	0	62	0	165675008	55	5607
2026-01-23 10:36:27.60	92.91	22.58	-42.1	-45.6	17.8	6.07e-01	0	62	0	167772160	55	5472
2026-01-23 10:36:28.61	92.64	22.67	-42.1	-45.5	17.9	6.08e-01	0	61	0	169345024	55	5421
2026-01-23 10:36:29.62	92.37	22.77	-42.2	-45.6	17.4	6.06e-01	0	62	0	171442176	55	5525
2026-01-23 10:36:30.62	92.10	22.86	-42.1	-45.6	17.8	6.05e-01	0	62	0	173539328	55	5482
2026-01-23 10:36:31.64	91.83	22.96	-42.1	-45.5	17.6	6.06e-01	0	62	0	175112192	55	5459
2026-01-23 10:36:32.65	91.55	23.05	-42.1	-45.5	17.9	6.06e-01	0	62	0	177209344	55	5423
2026-01-23 10:36:33.66	91.28	23.14	-42.1	-45.5	17.9	6.04e-01	0	62	0	179306496	55	5463
2026-01-23 10:36:34.67	91.00	23.24	-42.1	-45.5	17.9	6.04e-01	0	62	0	180879360	55	5436
2026-01-23 10:36:35.67	90.72	23.33	-42.0	-45.4	18.0	6.05e-01	0	62	0	182976512	55	5355
2026-01-23 10:36:36.69	90.44	23.42	-42.1	-45.5	18.0	6.04e-01	0	62	0	184549376	55	5421
2026-01-23 10:36:37.70	90.16	23.51	-42.1	-45.5	18.0	6.07e-01	0	62	0	186646528	55	5421
2026-01-23 10:36:38.71	89.87	23.61	-42.1	-45.5	17.9	6.07e-01	0	62	0	188743680	55	5454
2026-01-23 10:36:39.72	89.59	23.70	-42.2	-45.6	17.7	6.04e-01	0	62	0	190316544	55	5510
2026-01-23 10:36:40.73	89.30	23.79	-42.2	-45.6	17.8	6.04e-01	0	62	0	192413696	55	5519
2026-01-23 10:36:41.74	89.01	23.88	-42.2	-45.6	17.9	6.07e-01	0	62	0	193986560	55	5488
2026-01-23 10:36:42.75	88.72	23.97	-42.2	-45.6	17.8	6.07e-01	0	62	0	196083712	55	5512
2026-01-23 10:36:43.76	88.43	24.06	-42.2	-45.6	17.8	6.05e-01	0	62	0	198180864	55	5519
2026-01-23 10:36:44.77	88.13	24.15	-42.1	-45.4	18.0	6.05e-01	0	62	0	199753728	55	5394
2026-01-23 10:36:45.78	87.84	24.24	-42.1	-45.4	18.0	6.07e-01	0	62	0	201850880	55	5376
2026-01-23 10:36:46.79	87.54	24.33	-42.1	-45.5	18.0	6.06e-01	0	62	0	203423744	55	5404
2026-01-23 10:36:47.80	87.24	24.41	-42.1	-45.5	17.9	6.06e-01	0	62	0	205520896	55	5458
2026-01-23 10:36:48.81	86.94	24.50	-42.2	-45.6	17.9	6.03e-01	0	62	0	207618048	55	5526
2026-01-23 10:36:49.81	86.63	24.59	-42.2	-45.6	17.9	6.06e-01	0	62	0	209190912	55	5518
2026-01-23 10:36:50.82	86.33	24.67	-42.2	-45.5	18.0	6.05e-01	0	62	0	211288064	55	5464
2026-01-23 10:36:51.84	86.02	24.76	-42.1	-45.5	18.0	6.07e-01	0	62	0	212860928	55	5441
2026-01-23 10:36:52.85	85.71	24.84	-42.2	-45.6	18.0	6.08e-01	0	62	0	214958080	55	5484
2026-01-23 10:36:53.86	85.40	24.93	-42.2	-45.7	17.9	6.05e-01	0	62	0	217055232	55	5529
2026-01-23 10:36:54.87	85.09	25.01	-42.2	-45.5	18.0	6.07e-01	0	62	0	218628096	55	5452
2026-01-23 10:36:55.88	84.77	25.10	-42.2	-45.5	18.0	6.06e-01	0	62	0	220725248	55	5452
2026-01-23 10:36:56.89	84.46	25.18	-42.1	-45.4	18.2	6.05e-01	0	62	0	222822400	55	5362
2026-01-23 10:36:57.90	84.14	25.26	-42.0	-45.3	18.3	6.06e-01	0	62	0	224395264	55	5292
2026-01-23 10:36:58.91	83.82	25.34	-42.1	-45.4	18.2	6.06e-01	0	62	0	226492416	55	5355
2026-01-23 10:36:59.92	83.50	25.42	-42.1	-45.4	18.1	6.03e-01	0	62	0	228065280	55	5382
2026-01-23 10:37:00.93	83.18	25.50	-42.1	-45.4	18.2	6.06e-01	0	62	0	230162432	55	5353
2026-01-23 10:37:01.94	82.85	25.58	-42.1	-45.4	18.2	6.06e-01	0	62	0	232259584	55	5347
2026-01-23 10:37:02.95	82.53	25.66	-42.1	-45.4	18.2	6.06e-01	0	62	0	233832448	55	5378
2026-01-23 10:37:03.96	82.20	25.74	-42.1	-45.3	18.2	6.06e-01	0	62	0	235929600	55	5332
2026-01-23 10:37:04.97	81.87	25.82	-41.9	-45.1	18.4	6.06e-01	0	62	0	237502464	55	5176
2026-01-23 10:37:05.98	81.54	25.89	-42.0	-45.3	18.3	6.07e-01	0	62	0	239599616	55	5290
2026-01-23 10:37:06.99	81.21	25.97	-42.1	-45.3	18.3	6.07e-01	0	62	0	241696768	55	5318
2026-01-23 10:37:08.00	80.87	26.04	-42.1	-45.4	18.2	6.06e-01	0	62	0	243269632	55	5355
2026-01-23 10:37:09.01	80.54	26.12	-42.1	-45.4	18.2	6.04e-01	0	62	0	245366784	55	5389
2026-01-23 10:37:10.01	80.20	26.19	-42.1	-45.4	18.2	6.08e-01	0	62	0	247463936	55	5377
2026-01-23 10:37:11.02	79.86	26.26	-42.1	-45.4	18.2	6.07e-01	0	62	0	249036800	55	5378
2026-01-23 10:37:12.03	79.52	26.33	-42.2	-45.5	18.1	6.07e-01	0	62	0	251133952	55	5445
2026-01-23 10:37:13.04	79.18	26.40	-42.2	-45.5	18.1	6.05e-01	0	62	0	252706816	55	5450
2026-01-23 10:37:14.05	78.84	26.47	-42.2	-45.5	18.1	6.06e-01	0	62	0	254803968	55	5461
2026-01-23 10:37:15.06	78.49	26.54	-42.0	-45.3	18.3	6.06e-01	0	62	0	256901120	55	5287
2026-01-23 10:37:16.07	78.14	26.61	-42.0	-45.3	18.4	6.06e-01	0	62	0	258473984	55	5298
2026-01-23 10:37:17.08	77.80	26.68	-42.1	-45.4	18.3	6.04e-01	0	62	0	260571136	55	5356
2026-01-23 10:37:18.09	77.45	26.74	-41.9	-45.1	18.5	6.07e-01	0	62	0	262144000	55	5198
2026-01-23 10:37:19.10	77.09	26.81	-41.9	-45.1	18.6	6.07e-01	0	62	0	264241152	55	5161
2026-01-23 10:37:20.11	76.74	26.87	-42.0	-45.1	18.5	6.05e-01	0	62	0	266338304	55	5214
2026-01-23 10:37:21.12	76.39	26.93	-42.0	-45.1	18.6	6.07e-01	0	62	0	267911168	55	5204
2026-01-23 10:37:22.12	76.03	27.00	-41.9	-45.1	18.6	6.07e-01	0	62	0	270008320	55	5167
2026-01-23 10:37:23.14	75.67	27.06	-42.0	-45.2	18.5	6.06e-01	0	62	0	271581184	55	5224
2026-01-23 10:37:24.14	75.32	27.12	-41.9	-45.1	18.6	6.05e-01	0	62	0	273678336	55	5175
2026-01-23 10:37:25.15	74.96	27.17	-42.0	-45.1	18.6	6.06e-01	0	62	0	275775488	55	5207
2026-01-23 10:37:26.16	74.60	27.23	-42.0	-45.2	18.6	6.05e-01	0	62	0	277348352	55	5225
2026-01-23 10:37:27.17	74.23	27.29	-41.9	-45.0	18.7	6.04e-01	0	62	0	279445504	55	5154
2026-01-23 10:37:28.18	73.87	27.34	-41.9	-45.0	18.7	6.05e-01	0	62	0	281018368	55	5134
2026-01-23 10:37:29.19	73.50	27.40	-41.9	-44.9	18.8	6.07e-01	0	62	0	283115520	55	5100
2026-01-23 10:37:30.20	73.14	27.45	-41.8	-44.9	18.9	6.07e-01	0	62	0	285212672	55	5061
2026-01-23 10:37:31.21	72.77	27.50	-42.0	-45.1	18.6	6.06e-01	0	62	0	286785536	55	5184
2026-01-23 10:37:32.22	72.40	27.56	-42.0	-45.2	18.6	6.05e-01	0	62	0	288882688	55	5235
2026-01-23 10:37:33.23	72.03	27.60	-41.8	-44.8	18.9	6.07e-01	0	62	0	290979840	55	5031
2026-01-23 10:37:34.24	71.66	27.65	-41.8	-44.9	18.8	6.04e-01	0	62	0	292552704	55	5050
2026-01-23 10:37:35.25	71.29	27.70	-41.9	-45.0	18.7	6.08e-01	0	62	0	294649856	55	5155
2026-01-23 10:37:36.26	70.91	27.75	-42.0	-45.2	18.6	6.06e-01	0	62	0	296222720	55	5259
2026-01-23 10:37:37.27	70.54	27.79	-42.0	-45.1	18.6	6.05e-01	0	62	0	298319872	55	5218
2026-01-23 10:37:38.28	70.16	27.84	-41.9	-44.9	18.8	6.07e-01	0	62	0	300417024	55	5077
2026-01-23 10:37:39.29	69.78	27.88	-42.0	-45.1	18.7	6.04e-01	0	62	0	301989888	55	5177
2026-01-23 10:37:40.30	69.41	27.92	-42.0	-45.1	18.7	6.06e-01	0	62	0	304087040	55	5176
2026-01-23 10:37:41.31	69.03	27.96	-41.9	-44.9	18.8	6.07e-01	0	62	0	305659904	55	5090
2026-01-23 10:37:42.32	68.65	28.00	-42.0	-45.1	18.7	6.06e-01	0	62	0	307757056	55	5167
2026-01-23 10:37:43.33	68.27	28.03	-42.0	-45.1	18.7	6.06e-01	0	62	0	309854208	55	5177
2026-01-23 10:37:44.34	67.88	28.07	-42.0	-45.0	18.7	6.06e-01	0	62	0	311427072	55	5156
2026-01-23 10:37:45.35	67.50	28.10	-42.0	-45.1	18.7	6.05e-01	0	62	0	313524224	55	5214
2026-01-23 10:37:46.36	67.12	28.14	-41.9	-45.0	18.8	6.06e-01	0	62	0	315621376	55	5119
2026-01-23 10:37:47.37	66.73	28.17	-42.0	-45.1	18.6	6.04e-01	0	62	0	317194240	55	5199
2026-01-23 10:37:48.38	66.35	28.20	-42.0	-45.1	18.7	6.09e-01	0	62	0	319291392	55	5199
2026-01-23 10:37:49.39	65.96	28.23	-42.0	-45.1	18.7	6.06e-01	0	62	0	320864256	55	5171
2026-01-23 10:37:50.40	65.58	28.26	-41.9	-45.0	18.8	6.05e-01	0	62	0	322961408	55	5108
2026-01-23 10:37:51.41	65.19	28.28	-41.9	-44.9	18.9	6.04e-01	0	62	0	325058560	55	5088
2026-01-23 10:37:52.42	64.80	28.31	-41.9	-44.9	18.9	6.07e-01	0	62	0	326631424	55	5088
2026-01-23 10:37:53.43	64.41	28.33	-41.9	-45.0	18.8	6.07e-01	0	62	0	328728576	55	5109
2026-01-23 10:37:54.44	64.02	28.35	-42.0	-45.0	18.8	6.06e-01	0	62	0	330301440	55	5147
2026-01-23 10:37:55.45	63.64	28.38	-42.0	-45.1	18.7	6.05e-01	0	62	0	332398592	55	5209
2026-01-23 10:37:56.45	63.25	28.39	-41.9	-45.0	18.8	6.06e-01	0	62	0	333971456	55	5114
2026-01-23 10:37:57.46	62.86	28.41	-41.9	-45.0	18.8	6.06e-01	0	62	0	336068608	55	5109
2026-01-23 10:37:58.47	62.47	28.43	-42.0	-45.0	18.8	6.06e-01	0	62	0	338165760	55	5155
2026-01-23 10:37:59.48	62.08	28.44	-42.0	-45.1	18.7	6.05e-01	0	62	0	339738624	55	5206
2026-01-23 10:38:00.49	61.68	28.46	-42.0	-45.0	18.8	6.04e-01	0	62	0	341835776	55	5146
2026-01-23 10:38:01.50	61.29	28.47	-42.0	-45.1	18.8	6.06e-01	0	62	0	343932928	55	5167
2026-01-23 10:38:02.51	60.90	28.48	-42.0	-45.1	18.7	6.06e-01	0	62	0	345505792	55	5184
2026-01-23 10:38:03.52	60.51	28.49	-42.0	-45.1	18.7	6.05e-01	0	62	0	347602944	55	5182
2026-01-23 10:38:04.53	60.12	28.50	-42.0	-45.1	18.7	6.04e-01	0	62	0	349175808	55	5218
2026-01-23 10:38:05.54	59.72	28.50	-42.0	-45.1	18.7	6.04e-01	0	62	0	351272960	55	5204
2026-01-23 10:38:06.55	59.33	28.51	-42.1	-45.2	18.7	6.08e-01	0	62	0	353370112	55	5235
2026-01-23 10:38:07.55	58.94	28.51	-41.9	-45.0	18.8	6.06e-01	0	62	0	354942976	55	5122
2026-01-23 10:38:08.56	58.55	28.52	-41.9	-45.0	18.8	6.07e-01	0	62	0	357040128	55	5129
2026-01-23 10:38:09.57	58.15	28.52	-42.0	-45.1	18.8	6.08e-01	0	62	0	359137280	55	5172
2026-01-23 10:38:10.58	57.76	28.52	-42.0	-45.1	18.8	6.06e-01	0	62	0	360710144	55	5179
2026-01-23 10:38:11.59	57.37	28.51	-42.0	-45.1	18.8	6.05e-01	0	62	0	362807296	55	5185
2026-01-23 10:38:12.60	56.97	28.51	-42.1	-45.3	18.6	6.03e-01	0	62	0	364380160	55	5286
2026-01-23 10:38:13.61	56.58	28.50	-42.0	-45.0	18.8	6.08e-01	0	62	0	366477312	55	5141
2026-01-23 10:38:14.62	56.19	28.50	-42.0	-45.0	18.8	6.07e-01	0	62	0	368574464	55	5133
2026-01-23 10:38:15.63	55.80	28.49	-42.0	-45.1	18.7	6.06e-01	0	62	0	370147328	55	5216
2026-01-23 10:38:16.64	55.40	28.48	-42.1	-45.2	18.7	6.06e-01	0	62	0	372244480	55	5236
2026-01-23 10:38:17.65	55.01	28.47	-42.0	-45.1	18.7	6.07e-01	0	62	0	373817344	55	5209
2026-01-23 10:38:18.66	54.62	28.46	-42.1	-45.2	18.7	6.06e-01	0	62	0	375914496	55	5231
2026-01-23 10:38:19.67	54.23	28.44	-42.1	-45.2	18.7	6.06e-01	0	62	0	378011648	55	5255
2026-01-23 10:38:20.67	53.84	28.43	-42.1	-45.2	18.6	6.08e-01	0	62	0	379584512	55	5265
2026-01-23 10:38:21.68	53.45	28.41	-42.1	-45.3	18.6	6.06e-01	0	62	0	381681664	55	5293
2026-01-23 10:38:22.69	53.06	28.39	-42.0	-45.1	18.7	6.06e-01	0	62	0	383254528	55	5195
2026-01-23 10:38:23.70	52.67	28.37	-42.1	-45.2	18.7	6.04e-01	0	62	0	385351680	55	5242
2026-01-23 10:38:24.71	52.28	28.35	-42.1	-45.3	18.6	6.06e-01	0	62	0	387448832	55	5281
2026-01-23 10:38:25.72	51.89	28.33	-42.2	-45.3	18.6	6.08e-01	0	62	0	389021696	55	5319
2026-01-23 10:38:26.73	51.51	28.31	-42.2	-45.4	18.4	6.03e-01	0	62	0	391118848	55	5394
2026-01-23 10:38:27.74	51.12	28.28	-42.1	-45.3	18.6	6.04e-01	0	62	0	392691712	55	5311
2026-01-23 10:38:28.75	50.73	28.26	-42.2	-45.3	18.5	6.04e-01	0	62	0	394788864	55	5332
2026-01-23 10:38:29.76	50.35	28.23	-42.1	-45.2	18.7	6.06e-01	0	62	0	396886016	55	5251
2026-01-23 10:38:30.77	49.96	28.20	-42.1	-45.2	18.7	6.06e-01	0	62	0	398458880	55	5254
2026-01-23 10:38:31.78	49.58	28.17	-42.3	-45.5	18.3	6.06e-01	0	62	0	400556032	55	5451
2026-01-23 10:38:32.79	49.19	28.14	-42.3	-45.5	18.4	6.04e-01	0	62	0	402128896	55	5420
2026-01-23 10:38:33.80	48.81	28.10	-42.4	-55.0	3.8	7.43e-01	0	62	104	403177472	55	16245
2026-01-23 10:38:34.81	48.43	28.07	-42.3	-54.9	3.8	7.44e-01	0	62	104	403177472	55	15993
2026-01-23 10:38:35.82	48.05	28.03	-42.4	-55.0	3.9	7.39e-01	0	62	104	403177472	55	16249
2026-01-23 10:38:36.83	47.67	28.00	-44.5	-58.6	3.8	7.43e-01	0	62	104	403177472	59	19556
2026-01-23 10:38:37.83	47.29	27.96	-44.4	-58.6	3.7	7.43e-01	0	62	104	403177472	59	19593
2026-01-23 10:38:38.84	46.91	27.92	-44.9	-59.9	3.9	7.45e-01	0	62	104	403177472	60	21384
2026-01-23 10:38:39.85	46.53	27.88	-45.1	-60.7	3.8	7.48e-01	0	62	104	403177472	60	23384
2026-01-23 10:38:40.86	46.16	27.83	-42.7	-55.5	3.8	7.42e-01	0	62	104	403177472	57	15384
2026-01-23 10:38:41.87	45.78	27.79	-42.6	-55.3	3.9	7.42e-01	0	62	104	403177472	57	14881
2026-01-23 10:38:42.88	45.41	27.75	-42.5	-55.3	3.8	7.44e-01	0	62	104	403177472	57	14921
2026-01-23 10:38:43.89	45.04	27.70	-44.7	-59.4	3.7	7.45e-01	0	62	104	403177472	60	20182
2026-01-23 10:38:44.90	44.66	27.65	-44.6	-58.8	3.8	7.49e-01	0	62	104	403177472	59	20053
2026-01-23 10:38:45.91	44.29	27.60	-44.5	-59.4	3.7	7.43e-01	0	62	104	403177472	60	20271
2026-01-23 10:38:46.92	43.92	27.55	-45.0	-60.3	3.9	7.45e-01	0	62	104	403177472	60	22386
2026-01-23 10:38:47.93	43.56	27.50	-45.6	-62.3	3.8	7.47e-01	0	62	104	403177472	61	26719
2026-01-23 10:38:48.94	43.19	27.45	-42.7	-55.3	4.2	7.30e-01	0	62	104	403177472	57	15037
2026-01-23 10:38:49.95	42.82	27.40	-42.6	-55.4	3.9	7.50e-01	0	62	104	403177472	57	15171
2026-01-23 10:38:50.96	42.46	27.34	-42.6	-55.2	3.8	7.45e-01	0	62	104	403177472	57	14795
2026-01-23 10:38:51.97	42.09	27.29	-45.4	-61.9	3.8	7.46e-01	0	62	104	403177472	61	25379
2026-01-23 10:38:52.98	41.73	27.23	-45.2	-61.0	3.8	7.46e-01	0	62	104	403177472	61	22978
2026-01-23 10:38:53.99	41.37	27.17	-45.6	-62.5	3.8	7.44e-01	0	62	104	403177472	61	27154
2026-01-23 10:38:55.00	41.01	27.12	-44.7	-59.7	3.8	7.46e-01	0	62	104	403177472	60	20978
2026-01-23 10:38:56.01	40.66	27.06	-44.8	-59.6	3.8	7.47e-01	0	62	104	403177472	60	20637
2026-01-23 10:38:57.02	40.30	27.00	-42.7	-55.5	3.8	7.45e-01	0	62	104	403177472	57	15336
2026-01-23 10:38:58.03	39.94	26.93	-42.7	-55.4	3.8	7.44e-01	0	62	104	403177472	57	15198
2026-01-23 10:38:59.04	39.59	26.87	-42.6	-55.2	3.8	7.42e-01	0	62	104	403177472	57	14816
2026-01-23 10:39:00.05	39.24	26.81	-43.5	-57.1	3.8	7.45e-01	0	62	104	403177472	57	18415
2026-01-23 10:39:01.06	38.89	26.74	-45.0	-60.5	3.8	7.43e-01	0	62	104	403177472	60	22892
2026-01-23 10:39:02.07	38.54	26.68	-44.6	-59.7	3.8	7.45e-01	0	62	104	403177472	60	20918
2026-01-23 10:39:03.07	38.20	26.61	-44.9	-60.1	3.8	7.44e-01	0	62	104	403177472	60	21886
2026-01-23 10:39:04.08	37.85	26.54	-45.7	-63.2	3.8	7.46e-01	0	62	104	403177472	61	29413
2026-01-23 10:39:05.09	37.51	26.47	-42.7	-55.4	3.8	7.44e-01	0	62	104	403177472	57	15197
2026-01-23 10:39:06.10	37.16	26.41	-42.7	-55.6	3.8	7.43e-01	0	62	104	403177472	57	15455
2026-01-23 10:39:07.11	36.82	26.34	-42.7	-55.6	3.8	7.44e-01	0	62	104	403177472	57	15520
2026-01-23 10:39:08.12	36.48	26.26	-44.4	-59.1	3.8	7.42e-01	0	62	104	403177472	60	19451
2026-01-23 10:39:09.13	36.14	26.19	-44.7	-59.6	3.8	7.44e-01	0	62	104	403177472	60	20764
2026-01-23 10:39:10.14	35.81	26.12	-44.5	-59.3	3.8	7.42e-01	0	62	104	403177472	60	19916
2026-01-23 10:39:11.15	35.47	26.05	-44.4	-59.2	3.8	7.43e-01	0	62	104	403177472	60	19731
2026-01-23 10:39:12.16	35.14	25.97	-45.8	-63.1	3.8	7.43e-01	0	62	104	403177472	62	27395
2026-01-23 10:39:13.17	34.81	25.90	-42.9	-55.8	3.8	7.47e-01	0	62	104	403177472	57	15829
2026-01-23 10:39:14.18	34.48	25.82	-42.9	-55.9	3.8	7.48e-01	0	62	104	403177472	57	15983
2026-01-23 10:39:15.19	34.15	25.74	-42.8	-55.7	3.8	7.46e-01	0	62	104	403177472	57	15604
2026-01-23 10:39:16.20	33.82	25.66	-43.9	-57.4	3.8	7.46e-01	0	62	104	403177472	59	16985
2026-01-23 10:39:17.21	33.50	25.59	-44.3	-58.7	3.9	7.43e-01	0	62	104	403177472	60	18524
2026-01-23 10:39:18.22	33.18	25.51	-44.3	-59.2	3.8	7.46e-01	0	62	104	403177472	60	19714
2026-01-23 10:39:19.23	32.86	25.43	-43.9	-58.0	3.8	7.41e-01	0	62	104	403177472	60	17148
2026-01-23 10:39:20.23	32.54	25.35	-45.6	-63.0	3.8	7.44e-01	0	62	104	403177472	62	27109
2026-01-23 10:39:21.24	32.22	25.27	-42.8	-55.6	3.8	7.44e-01	0	62	104	403177472	57	15564
2026-01-23 10:39:22.25	31.90	25.19	-42.6	-55.4	3.8	7.45e-01	0	62	104	403177472	57	15062
2026-01-23 10:39:23.26	31.59	25.10	-42.6	-55.4	3.8	7.43e-01	0	62	104	403177472	57	15097
2026-01-23 10:39:24.27	31.28	25.02	-44.1	-58.6	3.9	7.43e-01	0	62	104	403177472	60	18308
2026-01-23 10:39:25.28	30.97	24.94	-43.7	-57.3	3.8	7.43e-01	0	62	104	403177472	59	16780
2026-01-23 10:39:26.29	30.66	24.85	-45.4	-62.3	3.8	7.45e-01	0	62	104	403177472	61	26676
2026-01-23 10:39:27.30	30.35	24.77	-43.8	-57.7	3.7	7.44e-01	0	62	104	403177472	59	17510
2026-01-23 10:39:28.31	30.04	24.68	-44.4	-58.9	3.9	7.41e-01	0	62	104	403177472	60	19066
2026-01-23 10:39:29.32	29.74	24.60	-42.8	-55.7	3.8	7.39e-01	0	62	104	403177472	57	15654
2026-01-23 10:39:30.33	29.44	24.51	-42.8	-55.7	3.8	7.44e-01	0	62	104	403177472	57	15663
2026-01-23 10:39:31.34	29.14	24.42	-42.6	-55.4	3.8	7.42e-01	0	62	104	403177472	57	15174
2026-01-23 10:39:32.35	28.84	24.34	-42.8	-55.7	3.9	7.43e-01	0	62	104	403177472	57	15628
2026-01-23 10:39:33.36	28.54	24.25	-43.6	-57.1	3.8	7.43e-01	0	62	104	403177472	59	16363
2026-01-23 10:39:34.37	28.25	24.16	-44.1	-58.3	3.9	7.49e-01	0	62	104	403177472	59	18948
2026-01-23 10:39:35.38	27.95	24.07	-42.9	-55.8	3.8	7.42e-01	0	62	104	403177472	57	15863
2026-01-23 10:39:36.39	27.66	23.98	-45.4	-62.2	3.8	7.43e-01	0	62	104	403177472	61	26422
2026-01-23 10:39:37.40	27.37	23.89	-42.8	-55.7	3.8	7.45e-01	0	62	104	403177472	57	15606
2026-01-23 10:39:38.40	27.09	23.80	-42.7	-55.6	3.8	7.47e-01	0	62	104	403177472	57	15504
2026-01-23 10:39:39.41	26.80	23.71	-42.9	-55.9	3.8	7.48e-01	0	62	104	403177472	57	15944
2026-01-23 10:39:40.42	26.52	23.62	-44.8	-60.0	3.8	7.43e-01	0	62	104	403177472	60	21549
2026-01-23 10:39:41.43	26.23	23.53	-42.7	-55.4	3.9	7.42e-01	0	62	104	403177472	57	15079
2026-01-23 10:39:42.44	25.95	23.44	-45.0	-61.1	3.9	7.42e-01	0	62	104	403177472	61	23074
2026-01-23 10:39:43.45	25.67	23.34	-43.5	-57.3	3.9	7.44e-01	0	62	104	403177472	59	16793
2026-01-23 10:39:44.46	25.39	23.25	-44.1	-58.0	3.9	7.45e-01	0	62	104	403177472	59	18176
2026-01-23 10:39:45.47	25.12	23.16	-43.0	-56.0	3.8	7.44e-01	0	62	104	403177472	57	16166
2026-01-23 10:39:46.48	24.84	23.07	-42.8	-55.7	3.8	7.45e-01	0	62	104	403177472	57	15707
2026-01-23 10:39:47.49	24.57	22.97	-42.8	-55.8	3.8	7.46e-01	0	62	104	403177472	57	15906
2026-01-23 10:39:48.50	24.30	22.88	-42.8	-55.8	3.8	7.43e-01	0	62	104	403177472	57	15783
2026-01-23 10:39:49.51	24.03	22.79	-42.9	-55.9	3.9	7.45e-01	0	62	104	403177472	57	16057
2026-01-23 10:39:50.52	23.76	22.69	-43.6	-57.3	3.8	7.46e-01	0	62	104	403177472	59	16704
2026-01-23 10:39:51.53	23.50	22.60	-43.0	-55.9	3.8	7.48e-01	0	62	104	403177472	57	15987
2026-01-23 10:39:52.54	23.24	22.50	-44.5	-59.6	3.9	7.43e-01	0	62	104	403177472	61	19411
2026-01-23 10:39:53.55	22.97	22.41	-42.8	-55.8	3.8	7.42e-01	0	62	104	403177472	57	15849
2026-01-23 10:39:54.56	22.71	22.31	-42.8	-55.7	3.8	7.45e-01	0	62	104	403177472	57	15614
2026-01-23 10:39:55.57	22.45	22.22	-43.1	-56.3	3.8	7.45e-01	0	62	104	403177472	57	16738
2026-01-23 10:39:56.58	22.20	22.12	-44.6	-59.2	3.8	7.47e-01	0	62	104	403177472	59	20926
2026-01-23 10:39:57.59	21.94	22.02	-43.4	-56.7	3.8	7.47e-01	0	62	104	403177472	57	17632
2026-01-23 10:39:58.60	21.69	21.93	-44.5	-59.6	3.8	7.46e-01	0	62	104	403177472	61	19472
2026-01-23 10:39:59.61	21.44	21.83	-42.9	-55.8	3.8	7.43e-01	0	62	104	403177472	57	15939
2026-01-23 10:40:00.62	21.18	21.74	-43.2	-56.6	3.9	7.46e-01	0	62	104	403177472	58	16435
2026-01-23 10:40:01.63	20.94	21.64	-42.8	-55.8	3.8	7.42e-01	0	62	104	403177472	57	15931
2026-01-23 10:40:02.64	20.69	21.54	-42.6	-55.5	3.8	7.45e-01	0	62	104	403177472	57	15234
2026-01-23 10:40:03.64	20.45	21.45	-42.7	-55.6	3.8	7.44e-01	0	62	104	403177472	56	16466
2026-01-23 10:40:04.65	20.20	21.35	-43.5	-56.9	3.8	7.45e-01	0	62	104	403177472	57	17940
2026-01-23 10:40:05.66	19.96	21.25	-43.6	-57.4	3.8	7.43e-01	0	62	104	403177472	57	18981
2026-01-23 10:40:06.67	19.72	21.16	-43.6	-57.1	3.8	7.42e-01	0	62	104	403177472	58	17467
2026-01-23 10:40:07.68	19.48	21.06	-44.7	-59.5	3.8	7.46e-01	0	62	104	403177472	59	21584
2026-01-23 10:40:08.69	19.24	20.96	-43.8	-57.7	3.8	7.43e-01	0	62	104	403177472	59	17613
2026-01-23 10:40:09.70	19.01	20.86	-42.6	-55.4	3.8	7.43e-01	0	62	104	403177472	57	15160
2026-01-23 10:40:10.71	18.77	20.77	-42.4	-55.2	3.8	7.46e-01	0	62	104	403177472	56	15670
2026-01-23 10:40:11.72	18.54	20.67	-44.0	-57.9	3.8	7.43e-01	0	62	104	403177472	58	18956
2026-01-23 10:40:12.73	18.31	20.57	-44.1	-58.6	3.8	7.47e-01	0	62	104	403177472	60	18363
2026-01-23 10:40:13.74	18.08	20.47	-44.7	-60.1	3.7	7.43e-01	0	62	104	403177472	60	21979
2026-01-23 10:40:14.75	17.85	20.37	-44.3	-59.4	3.8	7.46e-01	0	62	104	403177472	60	20127
2026-01-23 10:40:15.77	17.62	20.28	-43.7	-57.3	3.8	7.45e-01	0	62	104	403177472	57	18748
2026-01-23 10:40:16.78	17.40	20.18	-43.0	-56.0	3.8	7.47e-01	0	62	104	403177472	58	15330
2026-01-23 10:40:17.79	17.17	20.08	-42.7	-55.7	3.8	7.43e-01	0	62	104	403177472	57	15598
2026-01-23 10:40:18.80	16.95	19.98	-42.5	-55.3	3.8	7.49e-01	0	62	104	403177472	56	15935
2026-01-23 10:40:19.81	16.73	19.88	-43.1	-56.6	3.8	7.39e-01	0	62	104	403177472	56	18417
2026-01-23 10:40:20.81	16.52	19.79	-44.4	-58.9	3.8	7.45e-01	0	62	104	403177472	59	20237
2026-01-23 10:40:21.83	16.30	19.69	-44.3	-59.2	3.8	7.46e-01	0	62	104	403177472	59	20883
2026-01-23 10:40:22.84	16.08	19.59	-43.7	-57.3	3.8	7.45e-01	0	62	104	403177472	58	17764
2026-01-23 10:40:23.85	15.87	19.49	-45.3	-62.3	3.7	7.45e-01	0	62	104	403177472	61	26464
2026-01-23 10:40:24.86	15.65	19.40	-42.4	-55.2	3.9	7.46e-01	0	62	104	403177472	56	15675
2026-01-23 10:40:25.87	15.44	19.30	-42.4	-55.1	3.8	7.45e-01	0	62	104	403177472	56	15480
2026-01-23 10:40:26.88	15.23	19.20	-42.4	-55.1	3.8	7.44e-01	0	62	104	403177472	56	15509
2026-01-23 10:40:27.89	15.02	19.10	-45.1	-61.1	3.8	7.49e-01	0	62	104	403177472	60	24529
2026-01-23 10:40:28.90	14.82	19.00	-44.2	-58.2	3.8	7.46e-01	0	62	104	403177472	59	18658
2026-01-23 10:40:29.91	14.61	18.91	-45.4	-62.7	3.8	7.47e-01	0	62	104	403177472	61	27789
2026-01-23 10:40:30.92	14.41	18.81	-44.5	-59.4	3.8	7.49e-01	0	62	104	403177472	59	21354
2026-01-23 10:40:31.92	14.21	18.71	-44.2	-58.3	3.8	7.45e-01	0	62	104	403177472	58	20026
2026-01-23 10:40:32.93	14.00	18.62	-42.4	-55.2	3.9	7.44e-01	0	62	104	403177472	56	15745
2026-01-23 10:40:33.95	13.80	18.52	-42.3	-55.1	3.8	7.45e-01	0	62	104	403177472	56	15408
2026-01-23 10:40:34.96	13.60	18.42	-42.4	-55.1	3.8	7.43e-01	0	62	104	403177472	56	15511
2026-01-23 10:40:35.97	13.41	18.32	-43.7	-58.2	3.8	7.43e-01	0	62	104	403177472	58	19698
2026-01-23 10:40:36.97	13.21	18.23	-44.0	-58.1	3.8	7.45e-01	0	62	104	403177472	58	19525
2026-01-23 10:40:37.99	13.02	18.13	-45.4	-62.8	3.8	7.43e-01	0	62	104	403177472	61	28205
2026-01-23 10:40:38.99	12.82	18.03	-44.5	-59.6	3.8	7.47e-01	0	62	104	403177472	59	21800
2026-01-23 10:40:40.00	12.63	17.94	-44.6	-59.6	3.8	7.43e-01	0	62	104	403177472	60	20611
2026-01-23 10:40:41.01	12.44	17.84	-42.4	-55.1	3.8	7.44e-01	0	62	104	403177472	56	15405
2026-01-23 10:40:42.02	12.25	17.74	-42.3	-55.0	3.8	7.43e-01	0	62	104	403177472	56	15281
2026-01-23 10:40:43.03	12.06	17.65	-42.3	-55.1	3.8	7.43e-01	0	62	104	403177472	56	15418
2026-01-23 10:40:44.04	11.88	17.55	-43.6	-57.7	3.8	7.44e-01	0	62	104	403177472	57	19759
2026-01-23 10:40:45.05	11.69	17.45	-43.9	-57.8	3.8	7.47e-01	0	62	104	403177472	58	18934
2026-01-23 10:40:46.06	11.51	17.36	-45.2	-62.7	3.8	7.44e-01	0	62	104	403177472	61	27892
2026-01-23 10:40:47.07	11.32	17.26	-44.4	-59.6	3.8	7.46e-01	0	62	104	403177472	59	21784
2026-01-23 10:40:48.08	11.14	17.17	-44.5	-59.6	3.8	7.46e-01	0	62	104	403177472	60	20634
2026-01-23 10:40:49.09	10.96	17.07	-42.4	-55.4	3.8	7.41e-01	0	62	104	403177472	56	16079
2026-01-23 10:40:50.10	10.78	16.97	-42.3	-55.2	3.8	7.45e-01	0	62	104	403177472	56	15727
2026-01-23 10:40:51.11	10.60	16.88	-42.2	-55.0	3.8	7.43e-01	0	62	104	403177472	56	15270
2026-01-23 10:40:52.12	10.43	16.78	-43.4	-57.3	3.8	7.43e-01	0	62	104	403177472	57	18808
2026-01-23 10:40:53.12	10.25	16.69	-43.2	-56.8	3.8	7.45e-01	0	62	104	403177472	57	17844
2026-01-23 10:40:54.14	10.08	16.59	-45.1	-62.5	3.8	7.44e-01	0	62	104	403177472	60	28993
2026-01-23 10:40:55.14	9.91	16.50	-44.1	-59.0	3.8	7.43e-01	0	62	104	403177472	59	20387
2026-01-23 10:40:56.15	9.73	16.40	-44.3	-59.3	3.8	7.48e-01	0	62	104	403177472	60	19912
2026-01-23 10:40:57.16	9.56	16.31	-42.4	-55.4	3.8	7.45e-01	0	62	104	403177472	56	15951
2026-01-23 10:40:58.17	9.39	16.22	-42.3	-55.2	3.8	7.44e-01	0	62	104	403177472	56	15593
2026-01-23 10:40:59.18	9.23	16.12	-42.2	-55.0	3.8	7.45e-01	0	62	104	403177472	56	15301
2026-01-23 10:41:00.19	9.06	16.03	-42.8	-56.2	3.8	7.44e-01	0	62	104	403177472	56	17496
2026-01-23 10:41:01.20	8.89	15.93	-43.1	-56.5	3.9	7.45e-01	0	62	104	403177472	57	17154
2026-01-23 10:41:02.21	8.73	15.84	-44.7	-62.1	3.8	7.50e-01	0	62	104	403177472	60	27610
2026-01-23 10:41:03.22	8.56	15.75	-43.6	-58.1	3.8	7.41e-01	0	62	104	403177472	59	18455
2026-01-23 10:41:04.23	8.40	15.65	-44.3	-59.2	3.8	7.44e-01	0	62	104	403177472	59	20902
2026-01-23 10:41:05.24	8.24	15.56	-42.3	-55.4	3.8	7.42e-01	0	62	104	403177472	56	16030
2026-01-23 10:41:06.25	8.08	15.47	-42.3	-55.4	3.8	7.43e-01	0	62	104	403177472	56	16040
2026-01-23 10:41:07.26	7.92	15.37	-41.5	-55.2	3.8	7.45e-01	0	62	104	403177472	55	16576
2026-01-23 10:41:08.27	7.76	15.28	-41.9	-56.1	3.8	7.43e-01	0	62	104	403177472	54	19601
2026-01-23 10:41:09.28	7.60	15.19	-41.7	-55.4	3.9	7.44e-01	0	62	104	403177472	55	16945
2026-01-23 10:41:10.28	7.45	15.10	-43.7	-62.0	3.8	7.47e-01	0	62	104	403177472	58	30537
2026-01-23 10:41:11.30	7.29	15.00	-42.6	-57.5	3.9	7.43e-01	0	62	104	403177472	57	19222
2026-01-23 10:41:12.31	7.14	14.91	-43.1	-58.3	3.9	7.45e-01	0	62	104	403177472	57	21032
2026-01-23 10:41:13.32	6.98	14.82	-41.9	-54.8	3.8	7.42e-01	0	62	104	403177472	55	15802
2026-01-23 10:41:14.33	6.83	14.73	-41.8	-54.8	3.8	7.44e-01	0	62	104	403177472	55	15814
2026-01-23 10:41:15.33	6.68	14.64	-41.8	-54.8	3.8	7.44e-01	0	62	104	403177472	55	15804
2026-01-23 10:41:16.35	6.53	14.54	-42.0	-55.2	3.8	7.44e-01	0	62	104	403177472	55	16662
2026-01-23 10:41:17.35	6.38	14.45	-42.0	-55.2	3.9	7.45e-01	0	62	104	403177472	56	15585
2026-01-23 10:41:18.36	6.23	14.36	-43.8	-61.0	3.9	7.46e-01	0	62	104	403177472	58	27261
2026-01-23 10:41:19.37	6.09	14.27	-42.6	-56.7	3.9	7.44e-01	0	62	104	403177472	57	17579
2026-01-23 10:41:20.38	5.94	14.18	-43.5	-58.0	3.9	7.45e-01	0	62	104	403177472	58	19387
2026-01-23 10:41:21.39	5.79	14.09	-39.2	-55.3	3.8	7.40e-01	0	62	104	403177472	50	22395
2026-01-23 10:41:22.40	5.65	14.00	-39.2	-54.9	3.8	7.44e-01	0	62	104	403177472	50	21407
2026-01-23 10:41:23.41	5.51	13.91	-39.2	-55.0	3.8	7.45e-01	0	62	104	403177472	50	21540
2026-01-23 10:41:24.42	5.36	13.82	-39.5	-56.3	3.8	7.48e-01	0	62	104	403177472	50	25118
2026-01-23 10:41:25.43	5.22	13.73	-39.5	-55.5	3.8	7.47e-01	0	62	104	403177472	50	22935
2026-01-23 10:41:26.44	5.08	13.64	-43.1	-60.7	3.9	7.36e-01	0	62	104	403177472	56	29454
2026-01-23 10:41:27.45	4.94	13.55	-41.4	-54.9	3.9	7.43e-01	0	62	104	403177472	54	17065
2026-01-23 10:41:28.46	4.80	13.47	-42.8	-57.3	3.9	7.45e-01	0	62	104	403177472	57	18939
2026-01-23 10:41:29.47	4.67	13.38	-41.6	-55.4	3.8	7.46e-01	0	62	104	403177472	55	16956
2026-01-23 10:41:30.48	4.53	13.29	-41.7	-55.8	3.8	7.43e-01	0	62	104	403177472	55	17789
2026-01-23 10:41:31.49	4.39	13.20	-41.8	-56.5	3.8	7.46e-01	0	62	104	403177472	55	19214
2026-01-23 10:41:32.50	4.26	13.11	-42.3	-57.9	3.8	7.46e-01	0	62	104	403177472	55	22705
2026-01-23 10:41:33.51	4.12	13.02	-42.5	-59.6	3.8	7.49e-01	0	62	104	403177472	56	25876
2026-01-23 10:41:34.52	3.99	12.94	-42.3	-60.9	3.8	7.46e-01	0	62	104	403177472	56	30249
2026-01-23 10:41:35.53	3.86	12.85	-42.5	-60.1	3.8	7.45e-01	0	62	104	403177472	56	27675
2026-01-23 10:41:36.54	3.73	12.76	-43.2	-61.0	3.8	7.44e-01	0	62	104	403177472	57	28988
2026-01-23 10:41:37.55	3.60	12.67	-42.9	-61.2	3.8	7.43e-01	0	62	104	403177472	57	29545
2026-01-23 10:41:38.56	3.47	12.59	-42.9	-61.3	3.8	7.45e-01	0	62	104	403177472	57	30003
2026-01-23 10:41:39.57	3.34	12.50	-42.5	-61.2	3.8	7.45e-01	0	62	104	403177472	57	29614
2026-01-23 10:41:40.58	3.21	12.41	-42.4	-61.2	3.8	7.45e-01	0	62	104	403177472	56	31253
2026-01-23 10:41:41.59	3.08	12.33	-42.0	-60.9	3.8	7.47e-01	0	62	104	403177472	56	30266
2026-01-23 10:41:42.59	2.96	12.24	-41.8	-60.6	3.8	7.48e-01	0	62	104	403177472	55	31001
2026-01-23 10:41:43.60	2.83	12.16	-41.5	-59.9	3.8	7.46e-01	0	62	104	403177472	54	30374
2026-01-23 10:41:44.61	2.71	12.07	-41.2	-60.1	3.8	7.45e-01	0	62	104	403177472	54	31083
2026-01-23 10:41:45.62	2.58	11.99	-41.2	-60.1	3.8	7.41e-01	0	62	104	403177472	54	30899
2026-01-23 10:41:46.63	2.46	11.90	-41.1	-60.1	3.8	7.40e-01	0	62	104	403177472	54	30836
2026-01-23 10:41:47.64	2.34	11.82	-41.1	-60.0	3.8	7.49e-01	0	62	104	403177472	54	30479
2026-01-23 10:41:48.65	2.21	11.73	-41.1	-60.1	3.8	7.43e-01	0	62	104	403177472	54	30732
2026-01-23 10:41:49.66	2.09	11.65	-41.8	-60.8	3.8	7.43e-01	0	62	104	403177472	54	33329
2026-01-23 10:41:50.67	1.97	11.56	-41.2	-60.1	3.8	7.42e-01	0	62	104	403177472	54	31022
2026-01-23 10:41:51.68	1.85	11.48	-41.2	-60.1	3.8	7.48e-01	0	62	104	403177472	54	30995
2026-01-23 10:41:52.69	1.74	11.39	-41.1	-60.0	3.8	7.45e-01	0	62	104	403177472	54	30605
2026-01-23 10:41:53.70	1.62	11.31	-41.1	-60.0	3.8	7.47e-01	0	62	104	403177472	54	30716
2026-01-23 10:41:54.71	1.50	11.23	-41.1	-60.0	3.8	7.46e-01	0	62	104	403177472	54	30655
2026-01-23 10:41:55.72	1.38	11.14	-41.0	-60.0	3.8	7.44e-01	0	62	104	403177472	54	30511
2026-01-23 10:41:56.73	1.27	11.06	-41.0	-60.0	3.8	7.45e-01	0	62	104	403177472	54	30401
2026-01-23 10:41:57.74	1.15	10.98	-41.4	-60.3	3.8	7.46e-01	0	62	104	403177472	54	31740
2026-01-23 10:41:58.75	1.04	10.89	-41.2	-60.1	3.8	7.46e-01	0	62	104	403177472	54	30983
2026-01-23 10:41:59.76	0.93	10.81	-41.2	-60.2	3.8	7.43e-01	0	62	104	403177472	54	31160
2026-01-23 10:42:00.77	0.81	10.73	-41.4	-60.3	3.8	7.43e-01	0	62	104	403177472	54	31785
2026-01-23 10:42:01.77	0.70	10.65	-41.1	-60.0	3.8	7.46e-01	0	62	104	403177472	54	30599
2026-01-23 10:42:02.78	0.59	10.57	-41.0	-59.9	3.8	7.49e-01	0	62	104	403177472	54	30319
2026-01-23 10:42:03.79	0.48	10.48	-41.0	-60.0	3.8	7.45e-01	0	62	104	403177472	53	32271
2026-01-23 10:42:04.80	0.37	10.40	-40.6	-59.5	3.8	7.45e-01	0	62	104	403177472	53	30389
2026-01-23 10:42:05.81	0.26	10.32	-41.0	-59.9	3.8	7.45e-01	0	62	104	403177472	53	31882
2026-01-23 10:42:06.82	0.15	10.24	-40.8	-59.8	3.8	7.46e-01	0	62	104	403177472	53	31473
2026-01-23 10:42:07.83	0.04	10.16	-40.8	-59.8	3.8	7.48e-01	0	62	104	403177472	53	31523
2026-01-23 10:42:08.84	359.94	10.08	-40.9	-59.8	3.8	7.46e-01	0	62	104	403177472	53	31784
2026-01-23 10:42:09.85	359.83	10.00	-41.0	-60.0	3.8	7.47e-01	0	62	104	403177472	53	32317
2026-01-23 10:42:10.86	359.72	9.92	-41.0	-60.0	3.8	7.46e-01	0	62	104	403177472	53	32189
2026-01-23 10:42:11.86	359.62	9.84	-41.0	-60.0	3.8	7.44e-01	0	62	104	403177472	53	32339
2026-01-23 10:42:12.87	359.51	9.76	-41.0	-60.0	3.8	7.48e-01	0	62	104	403177472	53	32453
2026-01-23 10:42:13.88	359.41	9.68	-41.0	-60.0	3.8	7.44e-01	0	62	104	403177472	53	32365
2026-01-23 10:42:14.89	359.31	9.60	-41.0	-59.9	3.8	7.43e-01	0	62	104	403177472	53	32002
2026-01-23 10:42:15.90	359.20	9.52	-41.0	-60.0	3.8	7.46e-01	0	62	104	403177472	53	32237
2026-01-23 10:42:16.91	359.10	9.44	-41.0	-60.0	3.8	7.44e-01	0	62	104	403177472	53	32271
2026-01-23 10:42:17.93	359.00	9.36	-41.0	-60.0	3.8	7.46e-01	0	62	104	403177472	53	32208
2026-01-23 10:42:18.94	358.90	9.28	-40.9	-59.9	3.8	7.48e-01	0	62	104	403177472	53	31854
2026-01-23 10:42:19.94	358.80	9.21	-41.0	-59.9	3.8	7.44e-01	0	62	104	403177472	53	32114
2026-01-23 10:42:20.95	358.70	9.13	-40.9	-59.9	3.8	7.47e-01	0	62	104	403177472	53	32156
2026-01-23 10:42:21.96	358.60	9.05	-41.0	-59.9	3.8	7.45e-01	0	62	104	403177472	53	32020
2026-01-23 10:42:22.97	358.50	8.97	-40.9	-59.9	3.8	7.45e-01	0	62	104	403177472	53	31821
2026-01-23 10:42:23.98	358.40	8.89	-41.0	-59.9	3.8	7.45e-01	0	62	104	403177472	53	32007
2026-01-23 10:42:24.99	358.31	8.82	-40.9	-59.9	3.8	7.43e-01	0	62	104	403177472	53	32018
2026-01-23 10:42:26.00	358.21	8.74	-40.9	-59.9	3.8	7.43e-01	0	62	104	403177472	53	31887
2026-01-23 10:42:27.01	358.11	8.66	-40.9	-59.8	3.8	7.47e-01	0	62	104	403177472	53	31745
2026-01-23 10:42:28.02	358.02	8.58	-40.9	-59.8	3.8	7.43e-01	0	62	104	403177472	53	31769
2026-01-23 10:42:29.02	357.92	8.51	-40.9	-59.9	3.8	7.43e-01	0	62	104	403177472	53	31888
2026-01-23 10:42:30.03	357.83	8.43	-40.9	-59.8	3.8	7.45e-01	0	62	104	403177472	53	31774
2026-01-23 10:42:31.04	357.73	8.35	-40.8	-59.8	3.8	7.43e-01	0	62	104	403177472	53	31566
2026-01-23 10:42:32.05	357.64	8.28	-40.9	-59.8	3.8	7.45e-01	0	62	104	403177472	53	31577
2026-01-23 10:42:33.06	357.55	8.20	-40.9	-59.9	3.8	7.44e-01	0	62	104	403177472	53	31845
2026-01-23 10:42:34.07	357.46	8.13	-40.9	-59.8	3.8	7.46e-01	0	62	104	403177472	53	31719
2026-01-23 10:42:35.08	357.36	8.05	-40.8	-59.8	3.8	7.45e-01	0	62	104	403177472	53	31471
2026-01-23 10:42:36.09	357.27	7.97	-41.0	-60.0	3.8	7.43e-01	0	62	104	403177472	53	32338
2026-01-23 10:42:37.10	357.18	7.90	-44.5	-63.1	3.9	7.44e-01	0	62	104	403177472	59	32697
2026-01-23 10:42:38.11	357.09	7.82	-45.8	-64.3	3.9	7.45e-01	0	62	104	403177472	62	31670
2026-01-23 10:42:39.12	357.00	7.75	-46.1	-64.6	3.8	7.44e-01	0	62	104	403177472	62	32756
2026-01-23 10:42:40.13	356.91	7.67	-46.3	-64.8	3.9	7.46e-01	0	62	104	403177472	63	31765
2026-01-23 10:42:41.14	356.82	7.60	-46.4	-65.0	3.8	7.49e-01	0	62	104	403177472	63	32261
2026-01-23 10:42:42.15	356.74	7.53	-46.4	-65.0	3.8	7.46e-01	0	62	104	403177472	63	32293
2026-01-23 10:42:43.16	356.65	7.45	-46.1	-64.8	3.9	7.52e-01	0	62	104	403177472	63	31684
2026-01-23 10:42:44.17	356.56	7.38	-46.5	-65.1	3.8	7.43e-01	0	62	104	403177472	63	32737
2026-01-23 10:42:45.18	356.47	7.30	-46.3	-65.0	3.8	7.43e-01	0	62	104	403177472	63	32455
2026-01-23 10:42:46.20	356.39	7.23	-45.3	-64.9	3.8	7.47e-01	0	62	104	403177472	63	32007
2026-01-23 10:42:47.21	356.30	7.16	-46.3	-64.9	3.8	7.42e-01	0	62	104	403177472	63	32059
2026-01-23 10:42:48.21	356.22	7.08	-46.4	-65.0	3.8	7.46e-01	0	62	104	403177472	63	32218
2026-01-23 10:42:49.22	356.13	7.01	-46.4	-64.9	3.8	7.45e-01	0	62	104	403177472	63	32074
2026-01-23 10:42:50.23	356.05	6.94	-46.4	-64.9	3.8	7.48e-01	0	62	104	403177472	63	32009
2026-01-23 10:42:51.24	355.97	6.86	-46.4	-64.9	3.8	7.46e-01	0	62	104	403177472	63	31948
2026-01-23 10:42:52.25	355.88	6.79	-46.2	-64.8	3.8	7.45e-01	0	62	104	403177472	63	31601
2026-01-23 10:42:53.26	355.80	6.72	-46.2	-64.8	3.8	7.44e-01	0	62	104	403177472	63	31562
2026-01-23 10:42:54.28	355.72	6.65	-46.2	-64.8	3.8	7.45e-01	0	62	104	403177472	63	31548
2026-01-23 10:42:55.29	355.63	6.57	-46.2	-64.8	3.8	7.46e-01	0	62	104	403177472	63	31564
2026-01-23 10:42:56.30	355.55	6.50	-46.2	-64.8	3.8	7.45e-01	0	62	104	403177472	63	31526
2026-01-23 10:42:57.31	355.47	6.43	-46.2	-64.8	3.8	7.47e-01	0	62	104	403177472	63	31505
2026-01-23 10:42:58.32	355.39	6.36	-46.2	-64.8	3.8	7.44e-01	0	62	104	403177472	63	31488
2026-01-23 10:42:59.33	355.31	6.29	-46.2	-64.8	3.8	7.47e-01	0	62	104	403177472	63	31494
2026-01-23 10:43:00.34	355.23	6.22	-46.2	-64.7	3.8	7.47e-01	0	62	104	403177472	63	31417
2026-01-23 10:43:01.35	355.15	6.14	-46.2	-64.7	3.8	7.44e-01	0	62	104	403177472	63	31421
2026-01-23 10:43:02.36	355.07	6.07	-46.2	-64.8	3.8	7.43e-01	0	62	104	403177472	63	31458
2026-01-23 10:43:03.37	355.00	6.00	-46.2	-64.7	3.8	7.43e-01	0	62	104	403177472	63	31428
2026-01-23 10:43:04.38	354.92	5.93	-46.2	-64.7	3.8	7.46e-01	0	62	104	403177472	63	31442
2026-01-23 10:43:05.39	354.84	5.86	-46.2	-64.8	3.8	7.45e-01	0	62	104	403177472	63	31497
2026-01-23 10:43:06.40	354.76	5.79	-46.2	-64.7	3.8	7.48e-01	0	62	104	403177472	63	31422
2026-01-23 10:43:07.41	354.69	5.72	-46.2	-64.7	3.8	7.43e-01	0	62	104	403177472	63	31298
2026-01-23 10:43:08.42	354.61	5.65	-46.2	-64.7	3.8	7.44e-01	0	62	104	403177472	63	31384
2026-01-23 10:43:09.43	354.54	5.58	-46.0	-64.7	3.8	7.45e-01	0	62	104	403177472	63	31342
2026-01-23 10:43:10.44	354.46	5.51	-46.2	-64.7	3.8	7.46e-01	0	62	104	403177472	63	31361
2026-01-23 10:43:11.45	354.39	5.44	-46.2	-64.7	3.8	7.46e-01	0	62	104	403177472	63	31401
2026-01-23 10:43:12.46	354.31	5.37	-45.8	-64.4	3.8	7.44e-01	0	62	104	403177472	61	33950
2026-01-23 10:43:13.47	354.24	5.30	-46.2	-64.7	3.8	7.46e-01	0	62	104	403177472	62	33265
2026-01-23 10:43:14.48	354.16	5.23	-46.2	-64.7	3.8	7.45e-01	0	62	104	403177472	62	33293
2026-01-23 10:43:15.49	354.09	5.17	-46.2	-64.7	3.8	7.46e-01	0	62	104	403177472	62	33196
2026-01-23 10:43:16.50	354.02	5.10	-46.1	-64.7	3.8	7.47e-01	0	62	104	403177472	62	33231
2026-01-23 10:43:17.51	353.95	5.03	-46.1	-64.7	3.8	7.46e-01	0	62	104	403177472	62	33155
2026-01-23 10:43:18.52	353.87	4.96	-46.2	-64.7	3.8	7.44e-01	0	62	104	403177472	62	33181
2026-01-23 10:43:19.53	353.80	4.89	-46.2	-64.7	3.8	7.39e-01	0	62	104	403177472	62	33173
2026-01-23 10:43:20.54	353.73	4.82	-46.2	-64.7	3.8	7.43e-01	0	62	104	403177472	62	33183
2026-01-23 10:43:21.55	353.66	4.76	-46.2	-64.7	3.8	7.47e-01	0	62	104	403177472	62	33142
2026-01-23 10:43:22.56	353.59	4.69	-46.2	-64.7	3.8	7.46e-01	0	62	104	403177472	62	33228
2026-01-23 10:43:23.57	353.52	4.62	-46.2	-64.7	3.8	7.46e-01	0	62	104	403177472	62	33179
2026-01-23 10:43:24.58	353.45	4.55	-46.2	-64.7	3.8	7.47e-01	0	62	104	403177472	62	33180
2026-01-23 10:43:25.60	353.38	4.49	-46.1	-64.7	3.8	7.44e-01	0	63	104	403177472	62	33208
2026-01-23 10:43:26.61	353.31	4.42	-46.1	-64.7	3.8	7.47e-01	0	62	104	403177472	62	33178
2026-01-23 10:43:27.62	353.24	4.35	-46.1	-64.7	3.8	7.44e-01	0	62	104	403177472	62	33061
2026-01-23 10:43:28.63	353.17	4.28	-45.9	-64.6	3.8	7.46e-01	0	62	104	403177472	62	32904
2026-01-23 10:43:29.64	353.11	4.22	-46.2	-64.6	3.8	7.45e-01	0	62	104	403177472	62	32907
2026-01-23 10:43:30.65	353.04	4.15	-45.5	-64.6	3.8	7.44e-01	0	62	104	403177472	62	32742
2026-01-23 10:43:31.65	352.97	4.09	-45.9	-64.9	3.9	7.46e-01	0	62	104	403177472	62	33810
2026-01-23 10:43:32.66	352.90	4.02	-43.8	-63.9	3.8	7.50e-01	0	62	104	403177472	60	33784
2026-01-23 10:43:33.68	352.84	3.95	-46.2	-64.7	3.8	7.45e-01	0	62	104	403177472	62	33094
2026-01-23 10:43:34.69	352.77	3.89	-46.2	-64.6	3.8	7.46e-01	0	62	104	403177472	62	32798
2026-01-23 10:43:35.70	352.71	3.82	-46.0	-64.7	3.8	7.42e-01	0	62	104	403177472	62	32985
2026-01-23 10:43:36.71	352.64	3.75	-46.0	-64.6	3.8	7.44e-01	0	62	104	403177472	62	32817
2026-01-23 10:43:37.72	352.57	3.69	-46.0	-64.7	3.8	7.45e-01	0	63	104	403177472	62	33029
2026-01-23 10:43:38.73	352.51	3.62	-45.7	-64.6	3.8	7.45e-01	0	62	104	403177472	62	32889
2026-01-23 10:43:39.74	352.45	3.56	-46.2	-64.7	3.8	7.43e-01	0	62	104	403177472	62	33129
2026-01-23 10:43:40.75	352.38	3.49	-46.2	-64.7	3.8	7.43e-01	0	63	104	403177472	62	33159
2026-01-23 10:43:41.76	352.32	3.43	-46.2	-64.7	3.8	7.45e-01	0	62	104	403177472	62	33101
2026-01-23 10:43:42.77	352.25	3.36	-45.2	-64.3	3.8	7.46e-01	0	62	104	403177472	61	33476
2026-01-23 10:43:43.78	352.19	3.30	-45.5	-64.8	4.0	7.49e-01	0	62	104	403177472	61	35608
2026-01-23 10:43:44.79	352.13	3.23	-46.1	-64.7	3.8	7.46e-01	0	62	104	403177472	62	33021
2026-01-23 10:43:45.80	352.07	3.17	-46.2	-64.7	3.8	7.45e-01	0	62	104	403177472	62	33118
2026-01-23 10:43:46.81	352.00	3.11	-46.1	-64.7	3.8	7.44e-01	0	62	104	403177472	62	33064
2026-01-23 10:43:47.82	351.94	3.04	-46.1	-64.7	3.8	7.45e-01	0	62	104	403177472	62	33076
2026-01-23 10:43:48.83	351.88	2.98	-46.1	-64.6	3.8	7.46e-01	0	62	104	403177472	62	32802
2026-01-23 10:43:49.84	351.82	2.91	-46.0	-64.7	3.8	7.45e-01	0	62	104	403177472	62	32988
2026-01-23 10:43:50.85	351.76	2.85	-45.7	-63.9	3.7	7.48e-01	0	62	104	403177472	61	31982
2026-01-23 10:43:51.86	351.70	2.79	-46.1	-64.5	3.8	7.43e-01	0	62	104	403177472	62	32476
2026-01-23 10:43:52.87	351.64	2.72	-46.1	-64.5	3.8	7.47e-01	0	62	104	403177472	62	32461
2026-01-23 10:43:53.88	351.58	2.66	-46.1	-64.6	3.8	7.46e-01	0	62	104	403177472	62	32899
2026-01-23 10:43:54.89	351.52	2.60	-45.9	-64.6	3.8	7.43e-01	0	62	104	403177472	62	32847
2026-01-23 10:43:55.90	351.46	2.53	-46.1	-64.7	3.8	7.46e-01	0	62	104	403177472	62	33023
2026-01-23 10:43:56.91	351.40	2.47	-46.2	-64.7	3.8	7.45e-01	0	62	104	403177472	62	33070
2026-01-23 10:43:57.92	351.34	2.41	-46.1	-64.5	3.8	7.43e-01	0	62	104	403177472	62	32340
2026-01-23 10:43:58.94	351.28	2.34	-45.9	-64.2	3.8	7.43e-01	0	62	104	403177472	62	31173
2026-01-23 10:43:59.95	351.22	2.28	-45.8	-64.2	3.8	7.44e-01	0	62	104	403177472	62	31246
