passes_logs/2026/01/23/R2.0S_Moscow/R2.0S_Moscow__20260123_013534_NOAA_21_JPSS-2_rec.log

#Pass ID: 20260123_013534_NOAA 21 (JPSS-2)
#Satellite: NOAA 21 (JPSS-2)
#Configuration: NOAA-21
#almurnet v.1.7.20251203
#Start time: 2026-01-23 01:36:52

#Version: 2.2.20231116
#Station: R2.0S_Moscow
#Location: 37.707566 lon 55.798166 lat
#TLE: 1 54234U 22150A   26022.41365820  .00000211  00000+0  12084-3 0  9990
#TLE: 2 54234  98.7507 323.2240 0000658 234.5287 125.5828 14.19537645165864

#Time	Az	El	Level	Level2	SNR	BER	BlckErr	Temp	State	Recorded	gain1	gain2
2026-01-23 01:36:52.85	2.88	6.37	-45.0	-56.7	3.8	8.47e-01	0	60	0	0	61	13970
2026-01-23 01:36:53.85	2.78	6.42	-45.1	-57.4	3.8	1.49e+00	0	61	104	0	62	14311
2026-01-23 01:36:54.86	2.68	6.48	-45.1	-57.5	3.8	1.49e+00	0	61	104	0	62	14422
2026-01-23 01:36:55.87	2.58	6.54	-45.1	-57.5	3.8	1.49e+00	0	61	104	0	62	14455
2026-01-23 01:36:56.88	2.47	6.60	-45.1	-57.4	3.8	1.49e+00	0	61	104	0	62	14322
2026-01-23 01:36:57.89	2.37	6.66	-45.1	-57.5	3.8	1.49e+00	0	61	104	0	62	14419
2026-01-23 01:36:58.90	2.27	6.72	-45.1	-57.5	3.8	1.49e+00	0	61	104	0	62	14455
2026-01-23 01:36:59.91	2.16	6.78	-45.1	-57.5	3.8	1.49e+00	0	61	104	0	62	14390
2026-01-23 01:37:00.92	2.06	6.84	-45.1	-57.5	3.8	1.49e+00	0	61	104	0	62	14409
2026-01-23 01:37:01.93	1.96	6.89	-45.1	-57.5	3.8	1.49e+00	0	61	104	0	62	14445
2026-01-23 01:37:02.94	1.85	6.95	-45.1	-57.4	3.8	1.49e+00	0	61	104	0	62	14337
2026-01-23 01:37:03.95	1.75	7.01	-45.1	-57.5	3.8	1.49e+00	0	61	104	0	62	14441
2026-01-23 01:37:04.96	1.64	7.07	-45.1	-57.4	3.8	1.49e+00	0	61	104	0	62	14366
2026-01-23 01:37:05.97	1.53	7.13	-45.1	-57.4	3.8	1.49e+00	0	61	104	0	62	14372
2026-01-23 01:37:06.98	1.43	7.19	-45.1	-57.4	3.8	1.49e+00	0	61	104	0	62	14356
2026-01-23 01:37:07.99	1.32	7.25	-45.1	-57.5	3.8	1.49e+00	0	61	104	0	62	14417
2026-01-23 01:37:09.00	1.21	7.31	-45.1	-57.5	3.8	1.49e+00	0	61	104	0	62	14392
2026-01-23 01:37:10.01	1.11	7.37	-45.1	-57.5	3.8	1.49e+00	0	61	104	0	62	14445
2026-01-23 01:37:11.02	1.00	7.43	-45.1	-57.5	3.8	1.49e+00	0	61	104	0	62	14405
2026-01-23 01:37:12.03	0.89	7.49	-45.1	-57.4	3.8	1.49e+00	0	60	104	0	62	14365
2026-01-23 01:37:13.04	0.78	7.55	-45.1	-57.4	3.8	1.49e+00	0	61	104	0	62	14366
2026-01-23 01:37:14.05	0.67	7.61	-45.1	-57.4	3.8	1.49e+00	0	61	104	0	62	14315
2026-01-23 01:37:15.06	0.56	7.67	-45.1	-57.4	3.8	1.49e+00	0	61	104	0	62	14359
2026-01-23 01:37:16.07	0.45	7.73	-45.1	-57.5	3.8	1.49e+00	0	61	104	0	62	14409
2026-01-23 01:37:17.08	0.34	7.79	-45.1	-57.5	3.8	1.49e+00	0	61	104	0	62	14408
2026-01-23 01:37:18.09	0.23	7.85	-45.1	-57.5	3.8	1.49e+00	0	61	104	0	62	14382
2026-01-23 01:37:19.10	0.12	7.90	-45.1	-57.5	3.8	1.49e+00	0	61	104	0	62	14385
2026-01-23 01:37:20.11	0.00	7.96	-45.1	-57.5	3.8	1.49e+00	0	61	104	0	62	14389
2026-01-23 01:37:21.12	359.89	8.02	-45.1	-57.4	3.8	1.49e+00	0	61	104	0	62	14318
2026-01-23 01:37:22.13	359.78	8.08	-45.1	-57.5	3.8	1.49e+00	0	61	104	0	62	14395
2026-01-23 01:37:23.14	359.66	8.14	-45.1	-57.4	3.8	1.49e+00	0	61	104	0	62	14353
2026-01-23 01:37:24.15	359.55	8.20	-45.1	-57.4	3.8	1.49e+00	0	61	104	0	62	14318
2026-01-23 01:37:25.16	359.43	8.26	-45.1	-57.4	3.8	1.49e+00	0	61	104	0	62	14330
2026-01-23 01:37:26.17	359.32	8.32	-45.1	-57.4	3.8	1.49e+00	0	61	104	0	62	14366
2026-01-23 01:37:27.18	359.20	8.38	-45.1	-57.5	3.8	1.49e+00	0	61	104	0	62	14415
2026-01-23 01:37:28.19	359.09	8.44	-45.1	-57.5	3.8	1.49e+00	0	61	104	0	62	14380
2026-01-23 01:37:29.20	358.97	8.50	-45.1	-57.5	3.8	1.49e+00	0	61	104	0	62	14387
2026-01-23 01:37:30.21	358.85	8.56	-45.1	-57.4	3.8	1.49e+00	0	61	104	0	62	14334
2026-01-23 01:37:31.22	358.73	8.62	-45.1	-57.5	3.8	1.49e+00	0	61	104	0	62	14392
2026-01-23 01:37:32.23	358.62	8.68	-45.1	-57.5	3.8	1.49e+00	0	61	104	0	62	14384
2026-01-23 01:37:33.24	358.50	8.74	-45.1	-57.5	3.8	1.49e+00	0	61	104	0	62	14409
2026-01-23 01:37:34.25	358.38	8.80	-45.1	-57.4	3.8	1.49e+00	0	61	104	0	62	14364
2026-01-23 01:37:35.26	358.26	8.86	-45.1	-57.4	3.8	1.49e+00	0	61	104	0	62	14338
2026-01-23 01:37:36.27	358.14	8.92	-45.1	-57.5	3.8	1.49e+00	0	61	104	0	62	14405
2026-01-23 01:37:37.28	358.02	8.98	-45.1	-57.4	3.8	1.49e+00	0	61	104	0	62	14350
2026-01-23 01:37:38.29	357.89	9.04	-45.1	-57.4	3.8	1.49e+00	0	61	104	0	62	14325
2026-01-23 01:37:39.30	357.77	9.11	-45.1	-57.5	3.8	1.49e+00	0	61	104	0	62	14377
2026-01-23 01:37:40.31	357.65	9.17	-45.1	-57.4	3.8	1.49e+00	0	61	104	0	62	14286
2026-01-23 01:37:41.32	357.53	9.23	-45.1	-57.4	3.8	1.49e+00	0	61	104	0	62	14363
2026-01-23 01:37:42.33	357.40	9.29	-45.1	-57.5	3.8	1.49e+00	0	61	104	0	62	14413
2026-01-23 01:37:43.34	357.28	9.35	-45.1	-57.5	3.8	1.49e+00	0	61	104	0	62	14419
2026-01-23 01:37:44.35	357.16	9.41	-45.1	-57.5	3.8	1.49e+00	0	61	104	0	62	14381
2026-01-23 01:37:45.36	357.03	9.47	-45.1	-57.5	3.8	1.49e+00	0	61	104	0	62	14391
2026-01-23 01:37:46.37	356.90	9.53	-45.1	-57.4	3.8	1.49e+00	0	61	104	0	62	14373
2026-01-23 01:37:47.38	356.78	9.59	-45.1	-57.4	3.8	1.49e+00	0	61	104	0	62	14361
2026-01-23 01:37:48.39	356.65	9.65	-45.1	-57.4	3.8	1.49e+00	0	61	104	0	62	14370
2026-01-23 01:37:49.40	356.52	9.71	-45.1	-57.4	3.8	1.49e+00	0	61	104	0	62	14332
2026-01-23 01:37:50.41	356.40	9.77	-45.1	-57.4	3.8	1.49e+00	0	61	104	0	62	14361
2026-01-23 01:37:51.42	356.27	9.83	-45.1	-57.4	3.8	1.49e+00	0	61	104	0	62	14329
2026-01-23 01:37:52.43	356.14	9.89	-45.1	-57.5	3.8	1.49e+00	0	61	104	0	62	14381
2026-01-23 01:37:53.44	356.01	9.95	-45.1	-57.5	3.8	1.49e+00	0	61	104	0	62	14408
2026-01-23 01:37:54.45	355.88	10.01	-45.1	-57.5	3.8	1.49e+00	0	61	104	0	62	14379
2026-01-23 01:37:55.46	355.75	10.07	-45.1	-57.5	3.8	1.49e+00	0	61	104	0	62	14404
2026-01-23 01:37:56.47	355.62	10.13	-45.1	-57.5	3.8	1.49e+00	0	61	104	0	62	14404
2026-01-23 01:37:57.48	355.49	10.19	-45.1	-57.5	3.8	1.49e+00	0	61	104	0	62	14430
2026-01-23 01:37:58.49	355.36	10.25	-45.1	-57.4	3.8	1.49e+00	0	61	104	0	62	14357
2026-01-23 01:37:59.50	355.22	10.31	-45.1	-57.5	3.8	1.49e+00	0	61	104	0	62	14393
2026-01-23 01:38:00.51	355.09	10.37	-45.1	-57.4	3.8	1.49e+00	0	61	104	0	62	14371
2026-01-23 01:38:01.52	354.96	10.43	-45.1	-57.5	3.8	1.49e+00	0	61	104	0	62	14381
2026-01-23 01:38:02.53	354.82	10.49	-45.1	-57.4	3.8	1.49e+00	0	61	104	0	62	14310
2026-01-23 01:38:03.54	354.69	10.56	-45.1	-57.5	3.8	1.49e+00	0	61	104	0	62	14396
2026-01-23 01:38:04.55	354.55	10.62	-45.1	-57.4	3.8	1.49e+00	0	61	104	0	62	14336
2026-01-23 01:38:05.56	354.41	10.68	-45.1	-57.5	3.8	1.49e+00	0	61	104	0	62	14432
2026-01-23 01:38:06.57	354.28	10.74	-45.1	-57.5	3.8	1.49e+00	0	61	104	0	62	14405
2026-01-23 01:38:07.58	354.14	10.80	-45.1	-57.5	3.8	1.49e+00	0	61	104	0	62	14402
2026-01-23 01:38:08.59	354.00	10.86	-45.1	-57.4	3.8	1.49e+00	0	61	104	0	62	14352
2026-01-23 01:38:09.60	353.86	10.92	-45.1	-57.4	3.8	1.49e+00	0	61	104	0	62	14358
2026-01-23 01:38:10.61	353.72	10.98	-45.1	-57.5	3.8	1.49e+00	0	61	104	0	62	14382
2026-01-23 01:38:11.62	353.59	11.04	-45.1	-57.5	3.8	1.49e+00	0	61	104	0	62	14397
2026-01-23 01:38:12.63	353.44	11.10	-45.1	-57.5	3.8	1.49e+00	0	61	104	0	62	14394
2026-01-23 01:38:13.64	353.30	11.16	-45.1	-57.5	3.8	1.49e+00	0	61	104	0	62	14385
2026-01-23 01:38:14.65	353.16	11.22	-45.1	-57.5	3.8	1.49e+00	0	61	104	0	62	14375
2026-01-23 01:38:15.66	353.02	11.28	-45.1	-57.5	3.8	1.49e+00	0	61	104	0	62	14388
2026-01-23 01:38:16.67	352.88	11.34	-45.1	-57.5	3.8	1.49e+00	0	61	104	0	62	14378
2026-01-23 01:38:17.68	352.73	11.40	-45.1	-57.5	3.8	1.49e+00	0	61	104	0	62	14391
2026-01-23 01:38:18.69	352.59	11.46	-45.1	-57.5	3.8	1.49e+00	0	61	104	0	62	14443
2026-01-23 01:38:19.70	352.45	11.52	-45.1	-57.5	3.8	1.49e+00	0	61	104	0	62	14418
2026-01-23 01:38:20.71	352.30	11.58	-45.1	-57.5	3.8	1.49e+00	0	61	104	0	62	14405
2026-01-23 01:38:21.72	352.16	11.64	-45.1	-57.5	3.8	1.49e+00	0	61	104	0	62	14395
2026-01-23 01:38:22.73	352.01	11.70	-45.1	-57.5	3.8	1.49e+00	0	61	104	0	62	14386
2026-01-23 01:38:23.74	351.86	11.76	-45.1	-57.5	3.8	1.49e+00	0	61	104	0	62	14415
2026-01-23 01:38:24.75	351.72	11.82	-45.1	-57.5	3.8	1.49e+00	0	60	104	0	62	14413
2026-01-23 01:38:25.76	351.57	11.88	-45.1	-57.5	3.8	1.49e+00	0	61	104	0	62	14403
2026-01-23 01:38:26.77	351.42	11.94	-45.1	-57.5	3.8	1.49e+00	0	61	104	0	62	14393
2026-01-23 01:38:27.78	351.27	12.00	-45.1	-57.5	3.8	1.49e+00	0	61	104	0	62	14466
2026-01-23 01:38:28.79	351.12	12.06	-45.1	-57.5	3.8	1.49e+00	0	61	104	0	62	14385
2026-01-23 01:38:29.80	350.97	12.12	-45.1	-57.5	3.8	1.49e+00	0	61	104	0	62	14439
2026-01-23 01:38:30.81	350.82	12.18	-45.1	-57.5	3.8	1.49e+00	0	61	104	0	62	14413
2026-01-23 01:38:31.82	350.67	12.24	-45.1	-57.5	3.8	1.49e+00	0	61	104	0	62	14415
2026-01-23 01:38:32.83	350.51	12.30	-45.1	-57.5	3.8	1.49e+00	0	61	104	0	62	14413
2026-01-23 01:38:33.84	350.36	12.36	-45.1	-57.5	3.8	1.49e+00	0	61	104	0	62	14414
2026-01-23 01:38:34.85	350.21	12.42	-45.1	-57.5	3.8	1.49e+00	0	61	104	0	62	14394
2026-01-23 01:38:35.86	350.05	12.48	-45.1	-57.5	3.8	1.49e+00	0	61	104	0	62	14407
2026-01-23 01:38:36.87	349.90	12.54	-45.1	-57.4	3.8	1.49e+00	0	61	104	0	62	14368
2026-01-23 01:38:37.88	349.74	12.60	-45.1	-57.5	3.8	1.49e+00	0	61	104	0	62	14466
2026-01-23 01:38:38.88	349.59	12.65	-45.1	-57.5	3.8	1.49e+00	0	61	104	0	62	14483
2026-01-23 01:38:39.89	349.43	12.71	-45.1	-57.5	3.8	1.49e+00	0	61	104	0	62	14433
2026-01-23 01:38:40.90	349.27	12.77	-45.1	-57.5	3.8	1.49e+00	0	61	104	0	62	14447
2026-01-23 01:38:41.91	349.11	12.83	-45.1	-57.5	3.8	1.49e+00	0	61	104	0	62	14389
2026-01-23 01:38:42.92	348.95	12.89	-45.1	-57.5	3.8	1.49e+00	0	61	104	0	62	14397
2026-01-23 01:38:43.93	348.80	12.95	-45.1	-57.5	3.8	1.49e+00	0	61	104	0	62	14416
2026-01-23 01:38:44.94	348.63	13.01	-45.1	-57.5	3.8	1.49e+00	0	61	104	0	62	14425
2026-01-23 01:38:45.95	348.47	13.07	-45.1	-57.5	3.8	1.49e+00	0	61	104	0	62	14445
2026-01-23 01:38:46.96	348.31	13.12	-45.1	-57.4	3.8	1.49e+00	0	61	104	0	62	14365
2026-01-23 01:38:47.97	348.15	13.18	-45.1	-57.5	3.8	1.49e+00	0	61	104	0	62	14471
2026-01-23 01:38:48.98	347.99	13.24	-45.1	-57.5	3.8	1.49e+00	0	61	104	0	62	14376
2026-01-23 01:38:49.99	347.82	13.30	-45.1	-57.5	3.8	1.49e+00	0	61	104	0	62	14445
2026-01-23 01:38:51.00	347.66	13.36	-45.1	-57.5	3.8	1.49e+00	0	61	104	0	62	14427
2026-01-23 01:38:52.01	347.50	13.42	-45.1	-57.5	3.8	1.49e+00	0	61	104	0	62	14441
2026-01-23 01:38:53.02	347.33	13.47	-45.1	-57.5	3.8	1.49e+00	0	61	104	0	62	14469
2026-01-23 01:38:54.03	347.16	13.53	-45.1	-57.5	3.8	1.49e+00	0	61	104	0	62	14459
2026-01-23 01:38:55.04	347.00	13.59	-45.1	-57.5	3.8	1.49e+00	0	61	104	0	62	14447
2026-01-23 01:38:56.04	346.83	13.65	-45.1	-57.5	3.8	1.49e+00	0	61	104	0	62	14429
2026-01-23 01:38:57.06	346.66	13.71	-45.1	-57.5	3.8	1.49e+00	0	61	104	0	62	14427
2026-01-23 01:38:58.07	346.49	13.76	-45.1	-57.5	3.8	1.49e+00	0	61	104	0	62	14450
2026-01-23 01:38:59.08	346.32	13.82	-45.1	-57.5	3.8	1.49e+00	0	61	104	0	62	14466
2026-01-23 01:39:00.09	346.15	13.88	-45.1	-57.5	3.8	1.49e+00	0	61	104	0	62	14467
2026-01-23 01:39:01.10	345.98	13.94	-45.1	-57.5	3.8	1.49e+00	0	61	104	0	62	14380
2026-01-23 01:39:02.10	345.81	13.99	-45.1	-57.5	3.8	1.49e+00	0	61	104	0	62	14446
2026-01-23 01:39:03.11	345.64	14.05	-45.1	-57.5	3.8	1.49e+00	0	61	104	0	62	14526
2026-01-23 01:39:04.12	345.47	14.11	-45.1	-57.5	3.8	1.49e+00	0	61	104	0	62	14467
2026-01-23 01:39:05.13	345.29	14.16	-45.1	-57.5	3.8	1.49e+00	0	61	104	0	62	14450
2026-01-23 01:39:06.14	345.12	14.22	-45.1	-57.5	3.8	1.49e+00	0	61	104	0	62	14506
2026-01-23 01:39:07.15	344.95	14.28	-45.1	-57.5	3.8	1.49e+00	0	61	104	0	62	14470
2026-01-23 01:39:08.16	344.77	14.33	-45.1	-57.5	3.8	1.49e+00	0	61	104	0	62	14484
2026-01-23 01:39:09.17	344.59	14.39	-45.1	-57.5	3.8	1.49e+00	0	61	104	0	62	14491
2026-01-23 01:39:10.18	344.42	14.44	-45.1	-57.5	3.8	1.49e+00	0	61	104	0	62	14530
2026-01-23 01:39:11.19	344.24	14.50	-45.1	-57.5	3.8	1.49e+00	0	61	104	0	62	14508
2026-01-23 01:39:12.20	344.06	14.56	-45.1	-57.5	3.8	1.49e+00	0	61	104	0	62	14515
2026-01-23 01:39:13.21	343.88	14.61	-45.2	-57.5	3.8	1.49e+00	0	61	104	0	62	14524
2026-01-23 01:39:14.22	343.70	14.67	-45.1	-57.5	3.8	1.49e+00	0	61	104	0	62	14540
2026-01-23 01:39:15.23	343.52	14.72	-45.1	-57.6	3.8	1.49e+00	0	61	104	0	62	14547
2026-01-23 01:39:16.24	343.34	14.78	-45.1	-57.5	3.8	1.49e+00	0	61	104	0	62	14525
2026-01-23 01:39:17.25	343.16	14.83	-45.1	-57.5	3.8	1.49e+00	0	61	104	0	62	14452
2026-01-23 01:39:18.26	342.98	14.89	-45.1	-57.5	3.8	1.49e+00	0	61	104	0	62	14510
2026-01-23 01:39:19.27	342.79	14.94	-45.2	-57.5	3.8	1.49e+00	0	61	104	0	62	14506
2026-01-23 01:39:20.28	342.61	14.99	-45.2	-57.5	3.8	1.49e+00	0	61	104	0	62	14507
2026-01-23 01:39:21.29	342.43	15.05	-45.1	-57.5	3.8	1.49e+00	0	61	104	0	62	14456
2026-01-23 01:39:22.30	342.24	15.10	-45.1	-57.6	3.8	1.49e+00	0	61	104	0	62	14547
2026-01-23 01:39:23.31	342.06	15.16	-45.1	-57.5	3.8	1.49e+00	0	61	104	0	62	14520
2026-01-23 01:39:24.32	341.87	15.21	-45.1	-57.5	3.8	1.49e+00	0	61	104	0	62	14506
2026-01-23 01:39:25.33	341.68	15.26	-45.2	-57.5	3.8	1.49e+00	0	61	104	0	62	14454
2026-01-23 01:39:26.34	341.49	15.32	-45.2	-57.5	3.8	1.49e+00	0	61	104	0	62	14483
2026-01-23 01:39:27.35	341.31	15.37	-45.1	-57.5	3.8	1.49e+00	0	61	104	0	62	14540
2026-01-23 01:39:28.36	341.12	15.42	-45.1	-57.5	3.8	1.49e+00	0	61	104	0	62	14484
2026-01-23 01:39:29.37	340.93	15.48	-45.2	-57.5	3.8	1.49e+00	0	61	104	0	62	14499
2026-01-23 01:39:30.38	340.74	15.53	-45.2	-57.5	3.8	1.49e+00	0	61	104	0	62	14536
2026-01-23 01:39:31.39	340.55	15.58	-45.2	-57.5	3.8	1.49e+00	0	61	104	0	62	14501
2026-01-23 01:39:32.40	340.35	15.63	-45.2	-57.5	3.8	1.49e+00	0	61	104	0	62	14535
2026-01-23 01:39:33.41	340.16	15.68	-45.2	-57.5	3.8	1.49e+00	0	61	104	0	62	14523
2026-01-23 01:39:34.42	339.97	15.74	-45.2	-57.5	3.8	1.49e+00	0	61	104	0	62	14534
2026-01-23 01:39:35.43	339.77	15.79	-45.2	-57.6	3.8	1.49e+00	0	61	104	0	62	14607
2026-01-23 01:39:36.44	339.58	15.84	-45.2	-57.6	3.8	1.49e+00	0	61	104	0	62	14552
2026-01-23 01:39:37.45	339.38	15.89	-45.2	-57.5	3.8	1.49e+00	0	61	104	0	62	14472
2026-01-23 01:39:38.46	339.19	15.94	-45.2	-57.6	3.8	1.49e+00	0	61	104	0	62	14562
2026-01-23 01:39:39.47	338.99	15.99	-45.2	-57.5	3.8	1.49e+00	0	61	104	0	62	14513
2026-01-23 01:39:40.48	338.79	16.04	-45.2	-57.6	3.8	1.49e+00	0	61	104	0	62	14565
2026-01-23 01:39:41.49	338.60	16.09	-45.2	-57.6	3.8	1.49e+00	0	62	104	0	62	14588
2026-01-23 01:39:42.50	338.40	16.14	-45.2	-57.6	3.8	1.49e+00	0	61	104	0	62	14555
2026-01-23 01:39:43.51	338.20	16.19	-45.2	-57.6	3.8	1.49e+00	0	61	104	0	62	14550
2026-01-23 01:39:44.52	338.00	16.24	-45.2	-57.6	3.8	1.49e+00	0	61	104	0	62	14547
2026-01-23 01:39:45.53	337.80	16.29	-45.2	-57.5	3.8	1.49e+00	0	61	104	0	62	14528
2026-01-23 01:39:46.54	337.60	16.34	-45.2	-57.6	3.8	1.49e+00	0	61	104	0	62	14613
2026-01-23 01:39:47.55	337.39	16.39	-45.2	-57.6	3.8	1.49e+00	0	61	104	0	62	14600
2026-01-23 01:39:48.56	337.19	16.43	-45.2	-57.6	3.8	1.49e+00	0	61	104	0	62	14604
2026-01-23 01:39:49.57	336.99	16.48	-45.2	-57.6	3.8	1.49e+00	0	61	104	0	62	14589
2026-01-23 01:39:50.58	336.78	16.53	-45.2	-57.6	3.8	1.49e+00	0	61	104	0	62	14563
2026-01-23 01:39:51.59	336.58	16.58	-45.2	-57.6	3.8	1.49e+00	0	61	104	0	62	14592
2026-01-23 01:39:52.60	336.38	16.62	-45.2	-57.6	3.8	1.49e+00	0	61	104	0	62	14636
2026-01-23 01:39:53.61	336.17	16.67	-45.2	-57.6	3.8	1.49e+00	0	61	104	0	62	14571
2026-01-23 01:39:54.62	335.96	16.72	-45.2	-57.6	3.8	1.49e+00	0	61	104	0	62	14640
2026-01-23 01:39:55.63	335.76	16.76	-45.2	-57.6	3.8	1.49e+00	0	61	104	0	62	14626
2026-01-23 01:39:56.64	335.55	16.81	-45.2	-57.6	3.8	1.49e+00	0	61	104	0	62	14610
2026-01-23 01:39:57.65	335.34	16.86	-45.2	-57.6	3.8	1.49e+00	0	61	104	0	62	14606
2026-01-23 01:39:58.66	335.13	16.90	-45.2	-57.6	3.8	1.49e+00	0	61	104	0	62	14600
2026-01-23 01:39:59.68	334.92	16.95	-45.2	-57.5	3.8	1.49e+00	0	61	104	0	62	14538
2026-01-23 01:40:00.68	334.71	16.99	-45.2	-57.6	3.8	1.49e+00	0	61	104	0	62	14598
2026-01-23 01:40:01.69	334.50	17.04	-45.2	-57.6	3.8	1.49e+00	0	61	104	0	62	14590
2026-01-23 01:40:02.70	334.29	17.08	-45.2	-57.6	3.8	1.49e+00	0	61	104	0	62	14587
2026-01-23 01:40:03.71	334.07	17.12	-45.2	-57.6	3.8	1.49e+00	0	61	104	0	62	14647
2026-01-23 01:40:04.72	333.86	17.17	-45.2	-57.6	3.8	1.49e+00	0	61	104	0	62	14629
2026-01-23 01:40:05.73	333.65	17.21	-45.2	-57.6	3.8	1.49e+00	0	61	104	0	62	14614
2026-01-23 01:40:06.74	333.43	17.25	-45.2	-57.6	3.8	1.49e+00	0	61	104	0	62	14642
2026-01-23 01:40:07.76	333.22	17.29	-45.2	-57.6	3.8	1.49e+00	0	61	104	0	62	14604
2026-01-23 01:40:08.76	333.00	17.34	-45.2	-57.6	3.8	1.49e+00	0	61	104	0	62	14639
2026-01-23 01:40:09.77	332.79	17.38	-45.2	-57.6	3.8	1.49e+00	0	61	104	0	62	14652
2026-01-23 01:40:10.79	332.57	17.42	-45.2	-57.6	3.8	1.49e+00	0	61	104	0	62	14601
2026-01-23 01:40:11.80	332.35	17.46	-45.2	-57.6	3.8	1.49e+00	0	61	104	0	62	14624
2026-01-23 01:40:12.80	332.14	17.50	-45.2	-57.6	3.8	1.49e+00	0	61	104	0	62	14654
2026-01-23 01:40:13.81	331.92	17.54	-45.2	-57.6	3.8	1.49e+00	0	61	104	0	62	14657
2026-01-23 01:40:14.82	331.70	17.58	-45.2	-57.6	3.8	1.49e+00	0	61	104	0	62	14636
2026-01-23 01:40:15.83	331.48	17.62	-45.2	-57.6	3.8	1.49e+00	0	61	104	0	62	14663
2026-01-23 01:40:16.84	331.26	17.66	-45.2	-57.6	3.8	1.49e+00	0	61	104	0	62	14633
2026-01-23 01:40:17.85	331.04	17.70	-45.2	-57.6	3.8	1.49e+00	0	61	104	0	62	14660
2026-01-23 01:40:18.86	330.82	17.74	-45.2	-57.6	3.8	1.49e+00	0	61	104	0	62	14656
2026-01-23 01:40:19.87	330.59	17.78	-45.2	-57.6	3.8	1.49e+00	0	61	104	0	62	14695
2026-01-23 01:40:20.88	330.37	17.81	-45.2	-57.6	3.8	1.49e+00	0	61	104	0	62	14688
2026-01-23 01:40:21.89	330.15	17.85	-45.2	-57.6	3.8	1.49e+00	0	61	104	0	62	14618
2026-01-23 01:40:22.90	329.93	17.89	-45.2	-57.6	3.8	1.49e+00	0	61	104	0	62	14679
2026-01-23 01:40:23.91	329.70	17.92	-45.2	-57.6	3.8	1.49e+00	0	62	104	0	62	14645
2026-01-23 01:40:24.92	329.48	17.96	-45.2	-57.6	3.8	1.49e+00	0	62	104	0	62	14640
2026-01-23 01:40:25.93	329.25	18.00	-45.2	-57.6	3.8	1.49e+00	0	61	104	0	62	14621
2026-01-23 01:40:26.94	329.03	18.03	-45.2	-57.6	3.8	1.49e+00	0	61	104	0	62	14680
2026-01-23 01:40:27.95	328.80	18.07	-45.2	-57.6	3.8	1.49e+00	0	61	104	0	62	14692
2026-01-23 01:40:28.96	328.57	18.10	-45.2	-57.6	3.8	1.49e+00	0	62	104	0	62	14695
2026-01-23 01:40:29.97	328.35	18.13	-45.2	-57.6	3.8	1.49e+00	0	61	104	0	62	14676
2026-01-23 01:40:30.98	328.12	18.17	-45.2	-57.6	3.8	1.49e+00	0	61	104	0	62	14623
2026-01-23 01:40:31.99	327.89	18.20	-45.2	-57.6	3.8	1.49e+00	0	61	104	0	62	14653
2026-01-23 01:40:33.00	327.66	18.23	-45.2	-57.6	3.8	1.49e+00	0	61	104	0	62	14687
2026-01-23 01:40:34.01	327.43	18.27	-45.2	-57.6	3.8	1.49e+00	0	61	104	0	62	14657
2026-01-23 01:40:35.02	327.20	18.30	-45.2	-57.6	3.8	1.49e+00	0	61	104	0	62	14639
2026-01-23 01:40:36.03	326.97	18.33	-45.2	-57.6	3.8	1.49e+00	0	61	104	0	62	14662
2026-01-23 01:40:37.04	326.74	18.36	-45.2	-57.6	3.8	1.49e+00	0	61	104	0	62	14697
2026-01-23 01:40:38.05	326.51	18.39	-45.2	-57.6	3.8	1.49e+00	0	61	104	0	62	14688
2026-01-23 01:40:39.06	326.28	18.42	-45.2	-57.6	3.8	1.49e+00	0	61	104	0	62	14702
2026-01-23 01:40:40.07	326.04	18.45	-45.2	-57.6	3.8	1.49e+00	0	61	104	0	62	14664
2026-01-23 01:40:41.08	325.81	18.48	-45.2	-57.6	3.8	1.49e+00	0	61	104	0	62	14689
2026-01-23 01:40:42.09	325.58	18.51	-45.2	-57.6	3.8	1.49e+00	0	61	104	0	62	14695
2026-01-23 01:40:43.10	325.34	18.54	-45.2	-57.7	3.8	1.49e+00	0	62	104	0	62	14722
2026-01-23 01:40:44.11	325.11	18.57	-45.2	-57.6	3.8	1.49e+00	0	61	104	0	62	14686
2026-01-23 01:40:45.12	324.88	18.59	-45.2	-57.7	3.8	1.49e+00	0	61	104	0	62	14711
2026-01-23 01:40:46.13	324.64	18.62	-45.2	-57.6	3.8	1.49e+00	0	61	104	0	62	14672
2026-01-23 01:40:47.14	324.41	18.65	-45.2	-57.7	3.8	1.49e+00	0	61	104	0	62	14727
2026-01-23 01:40:48.15	324.17	18.67	-45.2	-57.6	3.8	1.49e+00	0	61	104	0	62	14685
2026-01-23 01:40:49.16	323.93	18.70	-45.2	-57.7	3.8	1.49e+00	0	61	104	0	62	14709
2026-01-23 01:40:50.17	323.70	18.72	-45.2	-57.6	3.8	1.49e+00	0	61	104	0	62	14693
2026-01-23 01:40:51.18	323.46	18.75	-45.2	-57.6	3.8	1.49e+00	0	61	104	0	62	14667
2026-01-23 01:40:52.19	323.22	18.77	-45.2	-57.6	3.8	1.49e+00	0	61	104	0	62	14670
2026-01-23 01:40:53.20	322.99	18.80	-45.2	-57.7	3.8	1.49e+00	0	61	104	0	62	14724
2026-01-23 01:40:54.21	322.75	18.82	-45.2	-57.7	3.8	1.49e+00	0	61	104	0	62	14723
2026-01-23 01:40:55.22	322.51	18.84	-45.2	-57.6	3.8	1.49e+00	0	61	104	0	62	14676
2026-01-23 01:40:56.22	322.27	18.86	-45.2	-57.6	3.8	1.49e+00	0	61	104	0	62	14681
2026-01-23 01:40:57.23	322.03	18.89	-45.2	-57.7	3.8	1.49e+00	0	62	104	0	62	14715
2026-01-23 01:40:58.24	321.79	18.91	-45.2	-57.6	3.8	1.49e+00	0	61	104	0	62	14695
2026-01-23 01:40:59.25	321.55	18.93	-45.2	-57.7	3.8	1.49e+00	0	61	104	0	62	14744
2026-01-23 01:41:00.26	321.31	18.95	-45.2	-57.6	3.8	1.49e+00	0	61	104	0	62	14698
2026-01-23 01:41:01.27	321.07	18.97	-45.2	-57.6	3.8	1.49e+00	0	61	104	0	62	14667
2026-01-23 01:41:02.28	320.83	18.99	-45.2	-57.7	3.8	1.49e+00	0	61	104	0	62	14732
2026-01-23 01:41:03.29	320.59	19.00	-45.2	-57.6	3.8	1.49e+00	0	61	104	0	62	14649
2026-01-23 01:41:04.30	320.35	19.02	-45.2	-57.6	3.8	1.49e+00	0	61	104	0	62	14669
2026-01-23 01:41:05.31	320.11	19.04	-45.2	-57.6	3.8	1.49e+00	0	61	104	0	62	14700
2026-01-23 01:41:06.32	319.87	19.06	-45.2	-57.7	3.8	1.49e+00	0	61	104	0	62	14723
2026-01-23 01:41:07.33	319.62	19.07	-45.2	-57.6	3.8	1.49e+00	0	61	104	0	62	14681
2026-01-23 01:41:08.33	319.38	19.09	-45.2	-57.6	3.8	1.49e+00	0	61	104	0	62	14695
2026-01-23 01:41:09.34	319.14	19.10	-45.2	-57.6	3.8	1.49e+00	0	61	104	0	62	14673
2026-01-23 01:41:10.35	318.90	19.12	-45.2	-57.6	3.8	1.49e+00	0	62	104	0	62	14691
2026-01-23 01:41:11.36	318.65	19.13	-45.2	-57.6	3.8	1.49e+00	0	61	104	0	62	14631
2026-01-23 01:41:12.37	318.41	19.15	-45.2	-57.6	3.8	1.49e+00	0	61	104	0	62	14708
2026-01-23 01:41:13.38	318.17	19.16	-45.2	-57.7	3.8	1.49e+00	0	62	104	0	62	14730
2026-01-23 01:41:14.39	317.92	19.17	-45.2	-57.6	3.8	1.49e+00	0	62	104	0	62	14684
2026-01-23 01:41:15.40	317.68	19.19	-45.2	-57.6	3.8	1.49e+00	0	61	104	0	62	14697
2026-01-23 01:41:16.41	317.43	19.20	-45.2	-57.6	3.8	1.49e+00	0	61	104	0	62	14693
2026-01-23 01:41:17.42	317.19	19.21	-45.2	-57.7	3.8	1.49e+00	0	61	104	0	62	14738
2026-01-23 01:41:18.43	316.94	19.22	-45.2	-57.6	3.8	1.49e+00	0	61	104	0	62	14683
2026-01-23 01:41:19.44	316.70	19.23	-45.2	-57.7	3.8	1.49e+00	0	61	104	0	62	14717
2026-01-23 01:41:20.45	316.45	19.24	-45.2	-57.6	3.8	1.49e+00	0	61	104	0	62	14676
2026-01-23 01:41:21.46	316.21	19.25	-45.2	-57.7	3.8	1.49e+00	0	61	104	0	62	14719
2026-01-23 01:41:22.47	315.96	19.26	-45.2	-57.6	3.8	1.49e+00	0	61	104	0	62	14647
2026-01-23 01:41:23.48	315.72	19.27	-45.2	-57.6	3.8	1.49e+00	0	61	104	0	62	14652
2026-01-23 01:41:24.49	315.47	19.27	-45.2	-57.6	3.8	1.49e+00	0	61	104	0	62	14689
2026-01-23 01:41:25.50	315.23	19.28	-45.2	-57.6	3.8	1.49e+00	0	62	104	0	62	14651
2026-01-23 01:41:26.51	314.98	19.29	-45.2	-57.6	3.8	1.49e+00	0	62	104	0	62	14655
2026-01-23 01:41:27.52	314.74	19.29	-45.2	-57.6	3.8	1.49e+00	0	61	104	0	62	14663
2026-01-23 01:41:28.53	314.49	19.30	-45.2	-57.6	3.8	1.49e+00	0	61	104	0	62	14603
2026-01-23 01:41:29.54	314.24	19.30	-45.2	-57.6	3.8	1.49e+00	0	61	104	0	62	14618
2026-01-23 01:41:30.55	314.00	19.31	-45.2	-57.6	3.8	1.49e+00	0	61	104	0	62	14671
2026-01-23 01:41:31.55	313.75	19.31	-45.2	-57.6	3.8	1.49e+00	0	61	104	0	62	14665
2026-01-23 01:41:32.56	313.51	19.31	-45.2	-57.6	3.8	1.49e+00	0	61	104	0	62	14681
2026-01-23 01:41:33.57	313.26	19.32	-45.2	-57.6	3.8	1.49e+00	0	61	104	0	62	14617
2026-01-23 01:41:34.58	313.01	19.32	-45.2	-57.6	3.8	1.49e+00	0	61	104	0	62	14691
2026-01-23 01:41:35.59	312.77	19.32	-45.2	-57.6	3.8	1.49e+00	0	61	104	0	62	14691
2026-01-23 01:41:36.60	312.52	19.32	-45.2	-57.6	3.8	1.49e+00	0	61	104	0	62	14615
2026-01-23 01:41:37.61	312.27	19.32	-45.2	-57.6	3.8	1.49e+00	0	61	104	0	62	14649
2026-01-23 01:41:38.62	312.03	19.32	-45.2	-57.6	3.8	1.49e+00	0	61	104	0	62	14652
2026-01-23 01:41:39.63	311.78	19.32	-45.2	-57.6	3.8	1.49e+00	0	61	104	0	62	14676
2026-01-23 01:41:40.64	311.53	19.32	-45.2	-57.6	3.8	1.49e+00	0	62	104	0	62	14703
2026-01-23 01:41:41.65	311.29	19.31	-45.2	-57.6	3.8	1.49e+00	0	61	104	0	62	14632
2026-01-23 01:41:42.66	311.04	19.31	-45.2	-57.6	3.8	1.49e+00	0	62	104	0	62	14687
2026-01-23 01:41:43.67	310.79	19.31	-45.2	-57.6	3.8	1.49e+00	0	61	104	0	62	14636
2026-01-23 01:41:44.68	310.55	19.31	-45.2	-57.6	3.8	1.49e+00	0	62	104	0	62	14701
2026-01-23 01:41:45.69	310.30	19.30	-45.2	-57.6	3.8	1.49e+00	0	61	104	0	62	14656
2026-01-23 01:41:46.70	310.06	19.30	-45.2	-57.6	3.8	1.49e+00	0	61	104	0	62	14676
2026-01-23 01:41:47.71	309.81	19.29	-45.2	-57.6	3.8	1.49e+00	0	61	104	0	62	14686
2026-01-23 01:41:48.72	309.56	19.29	-45.2	-57.6	3.8	1.49e+00	0	62	104	0	62	14665
2026-01-23 01:41:49.73	309.32	19.28	-45.2	-57.6	3.8	1.49e+00	0	62	104	0	62	14595
2026-01-23 01:41:50.74	309.07	19.27	-45.2	-57.6	3.8	1.49e+00	0	61	104	0	62	14696
2026-01-23 01:41:51.75	308.83	19.27	-45.2	-57.6	3.8	1.49e+00	0	61	104	0	62	14603
2026-01-23 01:41:52.76	308.58	19.26	-45.2	-57.6	3.8	1.49e+00	0	62	104	0	62	14703
2026-01-23 01:41:53.77	308.33	19.25	-45.2	-57.7	3.8	1.49e+00	0	61	104	0	62	14710
2026-01-23 01:41:54.78	308.09	19.24	-45.2	-57.6	3.8	1.49e+00	0	61	104	0	62	14626
2026-01-23 01:41:55.79	307.84	19.23	-45.2	-57.6	3.8	1.49e+00	0	61	104	0	62	14670
2026-01-23 01:41:56.80	307.60	19.22	-45.2	-57.6	3.8	1.49e+00	0	61	104	0	62	14662
2026-01-23 01:41:57.81	307.35	19.21	-45.2	-57.6	3.8	1.49e+00	0	61	104	0	62	14658
2026-01-23 01:41:58.82	307.11	19.20	-45.2	-57.6	3.8	1.49e+00	0	62	104	0	62	14665
2026-01-23 01:41:59.83	306.86	19.19	-45.2	-57.6	3.8	1.49e+00	0	61	104	0	62	14669
2026-01-23 01:42:00.84	306.62	19.17	-45.2	-57.6	3.8	1.49e+00	0	61	104	0	62	14647
2026-01-23 01:42:01.85	306.38	19.16	-45.2	-57.6	3.8	1.49e+00	0	62	104	0	62	14616
2026-01-23 01:42:02.86	306.13	19.15	-45.1	-57.6	3.8	1.49e+00	0	61	104	0	62	14585
2026-01-23 01:42:03.87	305.89	19.13	-45.2	-57.6	3.8	1.49e+00	0	62	104	0	62	14670
2026-01-23 01:42:04.88	305.64	19.12	-45.2	-57.6	3.8	1.49e+00	0	61	104	0	62	14655
2026-01-23 01:42:05.89	305.40	19.10	-45.2	-57.6	3.8	1.49e+00	0	61	104	0	62	14618
2026-01-23 01:42:06.90	305.16	19.09	-45.2	-57.6	3.8	1.49e+00	0	62	104	0	62	14668
2026-01-23 01:42:07.91	304.91	19.07	-45.2	-57.6	3.8	1.49e+00	0	61	104	0	62	14593
2026-01-23 01:42:08.92	304.67	19.06	-45.1	-57.6	3.8	1.49e+00	0	61	104	0	62	14676
2026-01-23 01:42:09.93	304.43	19.04	-45.2	-57.6	3.8	1.49e+00	0	61	104	0	62	14648
2026-01-23 01:42:10.94	304.19	19.02	-45.1	-57.6	3.8	1.49e+00	0	61	104	0	62	14600
2026-01-23 01:42:11.95	303.95	19.00	-45.1	-57.6	3.8	1.49e+00	0	62	104	0	62	14656
2026-01-23 01:42:12.96	303.70	18.98	-45.2	-57.7	3.8	1.49e+00	0	62	104	0	62	14743
2026-01-23 01:42:13.97	303.46	18.97	-45.1	-57.6	3.8	1.49e+00	0	61	104	0	62	14630
2026-01-23 01:42:14.98	303.22	18.95	-45.2	-57.6	3.8	1.49e+00	0	62	104	0	62	14631
2026-01-23 01:42:15.99	302.98	18.93	-45.2	-57.6	3.8	1.49e+00	0	62	104	0	62	14582
2026-01-23 01:42:17.00	302.74	18.90	-45.2	-57.6	3.8	1.49e+00	0	61	104	0	62	14624
2026-01-23 01:42:18.01	302.50	18.88	-45.2	-57.6	3.8	1.49e+00	0	62	104	0	62	14641
2026-01-23 01:42:19.02	302.26	18.86	-45.1	-57.6	3.8	1.49e+00	0	62	104	0	62	14645
2026-01-23 01:42:20.03	302.02	18.84	-45.1	-57.6	3.8	1.49e+00	0	62	104	0	62	14602
2026-01-23 01:42:21.04	301.78	18.82	-45.1	-57.6	3.8	1.49e+00	0	62	104	0	62	14648
2026-01-23 01:42:22.04	301.55	18.79	-45.1	-57.6	3.8	1.49e+00	0	61	104	0	62	14636
2026-01-23 01:42:23.05	301.31	18.77	-45.1	-57.6	3.8	1.49e+00	0	61	104	0	62	14650
2026-01-23 01:42:24.07	301.07	18.75	-45.1	-57.6	3.8	1.49e+00	0	61	104	0	62	14626
2026-01-23 01:42:25.08	300.83	18.72	-45.1	-57.6	3.8	1.49e+00	0	62	104	0	62	14602
2026-01-23 01:42:26.08	300.60	18.70	-45.1	-57.6	3.8	1.49e+00	0	62	104	0	62	14587
2026-01-23 01:42:27.10	300.36	18.67	-45.1	-57.6	3.8	1.49e+00	0	62	104	0	62	14597
2026-01-23 01:42:28.10	300.12	18.65	-45.1	-57.6	3.8	1.49e+00	0	61	104	0	62	14632
2026-01-23 01:42:29.12	299.89	18.62	-45.1	-57.6	3.8	1.49e+00	0	62	104	0	62	14584
2026-01-23 01:42:30.12	299.65	18.59	-45.1	-57.6	3.8	1.49e+00	0	61	104	0	62	14617
2026-01-23 01:42:31.13	299.42	18.56	-45.1	-57.6	3.8	1.49e+00	0	61	104	0	62	14634
2026-01-23 01:42:32.15	299.18	18.54	-45.1	-57.6	3.8	1.49e+00	0	61	104	0	62	14667
2026-01-23 01:42:33.16	298.95	18.51	-45.1	-57.6	3.8	1.49e+00	0	62	104	0	62	14622
2026-01-23 01:42:34.17	298.71	18.48	-45.1	-57.6	3.8	1.49e+00	0	61	104	0	62	14620
2026-01-23 01:42:35.18	298.48	18.45	-45.1	-57.6	3.8	1.49e+00	0	61	104	0	62	14645
2026-01-23 01:42:36.19	298.25	18.42	-45.1	-57.6	3.8	1.49e+00	0	61	104	0	62	14591
2026-01-23 01:42:37.20	298.02	18.39	-45.1	-57.6	3.8	1.49e+00	0	62	104	0	62	14603
2026-01-23 01:42:38.21	297.78	18.36	-45.1	-57.6	3.8	1.49e+00	0	61	104	0	62	14633
2026-01-23 01:42:39.22	297.55	18.33	-45.1	-57.6	3.8	1.49e+00	0	62	104	0	62	14609
2026-01-23 01:42:40.23	297.32	18.30	-45.1	-57.6	3.8	1.49e+00	0	61	104	0	62	14616
2026-01-23 01:42:41.24	297.09	18.26	-45.1	-57.6	3.8	1.49e+00	0	61	104	0	62	14581
2026-01-23 01:42:42.25	296.86	18.23	-45.1	-57.6	3.8	1.49e+00	0	61	104	0	62	14565
2026-01-23 01:42:43.26	296.63	18.20	-45.1	-57.6	3.8	1.49e+00	0	61	104	0	62	14604
2026-01-23 01:42:44.27	296.40	18.16	-45.1	-57.6	3.8	1.49e+00	0	61	104	0	62	14587
2026-01-23 01:42:45.28	296.17	18.13	-45.1	-57.6	3.8	1.49e+00	0	61	104	0	62	14604
2026-01-23 01:42:46.29	295.95	18.10	-45.1	-57.6	3.8	1.49e+00	0	61	104	0	62	14610
2026-01-23 01:42:47.30	295.72	18.06	-45.1	-57.6	3.8	1.49e+00	0	62	104	0	62	14641
2026-01-23 01:42:48.31	295.49	18.03	-45.1	-57.6	3.8	1.49e+00	0	61	104	0	62	14603
2026-01-23 01:42:49.32	295.27	17.99	-45.1	-57.6	3.8	1.49e+00	0	61	104	0	62	14565
2026-01-23 01:42:50.33	295.04	17.96	-45.1	-57.6	3.8	1.49e+00	0	61	104	0	62	14604
2026-01-23 01:42:51.34	294.81	17.92	-45.1	-57.6	3.8	1.49e+00	0	61	104	0	62	14579
2026-01-23 01:42:52.36	294.59	17.88	-45.1	-57.6	3.8	1.49e+00	0	61	104	0	62	14622
2026-01-23 01:42:53.37	294.36	17.85	-45.1	-57.5	3.8	1.49e+00	0	61	104	0	62	14528
2026-01-23 01:42:54.38	294.14	17.81	-45.1	-57.6	3.8	1.49e+00	0	61	104	0	62	14603
2026-01-23 01:42:55.39	293.92	17.77	-45.1	-57.6	3.8	1.49e+00	0	62	104	0	62	14635
2026-01-23 01:42:56.40	293.69	17.73	-45.1	-57.6	3.8	1.49e+00	0	61	104	0	62	14558
2026-01-23 01:42:57.41	293.47	17.69	-45.1	-57.6	3.8	1.49e+00	0	61	104	0	62	14580
2026-01-23 01:42:58.42	293.25	17.65	-45.1	-57.6	3.8	1.49e+00	0	61	104	0	62	14585
2026-01-23 01:42:59.43	293.03	17.62	-45.1	-57.6	3.8	1.49e+00	0	61	104	0	62	14565
2026-01-23 01:43:00.44	292.81	17.58	-45.1	-57.5	3.8	1.49e+00	0	61	104	0	62	14528
2026-01-23 01:43:01.45	292.59	17.54	-45.1	-57.6	3.8	1.49e+00	0	62	104	0	62	14582
2026-01-23 01:43:02.46	292.37	17.50	-45.1	-57.6	3.8	1.49e+00	0	61	104	0	62	14545
2026-01-23 01:43:03.47	292.15	17.45	-45.1	-57.5	3.8	1.49e+00	0	62	104	0	62	14526
2026-01-23 01:43:04.48	291.93	17.41	-45.1	-57.6	3.8	1.49e+00	0	61	104	0	62	14561
2026-01-23 01:43:05.49	291.72	17.37	-45.1	-57.6	3.8	1.49e+00	0	62	104	0	62	14545
2026-01-23 01:43:06.50	291.50	17.33	-45.1	-57.6	3.8	1.49e+00	0	61	104	0	62	14557
2026-01-23 01:43:07.51	291.28	17.29	-45.1	-57.6	3.8	1.49e+00	0	62	104	0	62	14597
2026-01-23 01:43:08.52	291.07	17.24	-45.1	-57.5	3.8	1.49e+00	0	61	104	0	62	14540
2026-01-23 01:43:09.53	290.85	17.20	-45.1	-57.5	3.8	1.49e+00	0	61	104	0	62	14500
2026-01-23 01:43:10.54	290.64	17.16	-45.1	-57.5	3.8	1.49e+00	0	61	104	0	62	14519
2026-01-23 01:43:11.55	290.43	17.12	-45.1	-57.5	3.8	1.49e+00	0	61	104	0	62	14537
2026-01-23 01:43:12.56	290.21	17.07	-45.1	-57.6	3.8	1.49e+00	0	61	104	0	62	14543
2026-01-23 01:43:13.57	290.00	17.03	-45.1	-57.6	3.8	1.49e+00	0	62	104	0	62	14544
2026-01-23 01:43:14.58	289.79	16.98	-45.1	-57.6	3.8	1.49e+00	0	61	104	0	62	14549
2026-01-23 01:43:15.59	289.58	16.94	-45.1	-57.5	3.8	1.49e+00	0	61	104	0	62	14536
2026-01-23 01:43:16.60	289.37	16.89	-45.1	-57.6	3.8	1.49e+00	0	61	104	0	62	14574
2026-01-23 01:43:17.61	289.16	16.85	-45.1	-57.5	3.8	1.49e+00	0	61	104	0	62	14528
2026-01-23 01:43:18.62	288.95	16.80	-45.1	-57.6	3.8	1.49e+00	0	61	104	0	62	14558
2026-01-23 01:43:19.63	288.74	16.76	-45.1	-57.5	3.8	1.49e+00	0	61	104	0	62	14524
2026-01-23 01:43:20.64	288.53	16.71	-45.1	-57.6	3.8	1.49e+00	0	62	104	0	62	14556
2026-01-23 01:43:21.65	288.32	16.66	-45.1	-57.5	3.8	1.49e+00	0	61	104	0	62	14513
2026-01-23 01:43:22.66	288.12	16.62	-45.1	-57.6	3.8	1.49e+00	0	61	104	0	62	14574
2026-01-23 01:43:23.67	287.91	16.57	-45.1	-57.5	3.8	1.49e+00	0	61	104	0	62	14518
2026-01-23 01:43:24.68	287.71	16.52	-45.1	-57.5	3.8	1.49e+00	0	61	104	0	62	14499
2026-01-23 01:43:25.69	287.50	16.47	-45.1	-57.5	3.8	1.49e+00	0	61	104	0	62	14531
2026-01-23 01:43:26.69	287.30	16.42	-45.1	-57.5	3.8	1.49e+00	0	62	104	0	62	14474
2026-01-23 01:43:27.70	287.10	16.38	-45.1	-57.5	3.8	1.49e+00	0	62	104	0	62	14481
2026-01-23 01:43:28.71	286.89	16.33	-45.1	-57.5	3.8	1.49e+00	0	61	104	0	62	14497
2026-01-23 01:43:29.72	286.69	16.28	-45.1	-57.6	3.8	1.49e+00	0	61	104	0	62	14557
2026-01-23 01:43:30.73	286.49	16.23	-45.1	-57.6	3.8	1.49e+00	0	62	104	0	62	14562
2026-01-23 01:43:31.74	286.29	16.18	-45.1	-57.5	3.8	1.49e+00	0	61	104	0	62	14528
2026-01-23 01:43:32.75	286.09	16.13	-45.1	-57.5	3.8	1.49e+00	0	62	104	0	62	14484
2026-01-23 01:43:33.76	285.89	16.08	-45.1	-57.6	3.8	1.49e+00	0	61	104	0	62	14563
2026-01-23 01:43:34.77	285.69	16.03	-45.1	-57.5	3.8	1.49e+00	0	62	104	0	62	14529
2026-01-23 01:43:35.78	285.49	15.98	-45.1	-57.5	3.8	1.49e+00	0	61	104	0	62	14454
2026-01-23 01:43:36.79	285.29	15.93	-45.1	-57.5	3.8	1.49e+00	0	62	104	0	62	14531
2026-01-23 01:43:37.80	285.10	15.88	-45.1	-57.5	3.8	1.49e+00	0	62	104	0	62	14529
2026-01-23 01:43:38.81	284.90	15.83	-45.1	-57.5	3.8	1.49e+00	0	62	104	0	62	14524
2026-01-23 01:43:39.82	284.71	15.78	-45.1	-57.5	3.8	1.49e+00	0	61	104	0	62	14516
2026-01-23 01:43:40.82	284.51	15.72	-45.1	-57.5	3.8	1.49e+00	0	62	104	0	62	14525
2026-01-23 01:43:41.83	284.32	15.67	-45.1	-57.5	3.8	1.49e+00	0	61	104	0	62	14498
2026-01-23 01:43:42.84	284.13	15.62	-45.1	-57.5	3.8	1.49e+00	0	62	104	0	62	14533
2026-01-23 01:43:43.85	283.93	15.57	-45.1	-57.5	3.8	1.49e+00	0	61	104	0	62	14522
2026-01-23 01:43:44.86	283.74	15.52	-45.0	-57.5	3.8	1.49e+00	0	62	104	0	62	14512
2026-01-23 01:43:45.87	283.55	15.46	-45.1	-57.5	3.8	1.49e+00	0	61	104	0	62	14539
2026-01-23 01:43:46.88	283.36	15.41	-45.1	-57.5	3.8	1.49e+00	0	62	104	0	62	14527
2026-01-23 01:43:47.89	283.17	15.36	-45.1	-57.5	3.8	1.49e+00	0	62	104	0	62	14527
2026-01-23 01:43:48.90	282.98	15.30	-45.0	-57.5	3.8	1.49e+00	0	61	104	0	62	14523
2026-01-23 01:43:49.91	282.79	15.25	-45.1	-57.5	3.8	1.49e+00	0	62	104	0	62	14521
2026-01-23 01:43:50.92	282.60	15.20	-45.1	-57.5	3.8	1.49e+00	0	62	104	0	62	14535
2026-01-23 01:43:51.93	282.42	15.14	-45.1	-57.5	3.8	1.49e+00	0	61	104	0	62	14502
2026-01-23 01:43:52.94	282.23	15.09	-45.1	-57.5	3.8	1.49e+00	0	61	104	0	62	14521
2026-01-23 01:43:53.95	282.04	15.03	-45.0	-57.5	3.8	1.49e+00	0	61	104	0	62	14476
2026-01-23 01:43:54.96	281.86	14.98	-45.1	-57.5	3.8	1.49e+00	0	61	104	0	62	14535
2026-01-23 01:43:55.97	281.67	14.93	-45.0	-57.5	3.8	1.49e+00	0	61	104	0	62	14514
2026-01-23 01:43:56.98	281.49	14.87	-45.0	-57.5	3.8	1.49e+00	0	61	104	0	62	14537
2026-01-23 01:43:57.99	281.31	14.82	-45.1	-57.5	3.8	1.49e+00	0	62	104	0	62	14529
2026-01-23 01:43:59.00	281.12	14.76	-45.0	-57.5	3.8	1.49e+00	0	61	104	0	62	14507
2026-01-23 01:44:00.02	280.94	14.71	-45.1	-57.5	3.8	1.49e+00	0	61	104	0	62	14456
2026-01-23 01:44:01.02	280.76	14.65	-45.1	-57.5	3.8	1.49e+00	0	61	104	0	62	14478
2026-01-23 01:44:02.04	280.58	14.59	-45.0	-57.5	3.8	1.49e+00	0	61	104	0	62	14488
2026-01-23 01:44:03.05	280.40	14.54	-45.1	-57.5	3.8	1.49e+00	0	61	104	0	62	14455
2026-01-23 01:44:04.06	280.22	14.48	-45.0	-57.5	3.8	1.49e+00	0	61	104	0	62	14523
2026-01-23 01:44:05.06	280.04	14.43	-45.0	-57.5	3.8	1.49e+00	0	62	104	0	62	14454
2026-01-23 01:44:06.08	279.86	14.37	-45.0	-57.5	3.8	1.49e+00	0	61	104	0	62	14490
2026-01-23 01:44:07.09	279.69	14.31	-45.0	-57.5	3.8	1.49e+00	0	62	104	0	62	14485
2026-01-23 01:44:08.10	279.51	14.26	-45.0	-57.5	3.8	1.49e+00	0	62	104	0	62	14501
2026-01-23 01:44:09.11	279.33	14.20	-45.0	-57.5	3.8	1.49e+00	0	62	104	0	62	14455
2026-01-23 01:44:10.12	279.16	14.14	-45.0	-57.5	3.8	1.49e+00	0	61	104	0	62	14479
2026-01-23 01:44:11.13	278.98	14.09	-45.0	-57.5	3.8	1.49e+00	0	62	104	0	62	14459
2026-01-23 01:44:12.14	278.81	14.03	-45.0	-57.5	3.8	1.49e+00	0	61	104	0	62	14464
2026-01-23 01:44:13.15	278.64	13.97	-45.0	-57.5	3.8	1.49e+00	0	62	104	0	62	14502
2026-01-23 01:44:14.16	278.47	13.92	-45.0	-57.5	3.8	1.49e+00	0	62	104	0	62	14518
2026-01-23 01:44:15.17	278.29	13.86	-45.0	-57.5	3.8	1.49e+00	0	61	104	0	62	14500
2026-01-23 01:44:16.18	278.12	13.80	-45.0	-57.5	3.8	1.49e+00	0	61	104	0	62	14468
2026-01-23 01:44:17.19	277.95	13.74	-45.0	-57.5	3.8	1.49e+00	0	62	104	0	62	14483
2026-01-23 01:44:18.20	277.78	13.69	-45.0	-57.5	3.8	1.49e+00	0	62	104	0	62	14447
2026-01-23 01:44:19.21	277.61	13.63	-45.0	-57.5	3.8	1.49e+00	0	61	104	0	62	14476
2026-01-23 01:44:20.22	277.45	13.57	-45.0	-57.5	3.8	1.49e+00	0	62	104	0	62	14438
2026-01-23 01:44:21.23	277.28	13.51	-45.0	-57.5	3.8	1.49e+00	0	62	104	0	62	14491
2026-01-23 01:44:22.24	277.11	13.45	-45.0	-57.5	3.8	1.49e+00	0	61	104	0	62	14404
2026-01-23 01:44:23.25	276.94	13.39	-45.0	-57.5	3.8	1.49e+00	0	62	104	0	62	14495
2026-01-23 01:44:24.26	276.78	13.34	-45.0	-57.5	3.8	1.49e+00	0	62	104	0	62	14447
2026-01-23 01:44:25.27	276.61	13.28	-45.0	-57.5	3.8	1.49e+00	0	62	104	0	62	14444
2026-01-23 01:44:26.28	276.45	13.22	-45.0	-57.5	3.8	1.49e+00	0	62	104	0	62	14447
2026-01-23 01:44:27.29	276.29	13.16	-45.0	-57.5	3.8	1.49e+00	0	62	104	0	62	14458
2026-01-23 01:44:28.30	276.12	13.10	-45.0	-57.5	3.8	1.49e+00	0	62	104	0	62	14421
2026-01-23 01:44:29.31	275.96	13.04	-45.0	-57.5	3.8	1.49e+00	0	62	104	0	62	14501
2026-01-23 01:44:30.32	275.80	12.98	-45.0	-57.5	3.8	1.49e+00	0	61	104	0	62	14513
2026-01-23 01:44:31.33	275.64	12.93	-45.0	-57.5	3.8	1.49e+00	0	61	104	0	62	14453
2026-01-23 01:44:32.34	275.48	12.87	-45.0	-57.5	3.8	1.49e+00	0	61	104	0	62	14448
2026-01-23 01:44:33.35	275.32	12.81	-45.0	-57.5	3.8	1.49e+00	0	61	104	0	62	14471
2026-01-23 01:44:34.35	275.16	12.75	-45.0	-57.5	3.8	1.49e+00	0	61	104	0	62	14430
2026-01-23 01:44:35.35	275.00	12.69	-45.0	-57.5	3.8	1.49e+00	0	61	104	0	62	14377
2026-01-23 01:44:36.36	274.84	12.63	-45.0	-57.5	3.8	1.49e+00	0	61	104	0	62	14469
2026-01-23 01:44:37.38	274.69	12.57	-45.0	-57.5	3.8	1.49e+00	0	62	104	0	62	14498
2026-01-23 01:44:38.39	274.53	12.51	-45.0	-57.5	3.8	1.49e+00	0	61	104	0	62	14418
2026-01-23 01:44:39.40	274.37	12.45	-45.0	-57.5	3.8	1.49e+00	0	61	104	0	62	14443
2026-01-23 01:44:40.41	274.22	12.39	-45.0	-57.5	3.8	1.49e+00	0	62	104	0	62	14424
2026-01-23 01:44:41.42	274.06	12.33	-45.0	-57.5	3.8	1.49e+00	0	61	104	0	62	14404
2026-01-23 01:44:42.43	273.91	12.27	-45.0	-57.5	3.8	1.49e+00	0	62	104	0	62	14452
2026-01-23 01:44:43.43	273.76	12.21	-45.0	-57.5	3.8	1.49e+00	0	61	104	0	62	14487
2026-01-23 01:44:44.45	273.60	12.15	-45.0	-57.5	3.8	1.49e+00	0	62	104	0	62	14424
2026-01-23 01:44:45.46	273.45	12.09	-45.0	-57.5	3.8	1.49e+00	0	61	104	0	62	14443
2026-01-23 01:44:46.47	273.30	12.03	-45.0	-57.5	3.8	1.49e+00	0	61	104	0	62	14428
2026-01-23 01:44:47.48	273.15	11.97	-45.0	-57.5	3.8	1.49e+00	0	62	104	0	62	14382
2026-01-23 01:44:48.49	273.00	11.91	-45.0	-57.5	3.8	1.49e+00	0	61	104	0	62	14415
2026-01-23 01:44:49.50	272.85	11.85	-45.0	-57.4	3.8	1.49e+00	0	61	104	0	62	14361
2026-01-23 01:44:50.51	272.70	11.79	-45.0	-57.5	3.8	1.49e+00	0	61	104	0	62	14445
2026-01-23 01:44:51.52	272.55	11.73	-45.0	-57.5	3.8	1.49e+00	0	61	104	0	62	14442
2026-01-23 01:44:52.53	272.40	11.67	-45.0	-57.4	3.8	1.49e+00	0	62	104	0	62	14366
2026-01-23 01:44:53.54	272.25	11.61	-45.0	-57.5	3.8	1.49e+00	0	61	104	0	62	14416
2026-01-23 01:44:54.55	272.11	11.55	-45.0	-57.5	3.8	1.49e+00	0	61	104	0	62	14446
2026-01-23 01:44:55.56	271.96	11.49	-45.0	-57.5	3.8	1.49e+00	0	62	104	0	62	14445
2026-01-23 01:44:56.57	271.82	11.43	-45.0	-57.5	3.8	1.49e+00	0	61	104	0	62	14388
2026-01-23 01:44:57.58	271.67	11.37	-45.0	-57.5	3.8	1.49e+00	0	61	104	0	62	14405
2026-01-23 01:44:58.59	271.53	11.31	-45.0	-57.5	3.8	1.49e+00	0	62	104	0	62	14404
2026-01-23 01:44:59.60	271.38	11.25	-45.0	-57.5	3.8	1.49e+00	0	62	104	0	62	14441
2026-01-23 01:45:00.61	271.24	11.19	-45.0	-57.4	3.8	1.49e+00	0	61	104	0	62	14351
2026-01-23 01:45:01.62	271.10	11.13	-45.0	-57.5	3.8	1.49e+00	0	61	104	0	61	15261
2026-01-23 01:45:02.63	270.96	11.07	-45.0	-57.5	3.8	1.49e+00	0	62	104	0	61	15230
2026-01-23 01:45:03.64	270.82	11.01	-44.9	-57.5	3.8	1.49e+00	0	61	104	0	61	15260
2026-01-23 01:45:04.65	270.68	10.95	-45.0	-57.4	3.8	1.49e+00	0	61	104	0	61	15183
2026-01-23 01:45:05.66	270.54	10.89	-45.0	-57.4	3.8	1.49e+00	0	62	104	0	61	15203
2026-01-23 01:45:06.67	270.40	10.83	-45.0	-57.5	3.8	1.49e+00	0	62	104	0	61	15244
2026-01-23 01:45:07.68	270.26	10.76	-44.9	-57.4	3.8	1.49e+00	0	61	104	0	61	15184
2026-01-23 01:45:08.69	270.12	10.70	-44.9	-57.4	3.8	1.49e+00	0	62	104	0	61	15188
2026-01-23 01:45:09.70	269.98	10.64	-44.9	-57.4	3.8	1.49e+00	0	62	104	0	61	15129
2026-01-23 01:45:10.71	269.84	10.58	-44.9	-57.4	3.8	1.49e+00	0	61	104	0	61	15176
2026-01-23 01:45:11.72	269.71	10.52	-44.9	-57.4	3.8	1.49e+00	0	61	104	0	61	15199
2026-01-23 01:45:12.73	269.57	10.46	-44.9	-57.4	3.8	1.49e+00	0	62	104	0	61	15206
2026-01-23 01:45:13.74	269.44	10.40	-44.9	-57.4	3.8	1.49e+00	0	61	104	0	61	15188
2026-01-23 01:45:14.75	269.30	10.34	-44.9	-57.4	3.8	1.49e+00	0	62	104	0	61	15189
2026-01-23 01:45:15.76	269.17	10.28	-44.9	-57.4	3.8	1.49e+00	0	61	104	0	61	15175
2026-01-23 01:45:16.77	269.03	10.22	-44.9	-57.4	3.8	1.49e+00	0	61	104	0	61	15177
2026-01-23 01:45:17.78	268.90	10.16	-44.9	-57.4	3.8	1.49e+00	0	62	104	0	61	15159
2026-01-23 01:45:18.79	268.77	10.10	-44.9	-57.4	3.8	1.49e+00	0	61	104	0	61	15160
2026-01-23 01:45:19.80	268.64	10.04	-44.9	-57.4	3.8	1.49e+00	0	61	104	0	61	15176
2026-01-23 01:45:20.81	268.50	9.98	-44.9	-57.4	3.8	1.49e+00	0	62	104	0	61	15183
2026-01-23 01:45:21.82	268.37	9.92	-44.9	-57.5	3.8	1.49e+00	0	62	104	0	61	15254
2026-01-23 01:45:22.83	268.24	9.85	-44.9	-57.4	3.8	1.49e+00	0	62	104	0	61	15190
2026-01-23 01:45:23.84	268.11	9.79	-44.9	-57.4	3.8	1.49e+00	0	61	104	0	61	15121
2026-01-23 01:45:24.85	267.98	9.73	-44.9	-57.4	3.8	1.49e+00	0	62	104	0	61	15120
2026-01-23 01:45:25.86	267.85	9.67	-44.9	-57.4	3.8	1.49e+00	0	62	104	0	61	15186
2026-01-23 01:45:26.87	267.73	9.61	-44.9	-57.4	3.8	1.49e+00	0	62	104	0	61	15127
2026-01-23 01:45:27.88	267.60	9.55	-44.9	-57.4	3.8	1.49e+00	0	62	104	0	61	15103
2026-01-23 01:45:28.89	267.47	9.49	-44.9	-57.4	3.8	1.49e+00	0	62	104	0	61	15176
2026-01-23 01:45:29.90	267.34	9.43	-44.9	-57.4	3.8	1.49e+00	0	62	104	0	61	15176
2026-01-23 01:45:30.91	267.22	9.37	-44.9	-57.4	3.8	1.49e+00	0	61	104	0	61	15095
2026-01-23 01:45:31.92	267.09	9.31	-44.9	-57.4	3.8	1.49e+00	0	62	104	0	61	15114
2026-01-23 01:45:32.93	266.97	9.25	-44.9	-57.4	3.8	1.49e+00	0	61	104	0	61	15143
2026-01-23 01:45:33.94	266.84	9.19	-44.9	-57.4	3.8	1.49e+00	0	61	104	0	61	15116
2026-01-23 01:45:34.95	266.72	9.13	-44.9	-57.4	3.8	1.49e+00	0	61	104	0	61	15220
2026-01-23 01:45:35.96	266.60	9.07	-44.9	-57.4	3.8	1.49e+00	0	62	104	0	61	15151
2026-01-23 01:45:36.98	266.47	9.01	-44.9	-57.4	3.8	1.49e+00	0	62	104	0	61	15148
2026-01-23 01:45:37.99	266.35	8.95	-44.9	-57.4	3.8	1.49e+00	0	62	104	0	61	15171
2026-01-23 01:45:39.00	266.23	8.88	-44.9	-57.4	3.8	1.49e+00	0	62	104	0	61	15074
2026-01-23 01:45:40.01	266.11	8.82	-44.9	-57.4	3.8	1.49e+00	0	62	104	0	61	15142
2026-01-23 01:45:41.01	265.99	8.76	-44.9	-57.4	3.8	1.49e+00	0	61	104	0	61	15188
2026-01-23 01:45:42.03	265.87	8.70	-44.9	-57.4	3.8	1.49e+00	0	61	104	0	61	15165
2026-01-23 01:45:43.04	265.75	8.64	-44.9	-57.4	3.8	1.49e+00	0	62	104	0	61	15169
2026-01-23 01:45:44.05	265.63	8.58	-44.9	-57.4	3.8	1.49e+00	0	61	104	0	61	15120
2026-01-23 01:45:45.05	265.51	8.52	-44.9	-57.4	3.8	1.49e+00	0	62	104	0	61	15080
2026-01-23 01:45:46.06	265.39	8.46	-44.9	-57.4	3.8	1.49e+00	0	61	104	0	61	15121
2026-01-23 01:45:47.07	265.27	8.40	-44.9	-57.4	3.8	1.49e+00	0	62	104	0	61	15095
2026-01-23 01:45:48.08	265.15	8.34	-44.9	-57.4	3.8	1.49e+00	0	62	104	0	61	15151
2026-01-23 01:45:49.09	265.04	8.28	-44.9	-57.4	3.8	1.49e+00	0	62	104	0	61	15152
2026-01-23 01:45:50.10	264.92	8.22	-44.9	-57.4	3.8	1.49e+00	0	61	104	0	61	15058
2026-01-23 01:45:51.11	264.81	8.16	-44.9	-57.4	3.8	1.49e+00	0	61	104	0	61	15103
2026-01-23 01:45:52.12	264.69	8.10	-44.9	-57.4	3.8	1.49e+00	0	62	104	0	61	15119
2026-01-23 01:45:53.13	264.58	8.04	-44.9	-57.4	3.8	1.49e+00	0	62	104	0	61	15081
2026-01-23 01:45:54.14	264.46	7.98	-44.9	-57.4	3.8	1.49e+00	0	62	104	0	61	15125
2026-01-23 01:45:55.15	264.35	7.92	-44.9	-57.4	3.8	1.49e+00	0	62	104	0	61	15107
2026-01-23 01:45:56.15	264.23	7.86	-44.9	-57.4	3.8	1.49e+00	0	61	104	0	61	15120
2026-01-23 01:45:57.17	264.12	7.80	-44.9	-57.4	3.8	1.49e+00	0	62	104	0	61	15093
2026-01-23 01:45:58.17	264.01	7.74	-44.9	-57.4	3.8	1.49e+00	0	62	104	0	61	15111
2026-01-23 01:45:59.18	263.90	7.68	-44.9	-57.4	3.8	1.49e+00	0	61	104	0	61	15081
2026-01-23 01:46:00.19	263.79	7.62	-44.9	-57.4	3.8	1.49e+00	0	62	104	0	61	15093
2026-01-23 01:46:01.20	263.67	7.56	-44.9	-57.4	3.8	1.49e+00	0	62	104	0	61	15064
2026-01-23 01:46:02.21	263.56	7.50	-44.9	-57.4	3.8	1.49e+00	0	61	104	0	61	15064
2026-01-23 01:46:03.22	263.45	7.44	-44.9	-57.4	3.8	1.49e+00	0	62	104	0	61	15071
2026-01-23 01:46:04.23	263.34	7.38	-44.9	-57.3	3.8	1.49e+00	0	62	104	0	61	15040
2026-01-23 01:46:05.24	263.23	7.32	-44.9	-57.4	3.8	1.49e+00	0	61	104	0	61	15077
2026-01-23 01:46:06.25	263.13	7.27	-44.9	-57.3	3.8	1.49e+00	0	62	104	0	61	15000
2026-01-23 01:46:07.26	263.02	7.21	-44.9	-57.3	3.8	1.49e+00	0	62	104	0	61	15021
2026-01-23 01:46:08.27	262.91	7.15	-44.9	-57.3	3.8	1.49e+00	0	62	104	0	61	15019
2026-01-23 01:46:09.28	262.80	7.09	-44.9	-57.3	3.8	1.49e+00	0	62	104	0	61	15034
2026-01-23 01:46:10.29	262.69	7.03	-44.8	-57.3	3.8	1.49e+00	0	62	104	0	61	15010
2026-01-23 01:46:11.30	262.59	6.97	-44.8	-57.3	3.8	1.49e+00	0	62	104	0	61	15048
2026-01-23 01:46:12.31	262.48	6.91	-44.8	-57.3	3.8	1.49e+00	0	62	104	0	61	15040
2026-01-23 01:46:13.32	262.38	6.85	-44.8	-57.3	3.8	1.49e+00	0	62	104	0	61	15031
2026-01-23 01:46:14.33	262.27	6.79	-44.8	-57.3	3.8	1.49e+00	0	62	104	0	61	14990
2026-01-23 01:46:15.34	262.17	6.73	-44.8	-57.3	3.8	1.49e+00	0	62	104	0	61	15042
2026-01-23 01:46:16.35	262.06	6.67	-44.8	-57.3	3.8	1.49e+00	0	62	104	0	61	15021
2026-01-23 01:46:17.36	261.96	6.61	-44.8	-57.3	3.8	1.49e+00	0	62	104	0	61	15041
2026-01-23 01:46:18.36	261.86	6.55	-44.8	-57.3	3.8	1.49e+00	0	62	104	0	61	15004
2026-01-23 01:46:19.37	261.75	6.50	-44.8	-57.3	3.8	1.49e+00	0	62	104	0	61	14959
2026-01-23 01:46:20.38	261.65	6.44	-44.8	-57.3	3.8	1.49e+00	0	62	104	0	61	14987
2026-01-23 01:46:21.39	261.55	6.38	-44.8	-57.3	3.8	1.49e+00	0	62	104	0	61	14980
2026-01-23 01:46:22.40	261.45	6.32	-44.8	-57.3	3.8	1.49e+00	0	62	104	0	61	15002
2026-01-23 01:46:23.41	261.34	6.26	-44.8	-57.3	3.8	1.49e+00	0	62	104	0	61	14970
2026-01-23 01:46:24.42	261.24	6.20	-44.8	-57.3	3.8	1.49e+00	0	62	104	0	61	14963
2026-01-23 01:46:25.43	261.14	6.14	-44.8	-57.3	3.8	1.49e+00	0	62	104	0	61	14961
2026-01-23 01:46:26.44	261.04	6.08	-44.8	-57.3	3.8	1.49e+00	0	61	104	0	61	15026
2026-01-23 01:46:27.45	260.94	6.03	-44.8	-57.3	3.8	1.49e+00	0	62	104	0	61	14940
2026-01-23 01:46:28.46	260.84	5.97	-44.8	-57.3	3.8	1.49e+00	0	62	104	0	61	14951
2026-01-23 01:46:29.48	260.74	5.91	-44.8	-57.3	3.8	1.49e+00	0	61	104	0	61	14982
2026-01-23 01:46:30.49	260.64	5.85	-44.8	-57.3	3.8	1.49e+00	0	62	104	0	61	14990
2026-01-23 01:46:31.50	260.55	5.79	-44.8	-57.3	3.8	1.49e+00	0	62	104	0	61	14981
2026-01-23 01:46:32.51	260.45	5.73	-44.8	-57.3	3.8	1.49e+00	0	62	104	0	61	14949
2026-01-23 01:46:33.52	260.35	5.67	-44.8	-57.3	3.8	1.49e+00	0	62	104	0	61	14945
2026-01-23 01:46:34.53	260.25	5.62	-44.8	-57.3	3.8	1.49e+00	0	62	104	0	61	14958
2026-01-23 01:46:35.54	260.16	5.56	-44.8	-57.3	3.8	1.49e+00	0	62	104	0	61	14985
2026-01-23 01:46:36.55	260.06	5.50	-44.8	-57.3	3.8	1.49e+00	0	62	104	0	61	14926
2026-01-23 01:46:37.56	259.97	5.44	-44.8	-57.3	3.8	1.49e+00	0	62	104	0	61	14946
2026-01-23 01:46:38.57	259.87	5.38	-44.8	-57.3	3.8	1.49e+00	0	61	104	0	61	14934
2026-01-23 01:46:39.58	259.78	5.33	-44.8	-57.3	3.8	1.49e+00	0	62	104	0	61	14899
2026-01-23 01:46:40.59	259.68	5.27	-44.8	-57.3	3.8	1.49e+00	0	62	104	0	61	14968
2026-01-23 01:46:41.60	259.59	5.21	-44.8	-57.3	3.8	1.49e+00	0	62	104	0	61	14900
2026-01-23 01:46:42.61	259.49	5.15	-44.8	-57.3	3.8	1.49e+00	0	61	104	0	61	14931
2026-01-23 01:46:43.62	259.40	5.09	-44.8	-57.3	3.8	1.49e+00	0	62	104	0	61	14901
2026-01-23 01:46:44.63	259.31	5.04	-44.8	-57.3	3.8	1.49e+00	0	62	104	0	61	14968
2026-01-23 01:46:45.64	259.21	4.98	-44.8	-57.3	3.8	1.49e+00	0	61	104	0	61	14921
2026-01-23 01:46:46.65	259.12	4.92	-44.8	-57.3	3.8	1.49e+00	0	62	104	0	61	14924
2026-01-23 01:46:47.66	259.03	4.86	-44.8	-57.3	3.8	1.49e+00	0	62	104	0	61	14899
2026-01-23 01:46:48.67	258.94	4.81	-44.8	-57.2	3.8	1.49e+00	0	62	104	0	61	14870
2026-01-23 01:46:49.68	258.85	4.75	-44.8	-57.3	3.8	1.49e+00	0	61	104	0	61	14924
2026-01-23 01:46:50.69	258.75	4.69	-44.8	-57.3	3.8	1.49e+00	0	62	104	0	61	14925
2026-01-23 01:46:51.70	258.66	4.63	-44.8	-57.3	3.8	1.49e+00	0	61	104	0	61	14894
2026-01-23 01:46:52.71	258.57	4.58	-44.8	-57.3	3.8	1.49e+00	0	61	104	0	61	14923
2026-01-23 01:46:53.72	258.48	4.52	-44.8	-57.2	3.8	1.49e+00	0	62	104	0	61	14831
2026-01-23 01:46:54.74	258.39	4.46	-44.7	-57.3	3.8	1.49e+00	0	62	104	0	61	14899
2026-01-23 01:46:55.75	258.31	4.41	-44.7	-57.2	3.8	1.49e+00	0	62	104	0	61	14808
2026-01-23 01:46:56.76	258.22	4.35	-44.7	-57.2	3.8	1.49e+00	0	62	104	0	61	14846
2026-01-23 01:46:57.77	258.13	4.29	-44.7	-57.2	3.8	1.49e+00	0	62	104	0	61	14841
2026-01-23 01:46:58.78	258.04	4.23	-44.7	-57.2	3.8	1.49e+00	0	62	104	0	61	14812
2026-01-23 01:46:59.79	257.95	4.18	-44.7	-57.2	3.8	1.49e+00	0	62	104	0	61	14834
2026-01-23 01:47:00.80	257.87	4.12	-44.7	-57.2	3.8	1.49e+00	0	61	104	0	61	14798
2026-01-23 01:47:01.81	257.78	4.06	-44.7	-57.2	3.8	1.49e+00	0	62	104	0	61	14803
2026-01-23 01:47:02.81	257.69	4.01	-44.7	-57.2	3.8	1.49e+00	0	62	104	0	61	14794
2026-01-23 01:47:03.83	257.61	3.95	-44.7	-57.2	3.8	1.49e+00	0	62	104	0	61	14722
2026-01-23 01:47:04.83	257.52	3.90	-44.7	-57.2	3.8	1.49e+00	0	61	104	0	61	14802
2026-01-23 01:47:05.85	257.43	3.84	-44.7	-57.2	3.8	1.49e+00	0	62	104	0	61	14776
2026-01-23 01:47:06.85	257.35	3.78	-44.7	-57.2	3.8	1.49e+00	0	62	104	0	61	14743
2026-01-23 01:47:07.87	257.26	3.73	-44.7	-57.2	3.8	1.49e+00	0	62	104	0	61	14731
2026-01-23 01:47:08.88	257.18	3.67	-44.7	-57.2	3.8	1.49e+00	0	62	104	0	61	14731
2026-01-23 01:47:09.89	257.09	3.61	-44.7	-57.2	3.8	1.49e+00	0	62	104	0	61	14750
2026-01-23 01:47:10.89	257.01	3.56	-44.7	-57.2	3.8	1.49e+00	0	61	104	0	61	14733
2026-01-23 01:47:11.90	256.93	3.50	-44.6	-57.2	3.8	1.49e+00	0	62	104	0	61	14783
2026-01-23 01:47:12.91	256.84	3.44	-44.6	-57.2	3.8	1.49e+00	0	62	104	0	61	14727
2026-01-23 01:47:13.93	256.76	3.39	-44.6	-57.2	3.8	1.49e+00	0	61	104	0	61	14741
2026-01-23 01:47:14.94	256.68	3.33	-44.6	-57.2	3.8	1.49e+00	0	62	104	0	61	14718
2026-01-23 01:47:15.95	256.60	3.28	-44.6	-57.1	3.8	1.49e+00	0	62	104	0	61	14698
2026-01-23 01:47:16.96	256.51	3.22	-44.6	-57.1	3.8	1.49e+00	0	62	104	0	61	14643
2026-01-23 01:47:17.97	256.43	3.16	-44.6	-57.1	3.8	1.49e+00	0	61	104	0	61	14638
2026-01-23 01:47:18.98	256.35	3.11	-44.6	-57.1	3.8	1.49e+00	0	62	104	0	61	14669
2026-01-23 01:47:19.99	256.27	3.05	-44.6	-57.1	3.8	1.49e+00	0	62	104	0	61	14634
2026-01-23 01:47:21.00	256.19	3.00	-44.6	-57.1	3.8	1.49e+00	0	62	104	0	61	14620
2026-01-23 01:47:22.01	256.11	2.94	-44.6	-57.1	3.8	1.49e+00	0	62	104	0	61	14643
2026-01-23 01:47:23.02	256.03	2.89	-44.6	-57.1	3.8	1.49e+00	0	62	104	0	61	14573
2026-01-23 01:47:24.03	255.95	2.83	-44.6	-57.1	3.8	1.49e+00	0	61	104	0	61	14584
2026-01-23 01:47:25.04	255.87	2.78	-44.5	-57.1	3.8	1.49e+00	0	62	104	0	61	14551
2026-01-23 01:47:26.05	255.79	2.72	-44.6	-57.0	3.8	1.49e+00	0	62	104	0	61	14524
2026-01-23 01:47:27.06	255.71	2.67	-44.6	-57.1	3.8	1.49e+00	0	62	104	0	61	14559
2026-01-23 01:47:28.07	255.63	2.61	-44.6	-57.1	3.8	1.49e+00	0	61	104	0	61	14582
2026-01-23 01:47:29.08	255.55	2.55	-44.6	-57.1	3.8	1.49e+00	0	61	104	0	61	14567
2026-01-23 01:47:30.09	255.48	2.50	-44.6	-57.1	3.8	1.49e+00	0	62	104	0	61	14595
2026-01-23 01:47:31.10	255.40	2.44	-44.6	-57.0	3.8	1.49e+00	0	62	104	0	61	14531
2026-01-23 01:47:32.11	255.32	2.39	-44.6	-57.1	3.8	1.49e+00	0	62	104	0	61	14564
2026-01-23 01:47:33.12	255.24	2.33	-44.6	-57.0	3.8	1.49e+00	0	62	104	0	61	14539
2026-01-23 01:47:34.13	255.17	2.28	-44.5	-57.0	3.8	1.49e+00	0	62	104	0	61	14518
2026-01-23 01:47:35.14	255.09	2.23	-44.5	-57.0	3.8	1.49e+00	0	62	104	0	61	14476
2026-01-23 01:47:36.15	255.02	2.17	-44.5	-57.0	3.8	1.49e+00	0	62	104	0	61	14534
2026-01-23 01:47:37.16	254.94	2.12	-44.5	-57.0	3.8	1.49e+00	0	62	104	0	61	14461
2026-01-23 01:47:38.17	254.86	2.06	-44.5	-57.0	3.8	1.49e+00	0	62	104	0	61	14479
2026-01-23 01:47:39.18	254.79	2.01	-44.5	-57.0	3.8	1.49e+00	0	62	104	0	61	14433
2026-01-23 01:47:40.19	254.71	1.95	-44.5	-57.0	3.8	1.49e+00	0	62	104	0	61	14494

#Closed at: 2026-01-23 01:47:40
#Recorded file [0 MB]: D:/lorett/data/31039_260123_043652.dat