passes_logs/2026/01/23/R2.0S_Moscow/R2.0S_Moscow__20260123_143632_FENGYUN_3E_rec.log

#Pass ID: 20260123_143632_FENGYUN 3E
#Satellite: FENGYUN 3E
#Configuration: FENGYUN 3E
#almurnet v.1.7.20251203
#Start time: 2026-01-23 14:36:32

#Version: 2.2.20231116
#Station: R2.0S_Moscow
#Location: 37.707566 lon 55.798166 lat
#TLE: 1 49008U 21062A   26022.96857035  .00000014  00000+0  27449-4 0  9991
#TLE: 2 49008  98.7488  28.0032 0002359 122.8887 237.2516 14.19886951235971

#Time	Az	El	Level	Level2	SNR	BER	BlckErr	Temp	State	Recorded	gain1	gain2
2026-01-23 14:36:32.18	172.49	1.97	-43.5	-54.6	3.8	8.47e-01	0	52	0	0	58	12242
2026-01-23 14:36:33.19	172.51	2.03	-43.5	-54.5	3.8	8.46e-01	0	52	104	0	58	12208
2026-01-23 14:36:34.20	172.54	2.09	-43.5	-54.5	3.8	8.46e-01	0	52	104	0	58	12232
2026-01-23 14:36:35.21	172.56	2.16	-43.5	-54.6	3.8	8.46e-01	0	53	104	0	58	12244
2026-01-23 14:36:36.22	172.58	2.22	-43.5	-54.6	3.8	8.46e-01	0	53	104	0	58	12241
2026-01-23 14:36:37.23	172.60	2.29	-43.5	-54.6	3.8	8.45e-01	0	52	104	0	58	12291
2026-01-23 14:36:38.24	172.62	2.35	-43.5	-54.6	3.8	8.46e-01	0	53	104	0	58	12259
2026-01-23 14:36:39.25	172.64	2.42	-43.5	-54.6	3.8	8.45e-01	0	53	104	0	58	12269
2026-01-23 14:36:40.26	172.66	2.48	-43.5	-54.5	3.8	8.47e-01	0	53	104	0	58	12227
2026-01-23 14:36:41.27	172.68	2.55	-43.5	-54.5	3.8	8.46e-01	0	53	104	0	58	12227
2026-01-23 14:36:42.28	172.71	2.61	-43.5	-54.5	3.8	8.46e-01	0	53	104	0	58	12215
2026-01-23 14:36:43.29	172.73	2.68	-43.5	-54.6	3.8	8.46e-01	0	53	104	0	58	12236
2026-01-23 14:36:44.30	172.75	2.75	-43.5	-54.6	3.8	8.45e-01	0	53	104	0	58	12242
2026-01-23 14:36:45.31	172.77	2.81	-43.5	-54.6	3.8	8.46e-01	0	53	104	0	58	12263
2026-01-23 14:36:46.32	172.79	2.88	-43.5	-54.6	3.8	8.45e-01	0	53	104	0	58	12260
2026-01-23 14:36:47.33	172.82	2.94	-43.5	-54.5	3.8	8.46e-01	0	53	104	0	58	12214
2026-01-23 14:36:48.34	172.84	3.01	-43.5	-54.6	3.8	8.47e-01	0	53	104	0	58	12240
2026-01-23 14:36:49.36	172.86	3.08	-43.5	-54.6	3.8	8.47e-01	0	54	104	0	58	12240
2026-01-23 14:36:50.36	172.88	3.14	-43.5	-54.5	3.8	8.46e-01	0	54	104	0	58	12168
2026-01-23 14:36:51.37	172.90	3.21	-43.5	-54.5	3.8	8.46e-01	0	54	104	0	58	12208
2026-01-23 14:36:52.38	172.93	3.28	-43.5	-54.5	3.8	8.46e-01	0	54	104	0	57	12938
2026-01-23 14:36:53.39	172.95	3.35	-43.5	-54.5	3.8	8.47e-01	0	54	104	0	57	12928
2026-01-23 14:36:54.40	172.97	3.41	-43.5	-54.6	3.8	8.46e-01	0	54	104	0	57	12963
2026-01-23 14:36:55.41	172.99	3.48	-43.5	-54.5	3.8	8.45e-01	0	54	104	0	57	12893
2026-01-23 14:36:56.42	173.02	3.55	-43.5	-54.5	3.8	8.46e-01	0	54	104	0	57	12919
2026-01-23 14:36:57.43	173.04	3.62	-43.5	-54.5	3.8	8.45e-01	0	54	104	0	57	12951
2026-01-23 14:36:58.44	173.06	3.68	-43.5	-54.5	3.8	8.46e-01	0	54	104	0	57	12938
2026-01-23 14:36:59.46	173.09	3.75	-43.5	-54.5	3.8	8.47e-01	0	54	104	0	57	12905
2026-01-23 14:37:00.46	173.11	3.82	-43.5	-54.5	3.8	8.46e-01	0	54	104	0	57	12844
2026-01-23 14:37:01.48	173.13	3.89	-43.5	-54.5	3.8	8.46e-01	0	55	104	0	57	12842
2026-01-23 14:37:02.49	173.16	3.96	-43.5	-54.5	3.8	8.46e-01	0	55	104	0	57	12813
2026-01-23 14:37:03.50	173.18	4.03	-43.5	-54.4	3.8	8.46e-01	0	55	104	0	57	12729
2026-01-23 14:37:04.51	173.20	4.10	-43.4	-54.3	3.8	8.46e-01	0	55	104	0	57	12606
2026-01-23 14:37:05.52	173.23	4.17	-43.4	-54.2	3.8	8.47e-01	0	55	104	0	57	12446
2026-01-23 14:37:06.53	173.25	4.24	-43.4	-54.1	3.8	8.46e-01	0	55	104	0	57	12267
2026-01-23 14:37:07.54	173.28	4.31	-43.4	-53.9	3.8	8.45e-01	0	55	104	0	57	12088
2026-01-23 14:37:08.55	173.30	4.38	-43.4	-53.7	3.8	8.46e-01	0	55	104	0	57	11765
2026-01-23 14:37:09.56	173.32	4.45	-43.3	-53.5	3.8	8.46e-01	0	55	104	0	57	11442
2026-01-23 14:37:10.57	173.35	4.52	-43.3	-53.1	3.8	8.46e-01	0	55	104	0	57	11018
2026-01-23 14:37:11.58	173.37	4.59	-43.3	-53.0	3.8	8.46e-01	0	55	104	0	57	10795
2026-01-23 14:37:12.59	173.40	4.66	-43.2	-52.8	3.8	8.45e-01	0	55	104	0	57	10646
2026-01-23 14:37:13.60	173.42	4.73	-43.2	-52.9	3.8	8.45e-01	0	55	104	0	57	10735
2026-01-23 14:37:14.62	173.45	4.80	-43.3	-53.1	3.8	8.46e-01	0	55	104	0	57	10985
2026-01-23 14:37:15.62	173.47	4.87	-43.3	-53.4	3.8	8.45e-01	0	55	104	0	57	11328
2026-01-23 14:37:16.64	173.50	4.94	-43.4	-53.7	3.8	8.46e-01	0	55	104	0	57	11771
2026-01-23 14:37:17.65	173.52	5.01	-43.4	-53.8	3.8	8.47e-01	0	55	104	0	57	11910
2026-01-23 14:37:18.66	173.55	5.09	-43.4	-53.8	3.8	8.46e-01	0	55	104	0	57	11911
2026-01-23 14:37:19.67	173.57	5.16	-43.3	-53.6	3.8	8.47e-01	0	56	104	0	57	11610
2026-01-23 14:37:20.68	173.60	5.23	-43.3	-53.2	3.8	8.45e-01	0	55	104	0	57	11048
2026-01-23 14:37:21.69	173.62	5.30	-43.2	-52.5	3.8	8.46e-01	0	56	104	0	57	10259
2026-01-23 14:37:22.70	173.65	5.37	-43.2	-52.4	3.8	8.45e-01	0	56	104	0	57	10065
2026-01-23 14:37:23.71	173.67	5.45	-43.1	-51.9	4.0	8.44e-01	0	56	104	0	57	9521
2026-01-23 14:37:24.72	173.70	5.52	-43.0	-51.2	4.1	8.39e-01	0	56	0	0	56	9305
2026-01-23 14:37:25.73	173.73	5.59	-42.8	-50.6	4.3	8.36e-01	0	56	0	0	56	8736
2026-01-23 14:37:26.74	173.75	5.67	-42.8	-50.3	4.4	8.30e-01	0	56	0	0	56	8436
2026-01-23 14:37:27.75	173.78	5.74	-42.7	-50.1	4.5	8.25e-01	0	56	0	0	56	8188
2026-01-23 14:37:28.76	173.80	5.81	-42.7	-49.9	4.5	8.18e-01	0	56	0	0	56	8026
2026-01-23 14:37:29.77	173.83	5.89	-42.5	-49.5	4.7	8.11e-01	0	56	0	0	56	7672
2026-01-23 14:37:30.78	173.86	5.96	-42.6	-49.6	4.7	8.05e-01	0	56	0	0	56	7723
2026-01-23 14:37:31.79	173.88	6.04	-42.5	-49.5	4.7	8.08e-01	0	56	0	0	56	7670
2026-01-23 14:37:32.80	173.91	6.11	-42.5	-49.4	4.8	7.99e-01	0	56	0	0	56	7586
2026-01-23 14:37:33.81	173.94	6.18	-42.5	-49.4	4.7	8.01e-01	0	56	0	0	56	7605
2026-01-23 14:37:34.83	173.96	6.26	-42.6	-49.7	4.6	8.06e-01	0	56	0	0	56	7862
2026-01-23 14:37:35.84	173.99	6.34	-42.5	-49.4	4.7	8.01e-01	0	56	0	0	56	7611
2026-01-23 14:37:36.85	174.02	6.41	-42.5	-49.5	4.7	8.01e-01	0	56	0	0	56	7645
2026-01-23 14:37:37.86	174.05	6.49	-42.6	-49.6	4.7	8.07e-01	0	56	0	0	56	7720
2026-01-23 14:37:38.87	174.07	6.56	-42.6	-49.5	4.7	8.04e-01	0	56	0	0	56	7675
2026-01-23 14:37:39.88	174.10	6.64	-42.6	-49.5	4.7	8.01e-01	0	56	0	0	56	7639
2026-01-23 14:37:40.89	174.13	6.71	-42.3	-48.9	4.9	7.89e-01	0	57	0	0	55	7594
2026-01-23 14:37:41.90	174.16	6.79	-42.2	-48.5	5.1	7.59e-01	0	57	0	0	55	7234
2026-01-23 14:37:42.91	174.19	6.87	-42.0	-47.8	5.6	7.11e-01	0	57	0	0	55	6687
2026-01-23 14:37:43.92	174.21	6.94	-41.6	-46.8	6.3	2.80e-01	0	57	0	5242880	54	6335
2026-01-23 14:37:44.93	174.24	7.02	-41.4	-46.2	6.8	2.03e-01	0	57	0	12582912	53	6216
2026-01-23 14:37:45.94	174.27	7.10	-41.0	-45.4	7.6	1.11e-01	0	57	0	20971520	53	5720
2026-01-23 14:37:46.96	174.30	7.18	-40.8	-44.9	8.1	7.35e-02	0	57	0	27262976	52	5695
2026-01-23 14:37:47.97	174.33	7.26	-40.4	-44.1	9.0	3.73e-02	0	57	0	34603008	51	5516
2026-01-23 14:37:48.98	174.36	7.33	-39.9	-43.3	9.8	1.50e-02	0	57	0	41943040	50	5285
2026-01-23 14:37:49.99	174.39	7.41	-39.7	-42.9	10.3	6.72e-03	0	57	0	49283072	50	5048
2026-01-23 14:37:51.00	174.41	7.49	-39.3	-42.3	10.8	2.99e-03	0	57	0	56623104	49	5010
2026-01-23 14:37:52.01	174.44	7.57	-39.0	-41.8	11.4	1.35e-03	0	57	0	63963136	48	5017
2026-01-23 14:37:53.02	174.47	7.65	-38.7	-41.4	11.8	5.70e-04	0	57	0	71303168	48	4796
2026-01-23 14:37:54.03	174.50	7.73	-38.6	-41.3	11.9	4.61e-04	0	57	0	78643200	48	4731
2026-01-23 14:37:55.05	174.53	7.81	-38.2	-40.8	12.2	3.07e-04	0	57	0	85983232	47	4714
2026-01-23 14:37:56.06	174.56	7.89	-38.3	-40.9	12.1	1.79e-04	0	57	0	93323264	47	4782
2026-01-23 14:37:57.07	174.59	7.97	-38.2	-40.8	12.2	2.66e-04	0	57	0	100663296	47	4745
2026-01-23 14:37:58.08	174.62	8.05	-38.3	-41.0	12.0	3.57e-04	0	57	0	108003328	47	4842
2026-01-23 14:37:59.09	174.65	8.13	-38.1	-40.5	12.8	7.89e-05	0	58	0	115343360	47	4574
2026-01-23 14:38:00.10	174.68	8.21	-40.4	-43.7	9.9	8.35e-03	0	57	0	122683392	50	5548
2026-01-23 14:38:01.11	174.71	8.29	-42.3	-50.2	4.2	4.15e-01	0	58	0	127926272	54	9314
2026-01-23 14:38:02.12	174.75	8.37	-41.9	-47.6	5.4	6.66e-01	0	57	0	132120576	53	7325
2026-01-23 14:38:03.13	174.78	8.45	-39.9	-42.8	11.1	4.70e-04	0	58	0	139460608	49	5311
2026-01-23 14:38:04.14	174.81	8.53	-37.9	-40.3	13.2	1.25e-05	0	58	0	146800640	46	4734
2026-01-23 14:38:05.15	174.84	8.62	-37.8	-40.1	13.4	1.48e-05	0	57	0	154140672	46	4651
2026-01-23 14:38:06.16	174.87	8.70	-37.9	-40.3	13.3	1.94e-05	0	58	0	161480704	46	4707
2026-01-23 14:38:07.17	174.90	8.78	-37.9	-40.2	13.3	1.94e-05	0	58	0	168820736	46	4696
2026-01-23 14:38:08.18	174.93	8.86	-37.8	-40.1	13.5	5.70e-06	0	58	0	176160768	46	4625
2026-01-23 14:38:09.19	174.97	8.95	-37.8	-40.1	13.5	5.70e-06	0	58	0	183500800	46	4630
2026-01-23 14:38:10.20	175.00	9.03	-37.7	-39.9	13.7	9.10e-06	0	58	0	190840832	46	4513
2026-01-23 14:38:11.21	175.03	9.11	-37.9	-40.2	13.5	9.10e-06	0	58	0	198180864	46	4674
2026-01-23 14:38:12.22	175.06	9.20	-37.8	-40.1	13.6	6.80e-06	0	58	0	205520896	46	4604
2026-01-23 14:38:13.23	175.09	9.28	-37.8	-40.1	13.6	4.50e-06	0	58	0	211812352	46	4627
2026-01-23 14:38:14.24	175.13	9.37	-37.9	-40.1	13.6	8.00e-06	0	58	0	219152384	46	4651
2026-01-23 14:38:15.24	175.16	9.45	-37.7	-39.9	13.8	6.80e-06	0	58	0	227540992	46	4542
2026-01-23 14:38:16.25	175.19	9.54	-37.7	-39.9	13.9	8.00e-06	0	58	0	233832448	46	4498
2026-01-23 14:38:17.26	175.23	9.62	-37.7	-39.9	13.9	1.10e-06	0	58	0	241172480	46	4515
2026-01-23 14:38:18.27	175.26	9.71	-37.8	-40.0	13.8	1.10e-06	0	58	0	248512512	46	4592
2026-01-23 14:38:19.28	175.29	9.79	-37.8	-40.0	13.9	4.50e-06	0	58	0	255852544	46	4563
2026-01-23 14:38:20.29	175.33	9.88	-37.9	-40.1	13.8	4.50e-06	0	58	0	263192576	46	4627
2026-01-23 14:38:21.30	175.36	9.97	-37.9	-40.1	13.8	3.40e-06	0	58	0	270532608	46	4631
2026-01-23 14:38:22.31	175.40	10.05	-37.9	-40.1	13.9	3.40e-06	0	58	0	277872640	46	4608
2026-01-23 14:38:23.32	175.43	10.14	-37.8	-39.9	14.1	3.40e-06	0	58	0	285212672	46	4537
2026-01-23 14:38:24.33	175.46	10.23	-37.8	-40.0	14.0	1.10e-06	0	58	0	292552704	46	4549
2026-01-23 14:38:25.34	175.50	10.31	-37.8	-39.9	14.1	0.00e+00	0	58	0	299892736	46	4525
2026-01-23 14:38:26.35	175.53	10.40	-37.7	-39.9	14.2	0.00e+00	0	58	0	307232768	46	4498
2026-01-23 14:38:27.36	175.57	10.49	-37.8	-40.0	14.1	0.00e+00	0	58	0	314572800	46	4557
2026-01-23 14:38:28.37	175.60	10.58	-37.7	-39.8	14.2	0.00e+00	0	58	0	321912832	46	4470
2026-01-23 14:38:29.38	175.64	10.67	-37.7	-39.8	14.3	1.10e-06	0	58	0	329252864	46	4468
2026-01-23 14:38:30.39	175.68	10.76	-37.7	-39.9	14.2	1.10e-06	0	58	0	336592896	46	4508
2026-01-23 14:38:31.39	175.71	10.85	-37.6	-39.7	14.4	0.00e+00	0	58	0	343932928	46	4435
2026-01-23 14:38:32.40	175.75	10.94	-37.6	-39.7	14.4	2.20e-06	0	58	0	351272960	46	4422
2026-01-23 14:38:33.41	175.78	11.03	-37.6	-39.7	14.5	0.00e+00	0	58	0	358612992	46	4400
2026-01-23 14:38:34.42	175.82	11.12	-37.6	-39.6	14.5	0.00e+00	0	58	0	364904448	46	4377
2026-01-23 14:38:35.43	175.86	11.21	-37.6	-39.7	14.4	0.00e+00	0	58	0	372244480	46	4412
2026-01-23 14:38:36.44	175.89	11.30	-37.5	-39.6	14.6	0.00e+00	0	58	0	380633088	45	4614
2026-01-23 14:38:37.45	175.93	11.39	-37.5	-39.5	14.6	0.00e+00	0	59	0	386924544	45	4585
2026-01-23 14:38:38.46	175.97	11.48	-37.5	-39.6	14.6	1.10e-06	0	59	0	394264576	45	4607
2026-01-23 14:38:39.47	176.01	11.57	-37.4	-39.5	14.7	0.00e+00	0	59	0	401604608	45	4551
2026-01-23 14:38:40.48	176.04	11.67	-37.4	-39.4	14.8	0.00e+00	0	59	0	408944640	45	4529
2026-01-23 14:38:41.49	176.08	11.76	-37.4	-39.5	14.8	0.00e+00	0	59	0	416284672	45	4551
2026-01-23 14:38:42.50	176.12	11.85	-37.4	-39.5	14.8	0.00e+00	0	59	0	423624704	45	4550
2026-01-23 14:38:43.52	176.16	11.95	-37.3	-39.3	14.9	0.00e+00	0	59	0	430964736	45	4482
2026-01-23 14:38:44.53	176.20	12.04	-37.2	-39.1	15.1	1.10e-06	0	59	0	438304768	45	4384
2026-01-23 14:38:45.54	176.24	12.14	-37.2	-39.2	15.1	0.00e+00	0	59	0	445644800	45	4407
2026-01-23 14:38:46.55	176.28	12.23	-37.3	-39.3	15.0	0.00e+00	0	59	0	452984832	45	4445
2026-01-23 14:38:47.56	176.32	12.33	-37.2	-39.1	15.2	0.00e+00	0	59	0	460324864	45	4365
2026-01-23 14:38:48.57	176.36	12.42	-37.1	-39.0	15.3	0.00e+00	0	59	0	467664896	45	4301
2026-01-23 14:38:49.58	176.39	12.52	-37.2	-39.1	15.2	0.00e+00	0	59	0	475004928	45	4362
2026-01-23 14:38:50.59	176.44	12.61	-37.2	-39.1	15.2	0.00e+00	0	59	0	482344960	45	4377
2026-01-23 14:38:51.60	176.48	12.71	-37.1	-39.0	15.3	0.00e+00	0	59	0	489684992	45	4306
2026-01-23 14:38:52.61	176.52	12.81	-37.1	-39.0	15.3	0.00e+00	0	59	0	497025024	44	4593
2026-01-23 14:38:53.62	176.56	12.90	-37.0	-38.9	15.4	0.00e+00	0	59	0	504365056	44	4540
2026-01-23 14:38:54.63	176.60	13.00	-36.9	-38.8	15.5	0.00e+00	0	59	0	511705088	44	4465
2026-01-23 14:38:55.64	176.64	13.10	-36.9	-38.8	15.5	0.00e+00	0	59	0	519045120	44	4463
2026-01-23 14:38:56.65	176.68	13.20	-36.9	-38.9	15.5	0.00e+00	0	59	0	526385152	44	4503
2026-01-23 14:38:57.66	176.72	13.30	-36.9	-38.8	15.6	0.00e+00	0	59	0	532676608	44	4463
2026-01-23 14:38:58.67	176.77	13.39	-36.9	-38.8	15.5	0.00e+00	0	59	0	540016640	44	4469
2026-01-23 14:38:59.68	176.81	13.49	-36.8	-38.6	15.7	0.00e+00	0	59	0	547356672	44	4368
2026-01-23 14:39:00.69	176.85	13.59	-36.9	-38.8	15.6	0.00e+00	0	59	0	555745280	44	4443
2026-01-23 14:39:01.70	176.89	13.69	-36.8	-38.6	15.7	0.00e+00	0	59	0	562036736	44	4368
2026-01-23 14:39:02.71	176.94	13.79	-36.8	-38.7	15.7	0.00e+00	0	59	0	569376768	44	4416
2026-01-23 14:39:03.72	176.98	13.90	-36.7	-38.5	15.8	0.00e+00	0	59	0	576716800	44	4318
2026-01-23 14:39:04.73	177.02	14.00	-36.8	-38.6	15.7	0.00e+00	0	59	0	584056832	44	4368
2026-01-23 14:39:05.74	177.07	14.10	-36.7	-38.6	15.8	0.00e+00	0	59	0	591396864	44	4343
2026-01-23 14:39:06.75	177.11	14.20	-36.7	-38.5	15.8	0.00e+00	0	59	0	598736896	44	4321
2026-01-23 14:39:07.76	177.16	14.30	-36.7	-38.5	15.8	0.00e+00	0	59	0	606076928	44	4339
2026-01-23 14:39:08.77	177.20	14.41	-36.7	-38.6	15.8	0.00e+00	0	59	0	613416960	44	4360
2026-01-23 14:39:09.78	177.25	14.51	-36.7	-38.6	15.8	0.00e+00	0	59	0	620756992	44	4355
2026-01-23 14:39:10.79	177.29	14.62	-36.6	-38.5	15.9	0.00e+00	0	59	0	628097024	44	4293
2026-01-23 14:39:11.80	177.34	14.72	-36.5	-38.4	16.0	0.00e+00	0	60	0	635437056	44	4247
2026-01-23 14:39:12.81	177.38	14.82	-36.6	-38.4	16.0	0.00e+00	0	59	0	642777088	44	4258
2026-01-23 14:39:13.82	177.43	14.93	-36.5	-38.4	16.0	0.00e+00	0	60	0	650117120	44	4245
2026-01-23 14:39:14.83	177.48	15.04	-36.6	-38.4	15.9	0.00e+00	0	59	0	657457152	44	4288
2026-01-23 14:39:15.84	177.52	15.14	-36.6	-38.4	15.9	0.00e+00	0	60	0	664797184	44	4289
2026-01-23 14:39:16.85	177.57	15.25	-36.5	-38.4	16.0	0.00e+00	0	59	0	672137216	44	4260
2026-01-23 14:39:17.86	177.62	15.36	-36.4	-38.3	15.9	0.00e+00	0	59	0	679477248	43	4448
2026-01-23 14:39:18.86	177.67	15.46	-36.4	-38.3	16.0	0.00e+00	0	60	0	685768704	43	4444
2026-01-23 14:39:19.87	177.71	15.57	-36.3	-38.2	16.0	0.00e+00	0	60	0	693108736	43	4418
2026-01-23 14:39:20.88	177.76	15.68	-36.4	-38.3	16.0	0.00e+00	0	60	0	700448768	43	4450
2026-01-23 14:39:21.89	177.81	15.79	-36.2	-38.1	16.1	0.00e+00	0	60	0	707788800	43	4361
2026-01-23 14:39:22.90	177.86	15.90	-36.3	-38.2	16.0	0.00e+00	0	60	0	715128832	43	4398
2026-01-23 14:39:23.92	177.91	16.01	-36.3	-38.2	16.0	0.00e+00	0	60	0	722468864	43	4432
2026-01-23 14:39:24.93	177.96	16.12	-36.2	-38.1	16.1	0.00e+00	0	60	0	729808896	43	4378
2026-01-23 14:39:25.93	178.01	16.23	-36.2	-38.1	16.2	0.00e+00	0	59	0	737148928	43	4344
2026-01-23 14:39:26.95	178.06	16.34	-36.3	-38.2	16.1	0.00e+00	0	60	0	744488960	43	4399
2026-01-23 14:39:27.96	178.11	16.45	-36.2	-38.1	16.1	0.00e+00	0	60	0	751828992	43	4373
2026-01-23 14:39:28.97	178.16	16.57	-36.2	-38.1	16.1	0.00e+00	0	60	0	759169024	43	4378
2026-01-23 14:39:29.98	178.22	16.68	-36.2	-38.1	16.1	0.00e+00	0	60	0	766509056	43	4355
2026-01-23 14:39:30.98	178.27	16.79	-36.2	-38.1	16.1	0.00e+00	0	60	0	773849088	43	4363
2026-01-23 14:39:31.99	178.32	16.91	-36.2	-38.2	16.1	0.00e+00	0	60	0	781189120	43	4396
2026-01-23 14:39:33.00	178.37	17.02	-36.1	-38.1	16.1	0.00e+00	0	60	0	788529152	43	4355
2026-01-23 14:39:34.01	178.43	17.13	-36.2	-38.1	16.1	0.00e+00	0	60	0	795869184	43	4377
2026-01-23 14:39:35.02	178.48	17.25	-36.1	-38.1	16.1	0.00e+00	0	59	0	803209216	43	4349
2026-01-23 14:39:36.03	178.53	17.37	-36.2	-38.1	16.1	0.00e+00	0	60	0	810549248	43	4373
2026-01-23 14:39:37.04	178.59	17.48	-36.1	-38.1	16.2	0.00e+00	0	60	0	817889280	43	4341
2026-01-23 14:39:38.05	178.64	17.60	-36.0	-37.9	16.3	0.00e+00	0	60	0	825229312	42	4530
2026-01-23 14:39:39.06	178.70	17.72	-36.1	-38.1	16.1	0.00e+00	0	60	0	832569344	42	4618
2026-01-23 14:39:40.07	178.75	17.84	-36.1	-38.0	16.2	0.00e+00	0	60	0	838860800	42	4566
2026-01-23 14:39:41.08	178.81	17.95	-35.9	-37.8	16.4	0.00e+00	0	60	0	846200832	42	4465
2026-01-23 14:39:42.09	178.87	18.07	-35.9	-37.7	16.4	0.00e+00	0	60	0	854589440	42	4427
2026-01-23 14:39:43.10	178.92	18.19	-35.9	-37.8	16.4	0.00e+00	0	60	0	860880896	42	4460
2026-01-23 14:39:44.11	178.98	18.31	-35.7	-37.6	16.6	0.00e+00	0	60	0	868220928	42	4350
2026-01-23 14:39:45.12	179.04	18.43	-35.7	-37.6	16.6	0.00e+00	0	60	0	875560960	42	4344
2026-01-23 14:39:46.13	179.10	18.56	-35.7	-37.5	16.7	0.00e+00	0	60	0	882900992	42	4325
2026-01-23 14:39:47.14	179.16	18.68	-35.7	-37.5	16.7	0.00e+00	0	60	0	890241024	42	4331
2026-01-23 14:39:48.14	179.21	18.80	-35.6	-37.4	16.7	0.00e+00	0	60	0	897581056	42	4283
2026-01-23 14:39:49.16	179.27	18.92	-35.6	-37.5	16.7	0.00e+00	0	60	0	904921088	42	4298
2026-01-23 14:39:50.16	179.33	19.05	-35.5	-37.3	16.9	0.00e+00	0	60	0	912261120	41	4446
2026-01-23 14:39:51.17	179.39	19.17	-35.5	-37.3	16.9	0.00e+00	0	60	0	919601152	41	4452
2026-01-23 14:39:52.18	179.45	19.30	-35.4	-37.2	17.0	0.00e+00	0	60	0	926941184	41	4392
2026-01-23 14:39:53.19	179.52	19.42	-35.3	-37.0	17.1	0.00e+00	0	60	0	934281216	41	4325
2026-01-23 14:39:54.20	179.58	19.55	-35.3	-37.0	17.2	0.00e+00	0	60	0	941621248	41	4312
2026-01-23 14:39:55.21	179.64	19.67	-35.3	-37.0	17.1	0.00e+00	0	60	0	948961280	41	4338
2026-01-23 14:39:56.22	179.70	19.80	-35.3	-37.0	17.2	0.00e+00	0	60	0	956301312	41	4310
2026-01-23 14:39:57.23	179.77	19.93	-35.2	-37.0	17.2	0.00e+00	0	60	0	962592768	41	4292
2026-01-23 14:39:58.24	179.83	20.06	-35.4	-37.1	17.1	0.00e+00	0	60	0	970981376	41	4371
2026-01-23 14:39:59.25	179.89	20.19	-35.3	-37.1	17.1	0.00e+00	0	60	0	978321408	41	4347
2026-01-23 14:40:00.26	179.96	20.32	-35.4	-37.1	17.1	0.00e+00	0	60	0	984612864	41	4377
2026-01-23 14:40:01.27	180.02	20.45	-35.2	-37.0	17.2	0.00e+00	0	60	0	991952896	41	4303
2026-01-23 14:40:02.28	180.09	20.58	-35.3	-37.1	17.1	0.00e+00	0	60	0	999292928	41	4366
2026-01-23 14:40:03.29	180.16	20.71	-35.4	-37.2	17.0	0.00e+00	0	60	0	1006632960	41	4394
2026-01-23 14:40:04.30	180.22	20.85	-35.3	-37.1	17.1	0.00e+00	0	60	0	1013972992	41	4376
2026-01-23 14:40:05.31	180.29	20.98	-35.3	-37.1	17.1	0.00e+00	0	60	0	1021313024	41	4341
2026-01-23 14:40:06.32	180.36	21.11	-35.4	-37.2	17.0	0.00e+00	0	60	0	1028653056	41	4415
2026-01-23 14:40:07.33	180.43	21.25	-35.4	-37.2	17.0	0.00e+00	0	60	0	1035993088	41	4431
2026-01-23 14:40:08.34	180.50	21.38	-35.4	-37.3	16.9	0.00e+00	0	60	0	1043333120	41	4442
2026-01-23 14:40:09.35	180.57	21.52	-35.5	-37.4	16.8	0.00e+00	0	60	0	1050673152	41	4508
2026-01-23 14:40:10.36	180.64	21.66	-35.5	-37.4	16.8	0.00e+00	0	60	0	1058013184	41	4530
2026-01-23 14:40:11.37	180.71	21.79	-35.5	-37.3	16.9	0.00e+00	0	60	0	1065353216	41	4474
2026-01-23 14:40:12.38	180.78	21.93	-35.5	-37.4	16.8	0.00e+00	0	60	0	1072693248	41	4495
2026-01-23 14:40:13.39	180.85	22.07	-35.6	-37.4	16.8	0.00e+00	0	60	0	1080033280	41	4539
2026-01-23 14:40:14.40	180.92	22.21	-35.6	-37.4	16.8	0.00e+00	0	60	0	1087373312	41	4525
2026-01-23 14:40:15.41	181.00	22.35	-35.5	-37.4	16.9	0.00e+00	0	60	0	1094713344	41	4498
2026-01-23 14:40:16.41	181.07	22.49	-35.5	-37.3	16.9	0.00e+00	0	60	0	1102053376	41	4455
2026-01-23 14:40:17.42	181.15	22.63	-35.3	-37.1	17.1	0.00e+00	0	61	0	1109393408	41	4369
2026-01-23 14:40:18.43	181.22	22.77	-35.4	-37.1	17.1	0.00e+00	0	60	0	1115684864	41	4382
2026-01-23 14:40:19.44	181.30	22.92	-35.3	-37.0	17.3	0.00e+00	0	60	0	1124073472	41	4322
2026-01-23 14:40:20.45	181.37	23.06	-35.2	-36.9	17.3	0.00e+00	0	60	0	1131413504	41	4286
2026-01-23 14:40:21.46	181.45	23.21	-35.2	-36.8	17.4	0.00e+00	0	60	0	1137704960	41	4240
2026-01-23 14:40:22.47	181.53	23.35	-35.2	-36.9	17.4	0.00e+00	0	60	0	1145044992	41	4253
2026-01-23 14:40:23.48	181.61	23.50	-35.1	-36.8	17.5	0.00e+00	0	60	0	1152385024	41	4199
2026-01-23 14:40:24.49	181.69	23.64	-35.1	-36.8	17.5	0.00e+00	0	61	0	1159725056	41	4222
2026-01-23 14:40:25.50	181.77	23.79	-35.1	-36.7	17.6	0.00e+00	0	60	0	1167065088	41	4193
2026-01-23 14:40:26.51	181.85	23.94	-35.0	-36.6	17.7	0.00e+00	0	60	0	1174405120	40	4385
2026-01-23 14:40:27.53	181.93	24.09	-35.0	-36.6	17.6	0.00e+00	0	60	0	1181745152	40	4391
2026-01-23 14:40:28.54	182.01	24.24	-35.0	-36.6	17.7	0.00e+00	0	61	0	1189085184	40	4376
2026-01-23 14:40:29.55	182.10	24.39	-35.0	-36.6	17.7	0.00e+00	0	61	0	1196425216	40	4376
2026-01-23 14:40:30.56	182.18	24.55	-34.9	-36.5	17.8	0.00e+00	0	60	0	1203765248	40	4335
2026-01-23 14:40:31.57	182.26	24.70	-35.2	-36.9	17.4	0.00e+00	0	61	0	1211105280	40	4515
2026-01-23 14:40:32.58	182.35	24.85	-34.9	-36.5	17.8	0.00e+00	0	61	0	1218445312	40	4331
2026-01-23 14:40:33.59	182.44	25.01	-35.1	-36.7	17.6	0.00e+00	0	60	0	1225785344	40	4423
2026-01-23 14:40:34.60	182.52	25.16	-35.1	-36.8	17.6	0.00e+00	0	61	0	1233125376	40	4450
2026-01-23 14:40:35.61	182.61	25.32	-35.1	-36.7	17.6	0.00e+00	0	60	0	1240465408	40	4435
2026-01-23 14:40:36.62	182.70	25.47	-35.1	-36.8	17.5	0.00e+00	0	61	0	1247805440	40	4450
2026-01-23 14:40:37.63	182.79	25.63	-35.1	-36.8	17.5	0.00e+00	0	61	0	1255145472	40	4470
2026-01-23 14:40:38.64	182.88	25.79	-35.3	-37.0	17.3	0.00e+00	0	60	0	1262485504	40	4592
2026-01-23 14:40:39.65	182.97	25.95	-35.3	-37.0	17.3	0.00e+00	0	60	0	1269825536	40	4572
2026-01-23 14:40:40.66	183.06	26.11	-35.2	-36.9	17.4	0.00e+00	0	61	0	1277165568	40	4509
2026-01-23 14:40:41.66	183.16	26.27	-35.1	-36.8	17.5	0.00e+00	0	61	0	1283457024	40	4455
2026-01-23 14:40:42.68	183.25	26.43	-34.9	-36.6	17.7	0.00e+00	0	61	0	1290797056	40	4379
2026-01-23 14:40:43.69	183.35	26.60	-34.9	-36.6	17.7	0.00e+00	0	61	0	1299185664	40	4370
2026-01-23 14:40:44.70	183.44	26.76	-35.0	-36.7	17.6	0.00e+00	0	61	0	1305477120	40	4406
2026-01-23 14:40:45.71	183.54	26.93	-34.9	-36.6	17.7	0.00e+00	0	61	0	1312817152	40	4352
2026-01-23 14:40:46.72	183.64	27.09	-34.9	-36.6	17.7	0.00e+00	0	61	0	1320157184	40	4381
2026-01-23 14:40:47.73	183.74	27.26	-34.9	-36.7	17.6	0.00e+00	0	61	0	1327497216	40	4401
2026-01-23 14:40:48.73	183.83	27.42	-34.7	-36.4	17.9	0.00e+00	0	61	0	1334837248	40	4285
2026-01-23 14:40:49.75	183.94	27.60	-34.7	-36.4	17.9	0.00e+00	0	61	0	1342177280	40	4270
2026-01-23 14:40:50.76	184.04	27.76	-34.6	-36.2	18.0	0.00e+00	0	61	0	1349517312	40	4192
2026-01-23 14:40:51.77	184.14	27.94	-34.5	-36.2	18.0	0.00e+00	0	61	0	1356857344	40	4177
2026-01-23 14:40:52.77	184.24	28.11	-34.7	-36.5	17.9	0.00e+00	0	61	0	1364197376	39	4553
2026-01-23 14:40:53.78	184.35	28.28	-34.6	-36.3	18.1	0.00e+00	0	61	0	1371537408	39	4451
2026-01-23 14:40:54.79	184.46	28.45	-34.6	-36.2	18.1	0.00e+00	0	61	0	1378877440	39	4426
2026-01-23 14:40:55.80	184.56	28.63	-34.5	-36.1	18.2	0.00e+00	0	61	0	1386217472	39	4386
2026-01-23 14:40:56.81	184.67	28.80	-34.5	-36.2	18.2	0.00e+00	0	61	0	1393557504	39	4394
2026-01-23 14:40:57.82	184.78	28.98	-34.4	-36.0	18.4	0.00e+00	0	61	0	1400897536	39	4301
2026-01-23 14:40:58.83	184.89	29.16	-34.5	-36.1	18.3	0.00e+00	0	61	0	1408237568	39	4358
2026-01-23 14:40:59.84	185.00	29.33	-34.5	-36.1	18.3	0.00e+00	0	61	0	1415577600	39	4367
2026-01-23 14:41:00.85	185.12	29.51	-34.4	-36.0	18.4	0.00e+00	0	61	0	1422917632	39	4335
2026-01-23 14:41:01.86	185.23	29.69	-34.4	-35.9	18.5	0.00e+00	0	61	0	1430257664	39	4276
2026-01-23 14:41:02.87	185.35	29.88	-34.4	-36.0	18.5	0.00e+00	0	61	0	1436549120	39	4298
2026-01-23 14:41:03.88	185.46	30.06	-34.5	-36.1	18.3	0.00e+00	0	61	0	1443889152	39	4351
2026-01-23 14:41:04.89	185.58	30.24	-34.5	-36.0	18.4	0.00e+00	0	61	0	1452277760	39	4336
2026-01-23 14:41:05.90	185.70	30.43	-34.6	-36.1	18.3	0.00e+00	0	61	0	1458569216	39	4384
2026-01-23 14:41:06.91	185.82	30.61	-34.5	-36.1	18.4	0.00e+00	0	61	0	1465909248	39	4369
2026-01-23 14:41:07.92	185.95	30.80	-34.6	-36.2	18.2	0.00e+00	0	61	0	1473249280	39	4427
2026-01-23 14:41:08.93	186.07	30.99	-34.5	-36.1	18.4	0.00e+00	0	61	0	1480589312	39	4368
2026-01-23 14:41:09.93	186.19	31.17	-34.6	-36.2	18.2	0.00e+00	0	61	0	1487929344	39	4423
2026-01-23 14:41:10.94	186.32	31.36	-34.6	-36.2	18.3	0.00e+00	0	61	0	1495269376	39	4418
2026-01-23 14:41:11.96	186.45	31.56	-34.7	-36.2	18.2	0.00e+00	0	61	0	1502609408	39	4441
2026-01-23 14:41:12.97	186.58	31.75	-34.7	-36.2	18.3	0.00e+00	0	61	0	1509949440	39	4422
2026-01-23 14:41:13.98	186.71	31.94	-34.7	-36.3	18.2	0.00e+00	0	61	0	1517289472	39	4477
2026-01-23 14:41:14.98	186.84	32.14	-34.7	-36.3	18.2	0.00e+00	0	61	0	1524629504	39	4462
2026-01-23 14:41:15.99	186.97	32.33	-34.8	-36.4	18.1	0.00e+00	0	61	0	1531969536	39	4522
2026-01-23 14:41:17.00	187.11	32.53	-34.8	-36.4	18.0	0.00e+00	0	61	0	1539309568	39	4527
2026-01-23 14:41:18.01	187.25	32.73	-34.9	-36.5	18.0	0.00e+00	0	61	0	1546649600	39	4568
2026-01-23 14:41:19.02	187.39	32.93	-34.8	-36.4	18.0	0.00e+00	0	61	0	1553989632	39	4532
2026-01-23 14:41:20.03	187.53	33.13	-34.8	-36.4	18.0	0.00e+00	0	61	0	1560281088	39	4516
2026-01-23 14:41:21.04	187.67	33.33	-34.6	-36.2	18.2	0.00e+00	0	61	0	1568669696	39	4407
2026-01-23 14:41:22.05	187.81	33.53	-34.7	-36.3	18.2	0.00e+00	0	61	0	1576009728	39	4463
2026-01-23 14:41:23.06	187.96	33.73	-34.6	-36.3	18.2	0.00e+00	0	61	0	1582301184	39	4444
2026-01-23 14:41:24.07	188.11	33.94	-34.7	-36.4	18.0	0.00e+00	0	61	0	1589641216	39	4494
2026-01-23 14:41:25.08	188.25	34.14	-34.7	-36.4	18.1	0.00e+00	0	61	0	1596981248	39	4518
2026-01-23 14:41:26.09	188.41	34.35	-34.8	-36.5	18.0	0.00e+00	0	61	0	1604321280	39	4552
2026-01-23 14:41:27.10	188.56	34.56	-34.8	-36.4	18.1	0.00e+00	0	61	0	1611661312	39	4515
2026-01-23 14:41:28.11	188.71	34.77	-34.8	-36.5	18.0	0.00e+00	0	61	0	1619001344	39	4570
2026-01-23 14:41:29.12	188.87	34.98	-34.7	-36.4	18.2	0.00e+00	0	61	0	1626341376	39	4500
2026-01-23 14:41:30.13	189.03	35.19	-35.0	-36.6	17.9	0.00e+00	0	61	0	1633681408	39	4650
2026-01-23 14:41:31.14	189.19	35.40	-34.9	-36.6	18.0	0.00e+00	0	61	0	1641021440	39	4620
2026-01-23 14:41:32.15	189.35	35.62	-34.8	-36.4	18.2	0.00e+00	0	61	0	1648361472	39	4511
2026-01-23 14:41:33.16	189.52	35.83	-34.9	-36.5	18.0	0.00e+00	0	61	0	1655701504	39	4575
2026-01-23 14:41:34.17	189.69	36.05	-34.8	-36.5	18.1	0.00e+00	0	61	0	1663041536	39	4549
2026-01-23 14:41:35.18	189.85	36.27	-34.9	-36.6	18.0	0.00e+00	0	61	0	1670381568	39	4620
2026-01-23 14:41:36.19	190.03	36.49	-34.9	-36.6	18.0	0.00e+00	0	61	0	1677721600	39	4622
2026-01-23 14:41:37.20	190.20	36.71	-34.7	-36.4	18.2	0.00e+00	0	61	0	1685061632	39	4496
2026-01-23 14:41:38.21	190.38	36.93	-34.8	-36.4	18.1	0.00e+00	0	61	0	1692401664	39	4544
2026-01-23 14:41:39.22	190.56	37.15	-34.9	-36.5	18.1	0.00e+00	0	61	0	1699741696	39	4581
2026-01-23 14:41:40.23	190.74	37.37	-35.0	-36.6	17.9	0.00e+00	0	61	0	1707081728	39	4649
2026-01-23 14:41:41.24	190.92	37.60	-34.8	-36.5	18.0	0.00e+00	0	61	0	1714421760	39	4562
2026-01-23 14:41:42.25	191.11	37.83	-34.8	-36.5	18.0	0.00e+00	0	61	0	1721761792	39	4552
2026-01-23 14:41:43.26	191.29	38.05	-34.8	-36.5	18.0	0.00e+00	0	61	0	1729101824	39	4584
2026-01-23 14:41:44.27	191.49	38.28	-34.8	-36.5	18.0	0.00e+00	0	61	0	1735393280	39	4549
2026-01-23 14:41:45.28	191.68	38.51	-34.6	-36.2	18.3	0.00e+00	0	61	0	1742733312	39	4401
2026-01-23 14:41:46.29	191.88	38.74	-34.9	-36.6	17.8	0.00e+00	0	61	0	1751121920	40	4357
2026-01-23 14:41:47.30	192.07	38.97	-34.9	-36.6	17.8	0.00e+00	0	61	0	1757413376	40	4384
2026-01-23 14:41:48.30	192.27	39.20	-34.9	-36.6	17.8	0.00e+00	0	61	0	1764753408	40	4388
2026-01-23 14:41:49.31	192.48	39.44	-35.1	-36.8	17.7	0.00e+00	0	61	0	1772093440	40	4461
2026-01-23 14:41:50.33	192.69	39.68	-34.9	-36.5	17.9	0.00e+00	0	61	0	1779433472	40	4330
2026-01-23 14:41:51.33	192.90	39.91	-35.0	-36.7	17.8	0.00e+00	0	61	0	1786773504	40	4425
2026-01-23 14:41:52.34	193.11	40.15	-35.1	-36.8	17.7	0.00e+00	0	61	0	1794113536	40	4453
2026-01-23 14:41:53.35	193.33	40.39	-35.1	-36.7	17.8	0.00e+00	0	61	0	1801453568	40	4431
2026-01-23 14:41:54.36	193.55	40.63	-35.2	-36.8	17.7	0.00e+00	0	61	0	1808793600	40	4483
2026-01-23 14:41:55.37	193.77	40.87	-35.0	-36.6	17.9	0.00e+00	0	61	0	1816133632	40	4384
2026-01-23 14:41:56.38	194.00	41.11	-35.1	-36.7	17.8	0.00e+00	0	61	0	1823473664	40	4431
2026-01-23 14:41:57.39	194.23	41.36	-34.9	-36.5	18.1	0.00e+00	0	61	0	1830813696	40	4307
2026-01-23 14:41:58.40	194.46	41.60	-34.8	-36.4	18.2	0.00e+00	0	61	0	1838153728	40	4251
2026-01-23 14:41:59.41	194.70	41.85	-34.9	-36.5	18.1	0.00e+00	0	61	0	1845493760	40	4300
2026-01-23 14:42:00.42	194.94	42.10	-35.0	-36.6	18.0	0.00e+00	0	61	0	1852833792	40	4359
2026-01-23 14:42:01.43	195.18	42.34	-35.1	-36.7	17.9	0.00e+00	0	61	0	1860173824	40	4433
2026-01-23 14:42:02.44	195.43	42.59	-35.1	-36.8	17.8	0.00e+00	0	61	0	1867513856	40	4447
2026-01-23 14:42:03.45	195.68	42.84	-35.0	-36.7	17.9	0.00e+00	0	61	0	1874853888	40	4407
2026-01-23 14:42:04.46	195.94	43.10	-35.1	-36.8	17.9	0.00e+00	0	61	0	1882193920	40	4449
2026-01-23 14:42:05.47	196.20	43.35	-34.9	-36.6	18.0	0.00e+00	0	61	0	1888485376	40	4354
2026-01-23 14:42:06.48	196.46	43.60	-35.1	-36.8	17.7	0.00e+00	0	61	0	1895825408	40	4464
2026-01-23 14:42:07.49	196.73	43.86	-35.1	-36.8	17.8	0.00e+00	0	61	0	1904214016	40	4465
2026-01-23 14:42:08.50	197.00	44.11	-35.3	-37.0	17.7	0.00e+00	0	61	0	1910505472	40	4551
2026-01-23 14:42:09.51	197.28	44.37	-35.3	-36.9	17.7	0.00e+00	0	61	0	1917845504	40	4543
2026-01-23 14:42:10.52	197.56	44.63	-35.3	-36.9	17.7	0.00e+00	0	61	0	1925185536	40	4534
2026-01-23 14:42:11.53	197.85	44.89	-35.1	-36.7	17.9	0.00e+00	0	61	0	1932525568	40	4419
2026-01-23 14:42:12.54	198.14	45.15	-35.3	-36.9	17.8	0.00e+00	0	61	0	1939865600	40	4503
2026-01-23 14:42:13.55	198.43	45.41	-35.2	-36.8	17.8	0.00e+00	0	61	0	1947205632	40	4469
2026-01-23 14:42:14.56	198.73	45.67	-35.3	-36.9	17.7	0.00e+00	0	61	0	1954545664	40	4516
2026-01-23 14:42:15.57	199.03	45.93	-35.8	-36.9	18.0	0.00e+00	0	61	0	1961885696	41	4291
2026-01-23 14:42:16.58	199.34	46.19	-36.0	-37.2	17.8	0.00e+00	0	61	0	1969225728	41	4414
2026-01-23 14:42:17.59	199.66	46.46	-36.1	-37.3	17.7	0.00e+00	0	61	0	1976565760	42	4225
2026-01-23 14:42:18.60	199.98	46.72	-36.3	-37.6	17.5	0.00e+00	0	61	0	1983905792	42	4348
2026-01-23 14:42:19.61	200.30	46.99	-36.5	-37.8	17.3	0.00e+00	0	61	0	1991245824	42	4445
2026-01-23 14:42:20.62	200.63	47.25	-36.4	-37.7	17.3	0.00e+00	0	61	0	1998585856	42	4432
2026-01-23 14:42:21.62	200.97	47.52	-36.5	-37.8	17.3	0.00e+00	0	61	0	2005925888	42	4449
2026-01-23 14:42:22.63	201.31	47.78	-36.5	-37.8	17.3	0.00e+00	0	61	0	2012217344	42	4452
2026-01-23 14:42:23.64	201.66	48.05	-36.2	-37.5	17.6	0.00e+00	0	61	0	2020605952	42	4304
2026-01-23 14:42:24.65	202.01	48.32	-36.2	-37.5	17.6	0.00e+00	0	61	0	2027945984	42	4324
2026-01-23 14:42:25.66	202.37	48.59	-36.3	-37.5	17.6	0.00e+00	0	61	0	2034237440	42	4328
2026-01-23 14:42:26.67	202.74	48.86	-36.1	-37.3	17.8	1.10e-06	0	61	0	2041577472	42	4208
2026-01-23 14:42:27.68	203.11	49.13	-36.7	-38.0	17.0	0.00e+00	0	62	0	2048917504	42	4591
2026-01-23 14:42:28.69	203.49	49.40	-36.1	-37.3	17.7	0.00e+00	0	61	0	2056257536	42	4227
2026-01-23 14:42:29.70	203.88	49.67	-36.2	-37.5	17.6	2.20e-06	0	61	0	2063597568	42	4302
2026-01-23 14:42:30.71	204.27	49.94	-36.5	-37.8	17.3	0.00e+00	0	61	0	2070937600	42	4459
2026-01-23 14:42:31.72	204.67	50.21	-36.6	-37.9	17.2	0.00e+00	0	61	0	2078277632	42	4509
2026-01-23 14:42:32.73	205.07	50.48	-37.0	-38.4	16.7	0.00e+00	0	62	0	2085617664	43	4523
2026-01-23 14:42:33.74	205.49	50.75	-36.6	-37.9	17.2	0.00e+00	0	61	0	2092957696	43	4269
2026-01-23 14:42:34.75	205.91	51.02	-36.7	-38.0	17.1	0.00e+00	0	61	0	2100297728	43	4303
2026-01-23 14:42:35.76	206.34	51.29	-36.9	-38.2	16.9	0.00e+00	0	62	0	2107637760	43	4428
2026-01-23 14:42:36.77	206.78	51.56	-37.2	-38.6	16.5	0.00e+00	0	61	0	2114977792	43	4633
2026-01-23 14:42:37.78	207.22	51.83	-36.9	-38.2	17.0	0.00e+00	0	61	0	2122317824	44	4179
2026-01-23 14:42:38.78	207.67	52.10	-37.3	-38.7	16.5	0.00e+00	0	61	0	2129657856	44	4420
2026-01-23 14:42:39.79	208.13	52.37	-36.9	-38.2	17.0	0.00e+00	0	61	0	2136997888	44	4172
2026-01-23 14:42:40.80	208.60	52.64	-36.6	-37.9	17.3	0.00e+00	0	62	0	2144337920	44	4045
2026-01-23 14:42:41.81	209.08	52.91	-36.5	-37.8	17.4	0.00e+00	0	62	0	2151677952	44	3969
2026-01-23 14:42:42.82	209.57	53.17	-36.8	-38.1	17.2	0.00e+00	0	62	0	2159017984	44	4104
2026-01-23 14:42:43.83	210.06	53.44	-36.7	-38.0	17.1	0.00e+00	0	61	0	2165309440	43	4334
2026-01-23 14:42:44.84	210.57	53.71	-36.7	-38.1	17.0	0.00e+00	0	61	0	2173698048	43	4347
2026-01-23 14:42:45.85	211.08	53.97	-36.7	-38.1	17.0	0.00e+00	0	61	0	2181038080	43	4344
2026-01-23 14:42:46.86	211.60	54.24	-36.7	-38.0	17.0	0.00e+00	0	61	0	2187329536	43	4316
2026-01-23 14:42:47.87	212.14	54.50	-36.9	-38.3	16.8	0.00e+00	0	61	0	2194669568	43	4449
2026-01-23 14:42:48.88	212.68	54.77	-36.8	-38.1	16.9	0.00e+00	0	61	0	2202009600	43	4380
2026-01-23 14:42:49.89	213.23	55.03	-36.7	-38.0	17.2	0.00e+00	0	61	0	2209349632	43	4304
2026-01-23 14:42:50.90	213.80	55.29	-36.7	-38.0	17.1	0.00e+00	0	61	0	2216689664	43	4313
2026-01-23 14:42:51.91	214.37	55.55	-36.5	-37.7	17.4	0.00e+00	0	61	0	2224029696	43	4188
2026-01-23 14:42:52.93	214.96	55.81	-36.5	-37.8	17.3	0.00e+00	0	61	0	2231369728	43	4206
2026-01-23 14:42:53.94	215.55	56.06	-36.6	-37.9	17.2	0.00e+00	0	62	0	2238709760	43	4277
2026-01-23 14:42:54.94	216.15	56.31	-36.3	-37.5	17.6	0.00e+00	0	61	0	2246049792	43	4085
2026-01-23 14:42:55.96	216.78	56.57	-36.3	-37.5	17.5	0.00e+00	0	62	0	2253389824	43	4093
2026-01-23 14:42:56.97	217.41	56.82	-36.3	-37.5	17.5	1.10e-06	0	61	0	2260729856	43	4092
2026-01-23 14:42:57.98	218.04	57.06	-36.7	-38.1	17.0	0.00e+00	0	61	0	2268069888	43	4350
2026-01-23 14:42:58.98	218.69	57.31	-36.6	-37.9	17.2	0.00e+00	0	61	0	2275409920	43	4280
2026-01-23 14:43:00.00	219.36	57.55	-36.6	-37.9	17.1	0.00e+00	0	61	0	2282749952	43	4261
2026-01-23 14:43:01.01	220.03	57.79	-36.7	-38.0	17.0	0.00e+00	0	61	0	2290089984	43	4334
2026-01-23 14:43:02.01	220.71	58.02	-36.8	-38.1	17.0	0.00e+00	0	62	0	2297430016	43	4374
2026-01-23 14:43:03.02	221.41	58.26	-36.6	-37.9	17.2	0.00e+00	0	61	0	2304770048	43	4250
2026-01-23 14:43:04.03	222.12	58.49	-36.4	-37.7	17.3	0.00e+00	0	61	0	2311061504	43	4177
2026-01-23 14:43:05.04	222.84	58.72	-36.4	-37.6	17.4	0.00e+00	0	62	0	2319450112	43	4139
2026-01-23 14:43:06.05	223.58	58.94	-36.3	-37.6	17.5	0.00e+00	0	62	0	2326790144	43	4129
2026-01-23 14:43:07.06	224.33	59.16	-36.3	-37.5	17.6	0.00e+00	0	62	0	2333081600	43	4078
2026-01-23 14:43:08.07	225.09	59.38	-36.4	-37.7	17.3	0.00e+00	0	62	0	2340421632	43	4164
2026-01-23 14:43:09.08	225.86	59.59	-36.4	-37.6	17.4	0.00e+00	0	61	0	2347761664	43	4140
2026-01-23 14:43:10.09	226.64	59.80	-36.2	-37.5	17.6	0.00e+00	0	62	0	2355101696	43	4059
2026-01-23 14:43:11.10	227.44	60.01	-36.3	-37.5	17.6	0.00e+00	0	61	0	2362441728	43	4078
2026-01-23 14:43:12.11	228.25	60.21	-36.1	-37.3	17.7	0.00e+00	0	61	0	2369781760	43	3985
2026-01-23 14:43:13.12	229.07	60.40	-36.0	-37.2	17.8	0.00e+00	0	61	0	2377121792	43	3954
2026-01-23 14:43:14.13	229.91	60.60	-36.0	-37.2	17.8	0.00e+00	0	62	0	2384461824	42	4188
2026-01-23 14:43:15.14	230.76	60.78	-35.9	-37.0	18.0	0.00e+00	0	62	0	2391801856	42	4096
2026-01-23 14:43:16.15	231.62	60.96	-36.0	-37.2	17.9	0.00e+00	0	62	0	2399141888	42	4173
2026-01-23 14:43:17.16	232.49	61.14	-35.9	-37.1	18.0	0.00e+00	0	62	0	2406481920	42	4117
2026-01-23 14:43:18.17	233.38	61.31	-35.8	-36.9	18.1	0.00e+00	0	62	0	2413821952	42	4048
2026-01-23 14:43:19.18	234.27	61.48	-35.9	-37.0	18.0	0.00e+00	0	62	0	2421161984	42	4095
2026-01-23 14:43:20.19	235.18	61.64	-36.0	-37.2	17.8	0.00e+00	0	62	0	2428502016	42	4180
2026-01-23 14:43:21.20	236.10	61.79	-36.2	-37.5	17.6	0.00e+00	0	62	0	2435842048	42	4316
2026-01-23 14:43:22.21	237.03	61.94	-36.3	-37.6	17.5	0.00e+00	0	61	0	2443182080	42	4362
2026-01-23 14:43:23.22	237.97	62.08	-36.1	-37.3	17.8	0.00e+00	0	62	0	2450522112	42	4215
2026-01-23 14:43:24.23	238.93	62.22	-35.9	-37.2	17.9	0.00e+00	0	61	0	2457862144	42	4150
2026-01-23 14:43:25.24	239.89	62.35	-35.9	-37.1	18.0	0.00e+00	0	62	0	2465202176	42	4105
2026-01-23 14:43:26.24	240.85	62.47	-36.1	-37.3	17.8	1.10e-06	0	62	0	2472542208	42	4220
2026-01-23 14:43:27.25	241.84	62.58	-36.1	-37.4	17.7	0.00e+00	0	62	0	2479882240	42	4256
2026-01-23 14:43:28.26	242.83	62.69	-36.1	-37.3	17.7	0.00e+00	0	61	0	2486173696	42	4239
2026-01-23 14:43:29.27	243.83	62.79	-36.0	-37.2	17.8	0.00e+00	0	61	0	2493513728	42	4192
2026-01-23 14:43:30.28	244.84	62.89	-36.0	-37.2	17.8	0.00e+00	0	62	0	2500853760	42	4187
2026-01-23 14:43:31.29	245.85	62.97	-35.9	-37.2	17.9	0.00e+00	0	61	0	2508193792	42	4153
2026-01-23 14:43:32.30	246.87	63.05	-35.8	-37.0	18.1	0.00e+00	0	62	0	2515533824	42	4060
2026-01-23 14:43:33.31	247.90	63.13	-35.7	-36.9	18.2	0.00e+00	0	62	0	2522873856	42	4006
2026-01-23 14:43:34.32	248.94	63.19	-35.6	-36.7	18.3	0.00e+00	0	62	0	2530213888	42	3957
2026-01-23 14:43:35.33	249.98	63.25	-35.7	-36.9	18.2	1.60e-05	0	61	0	2537553920	42	4006
2026-01-23 14:43:36.34	251.03	63.30	-35.8	-37.1	18.0	0.00e+00	0	62	0	2544893952	42	4105
2026-01-23 14:43:37.35	252.08	63.34	-35.9	-37.1	18.0	0.00e+00	0	61	0	2552233984	42	4114
2026-01-23 14:43:38.36	253.13	63.37	-35.8	-37.0	18.0	0.00e+00	0	62	0	2559574016	42	4079
2026-01-23 14:43:39.37	254.18	63.40	-35.9	-37.1	18.0	0.00e+00	0	61	0	2566914048	42	4118
2026-01-23 14:43:40.38	255.24	63.42	-35.8	-37.0	18.0	0.00e+00	0	62	0	2574254080	42	4067
2026-01-23 14:43:41.39	256.30	63.43	-35.9	-37.2	17.9	0.00e+00	0	62	0	2581594112	42	4151
2026-01-23 14:43:42.40	257.36	63.43	-35.8	-37.0	18.0	0.00e+00	0	62	0	2588934144	42	4059
2026-01-23 14:43:43.41	258.42	63.42	-35.7	-36.9	18.2	0.00e+00	0	62	0	2596274176	42	4029
2026-01-23 14:43:44.41	259.46	63.41	-35.5	-36.6	18.4	0.00e+00	0	62	0	2603614208	42	3909
2026-01-23 14:43:45.42	260.52	63.39	-35.7	-36.8	18.2	0.00e+00	0	62	0	2609905664	42	4003
2026-01-23 14:43:46.43	261.57	63.36	-35.7	-36.9	18.0	0.00e+00	0	61	0	2617245696	42	4040
2026-01-23 14:43:47.44	262.63	63.32	-35.9	-37.2	17.9	0.00e+00	0	62	0	2625634304	42	4162
2026-01-23 14:43:48.45	263.67	63.27	-35.9	-37.1	17.9	0.00e+00	0	62	0	2631925760	42	4136
2026-01-23 14:43:49.46	264.72	63.22	-35.8	-37.0	18.0	0.00e+00	0	61	0	2639265792	42	4069
2026-01-23 14:43:50.47	265.75	63.16	-35.9	-37.1	18.0	0.00e+00	0	62	0	2646605824	42	4104
2026-01-23 14:43:51.48	266.79	63.09	-36.0	-37.2	17.8	0.00e+00	0	61	0	2653945856	42	4191
2026-01-23 14:43:52.49	267.81	63.01	-36.2	-37.5	17.6	0.00e+00	0	62	0	2661285888	42	4295
2026-01-23 14:43:53.50	268.83	62.93	-36.3	-37.5	17.3	0.00e+00	0	62	0	2668625920	42	4339
2026-01-23 14:43:54.51	269.84	62.84	-36.1	-37.4	17.7	0.00e+00	0	62	0	2675965952	42	4259
2026-01-23 14:43:55.52	270.84	62.74	-35.9	-37.2	17.9	0.00e+00	0	62	0	2683305984	42	4150
2026-01-23 14:43:56.53	271.84	62.64	-36.0	-37.3	17.8	0.00e+00	0	62	0	2690646016	42	4200
2026-01-23 14:43:57.54	272.83	62.52	-36.0	-37.2	17.9	0.00e+00	0	61	0	2697986048	42	4162
2026-01-23 14:43:58.55	273.80	62.41	-36.2	-37.5	17.6	0.00e+00	0	62	0	2705326080	42	4315
2026-01-23 14:43:59.56	274.77	62.28	-36.2	-37.4	17.7	0.00e+00	0	62	0	2712666112	42	4267
2026-01-23 14:44:00.57	275.73	62.15	-36.2	-37.4	17.6	0.00e+00	0	62	0	2720006144	42	4272
2026-01-23 14:44:01.58	276.67	62.01	-36.1	-37.4	17.6	0.00e+00	0	62	0	2727346176	42	4265
2026-01-23 14:44:02.58	277.60	61.87	-36.2	-37.4	17.6	0.00e+00	0	62	0	2734686208	42	4289
2026-01-23 14:44:03.59	278.52	61.71	-36.4	-37.7	17.3	0.00e+00	0	61	0	2742026240	42	4419
2026-01-23 14:44:04.60	279.44	61.56	-36.6	-37.9	17.2	0.00e+00	0	62	0	2749366272	42	4516
2026-01-23 14:44:05.61	280.34	61.40	-36.4	-37.7	17.4	0.00e+00	0	62	0	2756706304	42	4421
2026-01-23 14:44:06.62	281.23	61.23	-36.4	-37.7	17.4	0.00e+00	0	62	0	2762997760	42	4422
2026-01-23 14:44:07.63	282.11	61.05	-36.6	-37.9	17.2	0.00e+00	0	62	0	2770337792	42	4533
2026-01-23 14:44:08.64	282.97	60.87	-36.5	-37.8	17.3	0.00e+00	0	62	0	2778726400	42	4457
2026-01-23 14:44:09.65	283.82	60.69	-36.5	-37.8	17.4	0.00e+00	0	62	0	2785017856	42	4442
2026-01-23 14:44:10.66	284.66	60.50	-36.3	-37.6	17.5	0.00e+00	0	62	0	2792357888	42	4351
2026-01-23 14:44:11.67	285.49	60.31	-36.3	-37.5	17.6	0.00e+00	0	62	0	2799697920	42	4330
2026-01-23 14:44:12.68	286.31	60.11	-36.3	-37.5	17.5	0.00e+00	0	62	0	2807037952	42	4322
2026-01-23 14:44:13.69	287.11	59.91	-36.3	-37.6	17.5	0.00e+00	0	62	0	2814377984	42	4361
2026-01-23 14:44:14.69	287.89	59.70	-36.2	-37.5	17.6	0.00e+00	0	61	0	2821718016	42	4299
2026-01-23 14:44:15.70	288.67	59.49	-36.4	-37.7	17.4	0.00e+00	0	62	0	2829058048	42	4425
2026-01-23 14:44:16.71	289.44	59.28	-36.4	-37.7	17.4	0.00e+00	0	61	0	2836398080	42	4420
2026-01-23 14:44:17.72	290.19	59.06	-36.6	-37.9	17.2	0.00e+00	0	62	0	2843738112	42	4507
2026-01-23 14:44:18.73	290.93	58.84	-36.7	-38.1	17.0	0.00e+00	0	62	0	2851078144	43	4346
2026-01-23 14:44:19.74	291.66	58.61	-36.5	-37.8	17.2	0.00e+00	0	62	0	2858418176	43	4225
2026-01-23 14:44:20.75	292.37	58.38	-36.3	-37.6	17.4	0.00e+00	0	62	0	2865758208	43	4118
2026-01-23 14:44:21.76	293.08	58.15	-36.3	-37.6	17.6	0.00e+00	0	62	0	2873098240	43	4107
2026-01-23 14:44:22.77	293.77	57.92	-36.4	-37.6	17.5	0.00e+00	0	62	0	2880438272	43	4132
2026-01-23 14:44:23.78	294.45	57.68	-36.4	-37.7	17.4	0.00e+00	0	61	0	2886729728	43	4159
2026-01-23 14:44:24.79	295.11	57.44	-36.4	-37.7	17.3	0.00e+00	0	61	0	2895118336	43	4169
2026-01-23 14:44:25.80	295.77	57.20	-36.5	-37.8	17.3	0.00e+00	0	61	0	2902458368	43	4198
2026-01-23 14:44:26.81	296.41	56.95	-36.3	-37.6	17.5	0.00e+00	0	62	0	2908749824	43	4120
2026-01-23 14:44:27.82	297.05	56.70	-36.4	-37.6	17.5	0.00e+00	0	62	0	2916089856	43	4139
2026-01-23 14:44:28.83	297.67	56.45	-36.5	-37.8	17.3	0.00e+00	0	62	0	2923429888	43	4200
2026-01-23 14:44:29.84	298.28	56.20	-36.5	-37.8	17.2	0.00e+00	0	62	0	2930769920	43	4216
2026-01-23 14:44:30.84	298.87	55.95	-36.6	-37.9	17.1	0.00e+00	0	62	0	2938109952	43	4283
2026-01-23 14:44:31.85	299.46	55.69	-36.6	-37.9	17.1	0.00e+00	0	62	0	2945449984	43	4283
2026-01-23 14:44:32.86	300.04	55.44	-36.6	-37.9	17.2	0.00e+00	0	62	0	2952790016	43	4274
2026-01-23 14:44:33.86	300.60	55.18	-36.6	-37.8	17.3	0.00e+00	0	62	0	2960130048	43	4236
2026-01-23 14:44:34.87	301.16	54.92	-36.6	-37.9	17.2	0.00e+00	0	62	0	2967470080	43	4257
2026-01-23 14:44:35.89	301.71	54.66	-36.6	-37.9	17.2	0.00e+00	0	62	0	2974810112	43	4264
2026-01-23 14:44:36.90	302.25	54.39	-36.6	-37.9	17.1	0.00e+00	0	62	0	2982150144	43	4288
2026-01-23 14:44:37.91	302.78	54.13	-36.6	-37.9	17.2	0.00e+00	0	62	0	2989490176	43	4269
2026-01-23 14:44:38.92	303.29	53.87	-36.6	-37.8	17.2	0.00e+00	0	62	0	2996830208	43	4239
2026-01-23 14:44:39.93	303.80	53.60	-36.5	-37.8	17.3	0.00e+00	0	62	0	3004170240	43	4223
2026-01-23 14:44:40.94	304.30	53.34	-36.5	-37.8	17.3	0.00e+00	0	62	0	3011510272	43	4199
2026-01-23 14:44:41.95	304.79	53.07	-36.5	-37.7	17.4	0.00e+00	0	62	0	3018850304	43	4183
2026-01-23 14:44:42.96	305.27	52.80	-36.4	-37.7	17.4	0.00e+00	0	62	0	3026190336	43	4180
2026-01-23 14:44:43.97	305.75	52.53	-36.7	-38.0	17.0	0.00e+00	0	62	0	3033530368	43	4308
2026-01-23 14:44:44.98	306.21	52.26	-37.0	-38.4	16.7	0.00e+00	0	62	0	3040870400	43	4494
2026-01-23 14:44:45.98	306.66	52.00	-37.0	-38.3	16.8	0.00e+00	0	62	0	3048210432	43	4488
2026-01-23 14:44:46.99	307.11	51.73	-37.0	-38.3	16.8	0.00e+00	0	62	0	3055550464	43	4484
2026-01-23 14:44:48.00	307.55	51.46	-36.8	-38.1	17.0	0.00e+00	0	62	0	3061841920	43	4358
2026-01-23 14:44:49.01	307.99	51.19	-36.6	-37.9	17.2	0.00e+00	0	62	0	3069181952	43	4261
2026-01-23 14:44:50.02	308.41	50.92	-36.4	-37.7	17.4	0.00e+00	0	62	0	3076521984	43	4152
2026-01-23 14:44:51.03	308.83	50.65	-36.5	-37.8	17.3	0.00e+00	0	62	0	3083862016	43	4212
2026-01-23 14:44:52.04	309.24	50.38	-36.6	-37.8	17.2	0.00e+00	0	62	0	3091202048	43	4241
2026-01-23 14:44:53.05	309.64	50.11	-36.6	-37.8	17.2	0.00e+00	0	62	0	3098542080	43	4229
2026-01-23 14:44:54.06	310.04	49.84	-36.5	-37.8	17.3	0.00e+00	0	62	0	3105882112	43	4200
2026-01-23 14:44:55.07	310.43	49.57	-36.3	-37.6	17.5	0.00e+00	0	62	0	3113222144	43	4106
2026-01-23 14:44:56.08	310.81	49.30	-36.3	-37.6	17.6	0.00e+00	0	62	0	3120562176	43	4111
2026-01-23 14:44:57.09	311.18	49.03	-36.4	-37.6	17.4	0.00e+00	0	62	0	3127902208	43	4139
2026-01-23 14:44:58.10	311.55	48.77	-36.5	-37.7	17.3	0.00e+00	0	62	0	3135242240	43	4172
2026-01-23 14:44:59.11	311.92	48.50	-36.4	-37.7	17.4	0.00e+00	0	62	0	3142582272	43	4155
2026-01-23 14:45:00.12	312.27	48.23	-36.5	-37.8	17.3	0.00e+00	0	62	0	3149922304	43	4205
2026-01-23 14:45:01.13	312.62	47.96	-36.4	-37.7	17.4	0.00e+00	0	62	0	3157262336	43	4166
2026-01-23 14:45:02.14	312.97	47.70	-36.4	-37.6	17.4	0.00e+00	0	62	0	3164602368	43	4133
2026-01-23 14:45:03.15	313.31	47.43	-36.1	-37.3	17.8	0.00e+00	0	62	0	3171942400	43	3990
2026-01-23 14:45:04.16	313.64	47.17	-35.9	-37.1	18.0	0.00e+00	0	62	0	3179282432	42	4134
2026-01-23 14:45:05.17	313.97	46.90	-36.0	-37.1	17.5	0.00e+00	0	62	0	3185573888	42	4145
2026-01-23 14:45:06.18	314.29	46.64	-35.5	-36.6	18.5	0.00e+00	0	62	0	3193962496	42	3906
2026-01-23 14:45:07.19	314.61	46.38	-35.4	-36.6	18.5	0.00e+00	0	62	0	3201302528	41	4113
2026-01-23 14:45:08.20	314.92	46.11	-35.4	-36.5	18.6	0.00e+00	0	62	0	3207593984	41	4067
2026-01-23 14:45:09.21	315.23	45.85	-35.1	-36.2	18.8	0.00e+00	0	62	0	3214934016	41	3958
2026-01-23 14:45:10.22	315.53	45.59	-35.1	-36.2	18.7	0.00e+00	0	62	0	3222274048	41	3953
2026-01-23 14:45:11.23	315.83	45.33	-35.0	-36.1	18.9	0.00e+00	0	62	0	3229614080	40	4132
2026-01-23 14:45:12.24	316.12	45.07	-35.2	-36.3	18.8	0.00e+00	0	62	0	3236954112	40	4213
2026-01-23 14:45:13.25	316.41	44.82	-35.3	-36.4	18.7	0.00e+00	0	62	0	3244294144	40	4269
2026-01-23 14:45:14.25	316.69	44.56	-35.4	-36.6	18.5	0.00e+00	0	62	0	3251634176	40	4346
2026-01-23 14:45:15.26	316.96	44.31	-35.5	-36.7	18.4	0.00e+00	0	62	0	3258974208	40	4404
2026-01-23 14:45:16.27	317.24	44.05	-35.5	-36.6	18.4	0.00e+00	0	62	0	3266314240	40	4390
2026-01-23 14:45:17.28	317.51	43.80	-35.5	-36.7	18.4	0.00e+00	0	62	0	3273654272	40	4410
2026-01-23 14:45:18.29	317.77	43.54	-35.4	-36.6	18.5	0.00e+00	0	62	0	3280994304	40	4343
2026-01-23 14:45:19.30	318.04	43.29	-35.3	-36.4	18.7	0.00e+00	0	62	0	3288334336	40	4268
2026-01-23 14:45:20.31	318.29	43.04	-35.2	-36.3	18.7	0.00e+00	0	62	0	3295674368	40	4222
2026-01-23 14:45:21.32	318.55	42.79	-35.2	-36.3	18.7	0.00e+00	0	62	0	3303014400	40	4231
2026-01-23 14:45:22.33	318.80	42.54	-35.2	-36.3	18.8	0.00e+00	0	62	0	3310354432	40	4214
2026-01-23 14:45:23.34	319.04	42.29	-35.2	-36.3	18.7	0.00e+00	0	62	0	3317694464	40	4227
2026-01-23 14:45:24.35	319.29	42.05	-35.2	-36.3	18.7	0.00e+00	0	62	0	3325034496	40	4214
2026-01-23 14:45:25.37	319.53	41.80	-35.3	-36.4	18.6	0.00e+00	0	62	0	3332374528	40	4259
2026-01-23 14:45:26.38	319.76	41.55	-35.2	-36.4	18.6	0.00e+00	0	62	0	3339714560	40	4245
2026-01-23 14:45:27.39	319.99	41.31	-35.1	-36.2	18.8	0.00e+00	0	62	0	3347054592	40	4182
2026-01-23 14:45:28.40	320.22	41.07	-35.2	-36.3	18.8	0.00e+00	0	62	0	3354394624	40	4212
2026-01-23 14:45:29.41	320.45	40.83	-35.2	-36.4	18.7	0.00e+00	0	62	0	3360686080	40	4252
2026-01-23 14:45:30.42	320.67	40.59	-35.3	-36.5	18.6	0.00e+00	0	62	0	3368026112	40	4307
2026-01-23 14:45:31.43	320.89	40.35	-35.4	-36.6	18.4	0.00e+00	0	62	0	3375366144	40	4354
2026-01-23 14:45:32.44	321.10	40.11	-35.4	-36.6	18.5	0.00e+00	0	62	0	3382706176	40	4353
2026-01-23 14:45:33.45	321.31	39.87	-35.4	-36.6	18.4	0.00e+00	0	62	0	3390046208	40	4352
2026-01-23 14:45:34.46	321.52	39.64	-35.4	-36.5	18.5	0.00e+00	0	62	0	3397386240	40	4336
2026-01-23 14:45:35.47	321.73	39.40	-35.4	-36.6	18.5	0.00e+00	0	62	0	3404726272	40	4357
2026-01-23 14:45:36.48	321.93	39.17	-35.3	-36.4	18.5	0.00e+00	0	62	0	3412066304	40	4276
2026-01-23 14:45:37.49	322.13	38.94	-35.2	-36.3	18.7	0.00e+00	0	62	0	3419406336	40	4231
2026-01-23 14:45:38.50	322.33	38.71	-35.2	-36.3	18.7	0.00e+00	0	62	0	3426746368	40	4210
2026-01-23 14:45:39.51	322.53	38.48	-35.2	-36.3	18.7	0.00e+00	0	62	0	3434086400	40	4213
2026-01-23 14:45:40.52	322.72	38.25	-35.1	-36.3	18.8	0.00e+00	0	62	0	3441426432	40	4195
2026-01-23 14:45:41.53	322.91	38.02	-35.3	-36.4	18.6	0.00e+00	0	62	0	3448766464	40	4262
2026-01-23 14:45:42.54	323.10	37.80	-35.2	-36.4	18.7	0.00e+00	0	62	0	3456106496	40	4250
2026-01-23 14:45:43.55	323.28	37.57	-35.3	-36.4	18.6	0.00e+00	0	62	0	3463446528	40	4262
2026-01-23 14:45:44.56	323.46	37.35	-35.3	-36.5	18.6	0.00e+00	0	62	0	3470786560	40	4295
2026-01-23 14:45:45.57	323.64	37.13	-35.3	-36.5	18.5	0.00e+00	0	62	0	3478126592	40	4295
2026-01-23 14:45:46.58	323.82	36.91	-35.4	-36.6	18.3	0.00e+00	0	62	0	3485466624	40	4358
2026-01-23 14:45:47.59	324.00	36.69	-35.3	-36.5	18.6	0.00e+00	0	62	0	3492806656	40	4294
2026-01-23 14:45:48.60	324.17	36.47	-35.2	-36.3	18.7	0.00e+00	0	62	0	3500146688	40	4232
2026-01-23 14:45:49.61	324.34	36.25	-35.3	-36.5	18.5	0.00e+00	0	62	0	3506438144	40	4298
2026-01-23 14:45:50.61	324.51	36.04	-35.2	-36.3	18.7	0.00e+00	0	62	0	3513778176	40	4213
2026-01-23 14:45:51.62	324.67	35.82	-35.2	-36.3	18.7	0.00e+00	0	62	0	3521118208	40	4221
2026-01-23 14:45:52.63	324.84	35.61	-35.3	-36.4	18.6	0.00e+00	0	62	0	3528458240	40	4263
2026-01-23 14:45:53.64	325.00	35.40	-35.2	-36.3	18.7	0.00e+00	0	62	0	3535798272	40	4219
2026-01-23 14:45:54.65	325.16	35.18	-35.2	-36.4	18.6	0.00e+00	0	62	0	3543138304	40	4253
2026-01-23 14:45:55.66	325.32	34.97	-35.1	-36.2	18.8	0.00e+00	0	62	0	3550478336	40	4150
2026-01-23 14:45:56.67	325.47	34.76	-35.0	-36.1	18.9	0.00e+00	0	62	0	3557818368	40	4113
2026-01-23 14:45:57.68	325.63	34.56	-35.0	-36.1	18.8	0.00e+00	0	62	0	3565158400	40	4123
2026-01-23 14:45:58.69	325.78	34.35	-35.0	-36.1	18.9	0.00e+00	0	62	0	3572498432	40	4125
2026-01-23 14:45:59.70	325.93	34.14	-35.0	-36.1	18.9	0.00e+00	0	62	0	3579838464	40	4116
2026-01-23 14:46:00.71	326.08	33.94	-35.0	-36.2	18.8	0.00e+00	0	62	0	3587178496	40	4146
2026-01-23 14:46:01.72	326.23	33.74	-34.9	-36.1	18.9	0.00e+00	0	62	0	3594518528	40	4102
2026-01-23 14:46:02.73	326.37	33.53	-35.0	-36.1	18.8	0.00e+00	0	62	0	3601858560	40	4142
2026-01-23 14:46:03.74	326.52	33.33	-35.0	-36.1	18.9	0.00e+00	0	62	0	3609198592	40	4145
2026-01-23 14:46:04.75	326.66	33.13	-35.2	-36.3	18.7	0.00e+00	0	62	0	3616538624	40	4221
2026-01-23 14:46:05.76	326.80	32.94	-35.1	-36.2	18.8	0.00e+00	0	62	0	3623878656	40	4171
2026-01-23 14:46:06.77	326.94	32.74	-35.1	-36.2	18.7	0.00e+00	0	62	0	3631218688	40	4190
2026-01-23 14:46:07.78	327.07	32.54	-35.1	-36.3	18.7	0.00e+00	0	62	0	3637510144	40	4210
2026-01-23 14:46:08.78	327.21	32.35	-35.1	-36.2	18.7	0.00e+00	0	62	0	3645898752	40	4182
2026-01-23 14:46:09.79	327.34	32.15	-35.1	-36.2	18.7	0.00e+00	0	62	0	3653238784	40	4182
2026-01-23 14:46:10.80	327.47	31.96	-35.0	-36.2	18.8	0.00e+00	0	62	0	3659530240	40	4152
2026-01-23 14:46:11.81	327.60	31.77	-35.2	-36.3	18.6	0.00e+00	0	62	0	3666870272	40	4219
2026-01-23 14:46:12.82	327.73	31.58	-35.2	-36.3	18.6	0.00e+00	0	62	0	3674210304	40	4236
2026-01-23 14:46:13.83	327.86	31.39	-35.1	-36.2	18.7	0.00e+00	0	62	0	3681550336	40	4187
2026-01-23 14:46:14.84	327.98	31.20	-35.0	-36.1	18.8	0.00e+00	0	62	0	3688890368	40	4111
2026-01-23 14:46:15.85	328.11	31.01	-34.8	-35.9	19.0	0.00e+00	0	62	0	3696230400	40	4028
2026-01-23 14:46:16.86	328.23	30.82	-34.8	-35.9	19.0	0.00e+00	0	62	0	3703570432	40	4048
2026-01-23 14:46:17.87	328.35	30.64	-34.9	-35.9	19.0	0.00e+00	0	62	0	3710910464	40	4042
2026-01-23 14:46:18.88	328.48	30.45	-34.8	-35.9	19.0	0.00e+00	0	62	0	3718250496	40	4044
2026-01-23 14:46:19.89	328.59	30.27	-34.9	-36.0	18.9	0.00e+00	0	62	0	3725590528	40	4083
2026-01-23 14:46:20.90	328.71	30.09	-34.9	-36.0	18.9	0.00e+00	0	62	0	3732930560	40	4078
2026-01-23 14:46:21.91	328.83	29.91	-34.9	-36.0	18.9	0.00e+00	0	62	0	3740270592	40	4087
2026-01-23 14:46:22.92	328.94	29.73	-35.0	-36.1	18.8	0.00e+00	0	62	0	3747610624	40	4107
2026-01-23 14:46:23.93	329.06	29.55	-35.0	-36.1	18.8	0.00e+00	0	62	0	3754950656	40	4135
2026-01-23 14:46:24.94	329.17	29.37	-35.0	-36.2	18.7	0.00e+00	0	62	0	3762290688	40	4157
2026-01-23 14:46:25.95	329.28	29.19	-35.1	-36.2	18.6	0.00e+00	0	62	0	3769630720	40	4187
2026-01-23 14:46:26.96	329.39	29.02	-35.2	-36.3	18.6	0.00e+00	0	62	0	3776970752	40	4214
2026-01-23 14:46:27.97	329.50	28.84	-35.2	-36.3	18.5	0.00e+00	0	62	0	3783262208	40	4217
2026-01-23 14:46:28.98	329.61	28.67	-35.2	-36.3	18.5	0.00e+00	0	62	0	3791650816	40	4233
2026-01-23 14:46:29.99	329.72	28.49	-35.3	-36.4	18.4	0.00e+00	0	62	0	3798990848	40	4272
2026-01-23 14:46:31.00	329.83	28.32	-35.2	-36.4	18.5	0.00e+00	0	62	0	3805282304	40	4255
2026-01-23 14:46:32.01	329.93	28.15	-35.3	-36.4	18.5	0.00e+00	0	62	0	3812622336	40	4280
2026-01-23 14:46:33.02	330.03	27.98	-35.3	-36.4	18.5	0.00e+00	0	62	0	3819962368	40	4285
2026-01-23 14:46:34.03	330.14	27.81	-35.3	-36.4	18.4	0.00e+00	0	62	0	3827302400	40	4273
2026-01-23 14:46:35.04	330.24	27.64	-35.2	-36.4	18.5	0.00e+00	0	62	0	3834642432	40	4274
2026-01-23 14:46:36.05	330.34	27.47	-35.3	-36.4	18.5	0.00e+00	0	62	0	3841982464	40	4283
2026-01-23 14:46:37.06	330.44	27.31	-35.2	-36.4	18.5	0.00e+00	0	62	0	3849322496	40	4253
2026-01-23 14:46:38.07	330.54	27.14	-35.2	-36.3	18.6	0.00e+00	0	62	0	3856662528	40	4238
2026-01-23 14:46:39.08	330.64	26.98	-35.2	-36.3	18.5	0.00e+00	0	62	0	3864002560	40	4233
2026-01-23 14:46:40.09	330.73	26.81	-35.2	-36.3	18.5	0.00e+00	0	62	0	3871342592	40	4226
2026-01-23 14:46:41.10	330.83	26.65	-35.2	-36.3	18.5	0.00e+00	0	62	0	3878682624	40	4229
2026-01-23 14:46:42.11	330.92	26.49	-35.2	-36.3	18.6	0.00e+00	0	62	0	3886022656	40	4220
2026-01-23 14:46:43.12	331.02	26.33	-35.1	-36.2	18.6	0.00e+00	0	62	0	3893362688	40	4182
2026-01-23 14:46:44.13	331.11	26.17	-35.0	-36.1	18.7	0.00e+00	0	62	0	3900702720	40	4145
2026-01-23 14:46:45.14	331.20	26.01	-35.0	-36.1	18.7	0.00e+00	0	62	0	3908042752	40	4138
2026-01-23 14:46:46.15	331.30	25.85	-35.0	-36.2	18.7	0.00e+00	0	62	0	3915382784	40	4146
2026-01-23 14:46:47.15	331.39	25.69	-35.0	-36.1	18.7	0.00e+00	0	62	0	3922722816	40	4113
2026-01-23 14:46:48.17	331.48	25.53	-35.0	-36.1	18.7	0.00e+00	0	62	0	3930062848	40	4134
2026-01-23 14:46:49.18	331.56	25.38	-35.0	-36.1	18.6	0.00e+00	0	62	0	3936354304	40	4140
2026-01-23 14:46:50.19	331.65	25.22	-35.0	-36.1	18.7	0.00e+00	0	62	0	3944742912	40	4141
2026-01-23 14:46:51.20	331.74	25.07	-35.0	-36.1	18.6	0.00e+00	0	62	0	3952082944	40	4144
2026-01-23 14:46:52.21	331.83	24.91	-35.1	-36.2	18.6	0.00e+00	0	62	0	3958374400	40	4186
2026-01-23 14:46:53.22	331.91	24.76	-35.1	-36.2	18.6	0.00e+00	0	62	0	3965714432	40	4188
2026-01-23 14:46:54.23	332.00	24.61	-35.2	-36.4	18.4	0.00e+00	0	62	0	3973054464	40	4244
2026-01-23 14:46:55.24	332.08	24.46	-35.2	-36.3	18.5	0.00e+00	0	62	0	3980394496	40	4212
2026-01-23 14:46:56.24	332.16	24.31	-35.3	-36.4	18.4	0.00e+00	0	62	0	3987734528	40	4276
2026-01-23 14:46:57.25	332.25	24.16	-35.3	-36.5	18.3	0.00e+00	0	62	0	3995074560	40	4316
2026-01-23 14:46:58.26	332.33	24.01	-35.4	-36.6	18.2	0.00e+00	0	62	0	4002414592	40	4342
2026-01-23 14:46:59.27	332.41	23.87	-35.4	-36.5	18.2	0.00e+00	0	62	0	4009754624	40	4338
2026-01-23 14:47:00.28	332.49	23.72	-35.5	-36.7	18.1	0.00e+00	0	62	0	4017094656	40	4400
2026-01-23 14:47:01.29	332.57	23.57	-35.4	-36.6	18.1	0.00e+00	0	62	0	4024434688	40	4382
2026-01-23 14:47:02.30	332.65	23.43	-35.5	-36.7	18.1	0.00e+00	0	62	0	4031774720	40	4410
2026-01-23 14:47:03.31	332.73	23.28	-35.5	-36.8	18.0	0.00e+00	0	62	0	4039114752	40	4443
2026-01-23 14:47:04.32	332.80	23.14	-35.5	-36.7	18.1	0.00e+00	0	62	0	4046454784	40	4420
2026-01-23 14:47:05.33	332.88	22.99	-35.5	-36.7	18.0	0.00e+00	0	62	0	4053794816	40	4439
2026-01-23 14:47:06.34	332.96	22.85	-35.5	-36.7	18.0	0.00e+00	0	62	0	4061134848	40	4432
2026-01-23 14:47:07.35	333.03	22.71	-35.5	-36.7	18.0	0.00e+00	0	62	0	4068474880	40	4435
2026-01-23 14:47:08.36	333.11	22.57	-35.6	-36.8	17.9	0.00e+00	0	62	0	4075814912	40	4478
2026-01-23 14:47:09.37	333.18	22.43	-35.7	-36.9	17.8	0.00e+00	0	62	0	4082106368	40	4514
2026-01-23 14:47:10.38	333.26	22.29	-35.7	-36.9	17.8	0.00e+00	0	62	0	4090494976	41	4284
2026-01-23 14:47:11.39	333.33	22.15	-35.6	-36.8	17.9	0.00e+00	0	62	0	4097835008	41	4210
2026-01-23 14:47:12.40	333.40	22.01	-35.6	-36.8	17.9	0.00e+00	0	62	0	4104126464	41	4207
2026-01-23 14:47:13.41	333.47	21.88	-35.6	-36.8	17.8	0.00e+00	0	62	0	4111466496	41	4239
2026-01-23 14:47:14.42	333.54	21.74	-35.6	-36.8	17.8	0.00e+00	0	62	0	4118806528	41	4237
2026-01-23 14:47:15.42	333.61	21.61	-35.6	-36.9	17.8	0.00e+00	0	62	0	4126146560	41	4244
2026-01-23 14:47:16.43	333.68	21.47	-35.6	-36.8	17.8	0.00e+00	0	62	0	4133486592	41	4234
2026-01-23 14:47:17.44	333.75	21.34	-35.7	-37.0	17.7	0.00e+00	0	62	0	4140826624	41	4311
2026-01-23 14:47:18.45	333.82	21.20	-35.8	-37.0	17.6	0.00e+00	0	62	0	4148166656	41	4322
2026-01-23 14:47:19.46	333.89	21.07	-35.7	-37.0	17.7	0.00e+00	0	62	0	4155506688	41	4293
2026-01-23 14:47:20.47	333.96	20.94	-35.7	-37.0	17.7	0.00e+00	0	62	0	4162846720	41	4299
2026-01-23 14:47:21.48	334.03	20.80	-35.8	-37.0	17.6	0.00e+00	0	62	0	4170186752	41	4319
2026-01-23 14:47:22.49	334.09	20.67	-35.8	-37.1	17.5	0.00e+00	0	62	0	4177526784	41	4350
2026-01-23 14:47:23.50	334.16	20.54	-35.8	-37.0	17.6	0.00e+00	0	62	0	4184866816	41	4317
2026-01-23 14:47:24.51	334.23	20.41	-35.8	-37.1	17.5	0.00e+00	0	62	0	4192206848	41	4351
2026-01-23 14:47:25.52	334.29	20.28	-35.9	-37.2	17.4	0.00e+00	0	62	0	4199546880	41	4400
2026-01-23 14:47:26.53	334.36	20.15	-35.9	-37.2	17.4	0.00e+00	0	62	0	4206886912	41	4412
2026-01-23 14:47:27.54	334.42	20.03	-36.0	-37.2	17.3	0.00e+00	0	62	0	4214226944	41	4435
2026-01-23 14:47:28.55	334.48	19.90	-36.0	-37.2	17.3	0.00e+00	0	62	0	4221566976	41	4438
2026-01-23 14:47:29.56	334.55	19.77	-36.1	-37.4	17.1	0.00e+00	0	62	0	4228907008	41	4516
2026-01-23 14:47:30.57	334.61	19.65	-36.1	-37.5	17.1	0.00e+00	0	62	0	4235198464	41	4548
2026-01-23 14:47:31.58	334.67	19.52	-36.1	-37.4	17.1	0.00e+00	0	62	0	4242538496	41	4529
2026-01-23 14:47:32.58	334.73	19.40	-36.2	-37.5	17.0	0.00e+00	0	62	0	4250927104	41	4555
2026-01-23 14:47:33.59	334.79	19.27	-36.1	-37.5	17.0	0.00e+00	0	62	0	4257218560	41	4557
2026-01-23 14:47:34.60	334.85	19.15	-36.2	-37.6	17.0	0.00e+00	0	62	0	4264558592	41	4605
2026-01-23 14:47:35.61	334.92	19.03	-36.3	-37.6	16.9	0.00e+00	0	62	0	4271898624	42	4367
2026-01-23 14:47:36.62	334.98	18.90	-36.3	-37.7	16.8	0.00e+00	0	62	0	4279238656	42	4395
2026-01-23 14:47:37.63	335.03	18.78	-36.4	-37.7	16.8	0.00e+00	0	62	0	4286578688	42	4433
2026-01-23 14:47:38.64	335.09	18.66	-36.4	-37.7	16.7	0.00e+00	0	62	0	4293918720	42	4427
2026-01-23 14:47:39.65	335.15	18.54	-36.3	-37.7	16.7	0.00e+00	0	62	0	4301258752	42	4409
2026-01-23 14:47:40.66	335.21	18.42	-36.3	-37.7	16.8	0.00e+00	0	62	0	4308598784	42	4392
2026-01-23 14:47:41.67	335.27	18.30	-36.4	-37.8	16.6	0.00e+00	0	62	0	4315938816	42	4455
2026-01-23 14:47:42.68	335.33	18.18	-36.4	-37.7	16.6	0.00e+00	0	62	0	4323278848	42	4436
2026-01-23 14:47:43.69	335.38	18.06	-36.3	-37.7	16.7	0.00e+00	0	62	0	4330618880	42	4419
2026-01-23 14:47:44.70	335.44	17.94	-36.3	-37.6	16.6	0.00e+00	0	62	0	4337958912	42	4385
2026-01-23 14:47:45.71	335.50	17.83	-36.4	-37.7	16.6	0.00e+00	0	62	0	4345298944	42	4441
2026-01-23 14:47:46.72	335.55	17.71	-36.3	-37.7	16.6	0.00e+00	0	62	0	4352638976	42	4398
2026-01-23 14:47:47.73	335.61	17.59	-36.4	-37.7	16.5	0.00e+00	0	62	0	4359979008	42	4429
2026-01-23 14:47:48.74	335.66	17.48	-36.4	-37.8	16.4	0.00e+00	0	62	0	4367319040	42	4479
2026-01-23 14:47:49.75	335.72	17.36	-36.5	-37.8	16.4	0.00e+00	0	62	0	4374659072	42	4488
2026-01-23 14:47:50.76	335.77	17.25	-36.4	-37.8	16.5	0.00e+00	0	62	0	4380950528	42	4457
2026-01-23 14:47:51.77	335.82	17.13	-36.5	-37.9	16.4	0.00e+00	0	62	0	4388290560	42	4501
2026-01-23 14:47:52.78	335.88	17.02	-36.4	-37.8	16.4	0.00e+00	0	62	0	4396679168	42	4470
2026-01-23 14:47:53.79	335.93	16.91	-36.5	-37.9	16.3	0.00e+00	0	62	0	4402970624	42	4498
2026-01-23 14:47:54.80	335.98	16.79	-36.4	-37.8	16.4	0.00e+00	0	62	0	4410310656	42	4475
2026-01-23 14:47:55.81	336.04	16.68	-36.5	-37.9	16.3	0.00e+00	0	62	0	4417650688	42	4504
2026-01-23 14:47:56.82	336.09	16.57	-36.5	-38.0	16.2	0.00e+00	0	62	0	4424990720	42	4549
2026-01-23 14:47:57.83	336.14	16.46	-36.5	-37.9	16.2	0.00e+00	0	62	0	4432330752	42	4538
2026-01-23 14:47:58.84	336.19	16.35	-36.5	-38.0	16.1	0.00e+00	0	62	0	4439670784	42	4551
2026-01-23 14:47:59.85	336.24	16.24	-36.5	-38.0	16.1	0.00e+00	0	62	0	4447010816	42	4557
2026-01-23 14:48:00.86	336.29	16.13	-36.5	-38.0	16.1	0.00e+00	0	62	0	4454350848	42	4566
2026-01-23 14:48:01.87	336.34	16.02	-36.6	-38.1	16.0	0.00e+00	0	62	0	4461690880	42	4601
2026-01-23 14:48:02.88	336.39	15.91	-36.6	-38.0	16.1	0.00e+00	0	62	0	4469030912	42	4574
2026-01-23 14:48:03.89	336.44	15.80	-36.6	-38.1	16.0	0.00e+00	0	62	0	4476370944	42	4606
