passes_logs/2026/01/23/R2.0S_Moscow/R2.0S_Moscow__20260123_120900_AQUA_rec.log

#Pass ID: 20260123_120900_AQUA
#Satellite: AQUA
#Configuration: AQUA
#almurnet v.1.7.20251203
#Start time: 2026-01-23 12:09:36

#Version: 2.2.20231116
#Station: R2.0S_Moscow
#Location: 37.707566 lon 55.798166 lat
#TLE: 1 27424U 02022A   26022.49486490  .00002153  00000+0  44069-3 0  9997
#TLE: 2 27424  98.4099 349.0485 0001970  69.5876  43.4746 14.61847233261984

#Time	Az	El	Level	Level2	SNR	BER	BlckErr	Temp	State	Recorded	gain1	gain2
2026-01-23 12:09:36.54	176.93	4.45	-44.8	-59.6	3.8	1.49e+00	0	61	0	0	60	20761
2026-01-23 12:09:37.54	176.97	4.52	-46.4	-64.9	3.8	7.43e-01	0	61	104	0	63	31956
2026-01-23 12:09:38.55	177.00	4.60	-46.4	-64.9	3.8	7.42e-01	0	61	104	0	63	31843
2026-01-23 12:09:39.56	177.03	4.67	-46.3	-64.8	3.8	7.45e-01	0	62	104	0	63	31651
2026-01-23 12:09:40.57	177.07	4.74	-46.3	-64.8	3.8	7.45e-01	0	61	104	0	63	31512
2026-01-23 12:09:41.58	177.10	4.82	-46.2	-64.7	3.8	7.44e-01	0	61	104	0	63	31273
2026-01-23 12:09:42.59	177.14	4.89	-46.1	-64.6	3.8	7.44e-01	0	62	104	0	63	30790
2026-01-23 12:09:43.60	177.17	4.97	-46.0	-64.5	3.8	7.45e-01	0	61	104	0	63	30666
2026-01-23 12:09:44.61	177.20	5.04	-45.8	-64.3	3.8	7.43e-01	0	61	104	0	63	29907
2026-01-23 12:09:45.62	177.24	5.12	-45.6	-64.1	3.8	7.45e-01	0	61	104	0	63	29111
2026-01-23 12:09:46.63	177.27	5.19	-45.0	-62.8	3.8	7.45e-01	0	61	104	0	62	26511
2026-01-23 12:09:47.64	177.31	5.27	-44.8	-62.1	3.8	7.43e-01	0	62	104	0	61	26028
2026-01-23 12:09:48.65	177.34	5.34	-44.8	-62.0	3.8	7.43e-01	0	61	104	0	61	25596
2026-01-23 12:09:49.66	177.38	5.42	-44.8	-61.7	3.8	7.42e-01	0	61	104	0	61	24965
2026-01-23 12:09:50.67	177.41	5.49	-44.8	-61.5	3.8	7.43e-01	0	62	104	0	61	24211
2026-01-23 12:09:51.69	177.45	5.57	-44.8	-61.1	3.9	7.46e-01	0	62	104	0	61	23194
2026-01-23 12:09:52.70	177.49	5.65	-44.7	-59.9	4.2	7.37e-01	0	62	104	0	61	20090
2026-01-23 12:09:53.71	177.52	5.72	-44.7	-59.5	3.9	7.42e-01	0	62	104	0	61	19270
2026-01-23 12:09:54.72	177.56	5.80	-44.7	-58.2	4.8	7.15e-01	0	62	104	0	61	16508
2026-01-23 12:09:55.73	177.60	5.88	-44.6	-57.6	5.1	7.04e-01	27	62	0	0	61	15486
2026-01-23 12:09:56.74	177.63	5.96	-44.6	-57.0	5.4	6.99e-01	0	62	0	0	61	14531
2026-01-23 12:09:57.75	177.67	6.03	-44.5	-55.9	6.2	6.79e-01	0	62	0	1048576	61	12752
2026-01-23 12:09:58.76	177.71	6.11	-44.4	-55.3	6.7	6.67e-01	90	62	0	3145728	60	12644
2026-01-23 12:09:59.77	177.74	6.19	-44.3	-54.2	7.8	6.51e-01	92	62	0	4718592	60	11134
2026-01-23 12:10:00.78	177.78	6.27	-44.3	-53.8	8.2	6.42e-01	39	61	0	6815744	60	10542
2026-01-23 12:10:01.79	177.82	6.35	-44.2	-53.3	8.7	6.36e-01	2	61	0	8388608	60	9994
2026-01-23 12:10:02.81	177.86	6.43	-44.1	-52.7	9.3	6.30e-01	0	61	0	10485760	60	9376
2026-01-23 12:10:03.82	177.90	6.51	-44.2	-52.3	10.1	6.22e-01	0	62	0	12582912	59	9480
2026-01-23 12:10:04.83	177.93	6.59	-44.2	-52.4	10.0	6.24e-01	0	61	0	14155776	59	9561
2026-01-23 12:10:05.83	177.97	6.66	-44.2	-52.0	10.5	6.20e-01	0	62	0	16252928	59	9155
2026-01-23 12:10:06.84	178.01	6.74	-44.1	-51.6	10.9	6.18e-01	0	61	0	17825792	59	8721
2026-01-23 12:10:07.86	178.05	6.83	-44.1	-51.8	10.7	6.19e-01	0	62	0	19922944	59	8895
2026-01-23 12:10:08.87	178.09	6.91	-44.1	-51.9	10.6	6.18e-01	0	61	0	22020096	59	9027
2026-01-23 12:10:09.88	178.13	6.99	-44.1	-51.6	11.0	6.20e-01	0	61	0	23592960	59	8688
2026-01-23 12:10:10.89	178.17	7.07	-44.2	-52.1	10.4	6.21e-01	0	61	0	25690112	59	9203
2026-01-23 12:10:11.90	178.21	7.15	-44.2	-52.1	10.4	6.21e-01	0	62	0	27787264	59	9241
2026-01-23 12:10:12.91	178.25	7.23	-44.2	-52.3	10.2	6.22e-01	0	61	0	29360128	59	9390
2026-01-23 12:10:13.92	178.29	7.31	-44.3	-52.6	9.8	6.24e-01	0	62	0	31457280	59	9796
2026-01-23 12:10:14.93	178.33	7.40	-44.2	-52.5	10.0	6.25e-01	0	62	0	33030144	59	9631
2026-01-23 12:10:15.94	178.37	7.48	-44.2	-52.4	10.1	6.20e-01	0	62	0	35127296	59	9563
2026-01-23 12:10:16.95	178.41	7.56	-44.2	-52.1	10.4	6.22e-01	0	62	0	37224448	59	9220
2026-01-23 12:10:17.96	178.45	7.64	-44.1	-51.7	10.8	6.20e-01	0	61	0	38797312	59	8819
2026-01-23 12:10:18.97	178.50	7.73	-43.9	-51.1	11.4	6.17e-01	0	61	0	40894464	59	8220
2026-01-23 12:10:19.99	178.54	7.81	-43.6	-50.1	12.5	6.08e-01	0	62	0	42467328	59	7297
2026-01-23 12:10:20.99	178.58	7.90	-43.4	-49.3	13.3	6.08e-01	0	61	0	44564480	58	7061
2026-01-23 12:10:22.00	178.62	7.98	-43.2	-48.6	14.0	6.08e-01	0	62	0	46661632	58	6534
2026-01-23 12:10:23.01	178.66	8.07	-42.9	-47.8	14.8	6.08e-01	0	62	0	48234496	57	6330
2026-01-23 12:10:24.02	178.71	8.15	-42.6	-47.3	15.4	6.06e-01	0	62	0	50331648	57	5964
2026-01-23 12:10:25.04	178.75	8.24	-42.5	-46.9	15.8	6.07e-01	0	62	0	51904512	57	5683
2026-01-23 12:10:26.05	178.79	8.32	-42.3	-46.6	16.1	6.06e-01	0	61	0	54001664	56	5794
2026-01-23 12:10:27.06	178.84	8.41	-42.2	-46.3	16.4	6.04e-01	0	62	0	56098816	56	5640
2026-01-23 12:10:28.07	178.88	8.49	-42.1	-46.1	16.6	6.07e-01	0	62	0	57671680	56	5512
2026-01-23 12:10:29.08	178.92	8.58	-42.1	-46.1	16.6	6.06e-01	0	62	0	59768832	56	5480
2026-01-23 12:10:30.09	178.97	8.67	-42.1	-46.1	16.6	6.02e-01	0	61	0	61341696	56	5523
2026-01-23 12:10:31.10	179.01	8.75	-42.1	-46.0	16.8	6.07e-01	0	61	0	63438848	56	5432
2026-01-23 12:10:32.11	179.06	8.84	-43.6	-49.2	13.3	6.07e-01	0	62	0	65536000	58	6989
2026-01-23 12:10:33.12	179.10	8.93	-44.3	-54.8	7.1	6.57e-01	92	62	0	67108864	59	12598
2026-01-23 12:10:34.13	179.15	9.02	-44.6	-57.0	5.1	6.96e-01	0	62	0	69206016	60	15265
2026-01-23 12:10:35.14	179.20	9.11	-43.8	-49.9	12.7	6.06e-01	0	61	0	70778880	58	7579
2026-01-23 12:10:36.15	179.24	9.20	-42.1	-45.8	17.1	6.05e-01	0	62	0	72876032	56	5315
2026-01-23 12:10:37.16	179.29	9.29	-42.1	-45.9	17.0	6.07e-01	0	61	0	74448896	56	5372
2026-01-23 12:10:38.17	179.33	9.37	-42.1	-45.9	17.0	6.07e-01	0	62	0	76546048	56	5401
2026-01-23 12:10:39.18	179.38	9.46	-42.1	-45.9	17.1	6.07e-01	0	62	0	78118912	56	5351
2026-01-23 12:10:40.19	179.43	9.56	-42.1	-45.8	17.2	6.07e-01	0	62	0	80216064	56	5320
2026-01-23 12:10:41.20	179.48	9.65	-42.2	-46.0	17.1	6.05e-01	0	62	0	82313216	56	5405
2026-01-23 12:10:42.21	179.52	9.74	-42.1	-45.8	17.2	6.06e-01	0	62	0	83886080	56	5323
2026-01-23 12:10:43.22	179.57	9.83	-42.1	-45.8	17.3	6.06e-01	0	61	0	85983232	56	5296
2026-01-23 12:10:44.23	179.62	9.92	-42.2	-45.9	17.2	6.06e-01	0	62	0	87556096	56	5364
2026-01-23 12:10:45.24	179.67	10.01	-42.1	-45.9	17.2	6.08e-01	0	61	0	89653248	56	5345
2026-01-23 12:10:46.25	179.72	10.10	-42.1	-45.7	17.3	6.06e-01	0	61	0	91750400	56	5276
2026-01-23 12:10:47.25	179.77	10.20	-42.2	-45.9	17.2	6.06e-01	0	62	0	93323264	56	5383
2026-01-23 12:10:48.26	179.82	10.29	-42.1	-45.8	17.3	6.07e-01	0	62	0	95420416	56	5286
2026-01-23 12:10:49.27	179.87	10.38	-42.1	-45.7	17.4	6.05e-01	0	62	0	97517568	56	5256
2026-01-23 12:10:50.28	179.92	10.48	-42.1	-45.7	17.5	6.04e-01	0	62	0	99090432	56	5239
2026-01-23 12:10:51.29	179.97	10.57	-42.1	-45.7	17.5	6.09e-01	0	61	0	101187584	56	5234
2026-01-23 12:10:52.30	180.02	10.67	-42.1	-45.8	17.4	6.07e-01	0	61	0	102760448	56	5290
2026-01-23 12:10:53.31	180.07	10.76	-42.0	-45.6	17.6	6.07e-01	0	62	0	104857600	56	5163
2026-01-23 12:10:54.32	180.12	10.86	-41.9	-45.4	17.7	6.06e-01	0	61	0	106954752	55	5394
2026-01-23 12:10:55.33	180.17	10.95	-41.9	-45.3	17.8	6.06e-01	0	61	0	108527616	55	5312
2026-01-23 12:10:56.34	180.22	11.05	-41.8	-45.3	17.8	6.06e-01	0	62	0	110624768	55	5288
2026-01-23 12:10:57.35	180.28	11.15	-41.9	-45.3	17.8	6.06e-01	0	62	0	112721920	55	5337
2026-01-23 12:10:58.36	180.33	11.24	-41.8	-45.2	18.0	6.06e-01	0	62	0	114294784	55	5231
2026-01-23 12:10:59.37	180.38	11.34	-41.8	-45.2	18.0	6.08e-01	0	62	0	116391936	55	5239
2026-01-23 12:11:00.38	180.44	11.44	-41.8	-45.2	17.9	6.06e-01	0	61	0	117964800	55	5261
2026-01-23 12:11:01.39	180.49	11.54	-41.8	-45.1	18.0	6.07e-01	0	62	0	120061952	55	5208
2026-01-23 12:11:02.40	180.55	11.64	-41.9	-45.3	17.9	6.05e-01	0	62	0	122159104	55	5282
2026-01-23 12:11:03.41	180.60	11.73	-41.9	-45.3	17.8	6.05e-01	0	62	0	123731968	55	5332
2026-01-23 12:11:04.41	180.65	11.83	-41.9	-45.3	17.9	6.06e-01	0	61	0	125829120	55	5301
2026-01-23 12:11:05.42	180.71	11.93	-41.9	-45.3	17.9	6.03e-01	0	61	0	127401984	55	5296
2026-01-23 12:11:06.43	180.77	12.03	-41.9	-45.3	17.9	6.05e-01	0	62	0	129499136	55	5299
2026-01-23 12:11:07.44	180.82	12.13	-41.9	-45.4	17.8	6.05e-01	0	62	0	131072000	55	5373
2026-01-23 12:11:08.45	180.88	12.24	-42.0	-45.5	17.8	6.08e-01	0	62	0	133169152	55	5403
2026-01-23 12:11:09.46	180.94	12.34	-41.9	-45.3	17.9	6.06e-01	0	62	0	135266304	55	5310
2026-01-23 12:11:10.47	180.99	12.44	-41.9	-45.3	17.9	6.06e-01	0	62	0	136839168	55	5310
2026-01-23 12:11:11.48	181.05	12.54	-41.9	-45.4	17.8	6.07e-01	0	61	0	138936320	55	5361
2026-01-23 12:11:12.49	181.11	12.65	-41.9	-45.3	17.9	6.07e-01	0	62	0	141033472	55	5317
2026-01-23 12:11:13.50	181.17	12.75	-41.8	-45.2	18.1	6.07e-01	0	61	0	142606336	55	5227
2026-01-23 12:11:14.51	181.23	12.85	-41.8	-45.1	18.2	6.07e-01	0	62	0	144703488	55	5179
2026-01-23 12:11:15.52	181.29	12.96	-41.8	-45.1	18.2	6.07e-01	0	61	0	146276352	55	5180
2026-01-23 12:11:16.53	181.35	13.06	-41.8	-45.1	18.2	6.07e-01	0	62	0	148373504	55	5217
2026-01-23 12:11:17.54	181.41	13.17	-41.8	-45.1	18.2	6.07e-01	0	62	0	150470656	55	5165
2026-01-23 12:11:18.55	181.47	13.28	-41.7	-45.0	18.3	6.07e-01	0	62	0	152043520	55	5110
2026-01-23 12:11:19.56	181.53	13.38	-41.7	-44.8	18.5	6.07e-01	0	62	0	154140672	55	5036
2026-01-23 12:11:20.57	181.59	13.49	-41.7	-44.8	18.5	6.05e-01	0	62	0	155713536	55	5041
2026-01-23 12:11:21.58	181.65	13.60	-41.7	-44.9	18.4	6.05e-01	0	61	0	157810688	55	5060
2026-01-23 12:11:22.59	181.72	13.70	-41.7	-44.9	18.4	6.06e-01	0	62	0	159907840	55	5044
2026-01-23 12:11:23.60	181.78	13.81	-41.6	-44.8	18.5	6.07e-01	0	62	0	161480704	55	5016
2026-01-23 12:11:24.61	181.84	13.92	-41.6	-44.8	18.5	6.05e-01	0	62	0	163577856	55	4998
2026-01-23 12:11:25.62	181.91	14.03	-41.7	-44.9	18.5	6.07e-01	0	62	0	165675008	55	5061
2026-01-23 12:11:26.63	181.97	14.14	-41.7	-44.9	18.4	6.06e-01	0	62	0	167247872	55	5080
2026-01-23 12:11:27.64	182.04	14.25	-41.7	-44.9	18.4	6.06e-01	0	61	0	169345024	55	5080
2026-01-23 12:11:28.65	182.10	14.36	-41.7	-44.9	18.5	6.04e-01	0	62	0	170917888	55	5069
2026-01-23 12:11:29.66	182.17	14.48	-41.8	-45.0	18.4	6.05e-01	0	62	0	173015040	55	5106
2026-01-23 12:11:30.66	182.24	14.59	-41.8	-45.0	18.4	6.07e-01	0	62	0	175112192	55	5142
2026-01-23 12:11:31.67	182.30	14.70	-41.8	-45.0	18.4	6.07e-01	0	62	0	176685056	55	5123
2026-01-23 12:11:32.69	182.37	14.81	-41.8	-45.1	18.3	6.07e-01	0	62	0	178782208	55	5160
2026-01-23 12:11:33.70	182.44	14.93	-41.7	-44.9	18.5	6.05e-01	0	62	0	180879360	55	5079
2026-01-23 12:11:34.71	182.51	15.04	-41.7	-44.9	18.5	6.04e-01	0	61	0	182452224	55	5069
2026-01-23 12:11:35.72	182.58	15.16	-41.8	-44.9	18.5	6.07e-01	0	62	0	184549376	55	5097
2026-01-23 12:11:36.73	182.65	15.27	-41.7	-44.8	18.6	6.04e-01	0	61	0	186122240	55	5005
2026-01-23 12:11:37.74	182.72	15.39	-41.6	-44.7	18.7	6.07e-01	0	62	0	188219392	55	4947
2026-01-23 12:11:38.75	182.79	15.51	-41.7	-44.8	18.6	6.04e-01	0	62	0	190316544	55	4986
2026-01-23 12:11:39.76	182.86	15.62	-41.6	-44.7	18.7	6.07e-01	0	62	0	191889408	55	4953
2026-01-23 12:11:40.76	182.93	15.74	-41.6	-44.7	18.6	6.07e-01	0	61	0	193986560	55	4981
2026-01-23 12:11:41.77	183.00	15.86	-41.7	-44.8	18.6	6.06e-01	0	62	0	195559424	55	4998
2026-01-23 12:11:42.79	183.08	15.98	-41.7	-44.8	18.6	6.06e-01	0	62	0	197656576	55	5032
2026-01-23 12:11:43.80	183.15	16.10	-41.7	-44.8	18.6	6.09e-01	0	62	0	199753728	55	5034
2026-01-23 12:11:44.81	183.23	16.22	-41.7	-44.8	18.6	6.09e-01	0	61	0	201326592	55	5002
2026-01-23 12:11:45.81	183.30	16.34	-41.8	-44.9	18.6	6.07e-01	0	62	0	203423744	55	5066
2026-01-23 12:11:46.82	183.38	16.46	-41.7	-44.9	18.6	6.08e-01	0	62	0	204996608	55	5057
2026-01-23 12:11:47.83	183.45	16.58	-41.7	-44.8	18.7	6.06e-01	0	62	0	207093760	55	5008
2026-01-23 12:11:48.84	183.53	16.71	-41.7	-44.9	18.6	6.04e-01	0	62	0	209190912	55	5044
2026-01-23 12:11:49.85	183.61	16.83	-41.7	-44.8	18.5	6.06e-01	0	62	0	210763776	55	5024
2026-01-23 12:11:50.86	183.69	16.95	-41.7	-44.8	18.6	6.05e-01	0	62	0	212860928	55	5016
2026-01-23 12:11:51.87	183.76	17.08	-41.7	-44.7	18.7	6.05e-01	0	61	0	214433792	55	4978
2026-01-23 12:11:52.89	183.85	17.20	-41.6	-44.6	18.8	6.03e-01	0	62	0	216530944	55	4912
2026-01-23 12:11:53.89	183.92	17.33	-41.6	-44.6	18.9	6.04e-01	0	62	0	218628096	55	4897
2026-01-23 12:11:54.91	184.01	17.46	-41.6	-44.6	18.9	6.05e-01	0	62	0	220200960	55	4917
2026-01-23 12:11:55.92	184.09	17.59	-41.6	-44.6	18.9	6.07e-01	0	62	0	222298112	55	4894
2026-01-23 12:11:56.93	184.17	17.71	-41.6	-44.6	18.9	6.07e-01	0	62	0	223870976	55	4902
2026-01-23 12:11:57.94	184.25	17.84	-41.6	-44.7	18.8	6.05e-01	0	62	0	225968128	55	4939
2026-01-23 12:11:58.95	184.34	17.97	-41.7	-44.7	18.8	6.05e-01	0	62	0	228065280	55	4954
2026-01-23 12:11:59.96	184.42	18.10	-41.6	-44.6	18.9	6.08e-01	0	62	0	229638144	55	4899
2026-01-23 12:12:00.97	184.51	18.23	-41.6	-44.6	18.9	6.05e-01	0	62	0	231735296	55	4918
2026-01-23 12:12:01.98	184.59	18.36	-41.6	-44.7	18.9	6.05e-01	0	62	0	233832448	55	4931
2026-01-23 12:12:02.99	184.68	18.50	-41.6	-44.6	18.9	6.05e-01	0	61	0	235405312	55	4905
2026-01-23 12:12:04.00	184.77	18.63	-41.7	-44.7	18.8	6.03e-01	0	62	0	237502464	55	4962
2026-01-23 12:12:05.01	184.85	18.76	-41.7	-44.7	18.8	6.06e-01	0	62	0	239075328	55	4962
2026-01-23 12:12:06.02	184.94	18.90	-41.7	-44.7	18.8	6.07e-01	0	62	0	241172480	55	4971
2026-01-23 12:12:07.03	185.03	19.03	-41.7	-44.7	18.8	6.06e-01	0	62	0	243269632	55	4962
2026-01-23 12:12:08.04	185.12	19.17	-41.7	-44.7	18.8	6.07e-01	0	62	0	244842496	55	4975
2026-01-23 12:12:09.05	185.22	19.31	-41.6	-44.6	18.9	6.04e-01	0	62	0	246939648	55	4926
2026-01-23 12:12:10.06	185.31	19.44	-41.6	-44.6	18.9	6.05e-01	0	62	0	249036800	55	4912
2026-01-23 12:12:11.07	185.40	19.58	-41.6	-44.6	18.9	6.06e-01	0	61	0	250609664	55	4911
2026-01-23 12:12:12.08	185.50	19.72	-41.7	-44.7	18.9	6.03e-01	0	61	0	252706816	55	4934
2026-01-23 12:12:13.09	185.59	19.86	-41.6	-44.5	19.0	6.05e-01	0	62	0	254279680	55	4868
2026-01-23 12:12:14.10	185.69	20.00	-41.5	-44.5	19.1	6.08e-01	0	62	0	256376832	55	4834
2026-01-23 12:12:15.11	185.78	20.14	-41.6	-44.6	19.0	6.07e-01	0	62	0	258473984	55	4881
2026-01-23 12:12:16.12	185.88	20.29	-41.6	-44.6	19.0	6.06e-01	0	62	0	260046848	55	4900
2026-01-23 12:12:17.13	185.98	20.43	-41.6	-44.6	19.0	6.08e-01	0	62	0	262144000	55	4915
2026-01-23 12:12:18.14	186.08	20.57	-41.7	-44.7	18.9	6.09e-01	0	62	0	263716864	55	4939
2026-01-23 12:12:19.15	186.18	20.72	-41.7	-44.7	18.9	6.06e-01	0	62	0	265814016	55	4946
2026-01-23 12:12:20.16	186.28	20.86	-41.7	-44.7	18.9	6.07e-01	0	62	0	267911168	55	4935
2026-01-23 12:12:21.17	186.38	21.01	-41.7	-44.7	18.8	6.04e-01	0	62	0	269484032	55	4968
2026-01-23 12:12:22.18	186.49	21.16	-41.7	-44.8	18.8	6.05e-01	0	62	0	271581184	55	5007
2026-01-23 12:12:23.19	186.59	21.31	-41.8	-44.9	18.7	6.06e-01	0	62	0	273154048	55	5064
2026-01-23 12:12:24.20	186.70	21.45	-41.8	-44.8	18.8	6.07e-01	0	62	0	275251200	55	5024
2026-01-23 12:12:25.20	186.80	21.60	-41.8	-44.8	18.8	6.05e-01	0	62	0	277348352	55	5023
2026-01-23 12:12:26.21	186.91	21.75	-41.8	-44.9	18.7	6.07e-01	0	62	0	278921216	55	5078
2026-01-23 12:12:27.22	187.02	21.91	-41.9	-45.1	18.5	6.05e-01	0	62	0	281018368	55	5196
2026-01-23 12:12:28.23	187.13	22.06	-41.8	-44.9	18.7	6.06e-01	0	62	0	282591232	55	5095
2026-01-23 12:12:29.24	187.24	22.21	-41.8	-44.8	18.8	6.06e-01	0	62	0	284688384	55	5028
2026-01-23 12:12:30.25	187.35	22.37	-41.8	-44.9	18.7	6.04e-01	0	62	0	286785536	55	5057
2026-01-23 12:12:31.26	187.46	22.52	-41.9	-45.0	18.6	6.07e-01	0	62	0	288358400	55	5112
2026-01-23 12:12:32.27	187.58	22.68	-41.9	-44.9	18.7	6.03e-01	0	62	0	290455552	55	5096
2026-01-23 12:12:33.28	187.69	22.83	-41.8	-44.9	18.7	6.04e-01	0	62	0	292028416	55	5066
2026-01-23 12:12:34.28	187.81	22.99	-41.9	-45.0	18.7	6.07e-01	0	62	0	294125568	55	5113
2026-01-23 12:12:35.29	187.93	23.15	-41.9	-45.0	18.6	6.05e-01	0	62	0	296222720	55	5159
2026-01-23 12:12:36.30	188.04	23.31	-41.9	-45.0	18.6	6.06e-01	0	62	0	297795584	55	5159
2026-01-23 12:12:37.32	188.17	23.47	-41.9	-45.0	18.6	6.05e-01	0	62	0	299892736	55	5142
2026-01-23 12:12:38.32	188.29	23.63	-41.9	-45.0	18.6	6.04e-01	0	62	0	301989888	55	5148
2026-01-23 12:12:39.33	188.41	23.80	-41.9	-45.0	18.6	6.07e-01	0	62	0	303562752	55	5138
2026-01-23 12:12:40.34	188.53	23.96	-41.9	-45.0	18.6	6.07e-01	0	62	0	305659904	55	5149
2026-01-23 12:12:41.35	188.66	24.13	-41.9	-45.0	18.7	6.06e-01	0	62	0	307232768	55	5114
2026-01-23 12:12:42.36	188.78	24.29	-41.9	-45.0	18.7	6.04e-01	0	62	0	309329920	55	5131
2026-01-23 12:12:43.37	188.91	24.46	-42.0	-45.1	18.6	6.06e-01	0	62	0	311427072	55	5193
2026-01-23 12:12:44.38	189.04	24.63	-42.0	-45.1	18.5	6.08e-01	0	62	0	312999936	55	5207
2026-01-23 12:12:45.40	189.17	24.80	-42.0	-45.1	18.5	6.07e-01	0	62	0	315097088	55	5217
2026-01-23 12:12:46.40	189.31	24.96	-42.0	-45.2	18.5	6.04e-01	0	62	0	317194240	55	5225
2026-01-23 12:12:47.41	189.44	25.14	-42.0	-45.2	18.5	6.07e-01	0	62	0	318767104	55	5233
2026-01-23 12:12:48.42	189.57	25.31	-41.9	-45.1	18.6	6.06e-01	0	62	0	320864256	55	5170
2026-01-23 12:12:49.44	189.71	25.48	-42.0	-45.1	18.6	6.04e-01	0	61	0	322437120	55	5197
2026-01-23 12:12:50.44	189.85	25.66	-42.1	-45.2	18.5	6.08e-01	0	62	0	324534272	55	5260
2026-01-23 12:12:51.45	189.99	25.83	-42.0	-45.1	18.6	6.05e-01	0	61	0	326631424	55	5204
2026-01-23 12:12:52.46	190.13	26.01	-41.9	-45.0	18.6	6.07e-01	0	62	0	328204288	55	5152
2026-01-23 12:12:53.47	190.27	26.18	-41.9	-44.9	18.8	6.08e-01	0	62	0	330301440	55	5077
2026-01-23 12:12:54.48	190.42	26.36	-41.9	-44.9	18.8	6.06e-01	0	62	0	331874304	55	5077
2026-01-23 12:12:55.49	190.56	26.54	-41.9	-44.9	18.8	6.06e-01	0	62	0	333971456	55	5083
2026-01-23 12:12:56.50	190.71	26.72	-41.9	-44.9	18.8	6.06e-01	0	62	0	336068608	55	5100
2026-01-23 12:12:57.51	190.86	26.91	-41.8	-44.8	18.9	6.07e-01	0	62	0	337641472	55	5021
2026-01-23 12:12:58.52	191.01	27.09	-41.8	-44.8	18.9	6.04e-01	0	62	0	339738624	55	5019
2026-01-23 12:12:59.53	191.17	27.27	-41.8	-44.8	18.9	6.06e-01	0	62	0	341311488	55	5019
2026-01-23 12:13:00.54	191.32	27.46	-41.9	-45.0	18.8	6.06e-01	0	61	0	343408640	55	5111
2026-01-23 12:13:01.55	191.48	27.64	-41.9	-45.0	18.7	6.07e-01	0	62	0	345505792	55	5146
2026-01-23 12:13:02.56	191.64	27.83	-41.9	-44.9	18.8	6.05e-01	0	62	0	347078656	55	5067
2026-01-23 12:13:03.57	191.80	28.02	-41.7	-44.7	19.1	6.07e-01	0	62	0	349175808	55	4927
2026-01-23 12:13:04.58	191.96	28.21	-41.7	-44.5	19.2	6.05e-01	0	62	0	350748672	55	4869
2026-01-23 12:13:05.59	192.12	28.40	-41.6	-44.5	19.3	6.06e-01	0	62	0	352845824	55	4835
2026-01-23 12:13:06.60	192.29	28.59	-41.7	-44.6	19.2	6.07e-01	0	62	0	354942976	55	4875
2026-01-23 12:13:07.60	192.46	28.79	-41.6	-44.4	19.3	6.08e-01	0	62	0	356515840	55	4809
2026-01-23 12:13:08.61	192.63	28.98	-41.6	-44.4	19.3	6.07e-01	0	62	0	358612992	55	4793
2026-01-23 12:13:09.62	192.80	29.18	-41.6	-44.5	19.3	6.05e-01	0	62	0	360185856	55	4818
2026-01-23 12:13:10.63	192.98	29.37	-41.6	-44.5	19.3	6.06e-01	0	62	0	362283008	55	4847
2026-01-23 12:13:11.64	193.15	29.57	-41.7	-44.6	19.2	6.07e-01	0	62	0	364380160	55	4896
2026-01-23 12:13:12.65	193.33	29.77	-41.7	-44.6	19.2	6.06e-01	0	62	0	365953024	55	4919
2026-01-23 12:13:13.66	193.51	29.97	-41.7	-44.5	19.2	6.05e-01	0	62	0	368050176	55	4868
2026-01-23 12:13:14.67	193.70	30.17	-41.6	-44.5	19.3	6.09e-01	0	62	0	370147328	55	4829
2026-01-23 12:13:15.68	193.88	30.38	-41.7	-44.7	19.1	6.04e-01	0	62	0	371720192	55	4940
2026-01-23 12:13:16.69	194.07	30.58	-41.8	-44.7	19.1	6.07e-01	0	62	0	373817344	55	4975
2026-01-23 12:13:17.70	194.26	30.79	-41.7	-44.7	19.1	6.05e-01	0	62	0	375390208	55	4935
2026-01-23 12:13:18.71	194.46	30.99	-41.8	-44.8	19.0	6.05e-01	0	62	0	377487360	55	4991
2026-01-23 12:13:19.72	194.65	31.20	-41.8	-44.7	19.1	6.07e-01	0	62	0	379584512	55	4972
2026-01-23 12:13:20.72	194.85	31.41	-41.8	-44.7	19.1	6.06e-01	0	62	0	381157376	55	4968
2026-01-23 12:13:21.73	195.05	31.62	-41.8	-44.8	19.1	6.09e-01	0	62	0	383254528	55	4984
2026-01-23 12:13:22.74	195.25	31.83	-41.8	-44.8	19.0	6.07e-01	0	62	0	385351680	55	5005
2026-01-23 12:13:23.75	195.46	32.04	-41.9	-44.9	18.9	6.07e-01	0	62	0	386924544	55	5066
2026-01-23 12:13:24.76	195.67	32.26	-41.9	-44.9	18.9	6.06e-01	0	61	0	389021696	55	5094
2026-01-23 12:13:25.77	195.88	32.47	-41.9	-45.0	18.8	6.06e-01	0	62	0	390594560	55	5115
2026-01-23 12:13:26.78	196.09	32.69	-42.0	-45.1	18.7	6.04e-01	0	62	0	392691712	55	5176
2026-01-23 12:13:27.79	196.31	32.91	-42.1	-45.2	18.6	6.07e-01	0	62	0	394788864	55	5266
2026-01-23 12:13:28.81	196.53	33.13	-42.2	-45.3	18.5	6.06e-01	0	62	0	396361728	55	5333
2026-01-23 12:13:29.81	196.76	33.35	-42.2	-45.4	18.4	6.06e-01	0	62	0	398458880	55	5389
2026-01-23 12:13:30.82	196.98	33.57	-42.2	-45.4	18.4	6.09e-01	0	62	0	400031744	55	5376
2026-01-23 12:13:31.84	197.22	33.79	-42.2	-45.4	18.4	6.08e-01	0	62	0	402128896	55	5389
2026-01-23 12:13:32.84	197.45	34.01	-42.2	-45.4	18.5	6.05e-01	0	62	0	404226048	55	5357
2026-01-23 12:13:33.85	197.68	34.24	-42.3	-45.5	18.3	6.06e-01	0	62	0	405798912	55	5441
2026-01-23 12:13:34.86	197.92	34.47	-42.5	-45.9	17.9	6.05e-01	0	62	0	407896064	55	5708
2026-01-23 12:13:35.87	198.16	34.69	-42.5	-46.0	17.8	6.06e-01	0	62	0	409468928	55	5730
2026-01-23 12:13:36.88	198.41	34.92	-42.5	-45.9	18.0	6.05e-01	0	62	0	411566080	55	5674
2026-01-23 12:13:37.89	198.66	35.15	-42.7	-46.2	17.7	6.06e-01	0	62	0	413663232	55	5856
2026-01-23 12:13:38.90	198.92	35.38	-42.9	-46.5	17.4	6.07e-01	0	62	0	415236096	56	5769
2026-01-23 12:13:39.91	199.17	35.62	-42.9	-46.4	17.5	6.05e-01	0	62	0	417333248	56	5713
2026-01-23 12:13:40.92	199.43	35.85	-42.8	-46.3	17.7	6.06e-01	0	62	0	418906112	56	5641
2026-01-23 12:13:41.93	199.70	36.09	-42.9	-46.5	17.4	6.05e-01	0	62	0	421003264	56	5779
2026-01-23 12:13:42.94	199.97	36.32	-43.0	-46.7	17.2	6.06e-01	0	61	0	423100416	56	5916
2026-01-23 12:13:43.95	200.24	36.56	-43.1	-46.9	17.0	6.05e-01	0	62	0	424673280	56	6014
2026-01-23 12:13:44.96	200.52	36.80	-43.2	-47.0	16.9	6.07e-01	0	62	0	426770432	56	6118
2026-01-23 12:13:45.97	200.80	37.04	-43.2	-47.0	17.0	6.08e-01	0	62	0	428343296	56	6069
2026-01-23 12:13:46.98	201.08	37.28	-43.1	-46.9	17.1	6.07e-01	0	62	0	430440448	56	6004
2026-01-23 12:13:47.99	201.37	37.52	-43.2	-47.0	16.9	6.03e-01	0	62	0	432537600	56	6130
2026-01-23 12:13:49.00	201.66	37.76	-43.3	-47.2	16.8	6.07e-01	0	62	0	434110464	57	5873
2026-01-23 12:13:50.01	201.96	38.00	-43.1	-46.9	17.1	6.08e-01	0	62	0	436207616	57	5688
2026-01-23 12:13:51.02	202.27	38.25	-43.2	-47.0	17.0	6.08e-01	0	62	0	438304768	57	5749
2026-01-23 12:13:52.03	202.57	38.50	-43.1	-46.9	17.1	6.06e-01	0	62	0	439877632	57	5688
2026-01-23 12:13:53.04	202.88	38.74	-43.1	-46.9	17.0	6.07e-01	0	62	0	441974784	57	5721
2026-01-23 12:13:54.05	203.20	38.99	-43.0	-46.7	17.3	6.09e-01	0	62	0	443547648	57	5555
2026-01-23 12:13:55.06	203.52	39.24	-42.9	-46.5	17.4	6.08e-01	0	62	0	445644800	57	5425
2026-01-23 12:13:56.06	203.85	39.49	-42.9	-46.6	17.4	6.05e-01	0	62	0	447741952	57	5480
2026-01-23 12:13:57.07	204.18	39.74	-42.9	-46.5	17.5	6.05e-01	0	62	0	449314816	57	5441
2026-01-23 12:13:58.08	204.51	39.99	-42.9	-46.5	17.5	6.06e-01	0	62	0	451411968	57	5410
2026-01-23 12:13:59.09	204.86	40.24	-42.8	-46.4	17.6	6.05e-01	0	62	0	452984832	57	5350
2026-01-23 12:14:00.10	205.20	40.49	-42.6	-45.9	18.0	6.06e-01	0	62	0	455081984	57	5099
2026-01-23 12:14:01.11	205.56	40.75	-42.6	-46.0	18.0	6.09e-01	0	62	0	457179136	57	5123
2026-01-23 12:14:02.12	205.92	41.00	-42.6	-45.9	18.1	6.06e-01	0	62	0	458752000	57	5075
2026-01-23 12:14:03.13	206.28	41.25	-42.7	-46.1	17.9	6.05e-01	0	62	0	460849152	57	5186
2026-01-23 12:14:04.14	206.65	41.51	-42.5	-45.8	18.2	6.07e-01	0	62	0	462946304	57	5021
2026-01-23 12:14:05.15	207.03	41.77	-42.5	-45.8	18.2	6.06e-01	0	62	0	464519168	57	5019
2026-01-23 12:14:06.16	207.41	42.02	-42.3	-45.4	18.6	6.02e-01	0	62	0	466616320	56	5077
2026-01-23 12:14:07.17	207.80	42.28	-42.3	-45.5	18.5	6.04e-01	0	62	0	468189184	56	5136
2026-01-23 12:14:08.18	208.19	42.54	-42.3	-45.4	18.6	6.08e-01	0	62	0	470286336	56	5090
2026-01-23 12:14:09.19	208.59	42.80	-42.3	-45.4	18.6	6.05e-01	0	62	0	471859200	56	5047
2026-01-23 12:14:10.20	209.00	43.05	-42.2	-45.3	18.7	6.06e-01	0	62	0	473956352	56	5022
2026-01-23 12:14:11.21	209.41	43.31	-42.0	-45.0	19.0	6.06e-01	0	62	0	476053504	56	4845
2026-01-23 12:14:12.22	209.83	43.57	-42.1	-45.1	19.0	6.06e-01	0	62	0	477626368	56	4872
2026-01-23 12:14:13.23	210.26	43.83	-41.9	-44.9	18.9	6.07e-01	0	62	0	479723520	55	5069
2026-01-23 12:14:14.24	210.70	44.09	-41.7	-44.6	19.3	6.03e-01	0	62	0	481820672	55	4877
2026-01-23 12:14:15.25	211.14	44.35	-41.6	-44.4	19.6	6.06e-01	0	62	0	483393536	55	4768
2026-01-23 12:14:16.26	211.59	44.61	-41.6	-44.4	19.5	6.07e-01	0	62	0	485490688	55	4800
2026-01-23 12:14:17.27	212.04	44.86	-41.5	-44.3	19.6	6.07e-01	0	62	0	487063552	55	4712
2026-01-23 12:14:18.28	212.51	45.12	-41.5	-44.3	19.6	6.07e-01	0	62	0	489160704	54	5020
2026-01-23 12:14:19.29	212.98	45.38	-41.6	-44.4	19.6	6.06e-01	0	62	0	491257856	54	5050
2026-01-23 12:14:20.30	213.46	45.64	-41.5	-44.3	19.6	6.08e-01	0	62	0	492830720	54	5014
2026-01-23 12:14:21.31	213.94	45.90	-41.5	-44.3	19.6	6.04e-01	0	62	0	494927872	54	4986
2026-01-23 12:14:22.32	214.44	46.15	-41.5	-44.3	19.6	6.08e-01	0	62	0	496500736	54	5021
2026-01-23 12:14:23.33	214.94	46.41	-41.7	-44.5	19.4	6.05e-01	0	62	0	498597888	54	5149
2026-01-23 12:14:24.34	215.46	46.66	-41.5	-44.2	19.7	6.09e-01	0	62	0	500695040	54	4948
2026-01-23 12:14:25.35	215.98	46.92	-41.6	-44.3	19.6	6.06e-01	0	62	0	502267904	54	5039
2026-01-23 12:14:26.36	216.50	47.17	-41.7	-44.6	19.4	6.05e-01	0	62	0	504365056	54	5183
2026-01-23 12:14:27.37	217.04	47.43	-41.7	-44.6	19.3	6.04e-01	0	62	0	506462208	54	5168
2026-01-23 12:14:28.38	217.59	47.68	-41.6	-44.5	19.4	6.05e-01	0	62	0	508035072	54	5118
2026-01-23 12:14:29.39	218.14	47.93	-41.9	-44.8	19.1	6.04e-01	0	62	0	510132224	54	5319
2026-01-23 12:14:30.40	218.71	48.18	-41.8	-44.7	19.2	6.04e-01	0	62	0	511705088	54	5257
2026-01-23 12:14:31.41	219.28	48.42	-41.9	-44.9	19.0	6.08e-01	0	62	0	513802240	54	5356
2026-01-23 12:14:32.41	219.86	48.67	-41.9	-44.8	19.0	6.02e-01	0	62	0	515899392	54	5314
2026-01-23 12:14:33.41	220.44	48.91	-41.8	-44.7	19.2	6.07e-01	0	62	0	517472256	54	5253
2026-01-23 12:14:34.42	221.04	49.15	-41.7	-44.7	19.1	6.06e-01	0	62	0	519569408	54	5237
2026-01-23 12:14:35.43	221.65	49.39	-41.8	-44.7	19.2	6.05e-01	0	62	0	521666560	54	5261
2026-01-23 12:14:36.45	222.28	49.63	-41.6	-44.4	19.5	6.06e-01	0	62	0	523239424	54	5067
2026-01-23 12:14:37.46	222.91	49.87	-41.8	-44.7	19.3	6.07e-01	0	62	0	525336576	54	5231
2026-01-23 12:14:38.47	223.55	50.10	-41.8	-44.7	19.2	6.06e-01	0	62	0	526909440	54	5240
2026-01-23 12:14:39.48	224.20	50.33	-41.8	-44.7	19.2	6.06e-01	0	62	0	529006592	54	5270
2026-01-23 12:14:40.49	224.86	50.56	-42.0	-45.1	18.8	6.07e-01	0	62	0	531103744	54	5477
2026-01-23 12:14:41.50	225.53	50.79	-41.9	-44.8	19.1	6.08e-01	0	62	0	532676608	54	5327
2026-01-23 12:14:42.51	226.21	51.01	-42.2	-45.4	18.5	6.06e-01	0	62	0	534773760	55	5377
2026-01-23 12:14:43.52	226.90	51.23	-41.8	-44.7	19.2	6.04e-01	0	62	0	536346624	55	4978
2026-01-23 12:14:44.53	227.60	51.44	-42.0	-45.1	18.7	6.05e-01	0	62	0	538443776	55	5184
2026-01-23 12:14:45.54	228.31	51.66	-42.2	-45.3	18.6	6.05e-01	0	62	0	540540928	55	5325
2026-01-23 12:14:46.55	229.03	51.87	-41.8	-44.7	19.2	6.05e-01	0	62	0	542113792	55	4964
2026-01-23 12:14:47.56	229.76	52.07	-41.9	-44.9	18.8	6.07e-01	0	62	0	544210944	55	5070
2026-01-23 12:14:48.56	230.49	52.27	-41.9	-44.9	19.0	6.08e-01	0	62	0	545783808	55	5058
2026-01-23 12:14:49.57	231.25	52.47	-42.0	-45.0	18.8	6.05e-01	0	62	0	547880960	55	5157
2026-01-23 12:14:50.58	232.01	52.66	-41.9	-44.8	19.0	6.05e-01	0	62	0	549978112	54	5298
2026-01-23 12:14:51.59	232.78	52.85	-41.9	-45.0	18.8	6.08e-01	0	62	0	551550976	54	5438
2026-01-23 12:14:52.60	233.56	53.04	-42.1	-45.2	18.7	6.03e-01	0	62	0	553648128	54	5549
2026-01-23 12:14:53.61	234.35	53.22	-41.9	-44.9	19.0	6.09e-01	0	62	0	555220992	54	5360
2026-01-23 12:14:54.62	235.15	53.39	-41.7	-44.6	19.2	6.05e-01	0	62	0	557318144	54	5194
2026-01-23 12:14:55.63	235.96	53.56	-41.9	-44.9	19.0	6.06e-01	0	62	0	559415296	54	5387
2026-01-23 12:14:56.64	236.77	53.73	-42.1	-45.2	18.7	6.05e-01	0	62	0	560988160	54	5564
2026-01-23 12:14:57.64	237.59	53.88	-41.7	-44.9	19.0	6.08e-01	0	62	0	563085312	54	5377
2026-01-23 12:14:58.65	238.43	54.04	-42.0	-45.1	18.8	6.08e-01	0	62	0	564658176	54	5518
2026-01-23 12:14:59.66	239.28	54.19	-42.2	-45.4	18.5	6.05e-01	0	62	0	566755328	55	5378
2026-01-23 12:15:00.67	240.13	54.33	-42.3	-45.5	18.4	6.05e-01	0	62	0	568852480	55	5427
2026-01-23 12:15:01.68	240.99	54.47	-42.3	-45.5	18.4	6.06e-01	0	62	0	570425344	55	5428
2026-01-23 12:15:02.69	241.87	54.60	-42.4	-45.7	18.2	6.07e-01	0	62	0	572522496	55	5569
2026-01-23 12:15:03.70	242.74	54.72	-42.4	-45.8	18.2	6.07e-01	0	62	0	574619648	55	5621
2026-01-23 12:15:04.71	243.63	54.84	-42.4	-45.7	18.1	6.05e-01	0	62	0	576192512	55	5588
2026-01-23 12:15:05.72	244.52	54.95	-42.4	-45.6	18.3	6.08e-01	0	62	0	578289664	55	5510
2026-01-23 12:15:06.73	245.42	55.06	-42.5	-45.8	18.0	6.06e-01	0	62	0	579862528	55	5628
2026-01-23 12:15:07.74	246.33	55.15	-42.5	-45.9	18.1	6.07e-01	0	62	0	581959680	55	5678
2026-01-23 12:15:08.75	247.24	55.25	-42.3	-45.5	18.4	6.06e-01	0	62	0	584056832	55	5458
2026-01-23 12:15:09.76	248.16	55.33	-42.7	-46.1	17.8	6.06e-01	0	62	0	585629696	55	5831
2026-01-23 12:15:10.77	249.08	55.41	-42.4	-45.7	18.3	6.05e-01	0	62	0	587726848	55	5538
2026-01-23 12:15:11.78	250.01	55.48	-42.4	-45.8	18.2	6.05e-01	0	62	0	589299712	55	5600
2026-01-23 12:15:12.79	250.95	55.54	-42.6	-46.1	17.9	6.04e-01	0	62	0	591396864	55	5798
2026-01-23 12:15:13.80	251.88	55.60	-42.5	-45.8	18.1	6.04e-01	0	62	0	593494016	55	5634
2026-01-23 12:15:14.80	252.81	55.64	-42.6	-46.1	17.8	6.06e-01	0	62	0	595066880	55	5819
2026-01-23 12:15:15.81	253.76	55.69	-42.7	-46.2	17.7	6.04e-01	0	62	0	597164032	55	5909
2026-01-23 12:15:16.82	254.70	55.72	-42.8	-46.4	17.6	6.06e-01	0	62	0	598736896	56	5686
2026-01-23 12:15:17.83	255.65	55.75	-42.8	-46.3	17.8	6.06e-01	0	62	0	600834048	56	5600
2026-01-23 12:15:18.84	256.60	55.76	-43.0	-46.6	17.5	6.07e-01	0	62	0	602931200	56	5808
2026-01-23 12:15:19.85	257.55	55.78	-42.9	-46.5	17.5	6.05e-01	0	62	0	604504064	56	5744
2026-01-23 12:15:20.86	258.50	55.78	-42.8	-46.3	17.6	6.04e-01	0	62	0	606601216	56	5645
2026-01-23 12:15:21.87	259.45	55.77	-42.8	-46.3	17.7	6.05e-01	0	62	0	608174080	56	5652
2026-01-23 12:15:22.88	260.40	55.76	-42.8	-46.2	17.8	6.08e-01	0	62	0	610271232	56	5553
2026-01-23 12:15:23.89	261.35	55.74	-42.8	-46.3	17.7	6.05e-01	0	62	0	612368384	56	5648
2026-01-23 12:15:24.89	262.29	55.72	-42.6	-45.9	18.1	6.07e-01	0	62	0	613941248	56	5401
2026-01-23 12:15:25.90	263.23	55.68	-42.6	-45.9	18.1	6.10e-01	0	62	0	616038400	56	5399
2026-01-23 12:15:26.91	264.18	55.64	-42.7	-46.1	17.9	6.05e-01	0	62	0	618135552	56	5526
2026-01-23 12:15:27.92	265.11	55.59	-42.7	-46.1	17.9	6.06e-01	0	62	0	619708416	56	5499
2026-01-23 12:15:28.93	266.05	55.54	-42.7	-46.1	18.0	6.07e-01	0	62	0	621805568	56	5481
2026-01-23 12:15:29.94	266.98	55.47	-42.9	-46.5	17.6	6.05e-01	0	62	0	623378432	56	5741
2026-01-23 12:15:30.95	267.91	55.40	-42.7	-46.1	17.9	6.06e-01	0	62	0	625475584	56	5506
2026-01-23 12:15:31.96	268.83	55.32	-42.8	-46.2	17.8	6.05e-01	0	62	0	627572736	56	5572
2026-01-23 12:15:32.97	269.75	55.24	-42.5	-45.7	18.3	6.06e-01	0	62	0	629145600	56	5274
2026-01-23 12:15:33.98	270.66	55.15	-42.8	-46.3	17.7	6.08e-01	0	62	0	631242752	56	5651
2026-01-23 12:15:34.99	271.57	55.05	-42.8	-46.3	17.8	6.05e-01	0	62	0	632815616	56	5613
2026-01-23 12:15:36.00	272.47	54.94	-42.5	-45.7	18.2	6.05e-01	0	62	0	634912768	56	5279
2026-01-23 12:15:37.01	273.36	54.83	-42.6	-45.9	18.2	6.06e-01	0	62	0	637009920	56	5382
2026-01-23 12:15:38.02	274.24	54.71	-42.6	-45.9	18.1	6.03e-01	0	62	0	638582784	56	5381
2026-01-23 12:15:39.03	275.12	54.59	-42.7	-46.1	18.0	6.06e-01	0	62	0	640679936	56	5479
2026-01-23 12:15:40.04	275.99	54.46	-42.6	-46.0	18.1	6.05e-01	0	62	0	642777088	56	5413
2026-01-23 12:15:41.05	276.85	54.32	-42.5	-45.7	18.3	6.07e-01	0	62	0	644349952	56	5255
2026-01-23 12:15:42.06	277.70	54.18	-42.5	-45.8	18.2	6.05e-01	0	62	0	646447104	56	5323
2026-01-23 12:15:43.07	278.55	54.03	-42.7	-46.0	18.0	6.05e-01	0	62	0	648019968	56	5463
2026-01-23 12:15:44.08	279.38	53.88	-42.6	-45.9	18.1	6.10e-01	0	62	0	650117120	56	5364
2026-01-23 12:15:45.09	280.21	53.72	-42.5	-45.8	18.3	6.07e-01	0	62	0	652214272	56	5309
2026-01-23 12:15:46.10	281.02	53.55	-42.5	-45.9	18.2	6.06e-01	0	62	0	653787136	56	5348
2026-01-23 12:15:47.11	281.83	53.38	-42.6	-45.9	18.1	6.08e-01	0	62	0	655884288	56	5385
2026-01-23 12:15:48.12	282.63	53.21	-42.3	-45.5	18.6	6.06e-01	0	62	0	657457152	56	5110
2026-01-23 12:15:49.13	283.42	53.03	-42.5	-45.8	18.2	6.08e-01	0	62	0	659554304	56	5323
2026-01-23 12:15:50.14	284.20	52.84	-42.6	-46.0	18.1	6.07e-01	0	62	0	661651456	56	5406
2026-01-23 12:15:51.15	284.96	52.65	-42.7	-46.1	17.9	6.06e-01	0	62	0	663224320	56	5493
2026-01-23 12:15:52.16	285.72	52.46	-42.5	-45.9	18.3	6.09e-01	0	62	0	665321472	56	5343
2026-01-23 12:15:53.17	286.47	52.26	-42.6	-46.0	18.0	6.06e-01	0	62	0	666894336	56	5455
2026-01-23 12:15:54.18	287.21	52.06	-42.6	-45.8	18.2	6.07e-01	0	62	0	668991488	56	5337
2026-01-23 12:15:55.19	287.94	51.86	-42.6	-45.9	18.2	6.07e-01	0	62	0	671088640	56	5368
2026-01-23 12:15:56.20	288.65	51.65	-42.7	-46.1	18.0	6.05e-01	0	62	0	672661504	56	5500
2026-01-23 12:15:57.21	289.36	51.44	-42.6	-45.9	18.2	6.06e-01	0	62	0	674758656	56	5365
2026-01-23 12:15:58.22	290.06	51.22	-42.6	-46.0	18.1	6.06e-01	0	62	0	676331520	56	5409
2026-01-23 12:15:59.23	290.75	51.00	-42.6	-45.9	18.2	6.07e-01	0	62	0	678428672	56	5372
2026-01-23 12:16:00.24	291.43	50.78	-42.8	-46.3	17.8	6.07e-01	0	62	0	680525824	56	5628
2026-01-23 12:16:01.25	292.09	50.55	-42.7	-46.2	17.9	6.05e-01	0	62	0	682098688	56	5544
2026-01-23 12:16:02.26	292.75	50.33	-42.8	-46.4	17.7	6.06e-01	0	62	0	684195840	56	5657
2026-01-23 12:16:03.27	293.40	50.10	-42.6	-46.0	18.0	6.05e-01	0	62	0	686292992	56	5432
2026-01-23 12:16:04.28	294.04	49.86	-42.9	-46.4	17.6	6.07e-01	0	62	0	687865856	56	5703
2026-01-23 12:16:05.29	294.66	49.63	-42.9	-46.4	17.6	6.07e-01	0	62	0	689963008	56	5675
2026-01-23 12:16:06.30	295.28	49.39	-42.8	-46.3	17.7	6.08e-01	0	62	0	691535872	56	5647
2026-01-23 12:16:07.31	295.89	49.15	-42.9	-46.5	17.5	6.04e-01	0	62	0	693633024	56	5776
2026-01-23 12:16:08.32	296.49	48.91	-42.8	-46.2	17.9	6.08e-01	0	62	0	695730176	56	5544
2026-01-23 12:16:09.33	297.08	48.67	-42.8	-46.3	17.7	6.05e-01	0	62	0	697303040	56	5624
2026-01-23 12:16:10.34	297.66	48.42	-43.0	-46.6	17.4	6.06e-01	0	62	0	699400192	56	5855
2026-01-23 12:16:11.35	298.23	48.18	-42.9	-46.5	17.6	6.05e-01	0	62	0	700973056	56	5750
2026-01-23 12:16:12.35	298.79	47.93	-42.8	-46.4	17.7	6.08e-01	0	62	0	703070208	56	5661
2026-01-23 12:16:13.36	299.34	47.68	-42.6	-46.0	18.1	6.05e-01	0	62	0	705167360	56	5404
2026-01-23 12:16:14.37	299.89	47.43	-42.6	-45.9	18.2	6.06e-01	0	62	0	706740224	56	5375
2026-01-23 12:16:15.38	300.42	47.18	-42.9	-46.4	17.7	6.07e-01	0	62	0	708837376	56	5705
2026-01-23 12:16:16.39	300.95	46.93	-42.6	-46.0	18.1	6.08e-01	0	62	0	710934528	56	5409
2026-01-23 12:16:17.40	301.47	46.67	-42.6	-46.0	18.1	6.04e-01	0	62	0	712507392	56	5435
2026-01-23 12:16:18.41	301.98	46.42	-42.5	-45.8	18.3	6.05e-01	0	62	0	714604544	56	5312
2026-01-23 12:16:19.42	302.48	46.16	-42.5	-45.8	18.3	6.06e-01	0	62	0	716177408	56	5301
2026-01-23 12:16:20.43	302.97	45.91	-42.5	-45.7	18.4	6.07e-01	0	62	0	718274560	56	5239
2026-01-23 12:16:21.44	303.46	45.65	-42.7	-46.1	18.0	6.05e-01	0	62	0	720371712	56	5496
2026-01-23 12:16:22.45	303.93	45.40	-42.6	-45.9	18.2	6.07e-01	0	62	0	721944576	56	5369
2026-01-23 12:16:23.45	304.40	45.14	-42.4	-45.7	18.4	6.05e-01	0	62	0	724041728	56	5235
2026-01-23 12:16:24.46	304.86	44.88	-42.4	-45.7	18.4	6.07e-01	0	62	0	725614592	56	5236
2026-01-23 12:16:25.47	305.32	44.63	-42.5	-45.7	18.4	6.05e-01	0	62	0	727711744	56	5254
2026-01-23 12:16:26.48	305.77	44.37	-42.4	-45.7	18.4	6.06e-01	0	62	0	729284608	56	5231
2026-01-23 12:16:27.49	306.21	44.11	-42.5	-45.8	18.3	6.07e-01	0	62	0	731381760	56	5306
2026-01-23 12:16:28.50	306.64	43.85	-42.6	-45.9	18.2	6.06e-01	0	62	0	733478912	56	5367
2026-01-23 12:16:29.51	307.07	43.60	-42.5	-45.8	18.3	6.06e-01	0	62	0	735051776	56	5280
2026-01-23 12:16:30.52	307.48	43.34	-42.6	-45.9	18.1	6.07e-01	0	62	0	737148928	56	5402
2026-01-23 12:16:31.53	307.90	43.08	-42.6	-46.0	18.0	6.05e-01	0	62	0	739246080	56	5451
2026-01-23 12:16:32.54	308.30	42.82	-42.5	-45.8	18.3	6.04e-01	0	62	0	740818944	56	5289
2026-01-23 12:16:33.55	308.70	42.57	-42.5	-45.9	18.2	6.04e-01	0	62	0	742916096	56	5342
2026-01-23 12:16:34.56	309.10	42.31	-42.6	-45.9	18.2	6.07e-01	0	62	0	744488960	56	5384
2026-01-23 12:16:35.57	309.48	42.06	-42.6	-45.9	18.2	6.08e-01	0	62	0	746586112	56	5345
2026-01-23 12:16:36.58	309.86	41.80	-42.6	-45.9	18.2	6.07e-01	0	62	0	748683264	56	5354
2026-01-23 12:16:37.59	310.24	41.55	-42.8	-46.4	17.8	6.07e-01	0	62	0	750256128	56	5658
2026-01-23 12:16:38.60	310.61	41.29	-42.8	-46.4	17.7	6.06e-01	0	62	0	752353280	56	5660
2026-01-23 12:16:39.61	310.97	41.04	-42.8	-46.2	17.8	6.05e-01	0	62	0	754450432	56	5574
2026-01-23 12:16:40.61	311.33	40.79	-42.8	-46.3	17.8	6.06e-01	0	62	0	756023296	56	5597
2026-01-23 12:16:41.62	311.68	40.54	-42.6	-45.9	18.1	6.06e-01	0	62	0	758120448	56	5393
2026-01-23 12:16:42.63	312.02	40.28	-42.6	-45.9	18.2	6.06e-01	0	62	0	759693312	56	5352
2026-01-23 12:16:43.64	312.37	40.03	-42.6	-46.0	18.1	6.06e-01	0	62	0	761790464	56	5440
2026-01-23 12:16:44.65	312.70	39.78	-42.6	-46.0	18.0	6.07e-01	0	62	0	763887616	56	5445
2026-01-23 12:16:45.66	313.03	39.53	-42.7	-46.2	17.9	6.04e-01	0	62	0	765460480	56	5529
2026-01-23 12:16:46.67	313.36	39.29	-42.8	-46.3	17.8	6.06e-01	0	62	0	767557632	56	5600
2026-01-23 12:16:47.68	313.68	39.04	-42.8	-46.4	17.7	6.05e-01	0	62	0	769130496	56	5669
2026-01-23 12:16:48.69	313.99	38.79	-42.8	-46.3	17.7	6.06e-01	0	62	0	771227648	56	5649
2026-01-23 12:16:49.70	314.30	38.55	-42.8	-46.3	17.8	6.07e-01	0	62	0	773324800	56	5616
2026-01-23 12:16:50.71	314.61	38.30	-42.6	-46.0	18.0	6.07e-01	0	62	0	774897664	56	5435
2026-01-23 12:16:51.72	314.91	38.06	-42.6	-45.9	18.1	6.06e-01	0	62	0	776994816	56	5345
2026-01-23 12:16:52.73	315.21	37.82	-42.6	-45.9	18.2	6.07e-01	0	62	0	778567680	56	5371
2026-01-23 12:16:53.74	315.50	37.58	-42.5	-45.8	18.3	6.07e-01	0	62	0	780664832	56	5301
2026-01-23 12:16:54.75	315.79	37.34	-42.5	-45.8	18.3	6.04e-01	0	62	0	782761984	56	5288
2026-01-23 12:16:55.76	316.08	37.10	-42.3	-45.5	18.5	6.06e-01	0	62	0	784334848	56	5138
2026-01-23 12:16:56.77	316.36	36.86	-42.4	-45.6	18.5	6.08e-01	0	62	0	786432000	56	5171
2026-01-23 12:16:57.78	316.63	36.62	-42.3	-45.5	18.5	6.04e-01	0	62	0	788004864	56	5144
2026-01-23 12:16:58.79	316.90	36.39	-42.3	-45.5	18.5	6.08e-01	0	62	0	790102016	56	5126
2026-01-23 12:16:59.79	317.17	36.15	-42.3	-45.6	18.5	6.04e-01	0	62	0	792199168	56	5160
2026-01-23 12:17:00.80	317.43	35.92	-42.3	-45.4	18.6	6.05e-01	0	62	0	793772032	56	5088
2026-01-23 12:17:01.81	317.69	35.69	-42.2	-45.4	18.6	6.06e-01	0	62	0	795869184	56	5060
2026-01-23 12:17:02.82	317.95	35.46	-42.2	-45.3	18.8	6.04e-01	0	62	0	797442048	56	4987
2026-01-23 12:17:03.83	318.20	35.23	-42.1	-45.2	18.9	6.07e-01	0	62	0	799539200	56	4961
2026-01-23 12:17:04.84	318.45	35.00	-42.0	-45.0	19.0	6.04e-01	0	62	0	801636352	56	4866
2026-01-23 12:17:05.85	318.70	34.77	-41.8	-44.6	19.3	6.05e-01	0	62	0	803209216	55	4923
2026-01-23 12:17:06.86	318.94	34.54	-41.6	-44.5	19.4	6.06e-01	0	62	0	805306368	55	4844
2026-01-23 12:17:07.87	319.18	34.32	-41.7	-44.5	19.4	6.06e-01	0	62	0	807403520	55	4860
2026-01-23 12:17:08.88	319.42	34.09	-41.6	-44.4	19.5	6.07e-01	0	62	0	808976384	55	4814
2026-01-23 12:17:09.89	319.65	33.87	-41.5	-44.3	19.5	6.07e-01	0	62	0	811073536	55	4748
2026-01-23 12:17:10.90	319.88	33.65	-41.5	-44.3	19.5	6.04e-01	0	62	0	812646400	55	4729
2026-01-23 12:17:11.91	320.11	33.43	-41.5	-44.3	19.5	6.07e-01	0	62	0	814743552	55	4728
2026-01-23 12:17:12.92	320.33	33.21	-41.5	-44.3	19.6	6.00e-01	0	62	0	816840704	55	4754
2026-01-23 12:17:13.93	320.55	32.99	-41.6	-44.4	19.5	6.07e-01	0	62	0	818413568	55	4793
2026-01-23 12:17:14.94	320.77	32.78	-41.6	-44.5	19.4	6.05e-01	0	62	0	820510720	55	4831
2026-01-23 12:17:15.95	320.98	32.56	-41.5	-44.3	19.4	6.05e-01	0	62	0	822607872	55	4742
2026-01-23 12:17:16.96	321.19	32.35	-41.6	-44.4	19.4	6.05e-01	0	62	0	824180736	54	5062
2026-01-23 12:17:17.97	321.40	32.13	-41.5	-44.4	19.4	6.08e-01	0	62	0	826277888	54	5057
2026-01-23 12:17:18.97	321.61	31.92	-41.6	-44.4	19.5	6.07e-01	0	62	0	827850752	54	5085
2026-01-23 12:17:19.98	321.81	31.71	-41.5	-44.3	19.5	6.07e-01	0	62	0	829947904	54	5019
2026-01-23 12:17:20.99	322.01	31.50	-41.5	-44.3	19.5	6.07e-01	0	62	0	832045056	54	5014
2026-01-23 12:17:22.00	322.21	31.30	-41.5	-44.3	19.4	6.07e-01	0	62	0	833617920	54	5026
2026-01-23 12:17:23.01	322.41	31.09	-41.5	-44.3	19.5	6.06e-01	0	62	0	835715072	54	4990
2026-01-23 12:17:24.02	322.60	30.88	-41.4	-44.2	19.6	6.07e-01	0	62	0	837287936	54	4937
2026-01-23 12:17:25.03	322.79	30.68	-41.4	-44.1	19.7	6.06e-01	0	62	0	839385088	54	4925
2026-01-23 12:17:26.04	322.98	30.48	-41.5	-44.3	19.5	6.08e-01	0	62	0	841482240	54	4996
2026-01-23 12:17:27.05	323.16	30.27	-41.6	-44.5	19.3	6.06e-01	0	62	0	843055104	54	5107
2026-01-23 12:17:28.06	323.35	30.07	-41.6	-44.5	19.2	6.04e-01	0	62	0	845152256	54	5126
2026-01-23 12:17:29.07	323.53	29.87	-41.6	-44.4	19.2	6.08e-01	0	62	0	846725120	54	5092
2026-01-23 12:17:30.08	323.71	29.68	-41.6	-44.5	19.2	6.06e-01	0	62	0	848822272	54	5135
2026-01-23 12:17:31.09	323.89	29.48	-41.6	-44.5	19.2	6.05e-01	0	62	0	850919424	54	5132
2026-01-23 12:17:32.10	324.06	29.28	-41.7	-44.6	19.1	6.05e-01	0	62	0	852492288	54	5173
2026-01-23 12:17:33.11	324.23	29.09	-41.7	-44.6	19.0	6.07e-01	0	62	0	854589440	54	5195
2026-01-23 12:17:34.12	324.40	28.89	-41.7	-44.6	19.0	6.07e-01	0	61	0	856162304	54	5214
2026-01-23 12:17:35.13	324.57	28.70	-41.7	-44.7	18.9	6.08e-01	0	62	0	858259456	54	5255
2026-01-23 12:17:36.14	324.74	28.51	-41.8	-44.8	18.9	6.07e-01	0	62	0	860356608	54	5318
2026-01-23 12:17:37.15	324.90	28.32	-41.7	-44.7	19.0	6.07e-01	0	62	0	861929472	54	5245
2026-01-23 12:17:38.16	325.06	28.13	-41.7	-44.7	19.0	6.07e-01	0	62	0	864026624	54	5261
2026-01-23 12:17:39.17	325.23	27.94	-41.8	-44.7	19.0	6.09e-01	0	62	0	865599488	54	5277
2026-01-23 12:17:40.18	325.38	27.76	-41.8	-44.8	18.9	6.03e-01	0	62	0	867696640	54	5297
2026-01-23 12:17:41.18	325.54	27.57	-41.8	-44.8	18.8	6.07e-01	0	62	0	869793792	54	5330
2026-01-23 12:17:42.19	325.69	27.39	-41.9	-44.9	18.8	6.07e-01	0	62	0	871366656	54	5382
2026-01-23 12:17:43.20	325.85	27.21	-42.0	-45.1	18.7	6.08e-01	0	62	0	873463808	54	5466
2026-01-23 12:17:44.21	326.00	27.02	-41.9	-45.0	18.7	6.05e-01	0	62	0	875560960	54	5458
2026-01-23 12:17:45.22	326.15	26.84	-42.0	-45.1	18.6	6.06e-01	0	62	0	877133824	54	5511
2026-01-23 12:17:46.23	326.30	26.66	-42.0	-45.2	18.5	6.08e-01	0	62	0	879230976	54	5533
2026-01-23 12:17:47.24	326.44	26.49	-42.0	-45.2	18.4	6.06e-01	0	62	0	880803840	54	5563
2026-01-23 12:17:48.25	326.59	26.31	-42.1	-45.3	18.3	6.06e-01	0	62	0	882900992	54	5606
2026-01-23 12:17:49.26	326.73	26.13	-42.0	-45.2	18.4	6.06e-01	0	62	0	884998144	54	5573
2026-01-23 12:17:50.27	326.87	25.96	-42.1	-45.3	18.4	6.05e-01	0	62	0	886571008	54	5607
2026-01-23 12:17:51.27	327.01	25.78	-42.0	-45.2	18.4	6.04e-01	0	62	0	888668160	54	5562
2026-01-23 12:17:52.28	327.15	25.61	-42.1	-45.3	18.3	6.07e-01	0	62	0	890241024	54	5622
2026-01-23 12:17:53.29	327.29	25.44	-42.1	-45.3	18.2	6.05e-01	0	62	0	892338176	54	5622
2026-01-23 12:17:54.30	327.42	25.27	-42.1	-45.4	18.1	6.07e-01	0	62	0	894435328	54	5668
2026-01-23 12:17:55.31	327.56	25.10	-42.1	-45.3	18.2	6.08e-01	0	62	0	896008192	54	5615
2026-01-23 12:17:56.32	327.69	24.93	-42.1	-45.3	18.3	6.06e-01	0	62	0	898105344	54	5623
2026-01-23 12:17:57.33	327.82	24.76	-42.0	-45.2	18.4	6.06e-01	0	62	0	899678208	54	5579
2026-01-23 12:17:58.34	327.95	24.59	-42.0	-45.2	18.4	6.04e-01	0	62	0	901775360	54	5586
2026-01-23 12:17:59.35	328.08	24.43	-42.1	-45.4	18.2	6.04e-01	0	62	0	903872512	54	5669
2026-01-23 12:18:00.36	328.20	24.26	-42.1	-45.4	18.1	6.04e-01	0	62	0	905445376	54	5685
2026-01-23 12:18:01.37	328.33	24.10	-42.1	-45.4	18.1	6.05e-01	0	62	0	907542528	54	5710
2026-01-23 12:18:02.38	328.45	23.93	-42.1	-45.3	18.3	6.05e-01	0	62	0	909115392	54	5618
2026-01-23 12:18:03.39	328.58	23.77	-42.0	-45.2	18.4	6.06e-01	0	62	0	911212544	54	5578
2026-01-23 12:18:04.40	328.70	23.61	-42.0	-45.3	18.4	6.05e-01	0	62	0	913309696	54	5597
2026-01-23 12:18:05.41	328.82	23.45	-42.0	-45.2	18.4	6.08e-01	0	62	0	914882560	54	5555
2026-01-23 12:18:06.42	328.94	23.29	-42.0	-45.3	18.3	6.06e-01	0	62	0	916979712	54	5605
2026-01-23 12:18:07.43	329.06	23.13	-42.0	-45.3	18.3	6.07e-01	0	62	0	918552576	54	5601
2026-01-23 12:18:08.43	329.17	22.98	-42.0	-45.3	18.4	6.07e-01	0	62	0	920649728	54	5595
2026-01-23 12:18:09.44	329.29	22.82	-42.0	-45.2	18.4	6.07e-01	0	62	0	922746880	54	5584
2026-01-23 12:18:10.46	329.40	22.66	-42.1	-45.3	18.3	6.08e-01	0	62	0	924319744	54	5642
2026-01-23 12:18:11.47	329.52	22.51	-42.0	-45.3	18.3	6.08e-01	0	62	0	926416896	54	5605
2026-01-23 12:18:12.48	329.63	22.36	-42.0	-45.3	18.3	6.06e-01	0	62	0	928514048	54	5621
2026-01-23 12:18:13.48	329.74	22.20	-42.1	-45.3	18.2	6.08e-01	0	62	0	930086912	54	5645
2026-01-23 12:18:14.49	329.85	22.05	-42.1	-45.4	18.2	6.05e-01	0	62	0	932184064	54	5658
2026-01-23 12:18:15.50	329.96	21.90	-42.0	-45.3	18.3	6.06e-01	0	62	0	933756928	54	5619
2026-01-23 12:18:16.51	330.07	21.75	-42.0	-45.2	18.4	6.05e-01	0	62	0	935854080	54	5573
2026-01-23 12:18:17.52	330.17	21.60	-42.0	-45.2	18.4	6.06e-01	0	62	0	937951232	54	5571
2026-01-23 12:18:18.53	330.28	21.45	-41.9	-45.1	18.5	6.04e-01	0	62	0	939524096	54	5486
2026-01-23 12:18:19.54	330.38	21.31	-41.9	-45.1	18.6	6.05e-01	0	62	0	941621248	54	5465
2026-01-23 12:18:20.55	330.49	21.16	-41.8	-45.0	18.6	6.03e-01	0	62	0	943718400	54	5440
2026-01-23 12:18:21.56	330.59	21.01	-41.9	-45.1	18.5	6.07e-01	0	62	0	945291264	54	5480
2026-01-23 12:18:22.57	330.69	20.87	-41.9	-45.1	18.5	6.08e-01	0	62	0	947388416	54	5489
2026-01-23 12:18:23.58	330.79	20.72	-41.9	-45.1	18.4	6.08e-01	0	62	0	948961280	54	5512
2026-01-23 12:18:24.59	330.89	20.58	-41.9	-45.2	18.4	6.06e-01	0	62	0	951058432	54	5532
2026-01-23 12:18:25.60	330.99	20.44	-41.8	-45.0	18.5	6.08e-01	0	62	0	953155584	54	5438
2026-01-23 12:18:26.61	331.09	20.30	-41.8	-45.0	18.6	6.07e-01	0	62	0	954728448	54	5412
2026-01-23 12:18:27.62	331.19	20.16	-41.8	-45.0	18.5	6.07e-01	0	62	0	956825600	54	5441
2026-01-23 12:18:28.63	331.28	20.02	-41.8	-44.9	18.6	6.07e-01	0	62	0	958398464	54	5371
2026-01-23 12:18:29.64	331.38	19.88	-41.7	-44.7	18.8	6.07e-01	0	62	0	960495616	54	5278
2026-01-23 12:18:30.65	331.47	19.74	-41.6	-44.7	18.9	6.06e-01	0	62	0	962592768	54	5240
2026-01-23 12:18:31.65	331.56	19.60	-41.7	-44.8	18.8	6.06e-01	0	62	0	964165632	54	5280
2026-01-23 12:18:32.66	331.66	19.47	-41.6	-44.7	18.8	6.04e-01	0	62	0	966262784	54	5247
2026-01-23 12:18:33.67	331.75	19.33	-41.6	-44.7	18.9	6.06e-01	0	62	0	967835648	54	5225
2026-01-23 12:18:34.68	331.84	19.19	-41.6	-44.7	18.8	6.06e-01	0	62	0	969932800	54	5252
2026-01-23 12:18:35.69	331.93	19.06	-41.6	-44.8	18.7	6.04e-01	0	62	0	972029952	54	5283
2026-01-23 12:18:36.70	332.02	18.93	-41.7	-44.8	18.6	6.05e-01	0	62	0	973602816	54	5340
2026-01-23 12:18:37.71	332.11	18.79	-41.6	-44.7	18.7	6.06e-01	0	62	0	975699968	54	5279
2026-01-23 12:18:38.72	332.20	18.66	-41.7	-44.9	18.6	6.04e-01	0	62	0	977272832	54	5341
2026-01-23 12:18:39.73	332.28	18.53	-41.7	-44.8	18.6	6.06e-01	0	62	0	979369984	54	5339
2026-01-23 12:18:40.74	332.37	18.40	-41.7	-44.9	18.5	6.06e-01	0	62	0	981467136	54	5401
2026-01-23 12:18:41.75	332.46	18.27	-41.7	-44.9	18.5	6.06e-01	0	62	0	983040000	54	5384
2026-01-23 12:18:42.76	332.54	18.14	-41.7	-44.9	18.5	6.06e-01	0	62	0	985137152	54	5400
2026-01-23 12:18:43.77	332.63	18.01	-41.7	-45.0	18.4	6.06e-01	0	62	0	986710016	54	5429
2026-01-23 12:18:44.78	332.71	17.88	-41.8	-45.1	18.3	6.04e-01	0	62	0	988807168	54	5478
2026-01-23 12:18:45.79	332.79	17.75	-41.8	-45.1	18.3	6.05e-01	0	62	0	990904320	54	5509
2026-01-23 12:18:46.80	332.87	17.62	-41.8	-45.1	18.3	6.06e-01	0	62	0	992477184	54	5496
2026-01-23 12:18:47.81	332.96	17.50	-41.8	-45.2	18.2	6.06e-01	0	62	0	994574336	54	5543
2026-01-23 12:18:48.82	333.04	17.37	-41.8	-45.1	18.3	6.07e-01	0	62	0	996671488	54	5490
2026-01-23 12:18:49.83	333.12	17.25	-41.7	-45.0	18.4	6.07e-01	0	62	0	998244352	54	5417
2026-01-23 12:18:50.84	333.20	17.12	-41.8	-45.1	18.2	6.06e-01	0	62	0	1000341504	54	5487
2026-01-23 12:18:51.84	333.27	17.00	-41.8	-45.1	18.2	6.06e-01	0	62	0	1001914368	54	5511
2026-01-23 12:18:52.85	333.35	16.88	-41.7	-45.0	18.3	6.07e-01	0	62	0	1004011520	54	5417
2026-01-23 12:18:53.86	333.43	16.76	-41.7	-45.0	18.2	6.08e-01	0	62	0	1006108672	54	5461
2026-01-23 12:18:54.88	333.51	16.63	-41.7	-45.1	18.2	6.06e-01	0	62	0	1007681536	54	5467
2026-01-23 12:18:55.88	333.58	16.51	-41.7	-44.9	18.3	6.06e-01	0	62	0	1009778688	54	5398
2026-01-23 12:18:56.89	333.66	16.39	-41.6	-44.9	18.4	6.07e-01	0	62	0	1011875840	54	5371
2026-01-23 12:18:57.90	333.73	16.27	-41.7	-45.0	18.3	6.07e-01	0	62	0	1013448704	54	5409
2026-01-23 12:18:58.91	333.81	16.15	-41.6	-44.9	18.4	6.06e-01	0	62	0	1015545856	54	5350
2026-01-23 12:18:59.92	333.88	16.04	-41.6	-44.9	18.3	6.06e-01	0	62	0	1017118720	54	5355
2026-01-23 12:19:00.93	333.96	15.92	-41.6	-44.9	18.3	6.07e-01	0	62	0	1019215872	54	5389
2026-01-23 12:19:01.94	334.03	15.80	-41.6	-44.8	18.3	6.08e-01	0	62	0	1021313024	54	5338
2026-01-23 12:19:02.95	334.10	15.68	-41.6	-44.9	18.3	6.07e-01	0	62	0	1022885888	54	5349
2026-01-23 12:19:03.96	334.17	15.57	-41.5	-44.8	18.4	6.05e-01	0	62	0	1024983040	54	5305
2026-01-23 12:19:04.97	334.24	15.45	-41.6	-44.8	18.3	6.07e-01	0	62	0	1026555904	54	5327
2026-01-23 12:19:05.98	334.31	15.34	-41.5	-44.8	18.3	6.05e-01	0	62	0	1028653056	54	5298
2026-01-23 12:19:06.99	334.38	15.22	-41.6	-44.8	18.3	6.07e-01	0	62	0	1030750208	54	5330
2026-01-23 12:19:08.00	334.45	15.11	-41.5	-44.8	18.3	6.05e-01	0	61	0	1032323072	54	5321
2026-01-23 12:19:09.01	334.52	14.99	-41.5	-44.8	18.3	6.08e-01	0	62	0	1034420224	54	5308
2026-01-23 12:19:10.01	334.59	14.88	-41.6	-44.9	18.2	6.05e-01	0	62	0	1035993088	54	5346
2026-01-23 12:19:11.02	334.66	14.77	-41.5	-44.8	18.3	6.07e-01	0	62	0	1038090240	54	5312
2026-01-23 12:19:12.03	334.72	14.66	-41.5	-44.8	18.2	6.04e-01	0	62	0	1040187392	54	5323
2026-01-23 12:19:13.04	334.79	14.55	-41.6	-44.9	18.1	6.04e-01	0	62	0	1041760256	54	5392
2026-01-23 12:19:14.05	334.86	14.44	-41.5	-44.9	18.1	6.06e-01	0	62	0	1043857408	54	5350
2026-01-23 12:19:15.06	334.92	14.33	-41.5	-44.8	18.2	6.06e-01	0	62	0	1045430272	54	5323
2026-01-23 12:19:16.07	334.99	14.22	-41.5	-44.8	18.2	6.08e-01	0	62	0	1047527424	54	5303
2026-01-23 12:19:17.08	335.05	14.11	-41.5	-44.9	18.1	6.04e-01	0	62	0	1049624576	54	5371
2026-01-23 12:19:18.09	335.12	14.00	-41.5	-44.8	18.1	6.07e-01	0	62	0	1051197440	54	5322
2026-01-23 12:19:19.10	335.18	13.89	-41.5	-44.8	18.1	6.06e-01	0	62	0	1053294592	54	5336
2026-01-23 12:19:20.11	335.25	13.78	-41.5	-44.8	18.1	6.05e-01	0	62	0	1054867456	54	5307
2026-01-23 12:19:21.12	335.31	13.68	-41.4	-44.8	18.1	6.07e-01	0	62	0	1056964608	54	5290
2026-01-23 12:19:22.13	335.37	13.57	-41.5	-44.9	17.9	6.06e-01	0	62	0	1059061760	54	5382
2026-01-23 12:19:23.14	335.43	13.46	-41.6	-45.1	17.8	6.05e-01	0	62	0	1060634624	54	5471
2026-01-23 12:19:24.15	335.49	13.36	-41.6	-45.1	17.8	6.05e-01	0	62	0	1062731776	54	5471
2026-01-23 12:19:25.16	335.56	13.25	-41.6	-45.1	17.8	6.05e-01	0	62	0	1064828928	54	5467
2026-01-23 12:19:26.17	335.62	13.15	-41.5	-45.0	17.8	6.06e-01	0	62	0	1066401792	54	5445
2026-01-23 12:19:27.17	335.68	13.04	-41.5	-45.0	17.7	6.05e-01	0	62	0	1068498944	54	5445
2026-01-23 12:19:28.18	335.74	12.94	-41.6	-45.1	17.6	6.07e-01	0	62	0	1070071808	54	5493
2026-01-23 12:19:29.19	335.80	12.84	-41.6	-45.1	17.6	6.06e-01	0	62	0	1072168960	54	5522
2026-01-23 12:19:30.21	335.86	12.73	-41.7	-45.3	17.4	6.06e-01	0	62	0	1074266112	54	5619
2026-01-23 12:19:31.22	335.91	12.63	-41.6	-45.2	17.5	6.07e-01	0	62	0	1075838976	54	5566
2026-01-23 12:19:32.23	335.97	12.53	-41.6	-45.1	17.5	6.05e-01	0	62	0	1077936128	54	5527
2026-01-23 12:19:33.24	336.03	12.43	-41.5	-45.0	17.7	6.06e-01	0	62	0	1080033280	54	5423
2026-01-23 12:19:34.24	336.09	12.33	-41.5	-45.0	17.6	6.07e-01	0	62	0	1081606144	54	5460
2026-01-23 12:19:35.25	336.14	12.23	-41.5	-45.1	17.5	6.08e-01	0	62	0	1083703296	54	5512
2026-01-23 12:19:36.26	336.20	12.13	-41.7	-45.4	17.3	6.07e-01	0	62	0	1085276160	54	5670
2026-01-23 12:19:37.27	336.26	12.03	-41.6	-45.4	17.2	6.04e-01	0	62	0	1087373312	54	5670
2026-01-23 12:19:38.28	336.31	11.93	-41.6	-45.4	17.2	5.99e-01	0	62	0	1088946176	54	5671
2026-01-23 12:19:39.29	336.37	11.83	-41.6	-45.3	17.2	6.02e-01	0	62	0	1091043328	54	5652
2026-01-23 12:19:40.30	336.42	11.73	-41.6	-45.2	17.3	6.00e-01	0	62	0	1093140480	54	5585
2026-01-23 12:19:41.31	336.48	11.63	-41.6	-45.2	17.3	6.02e-01	0	62	0	1094713344	54	5588
2026-01-23 12:19:42.32	336.53	11.53	-41.5	-45.2	17.3	6.02e-01	0	62	0	1096810496	54	5566
2026-01-23 12:19:43.33	336.59	11.44	-41.5	-45.2	17.3	6.01e-01	0	62	0	1098383360	54	5588
2026-01-23 12:19:44.33	336.64	11.34	-41.5	-45.2	17.3	6.01e-01	0	62	0	1100480512	54	5550
2026-01-23 12:19:45.34	336.69	11.25	-41.5	-45.3	17.2	6.00e-01	0	62	0	1102577664	54	5620
2026-01-23 12:19:46.35	336.75	11.15	-41.6	-45.4	17.1	5.98e-01	0	62	0	1104150528	54	5695
2026-01-23 12:19:47.36	336.80	11.05	-41.7	-45.6	16.9	6.03e-01	0	62	0	1106247680	54	5801
2026-01-23 12:19:48.37	336.85	10.96	-41.8	-45.7	16.7	5.98e-01	0	62	0	1108344832	54	5903
2026-01-23 12:19:49.38	336.91	10.86	-41.8	-45.8	16.6	6.03e-01	0	62	0	1109917696	54	5979
2026-01-23 12:19:50.39	336.96	10.77	-41.8	-45.8	16.2	6.01e-01	0	62	0	1112014848	54	5964
2026-01-23 12:19:51.40	337.01	10.68	-41.7	-45.8	16.6	6.01e-01	0	62	0	1113587712	54	5931
2026-01-23 12:19:52.41	337.06	10.58	-41.7	-45.7	16.7	6.02e-01	0	62	0	1115684864	54	5863
2026-01-23 12:19:53.42	337.11	10.49	-41.6	-45.6	16.7	6.01e-01	0	62	0	1117782016	54	5843
2026-01-23 12:19:54.42	337.16	10.40	-41.5	-45.5	16.8	6.00e-01	0	62	0	1119354880	54	5735
2026-01-23 12:19:55.43	337.21	10.30	-41.5	-45.4	16.7	6.00e-01	0	62	0	1121452032	54	5720
2026-01-23 12:19:56.44	337.26	10.21	-41.5	-45.4	16.8	6.03e-01	0	62	0	1123024896	54	5714
2026-01-23 12:19:57.45	337.31	10.12	-41.5	-45.5	16.7	6.01e-01	0	62	0	1125122048	54	5733
2026-01-23 12:19:58.46	337.36	10.03	-41.5	-45.5	16.7	6.03e-01	0	62	0	1127219200	54	5733
2026-01-23 12:19:59.47	337.41	9.94	-41.5	-45.7	16.4	6.03e-01	0	62	0	1128792064	54	5866
2026-01-23 12:20:00.48	337.46	9.85	-41.6	-45.9	16.1	6.01e-01	0	62	0	1130889216	54	6048
2026-01-23 12:20:01.49	337.50	9.76	-41.8	-46.2	15.8	6.02e-01	0	62	0	1132986368	54	6268
2026-01-23 12:20:02.50	337.55	9.67	-41.8	-46.4	15.6	6.02e-01	0	62	0	1134559232	54	6358
2026-01-23 12:20:03.51	337.60	9.58	-41.8	-46.5	15.4	6.01e-01	0	62	0	1136656384	54	6445
2026-01-23 12:20:04.52	337.65	9.49	-41.7	-46.3	15.6	6.02e-01	0	62	0	1138229248	54	6328
2026-01-23 12:20:05.53	337.70	9.40	-41.7	-46.3	15.6	6.00e-01	0	62	0	1140326400	54	6317
2026-01-23 12:20:06.54	337.74	9.31	-41.7	-46.3	15.6	6.02e-01	0	62	0	1142423552	54	6279
2026-01-23 12:20:07.55	337.79	9.22	-41.6	-46.2	15.7	6.03e-01	0	62	0	1143996416	54	6213
2026-01-23 12:20:08.55	337.83	9.14	-41.5	-46.0	15.8	6.02e-01	0	62	0	1146093568	54	6105
2026-01-23 12:20:09.56	337.88	9.05	-41.4	-45.8	16.0	6.02e-01	0	62	0	1147666432	54	5967
2026-01-23 12:20:10.57	337.93	8.96	-41.4	-45.7	16.1	6.01e-01	0	62	0	1149763584	54	5873
2026-01-23 12:20:11.58	337.97	8.87	-41.2	-45.5	16.2	6.03e-01	0	62	0	1151860736	54	5772
2026-01-23 12:20:12.59	338.02	8.79	-41.3	-45.7	16.0	6.04e-01	0	62	0	1153433600	54	5873
2026-01-23 12:20:13.60	338.06	8.70	-41.2	-45.6	16.0	6.00e-01	0	62	0	1155530752	54	5789
2026-01-23 12:20:14.61	338.11	8.61	-41.2	-45.6	16.0	6.00e-01	0	62	0	1157103616	54	5799
2026-01-23 12:20:15.62	338.15	8.53	-41.1	-45.6	15.9	5.99e-01	0	62	0	1159200768	54	5813
2026-01-23 12:20:16.63	338.20	8.44	-41.1	-45.6	15.8	6.01e-01	0	62	0	1161297920	54	5819
2026-01-23 12:20:17.64	338.24	8.36	-41.0	-45.4	16.0	6.02e-01	0	62	0	1162870784	54	5719
2026-01-23 12:20:18.65	338.28	8.27	-41.1	-45.6	15.8	6.02e-01	0	62	0	1164967936	54	5820
2026-01-23 12:20:19.66	338.33	8.19	-41.1	-45.8	15.5	6.01e-01	0	62	0	1166540800	54	5960
2026-01-23 12:20:20.67	338.37	8.11	-41.2	-45.9	15.4	6.03e-01	0	62	0	1168637952	54	6046
2026-01-23 12:20:21.68	338.41	8.02	-43.8	-54.8	2.8	7.18e-01	0	62	104	1170210816	58	13291
2026-01-23 12:20:22.69	338.46	7.94	-45.1	-62.9	3.8	7.46e-01	0	62	104	1170210816	60	30377
2026-01-23 12:20:23.70	338.50	7.86	-45.6	-64.1	3.8	7.48e-01	0	62	104	1170210816	61	32591
2026-01-23 12:20:24.71	338.54	7.77	-45.9	-64.4	3.8	7.45e-01	0	62	104	1170210816	62	31879
2026-01-23 12:20:25.72	338.58	7.69	-46.1	-64.7	3.8	7.43e-01	0	62	104	1170210816	62	32964
2026-01-23 12:20:26.73	338.62	7.61	-46.2	-64.8	3.8	7.45e-01	0	62	104	1170210816	62	33394
2026-01-23 12:20:27.74	338.67	7.53	-46.3	-64.9	3.8	7.47e-01	0	62	104	1170210816	63	31950
2026-01-23 12:20:28.76	338.71	7.44	-46.4	-64.9	3.8	7.49e-01	0	62	104	1170210816	63	32078
2026-01-23 12:20:29.77	338.75	7.36	-46.4	-64.9	3.8	7.43e-01	0	62	104	1170210816	63	32041
2026-01-23 12:20:30.77	338.79	7.28	-46.4	-64.9	3.8	7.47e-01	0	62	104	1170210816	63	32076
2026-01-23 12:20:31.78	338.83	7.20	-46.3	-64.9	3.8	7.47e-01	0	62	104	1170210816	63	31866
2026-01-23 12:20:32.79	338.87	7.12	-46.2	-64.4	3.8	7.46e-01	0	62	104	1170210816	63	30267
2026-01-23 12:20:33.80	338.91	7.04	-46.3	-64.8	3.8	7.50e-01	0	62	104	1170210816	63	31763
2026-01-23 12:20:34.81	338.95	6.96	-46.3	-64.8	3.8	7.43e-01	0	62	104	1170210816	63	31727
2026-01-23 12:20:35.82	338.99	6.88	-46.3	-64.7	3.8	7.44e-01	0	62	104	1170210816	63	31399
2026-01-23 12:20:36.83	339.03	6.80	-46.3	-64.8	3.8	7.45e-01	0	62	104	1170210816	63	31718
2026-01-23 12:20:37.84	339.07	6.72	-46.3	-64.8	3.8	7.46e-01	0	62	104	1170210816	63	31517
2026-01-23 12:20:38.85	339.11	6.64	-46.3	-64.8	3.8	7.45e-01	0	62	104	1170210816	63	31502
2026-01-23 12:20:39.86	339.15	6.56	-46.3	-64.8	3.8	7.47e-01	0	62	104	1170210816	63	31487
2026-01-23 12:20:40.87	339.19	6.48	-46.3	-64.8	3.8	7.41e-01	0	62	104	1170210816	63	31510
2026-01-23 12:20:41.88	339.23	6.41	-46.2	-64.8	3.8	7.44e-01	0	62	104	1170210816	63	31466
2026-01-23 12:20:42.90	339.26	6.33	-46.2	-64.7	3.8	7.44e-01	0	62	104	1170210816	63	31416
2026-01-23 12:20:43.91	339.30	6.25	-46.2	-64.7	3.8	7.44e-01	0	62	104	1170210816	63	31386
2026-01-23 12:20:44.92	339.34	6.17	-46.2	-64.7	3.8	7.45e-01	0	62	104	1170210816	63	31373
2026-01-23 12:20:45.93	339.38	6.09	-46.2	-64.7	3.8	7.42e-01	0	62	104	1170210816	63	31441
2026-01-23 12:20:46.94	339.42	6.02	-46.2	-64.7	3.8	7.47e-01	0	62	104	1170210816	63	31428
2026-01-23 12:20:47.95	339.45	5.94	-46.2	-64.7	3.8	7.47e-01	0	62	104	1170210816	63	31390
2026-01-23 12:20:48.96	339.49	5.86	-46.2	-64.8	3.8	7.46e-01	0	62	104	1170210816	63	31505
2026-01-23 12:20:49.97	339.53	5.79	-46.2	-64.8	3.8	7.51e-01	0	62	104	1170210816	63	31447
2026-01-23 12:20:50.98	339.56	5.71	-46.2	-64.7	3.8	7.46e-01	0	62	104	1170210816	63	31382
2026-01-23 12:20:51.99	339.60	5.64	-46.2	-64.7	3.8	7.45e-01	0	62	104	1170210816	63	31378
2026-01-23 12:20:53.00	339.64	5.56	-46.2	-64.7	3.8	7.47e-01	0	62	104	1170210816	63	31341
2026-01-23 12:20:54.01	339.67	5.49	-46.1	-64.7	3.8	7.43e-01	0	62	104	1170210816	63	31374
2026-01-23 12:20:55.02	339.71	5.41	-46.2	-64.7	3.8	7.46e-01	0	62	104	1170210816	63	31361
2026-01-23 12:20:56.03	339.75	5.34	-46.2	-64.7	3.8	7.48e-01	0	62	104	1170210816	63	31333
2026-01-23 12:20:57.04	339.78	5.26	-46.2	-64.7	3.8	7.41e-01	0	62	104	1170210816	63	31381
2026-01-23 12:20:58.05	339.82	5.19	-46.2	-64.7	3.8	7.46e-01	0	62	104	1170210816	63	31403
2026-01-23 12:20:59.06	339.85	5.11	-46.2	-64.7	3.8	7.49e-01	0	62	104	1170210816	63	31311
2026-01-23 12:21:00.07	339.89	5.04	-46.2	-64.7	3.8	7.45e-01	0	62	104	1170210816	63	31378
2026-01-23 12:21:01.08	339.92	4.96	-46.2	-64.7	3.8	7.45e-01	0	62	104	1170210816	63	31306
2026-01-23 12:21:02.09	339.96	4.89	-46.2	-64.7	3.8	7.44e-01	0	62	104	1170210816	63	31315
2026-01-23 12:21:03.10	339.99	4.82	-46.2	-64.7	3.8	7.46e-01	0	62	104	1170210816	63	31341
2026-01-23 12:21:04.11	340.03	4.74	-46.2	-64.7	3.8	7.46e-01	0	62	104	1170210816	63	31366
2026-01-23 12:21:05.12	340.06	4.67	-46.2	-64.7	3.8	7.46e-01	0	62	104	1170210816	63	31282
2026-01-23 12:21:06.13	340.10	4.60	-46.2	-64.7	3.8	7.43e-01	0	62	104	1170210816	62	33125
2026-01-23 12:21:07.14	340.13	4.53	-46.2	-64.7	3.8	7.48e-01	0	62	104	1170210816	62	33145
