passes_logs/2026/01/23/R2.0S_Moscow/R2.0S_Moscow__20260123_030248_FENGYUN_3D_rec.log

#Pass ID: 20260123_030248_FENGYUN 3D
#Satellite: FENGYUN 3D
#Configuration: FENGYUN 3D
#almurnet v.1.7.20251203
#Start time: 2026-01-23 03:02:48

#Version: 2.2.20231116
#Station: R2.0S_Moscow
#Location: 37.707566 lon 55.798166 lat
#TLE: 1 43010U 17072A   26022.47411728  .00000617  00000+0  31375-3 0  9996
#TLE: 2 43010  98.9952 354.4060 0002481  95.7964 264.3494 14.19699924424319

#Time	Az	El	Level	Level2	SNR	BER	BlckErr	Temp	State	Recorded	gain1	gain2
2026-01-23 03:02:48.33	11.89	2.00	-39.9	-51.5	3.8	8.46e-01	0	51	0	0	51	13698
2026-01-23 03:02:49.33	11.84	2.06	-39.9	-51.5	3.8	8.47e-01	0	51	104	0	51	13640
2026-01-23 03:02:50.34	11.79	2.12	-39.9	-51.5	3.8	8.47e-01	0	51	104	0	51	13624
2026-01-23 03:02:51.35	11.74	2.18	-39.9	-51.5	3.8	8.46e-01	0	52	104	0	51	13586
2026-01-23 03:02:52.36	11.69	2.24	-39.9	-51.4	3.8	8.45e-01	0	52	104	0	51	13563
2026-01-23 03:02:53.37	11.64	2.30	-39.9	-51.5	3.8	8.46e-01	0	52	104	0	51	13616
2026-01-23 03:02:54.38	11.59	2.36	-39.9	-51.5	3.8	8.47e-01	0	52	104	0	51	13634
2026-01-23 03:02:55.39	11.54	2.42	-39.9	-51.4	3.8	8.46e-01	0	52	104	0	51	13569
2026-01-23 03:02:56.40	11.49	2.48	-39.9	-51.5	3.8	8.45e-01	0	52	104	0	51	13620
2026-01-23 03:02:57.41	11.43	2.54	-39.9	-51.5	3.8	8.46e-01	0	52	104	0	51	13601
2026-01-23 03:02:58.42	11.38	2.60	-39.9	-51.4	3.8	8.46e-01	0	52	104	0	51	13548
2026-01-23 03:02:59.44	11.33	2.67	-39.9	-51.5	3.8	8.46e-01	0	52	104	0	51	13585
2026-01-23 03:03:00.45	11.28	2.73	-39.9	-51.4	3.8	8.46e-01	0	52	104	0	51	13565
2026-01-23 03:03:01.46	11.22	2.79	-39.9	-51.5	3.8	8.46e-01	0	52	104	0	51	13582
2026-01-23 03:03:02.47	11.17	2.85	-39.9	-51.5	3.8	8.46e-01	0	52	104	0	51	13578
2026-01-23 03:03:03.48	11.12	2.91	-39.9	-51.4	3.8	8.46e-01	0	52	104	0	51	13503
2026-01-23 03:03:04.49	11.07	2.97	-39.9	-51.4	3.8	8.46e-01	0	52	104	0	51	13569
2026-01-23 03:03:05.50	11.01	3.03	-39.9	-51.4	3.8	8.46e-01	0	52	104	0	51	13562
2026-01-23 03:03:06.51	10.96	3.10	-39.9	-51.5	3.8	8.47e-01	0	52	104	0	51	13597
2026-01-23 03:03:07.52	10.90	3.16	-39.9	-51.5	3.8	8.46e-01	0	53	104	0	51	13577
2026-01-23 03:03:08.53	10.85	3.22	-39.9	-51.4	3.8	8.47e-01	0	53	104	0	51	13547
2026-01-23 03:03:09.54	10.79	3.28	-39.9	-51.4	3.8	8.47e-01	0	53	104	0	51	13555
2026-01-23 03:03:10.55	10.74	3.35	-39.9	-51.4	3.8	8.46e-01	0	53	104	0	51	13548
2026-01-23 03:03:11.56	10.68	3.41	-39.9	-51.4	3.8	8.46e-01	0	53	104	0	51	13565
2026-01-23 03:03:12.57	10.63	3.47	-39.9	-51.4	3.8	8.46e-01	0	53	104	0	51	13565
2026-01-23 03:03:13.58	10.57	3.53	-39.9	-51.4	3.8	8.46e-01	0	53	104	0	51	13545
2026-01-23 03:03:14.59	10.52	3.60	-39.9	-51.5	3.8	8.47e-01	0	53	104	0	51	13570
2026-01-23 03:03:15.60	10.46	3.66	-39.9	-51.5	3.8	8.46e-01	0	53	104	0	51	13579
2026-01-23 03:03:16.61	10.41	3.72	-39.9	-51.5	3.8	8.47e-01	0	53	104	0	51	13589
2026-01-23 03:03:17.62	10.35	3.79	-39.9	-51.4	3.8	8.46e-01	0	53	104	0	51	13538
2026-01-23 03:03:18.63	10.29	3.85	-39.9	-51.4	3.8	8.45e-01	0	53	104	0	51	13531
2026-01-23 03:03:19.64	10.23	3.91	-39.9	-51.5	3.8	8.46e-01	0	54	104	0	51	13575
2026-01-23 03:03:20.65	10.18	3.98	-39.9	-51.5	3.8	8.45e-01	0	54	104	0	51	13598
2026-01-23 03:03:21.66	10.12	4.04	-39.9	-51.4	3.8	8.46e-01	0	54	104	0	51	13542
2026-01-23 03:03:22.68	10.06	4.10	-39.9	-51.4	3.8	8.46e-01	0	54	104	0	51	13528
2026-01-23 03:03:23.69	10.00	4.17	-39.9	-51.4	3.8	8.46e-01	0	54	104	0	51	13527
2026-01-23 03:03:24.70	9.94	4.23	-39.9	-51.5	3.8	8.46e-01	0	54	104	0	51	13591
2026-01-23 03:03:25.71	9.89	4.30	-39.9	-51.5	3.8	8.45e-01	0	54	104	0	51	13576
2026-01-23 03:03:26.72	9.83	4.36	-39.9	-51.5	3.8	8.47e-01	0	54	104	0	51	13585
2026-01-23 03:03:27.73	9.77	4.43	-39.9	-51.4	3.8	8.45e-01	0	54	104	0	51	13555
2026-01-23 03:03:28.74	9.71	4.49	-39.9	-51.4	3.8	8.45e-01	0	54	104	0	51	13534
2026-01-23 03:03:29.75	9.65	4.56	-39.9	-51.4	3.8	8.47e-01	0	54	104	0	51	13547
2026-01-23 03:03:30.76	9.59	4.62	-39.9	-51.4	3.8	8.46e-01	0	54	104	0	51	13562
2026-01-23 03:03:31.77	9.53	4.69	-39.9	-51.4	3.8	8.46e-01	0	54	104	0	51	13563
2026-01-23 03:03:32.78	9.47	4.75	-39.9	-51.4	3.8	8.47e-01	0	54	104	0	51	13567
2026-01-23 03:03:33.79	9.40	4.82	-39.9	-51.5	3.8	8.45e-01	0	54	104	0	51	13573
2026-01-23 03:03:34.80	9.34	4.88	-39.9	-51.5	3.8	8.46e-01	0	54	104	0	51	13590
2026-01-23 03:03:35.81	9.28	4.95	-39.9	-51.4	3.8	8.47e-01	0	54	104	0	51	13551
2026-01-23 03:03:36.82	9.22	5.01	-39.9	-51.5	3.8	8.46e-01	0	55	104	0	51	13571
2026-01-23 03:03:37.83	9.16	5.08	-39.9	-51.4	3.8	8.47e-01	0	55	104	0	51	13522
2026-01-23 03:03:38.84	9.09	5.14	-39.9	-51.4	3.8	8.46e-01	0	55	104	0	51	13553
2026-01-23 03:03:39.85	9.03	5.21	-39.9	-51.5	3.8	8.47e-01	0	55	104	0	51	13597
2026-01-23 03:03:40.86	8.97	5.28	-39.9	-51.4	3.8	8.47e-01	0	55	104	0	51	13527
2026-01-23 03:03:41.87	8.91	5.34	-39.9	-51.4	3.8	8.47e-01	0	55	104	0	51	13551
2026-01-23 03:03:42.88	8.84	5.41	-39.9	-51.5	3.8	8.44e-01	0	55	104	0	51	13580
2026-01-23 03:03:43.89	8.78	5.48	-39.9	-51.5	3.8	8.46e-01	0	55	104	0	51	13602
2026-01-23 03:03:44.90	8.71	5.54	-39.9	-51.5	3.8	8.47e-01	0	55	104	0	51	13581
2026-01-23 03:03:45.91	8.65	5.61	-39.9	-51.4	3.8	8.46e-01	0	55	104	0	51	13560
2026-01-23 03:03:46.92	8.58	5.68	-39.9	-51.4	3.8	8.46e-01	0	55	104	0	51	13563
2026-01-23 03:03:47.93	8.52	5.74	-39.9	-51.4	3.8	8.47e-01	0	55	104	0	51	13555
2026-01-23 03:03:48.94	8.45	5.81	-39.9	-51.5	3.8	8.46e-01	0	55	104	0	51	13598
2026-01-23 03:03:49.95	8.39	5.88	-39.9	-51.5	3.8	8.46e-01	0	55	104	0	51	13587
2026-01-23 03:03:50.96	8.32	5.94	-39.9	-51.4	3.8	8.46e-01	0	55	104	0	51	13553
2026-01-23 03:03:51.97	8.25	6.01	-39.9	-51.4	3.8	8.47e-01	0	55	104	0	51	13531
2026-01-23 03:03:52.98	8.19	6.08	-39.9	-51.4	3.8	8.47e-01	0	55	104	0	51	13535
2026-01-23 03:03:53.99	8.12	6.15	-39.9	-51.4	3.8	8.46e-01	0	55	104	0	51	13568
2026-01-23 03:03:55.00	8.05	6.22	-39.9	-51.4	3.8	8.47e-01	0	55	104	0	51	13566
2026-01-23 03:03:56.01	7.98	6.28	-39.9	-51.4	3.8	8.47e-01	0	55	104	0	51	13544
2026-01-23 03:03:57.02	7.91	6.35	-39.9	-51.4	3.8	8.45e-01	0	56	104	0	51	13568
2026-01-23 03:03:58.03	7.85	6.42	-39.9	-51.5	3.8	8.46e-01	0	56	104	0	51	13600
2026-01-23 03:03:59.04	7.78	6.49	-39.9	-51.4	3.8	8.46e-01	0	56	104	0	51	13562
2026-01-23 03:04:00.05	7.71	6.56	-39.9	-51.4	3.8	8.47e-01	0	56	104	0	51	13559
2026-01-23 03:04:01.06	7.64	6.63	-39.9	-51.4	3.8	8.46e-01	0	55	104	0	51	13546
2026-01-23 03:04:02.07	7.57	6.70	-39.9	-51.4	3.8	8.47e-01	0	56	104	0	51	13537
2026-01-23 03:04:03.08	7.50	6.76	-39.9	-51.4	3.8	8.45e-01	0	56	104	0	51	13568
2026-01-23 03:04:04.09	7.43	6.83	-39.9	-51.5	3.8	8.47e-01	0	56	104	0	51	13570
2026-01-23 03:04:05.10	7.36	6.90	-39.9	-51.4	3.8	8.45e-01	0	56	104	0	51	13561
2026-01-23 03:04:06.11	7.28	6.97	-39.8	-51.5	3.8	8.47e-01	0	56	104	0	51	13571
2026-01-23 03:04:07.12	7.21	7.04	-39.9	-51.5	3.8	8.47e-01	0	56	104	0	51	13594
2026-01-23 03:04:08.13	7.14	7.11	-39.9	-51.5	3.8	8.46e-01	0	56	104	0	51	13610
2026-01-23 03:04:09.14	7.07	7.18	-39.9	-51.4	3.8	8.46e-01	0	56	104	0	51	13542
2026-01-23 03:04:10.15	6.99	7.25	-39.9	-51.4	3.8	8.46e-01	0	56	104	0	51	13556
2026-01-23 03:04:11.16	6.92	7.32	-39.8	-51.5	3.8	8.45e-01	0	56	104	0	51	13574
2026-01-23 03:04:12.17	6.85	7.39	-39.9	-51.4	3.8	8.45e-01	0	56	104	0	51	13558
2026-01-23 03:04:13.18	6.77	7.46	-39.8	-51.4	3.8	8.46e-01	0	56	104	0	51	13555
2026-01-23 03:04:14.19	6.70	7.54	-39.9	-51.4	3.8	8.46e-01	0	56	104	0	51	13537
2026-01-23 03:04:15.20	6.62	7.61	-39.9	-51.4	3.8	8.46e-01	0	56	104	0	51	13537
2026-01-23 03:04:16.22	6.55	7.68	-39.9	-51.5	3.8	8.46e-01	0	56	104	0	51	13596
2026-01-23 03:04:17.22	6.47	7.75	-39.9	-51.5	3.8	8.45e-01	0	57	104	0	51	13577
2026-01-23 03:04:18.23	6.40	7.82	-39.8	-51.4	3.8	8.46e-01	0	56	104	0	51	13541
2026-01-23 03:04:19.24	6.32	7.89	-39.9	-51.5	3.8	8.46e-01	0	57	104	0	51	13580
2026-01-23 03:04:20.26	6.24	7.96	-39.8	-51.4	3.8	8.45e-01	0	57	104	0	51	13555
2026-01-23 03:04:21.27	6.17	8.04	-39.9	-51.5	3.8	8.47e-01	0	56	104	0	51	13606
2026-01-23 03:04:22.28	6.09	8.11	-39.9	-51.5	3.8	8.45e-01	0	57	104	0	51	13639
2026-01-23 03:04:23.29	6.01	8.18	-40.0	-51.6	3.8	8.46e-01	0	57	104	0	51	13730
2026-01-23 03:04:24.30	5.93	8.25	-40.0	-51.6	3.8	8.46e-01	0	56	104	0	51	13760
2026-01-23 03:04:25.30	5.85	8.32	-40.0	-51.6	3.8	8.45e-01	0	57	104	0	51	13817
2026-01-23 03:04:26.31	5.78	8.40	-39.9	-51.5	3.8	8.45e-01	0	57	104	0	51	13710
2026-01-23 03:04:27.32	5.70	8.47	-40.0	-51.6	3.8	8.46e-01	0	57	104	0	51	13785
2026-01-23 03:04:28.33	5.62	8.54	-40.0	-51.6	3.8	8.46e-01	0	57	104	0	51	13751
2026-01-23 03:04:29.34	5.54	8.61	-40.0	-51.6	3.8	8.46e-01	0	57	104	0	51	13797
2026-01-23 03:04:30.35	5.45	8.69	-39.9	-51.5	3.8	8.47e-01	0	57	104	0	51	13633
2026-01-23 03:04:31.36	5.37	8.76	-40.0	-51.6	3.8	8.47e-01	0	57	104	0	51	13772
2026-01-23 03:04:32.37	5.29	8.83	-39.9	-51.5	3.8	8.47e-01	0	57	104	0	51	13703
2026-01-23 03:04:33.38	5.21	8.91	-40.0	-51.6	3.8	8.46e-01	0	57	104	0	51	13842
2026-01-23 03:04:34.39	5.13	8.98	-39.9	-51.5	3.8	8.47e-01	0	57	104	0	51	13690
2026-01-23 03:04:35.40	5.04	9.06	-40.0	-51.6	3.8	8.46e-01	0	57	104	0	51	13782
2026-01-23 03:04:36.41	4.96	9.13	-40.0	-51.5	3.8	8.47e-01	0	57	104	0	51	13720
2026-01-23 03:04:37.41	4.88	9.20	-40.1	-51.6	3.8	8.46e-01	0	57	104	0	51	13842
2026-01-23 03:04:38.42	4.79	9.28	-40.0	-51.5	3.8	8.45e-01	0	57	104	0	51	13642
2026-01-23 03:04:39.43	4.71	9.35	-40.1	-51.6	3.8	8.46e-01	0	57	104	0	51	13866
2026-01-23 03:04:40.44	4.62	9.43	-40.0	-51.6	3.8	8.46e-01	0	57	104	0	51	13745
2026-01-23 03:04:41.45	4.54	9.50	-40.1	-51.6	3.8	8.47e-01	0	57	104	0	51	13885
2026-01-23 03:04:42.46	4.45	9.58	-40.0	-51.6	3.8	8.48e-01	0	57	104	0	51	13766
2026-01-23 03:04:43.47	4.36	9.65	-40.1	-51.7	3.8	8.46e-01	0	57	104	0	51	13949
2026-01-23 03:04:44.48	4.28	9.73	-40.1	-51.6	3.8	8.46e-01	0	57	104	0	51	13850
2026-01-23 03:04:45.49	4.19	9.80	-40.1	-51.7	3.8	8.45e-01	0	57	104	0	51	13978
2026-01-23 03:04:46.50	4.10	9.88	-40.1	-51.6	3.8	8.46e-01	0	57	104	0	51	13884
2026-01-23 03:04:47.51	4.01	9.96	-40.2	-51.7	3.8	8.45e-01	0	58	104	0	51	14035
2026-01-23 03:04:48.52	3.92	10.03	-40.2	-51.8	3.8	8.46e-01	0	57	104	0	51	14058
2026-01-23 03:04:49.53	3.83	10.11	-40.2	-51.8	3.8	8.45e-01	0	57	104	0	51	14057
2026-01-23 03:04:50.53	3.74	10.18	-40.1	-51.7	3.8	8.46e-01	0	57	104	0	51	13979
2026-01-23 03:04:51.54	3.65	10.26	-40.2	-51.8	3.8	8.47e-01	0	58	104	0	51	14090
2026-01-23 03:04:52.55	3.56	10.34	-40.3	-51.9	3.8	8.47e-01	0	57	104	0	51	14282
2026-01-23 03:04:53.56	3.47	10.41	-40.2	-51.8	3.8	8.45e-01	0	58	104	0	51	14083
2026-01-23 03:04:54.57	3.38	10.49	-40.2	-51.7	3.8	8.47e-01	0	57	104	0	51	13980
2026-01-23 03:04:55.58	3.29	10.57	-40.2	-51.8	3.8	8.46e-01	0	58	104	0	51	14146
2026-01-23 03:04:56.59	3.19	10.65	-40.4	-52.0	3.8	8.46e-01	0	58	104	0	51	14450
2026-01-23 03:04:57.60	3.10	10.72	-40.2	-51.8	3.8	8.46e-01	0	58	104	0	51	14068
2026-01-23 03:04:58.61	3.01	10.80	-40.0	-51.6	3.8	8.46e-01	0	58	104	0	51	13803
2026-01-23 03:04:59.62	2.91	10.88	-40.0	-51.6	3.8	8.46e-01	0	58	104	0	51	13777
2026-01-23 03:05:00.63	2.82	10.96	-40.0	-51.6	3.8	8.47e-01	0	58	104	0	51	13748
2026-01-23 03:05:01.64	2.72	11.04	-40.0	-51.6	3.8	8.46e-01	0	58	104	0	51	13785
2026-01-23 03:05:02.65	2.63	11.12	-40.0	-51.6	3.8	8.46e-01	0	58	104	0	51	13813
2026-01-23 03:05:03.66	2.53	11.19	-40.5	-52.1	3.8	8.47e-01	0	58	104	0	51	14592
2026-01-23 03:05:04.66	2.43	11.27	-40.3	-51.9	3.8	8.46e-01	0	58	104	0	52	13524
2026-01-23 03:05:05.67	2.33	11.35	-40.1	-51.7	3.8	8.45e-01	0	58	104	0	52	13146
2026-01-23 03:05:06.68	2.24	11.43	-40.1	-51.7	3.8	8.47e-01	0	58	104	0	52	13124
2026-01-23 03:05:07.69	2.14	11.51	-40.1	-51.7	3.8	8.46e-01	0	58	104	0	52	13149
2026-01-23 03:05:08.70	2.04	11.59	-40.1	-51.6	3.8	8.46e-01	0	58	104	0	52	13059
2026-01-23 03:05:09.71	1.94	11.67	-40.3	-51.9	3.8	8.47e-01	0	58	104	0	52	13417
2026-01-23 03:05:10.72	1.84	11.75	-40.1	-51.6	3.8	8.45e-01	0	58	104	0	52	13105
2026-01-23 03:05:11.73	1.74	11.83	-40.7	-52.3	3.8	8.46e-01	0	58	104	0	52	14142
2026-01-23 03:05:12.74	1.63	11.91	-40.5	-52.0	3.8	8.46e-01	0	58	104	0	52	13697
2026-01-23 03:05:13.75	1.53	11.99	-40.1	-51.7	3.8	8.46e-01	0	58	104	0	52	13165
2026-01-23 03:05:14.76	1.43	12.07	-40.2	-51.7	3.8	8.46e-01	0	58	104	0	52	13208
2026-01-23 03:05:15.77	1.33	12.15	-40.2	-51.7	3.8	8.46e-01	0	58	104	0	52	13189
2026-01-23 03:05:16.78	1.22	12.23	-40.2	-51.7	3.8	8.46e-01	0	58	104	0	52	13155
2026-01-23 03:05:17.79	1.12	12.31	-40.4	-52.0	3.8	8.45e-01	0	58	104	0	52	13570
2026-01-23 03:05:18.80	1.01	12.39	-40.3	-51.8	3.8	8.46e-01	0	58	104	0	52	13391
2026-01-23 03:05:19.81	0.91	12.47	-41.1	-52.4	3.8	8.46e-01	0	58	104	0	52	14234
2026-01-23 03:05:20.82	0.80	12.56	-40.6	-52.1	3.8	8.47e-01	0	58	104	0	53	13012
2026-01-23 03:05:21.82	0.69	12.64	-40.3	-51.8	3.8	8.45e-01	0	58	104	0	52	13266
2026-01-23 03:05:22.83	0.59	12.72	-40.4	-51.6	3.8	8.45e-01	0	58	104	0	52	13096
2026-01-23 03:05:23.84	0.48	12.80	-40.4	-51.5	3.8	8.45e-01	0	58	104	0	52	12866
2026-01-23 03:05:24.85	0.37	12.88	-40.4	-51.2	3.8	8.45e-01	0	58	104	0	52	12427
2026-01-23 03:05:25.86	0.26	12.97	-40.4	-51.2	3.8	8.46e-01	0	58	104	0	52	12494
2026-01-23 03:05:26.87	0.15	13.05	-40.5	-51.6	3.8	8.46e-01	0	58	104	0	52	13000
2026-01-23 03:05:27.88	0.04	13.13	-41.2	-48.2	4.9	8.27e-01	0	58	0	0	53	8355
2026-01-23 03:05:28.89	359.93	13.21	-41.8	-48.4	5.1	7.25e-01	0	58	0	0	54	8045
2026-01-23 03:05:29.90	359.81	13.30	-41.6	-51.9	3.8	6.73e-01	0	58	104	1048576	54	12058
2026-01-23 03:05:30.91	359.70	13.38	-40.9	-46.0	6.6	8.13e-01	0	58	0	1048576	53	6457
2026-01-23 03:05:31.92	359.59	13.46	-40.5	-45.0	7.6	1.30e-01	0	58	0	6291456	53	5751
2026-01-23 03:05:32.93	359.47	13.55	-40.0	-43.8	9.0	4.97e-02	0	58	0	12582912	52	5303
2026-01-23 03:05:33.94	359.36	13.63	-39.6	-43.0	9.9	1.46e-02	0	59	0	17825792	51	5115
2026-01-23 03:05:34.95	359.24	13.72	-39.1	-42.1	10.8	5.83e-03	0	59	0	24117248	50	4908
2026-01-23 03:05:35.95	359.13	13.80	-38.5	-41.1	11.9	8.60e-04	0	58	0	29360128	48	4882
2026-01-23 03:05:36.96	359.01	13.88	-38.1	-40.5	12.5	2.57e-04	0	58	0	34603008	48	4573
2026-01-23 03:05:37.97	358.89	13.97	-37.7	-40.1	12.9	7.66e-05	0	58	0	40894464	47	4604
2026-01-23 03:05:38.98	358.78	14.05	-37.6	-39.9	13.0	4.11e-05	0	59	0	46137344	47	4544
2026-01-23 03:05:39.99	358.66	14.14	-37.8	-40.2	12.9	6.86e-05	0	59	0	52428800	47	4654
2026-01-23 03:05:41.00	358.54	14.22	-38.1	-40.6	12.5	1.46e-04	0	59	0	57671680	47	4882
2026-01-23 03:05:42.01	358.42	14.31	-38.3	-40.8	12.4	1.90e-04	0	59	0	63963136	47	4986
2026-01-23 03:05:43.02	358.30	14.39	-38.3	-40.8	12.4	3.40e-04	0	59	0	69206016	47	4993
2026-01-23 03:05:44.03	358.17	14.48	-38.1	-40.4	12.8	1.25e-04	0	59	0	74448896	47	4812
2026-01-23 03:05:45.04	358.05	14.56	-38.1	-40.4	12.9	6.75e-05	0	59	0	80740352	47	4798
2026-01-23 03:05:46.05	357.93	14.65	-38.2	-40.5	12.7	7.89e-05	0	59	0	85983232	47	4869
2026-01-23 03:05:47.06	357.81	14.74	-38.4	-40.8	12.4	1.74e-04	0	59	0	92274688	47	5036
2026-01-23 03:05:48.07	357.68	14.82	-38.2	-40.6	12.6	1.97e-04	0	59	0	97517568	47	4887
2026-01-23 03:05:49.08	357.56	14.91	-37.7	-39.9	13.3	3.54e-05	0	59	0	102760448	47	4509
2026-01-23 03:05:50.09	357.43	15.00	-37.8	-40.0	13.1	3.08e-05	0	59	0	109051904	47	4597
2026-01-23 03:05:51.10	357.30	15.08	-38.0	-40.3	12.8	8.12e-05	0	59	0	114294784	47	4738
2026-01-23 03:05:52.11	357.17	15.17	-37.8	-40.1	13.0	5.83e-05	0	59	0	120586240	47	4640
2026-01-23 03:05:53.12	357.05	15.26	-37.8	-40.2	12.9	5.83e-05	0	59	0	125829120	47	4666
2026-01-23 03:05:54.13	356.92	15.34	-37.9	-40.2	12.8	8.69e-05	0	59	0	131072000	47	4703
2026-01-23 03:05:55.14	356.79	15.43	-37.9	-40.3	12.7	1.10e-04	0	59	0	137363456	47	4718
2026-01-23 03:05:56.15	356.66	15.52	-37.9	-40.3	12.6	1.19e-04	0	59	0	142606336	47	4747
2026-01-23 03:05:57.16	356.52	15.61	-38.2	-40.8	12.0	3.66e-04	0	59	0	148897792	47	5028
2026-01-23 03:05:58.17	356.39	15.69	-38.6	-41.5	11.2	1.34e-03	0	59	0	154140672	47	5455
2026-01-23 03:05:59.18	356.26	15.78	-39.2	-42.4	10.2	4.39e-03	0	59	0	160432128	48	5707
2026-01-23 03:06:00.19	356.12	15.87	-39.7	-43.6	8.8	2.47e-02	0	59	0	165675008	49	6180
2026-01-23 03:06:01.20	355.99	15.96	-40.1	-44.6	7.6	7.71e-02	0	59	0	171966464	50	6562
2026-01-23 03:06:02.21	355.85	16.05	-40.5	-46.0	6.2	2.36e-01	0	59	0	177209344	51	7281
2026-01-23 03:06:03.22	355.72	16.14	-40.6	-47.1	5.4	6.36e-01	0	59	0	181403648	51	8201
2026-01-23 03:06:04.22	355.58	16.22	-40.8	-48.7	4.4	8.17e-01	0	59	0	181403648	52	9296
2026-01-23 03:06:05.23	355.44	16.31	-40.8	-49.8	4.1	8.37e-01	0	59	0	181403648	52	10534
2026-01-23 03:06:06.24	355.31	16.40	-40.9	-51.0	3.8	8.47e-01	0	59	104	181403648	52	12224
2026-01-23 03:06:07.25	355.17	16.49	-40.9	-51.8	3.8	8.45e-01	0	59	104	181403648	52	13332
2026-01-23 03:06:08.26	355.02	16.58	-40.8	-52.1	3.8	8.46e-01	0	59	104	181403648	52	13837
2026-01-23 03:06:09.27	354.88	16.67	-40.7	-52.2	3.8	8.46e-01	0	59	104	181403648	52	13958
2026-01-23 03:06:10.28	354.74	16.76	-41.3	-52.2	3.8	8.46e-01	0	59	104	181403648	53	13249
2026-01-23 03:06:11.29	354.60	16.85	-41.0	-52.4	3.8	8.46e-01	0	59	104	181403648	53	13422
2026-01-23 03:06:12.30	354.45	16.94	-40.7	-52.3	3.8	8.46e-01	0	59	104	181403648	53	13301
2026-01-23 03:06:13.31	354.31	17.03	-40.7	-52.2	3.8	8.46e-01	0	59	104	181403648	53	13137
2026-01-23 03:06:14.32	354.16	17.12	-40.9	-52.5	3.8	8.46e-01	0	59	104	181403648	53	13657
2026-01-23 03:06:15.33	354.02	17.21	-40.9	-52.5	3.8	8.45e-01	0	59	104	181403648	53	13578
2026-01-23 03:06:16.34	353.87	17.30	-40.6	-52.1	3.8	8.45e-01	0	59	104	181403648	53	13094
2026-01-23 03:06:17.35	353.72	17.39	-40.7	-52.3	3.8	8.46e-01	0	59	104	181403648	53	13312
2026-01-23 03:06:18.36	353.57	17.48	-40.8	-52.4	3.8	8.46e-01	0	59	104	181403648	53	13437
2026-01-23 03:06:19.36	353.42	17.57	-40.8	-52.4	3.8	8.45e-01	0	59	104	181403648	53	13448
2026-01-23 03:06:20.37	353.27	17.66	-40.7	-52.3	3.8	8.46e-01	0	59	104	181403648	53	13333
2026-01-23 03:06:21.38	353.12	17.76	-40.9	-52.4	3.8	8.47e-01	0	59	104	181403648	53	13440
2026-01-23 03:06:22.39	352.96	17.85	-40.7	-52.2	3.8	8.45e-01	0	60	104	181403648	53	13258
2026-01-23 03:06:23.40	352.81	17.94	-40.8	-52.3	3.8	8.46e-01	0	59	104	181403648	53	13364
2026-01-23 03:06:24.41	352.65	18.03	-40.9	-52.4	3.8	8.45e-01	0	59	104	181403648	53	13520
2026-01-23 03:06:25.42	352.50	18.12	-40.8	-52.4	3.8	8.47e-01	0	59	104	181403648	53	13456
2026-01-23 03:06:26.43	352.34	18.21	-40.8	-52.3	3.8	8.45e-01	0	59	104	181403648	53	13404
2026-01-23 03:06:27.44	352.18	18.31	-40.8	-52.3	3.8	8.46e-01	0	59	104	181403648	53	13376
2026-01-23 03:06:28.45	352.02	18.40	-40.7	-52.3	3.8	8.46e-01	0	59	104	181403648	53	13272
2026-01-23 03:06:29.46	351.86	18.49	-40.8	-52.3	3.8	8.46e-01	0	59	104	181403648	53	13323
2026-01-23 03:06:30.47	351.70	18.58	-40.8	-52.3	3.8	8.46e-01	0	59	104	181403648	53	13392
2026-01-23 03:06:31.48	351.54	18.67	-40.9	-52.4	3.8	8.46e-01	0	60	104	181403648	53	13477
2026-01-23 03:06:32.49	351.38	18.77	-40.8	-52.3	3.8	8.47e-01	0	59	104	181403648	53	13371
2026-01-23 03:06:33.50	351.21	18.86	-40.9	-52.5	3.8	8.46e-01	0	59	104	181403648	53	13589
2026-01-23 03:06:34.51	351.05	18.95	-40.9	-52.5	3.8	8.47e-01	0	59	104	181403648	53	13689
2026-01-23 03:06:35.52	350.88	19.05	-40.9	-52.5	3.8	8.46e-01	0	59	104	181403648	53	13625
2026-01-23 03:06:36.53	350.72	19.14	-40.8	-52.3	3.8	8.46e-01	0	59	104	181403648	53	13360
2026-01-23 03:06:37.54	350.55	19.23	-41.0	-52.3	3.8	8.46e-01	0	59	104	181403648	53	13330
2026-01-23 03:06:38.55	350.38	19.32	-41.1	-52.4	3.8	8.45e-01	0	59	104	181403648	53	13523
2026-01-23 03:06:39.55	350.21	19.42	-41.0	-52.5	3.8	8.46e-01	0	60	104	181403648	53	13605
2026-01-23 03:06:40.56	350.04	19.51	-41.1	-52.6	3.8	8.46e-01	0	59	104	181403648	53	13841
2026-01-23 03:06:41.57	349.87	19.60	-41.1	-52.7	3.8	8.46e-01	0	60	104	181403648	53	13986
2026-01-23 03:06:42.58	349.69	19.70	-41.2	-52.8	3.8	8.46e-01	0	59	104	181403648	53	14082
2026-01-23 03:06:43.59	349.52	19.79	-41.1	-52.6	3.8	8.46e-01	0	59	104	181403648	53	13837
2026-01-23 03:06:44.60	349.34	19.88	-41.2	-52.6	3.8	8.46e-01	0	60	104	181403648	53	13740
2026-01-23 03:06:45.61	349.17	19.98	-41.2	-52.6	3.8	8.47e-01	0	59	104	181403648	53	13878
2026-01-23 03:06:46.62	348.99	20.07	-41.2	-52.4	3.8	8.47e-01	0	60	104	181403648	53	13568
2026-01-23 03:06:47.63	348.81	20.16	-41.2	-52.6	3.8	8.46e-01	0	60	104	181403648	53	13880
2026-01-23 03:06:48.64	348.63	20.26	-41.2	-52.4	3.8	8.45e-01	0	60	104	181403648	53	13439
2026-01-23 03:06:49.64	348.45	20.35	-41.7	-51.1	4.0	8.44e-01	0	60	104	181403648	54	10987
2026-01-23 03:06:50.65	348.27	20.45	-41.8	-50.9	4.0	8.44e-01	0	60	104	181403648	54	10716
2026-01-23 03:06:51.66	348.08	20.54	-41.9	-50.4	4.1	8.40e-01	0	60	0	181403648	54	10090
2026-01-23 03:06:52.67	347.90	20.63	-41.8	-49.4	4.5	8.28e-01	0	60	0	181403648	54	9024
2026-01-23 03:06:53.68	347.71	20.73	-41.8	-48.7	4.9	7.91e-01	0	59	0	181403648	54	8328
2026-01-23 03:06:54.69	347.53	20.82	-41.7	-48.2	5.2	7.59e-01	0	60	0	181403648	54	7859
2026-01-23 03:06:55.70	347.34	20.92	-41.6	-47.6	5.6	6.59e-01	0	60	0	181403648	54	7366
2026-01-23 03:06:56.71	347.15	21.01	-41.4	-47.1	6.0	4.02e-01	0	60	0	186646528	54	6942
2026-01-23 03:06:57.72	346.96	21.10	-41.2	-51.9	3.8	2.21e-01	0	60	104	190840832	53	12667
2026-01-23 03:06:58.73	346.77	21.20	-40.7	-46.1	4.6	8.42e-01	0	60	104	190840832	53	6564
2026-01-23 03:06:59.73	346.58	21.29	-41.1	-47.7	5.3	4.51e-02	0	60	0	193986560	52	8347
2026-01-23 03:07:00.74	346.38	21.39	-40.1	-44.2	8.3	5.46e-01	0	60	0	196083712	52	5567
2026-01-23 03:07:01.75	346.19	21.48	-39.4	-42.6	10.3	1.40e-02	0	60	0	201326592	50	5203
2026-01-23 03:07:02.76	345.99	21.57	-38.8	-41.5	11.5	1.64e-03	0	60	0	206569472	49	4853
2026-01-23 03:07:03.77	345.79	21.67	-38.3	-40.7	12.5	3.31e-04	0	60	0	212860928	48	4688
2026-01-23 03:07:04.78	345.59	21.76	-38.0	-40.3	13.1	5.03e-05	0	60	0	218103808	48	4456
2026-01-23 03:07:05.79	345.39	21.86	-37.4	-39.5	13.8	1.14e-05	0	60	0	224395264	46	4564
2026-01-23 03:07:06.80	345.19	21.95	-36.9	-38.8	14.4	2.20e-06	0	60	0	229638144	45	4484
2026-01-23 03:07:07.81	344.99	22.04	-36.4	-38.3	15.0	0.00e+00	0	60	0	234881024	44	4446
2026-01-23 03:07:08.82	344.79	22.14	-36.4	-38.3	15.1	1.10e-06	0	60	0	241172480	44	4445
2026-01-23 03:07:09.82	344.58	22.23	-36.4	-38.2	15.2	0.00e+00	0	60	0	246415360	44	4412
2026-01-23 03:07:10.83	344.38	22.33	-36.3	-38.1	15.4	0.00e+00	0	60	0	252706816	44	4344
2026-01-23 03:07:11.85	344.17	22.42	-36.3	-38.1	15.4	0.00e+00	0	60	0	257949696	44	4360
2026-01-23 03:07:12.86	343.96	22.51	-36.6	-38.4	15.2	0.00e+00	0	60	0	263192576	44	4507
2026-01-23 03:07:13.87	343.75	22.61	-36.6	-38.3	15.4	0.00e+00	0	60	0	269484032	44	4470
2026-01-23 03:07:14.88	343.54	22.70	-36.8	-38.6	15.3	0.00e+00	0	60	0	274726912	44	4608
2026-01-23 03:07:15.89	343.32	22.79	-36.9	-38.6	15.3	0.00e+00	0	60	0	281018368	44	4640
2026-01-23 03:07:16.90	343.11	22.89	-36.8	-38.5	15.6	1.10e-06	0	60	0	286261248	44	4566
2026-01-23 03:07:17.91	342.89	22.98	-36.5	-38.2	16.0	0.00e+00	0	60	0	292552704	44	4405
2026-01-23 03:07:18.92	342.68	23.07	-36.6	-38.2	16.2	0.00e+00	0	60	0	297795584	44	4418
2026-01-23 03:07:19.93	342.46	23.17	-36.6	-38.3	16.1	0.00e+00	0	60	0	303038464	44	4446
2026-01-23 03:07:20.94	342.24	23.26	-36.9	-38.5	15.9	0.00e+00	0	60	0	309329920	44	4579
2026-01-23 03:07:21.95	342.02	23.35	-36.8	-38.4	16.1	0.00e+00	0	60	0	314572800	44	4520
2026-01-23 03:07:22.96	341.80	23.45	-36.5	-38.1	16.4	0.00e+00	0	60	0	320864256	44	4373
2026-01-23 03:07:23.97	341.57	23.54	-36.2	-37.8	16.8	0.00e+00	0	60	0	326107136	44	4202
2026-01-23 03:07:24.98	341.35	23.63	-36.2	-37.6	16.9	0.00e+00	0	60	0	331350016	44	4140
2026-01-23 03:07:25.99	341.12	23.72	-36.1	-37.6	17.0	0.00e+00	0	60	0	337641472	44	4124
2026-01-23 03:07:27.00	340.89	23.82	-36.2	-37.7	17.0	0.00e+00	0	60	0	342884352	44	4175
2026-01-23 03:07:28.02	340.66	23.91	-36.3	-37.8	16.9	0.00e+00	0	60	0	349175808	44	4212
2026-01-23 03:07:29.03	340.43	24.00	-36.2	-37.7	17.0	0.00e+00	0	60	0	354418688	44	4183
2026-01-23 03:07:30.04	340.20	24.09	-36.3	-37.8	16.9	0.00e+00	0	60	0	360710144	44	4227
2026-01-23 03:07:31.05	339.97	24.18	-36.3	-37.8	16.9	0.00e+00	0	60	0	365953024	44	4227
2026-01-23 03:07:32.05	339.74	24.28	-36.4	-37.9	16.9	0.00e+00	0	60	0	371195904	44	4244
2026-01-23 03:07:33.06	339.50	24.37	-36.3	-37.8	17.0	0.00e+00	0	60	0	377487360	44	4232
2026-01-23 03:07:34.07	339.26	24.46	-36.4	-37.9	16.9	0.00e+00	0	60	0	382730240	44	4261
2026-01-23 03:07:35.09	339.02	24.55	-36.4	-37.8	17.0	0.00e+00	0	60	0	389021696	44	4239
2026-01-23 03:07:36.09	338.79	24.64	-36.2	-37.6	17.2	0.00e+00	0	60	0	394264576	44	4133
2026-01-23 03:07:37.10	338.55	24.73	-36.1	-37.5	17.4	0.00e+00	0	60	0	400556032	44	4086
2026-01-23 03:07:38.11	338.30	24.82	-36.1	-37.5	17.4	0.00e+00	0	60	0	405798912	44	4094
2026-01-23 03:07:39.12	338.06	24.91	-36.0	-37.4	17.5	0.00e+00	0	60	0	411041792	44	4050
2026-01-23 03:07:40.13	337.81	25.00	-36.1	-37.6	17.4	0.00e+00	0	60	0	417333248	44	4099
2026-01-23 03:07:41.14	337.57	25.09	-36.1	-37.5	17.5	0.00e+00	0	60	0	422576128	44	4061
2026-01-23 03:07:42.15	337.32	25.18	-36.1	-37.5	17.5	0.00e+00	0	60	0	428867584	44	4084
2026-01-23 03:07:43.16	337.07	25.26	-36.1	-37.5	17.5	0.00e+00	0	60	0	434110464	44	4074
2026-01-23 03:07:44.17	336.82	25.35	-36.1	-37.5	17.5	0.00e+00	0	60	0	439353344	44	4092
2026-01-23 03:07:45.18	336.56	25.44	-36.0	-37.4	17.7	0.00e+00	0	60	0	445644800	44	4026
2026-01-23 03:07:46.19	336.31	25.53	-35.8	-37.2	17.7	0.00e+00	0	60	0	450887680	43	4157
2026-01-23 03:07:47.20	336.06	25.62	-35.7	-37.1	17.8	0.00e+00	0	60	0	457179136	43	4120
2026-01-23 03:07:48.21	335.80	25.70	-35.9	-37.3	17.7	0.00e+00	0	60	0	462422016	43	4201
2026-01-23 03:07:49.22	335.54	25.79	-35.8	-37.2	17.7	0.00e+00	0	60	0	467664896	43	4176
2026-01-23 03:07:50.23	335.28	25.88	-35.8	-37.2	17.7	0.00e+00	0	60	0	473956352	43	4176
2026-01-23 03:07:51.24	335.02	25.96	-35.9	-37.3	17.7	0.00e+00	0	60	0	479199232	43	4215
2026-01-23 03:07:52.25	334.76	26.05	-36.0	-37.4	17.6	0.00e+00	0	60	0	485490688	43	4256
2026-01-23 03:07:53.26	334.49	26.13	-36.0	-37.4	17.5	0.00e+00	0	60	0	490733568	43	4282
2026-01-23 03:07:54.27	334.23	26.22	-36.0	-37.4	17.6	0.00e+00	0	60	0	497025024	43	4244
2026-01-23 03:07:55.28	333.96	26.30	-35.9	-37.3	17.7	0.00e+00	0	60	0	502267904	43	4232
2026-01-23 03:07:56.28	333.69	26.38	-35.9	-37.3	17.7	0.00e+00	0	60	0	508559360	43	4218
2026-01-23 03:07:57.29	333.43	26.47	-35.9	-37.2	17.7	0.00e+00	0	60	0	513802240	43	4190
2026-01-23 03:07:58.30	333.15	26.55	-35.8	-37.2	17.8	0.00e+00	0	60	0	519045120	43	4171
2026-01-23 03:07:59.31	332.88	26.63	-35.8	-37.2	17.8	0.00e+00	0	60	0	525336576	43	4162
2026-01-23 03:08:00.33	332.60	26.72	-35.9	-37.2	17.8	0.00e+00	0	60	0	530579456	43	4183
2026-01-23 03:08:01.34	332.33	26.80	-35.9	-37.3	17.7	0.00e+00	0	60	0	536870912	43	4237
2026-01-23 03:08:02.35	332.05	26.88	-36.0	-37.4	17.6	0.00e+00	0	60	0	542113792	43	4273
2026-01-23 03:08:03.36	331.77	26.96	-36.0	-37.4	17.6	0.00e+00	0	60	0	547356672	43	4278
2026-01-23 03:08:04.37	331.49	27.04	-36.0	-37.4	17.6	0.00e+00	0	60	0	553648128	43	4286
2026-01-23 03:08:05.37	331.22	27.12	-36.0	-37.4	17.6	0.00e+00	0	60	0	558891008	43	4270
2026-01-23 03:08:06.38	330.93	27.20	-36.0	-37.4	17.6	0.00e+00	0	60	0	564133888	43	4251
2026-01-23 03:08:07.39	330.65	27.28	-35.8	-37.2	17.9	0.00e+00	0	60	0	570425344	43	4155
2026-01-23 03:08:08.40	330.36	27.35	-35.7	-37.0	18.0	0.00e+00	0	60	0	575668224	43	4080
2026-01-23 03:08:09.41	330.08	27.43	-35.5	-36.8	18.2	0.00e+00	0	60	0	581959680	43	4000
2026-01-23 03:08:10.42	329.79	27.51	-35.4	-36.7	18.3	0.00e+00	0	60	0	587202560	42	4167
2026-01-23 03:08:11.43	329.50	27.58	-35.4	-36.7	18.3	0.00e+00	0	60	0	593494016	42	4168
2026-01-23 03:08:12.44	329.21	27.66	-35.5	-36.8	18.2	0.00e+00	0	60	0	598736896	42	4226
2026-01-23 03:08:13.45	328.92	27.73	-35.5	-36.8	18.2	0.00e+00	0	60	0	605028352	42	4241
2026-01-23 03:08:14.45	328.62	27.81	-35.6	-36.9	18.2	0.00e+00	0	60	0	610271232	42	4271
2026-01-23 03:08:15.46	328.33	27.88	-35.7	-37.0	18.1	0.00e+00	0	60	0	615514112	42	4318
2026-01-23 03:08:16.47	328.03	27.95	-35.6	-37.0	18.1	0.00e+00	0	60	0	621805568	42	4313
2026-01-23 03:08:17.49	327.73	28.03	-35.6	-36.9	18.1	0.00e+00	0	60	0	627048448	42	4282
2026-01-23 03:08:18.49	327.44	28.10	-35.6	-36.9	18.1	0.00e+00	0	60	0	633339904	42	4285
2026-01-23 03:08:19.50	327.14	28.17	-35.7	-37.1	18.0	0.00e+00	0	60	0	638582784	42	4356
2026-01-23 03:08:20.51	326.83	28.24	-35.8	-37.1	17.9	0.00e+00	0	60	0	643825664	42	4389
2026-01-23 03:08:21.52	326.53	28.31	-35.8	-37.2	17.9	0.00e+00	0	60	0	650117120	42	4406
2026-01-23 03:08:22.53	326.23	28.38	-35.8	-37.2	17.9	0.00e+00	0	60	0	655360000	42	4401
2026-01-23 03:08:23.54	325.92	28.45	-35.6	-37.0	18.1	0.00e+00	0	60	0	661651456	42	4310
2026-01-23 03:08:24.55	325.61	28.51	-35.5	-36.8	18.2	0.00e+00	0	60	0	666894336	42	4231
2026-01-23 03:08:25.56	325.30	28.58	-35.4	-36.7	18.3	0.00e+00	0	60	0	672137216	42	4171
2026-01-23 03:08:26.57	324.99	28.65	-35.5	-36.8	18.3	0.00e+00	0	60	0	678428672	42	4209
2026-01-23 03:08:27.58	324.68	28.71	-35.4	-36.7	18.4	0.00e+00	0	60	0	683671552	42	4154
2026-01-23 03:08:28.59	324.37	28.78	-35.4	-36.7	18.4	0.00e+00	0	60	0	689963008	42	4155
2026-01-23 03:08:29.60	324.06	28.84	-35.4	-36.7	18.3	0.00e+00	0	60	0	695205888	42	4192
2026-01-23 03:08:30.61	323.74	28.90	-35.5	-36.9	18.2	0.00e+00	0	60	0	701497344	42	4250
2026-01-23 03:08:31.62	323.43	28.96	-35.6	-37.0	18.1	0.00e+00	0	60	0	706740224	42	4294
2026-01-23 03:08:32.63	323.11	29.02	-35.5	-36.9	18.2	0.00e+00	0	60	0	711983104	42	4246
2026-01-23 03:08:33.64	322.79	29.08	-35.4	-36.8	18.3	0.00e+00	0	60	0	718274560	42	4196
2026-01-23 03:08:34.65	322.47	29.14	-35.3	-36.6	18.4	0.00e+00	0	60	0	723517440	42	4122
2026-01-23 03:08:35.66	322.15	29.20	-35.2	-36.4	18.6	0.00e+00	0	60	0	729808896	42	4051
2026-01-23 03:08:36.67	321.83	29.26	-35.2	-36.4	18.6	0.00e+00	0	60	0	735051776	42	4043
2026-01-23 03:08:37.68	321.50	29.32	-35.2	-36.5	18.6	0.00e+00	0	60	0	740294656	42	4060
2026-01-23 03:08:38.69	321.18	29.37	-35.3	-36.5	18.5	0.00e+00	0	60	0	746586112	42	4091
2026-01-23 03:08:39.70	320.85	29.43	-35.3	-36.7	18.4	0.00e+00	0	60	0	751828992	42	4147
2026-01-23 03:08:40.71	320.53	29.48	-35.4	-36.8	18.3	0.00e+00	0	60	0	758120448	42	4199
2026-01-23 03:08:41.72	320.20	29.53	-35.4	-36.7	18.4	0.00e+00	0	60	0	763363328	42	4165
2026-01-23 03:08:42.73	319.87	29.58	-35.4	-36.7	18.3	0.00e+00	0	60	0	768606208	42	4187
2026-01-23 03:08:43.74	319.54	29.64	-35.3	-36.6	18.5	0.00e+00	0	60	0	774897664	42	4107
2026-01-23 03:08:44.75	319.21	29.69	-35.2	-36.5	18.6	0.00e+00	0	60	0	780140544	42	4070
2026-01-23 03:08:45.76	318.88	29.73	-35.3	-36.6	18.4	0.00e+00	0	60	0	786432000	42	4129
2026-01-23 03:08:46.77	318.54	29.78	-35.4	-36.7	18.3	0.00e+00	0	60	0	791674880	42	4187
2026-01-23 03:08:47.77	318.21	29.83	-35.4	-36.7	18.4	0.00e+00	0	60	0	797966336	42	4177
2026-01-23 03:08:48.78	317.88	29.88	-35.4	-36.8	18.3	0.00e+00	0	60	0	803209216	42	4204
2026-01-23 03:08:49.79	317.54	29.92	-35.4	-36.7	18.4	0.00e+00	0	60	0	809500672	42	4172
2026-01-23 03:08:50.81	317.20	29.96	-35.4	-36.7	18.4	0.00e+00	0	60	0	814743552	42	4175
2026-01-23 03:08:51.82	316.86	30.01	-35.5	-36.8	18.3	0.00e+00	0	60	0	819986432	42	4218
2026-01-23 03:08:52.82	316.53	30.05	-35.4	-36.7	18.3	0.00e+00	0	60	0	826277888	42	4192
2026-01-23 03:08:53.84	316.19	30.09	-35.4	-36.7	18.3	0.00e+00	0	60	0	831520768	42	4190
2026-01-23 03:08:54.84	315.85	30.13	-35.4	-36.8	18.3	0.00e+00	0	60	0	837812224	42	4202
2026-01-23 03:08:55.85	315.51	30.17	-35.5	-36.8	18.3	0.00e+00	0	60	0	843055104	42	4225
2026-01-23 03:08:56.86	315.17	30.21	-35.4	-36.7	18.3	0.00e+00	0	60	0	848297984	42	4190
2026-01-23 03:08:57.87	314.82	30.24	-35.4	-36.8	18.3	0.00e+00	0	61	0	854589440	42	4196
2026-01-23 03:08:58.88	314.48	30.28	-35.2	-36.5	18.5	0.00e+00	0	60	0	859832320	42	4079
2026-01-23 03:08:59.89	314.13	30.31	-35.2	-36.5	18.6	0.00e+00	0	61	0	866123776	42	4068
2026-01-23 03:09:00.90	313.79	30.34	-35.2	-36.5	18.6	0.00e+00	0	61	0	871366656	42	4075
2026-01-23 03:09:01.91	313.44	30.38	-35.1	-36.4	18.6	0.00e+00	0	61	0	876609536	42	4042
2026-01-23 03:09:02.92	313.10	30.41	-35.1	-36.4	18.7	0.00e+00	0	60	0	882900992	42	4013
2026-01-23 03:09:03.93	312.75	30.44	-35.2	-36.5	18.5	0.00e+00	0	60	0	888143872	42	4078
2026-01-23 03:09:04.94	312.40	30.46	-35.3	-36.6	18.5	0.00e+00	0	60	0	894435328	42	4100
2026-01-23 03:09:05.95	312.05	30.49	-35.4	-36.7	18.4	0.00e+00	0	60	0	899678208	42	4184
2026-01-23 03:09:06.96	311.70	30.52	-35.4	-36.7	18.3	0.00e+00	0	60	0	905969664	42	4191
2026-01-23 03:09:07.97	311.35	30.54	-35.4	-36.7	18.4	0.00e+00	0	61	0	911212544	42	4167
2026-01-23 03:09:08.98	311.00	30.57	-35.4	-36.7	18.3	0.00e+00	0	60	0	916455424	42	4190
2026-01-23 03:09:09.99	310.65	30.59	-35.3	-36.5	18.5	0.00e+00	0	60	0	922746880	42	4095
2026-01-23 03:09:11.00	310.30	30.61	-35.1	-36.4	18.7	0.00e+00	0	60	0	927989760	42	4016
2026-01-23 03:09:12.01	309.95	30.63	-35.1	-36.3	18.8	0.00e+00	0	60	0	934281216	42	3993
2026-01-23 03:09:13.02	309.60	30.65	-35.1	-36.4	18.7	0.00e+00	0	60	0	939524096	42	4022
2026-01-23 03:09:14.03	309.25	30.67	-35.2	-36.5	18.6	0.00e+00	0	60	0	944766976	42	4058
2026-01-23 03:09:15.04	308.89	30.68	-35.1	-36.4	18.7	0.00e+00	0	60	0	951058432	42	4034
2026-01-23 03:09:16.05	308.54	30.70	-35.1	-36.4	18.7	0.00e+00	0	60	0	956301312	42	4033
2026-01-23 03:09:17.06	308.19	30.71	-35.1	-36.4	18.7	0.00e+00	0	60	0	962592768	42	4022
2026-01-23 03:09:18.07	307.83	30.73	-35.2	-36.5	18.6	0.00e+00	0	60	0	967835648	42	4056
2026-01-23 03:09:19.08	307.48	30.74	-35.2	-36.5	18.6	0.00e+00	0	60	0	973078528	42	4055
2026-01-23 03:09:20.09	307.12	30.75	-35.0	-36.3	18.8	0.00e+00	0	60	0	979369984	42	3982
2026-01-23 03:09:21.10	306.77	30.76	-35.0	-36.2	18.8	0.00e+00	0	61	0	984612864	41	4182
2026-01-23 03:09:22.11	306.41	30.77	-35.0	-36.2	18.8	0.00e+00	0	60	0	990904320	41	4191
2026-01-23 03:09:23.12	306.06	30.77	-35.1	-36.4	18.6	0.00e+00	0	60	0	996147200	41	4272
2026-01-23 03:09:24.13	305.70	30.78	-35.1	-36.4	18.6	0.00e+00	0	60	0	1002438656	41	4272
2026-01-23 03:09:25.14	305.35	30.78	-35.0	-36.3	18.8	0.00e+00	0	60	0	1007681536	41	4206
2026-01-23 03:09:26.15	304.99	30.79	-35.0	-36.2	18.8	0.00e+00	0	60	0	1013972992	41	4176
2026-01-23 03:09:27.16	304.64	30.79	-34.9	-36.1	18.9	0.00e+00	0	60	0	1019215872	41	4139
2026-01-23 03:09:28.17	304.28	30.79	-35.0	-36.2	18.8	0.00e+00	0	60	0	1024458752	41	4179
2026-01-23 03:09:29.18	303.93	30.79	-35.1	-36.4	18.6	0.00e+00	0	60	0	1030750208	41	4276
2026-01-23 03:09:30.19	303.57	30.79	-35.1	-36.4	18.6	0.00e+00	0	60	0	1035993088	41	4259
2026-01-23 03:09:31.20	303.22	30.78	-35.1	-36.4	18.6	0.00e+00	0	60	0	1042284544	41	4275
2026-01-23 03:09:32.21	302.86	30.78	-35.1	-36.4	18.7	0.00e+00	0	60	0	1047527424	41	4253
2026-01-23 03:09:33.22	302.51	30.77	-35.1	-36.4	18.7	0.00e+00	0	60	0	1052770304	41	4261
2026-01-23 03:09:34.23	302.15	30.77	-35.1	-36.4	18.7	0.00e+00	0	60	0	1059061760	41	4254
2026-01-23 03:09:35.24	301.80	30.76	-35.2	-36.5	18.6	0.00e+00	0	60	0	1064304640	41	4294
2026-01-23 03:09:36.25	301.44	30.75	-35.2	-36.4	18.6	0.00e+00	0	60	0	1070596096	41	4285
2026-01-23 03:09:37.25	301.09	30.74	-35.0	-36.3	18.7	0.00e+00	0	60	0	1075838976	41	4227
2026-01-23 03:09:38.26	300.74	30.73	-35.0	-36.3	18.8	0.00e+00	0	60	0	1081081856	41	4214
2026-01-23 03:09:39.27	300.38	30.71	-35.1	-36.3	18.7	0.00e+00	0	60	0	1087373312	41	4242
2026-01-23 03:09:40.29	300.02	30.70	-35.0	-36.2	18.8	0.00e+00	0	60	0	1092616192	41	4191
2026-01-23 03:09:41.29	299.68	30.68	-34.9	-36.1	19.0	0.00e+00	0	60	0	1098907648	41	4130
2026-01-23 03:09:42.31	299.32	30.67	-34.9	-36.2	18.9	0.00e+00	0	60	0	1104150528	41	4156
2026-01-23 03:09:43.32	298.97	30.65	-35.0	-36.3	18.8	0.00e+00	0	61	0	1110441984	41	4202
2026-01-23 03:09:44.33	298.61	30.63	-35.1	-36.4	18.7	0.00e+00	0	60	0	1115684864	41	4252
2026-01-23 03:09:45.33	298.27	30.61	-35.0	-36.3	18.8	0.00e+00	0	60	0	1120927744	41	4197
2026-01-23 03:09:46.34	297.91	30.59	-35.0	-36.3	18.8	0.00e+00	0	60	0	1127219200	41	4221
2026-01-23 03:09:47.35	297.56	30.57	-35.1	-36.4	18.7	0.00e+00	0	61	0	1132462080	41	4248
2026-01-23 03:09:48.37	297.21	30.54	-35.1	-36.4	18.7	0.00e+00	0	61	0	1138753536	41	4264
2026-01-23 03:09:49.37	296.86	30.52	-35.1	-36.3	18.7	0.00e+00	0	61	0	1143996416	41	4242
2026-01-23 03:09:50.38	296.51	30.49	-35.0	-36.2	18.8	0.00e+00	0	60	0	1149239296	41	4190
2026-01-23 03:09:51.39	296.16	30.46	-35.0	-36.3	18.8	0.00e+00	0	61	0	1155530752	41	4206
2026-01-23 03:09:52.40	295.82	30.43	-35.2	-36.5	18.6	0.00e+00	0	60	0	1160773632	41	4304
2026-01-23 03:09:53.41	295.47	30.41	-35.1	-36.4	18.6	0.00e+00	0	61	0	1167065088	41	4286
2026-01-23 03:09:54.42	295.12	30.37	-35.1	-36.3	18.7	0.00e+00	0	60	0	1172307968	41	4235
2026-01-23 03:09:55.43	294.77	30.34	-35.1	-36.4	18.7	0.00e+00	0	60	0	1177550848	41	4243
2026-01-23 03:09:56.44	294.43	30.31	-35.0	-36.3	18.8	0.00e+00	0	60	0	1183842304	41	4214
2026-01-23 03:09:57.45	294.08	30.28	-35.1	-36.4	18.7	0.00e+00	0	60	0	1189085184	41	4264
2026-01-23 03:09:58.46	293.74	30.24	-35.1	-36.3	18.7	0.00e+00	0	60	0	1195376640	41	4233
2026-01-23 03:09:59.47	293.40	30.20	-35.1	-36.3	18.7	0.00e+00	0	60	0	1200619520	41	4239
2026-01-23 03:10:00.48	293.05	30.17	-35.2	-36.5	18.6	0.00e+00	0	60	0	1206910976	41	4292
2026-01-23 03:10:01.49	292.71	30.13	-35.2	-36.5	18.5	0.00e+00	0	60	0	1212153856	41	4336
2026-01-23 03:10:02.50	292.37	30.09	-35.2	-36.5	18.6	0.00e+00	0	61	0	1218445312	41	4311
2026-01-23 03:10:03.51	292.03	30.05	-35.2	-36.5	18.6	0.00e+00	0	60	0	1223688192	41	4313
2026-01-23 03:10:04.52	291.69	30.00	-35.2	-36.5	18.6	0.00e+00	0	61	0	1228931072	41	4302
2026-01-23 03:10:05.53	291.35	29.96	-35.2	-36.5	18.6	0.00e+00	0	60	0	1235222528	41	4330
2026-01-23 03:10:06.54	291.02	29.92	-35.1	-36.4	18.6	0.00e+00	0	61	0	1240465408	41	4281
2026-01-23 03:10:07.55	290.68	29.87	-35.1	-36.4	18.7	0.00e+00	0	60	0	1246756864	41	4253
2026-01-23 03:10:08.56	290.34	29.83	-35.1	-36.4	18.6	0.00e+00	0	60	0	1251999744	41	4275
2026-01-23 03:10:09.57	290.01	29.78	-35.1	-36.4	18.7	0.00e+00	0	61	0	1257242624	41	4258
2026-01-23 03:10:10.58	289.68	29.73	-35.2	-36.4	18.6	0.00e+00	0	60	0	1263534080	41	4284
2026-01-23 03:10:11.59	289.34	29.68	-35.2	-36.4	18.6	0.00e+00	0	60	0	1268776960	41	4281
2026-01-23 03:10:12.60	289.01	29.63	-35.3	-36.6	18.5	0.00e+00	0	61	0	1275068416	41	4359
2026-01-23 03:10:13.61	288.68	29.58	-35.3	-36.6	18.4	0.00e+00	0	60	0	1280311296	41	4385
2026-01-23 03:10:14.61	288.36	29.53	-35.4	-36.7	18.3	0.00e+00	0	61	0	1285554176	41	4430
2026-01-23 03:10:15.62	288.03	29.48	-35.4	-36.7	18.3	0.00e+00	0	60	0	1291845632	41	4433
2026-01-23 03:10:16.63	287.70	29.42	-35.4	-36.7	18.4	0.00e+00	0	61	0	1297088512	41	4405
2026-01-23 03:10:17.64	287.37	29.37	-35.4	-36.7	18.4	0.00e+00	0	61	0	1303379968	41	4409
2026-01-23 03:10:18.65	287.05	29.31	-35.5	-36.8	18.3	0.00e+00	0	60	0	1308622848	41	4471
2026-01-23 03:10:19.66	286.72	29.25	-35.5	-36.9	18.2	0.00e+00	0	60	0	1314914304	41	4494
2026-01-23 03:10:20.67	286.40	29.20	-35.4	-36.7	18.4	0.00e+00	0	60	0	1320157184	41	4416
2026-01-23 03:10:21.68	286.08	29.14	-35.4	-36.8	18.3	0.00e+00	0	60	0	1325400064	41	4451
2026-01-23 03:10:22.69	285.76	29.08	-35.5	-36.8	18.3	0.00e+00	0	60	0	1331691520	41	4457
2026-01-23 03:10:23.70	285.44	29.02	-35.5	-36.9	18.2	0.00e+00	0	60	0	1336934400	41	4497
2026-01-23 03:10:24.71	285.12	28.96	-35.4	-36.7	18.4	0.00e+00	0	61	0	1343225856	41	4408
2026-01-23 03:10:25.72	284.80	28.90	-35.4	-36.7	18.4	0.00e+00	0	60	0	1348468736	41	4418
2026-01-23 03:10:26.73	284.49	28.83	-35.3	-36.6	18.4	0.00e+00	0	61	0	1354760192	41	4386
2026-01-23 03:10:27.75	284.17	28.77	-35.2	-36.5	18.6	0.00e+00	0	60	0	1360003072	41	4309
2026-01-23 03:10:28.75	283.86	28.70	-35.1	-36.4	18.6	0.00e+00	0	60	0	1365245952	41	4272
2026-01-23 03:10:29.76	283.55	28.64	-35.2	-36.4	18.6	0.00e+00	0	61	0	1371537408	41	4291
2026-01-23 03:10:30.77	283.24	28.57	-35.3	-36.6	18.4	0.00e+00	0	61	0	1376780288	41	4379
2026-01-23 03:10:31.79	282.93	28.51	-35.3	-36.7	18.4	0.00e+00	0	61	0	1383071744	41	4392
2026-01-23 03:10:32.79	282.62	28.44	-35.3	-36.7	18.4	0.00e+00	0	60	0	1388314624	41	4392
2026-01-23 03:10:33.80	282.31	28.37	-35.3	-36.6	18.5	0.00e+00	0	60	0	1393557504	41	4356
2026-01-23 03:10:34.81	282.01	28.30	-35.4	-36.6	18.4	0.00e+00	0	61	0	1399848960	41	4391
2026-01-23 03:10:35.82	281.71	28.23	-35.4	-36.7	18.4	0.00e+00	0	60	0	1405091840	41	4395
2026-01-23 03:10:36.83	281.40	28.16	-35.4	-36.7	18.4	0.00e+00	0	61	0	1411383296	41	4409
2026-01-23 03:10:37.84	281.10	28.09	-35.4	-36.7	18.4	0.00e+00	0	60	0	1416626176	41	4411
2026-01-23 03:10:38.85	280.80	28.02	-35.4	-36.7	18.3	0.00e+00	0	60	0	1422917632	41	4415
2026-01-23 03:10:39.86	280.50	27.95	-35.4	-36.7	18.3	0.00e+00	0	61	0	1428160512	41	4429
2026-01-23 03:10:40.87	280.21	27.87	-35.4	-36.8	18.3	0.00e+00	0	60	0	1433403392	41	4445
2026-01-23 03:10:41.88	279.91	27.80	-35.3	-36.6	18.5	0.00e+00	0	61	0	1439694848	41	4358
2026-01-23 03:10:42.88	279.62	27.72	-35.1	-36.4	18.6	0.00e+00	0	60	0	1444937728	41	4275
2026-01-23 03:10:43.90	279.32	27.65	-35.1	-36.4	18.7	0.00e+00	0	60	0	1451229184	41	4254
2026-01-23 03:10:44.91	279.03	27.57	-35.2	-36.5	18.5	0.00e+00	0	61	0	1456472064	41	4312
2026-01-23 03:10:45.92	278.74	27.50	-35.3	-36.6	18.4	0.00e+00	0	61	0	1461714944	41	4355
2026-01-23 03:10:46.93	278.45	27.42	-35.3	-36.6	18.4	0.00e+00	0	60	0	1468006400	41	4382
2026-01-23 03:10:47.94	278.16	27.34	-35.3	-36.6	18.4	0.00e+00	0	61	0	1473249280	41	4378
2026-01-23 03:10:48.95	277.88	27.26	-35.4	-36.7	18.4	0.00e+00	0	61	0	1479540736	41	4396
2026-01-23 03:10:49.96	277.59	27.18	-35.3	-36.6	18.4	0.00e+00	0	60	0	1484783616	41	4371
2026-01-23 03:10:50.97	277.31	27.11	-35.3	-36.6	18.5	0.00e+00	0	60	0	1490026496	41	4346
2026-01-23 03:10:51.98	277.03	27.03	-35.2	-36.4	18.6	0.00e+00	0	61	0	1496317952	41	4281
2026-01-23 03:10:52.99	276.75	26.95	-35.2	-36.4	18.6	0.00e+00	0	60	0	1501560832	41	4280
2026-01-23 03:10:54.00	276.47	26.86	-35.2	-36.5	18.5	0.00e+00	0	61	0	1507852288	41	4320
2026-01-23 03:10:55.01	276.19	26.78	-35.3	-36.6	18.4	0.00e+00	0	60	0	1513095168	41	4367
2026-01-23 03:10:56.02	275.91	26.70	-35.4	-36.7	18.4	0.00e+00	0	60	0	1519386624	41	4403
2026-01-23 03:10:57.03	275.64	26.62	-35.5	-36.8	18.2	0.00e+00	0	61	0	1524629504	41	4460
2026-01-23 03:10:58.03	275.37	26.54	-35.5	-36.8	18.2	0.00e+00	0	60	0	1529872384	41	4490
2026-01-23 03:10:59.04	275.09	26.45	-35.4	-36.8	18.2	0.00e+00	0	60	0	1536163840	41	4449
2026-01-23 03:11:00.05	274.82	26.37	-35.5	-36.8	18.2	0.00e+00	0	60	0	1541406720	41	4477
2026-01-23 03:11:01.06	274.55	26.29	-35.6	-36.9	18.1	0.00e+00	0	60	0	1547698176	41	4525
2026-01-23 03:11:02.07	274.29	26.20	-35.6	-36.9	18.1	0.00e+00	0	61	0	1552941056	41	4539
2026-01-23 03:11:03.08	274.02	26.12	-35.6	-37.0	18.1	0.00e+00	0	61	0	1559232512	41	4548
2026-01-23 03:11:04.10	273.75	26.03	-35.5	-36.9	18.1	0.00e+00	0	60	0	1564475392	41	4504
2026-01-23 03:11:05.11	273.49	25.94	-35.5	-36.9	18.1	0.00e+00	0	60	0	1569718272	41	4511
2026-01-23 03:11:06.11	273.23	25.86	-35.6	-36.9	18.1	0.00e+00	0	61	0	1576009728	41	4528
2026-01-23 03:11:07.12	272.97	25.77	-35.5	-36.8	18.2	0.00e+00	0	60	0	1581252608	41	4455
2026-01-23 03:11:08.14	272.71	25.68	-35.5	-36.8	18.2	0.00e+00	0	60	0	1587544064	41	4462
2026-01-23 03:11:09.15	272.45	25.60	-35.5	-36.8	18.2	0.00e+00	0	60	0	1592786944	41	4458
2026-01-23 03:11:10.16	272.19	25.51	-35.4	-36.7	18.3	0.00e+00	0	61	0	1598029824	41	4408
2026-01-23 03:11:11.16	271.94	25.42	-35.3	-36.6	18.4	0.00e+00	0	61	0	1604321280	41	4355
2026-01-23 03:11:12.17	271.69	25.33	-35.4	-36.7	18.3	0.00e+00	0	61	0	1609564160	41	4431
2026-01-23 03:11:13.18	271.44	25.24	-35.6	-37.0	18.0	0.00e+00	0	61	0	1615855616	41	4546
2026-01-23 03:11:14.19	271.18	25.16	-35.7	-37.1	17.9	0.00e+00	0	60	0	1621098496	41	4600
2026-01-23 03:11:15.20	270.94	25.07	-35.6	-37.0	18.0	0.00e+00	0	60	0	1627389952	41	4553
2026-01-23 03:11:16.21	270.69	24.98	-35.5	-36.9	18.1	0.00e+00	0	61	0	1632632832	41	4496
2026-01-23 03:11:17.22	270.44	24.89	-35.6	-37.0	18.0	0.00e+00	0	61	0	1637875712	41	4548
2026-01-23 03:11:18.23	270.20	24.80	-35.6	-36.9	18.1	0.00e+00	0	61	0	1644167168	41	4513
2026-01-23 03:11:19.24	269.95	24.71	-35.5	-36.9	18.1	0.00e+00	0	61	0	1649410048	41	4503
2026-01-23 03:11:20.25	269.71	24.62	-35.5	-36.8	18.2	0.00e+00	0	61	0	1655701504	41	4468
2026-01-23 03:11:21.26	269.47	24.53	-35.5	-36.9	18.1	0.00e+00	0	60	0	1660944384	41	4500
2026-01-23 03:11:22.27	269.23	24.43	-35.5	-36.8	18.2	0.00e+00	0	61	0	1666187264	41	4483
2026-01-23 03:11:23.28	268.99	24.34	-35.6	-36.9	18.1	0.00e+00	0	60	0	1672478720	41	4530
2026-01-23 03:11:24.28	268.76	24.25	-35.6	-37.0	18.0	0.00e+00	0	61	0	1677721600	41	4565
2026-01-23 03:11:25.29	268.52	24.16	-35.7	-37.0	17.9	0.00e+00	0	60	0	1684013056	41	4581
2026-01-23 03:11:26.31	268.29	24.07	-35.6	-36.9	18.0	0.00e+00	0	61	0	1689255936	41	4541
2026-01-23 03:11:27.32	268.05	23.98	-35.6	-36.9	18.1	0.00e+00	0	60	0	1694498816	41	4526
2026-01-23 03:11:28.32	267.83	23.88	-35.6	-37.0	18.0	0.00e+00	0	60	0	1700790272	41	4570
2026-01-23 03:11:29.33	267.60	23.79	-35.6	-37.0	18.0	0.00e+00	0	61	0	1706033152	41	4564
2026-01-23 03:11:30.34	267.37	23.70	-35.7	-37.0	17.9	0.00e+00	0	60	0	1712324608	41	4576
2026-01-23 03:11:31.35	267.14	23.61	-35.7	-37.1	17.9	0.00e+00	0	61	0	1717567488	42	4355
2026-01-23 03:11:32.36	266.91	23.51	-35.8	-37.1	17.8	0.00e+00	0	60	0	1723858944	42	4385
2026-01-23 03:11:33.37	266.69	23.42	-35.9	-37.3	17.7	0.00e+00	0	60	0	1729101824	42	4457
2026-01-23 03:11:34.38	266.47	23.33	-35.9	-37.3	17.7	0.00e+00	0	61	0	1734344704	42	4444
2026-01-23 03:11:35.39	266.25	23.23	-35.9	-37.2	17.7	0.00e+00	0	60	0	1740636160	42	4434
2026-01-23 03:11:36.40	266.03	23.14	-35.9	-37.3	17.6	0.00e+00	0	61	0	1745879040	42	4482
2026-01-23 03:11:37.41	265.81	23.05	-36.0	-37.5	17.5	0.00e+00	0	60	0	1752170496	42	4549
2026-01-23 03:11:38.42	265.59	22.95	-36.0	-37.4	17.6	0.00e+00	0	60	0	1757413376	42	4508
2026-01-23 03:11:39.43	265.37	22.86	-36.0	-37.4	17.6	0.00e+00	0	60	0	1762656256	42	4494
2026-01-23 03:11:40.44	265.16	22.77	-36.0	-37.5	17.5	0.00e+00	0	61	0	1768947712	42	4548
2026-01-23 03:11:41.45	264.94	22.67	-36.0	-37.4	17.5	0.00e+00	0	60	0	1774190592	42	4532
2026-01-23 03:11:42.45	264.73	22.58	-36.1	-37.5	17.5	0.00e+00	0	60	0	1780482048	42	4576
2026-01-23 03:11:43.46	264.52	22.48	-36.1	-37.6	17.4	0.00e+00	0	61	0	1785724928	42	4605
2026-01-23 03:11:44.47	264.31	22.39	-36.2	-37.7	17.3	0.00e+00	0	60	0	1790967808	43	4407
2026-01-23 03:11:45.49	264.10	22.30	-36.2	-37.6	17.3	0.00e+00	0	60	0	1797259264	43	4385
2026-01-23 03:11:46.49	263.90	22.20	-36.1	-37.6	17.4	0.00e+00	0	61	0	1802502144	43	4342
2026-01-23 03:11:47.50	263.69	22.11	-36.1	-37.5	17.4	0.00e+00	0	60	0	1808793600	43	4326
2026-01-23 03:11:48.51	263.49	22.01	-36.2	-37.6	17.4	0.00e+00	0	60	0	1814036480	43	4351
2026-01-23 03:11:49.53	263.28	21.92	-36.2	-37.7	17.2	0.00e+00	0	61	0	1820327936	43	4414
2026-01-23 03:11:50.54	263.08	21.82	-36.3	-37.7	17.2	0.00e+00	0	61	0	1825570816	43	4436
2026-01-23 03:11:51.55	262.88	21.73	-36.2	-37.7	17.2	0.00e+00	0	60	0	1831862272	43	4407
2026-01-23 03:11:52.56	262.68	21.63	-36.2	-37.7	17.2	0.00e+00	0	60	0	1837105152	43	4402
2026-01-23 03:11:53.57	262.48	21.54	-36.3	-37.7	17.2	0.00e+00	0	61	0	1842348032	43	4422
2026-01-23 03:11:54.58	262.28	21.44	-36.3	-37.7	17.2	0.00e+00	0	61	0	1848639488	43	4439
2026-01-23 03:11:55.59	262.08	21.35	-36.3	-37.7	17.2	0.00e+00	0	60	0	1853882368	43	4426
2026-01-23 03:11:56.60	261.89	21.26	-36.3	-37.8	17.2	0.00e+00	0	61	0	1860173824	43	4450
2026-01-23 03:11:57.60	261.70	21.16	-36.4	-37.9	17.0	0.00e+00	0	61	0	1865416704	43	4512
2026-01-23 03:11:58.61	261.50	21.07	-36.4	-37.9	17.0	0.00e+00	0	61	0	1870659584	43	4515
2026-01-23 03:11:59.62	261.31	20.97	-36.3	-37.8	17.1	0.00e+00	0	60	0	1876951040	43	4450
2026-01-23 03:12:00.63	261.12	20.88	-36.2	-37.7	17.3	0.00e+00	0	60	0	1882193920	43	4393
2026-01-23 03:12:01.64	260.93	20.78	-36.2	-37.7	17.2	0.00e+00	0	61	0	1888485376	43	4401
2026-01-23 03:12:02.65	260.75	20.69	-36.1	-37.6	17.3	0.00e+00	0	60	0	1893728256	43	4341
2026-01-23 03:12:03.66	260.56	20.60	-36.1	-37.5	17.4	0.00e+00	0	61	0	1898971136	43	4328
2026-01-23 03:12:04.67	260.37	20.50	-36.2	-37.7	17.3	0.00e+00	0	60	0	1905262592	43	4393
2026-01-23 03:12:05.68	260.19	20.41	-36.2	-37.6	17.2	0.00e+00	0	61	0	1910505472	43	4386
2026-01-23 03:12:06.69	260.01	20.31	-36.2	-37.7	17.2	0.00e+00	0	61	0	1916796928	43	4422
2026-01-23 03:12:07.70	259.82	20.22	-36.3	-37.7	17.2	0.00e+00	0	60	0	1922039808	43	4427
2026-01-23 03:12:08.71	259.64	20.12	-36.3	-37.7	17.2	0.00e+00	0	60	0	1928331264	43	4436
2026-01-23 03:12:09.72	259.46	20.03	-36.4	-37.8	17.1	0.00e+00	0	61	0	1933574144	43	4478
2026-01-23 03:12:10.73	259.28	19.94	-36.4	-37.9	17.0	0.00e+00	0	61	0	1938817024	43	4505
2026-01-23 03:12:11.74	259.11	19.84	-36.5	-38.0	16.9	0.00e+00	0	61	0	1945108480	43	4563
2026-01-23 03:12:12.75	258.93	19.75	-36.5	-37.9	16.9	0.00e+00	0	61	0	1950351360	43	4535
2026-01-23 03:12:13.76	258.75	19.65	-36.4	-37.9	16.9	0.00e+00	0	61	0	1956642816	43	4524
2026-01-23 03:12:14.77	258.58	19.56	-36.4	-37.9	16.9	0.00e+00	0	61	0	1961885696	43	4523
2026-01-23 03:12:15.78	258.41	19.47	-36.5	-37.9	16.9	0.00e+00	0	61	0	1967128576	43	4537
2026-01-23 03:12:16.79	258.23	19.37	-36.5	-37.9	16.9	0.00e+00	0	61	0	1973420032	43	4545
2026-01-23 03:12:17.80	258.06	19.28	-36.5	-38.0	16.9	0.00e+00	0	61	0	1978662912	43	4570
2026-01-23 03:12:18.80	257.89	19.19	-36.5	-38.1	16.8	0.00e+00	0	61	0	1984954368	43	4600
2026-01-23 03:12:19.81	257.72	19.09	-36.6	-38.1	16.7	0.00e+00	0	61	0	1990197248	43	4648
2026-01-23 03:12:20.82	257.56	19.00	-36.6	-38.1	16.7	0.00e+00	0	61	0	1995440128	43	4644
2026-01-23 03:12:21.83	257.39	18.91	-36.7	-38.2	16.6	0.00e+00	0	61	0	2001731584	43	4680
2026-01-23 03:12:22.84	257.22	18.81	-36.7	-38.2	16.6	0.00e+00	0	61	0	2006974464	43	4704
2026-01-23 03:12:23.85	257.06	18.72	-36.6	-38.1	16.7	0.00e+00	0	61	0	2013265920	43	4630
2026-01-23 03:12:24.86	256.89	18.63	-36.5	-38.0	16.8	0.00e+00	0	61	0	2018508800	43	4595
2026-01-23 03:12:25.87	256.73	18.53	-36.5	-38.0	16.8	0.00e+00	0	60	0	2024800256	43	4590
2026-01-23 03:12:26.88	256.57	18.44	-36.6	-38.1	16.7	0.00e+00	0	61	0	2030043136	43	4618
2026-01-23 03:12:27.89	256.41	18.35	-36.7	-38.2	16.6	0.00e+00	0	60	0	2036334592	43	4669
2026-01-23 03:12:28.90	256.25	18.26	-36.7	-38.2	16.6	0.00e+00	0	61	0	2041577472	43	4705
2026-01-23 03:12:29.91	256.09	18.16	-36.9	-38.5	16.6	0.00e+00	0	61	0	2046820352	44	4555
2026-01-23 03:12:30.92	255.93	18.07	-37.0	-38.5	16.5	0.00e+00	0	61	0	2053111808	44	4596
2026-01-23 03:12:31.93	255.77	17.98	-37.0	-38.5	16.4	0.00e+00	0	61	0	2058354688	44	4598
2026-01-23 03:12:32.94	255.62	17.89	-37.1	-38.7	16.3	0.00e+00	0	61	0	2064646144	44	4685
2026-01-23 03:12:33.95	255.46	17.80	-37.2	-38.7	16.2	0.00e+00	0	61	0	2069889024	44	4705
2026-01-23 03:12:34.96	255.31	17.70	-37.2	-38.8	16.2	0.00e+00	0	61	0	2075131904	44	4719
2026-01-23 03:12:35.97	255.16	17.61	-37.2	-38.9	16.1	0.00e+00	0	61	0	2081423360	45	4498
2026-01-23 03:12:36.98	255.00	17.52	-37.2	-38.8	16.2	0.00e+00	0	61	0	2086666240	45	4458
2026-01-23 03:12:37.99	254.85	17.43	-37.2	-38.9	16.1	0.00e+00	0	60	0	2092957696	45	4503
2026-01-23 03:12:38.99	254.70	17.34	-37.2	-38.8	16.2	0.00e+00	0	61	0	2098200576	45	4464
2026-01-23 03:12:40.01	254.55	17.25	-37.2	-38.8	16.1	0.00e+00	0	61	0	2103443456	45	4491
2026-01-23 03:12:41.02	254.40	17.16	-37.2	-38.8	16.1	0.00e+00	0	61	0	2109734912	45	4479
2026-01-23 03:12:42.03	254.26	17.07	-37.2	-38.9	16.1	0.00e+00	0	61	0	2114977792	45	4505
2026-01-23 03:12:43.04	254.11	16.97	-37.2	-38.9	16.1	0.00e+00	0	61	0	2121269248	45	4502
2026-01-23 03:12:44.04	253.96	16.89	-37.3	-39.0	15.9	0.00e+00	0	61	0	2126512128	45	4575
2026-01-23 03:12:45.05	253.82	16.79	-37.4	-39.0	15.9	0.00e+00	0	61	0	2132803584	45	4595
2026-01-23 03:12:46.06	253.68	16.70	-37.4	-39.0	15.9	0.00e+00	0	61	0	2138046464	45	4594
2026-01-23 03:12:47.07	253.53	16.61	-37.3	-39.0	16.0	0.00e+00	0	61	0	2143289344	45	4558
2026-01-23 03:12:48.08	253.39	16.52	-37.4	-39.1	15.9	0.00e+00	0	61	0	2149580800	45	4601
2026-01-23 03:12:49.09	253.25	16.43	-37.4	-39.1	15.8	0.00e+00	0	61	0	2154823680	45	4636
2026-01-23 03:12:50.10	253.11	16.35	-37.4	-39.1	15.8	0.00e+00	0	61	0	2161115136	45	4612
2026-01-23 03:12:51.11	252.97	16.26	-37.4	-39.1	15.8	0.00e+00	0	61	0	2166358016	45	4638
2026-01-23 03:12:52.12	252.83	16.17	-37.5	-39.2	15.7	0.00e+00	0	61	0	2171600896	45	4691
2026-01-23 03:12:53.13	252.69	16.08	-37.6	-39.3	15.7	0.00e+00	0	60	0	2177892352	45	4715
2026-01-23 03:12:54.14	252.55	15.99	-37.5	-39.2	15.7	0.00e+00	0	61	0	2183135232	45	4698
2026-01-23 03:12:55.15	252.42	15.90	-37.6	-39.3	15.6	0.00e+00	0	61	0	2189426688	45	4735
2026-01-23 03:12:56.16	252.28	15.81	-37.6	-39.4	15.5	1.10e-06	0	61	0	2194669568	45	4778
2026-01-23 03:12:57.17	252.15	15.72	-37.6	-39.4	15.5	0.00e+00	0	61	0	2199912448	45	4776
2026-01-23 03:12:58.18	252.01	15.63	-37.7	-39.4	15.4	0.00e+00	0	61	0	2206203904	45	4808
2026-01-23 03:12:59.19	251.88	15.55	-37.7	-39.4	15.5	0.00e+00	0	61	0	2211446784	45	4799
2026-01-23 03:13:00.20	251.75	15.46	-37.7	-39.5	15.4	0.00e+00	0	60	0	2217738240	46	4550
2026-01-23 03:13:01.21	251.61	15.37	-37.5	-39.2	15.7	0.00e+00	0	60	0	2222981120	46	4429
2026-01-23 03:13:02.22	251.48	15.28	-37.5	-39.2	15.7	0.00e+00	0	61	0	2229272576	46	4398
2026-01-23 03:13:03.23	251.35	15.19	-37.5	-39.2	15.7	0.00e+00	0	61	0	2234515456	46	4428
2026-01-23 03:13:04.24	251.22	15.11	-37.6	-39.4	15.5	0.00e+00	0	61	0	2240806912	46	4499
2026-01-23 03:13:05.25	251.10	15.02	-37.6	-39.4	15.5	0.00e+00	0	61	0	2246049792	46	4500
2026-01-23 03:13:06.25	250.97	14.93	-37.6	-39.3	15.6	0.00e+00	0	61	0	2251292672	46	4486
2026-01-23 03:13:07.26	250.84	14.85	-37.7	-39.4	15.5	0.00e+00	0	61	0	2257584128	46	4521
2026-01-23 03:13:08.27	250.72	14.76	-37.7	-39.4	15.4	0.00e+00	0	61	0	2262827008	46	4539
2026-01-23 03:13:09.28	250.59	14.67	-37.7	-39.4	15.5	0.00e+00	0	60	0	2268069888	46	4531
2026-01-23 03:13:10.29	250.46	14.59	-37.7	-39.4	15.4	1.10e-06	0	61	0	2274361344	46	4526
2026-01-23 03:13:11.30	250.34	14.50	-37.6	-39.4	15.5	0.00e+00	0	61	0	2279604224	46	4511
2026-01-23 03:13:12.32	250.22	14.41	-37.7	-39.5	15.4	0.00e+00	0	61	0	2285895680	46	4555
2026-01-23 03:13:13.33	250.09	14.33	-37.6	-39.3	15.5	0.00e+00	0	61	0	2291138560	46	4493
2026-01-23 03:13:14.33	249.97	14.24	-37.7	-39.4	15.4	0.00e+00	0	61	0	2297430016	46	4530
2026-01-23 03:13:15.35	249.85	14.16	-37.8	-39.5	15.3	0.00e+00	0	61	0	2302672896	46	4580
2026-01-23 03:13:16.36	249.73	14.07	-37.8	-39.6	15.3	0.00e+00	0	61	0	2307915776	46	4614
2026-01-23 03:13:17.37	249.61	13.99	-37.9	-39.7	15.2	0.00e+00	0	61	0	2314207232	46	4653
2026-01-23 03:13:18.38	249.49	13.90	-37.9	-39.7	15.1	0.00e+00	0	61	0	2319450112	46	4687
2026-01-23 03:13:19.39	249.37	13.82	-38.0	-39.9	15.0	0.00e+00	0	61	0	2325741568	46	4767
2026-01-23 03:13:20.40	249.25	13.73	-38.1	-39.9	14.9	0.00e+00	0	61	0	2330984448	46	4793
2026-01-23 03:13:21.40	249.14	13.65	-38.1	-39.9	14.9	0.00e+00	0	61	0	2337275904	46	4795
2026-01-23 03:13:22.41	249.02	13.56	-38.1	-39.9	14.9	1.10e-06	0	61	0	2342518784	46	4796
2026-01-23 03:13:23.42	248.91	13.48	-38.1	-40.0	14.9	0.00e+00	0	61	0	2347761664	46	4828
2026-01-23 03:13:24.43	248.79	13.40	-38.1	-39.9	14.9	0.00e+00	0	61	0	2354053120	46	4814
2026-01-23 03:13:25.44	248.68	13.31	-38.1	-39.9	14.9	0.00e+00	0	61	0	2359296000	46	4783
2026-01-23 03:13:26.45	248.56	13.23	-38.1	-40.0	14.8	0.00e+00	0	61	0	2365587456	46	4818
2026-01-23 03:13:27.46	248.45	13.14	-38.1	-39.9	14.9	0.00e+00	0	61	0	2370830336	46	4803
2026-01-23 03:13:28.47	248.34	13.06	-38.1	-40.0	14.9	0.00e+00	0	61	0	2376073216	46	4823
2026-01-23 03:13:29.48	248.23	12.98	-38.1	-40.0	14.8	0.00e+00	0	61	0	2382364672	46	4843
2026-01-23 03:13:30.49	248.12	12.90	-38.2	-40.1	14.7	0.00e+00	0	61	0	2387607552	46	4875
2026-01-23 03:13:31.50	248.00	12.81	-38.2	-40.1	14.6	0.00e+00	0	61	0	2393899008	47	4637
2026-01-23 03:13:32.51	247.89	12.73	-38.3	-40.2	14.5	2.20e-06	0	61	0	2399141888	47	4692
2026-01-23 03:13:33.52	247.79	12.65	-38.2	-40.1	14.7	0.00e+00	0	61	0	2404384768	47	4622
2026-01-23 03:13:34.53	247.68	12.57	-38.1	-40.0	14.7	0.00e+00	0	61	0	2410676224	47	4596
2026-01-23 03:13:35.54	247.57	12.48	-38.1	-40.0	14.7	0.00e+00	0	61	0	2415919104	47	4568
2026-01-23 03:13:36.55	247.46	12.40	-38.2	-40.1	14.7	1.10e-06	0	61	0	2422210560	47	4603
2026-01-23 03:13:37.56	247.35	12.32	-38.2	-40.2	14.6	0.00e+00	0	61	0	2427453440	47	4658
2026-01-23 03:13:38.57	247.25	12.24	-38.2	-40.1	14.7	0.00e+00	0	61	0	2433744896	47	4618
2026-01-23 03:13:39.58	247.14	12.16	-38.2	-40.1	14.6	0.00e+00	0	61	0	2438987776	47	4640
2026-01-23 03:13:40.58	247.04	12.08	-38.3	-40.2	14.6	1.10e-06	0	61	0	2444230656	47	4666
2026-01-23 03:13:41.59	246.93	12.00	-38.3	-40.2	14.5	1.10e-06	0	61	0	2450522112	47	4676
2026-01-23 03:13:42.60	246.83	11.92	-38.3	-40.3	14.5	2.20e-06	0	61	0	2455764992	47	4713
2026-01-23 03:13:43.61	246.73	11.83	-38.4	-40.4	14.4	0.00e+00	0	61	0	2462056448	47	4772
2026-01-23 03:13:44.62	246.62	11.75	-38.4	-40.4	14.3	0.00e+00	0	61	0	2467299328	47	4777
2026-01-23 03:13:45.63	246.52	11.67	-38.5	-40.5	14.3	0.00e+00	0	61	0	2472542208	47	4819
2026-01-23 03:13:46.64	246.42	11.59	-38.5	-40.5	14.2	4.50e-06	0	61	0	2478833664	47	4846
2026-01-23 03:13:47.65	246.32	11.51	-38.5	-40.5	14.2	5.70e-06	0	60	0	2484076544	47	4862
2026-01-23 03:13:48.66	246.22	11.43	-38.5	-40.6	14.1	3.40e-06	0	61	0	2490368000	47	4883
2026-01-23 03:13:49.67	246.12	11.35	-38.5	-40.5	14.2	2.20e-06	0	61	0	2495610880	47	4838
2026-01-23 03:13:50.68	246.02	11.27	-38.5	-40.5	14.2	5.70e-06	0	61	0	2500853760	47	4843
2026-01-23 03:13:51.69	245.92	11.20	-38.5	-40.5	14.1	5.70e-06	0	61	0	2507145216	47	4863
2026-01-23 03:13:52.70	245.82	11.12	-38.5	-40.5	14.2	1.10e-06	0	61	0	2512388096	47	4848
2026-01-23 03:13:53.71	245.73	11.04	-38.6	-40.7	14.0	5.70e-06	0	61	0	2518679552	47	4947
2026-01-23 03:13:54.72	245.63	10.96	-38.6	-40.6	14.0	4.50e-06	0	61	0	2523922432	47	4909
2026-01-23 03:13:55.73	245.53	10.88	-38.6	-40.6	14.0	2.20e-06	0	61	0	2530213888	47	4922
2026-01-23 03:13:56.74	245.44	10.80	-38.6	-40.7	14.0	4.50e-06	0	61	0	2535456768	47	4940
2026-01-23 03:13:57.75	245.34	10.72	-38.6	-40.6	14.0	3.40e-06	0	61	0	2541748224	47	4925
2026-01-23 03:13:58.76	245.25	10.65	-38.6	-40.7	14.0	4.50e-06	0	61	0	2546991104	47	4935
2026-01-23 03:13:59.77	245.15	10.57	-38.7	-40.8	13.9	6.80e-06	0	61	0	2552233984	47	4991
2026-01-23 03:14:00.78	245.06	10.49	-38.7	-40.8	13.8	1.02e-05	0	61	0	2558525440	47	5009
2026-01-23 03:14:01.79	244.96	10.41	-38.8	-40.9	13.8	9.10e-06	0	61	0	2563768320	48	4812
2026-01-23 03:14:02.80	244.87	10.34	-38.9	-41.0	13.7	4.50e-06	0	61	0	2570059776	48	4826
2026-01-23 03:14:03.81	244.78	10.26	-38.9	-41.1	13.6	1.48e-05	0	61	0	2575302656	48	4898
2026-01-23 03:14:04.82	244.69	10.18	-38.9	-41.1	13.6	8.00e-06	0	61	0	2580545536	48	4886
2026-01-23 03:14:05.83	244.59	10.10	-38.9	-41.0	13.7	1.48e-05	0	61	0	2586836992	48	4859
2026-01-23 03:14:06.84	244.50	10.03	-38.9	-41.1	13.6	1.14e-05	0	61	0	2592079872	48	4887
2026-01-23 03:14:07.85	244.41	9.95	-39.0	-41.2	13.5	1.94e-05	0	61	0	2598371328	48	4943
2026-01-23 03:14:08.86	244.32	9.87	-39.0	-41.2	13.5	1.14e-05	0	61	0	2603614208	48	4933
2026-01-23 03:14:09.87	244.23	9.80	-39.0	-41.3	13.4	2.17e-05	0	61	0	2608857088	48	4995
2026-01-23 03:14:10.88	244.14	9.72	-39.0	-41.1	13.5	1.94e-05	0	61	0	2615148544	48	4925
2026-01-23 03:14:11.89	244.06	9.65	-38.9	-41.0	13.6	6.80e-06	0	61	0	2620391424	48	4841
2026-01-23 03:14:12.90	243.97	9.57	-38.8	-40.9	13.7	1.25e-05	0	61	0	2626682880	48	4801
2026-01-23 03:14:13.91	243.88	9.50	-38.9	-41.1	13.6	1.25e-05	0	61	0	2631925760	48	4875
2026-01-23 03:14:14.92	243.79	9.42	-38.9	-41.0	13.6	1.71e-05	0	61	0	2638217216	48	4847
2026-01-23 03:14:15.93	243.71	9.34	-38.9	-41.1	13.5	1.71e-05	0	61	0	2643460096	48	4902
2026-01-23 03:14:16.94	243.62	9.27	-38.9	-41.1	13.5	9.10e-06	0	61	0	2649751552	48	4898
2026-01-23 03:14:17.95	243.53	9.19	-38.9	-41.1	13.5	2.97e-05	0	61	0	2654994432	48	4896
2026-01-23 03:14:18.96	243.45	9.12	-39.0	-41.2	13.4	1.94e-05	0	61	0	2660237312	48	4954
2026-01-23 03:14:19.97	243.36	9.05	-39.0	-41.2	13.4	1.60e-05	0	61	0	2666528768	48	4938
2026-01-23 03:14:20.98	243.28	8.97	-39.0	-41.2	13.4	1.48e-05	0	61	0	2671771648	48	4945
2026-01-23 03:14:21.99	243.20	8.90	-39.1	-41.3	13.3	3.66e-05	0	61	0	2678063104	48	5008
2026-01-23 03:14:23.00	243.11	8.82	-39.0	-41.3	13.3	2.97e-05	0	61	0	2683305984	48	4996
2026-01-23 03:14:24.01	243.03	8.75	-39.0	-41.2	13.3	3.77e-05	0	61	0	2688548864	48	4978
2026-01-23 03:14:25.02	242.95	8.68	-39.1	-41.4	13.2	3.66e-05	0	61	0	2694840320	48	5057
2026-01-23 03:14:26.03	242.86	8.60	-39.1	-41.3	13.2	2.40e-05	0	61	0	2700083200	48	5024
2026-01-23 03:14:27.03	242.78	8.53	-39.2	-41.5	13.1	3.89e-05	0	61	0	2706374656	48	5110
2026-01-23 03:14:28.04	242.70	8.46	-39.1	-41.4	13.2	5.14e-05	0	61	0	2711617536	48	5063
2026-01-23 03:14:29.05	242.62	8.38	-39.1	-41.4	13.1	4.11e-05	0	61	0	2716860416	48	5074
2026-01-23 03:14:30.06	242.54	8.31	-39.1	-41.4	13.1	4.11e-05	0	61	0	2723151872	48	5060
