passes_logs/2026/01/30/R3.2S_Murmansk/R3.2S_Murmansk__20260130_013036_SUOMI_NPP_rec.log

#Pass ID: 20260130_013036_SUOMI NPP
#Satellite: SUOMI NPP
#Configuration: NPP
#almurnet v.1.7.20251203
#Start time: 2026-01-30 01:30:37

#Version: 2.2.20231116
#Station: R3.2S_Murmansk
#Location: 33.079688 lon 68.888172 lat
#TLE: 1 37849U 11061A   26029.48304708  .00000140  00000+0  87283-4 0  9999
#TLE: 2 37849  98.7824 331.4079 0002024  38.4342 321.6978 14.19531488738761

#Time	Az	El	Level	Level2	SNR	BER	BlckErr	Temp	State	Recorded	gain1	gain2
2026-01-30 01:30:37.80	27.72	2.11	-53.8	-68.8	3.8	1.49e+00	0	39	0	0	79	19874
2026-01-30 01:30:38.82	27.70	2.18	-53.9	-68.9	3.8	1.49e+00	0	39	104	0	78	21432
2026-01-30 01:30:39.83	27.69	2.24	-54.1	-69.0	3.8	1.49e+00	0	39	104	0	78	21719
2026-01-30 01:30:40.84	27.67	2.31	-54.1	-69.1	3.8	1.49e+00	0	39	104	0	78	21879
2026-01-30 01:30:41.85	27.66	2.37	-54.1	-69.1	3.8	1.49e+00	0	39	104	0	78	21854
2026-01-30 01:30:42.85	27.64	2.44	-54.2	-69.1	3.8	1.49e+00	0	39	104	0	78	21962
2026-01-30 01:30:43.86	27.63	2.50	-54.2	-69.1	3.8	1.49e+00	0	39	104	0	78	21979
2026-01-30 01:30:44.87	27.61	2.57	-54.2	-69.1	3.8	1.49e+00	0	39	104	0	78	21955
2026-01-30 01:30:45.88	27.59	2.63	-54.1	-69.1	3.8	1.49e+00	0	39	104	0	78	21941
2026-01-30 01:30:46.88	27.58	2.70	-54.1	-69.1	3.8	1.49e+00	0	39	104	0	78	21840
2026-01-30 01:30:47.89	27.56	2.76	-54.0	-69.0	3.8	1.49e+00	0	39	104	0	78	21733
2026-01-30 01:30:48.90	27.55	2.83	-54.1	-69.1	3.8	1.49e+00	0	40	104	0	78	21814
2026-01-30 01:30:49.90	27.53	2.90	-54.1	-69.1	3.8	1.49e+00	0	40	104	0	78	21821
2026-01-30 01:30:50.91	27.51	2.96	-54.1	-69.0	3.8	1.49e+00	0	40	104	0	78	21749
2026-01-30 01:30:51.92	27.50	3.03	-54.0	-69.0	3.8	1.49e+00	0	40	104	0	78	21659
2026-01-30 01:30:52.93	27.48	3.09	-54.0	-68.9	3.8	1.49e+00	0	40	104	0	78	21489
2026-01-30 01:30:53.93	27.46	3.16	-53.9	-68.9	3.8	1.49e+00	0	40	104	0	78	21294
2026-01-30 01:30:54.94	27.45	3.23	-53.8	-68.7	3.8	1.49e+00	0	40	104	0	78	20969
2026-01-30 01:30:55.94	27.43	3.29	-53.6	-68.6	3.8	1.49e+00	0	40	104	0	78	20614
2026-01-30 01:30:56.95	27.41	3.36	-53.5	-68.5	3.8	1.49e+00	0	40	104	0	78	20304
2026-01-30 01:30:57.96	27.40	3.43	-53.3	-68.3	3.8	1.49e+00	0	40	104	0	78	19859
2026-01-30 01:30:58.97	27.38	3.50	-53.1	-68.1	3.8	1.49e+00	0	40	104	0	78	19396
2026-01-30 01:30:59.97	27.36	3.56	-52.8	-67.7	3.8	1.49e+00	0	40	104	0	77	19739
2026-01-30 01:31:00.98	27.34	3.63	-52.3	-67.2	3.8	1.49e+00	0	40	104	0	76	19648
2026-01-30 01:31:01.99	27.33	3.70	-52.0	-66.3	3.8	1.49e+00	0	40	104	0	76	17700
2026-01-30 01:31:03.00	27.31	3.77	-51.9	-65.8	3.8	1.49e+00	0	40	104	0	75	17778
2026-01-30 01:31:04.01	27.29	3.83	-51.9	-65.7	3.8	1.49e+00	0	40	104	0	75	17570
2026-01-30 01:31:05.01	27.27	3.90	-51.9	-65.4	3.8	1.49e+00	0	40	104	0	75	16977
2026-01-30 01:31:06.02	27.26	3.97	-51.9	-65.5	3.8	1.49e+00	0	40	104	0	75	17122
2026-01-30 01:31:07.03	27.24	4.04	-51.9	-65.6	3.8	1.49e+00	0	40	104	0	75	17413
2026-01-30 01:31:08.04	27.22	4.11	-51.9	-65.9	3.8	1.49e+00	0	40	104	0	75	17988
2026-01-30 01:31:09.04	27.20	4.18	-51.9	-66.2	3.8	1.49e+00	0	40	104	0	75	18641
2026-01-30 01:31:10.05	27.18	4.25	-51.9	-66.4	3.8	1.49e+00	0	40	104	0	75	19158
2026-01-30 01:31:11.06	27.17	4.32	-51.9	-66.2	3.8	1.49e+00	0	40	104	0	75	18726
2026-01-30 01:31:12.07	27.15	4.39	-51.9	-65.2	3.8	1.49e+00	0	40	104	0	75	16564
2026-01-30 01:31:13.08	27.13	4.46	-51.8	-63.5	4.1	1.47e+00	0	40	104	0	75	13714
2026-01-30 01:31:14.08	27.11	4.52	-51.6	-61.4	5.0	1.05e+00	0	40	0	1048576	75	10696
2026-01-30 01:31:15.09	27.09	4.59	-51.2	-59.3	6.4	4.86e-01	0	40	0	3145728	74	8875
2026-01-30 01:31:16.10	27.07	4.66	-51.0	-58.0	7.5	1.26e-01	0	40	0	4194304	74	7670
2026-01-30 01:31:17.10	27.05	4.73	-50.5	-56.3	9.2	3.45e-02	0	40	0	6291456	73	6702
2026-01-30 01:31:18.11	27.03	4.81	-50.0	-54.8	10.8	1.05e-02	0	40	0	8388608	72	5958
2026-01-30 01:31:19.12	27.01	4.88	-49.9	-54.5	11.2	1.56e-03	0	40	0	10485760	71	6086
2026-01-30 01:31:20.13	26.99	4.95	-49.4	-53.2	12.6	3.11e-04	0	40	0	12582912	70	5550
2026-01-30 01:31:21.14	26.98	5.02	-49.2	-52.9	12.9	6.56e-05	0	40	0	13631488	70	5380
2026-01-30 01:31:22.15	26.96	5.09	-51.9	-65.3	3.8	1.49e+00	0	40	104	14680064	74	17836
2026-01-30 01:31:23.16	26.94	5.16	-47.2	-49.5	16.1	7.29e-02	0	40	0	14680064	66	4583
2026-01-30 01:31:24.16	26.92	5.23	-51.6	-62.4	4.4	1.57e-01	32	40	0	15728640	73	13462
2026-01-30 01:31:25.17	26.90	5.30	-51.6	-60.3	5.5	6.92e-02	0	40	0	17825792	74	9950
2026-01-30 01:31:26.18	26.88	5.38	-47.0	-49.2	16.3	0.00e+00	0	40	0	19922944	64	4962
2026-01-30 01:31:27.19	26.86	5.45	-46.4	-48.4	17.2	0.00e+00	0	40	0	22020096	64	4508
2026-01-30 01:31:28.19	26.84	5.52	-46.1	-48.0	17.6	0.00e+00	0	40	0	24117248	64	4321
2026-01-30 01:31:29.20	26.82	5.59	-46.1	-48.1	17.6	0.00e+00	0	40	0	25165824	63	4600
2026-01-30 01:31:30.21	26.79	5.67	-45.9	-47.7	18.0	0.00e+00	0	40	0	27262976	63	4438
2026-01-30 01:31:31.22	26.77	5.74	-46.0	-47.8	17.9	0.00e+00	0	40	0	29360128	63	4481
2026-01-30 01:31:32.23	26.75	5.81	-45.8	-47.6	18.2	0.00e+00	0	40	0	31457280	63	4348
2026-01-30 01:31:33.23	26.73	5.89	-45.8	-47.5	18.2	0.00e+00	0	40	0	33554432	63	4337
2026-01-30 01:31:34.24	26.71	5.96	-45.7	-47.5	18.2	0.00e+00	0	41	0	35651584	63	4318
2026-01-30 01:31:35.24	26.69	6.03	-45.9	-47.6	18.1	0.00e+00	0	40	0	36700160	63	4388
2026-01-30 01:31:36.25	26.67	6.11	-45.9	-47.7	18.1	0.00e+00	0	40	0	38797312	63	4419
2026-01-30 01:31:37.25	26.65	6.18	-45.9	-47.7	18.1	0.00e+00	0	40	0	40894464	63	4406
2026-01-30 01:31:38.25	26.63	6.26	-45.7	-47.4	18.4	0.00e+00	0	40	0	42991616	63	4265
2026-01-30 01:31:39.26	26.60	6.33	-45.9	-47.6	18.1	0.00e+00	0	41	0	45088768	63	4388
2026-01-30 01:31:40.27	26.58	6.41	-45.6	-47.3	18.5	0.00e+00	0	41	0	46137344	63	4197
2026-01-30 01:31:41.28	26.56	6.48	-45.6	-47.3	18.6	0.00e+00	0	41	0	48234496	63	4197
2026-01-30 01:31:42.29	26.54	6.56	-45.6	-47.3	18.5	0.00e+00	0	40	0	50331648	63	4208
2026-01-30 01:31:43.29	26.52	6.63	-45.5	-47.1	18.7	0.00e+00	0	40	0	52428800	63	4137
2026-01-30 01:31:44.30	26.49	6.71	-45.5	-47.2	18.7	0.00e+00	0	41	0	53477376	62	4421
2026-01-30 01:31:45.30	26.47	6.78	-45.5	-47.1	18.7	0.00e+00	0	40	0	55574528	62	4379
2026-01-30 01:31:46.31	26.45	6.86	-45.3	-46.9	18.9	0.00e+00	0	40	0	57671680	62	4274
2026-01-30 01:31:47.31	26.43	6.93	-45.4	-47.1	18.8	0.00e+00	0	41	0	59768832	62	4365
2026-01-30 01:31:48.32	26.40	7.01	-45.3	-46.9	19.0	0.00e+00	0	41	0	61865984	62	4267
2026-01-30 01:31:49.32	26.38	7.09	-45.4	-47.1	18.9	0.00e+00	0	41	0	63963136	62	4345
2026-01-30 01:31:50.33	26.36	7.16	-45.3	-46.9	19.0	0.00e+00	0	41	0	65011712	62	4272
2026-01-30 01:31:51.34	26.33	7.24	-45.4	-47.0	18.9	0.00e+00	0	41	0	67108864	62	4305
2026-01-30 01:31:52.35	26.31	7.32	-45.1	-46.7	19.2	0.00e+00	0	41	0	69206016	62	4169
2026-01-30 01:31:53.35	26.29	7.40	-45.1	-46.7	19.2	0.00e+00	0	40	0	71303168	62	4154
2026-01-30 01:31:54.36	26.26	7.47	-45.1	-46.7	19.2	0.00e+00	0	41	0	73400320	62	4159
2026-01-30 01:31:55.37	26.24	7.55	-45.2	-46.8	19.1	0.00e+00	0	41	0	74448896	62	4213
2026-01-30 01:31:56.37	26.21	7.63	-45.1	-46.6	19.3	0.00e+00	0	41	0	76546048	62	4138
2026-01-30 01:31:57.38	26.19	7.71	-45.1	-46.6	19.3	0.00e+00	0	40	0	78643200	62	4114
2026-01-30 01:31:58.39	26.17	7.79	-45.0	-46.5	19.4	0.00e+00	0	41	0	80740352	62	4096
2026-01-30 01:31:59.40	26.14	7.87	-45.0	-46.5	19.4	0.00e+00	0	41	0	81788928	61	4315
2026-01-30 01:32:00.40	26.12	7.95	-44.9	-46.4	19.5	0.00e+00	0	41	0	83886080	61	4259
2026-01-30 01:32:01.41	26.09	8.03	-44.8	-46.3	19.6	0.00e+00	0	41	0	85983232	61	4227
2026-01-30 01:32:02.42	26.07	8.11	-44.7	-46.1	19.8	0.00e+00	0	40	0	88080384	61	4143
2026-01-30 01:32:03.43	26.04	8.19	-44.9	-46.4	19.6	0.00e+00	0	41	0	90177536	61	4256
2026-01-30 01:32:04.43	26.02	8.27	-45.1	-46.6	19.4	0.00e+00	0	41	0	92274688	61	4352
2026-01-30 01:32:05.44	25.99	8.35	-44.7	-46.1	19.8	0.00e+00	0	41	0	93323264	61	4140
2026-01-30 01:32:06.44	25.96	8.43	-45.2	-46.8	19.2	0.00e+00	0	41	0	95420416	61	4447
2026-01-30 01:32:07.45	25.94	8.51	-45.3	-46.8	19.1	0.00e+00	0	41	0	97517568	61	4484
2026-01-30 01:32:08.45	25.91	8.59	-44.9	-46.3	19.7	0.00e+00	0	41	0	99614720	61	4231
2026-01-30 01:32:09.46	25.89	8.67	-44.9	-46.4	19.6	0.00e+00	0	41	0	101711872	61	4247
2026-01-30 01:32:10.47	25.86	8.75	-44.8	-46.3	19.7	0.00e+00	0	41	0	102760448	61	4210
2026-01-30 01:32:11.47	25.83	8.83	-44.8	-46.3	19.7	0.00e+00	0	41	0	104857600	61	4199
2026-01-30 01:32:12.48	25.81	8.92	-44.8	-46.2	19.7	0.00e+00	0	41	0	106954752	61	4189
2026-01-30 01:32:13.48	25.78	9.00	-44.6	-46.0	19.9	0.00e+00	0	41	0	109051904	61	4079
2026-01-30 01:32:14.49	25.75	9.08	-44.7	-46.2	19.8	0.00e+00	0	41	0	110100480	61	4156
2026-01-30 01:32:15.50	25.73	9.17	-44.7	-46.1	19.9	0.00e+00	0	41	0	112197632	61	4130
2026-01-30 01:32:16.50	25.70	9.25	-44.6	-46.0	20.0	0.00e+00	0	41	0	114294784	61	4071
2026-01-30 01:32:17.51	25.67	9.33	-44.7	-46.1	19.9	0.00e+00	0	41	0	116391936	61	4141
2026-01-30 01:32:18.52	25.64	9.42	-44.5	-45.9	20.1	0.00e+00	0	41	0	118489088	61	4029
2026-01-30 01:32:19.53	25.61	9.50	-44.4	-45.8	20.2	0.00e+00	0	41	0	120586240	60	4194
2026-01-30 01:32:20.53	25.59	9.59	-44.4	-45.7	20.3	0.00e+00	0	41	0	121634816	60	4182
2026-01-30 01:32:21.54	25.56	9.67	-44.3	-45.7	20.3	0.00e+00	0	41	0	123731968	60	4150
2026-01-30 01:32:22.54	25.53	9.76	-44.4	-45.8	20.2	0.00e+00	0	41	0	125829120	60	4224
2026-01-30 01:32:23.55	25.50	9.84	-44.5	-45.9	20.2	0.00e+00	0	41	0	127926272	60	4252
2026-01-30 01:32:24.56	25.47	9.93	-44.3	-45.6	20.4	0.00e+00	0	41	0	130023424	60	4134
2026-01-30 01:32:25.56	25.44	10.01	-44.2	-45.5	20.5	0.00e+00	0	41	0	131072000	60	4065
2026-01-30 01:32:26.57	25.41	10.10	-44.3	-45.6	20.4	0.00e+00	0	41	0	133169152	60	4134
2026-01-30 01:32:27.58	25.38	10.19	-44.3	-45.6	20.4	0.00e+00	0	41	0	135266304	60	4130
2026-01-30 01:32:28.58	25.35	10.27	-44.3	-45.6	20.4	0.00e+00	0	41	0	137363456	60	4144
2026-01-30 01:32:29.59	25.32	10.36	-44.1	-45.4	20.5	0.00e+00	0	41	0	138412032	60	4045
2026-01-30 01:32:30.60	25.29	10.45	-44.2	-45.5	20.5	0.00e+00	0	41	0	140509184	60	4096
2026-01-30 01:32:31.60	25.26	10.53	-44.0	-45.3	20.7	0.00e+00	0	41	0	142606336	60	3976
2026-01-30 01:32:32.61	25.23	10.62	-44.4	-45.7	20.6	0.00e+00	0	41	0	144703488	59	4406
2026-01-30 01:32:33.61	25.20	10.71	-44.4	-45.8	20.6	0.00e+00	0	41	0	146800640	59	4449
2026-01-30 01:32:34.62	25.17	10.80	-44.5	-45.8	20.5	0.00e+00	0	41	0	148897792	59	4474
2026-01-30 01:32:35.63	25.14	10.89	-44.7	-46.0	20.4	0.00e+00	0	41	0	149946368	59	4585
2026-01-30 01:32:36.64	25.11	10.98	-44.5	-45.8	20.5	0.00e+00	0	41	0	152043520	59	4467
2026-01-30 01:32:37.64	25.08	11.07	-44.2	-45.5	20.8	0.00e+00	0	41	0	154140672	59	4303
2026-01-30 01:32:38.65	25.05	11.16	-44.2	-45.5	20.9	0.00e+00	0	41	0	156237824	59	4294
2026-01-30 01:32:39.65	25.01	11.25	-44.2	-45.5	20.9	0.00e+00	0	41	0	158334976	59	4298
2026-01-30 01:32:40.66	24.98	11.34	-44.1	-45.3	21.0	0.00e+00	0	41	0	159383552	59	4228
2026-01-30 01:32:41.66	24.95	11.43	-44.1	-45.3	20.9	0.00e+00	0	41	0	161480704	59	4237
2026-01-30 01:32:42.67	24.92	11.52	-44.0	-45.2	21.0	0.00e+00	0	41	0	163577856	59	4187
2026-01-30 01:32:43.68	24.88	11.61	-44.1	-45.3	21.0	0.00e+00	0	41	0	165675008	59	4242
2026-01-30 01:32:44.68	24.85	11.70	-44.0	-45.2	21.1	0.00e+00	0	41	0	166723584	59	4169
2026-01-30 01:32:45.69	24.82	11.79	-43.9	-45.1	21.2	0.00e+00	0	41	0	168820736	59	4129
2026-01-30 01:32:46.69	24.78	11.89	-43.9	-45.1	21.2	0.00e+00	0	41	0	170917888	59	4118
2026-01-30 01:32:47.70	24.75	11.98	-43.9	-45.1	21.2	0.00e+00	0	41	0	173015040	59	4136
2026-01-30 01:32:48.70	24.72	12.07	-43.8	-45.0	21.3	0.00e+00	0	41	0	175112192	59	4071
2026-01-30 01:32:49.71	24.68	12.17	-43.8	-45.0	21.3	0.00e+00	0	41	0	177209344	59	4054
2026-01-30 01:32:50.71	24.65	12.26	-43.9	-45.1	21.2	0.00e+00	0	41	0	178257920	59	4138
2026-01-30 01:32:51.72	24.61	12.35	-43.9	-45.1	21.2	0.00e+00	0	41	0	180355072	59	4131
2026-01-30 01:32:52.73	24.58	12.45	-43.8	-45.0	21.3	0.00e+00	0	41	0	182452224	59	4071
2026-01-30 01:32:53.74	24.54	12.54	-43.8	-45.0	21.3	0.00e+00	0	41	0	184549376	59	4081
2026-01-30 01:32:54.74	24.51	12.64	-43.9	-45.1	21.3	0.00e+00	0	41	0	186646528	59	4108
2026-01-30 01:32:55.74	24.47	12.73	-43.9	-45.1	21.2	0.00e+00	0	41	0	187695104	59	4142
2026-01-30 01:32:56.75	24.43	12.83	-43.9	-45.1	21.2	0.00e+00	0	41	0	189792256	59	4144
2026-01-30 01:32:57.76	24.40	12.93	-43.8	-45.0	21.3	0.00e+00	0	41	0	191889408	59	4066
2026-01-30 01:32:58.77	24.36	13.02	-43.8	-45.0	21.3	0.00e+00	0	41	0	193986560	59	4093
2026-01-30 01:32:59.77	24.32	13.12	-43.9	-45.1	21.3	0.00e+00	0	41	0	195035136	59	4125
2026-01-30 01:33:00.78	24.29	13.22	-43.7	-44.9	21.5	0.00e+00	0	41	0	197132288	59	4027
2026-01-30 01:33:01.78	24.25	13.31	-43.6	-44.8	21.5	0.00e+00	0	41	0	199229440	59	3987
2026-01-30 01:33:02.79	24.21	13.41	-43.7	-44.8	21.5	0.00e+00	0	41	0	201326592	59	3998
2026-01-30 01:33:03.80	24.17	13.51	-43.7	-44.9	21.4	0.00e+00	0	41	0	203423744	59	4041
2026-01-30 01:33:04.80	24.14	13.61	-43.7	-44.9	21.4	0.00e+00	0	41	0	204472320	59	4041
2026-01-30 01:33:05.81	24.10	13.71	-43.8	-44.9	21.4	0.00e+00	0	41	0	206569472	59	4049
2026-01-30 01:33:06.81	24.06	13.81	-43.7	-44.9	21.5	0.00e+00	0	41	0	208666624	59	4027
2026-01-30 01:33:07.82	24.02	13.91	-43.8	-45.0	21.4	0.00e+00	0	41	0	210763776	59	4054
2026-01-30 01:33:08.83	23.98	14.01	-43.8	-45.0	21.4	0.00e+00	0	41	0	212860928	59	4071
2026-01-30 01:33:09.83	23.94	14.11	-43.9	-45.1	21.3	0.00e+00	0	41	0	214958080	59	4103
2026-01-30 01:33:10.84	23.90	14.21	-43.8	-45.0	21.4	0.00e+00	0	41	0	216006656	59	4070
2026-01-30 01:33:11.84	23.86	14.31	-43.9	-45.1	21.3	0.00e+00	0	41	0	218103808	59	4135
2026-01-30 01:33:12.85	23.82	14.42	-43.8	-45.0	21.4	0.00e+00	0	41	0	220200960	59	4084
2026-01-30 01:33:13.86	23.78	14.52	-43.9	-45.1	21.4	0.00e+00	0	41	0	222298112	59	4111
2026-01-30 01:33:14.87	23.74	14.62	-43.7	-44.9	21.5	0.00e+00	0	41	0	223346688	59	4033
2026-01-30 01:33:15.87	23.70	14.73	-43.8	-45.0	21.4	0.00e+00	0	41	0	225443840	59	4066
2026-01-30 01:33:16.88	23.65	14.83	-43.7	-44.9	21.5	0.00e+00	0	41	0	227540992	59	4024
2026-01-30 01:33:17.88	23.61	14.93	-43.7	-44.9	21.5	0.00e+00	0	41	0	229638144	59	4042
2026-01-30 01:33:18.89	23.57	15.04	-43.9	-45.1	21.3	0.00e+00	0	41	0	231735296	59	4130
2026-01-30 01:33:19.89	23.53	15.14	-43.7	-44.9	21.5	0.00e+00	0	41	0	232783872	59	4022
2026-01-30 01:33:20.89	23.48	15.25	-43.7	-44.8	21.6	0.00e+00	0	41	0	234881024	59	3996
2026-01-30 01:33:21.90	23.44	15.35	-43.8	-45.0	21.5	0.00e+00	0	41	0	236978176	59	4060
2026-01-30 01:33:22.90	23.40	15.46	-43.8	-45.0	21.5	0.00e+00	0	41	0	239075328	59	4071
2026-01-30 01:33:23.91	23.35	15.57	-43.6	-44.8	21.6	0.00e+00	0	41	0	241172480	59	3978
2026-01-30 01:33:24.92	23.31	15.67	-43.8	-45.0	21.3	0.00e+00	0	41	0	243269632	59	4077
2026-01-30 01:33:25.92	23.26	15.78	-43.6	-44.7	21.6	0.00e+00	0	41	0	244318208	59	3937
2026-01-30 01:33:26.93	23.22	15.89	-43.6	-44.7	21.7	0.00e+00	0	41	0	246415360	59	3944
2026-01-30 01:33:27.94	23.17	16.00	-43.4	-44.5	21.9	0.00e+00	0	41	0	248512512	58	4059
2026-01-30 01:33:28.94	23.13	16.11	-43.4	-44.5	21.9	0.00e+00	0	41	0	250609664	58	4088
2026-01-30 01:33:29.95	23.08	16.22	-43.4	-44.5	21.9	0.00e+00	0	41	0	251658240	58	4087
2026-01-30 01:33:30.96	23.03	16.33	-43.4	-44.5	21.9	0.00e+00	0	41	0	253755392	58	4077
2026-01-30 01:33:31.97	22.98	16.44	-43.4	-44.5	21.9	0.00e+00	0	41	0	255852544	58	4062
2026-01-30 01:33:32.98	22.94	16.55	-43.4	-44.5	21.9	0.00e+00	0	41	0	257949696	58	4073
2026-01-30 01:33:33.99	22.89	16.66	-43.3	-44.4	22.0	0.00e+00	0	41	0	260046848	58	4007
2026-01-30 01:33:34.99	22.84	16.77	-43.4	-44.5	21.9	0.00e+00	0	41	0	261095424	58	4094
2026-01-30 01:33:36.00	22.79	16.89	-43.4	-44.5	21.9	0.00e+00	0	41	0	263192576	58	4070
2026-01-30 01:33:37.01	22.74	17.00	-43.4	-44.6	21.9	0.00e+00	0	41	0	265289728	58	4101
2026-01-30 01:33:38.01	22.69	17.11	-43.5	-44.6	21.8	0.00e+00	0	41	0	267386880	58	4129
2026-01-30 01:33:39.02	22.64	17.23	-43.4	-44.6	21.9	0.00e+00	0	41	0	269484032	58	4099
2026-01-30 01:33:40.02	22.59	17.34	-43.5	-44.7	21.8	0.00e+00	0	41	0	271581184	58	4147
2026-01-30 01:33:41.03	22.54	17.46	-43.4	-44.6	21.9	0.00e+00	0	41	0	272629760	58	4106
2026-01-30 01:33:42.04	22.49	17.57	-43.3	-44.5	22.1	0.00e+00	0	41	0	274726912	58	4053
2026-01-30 01:33:43.04	22.44	17.69	-43.5	-44.7	21.8	0.00e+00	0	41	0	276824064	58	4163
2026-01-30 01:33:44.05	22.39	17.81	-43.5	-44.6	21.8	0.00e+00	0	41	0	278921216	58	4137
2026-01-30 01:33:45.05	22.34	17.92	-43.4	-44.5	22.0	0.00e+00	0	41	0	279969792	58	4066
2026-01-30 01:33:46.06	22.28	18.04	-43.5	-44.7	21.8	0.00e+00	0	41	0	282066944	58	4164
2026-01-30 01:33:47.07	22.23	18.16	-43.5	-44.6	21.9	0.00e+00	0	41	0	284164096	58	4136
2026-01-30 01:33:48.08	22.18	18.28	-43.6	-44.7	21.8	0.00e+00	0	41	0	286261248	58	4193
2026-01-30 01:33:49.09	22.12	18.40	-43.5	-44.6	21.8	0.00e+00	0	41	0	288358400	58	4130
2026-01-30 01:33:50.09	22.07	18.52	-43.3	-44.4	22.0	0.00e+00	0	41	0	289406976	58	4037
2026-01-30 01:33:51.10	22.01	18.64	-43.5	-44.7	21.8	0.00e+00	0	41	0	291504128	58	4154
2026-01-30 01:33:52.11	21.96	18.76	-43.6	-44.8	21.8	0.00e+00	0	41	0	293601280	58	4208
2026-01-30 01:33:53.12	21.90	18.88	-43.6	-44.8	21.7	0.00e+00	0	41	0	295698432	58	4216
2026-01-30 01:33:54.12	21.84	19.00	-43.7	-44.9	21.7	0.00e+00	0	41	0	297795584	58	4253
2026-01-30 01:33:55.13	21.79	19.13	-43.8	-45.0	21.6	0.00e+00	0	41	0	299892736	58	4305
2026-01-30 01:33:56.13	21.73	19.25	-44.0	-45.2	21.4	0.00e+00	0	41	0	300941312	58	4409
2026-01-30 01:33:57.14	21.67	19.37	-43.9	-45.2	21.4	0.00e+00	0	41	0	303038464	58	4402
2026-01-30 01:33:58.15	21.61	19.50	-43.8	-45.0	21.6	0.00e+00	0	41	0	305135616	58	4319
2026-01-30 01:33:59.16	21.55	19.63	-44.1	-45.4	21.3	0.00e+00	0	41	0	307232768	58	4517
2026-01-30 01:34:00.16	21.49	19.75	-44.2	-45.5	21.2	0.00e+00	0	41	0	308281344	59	4332
2026-01-30 01:34:01.17	21.43	19.88	-44.2	-45.5	21.2	0.00e+00	0	41	0	310378496	59	4299
2026-01-30 01:34:02.18	21.37	20.00	-44.1	-45.4	21.3	0.00e+00	0	41	0	312475648	59	4264
2026-01-30 01:34:03.19	21.31	20.13	-44.1	-45.3	21.3	0.00e+00	0	41	0	314572800	59	4221
2026-01-30 01:34:04.19	21.25	20.26	-44.1	-45.4	21.3	0.00e+00	0	41	0	316669952	59	4244
2026-01-30 01:34:05.20	21.19	20.39	-44.0	-45.2	21.4	0.00e+00	0	41	0	317718528	59	4175
2026-01-30 01:34:06.21	21.13	20.52	-43.8	-45.0	21.6	0.00e+00	0	41	0	319815680	59	4083
2026-01-30 01:34:07.21	21.06	20.65	-43.9	-45.0	21.6	0.00e+00	0	41	0	321912832	59	4098
2026-01-30 01:34:08.22	21.00	20.78	-43.8	-45.0	21.7	0.00e+00	0	41	0	324009984	59	4074
2026-01-30 01:34:09.22	20.93	20.91	-43.8	-45.0	21.7	0.00e+00	0	41	0	326107136	59	4065
2026-01-30 01:34:10.23	20.87	21.04	-44.0	-45.2	21.5	0.00e+00	0	41	0	328204288	59	4148
2026-01-30 01:34:11.23	20.80	21.17	-43.8	-45.0	21.7	0.00e+00	0	41	0	329252864	59	4073
2026-01-30 01:34:12.24	20.74	21.31	-43.9	-45.1	21.6	0.00e+00	0	41	0	331350016	59	4119
2026-01-30 01:34:13.25	20.67	21.44	-43.9	-45.1	21.6	0.00e+00	0	41	0	333447168	59	4112
2026-01-30 01:34:14.26	20.60	21.58	-43.8	-44.9	21.7	0.00e+00	0	41	0	335544320	59	4049
2026-01-30 01:34:15.27	20.53	21.71	-44.2	-45.4	21.3	0.00e+00	0	41	0	336592896	59	4272
2026-01-30 01:34:16.27	20.47	21.85	-44.2	-45.5	21.3	0.00e+00	0	41	0	338690048	59	4305
2026-01-30 01:34:17.28	20.40	21.99	-44.2	-45.5	21.3	0.00e+00	0	41	0	340787200	59	4297
2026-01-30 01:34:18.28	20.33	22.12	-44.3	-45.6	21.1	0.00e+00	0	41	0	342884352	59	4369
2026-01-30 01:34:19.29	20.26	22.26	-44.3	-45.6	21.2	0.00e+00	0	41	0	344981504	59	4343
2026-01-30 01:34:20.30	20.18	22.40	-44.4	-45.7	21.1	0.00e+00	0	41	0	346030080	59	4409
2026-01-30 01:34:21.30	20.11	22.54	-44.4	-45.6	21.1	0.00e+00	0	41	0	348127232	59	4376
2026-01-30 01:34:22.31	20.04	22.68	-44.2	-45.4	21.3	0.00e+00	0	41	0	350224384	59	4265
2026-01-30 01:34:23.31	19.97	22.82	-44.4	-45.6	21.2	0.00e+00	0	41	0	352321536	59	4369
2026-01-30 01:34:24.32	19.89	22.96	-44.2	-45.4	21.3	0.00e+00	0	41	0	354418688	59	4266
2026-01-30 01:34:25.33	19.82	23.10	-43.9	-45.1	21.6	0.00e+00	0	41	0	356515840	59	4114
2026-01-30 01:34:26.34	19.74	23.25	-43.9	-45.0	21.6	0.00e+00	0	41	0	357564416	59	4097
2026-01-30 01:34:27.34	19.67	23.39	-43.7	-44.8	21.8	0.00e+00	0	41	0	359661568	59	3976
2026-01-30 01:34:28.35	19.59	23.53	-43.7	-44.9	21.7	0.00e+00	0	41	0	361758720	58	4249
2026-01-30 01:34:29.36	19.51	23.68	-43.9	-45.0	21.6	0.00e+00	0	41	0	363855872	58	4335
2026-01-30 01:34:30.36	19.43	23.83	-43.7	-44.9	21.8	0.00e+00	0	41	0	364904448	58	4247
2026-01-30 01:34:31.37	19.35	23.97	-44.1	-45.4	21.3	0.00e+00	0	41	0	367001600	58	4512
2026-01-30 01:34:32.38	19.27	24.12	-44.4	-45.6	21.1	0.00e+00	0	41	0	369098752	59	4378
2026-01-30 01:34:33.38	19.19	24.27	-44.5	-45.8	21.0	0.00e+00	0	41	0	371195904	59	4448
2026-01-30 01:34:34.39	19.11	24.42	-44.7	-46.1	20.8	0.00e+00	0	41	0	373293056	59	4606
2026-01-30 01:34:35.40	19.03	24.57	-44.3	-45.6	20.9	0.00e+00	0	41	0	374341632	60	4101
2026-01-30 01:34:36.41	18.94	24.72	-44.3	-45.6	20.9	0.00e+00	0	41	0	376438784	60	4121
2026-01-30 01:34:37.41	18.86	24.87	-44.5	-45.7	20.8	0.00e+00	0	41	0	378535936	60	4192
2026-01-30 01:34:38.42	18.77	25.02	-44.5	-45.8	20.5	0.00e+00	0	41	0	380633088	60	4226
2026-01-30 01:34:39.43	18.69	25.18	-44.7	-46.0	20.6	0.00e+00	0	41	0	382730240	60	4327
2026-01-30 01:34:40.43	18.60	25.33	-44.6	-45.9	20.7	0.00e+00	0	41	0	384827392	60	4251
2026-01-30 01:34:41.44	18.51	25.49	-44.8	-46.1	20.6	0.00e+00	0	41	0	385875968	60	4376
2026-01-30 01:34:42.45	18.43	25.64	-44.9	-46.3	20.3	0.00e+00	0	41	0	387973120	60	4449
2026-01-30 01:34:43.45	18.34	25.80	-44.6	-45.9	20.6	0.00e+00	0	41	0	390070272	60	4281
2026-01-30 01:34:44.45	18.25	25.95	-44.9	-46.3	20.3	0.00e+00	0	41	0	392167424	60	4460
2026-01-30 01:34:45.46	18.15	26.11	-45.0	-46.3	20.3	0.00e+00	0	41	0	393216000	60	4489
2026-01-30 01:34:46.46	18.06	26.27	-44.7	-45.9	20.7	0.00e+00	0	41	0	395313152	60	4289
2026-01-30 01:34:47.47	17.97	26.43	-45.1	-46.4	20.2	0.00e+00	0	41	0	397410304	60	4545
2026-01-30 01:34:48.48	17.88	26.59	-45.1	-46.5	20.1	0.00e+00	0	41	0	399507456	61	4312
2026-01-30 01:34:49.49	17.78	26.75	-44.9	-46.3	20.4	0.00e+00	0	41	0	401604608	61	4210
2026-01-30 01:34:50.50	17.68	26.92	-45.2	-46.6	20.1	0.00e+00	0	41	0	402653184	61	4343
2026-01-30 01:34:51.50	17.59	27.08	-45.2	-46.6	20.0	0.00e+00	0	41	0	404750336	61	4386
2026-01-30 01:34:52.51	17.49	27.24	-45.2	-46.6	20.1	0.00e+00	0	41	0	406847488	61	4357
2026-01-30 01:34:53.52	17.39	27.41	-45.2	-46.6	20.0	0.00e+00	0	41	0	408944640	61	4353
2026-01-30 01:34:54.53	17.29	27.58	-45.1	-46.5	20.2	0.00e+00	0	41	0	411041792	61	4322
2026-01-30 01:34:55.54	17.19	27.74	-45.3	-46.6	20.1	0.00e+00	0	41	0	413138944	61	4388
2026-01-30 01:34:56.54	17.08	27.91	-45.1	-46.5	20.2	0.00e+00	0	41	0	414187520	61	4325
2026-01-30 01:34:57.55	16.98	28.08	-44.8	-46.1	20.5	0.00e+00	0	41	0	416284672	61	4116
2026-01-30 01:34:58.56	16.87	28.25	-44.6	-45.9	20.7	0.00e+00	0	41	0	418381824	61	4024
2026-01-30 01:34:59.56	16.77	28.42	-44.4	-45.6	20.9	0.00e+00	0	41	0	420478976	60	4145
2026-01-30 01:35:00.57	16.66	28.59	-44.4	-45.6	20.9	0.00e+00	0	41	0	421527552	60	4126
2026-01-30 01:35:01.58	16.55	28.77	-44.3	-45.5	21.0	0.00e+00	0	41	0	423624704	60	4074
2026-01-30 01:35:02.59	16.44	28.94	-44.4	-45.6	20.9	0.00e+00	0	41	0	425721856	60	4120
2026-01-30 01:35:03.60	16.33	29.11	-44.3	-45.5	20.9	0.00e+00	0	41	0	427819008	60	4094
2026-01-30 01:35:04.61	16.22	29.29	-44.7	-46.0	20.6	0.00e+00	0	41	0	429916160	60	4314
2026-01-30 01:35:05.61	16.11	29.47	-44.9	-46.2	20.4	0.00e+00	0	41	0	432013312	60	4414
2026-01-30 01:35:06.63	15.99	29.65	-45.1	-46.4	20.2	0.00e+00	0	41	0	433061888	60	4540
2026-01-30 01:35:07.63	15.87	29.82	-45.3	-46.6	20.0	0.00e+00	0	41	0	435159040	61	4391
2026-01-30 01:35:08.64	15.76	30.00	-45.5	-46.9	19.8	0.00e+00	0	41	0	437256192	61	4518
2026-01-30 01:35:09.65	15.64	30.18	-46.0	-47.6	19.3	0.00e+00	0	41	0	439353344	62	4601
2026-01-30 01:35:10.66	15.52	30.37	-46.2	-47.9	18.9	0.00e+00	0	41	0	441450496	63	4495
2026-01-30 01:35:11.66	15.40	30.55	-46.1	-47.7	19.1	0.00e+00	0	41	0	442499072	63	4416
2026-01-30 01:35:12.67	15.27	30.73	-46.7	-48.5	18.5	0.00e+00	0	41	0	444596224	63	4817
2026-01-30 01:35:13.68	15.15	30.92	-46.5	-48.2	18.7	0.00e+00	0	41	0	446693376	63	4672
2026-01-30 01:35:14.69	15.02	31.10	-46.4	-48.1	18.9	0.00e+00	0	41	0	448790528	63	4603
2026-01-30 01:35:15.69	14.89	31.29	-46.4	-48.2	18.7	0.00e+00	0	41	0	449839104	64	4396
2026-01-30 01:35:16.69	14.77	31.47	-46.6	-48.4	18.5	0.00e+00	0	41	0	451936256	64	4532
2026-01-30 01:35:17.70	14.64	31.66	-46.9	-48.7	18.2	0.00e+00	0	41	0	454033408	64	4697
2026-01-30 01:35:18.71	14.50	31.85	-47.0	-48.9	18.0	0.00e+00	0	41	0	456130560	65	4524
2026-01-30 01:35:19.72	14.37	32.04	-47.0	-48.9	18.0	0.00e+00	0	41	0	458227712	65	4499
2026-01-30 01:35:20.73	14.23	32.24	-47.4	-49.4	17.5	0.00e+00	0	41	0	460324864	65	4761
2026-01-30 01:35:21.73	14.10	32.43	-47.1	-48.9	18.0	0.00e+00	0	41	0	461373440	65	4525
2026-01-30 01:35:22.74	13.96	32.62	-46.7	-48.5	18.4	0.00e+00	0	41	0	463470592	65	4292
2026-01-30 01:35:23.74	13.82	32.81	-46.7	-48.4	18.4	0.00e+00	0	41	0	465567744	65	4277
2026-01-30 01:35:24.75	13.68	33.01	-46.5	-48.2	18.6	0.00e+00	0	41	0	467664896	65	4167
2026-01-30 01:35:25.76	13.53	33.21	-46.5	-48.2	18.5	0.00e+00	0	41	0	469762048	64	4418
2026-01-30 01:35:26.77	13.39	33.41	-46.2	-47.9	18.8	0.00e+00	0	41	0	470810624	64	4277
2026-01-30 01:35:27.77	13.24	33.60	-46.9	-48.8	17.9	0.00e+00	0	41	0	472907776	64	4748
2026-01-30 01:35:28.78	13.09	33.81	-46.8	-48.7	18.0	0.00e+00	0	41	0	475004928	64	4663
2026-01-30 01:35:29.79	12.94	34.01	-47.2	-49.3	17.5	0.00e+00	0	41	0	477102080	65	4751
2026-01-30 01:35:30.80	12.78	34.21	-47.6	-49.9	16.9	0.00e+00	0	41	0	478150656	65	5048
2026-01-30 01:35:31.80	12.63	34.41	-47.2	-49.2	17.6	0.00e+00	0	41	0	480247808	65	4700
2026-01-30 01:35:32.81	12.47	34.62	-47.3	-49.4	17.4	0.00e+00	0	41	0	482344960	65	4780
2026-01-30 01:35:33.81	12.31	34.82	-47.3	-49.4	17.5	0.00e+00	0	41	0	484442112	65	4772
2026-01-30 01:35:34.82	12.15	35.03	-47.3	-49.5	17.4	0.00e+00	0	41	0	486539264	65	4823
2026-01-30 01:35:35.82	11.99	35.23	-47.7	-50.0	16.9	0.00e+00	0	41	0	488636416	65	5138
2026-01-30 01:35:36.83	11.82	35.44	-47.2	-49.2	17.7	0.00e+00	0	41	0	489684992	66	4439
2026-01-30 01:35:37.84	11.66	35.65	-48.2	-50.8	16.2	0.00e+00	0	41	0	491782144	66	5284
2026-01-30 01:35:38.85	11.49	35.87	-48.7	-51.5	15.5	0.00e+00	0	41	0	493879296	67	5449
2026-01-30 01:35:39.85	11.31	36.08	-48.7	-51.5	15.6	0.00e+00	0	41	0	495976448	68	5114
2026-01-30 01:35:40.86	11.14	36.29	-48.7	-51.5	15.3	0.00e+00	0	41	0	498073600	68	5158
2026-01-30 01:35:41.87	10.96	36.51	-48.3	-50.9	16.1	0.00e+00	0	41	0	499122176	68	4802
2026-01-30 01:35:42.88	10.78	36.72	-47.8	-50.1	16.8	0.00e+00	0	41	0	501219328	66	4875
2026-01-30 01:35:43.89	10.60	36.94	-47.4	-49.5	17.4	0.00e+00	0	41	0	503316480	66	4558
2026-01-30 01:35:44.89	10.42	37.16	-46.4	-48.1	18.6	0.00e+00	0	41	0	505413632	64	4370
2026-01-30 01:35:45.90	10.23	37.37	-46.5	-48.3	18.5	0.00e+00	0	41	0	506462208	64	4479
2026-01-30 01:35:46.90	10.04	37.59	-46.1	-47.7	19.1	0.00e+00	0	41	0	508559360	63	4413
2026-01-30 01:35:47.91	9.85	37.81	-46.1	-47.8	19.0	0.00e+00	0	41	0	510656512	62	4719
2026-01-30 01:35:48.92	9.65	38.04	-46.2	-47.9	18.9	0.00e+00	0	41	0	512753664	63	4532
2026-01-30 01:35:49.92	9.46	38.26	-46.5	-48.3	18.6	0.00e+00	0	41	0	514850816	63	4717
2026-01-30 01:35:50.93	9.26	38.48	-46.3	-48.1	18.8	0.00e+00	0	41	0	516947968	63	4611
2026-01-30 01:35:51.94	9.05	38.71	-46.3	-48.0	18.8	0.00e+00	0	41	0	517996544	63	4593
2026-01-30 01:35:52.95	8.85	38.94	-45.9	-47.5	19.4	0.00e+00	0	41	0	520093696	63	4310
2026-01-30 01:35:53.95	8.64	39.16	-45.8	-47.4	19.4	0.00e+00	0	41	0	522190848	63	4264
2026-01-30 01:35:54.96	8.43	39.39	-46.1	-47.7	19.1	0.00e+00	0	41	0	524288000	63	4418
2026-01-30 01:35:55.97	8.21	39.62	-46.0	-47.6	19.3	0.00e+00	0	41	0	526385152	63	4388
2026-01-30 01:35:56.97	8.00	39.85	-45.7	-47.2	19.6	0.00e+00	0	41	0	527433728	63	4187
2026-01-30 01:35:57.98	7.77	40.08	-45.8	-47.4	19.5	0.00e+00	0	41	0	529530880	63	4252
2026-01-30 01:35:58.98	7.55	40.31	-45.7	-47.3	19.6	0.00e+00	0	41	0	531628032	62	4457
2026-01-30 01:35:59.99	7.32	40.55	-45.8	-47.4	19.5	0.00e+00	0	41	0	533725184	62	4500
2026-01-30 01:36:01.00	7.09	40.78	-46.0	-47.5	19.4	0.00e+00	0	41	0	534773760	62	4598
2026-01-30 01:36:02.01	6.86	41.02	-46.0	-47.6	19.3	0.00e+00	0	41	0	536870912	62	4627
2026-01-30 01:36:03.01	6.62	41.26	-45.9	-47.4	19.5	0.00e+00	0	41	0	538968064	63	4281
2026-01-30 01:36:04.02	6.38	41.49	-46.0	-47.6	19.4	0.00e+00	0	41	0	541065216	63	4348
2026-01-30 01:36:05.03	6.13	41.73	-45.7	-47.1	19.9	0.00e+00	0	41	0	543162368	63	4130
2026-01-30 01:36:06.03	5.89	41.97	-45.6	-47.1	19.9	0.00e+00	0	41	0	545259520	63	4103
2026-01-30 01:36:07.05	5.63	42.21	-45.4	-46.7	20.3	0.00e+00	0	41	0	546308096	62	4166
2026-01-30 01:36:08.05	5.38	42.45	-45.4	-46.8	20.2	0.00e+00	0	41	0	548405248	62	4214
2026-01-30 01:36:09.06	5.11	42.70	-45.7	-47.2	19.8	0.00e+00	0	41	0	550502400	62	4401
2026-01-30 01:36:10.06	4.85	42.94	-45.5	-47.0	20.1	0.00e+00	0	41	0	552599552	62	4299
2026-01-30 01:36:11.07	4.58	43.18	-46.1	-47.6	19.4	0.00e+00	0	41	0	554696704	62	4644
2026-01-30 01:36:12.08	4.31	43.43	-46.3	-47.9	19.0	0.00e+00	0	41	0	555745280	64	4278
2026-01-30 01:36:13.08	4.03	43.67	-46.6	-48.3	18.7	0.00e+00	0	41	0	557842432	64	4476
2026-01-30 01:36:14.09	3.75	43.92	-47.0	-48.9	18.2	0.00e+00	0	41	0	559939584	64	4781
2026-01-30 01:36:15.10	3.46	44.17	-46.2	-47.8	19.2	0.00e+00	0	41	0	562036736	64	4223
2026-01-30 01:36:16.10	3.18	44.42	-46.3	-47.9	19.1	0.00e+00	0	41	0	563085312	64	4278
2026-01-30 01:36:17.11	2.88	44.66	-45.8	-47.4	19.7	0.00e+00	0	41	0	565182464	63	4247
2026-01-30 01:36:18.12	2.58	44.91	-46.1	-47.7	19.4	0.00e+00	0	41	0	567279616	63	4441
2026-01-30 01:36:19.12	2.28	45.16	-46.2	-47.8	19.3	0.00e+00	0	41	0	569376768	63	4486
2026-01-30 01:36:20.13	1.97	45.41	-46.0	-47.6	19.5	0.00e+00	0	41	0	571473920	63	4373
2026-01-30 01:36:21.14	1.65	45.67	-45.8	-47.3	19.7	0.00e+00	0	41	0	573571072	63	4221
2026-01-30 01:36:22.14	1.34	45.92	-45.8	-47.2	19.7	0.00e+00	0	41	0	574619648	63	4183
2026-01-30 01:36:23.15	1.01	46.17	-45.8	-47.3	19.8	0.00e+00	0	41	0	576716800	63	4195
2026-01-30 01:36:24.15	0.68	46.42	-46.1	-47.6	19.5	0.00e+00	0	41	0	578813952	63	4368
2026-01-30 01:36:25.16	0.35	46.68	-45.9	-47.4	19.6	0.00e+00	0	41	0	580911104	63	4282
2026-01-30 01:36:26.16	0.01	46.93	-45.5	-47.0	19.9	0.00e+00	0	41	0	583008256	63	4060
2026-01-30 01:36:27.17	359.66	47.18	-45.4	-46.9	20.0	0.00e+00	0	41	0	584056832	62	4263
2026-01-30 01:36:28.17	359.31	47.44	-44.9	-46.3	20.5	0.00e+00	0	41	0	586153984	61	4227
2026-01-30 01:36:29.18	358.95	47.69	-44.9	-46.3	20.5	0.00e+00	0	41	0	588251136	61	4225
2026-01-30 01:36:30.19	358.59	47.95	-45.4	-46.9	20.0	0.00e+00	0	41	0	590348288	61	4522
2026-01-30 01:36:31.20	358.22	48.21	-45.5	-47.0	19.9	0.00e+00	0	41	0	591396864	61	4562
2026-01-30 01:36:32.21	357.84	48.46	-45.7	-47.3	19.7	0.00e+00	0	41	0	593494016	62	4451
2026-01-30 01:36:33.22	357.45	48.72	-44.9	-46.3	20.6	0.00e+00	0	41	0	595591168	61	4215
2026-01-30 01:36:34.22	357.07	48.97	-44.6	-45.9	20.9	0.00e+00	0	41	0	597688320	61	4036
2026-01-30 01:36:35.23	356.67	49.23	-44.4	-45.7	21.2	0.00e+00	0	41	0	599785472	60	4153
2026-01-30 01:36:36.24	356.27	49.49	-44.3	-45.5	21.2	0.00e+00	0	41	0	601882624	60	4092
2026-01-30 01:36:37.24	355.86	49.74	-44.9	-46.3	20.7	0.00e+00	0	41	0	602931200	60	4489
2026-01-30 01:36:38.25	355.44	50.00	-45.4	-46.9	20.1	0.00e+00	0	41	0	605028352	61	4515
2026-01-30 01:36:39.26	355.02	50.25	-45.6	-47.0	20.1	0.00e+00	0	41	0	607125504	61	4591
2026-01-30 01:36:40.27	354.58	50.51	-45.4	-46.9	20.1	0.00e+00	0	41	0	609222656	61	4513
2026-01-30 01:36:41.27	354.15	50.76	-45.1	-46.5	20.4	0.00e+00	0	41	0	611319808	61	4295
2026-01-30 01:36:42.28	353.70	51.02	-44.7	-46.0	20.7	0.00e+00	0	41	0	612368384	60	4335
2026-01-30 01:36:43.29	353.25	51.27	-44.5	-45.8	20.6	0.00e+00	0	41	0	614465536	60	4234
2026-01-30 01:36:44.30	352.78	51.53	-44.6	-46.0	20.7	0.00e+00	0	41	0	616562688	60	4318
2026-01-30 01:36:45.30	352.32	51.78	-44.2	-45.5	21.2	0.00e+00	0	41	0	618659840	60	4069
2026-01-30 01:36:46.31	351.84	52.03	-44.0	-45.2	21.5	0.00e+00	0	41	0	620756992	60	3947
2026-01-30 01:36:47.31	351.36	52.28	-43.8	-44.9	21.9	0.00e+00	0	41	0	621805568	59	4046
2026-01-30 01:36:48.32	350.86	52.53	-43.4	-44.5	22.3	0.00e+00	0	41	0	623902720	58	4097
2026-01-30 01:36:49.33	350.36	52.78	-43.4	-44.5	22.3	0.00e+00	0	41	0	625999872	58	4069
2026-01-30 01:36:50.33	349.85	53.03	-43.4	-44.6	22.3	0.00e+00	0	41	0	628097024	57	4353
2026-01-30 01:36:51.34	349.33	53.28	-44.0	-45.3	21.7	0.00e+00	0	41	0	630194176	58	4459
2026-01-30 01:36:52.35	348.80	53.52	-44.3	-45.6	21.5	0.00e+00	0	41	0	631242752	59	4369
2026-01-30 01:36:53.35	348.26	53.77	-44.5	-45.8	21.1	0.00e+00	0	41	0	633339904	60	4238
2026-01-30 01:36:54.36	347.72	54.01	-45.3	-46.8	20.2	0.00e+00	0	41	0	635437056	61	4458
2026-01-30 01:36:55.37	347.16	54.25	-45.6	-47.2	19.8	0.00e+00	0	41	0	637534208	61	4657
2026-01-30 01:36:56.37	346.60	54.49	-45.8	-47.5	19.7	0.00e+00	0	41	0	639631360	62	4566
2026-01-30 01:36:57.38	346.02	54.73	-45.4	-46.9	20.2	0.00e+00	0	41	0	640679936	62	4276
2026-01-30 01:36:58.38	345.44	54.97	-44.9	-46.3	20.7	0.00e+00	0	41	0	642777088	61	4199
2026-01-30 01:36:59.39	344.84	55.20	-44.5	-45.8	21.1	0.00e+00	0	41	0	644874240	60	4217
2026-01-30 01:37:00.40	344.23	55.43	-44.4	-45.6	21.3	0.00e+00	0	41	0	646971392	60	4144
2026-01-30 01:37:01.40	343.62	55.66	-44.2	-45.4	21.6	0.00e+00	0	41	0	648019968	60	4016
2026-01-30 01:37:02.41	343.00	55.89	-44.7	-46.0	21.0	0.00e+00	0	41	0	650117120	60	4295
2026-01-30 01:37:03.42	342.36	56.12	-44.9	-46.2	20.8	0.00e+00	0	41	0	652214272	60	4437
2026-01-30 01:37:04.43	341.71	56.34	-44.8	-46.2	20.9	0.00e+00	0	41	0	654311424	60	4393
2026-01-30 01:37:05.44	341.05	56.56	-44.9	-46.2	20.8	0.00e+00	0	41	0	656408576	61	4176
2026-01-30 01:37:06.44	340.39	56.78	-44.5	-45.7	21.2	0.00e+00	0	41	0	658505728	61	3945
2026-01-30 01:37:07.45	339.71	56.99	-44.2	-45.4	21.5	0.00e+00	0	41	0	659554304	60	4040
2026-01-30 01:37:08.45	339.03	57.20	-44.8	-46.1	21.1	0.00e+00	0	41	0	661651456	60	4350
2026-01-30 01:37:09.46	338.33	57.41	-45.0	-46.3	20.9	0.00e+00	0	41	0	663748608	60	4466
2026-01-30 01:37:10.47	337.61	57.61	-44.8	-46.1	21.0	0.00e+00	0	41	0	665845760	60	4379
2026-01-30 01:37:11.48	336.89	57.81	-44.7	-45.9	21.2	0.00e+00	0	41	0	667942912	60	4276
2026-01-30 01:37:12.48	336.17	58.01	-44.5	-45.7	21.3	0.00e+00	0	41	0	668991488	60	4183
2026-01-30 01:37:13.49	335.42	58.20	-44.6	-45.9	21.2	0.00e+00	0	41	0	671088640	60	4265
2026-01-30 01:37:14.49	334.67	58.39	-44.4	-45.6	21.4	0.00e+00	0	41	0	673185792	60	4129
2026-01-30 01:37:15.50	333.91	58.58	-44.1	-45.3	21.6	0.00e+00	0	41	0	675282944	60	3978
2026-01-30 01:37:16.50	333.14	58.76	-44.5	-45.7	21.6	0.00e+00	0	41	0	676331520	59	4434
2026-01-30 01:37:17.51	332.35	58.94	-44.4	-45.7	21.6	0.00e+00	0	41	0	678428672	59	4396
2026-01-30 01:37:18.52	331.56	59.11	-44.5	-45.8	21.3	0.00e+00	0	41	0	680525824	60	4202
2026-01-30 01:37:19.53	330.75	59.28	-45.2	-46.7	20.5	0.00e+00	0	41	0	682622976	61	4431
2026-01-30 01:37:20.53	329.94	59.44	-45.8	-47.4	20.0	0.00e+00	0	41	0	684720128	62	4535
2026-01-30 01:37:21.54	329.11	59.60	-44.9	-46.3	20.7	0.00e+00	0	41	0	686817280	61	4226
2026-01-30 01:37:22.55	328.27	59.75	-44.5	-45.7	21.4	0.00e+00	0	41	0	687865856	59	4435
2026-01-30 01:37:23.56	327.42	59.90	-44.5	-45.9	21.4	0.00e+00	0	41	0	689963008	59	4502
2026-01-30 01:37:24.56	326.57	60.04	-44.6	-46.0	21.1	0.00e+00	0	41	0	692060160	60	4299
2026-01-30 01:37:25.57	325.71	60.17	-44.1	-45.4	21.5	0.00e+00	0	41	0	694157312	60	4035
2026-01-30 01:37:26.58	324.83	60.30	-44.4	-45.6	21.6	0.00e+00	0	41	0	696254464	59	4366
2026-01-30 01:37:27.59	323.94	60.43	-43.8	-45.0	22.0	0.00e+00	0	41	0	697303040	59	4058
2026-01-30 01:37:28.59	323.06	60.55	-44.7	-46.0	21.4	0.00e+00	0	41	0	699400192	59	4590
2026-01-30 01:37:29.60	322.16	60.66	-45.6	-47.2	19.8	0.00e+00	0	41	0	701497344	61	4701
2026-01-30 01:37:30.61	321.25	60.77	-45.9	-47.6	19.4	0.00e+00	0	41	0	703594496	63	4344
2026-01-30 01:37:31.61	320.34	60.87	-44.8	-46.2	20.8	0.00e+00	0	41	0	705691648	61	4149
2026-01-30 01:37:32.62	319.41	60.96	-44.3	-45.6	21.2	0.00e+00	0	41	0	706740224	60	4109
2026-01-30 01:37:33.63	318.48	61.05	-44.5	-45.9	21.1	0.00e+00	0	41	0	708837376	60	4250
2026-01-30 01:37:34.63	317.55	61.13	-44.3	-45.6	21.3	0.00e+00	0	41	0	710934528	60	4137
2026-01-30 01:37:35.64	316.61	61.21	-44.1	-45.3	21.5	0.00e+00	0	41	0	713031680	60	4001
2026-01-30 01:37:36.65	315.66	61.28	-44.1	-45.3	21.6	0.00e+00	0	41	0	715128832	60	4001
2026-01-30 01:37:37.66	314.71	61.34	-44.6	-45.8	21.2	0.00e+00	0	41	0	716177408	60	4236
2026-01-30 01:37:38.66	313.76	61.39	-44.8	-46.1	21.0	0.00e+00	0	41	0	718274560	60	4372
2026-01-30 01:37:39.67	312.80	61.44	-44.6	-45.9	21.2	0.00e+00	0	41	0	720371712	60	4248
2026-01-30 01:37:40.67	311.84	61.48	-43.7	-44.8	22.4	0.00e+00	0	41	0	722468864	59	3970
2026-01-30 01:37:41.68	310.87	61.51	-43.3	-44.4	22.6	0.00e+00	0	41	0	724566016	58	4019
2026-01-30 01:37:42.69	309.90	61.54	-43.6	-44.7	22.3	0.00e+00	0	41	0	725614592	58	4183
2026-01-30 01:37:43.69	308.94	61.56	-43.8	-45.0	22.2	0.00e+00	0	41	0	727711744	58	4300
2026-01-30 01:37:44.70	307.96	61.57	-42.9	-44.0	22.8	0.00e+00	0	41	0	729808896	57	4060
2026-01-30 01:37:45.71	306.99	61.57	-42.2	-43.2	23.5	0.00e+00	0	41	0	731906048	56	3939
2026-01-30 01:37:46.71	306.02	61.57	-42.0	-43.0	23.7	0.00e+00	0	41	0	734003200	56	3841
2026-01-30 01:37:47.72	305.05	61.56	-42.4	-43.5	23.5	0.00e+00	0	41	0	735051776	56	4053
2026-01-30 01:37:48.73	304.08	61.54	-43.0	-44.1	23.0	0.00e+00	0	41	0	737148928	56	4346
2026-01-30 01:37:49.74	303.10	61.52	-44.3	-45.7	21.6	0.00e+00	0	41	0	739246080	59	4401
2026-01-30 01:37:50.74	302.14	61.49	-44.4	-45.8	21.5	0.00e+00	0	41	0	741343232	59	4454
2026-01-30 01:37:51.75	301.18	61.45	-43.2	-44.2	22.8	0.00e+00	0	41	0	743440384	58	3946
2026-01-30 01:37:52.76	300.21	61.40	-43.0	-44.0	23.0	0.00e+00	0	41	0	744488960	57	4083
2026-01-30 01:37:53.76	299.26	61.35	-43.0	-44.1	22.9	0.00e+00	0	41	0	746586112	57	4115
2026-01-30 01:37:54.77	298.31	61.29	-43.0	-44.1	22.9	0.00e+00	0	41	0	748683264	57	4106
2026-01-30 01:37:55.78	297.36	61.23	-44.0	-45.2	22.0	0.00e+00	0	41	0	750780416	58	4438
2026-01-30 01:37:56.79	296.41	61.15	-44.0	-45.1	22.0	0.00e+00	0	41	0	752877568	59	4142
2026-01-30 01:37:57.79	295.48	61.08	-43.6	-44.7	22.4	0.00e+00	0	41	0	753926144	58	4164
2026-01-30 01:37:58.80	294.55	60.99	-43.9	-45.0	22.2	0.00e+00	0	41	0	756023296	58	4331
2026-01-30 01:37:59.80	293.63	60.90	-43.5	-44.5	22.5	0.00e+00	0	41	0	758120448	58	4090
2026-01-30 01:38:00.81	292.71	60.80	-42.6	-43.6	23.3	0.00e+00	0	41	0	760217600	57	3894
2026-01-30 01:38:01.81	291.80	60.69	-43.2	-44.2	22.9	0.00e+00	0	41	0	762314752	57	4182
2026-01-30 01:38:02.82	290.90	60.58	-44.4	-45.7	21.7	0.00e+00	0	41	0	763363328	59	4410
2026-01-30 01:38:03.83	290.00	60.47	-44.5	-45.8	21.6	0.00e+00	0	41	0	765460480	59	4465
2026-01-30 01:38:04.83	289.12	60.34	-44.4	-45.6	21.8	0.00e+00	0	41	0	767557632	59	4378
2026-01-30 01:38:05.84	288.24	60.21	-44.3	-45.5	22.0	0.00e+00	0	41	0	769654784	59	4332
2026-01-30 01:38:06.85	287.37	60.08	-44.2	-45.3	22.1	0.00e+00	0	41	0	771751936	59	4230
2026-01-30 01:38:07.86	286.51	59.94	-44.1	-45.3	22.0	0.00e+00	0	41	0	772800512	59	4225
2026-01-30 01:38:08.87	285.66	59.79	-44.4	-45.7	21.7	0.00e+00	0	41	0	774897664	59	4401
2026-01-30 01:38:09.87	284.83	59.64	-45.4	-46.9	20.4	0.00e+00	0	41	0	776994816	61	4535
2026-01-30 01:38:10.88	283.99	59.48	-44.9	-46.2	20.9	0.00e+00	0	41	0	779091968	61	4166
2026-01-30 01:38:11.89	283.17	59.32	-44.1	-45.2	21.9	0.00e+00	0	41	0	781189120	60	3916
2026-01-30 01:38:12.90	282.36	59.16	-44.0	-45.1	22.3	0.00e+00	0	41	0	782237696	59	4113
2026-01-30 01:38:13.90	281.57	58.99	-44.5	-45.6	21.9	0.00e+00	0	41	0	784334848	59	4391
2026-01-30 01:38:14.90	280.79	58.81	-44.0	-45.1	22.3	0.00e+00	0	41	0	786432000	59	4143
2026-01-30 01:38:15.91	280.01	58.63	-44.7	-45.9	21.7	0.00e+00	0	41	0	788529152	59	4511
2026-01-30 01:38:16.92	279.24	58.45	-44.3	-45.4	22.1	0.00e+00	0	41	0	790626304	59	4254
2026-01-30 01:38:17.92	278.48	58.26	-43.6	-44.6	22.6	0.00e+00	0	41	0	791674880	58	4099
2026-01-30 01:38:18.93	277.74	58.07	-44.2	-45.3	22.1	0.00e+00	0	41	0	793772032	58	4472
2026-01-30 01:38:19.94	277.00	57.87	-44.6	-45.8	21.8	0.00e+00	0	41	0	795869184	59	4462
2026-01-30 01:38:20.94	276.28	57.67	-45.0	-46.3	21.1	0.00e+00	0	41	0	797966336	60	4470
2026-01-30 01:38:21.95	275.56	57.47	-44.7	-46.0	21.1	0.00e+00	0	41	0	800063488	60	4301
2026-01-30 01:38:22.96	274.86	57.26	-44.3	-45.4	21.8	0.00e+00	0	41	0	801112064	60	4035
2026-01-30 01:38:23.96	274.17	57.05	-44.5	-45.7	21.5	0.00e+00	0	41	0	803209216	60	4157
2026-01-30 01:38:24.97	273.49	56.84	-45.6	-47.1	20.2	0.00e+00	0	41	0	805306368	61	4620
2026-01-30 01:38:25.98	272.82	56.62	-46.1	-47.7	19.8	0.00e+00	0	41	0	807403520	63	4439
2026-01-30 01:38:26.98	272.16	56.40	-46.1	-47.7	19.7	0.00e+00	0	41	0	809500672	63	4424
2026-01-30 01:38:27.99	271.51	56.18	-46.2	-47.8	19.6	0.00e+00	0	41	0	810549248	63	4467
2026-01-30 01:38:29.00	270.87	55.95	-45.9	-47.3	20.1	0.00e+00	0	41	0	812646400	63	4228
2026-01-30 01:38:30.00	270.24	55.73	-45.6	-47.0	20.2	0.00e+00	0	41	0	814743552	63	4071
2026-01-30 01:38:31.01	269.62	55.50	-46.5	-48.1	19.4	0.00e+00	0	41	0	816840704	63	4643
2026-01-30 01:38:32.02	269.01	55.26	-45.6	-46.9	20.4	0.00e+00	0	41	0	818937856	63	4041
2026-01-30 01:38:33.03	268.41	55.03	-44.9	-46.2	21.2	0.00e+00	0	41	0	819986432	61	4149
2026-01-30 01:38:34.03	267.83	54.79	-44.6	-45.7	21.4	0.00e+00	0	41	0	822083584	61	3956
2026-01-30 01:38:35.04	267.25	54.56	-44.4	-45.5	21.6	0.00e+00	0	41	0	824180736	60	4069
2026-01-30 01:38:36.05	266.67	54.32	-44.7	-45.9	21.3	0.00e+00	0	41	0	826277888	60	4267
2026-01-30 01:38:37.05	266.12	54.08	-45.2	-46.6	20.7	0.00e+00	0	41	0	828375040	61	4358
2026-01-30 01:38:38.06	265.57	53.83	-44.2	-45.3	22.0	0.00e+00	0	41	0	829423616	59	4242
2026-01-30 01:38:39.07	265.02	53.59	-44.4	-45.6	21.8	0.00e+00	0	41	0	831520768	59	4354
2026-01-30 01:38:40.08	264.49	53.34	-44.4	-45.6	21.8	0.00e+00	0	41	0	833617920	59	4358
2026-01-30 01:38:41.09	263.97	53.09	-44.2	-45.4	21.7	0.00e+00	0	41	0	835715072	60	4021
2026-01-30 01:38:42.09	263.45	52.84	-43.8	-44.9	22.3	0.00e+00	0	41	0	837812224	59	4022
2026-01-30 01:38:43.10	262.95	52.59	-44.5	-45.7	21.7	0.00e+00	0	41	0	838860800	59	4410
2026-01-30 01:38:44.11	262.45	52.34	-44.8	-46.1	21.2	0.00e+00	0	41	0	840957952	60	4375
2026-01-30 01:38:45.12	261.96	52.09	-44.6	-45.9	21.2	0.00e+00	0	41	0	843055104	60	4277
2026-01-30 01:38:46.13	261.48	51.84	-44.4	-45.7	21.8	0.00e+00	0	41	0	845152256	59	4392
2026-01-30 01:38:47.13	261.01	51.59	-43.4	-44.5	22.7	0.00e+00	0	41	0	847249408	58	4068
2026-01-30 01:38:48.14	260.54	51.33	-43.4	-44.4	22.7	0.00e+00	0	41	0	848297984	58	4019
2026-01-30 01:38:49.15	260.09	51.08	-44.5	-45.7	21.7	0.00e+00	0	41	0	850395136	59	4393
2026-01-30 01:38:50.15	259.64	50.82	-46.0	-47.6	19.8	0.00e+00	0	41	0	852492288	62	4616
2026-01-30 01:38:51.16	259.20	50.57	-46.6	-48.3	19.0	0.00e+00	0	41	0	854589440	64	4446
2026-01-30 01:38:52.17	258.76	50.31	-46.8	-48.6	18.7	0.00e+00	0	41	0	856686592	64	4614
2026-01-30 01:38:53.18	258.34	50.05	-45.6	-47.0	20.1	0.00e+00	0	41	0	857735168	63	4063
2026-01-30 01:38:54.18	257.92	49.80	-44.9	-46.1	20.9	0.00e+00	0	41	0	859832320	61	4145
2026-01-30 01:38:55.19	257.51	49.54	-44.9	-46.2	20.9	0.00e+00	0	41	0	861929472	60	4407
2026-01-30 01:38:56.20	257.10	49.28	-46.0	-47.5	19.7	0.00e+00	0	41	0	864026624	62	4595
2026-01-30 01:38:57.21	256.70	49.03	-46.3	-47.9	19.2	0.00e+00	0	41	0	866123776	63	4540
2026-01-30 01:38:58.21	256.31	48.77	-47.8	-50.0	17.3	0.00e+00	0	41	0	867172352	66	4853
2026-01-30 01:38:59.22	255.93	48.51	-48.6	-51.2	16.0	0.00e+00	0	41	0	869269504	68	4934
2026-01-30 01:39:00.23	255.55	48.26	-47.8	-49.9	17.4	0.00e+00	0	41	0	871366656	67	4502
2026-01-30 01:39:01.24	255.17	48.00	-46.2	-47.7	19.5	0.00e+00	0	41	0	873463808	64	4186
2026-01-30 01:39:02.24	254.81	47.75	-45.8	-47.2	20.0	0.00e+00	0	41	0	875560960	63	4149
2026-01-30 01:39:03.25	254.45	47.49	-46.3	-47.9	19.5	0.00e+00	0	41	0	876609536	63	4518
2026-01-30 01:39:04.26	254.09	47.23	-46.5	-48.1	19.4	0.00e+00	0	41	0	878706688	63	4618
2026-01-30 01:39:05.27	253.74	46.98	-46.8	-48.5	18.8	0.00e+00	0	41	0	880803840	64	4595
2026-01-30 01:39:06.27	253.40	46.72	-47.8	-49.9	17.5	0.00e+00	0	41	0	882900992	66	4792
2026-01-30 01:39:07.28	253.06	46.47	-47.6	-49.6	17.7	0.00e+00	0	41	0	884998144	66	4626
2026-01-30 01:39:08.29	252.73	46.22	-46.6	-48.2	19.0	0.00e+00	0	41	0	886046720	65	4157
2026-01-30 01:39:09.29	252.41	45.96	-46.1	-47.6	19.6	0.00e+00	0	41	0	888143872	64	4128
2026-01-30 01:39:10.30	252.08	45.71	-46.1	-47.6	19.7	0.00e+00	0	41	0	890241024	63	4344
2026-01-30 01:39:11.31	251.77	45.46	-45.8	-47.2	20.0	0.00e+00	0	41	0	892338176	63	4159
2026-01-30 01:39:12.32	251.46	45.20	-45.6	-47.0	20.3	0.00e+00	0	41	0	894435328	62	4303
2026-01-30 01:39:13.32	251.15	44.96	-46.1	-47.6	19.8	0.00e+00	0	41	0	895483904	62	4627
2026-01-30 01:39:14.33	250.85	44.70	-47.1	-48.8	18.5	0.00e+00	0	41	0	897581056	64	4759
2026-01-30 01:39:15.33	250.55	44.46	-47.6	-49.6	17.6	0.00e+00	0	42	0	899678208	66	4604
2026-01-30 01:39:16.34	250.26	44.21	-46.6	-48.2	18.9	0.00e+00	0	41	0	901775360	65	4190
2026-01-30 01:39:17.34	249.98	43.96	-46.2	-47.7	19.5	0.00e+00	0	41	0	903872512	64	4157
2026-01-30 01:39:18.35	249.69	43.71	-46.1	-47.5	19.8	0.00e+00	0	41	0	904921088	63	4319
2026-01-30 01:39:19.36	249.41	43.47	-45.9	-47.3	19.9	0.00e+00	0	41	0	907018240	63	4217
2026-01-30 01:39:20.37	249.14	43.22	-46.5	-48.0	19.2	0.00e+00	0	41	0	909115392	63	4595
2026-01-30 01:39:21.37	248.87	42.98	-46.7	-48.3	18.9	0.00e+00	0	41	0	911212544	64	4493
2026-01-30 01:39:22.37	248.61	42.73	-46.6	-48.3	18.9	0.00e+00	0	42	0	913309696	64	4473
2026-01-30 01:39:23.38	248.34	42.49	-45.7	-47.1	20.2	0.00e+00	0	41	0	914358272	63	4112
2026-01-30 01:39:24.38	248.09	42.25	-45.2	-46.5	20.7	0.00e+00	0	41	0	916455424	62	4062
2026-01-30 01:39:25.39	247.83	42.01	-45.1	-46.4	20.8	0.00e+00	0	41	0	918552576	62	4009
2026-01-30 01:39:26.40	247.58	41.77	-45.4	-46.7	20.4	0.00e+00	0	42	0	920649728	62	4190
2026-01-30 01:39:27.41	247.33	41.53	-45.7	-47.2	20.1	0.00e+00	0	41	0	922746880	62	4397
2026-01-30 01:39:28.42	247.09	41.29	-46.5	-48.0	19.3	0.00e+00	0	41	0	924844032	63	4591
2026-01-30 01:39:29.42	246.85	41.05	-47.0	-48.7	18.6	0.00e+00	0	41	0	925892608	64	4687
2026-01-30 01:39:30.43	246.62	40.81	-47.7	-49.6	17.8	0.00e+00	0	41	0	927989760	66	4646
2026-01-30 01:39:31.43	246.39	40.58	-48.2	-50.3	17.1	0.00e+00	0	41	0	930086912	66	5012
2026-01-30 01:39:32.44	246.16	40.35	-47.8	-49.7	17.6	0.00e+00	0	41	0	932184064	67	4440
2026-01-30 01:39:33.45	245.93	40.11	-48.0	-49.9	17.5	0.00e+00	0	41	0	933232640	67	4542
2026-01-30 01:39:34.45	245.71	39.88	-47.6	-49.4	17.9	0.00e+00	0	41	0	935329792	67	4272
2026-01-30 01:39:35.46	245.49	39.65	-47.9	-49.8	17.6	0.00e+00	0	41	0	937426944	67	4473
2026-01-30 01:39:36.47	245.27	39.42	-47.9	-49.8	17.5	0.00e+00	0	41	0	939524096	67	4465
2026-01-30 01:39:37.47	245.06	39.19	-48.0	-50.0	17.3	0.00e+00	0	41	0	941621248	67	4584
2026-01-30 01:39:38.48	244.85	38.96	-47.8	-49.8	17.5	0.00e+00	0	41	0	942669824	67	4466
2026-01-30 01:39:39.49	244.64	38.73	-47.9	-49.9	17.4	0.00e+00	0	41	0	944766976	67	4536
2026-01-30 01:39:40.50	244.44	38.51	-47.9	-49.9	17.4	0.00e+00	0	41	0	946864128	67	4526
2026-01-30 01:39:41.50	244.24	38.28	-47.9	-49.9	17.3	0.00e+00	0	41	0	948961280	67	4528
2026-01-30 01:39:42.51	244.04	38.06	-47.2	-48.9	18.3	0.00e+00	0	41	0	951058432	66	4265
2026-01-30 01:39:43.53	243.84	37.83	-47.4	-49.2	18.1	0.00e+00	0	41	0	953155584	66	4428
2026-01-30 01:39:44.53	243.65	37.61	-46.7	-48.3	18.9	0.00e+00	0	41	0	954204160	65	4200
2026-01-30 01:39:45.54	243.46	37.39	-46.1	-47.6	19.5	0.00e+00	0	41	0	956301312	64	4116
2026-01-30 01:39:46.55	243.27	37.17	-46.1	-47.6	19.7	0.00e+00	0	41	0	958398464	63	4357
2026-01-30 01:39:47.55	243.09	36.95	-47.1	-48.9	18.4	0.00e+00	0	41	0	960495616	65	4517
2026-01-30 01:39:48.56	242.90	36.74	-47.6	-49.6	17.7	0.00e+00	0	41	0	961544192	65	4885
2026-01-30 01:39:49.57	242.72	36.52	-48.2	-50.5	16.7	0.00e+00	0	41	0	963641344	67	4864
2026-01-30 01:39:50.58	242.54	36.30	-48.3	-50.6	16.7	0.00e+00	0	41	0	965738496	67	4900
2026-01-30 01:39:51.58	242.37	36.09	-48.3	-50.6	16.6	0.00e+00	0	41	0	967835648	67	4915
2026-01-30 01:39:52.58	242.20	35.88	-48.4	-50.9	16.2	0.00e+00	0	41	0	969932800	67	5072
2026-01-30 01:39:53.59	242.03	35.67	-48.2	-50.6	16.6	0.00e+00	0	41	0	970981376	67	4919
2026-01-30 01:39:54.60	241.86	35.46	-49.1	-52.0	15.3	0.00e+00	0	41	0	973078528	68	5417
2026-01-30 01:39:55.61	241.69	35.24	-48.9	-51.6	15.6	0.00e+00	0	41	0	975175680	68	5210
2026-01-30 01:39:56.61	241.53	35.04	-47.7	-49.8	17.3	0.00e+00	0	41	0	977272832	67	4480
2026-01-30 01:39:57.62	241.37	34.83	-47.0	-48.8	18.3	0.00e+00	0	41	0	979369984	66	4206
2026-01-30 01:39:58.62	241.21	34.62	-46.8	-48.5	18.7	0.00e+00	0	41	0	981467136	65	4332
2026-01-30 01:39:59.63	241.05	34.42	-46.2	-47.8	19.2	0.00e+00	0	41	0	982515712	64	4233
2026-01-30 01:40:00.64	240.89	34.21	-47.1	-48.9	18.2	0.00e+00	0	41	0	984612864	64	4811
2026-01-30 01:40:01.65	240.74	34.01	-47.5	-49.6	17.5	0.00e+00	0	41	0	986710016	65	4908
2026-01-30 01:40:02.65	240.59	33.81	-47.8	-50.0	17.1	0.00e+00	0	41	0	988807168	66	4843
2026-01-30 01:40:03.66	240.43	33.61	-46.9	-48.6	18.4	0.00e+00	0	41	0	989855744	65	4378
2026-01-30 01:40:04.67	240.29	33.41	-46.4	-48.1	18.9	0.00e+00	0	41	0	991952896	64	4356
2026-01-30 01:40:05.68	240.14	33.21	-46.3	-47.9	19.1	0.00e+00	0	41	0	994050048	64	4282
2026-01-30 01:40:06.69	239.99	33.01	-46.7	-48.5	18.5	0.00e+00	0	41	0	996147200	64	4567
2026-01-30 01:40:07.70	239.85	32.81	-47.5	-49.7	17.4	0.00e+00	0	41	0	998244352	65	4949
2026-01-30 01:40:08.71	239.71	32.62	-48.2	-50.8	16.4	0.00e+00	0	41	0	1000341504	67	4985
2026-01-30 01:40:09.72	239.57	32.42	-47.3	-49.4	17.5	0.00e+00	0	41	0	1001390080	66	4505
2026-01-30 01:40:10.72	239.43	32.23	-46.7	-48.5	18.5	0.00e+00	0	41	0	1003487232	65	4303
2026-01-30 01:40:11.73	239.30	32.04	-46.1	-47.6	19.3	0.00e+00	0	41	0	1005584384	64	4136
2026-01-30 01:40:12.74	239.16	31.85	-45.7	-47.2	19.7	0.00e+00	0	41	0	1007681536	63	4166
2026-01-30 01:40:13.75	239.03	31.65	-46.0	-47.5	19.5	0.00e+00	0	41	0	1009778688	63	4318
2026-01-30 01:40:14.75	238.90	31.47	-46.3	-47.9	19.1	0.00e+00	0	41	0	1010827264	63	4531
2026-01-30 01:40:15.76	238.77	31.28	-46.7	-48.5	18.5	0.00e+00	0	41	0	1012924416	64	4557
2026-01-30 01:40:16.77	238.64	31.09	-46.3	-48.0	18.9	0.00e+00	0	41	0	1015021568	64	4318
2026-01-30 01:40:17.77	238.51	30.91	-46.1	-47.7	19.2	0.00e+00	0	41	0	1017118720	64	4169
2026-01-30 01:40:18.78	238.39	30.72	-45.9	-47.4	19.6	0.00e+00	0	41	0	1018167296	63	4257
2026-01-30 01:40:19.79	238.26	30.54	-46.0	-47.5	19.5	0.00e+00	0	41	0	1020264448	63	4308
2026-01-30 01:40:20.79	238.14	30.35	-46.1	-47.6	19.4	0.00e+00	0	41	0	1022361600	63	4376
2026-01-30 01:40:21.80	238.02	30.17	-46.6	-48.4	18.6	0.00e+00	0	42	0	1024458752	64	4524
2026-01-30 01:40:22.81	237.90	29.99	-47.4	-49.4	17.7	0.00e+00	0	41	0	1026555904	65	4801
2026-01-30 01:40:23.81	237.78	29.81	-47.5	-49.6	17.4	0.00e+00	0	41	0	1028653056	65	4885
2026-01-30 01:40:24.81	237.67	29.63	-47.2	-49.1	17.9	0.00e+00	0	41	0	1029701632	65	4634
2026-01-30 01:40:25.82	237.55	29.45	-46.6	-48.3	18.7	0.00e+00	0	41	0	1031798784	65	4198
2026-01-30 01:40:26.82	237.44	29.28	-46.0	-47.6	19.4	0.00e+00	0	41	0	1033895936	64	4102
2026-01-30 01:40:27.83	237.33	29.10	-45.4	-46.8	20.1	0.00e+00	0	41	0	1035993088	62	4224
2026-01-30 01:40:28.83	237.21	28.93	-45.4	-46.8	20.2	0.00e+00	0	41	0	1038090240	62	4195
2026-01-30 01:40:29.84	237.10	28.75	-45.3	-46.7	20.3	0.00e+00	0	41	0	1039138816	62	4159
2026-01-30 01:40:30.85	236.99	28.58	-45.8	-47.3	19.7	0.00e+00	0	41	0	1041235968	62	4455
2026-01-30 01:40:31.86	236.89	28.41	-45.7	-47.2	19.8	0.00e+00	0	42	0	1043333120	62	4422
2026-01-30 01:40:32.86	236.78	28.24	-45.8	-47.3	19.7	0.00e+00	0	41	0	1045430272	62	4448
2026-01-30 01:40:33.87	236.67	28.07	-45.5	-46.9	20.0	0.00e+00	0	42	0	1046478848	62	4281
2026-01-30 01:40:34.88	236.57	27.90	-45.6	-47.0	19.9	0.00e+00	0	41	0	1048576000	62	4314
2026-01-30 01:40:35.88	236.47	27.73	-45.4	-46.8	20.1	0.00e+00	0	41	0	1050673152	62	4240
2026-01-30 01:40:36.88	236.36	27.56	-45.3	-46.7	20.2	0.00e+00	0	41	0	1052770304	62	4175
2026-01-30 01:40:37.89	236.26	27.39	-45.5	-46.9	19.9	0.00e+00	0	41	0	1054867456	62	4286
2026-01-30 01:40:38.90	236.16	27.23	-46.0	-47.6	19.4	0.00e+00	0	41	0	1055916032	62	4603
2026-01-30 01:40:39.91	236.06	27.06	-46.6	-48.3	18.7	0.00e+00	0	41	0	1058013184	63	4731
2026-01-30 01:40:40.92	235.96	26.90	-47.1	-48.9	18.0	0.00e+00	0	41	0	1060110336	64	4812
2026-01-30 01:40:41.92	235.87	26.74	-47.4	-49.4	17.6	0.00e+00	0	41	0	1062207488	65	4782
2026-01-30 01:40:42.93	235.77	26.57	-47.6	-49.7	17.3	0.00e+00	0	41	0	1064304640	66	4689
2026-01-30 01:40:43.93	235.68	26.41	-47.4	-49.3	17.7	0.00e+00	0	42	0	1066401792	66	4483
2026-01-30 01:40:44.94	235.58	26.25	-47.3	-49.2	17.8	0.00e+00	0	41	0	1067450368	66	4427
2026-01-30 01:40:45.95	235.49	26.09	-46.9	-48.6	18.4	0.00e+00	0	41	0	1069547520	65	4383
2026-01-30 01:40:46.95	235.40	25.93	-47.2	-49.0	18.0	0.00e+00	0	41	0	1071644672	65	4579
2026-01-30 01:40:47.96	235.31	25.78	-46.7	-48.2	18.8	0.00e+00	0	41	0	1073741824	65	4186
2026-01-30 01:40:48.97	235.22	25.62	-46.8	-48.4	18.7	0.00e+00	0	41	0	1074790400	64	4520
2026-01-30 01:40:49.97	235.13	25.46	-46.3	-47.8	19.3	0.00e+00	0	41	0	1076887552	64	4224
2026-01-30 01:40:50.98	235.04	25.31	-46.3	-47.8	19.2	0.00e+00	0	41	0	1078984704	64	4241
2026-01-30 01:40:51.99	234.95	25.15	-46.2	-47.6	19.4	0.00e+00	0	41	0	1081081856	64	4130
2026-01-30 01:40:52.99	234.87	25.00	-46.2	-47.6	19.5	0.00e+00	0	41	0	1083179008	63	4362
2026-01-30 01:40:54.00	234.78	24.85	-45.9	-47.3	19.6	0.00e+00	0	41	0	1084227584	63	4208
2026-01-30 01:40:55.01	234.70	24.69	-45.9	-47.3	19.8	0.00e+00	0	41	0	1086324736	63	4208
2026-01-30 01:40:56.02	234.61	24.54	-45.7	-47.1	19.9	0.00e+00	0	41	0	1088421888	63	4118
2026-01-30 01:40:57.03	234.53	24.39	-45.9	-47.3	19.8	0.00e+00	0	41	0	1090519040	63	4226
2026-01-30 01:40:58.03	234.45	24.24	-45.9	-47.3	19.6	0.00e+00	0	41	0	1092616192	63	4227
2026-01-30 01:40:59.03	234.37	24.09	-46.2	-47.7	19.4	0.00e+00	0	41	0	1094713344	63	4407
2026-01-30 01:41:00.04	234.28	23.95	-46.4	-47.9	19.2	0.00e+00	0	41	0	1095761920	63	4502
2026-01-30 01:41:01.05	234.20	23.80	-46.5	-48.0	19.0	0.00e+00	0	41	0	1097859072	63	4595
2026-01-30 01:41:02.05	234.13	23.65	-46.3	-47.8	19.2	0.00e+00	0	41	0	1099956224	63	4453
2026-01-30 01:41:03.06	234.05	23.51	-46.3	-47.8	19.3	0.00e+00	0	41	0	1102053376	63	4445
2026-01-30 01:41:04.07	233.97	23.36	-46.0	-47.4	19.6	0.00e+00	0	41	0	1103101952	63	4280
2026-01-30 01:41:05.08	233.89	23.22	-45.5	-46.9	20.1	0.00e+00	0	41	0	1105199104	63	4009
2026-01-30 01:41:06.08	233.82	23.07	-45.0	-46.3	20.6	0.00e+00	0	41	0	1107296256	62	3973
2026-01-30 01:41:07.09	233.74	22.93	-44.9	-46.2	20.7	0.00e+00	0	41	0	1109393408	61	4149
2026-01-30 01:41:08.10	233.67	22.79	-44.9	-46.1	20.7	0.00e+00	0	41	0	1111490560	61	4132
2026-01-30 01:41:09.11	233.59	22.65	-44.8	-46.1	20.7	0.00e+00	0	41	0	1112539136	61	4105
2026-01-30 01:41:10.11	233.52	22.51	-44.9	-46.2	20.7	0.00e+00	0	41	0	1114636288	61	4164
2026-01-30 01:41:11.12	233.45	22.37	-45.3	-46.6	20.3	0.00e+00	0	41	0	1116733440	61	4384
2026-01-30 01:41:12.12	233.37	22.23	-45.7	-47.1	19.8	0.00e+00	0	41	0	1118830592	62	4348
2026-01-30 01:41:13.13	233.30	22.09	-46.2	-47.8	19.3	0.00e+00	0	41	0	1120927744	62	4706
2026-01-30 01:41:14.14	233.23	21.95	-46.9	-48.6	18.3	0.00e+00	0	41	0	1123024896	64	4642
2026-01-30 01:41:15.15	233.16	21.81	-47.5	-49.4	17.6	0.00e+00	0	41	0	1124073472	65	4810
2026-01-30 01:41:16.15	233.09	21.68	-48.0	-50.1	17.0	0.00e+00	0	41	0	1126170624	66	4892
2026-01-30 01:41:17.16	233.02	21.54	-48.2	-50.5	16.6	0.00e+00	0	41	0	1128267776	67	4843
2026-01-30 01:41:18.17	232.96	21.40	-48.2	-50.4	16.6	0.00e+00	0	41	0	1130364928	67	4809
2026-01-30 01:41:19.17	232.89	21.27	-48.0	-50.1	16.9	0.00e+00	0	41	0	1131413504	67	4643
2026-01-30 01:41:20.18	232.82	21.14	-47.3	-49.1	17.9	0.00e+00	0	41	0	1133510656	66	4378
2026-01-30 01:41:21.19	232.75	21.00	-46.7	-48.4	18.5	0.00e+00	0	42	0	1135607808	65	4268
2026-01-30 01:41:22.19	232.69	20.87	-46.4	-48.0	18.9	0.00e+00	0	41	0	1137704960	64	4303
2026-01-30 01:41:23.20	232.62	20.74	-46.0	-47.5	19.2	0.00e+00	0	41	0	1139802112	64	4087
2026-01-30 01:41:24.21	232.56	20.61	-45.8	-47.2	19.7	0.00e+00	0	41	0	1141899264	63	4187
2026-01-30 01:41:25.22	232.50	20.48	-45.6	-47.0	19.9	0.00e+00	0	41	0	1142947840	63	4059
2026-01-30 01:41:26.22	232.43	20.35	-45.8	-47.2	19.7	0.00e+00	0	41	0	1145044992	62	4413
2026-01-30 01:41:27.23	232.37	20.22	-45.5	-46.8	20.1	0.00e+00	0	41	0	1147142144	62	4223
2026-01-30 01:41:28.23	232.31	20.09	-45.5	-46.8	20.0	0.00e+00	0	41	0	1149239296	62	4208
2026-01-30 01:41:29.23	232.25	19.96	-45.6	-47.0	19.9	0.00e+00	0	41	0	1151336448	62	4296
2026-01-30 01:41:30.24	232.18	19.84	-45.3	-46.6	20.2	0.00e+00	0	41	0	1152385024	62	4137
2026-01-30 01:41:31.25	232.12	19.71	-45.0	-46.3	20.3	0.00e+00	0	41	0	1154482176	62	3975
2026-01-30 01:41:32.25	232.06	19.58	-45.0	-46.2	20.6	0.00e+00	0	41	0	1156579328	62	3939
2026-01-30 01:41:33.26	232.00	19.46	-45.1	-46.3	20.5	0.00e+00	0	41	0	1158676480	62	3987
2026-01-30 01:41:34.27	231.95	19.33	-44.9	-46.1	20.7	0.00e+00	0	41	0	1159725056	61	4118
2026-01-30 01:41:35.27	231.89	19.21	-44.4	-45.6	21.1	0.00e+00	0	41	0	1161822208	60	4111
2026-01-30 01:41:36.28	231.83	19.08	-44.3	-45.5	21.1	0.00e+00	0	41	0	1163919360	60	4060
2026-01-30 01:41:37.29	231.77	18.96	-44.4	-45.5	21.5	0.00e+00	0	41	0	1166016512	59	4333
2026-01-30 01:41:38.29	231.71	18.84	-44.3	-45.5	21.5	0.00e+00	0	41	0	1168113664	59	4297
2026-01-30 01:41:39.30	231.66	18.72	-44.1	-45.2	21.7	0.00e+00	0	41	0	1169162240	59	4178
2026-01-30 01:41:40.31	231.60	18.59	-44.2	-45.3	21.6	0.00e+00	0	41	0	1171259392	59	4213
2026-01-30 01:41:41.31	231.55	18.47	-44.3	-45.4	21.5	0.00e+00	0	41	0	1173356544	59	4286
2026-01-30 01:41:42.32	231.49	18.35	-44.1	-45.2	21.7	0.00e+00	0	41	0	1175453696	59	4184
2026-01-30 01:41:43.32	231.44	18.23	-44.2	-45.3	21.6	0.00e+00	0	41	0	1177550848	59	4225
2026-01-30 01:41:44.33	231.38	18.12	-44.3	-45.4	21.5	0.00e+00	0	41	0	1179648000	59	4284
2026-01-30 01:41:45.33	231.33	18.00	-44.6	-45.7	21.3	0.00e+00	0	41	0	1180696576	59	4426
2026-01-30 01:41:46.33	231.28	17.88	-44.5	-45.6	21.3	0.00e+00	0	41	0	1182793728	59	4381
2026-01-30 01:41:47.34	231.22	17.76	-44.7	-45.9	20.8	0.00e+00	0	41	0	1184890880	60	4250
2026-01-30 01:41:48.35	231.17	17.64	-44.6	-45.7	20.9	0.00e+00	0	41	0	1186988032	60	4186
2026-01-30 01:41:49.36	231.12	17.53	-44.7	-45.9	20.8	0.00e+00	0	41	0	1188036608	60	4264
2026-01-30 01:41:50.36	231.07	17.41	-44.9	-46.2	20.5	0.00e+00	0	41	0	1190133760	60	4404
2026-01-30 01:41:51.36	231.01	17.30	-44.9	-46.2	20.5	0.00e+00	0	41	0	1192230912	60	4405
2026-01-30 01:41:52.37	230.96	17.18	-45.0	-46.2	20.5	0.00e+00	0	41	0	1194328064	60	4435
2026-01-30 01:41:53.38	230.91	17.07	-45.4	-46.7	20.0	0.00e+00	0	41	0	1196425216	61	4430
2026-01-30 01:41:54.38	230.86	16.95	-45.4	-46.8	20.0	0.00e+00	0	41	0	1197473792	61	4448
2026-01-30 01:41:55.39	230.81	16.84	-45.5	-46.8	19.8	0.00e+00	0	41	0	1199570944	61	4485
2026-01-30 01:41:56.40	230.76	16.73	-45.4	-46.8	19.9	0.00e+00	0	41	0	1201668096	61	4454
2026-01-30 01:41:57.40	230.72	16.62	-45.7	-47.2	19.6	0.00e+00	0	41	0	1203765248	62	4395
2026-01-30 01:41:58.41	230.67	16.50	-45.5	-46.9	19.8	0.00e+00	0	41	0	1205862400	62	4264
2026-01-30 01:41:59.42	230.62	16.39	-45.8	-47.2	19.5	0.00e+00	0	41	0	1207959552	62	4432
2026-01-30 01:42:00.42	230.57	16.28	-46.0	-47.4	19.3	0.00e+00	0	41	0	1209008128	62	4519
2026-01-30 01:42:01.43	230.52	16.17	-45.9	-47.3	19.4	0.00e+00	0	41	0	1211105280	62	4489
2026-01-30 01:42:02.43	230.48	16.06	-46.3	-47.8	18.9	0.00e+00	0	41	0	1213202432	63	4487
2026-01-30 01:42:03.43	230.43	15.95	-46.3	-47.8	18.9	0.00e+00	0	41	0	1215299584	63	4492
2026-01-30 01:42:04.44	230.38	15.84	-46.4	-48.0	18.8	0.00e+00	0	41	0	1216348160	63	4557
2026-01-30 01:42:05.44	230.34	15.73	-46.5	-48.1	18.7	0.00e+00	0	41	0	1218445312	63	4618
2026-01-30 01:42:06.46	230.29	15.62	-46.3	-47.9	18.8	0.00e+00	0	41	0	1220542464	63	4510
2026-01-30 01:42:07.46	230.25	15.52	-46.4	-48.0	18.8	0.00e+00	0	41	0	1222639616	63	4558
2026-01-30 01:42:08.47	230.20	15.41	-46.5	-48.0	18.7	0.00e+00	0	41	0	1224736768	63	4596
2026-01-30 01:42:09.47	230.16	15.30	-46.3	-47.9	18.8	0.00e+00	0	41	0	1225785344	63	4509
2026-01-30 01:42:10.48	230.12	15.20	-46.2	-47.7	19.0	0.00e+00	0	41	0	1227882496	63	4439
2026-01-30 01:42:11.49	230.07	15.09	-46.1	-47.6	19.1	0.00e+00	0	41	0	1229979648	63	4383
2026-01-30 01:42:12.49	230.03	14.99	-46.1	-47.5	19.1	0.00e+00	0	41	0	1232076800	63	4336
