passes_logs/2026/01/30/R3.2S_Murmansk/R3.2S_Murmansk__20260130_072621_FENGYUN_3D_rec.log

#Pass ID: 20260130_072621_FENGYUN 3D
#Satellite: FENGYUN 3D
#Configuration: FENGYUN 3D
#almurnet v.1.7.20251203
#Start time: 2026-01-30 07:26:23

#Version: 2.2.20231116
#Station: R3.2S_Murmansk
#Location: 33.079688 lon 68.888172 lat
#TLE: 1 43010U 17072A   26029.52179110  .00000394  00000+0  20818-3 0  9997
#TLE: 2 43010  98.9957   1.5649 0002507  83.7772 276.3689 14.19703315425310

#Time	Az	El	Level	Level2	SNR	BER	BlckErr	Temp	State	Recorded	gain1	gain2
2026-01-30 07:26:23.21	65.40	2.11	-54.0	-66.0	3.8	8.47e-01	0	39	0	0	79	14376
2026-01-30 07:26:24.22	65.33	2.17	-53.9	-65.9	3.8	8.47e-01	0	39	104	0	78	15147
2026-01-30 07:26:25.23	65.27	2.23	-53.9	-65.9	3.8	8.46e-01	0	39	104	0	78	15157
2026-01-30 07:26:26.24	65.20	2.29	-53.9	-65.9	3.8	8.47e-01	0	39	104	0	78	15084
2026-01-30 07:26:27.24	65.14	2.34	-53.9	-65.9	3.8	8.47e-01	0	39	104	0	78	15056
2026-01-30 07:26:28.25	65.08	2.40	-53.9	-65.8	3.8	8.46e-01	0	39	104	0	78	15034
2026-01-30 07:26:29.26	65.01	2.46	-53.9	-65.8	3.8	8.46e-01	0	39	104	0	78	15012
2026-01-30 07:26:30.27	64.95	2.52	-53.9	-65.8	3.8	8.46e-01	0	39	104	0	78	15010
2026-01-30 07:26:31.27	64.88	2.58	-53.9	-65.8	3.8	8.46e-01	0	39	104	0	78	15019
2026-01-30 07:26:32.28	64.81	2.63	-53.9	-65.9	3.8	8.47e-01	0	39	104	0	78	15073
2026-01-30 07:26:33.29	64.75	2.69	-54.1	-66.1	3.8	8.46e-01	0	39	104	0	78	15523
2026-01-30 07:26:34.30	64.68	2.75	-54.2	-66.2	3.8	8.46e-01	0	39	104	0	79	14809
2026-01-30 07:26:35.30	64.62	2.81	-54.3	-66.2	3.8	8.46e-01	0	39	104	0	79	14871
2026-01-30 07:26:36.31	64.55	2.87	-54.3	-66.3	3.8	8.48e-01	0	39	104	0	79	14924
2026-01-30 07:26:37.31	64.48	2.93	-54.3	-66.2	3.8	8.46e-01	0	40	104	0	79	14852
2026-01-30 07:26:38.32	64.41	2.99	-54.2	-66.2	3.8	8.47e-01	0	40	104	0	79	14837
2026-01-30 07:26:39.33	64.35	3.04	-54.2	-66.1	3.8	8.46e-01	0	39	104	0	79	14698
2026-01-30 07:26:40.34	64.28	3.10	-54.1	-66.1	3.8	8.46e-01	0	40	104	0	79	14641
2026-01-30 07:26:41.35	64.21	3.16	-54.1	-66.0	3.8	8.47e-01	0	40	104	0	79	14475
2026-01-30 07:26:42.35	64.14	3.22	-54.0	-66.0	3.8	8.46e-01	0	40	104	0	79	14437
2026-01-30 07:26:43.36	64.07	3.28	-53.9	-65.9	3.8	8.45e-01	0	40	104	0	79	14222
2026-01-30 07:26:44.37	64.00	3.34	-53.9	-65.8	3.8	8.46e-01	0	40	104	0	79	14173
2026-01-30 07:26:45.38	63.93	3.40	-53.9	-65.8	3.8	8.46e-01	0	40	104	0	79	14152
2026-01-30 07:26:46.39	63.86	3.46	-53.8	-65.7	3.8	8.47e-01	0	40	104	0	79	14046
2026-01-30 07:26:47.39	63.79	3.52	-53.7	-65.6	3.8	8.46e-01	0	40	104	0	79	13740
2026-01-30 07:26:48.39	63.72	3.58	-53.6	-65.5	3.8	8.45e-01	0	40	104	0	79	13696
2026-01-30 07:26:49.40	63.65	3.64	-53.5	-65.3	3.8	8.46e-01	0	40	104	0	78	14132
2026-01-30 07:26:50.41	63.58	3.70	-53.3	-65.2	3.8	8.46e-01	0	40	104	0	78	13975
2026-01-30 07:26:51.41	63.51	3.76	-53.1	-64.9	3.8	8.46e-01	0	40	104	0	78	13521
2026-01-30 07:26:52.42	63.44	3.82	-52.9	-64.8	3.8	8.45e-01	0	40	104	0	77	14172
2026-01-30 07:26:53.43	63.37	3.88	-52.6	-64.5	3.8	8.46e-01	0	40	104	0	77	13701
2026-01-30 07:26:54.43	63.30	3.94	-52.1	-64.0	3.8	8.47e-01	0	40	104	0	76	13599
2026-01-30 07:26:55.44	63.22	4.00	-51.9	-63.8	3.8	8.47e-01	0	40	104	0	75	14139
2026-01-30 07:26:56.45	63.15	4.06	-51.9	-63.8	3.8	8.46e-01	0	40	104	0	75	14074
2026-01-30 07:26:57.46	63.08	4.12	-51.8	-63.6	3.8	8.46e-01	0	40	104	0	75	13751
2026-01-30 07:26:58.47	63.00	4.18	-51.8	-63.2	3.8	8.45e-01	0	40	104	0	75	13218
2026-01-30 07:26:59.48	62.93	4.24	-51.8	-62.8	3.8	8.45e-01	0	40	104	0	75	12655
2026-01-30 07:27:00.49	62.86	4.30	-51.7	-62.6	3.8	8.46e-01	0	40	104	0	75	12302
2026-01-30 07:27:01.49	62.78	4.36	-51.7	-62.6	3.8	8.44e-01	0	40	104	0	75	12322
2026-01-30 07:27:02.50	62.71	4.42	-51.7	-62.6	3.8	8.47e-01	0	40	104	0	75	12343
2026-01-30 07:27:03.50	62.63	4.48	-51.7	-62.3	3.8	8.45e-01	0	40	104	0	75	11893
2026-01-30 07:27:04.51	62.56	4.54	-51.4	-60.2	4.2	8.43e-01	0	40	0	0	74	9897
2026-01-30 07:27:05.52	62.48	4.61	-50.9	-57.5	5.3	7.50e-01	0	40	0	0	73	7715
2026-01-30 07:27:06.53	62.41	4.67	-50.1	-54.7	7.7	1.89e-01	0	40	0	4194304	72	5915
2026-01-30 07:27:07.54	62.33	4.73	-49.3	-52.8	9.7	2.97e-02	0	40	0	9437184	70	5320
2026-01-30 07:27:08.54	62.25	4.79	-48.4	-51.2	11.5	2.51e-03	0	40	0	15728640	68	4945
2026-01-30 07:27:09.55	62.18	4.85	-47.3	-49.5	13.1	1.43e-04	0	40	0	20971520	66	4597
2026-01-30 07:27:10.55	62.10	4.91	-46.6	-48.5	14.1	6.80e-06	0	40	0	26214400	65	4320
2026-01-30 07:27:11.55	62.02	4.97	-46.0	-47.8	14.9	0.00e+00	0	40	0	32505856	64	4201
2026-01-30 07:27:12.56	61.94	5.03	-45.7	-47.4	15.4	0.00e+00	0	41	0	37748736	63	4256
2026-01-30 07:27:13.57	61.86	5.10	-43.7	-44.8	18.3	0.00e+00	0	40	0	44040192	59	4001
2026-01-30 07:27:14.58	61.79	5.16	-46.5	-48.4	14.7	0.00e+00	0	40	0	49283072	63	4793
2026-01-30 07:27:15.59	61.71	5.22	-48.0	-50.6	11.8	6.10e-01	0	40	104	50331648	68	4601
2026-01-30 07:27:16.59	61.63	5.28	-43.2	-44.3	18.9	4.81e-04	0	40	0	55574528	58	3960
2026-01-30 07:27:17.60	61.55	5.35	-43.2	-44.3	18.8	0.00e+00	0	40	0	60817408	57	4230
2026-01-30 07:27:18.61	61.47	5.41	-42.6	-43.7	19.5	0.00e+00	0	40	0	66060288	57	3915
2026-01-30 07:27:19.61	61.39	5.47	-42.3	-43.4	19.8	0.00e+00	0	40	0	72351744	56	4009
2026-01-30 07:27:20.61	61.31	5.53	-42.2	-43.2	19.9	0.00e+00	0	40	0	78643200	56	3917
2026-01-30 07:27:21.63	61.22	5.60	-42.1	-43.1	20.0	0.00e+00	0	40	0	83886080	56	3909
2026-01-30 07:27:22.63	61.14	5.66	-41.9	-42.9	20.2	0.00e+00	0	40	0	89128960	55	4031
2026-01-30 07:27:23.64	61.06	5.72	-42.1	-43.1	20.0	0.00e+00	0	41	0	95420416	55	4139
2026-01-30 07:27:24.64	60.98	5.78	-42.0	-43.0	20.1	0.00e+00	0	41	0	100663296	55	4084
2026-01-30 07:27:25.65	60.90	5.85	-42.1	-43.1	20.0	0.00e+00	0	41	0	105906176	55	4120
2026-01-30 07:27:26.66	60.81	5.91	-42.2	-43.2	20.0	0.00e+00	0	41	0	112197632	55	4146
2026-01-30 07:27:27.67	60.73	5.97	-42.0	-43.0	20.1	0.00e+00	0	40	0	117440512	55	4082
2026-01-30 07:27:28.67	60.65	6.04	-41.9	-42.9	20.2	0.00e+00	0	40	0	122683392	55	4031
2026-01-30 07:27:29.68	60.56	6.10	-42.0	-42.9	20.2	0.00e+00	0	40	0	128974848	55	4046
2026-01-30 07:27:30.69	60.48	6.16	-42.1	-43.1	20.1	0.00e+00	0	41	0	134217728	55	4112
2026-01-30 07:27:31.70	60.39	6.23	-42.0	-43.0	20.2	0.00e+00	0	40	0	140509184	55	4058
2026-01-30 07:27:32.70	60.31	6.29	-42.0	-43.0	20.2	0.00e+00	0	40	0	145752064	55	4080
2026-01-30 07:27:33.71	60.22	6.35	-41.9	-42.9	20.3	0.00e+00	0	41	0	152043520	55	4010
2026-01-30 07:27:34.72	60.14	6.42	-42.1	-43.1	20.1	0.00e+00	0	41	0	157286400	55	4116
2026-01-30 07:27:35.73	60.05	6.48	-42.2	-43.2	20.1	0.00e+00	0	40	0	163577856	55	4159
2026-01-30 07:27:36.73	59.96	6.55	-42.0	-42.9	20.3	0.00e+00	0	41	0	168820736	55	4044
2026-01-30 07:27:37.74	59.87	6.61	-42.1	-43.0	20.2	0.00e+00	0	41	0	174063616	55	4094
2026-01-30 07:27:38.75	59.79	6.67	-41.9	-42.9	20.4	0.00e+00	0	41	0	180355072	55	4018
2026-01-30 07:27:39.75	59.70	6.74	-41.9	-42.9	20.4	0.00e+00	0	41	0	185597952	55	4011
2026-01-30 07:27:40.76	59.61	6.80	-41.9	-42.9	20.4	0.00e+00	0	41	0	190840832	55	4005
2026-01-30 07:27:41.77	59.52	6.87	-41.8	-42.7	20.5	0.00e+00	0	41	0	197132288	55	3949
2026-01-30 07:27:42.77	59.43	6.93	-42.0	-43.0	20.3	0.00e+00	0	41	0	202375168	55	4084
2026-01-30 07:27:43.78	59.34	7.00	-42.1	-43.1	20.2	0.00e+00	0	41	0	207618048	55	4132
2026-01-30 07:27:44.79	59.25	7.06	-42.0	-43.0	20.3	0.00e+00	0	41	0	213909504	55	4082
2026-01-30 07:27:45.80	59.16	7.13	-41.9	-42.9	20.4	0.00e+00	0	41	0	219152384	55	4019
2026-01-30 07:27:46.80	59.07	7.19	-41.8	-42.7	20.6	0.00e+00	0	41	0	225443840	55	3949
2026-01-30 07:27:47.80	58.98	7.26	-41.7	-42.7	20.6	0.00e+00	0	41	0	230686720	55	3925
2026-01-30 07:27:48.81	58.89	7.32	-42.0	-43.0	20.4	0.00e+00	0	41	0	236978176	55	4060
2026-01-30 07:27:49.82	58.80	7.39	-41.9	-42.9	20.4	0.00e+00	0	41	0	242221056	55	4015
2026-01-30 07:27:50.82	58.70	7.45	-42.1	-43.1	20.3	0.00e+00	0	41	0	248512512	55	4101
2026-01-30 07:27:51.83	58.61	7.52	-41.8	-42.7	20.6	0.00e+00	0	41	0	253755392	55	3950
2026-01-30 07:27:52.84	58.52	7.58	-41.9	-42.9	20.5	0.00e+00	0	41	0	258998272	55	4014
2026-01-30 07:27:53.85	58.42	7.65	-41.7	-42.6	20.8	0.00e+00	0	41	0	265289728	55	3888
2026-01-30 07:27:54.85	58.33	7.71	-41.6	-42.5	20.9	0.00e+00	0	41	0	270532608	55	3852
2026-01-30 07:27:55.86	58.23	7.78	-41.6	-42.5	20.8	0.00e+00	0	41	0	275775488	55	3858
2026-01-30 07:27:56.87	58.14	7.85	-41.7	-42.6	20.7	0.00e+00	0	41	0	282066944	55	3912
2026-01-30 07:27:57.87	58.04	7.91	-41.6	-42.5	20.9	0.00e+00	0	41	0	287309824	55	3855
2026-01-30 07:27:58.88	57.95	7.98	-41.4	-42.3	21.1	0.00e+00	0	41	0	292552704	54	3974
2026-01-30 07:27:59.89	57.85	8.04	-41.3	-42.2	21.1	0.00e+00	0	41	0	298844160	54	3952
2026-01-30 07:28:00.90	57.75	8.11	-41.4	-42.3	21.0	0.00e+00	0	41	0	304087040	54	3993
2026-01-30 07:28:01.90	57.65	8.18	-41.3	-42.2	21.2	0.00e+00	0	41	0	310378496	54	3919
2026-01-30 07:28:02.91	57.56	8.24	-41.3	-42.2	21.2	0.00e+00	0	41	0	315621376	54	3918
2026-01-30 07:28:03.91	57.46	8.31	-41.2	-42.0	21.3	0.00e+00	0	41	0	321912832	54	3865
2026-01-30 07:28:04.92	57.36	8.38	-41.3	-42.1	21.2	0.00e+00	0	41	0	327155712	54	3910
2026-01-30 07:28:05.93	57.26	8.44	-41.2	-42.1	21.3	0.00e+00	0	41	0	333447168	54	3877
2026-01-30 07:28:06.94	57.16	8.51	-41.0	-41.9	21.5	0.00e+00	0	41	0	338690048	54	3805
2026-01-30 07:28:07.95	57.06	8.58	-41.1	-42.0	21.4	0.00e+00	0	41	0	343932928	54	3839
2026-01-30 07:28:08.96	56.96	8.64	-41.2	-42.1	21.4	0.00e+00	0	41	0	350224384	54	3872
2026-01-30 07:28:09.97	56.86	8.71	-41.3	-42.2	21.2	0.00e+00	0	41	0	355467264	54	3944
2026-01-30 07:28:10.97	56.76	8.78	-41.3	-42.2	21.2	0.00e+00	0	41	0	360710144	54	3954
2026-01-30 07:28:11.98	56.65	8.85	-41.2	-42.1	21.4	0.00e+00	0	41	0	367001600	54	3878
2026-01-30 07:28:12.99	56.55	8.91	-41.3	-42.2	21.2	0.00e+00	0	41	0	372244480	54	3952
2026-01-30 07:28:14.00	56.45	8.98	-41.4	-42.3	21.2	0.00e+00	0	41	0	377487360	54	3983
2026-01-30 07:28:15.00	56.34	9.05	-41.3	-42.2	21.3	0.00e+00	0	41	0	383778816	54	3922
2026-01-30 07:28:16.01	56.24	9.12	-41.4	-42.3	21.2	0.00e+00	0	41	0	389021696	54	3988
2026-01-30 07:28:17.02	56.13	9.18	-41.4	-42.3	21.1	0.00e+00	0	41	0	395313152	54	4001
2026-01-30 07:28:18.03	56.03	9.25	-41.3	-42.2	21.3	0.00e+00	0	41	0	400556032	54	3937
2026-01-30 07:28:19.03	55.92	9.32	-41.1	-41.9	21.5	0.00e+00	0	40	0	406847488	54	3813
2026-01-30 07:28:20.04	55.82	9.39	-41.1	-42.0	21.4	0.00e+00	0	41	0	412090368	54	3861
2026-01-30 07:28:21.05	55.71	9.46	-41.2	-42.1	21.4	0.00e+00	0	41	0	418381824	54	3878
2026-01-30 07:28:22.05	55.60	9.52	-41.2	-42.1	21.4	0.00e+00	0	41	0	423624704	54	3886
2026-01-30 07:28:23.06	55.49	9.59	-41.1	-42.0	21.5	0.00e+00	0	41	0	428867584	54	3855
2026-01-30 07:28:24.07	55.39	9.66	-41.2	-42.0	21.5	0.00e+00	0	41	0	435159040	54	3868
2026-01-30 07:28:25.08	55.28	9.73	-41.0	-41.9	21.6	0.00e+00	0	41	0	440401920	54	3813
2026-01-30 07:28:26.08	55.17	9.80	-41.1	-42.0	21.5	0.00e+00	0	41	0	445644800	54	3858
2026-01-30 07:28:27.09	55.06	9.87	-41.2	-42.1	21.4	0.00e+00	0	41	0	451936256	54	3898
2026-01-30 07:28:28.09	54.95	9.93	-41.3	-42.2	21.3	0.00e+00	0	41	0	457179136	54	3936
2026-01-30 07:28:29.10	54.84	10.00	-41.3	-42.2	21.3	0.00e+00	0	41	0	462422016	54	3926
2026-01-30 07:28:30.11	54.72	10.07	-41.2	-42.1	21.4	0.00e+00	0	41	0	468713472	54	3901
2026-01-30 07:28:31.12	54.61	10.14	-41.1	-42.0	21.5	0.00e+00	0	41	0	475004928	54	3842
2026-01-30 07:28:32.13	54.50	10.21	-41.2	-42.1	21.4	0.00e+00	0	41	0	480247808	54	3901
2026-01-30 07:28:33.13	54.39	10.28	-41.1	-41.9	21.6	0.00e+00	0	41	0	485490688	54	3822
2026-01-30 07:28:34.14	54.27	10.35	-41.0	-41.8	21.7	0.00e+00	0	41	0	491782144	54	3777
2026-01-30 07:28:35.14	54.16	10.42	-40.9	-41.8	21.7	0.00e+00	0	41	0	497025024	53	3979
2026-01-30 07:28:36.15	54.04	10.49	-41.0	-41.8	21.7	0.00e+00	0	41	0	503316480	53	3995
2026-01-30 07:28:37.16	53.93	10.56	-40.9	-41.8	21.7	0.00e+00	0	41	0	508559360	53	3990
2026-01-30 07:28:38.17	53.81	10.63	-40.7	-41.6	21.9	0.00e+00	0	41	0	513802240	53	3887
2026-01-30 07:28:39.18	53.69	10.70	-40.6	-41.5	22.1	0.00e+00	0	41	0	520093696	53	3835
2026-01-30 07:28:40.18	53.58	10.77	-40.6	-41.4	22.1	0.00e+00	0	41	0	525336576	53	3822
2026-01-30 07:28:41.19	53.46	10.84	-40.7	-41.5	22.0	0.00e+00	0	41	0	530579456	53	3845
2026-01-30 07:28:42.20	53.34	10.91	-40.6	-41.4	22.1	0.00e+00	0	41	0	536870912	53	3818
2026-01-30 07:28:43.20	53.22	10.98	-40.7	-41.6	22.0	0.00e+00	0	41	0	542113792	53	3873
2026-01-30 07:28:44.21	53.10	11.05	-40.7	-41.6	21.9	0.00e+00	0	41	0	547356672	53	3892
2026-01-30 07:28:45.21	52.98	11.12	-40.7	-41.6	22.0	0.00e+00	0	41	0	553648128	53	3877
2026-01-30 07:28:46.22	52.86	11.19	-40.6	-41.4	22.1	0.00e+00	0	41	0	559939584	53	3809
2026-01-30 07:28:47.23	52.74	11.26	-40.6	-41.4	22.2	0.00e+00	0	41	0	565182464	53	3801
2026-01-30 07:28:48.24	52.62	11.33	-40.6	-41.4	22.1	0.00e+00	0	41	0	570425344	53	3809
2026-01-30 07:28:49.24	52.50	11.40	-40.7	-41.6	22.0	0.00e+00	0	41	0	576716800	53	3873
2026-01-30 07:28:50.25	52.37	11.47	-40.6	-41.5	22.1	0.00e+00	0	41	0	581959680	53	3840
2026-01-30 07:28:51.26	52.25	11.54	-40.8	-41.6	22.0	0.00e+00	0	41	0	588251136	53	3890
2026-01-30 07:28:52.26	52.13	11.61	-40.7	-41.6	22.0	0.00e+00	0	41	0	593494016	53	3871
2026-01-30 07:28:53.27	52.00	11.68	-40.4	-41.2	22.4	0.00e+00	0	41	0	598736896	52	3936
2026-01-30 07:28:54.28	51.88	11.75	-40.3	-41.1	22.5	0.00e+00	0	41	0	605028352	52	3884
2026-01-30 07:28:55.29	51.75	11.82	-40.3	-41.1	22.4	0.00e+00	0	41	0	610271232	52	3903
2026-01-30 07:28:56.29	51.62	11.89	-40.4	-41.3	22.3	0.00e+00	0	41	0	615514112	52	3963
2026-01-30 07:28:57.30	51.50	11.96	-40.5	-41.4	22.2	0.00e+00	0	41	0	621805568	52	4012
2026-01-30 07:28:58.31	51.37	12.03	-40.4	-41.2	22.3	0.00e+00	0	41	0	627048448	52	3955
2026-01-30 07:28:59.31	51.24	12.11	-40.4	-41.3	22.3	0.00e+00	0	41	0	633339904	52	3964
2026-01-30 07:29:00.32	51.11	12.18	-40.3	-41.2	22.4	0.00e+00	0	41	0	638582784	52	3914
2026-01-30 07:29:01.33	50.98	12.25	-40.1	-40.9	22.6	0.00e+00	0	41	0	644874240	52	3815
2026-01-30 07:29:02.34	50.85	12.32	-40.2	-41.0	22.6	0.00e+00	0	41	0	650117120	52	3838
2026-01-30 07:29:03.35	50.72	12.39	-40.2	-41.0	22.5	0.00e+00	0	41	0	655360000	52	3865
2026-01-30 07:29:04.35	50.59	12.46	-40.3	-41.1	22.5	0.00e+00	0	41	0	661651456	52	3884
2026-01-30 07:29:05.36	50.45	12.53	-40.3	-41.1	22.5	0.00e+00	0	41	0	666894336	52	3906
2026-01-30 07:29:06.37	50.32	12.61	-40.2	-41.0	22.6	0.00e+00	0	41	0	673185792	52	3849
2026-01-30 07:29:07.38	50.19	12.68	-40.2	-41.0	22.6	0.00e+00	0	41	0	678428672	52	3853
2026-01-30 07:29:08.39	50.05	12.75	-40.1	-41.0	22.6	0.00e+00	0	41	0	683671552	52	3828
2026-01-30 07:29:09.39	49.92	12.82	-40.0	-40.8	22.8	0.00e+00	0	41	0	689963008	52	3748
2026-01-30 07:29:10.40	49.78	12.89	-40.0	-40.9	22.7	0.00e+00	0	41	0	695205888	52	3784
2026-01-30 07:29:11.41	49.64	12.96	-40.0	-40.8	22.9	0.00e+00	0	41	0	701497344	51	3972
2026-01-30 07:29:12.42	49.51	13.04	-40.1	-40.9	22.8	0.00e+00	0	41	0	706740224	51	4020
2026-01-30 07:29:13.43	49.37	13.11	-40.0	-40.8	22.9	0.00e+00	0	41	0	713031680	51	3968
2026-01-30 07:29:14.44	49.23	13.18	-39.9	-40.6	23.0	0.00e+00	0	41	0	718274560	51	3909
2026-01-30 07:29:15.45	49.09	13.25	-39.8	-40.6	23.1	0.00e+00	0	41	0	723517440	51	3873
2026-01-30 07:29:16.46	48.95	13.32	-39.9	-40.6	23.0	0.00e+00	0	41	0	729808896	51	3909
2026-01-30 07:29:17.47	48.81	13.40	-39.9	-40.7	22.9	0.00e+00	0	41	0	735051776	51	3950
2026-01-30 07:29:18.48	48.67	13.47	-39.9	-40.7	23.0	0.00e+00	0	41	0	740294656	51	3933
2026-01-30 07:29:19.48	48.53	13.54	-39.9	-40.7	23.0	0.00e+00	0	41	0	746586112	51	3929
2026-01-30 07:29:20.49	48.38	13.61	-39.8	-40.6	23.1	0.00e+00	0	41	0	751828992	51	3897
2026-01-30 07:29:21.50	48.24	13.69	-39.9	-40.7	23.0	0.00e+00	0	41	0	758120448	51	3918
2026-01-30 07:29:22.51	48.09	13.76	-39.7	-40.5	23.2	0.00e+00	0	41	0	763363328	51	3857
2026-01-30 07:29:23.52	47.95	13.83	-39.7	-40.5	23.2	0.00e+00	0	41	0	769654784	51	3856
2026-01-30 07:29:24.53	47.80	13.90	-39.8	-40.6	23.1	0.00e+00	0	41	0	774897664	51	3890
2026-01-30 07:29:25.53	47.66	13.97	-39.8	-40.6	23.1	0.00e+00	0	41	0	781189120	51	3887
2026-01-30 07:29:26.54	47.51	14.05	-39.8	-40.6	23.2	0.00e+00	0	41	0	786432000	51	3870
2026-01-30 07:29:27.55	47.36	14.12	-39.8	-40.6	23.1	0.00e+00	0	41	0	791674880	51	3878
2026-01-30 07:29:28.56	47.21	14.19	-39.7	-40.4	23.3	0.00e+00	0	41	0	797966336	51	3818
2026-01-30 07:29:29.56	47.06	14.26	-39.7	-40.5	23.2	0.00e+00	0	41	0	803209216	51	3828
2026-01-30 07:29:30.57	46.91	14.34	-39.7	-40.4	23.2	0.00e+00	0	41	0	808452096	51	3821
2026-01-30 07:29:31.58	46.76	14.41	-39.8	-40.6	23.1	0.00e+00	0	41	0	814743552	51	3885
2026-01-30 07:29:32.58	46.61	14.48	-39.8	-40.6	23.1	0.00e+00	0	41	0	819986432	51	3895
2026-01-30 07:29:33.59	46.46	14.55	-39.9	-40.7	23.1	0.00e+00	0	41	0	825229312	51	3923
2026-01-30 07:29:34.60	46.31	14.63	-39.6	-40.4	23.4	0.00e+00	0	41	0	831520768	51	3782
2026-01-30 07:29:35.60	46.15	14.70	-39.6	-40.4	23.3	0.00e+00	0	41	0	836763648	51	3811
2026-01-30 07:29:36.62	46.00	14.77	-39.7	-40.5	23.3	0.00e+00	0	41	0	843055104	51	3825
2026-01-30 07:29:37.62	45.84	14.84	-39.5	-40.3	23.4	0.00e+00	0	41	0	848297984	51	3750
2026-01-30 07:29:38.63	45.68	14.92	-39.5	-40.3	23.4	0.00e+00	0	41	0	854589440	50	3963
2026-01-30 07:29:39.63	45.53	14.99	-39.4	-40.1	23.6	0.00e+00	0	41	0	859832320	50	3902
2026-01-30 07:29:40.64	45.37	15.06	-39.4	-40.1	23.6	0.00e+00	0	41	0	866123776	50	3910
2026-01-30 07:29:41.65	45.21	15.13	-39.3	-40.1	23.6	0.00e+00	0	41	0	871366656	50	3881
2026-01-30 07:29:42.65	45.05	15.21	-39.3	-40.1	23.6	0.00e+00	0	41	0	876609536	50	3886
2026-01-30 07:29:43.66	44.89	15.28	-39.3	-40.0	23.7	0.00e+00	0	41	0	882900992	50	3853
2026-01-30 07:29:44.67	44.73	15.35	-39.2	-40.0	23.7	0.00e+00	0	41	0	888143872	50	3837
2026-01-30 07:29:45.68	44.57	15.42	-39.3	-40.0	23.7	0.00e+00	0	41	0	893386752	50	3864
2026-01-30 07:29:46.69	44.41	15.50	-39.4	-40.2	23.5	0.00e+00	0	41	0	899678208	50	3935
2026-01-30 07:29:47.69	44.24	15.57	-39.3	-40.1	23.6	0.00e+00	0	41	0	904921088	50	3887
2026-01-30 07:29:48.69	44.08	15.64	-39.4	-40.1	23.6	0.00e+00	0	41	0	910163968	50	3907
2026-01-30 07:29:49.70	43.92	15.71	-39.4	-40.2	23.5	0.00e+00	0	41	0	916455424	50	3924
2026-01-30 07:29:50.71	43.75	15.79	-39.4	-40.2	23.6	0.00e+00	0	41	0	922746880	50	3915
2026-01-30 07:29:51.71	43.58	15.86	-39.4	-40.1	23.6	0.00e+00	0	41	0	927989760	50	3911
2026-01-30 07:29:52.73	43.42	15.93	-39.4	-40.1	23.6	0.00e+00	0	41	0	933232640	50	3911
2026-01-30 07:29:53.73	43.25	16.00	-39.3	-40.0	23.7	0.00e+00	0	41	0	939524096	50	3851
2026-01-30 07:29:54.74	43.08	16.07	-39.2	-40.0	23.7	0.00e+00	0	41	0	944766976	50	3844
2026-01-30 07:29:55.74	42.91	16.15	-39.3	-40.1	23.6	0.00e+00	0	41	0	951058432	50	3889
2026-01-30 07:29:56.75	42.74	16.22	-39.2	-39.9	23.8	0.00e+00	0	41	0	956301312	50	3815
2026-01-30 07:29:57.76	42.57	16.29	-39.1	-39.9	23.9	0.00e+00	0	41	0	961544192	50	3784
2026-01-30 07:29:58.78	42.39	16.36	-39.1	-39.8	23.9	0.00e+00	0	41	0	967835648	50	3765
2026-01-30 07:29:59.78	42.22	16.44	-39.1	-39.9	23.8	0.00e+00	0	41	0	973078528	50	3801
2026-01-30 07:30:00.79	42.05	16.51	-39.2	-39.9	23.8	0.00e+00	0	41	0	978321408	50	3817
2026-01-30 07:30:01.79	41.87	16.58	-39.3	-40.0	23.7	0.00e+00	0	41	0	984612864	50	3854
2026-01-30 07:30:02.80	41.70	16.65	-39.4	-40.2	23.6	0.00e+00	0	41	0	989855744	50	3925
2026-01-30 07:30:03.81	41.52	16.72	-39.3	-40.0	23.7	0.00e+00	0	41	0	995098624	50	3865
2026-01-30 07:30:04.82	41.34	16.79	-39.2	-40.0	23.7	0.00e+00	0	41	0	1001390080	50	3847
2026-01-30 07:30:05.82	41.16	16.87	-39.2	-39.9	23.8	0.00e+00	0	41	0	1007681536	50	3812
2026-01-30 07:30:06.83	40.99	16.94	-39.2	-40.0	23.7	0.00e+00	0	41	0	1012924416	50	3849
2026-01-30 07:30:07.84	40.80	17.01	-39.2	-40.0	23.7	0.00e+00	0	41	0	1018167296	50	3847
2026-01-30 07:30:08.85	40.62	17.08	-39.1	-39.9	23.9	0.00e+00	0	41	0	1024458752	50	3783
2026-01-30 07:30:09.86	40.44	17.15	-39.0	-39.8	23.9	0.00e+00	0	41	0	1029701632	50	3748
2026-01-30 07:30:10.86	40.26	17.22	-39.0	-39.7	24.0	0.00e+00	0	41	0	1035993088	49	3948
2026-01-30 07:30:11.87	40.08	17.29	-38.8	-39.6	24.1	0.00e+00	0	41	0	1041235968	49	3886
2026-01-30 07:30:12.87	39.89	17.36	-38.9	-39.6	24.1	0.00e+00	0	41	0	1046478848	49	3900
2026-01-30 07:30:13.88	39.71	17.43	-38.8	-39.5	24.2	0.00e+00	0	41	0	1052770304	49	3853
2026-01-30 07:30:14.89	39.52	17.51	-38.8	-39.5	24.2	0.00e+00	0	41	0	1058013184	49	3860
2026-01-30 07:30:15.89	39.33	17.58	-38.9	-39.6	24.1	0.00e+00	0	41	0	1063256064	49	3888
2026-01-30 07:30:16.89	39.15	17.65	-38.8	-39.6	24.1	0.00e+00	0	41	0	1069547520	49	3885
2026-01-30 07:30:17.91	38.96	17.72	-38.9	-39.6	24.1	0.00e+00	0	41	0	1074790400	49	3898
2026-01-30 07:30:18.91	38.77	17.79	-38.8	-39.5	24.2	0.00e+00	0	41	0	1081081856	49	3844
2026-01-30 07:30:19.92	38.58	17.86	-38.7	-39.4	24.3	0.00e+00	0	41	0	1086324736	49	3800
2026-01-30 07:30:20.93	38.39	17.93	-38.7	-39.4	24.3	0.00e+00	0	41	0	1092616192	49	3803
2026-01-30 07:30:21.93	38.19	18.00	-38.6	-39.4	24.4	0.00e+00	0	41	0	1097859072	49	3784
2026-01-30 07:30:22.93	38.00	18.07	-38.7	-39.5	24.2	0.00e+00	0	41	0	1103101952	49	3828
2026-01-30 07:30:23.94	37.81	18.14	-38.6	-39.3	24.3	0.00e+00	0	41	0	1109393408	49	3757
2026-01-30 07:30:24.95	37.61	18.20	-38.5	-39.3	24.3	0.00e+00	0	41	0	1114636288	49	3746
2026-01-30 07:30:25.96	37.42	18.27	-38.5	-39.3	24.4	0.00e+00	0	41	0	1120927744	49	3743
2026-01-30 07:30:26.96	37.22	18.34	-38.5	-39.3	24.5	0.00e+00	0	41	0	1126170624	49	3740
2026-01-30 07:30:27.96	37.02	18.41	-38.6	-39.4	24.4	0.00e+00	0	41	0	1131413504	49	3782
2026-01-30 07:30:28.97	36.82	18.48	-38.6	-39.4	24.4	0.00e+00	0	41	0	1137704960	49	3791
2026-01-30 07:30:29.97	36.63	18.55	-38.3	-39.0	24.6	0.00e+00	0	41	0	1142947840	48	3858
2026-01-30 07:30:30.97	36.43	18.62	-38.2	-39.0	24.7	0.00e+00	0	41	0	1148190720	48	3825
2026-01-30 07:30:31.98	36.23	18.68	-38.2	-38.9	24.8	0.00e+00	0	41	0	1154482176	48	3805
2026-01-30 07:30:32.99	36.02	18.75	-38.1	-38.8	24.8	0.00e+00	0	41	0	1159725056	48	3772
2026-01-30 07:30:34.00	35.82	18.82	-38.1	-38.8	24.9	0.00e+00	0	41	0	1166016512	48	3760
2026-01-30 07:30:35.01	35.61	18.89	-38.2	-38.9	24.8	0.00e+00	0	41	0	1171259392	48	3800
2026-01-30 07:30:36.02	35.41	18.96	-38.3	-39.0	24.7	0.00e+00	0	41	0	1177550848	48	3837
2026-01-30 07:30:37.03	35.20	19.02	-38.3	-39.0	24.7	0.00e+00	0	41	0	1182793728	48	3840
2026-01-30 07:30:38.04	34.99	19.09	-38.2	-38.9	24.8	0.00e+00	0	41	0	1189085184	48	3819
2026-01-30 07:30:39.05	34.79	19.16	-38.2	-39.0	24.7	0.00e+00	0	41	0	1194328064	48	3828
2026-01-30 07:30:40.06	34.58	19.23	-38.1	-38.8	24.9	0.00e+00	0	41	0	1199570944	48	3776
2026-01-30 07:30:41.07	34.37	19.29	-38.1	-38.9	24.8	0.00e+00	0	41	0	1205862400	48	3787
2026-01-30 07:30:42.07	34.16	19.36	-38.2	-38.9	24.8	0.00e+00	0	41	0	1211105280	48	3823
2026-01-30 07:30:43.08	33.94	19.42	-38.3	-39.1	24.7	0.00e+00	0	41	0	1216348160	48	3869
2026-01-30 07:30:44.09	33.73	19.49	-38.1	-38.8	24.9	0.00e+00	0	41	0	1222639616	48	3771
2026-01-30 07:30:45.10	33.52	19.56	-38.1	-38.8	24.9	0.00e+00	0	41	0	1227882496	48	3761
2026-01-30 07:30:46.10	33.31	19.62	-38.1	-38.8	25.0	0.00e+00	0	41	0	1233125376	48	3746
2026-01-30 07:30:47.11	33.09	19.69	-38.1	-38.8	24.9	0.00e+00	0	41	0	1239416832	48	3765
2026-01-30 07:30:48.11	32.87	19.75	-38.1	-38.8	24.9	0.00e+00	0	41	0	1245708288	48	3759
2026-01-30 07:30:49.12	32.66	19.81	-38.0	-38.7	25.0	0.00e+00	0	41	0	1250951168	48	3727
2026-01-30 07:30:50.13	32.44	19.88	-38.2	-38.9	24.8	0.00e+00	0	41	0	1256194048	48	3795
2026-01-30 07:30:51.14	32.22	19.94	-38.3	-39.0	24.8	0.00e+00	0	41	0	1262485504	48	3843
2026-01-30 07:30:52.15	32.00	20.01	-38.1	-38.8	24.9	0.00e+00	0	41	0	1267728384	48	3746
2026-01-30 07:30:53.16	31.78	20.07	-38.1	-38.8	24.9	0.00e+00	0	41	0	1274019840	48	3771
2026-01-30 07:30:54.17	31.55	20.13	-38.0	-38.7	25.0	0.00e+00	0	41	0	1279262720	48	3717
2026-01-30 07:30:55.18	31.33	20.20	-37.5	-38.2	25.0	0.00e+00	0	41	0	1284505600	47	3728
2026-01-30 07:30:56.18	31.11	20.26	-37.7	-38.4	24.8	0.00e+00	0	41	0	1290797056	47	3810
2026-01-30 07:30:57.19	30.88	20.32	-37.6	-38.4	24.9	0.00e+00	0	41	0	1296039936	47	3791
2026-01-30 07:30:58.19	30.66	20.38	-37.6	-38.3	24.9	0.00e+00	0	41	0	1301282816	47	3761
2026-01-30 07:30:59.19	30.44	20.44	-37.6	-38.3	24.9	0.00e+00	0	41	0	1307574272	47	3775
2026-01-30 07:31:00.20	30.21	20.50	-37.7	-38.5	24.8	0.00e+00	0	41	0	1312817152	47	3827
2026-01-30 07:31:01.21	29.98	20.57	-37.8	-38.5	24.7	0.00e+00	0	41	0	1318060032	47	3854
2026-01-30 07:31:02.21	29.75	20.63	-37.8	-38.5	24.7	0.00e+00	0	41	0	1324351488	47	3845
2026-01-30 07:31:03.22	29.52	20.69	-37.8	-38.6	24.7	0.00e+00	0	41	0	1330642944	47	3878
2026-01-30 07:31:04.23	29.29	20.75	-37.8	-38.5	24.8	0.00e+00	0	41	0	1335885824	47	3843
2026-01-30 07:31:05.24	29.06	20.81	-37.8	-38.5	24.7	0.00e+00	0	41	0	1341128704	47	3860
2026-01-30 07:31:06.25	28.82	20.86	-37.6	-38.4	24.9	0.00e+00	0	41	0	1347420160	47	3790
2026-01-30 07:31:07.26	28.59	20.92	-37.6	-38.3	25.0	0.00e+00	0	41	0	1352663040	47	3751
2026-01-30 07:31:08.27	28.35	20.98	-37.6	-38.4	24.9	0.00e+00	0	41	0	1358954496	47	3782
2026-01-30 07:31:09.28	28.12	21.04	-37.5	-38.3	25.0	0.00e+00	0	41	0	1364197376	47	3742
2026-01-30 07:31:10.29	27.88	21.10	-37.5	-38.2	25.0	0.00e+00	0	41	0	1369440256	47	3718
2026-01-30 07:31:11.29	27.65	21.15	-37.5	-38.3	25.0	0.00e+00	0	41	0	1375731712	47	3748
2026-01-30 07:31:12.30	27.41	21.21	-37.6	-38.3	25.0	0.00e+00	0	41	0	1380974592	47	3761
2026-01-30 07:31:13.31	27.17	21.27	-37.4	-38.2	25.1	0.00e+00	0	41	0	1386217472	46	3917
2026-01-30 07:31:14.31	26.93	21.32	-37.5	-38.2	25.0	0.00e+00	0	41	0	1392508928	46	3958
2026-01-30 07:31:15.32	26.69	21.38	-37.5	-38.2	25.1	0.00e+00	0	41	0	1398800384	46	3931
2026-01-30 07:31:16.33	26.45	21.43	-37.5	-38.2	25.0	0.00e+00	0	41	0	1404043264	46	3938
2026-01-30 07:31:17.33	26.21	21.49	-37.6	-38.4	24.9	0.00e+00	0	41	0	1409286144	46	4013
2026-01-30 07:31:18.34	25.96	21.54	-37.6	-38.3	25.0	0.00e+00	0	41	0	1415577600	46	3971
2026-01-30 07:31:19.35	25.72	21.60	-37.6	-38.3	25.0	0.00e+00	0	41	0	1420820480	46	3990
2026-01-30 07:31:20.36	25.47	21.65	-37.6	-38.3	24.9	0.00e+00	0	41	0	1426063360	46	3991
2026-01-30 07:31:21.37	25.22	21.70	-37.5	-38.2	25.0	0.00e+00	0	41	0	1432354816	46	3944
2026-01-30 07:31:22.37	24.98	21.76	-37.4	-38.1	25.2	0.00e+00	0	41	0	1437597696	46	3877
2026-01-30 07:31:23.38	24.73	21.81	-37.3	-38.0	25.2	0.00e+00	0	41	0	1443889152	46	3852
2026-01-30 07:31:24.38	24.48	21.86	-37.4	-38.1	25.1	0.00e+00	0	41	0	1449132032	46	3909
2026-01-30 07:31:25.39	24.23	21.91	-37.5	-38.2	25.0	0.00e+00	0	41	0	1454374912	46	3944
2026-01-30 07:31:26.39	23.99	21.96	-37.5	-38.2	25.1	0.00e+00	0	41	0	1460666368	46	3939
2026-01-30 07:31:27.40	23.73	22.01	-37.5	-38.2	25.0	0.00e+00	0	41	0	1465909248	46	3950
2026-01-30 07:31:28.41	23.48	22.06	-37.4	-38.1	25.1	0.00e+00	0	41	0	1471152128	46	3903
2026-01-30 07:31:29.41	23.23	22.11	-37.4	-38.1	25.1	0.00e+00	0	41	0	1477443584	46	3912
2026-01-30 07:31:30.42	22.98	22.16	-37.3	-38.1	25.2	0.00e+00	0	41	0	1483735040	46	3872
2026-01-30 07:31:31.43	22.72	22.21	-37.2	-38.0	25.3	0.00e+00	0	41	0	1488977920	46	3825
2026-01-30 07:31:32.44	22.47	22.26	-37.2	-37.9	25.3	0.00e+00	0	41	0	1494220800	46	3818
2026-01-30 07:31:33.44	22.21	22.30	-37.2	-37.9	25.3	0.00e+00	0	41	0	1500512256	46	3794
2026-01-30 07:31:34.45	21.96	22.35	-37.2	-37.9	25.4	0.00e+00	0	41	0	1505755136	46	3789
2026-01-30 07:31:35.46	21.70	22.40	-37.1	-37.9	25.4	0.00e+00	0	41	0	1510998016	46	3783
2026-01-30 07:31:36.46	21.44	22.44	-37.0	-37.8	25.5	0.00e+00	0	41	0	1517289472	46	3740
2026-01-30 07:31:37.47	21.18	22.49	-37.1	-37.9	25.4	0.00e+00	0	41	0	1522532352	46	3784
2026-01-30 07:31:38.48	20.92	22.53	-37.2	-38.0	25.3	0.00e+00	0	41	0	1528823808	46	3830
2026-01-30 07:31:39.48	20.66	22.57	-37.2	-37.9	25.4	0.00e+00	0	41	0	1534066688	46	3803
2026-01-30 07:31:40.49	20.40	22.62	-37.2	-38.0	25.3	0.00e+00	0	41	0	1539309568	46	3831
2026-01-30 07:31:41.50	20.14	22.66	-37.2	-37.9	25.4	0.00e+00	0	41	0	1545601024	46	3803
2026-01-30 07:31:42.51	19.88	22.70	-37.2	-37.9	25.3	0.00e+00	0	41	0	1550843904	46	3823
2026-01-30 07:31:43.51	19.62	22.74	-37.2	-37.9	25.4	0.00e+00	0	41	0	1557135360	46	3794
2026-01-30 07:31:44.52	19.35	22.78	-37.3	-38.0	25.2	0.00e+00	0	41	0	1562378240	46	3830
2026-01-30 07:31:45.52	19.09	22.82	-37.2	-37.9	25.3	0.00e+00	0	41	0	1568669696	46	3803
2026-01-30 07:31:46.53	18.82	22.86	-37.3	-38.0	25.3	0.00e+00	0	41	0	1573912576	46	3828
2026-01-30 07:31:47.53	18.56	22.90	-37.0	-37.7	25.5	0.00e+00	0	41	0	1579155456	46	3737
2026-01-30 07:31:48.54	18.29	22.94	-36.8	-37.5	25.7	0.00e+00	0	41	0	1585446912	45	3865
2026-01-30 07:31:49.55	18.02	22.98	-36.8	-37.5	25.6	0.00e+00	0	41	0	1590689792	45	3868
2026-01-30 07:31:50.56	17.75	23.02	-36.9	-37.6	25.6	0.00e+00	0	41	0	1595932672	45	3910
2026-01-30 07:31:51.56	17.49	23.05	-37.1	-37.8	25.4	0.00e+00	0	41	0	1602224128	45	3966
2026-01-30 07:31:52.57	17.22	23.09	-37.1	-37.8	25.4	0.00e+00	0	41	0	1607467008	45	3982
2026-01-30 07:31:53.58	16.95	23.13	-37.3	-38.0	25.2	0.00e+00	0	41	0	1613758464	45	4079
2026-01-30 07:31:54.58	16.68	23.16	-37.3	-38.0	25.2	0.00e+00	0	41	0	1619001344	45	4098
2026-01-30 07:31:55.59	16.41	23.20	-37.2	-37.9	25.3	0.00e+00	0	41	0	1624244224	45	4042
2026-01-30 07:31:56.60	16.13	23.23	-37.3	-38.0	25.3	0.00e+00	0	41	0	1630535680	45	4061
2026-01-30 07:31:57.61	15.86	23.26	-37.3	-38.0	25.3	0.00e+00	0	41	0	1636827136	45	4063
2026-01-30 07:31:58.62	15.59	23.29	-37.2	-37.9	25.3	0.00e+00	0	41	0	1642070016	45	4046
2026-01-30 07:31:59.63	15.31	23.33	-37.2	-37.9	25.3	0.00e+00	0	41	0	1647312896	45	4039
2026-01-30 07:32:00.64	15.04	23.36	-37.2	-37.9	25.3	0.00e+00	0	41	0	1653604352	45	4037
2026-01-30 07:32:01.65	14.76	23.39	-37.1	-37.8	25.4	0.00e+00	0	41	0	1658847232	45	3994
2026-01-30 07:32:02.66	14.49	23.42	-37.0	-37.7	25.5	0.00e+00	0	41	0	1664090112	45	3954
2026-01-30 07:32:03.67	14.21	23.45	-37.0	-37.7	25.5	0.00e+00	0	41	0	1670381568	45	3917
2026-01-30 07:32:04.68	13.94	23.47	-37.0	-37.7	25.5	0.00e+00	0	42	0	1675624448	45	3939
2026-01-30 07:32:05.69	13.66	23.50	-36.9	-37.6	25.6	0.00e+00	0	41	0	1680867328	45	3886
2026-01-30 07:32:06.70	13.38	23.53	-36.9	-37.6	25.6	0.00e+00	0	41	0	1687158784	45	3883
2026-01-30 07:32:07.70	13.11	23.55	-36.9	-37.6	25.6	0.00e+00	0	41	0	1692401664	45	3905
2026-01-30 07:32:08.71	12.83	23.58	-36.8	-37.6	25.6	0.00e+00	0	41	0	1698693120	45	3872
2026-01-30 07:32:09.71	12.55	23.60	-36.6	-37.3	25.9	0.00e+00	0	41	0	1703936000	45	3773
2026-01-30 07:32:10.72	12.27	23.63	-36.5	-37.2	25.9	0.00e+00	0	41	0	1710227456	45	3724
2026-01-30 07:32:11.73	11.99	23.65	-36.4	-37.1	26.1	0.00e+00	0	41	0	1715470336	44	3904
2026-01-30 07:32:12.73	11.71	23.67	-36.4	-37.1	26.1	0.00e+00	0	41	0	1721761792	44	3886
2026-01-30 07:32:13.74	11.43	23.70	-36.5	-37.2	26.0	0.00e+00	0	41	0	1727004672	44	3944
2026-01-30 07:32:14.74	11.15	23.72	-36.6	-37.3	25.9	0.00e+00	0	41	0	1732247552	44	3988
2026-01-30 07:32:15.75	10.87	23.74	-36.7	-37.4	25.7	0.00e+00	0	41	0	1738539008	44	4045
2026-01-30 07:32:16.75	10.59	23.76	-36.7	-37.4	25.8	0.00e+00	0	41	0	1743781888	44	4035
2026-01-30 07:32:17.76	10.31	23.78	-36.8	-37.5	25.7	0.00e+00	0	41	0	1749024768	44	4055
2026-01-30 07:32:18.77	10.03	23.79	-36.8	-37.5	25.7	0.00e+00	0	41	0	1755316224	44	4077
2026-01-30 07:32:19.78	9.75	23.81	-36.9	-37.6	25.6	0.00e+00	0	41	0	1760559104	44	4129
2026-01-30 07:32:20.78	9.46	23.83	-36.9	-37.6	25.6	0.00e+00	0	41	0	1765801984	44	4118
2026-01-30 07:32:21.79	9.18	23.84	-36.9	-37.7	25.6	0.00e+00	0	41	0	1772093440	44	4150
2026-01-30 07:32:22.80	8.90	23.86	-36.8	-37.5	25.8	0.00e+00	0	41	0	1777336320	44	4060
2026-01-30 07:32:23.80	8.62	23.87	-36.7	-37.4	25.8	0.00e+00	0	41	0	1783627776	44	4028
2026-01-30 07:32:24.81	8.33	23.89	-36.7	-37.4	25.8	0.00e+00	0	41	0	1788870656	44	4031
2026-01-30 07:32:25.82	8.05	23.90	-36.7	-37.4	25.8	0.00e+00	0	41	0	1795162112	44	4022
2026-01-30 07:32:26.83	7.76	23.91	-36.7	-37.4	25.8	0.00e+00	0	41	0	1800404992	44	4024
2026-01-30 07:32:27.84	7.48	23.92	-36.7	-37.4	25.8	0.00e+00	0	41	0	1806696448	44	4033
2026-01-30 07:32:28.85	7.19	23.94	-36.7	-37.4	25.8	0.00e+00	0	41	0	1811939328	44	4022
2026-01-30 07:32:29.86	6.91	23.95	-36.7	-37.4	25.8	0.00e+00	0	41	0	1817182208	44	4025
2026-01-30 07:32:30.86	6.62	23.95	-36.6	-37.3	25.9	0.00e+00	0	41	0	1823473664	44	3979
2026-01-30 07:32:31.87	6.34	23.96	-36.6	-37.3	25.9	0.00e+00	0	41	0	1828716544	44	3999
2026-01-30 07:32:32.87	6.06	23.97	-36.6	-37.3	25.9	0.00e+00	0	41	0	1833959424	44	3986
2026-01-30 07:32:33.89	5.77	23.98	-36.7	-37.4	25.9	0.00e+00	0	41	0	1840250880	44	4019
2026-01-30 07:32:34.90	5.48	23.98	-36.7	-37.4	25.8	0.00e+00	0	41	0	1845493760	44	4030
2026-01-30 07:32:35.91	5.19	23.99	-36.7	-37.4	25.8	0.00e+00	0	41	0	1850736640	44	4044
2026-01-30 07:32:36.91	4.91	23.99	-36.6	-37.3	25.9	0.00e+00	0	41	0	1857028096	44	3982
2026-01-30 07:32:37.92	4.62	24.00	-36.6	-37.3	25.9	0.00e+00	0	41	0	1863319552	44	3961
2026-01-30 07:32:38.93	4.34	24.00	-36.5	-37.2	26.0	0.00e+00	0	41	0	1868562432	44	3922
2026-01-30 07:32:39.94	4.05	24.00	-36.6	-37.3	25.9	0.00e+00	0	41	0	1873805312	44	3986
2026-01-30 07:32:40.95	3.76	24.00	-36.6	-37.3	25.9	0.00e+00	0	41	0	1880096768	44	3975
2026-01-30 07:32:41.96	3.48	24.00	-36.6	-37.3	25.9	0.00e+00	0	41	0	1885339648	44	4002
2026-01-30 07:32:42.96	3.19	24.00	-36.6	-37.3	25.9	0.00e+00	0	41	0	1891631104	44	3998
2026-01-30 07:32:43.97	2.91	24.00	-36.5	-37.2	26.0	0.00e+00	0	41	0	1896873984	44	3953
2026-01-30 07:32:44.97	2.62	24.00	-36.5	-37.2	26.0	0.00e+00	0	41	0	1902116864	44	3950
2026-01-30 07:32:45.99	2.33	24.00	-36.5	-37.2	26.0	0.00e+00	0	41	0	1908408320	44	3924
2026-01-30 07:32:46.99	2.05	24.00	-36.7	-37.4	25.9	0.00e+00	0	41	0	1913651200	44	4007
2026-01-30 07:32:48.00	1.76	23.99	-36.6	-37.3	25.9	0.00e+00	0	41	0	1918894080	44	3992
2026-01-30 07:32:49.01	1.48	23.99	-36.7	-37.4	25.8	0.00e+00	0	41	0	1925185536	44	4008
2026-01-30 07:32:50.01	1.20	23.98	-36.5	-37.2	26.0	0.00e+00	0	41	0	1931476992	44	3951
2026-01-30 07:32:51.02	0.91	23.98	-36.7	-37.4	25.9	0.00e+00	0	41	0	1936719872	44	4008
2026-01-30 07:32:52.02	0.63	23.97	-36.6	-37.3	25.9	0.00e+00	0	41	0	1941962752	44	3982
2026-01-30 07:32:53.03	0.34	23.96	-36.6	-37.3	25.9	0.00e+00	0	41	0	1948254208	44	3970
2026-01-30 07:32:54.03	0.06	23.95	-36.6	-37.3	25.9	0.00e+00	0	41	0	1953497088	44	3998
2026-01-30 07:32:55.04	359.77	23.94	-36.6	-37.3	25.9	0.00e+00	0	41	0	1958739968	44	3993
2026-01-30 07:32:56.05	359.49	23.93	-36.6	-37.3	25.9	0.00e+00	0	41	0	1965031424	44	3960
2026-01-30 07:32:57.06	359.20	23.92	-36.5	-37.2	26.0	0.00e+00	0	41	0	1970274304	44	3945
2026-01-30 07:32:58.07	358.92	23.91	-36.6	-37.3	26.0	0.00e+00	0	41	0	1976565760	44	3965
2026-01-30 07:32:59.08	358.63	23.90	-36.6	-37.3	26.0	0.00e+00	0	41	0	1981808640	44	3959
2026-01-30 07:33:00.09	358.35	23.88	-36.6	-37.3	25.9	0.00e+00	0	41	0	1987051520	44	3966
2026-01-30 07:33:01.10	358.06	23.87	-36.6	-37.3	25.9	0.00e+00	0	41	0	1993342976	44	4000
2026-01-30 07:33:02.09	357.78	23.86	-36.6	-37.3	25.9	0.00e+00	0	41	0	1998585856	44	4003
2026-01-30 07:33:03.10	357.50	23.84	-36.7	-37.4	25.8	0.00e+00	0	41	0	2003828736	44	4015
2026-01-30 07:33:04.11	357.22	23.82	-36.7	-37.4	25.8	0.00e+00	0	41	0	2010120192	44	4044
2026-01-30 07:33:05.12	356.93	23.81	-36.7	-37.4	25.8	0.00e+00	0	41	0	2016411648	44	4017
2026-01-30 07:33:06.13	356.65	23.79	-36.6	-37.2	26.0	0.00e+00	0	41	0	2021654528	44	3958
2026-01-30 07:33:07.13	356.37	23.77	-36.5	-37.2	26.0	0.00e+00	0	41	0	2026897408	44	3942
2026-01-30 07:33:08.14	356.09	23.75	-36.5	-37.2	26.0	0.00e+00	0	41	0	2033188864	44	3926
2026-01-30 07:33:09.15	355.81	23.73	-36.6	-37.3	25.9	0.00e+00	0	41	0	2038431744	44	3973
2026-01-30 07:33:10.16	355.53	23.71	-36.6	-37.3	25.9	0.00e+00	0	41	0	2043674624	44	3996
2026-01-30 07:33:11.16	355.25	23.69	-36.7	-37.4	25.8	0.00e+00	0	41	0	2049966080	44	4040
2026-01-30 07:33:12.17	354.97	23.67	-36.8	-37.5	25.8	0.00e+00	0	41	0	2055208960	44	4061
2026-01-30 07:33:13.18	354.69	23.65	-36.7	-37.4	25.8	0.00e+00	0	41	0	2061500416	44	4016
2026-01-30 07:33:14.19	354.41	23.62	-36.6	-37.3	25.9	0.00e+00	0	41	0	2066743296	44	3976
2026-01-30 07:33:15.20	354.13	23.60	-36.5	-37.2	26.0	0.00e+00	0	41	0	2071986176	44	3916
2026-01-30 07:33:16.21	353.85	23.57	-36.5	-37.2	26.0	0.00e+00	0	41	0	2078277632	44	3937
2026-01-30 07:33:17.21	353.57	23.55	-36.6	-37.3	25.9	0.00e+00	0	41	0	2084569088	44	3968
2026-01-30 07:33:18.22	353.30	23.52	-36.6	-37.4	25.9	0.00e+00	0	41	0	2089811968	44	4005
2026-01-30 07:33:19.23	353.02	23.49	-36.7	-37.4	25.8	0.00e+00	0	41	0	2095054848	44	4017
2026-01-30 07:33:20.24	352.74	23.47	-36.7	-37.4	25.8	0.00e+00	0	41	0	2101346304	44	4027
2026-01-30 07:33:21.24	352.47	23.44	-36.6	-37.3	25.9	0.00e+00	0	41	0	2106589184	44	3982
2026-01-30 07:33:22.25	352.19	23.41	-36.6	-37.3	26.0	0.00e+00	0	41	0	2111832064	44	3970
2026-01-30 07:33:23.25	351.92	23.38	-36.7	-37.4	25.8	0.00e+00	0	41	0	2118123520	44	4045
2026-01-30 07:33:24.26	351.64	23.35	-36.7	-37.4	25.8	0.00e+00	0	41	0	2123366400	44	4037
2026-01-30 07:33:25.27	351.37	23.32	-36.7	-37.4	25.8	0.00e+00	0	41	0	2128609280	44	4049
2026-01-30 07:33:26.28	351.09	23.29	-36.7	-37.4	25.8	0.00e+00	0	41	0	2134900736	44	4042
2026-01-30 07:33:27.28	350.82	23.25	-36.8	-37.5	25.7	0.00e+00	0	41	0	2140143616	44	4059
2026-01-30 07:33:28.29	350.55	23.22	-36.7	-37.4	25.9	0.00e+00	0	41	0	2146435072	44	4016
2026-01-30 07:33:29.29	350.28	23.19	-36.8	-37.5	25.8	0.00e+00	0	41	0	2151677952	44	4065
2026-01-30 07:33:30.30	350.01	23.15	-36.7	-37.4	25.8	0.00e+00	0	41	0	2156920832	44	4034
2026-01-30 07:33:31.31	349.74	23.12	-36.7	-37.4	25.8	0.00e+00	0	41	0	2163212288	44	4036
2026-01-30 07:33:32.32	349.47	23.08	-36.8	-37.5	25.7	0.00e+00	0	41	0	2169503744	44	4062
2026-01-30 07:33:33.33	349.20	23.05	-36.8	-37.5	25.7	0.00e+00	0	41	0	2174746624	44	4072
2026-01-30 07:33:34.33	348.93	23.01	-36.7	-37.4	25.8	0.00e+00	0	41	0	2179989504	44	4035
2026-01-30 07:33:35.34	348.66	22.97	-36.6	-37.3	25.9	0.00e+00	0	41	0	2186280960	44	3995
2026-01-30 07:33:36.35	348.40	22.93	-36.6	-37.3	25.9	0.00e+00	0	41	0	2191523840	44	3970
2026-01-30 07:33:37.35	348.13	22.89	-36.6	-37.3	25.9	0.00e+00	0	41	0	2196766720	44	3962
2026-01-30 07:33:38.35	347.87	22.85	-36.7	-37.4	25.9	0.00e+00	0	41	0	2203058176	44	4014
2026-01-30 07:33:39.36	347.60	22.81	-36.7	-37.4	25.8	0.00e+00	0	41	0	2208301056	44	4024
2026-01-30 07:33:40.37	347.34	22.77	-36.8	-37.5	25.7	0.00e+00	0	41	0	2213543936	44	4084
2026-01-30 07:33:41.38	347.07	22.73	-36.8	-37.5	25.7	0.00e+00	0	41	0	2219835392	44	4096
2026-01-30 07:33:42.39	346.81	22.69	-36.8	-37.5	25.8	0.00e+00	0	41	0	2225078272	44	4055
2026-01-30 07:33:43.39	346.55	22.65	-36.7	-37.4	25.8	0.00e+00	0	41	0	2231369728	44	4045
2026-01-30 07:33:44.40	346.29	22.61	-36.8	-37.5	25.7	0.00e+00	0	41	0	2236612608	44	4071
2026-01-30 07:33:45.41	346.03	22.56	-36.7	-37.4	25.8	0.00e+00	0	41	0	2241855488	44	4011
2026-01-30 07:33:46.42	345.77	22.52	-36.7	-37.4	25.8	0.00e+00	0	41	0	2248146944	44	4011
2026-01-30 07:33:47.43	345.51	22.47	-36.7	-37.4	25.8	0.00e+00	0	41	0	2254438400	44	4048
2026-01-30 07:33:48.44	345.25	22.43	-36.7	-37.4	25.8	0.00e+00	0	41	0	2259681280	44	4049
2026-01-30 07:33:49.44	344.99	22.38	-36.8	-37.5	25.8	0.00e+00	0	41	0	2264924160	44	4068
2026-01-30 07:33:50.45	344.73	22.34	-36.9	-37.6	25.7	0.00e+00	0	41	0	2271215616	44	4116
2026-01-30 07:33:51.45	344.48	22.29	-36.8	-37.5	25.8	0.00e+00	0	41	0	2276458496	44	4068
2026-01-30 07:33:52.46	344.22	22.24	-36.7	-37.4	25.8	0.00e+00	0	41	0	2281701376	44	4032
2026-01-30 07:33:53.47	343.97	22.20	-36.8	-37.5	25.7	0.00e+00	0	41	0	2287992832	44	4074
2026-01-30 07:33:54.48	343.71	22.15	-36.8	-37.5	25.7	0.00e+00	0	41	0	2293235712	44	4097
2026-01-30 07:33:55.49	343.46	22.10	-36.9	-37.6	25.7	0.00e+00	0	41	0	2298478592	44	4107
2026-01-30 07:33:56.50	343.21	22.05	-36.9	-37.6	25.6	0.00e+00	0	41	0	2304770048	44	4132
2026-01-30 07:33:57.51	342.95	22.00	-37.0	-37.7	25.6	0.00e+00	0	41	0	2310012928	44	4155
2026-01-30 07:33:58.51	342.70	21.95	-37.0	-37.7	25.5	0.00e+00	0	41	0	2316304384	44	4160
2026-01-30 07:33:59.52	342.45	21.90	-37.0	-37.7	25.5	0.00e+00	0	41	0	2321547264	44	4182
2026-01-30 07:34:00.52	342.21	21.85	-37.0	-37.7	25.6	0.00e+00	0	41	0	2327838720	44	4167
2026-01-30 07:34:01.53	341.96	21.79	-37.0	-37.7	25.6	0.00e+00	0	41	0	2333081600	44	4172
2026-01-30 07:34:02.54	341.71	21.74	-37.0	-37.7	25.5	0.00e+00	0	41	0	2339373056	44	4183
2026-01-30 07:34:03.55	341.46	21.69	-36.9	-37.6	25.6	0.00e+00	0	41	0	2344615936	44	4114
2026-01-30 07:34:04.56	341.22	21.64	-37.0	-37.7	25.5	0.00e+00	0	41	0	2349858816	44	4179
2026-01-30 07:34:05.57	340.97	21.58	-37.0	-37.7	25.5	0.00e+00	0	41	0	2356150272	44	4182
2026-01-30 07:34:06.58	340.73	21.53	-37.0	-37.7	25.6	0.00e+00	0	41	0	2361393152	44	4168
2026-01-30 07:34:07.59	340.48	21.47	-37.1	-37.8	25.5	0.00e+00	0	41	0	2366636032	44	4210
2026-01-30 07:34:08.60	340.24	21.42	-37.1	-37.8	25.4	0.00e+00	0	41	0	2372927488	44	4215
2026-01-30 07:34:09.60	340.00	21.36	-37.0	-37.7	25.5	0.00e+00	0	41	0	2378170368	44	4191
2026-01-30 07:34:10.61	339.76	21.31	-36.8	-37.5	25.7	0.00e+00	0	41	0	2384461824	44	4072
2026-01-30 07:34:11.62	339.52	21.25	-36.8	-37.5	25.7	0.00e+00	0	41	0	2389704704	44	4055
2026-01-30 07:34:12.63	339.28	21.19	-36.8	-37.5	25.7	0.00e+00	0	41	0	2395996160	44	4083
2026-01-30 07:34:13.63	339.04	21.14	-36.9	-37.6	25.6	0.00e+00	0	41	0	2401239040	44	4106
2026-01-30 07:34:14.64	338.81	21.08	-36.9	-37.6	25.6	0.00e+00	0	41	0	2406481920	44	4134
2026-01-30 07:34:15.64	338.57	21.02	-36.9	-37.6	25.6	0.00e+00	0	41	0	2412773376	44	4141
2026-01-30 07:34:16.65	338.34	20.97	-36.9	-37.6	25.6	0.00e+00	0	41	0	2418016256	44	4136
2026-01-30 07:34:17.66	338.10	20.91	-36.9	-37.7	25.6	0.00e+00	0	41	0	2424307712	44	4149
2026-01-30 07:34:18.66	337.87	20.85	-37.1	-37.8	25.4	0.00e+00	0	41	0	2429550592	44	4221
2026-01-30 07:34:19.66	337.64	20.79	-37.1	-37.8	25.4	0.00e+00	0	41	0	2434793472	44	4215
2026-01-30 07:34:20.66	337.41	20.73	-37.1	-37.8	25.4	0.00e+00	0	41	0	2441084928	44	4215
2026-01-30 07:34:21.67	337.18	20.67	-37.1	-37.8	25.4	0.00e+00	0	41	0	2446327808	44	4241
2026-01-30 07:34:22.68	336.95	20.61	-37.1	-37.8	25.4	0.00e+00	0	41	0	2451570688	44	4229
2026-01-30 07:34:23.67	336.72	20.55	-37.1	-37.8	25.4	0.00e+00	0	41	0	2457862144	44	4238
2026-01-30 07:34:24.68	336.50	20.49	-37.3	-38.0	25.2	0.00e+00	0	41	0	2463105024	45	4091
2026-01-30 07:34:25.69	336.27	20.43	-37.5	-38.2	25.1	0.00e+00	0	41	0	2468347904	45	4162
2026-01-30 07:34:26.69	336.04	20.37	-37.5	-38.3	25.0	0.00e+00	0	41	0	2474639360	45	4211
2026-01-30 07:34:27.70	335.82	20.30	-37.5	-38.2	25.1	0.00e+00	0	41	0	2479882240	45	4179
2026-01-30 07:34:28.71	335.59	20.24	-37.5	-38.2	25.1	0.00e+00	0	41	0	2486173696	45	4184
2026-01-30 07:34:29.72	335.37	20.18	-37.5	-38.2	25.1	0.00e+00	0	41	0	2491416576	45	4160
2026-01-30 07:34:30.73	335.15	20.12	-37.5	-38.2	25.1	0.00e+00	0	41	0	2497708032	45	4148
2026-01-30 07:34:31.74	334.92	20.05	-37.4	-38.1	25.2	0.00e+00	0	41	0	2502950912	45	4120
2026-01-30 07:34:32.75	334.70	19.99	-37.4	-38.2	25.1	0.00e+00	0	41	0	2509242368	45	4155
2026-01-30 07:34:33.75	334.49	19.93	-37.4	-38.1	25.1	0.00e+00	0	41	0	2514485248	45	4140
2026-01-30 07:34:34.76	334.27	19.86	-37.4	-38.1	25.2	0.00e+00	0	41	0	2519728128	45	4130
2026-01-30 07:34:35.77	334.05	19.80	-37.4	-38.1	25.2	0.00e+00	0	41	0	2526019584	45	4107
2026-01-30 07:34:36.79	333.83	19.73	-37.5	-38.2	25.1	0.00e+00	0	41	0	2531262464	45	4160
2026-01-30 07:34:37.80	333.61	19.67	-37.6	-38.3	25.0	0.00e+00	0	41	0	2536505344	45	4201
2026-01-30 07:34:38.80	333.40	19.60	-37.7	-38.4	24.9	0.00e+00	0	41	0	2542796800	45	4270
2026-01-30 07:34:39.81	333.18	19.54	-37.8	-38.5	24.8	0.00e+00	0	41	0	2549088256	46	4071
2026-01-30 07:34:40.81	332.97	19.47	-37.8	-38.5	24.8	0.00e+00	0	41	0	2554331136	46	4088
2026-01-30 07:34:41.82	332.76	19.41	-37.9	-38.7	24.7	0.00e+00	0	41	0	2559574016	46	4156
2026-01-30 07:34:42.83	332.55	19.34	-37.9	-38.6	24.7	0.00e+00	0	41	0	2565865472	46	4138
2026-01-30 07:34:43.84	332.34	19.27	-38.0	-38.7	24.6	1.10e-06	0	41	0	2571108352	46	4184
2026-01-30 07:34:44.85	332.13	19.21	-38.0	-38.7	24.6	0.00e+00	0	41	0	2576351232	46	4177
2026-01-30 07:34:45.85	331.92	19.14	-37.9	-38.7	24.7	0.00e+00	0	41	0	2582642688	46	4150
2026-01-30 07:34:46.86	331.71	19.07	-37.9	-38.6	24.7	0.00e+00	0	41	0	2587885568	46	4121
2026-01-30 07:34:47.87	331.50	19.01	-37.9	-38.6	24.7	0.00e+00	0	41	0	2594177024	46	4108
2026-01-30 07:34:48.88	331.30	18.94	-37.9	-38.6	24.7	0.00e+00	0	41	0	2599419904	46	4145
2026-01-30 07:34:49.89	331.09	18.87	-38.0	-38.8	24.6	0.00e+00	0	41	0	2604662784	46	4204
2026-01-30 07:34:50.90	330.89	18.80	-38.1	-38.8	24.5	0.00e+00	0	41	0	2610954240	46	4230
2026-01-30 07:34:51.90	330.69	18.74	-38.1	-38.8	24.5	0.00e+00	0	41	0	2616197120	46	4229
2026-01-30 07:34:52.90	330.49	18.67	-37.9	-38.7	24.6	0.00e+00	0	41	0	2621440000	46	4165
2026-01-30 07:34:53.91	330.28	18.60	-37.9	-38.6	24.7	0.00e+00	0	41	0	2627731456	46	4118
2026-01-30 07:34:54.92	330.08	18.53	-38.0	-38.7	24.6	0.00e+00	0	41	0	2634022912	46	4174
2026-01-30 07:34:55.93	329.88	18.46	-38.0	-38.7	24.6	0.00e+00	0	41	0	2639265792	46	4183
2026-01-30 07:34:56.94	329.69	18.39	-37.9	-38.6	24.7	0.00e+00	0	41	0	2644508672	46	4122
2026-01-30 07:34:57.95	329.49	18.32	-38.0	-38.7	24.6	0.00e+00	0	41	0	2650800128	46	4165
2026-01-30 07:34:58.96	329.29	18.26	-38.0	-38.8	24.6	0.00e+00	0	41	0	2656043008	46	4194
2026-01-30 07:34:59.97	329.09	18.19	-38.0	-38.8	24.6	0.00e+00	0	41	0	2661285888	46	4195
2026-01-30 07:35:00.97	328.90	18.12	-37.8	-38.6	24.7	0.00e+00	0	41	0	2667577344	46	4105
2026-01-30 07:35:01.98	328.71	18.05	-37.9	-38.6	24.7	0.00e+00	0	41	0	2672820224	46	4115
2026-01-30 07:35:02.99	328.51	17.98	-37.7	-38.5	24.8	0.00e+00	0	41	0	2679111680	46	4056
2026-01-30 07:35:04.00	328.32	17.91	-37.8	-38.5	24.7	0.00e+00	0	41	0	2684354560	46	4091
2026-01-30 07:35:05.00	328.13	17.84	-37.9	-38.7	24.6	0.00e+00	0	41	0	2689597440	46	4149
2026-01-30 07:35:06.01	327.94	17.77	-38.1	-38.8	24.5	0.00e+00	0	41	0	2695888896	46	4226
2026-01-30 07:35:07.02	327.75	17.70	-38.1	-38.9	24.4	0.00e+00	0	41	0	2702180352	46	4259
2026-01-30 07:35:08.02	327.56	17.63	-38.2	-38.9	24.4	0.00e+00	0	41	0	2707423232	46	4276
2026-01-30 07:35:09.04	327.37	17.56	-38.1	-38.8	24.5	0.00e+00	0	41	0	2712666112	46	4223
2026-01-30 07:35:10.05	327.19	17.49	-38.0	-38.8	24.5	0.00e+00	0	41	0	2718957568	46	4202
2026-01-30 07:35:11.05	327.00	17.41	-37.9	-38.7	24.6	0.00e+00	0	41	0	2724200448	46	4153
2026-01-30 07:35:12.06	326.82	17.34	-38.0	-38.8	24.5	0.00e+00	0	41	0	2729443328	46	4211
2026-01-30 07:35:13.07	326.63	17.27	-38.1	-38.8	24.5	0.00e+00	0	41	0	2735734784	46	4230
2026-01-30 07:35:14.08	326.45	17.20	-38.0	-38.8	24.5	0.00e+00	0	41	0	2740977664	46	4205
2026-01-30 07:35:15.08	326.27	17.13	-38.1	-38.8	24.5	0.00e+00	0	41	0	2746220544	46	4218
2026-01-30 07:35:16.08	326.09	17.06	-38.1	-38.8	24.5	0.00e+00	0	41	0	2752512000	46	4233
2026-01-30 07:35:17.09	325.91	16.99	-37.9	-38.6	24.7	0.00e+00	0	41	0	2757754880	46	4131
2026-01-30 07:35:18.10	325.73	16.92	-37.9	-38.7	24.6	0.00e+00	0	41	0	2764046336	46	4156
2026-01-30 07:35:19.11	325.55	16.85	-37.9	-38.6	24.6	0.00e+00	0	41	0	2769289216	46	4141
2026-01-30 07:35:20.12	325.37	16.77	-38.0	-38.8	24.5	0.00e+00	0	41	0	2775580672	46	4200
2026-01-30 07:35:21.13	325.19	16.70	-38.0	-38.8	24.5	0.00e+00	0	41	0	2780823552	46	4202
2026-01-30 07:35:22.13	325.01	16.63	-38.1	-38.8	24.4	0.00e+00	0	41	0	2787115008	46	4241
2026-01-30 07:35:23.14	324.84	16.56	-38.1	-38.8	24.4	0.00e+00	0	41	0	2792357888	46	4223
2026-01-30 07:35:24.15	324.66	16.49	-38.1	-38.9	24.4	0.00e+00	0	41	0	2797600768	46	4249
2026-01-30 07:35:25.16	324.49	16.41	-38.2	-38.9	24.4	0.00e+00	0	41	0	2803892224	46	4272
2026-01-30 07:35:26.16	324.32	16.34	-38.3	-39.1	24.2	0.00e+00	0	41	0	2809135104	47	4105
2026-01-30 07:35:27.17	324.15	16.27	-38.4	-39.2	24.1	0.00e+00	0	41	0	2814377984	47	4149
2026-01-30 07:35:28.18	323.97	16.20	-38.5	-39.3	24.0	0.00e+00	0	41	0	2820669440	47	4220
2026-01-30 07:35:29.18	323.81	16.13	-38.6	-39.3	24.0	0.00e+00	0	41	0	2825912320	47	4233
2026-01-30 07:35:30.19	323.64	16.06	-38.6	-39.4	23.9	0.00e+00	0	41	0	2831155200	47	4244
2026-01-30 07:35:31.19	323.47	15.98	-38.6	-39.4	23.9	0.00e+00	0	41	0	2837446656	47	4278
2026-01-30 07:35:32.20	323.30	15.91	-38.9	-39.6	24.2	0.00e+00	0	41	0	2842689536	48	4132
2026-01-30 07:35:33.21	323.13	15.84	-38.8	-39.5	24.2	0.00e+00	0	41	0	2848980992	48	4078
2026-01-30 07:35:34.21	322.97	15.77	-38.8	-39.6	24.2	0.00e+00	0	41	0	2854223872	48	4105
2026-01-30 07:35:35.22	322.80	15.69	-38.9	-39.6	24.2	0.00e+00	0	41	0	2860515328	48	4144
2026-01-30 07:35:36.23	322.64	15.62	-39.0	-39.7	24.1	0.00e+00	0	41	0	2865758208	48	4166
2026-01-30 07:35:37.24	322.47	15.55	-39.0	-39.8	24.0	0.00e+00	0	41	0	2872049664	48	4197
2026-01-30 07:35:38.24	322.31	15.48	-38.9	-39.6	24.2	0.00e+00	0	41	0	2877292544	48	4128
2026-01-30 07:35:39.25	322.15	15.40	-38.8	-39.6	24.2	0.00e+00	0	41	0	2882535424	48	4111
2026-01-30 07:35:40.26	321.99	15.33	-38.9	-39.6	24.2	0.00e+00	0	41	0	2888826880	48	4141
2026-01-30 07:35:41.27	321.82	15.26	-38.9	-39.6	24.2	0.00e+00	0	41	0	2894069760	48	4117
2026-01-30 07:35:42.28	321.66	15.19	-38.8	-39.5	24.2	0.00e+00	0	41	0	2899312640	48	4090
2026-01-30 07:35:43.29	321.51	15.11	-38.8	-39.6	24.2	0.00e+00	0	41	0	2905604096	48	4102
2026-01-30 07:35:44.29	321.35	15.04	-39.0	-39.7	24.1	0.00e+00	0	41	0	2910846976	48	4166
2026-01-30 07:35:45.30	321.19	14.97	-39.0	-39.8	24.0	0.00e+00	0	41	0	2916089856	48	4206
2026-01-30 07:35:46.30	321.03	14.90	-39.1	-39.9	23.9	0.00e+00	0	41	0	2922381312	48	4258
2026-01-30 07:35:47.31	320.88	14.83	-39.0	-39.8	24.0	0.00e+00	0	41	0	2928672768	48	4199
2026-01-30 07:35:48.32	320.72	14.75	-39.1	-39.9	23.9	0.00e+00	0	41	0	2933915648	48	4268
2026-01-30 07:35:49.33	320.57	14.68	-39.2	-39.9	23.9	0.00e+00	0	41	0	2939158528	49	4045
2026-01-30 07:35:50.33	320.42	14.61	-39.2	-40.0	23.8	0.00e+00	0	41	0	2945449984	49	4053
2026-01-30 07:35:51.34	320.26	14.54	-39.2	-40.0	23.8	0.00e+00	0	41	0	2950692864	49	4074
2026-01-30 07:35:52.35	320.11	14.46	-39.2	-40.0	23.8	0.00e+00	0	41	0	2956984320	49	4077
2026-01-30 07:35:53.36	319.96	14.39	-39.3	-40.1	23.7	0.00e+00	0	41	0	2962227200	49	4123
2026-01-30 07:35:54.37	319.81	14.32	-39.2	-40.0	23.8	0.00e+00	0	41	0	2967470080	49	4066
2026-01-30 07:35:55.37	319.66	14.25	-39.2	-40.0	23.8	0.00e+00	0	41	0	2973761536	49	4073
2026-01-30 07:35:56.38	319.51	14.17	-39.3	-40.0	23.8	0.00e+00	0	41	0	2979004416	49	4095
2026-01-30 07:35:57.39	319.36	14.10	-39.2	-40.0	23.8	0.00e+00	0	42	0	2984247296	49	4052
2026-01-30 07:35:58.39	319.21	14.03	-39.2	-39.9	23.8	0.00e+00	0	41	0	2990538752	49	4050
2026-01-30 07:35:59.39	319.07	13.96	-39.2	-40.0	23.8	0.00e+00	0	41	0	2995781632	49	4055
2026-01-30 07:36:00.40	318.92	13.88	-39.2	-40.0	23.8	0.00e+00	0	41	0	3001024512	49	4058
2026-01-30 07:36:01.40	318.78	13.81	-39.3	-40.0	23.7	0.00e+00	0	41	0	3007315968	49	4096
2026-01-30 07:36:02.41	318.63	13.74	-39.3	-40.0	23.7	0.00e+00	0	41	0	3013607424	49	4078
2026-01-30 07:36:03.42	318.49	13.67	-39.3	-40.1	23.7	0.00e+00	0	41	0	3018850304	49	4108
2026-01-30 07:36:04.43	318.34	13.60	-39.3	-40.1	23.6	0.00e+00	0	41	0	3024093184	49	4114
2026-01-30 07:36:05.44	318.20	13.52	-39.4	-40.2	23.6	0.00e+00	0	41	0	3030384640	49	4160
2026-01-30 07:36:06.44	318.06	13.45	-39.5	-40.3	23.5	0.00e+00	0	41	0	3035627520	49	4202
2026-01-30 07:36:07.45	317.92	13.38	-39.4	-40.2	23.6	0.00e+00	0	41	0	3041918976	49	4153
2026-01-30 07:36:08.46	317.78	13.31	-39.6	-40.4	23.4	0.00e+00	0	41	0	3047161856	49	4248
2026-01-30 07:36:09.47	317.64	13.23	-39.7	-40.5	23.3	0.00e+00	0	41	0	3052404736	49	4305
2026-01-30 07:36:10.48	317.50	13.16	-39.7	-40.5	23.3	0.00e+00	0	41	0	3058696192	49	4318
2026-01-30 07:36:11.48	317.36	13.09	-39.7	-40.5	23.2	0.00e+00	0	41	0	3063939072	50	4096
2026-01-30 07:36:12.49	317.22	13.02	-39.7	-40.5	23.3	0.00e+00	0	41	0	3069181952	50	4082
2026-01-30 07:36:13.49	317.09	12.95	-39.7	-40.5	23.3	0.00e+00	0	41	0	3075473408	50	4058
2026-01-30 07:36:14.50	316.95	12.88	-39.7	-40.5	23.3	0.00e+00	0	41	0	3080716288	50	4071
2026-01-30 07:36:15.51	316.81	12.80	-39.8	-40.6	23.2	0.00e+00	0	41	0	3085959168	50	4103
2026-01-30 07:36:16.52	316.68	12.73	-39.6	-40.3	23.4	0.00e+00	0	41	0	3092250624	50	3997
2026-01-30 07:36:17.53	316.54	12.66	-39.6	-40.4	23.4	0.00e+00	0	41	0	3098542080	50	4022
2026-01-30 07:36:18.53	316.41	12.59	-39.7	-40.4	23.3	0.00e+00	0	41	0	3103784960	50	4041
2026-01-30 07:36:19.54	316.28	12.52	-39.7	-40.5	23.3	0.00e+00	0	41	0	3109027840	50	4058
2026-01-30 07:36:20.55	316.15	12.45	-39.8	-40.6	23.2	0.00e+00	0	41	0	3115319296	50	4103
2026-01-30 07:36:21.56	316.01	12.37	-39.8	-40.6	23.2	0.00e+00	0	41	0	3120562176	50	4107
2026-01-30 07:36:22.57	315.88	12.30	-39.8	-40.6	23.2	0.00e+00	0	41	0	3126853632	50	4111
2026-01-30 07:36:23.56	315.75	12.23	-39.9	-40.7	23.1	0.00e+00	0	41	0	3132096512	50	4155
2026-01-30 07:36:24.56	315.63	12.16	-40.0	-40.8	22.9	0.00e+00	0	41	0	3137339392	50	4223
2026-01-30 07:36:25.57	315.50	12.09	-40.0	-40.8	23.0	0.00e+00	0	41	0	3143630848	50	4203
2026-01-30 07:36:26.58	315.37	12.02	-39.9	-40.7	23.0	0.00e+00	0	41	0	3148873728	50	4172
2026-01-30 07:36:27.58	315.24	11.95	-39.9	-40.7	23.0	0.00e+00	0	41	0	3154116608	50	4156
2026-01-30 07:36:28.59	315.11	11.88	-40.0	-40.8	22.9	0.00e+00	0	41	0	3160408064	50	4216
2026-01-30 07:36:29.59	314.99	11.81	-40.1	-40.9	22.9	0.00e+00	0	41	0	3165650944	50	4253
2026-01-30 07:36:30.60	314.86	11.74	-40.0	-40.8	22.9	0.00e+00	0	41	0	3170893824	50	4238
2026-01-30 07:36:31.60	314.74	11.67	-40.0	-40.8	22.9	0.00e+00	0	41	0	3177185280	50	4241
2026-01-30 07:36:32.61	314.61	11.60	-40.0	-40.8	22.9	0.00e+00	0	41	0	3183476736	50	4230
2026-01-30 07:36:33.62	314.49	11.52	-40.0	-40.8	22.9	0.00e+00	0	41	0	3188719616	50	4228
2026-01-30 07:36:34.63	314.36	11.45	-40.0	-40.8	22.9	0.00e+00	0	41	0	3193962496	50	4198
2026-01-30 07:36:35.63	314.24	11.38	-40.0	-40.8	22.9	0.00e+00	0	41	0	3200253952	50	4207
2026-01-30 07:36:36.64	314.12	11.31	-40.1	-40.9	22.8	0.00e+00	0	41	0	3205496832	50	4255
2026-01-30 07:36:37.65	314.00	11.24	-40.1	-40.9	22.8	0.00e+00	0	41	0	3211788288	50	4253
2026-01-30 07:36:38.66	313.88	11.17	-40.1	-40.9	22.8	0.00e+00	0	41	0	3217031168	50	4263
2026-01-30 07:36:39.67	313.76	11.10	-40.1	-40.9	22.8	0.00e+00	0	41	0	3222274048	50	4274
2026-01-30 07:36:40.68	313.64	11.03	-40.3	-41.1	22.6	0.00e+00	0	41	0	3228565504	51	4121
2026-01-30 07:36:41.69	313.52	10.96	-40.3	-41.1	22.5	0.00e+00	0	41	0	3233808384	51	4143
2026-01-30 07:36:42.69	313.40	10.89	-40.3	-41.2	22.5	0.00e+00	0	41	0	3239051264	51	4149
2026-01-30 07:36:43.70	313.28	10.82	-40.4	-41.2	22.5	0.00e+00	0	41	0	3245342720	51	4162
2026-01-30 07:36:44.71	313.16	10.75	-40.5	-41.3	22.4	0.00e+00	0	41	0	3250585600	51	4209
2026-01-30 07:36:45.71	313.05	10.68	-40.6	-41.4	22.3	0.00e+00	0	41	0	3256877056	51	4279
2026-01-30 07:36:46.72	312.93	10.61	-40.6	-41.5	22.2	0.00e+00	0	41	0	3262119936	51	4295
2026-01-30 07:36:47.73	312.81	10.54	-40.5	-41.3	22.3	0.00e+00	0	41	0	3268411392	51	4242
2026-01-30 07:36:48.74	312.70	10.47	-40.5	-41.3	22.3	0.00e+00	0	41	0	3273654272	51	4236
2026-01-30 07:36:49.74	312.58	10.41	-40.4	-41.3	22.4	0.00e+00	0	41	0	3278897152	51	4197
2026-01-30 07:36:50.75	312.47	10.34	-40.6	-41.4	22.2	0.00e+00	0	41	0	3285188608	51	4281
2026-01-30 07:36:51.76	312.36	10.27	-40.6	-41.4	22.3	0.00e+00	0	41	0	3290431488	51	4256
2026-01-30 07:36:52.77	312.24	10.20	-40.6	-41.5	22.2	0.00e+00	0	41	0	3296722944	51	4306
2026-01-30 07:36:53.78	312.13	10.13	-40.6	-41.5	22.2	0.00e+00	0	41	0	3301965824	51	4308
2026-01-30 07:36:54.79	312.02	10.06	-40.7	-41.5	22.1	0.00e+00	0	41	0	3307208704	52	4086
2026-01-30 07:36:55.80	311.91	9.99	-40.6	-41.5	22.1	0.00e+00	0	41	0	3313500160	52	4075
2026-01-30 07:36:56.81	311.79	9.92	-40.6	-41.4	22.1	0.00e+00	0	41	0	3318743040	52	4043
2026-01-30 07:36:57.82	311.68	9.85	-40.4	-41.3	22.3	0.00e+00	0	41	0	3325034496	52	3967
2026-01-30 07:36:58.82	311.57	9.78	-40.4	-41.2	22.3	0.00e+00	0	41	0	3330277376	52	3929
2026-01-30 07:36:59.82	311.47	9.72	-40.4	-41.2	22.3	0.00e+00	0	41	0	3336568832	52	3958
2026-01-30 07:37:00.83	311.36	9.65	-40.4	-41.2	22.3	0.00e+00	0	41	0	3341811712	52	3958
2026-01-30 07:37:01.84	311.25	9.58	-40.4	-41.3	22.3	0.00e+00	0	41	0	3347054592	52	3966
2026-01-30 07:37:02.85	311.14	9.51	-40.5	-41.3	22.2	0.00e+00	0	41	0	3353346048	52	4001
2026-01-30 07:37:03.85	311.03	9.44	-40.4	-41.2	22.2	0.00e+00	0	41	0	3358588928	52	3953
2026-01-30 07:37:04.86	310.93	9.37	-40.6	-41.4	22.1	0.00e+00	0	41	0	3363831808	52	4035
2026-01-30 07:37:05.87	310.82	9.31	-40.6	-41.5	22.1	0.00e+00	0	41	0	3370123264	52	4055
2026-01-30 07:37:06.88	310.71	9.24	-40.7	-41.5	21.9	0.00e+00	0	41	0	3375366144	52	4095
2026-01-30 07:37:07.89	310.61	9.17	-40.7	-41.6	21.9	0.00e+00	0	41	0	3381657600	52	4111
2026-01-30 07:37:08.90	310.50	9.10	-40.8	-41.6	21.9	0.00e+00	0	41	0	3386900480	52	4135
2026-01-30 07:37:09.91	310.40	9.03	-40.8	-41.7	21.8	0.00e+00	0	41	0	3392143360	52	4164
2026-01-30 07:37:10.92	310.30	8.97	-40.7	-41.6	21.9	0.00e+00	0	41	0	3398434816	52	4118
2026-01-30 07:37:11.93	310.19	8.90	-40.8	-41.6	21.8	0.00e+00	0	41	0	3404726272	52	4131
2026-01-30 07:37:12.94	310.09	8.83	-40.9	-41.7	21.7	0.00e+00	0	41	0	3409969152	52	4175
2026-01-30 07:37:13.94	309.99	8.76	-40.9	-41.7	21.7	0.00e+00	0	41	0	3415212032	52	4186
2026-01-30 07:37:14.95	309.89	8.70	-40.8	-41.6	21.8	0.00e+00	0	41	0	3421503488	52	4130
2026-01-30 07:37:15.95	309.79	8.63	-40.9	-41.7	21.7	0.00e+00	0	41	0	3426746368	52	4182
2026-01-30 07:37:16.96	309.69	8.56	-40.7	-41.5	21.9	0.00e+00	0	41	0	3431989248	52	4072
2026-01-30 07:37:17.96	309.59	8.50	-40.7	-41.6	21.9	0.00e+00	0	41	0	3438280704	52	4113
2026-01-30 07:37:18.97	309.49	8.43	-40.8	-41.7	21.8	0.00e+00	0	41	0	3443523584	52	4160
2026-01-30 07:37:19.97	309.39	8.36	-40.9	-41.8	21.7	0.00e+00	0	41	0	3448766464	52	4207
2026-01-30 07:37:20.98	309.29	8.30	-40.9	-41.8	21.7	0.00e+00	0	42	0	3455057920	52	4216
2026-01-30 07:37:21.99	309.19	8.23	-41.0	-41.9	21.5	0.00e+00	0	41	0	3460300800	52	4278
2026-01-30 07:37:22.99	309.09	8.16	-41.0	-41.8	21.6	0.00e+00	0	41	0	3466592256	52	4241
2026-01-30 07:37:24.00	308.99	8.10	-41.0	-41.9	21.5	0.00e+00	0	41	0	3471835136	52	4269
2026-01-30 07:37:25.01	308.90	8.03	-41.0	-41.9	21.6	0.00e+00	0	41	0	3477078016	52	4253
2026-01-30 07:37:26.01	308.80	7.97	-41.0	-41.9	21.5	0.00e+00	0	41	0	3483369472	52	4259
2026-01-30 07:37:27.03	308.70	7.90	-41.1	-41.9	21.5	0.00e+00	0	41	0	3489660928	52	4288
2026-01-30 07:37:28.04	308.61	7.83	-41.0	-41.9	21.5	0.00e+00	0	41	0	3494903808	52	4261
2026-01-30 07:37:29.04	308.51	7.77	-41.0	-41.9	21.5	0.00e+00	0	41	0	3500146688	52	4265
2026-01-30 07:37:30.04	308.42	7.70	-41.1	-42.0	21.4	0.00e+00	0	42	0	3506438144	52	4321
2026-01-30 07:37:31.05	308.33	7.64	-41.3	-42.2	21.2	0.00e+00	0	41	0	3511681024	53	4151
2026-01-30 07:37:32.06	308.23	7.57	-41.1	-42.0	21.4	0.00e+00	0	41	0	3516923904	53	4090
2026-01-30 07:37:33.07	308.14	7.50	-41.2	-42.1	21.3	0.00e+00	0	41	0	3523215360	53	4113
2026-01-30 07:37:34.08	308.04	7.44	-41.2	-42.1	21.3	0.00e+00	0	41	0	3528458240	53	4119
2026-01-30 07:37:35.09	307.95	7.37	-41.3	-42.2	21.2	0.00e+00	0	41	0	3533701120	53	4179
2026-01-30 07:37:36.10	307.86	7.31	-41.2	-42.1	21.2	0.00e+00	0	41	0	3539992576	53	4139
2026-01-30 07:37:37.11	307.77	7.24	-41.3	-42.2	21.1	0.00e+00	0	41	0	3546284032	53	4170
2026-01-30 07:37:38.12	307.68	7.18	-41.2	-42.1	21.2	0.00e+00	0	41	0	3551526912	53	4136
2026-01-30 07:37:39.12	307.59	7.11	-41.2	-42.1	21.2	0.00e+00	0	41	0	3556769792	53	4139
2026-01-30 07:37:40.13	307.50	7.05	-41.3	-42.2	21.1	0.00e+00	0	41	0	3563061248	53	4185
2026-01-30 07:37:41.14	307.41	6.98	-41.3	-42.2	21.1	0.00e+00	0	41	0	3568304128	53	4163
2026-01-30 07:37:42.15	307.32	6.92	-41.4	-42.3	21.0	0.00e+00	0	41	0	3574595584	53	4238
2026-01-30 07:37:43.15	307.23	6.85	-41.4	-42.4	20.9	0.00e+00	0	41	0	3579838464	53	4254
2026-01-30 07:37:44.16	307.14	6.79	-41.4	-42.3	21.0	0.00e+00	0	41	0	3585081344	53	4215
2026-01-30 07:37:45.18	307.05	6.72	-41.4	-42.4	20.9	0.00e+00	0	41	0	3591372800	53	4252
2026-01-30 07:37:46.19	306.96	6.66	-41.4	-42.3	21.0	0.00e+00	0	41	0	3596615680	53	4235
2026-01-30 07:37:47.19	306.87	6.60	-41.4	-42.3	20.9	0.00e+00	0	41	0	3601858560	53	4239
2026-01-30 07:37:48.20	306.79	6.53	-41.3	-42.3	21.0	0.00e+00	0	41	0	3608150016	53	4197
2026-01-30 07:37:49.21	306.70	6.47	-41.3	-42.2	21.0	0.00e+00	0	41	0	3614441472	53	4183
2026-01-30 07:37:50.22	306.61	6.40	-41.6	-42.5	20.7	0.00e+00	0	41	0	3619684352	53	4308
2026-01-30 07:37:51.23	306.53	6.34	-41.6	-42.6	20.7	0.00e+00	0	41	0	3624927232	53	4347
2026-01-30 07:37:52.24	306.44	6.28	-41.6	-42.5	20.7	0.00e+00	0	41	0	3631218688	53	4331
2026-01-30 07:37:53.25	306.36	6.21	-41.5	-42.5	20.7	0.00e+00	0	41	0	3636461568	53	4295
2026-01-30 07:37:54.25	306.27	6.15	-41.5	-42.4	20.8	0.00e+00	0	41	0	3641704448	53	4263
2026-01-30 07:37:55.26	306.19	6.09	-41.4	-42.3	20.8	0.00e+00	0	41	0	3647995904	53	4242
2026-01-30 07:37:56.27	306.10	6.02	-41.2	-42.1	21.1	0.00e+00	0	41	0	3653238784	53	4137
