passes_logs/2026/01/30/R3.2S_Murmansk/R3.2S_Murmansk__20260130_073822_NOAA_21_JPSS-2_rec.log

#Pass ID: 20260130_073822_NOAA 21 (JPSS-2)
#Satellite: NOAA 21 (JPSS-2)
#Configuration: NOAA-21
#almurnet v.1.7.20251203
#Start time: 2026-01-30 07:39:11

#Version: 2.2.20231116
#Station: R3.2S_Murmansk
#Location: 33.079688 lon 68.888172 lat
#TLE: 1 54234U 22150A   26029.46216196  .00000141  00000+0  87503-4 0  9994
#TLE: 2 54234  98.7512 330.1880 0000955 196.3413 163.7732 14.19540905166865

#Time	Az	El	Level	Level2	SNR	BER	BlckErr	Temp	State	Recorded	gain1	gain2
2026-01-30 07:39:11.44	106.21	5.14	-52.9	-64.9	3.8	8.46e-01	0	40	0	0	77	14280
2026-01-30 07:39:12.43	106.16	5.21	-54.1	-66.9	3.8	1.49e+00	0	42	104	0	78	17031
2026-01-30 07:39:13.44	106.11	5.28	-54.2	-67.0	3.8	1.49e+00	0	41	104	0	78	17103
2026-01-30 07:39:14.45	106.06	5.35	-54.3	-67.0	3.8	1.49e+00	0	41	104	0	79	16252
2026-01-30 07:39:15.45	106.01	5.42	-54.3	-67.1	3.8	1.49e+00	0	41	104	0	79	16354
2026-01-30 07:39:16.46	105.95	5.49	-54.3	-67.1	3.8	1.49e+00	0	41	104	0	79	16473
2026-01-30 07:39:17.47	105.90	5.56	-54.4	-67.2	3.8	1.49e+00	0	41	104	0	79	16510
2026-01-30 07:39:18.47	105.85	5.62	-54.4	-67.2	3.8	1.49e+00	0	41	104	0	79	16574
2026-01-30 07:39:19.48	105.79	5.69	-54.4	-67.2	3.8	1.49e+00	0	41	104	0	79	16640
2026-01-30 07:39:20.48	105.74	5.76	-54.5	-67.3	3.8	1.49e+00	0	41	104	0	79	16717
2026-01-30 07:39:21.49	105.69	5.83	-54.5	-67.3	3.8	1.49e+00	0	41	104	0	79	16750
2026-01-30 07:39:22.50	105.63	5.90	-54.5	-67.3	3.8	1.49e+00	0	41	104	0	79	16780
2026-01-30 07:39:23.51	105.58	5.97	-54.5	-67.3	3.8	1.49e+00	0	41	104	0	79	16753
2026-01-30 07:39:24.51	105.53	6.04	-54.5	-67.3	3.8	1.49e+00	0	41	104	0	79	16798
2026-01-30 07:39:25.52	105.47	6.11	-54.5	-67.3	3.8	1.49e+00	0	41	104	0	79	16823
2026-01-30 07:39:26.53	105.42	6.18	-54.5	-67.3	3.8	1.49e+00	0	41	104	0	79	16869
2026-01-30 07:39:27.53	105.36	6.26	-54.5	-67.3	3.8	1.49e+00	0	41	104	0	79	16821
2026-01-30 07:39:28.54	105.31	6.33	-54.5	-67.3	3.8	1.49e+00	0	41	104	0	79	16746
2026-01-30 07:39:29.55	105.25	6.40	-54.5	-67.3	3.8	1.49e+00	0	41	104	0	79	16714
2026-01-30 07:39:30.56	105.19	6.47	-54.5	-67.3	3.8	1.49e+00	0	41	104	0	79	16721
2026-01-30 07:39:31.57	105.14	6.54	-54.4	-67.2	3.8	1.49e+00	0	41	104	0	79	16644
2026-01-30 07:39:32.58	105.08	6.61	-54.4	-67.2	3.8	1.49e+00	0	41	104	0	79	16561
2026-01-30 07:39:33.58	105.02	6.68	-54.4	-67.1	3.8	1.49e+00	0	41	104	0	79	16500
2026-01-30 07:39:34.59	104.97	6.76	-54.4	-67.1	3.8	1.49e+00	0	41	104	0	79	16480
2026-01-30 07:39:35.60	104.91	6.83	-54.3	-67.1	3.8	1.49e+00	0	41	104	0	79	16376
2026-01-30 07:39:36.60	104.85	6.90	-54.3	-67.1	3.8	1.49e+00	0	42	104	0	79	16378
2026-01-30 07:39:37.61	104.79	6.97	-54.3	-67.1	3.8	1.49e+00	0	41	104	0	79	16362
2026-01-30 07:39:38.62	104.73	7.04	-54.2	-67.0	3.8	1.49e+00	0	41	104	0	79	16203
2026-01-30 07:39:39.63	104.68	7.12	-54.2	-67.0	3.8	1.49e+00	0	41	104	0	79	16225
2026-01-30 07:39:40.63	104.62	7.19	-54.2	-66.9	3.8	1.49e+00	0	42	104	0	79	16082
2026-01-30 07:39:41.64	104.56	7.26	-54.2	-66.9	3.8	1.49e+00	0	41	104	0	79	16084
2026-01-30 07:39:42.65	104.50	7.34	-54.2	-66.9	3.8	1.49e+00	0	41	104	0	79	16102
2026-01-30 07:39:43.65	104.44	7.41	-54.2	-67.0	3.8	1.49e+00	0	41	104	0	79	16138
2026-01-30 07:39:44.66	104.38	7.48	-54.2	-67.0	3.8	1.49e+00	0	41	104	0	79	16251
2026-01-30 07:39:45.67	104.32	7.56	-54.3	-67.1	3.8	1.49e+00	0	41	104	0	79	16325
2026-01-30 07:39:46.68	104.26	7.63	-54.3	-67.1	3.8	1.49e+00	0	42	104	0	79	16318
2026-01-30 07:39:47.69	104.19	7.71	-54.2	-67.0	3.8	1.49e+00	0	41	104	0	79	16238
2026-01-30 07:39:48.70	104.13	7.78	-54.2	-67.0	3.8	1.49e+00	0	41	104	0	79	16211
2026-01-30 07:39:49.70	104.07	7.86	-54.2	-67.0	3.8	1.49e+00	0	42	104	0	79	16210
2026-01-30 07:39:50.71	104.01	7.93	-54.2	-67.0	3.8	1.49e+00	0	41	104	0	79	16158
2026-01-30 07:39:51.72	103.95	8.01	-54.2	-67.0	3.8	1.49e+00	0	42	104	0	79	16136
2026-01-30 07:39:52.72	103.88	8.08	-54.2	-66.9	3.8	1.49e+00	0	41	104	0	79	16073
2026-01-30 07:39:53.73	103.82	8.16	-54.1	-66.9	3.8	1.49e+00	0	41	104	0	79	16098
2026-01-30 07:39:54.74	103.76	8.23	-54.1	-66.9	3.8	1.49e+00	0	42	104	0	79	16038
2026-01-30 07:39:55.75	103.69	8.31	-54.1	-66.9	3.8	1.49e+00	0	41	104	0	79	16010
2026-01-30 07:39:56.75	103.63	8.38	-54.1	-66.9	3.8	1.49e+00	0	41	104	0	79	15961
2026-01-30 07:39:57.76	103.56	8.46	-54.1	-66.9	3.8	1.49e+00	0	42	104	0	79	15975
2026-01-30 07:39:58.76	103.50	8.53	-54.1	-66.8	3.8	1.49e+00	0	41	104	0	79	15918
2026-01-30 07:39:59.76	103.43	8.61	-54.1	-66.8	3.8	1.49e+00	0	41	104	0	79	15877
2026-01-30 07:40:00.77	103.37	8.69	-54.0	-66.8	3.8	1.49e+00	0	41	104	0	79	15772
2026-01-30 07:40:01.77	103.30	8.76	-54.0	-66.8	3.8	1.49e+00	0	41	104	0	79	15772
2026-01-30 07:40:02.78	103.23	8.84	-54.0	-66.7	3.8	1.49e+00	0	41	104	0	79	15719
2026-01-30 07:40:03.78	103.17	8.92	-54.0	-66.8	3.8	1.49e+00	0	41	104	0	79	15771
2026-01-30 07:40:04.79	103.10	9.00	-54.0	-66.7	3.8	1.49e+00	0	41	104	0	79	15751
2026-01-30 07:40:05.80	103.03	9.07	-53.9	-66.7	3.8	1.49e+00	0	42	104	0	79	15640
2026-01-30 07:40:06.81	102.96	9.15	-53.9	-66.7	3.8	1.49e+00	0	41	104	0	79	15639
2026-01-30 07:40:07.81	102.90	9.23	-53.9	-66.7	3.8	1.49e+00	0	41	104	0	79	15644
2026-01-30 07:40:08.81	102.83	9.31	-53.9	-66.6	3.8	1.49e+00	0	42	104	0	79	15539
2026-01-30 07:40:09.82	102.76	9.39	-54.1	-66.9	3.8	1.49e+00	0	41	104	0	79	15986
2026-01-30 07:40:10.83	102.69	9.46	-54.2	-67.0	3.8	1.49e+00	0	41	104	0	79	16186
2026-01-30 07:40:11.84	102.62	9.54	-54.3	-67.1	3.8	1.49e+00	0	41	104	0	79	16349
2026-01-30 07:40:12.84	102.55	9.62	-54.3	-67.1	3.8	1.49e+00	0	41	104	0	79	16427
2026-01-30 07:40:13.85	102.48	9.70	-54.3	-67.1	3.8	1.49e+00	0	42	104	0	79	16386
2026-01-30 07:40:14.86	102.41	9.78	-54.3	-67.1	3.8	1.49e+00	0	41	104	0	79	16336
2026-01-30 07:40:15.86	102.34	9.86	-54.2	-67.0	3.8	1.49e+00	0	41	104	0	79	16262
2026-01-30 07:40:16.87	102.26	9.94	-54.2	-67.0	3.8	1.49e+00	0	42	104	0	79	16141
2026-01-30 07:40:17.87	102.19	10.02	-54.1	-66.9	3.8	1.49e+00	0	41	104	0	79	16069
2026-01-30 07:40:18.88	102.12	10.10	-54.1	-66.9	3.8	1.49e+00	0	41	104	0	79	15990
2026-01-30 07:40:19.89	102.05	10.18	-54.0	-66.8	3.8	1.49e+00	0	41	104	0	79	15875
2026-01-30 07:40:20.90	101.97	10.26	-54.0	-66.8	3.8	1.49e+00	0	41	104	0	79	15818
2026-01-30 07:40:21.91	101.90	10.34	-53.9	-66.7	3.8	1.49e+00	0	42	104	0	79	15718
2026-01-30 07:40:22.92	101.82	10.43	-53.9	-66.7	3.8	1.49e+00	0	42	104	0	79	15610
2026-01-30 07:40:23.93	101.75	10.51	-53.9	-66.6	3.8	1.49e+00	0	41	104	0	79	15498
2026-01-30 07:40:24.93	101.67	10.59	-53.8	-66.6	3.8	1.49e+00	0	41	104	0	79	15442
2026-01-30 07:40:25.94	101.60	10.67	-53.7	-66.5	3.8	1.49e+00	0	41	104	0	79	15311
2026-01-30 07:40:26.95	101.52	10.75	-53.7	-66.4	3.8	1.49e+00	0	41	104	0	79	15201
2026-01-30 07:40:27.96	101.44	10.84	-53.6	-66.4	3.8	1.49e+00	0	41	104	0	79	15130
2026-01-30 07:40:28.96	101.37	10.92	-53.6	-66.3	3.8	1.49e+00	0	41	104	0	79	14957
2026-01-30 07:40:29.97	101.29	11.00	-53.5	-66.2	3.8	1.49e+00	0	42	104	0	79	14847
2026-01-30 07:40:30.98	101.21	11.08	-53.4	-66.1	3.8	1.49e+00	0	41	104	0	78	15570
2026-01-30 07:40:31.99	101.13	11.17	-53.3	-66.1	3.8	1.49e+00	0	42	104	0	78	15418
2026-01-30 07:40:32.99	101.05	11.25	-53.2	-66.0	3.8	1.49e+00	0	41	104	0	78	15248
2026-01-30 07:40:34.00	100.97	11.33	-53.1	-65.8	3.8	1.49e+00	0	41	104	0	78	14969
2026-01-30 07:40:35.01	100.89	11.42	-53.0	-65.7	3.8	1.49e+00	0	41	104	0	78	14761
2026-01-30 07:40:36.02	100.81	11.50	-52.7	-63.6	3.8	1.49e+00	0	42	104	0	77	12269
2026-01-30 07:40:37.03	100.73	11.59	-44.1	-45.1	19.3	0.00e+00	0	42	0	1048576	59	4144
2026-01-30 07:40:38.03	100.65	11.67	-44.5	-45.6	19.0	0.00e+00	0	42	0	4194304	59	4356
2026-01-30 07:40:39.04	100.57	11.76	-48.4	-50.8	13.5	0.00e+00	0	42	0	7340032	67	4999
2026-01-30 07:40:40.05	100.49	11.84	-44.7	-45.9	18.4	0.00e+00	0	41	0	10485760	60	4244
2026-01-30 07:40:41.05	100.41	11.93	-43.6	-44.6	20.0	0.00e+00	0	41	0	13631488	57	4377
2026-01-30 07:40:42.06	100.32	12.01	-50.6	-54.6	10.3	7.19e-04	0	41	0	16777216	71	6181
2026-01-30 07:40:43.07	100.24	12.10	-42.1	-43.0	21.4	0.00e+00	0	41	0	19922944	56	3849
2026-01-30 07:40:44.08	100.15	12.18	-42.1	-43.0	21.4	0.00e+00	0	41	0	23068672	56	3830
2026-01-30 07:40:45.09	100.07	12.27	-41.9	-42.8	21.4	0.00e+00	0	41	0	26214400	55	3962
2026-01-30 07:40:46.09	99.98	12.36	-41.6	-42.4	21.7	0.00e+00	0	41	0	29360128	55	3820
2026-01-30 07:40:47.10	99.90	12.44	-41.7	-42.6	21.6	0.00e+00	0	41	0	32505856	55	3873
2026-01-30 07:40:48.11	99.81	12.53	-41.7	-42.6	21.6	0.00e+00	0	41	0	35651584	55	3875
2026-01-30 07:40:49.12	99.72	12.62	-41.7	-42.6	21.6	0.00e+00	0	42	0	38797312	55	3873
2026-01-30 07:40:50.13	99.64	12.71	-41.6	-42.5	21.7	0.00e+00	0	41	0	41943040	55	3842
2026-01-30 07:40:51.13	99.55	12.79	-41.7	-42.6	21.6	0.00e+00	0	41	0	45088768	55	3870
2026-01-30 07:40:52.14	99.46	12.88	-41.6	-42.5	21.7	0.00e+00	0	42	0	48234496	55	3838
2026-01-30 07:40:53.15	99.37	12.97	-41.8	-42.6	21.6	0.00e+00	0	41	0	51380224	55	3899
2026-01-30 07:40:54.15	99.28	13.06	-41.7	-42.5	21.7	0.00e+00	0	41	0	54525952	55	3850
2026-01-30 07:40:55.16	99.19	13.15	-41.7	-42.5	21.6	0.00e+00	0	41	0	57671680	55	3868
2026-01-30 07:40:56.17	99.10	13.24	-41.7	-42.6	21.6	0.00e+00	0	41	0	60817408	55	3873
2026-01-30 07:40:57.17	99.01	13.32	-41.8	-42.7	21.5	0.00e+00	0	41	0	63963136	55	3916
2026-01-30 07:40:58.18	98.92	13.41	-41.7	-42.5	21.6	0.00e+00	0	41	0	67108864	55	3856
2026-01-30 07:40:59.18	98.82	13.50	-41.7	-42.6	21.7	0.00e+00	0	41	0	70254592	55	3869
2026-01-30 07:41:00.19	98.73	13.59	-41.7	-42.6	21.7	0.00e+00	0	41	0	73400320	55	3870
2026-01-30 07:41:01.20	98.64	13.68	-41.6	-42.5	21.7	0.00e+00	0	41	0	76546048	55	3826
2026-01-30 07:41:02.20	98.54	13.77	-41.6	-42.4	21.8	0.00e+00	0	41	0	79691776	55	3815
2026-01-30 07:41:03.21	98.45	13.87	-41.6	-42.4	21.8	0.00e+00	0	41	0	82837504	55	3792
2026-01-30 07:41:04.22	98.35	13.96	-41.5	-42.3	21.9	0.00e+00	0	41	0	85983232	54	3979
2026-01-30 07:41:05.23	98.26	14.05	-41.5	-42.3	21.8	0.00e+00	0	41	0	89128960	54	3997
2026-01-30 07:41:06.23	98.16	14.14	-41.5	-42.3	21.8	0.00e+00	0	41	0	92274688	54	4004
2026-01-30 07:41:07.24	98.06	14.23	-41.5	-42.3	21.8	0.00e+00	0	41	0	95420416	54	3983
2026-01-30 07:41:08.25	97.97	14.32	-41.5	-42.3	21.8	0.00e+00	0	41	0	98566144	54	3976
2026-01-30 07:41:09.25	97.87	14.42	-41.5	-42.3	21.8	0.00e+00	0	42	0	101711872	54	3998
2026-01-30 07:41:10.26	97.77	14.51	-41.5	-42.4	21.8	0.00e+00	0	41	0	104857600	54	4008
2026-01-30 07:41:11.26	97.67	14.60	-41.7	-42.5	21.7	0.00e+00	0	42	0	108003328	54	4067
2026-01-30 07:41:12.27	97.57	14.69	-41.7	-42.6	21.6	0.00e+00	0	41	0	111149056	54	4104
2026-01-30 07:41:13.28	97.47	14.79	-41.7	-42.6	21.6	0.00e+00	0	41	0	114294784	54	4123
2026-01-30 07:41:14.29	97.37	14.88	-41.8	-42.7	21.5	0.00e+00	0	41	0	117440512	54	4176
2026-01-30 07:41:15.29	97.26	14.97	-41.7	-42.6	21.6	0.00e+00	0	41	0	120586240	54	4115
2026-01-30 07:41:16.30	97.16	15.07	-41.7	-42.6	21.6	0.00e+00	0	41	0	123731968	54	4118
2026-01-30 07:41:17.30	97.06	15.16	-41.7	-42.6	21.7	0.00e+00	0	41	0	126877696	54	4107
2026-01-30 07:41:18.31	96.95	15.26	-41.8	-42.7	21.6	0.00e+00	0	41	0	130023424	54	4163
2026-01-30 07:41:19.32	96.85	15.35	-41.7	-42.6	21.7	0.00e+00	0	41	0	133169152	54	4108
2026-01-30 07:41:20.33	96.74	15.45	-41.7	-42.6	21.7	0.00e+00	0	41	0	136314880	54	4109
2026-01-30 07:41:21.33	96.64	15.54	-41.8	-42.6	21.6	0.00e+00	0	41	0	139460608	54	4141
2026-01-30 07:41:22.33	96.53	15.64	-41.7	-42.5	21.7	0.00e+00	0	41	0	142606336	54	4095
2026-01-30 07:41:23.34	96.42	15.73	-41.7	-42.5	21.7	0.00e+00	0	42	0	145752064	54	4078
2026-01-30 07:41:24.35	96.31	15.83	-41.8	-42.7	21.6	0.00e+00	0	41	0	148897792	54	4148
2026-01-30 07:41:25.37	96.20	15.93	-41.7	-42.6	21.7	0.00e+00	0	42	0	152043520	54	4118
2026-01-30 07:41:26.37	96.09	16.03	-41.9	-42.7	21.5	0.00e+00	0	41	0	155189248	54	4179
2026-01-30 07:41:27.38	95.98	16.12	-41.9	-42.7	21.5	0.00e+00	0	42	0	158334976	54	4191
2026-01-30 07:41:28.39	95.87	16.22	-41.9	-42.8	21.5	0.00e+00	0	41	0	161480704	54	4195
2026-01-30 07:41:29.39	95.76	16.32	-42.0	-42.8	21.4	0.00e+00	0	41	0	164626432	54	4233
2026-01-30 07:41:30.40	95.64	16.42	-41.9	-42.7	21.6	0.00e+00	0	41	0	167772160	54	4178
2026-01-30 07:41:31.41	95.53	16.51	-41.9	-42.7	21.5	0.00e+00	0	41	0	170917888	54	4193
2026-01-30 07:41:32.42	95.42	16.61	-41.9	-42.8	21.5	0.00e+00	0	41	0	174063616	54	4210
2026-01-30 07:41:33.43	95.30	16.71	-42.0	-42.8	21.5	0.00e+00	0	41	0	177209344	54	4224
2026-01-30 07:41:34.44	95.18	16.81	-42.1	-42.9	21.3	0.00e+00	0	41	0	180355072	54	4282
2026-01-30 07:41:35.44	95.07	16.91	-42.1	-42.9	21.3	0.00e+00	0	41	0	183500800	54	4291
2026-01-30 07:41:36.45	94.95	17.01	-42.2	-43.1	21.2	0.00e+00	0	41	0	186646528	54	4354
2026-01-30 07:41:37.46	94.83	17.11	-42.2	-43.1	21.2	0.00e+00	0	41	0	189792256	55	4125
2026-01-30 07:41:38.46	94.71	17.21	-42.1	-42.9	21.4	0.00e+00	0	41	0	192937984	55	4043
2026-01-30 07:41:39.47	94.59	17.31	-42.2	-43.0	21.3	0.00e+00	0	41	0	196083712	55	4091
2026-01-30 07:41:40.47	94.47	17.41	-42.1	-43.0	21.4	0.00e+00	0	41	0	199229440	55	4058
2026-01-30 07:41:41.48	94.35	17.51	-42.0	-42.9	21.5	0.00e+00	0	41	0	202375168	55	4035
2026-01-30 07:41:42.48	94.23	17.61	-42.0	-42.9	21.5	0.00e+00	0	41	0	205520896	55	4010
2026-01-30 07:41:43.49	94.10	17.71	-41.9	-42.7	21.6	0.00e+00	0	41	0	208666624	55	3942
2026-01-30 07:41:44.50	93.98	17.82	-41.9	-42.7	21.6	0.00e+00	0	41	0	211812352	55	3952
2026-01-30 07:41:45.51	93.85	17.92	-41.8	-42.6	21.7	0.00e+00	0	41	0	214958080	55	3887
2026-01-30 07:41:46.51	93.73	18.02	-41.8	-42.6	21.7	0.00e+00	0	41	0	218103808	55	3885
2026-01-30 07:41:47.52	93.60	18.12	-41.9	-42.8	21.5	0.00e+00	0	41	0	221249536	55	3967
2026-01-30 07:41:48.53	93.47	18.23	-41.9	-42.7	21.6	0.00e+00	0	42	0	224395264	55	3935
2026-01-30 07:41:49.54	93.34	18.33	-41.9	-42.8	21.5	0.00e+00	0	41	0	227540992	55	3983
2026-01-30 07:41:50.55	93.21	18.43	-42.0	-42.9	21.4	0.00e+00	0	42	0	230686720	55	4033
2026-01-30 07:41:51.56	93.08	18.54	-42.2	-43.0	21.3	0.00e+00	0	41	0	233832448	55	4094
2026-01-30 07:41:52.56	92.95	18.64	-42.2	-43.1	21.2	0.00e+00	0	41	0	236978176	55	4132
2026-01-30 07:41:53.57	92.82	18.75	-42.2	-43.1	21.2	0.00e+00	0	41	0	240123904	55	4129
2026-01-30 07:41:54.57	92.69	18.85	-42.3	-43.1	21.2	0.00e+00	0	42	0	243269632	55	4145
2026-01-30 07:41:55.58	92.55	18.96	-42.4	-43.3	21.1	0.00e+00	0	41	0	246415360	55	4215
2026-01-30 07:41:56.59	92.42	19.06	-42.2	-43.1	21.3	0.00e+00	0	42	0	249561088	55	4116
2026-01-30 07:41:57.60	92.28	19.17	-42.2	-43.1	21.3	0.00e+00	0	41	0	252706816	55	4112
2026-01-30 07:41:58.61	92.14	19.27	-42.1	-42.9	21.5	0.00e+00	0	41	0	255852544	55	4050
2026-01-30 07:41:59.62	92.01	19.38	-42.0	-42.8	21.5	0.00e+00	0	41	0	258998272	55	4001
2026-01-30 07:42:00.62	91.87	19.49	-42.0	-42.9	21.5	0.00e+00	0	41	0	262144000	55	4037
2026-01-30 07:42:01.63	91.73	19.59	-42.1	-43.0	21.5	0.00e+00	0	41	0	265289728	55	4061
2026-01-30 07:42:02.63	91.59	19.70	-42.0	-42.8	21.5	0.00e+00	0	41	0	268435456	55	3998
2026-01-30 07:42:03.64	91.45	19.81	-41.9	-42.8	21.6	0.00e+00	0	41	0	272629760	55	3982
2026-01-30 07:42:04.65	91.30	19.91	-41.8	-42.6	21.7	0.00e+00	0	41	0	274726912	55	3899
2026-01-30 07:42:05.66	91.16	20.02	-41.9	-42.7	21.6	0.00e+00	0	41	0	277872640	55	3952
2026-01-30 07:42:06.67	91.01	20.13	-41.8	-42.6	21.7	0.00e+00	0	41	0	281018368	55	3903
2026-01-30 07:42:07.68	90.87	20.24	-41.8	-42.6	21.7	0.00e+00	0	41	0	284164096	55	3904
2026-01-30 07:42:08.69	90.72	20.35	-41.7	-42.5	21.7	0.00e+00	0	42	0	287309824	55	3851
2026-01-30 07:42:09.70	90.57	20.46	-41.7	-42.6	21.7	0.00e+00	0	41	0	290455552	55	3885
2026-01-30 07:42:10.71	90.42	20.57	-41.7	-42.6	21.8	0.00e+00	0	41	0	293601280	55	3884
2026-01-30 07:42:11.72	90.27	20.68	-41.6	-42.5	21.9	0.00e+00	0	41	0	296747008	55	3828
2026-01-30 07:42:12.72	90.12	20.78	-41.5	-42.4	22.0	0.00e+00	0	41	0	299892736	55	3790
2026-01-30 07:42:13.73	89.97	20.90	-41.6	-42.5	21.9	0.00e+00	0	41	0	303038464	55	3843
2026-01-30 07:42:14.74	89.81	21.01	-41.7	-42.6	21.8	0.00e+00	0	41	0	307232768	55	3877
2026-01-30 07:42:15.74	89.66	21.12	-41.7	-42.5	21.8	0.00e+00	0	41	0	310378496	55	3858
2026-01-30 07:42:16.75	89.50	21.23	-41.4	-42.2	22.1	0.00e+00	0	41	0	313524224	54	3939
2026-01-30 07:42:17.76	89.34	21.34	-41.1	-41.9	22.4	0.00e+00	0	41	0	316669952	54	3788
2026-01-30 07:42:18.76	89.19	21.45	-41.0	-41.8	22.4	0.00e+00	0	41	0	319815680	54	3763
2026-01-30 07:42:19.77	89.03	21.56	-41.0	-41.8	22.4	0.00e+00	0	41	0	321912832	54	3762
2026-01-30 07:42:20.77	88.87	21.67	-40.9	-41.7	22.4	0.00e+00	0	42	0	325058560	53	3939
2026-01-30 07:42:21.78	88.71	21.78	-41.1	-41.9	22.4	0.00e+00	0	41	0	328204288	53	4006
2026-01-30 07:42:22.79	88.54	21.89	-41.1	-41.9	22.4	0.00e+00	0	41	0	331350016	53	4007
2026-01-30 07:42:23.80	88.38	22.01	-40.9	-41.7	22.5	0.00e+00	0	41	0	334495744	53	3957
2026-01-30 07:42:24.80	88.21	22.12	-40.9	-41.7	22.5	0.00e+00	0	41	0	337641472	53	3939
2026-01-30 07:42:25.81	88.05	22.23	-41.0	-41.8	22.4	0.00e+00	0	41	0	340787200	53	4002
2026-01-30 07:42:26.82	87.88	22.35	-40.9	-41.7	22.6	0.00e+00	0	41	0	343932928	53	3921
2026-01-30 07:42:27.82	87.71	22.46	-40.8	-41.5	22.7	0.00e+00	0	41	0	347078656	53	3867
2026-01-30 07:42:28.83	87.54	22.57	-40.8	-41.6	22.7	0.00e+00	0	41	0	350224384	53	3877
2026-01-30 07:42:29.83	87.37	22.69	-40.8	-41.5	22.7	0.00e+00	0	41	0	353370112	53	3861
2026-01-30 07:42:30.84	87.20	22.80	-40.7	-41.5	22.8	0.00e+00	0	41	0	356515840	53	3825
2026-01-30 07:42:31.85	87.02	22.91	-40.7	-41.5	22.8	0.00e+00	0	41	0	360710144	53	3837
2026-01-30 07:42:32.85	86.85	23.03	-40.6	-41.3	22.9	0.00e+00	0	41	0	363855872	53	3767
2026-01-30 07:42:33.86	86.67	23.14	-40.6	-41.3	22.9	0.00e+00	0	41	0	367001600	53	3769
2026-01-30 07:42:34.87	86.49	23.26	-40.6	-41.3	22.9	0.00e+00	0	41	0	369098752	53	3768
2026-01-30 07:42:35.87	86.31	23.37	-40.6	-41.3	22.9	0.00e+00	0	41	0	372244480	53	3768
2026-01-30 07:42:36.89	86.13	23.49	-40.6	-41.4	22.8	0.00e+00	0	41	0	375390208	53	3795
2026-01-30 07:42:37.89	85.95	23.60	-40.7	-41.4	22.8	0.00e+00	0	41	0	378535936	53	3811
2026-01-30 07:42:38.90	85.77	23.72	-40.7	-41.4	22.8	0.00e+00	0	41	0	381681664	53	3823
2026-01-30 07:42:39.90	85.58	23.83	-40.8	-41.5	22.7	0.00e+00	0	42	0	384827392	53	3865
2026-01-30 07:42:40.91	85.40	23.95	-40.8	-41.6	22.6	0.00e+00	0	41	0	387973120	53	3892
2026-01-30 07:42:41.93	85.21	24.07	-40.8	-41.6	22.6	0.00e+00	0	41	0	391118848	53	3907
2026-01-30 07:42:42.93	85.02	24.18	-40.9	-41.7	22.6	0.00e+00	0	41	0	394264576	53	3932
2026-01-30 07:42:43.95	84.83	24.30	-40.9	-41.7	22.6	0.00e+00	0	41	0	398458880	53	3946
2026-01-30 07:42:44.95	84.64	24.42	-40.7	-41.5	22.8	0.00e+00	0	41	0	401604608	53	3828
2026-01-30 07:42:45.96	84.44	24.53	-40.7	-41.4	22.8	0.00e+00	0	41	0	404750336	53	3822
2026-01-30 07:42:46.97	84.25	24.65	-40.6	-41.4	22.9	0.00e+00	0	41	0	407896064	53	3800
2026-01-30 07:42:47.98	84.05	24.77	-40.7	-41.5	22.8	0.00e+00	0	41	0	411041792	53	3828
2026-01-30 07:42:48.99	83.85	24.89	-40.8	-41.5	22.6	0.00e+00	0	41	0	414187520	53	3856
2026-01-30 07:42:49.99	83.65	25.00	-40.8	-41.6	22.6	0.00e+00	0	41	0	416284672	53	3905
2026-01-30 07:42:51.00	83.45	25.12	-41.0	-41.8	22.4	0.00e+00	0	41	0	419430400	53	3965
2026-01-30 07:42:52.01	83.25	25.24	-41.1	-41.9	22.4	0.00e+00	0	41	0	422576128	53	4008
2026-01-30 07:42:53.01	83.05	25.36	-41.1	-41.9	22.4	0.00e+00	0	41	0	425721856	53	4010
2026-01-30 07:42:54.03	82.84	25.48	-41.0	-41.8	22.5	0.00e+00	0	41	0	428867584	53	3976
2026-01-30 07:42:55.03	82.63	25.59	-41.0	-41.8	22.5	0.00e+00	0	41	0	432013312	53	3987
2026-01-30 07:42:56.04	82.43	25.71	-41.1	-41.9	22.5	0.00e+00	0	41	0	436207616	53	4015
2026-01-30 07:42:57.05	82.21	25.83	-40.8	-41.5	22.7	0.00e+00	0	41	0	439353344	53	3867
2026-01-30 07:42:58.06	82.00	25.95	-40.6	-41.4	22.9	0.00e+00	0	41	0	442499072	53	3794
2026-01-30 07:42:59.07	81.79	26.07	-40.7	-41.5	22.7	0.00e+00	0	41	0	445644800	53	3843
2026-01-30 07:43:00.08	81.57	26.19	-40.8	-41.5	22.7	0.00e+00	0	41	0	448790528	53	3867
2026-01-30 07:43:01.09	81.36	26.31	-40.8	-41.5	22.7	0.00e+00	0	41	0	451936256	53	3859
2026-01-30 07:43:02.10	81.14	26.43	-40.8	-41.6	22.7	0.00e+00	0	41	0	455081984	53	3897
2026-01-30 07:43:03.11	80.92	26.55	-40.8	-41.6	22.7	0.00e+00	0	41	0	458227712	53	3886
2026-01-30 07:43:04.12	80.69	26.66	-40.9	-41.6	22.7	0.00e+00	0	41	0	461373440	53	3898
2026-01-30 07:43:05.13	80.47	26.78	-40.9	-41.6	22.7	0.00e+00	0	41	0	463470592	53	3906
2026-01-30 07:43:06.14	80.25	26.90	-40.9	-41.7	22.7	0.00e+00	0	41	0	467664896	53	3916
2026-01-30 07:43:07.15	80.02	27.02	-41.1	-41.9	22.5	0.00e+00	0	41	0	470810624	53	4023
2026-01-30 07:43:08.15	79.79	27.14	-41.0	-41.8	22.5	0.00e+00	0	41	0	473956352	53	3990
2026-01-30 07:43:09.16	79.56	27.26	-41.2	-42.0	22.2	0.00e+00	0	41	0	477102080	53	4092
2026-01-30 07:43:10.17	79.33	27.38	-41.4	-42.2	22.1	0.00e+00	0	41	0	480247808	53	4166
2026-01-30 07:43:11.17	79.10	27.50	-41.4	-42.2	22.0	0.00e+00	0	41	0	483393536	53	4192
2026-01-30 07:43:12.18	78.86	27.62	-41.6	-42.4	22.0	0.00e+00	0	41	0	486539264	53	4275
2026-01-30 07:43:13.19	78.62	27.74	-41.6	-42.4	22.0	0.00e+00	0	42	0	489684992	53	4263
2026-01-30 07:43:14.19	78.39	27.85	-41.5	-42.3	22.1	0.00e+00	0	41	0	492830720	53	4233
2026-01-30 07:43:15.20	78.15	27.97	-41.5	-42.3	22.2	0.00e+00	0	41	0	495976448	53	4203
2026-01-30 07:43:16.21	77.90	28.09	-41.6	-42.4	22.1	0.00e+00	0	41	0	499122176	53	4270
2026-01-30 07:43:17.21	77.66	28.21	-41.7	-42.5	22.0	0.00e+00	0	41	0	502267904	53	4333
2026-01-30 07:43:18.23	77.41	28.33	-41.8	-42.6	22.0	0.00e+00	0	41	0	505413632	54	4108
2026-01-30 07:43:19.23	77.16	28.45	-41.9	-42.7	21.8	0.00e+00	0	41	0	508559360	54	4184
2026-01-30 07:43:20.25	76.91	28.57	-41.8	-42.6	21.9	0.00e+00	0	41	0	511705088	54	4124
2026-01-30 07:43:21.25	76.66	28.68	-41.6	-42.4	22.1	0.00e+00	0	41	0	514850816	54	4049
2026-01-30 07:43:22.26	76.41	28.80	-41.5	-42.3	22.2	0.00e+00	0	41	0	517996544	54	3976
2026-01-30 07:43:23.27	76.15	28.92	-41.4	-42.2	22.3	0.00e+00	0	41	0	521142272	54	3943
2026-01-30 07:43:24.27	75.90	29.04	-41.4	-42.2	22.2	0.00e+00	0	41	0	524288000	54	3947
2026-01-30 07:43:25.27	75.64	29.15	-41.3	-42.1	22.4	0.00e+00	0	41	0	527433728	54	3905
2026-01-30 07:43:26.28	75.38	29.27	-41.4	-42.1	22.3	0.00e+00	0	41	0	530579456	54	3910
2026-01-30 07:43:27.28	75.12	29.39	-41.4	-42.2	22.3	0.00e+00	0	41	0	533725184	54	3944
2026-01-30 07:43:28.28	74.85	29.51	-41.4	-42.2	22.2	0.00e+00	0	41	0	536870912	54	3941
2026-01-30 07:43:29.29	74.59	29.62	-41.5	-42.3	22.1	0.00e+00	0	41	0	540016640	54	3998
2026-01-30 07:43:30.29	74.32	29.74	-41.6	-42.5	22.0	0.00e+00	0	41	0	543162368	54	4059
2026-01-30 07:43:31.30	74.05	29.86	-41.6	-42.4	22.1	0.00e+00	0	41	0	546308096	54	4026
2026-01-30 07:43:32.31	73.77	29.97	-41.6	-42.4	22.1	0.00e+00	0	41	0	549453824	54	4024
2026-01-30 07:43:33.32	73.50	30.09	-41.5	-42.3	22.2	0.00e+00	0	41	0	552599552	54	3977
2026-01-30 07:43:34.33	73.22	30.20	-41.3	-42.1	22.4	0.00e+00	0	41	0	555745280	54	3880
2026-01-30 07:43:35.33	72.94	30.32	-41.3	-42.1	22.4	0.00e+00	0	41	0	557842432	54	3881
2026-01-30 07:43:36.34	72.66	30.43	-41.3	-42.1	22.4	0.00e+00	0	41	0	562036736	54	3899
2026-01-30 07:43:37.35	72.38	30.55	-41.4	-42.2	22.4	0.00e+00	0	42	0	565182464	54	3918
2026-01-30 07:43:38.35	72.10	30.66	-41.2	-42.0	22.5	0.00e+00	0	41	0	568328192	54	3846
2026-01-30 07:43:39.36	71.81	30.78	-41.2	-42.0	22.5	0.00e+00	0	41	0	571473920	54	3832
2026-01-30 07:43:40.37	71.52	30.89	-41.0	-41.8	22.6	0.00e+00	0	41	0	574619648	54	3751
2026-01-30 07:43:41.39	71.22	31.01	-41.0	-41.7	22.7	0.00e+00	0	41	0	577765376	54	3731
2026-01-30 07:43:42.39	70.93	31.12	-41.0	-41.8	22.5	0.00e+00	0	41	0	580911104	53	3985
2026-01-30 07:43:43.40	70.64	31.23	-41.1	-41.9	22.5	0.00e+00	0	41	0	584056832	53	4006
2026-01-30 07:43:44.40	70.34	31.34	-41.3	-42.1	22.3	0.00e+00	0	41	0	587202560	53	4110
2026-01-30 07:43:45.41	70.04	31.45	-41.3	-42.1	22.3	0.00e+00	0	41	0	590348288	53	4131
2026-01-30 07:43:46.42	69.74	31.56	-41.2	-42.0	22.5	0.00e+00	0	41	0	593494016	53	4059
2026-01-30 07:43:47.42	69.44	31.67	-41.2	-42.0	22.4	0.00e+00	0	41	0	596639744	53	4054
2026-01-30 07:43:48.43	69.13	31.78	-41.4	-42.2	22.2	0.00e+00	0	41	0	599785472	53	4168
2026-01-30 07:43:49.44	68.83	31.89	-41.6	-42.4	22.0	0.00e+00	0	41	0	602931200	53	4269
2026-01-30 07:43:50.45	68.51	32.00	-41.8	-42.6	21.9	0.00e+00	0	41	0	606076928	54	4125
2026-01-30 07:43:51.45	68.21	32.11	-41.9	-42.7	21.8	0.00e+00	0	41	0	609222656	54	4186
2026-01-30 07:43:52.46	67.89	32.22	-41.9	-42.8	21.8	0.00e+00	0	41	0	612368384	54	4213
2026-01-30 07:43:53.47	67.57	32.33	-42.0	-42.8	21.8	0.00e+00	0	41	0	615514112	54	4233
2026-01-30 07:43:54.48	67.26	32.43	-42.0	-42.8	21.8	0.00e+00	0	41	0	618659840	54	4232
2026-01-30 07:43:55.49	66.93	32.54	-42.0	-42.8	21.8	0.00e+00	0	41	0	621805568	54	4229
2026-01-30 07:43:56.49	66.61	32.65	-42.0	-42.8	21.8	0.00e+00	0	41	0	624951296	54	4239
2026-01-30 07:43:57.50	66.29	32.75	-42.2	-43.1	21.6	0.00e+00	0	42	0	628097024	55	4128
2026-01-30 07:43:58.50	65.97	32.85	-42.2	-43.1	21.6	0.00e+00	0	41	0	631242752	55	4104
2026-01-30 07:43:59.51	65.64	32.96	-42.2	-43.1	21.6	0.00e+00	0	41	0	634388480	55	4122
2026-01-30 07:44:00.52	65.30	33.06	-42.1	-43.0	21.7	0.00e+00	0	41	0	637534208	55	4069
2026-01-30 07:44:01.53	64.97	33.16	-42.0	-42.9	21.8	0.00e+00	0	41	0	640679936	55	4016
2026-01-30 07:44:02.53	64.64	33.26	-41.9	-42.8	21.9	0.00e+00	0	41	0	643825664	55	3960
2026-01-30 07:44:03.54	64.30	33.36	-41.9	-42.7	21.9	0.00e+00	0	41	0	646971392	55	3946
2026-01-30 07:44:04.55	63.96	33.46	-42.0	-42.8	21.9	0.00e+00	0	41	0	650117120	55	3978
2026-01-30 07:44:05.55	63.62	33.56	-42.1	-42.9	21.8	0.00e+00	0	41	0	653262848	55	4018
2026-01-30 07:44:06.56	63.28	33.66	-42.2	-43.1	21.7	0.00e+00	0	41	0	656408576	55	4100
2026-01-30 07:44:07.57	62.93	33.76	-42.3	-43.2	21.6	0.00e+00	0	41	0	659554304	55	4147
2026-01-30 07:44:08.58	62.58	33.85	-42.4	-43.3	21.5	0.00e+00	0	41	0	662700032	55	4213
2026-01-30 07:44:09.59	62.23	33.95	-42.5	-43.4	21.4	0.00e+00	0	42	0	665845760	55	4276
2026-01-30 07:44:10.59	61.89	34.04	-42.5	-43.4	21.4	0.00e+00	0	41	0	668991488	55	4272
2026-01-30 07:44:11.60	61.53	34.13	-42.6	-43.4	21.3	0.00e+00	0	41	0	672137216	55	4291
2026-01-30 07:44:12.61	61.17	34.23	-42.6	-43.5	21.3	0.00e+00	0	41	0	675282944	55	4323
2026-01-30 07:44:13.62	60.82	34.32	-42.8	-43.6	21.2	0.00e+00	0	41	0	678428672	56	4145
2026-01-30 07:44:14.62	60.46	34.41	-42.5	-43.4	21.5	0.00e+00	0	41	0	681574400	56	4029
2026-01-30 07:44:15.63	60.10	34.50	-42.4	-43.3	21.6	0.00e+00	0	41	0	684720128	56	3970
2026-01-30 07:44:16.63	59.74	34.58	-42.5	-43.3	21.5	0.00e+00	0	41	0	687865856	56	4004
2026-01-30 07:44:17.64	59.37	34.67	-42.6	-43.5	21.4	0.00e+00	0	41	0	691011584	56	4066
2026-01-30 07:44:18.65	59.00	34.76	-42.6	-43.5	21.4	0.00e+00	0	41	0	694157312	56	4071
2026-01-30 07:44:19.66	58.63	34.84	-42.6	-43.5	21.4	0.00e+00	0	41	0	697303040	56	4053
2026-01-30 07:44:20.67	58.26	34.93	-42.8	-43.7	21.3	0.00e+00	0	41	0	700448768	56	4146
2026-01-30 07:44:21.68	57.89	35.01	-42.8	-43.6	21.3	0.00e+00	0	41	0	703594496	56	4139
2026-01-30 07:44:22.69	57.51	35.09	-42.8	-43.7	21.3	0.00e+00	0	41	0	706740224	56	4149
2026-01-30 07:44:23.69	57.14	35.17	-42.7	-43.6	21.4	0.00e+00	0	41	0	709885952	56	4113
2026-01-30 07:44:24.70	56.76	35.25	-42.4	-43.3	21.6	0.00e+00	0	41	0	713031680	56	3974
2026-01-30 07:44:25.71	56.37	35.33	-42.5	-43.3	21.5	0.00e+00	0	41	0	716177408	56	3982
2026-01-30 07:44:26.71	56.00	35.40	-42.6	-43.5	21.4	0.00e+00	0	41	0	719323136	56	4063
2026-01-30 07:44:27.72	55.61	35.48	-42.6	-43.5	21.4	0.00e+00	0	41	0	722468864	56	4069
2026-01-30 07:44:28.73	55.22	35.55	-42.3	-43.1	21.8	0.00e+00	0	41	0	725614592	56	3888
2026-01-30 07:44:29.73	54.84	35.63	-42.3	-43.1	21.8	0.00e+00	0	41	0	728760320	56	3890
2026-01-30 07:44:30.74	54.45	35.70	-42.5	-43.3	21.5	0.00e+00	0	41	0	731906048	56	3998
2026-01-30 07:44:31.75	54.06	35.77	-42.8	-43.7	21.2	0.00e+00	0	41	0	735051776	56	4169
2026-01-30 07:44:32.76	53.66	35.84	-43.2	-44.1	20.8	0.00e+00	0	41	0	738197504	56	4359
2026-01-30 07:44:33.77	53.27	35.90	-43.2	-44.1	20.8	0.00e+00	0	41	0	741343232	56	4384
2026-01-30 07:44:34.77	52.87	35.97	-43.4	-44.3	20.6	0.00e+00	0	41	0	744488960	57	4222
2026-01-30 07:44:35.78	52.48	36.03	-43.5	-44.4	20.5	0.00e+00	0	41	0	747634688	57	4281
2026-01-30 07:44:36.79	52.08	36.09	-43.1	-44.1	20.8	0.00e+00	0	41	0	750780416	57	4101
2026-01-30 07:44:37.79	51.68	36.16	-43.1	-44.0	20.9	0.00e+00	0	41	0	753926144	57	4074
2026-01-30 07:44:38.80	51.27	36.22	-43.2	-44.1	20.9	0.00e+00	0	41	0	757071872	57	4131
2026-01-30 07:44:39.81	50.87	36.27	-43.2	-44.1	20.9	0.00e+00	0	41	0	760217600	57	4124
2026-01-30 07:44:40.81	50.47	36.33	-43.1	-44.0	21.0	0.00e+00	0	41	0	763363328	57	4064
2026-01-30 07:44:41.83	50.06	36.39	-42.9	-43.8	21.2	0.00e+00	0	41	0	766509056	57	3974
2026-01-30 07:44:42.83	49.65	36.44	-42.8	-43.7	21.3	0.00e+00	0	41	0	769654784	57	3935
2026-01-30 07:44:43.84	49.24	36.49	-43.0	-43.9	21.1	0.00e+00	0	41	0	772800512	57	4006
2026-01-30 07:44:44.85	48.83	36.54	-43.2	-44.1	20.9	0.00e+00	0	41	0	775946240	57	4112
2026-01-30 07:44:45.85	48.42	36.59	-43.1	-44.0	21.0	0.00e+00	0	41	0	779091968	57	4075
2026-01-30 07:44:46.86	48.01	36.64	-42.9	-43.8	21.1	0.00e+00	0	41	0	782237696	57	3998
2026-01-30 07:44:47.87	47.59	36.68	-42.9	-43.7	21.2	0.00e+00	0	41	0	785383424	57	3956
2026-01-30 07:44:48.88	47.18	36.73	-42.9	-43.8	21.2	0.00e+00	0	41	0	788529152	57	3974
2026-01-30 07:44:49.89	46.76	36.77	-42.9	-43.8	21.2	0.00e+00	0	41	0	791674880	57	3989
2026-01-30 07:44:50.89	46.35	36.81	-43.1	-44.0	21.0	0.00e+00	0	41	0	794820608	57	4096
2026-01-30 07:44:51.90	45.93	36.85	-43.1	-44.0	21.0	0.00e+00	0	41	0	797966336	57	4090
2026-01-30 07:44:52.91	45.51	36.89	-43.1	-44.0	21.0	0.00e+00	0	41	0	801112064	57	4080
2026-01-30 07:44:53.91	45.09	36.92	-43.1	-44.0	21.0	0.00e+00	0	41	0	804257792	57	4068
2026-01-30 07:44:54.92	44.67	36.96	-43.0	-43.9	21.1	0.00e+00	0	41	0	807403520	57	4043
2026-01-30 07:44:55.93	44.24	36.99	-43.0	-43.9	21.2	0.00e+00	0	41	0	810549248	57	4017
2026-01-30 07:44:56.93	43.82	37.02	-43.0	-43.9	21.2	0.00e+00	0	41	0	813694976	57	4005
2026-01-30 07:44:57.93	43.40	37.05	-42.6	-43.5	21.5	0.00e+00	0	41	0	816840704	57	3842
2026-01-30 07:44:58.94	42.98	37.07	-42.5	-43.3	21.6	0.00e+00	0	41	0	819986432	56	3988
2026-01-30 07:44:59.95	42.55	37.10	-42.7	-43.5	21.5	0.00e+00	0	41	0	823132160	56	4079
2026-01-30 07:45:00.96	42.13	37.12	-43.0	-43.8	21.2	0.00e+00	0	41	0	826277888	56	4237
2026-01-30 07:45:01.96	41.70	37.14	-43.1	-43.9	21.1	0.00e+00	0	41	0	829423616	56	4287
2026-01-30 07:45:02.97	41.27	37.16	-43.1	-43.9	21.0	0.00e+00	0	41	0	832569344	56	4291
2026-01-30 07:45:03.98	40.85	37.18	-43.0	-43.9	21.1	0.00e+00	0	41	0	835715072	56	4281
2026-01-30 07:45:04.99	40.42	37.20	-42.9	-43.8	21.2	0.00e+00	0	41	0	838860800	56	4194
2026-01-30 07:45:05.99	39.99	37.21	-42.7	-43.6	21.3	0.00e+00	0	41	0	842006528	56	4106
2026-01-30 07:45:07.00	39.56	37.22	-42.7	-43.6	21.3	0.00e+00	0	41	0	845152256	56	4110
2026-01-30 07:45:08.01	39.13	37.23	-42.8	-43.7	21.2	0.00e+00	0	41	0	848297984	56	4188
2026-01-30 07:45:09.02	38.70	37.24	-42.9	-43.8	21.2	0.00e+00	0	41	0	851443712	56	4227
2026-01-30 07:45:10.03	38.27	37.25	-43.2	-44.1	21.0	0.00e+00	0	41	0	854589440	56	4363
2026-01-30 07:45:11.03	37.85	37.25	-43.1	-44.0	21.0	0.00e+00	0	41	0	857735168	57	4084
2026-01-30 07:45:12.04	37.42	37.26	-42.9	-43.8	21.2	0.00e+00	0	41	0	860880896	57	3990
2026-01-30 07:45:13.04	36.99	37.26	-43.0	-43.9	21.0	0.00e+00	0	41	0	864026624	57	4049
2026-01-30 07:45:14.05	36.56	37.26	-43.2	-44.1	21.0	0.00e+00	0	41	0	867172352	57	4107
2026-01-30 07:45:15.06	36.13	37.25	-43.1	-44.1	21.0	0.00e+00	0	41	0	870318080	57	4103
2026-01-30 07:45:16.07	35.70	37.25	-43.3	-44.3	20.7	0.00e+00	0	41	0	873463808	57	4205
2026-01-30 07:45:17.08	35.27	37.24	-43.7	-44.7	20.4	0.00e+00	0	41	0	876609536	57	4402
2026-01-30 07:45:18.09	34.84	37.24	-43.6	-44.5	20.5	0.00e+00	0	41	0	879755264	57	4332
2026-01-30 07:45:19.09	34.41	37.23	-43.5	-44.5	20.6	0.00e+00	0	41	0	882900992	57	4306
2026-01-30 07:45:20.10	33.98	37.21	-43.6	-44.6	20.5	0.00e+00	0	41	0	886046720	57	4343
2026-01-30 07:45:21.10	33.56	37.20	-43.3	-44.2	20.8	0.00e+00	0	41	0	889192448	57	4190
2026-01-30 07:45:22.11	33.13	37.19	-43.1	-43.9	21.0	0.00e+00	0	41	0	892338176	57	4051
2026-01-30 07:45:23.11	32.71	37.17	-42.7	-43.6	21.3	0.00e+00	0	41	0	895483904	57	3882
2026-01-30 07:45:24.12	32.28	37.15	-42.5	-43.3	21.5	0.00e+00	0	41	0	898629632	57	3775
2026-01-30 07:45:25.12	31.86	37.13	-42.5	-43.3	21.6	0.00e+00	0	41	0	901775360	56	4003
2026-01-30 07:45:26.13	31.43	37.11	-42.9	-43.8	21.2	0.00e+00	0	41	0	904921088	56	4234
2026-01-30 07:45:27.14	31.00	37.08	-43.3	-44.2	20.8	0.00e+00	0	41	0	908066816	57	4169
2026-01-30 07:45:28.15	30.58	37.06	-43.3	-44.3	20.8	0.00e+00	0	41	0	911212544	57	4205
2026-01-30 07:45:29.15	30.16	37.03	-43.6	-44.5	20.6	0.00e+00	0	41	0	914358272	57	4332
2026-01-30 07:45:30.16	29.73	37.00	-43.4	-44.4	20.7	0.00e+00	0	41	0	917504000	57	4256
2026-01-30 07:45:31.17	29.31	36.97	-43.1	-44.0	21.0	0.00e+00	0	41	0	920649728	57	4093
2026-01-30 07:45:32.18	28.89	36.94	-43.0	-43.9	21.1	0.00e+00	0	41	0	923795456	57	4014
2026-01-30 07:45:33.18	28.47	36.90	-43.0	-43.9	21.1	0.00e+00	0	41	0	926941184	57	4043
2026-01-30 07:45:34.19	28.05	36.87	-43.0	-43.8	21.2	0.00e+00	0	41	0	930086912	57	3994
2026-01-30 07:45:35.19	27.63	36.83	-42.9	-43.7	21.3	0.00e+00	0	41	0	933232640	57	3949
2026-01-30 07:45:36.20	27.22	36.79	-43.0	-43.9	21.1	0.00e+00	0	41	0	936378368	57	4032
2026-01-30 07:45:37.21	26.80	36.75	-42.9	-43.8	21.2	0.00e+00	0	41	0	939524096	57	3977
2026-01-30 07:45:38.22	26.38	36.70	-42.8	-43.7	21.3	0.00e+00	0	41	0	942669824	57	3940
2026-01-30 07:45:39.23	25.97	36.66	-42.8	-43.7	21.3	0.00e+00	0	41	0	945815552	57	3929
2026-01-30 07:45:40.24	25.55	36.61	-42.7	-43.6	21.4	0.00e+00	0	41	0	948961280	57	3888
2026-01-30 07:45:41.25	25.14	36.56	-42.7	-43.6	21.4	0.00e+00	0	41	0	952107008	57	3900
2026-01-30 07:45:42.24	24.74	36.51	-42.8	-43.7	21.3	0.00e+00	0	41	0	955252736	57	3949
2026-01-30 07:45:43.25	24.33	36.46	-42.8	-43.7	21.3	0.00e+00	0	41	0	958398464	57	3942
2026-01-30 07:45:44.26	23.92	36.41	-43.0	-43.9	21.1	0.00e+00	0	41	0	961544192	57	4045
2026-01-30 07:45:45.27	23.51	36.36	-43.1	-44.0	21.1	0.00e+00	0	41	0	964689920	57	4073
2026-01-30 07:45:46.28	23.10	36.30	-43.2	-44.1	20.9	0.00e+00	0	41	0	967835648	57	4142
2026-01-30 07:45:47.29	22.70	36.24	-43.2	-44.1	20.9	0.00e+00	0	41	0	970981376	57	4136
2026-01-30 07:45:48.30	22.29	36.18	-43.2	-44.1	21.0	0.00e+00	0	41	0	974127104	57	4136
2026-01-30 07:45:49.30	21.90	36.12	-43.0	-43.9	21.0	0.00e+00	0	41	0	977272832	57	4040
2026-01-30 07:45:50.31	21.50	36.06	-42.9	-43.9	21.1	0.00e+00	0	41	0	980418560	57	4005
2026-01-30 07:45:51.32	21.10	36.00	-42.9	-43.8	21.1	0.00e+00	0	41	0	983564288	57	3968
2026-01-30 07:45:52.33	20.70	35.93	-43.0	-43.9	21.0	0.00e+00	0	41	0	986710016	57	4037
2026-01-30 07:45:53.33	20.31	35.87	-43.1	-44.1	20.9	0.00e+00	0	41	0	989855744	57	4099
2026-01-30 07:45:54.34	19.91	35.80	-43.4	-44.3	20.7	0.00e+00	0	41	0	993001472	57	4226
2026-01-30 07:45:55.35	19.52	35.73	-43.3	-44.2	20.8	0.00e+00	0	41	0	996147200	57	4183
2026-01-30 07:45:56.36	19.13	35.66	-43.3	-44.2	20.8	0.00e+00	0	41	0	999292928	57	4183
2026-01-30 07:45:57.37	18.74	35.59	-43.2	-44.1	20.9	0.00e+00	0	41	0	1002438656	57	4142
2026-01-30 07:45:58.37	18.36	35.51	-43.2	-44.1	20.9	0.00e+00	0	41	0	1005584384	57	4136
2026-01-30 07:45:59.38	17.97	35.44	-43.1	-44.0	21.0	0.00e+00	0	41	0	1008730112	57	4097
2026-01-30 07:46:00.39	17.59	35.36	-43.2	-44.1	21.0	0.00e+00	0	41	0	1011875840	57	4126
2026-01-30 07:46:01.39	17.21	35.29	-43.4	-44.3	20.8	0.00e+00	0	41	0	1015021568	57	4220
2026-01-30 07:46:02.39	16.83	35.21	-43.5	-44.5	20.5	0.00e+00	0	41	0	1018167296	57	4319
2026-01-30 07:46:03.40	16.46	35.13	-43.6	-44.6	20.4	0.00e+00	0	41	0	1021313024	57	4371
2026-01-30 07:46:04.41	16.08	35.05	-43.4	-44.4	20.7	0.00e+00	0	41	0	1024458752	57	4257
2026-01-30 07:46:05.42	15.71	34.97	-43.3	-44.2	20.9	0.00e+00	0	41	0	1027604480	57	4165
2026-01-30 07:46:06.42	15.34	34.88	-43.3	-44.2	20.8	0.00e+00	0	41	0	1030750208	57	4183
2026-01-30 07:46:07.43	14.97	34.80	-42.6	-43.4	21.5	0.00e+00	0	41	0	1033895936	57	3805
2026-01-30 07:46:08.44	14.60	34.71	-42.4	-43.2	21.8	0.00e+00	0	41	0	1037041664	56	3931
2026-01-30 07:46:09.44	14.23	34.63	-42.6	-43.4	21.5	0.00e+00	0	41	0	1040187392	56	4038
2026-01-30 07:46:10.45	13.87	34.54	-42.7	-43.6	21.3	0.00e+00	0	41	0	1043333120	56	4132
2026-01-30 07:46:11.46	13.51	34.45	-42.8	-43.7	21.2	0.00e+00	0	41	0	1046478848	56	4172
2026-01-30 07:46:12.47	13.15	34.36	-42.7	-43.6	21.2	0.00e+00	0	41	0	1049624576	56	4132
2026-01-30 07:46:13.48	12.79	34.27	-42.8	-43.6	21.2	0.00e+00	0	41	0	1052770304	56	4144
2026-01-30 07:46:14.48	12.43	34.18	-42.3	-43.2	21.7	0.00e+00	0	41	0	1055916032	56	3918
2026-01-30 07:46:15.49	12.08	34.09	-42.0	-42.8	22.0	0.00e+00	0	41	0	1059061760	56	3769
2026-01-30 07:46:16.50	11.73	33.99	-41.8	-42.6	22.1	0.00e+00	0	41	0	1062207488	55	3903
2026-01-30 07:46:17.50	11.38	33.90	-41.9	-42.7	21.9	0.00e+00	0	41	0	1065353216	55	3956
2026-01-30 07:46:18.50	11.03	33.80	-42.5	-43.3	21.4	0.00e+00	0	41	0	1068498944	55	4227
2026-01-30 07:46:19.51	10.69	33.71	-42.9	-43.8	21.1	0.00e+00	0	41	0	1071644672	56	4221
2026-01-30 07:46:20.51	10.35	33.61	-42.9	-43.8	21.2	0.00e+00	0	41	0	1074790400	56	4218
2026-01-30 07:46:21.52	10.00	33.51	-42.9	-43.7	21.2	0.00e+00	0	41	0	1077936128	56	4192
2026-01-30 07:46:22.53	9.66	33.41	-42.6	-43.4	21.5	0.00e+00	0	41	0	1081081856	56	4040
2026-01-30 07:46:23.53	9.33	33.31	-42.6	-43.4	21.5	0.00e+00	0	41	0	1084227584	56	4034
2026-01-30 07:46:24.54	8.99	33.21	-42.2	-43.0	21.9	0.00e+00	0	41	0	1087373312	56	3830
2026-01-30 07:46:25.55	8.66	33.11	-41.8	-42.6	22.2	0.00e+00	0	42	0	1090519040	55	3886
2026-01-30 07:46:26.56	8.33	33.01	-41.8	-42.6	22.1	0.00e+00	0	41	0	1093664768	55	3871
2026-01-30 07:46:27.57	8.00	32.91	-41.9	-42.7	22.1	0.00e+00	0	41	0	1096810496	55	3925
2026-01-30 07:46:28.57	7.67	32.80	-41.8	-42.6	22.1	0.00e+00	0	41	0	1099956224	55	3911
2026-01-30 07:46:29.58	7.35	32.70	-42.0	-42.8	21.9	0.00e+00	0	42	0	1103101952	55	3969
2026-01-30 07:46:30.59	7.02	32.59	-42.0	-42.8	21.9	0.00e+00	0	41	0	1106247680	55	3964
2026-01-30 07:46:31.60	6.70	32.49	-42.0	-42.8	22.0	0.00e+00	0	41	0	1109393408	55	3966
2026-01-30 07:46:32.60	6.39	32.38	-42.0	-42.8	21.9	0.00e+00	0	41	0	1112539136	55	4002
2026-01-30 07:46:33.61	6.07	32.28	-42.3	-43.1	21.6	0.00e+00	0	41	0	1115684864	55	4129
2026-01-30 07:46:34.62	5.75	32.17	-42.5	-43.4	21.4	0.00e+00	0	41	0	1118830592	55	4278
2026-01-30 07:46:35.63	5.44	32.06	-42.6	-43.5	21.3	0.00e+00	0	41	0	1121976320	55	4335
2026-01-30 07:46:36.63	5.13	31.95	-42.5	-43.4	21.3	0.00e+00	0	41	0	1125122048	55	4279
2026-01-30 07:46:37.64	4.82	31.84	-42.2	-43.0	21.5	0.00e+00	0	41	0	1128267776	55	4071
2026-01-30 07:46:38.65	4.52	31.73	-42.0	-42.8	21.6	0.00e+00	0	41	0	1131413504	55	3972
2026-01-30 07:46:39.66	4.21	31.62	-41.7	-42.5	21.8	0.00e+00	0	41	0	1134559232	55	3844
2026-01-30 07:46:40.67	3.91	31.51	-41.2	-42.0	22.3	0.00e+00	0	41	0	1137704960	54	3843
2026-01-30 07:46:41.68	3.61	31.40	-41.3	-42.0	22.4	0.00e+00	0	41	0	1140850688	54	3861
2026-01-30 07:46:42.69	3.31	31.29	-41.7	-42.5	22.1	0.00e+00	0	41	0	1143996416	54	4067
2026-01-30 07:46:43.69	3.02	31.18	-42.0	-42.8	21.9	0.00e+00	0	41	0	1147142144	54	4225
2026-01-30 07:46:44.70	2.72	31.06	-42.1	-43.0	21.7	0.00e+00	0	41	0	1150287872	54	4292
2026-01-30 07:46:45.70	2.44	30.95	-42.1	-43.0	21.6	0.00e+00	0	41	0	1153433600	54	4295
2026-01-30 07:46:46.71	2.15	30.84	-42.2	-43.1	21.5	0.00e+00	0	41	0	1156579328	54	4344
2026-01-30 07:46:47.72	1.86	30.72	-42.0	-42.9	21.6	0.00e+00	0	41	0	1159725056	54	4263
2026-01-30 07:46:48.72	1.57	30.61	-41.9	-42.7	21.8	0.00e+00	0	41	0	1162870784	54	4164
2026-01-30 07:46:49.73	1.29	30.50	-42.0	-42.9	21.7	0.00e+00	0	42	0	1166016512	54	4248
2026-01-30 07:46:50.74	1.01	30.38	-42.1	-43.0	21.6	0.00e+00	0	41	0	1169162240	54	4323
2026-01-30 07:46:51.75	0.73	30.27	-42.3	-43.1	21.5	0.00e+00	0	41	0	1172307968	55	4141
2026-01-30 07:46:52.76	0.45	30.15	-42.3	-43.2	21.5	0.00e+00	0	41	0	1175453696	55	4167
2026-01-30 07:46:53.77	0.17	30.04	-42.2	-43.1	21.6	0.00e+00	0	41	0	1178599424	55	4114
2026-01-30 07:46:54.78	359.90	29.92	-42.3	-43.2	21.5	0.00e+00	0	42	0	1181745152	55	4147
2026-01-30 07:46:55.79	359.63	29.80	-42.2	-43.0	21.6	0.00e+00	0	41	0	1184890880	55	4090
2026-01-30 07:46:56.79	359.36	29.69	-42.0	-42.8	21.7	0.00e+00	0	41	0	1188036608	55	3982
2026-01-30 07:46:57.80	359.09	29.57	-41.6	-42.4	22.1	0.00e+00	0	41	0	1191182336	55	3808
2026-01-30 07:46:58.80	358.83	29.45	-41.6	-42.3	22.2	0.00e+00	0	41	0	1194328064	55	3780
2026-01-30 07:46:59.81	358.57	29.34	-41.4	-42.2	22.3	0.00e+00	0	41	0	1197473792	54	3945
2026-01-30 07:47:00.82	358.30	29.22	-41.5	-42.3	22.3	0.00e+00	0	41	0	1200619520	54	3967
2026-01-30 07:47:01.83	358.04	29.10	-41.5	-42.3	22.2	0.00e+00	0	41	0	1203765248	54	3977
2026-01-30 07:47:02.84	357.79	28.98	-41.6	-42.4	22.2	0.00e+00	0	41	0	1206910976	54	4010
2026-01-30 07:47:03.85	357.53	28.87	-41.5	-42.3	22.3	0.00e+00	0	41	0	1210056704	54	3986
2026-01-30 07:47:04.86	357.28	28.75	-41.5	-42.3	22.3	0.00e+00	0	41	0	1213202432	54	3965
2026-01-30 07:47:05.87	357.02	28.63	-41.2	-42.0	22.5	0.00e+00	0	41	0	1216348160	54	3848
2026-01-30 07:47:06.87	356.77	28.51	-41.1	-41.9	22.6	0.00e+00	0	41	0	1219493888	54	3801
2026-01-30 07:47:07.88	356.53	28.39	-41.0	-41.7	22.7	0.00e+00	0	41	0	1222639616	54	3735
2026-01-30 07:47:08.89	356.28	28.28	-41.1	-41.8	22.7	0.00e+00	0	41	0	1225785344	54	3776
2026-01-30 07:47:09.90	356.03	28.16	-41.2	-42.0	22.5	0.00e+00	0	41	0	1228931072	54	3851
2026-01-30 07:47:10.91	355.79	28.04	-41.3	-42.1	22.5	0.00e+00	0	41	0	1232076800	54	3887
2026-01-30 07:47:11.91	355.55	27.92	-41.4	-42.2	22.4	0.00e+00	0	41	0	1235222528	54	3945
2026-01-30 07:47:12.91	355.31	27.80	-41.4	-42.2	22.4	0.00e+00	0	41	0	1238368256	54	3938
2026-01-30 07:47:13.92	355.08	27.68	-41.2	-42.0	22.6	0.00e+00	0	41	0	1241513984	54	3825
2026-01-30 07:47:14.93	354.84	27.56	-41.1	-41.9	22.7	0.00e+00	0	41	0	1244659712	54	3803
2026-01-30 07:47:15.93	354.61	27.45	-41.2	-41.9	22.6	0.00e+00	0	41	0	1247805440	54	3823
2026-01-30 07:47:16.93	354.38	27.33	-41.2	-42.0	22.5	0.00e+00	0	41	0	1250951168	54	3842
2026-01-30 07:47:17.94	354.15	27.21	-41.0	-41.7	22.7	0.00e+00	0	41	0	1254096896	53	3948
2026-01-30 07:47:18.95	353.92	27.09	-40.9	-41.7	22.7	0.00e+00	0	41	0	1257242624	53	3939
2026-01-30 07:47:19.96	353.69	26.97	-41.0	-41.8	22.6	0.00e+00	0	41	0	1260388352	53	3984
2026-01-30 07:47:20.96	353.47	26.85	-41.1	-41.9	22.6	0.00e+00	0	41	0	1263534080	53	4021
2026-01-30 07:47:21.97	353.24	26.74	-41.2	-42.0	22.4	0.00e+00	0	41	0	1266679808	53	4090
2026-01-30 07:47:22.98	353.02	26.62	-41.4	-42.2	22.3	0.00e+00	0	41	0	1269825536	53	4170
2026-01-30 07:47:23.99	352.80	26.50	-41.4	-42.2	22.2	0.00e+00	0	42	0	1272971264	53	4186
2026-01-30 07:47:25.00	352.58	26.38	-41.3	-42.1	22.2	0.00e+00	0	41	0	1276116992	53	4123
2026-01-30 07:47:26.00	352.37	26.26	-41.2	-42.0	22.3	0.00e+00	0	41	0	1279262720	53	4085
2026-01-30 07:47:27.00	352.15	26.14	-41.1	-41.9	22.4	0.00e+00	0	41	0	1282408448	53	4029
2026-01-30 07:47:28.00	351.94	26.03	-40.9	-41.6	22.7	0.00e+00	0	41	0	1285554176	53	3895
2026-01-30 07:47:29.01	351.73	25.91	-40.9	-41.7	22.6	0.00e+00	0	41	0	1288699904	53	3936
2026-01-30 07:47:30.01	351.52	25.79	-40.8	-41.5	22.8	0.00e+00	0	41	0	1291845632	53	3856
2026-01-30 07:47:31.03	351.31	25.67	-40.9	-41.6	22.7	0.00e+00	0	41	0	1294991360	53	3897
2026-01-30 07:47:32.03	351.10	25.55	-41.1	-41.9	22.6	0.00e+00	0	41	0	1298137088	53	4008
2026-01-30 07:47:33.04	350.90	25.44	-41.2	-42.0	22.5	0.00e+00	0	41	0	1301282816	53	4070
2026-01-30 07:47:34.05	350.69	25.32	-41.3	-42.1	22.3	0.00e+00	0	41	0	1304428544	53	4136
2026-01-30 07:47:35.06	350.49	25.20	-41.4	-42.2	22.3	0.00e+00	0	41	0	1307574272	53	4150
2026-01-30 07:47:36.07	350.29	25.08	-41.4	-42.2	22.2	0.00e+00	0	41	0	1310720000	53	4185
2026-01-30 07:47:37.07	350.09	24.97	-41.4	-42.2	22.3	0.00e+00	0	41	0	1313865728	53	4152
2026-01-30 07:47:38.08	349.89	24.85	-41.1	-41.9	22.6	0.00e+00	0	41	0	1317011456	53	4018
2026-01-30 07:47:39.09	349.69	24.73	-41.1	-41.8	22.6	0.00e+00	0	41	0	1320157184	53	3990
2026-01-30 07:47:40.09	349.50	24.61	-41.0	-41.8	22.7	0.00e+00	0	41	0	1323302912	53	3960
2026-01-30 07:47:41.10	349.31	24.50	-40.9	-41.6	22.7	0.00e+00	0	41	0	1326448640	53	3892
2026-01-30 07:47:42.11	349.11	24.38	-40.9	-41.6	22.7	0.00e+00	0	41	0	1329594368	53	3896
2026-01-30 07:47:43.11	348.92	24.26	-40.9	-41.6	22.7	0.00e+00	0	41	0	1332740096	53	3899
2026-01-30 07:47:44.12	348.73	24.15	-40.8	-41.5	22.8	0.00e+00	0	41	0	1335885824	53	3856
2026-01-30 07:47:45.13	348.55	24.03	-40.8	-41.5	22.8	0.00e+00	0	41	0	1339031552	53	3844
2026-01-30 07:47:46.13	348.36	23.92	-40.8	-41.6	22.7	0.00e+00	0	41	0	1342177280	53	3877
2026-01-30 07:47:47.14	348.17	23.80	-40.8	-41.6	22.8	0.00e+00	0	41	0	1345323008	53	3871
2026-01-30 07:47:48.15	347.99	23.69	-40.8	-41.5	22.8	0.00e+00	0	41	0	1348468736	53	3855
2026-01-30 07:47:49.15	347.81	23.57	-40.8	-41.5	22.8	0.00e+00	0	41	0	1351614464	53	3859
2026-01-30 07:47:50.16	347.63	23.46	-40.8	-41.6	22.8	0.00e+00	0	41	0	1354760192	53	3881
2026-01-30 07:47:51.16	347.45	23.34	-40.9	-41.6	22.7	0.00e+00	0	41	0	1357905920	53	3905
2026-01-30 07:47:52.17	347.27	23.23	-40.6	-41.3	23.0	0.00e+00	0	41	0	1361051648	53	3773
2026-01-30 07:47:53.18	347.09	23.11	-40.6	-41.4	23.0	0.00e+00	0	41	0	1364197376	53	3782
2026-01-30 07:47:54.19	346.92	23.00	-40.7	-41.5	22.8	0.00e+00	0	41	0	1367343104	53	3841
2026-01-30 07:47:55.20	346.74	22.88	-40.7	-41.5	22.9	0.00e+00	0	41	0	1370488832	53	3825
2026-01-30 07:47:56.20	346.57	22.77	-40.8	-41.5	22.8	0.00e+00	0	41	0	1373634560	53	3867
2026-01-30 07:47:57.21	346.40	22.66	-41.0	-41.8	22.6	0.00e+00	0	41	0	1376780288	53	3970
2026-01-30 07:47:58.21	346.23	22.54	-41.1	-41.9	22.5	0.00e+00	0	41	0	1379926016	53	4019
2026-01-30 07:47:59.22	346.06	22.43	-41.2	-42.0	22.4	0.00e+00	0	41	0	1383071744	53	4079
2026-01-30 07:48:00.23	345.89	22.32	-41.3	-42.1	22.3	0.00e+00	0	41	0	1386217472	53	4126
2026-01-30 07:48:01.24	345.72	22.20	-41.3	-42.1	22.3	0.00e+00	0	41	0	1389363200	53	4133
2026-01-30 07:48:02.24	345.56	22.09	-41.3	-42.1	22.3	0.00e+00	0	41	0	1392508928	53	4127
2026-01-30 07:48:03.24	345.40	21.98	-41.3	-42.1	22.3	0.00e+00	0	41	0	1395654656	53	4113
2026-01-30 07:48:04.25	345.23	21.87	-41.3	-42.1	22.2	0.00e+00	0	41	0	1398800384	53	4139
2026-01-30 07:48:05.25	345.07	21.76	-41.1	-41.9	22.4	0.00e+00	0	41	0	1401946112	53	4034
2026-01-30 07:48:06.26	344.91	21.64	-41.2	-42.0	22.3	0.00e+00	0	41	0	1405091840	53	4070
2026-01-30 07:48:07.26	344.75	21.53	-41.2	-42.0	22.3	0.00e+00	0	41	0	1408237568	53	4087
2026-01-30 07:48:08.27	344.59	21.42	-41.3	-42.1	22.2	0.00e+00	0	41	0	1411383296	53	4131
2026-01-30 07:48:09.28	344.44	21.31	-41.2	-42.0	22.3	0.00e+00	0	41	0	1414529024	53	4077
2026-01-30 07:48:10.29	344.28	21.20	-41.1	-41.9	22.3	0.00e+00	0	41	0	1417674752	53	4036
2026-01-30 07:48:11.29	344.13	21.09	-41.1	-41.9	22.3	0.00e+00	0	41	0	1420820480	53	4049
2026-01-30 07:48:12.29	343.97	20.98	-41.2	-42.0	22.3	0.00e+00	0	41	0	1423966208	53	4076
2026-01-30 07:48:13.30	343.82	20.87	-41.3	-42.1	22.2	0.00e+00	0	41	0	1427111936	53	4143
2026-01-30 07:48:14.31	343.67	20.76	-41.4	-42.2	22.1	0.00e+00	0	41	0	1430257664	53	4166
2026-01-30 07:48:15.31	343.52	20.65	-41.5	-42.3	22.0	0.00e+00	0	41	0	1433403392	53	4210
2026-01-30 07:48:16.32	343.37	20.54	-41.6	-42.4	22.0	0.00e+00	0	42	0	1436549120	53	4250
2026-01-30 07:48:17.33	343.22	20.44	-41.5	-42.3	22.0	0.00e+00	0	41	0	1439694848	53	4242
2026-01-30 07:48:18.33	343.08	20.33	-41.5	-42.3	22.0	0.00e+00	0	41	0	1442840576	53	4228
2026-01-30 07:48:19.34	342.93	20.22	-41.5	-42.4	22.0	0.00e+00	0	41	0	1445986304	53	4249
2026-01-30 07:48:20.35	342.78	20.11	-41.4	-42.3	22.1	0.00e+00	0	41	0	1449132032	53	4195
2026-01-30 07:48:21.35	342.64	20.00	-41.6	-42.4	22.0	0.00e+00	0	41	0	1452277760	53	4257
2026-01-30 07:48:22.36	342.50	19.90	-41.6	-42.5	21.9	0.00e+00	0	41	0	1455423488	53	4297
2026-01-30 07:48:23.37	342.35	19.79	-41.6	-42.4	22.0	0.00e+00	0	41	0	1458569216	53	4288
2026-01-30 07:48:24.37	342.21	19.68	-41.4	-42.3	22.1	0.00e+00	0	41	0	1461714944	53	4194
2026-01-30 07:48:25.38	342.07	19.58	-41.5	-42.3	22.1	0.00e+00	0	41	0	1464860672	53	4207
2026-01-30 07:48:26.38	341.94	19.47	-41.6	-42.4	22.0	0.00e+00	0	41	0	1468006400	53	4263
2026-01-30 07:48:27.39	341.80	19.36	-41.6	-42.4	22.0	0.00e+00	0	41	0	1471152128	53	4262
2026-01-30 07:48:28.40	341.66	19.26	-41.6	-42.4	22.0	0.00e+00	0	41	0	1474297856	53	4258
2026-01-30 07:48:29.41	341.52	19.15	-41.6	-42.4	22.0	0.00e+00	0	41	0	1477443584	53	4255
2026-01-30 07:48:30.41	341.39	19.05	-41.5	-42.3	22.1	0.00e+00	0	41	0	1480589312	53	4223
2026-01-30 07:48:31.42	341.25	18.94	-41.3	-42.1	22.2	0.00e+00	0	41	0	1483735040	53	4132
2026-01-30 07:48:32.42	341.12	18.84	-41.2	-42.0	22.3	0.00e+00	0	41	0	1486880768	53	4085
2026-01-30 07:48:33.43	340.99	18.73	-41.2	-42.0	22.4	0.00e+00	0	41	0	1490026496	53	4058
2026-01-30 07:48:34.44	340.86	18.63	-41.1	-41.9	22.4	0.00e+00	0	41	0	1493172224	53	4035
2026-01-30 07:48:35.44	340.73	18.53	-41.3	-42.1	22.3	0.00e+00	0	41	0	1496317952	53	4107
2026-01-30 07:48:36.45	340.60	18.42	-41.2	-42.0	22.3	0.00e+00	0	41	0	1499463680	53	4079
2026-01-30 07:48:37.46	340.47	18.32	-41.2	-42.0	22.3	0.00e+00	0	41	0	1502609408	53	4078
2026-01-30 07:48:38.47	340.34	18.22	-41.2	-41.9	22.4	0.00e+00	0	41	0	1505755136	53	4046
2026-01-30 07:48:39.47	340.21	18.11	-41.2	-42.0	22.3	0.00e+00	0	41	0	1508900864	53	4066
2026-01-30 07:48:40.48	340.09	18.01	-41.3	-42.1	22.2	0.00e+00	0	41	0	1512046592	53	4126
2026-01-30 07:48:41.49	339.96	17.91	-41.4	-42.2	22.2	0.00e+00	0	41	0	1515192320	53	4158
2026-01-30 07:48:42.49	339.84	17.81	-41.4	-42.2	22.1	0.00e+00	0	41	0	1518338048	53	4186
2026-01-30 07:48:43.50	339.72	17.71	-41.6	-42.4	22.0	0.00e+00	0	41	0	1521483776	53	4255
2026-01-30 07:48:44.51	339.59	17.61	-41.6	-42.4	22.0	0.00e+00	0	41	0	1524629504	53	4255
2026-01-30 07:48:45.52	339.47	17.50	-41.6	-42.4	21.9	0.00e+00	0	41	0	1527775232	53	4257
2026-01-30 07:48:46.53	339.35	17.40	-41.6	-42.4	21.9	0.00e+00	0	41	0	1530920960	53	4287
2026-01-30 07:48:47.54	339.23	17.30	-41.6	-42.4	21.9	0.00e+00	0	41	0	1534066688	53	4282
2026-01-30 07:48:48.54	339.11	17.20	-41.6	-42.5	21.9	0.00e+00	0	41	0	1537212416	53	4298
2026-01-30 07:48:49.55	338.99	17.10	-41.7	-42.5	21.8	0.00e+00	0	41	0	1540358144	53	4313
2026-01-30 07:48:50.56	338.87	17.00	-41.7	-42.5	21.8	0.00e+00	0	41	0	1543503872	54	4077
2026-01-30 07:48:51.56	338.76	16.90	-41.7	-42.5	21.8	0.00e+00	0	41	0	1546649600	54	4080
2026-01-30 07:48:52.57	338.64	16.80	-41.6	-42.5	21.9	0.00e+00	0	41	0	1549795328	54	4060
2026-01-30 07:48:53.57	338.53	16.71	-41.5	-42.3	22.0	0.00e+00	0	41	0	1552941056	54	3981
2026-01-30 07:48:54.58	338.41	16.61	-41.6	-42.4	21.9	0.00e+00	0	41	0	1556086784	54	4018
2026-01-30 07:48:55.59	338.30	16.51	-41.5	-42.4	21.9	0.00e+00	0	41	0	1559232512	54	4013
2026-01-30 07:48:56.59	338.19	16.41	-41.6	-42.4	21.9	0.00e+00	0	41	0	1562378240	54	4042
2026-01-30 07:48:57.61	338.07	16.31	-41.5	-42.4	21.9	0.00e+00	0	41	0	1565523968	54	4010
2026-01-30 07:48:58.61	337.96	16.22	-41.6	-42.5	21.8	0.00e+00	0	41	0	1568669696	54	4061
2026-01-30 07:48:59.61	337.85	16.12	-41.6	-42.4	21.8	0.00e+00	0	41	0	1571815424	54	4051
2026-01-30 07:49:00.61	337.74	16.02	-41.6	-42.5	21.8	0.00e+00	0	41	0	1574961152	54	4054
2026-01-30 07:49:01.62	337.63	15.93	-41.8	-42.6	21.7	0.00e+00	0	41	0	1578106880	54	4116
2026-01-30 07:49:02.63	337.52	15.83	-41.9	-42.8	21.6	0.00e+00	0	41	0	1581252608	54	4197
2026-01-30 07:49:03.64	337.42	15.73	-42.0	-42.9	21.5	0.00e+00	0	41	0	1584398336	54	4263
2026-01-30 07:49:04.64	337.31	15.64	-42.2	-43.0	21.3	0.00e+00	0	41	0	1587544064	54	4337
2026-01-30 07:49:05.65	337.20	15.54	-42.3	-43.2	21.2	0.00e+00	0	41	0	1590689792	55	4146
2026-01-30 07:49:06.66	337.10	15.45	-42.4	-43.3	21.1	0.00e+00	0	41	0	1593835520	55	4211
2026-01-30 07:49:07.67	336.99	15.35	-42.4	-43.3	21.0	0.00e+00	0	41	0	1596981248	55	4235
2026-01-30 07:49:08.67	336.89	15.26	-42.5	-43.5	20.9	0.00e+00	0	41	0	1600126976	55	4298
2026-01-30 07:49:09.68	336.78	15.16	-42.6	-43.5	20.9	0.00e+00	0	41	0	1603272704	55	4316
2026-01-30 07:49:10.68	336.68	15.07	-42.6	-43.5	20.8	0.00e+00	0	41	0	1606418432	55	4340
2026-01-30 07:49:11.69	336.58	14.98	-42.6	-43.5	20.8	0.00e+00	0	41	0	1609564160	55	4331
2026-01-30 07:49:12.69	336.48	14.88	-42.3	-43.3	21.0	0.00e+00	0	41	0	1612709888	55	4196
2026-01-30 07:49:13.70	336.38	14.79	-42.3	-43.2	21.1	0.00e+00	0	41	0	1615855616	55	4161
2026-01-30 07:49:14.71	336.28	14.70	-42.3	-43.2	21.0	0.00e+00	0	41	0	1619001344	55	4192
2026-01-30 07:49:15.71	336.18	14.60	-42.2	-43.1	21.1	0.00e+00	0	41	0	1622147072	55	4117
2026-01-30 07:49:16.72	336.08	14.51	-42.1	-43.0	21.2	0.00e+00	0	41	0	1625292800	55	4065
2026-01-30 07:49:17.73	335.98	14.42	-42.2	-43.1	21.1	0.00e+00	0	41	0	1628438528	55	4117
2026-01-30 07:49:18.73	335.88	14.33	-41.9	-42.8	21.4	0.00e+00	0	41	0	1631584256	55	3981
2026-01-30 07:49:19.74	335.78	14.24	-41.8	-42.7	21.5	8.30e-06	0	41	0	1634729984	55	3932
2026-01-30 07:49:20.75	335.69	14.14	-41.9	-42.8	21.4	0.00e+00	0	41	0	1637875712	55	3977
2026-01-30 07:49:21.76	335.59	14.05	-42.0	-42.8	21.4	0.00e+00	0	41	0	1641021440	55	3992
2026-01-30 07:49:22.77	335.50	13.96	-42.0	-42.8	21.4	0.00e+00	0	41	0	1644167168	55	3995
2026-01-30 07:49:23.78	335.40	13.87	-41.9	-42.7	21.5	0.00e+00	0	41	0	1647312896	55	3952
2026-01-30 07:49:24.79	335.31	13.78	-41.9	-42.7	21.5	0.00e+00	0	41	0	1650458624	55	3953
2026-01-30 07:49:25.80	335.21	13.69	-42.0	-42.9	21.4	0.00e+00	0	41	0	1653604352	55	4011
2026-01-30 07:49:26.80	335.12	13.60	-42.1	-43.0	21.3	0.00e+00	0	41	0	1656750080	55	4057
2026-01-30 07:49:27.81	335.03	13.51	-42.1	-43.0	21.3	0.00e+00	0	41	0	1659895808	55	4055
2026-01-30 07:49:28.82	334.94	13.42	-42.2	-43.1	21.2	0.00e+00	0	41	0	1663041536	55	4099
2026-01-30 07:49:29.82	334.85	13.33	-42.3	-43.2	21.1	0.00e+00	0	41	0	1666187264	55	4166
2026-01-30 07:49:30.83	334.75	13.24	-42.4	-43.3	21.0	0.00e+00	0	41	0	1669332992	55	4242
2026-01-30 07:49:31.83	334.67	13.15	-42.4	-43.3	20.9	0.00e+00	0	41	0	1672478720	55	4238
2026-01-30 07:49:32.84	334.58	13.06	-42.5	-43.4	20.9	0.00e+00	0	41	0	1675624448	55	4259
2026-01-30 07:49:33.85	334.49	12.98	-42.6	-43.5	20.8	0.00e+00	0	41	0	1678770176	55	4329
2026-01-30 07:49:34.86	334.40	12.89	-42.6	-43.5	20.8	0.00e+00	0	41	0	1681915904	55	4325
2026-01-30 07:49:35.87	334.31	12.80	-42.6	-43.5	20.7	0.00e+00	0	41	0	1685061632	55	4339
2026-01-30 07:49:36.87	334.22	12.71	-42.6	-43.6	20.7	0.00e+00	0	41	0	1688207360	55	4341
2026-01-30 07:49:37.88	334.14	12.63	-42.6	-43.5	20.7	0.00e+00	0	41	0	1691353088	55	4339
2026-01-30 07:49:38.88	334.05	12.54	-42.6	-43.6	20.6	0.00e+00	0	41	0	1694498816	55	4354
2026-01-30 07:49:39.89	333.96	12.45	-42.5	-43.5	20.7	0.00e+00	0	41	0	1697644544	55	4310
2026-01-30 07:49:40.90	333.88	12.37	-42.6	-43.5	20.6	0.00e+00	0	41	0	1700790272	55	4338
2026-01-30 07:49:41.91	333.79	12.28	-42.6	-43.5	20.6	0.00e+00	0	41	0	1703936000	55	4328
2026-01-30 07:49:42.91	333.71	12.19	-42.5	-43.4	20.7	0.00e+00	0	42	0	1707081728	55	4280
2026-01-30 07:49:43.92	333.63	12.11	-42.6	-43.6	20.6	0.00e+00	0	41	0	1710227456	55	4349
2026-01-30 07:49:44.92	333.54	12.02	-42.6	-43.5	20.6	0.00e+00	0	42	0	1713373184	55	4319
2026-01-30 07:49:45.93	333.46	11.94	-42.3	-43.3	20.8	0.00e+00	0	41	0	1716518912	55	4200
2026-01-30 07:49:46.94	333.38	11.85	-42.3	-43.3	20.8	0.00e+00	0	41	0	1719664640	55	4201
2026-01-30 07:49:47.95	333.30	11.77	-42.3	-43.2	20.9	0.00e+00	0	41	0	1722810368	55	4169
2026-01-30 07:49:48.95	333.22	11.68	-42.4	-43.3	20.8	0.00e+00	0	41	0	1725956096	55	4234
2026-01-30 07:49:49.96	333.14	11.60	-42.3	-43.3	20.8	0.00e+00	0	41	0	1729101824	55	4198
2026-01-30 07:49:50.97	333.05	11.51	-42.2	-43.1	20.9	0.00e+00	0	41	0	1732247552	55	4142
2026-01-30 07:49:51.97	332.98	11.43	-42.3	-43.2	20.9	0.00e+00	0	41	0	1735393280	55	4182
2026-01-30 07:49:52.98	332.90	11.35	-42.4	-43.3	20.8	7.00e-07	0	41	0	1738539008	55	4225
2026-01-30 07:49:53.99	332.82	11.26	-42.5	-43.4	20.7	0.00e+00	0	41	0	1741684736	55	4273
2026-01-30 07:49:54.99	332.74	11.18	-42.4	-43.3	20.8	0.00e+00	0	41	0	1744830464	55	4234
2026-01-30 07:49:56.00	332.66	11.10	-42.3	-43.2	20.9	0.00e+00	0	41	0	1747976192	55	4185
2026-01-30 07:49:57.01	332.58	11.01	-42.2	-43.1	21.0	0.00e+00	0	41	0	1751121920	55	4129
2026-01-30 07:49:58.01	332.51	10.93	-42.3	-43.2	20.9	1.50e-06	0	41	0	1754267648	55	4193
2026-01-30 07:49:59.02	332.43	10.85	-42.4	-43.3	20.8	0.00e+00	0	41	0	1757413376	55	4201
2026-01-30 07:50:00.03	332.35	10.77	-42.5	-43.4	20.7	0.00e+00	0	41	0	1760559104	55	4287
2026-01-30 07:50:01.04	332.28	10.68	-42.4	-43.3	20.8	0.00e+00	0	41	0	1763704832	55	4238
2026-01-30 07:50:02.04	332.20	10.60	-42.5	-43.4	20.7	0.00e+00	0	41	0	1766850560	55	4276
2026-01-30 07:50:03.05	332.13	10.52	-42.6	-43.6	20.6	0.00e+00	0	41	0	1769996288	55	4356
2026-01-30 07:50:04.06	332.05	10.44	-42.6	-43.5	20.6	0.00e+00	0	41	0	1773142016	55	4333
2026-01-30 07:50:05.07	331.98	10.36	-42.6	-43.6	20.6	0.00e+00	0	41	0	1776287744	55	4351
2026-01-30 07:50:06.07	331.91	10.28	-42.7	-43.7	20.5	0.00e+00	0	41	0	1779433472	55	4398
2026-01-30 07:50:07.08	331.83	10.20	-42.8	-43.8	20.5	0.00e+00	0	41	0	1782579200	56	4201
2026-01-30 07:50:08.09	331.76	10.12	-42.8	-43.8	20.4	0.00e+00	0	41	0	1785724928	56	4207
2026-01-30 07:50:09.09	331.69	10.04	-42.9	-43.8	20.4	0.00e+00	0	41	0	1788870656	56	4231
2026-01-30 07:50:10.10	331.62	9.96	-42.8	-43.8	20.4	0.00e+00	0	41	0	1792016384	56	4202
2026-01-30 07:50:11.11	331.55	9.88	-42.9	-43.9	20.4	0.00e+00	0	41	0	1795162112	56	4252
2026-01-30 07:50:12.12	331.48	9.80	-42.9	-43.8	20.4	0.00e+00	0	41	0	1798307840	56	4231
2026-01-30 07:50:13.13	331.41	9.72	-42.9	-43.9	20.3	0.00e+00	0	42	0	1801453568	56	4273
2026-01-30 07:50:14.14	331.33	9.64	-43.0	-44.0	20.2	0.00e+00	0	41	0	1804599296	56	4308
2026-01-30 07:50:15.15	331.26	9.56	-43.1	-44.0	20.2	0.00e+00	0	41	0	1807745024	56	4339
2026-01-30 07:50:16.16	331.20	9.48	-43.0	-44.0	20.2	0.00e+00	0	41	0	1810890752	56	4303
2026-01-30 07:50:17.16	331.13	9.40	-43.1	-44.1	20.1	0.00e+00	0	41	0	1814036480	56	4372
2026-01-30 07:50:18.17	331.06	9.33	-43.2	-44.2	20.0	0.00e+00	0	41	0	1817182208	56	4395
2026-01-30 07:50:19.18	330.99	9.25	-43.1	-44.1	20.1	0.00e+00	0	41	0	1820327936	56	4391
2026-01-30 07:50:20.18	330.92	9.17	-43.3	-44.3	19.9	0.00e+00	0	41	0	1823473664	57	4226
2026-01-30 07:50:21.19	330.86	9.09	-43.3	-44.4	19.9	0.00e+00	0	41	0	1826619392	57	4248
2026-01-30 07:50:22.20	330.79	9.01	-43.3	-44.3	19.9	0.00e+00	0	41	0	1829765120	57	4233
2026-01-30 07:50:23.21	330.72	8.94	-43.4	-44.4	19.8	0.00e+00	0	41	0	1832910848	57	4263
2026-01-30 07:50:24.22	330.65	8.86	-43.4	-44.4	19.8	0.00e+00	0	41	0	1836056576	57	4283
2026-01-30 07:50:25.23	330.59	8.78	-43.4	-44.5	19.7	0.00e+00	0	41	0	1839202304	57	4311
2026-01-30 07:50:26.24	330.52	8.71	-43.5	-44.5	19.7	0.00e+00	0	41	0	1842348032	57	4327
2026-01-30 07:50:27.25	330.46	8.63	-43.5	-44.6	19.6	0.00e+00	0	41	0	1845493760	57	4362
2026-01-30 07:50:28.26	330.39	8.55	-43.6	-44.7	19.6	0.00e+00	0	41	0	1848639488	57	4393
2026-01-30 07:50:29.27	330.33	8.48	-43.6	-44.6	19.5	0.00e+00	0	41	0	1851785216	57	4387
2026-01-30 07:50:30.27	330.26	8.40	-43.6	-44.6	19.6	0.00e+00	0	41	0	1854930944	57	4390
2026-01-30 07:50:31.28	330.20	8.32	-43.7	-44.8	19.4	0.00e+00	0	41	0	1858076672	57	4449
2026-01-30 07:50:32.29	330.14	8.25	-43.8	-44.9	19.3	0.00e+00	0	41	0	1861222400	58	4250
2026-01-30 07:50:33.30	330.07	8.17	-43.8	-44.9	19.3	0.00e+00	0	41	0	1864368128	58	4260
2026-01-30 07:50:34.31	330.01	8.10	-43.7	-44.8	19.4	0.00e+00	0	41	0	1867513856	58	4225
2026-01-30 07:50:35.31	329.95	8.02	-43.8	-44.9	19.3	0.00e+00	0	41	0	1870659584	58	4276
2026-01-30 07:50:36.32	329.89	7.95	-43.8	-44.9	19.3	0.00e+00	0	41	0	1873805312	58	4280
2026-01-30 07:50:37.32	329.83	7.87	-43.9	-45.0	19.2	0.00e+00	0	42	0	1876951040	58	4316
2026-01-30 07:50:38.33	329.76	7.80	-44.0	-45.1	19.1	0.00e+00	0	41	0	1880096768	58	4371
2026-01-30 07:50:39.34	329.70	7.73	-43.9	-45.0	19.1	0.00e+00	0	41	0	1883242496	58	4330
2026-01-30 07:50:40.35	329.64	7.65	-43.9	-45.0	19.1	0.00e+00	0	41	0	1886388224	58	4332
2026-01-30 07:50:41.35	329.58	7.58	-44.0	-45.1	19.0	0.00e+00	0	41	0	1889533952	58	4371
2026-01-30 07:50:42.36	329.52	7.50	-44.0	-45.2	19.0	0.00e+00	0	41	0	1892679680	58	4407
2026-01-30 07:50:43.37	329.46	7.43	-44.0	-45.1	19.0	0.00e+00	0	41	0	1895825408	58	4374
2026-01-30 07:50:44.37	329.40	7.36	-44.1	-45.2	18.9	0.00e+00	0	41	0	1898971136	58	4434
2026-01-30 07:50:45.38	329.34	7.28	-44.0	-45.2	18.9	0.00e+00	0	41	0	1902116864	58	4419
2026-01-30 07:50:46.39	329.29	7.21	-44.1	-45.3	18.8	0.00e+00	0	41	0	1905262592	58	4479
2026-01-30 07:50:47.39	329.23	7.14	-44.1	-45.2	18.9	0.00e+00	0	41	0	1908408320	58	4429
2026-01-30 07:50:48.41	329.17	7.07	-44.1	-45.3	18.8	0.00e+00	0	41	0	1911554048	59	4199
