passes_logs/2026/01/30/R3.2S_Murmansk/R3.2S_Murmansk__20260130_034318_AQUA_rec.log

#Pass ID: 20260130_034318_AQUA
#Satellite: AQUA
#Configuration: AQUA
#almurnet v.1.7.20251203
#Start time: 2026-01-30 03:43:20

#Version: 2.2.20231116
#Station: R3.2S_Murmansk
#Location: 33.079688 lon 68.888172 lat
#TLE: 1 27424U 02022A   26029.54575153  .00001738  00000+0  35736-3 0  9994
#TLE: 2 27424  98.4104 356.2197 0001804  61.7823  56.0643 14.61874165263019

#Time	Az	El	Level	Level2	SNR	BER	BlckErr	Temp	State	Recorded	gain1	gain2
2026-01-30 03:43:20.33	28.50	2.14	-55.0	-72.8	3.8	7.45e-01	0	39	0	0	81	28301
2026-01-30 03:43:21.33	28.46	2.20	-55.0	-72.9	3.8	7.46e-01	0	39	104	0	80	30127
2026-01-30 03:43:22.34	28.43	2.27	-55.0	-72.8	3.8	7.44e-01	0	39	104	0	80	29875
2026-01-30 03:43:23.35	28.39	2.33	-54.9	-72.8	3.8	7.45e-01	0	39	104	0	80	29757
2026-01-30 03:43:24.36	28.35	2.40	-54.9	-72.8	3.8	7.46e-01	0	39	104	0	80	29730
2026-01-30 03:43:25.37	28.31	2.46	-54.9	-72.7	3.8	7.48e-01	0	39	104	0	80	29604
2026-01-30 03:43:26.37	28.27	2.53	-55.0	-72.8	3.8	7.47e-01	0	39	104	0	80	29898
2026-01-30 03:43:27.38	28.24	2.59	-55.3	-73.1	3.8	7.42e-01	0	39	104	0	81	29127
2026-01-30 03:43:28.38	28.20	2.66	-55.4	-73.2	3.8	7.44e-01	0	39	104	0	81	29474
2026-01-30 03:43:29.39	28.16	2.73	-55.4	-73.2	3.8	7.43e-01	0	39	104	0	81	29617
2026-01-30 03:43:30.40	28.12	2.79	-55.5	-73.3	3.8	7.45e-01	0	39	104	0	81	29816
2026-01-30 03:43:31.41	28.08	2.86	-55.5	-73.3	3.8	7.44e-01	0	39	104	0	81	29841
2026-01-30 03:43:32.41	28.04	2.93	-55.5	-73.3	3.8	7.44e-01	0	39	104	0	81	29949
2026-01-30 03:43:33.42	28.00	2.99	-55.5	-73.3	3.8	7.44e-01	0	39	104	0	81	29959
2026-01-30 03:43:34.43	27.96	3.06	-55.5	-73.3	3.8	7.42e-01	0	39	104	0	81	29825
2026-01-30 03:43:35.44	27.92	3.13	-55.4	-73.2	3.8	7.46e-01	0	40	104	0	81	29624
2026-01-30 03:43:36.45	27.88	3.20	-55.5	-73.3	3.8	7.45e-01	0	40	104	0	81	29728
2026-01-30 03:43:37.46	27.84	3.26	-55.5	-73.3	3.8	7.44e-01	0	39	104	0	81	29862
2026-01-30 03:43:38.46	27.80	3.33	-55.5	-73.3	3.8	7.47e-01	0	40	104	0	81	29770
2026-01-30 03:43:39.47	27.75	3.40	-55.4	-73.2	3.8	7.47e-01	0	40	104	0	81	29626
2026-01-30 03:43:40.48	27.71	3.47	-55.3	-73.2	3.8	7.46e-01	0	40	104	0	81	29456
2026-01-30 03:43:41.49	27.67	3.54	-55.3	-73.1	3.8	7.47e-01	0	40	104	0	81	29209
2026-01-30 03:43:42.49	27.63	3.60	-55.2	-73.0	3.8	7.46e-01	0	40	104	0	81	28890
2026-01-30 03:43:43.50	27.59	3.67	-55.1	-72.9	3.8	7.47e-01	0	40	104	0	81	28457
2026-01-30 03:43:44.50	27.54	3.74	-54.9	-72.8	3.8	7.44e-01	0	40	104	0	81	28043
2026-01-30 03:43:45.51	27.50	3.81	-54.8	-72.6	3.8	7.48e-01	0	40	104	0	81	27591
2026-01-30 03:43:46.52	27.46	3.88	-54.6	-72.4	3.8	7.47e-01	0	40	104	0	81	26943
2026-01-30 03:43:47.53	27.42	3.95	-54.3	-72.1	3.8	7.48e-01	0	40	104	0	80	27635
2026-01-30 03:43:48.54	27.37	4.02	-54.0	-71.8	3.8	7.46e-01	0	40	104	0	79	28184
2026-01-30 03:43:49.55	27.33	4.09	-53.5	-70.5	3.8	7.44e-01	0	40	104	0	78	25657
2026-01-30 03:43:50.56	27.28	4.16	-53.4	-70.5	3.8	7.47e-01	0	40	104	0	78	25611
2026-01-30 03:43:51.57	27.24	4.23	-53.4	-70.5	3.8	7.46e-01	0	40	104	0	78	25742
2026-01-30 03:43:52.58	27.19	4.30	-53.4	-70.6	3.8	7.46e-01	0	40	104	0	78	26117
2026-01-30 03:43:53.59	27.15	4.37	-53.4	-70.9	3.8	7.48e-01	0	40	104	0	78	26934
2026-01-30 03:43:54.60	27.10	4.44	-53.4	-70.8	3.8	7.44e-01	0	40	104	0	78	26544
2026-01-30 03:43:55.60	27.06	4.51	-53.2	-70.0	3.8	7.45e-01	0	40	104	0	78	24386
2026-01-30 03:43:56.61	27.01	4.58	-52.8	-68.3	3.8	7.44e-01	0	40	104	0	77	21222
2026-01-30 03:43:57.62	26.97	4.65	-52.1	-66.3	3.8	7.47e-01	0	40	104	0	76	17884
2026-01-30 03:43:58.63	26.92	4.73	-51.1	-64.3	3.8	7.43e-01	0	40	104	0	74	15792
2026-01-30 03:43:59.64	26.88	4.80	-50.3	-62.8	3.8	7.45e-01	0	40	104	0	72	15028
2026-01-30 03:44:00.64	26.83	4.87	-49.1	-61.0	3.8	7.45e-01	0	40	104	0	70	13664
2026-01-30 03:44:01.65	26.78	4.94	-48.3	-59.9	3.8	7.43e-01	0	40	104	0	68	13551
2026-01-30 03:44:02.66	26.74	5.01	-47.4	-58.8	3.9	7.47e-01	0	40	104	0	66	13265
2026-01-30 03:44:03.66	26.69	5.09	-51.9	-65.9	3.8	7.46e-01	0	40	104	0	74	19015
2026-01-30 03:44:04.67	26.64	5.16	-49.5	-61.7	3.8	7.45e-01	0	40	104	0	71	13901
2026-01-30 03:44:05.68	26.59	5.23	-48.8	-60.8	3.8	7.43e-01	0	40	104	0	68	14942
2026-01-30 03:44:06.69	26.54	5.31	-51.2	-64.4	3.8	7.43e-01	0	40	104	0	72	18034
2026-01-30 03:44:07.69	26.50	5.38	-46.4	-57.4	3.8	7.47e-01	0	40	104	0	64	12786
2026-01-30 03:44:08.69	26.45	5.45	-46.2	-57.3	3.8	7.46e-01	0	40	104	0	64	12624
2026-01-30 03:44:09.70	26.40	5.52	-46.0	-57.1	3.8	7.46e-01	0	40	104	0	63	13054
2026-01-30 03:44:10.71	26.35	5.60	-46.1	-57.2	3.8	7.45e-01	0	40	104	0	63	13251
2026-01-30 03:44:11.71	26.30	5.67	-46.2	-57.3	3.8	7.46e-01	0	40	104	0	63	13261
2026-01-30 03:44:12.72	26.25	5.75	-46.3	-57.5	3.8	7.46e-01	0	40	104	0	63	13623
2026-01-30 03:44:13.73	26.20	5.82	-49.4	-61.6	3.8	7.45e-01	0	40	104	0	69	15429
2026-01-30 03:44:14.73	26.15	5.90	-47.3	-58.6	3.8	7.43e-01	0	40	104	0	66	13107
2026-01-30 03:44:15.74	26.10	5.97	-49.8	-61.9	3.8	7.47e-01	0	40	104	0	69	16015
2026-01-30 03:44:16.75	26.05	6.05	-45.9	-56.9	3.8	7.43e-01	0	40	104	0	63	12697
2026-01-30 03:44:17.75	25.99	6.12	-45.3	-56.3	3.8	7.43e-01	0	40	104	0	62	12570
2026-01-30 03:44:18.76	25.94	6.20	-45.0	-55.9	3.8	7.46e-01	0	40	104	0	62	12020
2026-01-30 03:44:19.77	25.89	6.27	-47.6	-59.0	3.8	7.41e-01	0	40	104	0	65	14460
2026-01-30 03:44:20.77	25.84	6.35	-45.5	-56.4	3.8	7.42e-01	0	40	104	0	61	13558
2026-01-30 03:44:21.78	25.78	6.42	-51.3	-64.2	3.8	7.47e-01	0	40	104	0	72	17670
2026-01-30 03:44:22.79	25.73	6.50	-47.2	-58.5	3.8	7.43e-01	0	40	104	0	66	12933
2026-01-30 03:44:23.79	25.68	6.58	-49.6	-61.7	3.8	7.47e-01	0	40	104	0	69	15690
2026-01-30 03:44:24.79	25.63	6.65	-45.4	-56.1	3.9	7.45e-01	0	40	104	0	62	12281
2026-01-30 03:44:25.80	25.57	6.73	-45.2	-56.1	3.8	7.45e-01	0	40	104	0	61	13035
2026-01-30 03:44:26.80	25.52	6.81	-45.1	-56.0	3.8	7.47e-01	0	40	104	0	61	12867
2026-01-30 03:44:27.81	25.46	6.89	-47.3	-58.8	3.8	7.43e-01	0	40	104	0	65	14167
2026-01-30 03:44:28.82	25.41	6.96	-46.9	-58.0	3.8	7.43e-01	0	40	104	0	64	13705
2026-01-30 03:44:29.83	25.35	7.04	-49.4	-61.5	3.8	7.44e-01	0	40	104	0	69	15330
2026-01-30 03:44:30.84	25.29	7.12	-52.5	-67.0	3.8	7.45e-01	0	40	104	0	75	20428
2026-01-30 03:44:31.85	25.24	7.20	-45.8	-56.8	3.8	7.43e-01	0	40	104	0	63	12564
2026-01-30 03:44:32.86	25.18	7.28	-45.3	-56.2	3.8	7.43e-01	0	40	104	0	62	12515
2026-01-30 03:44:33.86	25.13	7.36	-45.4	-56.3	3.8	7.43e-01	0	41	104	0	62	12624
2026-01-30 03:44:34.87	25.07	7.44	-45.1	-56.0	3.8	7.44e-01	0	40	104	0	62	12100
2026-01-30 03:44:35.87	25.01	7.52	-45.3	-56.2	3.8	7.43e-01	0	40	104	0	61	13207
2026-01-30 03:44:36.88	24.95	7.60	-45.7	-56.6	3.8	7.43e-01	0	40	104	0	61	13862
2026-01-30 03:44:37.89	24.89	7.68	-52.1	-66.0	3.8	7.47e-01	0	40	104	0	74	19333
2026-01-30 03:44:38.90	24.84	7.76	-46.6	-57.8	3.8	7.46e-01	0	40	104	0	65	12522
2026-01-30 03:44:39.90	24.78	7.84	-50.5	-63.1	3.8	7.47e-01	0	41	104	0	71	16355
2026-01-30 03:44:40.91	24.72	7.92	-45.3	-56.2	3.8	7.42e-01	0	40	104	0	62	12431
2026-01-30 03:44:41.91	24.66	8.00	-44.5	-55.4	3.8	7.46e-01	0	40	104	0	61	11984
2026-01-30 03:44:42.92	24.60	8.08	-44.4	-55.2	3.8	7.46e-01	0	40	104	0	60	12401
2026-01-30 03:44:43.93	24.54	8.16	-46.3	-57.3	3.8	7.45e-01	0	41	104	0	63	13381
2026-01-30 03:44:44.94	24.47	8.24	-45.6	-56.5	3.8	7.45e-01	0	40	104	0	61	13669
2026-01-30 03:44:45.94	24.41	8.33	-52.7	-67.4	3.8	7.48e-01	0	41	104	0	75	21397
2026-01-30 03:44:46.95	24.35	8.41	-46.7	-57.8	3.8	7.45e-01	0	40	104	0	65	12606
2026-01-30 03:44:47.96	24.29	8.49	-50.6	-63.1	3.8	7.44e-01	0	40	104	0	71	16423
2026-01-30 03:44:48.96	24.23	8.57	-44.7	-55.6	3.8	7.44e-01	0	40	104	0	61	12267
2026-01-30 03:44:49.97	24.16	8.66	-44.6	-55.4	3.8	7.40e-01	0	41	104	0	61	12092
2026-01-30 03:44:50.98	24.10	8.74	-44.3	-55.1	3.8	7.43e-01	0	41	104	0	60	12270
2026-01-30 03:44:51.98	24.04	8.82	-46.6	-57.7	3.8	7.46e-01	0	41	104	0	63	13965
2026-01-30 03:44:52.99	23.97	8.91	-45.3	-56.4	3.8	7.42e-01	0	41	104	0	61	13436
2026-01-30 03:44:54.00	23.91	8.99	-53.0	-68.2	3.7	7.47e-01	0	40	104	0	76	22221
2026-01-30 03:44:55.00	23.84	9.08	-46.5	-57.6	3.8	7.44e-01	0	41	104	0	65	12326
2026-01-30 03:44:56.01	23.78	9.16	-50.9	-63.6	3.8	7.43e-01	0	41	104	0	72	16428
2026-01-30 03:44:57.02	23.71	9.25	-44.8	-55.7	3.8	7.42e-01	0	40	104	0	61	12473
2026-01-30 03:44:58.03	23.64	9.33	-44.3	-55.1	3.8	7.41e-01	0	40	104	0	60	12334
2026-01-30 03:44:59.03	23.58	9.42	-44.5	-55.4	3.8	7.46e-01	0	40	104	0	60	12707
2026-01-30 03:45:00.04	23.51	9.51	-48.1	-59.6	3.8	7.44e-01	0	41	104	0	67	13757
2026-01-30 03:45:01.05	23.44	9.59	-45.2	-56.1	3.8	7.46e-01	0	41	104	0	60	13806
2026-01-30 03:45:02.05	23.37	9.68	-53.1	-68.4	3.8	7.43e-01	0	41	104	0	76	22676
2026-01-30 03:45:03.06	23.30	9.77	-46.5	-57.6	3.8	7.44e-01	0	40	104	0	65	12325
2026-01-30 03:45:04.07	23.24	9.85	-50.8	-63.6	3.8	7.39e-01	0	41	104	0	72	16318
2026-01-30 03:45:05.08	23.17	9.94	-44.4	-54.9	3.8	7.43e-01	0	41	104	0	60	12064
2026-01-30 03:45:06.08	23.10	10.03	-44.2	-54.9	3.9	7.41e-01	0	40	104	0	60	12048
2026-01-30 03:45:07.09	23.02	10.12	-44.1	-54.9	3.8	7.45e-01	0	41	104	0	59	12710
2026-01-30 03:45:08.10	22.95	10.20	-48.5	-60.1	3.8	7.44e-01	0	41	104	0	67	14665
2026-01-30 03:45:09.10	22.88	10.29	-44.8	-55.6	3.8	7.42e-01	0	41	104	0	60	13104
2026-01-30 03:45:10.11	22.81	10.38	-53.1	-68.4	3.8	7.45e-01	0	41	104	0	76	22524
2026-01-30 03:45:11.12	22.74	10.47	-46.4	-57.3	3.8	7.46e-01	0	41	104	0	64	12612
2026-01-30 03:45:12.13	22.66	10.56	-50.7	-63.4	3.8	7.45e-01	0	41	104	0	72	16066
2026-01-30 03:45:13.13	22.59	10.65	-44.3	-55.1	3.8	7.45e-01	0	41	104	0	60	12327
2026-01-30 03:45:14.14	22.52	10.74	-44.1	-54.8	3.8	7.44e-01	0	41	104	0	60	11880
2026-01-30 03:45:15.15	22.44	10.83	-44.1	-54.9	3.8	7.43e-01	0	41	104	0	60	11958
2026-01-30 03:45:16.16	22.36	10.92	-48.8	-60.4	3.9	7.42e-01	0	41	104	0	69	13453
2026-01-30 03:45:17.17	22.29	11.02	-44.3	-55.1	3.9	7.44e-01	0	41	104	0	59	13023
2026-01-30 03:45:18.18	22.21	11.11	-52.8	-67.7	3.9	7.42e-01	0	41	104	0	77	19667
2026-01-30 03:45:19.19	22.14	11.20	-46.2	-57.2	3.8	7.45e-01	0	41	104	0	64	12444
2026-01-30 03:45:20.19	22.06	11.29	-50.1	-62.4	3.9	7.42e-01	0	41	104	0	71	15075
2026-01-30 03:45:21.20	21.98	11.39	-44.2	-54.9	3.8	7.42e-01	0	41	104	0	60	12085
2026-01-30 03:45:22.21	21.90	11.48	-44.0	-54.8	3.8	7.44e-01	0	41	104	0	60	11876
2026-01-30 03:45:23.21	21.82	11.57	-44.1	-54.9	3.8	7.43e-01	0	41	104	0	59	12715
2026-01-30 03:45:24.22	21.74	11.67	-46.5	-57.6	3.9	7.44e-01	0	41	104	0	65	12266
2026-01-30 03:45:25.23	21.66	11.76	-44.2	-55.0	3.8	7.44e-01	0	41	104	0	59	12890
2026-01-30 03:45:26.24	21.58	11.85	-52.1	-65.8	3.9	7.47e-01	0	41	104	0	76	16855
2026-01-30 03:45:27.24	21.50	11.95	-44.4	-55.0	3.8	7.48e-01	0	41	104	0	60	12123
2026-01-30 03:45:28.25	21.42	12.04	-49.6	-61.7	3.9	7.45e-01	0	41	104	0	71	13965
2026-01-30 03:45:29.26	21.34	12.14	-43.8	-54.6	3.8	7.46e-01	0	41	104	0	59	12247
2026-01-30 03:45:30.27	21.25	12.24	-43.6	-54.3	3.8	7.44e-01	0	41	104	0	59	11837
2026-01-30 03:45:31.28	21.17	12.33	-43.5	-54.2	3.8	7.47e-01	0	41	104	0	59	11715
2026-01-30 03:45:32.29	21.08	12.43	-44.5	-55.3	3.8	7.45e-01	0	41	104	0	61	11859
2026-01-30 03:45:33.29	21.00	12.53	-43.8	-54.5	3.8	7.43e-01	0	41	104	0	59	12217
2026-01-30 03:45:34.30	20.91	12.62	-52.1	-65.9	3.9	7.43e-01	0	41	104	0	76	16888
2026-01-30 03:45:35.31	20.83	12.72	-44.2	-55.0	3.8	7.44e-01	0	41	104	0	60	12129
2026-01-30 03:45:36.31	20.74	12.82	-49.6	-61.6	3.8	7.44e-01	0	41	104	0	71	13741
2026-01-30 03:45:37.32	20.65	12.92	-43.7	-54.4	3.8	7.45e-01	0	41	104	0	59	12072
2026-01-30 03:45:38.32	20.56	13.01	-43.6	-54.3	3.8	7.45e-01	0	41	104	0	59	11924
2026-01-30 03:45:39.33	20.47	13.11	-43.5	-54.1	3.8	7.41e-01	0	41	104	0	58	12324
2026-01-30 03:45:40.34	20.38	13.21	-44.3	-55.0	3.9	7.43e-01	0	41	104	0	60	12224
2026-01-30 03:45:41.35	20.29	13.31	-43.7	-54.4	3.8	7.45e-01	0	41	104	0	58	12776
2026-01-30 03:45:42.35	20.20	13.41	-50.8	-63.2	3.9	7.43e-01	0	41	104	0	73	14835
2026-01-30 03:45:43.36	20.11	13.51	-43.4	-53.8	3.8	7.44e-01	0	41	104	0	58	11943
2026-01-30 03:45:44.36	20.02	13.62	-47.0	-58.2	3.8	7.45e-01	0	41	104	0	66	12473
2026-01-30 03:45:45.37	19.93	13.72	-43.2	-53.8	3.8	7.42e-01	0	41	104	0	58	11878
2026-01-30 03:45:46.38	19.83	13.82	-43.2	-53.9	3.8	7.42e-01	0	41	104	0	58	12030
2026-01-30 03:45:47.39	19.74	13.92	-43.7	-54.4	3.8	7.43e-01	0	41	104	0	58	12704
2026-01-30 03:45:48.40	19.64	14.02	-45.2	-56.0	3.8	7.46e-01	0	41	104	0	62	12189
2026-01-30 03:45:49.40	19.55	14.13	-43.8	-54.4	3.8	7.41e-01	0	41	104	0	58	12732
2026-01-30 03:45:50.41	19.45	14.23	-50.9	-63.6	3.9	7.45e-01	0	41	104	0	74	14647
2026-01-30 03:45:51.41	19.35	14.33	-43.5	-54.2	3.8	7.46e-01	0	41	104	0	59	11731
2026-01-30 03:45:52.42	19.25	14.44	-47.9	-59.1	3.8	7.46e-01	0	41	104	0	67	13064
2026-01-30 03:45:53.43	19.15	14.54	-43.4	-54.0	3.8	7.45e-01	0	41	104	0	58	12130
2026-01-30 03:45:54.43	19.06	14.65	-43.3	-54.0	3.8	7.45e-01	0	41	104	0	58	12165
2026-01-30 03:45:55.44	18.95	14.75	-43.7	-54.3	3.8	7.45e-01	0	41	104	0	58	12646
2026-01-30 03:45:56.45	18.85	14.86	-43.4	-54.3	3.8	7.43e-01	0	41	104	0	59	11825
2026-01-30 03:45:57.45	18.75	14.97	-45.0	-55.8	3.8	7.48e-01	0	41	104	0	60	13275
2026-01-30 03:45:58.46	18.65	15.07	-49.3	-60.9	3.9	7.45e-01	0	41	104	0	70	13450
2026-01-30 03:45:59.47	18.54	15.18	-43.2	-53.9	3.8	7.42e-01	0	41	104	0	58	11983
2026-01-30 03:46:00.46	18.44	15.29	-46.0	-57.1	3.8	7.45e-01	0	41	104	0	64	12271
2026-01-30 03:46:01.47	18.34	15.39	-43.2	-53.8	3.8	7.42e-01	0	41	104	0	58	11890
2026-01-30 03:46:02.48	18.23	15.50	-43.1	-53.7	3.8	7.43e-01	0	41	104	0	58	11799
2026-01-30 03:46:03.49	18.12	15.61	-43.4	-54.1	3.8	7.44e-01	0	41	104	0	57	12979
2026-01-30 03:46:04.49	18.01	15.72	-43.2	-53.9	3.8	7.45e-01	0	41	104	0	58	12010
2026-01-30 03:46:05.50	17.90	15.83	-44.8	-55.5	3.8	7.46e-01	0	41	104	0	59	13592
2026-01-30 03:46:06.51	17.79	15.94	-49.2	-60.8	3.9	7.43e-01	0	41	104	0	70	13403
2026-01-30 03:46:07.52	17.68	16.05	-43.0	-53.6	3.8	7.44e-01	0	41	104	0	58	11643
2026-01-30 03:46:08.53	17.57	16.17	-45.8	-56.7	3.8	7.46e-01	0	41	104	0	63	12494
2026-01-30 03:46:09.53	17.46	16.28	-42.9	-53.5	3.8	7.44e-01	0	41	104	0	57	12205
2026-01-30 03:46:10.54	17.35	16.39	-42.9	-53.6	3.8	7.45e-01	0	41	104	0	57	12258
2026-01-30 03:46:11.55	17.23	16.50	-44.5	-55.2	3.8	7.41e-01	0	41	104	0	59	13196
2026-01-30 03:46:12.55	17.12	16.61	-43.0	-53.7	3.8	7.42e-01	0	41	104	0	58	11729
2026-01-30 03:46:13.56	17.00	16.73	-47.8	-58.9	3.8	7.45e-01	0	41	104	0	65	14235
2026-01-30 03:46:14.57	16.88	16.84	-47.3	-58.3	3.9	7.41e-01	0	41	104	0	66	12557
2026-01-30 03:46:15.57	16.76	16.96	-43.9	-54.7	3.8	7.45e-01	0	41	104	0	58	13202
2026-01-30 03:46:16.58	16.65	17.07	-44.7	-55.5	3.8	7.44e-01	0	41	104	0	61	12134
2026-01-30 03:46:17.59	16.52	17.19	-43.1	-53.7	3.8	7.44e-01	0	41	104	0	58	11815
2026-01-30 03:46:18.60	16.40	17.30	-42.8	-53.5	3.8	7.43e-01	0	41	104	0	57	12119
2026-01-30 03:46:19.60	16.28	17.42	-44.7	-55.4	3.8	7.45e-01	0	41	104	0	59	13522
2026-01-30 03:46:20.61	16.16	17.54	-43.2	-53.9	3.9	7.46e-01	0	41	104	0	58	11987
2026-01-30 03:46:21.61	16.03	17.65	-48.2	-59.5	3.8	7.44e-01	0	41	104	0	66	14466
2026-01-30 03:46:22.62	15.91	17.77	-47.6	-58.8	3.9	7.43e-01	0	41	104	0	67	12575
2026-01-30 03:46:23.63	15.78	17.89	-45.5	-56.3	3.8	7.40e-01	0	41	104	0	61	13408
2026-01-30 03:46:24.64	15.65	18.01	-44.0	-54.3	3.8	7.43e-01	0	41	104	0	59	11912
2026-01-30 03:46:25.65	15.52	18.13	-43.0	-53.7	3.8	7.43e-01	0	41	104	0	58	11715
2026-01-30 03:46:26.66	15.39	18.25	-43.0	-53.6	3.8	7.45e-01	0	41	104	0	57	12335
2026-01-30 03:46:27.66	15.26	18.37	-45.2	-56.0	3.8	7.49e-01	0	41	104	0	60	13615
2026-01-30 03:46:28.67	15.13	18.49	-43.0	-53.7	3.8	7.41e-01	0	41	104	0	58	11693
2026-01-30 03:46:29.68	15.00	18.61	-51.4	-64.3	3.8	7.45e-01	0	41	104	0	73	16784
2026-01-30 03:46:30.69	14.86	18.73	-46.7	-57.7	3.8	7.44e-01	0	41	104	0	65	12432
2026-01-30 03:46:31.69	14.73	18.85	-45.5	-56.4	3.8	7.46e-01	0	41	104	0	61	13473
2026-01-30 03:46:32.70	14.59	18.98	-44.0	-54.5	3.8	7.44e-01	0	41	104	0	59	12190
2026-01-30 03:46:33.70	14.46	19.10	-43.2	-53.8	3.8	7.42e-01	0	41	104	0	58	11938
2026-01-30 03:46:34.71	14.32	19.22	-43.0	-53.6	3.8	7.45e-01	0	41	104	0	58	11670
2026-01-30 03:46:35.72	14.18	19.35	-46.0	-56.9	3.8	7.43e-01	0	41	104	0	62	13511
2026-01-30 03:46:36.73	14.03	19.47	-43.3	-53.9	3.8	7.45e-01	0	41	104	0	58	12008
2026-01-30 03:46:37.74	13.89	19.60	-53.8	-69.7	3.7	7.50e-01	0	41	104	0	78	23321
2026-01-30 03:46:38.75	13.75	19.72	-47.2	-58.3	3.8	7.44e-01	0	41	104	0	66	12552
2026-01-30 03:46:39.76	13.60	19.85	-47.5	-58.7	3.8	7.43e-01	0	41	104	0	65	13977
2026-01-30 03:46:40.77	13.45	19.98	-43.7	-54.4	3.8	7.44e-01	0	41	104	0	59	12005
2026-01-30 03:46:41.78	13.30	20.10	-43.2	-53.9	3.8	7.44e-01	0	41	104	0	58	12030
2026-01-30 03:46:42.78	13.16	20.23	-43.2	-53.9	3.8	7.45e-01	0	41	104	0	58	11994
2026-01-30 03:46:43.79	13.00	20.36	-46.1	-57.0	3.8	7.44e-01	0	41	104	0	62	13687
2026-01-30 03:46:44.80	12.85	20.49	-43.1	-53.8	3.8	7.44e-01	0	41	104	0	58	11882
2026-01-30 03:46:45.81	12.70	20.62	-53.8	-69.7	3.8	7.50e-01	0	41	104	0	78	23344
2026-01-30 03:46:46.82	12.54	20.75	-47.1	-58.2	3.8	7.44e-01	0	41	104	0	66	12479
2026-01-30 03:46:47.82	12.39	20.88	-47.8	-58.8	3.8	7.46e-01	0	41	104	0	65	14074
2026-01-30 03:46:48.83	12.23	21.01	-43.3	-53.9	3.8	7.43e-01	0	41	104	0	58	12063
2026-01-30 03:46:49.84	12.07	21.14	-43.0	-53.7	3.8	7.46e-01	0	41	104	0	58	11697
2026-01-30 03:46:50.84	11.91	21.27	-43.1	-53.8	3.8	7.45e-01	0	41	104	0	58	11867
2026-01-30 03:46:51.85	11.75	21.41	-46.2	-57.2	3.9	7.42e-01	0	41	104	0	62	13895
2026-01-30 03:46:52.86	11.58	21.54	-43.1	-53.7	3.8	7.46e-01	0	41	104	0	58	11788
2026-01-30 03:46:53.86	11.42	21.67	-54.3	-71.2	3.7	7.43e-01	0	41	104	0	79	26348
2026-01-30 03:46:54.87	11.25	21.81	-47.0	-58.1	3.8	7.46e-01	0	41	104	0	66	12320
2026-01-30 03:46:55.88	11.08	21.94	-48.6	-60.0	3.8	7.46e-01	0	41	104	0	67	14401
2026-01-30 03:46:56.89	10.91	22.08	-43.7	-54.3	3.9	7.45e-01	0	41	104	0	59	11917
2026-01-30 03:46:57.90	10.74	22.21	-43.5	-54.1	3.8	7.40e-01	0	41	104	0	58	12370
2026-01-30 03:46:58.90	10.57	22.35	-43.5	-54.1	3.8	7.46e-01	0	41	104	0	58	12362
2026-01-30 03:46:59.91	10.40	22.48	-48.5	-59.9	3.8	7.43e-01	0	41	104	0	67	14309
2026-01-30 03:47:00.92	10.22	22.62	-43.6	-54.3	3.9	7.43e-01	0	41	104	0	59	11918
2026-01-30 03:47:01.93	10.04	22.76	-54.3	-71.4	3.8	7.45e-01	0	41	104	0	79	26874
2026-01-30 03:47:02.94	9.86	22.90	-47.4	-58.5	3.8	7.43e-01	0	41	104	0	66	12826
2026-01-30 03:47:03.95	9.68	23.04	-50.2	-62.2	3.8	7.49e-01	0	41	104	0	70	15699
2026-01-30 03:47:04.95	9.50	23.18	-43.7	-54.4	3.9	7.44e-01	0	41	104	0	59	12022
2026-01-30 03:47:05.96	9.31	23.32	-43.5	-54.2	3.8	7.45e-01	0	41	104	0	59	11717
2026-01-30 03:47:06.96	9.13	23.45	-43.4	-54.1	3.8	7.43e-01	0	41	104	0	58	12282
2026-01-30 03:47:07.97	8.94	23.60	-48.0	-59.2	3.8	7.44e-01	0	41	104	0	66	13984
2026-01-30 03:47:08.98	8.75	23.74	-43.4	-54.0	3.9	7.42e-01	0	41	104	0	58	12223
2026-01-30 03:47:09.98	8.56	23.88	-54.4	-71.4	3.8	7.43e-01	0	41	104	0	79	26893
2026-01-30 03:47:10.98	8.36	24.02	-47.4	-58.3	3.9	7.44e-01	0	41	104	0	66	12636
2026-01-30 03:47:11.99	8.17	24.16	-49.9	-61.6	3.8	7.46e-01	0	41	104	0	70	14699
2026-01-30 03:47:13.00	7.97	24.31	-43.6	-54.3	3.8	7.44e-01	0	41	104	0	59	11846
2026-01-30 03:47:14.01	7.77	24.45	-43.4	-54.0	3.8	7.42e-01	0	41	104	0	58	12162
2026-01-30 03:47:15.01	7.57	24.59	-43.2	-53.8	3.9	7.44e-01	0	41	104	0	58	11881
2026-01-30 03:47:16.02	7.36	24.74	-45.6	-56.5	3.8	7.45e-01	0	41	104	0	61	13627
2026-01-30 03:47:17.03	7.16	24.88	-43.3	-54.0	3.8	7.45e-01	0	41	104	0	58	12105
2026-01-30 03:47:18.04	6.95	25.03	-54.4	-71.4	3.8	7.44e-01	0	41	104	0	79	27074
2026-01-30 03:47:19.04	6.74	25.17	-47.8	-59.0	3.8	7.45e-01	0	41	104	0	67	12837
2026-01-30 03:47:20.04	6.53	25.32	-50.2	-62.2	3.8	7.42e-01	0	41	104	0	71	14847
2026-01-30 03:47:21.04	6.32	25.47	-43.7	-54.4	3.8	7.43e-01	0	41	104	0	59	12026
2026-01-30 03:47:22.05	6.10	25.61	-43.5	-54.2	3.8	7.43e-01	0	41	104	0	59	11691
2026-01-30 03:47:23.06	5.89	25.76	-43.4	-54.0	3.8	7.45e-01	0	41	104	0	58	12222
2026-01-30 03:47:24.07	5.67	25.91	-48.4	-59.8	3.9	7.43e-01	0	41	104	0	68	13394
2026-01-30 03:47:25.08	5.44	26.06	-43.4	-54.1	3.8	7.42e-01	0	41	104	0	58	12313
2026-01-30 03:47:26.08	5.22	26.21	-54.4	-71.2	3.8	7.45e-01	0	41	104	0	79	26428
2026-01-30 03:47:27.09	4.99	26.36	-47.2	-58.3	3.8	7.43e-01	0	41	104	0	66	12565
2026-01-30 03:47:28.10	4.76	26.51	-49.6	-61.4	3.8	7.41e-01	0	41	104	0	70	14314
2026-01-30 03:47:29.10	4.53	26.66	-43.2	-53.8	3.9	7.45e-01	0	41	104	0	58	11900
2026-01-30 03:47:30.11	4.30	26.81	-43.1	-53.7	3.8	7.43e-01	0	41	104	0	58	11768
2026-01-30 03:47:31.11	4.06	26.96	-43.2	-53.8	3.8	7.42e-01	0	41	104	0	58	11869
2026-01-30 03:47:32.12	3.83	27.11	-45.9	-56.8	3.8	7.43e-01	0	41	104	0	62	13275
2026-01-30 03:47:33.12	3.59	27.26	-43.3	-53.9	3.8	7.42e-01	0	41	104	0	58	12072
2026-01-30 03:47:34.13	3.34	27.41	-54.5	-71.5	3.8	7.46e-01	0	41	104	0	79	27124
2026-01-30 03:47:35.14	3.10	27.57	-46.1	-57.0	3.9	7.45e-01	0	41	104	0	64	12177
2026-01-30 03:47:36.14	2.85	27.72	-49.4	-61.0	3.8	7.45e-01	0	41	104	0	70	13615
2026-01-30 03:47:37.15	2.60	27.87	-44.1	-54.8	3.8	7.46e-01	0	41	104	0	59	12533
2026-01-30 03:47:38.16	2.35	28.03	-43.6	-54.2	3.8	7.45e-01	0	41	104	0	59	11817
2026-01-30 03:47:39.17	2.09	28.18	-43.1	-53.7	3.8	7.43e-01	0	41	104	0	58	11773
2026-01-30 03:47:40.18	1.83	28.34	-45.5	-56.3	3.9	7.43e-01	0	41	104	0	62	12557
2026-01-30 03:47:41.18	1.57	28.49	-43.1	-53.6	3.8	7.43e-01	0	41	104	0	57	12371
2026-01-30 03:47:42.19	1.31	28.64	-54.5	-71.4	3.8	7.45e-01	0	41	104	0	79	27043
2026-01-30 03:47:43.20	1.04	28.80	-46.0	-57.0	3.8	7.44e-01	0	41	104	0	64	12095
2026-01-30 03:47:44.21	0.77	28.96	-48.9	-60.3	3.9	7.43e-01	0	41	104	0	69	13364
2026-01-30 03:47:45.21	0.50	29.11	-43.6	-54.3	3.8	7.43e-01	0	41	104	0	59	11876
2026-01-30 03:47:46.22	0.23	29.27	-43.2	-53.9	3.8	7.45e-01	0	41	104	0	58	12014
2026-01-30 03:47:47.23	359.95	29.42	-43.1	-53.8	3.8	7.45e-01	0	41	104	0	58	11819
2026-01-30 03:47:48.24	359.67	29.58	-45.4	-56.0	3.8	7.45e-01	0	41	104	0	62	12103
2026-01-30 03:47:49.25	359.38	29.73	-43.5	-54.1	3.8	7.48e-01	0	41	104	0	57	13060
2026-01-30 03:47:50.26	359.10	29.89	-54.5	-71.1	3.8	7.44e-01	0	41	104	0	79	26069
2026-01-30 03:47:51.26	358.81	30.05	-44.8	-55.3	3.8	7.43e-01	0	41	104	0	61	11905
2026-01-30 03:47:52.27	358.52	30.20	-47.9	-58.9	3.9	7.45e-01	0	41	104	0	67	12797
2026-01-30 03:47:53.27	358.23	30.36	-43.6	-54.3	3.8	7.46e-01	0	41	104	0	59	11821
2026-01-30 03:47:54.28	357.93	30.52	-43.2	-53.8	3.8	7.42e-01	0	41	104	0	58	11865
2026-01-30 03:47:55.29	357.63	30.67	-43.2	-53.8	3.8	7.44e-01	0	41	104	0	58	11871
2026-01-30 03:47:56.30	357.32	30.83	-45.6	-56.5	3.9	7.46e-01	0	41	104	0	63	12218
2026-01-30 03:47:57.31	357.01	30.99	-43.8	-54.7	3.8	7.44e-01	0	41	104	0	58	13238
2026-01-30 03:47:58.31	356.71	31.14	-54.5	-71.1	3.8	7.47e-01	0	41	104	0	79	26105
2026-01-30 03:47:59.31	356.40	31.30	-45.3	-55.9	3.8	7.44e-01	0	41	104	0	62	12066
2026-01-30 03:48:00.32	356.08	31.46	-48.2	-59.5	3.9	7.42e-01	0	41	104	0	68	12845
2026-01-30 03:48:01.31	355.76	31.61	-44.1	-54.8	3.8	7.46e-01	0	41	104	0	60	11835
2026-01-30 03:48:02.32	355.44	31.77	-44.0	-54.7	3.8	7.43e-01	0	41	104	0	59	12411
2026-01-30 03:48:03.33	355.11	31.93	-43.4	-54.0	3.8	7.41e-01	0	41	104	0	58	12136
2026-01-30 03:48:04.33	354.79	32.08	-43.9	-54.7	3.8	7.45e-01	0	41	104	0	59	12386
2026-01-30 03:48:05.34	354.45	32.24	-46.1	-57.0	3.8	7.42e-01	0	41	104	0	62	13604
2026-01-30 03:48:06.35	354.12	32.39	-54.3	-70.4	3.8	7.39e-01	0	41	104	0	79	23959
2026-01-30 03:48:07.36	353.78	32.55	-44.3	-54.9	3.8	7.46e-01	0	41	104	0	60	12046
2026-01-30 03:48:08.37	353.44	32.71	-47.4	-58.2	3.8	7.45e-01	0	41	104	0	66	12477
2026-01-30 03:48:09.38	353.09	32.86	-44.3	-55.0	3.8	7.41e-01	0	41	104	0	60	12233
2026-01-30 03:48:10.38	352.74	33.01	-44.0	-54.7	3.8	7.43e-01	0	41	104	0	59	12435
2026-01-30 03:48:11.39	352.39	33.17	-44.1	-54.7	3.8	7.44e-01	0	41	104	0	59	12491
2026-01-30 03:48:12.40	352.03	33.32	-44.5	-55.2	3.9	7.48e-01	0	41	104	0	61	11772
2026-01-30 03:48:13.40	351.67	33.48	-46.4	-57.5	3.8	7.40e-01	0	41	104	0	63	13650
2026-01-30 03:48:14.41	351.31	33.63	-54.4	-70.8	3.8	7.40e-01	0	41	104	0	80	23817
2026-01-30 03:48:15.42	350.94	33.78	-44.7	-55.3	3.8	7.42e-01	0	41	104	0	61	11928
2026-01-30 03:48:16.42	350.57	33.93	-47.7	-58.9	3.8	7.44e-01	0	41	104	0	67	12685
2026-01-30 03:48:17.43	350.20	34.09	-45.0	-55.8	3.8	7.45e-01	0	41	104	0	61	12567
2026-01-30 03:48:18.44	349.82	34.24	-44.7	-55.5	3.8	7.41e-01	0	41	104	0	61	12184
2026-01-30 03:48:19.45	349.44	34.39	-45.5	-56.3	3.8	7.45e-01	0	41	104	0	61	13265
2026-01-30 03:48:20.46	349.05	34.54	-45.6	-56.4	3.8	7.45e-01	0	41	104	0	63	12065
2026-01-30 03:48:21.46	348.67	34.69	-51.4	-63.4	3.8	7.46e-01	0	41	104	0	72	16102
2026-01-30 03:48:22.47	348.27	34.84	-53.7	-68.5	3.9	7.42e-01	0	41	104	0	79	19361
2026-01-30 03:48:23.47	347.88	34.98	-44.3	-54.9	3.8	7.40e-01	0	41	104	0	60	12054
2026-01-30 03:48:24.48	347.48	35.13	-47.2	-58.3	3.8	7.42e-01	0	41	104	0	66	12613
2026-01-30 03:48:25.48	347.08	35.27	-44.9	-55.6	3.8	7.47e-01	0	41	104	0	61	12287
2026-01-30 03:48:26.49	346.67	35.42	-44.5	-55.2	3.8	7.45e-01	0	41	104	0	61	11755
2026-01-30 03:48:27.49	346.26	35.56	-44.1	-54.8	3.8	7.43e-01	0	41	104	0	60	11910
2026-01-30 03:48:28.49	345.85	35.71	-44.5	-55.2	3.8	7.47e-01	0	41	104	0	60	12448
2026-01-30 03:48:29.51	345.43	35.85	-51.5	-63.9	3.8	7.44e-01	0	41	104	0	73	16123
2026-01-30 03:48:30.51	345.01	35.99	-54.1	-69.6	3.9	7.43e-01	0	41	104	0	80	20763
2026-01-30 03:48:31.52	344.58	36.13	-45.4	-56.0	3.9	7.43e-01	0	41	104	0	62	12227
2026-01-30 03:48:32.52	344.15	36.27	-48.0	-59.2	3.8	7.43e-01	0	41	104	0	68	12421
2026-01-30 03:48:33.53	343.72	36.41	-46.1	-57.0	3.8	7.45e-01	0	41	104	0	64	12199
2026-01-30 03:48:34.53	343.29	36.54	-46.1	-57.0	3.8	7.42e-01	0	41	104	0	63	12900
2026-01-30 03:48:35.54	342.84	36.68	-48.7	-59.9	3.8	7.43e-01	0	41	104	0	67	14253
2026-01-30 03:48:36.56	342.39	36.81	-46.5	-57.4	3.8	7.43e-01	0	41	104	0	65	11990
2026-01-30 03:48:37.56	341.95	36.94	-54.8	-71.4	3.7	7.47e-01	0	41	104	0	80	25486
2026-01-30 03:48:38.57	341.49	37.07	-53.6	-68.1	4.0	7.41e-01	0	41	104	0	79	18480
2026-01-30 03:48:39.57	341.04	37.20	-47.1	-58.0	3.8	7.43e-01	0	41	104	0	64	13595
2026-01-30 03:48:40.58	340.58	37.33	-48.3	-59.5	3.9	7.47e-01	0	41	104	0	68	12854
2026-01-30 03:48:41.58	340.12	37.46	-46.7	-57.7	3.8	7.44e-01	0	41	104	0	65	12510
2026-01-30 03:48:42.59	339.65	37.58	-45.8	-56.7	3.8	7.44e-01	0	41	104	0	63	12392
2026-01-30 03:48:43.60	339.18	37.71	-46.0	-56.8	3.8	7.46e-01	0	41	104	0	62	13263
2026-01-30 03:48:44.61	338.70	37.83	-45.9	-56.8	3.8	7.48e-01	0	41	104	0	63	12543
2026-01-30 03:48:45.61	338.23	37.95	-54.9	-71.9	3.6	7.46e-01	0	41	104	0	80	26985
2026-01-30 03:48:46.62	337.75	38.06	-53.7	-68.3	4.0	7.45e-01	0	41	104	0	79	18770
2026-01-30 03:48:47.62	337.27	38.18	-46.9	-57.8	3.8	7.44e-01	0	41	104	0	64	13391
2026-01-30 03:48:48.63	336.78	38.29	-48.0	-58.9	3.8	7.43e-01	0	41	104	0	67	12752
2026-01-30 03:48:49.63	336.29	38.41	-46.2	-57.1	3.8	7.44e-01	0	41	104	0	64	12308
2026-01-30 03:48:50.64	335.79	38.52	-46.5	-57.3	3.8	7.43e-01	0	41	104	0	63	13386
2026-01-30 03:48:51.64	335.29	38.62	-50.3	-62.0	3.8	7.47e-01	0	41	104	0	70	15333
2026-01-30 03:48:52.65	334.79	38.73	-47.1	-58.2	3.8	7.45e-01	0	41	104	0	66	12495
2026-01-30 03:48:53.65	334.29	38.83	-54.8	-71.2	3.9	7.44e-01	0	41	104	0	80	24882
2026-01-30 03:48:54.66	333.78	38.93	-53.2	-66.9	3.9	7.42e-01	0	41	104	0	78	17052
2026-01-30 03:48:55.67	333.26	39.03	-49.3	-60.6	3.8	7.46e-01	0	41	104	0	68	14585
2026-01-30 03:48:56.68	332.75	39.13	-48.7	-59.9	3.8	7.44e-01	0	41	104	0	69	12726
2026-01-30 03:48:57.68	332.23	39.23	-47.2	-58.2	3.8	7.45e-01	0	41	104	0	66	12505
2026-01-30 03:48:58.68	331.71	39.32	-46.3	-57.2	3.8	7.44e-01	0	41	104	0	64	12386
2026-01-30 03:48:59.69	331.19	39.41	-51.0	-62.9	3.8	7.49e-01	0	41	104	0	72	15220
2026-01-30 03:49:00.70	330.66	39.50	-47.4	-58.1	3.8	7.44e-01	0	41	104	0	66	12313
2026-01-30 03:49:01.70	330.13	39.58	-54.9	-71.3	3.9	7.43e-01	0	41	104	0	80	25230
2026-01-30 03:49:02.71	329.60	39.66	-52.6	-65.7	3.9	7.45e-01	0	41	104	0	77	15601
2026-01-30 03:49:03.72	329.06	39.74	-48.9	-60.2	3.8	7.47e-01	0	41	104	0	68	13987
2026-01-30 03:49:04.73	328.52	39.82	-48.1	-59.3	3.8	7.42e-01	0	41	104	0	68	12595
2026-01-30 03:49:05.73	327.98	39.90	-46.5	-57.4	3.8	7.43e-01	0	41	104	0	65	12015
2026-01-30 03:49:06.73	327.44	39.97	-46.0	-56.8	3.8	7.45e-01	0	41	104	0	64	11920
2026-01-30 03:49:07.74	326.89	40.04	-49.3	-60.9	3.8	7.44e-01	0	41	104	0	69	14237
2026-01-30 03:49:08.75	326.34	40.10	-46.7	-57.7	3.8	7.45e-01	0	41	104	0	65	12424
2026-01-30 03:49:09.75	325.80	40.17	-54.8	-71.0	3.8	7.42e-01	0	41	104	0	80	24167
2026-01-30 03:49:10.76	325.24	40.23	-51.8	-64.1	3.8	7.44e-01	0	41	104	0	75	14702
2026-01-30 03:49:11.77	324.68	40.29	-50.6	-62.4	3.8	7.46e-01	0	41	104	0	71	15110
2026-01-30 03:49:12.77	324.13	40.34	-47.0	-57.9	3.8	7.44e-01	0	41	104	0	66	12063
2026-01-30 03:49:13.78	323.57	40.39	-45.8	-56.5	3.8	7.43e-01	0	41	104	0	63	12169
2026-01-30 03:49:14.79	323.01	40.44	-45.4	-55.9	3.8	7.45e-01	0	41	104	0	62	12023
2026-01-30 03:49:15.79	322.45	40.49	-54.0	-68.4	3.8	7.42e-01	0	41	104	0	78	20113
2026-01-30 03:49:16.80	321.88	40.53	-47.0	-57.9	3.8	7.45e-01	0	41	104	0	66	11962
2026-01-30 03:49:17.81	321.32	40.57	-54.9	-71.0	3.8	7.47e-01	0	41	104	0	80	24271
2026-01-30 03:49:18.81	320.75	40.61	-52.6	-65.8	3.8	7.45e-01	0	41	104	0	77	15846
2026-01-30 03:49:19.82	320.18	40.64	-51.4	-63.6	3.8	7.45e-01	0	41	104	0	73	15553
2026-01-30 03:49:20.83	319.61	40.67	-48.8	-60.2	3.8	7.45e-01	0	41	104	0	69	13121
2026-01-30 03:49:21.83	319.05	40.70	-47.3	-58.3	3.8	7.39e-01	0	41	104	0	66	12644
2026-01-30 03:49:22.84	318.47	40.72	-46.1	-56.9	3.8	7.46e-01	0	41	104	0	64	12071
2026-01-30 03:49:23.84	317.90	40.74	-48.6	-59.8	3.8	7.42e-01	0	41	104	0	67	14189
2026-01-30 03:49:24.85	317.33	40.76	-46.4	-57.2	3.9	7.39e-01	0	41	104	0	64	12444
2026-01-30 03:49:25.85	316.76	40.78	-54.8	-64.7	7.3	6.57e-01	184	41	104	0	80	11753
2026-01-30 03:49:26.85	316.19	40.79	-51.8	-55.0	16.4	6.05e-01	0	41	104	524288	75	5115
2026-01-30 03:49:27.86	315.61	40.80	-52.4	-56.1	16.2	6.02e-01	0	41	0	2097152	75	5855
2026-01-30 03:49:28.86	315.04	40.80	-47.4	-48.8	23.1	6.03e-01	0	41	0	3670016	66	4236
2026-01-30 03:49:29.86	314.47	40.80	-46.1	-47.4	24.6	6.02e-01	0	41	0	5767168	64	4026
2026-01-30 03:49:30.87	313.90	40.80	-45.1	-46.3	25.7	6.04e-01	0	41	0	7340032	62	4003
2026-01-30 03:49:31.87	313.33	40.80	-44.4	-45.6	26.3	6.03e-01	0	41	0	9437184	60	4107
2026-01-30 03:49:32.88	312.75	40.79	-44.1	-45.2	26.7	6.04e-01	0	41	0	11010048	60	3918
2026-01-30 03:49:33.89	312.17	40.78	-44.0	-45.1	26.6	6.03e-01	0	41	0	13107200	59	4132
2026-01-30 03:49:34.89	311.60	40.77	-44.2	-45.3	26.5	6.01e-01	0	41	0	15204352	59	4216
2026-01-30 03:49:35.90	311.03	40.75	-44.1	-45.2	26.6	6.01e-01	0	41	0	16777216	59	4162
2026-01-30 03:49:36.91	310.45	40.73	-43.9	-45.0	26.8	6.01e-01	0	41	0	18874368	59	4067
2026-01-30 03:49:37.91	309.89	40.71	-43.8	-44.9	26.8	6.03e-01	0	41	0	20447232	59	4041
2026-01-30 03:49:38.92	309.31	40.68	-44.1	-45.3	26.5	6.03e-01	0	41	0	22544384	59	4204
2026-01-30 03:49:39.93	308.74	40.65	-44.1	-45.2	26.6	6.02e-01	0	41	0	24117248	59	4164
2026-01-30 03:49:40.93	308.18	40.62	-44.1	-45.2	26.6	6.01e-01	0	41	0	26214400	59	4151
2026-01-30 03:49:41.93	307.61	40.58	-44.1	-45.3	26.6	6.02e-01	0	41	0	28311552	59	4202
2026-01-30 03:49:42.93	307.05	40.54	-44.5	-45.6	25.8	6.04e-01	0	41	0	29884416	59	4371
2026-01-30 03:49:43.94	306.49	40.50	-44.5	-45.6	26.4	6.01e-01	0	41	0	31981568	60	4132
2026-01-30 03:49:44.94	305.93	40.45	-44.0	-45.1	26.8	6.03e-01	0	41	0	34078720	60	3905
2026-01-30 03:49:45.95	305.36	40.41	-44.5	-45.6	26.3	6.03e-01	0	41	0	35651584	59	4382
2026-01-30 03:49:46.95	304.81	40.36	-44.6	-45.8	26.1	6.03e-01	0	41	0	37748736	59	4448
2026-01-30 03:49:47.95	304.25	40.30	-44.1	-45.2	26.6	6.01e-01	0	41	0	39321600	59	4193
2026-01-30 03:49:48.95	303.70	40.24	-44.2	-45.3	26.4	6.03e-01	0	41	0	41418752	59	4227
2026-01-30 03:49:49.96	303.14	40.18	-44.2	-45.4	26.5	6.03e-01	0	41	0	43515904	59	4244
2026-01-30 03:49:50.96	302.60	40.12	-44.2	-45.3	26.6	6.04e-01	0	41	0	45088768	59	4206
2026-01-30 03:49:51.97	302.05	40.06	-44.4	-45.5	26.4	6.01e-01	0	41	0	47185920	59	4318
2026-01-30 03:49:52.98	301.50	39.99	-44.1	-45.2	26.7	6.04e-01	0	41	0	48758784	59	4185
2026-01-30 03:49:53.98	300.95	39.92	-44.3	-45.5	26.4	6.02e-01	0	41	0	50855936	59	4294
2026-01-30 03:49:54.98	300.42	39.84	-44.3	-45.5	26.4	6.01e-01	0	41	0	52428800	59	4303
2026-01-30 03:49:55.99	299.87	39.77	-43.8	-44.9	26.9	6.04e-01	0	41	0	54525952	59	4042
2026-01-30 03:49:57.00	299.34	39.69	-44.1	-45.2	26.7	6.01e-01	0	41	0	56623104	59	4164
2026-01-30 03:49:58.01	298.80	39.60	-44.2	-45.3	26.5	6.03e-01	0	41	0	58195968	59	4217
2026-01-30 03:49:59.01	298.27	39.52	-44.4	-45.5	26.4	6.02e-01	0	41	0	60293120	59	4318
2026-01-30 03:50:00.02	297.74	39.43	-44.4	-45.6	26.3	6.04e-01	0	41	0	61865984	59	4351
2026-01-30 03:50:01.03	297.21	39.34	-44.5	-45.6	26.2	6.03e-01	0	41	0	63963136	59	4389
2026-01-30 03:50:02.03	296.69	39.25	-44.4	-45.5	26.3	6.04e-01	0	41	0	66060288	59	4336
2026-01-30 03:50:03.04	296.17	39.16	-44.1	-45.2	26.6	6.03e-01	0	41	0	67633152	59	4169
2026-01-30 03:50:04.04	295.66	39.06	-44.2	-45.3	26.4	6.04e-01	0	41	0	69730304	59	4235
2026-01-30 03:50:05.06	295.14	38.96	-44.3	-45.4	26.4	6.04e-01	0	41	0	71827456	60	4041
2026-01-30 03:50:06.06	294.63	38.86	-44.5	-45.6	26.2	6.04e-01	0	41	0	73400320	60	4141
2026-01-30 03:50:07.07	294.12	38.76	-44.3	-45.4	26.5	6.01e-01	0	41	0	75497472	60	4048
2026-01-30 03:50:08.08	293.62	38.65	-44.2	-45.2	26.6	6.03e-01	0	41	0	77070336	60	3957
2026-01-30 03:50:09.08	293.12	38.54	-44.0	-45.0	26.7	6.02e-01	0	41	0	79167488	60	3867
2026-01-30 03:50:10.08	292.63	38.44	-43.9	-45.0	26.4	6.03e-01	0	41	0	80740352	59	4059
2026-01-30 03:50:11.09	292.13	38.32	-44.2	-45.4	26.2	6.04e-01	0	41	0	82837504	60	4007
2026-01-30 03:50:12.10	291.64	38.21	-44.6	-45.8	26.0	6.03e-01	0	41	0	84934656	60	4219
2026-01-30 03:50:13.11	291.15	38.09	-44.5	-45.6	26.3	6.05e-01	0	41	0	86507520	60	4136
2026-01-30 03:50:14.11	290.67	37.98	-44.4	-45.5	26.4	6.03e-01	0	41	0	88604672	60	4090
2026-01-30 03:50:15.12	290.19	37.86	-44.4	-45.5	26.2	6.03e-01	0	41	0	90177536	60	4076
2026-01-30 03:50:16.12	289.72	37.74	-44.2	-45.3	26.3	6.02e-01	0	41	0	92274688	60	4002
2026-01-30 03:50:17.13	289.24	37.61	-44.8	-46.1	25.6	6.02e-01	0	41	0	93847552	60	4343
2026-01-30 03:50:18.13	288.78	37.49	-44.7	-45.8	25.8	6.04e-01	0	41	0	95944704	60	4229
2026-01-30 03:50:19.14	288.31	37.36	-44.6	-45.7	25.9	6.03e-01	0	41	0	98041856	60	4191
2026-01-30 03:50:20.15	287.85	37.24	-44.6	-45.8	25.5	6.02e-01	0	41	0	100139008	60	4208
2026-01-30 03:50:21.15	287.40	37.11	-45.1	-46.4	25.2	6.03e-01	0	41	0	101711872	61	4260
2026-01-30 03:50:22.16	286.94	36.98	-45.5	-46.8	25.2	6.04e-01	0	41	0	103809024	61	4487
2026-01-30 03:50:23.17	286.49	36.84	-45.1	-46.3	25.6	6.03e-01	0	41	0	105381888	60	4462
2026-01-30 03:50:24.18	286.04	36.71	-44.3	-45.4	26.5	6.02e-01	0	41	0	107479040	60	4014
2026-01-30 03:50:25.18	285.60	36.58	-44.0	-45.0	26.8	6.03e-01	0	41	0	109051904	59	4081
2026-01-30 03:50:26.19	285.16	36.44	-44.4	-45.5	26.4	6.01e-01	0	41	0	111149056	60	4091
2026-01-30 03:50:27.20	284.72	36.30	-44.9	-46.0	25.9	6.04e-01	0	41	0	113246208	60	4330
2026-01-30 03:50:28.21	284.29	36.16	-44.8	-45.9	25.8	6.03e-01	0	41	0	114819072	60	4281
2026-01-30 03:50:29.21	283.87	36.02	-45.0	-46.2	25.6	6.02e-01	0	41	0	116916224	60	4399
2026-01-30 03:50:30.22	283.44	35.88	-45.6	-46.9	25.2	6.05e-01	0	41	0	118489088	61	4498
2026-01-30 03:50:31.23	283.02	35.74	-44.9	-46.0	25.8	6.04e-01	0	41	0	120586240	61	4084
2026-01-30 03:50:32.24	282.60	35.59	-44.6	-45.8	26.2	6.00e-01	0	41	0	122683392	61	3980
2026-01-30 03:50:33.24	282.19	35.45	-44.5	-45.6	26.3	6.04e-01	0	41	0	124256256	60	4133
2026-01-30 03:50:34.25	281.78	35.31	-44.7	-45.8	26.2	6.02e-01	0	41	0	126353408	60	4224
2026-01-30 03:50:35.26	281.38	35.16	-44.6	-45.7	26.1	6.02e-01	0	41	0	128450560	60	4189
2026-01-30 03:50:36.27	280.98	35.01	-44.8	-46.0	25.9	6.03e-01	0	41	0	130023424	60	4326
2026-01-30 03:50:37.27	280.58	34.87	-44.6	-45.8	25.7	6.02e-01	0	41	0	132120576	60	4205
2026-01-30 03:50:38.28	280.19	34.72	-43.9	-45.0	26.4	6.02e-01	0	41	0	133693440	59	4059
2026-01-30 03:50:39.29	279.79	34.57	-44.3	-45.5	24.7	6.03e-01	0	41	0	135790592	60	4074
2026-01-30 03:50:40.29	279.41	34.42	-44.9	-46.2	25.3	6.04e-01	0	41	0	137363456	60	4430
2026-01-30 03:50:41.30	279.03	34.27	-43.5	-44.5	26.7	6.04e-01	0	41	0	139460608	58	4098
2026-01-30 03:50:42.31	278.65	34.12	-44.0	-45.1	25.7	6.02e-01	0	41	0	141557760	59	4107
2026-01-30 03:50:43.32	278.27	33.96	-45.3	-46.7	25.1	6.05e-01	0	41	0	143130624	61	4430
2026-01-30 03:50:44.32	277.90	33.81	-43.9	-45.0	26.1	6.02e-01	0	41	0	145227776	58	4308
2026-01-30 03:50:45.33	277.53	33.66	-43.5	-44.6	26.1	6.03e-01	0	41	0	146800640	59	3883
2026-01-30 03:50:46.34	277.16	33.50	-44.6	-45.9	25.5	6.02e-01	0	41	0	148897792	60	4256
2026-01-30 03:50:47.34	276.81	33.35	-44.0	-45.1	25.5	6.02e-01	0	41	0	150994944	58	4365
2026-01-30 03:50:48.35	276.45	33.20	-43.7	-44.8	26.5	6.03e-01	0	41	0	152567808	59	3960
2026-01-30 03:50:49.36	276.09	33.04	-45.3	-46.6	25.0	6.02e-01	0	41	0	154664960	61	4374
2026-01-30 03:50:50.36	275.74	32.89	-44.6	-45.8	25.3	6.00e-01	0	41	0	156762112	59	4465
2026-01-30 03:50:51.37	275.39	32.73	-44.1	-45.2	26.0	6.03e-01	0	41	0	158334976	60	3938
2026-01-30 03:50:52.38	275.05	32.58	-45.7	-47.1	24.6	6.03e-01	0	41	0	160432128	61	4631
2026-01-30 03:50:53.39	274.71	32.42	-44.3	-45.4	26.4	6.01e-01	0	41	0	162004992	60	4006
2026-01-30 03:50:54.39	274.37	32.26	-45.4	-46.7	24.3	6.01e-01	0	41	0	164102144	62	4161
2026-01-30 03:50:55.40	274.04	32.11	-44.3	-45.4	25.7	6.00e-01	0	41	0	165675008	59	4243
2026-01-30 03:50:56.41	273.71	31.95	-44.5	-45.7	25.4	6.01e-01	0	41	0	167772160	61	3930
2026-01-30 03:50:57.42	273.38	31.79	-45.0	-46.2	25.3	6.02e-01	0	41	0	169869312	60	4424
2026-01-30 03:50:58.42	273.06	31.64	-43.9	-45.0	26.4	6.03e-01	0	41	0	171442176	59	4062
2026-01-30 03:50:59.43	272.74	31.48	-44.4	-45.7	26.0	6.02e-01	0	41	0	173539328	59	4404
2026-01-30 03:51:00.44	272.42	31.32	-43.7	-44.7	26.8	6.02e-01	0	41	0	175636480	59	3949
2026-01-30 03:51:01.44	272.10	31.17	-44.6	-45.8	25.9	6.02e-01	0	41	0	177209344	59	4460
2026-01-30 03:51:02.45	271.79	31.01	-43.9	-45.0	26.6	6.02e-01	0	41	0	179306496	59	4089
2026-01-30 03:51:03.45	271.49	30.85	-44.8	-46.1	25.7	6.04e-01	0	41	0	180879360	60	4344
2026-01-30 03:51:04.46	271.18	30.69	-44.0	-45.1	26.4	6.03e-01	0	41	0	182976512	59	4134
2026-01-30 03:51:05.47	270.88	30.54	-44.1	-45.2	26.3	6.05e-01	0	41	0	185073664	59	4182
2026-01-30 03:51:06.47	270.58	30.38	-43.1	-44.1	27.4	6.02e-01	0	41	0	186646528	58	3905
2026-01-30 03:51:07.48	270.28	30.22	-43.9	-45.1	26.5	6.01e-01	0	41	0	188743680	58	4369
2026-01-30 03:51:08.48	269.99	30.07	-43.8	-44.9	26.6	6.02e-01	0	41	0	190316544	58	4251
2026-01-30 03:51:09.49	269.70	29.91	-44.1	-45.3	26.3	6.02e-01	0	41	0	192413696	58	4457
2026-01-30 03:51:10.50	269.41	29.75	-43.6	-44.7	26.7	6.03e-01	0	41	0	193986560	59	3940
2026-01-30 03:51:11.50	269.13	29.60	-43.8	-44.9	26.7	6.02e-01	0	41	0	196083712	59	4045
2026-01-30 03:51:12.51	268.85	29.44	-43.7	-44.8	26.5	6.01e-01	0	41	0	198180864	59	3978
2026-01-30 03:51:13.52	268.57	29.28	-43.4	-44.4	27.1	6.04e-01	0	41	0	199753728	58	4040
2026-01-30 03:51:14.52	268.30	29.13	-43.7	-44.8	26.7	6.03e-01	0	41	0	201850880	58	4236
2026-01-30 03:51:15.53	268.02	28.97	-43.8	-44.9	26.7	6.02e-01	0	41	0	203423744	58	4283
2026-01-30 03:51:16.54	267.75	28.82	-43.9	-45.0	26.5	6.02e-01	0	41	0	205520896	58	4340
2026-01-30 03:51:17.55	267.48	28.66	-43.6	-44.7	26.8	6.03e-01	0	41	0	207618048	58	4157
2026-01-30 03:51:18.55	267.22	28.51	-43.7	-44.8	26.7	6.03e-01	0	41	0	209190912	58	4218
2026-01-30 03:51:19.56	266.96	28.35	-44.1	-45.2	26.3	6.04e-01	0	41	0	211288064	58	4413
2026-01-30 03:51:20.57	266.70	28.20	-44.2	-45.4	26.2	6.04e-01	0	41	0	213385216	59	4249
2026-01-30 03:51:21.57	266.44	28.04	-43.8	-44.9	26.7	6.03e-01	0	41	0	214958080	59	4014
2026-01-30 03:51:22.58	266.19	27.89	-43.5	-44.6	26.8	6.03e-01	0	41	0	217055232	59	3904
2026-01-30 03:51:23.59	265.94	27.73	-43.6	-44.7	26.8	6.01e-01	0	41	0	218628096	58	4159
2026-01-30 03:51:24.59	265.69	27.58	-44.1	-45.2	26.4	6.02e-01	0	41	0	220725248	58	4428
2026-01-30 03:51:25.60	265.44	27.43	-44.3	-45.5	26.1	6.03e-01	0	41	0	222298112	59	4311
2026-01-30 03:51:26.61	265.20	27.27	-44.0	-45.2	26.2	6.03e-01	0	41	0	224395264	59	4152
2026-01-30 03:51:27.61	264.96	27.12	-43.9	-45.0	26.5	6.02e-01	0	41	0	226492416	59	4059
2026-01-30 03:51:28.62	264.72	26.97	-44.0	-45.1	26.5	6.02e-01	0	41	0	228065280	59	4112
2026-01-30 03:51:29.63	264.48	26.82	-44.1	-45.2	26.2	6.03e-01	0	41	0	230162432	59	4188
2026-01-30 03:51:30.64	264.24	26.67	-44.0	-45.2	26.3	6.02e-01	0	41	0	232259584	59	4160
2026-01-30 03:51:31.64	264.01	26.52	-44.0	-45.2	26.3	6.03e-01	0	41	0	233832448	59	4147
2026-01-30 03:51:32.65	263.78	26.37	-43.9	-45.0	26.6	6.03e-01	0	41	0	235929600	59	4053
2026-01-30 03:51:33.66	263.55	26.22	-43.9	-45.0	26.5	6.04e-01	0	41	0	237502464	59	4072
2026-01-30 03:51:34.67	263.33	26.07	-44.2	-45.3	26.2	6.03e-01	0	41	0	239599616	59	4237
2026-01-30 03:51:35.67	263.10	25.92	-44.0	-45.2	26.3	6.03e-01	0	41	0	241696768	59	4168
2026-01-30 03:51:36.68	262.88	25.77	-43.9	-45.0	26.4	6.04e-01	0	41	0	243269632	59	4095
2026-01-30 03:51:37.69	262.66	25.62	-44.0	-45.1	26.4	6.03e-01	0	41	0	245366784	59	4136
2026-01-30 03:51:38.69	262.45	25.47	-44.0	-45.2	26.4	6.02e-01	0	41	0	246939648	59	4151
2026-01-30 03:51:39.70	262.23	25.32	-44.1	-45.2	26.3	6.00e-01	0	41	0	249036800	59	4180
2026-01-30 03:51:40.71	262.02	25.18	-44.0	-45.2	26.3	6.02e-01	0	41	0	250609664	59	4162
2026-01-30 03:51:41.72	261.81	25.03	-44.1	-45.3	26.2	6.01e-01	0	41	0	252706816	59	4203
2026-01-30 03:51:42.72	261.60	24.88	-43.7	-44.8	26.5	6.04e-01	0	41	0	254803968	59	4000
2026-01-30 03:51:43.73	261.39	24.74	-43.9	-45.0	26.3	6.00e-01	0	41	0	256376832	59	4076
2026-01-30 03:51:44.74	261.19	24.59	-43.8	-44.9	26.4	6.03e-01	0	41	0	258473984	59	4051
2026-01-30 03:51:45.75	260.99	24.45	-44.1	-45.2	26.3	6.05e-01	0	41	0	260571136	59	4175
2026-01-30 03:51:46.76	260.78	24.30	-44.3	-45.4	26.1	6.02e-01	0	41	0	262144000	59	4288
2026-01-30 03:51:47.77	260.59	24.16	-44.3	-45.5	26.0	6.03e-01	0	41	0	264241152	59	4315
2026-01-30 03:51:48.78	260.39	24.02	-44.3	-45.5	25.9	6.03e-01	0	41	0	265814016	59	4311
2026-01-30 03:51:49.79	260.19	23.87	-43.9	-45.0	26.3	6.03e-01	0	41	0	267911168	59	4090
2026-01-30 03:51:50.79	260.00	23.73	-44.0	-45.2	26.2	6.05e-01	0	41	0	270008320	59	4150
2026-01-30 03:51:51.80	259.81	23.59	-43.9	-45.0	26.4	6.02e-01	0	41	0	271581184	59	4092
2026-01-30 03:51:52.81	259.62	23.45	-44.0	-45.2	26.3	6.02e-01	0	41	0	273678336	59	4154
2026-01-30 03:51:53.81	259.43	23.31	-44.2	-45.4	26.1	6.03e-01	0	41	0	275251200	59	4274
2026-01-30 03:51:54.82	259.25	23.17	-44.0	-45.1	26.3	6.03e-01	0	41	0	277348352	59	4127
2026-01-30 03:51:55.82	259.06	23.03	-43.9	-45.0	26.4	6.01e-01	0	41	0	278921216	59	4065
2026-01-30 03:51:56.83	258.88	22.89	-44.0	-45.1	26.3	6.02e-01	0	41	0	281018368	59	4131
2026-01-30 03:51:57.83	258.70	22.75	-43.9	-45.1	26.2	6.02e-01	0	41	0	283115520	59	4117
2026-01-30 03:51:58.84	258.52	22.61	-44.0	-45.1	26.1	6.02e-01	0	41	0	285212672	59	4141
2026-01-30 03:51:59.85	258.35	22.48	-44.0	-45.2	26.2	6.04e-01	0	41	0	286785536	59	4161
2026-01-30 03:52:00.85	258.17	22.34	-44.0	-45.1	26.2	6.02e-01	0	41	0	288882688	59	4135
2026-01-30 03:52:01.86	258.00	22.20	-43.9	-45.0	26.4	6.03e-01	0	41	0	290455552	59	4082
2026-01-30 03:52:02.87	257.82	22.07	-43.9	-45.1	26.3	6.03e-01	0	41	0	292552704	59	4111
2026-01-30 03:52:03.88	257.65	21.93	-44.0	-45.2	26.2	6.03e-01	0	41	0	294125568	59	4168
2026-01-30 03:52:04.89	257.48	21.79	-44.0	-45.2	26.2	6.03e-01	0	41	0	296222720	59	4153
2026-01-30 03:52:05.89	257.32	21.66	-44.0	-45.1	26.2	6.02e-01	0	41	0	298319872	59	4134
2026-01-30 03:52:06.90	257.15	21.53	-43.8	-44.9	26.4	6.02e-01	0	41	0	299892736	59	4035
2026-01-30 03:52:07.91	256.99	21.39	-43.7	-44.8	26.5	6.03e-01	0	41	0	301989888	59	3991
2026-01-30 03:52:08.91	256.82	21.26	-43.7	-44.8	26.5	6.03e-01	0	41	0	303562752	59	3982
2026-01-30 03:52:09.92	256.66	21.13	-43.9	-45.0	26.3	6.03e-01	0	41	0	305659904	59	4096
2026-01-30 03:52:10.93	256.50	21.00	-43.8	-44.9	26.4	6.03e-01	0	41	0	307232768	59	4051
2026-01-30 03:52:11.93	256.34	20.87	-43.8	-44.9	26.4	6.02e-01	0	41	0	309329920	59	4022
2026-01-30 03:52:12.94	256.19	20.73	-43.8	-45.0	26.3	6.02e-01	0	41	0	311427072	59	4071
2026-01-30 03:52:13.94	256.03	20.61	-43.9	-45.1	26.2	6.00e-01	0	41	0	313524224	59	4109
2026-01-30 03:52:14.95	255.88	20.47	-44.0	-45.2	26.1	6.02e-01	0	41	0	315097088	59	4153
2026-01-30 03:52:15.96	255.72	20.35	-43.9	-45.1	26.2	6.03e-01	0	41	0	317194240	59	4125
2026-01-30 03:52:16.97	255.57	20.22	-44.0	-45.2	26.1	6.03e-01	0	41	0	318767104	59	4153
2026-01-30 03:52:17.98	255.42	20.09	-44.0	-45.1	26.1	6.02e-01	0	41	0	320864256	59	4137
2026-01-30 03:52:18.99	255.27	19.96	-43.8	-45.0	26.3	6.01e-01	0	41	0	322437120	59	4054
2026-01-30 03:52:19.99	255.13	19.83	-43.5	-44.6	26.6	6.03e-01	0	41	0	324534272	59	3906
2026-01-30 03:52:21.00	254.98	19.71	-43.4	-44.5	26.7	6.02e-01	0	41	0	326631424	58	4080
2026-01-30 03:52:22.01	254.83	19.58	-43.5	-44.6	26.6	6.03e-01	0	41	0	328204288	58	4132
2026-01-30 03:52:23.02	254.69	19.45	-43.6	-44.7	26.6	6.02e-01	0	41	0	330301440	58	4164
2026-01-30 03:52:24.03	254.55	19.33	-43.7	-44.9	26.4	6.02e-01	0	41	0	331874304	58	4244
2026-01-30 03:52:25.03	254.41	19.20	-43.8	-44.9	26.3	6.04e-01	0	41	0	333971456	58	4279
2026-01-30 03:52:26.04	254.27	19.08	-43.7	-44.8	26.4	6.03e-01	0	41	0	336068608	58	4236
2026-01-30 03:52:27.05	254.13	18.96	-43.7	-44.8	26.4	6.03e-01	0	41	0	337641472	58	4210
2026-01-30 03:52:28.06	253.99	18.83	-43.7	-44.9	26.3	6.02e-01	0	41	0	339738624	58	4257
2026-01-30 03:52:29.07	253.85	18.71	-43.8	-44.9	26.3	6.02e-01	0	41	0	341835776	58	4265
2026-01-30 03:52:30.07	253.72	18.59	-44.0	-45.2	26.1	6.03e-01	0	41	0	343408640	58	4406
2026-01-30 03:52:31.08	253.58	18.47	-43.8	-45.0	26.2	6.03e-01	0	41	0	345505792	58	4309
2026-01-30 03:52:32.09	253.45	18.34	-43.9	-45.0	26.2	6.02e-01	0	41	0	347078656	58	4334
2026-01-30 03:52:33.09	253.32	18.23	-43.9	-45.0	26.2	6.02e-01	0	41	0	349175808	58	4329
2026-01-30 03:52:34.10	253.19	18.10	-43.8	-44.9	26.3	6.04e-01	0	41	0	350748672	58	4266
2026-01-30 03:52:35.10	253.06	17.99	-43.8	-44.9	26.3	6.02e-01	0	41	0	352845824	58	4263
2026-01-30 03:52:36.11	252.93	17.87	-43.6	-44.8	26.3	6.01e-01	0	41	0	354942976	58	4198
2026-01-30 03:52:37.12	252.80	17.75	-43.5	-44.6	26.4	6.01e-01	0	41	0	356515840	58	4133
2026-01-30 03:52:38.12	252.68	17.63	-43.6	-44.7	26.4	6.04e-01	0	41	0	358612992	58	4191
2026-01-30 03:52:39.13	252.55	17.51	-43.6	-44.8	26.2	6.01e-01	0	41	0	360185856	58	4210
2026-01-30 03:52:40.13	252.43	17.40	-43.8	-44.9	26.1	6.02e-01	0	41	0	362283008	58	4284
2026-01-30 03:52:41.14	252.31	17.28	-43.8	-44.9	26.1	6.03e-01	0	41	0	364380160	58	4289
2026-01-30 03:52:42.15	252.18	17.16	-43.8	-44.9	26.1	6.04e-01	0	41	0	365953024	58	4283
2026-01-30 03:52:43.15	252.06	17.05	-43.7	-44.9	26.2	6.02e-01	0	41	0	368050176	58	4248
2026-01-30 03:52:44.16	251.94	16.93	-43.8	-44.9	26.1	6.03e-01	0	41	0	370147328	58	4282
2026-01-30 03:52:45.17	251.83	16.82	-43.5	-44.6	26.5	6.01e-01	0	41	0	371720192	58	4138
2026-01-30 03:52:46.17	251.71	16.70	-43.5	-44.6	26.5	6.02e-01	0	41	0	373817344	58	4134
2026-01-30 03:52:47.18	251.59	16.59	-43.6	-44.7	26.4	6.02e-01	0	41	0	375390208	58	4188
2026-01-30 03:52:48.19	251.47	16.47	-43.5	-44.6	26.5	6.02e-01	0	41	0	377487360	58	4120
2026-01-30 03:52:49.20	251.36	16.36	-43.7	-44.8	26.3	6.03e-01	0	41	0	379060224	58	4238
2026-01-30 03:52:50.21	251.24	16.25	-43.8	-45.0	26.1	6.03e-01	0	41	0	381157376	58	4308
2026-01-30 03:52:51.21	251.13	16.14	-43.9	-45.1	26.1	6.04e-01	0	41	0	383254528	58	4343
2026-01-30 03:52:52.22	251.02	16.03	-43.8	-45.0	26.1	6.02e-01	0	41	0	384827392	58	4326
2026-01-30 03:52:53.22	250.91	15.92	-43.7	-44.8	26.2	6.02e-01	0	41	0	386924544	58	4225
2026-01-30 03:52:54.23	250.80	15.80	-43.7	-44.8	26.3	6.01e-01	0	41	0	389021696	58	4234
2026-01-30 03:52:55.24	250.69	15.69	-43.7	-44.8	26.2	6.02e-01	0	41	0	390594560	58	4226
2026-01-30 03:52:56.24	250.58	15.58	-43.7	-44.9	26.2	6.02e-01	0	41	0	392691712	58	4246
2026-01-30 03:52:57.25	250.47	15.47	-43.5	-44.6	26.5	6.02e-01	0	41	0	394264576	58	4124
2026-01-30 03:52:58.26	250.36	15.37	-43.7	-44.8	26.3	6.02e-01	0	41	0	396361728	58	4230
2026-01-30 03:52:59.27	250.26	15.26	-43.6	-44.8	26.3	6.01e-01	0	41	0	398458880	58	4211
2026-01-30 03:53:00.27	250.15	15.15	-43.7	-44.9	26.2	6.03e-01	0	41	0	400031744	58	4266
2026-01-30 03:53:01.28	250.05	15.04	-43.9	-45.1	26.1	6.02e-01	0	41	0	402128896	58	4342
2026-01-30 03:53:02.28	249.95	14.94	-43.9	-45.0	26.1	6.03e-01	0	41	0	403701760	58	4327
2026-01-30 03:53:03.29	249.84	14.83	-44.0	-45.2	25.9	6.01e-01	0	41	0	405798912	58	4406
2026-01-30 03:53:04.29	249.74	14.72	-43.8	-45.0	26.0	6.02e-01	0	41	0	407371776	58	4310
2026-01-30 03:53:05.30	249.64	14.62	-44.0	-45.2	25.8	6.02e-01	0	41	0	409468928	58	4414
2026-01-30 03:53:06.31	249.54	14.51	-43.9	-45.1	25.9	6.02e-01	0	41	0	411566080	58	4356
2026-01-30 03:53:07.32	249.44	14.41	-43.7	-44.9	26.1	6.02e-01	0	41	0	413138944	58	4258
2026-01-30 03:53:08.32	249.34	14.30	-43.8	-44.9	26.0	6.03e-01	0	41	0	415236096	58	4286
2026-01-30 03:53:09.33	249.24	14.20	-43.7	-44.9	26.1	6.04e-01	0	41	0	417333248	58	4258
2026-01-30 03:53:10.34	249.14	14.09	-43.8	-45.0	26.0	6.02e-01	0	41	0	418906112	58	4311
2026-01-30 03:53:11.35	249.05	13.99	-43.8	-44.9	26.1	6.02e-01	0	41	0	421003264	58	4267
2026-01-30 03:53:12.35	248.95	13.89	-43.6	-44.8	26.3	6.03e-01	0	41	0	422576128	58	4200
2026-01-30 03:53:13.36	248.86	13.78	-43.7	-44.9	26.1	6.05e-01	0	41	0	424673280	58	4263
2026-01-30 03:53:14.37	248.76	13.68	-43.8	-44.9	26.1	6.02e-01	0	41	0	426770432	58	4277
2026-01-30 03:53:15.38	248.67	13.58	-43.9	-45.1	26.0	6.02e-01	0	41	0	428343296	58	4355
2026-01-30 03:53:16.39	248.57	13.48	-43.9	-45.1	26.0	6.01e-01	0	41	0	430440448	58	4347
2026-01-30 03:53:17.40	248.48	13.38	-44.1	-45.3	25.8	6.03e-01	0	41	0	432013312	58	4462
2026-01-30 03:53:18.40	248.39	13.28	-44.2	-45.4	25.7	6.01e-01	0	41	0	434110464	58	4508
2026-01-30 03:53:19.41	248.30	13.18	-44.2	-45.4	25.6	6.02e-01	0	41	0	435683328	59	4281
2026-01-30 03:53:20.42	248.21	13.08	-44.1	-45.3	25.8	6.04e-01	0	41	0	437780480	59	4215
2026-01-30 03:53:21.42	248.12	12.98	-44.0	-45.2	25.8	6.04e-01	0	41	0	439877632	59	4178
2026-01-30 03:53:22.43	248.03	12.88	-44.0	-45.1	25.9	6.03e-01	0	41	0	441450496	59	4138
2026-01-30 03:53:23.43	247.94	12.78	-43.8	-45.0	26.0	6.03e-01	0	41	0	443547648	59	4078
2026-01-30 03:53:24.44	247.85	12.68	-43.8	-45.0	26.0	6.05e-01	0	41	0	445644800	59	4059
2026-01-30 03:53:25.44	247.77	12.58	-43.9	-45.1	26.0	6.03e-01	0	41	0	447217664	59	4103
2026-01-30 03:53:26.45	247.68	12.49	-43.8	-45.0	26.0	6.03e-01	0	41	0	449314816	59	4070
2026-01-30 03:53:27.46	247.60	12.39	-43.8	-45.0	26.0	6.03e-01	0	41	0	450887680	59	4055
2026-01-30 03:53:28.47	247.51	12.29	-44.0	-45.2	25.9	6.02e-01	0	41	0	452984832	59	4160
2026-01-30 03:53:29.47	247.43	12.20	-44.0	-45.2	25.9	6.01e-01	0	41	0	455081984	59	4147
2026-01-30 03:53:30.48	247.34	12.10	-44.1	-45.3	25.7	6.02e-01	0	41	0	456654848	59	4240
2026-01-30 03:53:31.49	247.26	12.00	-44.2	-45.4	25.6	6.03e-01	0	41	0	458752000	59	4251
2026-01-30 03:53:32.49	247.18	11.91	-44.3	-45.5	25.5	6.04e-01	0	41	0	460324864	59	4339
2026-01-30 03:53:33.49	247.09	11.81	-44.4	-45.6	25.4	6.03e-01	0	41	0	462422016	59	4377
2026-01-30 03:53:34.50	247.01	11.72	-44.4	-45.7	25.3	6.01e-01	0	41	0	463994880	59	4413
2026-01-30 03:53:35.51	246.93	11.62	-44.4	-45.6	25.3	6.04e-01	0	41	0	466092032	59	4380
2026-01-30 03:53:36.52	246.85	11.53	-44.2	-45.4	25.5	6.04e-01	0	41	0	468189184	59	4290
2026-01-30 03:53:37.52	246.77	11.44	-44.3	-45.5	25.5	6.02e-01	0	41	0	469762048	59	4310
2026-01-30 03:53:38.53	246.69	11.34	-44.0	-45.2	25.7	6.03e-01	0	41	0	471859200	59	4181
2026-01-30 03:53:39.54	246.61	11.25	-44.1	-45.3	25.7	6.03e-01	0	41	0	473956352	59	4200
2026-01-30 03:53:40.54	246.54	11.16	-44.0	-45.2	25.7	6.02e-01	0	41	0	475529216	59	4187
2026-01-30 03:53:41.55	246.46	11.07	-44.0	-45.2	25.7	6.03e-01	0	41	0	477626368	59	4180
2026-01-30 03:53:42.55	246.38	10.97	-44.1	-45.2	25.6	6.00e-01	0	41	0	479199232	59	4193
2026-01-30 03:53:43.56	246.31	10.88	-43.9	-45.1	25.7	6.01e-01	0	41	0	481296384	59	4135
2026-01-30 03:53:44.57	246.23	10.79	-44.1	-45.2	25.6	6.02e-01	0	41	0	483393536	59	4190
2026-01-30 03:53:45.57	246.15	10.70	-44.0	-45.2	25.7	6.02e-01	0	41	0	484966400	59	4160
2026-01-30 03:53:46.57	246.08	10.61	-44.1	-45.3	25.6	6.03e-01	0	41	0	487063552	59	4206
2026-01-30 03:53:47.58	246.01	10.52	-44.1	-45.3	25.5	6.03e-01	0	41	0	488636416	59	4236
2026-01-30 03:53:48.59	245.93	10.43	-44.2	-45.5	25.4	6.03e-01	0	41	0	490733568	59	4299
2026-01-30 03:53:49.60	245.86	10.34	-44.2	-45.5	25.4	6.01e-01	0	41	0	492306432	59	4301
2026-01-30 03:53:50.60	245.79	10.25	-44.3	-45.6	25.3	6.01e-01	0	41	0	494403584	59	4343
2026-01-30 03:53:51.61	245.71	10.16	-44.4	-45.6	25.2	6.03e-01	0	41	0	496500736	59	4377
2026-01-30 03:53:52.62	245.64	10.07	-44.3	-45.5	25.2	6.02e-01	0	41	0	498073600	59	4326
2026-01-30 03:53:53.63	245.57	9.98	-44.3	-45.6	25.2	6.05e-01	0	41	0	500170752	59	4345
2026-01-30 03:53:54.63	245.50	9.90	-44.4	-45.7	25.1	6.03e-01	0	41	0	501743616	59	4416
2026-01-30 03:53:55.63	245.43	9.81	-44.3	-45.6	25.2	6.03e-01	0	41	0	503840768	59	4359
2026-01-30 03:53:56.64	245.36	9.72	-44.4	-45.7	25.1	6.03e-01	0	41	0	505937920	59	4411
2026-01-30 03:53:57.65	245.29	9.63	-44.3	-45.6	25.2	6.02e-01	0	41	0	507510784	59	4345
2026-01-30 03:53:58.66	245.22	9.55	-44.4	-45.6	25.2	6.04e-01	0	41	0	509607936	59	4384
2026-01-30 03:53:59.67	245.15	9.46	-44.4	-45.6	25.1	6.02e-01	0	41	0	511705088	59	4381
2026-01-30 03:54:00.67	245.08	9.37	-44.6	-45.9	24.9	6.02e-01	0	41	0	513277952	59	4499
2026-01-30 03:54:01.68	245.02	9.29	-44.5	-45.8	25.0	6.05e-01	0	41	0	515375104	59	4462
2026-01-30 03:54:02.69	244.95	9.20	-44.4	-45.7	25.1	6.03e-01	0	41	0	516947968	59	4399
2026-01-30 03:54:03.70	244.88	9.12	-44.5	-45.7	25.0	6.05e-01	0	41	0	519045120	59	4422
2026-01-30 03:54:04.71	244.82	9.03	-44.6	-45.9	24.9	6.03e-01	0	41	0	520617984	59	4522
2026-01-30 03:54:05.71	244.75	8.95	-44.6	-45.9	24.9	6.03e-01	0	41	0	522715136	59	4504
2026-01-30 03:54:06.72	244.68	8.86	-44.7	-46.0	24.8	6.04e-01	0	41	0	524812288	59	4556
2026-01-30 03:54:07.73	244.62	8.78	-44.7	-46.0	24.8	6.02e-01	0	41	0	526385152	60	4334
2026-01-30 03:54:08.73	244.56	8.69	-44.5	-45.8	25.0	6.03e-01	0	41	0	528482304	60	4220
2026-01-30 03:54:09.74	244.49	8.61	-44.5	-45.8	25.0	6.02e-01	0	41	0	530579456	60	4210
2026-01-30 03:54:10.75	244.43	8.53	-44.5	-45.8	25.1	6.02e-01	0	41	0	532152320	60	4217
2026-01-30 03:54:11.76	244.36	8.44	-44.5	-45.8	25.0	6.04e-01	0	41	0	534249472	60	4225
2026-01-30 03:54:12.76	244.30	8.36	-44.5	-45.8	25.0	6.02e-01	0	41	0	535822336	60	4216
2026-01-30 03:54:13.77	244.24	8.28	-44.5	-45.8	25.0	6.04e-01	0	41	0	537919488	60	4194
2026-01-30 03:54:14.77	244.18	8.20	-44.5	-45.8	25.0	6.02e-01	0	41	0	540016640	60	4204
2026-01-30 03:54:15.79	244.11	8.11	-44.6	-45.8	24.9	6.02e-01	0	41	0	541589504	60	4238
2026-01-30 03:54:16.80	244.05	8.03	-44.6	-45.9	24.9	6.03e-01	0	41	0	543686656	60	4274
2026-01-30 03:54:17.80	243.99	7.95	-44.5	-45.7	24.9	6.01e-01	0	41	0	545259520	60	4188
2026-01-30 03:54:18.81	243.93	7.87	-44.5	-45.7	25.0	6.02e-01	0	41	0	547356672	60	4193
2026-01-30 03:54:19.81	243.87	7.79	-44.5	-45.8	24.9	6.01e-01	0	41	0	548929536	60	4216
2026-01-30 03:54:20.82	243.81	7.71	-44.6	-45.9	24.8	6.03e-01	0	41	0	551026688	60	4269
2026-01-30 03:54:21.82	243.75	7.63	-44.5	-45.8	24.9	6.04e-01	0	41	0	553123840	60	4231
2026-01-30 03:54:22.83	243.69	7.55	-44.6	-46.0	24.8	6.03e-01	0	41	0	554696704	60	4299
2026-01-30 03:54:23.84	243.64	7.47	-44.7	-46.0	24.7	6.01e-01	0	41	0	556793856	60	4324
2026-01-30 03:54:24.85	243.58	7.39	-44.7	-46.1	24.6	6.03e-01	0	41	0	558891008	60	4350
2026-01-30 03:54:25.85	243.52	7.31	-44.8	-46.1	24.6	6.01e-01	0	41	0	560463872	60	4382
2026-01-30 03:54:26.86	243.46	7.23	-44.7	-46.1	24.6	6.07e-01	0	41	0	562561024	60	4354
2026-01-30 03:54:27.87	243.40	7.15	-44.6	-45.9	24.7	6.02e-01	0	41	0	564133888	60	4270
2026-01-30 03:54:28.88	243.35	7.07	-44.7	-46.0	24.6	6.04e-01	0	41	0	566231040	60	4337
2026-01-30 03:54:29.89	243.29	6.99	-44.6	-45.9	24.7	6.03e-01	0	41	0	568328192	60	4273
2026-01-30 03:54:30.89	243.23	6.91	-44.7	-46.0	24.6	6.02e-01	0	41	0	569901056	60	4331
2026-01-30 03:54:31.90	243.18	6.83	-44.9	-46.3	24.3	6.01e-01	0	41	0	571998208	60	4463
2026-01-30 03:54:32.91	243.12	6.76	-44.8	-46.1	24.5	6.02e-01	0	41	0	573571072	60	4364
2026-01-30 03:54:33.92	243.07	6.68	-44.8	-46.1	24.4	6.03e-01	0	41	0	575668224	60	4384
2026-01-30 03:54:34.93	243.01	6.60	-44.9	-46.2	24.3	6.02e-01	0	41	0	577241088	60	4434
2026-01-30 03:54:35.93	242.96	6.52	-44.9	-46.3	24.3	6.03e-01	0	41	0	579338240	60	4474
2026-01-30 03:54:36.93	242.91	6.45	-45.1	-46.5	24.1	6.02e-01	0	41	0	581435392	60	4562
2026-01-30 03:54:37.94	242.85	6.37	-45.0	-46.3	24.2	6.03e-01	0	41	0	583008256	60	4492
2026-01-30 03:54:38.95	242.80	6.29	-45.0	-46.4	24.2	6.03e-01	0	41	0	585105408	60	4532
2026-01-30 03:54:39.96	242.74	6.22	-45.3	-46.7	24.0	6.03e-01	0	41	0	587202560	61	4417
2026-01-30 03:54:40.96	242.69	6.14	-45.2	-46.6	24.1	6.03e-01	0	41	0	588775424	61	4365
2026-01-30 03:54:41.97	242.64	6.07	-45.0	-46.4	24.3	6.03e-01	0	41	0	590872576	61	4276
2026-01-30 03:54:42.97	242.59	5.99	-45.2	-46.6	24.0	6.03e-01	0	41	0	592445440	61	4373
2026-01-30 03:54:43.98	242.54	5.92	-45.2	-46.7	24.0	6.04e-01	0	41	0	594542592	61	4397
2026-01-30 03:54:44.98	242.48	5.84	-45.3	-46.8	23.8	6.00e-01	0	41	0	596639744	61	4449
2026-01-30 03:54:45.99	242.43	5.77	-45.3	-46.7	23.9	6.03e-01	0	41	0	598212608	61	4415
2026-01-30 03:54:46.99	242.38	5.69	-45.2	-46.6	23.9	6.01e-01	0	41	0	600309760	61	4391
2026-01-30 03:54:48.00	242.33	5.62	-45.3	-46.7	23.9	6.02e-01	0	41	0	601882624	61	4401
2026-01-30 03:54:49.01	242.28	5.54	-45.6	-47.0	23.5	6.03e-01	0	41	0	603979776	61	4581
2026-01-30 03:54:50.02	242.23	5.47	-45.2	-46.6	23.9	6.01e-01	0	41	0	605552640	61	4387
2026-01-30 03:54:51.02	242.18	5.40	-45.2	-46.6	23.9	6.04e-01	0	41	0	607649792	61	4365
2026-01-30 03:54:52.03	242.13	5.32	-45.2	-46.6	23.8	6.04e-01	0	41	0	609746944	61	4375
2026-01-30 03:54:53.04	242.08	5.25	-45.3	-46.7	23.8	6.02e-01	0	41	0	611319808	61	4414
2026-01-30 03:54:54.04	242.03	5.18	-45.2	-46.7	23.7	6.04e-01	0	41	0	613416960	61	4395
2026-01-30 03:54:55.05	241.99	5.10	-45.3	-46.8	23.7	6.05e-01	0	41	0	615514112	61	4453
2026-01-30 03:54:56.06	241.94	5.03	-45.4	-46.9	23.5	6.02e-01	0	41	0	617086976	61	4508
2026-01-30 03:54:57.07	241.89	4.96	-53.9	-71.7	3.8	7.46e-01	0	41	104	618135552	78	29526
2026-01-30 03:54:58.08	241.84	4.88	-54.3	-72.1	3.8	7.45e-01	0	41	104	618135552	79	29273
2026-01-30 03:54:59.09	241.79	4.81	-54.5	-72.3	3.8	7.47e-01	0	41	104	618135552	79	29995
2026-01-30 03:55:00.10	241.75	4.74	-54.6	-72.5	3.8	7.44e-01	0	41	104	618135552	79	30484
2026-01-30 03:55:01.11	241.70	4.67	-54.7	-72.5	3.8	7.48e-01	0	41	104	618135552	80	28804
2026-01-30 03:55:02.12	241.65	4.60	-54.8	-72.6	3.8	7.44e-01	0	41	104	618135552	80	29113
2026-01-30 03:55:03.13	241.61	4.52	-54.8	-72.6	3.8	7.46e-01	0	41	104	618135552	80	29067
2026-01-30 03:55:04.13	241.56	4.45	-54.7	-71.0	3.9	7.44e-01	0	41	104	618135552	80	24328
2026-01-30 03:55:05.14	241.51	4.38	-54.8	-71.6	3.9	7.42e-01	0	41	104	618135552	80	25950
2026-01-30 03:55:06.15	241.47	4.31	-54.7	-70.0	4.1	7.47e-01	0	41	104	618135552	80	21749
2026-01-30 03:55:07.16	241.42	4.24	-54.8	-72.6	3.8	7.45e-01	0	41	104	618135552	80	29110
2026-01-30 03:55:08.16	241.38	4.17	-54.7	-72.6	3.8	7.43e-01	0	41	104	618135552	80	29047
2026-01-30 03:55:09.17	241.33	4.10	-54.6	-72.5	3.8	7.46e-01	0	41	104	618135552	80	28685
2026-01-30 03:55:10.18	241.29	4.03	-54.5	-72.3	3.8	7.45e-01	0	42	104	618135552	80	28322
2026-01-30 03:55:11.19	241.24	3.96	-54.6	-72.4	3.8	7.44e-01	0	41	104	618135552	80	28425
2026-01-30 03:55:12.19	241.20	3.89	-54.6	-72.4	3.8	7.46e-01	0	41	104	618135552	80	28595
2026-01-30 03:55:13.20	241.16	3.82	-54.7	-72.4	3.8	7.46e-01	0	41	104	618135552	80	28621
2026-01-30 03:55:14.21	241.11	3.75	-54.7	-72.5	3.8	7.46e-01	0	41	104	618135552	80	28889
2026-01-30 03:55:15.22	241.07	3.68	-54.7	-72.5	3.8	7.46e-01	0	41	104	618135552	80	28968
2026-01-30 03:55:16.22	241.03	3.61	-54.7	-72.5	3.8	7.45e-01	0	41	104	618135552	80	28795
2026-01-30 03:55:17.23	240.98	3.54	-54.8	-72.6	3.8	7.46e-01	0	41	104	618135552	80	29113
2026-01-30 03:55:18.24	240.94	3.48	-54.8	-72.6	3.8	7.40e-01	0	41	104	618135552	80	29065
2026-01-30 03:55:19.25	240.90	3.41	-54.7	-72.5	3.8	7.44e-01	0	41	104	618135552	80	28820
