passes_logs/2026/01/30/R3.2S_Murmansk/R3.2S_Murmansk__20260130_105845_NOAA_21_JPSS-2_rec.log

#Pass ID: 20260130_105845_NOAA 21 (JPSS-2)
#Satellite: NOAA 21 (JPSS-2)
#Configuration: NOAA-21
#almurnet v.1.7.20251203
#Start time: 2026-01-30 10:58:47

#Version: 2.2.20231116
#Station: R3.2S_Murmansk
#Location: 33.079688 lon 68.888172 lat
#TLE: 1 54234U 22150A   26029.46216196  .00000141  00000+0  87503-4 0  9994
#TLE: 2 54234  98.7512 330.1880 0000955 196.3413 163.7732 14.19540905166865

#Time	Az	El	Level	Level2	SNR	BER	BlckErr	Temp	State	Recorded	gain1	gain2
2026-01-30 10:58:47.52	187.68	2.10	-54.6	-67.4	3.8	1.49e+00	0	41	0	0	79	16908
2026-01-30 10:58:48.52	187.72	2.17	-54.6	-67.4	3.8	1.49e+00	0	41	104	0	79	17036
2026-01-30 10:58:49.53	187.77	2.23	-54.6	-67.4	3.8	1.49e+00	0	41	104	0	79	17029
2026-01-30 10:58:50.53	187.81	2.29	-54.6	-67.4	3.8	1.49e+00	0	41	104	0	79	16953
2026-01-30 10:58:51.53	187.85	2.35	-54.6	-67.4	3.8	1.49e+00	0	41	104	0	79	16948
2026-01-30 10:58:52.54	187.90	2.41	-54.6	-67.3	3.8	1.49e+00	0	41	104	0	79	16846
2026-01-30 10:58:53.54	187.95	2.47	-54.5	-67.3	3.8	1.49e+00	0	41	104	0	79	16778
2026-01-30 10:58:54.55	187.99	2.54	-54.5	-67.3	3.8	1.49e+00	0	41	104	0	79	16720
2026-01-30 10:58:55.56	188.04	2.60	-54.5	-67.2	3.8	1.49e+00	0	41	104	0	79	16634
2026-01-30 10:58:56.57	188.08	2.66	-54.4	-67.2	3.8	1.49e+00	0	41	104	0	79	16554
2026-01-30 10:58:57.57	188.13	2.72	-54.4	-67.2	3.8	1.49e+00	0	41	104	0	79	16572
2026-01-30 10:58:58.58	188.17	2.79	-54.4	-67.1	3.8	1.49e+00	0	41	104	0	79	16500
2026-01-30 10:58:59.58	188.22	2.85	-54.4	-67.1	3.8	1.49e+00	0	41	104	0	79	16480
2026-01-30 10:59:00.59	188.27	2.91	-54.3	-67.1	3.8	1.49e+00	0	41	104	0	79	16386
2026-01-30 10:59:01.60	188.31	2.98	-54.3	-67.0	3.8	1.49e+00	0	41	104	0	79	16301
2026-01-30 10:59:02.61	188.36	3.04	-54.3	-67.0	3.8	1.49e+00	0	41	104	0	79	16297
2026-01-30 10:59:03.62	188.41	3.10	-54.2	-67.0	3.8	1.49e+00	0	41	104	0	79	16254
2026-01-30 10:59:04.63	188.45	3.17	-54.2	-67.0	3.8	1.49e+00	0	41	104	0	79	16179
2026-01-30 10:59:05.63	188.50	3.23	-54.2	-67.0	3.8	1.49e+00	0	41	104	0	79	16203
2026-01-30 10:59:06.64	188.55	3.30	-54.2	-67.0	3.8	1.49e+00	0	41	104	0	79	16170
2026-01-30 10:59:07.64	188.60	3.36	-54.3	-67.0	3.8	1.49e+00	0	41	104	0	79	16269
2026-01-30 10:59:08.64	188.64	3.42	-54.3	-67.0	3.8	1.49e+00	0	41	104	0	79	16302
2026-01-30 10:59:09.64	188.69	3.49	-54.3	-67.1	3.8	1.49e+00	0	41	104	0	79	16323
2026-01-30 10:59:10.65	188.74	3.55	-54.3	-67.0	3.8	1.49e+00	0	41	104	0	79	16231
2026-01-30 10:59:11.65	188.79	3.61	-54.2	-67.0	3.8	1.49e+00	0	41	104	0	79	16179
2026-01-30 10:59:12.65	188.84	3.68	-54.2	-67.0	3.8	1.49e+00	0	41	104	0	79	16199
2026-01-30 10:59:13.66	188.89	3.74	-54.2	-67.0	3.8	1.49e+00	0	41	104	0	79	16175
2026-01-30 10:59:14.67	188.94	3.81	-54.2	-67.0	3.8	1.49e+00	0	41	104	0	79	16131
2026-01-30 10:59:15.67	188.99	3.87	-54.2	-67.0	3.8	1.49e+00	0	41	104	0	79	16131
2026-01-30 10:59:16.68	189.03	3.94	-54.2	-67.0	3.8	1.49e+00	0	41	104	0	79	16171
2026-01-30 10:59:17.69	189.08	4.00	-54.2	-66.9	3.8	1.49e+00	0	41	104	0	79	16068
2026-01-30 10:59:18.70	189.13	4.07	-54.2	-66.9	3.8	1.49e+00	0	41	104	0	79	16083
2026-01-30 10:59:19.70	189.18	4.14	-54.2	-66.9	3.8	1.49e+00	0	41	104	0	79	16098
2026-01-30 10:59:20.71	189.24	4.20	-54.2	-66.9	3.8	1.49e+00	0	41	104	0	79	16021
2026-01-30 10:59:21.72	189.29	4.27	-54.1	-66.9	3.8	1.49e+00	0	41	104	0	79	16040
2026-01-30 10:59:22.72	189.34	4.33	-54.1	-66.9	3.8	1.49e+00	0	41	104	0	79	16023
2026-01-30 10:59:23.73	189.39	4.40	-54.1	-66.9	3.8	1.49e+00	0	41	104	0	79	16003
2026-01-30 10:59:24.74	189.44	4.47	-54.1	-66.9	3.8	1.49e+00	0	42	104	0	79	15981
2026-01-30 10:59:25.74	189.49	4.53	-54.1	-66.9	3.8	1.49e+00	0	41	104	0	79	15945
2026-01-30 10:59:26.75	189.54	4.60	-54.1	-66.8	3.8	1.49e+00	0	41	104	0	79	15907
2026-01-30 10:59:27.75	189.59	4.67	-54.1	-66.8	3.8	1.49e+00	0	41	104	0	79	15935
2026-01-30 10:59:28.75	189.65	4.73	-54.1	-66.8	3.8	1.49e+00	0	41	104	0	79	15888
2026-01-30 10:59:29.75	189.70	4.80	-54.1	-66.9	3.8	1.49e+00	0	41	104	0	79	15966
2026-01-30 10:59:30.76	189.75	4.87	-54.1	-66.8	3.8	1.49e+00	0	41	104	0	79	15899
2026-01-30 10:59:31.77	189.80	4.93	-54.1	-66.8	3.8	1.49e+00	0	41	104	0	79	15927
2026-01-30 10:59:32.77	189.86	5.00	-54.1	-66.8	3.8	1.49e+00	0	41	104	0	79	15849
2026-01-30 10:59:33.78	189.91	5.07	-54.0	-66.8	3.8	1.49e+00	0	41	104	0	79	15853
2026-01-30 10:59:34.78	189.96	5.14	-54.0	-66.8	3.8	1.49e+00	0	41	104	0	79	15859
2026-01-30 10:59:35.79	190.02	5.20	-54.0	-66.8	3.8	1.49e+00	0	41	104	0	79	15841
2026-01-30 10:59:36.79	190.07	5.27	-54.0	-66.8	3.8	1.49e+00	0	41	104	0	79	15880
2026-01-30 10:59:37.80	190.12	5.34	-54.0	-66.8	3.8	1.49e+00	0	41	104	0	79	15882
2026-01-30 10:59:38.81	190.18	5.41	-54.0	-66.8	3.8	1.49e+00	0	41	104	0	79	15858
2026-01-30 10:59:39.81	190.23	5.48	-54.0	-66.8	3.8	1.49e+00	0	41	104	0	79	15785
2026-01-30 10:59:40.82	190.29	5.55	-54.0	-66.7	3.8	1.49e+00	0	41	104	0	79	15752
2026-01-30 10:59:41.83	190.34	5.62	-54.0	-66.8	3.8	1.49e+00	0	41	104	0	79	15768
2026-01-30 10:59:42.83	190.40	5.68	-54.0	-66.8	3.8	1.49e+00	0	41	104	0	79	15885
2026-01-30 10:59:43.84	190.45	5.75	-54.1	-66.8	3.8	1.49e+00	0	41	104	0	79	15892
2026-01-30 10:59:44.84	190.51	5.82	-54.0	-66.8	3.8	1.49e+00	0	41	104	0	79	15831
2026-01-30 10:59:45.85	190.57	5.89	-54.0	-66.8	3.8	1.49e+00	0	41	104	0	79	15805
2026-01-30 10:59:46.86	190.62	5.96	-54.0	-66.8	3.8	1.49e+00	0	41	104	0	79	15780
2026-01-30 10:59:47.86	190.68	6.03	-54.0	-66.8	3.8	1.49e+00	0	41	104	0	79	15809
2026-01-30 10:59:48.87	190.74	6.10	-54.0	-66.8	3.8	1.49e+00	0	41	104	0	79	15785
2026-01-30 10:59:49.88	190.79	6.17	-54.0	-66.8	3.8	1.49e+00	0	42	104	0	79	15773
2026-01-30 10:59:50.89	190.85	6.24	-54.1	-66.9	3.8	1.49e+00	0	41	104	0	79	16038
2026-01-30 10:59:51.89	190.91	6.31	-54.3	-67.0	3.8	1.49e+00	0	42	104	0	79	16230
2026-01-30 10:59:52.90	190.97	6.39	-54.3	-67.0	3.8	1.49e+00	0	41	104	0	79	16251
2026-01-30 10:59:53.91	191.02	6.46	-54.3	-67.0	3.8	1.49e+00	0	42	104	0	79	16261
2026-01-30 10:59:54.92	191.08	6.53	-54.3	-67.0	3.8	1.49e+00	0	41	104	0	79	16232
2026-01-30 10:59:55.92	191.14	6.60	-54.3	-67.0	3.8	1.49e+00	0	42	104	0	79	16252
2026-01-30 10:59:56.93	191.20	6.67	-54.2	-67.0	3.8	1.49e+00	0	42	104	0	79	16224
2026-01-30 10:59:57.94	191.26	6.74	-54.2	-67.0	3.8	1.49e+00	0	41	104	0	79	16197
2026-01-30 10:59:58.94	191.32	6.81	-54.2	-66.9	3.8	1.49e+00	0	41	104	0	79	16117
2026-01-30 10:59:59.95	191.38	6.89	-54.2	-66.9	3.8	1.49e+00	0	42	104	0	79	16065
2026-01-30 11:00:00.95	191.44	6.96	-54.2	-66.9	3.8	1.49e+00	0	41	104	0	79	16078
2026-01-30 11:00:01.97	191.50	7.03	-54.1	-66.9	3.8	1.49e+00	0	41	104	0	79	15950
2026-01-30 11:00:02.97	191.56	7.10	-54.1	-66.8	3.8	1.49e+00	0	41	104	0	79	15890
2026-01-30 11:00:03.98	191.62	7.18	-54.0	-66.7	3.8	1.49e+00	0	41	104	0	79	15747
2026-01-30 11:00:04.99	191.68	7.25	-54.0	-66.7	3.8	1.49e+00	0	41	104	0	79	15685
2026-01-30 11:00:06.00	191.74	7.32	-53.9	-66.6	3.8	1.49e+00	0	41	104	0	79	15506
2026-01-30 11:00:07.01	191.80	7.40	-53.8	-66.5	3.8	1.49e+00	0	41	104	0	79	15304
2026-01-30 11:00:08.01	191.87	7.47	-53.7	-66.4	3.8	1.49e+00	0	41	104	0	79	15087
2026-01-30 11:00:09.02	191.93	7.54	-53.6	-66.3	3.8	1.49e+00	0	41	104	0	79	15021
2026-01-30 11:00:10.02	191.99	7.62	-53.5	-66.2	3.8	1.49e+00	0	41	104	0	78	15668
2026-01-30 11:00:11.03	192.05	7.69	-53.2	-66.0	3.8	1.49e+00	0	42	104	0	78	15320
2026-01-30 11:00:12.04	192.12	7.76	-52.8	-63.8	3.8	1.49e+00	0	41	104	0	77	12563
2026-01-30 11:00:13.05	192.18	7.84	-46.3	-47.7	16.5	0.00e+00	0	41	0	1048576	64	4193
2026-01-30 11:00:14.05	192.25	7.91	-52.8	-64.2	3.8	1.42e+00	0	41	104	2097152	76	13977
2026-01-30 11:00:15.05	192.31	7.99	-52.3	-61.1	4.5	1.27e-01	5	41	0	3145728	75	10411
2026-01-30 11:00:16.05	192.37	8.06	-45.7	-47.1	17.2	0.00e+00	0	41	0	4194304	61	4601
2026-01-30 11:00:17.06	192.44	8.14	-51.4	-56.8	7.5	7.46e-02	0	41	0	6291456	73	7073
2026-01-30 11:00:18.07	192.50	8.21	-44.6	-45.7	18.8	0.00e+00	0	41	0	9437184	59	4424
2026-01-30 11:00:19.07	192.57	8.29	-44.1	-45.2	19.2	0.00e+00	0	41	0	12582912	59	4188
2026-01-30 11:00:20.08	192.63	8.36	-44.1	-45.2	19.2	0.00e+00	0	41	0	15728640	59	4191
2026-01-30 11:00:21.08	192.70	8.44	-44.0	-45.1	19.4	0.00e+00	0	41	0	18874368	59	4106
2026-01-30 11:00:22.09	192.77	8.52	-44.0	-45.1	19.4	0.00e+00	0	41	0	22020096	59	4100
2026-01-30 11:00:23.09	192.83	8.59	-44.0	-45.1	19.3	0.00e+00	0	41	0	25165824	59	4136
2026-01-30 11:00:24.10	192.90	8.67	-43.8	-44.9	19.6	0.00e+00	0	41	0	28311552	59	4028
2026-01-30 11:00:25.10	192.97	8.74	-43.8	-44.9	19.6	0.00e+00	0	41	0	31457280	59	4028
2026-01-30 11:00:26.11	193.03	8.82	-43.5	-44.5	20.0	0.00e+00	0	41	0	34603008	59	3847
2026-01-30 11:00:27.11	193.10	8.90	-43.6	-44.6	19.8	0.00e+00	0	41	0	37748736	58	4145
2026-01-30 11:00:28.11	193.17	8.98	-43.5	-44.5	20.0	0.00e+00	0	41	0	40894464	58	4092
2026-01-30 11:00:29.12	193.24	9.05	-43.5	-44.5	20.1	0.00e+00	0	41	0	44040192	58	4058
2026-01-30 11:00:30.12	193.31	9.13	-43.4	-44.4	20.1	0.00e+00	0	41	0	48234496	58	4020
2026-01-30 11:00:31.13	193.38	9.21	-43.6	-44.6	20.0	0.00e+00	0	41	0	51380224	58	4108
2026-01-30 11:00:32.13	193.45	9.29	-43.6	-44.6	20.0	0.00e+00	0	41	0	54525952	58	4120
2026-01-30 11:00:33.14	193.52	9.36	-43.5	-44.5	20.0	0.00e+00	0	41	0	56623104	58	4085
2026-01-30 11:00:34.15	193.59	9.44	-43.6	-44.6	20.0	0.00e+00	0	41	0	59768832	58	4103
2026-01-30 11:00:35.15	193.66	9.52	-43.4	-44.4	20.1	0.00e+00	0	41	0	62914560	58	4023
2026-01-30 11:00:36.16	193.73	9.60	-43.2	-44.2	20.4	0.00e+00	0	41	0	66060288	58	3931
2026-01-30 11:00:37.16	193.80	9.68	-43.3	-44.3	20.3	0.00e+00	0	41	0	69206016	58	3979
2026-01-30 11:00:38.17	193.87	9.76	-43.2	-44.1	20.4	0.00e+00	0	41	0	72351744	58	3908
2026-01-30 11:00:39.18	193.94	9.84	-43.2	-44.1	20.4	0.00e+00	0	41	0	75497472	58	3912
2026-01-30 11:00:40.18	194.02	9.92	-43.1	-44.1	20.5	0.00e+00	0	41	0	78643200	58	3880
2026-01-30 11:00:41.19	194.09	10.00	-43.2	-44.2	20.4	0.00e+00	0	41	0	81788928	58	3931
2026-01-30 11:00:42.20	194.16	10.08	-43.2	-44.1	20.5	0.00e+00	0	41	0	84934656	58	3892
2026-01-30 11:00:43.21	194.24	10.16	-43.3	-44.2	20.4	0.00e+00	0	41	0	88080384	58	3947
2026-01-30 11:00:44.22	194.31	10.24	-43.1	-44.0	20.6	0.00e+00	0	41	0	91226112	58	3858
2026-01-30 11:00:45.23	194.39	10.32	-43.2	-44.2	20.4	0.00e+00	0	42	0	95420416	58	3922
2026-01-30 11:00:46.23	194.46	10.40	-43.0	-44.0	20.6	0.00e+00	0	41	0	98566144	58	3833
2026-01-30 11:00:47.24	194.54	10.49	-43.1	-44.0	20.6	0.00e+00	0	42	0	101711872	58	3857
2026-01-30 11:00:48.24	194.61	10.57	-43.1	-44.1	20.5	0.00e+00	0	41	0	103809024	58	3875
2026-01-30 11:00:49.25	194.69	10.65	-43.1	-44.0	20.5	0.00e+00	0	41	0	106954752	58	3868
2026-01-30 11:00:50.26	194.77	10.73	-42.9	-43.8	20.8	0.00e+00	0	41	0	110100480	57	3986
2026-01-30 11:00:51.27	194.84	10.81	-42.9	-43.9	20.7	0.00e+00	0	41	0	113246208	57	4013
2026-01-30 11:00:52.27	194.92	10.90	-42.9	-43.9	20.7	0.00e+00	0	41	0	116391936	57	4013
2026-01-30 11:00:53.28	195.00	10.98	-42.7	-43.7	20.9	0.00e+00	0	41	0	119537664	57	3917
2026-01-30 11:00:54.29	195.08	11.06	-42.7	-43.6	21.0	0.00e+00	0	41	0	122683392	57	3876
2026-01-30 11:00:55.29	195.15	11.15	-42.7	-43.6	20.9	0.00e+00	0	41	0	125829120	57	3897
2026-01-30 11:00:56.30	195.23	11.23	-42.8	-43.7	20.8	0.00e+00	0	41	0	128974848	57	3958
2026-01-30 11:00:57.31	195.31	11.31	-42.8	-43.7	20.9	0.00e+00	0	41	0	132120576	57	3922
2026-01-30 11:00:58.31	195.39	11.40	-42.7	-43.6	21.0	0.00e+00	0	41	0	135266304	57	3881
2026-01-30 11:00:59.31	195.47	11.48	-42.6	-43.5	21.1	0.00e+00	0	41	0	138412032	57	3825
2026-01-30 11:01:00.32	195.55	11.57	-42.5	-43.4	21.2	0.00e+00	0	41	0	141557760	56	4025
2026-01-30 11:01:01.32	195.63	11.65	-42.6	-43.5	21.1	0.00e+00	0	41	0	145752064	56	4063
2026-01-30 11:01:02.33	195.72	11.73	-42.5	-43.4	21.2	0.00e+00	0	41	0	148897792	56	4017
2026-01-30 11:01:03.33	195.80	11.82	-42.5	-43.4	21.2	0.00e+00	0	41	0	150994944	56	4041
2026-01-30 11:01:04.34	195.88	11.91	-42.5	-43.4	21.2	0.00e+00	0	41	0	154140672	56	4027
2026-01-30 11:01:05.35	195.96	11.99	-42.3	-43.1	21.4	0.00e+00	0	41	0	157286400	56	3913
2026-01-30 11:01:06.36	196.05	12.08	-42.3	-43.1	21.4	0.00e+00	0	41	0	160432128	56	3898
2026-01-30 11:01:07.36	196.13	12.16	-42.2	-43.1	21.5	0.00e+00	0	41	0	163577856	56	3879
2026-01-30 11:01:08.37	196.22	12.25	-42.2	-43.1	21.5	0.00e+00	0	41	0	166723584	56	3890
2026-01-30 11:01:09.38	196.30	12.34	-42.3	-43.1	21.4	0.00e+00	0	41	0	169869312	56	3908
2026-01-30 11:01:10.38	196.39	12.42	-42.2	-43.1	21.5	0.00e+00	0	41	0	173015040	56	3876
2026-01-30 11:01:11.39	196.47	12.51	-42.1	-43.0	21.6	0.00e+00	0	41	0	176160768	56	3828
2026-01-30 11:01:12.40	196.56	12.60	-42.1	-43.0	21.5	0.00e+00	0	41	0	179306496	56	3833
2026-01-30 11:01:13.40	196.64	12.69	-42.3	-43.1	21.5	0.00e+00	0	42	0	182452224	56	3894
2026-01-30 11:01:14.41	196.73	12.77	-42.1	-42.9	21.6	0.00e+00	0	41	0	185597952	56	3808
2026-01-30 11:01:15.42	196.82	12.86	-42.0	-42.9	21.6	0.00e+00	0	41	0	188743680	56	3799
2026-01-30 11:01:16.42	196.91	12.95	-42.1	-43.0	21.6	0.00e+00	0	41	0	192937984	56	3835
2026-01-30 11:01:17.43	197.00	13.04	-42.1	-42.9	21.6	0.00e+00	0	41	0	196083712	56	3821
2026-01-30 11:01:18.44	197.09	13.13	-42.1	-42.9	21.6	0.00e+00	0	41	0	198180864	56	3817
2026-01-30 11:01:19.45	197.18	13.22	-42.0	-42.9	21.7	0.00e+00	0	41	0	201326592	56	3796
2026-01-30 11:01:20.46	197.27	13.31	-42.0	-42.9	21.7	0.00e+00	0	41	0	204472320	56	3793
2026-01-30 11:01:21.47	197.36	13.40	-42.1	-43.0	21.6	0.00e+00	0	41	0	207618048	56	3844
2026-01-30 11:01:22.47	197.45	13.49	-42.0	-42.8	21.7	0.00e+00	0	41	0	210763776	56	3775
2026-01-30 11:01:23.48	197.54	13.58	-42.0	-42.9	21.7	0.00e+00	0	41	0	213909504	56	3797
2026-01-30 11:01:24.49	197.63	13.67	-42.1	-43.0	21.6	0.00e+00	0	41	0	217055232	56	3832
2026-01-30 11:01:25.50	197.73	13.76	-42.1	-42.9	21.7	0.00e+00	0	41	0	220200960	56	3803
2026-01-30 11:01:26.50	197.82	13.85	-42.1	-42.9	21.7	0.00e+00	0	41	0	223346688	56	3821
2026-01-30 11:01:27.50	197.91	13.94	-42.0	-42.9	21.7	0.00e+00	0	41	0	226492416	56	3796
2026-01-30 11:01:28.51	198.01	14.04	-42.0	-42.8	21.7	0.00e+00	0	41	0	229638144	56	3778
2026-01-30 11:01:29.52	198.10	14.13	-41.9	-42.7	21.8	0.00e+00	0	41	0	232783872	55	3947
2026-01-30 11:01:30.53	198.20	14.22	-41.8	-42.6	21.9	0.00e+00	0	41	0	236978176	55	3908
2026-01-30 11:01:31.53	198.30	14.31	-41.9	-42.7	21.8	0.00e+00	0	41	0	240123904	55	3947
2026-01-30 11:01:32.54	198.39	14.41	-41.8	-42.6	21.9	0.00e+00	0	41	0	243269632	55	3889
2026-01-30 11:01:33.55	198.49	14.50	-41.9	-42.7	21.8	0.00e+00	0	41	0	245366784	55	3936
2026-01-30 11:01:34.55	198.59	14.59	-41.9	-42.8	21.7	0.00e+00	0	41	0	248512512	55	3966
2026-01-30 11:01:35.56	198.69	14.69	-41.9	-42.7	21.8	0.00e+00	0	41	0	251658240	55	3926
2026-01-30 11:01:36.56	198.79	14.78	-42.0	-42.9	21.7	0.00e+00	0	41	0	254803968	55	4016
2026-01-30 11:01:37.56	198.89	14.87	-41.9	-42.7	21.8	0.00e+00	0	41	0	257949696	55	3937
2026-01-30 11:01:38.57	198.99	14.97	-42.0	-42.8	21.7	0.00e+00	0	41	0	261095424	55	4003
2026-01-30 11:01:39.58	199.09	15.06	-42.0	-42.9	21.7	0.00e+00	0	41	0	264241152	55	4005
2026-01-30 11:01:40.59	199.19	15.16	-41.9	-42.7	21.8	0.00e+00	0	41	0	267386880	55	3949
2026-01-30 11:01:41.59	199.29	15.25	-42.0	-42.8	21.7	0.00e+00	0	41	0	270532608	55	4004
2026-01-30 11:01:42.60	199.40	15.35	-42.0	-42.9	21.7	0.00e+00	0	41	0	273678336	55	4007
2026-01-30 11:01:43.61	199.50	15.45	-42.0	-42.9	21.7	0.00e+00	0	41	0	276824064	55	4018
2026-01-30 11:01:44.61	199.60	15.54	-42.1	-42.9	21.7	0.00e+00	0	41	0	279969792	55	4034
2026-01-30 11:01:45.62	199.71	15.64	-42.1	-42.9	21.7	0.00e+00	0	41	0	283115520	55	4029
2026-01-30 11:01:46.63	199.81	15.74	-42.1	-42.9	21.7	0.00e+00	0	41	0	287309824	55	4024
2026-01-30 11:01:47.63	199.92	15.83	-42.1	-42.9	21.7	0.00e+00	0	41	0	290455552	55	4041
2026-01-30 11:01:48.64	200.03	15.93	-42.1	-42.9	21.7	0.00e+00	0	41	0	292552704	55	4044
2026-01-30 11:01:49.64	200.13	16.03	-42.1	-43.0	21.6	0.00e+00	0	41	0	295698432	55	4061
2026-01-30 11:01:50.65	200.24	16.13	-42.1	-42.9	21.6	0.00e+00	0	41	0	298844160	55	4045
2026-01-30 11:01:51.65	200.35	16.23	-42.1	-43.0	21.6	0.00e+00	0	41	0	301989888	55	4054
2026-01-30 11:01:52.66	200.46	16.32	-42.2	-43.0	21.6	0.00e+00	0	41	0	305135616	55	4083
2026-01-30 11:01:53.67	200.57	16.42	-42.2	-43.0	21.6	0.00e+00	0	41	0	308281344	55	4080
2026-01-30 11:01:54.67	200.68	16.52	-53.2	-65.9	3.8	0.00e+00	2	41	0	311427072	71	22633
2026-01-30 11:01:55.68	200.79	16.62	-53.1	-65.6	3.8	1.49e+00	0	41	104	311427072	77	15563
2026-01-30 11:01:56.69	200.91	16.72	-52.9	-65.2	3.8	1.49e+00	0	41	104	311427072	77	14793
2026-01-30 11:01:57.70	201.02	16.82	-52.9	-64.4	3.8	1.49e+00	0	41	104	311427072	77	13512
2026-01-30 11:01:58.70	201.13	16.92	-52.8	-62.5	4.1	1.48e+00	0	41	104	311427072	77	10824
2026-01-30 11:01:59.71	201.25	17.02	-53.0	-64.6	3.8	1.47e+00	0	41	104	311427072	77	13820
2026-01-30 11:02:00.72	201.36	17.13	-52.9	-63.0	4.0	1.47e+00	0	41	104	311427072	77	11470
2026-01-30 11:02:01.72	201.48	17.23	-49.6	-52.3	12.4	9.91e-05	0	41	0	313524224	70	5034
2026-01-30 11:02:02.73	201.60	17.33	-47.6	-49.3	15.3	7.00e-07	0	41	0	316669952	67	4239
2026-01-30 11:02:03.73	201.71	17.43	-45.3	-46.5	18.2	0.00e+00	0	41	0	319815680	62	4093
2026-01-30 11:02:04.74	201.83	17.53	-44.9	-46.1	18.6	0.00e+00	0	41	0	322961408	61	4120
2026-01-30 11:02:05.74	201.95	17.64	-44.3	-45.4	19.3	0.00e+00	0	41	0	326107136	60	4037
2026-01-30 11:02:06.75	202.07	17.74	-44.0	-45.0	19.6	0.00e+00	0	41	0	329252864	60	3864
2026-01-30 11:02:07.76	202.19	17.84	-43.7	-44.7	20.3	0.00e+00	0	41	0	332398592	59	3919
2026-01-30 11:02:08.77	202.31	17.95	-43.1	-44.0	20.8	0.00e+00	0	41	0	335544320	58	3859
2026-01-30 11:02:09.77	202.43	18.05	-42.8	-43.7	21.1	0.00e+00	0	41	0	338690048	57	3931
2026-01-30 11:02:10.78	202.56	18.16	-42.9	-43.8	21.0	0.00e+00	0	41	0	341835776	57	3982
2026-01-30 11:02:11.79	202.68	18.26	-42.8	-43.7	21.1	0.00e+00	0	41	0	344981504	57	3951
2026-01-30 11:02:12.79	202.81	18.36	-42.6	-43.5	21.3	0.00e+00	0	41	0	348127232	57	3852
2026-01-30 11:02:13.80	202.93	18.47	-42.5	-43.4	21.4	0.00e+00	0	41	0	351272960	57	3794
2026-01-30 11:02:14.81	203.06	18.58	-42.5	-43.4	21.4	0.00e+00	0	41	0	354418688	57	3794
2026-01-30 11:02:15.81	203.19	18.68	-42.4	-43.2	21.6	0.00e+00	0	41	0	357564416	56	3957
2026-01-30 11:02:16.82	203.31	18.79	-42.4	-43.2	21.5	0.00e+00	0	41	0	360710144	56	3950
2026-01-30 11:02:17.83	203.44	18.90	-42.4	-43.2	21.6	0.00e+00	0	41	0	363855872	56	3948
2026-01-30 11:02:18.83	203.57	19.00	-42.4	-43.2	21.5	0.00e+00	0	41	0	367001600	56	3952
2026-01-30 11:02:19.83	203.70	19.11	-42.3	-43.1	21.6	0.00e+00	0	41	0	370147328	56	3892
2026-01-30 11:02:20.84	203.84	19.22	-42.2	-43.0	21.7	0.00e+00	0	41	0	373293056	56	3861
2026-01-30 11:02:21.84	203.97	19.32	-42.2	-43.0	21.7	0.00e+00	0	41	0	376438784	56	3864
2026-01-30 11:02:22.85	204.10	19.43	-42.2	-43.0	21.7	0.00e+00	0	41	0	379584512	56	3861
2026-01-30 11:02:23.86	204.24	19.54	-42.1	-43.0	21.8	0.00e+00	0	41	0	382730240	56	3829
2026-01-30 11:02:24.87	204.37	19.65	-42.1	-42.9	21.8	0.00e+00	0	41	0	385875968	56	3798
2026-01-30 11:02:25.87	204.51	19.76	-42.1	-42.9	21.8	0.00e+00	0	41	0	389021696	56	3814
2026-01-30 11:02:26.88	204.64	19.87	-42.1	-42.9	21.8	0.00e+00	0	41	0	392167424	56	3802
2026-01-30 11:02:27.89	204.78	19.98	-42.0	-42.9	21.8	0.00e+00	0	41	0	395313152	56	3787
2026-01-30 11:02:28.90	204.92	20.09	-41.9	-42.7	21.9	0.00e+00	0	41	0	398458880	55	3942
2026-01-30 11:02:29.90	205.06	20.20	-42.0	-42.8	21.8	0.00e+00	0	41	0	401604608	55	4001
2026-01-30 11:02:30.91	205.20	20.31	-41.8	-42.7	21.9	0.00e+00	0	41	0	404750336	55	3916
2026-01-30 11:02:31.91	205.34	20.42	-41.8	-42.6	21.9	0.00e+00	0	41	0	407896064	55	3901
2026-01-30 11:02:32.92	205.49	20.53	-41.7	-42.6	22.0	0.00e+00	0	41	0	411041792	55	3872
2026-01-30 11:02:33.93	205.63	20.64	-41.7	-42.5	22.0	0.00e+00	0	41	0	414187520	55	3844
2026-01-30 11:02:34.93	205.78	20.76	-41.7	-42.5	22.1	0.00e+00	0	41	0	417333248	55	3833
2026-01-30 11:02:35.94	205.92	20.87	-41.7	-42.5	22.1	0.00e+00	0	41	0	420478976	55	3828
2026-01-30 11:02:36.94	206.07	20.98	-41.7	-42.5	22.1	0.00e+00	0	41	0	423624704	55	3850
2026-01-30 11:02:37.95	206.22	21.09	-41.6	-42.4	22.2	0.00e+00	0	41	0	426770432	55	3817
2026-01-30 11:02:38.96	206.37	21.21	-41.7	-42.5	22.1	0.00e+00	0	41	0	429916160	55	3827
2026-01-30 11:02:39.96	206.52	21.32	-41.5	-42.3	22.3	0.00e+00	0	41	0	433061888	55	3768
2026-01-30 11:02:40.97	206.67	21.44	-41.4	-42.2	22.3	0.00e+00	0	41	0	436207616	54	3943
2026-01-30 11:02:41.98	206.82	21.55	-41.4	-42.2	22.4	0.00e+00	0	41	0	439353344	54	3938
2026-01-30 11:02:42.98	206.97	21.66	-41.4	-42.2	22.4	0.00e+00	0	41	0	442499072	54	3932
2026-01-30 11:02:43.99	207.13	21.78	-41.5	-42.3	22.3	0.00e+00	0	41	0	445644800	54	3974
2026-01-30 11:02:45.00	207.29	21.90	-41.3	-42.1	22.4	0.00e+00	0	41	0	448790528	54	3880
2026-01-30 11:02:46.00	207.44	22.01	-41.3	-42.1	22.4	0.00e+00	0	41	0	451936256	54	3899
2026-01-30 11:02:47.01	207.60	22.13	-41.2	-42.0	22.5	0.00e+00	0	41	0	455081984	54	3853
2026-01-30 11:02:48.02	207.76	22.24	-41.3	-42.0	22.5	0.00e+00	0	41	0	458227712	54	3867
2026-01-30 11:02:49.03	207.92	22.36	-41.2	-42.0	22.5	0.00e+00	0	41	0	461373440	54	3848
2026-01-30 11:02:50.03	208.08	22.48	-41.2	-42.0	22.6	0.00e+00	0	41	0	464519168	54	3833
2026-01-30 11:02:51.04	208.24	22.59	-41.1	-41.9	22.7	0.00e+00	0	41	0	467664896	54	3798
2026-01-30 11:02:52.05	208.41	22.71	-41.0	-41.8	22.7	0.00e+00	0	41	0	470810624	54	3747
2026-01-30 11:02:53.06	208.57	22.83	-41.0	-41.7	22.7	0.00e+00	0	41	0	473956352	53	3957
2026-01-30 11:02:54.07	208.74	22.95	-40.9	-41.7	22.8	0.00e+00	0	41	0	477102080	53	3931
2026-01-30 11:02:55.07	208.91	23.07	-40.9	-41.7	22.8	0.00e+00	0	41	0	480247808	53	3943
2026-01-30 11:02:56.07	209.08	23.18	-40.9	-41.6	22.9	0.00e+00	0	41	0	483393536	53	3913
2026-01-30 11:02:57.08	209.25	23.30	-40.9	-41.7	22.8	0.00e+00	0	41	0	486539264	53	3934
2026-01-30 11:02:58.09	209.42	23.42	-40.7	-41.5	23.0	0.00e+00	0	41	0	489684992	53	3841
2026-01-30 11:02:59.09	209.59	23.54	-40.8	-41.5	23.0	0.00e+00	0	41	0	492830720	53	3864
2026-01-30 11:03:00.10	209.76	23.66	-40.7	-41.5	23.0	0.00e+00	0	41	0	495976448	53	3825
2026-01-30 11:03:01.11	209.94	23.78	-40.8	-41.6	23.0	0.00e+00	0	41	0	499122176	53	3871
2026-01-30 11:03:02.11	210.11	23.90	-40.8	-41.6	23.0	0.00e+00	0	41	0	502267904	53	3877
2026-01-30 11:03:03.12	210.29	24.02	-40.7	-41.5	23.0	0.00e+00	0	41	0	505413632	53	3845
2026-01-30 11:03:04.13	210.47	24.14	-40.8	-41.5	23.0	0.00e+00	0	41	0	508559360	53	3859
2026-01-30 11:03:05.12	210.65	24.26	-40.7	-41.5	23.0	0.00e+00	0	41	0	511705088	53	3838
2026-01-30 11:03:06.13	210.83	24.39	-40.7	-41.5	23.1	0.00e+00	0	41	0	514850816	53	3838
2026-01-30 11:03:07.14	211.02	24.51	-40.8	-41.5	23.1	0.00e+00	0	41	0	517996544	53	3849
2026-01-30 11:03:08.15	211.20	24.63	-40.7	-41.4	23.1	0.00e+00	0	41	0	521142272	53	3812
2026-01-30 11:03:09.15	211.39	24.75	-40.7	-41.4	23.2	0.00e+00	0	41	0	524288000	53	3803
2026-01-30 11:03:10.15	211.57	24.87	-40.7	-41.5	23.1	0.00e+00	0	41	0	527433728	53	3836
2026-01-30 11:03:11.16	211.76	25.00	-40.8	-41.5	23.1	0.00e+00	0	41	0	530579456	53	3846
2026-01-30 11:03:12.17	211.95	25.12	-40.8	-41.5	23.1	0.00e+00	0	41	0	533725184	53	3854
2026-01-30 11:03:13.18	212.14	25.24	-40.7	-41.5	23.1	0.00e+00	0	41	0	536870912	53	3828
2026-01-30 11:03:14.18	212.34	25.37	-40.8	-41.5	23.1	0.00e+00	0	41	0	540016640	53	3856
2026-01-30 11:03:15.19	212.53	25.49	-40.9	-41.6	23.0	0.00e+00	0	41	0	543162368	53	3910
2026-01-30 11:03:16.20	212.73	25.62	-40.9	-41.7	23.0	0.00e+00	0	41	0	546308096	53	3916
2026-01-30 11:03:17.20	212.92	25.74	-41.1	-41.8	22.8	0.00e+00	0	41	0	549453824	53	3990
2026-01-30 11:03:18.21	213.12	25.86	-41.1	-41.8	22.8	0.00e+00	0	41	0	552599552	53	3996
2026-01-30 11:03:19.22	213.33	25.99	-41.2	-42.0	22.7	0.00e+00	0	41	0	555745280	53	4077
2026-01-30 11:03:20.22	213.53	26.11	-41.3	-42.1	22.6	0.00e+00	0	41	0	558891008	53	4108
2026-01-30 11:03:21.23	213.73	26.24	-41.4	-42.2	22.6	0.00e+00	0	41	0	562036736	53	4164
2026-01-30 11:03:22.23	213.93	26.36	-41.4	-42.2	22.5	0.00e+00	0	41	0	565182464	53	4185
2026-01-30 11:03:23.24	214.14	26.49	-41.5	-42.3	22.5	0.00e+00	0	41	0	568328192	53	4206
2026-01-30 11:03:24.25	214.35	26.61	-41.6	-42.4	22.4	0.00e+00	0	41	0	571473920	53	4243
2026-01-30 11:03:25.25	214.56	26.74	-41.7	-42.5	22.3	0.00e+00	0	41	0	574619648	53	4303
2026-01-30 11:03:26.26	214.77	26.87	-41.7	-42.4	22.3	0.00e+00	0	42	0	577765376	53	4290
2026-01-30 11:03:27.26	214.98	26.99	-41.8	-42.6	22.2	0.00e+00	0	41	0	580911104	54	4130
2026-01-30 11:03:28.27	215.20	27.12	-41.8	-42.6	22.2	0.00e+00	0	41	0	584056832	54	4145
2026-01-30 11:03:29.28	215.42	27.25	-42.0	-42.8	22.0	0.00e+00	0	41	0	587202560	54	4228
2026-01-30 11:03:30.29	215.64	27.37	-42.0	-42.8	22.0	0.00e+00	0	41	0	590348288	54	4227
2026-01-30 11:03:31.29	215.85	27.50	-42.1	-42.9	21.9	0.00e+00	0	41	0	593494016	54	4267
2026-01-30 11:03:32.30	216.08	27.63	-42.1	-43.0	21.9	0.00e+00	0	41	0	596639744	54	4296
2026-01-30 11:03:33.30	216.30	27.75	-42.1	-43.0	21.9	0.00e+00	0	41	0	599785472	54	4299
2026-01-30 11:03:34.31	216.53	27.88	-42.4	-43.2	21.7	0.00e+00	0	41	0	602931200	55	4171
2026-01-30 11:03:35.31	216.75	28.01	-42.1	-42.9	21.9	0.00e+00	0	41	0	606076928	55	4037
2026-01-30 11:03:36.32	216.98	28.14	-42.1	-42.9	22.0	0.00e+00	0	41	0	609222656	55	4019
2026-01-30 11:03:37.33	217.21	28.26	-42.1	-42.9	21.9	0.00e+00	0	41	0	612368384	55	4041
2026-01-30 11:03:38.34	217.44	28.39	-42.1	-42.9	21.9	0.00e+00	0	41	0	615514112	55	4046
2026-01-30 11:03:39.34	217.68	28.52	-42.1	-42.9	22.0	0.00e+00	0	41	0	618659840	55	4014
2026-01-30 11:03:40.35	217.91	28.65	-42.0	-42.8	22.0	0.00e+00	0	41	0	621805568	55	4004
2026-01-30 11:03:41.35	218.15	28.77	-41.9	-42.7	22.1	0.00e+00	0	41	0	624951296	55	3953
2026-01-30 11:03:42.36	218.39	28.90	-42.0	-42.8	22.0	0.00e+00	0	41	0	628097024	55	3986
2026-01-30 11:03:43.37	218.63	29.03	-42.0	-42.8	22.0	0.00e+00	0	41	0	631242752	55	3995
2026-01-30 11:03:44.37	218.87	29.16	-41.9	-42.7	22.1	0.00e+00	0	41	0	634388480	55	3958
2026-01-30 11:03:45.38	219.12	29.29	-41.9	-42.7	22.1	0.00e+00	0	41	0	637534208	55	3932
2026-01-30 11:03:46.38	219.37	29.41	-41.8	-42.6	22.2	0.00e+00	0	41	0	640679936	55	3881
2026-01-30 11:03:47.39	219.62	29.54	-41.7	-42.5	22.3	0.00e+00	0	41	0	643825664	55	3855
2026-01-30 11:03:48.40	219.87	29.67	-41.8	-42.6	22.2	0.00e+00	0	41	0	646971392	55	3873
2026-01-30 11:03:49.40	220.12	29.80	-41.6	-42.4	22.3	0.00e+00	0	41	0	650117120	55	3819
2026-01-30 11:03:50.41	220.38	29.93	-41.7	-42.5	22.3	0.00e+00	0	41	0	653262848	55	3836
2026-01-30 11:03:51.42	220.63	30.06	-41.8	-42.6	22.2	0.00e+00	0	41	0	656408576	55	3886
2026-01-30 11:03:52.43	220.89	30.18	-41.9	-42.7	22.2	0.00e+00	0	41	0	659554304	55	3925
2026-01-30 11:03:53.43	221.15	30.31	-41.8	-42.6	22.2	0.00e+00	0	41	0	662700032	55	3886
2026-01-30 11:03:54.44	221.42	30.44	-41.6	-42.4	22.4	0.00e+00	0	41	0	665845760	55	3803
2026-01-30 11:03:55.45	221.68	30.57	-41.6	-42.3	22.5	0.00e+00	0	41	0	668991488	55	3778
2026-01-30 11:03:56.45	221.95	30.69	-41.4	-42.2	22.5	0.00e+00	0	41	0	672137216	54	3935
2026-01-30 11:03:57.46	222.22	30.82	-41.5	-42.3	22.5	0.00e+00	0	41	0	675282944	54	3976
2026-01-30 11:03:58.47	222.49	30.95	-41.6	-42.4	22.4	0.00e+00	0	41	0	678428672	54	4013
2026-01-30 11:03:59.47	222.76	31.08	-41.6	-42.4	22.4	0.00e+00	0	41	0	681574400	54	4007
2026-01-30 11:04:00.48	223.04	31.21	-41.7	-42.5	22.2	0.00e+00	0	41	0	684720128	54	4088
2026-01-30 11:04:01.49	223.32	31.33	-41.7	-42.4	22.3	0.00e+00	0	41	0	687865856	54	4046
2026-01-30 11:04:02.50	223.60	31.46	-41.8	-42.6	22.2	0.00e+00	0	41	0	691011584	54	4124
2026-01-30 11:04:03.51	223.88	31.59	-41.8	-42.7	22.1	0.00e+00	0	41	0	694157312	54	4148
2026-01-30 11:04:04.51	224.16	31.71	-41.8	-42.6	22.2	0.00e+00	0	41	0	697303040	54	4127
2026-01-30 11:04:05.52	224.45	31.84	-41.9	-42.7	22.2	0.00e+00	0	41	0	700448768	54	4156
2026-01-30 11:04:06.53	224.74	31.97	-41.9	-42.7	22.1	0.00e+00	0	41	0	703594496	54	4188
2026-01-30 11:04:07.53	225.03	32.09	-42.0	-42.8	22.1	0.00e+00	0	41	0	706740224	54	4229
2026-01-30 11:04:08.55	225.33	32.22	-42.0	-42.8	22.1	0.00e+00	0	41	0	709885952	54	4241
2026-01-30 11:04:09.55	225.62	32.34	-42.0	-42.9	22.1	0.00e+00	0	41	0	713031680	54	4245
2026-01-30 11:04:10.55	225.91	32.47	-42.0	-42.9	22.0	0.00e+00	0	41	0	716177408	54	4252
2026-01-30 11:04:11.56	226.22	32.59	-42.1	-43.0	22.0	0.00e+00	0	41	0	719323136	54	4295
2026-01-30 11:04:12.57	226.52	32.72	-42.0	-42.9	22.0	0.00e+00	0	41	0	722468864	54	4250
2026-01-30 11:04:13.58	226.82	32.84	-42.1	-42.9	22.0	0.00e+00	0	41	0	725614592	54	4291
2026-01-30 11:04:14.58	227.13	32.96	-42.2	-43.0	21.9	0.00e+00	0	41	0	728760320	54	4315
2026-01-30 11:04:15.59	227.44	33.09	-42.1	-42.9	22.0	0.00e+00	0	41	0	731906048	54	4277
2026-01-30 11:04:16.60	227.75	33.21	-42.1	-42.9	22.0	0.00e+00	0	41	0	735051776	54	4268
2026-01-30 11:04:17.60	228.06	33.33	-42.1	-43.0	22.0	0.00e+00	0	41	0	738197504	54	4294
2026-01-30 11:04:18.61	228.38	33.45	-42.1	-43.0	22.0	0.00e+00	0	41	0	741343232	54	4296
2026-01-30 11:04:19.62	228.70	33.57	-42.2	-43.1	21.8	0.00e+00	0	41	0	744488960	55	4110
2026-01-30 11:04:20.62	229.01	33.69	-42.4	-43.2	21.8	0.00e+00	0	41	0	747634688	55	4182
2026-01-30 11:04:21.62	229.34	33.81	-42.4	-43.2	21.8	0.00e+00	0	41	0	750780416	55	4180
2026-01-30 11:04:22.63	229.66	33.93	-42.3	-43.2	21.8	0.00e+00	0	41	0	753926144	55	4148
2026-01-30 11:04:23.64	229.99	34.05	-42.4	-43.2	21.8	0.00e+00	0	41	0	757071872	55	4170
2026-01-30 11:04:24.64	230.32	34.17	-42.5	-43.3	21.7	0.00e+00	0	41	0	760217600	55	4217
2026-01-30 11:04:25.65	230.65	34.29	-42.6	-43.4	21.6	0.00e+00	0	41	0	763363328	55	4289
2026-01-30 11:04:26.65	230.98	34.41	-42.7	-43.5	21.4	0.00e+00	0	41	0	766509056	55	4335
2026-01-30 11:04:27.66	231.32	34.52	-42.8	-43.7	21.4	0.00e+00	0	41	0	769654784	56	4165
2026-01-30 11:04:28.67	231.66	34.64	-42.8	-43.7	21.4	0.00e+00	0	41	0	772800512	56	4165
2026-01-30 11:04:29.67	232.00	34.76	-43.0	-43.9	21.2	0.00e+00	0	41	0	775946240	56	4258
2026-01-30 11:04:30.68	232.34	34.87	-43.1	-44.0	21.1	0.00e+00	0	41	0	779091968	56	4321
2026-01-30 11:04:31.69	232.69	34.98	-43.3	-44.2	21.0	0.00e+00	0	41	0	782237696	57	4170
2026-01-30 11:04:32.69	233.04	35.10	-43.3	-44.2	21.0	0.00e+00	0	41	0	785383424	57	4191
2026-01-30 11:04:33.70	233.39	35.21	-43.4	-44.4	20.8	0.00e+00	0	41	0	788529152	57	4252
2026-01-30 11:04:34.71	233.75	35.32	-43.5	-44.4	20.8	0.00e+00	0	41	0	791674880	57	4264
2026-01-30 11:04:35.71	234.10	35.43	-43.5	-44.4	20.8	0.00e+00	0	41	0	794820608	57	4289
2026-01-30 11:04:36.72	234.46	35.54	-43.4	-44.3	20.9	0.00e+00	0	41	0	797966336	57	4235
2026-01-30 11:04:37.73	234.82	35.65	-43.3	-44.2	21.0	0.00e+00	0	41	0	801112064	57	4191
2026-01-30 11:04:38.73	235.18	35.76	-43.3	-44.2	21.0	0.00e+00	0	41	0	804257792	57	4188
2026-01-30 11:04:39.74	235.55	35.87	-43.2	-44.1	21.1	0.00e+00	0	41	0	807403520	57	4144
2026-01-30 11:04:40.75	235.92	35.98	-43.3	-44.2	21.0	0.00e+00	0	41	0	810549248	57	4154
2026-01-30 11:04:41.76	236.29	36.08	-43.4	-44.3	21.0	0.00e+00	0	41	0	813694976	57	4203
2026-01-30 11:04:42.77	236.66	36.19	-43.5	-44.4	20.8	0.00e+00	0	41	0	816840704	57	4275
2026-01-30 11:04:43.77	237.03	36.29	-43.6	-44.6	20.7	0.00e+00	0	41	0	819986432	57	4346
2026-01-30 11:04:44.78	237.41	36.39	-43.8	-44.7	20.6	0.00e+00	0	41	0	823132160	58	4192
2026-01-30 11:04:45.79	237.79	36.49	-43.7	-44.7	20.6	0.00e+00	0	41	0	826277888	58	4167
2026-01-30 11:04:46.79	238.17	36.59	-43.7	-44.6	20.6	0.00e+00	0	41	0	829423616	58	4135
2026-01-30 11:04:47.80	238.56	36.69	-43.5	-44.5	20.7	0.00e+00	0	41	0	832569344	58	4054
2026-01-30 11:04:48.81	238.94	36.79	-43.4	-44.4	20.7	0.00e+00	0	41	0	835715072	58	4013
2026-01-30 11:04:49.81	239.33	36.89	-43.4	-44.4	20.7	0.00e+00	0	41	0	838860800	58	4006
2026-01-30 11:04:50.82	239.72	36.98	-43.6	-44.6	20.6	0.00e+00	0	41	0	842006528	58	4105
2026-01-30 11:04:51.83	240.12	37.08	-43.5	-44.4	20.9	0.00e+00	0	41	0	845152256	58	4021
2026-01-30 11:04:52.84	240.51	37.17	-43.6	-44.5	20.8	0.00e+00	0	41	0	848297984	58	4070
2026-01-30 11:04:53.85	240.91	37.27	-43.4	-44.3	20.9	0.00e+00	0	41	0	851443712	58	4003
2026-01-30 11:04:54.85	241.31	37.36	-43.4	-44.3	20.9	0.00e+00	0	41	0	854589440	58	3980
2026-01-30 11:04:55.86	241.71	37.45	-43.5	-44.4	20.8	0.00e+00	0	41	0	857735168	58	4019
2026-01-30 11:04:56.86	242.11	37.53	-43.5	-44.4	20.6	0.00e+00	0	41	0	860880896	58	4045
2026-01-30 11:04:57.87	242.52	37.62	-43.5	-44.4	20.7	0.00e+00	0	41	0	864026624	58	4049
2026-01-30 11:04:58.88	242.93	37.71	-43.2	-44.1	21.0	0.00e+00	0	41	0	867172352	58	3905
2026-01-30 11:04:59.89	243.34	37.79	-43.1	-44.0	21.2	0.00e+00	0	41	0	870318080	58	3835
2026-01-30 11:05:00.90	243.76	37.87	-43.2	-44.1	21.1	0.00e+00	0	41	0	873463808	58	3874
2026-01-30 11:05:01.90	244.17	37.96	-43.3	-44.2	20.9	0.00e+00	0	41	0	876609536	58	3949
2026-01-30 11:05:02.91	244.59	38.04	-43.7	-44.6	20.6	0.00e+00	0	41	0	879755264	58	4120
2026-01-30 11:05:03.91	245.00	38.11	-43.8	-44.8	20.4	0.00e+00	0	41	0	882900992	58	4226
2026-01-30 11:05:04.92	245.42	38.19	-43.8	-44.7	20.5	0.00e+00	0	41	0	886046720	58	4184
2026-01-30 11:05:05.93	245.85	38.27	-43.4	-44.3	20.9	0.00e+00	0	41	0	889192448	58	3986
2026-01-30 11:05:06.93	246.27	38.34	-43.3	-44.1	21.1	0.00e+00	0	41	0	892338176	58	3906
2026-01-30 11:05:07.94	246.70	38.41	-43.3	-44.2	21.1	0.00e+00	0	41	0	895483904	58	3925
2026-01-30 11:05:08.95	247.13	38.48	-43.5	-44.4	20.9	0.00e+00	0	41	0	898629632	58	4041
2026-01-30 11:05:09.96	247.56	38.55	-43.8	-44.8	20.5	0.00e+00	0	41	0	901775360	58	4210
2026-01-30 11:05:10.96	247.99	38.62	-44.1	-45.1	20.3	0.00e+00	0	41	0	904921088	58	4359
2026-01-30 11:05:11.97	248.42	38.69	-44.2	-45.2	20.2	0.00e+00	0	41	0	908066816	59	4171
2026-01-30 11:05:12.98	248.86	38.75	-44.2	-45.2	20.2	0.00e+00	0	41	0	911212544	59	4167
2026-01-30 11:05:13.98	249.29	38.81	-44.2	-45.2	20.1	0.00e+00	0	41	0	914358272	59	4185
2026-01-30 11:05:14.99	249.73	38.87	-44.1	-45.1	20.2	0.00e+00	0	41	0	917504000	59	4128
2026-01-30 11:05:15.99	250.17	38.93	-44.1	-45.1	20.1	0.00e+00	0	41	0	920649728	59	4130
2026-01-30 11:05:17.00	250.61	38.99	-44.2	-45.2	20.2	0.00e+00	0	41	0	923795456	59	4158
2026-01-30 11:05:18.01	251.06	39.04	-44.1	-45.0	20.3	0.00e+00	0	41	0	926941184	59	4087
2026-01-30 11:05:19.02	251.50	39.10	-44.1	-45.0	20.4	0.00e+00	0	41	0	930086912	59	4091
2026-01-30 11:05:20.02	251.94	39.15	-44.1	-45.1	20.3	0.00e+00	0	41	0	933232640	59	4105
2026-01-30 11:05:21.03	252.39	39.20	-44.4	-45.4	20.1	0.00e+00	0	41	0	936378368	59	4262
2026-01-30 11:05:22.03	252.84	39.25	-44.4	-45.4	20.1	0.00e+00	0	41	0	939524096	59	4267
2026-01-30 11:05:23.04	253.29	39.29	-44.1	-45.1	20.3	0.00e+00	0	41	0	942669824	59	4110
2026-01-30 11:05:24.05	253.74	39.34	-43.9	-44.9	20.5	0.00e+00	0	41	0	945815552	59	4036
2026-01-30 11:05:25.06	254.20	39.38	-44.0	-45.0	20.3	0.00e+00	0	41	0	948961280	59	4069
2026-01-30 11:05:26.07	254.65	39.42	-44.0	-44.9	20.5	0.00e+00	0	41	0	952107008	59	4049
2026-01-30 11:05:27.08	255.11	39.46	-44.1	-45.1	20.3	0.00e+00	0	41	0	955252736	59	4102
2026-01-30 11:05:28.08	255.56	39.49	-44.0	-45.0	20.4	0.00e+00	0	41	0	958398464	59	4073
2026-01-30 11:05:29.09	256.02	39.53	-43.9	-44.9	20.5	0.00e+00	0	41	0	961544192	59	4016
2026-01-30 11:05:30.10	256.48	39.56	-44.0	-45.0	20.5	0.00e+00	0	41	0	964689920	59	4052
2026-01-30 11:05:31.10	256.93	39.59	-44.1	-45.0	20.4	0.00e+00	0	41	0	967835648	59	4097
2026-01-30 11:05:32.11	257.39	39.62	-44.1	-45.1	20.3	0.00e+00	0	41	0	970981376	59	4121
2026-01-30 11:05:33.12	257.85	39.65	-44.2	-45.2	20.2	0.00e+00	0	41	0	974127104	59	4187
2026-01-30 11:05:34.13	258.32	39.67	-44.1	-45.1	20.4	0.00e+00	0	41	0	977272832	59	4108
2026-01-30 11:05:35.13	258.77	39.69	-44.0	-45.0	20.5	0.00e+00	0	41	0	980418560	59	4061
2026-01-30 11:05:36.14	259.24	39.71	-44.2	-45.1	20.3	0.00e+00	0	41	0	983564288	59	4140
2026-01-30 11:05:37.15	259.70	39.73	-44.4	-45.4	20.2	0.00e+00	0	41	0	986710016	59	4258
2026-01-30 11:05:38.15	260.16	39.75	-44.3	-45.3	20.1	0.00e+00	0	41	0	989855744	59	4239
2026-01-30 11:05:39.16	260.62	39.76	-44.2	-45.2	20.3	0.00e+00	0	41	0	993001472	59	4153
2026-01-30 11:05:40.17	261.09	39.78	-44.1	-45.1	20.3	0.00e+00	0	41	0	996147200	59	4106
2026-01-30 11:05:41.18	261.56	39.79	-44.1	-45.1	20.4	0.00e+00	0	41	0	999292928	59	4115
2026-01-30 11:05:42.18	262.02	39.79	-44.2	-45.2	20.3	0.00e+00	0	41	0	1002438656	59	4149
2026-01-30 11:05:43.18	262.48	39.80	-44.5	-45.5	20.0	0.00e+00	0	41	0	1005584384	59	4303
2026-01-30 11:05:44.19	262.94	39.80	-44.5	-45.5	19.9	0.00e+00	0	41	0	1008730112	59	4324
2026-01-30 11:05:45.20	263.41	39.81	-44.2	-45.1	20.3	0.00e+00	0	41	0	1011875840	59	4133
2026-01-30 11:05:46.21	263.88	39.81	-44.4	-45.4	20.2	0.00e+00	0	41	0	1015021568	59	4247
2026-01-30 11:05:47.22	264.34	39.80	-44.5	-45.6	19.9	0.00e+00	0	41	0	1018167296	59	4345
2026-01-30 11:05:48.23	264.81	39.80	-44.4	-45.4	19.8	0.00e+00	0	41	0	1021313024	60	4017
2026-01-30 11:05:49.24	265.27	39.79	-44.5	-45.6	19.6	0.00e+00	0	41	0	1024458752	60	4116
2026-01-30 11:05:50.25	265.74	39.78	-44.5	-45.6	19.7	0.00e+00	0	41	0	1027604480	60	4113
2026-01-30 11:05:51.25	266.20	39.77	-44.2	-45.2	20.0	0.00e+00	0	41	0	1030750208	60	3931
2026-01-30 11:05:52.26	266.66	39.76	-44.3	-45.3	19.9	0.00e+00	0	41	0	1033895936	60	3981
2026-01-30 11:05:53.27	267.13	39.75	-44.4	-45.4	19.8	0.00e+00	0	41	0	1037041664	60	4041
2026-01-30 11:05:54.27	267.59	39.73	-44.3	-45.3	19.8	0.00e+00	0	41	0	1040187392	60	4001
2026-01-30 11:05:55.28	268.05	39.71	-44.4	-45.4	19.7	0.00e+00	0	41	0	1043333120	60	4037
2026-01-30 11:05:56.28	268.51	39.69	-44.6	-45.6	19.6	0.00e+00	0	41	0	1046478848	60	4115
2026-01-30 11:05:57.29	268.97	39.67	-44.3	-45.3	19.9	0.00e+00	0	41	0	1049624576	60	3983
2026-01-30 11:05:58.30	269.43	39.64	-44.2	-45.1	20.0	0.00e+00	0	41	0	1052770304	60	3910
2026-01-30 11:05:59.31	269.90	39.62	-44.5	-45.5	20.1	0.00e+00	0	41	0	1055916032	59	4296
2026-01-30 11:06:00.32	270.36	39.59	-44.5	-45.5	19.8	0.00e+00	0	41	0	1059061760	59	4319
2026-01-30 11:06:01.32	270.81	39.56	-44.4	-45.5	19.7	0.00e+00	0	41	0	1062207488	60	4074
2026-01-30 11:06:02.33	271.27	39.52	-44.3	-45.3	20.0	0.00e+00	0	41	0	1065353216	59	4232
2026-01-30 11:06:03.33	271.72	39.49	-44.3	-45.2	20.2	0.00e+00	0	41	0	1068498944	59	4185
2026-01-30 11:06:04.34	272.18	39.45	-44.3	-45.3	20.2	0.00e+00	0	41	0	1071644672	59	4230
2026-01-30 11:06:05.35	272.63	39.41	-44.4	-45.4	20.1	0.00e+00	0	41	0	1074790400	59	4250
2026-01-30 11:06:06.35	273.08	39.37	-44.3	-45.3	20.0	0.00e+00	0	41	0	1077936128	59	4207
2026-01-30 11:06:07.36	273.54	39.33	-44.4	-45.4	20.1	0.00e+00	0	41	0	1081081856	59	4280
2026-01-30 11:06:08.37	273.99	39.29	-44.4	-45.4	20.1	0.00e+00	0	41	0	1084227584	59	4266
2026-01-30 11:06:09.38	274.44	39.24	-44.3	-45.3	20.2	0.00e+00	0	41	0	1087373312	59	4223
2026-01-30 11:06:10.38	274.88	39.19	-44.4	-45.4	19.8	0.00e+00	0	41	0	1090519040	60	4023
2026-01-30 11:06:11.39	275.33	39.14	-44.5	-45.5	19.7	0.00e+00	0	41	0	1093664768	60	4088
2026-01-30 11:06:12.40	275.78	39.09	-44.4	-45.5	19.8	0.00e+00	0	41	0	1096810496	60	4062
2026-01-30 11:06:13.41	276.22	39.04	-44.1	-45.1	20.2	0.00e+00	0	41	0	1099956224	60	3869
2026-01-30 11:06:14.41	276.66	38.98	-44.2	-45.2	20.4	0.00e+00	0	41	0	1103101952	59	4152
2026-01-30 11:06:15.42	277.11	38.92	-44.2	-45.2	20.3	0.00e+00	0	41	0	1106247680	59	4171
2026-01-30 11:06:16.43	277.55	38.87	-44.2	-45.1	20.4	0.00e+00	0	41	0	1109393408	59	4138
2026-01-30 11:06:17.43	277.98	38.80	-44.0	-45.0	20.5	0.00e+00	0	41	0	1112539136	59	4069
2026-01-30 11:06:18.44	278.42	38.74	-44.1	-45.1	20.4	0.00e+00	0	41	0	1115684864	59	4123
2026-01-30 11:06:19.45	278.85	38.68	-44.0	-44.9	20.6	0.00e+00	0	41	0	1118830592	59	4051
2026-01-30 11:06:20.45	279.28	38.61	-44.0	-45.0	20.6	0.00e+00	0	41	0	1121976320	59	4060
2026-01-30 11:06:21.45	279.71	38.55	-44.2	-45.2	20.4	0.00e+00	0	41	0	1125122048	59	4149
2026-01-30 11:06:22.46	280.14	38.48	-44.1	-45.0	20.4	0.00e+00	0	41	0	1128267776	59	4098
2026-01-30 11:06:23.47	280.57	38.41	-44.0	-44.9	20.6	0.00e+00	0	41	0	1131413504	59	4046
2026-01-30 11:06:24.48	281.00	38.33	-43.9	-44.9	20.6	0.00e+00	0	41	0	1134559232	59	4018
2026-01-30 11:06:25.49	281.42	38.26	-44.2	-45.2	20.4	0.00e+00	0	41	0	1137704960	59	4171
2026-01-30 11:06:26.50	281.85	38.18	-44.1	-45.1	20.4	0.00e+00	0	41	0	1140850688	59	4100
2026-01-30 11:06:27.51	282.27	38.11	-44.1	-45.0	20.5	0.00e+00	0	41	0	1143996416	59	4085
2026-01-30 11:06:28.51	282.68	38.03	-44.0	-44.9	20.6	0.00e+00	0	41	0	1147142144	59	4048
2026-01-30 11:06:29.52	283.10	37.95	-43.4	-44.3	21.2	0.00e+00	0	41	0	1150287872	58	3960
2026-01-30 11:06:30.53	283.51	37.87	-43.3	-44.1	21.2	0.00e+00	0	41	0	1153433600	58	3899
2026-01-30 11:06:31.53	283.92	37.78	-43.4	-44.3	21.1	0.00e+00	0	41	0	1156579328	58	3996
2026-01-30 11:06:32.55	284.34	37.70	-43.5	-44.4	21.1	0.00e+00	0	41	0	1159725056	58	4014
2026-01-30 11:06:33.55	284.74	37.61	-43.5	-44.4	21.1	0.00e+00	0	41	0	1162870784	58	4028
2026-01-30 11:06:34.56	285.15	37.53	-43.9	-44.8	20.7	0.00e+00	0	41	0	1166016512	58	4238
2026-01-30 11:06:35.56	285.55	37.44	-44.2	-45.2	20.4	0.00e+00	0	41	0	1169162240	58	4406
2026-01-30 11:06:36.57	285.95	37.35	-44.5	-45.5	20.1	0.00e+00	0	41	0	1172307968	59	4319
2026-01-30 11:06:37.58	286.35	37.26	-44.6	-45.6	20.0	0.00e+00	0	41	0	1175453696	59	4367
2026-01-30 11:06:38.59	286.75	37.16	-44.4	-45.4	20.2	0.00e+00	0	41	0	1178599424	59	4258
2026-01-30 11:06:39.60	287.14	37.07	-44.0	-45.0	20.6	0.00e+00	0	42	0	1181745152	59	4059
2026-01-30 11:06:40.61	287.54	36.98	-43.7	-44.6	20.8	0.00e+00	0	41	0	1184890880	59	3892
2026-01-30 11:06:41.61	287.92	36.88	-43.4	-44.3	21.0	0.00e+00	0	41	0	1188036608	58	3992
2026-01-30 11:06:42.62	288.31	36.78	-43.4	-44.3	21.2	0.00e+00	0	41	0	1191182336	58	3966
2026-01-30 11:06:43.62	288.70	36.69	-43.3	-44.2	21.3	0.00e+00	0	41	0	1194328064	58	3916
2026-01-30 11:06:44.63	289.08	36.59	-43.3	-44.1	21.3	0.00e+00	0	41	0	1197473792	58	3908
2026-01-30 11:06:45.64	289.46	36.49	-43.2	-44.1	21.4	0.00e+00	0	41	0	1200619520	58	3876
2026-01-30 11:06:46.65	289.84	36.38	-43.2	-44.0	21.4	0.00e+00	0	41	0	1203765248	58	3868
2026-01-30 11:06:47.65	290.21	36.28	-43.2	-44.1	21.3	0.00e+00	0	41	0	1206910976	58	3900
2026-01-30 11:06:48.65	290.59	36.18	-43.1	-44.0	21.3	0.00e+00	0	41	0	1210056704	58	3833
2026-01-30 11:06:49.66	290.96	36.08	-42.8	-43.7	21.6	0.00e+00	0	41	0	1213202432	57	3914
2026-01-30 11:06:50.67	291.33	35.97	-42.8	-43.7	21.5	0.00e+00	0	41	0	1216348160	57	3922
2026-01-30 11:06:51.68	291.70	35.86	-43.2	-44.0	21.4	0.00e+00	0	41	0	1219493888	57	4085
2026-01-30 11:06:52.69	292.06	35.76	-43.4	-44.3	21.1	0.00e+00	0	41	0	1222639616	57	4241
2026-01-30 11:06:53.69	292.42	35.65	-43.4	-44.3	21.1	0.00e+00	0	41	0	1225785344	57	4238
2026-01-30 11:06:54.69	292.78	35.54	-43.4	-44.3	21.2	0.00e+00	0	41	0	1228931072	57	4209
2026-01-30 11:06:55.70	293.14	35.43	-43.5	-44.4	21.1	0.00e+00	0	41	0	1232076800	57	4253
2026-01-30 11:06:56.70	293.49	35.32	-43.3	-44.2	21.3	0.00e+00	0	41	0	1235222528	57	4165
2026-01-30 11:06:57.71	293.84	35.21	-43.1	-43.9	21.4	0.00e+00	0	41	0	1238368256	57	4035
2026-01-30 11:06:58.72	294.19	35.10	-43.1	-43.9	21.5	0.00e+00	0	41	0	1241513984	57	4050
2026-01-30 11:06:59.73	294.54	34.98	-43.0	-43.9	21.5	0.00e+00	0	41	0	1244659712	57	4012
2026-01-30 11:07:00.73	294.88	34.87	-43.2	-44.1	21.4	0.00e+00	0	41	0	1247805440	57	4102
2026-01-30 11:07:01.74	295.23	34.75	-43.2	-44.1	21.3	0.00e+00	0	41	0	1250951168	57	4131
2026-01-30 11:07:02.75	295.57	34.64	-43.1	-44.0	21.5	0.00e+00	0	41	0	1254096896	57	4068
2026-01-30 11:07:03.76	295.91	34.52	-43.0	-43.9	21.6	0.00e+00	0	41	0	1257242624	57	4012
2026-01-30 11:07:04.77	296.25	34.41	-42.7	-43.6	21.8	0.00e+00	0	41	0	1260388352	57	3870
2026-01-30 11:07:05.78	296.58	34.29	-42.8	-43.6	21.8	0.00e+00	0	41	0	1263534080	57	3901
2026-01-30 11:07:06.78	296.91	34.17	-42.9	-43.8	21.7	0.00e+00	0	41	0	1266679808	57	3963
2026-01-30 11:07:07.79	297.24	34.05	-42.9	-43.8	21.7	0.00e+00	0	41	0	1269825536	57	3971
2026-01-30 11:07:08.79	297.56	33.93	-43.0	-43.8	21.6	0.00e+00	0	41	0	1272971264	57	3990
2026-01-30 11:07:09.80	297.89	33.82	-43.1	-44.0	21.5	0.00e+00	0	41	0	1276116992	57	4053
2026-01-30 11:07:10.81	298.21	33.69	-42.9	-43.7	21.7	0.00e+00	0	41	0	1279262720	57	3951
2026-01-30 11:07:11.82	298.53	33.57	-42.9	-43.8	21.7	0.00e+00	0	41	0	1282408448	57	3975
2026-01-30 11:07:12.83	298.85	33.45	-43.2	-44.1	21.4	0.00e+00	0	41	0	1285554176	57	4118
2026-01-30 11:07:13.83	299.16	33.33	-43.3	-44.2	21.3	0.00e+00	0	41	0	1288699904	57	4163
2026-01-30 11:07:14.83	299.47	33.21	-43.2	-44.0	21.4	0.00e+00	0	41	0	1291845632	57	4095
2026-01-30 11:07:15.84	299.78	33.09	-43.0	-43.9	21.7	0.00e+00	0	41	0	1294991360	57	4015
2026-01-30 11:07:16.85	300.09	32.97	-42.9	-43.7	21.7	0.00e+00	0	41	0	1298137088	57	3958
2026-01-30 11:07:17.85	300.39	32.84	-42.8	-43.6	21.8	0.00e+00	0	41	0	1301282816	57	3912
2026-01-30 11:07:18.86	300.70	32.72	-42.8	-43.7	21.8	0.00e+00	0	41	0	1304428544	57	3926
2026-01-30 11:07:19.87	301.00	32.60	-42.7	-43.5	21.9	0.00e+00	0	41	0	1307574272	57	3857
2026-01-30 11:07:20.87	301.30	32.47	-42.4	-43.2	22.1	0.00e+00	0	41	0	1310720000	56	3954
2026-01-30 11:07:21.88	301.59	32.35	-42.3	-43.1	22.2	0.00e+00	0	41	0	1313865728	56	3904
2026-01-30 11:07:22.89	301.89	32.22	-42.2	-43.0	22.3	0.00e+00	0	41	0	1317011456	56	3843
2026-01-30 11:07:23.89	302.18	32.10	-42.1	-42.9	22.4	0.00e+00	0	41	0	1320157184	56	3804
2026-01-30 11:07:24.90	302.47	31.97	-42.2	-42.9	22.4	0.00e+00	0	41	0	1323302912	56	3819
2026-01-30 11:07:25.91	302.76	31.85	-42.2	-43.0	22.3	0.00e+00	0	41	0	1326448640	56	3836
2026-01-30 11:07:26.92	303.05	31.72	-42.2	-43.0	22.3	0.00e+00	0	41	0	1329594368	56	3857
2026-01-30 11:07:27.93	303.33	31.60	-42.1	-42.9	22.3	0.00e+00	0	41	0	1332740096	56	3808
2026-01-30 11:07:28.93	303.61	31.47	-42.0	-42.8	22.3	0.00e+00	0	41	0	1335885824	56	3774
2026-01-30 11:07:29.94	303.89	31.34	-42.2	-43.0	22.1	0.00e+00	0	41	0	1339031552	56	3864
2026-01-30 11:07:30.94	304.16	31.22	-42.3	-43.1	22.1	0.00e+00	0	41	0	1342177280	56	3913
2026-01-30 11:07:31.95	304.44	31.09	-42.3	-43.2	22.1	0.00e+00	0	41	0	1345323008	56	3917
2026-01-30 11:07:32.96	304.71	30.96	-42.4	-43.2	22.1	0.00e+00	0	41	0	1348468736	56	3918
2026-01-30 11:07:33.97	304.98	30.84	-42.3	-43.1	22.1	0.00e+00	0	41	0	1351614464	56	3900
2026-01-30 11:07:34.98	305.25	30.71	-42.5	-43.3	21.8	0.00e+00	0	41	0	1354760192	56	3998
2026-01-30 11:07:35.99	305.52	30.58	-42.6	-43.5	21.7	0.00e+00	0	41	0	1357905920	56	4062
2026-01-30 11:07:36.99	305.78	30.45	-42.8	-43.6	21.6	0.00e+00	0	41	0	1361051648	56	4124
2026-01-30 11:07:38.00	306.05	30.33	-43.0	-43.8	21.5	0.00e+00	0	41	0	1364197376	56	4241
2026-01-30 11:07:39.01	306.31	30.20	-43.2	-44.1	21.3	0.00e+00	0	41	0	1367343104	56	4347
2026-01-30 11:07:40.02	306.57	30.07	-43.1	-44.0	21.3	0.00e+00	0	41	0	1370488832	56	4298
2026-01-30 11:07:41.03	306.82	29.94	-43.2	-44.1	21.3	0.00e+00	0	41	0	1374683136	56	4353
2026-01-30 11:07:42.03	307.08	29.82	-43.1	-44.0	21.3	0.00e+00	0	41	0	1376780288	57	4072
2026-01-30 11:07:43.05	307.33	29.69	-43.0	-43.9	21.5	0.00e+00	0	41	0	1379926016	57	4011
2026-01-30 11:07:44.05	307.58	29.56	-43.0	-43.9	21.4	0.00e+00	0	41	0	1383071744	57	4025
2026-01-30 11:07:45.06	307.83	29.43	-42.9	-43.7	21.5	0.00e+00	0	41	0	1386217472	57	3957
2026-01-30 11:07:46.06	308.07	29.31	-42.7	-43.5	21.7	0.00e+00	0	41	0	1389363200	57	3853
2026-01-30 11:07:47.07	308.32	29.18	-42.7	-43.6	21.7	0.00e+00	0	41	0	1392508928	57	3873
2026-01-30 11:07:48.08	308.56	29.05	-42.6	-43.4	21.8	0.00e+00	0	41	0	1395654656	57	3817
2026-01-30 11:07:49.09	308.80	28.92	-42.4	-43.3	21.9	0.00e+00	0	41	0	1398800384	56	3970
2026-01-30 11:07:50.09	309.04	28.80	-42.5	-43.3	21.9	0.00e+00	0	41	0	1401946112	56	3991
2026-01-30 11:07:51.10	309.28	28.67	-42.3	-43.1	22.0	0.00e+00	0	41	0	1405091840	56	3908
2026-01-30 11:07:52.11	309.52	28.54	-42.3	-43.1	22.1	0.00e+00	0	41	0	1408237568	56	3882
2026-01-30 11:07:53.12	309.75	28.41	-42.4	-43.2	22.0	0.00e+00	0	41	0	1411383296	56	3941
2026-01-30 11:07:54.12	309.98	28.29	-42.3	-43.2	22.0	0.00e+00	0	41	0	1415577600	56	3918
2026-01-30 11:07:55.12	310.21	28.16	-42.3	-43.1	22.0	0.00e+00	0	41	0	1418723328	56	3902
2026-01-30 11:07:56.13	310.44	28.03	-42.3	-43.1	22.1	0.00e+00	0	41	0	1421869056	56	3905
2026-01-30 11:07:57.14	310.66	27.91	-42.1	-43.0	22.2	0.00e+00	0	41	0	1423966208	56	3826
2026-01-30 11:07:58.15	310.89	27.78	-42.2	-43.0	22.1	0.00e+00	0	41	0	1427111936	56	3867
2026-01-30 11:07:59.16	311.11	27.65	-42.2	-43.0	22.1	0.00e+00	0	41	0	1430257664	56	3837
2026-01-30 11:08:00.17	311.33	27.53	-41.9	-42.7	22.2	0.00e+00	0	41	0	1433403392	55	3926
2026-01-30 11:08:01.17	311.55	27.40	-41.6	-42.4	22.5	0.00e+00	0	41	0	1436549120	55	3794
2026-01-30 11:08:02.18	311.77	27.27	-41.5	-42.3	22.5	0.00e+00	0	41	0	1439694848	55	3764
2026-01-30 11:08:03.19	311.99	27.15	-41.3	-42.1	22.7	0.00e+00	0	41	0	1442840576	54	3890
2026-01-30 11:08:04.20	312.20	27.02	-41.5	-42.2	22.6	0.00e+00	0	41	0	1445986304	54	3946
2026-01-30 11:08:05.21	312.42	26.89	-41.4	-42.2	22.7	0.00e+00	0	41	0	1449132032	54	3921
2026-01-30 11:08:06.21	312.63	26.77	-41.5	-42.3	22.6	0.00e+00	0	41	0	1452277760	54	3965
2026-01-30 11:08:07.22	312.84	26.64	-41.5	-42.2	22.6	0.00e+00	0	41	0	1455423488	54	3958
2026-01-30 11:08:08.23	313.04	26.52	-41.4	-42.2	22.7	0.00e+00	0	41	0	1459617792	54	3914
2026-01-30 11:08:09.23	313.25	26.39	-41.3	-42.1	22.8	0.00e+00	0	41	0	1462763520	54	3885
2026-01-30 11:08:10.24	313.45	26.27	-41.3	-42.1	22.7	0.00e+00	0	41	0	1465909248	54	3897
2026-01-30 11:08:11.24	313.66	26.15	-41.3	-42.1	22.8	0.00e+00	0	41	0	1469054976	54	3889
2026-01-30 11:08:12.24	313.86	26.02	-41.2	-42.0	22.8	0.00e+00	0	41	0	1471152128	54	3853
2026-01-30 11:08:13.24	314.06	25.90	-41.2	-42.0	22.8	0.00e+00	0	41	0	1474297856	54	3827
2026-01-30 11:08:14.25	314.25	25.78	-41.1	-41.8	22.9	0.00e+00	0	41	0	1477443584	54	3779
2026-01-30 11:08:15.26	314.45	25.65	-41.1	-41.9	22.9	0.00e+00	0	41	0	1480589312	54	3782
2026-01-30 11:08:16.26	314.65	25.53	-41.1	-41.8	22.9	0.00e+00	0	41	0	1483735040	54	3780
2026-01-30 11:08:17.27	314.84	25.41	-41.2	-41.9	22.8	0.00e+00	0	41	0	1486880768	54	3824
2026-01-30 11:08:18.28	315.03	25.28	-41.3	-42.1	22.7	0.00e+00	0	41	0	1490026496	54	3870
2026-01-30 11:08:19.29	315.23	25.16	-41.2	-42.0	22.8	0.00e+00	0	41	0	1493172224	54	3847
2026-01-30 11:08:20.29	315.41	25.04	-41.3	-42.1	22.7	0.00e+00	0	41	0	1496317952	54	3893
2026-01-30 11:08:21.30	315.60	24.91	-41.1	-41.9	22.9	0.00e+00	0	41	0	1499463680	54	3782
2026-01-30 11:08:22.31	315.79	24.79	-41.1	-41.8	22.9	0.00e+00	0	41	0	1502609408	54	3778
2026-01-30 11:08:23.31	315.98	24.67	-41.1	-41.9	22.8	0.00e+00	0	41	0	1505755136	54	3808
2026-01-30 11:08:24.33	316.16	24.55	-41.2	-41.9	22.9	0.00e+00	0	41	0	1509949440	54	3808
2026-01-30 11:08:25.33	316.34	24.43	-41.1	-41.9	22.8	0.00e+00	0	41	0	1513095168	54	3783
2026-01-30 11:08:26.34	316.53	24.31	-41.0	-41.8	22.9	0.00e+00	0	41	0	1516240896	54	3738
2026-01-30 11:08:27.35	316.71	24.19	-41.0	-41.8	22.8	0.00e+00	0	41	0	1518338048	53	3960
2026-01-30 11:08:28.36	316.89	24.07	-41.1	-41.9	22.7	0.00e+00	0	41	0	1521483776	53	4031
2026-01-30 11:08:29.36	317.06	23.95	-41.1	-41.9	22.7	0.00e+00	0	41	0	1524629504	53	4024
2026-01-30 11:08:30.37	317.24	23.83	-41.2	-42.0	22.6	0.00e+00	0	41	0	1527775232	53	4077
2026-01-30 11:08:31.37	317.41	23.71	-41.3	-42.0	22.6	0.00e+00	0	41	0	1530920960	53	4091
2026-01-30 11:08:32.38	317.59	23.59	-41.2	-42.0	22.7	0.00e+00	0	41	0	1534066688	53	4079
2026-01-30 11:08:33.39	317.76	23.47	-41.2	-41.9	22.7	0.00e+00	0	41	0	1537212416	53	4047
2026-01-30 11:08:34.40	317.93	23.35	-41.2	-41.9	22.7	0.00e+00	0	41	0	1540358144	53	4047
2026-01-30 11:08:35.41	318.10	23.23	-41.1	-41.9	22.8	0.00e+00	0	41	0	1543503872	53	4027
2026-01-30 11:08:36.42	318.27	23.11	-41.2	-42.0	22.7	0.00e+00	0	41	0	1546649600	53	4077
2026-01-30 11:08:37.42	318.43	23.00	-41.2	-41.9	22.8	0.00e+00	0	41	0	1550843904	53	4031
2026-01-30 11:08:38.43	318.60	22.88	-41.3	-42.1	22.6	0.00e+00	0	41	0	1553989632	53	4108
2026-01-30 11:08:39.44	318.77	22.76	-41.4	-42.2	22.5	0.00e+00	0	41	0	1557135360	53	4162
2026-01-30 11:08:40.45	318.93	22.64	-41.4	-42.2	22.5	0.00e+00	0	41	0	1560281088	53	4178
2026-01-30 11:08:41.46	319.09	22.53	-41.5	-42.3	22.4	0.00e+00	0	41	0	1563426816	53	4229
2026-01-30 11:08:42.46	319.25	22.41	-41.6	-42.3	22.4	0.00e+00	0	41	0	1565523968	53	4236
2026-01-30 11:08:43.47	319.41	22.29	-41.7	-42.5	22.2	0.00e+00	0	41	0	1568669696	53	4308
2026-01-30 11:08:44.47	319.57	22.18	-41.9	-42.7	22.1	0.00e+00	0	41	0	1571815424	54	4162
2026-01-30 11:08:45.48	319.73	22.06	-42.0	-42.8	22.0	0.00e+00	0	41	0	1574961152	54	4237
2026-01-30 11:08:46.49	319.89	21.95	-42.0	-42.9	21.9	0.00e+00	0	41	0	1578106880	54	4253
2026-01-30 11:08:47.49	320.04	21.83	-42.1	-42.9	21.9	0.00e+00	0	41	0	1581252608	54	4270
2026-01-30 11:08:48.50	320.20	21.72	-42.0	-42.8	22.0	0.00e+00	0	41	0	1584398336	54	4210
2026-01-30 11:08:49.51	320.35	21.61	-41.9	-42.8	22.0	0.00e+00	0	41	0	1587544064	54	4198
2026-01-30 11:08:50.52	320.50	21.49	-41.8	-42.6	22.1	0.00e+00	0	41	0	1591738368	54	4144
2026-01-30 11:08:51.53	320.65	21.38	-41.8	-42.6	22.1	0.00e+00	0	41	0	1594884096	54	4118
2026-01-30 11:08:52.54	320.81	21.26	-41.8	-42.6	22.1	0.00e+00	0	41	0	1598029824	54	4134
2026-01-30 11:08:53.55	320.95	21.15	-41.9	-42.7	22.0	0.00e+00	0	41	0	1601175552	54	4174
2026-01-30 11:08:54.55	321.10	21.04	-41.9	-42.7	22.0	0.00e+00	0	41	0	1604321280	54	4192
2026-01-30 11:08:55.56	321.25	20.93	-42.1	-42.9	21.8	0.00e+00	0	41	0	1607467008	54	4286
2026-01-30 11:08:56.57	321.40	20.81	-42.0	-42.9	21.9	0.00e+00	0	41	0	1610612736	54	4248
2026-01-30 11:08:57.57	321.54	20.70	-41.9	-42.7	22.0	0.00e+00	0	41	0	1612709888	54	4181
2026-01-30 11:08:58.58	321.68	20.59	-41.9	-42.7	22.0	0.00e+00	0	41	0	1615855616	54	4178
2026-01-30 11:08:59.59	321.83	20.48	-42.0	-42.8	21.9	0.00e+00	0	41	0	1619001344	54	4220
2026-01-30 11:09:00.59	321.97	20.37	-41.8	-42.6	22.1	0.00e+00	0	41	0	1622147072	54	4129
2026-01-30 11:09:01.60	322.11	20.26	-41.6	-42.4	22.2	0.00e+00	0	41	0	1625292800	54	4015
2026-01-30 11:09:02.60	322.25	20.15	-41.5	-42.3	22.3	0.00e+00	0	41	0	1628438528	54	3996
2026-01-30 11:09:03.61	322.39	20.04	-41.5	-42.2	22.4	0.00e+00	0	41	0	1631584256	54	3954
2026-01-30 11:09:04.62	322.53	19.93	-41.4	-42.2	22.4	0.00e+00	0	41	0	1634729984	54	3915
2026-01-30 11:09:05.62	322.66	19.82	-41.4	-42.2	22.4	0.00e+00	0	41	0	1638924288	54	3928
2026-01-30 11:09:06.63	322.80	19.71	-41.2	-42.0	22.6	0.00e+00	0	41	0	1642070016	54	3830
2026-01-30 11:09:07.64	322.93	19.61	-41.2	-42.0	22.5	0.00e+00	0	41	0	1645215744	54	3847
2026-01-30 11:09:08.64	323.07	19.50	-41.3	-42.1	22.5	0.00e+00	0	41	0	1648361472	54	3880
2026-01-30 11:09:09.65	323.20	19.39	-41.1	-41.9	22.6	0.00e+00	0	41	0	1651507200	54	3811
2026-01-30 11:09:10.66	323.33	19.28	-41.3	-42.0	22.5	0.00e+00	0	41	0	1654652928	54	3859
2026-01-30 11:09:11.67	323.47	19.18	-41.3	-42.0	22.5	0.00e+00	0	41	0	1657798656	54	3860
2026-01-30 11:09:12.68	323.60	19.07	-41.3	-42.1	22.5	0.00e+00	0	41	0	1659895808	54	3894
2026-01-30 11:09:13.68	323.73	18.96	-41.4	-42.1	22.4	0.00e+00	0	41	0	1663041536	54	3912
2026-01-30 11:09:14.69	323.86	18.86	-41.4	-42.1	22.4	0.00e+00	0	41	0	1666187264	54	3905
2026-01-30 11:09:15.70	323.98	18.75	-41.4	-42.2	22.4	0.00e+00	0	41	0	1669332992	54	3920
2026-01-30 11:09:16.71	324.11	18.64	-41.4	-42.2	22.4	0.00e+00	0	41	0	1672478720	54	3914
2026-01-30 11:09:17.71	324.24	18.54	-41.4	-42.1	22.4	0.00e+00	0	41	0	1675624448	54	3902
2026-01-30 11:09:18.72	324.36	18.44	-41.4	-42.2	22.4	0.00e+00	0	41	0	1679818752	54	3930
2026-01-30 11:09:19.73	324.49	18.33	-41.3	-42.1	22.4	0.00e+00	0	41	0	1682964480	54	3890
2026-01-30 11:09:20.74	324.61	18.23	-41.4	-42.2	22.3	0.00e+00	0	41	0	1686110208	54	3932
2026-01-30 11:09:21.75	324.74	18.12	-41.3	-42.1	22.4	0.00e+00	0	41	0	1689255936	54	3894
2026-01-30 11:09:22.75	324.86	18.02	-41.4	-42.2	22.3	0.00e+00	0	41	0	1692401664	54	3943
2026-01-30 11:09:23.76	324.98	17.92	-41.4	-42.2	22.3	0.00e+00	0	41	0	1695547392	54	3950
2026-01-30 11:09:24.77	325.10	17.81	-41.4	-42.2	22.3	0.00e+00	0	41	0	1698693120	54	3940
2026-01-30 11:09:25.77	325.22	17.71	-41.5	-42.3	22.2	0.00e+00	0	41	0	1701838848	54	3964
2026-01-30 11:09:26.78	325.34	17.61	-41.5	-42.3	22.2	0.00e+00	0	41	0	1704984576	54	3991
2026-01-30 11:09:27.78	325.46	17.51	-41.5	-42.3	22.1	0.00e+00	0	41	0	1707081728	54	3999
2026-01-30 11:09:28.79	325.58	17.40	-41.5	-42.3	22.2	0.00e+00	0	41	0	1710227456	54	3993
2026-01-30 11:09:29.80	325.69	17.30	-41.5	-42.4	22.2	0.00e+00	0	41	0	1713373184	54	4007
2026-01-30 11:09:30.80	325.81	17.20	-41.6	-42.4	22.1	0.00e+00	0	41	0	1716518912	54	4033
2026-01-30 11:09:31.81	325.92	17.10	-41.6	-42.4	22.1	0.00e+00	0	41	0	1719664640	54	4035
2026-01-30 11:09:32.82	326.04	17.00	-41.6	-42.4	22.1	0.00e+00	0	41	0	1722810368	54	4033
2026-01-30 11:09:33.82	326.15	16.90	-41.5	-42.3	22.2	0.00e+00	0	41	0	1727004672	54	3976
2026-01-30 11:09:34.83	326.27	16.80	-41.5	-42.3	22.2	0.00e+00	0	41	0	1730150400	54	3982
2026-01-30 11:09:35.84	326.38	16.70	-41.6	-42.4	22.1	0.00e+00	0	41	0	1733296128	54	4014
2026-01-30 11:09:36.85	326.49	16.60	-41.7	-42.5	22.0	0.00e+00	0	41	0	1736441856	54	4066
2026-01-30 11:09:37.86	326.60	16.50	-41.6	-42.4	22.1	0.00e+00	0	41	0	1739587584	54	4021
2026-01-30 11:09:38.86	326.71	16.41	-41.7	-42.5	22.0	0.00e+00	0	41	0	1742733312	54	4070
2026-01-30 11:09:39.87	326.82	16.31	-41.7	-42.5	21.9	0.00e+00	0	41	0	1745879040	54	4092
2026-01-30 11:09:40.88	326.93	16.21	-41.8	-42.7	21.8	0.00e+00	0	41	0	1749024768	54	4147
2026-01-30 11:09:41.89	327.04	16.11	-41.9	-42.8	21.6	0.00e+00	0	41	0	1752170496	54	4208
2026-01-30 11:09:42.89	327.15	16.01	-41.9	-42.8	21.7	0.00e+00	0	41	0	1754267648	54	4208
2026-01-30 11:09:43.90	327.25	15.92	-42.1	-42.9	21.5	0.00e+00	0	41	0	1757413376	54	4281
2026-01-30 11:09:44.91	327.36	15.82	-42.1	-43.0	21.5	0.00e+00	0	41	0	1760559104	54	4300
2026-01-30 11:09:45.91	327.47	15.72	-42.2	-43.0	21.4	0.00e+00	0	41	0	1763704832	54	4332
2026-01-30 11:09:46.92	327.57	15.63	-42.3	-43.2	21.4	0.00e+00	0	41	0	1767899136	55	4154
2026-01-30 11:09:47.93	327.68	15.53	-42.1	-43.0	21.5	0.00e+00	0	41	0	1771044864	55	4067
2026-01-30 11:09:48.94	327.78	15.43	-42.2	-43.0	21.5	0.00e+00	0	41	0	1774190592	55	4081
2026-01-30 11:09:49.94	327.88	15.34	-42.2	-43.0	21.5	0.00e+00	0	41	0	1777336320	55	4087
2026-01-30 11:09:50.95	327.98	15.24	-42.1	-43.0	21.5	0.00e+00	0	41	0	1780482048	55	4074
2026-01-30 11:09:51.95	328.09	15.15	-42.2	-43.1	21.4	0.00e+00	0	41	0	1783627776	55	4109
2026-01-30 11:09:52.96	328.19	15.06	-42.2	-43.0	21.5	0.00e+00	0	41	0	1786773504	55	4091
2026-01-30 11:09:53.97	328.29	14.96	-42.2	-43.0	21.4	0.00e+00	0	41	0	1789919232	55	4088
2026-01-30 11:09:54.97	328.39	14.87	-42.2	-43.1	21.4	0.00e+00	0	41	0	1793064960	55	4120
2026-01-30 11:09:55.97	328.49	14.78	-42.3	-43.2	21.3	0.00e+00	0	41	0	1796210688	55	4158
2026-01-30 11:09:56.98	328.59	14.68	-42.3	-43.1	21.4	0.00e+00	0	41	0	1799356416	55	4137
2026-01-30 11:09:57.99	328.68	14.59	-42.3	-43.2	21.3	0.00e+00	0	41	0	1801453568	55	4151
2026-01-30 11:09:59.00	328.78	14.50	-42.2	-43.1	21.4	0.00e+00	0	41	0	1804599296	55	4129
2026-01-30 11:10:00.00	328.88	14.40	-42.2	-43.1	21.3	0.00e+00	0	41	0	1807745024	55	4135
2026-01-30 11:10:01.01	328.98	14.31	-42.3	-43.1	21.3	0.00e+00	0	41	0	1810890752	55	4143
2026-01-30 11:10:02.02	329.07	14.22	-42.4	-43.3	21.2	0.00e+00	0	41	0	1814036480	55	4203
2026-01-30 11:10:03.02	329.17	14.13	-42.2	-43.1	21.4	0.00e+00	0	41	0	1818230784	55	4125
2026-01-30 11:10:04.03	329.26	14.04	-42.4	-43.2	21.3	0.00e+00	0	41	0	1821376512	55	4182
2026-01-30 11:10:05.04	329.36	13.94	-42.4	-43.2	21.2	0.00e+00	0	41	0	1824522240	55	4185
2026-01-30 11:10:06.05	329.45	13.85	-42.4	-43.3	21.2	0.00e+00	0	41	0	1827667968	55	4203
2026-01-30 11:10:07.05	329.54	13.76	-42.5	-43.4	21.1	0.00e+00	0	41	0	1830813696	55	4271
2026-01-30 11:10:08.07	329.64	13.67	-42.3	-43.2	21.2	0.00e+00	0	41	0	1833959424	55	4171
2026-01-30 11:10:09.07	329.73	13.58	-42.4	-43.3	21.2	0.00e+00	0	41	0	1837105152	55	4223
2026-01-30 11:10:10.08	329.82	13.49	-42.4	-43.3	21.2	0.00e+00	0	41	0	1840250880	55	4197
2026-01-30 11:10:11.09	329.91	13.40	-42.4	-43.3	21.1	0.00e+00	0	41	0	1843396608	55	4219
2026-01-30 11:10:12.10	330.00	13.31	-42.4	-43.3	21.1	0.00e+00	0	41	0	1846542336	55	4206
2026-01-30 11:10:13.10	330.09	13.23	-42.5	-43.4	21.0	0.00e+00	0	41	0	1848639488	55	4270
2026-01-30 11:10:14.11	330.18	13.14	-42.5	-43.4	21.0	0.00e+00	0	41	0	1851785216	55	4258
2026-01-30 11:10:15.11	330.27	13.05	-42.5	-43.4	21.0	0.00e+00	0	41	0	1854930944	55	4245
2026-01-30 11:10:16.12	330.36	12.96	-42.4	-43.3	21.0	0.00e+00	0	41	0	1858076672	55	4228
2026-01-30 11:10:17.13	330.45	12.87	-42.4	-43.3	21.0	0.00e+00	0	41	0	1862270976	55	4238
2026-01-30 11:10:18.13	330.53	12.79	-42.5	-43.4	20.9	0.00e+00	0	41	0	1865416704	55	4252
2026-01-30 11:10:19.14	330.62	12.70	-42.5	-43.4	20.9	0.00e+00	0	41	0	1868562432	55	4266
