passes_logs/2026/01/30/R3.2S_Murmansk/R3.2S_Murmansk__20260130_080751_SUOMI_NPP_rec.log

#Pass ID: 20260130_080751_SUOMI NPP
#Satellite: SUOMI NPP
#Configuration: NPP
#almurnet v.1.7.20251203
#Start time: 2026-01-30 08:07:52

#Version: 2.2.20231116
#Station: R3.2S_Murmansk
#Location: 33.079688 lon 68.888172 lat
#TLE: 1 37849U 11061A   26029.48304708  .00000140  00000+0  87283-4 0  9999
#TLE: 2 37849  98.7824 331.4079 0002024  38.4342 321.6978 14.19531488738761

#Time	Az	El	Level	Level2	SNR	BER	BlckErr	Temp	State	Recorded	gain1	gain2
2026-01-30 08:07:52.07	117.47	2.06	-54.2	-69.1	3.8	1.49e+00	0	39	0	0	79	20713
2026-01-30 08:07:53.07	117.44	2.12	-54.3	-69.3	3.8	1.49e+00	0	39	104	0	79	21201
2026-01-30 08:07:54.08	117.40	2.19	-54.3	-69.3	3.8	1.49e+00	0	39	104	0	79	21149
2026-01-30 08:07:55.09	117.37	2.25	-54.2	-69.2	3.8	1.49e+00	0	39	104	0	79	21011
2026-01-30 08:07:56.10	117.34	2.31	-54.2	-69.2	3.8	1.49e+00	0	39	104	0	79	20911
2026-01-30 08:07:57.10	117.30	2.38	-54.1	-69.2	3.8	1.49e+00	0	39	104	0	79	20799
2026-01-30 08:07:58.12	117.27	2.44	-54.1	-69.1	3.8	1.49e+00	0	39	104	0	79	20702
2026-01-30 08:07:59.13	117.24	2.50	-54.1	-69.1	3.8	1.49e+00	0	39	104	0	79	20549
2026-01-30 08:08:00.14	117.20	2.57	-54.0	-69.0	3.8	1.49e+00	0	39	104	0	79	20440
2026-01-30 08:08:01.14	117.17	2.63	-54.0	-68.9	3.8	1.49e+00	0	39	104	0	79	20302
2026-01-30 08:08:02.15	117.14	2.70	-53.9	-68.9	3.8	1.49e+00	0	39	104	0	79	20168
2026-01-30 08:08:03.16	117.10	2.76	-53.9	-68.9	3.8	1.49e+00	0	40	104	0	79	20082
2026-01-30 08:08:04.17	117.07	2.83	-53.8	-68.8	3.8	1.49e+00	0	40	104	0	79	19856
2026-01-30 08:08:05.17	117.03	2.89	-53.7	-68.7	3.8	1.49e+00	0	39	104	0	79	19723
2026-01-30 08:08:06.18	117.00	2.95	-53.7	-68.7	3.8	1.49e+00	0	40	104	0	79	19675
2026-01-30 08:08:07.19	116.96	3.02	-53.6	-68.6	3.8	1.49e+00	0	39	104	0	79	19546
2026-01-30 08:08:08.19	116.93	3.08	-53.6	-68.5	3.8	1.49e+00	0	40	104	0	79	19351
2026-01-30 08:08:09.20	116.89	3.15	-53.5	-68.5	3.8	1.49e+00	0	40	104	0	79	19257
2026-01-30 08:08:10.21	116.86	3.21	-53.4	-68.4	3.8	1.49e+00	0	40	104	0	78	20209
2026-01-30 08:08:11.21	116.82	3.28	-53.4	-68.3	3.8	1.49e+00	0	40	104	0	78	20061
2026-01-30 08:08:12.22	116.78	3.35	-53.3	-68.3	3.8	1.49e+00	0	40	104	0	78	19929
2026-01-30 08:08:13.23	116.75	3.41	-53.2	-68.2	3.8	1.49e+00	0	40	104	0	78	19706
2026-01-30 08:08:14.24	116.71	3.48	-53.1	-68.1	3.8	1.49e+00	0	40	104	0	78	19532
2026-01-30 08:08:15.25	116.67	3.54	-53.0	-68.0	3.8	1.49e+00	0	40	104	0	78	19252
2026-01-30 08:08:16.25	116.64	3.61	-52.9	-67.9	3.8	1.49e+00	0	40	104	0	77	20157
2026-01-30 08:08:17.26	116.60	3.68	-52.8	-67.8	3.8	1.49e+00	0	40	104	0	77	19875
2026-01-30 08:08:18.27	116.56	3.74	-52.6	-67.6	3.8	1.49e+00	0	40	104	0	77	19499
2026-01-30 08:08:19.28	116.53	3.81	-52.4	-67.3	3.8	1.49e+00	0	40	104	0	76	20010
2026-01-30 08:08:20.28	116.49	3.88	-52.2	-67.1	3.8	1.49e+00	0	40	104	0	76	19603
2026-01-30 08:08:21.29	116.45	3.94	-51.9	-66.2	3.8	1.49e+00	0	40	104	0	75	18640
2026-01-30 08:08:22.29	116.42	4.01	-51.9	-66.5	3.8	1.49e+00	0	40	104	0	75	19264
2026-01-30 08:08:23.30	116.38	4.08	-51.9	-66.6	3.8	1.49e+00	0	40	104	0	75	19473
2026-01-30 08:08:24.31	116.34	4.14	-51.9	-66.2	3.8	1.49e+00	0	40	104	0	75	18531
2026-01-30 08:08:25.31	116.30	4.21	-51.8	-64.3	3.9	1.49e+00	0	40	104	0	75	15049
2026-01-30 08:08:26.32	116.26	4.28	-51.6	-61.7	4.8	1.39e+00	0	40	0	0	75	11033
2026-01-30 08:08:27.32	116.22	4.35	-51.2	-58.6	7.0	2.77e-01	0	40	0	2097152	74	8230
2026-01-30 08:08:28.33	116.19	4.42	-50.5	-56.0	9.5	4.79e-02	0	40	0	4194304	73	6494
2026-01-30 08:08:29.34	116.15	4.48	-50.0	-54.5	11.2	4.23e-03	0	40	0	6291456	71	6129
2026-01-30 08:08:30.35	116.11	4.55	-49.5	-53.4	12.4	2.13e-04	0	40	0	7340032	71	5351
2026-01-30 08:08:31.35	116.07	4.62	-48.7	-51.9	14.0	1.52e-05	0	40	0	9437184	69	5046
2026-01-30 08:08:32.36	116.03	4.69	-48.3	-51.1	14.7	7.00e-07	0	40	0	11534336	68	4912
2026-01-30 08:08:33.37	115.99	4.76	-47.7	-50.2	15.5	0.00e+00	0	40	0	13631488	67	4678
2026-01-30 08:08:34.37	115.95	4.83	-46.8	-48.9	16.8	0.00e+00	0	40	0	15728640	65	4527
2026-01-30 08:08:35.38	115.91	4.90	-46.9	-49.0	16.7	0.00e+00	0	40	0	17825792	65	4594
2026-01-30 08:08:36.39	115.87	4.97	-46.7	-48.8	16.9	0.00e+00	0	40	0	18874368	65	4450
2026-01-30 08:08:37.40	115.83	5.04	-46.9	-49.1	16.8	0.00e+00	0	40	0	20971520	65	4615
2026-01-30 08:08:38.41	115.79	5.11	-49.0	-52.4	13.7	7.00e-07	0	40	0	23068672	68	5670
2026-01-30 08:08:39.41	115.74	5.17	-47.7	-50.1	15.5	7.02e-04	0	40	0	25165824	67	4602
2026-01-30 08:08:40.41	115.70	5.24	-47.5	-49.9	15.9	0.00e+00	0	40	0	26214400	67	4508
2026-01-30 08:08:41.41	115.66	5.31	-47.0	-49.0	17.0	6.10e-06	0	40	0	28311552	66	4312
2026-01-30 08:08:42.42	115.62	5.38	-49.4	-52.9	13.2	1.35e-03	0	40	0	30408704	70	5362
2026-01-30 08:08:43.43	115.58	5.46	-46.9	-48.9	17.0	0.00e+00	0	40	0	32505856	65	4514
2026-01-30 08:08:44.43	115.54	5.53	-46.4	-48.2	17.8	0.00e+00	0	40	0	34603008	64	4394
2026-01-30 08:08:45.44	115.49	5.60	-46.5	-48.3	17.6	0.00e+00	0	40	0	35651584	64	4485
2026-01-30 08:08:46.45	115.45	5.67	-46.4	-48.2	17.8	0.00e+00	0	40	0	37748736	64	4418
2026-01-30 08:08:47.45	115.41	5.74	-46.4	-48.1	17.9	0.00e+00	0	40	0	39845888	64	4391
2026-01-30 08:08:48.46	115.37	5.81	-46.5	-48.3	17.7	0.00e+00	0	40	0	41943040	64	4472
2026-01-30 08:08:49.46	115.32	5.88	-46.7	-48.6	17.5	0.00e+00	0	40	0	44040192	64	4599
2026-01-30 08:08:50.47	115.28	5.95	-46.6	-48.5	17.6	0.00e+00	0	40	0	45088768	64	4572
2026-01-30 08:08:51.48	115.24	6.03	-46.5	-48.4	17.7	0.00e+00	0	40	0	47185920	64	4507
2026-01-30 08:08:52.49	115.19	6.10	-46.5	-48.3	17.7	0.00e+00	0	41	0	49283072	64	4466
2026-01-30 08:08:53.49	115.15	6.17	-46.5	-48.3	17.8	0.00e+00	0	40	0	51380224	64	4482
2026-01-30 08:08:54.50	115.10	6.24	-46.5	-48.4	17.7	0.00e+00	0	40	0	53477376	64	4503
2026-01-30 08:08:55.51	115.06	6.31	-46.5	-48.3	17.8	0.00e+00	0	40	0	54525952	64	4472
2026-01-30 08:08:56.52	115.01	6.39	-46.3	-48.1	18.0	0.00e+00	0	40	0	56623104	64	4370
2026-01-30 08:08:57.52	114.97	6.46	-46.3	-48.1	18.0	0.00e+00	0	41	0	58720256	64	4368
2026-01-30 08:08:58.53	114.92	6.53	-46.3	-48.0	18.2	0.00e+00	0	40	0	60817408	64	4300
2026-01-30 08:08:59.53	114.88	6.61	-46.3	-48.1	18.0	0.00e+00	0	40	0	62914560	64	4351
2026-01-30 08:09:00.54	114.83	6.68	-46.2	-47.9	18.2	0.00e+00	0	41	0	63963136	64	4250
2026-01-30 08:09:01.54	114.79	6.75	-46.1	-47.7	18.4	0.00e+00	0	41	0	66060288	64	4176
2026-01-30 08:09:02.55	114.74	6.83	-46.1	-47.8	18.4	0.00e+00	0	41	0	68157440	63	4474
2026-01-30 08:09:03.56	114.69	6.90	-46.3	-48.1	18.1	0.00e+00	0	40	0	70254592	63	4619
2026-01-30 08:09:04.56	114.65	6.98	-46.6	-48.5	17.8	0.00e+00	0	41	0	72351744	63	4826
2026-01-30 08:09:05.57	114.60	7.05	-46.7	-48.5	17.8	0.00e+00	0	40	0	74448896	63	4854
2026-01-30 08:09:06.58	114.55	7.13	-46.3	-48.0	18.1	0.00e+00	0	40	0	75497472	64	4324
2026-01-30 08:09:07.59	114.50	7.20	-46.1	-47.8	18.3	0.00e+00	0	40	0	77594624	64	4240
2026-01-30 08:09:08.60	114.45	7.28	-46.3	-48.0	18.2	0.00e+00	0	40	0	79691776	64	4319
2026-01-30 08:09:09.60	114.41	7.35	-46.4	-48.2	18.0	0.00e+00	0	40	0	81788928	64	4402
2026-01-30 08:09:10.61	114.36	7.43	-46.1	-47.8	18.3	0.00e+00	0	41	0	82837504	64	4216
2026-01-30 08:09:11.61	114.31	7.50	-46.4	-48.1	18.1	0.00e+00	0	41	0	84934656	64	4374
2026-01-30 08:09:12.61	114.26	7.58	-46.3	-48.0	18.2	0.00e+00	0	41	0	87031808	64	4333
2026-01-30 08:09:13.62	114.21	7.65	-46.1	-47.7	18.5	0.00e+00	0	41	0	89128960	64	4180
2026-01-30 08:09:14.63	114.16	7.73	-46.0	-47.7	18.6	0.00e+00	0	41	0	91226112	63	4407
2026-01-30 08:09:15.63	114.11	7.81	-46.0	-47.7	18.5	0.00e+00	0	41	0	92274688	63	4407
2026-01-30 08:09:16.64	114.06	7.88	-46.1	-47.8	18.5	0.00e+00	0	41	0	94371840	63	4461
2026-01-30 08:09:17.64	114.01	7.96	-46.2	-47.9	18.3	0.00e+00	0	41	0	96468992	63	4538
2026-01-30 08:09:18.65	113.96	8.04	-46.1	-47.8	18.5	0.00e+00	0	41	0	98566144	63	4474
2026-01-30 08:09:19.65	113.91	8.12	-46.1	-47.8	18.5	0.00e+00	0	41	0	100663296	63	4474
2026-01-30 08:09:20.66	113.86	8.19	-46.2	-47.9	18.4	0.00e+00	0	41	0	101711872	63	4517
2026-01-30 08:09:21.66	113.81	8.27	-45.9	-47.5	18.7	0.00e+00	0	40	0	103809024	63	4329
2026-01-30 08:09:22.67	113.76	8.35	-45.9	-47.4	18.8	0.00e+00	0	41	0	105906176	63	4279
2026-01-30 08:09:23.67	113.70	8.43	-45.6	-47.1	19.1	0.00e+00	0	41	0	108003328	63	4142
2026-01-30 08:09:24.68	113.65	8.51	-45.6	-47.1	19.2	0.00e+00	0	41	0	110100480	63	4132
2026-01-30 08:09:25.69	113.60	8.58	-45.7	-47.2	19.1	0.00e+00	0	41	0	111149056	63	4168
2026-01-30 08:09:26.70	113.55	8.66	-45.8	-47.3	19.0	0.00e+00	0	41	0	113246208	63	4233
2026-01-30 08:09:27.70	113.49	8.74	-45.7	-47.2	19.1	0.00e+00	0	41	0	115343360	63	4175
2026-01-30 08:09:28.71	113.44	8.82	-45.5	-47.0	19.3	0.00e+00	0	41	0	117440512	63	4056
2026-01-30 08:09:29.72	113.38	8.90	-45.8	-47.3	19.1	0.00e+00	0	41	0	119537664	62	4464
2026-01-30 08:09:30.73	113.33	8.98	-45.8	-47.3	19.1	0.00e+00	0	41	0	120586240	62	4472
2026-01-30 08:09:31.73	113.28	9.06	-45.9	-47.4	19.0	0.00e+00	0	41	0	122683392	62	4545
2026-01-30 08:09:32.74	113.22	9.14	-45.9	-47.5	18.9	0.00e+00	0	41	0	124780544	62	4577
2026-01-30 08:09:33.75	113.17	9.22	-46.0	-47.6	18.9	0.00e+00	0	41	0	126877696	62	4608
2026-01-30 08:09:34.75	113.11	9.30	-46.0	-47.6	18.8	0.00e+00	0	41	0	128974848	62	4642
2026-01-30 08:09:35.76	113.05	9.38	-45.9	-47.4	19.0	0.00e+00	0	41	0	130023424	62	4517
2026-01-30 08:09:36.77	113.00	9.47	-45.9	-47.4	19.0	0.00e+00	0	41	0	132120576	62	4526
2026-01-30 08:09:37.78	112.94	9.55	-45.8	-47.3	19.1	0.00e+00	0	41	0	134217728	62	4469
2026-01-30 08:09:38.78	112.89	9.63	-45.7	-47.2	19.2	0.00e+00	0	40	0	136314880	62	4409
2026-01-30 08:09:39.79	112.83	9.71	-45.6	-47.1	19.3	0.00e+00	0	41	0	138412032	62	4350
2026-01-30 08:09:40.79	112.77	9.79	-45.7	-47.2	19.2	0.00e+00	0	41	0	139460608	62	4430
2026-01-30 08:09:41.80	112.71	9.88	-45.5	-46.9	19.5	0.00e+00	0	41	0	141557760	62	4271
2026-01-30 08:09:42.80	112.65	9.96	-45.6	-47.0	19.4	0.00e+00	0	41	0	143654912	62	4330
2026-01-30 08:09:43.81	112.60	10.04	-45.7	-47.2	19.2	0.00e+00	0	41	0	145752064	62	4430
2026-01-30 08:09:44.82	112.54	10.12	-45.6	-47.0	19.4	0.00e+00	0	41	0	147849216	62	4316
2026-01-30 08:09:45.83	112.48	10.21	-45.6	-47.1	19.3	0.00e+00	0	41	0	148897792	62	4359
2026-01-30 08:09:46.83	112.42	10.29	-45.6	-47.1	19.3	0.00e+00	0	41	0	150994944	62	4374
2026-01-30 08:09:47.84	112.36	10.38	-45.7	-47.2	19.2	0.00e+00	0	41	0	153092096	62	4432
2026-01-30 08:09:48.84	112.30	10.46	-45.6	-47.0	19.4	0.00e+00	0	41	0	155189248	62	4331
2026-01-30 08:09:49.85	112.24	10.54	-45.7	-47.2	19.3	0.00e+00	0	41	0	157286400	62	4392
2026-01-30 08:09:50.86	112.18	10.63	-45.7	-47.2	19.3	0.00e+00	0	41	0	158334976	62	4422
2026-01-30 08:09:51.87	112.11	10.71	-45.4	-46.8	19.6	0.00e+00	0	41	0	160432128	62	4233
2026-01-30 08:09:52.88	112.05	10.80	-45.6	-47.1	19.4	0.00e+00	0	41	0	162529280	62	4342
2026-01-30 08:09:53.89	111.99	10.89	-45.6	-47.1	19.4	0.00e+00	0	41	0	164626432	62	4372
2026-01-30 08:09:54.90	111.93	10.97	-45.4	-46.9	19.6	0.00e+00	0	41	0	166723584	62	4244
2026-01-30 08:09:55.90	111.86	11.06	-45.5	-46.9	19.5	0.00e+00	0	41	0	167772160	62	4272
2026-01-30 08:09:56.90	111.80	11.14	-45.5	-46.9	19.5	0.00e+00	0	41	0	169869312	62	4270
2026-01-30 08:09:57.91	111.74	11.23	-45.2	-46.7	19.6	0.00e+00	0	41	0	171966464	62	4166
2026-01-30 08:09:58.92	111.67	11.32	-45.2	-46.7	19.6	0.00e+00	0	41	0	174063616	62	4183
2026-01-30 08:09:59.92	111.61	11.40	-45.2	-46.8	19.5	0.00e+00	0	41	0	176160768	62	4200
2026-01-30 08:10:00.93	111.54	11.49	-45.5	-47.1	19.2	0.00e+00	0	41	0	177209344	62	4391
2026-01-30 08:10:01.94	111.48	11.58	-45.2	-46.6	19.7	0.00e+00	0	41	0	179306496	62	4145
2026-01-30 08:10:02.95	111.41	11.67	-45.3	-46.8	19.5	0.00e+00	0	41	0	181403648	62	4214
2026-01-30 08:10:03.96	111.35	11.76	-45.1	-46.6	19.7	0.00e+00	0	41	0	183500800	62	4103
2026-01-30 08:10:04.96	111.28	11.84	-45.0	-46.4	19.9	0.00e+00	0	41	0	185597952	61	4259
2026-01-30 08:10:05.97	111.21	11.93	-45.1	-46.6	19.8	0.00e+00	0	41	0	187695104	61	4345
2026-01-30 08:10:06.98	111.14	12.02	-45.1	-46.6	19.7	0.00e+00	0	41	0	188743680	61	4348
2026-01-30 08:10:07.99	111.08	12.11	-45.0	-46.4	19.9	0.00e+00	0	41	0	190840832	61	4265
2026-01-30 08:10:09.00	111.01	12.20	-45.1	-46.6	19.7	0.00e+00	0	41	0	192937984	61	4380
2026-01-30 08:10:10.01	110.94	12.29	-45.1	-46.6	19.7	0.00e+00	0	41	0	195035136	61	4369
2026-01-30 08:10:11.01	110.87	12.38	-45.1	-46.6	19.8	0.00e+00	0	41	0	196083712	61	4355
2026-01-30 08:10:12.02	110.80	12.47	-45.0	-46.5	19.9	0.00e+00	0	41	0	198180864	61	4296
2026-01-30 08:10:13.02	110.73	12.56	-45.1	-46.6	19.8	0.00e+00	0	41	0	200278016	61	4350
2026-01-30 08:10:14.03	110.66	12.65	-45.2	-46.7	19.6	0.00e+00	0	41	0	202375168	61	4429
2026-01-30 08:10:15.04	110.59	12.75	-44.9	-46.4	20.0	0.00e+00	0	41	0	204472320	61	4267
2026-01-30 08:10:16.05	110.52	12.84	-45.0	-46.4	19.9	0.00e+00	0	41	0	205520896	61	4285
2026-01-30 08:10:17.05	110.45	12.93	-44.9	-46.4	19.9	0.00e+00	0	41	0	207618048	61	4246
2026-01-30 08:10:18.06	110.37	13.02	-44.7	-46.1	20.2	0.00e+00	0	41	0	209715200	61	4134
2026-01-30 08:10:19.07	110.30	13.11	-44.8	-46.2	20.2	0.00e+00	0	41	0	211812352	61	4149
2026-01-30 08:10:20.08	110.23	13.21	-44.7	-46.1	20.3	0.00e+00	0	41	0	213909504	61	4124
2026-01-30 08:10:21.08	110.15	13.30	-44.8	-46.2	20.2	0.00e+00	0	41	0	216006656	61	4166
2026-01-30 08:10:22.09	110.08	13.39	-45.0	-46.4	20.0	0.00e+00	0	41	0	217055232	61	4269
2026-01-30 08:10:23.09	110.00	13.49	-44.8	-46.2	20.2	0.00e+00	0	41	0	219152384	61	4172
2026-01-30 08:10:24.10	109.93	13.58	-44.9	-46.3	20.1	0.00e+00	0	41	0	221249536	61	4215
2026-01-30 08:10:25.10	109.85	13.68	-44.9	-46.4	20.0	0.00e+00	0	41	0	223346688	61	4266
2026-01-30 08:10:26.11	109.78	13.77	-44.8	-46.2	20.2	0.00e+00	0	41	0	224395264	61	4168
2026-01-30 08:10:27.12	109.70	13.87	-44.8	-46.2	20.2	0.00e+00	0	41	0	226492416	61	4162
2026-01-30 08:10:28.13	109.62	13.96	-44.9	-46.3	20.2	0.00e+00	0	41	0	228589568	61	4201
2026-01-30 08:10:29.14	109.54	14.06	-44.7	-46.0	20.3	0.00e+00	0	41	0	230686720	61	4096
2026-01-30 08:10:30.15	109.46	14.15	-44.9	-46.3	20.2	0.00e+00	0	41	0	232783872	61	4211
2026-01-30 08:10:31.15	109.39	14.25	-44.8	-46.2	20.2	0.00e+00	0	41	0	233832448	61	4146
2026-01-30 08:10:32.16	109.31	14.35	-44.9	-46.4	20.0	0.00e+00	0	41	0	235929600	61	4260
2026-01-30 08:10:33.17	109.23	14.44	-44.8	-46.1	20.2	0.00e+00	0	41	0	238026752	61	4142
2026-01-30 08:10:34.17	109.15	14.54	-44.9	-46.4	20.1	0.00e+00	0	41	0	240123904	61	4255
2026-01-30 08:10:35.18	109.07	14.64	-44.9	-46.3	20.1	0.00e+00	0	41	0	242221056	61	4238
2026-01-30 08:10:36.19	108.98	14.74	-44.8	-46.2	20.2	0.00e+00	0	41	0	244318208	61	4164
2026-01-30 08:10:37.20	108.90	14.84	-44.8	-46.3	20.1	0.00e+00	0	41	0	245366784	61	4199
2026-01-30 08:10:38.20	108.82	14.93	-45.2	-46.7	19.7	0.00e+00	0	41	0	247463936	61	4433
2026-01-30 08:10:39.21	108.73	15.03	-44.9	-46.3	20.1	0.00e+00	0	41	0	249561088	61	4215
2026-01-30 08:10:40.22	108.65	15.13	-44.8	-46.2	20.2	0.00e+00	0	41	0	251658240	61	4173
2026-01-30 08:10:41.23	108.57	15.23	-44.9	-46.3	20.1	0.00e+00	0	41	0	252706816	61	4229
2026-01-30 08:10:42.23	108.48	15.33	-45.0	-46.4	20.0	0.00e+00	0	41	0	254803968	61	4257
2026-01-30 08:10:43.24	108.40	15.43	-45.0	-46.5	20.0	0.00e+00	0	41	0	256901120	61	4302
2026-01-30 08:10:44.25	108.31	15.53	-45.2	-46.7	19.7	0.00e+00	0	41	0	258998272	61	4425
2026-01-30 08:10:45.26	108.22	15.64	-45.2	-46.7	19.8	0.00e+00	0	41	0	261095424	61	4429
2026-01-30 08:10:46.27	108.13	15.74	-45.4	-47.0	19.5	0.00e+00	0	41	0	263192576	61	4569
2026-01-30 08:10:47.27	108.05	15.84	-45.3	-46.8	19.6	0.00e+00	0	41	0	264241152	61	4483
2026-01-30 08:10:48.28	107.96	15.94	-45.3	-46.8	19.7	0.00e+00	0	41	0	266338304	61	4463
2026-01-30 08:10:49.29	107.87	16.04	-45.1	-46.6	19.8	0.00e+00	0	41	0	268435456	61	4375
2026-01-30 08:10:50.30	107.78	16.15	-45.1	-46.6	19.8	0.00e+00	0	41	0	270532608	61	4360
2026-01-30 08:10:51.31	107.69	16.25	-45.2	-46.7	19.8	0.00e+00	0	41	0	272629760	61	4417
2026-01-30 08:10:52.31	107.60	16.35	-44.8	-46.2	20.2	0.00e+00	0	41	0	273678336	61	4186
2026-01-30 08:10:53.32	107.50	16.46	-44.7	-46.1	20.3	0.00e+00	0	41	0	275775488	61	4142
2026-01-30 08:10:54.33	107.41	16.56	-45.0	-46.4	20.0	0.00e+00	0	41	0	277872640	61	4260
2026-01-30 08:10:55.33	107.32	16.67	-44.8	-46.2	20.2	0.00e+00	0	41	0	279969792	61	4189
2026-01-30 08:10:56.34	107.22	16.77	-45.0	-46.4	20.0	0.00e+00	0	41	0	281018368	61	4289
2026-01-30 08:10:57.34	107.13	16.88	-45.1	-46.6	19.9	0.00e+00	0	41	0	283115520	61	4371
2026-01-30 08:10:58.35	107.03	16.98	-45.1	-46.6	19.9	0.00e+00	0	41	0	285212672	61	4363
2026-01-30 08:10:59.35	106.94	17.09	-45.2	-46.7	19.8	0.00e+00	0	41	0	287309824	61	4420
2026-01-30 08:11:00.36	106.84	17.20	-45.0	-46.5	19.9	0.00e+00	0	41	0	289406976	61	4294
2026-01-30 08:11:01.37	106.74	17.30	-44.9	-46.3	20.1	0.00e+00	0	41	0	290455552	61	4231
2026-01-30 08:11:02.37	106.65	17.41	-44.9	-46.3	20.1	0.00e+00	0	41	0	292552704	61	4232
2026-01-30 08:11:03.37	106.55	17.52	-44.9	-46.3	20.2	0.00e+00	0	41	0	294649856	61	4211
2026-01-30 08:11:04.38	106.45	17.62	-44.9	-46.3	20.2	0.00e+00	0	41	0	296747008	61	4217
2026-01-30 08:11:05.39	106.35	17.73	-44.7	-46.0	20.5	0.00e+00	0	41	0	298844160	61	4086
2026-01-30 08:11:06.39	106.25	17.84	-44.8	-46.1	20.4	0.00e+00	0	41	0	300941312	61	4130
2026-01-30 08:11:07.40	106.15	17.95	-44.7	-46.1	20.4	0.00e+00	0	41	0	301989888	61	4111
2026-01-30 08:11:08.40	106.04	18.06	-44.8	-46.1	20.4	0.00e+00	0	41	0	304087040	61	4124
2026-01-30 08:11:09.41	105.94	18.17	-44.9	-46.3	20.3	0.00e+00	0	41	0	306184192	61	4209
2026-01-30 08:11:10.42	105.84	18.28	-44.8	-46.2	20.3	0.00e+00	0	41	0	308281344	61	4158
2026-01-30 08:11:11.43	105.73	18.39	-44.9	-46.2	20.3	0.00e+00	0	41	0	309329920	61	4183
2026-01-30 08:11:12.44	105.62	18.50	-44.8	-46.2	20.3	0.00e+00	0	41	0	311427072	61	4173
2026-01-30 08:11:13.44	105.52	18.61	-45.0	-46.4	20.1	0.00e+00	0	41	0	313524224	61	4256
2026-01-30 08:11:14.44	105.41	18.73	-44.9	-46.3	20.3	0.00e+00	0	41	0	315621376	61	4194
2026-01-30 08:11:15.45	105.30	18.84	-45.1	-46.6	20.0	0.00e+00	0	41	0	317718528	61	4344
2026-01-30 08:11:16.46	105.19	18.95	-44.9	-46.3	20.2	0.00e+00	0	41	0	318767104	61	4213
2026-01-30 08:11:17.47	105.08	19.07	-45.0	-46.4	20.2	0.00e+00	0	41	0	320864256	61	4247
2026-01-30 08:11:18.48	104.97	19.18	-45.1	-46.5	20.1	0.00e+00	0	41	0	322961408	61	4306
2026-01-30 08:11:19.49	104.86	19.29	-45.3	-46.8	19.8	0.00e+00	0	41	0	325058560	61	4460
2026-01-30 08:11:20.49	104.75	19.41	-45.4	-46.9	19.8	0.00e+00	0	41	0	327155712	61	4508
2026-01-30 08:11:21.50	104.64	19.52	-45.4	-46.9	19.7	0.00e+00	0	41	0	329252864	61	4505
2026-01-30 08:11:22.51	104.52	19.64	-45.3	-46.8	19.8	0.00e+00	0	41	0	330301440	61	4465
2026-01-30 08:11:23.52	104.41	19.75	-45.3	-46.8	19.9	0.00e+00	0	41	0	332398592	61	4447
2026-01-30 08:11:24.52	104.29	19.87	-45.2	-46.6	20.0	0.00e+00	0	41	0	334495744	61	4387
2026-01-30 08:11:25.53	104.17	19.99	-45.2	-46.6	20.0	0.00e+00	0	41	0	336592896	61	4357
2026-01-30 08:11:26.54	104.06	20.10	-44.8	-46.2	20.4	0.00e+00	0	41	0	337641472	61	4146
2026-01-30 08:11:27.55	103.94	20.22	-44.9	-46.3	20.3	0.00e+00	0	41	0	339738624	61	4215
2026-01-30 08:11:28.55	103.82	20.34	-44.7	-45.9	20.6	0.00e+00	0	41	0	341835776	61	4045
2026-01-30 08:11:29.56	103.70	20.46	-44.6	-45.9	20.6	0.00e+00	0	41	0	343932928	61	4043
2026-01-30 08:11:30.57	103.58	20.58	-44.9	-46.2	20.1	0.00e+00	0	41	0	346030080	61	4176
2026-01-30 08:11:31.58	103.45	20.70	-44.7	-46.0	20.5	0.00e+00	0	41	0	348127232	61	4083
2026-01-30 08:11:32.59	103.33	20.82	-44.6	-45.9	20.6	0.00e+00	0	41	0	349175808	61	4024
2026-01-30 08:11:33.59	103.21	20.93	-44.7	-46.0	20.5	0.00e+00	0	41	0	351272960	61	4098
2026-01-30 08:11:34.59	103.08	21.05	-44.8	-46.2	20.4	0.00e+00	0	41	0	353370112	61	4161
2026-01-30 08:11:35.60	102.95	21.17	-44.8	-46.1	20.4	0.00e+00	0	41	0	355467264	61	4117
2026-01-30 08:11:36.60	102.83	21.30	-45.1	-46.5	20.2	0.00e+00	0	41	0	357564416	61	4300
2026-01-30 08:11:37.60	102.70	21.42	-45.1	-46.5	20.0	0.00e+00	0	41	0	358612992	61	4309
2026-01-30 08:11:38.61	102.57	21.54	-45.2	-46.6	20.0	0.00e+00	0	41	0	360710144	61	4346
2026-01-30 08:11:39.62	102.44	21.66	-45.0	-46.3	20.2	0.00e+00	0	41	0	362807296	61	4242
2026-01-30 08:11:40.62	102.31	21.78	-45.3	-46.7	19.8	0.00e+00	0	41	0	364904448	61	4430
2026-01-30 08:11:41.63	102.18	21.91	-45.4	-46.9	19.7	0.00e+00	0	41	0	365953024	61	4518
2026-01-30 08:11:42.63	102.04	22.03	-45.4	-46.9	19.6	0.00e+00	0	41	0	368050176	61	4542
2026-01-30 08:11:43.64	101.91	22.15	-45.6	-47.2	19.4	0.00e+00	0	41	0	370147328	61	4667
2026-01-30 08:11:44.64	101.77	22.28	-45.7	-47.3	19.5	0.00e+00	0	41	0	372244480	61	4708
2026-01-30 08:11:45.65	101.64	22.40	-45.4	-46.8	19.7	0.00e+00	0	41	0	374341632	62	4237
2026-01-30 08:11:46.66	101.50	22.53	-45.5	-47.0	19.6	0.00e+00	0	41	0	375390208	62	4323
2026-01-30 08:11:47.66	101.36	22.65	-45.1	-46.5	20.1	0.00e+00	0	41	0	377487360	62	4070
2026-01-30 08:11:48.67	101.22	22.78	-45.5	-47.0	19.6	0.00e+00	0	41	0	379584512	62	4327
2026-01-30 08:11:49.67	101.08	22.91	-45.3	-46.7	19.9	0.00e+00	0	41	0	381681664	62	4178
2026-01-30 08:11:50.68	100.94	23.03	-45.4	-46.9	19.8	0.00e+00	0	41	0	383778816	62	4248
2026-01-30 08:11:51.68	100.79	23.16	-45.6	-47.1	19.6	0.00e+00	0	41	0	385875968	62	4365
2026-01-30 08:11:52.69	100.65	23.29	-45.5	-47.0	19.5	0.00e+00	0	41	0	386924544	62	4330
2026-01-30 08:11:53.70	100.50	23.42	-45.6	-47.2	19.4	0.00e+00	0	41	0	389021696	62	4420
2026-01-30 08:11:54.71	100.35	23.55	-45.5	-47.1	19.6	0.00e+00	0	41	0	391118848	62	4344
2026-01-30 08:11:55.71	100.20	23.68	-45.5	-47.1	19.6	0.00e+00	0	41	0	393216000	62	4348
2026-01-30 08:11:56.72	100.05	23.81	-45.6	-47.2	19.4	0.00e+00	0	41	0	394264576	62	4435
2026-01-30 08:11:57.72	99.90	23.94	-45.8	-47.5	19.2	0.00e+00	0	41	0	396361728	62	4551
2026-01-30 08:11:58.73	99.75	24.07	-45.8	-47.5	19.2	0.00e+00	0	41	0	398458880	62	4556
2026-01-30 08:11:59.73	99.60	24.20	-45.7	-47.3	19.3	0.00e+00	0	41	0	400556032	62	4491
2026-01-30 08:12:00.74	99.44	24.33	-45.2	-46.7	19.7	0.00e+00	0	41	0	402653184	62	4179
2026-01-30 08:12:01.75	99.28	24.46	-45.3	-46.9	19.7	0.00e+00	0	41	0	403701760	62	4247
2026-01-30 08:12:02.75	99.13	24.59	-45.1	-46.6	20.0	0.00e+00	0	41	0	405798912	62	4136
2026-01-30 08:12:03.76	98.97	24.72	-45.1	-46.6	20.1	0.00e+00	0	41	0	407896064	61	4342
2026-01-30 08:12:04.77	98.81	24.86	-45.2	-46.7	19.9	0.00e+00	0	41	0	409993216	61	4405
2026-01-30 08:12:05.77	98.65	24.99	-45.1	-46.6	20.0	0.00e+00	0	41	0	412090368	61	4379
2026-01-30 08:12:06.77	98.48	25.12	-45.2	-46.7	19.9	0.00e+00	0	41	0	414187520	61	4405
2026-01-30 08:12:07.78	98.32	25.26	-45.2	-46.7	19.9	0.00e+00	0	41	0	415236096	61	4435
2026-01-30 08:12:08.79	98.15	25.39	-44.9	-46.3	20.3	0.00e+00	0	41	0	417333248	61	4197
2026-01-30 08:12:09.79	97.99	25.53	-45.4	-46.9	19.7	0.00e+00	0	41	0	419430400	61	4521
2026-01-30 08:12:10.80	97.82	25.66	-45.3	-46.8	19.8	0.00e+00	0	41	0	421527552	61	4479
2026-01-30 08:12:11.81	97.64	25.80	-45.5	-47.1	19.5	0.00e+00	0	41	0	422576128	61	4627
2026-01-30 08:12:12.81	97.47	25.94	-45.5	-47.0	19.6	0.00e+00	0	41	0	424673280	61	4564
2026-01-30 08:12:13.82	97.30	26.07	-45.5	-47.1	19.5	0.00e+00	0	41	0	426770432	61	4613
2026-01-30 08:12:14.82	97.13	26.21	-45.5	-47.0	19.6	0.00e+00	0	41	0	428867584	61	4555
2026-01-30 08:12:15.83	96.95	26.35	-45.3	-46.8	19.8	0.00e+00	0	41	0	430964736	61	4488
2026-01-30 08:12:16.84	96.77	26.49	-45.2	-46.7	19.9	0.00e+00	0	41	0	432013312	61	4413
2026-01-30 08:12:17.84	96.59	26.62	-45.5	-47.0	19.6	0.00e+00	0	41	0	434110464	61	4570
2026-01-30 08:12:18.85	96.41	26.76	-45.6	-47.2	19.5	0.00e+00	0	41	0	436207616	61	4656
2026-01-30 08:12:19.86	96.23	26.90	-45.7	-47.3	19.3	0.00e+00	0	41	0	438304768	61	4724
2026-01-30 08:12:20.86	96.04	27.04	-45.5	-47.1	19.5	0.00e+00	0	41	0	440401920	61	4607
2026-01-30 08:12:21.87	95.86	27.18	-45.5	-47.1	19.5	0.00e+00	0	41	0	441450496	61	4611
2026-01-30 08:12:22.87	95.67	27.32	-45.4	-47.0	19.6	0.00e+00	0	41	0	443547648	61	4561
2026-01-30 08:12:23.88	95.48	27.46	-45.6	-47.2	19.4	0.00e+00	0	41	0	445644800	61	4672
2026-01-30 08:12:24.88	95.29	27.60	-45.8	-47.6	19.0	0.00e+00	0	41	0	447741952	62	4604
2026-01-30 08:12:25.89	95.09	27.75	-45.9	-47.7	18.9	0.00e+00	0	41	0	449839104	62	4657
2026-01-30 08:12:26.90	94.90	27.89	-45.9	-47.7	18.9	0.00e+00	0	41	0	450887680	62	4675
2026-01-30 08:12:27.90	94.70	28.03	-45.8	-47.4	19.1	0.00e+00	0	41	0	452984832	63	4291
2026-01-30 08:12:28.91	94.50	28.17	-45.6	-47.2	19.4	0.00e+00	0	41	0	455081984	63	4169
2026-01-30 08:12:29.92	94.30	28.32	-45.3	-46.8	19.8	0.00e+00	0	41	0	457179136	62	4201
2026-01-30 08:12:30.93	94.10	28.46	-45.2	-46.6	20.0	0.00e+00	0	41	0	459276288	62	4143
2026-01-30 08:12:31.93	93.90	28.60	-45.5	-47.1	19.6	0.00e+00	0	41	0	460324864	62	4349
2026-01-30 08:12:32.94	93.69	28.75	-45.8	-47.4	19.3	0.00e+00	0	41	0	462422016	62	4512
2026-01-30 08:12:33.94	93.49	28.89	-46.1	-47.7	19.0	0.00e+00	0	41	0	464519168	62	4689
2026-01-30 08:12:34.94	93.28	29.03	-46.3	-48.0	18.7	0.00e+00	0	41	0	466616320	63	4589
2026-01-30 08:12:35.95	93.07	29.18	-46.3	-48.0	18.7	0.00e+00	0	41	0	468713472	63	4579
2026-01-30 08:12:36.96	92.85	29.32	-46.5	-48.3	18.5	0.00e+00	0	41	0	469762048	63	4748
2026-01-30 08:12:37.96	92.64	29.47	-46.4	-48.2	18.6	0.00e+00	0	41	0	471859200	63	4673
2026-01-30 08:12:38.97	92.42	29.61	-46.4	-48.2	18.5	0.00e+00	0	41	0	473956352	64	4420
2026-01-30 08:12:39.98	92.20	29.76	-46.7	-48.6	18.0	0.00e+00	0	41	0	476053504	64	4638
2026-01-30 08:12:40.98	91.98	29.91	-47.0	-49.1	17.5	0.00e+00	0	41	0	478150656	64	4910
2026-01-30 08:12:41.99	91.76	30.05	-47.1	-49.2	17.4	0.00e+00	0	41	0	479199232	65	4693
2026-01-30 08:12:42.99	91.53	30.20	-47.4	-49.7	17.1	0.00e+00	0	41	0	481296384	65	4942
2026-01-30 08:12:44.00	91.31	30.35	-47.7	-50.1	16.7	0.00e+00	0	41	0	483393536	66	4878
2026-01-30 08:12:45.00	91.08	30.49	-47.5	-49.8	17.0	0.00e+00	0	41	0	485490688	66	4733
2026-01-30 08:12:46.01	90.85	30.64	-47.5	-49.8	16.7	0.00e+00	0	41	0	487587840	66	4732
2026-01-30 08:12:47.02	90.61	30.79	-47.2	-49.4	17.3	0.00e+00	0	41	0	488636416	66	4538
2026-01-30 08:12:48.02	90.38	30.94	-47.1	-49.3	17.4	0.00e+00	0	41	0	490733568	66	4443
2026-01-30 08:12:49.03	90.14	31.08	-47.1	-49.2	17.4	0.00e+00	0	41	0	492830720	65	4693
2026-01-30 08:12:50.03	89.90	31.23	-47.1	-49.2	17.5	0.00e+00	0	41	0	494927872	65	4667
2026-01-30 08:12:51.04	89.66	31.38	-47.5	-49.8	17.0	0.00e+00	0	41	0	497025024	65	4998
2026-01-30 08:12:52.05	89.41	31.53	-47.5	-49.8	17.0	0.00e+00	0	41	0	498073600	66	4733
2026-01-30 08:12:53.05	89.17	31.68	-47.7	-50.1	16.7	0.00e+00	0	41	0	500170752	66	4887
2026-01-30 08:12:54.05	88.92	31.82	-47.4	-49.6	17.0	0.00e+00	0	41	0	502267904	66	4599
2026-01-30 08:12:55.06	88.67	31.97	-47.0	-48.9	17.8	0.00e+00	0	41	0	504365056	66	4263
2026-01-30 08:12:56.07	88.41	32.12	-46.9	-48.8	17.9	0.00e+00	0	41	0	506462208	65	4483
2026-01-30 08:12:57.08	88.15	32.27	-46.6	-48.4	18.4	0.00e+00	0	41	0	507510784	65	4264
2026-01-30 08:12:58.08	87.90	32.42	-47.1	-49.0	17.8	0.00e+00	0	41	0	509607936	65	4593
2026-01-30 08:12:59.09	87.63	32.57	-47.4	-49.5	17.3	0.00e+00	0	41	0	511705088	65	4834
2026-01-30 08:13:00.10	87.37	32.72	-48.0	-50.4	16.5	0.00e+00	0	41	0	513802240	66	5059
2026-01-30 08:13:01.11	87.10	32.87	-48.3	-51.0	15.9	0.00e+00	0	41	0	515899392	67	5135
2026-01-30 08:13:02.11	86.84	33.02	-48.4	-51.2	15.6	0.00e+00	0	41	0	516947968	67	5220
2026-01-30 08:13:03.11	86.57	33.17	-47.7	-50.0	16.8	0.00e+00	0	41	0	519045120	67	4576
2026-01-30 08:13:04.12	86.29	33.32	-47.0	-48.9	17.8	0.00e+00	0	41	0	521142272	66	4255
2026-01-30 08:13:05.13	86.02	33.47	-46.7	-48.5	18.2	0.00e+00	0	41	0	523239424	65	4323
2026-01-30 08:13:06.14	85.74	33.62	-46.0	-47.6	19.1	0.00e+00	0	41	0	525336576	64	4106
2026-01-30 08:13:07.14	85.46	33.77	-45.5	-46.9	19.8	0.00e+00	0	41	0	526385152	63	4046
2026-01-30 08:13:08.15	85.17	33.92	-45.5	-46.9	19.8	0.00e+00	0	41	0	528482304	62	4255
2026-01-30 08:13:09.16	84.89	34.07	-45.1	-46.4	20.2	0.00e+00	0	41	0	530579456	62	4038
2026-01-30 08:13:10.16	84.60	34.21	-45.2	-46.6	20.1	0.00e+00	0	41	0	532676608	61	4365
2026-01-30 08:13:11.17	84.31	34.36	-45.5	-47.1	19.7	0.00e+00	0	41	0	534773760	61	4601
2026-01-30 08:13:12.18	84.01	34.51	-45.9	-47.6	19.2	0.00e+00	0	41	0	535822336	62	4600
2026-01-30 08:13:13.18	83.71	34.66	-46.3	-48.0	18.8	0.00e+00	0	41	0	537919488	63	4590
2026-01-30 08:13:14.19	83.41	34.81	-46.2	-47.9	18.9	0.00e+00	0	41	0	540016640	63	4507
2026-01-30 08:13:15.19	83.11	34.96	-46.4	-48.1	18.7	0.00e+00	0	41	0	542113792	63	4614
2026-01-30 08:13:16.20	82.81	35.10	-46.4	-48.1	18.8	0.00e+00	0	41	0	544210944	63	4622
2026-01-30 08:13:17.20	82.50	35.25	-46.2	-47.8	19.0	0.00e+00	0	41	0	545259520	63	4479
2026-01-30 08:13:18.21	82.19	35.40	-46.3	-48.0	18.8	0.00e+00	0	41	0	547356672	63	4558
2026-01-30 08:13:19.21	81.88	35.55	-46.4	-48.1	18.6	0.00e+00	0	41	0	549453824	63	4633
2026-01-30 08:13:20.23	81.56	35.69	-46.7	-48.5	18.4	0.00e+00	0	41	0	551550976	63	4868
2026-01-30 08:13:21.23	81.24	35.84	-46.5	-48.3	18.5	0.00e+00	0	41	0	553648128	64	4491
2026-01-30 08:13:22.23	80.92	35.99	-46.7	-48.5	18.3	0.00e+00	0	41	0	554696704	64	4591
2026-01-30 08:13:23.23	80.59	36.13	-46.8	-48.6	18.2	0.00e+00	0	41	0	556793856	64	4645
2026-01-30 08:13:24.24	80.26	36.28	-46.4	-48.1	18.6	0.00e+00	0	41	0	558891008	64	4382
2026-01-30 08:13:25.24	79.94	36.42	-46.7	-48.5	18.3	0.00e+00	0	41	0	560988160	64	4569
2026-01-30 08:13:26.25	79.60	36.57	-47.2	-49.2	17.6	0.00e+00	0	41	0	563085312	64	4957
2026-01-30 08:13:27.25	79.27	36.71	-47.6	-49.7	17.1	0.00e+00	0	41	0	564133888	66	4689
2026-01-30 08:13:28.25	78.93	36.85	-47.5	-49.7	17.1	0.00e+00	0	41	0	566231040	66	4670
2026-01-30 08:13:29.26	78.58	36.99	-47.2	-49.3	17.5	0.00e+00	0	41	0	568328192	66	4448
2026-01-30 08:13:30.27	78.24	37.14	-47.4	-49.6	17.1	0.00e+00	0	41	0	570425344	66	4615
2026-01-30 08:13:31.27	77.89	37.28	-47.6	-50.1	16.7	0.00e+00	0	41	0	572522496	66	4876
2026-01-30 08:13:32.28	77.54	37.42	-48.0	-50.8	16.0	0.00e+00	0	41	0	573571072	66	5290
2026-01-30 08:13:33.29	77.18	37.56	-47.8	-50.4	16.2	0.00e+00	0	41	0	575668224	66	5085
2026-01-30 08:13:34.29	76.82	37.70	-47.5	-50.0	16.7	0.00e+00	0	41	0	577765376	66	4817
2026-01-30 08:13:35.30	76.46	37.84	-47.1	-49.3	17.4	0.00e+00	0	41	0	579862528	66	4462
2026-01-30 08:13:36.31	76.09	37.98	-46.9	-49.0	17.7	0.00e+00	0	41	0	581959680	65	4576
2026-01-30 08:13:37.31	75.73	38.11	-46.8	-48.8	17.9	0.00e+00	0	41	0	583008256	64	4747
2026-01-30 08:13:38.32	75.36	38.25	-46.9	-48.9	17.8	0.00e+00	0	41	0	585105408	64	4789
2026-01-30 08:13:39.33	74.98	38.39	-46.3	-48.1	18.5	0.00e+00	0	41	0	587202560	64	4364
2026-01-30 08:13:40.33	74.61	38.52	-45.7	-47.3	19.3	0.00e+00	0	41	0	589299712	63	4219
2026-01-30 08:13:41.34	74.22	38.66	-45.5	-47.0	19.6	0.00e+00	0	41	0	591396864	62	4324
2026-01-30 08:13:42.34	73.84	38.79	-45.6	-47.1	19.5	0.00e+00	0	41	0	592445440	62	4353
2026-01-30 08:13:43.35	73.46	38.92	-45.7	-47.2	19.6	0.00e+00	0	41	0	594542592	62	4422
2026-01-30 08:13:44.36	73.06	39.05	-45.9	-47.4	19.3	0.00e+00	0	41	0	596639744	63	4274
2026-01-30 08:13:45.36	72.67	39.18	-45.9	-47.6	19.1	0.00e+00	0	41	0	598736896	63	4347
2026-01-30 08:13:46.37	72.28	39.31	-45.6	-47.2	19.6	0.00e+00	0	41	0	600834048	63	4160
2026-01-30 08:13:47.38	71.88	39.44	-45.9	-47.5	19.2	0.00e+00	0	41	0	601882624	63	4331
2026-01-30 08:13:48.38	71.48	39.57	-45.7	-47.2	19.5	0.00e+00	0	41	0	603979776	63	4193
2026-01-30 08:13:49.39	71.07	39.69	-45.5	-47.0	19.6	0.00e+00	0	41	0	606076928	62	4335
2026-01-30 08:13:50.40	70.66	39.82	-45.3	-46.7	19.8	0.00e+00	0	41	0	608174080	62	4191
2026-01-30 08:13:51.41	70.25	39.94	-45.6	-47.2	19.4	0.00e+00	0	41	0	610271232	62	4419
2026-01-30 08:13:52.41	69.83	40.06	-45.3	-46.9	19.7	0.00e+00	0	41	0	611319808	62	4252
2026-01-30 08:13:53.42	69.41	40.18	-45.0	-46.5	20.0	0.00e+00	0	41	0	613416960	61	4335
2026-01-30 08:13:54.43	68.99	40.30	-44.7	-46.1	20.5	0.00e+00	0	41	0	615514112	61	4142
2026-01-30 08:13:55.44	68.56	40.42	-44.9	-46.4	20.2	0.00e+00	0	41	0	617611264	61	4246
2026-01-30 08:13:56.45	68.14	40.54	-44.8	-46.2	20.3	0.00e+00	0	41	0	619708416	61	4184
2026-01-30 08:13:57.46	67.70	40.65	-44.5	-46.0	20.5	0.00e+00	0	41	0	620756992	61	4055
2026-01-30 08:13:58.47	67.27	40.77	-44.1	-45.5	21.0	0.00e+00	0	41	0	622854144	60	4061
2026-01-30 08:13:59.48	66.83	40.88	-44.2	-45.5	21.2	0.00e+00	0	41	0	624951296	59	4328
2026-01-30 08:14:00.48	66.39	40.99	-44.7	-46.2	20.6	0.00e+00	0	41	0	627048448	59	4652
2026-01-30 08:14:01.49	65.95	41.10	-45.3	-46.9	19.7	0.00e+00	0	41	0	629145600	61	4510
2026-01-30 08:14:02.49	65.51	41.21	-45.5	-47.2	19.4	0.00e+00	0	41	0	630194176	61	4684
2026-01-30 08:14:03.50	65.06	41.31	-45.5	-47.2	19.4	0.00e+00	0	41	0	632291328	61	4696
2026-01-30 08:14:04.51	64.60	41.42	-45.4	-47.1	19.4	0.00e+00	0	41	0	634388480	62	4363
2026-01-30 08:14:05.52	64.15	41.52	-44.7	-46.2	20.3	0.00e+00	0	41	0	636485632	61	4165
2026-01-30 08:14:06.53	63.69	41.62	-44.4	-45.8	20.8	0.00e+00	0	41	0	638582784	59	4482
2026-01-30 08:14:07.53	63.23	41.72	-44.0	-45.3	21.3	0.00e+00	0	41	0	639631360	59	4228
2026-01-30 08:14:08.54	62.77	41.81	-44.0	-45.3	21.3	0.00e+00	0	41	0	641728512	59	4224
2026-01-30 08:14:09.55	62.30	41.91	-43.9	-45.2	21.4	0.00e+00	0	41	0	643825664	59	4168
2026-01-30 08:14:10.56	61.83	42.00	-43.7	-44.9	21.6	0.00e+00	0	41	0	645922816	59	4034
2026-01-30 08:14:11.56	61.36	42.09	-43.7	-44.9	21.6	0.00e+00	0	41	0	648019968	58	4280
2026-01-30 08:14:12.57	60.89	42.18	-43.6	-44.8	21.8	0.00e+00	0	41	0	649068544	58	4241
2026-01-30 08:14:13.57	60.41	42.27	-44.1	-45.4	21.2	0.00e+00	0	41	0	651165696	58	4543
2026-01-30 08:14:14.58	59.93	42.35	-44.2	-45.6	20.9	0.00e+00	0	41	0	653262848	60	4108
2026-01-30 08:14:15.58	59.45	42.44	-44.4	-45.9	20.6	0.00e+00	0	41	0	655360000	60	4254
2026-01-30 08:14:16.59	58.97	42.52	-45.2	-46.8	19.8	0.00e+00	0	41	0	657457152	61	4466
2026-01-30 08:14:17.60	58.48	42.59	-45.8	-47.5	19.2	0.00e+00	0	41	0	658505728	62	4557
2026-01-30 08:14:18.61	57.99	42.67	-45.7	-47.4	19.2	0.00e+00	0	41	0	660602880	62	4534
2026-01-30 08:14:19.61	57.50	42.75	-44.7	-46.0	20.5	0.00e+00	0	41	0	662700032	61	4082
2026-01-30 08:14:20.62	57.01	42.82	-44.7	-46.0	20.6	0.00e+00	0	41	0	664797184	60	4327
2026-01-30 08:14:21.62	56.51	42.89	-45.3	-46.9	19.9	0.00e+00	0	41	0	666894336	61	4502
2026-01-30 08:14:22.63	56.02	42.95	-45.7	-47.3	19.5	0.00e+00	0	41	0	667942912	62	4470
2026-01-30 08:14:23.63	55.52	43.02	-45.0	-46.3	20.2	0.00e+00	0	41	0	670040064	62	4002
2026-01-30 08:14:24.64	55.02	43.08	-44.2	-45.5	21.1	0.00e+00	0	41	0	672137216	60	4068
2026-01-30 08:14:25.64	54.52	43.14	-44.5	-45.7	20.8	0.00e+00	0	41	0	674234368	60	4185
2026-01-30 08:14:26.64	54.01	43.20	-44.8	-46.2	20.4	0.00e+00	0	41	0	676331520	60	4395
2026-01-30 08:14:27.65	53.51	43.25	-44.8	-46.2	20.4	0.00e+00	0	41	0	677380096	60	4392
2026-01-30 08:14:28.65	53.00	43.31	-45.1	-46.6	20.1	0.00e+00	0	41	0	679477248	60	4600
2026-01-30 08:14:29.66	52.49	43.36	-45.8	-47.5	19.2	0.00e+00	0	41	0	681574400	62	4593
2026-01-30 08:14:30.66	51.98	43.41	-46.3	-48.2	18.6	0.00e+00	0	41	0	683671552	63	4665
2026-01-30 08:14:31.67	51.46	43.45	-45.8	-47.4	19.3	0.00e+00	0	41	0	685768704	63	4273
2026-01-30 08:14:32.68	50.95	43.49	-44.8	-46.2	20.5	0.00e+00	0	41	0	686817280	61	4158
2026-01-30 08:14:33.69	50.43	43.53	-44.5	-45.8	20.8	0.00e+00	0	41	0	688914432	60	4207
2026-01-30 08:14:34.69	49.91	43.57	-44.8	-46.2	20.4	0.00e+00	0	41	0	691011584	60	4437
2026-01-30 08:14:35.69	49.40	43.61	-45.4	-47.0	19.7	0.00e+00	0	41	0	693108736	61	4548
2026-01-30 08:14:36.70	48.88	43.64	-45.2	-46.6	19.9	0.00e+00	0	41	0	695205888	61	4388
2026-01-30 08:14:37.71	48.36	43.67	-45.6	-47.2	19.5	0.00e+00	0	41	0	696254464	61	4669
2026-01-30 08:14:38.72	47.83	43.70	-45.5	-47.1	19.6	0.00e+00	0	41	0	698351616	62	4347
2026-01-30 08:14:39.73	47.31	43.72	-46.0	-47.8	18.9	0.00e+00	0	41	0	700448768	62	4745
2026-01-30 08:14:40.73	46.79	43.74	-46.2	-48.1	18.9	0.00e+00	0	41	0	702545920	63	4627
2026-01-30 08:14:41.74	46.26	43.76	-46.2	-48.1	18.7	0.00e+00	0	41	0	704643072	63	4611
2026-01-30 08:14:42.75	45.74	43.78	-46.0	-47.8	19.0	0.00e+00	0	41	0	705691648	63	4465
2026-01-30 08:14:43.75	45.21	43.79	-45.7	-47.4	19.3	0.00e+00	0	41	0	707788800	63	4253
2026-01-30 08:14:44.76	44.69	43.81	-45.4	-47.0	19.6	0.00e+00	0	41	0	709885952	62	4296
2026-01-30 08:14:45.77	44.16	43.81	-45.9	-47.7	19.0	0.00e+00	0	41	0	711983104	62	4671
2026-01-30 08:14:46.77	43.64	43.82	-46.3	-48.3	18.5	0.00e+00	0	41	0	714080256	63	4717
2026-01-30 08:14:47.78	43.11	43.82	-46.6	-48.6	18.2	0.00e+00	0	41	0	715128832	63	4895
2026-01-30 08:14:48.78	42.59	43.82	-46.1	-48.0	18.7	0.00e+00	0	41	0	717225984	63	4552
2026-01-30 08:14:49.79	42.06	43.82	-45.4	-46.9	19.7	0.00e+00	0	41	0	719323136	62	4275
2026-01-30 08:14:50.79	41.53	43.82	-45.1	-46.5	20.1	0.00e+00	0	41	0	721420288	62	4087
2026-01-30 08:14:51.79	41.01	43.81	-45.5	-47.1	19.6	0.00e+00	0	41	0	723517440	61	4629
2026-01-30 08:14:52.79	40.49	43.80	-46.0	-47.7	19.0	0.00e+00	0	41	0	724566016	62	4700
2026-01-30 08:14:53.80	39.96	43.79	-46.4	-48.2	18.5	0.00e+00	0	41	0	726663168	63	4705
2026-01-30 08:14:54.81	39.44	43.77	-46.7	-48.7	17.9	0.00e+00	0	41	0	728760320	64	4699
2026-01-30 08:14:55.81	38.92	43.75	-46.9	-49.0	17.7	0.00e+00	0	41	0	730857472	64	4847
2026-01-30 08:14:56.82	38.39	43.73	-47.0	-49.2	17.5	0.00e+00	0	41	0	732954624	64	4983
2026-01-30 08:14:57.82	37.87	43.71	-46.8	-48.9	17.7	0.00e+00	0	41	0	734003200	64	4777
2026-01-30 08:14:58.83	37.35	43.68	-47.2	-49.6	17.1	0.00e+00	0	41	0	736100352	65	4875
2026-01-30 08:14:59.84	36.83	43.65	-47.2	-49.5	17.2	0.00e+00	0	41	0	738197504	66	4594
2026-01-30 08:15:00.85	36.30	43.62	-46.9	-49.0	17.6	0.00e+00	0	41	0	740294656	65	4596
2026-01-30 08:15:01.85	35.79	43.58	-46.7	-48.8	18.0	0.00e+00	0	41	0	741343232	65	4445
2026-01-30 08:15:02.86	35.27	43.55	-46.7	-48.7	18.1	0.00e+00	0	41	0	743440384	65	4392
2026-01-30 08:15:03.86	34.76	43.51	-46.7	-48.7	18.0	0.00e+00	0	41	0	745537536	65	4402
2026-01-30 08:15:04.87	34.24	43.47	-46.6	-48.6	18.1	0.00e+00	0	41	0	747634688	64	4599
2026-01-30 08:15:05.87	33.73	43.42	-46.7	-48.7	18.1	0.00e+00	0	41	0	749731840	64	4673
2026-01-30 08:15:06.88	33.21	43.38	-47.7	-49.7	17.3	0.00e+00	0	41	0	751828992	65	4936
2026-01-30 08:15:07.88	32.71	43.33	-47.3	-49.6	17.1	0.00e+00	0	41	0	752877568	65	4910
2026-01-30 08:15:08.88	32.20	43.27	-47.4	-49.8	17.0	0.00e+00	0	41	0	754974720	65	4986
2026-01-30 08:15:09.89	31.69	43.22	-47.0	-49.1	17.6	0.00e+00	0	41	0	757071872	65	4649
2026-01-30 08:15:10.89	31.19	43.16	-47.0	-49.1	17.5	0.00e+00	0	41	0	759169024	65	4634
2026-01-30 08:15:11.90	30.68	43.10	-46.8	-48.9	17.7	0.00e+00	0	41	0	761266176	65	4513
2026-01-30 08:15:12.90	30.19	43.04	-47.0	-49.3	17.2	0.00e+00	0	41	0	762314752	64	4996
2026-01-30 08:15:13.90	29.69	42.98	-47.1	-49.6	16.9	0.00e+00	0	41	0	764411904	64	5161
2026-01-30 08:15:14.91	29.19	42.91	-47.4	-50.0	16.7	0.00e+00	0	41	0	766509056	65	5112
2026-01-30 08:15:15.91	28.70	42.84	-46.6	-48.8	17.8	0.00e+00	0	41	0	768606208	65	4457
2026-01-30 08:15:16.91	28.21	42.77	-45.6	-47.3	19.2	0.00e+00	0	41	0	769654784	63	4224
2026-01-30 08:15:17.92	27.71	42.70	-44.5	-45.9	20.5	0.00e+00	0	41	0	771751936	61	4019
2026-01-30 08:15:18.92	27.23	42.62	-44.7	-46.1	20.5	0.00e+00	0	41	0	773849088	60	4386
2026-01-30 08:15:19.93	26.74	42.55	-45.0	-46.5	20.1	0.00e+00	0	41	0	775946240	60	4575
2026-01-30 08:15:20.94	26.25	42.47	-45.1	-46.7	19.9	0.00e+00	0	41	0	778043392	61	4396
2026-01-30 08:15:21.94	25.78	42.39	-45.3	-46.9	19.8	0.00e+00	0	41	0	779091968	61	4520
2026-01-30 08:15:22.95	25.29	42.30	-45.3	-46.8	19.9	0.00e+00	0	41	0	781189120	61	4456
2026-01-30 08:15:23.96	24.82	42.21	-44.6	-45.9	20.7	0.00e+00	0	41	0	783286272	61	4047
2026-01-30 08:15:24.97	24.34	42.13	-44.0	-45.3	21.2	0.00e+00	0	41	0	785383424	60	3964
2026-01-30 08:15:25.97	23.87	42.04	-44.5	-45.8	21.0	0.00e+00	0	41	0	787480576	59	4465
2026-01-30 08:15:26.98	23.40	41.94	-44.4	-45.7	20.8	0.00e+00	0	41	0	789577728	60	4189
2026-01-30 08:15:27.99	22.93	41.85	-44.4	-45.7	20.9	0.00e+00	0	41	0	790626304	60	4161
2026-01-30 08:15:28.99	22.47	41.76	-44.1	-45.3	21.4	0.00e+00	0	41	0	792723456	59	4223
2026-01-30 08:15:30.00	22.01	41.66	-44.2	-45.4	21.3	0.00e+00	0	41	0	794820608	59	4262
2026-01-30 08:15:31.01	21.55	41.56	-44.4	-45.7	21.1	0.00e+00	0	41	0	796917760	59	4408
2026-01-30 08:15:32.01	21.10	41.46	-44.6	-46.0	20.9	0.00e+00	0	41	0	797966336	59	4563
2026-01-30 08:15:33.02	20.65	41.35	-44.7	-46.1	20.5	0.00e+00	0	41	0	800063488	60	4384
2026-01-30 08:15:34.03	20.20	41.25	-45.0	-46.5	20.2	0.00e+00	0	41	0	802160640	60	4584
2026-01-30 08:15:35.04	19.75	41.14	-44.9	-46.3	20.4	0.00e+00	0	41	0	804257792	60	4472
2026-01-30 08:15:36.04	19.31	41.03	-44.6	-45.9	20.8	0.00e+00	0	41	0	806354944	60	4261
2026-01-30 08:15:37.05	18.87	40.92	-44.0	-45.2	21.6	0.00e+00	0	41	0	807403520	59	4188
2026-01-30 08:15:38.05	18.43	40.81	-43.5	-44.6	22.1	0.00e+00	0	41	0	809500672	58	4131
2026-01-30 08:15:39.06	18.00	40.70	-43.3	-44.5	22.3	0.00e+00	0	41	0	811597824	58	4052
2026-01-30 08:15:40.07	17.56	40.59	-42.7	-43.8	22.8	0.00e+00	0	41	0	813694976	57	3966
2026-01-30 08:15:41.07	17.14	40.47	-42.8	-43.9	22.7	0.00e+00	0	41	0	815792128	57	4025
2026-01-30 08:15:42.08	16.71	40.35	-43.3	-44.5	22.2	0.00e+00	0	41	0	817889280	57	4294
2026-01-30 08:15:43.09	16.29	40.23	-43.6	-44.8	22.0	0.00e+00	0	41	0	818937856	57	4442
2026-01-30 08:15:44.10	15.87	40.11	-43.3	-44.4	22.3	0.00e+00	0	41	0	821035008	57	4245
2026-01-30 08:15:45.10	15.46	39.99	-42.8	-43.9	22.7	0.00e+00	0	41	0	823132160	57	4007
2026-01-30 08:15:46.10	15.05	39.87	-42.8	-43.8	22.7	0.00e+00	0	41	0	825229312	57	3990
2026-01-30 08:15:47.11	14.64	39.75	-42.6	-43.6	22.8	0.00e+00	0	41	0	826277888	57	3901
2026-01-30 08:15:48.12	14.23	39.62	-42.1	-43.0	23.3	0.00e+00	0	41	0	828375040	56	3859
2026-01-30 08:15:49.12	13.83	39.50	-42.4	-43.4	23.1	0.00e+00	0	41	0	830472192	56	4012
2026-01-30 08:15:50.12	13.43	39.37	-43.0	-44.2	22.4	0.00e+00	0	41	0	832569344	56	4404
2026-01-30 08:15:51.12	13.04	39.24	-43.5	-44.7	22.1	0.00e+00	0	41	0	834666496	57	4400
2026-01-30 08:15:52.14	12.64	39.11	-43.1	-44.2	22.5	0.00e+00	0	41	0	835715072	57	4156
2026-01-30 08:15:53.15	12.25	38.98	-42.7	-43.8	22.8	0.00e+00	0	41	0	837812224	57	3985
2026-01-30 08:15:54.15	11.86	38.85	-42.6	-43.6	23.0	0.00e+00	0	41	0	839909376	57	3912
2026-01-30 08:15:55.15	11.48	38.72	-43.0	-44.1	22.6	0.00e+00	0	41	0	842006528	57	4107
2026-01-30 08:15:56.16	11.10	38.58	-42.8	-43.9	22.8	0.00e+00	0	41	0	844103680	57	4022
2026-01-30 08:15:57.17	10.72	38.45	-42.8	-43.9	22.8	0.00e+00	0	41	0	845152256	57	4014
2026-01-30 08:15:58.18	10.34	38.31	-43.3	-44.4	22.4	0.00e+00	0	41	0	847249408	57	4254
2026-01-30 08:15:59.18	9.97	38.18	-44.1	-45.3	21.7	0.00e+00	0	41	0	849346560	58	4472
2026-01-30 08:16:00.18	9.61	38.04	-44.5	-45.8	21.2	0.00e+00	0	41	0	851443712	59	4463
2026-01-30 08:16:01.19	9.24	37.91	-44.2	-45.5	21.5	0.00e+00	0	41	0	853540864	59	4296
2026-01-30 08:16:02.20	8.88	37.77	-44.1	-45.3	21.6	0.00e+00	0	41	0	854589440	59	4217
2026-01-30 08:16:03.21	8.52	37.63	-44.6	-45.9	21.2	0.00e+00	0	41	0	856686592	59	4516
2026-01-30 08:16:04.22	8.16	37.49	-44.7	-46.0	20.8	0.00e+00	0	41	0	858783744	60	4304
2026-01-30 08:16:05.22	7.81	37.35	-44.7	-46.0	20.7	0.00e+00	0	41	0	860880896	60	4330
2026-01-30 08:16:06.23	7.46	37.21	-44.7	-46.0	20.8	0.00e+00	0	41	0	862978048	60	4298
2026-01-30 08:16:07.23	7.12	37.06	-44.2	-45.5	21.3	0.00e+00	0	41	0	864026624	60	4059
2026-01-30 08:16:08.24	6.77	36.92	-44.9	-46.3	20.6	0.00e+00	0	41	0	866123776	60	4443
2026-01-30 08:16:09.25	6.43	36.78	-45.4	-46.9	20.0	0.00e+00	0	41	0	868220928	61	4502
2026-01-30 08:16:10.26	6.09	36.63	-44.9	-46.2	20.6	0.00e+00	0	41	0	870318080	61	4185
2026-01-30 08:16:11.26	5.76	36.49	-44.3	-45.5	21.2	0.00e+00	0	41	0	872415232	60	4065
2026-01-30 08:16:12.27	5.42	36.35	-44.5	-45.6	21.4	0.00e+00	0	41	0	874512384	59	4383
2026-01-30 08:16:13.28	5.09	36.20	-44.4	-45.6	21.1	0.00e+00	0	41	0	875560960	60	4136
2026-01-30 08:16:14.28	4.77	36.06	-44.5	-45.7	21.0	0.00e+00	0	41	0	877658112	60	4161
2026-01-30 08:16:15.29	4.45	35.91	-44.1	-45.2	21.5	0.00e+00	0	41	0	879755264	60	3934
2026-01-30 08:16:16.29	4.13	35.77	-44.5	-45.6	21.5	0.00e+00	0	41	0	881852416	59	4391
2026-01-30 08:16:17.30	3.81	35.62	-44.4	-45.7	21.1	0.00e+00	0	41	0	882900992	60	4149
2026-01-30 08:16:18.30	3.50	35.47	-44.7	-46.0	20.8	0.00e+00	0	41	0	884998144	60	4314
2026-01-30 08:16:19.30	3.19	35.33	-44.3	-45.4	21.3	0.00e+00	0	41	0	887095296	60	4040
2026-01-30 08:16:20.31	2.88	35.18	-44.2	-45.4	21.6	0.00e+00	0	41	0	889192448	59	4254
2026-01-30 08:16:21.31	2.58	35.03	-44.6	-45.7	21.2	0.00e+00	0	41	0	891289600	59	4439
2026-01-30 08:16:22.32	2.27	34.89	-44.8	-46.1	20.6	0.00e+00	0	41	0	892338176	60	4356
2026-01-30 08:16:23.33	1.97	34.74	-45.7	-47.1	19.8	0.00e+00	0	41	0	894435328	61	4641
2026-01-30 08:16:24.33	1.67	34.59	-45.6	-47.0	19.9	0.00e+00	0	41	0	896532480	62	4314
2026-01-30 08:16:25.34	1.38	34.44	-45.0	-46.3	20.4	0.00e+00	0	41	0	898629632	61	4231
2026-01-30 08:16:26.35	1.09	34.29	-44.4	-45.6	21.1	0.00e+00	0	41	0	900726784	60	4099
2026-01-30 08:16:27.35	0.80	34.14	-44.9	-46.1	20.7	0.00e+00	0	41	0	901775360	60	4389
2026-01-30 08:16:28.36	0.51	34.00	-45.2	-46.5	20.3	0.00e+00	0	41	0	903872512	60	4592
2026-01-30 08:16:29.37	0.23	33.85	-45.7	-47.1	19.7	0.00e+00	0	41	0	905969664	61	4650
2026-01-30 08:16:30.37	359.95	33.70	-45.7	-47.2	19.7	0.00e+00	0	41	0	908066816	62	4403
2026-01-30 08:16:31.38	359.67	33.55	-46.7	-48.4	18.6	0.00e+00	0	41	0	910163968	63	4788
2026-01-30 08:16:32.39	359.39	33.40	-47.5	-49.6	17.4	0.00e+00	0	41	0	911212544	65	4882
2026-01-30 08:16:33.40	359.11	33.25	-48.5	-51.2	15.8	0.00e+00	0	41	0	913309696	67	5236
2026-01-30 08:16:34.40	358.84	33.10	-48.4	-50.9	16.0	0.00e+00	0	41	0	915406848	67	5086
2026-01-30 08:16:35.41	358.58	32.95	-47.7	-49.8	17.2	0.00e+00	0	41	0	917504000	67	4442
2026-01-30 08:16:36.42	358.31	32.80	-46.5	-48.1	18.7	0.00e+00	0	41	0	919601152	64	4376
2026-01-30 08:16:37.42	358.05	32.66	-46.8	-48.5	18.3	0.00e+00	0	41	0	920649728	64	4584
2026-01-30 08:16:38.43	357.78	32.51	-47.3	-49.2	17.7	0.00e+00	0	41	0	922746880	65	4700
2026-01-30 08:16:39.44	357.52	32.36	-48.2	-50.7	16.3	0.00e+00	0	41	0	924844032	67	4942
2026-01-30 08:16:40.44	357.27	32.21	-48.5	-51.0	15.9	0.00e+00	0	41	0	926941184	67	5127
2026-01-30 08:16:41.45	357.01	32.06	-47.8	-49.9	17.0	0.00e+00	0	41	0	929038336	67	4530
2026-01-30 08:16:42.46	356.76	31.91	-47.4	-49.3	17.5	0.00e+00	0	41	0	930086912	66	4476
2026-01-30 08:16:43.47	356.51	31.76	-47.4	-49.4	17.4	0.00e+00	0	41	0	932184064	65	4768
2026-01-30 08:16:44.47	356.27	31.61	-46.8	-48.5	18.3	0.00e+00	0	41	0	934281216	65	4318
2026-01-30 08:16:45.48	356.02	31.47	-46.3	-47.9	18.9	0.00e+00	0	41	0	936378368	64	4249
2026-01-30 08:16:46.48	355.78	31.32	-46.1	-47.6	19.1	0.00e+00	0	41	0	938475520	64	4135
2026-01-30 08:16:47.49	355.54	31.17	-46.5	-48.2	18.8	0.00e+00	0	41	0	939524096	63	4664
2026-01-30 08:16:48.50	355.30	31.02	-46.5	-48.1	18.7	0.00e+00	0	41	0	941621248	64	4377
2026-01-30 08:16:49.50	355.06	30.88	-46.6	-48.3	18.5	0.00e+00	0	41	0	943718400	64	4456
2026-01-30 08:16:50.51	354.83	30.73	-46.7	-48.4	18.4	0.00e+00	0	41	0	945815552	64	4534
2026-01-30 08:16:51.52	354.60	30.58	-46.3	-47.9	18.9	0.00e+00	0	41	0	947912704	64	4249
2026-01-30 08:16:52.53	354.37	30.43	-45.7	-47.1	19.6	0.00e+00	0	41	0	948961280	63	4141
2026-01-30 08:16:53.53	354.14	30.29	-45.5	-46.8	19.9	0.00e+00	0	41	0	951058432	62	4240
2026-01-30 08:16:54.54	353.91	30.14	-45.4	-46.7	20.1	0.00e+00	0	41	0	953155584	62	4181
2026-01-30 08:16:55.55	353.69	29.99	-45.7	-47.1	19.7	0.00e+00	0	41	0	955252736	62	4385
2026-01-30 08:16:56.56	353.47	29.85	-46.5	-48.2	18.9	0.00e+00	0	41	0	957349888	63	4665
2026-01-30 08:16:57.56	353.25	29.70	-46.6	-48.4	18.4	0.00e+00	0	41	0	958398464	64	4507
2026-01-30 08:16:58.57	353.03	29.56	-46.8	-48.6	18.2	0.00e+00	0	41	0	960495616	64	4613
2026-01-30 08:16:59.58	352.82	29.41	-46.2	-47.8	18.9	0.00e+00	0	41	0	962592768	64	4210
2026-01-30 08:17:00.58	352.60	29.27	-46.0	-47.6	19.2	0.00e+00	0	41	0	964689920	63	4358
2026-01-30 08:17:01.59	352.39	29.12	-45.9	-47.4	19.4	0.00e+00	0	41	0	966787072	63	4289
2026-01-30 08:17:02.59	352.18	28.98	-46.1	-47.7	19.2	0.00e+00	0	41	0	967835648	63	4412
2026-01-30 08:17:03.60	351.98	28.84	-45.9	-47.4	19.4	0.00e+00	0	41	0	969932800	63	4253
2026-01-30 08:17:04.61	351.77	28.69	-46.1	-47.7	19.3	0.00e+00	0	41	0	972029952	63	4394
2026-01-30 08:17:05.61	351.57	28.55	-46.2	-47.8	19.1	0.00e+00	0	41	0	974127104	63	4457
2026-01-30 08:17:06.62	351.36	28.41	-46.2	-47.8	19.0	0.00e+00	0	41	0	976224256	63	4487
2026-01-30 08:17:07.63	351.16	28.26	-46.1	-47.7	19.1	0.00e+00	0	41	0	977272832	63	4438
2026-01-30 08:17:08.63	350.97	28.12	-46.4	-48.1	18.9	0.00e+00	0	41	0	979369984	63	4616
2026-01-30 08:17:09.64	350.77	27.98	-46.1	-47.7	19.0	0.00e+00	0	41	0	981467136	63	4438
2026-01-30 08:17:10.65	350.57	27.84	-45.8	-47.4	19.4	0.00e+00	0	41	0	983564288	63	4252
2026-01-30 08:17:11.66	350.38	27.70	-46.3	-48.0	18.9	0.00e+00	0	41	0	985661440	63	4560
2026-01-30 08:17:12.67	350.19	27.55	-46.2	-47.8	19.0	0.00e+00	0	41	0	986710016	63	4446
2026-01-30 08:17:13.67	350.00	27.41	-46.2	-47.8	19.0	0.00e+00	0	41	0	988807168	63	4493
2026-01-30 08:17:14.68	349.81	27.27	-45.8	-47.3	19.5	0.00e+00	0	41	0	990904320	63	4235
2026-01-30 08:17:15.68	349.63	27.14	-46.2	-47.9	19.0	0.00e+00	0	41	0	993001472	63	4497
2026-01-30 08:17:16.69	349.44	27.00	-45.5	-46.9	19.8	0.00e+00	0	41	0	995098624	63	4045
2026-01-30 08:17:17.70	349.26	26.86	-45.6	-47.1	19.8	0.00e+00	0	41	0	996147200	62	4347
2026-01-30 08:17:18.70	349.08	26.72	-45.0	-46.3	20.4	0.00e+00	0	41	0	998244352	61	4225
2026-01-30 08:17:19.71	348.90	26.58	-44.9	-46.2	20.5	0.00e+00	0	41	0	1000341504	61	4147
2026-01-30 08:17:20.72	348.72	26.44	-44.8	-46.1	20.6	0.00e+00	0	41	0	1002438656	61	4107
2026-01-30 08:17:21.72	348.54	26.31	-45.1	-46.4	20.3	0.00e+00	0	41	0	1004535808	61	4274
2026-01-30 08:17:22.73	348.37	26.17	-45.4	-46.8	20.0	0.00e+00	0	41	0	1005584384	61	4478
2026-01-30 08:17:23.74	348.19	26.03	-45.7	-47.2	19.7	0.00e+00	0	41	0	1007681536	61	4660
2026-01-30 08:17:24.74	348.02	25.90	-45.7	-47.1	19.7	0.00e+00	0	41	0	1009778688	62	4380
2026-01-30 08:17:25.75	347.85	25.76	-45.8	-47.3	19.5	0.00e+00	0	41	0	1011875840	62	4487
2026-01-30 08:17:26.75	347.68	25.63	-46.2	-47.8	19.0	0.00e+00	0	41	0	1013972992	63	4491
2026-01-30 08:17:27.76	347.51	25.49	-46.1	-47.6	19.2	0.00e+00	0	41	0	1015021568	63	4382
2026-01-30 08:17:28.77	347.35	25.35	-45.5	-46.9	19.8	0.00e+00	0	41	0	1017118720	62	4275
2026-01-30 08:17:29.77	347.18	25.22	-44.9	-46.2	20.4	0.00e+00	0	41	0	1019215872	61	4180
2026-01-30 08:17:30.78	347.02	25.09	-44.6	-45.9	20.7	0.00e+00	0	41	0	1021313024	61	4033
2026-01-30 08:17:31.79	346.86	24.95	-44.2	-45.4	21.1	0.00e+00	0	41	0	1023410176	60	4035
2026-01-30 08:17:32.79	346.70	24.82	-44.4	-45.7	20.9	0.00e+00	0	41	0	1024458752	60	4148
2026-01-30 08:17:33.80	346.54	24.69	-44.4	-45.7	20.9	0.00e+00	0	41	0	1026555904	60	4159
2026-01-30 08:17:34.81	346.38	24.56	-44.9	-46.2	20.4	0.00e+00	0	41	0	1028653056	60	4426
2026-01-30 08:17:35.82	346.22	24.42	-45.3	-46.8	19.9	0.00e+00	0	41	0	1030750208	61	4444
2026-01-30 08:17:36.82	346.07	24.29	-45.5	-47.0	19.7	0.00e+00	0	41	0	1032847360	61	4559
2026-01-30 08:17:37.82	345.92	24.16	-45.5	-47.0	19.7	0.00e+00	0	41	0	1033895936	62	4312
2026-01-30 08:17:38.83	345.76	24.03	-45.6	-47.1	19.7	0.00e+00	0	41	0	1035993088	62	4342
2026-01-30 08:17:39.84	345.61	23.90	-45.2	-46.6	20.1	0.00e+00	0	41	0	1038090240	62	4128
2026-01-30 08:17:40.85	345.46	23.77	-45.4	-46.8	19.8	0.00e+00	0	41	0	1040187392	62	4240
2026-01-30 08:17:41.85	345.31	23.64	-45.5	-47.0	19.7	0.00e+00	0	41	0	1042284544	62	4294
2026-01-30 08:17:42.86	345.17	23.52	-45.8	-47.3	19.4	0.00e+00	0	41	0	1043333120	62	4478
2026-01-30 08:17:43.87	345.02	23.39	-46.2	-47.8	18.9	0.00e+00	0	41	0	1045430272	63	4478
2026-01-30 08:17:44.87	344.87	23.26	-46.4	-48.2	18.5	0.00e+00	0	41	0	1047527424	63	4656
2026-01-30 08:17:45.88	344.73	23.13	-46.7	-48.5	18.2	0.00e+00	0	41	0	1049624576	64	4581
2026-01-30 08:17:46.88	344.59	23.01	-47.0	-48.9	17.9	0.00e+00	0	41	0	1051721728	64	4769
2026-01-30 08:17:47.89	344.45	22.88	-46.7	-48.5	18.1	0.00e+00	0	41	0	1052770304	64	4589
2026-01-30 08:17:48.90	344.31	22.75	-46.4	-48.0	18.5	0.00e+00	0	41	0	1054867456	64	4337
2026-01-30 08:17:49.90	344.17	22.63	-46.1	-47.6	19.1	0.00e+00	0	41	0	1056964608	63	4384
2026-01-30 08:17:50.91	344.03	22.50	-45.5	-47.0	19.6	0.00e+00	0	41	0	1059061760	63	4070
2026-01-30 08:17:51.92	343.89	22.38	-45.5	-46.9	19.8	0.00e+00	0	41	0	1061158912	62	4261
2026-01-30 08:17:52.92	343.76	22.25	-45.1	-46.5	20.1	0.00e+00	0	41	0	1062207488	62	4074
2026-01-30 08:17:53.93	343.62	22.13	-45.2	-46.6	20.0	0.00e+00	0	41	0	1064304640	62	4123
2026-01-30 08:17:54.94	343.49	22.01	-45.1	-46.5	20.0	0.00e+00	0	41	0	1066401792	62	4081
2026-01-30 08:17:55.94	343.36	21.88	-44.9	-46.2	20.4	0.00e+00	0	41	0	1068498944	61	4192
2026-01-30 08:17:56.95	343.23	21.76	-44.9	-46.3	20.4	0.00e+00	0	41	0	1070596096	61	4207
2026-01-30 08:17:57.96	343.09	21.64	-44.7	-46.0	20.5	0.00e+00	0	41	0	1071644672	61	4098
2026-01-30 08:17:58.97	342.96	21.52	-44.8	-46.1	20.5	0.00e+00	0	41	0	1073741824	61	4112
2026-01-30 08:17:59.98	342.84	21.39	-44.8	-46.1	20.4	0.00e+00	0	41	0	1075838976	61	4143
2026-01-30 08:18:00.99	342.71	21.27	-44.9	-46.2	20.4	0.00e+00	0	41	0	1077936128	61	4168
2026-01-30 08:18:02.00	342.58	21.15	-44.9	-46.3	20.3	0.00e+00	0	41	0	1080033280	61	4200
2026-01-30 08:18:03.00	342.46	21.03	-45.0	-46.4	20.2	0.00e+00	0	41	0	1081081856	61	4286
2026-01-30 08:18:04.01	342.33	20.91	-45.2	-46.7	20.0	0.00e+00	0	41	0	1083179008	61	4407
2026-01-30 08:18:05.02	342.21	20.79	-45.2	-46.6	20.0	0.00e+00	0	41	0	1085276160	61	4360
2026-01-30 08:18:06.02	342.09	20.68	-45.3	-46.7	19.9	0.00e+00	0	41	0	1087373312	61	4428
2026-01-30 08:18:07.03	341.97	20.56	-45.1	-46.5	20.1	0.00e+00	0	41	0	1089470464	61	4304
2026-01-30 08:18:08.04	341.85	20.44	-44.8	-46.1	20.4	0.00e+00	0	41	0	1090519040	61	4129
2026-01-30 08:18:09.04	341.73	20.32	-44.8	-46.1	20.5	0.00e+00	0	41	0	1092616192	61	4111
2026-01-30 08:18:10.05	341.61	20.20	-44.7	-46.0	20.6	0.00e+00	0	41	0	1094713344	61	4054
2026-01-30 08:18:11.06	341.49	20.09	-44.7	-46.0	20.5	0.00e+00	0	41	0	1096810496	61	4084
2026-01-30 08:18:12.07	341.37	19.97	-44.8	-46.1	20.4	0.00e+00	0	41	0	1098907648	61	4139
2026-01-30 08:18:13.07	341.26	19.86	-45.2	-46.6	20.0	0.00e+00	0	41	0	1101004800	61	4352
2026-01-30 08:18:14.08	341.14	19.74	-45.4	-46.9	19.6	0.00e+00	0	41	0	1102053376	61	4539
2026-01-30 08:18:15.08	341.03	19.62	-46.0	-47.6	19.0	0.00e+00	0	41	0	1104150528	62	4650
2026-01-30 08:18:16.09	340.92	19.51	-46.3	-48.0	18.6	0.00e+00	0	41	0	1106247680	63	4585
2026-01-30 08:18:17.10	340.81	19.40	-46.7	-48.6	18.0	0.00e+00	0	41	0	1108344832	64	4641
2026-01-30 08:18:18.11	340.69	19.28	-46.9	-48.9	17.7	0.00e+00	0	41	0	1109393408	64	4781
2026-01-30 08:18:19.11	340.58	19.17	-47.0	-49.0	17.5	0.00e+00	0	41	0	1111490560	64	4860
2026-01-30 08:18:20.12	340.47	19.06	-47.2	-49.3	17.3	0.00e+00	0	41	0	1113587712	65	4716
2026-01-30 08:18:21.13	340.37	18.94	-46.9	-48.9	17.7	0.00e+00	0	41	0	1115684864	65	4515
2026-01-30 08:18:22.13	340.26	18.83	-46.8	-48.7	18.0	0.00e+00	0	41	0	1117782016	65	4409
2026-01-30 08:18:23.14	340.15	18.72	-46.5	-48.3	18.2	0.00e+00	0	41	0	1118830592	65	4232
2026-01-30 08:18:24.14	340.05	18.61	-46.5	-48.4	18.2	0.00e+00	0	41	0	1120927744	64	4508
2026-01-30 08:18:25.15	339.94	18.50	-46.2	-47.9	18.6	0.00e+00	0	41	0	1123024896	64	4282
2026-01-30 08:18:26.15	339.84	18.39	-46.2	-47.9	18.5	0.00e+00	0	41	0	1125122048	64	4291
2026-01-30 08:18:27.16	339.73	18.28	-46.0	-47.7	18.8	0.00e+00	0	41	0	1127219200	64	4157
2026-01-30 08:18:28.17	339.63	18.17	-45.9	-47.5	19.1	0.00e+00	0	41	0	1129316352	63	4313
2026-01-30 08:18:29.18	339.53	18.06	-45.7	-47.3	19.2	0.00e+00	0	41	0	1130364928	63	4204
2026-01-30 08:18:30.18	339.42	17.95	-45.7	-47.3	19.2	0.00e+00	0	41	0	1132462080	63	4206
2026-01-30 08:18:31.19	339.32	17.84	-45.5	-47.0	19.5	0.00e+00	0	41	0	1134559232	63	4093
2026-01-30 08:18:32.20	339.22	17.73	-45.4	-46.9	19.6	0.00e+00	0	41	0	1136656384	62	4268
2026-01-30 08:18:33.21	339.12	17.62	-45.3	-46.8	19.7	0.00e+00	0	41	0	1137704960	62	4209
2026-01-30 08:18:34.21	339.03	17.51	-45.2	-46.7	19.8	0.00e+00	0	41	0	1139802112	62	4146
2026-01-30 08:18:35.22	338.93	17.41	-45.2	-46.6	19.9	0.00e+00	0	41	0	1141899264	62	4111
2026-01-30 08:18:36.23	338.83	17.30	-45.3	-46.7	19.7	0.00e+00	0	41	0	1143996416	62	4189
2026-01-30 08:18:37.23	338.73	17.19	-45.4	-46.8	19.6	0.00e+00	0	41	0	1146093568	62	4238
2026-01-30 08:18:38.24	338.64	17.09	-45.4	-46.8	19.7	0.00e+00	0	41	0	1147142144	62	4238
2026-01-30 08:18:39.25	338.54	16.98	-45.6	-47.1	19.5	0.00e+00	0	41	0	1149239296	62	4368
2026-01-30 08:18:40.26	338.45	16.88	-45.5	-47.1	19.4	0.00e+00	0	41	0	1151336448	62	4348
2026-01-30 08:18:41.26	338.35	16.77	-45.6	-47.2	19.4	0.00e+00	0	41	0	1153433600	62	4393
2026-01-30 08:18:42.27	338.26	16.67	-45.8	-47.3	19.2	0.00e+00	0	41	0	1155530752	62	4487
2026-01-30 08:18:43.28	338.17	16.56	-45.7	-47.2	19.4	0.00e+00	0	41	0	1157627904	62	4430
2026-01-30 08:18:44.29	338.08	16.46	-45.6	-47.2	19.3	0.00e+00	0	41	0	1158676480	62	4414
2026-01-30 08:18:45.30	337.99	16.36	-45.6	-47.2	19.3	0.00e+00	0	41	0	1160773632	62	4404
2026-01-30 08:18:46.30	337.90	16.25	-45.4	-46.9	19.1	0.00e+00	0	41	0	1162870784	62	4245
2026-01-30 08:18:47.31	337.81	16.15	-45.3	-46.8	19.6	0.00e+00	0	41	0	1164967936	62	4233
2026-01-30 08:18:48.32	337.72	16.05	-45.4	-46.9	19.6	0.00e+00	0	41	0	1166016512	62	4276
2026-01-30 08:18:49.33	337.63	15.94	-45.2	-46.7	19.7	0.00e+00	0	41	0	1168113664	62	4162
2026-01-30 08:18:50.33	337.54	15.84	-45.3	-46.7	19.8	0.00e+00	0	41	0	1170210816	62	4176
2026-01-30 08:18:51.34	337.45	15.74	-45.3	-46.8	19.6	0.00e+00	0	41	0	1172307968	62	4232
2026-01-30 08:18:52.35	337.37	15.64	-45.4	-46.9	19.6	0.00e+00	0	41	0	1174405120	62	4262
2026-01-30 08:18:53.35	337.28	15.54	-45.5	-47.0	19.5	0.00e+00	0	41	0	1175453696	62	4338
2026-01-30 08:18:54.35	337.20	15.44	-45.7	-47.3	19.2	0.00e+00	0	41	0	1177550848	62	4485
2026-01-30 08:18:55.36	337.11	15.34	-45.8	-47.4	19.1	0.00e+00	0	41	0	1179648000	62	4531
2026-01-30 08:18:56.37	337.03	15.24	-45.9	-47.6	18.9	0.00e+00	0	41	0	1181745152	62	4611
2026-01-30 08:18:57.38	336.94	15.14	-46.3	-48.1	18.4	0.00e+00	0	41	0	1183842304	63	4634
2026-01-30 08:18:58.38	336.86	15.04	-46.4	-48.2	18.3	0.00e+00	0	41	0	1185939456	63	4687
2026-01-30 08:18:59.39	336.78	14.94	-46.5	-48.4	18.1	0.00e+00	0	41	0	1186988032	63	4761
2026-01-30 08:19:00.39	336.70	14.85	-46.6	-48.5	17.9	0.00e+00	0	41	0	1189085184	64	4560
2026-01-30 08:19:01.40	336.61	14.75	-46.8	-48.7	17.7	0.00e+00	0	41	0	1191182336	64	4689
2026-01-30 08:19:02.41	336.53	14.65	-46.5	-48.4	18.1	0.00e+00	0	41	0	1193279488	64	4494
2026-01-30 08:19:03.41	336.45	14.55	-46.6	-48.5	18.0	7.00e-07	0	41	0	1194328064	64	4554
2026-01-30 08:19:04.42	336.37	14.46	-46.7	-48.6	17.8	0.00e+00	0	41	0	1196425216	64	4632
2026-01-30 08:19:05.42	336.29	14.36	-46.5	-48.4	18.0	0.00e+00	0	41	0	1198522368	64	4515
2026-01-30 08:19:06.42	336.22	14.27	-46.5	-48.3	18.1	0.00e+00	0	41	0	1200619520	64	4488
2026-01-30 08:19:07.43	336.14	14.17	-46.3	-48.1	18.4	0.00e+00	0	41	0	1202716672	64	4349
2026-01-30 08:19:08.44	336.06	14.07	-46.2	-47.9	18.4	3.00e-06	0	41	0	1203765248	64	4273
2026-01-30 08:19:09.45	335.98	13.98	-46.1	-47.8	18.6	0.00e+00	0	41	0	1205862400	64	4210
2026-01-30 08:19:10.46	335.91	13.88	-45.9	-47.5	18.9	0.00e+00	0	41	0	1207959552	63	4318
2026-01-30 08:19:11.46	335.83	13.79	-45.9	-47.5	19.0	0.00e+00	0	41	0	1210056704	63	4310
2026-01-30 08:19:12.47	335.75	13.69	-45.7	-47.3	19.1	0.00e+00	0	41	0	1212153856	63	4208
2026-01-30 08:19:13.47	335.68	13.60	-45.6	-47.2	19.3	0.00e+00	0	41	0	1214251008	63	4155
2026-01-30 08:19:14.48	335.61	13.51	-45.5	-46.9	19.5	0.00e+00	0	41	0	1215299584	62	4291
2026-01-30 08:19:15.48	335.53	13.41	-45.5	-47.0	19.4	0.00e+00	0	41	0	1217396736	62	4322
2026-01-30 08:19:16.49	335.46	13.32	-45.5	-46.9	19.4	0.00e+00	0	41	0	1219493888	62	4291
2026-01-30 08:19:17.50	335.38	13.23	-45.5	-47.0	19.4	0.00e+00	0	41	0	1221591040	62	4321
2026-01-30 08:19:18.50	335.31	13.14	-45.5	-47.1	19.3	0.00e+00	0	41	0	1222639616	62	4348
2026-01-30 08:19:19.51	335.24	13.04	-45.5	-47.1	19.3	0.00e+00	0	41	0	1224736768	62	4341
2026-01-30 08:19:20.51	335.17	12.95	-45.7	-47.2	19.2	0.00e+00	0	41	0	1226833920	62	4430
2026-01-30 08:19:21.52	335.10	12.86	-45.6	-47.1	19.2	0.00e+00	0	41	0	1228931072	62	4390
2026-01-30 08:19:22.53	335.03	12.77	-45.8	-47.4	19.0	0.00e+00	0	41	0	1231028224	62	4498
2026-01-30 08:19:23.54	334.96	12.68	-45.7	-47.3	19.1	0.00e+00	0	41	0	1232076800	62	4454
2026-01-30 08:19:24.55	334.89	12.59	-45.8	-47.4	19.0	0.00e+00	0	41	0	1234173952	62	4507
2026-01-30 08:19:25.56	334.82	12.50	-45.9	-47.6	18.8	0.00e+00	0	41	0	1236271104	62	4603
