passes_logs/2026/01/30/R3.2S_Murmansk/R3.2S_Murmansk__20260130_131236_SUOMI_NPP_rec.log

#Pass ID: 20260130_131236_SUOMI NPP
#Satellite: SUOMI NPP
#Configuration: NPP
#almurnet v.1.7.20251203
#Start time: 2026-01-30 13:12:38

#Version: 2.2.20231116
#Station: R3.2S_Murmansk
#Location: 33.079688 lon 68.888172 lat
#TLE: 1 37849U 11061A   26029.48304708  .00000140  00000+0  87283-4 0  9999
#TLE: 2 37849  98.7824 331.4079 0002024  38.4342 321.6978 14.19531488738761

#Time	Az	El	Level	Level2	SNR	BER	BlckErr	Temp	State	Recorded	gain1	gain2
2026-01-30 13:12:38.07	246.73	2.05	-54.2	-69.2	3.8	1.49e+00	0	39	0	0	79	20873
2026-01-30 13:12:39.07	246.83	2.09	-54.1	-69.2	3.8	1.49e+00	0	39	104	0	78	22072
2026-01-30 13:12:40.07	246.94	2.14	-54.1	-69.1	3.8	1.49e+00	0	38	104	0	78	21984
2026-01-30 13:12:41.08	247.04	2.18	-54.1	-69.1	3.8	1.49e+00	0	39	104	0	78	21937
2026-01-30 13:12:42.09	247.14	2.22	-54.1	-69.1	3.8	1.49e+00	0	39	104	0	78	21874
2026-01-30 13:12:43.10	247.25	2.27	-54.1	-69.1	3.8	1.49e+00	0	39	104	0	78	21871
2026-01-30 13:12:44.11	247.35	2.31	-54.1	-69.1	3.8	1.49e+00	0	39	104	0	78	21839
2026-01-30 13:12:45.11	247.46	2.35	-54.1	-69.1	3.8	1.49e+00	0	39	104	0	78	21828
2026-01-30 13:12:46.12	247.56	2.40	-54.3	-69.3	3.8	1.49e+00	0	39	104	0	79	21183
2026-01-30 13:12:47.13	247.67	2.44	-54.4	-69.4	3.8	1.49e+00	0	39	104	0	79	21451
2026-01-30 13:12:48.14	247.77	2.48	-54.5	-69.5	3.8	1.49e+00	0	39	104	0	79	21582
2026-01-30 13:12:49.15	247.88	2.53	-54.5	-69.5	3.8	1.49e+00	0	39	104	0	79	21741
2026-01-30 13:12:50.15	247.99	2.57	-54.6	-69.6	3.8	1.49e+00	0	39	104	0	79	21766
2026-01-30 13:12:51.16	248.09	2.61	-54.6	-69.6	3.8	1.49e+00	0	39	104	0	79	21760
2026-01-30 13:12:52.17	248.20	2.66	-54.5	-69.5	3.8	1.49e+00	0	39	104	0	79	21653
2026-01-30 13:12:53.18	248.31	2.70	-54.5	-69.5	3.8	1.49e+00	0	39	104	0	79	21507
2026-01-30 13:12:54.18	248.42	2.74	-54.4	-69.4	3.8	1.49e+00	0	39	104	0	79	21414
2026-01-30 13:12:55.19	248.52	2.79	-54.4	-69.4	3.8	1.49e+00	0	39	104	0	79	21302
2026-01-30 13:12:56.20	248.63	2.83	-54.3	-69.3	3.8	1.49e+00	0	39	104	0	79	21216
2026-01-30 13:12:57.21	248.74	2.87	-54.3	-69.2	3.8	1.49e+00	0	39	104	0	79	21000
2026-01-30 13:12:58.21	248.85	2.91	-54.2	-69.2	3.8	1.49e+00	0	39	104	0	79	20842
2026-01-30 13:12:59.22	248.96	2.96	-54.1	-69.1	3.8	1.49e+00	0	39	104	0	79	20680
2026-01-30 13:13:00.23	249.07	3.00	-54.0	-69.0	3.8	1.49e+00	0	39	104	0	79	20458
2026-01-30 13:13:01.23	249.18	3.04	-53.9	-68.9	3.8	1.49e+00	0	39	104	0	79	20207
2026-01-30 13:13:02.24	249.29	3.09	-53.8	-68.7	3.8	1.49e+00	0	39	104	0	79	19837
2026-01-30 13:13:03.25	249.40	3.13	-53.7	-68.6	3.8	1.49e+00	0	39	104	0	79	19535
2026-01-30 13:13:04.26	249.51	3.17	-53.5	-68.5	3.8	1.49e+00	0	39	104	0	79	19237
2026-01-30 13:13:05.27	249.62	3.22	-53.2	-68.2	3.8	1.49e+00	0	39	104	0	78	19662
2026-01-30 13:13:06.27	249.73	3.26	-52.9	-67.8	3.8	1.49e+00	0	39	104	0	77	20014
2026-01-30 13:13:07.28	249.84	3.30	-52.5	-67.4	3.8	1.49e+00	0	39	104	0	77	19156
2026-01-30 13:13:08.29	249.95	3.34	-52.4	-67.3	3.8	1.49e+00	0	39	104	0	76	20060
2026-01-30 13:13:09.30	250.07	3.39	-52.4	-67.3	3.8	1.49e+00	0	39	104	0	76	19925
2026-01-30 13:13:10.31	250.18	3.43	-52.4	-67.3	3.8	1.49e+00	0	39	104	0	76	19994
2026-01-30 13:13:11.31	250.29	3.47	-52.4	-67.3	3.8	1.49e+00	0	39	104	0	76	20032
2026-01-30 13:13:12.32	250.40	3.51	-52.4	-67.3	3.8	1.49e+00	0	39	104	0	76	20043
2026-01-30 13:13:13.32	250.52	3.56	-52.4	-67.3	3.8	1.49e+00	0	40	104	0	76	19994
2026-01-30 13:13:14.33	250.63	3.60	-52.4	-67.3	3.8	1.49e+00	0	39	104	0	76	19947
2026-01-30 13:13:15.34	250.74	3.64	-52.4	-67.3	3.8	1.49e+00	0	39	104	0	76	19963
2026-01-30 13:13:16.35	250.86	3.69	-52.4	-67.2	3.8	1.49e+00	0	39	104	0	76	19809
2026-01-30 13:13:17.36	250.97	3.73	-52.4	-67.2	3.8	1.49e+00	0	39	104	0	76	19812
2026-01-30 13:13:18.37	251.09	3.77	-52.4	-67.2	3.8	1.49e+00	0	39	104	0	76	19721
2026-01-30 13:13:19.38	251.21	3.81	-52.4	-67.2	3.8	1.49e+00	0	40	104	0	76	19795
2026-01-30 13:13:20.39	251.32	3.86	-52.4	-67.2	3.8	1.49e+00	0	39	104	0	76	19819
2026-01-30 13:13:21.39	251.44	3.90	-52.4	-67.3	3.8	1.49e+00	0	40	104	0	76	19955
2026-01-30 13:13:22.40	251.55	3.94	-52.4	-67.3	3.8	1.49e+00	0	40	104	0	76	19930
2026-01-30 13:13:23.41	251.67	3.98	-52.4	-67.3	3.8	1.49e+00	0	39	104	0	76	19999
2026-01-30 13:13:24.42	251.79	4.03	-52.4	-67.3	3.8	1.49e+00	0	39	104	0	76	19957
2026-01-30 13:13:25.42	251.90	4.07	-52.3	-67.3	3.8	1.49e+00	0	40	104	0	76	19875
2026-01-30 13:13:26.43	252.02	4.11	-52.3	-67.3	3.8	1.49e+00	0	40	104	0	76	19852
2026-01-30 13:13:27.44	252.14	4.15	-52.3	-67.2	3.8	1.49e+00	0	40	104	0	76	19787
2026-01-30 13:13:28.45	252.26	4.20	-52.3	-67.2	3.8	1.49e+00	0	39	104	0	76	19684
2026-01-30 13:13:29.46	252.38	4.24	-52.3	-67.1	3.8	1.49e+00	0	39	104	0	76	19613
2026-01-30 13:13:30.46	252.50	4.28	-52.3	-67.1	3.8	1.49e+00	0	40	104	0	76	19503
2026-01-30 13:13:31.47	252.61	4.32	-52.3	-67.2	3.8	1.49e+00	0	40	104	0	76	19663
2026-01-30 13:13:32.48	252.73	4.36	-52.3	-67.2	3.8	1.49e+00	0	40	104	0	76	19729
2026-01-30 13:13:33.49	252.85	4.41	-52.3	-67.2	3.8	1.49e+00	0	40	104	0	76	19807
2026-01-30 13:13:34.49	252.97	4.45	-52.3	-67.2	3.8	1.49e+00	0	40	104	0	76	19776
2026-01-30 13:13:35.50	253.09	4.49	-52.3	-67.2	3.8	1.49e+00	0	40	104	0	76	19832
2026-01-30 13:13:36.51	253.22	4.53	-52.3	-67.2	3.8	1.49e+00	0	40	104	0	76	19814
2026-01-30 13:13:37.52	253.34	4.58	-52.3	-67.1	3.8	1.49e+00	0	40	104	0	76	19596
2026-01-30 13:13:38.52	253.46	4.62	-52.3	-67.0	3.8	1.49e+00	0	40	104	0	76	19225
2026-01-30 13:13:39.53	253.58	4.66	-52.3	-66.6	3.8	1.49e+00	0	40	104	0	76	18427
2026-01-30 13:13:40.54	253.70	4.70	-52.3	-66.4	3.8	1.49e+00	0	40	104	0	76	17907
2026-01-30 13:13:41.55	253.83	4.74	-52.3	-66.3	3.8	1.49e+00	0	40	104	0	76	17888
2026-01-30 13:13:42.56	253.95	4.78	-52.3	-66.1	3.8	1.49e+00	0	40	104	0	76	17310
2026-01-30 13:13:43.56	254.07	4.83	-52.2	-64.6	3.8	1.49e+00	0	40	104	0	76	14565
2026-01-30 13:13:44.57	254.20	4.87	-51.9	-61.2	5.2	1.11e+00	0	40	0	1048576	75	10475
2026-01-30 13:13:45.58	254.32	4.91	-51.3	-58.1	7.7	1.61e-01	0	40	0	3145728	74	7784
2026-01-30 13:13:46.58	254.44	4.95	-50.7	-55.9	10.0	2.32e-02	0	40	0	4194304	73	6366
2026-01-30 13:13:47.59	254.57	4.99	-50.0	-54.1	11.9	1.98e-03	0	40	0	6291456	72	5528
2026-01-30 13:13:48.60	254.69	5.03	-49.8	-53.5	12.7	8.62e-05	0	40	0	8388608	71	5457
2026-01-30 13:13:49.61	254.82	5.08	-52.0	-63.8	4.4	1.20e-02	31	40	0	10485760	74	14943
2026-01-30 13:13:50.61	254.94	5.12	-48.7	-51.4	14.1	1.49e+00	1	40	104	10485760	69	4784
2026-01-30 13:13:51.61	255.07	5.16	-50.3	-54.7	11.9	0.00e+00	0	40	0	11534336	71	6212
2026-01-30 13:13:52.62	255.19	5.20	-47.0	-48.9	17.1	5.24e-03	0	40	0	13631488	66	4268
2026-01-30 13:13:53.63	255.32	5.24	-46.4	-48.2	17.9	0.00e+00	0	40	0	14680064	64	4396
2026-01-30 13:13:54.63	255.45	5.28	-46.3	-48.1	18.0	0.00e+00	0	40	0	16777216	64	4369
2026-01-30 13:13:55.64	255.57	5.32	-46.2	-47.9	18.2	0.00e+00	0	40	0	18874368	64	4256
2026-01-30 13:13:56.64	255.70	5.36	-46.2	-47.9	18.3	0.00e+00	0	40	0	20971520	63	4494
2026-01-30 13:13:57.65	255.83	5.41	-46.2	-47.9	18.3	0.00e+00	0	40	0	23068672	63	4507
2026-01-30 13:13:58.66	255.96	5.45	-46.2	-47.8	18.3	0.00e+00	0	40	0	24117248	63	4491
2026-01-30 13:13:59.66	256.09	5.49	-46.1	-47.8	18.4	0.00e+00	0	40	0	26214400	63	4458
2026-01-30 13:14:00.67	256.22	5.53	-46.1	-47.8	18.3	0.00e+00	0	40	0	28311552	63	4476
2026-01-30 13:14:01.68	256.35	5.57	-46.2	-47.9	18.3	0.00e+00	0	40	0	30408704	63	4518
2026-01-30 13:14:02.69	256.48	5.61	-46.5	-48.2	18.0	0.00e+00	0	40	0	32505856	63	4684
2026-01-30 13:14:03.70	256.61	5.65	-46.6	-48.4	17.9	0.00e+00	0	40	0	33554432	63	4770
2026-01-30 13:14:04.71	256.74	5.69	-46.6	-48.4	17.7	0.00e+00	0	40	0	35651584	64	4517
2026-01-30 13:14:05.71	256.87	5.73	-46.5	-48.3	17.8	0.00e+00	0	40	0	37748736	64	4488
2026-01-30 13:14:06.72	257.00	5.77	-46.5	-48.3	17.9	0.00e+00	0	40	0	39845888	64	4476
2026-01-30 13:14:07.73	257.13	5.81	-46.4	-48.2	18.0	0.00e+00	0	40	0	41943040	64	4415
2026-01-30 13:14:08.73	257.26	5.85	-46.6	-48.4	17.8	0.00e+00	0	40	0	42991616	64	4528
2026-01-30 13:14:09.74	257.39	5.89	-46.6	-48.4	17.7	0.00e+00	0	40	0	45088768	64	4530
2026-01-30 13:14:10.75	257.53	5.93	-46.5	-48.3	17.9	0.00e+00	0	40	0	47185920	64	4446
2026-01-30 13:14:11.76	257.66	5.97	-46.5	-48.2	18.0	0.00e+00	0	40	0	49283072	64	4436
2026-01-30 13:14:12.77	257.79	6.02	-46.1	-47.8	18.4	0.00e+00	0	40	0	51380224	64	4208
2026-01-30 13:14:13.77	257.93	6.05	-46.2	-47.9	18.3	0.00e+00	0	40	0	53477376	64	4244
2026-01-30 13:14:14.78	258.06	6.10	-46.3	-48.0	18.2	0.00e+00	0	40	0	54525952	64	4308
2026-01-30 13:14:15.79	258.19	6.14	-46.4	-48.1	18.1	0.00e+00	0	40	0	56623104	64	4356
2026-01-30 13:14:16.79	258.33	6.17	-46.3	-48.0	18.2	0.00e+00	0	40	0	58720256	64	4323
2026-01-30 13:14:17.79	258.46	6.21	-46.4	-48.1	18.1	0.00e+00	0	40	0	60817408	64	4365
2026-01-30 13:14:18.80	258.60	6.25	-46.3	-48.1	18.1	0.00e+00	0	40	0	61865984	64	4361
2026-01-30 13:14:19.81	258.73	6.29	-46.2	-47.9	18.3	0.00e+00	0	40	0	63963136	64	4268
2026-01-30 13:14:20.82	258.87	6.33	-46.4	-48.2	18.0	0.00e+00	0	40	0	66060288	64	4396
2026-01-30 13:14:21.82	259.00	6.37	-46.4	-48.2	18.0	0.00e+00	0	40	0	68157440	64	4427
2026-01-30 13:14:22.83	259.14	6.41	-46.8	-48.6	17.6	0.00e+00	0	40	0	70254592	64	4645
2026-01-30 13:14:23.83	259.28	6.45	-46.6	-48.4	17.8	0.00e+00	0	40	0	71303168	64	4530
2026-01-30 13:14:24.84	259.42	6.49	-46.7	-48.5	17.7	0.00e+00	0	40	0	73400320	64	4563
2026-01-30 13:14:25.85	259.55	6.53	-46.4	-48.1	18.1	0.00e+00	0	40	0	75497472	64	4374
2026-01-30 13:14:26.85	259.69	6.57	-46.2	-47.9	18.3	0.00e+00	0	40	0	77594624	64	4276
2026-01-30 13:14:27.86	259.83	6.61	-46.1	-47.7	18.5	0.00e+00	0	40	0	79691776	64	4186
2026-01-30 13:14:28.87	259.97	6.65	-46.1	-47.7	18.5	0.00e+00	0	40	0	81788928	64	4174
2026-01-30 13:14:29.88	260.11	6.69	-46.2	-47.9	18.4	0.00e+00	0	40	0	82837504	64	4253
2026-01-30 13:14:30.89	260.25	6.73	-46.2	-47.8	18.4	0.00e+00	0	40	0	84934656	64	4233
2026-01-30 13:14:31.89	260.39	6.76	-46.1	-47.8	18.4	0.00e+00	0	40	0	87031808	64	4226
2026-01-30 13:14:32.90	260.53	6.80	-46.2	-47.9	18.3	0.00e+00	0	40	0	89128960	64	4256
2026-01-30 13:14:33.91	260.67	6.84	-46.3	-48.0	18.3	0.00e+00	0	40	0	90177536	64	4304
2026-01-30 13:14:34.92	260.81	6.88	-46.4	-48.1	18.1	0.00e+00	0	40	0	92274688	64	4369
2026-01-30 13:14:35.93	260.95	6.92	-46.5	-48.3	18.0	0.00e+00	0	40	0	94371840	64	4464
2026-01-30 13:14:36.93	261.09	6.96	-46.3	-48.0	18.3	0.00e+00	0	40	0	96468992	64	4328
2026-01-30 13:14:37.94	261.24	7.00	-46.4	-48.1	18.1	0.00e+00	0	40	0	98566144	64	4384
2026-01-30 13:14:38.95	261.38	7.03	-46.3	-48.0	18.2	0.00e+00	0	40	0	99614720	64	4327
2026-01-30 13:14:39.95	261.52	7.07	-46.1	-47.7	18.5	0.00e+00	0	40	0	101711872	64	4182
2026-01-30 13:14:40.96	261.66	7.11	-46.2	-47.8	18.4	0.00e+00	0	40	0	103809024	64	4224
2026-01-30 13:14:41.97	261.81	7.15	-46.5	-48.2	18.1	0.00e+00	0	40	0	105906176	64	4424
2026-01-30 13:14:42.98	261.95	7.19	-46.6	-48.4	17.8	0.00e+00	0	40	0	108003328	64	4541
2026-01-30 13:14:43.99	262.10	7.22	-46.6	-48.4	17.9	0.00e+00	0	40	0	110100480	64	4503
2026-01-30 13:14:44.99	262.24	7.26	-46.6	-48.4	17.8	0.00e+00	0	40	0	111149056	64	4543
2026-01-30 13:14:46.00	262.39	7.30	-46.5	-48.3	18.0	0.00e+00	0	40	0	113246208	64	4472
2026-01-30 13:14:47.01	262.53	7.34	-46.4	-48.1	18.1	0.00e+00	0	40	0	115343360	64	4388
2026-01-30 13:14:48.02	262.68	7.37	-46.4	-48.2	18.1	0.00e+00	0	40	0	117440512	64	4410
2026-01-30 13:14:49.03	262.82	7.41	-46.4	-48.1	18.2	0.00e+00	0	40	0	118489088	64	4373
2026-01-30 13:14:50.03	262.97	7.45	-46.4	-48.1	18.1	0.00e+00	0	40	0	120586240	64	4390
2026-01-30 13:14:51.04	263.12	7.48	-46.3	-48.0	18.2	0.00e+00	0	40	0	122683392	64	4328
2026-01-30 13:14:52.05	263.26	7.52	-46.3	-48.0	18.2	0.00e+00	0	40	0	124780544	64	4340
2026-01-30 13:14:53.06	263.41	7.56	-46.3	-48.0	18.3	0.00e+00	0	40	0	126877696	64	4334
2026-01-30 13:14:54.07	263.56	7.59	-46.3	-48.0	18.2	0.00e+00	0	40	0	127926272	64	4316
2026-01-30 13:14:55.07	263.71	7.63	-46.2	-47.9	18.4	0.00e+00	0	40	0	130023424	64	4279
2026-01-30 13:14:56.08	263.86	7.67	-46.2	-47.9	18.3	0.00e+00	0	40	0	132120576	64	4279
2026-01-30 13:14:57.09	264.00	7.70	-46.3	-48.0	18.2	0.00e+00	0	40	0	134217728	64	4336
2026-01-30 13:14:58.10	264.15	7.74	-46.4	-48.1	18.2	0.00e+00	0	40	0	136314880	64	4363
2026-01-30 13:14:59.10	264.30	7.78	-46.5	-48.3	18.0	0.00e+00	0	40	0	138412032	64	4471
2026-01-30 13:15:00.10	264.45	7.81	-46.7	-48.5	17.8	0.00e+00	0	40	0	139460608	64	4583
2026-01-30 13:15:01.11	264.60	7.85	-46.8	-48.7	17.7	0.00e+00	0	40	0	141557760	64	4659
2026-01-30 13:15:02.12	264.75	7.88	-46.8	-48.6	17.7	0.00e+00	0	40	0	143654912	64	4641
2026-01-30 13:15:03.13	264.90	7.92	-46.8	-48.6	17.7	0.00e+00	0	40	0	145752064	64	4637
2026-01-30 13:15:04.14	265.06	7.95	-46.8	-48.6	17.7	0.00e+00	0	40	0	146800640	64	4623
2026-01-30 13:15:05.15	265.21	7.99	-46.7	-48.5	17.8	0.00e+00	0	40	0	148897792	64	4566
2026-01-30 13:15:06.16	265.36	8.03	-46.7	-48.5	17.8	0.00e+00	0	40	0	150994944	64	4581
2026-01-30 13:15:07.17	265.51	8.06	-46.6	-48.4	17.9	0.00e+00	0	40	0	153092096	64	4511
2026-01-30 13:15:08.17	265.67	8.10	-46.4	-48.2	18.1	0.00e+00	0	40	0	155189248	64	4393
2026-01-30 13:15:09.18	265.82	8.13	-46.3	-48.0	18.3	0.00e+00	0	40	0	157286400	64	4301
2026-01-30 13:15:10.19	265.97	8.16	-46.2	-47.9	18.3	0.00e+00	0	40	0	158334976	64	4273
2026-01-30 13:15:11.20	266.13	8.20	-46.3	-47.9	18.3	0.00e+00	0	40	0	160432128	64	4287
2026-01-30 13:15:12.21	266.28	8.23	-46.3	-48.0	18.2	0.00e+00	0	40	0	162529280	64	4332
2026-01-30 13:15:13.21	266.44	8.27	-46.4	-48.2	18.1	0.00e+00	0	40	0	164626432	64	4410
2026-01-30 13:15:14.22	266.59	8.30	-46.7	-48.6	17.6	0.00e+00	0	40	0	166723584	64	4609
2026-01-30 13:15:15.22	266.74	8.34	-46.9	-48.8	17.4	0.00e+00	0	40	0	167772160	64	4747
2026-01-30 13:15:16.23	266.90	8.37	-47.3	-49.4	16.7	0.00e+00	0	40	0	169869312	65	4810
2026-01-30 13:15:17.24	267.06	8.40	-47.5	-49.8	16.2	0.00e+00	0	40	0	171966464	65	5035
2026-01-30 13:15:18.24	267.21	8.44	-47.8	-50.2	15.7	0.00e+00	0	40	0	174063616	66	4972
2026-01-30 13:15:19.25	267.37	8.47	-48.0	-50.8	14.9	0.00e+00	0	40	0	175112192	66	5284
2026-01-30 13:15:20.26	267.53	8.51	-48.4	-51.6	13.9	0.00e+00	0	40	0	177209344	67	5514
2026-01-30 13:15:21.27	267.68	8.54	-48.6	-52.3	12.9	1.83e-05	0	40	0	179306496	67	5943
2026-01-30 13:15:22.28	267.84	8.57	-48.9	-53.0	12.0	1.57e-04	0	40	0	181403648	68	6088
2026-01-30 13:15:23.28	268.00	8.60	-49.1	-54.0	10.7	1.13e-03	0	40	0	183500800	68	6823
2026-01-30 13:15:24.29	268.16	8.64	-49.3	-54.7	9.8	8.63e-03	0	40	0	185597952	69	7014
2026-01-30 13:15:25.30	268.32	8.67	-49.5	-55.8	8.5	2.81e-02	0	40	0	186646528	69	7950
2026-01-30 13:15:26.31	268.48	8.70	-49.8	-56.9	7.4	7.17e-02	0	40	0	188743680	70	8542
2026-01-30 13:15:27.31	268.63	8.73	-49.9	-57.8	6.5	1.58e-01	0	40	0	190840832	70	9473
2026-01-30 13:15:28.32	268.79	8.77	-50.1	-58.8	5.8	3.57e-01	0	40	0	192937984	70	10610
2026-01-30 13:15:29.33	268.96	8.80	-50.1	-58.5	6.0	3.87e-01	0	40	0	195035136	70	10288
2026-01-30 13:15:30.33	269.11	8.83	-50.1	-57.6	6.9	2.55e-01	0	40	0	196083712	70	9239
2026-01-30 13:15:31.34	269.28	8.86	-50.0	-57.1	7.6	8.65e-02	0	40	0	198180864	70	8672
2026-01-30 13:15:32.35	269.44	8.89	-50.5	-61.4	4.5	9.42e-01	32	40	0	200278016	71	13445
2026-01-30 13:15:33.36	269.60	8.93	-51.3	-63.9	3.8	1.44e+00	0	40	104	200278016	73	16017
2026-01-30 13:15:34.37	269.76	8.96	-50.7	-61.4	4.0	1.49e+00	0	40	104	200278016	73	11956
2026-01-30 13:15:35.38	269.92	8.99	-49.3	-53.4	11.8	8.76e-04	0	40	0	200278016	70	5713
2026-01-30 13:15:36.39	270.09	9.02	-49.1	-52.8	12.8	1.33e-04	0	40	0	202375168	70	5284
2026-01-30 13:15:37.39	270.25	9.05	-48.6	-51.8	13.9	7.60e-06	0	40	0	204472320	69	5006
2026-01-30 13:15:38.39	270.41	9.08	-48.2	-50.9	15.0	0.00e+00	0	40	0	206569472	68	4769
2026-01-30 13:15:39.40	270.57	9.11	-48.0	-50.5	15.6	0.00e+00	0	40	0	208666624	68	4596
2026-01-30 13:15:40.40	270.74	9.14	-47.7	-50.0	16.1	0.00e+00	0	40	0	209715200	67	4578
2026-01-30 13:15:41.41	270.90	9.17	-47.3	-49.4	16.7	0.00e+00	0	40	0	211812352	66	4519
2026-01-30 13:15:42.42	271.07	9.20	-47.1	-49.1	17.1	0.00e+00	0	40	0	213909504	66	4379
2026-01-30 13:15:43.43	271.23	9.23	-46.8	-48.7	17.7	0.00e+00	0	40	0	216006656	65	4402
2026-01-30 13:15:44.44	271.40	9.26	-46.9	-48.8	17.6	0.00e+00	0	40	0	218103808	65	4454
2026-01-30 13:15:45.45	271.56	9.29	-46.6	-48.3	18.0	0.00e+00	0	40	0	219152384	65	4233
2026-01-30 13:15:46.45	271.73	9.32	-46.8	-48.6	17.8	0.00e+00	0	40	0	221249536	65	4372
2026-01-30 13:15:47.46	271.89	9.35	-46.5	-48.2	18.2	0.00e+00	0	40	0	223346688	65	4170
2026-01-30 13:15:48.47	272.06	9.38	-46.6	-48.4	18.1	0.00e+00	0	40	0	225443840	65	4245
2026-01-30 13:15:49.48	272.23	9.41	-46.6	-48.3	18.1	0.00e+00	0	40	0	227540992	65	4230
2026-01-30 13:15:50.49	272.39	9.44	-46.2	-47.9	18.6	0.00e+00	0	40	0	228589568	64	4245
2026-01-30 13:15:51.49	272.56	9.47	-46.1	-47.7	18.7	0.00e+00	0	40	0	230686720	64	4186
2026-01-30 13:15:52.50	272.73	9.49	-46.0	-47.5	19.0	0.00e+00	0	40	0	232783872	63	4321
2026-01-30 13:15:53.50	272.89	9.52	-45.9	-47.5	19.0	0.00e+00	0	40	0	234881024	63	4297
2026-01-30 13:15:54.51	273.06	9.55	-45.9	-47.4	19.1	0.00e+00	0	40	0	236978176	63	4257
2026-01-30 13:15:55.52	273.23	9.58	-46.0	-47.5	19.0	0.00e+00	0	40	0	238026752	63	4337
2026-01-30 13:15:56.53	273.40	9.61	-46.0	-47.6	18.9	0.00e+00	0	40	0	240123904	63	4363
2026-01-30 13:15:57.53	273.57	9.63	-46.4	-48.0	18.5	0.00e+00	0	40	0	242221056	63	4567
2026-01-30 13:15:58.54	273.74	9.66	-46.5	-48.2	18.3	0.00e+00	0	40	0	244318208	63	4702
2026-01-30 13:15:59.55	273.91	9.69	-46.6	-48.3	18.3	0.00e+00	0	40	0	246415360	63	4731
2026-01-30 13:16:00.56	274.08	9.71	-46.7	-48.4	18.1	0.00e+00	0	40	0	247463936	64	4522
2026-01-30 13:16:01.57	274.25	9.74	-46.6	-48.3	18.1	0.00e+00	0	40	0	249561088	64	4490
2026-01-30 13:16:02.57	274.42	9.77	-46.8	-48.5	17.9	0.00e+00	0	40	0	251658240	64	4598
2026-01-30 13:16:03.58	274.59	9.79	-46.8	-48.6	17.9	0.00e+00	0	40	0	253755392	64	4607
2026-01-30 13:16:04.59	274.76	9.82	-46.8	-48.5	18.0	0.00e+00	0	40	0	255852544	64	4590
2026-01-30 13:16:05.60	274.93	9.84	-46.8	-48.6	18.0	0.00e+00	0	40	0	256901120	64	4599
2026-01-30 13:16:06.60	275.10	9.87	-46.9	-48.6	17.9	0.00e+00	0	40	0	258998272	64	4651
2026-01-30 13:16:07.61	275.28	9.90	-46.7	-48.4	18.1	0.00e+00	0	41	0	261095424	64	4512
2026-01-30 13:16:08.62	275.45	9.92	-46.6	-48.3	18.2	0.00e+00	0	40	0	263192576	64	4485
2026-01-30 13:16:09.63	275.62	9.95	-46.7	-48.5	18.0	0.00e+00	0	40	0	265289728	64	4570
2026-01-30 13:16:10.64	275.80	9.97	-46.5	-48.2	18.3	0.00e+00	0	40	0	266338304	64	4429
2026-01-30 13:16:11.65	275.97	10.00	-46.5	-48.2	18.3	0.00e+00	0	40	0	268435456	64	4398
2026-01-30 13:16:12.65	276.14	10.02	-46.4	-48.1	18.4	0.00e+00	0	41	0	270532608	64	4360
2026-01-30 13:16:13.66	276.32	10.04	-46.2	-47.8	18.7	0.00e+00	0	40	0	272629760	64	4195
2026-01-30 13:16:14.67	276.49	10.07	-46.2	-47.8	18.8	0.00e+00	0	41	0	274726912	64	4201
2026-01-30 13:16:15.67	276.66	10.09	-46.1	-47.7	18.8	0.00e+00	0	40	0	276824064	64	4158
2026-01-30 13:16:16.68	276.84	10.12	-46.1	-47.7	18.8	0.00e+00	0	40	0	277872640	64	4158
2026-01-30 13:16:17.69	277.01	10.14	-46.2	-47.8	18.8	0.00e+00	0	40	0	279969792	64	4198
2026-01-30 13:16:18.70	277.19	10.16	-46.5	-48.1	18.4	0.00e+00	0	41	0	282066944	64	4391
2026-01-30 13:16:19.71	277.37	10.19	-46.7	-48.4	18.2	0.00e+00	0	40	0	284164096	64	4511
2026-01-30 13:16:20.71	277.54	10.21	-47.1	-48.9	17.7	0.00e+00	0	40	0	285212672	64	4795
2026-01-30 13:16:21.73	277.72	10.23	-47.3	-49.2	17.4	0.00e+00	0	41	0	287309824	65	4687
2026-01-30 13:16:22.73	277.89	10.25	-47.4	-49.4	17.2	0.00e+00	0	40	0	289406976	65	4800
2026-01-30 13:16:23.73	278.07	10.28	-47.5	-49.5	17.2	0.00e+00	0	40	0	291504128	65	4816
2026-01-30 13:16:24.74	278.24	10.30	-47.4	-49.3	17.5	0.00e+00	0	40	0	293601280	65	4728
2026-01-30 13:16:25.75	278.42	10.32	-47.1	-48.9	17.7	0.00e+00	0	40	0	294649856	65	4522
2026-01-30 13:16:26.76	278.60	10.34	-46.9	-48.6	17.9	0.00e+00	0	40	0	296747008	65	4385
2026-01-30 13:16:27.77	278.78	10.36	-46.7	-48.4	18.2	0.00e+00	0	41	0	298844160	65	4259
2026-01-30 13:16:28.77	278.95	10.38	-46.5	-48.1	18.5	0.00e+00	0	40	0	300941312	64	4363
2026-01-30 13:16:29.78	279.13	10.40	-46.4	-48.1	18.5	0.00e+00	0	40	0	303038464	64	4343
2026-01-30 13:16:30.79	279.31	10.42	-46.4	-48.1	18.5	0.00e+00	0	41	0	305135616	64	4359
2026-01-30 13:16:31.80	279.49	10.44	-46.5	-48.1	18.4	0.00e+00	0	40	0	306184192	64	4386
2026-01-30 13:16:32.81	279.67	10.46	-46.8	-48.5	18.2	0.00e+00	0	40	0	308281344	64	4568
2026-01-30 13:16:33.81	279.85	10.48	-46.7	-48.4	18.2	0.00e+00	0	40	0	310378496	64	4527
2026-01-30 13:16:34.82	280.03	10.50	-46.6	-48.3	18.3	0.00e+00	0	40	0	312475648	64	4477
2026-01-30 13:16:35.83	280.21	10.52	-46.4	-48.1	18.5	0.00e+00	0	40	0	313524224	64	4351
2026-01-30 13:16:36.84	280.39	10.54	-46.4	-48.0	18.7	0.00e+00	0	41	0	315621376	64	4302
2026-01-30 13:16:37.85	280.57	10.56	-46.1	-47.6	19.0	0.00e+00	0	40	0	317718528	64	4141
2026-01-30 13:16:38.85	280.74	10.58	-45.9	-47.4	19.3	0.00e+00	0	40	0	319815680	63	4265
2026-01-30 13:16:39.86	280.93	10.60	-45.8	-47.2	19.4	0.00e+00	0	40	0	321912832	63	4191
2026-01-30 13:16:40.87	281.11	10.62	-45.9	-47.4	19.3	0.00e+00	0	40	0	324009984	63	4261
2026-01-30 13:16:41.87	281.29	10.63	-46.2	-47.7	19.0	0.00e+00	0	40	0	325058560	63	4422
2026-01-30 13:16:42.88	281.47	10.65	-46.6	-48.2	18.6	0.00e+00	0	40	0	327155712	63	4678
2026-01-30 13:16:43.89	281.65	10.67	-46.7	-48.4	18.3	0.00e+00	0	40	0	329252864	64	4526
2026-01-30 13:16:44.89	281.83	10.69	-46.7	-48.4	18.3	0.00e+00	0	40	0	331350016	64	4501
2026-01-30 13:16:45.90	282.01	10.70	-46.7	-48.4	18.3	7.00e-07	0	40	0	333447168	64	4519
2026-01-30 13:16:46.91	282.19	10.72	-46.4	-48.0	18.6	0.00e+00	0	40	0	334495744	64	4332
2026-01-30 13:16:47.92	282.37	10.74	-46.3	-47.9	18.8	0.00e+00	0	40	0	336592896	64	4253
2026-01-30 13:16:48.92	282.56	10.75	-46.2	-47.8	18.9	0.00e+00	0	41	0	338690048	64	4212
2026-01-30 13:16:49.93	282.74	10.77	-46.4	-48.0	18.6	0.00e+00	0	40	0	340787200	64	4336
2026-01-30 13:16:50.94	282.92	10.79	-46.4	-48.1	18.6	0.00e+00	0	40	0	341835776	64	4343
2026-01-30 13:16:51.94	283.10	10.80	-46.8	-48.5	18.2	0.00e+00	0	41	0	343932928	64	4572
2026-01-30 13:16:52.95	283.29	10.82	-47.3	-49.2	17.6	0.00e+00	0	40	0	346030080	65	4686
2026-01-30 13:16:53.96	283.47	10.83	-47.4	-49.3	17.5	0.00e+00	0	40	0	348127232	65	4729
2026-01-30 13:16:54.96	283.65	10.85	-47.4	-49.3	17.5	0.00e+00	0	40	0	350224384	65	4745
2026-01-30 13:16:55.97	283.83	10.86	-47.4	-49.3	17.5	0.00e+00	0	40	0	352321536	65	4736
2026-01-30 13:16:56.98	284.02	10.88	-47.2	-49.0	17.9	0.00e+00	0	40	0	353370112	65	4548
2026-01-30 13:16:57.99	284.20	10.89	-46.9	-48.6	18.2	0.00e+00	0	40	0	355467264	65	4356
2026-01-30 13:16:58.99	284.38	10.90	-46.5	-48.1	18.6	0.00e+00	0	40	0	357564416	64	4362
2026-01-30 13:17:00.00	284.57	10.92	-46.7	-48.3	18.5	0.00e+00	0	40	0	359661568	64	4486
2026-01-30 13:17:01.01	284.75	10.93	-46.6	-48.2	18.5	0.00e+00	0	40	0	361758720	64	4424
2026-01-30 13:17:02.02	284.94	10.94	-46.9	-48.7	18.1	0.00e+00	0	40	0	362807296	64	4661
2026-01-30 13:17:03.03	285.12	10.96	-47.1	-48.8	17.9	0.00e+00	0	40	0	364904448	64	4758
2026-01-30 13:17:04.04	285.31	10.97	-47.3	-49.1	17.7	0.00e+00	0	40	0	367001600	65	4630
2026-01-30 13:17:05.04	285.49	10.98	-47.5	-49.4	17.5	0.00e+00	0	41	0	369098752	65	4769
2026-01-30 13:17:06.05	285.68	10.99	-47.4	-49.2	17.7	0.00e+00	0	40	0	370147328	65	4684
2026-01-30 13:17:07.06	285.86	11.01	-47.4	-49.2	17.7	0.00e+00	0	40	0	372244480	65	4676
2026-01-30 13:17:08.07	286.05	11.02	-47.3	-49.1	17.8	0.00e+00	0	40	0	374341632	65	4642
2026-01-30 13:17:09.08	286.23	11.03	-47.5	-49.4	17.5	0.00e+00	0	40	0	376438784	65	4766
2026-01-30 13:17:10.09	286.42	11.04	-47.7	-49.6	17.3	0.00e+00	0	40	0	378535936	65	4922
2026-01-30 13:17:11.09	286.61	11.05	-48.1	-50.2	16.8	0.00e+00	0	40	0	380633088	66	4960
2026-01-30 13:17:12.10	286.79	11.06	-48.6	-51.0	16.0	0.00e+00	0	41	0	381681664	67	5114
2026-01-30 13:17:13.11	286.98	11.07	-48.7	-51.1	16.0	0.00e+00	0	41	0	383778816	68	4893
2026-01-30 13:17:14.12	287.16	11.08	-48.9	-51.4	15.7	0.00e+00	0	41	0	385875968	68	5083
2026-01-30 13:17:15.13	287.35	11.09	-48.9	-51.4	15.7	0.00e+00	0	40	0	387973120	68	5076
2026-01-30 13:17:16.14	287.54	11.10	-48.9	-51.4	15.6	0.00e+00	0	41	0	390070272	68	5088
2026-01-30 13:17:17.15	287.72	11.11	-48.7	-51.1	15.9	0.00e+00	0	41	0	391118848	68	4905
2026-01-30 13:17:18.16	287.91	11.12	-48.5	-50.8	16.2	0.00e+00	0	41	0	393216000	68	4754
2026-01-30 13:17:19.16	288.10	11.13	-48.5	-50.8	16.3	0.00e+00	0	40	0	395313152	68	4727
2026-01-30 13:17:20.17	288.28	11.14	-48.3	-50.4	16.6	0.00e+00	0	40	0	397410304	68	4529
2026-01-30 13:17:21.18	288.47	11.14	-48.3	-50.4	16.7	0.00e+00	0	40	0	399507456	68	4526
2026-01-30 13:17:22.18	288.66	11.15	-48.0	-50.1	17.0	0.00e+00	0	41	0	400556032	68	4362
2026-01-30 13:17:23.19	288.84	11.16	-48.1	-50.2	16.8	0.00e+00	0	41	0	402653184	68	4411
2026-01-30 13:17:24.20	289.03	11.17	-48.1	-50.1	16.9	0.00e+00	0	41	0	404750336	67	4641
2026-01-30 13:17:25.21	289.22	11.17	-48.0	-50.1	16.9	0.00e+00	0	41	0	406847488	67	4603
2026-01-30 13:17:26.21	289.40	11.18	-47.7	-49.6	17.3	0.00e+00	0	40	0	408944640	67	4378
2026-01-30 13:17:27.22	289.59	11.19	-47.4	-49.2	17.8	0.00e+00	0	41	0	409993216	66	4423
2026-01-30 13:17:28.23	289.78	11.19	-47.2	-48.9	18.1	0.00e+00	0	41	0	412090368	66	4275
2026-01-30 13:17:29.24	289.97	11.20	-46.9	-48.6	18.4	0.00e+00	0	40	0	414187520	65	4365
2026-01-30 13:17:30.24	290.15	11.20	-47.1	-48.8	18.2	0.00e+00	0	41	0	416284672	65	4479
2026-01-30 13:17:31.25	290.34	11.21	-47.0	-48.7	18.4	0.00e+00	0	40	0	418381824	65	4395
2026-01-30 13:17:32.26	290.53	11.21	-47.0	-48.7	18.3	0.00e+00	0	40	0	419430400	65	4398
2026-01-30 13:17:33.27	290.72	11.22	-46.9	-48.6	18.4	0.00e+00	0	40	0	421527552	65	4357
2026-01-30 13:17:34.27	290.90	11.22	-47.0	-48.6	18.3	0.00e+00	0	40	0	423624704	65	4390
2026-01-30 13:17:35.28	291.09	11.23	-46.7	-48.3	18.6	0.00e+00	0	40	0	425721856	65	4233
2026-01-30 13:17:36.29	291.28	11.23	-46.6	-48.2	18.8	0.00e+00	0	40	0	427819008	65	4167
2026-01-30 13:17:37.29	291.47	11.24	-46.6	-48.2	18.8	0.00e+00	0	40	0	428867584	65	4161
2026-01-30 13:17:38.30	291.66	11.24	-46.2	-47.7	19.2	0.00e+00	0	40	0	430964736	64	4185
2026-01-30 13:17:39.31	291.84	11.24	-46.3	-47.8	19.2	0.00e+00	0	40	0	433061888	64	4200
2026-01-30 13:17:40.32	292.03	11.25	-46.4	-47.8	19.2	0.00e+00	0	41	0	435159040	64	4242
2026-01-30 13:17:41.33	292.22	11.25	-46.4	-47.9	19.0	0.00e+00	0	40	0	437256192	64	4276
2026-01-30 13:17:42.33	292.41	11.25	-46.5	-48.1	18.9	0.00e+00	0	40	0	438304768	64	4350
2026-01-30 13:17:43.34	292.60	11.25	-46.5	-48.1	18.8	0.00e+00	0	40	0	440401920	64	4360
2026-01-30 13:17:44.34	292.78	11.26	-46.6	-48.2	18.8	0.00e+00	0	40	0	442499072	64	4399
2026-01-30 13:17:45.35	292.97	11.26	-46.4	-48.0	18.9	0.00e+00	0	41	0	444596224	64	4318
2026-01-30 13:17:46.36	293.16	11.26	-46.4	-48.0	18.9	0.00e+00	0	40	0	446693376	64	4309
2026-01-30 13:17:47.37	293.35	11.26	-46.3	-47.9	19.0	0.00e+00	0	40	0	448790528	64	4246
2026-01-30 13:17:48.38	293.54	11.26	-46.2	-47.7	19.2	0.00e+00	0	40	0	449839104	64	4161
2026-01-30 13:17:49.38	293.72	11.26	-46.2	-47.7	19.2	0.00e+00	0	40	0	451936256	64	4149
2026-01-30 13:17:50.39	293.91	11.26	-46.2	-47.7	19.2	0.00e+00	0	40	0	454033408	64	4158
2026-01-30 13:17:51.40	294.10	11.26	-46.2	-47.7	19.1	0.00e+00	0	40	0	456130560	64	4181
2026-01-30 13:17:52.40	294.29	11.26	-46.3	-47.8	19.0	0.00e+00	0	40	0	457179136	64	4236
2026-01-30 13:17:53.41	294.48	11.26	-46.3	-47.8	19.0	0.00e+00	0	40	0	459276288	64	4241
2026-01-30 13:17:54.42	294.67	11.26	-46.3	-47.8	19.0	0.00e+00	0	40	0	461373440	64	4211
2026-01-30 13:17:55.43	294.85	11.26	-46.0	-47.5	19.3	0.00e+00	0	40	0	463470592	64	4069
2026-01-30 13:17:56.43	295.04	11.26	-46.1	-47.5	19.3	0.00e+00	0	40	0	465567744	63	4335
2026-01-30 13:17:57.45	295.23	11.25	-45.9	-47.3	19.5	0.00e+00	0	41	0	466616320	63	4221
2026-01-30 13:17:58.45	295.42	11.25	-45.8	-47.3	19.6	0.00e+00	0	40	0	468713472	63	4194
2026-01-30 13:17:59.46	295.61	11.25	-45.7	-47.1	19.7	0.00e+00	0	41	0	470810624	63	4100
2026-01-30 13:18:00.47	295.80	11.25	-45.7	-47.2	19.6	0.00e+00	0	40	0	472907776	63	4151
2026-01-30 13:18:01.48	295.98	11.24	-45.9	-47.4	19.3	0.00e+00	0	41	0	475004928	63	4264
2026-01-30 13:18:02.49	296.17	11.24	-45.9	-47.4	19.4	0.00e+00	0	40	0	477102080	63	4276
2026-01-30 13:18:03.50	296.36	11.24	-45.9	-47.3	19.5	0.00e+00	0	40	0	478150656	63	4230
2026-01-30 13:18:04.50	296.55	11.23	-45.7	-47.1	19.7	0.00e+00	0	40	0	480247808	63	4123
2026-01-30 13:18:05.51	296.73	11.23	-45.6	-47.0	19.8	0.00e+00	0	40	0	482344960	63	4064
2026-01-30 13:18:06.52	296.92	11.23	-45.4	-46.8	19.9	0.00e+00	0	41	0	484442112	62	4225
2026-01-30 13:18:07.53	297.11	11.22	-45.5	-46.9	19.8	0.00e+00	0	40	0	485490688	62	4279
2026-01-30 13:18:08.54	297.30	11.22	-45.6	-47.0	19.8	0.00e+00	0	40	0	487587840	62	4320
2026-01-30 13:18:09.54	297.49	11.21	-45.8	-47.2	19.5	0.00e+00	0	40	0	489684992	62	4414
2026-01-30 13:18:10.55	297.67	11.21	-45.8	-47.3	19.4	0.00e+00	0	41	0	491782144	62	4454
2026-01-30 13:18:11.56	297.86	11.20	-46.0	-47.5	19.2	0.00e+00	0	41	0	493879296	62	4574
2026-01-30 13:18:12.57	298.05	11.20	-46.1	-47.6	19.1	0.00e+00	0	41	0	495976448	62	4621
2026-01-30 13:18:13.58	298.24	11.19	-46.0	-47.5	19.2	0.00e+00	0	41	0	497025024	62	4594
2026-01-30 13:18:14.58	298.42	11.18	-45.9	-47.4	19.2	0.00e+00	0	41	0	499122176	62	4535
2026-01-30 13:18:15.59	298.61	11.18	-45.8	-47.3	19.4	0.00e+00	0	41	0	501219328	62	4456
2026-01-30 13:18:16.60	298.80	11.17	-45.6	-47.0	19.6	0.00e+00	0	41	0	503316480	62	4302
2026-01-30 13:18:17.61	298.98	11.16	-45.6	-47.0	19.6	0.00e+00	0	40	0	505413632	62	4320
2026-01-30 13:18:18.62	299.17	11.16	-45.5	-46.9	19.7	0.00e+00	0	41	0	506462208	62	4276
2026-01-30 13:18:19.63	299.36	11.15	-45.3	-46.7	19.9	0.00e+00	0	40	0	508559360	62	4176
2026-01-30 13:18:20.64	299.55	11.14	-45.4	-46.8	19.8	0.00e+00	0	41	0	510656512	62	4226
2026-01-30 13:18:21.65	299.73	11.13	-45.5	-46.9	19.7	0.00e+00	0	41	0	512753664	62	4272
2026-01-30 13:18:22.66	299.92	11.12	-45.6	-47.0	19.6	0.00e+00	0	41	0	513802240	62	4316
2026-01-30 13:18:23.66	300.11	11.11	-45.4	-46.9	19.8	0.00e+00	0	41	0	515899392	62	4246
2026-01-30 13:18:24.67	300.29	11.11	-45.5	-46.9	19.7	0.00e+00	0	41	0	517996544	62	4280
2026-01-30 13:18:25.68	300.48	11.10	-45.4	-46.9	19.8	0.00e+00	0	40	0	520093696	62	4248
2026-01-30 13:18:26.69	300.66	11.09	-45.3	-46.6	19.9	0.00e+00	0	41	0	522190848	62	4128
2026-01-30 13:18:27.69	300.85	11.08	-45.1	-46.4	20.2	0.00e+00	0	40	0	524288000	62	4021
2026-01-30 13:18:28.70	301.04	11.07	-45.0	-46.3	20.2	0.00e+00	0	41	0	525336576	61	4215
2026-01-30 13:18:29.71	301.22	11.06	-45.0	-46.3	20.2	0.00e+00	0	40	0	527433728	61	4239
2026-01-30 13:18:30.72	301.41	11.05	-45.1	-46.4	20.2	0.00e+00	0	41	0	529530880	61	4265
2026-01-30 13:18:31.73	301.59	11.04	-45.1	-46.5	20.1	0.00e+00	0	40	0	531628032	61	4295
2026-01-30 13:18:32.73	301.78	11.02	-45.3	-46.7	19.9	0.00e+00	0	41	0	533725184	61	4413
2026-01-30 13:18:33.74	301.96	11.01	-45.4	-46.8	19.8	0.00e+00	0	40	0	534773760	61	4461
2026-01-30 13:18:34.75	302.15	11.00	-45.3	-46.7	19.8	0.00e+00	0	41	0	536870912	61	4427
2026-01-30 13:18:35.75	302.33	10.99	-45.2	-46.6	20.0	0.00e+00	0	40	0	538968064	61	4355
2026-01-30 13:18:36.76	302.52	10.98	-45.2	-46.6	20.0	0.00e+00	0	41	0	541065216	61	4345
2026-01-30 13:18:37.77	302.70	10.97	-44.9	-46.2	20.4	0.00e+00	0	40	0	543162368	61	4156
2026-01-30 13:18:38.78	302.89	10.95	-44.7	-46.0	20.5	0.00e+00	0	41	0	544210944	61	4054
2026-01-30 13:18:39.79	303.07	10.94	-44.7	-45.9	20.5	0.00e+00	0	40	0	546308096	61	4033
2026-01-30 13:18:40.79	303.25	10.93	-44.7	-46.0	20.5	0.00e+00	0	40	0	548405248	61	4054
2026-01-30 13:18:41.80	303.44	10.91	-44.8	-46.0	20.4	0.00e+00	0	41	0	550502400	61	4098
2026-01-30 13:18:42.81	303.62	10.90	-45.0	-46.3	20.2	0.00e+00	0	40	0	552599552	61	4217
2026-01-30 13:18:43.81	303.80	10.89	-45.0	-46.3	20.2	0.00e+00	0	41	0	553648128	61	4204
2026-01-30 13:18:44.82	303.99	10.87	-45.1	-46.5	20.1	0.00e+00	0	41	0	555745280	61	4300
2026-01-30 13:18:45.83	304.17	10.86	-45.2	-46.6	19.9	0.00e+00	0	40	0	557842432	61	4347
2026-01-30 13:18:46.83	304.35	10.84	-45.0	-46.4	20.1	0.00e+00	0	40	0	559939584	61	4251
2026-01-30 13:18:47.84	304.54	10.83	-45.0	-46.3	20.2	0.00e+00	0	41	0	562036736	61	4216
2026-01-30 13:18:48.85	304.72	10.81	-45.0	-46.3	20.1	0.00e+00	0	40	0	563085312	61	4240
2026-01-30 13:18:49.85	304.90	10.80	-44.8	-46.1	20.4	0.00e+00	0	40	0	565182464	61	4100
2026-01-30 13:18:50.86	305.08	10.78	-44.9	-46.2	20.3	0.00e+00	0	40	0	567279616	61	4148
2026-01-30 13:18:51.87	305.27	10.77	-44.9	-46.2	20.3	0.00e+00	0	41	0	569376768	61	4169
2026-01-30 13:18:52.88	305.45	10.75	-45.0	-46.3	20.2	0.00e+00	0	41	0	571473920	61	4199
2026-01-30 13:18:53.89	305.63	10.73	-44.8	-46.1	20.4	0.00e+00	0	40	0	572522496	61	4106
2026-01-30 13:18:54.90	305.81	10.72	-44.8	-46.1	20.4	0.00e+00	0	41	0	574619648	61	4103
2026-01-30 13:18:55.91	305.99	10.70	-44.9	-46.3	20.2	0.00e+00	0	40	0	576716800	61	4196
2026-01-30 13:18:56.91	306.17	10.68	-45.0	-46.3	20.1	0.00e+00	0	41	0	578813952	61	4213
2026-01-30 13:18:57.92	306.35	10.67	-45.1	-46.4	20.1	0.00e+00	0	40	0	580911104	61	4267
2026-01-30 13:18:58.93	306.54	10.65	-44.9	-46.2	20.2	0.00e+00	0	41	0	581959680	61	4181
2026-01-30 13:18:59.93	306.71	10.63	-45.0	-46.3	20.2	0.00e+00	0	40	0	584056832	61	4219
2026-01-30 13:19:00.94	306.89	10.61	-45.0	-46.3	20.1	0.00e+00	0	40	0	586153984	61	4211
2026-01-30 13:19:01.95	307.08	10.59	-45.0	-46.3	20.1	0.00e+00	0	41	0	588251136	61	4220
2026-01-30 13:19:02.95	307.25	10.58	-45.1	-46.4	20.0	0.00e+00	0	41	0	590348288	61	4286
2026-01-30 13:19:03.96	307.43	10.56	-45.4	-46.8	19.7	0.00e+00	0	40	0	591396864	61	4455
2026-01-30 13:19:04.97	307.61	10.54	-45.4	-46.8	19.6	0.00e+00	0	40	0	593494016	61	4490
2026-01-30 13:19:05.97	307.79	10.52	-45.5	-47.0	19.5	0.00e+00	0	41	0	595591168	61	4562
2026-01-30 13:19:06.98	307.97	10.50	-45.6	-47.1	19.4	0.00e+00	0	40	0	597688320	61	4634
2026-01-30 13:19:07.99	308.15	10.48	-45.6	-47.1	19.4	0.00e+00	0	41	0	599785472	61	4632
2026-01-30 13:19:09.00	308.33	10.46	-45.7	-47.2	19.2	0.00e+00	0	41	0	600834048	62	4437
2026-01-30 13:19:10.01	308.51	10.44	-45.8	-47.3	19.2	0.00e+00	0	41	0	602931200	62	4486
2026-01-30 13:19:11.01	308.68	10.42	-45.5	-47.0	19.4	0.00e+00	0	40	0	605028352	62	4316
2026-01-30 13:19:12.02	308.86	10.40	-45.5	-46.9	19.6	0.00e+00	0	41	0	607125504	62	4285
2026-01-30 13:19:13.03	309.04	10.38	-45.2	-46.6	19.8	0.00e+00	0	41	0	609222656	62	4123
2026-01-30 13:19:14.04	309.22	10.36	-45.2	-46.6	19.8	0.00e+00	0	41	0	610271232	62	4110
2026-01-30 13:19:15.05	309.39	10.34	-44.9	-46.3	20.1	0.00e+00	0	41	0	612368384	61	4199
2026-01-30 13:19:16.05	309.57	10.31	-44.7	-46.0	20.3	0.00e+00	0	40	0	614465536	61	4053
2026-01-30 13:19:17.06	309.75	10.29	-44.7	-46.0	20.3	0.00e+00	0	40	0	616562688	61	4088
2026-01-30 13:19:18.07	309.92	10.27	-44.4	-45.6	20.6	0.00e+00	0	40	0	618659840	60	4140
2026-01-30 13:19:19.08	310.10	10.25	-44.3	-45.5	20.7	0.00e+00	0	40	0	619708416	60	4097
2026-01-30 13:19:20.08	310.27	10.23	-44.2	-45.5	20.8	0.00e+00	0	40	0	621805568	60	4053
2026-01-30 13:19:21.09	310.45	10.20	-44.1	-45.3	21.0	0.00e+00	0	40	0	623902720	60	3960
2026-01-30 13:19:22.10	310.62	10.18	-44.3	-45.5	21.1	0.00e+00	0	41	0	625999872	59	4304
2026-01-30 13:19:23.11	310.80	10.16	-44.2	-45.4	21.1	0.00e+00	0	40	0	628097024	59	4268
2026-01-30 13:19:24.11	310.97	10.13	-44.2	-45.4	21.1	0.00e+00	0	40	0	629145600	59	4263
2026-01-30 13:19:25.12	311.15	10.11	-44.1	-45.3	21.2	0.00e+00	0	41	0	631242752	59	4227
2026-01-30 13:19:26.13	311.32	10.09	-44.3	-45.5	21.0	0.00e+00	0	40	0	633339904	59	4331
2026-01-30 13:19:27.14	311.50	10.06	-44.4	-45.6	21.0	0.00e+00	0	40	0	635437056	59	4365
2026-01-30 13:19:28.14	311.67	10.04	-44.5	-45.7	20.8	0.00e+00	0	41	0	637534208	59	4435
2026-01-30 13:19:29.15	311.84	10.02	-44.6	-45.9	20.7	0.00e+00	0	41	0	638582784	59	4520
2026-01-30 13:19:30.16	312.01	9.99	-44.5	-45.8	20.5	0.00e+00	0	40	0	640679936	60	4202
2026-01-30 13:19:31.17	312.19	9.97	-44.5	-45.8	20.5	0.00e+00	0	40	0	642777088	60	4211
2026-01-30 13:19:32.18	312.36	9.94	-44.6	-45.9	20.4	0.00e+00	0	41	0	644874240	60	4245
2026-01-30 13:19:33.18	312.53	9.92	-44.6	-45.9	20.4	0.00e+00	0	40	0	646971392	60	4255
2026-01-30 13:19:34.19	312.70	9.89	-44.5	-45.8	20.4	0.00e+00	0	41	0	648019968	60	4213
2026-01-30 13:19:35.20	312.88	9.87	-44.5	-45.8	20.4	0.00e+00	0	40	0	650117120	60	4225
2026-01-30 13:19:36.20	313.05	9.84	-44.5	-45.8	20.4	0.00e+00	0	40	0	652214272	60	4227
2026-01-30 13:19:37.20	313.21	9.82	-44.3	-45.6	20.6	0.00e+00	0	40	0	654311424	60	4113
2026-01-30 13:19:38.21	313.39	9.79	-44.4	-45.6	20.6	0.00e+00	0	40	0	656408576	60	4123
2026-01-30 13:19:39.22	313.56	9.76	-44.3	-45.6	20.6	0.00e+00	0	41	0	657457152	60	4109
2026-01-30 13:19:40.22	313.73	9.74	-44.4	-45.7	20.6	0.00e+00	0	41	0	659554304	60	4146
2026-01-30 13:19:41.23	313.90	9.71	-44.5	-45.7	20.5	0.00e+00	0	41	0	661651456	60	4172
2026-01-30 13:19:42.24	314.07	9.68	-44.6	-45.8	20.4	0.00e+00	0	40	0	663748608	60	4238
2026-01-30 13:19:43.25	314.23	9.66	-44.8	-46.1	20.2	0.00e+00	0	40	0	665845760	60	4370
2026-01-30 13:19:44.25	314.40	9.63	-45.0	-46.4	19.9	0.00e+00	0	40	0	666894336	60	4494
2026-01-30 13:19:45.26	314.57	9.60	-44.8	-46.2	20.1	0.00e+00	0	40	0	668991488	60	4413
2026-01-30 13:19:46.27	314.74	9.57	-44.5	-45.8	20.4	0.00e+00	0	40	0	671088640	60	4227
2026-01-30 13:19:47.28	314.91	9.55	-44.5	-45.8	20.4	0.00e+00	0	40	0	673185792	60	4219
2026-01-30 13:19:48.28	315.07	9.52	-44.2	-45.4	20.8	0.00e+00	0	40	0	675282944	60	4012
2026-01-30 13:19:49.29	315.24	9.49	-44.0	-45.2	20.9	0.00e+00	0	40	0	676331520	60	3939
2026-01-30 13:19:50.30	315.41	9.46	-44.4	-45.6	20.9	0.00e+00	0	40	0	678428672	59	4389
2026-01-30 13:19:51.31	315.58	9.43	-44.5	-45.7	20.8	0.00e+00	0	41	0	680525824	59	4426
2026-01-30 13:19:52.32	315.74	9.41	-44.4	-45.6	20.8	0.00e+00	0	40	0	682622976	59	4381
2026-01-30 13:19:53.32	315.91	9.38	-44.6	-45.8	20.7	0.00e+00	0	41	0	684720128	59	4482
2026-01-30 13:19:54.33	316.07	9.35	-44.4	-45.7	20.5	0.00e+00	0	40	0	685768704	60	4167
2026-01-30 13:19:55.34	316.24	9.32	-44.5	-45.8	20.4	0.00e+00	0	40	0	687865856	60	4202
2026-01-30 13:19:56.35	316.40	9.29	-44.7	-46.0	20.2	0.00e+00	0	40	0	689963008	60	4315
2026-01-30 13:19:57.36	316.57	9.26	-44.5	-45.8	20.4	0.00e+00	0	40	0	692060160	60	4236
2026-01-30 13:19:58.37	316.73	9.23	-44.6	-45.9	20.3	0.00e+00	0	40	0	694157312	60	4256
2026-01-30 13:19:59.37	316.90	9.20	-44.5	-45.7	20.4	0.00e+00	0	40	0	696254464	60	4191
2026-01-30 13:20:00.38	317.06	9.17	-44.4	-45.7	20.4	0.00e+00	0	40	0	697303040	60	4173
2026-01-30 13:20:01.38	317.22	9.14	-44.6	-45.8	20.3	0.00e+00	0	40	0	699400192	60	4241
2026-01-30 13:20:02.39	317.39	9.11	-44.6	-45.9	20.3	0.00e+00	0	40	0	701497344	60	4251
2026-01-30 13:20:03.41	317.55	9.08	-44.7	-46.0	20.2	0.00e+00	0	40	0	703594496	60	4298
2026-01-30 13:20:04.41	317.71	9.05	-44.7	-46.0	20.1	0.00e+00	0	40	0	704643072	60	4340
2026-01-30 13:20:05.42	317.88	9.02	-45.0	-46.4	19.8	0.00e+00	0	40	0	706740224	60	4526
2026-01-30 13:20:06.43	318.04	8.99	-45.3	-46.7	19.5	0.00e+00	0	41	0	708837376	61	4440
2026-01-30 13:20:07.43	318.20	8.96	-45.3	-46.8	19.4	0.00e+00	0	40	0	710934528	61	4463
2026-01-30 13:20:08.44	318.36	8.93	-45.6	-47.1	19.1	0.00e+00	0	41	0	713031680	61	4600
2026-01-30 13:20:09.45	318.52	8.89	-45.7	-47.2	19.1	0.00e+00	0	40	0	714080256	62	4410
2026-01-30 13:20:10.46	318.68	8.86	-45.9	-47.4	18.9	0.00e+00	0	41	0	716177408	62	4537
2026-01-30 13:20:11.47	318.84	8.83	-45.9	-47.5	18.7	0.00e+00	0	40	0	718274560	62	4589
2026-01-30 13:20:12.47	319.00	8.80	-45.8	-47.4	18.9	0.00e+00	0	40	0	720371712	62	4509
2026-01-30 13:20:13.48	319.16	8.77	-45.9	-47.5	18.8	0.00e+00	0	40	0	722468864	62	4551
2026-01-30 13:20:14.48	319.32	8.74	-45.9	-47.5	18.8	0.00e+00	0	40	0	724566016	62	4581
2026-01-30 13:20:15.49	319.48	8.70	-45.9	-47.5	18.7	0.00e+00	0	40	0	725614592	62	4589
2026-01-30 13:20:16.49	319.63	8.67	-46.0	-47.6	18.7	0.00e+00	0	40	0	727711744	62	4625
2026-01-30 13:20:17.50	319.79	8.64	-46.0	-47.7	18.6	0.00e+00	0	41	0	729808896	62	4657
2026-01-30 13:20:18.51	319.95	8.61	-46.0	-47.6	18.6	0.00e+00	0	40	0	731906048	62	4642
2026-01-30 13:20:19.52	320.11	8.57	-46.0	-47.6	18.6	0.00e+00	0	40	0	732954624	62	4640
2026-01-30 13:20:20.52	320.26	8.54	-46.1	-47.8	18.5	0.00e+00	0	40	0	735051776	62	4729
2026-01-30 13:20:21.54	320.42	8.51	-46.1	-47.7	18.5	0.00e+00	0	40	0	737148928	62	4705
2026-01-30 13:20:22.54	320.58	8.47	-46.1	-47.8	18.4	0.00e+00	0	40	0	739246080	63	4466
2026-01-30 13:20:23.55	320.73	8.44	-46.1	-47.7	18.5	0.00e+00	0	41	0	741343232	63	4417
2026-01-30 13:20:24.55	320.89	8.41	-46.2	-47.9	18.4	0.00e+00	0	41	0	742391808	63	4507
2026-01-30 13:20:25.56	321.04	8.37	-46.3	-48.0	18.3	0.00e+00	0	40	0	744488960	63	4546
2026-01-30 13:20:26.57	321.20	8.34	-46.4	-48.1	18.1	0.00e+00	0	40	0	746586112	63	4643
2026-01-30 13:20:27.57	321.35	8.31	-46.3	-48.0	18.3	0.00e+00	0	40	0	748683264	63	4578
2026-01-30 13:20:28.58	321.51	8.27	-46.3	-48.0	18.2	0.00e+00	0	40	0	750780416	63	4594
2026-01-30 13:20:29.59	321.66	8.24	-46.4	-48.1	18.1	0.00e+00	0	40	0	752877568	63	4643
2026-01-30 13:20:30.59	321.81	8.20	-46.4	-48.1	18.1	0.00e+00	0	40	0	753926144	63	4648
2026-01-30 13:20:31.60	321.97	8.17	-46.5	-48.3	17.9	0.00e+00	0	40	0	756023296	63	4744
2026-01-30 13:20:32.61	322.12	8.13	-46.6	-48.4	17.9	0.00e+00	0	40	0	758120448	63	4771
2026-01-30 13:20:33.62	322.27	8.10	-46.5	-48.3	17.9	0.00e+00	0	41	0	760217600	63	4713
2026-01-30 13:20:34.63	322.43	8.06	-46.5	-48.3	17.9	0.00e+00	0	40	0	761266176	63	4729
2026-01-30 13:20:35.64	322.58	8.03	-46.4	-48.2	18.0	0.00e+00	0	40	0	763363328	63	4674
2026-01-30 13:20:36.65	322.73	7.99	-46.5	-48.2	18.0	0.00e+00	0	40	0	765460480	63	4701
2026-01-30 13:20:37.65	322.88	7.96	-46.7	-48.5	17.8	0.00e+00	0	40	0	767557632	63	4824
2026-01-30 13:20:38.66	323.03	7.92	-46.8	-48.7	17.5	0.00e+00	0	41	0	769654784	64	4676
2026-01-30 13:20:39.67	323.18	7.89	-47.1	-49.1	17.1	0.00e+00	0	41	0	771751936	64	4880
2026-01-30 13:20:40.68	323.33	7.85	-47.4	-49.5	16.7	0.00e+00	0	41	0	772800512	65	4849
2026-01-30 13:20:41.69	323.48	7.82	-47.4	-49.6	16.6	0.00e+00	0	41	0	774897664	65	4888
2026-01-30 13:20:42.69	323.63	7.78	-47.6	-49.8	16.3	0.00e+00	0	40	0	776994816	65	5022
2026-01-30 13:20:43.70	323.78	7.75	-47.7	-50.0	16.2	0.00e+00	0	41	0	779091968	65	5137
2026-01-30 13:20:44.71	323.93	7.71	-47.6	-49.9	16.3	0.00e+00	0	41	0	781189120	65	5068
2026-01-30 13:20:45.71	324.08	7.67	-47.6	-49.9	16.3	0.00e+00	0	41	0	782237696	66	4780
2026-01-30 13:20:46.72	324.22	7.64	-47.6	-49.8	16.3	0.00e+00	0	41	0	784334848	66	4723
2026-01-30 13:20:47.72	324.37	7.60	-47.3	-49.4	16.7	0.00e+00	0	40	0	786432000	66	4514
2026-01-30 13:20:48.72	324.52	7.57	-47.5	-49.7	16.5	0.00e+00	0	40	0	788529152	66	4697
2026-01-30 13:20:49.73	324.66	7.53	-47.2	-49.2	16.9	0.00e+00	0	40	0	789577728	66	4425
2026-01-30 13:20:50.74	324.81	7.49	-47.2	-49.3	16.9	0.00e+00	0	40	0	791674880	66	4448
2026-01-30 13:20:51.75	324.96	7.46	-47.0	-49.0	17.2	0.00e+00	0	40	0	793772032	65	4549
2026-01-30 13:20:52.75	325.10	7.42	-47.0	-49.0	17.1	0.00e+00	0	40	0	795869184	65	4565
2026-01-30 13:20:53.76	325.25	7.38	-47.0	-49.1	17.0	0.00e+00	0	40	0	797966336	65	4622
2026-01-30 13:20:54.77	325.39	7.35	-47.1	-49.1	17.0	0.00e+00	0	41	0	799014912	65	4640
2026-01-30 13:20:55.78	325.54	7.31	-47.0	-49.0	17.0	0.00e+00	0	41	0	801112064	65	4590
2026-01-30 13:20:56.78	325.68	7.27	-47.1	-49.2	16.9	0.00e+00	0	40	0	803209216	65	4663
2026-01-30 13:20:57.79	325.82	7.23	-47.1	-49.2	16.9	0.00e+00	0	40	0	805306368	65	4659
2026-01-30 13:20:58.80	325.97	7.20	-47.1	-49.2	16.9	0.00e+00	0	41	0	807403520	65	4684
2026-01-30 13:20:59.81	326.11	7.16	-47.3	-49.4	16.6	0.00e+00	0	40	0	809500672	65	4795
2026-01-30 13:21:00.81	326.25	7.12	-47.3	-49.5	16.6	0.00e+00	0	40	0	810549248	65	4843
2026-01-30 13:21:01.82	326.40	7.08	-47.4	-49.6	16.4	0.00e+00	0	41	0	812646400	65	4919
2026-01-30 13:21:02.83	326.54	7.05	-47.4	-49.7	16.4	0.00e+00	0	40	0	814743552	65	4930
2026-01-30 13:21:03.83	326.68	7.01	-47.5	-49.7	16.3	0.00e+00	0	41	0	816840704	65	4979
2026-01-30 13:21:04.84	326.82	6.97	-47.5	-49.7	16.3	0.00e+00	0	41	0	817889280	65	4975
2026-01-30 13:21:05.85	326.96	6.93	-47.5	-49.8	16.3	0.00e+00	0	40	0	819986432	65	5002
2026-01-30 13:21:06.86	327.10	6.89	-47.4	-49.6	16.5	0.00e+00	0	40	0	822083584	65	4902
2026-01-30 13:21:07.87	327.25	6.86	-47.2	-49.4	16.6	0.00e+00	0	41	0	824180736	65	4779
2026-01-30 13:21:08.87	327.38	6.82	-47.2	-49.3	16.7	0.00e+00	0	40	0	826277888	65	4748
2026-01-30 13:21:09.88	327.52	6.78	-47.2	-49.4	16.6	0.00e+00	0	41	0	828375040	65	4777
2026-01-30 13:21:10.89	327.66	6.74	-47.1	-49.1	16.9	0.00e+00	0	41	0	829423616	65	4631
2026-01-30 13:21:11.90	327.80	6.70	-46.9	-48.9	17.1	0.00e+00	0	40	0	831520768	65	4511
2026-01-30 13:21:12.90	327.94	6.66	-46.9	-48.9	17.1	0.00e+00	0	41	0	833617920	65	4496
2026-01-30 13:21:13.91	328.08	6.62	-47.0	-49.0	17.0	0.00e+00	0	40	0	835715072	65	4588
2026-01-30 13:21:14.92	328.22	6.59	-46.9	-49.0	17.0	0.00e+00	0	40	0	837812224	65	4561
2026-01-30 13:21:15.93	328.36	6.55	-46.8	-48.8	17.2	0.00e+00	0	40	0	838860800	65	4470
2026-01-30 13:21:16.93	328.49	6.51	-46.8	-48.8	17.1	0.00e+00	0	41	0	840957952	65	4490
2026-01-30 13:21:17.94	328.63	6.47	-46.8	-48.8	17.2	0.00e+00	0	41	0	843055104	65	4452
2026-01-30 13:21:18.94	328.76	6.43	-46.8	-48.7	17.2	0.00e+00	0	40	0	845152256	65	4431
2026-01-30 13:21:19.95	328.90	6.39	-46.6	-48.5	17.4	0.00e+00	0	40	0	846200832	65	4329
2026-01-30 13:21:20.96	329.04	6.35	-46.6	-48.5	17.5	0.00e+00	0	41	0	848297984	64	4557
2026-01-30 13:21:21.97	329.17	6.31	-46.7	-48.7	17.2	0.00e+00	0	40	0	850395136	64	4691
2026-01-30 13:21:22.97	329.31	6.27	-46.5	-48.4	17.5	0.00e+00	0	40	0	852492288	64	4522
2026-01-30 13:21:23.98	329.44	6.23	-46.5	-48.4	17.6	0.00e+00	0	41	0	854589440	64	4498
2026-01-30 13:21:24.98	329.58	6.19	-46.4	-48.3	17.6	0.00e+00	0	41	0	856686592	64	4482
2026-01-30 13:21:25.99	329.71	6.15	-46.3	-48.1	17.8	0.00e+00	0	40	0	857735168	64	4353
2026-01-30 13:21:27.00	329.84	6.11	-46.3	-48.1	17.7	0.00e+00	0	41	0	859832320	64	4379
2026-01-30 13:21:28.00	329.98	6.08	-46.3	-48.2	17.7	0.00e+00	0	41	0	861929472	64	4402
2026-01-30 13:21:29.01	330.11	6.04	-46.2	-48.1	17.8	0.00e+00	0	40	0	864026624	64	4343
2026-01-30 13:21:30.02	330.24	6.00	-46.4	-48.2	17.6	0.00e+00	0	41	0	866123776	64	4415
2026-01-30 13:21:31.03	330.38	5.96	-46.3	-48.1	17.7	0.00e+00	0	41	0	867172352	64	4378
2026-01-30 13:21:32.03	330.51	5.92	-46.5	-48.4	17.5	0.00e+00	0	41	0	869269504	64	4502
2026-01-30 13:21:33.04	330.64	5.88	-46.5	-48.4	17.4	0.00e+00	0	41	0	871366656	64	4522
2026-01-30 13:21:34.05	330.77	5.84	-46.6	-48.5	17.4	0.00e+00	0	40	0	873463808	64	4576
2026-01-30 13:21:35.06	330.90	5.79	-46.4	-48.3	17.5	0.00e+00	0	41	0	874512384	64	4460
2026-01-30 13:21:36.07	331.03	5.75	-46.6	-48.5	17.4	0.00e+00	0	40	0	876609536	64	4572
2026-01-30 13:21:37.07	331.16	5.71	-46.7	-48.6	17.2	0.00e+00	0	41	0	878706688	64	4640
2026-01-30 13:21:38.09	331.29	5.67	-46.6	-48.5	17.3	0.00e+00	0	41	0	880803840	64	4593
2026-01-30 13:21:39.09	331.42	5.63	-46.6	-48.6	17.2	0.00e+00	0	40	0	882900992	64	4643
2026-01-30 13:21:40.10	331.55	5.59	-46.6	-48.5	17.3	0.00e+00	0	40	0	884998144	64	4580
2026-01-30 13:21:41.11	331.68	5.55	-46.7	-48.7	17.0	0.00e+00	0	41	0	886046720	64	4697
2026-01-30 13:21:42.12	331.81	5.51	-46.7	-48.7	17.1	0.00e+00	0	41	0	888143872	64	4663
2026-01-30 13:21:43.12	331.94	5.47	-46.6	-48.6	17.2	0.00e+00	0	41	0	890241024	64	4614
2026-01-30 13:21:44.13	332.06	5.43	-46.5	-48.5	17.3	0.00e+00	0	41	0	892338176	64	4563
2026-01-30 13:21:45.13	332.19	5.39	-46.4	-48.3	17.4	0.00e+00	0	41	0	894435328	64	4479
2026-01-30 13:21:46.14	332.32	5.35	-46.4	-48.3	17.4	0.00e+00	0	41	0	895483904	64	4478
2026-01-30 13:21:47.15	332.45	5.31	-46.7	-48.7	17.0	0.00e+00	0	40	0	897581056	64	4696
2026-01-30 13:21:48.16	332.57	5.27	-46.4	-48.3	17.4	0.00e+00	0	40	0	899678208	64	4484
2026-01-30 13:21:49.17	332.70	5.23	-46.3	-48.2	17.5	0.00e+00	0	40	0	901775360	64	4419
2026-01-30 13:21:50.17	332.82	5.19	-46.1	-47.9	17.8	0.00e+00	0	41	0	903872512	64	4287
2026-01-30 13:21:51.18	332.95	5.14	-46.1	-47.9	17.8	0.00e+00	0	41	0	904921088	64	4244
2026-01-30 13:21:52.19	333.07	5.10	-46.2	-48.1	17.7	0.00e+00	0	41	0	907018240	64	4354
2026-01-30 13:21:53.20	333.20	5.06	-45.9	-47.7	18.0	0.00e+00	0	41	0	909115392	63	4401
2026-01-30 13:21:54.21	333.32	5.02	-46.0	-47.8	18.0	0.00e+00	0	40	0	911212544	63	4444
2026-01-30 13:21:55.21	333.45	4.98	-52.3	-67.3	3.8	6.15e-01	0	40	104	912261120	75	21090
2026-01-30 13:21:56.22	333.57	4.94	-52.7	-67.7	3.8	1.49e+00	0	41	104	912261120	75	22073
2026-01-30 13:21:57.23	333.70	4.90	-53.0	-68.0	3.8	1.49e+00	0	41	104	912261120	76	21556
2026-01-30 13:21:58.23	333.82	4.86	-53.2	-68.2	3.8	1.49e+00	0	41	104	912261120	76	22028
2026-01-30 13:21:59.24	333.94	4.81	-53.4	-68.3	3.8	1.49e+00	0	41	104	912261120	77	21191
2026-01-30 13:22:00.25	334.06	4.77	-53.5	-68.4	3.8	1.49e+00	0	41	104	912261120	77	21428
2026-01-30 13:22:01.25	334.18	4.73	-53.5	-68.5	3.8	1.49e+00	0	40	104	912261120	77	21592
2026-01-30 13:22:02.26	334.31	4.69	-53.6	-68.5	3.8	1.49e+00	0	41	104	912261120	77	21747
2026-01-30 13:22:03.27	334.43	4.65	-53.5	-68.5	3.8	1.49e+00	0	41	104	912261120	77	21668
2026-01-30 13:22:04.27	334.55	4.61	-53.5	-68.5	3.8	1.49e+00	0	41	104	912261120	77	21552
2026-01-30 13:22:05.28	334.67	4.57	-53.4	-68.4	3.8	1.49e+00	0	41	104	912261120	77	21385
2026-01-30 13:22:06.29	334.79	4.52	-53.3	-68.2	3.8	1.49e+00	0	41	104	912261120	77	20997
2026-01-30 13:22:07.30	334.91	4.48	-53.3	-68.2	3.8	1.49e+00	0	40	104	912261120	77	20956
2026-01-30 13:22:08.31	335.03	4.44	-53.3	-68.3	3.8	1.49e+00	0	41	104	912261120	77	21101
2026-01-30 13:22:09.31	335.15	4.40	-53.4	-68.3	3.8	1.49e+00	0	41	104	912261120	77	21217
2026-01-30 13:22:10.32	335.27	4.36	-53.4	-68.4	3.8	1.49e+00	0	40	104	912261120	77	21326
2026-01-30 13:22:11.33	335.39	4.31	-53.5	-68.4	3.8	1.49e+00	0	41	104	912261120	77	21443
2026-01-30 13:22:12.34	335.51	4.27	-53.5	-68.4	3.8	1.49e+00	0	41	104	912261120	77	21495
2026-01-30 13:22:13.35	335.62	4.23	-53.5	-68.5	3.8	1.49e+00	0	41	104	912261120	77	21543
2026-01-30 13:22:14.36	335.74	4.19	-53.5	-68.5	3.8	1.49e+00	0	41	104	912261120	77	21628
2026-01-30 13:22:15.37	335.86	4.15	-53.5	-68.5	3.8	1.49e+00	0	41	104	912261120	77	21630
2026-01-30 13:22:16.37	335.98	4.11	-53.5	-68.5	3.8	1.49e+00	0	41	104	912261120	77	21612
2026-01-30 13:22:17.38	336.09	4.06	-53.5	-68.4	3.8	1.49e+00	0	41	104	912261120	77	21436
2026-01-30 13:22:18.39	336.21	4.02	-53.4	-68.4	3.8	1.49e+00	0	41	104	912261120	77	21421
2026-01-30 13:22:19.39	336.33	3.98	-53.4	-68.4	3.8	1.49e+00	0	41	104	912261120	77	21293
2026-01-30 13:22:20.40	336.44	3.94	-53.4	-68.4	3.8	1.49e+00	0	41	104	912261120	77	21325
2026-01-30 13:22:21.41	336.56	3.89	-53.4	-68.4	3.8	1.49e+00	0	41	104	912261120	77	21297
2026-01-30 13:22:22.42	336.67	3.85	-53.4	-68.3	3.8	1.49e+00	0	41	104	912261120	77	21207
2026-01-30 13:22:23.43	336.79	3.81	-53.4	-68.3	3.8	1.49e+00	0	41	104	912261120	77	21237
2026-01-30 13:22:24.44	336.90	3.77	-53.3	-68.3	3.8	1.49e+00	0	41	104	912261120	77	21106
2026-01-30 13:22:25.45	337.02	3.73	-53.3	-68.3	3.8	1.49e+00	0	41	104	912261120	77	21137
2026-01-30 13:22:26.45	337.13	3.68	-53.3	-68.3	3.8	1.49e+00	0	41	104	912261120	77	21137
2026-01-30 13:22:27.46	337.25	3.64	-53.3	-68.3	3.8	1.49e+00	0	41	104	912261120	77	21134
2026-01-30 13:22:28.47	337.36	3.60	-53.3	-68.3	3.8	1.49e+00	0	41	104	912261120	77	21096
2026-01-30 13:22:29.48	337.47	3.56	-53.3	-68.3	3.8	1.49e+00	0	41	104	912261120	77	21065
2026-01-30 13:22:30.49	337.59	3.51	-53.3	-68.3	3.8	1.49e+00	0	41	104	912261120	77	21040
2026-01-30 13:22:31.50	337.70	3.47	-53.3	-68.2	3.8	1.49e+00	0	41	104	912261120	77	20967
2026-01-30 13:22:32.51	337.81	3.43	-53.3	-68.2	3.8	1.49e+00	0	41	104	912261120	77	20961
2026-01-30 13:22:33.51	337.92	3.39	-53.3	-68.3	3.8	1.49e+00	0	41	104	912261120	77	21018
2026-01-30 13:22:34.52	338.03	3.34	-53.3	-68.2	3.8	1.49e+00	0	41	104	912261120	77	20966
2026-01-30 13:22:35.53	338.15	3.30	-53.3	-68.2	3.8	1.49e+00	0	41	104	912261120	77	21015
2026-01-30 13:22:36.54	338.26	3.26	-53.3	-68.2	3.8	1.49e+00	0	41	104	912261120	77	20943
2026-01-30 13:22:37.55	338.37	3.22	-53.3	-68.2	3.8	1.49e+00	0	41	104	912261120	77	20949
2026-01-30 13:22:38.56	338.48	3.17	-53.3	-68.2	3.8	1.49e+00	0	41	104	912261120	77	20953
2026-01-30 13:22:39.56	338.59	3.13	-53.2	-68.2	3.8	1.49e+00	0	41	104	912261120	77	20913
2026-01-30 13:22:40.58	338.70	3.09	-53.2	-68.2	3.8	1.49e+00	0	41	104	912261120	77	20933
2026-01-30 13:22:41.58	338.81	3.05	-53.2	-68.2	3.8	1.49e+00	0	41	104	912261120	77	20936
2026-01-30 13:22:42.59	338.92	3.00	-53.2	-68.2	3.8	1.49e+00	0	41	104	912261120	77	20900
2026-01-30 13:22:43.59	339.02	2.96	-53.2	-68.2	3.8	1.49e+00	0	41	104	912261120	77	20804
2026-01-30 13:22:44.60	339.13	2.92	-53.2	-68.2	3.8	1.49e+00	0	41	104	912261120	77	20877
2026-01-30 13:22:45.61	339.24	2.88	-53.2	-68.2	3.8	1.49e+00	0	41	104	912261120	77	20847
2026-01-30 13:22:46.62	339.35	2.83	-53.2	-68.2	3.8	1.49e+00	0	41	104	912261120	77	20816
2026-01-30 13:22:47.63	339.46	2.79	-53.2	-68.2	3.8	1.49e+00	0	41	104	912261120	77	20869
2026-01-30 13:22:48.63	339.56	2.75	-53.2	-68.2	3.8	1.49e+00	0	41	104	912261120	77	20829
2026-01-30 13:22:49.64	339.67	2.70	-53.2	-68.2	3.8	1.49e+00	0	41	104	912261120	77	20808
2026-01-30 13:22:50.65	339.78	2.66	-53.2	-68.2	3.8	1.49e+00	0	41	104	912261120	77	20787
2026-01-30 13:22:51.66	339.88	2.62	-53.2	-68.2	3.8	1.49e+00	0	41	104	912261120	77	20829
2026-01-30 13:22:52.66	339.99	2.58	-53.2	-68.2	3.8	1.49e+00	0	41	104	912261120	77	20805
2026-01-30 13:22:53.67	340.10	2.53	-53.2	-68.1	3.8	1.49e+00	0	41	104	912261120	77	20742
2026-01-30 13:22:54.67	340.20	2.49	-53.2	-68.1	3.8	1.49e+00	0	41	104	912261120	77	20761
2026-01-30 13:22:55.68	340.31	2.45	-53.2	-68.2	3.8	1.49e+00	0	41	104	912261120	77	20812
2026-01-30 13:22:56.69	340.41	2.41	-53.2	-68.2	3.8	1.49e+00	0	41	104	912261120	77	20803
2026-01-30 13:22:57.69	340.52	2.36	-53.2	-68.1	3.8	1.49e+00	0	41	104	912261120	77	20743
2026-01-30 13:22:58.70	340.62	2.32	-53.2	-68.1	3.8	1.49e+00	0	41	104	912261120	77	20721
2026-01-30 13:22:59.71	340.72	2.28	-53.2	-68.1	3.8	1.49e+00	0	41	104	912261120	77	20720
2026-01-30 13:23:00.72	340.83	2.23	-53.2	-68.1	3.8	1.49e+00	0	41	104	912261120	77	20734
2026-01-30 13:23:01.73	340.93	2.19	-53.2	-68.1	3.8	1.49e+00	0	41	104	912261120	77	20705
2026-01-30 13:23:02.73	341.04	2.15	-53.2	-68.1	3.8	1.49e+00	0	41	104	912261120	77	20719
2026-01-30 13:23:03.74	341.14	2.11	-53.2	-68.1	3.8	1.49e+00	0	41	104	912261120	77	20717
2026-01-30 13:23:04.74	341.24	2.06	-53.2	-68.1	3.8	1.49e+00	0	41	104	912261120	77	20696
2026-01-30 13:23:05.75	341.34	2.02	-53.2	-68.1	3.8	1.49e+00	0	41	104	912261120	77	20730

#Closed at: 2026-01-30 13:23:06
#Recorded file [912 MB]: D:/lorett/data/31041_260130_161237.dat