passes_logs/2026/01/30/R3.2S_Murmansk/R3.2S_Murmansk__20260130_082808_NOAA_20_JPSS-1_rec.log

#Pass ID: 20260130_082808_NOAA 20 (JPSS-1)
#Satellite: NOAA 20 (JPSS-1)
#Configuration: NOAA 20
#almurnet v.1.7.20251203
#Start time: 2026-01-30 08:28:08

#Version: 2.2.20231116
#Station: R3.2S_Murmansk
#Location: 33.079688 lon 68.888172 lat
#TLE: 1 43013U 17073A   26029.42702672  .00000137  00000+0  85918-4 0  9993
#TLE: 2 43013  98.7646 330.2153 0000804  19.9045 340.2162 14.19525092424781

#Time	Az	El	Level	Level2	SNR	BER	BlckErr	Temp	State	Recorded	gain1	gain2
2026-01-30 08:28:08.72	126.82	2.02	-54.1	-69.0	3.8	1.49e+00	0	39	0	0	79	20477
2026-01-30 08:28:09.72	126.80	2.09	-54.0	-69.1	3.8	1.49e+00	0	39	104	0	78	21797
2026-01-30 08:28:10.73	126.78	2.15	-54.0	-69.0	3.8	1.49e+00	0	39	104	0	78	21718
2026-01-30 08:28:11.73	126.75	2.22	-54.0	-69.0	3.8	1.49e+00	0	39	104	0	78	21695
2026-01-30 08:28:12.74	126.73	2.28	-54.0	-69.0	3.8	1.49e+00	0	39	104	0	78	21702
2026-01-30 08:28:13.74	126.70	2.34	-54.0	-69.0	3.8	1.49e+00	0	39	104	0	78	21589
2026-01-30 08:28:14.75	126.68	2.41	-54.0	-69.0	3.8	1.49e+00	0	39	104	0	78	21604
2026-01-30 08:28:15.76	126.66	2.47	-54.0	-69.0	3.8	1.49e+00	0	39	104	0	78	21575
2026-01-30 08:28:16.77	126.63	2.54	-54.0	-69.0	3.8	1.49e+00	0	39	104	0	78	21603
2026-01-30 08:28:17.78	126.61	2.60	-54.0	-69.0	3.8	1.49e+00	0	39	104	0	78	21604
2026-01-30 08:28:18.78	126.58	2.67	-54.0	-69.0	3.8	1.49e+00	0	39	104	0	78	21568
2026-01-30 08:28:19.79	126.56	2.73	-54.0	-69.0	3.8	1.49e+00	0	39	104	0	78	21524
2026-01-30 08:28:20.80	126.53	2.80	-54.0	-69.0	3.8	1.49e+00	0	39	104	0	78	21522
2026-01-30 08:28:21.81	126.51	2.87	-54.0	-68.9	3.8	1.49e+00	0	39	104	0	78	21468
2026-01-30 08:28:22.81	126.48	2.93	-53.9	-68.9	3.8	1.49e+00	0	40	104	0	78	21439
2026-01-30 08:28:23.82	126.46	3.00	-53.9	-68.9	3.8	1.49e+00	0	39	104	0	78	21458
2026-01-30 08:28:24.83	126.43	3.06	-54.0	-68.9	3.8	1.49e+00	0	40	104	0	78	21429
2026-01-30 08:28:25.84	126.40	3.13	-54.1	-69.1	3.8	1.49e+00	0	40	104	0	78	21846
2026-01-30 08:28:26.84	126.38	3.19	-54.2	-69.2	3.8	1.49e+00	0	40	104	0	78	22126
2026-01-30 08:28:27.85	126.35	3.26	-54.2	-69.2	3.8	1.49e+00	0	40	104	0	79	20936
2026-01-30 08:28:28.86	126.33	3.33	-54.2	-69.2	3.8	1.49e+00	0	40	104	0	79	20880
2026-01-30 08:28:29.87	126.30	3.39	-54.2	-69.2	3.8	1.49e+00	0	40	104	0	79	20835
2026-01-30 08:28:30.87	126.27	3.46	-54.1	-69.1	3.8	1.49e+00	0	40	104	0	79	20723
2026-01-30 08:28:31.88	126.25	3.53	-54.1	-69.1	3.8	1.49e+00	0	40	104	0	79	20593
2026-01-30 08:28:32.89	126.22	3.60	-54.1	-69.1	3.8	1.49e+00	0	40	104	0	79	20588
2026-01-30 08:28:33.91	126.19	3.66	-54.0	-69.0	3.8	1.49e+00	0	40	104	0	79	20471
2026-01-30 08:28:34.91	126.17	3.73	-54.0	-69.0	3.8	1.49e+00	0	40	104	0	79	20409
2026-01-30 08:28:35.93	126.14	3.80	-53.9	-68.9	3.8	1.49e+00	0	40	104	0	79	20297
2026-01-30 08:28:36.93	126.11	3.87	-53.9	-68.9	3.8	1.49e+00	0	40	104	0	79	20127
2026-01-30 08:28:37.94	126.09	3.94	-53.8	-68.8	3.8	1.49e+00	0	40	104	0	79	19988
2026-01-30 08:28:38.95	126.06	4.00	-53.7	-68.7	3.8	1.49e+00	0	40	104	0	79	19754
2026-01-30 08:28:39.96	126.03	4.07	-53.7	-68.6	3.8	1.49e+00	0	40	104	0	79	19603
2026-01-30 08:28:40.97	126.00	4.14	-53.6	-68.5	3.8	1.49e+00	0	40	104	0	79	19381
2026-01-30 08:28:41.98	125.97	4.21	-53.4	-68.4	3.8	1.49e+00	0	40	104	0	78	20226
2026-01-30 08:28:42.99	125.95	4.28	-53.3	-68.2	3.8	1.49e+00	0	40	104	0	78	19795
2026-01-30 08:28:44.00	125.92	4.35	-53.1	-68.0	3.8	1.49e+00	0	40	104	0	78	19346
2026-01-30 08:28:45.01	125.89	4.42	-52.9	-67.8	3.8	1.49e+00	0	40	104	0	77	19984
2026-01-30 08:28:46.01	125.86	4.49	-52.8	-67.7	3.8	1.49e+00	0	40	104	0	77	19781
2026-01-30 08:28:47.02	125.83	4.56	-52.7	-67.6	3.8	1.49e+00	0	40	104	0	77	19532
2026-01-30 08:28:48.03	125.80	4.63	-52.5	-67.5	3.8	1.49e+00	0	40	104	0	77	19215
2026-01-30 08:28:49.03	125.77	4.70	-52.4	-67.3	3.8	1.49e+00	0	40	104	0	76	20009
2026-01-30 08:28:50.04	125.75	4.77	-52.2	-67.2	3.8	1.49e+00	0	40	104	0	76	19689
2026-01-30 08:28:51.05	125.72	4.84	-52.1	-67.0	3.8	1.49e+00	0	40	104	0	76	19288
2026-01-30 08:28:52.06	125.69	4.91	-45.9	-47.6	17.6	1.30e+00	0	40	104	0	63	4352
2026-01-30 08:28:53.07	125.66	4.98	-46.1	-47.8	18.0	0.00e+00	0	40	0	1048576	63	4485
2026-01-30 08:28:54.07	125.63	5.05	-46.3	-48.1	17.7	0.00e+00	0	40	0	3145728	63	4644
2026-01-30 08:28:55.08	125.60	5.12	-47.8	-50.2	15.7	0.00e+00	0	40	0	5242880	66	4977
2026-01-30 08:28:56.09	125.57	5.19	-47.4	-49.6	16.3	0.00e+00	0	40	0	7340032	66	4633
2026-01-30 08:28:57.09	125.54	5.26	-50.8	-57.9	7.9	5.33e-03	0	40	0	9437184	72	8525
2026-01-30 08:28:58.10	125.51	5.33	-47.8	-50.2	15.7	0.00e+00	0	40	0	10485760	66	4978
2026-01-30 08:28:59.11	125.48	5.40	-49.0	-52.5	13.4	0.00e+00	0	40	0	12582912	68	5788
2026-01-30 08:29:00.12	125.45	5.48	-46.0	-47.7	18.1	0.00e+00	0	40	0	14680064	63	4430
2026-01-30 08:29:01.13	125.41	5.55	-46.0	-47.8	18.0	0.00e+00	0	40	0	16777216	63	4486
2026-01-30 08:29:02.13	125.38	5.62	-45.8	-47.5	18.4	0.00e+00	0	40	0	18874368	63	4325
2026-01-30 08:29:03.14	125.35	5.69	-45.7	-47.3	18.6	0.00e+00	0	40	0	19922944	63	4236
2026-01-30 08:29:04.15	125.32	5.77	-45.7	-47.4	18.6	0.00e+00	0	40	0	22020096	63	4251
2026-01-30 08:29:05.15	125.29	5.84	-45.7	-47.3	18.6	0.00e+00	0	40	0	24117248	63	4225
2026-01-30 08:29:06.16	125.26	5.91	-45.6	-47.2	18.7	0.00e+00	0	40	0	26214400	63	4172
2026-01-30 08:29:07.16	125.23	5.98	-45.5	-47.1	18.9	0.00e+00	0	40	0	28311552	63	4136
2026-01-30 08:29:08.17	125.19	6.06	-45.5	-47.1	18.9	0.00e+00	0	40	0	29360128	63	4132
2026-01-30 08:29:09.18	125.16	6.13	-45.5	-47.1	18.9	0.00e+00	0	40	0	31457280	63	4109
2026-01-30 08:29:10.19	125.13	6.21	-45.6	-47.2	18.8	0.00e+00	0	40	0	33554432	63	4161
2026-01-30 08:29:11.19	125.10	6.28	-45.5	-47.0	19.0	0.00e+00	0	40	0	35651584	63	4091
2026-01-30 08:29:12.19	125.06	6.35	-45.5	-47.1	19.0	0.00e+00	0	40	0	37748736	62	4343
2026-01-30 08:29:13.20	125.03	6.43	-45.5	-47.1	19.0	0.00e+00	0	41	0	38797312	62	4349
2026-01-30 08:29:14.20	125.00	6.50	-45.8	-47.4	18.7	0.00e+00	0	40	0	40894464	62	4503
2026-01-30 08:29:15.21	124.97	6.58	-45.8	-47.5	18.6	0.00e+00	0	40	0	42991616	62	4571
2026-01-30 08:29:16.21	124.93	6.65	-45.5	-47.1	19.0	0.00e+00	0	40	0	45088768	62	4350
2026-01-30 08:29:17.22	124.90	6.73	-45.7	-47.4	18.7	0.00e+00	0	40	0	46137344	62	4502
2026-01-30 08:29:18.23	124.86	6.80	-45.6	-47.1	19.0	0.00e+00	0	40	0	48234496	62	4389
2026-01-30 08:29:19.23	124.83	6.88	-45.6	-47.1	19.0	0.00e+00	0	41	0	50331648	62	4379
2026-01-30 08:29:20.23	124.80	6.95	-45.6	-47.1	19.0	0.00e+00	0	41	0	52428800	62	4379
2026-01-30 08:29:21.23	124.76	7.03	-45.5	-47.0	19.1	0.00e+00	0	41	0	54525952	62	4305
2026-01-30 08:29:22.24	124.73	7.10	-45.4	-46.9	19.2	0.00e+00	0	40	0	56623104	62	4287
2026-01-30 08:29:23.25	124.69	7.18	-45.3	-46.7	19.4	0.00e+00	0	40	0	57671680	62	4181
2026-01-30 08:29:24.25	124.66	7.26	-45.4	-46.9	19.3	0.00e+00	0	41	0	59768832	62	4277
2026-01-30 08:29:25.26	124.62	7.33	-45.2	-46.6	19.5	0.00e+00	0	41	0	61865984	62	4142
2026-01-30 08:29:26.27	124.59	7.41	-45.3	-46.8	19.4	0.00e+00	0	41	0	63963136	62	4204
2026-01-30 08:29:27.28	124.55	7.49	-45.4	-46.9	19.3	0.00e+00	0	41	0	66060288	62	4259
2026-01-30 08:29:28.28	124.51	7.57	-45.2	-46.7	19.5	0.00e+00	0	41	0	67108864	62	4167
2026-01-30 08:29:29.29	124.48	7.64	-45.3	-46.8	19.4	0.00e+00	0	41	0	69206016	62	4213
2026-01-30 08:29:30.30	124.44	7.72	-45.3	-46.8	19.4	0.00e+00	0	41	0	71303168	62	4229
2026-01-30 08:29:31.31	124.41	7.80	-45.4	-46.8	19.4	0.00e+00	0	41	0	73400320	62	4235
2026-01-30 08:29:32.31	124.37	7.88	-45.4	-46.9	19.3	0.00e+00	0	41	0	74448896	62	4262
2026-01-30 08:29:33.32	124.33	7.96	-45.4	-46.9	19.4	0.00e+00	0	41	0	76546048	62	4269
2026-01-30 08:29:34.32	124.29	8.04	-45.2	-46.7	19.6	0.00e+00	0	41	0	78643200	62	4148
2026-01-30 08:29:35.33	124.26	8.12	-45.3	-46.7	19.5	0.00e+00	0	41	0	80740352	62	4183
2026-01-30 08:29:36.32	124.22	8.19	-45.2	-46.7	19.6	0.00e+00	0	41	0	82837504	62	4164
2026-01-30 08:29:37.33	124.18	8.27	-45.2	-46.7	19.6	0.00e+00	0	41	0	84934656	62	4160
2026-01-30 08:29:38.34	124.14	8.35	-45.1	-46.6	19.7	0.00e+00	0	41	0	85983232	62	4105
2026-01-30 08:29:39.35	124.11	8.44	-45.1	-46.5	19.7	0.00e+00	0	41	0	88080384	62	4097
2026-01-30 08:29:40.35	124.07	8.51	-45.2	-46.6	19.7	0.00e+00	0	41	0	90177536	62	4121
2026-01-30 08:29:41.36	124.03	8.60	-45.1	-46.5	19.7	0.00e+00	0	41	0	92274688	62	4092
2026-01-30 08:29:42.37	123.99	8.68	-45.1	-46.5	19.8	0.00e+00	0	41	0	94371840	62	4073
2026-01-30 08:29:43.37	123.95	8.76	-45.2	-46.6	19.7	0.00e+00	0	41	0	95420416	62	4115
2026-01-30 08:29:44.38	123.91	8.84	-45.0	-46.3	20.0	0.00e+00	0	41	0	97517568	61	4233
2026-01-30 08:29:45.38	123.87	8.92	-45.0	-46.4	19.9	0.00e+00	0	41	0	99614720	61	4269
2026-01-30 08:29:46.39	123.83	9.00	-45.1	-46.5	19.8	0.00e+00	0	41	0	101711872	61	4318
2026-01-30 08:29:47.40	123.79	9.08	-44.9	-46.3	20.0	0.00e+00	0	41	0	102760448	61	4199
2026-01-30 08:29:48.41	123.75	9.17	-45.0	-46.4	19.9	0.00e+00	0	41	0	104857600	61	4256
2026-01-30 08:29:49.41	123.71	9.25	-44.9	-46.3	20.0	0.00e+00	0	41	0	106954752	61	4204
2026-01-30 08:29:50.42	123.67	9.33	-45.0	-46.4	20.0	0.00e+00	0	41	0	109051904	61	4249
2026-01-30 08:29:51.43	123.63	9.42	-45.0	-46.4	19.9	0.00e+00	0	41	0	111149056	61	4285
2026-01-30 08:29:52.43	123.59	9.50	-44.9	-46.3	20.0	0.00e+00	0	41	0	113246208	61	4206
2026-01-30 08:29:53.44	123.55	9.58	-44.9	-46.3	20.1	0.00e+00	0	41	0	114294784	61	4203
2026-01-30 08:29:54.44	123.50	9.67	-45.0	-46.4	20.0	0.00e+00	0	41	0	116391936	61	4245
2026-01-30 08:29:55.45	123.46	9.75	-45.1	-46.5	19.9	0.00e+00	0	41	0	118489088	61	4296
2026-01-30 08:29:56.46	123.42	9.84	-45.0	-46.4	19.9	0.00e+00	0	41	0	120586240	61	4276
2026-01-30 08:29:57.47	123.38	9.92	-44.9	-46.3	20.1	0.00e+00	0	41	0	122683392	61	4210
2026-01-30 08:29:58.48	123.33	10.01	-44.9	-46.3	20.1	0.00e+00	0	41	0	123731968	61	4215
2026-01-30 08:29:59.49	123.29	10.09	-44.8	-46.2	20.2	0.00e+00	0	41	0	125829120	61	4151
2026-01-30 08:30:00.50	123.25	10.18	-44.7	-46.0	20.4	0.00e+00	0	41	0	127926272	61	4096
2026-01-30 08:30:01.51	123.20	10.26	-44.9	-46.3	20.1	0.00e+00	0	41	0	130023424	61	4197
2026-01-30 08:30:02.51	123.16	10.35	-44.9	-46.2	20.1	0.00e+00	0	41	0	131072000	61	4193
2026-01-30 08:30:03.51	123.11	10.43	-44.9	-46.3	20.2	0.00e+00	0	41	0	133169152	61	4195
2026-01-30 08:30:04.52	123.07	10.52	-44.8	-46.1	20.3	0.00e+00	0	41	0	135266304	61	4145
2026-01-30 08:30:05.52	123.02	10.61	-44.8	-46.1	20.3	0.00e+00	0	41	0	137363456	61	4140
2026-01-30 08:30:06.53	122.98	10.70	-44.8	-46.1	20.3	0.00e+00	0	41	0	139460608	61	4134
2026-01-30 08:30:07.54	122.93	10.78	-44.8	-46.1	20.3	0.00e+00	0	41	0	141557760	61	4122
2026-01-30 08:30:08.54	122.89	10.87	-44.8	-46.1	20.4	0.00e+00	0	41	0	142606336	61	4129
2026-01-30 08:30:09.55	122.84	10.96	-44.8	-46.2	20.3	0.00e+00	0	41	0	144703488	61	4147
2026-01-30 08:30:10.56	122.79	11.05	-44.8	-46.1	20.4	0.00e+00	0	41	0	146800640	61	4131
2026-01-30 08:30:11.57	122.75	11.14	-44.9	-46.2	20.3	0.00e+00	0	41	0	148897792	61	4148
2026-01-30 08:30:12.58	122.70	11.23	-44.8	-46.1	20.4	0.00e+00	0	41	0	150994944	61	4110
2026-01-30 08:30:13.58	122.65	11.32	-44.7	-46.0	20.5	0.00e+00	0	41	0	152043520	61	4063
2026-01-30 08:30:14.59	122.61	11.41	-44.7	-46.0	20.5	0.00e+00	0	41	0	154140672	61	4094
2026-01-30 08:30:15.60	122.56	11.50	-44.7	-45.9	20.5	0.00e+00	0	41	0	156237824	61	4048
2026-01-30 08:30:16.60	122.51	11.59	-44.6	-45.9	20.6	0.00e+00	0	41	0	158334976	61	4038
2026-01-30 08:30:17.61	122.46	11.68	-44.6	-45.9	20.6	0.00e+00	0	41	0	159383552	61	4017
2026-01-30 08:30:18.62	122.41	11.77	-44.7	-45.9	20.6	0.00e+00	0	41	0	161480704	61	4040
2026-01-30 08:30:19.62	122.36	11.86	-44.8	-46.1	20.5	0.00e+00	0	41	0	163577856	61	4101
2026-01-30 08:30:20.63	122.31	11.95	-44.6	-45.8	20.7	0.00e+00	0	41	0	165675008	61	4003
2026-01-30 08:30:21.64	122.26	12.04	-44.7	-45.9	20.6	0.00e+00	0	41	0	167772160	61	4040
2026-01-30 08:30:22.65	122.21	12.13	-44.7	-45.9	20.6	0.00e+00	0	41	0	169869312	61	4044
2026-01-30 08:30:23.65	122.16	12.23	-44.6	-45.9	20.6	0.00e+00	0	41	0	170917888	61	4031
2026-01-30 08:30:24.66	122.11	12.32	-44.7	-45.9	20.6	0.00e+00	0	41	0	173015040	61	4039
2026-01-30 08:30:25.66	122.06	12.41	-44.7	-45.9	20.7	0.00e+00	0	41	0	175112192	61	4041
2026-01-30 08:30:26.67	122.01	12.51	-44.7	-46.0	20.6	0.00e+00	0	41	0	177209344	61	4070
2026-01-30 08:30:27.68	121.96	12.60	-44.6	-45.9	20.7	0.00e+00	0	41	0	179306496	61	4033
2026-01-30 08:30:28.69	121.91	12.69	-44.6	-45.9	20.7	0.00e+00	0	41	0	180355072	61	4026
2026-01-30 08:30:29.69	121.85	12.79	-44.8	-46.1	20.6	0.00e+00	0	41	0	182452224	61	4100
2026-01-30 08:30:30.70	121.80	12.88	-44.6	-45.8	20.8	0.00e+00	0	41	0	184549376	61	3996
2026-01-30 08:30:31.71	121.75	12.98	-44.6	-45.9	20.8	0.00e+00	0	41	0	186646528	61	4011
2026-01-30 08:30:32.71	121.69	13.07	-44.6	-45.8	20.8	0.00e+00	0	41	0	187695104	61	3995
2026-01-30 08:30:33.72	121.64	13.17	-44.6	-45.9	20.8	0.00e+00	0	41	0	189792256	61	4017
2026-01-30 08:30:34.73	121.58	13.27	-44.5	-45.7	20.9	0.00e+00	0	41	0	191889408	61	3954
2026-01-30 08:30:35.73	121.53	13.36	-44.5	-45.8	20.9	0.00e+00	0	41	0	193986560	61	3964
2026-01-30 08:30:36.74	121.47	13.46	-44.5	-45.7	20.9	0.00e+00	0	41	0	196083712	60	4153
2026-01-30 08:30:37.75	121.42	13.56	-44.6	-45.8	20.9	0.00e+00	0	41	0	198180864	60	4210
2026-01-30 08:30:38.75	121.36	13.66	-44.5	-45.8	20.9	0.00e+00	0	41	0	199229440	60	4206
2026-01-30 08:30:39.76	121.31	13.75	-44.4	-45.6	21.1	0.00e+00	0	41	0	201326592	60	4114
2026-01-30 08:30:40.77	121.25	13.85	-44.4	-45.6	21.0	0.00e+00	0	41	0	203423744	60	4145
2026-01-30 08:30:41.77	121.19	13.95	-44.5	-45.8	20.9	0.00e+00	0	41	0	205520896	60	4198
2026-01-30 08:30:42.78	121.13	14.05	-44.6	-45.8	20.9	0.00e+00	0	41	0	207618048	60	4206
2026-01-30 08:30:43.79	121.08	14.15	-44.4	-45.6	21.0	0.00e+00	0	41	0	208666624	60	4143
2026-01-30 08:30:44.79	121.02	14.25	-44.3	-45.5	21.2	0.00e+00	0	41	0	210763776	60	4075
2026-01-30 08:30:45.80	120.96	14.35	-44.4	-45.6	21.1	0.00e+00	0	41	0	212860928	60	4121
2026-01-30 08:30:46.81	120.90	14.45	-44.3	-45.4	21.3	0.00e+00	0	41	0	214958080	60	4043
2026-01-30 08:30:47.82	120.84	14.55	-44.2	-45.4	21.3	0.00e+00	0	41	0	216006656	60	4014
2026-01-30 08:30:48.82	120.78	14.65	-44.2	-45.4	21.3	0.00e+00	0	41	0	218103808	60	4022
2026-01-30 08:30:49.83	120.72	14.76	-44.2	-45.4	21.3	0.00e+00	0	41	0	220200960	60	4037
2026-01-30 08:30:50.84	120.66	14.86	-44.2	-45.4	21.3	0.00e+00	0	41	0	222298112	60	4011
2026-01-30 08:30:51.84	120.60	14.96	-44.3	-45.5	21.2	0.00e+00	0	41	0	224395264	60	4083
2026-01-30 08:30:52.85	120.54	15.06	-44.3	-45.4	21.3	0.00e+00	0	41	0	226492416	60	4041
2026-01-30 08:30:53.86	120.47	15.17	-44.3	-45.5	21.2	0.00e+00	0	41	0	227540992	60	4053
2026-01-30 08:30:54.86	120.41	15.27	-44.3	-45.5	21.2	0.00e+00	0	41	0	229638144	60	4081
2026-01-30 08:30:55.87	120.35	15.37	-44.2	-45.4	21.4	0.00e+00	0	41	0	231735296	60	4011
2026-01-30 08:30:56.88	120.28	15.48	-44.2	-45.3	21.3	0.00e+00	0	41	0	233832448	60	4001
2026-01-30 08:30:57.88	120.22	15.58	-44.2	-45.4	21.3	0.00e+00	0	41	0	235929600	60	4011
2026-01-30 08:30:58.89	120.16	15.69	-44.2	-45.4	21.3	0.00e+00	0	41	0	236978176	60	4010
2026-01-30 08:30:59.90	120.09	15.80	-44.2	-45.4	21.4	0.00e+00	0	41	0	239075328	60	4019
2026-01-30 08:31:00.90	120.02	15.90	-44.2	-45.4	21.4	0.00e+00	0	41	0	241172480	60	4007
2026-01-30 08:31:01.91	119.96	16.01	-44.3	-45.4	21.3	0.00e+00	0	41	0	243269632	60	4036
2026-01-30 08:31:02.92	119.89	16.12	-44.3	-45.5	21.3	0.00e+00	0	41	0	244318208	60	4064
2026-01-30 08:31:03.93	119.82	16.22	-44.1	-45.3	21.4	0.00e+00	0	41	0	246415360	60	3983
2026-01-30 08:31:04.93	119.76	16.33	-44.1	-45.3	21.5	0.00e+00	0	41	0	248512512	60	3982
2026-01-30 08:31:05.94	119.69	16.44	-44.2	-45.4	21.4	0.00e+00	0	41	0	250609664	60	4021
2026-01-30 08:31:06.94	119.62	16.55	-44.2	-45.4	21.4	0.00e+00	0	41	0	252706816	60	4021
2026-01-30 08:31:07.95	119.55	16.66	-44.4	-45.5	21.2	0.00e+00	0	41	0	254803968	60	4093
2026-01-30 08:31:08.96	119.48	16.77	-44.3	-45.4	21.4	0.00e+00	0	41	0	255852544	60	4049
2026-01-30 08:31:09.96	119.41	16.88	-44.3	-45.5	21.4	0.00e+00	0	41	0	257949696	60	4067
2026-01-30 08:31:10.97	119.34	16.99	-44.4	-45.6	21.2	0.00e+00	0	41	0	260046848	60	4123
2026-01-30 08:31:11.97	119.27	17.10	-44.3	-45.4	21.4	0.00e+00	0	41	0	262144000	60	4038
2026-01-30 08:31:12.98	119.20	17.21	-44.3	-45.5	21.4	0.00e+00	0	41	0	264241152	60	4054
2026-01-30 08:31:13.99	119.13	17.32	-44.2	-45.4	21.4	0.00e+00	0	41	0	265289728	60	4016
2026-01-30 08:31:15.00	119.05	17.44	-44.3	-45.4	21.3	0.00e+00	0	41	0	267386880	60	4046
2026-01-30 08:31:16.00	118.98	17.55	-44.3	-45.4	21.3	0.00e+00	0	41	0	269484032	60	4050
2026-01-30 08:31:17.02	118.90	17.66	-44.2	-45.3	21.5	0.00e+00	0	41	0	271581184	60	3999
2026-01-30 08:31:18.02	118.83	17.78	-44.0	-45.2	21.6	0.00e+00	0	41	0	272629760	60	3923
2026-01-30 08:31:19.02	118.76	17.89	-44.2	-45.4	21.4	0.00e+00	0	41	0	274726912	60	4009
2026-01-30 08:31:20.03	118.68	18.01	-44.0	-45.1	21.7	0.00e+00	0	41	0	276824064	60	3906
2026-01-30 08:31:21.04	118.60	18.12	-44.1	-45.2	21.6	0.00e+00	0	41	0	278921216	60	3941
2026-01-30 08:31:22.05	118.53	18.24	-44.0	-45.1	21.7	0.00e+00	0	41	0	281018368	60	3907
2026-01-30 08:31:23.06	118.45	18.36	-44.1	-45.2	21.6	0.00e+00	0	41	0	283115520	60	3938
2026-01-30 08:31:24.07	118.37	18.47	-44.1	-45.2	21.6	0.00e+00	0	41	0	284164096	60	3934
2026-01-30 08:31:25.08	118.29	18.59	-44.0	-45.1	21.7	0.00e+00	0	41	0	286261248	60	3910
2026-01-30 08:31:26.09	118.21	18.71	-44.1	-45.2	21.7	0.00e+00	0	41	0	288358400	60	3935
2026-01-30 08:31:27.10	118.13	18.83	-44.2	-45.3	21.6	0.00e+00	0	41	0	290455552	60	3979
2026-01-30 08:31:28.10	118.05	18.95	-44.0	-45.2	21.7	0.00e+00	0	41	0	292552704	60	3920
2026-01-30 08:31:29.10	117.97	19.06	-44.3	-45.4	21.5	0.00e+00	0	41	0	293601280	60	4024
2026-01-30 08:31:30.11	117.89	19.18	-44.3	-45.4	21.5	0.00e+00	0	41	0	295698432	60	4029
2026-01-30 08:31:31.12	117.80	19.31	-44.3	-45.5	21.4	0.00e+00	0	41	0	297795584	60	4067
2026-01-30 08:31:32.13	117.72	19.43	-44.2	-45.4	21.5	0.00e+00	0	41	0	299892736	60	4014
2026-01-30 08:31:33.13	117.64	19.55	-44.2	-45.4	21.5	0.00e+00	0	41	0	301989888	60	4015
2026-01-30 08:31:34.14	117.55	19.67	-44.3	-45.5	21.4	0.00e+00	0	41	0	303038464	60	4080
2026-01-30 08:31:35.15	117.46	19.79	-44.4	-45.6	21.3	0.00e+00	0	41	0	305135616	60	4106
2026-01-30 08:31:36.16	117.38	19.92	-44.4	-45.6	21.3	0.00e+00	0	41	0	307232768	60	4114
2026-01-30 08:31:37.17	117.29	20.04	-44.4	-45.6	21.3	0.00e+00	0	41	0	309329920	60	4132
2026-01-30 08:31:38.17	117.20	20.16	-44.4	-45.6	21.3	0.00e+00	0	41	0	311427072	60	4139
2026-01-30 08:31:39.18	117.11	20.29	-44.5	-45.7	21.2	0.00e+00	0	41	0	312475648	60	4161
2026-01-30 08:31:40.19	117.02	20.41	-44.5	-45.7	21.3	0.00e+00	0	41	0	314572800	60	4151
2026-01-30 08:31:41.19	116.94	20.54	-44.5	-45.7	21.2	0.00e+00	0	41	0	316669952	60	4163
2026-01-30 08:31:42.20	116.84	20.67	-44.5	-45.7	21.2	0.00e+00	0	41	0	318767104	60	4175
2026-01-30 08:31:43.20	116.75	20.79	-44.5	-45.7	21.2	0.00e+00	0	41	0	320864256	60	4184
2026-01-30 08:31:44.21	116.66	20.92	-44.7	-45.9	21.0	0.00e+00	0	41	0	321912832	60	4280
2026-01-30 08:31:45.22	116.57	21.05	-44.8	-46.1	20.9	0.00e+00	0	41	0	324009984	60	4347
2026-01-30 08:31:46.22	116.47	21.18	-44.8	-46.1	20.8	0.00e+00	0	41	0	326107136	60	4359
2026-01-30 08:31:47.23	116.38	21.31	-44.9	-46.2	20.8	0.00e+00	0	41	0	328204288	60	4397
2026-01-30 08:31:48.23	116.28	21.44	-45.0	-46.2	20.7	0.00e+00	0	41	0	330301440	60	4429
2026-01-30 08:31:49.25	116.19	21.57	-44.9	-46.1	20.8	0.00e+00	0	41	0	331350016	60	4388
2026-01-30 08:31:50.25	116.09	21.70	-44.9	-46.2	20.8	0.00e+00	0	41	0	333447168	60	4397
2026-01-30 08:31:51.26	115.99	21.83	-45.0	-46.2	20.7	0.00e+00	0	41	0	335544320	60	4425
2026-01-30 08:31:52.26	115.89	21.96	-44.9	-46.2	20.8	0.00e+00	0	41	0	337641472	60	4405
2026-01-30 08:31:53.27	115.79	22.09	-45.0	-46.3	20.7	0.00e+00	0	41	0	339738624	60	4449
2026-01-30 08:31:54.28	115.69	22.23	-45.0	-46.3	20.7	0.00e+00	0	41	0	340787200	60	4448
2026-01-30 08:31:55.29	115.59	22.36	-45.1	-46.4	20.6	0.00e+00	0	41	0	342884352	60	4496
2026-01-30 08:31:56.29	115.49	22.50	-45.0	-46.3	20.7	0.00e+00	0	41	0	344981504	60	4470
2026-01-30 08:31:57.30	115.38	22.63	-45.1	-46.4	20.6	0.00e+00	0	41	0	347078656	60	4497
2026-01-30 08:31:58.30	115.28	22.77	-45.1	-46.4	20.4	0.00e+00	0	41	0	349175808	60	4532
2026-01-30 08:31:59.31	115.17	22.90	-45.2	-46.5	20.4	0.00e+00	0	41	0	350224384	61	4335
2026-01-30 08:32:00.31	115.07	23.04	-45.2	-46.5	20.5	0.00e+00	0	41	0	352321536	61	4308
2026-01-30 08:32:01.32	114.96	23.18	-45.1	-46.3	20.6	0.00e+00	0	41	0	354418688	61	4232
2026-01-30 08:32:02.33	114.85	23.32	-45.2	-46.4	20.6	0.00e+00	0	41	0	356515840	61	4289
2026-01-30 08:32:03.33	114.74	23.45	-45.2	-46.5	20.5	0.00e+00	0	41	0	358612992	61	4326
2026-01-30 08:32:04.34	114.63	23.59	-45.3	-46.6	20.4	0.00e+00	0	41	0	359661568	61	4362
2026-01-30 08:32:05.35	114.52	23.73	-45.6	-47.0	20.1	0.00e+00	0	41	0	361758720	61	4564
2026-01-30 08:32:06.36	114.41	23.87	-45.5	-46.9	20.2	0.00e+00	0	41	0	363855872	61	4505
2026-01-30 08:32:07.36	114.30	24.02	-45.6	-47.0	20.1	0.00e+00	0	41	0	365953024	61	4549
2026-01-30 08:32:08.37	114.18	24.16	-45.6	-47.0	20.1	0.00e+00	0	41	0	368050176	61	4555
2026-01-30 08:32:09.37	114.07	24.30	-45.7	-47.0	20.0	0.00e+00	0	41	0	369098752	61	4587
2026-01-30 08:32:10.38	113.95	24.44	-45.7	-47.1	20.0	0.00e+00	0	41	0	371195904	62	4354
2026-01-30 08:32:11.39	113.83	24.59	-45.8	-47.1	19.9	0.00e+00	0	41	0	373293056	62	4387
2026-01-30 08:32:12.39	113.72	24.73	-45.8	-47.2	19.9	0.00e+00	0	41	0	375390208	62	4424
2026-01-30 08:32:13.40	113.60	24.88	-45.8	-47.2	19.9	0.00e+00	0	41	0	377487360	62	4400
2026-01-30 08:32:14.41	113.47	25.02	-45.8	-47.2	19.9	0.00e+00	0	41	0	378535936	62	4414
2026-01-30 08:32:15.42	113.35	25.17	-45.8	-47.2	19.8	0.00e+00	0	41	0	380633088	62	4424
2026-01-30 08:32:16.43	113.23	25.32	-45.8	-47.3	19.8	0.00e+00	0	41	0	382730240	62	4445
2026-01-30 08:32:17.44	113.10	25.47	-45.9	-47.2	19.9	0.00e+00	0	41	0	384827392	62	4441
2026-01-30 08:32:18.44	112.98	25.61	-45.9	-47.4	19.8	0.00e+00	0	41	0	386924544	62	4496
2026-01-30 08:32:19.45	112.85	25.76	-46.1	-47.5	19.7	0.00e+00	0	41	0	387973120	62	4569
2026-01-30 08:32:20.45	112.72	25.91	-46.2	-47.6	19.5	0.00e+00	0	41	0	390070272	62	4640
2026-01-30 08:32:21.46	112.59	26.06	-46.2	-47.7	19.4	0.00e+00	0	41	0	392167424	63	4410
2026-01-30 08:32:22.47	112.46	26.22	-46.3	-47.8	19.3	0.00e+00	0	41	0	394264576	63	4476
2026-01-30 08:32:23.48	112.33	26.37	-46.2	-47.7	19.4	0.00e+00	0	41	0	396361728	63	4430
2026-01-30 08:32:24.48	112.20	26.52	-46.2	-47.7	19.4	0.00e+00	0	41	0	397410304	63	4428
2026-01-30 08:32:25.49	112.06	26.67	-46.2	-47.7	19.4	0.00e+00	0	41	0	399507456	63	4400
2026-01-30 08:32:26.50	111.93	26.83	-46.1	-47.5	19.7	0.00e+00	0	41	0	401604608	63	4310
2026-01-30 08:32:27.51	111.79	26.98	-46.1	-47.5	19.6	0.00e+00	0	41	0	403701760	63	4327
2026-01-30 08:32:28.51	111.65	27.14	-46.0	-47.5	19.7	0.00e+00	0	41	0	405798912	63	4296
2026-01-30 08:32:29.52	111.51	27.29	-46.1	-47.6	19.6	0.00e+00	0	41	0	406847488	63	4345
2026-01-30 08:32:30.53	111.37	27.45	-46.3	-47.7	19.5	0.00e+00	0	41	0	408944640	63	4427
2026-01-30 08:32:31.53	111.23	27.61	-46.2	-47.7	19.5	0.00e+00	0	41	0	411041792	63	4412
2026-01-30 08:32:32.53	111.09	27.77	-46.0	-47.5	19.7	0.00e+00	0	41	0	413138944	63	4292
2026-01-30 08:32:33.54	110.94	27.92	-46.2	-47.6	19.6	0.00e+00	0	41	0	415236096	63	4367
2026-01-30 08:32:34.55	110.79	28.08	-46.1	-47.6	19.6	0.00e+00	0	41	0	416284672	63	4363
2026-01-30 08:32:35.55	110.64	28.24	-46.1	-47.5	19.6	0.00e+00	0	41	0	418381824	63	4338
2026-01-30 08:32:36.56	110.49	28.41	-46.2	-47.7	19.5	0.00e+00	0	41	0	420478976	63	4393
2026-01-30 08:32:37.57	110.34	28.57	-46.1	-47.5	19.6	0.00e+00	0	41	0	422576128	63	4337
2026-01-30 08:32:38.57	110.19	28.73	-46.0	-47.4	19.8	0.00e+00	0	41	0	424673280	63	4276
2026-01-30 08:32:39.58	110.03	28.89	-45.9	-47.4	19.8	0.00e+00	0	41	0	425721856	63	4247
2026-01-30 08:32:40.59	109.88	29.06	-45.9	-47.3	19.8	0.00e+00	0	41	0	427819008	63	4233
2026-01-30 08:32:41.60	109.72	29.22	-46.0	-47.4	19.8	0.00e+00	0	41	0	429916160	63	4256
2026-01-30 08:32:42.61	109.56	29.39	-46.0	-47.4	19.8	0.00e+00	0	41	0	432013312	63	4268
2026-01-30 08:32:43.61	109.40	29.55	-46.0	-47.4	19.8	0.00e+00	0	41	0	434110464	63	4278
2026-01-30 08:32:44.62	109.23	29.72	-46.0	-47.3	19.8	0.00e+00	0	41	0	435159040	63	4242
2026-01-30 08:32:45.63	109.07	29.89	-46.0	-47.4	19.7	0.00e+00	0	41	0	437256192	63	4291
2026-01-30 08:32:46.63	108.90	30.06	-46.0	-47.4	19.7	0.00e+00	0	41	0	439353344	63	4280
2026-01-30 08:32:47.64	108.73	30.22	-46.1	-47.5	19.7	0.00e+00	0	41	0	441450496	63	4305
2026-01-30 08:32:48.65	108.56	30.40	-46.2	-47.6	19.6	0.00e+00	0	41	0	443547648	63	4365
2026-01-30 08:32:49.66	108.39	30.57	-46.2	-47.6	19.6	0.00e+00	0	41	0	444596224	63	4371
2026-01-30 08:32:50.66	108.22	30.74	-46.2	-47.6	19.5	0.00e+00	0	41	0	446693376	63	4388
2026-01-30 08:32:51.67	108.04	30.91	-46.4	-47.9	19.3	0.00e+00	0	41	0	448790528	63	4528
2026-01-30 08:32:52.67	107.86	31.08	-46.4	-47.9	19.3	0.00e+00	0	41	0	450887680	63	4502
2026-01-30 08:32:53.69	107.68	31.25	-46.3	-47.8	19.4	0.00e+00	0	41	0	452984832	63	4471
2026-01-30 08:32:54.69	107.50	31.43	-46.4	-47.8	19.3	0.00e+00	0	41	0	454033408	63	4490
2026-01-30 08:32:55.70	107.32	31.60	-46.4	-47.9	19.3	0.00e+00	0	41	0	456130560	63	4522
2026-01-30 08:32:56.71	107.13	31.78	-46.4	-47.9	19.4	0.00e+00	0	41	0	458227712	63	4520
2026-01-30 08:32:57.71	106.95	31.95	-46.5	-48.0	19.3	0.00e+00	0	41	0	460324864	63	4560
2026-01-30 08:32:58.72	106.76	32.13	-46.7	-48.2	19.0	0.00e+00	0	41	0	462422016	63	4702
2026-01-30 08:32:59.73	106.56	32.31	-46.8	-48.4	18.8	0.00e+00	0	41	0	464519168	64	4521
2026-01-30 08:33:00.74	106.37	32.49	-46.8	-48.4	18.7	0.00e+00	0	41	0	465567744	64	4528
2026-01-30 08:33:01.74	106.17	32.66	-46.8	-48.4	18.7	0.00e+00	0	41	0	467664896	64	4524
2026-01-30 08:33:02.75	105.97	32.84	-46.6	-48.2	18.9	0.00e+00	0	41	0	469762048	64	4410
2026-01-30 08:33:03.75	105.78	33.02	-46.7	-48.2	18.9	0.00e+00	0	41	0	471859200	64	4436
2026-01-30 08:33:04.76	105.57	33.20	-46.8	-48.4	18.7	0.00e+00	0	41	0	472907776	64	4525
2026-01-30 08:33:05.76	105.37	33.38	-47.0	-48.7	18.4	0.00e+00	0	41	0	475004928	64	4680
2026-01-30 08:33:06.76	105.16	33.56	-47.3	-49.1	18.1	0.00e+00	0	41	0	477102080	65	4612
2026-01-30 08:33:07.77	104.95	33.75	-47.3	-49.1	18.1	0.00e+00	0	41	0	479199232	65	4631
2026-01-30 08:33:08.78	104.74	33.93	-47.1	-48.8	18.4	0.00e+00	0	41	0	481296384	65	4443
2026-01-30 08:33:09.79	104.52	34.12	-47.0	-48.7	18.6	0.00e+00	0	41	0	482344960	65	4400
2026-01-30 08:33:10.80	104.31	34.30	-47.0	-48.7	18.5	0.00e+00	0	41	0	484442112	65	4412
2026-01-30 08:33:11.80	104.09	34.48	-47.0	-48.6	18.6	0.00e+00	0	41	0	486539264	65	4372
2026-01-30 08:33:12.81	103.86	34.67	-46.8	-48.4	18.8	0.00e+00	0	41	0	488636416	65	4282
2026-01-30 08:33:13.81	103.64	34.86	-47.0	-48.7	18.5	0.00e+00	0	41	0	490733568	65	4403
2026-01-30 08:33:14.82	103.41	35.04	-46.7	-48.3	18.9	0.00e+00	0	41	0	491782144	65	4224
2026-01-30 08:33:15.83	103.18	35.23	-46.5	-48.0	19.1	0.00e+00	0	41	0	493879296	65	4064
2026-01-30 08:33:16.82	102.95	35.42	-46.5	-48.1	19.1	0.00e+00	0	41	0	495976448	64	4360
2026-01-30 08:33:17.83	102.72	35.61	-46.4	-47.9	19.2	0.00e+00	0	41	0	498073600	64	4274
2026-01-30 08:33:18.84	102.48	35.80	-46.4	-47.9	19.3	0.00e+00	0	41	0	500170752	64	4258
2026-01-30 08:33:19.85	102.24	35.99	-46.2	-47.6	19.5	0.00e+00	0	41	0	501219328	64	4143
2026-01-30 08:33:20.85	101.99	36.17	-46.3	-47.7	19.4	0.00e+00	0	41	0	503316480	64	4185
2026-01-30 08:33:21.86	101.75	36.37	-46.3	-47.7	19.4	0.00e+00	0	41	0	505413632	64	4189
2026-01-30 08:33:22.87	101.50	36.56	-46.2	-47.7	19.4	0.00e+00	0	41	0	507510784	64	4174
2026-01-30 08:33:23.87	101.25	36.75	-46.2	-47.7	19.5	0.00e+00	0	41	0	509607936	64	4170
2026-01-30 08:33:24.88	100.99	36.94	-46.2	-47.7	19.5	0.00e+00	0	41	0	510656512	64	4163
2026-01-30 08:33:25.89	100.73	37.13	-46.2	-47.7	19.5	0.00e+00	0	41	0	512753664	64	4148
2026-01-30 08:33:26.89	100.47	37.33	-46.1	-47.6	19.6	0.00e+00	0	41	0	514850816	64	4110
2026-01-30 08:33:27.90	100.20	37.52	-46.1	-47.6	19.6	0.00e+00	0	41	0	516947968	64	4113
2026-01-30 08:33:28.90	99.94	37.71	-46.1	-47.6	19.6	0.00e+00	0	41	0	519045120	64	4116
2026-01-30 08:33:29.91	99.67	37.91	-46.1	-47.5	19.7	0.00e+00	0	41	0	520093696	64	4098
2026-01-30 08:33:30.91	99.39	38.10	-46.2	-47.6	19.6	0.00e+00	0	41	0	522190848	64	4110
2026-01-30 08:33:31.92	99.11	38.30	-46.2	-47.6	19.5	0.00e+00	0	41	0	524288000	64	4139
2026-01-30 08:33:32.92	98.83	38.49	-46.6	-48.1	19.1	0.00e+00	0	41	0	526385152	64	4355
2026-01-30 08:33:33.93	98.55	38.69	-46.7	-48.3	18.8	0.00e+00	0	41	0	528482304	64	4478
2026-01-30 08:33:34.94	98.26	38.88	-46.8	-48.4	18.8	0.00e+00	0	41	0	529530880	64	4543
2026-01-30 08:33:35.95	97.97	39.08	-46.9	-48.5	18.7	0.00e+00	0	41	0	531628032	64	4572
2026-01-30 08:33:36.95	97.67	39.28	-46.8	-48.4	18.8	0.00e+00	0	41	0	533725184	64	4542
2026-01-30 08:33:37.96	97.37	39.47	-46.6	-48.1	19.1	0.00e+00	0	41	0	535822336	64	4389
2026-01-30 08:33:38.97	97.07	39.67	-46.8	-48.4	18.9	0.00e+00	0	41	0	537919488	64	4494
2026-01-30 08:33:39.97	96.76	39.87	-46.9	-48.5	18.8	0.00e+00	0	41	0	538968064	64	4560
2026-01-30 08:33:40.98	96.45	40.06	-46.9	-48.5	18.8	0.00e+00	0	41	0	541065216	64	4572
2026-01-30 08:33:41.99	96.14	40.26	-46.9	-48.6	18.7	0.00e+00	0	41	0	543162368	64	4603
2026-01-30 08:33:43.00	95.82	40.46	-46.7	-48.3	19.0	0.00e+00	0	41	0	545259520	64	4447
2026-01-30 08:33:44.01	95.50	40.66	-46.7	-48.3	19.0	0.00e+00	0	41	0	547356672	64	4457
2026-01-30 08:33:45.02	95.17	40.86	-46.6	-48.1	19.1	0.00e+00	0	41	0	548405248	64	4389
2026-01-30 08:33:46.03	94.84	41.06	-46.5	-48.0	19.2	0.00e+00	0	41	0	550502400	64	4338
2026-01-30 08:33:47.03	94.51	41.25	-46.3	-47.7	19.5	0.00e+00	0	41	0	552599552	64	4174
2026-01-30 08:33:48.04	94.17	41.45	-46.6	-48.1	19.2	0.00e+00	0	41	0	554696704	64	4354
2026-01-30 08:33:49.04	93.83	41.65	-46.6	-48.2	19.1	0.00e+00	0	41	0	556793856	64	4401
2026-01-30 08:33:50.05	93.48	41.84	-47.1	-48.7	18.6	0.00e+00	0	41	0	557842432	64	4697
2026-01-30 08:33:51.05	93.13	42.04	-47.6	-49.4	17.9	0.00e+00	0	41	0	559939584	65	4803
2026-01-30 08:33:52.06	92.78	42.24	-47.8	-49.7	17.6	0.00e+00	0	41	0	562036736	66	4692
2026-01-30 08:33:53.07	92.41	42.44	-47.9	-49.8	17.5	0.00e+00	0	41	0	564133888	66	4752
2026-01-30 08:33:54.07	92.05	42.63	-47.8	-49.7	17.6	0.00e+00	0	41	0	566231040	66	4695
2026-01-30 08:33:55.08	91.68	42.83	-47.8	-49.7	17.6	0.00e+00	0	41	0	567279616	66	4675
2026-01-30 08:33:56.09	91.31	43.02	-47.4	-49.1	18.2	0.00e+00	0	41	0	569376768	66	4372
2026-01-30 08:33:57.09	90.93	43.22	-47.1	-48.8	18.5	0.00e+00	0	41	0	571473920	66	4203
2026-01-30 08:33:58.10	90.55	43.41	-46.9	-48.5	18.7	0.00e+00	0	41	0	573571072	65	4339
2026-01-30 08:33:59.11	90.16	43.61	-47.0	-48.6	18.6	0.00e+00	0	41	0	575668224	65	4360
2026-01-30 08:34:00.12	89.77	43.80	-47.0	-48.7	18.6	0.00e+00	0	41	0	576716800	65	4422
2026-01-30 08:34:01.12	89.38	44.00	-47.0	-48.6	18.7	0.00e+00	0	41	0	578813952	65	4387
2026-01-30 08:34:02.13	88.97	44.19	-46.9	-48.4	18.8	0.00e+00	0	41	0	580911104	65	4283
2026-01-30 08:34:03.13	88.57	44.38	-46.7	-48.2	19.0	0.00e+00	0	41	0	583008256	65	4172
2026-01-30 08:34:04.14	88.16	44.57	-46.8	-48.4	18.8	0.00e+00	0	41	0	585105408	65	4286
2026-01-30 08:34:05.15	87.74	44.76	-46.9	-48.4	18.8	0.00e+00	0	41	0	586153984	65	4290
2026-01-30 08:34:06.15	87.32	44.95	-47.1	-48.8	18.4	0.00e+00	0	41	0	588251136	65	4480
2026-01-30 08:34:07.16	86.89	45.14	-47.4	-49.2	18.1	0.00e+00	0	41	0	590348288	65	4679
2026-01-30 08:34:08.16	86.46	45.33	-47.7	-49.5	17.8	0.00e+00	0	41	0	592445440	65	4851
2026-01-30 08:34:09.17	86.03	45.52	-47.3	-49.0	18.3	0.00e+00	0	41	0	594542592	65	4571
2026-01-30 08:34:10.18	85.58	45.71	-46.9	-48.5	18.7	0.00e+00	0	41	0	595591168	65	4314
2026-01-30 08:34:11.19	85.13	45.89	-46.4	-47.9	19.4	0.00e+00	0	41	0	597688320	64	4265
2026-01-30 08:34:12.19	84.68	46.07	-46.1	-47.5	19.8	0.00e+00	0	41	0	599785472	64	4095
2026-01-30 08:34:13.20	84.23	46.26	-46.1	-47.5	19.9	0.00e+00	0	41	0	601882624	63	4300
2026-01-30 08:34:14.21	83.76	46.44	-45.8	-47.1	20.2	0.00e+00	0	41	0	603979776	63	4140
2026-01-30 08:34:15.22	83.29	46.62	-45.9	-47.3	20.0	0.00e+00	0	41	0	605028352	63	4212
2026-01-30 08:34:16.23	82.81	46.80	-46.1	-47.5	19.9	0.00e+00	0	41	0	607125504	63	4319
2026-01-30 08:34:17.23	82.34	46.98	-46.1	-47.5	19.8	0.00e+00	0	41	0	609222656	63	4337
2026-01-30 08:34:18.24	81.85	47.15	-46.2	-47.7	19.7	0.00e+00	0	41	0	611319808	63	4417
2026-01-30 08:34:19.24	81.37	47.33	-46.2	-47.7	19.7	0.00e+00	0	41	0	613416960	63	4399
2026-01-30 08:34:20.25	80.87	47.50	-46.5	-48.0	19.4	0.00e+00	0	41	0	614465536	63	4562
2026-01-30 08:34:21.25	80.37	47.67	-46.2	-47.6	19.7	0.00e+00	0	41	0	616562688	63	4377
2026-01-30 08:34:22.26	79.86	47.84	-45.8	-47.2	20.2	0.00e+00	0	41	0	618659840	63	4152
2026-01-30 08:34:23.27	79.35	48.01	-45.6	-46.9	20.5	0.00e+00	0	41	0	620756992	63	4029
2026-01-30 08:34:24.27	78.83	48.17	-45.7	-47.0	20.3	0.00e+00	0	41	0	622854144	63	4097
2026-01-30 08:34:25.28	78.31	48.34	-45.9	-47.2	20.1	0.00e+00	0	41	0	623902720	63	4185
2026-01-30 08:34:26.28	77.78	48.50	-45.9	-47.2	20.1	0.00e+00	0	41	0	625999872	63	4190
2026-01-30 08:34:27.29	77.24	48.66	-45.9	-47.2	20.2	0.00e+00	0	41	0	628097024	63	4176
2026-01-30 08:34:28.29	76.71	48.82	-46.1	-47.5	20.0	0.00e+00	0	41	0	630194176	63	4300
2026-01-30 08:34:29.30	76.16	48.97	-46.6	-48.1	19.2	0.00e+00	0	41	0	632291328	64	4347
2026-01-30 08:34:30.30	75.61	49.13	-46.9	-48.4	18.9	0.00e+00	0	41	0	633339904	64	4540
2026-01-30 08:34:31.31	75.05	49.28	-47.1	-48.8	18.6	0.00e+00	0	41	0	635437056	65	4462
2026-01-30 08:34:32.32	74.49	49.43	-47.2	-48.8	18.6	0.00e+00	0	41	0	637534208	65	4475
2026-01-30 08:34:33.32	73.93	49.57	-47.4	-49.1	18.3	0.00e+00	0	41	0	639631360	65	4647
2026-01-30 08:34:34.33	73.35	49.71	-47.3	-49.0	18.4	0.00e+00	0	41	0	641728512	65	4557
2026-01-30 08:34:35.34	72.77	49.85	-46.9	-48.6	18.9	0.00e+00	0	41	0	642777088	65	4347
2026-01-30 08:34:36.34	72.19	49.99	-46.7	-48.3	19.1	0.00e+00	0	41	0	644874240	65	4207
2026-01-30 08:34:37.35	71.60	50.13	-46.4	-47.9	19.4	0.00e+00	0	41	0	646971392	64	4251
2026-01-30 08:34:38.35	71.01	50.26	-46.4	-47.8	19.5	0.00e+00	0	41	0	649068544	64	4233
2026-01-30 08:34:39.36	70.41	50.39	-46.3	-47.7	19.6	0.00e+00	0	41	0	651165696	64	4181
2026-01-30 08:34:40.37	69.80	50.51	-46.7	-48.2	19.2	0.00e+00	0	41	0	652214272	64	4421
2026-01-30 08:34:41.37	69.19	50.64	-46.9	-48.4	19.0	0.00e+00	0	41	0	654311424	64	4539
2026-01-30 08:34:42.38	68.58	50.76	-47.1	-48.7	18.6	0.00e+00	0	41	0	656408576	64	4682
2026-01-30 08:34:43.38	67.96	50.87	-47.3	-49.0	18.4	0.00e+00	0	41	0	658505728	65	4553
2026-01-30 08:34:44.39	67.34	50.99	-47.1	-48.7	18.6	0.00e+00	0	41	0	660602880	65	4421
2026-01-30 08:34:45.40	66.70	51.10	-46.6	-48.2	19.1	0.00e+00	0	41	0	661651456	65	4151
2026-01-30 08:34:46.41	66.07	51.20	-46.3	-47.8	19.6	0.00e+00	0	41	0	663748608	64	4203
2026-01-30 08:34:47.42	65.43	51.31	-46.2	-47.6	19.8	0.00e+00	0	41	0	665845760	64	4106
2026-01-30 08:34:48.42	64.79	51.41	-46.1	-47.5	20.0	0.00e+00	0	41	0	667942912	63	4292
2026-01-30 08:34:49.43	64.14	51.50	-46.0	-47.3	20.1	0.00e+00	0	41	0	670040064	63	4241
2026-01-30 08:34:50.44	63.49	51.60	-45.6	-46.9	20.4	0.00e+00	0	41	0	671088640	63	4034
2026-01-30 08:34:51.45	62.83	51.69	-45.0	-46.1	21.3	0.00e+00	0	41	0	673185792	61	4135
2026-01-30 08:34:52.45	62.18	51.77	-44.3	-45.4	21.8	0.00e+00	0	41	0	675282944	60	4042
2026-01-30 08:34:53.46	61.51	51.85	-44.0	-45.1	22.5	0.00e+00	0	41	0	677380096	59	4107
2026-01-30 08:34:54.47	60.85	51.93	-43.5	-44.4	23.0	0.00e+00	0	41	0	679477248	58	4035
2026-01-30 08:34:55.48	60.17	52.00	-43.3	-44.3	23.2	0.00e+00	0	41	0	680525824	58	3988
2026-01-30 08:34:56.48	59.51	52.07	-43.4	-44.4	23.2	0.00e+00	0	41	0	682622976	58	4021
2026-01-30 08:34:57.49	58.83	52.14	-43.4	-44.3	23.2	0.00e+00	0	41	0	684720128	58	3990
2026-01-30 08:34:58.50	58.15	52.20	-43.2	-44.2	23.3	0.00e+00	0	41	0	686817280	58	3941
2026-01-30 08:34:59.50	57.47	52.25	-42.7	-43.6	23.8	0.00e+00	0	41	0	688914432	57	3903
2026-01-30 08:35:00.51	56.79	52.31	-42.6	-43.5	23.9	0.00e+00	0	41	0	689963008	57	3856
2026-01-30 08:35:01.52	56.10	52.36	-42.5	-43.4	24.0	0.00e+00	0	41	0	692060160	57	3815
2026-01-30 08:35:02.52	55.41	52.40	-42.5	-43.3	24.1	0.00e+00	0	41	0	694157312	56	4002
2026-01-30 08:35:03.53	54.72	52.44	-42.4	-43.3	24.1	0.00e+00	0	41	0	696254464	56	3963
2026-01-30 08:35:04.54	54.03	52.48	-42.6	-43.5	23.9	0.00e+00	0	41	0	698351616	56	4075
2026-01-30 08:35:05.55	53.33	52.51	-42.6	-43.6	23.9	0.00e+00	0	41	0	699400192	56	4100
2026-01-30 08:35:06.56	52.64	52.54	-42.6	-43.5	23.9	0.00e+00	0	41	0	701497344	56	4090
2026-01-30 08:35:07.56	51.94	52.56	-42.4	-43.3	24.1	0.00e+00	0	41	0	703594496	56	3988
2026-01-30 08:35:08.57	51.24	52.58	-42.6	-43.5	23.9	0.00e+00	0	41	0	705691648	56	4058
2026-01-30 08:35:09.58	50.54	52.59	-42.5	-43.4	24.0	0.00e+00	0	41	0	707788800	56	4048
2026-01-30 08:35:10.59	49.84	52.60	-42.6	-43.5	23.9	0.00e+00	0	41	0	708837376	56	4074
2026-01-30 08:35:11.59	49.15	52.61	-42.7	-43.6	23.8	0.00e+00	0	41	0	710934528	56	4118
2026-01-30 08:35:12.60	48.45	52.61	-43.0	-44.0	23.5	0.00e+00	0	41	0	713031680	56	4309
2026-01-30 08:35:13.61	47.75	52.60	-43.0	-43.9	23.6	0.00e+00	0	41	0	715128832	56	4265
2026-01-30 08:35:14.62	47.05	52.60	-43.1	-44.0	23.5	0.00e+00	0	41	0	717225984	56	4336
2026-01-30 08:35:15.62	46.35	52.58	-43.2	-44.2	23.3	0.00e+00	0	41	0	719323136	56	4409
2026-01-30 08:35:16.63	45.65	52.57	-43.2	-44.2	23.3	0.00e+00	0	41	0	720371712	57	4164
2026-01-30 08:35:17.64	44.96	52.55	-43.2	-44.1	23.4	0.00e+00	0	41	0	722468864	57	4137
2026-01-30 08:35:18.64	44.27	52.52	-43.1	-44.0	23.5	0.00e+00	0	41	0	724566016	57	4072
2026-01-30 08:35:19.65	43.57	52.49	-43.2	-44.1	23.3	0.00e+00	0	41	0	726663168	57	4126
2026-01-30 08:35:20.66	42.88	52.46	-43.2	-44.2	23.4	0.00e+00	0	41	0	727711744	57	4149
2026-01-30 08:35:21.66	42.19	52.42	-43.3	-44.3	23.2	0.00e+00	0	41	0	729808896	57	4212
2026-01-30 08:35:22.67	41.50	52.38	-43.3	-44.3	23.2	0.00e+00	0	41	0	731906048	57	4215
2026-01-30 08:35:23.68	40.81	52.33	-43.3	-44.2	23.2	0.00e+00	0	41	0	734003200	57	4192
2026-01-30 08:35:24.69	40.12	52.28	-43.0	-43.9	23.5	0.00e+00	0	41	0	736100352	57	4035
2026-01-30 08:35:25.69	39.45	52.22	-42.7	-43.6	23.9	0.00e+00	0	41	0	737148928	57	3876
2026-01-30 08:35:26.70	38.76	52.16	-42.8	-43.7	23.8	0.00e+00	0	41	0	739246080	57	3919
2026-01-30 08:35:27.71	38.09	52.10	-42.9	-43.8	23.6	0.00e+00	0	41	0	741343232	57	3984
2026-01-30 08:35:28.72	37.41	52.03	-42.8	-43.7	23.7	0.00e+00	0	41	0	743440384	57	3936
2026-01-30 08:35:29.73	36.74	51.96	-42.9	-43.9	23.6	0.00e+00	0	41	0	745537536	57	4015
2026-01-30 08:35:30.74	36.07	51.89	-42.9	-43.8	23.6	0.00e+00	0	41	0	747634688	57	3995
2026-01-30 08:35:31.74	35.41	51.81	-42.8	-43.7	23.7	0.00e+00	0	41	0	748683264	57	3939
2026-01-30 08:35:32.75	34.75	51.72	-42.6	-43.5	23.9	0.00e+00	0	41	0	750780416	57	3863
2026-01-30 08:35:33.75	34.10	51.64	-42.7	-43.6	23.8	0.00e+00	0	41	0	752877568	57	3885
2026-01-30 08:35:34.76	33.44	51.55	-43.0	-43.9	23.5	0.00e+00	0	41	0	754974720	57	4051
2026-01-30 08:35:35.78	32.79	51.45	-43.2	-44.1	23.4	0.00e+00	0	41	0	756023296	57	4145
2026-01-30 08:35:36.78	32.15	51.35	-43.6	-44.6	22.9	0.00e+00	0	41	0	758120448	57	4385
2026-01-30 08:35:37.79	31.51	51.25	-43.9	-44.9	22.7	0.00e+00	0	41	0	760217600	58	4288
2026-01-30 08:35:38.80	30.87	51.15	-44.2	-45.2	22.4	0.00e+00	0	41	0	762314752	58	4430
2026-01-30 08:35:39.81	30.24	51.04	-44.4	-45.5	22.1	0.00e+00	0	41	0	764411904	59	4318
2026-01-30 08:35:40.81	29.61	50.93	-44.5	-45.6	21.8	0.00e+00	0	41	0	765460480	60	4106
2026-01-30 08:35:41.82	28.99	50.81	-44.7	-45.8	21.5	0.00e+00	0	41	0	767557632	60	4222
2026-01-30 08:35:42.83	28.37	50.69	-45.0	-46.2	21.2	0.00e+00	0	41	0	769654784	60	4404
2026-01-30 08:35:43.83	27.77	50.57	-45.2	-46.4	21.0	0.00e+00	0	41	0	771751936	61	4264
2026-01-30 08:35:44.84	27.16	50.45	-45.6	-46.9	20.6	0.00e+00	0	41	0	773849088	61	4498
2026-01-30 08:35:45.84	26.56	50.32	-45.8	-47.2	20.2	0.00e+00	0	41	0	775946240	62	4403
2026-01-30 08:35:46.85	25.96	50.19	-46.3	-47.7	19.8	0.00e+00	0	41	0	776994816	63	4411
2026-01-30 08:35:47.86	25.37	50.05	-46.4	-47.9	19.6	0.00e+00	0	41	0	779091968	63	4500
2026-01-30 08:35:48.87	24.78	49.92	-46.7	-48.3	19.2	0.00e+00	0	41	0	781189120	64	4469
2026-01-30 08:35:49.88	24.20	49.78	-46.7	-48.3	19.1	0.00e+00	0	41	0	783286272	64	4458
2026-01-30 08:35:50.89	23.62	49.63	-46.7	-48.3	19.2	0.00e+00	0	41	0	784334848	64	4450
2026-01-30 08:35:51.89	23.06	49.49	-46.6	-48.1	19.3	0.00e+00	0	41	0	786432000	64	4350
2026-01-30 08:35:52.90	22.49	49.34	-46.4	-47.8	19.5	0.00e+00	0	41	0	788529152	64	4231
2026-01-30 08:35:53.90	21.94	49.19	-46.4	-47.8	19.5	0.00e+00	0	41	0	790626304	64	4225
2026-01-30 08:35:54.91	21.38	49.04	-46.7	-48.2	19.2	0.00e+00	0	41	0	792723456	64	4411
2026-01-30 08:35:55.92	20.83	48.89	-46.8	-48.4	19.0	0.00e+00	0	41	0	793772032	64	4503
2026-01-30 08:35:56.93	20.29	48.73	-46.8	-48.4	19.0	0.00e+00	0	41	0	795869184	64	4512
2026-01-30 08:35:57.93	19.76	48.57	-46.5	-48.0	19.4	0.00e+00	0	41	0	797966336	64	4308
2026-01-30 08:35:58.94	19.22	48.41	-46.4	-47.9	19.5	0.00e+00	0	41	0	800063488	64	4247
2026-01-30 08:35:59.95	18.70	48.25	-46.5	-48.0	19.5	0.00e+00	0	41	0	802160640	64	4303
2026-01-30 08:36:00.96	18.18	48.08	-46.7	-48.3	19.2	0.00e+00	0	41	0	804257792	64	4448
2026-01-30 08:36:01.96	17.67	47.92	-46.7	-48.2	19.1	0.00e+00	0	41	0	805306368	64	4421
2026-01-30 08:36:02.97	17.16	47.75	-46.4	-47.9	19.5	0.00e+00	0	41	0	807403520	64	4268
2026-01-30 08:36:03.98	16.65	47.58	-46.4	-47.9	19.6	0.00e+00	0	41	0	809500672	64	4246
2026-01-30 08:36:04.99	16.15	47.41	-46.3	-47.8	19.7	0.00e+00	0	41	0	811597824	64	4206
2026-01-30 08:36:05.99	15.66	47.23	-46.5	-47.9	19.5	0.00e+00	0	41	0	812646400	64	4281
2026-01-30 08:36:07.00	15.18	47.06	-46.7	-48.2	19.2	0.00e+00	0	41	0	814743552	64	4400
2026-01-30 08:36:08.01	14.69	46.88	-47.1	-48.7	18.7	0.00e+00	0	41	0	816840704	64	4698
2026-01-30 08:36:09.02	14.22	46.70	-47.6	-49.4	18.1	0.00e+00	0	41	0	818937856	65	4769
2026-01-30 08:36:10.03	13.74	46.52	-47.9	-49.8	17.7	0.00e+00	0	41	0	821035008	66	4716
2026-01-30 08:36:11.03	13.28	46.34	-47.8	-49.7	17.7	0.00e+00	0	41	0	823132160	66	4680
2026-01-30 08:36:12.04	12.82	46.16	-47.8	-49.6	17.8	0.00e+00	0	41	0	824180736	66	4620
2026-01-30 08:36:13.04	12.37	45.98	-47.5	-49.3	18.1	0.00e+00	0	41	0	826277888	66	4464
2026-01-30 08:36:14.05	11.92	45.79	-47.6	-49.3	18.1	0.00e+00	0	41	0	828375040	66	4475
2026-01-30 08:36:15.06	11.48	45.61	-47.4	-49.0	18.4	0.00e+00	0	41	0	830472192	66	4336
2026-01-30 08:36:16.07	11.04	45.42	-47.6	-49.4	18.1	0.00e+00	0	41	0	832569344	66	4527
2026-01-30 08:36:17.07	10.61	45.23	-47.7	-49.4	18.0	0.00e+00	0	41	0	833617920	66	4545
2026-01-30 08:36:18.07	10.18	45.05	-47.9	-49.8	17.7	0.00e+00	0	41	0	835715072	66	4730
2026-01-30 08:36:19.08	9.76	44.86	-48.0	-50.0	17.5	0.00e+00	0	41	0	837812224	66	4853
2026-01-30 08:36:20.09	9.34	44.66	-47.8	-49.6	17.7	0.00e+00	0	41	0	839909376	66	4631
2026-01-30 08:36:21.09	8.93	44.48	-47.4	-49.1	18.4	0.00e+00	0	41	0	840957952	66	4349
2026-01-30 08:36:22.10	8.52	44.28	-46.9	-48.5	19.0	0.00e+00	0	41	0	843055104	65	4305
2026-01-30 08:36:23.11	8.12	44.09	-46.8	-48.3	19.1	0.00e+00	0	41	0	845152256	65	4213
2026-01-30 08:36:24.11	7.72	43.90	-46.5	-48.0	19.4	0.00e+00	0	41	0	847249408	65	4073
2026-01-30 08:36:25.11	7.33	43.71	-46.9	-48.5	19.0	0.00e+00	0	41	0	849346560	65	4335
2026-01-30 08:36:26.12	6.94	43.51	-47.0	-48.6	18.8	0.00e+00	0	41	0	850395136	65	4387
2026-01-30 08:36:27.12	6.56	43.32	-46.8	-48.4	19.1	0.00e+00	0	41	0	852492288	65	4261
2026-01-30 08:36:28.12	6.18	43.13	-46.5	-48.0	19.4	0.00e+00	0	41	0	854589440	65	4092
2026-01-30 08:36:29.13	5.81	42.93	-46.0	-47.4	20.0	0.00e+00	0	41	0	856686592	64	4027
2026-01-30 08:36:30.14	5.44	42.73	-46.0	-47.3	20.2	0.00e+00	0	41	0	858783744	63	4224
2026-01-30 08:36:31.15	5.07	42.54	-46.2	-47.5	20.0	0.00e+00	0	41	0	860880896	63	4330
2026-01-30 08:36:32.15	4.71	42.34	-46.4	-47.8	19.8	0.00e+00	0	41	0	861929472	63	4460
2026-01-30 08:36:33.16	4.36	42.14	-46.7	-48.2	19.3	0.00e+00	0	41	0	864026624	63	4684
2026-01-30 08:36:34.17	4.00	41.95	-46.8	-48.4	19.1	0.00e+00	0	41	0	866123776	64	4504
2026-01-30 08:36:35.17	3.66	41.75	-47.0	-48.7	18.8	0.00e+00	0	41	0	868220928	64	4660
2026-01-30 08:36:36.18	3.31	41.55	-47.1	-48.7	18.7	0.00e+00	0	41	0	869269504	64	4665
2026-01-30 08:36:37.19	2.97	41.36	-47.0	-48.7	18.8	0.00e+00	0	41	0	871366656	64	4654
2026-01-30 08:36:38.20	2.64	41.16	-47.3	-49.0	18.4	0.00e+00	0	41	0	873463808	65	4581
2026-01-30 08:36:39.20	2.31	40.96	-47.4	-49.1	18.3	0.00e+00	0	41	0	875560960	65	4619
2026-01-30 08:36:40.21	1.98	40.77	-47.6	-49.3	18.1	0.00e+00	0	41	0	877658112	65	4752
2026-01-30 08:36:41.22	1.66	40.57	-47.6	-49.4	18.1	0.00e+00	0	41	0	878706688	65	4761
2026-01-30 08:36:42.22	1.34	40.37	-47.5	-49.3	18.2	0.00e+00	0	41	0	880803840	65	4725
2026-01-30 08:36:43.23	1.02	40.17	-47.6	-49.4	18.1	0.00e+00	0	41	0	882900992	66	4527
2026-01-30 08:36:44.24	0.71	39.98	-47.6	-49.4	18.0	0.00e+00	0	41	0	884998144	66	4525
2026-01-30 08:36:45.24	0.41	39.78	-47.8	-49.6	17.9	0.00e+00	0	41	0	887095296	66	4620
2026-01-30 08:36:46.25	0.10	39.59	-48.4	-50.5	17.0	0.00e+00	0	41	0	889192448	67	4822
2026-01-30 08:36:47.26	359.80	39.39	-48.9	-51.3	16.3	0.00e+00	0	41	0	890241024	68	4991
2026-01-30 08:36:48.27	359.50	39.19	-48.9	-51.3	16.2	0.00e+00	0	41	0	892338176	68	5008
2026-01-30 08:36:49.28	359.21	39.00	-48.7	-50.9	16.7	0.00e+00	0	41	0	894435328	68	4771
2026-01-30 08:36:50.28	358.92	38.80	-48.3	-50.3	17.2	0.00e+00	0	41	0	896532480	68	4476
2026-01-30 08:36:51.29	358.64	38.60	-47.9	-49.7	17.7	0.00e+00	0	41	0	897581056	67	4431
2026-01-30 08:36:52.30	358.35	38.41	-47.4	-49.1	18.3	0.00e+00	0	41	0	899678208	66	4343
2026-01-30 08:36:53.30	358.07	38.22	-47.3	-49.0	18.4	0.00e+00	0	41	0	901775360	66	4320
2026-01-30 08:36:54.31	357.80	38.02	-47.3	-48.9	18.5	0.00e+00	0	41	0	903872512	66	4285
2026-01-30 08:36:55.31	357.53	37.83	-47.5	-49.2	18.3	0.00e+00	0	41	0	905969664	66	4411
2026-01-30 08:36:56.32	357.26	37.63	-47.5	-49.3	18.1	0.00e+00	0	41	0	908066816	66	4454
2026-01-30 08:36:57.33	356.99	37.44	-47.3	-49.0	18.5	0.00e+00	0	41	0	909115392	66	4307
2026-01-30 08:36:58.34	356.73	37.25	-47.2	-48.8	18.6	0.00e+00	0	41	0	911212544	66	4219
2026-01-30 08:36:59.35	356.47	37.05	-46.9	-48.5	18.9	0.00e+00	0	41	0	913309696	65	4333
2026-01-30 08:37:00.35	356.21	36.86	-47.1	-48.8	18.6	0.00e+00	0	41	0	915406848	65	4458
2026-01-30 08:37:01.36	355.96	36.67	-47.3	-49.0	18.4	0.00e+00	0	41	0	917504000	65	4591
2026-01-30 08:37:02.37	355.71	36.48	-47.3	-49.1	18.3	0.00e+00	0	41	0	918552576	65	4608
2026-01-30 08:37:03.38	355.46	36.29	-47.2	-48.9	18.5	0.00e+00	0	41	0	920649728	65	4515
2026-01-30 08:37:04.39	355.21	36.10	-47.1	-48.7	18.7	0.00e+00	0	41	0	922746880	65	4441
2026-01-30 08:37:05.40	354.97	35.91	-46.7	-48.3	19.1	0.00e+00	0	41	0	924844032	65	4201
2026-01-30 08:37:06.40	354.74	35.72	-46.6	-48.2	19.2	0.00e+00	0	41	0	925892608	65	4151
2026-01-30 08:37:07.41	354.50	35.53	-46.7	-48.2	19.1	0.00e+00	0	41	0	927989760	65	4178
2026-01-30 08:37:08.42	354.26	35.34	-46.6	-48.2	19.2	0.00e+00	0	41	0	930086912	65	4146
2026-01-30 08:37:09.42	354.04	35.16	-46.6	-48.1	19.2	0.00e+00	0	41	0	932184064	65	4137
2026-01-30 08:37:10.43	353.81	34.97	-46.7	-48.2	19.1	0.00e+00	0	41	0	934281216	65	4176
2026-01-30 08:37:11.44	353.58	34.79	-47.0	-48.6	18.8	0.00e+00	0	41	0	936378368	65	4382
2026-01-30 08:37:12.45	353.36	34.60	-47.0	-48.6	18.7	0.00e+00	0	41	0	937426944	65	4387
2026-01-30 08:37:13.45	353.14	34.42	-46.9	-48.5	18.8	0.00e+00	0	41	0	939524096	65	4323
2026-01-30 08:37:14.46	352.92	34.23	-46.9	-48.5	18.8	0.00e+00	0	41	0	941621248	65	4332
2026-01-30 08:37:15.46	352.71	34.05	-47.0	-48.6	18.8	0.00e+00	0	41	0	943718400	65	4370
2026-01-30 08:37:16.47	352.49	33.87	-47.1	-48.7	18.6	0.00e+00	0	41	0	945815552	65	4435
2026-01-30 08:37:17.47	352.28	33.68	-47.3	-49.0	18.3	0.00e+00	0	41	0	946864128	65	4596
2026-01-30 08:37:18.48	352.08	33.50	-47.4	-49.1	18.3	0.00e+00	0	41	0	948961280	65	4630
2026-01-30 08:37:19.49	351.87	33.32	-47.2	-49.0	18.4	0.00e+00	0	41	0	951058432	65	4554
2026-01-30 08:37:20.49	351.67	33.14	-47.1	-48.8	18.5	0.00e+00	0	41	0	953155584	65	4448
2026-01-30 08:37:21.50	351.47	32.96	-47.2	-48.9	18.4	0.00e+00	0	41	0	954204160	65	4527
2026-01-30 08:37:22.51	351.27	32.78	-47.2	-48.9	18.4	0.00e+00	0	41	0	956301312	65	4536
2026-01-30 08:37:23.52	351.07	32.60	-47.4	-49.1	18.2	0.00e+00	0	41	0	958398464	65	4650
2026-01-30 08:37:24.52	350.88	32.43	-47.3	-49.0	18.3	0.00e+00	0	41	0	960495616	65	4584
2026-01-30 08:37:25.53	350.68	32.25	-47.2	-48.9	18.5	0.00e+00	0	41	0	962592768	65	4502
2026-01-30 08:37:26.53	350.50	32.07	-47.0	-48.7	18.6	0.00e+00	0	41	0	964689920	65	4407
2026-01-30 08:37:27.54	350.31	31.90	-46.8	-48.3	18.9	0.00e+00	0	41	0	965738496	65	4231
2026-01-30 08:37:28.55	350.12	31.72	-46.6	-48.2	19.1	0.00e+00	0	41	0	967835648	65	4167
2026-01-30 08:37:29.55	349.94	31.55	-46.7	-48.2	19.0	0.00e+00	0	41	0	969932800	65	4172
2026-01-30 08:37:30.55	349.76	31.38	-46.4	-47.9	19.3	0.00e+00	0	41	0	972029952	64	4282
2026-01-30 08:37:31.56	349.58	31.20	-46.4	-47.9	19.4	0.00e+00	0	41	0	974127104	64	4258
2026-01-30 08:37:32.56	349.40	31.03	-46.6	-48.1	19.2	0.00e+00	0	41	0	975175680	64	4353
2026-01-30 08:37:33.57	349.22	30.86	-46.6	-48.2	19.0	0.00e+00	0	41	0	977272832	64	4402
2026-01-30 08:37:34.57	349.05	30.69	-46.8	-48.4	18.9	0.00e+00	0	41	0	979369984	64	4500
2026-01-30 08:37:35.58	348.88	30.52	-46.7	-48.2	19.0	0.00e+00	0	41	0	981467136	64	4423
2026-01-30 08:37:36.59	348.71	30.35	-46.7	-48.3	18.9	0.00e+00	0	41	0	982515712	64	4451
2026-01-30 08:37:37.60	348.54	30.18	-46.7	-48.3	18.9	0.00e+00	0	41	0	984612864	64	4454
2026-01-30 08:37:38.61	348.37	30.01	-46.6	-48.1	19.1	0.00e+00	0	41	0	986710016	64	4383
2026-01-30 08:37:39.62	348.20	29.84	-46.4	-47.9	19.3	0.00e+00	0	41	0	988807168	64	4291
2026-01-30 08:37:40.62	348.04	29.68	-46.5	-48.0	19.2	0.00e+00	0	41	0	990904320	64	4325
2026-01-30 08:37:41.63	347.88	29.51	-46.4	-47.9	19.2	0.00e+00	0	41	0	993001472	64	4289
2026-01-30 08:37:42.63	347.72	29.35	-46.3	-47.7	19.4	0.00e+00	0	41	0	994050048	64	4187
2026-01-30 08:37:43.64	347.56	29.18	-46.2	-47.7	19.5	0.00e+00	0	41	0	996147200	64	4161
2026-01-30 08:37:44.64	347.41	29.02	-46.0	-47.4	19.8	0.00e+00	0	41	0	998244352	64	4026
2026-01-30 08:37:45.65	347.25	28.86	-45.9	-47.2	20.0	0.00e+00	0	41	0	1000341504	63	4182
2026-01-30 08:37:46.66	347.10	28.69	-45.8	-47.1	20.1	0.00e+00	0	41	0	1002438656	63	4134
2026-01-30 08:37:47.66	346.95	28.53	-45.8	-47.1	20.1	0.00e+00	0	41	0	1003487232	63	4117
2026-01-30 08:37:48.67	346.79	28.37	-45.7	-47.0	20.2	0.00e+00	0	41	0	1005584384	63	4077
2026-01-30 08:37:49.68	346.65	28.21	-45.8	-47.1	20.1	0.00e+00	0	41	0	1007681536	63	4138
2026-01-30 08:37:50.69	346.50	28.05	-45.9	-47.2	20.0	0.00e+00	0	41	0	1009778688	63	4193
2026-01-30 08:37:51.70	346.35	27.89	-45.9	-47.2	20.0	0.00e+00	0	41	0	1010827264	63	4189
2026-01-30 08:37:52.70	346.21	27.74	-46.0	-47.5	19.8	0.00e+00	0	41	0	1012924416	63	4293
2026-01-30 08:37:53.71	346.06	27.58	-45.9	-47.2	20.1	0.00e+00	0	41	0	1015021568	63	4176
2026-01-30 08:37:54.71	345.92	27.42	-45.9	-47.3	20.0	0.00e+00	0	41	0	1017118720	63	4203
2026-01-30 08:37:55.72	345.78	27.27	-45.8	-47.1	20.1	0.00e+00	0	41	0	1019215872	63	4130
2026-01-30 08:37:56.72	345.65	27.11	-45.7	-47.1	20.1	0.00e+00	0	41	0	1020264448	63	4110
2026-01-30 08:37:57.73	345.51	26.96	-45.7	-47.1	20.1	0.00e+00	0	41	0	1022361600	63	4116
2026-01-30 08:37:58.73	345.37	26.80	-45.7	-47.0	20.2	0.00e+00	0	41	0	1024458752	63	4091
2026-01-30 08:37:59.74	345.24	26.65	-45.7	-47.1	20.1	0.00e+00	0	41	0	1026555904	63	4108
2026-01-30 08:38:00.74	345.11	26.50	-45.6	-47.0	20.2	0.00e+00	0	41	0	1028653056	63	4059
2026-01-30 08:38:01.75	344.97	26.35	-45.5	-46.9	20.3	0.00e+00	0	41	0	1030750208	63	4013
2026-01-30 08:38:02.76	344.84	26.19	-45.6	-46.9	20.3	0.00e+00	0	41	0	1031798784	63	4026
2026-01-30 08:38:03.77	344.71	26.04	-45.6	-46.9	20.3	0.00e+00	0	41	0	1033895936	63	4045
2026-01-30 08:38:04.77	344.59	25.89	-45.8	-47.2	20.0	0.00e+00	0	41	0	1035993088	63	4159
2026-01-30 08:38:05.78	344.46	25.74	-45.9	-47.3	19.9	0.00e+00	0	41	0	1038090240	63	4203
2026-01-30 08:38:06.79	344.33	25.60	-45.8	-47.1	20.1	0.00e+00	0	41	0	1039138816	63	4130
2026-01-30 08:38:07.80	344.21	25.45	-45.7	-47.1	20.1	0.00e+00	0	41	0	1041235968	63	4116
2026-01-30 08:38:08.80	344.08	25.30	-45.6	-46.9	20.2	0.00e+00	0	41	0	1043333120	63	4045
2026-01-30 08:38:09.81	343.96	25.15	-45.5	-46.8	20.3	0.00e+00	0	41	0	1045430272	63	3989
2026-01-30 08:38:10.82	343.84	25.01	-45.4	-46.7	20.5	0.00e+00	0	41	0	1047527424	62	4149
2026-01-30 08:38:11.82	343.72	24.86	-45.3	-46.6	20.5	0.00e+00	0	41	0	1048576000	62	4133
2026-01-30 08:38:12.82	343.60	24.72	-45.4	-46.7	20.5	0.00e+00	0	41	0	1050673152	62	4151
2026-01-30 08:38:13.83	343.49	24.58	-45.4	-46.7	20.4	0.00e+00	0	41	0	1052770304	62	4190
2026-01-30 08:38:14.83	343.37	24.43	-45.2	-46.5	20.6	0.00e+00	0	41	0	1054867456	62	4080
2026-01-30 08:38:15.83	343.26	24.29	-45.1	-46.3	20.8	0.00e+00	0	41	0	1056964608	62	3974
2026-01-30 08:38:16.84	343.14	24.15	-44.9	-46.1	20.9	0.00e+00	0	41	0	1059061760	61	4137
2026-01-30 08:38:17.85	343.03	24.01	-44.9	-46.1	21.0	0.00e+00	0	41	0	1060110336	61	4102
2026-01-30 08:38:18.85	342.92	23.87	-44.9	-46.1	20.9	0.00e+00	0	41	0	1062207488	61	4134
2026-01-30 08:38:19.86	342.80	23.73	-44.8	-45.9	21.1	0.00e+00	0	41	0	1064304640	61	4046
2026-01-30 08:38:20.87	342.69	23.59	-44.7	-45.9	21.1	0.00e+00	0	41	0	1066401792	61	4024
2026-01-30 08:38:21.88	342.58	23.45	-44.7	-45.9	21.1	0.00e+00	0	41	0	1067450368	61	4034
2026-01-30 08:38:22.88	342.48	23.31	-44.7	-45.9	21.1	0.00e+00	0	41	0	1069547520	61	4044
2026-01-30 08:38:23.89	342.37	23.17	-44.8	-46.1	21.0	0.00e+00	0	41	0	1071644672	61	4102
2026-01-30 08:38:24.89	342.26	23.04	-44.9	-46.1	21.0	0.00e+00	0	41	0	1073741824	61	4112
2026-01-30 08:38:25.90	342.16	22.90	-44.9	-46.1	20.9	0.00e+00	0	41	0	1075838976	61	4111
2026-01-30 08:38:26.91	342.05	22.77	-44.9	-46.1	20.9	0.00e+00	0	41	0	1076887552	61	4143
2026-01-30 08:38:27.91	341.95	22.63	-44.9	-46.2	20.9	0.00e+00	0	41	0	1078984704	61	4150
2026-01-30 08:38:28.92	341.85	22.50	-45.1	-46.4	20.7	0.00e+00	0	41	0	1081081856	61	4266
2026-01-30 08:38:29.92	341.75	22.36	-45.1	-46.4	20.7	0.00e+00	0	41	0	1083179008	61	4250
2026-01-30 08:38:30.92	341.65	22.23	-45.1	-46.4	20.6	0.00e+00	0	41	0	1085276160	61	4249
2026-01-30 08:38:31.93	341.55	22.10	-45.1	-46.4	20.6	0.00e+00	0	41	0	1087373312	61	4281
2026-01-30 08:38:32.93	341.45	21.97	-45.1	-46.3	20.7	0.00e+00	0	41	0	1088421888	61	4235
2026-01-30 08:38:33.93	341.35	21.84	-45.2	-46.5	20.6	0.00e+00	0	41	0	1090519040	61	4297
2026-01-30 08:38:34.94	341.25	21.71	-45.1	-46.4	20.6	0.00e+00	0	41	0	1092616192	61	4261
2026-01-30 08:38:35.94	341.16	21.58	-45.2	-46.5	20.5	0.00e+00	0	41	0	1094713344	61	4321
2026-01-30 08:38:36.95	341.06	21.45	-45.1	-46.4	20.6	0.00e+00	0	41	0	1095761920	61	4270
2026-01-30 08:38:37.96	340.97	21.32	-45.1	-46.4	20.6	0.00e+00	0	41	0	1097859072	61	4279
2026-01-30 08:38:38.97	340.87	21.19	-45.1	-46.3	20.7	0.00e+00	0	41	0	1099956224	61	4232
2026-01-30 08:38:39.97	340.78	21.06	-45.2	-46.5	20.5	0.00e+00	0	41	0	1102053376	61	4298
2026-01-30 08:38:40.98	340.69	20.93	-45.2	-46.5	20.5	0.00e+00	0	41	0	1104150528	61	4338
2026-01-30 08:38:41.99	340.60	20.80	-45.1	-46.4	20.6	0.00e+00	0	41	0	1105199104	61	4278
2026-01-30 08:38:42.99	340.51	20.68	-45.3	-46.6	20.4	0.00e+00	0	41	0	1107296256	61	4362
2026-01-30 08:38:44.00	340.42	20.55	-45.3	-46.6	20.3	0.00e+00	0	41	0	1109393408	61	4390
2026-01-30 08:38:45.01	340.33	20.43	-45.3	-46.6	20.3	0.00e+00	0	41	0	1111490560	61	4382
2026-01-30 08:38:46.01	340.24	20.30	-45.4	-46.7	20.3	0.00e+00	0	41	0	1113587712	61	4425
2026-01-30 08:38:47.02	340.15	20.18	-45.4	-46.7	20.3	0.00e+00	0	41	0	1114636288	61	4404
2026-01-30 08:38:48.03	340.06	20.06	-45.4	-46.7	20.2	0.00e+00	0	41	0	1116733440	61	4440
2026-01-30 08:38:49.03	339.98	19.93	-45.4	-46.7	20.2	0.00e+00	0	41	0	1118830592	61	4429
2026-01-30 08:38:50.04	339.89	19.81	-45.4	-46.8	20.2	0.00e+00	0	41	0	1120927744	61	4466
2026-01-30 08:38:51.05	339.81	19.69	-45.3	-46.6	20.3	0.00e+00	0	41	0	1123024896	61	4372
2026-01-30 08:38:52.06	339.72	19.57	-45.3	-46.6	20.4	0.00e+00	0	41	0	1124073472	61	4348
2026-01-30 08:38:53.06	339.64	19.45	-45.2	-46.5	20.5	0.00e+00	0	41	0	1126170624	61	4321
2026-01-30 08:38:54.07	339.56	19.33	-45.2	-46.5	20.5	0.00e+00	0	41	0	1128267776	61	4298
2026-01-30 08:38:55.07	339.47	19.21	-45.1	-46.3	20.6	0.00e+00	0	41	0	1130364928	61	4229
2026-01-30 08:38:56.07	339.39	19.09	-44.9	-46.2	20.7	0.00e+00	0	41	0	1132462080	61	4171
2026-01-30 08:38:57.08	339.31	18.97	-45.0	-46.3	20.7	0.00e+00	0	41	0	1133510656	61	4205
2026-01-30 08:38:58.08	339.23	18.85	-44.9	-46.2	20.7	0.00e+00	0	41	0	1135607808	61	4152
2026-01-30 08:38:59.09	339.15	18.73	-45.0	-46.2	20.7	0.00e+00	0	41	0	1137704960	61	4193
2026-01-30 08:39:00.09	339.08	18.62	-44.9	-46.1	20.8	0.00e+00	0	41	0	1139802112	61	4124
2026-01-30 08:39:01.09	339.00	18.50	-45.0	-46.2	20.7	0.00e+00	0	41	0	1141899264	61	4184
2026-01-30 08:39:02.10	338.92	18.38	-45.0	-46.2	20.6	0.00e+00	0	41	0	1142947840	61	4175
2026-01-30 08:39:03.11	338.84	18.27	-44.9	-46.2	20.7	0.00e+00	0	41	0	1145044992	61	4157
2026-01-30 08:39:04.12	338.77	18.15	-44.9	-46.2	20.7	0.00e+00	0	41	0	1147142144	61	4172
2026-01-30 08:39:05.13	338.69	18.04	-44.9	-46.2	20.7	0.00e+00	0	41	0	1149239296	61	4172
2026-01-30 08:39:06.13	338.62	17.92	-45.0	-46.3	20.6	0.00e+00	0	41	0	1151336448	61	4211
2026-01-30 08:39:07.14	338.54	17.81	-45.0	-46.3	20.6	0.00e+00	0	41	0	1152385024	61	4212
2026-01-30 08:39:08.15	338.47	17.69	-45.0	-46.2	20.6	0.00e+00	0	41	0	1154482176	61	4189
2026-01-30 08:39:09.15	338.39	17.58	-45.0	-46.3	20.6	0.00e+00	0	41	0	1156579328	61	4211
2026-01-30 08:39:10.15	338.32	17.47	-45.1	-46.4	20.5	0.00e+00	0	41	0	1158676480	61	4247
2026-01-30 08:39:11.16	338.25	17.36	-45.2	-46.5	20.3	0.00e+00	0	41	0	1160773632	61	4334
2026-01-30 08:39:12.17	338.18	17.25	-45.2	-46.6	20.3	0.00e+00	0	41	0	1161822208	61	4348
2026-01-30 08:39:13.17	338.11	17.14	-45.3	-46.7	20.2	0.00e+00	0	41	0	1163919360	61	4407
2026-01-30 08:39:14.18	338.04	17.02	-45.5	-46.9	20.0	0.00e+00	0	41	0	1166016512	61	4510
2026-01-30 08:39:15.18	337.97	16.91	-45.5	-46.9	20.0	0.00e+00	0	41	0	1168113664	61	4518
2026-01-30 08:39:16.19	337.90	16.80	-45.4	-46.8	20.1	0.00e+00	0	41	0	1170210816	61	4463
2026-01-30 08:39:17.20	337.83	16.69	-45.5	-46.9	19.9	0.00e+00	0	41	0	1171259392	61	4529
2026-01-30 08:39:18.21	337.76	16.59	-45.6	-47.0	19.9	0.00e+00	0	41	0	1173356544	61	4563
2026-01-30 08:39:19.22	337.69	16.48	-45.5	-46.9	20.0	0.00e+00	0	41	0	1175453696	61	4501
2026-01-30 08:39:20.23	337.62	16.37	-45.5	-46.9	20.0	0.00e+00	0	41	0	1177550848	61	4532
2026-01-30 08:39:21.24	337.56	16.26	-45.6	-47.0	19.9	0.00e+00	0	41	0	1179648000	61	4569
2026-01-30 08:39:22.24	337.49	16.15	-45.5	-46.9	20.0	0.00e+00	0	41	0	1180696576	61	4523
2026-01-30 08:39:23.25	337.42	16.05	-45.6	-47.0	19.8	0.00e+00	0	41	0	1182793728	61	4589
2026-01-30 08:39:24.26	337.36	15.94	-45.6	-47.0	19.9	0.00e+00	0	41	0	1184890880	62	4322
2026-01-30 08:39:25.27	337.29	15.83	-45.6	-47.0	19.9	0.00e+00	0	41	0	1186988032	62	4320
2026-01-30 08:39:26.28	337.23	15.73	-45.6	-47.0	19.8	0.00e+00	0	41	0	1189085184	62	4332
2026-01-30 08:39:27.29	337.17	15.62	-45.5	-46.8	20.0	0.00e+00	0	41	0	1190133760	62	4230
2026-01-30 08:39:28.29	337.10	15.52	-45.4	-46.8	20.1	0.00e+00	0	41	0	1192230912	62	4215
2026-01-30 08:39:29.29	337.04	15.42	-45.5	-46.8	20.0	0.00e+00	0	41	0	1194328064	62	4233
2026-01-30 08:39:30.30	336.98	15.31	-45.4	-46.7	19.9	0.00e+00	0	41	0	1196425216	62	4191
2026-01-30 08:39:31.30	336.92	15.21	-45.3	-46.7	20.1	0.00e+00	0	41	0	1198522368	62	4160
2026-01-30 08:39:32.31	336.85	15.10	-45.5	-46.8	20.0	7.00e-07	0	41	0	1199570944	62	4238
2026-01-30 08:39:33.31	336.79	15.00	-45.4	-46.7	20.1	0.00e+00	0	41	0	1201668096	62	4191
2026-01-30 08:39:34.32	336.73	14.90	-45.4	-46.7	20.1	0.00e+00	0	41	0	1203765248	62	4186
2026-01-30 08:39:35.32	336.67	14.80	-45.4	-46.8	20.1	0.00e+00	0	41	0	1205862400	62	4207
2026-01-30 08:39:36.33	336.61	14.70	-45.3	-46.6	20.1	0.00e+00	0	41	0	1207959552	62	4138
2026-01-30 08:39:37.34	336.55	14.60	-45.4	-46.8	20.0	0.00e+00	0	41	0	1209008128	62	4200
2026-01-30 08:39:38.34	336.49	14.50	-45.4	-46.8	20.0	0.00e+00	0	41	0	1211105280	62	4205
2026-01-30 08:39:39.35	336.44	14.40	-45.4	-46.7	20.0	7.00e-07	0	41	0	1213202432	62	4193
2026-01-30 08:39:40.35	336.38	14.30	-45.4	-46.8	20.0	0.00e+00	0	41	0	1215299584	62	4194
2026-01-30 08:39:41.36	336.32	14.20	-45.4	-46.7	20.1	0.00e+00	0	41	0	1217396736	62	4171
2026-01-30 08:39:42.36	336.26	14.10	-45.4	-46.8	20.0	0.00e+00	0	41	0	1218445312	62	4216
