passes_logs/2026/01/30/R3.2S_Murmansk/R3.2S_Murmansk__20260130_031040_SUOMI_NPP_rec.log

#Pass ID: 20260130_031040_SUOMI NPP
#Satellite: SUOMI NPP
#Configuration: NPP
#almurnet v.1.7.20251203
#Start time: 2026-01-30 03:10:40

#Version: 2.2.20231116
#Station: R3.2S_Murmansk
#Location: 33.079688 lon 68.888172 lat
#TLE: 1 37849U 11061A   26029.48304708  .00000140  00000+0  87283-4 0  9999
#TLE: 2 37849  98.7824 331.4079 0002024  38.4342 321.6978 14.19531488738761

#Time	Az	El	Level	Level2	SNR	BER	BlckErr	Temp	State	Recorded	gain1	gain2
2026-01-30 03:10:40.13	38.51	1.98	-52.8	-67.8	3.8	1.49e+00	0	39	0	0	77	19845
2026-01-30 03:10:41.14	38.46	2.04	-52.0	-67.0	3.8	1.49e+00	0	39	104	0	74	21552
2026-01-30 03:10:42.15	38.41	2.10	-52.0	-66.9	3.8	1.49e+00	0	39	104	0	74	21486
2026-01-30 03:10:43.16	38.36	2.16	-52.0	-67.0	3.8	1.49e+00	0	39	104	0	74	21539
2026-01-30 03:10:44.17	38.31	2.22	-52.0	-66.9	3.8	1.49e+00	0	39	104	0	74	21454
2026-01-30 03:10:45.18	38.26	2.28	-52.0	-66.9	3.8	1.49e+00	0	39	104	0	74	21429
2026-01-30 03:10:46.18	38.22	2.34	-52.0	-66.9	3.8	1.49e+00	0	39	104	0	74	21441
2026-01-30 03:10:47.19	38.17	2.40	-52.0	-66.9	3.8	1.49e+00	0	39	104	0	74	21454
2026-01-30 03:10:48.20	38.12	2.46	-51.9	-66.9	3.8	1.49e+00	0	39	104	0	74	21387
2026-01-30 03:10:49.21	38.07	2.52	-51.9	-66.9	3.8	1.49e+00	0	39	104	0	74	21389
2026-01-30 03:10:50.21	38.02	2.58	-51.9	-66.9	3.8	1.49e+00	0	39	104	0	74	21382
2026-01-30 03:10:51.22	37.96	2.65	-51.9	-66.9	3.8	1.49e+00	0	39	104	0	74	21396
2026-01-30 03:10:52.22	37.91	2.71	-51.9	-66.9	3.8	1.49e+00	0	39	104	0	74	21319
2026-01-30 03:10:53.22	37.86	2.77	-51.9	-66.9	3.8	1.49e+00	0	39	104	0	74	21302
2026-01-30 03:10:54.23	37.81	2.83	-51.9	-66.9	3.8	1.49e+00	0	39	104	0	74	21329
2026-01-30 03:10:55.24	37.76	2.89	-51.9	-66.9	3.8	1.49e+00	0	39	104	0	74	21330
2026-01-30 03:10:56.24	37.71	2.95	-51.9	-66.8	3.8	1.49e+00	0	39	104	0	74	21203
2026-01-30 03:10:57.25	37.66	3.01	-51.9	-66.8	3.8	1.49e+00	0	39	104	0	74	21223
2026-01-30 03:10:58.26	37.60	3.08	-51.9	-66.8	3.8	1.49e+00	0	40	104	0	74	21229
2026-01-30 03:10:59.27	37.55	3.14	-51.9	-66.9	3.8	1.49e+00	0	40	104	0	74	21273
2026-01-30 03:11:00.28	37.50	3.20	-51.9	-66.8	3.8	1.49e+00	0	40	104	0	74	21212
2026-01-30 03:11:01.28	37.45	3.26	-51.9	-66.9	3.8	1.49e+00	0	40	104	0	74	21270
2026-01-30 03:11:02.29	37.39	3.33	-51.9	-66.9	3.8	1.49e+00	0	40	104	0	74	21284
2026-01-30 03:11:03.30	37.34	3.39	-51.9	-66.8	3.8	1.49e+00	0	40	104	0	74	21166
2026-01-30 03:11:04.31	37.29	3.45	-51.9	-66.8	3.8	1.49e+00	0	40	104	0	74	21153
2026-01-30 03:11:05.31	37.23	3.52	-51.9	-66.8	3.8	1.49e+00	0	40	104	0	74	21071
2026-01-30 03:11:06.32	37.18	3.58	-51.9	-66.8	3.8	1.49e+00	0	39	104	0	74	21033
2026-01-30 03:11:07.33	37.12	3.64	-51.9	-66.8	3.8	1.49e+00	0	40	104	0	74	21052
2026-01-30 03:11:08.33	37.07	3.70	-51.9	-66.8	3.8	1.49e+00	0	40	104	0	74	21078
2026-01-30 03:11:09.34	37.02	3.77	-51.9	-66.8	3.8	1.49e+00	0	40	104	0	74	21117
2026-01-30 03:11:10.35	36.96	3.83	-51.9	-66.8	3.8	1.49e+00	0	40	104	0	74	21181
2026-01-30 03:11:11.36	36.90	3.90	-51.9	-66.8	3.8	1.49e+00	0	40	104	0	74	21159
2026-01-30 03:11:12.36	36.85	3.96	-51.9	-66.7	3.8	1.49e+00	0	40	104	0	74	20842
2026-01-30 03:11:13.37	36.79	4.02	-51.9	-66.4	3.8	1.49e+00	0	40	104	0	74	20185
2026-01-30 03:11:14.38	36.74	4.09	-51.9	-66.2	3.8	1.49e+00	0	40	104	0	74	19652
2026-01-30 03:11:15.39	36.68	4.15	-51.8	-65.8	3.8	1.49e+00	0	40	104	0	74	18891
2026-01-30 03:11:16.40	36.62	4.22	-51.8	-65.8	3.8	1.49e+00	0	40	104	0	74	18749
2026-01-30 03:11:17.40	36.57	4.28	-51.8	-66.1	3.8	1.49e+00	0	40	104	0	74	19429
2026-01-30 03:11:18.41	36.51	4.34	-51.8	-66.2	3.8	1.49e+00	0	40	104	0	74	19631
2026-01-30 03:11:19.42	36.45	4.41	-51.8	-66.2	3.8	1.49e+00	0	40	104	0	74	19840
2026-01-30 03:11:20.43	36.39	4.47	-51.8	-65.6	3.8	1.49e+00	0	40	104	0	74	18363
2026-01-30 03:11:21.43	36.34	4.54	-51.7	-63.3	4.2	1.46e+00	0	40	104	0	74	14170
2026-01-30 03:11:22.44	36.28	4.60	-51.4	-60.6	5.3	8.83e-01	0	40	0	1048576	74	10384
2026-01-30 03:11:23.45	36.22	4.67	-51.0	-58.2	7.3	3.26e-01	0	40	0	3145728	74	7825
2026-01-30 03:11:24.45	36.16	4.73	-50.5	-56.4	9.1	4.25e-02	0	40	0	4194304	73	6734
2026-01-30 03:11:25.46	36.10	4.80	-49.9	-54.6	11.0	5.82e-03	0	40	0	6291456	71	6163
2026-01-30 03:11:26.47	36.04	4.87	-49.1	-52.8	12.8	3.77e-04	0	40	0	8388608	70	5328
2026-01-30 03:11:27.48	35.98	4.93	-48.9	-52.4	13.3	2.74e-05	0	40	0	10485760	69	5382
2026-01-30 03:11:28.48	35.92	5.00	-48.2	-51.2	14.5	7.00e-07	0	40	0	12582912	68	4963
2026-01-30 03:11:29.49	35.86	5.06	-48.7	-52.1	13.7	0.00e+00	0	40	0	13631488	67	5804
2026-01-30 03:11:30.50	35.80	5.13	-49.1	-52.8	13.0	6.09e-03	0	40	0	15728640	70	5288
2026-01-30 03:11:31.51	35.74	5.20	-47.6	-50.2	15.4	2.04e-04	0	40	0	17825792	67	4663
2026-01-30 03:11:32.51	35.68	5.26	-49.8	-54.3	11.2	2.73e-02	0	40	0	19922944	71	5965
2026-01-30 03:11:33.52	35.62	5.33	-48.1	-50.9	14.5	4.35e-02	0	40	0	20971520	68	4774
2026-01-30 03:11:34.53	35.56	5.39	-47.5	-50.0	15.5	0.00e+00	0	40	0	23068672	66	4869
2026-01-30 03:11:35.54	35.49	5.46	-46.9	-49.2	16.3	0.00e+00	0	40	0	25165824	65	4696
2026-01-30 03:11:36.55	35.43	5.53	-47.1	-49.4	16.2	0.00e+00	0	40	0	27262976	65	4812
2026-01-30 03:11:37.56	35.37	5.60	-47.2	-49.6	16.0	0.00e+00	0	40	0	29360128	65	4916
2026-01-30 03:11:38.56	35.31	5.66	-47.2	-49.7	16.0	0.00e+00	0	40	0	31457280	65	4928
2026-01-30 03:11:39.56	35.24	5.73	-47.1	-49.4	16.3	0.00e+00	0	40	0	32505856	65	4772
2026-01-30 03:11:40.57	35.18	5.80	-47.0	-49.4	16.3	0.00e+00	0	40	0	34603008	65	4763
2026-01-30 03:11:41.57	35.12	5.86	-46.9	-49.2	16.5	0.00e+00	0	40	0	36700160	65	4679
2026-01-30 03:11:42.58	35.05	5.93	-47.0	-49.4	16.3	0.00e+00	0	40	0	38797312	65	4772
2026-01-30 03:11:43.58	34.99	6.00	-46.9	-49.2	16.5	0.00e+00	0	40	0	40894464	65	4681
2026-01-30 03:11:44.59	34.92	6.07	-46.9	-49.1	16.7	0.00e+00	0	40	0	41943040	65	4608
2026-01-30 03:11:45.59	34.86	6.14	-46.7	-48.9	16.8	0.00e+00	0	40	0	44040192	65	4509
2026-01-30 03:11:46.60	34.79	6.20	-46.5	-48.5	17.2	0.00e+00	0	40	0	46137344	65	4330
2026-01-30 03:11:47.61	34.73	6.27	-46.4	-48.4	17.4	0.00e+00	0	40	0	48234496	64	4508
2026-01-30 03:11:48.61	34.66	6.34	-46.5	-48.5	17.2	0.00e+00	0	40	0	50331648	64	4582
2026-01-30 03:11:49.63	34.59	6.41	-46.5	-48.6	17.3	0.00e+00	0	40	0	51380224	64	4605
2026-01-30 03:11:50.63	34.53	6.48	-46.6	-48.6	17.1	0.00e+00	0	40	0	53477376	64	4636
2026-01-30 03:11:51.64	34.46	6.55	-46.5	-48.6	17.2	0.00e+00	0	40	0	55574528	64	4600
2026-01-30 03:11:52.64	34.39	6.62	-46.5	-48.6	17.1	0.00e+00	0	40	0	57671680	64	4629
2026-01-30 03:11:53.65	34.32	6.69	-46.6	-48.7	17.1	0.00e+00	0	40	0	59768832	64	4668
2026-01-30 03:11:54.65	34.26	6.75	-46.5	-48.6	17.2	0.00e+00	0	40	0	60817408	64	4612
2026-01-30 03:11:55.66	34.19	6.82	-46.4	-48.4	17.4	0.00e+00	0	40	0	62914560	64	4531
2026-01-30 03:11:56.66	34.12	6.89	-46.5	-48.6	17.2	0.00e+00	0	40	0	65011712	64	4607
2026-01-30 03:11:57.67	34.05	6.96	-46.4	-48.5	17.4	0.00e+00	0	40	0	67108864	64	4550
2026-01-30 03:11:58.67	33.98	7.03	-46.6	-48.7	17.1	0.00e+00	0	40	0	69206016	64	4675
2026-01-30 03:11:59.68	33.91	7.10	-46.5	-48.6	17.3	0.00e+00	0	41	0	70254592	64	4599
2026-01-30 03:12:00.69	33.84	7.17	-46.2	-48.2	17.6	0.00e+00	0	40	0	72351744	64	4401
2026-01-30 03:12:01.69	33.77	7.24	-46.2	-48.1	17.7	0.00e+00	0	40	0	74448896	64	4372
2026-01-30 03:12:02.70	33.70	7.31	-46.3	-48.3	17.5	0.00e+00	0	40	0	76546048	64	4475
2026-01-30 03:12:03.70	33.63	7.39	-46.3	-48.2	17.7	0.00e+00	0	40	0	78643200	64	4417
2026-01-30 03:12:04.71	33.56	7.46	-46.2	-48.2	17.7	0.00e+00	0	41	0	79691776	64	4403
2026-01-30 03:12:05.71	33.49	7.53	-46.4	-48.3	17.5	0.00e+00	0	40	0	81788928	64	4485
2026-01-30 03:12:06.72	33.41	7.60	-46.3	-48.3	17.6	0.00e+00	0	41	0	83886080	64	4471
2026-01-30 03:12:07.73	33.34	7.67	-46.3	-48.2	17.6	0.00e+00	0	40	0	85983232	64	4439
2026-01-30 03:12:08.74	33.27	7.74	-46.2	-48.1	17.7	0.00e+00	0	40	0	88080384	64	4374
2026-01-30 03:12:09.74	33.19	7.81	-46.2	-48.1	17.8	0.00e+00	0	41	0	89128960	64	4358
2026-01-30 03:12:10.75	33.12	7.88	-46.1	-47.9	18.0	0.00e+00	0	40	0	91226112	63	4520
2026-01-30 03:12:11.76	33.04	7.96	-46.2	-48.0	17.9	0.00e+00	0	41	0	93323264	63	4589
2026-01-30 03:12:12.76	32.97	8.03	-46.1	-48.0	18.0	0.00e+00	0	41	0	95420416	63	4577
2026-01-30 03:12:13.77	32.89	8.10	-46.1	-48.0	18.0	0.00e+00	0	40	0	97517568	63	4560
2026-01-30 03:12:14.78	32.82	8.17	-45.9	-47.7	18.3	0.00e+00	0	40	0	98566144	63	4410
2026-01-30 03:12:15.78	32.74	8.25	-46.2	-48.1	17.9	0.00e+00	0	41	0	100663296	63	4626
2026-01-30 03:12:16.79	32.67	8.32	-46.1	-47.9	18.1	0.00e+00	0	40	0	102760448	63	4507
2026-01-30 03:12:17.80	32.59	8.39	-46.1	-48.0	18.1	0.00e+00	0	41	0	104857600	63	4550
2026-01-30 03:12:18.80	32.51	8.46	-46.1	-47.9	18.1	0.00e+00	0	41	0	106954752	63	4513
2026-01-30 03:12:19.81	32.44	8.54	-46.3	-48.2	17.8	0.00e+00	0	41	0	108003328	63	4675
2026-01-30 03:12:20.82	32.36	8.61	-46.0	-47.7	18.3	0.00e+00	0	40	0	110100480	63	4441
2026-01-30 03:12:21.83	32.28	8.69	-45.9	-47.7	18.4	0.00e+00	0	41	0	112197632	63	4408
2026-01-30 03:12:22.83	32.20	8.76	-45.8	-47.5	18.5	0.00e+00	0	40	0	114294784	63	4338
2026-01-30 03:12:23.84	32.12	8.83	-45.7	-47.4	18.6	0.00e+00	0	41	0	116391936	63	4280
2026-01-30 03:12:24.84	32.04	8.91	-45.9	-47.7	18.4	0.00e+00	0	40	0	117440512	63	4403
2026-01-30 03:12:25.85	31.96	8.98	-46.0	-47.9	18.2	0.00e+00	0	41	0	119537664	63	4494
2026-01-30 03:12:26.85	31.88	9.05	-45.9	-47.6	18.5	0.00e+00	0	40	0	121634816	63	4371
2026-01-30 03:12:27.86	31.80	9.13	-45.7	-47.4	18.7	0.00e+00	0	40	0	123731968	63	4265
2026-01-30 03:12:28.87	31.72	9.20	-45.8	-47.5	18.5	0.00e+00	0	41	0	125829120	63	4325
2026-01-30 03:12:29.88	31.64	9.28	-45.8	-47.5	18.5	0.00e+00	0	41	0	126877696	63	4340
2026-01-30 03:12:30.88	31.56	9.35	-45.9	-47.7	18.5	0.00e+00	0	41	0	128974848	63	4408
2026-01-30 03:12:31.89	31.47	9.43	-45.9	-47.7	18.4	0.00e+00	0	40	0	131072000	63	4414
2026-01-30 03:12:32.90	31.39	9.51	-46.1	-47.9	18.2	0.00e+00	0	41	0	133169152	63	4510
2026-01-30 03:12:33.91	31.31	9.58	-46.0	-47.8	18.3	0.00e+00	0	40	0	135266304	63	4472
2026-01-30 03:12:34.91	31.22	9.66	-45.8	-47.5	18.5	0.00e+00	0	41	0	136314880	63	4334
2026-01-30 03:12:35.92	31.14	9.73	-45.6	-47.3	18.8	0.00e+00	0	40	0	138412032	63	4220
2026-01-30 03:12:36.92	31.05	9.81	-45.8	-47.5	18.6	0.00e+00	0	41	0	140509184	63	4292
2026-01-30 03:12:37.93	30.97	9.88	-45.9	-47.6	18.5	0.00e+00	0	41	0	142606336	63	4364
2026-01-30 03:12:38.94	30.88	9.96	-45.7	-47.4	18.7	0.00e+00	0	41	0	144703488	63	4286
2026-01-30 03:12:39.95	30.80	10.04	-46.1	-47.8	18.3	0.00e+00	0	41	0	145752064	63	4487
2026-01-30 03:12:40.95	30.71	10.11	-46.1	-47.9	18.3	0.00e+00	0	41	0	147849216	63	4494
2026-01-30 03:12:41.96	30.62	10.19	-45.9	-47.6	18.5	0.00e+00	0	41	0	149946368	63	4363
2026-01-30 03:12:42.97	30.54	10.27	-46.0	-47.8	18.4	0.00e+00	0	41	0	152043520	63	4450
2026-01-30 03:12:43.97	30.45	10.35	-45.8	-47.6	18.7	0.00e+00	0	41	0	154140672	63	4342
2026-01-30 03:12:44.98	30.36	10.42	-45.7	-47.3	18.8	0.00e+00	0	41	0	155189248	63	4233
2026-01-30 03:12:45.99	30.27	10.50	-45.7	-47.4	18.8	0.00e+00	0	41	0	157286400	63	4250
2026-01-30 03:12:46.99	30.18	10.58	-45.7	-47.3	18.8	0.00e+00	0	41	0	159383552	63	4220
2026-01-30 03:12:48.00	30.09	10.66	-45.9	-47.6	18.6	0.00e+00	0	41	0	161480704	63	4363
2026-01-30 03:12:49.01	30.00	10.73	-45.8	-47.4	18.7	0.00e+00	0	41	0	163577856	63	4278
2026-01-30 03:12:50.01	29.91	10.81	-45.8	-47.5	18.7	0.00e+00	0	41	0	164626432	63	4314
2026-01-30 03:12:51.02	29.82	10.89	-45.9	-47.6	18.6	0.00e+00	0	41	0	166723584	63	4388
2026-01-30 03:12:52.03	29.72	10.97	-45.7	-47.3	18.9	0.00e+00	0	41	0	168820736	63	4209
2026-01-30 03:12:53.03	29.63	11.05	-45.8	-47.5	18.7	0.00e+00	0	41	0	170917888	63	4330
2026-01-30 03:12:54.04	29.54	11.13	-46.1	-47.8	18.4	0.00e+00	0	41	0	173015040	63	4488
2026-01-30 03:12:55.05	29.44	11.21	-45.8	-47.4	18.8	0.00e+00	0	41	0	174063616	63	4261
2026-01-30 03:12:56.05	29.35	11.29	-45.8	-47.4	18.8	0.00e+00	0	41	0	176160768	63	4287
2026-01-30 03:12:57.06	29.26	11.37	-45.7	-47.4	18.8	0.00e+00	0	41	0	178257920	63	4252
2026-01-30 03:12:58.06	29.16	11.44	-45.4	-47.0	19.2	0.00e+00	0	41	0	180355072	62	4297
2026-01-30 03:12:59.07	29.07	11.52	-45.4	-47.0	19.2	0.00e+00	0	41	0	182452224	62	4317
2026-01-30 03:13:00.08	28.97	11.61	-45.3	-46.9	19.3	0.00e+00	0	41	0	183500800	62	4251
2026-01-30 03:13:01.08	28.87	11.68	-45.3	-46.9	19.2	0.00e+00	0	41	0	185597952	62	4245
2026-01-30 03:13:02.09	28.77	11.77	-45.5	-47.0	19.1	0.00e+00	0	41	0	187695104	62	4331
2026-01-30 03:13:03.10	28.68	11.85	-45.4	-46.9	19.2	0.00e+00	0	41	0	189792256	62	4288
2026-01-30 03:13:04.11	28.58	11.93	-45.2	-46.7	19.5	0.00e+00	0	41	0	191889408	62	4151
2026-01-30 03:13:05.11	28.48	12.01	-45.2	-46.7	19.4	0.00e+00	0	41	0	192937984	62	4186
2026-01-30 03:13:06.11	28.38	12.09	-45.1	-46.6	19.6	0.00e+00	0	41	0	195035136	62	4116
2026-01-30 03:13:07.12	28.28	12.17	-45.0	-46.5	19.7	0.00e+00	0	41	0	197132288	62	4056
2026-01-30 03:13:08.13	28.18	12.25	-45.0	-46.4	19.8	0.00e+00	0	41	0	199229440	61	4281
2026-01-30 03:13:09.13	28.08	12.33	-45.0	-46.4	19.7	0.00e+00	0	41	0	201326592	61	4281
2026-01-30 03:13:10.14	27.97	12.42	-45.1	-46.6	19.6	0.00e+00	0	41	0	202375168	61	4368
2026-01-30 03:13:11.14	27.87	12.50	-45.1	-46.5	19.7	0.00e+00	0	41	0	204472320	61	4330
2026-01-30 03:13:12.15	27.77	12.58	-45.2	-46.7	19.6	0.00e+00	0	41	0	206569472	61	4400
2026-01-30 03:13:13.16	27.67	12.66	-45.1	-46.5	19.7	0.00e+00	0	41	0	208666624	61	4319
2026-01-30 03:13:14.17	27.56	12.74	-45.1	-46.5	19.7	0.00e+00	0	41	0	210763776	61	4319
2026-01-30 03:13:15.17	27.46	12.83	-45.1	-46.5	19.6	0.00e+00	0	41	0	211812352	61	4327
2026-01-30 03:13:16.18	27.35	12.91	-45.1	-46.5	19.7	0.00e+00	0	41	0	213909504	61	4328
2026-01-30 03:13:17.18	27.24	12.99	-44.9	-46.3	19.9	0.00e+00	0	41	0	216006656	61	4229
2026-01-30 03:13:18.19	27.14	13.08	-45.1	-46.5	19.7	0.00e+00	0	41	0	218103808	61	4314
2026-01-30 03:13:19.20	27.03	13.16	-45.0	-46.4	19.8	0.00e+00	0	41	0	220200960	61	4271
2026-01-30 03:13:20.20	26.92	13.24	-44.8	-46.1	20.1	0.00e+00	0	41	0	221249536	61	4129
2026-01-30 03:13:21.21	26.81	13.33	-44.8	-46.1	20.1	0.00e+00	0	41	0	223346688	61	4117
2026-01-30 03:13:22.21	26.70	13.41	-44.8	-46.1	20.1	0.00e+00	0	41	0	225443840	61	4132
2026-01-30 03:13:23.22	26.59	13.50	-44.7	-46.1	20.1	0.00e+00	0	41	0	227540992	61	4104
2026-01-30 03:13:24.23	26.48	13.58	-44.7	-46.1	20.2	0.00e+00	0	41	0	228589568	61	4119
2026-01-30 03:13:25.23	26.37	13.66	-45.0	-46.4	20.0	0.00e+00	0	41	0	230686720	61	4243
2026-01-30 03:13:26.24	26.26	13.75	-44.9	-46.3	19.9	0.00e+00	0	41	0	232783872	61	4222
2026-01-30 03:13:27.25	26.15	13.83	-45.0	-46.4	19.9	0.00e+00	0	41	0	234881024	61	4274
2026-01-30 03:13:28.25	26.04	13.92	-45.0	-46.5	19.8	0.00e+00	0	41	0	236978176	61	4292
2026-01-30 03:13:29.26	25.92	14.00	-44.9	-46.2	20.0	0.00e+00	0	41	0	239075328	61	4191
2026-01-30 03:13:30.27	25.81	14.09	-45.1	-46.6	19.8	0.00e+00	0	41	0	240123904	61	4358
2026-01-30 03:13:31.27	25.69	14.18	-45.1	-46.5	19.8	0.00e+00	0	41	0	242221056	61	4337
2026-01-30 03:13:32.28	25.57	14.26	-45.0	-46.3	19.9	0.00e+00	0	41	0	244318208	61	4236
2026-01-30 03:13:33.29	25.46	14.35	-45.0	-46.3	19.9	0.00e+00	0	41	0	246415360	61	4236
2026-01-30 03:13:34.29	25.34	14.43	-44.9	-46.2	20.0	0.00e+00	0	41	0	248512512	61	4178
2026-01-30 03:13:35.29	25.22	14.52	-45.0	-46.4	19.9	0.00e+00	0	41	0	249561088	61	4249
2026-01-30 03:13:36.30	25.10	14.61	-45.1	-46.6	19.7	0.00e+00	0	41	0	251658240	61	4350
2026-01-30 03:13:37.30	24.99	14.69	-45.1	-46.6	19.7	0.00e+00	0	41	0	253755392	61	4360
2026-01-30 03:13:38.31	24.87	14.78	-45.0	-46.5	19.8	0.00e+00	0	41	0	255852544	61	4300
2026-01-30 03:13:39.32	24.74	14.87	-45.2	-46.7	19.6	0.00e+00	0	41	0	256901120	61	4416
2026-01-30 03:13:40.32	24.62	14.95	-45.1	-46.6	19.7	0.00e+00	0	41	0	258998272	61	4346
2026-01-30 03:13:41.33	24.50	15.04	-45.1	-46.6	19.7	0.00e+00	0	41	0	261095424	61	4344
2026-01-30 03:13:42.33	24.38	15.13	-45.1	-46.6	19.7	0.00e+00	0	41	0	263192576	61	4346
2026-01-30 03:13:43.34	24.25	15.22	-45.1	-46.6	19.7	0.00e+00	0	41	0	265289728	61	4368
2026-01-30 03:13:44.34	24.13	15.31	-45.0	-46.5	19.8	0.00e+00	0	41	0	267386880	61	4294
2026-01-30 03:13:45.35	24.00	15.39	-45.2	-46.6	19.7	0.00e+00	0	41	0	268435456	61	4368
2026-01-30 03:13:46.36	23.88	15.48	-45.3	-46.8	19.6	0.00e+00	0	41	0	270532608	61	4444
2026-01-30 03:13:47.37	23.75	15.57	-45.1	-46.6	19.8	0.00e+00	0	41	0	272629760	61	4350
2026-01-30 03:13:48.37	23.62	15.66	-45.2	-46.6	19.8	0.00e+00	0	41	0	274726912	61	4372
2026-01-30 03:13:49.38	23.49	15.75	-45.3	-46.8	19.6	0.00e+00	0	41	0	276824064	61	4460
2026-01-30 03:13:50.39	23.36	15.84	-45.2	-46.6	19.7	0.00e+00	0	41	0	277872640	61	4384
2026-01-30 03:13:51.39	23.23	15.93	-45.1	-46.6	19.8	0.00e+00	0	41	0	279969792	61	4341
2026-01-30 03:13:52.40	23.10	16.02	-45.0	-46.4	19.9	0.00e+00	0	41	0	282066944	61	4281
2026-01-30 03:13:53.41	22.97	16.11	-44.8	-46.2	20.2	0.00e+00	0	41	0	284164096	61	4159
2026-01-30 03:13:54.41	22.84	16.20	-44.7	-46.0	20.3	0.00e+00	0	41	0	285212672	61	4075
2026-01-30 03:13:55.42	22.71	16.29	-44.4	-45.7	20.6	0.00e+00	0	41	0	287309824	60	4147
2026-01-30 03:13:56.43	22.57	16.38	-44.5	-45.8	20.5	0.00e+00	0	41	0	289406976	60	4228
2026-01-30 03:13:57.44	22.44	16.47	-44.6	-45.9	20.4	0.00e+00	0	41	0	291504128	60	4247
2026-01-30 03:13:58.45	22.30	16.56	-44.4	-45.7	20.6	0.00e+00	0	41	0	293601280	60	4178
2026-01-30 03:13:59.46	22.16	16.65	-44.6	-45.9	20.4	0.00e+00	0	41	0	295698432	60	4269
2026-01-30 03:14:00.47	22.02	16.74	-44.8	-46.2	20.2	0.00e+00	0	41	0	296747008	60	4415
2026-01-30 03:14:01.47	21.89	16.83	-45.0	-46.4	20.0	0.00e+00	0	41	0	298844160	60	4500
2026-01-30 03:14:02.48	21.75	16.92	-45.1	-46.5	19.9	0.00e+00	0	41	0	300941312	60	4597
2026-01-30 03:14:03.48	21.61	17.01	-44.8	-46.1	20.2	0.00e+00	0	41	0	303038464	60	4390
2026-01-30 03:14:04.49	21.47	17.10	-45.3	-46.8	19.6	0.00e+00	0	41	0	305135616	61	4472
2026-01-30 03:14:05.50	21.32	17.20	-45.6	-47.1	19.4	0.00e+00	0	41	0	306184192	61	4616
2026-01-30 03:14:06.51	21.18	17.29	-45.6	-47.1	19.4	0.00e+00	0	41	0	308281344	61	4628
2026-01-30 03:14:07.52	21.04	17.38	-45.9	-47.5	19.0	0.00e+00	0	41	0	310378496	62	4580
2026-01-30 03:14:08.52	20.89	17.47	-46.1	-47.8	18.8	0.00e+00	0	41	0	312475648	62	4748
2026-01-30 03:14:09.53	20.75	17.57	-46.2	-47.9	18.7	0.00e+00	0	41	0	314572800	62	4765
2026-01-30 03:14:10.54	20.60	17.66	-46.1	-47.8	18.7	0.00e+00	0	41	0	315621376	63	4489
2026-01-30 03:14:11.55	20.45	17.75	-46.0	-47.6	18.9	0.00e+00	0	41	0	317718528	63	4364
2026-01-30 03:14:12.55	20.31	17.84	-46.1	-47.7	18.9	0.00e+00	0	41	0	319815680	63	4422
2026-01-30 03:14:13.56	20.16	17.94	-45.8	-47.4	19.1	0.00e+00	0	41	0	321912832	63	4282
2026-01-30 03:14:14.57	20.01	18.03	-45.7	-47.3	19.3	0.00e+00	0	41	0	324009984	63	4204
2026-01-30 03:14:15.58	19.85	18.12	-45.7	-47.2	19.4	0.00e+00	0	41	0	325058560	63	4179
2026-01-30 03:14:16.59	19.70	18.22	-45.4	-46.9	19.7	0.00e+00	0	41	0	327155712	62	4255
2026-01-30 03:14:17.60	19.55	18.31	-45.3	-46.7	19.8	0.00e+00	0	41	0	329252864	62	4169
2026-01-30 03:14:18.60	19.40	18.40	-45.2	-46.6	19.9	0.00e+00	0	41	0	331350016	62	4112
2026-01-30 03:14:19.61	19.24	18.50	-45.2	-46.7	19.9	0.00e+00	0	41	0	333447168	62	4163
2026-01-30 03:14:20.62	19.08	18.59	-45.4	-46.8	19.6	0.00e+00	0	41	0	334495744	62	4235
2026-01-30 03:14:21.63	18.93	18.69	-45.4	-46.9	19.6	0.00e+00	0	41	0	336592896	62	4268
2026-01-30 03:14:22.63	18.77	18.78	-45.4	-46.9	19.6	0.00e+00	0	41	0	338690048	62	4253
2026-01-30 03:14:23.64	18.61	18.87	-45.2	-46.6	19.9	0.00e+00	0	41	0	340787200	62	4125
2026-01-30 03:14:24.65	18.45	18.97	-45.0	-46.4	20.0	0.00e+00	0	41	0	342884352	61	4248
2026-01-30 03:14:25.65	18.29	19.06	-45.2	-46.6	19.8	0.00e+00	0	41	0	343932928	61	4362
2026-01-30 03:14:26.66	18.13	19.16	-45.0	-46.4	20.0	0.00e+00	0	41	0	346030080	61	4281
2026-01-30 03:14:27.66	17.97	19.25	-45.0	-46.5	20.0	0.00e+00	0	41	0	348127232	61	4293
2026-01-30 03:14:28.66	17.80	19.35	-45.1	-46.5	20.0	0.00e+00	0	41	0	350224384	61	4314
2026-01-30 03:14:29.67	17.64	19.44	-45.0	-46.4	20.1	0.00e+00	0	41	0	352321536	61	4249
2026-01-30 03:14:30.67	17.47	19.54	-45.1	-46.6	19.9	0.00e+00	0	41	0	353370112	61	4352
2026-01-30 03:14:31.68	17.31	19.63	-45.1	-46.5	20.0	0.00e+00	0	41	0	355467264	61	4292
2026-01-30 03:14:32.69	17.14	19.73	-44.9	-46.3	20.1	0.00e+00	0	41	0	357564416	61	4230
2026-01-30 03:14:33.69	16.97	19.82	-44.8	-46.1	20.4	0.00e+00	0	41	0	359661568	61	4110
2026-01-30 03:14:34.70	16.80	19.92	-44.7	-45.9	20.5	0.00e+00	0	41	0	361758720	61	4050
2026-01-30 03:14:35.71	16.63	20.01	-44.7	-46.1	20.4	0.00e+00	0	41	0	362807296	61	4101
2026-01-30 03:14:36.71	16.45	20.11	-44.8	-46.1	20.4	0.00e+00	0	41	0	364904448	61	4109
2026-01-30 03:14:37.72	16.28	20.20	-45.0	-46.3	20.1	0.00e+00	0	41	0	367001600	61	4242
2026-01-30 03:14:38.73	16.11	20.30	-45.1	-46.5	20.1	0.00e+00	0	41	0	369098752	61	4297
2026-01-30 03:14:39.74	15.93	20.40	-45.2	-46.6	20.0	0.00e+00	0	41	0	371195904	61	4360
2026-01-30 03:14:40.74	15.75	20.49	-45.2	-46.6	19.9	0.00e+00	0	41	0	372244480	61	4372
2026-01-30 03:14:41.75	15.58	20.59	-45.0	-46.4	20.1	0.00e+00	0	41	0	374341632	61	4256
2026-01-30 03:14:42.76	15.40	20.68	-45.3	-46.7	19.8	0.00e+00	0	41	0	376438784	61	4435
2026-01-30 03:14:43.76	15.22	20.78	-45.3	-46.8	19.7	0.00e+00	0	41	0	378535936	61	4449
2026-01-30 03:14:44.77	15.03	20.88	-45.3	-46.7	19.8	0.00e+00	0	41	0	380633088	61	4440
2026-01-30 03:14:45.78	14.85	20.97	-45.4	-46.8	19.7	0.00e+00	0	41	0	381681664	61	4483
2026-01-30 03:14:46.78	14.67	21.07	-45.5	-46.9	19.6	0.00e+00	0	41	0	383778816	61	4540
2026-01-30 03:14:47.79	14.48	21.17	-45.4	-46.9	19.7	0.00e+00	0	41	0	385875968	61	4498
2026-01-30 03:14:48.80	14.30	21.26	-45.3	-46.8	19.8	0.00e+00	0	41	0	387973120	61	4445
2026-01-30 03:14:49.81	14.11	21.36	-45.1	-46.5	20.0	0.00e+00	0	41	0	390070272	61	4323
2026-01-30 03:14:50.81	13.92	21.46	-44.8	-46.1	20.3	0.00e+00	0	41	0	391118848	61	4142
2026-01-30 03:14:51.82	13.73	21.55	-44.8	-46.1	20.4	0.00e+00	0	41	0	393216000	61	4118
2026-01-30 03:14:52.83	13.54	21.65	-44.6	-45.9	20.6	0.00e+00	0	41	0	395313152	61	4018
2026-01-30 03:14:53.84	13.35	21.75	-44.7	-46.0	20.5	0.00e+00	0	41	0	397410304	61	4076
2026-01-30 03:14:54.84	13.15	21.84	-44.7	-46.0	20.5	0.00e+00	0	41	0	399507456	61	4096
2026-01-30 03:14:55.85	12.96	21.94	-44.8	-46.1	20.4	0.00e+00	0	41	0	400556032	61	4140
2026-01-30 03:14:56.85	12.77	22.04	-45.0	-46.4	20.1	0.00e+00	0	41	0	402653184	61	4282
2026-01-30 03:14:57.86	12.57	22.13	-45.0	-46.4	20.2	0.00e+00	0	41	0	404750336	61	4252
2026-01-30 03:14:58.87	12.37	22.23	-45.1	-46.4	20.2	0.00e+00	0	41	0	406847488	61	4282
2026-01-30 03:14:59.88	12.17	22.33	-45.1	-46.5	20.1	0.00e+00	0	41	0	408944640	61	4312
2026-01-30 03:15:00.89	11.97	22.42	-45.3	-46.7	20.0	0.00e+00	0	41	0	409993216	61	4393
2026-01-30 03:15:01.89	11.77	22.52	-44.9	-46.2	20.4	0.00e+00	0	41	0	412090368	61	4148
2026-01-30 03:15:02.90	11.56	22.62	-44.8	-46.1	20.6	0.00e+00	0	41	0	414187520	61	4100
2026-01-30 03:15:03.90	11.36	22.71	-45.0	-46.3	20.3	0.00e+00	0	41	0	416284672	61	4218
2026-01-30 03:15:04.91	11.15	22.81	-45.0	-46.3	20.3	0.00e+00	0	41	0	418381824	61	4205
2026-01-30 03:15:05.92	10.94	22.91	-44.8	-46.0	20.5	0.00e+00	0	41	0	419430400	61	4091
2026-01-30 03:15:06.93	10.74	23.00	-44.7	-46.0	20.5	0.00e+00	0	41	0	421527552	61	4087
2026-01-30 03:15:07.93	10.53	23.10	-45.0	-46.3	20.4	0.00e+00	0	41	0	423624704	61	4219
2026-01-30 03:15:08.94	10.32	23.20	-45.0	-46.3	20.3	0.00e+00	0	41	0	425721856	61	4227
2026-01-30 03:15:09.95	10.10	23.29	-44.6	-45.8	20.8	0.00e+00	0	41	0	427819008	61	3983
2026-01-30 03:15:10.95	9.89	23.39	-44.7	-46.0	20.6	0.00e+00	0	41	0	428867584	61	4075
2026-01-30 03:15:11.96	9.67	23.48	-45.1	-46.4	20.2	0.00e+00	0	41	0	430964736	61	4264
2026-01-30 03:15:12.97	9.46	23.58	-45.4	-46.8	19.9	0.00e+00	0	41	0	433061888	61	4467
2026-01-30 03:15:13.97	9.24	23.68	-45.2	-46.6	20.1	0.00e+00	0	41	0	435159040	61	4356
2026-01-30 03:15:14.98	9.02	23.77	-45.3	-46.7	19.9	0.00e+00	0	41	0	437256192	61	4420
2026-01-30 03:15:15.99	8.80	23.87	-45.0	-46.3	20.3	0.00e+00	0	41	0	438304768	61	4219
2026-01-30 03:15:17.00	8.58	23.96	-45.0	-46.3	20.3	0.00e+00	0	41	0	440401920	61	4240
2026-01-30 03:15:18.01	8.35	24.06	-45.3	-46.8	19.9	0.00e+00	0	41	0	442499072	61	4457
2026-01-30 03:15:19.01	8.13	24.16	-45.4	-46.8	19.9	0.00e+00	0	41	0	444596224	61	4485
2026-01-30 03:15:20.02	7.90	24.25	-45.5	-47.0	19.7	0.00e+00	0	41	0	446693376	61	4590
2026-01-30 03:15:21.03	7.67	24.35	-45.5	-47.0	19.8	0.00e+00	0	41	0	447741952	62	4302
2026-01-30 03:15:22.03	7.45	24.44	-45.8	-47.3	19.6	0.00e+00	0	41	0	449839104	62	4448
2026-01-30 03:15:23.05	7.21	24.54	-45.9	-47.4	19.4	0.00e+00	0	41	0	451936256	62	4541
2026-01-30 03:15:24.05	6.98	24.63	-45.9	-47.4	19.4	0.00e+00	0	41	0	454033408	62	4518
2026-01-30 03:15:25.06	6.75	24.73	-45.7	-47.2	19.7	0.00e+00	0	41	0	456130560	62	4409
2026-01-30 03:15:26.06	6.52	24.82	-45.7	-47.2	19.5	0.00e+00	0	41	0	457179136	62	4425
2026-01-30 03:15:27.06	6.28	24.91	-45.5	-46.9	19.8	0.00e+00	0	41	0	459276288	62	4287
2026-01-30 03:15:28.07	6.04	25.01	-45.1	-46.4	20.3	0.00e+00	0	41	0	461373440	62	4029
2026-01-30 03:15:29.08	5.80	25.10	-44.7	-46.0	20.7	0.00e+00	0	41	0	463470592	61	4057
2026-01-30 03:15:30.08	5.57	25.19	-44.6	-45.8	20.9	0.00e+00	0	41	0	465567744	60	4207
2026-01-30 03:15:31.09	5.32	25.29	-44.5	-45.7	20.9	0.00e+00	0	41	0	466616320	60	4182
2026-01-30 03:15:32.10	5.08	25.38	-44.7	-46.0	20.7	0.00e+00	0	41	0	468713472	60	4307
2026-01-30 03:15:33.11	4.83	25.47	-44.6	-45.9	20.7	0.00e+00	0	41	0	470810624	60	4261
2026-01-30 03:15:34.11	4.59	25.57	-44.2	-45.4	21.2	0.00e+00	0	41	0	472907776	60	4025
2026-01-30 03:15:35.12	4.34	25.66	-44.2	-45.4	21.4	0.00e+00	0	41	0	475004928	59	4258
2026-01-30 03:15:36.13	4.09	25.75	-44.0	-45.1	21.7	0.00e+00	0	41	0	476053504	59	4143
2026-01-30 03:15:37.13	3.84	25.84	-43.8	-44.9	21.9	0.00e+00	0	41	0	478150656	59	4012
2026-01-30 03:15:38.14	3.59	25.93	-43.8	-45.0	21.8	0.00e+00	0	41	0	480247808	59	4061
2026-01-30 03:15:39.15	3.34	26.02	-44.1	-45.3	21.5	0.00e+00	0	41	0	482344960	59	4231
2026-01-30 03:15:40.16	3.08	26.12	-44.6	-45.9	21.0	0.00e+00	0	41	0	484442112	59	4520
2026-01-30 03:15:41.17	2.82	26.21	-44.5	-45.8	21.1	0.00e+00	0	41	0	485490688	59	4469
2026-01-30 03:15:42.18	2.57	26.30	-44.5	-45.8	21.1	0.00e+00	0	41	0	487587840	59	4460
2026-01-30 03:15:43.19	2.31	26.39	-44.5	-45.7	21.1	0.00e+00	0	41	0	489684992	59	4421
2026-01-30 03:15:44.20	2.04	26.48	-44.5	-45.7	21.1	0.00e+00	0	41	0	491782144	59	4423
2026-01-30 03:15:45.21	1.78	26.57	-44.6	-45.8	21.0	0.00e+00	0	41	0	493879296	59	4479
2026-01-30 03:15:46.21	1.52	26.65	-44.8	-46.2	20.5	0.00e+00	0	41	0	494927872	60	4422
2026-01-30 03:15:47.22	1.25	26.74	-45.2	-46.7	20.1	0.00e+00	0	41	0	497025024	60	4665
2026-01-30 03:15:48.23	0.99	26.83	-45.3	-46.8	20.0	0.00e+00	0	41	0	499122176	61	4478
2026-01-30 03:15:49.23	0.72	26.92	-45.5	-47.0	19.8	0.00e+00	0	41	0	501219328	61	4550
2026-01-30 03:15:50.24	0.45	27.00	-45.1	-46.5	20.2	0.00e+00	0	41	0	503316480	61	4317
2026-01-30 03:15:51.25	0.18	27.09	-44.9	-46.2	20.5	0.00e+00	0	41	0	504365056	61	4186
2026-01-30 03:15:52.26	359.90	27.18	-45.0	-46.3	20.4	0.00e+00	0	41	0	506462208	61	4224
2026-01-30 03:15:53.27	359.63	27.26	-45.3	-46.7	20.1	0.00e+00	0	41	0	508559360	61	4408
2026-01-30 03:15:54.28	359.35	27.35	-45.3	-46.8	20.0	0.00e+00	0	41	0	510656512	61	4448
2026-01-30 03:15:55.29	359.07	27.43	-45.5	-47.0	19.8	0.00e+00	0	41	0	512753664	61	4579
2026-01-30 03:15:56.30	358.79	27.52	-45.1	-46.4	20.3	0.00e+00	0	41	0	513802240	61	4271
2026-01-30 03:15:57.30	358.52	27.60	-44.9	-46.2	20.5	0.00e+00	0	41	0	515899392	61	4187
2026-01-30 03:15:58.31	358.23	27.69	-44.9	-46.2	20.5	0.00e+00	0	41	0	517996544	61	4156
2026-01-30 03:15:59.32	357.95	27.77	-44.9	-46.2	20.4	0.00e+00	0	41	0	520093696	61	4174
2026-01-30 03:16:00.33	357.66	27.85	-45.2	-46.6	20.1	0.00e+00	0	41	0	522190848	61	4380
2026-01-30 03:16:01.33	357.38	27.93	-45.4	-46.8	20.0	0.00e+00	0	41	0	524288000	61	4468
2026-01-30 03:16:02.34	357.09	28.01	-45.2	-46.6	20.1	0.00e+00	0	41	0	525336576	61	4342
2026-01-30 03:16:03.34	356.80	28.09	-44.6	-45.9	20.7	0.00e+00	0	41	0	527433728	61	4011
2026-01-30 03:16:04.35	356.51	28.17	-44.7	-46.0	20.6	0.00e+00	0	41	0	529530880	61	4077
2026-01-30 03:16:05.36	356.22	28.25	-45.0	-46.4	20.2	0.00e+00	0	41	0	531628032	61	4266
2026-01-30 03:16:06.36	355.93	28.33	-45.8	-47.4	19.4	0.00e+00	0	41	0	532676608	62	4516
2026-01-30 03:16:07.36	355.64	28.41	-46.4	-48.2	18.6	0.00e+00	0	41	0	534773760	63	4675
2026-01-30 03:16:08.37	355.34	28.49	-46.8	-48.8	18.1	0.00e+00	0	41	0	536870912	64	4714
2026-01-30 03:16:09.38	355.04	28.56	-47.1	-49.1	17.7	0.00e+00	0	41	0	538968064	65	4639
2026-01-30 03:16:10.38	354.74	28.64	-47.1	-49.1	17.8	0.00e+00	0	41	0	541065216	65	4615
2026-01-30 03:16:11.39	354.44	28.72	-47.4	-49.6	17.4	0.00e+00	0	41	0	542113792	65	4882
2026-01-30 03:16:12.40	354.14	28.79	-47.3	-49.4	17.5	0.00e+00	0	41	0	544210944	65	4793
2026-01-30 03:16:13.41	353.83	28.86	-47.1	-49.1	17.8	0.00e+00	0	41	0	546308096	65	4600
2026-01-30 03:16:14.42	353.53	28.94	-46.7	-48.6	18.3	0.00e+00	0	41	0	548405248	65	4358
2026-01-30 03:16:15.43	353.22	29.01	-46.8	-48.6	18.3	0.00e+00	0	41	0	550502400	65	4366
2026-01-30 03:16:16.44	352.91	29.08	-46.1	-47.7	19.1	0.00e+00	0	41	0	552599552	64	4188
2026-01-30 03:16:17.44	352.61	29.15	-45.6	-47.1	19.8	0.00e+00	0	41	0	553648128	63	4125
2026-01-30 03:16:18.45	352.29	29.22	-45.3	-46.6	20.2	0.00e+00	0	41	0	555745280	62	4144
2026-01-30 03:16:19.46	351.98	29.29	-45.1	-46.4	20.3	0.00e+00	0	41	0	557842432	62	4036
2026-01-30 03:16:20.47	351.67	29.36	-45.4	-46.8	19.9	0.00e+00	0	41	0	559939584	62	4240
2026-01-30 03:16:21.47	351.36	29.43	-45.5	-47.0	19.8	0.00e+00	0	41	0	560988160	62	4295
2026-01-30 03:16:22.48	351.04	29.50	-45.5	-46.9	19.9	0.00e+00	0	41	0	563085312	62	4283
2026-01-30 03:16:23.49	350.72	29.57	-45.2	-46.6	20.1	0.00e+00	0	41	0	565182464	62	4133
2026-01-30 03:16:24.49	350.40	29.63	-45.3	-46.7	20.1	0.00e+00	0	41	0	567279616	62	4167
2026-01-30 03:16:25.50	350.08	29.70	-45.5	-46.9	19.9	0.00e+00	0	41	0	569376768	62	4291
2026-01-30 03:16:26.51	349.76	29.76	-45.8	-47.3	19.5	0.00e+00	0	41	0	570425344	62	4486
2026-01-30 03:16:27.52	349.44	29.82	-45.9	-47.5	19.3	0.00e+00	0	41	0	572522496	62	4587
2026-01-30 03:16:28.53	349.11	29.88	-46.3	-48.0	18.9	0.00e+00	0	41	0	574619648	63	4548
2026-01-30 03:16:29.53	348.79	29.95	-45.8	-47.4	19.4	0.00e+00	0	41	0	576716800	63	4272
2026-01-30 03:16:30.54	348.46	30.01	-45.6	-47.2	19.6	0.00e+00	0	41	0	578813952	63	4147
2026-01-30 03:16:31.55	348.14	30.07	-45.6	-47.1	19.7	0.00e+00	0	41	0	580911104	63	4131
2026-01-30 03:16:32.56	347.81	30.12	-46.0	-47.6	19.1	0.00e+00	0	41	0	581959680	63	4384
2026-01-30 03:16:33.57	347.48	30.18	-46.0	-47.6	19.2	0.00e+00	0	41	0	584056832	63	4383
2026-01-30 03:16:34.58	347.14	30.24	-46.0	-47.7	19.2	0.00e+00	0	41	0	586153984	63	4404
2026-01-30 03:16:35.59	346.81	30.29	-45.5	-47.0	19.9	0.00e+00	0	41	0	588251136	63	4054
2026-01-30 03:16:36.59	346.48	30.35	-45.0	-46.3	20.5	0.00e+00	0	41	0	589299712	62	3995
2026-01-30 03:16:37.61	346.14	30.40	-45.0	-46.4	20.4	0.00e+00	0	41	0	591396864	61	4254
2026-01-30 03:16:38.61	345.81	30.46	-45.4	-46.8	20.0	0.00e+00	0	41	0	593494016	61	4453
2026-01-30 03:16:39.62	345.47	30.51	-46.2	-47.9	19.1	0.00e+00	0	41	0	595591168	62	4765
2026-01-30 03:16:40.63	345.13	30.56	-45.9	-47.4	19.4	0.00e+00	0	41	0	597688320	63	4257
2026-01-30 03:16:41.64	344.79	30.61	-45.7	-47.3	19.6	0.00e+00	0	41	0	599785472	63	4194
2026-01-30 03:16:42.64	344.45	30.66	-45.1	-46.5	20.2	0.00e+00	0	41	0	600834048	62	4061
2026-01-30 03:16:43.65	344.11	30.70	-44.8	-46.1	20.5	0.00e+00	0	41	0	602931200	61	4129
2026-01-30 03:16:44.66	343.77	30.75	-44.7	-45.9	20.8	0.00e+00	0	41	0	605028352	61	4047
2026-01-30 03:16:45.66	343.43	30.79	-44.8	-46.1	20.7	0.00e+00	0	41	0	607125504	60	4367
2026-01-30 03:16:46.67	343.08	30.84	-44.9	-46.2	20.6	0.00e+00	0	41	0	609222656	60	4407
2026-01-30 03:16:47.68	342.74	30.88	-45.2	-46.5	20.3	0.00e+00	0	41	0	610271232	61	4339
2026-01-30 03:16:48.69	342.39	30.92	-45.3	-46.7	20.2	0.00e+00	0	41	0	612368384	61	4397
2026-01-30 03:16:49.71	342.04	30.96	-45.0	-46.3	20.6	0.00e+00	0	41	0	614465536	61	4200
2026-01-30 03:16:50.71	341.70	31.00	-44.9	-46.2	20.7	0.00e+00	0	41	0	616562688	61	4162
2026-01-30 03:16:51.72	341.35	31.04	-45.3	-46.7	20.1	0.00e+00	0	41	0	617611264	61	4425
2026-01-30 03:16:52.73	341.00	31.08	-45.9	-47.5	19.6	0.00e+00	0	41	0	619708416	62	4573
2026-01-30 03:16:53.74	340.65	31.12	-46.3	-48.1	18.9	0.00e+00	0	41	0	621805568	63	4601
2026-01-30 03:16:54.75	340.29	31.15	-46.6	-48.4	18.7	0.00e+00	0	41	0	623902720	63	4772
2026-01-30 03:16:55.76	339.94	31.19	-46.5	-48.3	18.7	0.00e+00	0	41	0	625999872	63	4737
2026-01-30 03:16:56.76	339.59	31.22	-46.4	-48.1	18.8	0.00e+00	0	41	0	628097024	63	4646
2026-01-30 03:16:57.77	339.24	31.25	-46.1	-47.7	19.2	0.00e+00	0	41	0	629145600	63	4423
2026-01-30 03:16:58.78	338.88	31.28	-45.8	-47.4	19.6	0.00e+00	0	41	0	631242752	63	4263
2026-01-30 03:16:59.79	338.53	31.31	-45.8	-47.4	19.7	0.00e+00	0	41	0	633339904	63	4256
2026-01-30 03:17:00.79	338.18	31.34	-46.1	-47.7	19.4	0.00e+00	0	41	0	635437056	63	4399
2026-01-30 03:17:01.80	337.82	31.36	-46.0	-47.6	19.4	0.00e+00	0	41	0	637534208	63	4358
2026-01-30 03:17:02.81	337.46	31.39	-46.1	-47.6	19.3	0.00e+00	0	41	0	638582784	63	4389
2026-01-30 03:17:03.81	337.11	31.41	-45.9	-47.5	19.4	0.00e+00	0	41	0	640679936	63	4292
2026-01-30 03:17:04.82	336.75	31.44	-45.4	-46.8	20.1	0.00e+00	0	41	0	642777088	62	4228
2026-01-30 03:17:05.83	336.39	31.46	-45.3	-46.7	20.2	0.00e+00	0	41	0	644874240	62	4171
2026-01-30 03:17:06.83	336.04	31.48	-45.4	-46.8	20.2	0.00e+00	0	41	0	646971392	62	4203
2026-01-30 03:17:07.84	335.68	31.50	-45.3	-46.7	20.3	0.00e+00	0	41	0	648019968	62	4162
2026-01-30 03:17:08.85	335.32	31.52	-45.7	-47.1	19.9	0.00e+00	0	41	0	650117120	62	4381
2026-01-30 03:17:09.86	334.96	31.53	-45.8	-47.4	19.6	0.00e+00	0	41	0	652214272	62	4495
2026-01-30 03:17:10.87	334.60	31.55	-46.0	-47.6	19.4	0.00e+00	0	41	0	654311424	62	4641
2026-01-30 03:17:11.87	334.24	31.56	-46.2	-47.8	19.2	0.00e+00	0	41	0	656408576	63	4456
2026-01-30 03:17:12.88	333.88	31.57	-46.2	-47.7	19.3	0.00e+00	0	41	0	657457152	63	4429
2026-01-30 03:17:13.89	333.52	31.59	-46.2	-47.7	19.3	0.00e+00	0	41	0	659554304	63	4430
2026-01-30 03:17:14.89	333.16	31.60	-45.9	-47.4	19.5	0.00e+00	0	41	0	661651456	63	4253
2026-01-30 03:17:15.90	332.80	31.61	-45.9	-47.4	19.6	0.00e+00	0	41	0	663748608	63	4250
2026-01-30 03:17:16.91	332.43	31.61	-46.0	-47.5	19.4	0.00e+00	0	41	0	665845760	63	4320
2026-01-30 03:17:17.91	332.08	31.62	-45.8	-47.3	19.7	0.00e+00	0	41	0	666894336	63	4198
2026-01-30 03:17:18.92	331.71	31.63	-45.8	-47.4	19.6	0.00e+00	0	41	0	668991488	63	4243
2026-01-30 03:17:19.93	331.35	31.63	-45.8	-47.4	19.6	0.00e+00	0	41	0	671088640	63	4245
2026-01-30 03:17:20.94	330.99	31.63	-45.9	-47.4	19.6	0.00e+00	0	41	0	673185792	63	4255
2026-01-30 03:17:21.95	330.63	31.63	-46.1	-47.6	19.4	0.00e+00	0	41	0	675282944	63	4385
2026-01-30 03:17:22.96	330.26	31.63	-46.3	-47.9	19.2	0.00e+00	0	41	0	676331520	63	4519
2026-01-30 03:17:23.96	329.90	31.63	-46.4	-48.1	19.0	0.00e+00	0	41	0	678428672	63	4619
2026-01-30 03:17:24.98	329.54	31.63	-46.2	-47.8	19.2	0.00e+00	0	41	0	680525824	63	4457
2026-01-30 03:17:25.98	329.18	31.63	-46.4	-48.0	18.9	0.00e+00	0	41	0	682622976	63	4577
2026-01-30 03:17:26.98	328.82	31.62	-46.2	-47.8	19.2	0.00e+00	0	41	0	684720128	63	4480
2026-01-30 03:17:27.99	328.46	31.61	-46.4	-48.0	19.1	0.00e+00	0	41	0	685768704	63	4568
2026-01-30 03:17:29.00	328.09	31.61	-46.3	-48.0	18.9	0.00e+00	0	41	0	687865856	64	4306
2026-01-30 03:17:30.01	327.73	31.60	-46.3	-47.9	19.1	0.00e+00	0	41	0	689963008	64	4250
2026-01-30 03:17:31.01	327.37	31.59	-45.9	-47.3	19.6	0.00e+00	0	41	0	692060160	63	4235
2026-01-30 03:17:32.02	327.01	31.58	-45.5	-46.9	20.0	0.00e+00	0	41	0	694157312	62	4274
2026-01-30 03:17:33.03	326.65	31.56	-45.1	-46.4	20.5	0.00e+00	0	41	0	696254464	62	4033
2026-01-30 03:17:34.04	326.29	31.55	-45.1	-46.4	20.5	0.00e+00	0	41	0	697303040	61	4253
2026-01-30 03:17:35.04	325.93	31.53	-45.0	-46.3	20.6	0.00e+00	0	41	0	699400192	61	4231
2026-01-30 03:17:36.05	325.57	31.52	-45.7	-47.2	19.9	0.00e+00	0	41	0	701497344	61	4657
2026-01-30 03:17:37.06	325.21	31.50	-46.3	-47.9	19.2	0.00e+00	0	41	0	703594496	63	4527
2026-01-30 03:17:38.07	324.85	31.48	-46.8	-48.6	18.5	0.00e+00	0	41	0	704643072	64	4602
2026-01-30 03:17:39.08	324.49	31.46	-46.4	-48.0	19.0	0.00e+00	0	41	0	706740224	64	4332
2026-01-30 03:17:40.08	324.14	31.44	-46.2	-47.7	19.3	0.00e+00	0	41	0	708837376	63	4436
2026-01-30 03:17:41.09	323.78	31.41	-45.8	-47.2	19.9	0.00e+00	0	41	0	710934528	63	4161
2026-01-30 03:17:42.09	323.43	31.39	-46.0	-47.5	19.6	0.00e+00	0	41	0	713031680	63	4317
2026-01-30 03:17:43.10	323.07	31.36	-45.6	-47.0	20.0	0.00e+00	0	41	0	714080256	63	4076
2026-01-30 03:17:44.11	322.71	31.34	-45.8	-47.3	19.8	0.00e+00	0	41	0	716177408	63	4210
2026-01-30 03:17:45.11	322.36	31.31	-46.1	-47.7	19.5	0.00e+00	0	41	0	718274560	63	4413
2026-01-30 03:17:46.12	322.01	31.28	-46.6	-48.3	18.7	0.00e+00	0	41	0	720371712	64	4484
2026-01-30 03:17:47.13	321.65	31.25	-46.2	-47.8	19.2	0.00e+00	0	41	0	722468864	64	4226
2026-01-30 03:17:48.13	321.30	31.22	-45.9	-47.3	19.7	0.00e+00	0	41	0	724566016	63	4235
2026-01-30 03:17:49.14	320.95	31.19	-45.6	-47.0	20.0	0.00e+00	0	41	0	725614592	63	4076
2026-01-30 03:17:50.15	320.59	31.15	-45.8	-47.3	19.8	0.00e+00	0	41	0	727711744	63	4222
2026-01-30 03:17:51.15	320.25	31.12	-45.9	-47.4	19.7	0.00e+00	0	41	0	729808896	62	4496
2026-01-30 03:17:52.16	319.90	31.08	-46.1	-47.7	19.5	0.00e+00	0	41	0	731906048	62	4653
2026-01-30 03:17:53.17	319.54	31.04	-46.7	-48.5	18.6	0.00e+00	0	41	0	732954624	64	4568
2026-01-30 03:17:54.17	319.20	31.01	-46.7	-48.5	18.5	0.00e+00	0	41	0	735051776	64	4584
2026-01-30 03:17:55.18	318.85	30.97	-46.7	-48.5	18.4	0.00e+00	0	41	0	737148928	64	4552
2026-01-30 03:17:56.19	318.50	30.92	-46.1	-47.7	19.3	0.00e+00	0	41	0	739246080	64	4159
2026-01-30 03:17:57.19	318.16	30.88	-45.9	-47.4	19.6	0.00e+00	0	41	0	741343232	63	4249
2026-01-30 03:17:58.19	317.82	30.84	-45.2	-46.6	20.3	0.00e+00	0	41	0	742391808	62	4116
2026-01-30 03:17:59.20	317.47	30.80	-44.6	-45.9	21.0	0.00e+00	0	41	0	744488960	61	4019
2026-01-30 03:18:00.21	317.13	30.75	-44.9	-46.2	20.7	0.00e+00	0	41	0	746586112	61	4181
2026-01-30 03:18:01.22	316.78	30.70	-45.0	-46.3	20.7	0.00e+00	0	41	0	748683264	61	4210
2026-01-30 03:18:02.23	316.44	30.66	-44.8	-46.1	20.8	0.00e+00	0	41	0	750780416	61	4131
2026-01-30 03:18:03.24	316.10	30.61	-44.8	-46.1	20.8	0.00e+00	0	41	0	752877568	61	4110
2026-01-30 03:18:04.25	315.76	30.56	-45.1	-46.5	20.5	0.00e+00	0	41	0	753926144	61	4297
2026-01-30 03:18:05.25	315.43	30.51	-45.5	-46.9	20.1	0.00e+00	0	41	0	756023296	61	4525
2026-01-30 03:18:06.26	315.09	30.46	-46.0	-47.5	19.6	0.00e+00	0	41	0	758120448	62	4577
2026-01-30 03:18:07.27	314.75	30.40	-46.1	-47.6	19.5	0.00e+00	0	41	0	760217600	62	4641
2026-01-30 03:18:08.28	314.42	30.35	-45.7	-47.2	19.9	0.00e+00	0	41	0	761266176	62	4410
2026-01-30 03:18:09.28	314.08	30.30	-45.5	-46.9	20.1	0.00e+00	0	41	0	763363328	62	4266
2026-01-30 03:18:10.29	313.75	30.24	-45.0	-46.3	20.6	0.00e+00	0	41	0	765460480	62	3989
2026-01-30 03:18:11.30	313.42	30.18	-44.9	-46.1	20.8	0.00e+00	0	41	0	767557632	61	4138
2026-01-30 03:18:12.31	313.09	30.13	-44.9	-46.2	20.8	0.00e+00	0	41	0	769654784	61	4148
2026-01-30 03:18:13.31	312.76	30.07	-45.4	-46.7	20.3	0.00e+00	0	41	0	770703360	61	4431
2026-01-30 03:18:14.32	312.43	30.01	-45.2	-46.5	20.5	0.00e+00	0	41	0	772800512	61	4317
2026-01-30 03:18:15.33	312.11	29.95	-45.2	-46.5	20.5	0.00e+00	0	41	0	774897664	61	4327
2026-01-30 03:18:16.33	311.78	29.89	-45.4	-46.7	20.3	0.00e+00	0	41	0	776994816	61	4418
2026-01-30 03:18:17.34	311.46	29.83	-45.7	-47.1	19.9	0.00e+00	0	41	0	779091968	62	4384
2026-01-30 03:18:18.35	311.13	29.76	-45.7	-47.2	19.9	0.00e+00	0	41	0	781189120	62	4395
2026-01-30 03:18:19.36	310.81	29.70	-46.1	-47.6	19.6	0.00e+00	0	41	0	782237696	63	4368
2026-01-30 03:18:20.36	310.49	29.63	-46.1	-47.6	19.6	0.00e+00	0	41	0	784334848	63	4387
2026-01-30 03:18:21.37	310.17	29.57	-46.3	-47.9	19.3	0.00e+00	0	41	0	786432000	63	4514
2026-01-30 03:18:22.38	309.86	29.50	-46.4	-48.0	19.2	0.00e+00	0	41	0	788529152	63	4553
2026-01-30 03:18:23.39	309.54	29.43	-46.4	-48.0	19.1	0.00e+00	0	41	0	789577728	63	4572
2026-01-30 03:18:24.40	309.22	29.37	-46.4	-47.9	19.2	0.00e+00	0	41	0	791674880	63	4536
2026-01-30 03:18:25.40	308.91	29.30	-46.5	-48.0	19.1	0.00e+00	0	41	0	793772032	63	4596
2026-01-30 03:18:26.41	308.60	29.23	-47.1	-48.9	18.2	0.00e+00	0	41	0	795869184	64	4810
2026-01-30 03:18:27.42	308.29	29.16	-47.5	-49.5	17.6	0.00e+00	0	41	0	797966336	65	4846
2026-01-30 03:18:28.43	307.98	29.09	-47.6	-49.7	17.3	0.00e+00	0	41	0	799014912	65	4941
2026-01-30 03:18:29.43	307.67	29.01	-47.8	-49.9	17.2	0.00e+00	0	41	0	801112064	66	4802
2026-01-30 03:18:30.44	307.36	28.94	-47.9	-50.1	17.1	0.00e+00	0	41	0	803209216	66	4873
2026-01-30 03:18:31.45	307.06	28.87	-47.7	-49.8	17.5	0.00e+00	0	41	0	805306368	66	4713
2026-01-30 03:18:32.45	306.75	28.79	-47.6	-49.6	17.6	0.00e+00	0	41	0	807403520	66	4626
2026-01-30 03:18:33.46	306.45	28.72	-47.0	-48.8	18.3	0.00e+00	0	41	0	809500672	65	4492
2026-01-30 03:18:34.47	306.15	28.64	-47.1	-49.0	18.0	0.00e+00	0	41	0	810549248	65	4585
2026-01-30 03:18:35.47	305.85	28.57	-46.9	-48.7	18.3	0.00e+00	0	41	0	812646400	65	4423
2026-01-30 03:18:36.48	305.55	28.49	-47.1	-49.0	18.1	0.00e+00	0	41	0	814743552	65	4549
2026-01-30 03:18:37.48	305.26	28.41	-47.1	-49.1	18.1	0.00e+00	0	41	0	816840704	65	4615
2026-01-30 03:18:38.49	304.96	28.33	-46.7	-48.5	18.5	0.00e+00	0	41	0	817889280	65	4292
2026-01-30 03:18:39.50	304.67	28.26	-46.1	-47.7	19.4	0.00e+00	0	41	0	819986432	64	4149
2026-01-30 03:18:40.50	304.38	28.18	-45.9	-47.4	19.8	0.00e+00	0	41	0	822083584	63	4265
2026-01-30 03:18:41.51	304.09	28.10	-45.5	-46.8	20.1	0.00e+00	0	41	0	824180736	63	4000
2026-01-30 03:18:42.52	303.80	28.02	-45.2	-46.5	20.5	0.00e+00	0	41	0	826277888	62	4061
2026-01-30 03:18:43.53	303.51	27.93	-44.6	-45.8	21.2	0.00e+00	0	41	0	828375040	61	3973
2026-01-30 03:18:44.53	303.22	27.85	-44.5	-45.7	21.2	0.00e+00	0	41	0	829423616	60	4171
2026-01-30 03:18:45.54	302.94	27.77	-44.6	-45.9	21.0	0.00e+00	0	41	0	831520768	60	4248
2026-01-30 03:18:46.54	302.65	27.69	-44.8	-46.1	20.7	0.00e+00	0	41	0	833617920	60	4352
2026-01-30 03:18:47.55	302.37	27.60	-44.7	-46.0	21.0	0.00e+00	0	41	0	835715072	60	4306
2026-01-30 03:18:48.56	302.09	27.52	-44.5	-45.7	21.2	0.00e+00	0	41	0	837812224	60	4154
2026-01-30 03:18:49.56	301.81	27.44	-44.5	-45.7	21.2	0.00e+00	0	41	0	838860800	60	4158
2026-01-30 03:18:50.57	301.53	27.35	-44.8	-46.1	20.8	0.00e+00	0	41	0	840957952	60	4350
2026-01-30 03:18:51.58	301.26	27.27	-45.4	-46.8	20.3	0.00e+00	0	41	0	843055104	61	4458
2026-01-30 03:18:52.58	300.98	27.18	-45.8	-47.3	19.8	0.00e+00	0	41	0	845152256	62	4461
2026-01-30 03:18:53.59	300.71	27.09	-45.6	-46.9	20.1	0.00e+00	0	41	0	846200832	62	4291
2026-01-30 03:18:54.60	300.44	27.01	-44.8	-46.0	20.9	0.00e+00	0	41	0	848297984	61	4076
2026-01-30 03:18:55.61	300.17	26.92	-44.5	-45.7	21.2	0.00e+00	0	41	0	850395136	61	3951
2026-01-30 03:18:56.61	299.90	26.83	-44.8	-46.1	20.8	0.00e+00	0	41	0	852492288	61	4121
2026-01-30 03:18:57.62	299.63	26.74	-45.6	-47.1	20.0	0.00e+00	0	41	0	854589440	61	4613
2026-01-30 03:18:58.63	299.37	26.66	-46.6	-48.3	19.0	0.00e+00	0	41	0	855638016	63	4752
2026-01-30 03:18:59.63	299.10	26.57	-47.5	-49.6	17.6	0.00e+00	0	41	0	857735168	65	4906
2026-01-30 03:19:00.64	298.84	26.48	-47.4	-49.4	17.7	0.00e+00	0	41	0	859832320	65	4814
2026-01-30 03:19:01.65	298.58	26.39	-47.6	-49.6	17.6	0.00e+00	0	41	0	861929472	65	4883
2026-01-30 03:19:02.66	298.32	26.30	-47.1	-48.9	18.2	0.00e+00	0	41	0	864026624	65	4544
2026-01-30 03:19:03.66	298.06	26.21	-47.1	-48.9	18.3	0.00e+00	0	41	0	866123776	65	4497
2026-01-30 03:19:04.67	297.80	26.12	-46.0	-47.5	19.5	0.00e+00	0	41	0	867172352	63	4301
2026-01-30 03:19:05.68	297.55	26.03	-45.4	-46.8	20.2	0.00e+00	0	41	0	869269504	62	4199
2026-01-30 03:19:06.69	297.29	25.94	-45.2	-46.6	20.5	0.00e+00	0	41	0	871366656	62	4104
2026-01-30 03:19:07.69	297.04	25.84	-45.1	-46.4	20.7	0.00e+00	0	41	0	873463808	61	4257
2026-01-30 03:19:08.70	296.79	25.75	-44.8	-46.0	21.0	0.00e+00	0	41	0	874512384	61	4073
2026-01-30 03:19:09.70	296.54	25.66	-44.6	-45.8	21.1	0.00e+00	0	41	0	876609536	61	3998
2026-01-30 03:19:10.71	296.29	25.57	-44.2	-45.3	21.5	0.00e+00	0	41	0	878706688	60	3997
2026-01-30 03:19:11.72	296.05	25.48	-44.3	-45.4	21.7	0.00e+00	0	41	0	880803840	59	4277
2026-01-30 03:19:12.73	295.80	25.38	-44.0	-45.1	22.0	0.00e+00	0	41	0	882900992	59	4128
2026-01-30 03:19:13.74	295.56	25.29	-44.1	-45.1	22.0	0.00e+00	0	41	0	884998144	59	4144
2026-01-30 03:19:14.75	295.31	25.20	-44.3	-45.4	21.7	0.00e+00	0	41	0	886046720	59	4290
2026-01-30 03:19:15.76	295.07	25.10	-44.3	-45.5	21.7	0.00e+00	0	41	0	888143872	59	4315
2026-01-30 03:19:16.76	294.83	25.01	-44.2	-45.3	21.8	0.00e+00	0	41	0	890241024	59	4215
2026-01-30 03:19:17.77	294.60	24.91	-44.2	-45.4	21.8	0.00e+00	0	41	0	892338176	59	4256
2026-01-30 03:19:18.78	294.36	24.82	-44.3	-45.4	21.8	0.00e+00	0	41	0	894435328	59	4290
2026-01-30 03:19:19.78	294.13	24.73	-44.2	-45.4	21.8	0.00e+00	0	41	0	895483904	59	4247
2026-01-30 03:19:20.79	293.89	24.63	-44.2	-45.4	21.8	0.00e+00	0	41	0	897581056	59	4244
2026-01-30 03:19:21.79	293.66	24.54	-44.4	-45.5	21.6	0.00e+00	0	41	0	899678208	59	4340
2026-01-30 03:19:22.80	293.43	24.44	-44.6	-45.8	21.4	0.00e+00	0	41	0	901775360	59	4471
2026-01-30 03:19:23.81	293.20	24.35	-44.4	-45.6	21.3	0.00e+00	0	41	0	902823936	60	4128
2026-01-30 03:19:24.81	292.97	24.25	-44.6	-45.9	21.0	0.00e+00	0	41	0	904921088	60	4260
2026-01-30 03:19:25.82	292.74	24.16	-44.7	-45.9	21.0	0.00e+00	0	41	0	907018240	60	4285
2026-01-30 03:19:26.82	292.52	24.06	-44.8	-46.1	20.8	0.00e+00	0	41	0	909115392	60	4367
2026-01-30 03:19:27.83	292.30	23.97	-44.7	-46.0	20.9	0.00e+00	0	41	0	911212544	60	4319
2026-01-30 03:19:28.84	292.07	23.87	-44.6	-45.9	21.0	0.00e+00	0	41	0	913309696	60	4254
2026-01-30 03:19:29.85	291.85	23.77	-44.7	-46.0	21.0	0.00e+00	0	41	0	914358272	60	4307
2026-01-30 03:19:30.85	291.63	23.68	-44.6	-45.9	21.0	0.00e+00	0	41	0	916455424	60	4261
2026-01-30 03:19:31.86	291.41	23.58	-44.7	-45.9	21.0	0.00e+00	0	41	0	918552576	60	4284
2026-01-30 03:19:32.87	291.20	23.48	-44.5	-45.7	21.3	0.00e+00	0	41	0	920649728	60	4166
2026-01-30 03:19:33.88	290.98	23.39	-44.2	-45.4	21.4	0.00e+00	0	41	0	922746880	60	4028
2026-01-30 03:19:34.88	290.77	23.29	-44.1	-45.3	21.6	0.00e+00	0	41	0	923795456	60	3981
2026-01-30 03:19:35.89	290.55	23.20	-44.2	-45.4	21.8	0.00e+00	0	41	0	925892608	59	4245
2026-01-30 03:19:36.90	290.34	23.10	-44.0	-45.1	22.0	0.00e+00	0	41	0	927989760	59	4145
2026-01-30 03:19:37.91	290.13	23.00	-43.7	-44.8	22.3	0.00e+00	0	41	0	930086912	59	3985
2026-01-30 03:19:38.92	289.92	22.90	-43.8	-44.9	22.3	0.00e+00	0	41	0	931135488	59	4010
2026-01-30 03:19:39.93	289.71	22.81	-43.5	-44.5	22.4	0.00e+00	0	41	0	933232640	58	4065
2026-01-30 03:19:40.94	289.51	22.71	-43.4	-44.4	22.6	0.00e+00	0	41	0	935329792	58	4024
2026-01-30 03:19:41.94	289.30	22.61	-43.7	-44.8	22.3	0.00e+00	0	41	0	937426944	58	4222
2026-01-30 03:19:42.95	289.10	22.52	-44.1	-45.3	21.9	0.00e+00	0	41	0	939524096	58	4453
2026-01-30 03:19:43.96	288.89	22.42	-44.1	-45.3	21.9	0.00e+00	0	41	0	941621248	59	4200
2026-01-30 03:19:44.97	288.69	22.32	-44.6	-45.8	21.5	0.00e+00	0	41	0	942669824	59	4469
2026-01-30 03:19:45.97	288.49	22.23	-44.3	-45.5	21.6	0.00e+00	0	41	0	944766976	59	4326
2026-01-30 03:19:46.98	288.29	22.13	-44.2	-45.4	21.8	0.00e+00	0	41	0	946864128	59	4251
2026-01-30 03:19:47.99	288.10	22.03	-44.2	-45.3	21.9	0.00e+00	0	41	0	948961280	59	4227
2026-01-30 03:19:48.99	287.90	21.94	-44.2	-45.3	21.9	0.00e+00	0	41	0	951058432	59	4226
2026-01-30 03:19:50.00	287.71	21.84	-43.9	-45.0	22.1	0.00e+00	0	41	0	952107008	59	4093
2026-01-30 03:19:51.01	287.51	21.74	-44.0	-45.1	21.9	0.00e+00	0	41	0	954204160	59	4109
2026-01-30 03:19:52.01	287.32	21.65	-44.2	-45.4	21.8	0.00e+00	0	42	0	956301312	59	4258
2026-01-30 03:19:53.02	287.13	21.55	-44.1	-45.2	21.9	0.00e+00	0	41	0	958398464	59	4178
2026-01-30 03:19:54.03	286.94	21.45	-44.1	-45.3	21.8	0.00e+00	0	41	0	960495616	59	4203
2026-01-30 03:19:55.04	286.75	21.35	-44.2	-45.3	21.8	0.00e+00	0	41	0	961544192	59	4225
2026-01-30 03:19:56.05	286.56	21.26	-44.2	-45.3	21.8	0.00e+00	0	41	0	963641344	59	4225
2026-01-30 03:19:57.05	286.37	21.16	-44.1	-45.2	21.9	0.00e+00	0	41	0	965738496	59	4176
2026-01-30 03:19:58.06	286.19	21.06	-44.4	-45.5	21.7	0.00e+00	0	41	0	967835648	59	4331
2026-01-30 03:19:59.07	286.00	20.97	-44.3	-45.4	21.7	0.00e+00	0	41	0	969932800	59	4287
2026-01-30 03:20:00.07	285.82	20.87	-44.3	-45.5	21.6	0.00e+00	0	41	0	970981376	59	4309
2026-01-30 03:20:01.07	285.64	20.78	-44.0	-45.1	21.9	0.00e+00	0	41	0	973078528	59	4117
2026-01-30 03:20:02.08	285.46	20.68	-44.0	-45.1	21.9	0.00e+00	0	41	0	975175680	59	4137
2026-01-30 03:20:03.09	285.28	20.58	-43.7	-44.8	22.2	0.00e+00	0	41	0	977272832	59	3966
2026-01-30 03:20:04.10	285.10	20.49	-43.5	-44.6	22.4	0.00e+00	0	41	0	979369984	58	4108
2026-01-30 03:20:05.10	284.92	20.39	-43.4	-44.5	22.4	0.00e+00	0	41	0	980418560	58	4060
2026-01-30 03:20:06.11	284.75	20.29	-43.6	-44.6	22.3	0.00e+00	0	41	0	982515712	58	4132
2026-01-30 03:20:07.12	284.57	20.20	-43.9	-45.0	22.0	0.00e+00	0	41	0	984612864	58	4315
2026-01-30 03:20:08.13	284.40	20.10	-44.1	-45.3	21.7	0.00e+00	0	41	0	986710016	58	4451
2026-01-30 03:20:09.13	284.23	20.01	-44.7	-46.0	21.2	0.00e+00	0	41	0	988807168	59	4552
2026-01-30 03:20:10.13	284.06	19.91	-44.4	-45.6	21.1	0.00e+00	0	41	0	989855744	60	4144
2026-01-30 03:20:11.14	283.88	19.82	-44.7	-45.9	20.9	0.00e+00	0	41	0	991952896	60	4269
2026-01-30 03:20:12.15	283.71	19.72	-44.6	-45.8	21.0	0.00e+00	0	41	0	994050048	60	4214
2026-01-30 03:20:13.16	283.54	19.62	-44.5	-45.7	21.1	0.00e+00	0	41	0	996147200	60	4153
2026-01-30 03:20:14.17	283.38	19.53	-44.3	-45.4	21.3	0.00e+00	0	41	0	998244352	60	4043
2026-01-30 03:20:15.18	283.21	19.43	-44.3	-45.4	21.5	0.00e+00	0	41	0	999292928	59	4287
2026-01-30 03:20:16.18	283.05	19.34	-44.2	-45.3	21.7	0.00e+00	0	41	0	1001390080	59	4206
2026-01-30 03:20:17.19	282.88	19.24	-43.6	-44.7	22.2	0.00e+00	0	41	0	1003487232	59	3933
2026-01-30 03:20:18.20	282.72	19.15	-43.7	-44.8	22.2	0.00e+00	0	41	0	1005584384	59	3982
2026-01-30 03:20:19.20	282.56	19.05	-43.7	-44.8	22.2	0.00e+00	0	41	0	1007681536	59	3969
2026-01-30 03:20:20.21	282.39	18.96	-43.9	-44.9	22.0	0.00e+00	0	41	0	1008730112	59	4041
2026-01-30 03:20:21.22	282.23	18.86	-43.8	-44.9	22.1	0.00e+00	0	41	0	1010827264	59	4016
2026-01-30 03:20:22.23	282.07	18.77	-44.1	-45.2	21.8	0.00e+00	0	41	0	1012924416	59	4167
2026-01-30 03:20:23.23	281.92	18.68	-44.5	-45.7	21.4	0.00e+00	0	41	0	1015021568	59	4398
2026-01-30 03:20:24.24	281.76	18.58	-44.4	-45.6	21.2	0.00e+00	0	41	0	1017118720	60	4103
2026-01-30 03:20:25.24	281.60	18.49	-45.1	-46.4	20.4	0.00e+00	0	41	0	1018167296	60	4538
2026-01-30 03:20:26.25	281.45	18.39	-45.2	-46.6	20.3	0.00e+00	0	41	0	1020264448	61	4341
2026-01-30 03:20:27.26	281.29	18.30	-45.4	-46.8	20.0	0.00e+00	0	41	0	1022361600	61	4489
2026-01-30 03:20:28.27	281.14	18.21	-45.7	-47.2	19.8	0.00e+00	0	41	0	1024458752	61	4657
2026-01-30 03:20:29.28	280.99	18.11	-45.7	-47.2	19.8	0.00e+00	0	41	0	1026555904	62	4408
2026-01-30 03:20:30.29	280.83	18.02	-45.2	-46.6	20.3	0.00e+00	0	41	0	1027604480	62	4112
2026-01-30 03:20:31.29	280.68	17.93	-45.2	-46.5	20.4	0.00e+00	0	41	0	1029701632	62	4063
2026-01-30 03:20:32.29	280.54	17.83	-44.9	-46.2	20.6	0.00e+00	0	41	0	1031798784	61	4166
2026-01-30 03:20:33.30	280.39	17.74	-44.7	-45.9	20.8	0.00e+00	0	41	0	1033895936	61	4041
2026-01-30 03:20:34.31	280.24	17.65	-44.6	-45.9	20.8	0.00e+00	0	41	0	1035993088	61	4013
2026-01-30 03:20:35.32	280.09	17.55	-44.4	-45.6	21.1	0.00e+00	0	41	0	1037041664	60	4114
2026-01-30 03:20:36.33	279.95	17.46	-44.5	-45.7	20.9	0.00e+00	0	41	0	1039138816	60	4191
2026-01-30 03:20:37.34	279.80	17.37	-44.8	-46.1	20.6	0.00e+00	0	41	0	1041235968	60	4357
2026-01-30 03:20:38.35	279.66	17.28	-45.3	-46.7	20.0	0.00e+00	0	41	0	1043333120	61	4407
2026-01-30 03:20:39.36	279.51	17.18	-45.4	-46.8	20.0	0.00e+00	0	41	0	1045430272	61	4481
2026-01-30 03:20:40.37	279.37	17.09	-45.7	-47.2	19.7	0.00e+00	0	41	0	1046478848	61	4654
2026-01-30 03:20:41.37	279.23	17.00	-45.7	-47.2	19.7	0.00e+00	0	41	0	1048576000	62	4422
2026-01-30 03:20:42.38	279.09	16.91	-45.7	-47.1	19.7	0.00e+00	0	41	0	1050673152	62	4384
2026-01-30 03:20:43.39	278.95	16.82	-45.3	-46.7	20.1	0.00e+00	0	41	0	1052770304	62	4157
2026-01-30 03:20:44.39	278.81	16.73	-45.3	-46.8	20.0	0.00e+00	0	41	0	1054867456	62	4198
2026-01-30 03:20:45.40	278.67	16.64	-45.1	-46.5	20.2	0.00e+00	0	41	0	1055916032	62	4056
2026-01-30 03:20:46.40	278.54	16.55	-44.7	-46.0	20.7	0.00e+00	0	41	0	1058013184	61	4077
2026-01-30 03:20:47.41	278.40	16.45	-44.4	-45.7	21.0	0.00e+00	0	41	0	1060110336	60	4148
2026-01-30 03:20:48.41	278.26	16.36	-44.3	-45.6	21.0	0.00e+00	0	41	0	1062207488	60	4100
2026-01-30 03:20:49.42	278.13	16.27	-44.3	-45.5	21.0	0.00e+00	0	41	0	1064304640	60	4095
2026-01-30 03:20:50.43	277.99	16.18	-44.1	-45.3	21.2	0.00e+00	0	41	0	1065353216	60	4002
2026-01-30 03:20:51.44	277.86	16.09	-44.3	-45.5	21.0	0.00e+00	0	42	0	1067450368	60	4093
2026-01-30 03:20:52.44	277.73	16.00	-44.4	-45.6	21.0	0.00e+00	0	41	0	1069547520	60	4124
2026-01-30 03:20:53.45	277.60	15.91	-44.3	-45.5	21.0	0.00e+00	0	41	0	1071644672	60	4092
2026-01-30 03:20:54.46	277.47	15.82	-44.6	-45.9	20.7	0.00e+00	0	41	0	1073741824	60	4262
2026-01-30 03:20:55.46	277.34	15.74	-44.9	-46.2	20.4	0.00e+00	0	41	0	1074790400	60	4412
2026-01-30 03:20:56.47	277.21	15.65	-44.7	-46.0	20.6	0.00e+00	0	41	0	1076887552	60	4314
2026-01-30 03:20:57.48	277.08	15.56	-44.8	-46.1	20.5	0.00e+00	0	41	0	1078984704	60	4379
2026-01-30 03:20:58.49	276.95	15.47	-44.7	-46.0	20.6	0.00e+00	0	41	0	1081081856	60	4304
2026-01-30 03:20:59.49	276.83	15.38	-44.7	-46.0	20.6	0.00e+00	0	41	0	1083179008	60	4294
2026-01-30 03:21:00.50	276.70	15.29	-44.7	-45.9	20.7	0.00e+00	0	41	0	1084227584	60	4274
2026-01-30 03:21:01.50	276.58	15.20	-44.6	-45.8	20.8	0.00e+00	0	41	0	1086324736	60	4219
2026-01-30 03:21:02.51	276.45	15.12	-44.1	-45.3	21.2	0.00e+00	0	41	0	1088421888	60	3982
2026-01-30 03:21:03.51	276.33	15.03	-44.3	-45.6	21.0	0.00e+00	0	41	0	1090519040	60	4101
2026-01-30 03:21:04.52	276.21	14.94	-44.2	-45.4	21.2	0.00e+00	0	41	0	1092616192	60	4006
2026-01-30 03:21:05.52	276.08	14.85	-44.1	-45.3	21.1	0.00e+00	0	41	0	1093664768	60	3982
2026-01-30 03:21:06.53	275.96	14.77	-44.4	-45.6	20.9	0.00e+00	0	41	0	1095761920	60	4129
2026-01-30 03:21:07.53	275.84	14.68	-44.8	-46.1	20.5	0.00e+00	0	41	0	1097859072	60	4347
2026-01-30 03:21:08.54	275.72	14.59	-44.8	-46.1	20.4	0.00e+00	0	41	0	1099956224	60	4381
2026-01-30 03:21:09.55	275.60	14.51	-45.2	-46.6	20.1	0.00e+00	0	41	0	1102053376	60	4626
2026-01-30 03:21:10.55	275.49	14.42	-45.9	-47.5	19.2	0.00e+00	0	41	0	1103101952	62	4557
2026-01-30 03:21:11.56	275.37	14.33	-46.1	-47.7	19.0	0.00e+00	0	41	0	1105199104	62	4694
2026-01-30 03:21:12.57	275.25	14.25	-46.4	-48.2	18.6	0.00e+00	0	41	0	1107296256	63	4664
2026-01-30 03:21:13.57	275.13	14.16	-46.5	-48.3	18.3	0.00e+00	0	41	0	1109393408	64	4463
2026-01-30 03:21:14.58	275.02	14.07	-46.4	-48.2	18.5	0.00e+00	0	41	0	1111490560	64	4394
2026-01-30 03:21:15.59	274.90	13.99	-46.1	-47.8	18.8	0.00e+00	0	41	0	1112539136	64	4211
2026-01-30 03:21:16.59	274.79	13.90	-45.9	-47.4	19.2	0.00e+00	0	41	0	1114636288	63	4272
2026-01-30 03:21:17.60	274.67	13.82	-45.5	-46.9	19.7	0.00e+00	0	41	0	1116733440	62	4262
2026-01-30 03:21:18.61	274.56	13.73	-44.9	-46.2	20.3	0.00e+00	0	41	0	1118830592	61	4182
2026-01-30 03:21:19.62	274.45	13.65	-44.6	-45.9	20.6	0.00e+00	0	41	0	1120927744	61	4026
2026-01-30 03:21:20.62	274.34	13.56	-44.5	-45.7	20.8	0.00e+00	0	41	0	1121976320	60	4171
2026-01-30 03:21:21.63	274.23	13.48	-44.2	-45.4	21.0	0.00e+00	0	41	0	1124073472	60	4050
2026-01-30 03:21:22.63	274.12	13.39	-44.3	-45.5	20.9	0.00e+00	0	41	0	1126170624	60	4085
2026-01-30 03:21:23.63	274.01	13.31	-44.2	-45.4	21.0	0.00e+00	0	41	0	1128267776	60	4006
2026-01-30 03:21:24.64	273.90	13.23	-44.2	-45.4	21.0	0.00e+00	0	41	0	1130364928	60	4029
2026-01-30 03:21:25.64	273.79	13.14	-44.4	-45.6	20.8	0.00e+00	0	41	0	1131413504	60	4131
2026-01-30 03:21:26.65	273.68	13.06	-44.7	-46.0	20.4	0.00e+00	0	41	0	1133510656	60	4330
2026-01-30 03:21:27.66	273.57	12.98	-45.0	-46.4	20.2	0.00e+00	0	41	0	1135607808	60	4504
2026-01-30 03:21:28.67	273.47	12.89	-45.4	-46.9	19.6	0.00e+00	0	41	0	1137704960	61	4539
2026-01-30 03:21:29.68	273.36	12.81	-45.9	-47.5	19.1	0.00e+00	0	41	0	1139802112	62	4546
2026-01-30 03:21:30.69	273.26	12.73	-46.1	-47.8	18.8	0.00e+00	0	41	0	1140850688	62	4740
2026-01-30 03:21:31.69	273.15	12.64	-46.5	-48.3	18.4	0.00e+00	0	41	0	1142947840	63	4735
2026-01-30 03:21:32.70	273.05	12.56	-46.7	-48.4	18.3	0.00e+00	0	41	0	1145044992	63	4802
2026-01-30 03:21:33.71	272.94	12.48	-46.7	-48.5	18.2	0.00e+00	0	41	0	1147142144	64	4569
2026-01-30 03:21:34.71	272.84	12.40	-46.7	-48.4	18.2	0.00e+00	0	41	0	1149239296	64	4544
2026-01-30 03:21:35.72	272.74	12.31	-46.9	-48.7	18.0	0.00e+00	0	41	0	1150287872	64	4671
2026-01-30 03:21:36.73	272.64	12.23	-46.7	-48.5	18.2	0.00e+00	0	41	0	1152385024	64	4549
2026-01-30 03:21:37.73	272.53	12.15	-46.7	-48.4	18.2	0.00e+00	0	41	0	1154482176	64	4507
2026-01-30 03:21:38.74	272.43	12.07	-46.8	-48.5	18.1	0.00e+00	0	41	0	1156579328	64	4593
2026-01-30 03:21:39.75	272.33	11.99	-46.5	-48.2	18.4	0.00e+00	0	41	0	1158676480	64	4420
2026-01-30 03:21:40.76	272.23	11.91	-46.5	-48.1	18.5	0.00e+00	0	41	0	1159725056	64	4381
2026-01-30 03:21:41.77	272.13	11.83	-46.4	-48.0	18.6	0.00e+00	0	41	0	1161822208	64	4320
2026-01-30 03:21:42.77	272.04	11.75	-46.5	-48.1	18.4	0.00e+00	0	41	0	1163919360	64	4387
2026-01-30 03:21:43.78	271.94	11.66	-46.3	-47.9	18.6	0.00e+00	0	41	0	1166016512	64	4287
2026-01-30 03:21:44.79	271.84	11.58	-46.3	-47.9	18.7	0.00e+00	0	41	0	1168113664	64	4252
2026-01-30 03:21:45.79	271.74	11.50	-46.2	-47.7	18.8	0.00e+00	0	41	0	1169162240	64	4188
2026-01-30 03:21:46.80	271.65	11.42	-46.3	-47.9	18.7	0.00e+00	0	41	0	1171259392	64	4247
2026-01-30 03:21:47.80	271.55	11.34	-46.2	-47.8	18.8	0.00e+00	0	41	0	1173356544	64	4205
2026-01-30 03:21:48.81	271.46	11.26	-46.3	-47.9	18.6	0.00e+00	0	41	0	1175453696	64	4283
2026-01-30 03:21:49.82	271.36	11.18	-46.2	-47.8	18.7	0.00e+00	0	41	0	1177550848	64	4224
2026-01-30 03:21:50.83	271.27	11.11	-46.3	-48.0	18.6	0.00e+00	0	41	0	1178599424	64	4293
2026-01-30 03:21:51.83	271.18	11.03	-46.3	-47.9	18.5	0.00e+00	0	41	0	1180696576	64	4281
2026-01-30 03:21:52.84	271.08	10.95	-46.4	-48.0	18.4	0.00e+00	0	41	0	1182793728	64	4339
2026-01-30 03:21:53.85	270.99	10.87	-46.5	-48.2	18.3	0.00e+00	0	41	0	1184890880	64	4414
2026-01-30 03:21:54.86	270.90	10.79	-46.4	-48.1	18.3	0.00e+00	0	41	0	1186988032	64	4377
2026-01-30 03:21:55.86	270.81	10.71	-46.4	-48.0	18.4	0.00e+00	0	41	0	1188036608	64	4324
2026-01-30 03:21:56.87	270.71	10.63	-46.5	-48.2	18.2	0.00e+00	0	41	0	1190133760	64	4441
2026-01-30 03:21:57.87	270.62	10.56	-46.5	-48.3	18.2	0.00e+00	0	41	0	1192230912	64	4446
2026-01-30 03:21:58.88	270.53	10.48	-46.5	-48.2	18.2	0.00e+00	0	42	0	1194328064	64	4416
2026-01-30 03:21:59.89	270.44	10.40	-46.5	-48.2	18.2	0.00e+00	0	41	0	1196425216	64	4428
2026-01-30 03:22:00.90	270.36	10.32	-46.5	-48.2	18.2	0.00e+00	0	41	0	1197473792	64	4427
2026-01-30 03:22:01.90	270.27	10.25	-46.5	-48.3	18.0	0.00e+00	0	41	0	1199570944	64	4457
2026-01-30 03:22:02.91	270.18	10.17	-46.4	-48.1	18.1	0.00e+00	0	41	0	1201668096	64	4386
2026-01-30 03:22:03.91	270.09	10.09	-46.5	-48.3	17.9	0.00e+00	0	41	0	1203765248	64	4483
2026-01-30 03:22:04.92	270.00	10.01	-46.1	-47.8	18.3	0.00e+00	0	41	0	1205862400	64	4225
2026-01-30 03:22:05.93	269.92	9.94	-46.1	-47.8	18.1	0.00e+00	0	41	0	1206910976	64	4228
2026-01-30 03:22:06.94	269.83	9.86	-46.4	-48.2	17.8	0.00e+00	0	41	0	1209008128	64	4405
2026-01-30 03:22:07.95	269.75	9.78	-46.4	-48.2	17.6	0.00e+00	0	41	0	1211105280	64	4435
2026-01-30 03:22:08.95	269.66	9.71	-46.6	-48.6	17.2	0.00e+00	0	41	0	1213202432	64	4610
2026-01-30 03:22:09.96	269.58	9.63	-47.1	-49.3	16.3	0.00e+00	0	41	0	1215299584	64	5016
2026-01-30 03:22:10.96	269.49	9.56	-47.2	-49.6	15.9	0.00e+00	0	41	0	1216348160	65	4909
2026-01-30 03:22:11.97	269.41	9.48	-47.6	-50.2	15.2	0.00e+00	0	41	0	1218445312	65	5260
2026-01-30 03:22:12.98	269.32	9.41	-48.1	-51.2	14.1	0.00e+00	0	41	0	1220542464	66	5573
2026-01-30 03:22:13.98	269.24	9.33	-48.5	-52.1	13.1	7.60e-06	0	41	0	1222639616	67	5821
2026-01-30 03:22:14.99	269.16	9.26	-49.1	-53.2	11.9	1.16e-04	0	41	0	1224736768	68	6274
2026-01-30 03:22:15.99	269.08	9.18	-49.4	-54.2	10.8	1.71e-03	0	41	0	1225785344	69	6603
