passes_logs/2026/01/30/R3.2S_Murmansk/R3.2S_Murmansk__20260130_054709_FENGYUN_3D_rec.log

#Pass ID: 20260130_054709_FENGYUN 3D
#Satellite: FENGYUN 3D
#Configuration: FENGYUN 3D
#almurnet v.1.7.20251203
#Start time: 2026-01-30 05:47:09

#Version: 2.2.20231116
#Station: R3.2S_Murmansk
#Location: 33.079688 lon 68.888172 lat
#TLE: 1 43010U 17072A   26029.52179110  .00000394  00000+0  20818-3 0  9997
#TLE: 2 43010  98.9957   1.5649 0002507  83.7772 276.3689 14.19703315425310

#Time	Az	El	Level	Level2	SNR	BER	BlckErr	Temp	State	Recorded	gain1	gain2
2026-01-30 05:47:09.66	44.47	2.00	-53.9	-65.9	3.8	8.47e-01	0	39	0	0	79	14229
2026-01-30 05:47:10.66	44.41	2.06	-53.9	-65.8	3.8	8.47e-01	0	39	104	0	78	15018
2026-01-30 05:47:11.67	44.36	2.12	-53.9	-65.8	3.8	8.46e-01	0	39	104	0	78	15026
2026-01-30 05:47:12.68	44.30	2.17	-53.9	-65.9	3.8	8.46e-01	0	39	104	0	78	15108
2026-01-30 05:47:13.69	44.25	2.23	-53.9	-65.9	3.8	8.45e-01	0	39	104	0	78	15088
2026-01-30 05:47:14.69	44.19	2.29	-53.9	-65.8	3.8	8.47e-01	0	39	104	0	78	15039
2026-01-30 05:47:15.70	44.13	2.35	-53.9	-65.8	3.8	8.45e-01	0	40	104	0	78	15011
2026-01-30 05:47:16.71	44.08	2.41	-53.9	-65.8	3.8	8.46e-01	0	39	104	0	78	15023
2026-01-30 05:47:17.72	44.02	2.47	-53.9	-65.8	3.8	8.46e-01	0	39	104	0	78	14987
2026-01-30 05:47:18.73	43.96	2.53	-54.0	-66.0	3.8	8.46e-01	0	39	104	0	78	15277
2026-01-30 05:47:19.73	43.91	2.59	-54.1	-66.1	3.8	8.45e-01	0	39	104	0	78	15449
2026-01-30 05:47:20.74	43.85	2.65	-54.2	-66.1	3.8	8.46e-01	0	39	104	0	78	15579
2026-01-30 05:47:21.74	43.79	2.71	-54.2	-66.2	3.8	8.45e-01	0	39	104	0	79	14783
2026-01-30 05:47:22.75	43.73	2.77	-54.2	-66.2	3.8	8.46e-01	0	39	104	0	79	14864
2026-01-30 05:47:23.76	43.67	2.83	-54.2	-66.2	3.8	8.46e-01	0	39	104	0	79	14799
2026-01-30 05:47:24.77	43.61	2.89	-54.2	-66.1	3.8	8.47e-01	0	40	104	0	79	14646
2026-01-30 05:47:25.77	43.56	2.95	-54.1	-66.1	3.8	8.47e-01	0	40	104	0	79	14579
2026-01-30 05:47:26.78	43.50	3.01	-54.1	-66.1	3.8	8.46e-01	0	40	104	0	79	14544
2026-01-30 05:47:27.79	43.44	3.08	-54.1	-66.0	3.8	8.45e-01	0	40	104	0	79	14535
2026-01-30 05:47:28.80	43.38	3.14	-54.0	-65.9	3.8	8.45e-01	0	40	104	0	79	14326
2026-01-30 05:47:29.80	43.32	3.20	-54.0	-65.9	3.8	8.46e-01	0	40	104	0	79	14304
2026-01-30 05:47:30.81	43.26	3.26	-54.0	-65.9	3.8	8.47e-01	0	40	104	0	79	14277
2026-01-30 05:47:31.82	43.20	3.32	-53.9	-65.9	3.8	8.46e-01	0	40	104	0	79	14258
2026-01-30 05:47:32.83	43.14	3.38	-53.9	-65.8	3.8	8.47e-01	0	40	104	0	79	14127
2026-01-30 05:47:33.84	43.07	3.44	-53.8	-65.7	3.8	8.47e-01	0	40	104	0	79	13963
2026-01-30 05:47:34.85	43.01	3.50	-53.7	-65.6	3.8	8.46e-01	0	40	104	0	79	13802
2026-01-30 05:47:35.85	42.95	3.57	-53.5	-65.5	3.8	8.47e-01	0	40	104	0	78	14413
2026-01-30 05:47:36.86	42.89	3.63	-53.4	-65.3	3.8	8.46e-01	0	40	104	0	78	14186
2026-01-30 05:47:37.87	42.83	3.69	-53.2	-65.1	3.8	8.47e-01	0	40	104	0	78	13803
2026-01-30 05:47:38.87	42.77	3.75	-52.9	-64.8	3.8	8.47e-01	0	40	104	0	77	14130
2026-01-30 05:47:39.88	42.70	3.81	-52.6	-64.4	3.8	8.45e-01	0	40	104	0	77	13536
2026-01-30 05:47:40.89	42.64	3.87	-52.1	-63.9	3.8	8.46e-01	0	40	104	0	76	13428
2026-01-30 05:47:41.90	42.58	3.94	-51.9	-63.8	3.8	8.46e-01	0	40	104	0	75	14079
2026-01-30 05:47:42.90	42.51	4.00	-51.9	-63.6	3.8	8.46e-01	0	40	104	0	75	13822
2026-01-30 05:47:43.91	42.45	4.06	-51.8	-63.3	3.8	8.46e-01	0	40	104	0	75	13342
2026-01-30 05:47:44.92	42.39	4.12	-51.8	-62.9	3.8	8.47e-01	0	40	104	0	75	12713
2026-01-30 05:47:45.93	42.32	4.19	-51.7	-62.5	3.8	8.46e-01	0	40	104	0	75	12173
2026-01-30 05:47:46.94	42.26	4.25	-51.7	-62.2	3.8	8.46e-01	0	40	104	0	75	11773
2026-01-30 05:47:47.94	42.19	4.31	-51.7	-62.5	3.8	8.46e-01	0	40	104	0	75	12103
2026-01-30 05:47:48.95	42.13	4.38	-51.7	-62.5	3.8	8.47e-01	0	40	104	0	75	12210
2026-01-30 05:47:49.96	42.06	4.44	-51.7	-61.9	3.8	8.45e-01	0	40	104	0	75	11332
2026-01-30 05:47:50.96	41.99	4.50	-51.4	-60.2	4.2	8.44e-01	0	40	104	0	74	9847
2026-01-30 05:47:51.97	41.93	4.57	-51.0	-57.7	5.3	7.67e-01	0	40	0	0	74	7452
2026-01-30 05:47:52.98	41.86	4.63	-50.3	-55.4	7.1	2.23e-01	0	40	0	4194304	72	6373
2026-01-30 05:47:53.98	41.80	4.69	-49.6	-53.5	9.0	5.96e-02	0	40	0	9437184	71	5416
2026-01-30 05:47:54.99	41.73	4.76	-48.8	-51.9	10.6	6.76e-03	0	40	0	15728640	69	5080
2026-01-30 05:47:56.00	41.66	4.82	-48.0	-50.6	12.0	9.01e-04	0	40	0	20971520	68	4629
2026-01-30 05:47:57.01	41.59	4.88	-47.0	-49.1	13.5	4.80e-05	0	40	0	26214400	66	4370
2026-01-30 05:47:58.02	41.52	4.95	-46.4	-48.3	14.4	3.40e-06	0	40	0	32505856	64	4442
2026-01-30 05:47:59.03	41.46	5.01	-46.3	-48.1	14.6	1.10e-06	0	40	0	37748736	64	4370
2026-01-30 05:48:00.03	41.39	5.08	-46.6	-48.5	14.3	0.00e+00	0	40	0	42991616	64	4592
2026-01-30 05:48:01.04	41.32	5.14	-49.6	-53.5	9.1	7.27e-04	0	40	0	49283072	69	6105
2026-01-30 05:48:02.04	41.25	5.20	-48.2	-51.0	11.5	3.77e-05	0	40	0	54525952	66	5452
2026-01-30 05:48:03.05	41.18	5.27	-42.2	-43.1	20.0	0.00e+00	0	40	0	59768832	56	3901
2026-01-30 05:48:04.06	41.11	5.33	-51.5	-62.1	3.8	6.38e-01	0	40	104	63963136	73	12970
2026-01-30 05:48:05.07	41.04	5.40	-42.2	-43.2	19.3	0.00e+00	0	40	104	63963136	56	3934
2026-01-30 05:48:06.08	40.97	5.46	-42.0	-43.0	20.2	0.00e+00	0	40	0	69206016	56	3830
2026-01-30 05:48:07.08	40.90	5.53	-41.7	-42.6	20.4	0.00e+00	0	40	0	74448896	55	3894
2026-01-30 05:48:08.09	40.83	5.59	-41.7	-42.6	20.5	0.00e+00	0	41	0	80740352	55	3899
2026-01-30 05:48:09.10	40.76	5.66	-41.8	-42.8	20.3	0.00e+00	0	40	0	85983232	55	3982
2026-01-30 05:48:10.11	40.68	5.73	-41.7	-42.6	20.4	0.00e+00	0	40	0	92274688	55	3902
2026-01-30 05:48:11.12	40.61	5.79	-41.8	-42.8	20.3	0.00e+00	0	40	0	97517568	55	3967
2026-01-30 05:48:12.12	40.54	5.86	-41.7	-42.6	20.5	0.00e+00	0	40	0	102760448	55	3908
2026-01-30 05:48:13.12	40.47	5.92	-41.7	-42.6	20.5	0.00e+00	0	40	0	109051904	55	3906
2026-01-30 05:48:14.12	40.39	5.99	-41.8	-42.7	20.4	0.00e+00	0	41	0	114294784	55	3938
2026-01-30 05:48:15.13	40.32	6.05	-41.8	-42.8	20.3	0.00e+00	0	41	0	119537664	55	3980
2026-01-30 05:48:16.14	40.25	6.12	-41.9	-42.9	20.3	0.00e+00	0	40	0	125829120	55	4009
2026-01-30 05:48:17.15	40.17	6.19	-41.9	-42.8	20.3	0.00e+00	0	41	0	131072000	55	3993
2026-01-30 05:48:18.15	40.10	6.25	-41.7	-42.7	20.5	0.00e+00	0	40	0	136314880	55	3922
2026-01-30 05:48:19.16	40.02	6.32	-41.9	-42.8	20.4	0.00e+00	0	41	0	142606336	55	3991
2026-01-30 05:48:20.16	39.95	6.38	-41.8	-42.7	20.4	0.00e+00	0	41	0	148897792	55	3938
2026-01-30 05:48:21.17	39.87	6.45	-41.6	-42.5	20.6	0.00e+00	0	41	0	154140672	55	3854
2026-01-30 05:48:22.18	39.79	6.52	-42.0	-42.9	20.3	0.00e+00	0	41	0	159383552	55	4047
2026-01-30 05:48:23.19	39.72	6.59	-41.9	-42.8	20.4	0.00e+00	0	40	0	165675008	55	3998
2026-01-30 05:48:24.20	39.64	6.65	-42.0	-43.0	20.2	0.00e+00	0	40	0	170917888	55	4070
2026-01-30 05:48:25.21	39.56	6.72	-41.7	-42.6	20.5	0.00e+00	0	41	0	177209344	55	3911
2026-01-30 05:48:26.22	39.48	6.79	-41.9	-42.8	20.4	0.00e+00	0	41	0	182452224	55	3999
2026-01-30 05:48:27.23	39.41	6.85	-41.7	-42.6	20.6	0.00e+00	0	40	0	187695104	55	3912
2026-01-30 05:48:28.23	39.33	6.92	-41.9	-42.9	20.3	0.00e+00	0	40	0	193986560	55	4015
2026-01-30 05:48:29.24	39.25	6.99	-41.7	-42.6	20.6	0.00e+00	0	41	0	199229440	55	3906
2026-01-30 05:48:30.25	39.17	7.06	-41.7	-42.6	20.6	0.00e+00	0	41	0	204472320	55	3888
2026-01-30 05:48:31.26	39.09	7.13	-41.5	-42.4	20.9	0.00e+00	0	41	0	210763776	54	4028
2026-01-30 05:48:32.26	39.01	7.19	-41.5	-42.4	20.8	0.00e+00	0	41	0	217055232	54	4047
2026-01-30 05:48:33.27	38.93	7.26	-41.6	-42.5	20.7	0.00e+00	0	40	0	222298112	54	4075
2026-01-30 05:48:34.28	38.85	7.33	-41.8	-42.8	20.5	0.00e+00	0	41	0	227540992	54	4206
2026-01-30 05:48:35.28	38.77	7.40	-41.6	-42.6	20.7	0.00e+00	0	40	0	233832448	54	4102
2026-01-30 05:48:36.30	38.69	7.47	-41.7	-42.6	20.6	0.00e+00	0	41	0	239075328	54	4118
2026-01-30 05:48:37.30	38.60	7.54	-41.8	-42.8	20.5	0.00e+00	0	41	0	244318208	54	4197
2026-01-30 05:48:38.31	38.52	7.61	-41.6	-42.5	20.7	0.00e+00	0	41	0	250609664	54	4071
2026-01-30 05:48:39.32	38.44	7.67	-41.6	-42.6	20.6	0.00e+00	0	41	0	255852544	54	4105
2026-01-30 05:48:40.33	38.36	7.74	-41.6	-42.6	20.6	0.00e+00	0	41	0	262144000	54	4117
2026-01-30 05:48:41.33	38.27	7.81	-41.5	-42.4	20.7	0.00e+00	0	41	0	267386880	54	4036
2026-01-30 05:48:42.34	38.19	7.88	-41.7	-42.6	20.6	0.00e+00	0	41	0	272629760	54	4124
2026-01-30 05:48:43.34	38.11	7.95	-41.5	-42.5	20.8	0.00e+00	0	41	0	278921216	54	4052
2026-01-30 05:48:44.35	38.02	8.02	-41.5	-42.4	20.9	0.00e+00	0	41	0	284164096	54	4023
2026-01-30 05:48:45.36	37.93	8.09	-41.4	-42.3	21.0	0.00e+00	0	41	0	290455552	54	3988
2026-01-30 05:48:46.37	37.85	8.16	-41.6	-42.6	20.7	0.00e+00	0	41	0	295698432	54	4113
2026-01-30 05:48:47.38	37.76	8.23	-41.4	-42.4	20.9	0.00e+00	0	41	0	301989888	54	4007
2026-01-30 05:48:48.39	37.68	8.30	-41.4	-42.3	21.0	0.00e+00	0	41	0	307232768	54	3989
2026-01-30 05:48:49.40	37.59	8.37	-41.6	-42.5	20.8	0.00e+00	0	41	0	312475648	54	4084
2026-01-30 05:48:50.41	37.50	8.44	-41.5	-42.4	21.0	0.00e+00	0	41	0	318767104	54	4017
2026-01-30 05:48:51.42	37.41	8.51	-41.4	-42.3	21.0	0.00e+00	0	41	0	324009984	54	3975
2026-01-30 05:48:52.43	37.32	8.58	-41.2	-42.1	21.3	0.00e+00	0	41	0	329252864	54	3888
2026-01-30 05:48:53.44	37.23	8.66	-41.3	-42.2	21.2	0.00e+00	0	41	0	335544320	54	3925
2026-01-30 05:48:54.45	37.15	8.73	-41.0	-41.9	21.5	0.00e+00	0	41	0	340787200	54	3814
2026-01-30 05:48:55.46	37.06	8.80	-41.2	-42.0	21.3	0.00e+00	0	41	0	347078656	54	3864
2026-01-30 05:48:56.46	36.97	8.87	-41.1	-41.9	21.5	0.00e+00	0	41	0	352321536	54	3819
2026-01-30 05:48:57.46	36.88	8.94	-41.1	-42.0	21.4	0.00e+00	0	41	0	358612992	54	3840
2026-01-30 05:48:58.47	36.78	9.01	-41.2	-42.1	21.3	0.00e+00	0	41	0	363855872	54	3893
2026-01-30 05:48:59.47	36.69	9.08	-40.9	-41.8	21.6	0.00e+00	0	41	0	370147328	53	3968
2026-01-30 05:49:00.47	36.60	9.15	-41.1	-41.9	21.4	0.00e+00	0	41	0	375390208	53	4049
2026-01-30 05:49:01.48	36.51	9.23	-41.2	-42.1	21.4	0.00e+00	0	41	0	380633088	53	4109
2026-01-30 05:49:02.48	36.42	9.30	-40.9	-41.8	21.6	0.00e+00	0	41	0	386924544	53	3989
2026-01-30 05:49:03.48	36.32	9.37	-40.8	-41.7	21.7	0.00e+00	0	41	0	392167424	53	3942
2026-01-30 05:49:04.49	36.23	9.44	-40.9	-41.8	21.6	0.00e+00	0	41	0	397410304	53	3963
2026-01-30 05:49:05.50	36.14	9.51	-40.8	-41.7	21.7	0.00e+00	0	41	0	403701760	53	3926
2026-01-30 05:49:06.51	36.04	9.59	-41.0	-41.8	21.6	0.00e+00	0	41	0	408944640	53	3997
2026-01-30 05:49:07.51	35.95	9.66	-40.9	-41.8	21.6	0.00e+00	0	41	0	414187520	53	3990
2026-01-30 05:49:08.52	35.85	9.73	-40.7	-41.6	21.8	0.00e+00	0	41	0	420478976	53	3877
2026-01-30 05:49:09.53	35.75	9.80	-40.8	-41.7	21.7	0.00e+00	0	41	0	425721856	53	3934
2026-01-30 05:49:10.53	35.66	9.88	-40.8	-41.7	21.7	0.00e+00	0	41	0	432013312	53	3934
2026-01-30 05:49:11.55	35.56	9.95	-40.8	-41.7	21.7	0.00e+00	0	41	0	437256192	53	3940
2026-01-30 05:49:12.55	35.46	10.02	-40.7	-41.6	21.8	0.00e+00	0	41	0	442499072	53	3890
2026-01-30 05:49:13.56	35.36	10.10	-40.8	-41.6	21.8	0.00e+00	0	41	0	448790528	53	3909
2026-01-30 05:49:14.57	35.26	10.17	-40.6	-41.5	21.9	0.00e+00	0	41	0	455081984	53	3850
2026-01-30 05:49:15.57	35.17	10.24	-40.8	-41.7	21.8	0.00e+00	0	41	0	460324864	53	3918
2026-01-30 05:49:16.58	35.07	10.32	-40.6	-41.5	21.9	0.00e+00	0	41	0	465567744	53	3840
2026-01-30 05:49:17.59	34.96	10.39	-40.8	-41.7	21.8	0.00e+00	0	41	0	471859200	53	3914
2026-01-30 05:49:18.60	34.86	10.47	-40.6	-41.5	22.0	0.00e+00	0	41	0	477102080	53	3837
2026-01-30 05:49:19.60	34.76	10.54	-40.8	-41.6	21.8	0.00e+00	0	41	0	482344960	53	3901
2026-01-30 05:49:20.61	34.66	10.62	-40.7	-41.6	21.9	0.00e+00	0	41	0	488636416	53	3889
2026-01-30 05:49:21.62	34.56	10.69	-40.9	-41.7	21.7	0.00e+00	0	41	0	493879296	53	3943
2026-01-30 05:49:22.63	34.45	10.76	-40.7	-41.5	21.9	0.00e+00	0	41	0	499122176	53	3863
2026-01-30 05:49:23.64	34.35	10.84	-40.5	-41.3	22.2	0.00e+00	0	41	0	505413632	52	3982
2026-01-30 05:49:24.65	34.25	10.92	-40.5	-41.3	22.1	0.00e+00	0	41	0	510656512	52	3999
2026-01-30 05:49:25.65	34.14	10.99	-40.4	-41.2	22.2	0.00e+00	0	41	0	516947968	52	3939
2026-01-30 05:49:26.66	34.04	11.07	-40.3	-41.1	22.4	0.00e+00	0	41	0	522190848	52	3890
2026-01-30 05:49:27.66	33.93	11.14	-40.3	-41.1	22.3	0.00e+00	0	41	0	528482304	52	3908
2026-01-30 05:49:28.67	33.82	11.22	-40.4	-41.2	22.3	0.00e+00	0	41	0	533725184	52	3924
2026-01-30 05:49:29.68	33.72	11.29	-40.3	-41.1	22.4	0.00e+00	0	41	0	540016640	52	3889
2026-01-30 05:49:30.69	33.61	11.37	-40.2	-41.0	22.5	0.00e+00	0	41	0	545259520	52	3842
2026-01-30 05:49:31.70	33.50	11.44	-40.3	-41.1	22.4	0.00e+00	0	41	0	550502400	52	3902
2026-01-30 05:49:32.70	33.39	11.52	-40.3	-41.1	22.4	0.00e+00	0	41	0	556793856	52	3880
2026-01-30 05:49:33.71	33.28	11.60	-40.4	-41.2	22.3	0.00e+00	0	41	0	562036736	52	3938
2026-01-30 05:49:34.72	33.17	11.67	-40.3	-41.1	22.4	0.00e+00	0	41	0	567279616	52	3897
2026-01-30 05:49:35.72	33.06	11.75	-40.3	-41.1	22.4	0.00e+00	0	41	0	573571072	52	3913
2026-01-30 05:49:36.73	32.95	11.82	-40.3	-41.1	22.4	0.00e+00	0	41	0	578813952	52	3896
2026-01-30 05:49:37.73	32.84	11.90	-40.4	-41.2	22.3	0.00e+00	0	41	0	584056832	52	3937
2026-01-30 05:49:38.74	32.73	11.98	-40.2	-41.1	22.5	0.00e+00	0	41	0	590348288	52	3869
2026-01-30 05:49:39.75	32.62	12.05	-40.4	-41.2	22.3	0.00e+00	0	41	0	595591168	52	3925
2026-01-30 05:49:40.76	32.50	12.13	-40.4	-41.2	22.4	0.00e+00	0	41	0	601882624	52	3927
2026-01-30 05:49:41.76	32.39	12.21	-40.3	-41.2	22.4	0.00e+00	0	41	0	607125504	52	3916
2026-01-30 05:49:42.77	32.27	12.29	-40.2	-41.0	22.5	0.00e+00	0	41	0	613416960	52	3858
2026-01-30 05:49:43.78	32.16	12.36	-40.3	-41.1	22.4	0.00e+00	0	41	0	618659840	52	3912
2026-01-30 05:49:44.79	32.04	12.44	-40.1	-41.0	22.6	0.00e+00	0	41	0	624951296	52	3826
2026-01-30 05:49:45.79	31.93	12.52	-40.3	-41.1	22.4	0.00e+00	0	41	0	630194176	52	3900
2026-01-30 05:49:46.80	31.81	12.60	-40.3	-41.1	22.5	0.00e+00	0	41	0	635437056	52	3885
2026-01-30 05:49:47.80	31.69	12.67	-40.2	-41.0	22.6	0.00e+00	0	41	0	641728512	52	3852
2026-01-30 05:49:48.81	31.57	12.75	-40.4	-41.2	22.3	0.00e+00	0	41	0	646971392	52	3956
2026-01-30 05:49:49.82	31.45	12.83	-40.3	-41.1	22.4	0.00e+00	0	41	0	652214272	52	3908
2026-01-30 05:49:50.83	31.33	12.91	-40.2	-41.1	22.5	0.00e+00	0	41	0	658505728	52	3875
2026-01-30 05:49:51.83	31.21	12.99	-40.1	-41.0	22.6	0.00e+00	0	41	0	663748608	52	3825
2026-01-30 05:49:52.84	31.09	13.07	-40.1	-40.9	22.7	0.00e+00	0	41	0	668991488	51	4019
2026-01-30 05:49:53.84	30.97	13.14	-40.1	-40.9	22.7	0.00e+00	0	41	0	675282944	51	4008
2026-01-30 05:49:54.85	30.85	13.22	-40.1	-40.9	22.7	0.00e+00	0	41	0	680525824	51	4010
2026-01-30 05:49:55.86	30.72	13.30	-40.3	-41.1	22.5	0.00e+00	0	41	0	686817280	51	4110
2026-01-30 05:49:56.87	30.60	13.38	-40.1	-40.9	22.8	0.00e+00	0	41	0	692060160	51	4022
2026-01-30 05:49:57.87	30.48	13.46	-40.0	-40.8	22.8	0.00e+00	0	41	0	698351616	51	3978
2026-01-30 05:49:58.88	30.35	13.54	-39.9	-40.7	22.9	0.00e+00	0	41	0	703594496	51	3946
2026-01-30 05:49:59.88	30.23	13.62	-39.9	-40.7	22.9	0.00e+00	0	41	0	709885952	51	3938
2026-01-30 05:50:00.89	30.10	13.70	-40.0	-40.8	22.9	0.00e+00	0	41	0	715128832	51	3976
2026-01-30 05:50:01.90	29.97	13.78	-40.0	-40.8	22.8	0.00e+00	0	41	0	720371712	51	3983
2026-01-30 05:50:02.90	29.84	13.86	-39.9	-40.7	22.9	0.00e+00	0	41	0	726663168	51	3939
2026-01-30 05:50:03.91	29.72	13.94	-39.9	-40.7	22.9	0.00e+00	0	41	0	731906048	51	3936
2026-01-30 05:50:04.92	29.59	14.02	-39.9	-40.7	23.0	0.00e+00	0	41	0	737148928	51	3930
2026-01-30 05:50:05.92	29.46	14.10	-39.7	-40.5	23.2	0.00e+00	0	41	0	743440384	51	3825
2026-01-30 05:50:06.93	29.33	14.18	-39.7	-40.5	23.2	0.00e+00	0	41	0	748683264	51	3836
2026-01-30 05:50:07.94	29.19	14.26	-39.8	-40.5	23.1	0.00e+00	0	41	0	753926144	51	3866
2026-01-30 05:50:08.95	29.06	14.34	-39.7	-40.5	23.1	0.00e+00	0	41	0	760217600	51	3856
2026-01-30 05:50:09.96	28.93	14.42	-39.6	-40.4	23.3	0.00e+00	0	41	0	766509056	51	3796
2026-01-30 05:50:10.97	28.79	14.50	-39.6	-40.4	23.3	0.00e+00	0	41	0	771751936	51	3798
2026-01-30 05:50:11.97	28.66	14.58	-39.4	-40.2	23.4	0.00e+00	0	41	0	776994816	50	3940
2026-01-30 05:50:12.98	28.52	14.66	-39.3	-40.1	23.6	0.00e+00	0	41	0	783286272	50	3874
2026-01-30 05:50:13.99	28.39	14.74	-39.5	-40.3	23.4	0.00e+00	0	41	0	788529152	50	3966
2026-01-30 05:50:15.00	28.25	14.83	-39.4	-40.2	23.5	0.00e+00	0	41	0	794820608	50	3933
2026-01-30 05:50:16.01	28.11	14.91	-39.4	-40.2	23.5	0.00e+00	0	41	0	800063488	50	3918
2026-01-30 05:50:17.02	27.97	14.99	-39.3	-40.1	23.6	0.00e+00	0	41	0	805306368	50	3879
2026-01-30 05:50:18.02	27.84	15.07	-39.1	-39.9	23.8	0.00e+00	0	41	0	811597824	50	3802
2026-01-30 05:50:19.02	27.70	15.15	-39.1	-39.9	23.8	0.00e+00	0	41	0	816840704	50	3806
2026-01-30 05:50:20.03	27.56	15.23	-39.2	-39.9	23.7	0.00e+00	0	41	0	822083584	50	3813
2026-01-30 05:50:21.04	27.41	15.31	-39.3	-40.0	23.7	0.00e+00	0	41	0	828375040	50	3860
2026-01-30 05:50:22.05	27.27	15.40	-39.2	-40.0	23.7	0.00e+00	0	41	0	833617920	50	3845
2026-01-30 05:50:23.05	27.13	15.48	-39.3	-40.0	23.7	0.00e+00	0	41	0	838860800	50	3865
2026-01-30 05:50:24.06	26.98	15.56	-39.2	-39.9	23.8	0.00e+00	0	41	0	845152256	50	3816
2026-01-30 05:50:25.07	26.84	15.64	-39.1	-39.8	23.8	0.00e+00	0	41	0	851443712	50	3780
2026-01-30 05:50:26.07	26.70	15.72	-39.2	-39.9	23.8	0.00e+00	0	41	0	856686592	50	3815
2026-01-30 05:50:27.08	26.55	15.81	-39.1	-39.9	23.8	0.00e+00	0	41	0	861929472	50	3801
2026-01-30 05:50:28.09	26.40	15.89	-39.3	-40.1	23.7	0.00e+00	0	41	0	868220928	50	3875
2026-01-30 05:50:29.09	26.25	15.97	-39.4	-40.1	23.6	0.00e+00	0	41	0	873463808	50	3902
2026-01-30 05:50:30.10	26.10	16.05	-39.2	-40.0	23.7	0.00e+00	0	41	0	879755264	50	3849
2026-01-30 05:50:31.10	25.96	16.14	-38.9	-39.7	24.0	0.00e+00	0	41	0	884998144	49	3928
2026-01-30 05:50:32.11	25.81	16.22	-39.0	-39.7	23.9	0.00e+00	0	41	0	890241024	49	3958
2026-01-30 05:50:33.12	25.65	16.30	-38.9	-39.6	24.1	0.00e+00	0	41	0	896532480	49	3896
2026-01-30 05:50:34.13	25.50	16.38	-38.9	-39.6	24.0	0.00e+00	0	41	0	901775360	49	3895
2026-01-30 05:50:35.13	25.35	16.47	-39.1	-39.8	23.9	0.00e+00	0	41	0	907018240	49	3990
2026-01-30 05:50:36.14	25.19	16.55	-39.0	-39.8	23.9	0.00e+00	0	41	0	913309696	49	3976
2026-01-30 05:50:37.15	25.04	16.63	-39.0	-39.7	24.0	0.00e+00	0	41	0	918552576	49	3949
2026-01-30 05:50:38.15	24.88	16.72	-39.0	-39.7	23.9	0.00e+00	0	41	0	923795456	49	3958
2026-01-30 05:50:39.16	24.73	16.80	-39.0	-39.7	24.0	0.00e+00	0	41	0	930086912	49	3945
2026-01-30 05:50:40.17	24.57	16.88	-39.0	-39.8	23.9	0.00e+00	0	41	0	936378368	49	3969
2026-01-30 05:50:41.17	24.41	16.96	-39.0	-39.8	23.9	0.00e+00	0	41	0	941621248	49	3975
2026-01-30 05:50:42.18	24.25	17.05	-39.0	-39.8	24.0	0.00e+00	0	41	0	946864128	49	3976
2026-01-30 05:50:43.19	24.09	17.13	-39.1	-39.8	23.9	0.00e+00	0	41	0	953155584	49	3992
2026-01-30 05:50:44.19	23.93	17.22	-39.1	-39.9	23.9	0.00e+00	0	41	0	958398464	49	4009
2026-01-30 05:50:45.20	23.77	17.30	-38.9	-39.6	24.1	0.00e+00	0	41	0	964689920	49	3889
2026-01-30 05:50:46.20	23.61	17.38	-38.8	-39.5	24.2	0.00e+00	0	41	0	969932800	49	3844
2026-01-30 05:50:47.21	23.44	17.47	-38.7	-39.4	24.3	0.00e+00	0	41	0	975175680	49	3798
2026-01-30 05:50:48.22	23.28	17.55	-38.6	-39.3	24.4	0.00e+00	0	41	0	981467136	49	3755
2026-01-30 05:50:49.23	23.11	17.63	-38.5	-39.2	24.5	0.00e+00	0	41	0	986710016	48	3935
2026-01-30 05:50:50.24	22.95	17.72	-38.4	-39.2	24.5	0.00e+00	0	41	0	991952896	48	3916
2026-01-30 05:50:51.24	22.78	17.80	-38.4	-39.2	24.5	0.00e+00	0	41	0	998244352	48	3914
2026-01-30 05:50:52.25	22.61	17.88	-38.4	-39.1	24.6	0.00e+00	0	41	0	1003487232	48	3911
2026-01-30 05:50:53.26	22.44	17.97	-38.6	-39.3	24.4	0.00e+00	0	41	0	1009778688	48	3970
2026-01-30 05:50:54.26	22.27	18.05	-38.6	-39.3	24.4	0.00e+00	0	41	0	1015021568	48	3983
2026-01-30 05:50:55.27	22.10	18.14	-38.6	-39.4	24.3	0.00e+00	0	41	0	1021313024	48	4011
2026-01-30 05:50:56.28	21.93	18.22	-38.5	-39.3	24.5	0.00e+00	0	41	0	1026555904	48	3970
2026-01-30 05:50:57.28	21.76	18.30	-38.5	-39.2	24.5	0.00e+00	0	41	0	1031798784	48	3936
2026-01-30 05:50:58.29	21.58	18.39	-38.4	-39.1	24.6	0.00e+00	0	41	0	1038090240	48	3898
2026-01-30 05:50:59.30	21.41	18.47	-38.4	-39.1	24.6	0.00e+00	0	41	0	1043333120	48	3898
2026-01-30 05:51:00.30	21.23	18.55	-38.2	-38.9	24.7	0.00e+00	0	41	0	1049624576	48	3812
2026-01-30 05:51:01.31	21.05	18.64	-38.2	-38.9	24.8	0.00e+00	0	41	0	1054867456	48	3811
2026-01-30 05:51:02.31	20.88	18.72	-38.1	-38.8	24.9	0.00e+00	0	41	0	1060110336	48	3747
2026-01-30 05:51:03.32	20.70	18.81	-38.2	-38.9	24.8	0.00e+00	0	41	0	1066401792	48	3791
2026-01-30 05:51:04.33	20.52	18.89	-38.1	-38.8	24.9	0.00e+00	0	41	0	1071644672	48	3777
2026-01-30 05:51:05.33	20.34	18.97	-38.3	-39.0	24.7	0.00e+00	0	41	0	1076887552	48	3852
2026-01-30 05:51:06.33	20.15	19.06	-38.4	-39.1	24.6	0.00e+00	0	41	0	1083179008	48	3898
2026-01-30 05:51:07.34	19.97	19.14	-38.5	-39.3	24.5	0.00e+00	0	41	0	1088421888	48	3963
2026-01-30 05:51:08.35	19.79	19.22	-38.5	-39.3	24.5	0.00e+00	0	41	0	1094713344	48	3970
2026-01-30 05:51:09.36	19.60	19.31	-38.5	-39.2	24.6	0.00e+00	0	41	0	1099956224	48	3930
2026-01-30 05:51:10.37	19.41	19.39	-38.5	-39.3	24.5	0.00e+00	0	41	0	1106247680	48	3965
2026-01-30 05:51:11.37	19.23	19.48	-38.5	-39.2	24.6	0.00e+00	0	41	0	1111490560	48	3931
2026-01-30 05:51:12.38	19.04	19.56	-38.6	-39.3	24.5	0.00e+00	0	41	0	1116733440	48	3980
2026-01-30 05:51:13.39	18.85	19.64	-38.6	-39.3	24.5	0.00e+00	0	41	0	1123024896	48	3973
2026-01-30 05:51:14.39	18.66	19.73	-38.5	-39.2	24.6	0.00e+00	0	41	0	1128267776	48	3938
2026-01-30 05:51:15.40	18.47	19.81	-38.4	-39.1	24.7	0.00e+00	0	41	0	1134559232	48	3875
2026-01-30 05:51:16.40	18.28	19.89	-38.4	-39.1	24.7	0.00e+00	0	41	0	1139802112	48	3899
2026-01-30 05:51:17.41	18.08	19.98	-38.3	-39.0	24.7	0.00e+00	0	41	0	1145044992	48	3859
2026-01-30 05:51:18.42	17.89	20.06	-38.4	-39.2	24.6	0.00e+00	0	41	0	1151336448	48	3925
2026-01-30 05:51:19.42	17.69	20.14	-38.4	-39.1	24.7	0.00e+00	0	41	0	1156579328	48	3906
2026-01-30 05:51:20.43	17.49	20.23	-38.4	-39.1	24.7	0.00e+00	0	41	0	1161822208	48	3881
2026-01-30 05:51:21.44	17.30	20.31	-38.4	-39.1	24.7	0.00e+00	0	41	0	1168113664	48	3913
2026-01-30 05:51:22.45	17.10	20.39	-38.4	-39.2	24.7	0.00e+00	0	41	0	1173356544	48	3922
2026-01-30 05:51:23.45	16.90	20.47	-38.3	-39.0	24.8	0.00e+00	0	41	0	1179648000	48	3837
2026-01-30 05:51:24.46	16.70	20.56	-38.2	-38.9	24.9	0.00e+00	0	41	0	1184890880	48	3789
2026-01-30 05:51:25.46	16.50	20.64	-38.1	-38.8	25.0	0.00e+00	0	41	0	1191182336	48	3779
2026-01-30 05:51:26.47	16.29	20.72	-38.2	-39.0	24.9	0.00e+00	0	41	0	1196425216	48	3828
2026-01-30 05:51:27.48	16.09	20.80	-38.2	-38.9	24.9	0.00e+00	0	41	0	1202716672	48	3789
2026-01-30 05:51:28.48	15.88	20.89	-38.1	-38.8	24.9	0.00e+00	0	41	0	1207959552	48	3771
2026-01-30 05:51:29.49	15.67	20.97	-38.1	-38.8	25.0	0.00e+00	0	41	0	1213202432	48	3739
2026-01-30 05:51:30.49	15.47	21.05	-38.1	-38.8	25.0	0.00e+00	0	41	0	1219493888	48	3763
2026-01-30 05:51:31.50	15.26	21.13	-37.7	-38.4	25.0	0.00e+00	0	41	0	1224736768	47	3801
2026-01-30 05:51:32.51	15.05	21.21	-37.5	-38.2	25.0	0.00e+00	0	41	0	1229979648	47	3732
2026-01-30 05:51:33.52	14.84	21.30	-37.5	-38.2	25.1	0.00e+00	0	41	0	1236271104	47	3722
2026-01-30 05:51:34.53	14.62	21.38	-37.6	-38.3	25.0	0.00e+00	0	41	0	1241513984	47	3769
2026-01-30 05:51:35.54	14.41	21.46	-37.6	-38.3	25.0	0.00e+00	0	41	0	1246756864	47	3763
2026-01-30 05:51:36.55	14.19	21.54	-37.6	-38.3	25.0	0.00e+00	0	41	0	1253048320	47	3748
2026-01-30 05:51:37.56	13.98	21.62	-37.5	-38.2	25.1	0.00e+00	0	41	0	1258291200	46	3933
2026-01-30 05:51:38.56	13.76	21.70	-37.5	-38.2	25.1	0.00e+00	0	41	0	1264582656	46	3921
2026-01-30 05:51:39.57	13.54	21.78	-37.3	-38.0	25.2	0.00e+00	0	41	0	1269825536	46	3865
2026-01-30 05:51:40.58	13.32	21.86	-37.4	-38.1	25.2	0.00e+00	0	41	0	1276116992	46	3882
2026-01-30 05:51:41.59	13.10	21.94	-37.5	-38.2	25.1	0.00e+00	0	41	0	1281359872	46	3917
2026-01-30 05:51:42.59	12.88	22.02	-37.4	-38.1	25.1	0.00e+00	0	41	0	1287651328	46	3905
2026-01-30 05:51:43.60	12.66	22.10	-37.5	-38.2	25.1	0.00e+00	0	41	0	1292894208	46	3932
2026-01-30 05:51:44.60	12.44	22.18	-37.6	-38.3	25.0	0.00e+00	0	41	0	1298137088	46	3989
2026-01-30 05:51:45.61	12.21	22.26	-37.6	-38.3	25.0	0.00e+00	0	41	0	1304428544	46	4001
2026-01-30 05:51:46.62	11.98	22.34	-37.6	-38.3	25.0	0.00e+00	0	41	0	1309671424	46	3992
2026-01-30 05:51:47.63	11.75	22.42	-37.5	-38.3	25.0	0.00e+00	0	41	0	1314914304	46	3964
2026-01-30 05:51:48.64	11.53	22.50	-37.5	-38.2	25.1	0.00e+00	0	41	0	1321205760	46	3946
2026-01-30 05:51:49.65	11.30	22.58	-37.6	-38.3	25.0	0.00e+00	0	41	0	1326448640	46	3978
2026-01-30 05:51:50.66	11.06	22.65	-37.4	-38.1	25.2	0.00e+00	0	41	0	1332740096	46	3901
2026-01-30 05:51:51.66	10.83	22.73	-37.4	-38.1	25.2	0.00e+00	0	41	0	1337982976	46	3877
2026-01-30 05:51:52.67	10.60	22.81	-37.3	-38.0	25.3	0.00e+00	0	41	0	1344274432	46	3834
2026-01-30 05:51:53.67	10.37	22.89	-37.4	-38.1	25.2	0.00e+00	0	41	0	1349517312	46	3888
2026-01-30 05:51:54.67	10.13	22.96	-37.4	-38.1	25.2	0.00e+00	0	41	0	1354760192	46	3905
2026-01-30 05:51:55.68	9.89	23.04	-37.4	-38.1	25.2	0.00e+00	0	41	0	1361051648	46	3890
2026-01-30 05:51:56.69	9.66	23.12	-37.4	-38.1	25.2	0.00e+00	0	41	0	1366294528	46	3890
2026-01-30 05:51:57.69	9.42	23.19	-37.4	-38.1	25.2	0.00e+00	0	41	0	1372585984	46	3890
2026-01-30 05:51:58.70	9.18	23.27	-37.4	-38.1	25.3	0.00e+00	0	41	0	1377828864	46	3880
2026-01-30 05:51:59.71	8.94	23.34	-37.3	-38.0	25.3	0.00e+00	0	41	0	1383071744	46	3847
2026-01-30 05:52:00.72	8.69	23.42	-37.3	-38.0	25.3	0.00e+00	0	41	0	1389363200	46	3856
2026-01-30 05:52:01.73	8.45	23.49	-37.3	-38.0	25.3	0.00e+00	0	41	0	1394606080	46	3849
2026-01-30 05:52:02.73	8.20	23.57	-37.5	-38.2	25.1	0.00e+00	0	41	0	1399848960	46	3923
2026-01-30 05:52:03.74	7.96	23.64	-37.5	-38.2	25.1	0.00e+00	0	41	0	1406140416	46	3945
2026-01-30 05:52:04.75	7.71	23.72	-37.4	-38.2	25.2	0.00e+00	0	41	0	1411383296	46	3916
2026-01-30 05:52:05.75	7.46	23.79	-37.3	-38.0	25.3	0.00e+00	0	41	0	1416626176	46	3861
2026-01-30 05:52:06.76	7.21	23.86	-37.3	-38.0	25.3	0.00e+00	0	41	0	1422917632	46	3837
2026-01-30 05:52:07.76	6.96	23.93	-37.3	-38.0	25.3	0.00e+00	0	41	0	1429209088	46	3827
2026-01-30 05:52:08.77	6.71	24.01	-37.2	-37.9	25.4	0.00e+00	0	41	0	1434451968	46	3806
2026-01-30 05:52:09.78	6.46	24.08	-37.3	-38.0	25.4	0.00e+00	0	41	0	1439694848	46	3836
2026-01-30 05:52:10.78	6.20	24.15	-37.3	-38.0	25.3	0.00e+00	0	41	0	1445986304	46	3865
2026-01-30 05:52:11.79	5.95	24.22	-37.3	-38.0	25.4	0.00e+00	0	41	0	1451229184	46	3835
2026-01-30 05:52:12.80	5.69	24.29	-37.3	-38.0	25.3	0.00e+00	0	41	0	1457520640	46	3848
2026-01-30 05:52:13.80	5.43	24.36	-37.4	-38.1	25.3	0.00e+00	0	41	0	1462763520	46	3895
2026-01-30 05:52:14.81	5.17	24.43	-37.2	-37.9	25.4	0.00e+00	0	41	0	1468006400	46	3800
2026-01-30 05:52:15.82	4.91	24.50	-37.1	-37.9	25.4	0.00e+00	0	41	0	1474297856	46	3782
2026-01-30 05:52:16.83	4.65	24.57	-37.2	-37.9	25.5	0.00e+00	0	41	0	1479540736	46	3787
2026-01-30 05:52:17.84	4.39	24.64	-37.3	-38.0	25.4	0.00e+00	0	41	0	1484783616	46	3837
2026-01-30 05:52:18.85	4.12	24.70	-37.3	-38.0	25.3	0.00e+00	0	41	0	1491075072	46	3862
2026-01-30 05:52:19.86	3.86	24.77	-37.2	-37.9	25.4	0.00e+00	0	41	0	1497366528	46	3824
2026-01-30 05:52:20.87	3.59	24.84	-37.4	-38.1	25.3	0.00e+00	0	41	0	1502609408	46	3880
2026-01-30 05:52:21.88	3.32	24.90	-37.2	-37.9	25.4	0.00e+00	0	41	0	1507852288	46	3818
2026-01-30 05:52:22.89	3.05	24.97	-37.0	-37.7	25.6	0.00e+00	0	41	0	1514143744	46	3721
2026-01-30 05:52:23.90	2.78	25.03	-36.9	-37.5	25.7	0.00e+00	0	41	0	1519386624	45	3865
2026-01-30 05:52:24.91	2.51	25.10	-36.9	-37.6	25.7	0.00e+00	0	41	0	1524629504	45	3877
2026-01-30 05:52:25.92	2.24	25.16	-36.8	-37.5	25.8	0.00e+00	0	41	0	1530920960	45	3831
2026-01-30 05:52:26.93	1.97	25.23	-36.8	-37.5	25.8	0.00e+00	0	41	0	1536163840	45	3839
2026-01-30 05:52:27.93	1.69	25.29	-36.7	-37.4	25.9	0.00e+00	0	41	0	1542455296	45	3784
2026-01-30 05:52:28.94	1.42	25.35	-36.7	-37.4	25.8	0.00e+00	0	41	0	1547698176	45	3809
2026-01-30 05:52:29.95	1.14	25.41	-36.8	-37.5	25.8	0.00e+00	0	41	0	1552941056	45	3852
2026-01-30 05:52:30.96	0.86	25.47	-36.9	-37.6	25.7	0.00e+00	0	41	0	1559232512	45	3879
2026-01-30 05:52:31.97	0.58	25.54	-37.0	-37.7	25.6	0.00e+00	0	41	0	1565523968	45	3937
2026-01-30 05:52:32.97	0.31	25.59	-37.0	-37.7	25.6	0.00e+00	0	41	0	1570766848	45	3932
2026-01-30 05:52:33.98	0.03	25.65	-37.0	-37.7	25.6	0.00e+00	0	41	0	1576009728	45	3948
2026-01-30 05:52:34.99	359.74	25.71	-37.0	-37.8	25.5	0.00e+00	0	41	0	1582301184	45	3963
2026-01-30 05:52:35.99	359.46	25.77	-37.1	-37.8	25.5	0.00e+00	0	41	0	1587544064	45	4001
2026-01-30 05:52:37.00	359.18	25.83	-37.1	-37.8	25.5	0.00e+00	0	41	0	1592786944	45	3968
2026-01-30 05:52:38.01	358.89	25.88	-37.0	-37.7	25.6	0.00e+00	0	41	0	1599078400	45	3948
2026-01-30 05:52:39.02	358.61	25.94	-37.1	-37.8	25.6	0.00e+00	0	41	0	1604321280	45	3966
2026-01-30 05:52:40.02	358.32	26.00	-36.9	-37.6	25.7	0.00e+00	0	41	0	1609564160	45	3872
2026-01-30 05:52:41.03	358.04	26.05	-36.9	-37.6	25.7	0.00e+00	0	41	0	1615855616	45	3876
2026-01-30 05:52:42.04	357.75	26.11	-37.0	-37.7	25.6	0.00e+00	0	41	0	1621098496	45	3940
2026-01-30 05:52:43.04	357.46	26.16	-37.1	-37.8	25.6	0.00e+00	0	41	0	1627389952	45	3967
2026-01-30 05:52:44.04	357.17	26.21	-36.8	-37.5	25.8	0.00e+00	0	41	0	1632632832	45	3852
2026-01-30 05:52:45.05	356.88	26.26	-36.6	-37.3	26.0	0.00e+00	0	41	0	1637875712	45	3758
2026-01-30 05:52:46.07	356.58	26.31	-36.7	-37.3	25.9	0.00e+00	0	41	0	1644167168	45	3779
2026-01-30 05:52:47.07	356.29	26.36	-36.8	-37.5	25.9	0.00e+00	0	41	0	1650458624	45	3830
2026-01-30 05:52:48.08	355.99	26.41	-36.9	-37.6	25.7	0.00e+00	0	41	0	1655701504	45	3896
2026-01-30 05:52:49.09	355.70	26.46	-37.1	-37.8	25.6	0.00e+00	0	41	0	1660944384	45	3964
2026-01-30 05:52:50.09	355.40	26.51	-36.9	-37.6	25.7	0.00e+00	0	41	0	1667235840	45	3904
2026-01-30 05:52:51.10	355.11	26.56	-37.0	-37.7	25.6	0.00e+00	0	41	0	1672478720	45	3951
2026-01-30 05:52:52.10	354.81	26.60	-36.9	-37.6	25.7	0.00e+00	0	41	0	1677721600	45	3894
2026-01-30 05:52:53.11	354.51	26.65	-36.8	-37.5	25.8	0.00e+00	0	41	0	1684013056	45	3841
2026-01-30 05:52:54.11	354.21	26.70	-36.8	-37.5	25.8	0.00e+00	0	41	0	1689255936	45	3861
2026-01-30 05:52:55.12	353.91	26.74	-36.7	-37.4	25.9	0.00e+00	0	41	0	1694498816	45	3814
2026-01-30 05:52:56.12	353.61	26.78	-36.8	-37.5	25.8	0.00e+00	0	41	0	1700790272	45	3856
2026-01-30 05:52:57.13	353.31	26.83	-37.0	-37.7	25.7	0.00e+00	0	41	0	1706033152	45	3928
2026-01-30 05:52:58.14	353.01	26.87	-36.9	-37.6	25.8	0.00e+00	0	41	0	1712324608	45	3880
2026-01-30 05:52:59.15	352.70	26.91	-36.8	-37.5	25.8	0.00e+00	0	41	0	1717567488	45	3845
2026-01-30 05:53:00.15	352.40	26.95	-36.8	-37.5	25.9	0.00e+00	0	41	0	1722810368	45	3825
2026-01-30 05:53:01.16	352.09	26.99	-36.7	-37.4	25.9	0.00e+00	0	41	0	1729101824	45	3789
2026-01-30 05:53:02.16	351.79	27.03	-36.5	-37.2	26.1	0.00e+00	0	41	0	1735393280	45	3727
2026-01-30 05:53:03.17	351.48	27.06	-36.6	-37.2	26.1	0.00e+00	0	41	0	1740636160	45	3732
2026-01-30 05:53:04.17	351.18	27.10	-36.6	-37.3	26.0	0.00e+00	0	41	0	1745879040	45	3745
2026-01-30 05:53:05.18	350.87	27.14	-36.6	-37.2	26.1	0.00e+00	0	41	0	1752170496	45	3735
2026-01-30 05:53:06.19	350.56	27.17	-36.5	-37.2	26.1	0.00e+00	0	41	0	1757413376	45	3718
2026-01-30 05:53:07.19	350.25	27.21	-36.6	-37.3	26.0	0.00e+00	0	41	0	1762656256	45	3754
2026-01-30 05:53:08.20	349.94	27.24	-36.6	-37.2	26.1	0.00e+00	0	41	0	1768947712	45	3735
2026-01-30 05:53:09.20	349.63	27.27	-36.6	-37.3	26.0	0.00e+00	0	41	0	1774190592	45	3755
2026-01-30 05:53:10.21	349.32	27.30	-36.5	-37.2	26.1	0.00e+00	0	41	0	1779433472	45	3721
2026-01-30 05:53:11.22	349.00	27.33	-36.5	-37.2	26.1	0.00e+00	0	41	0	1785724928	45	3732
2026-01-30 05:53:12.23	348.69	27.36	-36.5	-37.2	26.1	0.00e+00	0	41	0	1790967808	45	3724
2026-01-30 05:53:13.24	348.38	27.39	-36.5	-37.2	26.1	0.00e+00	0	41	0	1797259264	45	3721
2026-01-30 05:53:14.25	348.06	27.42	-36.6	-37.3	26.1	0.00e+00	0	41	0	1802502144	45	3748
2026-01-30 05:53:15.26	347.75	27.45	-36.6	-37.3	26.0	0.00e+00	0	41	0	1808793600	45	3749
2026-01-30 05:53:16.27	347.43	27.47	-36.6	-37.3	26.0	0.00e+00	0	41	0	1814036480	45	3768
2026-01-30 05:53:17.28	347.11	27.50	-36.6	-37.3	26.0	0.00e+00	0	41	0	1820327936	45	3770
2026-01-30 05:53:18.28	346.80	27.52	-36.6	-37.2	26.1	0.00e+00	0	41	0	1825570816	45	3736
2026-01-30 05:53:19.29	346.48	27.55	-36.6	-37.3	26.1	0.00e+00	0	41	0	1830813696	45	3755
2026-01-30 05:53:20.29	346.17	27.57	-36.8	-37.5	25.9	0.00e+00	0	41	0	1837105152	45	3837
2026-01-30 05:53:21.30	345.85	27.59	-36.7	-37.4	26.0	0.00e+00	0	41	0	1842348032	45	3792
2026-01-30 05:53:22.31	345.53	27.61	-36.6	-37.3	26.1	0.00e+00	0	41	0	1847590912	45	3741
2026-01-30 05:53:23.32	345.21	27.63	-36.4	-37.1	26.2	0.00e+00	0	41	0	1853882368	44	3903
2026-01-30 05:53:24.32	344.89	27.65	-36.3	-37.0	26.3	0.00e+00	0	41	0	1859125248	44	3851
2026-01-30 05:53:25.33	344.57	27.67	-36.3	-37.0	26.3	0.00e+00	0	41	0	1864368128	44	3844
2026-01-30 05:53:26.33	344.26	27.68	-36.3	-37.0	26.3	0.00e+00	0	41	0	1870659584	44	3857
2026-01-30 05:53:27.34	343.94	27.70	-36.5	-37.2	26.2	0.00e+00	0	41	0	1875902464	44	3916
2026-01-30 05:53:28.35	343.62	27.71	-36.2	-36.9	26.3	0.00e+00	0	41	0	1882193920	44	3815
2026-01-30 05:53:29.36	343.30	27.72	-36.2	-36.9	26.4	0.00e+00	0	41	0	1887436800	44	3799
2026-01-30 05:53:30.37	342.97	27.74	-36.3	-37.0	26.4	0.00e+00	0	41	0	1893728256	44	3832
2026-01-30 05:53:31.38	342.65	27.75	-36.2	-36.9	26.4	0.00e+00	0	41	0	1898971136	44	3810
2026-01-30 05:53:32.39	342.33	27.76	-36.3	-37.0	26.3	0.00e+00	0	41	0	1905262592	44	3844
2026-01-30 05:53:33.40	342.01	27.77	-36.4	-37.1	26.2	0.00e+00	0	41	0	1910505472	44	3873
2026-01-30 05:53:34.41	341.69	27.78	-36.4	-37.1	26.2	0.00e+00	0	41	0	1915748352	44	3907
2026-01-30 05:53:35.42	341.36	27.78	-36.5	-37.2	26.1	0.00e+00	0	41	0	1922039808	44	3950
2026-01-30 05:53:36.43	341.04	27.79	-36.4	-37.1	26.2	0.00e+00	0	41	0	1927282688	44	3888
2026-01-30 05:53:37.44	340.72	27.80	-36.5	-37.2	26.2	0.00e+00	0	41	0	1932525568	44	3919
2026-01-30 05:53:38.45	340.40	27.80	-36.3	-37.0	26.3	0.00e+00	0	41	0	1938817024	44	3839
2026-01-30 05:53:39.45	340.08	27.80	-36.4	-37.1	26.2	0.00e+00	0	41	0	1944059904	44	3875
2026-01-30 05:53:40.46	339.75	27.81	-36.3	-37.0	26.3	0.00e+00	0	41	0	1949302784	44	3859
2026-01-30 05:53:41.47	339.43	27.81	-36.4	-37.1	26.2	0.00e+00	0	41	0	1955594240	44	3903
2026-01-30 05:53:42.48	339.11	27.81	-36.6	-37.3	26.1	0.00e+00	0	41	0	1961885696	44	3964
2026-01-30 05:53:43.48	338.79	27.81	-36.7	-37.4	26.0	0.00e+00	0	41	0	1967128576	44	4008
2026-01-30 05:53:44.48	338.47	27.81	-36.8	-37.5	25.9	0.00e+00	0	41	0	1972371456	44	4054
2026-01-30 05:53:45.49	338.14	27.80	-36.7	-37.4	26.0	0.00e+00	0	41	0	1978662912	44	4043
2026-01-30 05:53:46.50	337.82	27.80	-36.7	-37.4	26.0	0.00e+00	0	41	0	1983905792	44	4017
2026-01-30 05:53:47.50	337.50	27.80	-36.6	-37.3	26.1	0.00e+00	0	41	0	1990197248	44	3984
2026-01-30 05:53:48.51	337.18	27.79	-36.6	-37.3	26.1	0.00e+00	0	41	0	1995440128	44	3964
2026-01-30 05:53:49.52	336.86	27.78	-36.5	-37.2	26.2	0.00e+00	0	41	0	2000683008	44	3923
2026-01-30 05:53:50.53	336.53	27.78	-36.5	-37.2	26.2	0.00e+00	0	41	0	2006974464	44	3935
2026-01-30 05:53:51.53	336.22	27.77	-36.6	-37.3	26.1	0.00e+00	0	41	0	2012217344	44	3959
2026-01-30 05:53:52.54	335.89	27.76	-36.4	-37.1	26.3	0.00e+00	0	41	0	2017460224	44	3877
2026-01-30 05:53:53.54	335.57	27.75	-36.4	-37.0	26.3	0.00e+00	0	41	0	2023751680	44	3862
2026-01-30 05:53:54.55	335.25	27.74	-36.4	-37.1	26.3	0.00e+00	0	41	0	2028994560	44	3887
2026-01-30 05:53:55.55	334.93	27.72	-36.5	-37.2	26.2	0.00e+00	0	41	0	2034237440	44	3918
2026-01-30 05:53:56.56	334.61	27.71	-36.5	-37.2	26.2	0.00e+00	0	41	0	2040528896	44	3935
2026-01-30 05:53:57.57	334.29	27.69	-36.4	-37.1	26.3	0.00e+00	0	41	0	2046820352	44	3869
2026-01-30 05:53:58.58	333.97	27.68	-36.4	-37.1	26.3	0.00e+00	0	41	0	2052063232	44	3898
2026-01-30 05:53:59.59	333.65	27.66	-36.5	-37.2	26.1	0.00e+00	0	41	0	2057306112	44	3948
2026-01-30 05:54:00.60	333.33	27.65	-36.5	-37.2	26.2	0.00e+00	0	41	0	2063597568	44	3950
2026-01-30 05:54:01.61	333.01	27.63	-36.7	-37.4	26.1	0.00e+00	0	41	0	2068840448	44	4005
2026-01-30 05:54:02.61	332.70	27.61	-36.6	-37.3	26.1	0.00e+00	0	41	0	2075131904	44	3984
2026-01-30 05:54:03.61	332.38	27.59	-36.5	-37.2	26.2	0.00e+00	0	41	0	2080374784	44	3948
2026-01-30 05:54:04.62	332.06	27.57	-36.6	-37.2	26.2	0.00e+00	0	41	0	2085617664	44	3946
2026-01-30 05:54:05.63	331.74	27.54	-36.5	-37.2	26.2	0.00e+00	0	41	0	2091909120	44	3930
2026-01-30 05:54:06.64	331.43	27.52	-36.6	-37.3	26.1	0.00e+00	0	41	0	2097152000	44	3985
2026-01-30 05:54:07.64	331.11	27.50	-36.7	-37.4	26.0	0.00e+00	0	41	0	2102394880	44	4024
2026-01-30 05:54:08.65	330.80	27.47	-36.6	-37.3	26.0	0.00e+00	0	41	0	2108686336	44	4001
2026-01-30 05:54:09.65	330.48	27.44	-36.5	-37.2	26.2	0.00e+00	0	41	0	2113929216	44	3940
2026-01-30 05:54:10.66	330.17	27.42	-36.5	-37.2	26.1	0.00e+00	0	41	0	2120220672	44	3948
2026-01-30 05:54:11.67	329.85	27.39	-36.5	-37.2	26.2	0.00e+00	0	41	0	2125463552	44	3936
2026-01-30 05:54:12.68	329.54	27.36	-36.7	-37.3	26.1	0.00e+00	0	41	0	2131755008	44	4004
2026-01-30 05:54:13.68	329.23	27.33	-36.7	-37.3	26.1	0.00e+00	0	41	0	2136997888	44	4001
2026-01-30 05:54:14.68	328.92	27.30	-36.6	-37.3	26.1	0.00e+00	0	41	0	2142240768	44	3995
2026-01-30 05:54:15.68	328.61	27.27	-36.6	-37.3	26.1	0.00e+00	0	41	0	2148532224	44	3977
2026-01-30 05:54:16.69	328.30	27.24	-36.7	-37.3	26.1	0.00e+00	0	41	0	2153775104	44	4003
2026-01-30 05:54:17.70	327.99	27.20	-36.6	-37.3	26.1	0.00e+00	0	41	0	2160066560	44	3988
2026-01-30 05:54:18.71	327.68	27.17	-36.7	-37.3	26.1	0.00e+00	0	41	0	2165309440	44	4003
2026-01-30 05:54:19.72	327.37	27.13	-36.6	-37.2	26.1	0.00e+00	0	41	0	2170552320	44	3958
2026-01-30 05:54:20.72	327.06	27.10	-36.4	-37.0	26.3	0.00e+00	0	41	0	2176843776	44	3867
2026-01-30 05:54:21.73	326.75	27.06	-36.5	-37.2	26.2	0.00e+00	0	41	0	2182086656	44	3921
2026-01-30 05:54:22.74	326.44	27.02	-36.6	-37.3	26.2	0.00e+00	0	41	0	2187329536	44	3959
2026-01-30 05:54:23.74	326.14	26.98	-36.5	-37.2	26.2	0.00e+00	0	41	0	2193620992	44	3947
2026-01-30 05:54:24.75	325.83	26.94	-36.5	-37.2	26.2	0.00e+00	0	41	0	2198863872	44	3948
2026-01-30 05:54:25.76	325.53	26.90	-36.4	-37.1	26.3	0.00e+00	0	41	0	2204106752	44	3869
2026-01-30 05:54:26.76	325.23	26.86	-36.4	-37.0	26.3	0.00e+00	0	41	0	2210398208	44	3860
2026-01-30 05:54:27.77	324.92	26.82	-36.5	-37.1	26.3	0.00e+00	0	41	0	2216689664	44	3913
2026-01-30 05:54:28.77	324.62	26.78	-36.4	-37.1	26.3	0.00e+00	0	41	0	2221932544	44	3896
2026-01-30 05:54:29.78	324.32	26.73	-36.5	-37.2	26.2	0.00e+00	0	41	0	2227175424	44	3923
2026-01-30 05:54:30.78	324.02	26.69	-36.4	-37.0	26.3	0.00e+00	0	41	0	2233466880	44	3867
2026-01-30 05:54:31.79	323.72	26.64	-36.4	-37.0	26.3	0.00e+00	0	41	0	2238709760	44	3863
2026-01-30 05:54:32.80	323.42	26.60	-36.5	-37.1	26.3	0.00e+00	0	41	0	2245001216	44	3909
2026-01-30 05:54:33.81	323.12	26.55	-36.4	-37.1	26.3	0.00e+00	0	41	0	2250244096	44	3881
2026-01-30 05:54:34.81	322.83	26.50	-36.4	-37.1	26.3	0.00e+00	0	41	0	2255486976	44	3884
2026-01-30 05:54:35.82	322.53	26.46	-36.4	-37.1	26.3	0.00e+00	0	41	0	2261778432	44	3884
2026-01-30 05:54:36.83	322.23	26.41	-36.5	-37.2	26.2	0.00e+00	0	41	0	2267021312	44	3927
2026-01-30 05:54:37.83	321.94	26.36	-36.5	-37.1	26.3	0.00e+00	0	41	0	2272264192	44	3908
2026-01-30 05:54:38.84	321.65	26.31	-36.5	-37.2	26.2	0.00e+00	0	41	0	2278555648	44	3942
2026-01-30 05:54:39.85	321.35	26.25	-36.7	-37.4	26.1	0.00e+00	0	41	0	2283798528	44	4014
2026-01-30 05:54:40.85	321.06	26.20	-36.8	-37.5	26.0	0.00e+00	0	41	0	2289041408	44	4068
2026-01-30 05:54:41.86	320.77	26.15	-36.8	-37.5	25.9	0.00e+00	0	41	0	2295332864	44	4078
2026-01-30 05:54:42.86	320.48	26.10	-36.8	-37.5	26.0	0.00e+00	0	41	0	2300575744	44	4072
2026-01-30 05:54:43.87	320.20	26.04	-36.7	-37.4	26.1	0.00e+00	0	41	0	2306867200	44	4027
2026-01-30 05:54:44.88	319.91	25.99	-36.7	-37.4	26.0	0.00e+00	0	41	0	2312110080	44	4044
2026-01-30 05:54:45.89	319.62	25.93	-36.8	-37.5	26.0	0.00e+00	0	41	0	2318401536	44	4068
2026-01-30 05:54:46.90	319.33	25.88	-36.6	-37.3	26.1	0.00e+00	0	41	0	2323644416	44	3983
2026-01-30 05:54:47.91	319.05	25.82	-36.6	-37.3	26.1	0.00e+00	0	41	0	2329935872	44	3987
2026-01-30 05:54:48.92	318.76	25.76	-36.5	-37.2	26.2	0.00e+00	0	41	0	2335178752	44	3940
2026-01-30 05:54:49.92	318.48	25.70	-36.6	-37.3	26.1	0.00e+00	0	41	0	2340421632	44	3962
2026-01-30 05:54:50.93	318.20	25.64	-36.5	-37.2	26.2	0.00e+00	0	41	0	2346713088	44	3930
2026-01-30 05:54:51.93	317.92	25.59	-36.6	-37.2	26.2	0.00e+00	0	41	0	2351955968	44	3950
2026-01-30 05:54:52.94	317.64	25.53	-36.6	-37.2	26.2	0.00e+00	0	41	0	2357198848	44	3957
2026-01-30 05:54:53.94	317.37	25.47	-36.6	-37.3	26.2	0.00e+00	0	41	0	2363490304	44	3960
2026-01-30 05:54:54.95	317.09	25.40	-36.7	-37.4	26.0	0.00e+00	0	41	0	2368733184	44	4023
2026-01-30 05:54:55.96	316.81	25.34	-36.7	-37.4	26.1	0.00e+00	0	41	0	2375024640	44	4024
2026-01-30 05:54:56.97	316.53	25.28	-36.7	-37.4	26.0	0.00e+00	0	41	0	2380267520	44	4044
2026-01-30 05:54:57.97	316.26	25.22	-36.8	-37.4	26.0	0.00e+00	0	41	0	2386558976	44	4046
2026-01-30 05:54:58.98	315.99	25.15	-36.7	-37.3	26.1	0.00e+00	0	41	0	2391801856	44	4003
2026-01-30 05:54:59.99	315.72	25.09	-36.6	-37.3	26.1	0.00e+00	0	41	0	2397044736	44	3978
2026-01-30 05:55:00.99	315.45	25.02	-36.6	-37.3	26.1	0.00e+00	0	41	0	2403336192	44	3974
2026-01-30 05:55:02.00	315.18	24.96	-36.7	-37.4	26.0	0.00e+00	0	41	0	2408579072	44	4037
2026-01-30 05:55:03.00	314.91	24.89	-36.7	-37.4	26.0	0.00e+00	0	41	0	2414870528	44	4029
2026-01-30 05:55:04.00	314.65	24.83	-36.9	-37.6	25.9	0.00e+00	0	41	0	2420113408	44	4100
2026-01-30 05:55:05.01	314.38	24.76	-36.8	-37.5	25.9	0.00e+00	0	41	0	2425356288	44	4084
2026-01-30 05:55:06.02	314.11	24.69	-36.9	-37.6	25.8	0.00e+00	0	41	0	2431647744	44	4118
2026-01-30 05:55:07.03	313.85	24.63	-36.9	-37.6	25.8	0.00e+00	0	41	0	2436890624	44	4117
2026-01-30 05:55:08.03	313.59	24.56	-37.1	-37.8	25.7	0.00e+00	0	41	0	2442133504	44	4202
2026-01-30 05:55:09.04	313.33	24.49	-37.1	-37.8	25.7	0.00e+00	0	41	0	2448424960	44	4197
2026-01-30 05:55:10.04	313.07	24.42	-37.2	-37.9	25.6	0.00e+00	0	41	0	2453667840	44	4271
2026-01-30 05:55:11.05	312.81	24.35	-37.2	-37.9	25.6	0.00e+00	0	41	0	2458910720	45	4046
2026-01-30 05:55:12.05	312.55	24.28	-37.1	-37.8	25.7	0.00e+00	0	41	0	2465202176	45	3996
2026-01-30 05:55:13.06	312.29	24.21	-37.1	-37.8	25.7	0.00e+00	0	41	0	2470445056	45	3972
2026-01-30 05:55:14.07	312.04	24.14	-37.0	-37.7	25.7	0.00e+00	0	41	0	2476736512	45	3950
2026-01-30 05:55:15.07	311.78	24.07	-37.1	-37.8	25.7	0.00e+00	0	41	0	2481979392	45	3990
2026-01-30 05:55:16.09	311.53	24.00	-37.1	-37.8	25.7	0.00e+00	0	41	0	2488270848	45	3982
2026-01-30 05:55:17.09	311.28	23.92	-37.0	-37.7	25.7	0.00e+00	0	41	0	2493513728	45	3949
2026-01-30 05:55:18.09	311.03	23.85	-36.9	-37.6	25.9	0.00e+00	0	41	0	2499805184	45	3888
2026-01-30 05:55:19.10	310.78	23.78	-37.0	-37.7	25.8	0.00e+00	0	41	0	2505048064	45	3924
2026-01-30 05:55:20.11	310.53	23.71	-37.0	-37.7	25.8	0.00e+00	0	41	0	2510290944	45	3936
2026-01-30 05:55:21.12	310.28	23.63	-37.1	-37.7	25.7	0.00e+00	0	41	0	2516582400	45	3958
2026-01-30 05:55:22.13	310.03	23.56	-37.0	-37.6	25.8	0.00e+00	0	41	0	2521825280	45	3911
2026-01-30 05:55:23.13	309.79	23.48	-36.8	-37.5	26.0	0.00e+00	0	41	0	2527068160	45	3834
2026-01-30 05:55:24.14	309.54	23.41	-36.9	-37.5	25.9	0.00e+00	0	41	0	2533359616	45	3867
2026-01-30 05:55:25.15	309.30	23.33	-36.9	-37.6	25.9	0.00e+00	0	41	0	2538602496	45	3891
2026-01-30 05:55:26.15	309.06	23.26	-36.9	-37.6	25.9	0.00e+00	0	41	0	2543845376	45	3897
2026-01-30 05:55:27.16	308.82	23.18	-36.9	-37.6	25.8	0.00e+00	0	41	0	2550136832	45	3898
2026-01-30 05:55:28.17	308.58	23.11	-37.0	-37.7	25.7	0.00e+00	0	41	0	2556428288	45	3954
2026-01-30 05:55:29.18	308.34	23.03	-37.1	-37.8	25.7	0.00e+00	0	41	0	2561671168	45	3974
2026-01-30 05:55:30.19	308.10	22.95	-37.0	-37.7	25.8	0.00e+00	0	41	0	2566914048	45	3949
2026-01-30 05:55:31.20	307.87	22.87	-37.2	-37.9	25.6	0.00e+00	0	41	0	2573205504	45	4025
2026-01-30 05:55:32.21	307.63	22.80	-37.3	-38.0	25.5	0.00e+00	0	41	0	2578448384	45	4071
2026-01-30 05:55:33.22	307.40	22.72	-37.3	-38.1	25.5	0.00e+00	0	41	0	2584739840	45	4103
2026-01-30 05:55:34.23	307.16	22.64	-37.2	-37.9	25.6	0.00e+00	0	41	0	2589982720	45	4044
2026-01-30 05:55:35.24	306.93	22.56	-37.1	-37.8	25.7	0.00e+00	0	41	0	2595225600	45	3959
2026-01-30 05:55:36.25	306.70	22.48	-37.1	-37.7	25.7	0.00e+00	0	41	0	2601517056	45	3955
2026-01-30 05:55:37.25	306.47	22.41	-37.1	-37.7	25.7	0.00e+00	0	41	0	2606759936	45	3958
2026-01-30 05:55:38.25	306.25	22.33	-37.2	-37.9	25.6	0.00e+00	0	41	0	2612002816	45	4024
2026-01-30 05:55:39.26	306.02	22.25	-37.3	-38.0	25.5	0.00e+00	0	41	0	2618294272	45	4076
2026-01-30 05:55:40.27	305.79	22.17	-37.4	-38.1	25.4	0.00e+00	0	41	0	2624585728	45	4111
2026-01-30 05:55:41.28	305.57	22.09	-37.4	-38.1	25.4	0.00e+00	0	41	0	2629828608	45	4126
2026-01-30 05:55:42.29	305.35	22.01	-37.4	-38.1	25.4	0.00e+00	0	41	0	2635071488	45	4133
2026-01-30 05:55:43.29	305.13	21.93	-37.4	-38.1	25.5	0.00e+00	0	41	0	2641362944	45	4105
2026-01-30 05:55:44.30	304.90	21.85	-37.4	-38.1	25.4	0.00e+00	0	41	0	2646605824	45	4119
2026-01-30 05:55:45.31	304.68	21.77	-37.5	-38.2	25.3	0.00e+00	0	41	0	2651848704	45	4169
2026-01-30 05:55:46.31	304.47	21.69	-37.5	-38.3	25.3	0.00e+00	0	41	0	2658140160	45	4197
2026-01-30 05:55:47.32	304.25	21.61	-37.6	-38.3	25.2	0.00e+00	0	41	0	2663383040	45	4239
2026-01-30 05:55:48.33	304.03	21.53	-37.5	-38.2	25.3	0.00e+00	0	41	0	2669674496	45	4170
2026-01-30 05:55:49.34	303.82	21.44	-37.6	-38.3	25.2	0.00e+00	0	41	0	2674917376	45	4213
2026-01-30 05:55:50.35	303.60	21.36	-37.6	-38.3	25.2	0.00e+00	0	41	0	2680160256	45	4218
2026-01-30 05:55:51.35	303.39	21.28	-37.7	-38.4	25.1	0.00e+00	0	41	0	2686451712	45	4267
2026-01-30 05:55:52.36	303.18	21.20	-37.9	-38.6	25.0	0.00e+00	0	41	0	2691694592	46	4119
2026-01-30 05:55:53.37	302.97	21.12	-37.9	-38.6	25.0	0.00e+00	0	41	0	2697986048	46	4128
2026-01-30 05:55:54.37	302.76	21.04	-37.9	-38.7	24.9	0.00e+00	0	41	0	2703228928	46	4155
2026-01-30 05:55:55.38	302.55	20.95	-37.9	-38.6	24.9	0.00e+00	0	41	0	2709520384	46	4144
2026-01-30 05:55:56.39	302.35	20.87	-37.9	-38.7	24.9	0.00e+00	0	41	0	2714763264	46	4146
2026-01-30 05:55:57.40	302.14	20.79	-37.8	-38.5	25.0	0.00e+00	0	41	0	2720006144	46	4095
2026-01-30 05:55:58.40	301.94	20.71	-37.8	-38.6	25.0	0.00e+00	0	41	0	2726297600	46	4104
2026-01-30 05:55:59.41	301.73	20.62	-38.0	-38.7	24.9	0.00e+00	0	41	0	2731540480	46	4177
2026-01-30 05:56:00.41	301.53	20.54	-38.0	-38.7	24.9	0.00e+00	0	41	0	2736783360	46	4153
2026-01-30 05:56:01.42	301.33	20.46	-37.9	-38.7	25.0	0.00e+00	0	41	0	2743074816	46	4148
2026-01-30 05:56:02.43	301.13	20.38	-38.1	-38.8	24.8	0.00e+00	0	41	0	2748317696	46	4213
2026-01-30 05:56:03.44	300.93	20.29	-38.0	-38.7	24.9	0.00e+00	0	41	0	2754609152	46	4179
2026-01-30 05:56:04.44	300.73	20.21	-38.0	-38.7	24.9	0.00e+00	0	41	0	2759852032	46	4176
2026-01-30 05:56:05.45	300.53	20.13	-38.0	-38.8	24.8	0.00e+00	0	41	0	2765094912	46	4196
2026-01-30 05:56:06.45	300.34	20.04	-38.0	-38.7	24.9	0.00e+00	0	41	0	2771386368	46	4175
2026-01-30 05:56:07.46	300.14	19.96	-38.0	-38.7	24.9	0.00e+00	0	41	0	2777677824	46	4167
2026-01-30 05:56:08.47	299.95	19.88	-38.0	-38.7	24.8	0.00e+00	0	41	0	2782920704	46	4185
2026-01-30 05:56:09.48	299.76	19.79	-37.8	-38.5	25.0	0.00e+00	0	41	0	2788163584	46	4076
2026-01-30 05:56:10.48	299.56	19.71	-37.9	-38.6	25.0	0.00e+00	0	41	0	2794455040	46	4122
2026-01-30 05:56:11.49	299.37	19.63	-38.0	-38.7	24.9	0.00e+00	0	41	0	2799697920	46	4158
2026-01-30 05:56:12.50	299.18	19.54	-38.1	-38.8	24.8	0.00e+00	0	41	0	2804940800	46	4204
2026-01-30 05:56:13.50	299.00	19.46	-38.1	-38.8	24.8	0.00e+00	0	41	0	2811232256	46	4216
2026-01-30 05:56:14.51	298.81	19.37	-38.1	-38.8	24.8	0.00e+00	0	41	0	2816475136	46	4214
2026-01-30 05:56:15.52	298.62	19.29	-38.1	-38.8	24.8	0.00e+00	0	41	0	2821718016	46	4236
2026-01-30 05:56:16.53	298.44	19.21	-38.1	-38.8	24.7	0.00e+00	0	41	0	2828009472	46	4237
2026-01-30 05:56:17.53	298.25	19.12	-38.1	-38.9	24.7	0.00e+00	0	41	0	2833252352	46	4257
2026-01-30 05:56:18.54	298.07	19.04	-38.2	-39.0	24.7	0.00e+00	0	41	0	2839543808	47	4069
2026-01-30 05:56:19.55	297.89	18.96	-38.1	-38.8	24.8	0.00e+00	0	41	0	2844786688	47	3987
2026-01-30 05:56:20.55	297.71	18.87	-38.1	-38.9	24.7	0.00e+00	0	41	0	2850029568	47	4008
2026-01-30 05:56:21.56	297.52	18.79	-38.0	-38.7	24.8	0.00e+00	0	41	0	2856321024	47	3949
2026-01-30 05:56:22.57	297.34	18.70	-38.0	-38.7	24.9	0.00e+00	0	41	0	2862612480	47	3936
2026-01-30 05:56:23.58	297.17	18.62	-38.1	-38.8	24.8	0.00e+00	0	41	0	2867855360	47	3974
2026-01-30 05:56:24.59	296.99	18.53	-37.9	-38.6	24.9	0.00e+00	0	41	0	2873098240	47	3913
2026-01-30 05:56:25.60	296.81	18.45	-38.0	-38.7	24.8	0.00e+00	0	41	0	2879389696	47	3956
2026-01-30 05:56:26.61	296.64	18.37	-38.0	-38.7	24.9	0.00e+00	0	41	0	2884632576	47	3939
2026-01-30 05:56:27.61	296.46	18.28	-38.2	-38.9	24.7	0.00e+00	0	41	0	2889875456	47	4021
2026-01-30 05:56:28.62	296.29	18.20	-38.2	-39.0	24.6	0.00e+00	0	41	0	2896166912	47	4062
2026-01-30 05:56:29.63	296.12	18.11	-38.3	-39.1	24.6	0.00e+00	0	41	0	2901409792	47	4101
2026-01-30 05:56:30.63	295.94	18.03	-38.3	-39.1	24.5	0.00e+00	0	41	0	2906652672	47	4116
2026-01-30 05:56:31.64	295.77	17.95	-38.4	-39.2	24.5	0.00e+00	0	41	0	2912944128	47	4156
2026-01-30 05:56:32.65	295.60	17.86	-38.4	-39.2	24.5	0.00e+00	0	41	0	2918187008	47	4153
2026-01-30 05:56:33.65	295.44	17.78	-38.6	-39.4	24.3	0.00e+00	0	41	0	2924478464	47	4252
2026-01-30 05:56:34.66	295.27	17.70	-38.7	-39.4	24.2	0.00e+00	0	41	0	2929721344	47	4273
2026-01-30 05:56:35.67	295.10	17.61	-38.9	-39.7	24.5	0.00e+00	0	41	0	2936012800	48	4146
2026-01-30 05:56:36.67	294.94	17.53	-39.0	-39.7	24.5	0.00e+00	0	41	0	2941255680	48	4162
2026-01-30 05:56:37.69	294.77	17.44	-39.0	-39.7	24.5	0.00e+00	0	41	0	2947547136	48	4184
2026-01-30 05:56:38.69	294.61	17.36	-39.0	-39.8	24.5	0.00e+00	0	41	0	2952790016	48	4199
2026-01-30 05:56:39.69	294.44	17.28	-39.0	-39.8	24.4	0.00e+00	0	41	0	2958032896	48	4199
2026-01-30 05:56:40.70	294.28	17.19	-39.2	-39.9	24.3	0.00e+00	0	41	0	2964324352	48	4276
2026-01-30 05:56:41.71	294.12	17.11	-39.2	-40.0	24.3	0.00e+00	0	41	0	2969567232	49	4064
2026-01-30 05:56:42.72	293.96	17.03	-39.3	-40.1	24.2	0.00e+00	0	41	0	2974810112	49	4108
2026-01-30 05:56:43.73	293.80	16.94	-39.3	-40.0	24.2	0.00e+00	0	41	0	2981101568	49	4088
2026-01-30 05:56:44.73	293.64	16.86	-39.4	-40.1	24.1	0.00e+00	0	41	0	2986344448	49	4128
2026-01-30 05:56:45.74	293.48	16.78	-39.4	-40.1	24.1	0.00e+00	0	41	0	2991587328	49	4145
2026-01-30 05:56:46.75	293.33	16.69	-39.3	-40.1	24.2	0.00e+00	0	41	0	2997878784	49	4101
2026-01-30 05:56:47.75	293.17	16.61	-39.3	-40.0	24.2	0.00e+00	0	41	0	3003121664	49	4095
2026-01-30 05:56:48.76	293.02	16.53	-39.3	-40.0	24.2	0.00e+00	0	42	0	3009413120	49	4095
2026-01-30 05:56:49.77	292.86	16.44	-39.3	-40.0	24.2	0.00e+00	0	41	0	3014656000	49	4081
2026-01-30 05:56:50.78	292.71	16.36	-39.3	-40.0	24.2	0.00e+00	0	41	0	3020947456	49	4094
2026-01-30 05:56:51.78	292.56	16.28	-39.3	-40.1	24.2	0.00e+00	0	41	0	3026190336	49	4102
2026-01-30 05:56:52.79	292.41	16.20	-39.4	-40.1	24.2	0.00e+00	0	41	0	3032481792	49	4117
2026-01-30 05:56:53.79	292.26	16.11	-39.3	-40.1	24.2	0.00e+00	0	41	0	3037724672	49	4103
2026-01-30 05:56:54.80	292.11	16.03	-39.3	-40.1	24.2	0.00e+00	0	41	0	3042967552	49	4115
2026-01-30 05:56:55.80	291.96	15.95	-39.4	-40.1	24.2	0.00e+00	0	41	0	3049259008	49	4130
2026-01-30 05:56:56.81	291.81	15.87	-39.4	-40.2	24.1	0.00e+00	0	41	0	3054501888	49	4163
2026-01-30 05:56:57.82	291.66	15.78	-39.5	-40.2	24.0	0.00e+00	0	41	0	3059744768	49	4190
2026-01-30 05:56:58.82	291.52	15.70	-39.5	-40.3	24.0	0.00e+00	0	41	0	3066036224	49	4195
2026-01-30 05:56:59.83	291.37	15.62	-39.5	-40.2	24.0	0.00e+00	0	41	0	3071279104	49	4176
2026-01-30 05:57:00.84	291.23	15.54	-39.6	-40.4	23.9	0.00e+00	0	41	0	3076521984	49	4266
2026-01-30 05:57:01.85	291.08	15.45	-39.7	-40.5	23.8	0.00e+00	0	41	0	3082813440	50	4058
2026-01-30 05:57:02.86	290.94	15.37	-39.7	-40.5	23.8	0.00e+00	0	41	0	3088056320	50	4067
2026-01-30 05:57:03.86	290.80	15.29	-39.8	-40.5	23.8	0.00e+00	0	41	0	3094347776	50	4079
2026-01-30 05:57:04.87	290.65	15.21	-39.8	-40.5	23.7	0.00e+00	0	41	0	3099590656	50	4098
2026-01-30 05:57:05.88	290.51	15.13	-39.9	-40.6	23.7	0.00e+00	0	41	0	3105882112	50	4127
2026-01-30 05:57:06.88	290.37	15.04	-40.0	-40.8	23.5	0.00e+00	0	41	0	3111124992	50	4206
2026-01-30 05:57:07.89	290.23	14.96	-39.9	-40.6	23.6	0.00e+00	0	41	0	3117416448	50	4143
2026-01-30 05:57:08.90	290.09	14.88	-39.8	-40.6	23.7	0.00e+00	0	41	0	3122659328	50	4109
2026-01-30 05:57:09.91	289.96	14.80	-39.9	-40.6	23.6	0.00e+00	0	41	0	3127902208	50	4138
2026-01-30 05:57:10.91	289.82	14.72	-39.9	-40.6	23.7	0.00e+00	0	41	0	3134193664	50	4138
2026-01-30 05:57:11.91	289.69	14.64	-39.9	-40.7	23.6	0.00e+00	0	41	0	3139436544	50	4159
2026-01-30 05:57:12.92	289.55	14.56	-39.9	-40.7	23.6	0.00e+00	0	41	0	3144679424	50	4170
2026-01-30 05:57:13.93	289.41	14.48	-39.9	-40.7	23.5	0.00e+00	0	41	0	3150970880	50	4172
2026-01-30 05:57:14.94	289.28	14.40	-39.9	-40.7	23.5	0.00e+00	0	41	0	3156213760	50	4162
2026-01-30 05:57:15.95	289.15	14.31	-40.0	-40.8	23.5	0.00e+00	0	41	0	3161456640	50	4197
2026-01-30 05:57:16.96	289.01	14.23	-40.1	-40.9	23.4	0.00e+00	0	41	0	3167748096	50	4245
2026-01-30 05:57:17.96	288.88	14.15	-40.3	-41.0	23.2	0.00e+00	0	41	0	3172990976	51	4093
2026-01-30 05:57:18.97	288.75	14.07	-40.3	-41.1	23.2	0.00e+00	0	41	0	3179282432	51	4104
2026-01-30 05:57:19.97	288.62	13.99	-40.3	-41.1	23.1	0.00e+00	0	41	0	3184525312	51	4138
2026-01-30 05:57:20.98	288.49	13.91	-40.4	-41.1	23.1	0.00e+00	0	41	0	3190816768	51	4145
2026-01-30 05:57:21.99	288.36	13.83	-40.3	-41.0	23.2	0.00e+00	0	41	0	3196059648	51	4094
2026-01-30 05:57:23.00	288.23	13.75	-40.3	-41.1	23.2	0.00e+00	0	41	0	3202351104	51	4101
2026-01-30 05:57:24.00	288.11	13.67	-40.3	-41.1	23.1	0.00e+00	0	41	0	3207593984	51	4117
2026-01-30 05:57:25.01	287.98	13.59	-40.3	-41.0	23.1	0.00e+00	0	41	0	3212836864	51	4093
2026-01-30 05:57:26.02	287.85	13.51	-40.3	-41.0	23.1	0.00e+00	0	41	0	3219128320	51	4094
2026-01-30 05:57:27.03	287.73	13.43	-40.2	-40.9	23.2	0.00e+00	0	41	0	3224371200	51	4047
2026-01-30 05:57:28.04	287.60	13.36	-40.1	-40.9	23.2	0.00e+00	0	41	0	3229614080	51	4032
2026-01-30 05:57:29.04	287.48	13.28	-40.2	-41.0	23.1	0.00e+00	0	41	0	3235905536	51	4072
2026-01-30 05:57:30.04	287.36	13.20	-40.2	-41.0	23.1	0.00e+00	0	41	0	3241148416	51	4087
2026-01-30 05:57:31.05	287.23	13.12	-40.1	-40.9	23.2	0.00e+00	0	41	0	3246391296	51	4027
2026-01-30 05:57:32.06	287.11	13.04	-40.3	-41.1	23.0	0.00e+00	0	41	0	3252682752	51	4112
2026-01-30 05:57:33.07	286.99	12.96	-40.2	-41.0	23.1	0.00e+00	0	41	0	3258974208	51	4080
2026-01-30 05:57:34.07	286.87	12.88	-40.2	-41.0	23.1	0.00e+00	0	41	0	3264217088	51	4085
2026-01-30 05:57:35.08	286.75	12.80	-40.3	-41.0	23.0	0.00e+00	0	41	0	3269459968	51	4088
2026-01-30 05:57:36.09	286.63	12.73	-40.2	-40.9	23.1	0.00e+00	0	41	0	3275751424	51	4045
2026-01-30 05:57:37.11	286.51	12.65	-40.2	-41.0	23.1	0.00e+00	0	41	0	3280994304	51	4063
2026-01-30 05:57:38.11	286.39	12.57	-40.1	-40.9	23.1	0.00e+00	0	41	0	3287285760	51	4038
2026-01-30 05:57:39.12	286.28	12.49	-40.3	-41.0	23.0	0.00e+00	0	41	0	3292528640	51	4093
2026-01-30 05:57:40.13	286.16	12.41	-40.2	-41.0	23.1	0.00e+00	0	41	0	3297771520	51	4067
2026-01-30 05:57:41.14	286.04	12.34	-40.4	-41.1	22.9	0.00e+00	0	41	0	3304062976	51	4145
2026-01-30 05:57:42.15	285.93	12.26	-40.4	-41.3	22.8	0.00e+00	0	41	0	3309305856	51	4195
2026-01-30 05:57:43.15	285.81	12.18	-40.5	-41.3	22.8	0.00e+00	0	42	0	3314548736	51	4203
2026-01-30 05:57:44.16	285.70	12.10	-40.7	-41.5	22.6	0.00e+00	0	41	0	3320840192	51	4305
2026-01-30 05:57:45.17	285.58	12.03	-40.7	-41.5	22.6	0.00e+00	0	41	0	3327131648	51	4320
2026-01-30 05:57:46.17	285.47	11.95	-40.6	-41.4	22.6	0.00e+00	0	41	0	3332374528	52	4025
2026-01-30 05:57:47.18	285.36	11.87	-40.7	-41.5	22.5	0.00e+00	0	41	0	3337617408	52	4065
2026-01-30 05:57:48.19	285.25	11.80	-40.7	-41.5	22.5	0.00e+00	0	41	0	3343908864	52	4068
2026-01-30 05:57:49.20	285.13	11.72	-40.7	-41.5	22.4	0.00e+00	0	41	0	3349151744	52	4098
2026-01-30 05:57:50.20	285.02	11.64	-40.7	-41.5	22.4	0.00e+00	0	41	0	3354394624	52	4085
2026-01-30 05:57:51.21	284.91	11.57	-40.7	-41.5	22.5	0.00e+00	0	41	0	3360686080	52	4054
2026-01-30 05:57:52.22	284.80	11.49	-40.7	-41.6	22.4	0.00e+00	0	41	0	3365928960	52	4100
2026-01-30 05:57:53.23	284.70	11.41	-40.7	-41.5	22.4	0.00e+00	0	41	0	3372220416	52	4086
2026-01-30 05:57:54.24	284.59	11.34	-40.7	-41.5	22.4	0.00e+00	0	41	0	3377463296	52	4070
2026-01-30 05:57:55.25	284.48	11.26	-40.7	-41.6	22.4	0.00e+00	0	41	0	3382706176	52	4101
2026-01-30 05:57:56.26	284.37	11.19	-40.8	-41.6	22.3	0.00e+00	0	41	0	3388997632	52	4122
2026-01-30 05:57:57.27	284.26	11.11	-40.8	-41.7	22.2	0.00e+00	0	41	0	3395289088	52	4150
2026-01-30 05:57:58.28	284.16	11.03	-40.8	-41.7	22.2	0.00e+00	0	41	0	3400531968	52	4150
2026-01-30 05:57:59.28	284.05	10.96	-40.8	-41.6	22.2	0.00e+00	0	41	0	3405774848	52	4142
2026-01-30 05:58:00.29	283.95	10.88	-40.8	-41.7	22.2	0.00e+00	0	41	0	3412066304	52	4148
2026-01-30 05:58:01.30	283.84	10.81	-40.7	-41.5	22.4	0.00e+00	0	41	0	3417309184	52	4063
2026-01-30 05:58:02.31	283.74	10.73	-40.6	-41.4	22.4	0.00e+00	0	41	0	3422552064	52	4038
2026-01-30 05:58:03.32	283.64	10.66	-40.6	-41.4	22.4	0.00e+00	0	41	0	3428843520	52	4049
2026-01-30 05:58:04.33	283.53	10.58	-40.7	-41.5	22.3	0.00e+00	0	41	0	3434086400	52	4090
2026-01-30 05:58:05.33	283.43	10.51	-40.8	-41.6	22.3	0.00e+00	0	41	0	3439329280	52	4118
2026-01-30 05:58:06.34	283.33	10.44	-40.9	-41.7	22.1	0.00e+00	0	41	0	3445620736	52	4190
2026-01-30 05:58:07.35	283.23	10.36	-40.8	-41.6	22.2	0.00e+00	0	41	0	3450863616	52	4144
2026-01-30 05:58:08.36	283.13	10.29	-40.9	-41.7	22.1	0.00e+00	0	41	0	3457155072	52	4182
2026-01-30 05:58:09.37	283.03	10.21	-41.0	-41.8	22.0	0.00e+00	0	41	0	3462397952	52	4235
2026-01-30 05:58:10.38	282.93	10.14	-41.0	-41.9	21.9	0.00e+00	0	41	0	3468689408	52	4267
2026-01-30 05:58:11.39	282.83	10.06	-41.1	-41.9	21.9	0.00e+00	0	41	0	3473932288	52	4271
2026-01-30 05:58:12.39	282.73	9.99	-41.1	-42.0	21.8	0.00e+00	0	41	0	3480223744	52	4309
2026-01-30 05:58:13.40	282.63	9.92	-41.0	-41.9	21.9	0.00e+00	0	41	0	3485466624	52	4263
2026-01-30 05:58:14.41	282.53	9.84	-41.2	-42.0	21.8	0.00e+00	0	41	0	3490709504	52	4337
2026-01-30 05:58:15.41	282.44	9.77	-41.2	-42.1	21.7	0.00e+00	0	41	0	3497000960	52	4355
2026-01-30 05:58:16.42	282.34	9.70	-41.2	-42.1	21.7	0.00e+00	0	41	0	3502243840	52	4349
2026-01-30 05:58:17.43	282.24	9.63	-41.1	-42.0	21.8	0.00e+00	0	41	0	3507486720	52	4298
2026-01-30 05:58:18.43	282.15	9.55	-41.1	-42.0	21.7	0.00e+00	0	41	0	3513778176	52	4319
2026-01-30 05:58:19.44	282.05	9.48	-41.2	-42.0	21.8	0.00e+00	0	41	0	3519021056	53	4093
2026-01-30 05:58:20.45	281.96	9.41	-41.2	-42.0	21.7	0.00e+00	0	41	0	3524263936	53	4098
2026-01-30 05:58:21.46	281.86	9.34	-41.1	-41.9	21.8	0.00e+00	0	41	0	3530555392	53	4031
2026-01-30 05:58:22.46	281.77	9.26	-41.0	-41.9	21.9	0.00e+00	0	41	0	3536846848	53	4013
2026-01-30 05:58:23.47	281.68	9.19	-41.0	-41.8	21.9	0.00e+00	0	41	0	3542089728	53	3989
2026-01-30 05:58:24.48	281.59	9.12	-41.0	-41.9	21.9	0.00e+00	0	41	0	3547332608	53	4011
2026-01-30 05:58:25.49	281.49	9.05	-41.1	-42.0	21.7	0.00e+00	0	41	0	3553624064	53	4071
2026-01-30 05:58:26.49	281.40	8.98	-41.1	-41.9	21.8	0.00e+00	0	41	0	3558866944	53	4034
2026-01-30 05:58:27.50	281.31	8.90	-41.1	-41.9	21.8	0.00e+00	0	41	0	3565158400	53	4049
2026-01-30 05:58:28.51	281.22	8.83	-41.1	-42.0	21.7	0.00e+00	0	41	0	3570401280	53	4069
2026-01-30 05:58:29.52	281.13	8.76	-41.2	-42.1	21.6	0.00e+00	0	41	0	3575644160	53	4118
2026-01-30 05:58:30.52	281.04	8.69	-41.2	-42.1	21.6	0.00e+00	0	41	0	3581935616	53	4130
2026-01-30 05:58:31.53	280.95	8.62	-41.2	-42.1	21.6	0.00e+00	0	41	0	3587178496	53	4128
2026-01-30 05:58:32.54	280.86	8.55	-41.2	-42.1	21.6	0.00e+00	0	41	0	3592421376	53	4113
2026-01-30 05:58:33.55	280.77	8.48	-41.2	-42.1	21.6	0.00e+00	0	41	0	3598712832	53	4100
2026-01-30 05:58:34.55	280.68	8.41	-41.4	-42.3	21.4	0.00e+00	0	41	0	3603955712	53	4202
2026-01-30 05:58:35.56	280.60	8.34	-41.3	-42.2	21.5	0.00e+00	0	41	0	3609198592	53	4149
2026-01-30 05:58:36.57	280.51	8.27	-41.2	-42.0	21.6	0.00e+00	0	41	0	3615490048	53	4095
2026-01-30 05:58:37.57	280.42	8.20	-41.3	-42.1	21.5	0.00e+00	0	41	0	3621781504	53	4141
2026-01-30 05:58:38.58	280.34	8.13	-41.3	-42.2	21.4	0.00e+00	0	41	0	3627024384	53	4174
2026-01-30 05:58:39.59	280.25	8.06	-41.3	-42.2	21.4	0.00e+00	0	41	0	3632267264	53	4185
2026-01-30 05:58:40.60	280.16	7.99	-41.3	-42.2	21.4	0.00e+00	0	41	0	3638558720	53	4162
2026-01-30 05:58:41.60	280.08	7.92	-41.3	-42.2	21.4	0.00e+00	0	41	0	3643801600	53	4169
