passes_logs/2026/01/30/R3.2S_Murmansk/R3.2S_Murmansk__20260130_104412_FENGYUN_3D_rec.log

#Pass ID: 20260130_104412_FENGYUN 3D
#Satellite: FENGYUN 3D
#Configuration: FENGYUN 3D
#almurnet v.1.7.20251203
#Start time: 2026-01-30 10:44:13

#Version: 2.2.20231116
#Station: R3.2S_Murmansk
#Location: 33.079688 lon 68.888172 lat
#TLE: 1 43010U 17072A   26029.52179110  .00000394  00000+0  20818-3 0  9997
#TLE: 2 43010  98.9957   1.5649 0002507  83.7772 276.3689 14.19703315425310

#Time	Az	El	Level	Level2	SNR	BER	BlckErr	Temp	State	Recorded	gain1	gain2
2026-01-30 10:44:13.65	131.38	2.09	-52.9	-64.8	3.8	8.46e-01	0	40	0	0	77	14150
2026-01-30 10:44:14.65	131.37	2.16	-52.1	-64.0	3.8	8.46e-01	0	40	104	0	75	14529
2026-01-30 10:44:15.65	131.35	2.22	-51.9	-63.9	3.8	8.47e-01	0	40	104	0	75	14257
2026-01-30 10:44:16.66	131.33	2.28	-51.8	-63.8	3.8	8.46e-01	0	40	104	0	75	14050
2026-01-30 10:44:17.67	131.31	2.35	-51.8	-63.7	3.8	8.46e-01	0	40	104	0	75	14019
2026-01-30 10:44:18.68	131.29	2.41	-51.8	-63.7	3.8	8.45e-01	0	40	104	0	75	13998
2026-01-30 10:44:19.68	131.27	2.48	-51.8	-63.7	3.8	8.46e-01	0	40	104	0	75	13987
2026-01-30 10:44:20.69	131.25	2.54	-51.8	-63.7	3.8	8.46e-01	0	40	104	0	75	14002
2026-01-30 10:44:21.69	131.24	2.61	-51.8	-63.7	3.8	8.46e-01	0	40	104	0	75	14008
2026-01-30 10:44:22.70	131.22	2.68	-51.8	-63.7	3.8	8.47e-01	0	40	104	0	75	13915
2026-01-30 10:44:23.71	131.20	2.74	-51.8	-63.7	3.8	8.46e-01	0	40	104	0	75	13995
2026-01-30 10:44:24.72	131.18	2.81	-51.8	-63.7	3.8	8.47e-01	0	40	104	0	75	13935
2026-01-30 10:44:25.73	131.16	2.87	-51.8	-63.7	3.8	8.46e-01	0	40	104	0	75	13932
2026-01-30 10:44:26.73	131.14	2.94	-51.8	-63.7	3.8	8.47e-01	0	40	104	0	75	13961
2026-01-30 10:44:27.74	131.12	3.01	-51.8	-63.7	3.8	8.45e-01	0	40	104	0	75	13918
2026-01-30 10:44:28.75	131.10	3.07	-51.8	-63.6	3.8	8.48e-01	0	40	104	0	75	13808
2026-01-30 10:44:29.76	131.08	3.14	-51.8	-63.5	3.8	8.46e-01	0	40	104	0	75	13699
2026-01-30 10:44:30.77	131.06	3.21	-51.8	-63.5	3.8	8.46e-01	0	40	104	0	75	13596
2026-01-30 10:44:31.78	131.04	3.27	-51.7	-63.4	3.8	8.46e-01	0	40	104	0	75	13469
2026-01-30 10:44:32.79	131.02	3.34	-51.7	-63.2	3.8	8.47e-01	0	41	104	0	75	13239
2026-01-30 10:44:33.79	131.00	3.41	-51.7	-63.2	3.8	8.44e-01	0	41	104	0	75	13155
2026-01-30 10:44:34.81	130.98	3.48	-51.7	-62.8	3.8	8.45e-01	0	41	104	0	75	12632
2026-01-30 10:44:35.81	130.96	3.54	-51.7	-62.8	3.8	8.46e-01	0	41	104	0	75	12529
2026-01-30 10:44:36.82	130.94	3.61	-51.7	-62.8	3.8	8.45e-01	0	41	104	0	75	12545
2026-01-30 10:44:37.83	130.92	3.68	-51.7	-62.8	3.8	8.46e-01	0	41	104	0	75	12550
2026-01-30 10:44:38.83	130.89	3.75	-51.7	-62.9	3.8	8.47e-01	0	40	104	0	75	12770
2026-01-30 10:44:39.84	130.87	3.81	-51.7	-62.8	3.8	8.46e-01	0	41	104	0	75	12634
2026-01-30 10:44:40.84	130.85	3.88	-51.6	-62.2	3.8	8.46e-01	0	41	104	0	75	11783
2026-01-30 10:44:41.85	130.83	3.95	-51.4	-60.7	4.0	8.45e-01	0	41	104	0	74	10434
2026-01-30 10:44:42.86	130.81	4.02	-51.0	-58.2	4.9	8.04e-01	0	41	0	0	74	7893
2026-01-30 10:44:43.86	130.79	4.09	-50.3	-55.4	6.9	3.26e-01	0	41	0	3145728	72	6415
2026-01-30 10:44:44.87	130.77	4.16	-49.6	-53.5	8.9	7.27e-02	0	41	0	8388608	71	5441
2026-01-30 10:44:45.88	130.75	4.23	-48.5	-51.6	10.9	6.41e-03	0	41	0	14680064	69	4875
2026-01-30 10:44:46.88	130.72	4.30	-47.4	-49.8	12.7	3.35e-04	0	41	0	19922944	66	4739
2026-01-30 10:44:47.89	130.70	4.37	-46.4	-48.4	14.1	1.37e-05	0	41	0	26214400	64	4514
2026-01-30 10:44:48.90	130.68	4.44	-45.4	-47.0	15.6	0.00e+00	0	41	0	31457280	62	4313
2026-01-30 10:44:49.90	130.66	4.51	-44.4	-45.9	16.8	0.00e+00	0	41	0	36700160	60	4245
2026-01-30 10:44:50.91	130.64	4.58	-44.0	-45.4	17.3	0.00e+00	0	41	0	42991616	60	4006
2026-01-30 10:44:51.91	130.61	4.65	-44.1	-45.4	17.6	0.00e+00	0	41	0	48234496	59	4258
2026-01-30 10:44:52.92	130.59	4.72	-43.3	-44.5	18.5	0.00e+00	0	41	0	53477376	58	4065
2026-01-30 10:44:53.93	130.57	4.79	-43.0	-44.1	18.8	0.00e+00	0	41	0	59768832	58	3907
2026-01-30 10:44:54.94	130.55	4.86	-42.9	-44.0	18.9	0.00e+00	0	41	0	65011712	57	4082
2026-01-30 10:44:55.95	130.52	4.93	-43.0	-44.2	18.7	0.00e+00	0	41	0	71303168	57	4171
2026-01-30 10:44:56.96	130.50	5.00	-42.9	-44.0	18.9	0.00e+00	0	41	0	76546048	57	4095
2026-01-30 10:44:57.97	130.48	5.07	-46.7	-48.7	13.9	0.00e+00	0	41	0	82837504	63	4981
2026-01-30 10:44:58.97	130.45	5.14	-44.2	-45.5	17.6	0.00e+00	0	41	0	88080384	58	4556
2026-01-30 10:44:59.98	130.43	5.22	-46.9	-49.1	13.4	0.00e+00	0	41	0	93323264	64	4896
2026-01-30 10:45:00.98	130.41	5.29	-45.3	-46.9	16.0	0.00e+00	0	41	0	99614720	61	4527
2026-01-30 10:45:01.99	130.38	5.36	-48.9	-52.3	10.2	1.10e-06	0	41	0	104857600	68	5594
2026-01-30 10:45:03.00	130.36	5.43	-42.9	-44.0	19.0	0.00e+00	0	41	0	111149056	57	4078
2026-01-30 10:45:04.01	130.33	5.51	-42.7	-43.8	19.2	0.00e+00	0	41	0	116391936	57	3986
2026-01-30 10:45:05.01	130.31	5.58	-42.5	-43.6	19.4	0.00e+00	0	41	0	121634816	57	3874
2026-01-30 10:45:06.01	130.29	5.65	-42.6	-43.8	19.3	0.00e+00	0	41	0	127926272	56	4194
2026-01-30 10:45:07.02	130.26	5.72	-42.7	-43.8	19.3	0.00e+00	0	41	0	133169152	56	4207
2026-01-30 10:45:08.03	130.24	5.80	-42.6	-43.7	19.4	0.00e+00	0	41	0	138412032	56	4167
2026-01-30 10:45:09.03	130.21	5.87	-42.6	-43.7	19.3	0.00e+00	0	41	0	144703488	56	4191
2026-01-30 10:45:10.04	130.19	5.94	-42.5	-43.6	19.4	0.00e+00	0	41	0	149946368	56	4121
2026-01-30 10:45:11.05	130.16	6.02	-42.5	-43.6	19.5	0.00e+00	0	41	0	155189248	56	4103
2026-01-30 10:45:12.05	130.14	6.09	-42.6	-43.6	19.4	0.00e+00	0	41	0	161480704	56	4145
2026-01-30 10:45:13.05	130.11	6.17	-42.4	-43.4	19.7	0.00e+00	0	41	0	167772160	56	4045
2026-01-30 10:45:14.06	130.09	6.24	-42.3	-43.4	19.7	0.00e+00	0	41	0	173015040	56	4018
2026-01-30 10:45:15.07	130.06	6.32	-42.4	-43.5	19.6	0.00e+00	0	41	0	178257920	56	4064
2026-01-30 10:45:16.08	130.04	6.39	-42.4	-43.4	19.7	0.00e+00	0	41	0	184549376	56	4045
2026-01-30 10:45:17.09	130.01	6.47	-42.3	-43.3	19.8	0.00e+00	0	41	0	189792256	56	3985
2026-01-30 10:45:18.09	129.99	6.54	-42.3	-43.4	19.7	0.00e+00	0	41	0	196083712	56	4031
2026-01-30 10:45:19.10	129.96	6.62	-42.3	-43.4	19.8	0.00e+00	0	41	0	201326592	56	4024
2026-01-30 10:45:20.11	129.93	6.69	-42.0	-43.1	20.1	0.00e+00	0	41	0	206569472	56	3872
2026-01-30 10:45:21.11	129.91	6.77	-42.4	-43.4	19.8	0.00e+00	0	41	0	212860928	56	4035
2026-01-30 10:45:22.12	129.88	6.85	-42.3	-43.3	19.9	0.00e+00	0	41	0	218103808	56	3988
2026-01-30 10:45:23.13	129.85	6.92	-42.2	-43.3	19.9	0.00e+00	0	41	0	223346688	56	3970
2026-01-30 10:45:24.13	129.83	7.00	-42.4	-43.5	19.7	0.00e+00	0	41	0	229638144	56	4054
2026-01-30 10:45:25.13	129.80	7.07	-42.4	-43.4	19.8	0.00e+00	0	41	0	234881024	56	4037
2026-01-30 10:45:26.14	129.77	7.15	-42.2	-43.3	19.9	0.00e+00	0	41	0	240123904	56	3969
2026-01-30 10:45:27.15	129.75	7.23	-42.3	-43.3	19.9	0.00e+00	0	41	0	246415360	56	3989
2026-01-30 10:45:28.15	129.72	7.31	-42.2	-43.3	20.0	0.00e+00	0	41	0	252706816	56	3973
2026-01-30 10:45:29.16	129.69	7.39	-42.4	-43.5	19.8	0.00e+00	0	41	0	257949696	56	4063
2026-01-30 10:45:30.17	129.66	7.46	-42.1	-43.2	20.1	0.00e+00	0	41	0	263192576	56	3920
2026-01-30 10:45:31.18	129.63	7.54	-41.8	-42.8	20.3	0.00e+00	0	41	0	269484032	55	3988
2026-01-30 10:45:32.18	129.61	7.62	-41.7	-42.7	20.5	0.00e+00	0	41	0	274726912	55	3934
2026-01-30 10:45:33.19	129.58	7.70	-41.9	-42.8	20.4	0.00e+00	0	41	0	281018368	55	4003
2026-01-30 10:45:34.20	129.55	7.78	-41.8	-42.8	20.4	0.00e+00	0	41	0	286261248	55	3966
2026-01-30 10:45:35.20	129.52	7.86	-41.9	-42.9	20.3	0.00e+00	0	41	0	291504128	55	4018
2026-01-30 10:45:36.21	129.49	7.94	-41.9	-42.9	20.3	0.00e+00	0	41	0	297795584	55	4034
2026-01-30 10:45:37.22	129.46	8.02	-41.9	-42.8	20.4	0.00e+00	0	41	0	303038464	55	4003
2026-01-30 10:45:38.23	129.43	8.10	-41.8	-42.8	20.4	0.00e+00	0	41	0	308281344	55	3978
2026-01-30 10:45:39.23	129.40	8.18	-41.9	-42.8	20.4	0.00e+00	0	41	0	314572800	55	4004
2026-01-30 10:45:40.23	129.37	8.26	-41.6	-42.6	20.6	0.00e+00	0	41	0	319815680	55	3901
2026-01-30 10:45:41.24	129.34	8.34	-41.6	-42.6	20.7	0.00e+00	0	41	0	326107136	55	3897
2026-01-30 10:45:42.24	129.32	8.42	-41.6	-42.6	20.7	0.00e+00	0	41	0	331350016	55	3880
2026-01-30 10:45:43.25	129.28	8.50	-41.6	-42.6	20.7	0.00e+00	0	41	0	337641472	55	3899
2026-01-30 10:45:44.27	129.25	8.58	-41.7	-42.6	20.7	0.00e+00	0	41	0	342884352	55	3898
2026-01-30 10:45:45.27	129.22	8.66	-41.5	-42.5	20.8	0.00e+00	0	41	0	349175808	55	3842
2026-01-30 10:45:46.27	129.19	8.74	-41.5	-42.4	20.9	0.00e+00	0	41	0	354418688	55	3818
2026-01-30 10:45:47.28	129.16	8.83	-41.6	-42.5	20.7	0.00e+00	0	41	0	359661568	54	4088
2026-01-30 10:45:48.29	129.13	8.91	-41.4	-42.4	20.9	0.00e+00	0	41	0	365953024	54	4017
2026-01-30 10:45:49.30	129.10	8.99	-41.3	-42.2	21.1	0.00e+00	0	41	0	371195904	54	3942
2026-01-30 10:45:50.31	129.07	9.08	-41.3	-42.3	21.0	0.00e+00	0	41	0	376438784	54	3982
2026-01-30 10:45:51.32	129.04	9.16	-41.3	-42.2	21.1	0.00e+00	0	41	0	382730240	54	3930
2026-01-30 10:45:52.32	129.00	9.24	-41.3	-42.3	21.1	0.00e+00	0	41	0	387973120	54	3960
2026-01-30 10:45:53.33	128.97	9.33	-41.3	-42.2	21.1	0.00e+00	0	41	0	393216000	54	3940
2026-01-30 10:45:54.34	128.94	9.41	-41.2	-42.1	21.2	0.00e+00	0	41	0	399507456	54	3896
2026-01-30 10:45:55.34	128.91	9.50	-41.1	-42.0	21.3	0.00e+00	0	41	0	404750336	54	3856
2026-01-30 10:45:56.35	128.88	9.58	-41.1	-42.0	21.3	0.00e+00	0	41	0	411041792	54	3842
2026-01-30 10:45:57.36	128.84	9.67	-41.1	-42.1	21.3	0.00e+00	0	41	0	416284672	54	3872
2026-01-30 10:45:58.37	128.81	9.75	-41.0	-41.9	21.4	0.00e+00	0	41	0	422576128	54	3812
2026-01-30 10:45:59.37	128.78	9.84	-41.0	-41.9	21.4	0.00e+00	0	41	0	427819008	53	4024
2026-01-30 10:46:00.38	128.74	9.92	-41.0	-41.9	21.4	0.00e+00	0	41	0	434110464	53	4022
2026-01-30 10:46:01.39	128.71	10.01	-41.1	-42.0	21.3	0.00e+00	0	41	0	439353344	53	4075
2026-01-30 10:46:02.40	128.67	10.10	-40.9	-41.8	21.4	0.00e+00	0	41	0	444596224	53	3996
2026-01-30 10:46:03.41	128.64	10.18	-40.9	-41.8	21.4	0.00e+00	0	41	0	450887680	53	3998
2026-01-30 10:46:04.41	128.61	10.27	-41.0	-41.9	21.4	0.00e+00	0	41	0	456130560	53	4015
2026-01-30 10:46:05.42	128.57	10.36	-41.0	-42.0	21.3	0.00e+00	0	41	0	461373440	53	4055
2026-01-30 10:46:06.42	128.54	10.44	-40.8	-41.7	21.6	0.00e+00	0	41	0	467664896	53	3952
2026-01-30 10:46:07.43	128.50	10.53	-40.8	-41.7	21.6	0.00e+00	0	41	0	472907776	53	3920
2026-01-30 10:46:08.44	128.47	10.62	-40.8	-41.7	21.6	0.00e+00	0	41	0	478150656	53	3930
2026-01-30 10:46:09.45	128.43	10.71	-40.9	-41.8	21.5	0.00e+00	0	41	0	484442112	53	3961
2026-01-30 10:46:10.45	128.39	10.80	-40.8	-41.7	21.6	0.00e+00	0	41	0	490733568	53	3948
2026-01-30 10:46:11.46	128.36	10.89	-41.0	-41.9	21.5	0.00e+00	0	41	0	495976448	53	4018
2026-01-30 10:46:12.47	128.32	10.98	-40.8	-41.7	21.6	0.00e+00	0	41	0	501219328	53	3938
2026-01-30 10:46:13.48	128.29	11.07	-40.7	-41.6	21.7	0.00e+00	0	41	0	507510784	53	3887
2026-01-30 10:46:14.49	128.25	11.16	-40.7	-41.6	21.7	0.00e+00	0	41	0	512753664	53	3907
2026-01-30 10:46:15.50	128.21	11.25	-40.7	-41.6	21.7	0.00e+00	0	41	0	519045120	53	3902
2026-01-30 10:46:16.51	128.17	11.34	-40.7	-41.6	21.8	0.00e+00	0	42	0	524288000	53	3875
2026-01-30 10:46:17.52	128.14	11.43	-40.8	-41.7	21.6	0.00e+00	0	41	0	529530880	53	3928
2026-01-30 10:46:18.53	128.10	11.52	-40.7	-41.6	21.7	0.00e+00	0	41	0	535822336	53	3901
2026-01-30 10:46:19.53	128.06	11.61	-40.7	-41.6	21.8	0.00e+00	0	41	0	541065216	53	3877
2026-01-30 10:46:20.54	128.02	11.70	-40.6	-41.5	21.9	0.00e+00	0	41	0	546308096	53	3826
2026-01-30 10:46:21.54	127.98	11.80	-40.7	-41.6	21.8	0.00e+00	0	41	0	552599552	53	3882
2026-01-30 10:46:22.55	127.95	11.89	-40.6	-41.5	21.9	0.00e+00	0	41	0	558891008	53	3838
2026-01-30 10:46:23.55	127.91	11.98	-40.6	-41.5	21.9	0.00e+00	0	41	0	563085312	53	3833
2026-01-30 10:46:24.56	127.87	12.08	-40.5	-41.4	21.9	0.00e+00	0	41	0	569376768	53	3808
2026-01-30 10:46:25.56	127.83	12.17	-40.6	-41.4	21.9	0.00e+00	0	41	0	575668224	53	3820
2026-01-30 10:46:26.57	127.79	12.26	-40.4	-41.3	22.0	0.00e+00	0	41	0	580911104	52	3997
2026-01-30 10:46:27.58	127.75	12.36	-40.4	-41.3	22.1	0.00e+00	0	41	0	586153984	52	3981
2026-01-30 10:46:28.58	127.71	12.45	-40.5	-41.4	21.9	0.00e+00	0	41	0	592445440	52	4030
2026-01-30 10:46:29.59	127.67	12.55	-40.5	-41.4	22.0	0.00e+00	0	41	0	597688320	52	4022
2026-01-30 10:46:30.60	127.63	12.64	-40.4	-41.3	22.1	0.00e+00	0	41	0	603979776	52	3967
2026-01-30 10:46:31.60	127.58	12.74	-40.5	-41.3	22.0	0.00e+00	0	41	0	609222656	52	4004
2026-01-30 10:46:32.61	127.54	12.84	-40.4	-41.3	22.1	0.00e+00	0	41	0	614465536	52	3993
2026-01-30 10:46:33.62	127.50	12.93	-40.4	-41.2	22.1	0.00e+00	0	41	0	620756992	52	3955
2026-01-30 10:46:34.62	127.46	13.03	-40.2	-41.1	22.3	0.00e+00	0	41	0	625999872	52	3886
2026-01-30 10:46:35.62	127.42	13.12	-40.3	-41.2	22.2	0.00e+00	0	41	0	631242752	52	3935
2026-01-30 10:46:36.63	127.37	13.22	-40.2	-41.0	22.3	0.00e+00	0	41	0	637534208	52	3856
2026-01-30 10:46:37.64	127.33	13.32	-40.2	-41.0	22.4	0.00e+00	0	41	0	642777088	52	3856
2026-01-30 10:46:38.65	127.29	13.42	-40.1	-41.0	22.4	0.00e+00	0	41	0	648019968	52	3829
2026-01-30 10:46:39.65	127.24	13.52	-40.1	-40.9	22.5	0.00e+00	0	41	0	654311424	52	3812
2026-01-30 10:46:40.66	127.20	13.62	-40.1	-40.9	22.5	0.00e+00	0	41	0	660602880	52	3820
2026-01-30 10:46:41.67	127.15	13.72	-40.1	-41.0	22.4	0.00e+00	0	42	0	665845760	52	3825
2026-01-30 10:46:42.67	127.11	13.82	-40.0	-40.9	22.6	0.00e+00	0	41	0	671088640	51	4007
2026-01-30 10:46:43.68	127.07	13.92	-40.1	-41.0	22.5	0.00e+00	0	42	0	677380096	51	4055
2026-01-30 10:46:44.69	127.02	14.02	-40.3	-41.1	22.4	0.00e+00	0	41	0	682622976	51	4122
2026-01-30 10:46:45.70	126.97	14.12	-40.1	-41.0	22.5	0.00e+00	0	42	0	688914432	51	4057
2026-01-30 10:46:46.71	126.93	14.22	-40.2	-41.1	22.4	0.00e+00	0	41	0	694157312	51	4104
2026-01-30 10:46:47.72	126.88	14.32	-39.9	-40.8	22.7	0.00e+00	0	41	0	699400192	51	3964
2026-01-30 10:46:48.72	126.84	14.43	-39.9	-40.7	22.8	0.00e+00	0	42	0	705691648	51	3940
2026-01-30 10:46:49.73	126.79	14.53	-39.9	-40.8	22.7	0.00e+00	0	41	0	710934528	51	3961
2026-01-30 10:46:50.74	126.74	14.63	-40.0	-40.8	22.7	0.00e+00	0	42	0	716177408	51	3997
2026-01-30 10:46:51.74	126.69	14.74	-39.9	-40.8	22.7	0.00e+00	0	41	0	722468864	51	3967
2026-01-30 10:46:52.75	126.64	14.84	-40.0	-40.9	22.7	0.00e+00	0	41	0	728760320	51	4009
2026-01-30 10:46:53.75	126.60	14.94	-39.8	-40.6	22.9	0.00e+00	0	42	0	734003200	51	3906
2026-01-30 10:46:54.76	126.55	15.05	-39.8	-40.6	22.9	0.00e+00	0	42	0	739246080	51	3913
2026-01-30 10:46:55.76	126.50	15.15	-39.9	-40.7	22.8	0.00e+00	0	42	0	745537536	51	3955
2026-01-30 10:46:56.77	126.45	15.26	-39.7	-40.5	23.0	0.00e+00	0	41	0	750780416	51	3864
2026-01-30 10:46:57.78	126.40	15.37	-39.8	-40.6	22.9	0.00e+00	0	41	0	756023296	51	3885
2026-01-30 10:46:58.78	126.35	15.47	-39.6	-40.5	23.0	0.00e+00	0	41	0	762314752	51	3827
2026-01-30 10:46:59.79	126.30	15.58	-39.7	-40.5	23.0	0.00e+00	0	41	0	767557632	51	3843
2026-01-30 10:47:00.79	126.25	15.69	-39.7	-40.5	23.0	0.00e+00	0	41	0	773849088	51	3845
2026-01-30 10:47:01.80	126.20	15.79	-39.6	-40.4	23.1	0.00e+00	0	41	0	779091968	51	3808
2026-01-30 10:47:02.81	126.14	15.90	-39.6	-40.4	23.1	0.00e+00	0	41	0	784334848	51	3812
2026-01-30 10:47:03.81	126.09	16.01	-39.5	-40.3	23.2	0.00e+00	0	41	0	790626304	50	3968
2026-01-30 10:47:04.82	126.04	16.12	-39.6	-40.4	23.1	0.00e+00	0	42	0	795869184	50	4020
2026-01-30 10:47:05.83	125.99	16.23	-39.3	-40.1	23.4	0.00e+00	0	42	0	801112064	50	3882
2026-01-30 10:47:06.83	125.93	16.34	-39.3	-40.1	23.4	0.00e+00	0	41	0	807403520	50	3908
2026-01-30 10:47:07.84	125.88	16.45	-39.2	-40.0	23.5	0.00e+00	0	42	0	812646400	50	3840
2026-01-30 10:47:08.85	125.82	16.56	-39.1	-39.8	23.6	0.00e+00	0	42	0	817889280	50	3779
2026-01-30 10:47:09.85	125.77	16.68	-39.0	-39.8	23.7	0.00e+00	0	41	0	824180736	50	3748
2026-01-30 10:47:10.86	125.71	16.79	-39.1	-39.8	23.6	0.00e+00	0	41	0	830472192	50	3780
2026-01-30 10:47:11.86	125.66	16.90	-38.9	-39.7	23.7	0.00e+00	0	41	0	835715072	49	3956
2026-01-30 10:47:12.87	125.60	17.01	-39.0	-39.8	23.8	0.00e+00	0	41	0	840957952	49	3960
2026-01-30 10:47:13.88	125.55	17.13	-39.1	-39.9	23.6	0.00e+00	0	41	0	847249408	49	4034
2026-01-30 10:47:14.89	125.49	17.24	-39.0	-39.8	23.7	0.00e+00	0	41	0	852492288	49	3976
2026-01-30 10:47:15.90	125.43	17.36	-39.0	-39.8	23.7	0.00e+00	0	41	0	858783744	49	3964
2026-01-30 10:47:16.91	125.37	17.47	-38.8	-39.6	23.9	0.00e+00	0	42	0	864026624	49	3890
2026-01-30 10:47:17.92	125.32	17.59	-38.9	-39.6	23.8	0.00e+00	0	41	0	869269504	49	3909
2026-01-30 10:47:18.92	125.26	17.70	-38.8	-39.6	23.9	0.00e+00	0	41	0	875560960	49	3880
2026-01-30 10:47:19.93	125.20	17.82	-38.9	-39.7	23.8	0.00e+00	0	41	0	880803840	49	3918
2026-01-30 10:47:20.94	125.14	17.94	-38.8	-39.6	23.9	0.00e+00	0	41	0	886046720	49	3880
2026-01-30 10:47:21.95	125.08	18.06	-38.7	-39.5	24.0	0.00e+00	0	41	0	892338176	49	3856
2026-01-30 10:47:22.95	125.02	18.17	-38.8	-39.6	23.9	0.00e+00	0	41	0	897581056	49	3883
2026-01-30 10:47:23.95	124.96	18.29	-38.8	-39.6	23.9	0.00e+00	0	41	0	902823936	49	3880
2026-01-30 10:47:24.95	124.89	18.41	-38.8	-39.5	23.9	0.00e+00	0	41	0	909115392	49	3862
2026-01-30 10:47:25.96	124.83	18.53	-38.7	-39.5	24.0	0.00e+00	0	41	0	915406848	49	3839
2026-01-30 10:47:26.96	124.77	18.65	-38.7	-39.5	24.0	0.00e+00	0	42	0	920649728	49	3847
2026-01-30 10:47:27.97	124.71	18.77	-38.9	-39.7	23.8	0.00e+00	0	41	0	925892608	49	3921
2026-01-30 10:47:28.97	124.64	18.89	-38.8	-39.5	23.9	0.00e+00	0	41	0	932184064	49	3858
2026-01-30 10:47:29.98	124.58	19.02	-38.8	-39.6	23.9	0.00e+00	0	41	0	937426944	49	3876
2026-01-30 10:47:30.99	124.51	19.14	-38.7	-39.5	24.0	0.00e+00	0	42	0	943718400	49	3831
2026-01-30 10:47:31.99	124.45	19.26	-38.8	-39.5	23.9	0.00e+00	0	41	0	948961280	49	3868
2026-01-30 10:47:33.00	124.38	19.39	-38.7	-39.5	24.0	0.00e+00	0	41	0	954204160	49	3845
2026-01-30 10:47:34.01	124.31	19.51	-38.7	-39.4	24.0	0.00e+00	0	41	0	960495616	49	3821
2026-01-30 10:47:35.02	124.25	19.64	-38.7	-39.4	24.1	0.00e+00	0	41	0	965738496	49	3811
2026-01-30 10:47:36.03	124.18	19.76	-38.7	-39.4	24.0	0.00e+00	0	41	0	970981376	49	3817
2026-01-30 10:47:37.04	124.11	19.89	-38.5	-39.3	24.1	0.00e+00	0	41	0	977272832	49	3769
2026-01-30 10:47:38.05	124.04	20.02	-38.5	-39.3	24.1	0.00e+00	0	42	0	982515712	49	3763
2026-01-30 10:47:39.05	123.97	20.14	-38.5	-39.3	24.1	0.00e+00	0	42	0	987758592	48	3966
2026-01-30 10:47:40.06	123.90	20.27	-38.6	-39.4	24.1	0.00e+00	0	41	0	994050048	48	4020
2026-01-30 10:47:41.07	123.83	20.40	-38.7	-39.5	24.0	0.00e+00	0	41	0	1000341504	48	4069
2026-01-30 10:47:42.07	123.76	20.53	-38.7	-39.5	24.0	0.00e+00	0	41	0	1005584384	48	4082
2026-01-30 10:47:43.08	123.69	20.66	-38.5	-39.3	24.1	0.00e+00	0	42	0	1010827264	48	3989
2026-01-30 10:47:44.08	123.62	20.79	-38.4	-39.2	24.2	0.00e+00	0	41	0	1017118720	48	3945
2026-01-30 10:47:45.08	123.54	20.92	-38.5	-39.2	24.2	0.00e+00	0	41	0	1022361600	48	3950
2026-01-30 10:47:46.09	123.47	21.05	-38.5	-39.2	24.2	0.00e+00	0	41	0	1028653056	48	3950
2026-01-30 10:47:47.09	123.39	21.18	-38.4	-39.2	24.3	0.00e+00	0	41	0	1033895936	48	3927
2026-01-30 10:47:48.10	123.32	21.32	-38.5	-39.2	24.2	0.00e+00	0	41	0	1039138816	48	3958
2026-01-30 10:47:49.11	123.24	21.45	-38.4	-39.2	24.2	0.00e+00	0	41	0	1045430272	48	3946
2026-01-30 10:47:50.12	123.17	21.59	-38.2	-39.0	24.4	0.00e+00	0	42	0	1050673152	48	3840
2026-01-30 10:47:51.13	123.09	21.72	-38.2	-39.0	24.5	0.00e+00	0	41	0	1055916032	48	3836
2026-01-30 10:47:52.13	123.01	21.86	-38.1	-38.9	24.6	0.00e+00	0	41	0	1062207488	48	3791
2026-01-30 10:47:53.14	122.93	21.99	-38.2	-39.0	24.5	0.00e+00	0	41	0	1067450368	48	3840
2026-01-30 10:47:54.15	122.85	22.13	-38.2	-38.9	24.5	0.00e+00	0	41	0	1072693248	48	3822
2026-01-30 10:47:55.15	122.77	22.27	-38.1	-38.9	24.5	0.00e+00	0	41	0	1078984704	48	3802
2026-01-30 10:47:56.16	122.69	22.41	-38.3	-39.0	24.5	0.00e+00	0	41	0	1085276160	48	3858
2026-01-30 10:47:57.17	122.61	22.54	-38.3	-39.1	24.5	0.00e+00	0	41	0	1090519040	48	3873
2026-01-30 10:47:58.16	122.53	22.68	-38.1	-38.9	24.6	0.00e+00	0	41	0	1095761920	48	3800
2026-01-30 10:47:59.16	122.44	22.82	-38.1	-38.8	24.7	0.00e+00	0	41	0	1102053376	48	3762
2026-01-30 10:48:00.16	122.36	22.96	-38.1	-38.9	24.7	0.00e+00	0	41	0	1107296256	48	3786
2026-01-30 10:48:01.16	122.28	23.10	-38.2	-38.9	24.5	0.00e+00	0	41	0	1113587712	48	3823
2026-01-30 10:48:02.17	122.19	23.25	-38.0	-38.8	24.7	0.00e+00	0	41	0	1118830592	48	3760
2026-01-30 10:48:03.17	122.11	23.39	-37.6	-38.3	24.6	0.00e+00	0	41	0	1124073472	47	3774
2026-01-30 10:48:04.17	122.02	23.53	-37.6	-38.3	24.6	0.00e+00	0	41	0	1130364928	47	3771
2026-01-30 10:48:05.18	121.93	23.68	-37.5	-38.3	24.6	0.00e+00	0	42	0	1135607808	47	3743
2026-01-30 10:48:06.19	121.84	23.82	-37.6	-38.4	24.6	0.00e+00	0	41	0	1140850688	47	3785
2026-01-30 10:48:07.19	121.75	23.97	-37.4	-38.2	24.7	0.00e+00	0	41	0	1147142144	46	3923
2026-01-30 10:48:08.20	121.66	24.12	-37.3	-38.1	24.8	0.00e+00	0	41	0	1152385024	46	3885
2026-01-30 10:48:09.20	121.57	24.26	-37.3	-38.0	24.9	0.00e+00	0	42	0	1157627904	46	3861
2026-01-30 10:48:10.21	121.48	24.41	-37.2	-38.0	24.9	0.00e+00	0	42	0	1163919360	46	3845
2026-01-30 10:48:11.21	121.38	24.56	-37.3	-38.1	24.9	0.00e+00	0	41	0	1169162240	46	3894
2026-01-30 10:48:12.22	121.29	24.71	-37.2	-37.9	25.0	0.00e+00	0	41	0	1175453696	46	3807
2026-01-30 10:48:13.23	121.19	24.86	-37.2	-38.0	25.0	0.00e+00	0	41	0	1180696576	46	3826
2026-01-30 10:48:14.23	121.10	25.01	-37.2	-38.0	25.0	0.00e+00	0	41	0	1185939456	46	3836
2026-01-30 10:48:15.24	121.00	25.16	-37.1	-37.9	25.1	0.00e+00	0	41	0	1192230912	46	3783
2026-01-30 10:48:16.25	120.90	25.32	-37.1	-37.9	25.1	0.00e+00	0	41	0	1197473792	46	3784
2026-01-30 10:48:17.25	120.80	25.47	-37.2	-38.0	25.0	0.00e+00	0	42	0	1202716672	46	3837
2026-01-30 10:48:18.25	120.70	25.62	-37.1	-37.9	25.0	0.00e+00	0	41	0	1209008128	46	3796
2026-01-30 10:48:19.25	120.60	25.78	-37.1	-37.8	25.1	0.00e+00	0	41	0	1215299584	46	3766
2026-01-30 10:48:20.26	120.50	25.94	-37.2	-38.0	24.9	0.00e+00	0	41	0	1220542464	46	3841
2026-01-30 10:48:21.26	120.40	26.09	-37.1	-37.9	25.0	0.00e+00	0	41	0	1225785344	46	3795
2026-01-30 10:48:22.27	120.29	26.25	-37.2	-37.9	25.0	0.00e+00	0	41	0	1232076800	46	3813
2026-01-30 10:48:23.28	120.19	26.41	-37.0	-37.8	25.1	0.00e+00	0	41	0	1237319680	46	3756
2026-01-30 10:48:24.29	120.08	26.57	-37.1	-37.9	25.0	0.00e+00	0	41	0	1242562560	46	3782
2026-01-30 10:48:25.30	119.97	26.73	-37.1	-37.9	25.0	0.00e+00	0	41	0	1248854016	46	3787
2026-01-30 10:48:26.31	119.87	26.89	-37.0	-37.8	25.1	0.00e+00	0	41	0	1254096896	46	3758
2026-01-30 10:48:27.31	119.76	27.05	-37.1	-37.9	25.0	0.00e+00	0	42	0	1260388352	46	3787
2026-01-30 10:48:28.32	119.65	27.22	-37.0	-37.8	25.1	0.00e+00	0	41	0	1265631232	46	3760
2026-01-30 10:48:29.33	119.53	27.38	-37.0	-37.7	25.2	0.00e+00	0	41	0	1270874112	46	3725
2026-01-30 10:48:30.33	119.42	27.54	-36.9	-37.7	25.2	0.00e+00	0	41	0	1277165568	45	3927
2026-01-30 10:48:31.33	119.31	27.71	-37.0	-37.8	25.1	0.00e+00	0	41	0	1282408448	45	3969
2026-01-30 10:48:32.34	119.19	27.87	-37.1	-37.9	25.1	0.00e+00	0	42	0	1287651328	45	4011
2026-01-30 10:48:33.35	119.07	28.04	-37.0	-37.7	25.2	0.00e+00	0	41	0	1293942784	45	3943
2026-01-30 10:48:34.35	118.96	28.21	-37.0	-37.8	25.1	0.00e+00	0	41	0	1300234240	45	3965
2026-01-30 10:48:35.36	118.84	28.38	-37.1	-37.8	25.5	0.00e+00	0	41	0	1305477120	45	3980
2026-01-30 10:48:36.37	118.71	28.55	-37.2	-37.9	25.5	0.00e+00	0	41	0	1310720000	45	4010
2026-01-30 10:48:37.38	118.59	28.72	-37.2	-37.9	25.5	0.00e+00	0	41	0	1317011456	45	4032
2026-01-30 10:48:38.39	118.47	28.89	-37.1	-37.8	25.5	0.00e+00	0	42	0	1322254336	45	3992
2026-01-30 10:48:39.39	118.34	29.06	-37.0	-37.7	25.6	0.00e+00	0	42	0	1327497216	45	3937
2026-01-30 10:48:40.40	118.22	29.24	-37.1	-37.8	25.6	0.00e+00	0	41	0	1333788672	45	3961
2026-01-30 10:48:41.41	118.09	29.41	-37.0	-37.7	25.7	0.00e+00	0	42	0	1339031552	45	3921
2026-01-30 10:48:42.42	117.96	29.59	-36.9	-37.6	25.8	0.00e+00	0	41	0	1345323008	45	3872
2026-01-30 10:48:43.43	117.83	29.77	-36.9	-37.6	25.8	0.00e+00	0	42	0	1350565888	45	3877
2026-01-30 10:48:44.43	117.70	29.94	-36.9	-37.6	25.8	0.00e+00	0	41	0	1355808768	45	3872
2026-01-30 10:48:45.43	117.57	30.12	-36.8	-37.4	25.9	0.00e+00	0	42	0	1362100224	45	3820
2026-01-30 10:48:46.43	117.43	30.30	-36.6	-37.3	26.0	0.00e+00	0	42	0	1367343104	45	3743
2026-01-30 10:48:47.44	117.29	30.48	-36.5	-37.2	26.1	0.00e+00	0	42	0	1372585984	45	3710
2026-01-30 10:48:48.44	117.16	30.66	-36.6	-37.3	26.0	0.00e+00	0	41	0	1378877440	45	3745
2026-01-30 10:48:49.45	117.02	30.84	-36.5	-37.2	26.1	0.00e+00	0	41	0	1384120320	45	3718
2026-01-30 10:48:50.45	116.88	31.02	-36.6	-37.2	26.1	0.00e+00	0	41	0	1390411776	45	3731
2026-01-30 10:48:51.46	116.73	31.20	-36.6	-37.3	26.0	0.00e+00	0	41	0	1395654656	45	3768
2026-01-30 10:48:52.47	116.59	31.39	-36.8	-37.5	25.9	0.00e+00	0	41	0	1401946112	45	3827
2026-01-30 10:48:53.47	116.44	31.57	-36.7	-37.4	26.0	0.00e+00	0	41	0	1407188992	45	3806
2026-01-30 10:48:54.48	116.30	31.76	-36.6	-37.3	26.0	0.00e+00	0	41	0	1412431872	45	3749
2026-01-30 10:48:55.49	116.15	31.95	-36.5	-37.2	26.1	0.00e+00	0	42	0	1418723328	45	3711
2026-01-30 10:48:56.50	115.99	32.14	-36.5	-37.2	26.1	0.00e+00	0	41	0	1423966208	45	3724
2026-01-30 10:48:57.51	115.84	32.33	-36.6	-37.3	26.1	0.00e+00	0	41	0	1430257664	45	3756
2026-01-30 10:48:58.51	115.69	32.52	-36.5	-37.2	26.2	0.00e+00	0	41	0	1435500544	45	3709
2026-01-30 10:48:59.52	115.53	32.71	-36.5	-37.2	26.2	0.00e+00	0	42	0	1440743424	45	3716
2026-01-30 10:49:00.52	115.37	32.90	-36.6	-37.3	26.1	0.00e+00	0	42	0	1447034880	45	3748
2026-01-30 10:49:01.53	115.21	33.09	-36.4	-37.1	26.2	0.00e+00	0	41	0	1452277760	44	3886
2026-01-30 10:49:02.54	115.04	33.29	-36.4	-37.1	26.2	0.00e+00	0	41	0	1457520640	44	3902
2026-01-30 10:49:03.54	114.88	33.48	-36.6	-37.3	26.0	0.00e+00	0	41	0	1463812096	44	3985
2026-01-30 10:49:04.55	114.71	33.68	-36.6	-37.3	26.0	0.00e+00	0	41	0	1469054976	44	3990
2026-01-30 10:49:05.55	114.55	33.88	-36.6	-37.3	26.0	0.00e+00	0	41	0	1475346432	44	3964
2026-01-30 10:49:06.56	114.37	34.07	-36.6	-37.3	26.0	0.00e+00	0	41	0	1480589312	44	3986
2026-01-30 10:49:07.57	114.20	34.27	-36.6	-37.3	26.0	0.00e+00	0	41	0	1486880768	44	3994
2026-01-30 10:49:08.57	114.03	34.47	-36.6	-37.3	26.1	0.00e+00	0	41	0	1492123648	44	3963
2026-01-30 10:49:09.58	113.85	34.68	-36.5	-37.2	26.2	0.00e+00	0	41	0	1497366528	44	3928
2026-01-30 10:49:10.58	113.67	34.88	-36.5	-37.2	26.1	0.00e+00	0	41	0	1503657984	44	3939
2026-01-30 10:49:11.59	113.49	35.08	-36.5	-37.2	26.1	0.00e+00	0	41	0	1508900864	44	3948
2026-01-30 10:49:12.60	113.30	35.28	-36.4	-37.1	26.2	0.00e+00	0	42	0	1515192320	44	3885
2026-01-30 10:49:13.60	113.12	35.49	-36.4	-37.1	26.2	0.00e+00	0	42	0	1520435200	44	3904
2026-01-30 10:49:14.61	112.93	35.69	-36.4	-37.1	26.2	0.00e+00	0	42	0	1525678080	44	3896
2026-01-30 10:49:15.62	112.74	35.90	-36.4	-37.1	26.2	0.00e+00	0	41	0	1531969536	44	3888
2026-01-30 10:49:16.62	112.54	36.11	-36.5	-37.2	26.2	0.00e+00	0	41	0	1537212416	44	3918
2026-01-30 10:49:17.63	112.35	36.32	-36.5	-37.2	26.1	0.00e+00	0	41	0	1542455296	44	3942
2026-01-30 10:49:18.64	112.15	36.53	-36.6	-37.3	26.0	0.00e+00	0	42	0	1548746752	44	3992
2026-01-30 10:49:19.64	111.95	36.74	-36.6	-37.3	26.1	0.00e+00	0	41	0	1553989632	44	3961
2026-01-30 10:49:20.65	111.74	36.95	-36.5	-37.2	26.2	0.00e+00	0	41	0	1560281088	44	3937
2026-01-30 10:49:21.66	111.53	37.16	-36.5	-37.2	26.2	0.00e+00	0	42	0	1565523968	44	3933
2026-01-30 10:49:22.67	111.32	37.38	-36.5	-37.2	26.2	0.00e+00	0	42	0	1571815424	44	3916
2026-01-30 10:49:23.67	111.11	37.59	-36.6	-37.2	26.1	0.00e+00	0	42	0	1577058304	44	3952
2026-01-30 10:49:24.67	110.90	37.80	-36.6	-37.3	26.0	0.00e+00	0	41	0	1582301184	44	3991
2026-01-30 10:49:25.69	110.67	38.02	-36.5	-37.2	26.2	0.00e+00	0	41	0	1588592640	44	3919
2026-01-30 10:49:26.70	110.45	38.24	-36.2	-36.9	26.4	0.00e+00	0	41	0	1593835520	44	3802
2026-01-30 10:49:27.70	110.23	38.46	-36.3	-36.9	26.4	0.00e+00	0	41	0	1600126976	44	3820
2026-01-30 10:49:28.71	110.00	38.68	-36.3	-37.0	26.3	0.00e+00	0	41	0	1605369856	44	3829
2026-01-30 10:49:29.72	109.77	38.90	-36.5	-37.2	26.2	0.00e+00	0	41	0	1610612736	44	3938
2026-01-30 10:49:30.73	109.54	39.12	-36.7	-37.4	26.0	0.00e+00	0	41	0	1616904192	44	4006
2026-01-30 10:49:31.73	109.30	39.34	-36.7	-37.4	26.0	0.00e+00	0	41	0	1622147072	44	4021
2026-01-30 10:49:32.74	109.06	39.56	-36.7	-37.4	26.0	0.00e+00	0	41	0	1627389952	44	4033
2026-01-30 10:49:33.75	108.81	39.79	-36.8	-37.5	25.9	0.00e+00	0	41	0	1633681408	44	4052
2026-01-30 10:49:34.75	108.57	40.01	-36.7	-37.4	26.0	0.00e+00	0	41	0	1638924288	44	4027
2026-01-30 10:49:35.75	108.32	40.23	-36.8	-37.4	25.9	0.00e+00	0	42	0	1645215744	44	4048
2026-01-30 10:49:36.76	108.06	40.46	-36.9	-37.6	25.8	0.00e+00	0	41	0	1650458624	44	4137
2026-01-30 10:49:37.77	107.81	40.69	-36.9	-37.6	25.8	0.00e+00	0	42	0	1656750080	44	4119
2026-01-30 10:49:38.77	107.55	40.91	-36.9	-37.6	25.8	0.00e+00	0	41	0	1661992960	44	4130
2026-01-30 10:49:39.78	107.28	41.14	-36.9	-37.6	25.8	0.00e+00	0	41	0	1667235840	44	4141
2026-01-30 10:49:40.78	107.01	41.37	-36.9	-37.6	25.8	0.00e+00	0	41	0	1673527296	44	4133
2026-01-30 10:49:41.79	106.74	41.60	-36.9	-37.6	25.8	0.00e+00	0	41	0	1678770176	44	4112
2026-01-30 10:49:42.80	106.46	41.83	-36.7	-37.3	26.0	0.00e+00	0	42	0	1685061632	44	4004
2026-01-30 10:49:43.81	106.18	42.06	-36.7	-37.3	26.0	0.00e+00	0	42	0	1690304512	44	4002
2026-01-30 10:49:44.81	105.90	42.29	-36.9	-37.6	25.9	0.00e+00	0	42	0	1695547392	44	4101
2026-01-30 10:49:45.82	105.61	42.52	-37.0	-37.7	25.7	0.00e+00	0	41	0	1701838848	44	4172
2026-01-30 10:49:46.82	105.32	42.75	-37.0	-37.7	25.7	0.00e+00	0	41	0	1707081728	44	4192
2026-01-30 10:49:47.83	105.02	42.99	-37.0	-37.7	25.8	0.00e+00	0	41	0	1712324608	44	4172
2026-01-30 10:49:48.84	104.71	43.22	-37.0	-37.7	25.7	0.00e+00	0	41	0	1718616064	44	4179
2026-01-30 10:49:49.84	104.41	43.46	-36.9	-37.6	25.8	0.00e+00	0	41	0	1723858944	44	4134
2026-01-30 10:49:50.85	104.10	43.69	-36.9	-37.6	25.9	0.00e+00	0	41	0	1729101824	44	4117
2026-01-30 10:49:51.85	103.78	43.93	-36.9	-37.6	25.8	0.00e+00	0	41	0	1735393280	44	4109
2026-01-30 10:49:52.86	103.46	44.16	-36.9	-37.6	25.9	0.00e+00	0	41	0	1741684736	44	4107
2026-01-30 10:49:53.87	103.14	44.40	-36.8	-37.5	25.9	0.00e+00	0	41	0	1746927616	44	4086
2026-01-30 10:49:54.88	102.80	44.64	-36.8	-37.5	25.9	0.00e+00	0	41	0	1752170496	44	4089
2026-01-30 10:49:55.89	102.47	44.87	-37.1	-37.8	25.7	0.00e+00	0	41	0	1758461952	44	4208
2026-01-30 10:49:56.90	102.13	45.11	-36.8	-37.5	25.9	0.00e+00	0	41	0	1763704832	44	4089
2026-01-30 10:49:57.91	101.78	45.35	-36.9	-37.6	25.8	0.00e+00	0	41	0	1769996288	44	4122
2026-01-30 10:49:58.91	101.43	45.59	-36.9	-37.6	25.8	0.00e+00	0	41	0	1775239168	44	4136
2026-01-30 10:49:59.92	101.07	45.82	-37.0	-37.7	25.8	0.00e+00	0	41	0	1780482048	44	4153
2026-01-30 10:50:00.93	100.71	46.06	-37.1	-37.8	25.7	0.00e+00	0	41	0	1786773504	44	4207
2026-01-30 10:50:01.94	100.34	46.30	-37.0	-37.7	25.8	0.00e+00	0	41	0	1792016384	44	4169
2026-01-30 10:50:02.94	99.97	46.54	-37.0	-37.7	25.8	0.00e+00	0	41	0	1797259264	44	4179
2026-01-30 10:50:03.95	99.59	46.78	-37.0	-37.7	25.8	0.00e+00	0	41	0	1803550720	44	4153
2026-01-30 10:50:04.96	99.21	47.02	-36.9	-37.6	25.9	0.00e+00	0	41	0	1809842176	44	4105
2026-01-30 10:50:05.96	98.82	47.25	-37.0	-37.7	25.8	0.00e+00	0	41	0	1815085056	44	4150
2026-01-30 10:50:06.97	98.42	47.49	-37.2	-37.9	25.5	0.00e+00	0	41	0	1820327936	45	4051
2026-01-30 10:50:07.98	98.02	47.73	-37.5	-38.2	25.4	0.00e+00	0	41	0	1826619392	45	4160
2026-01-30 10:50:08.98	97.61	47.96	-37.4	-38.1	25.4	0.00e+00	0	41	0	1831862272	45	4140
2026-01-30 10:50:09.99	97.20	48.20	-37.4	-38.1	25.4	0.00e+00	0	41	0	1837105152	45	4132
2026-01-30 10:50:11.00	96.77	48.44	-37.3	-37.9	25.6	0.00e+00	0	41	0	1843396608	45	4045
2026-01-30 10:50:12.00	96.35	48.67	-37.4	-38.1	25.5	0.00e+00	0	41	0	1848639488	45	4112
2026-01-30 10:50:13.01	95.91	48.91	-37.6	-38.3	25.3	0.00e+00	0	41	0	1854930944	45	4209
2026-01-30 10:50:14.02	95.47	49.15	-37.5	-38.3	25.3	0.00e+00	0	41	0	1860173824	45	4198
2026-01-30 10:50:15.02	95.02	49.38	-37.6	-38.3	25.2	0.00e+00	0	41	0	1865416704	45	4236
2026-01-30 10:50:16.03	94.57	49.61	-37.6	-38.3	25.3	0.00e+00	0	41	0	1871708160	45	4196
2026-01-30 10:50:17.03	94.11	49.84	-37.9	-38.7	25.0	0.00e+00	0	42	0	1876951040	46	4152
2026-01-30 10:50:18.04	93.64	50.08	-38.4	-39.2	24.6	0.00e+00	0	41	0	1882193920	47	4153
2026-01-30 10:50:19.05	93.16	50.31	-38.6	-39.3	24.5	0.00e+00	0	42	0	1888485376	47	4231
2026-01-30 10:50:20.05	92.68	50.54	-38.4	-39.1	24.6	0.00e+00	0	41	0	1894776832	47	4134
2026-01-30 10:50:21.06	92.19	50.77	-38.3	-39.0	24.7	0.00e+00	0	41	0	1900019712	47	4084
2026-01-30 10:50:22.07	91.68	51.00	-38.2	-38.9	24.8	0.00e+00	0	42	0	1905262592	47	4031
2026-01-30 10:50:23.08	91.18	51.22	-38.0	-38.7	25.0	0.00e+00	0	41	0	1911554048	47	3949
2026-01-30 10:50:24.08	90.67	51.45	-38.0	-38.7	25.0	0.00e+00	0	41	0	1916796928	47	3935
2026-01-30 10:50:25.09	90.14	51.67	-38.0	-38.7	25.0	0.00e+00	0	42	0	1922039808	47	3933
2026-01-30 10:50:26.10	89.61	51.90	-37.6	-38.3	25.3	0.00e+00	0	41	0	1928331264	47	3766
2026-01-30 10:50:27.10	89.08	52.12	-37.7	-38.4	25.3	0.00e+00	0	41	0	1933574144	47	3807
2026-01-30 10:50:28.11	88.53	52.34	-37.9	-38.6	25.1	0.00e+00	0	41	0	1939865600	47	3871
2026-01-30 10:50:29.12	87.97	52.55	-38.1	-38.9	24.8	0.00e+00	0	41	0	1945108480	47	4015
2026-01-30 10:50:30.13	87.41	52.77	-38.2	-38.9	24.8	0.00e+00	0	41	0	1950351360	47	4033
2026-01-30 10:50:31.13	86.84	52.98	-37.9	-38.6	25.1	0.00e+00	0	42	0	1956642816	47	3889
2026-01-30 10:50:32.14	86.26	53.19	-37.8	-38.5	25.2	0.00e+00	0	41	0	1961885696	47	3833
2026-01-30 10:50:33.15	85.67	53.40	-37.7	-38.4	25.2	0.00e+00	0	41	0	1968177152	47	3814
2026-01-30 10:50:34.16	85.07	53.61	-37.9	-38.6	25.1	0.00e+00	0	41	0	1973420032	47	3896
2026-01-30 10:50:35.16	84.47	53.82	-38.0	-38.7	25.0	0.00e+00	0	41	0	1979711488	47	3945
2026-01-30 10:50:36.17	83.85	54.02	-37.6	-38.3	25.4	0.00e+00	0	41	0	1984954368	47	3742
2026-01-30 10:50:37.18	83.23	54.22	-37.6	-38.3	25.4	0.00e+00	0	42	0	1990197248	47	3745
2026-01-30 10:50:38.18	82.60	54.41	-37.4	-38.1	25.5	0.00e+00	0	41	0	1996488704	46	3900
2026-01-30 10:50:39.19	81.96	54.61	-37.7	-38.4	25.3	0.00e+00	0	42	0	2001731584	46	4011
2026-01-30 10:50:40.20	81.31	54.80	-37.8	-38.6	25.2	0.00e+00	0	41	0	2006974464	46	4105
2026-01-30 10:50:41.21	80.65	54.99	-37.7	-38.4	25.3	0.00e+00	0	41	0	2013265920	46	4020
2026-01-30 10:50:42.21	79.99	55.17	-37.6	-38.3	25.4	0.00e+00	0	41	0	2018508800	46	3976
2026-01-30 10:50:43.22	79.31	55.36	-37.5	-38.2	25.4	0.00e+00	0	42	0	2024800256	46	3931
2026-01-30 10:50:44.23	78.63	55.54	-37.4	-38.1	25.6	0.00e+00	0	41	0	2030043136	46	3878
2026-01-30 10:50:45.24	77.93	55.71	-37.7	-38.4	25.3	0.00e+00	0	42	0	2035286016	46	4015
2026-01-30 10:50:46.25	77.23	55.88	-37.8	-38.5	25.2	0.00e+00	0	41	0	2041577472	46	4068
2026-01-30 10:50:47.25	76.53	56.05	-37.7	-38.4	25.3	0.00e+00	0	41	0	2047868928	46	4027
2026-01-30 10:50:48.26	75.81	56.21	-37.2	-37.9	25.7	0.00e+00	0	41	0	2053111808	46	3809
2026-01-30 10:50:49.27	75.08	56.37	-37.3	-37.9	25.7	0.00e+00	0	41	0	2058354688	46	3823
2026-01-30 10:50:50.28	74.34	56.53	-37.4	-38.1	25.6	0.00e+00	0	41	0	2064646144	46	3873
2026-01-30 10:50:51.28	73.60	56.68	-37.1	-37.8	25.8	0.00e+00	0	41	0	2069889024	46	3741
2026-01-30 10:50:52.29	72.85	56.83	-37.1	-37.8	25.8	0.00e+00	0	42	0	2075131904	46	3749
2026-01-30 10:50:53.29	72.10	56.97	-37.3	-38.0	25.7	0.00e+00	0	41	0	2081423360	46	3840
2026-01-30 10:50:54.30	71.33	57.11	-37.8	-38.5	25.2	0.00e+00	0	41	0	2086666240	46	4073
2026-01-30 10:50:55.31	70.55	57.24	-37.6	-38.3	25.4	0.00e+00	0	41	0	2092957696	46	3995
2026-01-30 10:50:56.31	69.77	57.37	-37.7	-38.4	25.3	0.00e+00	0	41	0	2098200576	46	4018
2026-01-30 10:50:57.32	68.98	57.49	-37.8	-38.6	25.2	0.00e+00	0	41	0	2103443456	46	4109
2026-01-30 10:50:58.33	68.18	57.61	-38.0	-38.7	25.0	0.00e+00	0	41	0	2109734912	46	4189
2026-01-30 10:50:59.34	67.38	57.73	-37.5	-38.3	25.4	0.00e+00	0	41	0	2114977792	46	3965
2026-01-30 10:51:00.33	66.58	57.83	-37.2	-37.9	25.7	0.00e+00	0	41	0	2120220672	46	3813
2026-01-30 10:51:01.34	65.76	57.94	-37.4	-38.1	25.6	0.00e+00	0	41	0	2126512128	46	3870
2026-01-30 10:51:02.34	64.95	58.03	-37.4	-38.2	25.5	0.00e+00	0	41	0	2131755008	46	3915
2026-01-30 10:51:03.34	64.13	58.13	-37.4	-38.2	25.5	0.00e+00	0	41	0	2136997888	46	3919
2026-01-30 10:51:04.35	63.29	58.21	-37.4	-38.1	25.6	0.00e+00	0	41	0	2143289344	46	3883
2026-01-30 10:51:05.36	62.45	58.30	-37.6	-38.3	25.4	0.00e+00	0	41	0	2149580800	46	3974
2026-01-30 10:51:06.36	61.61	58.37	-37.9	-38.6	25.1	0.00e+00	0	41	0	2154823680	46	4139
2026-01-30 10:51:07.37	60.76	58.44	-37.9	-38.7	25.1	0.00e+00	0	41	0	2160066560	46	4151
2026-01-30 10:51:08.38	59.90	58.51	-37.8	-38.6	25.2	0.00e+00	0	41	0	2166358016	46	4099
2026-01-30 10:51:09.39	59.04	58.57	-37.8	-38.6	25.2	0.00e+00	0	41	0	2171600896	46	4105
2026-01-30 10:51:10.40	58.18	58.62	-37.8	-38.6	25.2	0.00e+00	0	41	0	2177892352	46	4105
2026-01-30 10:51:11.41	57.31	58.66	-37.9	-38.6	25.1	0.00e+00	0	41	0	2183135232	46	4133
2026-01-30 10:51:12.41	56.45	58.70	-37.9	-38.6	25.1	0.00e+00	0	42	0	2188378112	46	4144
2026-01-30 10:51:13.43	55.57	58.74	-37.6	-38.3	25.4	0.00e+00	0	41	0	2194669568	46	3972
2026-01-30 10:51:14.43	54.71	58.77	-37.5	-38.2	25.5	0.00e+00	0	41	0	2199912448	46	3951
2026-01-30 10:51:15.44	53.83	58.79	-37.4	-38.1	25.6	0.00e+00	0	42	0	2205155328	46	3882
2026-01-30 10:51:16.45	52.96	58.80	-37.2	-37.9	25.8	0.00e+00	0	42	0	2211446784	46	3811
2026-01-30 10:51:17.46	52.08	58.81	-37.3	-38.0	25.7	0.00e+00	0	42	0	2217738240	46	3836
2026-01-30 10:51:18.47	51.20	58.82	-37.6	-38.3	25.5	0.00e+00	0	41	0	2222981120	46	3982
2026-01-30 10:51:19.47	50.33	58.82	-37.6	-38.3	25.4	0.00e+00	0	41	0	2228224000	46	3995
2026-01-30 10:51:20.48	49.46	58.81	-37.5	-38.2	25.6	0.00e+00	0	41	0	2234515456	46	3923
2026-01-30 10:51:21.49	48.58	58.79	-37.2	-37.9	25.8	0.00e+00	0	41	0	2239758336	46	3786
2026-01-30 10:51:22.50	47.70	58.77	-37.3	-38.0	25.7	0.00e+00	0	41	0	2245001216	46	3834
2026-01-30 10:51:23.51	46.83	58.74	-37.5	-38.2	25.5	0.00e+00	0	41	0	2251292672	46	3934
2026-01-30 10:51:24.51	45.97	58.71	-37.6	-38.3	25.4	0.00e+00	0	42	0	2256535552	46	3988
2026-01-30 10:51:25.52	45.10	58.67	-37.6	-38.3	25.4	0.00e+00	0	41	0	2262827008	46	4002
2026-01-30 10:51:26.53	44.23	58.62	-37.5	-38.2	25.5	0.00e+00	0	41	0	2268069888	46	3952
2026-01-30 10:51:27.54	43.37	58.57	-37.2	-38.0	25.8	0.00e+00	0	42	0	2273312768	46	3825
2026-01-30 10:51:28.54	42.52	58.51	-37.2	-37.9	25.8	0.00e+00	0	41	0	2279604224	46	3805
2026-01-30 10:51:29.55	41.66	58.45	-37.5	-38.2	25.6	0.00e+00	0	41	0	2284847104	46	3933
2026-01-30 10:51:30.56	40.81	58.38	-38.0	-38.7	25.1	0.00e+00	0	41	0	2291138560	46	4169
2026-01-30 10:51:31.57	39.96	58.30	-37.9	-38.6	25.2	0.00e+00	0	42	0	2296381440	46	4142
2026-01-30 10:51:32.58	39.12	58.22	-37.6	-38.3	25.4	0.00e+00	0	41	0	2302672896	46	3994
2026-01-30 10:51:33.58	38.29	58.14	-37.5	-38.2	25.6	0.00e+00	0	41	0	2307915776	46	3929
2026-01-30 10:51:34.59	37.46	58.05	-37.6	-38.3	25.5	0.00e+00	0	41	0	2313158656	46	3965
2026-01-30 10:51:35.59	36.65	57.95	-37.6	-38.3	25.5	0.00e+00	0	41	0	2319450112	46	3973
2026-01-30 10:51:36.60	35.83	57.85	-37.2	-37.9	25.8	0.00e+00	0	41	0	2324692992	46	3821
2026-01-30 10:51:37.61	35.02	57.74	-37.1	-37.8	26.0	0.00e+00	0	41	0	2329935872	46	3746
2026-01-30 10:51:38.62	34.21	57.62	-36.9	-37.6	26.1	0.00e+00	0	41	0	2336227328	45	3896
2026-01-30 10:51:39.62	33.42	57.51	-37.0	-37.6	26.0	0.00e+00	0	41	0	2341470208	45	3911
2026-01-30 10:51:40.63	32.63	57.38	-37.2	-37.9	25.8	0.00e+00	0	41	0	2347761664	45	4007
2026-01-30 10:51:41.63	31.85	57.26	-37.1	-37.8	25.9	0.00e+00	0	41	0	2353004544	45	3965
2026-01-30 10:51:42.64	31.07	57.12	-37.2	-37.8	25.8	0.00e+00	0	41	0	2358247424	45	4000
2026-01-30 10:51:43.65	30.30	56.98	-37.1	-37.8	25.8	0.00e+00	0	41	0	2364538880	45	3996
2026-01-30 10:51:44.65	29.55	56.84	-36.9	-37.6	26.0	0.00e+00	0	41	0	2370830336	45	3897
2026-01-30 10:51:45.66	28.80	56.70	-36.8	-37.5	26.1	0.00e+00	0	41	0	2376073216	45	3845
2026-01-30 10:51:46.67	28.05	56.54	-36.9	-37.6	26.1	0.00e+00	0	41	0	2381316096	45	3874
2026-01-30 10:51:47.67	27.32	56.39	-37.0	-37.7	26.0	0.00e+00	0	41	0	2387607552	45	3925
2026-01-30 10:51:48.68	26.59	56.23	-36.8	-37.5	26.2	0.00e+00	0	42	0	2392850432	45	3825
2026-01-30 10:51:49.68	25.88	56.07	-36.6	-37.3	26.2	0.00e+00	0	41	0	2398093312	45	3756
2026-01-30 10:51:50.68	25.18	55.90	-36.8	-37.5	26.1	0.00e+00	0	41	0	2404384768	45	3841
2026-01-30 10:51:51.68	24.48	55.73	-36.8	-37.5	26.1	0.00e+00	0	41	0	2409627648	45	3825
2026-01-30 10:51:52.69	23.79	55.56	-36.8	-37.5	26.1	0.00e+00	0	41	0	2414870528	45	3844
2026-01-30 10:51:53.69	23.11	55.38	-37.1	-37.7	25.9	0.00e+00	0	41	0	2421161984	45	3957
2026-01-30 10:51:54.70	22.43	55.20	-37.3	-38.0	25.7	0.00e+00	0	41	0	2426404864	45	4082
2026-01-30 10:51:55.71	21.76	55.02	-37.4	-38.1	25.6	0.00e+00	0	41	0	2432696320	45	4127
2026-01-30 10:51:56.72	21.10	54.83	-37.4	-38.1	25.6	0.00e+00	0	41	0	2437939200	45	4120
2026-01-30 10:51:57.73	20.45	54.64	-37.2	-37.9	25.7	0.00e+00	0	41	0	2443182080	45	4035
2026-01-30 10:51:58.74	19.81	54.44	-37.2	-37.9	25.8	0.00e+00	0	41	0	2449473536	45	4020
2026-01-30 10:51:59.75	19.18	54.25	-37.2	-37.9	25.8	0.00e+00	0	41	0	2454716416	45	4014
2026-01-30 10:52:00.76	18.55	54.05	-37.2	-37.9	25.8	0.00e+00	0	41	0	2461007872	45	4028
2026-01-30 10:52:01.76	17.94	53.85	-37.3	-38.0	25.7	0.00e+00	0	41	0	2466250752	45	4052
2026-01-30 10:52:02.77	17.33	53.64	-37.0	-37.7	26.0	0.00e+00	0	41	0	2472542208	45	3917
2026-01-30 10:52:03.77	16.74	53.44	-36.9	-37.6	26.0	0.00e+00	0	41	0	2477785088	45	3886
2026-01-30 10:52:04.78	16.15	53.23	-37.0	-37.7	25.9	0.00e+00	0	41	0	2483027968	45	3945
2026-01-30 10:52:05.79	15.57	53.01	-37.0	-37.7	25.9	0.00e+00	0	41	0	2489319424	45	3922
2026-01-30 10:52:06.79	15.00	52.80	-37.1	-37.8	25.9	0.00e+00	0	41	0	2494562304	45	3975
2026-01-30 10:52:07.80	14.44	52.59	-37.2	-37.9	25.8	0.00e+00	0	41	0	2499805184	45	4030
2026-01-30 10:52:08.81	13.88	52.37	-37.4	-38.1	25.6	0.00e+00	0	41	0	2506096640	45	4109
2026-01-30 10:52:09.81	13.34	52.15	-37.3	-38.0	25.7	0.00e+00	0	41	0	2511339520	45	4063
2026-01-30 10:52:10.82	12.80	51.93	-37.2	-37.9	25.8	0.00e+00	0	41	0	2517630976	45	4024
2026-01-30 10:52:11.83	12.27	51.71	-37.3	-37.9	25.8	0.00e+00	0	41	0	2522873856	45	4048
2026-01-30 10:52:12.84	11.74	51.49	-37.1	-37.8	25.9	0.00e+00	0	41	0	2528116736	45	3990
2026-01-30 10:52:13.85	11.23	51.26	-37.2	-37.9	25.8	0.00e+00	0	41	0	2534408192	45	4031
2026-01-30 10:52:14.85	10.72	51.04	-37.3	-38.0	25.7	0.00e+00	0	41	0	2540699648	45	4070
2026-01-30 10:52:15.86	10.22	50.81	-37.2	-37.9	25.8	0.00e+00	0	41	0	2545942528	45	4031
2026-01-30 10:52:16.87	9.73	50.58	-37.3	-37.9	25.7	0.00e+00	0	41	0	2551185408	45	4049
2026-01-30 10:52:17.87	9.25	50.35	-37.2	-37.9	25.8	0.00e+00	0	41	0	2557476864	45	4010
2026-01-30 10:52:18.88	8.77	50.12	-37.2	-37.9	25.8	0.00e+00	0	41	0	2562719744	45	4029
2026-01-30 10:52:19.89	8.30	49.89	-37.0	-37.7	25.9	0.00e+00	0	41	0	2567962624	45	3935
2026-01-30 10:52:20.89	7.84	49.66	-36.9	-37.6	26.0	0.00e+00	0	41	0	2574254080	45	3903
2026-01-30 10:52:21.90	7.38	49.42	-36.9	-37.6	26.1	0.00e+00	0	41	0	2579496960	45	3872
2026-01-30 10:52:22.90	6.94	49.19	-36.8	-37.5	26.2	0.00e+00	0	41	0	2584739840	45	3828
2026-01-30 10:52:23.91	6.49	48.95	-36.8	-37.5	26.1	0.00e+00	0	41	0	2591031296	45	3855
2026-01-30 10:52:24.92	6.06	48.72	-36.8	-37.5	26.2	0.00e+00	0	41	0	2596274176	45	3831
2026-01-30 10:52:25.93	5.63	48.48	-36.8	-37.4	26.2	0.00e+00	0	41	0	2602565632	45	3823
2026-01-30 10:52:26.94	5.20	48.25	-36.8	-37.5	26.1	0.00e+00	0	41	0	2607808512	45	3858
2026-01-30 10:52:27.94	4.79	48.01	-36.9	-37.6	26.1	0.00e+00	0	41	0	2613051392	45	3873
2026-01-30 10:52:28.95	4.38	47.77	-36.8	-37.5	26.1	0.00e+00	0	41	0	2619342848	45	3849
2026-01-30 10:52:29.96	3.98	47.54	-37.0	-37.7	26.0	0.00e+00	0	41	0	2625634304	45	3931
2026-01-30 10:52:30.96	3.58	47.30	-36.9	-37.6	26.0	0.00e+00	0	41	0	2630877184	45	3899
2026-01-30 10:52:31.96	3.20	47.06	-36.7	-37.4	26.2	0.00e+00	0	41	0	2636120064	45	3791
2026-01-30 10:52:32.97	2.81	46.83	-36.5	-37.2	26.4	0.00e+00	0	41	0	2642411520	45	3720
2026-01-30 10:52:33.98	2.43	46.59	-36.5	-37.2	26.4	0.00e+00	0	41	0	2647654400	45	3718
2026-01-30 10:52:34.99	2.06	46.35	-36.6	-37.2	26.4	0.00e+00	0	41	0	2652897280	45	3728
2026-01-30 10:52:35.99	1.69	46.11	-36.5	-37.2	26.4	0.00e+00	0	41	0	2659188736	45	3707
2026-01-30 10:52:37.00	1.33	45.88	-36.4	-37.1	26.5	0.00e+00	0	41	0	2664431616	44	3877
2026-01-30 10:52:38.01	0.97	45.64	-36.4	-37.1	26.5	0.00e+00	0	41	0	2669674496	44	3893
2026-01-30 10:52:39.01	0.62	45.40	-36.2	-36.8	26.7	0.00e+00	0	41	0	2675965952	44	3766
2026-01-30 10:52:40.02	0.28	45.17	-36.2	-36.9	26.7	0.00e+00	0	41	0	2681208832	44	3788
2026-01-30 10:52:41.03	359.94	44.93	-36.2	-36.9	26.7	0.00e+00	0	41	0	2687500288	44	3793
2026-01-30 10:52:42.03	359.60	44.69	-36.3	-36.9	26.6	0.00e+00	0	41	0	2692743168	44	3821
2026-01-30 10:52:43.03	359.27	44.46	-36.1	-36.8	26.7	0.00e+00	0	41	0	2697986048	44	3764
2026-01-30 10:52:44.04	358.95	44.22	-36.1	-36.8	26.7	0.00e+00	0	41	0	2704277504	44	3755
2026-01-30 10:52:45.05	358.63	43.99	-36.2	-36.9	26.7	0.00e+00	0	41	0	2709520384	44	3783
2026-01-30 10:52:46.06	358.31	43.75	-36.2	-36.9	26.6	0.00e+00	0	41	0	2715811840	44	3809
2026-01-30 10:52:47.07	358.00	43.52	-36.2	-36.9	26.7	0.00e+00	0	41	0	2721054720	44	3794
2026-01-30 10:52:48.07	357.69	43.28	-36.2	-36.8	26.7	0.00e+00	0	41	0	2727346176	44	3767
2026-01-30 10:52:49.08	357.39	43.05	-36.2	-36.8	26.7	0.00e+00	0	41	0	2732589056	44	3772
2026-01-30 10:52:50.08	357.09	42.82	-36.1	-36.7	26.8	0.00e+00	0	41	0	2737831936	44	3736
2026-01-30 10:52:51.09	356.80	42.59	-36.1	-36.7	26.8	0.00e+00	0	41	0	2744123392	44	3723
2026-01-30 10:52:52.09	356.51	42.36	-36.1	-36.8	26.7	0.00e+00	0	41	0	2749366272	44	3748
2026-01-30 10:52:53.10	356.23	42.12	-36.3	-36.9	26.6	0.00e+00	0	41	0	2754609152	44	3819
2026-01-30 10:52:54.11	355.94	41.89	-36.3	-36.9	26.6	0.00e+00	0	41	0	2760900608	44	3816
2026-01-30 10:52:55.11	355.67	41.67	-36.3	-37.0	26.6	0.00e+00	0	41	0	2766143488	44	3843
2026-01-30 10:52:56.12	355.40	41.44	-36.4	-37.1	26.5	0.00e+00	0	41	0	2772434944	44	3871
2026-01-30 10:52:57.13	355.13	41.21	-36.4	-37.0	26.5	0.00e+00	0	41	0	2777677824	44	3855
2026-01-30 10:52:58.13	354.86	40.98	-36.4	-37.1	26.5	0.00e+00	0	41	0	2782920704	44	3872
2026-01-30 10:52:59.14	354.60	40.75	-36.5	-37.1	26.4	0.00e+00	0	41	0	2789212160	44	3910
2026-01-30 10:53:00.14	354.34	40.53	-36.4	-37.1	26.4	0.00e+00	0	41	0	2794455040	44	3900
2026-01-30 10:53:01.13	354.09	40.31	-36.4	-37.1	26.5	0.00e+00	0	41	0	2799697920	44	3885
2026-01-30 10:53:02.14	353.84	40.08	-36.4	-37.1	26.5	0.00e+00	0	41	0	2805989376	44	3877
2026-01-30 10:53:03.15	353.59	39.86	-36.5	-37.1	26.4	0.00e+00	0	41	0	2811232256	44	3899
2026-01-30 10:53:04.15	353.35	39.64	-36.2	-36.9	26.6	0.00e+00	0	41	0	2817523712	44	3806
2026-01-30 10:53:05.16	353.11	39.41	-36.3	-37.0	26.6	0.00e+00	0	41	0	2822766592	44	3826
2026-01-30 10:53:06.17	352.87	39.19	-36.1	-36.8	26.7	0.00e+00	0	41	0	2829058048	44	3738
2026-01-30 10:53:07.18	352.64	38.97	-36.0	-36.7	26.8	0.00e+00	0	41	0	2834300928	44	3704
2026-01-30 10:53:08.18	352.41	38.75	-36.1	-36.8	26.7	0.00e+00	0	41	0	2839543808	44	3751
2026-01-30 10:53:09.19	352.18	38.53	-35.8	-36.5	26.8	0.00e+00	0	41	0	2845835264	43	3847
2026-01-30 10:53:10.20	351.95	38.32	-35.9	-36.6	26.8	0.00e+00	0	41	0	2851078144	43	3870
2026-01-30 10:53:11.21	351.73	38.10	-36.0	-36.7	26.6	0.00e+00	0	41	0	2857369600	43	3950
2026-01-30 10:53:12.21	351.52	37.88	-36.1	-36.8	26.6	0.00e+00	0	41	0	2862612480	43	3971
2026-01-30 10:53:13.22	351.30	37.67	-36.2	-36.9	26.5	0.00e+00	0	41	0	2867855360	43	4026
2026-01-30 10:53:14.23	351.09	37.45	-36.1	-36.8	26.6	0.00e+00	0	41	0	2874146816	43	3966
2026-01-30 10:53:15.24	350.88	37.24	-36.0	-36.7	26.7	0.00e+00	0	41	0	2879389696	43	3930
2026-01-30 10:53:16.24	350.67	37.03	-36.0	-36.6	26.7	0.00e+00	0	41	0	2884632576	43	3902
2026-01-30 10:53:17.25	350.46	36.82	-36.0	-36.6	26.7	0.00e+00	0	41	0	2890924032	43	3912
2026-01-30 10:53:18.26	350.26	36.61	-36.1	-36.8	26.6	0.00e+00	0	41	0	2897215488	43	3970
2026-01-30 10:53:19.27	350.06	36.40	-36.1	-36.8	26.6	0.00e+00	0	41	0	2902458368	43	3971
2026-01-30 10:53:20.28	349.86	36.19	-36.1	-36.8	26.6	0.00e+00	0	41	0	2907701248	43	3989
2026-01-30 10:53:21.29	349.67	35.98	-36.1	-36.8	26.6	0.00e+00	0	41	0	2913992704	43	3973
2026-01-30 10:53:22.29	349.48	35.77	-36.0	-36.7	26.6	0.00e+00	0	41	0	2919235584	43	3938
2026-01-30 10:53:23.30	349.29	35.57	-35.9	-36.6	26.7	0.00e+00	0	41	0	2924478464	43	3884
2026-01-30 10:53:24.31	349.10	35.36	-35.9	-36.6	26.7	0.00e+00	0	41	0	2930769920	43	3894
2026-01-30 10:53:25.31	348.92	35.16	-36.0	-36.7	26.7	0.00e+00	0	41	0	2936012800	43	3920
2026-01-30 10:53:26.32	348.74	34.96	-36.2	-36.8	26.5	0.00e+00	0	41	0	2942304256	43	3996
2026-01-30 10:53:27.33	348.56	34.75	-36.2	-36.9	26.5	0.00e+00	0	41	0	2947547136	43	4009
2026-01-30 10:53:28.34	348.38	34.55	-36.2	-36.9	26.4	0.00e+00	0	41	0	2952790016	43	4038
2026-01-30 10:53:29.34	348.21	34.35	-36.3	-37.0	26.4	0.00e+00	0	41	0	2959081472	43	4052
2026-01-30 10:53:30.35	348.03	34.15	-36.2	-36.8	26.5	0.00e+00	0	41	0	2965372928	43	4001
2026-01-30 10:53:31.37	347.86	33.95	-36.0	-36.7	26.6	0.00e+00	0	41	0	2970615808	43	3923
2026-01-30 10:53:32.37	347.69	33.76	-36.0	-36.6	26.7	0.00e+00	0	41	0	2975858688	43	3906
2026-01-30 10:53:33.38	347.52	33.56	-36.0	-36.7	26.6	0.00e+00	0	41	0	2982150144	43	3922
2026-01-30 10:53:34.38	347.36	33.37	-36.1	-36.8	26.5	0.00e+00	0	41	0	2987393024	43	3975
2026-01-30 10:53:35.39	347.20	33.17	-36.1	-36.8	26.5	0.00e+00	0	41	0	2992635904	43	3987
2026-01-30 10:53:36.40	347.04	32.98	-36.0	-36.7	26.6	0.00e+00	0	41	0	2998927360	43	3943
2026-01-30 10:53:37.41	346.88	32.79	-36.0	-36.7	26.6	0.00e+00	0	42	0	3004170240	43	3949
2026-01-30 10:53:38.42	346.72	32.60	-36.1	-36.7	26.5	0.00e+00	0	41	0	3009413120	43	3955
2026-01-30 10:53:39.42	346.57	32.41	-36.0	-36.7	26.6	0.00e+00	0	41	0	3015704576	43	3938
2026-01-30 10:53:40.42	346.41	32.22	-36.0	-36.7	26.6	0.00e+00	0	41	0	3020947456	43	3932
2026-01-30 10:53:41.43	346.26	32.03	-36.1	-36.8	26.5	0.00e+00	0	41	0	3027238912	43	3960
2026-01-30 10:53:42.44	346.11	31.84	-36.1	-36.8	26.5	0.00e+00	0	41	0	3032481792	43	3987
2026-01-30 10:53:43.45	345.96	31.66	-36.2	-36.9	26.4	0.00e+00	0	41	0	3037724672	43	4018
2026-01-30 10:53:44.45	345.82	31.47	-36.3	-37.0	26.3	0.00e+00	0	41	0	3044016128	43	4087
2026-01-30 10:53:45.46	345.67	31.29	-36.3	-37.0	26.3	0.00e+00	0	41	0	3050307584	43	4081
2026-01-30 10:53:46.47	345.53	31.10	-36.2	-36.9	26.4	0.00e+00	0	41	0	3055550464	43	4032
2026-01-30 10:53:47.48	345.39	30.92	-36.2	-36.9	26.4	0.00e+00	0	41	0	3060793344	43	4030
2026-01-30 10:53:48.49	345.25	30.74	-36.2	-36.9	26.4	0.00e+00	0	41	0	3067084800	43	4027
2026-01-30 10:53:49.49	345.11	30.56	-36.1	-36.8	26.4	0.00e+00	0	41	0	3072327680	43	3974
2026-01-30 10:53:50.50	344.97	30.38	-36.1	-36.8	26.5	0.00e+00	0	41	0	3077570560	43	3960
2026-01-30 10:53:51.51	344.84	30.20	-36.1	-36.7	26.5	0.00e+00	0	41	0	3083862016	43	3957
2026-01-30 10:53:52.51	344.71	30.02	-36.2	-36.8	26.4	0.00e+00	0	41	0	3089104896	43	4001
2026-01-30 10:53:53.52	344.57	29.85	-36.2	-36.8	26.4	0.00e+00	0	41	0	3094347776	43	3997
2026-01-30 10:53:54.53	344.44	29.67	-36.3	-36.9	26.3	0.00e+00	0	41	0	3100639232	43	4044
2026-01-30 10:53:55.54	344.31	29.49	-36.4	-37.1	26.2	0.00e+00	0	41	0	3105882112	43	4105
2026-01-30 10:53:56.55	344.19	29.32	-36.4	-37.1	26.1	0.00e+00	0	41	0	3112173568	43	4132
2026-01-30 10:53:57.56	344.06	29.15	-36.4	-37.1	26.2	0.00e+00	0	41	0	3117416448	43	4135
2026-01-30 10:53:58.57	343.94	28.97	-36.5	-37.1	26.1	0.00e+00	0	41	0	3123707904	43	4141
2026-01-30 10:53:59.57	343.81	28.80	-36.5	-37.2	26.1	0.00e+00	0	41	0	3128950784	43	4174
2026-01-30 10:54:00.58	343.69	28.63	-36.6	-37.3	26.0	0.00e+00	0	41	0	3135242240	43	4198
2026-01-30 10:54:01.59	343.57	28.46	-36.7	-37.4	26.0	0.00e+00	0	41	0	3140485120	43	4251
2026-01-30 10:54:02.60	343.45	28.29	-36.8	-37.4	26.0	0.00e+00	0	41	0	3145728000	44	4049
2026-01-30 10:54:03.60	343.33	28.13	-36.8	-37.4	26.0	0.00e+00	0	41	0	3152019456	44	4045
2026-01-30 10:54:04.61	343.22	27.96	-36.9	-37.6	25.8	0.00e+00	0	41	0	3157262336	44	4113
2026-01-30 10:54:05.62	343.10	27.79	-36.8	-37.5	25.9	0.00e+00	0	41	0	3162505216	44	4072
2026-01-30 10:54:06.63	342.99	27.63	-36.8	-37.5	25.9	0.00e+00	0	41	0	3168796672	44	4057
2026-01-30 10:54:07.63	342.87	27.46	-36.8	-37.5	25.9	0.00e+00	0	41	0	3174039552	44	4083
2026-01-30 10:54:08.64	342.76	27.30	-36.8	-37.5	25.9	0.00e+00	0	41	0	3179282432	44	4061
2026-01-30 10:54:09.65	342.65	27.14	-36.8	-37.4	26.0	0.00e+00	0	41	0	3185573888	44	4048
2026-01-30 10:54:10.65	342.54	26.98	-36.7	-37.4	25.9	0.00e+00	0	41	0	3191865344	44	4038
2026-01-30 10:54:11.66	342.43	26.81	-36.7	-37.4	25.9	0.00e+00	0	41	0	3197108224	44	4048
2026-01-30 10:54:12.67	342.33	26.65	-36.8	-37.5	25.9	0.00e+00	0	41	0	3202351104	44	4094
2026-01-30 10:54:13.68	342.22	26.49	-36.9	-37.6	25.8	0.00e+00	0	42	0	3208642560	44	4104
2026-01-30 10:54:14.68	342.11	26.34	-36.7	-37.3	26.0	0.00e+00	0	41	0	3213885440	44	4003
2026-01-30 10:54:15.69	342.01	26.18	-36.7	-37.3	26.0	0.00e+00	0	41	0	3220176896	44	4001
2026-01-30 10:54:16.70	341.91	26.02	-36.6	-37.3	26.0	0.00e+00	0	42	0	3225419776	44	3974
2026-01-30 10:54:17.70	341.81	25.87	-36.7	-37.4	26.0	0.00e+00	0	41	0	3230662656	44	4012
2026-01-30 10:54:18.70	341.71	25.71	-36.7	-37.4	25.9	0.00e+00	0	41	0	3236954112	44	4035
2026-01-30 10:54:19.71	341.61	25.56	-36.7	-37.4	25.9	0.00e+00	0	41	0	3242196992	44	4030
2026-01-30 10:54:20.72	341.51	25.40	-36.7	-37.4	25.9	0.00e+00	0	41	0	3247439872	44	4016
2026-01-30 10:54:21.73	341.41	25.25	-36.7	-37.4	25.9	0.00e+00	0	41	0	3253731328	44	4036
2026-01-30 10:54:22.74	341.31	25.10	-36.8	-37.4	25.9	0.00e+00	0	41	0	3258974208	44	4047
2026-01-30 10:54:23.74	341.22	24.95	-36.7	-37.3	26.0	0.00e+00	0	41	0	3264217088	44	4003
2026-01-30 10:54:24.75	341.12	24.80	-36.7	-37.4	25.9	0.00e+00	0	41	0	3270508544	44	4030
2026-01-30 10:54:25.75	341.03	24.65	-36.7	-37.4	25.9	0.00e+00	0	41	0	3276800000	44	4039
2026-01-30 10:54:26.76	340.93	24.50	-36.8	-37.4	25.9	0.00e+00	0	41	0	3282042880	44	4047
2026-01-30 10:54:27.77	340.84	24.35	-36.7	-37.4	25.9	0.00e+00	0	41	0	3287285760	44	4034
2026-01-30 10:54:28.77	340.75	24.20	-36.8	-37.4	25.9	0.00e+00	0	41	0	3293577216	44	4041
2026-01-30 10:54:29.78	340.66	24.06	-36.8	-37.5	25.8	0.00e+00	0	41	0	3298820096	44	4079
2026-01-30 10:54:30.79	340.57	23.91	-36.8	-37.5	25.8	0.00e+00	0	41	0	3305111552	44	4076
2026-01-30 10:54:31.79	340.48	23.77	-36.8	-37.5	25.9	0.00e+00	0	41	0	3310354432	44	4065
2026-01-30 10:54:32.80	340.39	23.62	-36.7	-37.4	25.9	0.00e+00	0	41	0	3315597312	44	4023
2026-01-30 10:54:33.81	340.31	23.48	-36.8	-37.5	25.8	0.00e+00	0	41	0	3321888768	44	4058
2026-01-30 10:54:34.82	340.22	23.33	-36.8	-37.5	25.8	0.00e+00	0	41	0	3327131648	44	4072
2026-01-30 10:54:35.83	340.14	23.19	-36.8	-37.5	25.8	0.00e+00	0	42	0	3332374528	44	4066
2026-01-30 10:54:36.84	340.05	23.05	-36.8	-37.5	25.8	0.00e+00	0	41	0	3338665984	44	4086
2026-01-30 10:54:37.85	339.97	22.91	-36.8	-37.5	25.8	0.00e+00	0	41	0	3343908864	44	4081
2026-01-30 10:54:38.85	339.88	22.77	-36.9	-37.6	25.7	0.00e+00	0	41	0	3349151744	44	4109
2026-01-30 10:54:39.86	339.80	22.63	-36.9	-37.6	25.7	0.00e+00	0	41	0	3355443200	44	4137
2026-01-30 10:54:40.86	339.72	22.49	-36.9	-37.6	25.7	0.00e+00	0	41	0	3361734656	44	4134
2026-01-30 10:54:41.87	339.64	22.35	-37.0	-37.7	25.7	0.00e+00	0	41	0	3366977536	44	4148
2026-01-30 10:54:42.88	339.56	22.21	-37.0	-37.7	25.6	0.00e+00	0	41	0	3372220416	44	4183
2026-01-30 10:54:43.89	339.48	22.08	-37.0	-37.7	25.6	0.00e+00	0	41	0	3378511872	44	4176
2026-01-30 10:54:44.90	339.40	21.94	-37.0	-37.7	25.6	0.00e+00	0	41	0	3383754752	44	4162
2026-01-30 10:54:45.91	339.32	21.80	-37.1	-37.8	25.5	0.00e+00	0	41	0	3390046208	44	4228
2026-01-30 10:54:46.91	339.25	21.67	-37.1	-37.7	25.5	0.00e+00	0	41	0	3395289088	44	4193
2026-01-30 10:54:47.92	339.17	21.54	-37.1	-37.8	25.5	0.00e+00	0	41	0	3400531968	44	4213
2026-01-30 10:54:48.93	339.10	21.40	-37.2	-37.9	25.4	0.00e+00	0	41	0	3406823424	44	4271
2026-01-30 10:54:49.94	339.02	21.27	-37.2	-37.9	25.4	0.00e+00	0	41	0	3412066304	45	4023
2026-01-30 10:54:50.95	338.95	21.14	-37.3	-37.9	25.4	0.00e+00	0	41	0	3417309184	45	4048
2026-01-30 10:54:51.95	338.87	21.01	-37.3	-38.0	25.4	0.00e+00	0	41	0	3423600640	45	4054
2026-01-30 10:54:52.96	338.80	20.87	-37.3	-38.0	25.3	0.00e+00	0	41	0	3429892096	45	4064
2026-01-30 10:54:53.97	338.73	20.74	-37.4	-38.1	25.2	0.00e+00	0	41	0	3435134976	45	4133
2026-01-30 10:54:54.98	338.66	20.61	-37.4	-38.1	25.2	0.00e+00	0	41	0	3440377856	45	4109
2026-01-30 10:54:55.99	338.58	20.48	-37.6	-38.3	25.0	0.00e+00	0	41	0	3446669312	45	4211
2026-01-30 10:54:56.99	338.51	20.36	-37.5	-38.2	25.1	0.00e+00	0	41	0	3451912192	45	4187
2026-01-30 10:54:58.00	338.44	20.23	-37.7	-38.4	25.0	0.00e+00	0	41	0	3457155072	45	4253
2026-01-30 10:54:59.01	338.37	20.10	-37.8	-38.5	24.9	0.00e+00	0	41	0	3463446528	46	4057
2026-01-30 10:55:00.02	338.31	19.97	-37.8	-38.5	24.9	0.00e+00	0	41	0	3468689408	46	4090
2026-01-30 10:55:01.02	338.24	19.85	-37.9	-38.6	24.7	0.00e+00	0	41	0	3474980864	46	4139
2026-01-30 10:55:02.02	338.17	19.72	-37.9	-38.6	24.8	0.00e+00	0	41	0	3480223744	46	4123
2026-01-30 10:55:03.02	338.11	19.60	-37.9	-38.6	24.8	0.00e+00	0	41	0	3485466624	46	4143
2026-01-30 10:55:04.03	338.04	19.48	-38.0	-38.7	24.7	0.00e+00	0	41	0	3491758080	46	4192
2026-01-30 10:55:05.04	337.97	19.35	-38.0	-38.8	24.6	0.00e+00	0	41	0	3497000960	46	4202
2026-01-30 10:55:06.03	337.91	19.23	-38.0	-38.8	24.6	0.00e+00	0	41	0	3502243840	46	4204
2026-01-30 10:55:07.04	337.84	19.11	-38.0	-38.8	24.6	0.00e+00	0	41	0	3508535296	46	4197
2026-01-30 10:55:08.05	337.78	18.99	-38.1	-38.8	24.5	0.00e+00	0	41	0	3513778176	46	4234
2026-01-30 10:55:09.05	337.72	18.87	-38.0	-38.8	24.6	0.00e+00	0	41	0	3520069632	46	4218
2026-01-30 10:55:10.06	337.65	18.74	-38.1	-38.8	24.6	0.00e+00	0	41	0	3525312512	46	4224
2026-01-30 10:55:11.07	337.59	18.62	-38.0	-38.7	24.6	0.00e+00	0	41	0	3531603968	46	4186
2026-01-30 10:55:12.08	337.53	18.50	-37.9	-38.7	24.7	0.00e+00	0	41	0	3536846848	46	4154
2026-01-30 10:55:13.09	337.47	18.38	-38.0	-38.7	24.6	0.00e+00	0	41	0	3542089728	46	4183
2026-01-30 10:55:14.10	337.41	18.26	-37.9	-38.6	24.7	0.00e+00	0	41	0	3548381184	46	4129
2026-01-30 10:55:15.10	337.35	18.15	-37.9	-38.6	24.7	0.00e+00	0	41	0	3553624064	46	4129
2026-01-30 10:55:16.11	337.29	18.03	-37.9	-38.6	24.7	0.00e+00	0	41	0	3559915520	46	4128
2026-01-30 10:55:17.11	337.23	17.91	-37.8	-38.6	24.7	0.00e+00	0	41	0	3565158400	46	4107
2026-01-30 10:55:18.12	337.17	17.80	-37.8	-38.5	24.8	0.00e+00	0	41	0	3570401280	46	4081
2026-01-30 10:55:19.13	337.11	17.68	-37.8	-38.5	24.7	0.00e+00	0	41	0	3576692736	46	4088
2026-01-30 10:55:20.14	337.05	17.56	-37.8	-38.5	24.8	0.00e+00	0	41	0	3581935616	46	4066
2026-01-30 10:55:21.15	336.99	17.45	-37.9	-38.6	24.7	0.00e+00	0	41	0	3587178496	46	4116
2026-01-30 10:55:22.15	336.94	17.33	-37.8	-38.5	24.8	0.00e+00	0	41	0	3593469952	46	4070
2026-01-30 10:55:23.16	336.88	17.22	-37.9	-38.6	24.7	0.00e+00	0	41	0	3599761408	46	4101
2026-01-30 10:55:24.16	336.83	17.11	-37.8	-38.5	24.8	0.00e+00	0	41	0	3605004288	46	4074
2026-01-30 10:55:25.17	336.77	16.99	-37.9	-38.6	24.7	0.00e+00	0	41	0	3610247168	46	4106
2026-01-30 10:55:26.17	336.71	16.88	-37.9	-38.7	24.6	0.00e+00	0	41	0	3616538624	46	4146
2026-01-30 10:55:27.18	336.66	16.77	-38.0	-38.7	24.6	0.00e+00	0	41	0	3621781504	46	4166
2026-01-30 10:55:28.19	336.61	16.66	-37.9	-38.6	24.6	0.00e+00	0	41	0	3627024384	46	4142
2026-01-30 10:55:29.20	336.55	16.55	-38.0	-38.7	24.5	0.00e+00	0	41	0	3633315840	46	4191
2026-01-30 10:55:30.21	336.50	16.44	-38.1	-38.8	24.5	0.00e+00	0	41	0	3638558720	46	4213
2026-01-30 10:55:31.21	336.44	16.33	-38.2	-39.0	24.3	0.00e+00	0	41	0	3644850176	47	4057
2026-01-30 10:55:32.22	336.39	16.22	-38.2	-39.0	24.4	0.00e+00	0	41	0	3650093056	47	4052
2026-01-30 10:55:33.23	336.34	16.11	-38.3	-39.1	24.2	0.00e+00	0	41	0	3655335936	47	4109
2026-01-30 10:55:34.24	336.29	16.00	-38.4	-39.1	24.2	0.00e+00	0	41	0	3661627392	47	4134
2026-01-30 10:55:35.25	336.24	15.89	-38.4	-39.2	24.1	0.00e+00	0	41	0	3666870272	47	4147
2026-01-30 10:55:36.25	336.19	15.78	-38.5	-39.2	24.1	0.00e+00	0	41	0	3673161728	47	4191
2026-01-30 10:55:37.26	336.13	15.67	-38.5	-39.2	24.1	0.00e+00	0	41	0	3678404608	47	4166
2026-01-30 10:55:38.26	336.08	15.57	-38.5	-39.3	24.0	0.00e+00	0	41	0	3684696064	47	4213
2026-01-30 10:55:39.27	336.03	15.46	-38.6	-39.4	23.9	0.00e+00	0	41	0	3689938944	47	4268
2026-01-30 10:55:40.27	335.99	15.36	-39.0	-39.8	24.0	0.00e+00	0	41	0	3695181824	48	4207
2026-01-30 10:55:41.27	335.94	15.25	-39.1	-39.8	24.0	0.00e+00	0	41	0	3701473280	48	4239
