passes_logs/2026/01/30/R3.2S_Murmansk/R3.2S_Murmansk__20260130_062859_SUOMI_NPP_rec.log

#Pass ID: 20260130_062859_SUOMI NPP
#Satellite: SUOMI NPP
#Configuration: NPP
#almurnet v.1.7.20251203
#Start time: 2026-01-30 06:29:00

#Version: 2.2.20231116
#Station: R3.2S_Murmansk
#Location: 33.079688 lon 68.888172 lat
#TLE: 1 37849U 11061A   26029.48304708  .00000140  00000+0  87283-4 0  9999
#TLE: 2 37849  98.7824 331.4079 0002024  38.4342 321.6978 14.19531488738761

#Time	Az	El	Level	Level2	SNR	BER	BlckErr	Temp	State	Recorded	gain1	gain2
2026-01-30 06:29:00.37	83.17	2.08	-53.8	-68.8	3.8	1.49e+00	0	39	0	0	79	19899
2026-01-30 06:29:01.36	83.11	2.13	-53.7	-68.8	3.8	1.49e+00	0	39	104	0	78	21033
2026-01-30 06:29:02.37	83.05	2.19	-53.8	-68.8	3.8	1.49e+00	0	39	104	0	78	21122
2026-01-30 06:29:03.38	82.99	2.25	-54.0	-69.0	3.8	1.49e+00	0	39	104	0	78	21664
2026-01-30 06:29:04.38	82.93	2.31	-54.1	-69.1	3.8	1.49e+00	0	39	104	0	78	21899
2026-01-30 06:29:05.39	82.87	2.37	-54.2	-69.1	3.8	1.49e+00	0	39	104	0	78	21984
2026-01-30 06:29:06.40	82.81	2.43	-54.2	-69.2	3.8	1.49e+00	0	39	104	0	78	22026
2026-01-30 06:29:07.41	82.75	2.49	-54.2	-69.2	3.8	1.49e+00	0	39	104	0	79	20948
2026-01-30 06:29:08.41	82.69	2.55	-54.2	-69.2	3.8	1.49e+00	0	39	104	0	79	20817
2026-01-30 06:29:09.41	82.63	2.61	-54.1	-69.1	3.8	1.49e+00	0	39	104	0	79	20693
2026-01-30 06:29:10.41	82.57	2.67	-54.1	-69.0	3.8	1.49e+00	0	39	104	0	79	20497
2026-01-30 06:29:11.42	82.51	2.72	-54.0	-69.0	3.8	1.49e+00	0	39	104	0	79	20358
2026-01-30 06:29:12.42	82.45	2.78	-53.9	-68.9	3.8	1.49e+00	0	39	104	0	79	20194
2026-01-30 06:29:13.43	82.39	2.84	-53.9	-68.9	3.8	1.49e+00	0	39	104	0	79	20154
2026-01-30 06:29:14.43	82.33	2.90	-53.9	-68.8	3.8	1.49e+00	0	39	104	0	79	20032
2026-01-30 06:29:15.44	82.27	2.96	-53.8	-68.8	3.8	1.49e+00	0	39	104	0	79	19966
2026-01-30 06:29:16.45	82.20	3.02	-53.8	-68.7	3.8	1.49e+00	0	40	104	0	79	19802
2026-01-30 06:29:17.46	82.14	3.08	-53.6	-68.4	3.8	1.49e+00	0	40	104	0	79	19146
2026-01-30 06:29:18.47	82.08	3.15	-53.5	-68.5	3.8	1.49e+00	0	40	104	0	79	19215
2026-01-30 06:29:19.48	82.02	3.21	-53.3	-68.3	3.8	1.49e+00	0	40	104	0	78	19926
2026-01-30 06:29:20.48	81.95	3.27	-53.1	-68.0	3.8	1.49e+00	0	40	104	0	78	19359
2026-01-30 06:29:21.49	81.89	3.33	-52.8	-67.8	3.8	1.49e+00	0	40	104	0	77	19876
2026-01-30 06:29:22.50	81.82	3.39	-52.6	-67.5	3.8	1.49e+00	0	40	104	0	77	19338
2026-01-30 06:29:23.50	81.76	3.45	-52.2	-67.1	3.8	1.49e+00	0	40	104	0	76	19590
2026-01-30 06:29:24.51	81.70	3.51	-52.0	-66.9	3.8	1.49e+00	0	40	104	0	75	20120
2026-01-30 06:29:25.52	81.63	3.57	-51.9	-66.8	3.8	1.49e+00	0	40	104	0	75	20067
2026-01-30 06:29:26.53	81.57	3.63	-51.9	-66.8	3.8	1.49e+00	0	40	104	0	75	19979
2026-01-30 06:29:27.53	81.50	3.69	-51.9	-66.8	3.8	1.49e+00	0	40	104	0	75	20008
2026-01-30 06:29:28.54	81.44	3.75	-51.9	-66.8	3.8	1.49e+00	0	40	104	0	75	19960
2026-01-30 06:29:29.55	81.37	3.82	-51.9	-66.8	3.8	1.49e+00	0	40	104	0	75	19909
2026-01-30 06:29:30.56	81.30	3.88	-51.9	-66.7	3.8	1.49e+00	0	40	104	0	75	19838
2026-01-30 06:29:31.56	81.24	3.94	-51.9	-66.8	3.8	1.49e+00	0	40	104	0	75	19872
2026-01-30 06:29:32.57	81.17	4.00	-51.9	-66.8	3.8	1.49e+00	0	40	104	0	75	19917
2026-01-30 06:29:33.58	81.10	4.06	-51.9	-66.8	3.8	1.49e+00	0	40	104	0	75	19972
2026-01-30 06:29:34.58	81.04	4.12	-51.9	-66.8	3.8	1.49e+00	0	40	104	0	75	20020
2026-01-30 06:29:35.59	80.97	4.19	-51.9	-66.7	3.8	1.49e+00	0	40	104	0	75	19795
2026-01-30 06:29:36.60	80.90	4.25	-51.8	-66.6	3.8	1.49e+00	0	40	104	0	75	19404
2026-01-30 06:29:37.60	80.83	4.31	-51.8	-66.4	3.8	1.49e+00	0	40	104	0	75	19020
2026-01-30 06:29:38.61	80.76	4.37	-51.8	-66.1	3.8	1.49e+00	0	40	104	0	75	18476
2026-01-30 06:29:39.61	80.70	4.43	-51.8	-66.1	3.8	1.49e+00	0	40	104	0	75	18482
2026-01-30 06:29:40.62	80.63	4.50	-51.8	-66.2	3.8	1.49e+00	0	40	104	0	75	18544
2026-01-30 06:29:41.63	80.56	4.56	-51.8	-66.1	3.8	1.49e+00	0	40	104	0	75	18517
2026-01-30 06:29:42.63	80.49	4.62	-51.8	-65.9	3.8	1.49e+00	0	40	104	0	75	18027
2026-01-30 06:29:43.64	80.42	4.69	-51.8	-65.3	3.8	1.49e+00	0	40	104	0	75	16852
2026-01-30 06:29:44.65	80.35	4.75	-51.7	-63.7	4.1	1.49e+00	0	40	104	0	75	13966
2026-01-30 06:29:45.66	80.27	4.81	-51.5	-61.6	4.8	1.11e+00	0	40	0	0	75	10905
2026-01-30 06:29:46.66	80.20	4.87	-51.2	-59.6	6.0	4.50e-01	0	40	0	2097152	74	9272
2026-01-30 06:29:47.67	80.13	4.94	-50.9	-58.1	7.3	2.17e-01	0	40	0	4194304	73	8258
2026-01-30 06:29:48.67	80.06	5.00	-50.6	-56.7	8.7	4.71e-02	0	40	0	6291456	73	7008
2026-01-30 06:29:49.68	79.99	5.06	-51.0	-57.9	7.8	1.86e-02	0	40	0	8388608	72	8514
2026-01-30 06:29:50.70	79.92	5.13	-50.3	-55.3	10.4	1.04e-01	0	40	0	9437184	72	6293
2026-01-30 06:29:51.70	79.84	5.19	-51.5	-61.9	5.0	5.71e-02	0	40	0	11534336	73	12774
2026-01-30 06:29:52.71	79.77	5.26	-51.7	-62.0	4.8	1.48e+00	1	40	104	11534336	74	12177
2026-01-30 06:29:53.72	79.70	5.32	-48.5	-51.5	14.1	7.83e-01	0	40	0	12582912	69	4843
2026-01-30 06:29:54.73	79.62	5.38	-48.4	-51.3	14.4	0.00e+00	0	40	0	13631488	68	5021
2026-01-30 06:29:55.73	79.55	5.45	-48.3	-51.3	14.4	7.00e-07	0	40	0	15728640	68	4997
2026-01-30 06:29:56.74	79.47	5.51	-48.5	-51.6	14.1	0.00e+00	0	40	0	17825792	68	5191
2026-01-30 06:29:57.75	79.40	5.58	-48.2	-51.0	14.7	1.50e-06	0	40	0	19922944	68	4852
2026-01-30 06:29:58.75	79.33	5.64	-48.2	-51.0	14.8	7.00e-07	0	40	0	20971520	68	4823
2026-01-30 06:29:59.76	79.25	5.71	-48.1	-50.9	14.8	0.00e+00	0	40	0	23068672	68	4776
2026-01-30 06:30:00.76	79.17	5.77	-47.5	-49.9	15.8	0.00e+00	0	40	0	25165824	66	4789
2026-01-30 06:30:01.77	79.10	5.84	-47.6	-50.2	15.5	0.00e+00	0	41	0	27262976	66	4939
2026-01-30 06:30:02.77	79.02	5.90	-46.9	-49.2	16.5	0.00e+00	0	40	0	29360128	65	4664
2026-01-30 06:30:03.78	78.94	5.96	-46.9	-49.2	16.5	0.00e+00	0	40	0	31457280	65	4661
2026-01-30 06:30:04.78	78.87	6.03	-46.8	-49.1	16.6	0.00e+00	0	40	0	32505856	65	4607
2026-01-30 06:30:05.79	78.79	6.10	-46.5	-48.7	17.0	0.00e+00	0	40	0	34603008	65	4395
2026-01-30 06:30:06.80	78.71	6.16	-46.6	-48.8	16.9	0.00e+00	0	40	0	36700160	65	4464
2026-01-30 06:30:07.80	78.63	6.23	-46.6	-48.7	17.0	0.00e+00	0	40	0	38797312	64	4687
2026-01-30 06:30:08.81	78.56	6.29	-46.5	-48.6	17.0	0.00e+00	0	40	0	40894464	64	4636
2026-01-30 06:30:09.82	78.48	6.36	-46.6	-48.7	17.0	0.00e+00	0	40	0	41943040	64	4694
2026-01-30 06:30:10.82	78.40	6.42	-46.6	-48.8	16.9	0.00e+00	0	40	0	44040192	64	4717
2026-01-30 06:30:11.83	78.32	6.49	-46.6	-48.8	17.0	0.00e+00	0	40	0	46137344	64	4716
2026-01-30 06:30:12.84	78.24	6.56	-46.4	-48.4	17.3	0.00e+00	0	41	0	48234496	64	4529
2026-01-30 06:30:13.84	78.16	6.62	-46.2	-48.2	17.5	0.00e+00	0	41	0	49283072	64	4422
2026-01-30 06:30:14.84	78.08	6.69	-46.5	-48.5	17.2	0.00e+00	0	40	0	51380224	64	4588
2026-01-30 06:30:15.85	78.00	6.75	-46.3	-48.3	17.4	0.00e+00	0	40	0	53477376	64	4488
2026-01-30 06:30:16.85	77.91	6.82	-46.3	-48.3	17.4	0.00e+00	0	40	0	55574528	64	4461
2026-01-30 06:30:17.85	77.83	6.89	-46.1	-48.1	17.7	0.00e+00	0	40	0	57671680	64	4349
2026-01-30 06:30:18.86	77.75	6.95	-46.2	-48.2	17.5	0.00e+00	0	41	0	58720256	64	4420
2026-01-30 06:30:19.86	77.67	7.02	-46.3	-48.4	17.4	0.00e+00	0	41	0	60817408	64	4507
2026-01-30 06:30:20.87	77.58	7.09	-46.3	-48.3	17.5	0.00e+00	0	40	0	62914560	64	4475
2026-01-30 06:30:21.87	77.50	7.15	-46.4	-48.4	17.4	0.00e+00	0	41	0	65011712	64	4533
2026-01-30 06:30:22.87	77.42	7.22	-46.3	-48.3	17.5	0.00e+00	0	41	0	67108864	64	4480
2026-01-30 06:30:23.88	77.33	7.29	-46.4	-48.4	17.4	0.00e+00	0	41	0	69206016	64	4536
2026-01-30 06:30:24.89	77.25	7.35	-46.4	-48.4	17.5	0.00e+00	0	40	0	70254592	64	4496
2026-01-30 06:30:25.90	77.16	7.42	-46.4	-48.5	17.4	0.00e+00	0	41	0	72351744	64	4550
2026-01-30 06:30:26.91	77.08	7.49	-46.2	-48.2	17.7	0.00e+00	0	41	0	74448896	64	4409
2026-01-30 06:30:27.92	76.99	7.56	-46.6	-48.7	17.1	0.00e+00	0	41	0	76546048	64	4687
2026-01-30 06:30:28.93	76.90	7.63	-46.4	-48.4	17.4	0.00e+00	0	40	0	77594624	64	4539
2026-01-30 06:30:29.93	76.82	7.69	-46.2	-48.1	17.7	0.00e+00	0	41	0	79691776	64	4381
2026-01-30 06:30:30.93	76.73	7.76	-46.3	-48.2	17.6	0.00e+00	0	40	0	81788928	64	4440
2026-01-30 06:30:31.94	76.64	7.83	-46.3	-48.3	17.5	0.00e+00	0	40	0	83886080	64	4479
2026-01-30 06:30:32.95	76.55	7.90	-46.4	-48.4	17.5	0.00e+00	0	40	0	85983232	64	4521
2026-01-30 06:30:33.96	76.47	7.97	-46.1	-48.0	17.9	0.00e+00	0	41	0	87031808	64	4296
2026-01-30 06:30:34.96	76.38	8.04	-46.2	-48.0	18.0	0.00e+00	0	41	0	89128960	63	4570
2026-01-30 06:30:35.97	76.29	8.10	-46.4	-48.3	17.7	0.00e+00	0	41	0	91226112	63	4723
2026-01-30 06:30:36.98	76.20	8.17	-46.0	-47.8	18.1	0.00e+00	0	40	0	93323264	63	4491
2026-01-30 06:30:37.99	76.11	8.24	-46.3	-48.2	17.7	0.00e+00	0	40	0	95420416	63	4697
2026-01-30 06:30:38.99	76.02	8.31	-46.4	-48.3	17.6	0.00e+00	0	41	0	97517568	63	4747
2026-01-30 06:30:40.00	75.93	8.38	-46.4	-48.3	17.7	0.00e+00	0	41	0	98566144	63	4708
2026-01-30 06:30:41.01	75.83	8.45	-46.4	-48.3	17.7	0.00e+00	0	41	0	100663296	63	4755
2026-01-30 06:30:42.02	75.74	8.52	-46.5	-48.5	17.5	0.00e+00	0	41	0	102760448	63	4824
2026-01-30 06:30:43.02	75.65	8.59	-46.4	-48.3	17.7	0.00e+00	0	41	0	104857600	63	4755
2026-01-30 06:30:44.03	75.56	8.66	-46.6	-48.6	17.4	0.00e+00	0	41	0	105906176	63	4926
2026-01-30 06:30:45.04	75.46	8.73	-46.3	-48.2	17.8	0.00e+00	0	41	0	108003328	63	4688
2026-01-30 06:30:46.04	75.37	8.80	-46.5	-48.4	17.6	0.00e+00	0	41	0	110100480	63	4805
2026-01-30 06:30:47.05	75.27	8.87	-46.4	-48.3	17.7	0.00e+00	0	41	0	112197632	63	4730
2026-01-30 06:30:48.06	75.18	8.94	-46.3	-48.1	17.8	0.00e+00	0	41	0	114294784	63	4651
2026-01-30 06:30:49.07	75.08	9.01	-46.6	-48.7	17.4	0.00e+00	0	41	0	115343360	63	4933
2026-01-30 06:30:50.07	74.99	9.08	-46.5	-48.5	17.4	0.00e+00	0	41	0	117440512	64	4595
2026-01-30 06:30:51.08	74.89	9.15	-46.7	-48.8	17.2	0.00e+00	0	41	0	119537664	64	4732
2026-01-30 06:30:52.09	74.79	9.22	-46.8	-49.0	16.9	0.00e+00	0	41	0	121634816	64	4863
2026-01-30 06:30:53.10	74.70	9.29	-46.8	-48.9	17.0	0.00e+00	0	41	0	123731968	64	4814
2026-01-30 06:30:54.10	74.60	9.36	-46.6	-48.7	17.3	0.00e+00	0	41	0	125829120	64	4697
2026-01-30 06:30:55.10	74.50	9.43	-46.6	-48.7	17.3	0.00e+00	0	41	0	126877696	64	4652
2026-01-30 06:30:56.11	74.40	9.50	-46.5	-48.6	17.3	0.00e+00	0	41	0	128974848	64	4629
2026-01-30 06:30:57.12	74.30	9.58	-46.4	-48.4	17.6	0.00e+00	0	41	0	131072000	64	4497
2026-01-30 06:30:58.13	74.20	9.65	-46.1	-48.0	17.9	0.00e+00	0	41	0	133169152	64	4321
2026-01-30 06:30:59.13	74.10	9.72	-46.0	-47.9	18.1	0.00e+00	0	41	0	134217728	63	4506
2026-01-30 06:31:00.14	74.00	9.79	-46.1	-47.9	18.1	0.00e+00	0	41	0	136314880	63	4527
2026-01-30 06:31:01.15	73.90	9.86	-45.8	-47.6	18.5	0.00e+00	0	41	0	138412032	63	4345
2026-01-30 06:31:02.15	73.80	9.93	-45.9	-47.6	18.4	0.00e+00	0	40	0	140509184	63	4387
2026-01-30 06:31:03.16	73.70	10.01	-46.1	-48.0	18.1	0.00e+00	0	41	0	142606336	63	4578
2026-01-30 06:31:04.17	73.59	10.08	-46.2	-48.1	18.1	0.00e+00	0	41	0	143654912	63	4607
2026-01-30 06:31:05.17	73.49	10.15	-46.1	-47.9	18.1	0.00e+00	0	41	0	145752064	63	4532
2026-01-30 06:31:06.18	73.39	10.22	-45.9	-47.7	18.4	0.00e+00	0	41	0	147849216	63	4401
2026-01-30 06:31:07.18	73.28	10.29	-45.9	-47.7	18.4	0.00e+00	0	41	0	149946368	63	4431
2026-01-30 06:31:08.19	73.18	10.37	-45.8	-47.6	18.5	0.00e+00	0	41	0	152043520	63	4343
2026-01-30 06:31:09.20	73.07	10.44	-45.9	-47.7	18.4	0.00e+00	0	41	0	154140672	63	4392
2026-01-30 06:31:10.20	72.97	10.51	-45.8	-47.5	18.6	0.00e+00	0	41	0	155189248	63	4314
2026-01-30 06:31:11.20	72.86	10.58	-45.9	-47.6	18.4	0.00e+00	0	41	0	157286400	63	4391
2026-01-30 06:31:12.21	72.75	10.66	-45.9	-47.7	18.4	0.00e+00	0	41	0	159383552	63	4429
2026-01-30 06:31:13.21	72.65	10.73	-46.0	-47.9	18.2	0.00e+00	0	41	0	161480704	63	4514
2026-01-30 06:31:14.21	72.54	10.80	-46.2	-48.1	18.0	0.00e+00	0	41	0	162529280	63	4630
2026-01-30 06:31:15.21	72.43	10.88	-46.0	-47.8	18.4	0.00e+00	0	41	0	164626432	63	4451
2026-01-30 06:31:16.22	72.32	10.95	-45.9	-47.7	18.4	0.00e+00	0	41	0	166723584	63	4414
2026-01-30 06:31:17.23	72.21	11.02	-45.6	-47.3	18.8	0.00e+00	0	41	0	168820736	63	4226
2026-01-30 06:31:18.24	72.10	11.10	-45.6	-47.2	18.9	0.00e+00	0	41	0	170917888	63	4192
2026-01-30 06:31:19.25	71.99	11.17	-45.6	-47.3	18.8	0.00e+00	0	41	0	171966464	63	4201
2026-01-30 06:31:20.26	71.88	11.25	-45.7	-47.4	18.7	0.00e+00	0	41	0	174063616	63	4264
2026-01-30 06:31:21.26	71.77	11.32	-45.8	-47.5	18.6	0.00e+00	0	41	0	176160768	63	4316
2026-01-30 06:31:22.26	71.65	11.39	-45.8	-47.5	18.6	0.00e+00	0	41	0	178257920	63	4326
2026-01-30 06:31:23.27	71.54	11.47	-45.8	-47.4	18.7	0.00e+00	0	41	0	180355072	63	4290
2026-01-30 06:31:24.28	71.43	11.54	-45.8	-47.5	18.6	0.00e+00	0	41	0	182452224	63	4323
2026-01-30 06:31:25.29	71.31	11.62	-45.7	-47.4	18.7	0.00e+00	0	41	0	183500800	63	4260
2026-01-30 06:31:26.29	71.20	11.69	-45.6	-47.3	18.9	0.00e+00	0	41	0	185597952	63	4197
2026-01-30 06:31:27.30	71.08	11.77	-45.5	-47.2	19.0	0.00e+00	0	41	0	187695104	63	4153
2026-01-30 06:31:28.31	70.96	11.84	-45.6	-47.2	18.9	0.00e+00	0	41	0	189792256	62	4431
2026-01-30 06:31:29.31	70.85	11.92	-45.6	-47.3	18.9	0.00e+00	0	41	0	190840832	62	4444
2026-01-30 06:31:30.31	70.73	11.99	-45.7	-47.4	18.7	0.00e+00	0	41	0	192937984	62	4533
2026-01-30 06:31:31.31	70.61	12.06	-46.0	-47.8	18.4	0.00e+00	0	41	0	195035136	62	4741
2026-01-30 06:31:32.32	70.49	12.14	-46.1	-47.9	18.3	0.00e+00	0	41	0	197132288	62	4804
2026-01-30 06:31:33.32	70.38	12.21	-46.0	-47.9	18.3	0.00e+00	0	41	0	199229440	62	4761
2026-01-30 06:31:34.33	70.25	12.29	-46.0	-47.7	18.5	0.00e+00	0	41	0	200278016	62	4705
2026-01-30 06:31:35.34	70.13	12.37	-46.1	-47.9	18.4	0.00e+00	0	41	0	202375168	62	4765
2026-01-30 06:31:36.35	70.01	12.44	-46.2	-48.0	18.3	0.00e+00	0	41	0	204472320	62	4848
2026-01-30 06:31:37.35	69.89	12.52	-46.3	-48.2	18.1	0.00e+00	0	41	0	206569472	63	4655
2026-01-30 06:31:38.35	69.77	12.59	-46.3	-48.2	18.1	0.00e+00	0	41	0	208666624	63	4656
2026-01-30 06:31:39.36	69.65	12.67	-46.2	-48.1	18.2	0.00e+00	0	41	0	209715200	63	4609
2026-01-30 06:31:40.36	69.52	12.74	-46.1	-48.0	18.2	0.00e+00	0	41	0	211812352	63	4549
2026-01-30 06:31:41.37	69.40	12.82	-46.1	-47.9	18.3	0.00e+00	0	41	0	213909504	63	4522
2026-01-30 06:31:42.37	69.27	12.90	-46.0	-47.8	18.4	0.00e+00	0	41	0	216006656	63	4468
2026-01-30 06:31:43.38	69.15	12.97	-46.0	-47.8	18.4	0.00e+00	0	41	0	218103808	63	4489
2026-01-30 06:31:44.39	69.02	13.05	-45.9	-47.6	18.6	0.00e+00	0	41	0	219152384	63	4349
2026-01-30 06:31:45.39	68.89	13.13	-45.9	-47.6	18.6	0.00e+00	0	41	0	221249536	63	4384
2026-01-30 06:31:46.40	68.77	13.20	-45.7	-47.4	18.8	0.00e+00	0	41	0	223346688	63	4246
2026-01-30 06:31:47.41	68.64	13.28	-45.7	-47.3	18.9	0.00e+00	0	41	0	225443840	63	4224
2026-01-30 06:31:48.42	68.51	13.36	-45.4	-47.0	19.2	0.00e+00	0	41	0	227540992	62	4329
2026-01-30 06:31:49.42	68.38	13.43	-45.5	-47.1	19.1	0.00e+00	0	41	0	228589568	62	4348
2026-01-30 06:31:50.43	68.25	13.51	-45.3	-46.8	19.4	0.00e+00	0	41	0	230686720	62	4216
2026-01-30 06:31:51.44	68.11	13.59	-44.8	-46.3	19.8	0.00e+00	0	41	0	232783872	61	4199
2026-01-30 06:31:52.44	67.98	13.67	-45.0	-46.5	19.6	0.00e+00	0	41	0	234881024	61	4296
2026-01-30 06:31:53.45	67.85	13.74	-45.0	-46.5	19.7	0.00e+00	0	41	0	236978176	61	4295
2026-01-30 06:31:54.46	67.72	13.82	-44.8	-46.3	19.8	0.00e+00	0	41	0	238026752	61	4206
2026-01-30 06:31:55.46	67.58	13.90	-44.8	-46.2	19.9	0.00e+00	0	41	0	240123904	61	4169
2026-01-30 06:31:56.47	67.45	13.98	-44.8	-46.2	19.9	0.00e+00	0	41	0	242221056	61	4191
2026-01-30 06:31:57.48	67.31	14.05	-44.8	-46.3	19.8	0.00e+00	0	41	0	244318208	61	4208
2026-01-30 06:31:58.49	67.18	14.13	-44.8	-46.3	19.8	0.00e+00	0	41	0	246415360	61	4219
2026-01-30 06:31:59.49	67.04	14.21	-44.9	-46.3	19.8	0.00e+00	0	41	0	247463936	61	4230
2026-01-30 06:32:00.50	66.90	14.29	-44.8	-46.3	19.9	0.00e+00	0	41	0	249561088	61	4204
2026-01-30 06:32:01.51	66.76	14.37	-44.9	-46.4	19.9	0.00e+00	0	41	0	251658240	61	4247
2026-01-30 06:32:02.51	66.62	14.44	-45.1	-46.6	19.6	0.00e+00	0	41	0	253755392	61	4348
2026-01-30 06:32:03.52	66.48	14.52	-45.0	-46.5	19.7	0.00e+00	0	41	0	255852544	61	4297
2026-01-30 06:32:04.53	66.34	14.60	-45.2	-46.7	19.5	0.00e+00	0	41	0	256901120	61	4425
2026-01-30 06:32:05.54	66.20	14.68	-45.1	-46.6	19.6	0.00e+00	0	41	0	258998272	61	4365
2026-01-30 06:32:06.54	66.06	14.76	-45.0	-46.5	19.7	0.00e+00	0	41	0	261095424	61	4306
2026-01-30 06:32:07.55	65.91	14.84	-45.1	-46.6	19.6	0.00e+00	0	41	0	263192576	61	4385
2026-01-30 06:32:08.56	65.77	14.92	-44.9	-46.3	19.8	0.00e+00	0	41	0	265289728	61	4221
2026-01-30 06:32:09.57	65.63	14.99	-44.9	-46.3	19.8	0.00e+00	0	41	0	266338304	61	4236
2026-01-30 06:32:10.57	65.48	15.07	-44.9	-46.4	19.8	0.00e+00	0	41	0	268435456	61	4281
2026-01-30 06:32:11.58	65.33	15.15	-45.0	-46.4	19.8	0.00e+00	0	41	0	270532608	61	4275
2026-01-30 06:32:12.59	65.19	15.23	-44.8	-46.3	19.9	0.00e+00	0	41	0	272629760	61	4213
2026-01-30 06:32:13.60	65.04	15.31	-44.6	-46.0	20.1	0.00e+00	0	41	0	274726912	61	4090
2026-01-30 06:32:14.61	64.89	15.39	-44.7	-46.2	20.0	0.00e+00	0	41	0	275775488	60	4397
2026-01-30 06:32:15.61	64.74	15.47	-44.6	-46.0	20.1	0.00e+00	0	41	0	277872640	60	4333
2026-01-30 06:32:16.62	64.59	15.55	-44.6	-46.1	20.1	0.00e+00	0	41	0	279969792	60	4344
2026-01-30 06:32:17.62	64.44	15.63	-44.8	-46.2	19.9	0.00e+00	0	41	0	282066944	60	4426
2026-01-30 06:32:18.63	64.29	15.70	-44.8	-46.3	19.9	0.00e+00	0	41	0	284164096	60	4445
2026-01-30 06:32:19.64	64.14	15.78	-44.7	-46.1	20.0	0.00e+00	0	41	0	285212672	60	4374
2026-01-30 06:32:20.65	63.98	15.86	-44.7	-46.1	20.0	0.00e+00	0	41	0	287309824	60	4378
2026-01-30 06:32:21.65	63.83	15.94	-44.7	-46.2	19.9	0.00e+00	0	41	0	289406976	60	4424
2026-01-30 06:32:22.66	63.67	16.02	-44.7	-46.2	20.0	0.00e+00	0	41	0	291504128	60	4402
2026-01-30 06:32:23.66	63.52	16.10	-44.7	-46.2	19.9	0.00e+00	0	41	0	293601280	60	4408
2026-01-30 06:32:24.67	63.36	16.18	-44.7	-46.1	19.9	0.00e+00	0	41	0	295698432	60	4390
2026-01-30 06:32:25.67	63.20	16.26	-45.0	-46.6	19.6	0.00e+00	0	41	0	296747008	60	4627
2026-01-30 06:32:26.68	63.04	16.34	-45.1	-46.7	19.5	0.00e+00	0	41	0	298844160	60	4667
2026-01-30 06:32:27.69	62.88	16.42	-45.1	-46.7	19.5	0.00e+00	0	41	0	300941312	61	4395
2026-01-30 06:32:28.70	62.72	16.50	-45.2	-46.8	19.4	0.00e+00	0	41	0	303038464	61	4443
2026-01-30 06:32:29.71	62.56	16.58	-45.0	-46.6	19.6	0.00e+00	0	41	0	304087040	61	4359
2026-01-30 06:32:30.71	62.40	16.66	-45.1	-46.6	19.6	0.00e+00	0	41	0	306184192	61	4387
2026-01-30 06:32:31.72	62.24	16.74	-45.2	-46.8	19.4	0.00e+00	0	41	0	308281344	61	4476
2026-01-30 06:32:32.73	62.07	16.82	-45.5	-47.2	18.9	0.00e+00	0	41	0	310378496	61	4684
2026-01-30 06:32:33.73	61.91	16.90	-45.5	-47.2	19.1	0.00e+00	0	41	0	312475648	61	4652
2026-01-30 06:32:34.74	61.74	16.98	-45.6	-47.3	19.0	0.00e+00	0	41	0	313524224	61	4750
2026-01-30 06:32:35.75	61.58	17.06	-45.6	-47.3	19.0	0.00e+00	0	41	0	315621376	62	4446
2026-01-30 06:32:36.75	61.41	17.14	-45.6	-47.2	19.1	0.00e+00	0	41	0	317718528	62	4429
2026-01-30 06:32:37.76	61.24	17.22	-45.7	-47.3	19.0	0.00e+00	0	41	0	319815680	62	4480
2026-01-30 06:32:38.77	61.07	17.30	-45.6	-47.3	19.0	0.00e+00	0	41	0	321912832	62	4460
2026-01-30 06:32:39.77	60.90	17.38	-45.8	-47.6	18.8	0.00e+00	0	41	0	322961408	62	4602
2026-01-30 06:32:40.78	60.73	17.46	-45.6	-47.2	19.0	0.00e+00	0	41	0	325058560	62	4433
2026-01-30 06:32:41.78	60.56	17.54	-45.5	-47.1	19.2	0.00e+00	0	41	0	327155712	62	4365
2026-01-30 06:32:42.79	60.39	17.62	-45.6	-47.3	19.0	0.00e+00	0	41	0	329252864	62	4484
2026-01-30 06:32:43.80	60.22	17.70	-45.6	-47.2	19.0	0.00e+00	0	41	0	331350016	62	4438
2026-01-30 06:32:44.80	60.04	17.77	-45.5	-47.2	19.1	0.00e+00	0	41	0	332398592	62	4399
2026-01-30 06:32:45.81	59.87	17.85	-45.5	-47.1	19.2	0.00e+00	0	41	0	334495744	62	4363
2026-01-30 06:32:46.82	59.69	17.93	-45.4	-47.1	19.2	0.00e+00	0	41	0	336592896	62	4345
2026-01-30 06:32:47.83	59.51	18.01	-45.4	-47.1	19.3	0.00e+00	0	41	0	338690048	62	4344
2026-01-30 06:32:48.83	59.33	18.09	-45.3	-46.9	19.4	0.00e+00	0	41	0	340787200	62	4248
2026-01-30 06:32:49.83	59.16	18.17	-45.2	-46.8	19.5	0.00e+00	0	41	0	341835776	62	4218
2026-01-30 06:32:50.84	58.97	18.25	-45.1	-46.6	19.7	0.00e+00	0	41	0	343932928	62	4112
2026-01-30 06:32:51.85	58.79	18.33	-45.0	-46.6	19.7	0.00e+00	0	41	0	346030080	61	4350
2026-01-30 06:32:52.85	58.61	18.41	-45.2	-46.8	19.5	0.00e+00	0	41	0	348127232	61	4448
2026-01-30 06:32:53.85	58.43	18.49	-45.1	-46.7	19.6	0.00e+00	0	41	0	350224384	61	4406
2026-01-30 06:32:54.86	58.25	18.57	-45.1	-46.7	19.6	0.00e+00	0	41	0	351272960	61	4407
2026-01-30 06:32:55.87	58.06	18.65	-45.3	-46.9	19.4	0.00e+00	0	41	0	353370112	61	4508
2026-01-30 06:32:56.87	57.88	18.73	-45.3	-46.9	19.4	0.00e+00	0	41	0	355467264	61	4544
2026-01-30 06:32:57.88	57.69	18.81	-45.5	-47.1	19.2	0.00e+00	0	41	0	357564416	61	4634
2026-01-30 06:32:58.88	57.50	18.89	-45.4	-47.0	19.3	0.00e+00	0	41	0	359661568	61	4579
2026-01-30 06:32:59.89	57.31	18.96	-45.3	-46.8	19.5	0.00e+00	0	41	0	360710144	61	4481
2026-01-30 06:33:00.90	57.12	19.04	-45.1	-46.6	19.6	0.00e+00	0	41	0	362807296	61	4390
2026-01-30 06:33:01.91	56.93	19.12	-45.1	-46.6	19.6	0.00e+00	0	41	0	364904448	61	4361
2026-01-30 06:33:02.92	56.74	19.20	-45.1	-46.6	19.8	0.00e+00	0	41	0	367001600	61	4365
2026-01-30 06:33:03.93	56.54	19.28	-45.0	-46.5	19.8	0.00e+00	0	41	0	369098752	61	4333
2026-01-30 06:33:04.93	56.35	19.36	-45.1	-46.6	19.7	0.00e+00	0	41	0	370147328	61	4385
2026-01-30 06:33:05.93	56.16	19.44	-44.9	-46.3	20.0	0.00e+00	0	41	0	372244480	61	4235
2026-01-30 06:33:06.94	55.96	19.52	-44.7	-46.2	20.2	0.00e+00	0	41	0	374341632	61	4152
2026-01-30 06:33:07.95	55.76	19.59	-44.8	-46.2	20.1	0.00e+00	0	41	0	376438784	61	4189
2026-01-30 06:33:08.96	55.56	19.67	-44.7	-46.1	20.2	0.00e+00	0	41	0	378535936	61	4130
2026-01-30 06:33:09.96	55.37	19.75	-44.9	-46.3	20.0	0.00e+00	0	41	0	379584512	61	4224
2026-01-30 06:33:10.97	55.16	19.83	-45.3	-46.8	19.5	0.00e+00	0	41	0	381681664	61	4481
2026-01-30 06:33:11.97	54.96	19.91	-45.3	-46.8	19.5	0.00e+00	0	41	0	383778816	61	4489
2026-01-30 06:33:12.98	54.76	19.98	-45.2	-46.8	19.6	0.00e+00	0	41	0	385875968	61	4475
2026-01-30 06:33:13.99	54.56	20.06	-45.1	-46.7	19.7	0.00e+00	0	41	0	387973120	61	4398
2026-01-30 06:33:14.99	54.36	20.14	-44.8	-46.2	20.1	0.00e+00	0	41	0	389021696	61	4183
2026-01-30 06:33:16.00	54.15	20.22	-44.8	-46.3	20.1	0.00e+00	0	41	0	391118848	61	4194
2026-01-30 06:33:17.01	53.94	20.29	-44.7	-46.2	20.2	0.00e+00	0	41	0	393216000	61	4146
2026-01-30 06:33:18.02	53.73	20.37	-44.6	-46.1	20.3	0.00e+00	0	41	0	395313152	61	4111
2026-01-30 06:33:19.02	53.53	20.45	-44.5	-45.9	20.4	0.00e+00	0	41	0	397410304	60	4264
2026-01-30 06:33:20.03	53.32	20.52	-44.3	-45.7	20.6	0.00e+00	0	41	0	398458880	60	4156
2026-01-30 06:33:21.03	53.11	20.60	-44.3	-45.6	20.9	0.00e+00	0	41	0	400556032	59	4380
2026-01-30 06:33:22.04	52.90	20.68	-44.4	-45.8	20.7	0.00e+00	0	41	0	402653184	59	4457
2026-01-30 06:33:23.05	52.68	20.75	-44.6	-46.0	20.5	0.00e+00	0	41	0	404750336	59	4560
2026-01-30 06:33:24.05	52.47	20.83	-44.5	-45.9	20.6	0.00e+00	0	41	0	406847488	59	4516
2026-01-30 06:33:25.06	52.25	20.90	-44.7	-46.1	20.4	0.00e+00	0	41	0	407896064	59	4625
2026-01-30 06:33:26.07	52.04	20.98	-44.6	-46.0	20.6	0.00e+00	0	41	0	409993216	59	4562
2026-01-30 06:33:27.08	51.82	21.05	-44.7	-46.1	20.4	0.00e+00	0	41	0	412090368	59	4634
2026-01-30 06:33:28.09	51.60	21.13	-44.7	-46.2	20.4	0.00e+00	0	41	0	414187520	59	4657
2026-01-30 06:33:29.10	51.38	21.20	-44.3	-45.7	20.5	0.00e+00	0	41	0	416284672	60	4188
2026-01-30 06:33:30.10	51.16	21.28	-44.0	-45.3	20.9	0.00e+00	0	41	0	417333248	60	3969
2026-01-30 06:33:31.10	50.94	21.35	-44.1	-45.4	21.1	0.00e+00	0	41	0	419430400	59	4265
2026-01-30 06:33:32.11	50.72	21.43	-44.0	-45.3	21.1	0.00e+00	0	41	0	421527552	59	4223
2026-01-30 06:33:33.11	50.50	21.50	-44.1	-45.4	21.1	0.00e+00	0	41	0	423624704	59	4265
2026-01-30 06:33:34.12	50.27	21.57	-44.0	-45.2	21.2	0.00e+00	0	41	0	425721856	59	4183
2026-01-30 06:33:35.13	50.05	21.65	-43.7	-44.9	21.5	0.00e+00	0	41	0	426770432	59	4043
2026-01-30 06:33:36.13	49.82	21.72	-43.4	-44.6	21.8	0.00e+00	0	41	0	428867584	58	4107
2026-01-30 06:33:37.14	49.59	21.79	-43.4	-44.6	21.8	0.00e+00	0	41	0	430964736	58	4102
2026-01-30 06:33:38.15	49.36	21.87	-43.6	-44.8	21.6	0.00e+00	0	41	0	433061888	58	4219
2026-01-30 06:33:39.15	49.14	21.94	-43.8	-45.1	21.3	0.00e+00	0	41	0	435159040	58	4361
2026-01-30 06:33:40.16	48.90	22.01	-44.0	-45.2	21.3	0.00e+00	0	41	0	436207616	58	4439
2026-01-30 06:33:41.17	48.67	22.08	-43.9	-45.2	21.3	0.00e+00	0	41	0	438304768	58	4393
2026-01-30 06:33:42.17	48.44	22.15	-43.8	-45.0	21.4	0.00e+00	0	41	0	440401920	58	4331
2026-01-30 06:33:43.18	48.21	22.22	-43.5	-44.7	21.7	0.00e+00	0	41	0	442499072	58	4160
2026-01-30 06:33:44.18	47.97	22.29	-43.4	-44.6	21.8	0.00e+00	0	41	0	444596224	58	4101
2026-01-30 06:33:45.18	47.74	22.36	-43.2	-44.3	22.0	0.00e+00	0	41	0	445644800	58	3994
2026-01-30 06:33:46.19	47.50	22.43	-43.2	-44.3	22.0	0.00e+00	0	41	0	447741952	58	3988
2026-01-30 06:33:47.19	47.26	22.50	-43.4	-44.5	21.8	0.00e+00	0	41	0	449839104	58	4093
2026-01-30 06:33:48.20	47.02	22.57	-43.3	-44.4	22.0	0.00e+00	0	41	0	451936256	58	4028
2026-01-30 06:33:49.20	46.78	22.64	-43.1	-44.3	22.1	0.00e+00	0	41	0	454033408	58	3971
2026-01-30 06:33:50.21	46.54	22.71	-43.5	-44.6	21.8	0.00e+00	0	41	0	455081984	58	4144
2026-01-30 06:33:51.22	46.30	22.78	-43.6	-44.8	21.6	0.00e+00	0	41	0	457179136	58	4225
2026-01-30 06:33:52.23	46.05	22.85	-43.6	-44.8	21.6	0.00e+00	0	41	0	459276288	58	4220
2026-01-30 06:33:53.24	45.81	22.91	-43.6	-44.8	21.7	0.00e+00	0	41	0	461373440	58	4239
2026-01-30 06:33:54.25	45.56	22.98	-43.4	-44.6	21.9	0.00e+00	0	41	0	463470592	58	4121
2026-01-30 06:33:55.25	45.31	23.05	-43.4	-44.6	21.9	0.00e+00	0	41	0	464519168	58	4112
2026-01-30 06:33:56.26	45.07	23.11	-43.4	-44.5	21.9	0.00e+00	0	41	0	466616320	58	4081
2026-01-30 06:33:57.27	44.82	23.18	-43.4	-44.6	21.9	0.00e+00	0	41	0	468713472	58	4121
2026-01-30 06:33:58.27	44.57	23.25	-43.3	-44.4	21.9	0.00e+00	0	41	0	470810624	58	4037
2026-01-30 06:33:59.27	44.32	23.31	-43.4	-44.5	22.0	0.00e+00	0	41	0	472907776	58	4075
2026-01-30 06:34:00.28	44.06	23.37	-43.6	-44.8	21.7	0.00e+00	0	41	0	473956352	58	4198
2026-01-30 06:34:01.29	43.81	23.44	-44.0	-45.2	21.4	0.00e+00	0	41	0	476053504	58	4415
2026-01-30 06:34:02.29	43.56	23.50	-44.0	-45.2	21.4	0.00e+00	0	41	0	478150656	58	4416
2026-01-30 06:34:03.30	43.30	23.57	-43.8	-45.0	21.6	0.00e+00	0	41	0	480247808	58	4329
2026-01-30 06:34:04.31	43.04	23.63	-43.6	-44.8	21.8	0.00e+00	0	41	0	482344960	58	4202
2026-01-30 06:34:05.31	42.79	23.69	-43.5	-44.6	21.8	0.00e+00	0	41	0	483393536	58	4145
2026-01-30 06:34:06.32	42.53	23.75	-43.7	-44.9	21.7	0.00e+00	0	41	0	485490688	58	4244
2026-01-30 06:34:07.33	42.27	23.81	-43.6	-44.8	21.8	0.00e+00	0	41	0	487587840	58	4223
2026-01-30 06:34:08.33	42.01	23.87	-43.6	-44.7	21.7	0.00e+00	0	41	0	489684992	58	4186
2026-01-30 06:34:09.34	41.75	23.94	-43.3	-44.4	22.0	0.00e+00	0	41	0	491782144	58	4032
2026-01-30 06:34:10.35	41.48	24.00	-43.2	-44.3	22.1	0.00e+00	0	41	0	492830720	58	3982
2026-01-30 06:34:11.35	41.22	24.05	-43.1	-44.2	22.2	0.00e+00	0	41	0	494927872	58	3947
2026-01-30 06:34:12.36	40.96	24.11	-43.4	-44.5	22.0	0.00e+00	0	41	0	497025024	58	4073
2026-01-30 06:34:13.36	40.69	24.17	-43.8	-45.0	21.6	0.00e+00	0	41	0	499122176	58	4297
2026-01-30 06:34:14.37	40.43	24.23	-43.8	-45.0	21.6	0.00e+00	0	41	0	501219328	58	4306
2026-01-30 06:34:15.38	40.16	24.29	-43.7	-44.8	21.7	0.00e+00	0	41	0	502267904	58	4242
2026-01-30 06:34:16.38	39.89	24.34	-43.4	-44.5	22.1	0.00e+00	0	41	0	504365056	58	4056
2026-01-30 06:34:17.38	39.62	24.40	-43.5	-44.6	21.9	0.00e+00	0	41	0	506462208	58	4142
2026-01-30 06:34:18.39	39.35	24.45	-43.7	-44.9	21.7	0.00e+00	0	41	0	508559360	58	4260
2026-01-30 06:34:19.40	39.08	24.51	-43.5	-44.7	21.9	0.00e+00	0	41	0	510656512	58	4157
2026-01-30 06:34:20.41	38.81	24.56	-43.3	-44.4	22.1	0.00e+00	0	41	0	511705088	58	4025
2026-01-30 06:34:21.41	38.53	24.62	-43.3	-44.3	22.2	0.00e+00	0	41	0	513802240	58	3999
2026-01-30 06:34:22.42	38.26	24.67	-43.1	-44.2	22.3	0.00e+00	0	41	0	515899392	58	3948
2026-01-30 06:34:23.43	37.98	24.72	-43.3	-44.4	22.1	0.00e+00	0	41	0	517996544	58	4026
2026-01-30 06:34:24.44	37.71	24.77	-43.3	-44.4	22.1	0.00e+00	0	41	0	520093696	58	4042
2026-01-30 06:34:25.44	37.43	24.83	-43.2	-44.3	22.3	0.00e+00	0	41	0	521142272	58	3972
2026-01-30 06:34:26.45	37.15	24.88	-43.3	-44.4	22.2	0.00e+00	0	41	0	523239424	58	4039
2026-01-30 06:34:27.46	36.87	24.93	-43.0	-44.1	22.4	0.00e+00	0	41	0	525336576	57	4119
2026-01-30 06:34:28.47	36.59	24.98	-43.2	-44.3	22.2	0.00e+00	0	41	0	527433728	57	4219
2026-01-30 06:34:29.47	36.31	25.02	-43.2	-44.3	22.2	0.00e+00	0	41	0	529530880	57	4222
2026-01-30 06:34:30.48	36.03	25.07	-43.1	-44.2	22.3	0.00e+00	0	41	0	530579456	57	4173
2026-01-30 06:34:31.49	35.75	25.12	-43.0	-44.0	22.4	0.00e+00	0	41	0	532676608	57	4098
2026-01-30 06:34:32.49	35.47	25.17	-42.9	-44.0	22.5	0.00e+00	0	41	0	534773760	57	4056
2026-01-30 06:34:33.50	35.18	25.21	-43.1	-44.2	22.3	0.00e+00	0	41	0	536870912	57	4176
2026-01-30 06:34:34.51	34.90	25.26	-43.2	-44.3	22.2	0.00e+00	0	41	0	538968064	57	4225
2026-01-30 06:34:35.52	34.61	25.30	-43.6	-44.7	21.9	0.00e+00	0	41	0	540016640	57	4425
2026-01-30 06:34:36.53	34.32	25.35	-43.5	-44.6	21.9	0.00e+00	0	41	0	542113792	57	4388
2026-01-30 06:34:37.54	34.03	25.39	-43.8	-44.9	21.7	0.00e+00	0	41	0	544210944	58	4276
2026-01-30 06:34:38.55	33.74	25.43	-44.0	-45.2	21.4	0.00e+00	0	41	0	546308096	58	4421
2026-01-30 06:34:39.56	33.46	25.47	-44.4	-45.6	21.0	0.00e+00	0	41	0	548405248	59	4391
2026-01-30 06:34:40.56	33.17	25.51	-44.7	-46.0	20.8	0.00e+00	0	41	0	549453824	59	4571
2026-01-30 06:34:41.57	32.88	25.55	-44.3	-45.6	20.9	0.00e+00	0	41	0	551550976	60	4113
2026-01-30 06:34:42.58	32.58	25.59	-44.7	-46.0	20.6	0.00e+00	0	41	0	553648128	60	4299
2026-01-30 06:34:43.59	32.29	25.63	-45.1	-46.5	20.1	0.00e+00	0	41	0	555745280	60	4547
2026-01-30 06:34:44.60	32.00	25.67	-45.4	-46.9	19.7	0.00e+00	0	41	0	557842432	61	4533
2026-01-30 06:34:45.61	31.70	25.71	-45.6	-47.1	19.5	0.00e+00	0	41	0	558891008	62	4379
2026-01-30 06:34:46.62	31.41	25.74	-45.1	-46.6	19.9	0.00e+00	0	41	0	560988160	62	4104
2026-01-30 06:34:47.62	31.12	25.78	-44.4	-45.7	20.8	0.00e+00	0	41	0	563085312	60	4155
2026-01-30 06:34:48.62	30.82	25.81	-44.4	-45.6	20.9	0.00e+00	0	41	0	565182464	60	4131
2026-01-30 06:34:49.63	30.53	25.85	-44.3	-45.5	20.9	0.00e+00	0	41	0	567279616	60	4082
2026-01-30 06:34:50.64	30.23	25.88	-44.5	-45.8	20.5	0.00e+00	0	41	0	568328192	60	4210
2026-01-30 06:34:51.65	29.93	25.91	-44.4	-45.7	20.8	0.00e+00	0	41	0	570425344	60	4160
2026-01-30 06:34:52.65	29.64	25.94	-44.6	-45.9	20.6	0.00e+00	0	41	0	572522496	60	4254
2026-01-30 06:34:53.66	29.34	25.97	-44.7	-46.0	20.5	0.00e+00	0	41	0	574619648	60	4326
2026-01-30 06:34:54.67	29.04	26.00	-44.9	-46.3	20.2	0.00e+00	0	41	0	576716800	60	4468
2026-01-30 06:34:55.67	28.74	26.03	-45.2	-46.7	19.9	0.00e+00	0	41	0	578813952	60	4658
2026-01-30 06:34:56.68	28.44	26.06	-44.9	-46.3	20.2	0.00e+00	0	41	0	579862528	60	4451
2026-01-30 06:34:57.69	28.14	26.09	-44.9	-46.3	20.2	0.00e+00	0	41	0	581959680	60	4460
2026-01-30 06:34:58.69	27.84	26.12	-44.6	-45.9	20.5	0.00e+00	0	41	0	584056832	60	4264
2026-01-30 06:34:59.71	27.53	26.14	-44.6	-45.9	20.5	0.00e+00	0	41	0	586153984	60	4267
2026-01-30 06:35:00.71	27.23	26.17	-44.6	-46.0	20.5	0.00e+00	0	41	0	587202560	60	4295
2026-01-30 06:35:01.72	26.93	26.19	-44.9	-46.4	20.2	0.00e+00	0	41	0	589299712	60	4503
2026-01-30 06:35:02.72	26.63	26.21	-45.1	-46.6	20.0	0.00e+00	0	41	0	591396864	61	4341
2026-01-30 06:35:03.73	26.33	26.24	-45.2	-46.7	19.9	0.00e+00	0	41	0	593494016	61	4402
2026-01-30 06:35:04.74	26.02	26.26	-45.2	-46.6	19.9	0.00e+00	0	41	0	595591168	61	4387
2026-01-30 06:35:05.75	25.72	26.28	-45.1	-46.5	19.9	0.00e+00	0	41	0	596639744	61	4325
2026-01-30 06:35:06.75	25.41	26.30	-44.9	-46.3	20.1	0.00e+00	0	41	0	598736896	61	4241
2026-01-30 06:35:07.76	25.11	26.32	-44.7	-46.1	20.3	0.00e+00	0	41	0	600834048	61	4120
2026-01-30 06:35:08.76	24.81	26.33	-44.5	-45.8	20.6	0.00e+00	0	41	0	602931200	61	3988
2026-01-30 06:35:09.77	24.50	26.35	-44.3	-45.6	20.8	0.00e+00	0	41	0	605028352	60	4136
2026-01-30 06:35:10.78	24.19	26.37	-44.5	-45.8	20.6	0.00e+00	0	41	0	607125504	60	4231
2026-01-30 06:35:11.78	23.89	26.38	-44.6	-45.9	20.5	0.00e+00	0	41	0	608174080	60	4275
2026-01-30 06:35:12.79	23.58	26.40	-44.7	-46.0	20.4	0.00e+00	0	41	0	610271232	60	4331
2026-01-30 06:35:13.80	23.27	26.41	-44.9	-46.3	20.1	0.00e+00	0	41	0	612368384	60	4478
2026-01-30 06:35:14.80	22.97	26.42	-45.3	-46.8	19.7	0.00e+00	0	41	0	614465536	61	4465
2026-01-30 06:35:15.81	22.66	26.43	-45.4	-46.9	19.6	0.00e+00	0	41	0	615514112	61	4544
2026-01-30 06:35:16.82	22.35	26.44	-45.4	-46.9	19.6	0.00e+00	0	41	0	617611264	61	4523
2026-01-30 06:35:17.83	22.04	26.45	-45.5	-47.0	19.6	0.00e+00	0	41	0	619708416	61	4562
2026-01-30 06:35:18.83	21.74	26.46	-45.4	-46.9	19.6	0.00e+00	0	41	0	621805568	62	4278
2026-01-30 06:35:19.84	21.43	26.47	-45.4	-46.9	19.7	0.00e+00	0	41	0	623902720	62	4268
2026-01-30 06:35:20.84	21.12	26.48	-45.2	-46.7	19.9	0.00e+00	0	41	0	624951296	62	4150
2026-01-30 06:35:21.85	20.81	26.48	-44.7	-46.0	20.5	0.00e+00	0	41	0	627048448	61	4073
2026-01-30 06:35:22.85	20.51	26.49	-44.5	-45.7	20.7	0.00e+00	0	41	0	629145600	60	4187
2026-01-30 06:35:23.86	20.20	26.49	-44.2	-45.4	21.0	0.00e+00	0	41	0	631242752	60	4023
2026-01-30 06:35:24.87	19.89	26.50	-44.4	-45.7	20.8	0.00e+00	0	41	0	633339904	60	4157
2026-01-30 06:35:25.87	19.58	26.50	-44.5	-45.8	20.8	0.00e+00	0	41	0	635437056	60	4200
2026-01-30 06:35:26.88	19.27	26.50	-44.7	-46.1	20.4	0.00e+00	0	41	0	636485632	60	4374
2026-01-30 06:35:27.88	18.97	26.50	-45.0	-46.4	20.1	0.00e+00	0	41	0	638582784	60	4523
2026-01-30 06:35:28.89	18.66	26.50	-45.2	-46.7	19.9	0.00e+00	0	41	0	640679936	61	4417
2026-01-30 06:35:29.90	18.35	26.50	-45.2	-46.7	19.8	0.00e+00	0	41	0	642777088	61	4438
2026-01-30 06:35:30.91	18.04	26.50	-45.2	-46.7	19.8	0.00e+00	0	41	0	643825664	61	4418
2026-01-30 06:35:31.91	17.73	26.50	-45.2	-46.7	19.9	0.00e+00	0	41	0	645922816	61	4417
2026-01-30 06:35:32.92	17.42	26.49	-45.1	-46.6	19.9	0.00e+00	0	41	0	648019968	61	4343
2026-01-30 06:35:33.93	17.11	26.49	-44.8	-46.2	20.2	0.00e+00	0	41	0	650117120	61	4174
2026-01-30 06:35:34.93	16.81	26.48	-44.7	-46.0	20.5	0.00e+00	0	41	0	652214272	61	4092
2026-01-30 06:35:35.94	16.50	26.47	-44.3	-45.6	20.8	0.00e+00	0	41	0	653262848	60	4122
2026-01-30 06:35:36.95	16.19	26.47	-44.3	-45.6	20.9	0.00e+00	0	41	0	655360000	60	4120
2026-01-30 06:35:37.95	15.88	26.46	-44.4	-45.7	21.1	0.00e+00	0	41	0	657457152	59	4409
2026-01-30 06:35:38.96	15.58	26.45	-44.3	-45.6	21.1	0.00e+00	0	41	0	659554304	59	4363
2026-01-30 06:35:39.96	15.27	26.44	-44.2	-45.4	21.3	0.00e+00	0	41	0	661651456	59	4280
2026-01-30 06:35:40.97	14.96	26.43	-44.1	-45.4	21.4	0.00e+00	0	41	0	663748608	59	4256
2026-01-30 06:35:41.97	14.66	26.42	-44.3	-45.5	21.3	0.00e+00	0	41	0	664797184	59	4316
2026-01-30 06:35:42.98	14.35	26.40	-44.3	-45.5	21.2	0.00e+00	0	41	0	666894336	59	4337
2026-01-30 06:35:43.99	14.04	26.39	-44.3	-45.5	21.2	0.00e+00	0	41	0	668991488	59	4338
2026-01-30 06:35:44.99	13.74	26.37	-44.0	-45.3	21.5	0.00e+00	0	41	0	671088640	59	4194
2026-01-30 06:35:45.99	13.43	26.36	-44.0	-45.2	21.5	0.00e+00	0	41	0	672137216	59	4163
2026-01-30 06:35:46.99	13.13	26.34	-43.3	-44.4	22.2	0.00e+00	0	41	0	674234368	58	4030
2026-01-30 06:35:47.99	12.83	26.33	-42.9	-44.0	22.5	0.00e+00	0	41	0	676331520	57	4066
2026-01-30 06:35:49.00	12.52	26.31	-42.5	-43.5	23.0	0.00e+00	0	41	0	678428672	57	3849
2026-01-30 06:35:50.01	12.22	26.29	-42.5	-43.5	23.0	0.00e+00	0	41	0	680525824	56	4068
2026-01-30 06:35:51.01	11.91	26.27	-42.4	-43.4	23.1	0.00e+00	0	41	0	681574400	56	4009
2026-01-30 06:35:52.02	11.61	26.25	-42.7	-43.7	22.8	0.00e+00	0	41	0	683671552	56	4170
2026-01-30 06:35:53.03	11.31	26.22	-42.9	-44.0	22.7	0.00e+00	0	41	0	685768704	56	4297
2026-01-30 06:35:54.03	11.00	26.20	-43.1	-44.1	22.5	0.00e+00	0	41	0	687865856	57	4140
2026-01-30 06:35:55.04	10.70	26.18	-43.1	-44.2	22.4	0.00e+00	0	41	0	689963008	57	4150
2026-01-30 06:35:56.05	10.40	26.15	-43.2	-44.3	22.3	0.00e+00	0	41	0	691011584	57	4214
2026-01-30 06:35:57.05	10.10	26.13	-43.2	-44.3	22.3	0.00e+00	0	41	0	693108736	57	4225
2026-01-30 06:35:58.06	9.80	26.10	-43.7	-44.8	21.9	0.00e+00	0	41	0	695205888	57	4486
2026-01-30 06:35:59.07	9.50	26.08	-43.6	-44.8	21.9	0.00e+00	0	41	0	697303040	58	4198
2026-01-30 06:36:00.08	9.19	26.05	-43.8	-45.0	21.8	0.00e+00	0	41	0	699400192	58	4309
2026-01-30 06:36:01.09	8.89	26.02	-44.1	-45.3	21.5	0.00e+00	0	41	0	700448768	58	4457
2026-01-30 06:36:02.09	8.60	25.99	-43.9	-45.1	21.6	0.00e+00	0	41	0	702545920	58	4372
2026-01-30 06:36:03.10	8.30	25.96	-44.1	-45.3	21.5	0.00e+00	0	41	0	704643072	58	4443
2026-01-30 06:36:04.11	8.00	25.93	-43.7	-44.8	21.9	0.00e+00	0	41	0	706740224	58	4218
2026-01-30 06:36:05.11	7.70	25.90	-43.7	-44.8	21.9	0.00e+00	0	41	0	708837376	58	4226
2026-01-30 06:36:06.12	7.41	25.86	-43.6	-44.7	22.0	0.00e+00	0	41	0	709885952	58	4163
2026-01-30 06:36:07.13	7.11	25.83	-43.7	-44.8	21.9	0.00e+00	0	41	0	711983104	58	4226
2026-01-30 06:36:08.14	6.81	25.80	-44.1	-45.3	21.6	0.00e+00	0	41	0	714080256	58	4443
2026-01-30 06:36:09.15	6.52	25.76	-44.3	-45.5	21.4	0.00e+00	0	41	0	716177408	59	4325
2026-01-30 06:36:10.15	6.23	25.73	-44.3	-45.5	21.4	0.00e+00	0	41	0	718274560	59	4317
2026-01-30 06:36:11.15	5.93	25.69	-44.3	-45.5	21.4	0.00e+00	0	41	0	719323136	59	4300
2026-01-30 06:36:12.16	5.64	25.65	-44.4	-45.6	21.1	0.00e+00	0	41	0	721420288	60	4113
2026-01-30 06:36:13.17	5.35	25.61	-44.6	-45.9	20.7	0.00e+00	0	41	0	723517440	60	4272
2026-01-30 06:36:14.17	5.06	25.57	-44.7	-46.0	20.7	0.00e+00	0	41	0	725614592	60	4307
2026-01-30 06:36:15.18	4.77	25.53	-44.3	-45.5	21.0	0.00e+00	0	41	0	727711744	60	4093
2026-01-30 06:36:16.19	4.48	25.49	-44.3	-45.5	21.4	0.00e+00	0	41	0	728760320	59	4294
2026-01-30 06:36:17.20	4.19	25.45	-44.0	-45.2	21.6	0.00e+00	0	41	0	730857472	59	4163
2026-01-30 06:36:18.20	3.90	25.41	-44.2	-45.3	21.5	0.00e+00	0	41	0	732954624	59	4231
2026-01-30 06:36:19.21	3.61	25.37	-44.4	-45.7	21.2	0.00e+00	0	41	0	735051776	59	4393
2026-01-30 06:36:20.21	3.33	25.33	-44.4	-45.7	20.9	0.00e+00	0	41	0	737148928	60	4150
2026-01-30 06:36:21.22	3.04	25.28	-44.4	-45.7	20.9	0.00e+00	0	41	0	738197504	60	4160
2026-01-30 06:36:22.23	2.76	25.24	-44.6	-45.9	20.7	0.00e+00	0	41	0	740294656	60	4268
2026-01-30 06:36:23.23	2.47	25.19	-44.6	-45.9	20.6	0.00e+00	0	41	0	742391808	60	4287
2026-01-30 06:36:24.24	2.19	25.14	-44.5	-45.8	20.8	0.00e+00	0	41	0	744488960	60	4219
2026-01-30 06:36:25.25	1.91	25.10	-44.4	-45.7	20.9	0.00e+00	0	41	0	746586112	60	4170
2026-01-30 06:36:26.26	1.62	25.05	-44.4	-45.6	20.9	0.00e+00	0	41	0	747634688	60	4136
2026-01-30 06:36:27.26	1.35	25.00	-44.7	-46.0	20.6	0.00e+00	0	41	0	749731840	60	4332
2026-01-30 06:36:28.27	1.06	24.95	-45.0	-46.4	20.3	0.00e+00	0	41	0	751828992	60	4498
2026-01-30 06:36:29.27	0.79	24.90	-45.3	-46.8	19.9	0.00e+00	0	41	0	753926144	61	4449
2026-01-30 06:36:30.28	0.51	24.85	-45.7	-47.3	19.5	0.00e+00	0	41	0	756023296	62	4474
2026-01-30 06:36:31.28	0.23	24.80	-45.6	-47.1	19.6	0.00e+00	0	41	0	757071872	62	4381
2026-01-30 06:36:32.29	359.96	24.75	-45.4	-46.8	19.8	0.00e+00	0	41	0	759169024	62	4239
2026-01-30 06:36:33.29	359.68	24.70	-45.2	-46.6	20.0	0.00e+00	0	41	0	761266176	62	4133
2026-01-30 06:36:34.30	359.41	24.65	-44.9	-46.3	20.3	0.00e+00	0	41	0	763363328	61	4224
2026-01-30 06:36:35.31	359.13	24.59	-44.9	-46.2	20.3	0.00e+00	0	41	0	765460480	61	4190
2026-01-30 06:36:36.32	358.86	24.54	-45.2	-46.6	20.0	0.00e+00	0	41	0	766509056	61	4360
2026-01-30 06:36:37.32	358.59	24.49	-45.3	-46.8	19.8	0.00e+00	0	41	0	768606208	61	4456
2026-01-30 06:36:38.33	358.32	24.43	-45.6	-47.1	19.6	0.00e+00	0	41	0	770703360	61	4602
2026-01-30 06:36:39.33	358.05	24.37	-45.6	-47.2	19.5	0.00e+00	0	41	0	772800512	61	4656
2026-01-30 06:36:40.34	357.78	24.32	-45.7	-47.2	19.4	0.00e+00	0	41	0	774897664	62	4441
2026-01-30 06:36:41.34	357.51	24.26	-45.4	-46.9	19.7	0.00e+00	0	41	0	775946240	62	4248
2026-01-30 06:36:42.35	357.25	24.20	-44.9	-46.3	20.2	0.00e+00	0	41	0	778043392	61	4228
2026-01-30 06:36:43.36	356.98	24.15	-44.8	-46.1	20.4	0.00e+00	0	41	0	780140544	61	4138
2026-01-30 06:36:44.36	356.72	24.09	-44.8	-46.2	20.3	0.00e+00	0	41	0	782237696	61	4161
2026-01-30 06:36:45.36	356.46	24.03	-44.7	-46.1	20.5	0.00e+00	0	41	0	784334848	61	4100
2026-01-30 06:36:46.37	356.19	23.97	-44.6	-46.0	20.5	0.00e+00	0	41	0	785383424	61	4063
2026-01-30 06:36:47.38	355.93	23.91	-44.9	-46.2	20.3	0.00e+00	0	41	0	787480576	61	4186
2026-01-30 06:36:48.39	355.67	23.85	-45.1	-46.5	20.0	0.00e+00	0	41	0	789577728	61	4327
2026-01-30 06:36:49.40	355.41	23.79	-45.3	-46.8	19.8	0.00e+00	0	41	0	791674880	61	4482
2026-01-30 06:36:50.40	355.15	23.73	-45.5	-47.1	19.5	0.00e+00	0	41	0	793772032	61	4625
2026-01-30 06:36:51.41	354.89	23.67	-45.2	-46.6	19.9	0.00e+00	0	41	0	794820608	61	4387
2026-01-30 06:36:52.42	354.63	23.60	-45.0	-46.5	20.0	0.00e+00	0	41	0	796917760	61	4295
2026-01-30 06:36:53.42	354.38	23.54	-44.3	-45.6	20.8	0.00e+00	0	41	0	799014912	60	4122
2026-01-30 06:36:54.43	354.12	23.48	-44.3	-45.6	20.9	0.00e+00	0	41	0	801112064	60	4105
2026-01-30 06:36:55.44	353.87	23.41	-44.2	-45.5	20.9	0.00e+00	0	41	0	803209216	60	4083
2026-01-30 06:36:56.44	353.62	23.35	-44.5	-45.9	20.6	0.00e+00	0	41	0	804257792	60	4254
2026-01-30 06:36:57.45	353.37	23.28	-45.0	-46.5	20.1	0.00e+00	0	41	0	806354944	60	4558
2026-01-30 06:36:58.46	353.12	23.22	-45.3	-46.9	19.6	0.00e+00	0	41	0	808452096	61	4506
2026-01-30 06:36:59.47	352.87	23.15	-45.4	-46.9	19.6	0.00e+00	0	41	0	810549248	62	4291
2026-01-30 06:37:00.47	352.62	23.09	-45.7	-47.3	19.2	0.00e+00	0	41	0	812646400	62	4489
2026-01-30 06:37:01.48	352.37	23.02	-45.7	-47.3	19.2	0.00e+00	0	41	0	813694976	62	4481
2026-01-30 06:37:02.49	352.12	22.95	-45.5	-47.1	19.4	0.00e+00	0	41	0	815792128	62	4368
2026-01-30 06:37:03.50	351.88	22.89	-45.1	-46.6	19.9	0.00e+00	0	41	0	817889280	62	4140
2026-01-30 06:37:04.51	351.63	22.82	-44.7	-46.0	20.4	0.00e+00	0	41	0	819986432	61	4098
2026-01-30 06:37:05.52	351.39	22.75	-44.3	-45.6	20.9	0.00e+00	0	41	0	822083584	60	4101
2026-01-30 06:37:06.53	351.15	22.68	-44.1	-45.4	21.0	0.00e+00	0	41	0	823132160	60	4031
2026-01-30 06:37:07.53	350.91	22.61	-44.0	-45.3	21.1	0.00e+00	0	41	0	825229312	60	3965
2026-01-30 06:37:08.54	350.67	22.54	-44.5	-45.8	20.9	0.00e+00	0	41	0	827326464	59	4489
2026-01-30 06:37:09.54	350.43	22.48	-44.7	-46.1	20.7	0.00e+00	0	41	0	829423616	59	4603
2026-01-30 06:37:10.55	350.19	22.41	-44.4	-45.7	20.7	0.00e+00	0	41	0	831520768	60	4179
2026-01-30 06:37:11.55	349.96	22.34	-44.9	-46.4	20.1	0.00e+00	0	41	0	832569344	60	4521
2026-01-30 06:37:12.56	349.72	22.27	-45.1	-46.6	19.9	0.00e+00	0	41	0	834666496	60	4637
2026-01-30 06:37:13.56	349.49	22.19	-45.3	-46.9	19.6	0.00e+00	0	41	0	836763648	61	4532
2026-01-30 06:37:14.57	349.25	22.12	-45.2	-46.7	19.8	0.00e+00	0	41	0	838860800	61	4400
2026-01-30 06:37:15.57	349.02	22.05	-44.8	-46.2	20.2	0.00e+00	0	41	0	840957952	61	4153
2026-01-30 06:37:16.58	348.79	21.98	-44.4	-45.8	20.6	0.00e+00	0	41	0	842006528	60	4205
2026-01-30 06:37:17.58	348.56	21.91	-44.0	-45.2	21.1	0.00e+00	0	41	0	844103680	60	3954
2026-01-30 06:37:18.59	348.33	21.84	-44.0	-45.2	21.5	0.00e+00	0	41	0	846200832	59	4158
2026-01-30 06:37:19.60	348.11	21.76	-43.8	-45.0	21.7	0.00e+00	0	41	0	848297984	59	4054
2026-01-30 06:37:20.61	347.88	21.69	-43.6	-44.8	21.7	0.00e+00	0	41	0	850395136	59	3992
2026-01-30 06:37:21.61	347.65	21.62	-43.6	-44.8	21.8	0.00e+00	0	41	0	851443712	58	4221
2026-01-30 06:37:22.62	347.43	21.55	-43.9	-45.1	21.6	0.00e+00	0	41	0	853540864	58	4369
2026-01-30 06:37:23.62	347.21	21.47	-43.8	-45.0	21.6	0.00e+00	0	41	0	855638016	58	4302
2026-01-30 06:37:24.63	346.98	21.40	-43.9	-45.1	21.5	0.00e+00	0	41	0	857735168	58	4362
2026-01-30 06:37:25.64	346.76	21.32	-43.8	-45.0	21.5	0.00e+00	0	41	0	859832320	58	4329
2026-01-30 06:37:26.65	346.54	21.25	-43.9	-45.2	21.4	0.00e+00	0	41	0	860880896	58	4401
2026-01-30 06:37:27.66	346.32	21.17	-43.9	-45.1	21.5	0.00e+00	0	41	0	862978048	58	4364
2026-01-30 06:37:28.66	346.10	21.10	-44.1	-45.3	21.4	0.00e+00	0	41	0	865075200	58	4482
2026-01-30 06:37:29.67	345.89	21.02	-44.0	-45.2	21.4	0.00e+00	0	41	0	867172352	58	4412
2026-01-30 06:37:30.68	345.67	20.95	-44.0	-45.2	21.4	0.00e+00	0	41	0	869269504	58	4434
2026-01-30 06:37:31.68	345.46	20.87	-43.7	-44.9	21.6	0.00e+00	0	41	0	870318080	58	4251
2026-01-30 06:37:32.69	345.24	20.80	-43.8	-45.1	21.4	0.00e+00	0	41	0	872415232	58	4349
2026-01-30 06:37:33.69	345.03	20.72	-43.8	-45.0	21.5	0.00e+00	0	41	0	874512384	58	4323
2026-01-30 06:37:34.70	344.82	20.65	-44.0	-45.2	21.3	0.00e+00	0	41	0	876609536	58	4426
2026-01-30 06:37:35.71	344.61	20.57	-44.1	-45.3	21.2	0.00e+00	0	41	0	878706688	58	4493
2026-01-30 06:37:36.71	344.40	20.49	-44.2	-45.5	21.0	0.00e+00	0	41	0	879755264	59	4337
2026-01-30 06:37:37.72	344.19	20.42	-44.2	-45.6	21.1	0.00e+00	0	41	0	881852416	59	4359
2026-01-30 06:37:38.73	343.98	20.34	-44.0	-45.2	21.3	0.00e+00	0	41	0	883949568	59	4190
2026-01-30 06:37:39.73	343.77	20.26	-43.9	-45.2	21.4	0.00e+00	0	41	0	886046720	59	4160
2026-01-30 06:37:40.74	343.57	20.19	-44.2	-45.5	21.1	0.00e+00	0	41	0	888143872	59	4302
2026-01-30 06:37:41.75	343.36	20.11	-44.4	-45.8	20.9	0.00e+00	0	41	0	889192448	59	4451
2026-01-30 06:37:42.75	343.16	20.03	-44.6	-45.9	20.7	0.00e+00	0	41	0	891289600	59	4544
2026-01-30 06:37:43.76	342.96	19.96	-44.6	-46.0	20.7	0.00e+00	0	41	0	893386752	59	4548
2026-01-30 06:37:44.76	342.76	19.88	-44.1	-45.4	21.1	0.00e+00	0	41	0	895483904	59	4285
2026-01-30 06:37:45.77	342.56	19.80	-44.1	-45.3	21.3	0.00e+00	0	41	0	897581056	59	4240
2026-01-30 06:37:46.78	342.36	19.72	-44.1	-45.3	21.3	0.00e+00	0	41	0	898629632	59	4221
2026-01-30 06:37:47.78	342.16	19.65	-44.1	-45.4	21.2	0.00e+00	0	41	0	900726784	59	4257
2026-01-30 06:37:48.79	341.96	19.57	-44.1	-45.3	21.3	0.00e+00	0	41	0	902823936	59	4216
2026-01-30 06:37:49.79	341.77	19.49	-44.3	-45.6	21.1	0.00e+00	0	41	0	904921088	59	4346
2026-01-30 06:37:50.80	341.57	19.41	-44.4	-45.7	21.0	0.00e+00	0	41	0	907018240	59	4403
2026-01-30 06:37:51.81	341.38	19.33	-44.2	-45.5	21.1	0.00e+00	0	41	0	908066816	59	4317
2026-01-30 06:37:52.82	341.18	19.25	-44.1	-45.3	21.2	0.00e+00	0	41	0	910163968	59	4240
2026-01-30 06:37:53.82	340.99	19.18	-43.7	-44.8	21.7	0.00e+00	0	41	0	912261120	59	3997
2026-01-30 06:37:54.83	340.80	19.10	-43.3	-44.4	22.1	0.00e+00	0	41	0	914358272	58	4026
2026-01-30 06:37:55.83	340.61	19.02	-43.0	-44.1	22.3	0.00e+00	0	41	0	916455424	58	3879
2026-01-30 06:37:56.84	340.42	18.94	-43.1	-44.2	22.2	0.00e+00	0	41	0	917504000	58	3936
2026-01-30 06:37:57.85	340.23	18.86	-43.2	-44.3	22.2	0.00e+00	0	41	0	919601152	58	3988
2026-01-30 06:37:58.86	340.05	18.78	-43.2	-44.3	22.2	0.00e+00	0	41	0	921698304	58	3985
2026-01-30 06:37:59.86	339.86	18.70	-43.3	-44.4	22.1	0.00e+00	0	41	0	923795456	58	4013
2026-01-30 06:38:00.87	339.68	18.62	-43.1	-44.2	22.2	0.00e+00	0	41	0	925892608	58	3947
2026-01-30 06:38:01.87	339.49	18.54	-43.3	-44.4	22.1	0.00e+00	0	41	0	926941184	58	4007
2026-01-30 06:38:02.88	339.31	18.46	-43.4	-44.5	22.0	0.00e+00	0	41	0	929038336	58	4060
2026-01-30 06:38:03.89	339.13	18.39	-43.6	-44.7	21.8	0.00e+00	0	41	0	931135488	58	4177
2026-01-30 06:38:04.90	338.94	18.31	-43.5	-44.7	21.9	0.00e+00	0	41	0	933232640	58	4161
2026-01-30 06:38:05.90	338.76	18.23	-43.5	-44.6	21.8	0.00e+00	0	41	0	935329792	58	4143
2026-01-30 06:38:06.91	338.58	18.15	-43.7	-44.9	21.7	0.00e+00	0	41	0	936378368	58	4273
2026-01-30 06:38:07.92	338.41	18.07	-43.7	-44.8	21.8	0.00e+00	0	41	0	938475520	58	4214
2026-01-30 06:38:08.93	338.23	17.99	-43.2	-44.3	22.2	0.00e+00	0	41	0	940572672	58	3978
2026-01-30 06:38:09.93	338.05	17.91	-43.1	-44.2	22.3	0.00e+00	0	41	0	942669824	58	3934
2026-01-30 06:38:10.94	337.88	17.83	-43.1	-44.2	22.3	0.00e+00	0	41	0	944766976	57	4149
2026-01-30 06:38:11.94	337.70	17.75	-43.0	-44.1	22.4	0.00e+00	0	41	0	945815552	57	4111
2026-01-30 06:38:12.95	337.53	17.67	-43.3	-44.4	22.1	0.00e+00	0	41	0	947912704	57	4258
2026-01-30 06:38:13.96	337.35	17.59	-43.4	-44.5	22.0	0.00e+00	0	41	0	950009856	57	4340
2026-01-30 06:38:14.97	337.18	17.51	-43.4	-44.5	22.0	0.00e+00	0	41	0	952107008	57	4324
2026-01-30 06:38:15.98	337.01	17.43	-43.6	-44.7	21.8	0.00e+00	0	41	0	954204160	57	4419
2026-01-30 06:38:16.99	336.84	17.35	-43.7	-44.9	21.7	0.00e+00	0	41	0	955252736	58	4251
2026-01-30 06:38:18.00	336.67	17.27	-43.8	-45.0	21.6	0.00e+00	0	41	0	957349888	58	4305
2026-01-30 06:38:19.01	336.50	17.19	-43.8	-44.9	21.6	0.00e+00	0	41	0	959447040	58	4284
2026-01-30 06:38:20.02	336.33	17.11	-43.8	-45.0	21.6	0.00e+00	0	41	0	961544192	58	4318
2026-01-30 06:38:21.02	336.17	17.03	-43.7	-44.8	21.7	0.00e+00	0	41	0	963641344	58	4220
2026-01-30 06:38:22.03	336.00	16.95	-43.7	-44.8	21.8	0.00e+00	0	41	0	964689920	58	4215
2026-01-30 06:38:23.03	335.84	16.87	-43.4	-44.5	22.0	0.00e+00	0	41	0	966787072	58	4069
2026-01-30 06:38:24.04	335.67	16.79	-43.1	-44.2	22.3	0.00e+00	0	41	0	968884224	58	3936
2026-01-30 06:38:25.04	335.51	16.71	-43.0	-44.0	22.3	0.00e+00	0	41	0	970981376	57	4098
2026-01-30 06:38:26.05	335.35	16.63	-43.1	-44.2	22.2	0.00e+00	0	41	0	973078528	57	4171
2026-01-30 06:38:27.05	335.19	16.56	-43.4	-44.6	21.9	0.00e+00	0	41	0	974127104	57	4349
2026-01-30 06:38:28.06	335.03	16.48	-43.7	-44.9	21.6	0.00e+00	0	41	0	976224256	57	4519
2026-01-30 06:38:29.06	334.87	16.40	-44.2	-45.4	21.2	0.00e+00	0	41	0	978321408	58	4512
2026-01-30 06:38:30.07	334.71	16.32	-44.6	-45.9	20.7	0.00e+00	0	41	0	980418560	59	4543
2026-01-30 06:38:31.07	334.56	16.24	-44.4	-45.7	20.6	0.00e+00	0	41	0	982515712	60	4171
2026-01-30 06:38:32.08	334.40	16.16	-44.4	-45.7	20.7	0.00e+00	0	41	0	983564288	60	4166
2026-01-30 06:38:33.09	334.24	16.08	-44.4	-45.7	20.6	0.00e+00	0	41	0	985661440	60	4189
2026-01-30 06:38:34.09	334.09	16.00	-44.3	-45.6	20.8	0.00e+00	0	41	0	987758592	60	4110
2026-01-30 06:38:35.10	333.93	15.92	-44.3	-45.6	20.7	0.00e+00	0	41	0	989855744	60	4119
2026-01-30 06:38:36.11	333.78	15.84	-44.3	-45.6	21.0	0.00e+00	0	41	0	991952896	59	4349
2026-01-30 06:38:37.12	333.63	15.76	-44.1	-45.3	21.2	0.00e+00	0	41	0	993001472	59	4212
2026-01-30 06:38:38.13	333.47	15.68	-44.1	-45.3	21.3	0.00e+00	0	41	0	995098624	59	4228
2026-01-30 06:38:39.13	333.32	15.60	-44.2	-45.5	21.1	0.00e+00	0	41	0	997195776	59	4297
2026-01-30 06:38:40.13	333.17	15.53	-44.1	-45.4	21.2	0.00e+00	0	41	0	999292928	59	4252
2026-01-30 06:38:41.14	333.02	15.45	-44.0	-45.2	21.3	0.00e+00	0	41	0	1001390080	59	4177
2026-01-30 06:38:42.15	332.88	15.37	-44.4	-45.7	20.9	0.00e+00	0	41	0	1002438656	59	4421
2026-01-30 06:38:43.15	332.73	15.29	-44.3	-45.6	21.0	0.00e+00	0	41	0	1004535808	59	4356
2026-01-30 06:38:44.16	332.58	15.21	-44.5	-45.7	20.9	0.00e+00	0	41	0	1006632960	59	4440
2026-01-30 06:38:45.16	332.44	15.13	-44.5	-45.8	20.6	0.00e+00	0	41	0	1008730112	60	4204
2026-01-30 06:38:46.17	332.29	15.05	-44.6	-46.0	20.3	0.00e+00	0	41	0	1010827264	60	4298
2026-01-30 06:38:47.17	332.15	14.98	-44.9	-46.3	20.1	0.00e+00	0	41	0	1011875840	60	4467
2026-01-30 06:38:48.17	332.00	14.90	-45.1	-46.6	19.8	0.00e+00	0	41	0	1013972992	60	4615
2026-01-30 06:38:49.18	331.86	14.82	-45.4	-46.9	19.5	0.00e+00	0	41	0	1016070144	61	4512
2026-01-30 06:38:50.18	331.72	14.74	-45.0	-46.4	20.0	0.00e+00	0	41	0	1018167296	61	4253
2026-01-30 06:38:51.19	331.58	14.66	-44.6	-45.9	20.3	0.00e+00	0	41	0	1020264448	61	4050
2026-01-30 06:38:52.20	331.43	14.58	-44.4	-45.7	20.6	0.00e+00	0	41	0	1021313024	60	4184
2026-01-30 06:38:53.21	331.29	14.51	-44.1	-45.4	20.9	0.00e+00	0	41	0	1023410176	60	4016
2026-01-30 06:38:54.21	331.16	14.43	-44.3	-45.5	21.0	0.00e+00	0	41	0	1025507328	59	4326
2026-01-30 06:38:55.21	331.02	14.35	-44.0	-45.2	21.3	0.00e+00	0	41	0	1027604480	59	4151
2026-01-30 06:38:56.22	330.88	14.27	-44.0	-45.1	21.4	0.00e+00	0	41	0	1029701632	59	4140
2026-01-30 06:38:57.23	330.74	14.19	-43.8	-45.0	21.5	0.00e+00	0	41	0	1030750208	59	4066
2026-01-30 06:38:58.23	330.61	14.12	-44.0	-45.2	21.4	0.00e+00	0	41	0	1032847360	59	4152
2026-01-30 06:38:59.23	330.47	14.04	-44.2	-45.4	21.2	0.00e+00	0	41	0	1034944512	59	4268
2026-01-30 06:39:00.24	330.34	13.96	-44.3	-45.6	21.0	0.00e+00	0	41	0	1037041664	59	4347
2026-01-30 06:39:01.25	330.20	13.88	-44.3	-45.6	21.0	0.00e+00	0	41	0	1039138816	59	4353
2026-01-30 06:39:02.26	330.07	13.81	-44.4	-45.7	20.9	0.00e+00	0	41	0	1040187392	59	4415
2026-01-30 06:39:03.26	329.94	13.73	-44.4	-45.7	20.9	0.00e+00	0	41	0	1042284544	59	4413
2026-01-30 06:39:04.27	329.80	13.65	-44.4	-45.7	20.9	0.00e+00	0	41	0	1044381696	59	4412
2026-01-30 06:39:05.28	329.67	13.58	-44.5	-45.8	20.8	0.00e+00	0	41	0	1046478848	59	4444
2026-01-30 06:39:06.28	329.54	13.50	-44.6	-45.9	20.7	0.00e+00	0	41	0	1048576000	59	4496
2026-01-30 06:39:07.28	329.41	13.42	-44.4	-45.7	20.9	0.00e+00	0	41	0	1049624576	59	4408
2026-01-30 06:39:08.29	329.28	13.35	-44.5	-45.8	20.8	0.00e+00	0	41	0	1051721728	59	4444
2026-01-30 06:39:09.30	329.15	13.27	-44.5	-45.8	20.8	0.00e+00	0	41	0	1053818880	59	4445
2026-01-30 06:39:10.31	329.03	13.19	-44.4	-45.6	20.8	0.00e+00	0	41	0	1055916032	59	4383
2026-01-30 06:39:11.32	328.90	13.12	-44.5	-45.8	20.7	0.00e+00	0	41	0	1058013184	59	4482
2026-01-30 06:39:12.33	328.77	13.04	-44.2	-45.5	20.7	0.00e+00	0	41	0	1059061760	60	4085
2026-01-30 06:39:13.34	328.65	12.96	-44.4	-45.7	20.8	0.00e+00	0	41	0	1061158912	59	4407
2026-01-30 06:39:14.35	328.52	12.89	-44.5	-45.8	20.7	0.00e+00	0	41	0	1063256064	59	4468
2026-01-30 06:39:15.35	328.40	12.81	-44.5	-45.8	20.6	0.00e+00	0	41	0	1065353216	59	4473
2026-01-30 06:39:16.36	328.27	12.73	-44.6	-45.9	20.6	0.00e+00	0	41	0	1067450368	59	4533
2026-01-30 06:39:17.37	328.15	12.66	-44.7	-46.0	20.5	0.00e+00	0	41	0	1068498944	59	4588
2026-01-30 06:39:18.37	328.03	12.58	-44.7	-46.0	20.5	0.00e+00	0	41	0	1070596096	59	4596
2026-01-30 06:39:19.38	327.90	12.51	-44.4	-45.8	20.3	0.00e+00	0	41	0	1072693248	60	4199
2026-01-30 06:39:20.38	327.78	12.43	-44.5	-45.8	20.4	0.00e+00	0	41	0	1074790400	60	4214
2026-01-30 06:39:21.39	327.66	12.36	-44.8	-46.2	20.0	0.00e+00	0	41	0	1076887552	60	4414
2026-01-30 06:39:22.40	327.54	12.28	-44.9	-46.3	19.9	0.00e+00	0	41	0	1077936128	60	4461
2026-01-30 06:39:23.41	327.42	12.20	-45.0	-46.5	19.8	0.00e+00	0	41	0	1080033280	60	4566
2026-01-30 06:39:24.42	327.30	12.13	-45.1	-46.5	19.7	0.00e+00	0	41	0	1082130432	61	4334
2026-01-30 06:39:25.43	327.18	12.05	-45.2	-46.6	19.6	0.00e+00	0	41	0	1084227584	61	4375
2026-01-30 06:39:26.43	327.07	11.98	-45.1	-46.5	19.7	0.00e+00	0	41	0	1086324736	61	4336
2026-01-30 06:39:27.44	326.95	11.90	-44.9	-46.4	19.9	0.00e+00	0	41	0	1087373312	61	4248
2026-01-30 06:39:28.45	326.83	11.83	-44.7	-46.1	20.1	0.00e+00	0	41	0	1089470464	61	4127
2026-01-30 06:39:29.45	326.72	11.75	-44.5	-45.9	20.3	0.00e+00	0	41	0	1091567616	61	4010
2026-01-30 06:39:30.46	326.60	11.68	-44.6	-45.9	20.2	0.00e+00	0	41	0	1093664768	61	4037
2026-01-30 06:39:31.47	326.49	11.61	-44.4	-45.7	20.4	0.00e+00	0	41	0	1095761920	60	4193
2026-01-30 06:39:32.47	326.38	11.53	-44.4	-45.8	20.4	0.00e+00	0	41	0	1096810496	60	4196
2026-01-30 06:39:33.47	326.26	11.46	-44.7	-46.1	20.1	0.00e+00	0	41	0	1098907648	60	4371
2026-01-30 06:39:34.48	326.15	11.38	-44.8	-46.2	20.0	0.00e+00	0	41	0	1101004800	60	4418
2026-01-30 06:39:35.48	326.04	11.31	-45.0	-46.4	19.8	0.00e+00	0	41	0	1103101952	60	4542
2026-01-30 06:39:36.49	325.93	11.24	-45.2	-46.7	19.5	0.00e+00	0	41	0	1105199104	60	4688
2026-01-30 06:39:37.50	325.81	11.16	-45.3	-46.9	19.3	0.00e+00	0	41	0	1106247680	61	4512
2026-01-30 06:39:38.50	325.71	11.09	-45.5	-47.1	19.1	0.00e+00	0	41	0	1108344832	61	4602
2026-01-30 06:39:39.51	325.60	11.01	-45.9	-47.6	18.7	0.00e+00	0	41	0	1110441984	62	4606
2026-01-30 06:39:40.51	325.49	10.94	-45.9	-47.6	18.7	0.00e+00	0	41	0	1112539136	62	4616
2026-01-30 06:39:41.52	325.38	10.87	-45.7	-47.3	18.9	0.00e+00	0	41	0	1114636288	62	4480
2026-01-30 06:39:42.53	325.27	10.79	-45.7	-47.3	18.9	0.00e+00	0	41	0	1115684864	62	4473
2026-01-30 06:39:43.53	325.16	10.72	-45.5	-47.1	19.1	0.00e+00	0	41	0	1117782016	62	4365
2026-01-30 06:39:44.54	325.05	10.65	-45.3	-46.8	19.3	0.00e+00	0	41	0	1119879168	62	4221
2026-01-30 06:39:45.55	324.95	10.58	-45.2	-46.6	19.5	0.00e+00	0	41	0	1121976320	62	4144
2026-01-30 06:39:46.55	324.84	10.50	-45.0	-46.4	19.7	0.00e+00	0	41	0	1124073472	62	4039
2026-01-30 06:39:47.56	324.74	10.43	-45.0	-46.5	19.7	0.00e+00	0	41	0	1125122048	61	4309
2026-01-30 06:39:48.57	324.63	10.36	-44.9	-46.3	19.8	0.00e+00	0	41	0	1127219200	61	4225
2026-01-30 06:39:49.57	324.53	10.29	-44.8	-46.2	19.9	0.00e+00	0	41	0	1129316352	61	4173
2026-01-30 06:39:50.58	324.42	10.21	-44.7	-46.1	20.0	0.00e+00	0	41	0	1131413504	61	4138
2026-01-30 06:39:51.59	324.32	10.14	-44.8	-46.3	19.8	0.00e+00	0	41	0	1133510656	61	4198
2026-01-30 06:39:52.59	324.22	10.07	-44.9	-46.3	19.8	0.00e+00	0	41	0	1134559232	61	4206
2026-01-30 06:39:53.60	324.12	10.00	-45.0	-46.5	19.6	0.00e+00	0	41	0	1136656384	61	4319
2026-01-30 06:39:54.60	324.01	9.93	-45.2	-46.7	19.4	0.00e+00	0	41	0	1138753536	61	4439
2026-01-30 06:39:55.61	323.91	9.85	-45.3	-46.9	19.2	0.00e+00	0	41	0	1140850688	61	4498
2026-01-30 06:39:56.61	323.81	9.78	-45.5	-47.1	19.1	0.00e+00	0	41	0	1142947840	61	4604
2026-01-30 06:39:57.62	323.71	9.71	-45.7	-47.3	18.8	0.00e+00	0	41	0	1143996416	61	4739
2026-01-30 06:39:58.63	323.61	9.64	-45.9	-47.6	18.5	0.00e+00	0	41	0	1146093568	62	4629
2026-01-30 06:39:59.64	323.51	9.57	-45.9	-47.6	18.5	0.00e+00	0	41	0	1148190720	62	4643
2026-01-30 06:40:00.65	323.41	9.50	-46.0	-47.7	18.3	0.00e+00	0	41	0	1150287872	62	4674
2026-01-30 06:40:01.66	323.32	9.43	-46.2	-48.0	18.2	0.00e+00	0	41	0	1152385024	63	4553
2026-01-30 06:40:02.66	323.22	9.36	-46.3	-48.1	18.1	0.00e+00	0	41	0	1153433600	63	4607
2026-01-30 06:40:03.67	323.12	9.29	-46.3	-48.1	18.1	0.00e+00	0	41	0	1155530752	63	4620
2026-01-30 06:40:04.67	323.02	9.22	-46.3	-48.1	18.0	0.00e+00	0	41	0	1157627904	63	4638
2026-01-30 06:40:05.67	322.93	9.15	-46.2	-48.0	18.1	0.00e+00	0	41	0	1159725056	63	4587
2026-01-30 06:40:06.68	322.83	9.07	-46.1	-47.9	18.2	0.00e+00	0	41	0	1161822208	63	4517
2026-01-30 06:40:07.68	322.74	9.01	-46.2	-48.0	18.1	0.00e+00	0	41	0	1162870784	63	4580
2026-01-30 06:40:08.69	322.64	8.93	-46.1	-47.9	18.2	0.00e+00	0	41	0	1164967936	63	4499
2026-01-30 06:40:09.70	322.55	8.86	-46.0	-47.8	18.3	0.00e+00	0	41	0	1167065088	63	4444
2026-01-30 06:40:10.71	322.45	8.79	-46.0	-47.7	18.4	0.00e+00	0	41	0	1169162240	63	4408
2026-01-30 06:40:11.71	322.36	8.73	-45.8	-47.5	18.6	0.00e+00	0	41	0	1171259392	63	4295
2026-01-30 06:40:12.72	322.27	8.66	-45.9	-47.6	18.4	0.00e+00	0	41	0	1172307968	63	4363
2026-01-30 06:40:13.72	322.18	8.59	-45.9	-47.6	18.4	0.00e+00	0	41	0	1174405120	63	4374
2026-01-30 06:40:14.72	322.09	8.52	-46.1	-47.8	18.3	0.00e+00	0	41	0	1176502272	63	4469
2026-01-30 06:40:15.73	321.99	8.45	-45.9	-47.6	18.4	0.00e+00	0	41	0	1178599424	63	4371
2026-01-30 06:40:16.73	321.90	8.38	-45.9	-47.5	18.6	0.00e+00	0	41	0	1180696576	63	4327
2026-01-30 06:40:17.74	321.81	8.31	-46.1	-47.9	18.2	0.00e+00	0	41	0	1181745152	63	4505
2026-01-30 06:40:18.75	321.72	8.24	-46.1	-47.9	18.2	0.00e+00	0	41	0	1183842304	63	4522
2026-01-30 06:40:19.76	321.63	8.17	-46.3	-48.2	17.9	0.00e+00	0	41	0	1185939456	63	4666
2026-01-30 06:40:20.76	321.54	8.10	-46.5	-48.4	17.7	0.00e+00	0	41	0	1188036608	63	4771
2026-01-30 06:40:21.77	321.45	8.03	-46.7	-48.6	17.4	0.00e+00	0	41	0	1189085184	63	4910
2026-01-30 06:40:22.77	321.37	7.97	-46.8	-48.8	17.2	0.00e+00	0	41	0	1191182336	64	4731
2026-01-30 06:40:23.78	321.28	7.90	-46.8	-48.9	17.0	0.00e+00	0	41	0	1193279488	64	4796
2026-01-30 06:40:24.79	321.19	7.83	-46.7	-48.8	17.2	0.00e+00	0	41	0	1195376640	64	4715
2026-01-30 06:40:25.80	321.10	7.76	-47.1	-49.3	16.7	0.00e+00	0	41	0	1197473792	64	4988
2026-01-30 06:40:26.80	321.02	7.69	-47.1	-49.3	16.7	0.00e+00	0	41	0	1199570944	64	5002
2026-01-30 06:40:27.81	320.93	7.63	-47.1	-49.3	16.6	0.00e+00	0	41	0	1200619520	64	4991
2026-01-30 06:40:28.81	320.84	7.56	-46.9	-49.0	16.9	0.00e+00	0	42	0	1202716672	64	4856
2026-01-30 06:40:29.82	320.76	7.49	-46.8	-48.9	17.0	0.00e+00	0	41	0	1204813824	64	4792
2026-01-30 06:40:30.83	320.67	7.42	-46.5	-48.5	17.5	0.00e+00	0	41	0	1206910976	64	4559
2026-01-30 06:40:31.84	320.59	7.36	-46.4	-48.3	17.6	0.00e+00	0	41	0	1209008128	64	4470
2026-01-30 06:40:32.84	320.50	7.29	-46.1	-47.9	17.9	0.00e+00	0	41	0	1210056704	64	4288
2026-01-30 06:40:33.85	320.42	7.22	-46.0	-47.8	18.2	0.00e+00	0	41	0	1212153856	63	4464
2026-01-30 06:40:34.86	320.34	7.15	-45.9	-47.7	18.2	0.00e+00	0	41	0	1214251008	63	4398
2026-01-30 06:40:35.87	320.25	7.09	-45.6	-47.2	18.6	0.00e+00	0	41	0	1216348160	63	4190
2026-01-30 06:40:36.88	320.17	7.02	-45.5	-47.2	18.7	0.00e+00	0	41	0	1218445312	63	4156
2026-01-30 06:40:37.88	320.09	6.95	-45.4	-47.0	18.8	0.00e+00	0	41	0	1219493888	62	4323
