passes_logs/2026/01/30/R3.2S_Murmansk/R3.2S_Murmansk__20260130_010048_NOAA_21_JPSS-2_rec.log

#Pass ID: 20260130_010048_NOAA 21 (JPSS-2)
#Satellite: NOAA 21 (JPSS-2)
#Configuration: NOAA-21
#almurnet v.1.7.20251203
#Start time: 2026-01-30 01:00:49

#Version: 2.2.20231116
#Station: R3.2S_Murmansk
#Location: 33.079688 lon 68.888172 lat
#TLE: 1 54234U 22150A   26029.46216196  .00000141  00000+0  87503-4 0  9994
#TLE: 2 54234  98.7512 330.1880 0000955 196.3413 163.7732 14.19540905166865

#Time	Az	El	Level	Level2	SNR	BER	BlckErr	Temp	State	Recorded	gain1	gain2
2026-01-30 01:00:49.92	25.79	2.06	-54.1	-66.7	3.8	1.49e+00	0	41	0	0	78	16613
2026-01-30 01:00:50.91	25.78	2.13	-53.7	-66.4	3.8	1.49e+00	0	42	104	0	78	16076
2026-01-30 01:00:51.92	25.78	2.19	-53.5	-66.3	3.8	1.49e+00	0	41	104	0	78	15771
2026-01-30 01:00:52.93	25.77	2.26	-53.3	-66.1	3.8	1.49e+00	0	41	104	0	78	15446
2026-01-30 01:00:53.94	25.77	2.32	-53.1	-65.9	3.8	1.49e+00	0	42	104	0	78	15104
2026-01-30 01:00:54.94	25.76	2.39	-52.8	-65.5	3.8	1.49e+00	0	41	104	0	77	15382
2026-01-30 01:00:55.94	25.75	2.45	-52.3	-65.1	3.8	1.49e+00	0	42	104	0	76	15439
2026-01-30 01:00:56.95	25.75	2.52	-52.1	-64.8	3.8	1.49e+00	0	42	104	0	76	14993
2026-01-30 01:00:57.96	25.74	2.58	-52.1	-64.8	3.8	1.49e+00	0	42	104	0	76	15012
2026-01-30 01:00:58.97	25.74	2.65	-52.1	-64.8	3.8	1.49e+00	0	42	104	0	76	14930
2026-01-30 01:00:59.98	25.73	2.71	-52.1	-64.8	3.8	1.49e+00	0	42	104	0	76	14942
2026-01-30 01:01:00.99	25.73	2.78	-52.0	-64.8	3.8	1.49e+00	0	42	104	0	76	14916
2026-01-30 01:01:02.00	25.72	2.85	-52.0	-64.8	3.8	1.49e+00	0	41	104	0	76	14880
2026-01-30 01:01:03.01	25.72	2.91	-52.0	-64.8	3.8	1.49e+00	0	42	104	0	76	14918
2026-01-30 01:01:04.02	25.71	2.98	-52.0	-64.8	3.8	1.49e+00	0	42	104	0	76	14901
2026-01-30 01:01:05.02	25.71	3.04	-52.0	-64.7	3.8	1.49e+00	0	42	104	0	76	14828
2026-01-30 01:01:06.03	25.70	3.11	-52.0	-64.7	3.8	1.49e+00	0	42	104	0	76	14822
2026-01-30 01:01:07.04	25.70	3.18	-52.0	-64.7	3.8	1.49e+00	0	42	104	0	76	14765
2026-01-30 01:01:08.05	25.69	3.25	-52.0	-64.6	3.8	1.49e+00	0	41	104	0	76	14690
2026-01-30 01:01:09.05	25.68	3.31	-52.0	-64.6	3.8	1.49e+00	0	42	104	0	76	14610
2026-01-30 01:01:10.06	25.68	3.38	-52.0	-64.6	3.8	1.49e+00	0	41	104	0	76	14586
2026-01-30 01:01:11.06	25.67	3.45	-52.0	-64.5	3.8	1.49e+00	0	42	104	0	76	14489
2026-01-30 01:01:12.07	25.67	3.51	-52.0	-64.4	3.8	1.49e+00	0	41	104	0	75	15111
2026-01-30 01:01:13.07	25.66	3.58	-51.9	-64.3	3.8	1.49e+00	0	41	104	0	75	14968
2026-01-30 01:01:14.08	25.66	3.65	-51.9	-64.2	3.8	1.49e+00	0	42	104	0	75	14718
2026-01-30 01:01:15.09	25.65	3.72	-51.9	-63.9	3.8	1.49e+00	0	41	104	0	75	14264
2026-01-30 01:01:16.09	25.64	3.79	-51.9	-63.9	3.8	1.49e+00	0	42	104	0	75	14213
2026-01-30 01:01:17.11	25.64	3.86	-51.9	-63.7	3.8	1.49e+00	0	42	104	0	75	14019
2026-01-30 01:01:18.11	25.63	3.92	-51.9	-63.6	3.8	1.49e+00	0	41	104	0	75	13763
2026-01-30 01:01:19.12	25.62	3.99	-51.9	-63.8	3.8	1.49e+00	0	41	104	0	75	14108
2026-01-30 01:01:20.13	25.62	4.06	-51.9	-63.9	3.8	1.49e+00	0	41	104	0	75	14263
2026-01-30 01:01:21.14	25.61	4.13	-51.9	-64.2	3.8	1.49e+00	0	42	104	0	75	14787
2026-01-30 01:01:22.15	25.61	4.20	-51.9	-64.3	3.8	1.49e+00	0	42	104	0	75	15028
2026-01-30 01:01:23.16	25.60	4.27	-51.8	-63.5	3.8	1.49e+00	0	42	104	0	75	13629
2026-01-30 01:01:24.17	25.59	4.34	-51.7	-61.4	4.1	1.47e+00	0	42	104	0	75	10760
2026-01-30 01:01:25.18	25.59	4.41	-51.4	-59.3	4.9	1.24e+00	0	42	104	0	74	8896
2026-01-30 01:01:26.19	25.58	4.48	-50.9	-57.0	6.4	3.81e-01	0	42	0	3145728	73	7278
2026-01-30 01:01:27.20	25.57	4.55	-50.4	-55.5	7.9	1.09e-01	0	42	0	6291456	72	6434
2026-01-30 01:01:28.21	25.57	4.62	-50.0	-54.4	9.1	3.25e-02	0	42	0	9437184	71	5995
2026-01-30 01:01:29.22	25.56	4.69	-49.4	-52.9	10.6	6.32e-03	0	42	0	12582912	70	5369
2026-01-30 01:01:30.22	25.55	4.76	-48.7	-51.7	11.9	6.03e-04	0	42	0	15728640	69	4939
2026-01-30 01:01:31.23	25.55	4.83	-48.1	-50.7	12.9	8.39e-05	0	42	0	18874368	68	4701
2026-01-30 01:01:32.24	25.54	4.91	-47.6	-49.9	13.6	1.60e-05	0	41	0	22020096	67	4506
2026-01-30 01:01:33.25	25.53	4.98	-47.3	-49.5	14.0	3.80e-06	0	41	0	25165824	66	4576
2026-01-30 01:01:34.25	25.53	5.05	-47.6	-50.0	13.5	3.80e-06	0	41	0	28311552	66	4847
2026-01-30 01:01:35.26	25.52	5.12	-51.6	-60.5	4.4	1.48e+00	0	42	104	29360128	73	10819
2026-01-30 01:01:36.26	25.51	5.19	-50.3	-55.0	8.2	4.89e-01	0	41	0	31457280	72	6109
2026-01-30 01:01:37.27	25.50	5.26	-49.4	-53.2	10.0	2.92e-02	0	42	0	34603008	70	5564
2026-01-30 01:01:38.28	25.50	5.34	-44.8	-46.1	17.5	0.00e+00	0	41	0	37748736	60	4357
2026-01-30 01:01:39.28	25.49	5.41	-50.8	-57.8	4.3	7.69e-01	0	42	104	39845888	73	7908
2026-01-30 01:01:40.29	25.48	5.48	-44.1	-45.3	18.2	0.00e+00	0	41	0	40894464	60	3976
2026-01-30 01:01:41.30	25.48	5.56	-44.3	-45.6	18.3	0.00e+00	0	42	0	44040192	59	4355
2026-01-30 01:01:42.31	25.47	5.63	-44.4	-45.7	18.2	0.00e+00	0	42	0	47185920	59	4415
2026-01-30 01:01:43.31	25.46	5.70	-44.4	-45.6	18.3	0.00e+00	0	42	0	50331648	59	4382
2026-01-30 01:01:44.32	25.45	5.78	-44.2	-45.4	18.5	0.00e+00	0	42	0	54525952	59	4275
2026-01-30 01:01:45.33	25.44	5.85	-44.3	-45.6	18.4	0.00e+00	0	42	0	57671680	59	4342
2026-01-30 01:01:46.33	25.44	5.92	-44.2	-45.4	18.5	0.00e+00	0	41	0	60817408	59	4283
2026-01-30 01:01:47.34	25.43	6.00	-44.3	-45.6	18.4	0.00e+00	0	41	0	63963136	59	4341
2026-01-30 01:01:48.35	25.42	6.07	-44.4	-45.6	18.3	0.00e+00	0	42	0	67108864	59	4383
2026-01-30 01:01:49.36	25.41	6.15	-44.1	-45.3	18.7	0.00e+00	0	41	0	70254592	59	4208
2026-01-30 01:01:50.37	25.41	6.22	-44.1	-45.3	18.7	0.00e+00	0	41	0	73400320	59	4204
2026-01-30 01:01:51.38	25.40	6.30	-44.2	-45.4	18.6	0.00e+00	0	41	0	75497472	59	4269
2026-01-30 01:01:52.39	25.39	6.37	-44.2	-45.4	18.6	0.00e+00	0	41	0	78643200	59	4253
2026-01-30 01:01:53.40	25.38	6.45	-44.2	-45.4	18.6	0.00e+00	0	41	0	81788928	59	4264
2026-01-30 01:01:54.41	25.37	6.52	-44.2	-45.4	18.6	0.00e+00	0	41	0	84934656	59	4281
2026-01-30 01:01:55.41	25.37	6.60	-44.2	-45.4	18.6	0.00e+00	0	41	0	88080384	59	4276
2026-01-30 01:01:56.42	25.36	6.68	-44.1	-45.3	18.8	0.00e+00	0	41	0	92274688	59	4203
2026-01-30 01:01:57.43	25.35	6.75	-44.0	-45.2	18.9	0.00e+00	0	41	0	95420416	59	4149
2026-01-30 01:01:58.43	25.34	6.83	-43.9	-45.0	19.0	0.00e+00	0	41	0	98566144	59	4079
2026-01-30 01:01:59.44	25.33	6.91	-43.9	-45.0	19.0	0.00e+00	0	41	0	101711872	59	4098
2026-01-30 01:02:00.45	25.32	6.98	-44.1	-45.2	18.8	0.00e+00	0	41	0	104857600	59	4192
2026-01-30 01:02:01.46	25.31	7.06	-44.0	-45.2	18.9	0.00e+00	0	41	0	108003328	59	4166
2026-01-30 01:02:02.46	25.31	7.14	-44.0	-45.2	18.9	0.00e+00	0	42	0	111149056	59	4161
2026-01-30 01:02:03.47	25.30	7.21	-43.9	-45.0	19.1	0.00e+00	0	41	0	114294784	59	4078
2026-01-30 01:02:04.49	25.29	7.29	-43.9	-45.0	19.1	0.00e+00	0	42	0	117440512	59	4065
2026-01-30 01:02:05.49	25.28	7.37	-43.9	-45.0	19.1	0.00e+00	0	42	0	120586240	59	4098
2026-01-30 01:02:06.50	25.27	7.45	-43.7	-44.8	19.3	0.00e+00	0	41	0	122683392	59	3976
2026-01-30 01:02:07.51	25.26	7.53	-43.6	-44.7	19.4	0.00e+00	0	41	0	125829120	59	3917
2026-01-30 01:02:08.52	25.25	7.61	-43.7	-44.8	19.3	0.00e+00	0	41	0	130023424	59	4003
2026-01-30 01:02:09.53	25.24	7.69	-43.6	-44.7	19.4	0.00e+00	0	41	0	133169152	59	3952
2026-01-30 01:02:10.53	25.23	7.77	-43.5	-44.6	19.5	0.00e+00	0	41	0	136314880	59	3900
2026-01-30 01:02:11.54	25.22	7.85	-43.7	-44.8	19.3	0.00e+00	0	41	0	139460608	59	3971
2026-01-30 01:02:12.55	25.21	7.93	-43.6	-44.7	19.4	0.00e+00	0	41	0	142606336	59	3935
2026-01-30 01:02:13.56	25.20	8.01	-43.6	-44.6	19.5	0.00e+00	0	42	0	145752064	59	3909
2026-01-30 01:02:14.57	25.20	8.09	-43.5	-44.6	19.5	0.00e+00	0	41	0	148897792	59	3888
2026-01-30 01:02:15.57	25.19	8.17	-43.5	-44.6	19.6	0.00e+00	0	41	0	152043520	59	3881
2026-01-30 01:02:16.58	25.18	8.25	-43.6	-44.7	19.5	0.00e+00	0	41	0	155189248	59	3924
2026-01-30 01:02:17.59	25.17	8.33	-43.5	-44.5	19.6	0.00e+00	0	42	0	158334976	59	3868
2026-01-30 01:02:18.60	25.16	8.41	-43.5	-44.5	19.6	0.00e+00	0	41	0	161480704	58	4089
2026-01-30 01:02:19.61	25.15	8.49	-43.4	-44.4	19.7	0.00e+00	0	41	0	164626432	58	4036
2026-01-30 01:02:20.62	25.14	8.58	-43.5	-44.5	19.7	0.00e+00	0	41	0	167772160	58	4086
2026-01-30 01:02:21.62	25.13	8.66	-43.2	-44.2	20.0	0.00e+00	0	41	0	170917888	58	3931
2026-01-30 01:02:22.63	25.12	8.74	-43.2	-44.3	19.9	0.00e+00	0	41	0	174063616	58	3970
2026-01-30 01:02:23.63	25.11	8.82	-43.2	-44.2	20.0	0.00e+00	0	42	0	177209344	58	3952
2026-01-30 01:02:24.63	25.09	8.91	-43.3	-44.3	19.9	0.00e+00	0	42	0	180355072	58	3985
2026-01-30 01:02:25.64	25.08	8.99	-43.4	-44.5	19.8	0.00e+00	0	42	0	183500800	58	4063
2026-01-30 01:02:26.64	25.07	9.07	-43.3	-44.3	19.9	0.00e+00	0	41	0	186646528	58	3986
2026-01-30 01:02:27.65	25.06	9.16	-43.1	-44.1	20.1	0.00e+00	0	42	0	189792256	58	3884
2026-01-30 01:02:28.66	25.05	9.24	-43.0	-44.0	20.1	0.00e+00	0	41	0	192937984	58	3859
2026-01-30 01:02:29.67	25.04	9.33	-43.1	-44.1	20.1	0.00e+00	0	41	0	196083712	58	3899
2026-01-30 01:02:30.68	25.03	9.41	-43.1	-44.1	20.2	0.00e+00	0	41	0	199229440	58	3872
2026-01-30 01:02:31.68	25.02	9.49	-43.0	-44.0	20.2	0.00e+00	0	41	0	202375168	57	4057
2026-01-30 01:02:32.69	25.01	9.58	-42.9	-43.9	20.3	0.00e+00	0	41	0	205520896	57	4042
2026-01-30 01:02:33.70	25.00	9.67	-42.9	-43.9	20.3	0.00e+00	0	42	0	208666624	57	4011
2026-01-30 01:02:34.71	24.99	9.75	-42.8	-43.8	20.4	0.00e+00	0	41	0	211812352	57	3986
2026-01-30 01:02:35.71	24.97	9.84	-42.8	-43.7	20.4	0.00e+00	0	41	0	214958080	57	3956
2026-01-30 01:02:36.72	24.96	9.92	-42.8	-43.8	20.4	0.00e+00	0	41	0	218103808	57	3975
2026-01-30 01:02:37.73	24.95	10.01	-42.7	-43.7	20.6	0.00e+00	0	41	0	221249536	57	3923
2026-01-30 01:02:38.74	24.94	10.10	-42.9	-43.8	20.4	0.00e+00	0	41	0	224395264	57	3994
2026-01-30 01:02:39.75	24.93	10.19	-42.9	-43.8	20.4	0.00e+00	0	42	0	227540992	57	4001
2026-01-30 01:02:40.76	24.92	10.27	-42.8	-43.8	20.5	0.00e+00	0	41	0	230686720	57	3959
2026-01-30 01:02:41.77	24.90	10.36	-42.8	-43.7	20.5	0.00e+00	0	41	0	233832448	57	3954
2026-01-30 01:02:42.77	24.89	10.45	-42.8	-43.8	20.5	0.00e+00	0	41	0	236978176	57	3979
2026-01-30 01:02:43.78	24.88	10.54	-42.6	-43.6	20.7	0.00e+00	0	41	0	240123904	57	3871
2026-01-30 01:02:44.79	24.87	10.63	-42.7	-43.6	20.6	0.00e+00	0	41	0	243269632	57	3893
2026-01-30 01:02:45.79	24.86	10.72	-42.7	-43.7	20.6	0.00e+00	0	41	0	246415360	57	3933
2026-01-30 01:02:46.80	24.84	10.81	-42.6	-43.6	20.7	0.00e+00	0	41	0	249561088	57	3875
2026-01-30 01:02:47.80	24.83	10.90	-42.6	-43.6	20.7	0.00e+00	0	41	0	252706816	57	3876
2026-01-30 01:02:48.81	24.82	10.99	-42.5	-43.4	20.8	0.00e+00	0	41	0	255852544	57	3823
2026-01-30 01:02:49.82	24.81	11.08	-42.5	-43.4	20.8	0.00e+00	0	41	0	258998272	57	3816
2026-01-30 01:02:50.83	24.79	11.17	-42.5	-43.4	20.9	0.00e+00	0	41	0	262144000	56	4041
2026-01-30 01:02:51.84	24.78	11.26	-42.3	-43.2	21.0	0.00e+00	0	41	0	265289728	56	3952
2026-01-30 01:02:52.85	24.77	11.35	-42.5	-43.4	20.9	0.00e+00	0	41	0	268435456	56	4023
2026-01-30 01:02:53.86	24.75	11.45	-42.5	-43.5	20.8	0.00e+00	0	41	0	271581184	56	4064
2026-01-30 01:02:54.87	24.74	11.54	-42.3	-43.2	21.0	0.00e+00	0	42	0	274726912	56	3943
2026-01-30 01:02:55.87	24.73	11.63	-42.4	-43.3	21.0	0.00e+00	0	41	0	277872640	56	3973
2026-01-30 01:02:56.88	24.71	11.72	-42.3	-43.2	21.1	0.00e+00	0	41	0	281018368	56	3915
2026-01-30 01:02:57.89	24.70	11.82	-42.3	-43.2	21.1	0.00e+00	0	41	0	284164096	56	3939
2026-01-30 01:02:58.90	24.69	11.91	-42.3	-43.2	21.1	0.00e+00	0	41	0	287309824	56	3922
2026-01-30 01:02:59.91	24.67	12.01	-42.2	-43.1	21.2	0.00e+00	0	41	0	290455552	56	3890
2026-01-30 01:03:00.92	24.66	12.10	-42.2	-43.1	21.2	0.00e+00	0	41	0	293601280	56	3870
2026-01-30 01:03:01.93	24.64	12.19	-42.3	-43.2	21.1	0.00e+00	0	41	0	296747008	56	3919
2026-01-30 01:03:02.93	24.63	12.29	-42.2	-43.1	21.2	0.00e+00	0	41	0	299892736	56	3885
2026-01-30 01:03:03.94	24.61	12.39	-42.3	-43.1	21.2	0.00e+00	0	42	0	303038464	56	3913
2026-01-30 01:03:04.95	24.60	12.48	-42.1	-43.0	21.2	0.00e+00	0	41	0	306184192	56	3864
2026-01-30 01:03:05.95	24.59	12.58	-42.1	-43.0	21.3	0.00e+00	0	41	0	309329920	56	3844
2026-01-30 01:03:06.96	24.57	12.67	-42.1	-43.0	21.3	0.00e+00	0	42	0	312475648	56	3855
2026-01-30 01:03:07.97	24.56	12.77	-42.1	-43.0	21.3	0.00e+00	0	41	0	315621376	56	3856
2026-01-30 01:03:08.97	24.54	12.87	-42.0	-42.9	21.4	0.00e+00	0	41	0	318767104	56	3806
2026-01-30 01:03:09.98	24.53	12.97	-42.1	-42.9	21.4	0.00e+00	0	41	0	321912832	56	3823
2026-01-30 01:03:10.99	24.51	13.06	-42.1	-43.0	21.3	0.00e+00	0	41	0	325058560	56	3826
2026-01-30 01:03:12.00	24.50	13.16	-42.1	-42.9	21.4	0.00e+00	0	41	0	328204288	56	3813
2026-01-30 01:03:13.00	24.48	13.26	-42.1	-43.0	21.4	0.00e+00	0	41	0	331350016	56	3840
2026-01-30 01:03:14.01	24.46	13.36	-41.9	-42.7	21.5	0.00e+00	0	41	0	334495744	55	3953
2026-01-30 01:03:15.02	24.45	13.46	-41.8	-42.7	21.5	0.00e+00	0	41	0	337641472	55	3932
2026-01-30 01:03:16.03	24.43	13.56	-41.9	-42.8	21.5	0.00e+00	0	41	0	340787200	55	3967
2026-01-30 01:03:17.04	24.42	13.66	-41.9	-42.7	21.5	0.00e+00	0	41	0	343932928	55	3943
2026-01-30 01:03:18.05	24.40	13.76	-41.8	-42.7	21.6	0.00e+00	0	41	0	347078656	55	3915
2026-01-30 01:03:19.06	24.38	13.87	-41.8	-42.6	21.6	0.00e+00	0	41	0	350224384	55	3903
2026-01-30 01:03:20.07	24.37	13.97	-41.8	-42.6	21.6	0.00e+00	0	41	0	353370112	55	3896
2026-01-30 01:03:21.08	24.35	14.07	-41.8	-42.6	21.6	0.00e+00	0	41	0	356515840	55	3899
2026-01-30 01:03:22.08	24.33	14.17	-41.8	-42.7	21.6	0.00e+00	0	41	0	359661568	55	3921
2026-01-30 01:03:23.08	24.32	14.28	-41.9	-42.7	21.5	0.00e+00	0	41	0	362807296	55	3947
2026-01-30 01:03:24.09	24.30	14.38	-41.7	-42.5	21.7	0.00e+00	0	41	0	365953024	55	3857
2026-01-30 01:03:25.10	24.28	14.48	-41.8	-42.7	21.6	0.00e+00	0	41	0	369098752	55	3935
2026-01-30 01:03:26.11	24.27	14.59	-41.9	-42.7	21.5	0.00e+00	0	41	0	372244480	55	3942
2026-01-30 01:03:27.12	24.25	14.69	-41.8	-42.6	21.6	0.00e+00	0	41	0	375390208	55	3899
2026-01-30 01:03:28.13	24.23	14.80	-41.8	-42.6	21.6	0.00e+00	0	41	0	378535936	55	3901
2026-01-30 01:03:29.14	24.21	14.91	-41.7	-42.6	21.7	0.00e+00	0	42	0	381681664	55	3870
2026-01-30 01:03:30.15	24.20	15.01	-41.6	-42.5	21.8	0.00e+00	0	41	0	384827392	55	3835
2026-01-30 01:03:31.15	24.18	15.12	-41.6	-42.5	21.8	0.00e+00	0	41	0	387973120	55	3832
2026-01-30 01:03:32.17	24.16	15.23	-41.5	-42.4	21.9	0.00e+00	0	41	0	391118848	55	3782
2026-01-30 01:03:33.17	24.14	15.33	-41.6	-42.5	21.8	0.00e+00	0	42	0	394264576	55	3825
2026-01-30 01:03:34.18	24.12	15.44	-41.6	-42.5	21.8	0.00e+00	0	41	0	397410304	55	3833
2026-01-30 01:03:35.18	24.10	15.55	-41.7	-42.6	21.7	0.00e+00	0	41	0	400556032	55	3873
2026-01-30 01:03:36.19	24.08	15.66	-41.6	-42.4	21.8	0.00e+00	0	41	0	403701760	55	3814
2026-01-30 01:03:37.20	24.07	15.77	-41.6	-42.5	21.8	0.00e+00	0	41	0	406847488	55	3827
2026-01-30 01:03:38.20	24.05	15.88	-41.7	-42.5	21.7	0.00e+00	0	41	0	409993216	55	3866
2026-01-30 01:03:39.20	24.03	15.99	-41.7	-42.5	21.7	0.00e+00	0	41	0	413138944	55	3858
2026-01-30 01:03:40.20	24.01	16.10	-41.7	-42.6	21.7	0.00e+00	0	41	0	416284672	55	3876
2026-01-30 01:03:41.21	23.99	16.21	-41.8	-42.6	21.7	0.00e+00	0	41	0	419430400	55	3904
2026-01-30 01:03:42.22	23.97	16.32	-41.7	-42.5	21.8	0.00e+00	0	41	0	422576128	55	3846
2026-01-30 01:03:43.23	23.95	16.44	-41.7	-42.6	21.7	0.00e+00	0	41	0	425721856	55	3869
2026-01-30 01:03:44.24	23.93	16.55	-41.7	-42.5	21.8	0.00e+00	0	41	0	428867584	55	3858
2026-01-30 01:03:45.25	23.91	16.66	-41.8	-42.6	21.6	0.00e+00	0	41	0	432013312	55	3910
2026-01-30 01:03:46.25	23.89	16.78	-41.9	-42.8	21.6	0.00e+00	0	41	0	435159040	55	3963
2026-01-30 01:03:47.26	23.87	16.89	-41.8	-42.7	21.6	0.00e+00	0	41	0	438304768	55	3931
2026-01-30 01:03:48.27	23.84	17.01	-42.0	-42.9	21.5	0.00e+00	0	41	0	441450496	55	4009
2026-01-30 01:03:49.28	23.82	17.13	-41.9	-42.8	21.5	0.00e+00	0	41	0	444596224	55	3985
2026-01-30 01:03:50.29	23.80	17.24	-41.9	-42.8	21.5	0.00e+00	0	41	0	447741952	55	3985
2026-01-30 01:03:51.29	23.78	17.36	-41.9	-42.8	21.5	0.00e+00	0	41	0	450887680	55	3984
2026-01-30 01:03:52.30	23.76	17.48	-42.0	-42.9	21.5	0.00e+00	0	41	0	454033408	55	4007
2026-01-30 01:03:53.31	23.74	17.59	-42.1	-42.9	21.4	0.00e+00	0	41	0	457179136	55	4047
2026-01-30 01:03:54.31	23.71	17.71	-42.2	-43.1	21.3	0.00e+00	0	41	0	460324864	55	4104
2026-01-30 01:03:55.32	23.69	17.83	-42.2	-43.1	21.3	0.00e+00	0	42	0	463470592	55	4106
2026-01-30 01:03:56.33	23.67	17.95	-42.3	-43.2	21.3	0.00e+00	0	41	0	466616320	55	4152
2026-01-30 01:03:57.33	23.65	18.07	-42.1	-42.9	21.4	0.00e+00	0	41	0	469762048	55	4048
2026-01-30 01:03:58.34	23.62	18.19	-42.1	-43.0	21.3	0.00e+00	0	41	0	472907776	55	4088
2026-01-30 01:03:59.35	23.60	18.31	-42.2	-43.0	21.4	0.00e+00	0	42	0	476053504	55	4098
2026-01-30 01:04:00.36	23.58	18.44	-42.1	-43.0	21.5	0.00e+00	0	41	0	479199232	55	4052
2026-01-30 01:04:01.37	23.55	18.56	-42.1	-42.9	21.4	0.00e+00	0	41	0	482344960	55	4047
2026-01-30 01:04:02.37	23.53	18.68	-42.1	-43.0	21.4	0.00e+00	0	41	0	485490688	55	4066
2026-01-30 01:04:03.38	23.50	18.81	-42.1	-42.9	21.5	0.00e+00	0	41	0	488636416	55	4044
2026-01-30 01:04:04.38	23.48	18.93	-42.1	-43.0	21.4	0.00e+00	0	41	0	491782144	55	4053
2026-01-30 01:04:05.39	23.45	19.06	-42.0	-42.9	21.5	0.00e+00	0	41	0	494927872	55	4028
2026-01-30 01:04:06.40	23.43	19.18	-42.1	-42.9	21.5	0.00e+00	0	41	0	498073600	55	4043
2026-01-30 01:04:07.41	23.40	19.31	-41.9	-42.8	21.6	0.00e+00	0	41	0	501219328	55	3978
2026-01-30 01:04:08.41	23.38	19.44	-42.1	-42.9	21.5	0.00e+00	0	41	0	504365056	55	4042
2026-01-30 01:04:09.42	23.35	19.56	-42.0	-42.9	21.6	0.00e+00	0	41	0	507510784	55	4005
2026-01-30 01:04:10.43	23.33	19.69	-41.8	-42.7	21.7	0.00e+00	0	41	0	510656512	55	3915
2026-01-30 01:04:11.44	23.30	19.82	-41.8	-42.6	21.8	0.00e+00	0	41	0	513802240	55	3900
2026-01-30 01:04:12.44	23.28	19.95	-41.9	-42.8	21.7	0.00e+00	0	41	0	516947968	55	3966
2026-01-30 01:04:13.44	23.25	20.08	-41.7	-42.5	21.9	0.00e+00	0	41	0	520093696	55	3867
2026-01-30 01:04:14.45	23.22	20.21	-41.7	-42.5	21.9	0.00e+00	0	41	0	523239424	55	3849
2026-01-30 01:04:15.46	23.19	20.34	-41.6	-42.5	21.9	0.00e+00	0	41	0	526385152	55	3828
2026-01-30 01:04:16.47	23.17	20.48	-41.5	-42.4	22.0	0.00e+00	0	41	0	529530880	55	3792
2026-01-30 01:04:17.48	23.14	20.61	-41.6	-42.5	21.9	0.00e+00	0	41	0	532676608	55	3833
2026-01-30 01:04:18.48	23.11	20.74	-41.6	-42.4	22.0	0.00e+00	0	41	0	535822336	55	3821
2026-01-30 01:04:19.49	23.08	20.88	-41.5	-42.3	22.1	0.00e+00	0	41	0	538968064	55	3749
2026-01-30 01:04:20.50	23.05	21.01	-41.3	-42.1	22.2	0.00e+00	0	41	0	542113792	54	3904
2026-01-30 01:04:21.51	23.03	21.15	-41.4	-42.2	22.2	0.00e+00	0	41	0	545259520	54	3916
2026-01-30 01:04:22.51	23.00	21.29	-41.2	-42.0	22.4	0.00e+00	0	41	0	548405248	54	3851
2026-01-30 01:04:23.52	22.97	21.42	-41.2	-42.0	22.4	0.00e+00	0	41	0	551550976	54	3828
2026-01-30 01:04:24.53	22.94	21.56	-41.0	-41.8	22.5	0.00e+00	0	41	0	554696704	54	3749
2026-01-30 01:04:25.53	22.91	21.70	-40.9	-41.7	22.6	0.00e+00	0	41	0	557842432	53	3916
2026-01-30 01:04:26.54	22.88	21.84	-40.9	-41.6	22.6	0.00e+00	0	41	0	560988160	53	3913
2026-01-30 01:04:27.54	22.85	21.98	-40.8	-41.5	22.7	0.00e+00	0	41	0	564133888	53	3861
2026-01-30 01:04:28.55	22.81	22.12	-40.7	-41.5	22.7	0.00e+00	0	42	0	567279616	53	3838
2026-01-30 01:04:29.55	22.78	22.26	-40.7	-41.5	22.7	0.00e+00	0	41	0	570425344	53	3843
2026-01-30 01:04:30.56	22.75	22.41	-40.7	-41.5	22.7	0.00e+00	0	41	0	573571072	53	3848
2026-01-30 01:04:31.57	22.72	22.55	-40.7	-41.4	22.8	0.00e+00	0	41	0	576716800	53	3822
2026-01-30 01:04:32.57	22.69	22.69	-40.6	-41.3	22.9	0.00e+00	0	41	0	579862528	53	3758
2026-01-30 01:04:33.58	22.66	22.84	-40.5	-41.2	22.9	0.00e+00	0	41	0	583008256	53	3737
2026-01-30 01:04:34.59	22.62	22.99	-40.3	-41.0	23.1	0.00e+00	0	41	0	586153984	52	3851
2026-01-30 01:04:35.60	22.59	23.13	-40.3	-41.0	23.0	0.00e+00	0	41	0	589299712	52	3867
2026-01-30 01:04:36.61	22.55	23.28	-40.3	-41.0	23.1	0.00e+00	0	41	0	592445440	52	3850
2026-01-30 01:04:37.61	22.52	23.43	-40.2	-40.9	23.1	0.00e+00	0	41	0	595591168	52	3824
2026-01-30 01:04:38.62	22.49	23.58	-40.2	-41.0	23.1	0.00e+00	0	41	0	598736896	52	3829
2026-01-30 01:04:39.63	22.45	23.73	-40.3	-41.0	23.1	0.00e+00	0	41	0	601882624	52	3848
2026-01-30 01:04:40.63	22.42	23.88	-40.3	-41.1	23.0	0.00e+00	0	42	0	605028352	52	3886
2026-01-30 01:04:41.64	22.38	24.03	-40.4	-41.1	23.0	0.00e+00	0	41	0	608174080	52	3909
2026-01-30 01:04:42.65	22.34	24.18	-40.3	-41.0	23.1	0.00e+00	0	41	0	611319808	52	3857
2026-01-30 01:04:43.66	22.31	24.34	-40.3	-41.1	23.1	0.00e+00	0	41	0	614465536	52	3882
2026-01-30 01:04:44.66	22.27	24.49	-40.5	-41.3	22.9	0.00e+00	0	41	0	617611264	52	3968
2026-01-30 01:04:45.67	22.23	24.65	-40.5	-41.2	23.0	0.00e+00	0	41	0	620756992	52	3944
2026-01-30 01:04:46.68	22.20	24.80	-40.4	-41.2	23.0	0.00e+00	0	42	0	623902720	52	3933
2026-01-30 01:04:47.69	22.16	24.96	-40.5	-41.2	23.0	0.00e+00	0	41	0	627048448	52	3956
2026-01-30 01:04:48.69	22.12	25.12	-40.6	-41.3	22.9	0.00e+00	0	41	0	630194176	52	3990
2026-01-30 01:04:49.70	22.08	25.28	-40.6	-41.4	22.9	0.00e+00	0	41	0	633339904	52	4029
2026-01-30 01:04:50.70	22.04	25.44	-40.8	-41.6	22.8	0.00e+00	0	41	0	636485632	52	4101
2026-01-30 01:04:51.71	22.00	25.60	-40.7	-41.5	22.8	0.00e+00	0	41	0	639631360	52	4072
2026-01-30 01:04:52.73	21.96	25.76	-40.9	-41.7	22.7	0.00e+00	0	41	0	642777088	52	4165
2026-01-30 01:04:53.73	21.92	25.93	-41.0	-41.8	22.6	0.00e+00	0	41	0	645922816	52	4227
2026-01-30 01:04:54.74	21.88	26.09	-41.2	-42.0	22.5	0.00e+00	0	41	0	649068544	52	4292
2026-01-30 01:04:55.75	21.84	26.26	-41.4	-42.2	22.3	0.00e+00	0	41	0	652214272	53	4169
2026-01-30 01:04:56.75	21.80	26.42	-41.5	-42.3	22.3	0.00e+00	0	41	0	655360000	53	4204
2026-01-30 01:04:57.76	21.76	26.59	-41.6	-42.4	22.2	0.00e+00	0	41	0	658505728	53	4248
2026-01-30 01:04:58.77	21.71	26.76	-41.7	-42.6	22.1	0.00e+00	0	41	0	661651456	53	4341
2026-01-30 01:04:59.78	21.67	26.93	-41.8	-42.7	21.9	0.00e+00	0	41	0	664797184	54	4147
2026-01-30 01:05:00.79	21.62	27.10	-41.9	-42.8	21.9	0.00e+00	0	41	0	667942912	54	4194
2026-01-30 01:05:01.79	21.58	27.27	-42.0	-42.8	21.8	0.00e+00	0	41	0	671088640	54	4242
2026-01-30 01:05:02.80	21.53	27.44	-42.0	-42.9	21.7	0.00e+00	0	41	0	674234368	54	4264
2026-01-30 01:05:03.80	21.49	27.61	-42.1	-42.9	21.7	0.00e+00	0	41	0	677380096	54	4282
2026-01-30 01:05:04.81	21.44	27.79	-42.1	-43.0	21.6	0.00e+00	0	41	0	680525824	54	4299
2026-01-30 01:05:05.81	21.40	27.96	-42.2	-43.0	21.6	0.00e+00	0	41	0	683671552	54	4321
2026-01-30 01:05:06.82	21.35	28.14	-42.2	-43.0	21.5	0.00e+00	0	41	0	686817280	54	4336
2026-01-30 01:05:07.83	21.30	28.32	-42.3	-43.1	21.4	0.00e+00	0	41	0	689963008	55	4126
2026-01-30 01:05:08.84	21.25	28.50	-42.2	-43.0	21.5	0.00e+00	0	41	0	693108736	55	4085
2026-01-30 01:05:09.85	21.20	28.68	-42.3	-43.1	21.4	0.00e+00	0	41	0	696254464	55	4127
2026-01-30 01:05:10.86	21.15	28.86	-42.3	-43.1	21.4	0.00e+00	0	41	0	699400192	55	4129
2026-01-30 01:05:11.87	21.10	29.04	-42.3	-43.2	21.3	0.00e+00	0	41	0	702545920	55	4154
2026-01-30 01:05:12.88	21.05	29.22	-42.3	-43.1	21.3	0.00e+00	0	41	0	705691648	55	4145
2026-01-30 01:05:13.89	21.00	29.41	-42.2	-43.1	21.3	0.00e+00	0	41	0	708837376	55	4125
2026-01-30 01:05:14.90	20.95	29.60	-42.3	-43.1	21.2	0.00e+00	0	41	0	711983104	55	4130
2026-01-30 01:05:15.91	20.90	29.78	-42.2	-43.1	21.2	0.00e+00	0	41	0	715128832	55	4126
2026-01-30 01:05:16.91	20.84	29.97	-42.1	-43.0	21.3	0.00e+00	0	41	0	718274560	55	4064
2026-01-30 01:05:17.92	20.79	30.16	-42.1	-42.9	21.4	0.00e+00	0	41	0	721420288	55	4045
2026-01-30 01:05:18.93	20.73	30.35	-41.9	-42.8	21.6	0.00e+00	0	41	0	724566016	55	3974
2026-01-30 01:05:19.94	20.68	30.54	-42.0	-42.9	21.5	0.00e+00	0	41	0	727711744	55	4010
2026-01-30 01:05:20.94	20.62	30.74	-41.8	-42.7	21.8	0.00e+00	0	41	0	730857472	55	3915
2026-01-30 01:05:21.94	20.57	30.93	-41.8	-42.6	21.9	0.00e+00	0	41	0	734003200	55	3897
2026-01-30 01:05:22.95	20.51	31.12	-41.8	-42.6	21.9	0.00e+00	0	41	0	737148928	55	3894
2026-01-30 01:05:23.95	20.45	31.32	-41.7	-42.5	22.0	0.00e+00	0	41	0	740294656	55	3855
2026-01-30 01:05:24.96	20.39	31.52	-41.6	-42.5	22.1	0.00e+00	0	42	0	743440384	55	3825
2026-01-30 01:05:25.97	20.33	31.72	-41.5	-42.4	22.2	0.00e+00	0	42	0	746586112	55	3782
2026-01-30 01:05:26.98	20.27	31.92	-41.4	-42.2	22.3	0.00e+00	0	42	0	749731840	54	3924
2026-01-30 01:05:27.99	20.21	32.12	-41.4	-42.2	22.4	0.00e+00	0	41	0	752877568	54	3937
2026-01-30 01:05:29.00	20.15	32.33	-41.4	-42.2	22.4	0.00e+00	0	41	0	756023296	54	3915
2026-01-30 01:05:30.01	20.08	32.53	-41.2	-42.0	22.5	0.00e+00	0	41	0	759169024	54	3855
2026-01-30 01:05:31.02	20.02	32.74	-41.4	-42.2	22.4	0.00e+00	0	41	0	762314752	54	3914
2026-01-30 01:05:32.03	19.95	32.95	-41.4	-42.2	22.4	0.00e+00	0	41	0	765460480	54	3946
2026-01-30 01:05:33.04	19.89	33.16	-41.4	-42.2	22.4	0.00e+00	0	41	0	768606208	54	3948
2026-01-30 01:05:34.04	19.82	33.37	-41.6	-42.4	22.2	0.00e+00	0	41	0	771751936	54	4051
2026-01-30 01:05:35.05	19.75	33.58	-41.9	-42.7	22.0	0.00e+00	0	41	0	774897664	54	4174
2026-01-30 01:05:36.05	19.69	33.79	-41.9	-42.7	22.0	0.00e+00	0	42	0	778043392	54	4157
2026-01-30 01:05:37.06	19.62	34.01	-42.0	-42.8	21.9	0.00e+00	0	41	0	781189120	54	4231
2026-01-30 01:05:38.07	19.55	34.22	-42.1	-43.0	21.8	0.00e+00	0	41	0	784334848	54	4304
2026-01-30 01:05:39.08	19.47	34.44	-42.4	-43.2	21.6	0.00e+00	0	41	0	787480576	55	4174
2026-01-30 01:05:40.09	19.40	34.66	-42.2	-43.0	21.7	0.00e+00	0	41	0	790626304	55	4077
2026-01-30 01:05:41.09	19.33	34.88	-42.2	-43.1	21.8	0.00e+00	0	41	0	793772032	55	4103
2026-01-30 01:05:42.10	19.25	35.10	-42.3	-43.1	21.7	0.00e+00	0	41	0	796917760	55	4142
2026-01-30 01:05:43.10	19.18	35.33	-42.4	-43.2	21.6	0.00e+00	0	42	0	800063488	55	4185
2026-01-30 01:05:44.10	19.10	35.55	-42.4	-43.2	21.6	0.00e+00	0	41	0	803209216	55	4178
2026-01-30 01:05:45.11	19.02	35.78	-42.4	-43.2	21.7	0.00e+00	0	41	0	806354944	55	4165
2026-01-30 01:05:46.12	18.95	36.01	-42.6	-43.4	21.4	0.00e+00	0	41	0	809500672	55	4285
2026-01-30 01:05:47.12	18.87	36.23	-42.8	-43.6	21.4	0.00e+00	0	41	0	812646400	56	4144
2026-01-30 01:05:48.13	18.78	36.47	-42.9	-43.8	21.2	0.00e+00	0	41	0	815792128	56	4222
2026-01-30 01:05:49.14	18.70	36.70	-42.9	-43.8	21.2	0.00e+00	0	42	0	818937856	56	4213
2026-01-30 01:05:50.15	18.62	36.93	-43.1	-43.9	21.0	0.00e+00	0	41	0	822083584	56	4285
2026-01-30 01:05:51.16	18.53	37.17	-43.0	-43.9	21.1	0.00e+00	0	41	0	825229312	56	4253
2026-01-30 01:05:52.16	18.45	37.41	-42.9	-43.8	21.2	0.00e+00	0	41	0	828375040	56	4197
2026-01-30 01:05:53.17	18.36	37.65	-43.1	-44.0	21.0	0.00e+00	0	41	0	831520768	56	4292
2026-01-30 01:05:54.18	18.27	37.89	-43.1	-43.9	21.0	0.00e+00	0	41	0	834666496	56	4280
2026-01-30 01:05:55.18	18.18	38.13	-43.1	-44.0	21.0	0.00e+00	0	41	0	837812224	56	4303
2026-01-30 01:05:56.19	18.09	38.38	-43.3	-44.2	20.8	0.00e+00	0	41	0	840957952	57	4146
2026-01-30 01:05:57.20	17.99	38.62	-43.2	-44.1	20.9	0.00e+00	0	41	0	844103680	57	4131
2026-01-30 01:05:58.20	17.90	38.87	-43.5	-44.4	20.7	0.00e+00	0	41	0	847249408	57	4268
2026-01-30 01:05:59.21	17.80	39.12	-43.6	-44.5	20.6	0.00e+00	0	41	0	850395136	57	4319
2026-01-30 01:06:00.22	17.70	39.37	-43.5	-44.5	20.7	0.00e+00	0	41	0	853540864	57	4296
2026-01-30 01:06:01.23	17.60	39.63	-43.4	-44.3	20.8	0.00e+00	0	41	0	856686592	57	4218
2026-01-30 01:06:02.23	17.50	39.88	-43.4	-44.3	20.9	0.00e+00	0	41	0	859832320	57	4199
2026-01-30 01:06:03.24	17.40	40.14	-43.3	-44.2	21.0	0.00e+00	0	41	0	862978048	57	4180
2026-01-30 01:06:04.25	17.30	40.40	-43.4	-44.3	20.8	0.00e+00	0	41	0	866123776	57	4208
2026-01-30 01:06:05.26	17.19	40.66	-43.0	-43.9	21.2	0.00e+00	0	42	0	869269504	57	4028
2026-01-30 01:06:06.26	17.08	40.92	-43.1	-44.0	21.1	0.00e+00	0	41	0	872415232	57	4067
2026-01-30 01:06:07.27	16.97	41.18	-43.3	-44.2	21.0	0.00e+00	0	41	0	875560960	57	4156
2026-01-30 01:06:08.28	16.86	41.45	-43.4	-44.3	20.9	0.00e+00	0	42	0	878706688	57	4204
2026-01-30 01:06:09.29	16.74	41.72	-43.5	-44.4	20.7	0.00e+00	0	41	0	881852416	57	4290
2026-01-30 01:06:10.29	16.63	41.98	-43.7	-44.7	20.6	0.00e+00	0	41	0	884998144	58	4163
2026-01-30 01:06:11.30	16.51	42.25	-44.0	-44.9	20.3	0.00e+00	0	41	0	888143872	58	4280
2026-01-30 01:06:12.31	16.39	42.53	-44.1	-45.1	20.2	0.00e+00	0	41	0	891289600	58	4347
2026-01-30 01:06:13.31	16.27	42.80	-44.1	-45.1	20.1	0.00e+00	0	41	0	894435328	58	4387
2026-01-30 01:06:14.32	16.15	43.08	-44.1	-45.1	20.1	0.00e+00	0	41	0	897581056	58	4383
2026-01-30 01:06:15.32	16.02	43.35	-44.1	-45.1	20.2	0.00e+00	0	41	0	900726784	58	4350
2026-01-30 01:06:16.33	15.89	43.64	-44.0	-45.0	20.3	0.00e+00	0	41	0	903872512	58	4322
2026-01-30 01:06:17.34	15.76	43.92	-44.1	-45.1	20.2	0.00e+00	0	41	0	907018240	58	4358
2026-01-30 01:06:18.35	15.63	44.20	-44.1	-45.1	20.2	0.00e+00	0	41	0	910163968	58	4378
2026-01-30 01:06:19.36	15.49	44.49	-44.3	-45.3	19.9	0.00e+00	0	41	0	913309696	59	4218
2026-01-30 01:06:20.36	15.35	44.78	-44.5	-45.6	19.8	0.00e+00	0	41	0	916455424	59	4352
2026-01-30 01:06:21.37	15.21	45.07	-44.6	-45.7	19.7	0.00e+00	0	41	0	919601152	59	4426
2026-01-30 01:06:22.38	15.07	45.36	-44.4	-45.4	19.7	0.00e+00	0	41	0	922746880	60	4036
2026-01-30 01:06:23.39	14.92	45.65	-44.5	-45.6	19.5	0.00e+00	0	41	0	925892608	60	4100
2026-01-30 01:06:24.39	14.77	45.95	-44.7	-45.8	19.3	0.00e+00	0	41	0	929038336	60	4216
2026-01-30 01:06:25.40	14.62	46.25	-44.8	-45.9	19.2	0.00e+00	0	41	0	932184064	60	4261
2026-01-30 01:06:26.40	14.47	46.54	-44.7	-45.8	19.3	0.00e+00	0	41	0	935329792	60	4237
2026-01-30 01:06:27.41	14.31	46.85	-44.6	-45.7	19.4	0.00e+00	0	41	0	938475520	60	4161
2026-01-30 01:06:28.41	14.15	47.15	-44.3	-45.3	19.6	0.00e+00	0	41	0	941621248	60	3998
2026-01-30 01:06:29.43	13.98	47.46	-44.3	-45.3	20.0	0.00e+00	0	41	0	944766976	59	4203
2026-01-30 01:06:30.43	13.81	47.76	-44.1	-45.1	20.2	0.00e+00	0	41	0	947912704	59	4115
2026-01-30 01:06:31.43	13.64	48.07	-43.9	-44.9	20.3	0.00e+00	0	41	0	951058432	59	4032
2026-01-30 01:06:32.44	13.47	48.38	-43.8	-44.7	20.5	0.00e+00	0	41	0	954204160	59	3949
2026-01-30 01:06:33.45	13.29	48.70	-43.9	-44.9	20.4	0.00e+00	0	41	0	957349888	59	4010
2026-01-30 01:06:34.46	13.11	49.01	-44.0	-45.0	20.3	0.00e+00	0	41	0	960495616	59	4094
2026-01-30 01:06:35.47	12.92	49.33	-44.1	-45.1	20.3	0.00e+00	0	41	0	963641344	59	4119
2026-01-30 01:06:36.48	12.73	49.65	-44.1	-45.2	20.1	0.00e+00	0	41	0	966787072	59	4146
2026-01-30 01:06:37.49	12.53	49.97	-43.9	-44.9	20.4	0.00e+00	0	41	0	969932800	59	4022
2026-01-30 01:06:38.50	12.33	50.30	-43.9	-44.8	20.4	0.00e+00	0	41	0	973078528	59	3998
2026-01-30 01:06:39.51	12.13	50.62	-43.6	-44.6	20.7	0.00e+00	0	41	0	976224256	59	3885
2026-01-30 01:06:40.52	11.92	50.95	-43.3	-44.2	21.1	0.00e+00	0	41	0	979369984	58	3951
2026-01-30 01:06:41.53	11.71	51.28	-43.4	-44.3	21.0	0.00e+00	0	41	0	982515712	58	3977
2026-01-30 01:06:42.54	11.49	51.61	-43.6	-44.5	20.8	0.00e+00	0	41	0	985661440	58	4076
2026-01-30 01:06:43.55	11.27	51.94	-43.7	-44.6	20.7	0.00e+00	0	41	0	988807168	58	4135
2026-01-30 01:06:44.56	11.04	52.28	-43.6	-44.5	20.8	0.00e+00	0	41	0	991952896	58	4081
2026-01-30 01:06:45.57	10.81	52.61	-43.3	-44.2	21.1	0.00e+00	0	42	0	995098624	58	3950
2026-01-30 01:06:46.58	10.57	52.95	-43.2	-44.1	21.1	0.00e+00	0	41	0	998244352	58	3899
2026-01-30 01:06:47.58	10.33	53.29	-43.1	-44.0	21.1	0.00e+00	0	41	0	1001390080	58	3863
2026-01-30 01:06:48.59	10.08	53.63	-43.0	-43.9	21.4	0.00e+00	0	41	0	1004535808	57	4006
2026-01-30 01:06:49.60	9.82	53.98	-42.8	-43.7	21.6	0.00e+00	0	41	0	1007681536	57	3931
2026-01-30 01:06:50.60	9.56	54.32	-42.6	-43.4	21.8	0.00e+00	0	41	0	1010827264	57	3815
2026-01-30 01:06:51.61	9.29	54.67	-42.7	-43.5	21.7	0.00e+00	0	41	0	1013972992	57	3851
2026-01-30 01:06:52.62	9.02	55.02	-42.6	-43.5	21.8	0.00e+00	0	41	0	1017118720	57	3839
2026-01-30 01:06:53.63	8.73	55.37	-42.6	-43.5	21.7	0.00e+00	0	41	0	1020264448	57	3843
2026-01-30 01:06:54.63	8.45	55.71	-42.7	-43.6	21.7	0.00e+00	0	42	0	1023410176	57	3883
2026-01-30 01:06:55.63	8.15	56.06	-42.4	-43.2	22.0	0.00e+00	0	41	0	1026555904	56	3937
2026-01-30 01:06:56.64	7.85	56.42	-42.3	-43.1	22.1	0.00e+00	0	41	0	1029701632	56	3894
2026-01-30 01:06:57.65	7.53	56.78	-41.9	-42.7	22.3	0.00e+00	0	41	0	1032847360	55	3934
2026-01-30 01:06:58.66	7.21	57.13	-41.5	-42.3	22.7	0.00e+00	0	41	0	1035993088	55	3752
2026-01-30 01:06:59.66	6.88	57.49	-41.4	-42.2	22.7	0.00e+00	0	41	0	1039138816	54	3921
2026-01-30 01:07:00.67	6.55	57.85	-41.4	-42.1	22.6	0.00e+00	0	41	0	1042284544	54	3903
2026-01-30 01:07:01.67	6.20	58.21	-41.5	-42.3	22.3	0.00e+00	0	41	0	1045430272	54	3982
2026-01-30 01:07:02.68	5.84	58.57	-41.5	-42.3	22.5	0.00e+00	0	41	0	1048576000	54	3969
2026-01-30 01:07:03.69	5.47	58.94	-41.4	-42.2	22.7	0.00e+00	0	41	0	1051721728	54	3930
2026-01-30 01:07:04.70	5.10	59.30	-41.5	-42.3	22.7	0.00e+00	0	41	0	1054867456	54	3972
2026-01-30 01:07:05.71	4.71	59.67	-41.3	-42.1	22.8	0.00e+00	0	41	0	1058013184	54	3895
2026-01-30 01:07:06.72	4.31	60.04	-41.4	-42.1	22.8	0.00e+00	0	41	0	1061158912	54	3906
2026-01-30 01:07:07.72	3.90	60.40	-41.2	-41.9	23.0	0.00e+00	0	41	0	1064304640	54	3815
2026-01-30 01:07:08.73	3.47	60.77	-41.4	-42.2	22.9	0.00e+00	0	41	0	1067450368	54	3914
2026-01-30 01:07:09.74	3.04	61.14	-41.5	-42.3	22.8	0.00e+00	0	41	0	1070596096	54	3995
2026-01-30 01:07:10.75	2.59	61.51	-41.6	-42.4	22.6	0.00e+00	0	41	0	1073741824	54	4013
2026-01-30 01:07:11.75	2.13	61.88	-41.5	-42.3	22.7	0.00e+00	0	41	0	1076887552	54	3971
2026-01-30 01:07:12.76	1.65	62.25	-41.3	-42.0	23.0	0.00e+00	0	41	0	1080033280	54	3857
2026-01-30 01:07:13.77	1.15	62.62	-40.8	-41.6	23.4	0.00e+00	0	41	0	1083179008	53	3871
2026-01-30 01:07:14.77	0.65	62.99	-40.6	-41.3	23.5	0.00e+00	0	41	0	1086324736	53	3776
2026-01-30 01:07:15.78	0.12	63.36	-40.6	-41.3	23.6	0.00e+00	0	41	0	1089470464	53	3742
2026-01-30 01:07:16.78	359.59	63.73	-40.5	-41.2	23.5	0.00e+00	0	41	0	1092616192	52	3934
2026-01-30 01:07:17.79	359.03	64.10	-40.7	-41.5	23.3	0.00e+00	0	41	0	1095761920	52	4069
2026-01-30 01:07:18.79	358.46	64.47	-40.6	-41.4	23.5	0.00e+00	0	41	0	1098907648	52	4017
2026-01-30 01:07:19.80	357.86	64.84	-40.7	-41.5	23.4	0.00e+00	0	41	0	1102053376	52	4054
2026-01-30 01:07:20.81	357.24	65.21	-40.7	-41.4	23.5	0.00e+00	0	41	0	1105199104	52	4022
2026-01-30 01:07:21.82	356.61	65.57	-40.8	-41.5	23.4	0.00e+00	0	41	0	1108344832	52	4072
2026-01-30 01:07:22.83	355.95	65.94	-40.8	-41.6	23.3	0.00e+00	0	41	0	1111490560	52	4110
2026-01-30 01:07:23.83	355.27	66.30	-40.8	-41.6	23.3	0.00e+00	0	41	0	1114636288	52	4120
2026-01-30 01:07:24.84	354.57	66.67	-40.4	-41.1	23.7	0.00e+00	0	41	0	1117782016	52	3893
2026-01-30 01:07:25.85	353.84	67.03	-40.2	-40.8	23.9	0.00e+00	0	41	0	1120927744	52	3780
2026-01-30 01:07:26.85	353.09	67.39	-40.3	-41.0	23.8	0.00e+00	0	41	0	1124073472	52	3835
2026-01-30 01:07:27.86	352.31	67.75	-40.4	-41.1	23.8	0.00e+00	0	41	0	1127219200	52	3886
2026-01-30 01:07:28.87	351.49	68.10	-40.2	-40.9	23.9	0.00e+00	0	41	0	1130364928	52	3814
2026-01-30 01:07:29.87	350.66	68.45	-39.8	-40.5	24.3	0.00e+00	0	41	0	1133510656	51	3841
2026-01-30 01:07:30.88	349.79	68.80	-40.1	-40.8	24.1	0.00e+00	0	41	0	1136656384	51	3985
2026-01-30 01:07:31.89	348.89	69.15	-40.4	-41.1	23.9	0.00e+00	0	41	0	1139802112	51	4120
2026-01-30 01:07:32.90	347.96	69.49	-40.4	-41.1	23.9	0.00e+00	0	41	0	1142947840	51	4116
2026-01-30 01:07:33.91	346.99	69.83	-40.3	-41.0	24.1	0.00e+00	0	41	0	1146093568	51	4057
2026-01-30 01:07:34.92	345.99	70.17	-40.4	-41.1	23.8	0.00e+00	0	41	0	1150287872	51	4122
2026-01-30 01:07:35.93	344.95	70.50	-40.9	-41.6	23.5	0.00e+00	0	41	0	1153433600	52	4117
2026-01-30 01:07:36.93	343.88	70.82	-40.8	-41.6	23.5	0.00e+00	0	41	0	1155530752	52	4103
2026-01-30 01:07:37.93	342.77	71.13	-40.8	-41.5	23.5	0.00e+00	0	41	0	1158676480	52	4091
2026-01-30 01:07:38.94	341.62	71.45	-40.6	-41.3	23.5	0.00e+00	0	41	0	1161822208	52	4001
2026-01-30 01:07:39.94	340.43	71.75	-40.7	-41.4	23.6	0.00e+00	0	41	0	1164967936	52	4017
2026-01-30 01:07:40.94	339.20	72.05	-40.5	-41.2	23.8	0.00e+00	0	41	0	1168113664	52	3942
2026-01-30 01:07:41.95	337.91	72.34	-40.5	-41.2	23.8	0.00e+00	0	41	0	1171259392	52	3928
2026-01-30 01:07:42.96	336.58	72.62	-40.0	-40.7	24.1	0.00e+00	0	41	0	1174405120	52	3723
2026-01-30 01:07:43.96	335.22	72.90	-39.9	-40.5	24.2	0.00e+00	0	41	0	1177550848	51	3864
2026-01-30 01:07:44.97	333.80	73.16	-39.9	-40.6	24.3	0.00e+00	0	41	0	1180696576	51	3876
2026-01-30 01:07:45.98	332.33	73.42	-40.2	-40.9	24.1	0.00e+00	0	41	0	1183842304	51	4039
2026-01-30 01:07:46.99	330.81	73.67	-40.6	-41.3	23.8	0.00e+00	0	41	0	1186988032	51	4222
2026-01-30 01:07:47.99	329.26	73.90	-40.6	-41.3	23.2	0.00e+00	0	41	0	1190133760	52	4002
2026-01-30 01:07:49.00	327.64	74.12	-40.7	-41.4	23.2	0.00e+00	0	41	0	1193279488	52	4044
2026-01-30 01:07:50.01	325.98	74.34	-40.9	-41.6	23.4	0.00e+00	0	41	0	1196425216	52	4114
2026-01-30 01:07:51.01	324.29	74.53	-40.6	-41.3	23.6	0.00e+00	0	41	0	1199570944	52	3970
2026-01-30 01:07:52.02	322.54	74.72	-40.6	-41.3	23.6	0.00e+00	0	41	0	1202716672	52	3990
2026-01-30 01:07:53.03	320.75	74.89	-40.8	-41.5	23.5	0.00e+00	0	42	0	1205862400	52	4078
2026-01-30 01:07:54.04	318.91	75.05	-41.1	-41.9	23.1	0.00e+00	0	41	0	1209008128	52	4264
2026-01-30 01:07:55.05	317.03	75.20	-40.9	-41.6	23.2	0.00e+00	0	41	0	1212153856	52	4138
2026-01-30 01:07:56.05	315.14	75.32	-40.8	-41.5	23.4	0.00e+00	0	41	0	1215299584	52	4074
2026-01-30 01:07:57.05	313.22	75.43	-41.1	-41.8	23.1	0.00e+00	0	41	0	1218445312	52	4238
2026-01-30 01:07:58.06	311.25	75.53	-41.4	-42.2	22.9	0.00e+00	0	41	0	1221591040	53	4159
2026-01-30 01:07:59.07	309.25	75.61	-40.8	-41.6	23.5	0.00e+00	0	41	0	1224736768	53	3870
2026-01-30 01:08:00.07	307.25	75.67	-40.7	-41.4	23.5	0.00e+00	0	41	0	1227882496	53	3809
2026-01-30 01:08:01.07	305.24	75.71	-40.7	-41.4	23.6	0.00e+00	0	41	0	1231028224	53	3815
2026-01-30 01:08:02.08	303.19	75.74	-40.8	-41.6	23.4	0.00e+00	0	41	0	1234173952	53	3873
2026-01-30 01:08:03.09	301.14	75.75	-40.9	-41.6	23.4	0.00e+00	0	41	0	1237319680	53	3905
2026-01-30 01:08:04.10	299.09	75.74	-40.8	-41.6	23.5	0.00e+00	0	41	0	1240465408	53	3869
2026-01-30 01:08:05.11	297.05	75.72	-41.4	-42.2	22.9	0.00e+00	0	41	0	1243611136	53	4181
2026-01-30 01:08:06.11	295.03	75.67	-41.6	-42.5	22.8	0.00e+00	0	41	0	1246756864	53	4294
2026-01-30 01:08:07.12	293.01	75.61	-41.4	-42.2	23.0	0.00e+00	0	41	0	1249902592	53	4168
2026-01-30 01:08:08.13	291.01	75.54	-41.3	-42.1	22.9	0.00e+00	0	41	0	1253048320	53	4102
2026-01-30 01:08:09.14	289.04	75.44	-41.4	-42.2	23.0	0.00e+00	0	41	0	1256194048	53	4170
2026-01-30 01:08:10.15	287.09	75.33	-41.0	-41.7	23.3	0.00e+00	0	41	0	1259339776	53	3941
2026-01-30 01:08:11.15	285.20	75.21	-41.0	-41.7	23.4	0.00e+00	0	41	0	1262485504	53	3957
2026-01-30 01:08:12.16	283.32	75.06	-41.2	-42.0	23.2	0.00e+00	0	41	0	1265631232	53	4078
2026-01-30 01:08:13.16	281.50	74.91	-41.0	-41.7	23.2	0.00e+00	0	41	0	1268776960	53	3956
2026-01-30 01:08:14.17	279.70	74.74	-40.5	-41.3	23.7	0.00e+00	0	41	0	1271922688	53	3738
2026-01-30 01:08:15.18	277.94	74.55	-40.5	-41.2	23.8	0.00e+00	0	41	0	1275068416	52	3943
2026-01-30 01:08:16.19	276.23	74.35	-41.0	-41.8	23.3	0.00e+00	0	41	0	1278214144	52	4207
2026-01-30 01:08:17.19	274.58	74.14	-41.1	-41.8	23.1	0.00e+00	0	41	0	1281359872	52	4222
2026-01-30 01:08:18.20	272.96	73.92	-41.1	-41.8	23.0	0.00e+00	0	41	0	1284505600	52	4220
2026-01-30 01:08:19.21	271.39	73.68	-41.4	-42.1	22.9	0.00e+00	0	41	0	1287651328	53	4145
2026-01-30 01:08:20.21	269.88	73.44	-41.0	-41.8	23.2	0.00e+00	0	41	0	1290797056	53	3960
2026-01-30 01:08:21.22	268.41	73.18	-40.6	-41.3	23.6	0.00e+00	0	41	0	1294991360	53	3759
2026-01-30 01:08:22.23	266.98	72.92	-40.5	-41.2	23.7	0.00e+00	0	41	0	1297088512	53	3719
2026-01-30 01:08:23.24	265.60	72.64	-41.0	-41.7	23.4	0.00e+00	0	41	0	1300234240	52	4167
2026-01-30 01:08:24.24	264.28	72.36	-40.8	-41.5	23.5	0.00e+00	0	41	0	1303379968	52	4062
2026-01-30 01:08:25.25	262.99	72.07	-40.3	-41.0	23.8	0.00e+00	0	41	0	1306525696	52	3856
2026-01-30 01:08:26.26	261.74	71.77	-40.0	-40.7	24.1	0.00e+00	0	41	0	1309671424	51	3932
2026-01-30 01:08:27.27	260.54	71.46	-40.4	-41.1	23.8	0.00e+00	0	41	0	1312817152	51	4124
2026-01-30 01:08:28.27	259.39	71.15	-40.5	-41.2	23.7	0.00e+00	0	41	0	1315962880	52	3955
2026-01-30 01:08:29.28	258.27	70.83	-40.5	-41.2	23.8	0.00e+00	0	41	0	1319108608	52	3921
2026-01-30 01:08:30.29	257.18	70.51	-40.8	-41.5	23.6	0.00e+00	0	41	0	1322254336	52	4068
2026-01-30 01:08:31.30	256.14	70.18	-41.5	-42.3	22.9	0.00e+00	0	41	0	1325400064	53	4199
2026-01-30 01:08:32.30	255.15	69.85	-41.4	-42.1	23.0	0.00e+00	0	41	0	1328545792	54	3897
2026-01-30 01:08:33.30	254.18	69.51	-40.6	-41.3	23.5	0.00e+00	0	41	0	1331691520	53	3765
2026-01-30 01:08:34.31	253.25	69.17	-40.6	-41.3	23.6	0.00e+00	0	41	0	1334837248	52	4000
2026-01-30 01:08:35.32	252.34	68.82	-41.0	-41.8	23.3	0.00e+00	0	41	0	1339031552	52	4197
2026-01-30 01:08:36.33	251.47	68.47	-41.1	-41.8	23.3	0.00e+00	0	41	0	1342177280	52	4232
2026-01-30 01:08:37.33	250.64	68.12	-40.7	-41.5	23.4	0.00e+00	0	41	0	1344274432	52	4060
2026-01-30 01:08:38.34	249.82	67.76	-40.9	-41.6	23.1	0.00e+00	0	41	0	1347420160	52	4108
2026-01-30 01:08:39.35	249.04	67.40	-40.6	-41.3	23.4	0.00e+00	0	41	0	1350565888	52	4002
2026-01-30 01:08:40.36	248.28	67.04	-40.2	-40.9	23.8	0.00e+00	0	41	0	1353711616	52	3792
2026-01-30 01:08:41.37	247.55	66.68	-40.0	-40.7	24.1	0.00e+00	0	41	0	1356857344	52	3709
2026-01-30 01:08:42.37	246.85	66.32	-40.4	-41.1	23.8	0.00e+00	0	41	0	1360003072	51	4130
2026-01-30 01:08:43.38	246.16	65.95	-41.6	-42.4	22.8	0.00e+00	0	41	0	1363148800	53	4255
2026-01-30 01:08:44.38	245.51	65.59	-42.3	-43.1	22.2	0.00e+00	0	41	0	1366294528	55	4127
2026-01-30 01:08:45.38	244.87	65.22	-42.0	-42.8	22.2	0.00e+00	0	41	0	1369440256	55	4001
2026-01-30 01:08:46.39	244.26	64.85	-41.5	-42.3	22.8	0.00e+00	0	41	0	1372585984	55	3738
2026-01-30 01:08:47.39	243.66	64.49	-40.9	-41.6	23.3	0.00e+00	0	41	0	1375731712	53	3882
2026-01-30 01:08:48.40	243.08	64.11	-40.6	-41.3	23.6	0.00e+00	0	41	0	1378877440	53	3741
2026-01-30 01:08:49.40	242.53	63.75	-40.9	-41.6	23.4	0.00e+00	0	41	0	1382023168	53	3905
2026-01-30 01:08:50.41	241.98	63.37	-41.6	-42.4	22.8	0.00e+00	0	41	0	1385168896	53	4262
2026-01-30 01:08:51.42	241.46	63.00	-41.4	-42.1	22.9	0.00e+00	0	41	0	1389363200	53	4145
2026-01-30 01:08:52.43	240.95	62.63	-41.1	-41.8	23.0	0.00e+00	0	41	0	1391460352	53	3977
2026-01-30 01:08:53.43	240.46	62.26	-40.6	-41.3	23.5	0.00e+00	0	41	0	1394606080	53	3746
2026-01-30 01:08:54.44	239.98	61.89	-40.3	-40.9	23.9	0.00e+00	0	41	0	1397751808	52	3811
2026-01-30 01:08:55.44	239.51	61.52	-40.1	-40.8	24.0	0.00e+00	0	41	0	1400897536	52	3751
2026-01-30 01:08:56.45	239.06	61.15	-40.1	-40.7	24.1	0.00e+00	0	41	0	1404043264	51	3946
2026-01-30 01:08:57.45	238.63	60.78	-40.5	-41.1	23.8	0.00e+00	0	41	0	1407188992	51	4141
2026-01-30 01:08:58.46	238.20	60.41	-41.3	-42.0	22.6	0.00e+00	0	41	0	1410334720	53	4080
2026-01-30 01:08:59.47	237.79	60.04	-42.4	-43.2	21.2	0.00e+00	0	41	0	1413480448	55	4172
2026-01-30 01:09:00.47	237.39	59.68	-42.9	-43.8	20.5	0.00e+00	0	41	0	1416626176	56	4217
2026-01-30 01:09:01.47	237.00	59.32	-42.1	-42.9	21.5	0.00e+00	0	41	0	1419771904	56	3812
2026-01-30 01:09:02.48	236.62	58.95	-41.4	-42.2	22.3	0.00e+00	0	41	0	1422917632	54	3923
2026-01-30 01:09:03.48	236.26	58.59	-41.2	-41.9	22.7	0.00e+00	0	41	0	1426063360	54	3814
2026-01-30 01:09:04.49	235.90	58.22	-40.8	-41.5	23.1	0.00e+00	0	41	0	1429209088	53	3868
2026-01-30 01:09:05.49	235.55	57.86	-41.3	-42.0	22.9	0.00e+00	0	41	0	1432354816	53	4089
2026-01-30 01:09:06.50	235.21	57.50	-42.2	-43.1	22.2	0.00e+00	0	41	0	1435500544	55	4107
2026-01-30 01:09:07.51	234.88	57.14	-43.1	-43.9	21.4	0.00e+00	0	41	0	1438646272	56	4291
2026-01-30 01:09:08.51	234.56	56.78	-42.7	-43.6	21.7	0.00e+00	0	41	0	1441792000	56	4118
2026-01-30 01:09:09.52	234.25	56.43	-42.4	-43.2	22.1	0.00e+00	0	41	0	1444937728	56	3945
2026-01-30 01:09:10.53	233.94	56.07	-42.3	-43.1	21.8	0.00e+00	0	41	0	1448083456	56	3899
2026-01-30 01:09:11.53	233.64	55.72	-42.1	-42.9	22.0	0.00e+00	0	41	0	1451229184	56	3818
2026-01-30 01:09:12.54	233.35	55.37	-42.2	-42.9	22.2	0.00e+00	0	41	0	1454374912	56	3820
2026-01-30 01:09:13.54	233.07	55.02	-41.5	-42.2	22.8	0.00e+00	0	42	0	1457520640	55	3724
2026-01-30 01:09:14.55	232.80	54.67	-41.6	-42.4	22.6	0.00e+00	0	41	0	1460666368	54	4010
2026-01-30 01:09:15.56	232.53	54.32	-42.5	-43.4	21.8	0.00e+00	0	41	0	1463812096	55	4249
2026-01-30 01:09:16.56	232.26	53.98	-44.3	-45.3	20.3	0.00e+00	0	41	0	1466957824	59	4226
2026-01-30 01:09:17.57	232.01	53.63	-44.5	-45.6	19.8	0.00e+00	0	41	0	1470103552	60	4132
2026-01-30 01:09:18.57	231.76	53.29	-44.0	-44.9	20.4	0.00e+00	0	41	0	1473249280	60	3817
2026-01-30 01:09:19.58	231.51	52.95	-43.2	-44.1	21.3	0.00e+00	0	42	0	1476395008	58	3873
2026-01-30 01:09:20.58	231.28	52.61	-42.7	-43.5	21.7	0.00e+00	0	41	0	1479540736	57	3852
2026-01-30 01:09:21.58	231.04	52.28	-42.6	-43.5	21.8	0.00e+00	0	41	0	1482686464	57	3827
2026-01-30 01:09:22.59	230.82	51.94	-42.1	-42.9	22.4	0.00e+00	0	41	0	1485832192	56	3785
2026-01-30 01:09:23.59	230.59	51.61	-41.7	-42.5	22.6	0.00e+00	0	41	0	1488977920	55	3828
2026-01-30 01:09:24.60	230.38	51.28	-41.5	-42.2	22.8	0.00e+00	0	41	0	1492123648	55	3735
2026-01-30 01:09:25.60	230.16	50.95	-41.9	-42.6	22.3	0.00e+00	0	41	0	1495269376	55	3912
2026-01-30 01:09:26.61	229.95	50.62	-43.0	-43.8	21.4	0.00e+00	0	41	0	1498415104	56	4231
2026-01-30 01:09:27.62	229.75	50.30	-44.7	-45.8	19.9	0.00e+00	0	41	0	1501560832	59	4448
2026-01-30 01:09:28.62	229.55	49.97	-45.4	-46.6	18.8	0.00e+00	0	41	0	1504706560	61	4390
2026-01-30 01:09:29.63	229.36	49.65	-45.4	-46.6	18.4	0.00e+00	0	41	0	1507852288	61	4355
2026-01-30 01:09:30.64	229.16	49.33	-44.9	-46.0	18.6	0.00e+00	0	41	0	1510998016	61	4079
2026-01-30 01:09:31.64	228.98	49.01	-44.6	-45.6	19.2	0.00e+00	0	41	0	1514143744	61	3899
2026-01-30 01:09:32.65	228.79	48.70	-44.2	-45.1	19.9	0.00e+00	0	41	0	1517289472	60	3910
2026-01-30 01:09:33.65	228.62	48.38	-44.4	-45.3	20.1	0.00e+00	0	41	0	1520435200	59	4236
2026-01-30 01:09:34.66	228.44	48.07	-44.4	-45.3	20.2	0.00e+00	0	41	0	1523580928	59	4242
2026-01-30 01:09:35.67	228.27	47.76	-44.4	-45.4	20.1	0.00e+00	0	41	0	1526726656	59	4269
2026-01-30 01:09:36.67	228.10	47.45	-44.0	-44.9	20.5	0.00e+00	0	41	0	1529872384	59	4046
2026-01-30 01:09:37.68	227.93	47.15	-43.6	-44.4	21.0	0.00e+00	0	41	0	1533018112	59	3824
2026-01-30 01:09:38.69	227.77	46.84	-43.4	-44.3	21.1	0.00e+00	0	41	0	1536163840	58	3978
2026-01-30 01:09:39.69	227.61	46.54	-43.8	-44.7	20.7	0.00e+00	0	42	0	1539309568	58	4190
2026-01-30 01:09:40.70	227.46	46.24	-44.3	-45.3	20.2	0.00e+00	0	41	0	1542455296	59	4220
2026-01-30 01:09:41.71	227.30	45.94	-44.7	-45.8	19.6	0.00e+00	0	41	0	1545601024	60	4194
2026-01-30 01:09:42.72	227.15	45.64	-45.3	-46.5	18.8	0.00e+00	0	41	0	1548746752	61	4309
2026-01-30 01:09:43.73	227.01	45.35	-45.0	-46.1	19.0	0.00e+00	0	41	0	1551892480	61	4132
2026-01-30 01:09:44.74	226.86	45.05	-44.4	-45.4	19.2	0.00e+00	0	41	0	1555038208	60	4034
2026-01-30 01:09:45.75	226.72	44.76	-44.2	-45.1	19.4	0.00e+00	0	41	0	1558183936	60	3911
2026-01-30 01:09:46.76	226.58	44.47	-44.0	-44.9	20.1	0.00e+00	0	42	0	1561329664	59	4029
2026-01-30 01:09:47.77	226.44	44.18	-43.6	-44.5	20.7	0.00e+00	0	41	0	1564475392	59	3829
2026-01-30 01:09:48.78	226.31	43.90	-43.7	-44.6	20.7	0.00e+00	0	41	0	1567621120	59	3894
2026-01-30 01:09:49.79	226.18	43.61	-44.3	-45.2	20.2	0.00e+00	0	42	0	1570766848	59	4174
2026-01-30 01:09:50.79	226.05	43.33	-44.6	-45.6	19.8	0.00e+00	0	41	0	1573912576	59	4355
2026-01-30 01:09:51.80	225.92	43.05	-44.5	-45.5	19.9	0.00e+00	0	41	0	1577058304	59	4310
2026-01-30 01:09:52.81	225.80	42.77	-44.4	-45.4	20.1	0.00e+00	0	41	0	1580204032	59	4252
2026-01-30 01:09:53.81	225.67	42.50	-44.2	-45.1	20.3	0.00e+00	0	41	0	1583349760	59	4138
2026-01-30 01:09:54.82	225.55	42.23	-43.9	-44.8	20.6	0.00e+00	0	41	0	1586495488	59	3999
2026-01-30 01:09:55.82	225.44	41.96	-43.9	-44.8	20.6	0.00e+00	0	41	0	1589641216	59	3985
2026-01-30 01:09:56.83	225.32	41.68	-44.1	-45.0	20.4	0.00e+00	0	41	0	1592786944	59	4077
2026-01-30 01:09:57.83	225.21	41.42	-44.4	-45.4	20.0	0.00e+00	0	41	0	1595932672	59	4282
2026-01-30 01:09:58.84	225.09	41.15	-44.4	-45.4	19.6	0.00e+00	0	41	0	1599078400	60	4034
2026-01-30 01:09:59.84	224.98	40.89	-44.4	-45.5	19.6	0.00e+00	0	41	0	1602224128	60	4080
2026-01-30 01:10:00.85	224.87	40.62	-44.5	-45.6	19.7	0.00e+00	0	41	0	1605369856	60	4102
2026-01-30 01:10:01.86	224.77	40.36	-44.4	-45.5	19.6	0.00e+00	0	41	0	1608515584	60	4084
2026-01-30 01:10:02.86	224.66	40.10	-44.4	-45.5	19.5	0.00e+00	0	41	0	1611661312	60	4067
2026-01-30 01:10:03.87	224.56	39.85	-44.1	-45.2	19.7	0.00e+00	0	41	0	1614807040	60	3921
2026-01-30 01:10:04.87	224.46	39.59	-44.0	-45.0	19.8	0.00e+00	0	41	0	1617952768	60	3855
2026-01-30 01:10:05.88	224.36	39.34	-44.2	-45.2	20.0	0.00e+00	0	41	0	1621098496	59	4148
2026-01-30 01:10:06.88	224.26	39.09	-44.0	-45.0	20.2	0.00e+00	0	41	0	1624244224	59	4072
2026-01-30 01:10:07.88	224.16	38.84	-44.2	-45.2	20.1	0.00e+00	0	41	0	1627389952	59	4175
2026-01-30 01:10:08.88	224.07	38.59	-44.4	-45.4	19.9	0.00e+00	0	41	0	1630535680	59	4264
2026-01-30 01:10:09.89	223.97	38.34	-44.5	-45.5	19.8	0.00e+00	0	41	0	1633681408	59	4340
2026-01-30 01:10:10.90	223.88	38.10	-44.6	-45.6	19.8	0.00e+00	0	41	0	1636827136	59	4390
2026-01-30 01:10:11.91	223.79	37.85	-44.6	-45.6	19.7	0.00e+00	0	41	0	1639972864	59	4383
2026-01-30 01:10:12.91	223.70	37.61	-44.6	-45.7	19.7	0.00e+00	0	41	0	1643118592	59	4399
2026-01-30 01:10:13.92	223.61	37.37	-44.0	-45.0	20.3	0.00e+00	0	41	0	1646264320	59	4054
2026-01-30 01:10:14.93	223.53	37.13	-43.6	-44.6	20.7	0.00e+00	0	41	0	1649410048	59	3869
2026-01-30 01:10:15.93	223.44	36.90	-43.3	-44.2	21.0	0.00e+00	0	41	0	1652555776	58	3938
2026-01-30 01:10:16.95	223.35	36.66	-43.2	-44.1	21.1	0.00e+00	0	41	0	1655701504	58	3897
2026-01-30 01:10:17.96	223.27	36.42	-42.8	-43.6	21.5	0.00e+00	0	42	0	1658847232	57	3909
2026-01-30 01:10:18.97	223.19	36.19	-42.5	-43.3	21.8	0.00e+00	0	41	0	1661992960	57	3779
2026-01-30 01:10:19.97	223.11	35.96	-42.4	-43.2	21.8	0.00e+00	0	41	0	1665138688	56	3950
2026-01-30 01:10:20.98	223.03	35.73	-42.7	-43.5	21.6	0.00e+00	0	41	0	1668284416	56	4082
2026-01-30 01:10:21.99	222.95	35.50	-42.9	-43.8	21.4	0.00e+00	0	41	0	1671430144	56	4195
2026-01-30 01:10:23.00	222.87	35.28	-43.0	-43.9	21.2	0.00e+00	0	41	0	1674575872	56	4268
2026-01-30 01:10:24.01	222.80	35.05	-42.9	-43.8	21.3	0.00e+00	0	41	0	1677721600	56	4221
2026-01-30 01:10:25.01	222.72	34.83	-42.9	-43.7	21.4	0.00e+00	0	41	0	1680867328	56	4189
2026-01-30 01:10:26.02	222.65	34.61	-42.8	-43.6	21.5	0.00e+00	0	41	0	1684013056	56	4129
2026-01-30 01:10:27.03	222.58	34.39	-42.8	-43.6	21.5	0.00e+00	0	41	0	1687158784	56	4140
2026-01-30 01:10:28.03	222.50	34.17	-42.8	-43.6	21.5	0.00e+00	0	41	0	1690304512	56	4132
2026-01-30 01:10:29.05	222.43	33.95	-42.7	-43.5	21.5	0.00e+00	0	41	0	1693450240	56	4087
2026-01-30 01:10:30.06	222.36	33.73	-42.6	-43.5	21.6	0.00e+00	0	41	0	1696595968	56	4070
2026-01-30 01:10:31.06	222.29	33.52	-42.7	-43.6	21.5	0.00e+00	0	41	0	1699741696	56	4112
2026-01-30 01:10:32.07	222.23	33.31	-42.9	-43.7	21.3	0.00e+00	0	41	0	1702887424	56	4193
2026-01-30 01:10:33.08	222.16	33.10	-42.9	-43.8	21.3	0.00e+00	0	41	0	1706033152	56	4216
2026-01-30 01:10:34.08	222.09	32.89	-43.0	-43.9	21.2	0.00e+00	0	41	0	1709178880	56	4273
2026-01-30 01:10:35.08	222.03	32.68	-43.0	-43.9	21.2	0.00e+00	0	41	0	1712324608	56	4250
2026-01-30 01:10:36.09	221.96	32.47	-42.9	-43.8	21.3	0.00e+00	0	41	0	1715470336	56	4215
2026-01-30 01:10:37.10	221.90	32.27	-43.0	-43.9	21.1	0.00e+00	0	41	0	1718616064	56	4257
2026-01-30 01:10:38.11	221.84	32.06	-43.1	-44.0	21.0	0.00e+00	0	41	0	1721761792	56	4317
2026-01-30 01:10:39.12	221.77	31.86	-42.9	-43.8	21.1	0.00e+00	0	41	0	1724907520	56	4209
2026-01-30 01:10:40.13	221.71	31.66	-42.8	-43.7	21.2	0.00e+00	0	41	0	1728053248	56	4172
2026-01-30 01:10:41.14	221.65	31.45	-42.7	-43.6	21.2	0.00e+00	0	41	0	1731198976	56	4120
2026-01-30 01:10:42.15	221.59	31.25	-42.6	-43.5	21.4	0.00e+00	0	41	0	1734344704	56	4066
2026-01-30 01:10:43.16	221.53	31.06	-42.6	-43.5	21.4	0.00e+00	0	41	0	1737490432	56	4067
2026-01-30 01:10:44.17	221.48	30.86	-42.4	-43.3	21.6	0.00e+00	0	41	0	1740636160	56	3970
2026-01-30 01:10:45.18	221.42	30.66	-42.4	-43.2	21.7	0.00e+00	0	41	0	1743781888	56	3942
2026-01-30 01:10:46.19	221.36	30.47	-42.0	-42.8	22.0	0.00e+00	0	41	0	1746927616	56	3756
2026-01-30 01:10:47.20	221.31	30.28	-41.7	-42.5	22.2	0.00e+00	0	41	0	1750073344	55	3850
2026-01-30 01:10:48.21	221.25	30.08	-41.4	-42.2	22.4	0.00e+00	0	41	0	1753219072	54	3926
2026-01-30 01:10:49.21	221.20	29.90	-41.1	-41.9	22.7	0.00e+00	0	41	0	1756364800	54	3789
2026-01-30 01:10:50.22	221.14	29.71	-41.2	-42.0	22.6	0.00e+00	0	41	0	1760559104	54	3847
2026-01-30 01:10:51.23	221.09	29.52	-41.1	-41.9	22.7	0.00e+00	0	41	0	1763704832	54	3790
2026-01-30 01:10:52.24	221.04	29.33	-41.2	-41.9	22.7	0.00e+00	0	41	0	1766850560	54	3809
2026-01-30 01:10:53.25	220.98	29.15	-41.1	-41.9	22.7	0.00e+00	0	41	0	1768947712	54	3785
2026-01-30 01:10:54.27	220.93	28.96	-40.9	-41.6	23.0	0.00e+00	0	41	0	1772093440	53	3884
2026-01-30 01:10:55.27	220.88	28.78	-41.0	-41.7	22.8	0.00e+00	0	42	0	1775239168	53	3958
2026-01-30 01:10:56.28	220.83	28.60	-40.9	-41.7	22.9	0.00e+00	0	41	0	1778384896	53	3924
2026-01-30 01:10:57.29	220.78	28.41	-41.1	-41.8	22.8	0.00e+00	0	41	0	1781530624	53	3986
2026-01-30 01:10:58.30	220.73	28.23	-41.1	-41.9	22.7	0.00e+00	0	41	0	1784676352	53	4015
2026-01-30 01:10:59.31	220.69	28.06	-41.2	-41.9	22.7	0.00e+00	0	41	0	1787822080	53	4041
2026-01-30 01:11:00.32	220.64	27.88	-41.3	-42.1	22.6	0.00e+00	0	41	0	1792016384	53	4103
2026-01-30 01:11:01.33	220.59	27.70	-41.3	-42.1	22.5	0.00e+00	0	41	0	1795162112	53	4101
2026-01-30 01:11:02.33	220.54	27.53	-41.4	-42.2	22.5	0.00e+00	0	41	0	1798307840	53	4149
2026-01-30 01:11:03.33	220.50	27.36	-41.4	-42.2	22.5	0.00e+00	0	41	0	1801453568	53	4147
2026-01-30 01:11:04.34	220.45	27.18	-41.3	-42.1	22.5	0.00e+00	0	41	0	1804599296	53	4132
2026-01-30 01:11:05.35	220.41	27.01	-41.3	-42.1	22.6	0.00e+00	0	41	0	1807745024	53	4103
2026-01-30 01:11:06.36	220.36	26.84	-41.2	-42.0	22.6	0.00e+00	0	41	0	1810890752	53	4054
2026-01-30 01:11:07.37	220.32	26.67	-41.2	-42.0	22.6	0.00e+00	0	41	0	1814036480	53	4056
2026-01-30 01:11:08.37	220.28	26.50	-41.2	-41.9	22.7	0.00e+00	0	41	0	1816133632	53	4044
2026-01-30 01:11:09.38	220.23	26.33	-41.1	-41.9	22.7	0.00e+00	0	41	0	1819279360	53	4030
2026-01-30 01:11:10.39	220.19	26.17	-41.2	-41.9	22.6	0.00e+00	0	41	0	1822425088	53	4046
2026-01-30 01:11:11.39	220.15	26.00	-41.2	-42.0	22.6	0.00e+00	0	41	0	1825570816	53	4060
2026-01-30 01:11:12.40	220.11	25.84	-41.3	-42.1	22.5	0.00e+00	0	41	0	1828716544	53	4101
2026-01-30 01:11:13.41	220.07	25.67	-41.2	-42.0	22.6	0.00e+00	0	42	0	1831862272	53	4081
2026-01-30 01:11:14.42	220.03	25.51	-41.4	-42.2	22.4	0.00e+00	0	41	0	1836056576	53	4146
2026-01-30 01:11:15.43	219.99	25.35	-41.5	-42.3	22.3	0.00e+00	0	41	0	1839202304	53	4203
2026-01-30 01:11:16.43	219.95	25.19	-41.4	-42.2	22.4	0.00e+00	0	41	0	1842348032	53	4161
2026-01-30 01:11:17.44	219.91	25.03	-41.5	-42.3	22.3	0.00e+00	0	41	0	1845493760	53	4211
2026-01-30 01:11:18.45	219.87	24.87	-41.5	-42.3	22.3	0.00e+00	0	41	0	1848639488	53	4207
2026-01-30 01:11:19.45	219.83	24.71	-41.5	-42.4	22.2	0.00e+00	0	41	0	1851785216	53	4250
2026-01-30 01:11:20.46	219.79	24.55	-41.6	-42.4	22.2	0.00e+00	0	41	0	1854930944	53	4266
2026-01-30 01:11:21.47	219.75	24.40	-41.7	-42.5	22.1	0.00e+00	0	41	0	1858076672	53	4315
2026-01-30 01:11:22.48	219.72	24.24	-41.7	-42.6	22.1	0.00e+00	0	41	0	1861222400	54	4111
2026-01-30 01:11:23.48	219.68	24.09	-41.7	-42.5	22.1	0.00e+00	0	41	0	1864368128	54	4082
2026-01-30 01:11:24.48	219.64	23.94	-41.8	-42.6	22.0	0.00e+00	0	41	0	1866465280	54	4122
2026-01-30 01:11:25.49	219.61	23.78	-41.8	-42.6	22.0	0.00e+00	0	41	0	1869611008	54	4131
2026-01-30 01:11:26.50	219.57	23.63	-41.7	-42.6	22.1	0.00e+00	0	41	0	1872756736	54	4101
2026-01-30 01:11:27.51	219.54	23.48	-41.7	-42.5	22.1	0.00e+00	0	41	0	1875902464	54	4066
2026-01-30 01:11:28.51	219.50	23.33	-41.8	-42.6	22.0	0.00e+00	0	42	0	1879048192	54	4117
2026-01-30 01:11:29.52	219.47	23.18	-41.7	-42.5	22.0	0.00e+00	0	41	0	1882193920	54	4096
2026-01-30 01:11:30.51	219.43	23.04	-41.6	-42.4	22.1	0.00e+00	0	41	0	1885339648	54	4045
2026-01-30 01:11:31.52	219.40	22.89	-41.5	-42.3	22.3	0.00e+00	0	41	0	1889533952	54	3971
2026-01-30 01:11:32.53	219.37	22.74	-41.6	-42.4	22.1	0.00e+00	0	41	0	1892679680	54	4023
2026-01-30 01:11:33.54	219.33	22.60	-41.4	-42.2	22.3	0.00e+00	0	41	0	1895825408	54	3916
2026-01-30 01:11:34.55	219.30	22.45	-41.4	-42.2	22.2	0.00e+00	0	41	0	1898971136	54	3936
2026-01-30 01:11:35.56	219.27	22.31	-41.3	-42.1	22.3	0.00e+00	0	41	0	1902116864	54	3902
2026-01-30 01:11:36.57	219.24	22.16	-41.3	-42.1	22.3	0.00e+00	0	41	0	1905262592	54	3873
2026-01-30 01:11:37.58	219.20	22.02	-41.2	-42.0	22.3	0.00e+00	0	41	0	1908408320	54	3835
2026-01-30 01:11:38.59	219.17	21.88	-41.2	-42.0	22.3	0.00e+00	0	42	0	1910505472	54	3845
2026-01-30 01:11:39.60	219.14	21.74	-41.2	-42.0	22.3	0.00e+00	0	41	0	1913651200	54	3844
2026-01-30 01:11:40.61	219.11	21.60	-41.3	-42.1	22.3	0.00e+00	0	41	0	1916796928	54	3869
2026-01-30 01:11:41.62	219.08	21.46	-41.2	-41.9	22.3	0.00e+00	0	41	0	1920991232	54	3822
2026-01-30 01:11:42.63	219.05	21.32	-41.1	-41.9	22.4	0.00e+00	0	41	0	1924136960	54	3794
2026-01-30 01:11:43.64	219.02	21.18	-41.0	-41.8	22.5	0.00e+00	0	41	0	1927282688	54	3755
2026-01-30 01:11:44.65	218.99	21.04	-41.1	-41.8	22.4	0.00e+00	0	41	0	1930428416	54	3779
2026-01-30 01:11:45.65	218.96	20.91	-41.1	-41.8	22.4	0.00e+00	0	41	0	1933574144	54	3777
2026-01-30 01:11:46.66	218.93	20.77	-40.9	-41.7	22.5	0.00e+00	0	41	0	1936719872	53	3941
2026-01-30 01:11:47.67	218.90	20.64	-41.0	-41.8	22.4	0.00e+00	0	41	0	1939865600	53	3982
2026-01-30 01:11:48.68	218.87	20.50	-41.1	-41.8	22.4	0.00e+00	0	41	0	1943011328	53	3999
2026-01-30 01:11:49.69	218.85	20.37	-41.0	-41.7	22.5	0.00e+00	0	41	0	1946157056	53	3956
2026-01-30 01:11:50.70	218.82	20.23	-41.0	-41.8	22.4	0.00e+00	0	41	0	1949302784	53	3987
2026-01-30 01:11:51.71	218.79	20.10	-40.9	-41.7	22.5	0.00e+00	0	41	0	1952448512	53	3926
2026-01-30 01:11:52.72	218.76	19.97	-40.9	-41.7	22.5	0.00e+00	0	41	0	1955594240	53	3921
2026-01-30 01:11:53.73	218.74	19.84	-41.0	-41.7	22.5	0.00e+00	0	41	0	1958739968	53	3945
2026-01-30 01:11:54.74	218.71	19.71	-40.9	-41.7	22.6	0.00e+00	0	41	0	1961885696	53	3924
2026-01-30 01:11:55.75	218.68	19.58	-40.9	-41.7	22.6	0.00e+00	0	41	0	1965031424	53	3919
2026-01-30 01:11:56.76	218.66	19.45	-41.0	-41.7	22.5	0.00e+00	0	41	0	1968177152	53	3953
2026-01-30 01:11:57.77	218.63	19.32	-40.9	-41.7	22.6	0.00e+00	0	41	0	1971322880	53	3935
2026-01-30 01:11:58.77	218.60	19.19	-41.0	-41.8	22.6	0.00e+00	0	41	0	1974468608	53	3960
2026-01-30 01:11:59.78	218.58	19.07	-41.1	-41.8	22.5	0.00e+00	0	42	0	1977614336	53	3995
2026-01-30 01:12:00.79	218.55	18.94	-40.9	-41.7	22.6	0.00e+00	0	41	0	1980760064	53	3940
2026-01-30 01:12:01.80	218.53	18.81	-40.9	-41.7	22.6	0.00e+00	0	41	0	1983905792	53	3923
2026-01-30 01:12:02.80	218.50	18.69	-41.0	-41.8	22.5	0.00e+00	0	41	0	1987051520	53	3970
2026-01-30 01:12:03.81	218.48	18.57	-41.0	-41.7	22.6	0.00e+00	0	41	0	1990197248	53	3953
2026-01-30 01:12:04.82	218.45	18.44	-41.0	-41.8	22.6	0.00e+00	0	41	0	1993342976	53	3962
2026-01-30 01:12:05.83	218.43	18.32	-41.0	-41.7	22.6	0.00e+00	0	41	0	1996488704	53	3945
2026-01-30 01:12:06.83	218.41	18.20	-41.0	-41.8	22.6	0.00e+00	0	41	0	1999634432	53	3984
2026-01-30 01:12:07.84	218.38	18.07	-41.1	-41.9	22.5	0.00e+00	0	41	0	2002780160	53	4010
2026-01-30 01:12:08.85	218.36	17.95	-41.1	-41.9	22.5	0.00e+00	0	41	0	2005925888	53	4008
2026-01-30 01:12:09.85	218.33	17.83	-41.1	-41.8	22.5	0.00e+00	0	41	0	2009071616	53	4002
2026-01-30 01:12:10.86	218.31	17.71	-41.1	-41.9	22.4	0.00e+00	0	41	0	2012217344	53	4034
2026-01-30 01:12:11.87	218.29	17.59	-41.2	-41.9	22.4	0.00e+00	0	42	0	2015363072	53	4037
2026-01-30 01:12:12.88	218.27	17.47	-41.2	-42.0	22.3	0.00e+00	0	41	0	2018508800	53	4081
2026-01-30 01:12:13.88	218.24	17.36	-41.3	-42.1	22.3	0.00e+00	0	41	0	2021654528	53	4109
2026-01-30 01:12:14.89	218.22	17.24	-41.4	-42.2	22.2	0.00e+00	0	41	0	2024800256	53	4180
2026-01-30 01:12:15.89	218.20	17.12	-41.4	-42.2	22.2	0.00e+00	0	41	0	2027945984	53	4148
2026-01-30 01:12:16.90	218.18	17.00	-41.4	-42.2	22.2	0.00e+00	0	41	0	2031091712	53	4150
2026-01-30 01:12:17.91	218.16	16.89	-41.6	-42.4	22.0	0.00e+00	0	41	0	2034237440	53	4251
2026-01-30 01:12:18.92	218.13	16.77	-41.6	-42.4	22.0	0.00e+00	0	41	0	2037383168	53	4256
2026-01-30 01:12:19.92	218.11	16.66	-41.7	-42.5	21.9	0.00e+00	0	41	0	2040528896	53	4314
2026-01-30 01:12:20.93	218.09	16.54	-41.7	-42.5	21.9	0.00e+00	0	41	0	2043674624	54	4078
2026-01-30 01:12:21.94	218.07	16.43	-41.7	-42.6	21.9	0.00e+00	0	41	0	2046820352	54	4102
2026-01-30 01:12:22.94	218.05	16.32	-41.8	-42.6	21.8	0.00e+00	0	41	0	2049966080	54	4115
