passes_logs/2026/01/30/R3.2S_Murmansk/R3.2S_Murmansk__20260130_020547_AQUA_rec.log

#Pass ID: 20260130_020547_AQUA
#Satellite: AQUA
#Configuration: AQUA
#almurnet v.1.7.20251203
#Start time: 2026-01-30 02:05:46

#Version: 2.2.20231116
#Station: R3.2S_Murmansk
#Location: 33.079688 lon 68.888172 lat
#TLE: 1 27424U 02022A   26029.54575153  .00001738  00000+0  35736-3 0  9994
#TLE: 2 27424  98.4104 356.2197 0001804  61.7823  56.0643 14.61874165263019

#Time	Az	El	Level	Level2	SNR	BER	BlckErr	Temp	State	Recorded	gain1	gain2
2026-01-30 02:05:46.51	22.94	1.96	-55.7	-73.5	3.8	7.44e-01	0	42	0	0	82	28981
2026-01-30 02:05:47.51	22.95	2.02	-55.6	-73.4	3.8	7.46e-01	0	41	104	0	81	30378
2026-01-30 02:05:48.52	22.96	2.09	-55.5	-73.4	3.8	7.45e-01	0	41	104	0	81	30124
2026-01-30 02:05:49.53	22.98	2.16	-55.5	-73.3	3.8	7.48e-01	0	41	104	0	81	29949
2026-01-30 02:05:50.54	22.99	2.23	-55.5	-73.3	3.8	7.46e-01	0	41	104	0	81	29968
2026-01-30 02:05:51.54	23.00	2.29	-55.5	-73.3	3.8	7.44e-01	0	41	104	0	81	29909
2026-01-30 02:05:52.55	23.01	2.36	-55.5	-73.3	3.8	7.47e-01	0	41	104	0	81	29820
2026-01-30 02:05:53.55	23.03	2.43	-55.5	-73.3	3.8	7.43e-01	0	41	104	0	81	29847
2026-01-30 02:05:54.56	23.04	2.49	-55.5	-73.4	3.8	7.45e-01	0	41	104	0	81	30060
2026-01-30 02:05:55.57	23.05	2.56	-55.6	-73.4	3.8	7.43e-01	0	41	104	0	81	30149
2026-01-30 02:05:56.58	23.07	2.63	-55.6	-73.4	3.8	7.43e-01	0	41	104	0	81	30234
2026-01-30 02:05:57.58	23.08	2.70	-55.6	-73.4	3.8	7.45e-01	0	41	104	0	81	30101
2026-01-30 02:05:58.59	23.09	2.77	-55.5	-73.4	3.8	7.44e-01	0	41	104	0	81	30049
2026-01-30 02:05:59.59	23.10	2.83	-55.5	-73.3	3.8	7.45e-01	0	41	104	0	81	30031
2026-01-30 02:06:00.60	23.12	2.90	-55.5	-73.3	3.8	7.45e-01	0	41	104	0	81	30018
2026-01-30 02:06:01.61	23.13	2.97	-55.5	-73.3	3.8	7.46e-01	0	41	104	0	81	30030
2026-01-30 02:06:02.61	23.14	3.04	-55.5	-73.3	3.8	7.46e-01	0	41	104	0	81	29987
2026-01-30 02:06:03.62	23.16	3.11	-55.5	-73.3	3.8	7.44e-01	0	41	104	0	81	29818
2026-01-30 02:06:04.63	23.17	3.18	-55.5	-73.3	3.8	7.46e-01	0	41	104	0	81	29806
2026-01-30 02:06:05.64	23.18	3.25	-55.5	-73.3	3.8	7.45e-01	0	41	104	0	81	29818
2026-01-30 02:06:06.64	23.20	3.32	-55.4	-73.3	3.8	7.45e-01	0	41	104	0	81	29698
2026-01-30 02:06:07.65	23.21	3.39	-55.4	-73.2	3.8	7.44e-01	0	41	104	0	81	29626
2026-01-30 02:06:08.66	23.22	3.46	-55.4	-73.2	3.8	7.44e-01	0	42	104	0	81	29471
2026-01-30 02:06:09.66	23.24	3.53	-55.3	-73.2	3.8	7.44e-01	0	41	104	0	81	29367
2026-01-30 02:06:10.67	23.25	3.60	-55.3	-73.2	3.8	7.47e-01	0	41	104	0	81	29443
2026-01-30 02:06:11.68	23.26	3.67	-55.3	-73.2	3.8	7.48e-01	0	41	104	0	81	29367
2026-01-30 02:06:12.69	23.28	3.74	-55.3	-73.2	3.8	7.46e-01	0	41	104	0	81	29396
2026-01-30 02:06:13.70	23.29	3.81	-55.4	-73.2	3.8	7.44e-01	0	41	104	0	81	29517
2026-01-30 02:06:14.71	23.30	3.88	-55.4	-73.2	3.8	7.47e-01	0	41	104	0	81	29607
2026-01-30 02:06:15.72	23.32	3.96	-55.4	-73.2	3.8	7.45e-01	0	41	104	0	81	29526
2026-01-30 02:06:16.73	23.33	4.03	-55.3	-73.2	3.8	7.44e-01	0	41	104	0	81	29464
2026-01-30 02:06:17.74	23.35	4.10	-55.3	-73.2	3.8	7.45e-01	0	41	104	0	81	29359
2026-01-30 02:06:18.75	23.36	4.17	-55.3	-73.1	3.8	7.45e-01	0	41	104	0	81	29260
2026-01-30 02:06:19.76	23.37	4.25	-55.4	-73.2	3.8	7.45e-01	0	41	104	0	81	29599
2026-01-30 02:06:20.77	23.39	4.32	-55.4	-73.2	3.8	7.47e-01	0	41	104	0	81	29431
2026-01-30 02:06:21.78	23.40	4.39	-55.3	-73.2	3.8	7.46e-01	0	41	104	0	81	29355
2026-01-30 02:06:22.78	23.41	4.46	-55.3	-73.1	3.8	7.46e-01	0	41	104	0	81	29315
2026-01-30 02:06:23.79	23.43	4.54	-55.3	-73.1	3.8	7.46e-01	0	41	104	0	81	29256
2026-01-30 02:06:24.79	23.44	4.61	-55.3	-73.1	3.8	7.46e-01	0	41	104	0	81	29162
2026-01-30 02:06:25.80	23.46	4.69	-55.3	-73.1	3.8	7.46e-01	0	41	104	0	81	29136
2026-01-30 02:06:26.80	23.47	4.76	-55.2	-73.1	3.8	7.48e-01	0	41	104	0	81	29091
2026-01-30 02:06:27.81	23.49	4.83	-55.4	-73.2	3.8	7.44e-01	0	41	104	0	81	29526
2026-01-30 02:06:28.82	23.50	4.91	-55.5	-73.3	3.8	7.43e-01	0	41	104	0	81	30019
2026-01-30 02:06:29.83	23.51	4.98	-55.6	-73.4	3.8	7.46e-01	0	41	104	0	81	30288
2026-01-30 02:06:30.84	23.53	5.06	-55.6	-73.4	3.8	7.41e-01	0	41	104	0	81	30294
2026-01-30 02:06:31.84	23.54	5.13	-55.6	-73.4	3.8	7.45e-01	0	41	104	0	81	30329
2026-01-30 02:06:32.84	23.56	5.21	-55.6	-73.4	3.8	7.44e-01	0	41	104	0	81	30277
2026-01-30 02:06:33.85	23.57	5.28	-55.6	-73.4	3.8	7.43e-01	0	41	104	0	81	30261
2026-01-30 02:06:34.86	23.59	5.36	-55.6	-73.4	3.8	7.43e-01	0	41	104	0	81	30254
2026-01-30 02:06:35.87	23.60	5.44	-55.6	-73.4	3.8	7.44e-01	0	41	104	0	81	30208
2026-01-30 02:06:36.88	23.62	5.51	-55.5	-73.3	3.8	7.46e-01	0	41	104	0	81	29975
2026-01-30 02:06:37.89	23.63	5.59	-55.6	-73.4	3.8	7.45e-01	0	41	104	0	81	30121
2026-01-30 02:06:38.90	23.65	5.67	-55.6	-73.4	3.8	7.46e-01	0	41	104	0	81	30142
2026-01-30 02:06:39.91	23.66	5.74	-55.6	-73.4	3.8	7.44e-01	0	41	104	0	81	30071
2026-01-30 02:06:40.91	23.68	5.82	-55.5	-73.3	3.8	7.46e-01	0	42	104	0	81	29906
2026-01-30 02:06:41.92	23.69	5.90	-55.4	-73.3	3.8	7.46e-01	0	41	104	0	81	29695
2026-01-30 02:06:42.93	23.71	5.98	-55.3	-73.1	3.8	7.44e-01	0	41	104	0	81	29322
2026-01-30 02:06:43.94	23.72	6.06	-55.2	-73.1	3.8	7.44e-01	0	41	104	0	81	29091
2026-01-30 02:06:44.94	23.74	6.13	-55.1	-72.9	3.8	7.50e-01	0	41	104	0	81	28527
2026-01-30 02:06:45.95	23.75	6.21	-54.9	-72.7	3.8	7.46e-01	0	41	104	0	81	27876
2026-01-30 02:06:46.96	23.77	6.29	-54.8	-72.4	3.8	7.45e-01	0	41	104	0	81	27006
2026-01-30 02:06:47.97	23.78	6.37	-54.5	-72.3	3.8	7.46e-01	0	41	104	0	81	26644
2026-01-30 02:06:48.97	23.80	6.45	-54.2	-72.0	3.8	7.45e-01	0	41	104	0	80	27358
2026-01-30 02:06:49.98	23.82	6.53	-47.0	-48.6	20.7	6.02e-01	0	41	0	0	66	4115
2026-01-30 02:06:50.99	23.83	6.61	-45.4	-46.8	23.8	6.02e-01	0	41	0	2097152	62	4207
2026-01-30 02:06:52.00	23.85	6.69	-50.1	-53.0	18.0	6.02e-01	0	41	0	3670016	70	5448
2026-01-30 02:06:53.01	23.86	6.77	-51.3	-55.5	15.3	6.00e-01	0	41	0	5767168	73	6094
2026-01-30 02:06:54.01	23.88	6.85	-48.7	-51.0	20.3	6.03e-01	0	41	0	7340032	67	5113
2026-01-30 02:06:55.02	23.90	6.93	-46.0	-47.5	23.3	6.04e-01	0	41	0	9437184	63	4316
2026-01-30 02:06:56.03	23.91	7.01	-49.9	-52.8	18.1	6.04e-01	0	41	0	11534336	70	5340
2026-01-30 02:06:57.03	23.93	7.10	-45.1	-46.5	24.2	6.02e-01	0	41	0	13107200	62	4081
2026-01-30 02:06:58.04	23.94	7.18	-45.1	-46.4	24.2	6.04e-01	0	41	0	15204352	62	4040
2026-01-30 02:06:59.05	23.96	7.26	-44.9	-46.2	24.4	6.03e-01	0	41	0	17301504	61	4182
2026-01-30 02:07:00.05	23.98	7.34	-44.7	-46.0	24.7	6.06e-01	0	41	0	18874368	61	4085
2026-01-30 02:07:01.06	23.99	7.43	-44.7	-46.1	24.6	6.03e-01	0	41	0	20971520	61	4105
2026-01-30 02:07:02.06	24.01	7.51	-44.5	-45.8	24.9	6.03e-01	0	41	0	22544384	61	4002
2026-01-30 02:07:03.07	24.03	7.59	-44.5	-45.8	24.9	6.03e-01	0	41	0	24641536	60	4227
2026-01-30 02:07:04.08	24.04	7.68	-44.5	-45.8	24.9	6.01e-01	0	41	0	26214400	60	4213
2026-01-30 02:07:05.09	24.06	7.76	-44.3	-45.6	25.1	6.02e-01	0	41	0	28311552	60	4115
2026-01-30 02:07:06.10	24.08	7.85	-44.3	-45.6	25.1	6.01e-01	0	41	0	30408704	60	4103
2026-01-30 02:07:07.10	24.09	7.93	-44.5	-45.8	24.9	6.04e-01	0	41	0	31981568	60	4224
2026-01-30 02:07:08.11	24.11	8.01	-44.5	-45.8	24.9	6.02e-01	0	41	0	34078720	60	4220
2026-01-30 02:07:09.12	24.13	8.10	-44.5	-45.8	24.9	6.03e-01	0	41	0	36175872	60	4225
2026-01-30 02:07:10.12	24.14	8.19	-44.4	-45.7	25.1	6.03e-01	0	41	0	37748736	60	4148
2026-01-30 02:07:11.12	24.16	8.27	-44.3	-45.5	25.2	6.02e-01	0	41	0	39845888	60	4096
2026-01-30 02:07:12.13	24.18	8.36	-44.3	-45.5	25.2	6.03e-01	0	41	0	41418752	60	4096
2026-01-30 02:07:13.14	24.20	8.44	-44.3	-45.6	25.2	6.02e-01	0	41	0	43515904	60	4108
2026-01-30 02:07:14.15	24.21	8.53	-44.4	-45.7	25.1	6.03e-01	0	41	0	45613056	60	4162
2026-01-30 02:07:15.15	24.23	8.62	-44.5	-45.8	25.0	6.04e-01	0	41	0	47185920	60	4194
2026-01-30 02:07:16.16	24.25	8.71	-44.3	-45.5	25.2	6.02e-01	0	41	0	49283072	60	4088
2026-01-30 02:07:17.16	24.27	8.79	-44.2	-45.5	25.3	6.00e-01	0	41	0	50855936	60	4054
2026-01-30 02:07:18.17	24.28	8.88	-44.4	-45.6	25.2	6.05e-01	0	41	0	52953088	60	4125
2026-01-30 02:07:19.18	24.30	8.97	-44.4	-45.7	25.1	6.01e-01	0	41	0	54525952	60	4167
2026-01-30 02:07:20.18	24.32	9.06	-44.3	-45.6	25.3	6.02e-01	0	41	0	56623104	60	4101
2026-01-30 02:07:21.19	24.34	9.15	-44.4	-45.7	25.1	6.00e-01	0	41	0	58720256	60	4169
2026-01-30 02:07:22.20	24.36	9.24	-44.3	-45.6	25.2	6.04e-01	0	41	0	60293120	60	4123
2026-01-30 02:07:23.21	24.37	9.33	-44.2	-45.5	25.3	6.01e-01	0	41	0	62390272	60	4070
2026-01-30 02:07:24.21	24.39	9.42	-44.3	-45.6	25.2	6.03e-01	0	41	0	64487424	60	4117
2026-01-30 02:07:25.22	24.41	9.51	-44.4	-45.6	25.2	6.04e-01	0	41	0	66060288	60	4140
2026-01-30 02:07:26.23	24.43	9.60	-44.2	-45.5	25.4	6.05e-01	0	41	0	68157440	60	4064
2026-01-30 02:07:27.23	24.45	9.69	-44.3	-45.5	25.3	6.02e-01	0	41	0	69730304	60	4096
2026-01-30 02:07:28.23	24.47	9.78	-44.3	-45.5	25.3	6.03e-01	0	41	0	71827456	60	4075
2026-01-30 02:07:29.24	24.48	9.88	-44.2	-45.4	25.4	6.00e-01	0	41	0	73924608	60	4048
2026-01-30 02:07:30.25	24.50	9.97	-44.3	-45.5	25.3	6.01e-01	0	41	0	75497472	60	4090
2026-01-30 02:07:31.26	24.52	10.06	-44.3	-45.6	25.3	6.02e-01	0	41	0	77594624	60	4122
2026-01-30 02:07:32.27	24.54	10.16	-44.3	-45.5	25.3	6.04e-01	0	41	0	79167488	60	4096
2026-01-30 02:07:33.28	24.56	10.25	-44.0	-45.2	25.6	6.03e-01	0	41	0	81264640	60	3958
2026-01-30 02:07:34.29	24.58	10.35	-44.0	-45.3	25.6	6.03e-01	0	41	0	82837504	60	3962
2026-01-30 02:07:35.29	24.60	10.44	-44.1	-45.3	25.6	6.02e-01	0	41	0	84934656	60	3968
2026-01-30 02:07:36.30	24.62	10.54	-44.0	-45.2	25.7	6.03e-01	0	41	0	87031808	60	3935
2026-01-30 02:07:37.30	24.64	10.63	-44.0	-45.3	25.6	6.01e-01	0	41	0	88604672	60	3962
2026-01-30 02:07:38.31	24.66	10.73	-44.0	-45.2	25.6	6.01e-01	0	41	0	90701824	59	4162
2026-01-30 02:07:39.32	24.68	10.82	-44.0	-45.3	25.6	6.02e-01	0	41	0	92798976	59	4197
2026-01-30 02:07:40.32	24.70	10.92	-44.1	-45.3	25.5	6.01e-01	0	41	0	94371840	59	4228
2026-01-30 02:07:41.33	24.72	11.02	-44.0	-45.2	25.6	6.01e-01	0	41	0	96468992	59	4189
2026-01-30 02:07:42.34	24.74	11.12	-43.9	-45.1	25.7	6.03e-01	0	41	0	98041856	59	4132
2026-01-30 02:07:43.34	24.76	11.21	-43.9	-45.1	25.7	6.06e-01	0	41	0	100139008	59	4142
2026-01-30 02:07:44.35	24.78	11.31	-44.0	-45.2	25.7	6.04e-01	0	41	0	102236160	59	4147
2026-01-30 02:07:45.36	24.80	11.41	-43.8	-45.0	25.8	6.04e-01	0	41	0	103809024	59	4060
2026-01-30 02:07:46.37	24.82	11.51	-43.8	-45.0	25.8	6.01e-01	0	41	0	105906176	59	4077
2026-01-30 02:07:47.37	24.84	11.61	-43.7	-44.9	25.9	6.01e-01	0	41	0	107479040	59	4025
2026-01-30 02:07:48.37	24.86	11.71	-43.6	-44.8	26.0	6.03e-01	0	41	0	109576192	59	3981
2026-01-30 02:07:49.38	24.88	11.81	-43.6	-44.8	26.0	6.03e-01	0	41	0	111149056	59	3983
2026-01-30 02:07:50.39	24.90	11.91	-43.6	-44.8	25.8	6.02e-01	0	41	0	113246208	59	3990
2026-01-30 02:07:51.40	24.93	12.01	-43.6	-44.8	25.0	6.07e-01	0	41	0	115343360	59	3964
2026-01-30 02:07:52.40	24.95	12.12	-43.4	-44.6	26.2	6.02e-01	0	41	0	116916224	58	4121
2026-01-30 02:07:53.41	24.97	12.22	-43.6	-44.7	26.1	6.04e-01	0	41	0	119013376	58	4177
2026-01-30 02:07:54.41	24.99	12.32	-43.6	-44.7	26.0	6.03e-01	0	41	0	121110528	58	4176
2026-01-30 02:07:55.42	25.01	12.43	-43.5	-44.7	26.1	6.04e-01	0	41	0	122683392	58	4169
2026-01-30 02:07:56.43	25.03	12.53	-43.5	-44.7	26.0	6.03e-01	0	41	0	124780544	58	4159
2026-01-30 02:07:57.44	25.06	12.63	-43.5	-44.7	26.1	6.04e-01	0	41	0	126353408	58	4169
2026-01-30 02:07:58.44	25.08	12.74	-43.6	-44.8	26.0	6.02e-01	0	41	0	128450560	58	4223
2026-01-30 02:07:59.45	25.10	12.84	-43.6	-44.7	26.0	6.01e-01	0	41	0	130547712	58	4183
2026-01-30 02:08:00.46	25.12	12.95	-43.5	-44.7	26.1	6.04e-01	0	41	0	132120576	58	4163
2026-01-30 02:08:01.47	25.15	13.06	-43.6	-44.8	26.1	6.03e-01	0	41	0	134217728	58	4218
2026-01-30 02:08:02.48	25.17	13.17	-43.5	-44.7	26.1	6.03e-01	0	41	0	135790592	58	4168
2026-01-30 02:08:03.48	25.19	13.27	-43.6	-44.8	26.0	6.04e-01	0	41	0	137887744	58	4202
2026-01-30 02:08:04.49	25.21	13.38	-43.5	-44.7	26.2	6.03e-01	0	41	0	139460608	58	4157
2026-01-30 02:08:05.50	25.24	13.49	-43.5	-44.6	26.2	6.00e-01	0	41	0	141557760	58	4126
2026-01-30 02:08:06.51	25.26	13.60	-43.5	-44.7	26.2	6.02e-01	0	41	0	143654912	58	4149
2026-01-30 02:08:07.51	25.28	13.71	-43.4	-44.5	26.2	6.00e-01	0	41	0	145227776	58	4096
2026-01-30 02:08:08.52	25.31	13.82	-43.4	-44.6	26.3	6.01e-01	0	41	0	147324928	58	4099
2026-01-30 02:08:09.53	25.33	13.93	-43.5	-44.6	26.3	6.04e-01	0	41	0	149422080	58	4125
2026-01-30 02:08:10.52	25.35	14.04	-43.4	-44.5	26.3	6.01e-01	0	41	0	150994944	58	4093
2026-01-30 02:08:11.53	25.38	14.15	-43.4	-44.6	26.3	6.04e-01	0	41	0	153092096	58	4105
2026-01-30 02:08:12.54	25.40	14.27	-43.3	-44.4	26.5	6.03e-01	0	41	0	154664960	58	4023
2026-01-30 02:08:13.55	25.43	14.38	-43.3	-44.4	26.4	6.02e-01	0	41	0	156762112	58	4050
2026-01-30 02:08:14.55	25.45	14.49	-43.3	-44.4	26.5	6.04e-01	0	41	0	158859264	58	4031
2026-01-30 02:08:15.56	25.48	14.61	-43.2	-44.3	26.5	6.01e-01	0	41	0	160432128	58	4001
2026-01-30 02:08:16.57	25.50	14.72	-43.1	-44.2	26.7	6.02e-01	0	41	0	162529280	58	3944
2026-01-30 02:08:17.58	25.53	14.84	-43.1	-44.2	26.7	6.02e-01	0	41	0	164102144	58	3934
2026-01-30 02:08:18.58	25.55	14.95	-43.0	-44.1	26.8	6.01e-01	0	41	0	166199296	58	3899
2026-01-30 02:08:19.59	25.58	15.07	-43.0	-44.1	26.8	6.02e-01	0	41	0	167772160	57	4102
2026-01-30 02:08:20.60	25.60	15.19	-43.0	-44.1	26.8	6.04e-01	0	41	0	169869312	57	4118
2026-01-30 02:08:21.61	25.63	15.31	-43.0	-44.2	26.7	6.02e-01	0	41	0	171966464	57	4148
2026-01-30 02:08:22.61	25.65	15.42	-43.1	-44.2	26.7	6.03e-01	0	41	0	173539328	57	4162
2026-01-30 02:08:23.62	25.68	15.54	-43.0	-44.1	26.7	6.02e-01	0	41	0	175636480	57	4138
2026-01-30 02:08:24.63	25.71	15.66	-43.1	-44.3	26.6	6.03e-01	0	41	0	177733632	57	4194
2026-01-30 02:08:25.63	25.73	15.78	-43.1	-44.2	26.7	6.03e-01	0	41	0	179306496	57	4187
2026-01-30 02:08:26.64	25.76	15.91	-43.2	-44.3	26.6	6.02e-01	0	41	0	181403648	57	4230
2026-01-30 02:08:27.65	25.79	16.03	-43.2	-44.3	26.6	6.03e-01	0	41	0	182976512	57	4220
2026-01-30 02:08:28.66	25.81	16.15	-43.2	-44.3	26.7	5.99e-01	0	41	0	185073664	57	4215
2026-01-30 02:08:29.67	25.84	16.28	-43.1	-44.2	26.7	6.01e-01	0	41	0	187170816	57	4167
2026-01-30 02:08:30.67	25.87	16.40	-43.1	-44.2	26.7	6.02e-01	0	41	0	188743680	57	4192
2026-01-30 02:08:31.68	25.90	16.52	-43.1	-44.2	26.8	6.03e-01	0	41	0	190840832	57	4153
2026-01-30 02:08:32.68	25.92	16.65	-43.1	-44.2	26.7	6.02e-01	0	41	0	192413696	57	4192
2026-01-30 02:08:33.69	25.95	16.77	-43.1	-44.1	26.7	6.01e-01	0	41	0	194510848	57	4145
2026-01-30 02:08:34.70	25.98	16.90	-43.0	-44.1	26.8	6.01e-01	0	41	0	196083712	57	4136
2026-01-30 02:08:35.71	26.01	17.03	-43.0	-44.1	26.8	6.03e-01	0	41	0	198180864	57	4139
2026-01-30 02:08:36.71	26.04	17.16	-43.1	-44.2	26.8	6.02e-01	0	41	0	200278016	57	4166
2026-01-30 02:08:37.72	26.07	17.29	-43.1	-44.2	26.7	6.03e-01	0	41	0	202375168	57	4185
2026-01-30 02:08:38.72	26.10	17.42	-43.1	-44.2	26.7	6.05e-01	0	41	0	203948032	57	4173
2026-01-30 02:08:39.73	26.13	17.55	-43.1	-44.2	26.8	6.04e-01	0	41	0	206045184	57	4161
2026-01-30 02:08:40.74	26.16	17.68	-43.1	-44.3	26.7	6.05e-01	0	41	0	207618048	57	4195
2026-01-30 02:08:41.74	26.19	17.81	-43.1	-44.2	26.8	6.04e-01	0	41	0	209715200	57	4173
2026-01-30 02:08:42.74	26.22	17.94	-43.2	-44.3	26.7	6.00e-01	0	41	0	211288064	57	4195
2026-01-30 02:08:43.75	26.25	18.08	-43.2	-44.3	26.6	6.04e-01	0	41	0	213385216	57	4234
2026-01-30 02:08:44.76	26.28	18.21	-43.3	-44.4	26.6	6.02e-01	0	41	0	215482368	57	4253
2026-01-30 02:08:45.77	26.31	18.35	-43.3	-44.5	26.5	6.03e-01	0	41	0	217055232	57	4296
2026-01-30 02:08:46.77	26.34	18.48	-43.3	-44.4	26.5	6.03e-01	0	41	0	219152384	57	4265
2026-01-30 02:08:47.78	26.37	18.62	-43.1	-44.3	26.7	6.02e-01	0	41	0	220725248	57	4194
2026-01-30 02:08:48.79	26.40	18.76	-43.1	-44.2	26.6	6.02e-01	0	41	0	222822400	57	4152
2026-01-30 02:08:49.80	26.43	18.89	-43.1	-44.2	26.6	6.06e-01	0	41	0	224395264	57	4166
2026-01-30 02:08:50.80	26.47	19.03	-43.1	-44.2	26.7	6.03e-01	0	41	0	226492416	57	4149
2026-01-30 02:08:51.80	26.50	19.17	-43.0	-44.1	26.7	6.02e-01	0	41	0	228589568	57	4123
2026-01-30 02:08:52.81	26.53	19.31	-43.0	-44.1	26.7	6.01e-01	0	41	0	230162432	57	4111
2026-01-30 02:08:53.82	26.56	19.46	-43.1	-44.2	26.7	6.02e-01	0	41	0	232259584	57	4147
2026-01-30 02:08:54.83	26.60	19.60	-43.1	-44.2	26.6	6.05e-01	0	41	0	234356736	57	4186
2026-01-30 02:08:55.83	26.63	19.74	-43.1	-44.2	26.7	6.03e-01	0	41	0	235929600	57	4193
2026-01-30 02:08:56.84	26.66	19.89	-43.1	-44.3	26.7	6.02e-01	0	41	0	238026752	57	4198
2026-01-30 02:08:57.85	26.70	20.03	-43.2	-44.3	26.6	6.00e-01	0	41	0	239599616	57	4235
2026-01-30 02:08:58.85	26.73	20.18	-43.1	-44.3	26.7	6.04e-01	0	41	0	241696768	57	4197
2026-01-30 02:08:59.86	26.77	20.33	-43.0	-44.1	26.8	6.04e-01	0	41	0	243793920	57	4128
2026-01-30 02:09:00.87	26.80	20.48	-43.1	-44.2	26.7	6.02e-01	0	41	0	245366784	57	4163
2026-01-30 02:09:01.87	26.84	20.62	-43.0	-44.1	26.9	6.02e-01	0	41	0	247463936	57	4122
2026-01-30 02:09:02.88	26.87	20.78	-42.9	-44.0	27.0	6.00e-01	0	41	0	249036800	57	4081
2026-01-30 02:09:03.88	26.91	20.93	-43.0	-44.1	26.8	6.03e-01	0	41	0	251133952	57	4128
2026-01-30 02:09:04.89	26.95	21.08	-42.9	-43.9	27.0	6.03e-01	0	41	0	252706816	57	4048
2026-01-30 02:09:05.90	26.98	21.23	-42.9	-44.0	27.0	6.05e-01	0	41	0	254803968	57	4052
2026-01-30 02:09:06.90	27.02	21.39	-42.9	-44.0	27.0	6.03e-01	0	41	0	256901120	57	4092
2026-01-30 02:09:07.91	27.06	21.54	-43.2	-44.3	26.7	6.04e-01	0	41	0	258473984	57	4213
2026-01-30 02:09:08.92	27.09	21.70	-43.3	-44.4	26.6	6.03e-01	0	41	0	260571136	57	4264
2026-01-30 02:09:09.92	27.13	21.86	-43.4	-44.5	26.6	6.04e-01	0	41	0	262668288	57	4317
2026-01-30 02:09:10.93	27.17	22.01	-43.5	-44.7	26.4	6.02e-01	0	41	0	264241152	57	4404
2026-01-30 02:09:11.94	27.21	22.17	-43.5	-44.7	26.5	6.05e-01	0	41	0	266338304	57	4396
2026-01-30 02:09:12.95	27.25	22.34	-43.6	-44.8	26.4	6.02e-01	0	41	0	267911168	57	4445
2026-01-30 02:09:13.95	27.29	22.50	-43.5	-44.6	26.5	6.02e-01	0	41	0	270008320	57	4382
2026-01-30 02:09:14.96	27.33	22.66	-43.5	-44.7	26.4	6.02e-01	0	41	0	272105472	57	4396
2026-01-30 02:09:15.96	27.37	22.82	-43.5	-44.6	26.5	6.00e-01	0	41	0	273678336	57	4388
2026-01-30 02:09:16.98	27.41	22.99	-43.4	-44.6	26.5	6.03e-01	0	41	0	275775488	57	4348
2026-01-30 02:09:17.98	27.45	23.16	-43.4	-44.6	26.5	6.03e-01	0	41	0	277348352	57	4348
2026-01-30 02:09:18.99	27.49	23.32	-43.5	-44.6	26.5	6.04e-01	0	41	0	279445504	57	4353
2026-01-30 02:09:20.00	27.53	23.49	-43.5	-44.7	26.5	6.02e-01	0	41	0	281018368	57	4394
2026-01-30 02:09:21.00	27.58	23.66	-43.5	-44.6	26.5	6.01e-01	0	41	0	283115520	57	4391
2026-01-30 02:09:22.01	27.62	23.83	-43.6	-44.8	26.4	6.04e-01	0	41	0	285212672	57	4450
2026-01-30 02:09:23.02	27.66	24.01	-43.7	-44.8	26.4	6.02e-01	0	41	0	287309824	57	4473
2026-01-30 02:09:24.03	27.71	24.18	-43.7	-44.8	26.4	6.03e-01	0	41	0	288882688	58	4227
2026-01-30 02:09:25.04	27.75	24.36	-43.6	-44.7	26.5	6.02e-01	0	41	0	290979840	58	4180
2026-01-30 02:09:26.05	27.80	24.53	-43.6	-44.7	26.4	6.04e-01	0	41	0	292552704	58	4188
2026-01-30 02:09:27.05	27.84	24.71	-43.5	-44.6	26.6	6.04e-01	0	41	0	294649856	58	4123
2026-01-30 02:09:28.06	27.89	24.89	-43.5	-44.6	26.6	6.04e-01	0	41	0	296222720	58	4128
2026-01-30 02:09:29.07	27.93	25.07	-43.5	-44.6	26.5	6.02e-01	0	41	0	298319872	58	4141
2026-01-30 02:09:30.07	27.98	25.25	-43.5	-44.6	26.5	6.03e-01	0	41	0	300417024	58	4131
2026-01-30 02:09:31.08	28.03	25.43	-43.6	-44.7	26.5	6.02e-01	0	41	0	301989888	58	4156
2026-01-30 02:09:32.08	28.07	25.61	-43.5	-44.7	26.5	6.02e-01	0	41	0	304087040	58	4153
2026-01-30 02:09:33.09	28.12	25.80	-43.4	-44.5	26.5	6.03e-01	0	41	0	305659904	58	4076
2026-01-30 02:09:34.10	28.17	25.99	-43.4	-44.6	26.5	6.03e-01	0	41	0	307757056	58	4103
2026-01-30 02:09:35.11	28.22	26.18	-43.5	-44.6	26.6	6.01e-01	0	41	0	309329920	58	4115
2026-01-30 02:09:36.11	28.27	26.36	-43.5	-44.6	26.5	6.03e-01	0	41	0	311427072	58	4128
2026-01-30 02:09:37.12	28.32	26.56	-43.6	-44.7	26.4	6.03e-01	0	41	0	313524224	58	4179
2026-01-30 02:09:38.13	28.37	26.75	-43.7	-44.8	26.4	6.03e-01	0	41	0	315621376	58	4216
2026-01-30 02:09:39.14	28.42	26.94	-43.8	-44.9	26.3	6.04e-01	0	41	0	317194240	58	4263
2026-01-30 02:09:40.15	28.47	27.14	-43.8	-45.0	26.3	6.05e-01	0	41	0	319291392	58	4307
2026-01-30 02:09:41.15	28.53	27.33	-43.7	-44.8	26.5	6.01e-01	0	41	0	320864256	58	4211
2026-01-30 02:09:42.16	28.58	27.53	-43.6	-44.7	26.5	6.04e-01	0	41	0	322961408	58	4192
2026-01-30 02:09:43.16	28.63	27.73	-43.3	-44.4	26.8	6.02e-01	0	41	0	324534272	58	4042
2026-01-30 02:09:44.17	28.69	27.93	-43.3	-44.4	26.8	6.03e-01	0	41	0	326631424	58	4015
2026-01-30 02:09:45.18	28.74	28.14	-43.3	-44.4	26.8	6.02e-01	0	41	0	328728576	58	4038
2026-01-30 02:09:46.19	28.80	28.34	-43.4	-44.5	26.7	6.05e-01	0	41	0	330301440	58	4090
2026-01-30 02:09:47.20	28.86	28.55	-43.3	-44.4	26.8	6.02e-01	0	41	0	332398592	58	4034
2026-01-30 02:09:48.21	28.92	28.76	-43.1	-44.2	27.0	6.03e-01	0	41	0	333971456	58	3927
2026-01-30 02:09:49.21	28.97	28.97	-43.1	-44.2	27.0	6.00e-01	0	41	0	336068608	58	3922
2026-01-30 02:09:50.22	29.03	29.18	-43.0	-44.0	27.1	6.03e-01	0	41	0	338165760	57	4097
2026-01-30 02:09:51.22	29.09	29.39	-42.8	-43.9	27.3	6.01e-01	0	41	0	339738624	57	4012
2026-01-30 02:09:52.24	29.15	29.61	-42.9	-44.0	27.2	6.02e-01	0	41	0	341835776	57	4059
2026-01-30 02:09:53.24	29.21	29.82	-43.0	-44.0	27.2	6.01e-01	0	41	0	343932928	57	4097
2026-01-30 02:09:54.25	29.28	30.04	-43.0	-44.1	27.1	6.03e-01	0	41	0	345505792	57	4099
2026-01-30 02:09:55.26	29.34	30.26	-42.9	-43.9	27.3	6.04e-01	0	41	0	347602944	57	4041
2026-01-30 02:09:56.27	29.40	30.48	-42.7	-43.7	27.4	6.02e-01	0	41	0	349175808	57	3951
2026-01-30 02:09:57.28	29.47	30.71	-42.7	-43.7	27.4	6.02e-01	0	41	0	351272960	57	3956
2026-01-30 02:09:58.28	29.53	30.93	-42.8	-43.8	27.3	6.04e-01	0	41	0	352845824	57	4003
2026-01-30 02:09:59.29	29.60	31.16	-43.1	-44.1	27.1	6.03e-01	0	41	0	354942976	57	4135
2026-01-30 02:10:00.30	29.67	31.39	-43.2	-44.3	27.0	6.04e-01	0	41	0	357040128	57	4213
2026-01-30 02:10:01.31	29.73	31.62	-43.2	-44.3	26.9	6.04e-01	0	41	0	358612992	57	4231
2026-01-30 02:10:02.31	29.80	31.85	-43.2	-44.3	27.0	6.03e-01	0	41	0	360710144	57	4199
2026-01-30 02:10:03.32	29.87	32.09	-43.2	-44.2	27.0	6.01e-01	0	41	0	362807296	57	4191
2026-01-30 02:10:04.33	29.94	32.33	-43.0	-44.1	27.1	6.01e-01	0	41	0	364380160	57	4132
2026-01-30 02:10:05.34	30.02	32.57	-43.1	-44.2	27.1	6.01e-01	0	41	0	366477312	57	4164
2026-01-30 02:10:06.34	30.09	32.80	-43.3	-44.4	26.9	6.03e-01	0	41	0	368050176	57	4259
2026-01-30 02:10:07.35	30.16	33.05	-43.3	-44.4	26.9	6.02e-01	0	41	0	370147328	57	4274
2026-01-30 02:10:08.36	30.24	33.29	-43.4	-44.5	26.8	6.01e-01	0	41	0	372244480	57	4303
2026-01-30 02:10:09.36	30.31	33.54	-43.3	-44.4	26.9	6.04e-01	0	41	0	373817344	57	4285
2026-01-30 02:10:10.36	30.39	33.79	-43.4	-44.5	26.8	6.00e-01	0	41	0	375914496	57	4317
2026-01-30 02:10:11.37	30.47	34.04	-43.4	-44.5	26.8	6.02e-01	0	41	0	377487360	57	4337
2026-01-30 02:10:12.38	30.55	34.29	-43.6	-44.7	26.7	6.00e-01	0	41	0	379584512	57	4424
2026-01-30 02:10:13.39	30.63	34.55	-43.7	-44.8	26.5	6.02e-01	0	41	0	381157376	57	4475
2026-01-30 02:10:14.39	30.71	34.80	-43.9	-45.0	26.3	6.02e-01	0	41	0	383254528	58	4339
2026-01-30 02:10:15.40	30.80	35.06	-44.1	-45.2	26.2	6.03e-01	0	41	0	385351680	58	4426
2026-01-30 02:10:16.40	30.88	35.32	-44.2	-45.3	26.1	6.03e-01	0	41	0	386924544	58	4476
2026-01-30 02:10:17.41	30.97	35.59	-44.3	-45.5	26.0	6.03e-01	0	41	0	389021696	59	4297
2026-01-30 02:10:18.42	31.06	35.86	-44.2	-45.4	26.1	6.03e-01	0	41	0	391118848	59	4254
2026-01-30 02:10:19.43	31.14	36.13	-44.3	-45.5	26.0	6.01e-01	0	41	0	392691712	59	4299
2026-01-30 02:10:20.44	31.24	36.40	-44.6	-45.8	25.8	6.02e-01	0	41	0	394788864	59	4445
2026-01-30 02:10:21.44	31.33	36.67	-44.7	-45.9	25.6	6.03e-01	0	41	0	396361728	59	4531
2026-01-30 02:10:22.45	31.42	36.95	-44.7	-45.9	25.7	6.03e-01	0	41	0	398458880	60	4267
2026-01-30 02:10:23.46	31.52	37.23	-44.6	-45.8	25.8	6.04e-01	0	41	0	400556032	60	4198
2026-01-30 02:10:24.47	31.61	37.51	-44.7	-45.9	25.8	6.03e-01	0	41	0	402128896	60	4279
2026-01-30 02:10:25.47	31.71	37.79	-44.7	-46.0	25.7	6.04e-01	0	41	0	404226048	60	4294
2026-01-30 02:10:26.48	31.81	38.08	-44.9	-46.2	25.5	6.05e-01	0	41	0	405798912	60	4402
2026-01-30 02:10:27.48	31.91	38.36	-45.3	-46.6	25.2	6.02e-01	0	41	0	407896064	61	4350
2026-01-30 02:10:28.49	32.01	38.65	-45.4	-46.7	25.0	6.04e-01	0	41	0	409468928	61	4412
2026-01-30 02:10:29.50	32.12	38.95	-45.2	-46.5	25.3	6.04e-01	0	41	0	411566080	61	4295
2026-01-30 02:10:30.51	32.23	39.25	-45.2	-46.4	25.4	6.04e-01	0	41	0	413663232	61	4271
2026-01-30 02:10:31.52	32.34	39.55	-45.3	-46.6	25.2	6.03e-01	0	41	0	415760384	61	4354
2026-01-30 02:10:32.52	32.45	39.84	-45.1	-46.3	25.4	6.03e-01	0	41	0	417333248	61	4214
2026-01-30 02:10:33.53	32.56	40.15	-45.1	-46.3	25.5	6.02e-01	0	41	0	419430400	61	4214
2026-01-30 02:10:34.54	32.68	40.46	-45.1	-46.3	25.4	6.02e-01	0	41	0	421003264	61	4216
2026-01-30 02:10:35.55	32.79	40.77	-45.0	-46.2	25.6	6.00e-01	0	41	0	423100416	61	4160
2026-01-30 02:10:36.56	32.91	41.08	-45.0	-46.2	25.5	6.02e-01	0	41	0	424673280	61	4190
2026-01-30 02:10:37.56	33.04	41.39	-44.7	-45.9	25.8	6.02e-01	0	41	0	426770432	61	4045
2026-01-30 02:10:38.57	33.16	41.71	-44.6	-45.8	25.9	6.02e-01	0	41	0	428867584	61	3976
2026-01-30 02:10:39.57	33.29	42.03	-44.6	-45.7	25.9	6.01e-01	0	41	0	430440448	61	3954
2026-01-30 02:10:40.58	33.42	42.35	-44.1	-45.3	26.3	6.01e-01	0	41	0	432537600	60	3969
2026-01-30 02:10:41.59	33.55	42.68	-44.0	-45.1	26.5	6.01e-01	0	41	0	434110464	60	3903
2026-01-30 02:10:42.60	33.68	43.01	-43.8	-45.0	26.6	6.03e-01	0	41	0	436207616	59	4062
2026-01-30 02:10:43.61	33.82	43.34	-43.6	-44.7	26.8	6.00e-01	0	41	0	437780480	59	3932
2026-01-30 02:10:44.61	33.96	43.67	-43.5	-44.6	26.9	6.01e-01	0	41	0	439877632	59	3908
2026-01-30 02:10:45.62	34.10	44.01	-43.3	-44.4	27.0	6.03e-01	0	41	0	441974784	58	4033
2026-01-30 02:10:46.63	34.25	44.35	-43.0	-44.1	27.3	6.01e-01	0	41	0	444071936	58	3885
2026-01-30 02:10:47.63	34.40	44.69	-43.2	-44.2	27.1	6.02e-01	0	41	0	445644800	58	3952
2026-01-30 02:10:48.64	34.55	45.04	-43.4	-44.5	26.9	6.02e-01	0	41	0	447741952	58	4060
2026-01-30 02:10:49.65	34.71	45.39	-43.1	-44.2	27.3	6.02e-01	0	41	0	449314816	58	3916
2026-01-30 02:10:50.66	34.87	45.75	-42.9	-43.9	27.5	6.03e-01	0	41	0	451411968	57	4037
2026-01-30 02:10:51.67	35.03	46.10	-42.8	-43.9	27.5	6.03e-01	0	41	0	452984832	57	4018
2026-01-30 02:10:52.68	35.20	46.46	-43.2	-44.3	27.3	6.01e-01	0	41	0	455081984	57	4194
2026-01-30 02:10:53.68	35.37	46.82	-43.2	-44.2	27.2	6.02e-01	0	41	0	457179136	57	4188
2026-01-30 02:10:54.69	35.54	47.19	-43.0	-44.1	27.3	6.04e-01	0	41	0	458752000	57	4118
2026-01-30 02:10:55.70	35.72	47.55	-43.0	-44.1	27.3	6.00e-01	0	41	0	460849152	57	4112
2026-01-30 02:10:56.70	35.90	47.92	-43.2	-44.3	27.2	6.02e-01	0	41	0	462422016	57	4200
2026-01-30 02:10:57.71	36.09	48.30	-43.2	-44.2	27.2	6.02e-01	0	41	0	464519168	57	4177
2026-01-30 02:10:58.72	36.28	48.67	-43.3	-44.3	27.2	6.01e-01	0	41	0	466616320	57	4229
2026-01-30 02:10:59.73	36.48	49.05	-42.9	-44.0	27.4	6.03e-01	0	41	0	468189184	57	4074
2026-01-30 02:11:00.74	36.68	49.44	-43.0	-44.1	27.4	6.04e-01	0	41	0	470286336	57	4104
2026-01-30 02:11:01.74	36.88	49.82	-43.3	-44.4	27.1	6.05e-01	0	41	0	472383488	57	4272
2026-01-30 02:11:02.75	37.10	50.21	-43.2	-44.2	27.2	6.03e-01	0	41	0	473956352	57	4180
2026-01-30 02:11:03.75	37.31	50.60	-43.1	-44.1	27.3	6.00e-01	0	41	0	476053504	57	4130
2026-01-30 02:11:04.76	37.53	51.00	-43.0	-44.0	27.4	6.04e-01	0	41	0	477626368	57	4081
2026-01-30 02:11:05.77	37.76	51.40	-42.9	-43.9	27.5	6.02e-01	0	41	0	479723520	57	4039
2026-01-30 02:11:06.77	38.00	51.80	-42.9	-43.9	27.5	6.03e-01	0	41	0	481296384	57	4047
2026-01-30 02:11:07.78	38.24	52.20	-42.6	-43.6	27.8	6.04e-01	0	41	0	483393536	57	3895
2026-01-30 02:11:08.79	38.49	52.61	-42.5	-43.6	27.9	6.01e-01	0	41	0	485490688	57	3869
2026-01-30 02:11:09.80	38.74	53.02	-42.6	-43.6	27.8	6.02e-01	0	41	0	487063552	57	3899
2026-01-30 02:11:10.80	39.00	53.43	-42.4	-43.4	27.9	6.04e-01	0	41	0	489160704	56	4018
2026-01-30 02:11:11.81	39.27	53.85	-42.5	-43.6	27.9	6.00e-01	0	41	0	490733568	56	4108
2026-01-30 02:11:12.81	39.55	54.26	-42.3	-43.3	28.1	6.00e-01	0	41	0	492830720	56	3961
2026-01-30 02:11:13.82	39.83	54.69	-42.3	-43.3	28.1	6.00e-01	0	41	0	494927872	56	4004
2026-01-30 02:11:14.83	40.13	55.11	-42.6	-43.6	27.8	6.04e-01	0	41	0	496500736	56	4123
2026-01-30 02:11:15.84	40.43	55.54	-42.7	-43.8	27.7	6.01e-01	0	41	0	498597888	56	4199
2026-01-30 02:11:16.84	40.74	55.97	-42.9	-43.9	27.4	6.02e-01	0	41	0	500695040	56	4290
2026-01-30 02:11:17.85	41.06	56.41	-43.3	-44.4	27.2	6.04e-01	0	41	0	502267904	57	4253
2026-01-30 02:11:18.85	41.39	56.84	-43.3	-44.3	27.2	6.02e-01	0	41	0	504365056	57	4237
2026-01-30 02:11:19.86	41.74	57.28	-43.8	-45.0	26.7	6.02e-01	0	41	0	505937920	58	4295
2026-01-30 02:11:20.87	42.09	57.72	-43.7	-44.8	26.8	6.03e-01	0	41	0	508035072	58	4228
2026-01-30 02:11:21.88	42.46	58.17	-44.4	-45.6	26.2	6.02e-01	0	41	0	509607936	59	4359
2026-01-30 02:11:22.88	42.83	58.61	-44.2	-45.3	26.2	6.02e-01	0	41	0	511705088	59	4217
2026-01-30 02:11:23.89	43.23	59.06	-44.4	-45.5	26.2	6.04e-01	0	41	0	513802240	59	4335
2026-01-30 02:11:24.90	43.63	59.51	-44.5	-45.7	26.0	6.03e-01	0	41	0	515375104	59	4413
2026-01-30 02:11:25.90	44.05	59.96	-45.0	-46.2	25.7	6.02e-01	0	41	0	517472256	60	4407
2026-01-30 02:11:26.90	44.48	60.41	-44.9	-46.1	25.8	6.01e-01	0	41	0	519045120	60	4388
2026-01-30 02:11:27.91	44.93	60.87	-45.2	-46.4	25.4	6.01e-01	0	41	0	521142272	61	4291
2026-01-30 02:11:28.92	45.40	61.33	-45.2	-46.4	25.5	6.02e-01	0	41	0	523239424	61	4287
2026-01-30 02:11:29.93	45.88	61.79	-45.5	-46.8	25.2	6.04e-01	0	41	0	524812288	61	4458
2026-01-30 02:11:30.93	46.38	62.25	-45.8	-47.1	24.9	6.03e-01	0	41	0	526909440	62	4378
2026-01-30 02:11:31.94	46.90	62.71	-46.1	-47.4	24.7	6.04e-01	0	41	0	529006592	62	4516
2026-01-30 02:11:32.94	47.44	63.17	-46.4	-47.8	24.2	6.02e-01	0	41	0	530579456	63	4474
2026-01-30 02:11:33.95	48.00	63.64	-46.6	-48.0	24.1	6.03e-01	0	41	0	532676608	63	4557
2026-01-30 02:11:34.96	48.59	64.11	-46.6	-48.0	24.2	6.03e-01	0	41	0	534249472	63	4564
2026-01-30 02:11:35.97	49.20	64.58	-47.4	-49.0	23.1	6.04e-01	0	41	0	536346624	65	4554
2026-01-30 02:11:36.97	49.83	65.04	-46.9	-48.4	23.7	6.03e-01	0	41	0	537919488	65	4252
2026-01-30 02:11:37.98	50.49	65.51	-47.3	-48.9	23.2	6.01e-01	0	41	0	540016640	65	4498
2026-01-30 02:11:38.99	51.19	65.98	-47.6	-49.2	22.9	6.04e-01	0	41	0	542113792	65	4676
2026-01-30 02:11:40.00	51.91	66.44	-47.7	-49.3	22.8	6.03e-01	0	41	0	543686656	66	4477
2026-01-30 02:11:41.01	52.67	66.91	-47.7	-49.3	22.9	6.04e-01	0	41	0	545783808	66	4444
2026-01-30 02:11:42.01	53.45	67.37	-48.2	-49.9	22.2	6.02e-01	0	41	0	547356672	66	4800
2026-01-30 02:11:43.01	54.26	67.83	-48.2	-49.9	22.2	6.03e-01	0	41	0	549453824	67	4531
2026-01-30 02:11:44.02	55.13	68.30	-48.4	-50.1	21.9	6.02e-01	0	41	0	551550976	68	4366
2026-01-30 02:11:45.02	56.02	68.75	-49.1	-51.0	21.2	6.03e-01	0	41	0	553123840	68	4839
2026-01-30 02:11:46.03	56.97	69.21	-48.9	-50.8	21.3	6.02e-01	0	41	0	555220992	68	4733
2026-01-30 02:11:47.03	57.95	69.66	-48.8	-50.7	21.4	6.01e-01	0	41	0	557318144	69	4417
2026-01-30 02:11:48.04	58.99	70.11	-48.7	-50.5	21.7	6.03e-01	0	41	0	558891008	69	4299
2026-01-30 02:11:49.05	60.08	70.56	-49.0	-50.9	21.2	6.04e-01	0	41	0	560988160	69	4509
2026-01-30 02:11:50.05	61.21	71.00	-48.2	-49.9	22.3	6.02e-01	0	41	0	562561024	68	4274
2026-01-30 02:11:51.06	62.42	71.43	-47.6	-49.2	23.0	6.04e-01	0	41	0	564658176	67	4154
2026-01-30 02:11:52.06	63.67	71.86	-47.8	-49.5	22.6	6.03e-01	0	41	0	566231040	67	4293
2026-01-30 02:11:53.07	64.99	72.29	-47.7	-49.3	22.9	6.05e-01	0	41	0	568328192	67	4215
2026-01-30 02:11:54.08	66.39	72.70	-46.5	-47.9	24.1	6.02e-01	0	41	0	570425344	65	4034
2026-01-30 02:11:55.09	67.86	73.11	-47.0	-48.5	23.6	6.05e-01	0	41	0	571998208	65	4302
2026-01-30 02:11:56.09	69.38	73.50	-46.6	-48.0	24.1	6.05e-01	0	41	0	574095360	65	4090
2026-01-30 02:11:57.10	71.01	73.89	-46.0	-47.3	24.7	6.01e-01	0	41	0	575668224	64	3991
2026-01-30 02:11:58.10	72.69	74.26	-46.4	-47.7	24.3	6.02e-01	0	41	0	577765376	64	4186
2026-01-30 02:11:59.11	74.48	74.63	-46.4	-47.8	24.2	6.03e-01	0	41	0	579338240	64	4237
2026-01-30 02:12:00.12	76.35	74.98	-46.1	-47.4	24.8	6.02e-01	0	41	0	581435392	63	4246
2026-01-30 02:12:01.13	78.32	75.31	-46.4	-47.8	24.3	6.03e-01	0	41	0	583532544	63	4467
2026-01-30 02:12:02.13	80.36	75.62	-46.1	-47.3	24.7	6.02e-01	0	41	0	585629696	63	4242
2026-01-30 02:12:03.14	82.51	75.92	-46.5	-47.9	24.1	6.01e-01	0	41	0	587202560	63	4517
2026-01-30 02:12:04.15	84.76	76.21	-46.5	-47.9	24.3	6.04e-01	0	41	0	589299712	63	4508
2026-01-30 02:12:05.15	87.07	76.46	-46.0	-47.3	24.8	6.03e-01	0	41	0	590872576	63	4199
2026-01-30 02:12:06.16	89.50	76.70	-45.7	-46.9	25.1	6.02e-01	0	41	0	592969728	63	4043
2026-01-30 02:12:07.17	92.01	76.91	-46.0	-47.3	24.6	6.05e-01	0	41	0	594542592	63	4216
2026-01-30 02:12:08.17	94.58	77.10	-44.9	-46.1	25.9	6.02e-01	0	41	0	596639744	61	4116
2026-01-30 02:12:09.18	97.25	77.27	-45.2	-46.4	25.6	6.03e-01	0	41	0	598736896	61	4262
2026-01-30 02:12:10.19	99.99	77.40	-45.2	-46.4	25.5	6.04e-01	0	41	0	600309760	61	4264
2026-01-30 02:12:11.20	102.78	77.51	-44.5	-45.6	26.3	6.02e-01	0	41	0	602406912	60	4144
2026-01-30 02:12:12.20	105.58	77.59	-45.4	-46.7	25.4	6.02e-01	0	41	0	603979776	61	4407
2026-01-30 02:12:13.21	108.44	77.64	-45.1	-46.3	25.7	6.01e-01	0	41	0	606076928	61	4238
2026-01-30 02:12:14.21	111.29	77.66	-44.8	-45.9	26.1	6.02e-01	0	41	0	607649792	61	4026
2026-01-30 02:12:15.21	114.15	77.65	-45.8	-47.1	25.0	6.01e-01	0	41	0	609746944	62	4381
2026-01-30 02:12:16.22	117.02	77.61	-45.8	-47.1	25.0	6.04e-01	0	41	0	611844096	62	4346
2026-01-30 02:12:17.23	119.86	77.54	-45.3	-46.6	25.5	6.03e-01	0	41	0	613941248	62	4102
2026-01-30 02:12:18.23	122.63	77.44	-45.7	-46.9	25.2	6.01e-01	0	41	0	615514112	62	4280
2026-01-30 02:12:19.24	125.39	77.31	-45.4	-46.6	25.4	6.03e-01	0	41	0	617611264	62	4117
2026-01-30 02:12:20.24	128.05	77.15	-45.0	-46.2	25.8	6.02e-01	0	41	0	619184128	62	3938
2026-01-30 02:12:21.25	130.67	76.97	-45.2	-46.4	25.6	6.01e-01	0	41	0	621281280	62	4028
2026-01-30 02:12:22.26	133.21	76.76	-45.3	-46.6	25.5	6.02e-01	0	41	0	622854144	62	4108
2026-01-30 02:12:23.26	135.64	76.54	-45.2	-46.4	25.5	6.00e-01	0	41	0	624951296	62	4037
2026-01-30 02:12:24.27	138.00	76.28	-45.3	-46.5	25.5	6.04e-01	0	41	0	627048448	61	4317
2026-01-30 02:12:25.28	140.28	76.01	-45.5	-46.8	25.3	6.02e-01	0	41	0	628621312	61	4457
2026-01-30 02:12:26.29	142.46	75.71	-45.7	-46.9	25.1	6.05e-01	0	41	0	630718464	61	4542
2026-01-30 02:12:27.29	144.52	75.40	-46.1	-47.4	24.6	6.05e-01	0	41	0	632291328	63	4284
2026-01-30 02:12:28.30	146.52	75.07	-46.2	-47.5	24.6	6.02e-01	0	41	0	634388480	63	4334
2026-01-30 02:12:29.31	148.42	74.73	-46.2	-47.5	24.6	6.04e-01	0	41	0	635961344	63	4331
2026-01-30 02:12:30.31	150.22	74.37	-46.3	-47.6	24.5	6.02e-01	0	41	0	638058496	63	4372
2026-01-30 02:12:31.32	151.94	74.00	-46.4	-47.8	24.4	6.02e-01	0	41	0	640155648	63	4446
2026-01-30 02:12:32.33	153.59	73.61	-45.9	-47.2	24.8	6.00e-01	0	41	0	642252800	63	4185
2026-01-30 02:12:33.33	155.14	73.22	-46.2	-47.5	24.6	6.01e-01	0	41	0	643825664	63	4306
2026-01-30 02:12:34.34	156.63	72.82	-45.7	-46.9	25.2	6.01e-01	0	41	0	645922816	63	4045
2026-01-30 02:12:35.35	158.05	72.40	-45.9	-47.1	25.0	6.04e-01	0	41	0	647495680	63	4145
2026-01-30 02:12:36.36	159.39	71.98	-46.4	-47.8	24.4	6.02e-01	0	41	0	649592832	63	4454
2026-01-30 02:12:37.36	160.66	71.55	-46.1	-47.4	24.8	6.04e-01	0	41	0	651165696	63	4270
2026-01-30 02:12:38.37	161.88	71.12	-46.5	-47.9	24.2	6.03e-01	0	41	0	653262848	63	4505
2026-01-30 02:12:39.37	163.03	70.68	-46.3	-47.6	24.6	6.02e-01	0	41	0	655360000	63	4380
2026-01-30 02:12:40.38	164.14	70.23	-46.7	-48.1	24.1	6.02e-01	0	41	0	656932864	63	4614
2026-01-30 02:12:41.38	165.19	69.79	-46.7	-48.1	24.0	6.02e-01	0	41	0	659030016	64	4347
2026-01-30 02:12:42.39	166.19	69.33	-46.7	-48.1	23.9	6.02e-01	0	41	0	660602880	64	4371
2026-01-30 02:12:43.39	167.14	68.88	-46.8	-48.2	23.9	6.00e-01	0	41	0	662700032	64	4432
2026-01-30 02:12:44.40	168.06	68.42	-47.0	-48.5	23.6	6.03e-01	0	41	0	664272896	64	4578
2026-01-30 02:12:45.41	168.93	67.96	-47.0	-48.5	23.6	6.01e-01	0	41	0	666370048	64	4557
2026-01-30 02:12:46.41	169.76	67.50	-46.7	-48.1	24.0	6.02e-01	0	41	0	668467200	64	4356
2026-01-30 02:12:47.41	170.55	67.03	-46.5	-47.8	24.2	6.01e-01	0	41	0	670040064	64	4228
2026-01-30 02:12:48.41	171.31	66.57	-46.5	-47.9	24.1	6.04e-01	0	41	0	672137216	64	4243
2026-01-30 02:12:49.43	172.05	66.10	-46.5	-47.9	24.2	6.04e-01	0	41	0	674234368	64	4267
2026-01-30 02:12:50.43	172.74	65.63	-46.3	-47.6	24.4	6.04e-01	0	41	0	675807232	64	4140
2026-01-30 02:12:51.44	173.41	65.16	-46.0	-47.3	24.8	6.03e-01	0	41	0	677904384	63	4213
2026-01-30 02:12:52.44	174.05	64.70	-46.1	-47.4	24.7	6.02e-01	0	41	0	679477248	63	4288
2026-01-30 02:12:53.45	174.67	64.23	-45.9	-47.2	24.9	6.03e-01	0	41	0	681574400	63	4175
2026-01-30 02:12:54.46	175.27	63.76	-45.9	-47.2	24.9	6.03e-01	0	41	0	683671552	63	4182
2026-01-30 02:12:55.47	175.84	63.29	-45.3	-46.5	25.4	6.01e-01	0	41	0	685244416	62	4094
2026-01-30 02:12:56.48	176.39	62.83	-45.4	-46.6	25.4	6.01e-01	0	41	0	687341568	62	4120
2026-01-30 02:12:57.48	176.91	62.37	-45.3	-46.5	25.5	6.03e-01	0	41	0	688914432	62	4068
2026-01-30 02:12:58.49	177.42	61.90	-45.2	-46.5	25.5	6.04e-01	0	41	0	691011584	62	4061
2026-01-30 02:12:59.50	177.91	61.44	-44.4	-45.5	26.4	6.03e-01	0	41	0	692584448	60	4069
2026-01-30 02:13:00.51	178.38	60.98	-44.8	-46.0	26.0	6.04e-01	0	41	0	694681600	60	4325
2026-01-30 02:13:01.51	178.83	60.52	-44.8	-46.0	26.0	6.01e-01	0	41	0	696778752	60	4324
2026-01-30 02:13:02.51	179.27	60.07	-44.5	-45.7	26.2	6.01e-01	0	41	0	698875904	60	4161
2026-01-30 02:13:03.52	179.69	59.61	-44.3	-45.4	26.4	6.02e-01	0	41	0	700448768	60	4039
2026-01-30 02:13:04.53	180.10	59.16	-44.3	-45.5	26.4	6.03e-01	0	41	0	702545920	60	4057
2026-01-30 02:13:05.54	180.50	58.71	-44.1	-45.2	26.6	6.02e-01	0	41	0	704118784	60	3952
2026-01-30 02:13:06.54	180.88	58.26	-44.1	-45.3	26.6	6.03e-01	0	41	0	706215936	60	3976
2026-01-30 02:13:07.54	181.24	57.82	-44.0	-45.1	26.4	6.04e-01	0	41	0	707788800	59	4143
2026-01-30 02:13:08.55	181.60	57.38	-43.9	-45.1	26.6	6.03e-01	0	41	0	709885952	59	4104
2026-01-30 02:13:09.55	181.94	56.94	-44.0	-45.1	26.7	6.02e-01	0	41	0	711983104	59	4109
2026-01-30 02:13:10.55	182.28	56.51	-43.9	-45.0	26.6	6.02e-01	0	41	0	713555968	59	4087
2026-01-30 02:13:11.56	182.60	56.07	-43.6	-44.7	27.0	6.03e-01	0	41	0	715653120	59	3914
2026-01-30 02:13:12.56	182.92	55.64	-43.5	-44.6	27.1	6.03e-01	0	41	0	717225984	58	4099
2026-01-30 02:13:13.57	183.22	55.21	-43.7	-44.8	26.8	6.02e-01	0	41	0	719323136	58	4219
2026-01-30 02:13:14.58	183.52	54.78	-43.4	-44.5	27.0	6.04e-01	0	41	0	720896000	58	4062
2026-01-30 02:13:15.59	183.81	54.36	-43.2	-44.3	27.4	6.03e-01	0	41	0	722993152	58	3960
2026-01-30 02:13:16.60	184.09	53.93	-43.0	-44.0	27.5	5.99e-01	0	41	0	725090304	57	4098
2026-01-30 02:13:17.61	184.36	53.51	-42.9	-44.0	27.5	6.00e-01	0	41	0	726663168	57	4067
2026-01-30 02:13:18.61	184.62	53.10	-43.0	-44.0	27.5	6.01e-01	0	41	0	728760320	57	4076
2026-01-30 02:13:19.62	184.88	52.69	-43.3	-44.4	27.1	6.01e-01	0	41	0	730857472	57	4251
2026-01-30 02:13:20.63	185.13	52.28	-43.2	-44.2	27.3	6.01e-01	0	41	0	732430336	57	4187
2026-01-30 02:13:21.63	185.37	51.88	-43.1	-44.2	27.3	6.04e-01	0	41	0	734527488	57	4180
2026-01-30 02:13:22.64	185.61	51.47	-43.1	-44.2	27.4	6.04e-01	0	41	0	736100352	57	4155
2026-01-30 02:13:23.65	185.84	51.07	-43.2	-44.3	27.2	6.02e-01	0	41	0	738197504	57	4219
2026-01-30 02:13:24.65	186.06	50.68	-43.4	-44.5	27.1	6.03e-01	0	41	0	740294656	57	4313
2026-01-30 02:13:25.66	186.28	50.28	-43.3	-44.4	27.0	6.03e-01	0	41	0	741867520	57	4246
2026-01-30 02:13:26.66	186.49	49.89	-43.4	-44.4	27.1	6.04e-01	0	41	0	743964672	57	4285
2026-01-30 02:13:27.67	186.70	49.50	-43.9	-45.0	26.7	6.02e-01	0	41	0	745537536	58	4316
2026-01-30 02:13:28.68	186.90	49.12	-44.0	-45.1	26.5	6.03e-01	0	41	0	747634688	58	4387
2026-01-30 02:13:29.69	187.10	48.73	-43.8	-45.0	26.6	6.03e-01	0	41	0	749207552	58	4297
2026-01-30 02:13:30.69	187.29	48.36	-44.0	-45.1	26.5	6.04e-01	0	41	0	751304704	58	4355
2026-01-30 02:13:31.71	187.48	47.98	-43.8	-44.9	26.7	6.02e-01	0	41	0	753401856	58	4258
2026-01-30 02:13:32.71	187.67	47.61	-43.6	-44.7	26.8	6.02e-01	0	41	0	755499008	58	4149
2026-01-30 02:13:33.72	187.85	47.24	-43.6	-44.8	26.8	6.02e-01	0	41	0	757071872	58	4197
2026-01-30 02:13:34.72	188.02	46.88	-43.8	-44.9	26.7	6.01e-01	0	41	0	759169024	58	4251
2026-01-30 02:13:35.73	188.19	46.51	-43.9	-45.1	26.6	6.05e-01	0	41	0	760741888	58	4345
2026-01-30 02:13:36.73	188.36	46.15	-43.8	-44.9	26.7	6.02e-01	0	41	0	762839040	58	4279
2026-01-30 02:13:37.74	188.52	45.80	-43.7	-44.8	26.8	6.03e-01	0	41	0	764411904	58	4201
2026-01-30 02:13:38.75	188.68	45.44	-43.8	-44.9	26.8	6.01e-01	0	41	0	766509056	58	4256
2026-01-30 02:13:39.75	188.84	45.09	-43.8	-44.9	26.7	6.01e-01	0	41	0	768606208	58	4255
2026-01-30 02:13:40.76	188.99	44.74	-43.7	-44.8	26.7	6.03e-01	0	41	0	770179072	58	4223
2026-01-30 02:13:41.76	189.14	44.40	-43.8	-44.9	26.7	6.02e-01	0	41	0	772276224	58	4256
2026-01-30 02:13:42.77	189.29	44.06	-43.9	-45.0	26.6	6.03e-01	0	41	0	773849088	58	4316
2026-01-30 02:13:43.78	189.43	43.72	-43.9	-45.1	26.5	6.02e-01	0	41	0	775946240	58	4356
2026-01-30 02:13:44.79	189.58	43.38	-43.7	-44.8	26.7	6.02e-01	0	41	0	777519104	58	4224
2026-01-30 02:13:45.79	189.71	43.05	-43.6	-44.7	26.8	6.03e-01	0	41	0	779616256	58	4185
2026-01-30 02:13:46.80	189.85	42.72	-43.9	-45.0	26.6	5.99e-01	0	41	0	781713408	58	4320
2026-01-30 02:13:47.81	189.98	42.39	-44.0	-45.2	26.4	6.04e-01	0	41	0	783286272	58	4402
2026-01-30 02:13:48.82	190.11	42.06	-44.3	-45.4	26.3	6.03e-01	0	41	0	785383424	59	4278
2026-01-30 02:13:49.82	190.24	41.74	-44.3	-45.5	26.1	6.04e-01	0	41	0	787480576	59	4330
2026-01-30 02:13:50.83	190.36	41.42	-44.5	-45.6	25.9	6.05e-01	0	41	0	789053440	59	4387
2026-01-30 02:13:51.84	190.49	41.11	-44.4	-45.6	25.9	5.99e-01	0	41	0	791150592	59	4350
2026-01-30 02:13:52.84	190.61	40.79	-44.4	-45.5	26.1	6.02e-01	0	41	0	792723456	59	4329
2026-01-30 02:13:53.86	190.73	40.48	-44.5	-45.7	25.9	6.05e-01	0	41	0	794820608	59	4424
2026-01-30 02:13:54.86	190.84	40.17	-44.6	-45.8	25.8	6.01e-01	0	41	0	796917760	59	4463
2026-01-30 02:13:55.87	190.95	39.87	-44.6	-45.8	25.8	6.03e-01	0	41	0	798490624	59	4485
2026-01-30 02:13:56.88	191.07	39.56	-44.6	-45.8	25.8	6.05e-01	0	41	0	800587776	59	4459
2026-01-30 02:13:57.89	191.18	39.26	-44.4	-45.6	26.0	6.04e-01	0	41	0	802160640	59	4368
2026-01-30 02:13:58.90	191.28	38.96	-44.7	-45.9	25.7	6.00e-01	0	41	0	804257792	59	4497
2026-01-30 02:13:59.90	191.39	38.67	-44.9	-46.1	25.6	6.03e-01	0	41	0	805830656	60	4370
2026-01-30 02:14:00.91	191.49	38.38	-44.9	-46.2	25.5	6.02e-01	0	41	0	807927808	60	4421
2026-01-30 02:14:01.91	191.59	38.09	-44.6	-45.8	25.7	6.03e-01	0	41	0	810024960	60	4234
2026-01-30 02:14:02.93	191.70	37.80	-44.4	-45.6	26.0	6.04e-01	0	41	0	812122112	60	4106
2026-01-30 02:14:03.93	191.79	37.52	-44.1	-45.3	26.3	6.03e-01	0	41	0	813694976	60	3965
2026-01-30 02:14:04.94	191.89	37.23	-44.0	-45.1	26.3	6.03e-01	0	41	0	815792128	59	4143
2026-01-30 02:14:05.95	191.99	36.95	-44.1	-45.3	26.3	6.02e-01	0	41	0	817364992	59	4195
2026-01-30 02:14:06.95	192.08	36.68	-44.1	-45.3	26.2	6.03e-01	0	41	0	819462144	59	4213
2026-01-30 02:14:07.96	192.17	36.40	-44.2	-45.4	26.2	6.04e-01	0	41	0	821035008	59	4258
2026-01-30 02:14:08.96	192.26	36.13	-44.1	-45.3	26.2	6.03e-01	0	41	0	823132160	59	4208
2026-01-30 02:14:09.97	192.35	35.86	-44.1	-45.3	26.2	6.01e-01	0	41	0	825229312	59	4204
2026-01-30 02:14:10.98	192.44	35.59	-43.9	-45.0	26.5	6.04e-01	0	41	0	826802176	59	4063
2026-01-30 02:14:11.99	192.53	35.32	-43.6	-44.7	26.8	6.01e-01	0	41	0	828899328	59	3937
2026-01-30 02:14:13.00	192.61	35.06	-43.6	-44.7	26.7	6.00e-01	0	41	0	830472192	59	3921
2026-01-30 02:14:14.01	192.70	34.80	-43.4	-44.5	26.8	6.03e-01	0	41	0	832569344	58	4093
2026-01-30 02:14:15.01	192.78	34.54	-43.4	-44.5	26.9	6.02e-01	0	41	0	834142208	58	4059
2026-01-30 02:14:16.02	192.86	34.28	-43.4	-44.5	26.9	6.03e-01	0	41	0	836239360	58	4095
2026-01-30 02:14:17.02	192.94	34.03	-43.3	-44.4	27.0	6.03e-01	0	41	0	838336512	58	4029
2026-01-30 02:14:18.04	193.02	33.77	-43.3	-44.4	27.0	6.02e-01	0	41	0	840433664	58	4023
2026-01-30 02:14:19.04	193.09	33.53	-43.3	-44.4	27.0	6.03e-01	0	41	0	842006528	58	4037
2026-01-30 02:14:20.05	193.17	33.28	-43.1	-44.1	27.2	6.04e-01	0	41	0	844103680	58	3903
2026-01-30 02:14:21.05	193.25	33.03	-42.8	-43.9	27.4	6.02e-01	0	41	0	845676544	57	4015
2026-01-30 02:14:22.06	193.32	32.79	-42.7	-43.8	27.5	6.02e-01	0	41	0	847773696	57	3959
2026-01-30 02:14:23.07	193.39	32.54	-42.6	-43.7	27.6	6.02e-01	0	41	0	849346560	57	3919
2026-01-30 02:14:24.07	193.47	32.31	-42.4	-43.5	27.7	6.01e-01	0	41	0	851443712	56	4063
2026-01-30 02:14:25.08	193.54	32.07	-42.6	-43.6	27.6	6.01e-01	0	41	0	853540864	56	4123
2026-01-30 02:14:26.09	193.61	31.83	-42.5	-43.6	27.7	6.04e-01	0	41	0	855113728	56	4105
2026-01-30 02:14:27.09	193.68	31.60	-42.4	-43.5	27.8	6.05e-01	0	41	0	857210880	56	4054
2026-01-30 02:14:28.10	193.74	31.37	-42.2	-43.2	27.9	6.02e-01	0	41	0	858783744	56	3939
2026-01-30 02:14:29.11	193.81	31.14	-42.2	-43.2	27.9	6.00e-01	0	41	0	860880896	56	3956
2026-01-30 02:14:30.11	193.88	30.91	-42.3	-43.3	27.8	6.01e-01	0	41	0	862978048	56	3987
2026-01-30 02:14:31.12	193.94	30.68	-42.4	-43.4	27.6	6.03e-01	0	41	0	864550912	56	4035
2026-01-30 02:14:32.13	194.01	30.46	-42.5	-43.5	27.7	6.02e-01	0	41	0	866648064	56	4083
2026-01-30 02:14:33.14	194.07	30.23	-42.5	-43.6	27.6	6.01e-01	0	41	0	868745216	56	4121
2026-01-30 02:14:34.14	194.13	30.01	-42.6	-43.7	27.5	6.03e-01	0	41	0	870318080	56	4150
2026-01-30 02:14:35.15	194.20	29.79	-42.5	-43.6	27.6	6.02e-01	0	41	0	872415232	56	4110
2026-01-30 02:14:36.15	194.26	29.58	-42.5	-43.5	27.7	6.02e-01	0	41	0	873988096	56	4078
2026-01-30 02:14:37.16	194.32	29.36	-42.5	-43.6	27.7	6.03e-01	0	41	0	876085248	56	4106
2026-01-30 02:14:38.16	194.38	29.15	-42.6	-43.7	27.5	6.03e-01	0	41	0	877658112	56	4156
2026-01-30 02:14:39.17	194.43	28.94	-42.7	-43.8	27.4	6.01e-01	0	41	0	879755264	56	4210
2026-01-30 02:14:40.18	194.49	28.72	-42.7	-43.7	27.5	6.02e-01	0	41	0	881852416	56	4177
2026-01-30 02:14:41.18	194.55	28.52	-42.6	-43.6	27.6	6.05e-01	0	41	0	883425280	56	4142
2026-01-30 02:14:42.19	194.61	28.31	-42.6	-43.7	27.5	6.01e-01	0	41	0	885522432	56	4164
2026-01-30 02:14:43.20	194.66	28.10	-42.8	-43.8	27.4	6.04e-01	0	41	0	887095296	56	4241
2026-01-30 02:14:44.21	194.72	27.90	-42.9	-43.9	27.3	6.02e-01	0	41	0	889192448	56	4279
2026-01-30 02:14:45.21	194.77	27.70	-43.0	-44.0	27.2	6.02e-01	0	41	0	890765312	56	4338
2026-01-30 02:14:46.22	194.83	27.50	-43.0	-44.1	27.2	6.01e-01	0	41	0	892862464	56	4357
2026-01-30 02:14:47.23	194.88	27.30	-43.2	-44.3	27.0	6.02e-01	0	41	0	894959616	56	4454
2026-01-30 02:14:48.24	194.93	27.10	-43.1	-44.2	27.0	6.02e-01	0	41	0	897056768	56	4414
2026-01-30 02:14:49.25	194.99	26.90	-43.3	-44.4	26.8	6.01e-01	0	41	0	898629632	57	4272
2026-01-30 02:14:50.26	195.04	26.70	-43.2	-44.3	26.9	6.03e-01	0	41	0	900726784	57	4208
2026-01-30 02:14:51.26	195.09	26.51	-43.3	-44.4	26.8	5.99e-01	0	41	0	902299648	57	4263
2026-01-30 02:14:52.27	195.14	26.32	-43.3	-44.4	26.7	6.02e-01	0	41	0	904396800	57	4256
2026-01-30 02:14:53.28	195.19	26.13	-43.4	-44.5	26.7	6.02e-01	0	41	0	905969664	57	4304
2026-01-30 02:14:54.28	195.24	25.94	-43.3	-44.4	26.8	6.02e-01	0	41	0	908066816	57	4267
2026-01-30 02:14:55.29	195.29	25.75	-43.3	-44.3	26.8	6.02e-01	0	41	0	910163968	57	4239
2026-01-30 02:14:56.30	195.33	25.57	-43.3	-44.4	26.8	6.02e-01	0	41	0	911736832	57	4253
2026-01-30 02:14:57.31	195.38	25.38	-43.4	-44.5	26.8	6.02e-01	0	41	0	913833984	57	4299
2026-01-30 02:14:58.32	195.43	25.20	-43.5	-44.7	26.6	6.03e-01	0	41	0	915931136	57	4412
2026-01-30 02:14:59.32	195.47	25.02	-43.7	-44.9	26.4	6.01e-01	0	41	0	917504000	57	4507
2026-01-30 02:15:00.33	195.52	24.83	-43.8	-44.9	26.3	6.01e-01	0	41	0	919601152	58	4277
2026-01-30 02:15:01.34	195.57	24.65	-43.8	-44.9	26.3	6.01e-01	0	41	0	921174016	58	4285
2026-01-30 02:15:02.34	195.61	24.48	-43.8	-44.9	26.3	6.06e-01	0	41	0	923271168	58	4289
2026-01-30 02:15:03.35	195.66	24.30	-43.7	-44.8	26.4	6.00e-01	0	41	0	925368320	58	4234
2026-01-30 02:15:04.35	195.70	24.13	-43.7	-44.8	26.4	6.02e-01	0	41	0	926941184	58	4236
2026-01-30 02:15:05.36	195.74	23.95	-43.6	-44.8	26.4	6.03e-01	0	41	0	929038336	58	4206
2026-01-30 02:15:06.37	195.79	23.78	-43.6	-44.7	26.5	6.02e-01	0	41	0	930611200	58	4173
2026-01-30 02:15:07.38	195.83	23.61	-43.6	-44.7	26.4	6.01e-01	0	41	0	932708352	58	4177
2026-01-30 02:15:08.39	195.87	23.43	-43.7	-44.8	26.3	6.04e-01	0	41	0	934281216	58	4239
2026-01-30 02:15:09.39	195.91	23.27	-43.6	-44.8	26.4	6.04e-01	0	41	0	936378368	58	4195
2026-01-30 02:15:10.40	195.95	23.10	-43.6	-44.8	26.4	6.00e-01	0	41	0	938475520	58	4206
2026-01-30 02:15:11.41	196.00	22.93	-43.7	-44.9	26.3	6.03e-01	0	41	0	940048384	58	4253
2026-01-30 02:15:12.42	196.04	22.76	-43.7	-44.8	26.4	6.02e-01	0	41	0	942145536	58	4219
2026-01-30 02:15:13.42	196.08	22.60	-43.6	-44.7	26.5	6.02e-01	0	41	0	944242688	58	4165
2026-01-30 02:15:14.43	196.12	22.44	-43.5	-44.6	26.6	6.01e-01	0	41	0	945815552	58	4105
2026-01-30 02:15:15.44	196.15	22.27	-43.5	-44.7	26.5	6.03e-01	0	41	0	947912704	58	4151
2026-01-30 02:15:16.45	196.19	22.11	-43.5	-44.7	26.5	6.02e-01	0	41	0	949485568	58	4155
2026-01-30 02:15:17.45	196.23	21.95	-43.6	-44.7	26.4	6.02e-01	0	41	0	951582720	58	4173
2026-01-30 02:15:18.46	196.27	21.79	-43.6	-44.7	26.3	6.01e-01	0	41	0	953679872	58	4177
2026-01-30 02:15:19.47	196.31	21.63	-43.6	-44.8	26.3	6.03e-01	0	41	0	955252736	58	4209
2026-01-30 02:15:20.47	196.35	21.48	-43.7	-44.8	26.3	6.02e-01	0	41	0	957349888	58	4240
2026-01-30 02:15:21.48	196.38	21.32	-43.8	-45.0	26.1	6.05e-01	0	41	0	958922752	58	4302
2026-01-30 02:15:22.49	196.42	21.16	-43.6	-44.8	26.2	6.02e-01	0	41	0	961019904	58	4195
2026-01-30 02:15:23.49	196.46	21.01	-43.6	-44.7	26.3	6.05e-01	0	41	0	962592768	58	4171
2026-01-30 02:15:24.50	196.49	20.86	-43.5	-44.6	26.4	6.04e-01	0	41	0	964689920	58	4136
2026-01-30 02:15:25.51	196.53	20.71	-43.3	-44.4	26.6	6.02e-01	0	41	0	966787072	58	4040
2026-01-30 02:15:26.52	196.56	20.55	-43.2	-44.3	26.7	6.05e-01	0	41	0	968884224	58	4004
2026-01-30 02:15:27.52	196.60	20.41	-43.2	-44.3	26.6	6.03e-01	0	41	0	970457088	58	3988
2026-01-30 02:15:28.53	196.63	20.26	-43.2	-44.3	26.7	6.03e-01	0	41	0	972554240	58	4004
2026-01-30 02:15:29.54	196.67	20.11	-43.3	-44.4	26.6	6.04e-01	0	41	0	974127104	58	4042
2026-01-30 02:15:30.54	196.70	19.96	-43.3	-44.4	26.6	6.02e-01	0	41	0	976224256	58	4041
2026-01-30 02:15:31.55	196.74	19.81	-43.3	-44.5	26.6	6.03e-01	0	41	0	977797120	58	4053
2026-01-30 02:15:32.55	196.77	19.67	-43.2	-44.3	26.7	5.99e-01	0	41	0	979894272	58	4002
2026-01-30 02:15:33.56	196.80	19.53	-43.2	-44.3	26.7	6.02e-01	0	41	0	981991424	58	3996
2026-01-30 02:15:34.57	196.84	19.38	-43.2	-44.3	26.8	6.03e-01	0	41	0	983564288	58	3968
2026-01-30 02:15:35.58	196.87	19.24	-43.2	-44.3	26.7	6.02e-01	0	41	0	985661440	58	3997
2026-01-30 02:15:36.59	196.90	19.10	-43.2	-44.3	26.8	6.02e-01	0	41	0	987234304	58	3961
2026-01-30 02:15:37.60	196.93	18.96	-43.2	-44.3	26.7	6.02e-01	0	41	0	989331456	58	3995
2026-01-30 02:15:38.60	196.96	18.82	-43.2	-44.3	26.7	6.03e-01	0	41	0	990904320	58	3992
2026-01-30 02:15:39.61	197.00	18.68	-43.1	-44.3	26.8	6.04e-01	0	41	0	993001472	58	3960
2026-01-30 02:15:40.61	197.03	18.54	-43.3	-44.4	26.6	6.02e-01	0	41	0	995098624	58	4024
2026-01-30 02:15:41.61	197.06	18.40	-43.1	-44.2	26.8	6.04e-01	0	41	0	996671488	58	3929
2026-01-30 02:15:42.62	197.09	18.27	-43.2	-44.3	26.7	6.02e-01	0	41	0	998768640	58	3988
2026-01-30 02:15:43.63	197.12	18.13	-43.3	-44.4	26.6	6.03e-01	0	41	0	1000865792	58	4015
2026-01-30 02:15:44.64	197.15	17.99	-43.2	-44.3	26.7	6.03e-01	0	41	0	1002438656	58	3973
2026-01-30 02:15:45.64	197.18	17.86	-43.2	-44.3	26.7	6.03e-01	0	41	0	1004535808	58	3984
2026-01-30 02:15:46.65	197.21	17.73	-43.2	-44.3	26.6	6.03e-01	0	41	0	1006108672	58	3984
2026-01-30 02:15:47.66	197.24	17.60	-43.2	-44.3	26.6	6.01e-01	0	41	0	1008205824	58	3999
2026-01-30 02:15:48.66	197.27	17.46	-43.2	-44.3	26.7	6.04e-01	0	41	0	1010302976	58	3963
2026-01-30 02:15:49.67	197.30	17.33	-43.1	-44.2	26.7	6.02e-01	0	41	0	1011875840	58	3943
2026-01-30 02:15:50.67	197.33	17.20	-43.1	-44.2	26.7	6.00e-01	0	41	0	1013972992	58	3951
2026-01-30 02:15:51.68	197.35	17.07	-43.1	-44.2	26.7	6.03e-01	0	41	0	1015545856	58	3935
2026-01-30 02:15:52.69	197.38	16.94	-43.1	-44.3	26.7	6.03e-01	0	41	0	1017643008	58	3961
2026-01-30 02:15:53.70	197.41	16.82	-43.1	-44.2	26.7	6.04e-01	0	41	0	1019215872	58	3925
2026-01-30 02:15:54.70	197.44	16.69	-43.1	-44.2	26.7	6.03e-01	0	41	0	1021313024	58	3943
2026-01-30 02:15:55.71	197.47	16.56	-43.1	-44.2	26.7	6.02e-01	0	41	0	1023410176	58	3938
2026-01-30 02:15:56.72	197.49	16.44	-43.0	-44.1	26.7	6.03e-01	0	41	0	1025507328	58	3912
2026-01-30 02:15:57.73	197.52	16.31	-43.0	-44.1	26.8	6.02e-01	0	41	0	1027080192	58	3903
2026-01-30 02:15:58.74	197.55	16.19	-43.0	-44.1	26.8	6.02e-01	0	41	0	1029177344	58	3904
2026-01-30 02:15:59.74	197.58	16.06	-43.0	-44.1	26.8	6.05e-01	0	41	0	1030750208	58	3893
2026-01-30 02:16:00.75	197.60	15.94	-43.1	-44.2	26.7	6.04e-01	0	41	0	1032847360	58	3924
2026-01-30 02:16:01.76	197.63	15.82	-43.0	-44.1	26.8	6.03e-01	0	41	0	1034420224	57	4112
2026-01-30 02:16:02.77	197.66	15.70	-43.0	-44.1	26.7	6.03e-01	0	41	0	1036517376	57	4129
2026-01-30 02:16:03.78	197.68	15.57	-43.1	-44.2	26.7	6.02e-01	0	41	0	1038614528	57	4161
2026-01-30 02:16:04.78	197.71	15.45	-43.0	-44.1	26.7	6.03e-01	0	41	0	1040187392	57	4129
2026-01-30 02:16:05.79	197.73	15.33	-43.0	-44.1	26.7	6.04e-01	0	41	0	1042284544	57	4129
2026-01-30 02:16:06.79	197.76	15.22	-43.1	-44.2	26.6	6.00e-01	0	41	0	1043857408	57	4181
2026-01-30 02:16:07.80	197.78	15.10	-43.0	-44.1	26.7	6.01e-01	0	41	0	1045954560	57	4109
2026-01-30 02:16:08.81	197.81	14.98	-43.1	-44.2	26.6	6.03e-01	0	41	0	1047527424	57	4150
2026-01-30 02:16:09.81	197.83	14.86	-43.3	-44.4	26.5	6.02e-01	0	41	0	1049624576	57	4251
2026-01-30 02:16:10.81	197.86	14.75	-43.0	-44.1	26.6	6.03e-01	0	41	0	1051721728	57	4145
2026-01-30 02:16:11.82	197.88	14.63	-43.0	-44.1	26.6	6.04e-01	0	41	0	1053818880	57	4128
2026-01-30 02:16:12.82	197.91	14.52	-43.1	-44.2	26.6	6.03e-01	0	41	0	1055391744	57	4159
2026-01-30 02:16:13.83	197.93	14.40	-43.1	-44.2	26.6	6.03e-01	0	41	0	1057488896	57	4160
2026-01-30 02:16:14.83	197.96	14.29	-43.1	-44.2	26.6	6.04e-01	0	41	0	1059061760	57	4160
2026-01-30 02:16:15.84	197.98	14.17	-43.0	-44.1	26.6	5.98e-01	0	41	0	1061158912	57	4128
2026-01-30 02:16:16.84	198.00	14.06	-43.0	-44.1	26.6	6.03e-01	0	41	0	1062731776	57	4133
2026-01-30 02:16:17.85	198.03	13.95	-43.0	-44.1	26.6	6.03e-01	0	41	0	1064828928	57	4134
2026-01-30 02:16:18.86	198.05	13.84	-43.1	-44.2	26.5	6.03e-01	0	41	0	1066926080	57	4164
2026-01-30 02:16:19.87	198.07	13.72	-43.0	-44.1	26.6	6.04e-01	0	41	0	1068498944	57	4127
2026-01-30 02:16:20.87	198.10	13.61	-43.1	-44.2	26.6	6.04e-01	0	41	0	1070596096	57	4151
2026-01-30 02:16:21.87	198.12	13.51	-43.1	-44.2	26.6	6.02e-01	0	41	0	1072168960	57	4154
2026-01-30 02:16:22.88	198.14	13.40	-43.0	-44.2	26.6	6.03e-01	0	41	0	1074266112	57	4150
2026-01-30 02:16:23.89	198.17	13.29	-43.1	-44.2	26.5	6.01e-01	0	41	0	1075838976	57	4183
2026-01-30 02:16:24.89	198.19	13.18	-43.2	-44.3	26.5	6.04e-01	0	41	0	1077936128	57	4199
2026-01-30 02:16:25.90	198.21	13.07	-43.3	-44.4	26.3	6.04e-01	0	41	0	1080033280	57	4279
2026-01-30 02:16:26.91	198.23	12.96	-43.3	-44.4	26.4	6.01e-01	0	41	0	1081606144	57	4260
2026-01-30 02:16:27.92	198.25	12.85	-43.1	-44.2	26.5	6.04e-01	0	41	0	1083703296	57	4193
2026-01-30 02:16:28.93	198.28	12.75	-43.1	-44.2	26.5	6.04e-01	0	41	0	1085800448	57	4163
2026-01-30 02:16:29.93	198.30	12.64	-43.1	-44.2	26.5	6.03e-01	0	41	0	1087373312	57	4166
2026-01-30 02:16:30.94	198.32	12.54	-43.1	-44.2	26.6	6.04e-01	0	41	0	1089470464	57	4153
2026-01-30 02:16:31.95	198.34	12.43	-43.1	-44.2	26.5	6.03e-01	0	41	0	1091043328	57	4187
2026-01-30 02:16:32.95	198.36	12.33	-43.1	-44.2	26.5	6.03e-01	0	41	0	1093140480	57	4147
2026-01-30 02:16:33.96	198.38	12.22	-43.1	-44.2	26.5	6.01e-01	0	41	0	1095237632	57	4170
2026-01-30 02:16:34.96	198.41	12.12	-43.1	-44.2	26.5	6.05e-01	0	41	0	1096810496	57	4177
2026-01-30 02:16:35.97	198.43	12.02	-43.1	-44.2	26.5	6.05e-01	0	41	0	1098907648	57	4189
2026-01-30 02:16:36.98	198.45	11.91	-43.2	-44.3	26.4	6.03e-01	0	41	0	1100480512	57	4217
2026-01-30 02:16:37.99	198.47	11.81	-43.2	-44.3	26.4	6.03e-01	0	41	0	1102577664	57	4215
2026-01-30 02:16:38.99	198.49	11.71	-43.2	-44.4	26.3	6.04e-01	0	41	0	1104150528	57	4248
2026-01-30 02:16:40.00	198.51	11.61	-43.2	-44.3	26.4	6.03e-01	0	41	0	1106247680	57	4239
2026-01-30 02:16:41.01	198.53	11.51	-43.2	-44.4	26.3	6.01e-01	0	41	0	1108344832	57	4244
2026-01-30 02:16:42.01	198.55	11.41	-43.3	-44.5	26.2	6.04e-01	0	41	0	1110441984	57	4304
2026-01-30 02:16:43.02	198.57	11.31	-43.3	-44.4	26.3	6.05e-01	0	41	0	1112014848	57	4260
2026-01-30 02:16:44.03	198.59	11.21	-43.4	-44.5	26.2	6.00e-01	0	41	0	1114112000	57	4339
2026-01-30 02:16:45.03	198.61	11.11	-43.3	-44.5	26.2	6.03e-01	0	41	0	1115684864	57	4313
2026-01-30 02:16:46.03	198.63	11.01	-43.4	-44.6	26.1	6.03e-01	0	41	0	1117782016	57	4348
2026-01-30 02:16:47.04	198.65	10.92	-43.4	-44.5	26.2	6.04e-01	0	41	0	1119354880	57	4331
2026-01-30 02:16:48.05	198.67	10.82	-43.4	-44.6	26.1	6.03e-01	0	41	0	1121452032	57	4363
2026-01-30 02:16:49.06	198.69	10.72	-43.6	-44.8	25.9	6.04e-01	0	41	0	1123549184	57	4446
2026-01-30 02:16:50.06	198.71	10.62	-43.4	-44.6	26.1	6.04e-01	0	41	0	1125122048	57	4362
2026-01-30 02:16:51.07	198.73	10.53	-43.5	-44.7	26.0	6.03e-01	0	41	0	1127219200	57	4400
2026-01-30 02:16:52.08	198.75	10.43	-43.5	-44.7	26.0	6.03e-01	0	41	0	1128792064	57	4406
2026-01-30 02:16:53.09	198.76	10.34	-43.5	-44.7	26.0	6.02e-01	0	41	0	1130889216	57	4416
2026-01-30 02:16:54.09	198.78	10.24	-43.5	-44.7	26.0	6.03e-01	0	41	0	1132462080	57	4422
2026-01-30 02:16:55.10	198.80	10.15	-43.5	-44.7	25.9	6.04e-01	0	41	0	1134559232	57	4416
2026-01-30 02:16:56.11	198.82	10.05	-43.6	-44.8	25.9	6.04e-01	0	41	0	1136656384	57	4458
2026-01-30 02:16:57.11	198.84	9.96	-43.6	-44.8	25.9	6.02e-01	0	41	0	1138753536	57	4465
2026-01-30 02:16:58.12	198.86	9.87	-43.6	-44.8	25.9	6.02e-01	0	41	0	1140326400	57	4470
2026-01-30 02:16:59.13	198.88	9.77	-43.8	-45.0	25.7	6.02e-01	0	41	0	1142423552	58	4320
2026-01-30 02:17:00.13	198.89	9.68	-43.9	-45.1	25.6	6.02e-01	0	41	0	1143996416	58	4381
2026-01-30 02:17:01.14	198.91	9.59	-44.0	-45.2	25.5	6.00e-01	0	41	0	1146093568	58	4430
2026-01-30 02:17:02.15	198.93	9.50	-44.0	-45.2	25.5	6.03e-01	0	41	0	1147666432	58	4426
2026-01-30 02:17:03.15	198.95	9.40	-43.7	-44.9	25.8	6.01e-01	0	41	0	1149763584	58	4255
2026-01-30 02:17:04.16	198.97	9.31	-43.7	-44.9	25.7	6.02e-01	0	41	0	1151860736	58	4280
2026-01-30 02:17:05.16	198.98	9.22	-43.8	-45.0	25.6	6.04e-01	0	41	0	1153433600	58	4337
2026-01-30 02:17:06.17	199.00	9.13	-43.9	-45.1	25.5	6.03e-01	0	41	0	1155530752	58	4378
2026-01-30 02:17:07.18	199.02	9.04	-43.8	-45.0	25.6	6.02e-01	0	41	0	1157103616	58	4303
2026-01-30 02:17:08.18	199.04	8.95	-43.9	-45.1	25.5	6.04e-01	0	41	0	1159200768	58	4380
2026-01-30 02:17:09.18	199.05	8.86	-44.0	-45.2	25.5	6.04e-01	0	41	0	1160773632	58	4405
2026-01-30 02:17:10.18	199.07	8.78	-44.0	-45.2	25.4	6.05e-01	0	41	0	1162870784	58	4433
2026-01-30 02:17:11.19	199.09	8.69	-44.0	-45.2	25.4	6.04e-01	0	41	0	1164967936	58	4432
2026-01-30 02:17:12.19	199.11	8.60	-44.0	-45.3	25.3	6.02e-01	0	41	0	1166540800	58	4451
2026-01-30 02:17:13.20	199.12	8.51	-44.0	-45.2	25.4	6.04e-01	0	41	0	1168637952	58	4416
2026-01-30 02:17:14.20	199.14	8.42	-44.1	-45.3	25.3	6.00e-01	0	41	0	1170210816	58	4468
2026-01-30 02:17:15.21	199.16	8.34	-44.1	-45.4	25.2	6.04e-01	0	41	0	1172307968	58	4518
2026-01-30 02:17:16.22	199.17	8.25	-44.1	-45.4	25.2	6.02e-01	0	41	0	1174405120	59	4255
2026-01-30 02:17:17.23	199.19	8.16	-44.2	-45.5	25.1	6.02e-01	0	41	0	1175977984	59	4298
2026-01-30 02:17:18.23	199.21	8.08	-44.3	-45.6	25.0	6.03e-01	0	41	0	1178075136	59	4362
2026-01-30 02:17:19.24	199.22	7.99	-44.2	-45.4	25.1	6.01e-01	0	41	0	1180172288	59	4291
2026-01-30 02:17:20.25	199.24	7.90	-44.3	-45.5	25.0	6.03e-01	0	41	0	1181745152	59	4323
2026-01-30 02:17:21.25	199.26	7.82	-44.3	-45.6	24.9	6.02e-01	0	41	0	1183842304	59	4370
2026-01-30 02:17:22.26	199.27	7.73	-44.2	-45.5	25.0	6.03e-01	0	41	0	1185415168	59	4321
2026-01-30 02:17:23.26	199.29	7.65	-44.3	-45.5	25.0	6.05e-01	0	41	0	1187512320	59	4325
2026-01-30 02:17:24.27	199.30	7.57	-44.4	-45.7	24.8	6.04e-01	0	41	0	1189085184	59	4400
