passes_logs/2026/01/30/R3.2S_Murmansk/R3.2S_Murmansk__20260130_022700_FENGYUN_3D_rec.log

#Pass ID: 20260130_022700_FENGYUN 3D
#Satellite: FENGYUN 3D
#Configuration: FENGYUN 3D
#almurnet v.1.7.20251203
#Start time: 2026-01-30 02:27:00

#Version: 2.2.20231116
#Station: R3.2S_Murmansk
#Location: 33.079688 lon 68.888172 lat
#TLE: 1 43010U 17072A   26029.52179110  .00000394  00000+0  20818-3 0  9997
#TLE: 2 43010  98.9957   1.5649 0002507  83.7772 276.3689 14.19703315425310

#Time	Az	El	Level	Level2	SNR	BER	BlckErr	Temp	State	Recorded	gain1	gain2
2026-01-30 02:27:00.53	23.88	2.03	-53.0	-65.0	3.8	8.46e-01	0	39	0	0	78	13584
2026-01-30 02:27:01.53	23.90	2.09	-52.1	-64.0	3.8	8.47e-01	0	39	104	0	75	14509
2026-01-30 02:27:02.53	23.91	2.16	-52.0	-64.0	3.8	8.46e-01	0	39	104	0	75	14417
2026-01-30 02:27:03.54	23.92	2.22	-52.0	-64.0	3.8	8.45e-01	0	39	104	0	75	14388
2026-01-30 02:27:04.55	23.94	2.29	-52.0	-64.0	3.8	8.48e-01	0	39	104	0	75	14389
2026-01-30 02:27:05.56	23.95	2.35	-52.0	-63.9	3.8	8.45e-01	0	39	104	0	75	14356
2026-01-30 02:27:06.56	23.97	2.41	-52.0	-63.9	3.8	8.45e-01	0	39	104	0	75	14334
2026-01-30 02:27:07.57	23.98	2.48	-52.0	-63.9	3.8	8.46e-01	0	40	104	0	75	14351
2026-01-30 02:27:08.57	23.99	2.54	-52.0	-63.9	3.8	8.46e-01	0	40	104	0	75	14333
2026-01-30 02:27:09.58	24.01	2.61	-52.0	-63.9	3.8	8.46e-01	0	39	104	0	75	14319
2026-01-30 02:27:10.59	24.02	2.68	-52.0	-63.9	3.8	8.45e-01	0	39	104	0	75	14305
2026-01-30 02:27:11.60	24.04	2.74	-52.0	-63.9	3.8	8.46e-01	0	40	104	0	75	14310
2026-01-30 02:27:12.60	24.05	2.81	-52.0	-63.9	3.8	8.47e-01	0	40	104	0	75	14287
2026-01-30 02:27:13.61	24.07	2.87	-52.0	-63.9	3.8	8.46e-01	0	40	104	0	75	14250
2026-01-30 02:27:14.62	24.08	2.94	-52.0	-63.8	3.8	8.45e-01	0	40	104	0	75	14205
2026-01-30 02:27:15.63	24.09	3.01	-52.0	-63.8	3.8	8.46e-01	0	40	104	0	75	14131
2026-01-30 02:27:16.63	24.11	3.07	-52.0	-63.8	3.8	8.46e-01	0	40	104	0	75	14128
2026-01-30 02:27:17.64	24.12	3.14	-52.0	-63.8	3.8	8.47e-01	0	40	104	0	75	14114
2026-01-30 02:27:18.65	24.14	3.20	-52.0	-63.8	3.8	8.45e-01	0	40	104	0	75	14171
2026-01-30 02:27:19.66	24.15	3.27	-52.0	-63.8	3.8	8.46e-01	0	40	104	0	75	14197
2026-01-30 02:27:20.67	24.17	3.34	-52.0	-63.9	3.8	8.47e-01	0	40	104	0	75	14229
2026-01-30 02:27:21.68	24.18	3.41	-51.9	-63.9	3.8	8.45e-01	0	40	104	0	75	14264
2026-01-30 02:27:22.69	24.20	3.47	-52.0	-63.9	3.8	8.46e-01	0	40	104	0	75	14212
2026-01-30 02:27:23.70	24.21	3.54	-51.9	-63.7	3.8	8.46e-01	0	40	104	0	75	14029
2026-01-30 02:27:24.71	24.23	3.61	-51.9	-63.5	3.8	8.46e-01	0	40	104	0	75	13666
2026-01-30 02:27:25.71	24.24	3.68	-51.9	-63.3	3.8	8.46e-01	0	40	104	0	75	13407
2026-01-30 02:27:26.72	24.26	3.75	-51.9	-63.2	3.8	8.47e-01	0	40	104	0	75	13244
2026-01-30 02:27:27.73	24.27	3.81	-51.9	-63.3	3.8	8.46e-01	0	40	104	0	75	13390
2026-01-30 02:27:28.73	24.29	3.88	-51.9	-63.6	3.8	8.45e-01	0	40	104	0	75	13730
2026-01-30 02:27:29.74	24.30	3.95	-51.9	-63.8	3.8	8.46e-01	0	40	104	0	75	14052
2026-01-30 02:27:30.75	24.32	4.02	-51.9	-63.4	3.8	8.46e-01	0	40	104	0	75	13519
2026-01-30 02:27:31.76	24.33	4.09	-51.8	-62.3	3.8	8.46e-01	0	40	104	0	75	11878
2026-01-30 02:27:32.77	24.35	4.16	-51.5	-59.7	4.3	8.41e-01	0	40	104	0	75	8838
2026-01-30 02:27:33.78	24.36	4.23	-51.0	-57.3	5.7	7.55e-01	0	40	0	0	74	7067
2026-01-30 02:27:34.78	24.38	4.30	-50.1	-54.5	8.0	1.17e-01	0	40	0	5242880	72	5778
2026-01-30 02:27:35.79	24.39	4.37	-49.3	-52.9	9.8	2.60e-02	0	40	0	10485760	70	5342
2026-01-30 02:27:36.80	24.41	4.44	-48.1	-50.7	12.1	7.26e-04	0	40	0	16777216	68	4657
2026-01-30 02:27:37.81	24.42	4.51	-47.1	-49.2	13.6	5.03e-05	0	40	0	22020096	66	4406
2026-01-30 02:27:38.81	24.44	4.57	-46.3	-48.1	14.7	5.70e-06	0	40	0	27262976	64	4345
2026-01-30 02:27:39.82	24.46	4.65	-45.3	-46.8	16.1	0.00e+00	0	40	0	33554432	62	4209
2026-01-30 02:27:40.83	24.47	4.72	-44.5	-45.9	17.0	0.00e+00	0	40	0	38797312	61	4006
2026-01-30 02:27:41.83	24.49	4.79	-44.0	-45.2	18.1	0.00e+00	0	40	0	45088768	59	4170
2026-01-30 02:27:42.85	24.50	4.86	-43.5	-44.7	18.5	0.00e+00	0	40	0	50331648	59	3940
2026-01-30 02:27:43.85	24.52	4.93	-43.1	-44.2	19.0	0.00e+00	0	40	0	56623104	58	3950
2026-01-30 02:27:44.86	24.53	5.00	-42.7	-43.7	19.5	0.00e+00	0	41	0	61865984	57	3953
2026-01-30 02:27:45.87	24.55	5.07	-42.5	-43.5	19.8	0.00e+00	0	40	0	67108864	56	4063
2026-01-30 02:27:46.87	24.57	5.14	-47.3	-49.4	13.6	0.00e+00	0	40	0	73400320	65	4804
2026-01-30 02:27:47.88	24.58	5.21	-45.8	-46.9	16.2	0.00e+00	0	40	0	78643200	61	4541
2026-01-30 02:27:48.89	24.60	5.29	-43.2	-44.4	18.9	0.00e+00	0	40	0	84934656	58	4006
2026-01-30 02:27:49.90	24.61	5.36	-46.4	-48.2	14.9	0.00e+00	0	41	0	90177536	63	4670
2026-01-30 02:27:50.90	24.63	5.43	-41.5	-42.7	20.2	0.00e+00	0	40	0	95420416	55	3933
2026-01-30 02:27:51.90	24.65	5.50	-42.0	-43.0	20.1	0.00e+00	0	40	0	101711872	55	4067
2026-01-30 02:27:52.91	24.66	5.58	-41.9	-42.9	20.3	0.00e+00	0	40	0	106954752	55	4006
2026-01-30 02:27:53.92	24.68	5.65	-41.6	-42.5	20.6	0.00e+00	0	40	0	112197632	55	3861
2026-01-30 02:27:54.93	24.70	5.72	-41.8	-42.8	20.4	0.00e+00	0	40	0	118489088	55	3960
2026-01-30 02:27:55.93	24.71	5.80	-41.7	-42.7	20.5	0.00e+00	0	40	0	123731968	55	3930
2026-01-30 02:27:56.94	24.73	5.87	-41.5	-42.5	20.7	0.00e+00	0	40	0	130023424	55	3831
2026-01-30 02:27:57.95	24.75	5.94	-41.7	-42.6	20.6	0.00e+00	0	41	0	135266304	55	3898
2026-01-30 02:27:58.96	24.76	6.02	-41.6	-42.5	20.7	0.00e+00	0	41	0	141557760	55	3844
2026-01-30 02:27:59.97	24.78	6.09	-41.6	-42.5	20.7	0.00e+00	0	40	0	146800640	55	3852
2026-01-30 02:28:00.98	24.80	6.17	-41.4	-42.4	20.9	0.00e+00	0	40	0	152043520	54	4006
2026-01-30 02:28:01.99	24.81	6.24	-41.5	-42.4	20.8	0.00e+00	0	41	0	158334976	54	4041
2026-01-30 02:28:03.00	24.83	6.32	-41.3	-42.2	21.0	0.00e+00	0	41	0	163577856	54	3954
2026-01-30 02:28:04.01	24.85	6.39	-41.2	-42.1	21.1	0.00e+00	0	41	0	169869312	54	3891
2026-01-30 02:28:05.02	24.86	6.47	-41.5	-42.4	20.8	0.00e+00	0	41	0	175112192	54	4043
2026-01-30 02:28:06.03	24.88	6.54	-41.4	-42.2	21.0	0.00e+00	0	40	0	180355072	54	3958
2026-01-30 02:28:07.04	24.90	6.62	-41.5	-42.4	20.9	0.00e+00	0	40	0	186646528	54	4014
2026-01-30 02:28:08.05	24.92	6.70	-41.2	-42.1	21.1	0.00e+00	0	41	0	192937984	54	3911
2026-01-30 02:28:09.05	24.93	6.77	-41.5	-42.4	20.9	0.00e+00	0	41	0	198180864	54	4038
2026-01-30 02:28:10.06	24.95	6.85	-41.3	-42.2	21.1	0.00e+00	0	40	0	203423744	54	3925
2026-01-30 02:28:11.06	24.97	6.92	-41.2	-42.1	21.2	0.00e+00	0	40	0	209715200	54	3893
2026-01-30 02:28:12.07	24.99	7.00	-41.1	-42.0	21.3	0.00e+00	0	41	0	214958080	54	3838
2026-01-30 02:28:13.08	25.00	7.08	-41.2	-42.1	21.2	0.00e+00	0	41	0	220200960	54	3889
2026-01-30 02:28:14.09	25.02	7.16	-41.3	-42.2	21.2	0.00e+00	0	40	0	226492416	54	3916
2026-01-30 02:28:15.10	25.04	7.23	-41.1	-42.0	21.4	0.00e+00	0	41	0	231735296	54	3844
2026-01-30 02:28:16.11	25.06	7.31	-41.3	-42.2	21.2	0.00e+00	0	41	0	236978176	54	3914
2026-01-30 02:28:17.11	25.07	7.39	-40.9	-41.7	21.6	0.00e+00	0	41	0	243269632	53	3946
2026-01-30 02:28:18.13	25.09	7.47	-41.0	-41.9	21.4	0.00e+00	0	41	0	248512512	53	4027
2026-01-30 02:28:19.14	25.11	7.55	-41.1	-41.9	21.4	0.00e+00	0	41	0	254803968	53	4040
2026-01-30 02:28:20.15	25.13	7.63	-41.1	-41.9	21.4	0.00e+00	0	41	0	260046848	53	4041
2026-01-30 02:28:21.15	25.15	7.70	-41.0	-41.9	21.5	0.00e+00	0	41	0	266338304	53	4014
2026-01-30 02:28:22.16	25.17	7.78	-41.1	-41.9	21.4	0.00e+00	0	41	0	271581184	53	4036
2026-01-30 02:28:23.16	25.18	7.86	-41.2	-42.1	21.3	0.00e+00	0	41	0	277872640	53	4108
2026-01-30 02:28:24.17	25.20	7.94	-41.1	-41.9	21.5	0.00e+00	0	41	0	283115520	53	4037
2026-01-30 02:28:25.18	25.22	8.02	-40.9	-41.7	21.7	0.00e+00	0	41	0	288358400	53	3951
2026-01-30 02:28:26.19	25.24	8.10	-40.8	-41.6	21.8	0.00e+00	0	41	0	294649856	53	3904
2026-01-30 02:28:27.19	25.26	8.18	-40.7	-41.6	21.8	0.00e+00	0	41	0	299892736	53	3883
2026-01-30 02:28:28.20	25.28	8.26	-40.7	-41.6	21.8	0.00e+00	0	41	0	305135616	53	3875
2026-01-30 02:28:29.21	25.30	8.35	-40.7	-41.6	21.8	0.00e+00	0	41	0	311427072	53	3871
2026-01-30 02:28:30.21	25.31	8.43	-40.7	-41.5	21.9	0.00e+00	0	41	0	316669952	53	3840
2026-01-30 02:28:31.23	25.33	8.51	-40.8	-41.7	21.8	0.00e+00	0	41	0	321912832	53	3916
2026-01-30 02:28:32.22	25.35	8.59	-40.5	-41.4	22.1	0.00e+00	0	41	0	328204288	53	3781
2026-01-30 02:28:33.23	25.37	8.67	-40.5	-41.3	22.1	0.00e+00	0	41	0	334495744	53	3777
2026-01-30 02:28:34.24	25.39	8.75	-40.6	-41.4	22.1	0.00e+00	0	41	0	339738624	53	3800
2026-01-30 02:28:35.25	25.41	8.84	-40.6	-41.5	22.0	0.00e+00	0	41	0	344981504	53	3825
2026-01-30 02:28:36.26	25.43	8.92	-40.7	-41.5	22.0	0.00e+00	0	41	0	351272960	53	3843
2026-01-30 02:28:37.26	25.45	9.00	-40.7	-41.5	22.0	0.00e+00	0	41	0	356515840	53	3844
2026-01-30 02:28:38.27	25.47	9.09	-40.6	-41.4	22.1	0.00e+00	0	41	0	362807296	53	3807
2026-01-30 02:28:39.27	25.49	9.17	-40.5	-41.3	22.2	0.00e+00	0	41	0	368050176	53	3768
2026-01-30 02:28:40.28	25.51	9.25	-40.6	-41.5	22.1	0.00e+00	0	41	0	373293056	53	3827
2026-01-30 02:28:41.29	25.53	9.34	-40.4	-41.3	22.2	0.00e+00	0	41	0	379584512	52	3959
2026-01-30 02:28:42.30	25.55	9.42	-40.5	-41.3	22.1	0.00e+00	0	41	0	384827392	52	4004
2026-01-30 02:28:43.30	25.57	9.51	-40.5	-41.4	22.1	0.00e+00	0	41	0	390070272	52	4018
2026-01-30 02:28:44.31	25.59	9.59	-40.5	-41.3	22.2	0.00e+00	0	41	0	396361728	52	3992
2026-01-30 02:28:45.32	25.61	9.68	-40.5	-41.3	22.2	0.00e+00	0	41	0	401604608	52	3990
2026-01-30 02:28:46.33	25.63	9.76	-40.4	-41.2	22.3	0.00e+00	0	41	0	406847488	52	3956
2026-01-30 02:28:47.34	25.65	9.85	-40.2	-41.0	22.5	0.00e+00	0	41	0	413138944	52	3850
2026-01-30 02:28:48.34	25.67	9.94	-40.3	-41.1	22.4	0.00e+00	0	41	0	419430400	52	3904
2026-01-30 02:28:49.35	25.69	10.02	-40.3	-41.1	22.5	0.00e+00	0	41	0	424673280	52	3874
2026-01-30 02:28:50.36	25.71	10.11	-40.2	-41.0	22.5	0.00e+00	0	41	0	429916160	52	3855
2026-01-30 02:28:51.37	25.73	10.20	-40.4	-41.2	22.3	0.00e+00	0	41	0	436207616	52	3935
2026-01-30 02:28:52.37	25.75	10.28	-40.4	-41.2	22.3	0.00e+00	0	41	0	441450496	52	3941
2026-01-30 02:28:53.38	25.77	10.37	-40.4	-41.2	22.4	0.00e+00	0	41	0	447741952	52	3915
2026-01-30 02:28:54.39	25.79	10.46	-40.2	-41.0	22.6	0.00e+00	0	41	0	452984832	52	3836
2026-01-30 02:28:55.40	25.81	10.55	-40.2	-41.0	22.5	0.00e+00	0	41	0	458227712	52	3849
2026-01-30 02:28:56.41	25.84	10.64	-40.1	-40.9	22.6	0.00e+00	0	41	0	464519168	52	3818
2026-01-30 02:28:57.41	25.86	10.73	-40.2	-41.0	22.6	0.00e+00	0	41	0	469762048	52	3842
2026-01-30 02:28:58.42	25.88	10.82	-40.3	-41.1	22.5	0.00e+00	0	41	0	475004928	52	3883
2026-01-30 02:28:59.43	25.90	10.91	-40.3	-41.1	22.5	0.00e+00	0	41	0	481296384	52	3874
2026-01-30 02:29:00.43	25.92	11.00	-40.3	-41.1	22.5	0.00e+00	0	41	0	487587840	52	3890
2026-01-30 02:29:01.44	25.94	11.09	-40.4	-41.2	22.4	0.00e+00	0	41	0	492830720	52	3932
2026-01-30 02:29:02.45	25.97	11.18	-40.4	-41.2	22.4	0.00e+00	0	41	0	498073600	52	3957
2026-01-30 02:29:03.46	25.99	11.27	-40.6	-41.4	22.2	0.00e+00	0	41	0	504365056	52	4026
2026-01-30 02:29:04.46	26.01	11.36	-40.4	-41.2	22.4	0.00e+00	0	41	0	509607936	52	3923
2026-01-30 02:29:05.47	26.03	11.45	-40.2	-41.0	22.6	0.00e+00	0	41	0	514850816	52	3855
2026-01-30 02:29:06.48	26.05	11.54	-40.3	-41.1	22.6	0.00e+00	0	41	0	521142272	52	3889
2026-01-30 02:29:07.48	26.08	11.64	-40.4	-41.2	22.4	0.00e+00	0	41	0	526385152	52	3932
2026-01-30 02:29:08.48	26.10	11.73	-40.3	-41.2	22.5	0.00e+00	0	41	0	532676608	52	3917
2026-01-30 02:29:09.49	26.12	11.82	-40.2	-41.0	22.6	0.00e+00	0	41	0	537919488	52	3863
2026-01-30 02:29:10.49	26.14	11.91	-40.4	-41.3	22.4	0.00e+00	0	41	0	543162368	52	3964
2026-01-30 02:29:11.50	26.17	12.01	-40.4	-41.2	22.4	0.00e+00	0	41	0	549453824	52	3957
2026-01-30 02:29:12.51	26.19	12.10	-40.4	-41.3	22.4	0.00e+00	0	41	0	554696704	52	3969
2026-01-30 02:29:13.52	26.21	12.20	-40.4	-41.2	22.5	0.00e+00	0	41	0	559939584	52	3922
2026-01-30 02:29:14.52	26.24	12.29	-40.5	-41.3	22.3	0.00e+00	0	41	0	566231040	52	4003
2026-01-30 02:29:15.53	26.26	12.39	-40.6	-41.4	22.3	0.00e+00	0	41	0	571473920	52	4029
2026-01-30 02:29:16.54	26.28	12.48	-40.4	-41.2	22.5	0.00e+00	0	41	0	577765376	52	3958
2026-01-30 02:29:17.55	26.31	12.58	-40.4	-41.2	22.5	0.00e+00	0	41	0	583008256	52	3943
2026-01-30 02:29:18.55	26.33	12.68	-40.4	-41.3	22.4	0.00e+00	0	41	0	589299712	52	3973
2026-01-30 02:29:19.55	26.35	12.77	-40.5	-41.3	22.4	0.00e+00	0	41	0	594542592	52	3991
2026-01-30 02:29:20.56	26.38	12.87	-40.5	-41.4	22.3	0.00e+00	0	41	0	599785472	52	4017
2026-01-30 02:29:21.57	26.40	12.97	-40.3	-41.2	22.5	0.00e+00	0	41	0	606076928	52	3923
2026-01-30 02:29:22.58	26.43	13.07	-40.3	-41.1	22.6	0.00e+00	0	41	0	611319808	52	3887
2026-01-30 02:29:23.59	26.45	13.16	-40.4	-41.2	22.6	0.00e+00	0	41	0	617611264	52	3923
2026-01-30 02:29:24.59	26.48	13.26	-40.4	-41.2	22.6	0.00e+00	0	41	0	622854144	52	3931
2026-01-30 02:29:25.60	26.50	13.36	-40.2	-41.0	22.7	0.00e+00	0	41	0	628097024	52	3857
2026-01-30 02:29:26.60	26.52	13.46	-40.1	-40.9	22.8	0.00e+00	0	41	0	634388480	52	3812
2026-01-30 02:29:27.61	26.55	13.56	-40.1	-40.9	22.8	0.00e+00	0	41	0	639631360	52	3801
2026-01-30 02:29:28.62	26.57	13.66	-40.1	-40.9	22.8	0.00e+00	0	41	0	644874240	52	3811
2026-01-30 02:29:29.63	26.60	13.76	-40.2	-41.0	22.8	0.00e+00	0	41	0	651165696	52	3838
2026-01-30 02:29:30.63	26.62	13.86	-40.0	-40.8	23.0	0.00e+00	0	41	0	656408576	52	3764
2026-01-30 02:29:31.64	26.65	13.96	-40.0	-40.8	23.1	0.00e+00	0	41	0	662700032	51	3969
2026-01-30 02:29:32.65	26.68	14.07	-39.9	-40.7	23.1	0.00e+00	0	41	0	667942912	51	3924
2026-01-30 02:29:33.65	26.70	14.17	-39.9	-40.6	23.2	0.00e+00	0	41	0	674234368	51	3910
2026-01-30 02:29:34.66	26.73	14.27	-39.8	-40.6	23.2	0.00e+00	0	41	0	679477248	51	3898
2026-01-30 02:29:35.67	26.75	14.38	-39.8	-40.6	23.2	0.00e+00	0	41	0	684720128	51	3897
2026-01-30 02:29:36.67	26.78	14.48	-39.9	-40.6	23.2	0.00e+00	0	41	0	691011584	51	3908
2026-01-30 02:29:37.68	26.81	14.58	-39.8	-40.6	23.3	0.00e+00	0	41	0	696254464	51	3874
2026-01-30 02:29:38.69	26.83	14.69	-39.8	-40.6	23.3	0.00e+00	0	41	0	702545920	51	3879
2026-01-30 02:29:39.70	26.86	14.79	-39.8	-40.6	23.2	0.00e+00	0	41	0	707788800	51	3897
2026-01-30 02:29:40.70	26.89	14.90	-39.7	-40.4	23.4	0.00e+00	0	41	0	713031680	51	3822
2026-01-30 02:29:41.71	26.91	15.01	-39.5	-40.2	23.6	0.00e+00	0	41	0	719323136	51	3729
2026-01-30 02:29:42.72	26.94	15.11	-39.3	-40.1	23.7	0.00e+00	0	41	0	724566016	50	3869
2026-01-30 02:29:43.73	26.97	15.22	-39.4	-40.1	23.7	0.00e+00	0	41	0	730857472	50	3909
2026-01-30 02:29:44.74	27.00	15.33	-39.2	-40.0	23.8	0.00e+00	0	41	0	736100352	50	3844
2026-01-30 02:29:45.75	27.02	15.44	-39.3	-40.1	23.7	0.00e+00	0	41	0	742391808	50	3878
2026-01-30 02:29:46.76	27.05	15.54	-39.2	-40.0	23.8	0.00e+00	0	41	0	747634688	50	3839
2026-01-30 02:29:47.77	27.08	15.65	-39.0	-39.8	24.0	0.00e+00	0	41	0	752877568	50	3747
2026-01-30 02:29:48.77	27.11	15.76	-39.0	-39.8	24.0	0.00e+00	0	41	0	759169024	50	3751
2026-01-30 02:29:49.78	27.14	15.87	-39.0	-39.7	24.1	0.00e+00	0	41	0	764411904	49	3930
2026-01-30 02:29:50.79	27.16	15.98	-39.0	-39.8	24.0	0.00e+00	0	41	0	770703360	49	3960
2026-01-30 02:29:51.79	27.19	16.09	-39.0	-39.7	24.0	0.00e+00	0	41	0	775946240	49	3951
2026-01-30 02:29:52.80	27.22	16.20	-38.9	-39.6	24.2	0.00e+00	0	41	0	781189120	49	3889
2026-01-30 02:29:53.81	27.25	16.32	-38.9	-39.6	24.2	0.00e+00	0	41	0	787480576	49	3907
2026-01-30 02:29:54.81	27.28	16.43	-38.9	-39.6	24.1	0.00e+00	0	41	0	792723456	49	3912
2026-01-30 02:29:55.82	27.31	16.54	-38.8	-39.5	24.3	0.00e+00	0	41	0	797966336	49	3856
2026-01-30 02:29:56.83	27.34	16.65	-38.8	-39.5	24.3	0.00e+00	0	41	0	804257792	49	3846
2026-01-30 02:29:57.83	27.37	16.77	-38.8	-39.6	24.2	0.00e+00	0	41	0	809500672	49	3872
2026-01-30 02:29:58.84	27.40	16.88	-38.7	-39.5	24.3	0.00e+00	0	41	0	815792128	49	3837
2026-01-30 02:29:59.84	27.43	17.00	-38.9	-39.6	24.2	0.00e+00	0	41	0	821035008	49	3903
2026-01-30 02:30:00.85	27.46	17.11	-38.8	-39.5	24.3	0.00e+00	0	41	0	827326464	49	3866
2026-01-30 02:30:01.85	27.49	17.23	-38.7	-39.4	24.3	0.00e+00	0	41	0	832569344	49	3824
2026-01-30 02:30:02.85	27.52	17.34	-38.7	-39.5	24.3	0.00e+00	0	41	0	837812224	49	3830
2026-01-30 02:30:03.86	27.55	17.46	-38.8	-39.5	24.3	0.00e+00	0	41	0	844103680	49	3850
2026-01-30 02:30:04.87	27.58	17.58	-38.7	-39.5	24.3	0.00e+00	0	41	0	849346560	49	3832
2026-01-30 02:30:05.88	27.61	17.70	-38.7	-39.4	24.4	0.00e+00	0	41	0	855638016	49	3800
2026-01-30 02:30:06.89	27.65	17.82	-38.7	-39.4	24.4	0.00e+00	0	41	0	860880896	49	3801
2026-01-30 02:30:07.89	27.68	17.94	-38.7	-39.4	24.4	0.00e+00	0	41	0	866123776	49	3795
2026-01-30 02:30:08.90	27.71	18.06	-38.6	-39.3	24.5	0.00e+00	0	41	0	872415232	49	3779
2026-01-30 02:30:09.91	27.74	18.18	-38.6	-39.3	24.5	0.00e+00	0	41	0	877658112	49	3774
2026-01-30 02:30:10.91	27.77	18.30	-38.6	-39.3	24.5	0.00e+00	0	41	0	882900992	49	3773
2026-01-30 02:30:11.93	27.81	18.42	-38.5	-39.2	24.6	0.00e+00	0	41	0	889192448	49	3727
2026-01-30 02:30:12.93	27.84	18.54	-38.5	-39.2	24.6	0.00e+00	0	41	0	895483904	49	3714
2026-01-30 02:30:13.94	27.87	18.67	-38.5	-39.2	24.6	0.00e+00	0	41	0	900726784	48	3944
2026-01-30 02:30:14.95	27.91	18.79	-38.5	-39.2	24.6	0.00e+00	0	41	0	905969664	48	3936
2026-01-30 02:30:15.96	27.94	18.91	-38.5	-39.3	24.6	0.00e+00	0	41	0	912261120	48	3959
2026-01-30 02:30:16.97	27.97	19.04	-38.4	-39.1	24.7	0.00e+00	0	41	0	917504000	48	3883
2026-01-30 02:30:17.97	28.01	19.16	-38.3	-39.0	24.8	0.00e+00	0	41	0	922746880	48	3849
2026-01-30 02:30:18.98	28.04	19.29	-38.4	-39.1	24.8	0.00e+00	0	41	0	929038336	48	3883
2026-01-30 02:30:19.99	28.08	19.42	-38.4	-39.1	24.7	0.00e+00	0	41	0	934281216	48	3905
2026-01-30 02:30:21.00	28.11	19.55	-38.3	-39.0	24.8	0.00e+00	0	41	0	940572672	48	3860
2026-01-30 02:30:22.00	28.15	19.67	-38.3	-39.0	24.8	0.00e+00	0	41	0	945815552	48	3854
2026-01-30 02:30:23.01	28.18	19.80	-38.4	-39.1	24.7	0.00e+00	0	41	0	951058432	48	3884
2026-01-30 02:30:24.01	28.22	19.93	-38.3	-39.0	24.8	0.00e+00	0	41	0	957349888	48	3856
2026-01-30 02:30:25.02	28.25	20.06	-38.1	-38.8	25.0	0.00e+00	0	41	0	962592768	48	3746
2026-01-30 02:30:26.03	28.29	20.19	-38.0	-38.7	25.1	0.00e+00	0	41	0	968884224	48	3721
2026-01-30 02:30:27.04	28.33	20.32	-37.7	-38.4	24.9	0.00e+00	0	41	0	974127104	47	3802
2026-01-30 02:30:28.05	28.36	20.46	-37.6	-38.3	25.0	0.00e+00	0	41	0	980418560	47	3753
2026-01-30 02:30:29.06	28.40	20.59	-37.6	-38.3	24.9	0.00e+00	0	41	0	985661440	47	3775
2026-01-30 02:30:30.07	28.44	20.72	-37.4	-38.1	25.1	0.00e+00	0	41	0	990904320	46	3913
2026-01-30 02:30:31.07	28.48	20.86	-37.3	-38.0	25.2	0.00e+00	0	41	0	997195776	46	3854
2026-01-30 02:30:32.08	28.51	20.99	-37.3	-38.0	25.2	0.00e+00	0	41	0	1002438656	46	3846
2026-01-30 02:30:33.09	28.55	21.13	-37.2	-37.9	25.3	0.00e+00	0	41	0	1007681536	46	3815
2026-01-30 02:30:34.10	28.59	21.26	-37.3	-38.0	25.2	0.00e+00	0	41	0	1013972992	46	3866
2026-01-30 02:30:35.11	28.63	21.40	-37.2	-37.9	25.4	0.00e+00	0	41	0	1019215872	46	3789
2026-01-30 02:30:36.12	28.67	21.54	-37.3	-37.9	25.3	0.00e+00	0	41	0	1025507328	46	3824
2026-01-30 02:30:37.13	28.71	21.68	-37.2	-37.8	25.4	0.00e+00	0	41	0	1030750208	46	3780
2026-01-30 02:30:38.13	28.75	21.82	-37.3	-38.0	25.3	0.00e+00	0	41	0	1037041664	46	3837
2026-01-30 02:30:39.14	28.79	21.96	-37.2	-37.9	25.4	0.00e+00	0	41	0	1042284544	46	3783
2026-01-30 02:30:40.15	28.83	22.10	-37.1	-37.8	25.4	0.00e+00	0	41	0	1048576000	46	3763
2026-01-30 02:30:41.16	28.87	22.24	-37.2	-37.9	25.4	0.00e+00	0	41	0	1053818880	46	3795
2026-01-30 02:30:42.17	28.91	22.38	-37.4	-38.1	25.3	0.00e+00	0	41	0	1059061760	46	3873
2026-01-30 02:30:43.18	28.95	22.53	-37.4	-38.1	25.2	0.00e+00	0	41	0	1065353216	46	3880
2026-01-30 02:30:44.19	28.99	22.67	-37.3	-38.0	25.2	0.00e+00	0	41	0	1070596096	46	3863
2026-01-30 02:30:45.20	29.04	22.82	-37.4	-38.1	25.1	0.00e+00	0	41	0	1075838976	46	3912
2026-01-30 02:30:46.21	29.08	22.96	-37.6	-38.3	25.0	0.00e+00	0	41	0	1082130432	46	3973
2026-01-30 02:30:47.22	29.12	23.11	-37.5	-38.2	25.1	0.00e+00	0	41	0	1087373312	46	3949
2026-01-30 02:30:48.23	29.16	23.26	-37.5	-38.3	25.1	0.00e+00	0	41	0	1092616192	46	3962
2026-01-30 02:30:49.24	29.21	23.40	-37.5	-38.2	25.2	0.00e+00	0	41	0	1098907648	46	3926
2026-01-30 02:30:50.25	29.25	23.55	-37.5	-38.2	25.1	0.00e+00	0	41	0	1105199104	46	3929
2026-01-30 02:30:51.25	29.30	23.70	-37.4	-38.1	25.2	0.00e+00	0	41	0	1110441984	46	3891
2026-01-30 02:30:52.25	29.34	23.85	-37.2	-37.9	25.4	0.00e+00	0	41	0	1115684864	46	3801
2026-01-30 02:30:53.27	29.39	24.01	-37.2	-37.9	25.3	0.00e+00	0	41	0	1121976320	46	3820
2026-01-30 02:30:54.28	29.43	24.16	-37.1	-37.8	25.5	0.00e+00	0	41	0	1127219200	46	3763
2026-01-30 02:30:55.29	29.48	24.31	-37.0	-37.7	25.6	0.00e+00	0	41	0	1133510656	46	3710
2026-01-30 02:30:56.29	29.52	24.47	-36.9	-37.6	25.7	0.00e+00	0	41	0	1138753536	45	3880
2026-01-30 02:30:57.30	29.57	24.62	-36.9	-37.6	25.6	0.00e+00	0	41	0	1143996416	45	3903
2026-01-30 02:30:58.31	29.62	24.78	-36.9	-37.6	25.6	0.00e+00	0	41	0	1150287872	45	3903
2026-01-30 02:30:59.32	29.66	24.93	-36.8	-37.5	25.8	0.00e+00	0	41	0	1155530752	45	3829
2026-01-30 02:31:00.33	29.71	25.09	-36.8	-37.4	25.8	0.00e+00	0	41	0	1161822208	45	3818
2026-01-30 02:31:01.34	29.76	25.25	-36.7	-37.4	25.8	0.00e+00	0	41	0	1167065088	45	3804
2026-01-30 02:31:02.35	29.81	25.41	-36.7	-37.3	25.8	0.00e+00	0	41	0	1173356544	45	3777
2026-01-30 02:31:03.36	29.86	25.57	-36.6	-37.3	25.9	0.00e+00	0	41	0	1178599424	45	3764
2026-01-30 02:31:04.37	29.91	25.74	-36.6	-37.3	26.0	0.00e+00	0	41	0	1183842304	45	3753
2026-01-30 02:31:05.38	29.96	25.90	-36.7	-37.4	25.9	0.00e+00	0	41	0	1190133760	45	3789
2026-01-30 02:31:06.38	30.01	26.06	-36.7	-37.4	25.9	0.00e+00	0	41	0	1195376640	45	3811
2026-01-30 02:31:07.39	30.06	26.23	-36.7	-37.4	25.9	0.00e+00	0	41	0	1200619520	45	3807
2026-01-30 02:31:08.40	30.11	26.39	-36.9	-37.6	25.7	0.00e+00	0	41	0	1206910976	45	3880
2026-01-30 02:31:09.40	30.16	26.56	-36.9	-37.6	25.7	0.00e+00	0	41	0	1212153856	45	3900
2026-01-30 02:31:10.41	30.22	26.72	-36.9	-37.6	25.7	0.00e+00	0	41	0	1218445312	45	3888
2026-01-30 02:31:11.42	30.27	26.89	-36.9	-37.6	25.7	0.00e+00	0	41	0	1223688192	45	3881
2026-01-30 02:31:12.43	30.32	27.06	-36.8	-37.5	25.8	0.00e+00	0	41	0	1228931072	45	3855
2026-01-30 02:31:13.43	30.38	27.23	-36.8	-37.5	25.8	0.00e+00	0	41	0	1235222528	45	3843
2026-01-30 02:31:14.44	30.43	27.41	-37.0	-37.6	25.7	0.00e+00	0	41	0	1241513984	45	3911
2026-01-30 02:31:15.45	30.49	27.58	-36.8	-37.5	25.8	0.00e+00	0	41	0	1246756864	45	3852
2026-01-30 02:31:16.45	30.54	27.75	-36.8	-37.5	25.8	0.00e+00	0	41	0	1251999744	45	3855
2026-01-30 02:31:17.46	30.60	27.93	-36.8	-37.6	25.8	0.00e+00	0	41	0	1258291200	45	3869
2026-01-30 02:31:18.47	30.66	28.10	-37.0	-37.7	25.7	0.00e+00	0	41	0	1263534080	45	3915
2026-01-30 02:31:19.48	30.71	28.28	-37.0	-37.8	25.7	0.00e+00	0	41	0	1268776960	45	3959
2026-01-30 02:31:20.48	30.77	28.46	-37.0	-37.7	25.7	0.00e+00	0	41	0	1275068416	45	3939
2026-01-30 02:31:21.49	30.83	28.64	-37.1	-37.8	25.6	0.00e+00	0	41	0	1280311296	45	3973
2026-01-30 02:31:22.50	30.89	28.82	-37.1	-37.8	25.6	0.00e+00	0	41	0	1285554176	45	3977
2026-01-30 02:31:23.51	30.95	29.00	-37.0	-37.7	25.7	0.00e+00	0	41	0	1291845632	45	3940
2026-01-30 02:31:24.52	31.01	29.18	-36.9	-37.6	25.7	0.00e+00	0	41	0	1297088512	45	3902
2026-01-30 02:31:25.53	31.07	29.37	-36.9	-37.6	25.7	0.00e+00	0	41	0	1303379968	45	3906
2026-01-30 02:31:26.53	31.13	29.55	-36.9	-37.6	25.8	0.00e+00	0	41	0	1308622848	45	3892
2026-01-30 02:31:27.54	31.20	29.74	-37.0	-37.7	25.7	0.00e+00	0	41	0	1314914304	45	3932
2026-01-30 02:31:28.55	31.26	29.93	-37.0	-37.7	25.7	0.00e+00	0	41	0	1320157184	45	3956
2026-01-30 02:31:29.56	31.33	30.12	-37.1	-37.8	25.6	0.00e+00	0	41	0	1326448640	45	3984
2026-01-30 02:31:30.57	31.39	30.31	-37.2	-37.9	25.5	0.00e+00	0	41	0	1331691520	45	4026
2026-01-30 02:31:31.57	31.45	30.50	-37.3	-38.1	25.4	0.00e+00	0	41	0	1336934400	45	4101
2026-01-30 02:31:32.58	31.52	30.69	-37.2	-38.0	25.5	0.00e+00	0	41	0	1343225856	45	4053
2026-01-30 02:31:33.58	31.59	30.88	-37.3	-38.0	25.5	0.00e+00	0	41	0	1348468736	45	4060
2026-01-30 02:31:34.59	31.66	31.08	-37.4	-38.1	25.4	0.00e+00	0	41	0	1353711616	45	4116
2026-01-30 02:31:35.60	31.72	31.27	-37.0	-37.7	25.7	0.00e+00	0	42	0	1360003072	45	3934
2026-01-30 02:31:36.61	31.79	31.47	-36.9	-37.7	25.8	0.00e+00	0	41	0	1365245952	45	3915
2026-01-30 02:31:37.61	31.86	31.67	-36.6	-37.3	26.1	0.00e+00	0	41	0	1370488832	45	3743
2026-01-30 02:31:38.62	31.93	31.87	-36.6	-37.2	26.1	0.00e+00	0	41	0	1376780288	45	3736
2026-01-30 02:31:39.62	32.00	32.07	-36.4	-37.1	26.2	0.00e+00	0	41	0	1382023168	44	3906
2026-01-30 02:31:40.63	32.08	32.27	-36.4	-37.1	26.2	0.00e+00	0	41	0	1388314624	44	3890
2026-01-30 02:31:41.63	32.15	32.48	-36.6	-37.2	26.1	0.00e+00	0	41	0	1393557504	44	3957
2026-01-30 02:31:42.64	32.22	32.68	-36.7	-37.4	26.0	0.00e+00	0	41	0	1399848960	44	4031
2026-01-30 02:31:43.65	32.30	32.89	-37.0	-37.7	25.8	0.00e+00	0	41	0	1405091840	44	4152
2026-01-30 02:31:44.66	32.38	33.10	-37.1	-37.8	25.7	0.00e+00	0	41	0	1411383296	44	4210
2026-01-30 02:31:45.66	32.45	33.31	-37.1	-37.8	25.6	0.00e+00	0	41	0	1416626176	44	4231
2026-01-30 02:31:46.67	32.53	33.52	-37.0	-37.7	25.7	0.00e+00	0	41	0	1421869056	44	4165
2026-01-30 02:31:47.68	32.61	33.73	-37.1	-37.8	25.6	0.00e+00	0	41	0	1428160512	44	4208
2026-01-30 02:31:48.69	32.69	33.95	-37.0	-37.7	25.7	0.00e+00	0	41	0	1433403392	44	4186
2026-01-30 02:31:49.70	32.77	34.16	-36.8	-37.5	25.9	0.00e+00	0	41	0	1438646272	44	4076
2026-01-30 02:31:50.71	32.85	34.38	-36.7	-37.4	26.0	0.00e+00	0	41	0	1444937728	44	4020
2026-01-30 02:31:51.72	32.94	34.60	-36.8	-37.5	26.0	0.00e+00	0	41	0	1450180608	44	4059
2026-01-30 02:31:52.73	33.02	34.82	-36.8	-37.5	26.0	0.00e+00	0	41	0	1455423488	44	4056
2026-01-30 02:31:53.74	33.10	35.04	-36.7	-37.4	26.0	0.00e+00	0	41	0	1461714944	44	4013
2026-01-30 02:31:54.75	33.19	35.26	-36.8	-37.5	25.9	0.00e+00	0	41	0	1468006400	44	4078
2026-01-30 02:31:55.76	33.28	35.49	-36.8	-37.5	26.0	0.00e+00	0	41	0	1473249280	44	4053
2026-01-30 02:31:56.77	33.37	35.71	-36.7	-37.4	26.0	0.00e+00	0	41	0	1478492160	44	4049
2026-01-30 02:31:57.78	33.46	35.94	-36.6	-37.3	26.1	0.00e+00	0	41	0	1484783616	44	4000
2026-01-30 02:31:58.79	33.55	36.17	-36.6	-37.3	26.1	0.00e+00	0	41	0	1490026496	44	3984
2026-01-30 02:31:59.80	33.64	36.40	-36.5	-37.2	26.2	0.00e+00	0	41	0	1496317952	44	3934
2026-01-30 02:32:00.81	33.73	36.64	-36.5	-37.2	26.2	0.00e+00	0	41	0	1501560832	44	3928
2026-01-30 02:32:01.82	33.83	36.87	-36.5	-37.2	26.2	0.00e+00	0	41	0	1506803712	44	3941
2026-01-30 02:32:02.82	33.92	37.10	-36.4	-37.1	26.3	0.00e+00	0	41	0	1513095168	44	3885
2026-01-30 02:32:03.83	34.02	37.34	-36.4	-37.1	26.3	0.00e+00	0	41	0	1518338048	44	3888
2026-01-30 02:32:04.83	34.12	37.58	-36.3	-37.0	26.4	0.00e+00	0	41	0	1524629504	44	3842
2026-01-30 02:32:05.85	34.22	37.82	-36.4	-37.1	26.3	0.00e+00	0	41	0	1529872384	44	3882
2026-01-30 02:32:06.86	34.32	38.06	-36.1	-36.8	26.6	0.00e+00	0	41	0	1536163840	44	3743
2026-01-30 02:32:07.87	34.42	38.31	-36.1	-36.8	26.6	0.00e+00	0	41	0	1541406720	44	3749
2026-01-30 02:32:08.87	34.53	38.55	-36.0	-36.7	26.7	0.00e+00	0	41	0	1546649600	44	3712
2026-01-30 02:32:09.88	34.63	38.80	-36.1	-36.7	26.7	0.00e+00	0	41	0	1552941056	44	3735
2026-01-30 02:32:10.88	34.74	39.04	-36.0	-36.7	26.7	0.00e+00	0	41	0	1558183936	44	3715
2026-01-30 02:32:11.89	34.85	39.30	-36.2	-36.8	26.6	0.00e+00	0	41	0	1563426816	44	3764
2026-01-30 02:32:12.90	34.96	39.55	-36.2	-36.9	26.5	0.00e+00	0	41	0	1569718272	44	3799
2026-01-30 02:32:13.91	35.07	39.80	-36.4	-37.0	26.4	0.00e+00	0	41	0	1574961152	44	3857
2026-01-30 02:32:14.92	35.19	40.06	-36.5	-37.2	26.3	0.00e+00	0	41	0	1581252608	44	3914
2026-01-30 02:32:15.93	35.30	40.32	-36.6	-37.3	26.2	0.00e+00	0	41	0	1586495488	44	3968
2026-01-30 02:32:16.94	35.42	40.58	-36.6	-37.3	26.2	0.00e+00	0	41	0	1592786944	44	3994
2026-01-30 02:32:17.95	35.54	40.84	-36.5	-37.3	26.2	0.00e+00	0	41	0	1598029824	44	3969
2026-01-30 02:32:18.96	35.66	41.10	-36.5	-37.2	26.2	0.00e+00	0	41	0	1604321280	44	3947
2026-01-30 02:32:19.96	35.79	41.36	-36.4	-37.2	26.3	0.00e+00	0	41	0	1609564160	44	3928
2026-01-30 02:32:20.97	35.91	41.63	-36.5	-37.3	26.2	0.00e+00	0	41	0	1614807040	44	3977
2026-01-30 02:32:21.98	36.04	41.90	-36.5	-37.2	26.3	0.00e+00	0	41	0	1621098496	44	3943
2026-01-30 02:32:22.99	36.17	42.17	-36.6	-37.2	26.3	0.00e+00	0	42	0	1626341376	44	3954
2026-01-30 02:32:24.01	36.30	42.44	-36.7	-37.4	26.1	0.00e+00	0	41	0	1631584256	44	4040
2026-01-30 02:32:25.01	36.43	42.72	-36.8	-37.5	26.0	0.00e+00	0	41	0	1637875712	44	4093
2026-01-30 02:32:26.02	36.57	42.99	-36.9	-37.6	26.0	0.00e+00	0	41	0	1643118592	44	4108
2026-01-30 02:32:27.03	36.71	43.27	-36.8	-37.4	26.1	0.00e+00	0	41	0	1648361472	44	4049
2026-01-30 02:32:28.04	36.85	43.55	-36.7	-37.4	26.2	0.00e+00	0	41	0	1654652928	44	4013
2026-01-30 02:32:29.04	36.99	43.83	-36.8	-37.5	26.1	0.00e+00	0	41	0	1660944384	44	4081
2026-01-30 02:32:30.05	37.14	44.11	-36.9	-37.6	26.0	0.00e+00	0	41	0	1666187264	44	4127
2026-01-30 02:32:31.06	37.28	44.40	-36.9	-37.6	25.9	0.00e+00	0	41	0	1671430144	44	4123
2026-01-30 02:32:32.07	37.43	44.68	-36.8	-37.5	26.1	0.00e+00	0	41	0	1677721600	44	4073
2026-01-30 02:32:33.07	37.59	44.97	-36.9	-37.6	26.0	0.00e+00	0	41	0	1682964480	44	4131
2026-01-30 02:32:34.08	37.74	45.26	-37.2	-37.9	25.7	0.00e+00	0	41	0	1689255936	44	4269
2026-01-30 02:32:35.09	37.90	45.55	-37.7	-38.3	25.7	0.00e+00	0	41	0	1694498816	45	4204
2026-01-30 02:32:36.10	38.06	45.85	-37.4	-38.1	25.6	0.00e+00	0	41	0	1699741696	45	4125
2026-01-30 02:32:37.11	38.23	46.15	-37.4	-38.1	25.5	0.00e+00	0	41	0	1706033152	45	4131
2026-01-30 02:32:38.11	38.40	46.44	-37.1	-37.8	25.8	0.00e+00	0	41	0	1711276032	45	3980
2026-01-30 02:32:39.11	38.56	46.74	-37.1	-37.8	25.9	0.00e+00	0	41	0	1716518912	45	3970
2026-01-30 02:32:40.13	38.74	47.04	-37.0	-37.7	25.9	0.00e+00	0	41	0	1722810368	45	3940
2026-01-30 02:32:41.13	38.92	47.35	-37.0	-37.7	25.9	0.00e+00	0	41	0	1729101824	45	3949
2026-01-30 02:32:42.14	39.10	47.65	-36.9	-37.6	26.0	0.00e+00	0	41	0	1734344704	45	3883
2026-01-30 02:32:43.15	39.28	47.96	-37.0	-37.7	25.9	0.00e+00	0	41	0	1739587584	45	3922
2026-01-30 02:32:44.15	39.47	48.27	-36.9	-37.6	26.0	0.00e+00	0	41	0	1745879040	45	3892
2026-01-30 02:32:45.16	39.66	48.58	-36.9	-37.6	26.0	0.00e+00	0	41	0	1751121920	45	3877
2026-01-30 02:32:46.17	39.86	48.89	-37.0	-37.7	26.0	0.00e+00	0	41	0	1756364800	45	3929
2026-01-30 02:32:47.18	40.06	49.21	-37.2	-37.9	25.8	0.00e+00	0	41	0	1762656256	45	4040
2026-01-30 02:32:48.18	40.26	49.52	-37.3	-38.0	25.7	0.00e+00	0	41	0	1767899136	45	4072
2026-01-30 02:32:49.18	40.46	49.84	-37.5	-38.2	25.5	0.00e+00	0	41	0	1774190592	45	4159
2026-01-30 02:32:50.19	40.68	50.16	-37.4	-38.1	25.6	0.00e+00	0	41	0	1779433472	45	4145
2026-01-30 02:32:51.20	40.89	50.49	-37.4	-38.1	25.6	0.00e+00	0	41	0	1784676352	45	4116
2026-01-30 02:32:52.20	41.11	50.81	-37.4	-38.1	25.6	0.00e+00	0	41	0	1790967808	45	4132
2026-01-30 02:32:53.21	41.34	51.13	-37.4	-38.2	25.6	0.00e+00	0	41	0	1796210688	45	4147
2026-01-30 02:32:54.22	41.57	51.46	-37.5	-38.3	25.5	0.00e+00	0	41	0	1801453568	45	4195
2026-01-30 02:32:55.22	41.80	51.79	-37.7	-38.4	25.4	0.00e+00	0	41	0	1807745024	46	4031
2026-01-30 02:32:56.23	42.04	52.12	-37.7	-38.4	25.3	0.00e+00	0	41	0	1812987904	46	4032
2026-01-30 02:32:57.24	42.29	52.46	-37.6	-38.3	25.5	0.00e+00	0	41	0	1819279360	46	3980
2026-01-30 02:32:58.25	42.54	52.79	-37.7	-38.4	25.4	0.00e+00	0	41	0	1824522240	46	4029
2026-01-30 02:32:59.26	42.80	53.13	-37.9	-38.6	25.2	0.00e+00	0	41	0	1830813696	46	4123
2026-01-30 02:33:00.27	43.06	53.47	-37.9	-38.6	25.2	0.00e+00	0	41	0	1836056576	46	4119
2026-01-30 02:33:01.28	43.33	53.81	-38.0	-38.7	25.2	0.00e+00	0	41	0	1841299456	46	4155
2026-01-30 02:33:02.29	43.61	54.16	-38.0	-38.7	25.1	0.00e+00	0	41	0	1847590912	46	4180
2026-01-30 02:33:03.30	43.89	54.50	-37.9	-38.6	25.2	0.00e+00	0	41	0	1852833792	46	4139
2026-01-30 02:33:04.30	44.18	54.84	-37.8	-38.5	25.3	0.00e+00	0	41	0	1859125248	46	4096
2026-01-30 02:33:05.31	44.48	55.19	-37.9	-38.6	25.3	0.00e+00	0	41	0	1864368128	46	4114
2026-01-30 02:33:06.32	44.78	55.54	-37.8	-38.5	25.3	0.00e+00	0	41	0	1869611008	46	4080
2026-01-30 02:33:07.33	45.09	55.89	-37.8	-38.5	25.3	0.00e+00	0	41	0	1875902464	46	4091
2026-01-30 02:33:08.34	45.41	56.24	-38.2	-38.9	25.0	0.00e+00	0	41	0	1882193920	46	4262
2026-01-30 02:33:09.34	45.74	56.59	-38.3	-39.0	24.9	0.00e+00	0	41	0	1887436800	47	4076
2026-01-30 02:33:10.35	46.07	56.95	-38.1	-38.8	25.1	0.00e+00	0	41	0	1892679680	47	3984
2026-01-30 02:33:11.36	46.42	57.30	-38.1	-38.8	25.1	0.00e+00	0	41	0	1898971136	47	3997
2026-01-30 02:33:12.37	46.77	57.66	-38.0	-38.7	25.2	0.00e+00	0	41	0	1904214016	47	3941
2026-01-30 02:33:13.37	47.13	58.02	-38.1	-38.8	25.0	0.00e+00	0	41	0	1909456896	47	4001
2026-01-30 02:33:14.38	47.50	58.38	-38.1	-38.8	25.1	0.00e+00	0	41	0	1915748352	47	3973
2026-01-30 02:33:15.39	47.89	58.74	-37.9	-38.6	25.2	0.00e+00	0	41	0	1920991232	47	3900
2026-01-30 02:33:16.40	48.28	59.10	-37.7	-38.4	25.5	0.00e+00	0	41	0	1926234112	47	3794
2026-01-30 02:33:17.41	48.68	59.46	-37.6	-38.3	25.6	0.00e+00	0	41	0	1932525568	47	3748
2026-01-30 02:33:18.42	49.10	59.83	-37.6	-38.3	25.6	0.00e+00	0	41	0	1937768448	47	3741
2026-01-30 02:33:19.42	49.52	60.19	-37.1	-37.8	26.0	0.00e+00	0	41	0	1944059904	46	3742
2026-01-30 02:33:20.43	49.96	60.55	-36.8	-37.5	26.2	0.00e+00	0	41	0	1949302784	45	3828
2026-01-30 02:33:21.44	50.41	60.92	-37.0	-37.7	26.0	0.00e+00	0	41	0	1955594240	45	3930
2026-01-30 02:33:22.44	50.87	61.28	-37.1	-37.8	26.0	0.00e+00	0	41	0	1960837120	45	3978
2026-01-30 02:33:23.45	51.35	61.65	-37.2	-37.9	25.9	0.00e+00	0	41	0	1967128576	45	4018
2026-01-30 02:33:24.46	51.85	62.01	-36.9	-37.6	26.1	0.00e+00	0	41	0	1972371456	45	3888
2026-01-30 02:33:25.47	52.35	62.38	-36.9	-37.6	26.1	0.00e+00	0	41	0	1977614336	45	3894
2026-01-30 02:33:26.47	52.87	62.74	-36.7	-37.4	26.3	0.00e+00	0	41	0	1983905792	45	3792
2026-01-30 02:33:27.48	53.41	63.11	-36.5	-37.1	26.5	0.00e+00	0	41	0	1989148672	45	3691
2026-01-30 02:33:28.49	53.97	63.48	-36.5	-37.2	26.5	0.00e+00	0	41	0	1994391552	44	3928
2026-01-30 02:33:29.50	54.54	63.84	-36.4	-37.1	26.5	0.00e+00	0	41	0	2000683008	44	3903
2026-01-30 02:33:30.50	55.13	64.21	-36.5	-37.2	26.5	0.00e+00	0	41	0	2005925888	44	3924
2026-01-30 02:33:31.51	55.74	64.57	-36.6	-37.3	26.3	0.00e+00	0	41	0	2011168768	44	4003
2026-01-30 02:33:32.51	56.36	64.93	-36.1	-36.8	26.8	0.00e+00	0	41	0	2017460224	44	3754
2026-01-30 02:33:33.52	57.01	65.29	-36.1	-36.8	26.8	0.00e+00	0	41	0	2022703104	44	3756
2026-01-30 02:33:34.53	57.69	65.66	-36.2	-36.8	26.8	0.00e+00	0	41	0	2028994560	44	3776
2026-01-30 02:33:35.53	58.37	66.01	-36.2	-36.9	26.7	0.00e+00	0	41	0	2034237440	44	3789
2026-01-30 02:33:36.54	59.09	66.37	-36.4	-37.1	26.6	0.00e+00	0	41	0	2040528896	44	3875
2026-01-30 02:33:37.54	59.82	66.73	-36.7	-37.4	26.3	0.00e+00	0	41	0	2045771776	44	4035
2026-01-30 02:33:38.55	60.59	67.08	-36.5	-37.1	26.5	0.00e+00	0	41	0	2052063232	44	3903
2026-01-30 02:33:39.56	61.38	67.43	-36.5	-37.2	26.5	0.00e+00	0	41	0	2057306112	44	3936
2026-01-30 02:33:40.57	62.20	67.78	-36.4	-37.0	26.6	0.00e+00	0	41	0	2062548992	44	3867
2026-01-30 02:33:41.57	63.04	68.13	-35.6	-36.2	27.2	0.00e+00	0	41	0	2068840448	43	3724
2026-01-30 02:33:42.58	63.92	68.47	-35.9	-36.5	26.9	0.00e+00	0	41	0	2074083328	43	3853
2026-01-30 02:33:43.59	64.83	68.81	-36.4	-37.1	26.4	0.00e+00	0	41	0	2079326208	43	4116
2026-01-30 02:33:44.60	65.77	69.15	-35.9	-36.6	26.9	0.00e+00	0	41	0	2085617664	43	3881
2026-01-30 02:33:45.60	66.73	69.48	-35.7	-36.4	27.1	0.00e+00	0	42	0	2090860544	43	3787
2026-01-30 02:33:46.61	67.74	69.81	-36.1	-36.8	26.8	0.00e+00	0	41	0	2096103424	43	3967
2026-01-30 02:33:47.61	68.77	70.13	-35.9	-36.6	26.9	0.00e+00	0	41	0	2102394880	43	3873
2026-01-30 02:33:48.62	69.85	70.45	-35.7	-36.3	27.1	0.00e+00	0	41	0	2107637760	43	3763
2026-01-30 02:33:49.63	70.97	70.76	-35.9	-36.6	26.9	0.00e+00	0	41	0	2113929216	43	3880
2026-01-30 02:33:50.64	72.12	71.07	-35.9	-36.6	26.9	0.00e+00	0	41	0	2119172096	43	3879
2026-01-30 02:33:51.65	73.32	71.37	-35.9	-36.6	26.9	0.00e+00	0	42	0	2125463552	43	3879
2026-01-30 02:33:52.66	74.55	71.66	-35.6	-36.3	27.2	0.00e+00	0	41	0	2130706432	43	3749
2026-01-30 02:33:53.67	75.83	71.95	-35.3	-35.9	27.4	0.00e+00	0	41	0	2136997888	42	3819
2026-01-30 02:33:54.67	77.14	72.22	-35.2	-35.9	27.4	0.00e+00	0	41	0	2142240768	42	3797
2026-01-30 02:33:55.68	78.50	72.49	-35.6	-36.2	27.2	0.00e+00	0	41	0	2147483648	42	3954
2026-01-30 02:33:56.69	79.91	72.75	-35.6	-36.3	27.2	0.00e+00	0	41	0	2153775104	42	3963
2026-01-30 02:33:57.70	81.36	73.00	-35.4	-36.1	27.3	0.00e+00	0	41	0	2159017984	42	3893
2026-01-30 02:33:58.71	82.85	73.24	-35.5	-36.2	27.2	0.00e+00	0	41	0	2164260864	42	3924
2026-01-30 02:33:59.71	84.38	73.47	-35.4	-36.1	27.2	0.00e+00	0	41	0	2170552320	42	3885
2026-01-30 02:34:00.71	85.95	73.69	-35.4	-36.0	27.3	0.00e+00	0	41	0	2175795200	42	3854
2026-01-30 02:34:01.72	87.58	73.89	-35.6	-36.2	27.2	0.00e+00	0	41	0	2181038080	42	3953
2026-01-30 02:34:02.73	89.25	74.09	-35.4	-36.1	27.3	0.00e+00	0	41	0	2187329536	42	3886
2026-01-30 02:34:03.74	90.96	74.27	-35.3	-36.0	27.4	0.00e+00	0	41	0	2193620992	42	3828
2026-01-30 02:34:04.75	92.71	74.44	-35.4	-36.1	27.3	0.00e+00	0	41	0	2198863872	42	3886
2026-01-30 02:34:05.76	94.50	74.59	-35.5	-36.1	27.3	0.00e+00	0	41	0	2204106752	42	3903
2026-01-30 02:34:06.77	96.33	74.73	-35.1	-35.8	27.5	0.00e+00	0	41	0	2210398208	42	3744
2026-01-30 02:34:07.78	98.19	74.86	-35.4	-36.1	27.4	0.00e+00	0	41	0	2215641088	42	3877
2026-01-30 02:34:08.79	100.08	74.97	-35.3	-36.0	27.4	0.00e+00	0	41	0	2221932544	42	3826
2026-01-30 02:34:09.80	102.00	75.06	-35.2	-35.8	27.5	0.00e+00	0	41	0	2227175424	42	3761
2026-01-30 02:34:10.81	103.94	75.14	-35.2	-35.9	27.4	0.00e+00	0	41	0	2232418304	42	3801
2026-01-30 02:34:11.81	105.88	75.20	-35.2	-35.9	27.5	0.00e+00	0	41	0	2238709760	42	3804
2026-01-30 02:34:12.82	107.85	75.24	-35.3	-35.9	27.5	0.00e+00	0	41	0	2243952640	42	3807
2026-01-30 02:34:13.82	109.81	75.27	-35.2	-35.8	27.5	0.00e+00	0	41	0	2249195520	42	3770
2026-01-30 02:34:14.84	111.82	75.28	-35.0	-35.7	27.6	0.00e+00	0	41	0	2255486976	42	3695
2026-01-30 02:34:15.84	113.79	75.27	-35.2	-35.8	27.5	0.00e+00	0	41	0	2261778432	42	3779
2026-01-30 02:34:16.85	115.78	75.25	-35.1	-35.8	27.5	0.00e+00	0	41	0	2267021312	42	3748
2026-01-30 02:34:17.86	117.75	75.21	-35.2	-35.8	27.5	0.00e+00	0	41	0	2272264192	42	3775
2026-01-30 02:34:18.86	119.70	75.15	-35.1	-35.7	27.6	0.00e+00	0	41	0	2278555648	42	3724
2026-01-30 02:34:19.87	121.64	75.08	-35.0	-35.7	27.6	0.00e+00	0	41	0	2283798528	42	3714
2026-01-30 02:34:20.88	123.57	74.99	-35.1	-35.7	27.6	0.00e+00	0	41	0	2289041408	42	3718
2026-01-30 02:34:21.89	125.46	74.89	-35.1	-35.8	27.6	0.00e+00	0	41	0	2295332864	42	3741
2026-01-30 02:34:22.89	127.31	74.77	-35.1	-35.8	27.5	0.00e+00	0	41	0	2300575744	41	3964
2026-01-30 02:34:23.90	129.15	74.63	-35.2	-35.8	27.5	0.00e+00	0	41	0	2306867200	41	3990
2026-01-30 02:34:24.90	130.93	74.48	-35.1	-35.8	27.5	0.00e+00	0	41	0	2312110080	41	3970
2026-01-30 02:34:25.91	132.70	74.32	-35.4	-36.1	27.3	0.00e+00	0	41	0	2317352960	41	4111
2026-01-30 02:34:26.92	134.42	74.14	-35.5	-36.1	27.2	0.00e+00	0	41	0	2323644416	41	4144
2026-01-30 02:34:27.93	136.11	73.95	-35.3	-36.0	27.3	0.00e+00	0	41	0	2328887296	41	4055
2026-01-30 02:34:28.93	137.73	73.75	-35.3	-36.0	27.3	0.00e+00	0	41	0	2335178752	41	4057
2026-01-30 02:34:29.94	139.33	73.53	-35.4	-36.1	27.2	0.00e+00	0	41	0	2340421632	41	4125
2026-01-30 02:34:30.95	140.88	73.30	-35.2	-35.9	27.4	0.00e+00	0	41	0	2346713088	41	4020
2026-01-30 02:34:31.95	142.38	73.07	-35.4	-36.1	27.3	0.00e+00	0	41	0	2351955968	41	4116
2026-01-30 02:34:32.96	143.84	72.82	-35.6	-36.3	27.1	0.00e+00	0	41	0	2357198848	41	4213
2026-01-30 02:34:33.97	145.26	72.56	-35.8	-36.5	27.0	0.00e+00	0	42	0	2363490304	42	4055
2026-01-30 02:34:34.98	146.64	72.29	-35.6	-36.3	27.2	0.00e+00	0	41	0	2368733184	42	3971
2026-01-30 02:34:35.99	147.97	72.02	-35.8	-36.4	27.0	0.00e+00	0	41	0	2373976064	42	4041
2026-01-30 02:34:37.00	149.26	71.73	-36.0	-36.7	26.8	0.00e+00	0	41	0	2380267520	42	4170
2026-01-30 02:34:38.01	150.51	71.44	-35.9	-36.6	26.8	0.00e+00	0	41	0	2385510400	42	4125
2026-01-30 02:34:39.02	151.71	71.14	-36.1	-36.8	26.7	0.00e+00	0	41	0	2391801856	42	4207
2026-01-30 02:34:40.03	152.88	70.84	-36.4	-37.1	26.5	0.00e+00	0	41	0	2397044736	43	4117
2026-01-30 02:34:41.04	154.01	70.53	-36.0	-36.7	26.9	0.00e+00	0	42	0	2403336192	43	3928
2026-01-30 02:34:42.05	155.09	70.21	-36.3	-36.9	26.6	0.00e+00	0	41	0	2408579072	43	4042
2026-01-30 02:34:43.06	156.15	69.89	-36.3	-37.0	26.6	0.00e+00	0	41	0	2414870528	43	4068
2026-01-30 02:34:44.06	157.15	69.56	-36.1	-36.8	26.7	0.00e+00	0	41	0	2420113408	43	3979
2026-01-30 02:34:45.07	158.13	69.23	-36.1	-36.7	26.8	0.00e+00	0	42	0	2425356288	43	3952
2026-01-30 02:34:46.08	159.08	68.89	-36.4	-37.1	26.5	0.00e+00	0	41	0	2431647744	43	4124
2026-01-30 02:34:47.08	159.99	68.56	-36.1	-36.8	26.7	0.00e+00	0	41	0	2436890624	43	3966
2026-01-30 02:34:48.09	160.88	68.21	-36.1	-36.7	26.7	0.00e+00	0	41	0	2442133504	43	3958
2026-01-30 02:34:49.09	161.73	67.87	-36.1	-36.8	26.7	0.00e+00	0	41	0	2448424960	43	3981
2026-01-30 02:34:50.10	162.55	67.52	-36.3	-37.0	26.5	0.00e+00	0	42	0	2453667840	43	4062
2026-01-30 02:34:51.11	163.35	67.17	-35.9	-36.6	26.9	0.00e+00	0	41	0	2458910720	43	3877
2026-01-30 02:34:52.12	164.13	66.81	-35.7	-36.4	27.0	0.00e+00	0	41	0	2465202176	43	3795
2026-01-30 02:34:53.12	164.87	66.46	-35.9	-36.6	26.9	0.00e+00	0	41	0	2470445056	43	3885
2026-01-30 02:34:54.13	165.59	66.10	-35.9	-36.6	26.9	0.00e+00	0	41	0	2476736512	43	3897
2026-01-30 02:34:55.14	166.29	65.74	-35.9	-36.5	27.0	0.00e+00	0	41	0	2481979392	43	3859
2026-01-30 02:34:56.15	166.97	65.37	-36.0	-36.6	26.9	0.00e+00	0	41	0	2488270848	43	3910
2026-01-30 02:34:57.15	167.62	65.01	-36.2	-36.9	26.6	0.00e+00	0	41	0	2493513728	43	4018
2026-01-30 02:34:58.16	168.26	64.65	-36.0	-36.7	26.8	0.00e+00	0	41	0	2499805184	43	3945
2026-01-30 02:34:59.17	168.87	64.28	-36.1	-36.8	26.8	0.00e+00	0	41	0	2505048064	43	3962
2026-01-30 02:35:00.17	169.47	63.92	-36.4	-37.1	26.5	0.00e+00	0	42	0	2510290944	43	4108
2026-01-30 02:35:01.18	170.04	63.55	-36.3	-37.0	26.5	0.00e+00	0	41	0	2516582400	43	4087
2026-01-30 02:35:02.19	170.61	63.19	-36.2	-36.9	26.6	0.00e+00	0	41	0	2521825280	43	4021
2026-01-30 02:35:03.19	171.14	62.82	-36.1	-36.8	26.7	0.00e+00	0	41	0	2527068160	43	3983
2026-01-30 02:35:04.19	171.67	62.46	-36.4	-37.1	26.5	0.00e+00	0	41	0	2533359616	43	4142
2026-01-30 02:35:05.20	172.18	62.09	-36.5	-37.2	26.3	0.00e+00	0	41	0	2538602496	43	4180
2026-01-30 02:35:06.21	172.68	61.72	-36.4	-37.1	26.5	0.00e+00	0	41	0	2543845376	43	4114
2026-01-30 02:35:07.22	173.16	61.36	-36.2	-36.8	26.7	0.00e+00	0	41	0	2550136832	43	3987
2026-01-30 02:35:08.23	173.63	60.99	-36.4	-37.1	26.5	0.00e+00	0	41	0	2556428288	43	4111
2026-01-30 02:35:09.24	174.08	60.62	-37.0	-37.7	26.0	0.00e+00	0	41	0	2561671168	44	4191
2026-01-30 02:35:10.24	174.52	60.26	-37.1	-37.8	25.9	0.00e+00	0	41	0	2566914048	44	4205
2026-01-30 02:35:11.25	174.95	59.89	-37.0	-37.7	26.0	0.00e+00	0	41	0	2573205504	44	4165
2026-01-30 02:35:12.26	175.37	59.53	-37.1	-37.8	26.0	0.00e+00	0	41	0	2578448384	44	4230
2026-01-30 02:35:13.27	175.78	59.17	-37.3	-38.0	25.8	0.00e+00	0	41	0	2584739840	45	4060
2026-01-30 02:35:14.27	176.17	58.81	-37.4	-38.1	25.7	0.00e+00	0	41	0	2589982720	45	4111
2026-01-30 02:35:15.28	176.56	58.44	-37.4	-38.1	25.7	0.00e+00	0	41	0	2595225600	45	4144
2026-01-30 02:35:16.29	176.93	58.08	-37.4	-38.1	25.7	0.00e+00	0	41	0	2601517056	45	4117
2026-01-30 02:35:17.29	177.29	57.73	-37.6	-38.3	25.5	0.00e+00	0	41	0	2606759936	45	4234
2026-01-30 02:35:18.30	177.65	57.37	-37.6	-38.4	25.4	0.00e+00	0	42	0	2612002816	45	4255
2026-01-30 02:35:19.30	177.99	57.02	-37.5	-38.2	25.6	0.00e+00	0	41	0	2618294272	45	4167
2026-01-30 02:35:20.31	178.33	56.66	-37.6	-38.3	25.6	0.00e+00	0	42	0	2623537152	45	4208
2026-01-30 02:35:21.32	178.66	56.30	-37.8	-38.5	25.4	0.00e+00	0	41	0	2628780032	46	4064
2026-01-30 02:35:22.33	178.98	55.95	-37.7	-38.4	25.5	0.00e+00	0	41	0	2635071488	46	4030
2026-01-30 02:35:23.33	179.29	55.60	-37.6	-38.3	25.5	0.00e+00	0	41	0	2641362944	46	4003
2026-01-30 02:35:24.34	179.60	55.25	-37.5	-38.1	25.7	0.00e+00	0	41	0	2646605824	46	3912
2026-01-30 02:35:25.35	179.90	54.90	-37.4	-38.1	25.7	0.00e+00	0	41	0	2651848704	46	3895
2026-01-30 02:35:26.35	180.19	54.56	-37.3	-38.0	25.8	0.00e+00	0	41	0	2658140160	46	3849
2026-01-30 02:35:27.36	180.47	54.21	-37.3	-38.0	25.8	0.00e+00	0	41	0	2663383040	46	3835
2026-01-30 02:35:28.37	180.75	53.87	-37.3	-38.0	25.8	0.00e+00	0	41	0	2669674496	46	3853
2026-01-30 02:35:29.38	181.02	53.53	-37.5	-38.2	25.6	0.00e+00	0	41	0	2674917376	46	3951
2026-01-30 02:35:30.39	181.29	53.19	-37.7	-38.4	25.5	0.00e+00	0	41	0	2680160256	46	4012
2026-01-30 02:35:31.40	181.55	52.85	-37.7	-38.4	25.4	0.00e+00	0	41	0	2686451712	46	4028
2026-01-30 02:35:32.40	181.80	52.51	-37.7	-38.4	25.4	0.00e+00	0	42	0	2691694592	46	4042
2026-01-30 02:35:33.41	182.05	52.18	-37.6	-38.3	25.5	0.00e+00	0	42	0	2696937472	46	3989
2026-01-30 02:35:34.41	182.29	51.85	-37.7	-38.4	25.5	0.00e+00	0	41	0	2703228928	46	4010
2026-01-30 02:35:35.42	182.52	51.51	-37.8	-38.5	25.3	0.00e+00	0	41	0	2708471808	46	4060
2026-01-30 02:35:36.43	182.76	51.18	-38.0	-38.7	25.1	0.00e+00	0	41	0	2714763264	46	4183
2026-01-30 02:35:37.44	182.98	50.86	-38.2	-38.9	25.0	0.00e+00	0	41	0	2720006144	46	4280
2026-01-30 02:35:38.44	183.20	50.53	-38.0	-38.8	25.1	0.00e+00	0	41	0	2726297600	46	4204
2026-01-30 02:35:39.45	183.42	50.21	-37.9	-38.6	25.3	0.00e+00	0	41	0	2731540480	46	4115
2026-01-30 02:35:40.46	183.64	49.88	-37.9	-38.6	25.3	0.00e+00	0	41	0	2736783360	46	4125
2026-01-30 02:35:41.46	183.84	49.57	-37.9	-38.6	25.2	0.00e+00	0	41	0	2743074816	46	4111
2026-01-30 02:35:42.47	184.05	49.25	-37.6	-38.3	25.5	0.00e+00	0	41	0	2748317696	46	3987
2026-01-30 02:35:43.48	184.25	48.93	-37.6	-38.3	25.5	0.00e+00	0	41	0	2754609152	46	4001
2026-01-30 02:35:44.49	184.44	48.61	-37.7	-38.4	25.4	0.00e+00	0	41	0	2759852032	46	4047
2026-01-30 02:35:45.50	184.64	48.30	-37.6	-38.3	25.4	0.00e+00	0	41	0	2765094912	46	3998
2026-01-30 02:35:46.51	184.83	47.99	-37.3	-38.0	25.8	0.00e+00	0	41	0	2771386368	46	3827
2026-01-30 02:35:47.52	185.01	47.68	-37.0	-37.7	26.0	0.00e+00	0	41	0	2776629248	46	3708
2026-01-30 02:35:48.53	185.19	47.37	-37.0	-37.6	26.0	0.00e+00	0	41	0	2781872128	45	3902
2026-01-30 02:35:49.53	185.37	47.07	-36.8	-37.5	26.2	0.00e+00	0	41	0	2788163584	45	3846
2026-01-30 02:35:50.54	185.55	46.77	-36.9	-37.5	26.1	0.00e+00	0	42	0	2794455040	45	3865
2026-01-30 02:35:51.54	185.72	46.47	-37.0	-37.7	26.0	0.00e+00	0	41	0	2799697920	45	3933
2026-01-30 02:35:52.55	185.88	46.17	-36.9	-37.6	26.1	0.00e+00	0	41	0	2804940800	45	3893
2026-01-30 02:35:53.57	186.05	45.87	-36.8	-37.5	26.2	0.00e+00	0	41	0	2811232256	45	3835
2026-01-30 02:35:54.57	186.21	45.57	-36.8	-37.5	26.2	0.00e+00	0	41	0	2816475136	45	3845
2026-01-30 02:35:55.58	186.37	45.28	-36.7	-37.4	26.3	0.00e+00	0	41	0	2821718016	45	3800
2026-01-30 02:35:56.59	186.53	44.99	-36.5	-37.1	26.4	0.00e+00	0	41	0	2828009472	45	3690
2026-01-30 02:35:57.60	186.68	44.70	-36.4	-37.1	26.5	0.00e+00	0	42	0	2833252352	44	3893
2026-01-30 02:35:58.61	186.83	44.41	-36.4	-37.0	26.5	0.00e+00	0	41	0	2839543808	44	3858
2026-01-30 02:35:59.62	186.98	44.12	-36.4	-37.0	26.5	0.00e+00	0	41	0	2844786688	44	3861
2026-01-30 02:36:00.63	187.13	43.84	-36.3	-37.0	26.6	0.00e+00	0	42	0	2851078144	44	3844
2026-01-30 02:36:01.64	187.27	43.55	-36.4	-37.0	26.5	0.00e+00	0	41	0	2856321024	44	3861
2026-01-30 02:36:02.65	187.41	43.27	-36.4	-37.1	26.5	0.00e+00	0	41	0	2862612480	44	3882
2026-01-30 02:36:03.65	187.55	43.00	-36.5	-37.2	26.4	0.00e+00	0	41	0	2867855360	44	3927
2026-01-30 02:36:04.66	187.69	42.72	-36.6	-37.3	26.3	0.00e+00	0	41	0	2873098240	44	3983
2026-01-30 02:36:05.67	187.82	42.44	-36.7	-37.4	26.2	0.00e+00	0	41	0	2879389696	44	4021
2026-01-30 02:36:06.68	187.95	42.17	-36.7	-37.4	26.2	0.00e+00	0	41	0	2884632576	44	4034
2026-01-30 02:36:07.69	188.08	41.90	-36.7	-37.4	26.2	0.00e+00	0	41	0	2889875456	44	4036
2026-01-30 02:36:08.70	188.21	41.63	-36.8	-37.5	26.0	0.00e+00	0	41	0	2896166912	44	4094
2026-01-30 02:36:09.71	188.34	41.36	-36.6	-37.3	26.2	0.00e+00	0	42	0	2901409792	44	3999
2026-01-30 02:36:10.72	188.46	41.10	-36.6	-37.3	26.3	0.00e+00	0	41	0	2906652672	44	3976
2026-01-30 02:36:11.73	188.58	40.83	-36.5	-37.2	26.4	0.00e+00	0	41	0	2912944128	44	3933
2026-01-30 02:36:12.74	188.70	40.57	-36.3	-37.0	26.5	0.00e+00	0	41	0	2919235584	44	3844
2026-01-30 02:36:13.75	188.82	40.31	-36.4	-37.1	26.4	0.00e+00	0	41	0	2924478464	44	3878
2026-01-30 02:36:14.75	188.94	40.05	-36.0	-36.6	26.8	0.00e+00	0	42	0	2929721344	44	3678
2026-01-30 02:36:15.76	189.05	39.79	-36.0	-36.6	26.7	0.00e+00	0	41	0	2936012800	43	3891
2026-01-30 02:36:16.77	189.16	39.54	-35.8	-36.4	26.9	0.00e+00	0	41	0	2941255680	43	3800
2026-01-30 02:36:17.78	189.27	39.28	-35.8	-36.4	26.8	0.00e+00	0	41	0	2947547136	43	3822
2026-01-30 02:36:18.78	189.38	39.04	-35.9	-36.5	26.8	0.00e+00	0	41	0	2952790016	43	3864
2026-01-30 02:36:19.79	189.49	38.79	-36.0	-36.7	26.7	0.00e+00	0	41	0	2958032896	43	3921
2026-01-30 02:36:20.80	189.60	38.54	-36.1	-36.8	26.6	0.00e+00	0	41	0	2964324352	43	3968
2026-01-30 02:36:21.81	189.70	38.29	-36.2	-36.9	26.5	0.00e+00	0	41	0	2969567232	43	4012
2026-01-30 02:36:22.81	189.80	38.05	-36.2	-36.9	26.4	0.00e+00	0	41	0	2974810112	43	4049
2026-01-30 02:36:23.82	189.91	37.80	-36.2	-36.9	26.4	0.00e+00	0	41	0	2981101568	43	4040
2026-01-30 02:36:24.83	190.01	37.56	-36.4	-37.0	26.3	0.00e+00	0	42	0	2987393024	43	4092
2026-01-30 02:36:25.84	190.11	37.32	-36.4	-37.0	26.3	0.00e+00	0	42	0	2992635904	43	4094
2026-01-30 02:36:26.85	190.20	37.08	-36.3	-37.0	26.4	0.00e+00	0	41	0	2997878784	43	4065
2026-01-30 02:36:27.86	190.30	36.85	-36.3	-37.0	26.4	0.00e+00	0	41	0	3004170240	43	4076
2026-01-30 02:36:28.87	190.39	36.61	-36.3	-37.0	26.3	0.00e+00	0	41	0	3009413120	43	4068
2026-01-30 02:36:29.88	190.49	36.38	-36.4	-37.1	26.3	0.00e+00	0	41	0	3014656000	43	4099
2026-01-30 02:36:30.88	190.58	36.15	-36.5	-37.2	26.2	0.00e+00	0	41	0	3020947456	43	4152
2026-01-30 02:36:31.88	190.67	35.92	-36.5	-37.2	26.2	0.00e+00	0	41	0	3026190336	43	4175
2026-01-30 02:36:32.89	190.76	35.69	-36.5	-37.2	26.2	0.00e+00	0	41	0	3032481792	43	4180
2026-01-30 02:36:33.90	190.85	35.46	-36.6	-37.3	26.1	0.00e+00	0	41	0	3037724672	43	4219
2026-01-30 02:36:34.91	190.94	35.24	-36.7	-37.4	26.0	0.00e+00	0	41	0	3042967552	43	4249
2026-01-30 02:36:35.91	191.02	35.01	-36.6	-37.3	26.1	0.00e+00	0	41	0	3049259008	43	4199
2026-01-30 02:36:36.92	191.11	34.79	-36.7	-37.4	26.0	0.00e+00	0	41	0	3054501888	43	4270
2026-01-30 02:36:37.93	191.19	34.57	-36.6	-37.3	26.1	0.00e+00	0	41	0	3059744768	43	4201
2026-01-30 02:36:38.93	191.27	34.35	-36.5	-37.2	26.1	0.00e+00	0	41	0	3066036224	43	4185
2026-01-30 02:36:39.94	191.35	34.13	-36.5	-37.2	26.1	0.00e+00	0	41	0	3072327680	43	4182
2026-01-30 02:36:40.95	191.44	33.92	-36.5	-37.2	26.1	0.00e+00	0	41	0	3077570560	43	4172
2026-01-30 02:36:41.96	191.52	33.70	-36.5	-37.2	26.2	0.00e+00	0	42	0	3082813440	43	4152
2026-01-30 02:36:42.97	191.59	33.49	-36.4	-37.1	26.2	0.00e+00	0	41	0	3089104896	43	4112
2026-01-30 02:36:43.97	191.67	33.28	-36.4	-37.1	26.2	0.00e+00	0	41	0	3094347776	43	4105
2026-01-30 02:36:44.98	191.75	33.07	-36.3	-37.0	26.3	0.00e+00	0	42	0	3099590656	43	4075
2026-01-30 02:36:45.99	191.83	32.86	-36.4	-37.1	26.3	0.00e+00	0	41	0	3105882112	43	4099
2026-01-30 02:36:46.99	191.90	32.65	-36.2	-36.9	26.4	0.00e+00	0	41	0	3111124992	43	4010
2026-01-30 02:36:48.00	191.97	32.44	-36.2	-36.9	26.3	0.00e+00	0	41	0	3117416448	43	4035
2026-01-30 02:36:49.01	192.05	32.24	-36.2	-36.9	26.3	0.00e+00	0	41	0	3122659328	43	4031
2026-01-30 02:36:50.02	192.12	32.03	-36.2	-36.9	26.4	0.00e+00	0	41	0	3127902208	43	4022
2026-01-30 02:36:51.03	192.19	31.83	-36.1	-36.8	26.4	0.00e+00	0	41	0	3134193664	43	3978
2026-01-30 02:36:52.04	192.26	31.63	-36.2	-36.9	26.4	0.00e+00	0	41	0	3140485120	43	4012
2026-01-30 02:36:53.05	192.33	31.43	-36.2	-36.9	26.4	0.00e+00	0	41	0	3145728000	43	4021
2026-01-30 02:36:54.05	192.40	31.23	-36.3	-37.0	26.3	0.00e+00	0	41	0	3150970880	43	4072
2026-01-30 02:36:55.05	192.47	31.04	-36.3	-37.0	26.3	0.00e+00	0	41	0	3157262336	43	4070
2026-01-30 02:36:56.06	192.54	30.84	-36.4	-37.1	26.2	0.00e+00	0	41	0	3162505216	43	4111
2026-01-30 02:36:57.07	192.60	30.65	-36.4	-37.0	26.2	0.00e+00	0	41	0	3167748096	43	4093
2026-01-30 02:36:58.08	192.67	30.45	-36.4	-37.1	26.2	0.00e+00	0	41	0	3174039552	43	4102
2026-01-30 02:36:59.09	192.74	30.26	-36.4	-37.1	26.2	0.00e+00	0	41	0	3179282432	43	4115
2026-01-30 02:37:00.10	192.80	30.07	-36.4	-37.1	26.1	0.00e+00	0	41	0	3184525312	43	4136
2026-01-30 02:37:01.11	192.86	29.88	-36.5	-37.2	26.1	0.00e+00	0	41	0	3190816768	43	4146
2026-01-30 02:37:02.12	192.93	29.69	-36.5	-37.2	26.1	0.00e+00	0	41	0	3196059648	43	4158
2026-01-30 02:37:03.13	192.99	29.50	-36.6	-37.3	26.0	0.00e+00	0	41	0	3202351104	43	4218
2026-01-30 02:37:04.14	193.05	29.32	-36.7	-37.4	25.9	0.00e+00	0	41	0	3207593984	43	4248
2026-01-30 02:37:05.15	193.11	29.13	-36.5	-37.2	26.0	0.00e+00	0	41	0	3213885440	43	4182
2026-01-30 02:37:06.16	193.17	28.95	-36.5	-37.2	26.0	0.00e+00	0	41	0	3219128320	43	4187
2026-01-30 02:37:07.17	193.23	28.76	-36.5	-37.1	26.1	0.00e+00	0	41	0	3225419776	43	4145
2026-01-30 02:37:08.18	193.29	28.58	-36.4	-37.1	26.1	0.00e+00	0	41	0	3230662656	43	4143
2026-01-30 02:37:09.19	193.35	28.40	-36.5	-37.2	26.1	0.00e+00	0	41	0	3235905536	43	4150
2026-01-30 02:37:10.20	193.41	28.22	-36.5	-37.2	26.0	0.00e+00	0	41	0	3242196992	43	4180
2026-01-30 02:37:11.21	193.47	28.04	-36.6	-37.3	26.0	0.00e+00	0	41	0	3247439872	43	4198
2026-01-30 02:37:12.21	193.52	27.87	-36.6	-37.3	26.0	0.00e+00	0	42	0	3252682752	43	4198
2026-01-30 02:37:13.22	193.58	27.69	-36.5	-37.2	26.0	0.00e+00	0	41	0	3258974208	43	4187
2026-01-30 02:37:14.23	193.64	27.52	-36.5	-37.2	26.0	0.00e+00	0	41	0	3264217088	43	4184
2026-01-30 02:37:15.23	193.69	27.34	-36.6	-37.3	26.0	0.00e+00	0	42	0	3270508544	43	4202
2026-01-30 02:37:16.24	193.75	27.17	-36.6	-37.3	25.9	0.00e+00	0	42	0	3275751424	43	4239
2026-01-30 02:37:17.25	193.80	27.00	-36.7	-37.4	25.9	0.00e+00	0	41	0	3282042880	43	4254
2026-01-30 02:37:18.25	193.85	26.83	-36.6	-37.3	26.0	0.00e+00	0	41	0	3287285760	43	4196
2026-01-30 02:37:19.26	193.91	26.66	-36.6	-37.3	25.9	0.00e+00	0	41	0	3292528640	43	4231
2026-01-30 02:37:20.27	193.96	26.49	-36.5	-37.2	26.0	0.00e+00	0	41	0	3298820096	43	4178
2026-01-30 02:37:21.28	194.01	26.33	-36.6	-37.3	25.9	0.00e+00	0	41	0	3304062976	43	4204
2026-01-30 02:37:22.28	194.06	26.16	-36.5	-37.2	26.0	0.00e+00	0	42	0	3310354432	43	4165
2026-01-30 02:37:23.29	194.11	25.99	-36.6	-37.3	25.9	0.00e+00	0	41	0	3315597312	43	4196
2026-01-30 02:37:24.30	194.16	25.83	-36.5	-37.2	26.0	0.00e+00	0	41	0	3320840192	43	4156
2026-01-30 02:37:25.31	194.21	25.67	-36.6	-37.2	26.0	0.00e+00	0	41	0	3327131648	43	4183
2026-01-30 02:37:26.32	194.26	25.50	-36.5	-37.1	26.0	0.00e+00	0	41	0	3332374528	43	4141
2026-01-30 02:37:27.33	194.31	25.34	-36.5	-37.1	26.0	0.00e+00	0	41	0	3337617408	43	4137
2026-01-30 02:37:28.33	194.36	25.18	-36.5	-37.2	25.9	0.00e+00	0	41	0	3343908864	43	4170
2026-01-30 02:37:29.34	194.41	25.02	-36.5	-37.2	26.0	0.00e+00	0	41	0	3350200320	43	4172
2026-01-30 02:37:30.35	194.46	24.86	-36.6	-37.2	25.9	0.00e+00	0	41	0	3355443200	43	4186
2026-01-30 02:37:31.36	194.50	24.71	-36.6	-37.3	25.9	0.00e+00	0	42	0	3360686080	43	4220
2026-01-30 02:37:32.37	194.55	24.55	-36.7	-37.4	25.9	0.00e+00	0	41	0	3366977536	44	4037
2026-01-30 02:37:33.37	194.60	24.39	-36.8	-37.5	25.8	0.00e+00	0	41	0	3372220416	44	4069
2026-01-30 02:37:34.38	194.64	24.24	-36.9	-37.6	25.7	0.00e+00	0	41	0	3377463296	44	4108
2026-01-30 02:37:35.39	194.69	24.09	-37.0	-37.7	25.7	0.00e+00	0	41	0	3383754752	44	4154
2026-01-30 02:37:36.40	194.73	23.93	-37.1	-37.8	25.5	0.00e+00	0	41	0	3388997632	44	4207
2026-01-30 02:37:37.40	194.78	23.78	-37.1	-37.8	25.5	0.00e+00	0	41	0	3395289088	44	4237
2026-01-30 02:37:38.41	194.82	23.63	-37.1	-37.8	25.5	0.00e+00	0	41	0	3400531968	44	4234
2026-01-30 02:37:39.41	194.87	23.48	-37.1	-37.9	25.5	0.00e+00	0	41	0	3405774848	44	4252
2026-01-30 02:37:40.42	194.91	23.33	-37.3	-38.0	25.4	0.00e+00	0	41	0	3412066304	45	4088
2026-01-30 02:37:41.43	194.95	23.18	-37.2	-38.0	25.4	0.00e+00	0	41	0	3417309184	45	4057
2026-01-30 02:37:42.44	195.00	23.03	-37.3	-38.1	25.3	0.00e+00	0	41	0	3423600640	45	4112
2026-01-30 02:37:43.44	195.04	22.89	-37.4	-38.1	25.2	0.00e+00	0	42	0	3428843520	45	4128
2026-01-30 02:37:44.45	195.08	22.74	-37.4	-38.1	25.3	0.00e+00	0	42	0	3435134976	45	4113
2026-01-30 02:37:45.45	195.12	22.60	-37.4	-38.1	25.2	0.00e+00	0	41	0	3440377856	45	4143
2026-01-30 02:37:46.46	195.16	22.45	-37.4	-38.2	25.2	0.00e+00	0	41	0	3445620736	45	4157
2026-01-30 02:37:47.46	195.20	22.31	-37.5	-38.2	25.1	0.00e+00	0	41	0	3451912192	45	4188
2026-01-30 02:37:48.47	195.24	22.17	-37.4	-38.2	25.2	0.00e+00	0	42	0	3457155072	45	4160
2026-01-30 02:37:49.47	195.28	22.02	-37.5	-38.2	25.1	0.00e+00	0	42	0	3462397952	45	4188
2026-01-30 02:37:50.48	195.32	21.88	-37.5	-38.2	25.1	0.00e+00	0	41	0	3468689408	45	4169
2026-01-30 02:37:51.49	195.36	21.74	-37.6	-38.3	25.0	0.00e+00	0	41	0	3473932288	45	4216
2026-01-30 02:37:52.50	195.40	21.60	-37.6	-38.3	25.0	0.00e+00	0	41	0	3480223744	45	4227
2026-01-30 02:37:53.50	195.44	21.46	-37.6	-38.3	25.1	0.00e+00	0	41	0	3485466624	45	4211
2026-01-30 02:37:54.51	195.48	21.32	-37.6	-38.3	25.0	0.00e+00	0	41	0	3490709504	45	4223
2026-01-30 02:37:55.51	195.52	21.19	-37.7	-38.4	24.9	0.00e+00	0	41	0	3497000960	45	4290
2026-01-30 02:37:56.53	195.56	21.05	-37.5	-38.3	25.0	0.00e+00	0	41	0	3502243840	45	4206
2026-01-30 02:37:57.53	195.60	20.91	-37.6	-38.4	24.9	0.00e+00	0	41	0	3508535296	45	4250
2026-01-30 02:37:58.55	195.63	20.78	-37.6	-38.3	25.0	0.00e+00	0	41	0	3513778176	46	4001
2026-01-30 02:37:59.55	195.67	20.64	-37.6	-38.3	25.0	0.00e+00	0	41	0	3520069632	46	3986
2026-01-30 02:38:00.56	195.71	20.51	-37.6	-38.4	25.0	0.00e+00	0	42	0	3525312512	46	4005
2026-01-30 02:38:01.57	195.74	20.38	-37.6	-38.3	25.0	0.00e+00	0	41	0	3530555392	46	3992
2026-01-30 02:38:02.58	195.78	20.24	-37.6	-38.3	25.0	0.00e+00	0	41	0	3536846848	46	3997
2026-01-30 02:38:03.59	195.82	20.11	-37.6	-38.4	25.0	0.00e+00	0	42	0	3542089728	46	4007
2026-01-30 02:38:04.60	195.85	19.98	-37.7	-38.4	24.9	0.00e+00	0	41	0	3547332608	46	4025
2026-01-30 02:38:05.60	195.89	19.85	-37.8	-38.5	24.8	0.00e+00	0	42	0	3553624064	46	4061
2026-01-30 02:38:06.61	195.92	19.72	-37.7	-38.4	24.9	0.00e+00	0	41	0	3558866944	46	4032
2026-01-30 02:38:07.62	195.96	19.59	-37.8	-38.5	24.8	0.00e+00	0	41	0	3565158400	46	4088
2026-01-30 02:38:08.63	195.99	19.46	-37.7	-38.4	24.9	0.00e+00	0	41	0	3570401280	46	4031
2026-01-30 02:38:09.64	196.03	19.33	-37.7	-38.4	24.9	0.00e+00	0	41	0	3576692736	46	4050
2026-01-30 02:38:10.64	196.06	19.21	-37.8	-38.5	24.8	0.00e+00	0	41	0	3581935616	46	4061
2026-01-30 02:38:11.65	196.10	19.08	-37.8	-38.5	24.8	0.00e+00	0	41	0	3588227072	46	4083
2026-01-30 02:38:12.66	196.13	18.95	-37.8	-38.6	24.7	0.00e+00	0	41	0	3593469952	46	4103
2026-01-30 02:38:13.67	196.16	18.83	-37.8	-38.6	24.8	0.00e+00	0	42	0	3598712832	46	4106
2026-01-30 02:38:14.67	196.20	18.70	-37.9	-38.6	24.7	0.00e+00	0	42	0	3605004288	46	4145
2026-01-30 02:38:15.68	196.23	18.58	-37.9	-38.6	24.7	0.00e+00	0	41	0	3610247168	46	4141
2026-01-30 02:38:16.69	196.26	18.46	-37.9	-38.6	24.7	0.00e+00	0	41	0	3615490048	46	4131
2026-01-30 02:38:17.69	196.30	18.33	-38.0	-38.7	24.6	0.00e+00	0	41	0	3621781504	46	4189
2026-01-30 02:38:18.70	196.33	18.21	-38.0	-38.7	24.6	0.00e+00	0	41	0	3627024384	46	4184
2026-01-30 02:38:19.71	196.36	18.09	-38.0	-38.7	24.6	0.00e+00	0	41	0	3632267264	46	4180
2026-01-30 02:38:20.72	196.39	17.97	-38.1	-38.9	24.5	0.00e+00	0	42	0	3638558720	46	4249
2026-01-30 02:38:21.73	196.42	17.85	-38.1	-38.8	24.5	0.00e+00	0	41	0	3644850176	46	4233
2026-01-30 02:38:22.74	196.46	17.73	-38.2	-39.0	24.4	0.00e+00	0	42	0	3650093056	46	4295
2026-01-30 02:38:23.75	196.49	17.61	-38.2	-38.9	24.4	0.00e+00	0	41	0	3655335936	46	4287
2026-01-30 02:38:24.75	196.52	17.49	-38.4	-39.1	24.2	0.00e+00	0	41	0	3661627392	47	4130
2026-01-30 02:38:25.76	196.55	17.37	-38.4	-39.1	24.2	0.00e+00	0	41	0	3666870272	47	4143
2026-01-30 02:38:26.77	196.58	17.25	-38.3	-39.1	24.2	0.00e+00	0	41	0	3673161728	47	4114
2026-01-30 02:38:27.78	196.61	17.14	-38.4	-39.2	24.2	0.00e+00	0	41	0	3678404608	47	4155
2026-01-30 02:38:28.79	196.64	17.02	-38.5	-39.2	24.1	0.00e+00	0	41	0	3683647488	47	4180
2026-01-30 02:38:29.79	196.67	16.90	-38.6	-39.3	24.0	0.00e+00	0	41	0	3689938944	47	4219
2026-01-30 02:38:30.80	196.70	16.79	-38.6	-39.4	24.0	0.00e+00	0	41	0	3695181824	47	4260
2026-01-30 02:38:31.81	196.73	16.67	-39.1	-39.8	24.1	0.00e+00	0	42	0	3700424704	48	4218
