passes_logs/2026/01/30/R3.2S_Murmansk/R3.2S_Murmansk__20260130_114608_AQUA_rec.log

#Pass ID: 20260130_114608_AQUA
#Satellite: AQUA
#Configuration: AQUA
#almurnet v.1.7.20251203
#Start time: 2026-01-30 11:46:10

#Version: 2.2.20231116
#Station: R3.2S_Murmansk
#Location: 33.079688 lon 68.888172 lat
#TLE: 1 27424U 02022A   26029.54575153  .00001738  00000+0  35736-3 0  9994
#TLE: 2 27424  98.4104 356.2197 0001804  61.7823  56.0643 14.61874165263019

#Time	Az	El	Level	Level2	SNR	BER	BlckErr	Temp	State	Recorded	gain1	gain2
2026-01-30 11:46:10.71	163.91	2.13	-55.6	-73.4	3.8	7.48e-01	0	39	0	0	82	28550
2026-01-30 11:46:11.72	163.93	2.20	-55.6	-73.5	3.8	7.44e-01	0	39	104	0	81	30505
2026-01-30 11:46:12.73	163.95	2.27	-55.8	-73.6	3.8	7.43e-01	0	39	104	0	82	29067
2026-01-30 11:46:13.74	163.96	2.33	-55.8	-73.6	3.8	7.48e-01	0	39	104	0	82	29146
2026-01-30 11:46:14.74	163.98	2.40	-55.7	-73.5	3.8	7.48e-01	0	39	104	0	82	28964
2026-01-30 11:46:15.75	164.00	2.47	-55.7	-73.5	3.8	7.44e-01	0	39	104	0	82	28839
2026-01-30 11:46:16.75	164.02	2.54	-55.6	-73.4	3.8	7.45e-01	0	39	104	0	82	28629
2026-01-30 11:46:17.76	164.03	2.61	-55.6	-73.4	3.8	7.48e-01	0	39	104	0	82	28505
2026-01-30 11:46:18.77	164.05	2.67	-55.6	-73.4	3.8	7.46e-01	0	39	104	0	82	28434
2026-01-30 11:46:19.78	164.07	2.74	-55.5	-73.3	3.8	7.44e-01	0	39	104	0	82	28236
2026-01-30 11:46:20.79	164.09	2.81	-55.5	-73.3	3.8	7.46e-01	0	39	104	0	82	28042
2026-01-30 11:46:21.80	164.11	2.88	-55.4	-73.2	3.8	7.48e-01	0	39	104	0	82	27980
2026-01-30 11:46:22.80	164.13	2.95	-55.4	-73.2	3.8	7.46e-01	0	40	104	0	82	27766
2026-01-30 11:46:23.81	164.14	3.02	-55.3	-73.1	3.8	7.46e-01	0	39	104	0	82	27566
2026-01-30 11:46:24.81	164.16	3.09	-55.2	-73.0	3.8	7.46e-01	0	39	104	0	82	27383
2026-01-30 11:46:25.82	164.18	3.16	-55.2	-73.0	3.8	7.43e-01	0	39	104	0	82	27138
2026-01-30 11:46:26.83	164.20	3.23	-55.1	-72.9	3.8	7.45e-01	0	39	104	0	82	26958
2026-01-30 11:46:27.83	164.22	3.30	-55.0	-72.8	3.8	7.43e-01	0	39	104	0	82	26667
2026-01-30 11:46:28.84	164.24	3.37	-54.9	-72.8	3.8	7.42e-01	0	39	104	0	81	28069
2026-01-30 11:46:29.84	164.26	3.44	-54.8	-72.6	3.8	7.48e-01	0	40	104	0	81	27474
2026-01-30 11:46:30.85	164.28	3.51	-54.7	-72.5	3.8	7.43e-01	0	39	104	0	81	27232
2026-01-30 11:46:31.85	164.29	3.58	-54.5	-72.1	3.8	7.46e-01	0	40	104	0	81	26155
2026-01-30 11:46:32.86	164.31	3.65	-54.2	-71.8	3.8	7.46e-01	0	40	104	0	80	26489
2026-01-30 11:46:33.86	164.33	3.72	-53.8	-69.2	3.9	7.44e-01	0	40	104	0	79	20795
2026-01-30 11:46:34.87	164.35	3.79	-53.6	-67.5	4.3	7.31e-01	0	40	104	0	79	17215
2026-01-30 11:46:35.88	164.37	3.86	-53.5	-65.8	5.1	7.04e-01	4	40	0	0	79	14074
2026-01-30 11:46:36.89	164.39	3.94	-53.3	-63.5	6.8	6.65e-01	184	40	0	1048576	78	11439
2026-01-30 11:46:37.89	164.41	4.01	-53.0	-61.1	9.1	6.30e-01	0	40	0	2621440	78	8713
2026-01-30 11:46:38.90	164.43	4.08	-52.5	-59.0	11.3	6.15e-01	0	40	0	4718592	77	7225
2026-01-30 11:46:39.90	164.45	4.15	-52.0	-57.3	13.1	6.08e-01	0	40	0	6291456	76	6292
2026-01-30 11:46:40.91	164.47	4.23	-51.3	-55.5	14.8	6.06e-01	0	40	0	8388608	74	5783
2026-01-30 11:46:41.92	164.49	4.30	-50.3	-53.7	16.8	6.07e-01	0	40	0	10485760	72	5260
2026-01-30 11:46:42.92	164.51	4.37	-49.9	-53.0	17.6	6.06e-01	0	40	0	12058624	71	5107
2026-01-30 11:46:43.93	164.53	4.44	-49.3	-52.0	18.6	6.06e-01	0	40	0	14155776	70	4821
2026-01-30 11:46:44.94	164.55	4.52	-49.0	-51.5	19.0	6.07e-01	0	40	0	15728640	70	4592
2026-01-30 11:46:45.94	164.57	4.59	-48.6	-50.9	19.7	6.07e-01	0	40	0	17825792	69	4539
2026-01-30 11:46:46.95	164.59	4.67	-48.5	-50.8	19.7	6.07e-01	0	40	0	19922944	69	4475
2026-01-30 11:46:47.96	164.61	4.74	-48.7	-51.0	19.6	6.06e-01	0	40	0	21495808	69	4584
2026-01-30 11:46:48.97	164.63	4.82	-48.8	-51.2	19.4	6.09e-01	0	40	0	23592960	69	4703
2026-01-30 11:46:49.97	164.65	4.89	-49.4	-52.1	18.5	6.06e-01	0	40	0	25165824	69	5195
2026-01-30 11:46:50.98	164.67	4.96	-49.9	-52.9	17.6	6.04e-01	0	40	0	27262976	70	5397
2026-01-30 11:46:51.98	164.69	5.04	-50.4	-53.7	16.9	6.07e-01	0	40	0	29360128	71	5587
2026-01-30 11:46:52.99	164.72	5.12	-50.9	-54.7	15.8	6.08e-01	0	40	0	30932992	72	5923
2026-01-30 11:46:54.00	164.74	5.19	-53.6	-69.6	3.8	7.46e-01	0	40	104	32505856	77	24414
2026-01-30 11:46:55.01	164.76	5.27	-46.5	-48.1	22.0	6.07e-01	0	40	0	33030144	65	4134
2026-01-30 11:46:56.01	164.78	5.34	-47.3	-49.2	21.7	6.08e-01	0	40	0	35127296	65	4684
2026-01-30 11:46:57.01	164.80	5.42	-52.7	-60.2	11.1	6.23e-01	0	40	0	37224448	75	9331
2026-01-30 11:46:58.02	164.82	5.50	-45.4	-46.8	23.8	6.05e-01	0	40	0	39321600	62	4212
2026-01-30 11:46:59.02	164.84	5.57	-45.5	-46.9	23.7	6.05e-01	0	40	0	40894464	62	4259
2026-01-30 11:47:00.03	164.87	5.65	-45.3	-46.7	23.9	6.07e-01	0	40	0	42991616	62	4178
2026-01-30 11:47:01.04	164.89	5.73	-45.4	-46.9	23.8	6.05e-01	0	40	0	44564480	62	4248
2026-01-30 11:47:02.04	164.91	5.80	-45.4	-46.8	23.9	6.04e-01	0	40	0	46661632	62	4207
2026-01-30 11:47:03.05	164.93	5.88	-45.3	-46.7	24.0	6.08e-01	0	40	0	48234496	62	4150
2026-01-30 11:47:04.06	164.95	5.96	-45.3	-46.8	23.9	6.07e-01	0	40	0	50331648	62	4199
2026-01-30 11:47:05.06	164.98	6.04	-45.3	-46.7	24.0	6.06e-01	0	40	0	52428800	62	4173
2026-01-30 11:47:06.06	165.00	6.12	-45.1	-46.4	24.3	6.06e-01	0	40	0	54001664	62	4035
2026-01-30 11:47:07.07	165.02	6.20	-45.1	-46.4	24.3	6.08e-01	0	40	0	56098816	62	4045
2026-01-30 11:47:08.08	165.04	6.28	-44.9	-46.2	24.5	6.06e-01	0	40	0	57671680	61	4192
2026-01-30 11:47:09.08	165.07	6.35	-45.0	-46.3	24.4	6.05e-01	0	40	0	59768832	61	4220
2026-01-30 11:47:10.09	165.09	6.43	-45.0	-46.4	24.3	6.06e-01	0	40	0	61341696	61	4267
2026-01-30 11:47:11.10	165.11	6.51	-45.0	-46.3	24.4	6.06e-01	0	40	0	63438848	61	4236
2026-01-30 11:47:12.10	165.13	6.59	-45.0	-46.4	24.4	6.06e-01	0	40	0	65536000	61	4269
2026-01-30 11:47:13.11	165.16	6.67	-44.9	-46.3	24.4	6.06e-01	0	40	0	67108864	61	4210
2026-01-30 11:47:14.12	165.18	6.76	-44.9	-46.2	24.6	6.05e-01	0	40	0	69206016	61	4175
2026-01-30 11:47:15.12	165.20	6.84	-44.7	-46.0	24.8	6.06e-01	0	40	0	71303168	61	4086
2026-01-30 11:47:16.13	165.23	6.92	-44.8	-46.1	24.7	6.04e-01	0	40	0	72876032	61	4121
2026-01-30 11:47:17.13	165.25	7.00	-44.6	-45.9	24.9	6.05e-01	0	40	0	74973184	61	4023
2026-01-30 11:47:18.14	165.28	7.08	-44.7	-46.0	24.8	6.08e-01	0	40	0	76546048	61	4083
2026-01-30 11:47:19.14	165.30	7.16	-44.8	-46.2	24.7	6.06e-01	0	40	0	78643200	61	4155
2026-01-30 11:47:20.14	165.32	7.25	-44.9	-46.2	24.7	6.06e-01	0	40	0	80740352	61	4170
2026-01-30 11:47:21.14	165.35	7.33	-44.6	-45.8	25.0	6.06e-01	0	40	0	82313216	61	4000
2026-01-30 11:47:22.14	165.37	7.41	-44.6	-45.8	25.0	6.06e-01	0	40	0	84410368	61	4003
2026-01-30 11:47:23.15	165.40	7.49	-44.6	-45.9	25.0	6.05e-01	0	40	0	85983232	61	4015
2026-01-30 11:47:24.15	165.42	7.58	-44.6	-45.9	25.0	6.05e-01	0	40	0	88080384	61	4005
2026-01-30 11:47:25.15	165.44	7.66	-44.7	-46.0	24.9	6.03e-01	0	40	0	89653248	61	4063
2026-01-30 11:47:26.16	165.47	7.74	-44.4	-45.7	25.1	6.07e-01	0	40	0	91750400	60	4161
2026-01-30 11:47:27.16	165.49	7.83	-44.6	-45.9	24.9	6.04e-01	0	40	0	93847552	60	4286
2026-01-30 11:47:28.16	165.52	7.91	-44.5	-45.8	25.0	6.07e-01	0	40	0	95420416	60	4234
2026-01-30 11:47:29.17	165.54	8.00	-44.5	-45.8	25.1	6.04e-01	0	40	0	97517568	60	4199
2026-01-30 11:47:30.18	165.57	8.08	-44.6	-45.9	25.0	6.06e-01	0	40	0	99090432	60	4281
2026-01-30 11:47:31.19	165.59	8.17	-44.6	-45.9	25.0	6.07e-01	0	40	0	101187584	60	4280
2026-01-30 11:47:32.20	165.62	8.26	-44.6	-45.9	25.0	6.06e-01	0	40	0	102760448	60	4277
2026-01-30 11:47:33.21	165.65	8.34	-44.8	-46.1	24.9	6.05e-01	0	40	0	104857600	60	4365
2026-01-30 11:47:34.21	165.67	8.43	-44.5	-45.7	25.2	6.06e-01	0	40	0	106954752	60	4185
2026-01-30 11:47:35.21	165.70	8.52	-44.5	-45.8	25.1	6.07e-01	0	40	0	108527616	60	4217
2026-01-30 11:47:36.21	165.72	8.60	-44.5	-45.8	25.2	6.06e-01	0	40	0	110624768	60	4195
2026-01-30 11:47:37.22	165.75	8.69	-44.5	-45.8	25.1	6.07e-01	0	40	0	112721920	60	4211
2026-01-30 11:47:38.23	165.78	8.78	-44.5	-45.8	25.1	6.03e-01	0	40	0	114294784	60	4221
2026-01-30 11:47:39.23	165.80	8.87	-44.4	-45.6	25.3	6.05e-01	0	40	0	116391936	60	4126
2026-01-30 11:47:40.23	165.83	8.96	-44.4	-45.7	25.3	6.05e-01	0	40	0	117964800	60	4163
2026-01-30 11:47:41.24	165.86	9.05	-44.4	-45.7	25.2	6.06e-01	0	40	0	120061952	60	4171
2026-01-30 11:47:42.24	165.88	9.14	-44.4	-45.6	25.3	6.06e-01	0	40	0	122159104	60	4129
2026-01-30 11:47:43.24	165.91	9.23	-44.5	-45.8	25.2	6.07e-01	0	40	0	123731968	60	4210
2026-01-30 11:47:44.24	165.94	9.32	-44.3	-45.6	25.4	6.04e-01	0	40	0	125829120	60	4110
2026-01-30 11:47:45.24	165.97	9.41	-44.4	-45.7	25.3	6.05e-01	0	40	0	127401984	60	4169
2026-01-30 11:47:46.25	165.99	9.50	-44.4	-45.7	25.3	6.05e-01	0	40	0	129499136	60	4152
2026-01-30 11:47:47.26	166.02	9.59	-44.3	-45.5	25.4	6.08e-01	0	40	0	131072000	60	4096
2026-01-30 11:47:48.26	166.05	9.68	-44.2	-45.5	25.5	6.05e-01	0	40	0	133169152	60	4058
2026-01-30 11:47:49.27	166.08	9.77	-44.2	-45.5	25.5	6.05e-01	0	40	0	135266304	60	4061
2026-01-30 11:47:50.27	166.11	9.86	-44.2	-45.4	25.6	6.06e-01	0	40	0	136839168	60	4045
2026-01-30 11:47:51.28	166.13	9.96	-44.1	-45.3	25.7	6.06e-01	0	40	0	138936320	60	3982
2026-01-30 11:47:52.29	166.16	10.05	-44.1	-45.3	25.6	6.07e-01	0	40	0	140509184	60	3992
2026-01-30 11:47:53.29	166.19	10.14	-44.0	-45.2	25.9	6.07e-01	0	40	0	142606336	60	3925
2026-01-30 11:47:54.29	166.22	10.24	-44.1	-45.3	25.6	6.03e-01	0	40	0	144703488	59	4227
2026-01-30 11:47:55.30	166.25	10.33	-44.1	-45.3	25.6	6.05e-01	0	40	0	146276352	59	4218
2026-01-30 11:47:56.31	166.28	10.43	-44.1	-45.3	25.7	6.06e-01	0	40	0	148373504	59	4223
2026-01-30 11:47:57.31	166.31	10.52	-44.2	-45.4	25.6	6.05e-01	0	40	0	149946368	59	4245
2026-01-30 11:47:58.32	166.34	10.62	-44.0	-45.2	25.7	6.06e-01	0	40	0	152043520	59	4182
2026-01-30 11:47:59.32	166.37	10.71	-43.9	-45.1	25.9	6.03e-01	0	40	0	154140672	59	4101
2026-01-30 11:48:00.33	166.40	10.81	-44.0	-45.2	25.7	6.08e-01	0	40	0	155713536	59	4158
2026-01-30 11:48:01.33	166.43	10.91	-43.9	-45.1	25.8	6.06e-01	0	40	0	157810688	59	4127
2026-01-30 11:48:02.34	166.46	11.01	-43.9	-45.1	25.9	6.07e-01	0	40	0	159383552	59	4107
2026-01-30 11:48:03.35	166.49	11.10	-43.9	-45.1	25.8	6.05e-01	0	40	0	161480704	59	4114
2026-01-30 11:48:04.35	166.52	11.20	-43.7	-44.9	26.0	6.05e-01	0	40	0	163577856	59	4024
2026-01-30 11:48:05.35	166.55	11.30	-43.8	-45.0	26.0	6.05e-01	0	40	0	165150720	59	4056
2026-01-30 11:48:06.36	166.58	11.40	-43.8	-45.0	25.9	6.05e-01	0	41	0	167247872	59	4074
2026-01-30 11:48:07.37	166.62	11.50	-43.7	-44.9	26.1	6.04e-01	0	40	0	168820736	59	4018
2026-01-30 11:48:08.38	166.65	11.60	-43.8	-45.0	26.0	6.06e-01	0	41	0	170917888	59	4060
2026-01-30 11:48:09.38	166.68	11.70	-43.9	-45.0	25.9	6.05e-01	0	41	0	173015040	59	4088
2026-01-30 11:48:10.39	166.71	11.80	-43.8	-44.9	26.1	6.05e-01	0	40	0	174587904	59	4032
2026-01-30 11:48:11.39	166.74	11.90	-43.8	-45.0	26.0	6.08e-01	0	40	0	176685056	59	4063
2026-01-30 11:48:12.40	166.78	12.00	-43.8	-44.9	26.0	6.02e-01	0	41	0	178257920	59	4046
2026-01-30 11:48:13.40	166.81	12.10	-43.8	-44.9	26.1	6.05e-01	0	40	0	180355072	59	4035
2026-01-30 11:48:14.40	166.84	12.21	-43.8	-45.0	26.0	6.07e-01	0	41	0	181927936	59	4082
2026-01-30 11:48:15.41	166.87	12.31	-43.8	-44.9	26.0	6.06e-01	0	40	0	184025088	59	4050
2026-01-30 11:48:16.42	166.91	12.41	-43.8	-44.9	26.1	6.05e-01	0	40	0	186122240	59	4048
2026-01-30 11:48:17.42	166.94	12.52	-43.8	-45.0	26.1	6.05e-01	0	41	0	187695104	59	4063
2026-01-30 11:48:18.43	166.98	12.62	-43.9	-45.0	26.0	6.04e-01	0	40	0	189792256	59	4084
2026-01-30 11:48:19.44	167.01	12.73	-43.8	-45.0	26.0	6.06e-01	0	40	0	191889408	59	4078
2026-01-30 11:48:20.44	167.04	12.83	-43.7	-44.9	26.1	6.05e-01	0	40	0	193462272	59	4026
2026-01-30 11:48:21.45	167.08	12.94	-43.8	-44.9	26.1	6.06e-01	0	40	0	195559424	59	4038
2026-01-30 11:48:22.46	167.11	13.05	-43.8	-44.9	26.0	6.07e-01	0	40	0	197132288	59	4043
2026-01-30 11:48:23.47	167.15	13.15	-43.7	-44.8	26.2	6.05e-01	0	41	0	199229440	59	3999
2026-01-30 11:48:24.47	167.18	13.26	-43.7	-44.8	26.2	6.04e-01	0	41	0	201326592	59	3992
2026-01-30 11:48:25.47	167.22	13.37	-43.7	-44.9	26.2	6.05e-01	0	40	0	202899456	59	4010
2026-01-30 11:48:26.48	167.26	13.48	-43.7	-44.8	26.3	6.05e-01	0	40	0	204996608	59	3989
2026-01-30 11:48:27.48	167.29	13.59	-43.7	-44.8	26.2	6.04e-01	0	40	0	206569472	59	3995
2026-01-30 11:48:28.49	167.33	13.70	-43.6	-44.8	26.3	6.05e-01	0	41	0	208666624	59	3973
2026-01-30 11:48:29.49	167.36	13.81	-43.7	-44.8	26.2	6.02e-01	0	40	0	210239488	59	3994
2026-01-30 11:48:30.49	167.40	13.92	-43.5	-44.6	26.4	6.06e-01	0	40	0	212336640	59	3904
2026-01-30 11:48:31.50	167.44	14.03	-43.5	-44.6	26.4	6.06e-01	0	40	0	214433792	58	4133
2026-01-30 11:48:32.50	167.48	14.14	-43.5	-44.6	26.4	6.06e-01	0	40	0	216006656	58	4123
2026-01-30 11:48:33.51	167.51	14.25	-43.4	-44.6	26.5	6.06e-01	0	40	0	218103808	58	4101
2026-01-30 11:48:34.51	167.55	14.37	-43.5	-44.7	26.4	6.04e-01	0	40	0	220200960	58	4147
2026-01-30 11:48:35.52	167.59	14.48	-43.5	-44.7	26.4	6.06e-01	0	40	0	221773824	58	4146
2026-01-30 11:48:36.53	167.63	14.59	-43.4	-44.6	26.4	6.04e-01	0	40	0	223870976	58	4109
2026-01-30 11:48:37.54	167.67	14.71	-43.6	-44.7	26.4	6.06e-01	0	40	0	225443840	58	4188
2026-01-30 11:48:38.54	167.71	14.82	-43.5	-44.7	26.4	6.05e-01	0	40	0	227540992	58	4151
2026-01-30 11:48:39.55	167.75	14.94	-43.5	-44.7	26.4	6.06e-01	0	41	0	229638144	58	4158
2026-01-30 11:48:40.55	167.78	15.06	-43.6	-44.7	26.3	6.02e-01	0	40	0	231211008	58	4188
2026-01-30 11:48:41.56	167.82	15.17	-43.5	-44.6	26.5	6.06e-01	0	40	0	233308160	58	4126
2026-01-30 11:48:42.57	167.87	15.29	-43.5	-44.6	26.5	6.05e-01	0	40	0	234881024	58	4130
2026-01-30 11:48:43.58	167.91	15.41	-43.5	-44.6	26.5	6.05e-01	0	40	0	236978176	58	4139
2026-01-30 11:48:44.59	167.95	15.53	-43.5	-44.6	26.5	6.04e-01	0	40	0	238551040	58	4128
2026-01-30 11:48:45.59	167.99	15.65	-43.3	-44.5	26.6	6.05e-01	0	41	0	240648192	58	4057
2026-01-30 11:48:46.59	168.03	15.77	-43.5	-44.6	26.5	6.05e-01	0	41	0	242745344	58	4140
2026-01-30 11:48:47.60	168.07	15.89	-43.3	-44.4	26.6	6.06e-01	0	41	0	244318208	58	4041
2026-01-30 11:48:48.61	168.11	16.01	-43.4	-44.5	26.6	6.04e-01	0	40	0	246415360	58	4076
2026-01-30 11:48:49.61	168.16	16.14	-43.3	-44.4	26.7	6.05e-01	0	40	0	247988224	58	4037
2026-01-30 11:48:50.62	168.20	16.26	-43.4	-44.5	26.6	6.04e-01	0	40	0	250085376	58	4075
2026-01-30 11:48:51.62	168.24	16.38	-43.4	-44.5	26.6	6.05e-01	0	41	0	252182528	58	4075
2026-01-30 11:48:52.63	168.29	16.51	-43.3	-44.4	26.7	6.08e-01	0	40	0	253755392	58	4012
2026-01-30 11:48:53.63	168.33	16.63	-43.2	-44.3	26.7	6.05e-01	0	40	0	255852544	58	3993
2026-01-30 11:48:54.64	168.37	16.76	-43.2	-44.3	26.7	6.05e-01	0	40	0	257949696	58	4003
2026-01-30 11:48:55.65	168.42	16.89	-43.3	-44.4	26.7	6.05e-01	0	41	0	259522560	58	4023
2026-01-30 11:48:56.66	168.46	17.01	-43.2	-44.3	26.8	6.07e-01	0	40	0	261619712	58	3994
2026-01-30 11:48:57.66	168.51	17.14	-43.3	-44.4	26.7	6.03e-01	0	40	0	263192576	58	4025
2026-01-30 11:48:58.66	168.55	17.27	-43.3	-44.4	26.8	6.06e-01	0	40	0	265289728	58	4007
2026-01-30 11:48:59.67	168.60	17.40	-43.2	-44.3	26.8	6.05e-01	0	40	0	266862592	58	3991
2026-01-30 11:49:00.68	168.65	17.53	-43.4	-44.5	26.6	6.06e-01	0	40	0	268959744	58	4073
2026-01-30 11:49:01.68	168.69	17.66	-43.3	-44.4	26.7	6.06e-01	0	40	0	271056896	58	4027
2026-01-30 11:49:02.69	168.74	17.79	-43.3	-44.4	26.7	6.06e-01	0	40	0	272629760	58	4033
2026-01-30 11:49:03.69	168.79	17.92	-43.3	-44.4	26.7	6.06e-01	0	41	0	274726912	58	4049
2026-01-30 11:49:04.69	168.84	18.06	-43.4	-44.5	26.7	6.04e-01	0	41	0	276299776	58	4064
2026-01-30 11:49:05.69	168.88	18.19	-43.3	-44.4	26.7	6.04e-01	0	41	0	278396928	58	4010
2026-01-30 11:49:06.70	168.93	18.32	-43.3	-44.4	26.8	6.05e-01	0	41	0	279969792	58	4023
2026-01-30 11:49:07.70	168.98	18.46	-43.3	-44.4	26.7	6.04e-01	0	41	0	282066944	58	4051
2026-01-30 11:49:08.71	169.03	18.60	-43.2	-44.3	26.8	6.03e-01	0	41	0	284164096	58	3991
2026-01-30 11:49:09.72	169.08	18.73	-43.4	-44.5	26.7	6.07e-01	0	40	0	286261248	58	4054
2026-01-30 11:49:10.72	169.13	18.87	-43.2	-44.3	26.8	6.05e-01	0	40	0	287834112	58	3999
2026-01-30 11:49:11.73	169.19	19.01	-43.2	-44.3	26.8	6.08e-01	0	40	0	289931264	58	3996
2026-01-30 11:49:12.74	169.24	19.15	-43.3	-44.4	26.7	6.04e-01	0	40	0	291504128	58	4049
2026-01-30 11:49:13.74	169.29	19.29	-43.2	-44.3	26.8	6.04e-01	0	40	0	293601280	58	3990
2026-01-30 11:49:14.75	169.34	19.43	-43.2	-44.3	26.8	6.05e-01	0	40	0	295174144	58	3978
2026-01-30 11:49:15.75	169.39	19.57	-43.1	-44.2	26.9	6.05e-01	0	40	0	297271296	58	3955
2026-01-30 11:49:16.76	169.45	19.72	-43.1	-44.2	26.9	6.05e-01	0	40	0	299368448	58	3948
2026-01-30 11:49:17.76	169.50	19.86	-43.2	-44.3	26.9	6.05e-01	0	40	0	300941312	58	3967
2026-01-30 11:49:18.77	169.56	20.01	-43.2	-44.3	26.9	6.05e-01	0	40	0	303038464	58	3995
2026-01-30 11:49:19.77	169.61	20.15	-43.2	-44.3	26.9	6.05e-01	0	40	0	304611328	58	3985
2026-01-30 11:49:20.78	169.67	20.30	-43.3	-44.4	26.8	6.05e-01	0	40	0	306708480	58	4027
2026-01-30 11:49:21.78	169.72	20.45	-43.3	-44.4	26.8	6.06e-01	0	40	0	308281344	58	4044
2026-01-30 11:49:22.78	169.78	20.59	-43.3	-44.4	26.8	6.07e-01	0	41	0	310378496	58	4032
2026-01-30 11:49:23.79	169.84	20.74	-43.4	-44.5	26.7	6.04e-01	0	41	0	312475648	58	4088
2026-01-30 11:49:24.79	169.89	20.89	-43.3	-44.4	26.7	6.05e-01	0	40	0	314048512	58	4050
2026-01-30 11:49:25.80	169.95	21.05	-43.3	-44.4	26.8	6.05e-01	0	41	0	316145664	58	4013
2026-01-30 11:49:26.80	170.01	21.20	-43.3	-44.4	26.8	6.06e-01	0	41	0	317718528	58	4042
2026-01-30 11:49:27.81	170.07	21.35	-43.4	-44.5	26.8	6.04e-01	0	41	0	319815680	58	4063
2026-01-30 11:49:28.81	170.13	21.50	-43.5	-44.6	26.7	6.04e-01	0	41	0	321388544	58	4108
2026-01-30 11:49:29.82	170.19	21.66	-43.6	-44.7	26.6	6.07e-01	0	40	0	323485696	58	4159
2026-01-30 11:49:30.83	170.25	21.82	-43.5	-44.6	26.6	6.07e-01	0	40	0	325582848	58	4127
2026-01-30 11:49:31.83	170.31	21.97	-43.5	-44.6	26.6	6.05e-01	0	40	0	327680000	58	4134
2026-01-30 11:49:32.83	170.37	22.13	-43.7	-44.8	26.5	6.08e-01	0	41	0	329252864	58	4208
2026-01-30 11:49:33.84	170.44	22.29	-43.6	-44.8	26.5	6.06e-01	0	40	0	331350016	58	4199
2026-01-30 11:49:34.85	170.50	22.45	-43.6	-44.7	26.5	6.04e-01	0	40	0	332922880	58	4185
2026-01-30 11:49:35.85	170.57	22.61	-43.6	-44.8	26.5	6.04e-01	0	40	0	335020032	58	4204
2026-01-30 11:49:36.86	170.63	22.78	-43.6	-44.7	26.6	6.05e-01	0	41	0	336592896	58	4176
2026-01-30 11:49:37.87	170.70	22.94	-43.6	-44.7	26.6	6.05e-01	0	40	0	338690048	58	4161
2026-01-30 11:49:38.88	170.76	23.11	-43.6	-44.7	26.6	6.04e-01	0	40	0	340787200	58	4161
2026-01-30 11:49:39.89	170.83	23.27	-43.6	-44.7	26.6	6.05e-01	0	41	0	342360064	58	4188
2026-01-30 11:49:40.89	170.90	23.44	-43.6	-44.7	26.6	6.06e-01	0	40	0	344457216	58	4157
2026-01-30 11:49:41.90	170.97	23.61	-43.6	-44.8	26.5	6.05e-01	0	40	0	346030080	58	4196
2026-01-30 11:49:42.91	171.04	23.78	-43.5	-44.6	26.7	6.05e-01	0	41	0	348127232	58	4114
2026-01-30 11:49:43.91	171.10	23.95	-43.5	-44.6	26.7	6.06e-01	0	40	0	349700096	58	4133
2026-01-30 11:49:44.92	171.18	24.12	-43.4	-44.5	26.7	6.05e-01	0	40	0	351797248	58	4089
2026-01-30 11:49:45.92	171.25	24.29	-43.4	-44.5	26.7	6.06e-01	0	40	0	353894400	58	4090
2026-01-30 11:49:46.93	171.32	24.47	-43.4	-44.5	26.8	6.05e-01	0	41	0	355991552	58	4082
2026-01-30 11:49:47.94	171.39	24.65	-43.5	-44.6	26.7	6.05e-01	0	41	0	357564416	58	4132
2026-01-30 11:49:48.94	171.47	24.82	-43.6	-44.8	26.5	6.05e-01	0	41	0	359661568	58	4199
2026-01-30 11:49:49.95	171.54	25.00	-43.7	-44.8	26.4	6.05e-01	0	40	0	361234432	58	4238
2026-01-30 11:49:50.95	171.62	25.18	-43.7	-44.9	26.4	6.05e-01	0	41	0	363331584	58	4243
2026-01-30 11:49:51.96	171.69	25.36	-43.6	-44.8	26.5	6.06e-01	0	41	0	364904448	58	4202
2026-01-30 11:49:52.96	171.77	25.54	-43.6	-44.7	26.5	6.05e-01	0	40	0	367001600	58	4179
2026-01-30 11:49:53.97	171.85	25.72	-43.6	-44.7	26.5	6.05e-01	0	40	0	369098752	58	4191
2026-01-30 11:49:54.98	171.93	25.91	-43.6	-44.7	26.5	6.05e-01	0	40	0	370671616	58	4187
2026-01-30 11:49:55.99	172.01	26.10	-43.8	-44.9	26.4	6.05e-01	0	41	0	372768768	58	4289
2026-01-30 11:49:56.99	172.09	26.28	-43.8	-44.9	26.4	6.07e-01	0	41	0	374341632	58	4276
2026-01-30 11:49:58.00	172.17	26.47	-43.8	-44.9	26.4	6.06e-01	0	40	0	376438784	58	4277
2026-01-30 11:49:59.01	172.25	26.66	-43.5	-44.6	26.6	6.08e-01	0	40	0	378011648	58	4120
2026-01-30 11:50:00.01	172.33	26.85	-43.3	-44.4	26.9	6.04e-01	0	40	0	380108800	58	4044
2026-01-30 11:50:01.02	172.42	27.05	-43.2	-44.3	27.0	6.04e-01	0	41	0	382205952	58	3987
2026-01-30 11:50:02.02	172.50	27.24	-43.1	-44.2	27.1	6.04e-01	0	41	0	384303104	58	3935
2026-01-30 11:50:03.03	172.59	27.44	-43.2	-44.3	27.0	6.04e-01	0	40	0	385875968	58	3963
2026-01-30 11:50:04.04	172.68	27.63	-43.3	-44.4	26.9	6.04e-01	0	40	0	387973120	58	4014
2026-01-30 11:50:05.04	172.77	27.83	-43.4	-44.5	26.8	6.04e-01	0	41	0	389545984	58	4054
2026-01-30 11:50:06.05	172.86	28.03	-43.4	-44.5	26.8	6.07e-01	0	41	0	391643136	58	4080
2026-01-30 11:50:07.06	172.95	28.23	-43.4	-44.5	26.8	6.07e-01	0	41	0	393216000	58	4066
2026-01-30 11:50:08.07	173.04	28.44	-43.4	-44.5	26.8	6.06e-01	0	41	0	395313152	58	4067
2026-01-30 11:50:09.08	173.14	28.64	-43.4	-44.4	26.9	6.05e-01	0	41	0	397410304	58	4048
2026-01-30 11:50:10.08	173.23	28.85	-43.1	-44.2	27.1	6.06e-01	0	40	0	398983168	58	3916
2026-01-30 11:50:11.09	173.33	29.06	-43.0	-44.1	27.2	6.06e-01	0	40	0	401080320	57	4115
2026-01-30 11:50:12.10	173.42	29.27	-43.3	-44.4	27.0	6.05e-01	0	40	0	402653184	57	4246
2026-01-30 11:50:13.10	173.52	29.48	-43.1	-44.2	27.1	6.05e-01	0	41	0	404750336	57	4186
2026-01-30 11:50:14.11	173.62	29.69	-43.0	-44.1	27.1	6.06e-01	0	41	0	406323200	57	4122
2026-01-30 11:50:15.11	173.72	29.90	-42.9	-44.0	27.3	6.05e-01	0	40	0	408420352	57	4070
2026-01-30 11:50:16.12	173.82	30.12	-42.9	-44.0	27.3	6.06e-01	0	41	0	410517504	57	4075
2026-01-30 11:50:17.12	173.93	30.33	-43.0	-44.0	27.2	6.06e-01	0	41	0	412614656	57	4084
2026-01-30 11:50:18.13	174.03	30.55	-42.9	-44.0	27.3	6.06e-01	0	41	0	414187520	57	4079
2026-01-30 11:50:19.13	174.14	30.77	-43.0	-44.1	27.2	6.03e-01	0	41	0	416284672	57	4106
2026-01-30 11:50:20.14	174.25	31.00	-42.9	-43.9	27.4	6.06e-01	0	41	0	417857536	57	4041
2026-01-30 11:50:21.14	174.36	31.22	-42.9	-44.0	27.3	6.04e-01	0	41	0	419954688	57	4080
2026-01-30 11:50:22.14	174.47	31.44	-43.6	-54.2	3.9	7.39e-01	0	41	104	420478976	57	13238
2026-01-30 11:50:23.15	174.58	31.67	-43.7	-54.3	3.9	7.42e-01	0	41	104	420478976	57	13348
2026-01-30 11:50:24.15	174.69	31.90	-43.6	-54.3	3.9	7.43e-01	0	41	104	420478976	57	13274
2026-01-30 11:50:25.16	174.81	32.13	-43.9	-54.5	4.0	7.43e-01	0	41	104	420478976	58	12891
2026-01-30 11:50:26.17	174.93	32.37	-54.2	-69.8	3.8	7.44e-01	0	41	104	420478976	79	22423
2026-01-30 11:50:27.17	175.04	32.60	-50.8	-62.8	3.9	7.43e-01	0	41	104	420478976	73	14056
2026-01-30 11:50:28.18	175.16	32.84	-46.5	-57.3	3.9	7.41e-01	0	41	104	420478976	63	13378
2026-01-30 11:50:29.18	175.29	33.07	-43.8	-54.4	4.0	7.42e-01	0	41	104	420478976	59	12036
2026-01-30 11:50:30.19	175.41	33.32	-43.9	-54.5	3.9	7.45e-01	0	41	104	420478976	59	12095
2026-01-30 11:50:31.20	175.54	33.56	-43.8	-54.3	3.7	7.60e-01	0	41	104	420478976	59	11910
2026-01-30 11:50:32.20	175.66	33.80	-47.3	-58.2	4.3	7.25e-01	0	41	104	420478976	66	12396
2026-01-30 11:50:33.21	175.80	34.05	-44.4	-55.0	3.8	7.45e-01	0	40	104	420478976	60	12179
2026-01-30 11:50:34.21	175.93	34.29	-53.8	-68.8	3.9	7.39e-01	0	41	104	420478976	79	19912
2026-01-30 11:50:35.22	176.06	34.55	-49.9	-61.7	3.8	7.45e-01	0	41	104	420478976	72	13245
2026-01-30 11:50:36.22	176.20	34.80	-46.6	-57.4	3.7	7.58e-01	0	41	104	420478976	64	12772
2026-01-30 11:50:37.22	176.33	35.05	-44.4	-55.0	3.6	7.60e-01	0	41	104	420478976	60	12228
2026-01-30 11:50:38.23	176.47	35.31	-44.4	-55.1	3.8	7.49e-01	0	41	104	420478976	60	12368
2026-01-30 11:50:39.24	176.62	35.57	-44.2	-54.9	3.8	7.45e-01	0	41	104	420478976	60	12018
2026-01-30 11:50:40.24	176.76	35.82	-45.8	-56.6	3.8	7.44e-01	0	41	104	420478976	62	13086
2026-01-30 11:50:41.24	176.91	36.08	-45.4	-56.2	3.8	7.43e-01	0	41	104	420478976	62	12476
2026-01-30 11:50:42.25	177.06	36.35	-54.1	-69.8	3.9	7.43e-01	0	41	104	420478976	79	22426
2026-01-30 11:50:43.26	177.21	36.62	-51.0	-63.4	3.8	7.43e-01	0	41	104	420478976	74	14292
2026-01-30 11:50:44.27	177.36	36.89	-46.7	-57.6	3.8	7.40e-01	0	41	104	420478976	64	13094
2026-01-30 11:50:45.27	177.52	37.16	-45.0	-55.7	3.8	7.45e-01	0	41	104	420478976	61	12385
2026-01-30 11:50:46.28	177.68	37.43	-45.0	-55.8	3.8	7.45e-01	0	41	104	420478976	61	12632
2026-01-30 11:50:47.29	177.84	37.70	-45.3	-56.2	3.8	7.43e-01	0	41	104	420478976	61	13255
2026-01-30 11:50:48.29	178.01	37.98	-46.7	-57.7	3.8	7.43e-01	0	41	104	420478976	64	13238
2026-01-30 11:50:49.30	178.17	38.26	-46.1	-57.0	3.8	7.43e-01	0	41	104	420478976	63	12836
2026-01-30 11:50:50.31	178.35	38.54	-54.2	-70.0	3.9	7.41e-01	0	41	104	420478976	79	22908
2026-01-30 11:50:51.32	178.52	38.83	-49.2	-60.7	3.9	7.44e-01	0	41	104	420478976	70	13207
2026-01-30 11:50:52.32	178.69	39.11	-46.6	-57.7	3.8	7.44e-01	0	41	104	420478976	64	13134
2026-01-30 11:50:53.32	178.87	39.40	-45.5	-56.4	3.8	7.40e-01	0	41	104	420478976	63	11987
2026-01-30 11:50:54.33	179.06	39.69	-45.3	-56.0	3.8	7.43e-01	0	41	104	420478976	62	12225
2026-01-30 11:50:55.33	179.24	39.98	-45.4	-56.2	3.8	7.47e-01	0	41	104	420478976	62	12503
2026-01-30 11:50:56.34	179.43	40.28	-47.8	-59.0	3.8	7.43e-01	0	41	104	420478976	67	12829
2026-01-30 11:50:57.35	179.63	40.57	-47.1	-58.0	3.8	7.45e-01	0	41	104	420478976	64	13712
2026-01-30 11:50:58.36	179.82	40.87	-53.6	-68.3	3.9	7.41e-01	0	41	104	420478976	79	18902
2026-01-30 11:50:59.37	180.02	41.18	-49.3	-60.6	3.9	7.42e-01	0	41	104	420478976	70	12986
2026-01-30 11:51:00.37	180.23	41.48	-45.5	-56.3	3.8	7.47e-01	0	41	104	420478976	62	12598
2026-01-30 11:51:01.38	180.44	41.79	-44.3	-55.0	3.8	7.47e-01	0	41	104	420478976	60	12113
2026-01-30 11:51:02.39	180.65	42.10	-44.1	-54.9	3.8	7.45e-01	0	41	104	420478976	60	12035
2026-01-30 11:51:03.39	180.86	42.41	-44.1	-54.9	3.8	7.46e-01	0	41	104	420478976	60	11971
2026-01-30 11:51:04.39	181.08	42.72	-44.7	-55.4	3.8	7.46e-01	0	41	104	420478976	60	12732
2026-01-30 11:51:05.40	181.31	43.03	-46.3	-57.5	3.8	7.46e-01	0	41	104	420478976	63	13680
2026-01-30 11:51:06.40	181.54	43.35	-53.3	-67.3	3.9	7.43e-01	0	41	104	420478976	78	17703
2026-01-30 11:51:07.41	181.77	43.67	-48.3	-59.8	3.9	7.43e-01	0	41	104	420478976	69	12563
2026-01-30 11:51:08.41	182.01	43.99	-44.2	-54.9	3.8	7.47e-01	0	41	104	420478976	59	12796
2026-01-30 11:51:09.42	182.25	44.32	-43.6	-54.3	3.8	7.47e-01	0	41	104	420478976	59	11859
2026-01-30 11:51:10.42	182.50	44.64	-43.3	-53.9	3.8	7.44e-01	0	41	104	420478976	58	12019
2026-01-30 11:51:11.43	182.75	44.97	-44.0	-54.7	3.8	7.43e-01	0	41	104	420478976	58	13120
2026-01-30 11:51:12.44	183.01	45.30	-46.1	-57.0	3.8	7.48e-01	0	41	104	420478976	63	12918
2026-01-30 11:51:13.44	183.27	45.64	-48.0	-59.3	3.8	7.43e-01	0	41	104	420478976	66	14096
2026-01-30 11:51:14.45	183.54	45.97	-53.0	-66.5	3.8	7.46e-01	0	41	104	420478976	78	16291
2026-01-30 11:51:15.45	183.82	46.31	-46.6	-57.5	3.9	7.45e-01	0	41	104	420478976	65	12186
2026-01-30 11:51:16.45	184.10	46.65	-43.6	-54.3	3.8	7.41e-01	0	41	104	420478976	58	12538
2026-01-30 11:51:17.46	184.39	46.99	-43.2	-53.7	3.8	7.43e-01	0	41	104	420478976	58	11741
2026-01-30 11:51:18.47	184.68	47.34	-43.3	-53.8	3.8	7.49e-01	0	41	104	420478976	58	11939
2026-01-30 11:51:19.47	184.98	47.68	-44.4	-55.2	3.8	7.44e-01	0	41	104	420478976	59	13222
2026-01-30 11:51:20.48	185.29	48.03	-47.1	-58.0	3.8	7.48e-01	0	41	104	420478976	65	12876
2026-01-30 11:51:21.49	185.60	48.38	-48.5	-59.9	3.8	7.46e-01	0	41	104	420478976	67	14218
2026-01-30 11:51:22.49	185.92	48.73	-53.6	-67.9	3.9	7.46e-01	0	41	104	420478976	79	17984
2026-01-30 11:51:23.50	186.25	49.09	-47.5	-58.6	3.9	7.42e-01	0	41	104	420478976	67	12337
2026-01-30 11:51:24.51	186.59	49.45	-43.4	-54.0	3.8	7.46e-01	0	41	104	420478976	58	12227
2026-01-30 11:51:25.52	186.94	49.81	-43.1	-53.8	3.8	7.43e-01	0	41	104	420478976	58	11899
2026-01-30 11:51:26.52	187.29	50.17	-43.2	-53.8	3.8	7.45e-01	0	41	104	420478976	58	11880
2026-01-30 11:51:27.53	187.65	50.53	-44.5	-55.2	3.8	7.45e-01	0	41	104	420478976	59	13238
2026-01-30 11:51:28.53	188.02	50.90	-47.0	-57.9	3.9	7.45e-01	0	41	104	420478976	64	13449
2026-01-30 11:51:29.54	188.40	51.26	-51.9	-64.6	3.8	7.46e-01	0	41	104	420478976	74	16454
2026-01-30 11:51:30.55	188.79	51.63	-54.2	-69.3	3.8	7.46e-01	0	41	104	420478976	79	21211
2026-01-30 11:51:31.56	189.19	52.00	-45.1	-55.7	3.8	7.44e-01	0	41	104	420478976	62	11800
2026-01-30 11:51:32.57	189.60	52.38	-42.8	-53.4	3.8	7.43e-01	0	41	104	420478976	57	12010
2026-01-30 11:51:33.57	190.02	52.75	-42.8	-53.4	3.8	7.45e-01	0	41	104	420478976	57	12022
2026-01-30 11:51:34.58	190.45	53.12	-42.7	-53.2	3.8	7.42e-01	0	41	104	420478976	57	11754
2026-01-30 11:51:35.59	190.89	53.50	-43.6	-54.2	3.8	7.46e-01	0	41	104	420478976	57	13179
2026-01-30 11:51:36.59	191.34	53.87	-46.9	-57.8	3.8	7.45e-01	0	41	104	420478976	64	13410
2026-01-30 11:51:37.60	191.81	54.25	-52.7	-65.6	3.8	7.47e-01	0	41	104	420478976	75	17474
2026-01-30 11:51:38.61	192.28	54.63	-54.5	-70.0	3.8	7.47e-01	0	41	104	420478976	79	22901
2026-01-30 11:51:39.62	192.77	55.01	-44.3	-54.8	3.8	7.46e-01	0	41	104	420478976	60	11840
2026-01-30 11:51:40.63	193.28	55.39	-43.1	-53.7	3.8	7.45e-01	0	41	104	420478976	58	11690
2026-01-30 11:51:41.63	193.79	55.77	-43.3	-53.9	3.8	7.44e-01	0	41	104	420478976	58	11969
2026-01-30 11:51:42.64	194.33	56.15	-43.7	-54.3	3.8	7.45e-01	0	41	104	420478976	58	12651
2026-01-30 11:51:43.65	194.87	56.54	-44.0	-54.7	3.8	7.44e-01	0	41	104	420478976	58	13164
2026-01-30 11:51:44.65	195.43	56.92	-46.0	-56.9	3.8	7.44e-01	0	41	104	420478976	62	13553
2026-01-30 11:51:45.66	196.01	57.30	-54.7	-70.8	3.7	7.49e-01	0	41	104	420478976	79	24991
2026-01-30 11:51:46.67	196.60	57.68	-54.6	-70.5	3.8	7.45e-01	0	41	104	420478976	80	22802
2026-01-30 11:51:47.68	197.22	58.07	-45.3	-56.1	3.8	7.46e-01	0	41	104	420478976	62	12319
2026-01-30 11:51:48.68	197.84	58.44	-45.1	-55.8	3.8	7.45e-01	0	41	104	420478976	61	12556
2026-01-30 11:51:49.69	198.49	58.83	-45.1	-55.9	3.8	7.45e-01	0	41	104	420478976	61	12764
2026-01-30 11:51:50.70	199.15	59.21	-45.1	-55.8	3.8	7.44e-01	0	41	104	420478976	61	12633
2026-01-30 11:51:51.71	199.84	59.59	-47.3	-58.4	3.8	7.44e-01	0	41	104	420478976	65	13566
2026-01-30 11:51:52.71	200.54	59.96	-47.9	-59.0	3.8	7.42e-01	0	41	104	420478976	66	13643
2026-01-30 11:51:53.72	201.27	60.34	-54.9	-71.7	3.8	7.48e-01	0	41	104	420478976	80	26247
2026-01-30 11:51:54.73	202.02	60.71	-54.9	-71.7	3.8	7.47e-01	0	41	104	420478976	80	26252
2026-01-30 11:51:55.73	202.78	61.08	-46.8	-57.9	3.9	7.45e-01	0	41	104	420478976	65	12666
2026-01-30 11:51:56.74	203.57	61.45	-46.8	-57.6	3.8	7.44e-01	0	41	104	420478976	64	13028
2026-01-30 11:51:57.74	204.39	61.81	-46.6	-57.7	3.8	7.43e-01	0	41	104	420478976	64	13140
2026-01-30 11:51:58.75	205.23	62.18	-46.5	-57.4	3.8	7.47e-01	0	41	104	420478976	64	12709
2026-01-30 11:51:59.76	206.10	62.54	-49.0	-60.1	3.8	7.43e-01	0	41	104	420478976	68	13812
2026-01-30 11:52:00.75	206.97	62.89	-49.2	-60.7	3.8	7.47e-01	0	41	104	420478976	68	14877
2026-01-30 11:52:01.76	207.89	63.24	-55.1	-72.1	3.8	7.42e-01	0	41	104	420478976	80	27534
2026-01-30 11:52:02.76	208.83	63.59	-55.0	-71.8	3.8	7.47e-01	0	41	104	420478976	80	26743
2026-01-30 11:52:03.77	209.81	63.93	-48.8	-60.0	3.8	7.46e-01	0	41	104	420478976	69	12880
2026-01-30 11:52:04.77	210.80	64.27	-49.2	-60.6	3.8	7.46e-01	0	41	104	420478976	68	14703
2026-01-30 11:52:05.78	211.84	64.60	-48.3	-59.4	3.8	7.46e-01	0	41	104	420478976	68	12766
2026-01-30 11:52:06.79	212.90	64.93	-48.3	-59.7	3.8	7.45e-01	0	41	104	420478976	68	13121
2026-01-30 11:52:07.80	214.00	65.25	-52.5	-65.3	3.8	7.47e-01	0	41	104	420478976	75	16875
2026-01-30 11:52:08.80	215.12	65.56	-54.4	-69.7	3.8	7.46e-01	0	41	104	420478976	79	22053
2026-01-30 11:52:09.81	216.28	65.87	-55.2	-72.3	3.8	7.45e-01	0	41	104	420478976	80	28184
2026-01-30 11:52:10.82	217.47	66.16	-55.2	-72.7	3.8	7.42e-01	0	41	104	420478976	81	27891
2026-01-30 11:52:11.83	218.70	66.45	-49.5	-61.1	3.8	7.46e-01	0	41	104	420478976	71	13061
2026-01-30 11:52:12.83	219.94	66.73	-48.9	-60.1	3.8	7.46e-01	0	41	104	420478976	69	12978
2026-01-30 11:52:13.83	221.22	67.00	-48.4	-59.6	3.8	7.43e-01	0	41	104	420478976	68	13063
2026-01-30 11:52:14.84	222.54	67.26	-48.7	-60.2	3.8	7.44e-01	0	41	104	420478976	68	14044
2026-01-30 11:52:15.85	223.90	67.52	-50.2	-61.7	3.8	7.45e-01	0	41	104	420478976	70	14790
2026-01-30 11:52:16.85	225.28	67.75	-51.4	-63.5	3.8	7.44e-01	0	41	104	420478976	73	15389
2026-01-30 11:52:17.86	226.70	67.98	-55.3	-72.8	3.8	7.44e-01	0	41	104	420478976	81	28275
2026-01-30 11:52:18.87	228.15	68.20	-55.2	-72.2	3.8	7.47e-01	0	41	104	420478976	81	26314
2026-01-30 11:52:19.87	229.62	68.40	-48.8	-60.4	3.8	7.46e-01	0	41	104	420478976	69	13510
2026-01-30 11:52:20.88	231.13	68.59	-48.6	-59.5	3.8	7.40e-01	0	41	104	420478976	68	12932
2026-01-30 11:52:21.89	232.68	68.77	-48.7	-60.1	3.8	7.42e-01	0	41	104	420478976	68	13866
2026-01-30 11:52:22.89	234.23	68.93	-48.4	-59.3	3.8	7.46e-01	0	41	104	420478976	68	12529
2026-01-30 11:52:23.90	235.82	69.08	-54.0	-68.3	3.8	7.45e-01	0	41	104	420478976	78	19995
2026-01-30 11:52:24.91	237.44	69.22	-54.8	-70.9	3.8	7.43e-01	0	41	104	420478976	80	24070
2026-01-30 11:52:25.92	239.08	69.34	-55.3	-72.7	3.8	7.48e-01	0	41	104	420478976	81	27715
2026-01-30 11:52:26.93	240.74	69.44	-55.3	-72.7	3.8	7.44e-01	0	41	104	420478976	81	27857
2026-01-30 11:52:27.93	242.39	69.53	-48.5	-60.1	3.8	7.46e-01	0	41	104	420478976	69	13030
2026-01-30 11:52:28.94	244.08	69.60	-47.8	-58.5	3.8	7.44e-01	0	41	104	420478976	67	12118
2026-01-30 11:52:29.94	245.76	69.65	-47.6	-58.9	3.8	7.47e-01	0	41	104	420478976	67	12726
2026-01-30 11:52:30.95	247.47	69.69	-47.8	-58.9	3.8	7.44e-01	0	41	104	420478976	67	12800
2026-01-30 11:52:31.95	249.17	69.71	-51.3	-63.2	3.8	7.43e-01	0	41	104	420478976	73	14813
2026-01-30 11:52:32.96	250.88	69.72	-50.9	-63.0	3.8	7.42e-01	0	41	104	420478976	72	15291
2026-01-30 11:52:33.97	252.60	69.71	-55.4	-73.0	3.8	7.43e-01	0	41	104	420478976	81	28823
2026-01-30 11:52:34.97	254.29	69.68	-55.2	-72.1	3.8	7.47e-01	0	41	104	420478976	81	25976
2026-01-30 11:52:35.98	256.00	69.64	-48.7	-59.9	3.8	7.41e-01	0	41	104	420478976	69	12782
2026-01-30 11:52:36.99	257.69	69.57	-48.8	-60.2	3.9	7.44e-01	0	41	104	420478976	69	13244
2026-01-30 11:52:37.99	259.36	69.50	-48.1	-59.0	3.8	7.46e-01	0	41	104	420478976	68	12181
2026-01-30 11:52:38.99	261.01	69.41	-48.4	-59.5	3.9	7.46e-01	0	41	104	420478976	68	12942
2026-01-30 11:52:40.00	262.66	69.30	-55.3	-72.5	3.9	7.44e-01	0	41	104	420478976	81	27292
2026-01-30 11:52:41.01	264.29	69.17	-54.5	-69.7	3.9	7.47e-01	0	41	104	420478976	81	19837
2026-01-30 11:52:42.02	265.90	69.03	-55.4	-72.7	3.8	7.47e-01	0	41	104	420478976	81	27832
2026-01-30 11:52:43.02	267.46	68.88	-55.4	-72.6	3.8	7.45e-01	0	41	104	420478976	81	27530
2026-01-30 11:52:44.03	269.02	68.71	-47.5	-58.5	3.9	7.42e-01	0	41	104	420478976	67	12111
2026-01-30 11:52:45.04	270.55	68.53	-47.6	-58.4	3.8	7.43e-01	0	41	104	420478976	66	12800
2026-01-30 11:52:46.04	272.04	68.33	-47.0	-57.9	3.8	7.43e-01	0	41	104	420478976	66	12080
2026-01-30 11:52:47.05	273.51	68.12	-47.0	-57.9	3.8	7.43e-01	0	41	104	420478976	66	12012
2026-01-30 11:52:48.05	274.94	67.90	-50.8	-62.8	3.8	7.42e-01	0	41	104	420478976	72	14883
2026-01-30 11:52:49.06	276.35	67.67	-51.2	-63.1	3.8	7.42e-01	0	41	104	420478976	72	15462
2026-01-30 11:52:50.07	277.73	67.43	-55.4	-73.0	3.8	7.48e-01	0	41	104	420478976	81	28816
2026-01-30 11:52:51.07	279.06	67.18	-55.3	-72.4	3.8	7.49e-01	0	41	104	420478976	81	26860
2026-01-30 11:52:52.08	280.37	66.91	-47.5	-58.1	3.8	7.42e-01	0	41	104	420478976	67	11653
2026-01-30 11:52:53.09	281.65	66.64	-47.7	-58.7	3.8	7.45e-01	0	41	104	420478976	66	13219
2026-01-30 11:52:54.10	282.89	66.35	-47.3	-58.3	3.8	7.46e-01	0	41	104	420478976	66	12579
2026-01-30 11:52:55.11	284.10	66.06	-47.2	-58.2	3.8	7.44e-01	0	41	104	420478976	66	12408
2026-01-30 11:52:56.12	285.28	65.76	-52.8	-65.7	3.9	7.45e-01	0	41	104	420478976	77	15672
2026-01-30 11:52:57.13	286.43	65.45	-53.5	-67.1	3.9	7.46e-01	0	41	104	420478976	78	17289
2026-01-30 11:52:58.13	287.53	65.14	-55.3	-72.3	3.8	7.43e-01	0	41	104	420478976	81	26696
2026-01-30 11:52:59.13	288.61	64.82	-55.3	-72.2	3.8	7.49e-01	0	41	104	420478976	81	26238
2026-01-30 11:53:00.14	289.66	64.49	-46.4	-57.0	3.8	7.47e-01	0	41	104	420478976	64	12198
2026-01-30 11:53:01.14	290.67	64.16	-46.2	-57.1	3.8	7.42e-01	0	41	104	420478976	64	12244
2026-01-30 11:53:02.15	291.67	63.82	-45.9	-56.8	3.8	7.44e-01	0	41	104	420478976	63	12583
2026-01-30 11:53:03.15	292.62	63.47	-46.0	-57.1	3.8	7.47e-01	0	41	104	420478976	63	13071
2026-01-30 11:53:04.16	293.56	63.12	-48.1	-59.2	3.9	7.45e-01	0	41	104	420478976	68	12475
2026-01-30 11:53:05.17	294.47	62.77	-50.4	-61.8	3.8	7.45e-01	0	41	104	420478976	71	14142
2026-01-30 11:53:06.17	295.35	62.42	-55.3	-72.3	3.8	7.42e-01	0	41	104	420478976	81	26643
2026-01-30 11:53:07.18	296.20	62.05	-55.1	-71.5	3.8	7.44e-01	0	41	104	420478976	81	24376
2026-01-30 11:53:08.19	297.04	61.69	-45.5	-56.2	3.9	7.44e-01	0	41	104	420478976	63	11756
2026-01-30 11:53:09.20	297.84	61.32	-45.7	-56.2	3.8	7.42e-01	0	41	104	420478976	63	11808
2026-01-30 11:53:10.21	298.63	60.95	-45.8	-56.7	3.8	7.45e-01	0	41	104	420478976	63	12389
2026-01-30 11:53:11.22	299.39	60.58	-46.3	-57.2	3.8	7.43e-01	0	41	104	420478976	63	13176
2026-01-30 11:53:12.23	300.13	60.21	-50.8	-62.4	3.9	7.45e-01	0	41	104	420478976	73	13536
2026-01-30 11:53:13.23	300.84	59.83	-52.1	-64.5	3.8	7.43e-01	0	41	104	420478976	75	15245
2026-01-30 11:53:14.24	301.54	59.46	-55.2	-71.5	3.8	7.44e-01	0	41	104	420478976	81	24313
2026-01-30 11:53:15.25	302.22	59.08	-55.4	-72.5	3.8	7.46e-01	0	41	104	420478976	81	27159
2026-01-30 11:53:16.25	302.87	58.70	-45.1	-55.9	3.9	7.45e-01	0	41	104	420478976	62	11982
2026-01-30 11:53:17.26	303.51	58.32	-45.0	-55.5	3.9	7.43e-01	0	41	104	420478976	62	11468
2026-01-30 11:53:18.27	304.13	57.94	-44.8	-55.4	3.8	7.44e-01	0	41	104	420478976	61	12041
2026-01-30 11:53:19.28	304.74	57.56	-44.7	-55.4	3.9	7.44e-01	0	41	104	420478976	61	12014
2026-01-30 11:53:20.29	305.33	57.17	-46.3	-57.2	3.9	7.45e-01	0	41	104	420478976	64	12411
2026-01-30 11:53:21.30	305.90	56.79	-50.0	-61.8	3.9	7.46e-01	0	41	104	420478976	70	14901
2026-01-30 11:53:22.31	306.46	56.41	-55.2	-71.4	3.8	7.46e-01	0	41	104	420478976	81	23931
2026-01-30 11:53:23.31	306.99	56.03	-54.3	-68.7	3.9	7.43e-01	0	41	104	420478976	80	18652
2026-01-30 11:53:24.32	307.52	55.65	-44.0	-54.4	3.8	7.42e-01	0	41	104	420478976	59	12069
2026-01-30 11:53:25.32	308.02	55.27	-44.2	-55.0	3.8	7.44e-01	0	41	104	420478976	59	12871
2026-01-30 11:53:26.33	308.52	54.89	-44.0	-54.8	3.8	7.42e-01	0	41	104	420478976	59	12528
2026-01-30 11:53:27.33	309.01	54.52	-43.7	-54.4	3.8	7.45e-01	0	41	104	420478976	59	12052
2026-01-30 11:53:28.34	309.48	54.14	-44.9	-55.5	3.8	7.44e-01	0	41	104	420478976	61	12184
2026-01-30 11:53:29.35	309.94	53.76	-50.8	-62.4	3.8	7.47e-01	0	41	104	420478976	71	15185
2026-01-30 11:53:30.35	310.38	53.39	-55.0	-71.0	3.8	7.41e-01	0	41	104	420478976	80	24216
2026-01-30 11:53:31.36	310.82	53.01	-52.0	-64.6	3.9	7.42e-01	0	41	104	420478976	76	14590
2026-01-30 11:53:32.36	311.24	52.64	-43.7	-54.3	3.8	7.42e-01	0	41	104	420478976	59	11884
2026-01-30 11:53:33.37	311.66	52.27	-43.8	-54.6	3.8	7.44e-01	0	41	104	420478976	59	12315
2026-01-30 11:53:34.37	312.06	51.90	-43.7	-54.4	3.8	7.48e-01	0	41	104	420478976	59	12057
2026-01-30 11:53:35.38	312.46	51.54	-44.1	-54.7	3.8	7.44e-01	0	41	104	420478976	59	12399
2026-01-30 11:53:36.45	312.87	51.15	-45.4	-56.1	3.8	7.45e-01	0	41	104	420478976	61	13067
2026-01-30 11:53:37.31	313.19	50.83	-49.1	-60.5	3.9	7.46e-01	0	41	104	420478976	68	14377
2026-01-30 11:53:38.45	313.60	50.42	-54.9	-70.5	3.8	7.47e-01	0	41	104	420478976	80	22967
2026-01-30 11:53:39.31	313.91	50.11	-54.3	-69.2	3.8	7.44e-01	0	41	104	420478976	80	19623
2026-01-30 11:53:40.46	314.31	49.70	-44.4	-55.4	3.8	7.43e-01	0	41	104	420478976	60	12737
2026-01-30 11:53:41.32	314.60	49.40	-44.6	-55.3	3.8	7.43e-01	0	41	104	420478976	60	12595
2026-01-30 11:53:42.48	314.99	48.99	-44.7	-55.3	3.8	7.48e-01	0	41	104	420478976	60	12654
2026-01-30 11:53:43.34	315.27	48.69	-44.5	-55.1	3.8	7.46e-01	0	41	104	420478976	60	12292
2026-01-30 11:53:44.49	315.63	48.29	-46.2	-56.9	3.8	7.45e-01	0	41	104	420478976	62	13515
2026-01-30 11:53:45.35	315.90	47.99	-50.7	-62.5	3.8	7.43e-01	0	41	104	420478976	71	15284
2026-01-30 11:53:46.51	316.25	47.59	-54.9	-70.7	3.8	7.44e-01	0	41	104	420478976	80	23380
2026-01-30 11:53:47.37	316.50	47.29	-52.6	-65.5	3.9	7.42e-01	0	41	104	420478976	77	15280
2026-01-30 11:53:48.52	316.84	46.90	-44.5	-55.1	3.8	7.44e-01	0	41	104	420478976	61	11665
2026-01-30 11:53:49.39	317.08	46.61	-44.7	-55.3	3.8	7.43e-01	0	41	104	420478976	61	11820
2026-01-30 11:53:50.53	317.40	46.22	-44.5	-55.2	3.8	7.45e-01	0	41	104	420478976	61	11702
2026-01-30 11:53:51.40	317.64	45.93	-44.4	-55.2	3.8	7.44e-01	0	41	104	420478976	60	12406
2026-01-30 11:53:52.55	317.94	45.55	-47.7	-58.6	3.8	7.40e-01	0	41	104	420478976	65	13815
2026-01-30 11:53:53.41	318.17	45.27	-52.8	-65.5	3.8	7.47e-01	0	41	104	420478976	75	17225
2026-01-30 11:53:54.57	318.46	44.89	-55.1	-71.7	3.8	7.49e-01	0	41	104	420478976	80	26188
2026-01-30 11:53:55.43	318.68	44.61	-48.7	-59.8	3.9	7.45e-01	0	41	104	420478976	69	12664
2026-01-30 11:53:56.59	318.96	44.23	-45.0	-55.7	3.8	7.43e-01	0	41	104	420478976	62	11684
2026-01-30 11:53:57.45	319.17	43.96	-45.4	-56.2	3.8	7.45e-01	0	41	104	420478976	61	13189
2026-01-30 11:53:58.61	319.44	43.59	-45.2	-56.0	3.8	7.46e-01	0	41	104	420478976	61	12935
2026-01-30 11:53:59.47	319.64	43.32	-44.7	-55.6	3.8	7.44e-01	0	41	104	420478976	61	12241
2026-01-30 11:54:00.62	319.90	42.95	-47.8	-59.1	3.8	7.47e-01	0	41	104	420478976	66	13772
2026-01-30 11:54:01.49	320.09	42.68	-52.2	-64.5	3.8	7.46e-01	0	41	104	420478976	74	16248
2026-01-30 11:54:02.64	320.34	42.33	-54.9	-70.8	3.8	7.46e-01	0	41	104	420478976	80	23778
2026-01-30 11:54:03.51	320.53	42.06	-50.0	-61.8	3.9	7.44e-01	0	41	104	420478976	72	13299
2026-01-30 11:54:04.66	320.77	41.71	-45.3	-56.1	3.8	7.43e-01	0	41	104	420478976	61	13067
2026-01-30 11:54:05.53	320.94	41.45	-45.2	-55.9	3.8	7.45e-01	0	41	104	420478976	61	12749
2026-01-30 11:54:06.68	321.18	41.10	-44.9	-55.7	3.8	7.45e-01	0	41	104	420478976	61	12395
2026-01-30 11:54:07.54	321.35	40.85	-45.4	-56.2	3.8	7.43e-01	0	41	104	420478976	61	13194
2026-01-30 11:54:08.69	321.57	40.51	-47.2	-58.2	3.8	7.47e-01	0	41	104	420478976	64	13940
2026-01-30 11:54:09.56	321.73	40.25	-54.3	-68.9	3.8	7.47e-01	0	41	104	420478976	78	21310
2026-01-30 11:54:10.71	321.95	39.92	-55.1	-71.8	3.8	7.48e-01	0	41	104	420478976	80	26646
2026-01-30 11:54:11.57	322.11	39.67	-45.9	-56.6	3.8	7.44e-01	0	41	104	420478976	63	12251
2026-01-30 11:54:12.72	322.32	39.34	-45.4	-56.0	3.8	7.44e-01	0	41	104	420478976	62	12174
2026-01-30 11:54:13.59	322.47	39.09	-45.7	-56.4	3.8	7.44e-01	0	41	104	420478976	62	12776
2026-01-30 11:54:14.74	322.67	38.77	-45.2	-56.1	3.8	7.46e-01	0	41	104	420478976	62	12283
2026-01-30 11:54:15.60	322.82	38.53	-45.6	-56.5	3.8	7.44e-01	0	41	104	420478976	62	12828
2026-01-30 11:54:16.75	323.01	38.21	-46.8	-57.6	3.9	7.46e-01	0	41	104	420478976	64	12973
2026-01-30 11:54:17.62	323.15	37.97	-54.7	-70.2	3.8	7.47e-01	0	41	104	420478976	79	23526
2026-01-30 11:54:18.77	323.34	37.65	-55.0	-71.4	3.8	7.47e-01	0	41	104	420478976	80	25493
2026-01-30 11:54:19.63	323.48	37.42	-45.0	-55.6	3.8	7.44e-01	0	41	104	420478976	62	11594
2026-01-30 11:54:20.77	323.66	37.11	-45.1	-55.8	3.8	7.44e-01	0	41	104	420478976	62	11891
2026-01-30 11:54:21.64	323.79	36.88	-44.8	-55.6	3.8	7.44e-01	0	41	104	420478976	61	12303
2026-01-30 11:54:22.79	323.97	36.57	-44.8	-55.7	3.8	7.47e-01	0	41	104	420478976	61	12457
2026-01-30 11:54:23.65	324.10	36.35	-45.4	-56.3	3.8	7.46e-01	0	41	104	420478976	61	13363
2026-01-30 11:54:24.81	324.27	36.04	-45.8	-56.6	3.8	7.45e-01	0	41	104	420478976	62	13100
2026-01-30 11:54:25.67	324.39	35.82	-54.5	-69.7	3.7	7.47e-01	0	41	104	420478976	79	22062
2026-01-30 11:54:26.83	324.56	35.52	-54.7	-70.6	3.8	7.50e-01	0	41	104	420478976	80	23261
2026-01-30 11:54:27.69	324.68	35.31	-44.2	-54.8	3.8	7.45e-01	0	41	104	420478976	60	11949
2026-01-30 11:54:28.84	324.84	35.01	-44.3	-54.9	3.8	7.44e-01	0	41	104	420478976	60	12051
2026-01-30 11:54:29.70	324.96	34.80	-44.0	-54.7	3.8	7.45e-01	0	41	104	420478976	60	11687
2026-01-30 11:54:30.85	325.11	34.51	-43.8	-54.2	3.8	7.43e-01	0	41	104	420478976	59	11792
2026-01-30 11:54:31.72	325.23	34.30	-44.0	-54.6	3.8	7.46e-01	0	41	104	420478976	59	12236
2026-01-30 11:54:32.87	325.38	34.02	-44.5	-55.2	3.8	7.43e-01	0	41	104	420478976	59	13257
2026-01-30 11:54:33.73	325.49	33.81	-54.6	-70.3	3.8	7.44e-01	0	41	104	420478976	79	23643
2026-01-30 11:54:34.89	325.63	33.53	-54.2	-69.3	3.8	7.44e-01	0	41	104	420478976	79	21141
2026-01-30 11:54:35.75	325.74	33.32	-44.2	-54.8	3.8	7.41e-01	0	41	104	420478976	59	12611
2026-01-30 11:54:36.91	325.88	33.05	-44.1	-54.7	3.9	7.39e-01	0	41	104	420478976	59	12479
2026-01-30 11:54:37.77	325.99	32.84	-43.9	-54.6	3.8	7.44e-01	0	41	104	420478976	59	12371
2026-01-30 11:54:38.93	326.13	32.57	-43.3	-53.9	3.8	7.41e-01	0	41	104	420478976	58	12073
2026-01-30 11:54:39.79	326.23	32.37	-44.4	-54.9	3.8	7.46e-01	0	41	104	420478976	59	12801
2026-01-30 11:54:40.94	326.36	32.11	-43.6	-54.1	3.8	7.45e-01	0	41	104	420478976	59	11663
2026-01-30 11:54:41.81	326.46	31.91	-54.4	-69.6	3.8	7.47e-01	0	41	104	420478976	79	21896
2026-01-30 11:54:42.96	326.59	31.65	-53.5	-67.5	3.9	7.45e-01	0	41	104	420478976	78	18257
2026-01-30 11:54:43.83	326.69	31.45	-44.8	-55.5	3.8	7.43e-01	0	41	104	420478976	60	12813
2026-01-30 11:54:44.98	326.81	31.20	-43.4	-54.0	3.8	7.45e-01	0	41	104	420478976	58	12234
2026-01-30 11:54:45.84	326.91	31.01	-43.2	-53.8	3.8	7.46e-01	0	41	104	420478976	58	11856
2026-01-30 11:54:46.99	327.03	30.75	-43.2	-53.8	3.8	7.44e-01	0	41	104	420478976	58	11904
2026-01-30 11:54:47.85	327.12	30.57	-47.1	-57.9	3.8	7.43e-01	0	41	104	420478976	64	13559
2026-01-30 11:54:49.01	327.24	30.32	-43.5	-54.0	3.8	7.47e-01	0	41	104	420478976	59	11500
2026-01-30 11:54:49.87	327.33	30.13	-54.4	-69.9	3.8	7.45e-01	0	41	104	420478976	79	22678
2026-01-30 11:54:51.03	327.44	29.89	-52.0	-64.7	3.9	7.45e-01	0	41	104	420478976	76	14801
2026-01-30 11:54:51.89	327.53	29.70	-45.4	-56.2	3.8	7.42e-01	0	41	104	420478976	61	13131
2026-01-30 11:54:53.04	327.64	29.46	-43.8	-54.5	3.8	7.43e-01	0	41	104	420478976	59	12228
2026-01-30 11:54:53.91	327.73	29.28	-43.5	-54.2	3.8	7.44e-01	0	41	104	420478976	59	11756
2026-01-30 11:54:55.06	327.84	29.04	-43.3	-54.0	3.8	7.46e-01	0	41	104	420478976	58	12226
2026-01-30 11:54:55.92	327.92	28.87	-44.2	-55.1	3.9	7.45e-01	0	41	104	420478976	59	13028
2026-01-30 11:54:57.07	328.03	28.63	-43.6	-54.5	3.8	7.45e-01	0	41	104	420478976	59	12123
2026-01-30 11:54:57.93	328.11	28.46	-54.5	-70.2	3.8	7.43e-01	0	41	104	420478976	79	23433
2026-01-30 11:54:59.08	328.21	28.23	-51.0	-63.5	3.8	7.42e-01	0	41	104	420478976	74	14421
2026-01-30 11:54:59.95	328.29	28.06	-46.7	-57.6	3.8	7.43e-01	0	41	104	420478976	63	13790
2026-01-30 11:55:01.09	328.39	27.83	-44.1	-54.7	3.8	7.46e-01	0	41	104	420478976	59	12412
2026-01-30 11:55:01.96	328.47	27.66	-44.1	-54.6	3.8	7.43e-01	0	41	104	420478976	59	12316
2026-01-30 11:55:03.11	328.57	27.44	-43.6	-54.1	3.8	7.44e-01	0	41	104	420478976	59	11615
2026-01-30 11:55:03.97	328.64	27.27	-45.1	-55.6	3.8	7.46e-01	0	41	104	420478976	60	13101
2026-01-30 11:55:05.12	328.74	27.05	-44.3	-54.8	3.8	7.45e-01	0	41	104	420478976	59	12636
2026-01-30 11:55:05.99	328.81	26.89	-54.5	-70.2	3.8	7.42e-01	0	41	104	420478976	79	23479
2026-01-30 11:55:07.14	328.91	26.67	-49.6	-61.2	3.8	7.42e-01	0	41	104	420478976	71	13231
2026-01-30 11:55:08.00	328.98	26.51	-47.6	-58.6	3.8	7.41e-01	0	41	104	420478976	65	13827
2026-01-30 11:55:09.15	329.07	26.29	-44.7	-55.4	3.8	7.48e-01	0	41	104	420478976	61	11964
2026-01-30 11:55:10.02	329.14	26.13	-44.5	-55.1	3.8	7.44e-01	0	41	104	420478976	60	12372
2026-01-30 11:55:11.17	329.23	25.92	-44.4	-55.1	3.8	7.44e-01	0	41	104	420478976	60	12358
2026-01-30 11:55:12.03	329.30	25.76	-44.1	-55.0	3.8	7.46e-01	0	41	104	420478976	59	12817
2026-01-30 11:55:13.18	329.39	25.56	-44.6	-55.4	3.8	7.45e-01	0	41	104	420478976	59	13488
2026-01-30 11:55:14.04	329.46	25.40	-54.4	-70.3	3.8	7.47e-01	0	41	104	420478976	79	23717
2026-01-30 11:55:15.19	329.54	25.20	-48.8	-60.2	3.8	7.44e-01	0	41	104	420478976	69	13140
2026-01-30 11:55:16.05	329.61	25.04	-48.0	-59.3	3.8	7.45e-01	0	41	104	420478976	66	14127
2026-01-30 11:55:17.21	329.69	24.84	-44.0	-54.8	3.8	7.46e-01	0	41	104	420478976	60	11949
2026-01-30 11:55:18.07	329.76	24.69	-44.0	-54.7	3.8	7.48e-01	0	41	104	420478976	60	11782
2026-01-30 11:55:19.23	329.84	24.49	-44.1	-54.9	3.8	7.47e-01	0	41	104	420478976	59	12667
2026-01-30 11:55:20.09	329.90	24.34	-45.4	-56.3	3.8	7.43e-01	0	41	104	420478976	61	13330
2026-01-30 11:55:21.24	329.98	24.14	-45.4	-56.4	3.8	7.43e-01	0	41	104	420478976	61	13543
2026-01-30 11:55:22.11	330.04	24.00	-54.4	-70.3	3.8	7.43e-01	0	41	104	420478976	79	23727
2026-01-30 11:55:23.26	330.12	23.80	-46.6	-57.7	3.8	7.47e-01	0	41	104	420478976	65	12482
2026-01-30 11:55:24.12	330.18	23.66	-48.1	-59.4	3.8	7.43e-01	0	41	104	420478976	67	13501
2026-01-30 11:55:25.27	330.26	23.47	-44.3	-55.1	3.8	7.46e-01	0	41	104	420478976	60	12358
2026-01-30 11:55:26.13	330.32	23.32	-44.1	-54.9	3.8	7.42e-01	0	41	104	420478976	60	12041
2026-01-30 11:55:27.29	330.40	23.13	-44.0	-54.8	3.8	7.46e-01	0	41	104	420478976	59	12527
2026-01-30 11:55:28.15	330.45	22.99	-45.5	-56.3	3.8	7.44e-01	0	41	104	420478976	62	12547
2026-01-30 11:55:29.30	330.53	22.81	-45.4	-56.1	3.8	7.44e-01	0	41	104	420478976	61	13098
2026-01-30 11:55:30.17	330.58	22.67	-54.2	-69.9	3.8	7.41e-01	0	41	104	420478976	79	22592
2026-01-30 11:55:31.32	330.66	22.48	-45.1	-55.7	3.8	7.45e-01	0	41	104	420478976	62	11781
2026-01-30 11:55:32.18	330.71	22.35	-48.4	-59.5	3.9	7.42e-01	0	41	104	420478976	68	12873
2026-01-30 11:55:33.33	330.78	22.17	-44.6	-55.2	3.8	7.43e-01	0	41	104	420478976	60	12378
2026-01-30 11:55:34.20	330.84	22.03	-44.3	-54.8	3.8	7.46e-01	0	41	104	420478976	60	11955
2026-01-30 11:55:35.35	330.91	21.85	-44.0	-54.6	3.8	7.46e-01	0	41	104	420478976	59	12260
2026-01-30 11:55:36.21	330.96	21.72	-44.5	-55.1	3.8	7.44e-01	0	41	104	420478976	60	12270
2026-01-30 11:55:37.36	331.03	21.54	-46.8	-58.0	3.8	7.44e-01	0	41	104	420478976	64	13574
2026-01-30 11:55:38.23	331.08	21.41	-53.7	-68.5	3.9	7.40e-01	0	41	104	420478976	79	19258
2026-01-30 11:55:39.38	331.15	21.23	-44.5	-55.2	3.8	7.45e-01	0	41	104	420478976	61	11744
2026-01-30 11:55:40.24	331.20	21.11	-47.9	-59.0	3.9	7.45e-01	0	41	104	420478976	67	12938
2026-01-30 11:55:41.39	331.27	20.93	-44.1	-54.7	3.8	7.43e-01	0	41	104	420478976	60	11796
2026-01-30 11:55:42.25	331.32	20.81	-44.0	-54.6	3.8	7.45e-01	0	41	104	420478976	59	12332
2026-01-30 11:55:43.41	331.38	20.63	-43.7	-54.3	3.9	7.44e-01	0	41	104	420478976	59	11939
2026-01-30 11:55:44.27	331.43	20.51	-44.1	-54.8	3.8	7.45e-01	0	41	104	420478976	60	11953
2026-01-30 11:55:45.42	331.49	20.34	-49.7	-61.3	3.8	7.42e-01	0	41	104	420478976	69	14936
2026-01-30 11:55:46.29	331.54	20.21	-53.6	-68.5	3.8	7.42e-01	0	41	104	420478976	79	19255
2026-01-30 11:55:47.44	331.60	20.05	-43.9	-54.6	3.9	7.45e-01	0	41	104	420478976	59	12333
2026-01-30 11:55:48.30	331.65	19.92	-48.0	-58.8	3.8	7.43e-01	0	41	104	420478976	67	12628
2026-01-30 11:55:49.45	331.71	19.76	-44.1	-54.9	3.8	7.47e-01	0	41	104	420478976	60	11971
2026-01-30 11:55:50.32	331.76	19.64	-43.9	-54.6	3.8	7.45e-01	0	41	104	420478976	59	12278
2026-01-30 11:55:51.47	331.82	19.48	-44.7	-55.4	3.8	7.46e-01	0	41	104	420478976	59	13552
2026-01-30 11:55:52.33	331.87	19.36	-45.1	-55.9	3.9	7.45e-01	0	41	104	420478976	62	12052
2026-01-30 11:55:53.49	331.93	19.19	-49.8	-61.3	3.8	7.47e-01	0	41	104	420478976	69	14930
2026-01-30 11:55:54.35	331.97	19.08	-52.7	-66.5	3.9	7.48e-01	0	41	104	420478976	77	17148
2026-01-30 11:55:55.50	332.03	18.92	-44.0	-54.7	3.8	7.47e-01	0	41	104	420478976	60	11719
2026-01-30 11:55:56.37	332.07	18.80	-47.2	-58.3	3.8	7.43e-01	0	41	104	420478976	66	12615
2026-01-30 11:55:57.53	332.13	18.64	-44.2	-54.9	3.8	7.46e-01	0	41	104	420478976	60	12011
2026-01-30 11:55:58.39	332.17	18.53	-44.0	-54.7	3.8	7.43e-01	0	41	104	420478976	59	12399
2026-01-30 11:55:59.54	332.23	18.37	-44.2	-54.7	3.8	7.42e-01	0	41	104	420478976	59	12495
2026-01-30 11:56:00.40	332.27	18.26	-44.0	-54.5	3.9	7.45e-01	0	41	104	420478976	59	12219
2026-01-30 11:56:01.55	332.33	18.11	-51.9	-64.9	3.8	7.44e-01	0	41	104	420478976	74	17001
2026-01-30 11:56:02.41	332.37	17.99	-50.7	-62.9	3.9	7.45e-01	0	41	104	420478976	73	14211
2026-01-30 11:56:03.57	332.42	17.84	-44.7	-55.1	3.8	7.48e-01	0	41	104	420478976	59	13102
2026-01-30 11:56:04.43	332.46	17.73	-46.1	-56.9	3.8	7.48e-01	0	41	104	420478976	64	12087
2026-01-30 11:56:05.58	332.52	17.58	-44.2	-54.9	3.8	7.44e-01	0	41	104	420478976	60	12012
2026-01-30 11:56:06.45	332.56	17.47	-43.8	-54.5	3.8	7.41e-01	0	41	104	420478976	59	12158
2026-01-30 11:56:07.60	332.61	17.32	-44.6	-55.3	3.8	7.44e-01	0	41	104	420478976	59	13320
2026-01-30 11:56:08.46	332.65	17.21	-44.0	-54.7	3.9	7.44e-01	0	41	104	420478976	59	12411
2026-01-30 11:56:09.61	332.70	17.07	-51.9	-65.1	3.8	7.47e-01	0	41	104	420478976	74	17289
2026-01-30 11:56:10.47	332.74	16.96	-50.5	-62.8	3.9	7.44e-01	0	41	104	420478976	73	14176
2026-01-30 11:56:11.63	332.79	16.81	-46.2	-57.1	3.8	7.45e-01	0	41	104	420478976	62	13768
2026-01-30 11:56:12.49	332.83	16.71	-46.1	-57.2	3.8	7.46e-01	0	41	104	420478976	64	12437
2026-01-30 11:56:13.64	332.88	16.56	-44.4	-55.2	3.8	7.43e-01	0	41	104	420478976	60	12504
2026-01-30 11:56:14.50	332.92	16.46	-44.0	-54.8	3.8	7.46e-01	0	41	104	420478976	59	12592
2026-01-30 11:56:15.65	332.97	16.32	-43.6	-54.4	3.8	7.42e-01	0	41	104	420478976	58	12698
2026-01-30 11:56:16.52	333.01	16.21	-43.4	-54.1	3.8	7.45e-01	0	41	104	420478976	58	12373
2026-01-30 11:56:17.67	333.05	16.07	-53.2	-67.4	3.8	7.45e-01	0	41	104	420478976	76	20255
2026-01-30 11:56:18.53	333.09	15.97	-49.1	-60.8	3.8	7.42e-01	0	41	104	420478976	70	13353
2026-01-30 11:56:19.68	333.14	15.83	-46.4	-57.6	3.8	7.46e-01	0	41	104	420478976	63	13825
2026-01-30 11:56:20.54	333.17	15.73	-45.5	-56.5	3.8	7.45e-01	0	41	104	420478976	63	12117
2026-01-30 11:56:21.69	333.22	15.59	-44.2	-55.1	3.8	7.44e-01	0	41	104	420478976	60	12284
2026-01-30 11:56:22.56	333.26	15.49	-44.0	-54.9	3.8	7.40e-01	0	41	104	420478976	59	12674
2026-01-30 11:56:23.71	333.30	15.35	-44.2	-55.0	3.8	7.46e-01	0	41	104	420478976	59	12928
2026-01-30 11:56:24.58	333.34	15.25	-43.5	-54.3	3.8	7.43e-01	0	41	104	420478976	59	11895
2026-01-30 11:56:25.73	333.39	15.12	-53.7	-69.0	3.8	7.48e-01	0	41	104	420478976	77	23008
2026-01-30 11:56:26.59	333.42	15.02	-49.6	-61.6	3.8	7.38e-01	0	41	104	420478976	71	13797
2026-01-30 11:56:27.75	333.47	14.89	-48.4	-60.0	3.8	7.44e-01	0	41	104	420478976	67	14417
2026-01-30 11:56:28.61	333.50	14.79	-45.8	-56.8	3.8	7.45e-01	0	41	104	420478976	63	12561
2026-01-30 11:56:29.76	333.54	14.66	-44.3	-55.1	3.8	7.48e-01	0	41	104	420478976	60	12337
2026-01-30 11:56:30.63	333.58	14.56	-44.1	-54.8	3.8	7.44e-01	0	41	104	420478976	59	12613
2026-01-30 11:56:31.78	333.62	14.43	-44.7	-55.6	3.8	7.45e-01	0	41	104	420478976	59	13740
2026-01-30 11:56:32.65	333.65	14.33	-43.5	-54.2	3.8	7.46e-01	0	41	104	420478976	59	11798
2026-01-30 11:56:33.80	333.70	14.21	-53.7	-69.1	3.8	7.44e-01	0	41	104	420478976	77	23210
2026-01-30 11:56:34.66	333.73	14.11	-48.2	-59.6	3.8	7.47e-01	0	41	104	420478976	68	13047
2026-01-30 11:56:35.81	333.77	13.98	-49.6	-61.3	3.8	7.48e-01	0	41	104	420478976	69	15033
2026-01-30 11:56:36.68	333.80	13.89	-44.1	-54.4	3.8	7.45e-01	0	41	104	420478976	59	11959
2026-01-30 11:56:37.83	333.85	13.76	-43.6	-54.3	3.8	7.44e-01	0	41	104	420478976	59	11875
2026-01-30 11:56:38.69	333.88	13.67	-43.5	-54.2	3.9	7.44e-01	0	41	104	420478976	59	11710
2026-01-30 11:56:39.85	333.92	13.54	-47.8	-59.2	3.8	7.40e-01	0	41	104	420478976	66	13887
2026-01-30 11:56:40.71	333.95	13.45	-43.6	-54.3	3.8	7.42e-01	0	41	104	420478976	59	11946
2026-01-30 11:56:41.86	333.99	13.33	-53.7	-69.6	3.8	7.43e-01	0	41	104	420478976	77	24481
2026-01-30 11:56:42.72	334.02	13.24	-48.0	-59.3	3.8	7.45e-01	0	41	104	420478976	68	12605
2026-01-30 11:56:43.87	334.06	13.12	-49.9	-61.8	3.8	7.46e-01	0	41	104	420478976	70	15031
2026-01-30 11:56:44.74	334.09	13.02	-43.9	-54.6	3.8	7.42e-01	0	41	104	420478976	59	12250
2026-01-30 11:56:45.89	334.13	12.90	-43.7	-54.3	3.8	7.45e-01	0	41	104	420478976	59	11905
2026-01-30 11:56:46.76	334.16	12.81	-43.5	-54.2	3.8	7.43e-01	0	41	104	420478976	59	11700
2026-01-30 11:56:47.91	334.20	12.69	-45.7	-56.5	3.8	7.46e-01	0	41	104	420478976	61	13652
2026-01-30 11:56:48.77	334.23	12.60	-43.7	-54.2	3.9	7.42e-01	0	41	104	420478976	59	11772
2026-01-30 11:56:49.92	334.27	12.49	-53.8	-69.9	3.8	7.43e-01	0	41	104	420478976	78	24111
2026-01-30 11:56:50.79	334.30	12.40	-47.7	-49.5	20.6	6.01e-01	0	41	104	420478976	67	4327
2026-01-30 11:56:51.94	334.34	12.28	-50.6	-53.6	17.8	6.00e-01	0	41	0	422576128	71	5526
2026-01-30 11:56:52.80	334.37	12.19	-43.7	-44.8	25.8	6.00e-01	0	41	0	424148992	59	3992
2026-01-30 11:56:53.95	334.40	12.08	-43.4	-44.6	26.1	6.03e-01	0	41	0	426246144	58	4105
2026-01-30 11:56:54.82	334.43	11.99	-43.3	-44.5	26.3	6.02e-01	0	41	0	427819008	58	4054
2026-01-30 11:56:55.97	334.47	11.87	-43.2	-44.3	26.4	6.01e-01	0	41	0	429916160	58	3977
2026-01-30 11:56:56.83	334.50	11.79	-43.3	-44.4	26.3	6.01e-01	0	41	0	431489024	58	4038
2026-01-30 11:56:57.98	334.54	11.67	-43.2	-44.3	26.3	6.02e-01	0	41	0	433586176	58	3997
2026-01-30 11:56:58.85	334.56	11.59	-43.2	-44.3	26.3	6.01e-01	0	41	0	435683328	58	3999
2026-01-30 11:57:00.00	334.60	11.47	-43.2	-44.4	26.3	6.02e-01	0	41	0	437780480	58	4012
2026-01-30 11:57:00.86	334.63	11.39	-43.3	-44.4	26.2	6.03e-01	0	41	0	439353344	58	4043
2026-01-30 11:57:02.01	334.66	11.28	-43.2	-44.3	26.3	6.02e-01	0	41	0	441450496	58	4004
2026-01-30 11:57:02.88	334.69	11.19	-43.3	-44.4	26.2	6.02e-01	0	41	0	443023360	58	4034
2026-01-30 11:57:04.03	334.73	11.08	-43.4	-44.6	26.1	6.03e-01	0	41	0	445120512	58	4109
2026-01-30 11:57:04.89	334.75	11.00	-43.2	-44.3	26.4	6.02e-01	0	41	0	446693376	58	3982
2026-01-30 11:57:06.04	334.79	10.89	-43.3	-44.5	26.2	6.00e-01	0	41	0	448790528	58	4056
2026-01-30 11:57:06.91	334.81	10.81	-43.2	-44.3	26.4	6.03e-01	0	41	0	450363392	58	3976
2026-01-30 11:57:08.06	334.85	10.70	-43.2	-44.4	26.3	6.03e-01	0	41	0	452984832	58	4011
2026-01-30 11:57:08.92	334.87	10.61	-43.3	-44.4	26.3	6.00e-01	0	41	0	454557696	58	4023
2026-01-30 11:57:10.08	334.91	10.51	-43.3	-44.4	26.3	5.99e-01	0	41	0	456654848	58	4033
2026-01-30 11:57:10.94	334.93	10.43	-43.3	-44.5	25.8	6.04e-01	0	41	0	458227712	58	4071
2026-01-30 11:57:12.09	334.97	10.32	-43.4	-44.5	26.2	6.03e-01	0	41	0	460324864	58	4091
2026-01-30 11:57:12.95	334.99	10.24	-43.4	-44.5	26.2	6.00e-01	0	41	0	461897728	58	4092
2026-01-30 11:57:14.10	335.03	10.13	-43.4	-44.5	26.1	6.01e-01	0	41	0	463994880	58	4088
2026-01-30 11:57:14.96	335.05	10.05	-43.5	-44.6	26.0	6.01e-01	0	41	0	465567744	58	4142
2026-01-30 11:57:16.11	335.09	9.95	-43.4	-44.5	26.1	6.02e-01	0	41	0	467664896	58	4094
2026-01-30 11:57:16.98	335.11	9.87	-43.5	-44.7	26.0	6.01e-01	0	41	0	469237760	58	4166
2026-01-30 11:57:18.13	335.14	9.76	-43.4	-44.6	26.1	5.99e-01	0	41	0	471859200	58	4118
2026-01-30 11:57:18.99	335.17	9.68	-43.5	-44.7	26.0	6.02e-01	0	41	0	472907776	58	4158
2026-01-30 11:57:20.14	335.20	9.58	-43.6	-44.7	26.0	6.01e-01	0	41	0	475529216	58	4181
2026-01-30 11:57:21.01	335.22	9.50	-43.6	-44.8	25.9	6.01e-01	0	41	0	477102080	58	4202
2026-01-30 11:57:22.16	335.26	9.40	-43.7	-44.8	25.8	6.00e-01	0	41	0	479199232	58	4240
2026-01-30 11:57:23.03	335.28	9.32	-43.5	-44.7	25.9	6.01e-01	0	41	0	480772096	58	4173
2026-01-30 11:57:24.18	335.31	9.22	-43.6	-44.8	25.9	6.00e-01	0	40	0	482869248	58	4204
2026-01-30 11:57:25.04	335.34	9.14	-43.7	-44.9	25.8	5.98e-01	0	41	0	484442112	58	4256
2026-01-30 11:57:26.20	335.37	9.04	-43.6	-44.8	25.8	6.01e-01	0	41	0	486539264	58	4216
2026-01-30 11:57:27.06	335.39	8.96	-43.7	-44.9	25.8	6.01e-01	0	41	0	488112128	58	4258
2026-01-30 11:57:28.21	335.42	8.86	-43.7	-44.9	25.8	6.01e-01	0	41	0	490209280	58	4254
2026-01-30 11:57:29.08	335.44	8.79	-43.6	-44.8	25.8	6.00e-01	0	41	0	492306432	58	4236
2026-01-30 11:57:30.23	335.47	8.69	-43.7	-44.9	25.7	6.01e-01	0	41	0	494403584	58	4279
2026-01-30 11:57:31.09	335.50	8.61	-43.9	-45.1	25.6	5.99e-01	0	41	0	495976448	58	4346
2026-01-30 11:57:32.24	335.53	8.51	-43.8	-45.0	25.6	6.03e-01	0	41	0	498073600	58	4319
2026-01-30 11:57:33.10	335.55	8.44	-43.8	-45.0	25.6	6.02e-01	0	41	0	499646464	58	4317
