passes_logs/2026/01/30/R3.2S_Murmansk/R3.2S_Murmansk__20260130_094737_SUOMI_NPP_rec.log

#Pass ID: 20260130_094737_SUOMI NPP
#Satellite: SUOMI NPP
#Configuration: NPP
#almurnet v.1.7.20251203
#Start time: 2026-01-30 09:47:39

#Version: 2.2.20231116
#Station: R3.2S_Murmansk
#Location: 33.079688 lon 68.888172 lat
#TLE: 1 37849U 11061A   26029.48304708  .00000140  00000+0  87283-4 0  9999
#TLE: 2 37849  98.7824 331.4079 0002024  38.4342 321.6978 14.19531488738761

#Time	Az	El	Level	Level2	SNR	BER	BlckErr	Temp	State	Recorded	gain1	gain2
2026-01-30 09:47:39.03	156.27	2.11	-53.9	-68.9	3.8	1.49e+00	0	40	0	0	79	20208
2026-01-30 09:47:40.00	156.28	2.18	-53.9	-68.9	3.8	1.49e+00	0	39	104	0	78	21326
2026-01-30 09:47:40.98	156.29	2.24	-53.9	-68.9	3.8	1.49e+00	0	39	104	0	78	21344
2026-01-30 09:47:41.95	156.29	2.30	-54.1	-69.1	3.8	1.49e+00	0	39	104	0	78	21785
2026-01-30 09:47:42.92	156.30	2.36	-54.1	-69.1	3.8	1.49e+00	0	40	104	0	78	21872
2026-01-30 09:47:43.89	156.31	2.43	-54.1	-69.1	3.8	1.49e+00	0	39	104	0	78	21874
2026-01-30 09:47:44.86	156.32	2.49	-54.1	-69.1	3.8	1.49e+00	0	40	104	0	78	21765
2026-01-30 09:47:45.83	156.33	2.55	-54.1	-69.0	3.8	1.49e+00	0	40	104	0	78	21748
2026-01-30 09:47:46.80	156.33	2.62	-54.0	-69.0	3.8	1.49e+00	0	40	104	0	78	21619
2026-01-30 09:47:47.77	156.34	2.68	-54.0	-69.0	3.8	1.49e+00	0	40	104	0	78	21509
2026-01-30 09:47:48.74	156.35	2.75	-53.9	-68.9	3.8	1.49e+00	0	40	104	0	78	21454
2026-01-30 09:47:49.72	156.36	2.81	-53.9	-68.9	3.8	1.49e+00	0	40	104	0	78	21342
2026-01-30 09:47:50.68	156.37	2.87	-53.9	-68.9	3.8	1.49e+00	0	40	104	0	78	21264
2026-01-30 09:47:51.65	156.37	2.94	-53.8	-68.8	3.8	1.49e+00	0	40	104	0	78	21164
2026-01-30 09:47:52.62	156.38	3.00	-53.8	-68.7	3.8	1.49e+00	0	40	104	0	78	20966
2026-01-30 09:47:53.59	156.39	3.07	-53.7	-68.7	3.8	1.49e+00	0	40	104	0	78	20857
2026-01-30 09:47:54.56	156.40	3.13	-53.6	-68.6	3.8	1.49e+00	0	40	104	0	78	20657
2026-01-30 09:47:55.53	156.41	3.20	-53.6	-68.5	3.8	1.49e+00	0	40	104	0	78	20488
2026-01-30 09:47:56.50	156.41	3.26	-53.5	-68.5	3.8	1.49e+00	0	40	104	0	78	20309
2026-01-30 09:47:57.47	156.42	3.33	-53.4	-68.3	3.8	1.49e+00	0	40	104	0	78	19950
2026-01-30 09:47:58.44	156.43	3.39	-53.3	-68.2	3.8	1.49e+00	0	40	104	0	78	19804
2026-01-30 09:47:59.41	156.44	3.46	-53.2	-68.1	3.8	1.49e+00	0	40	104	0	78	19612
2026-01-30 09:48:00.37	156.45	3.52	-53.1	-68.0	3.8	1.49e+00	0	40	104	0	78	19325
2026-01-30 09:48:01.35	156.46	3.59	-52.9	-67.9	3.8	1.49e+00	0	40	104	0	77	20151
2026-01-30 09:48:02.33	156.46	3.66	-52.8	-67.7	3.8	1.49e+00	0	40	104	0	77	19733
2026-01-30 09:48:03.29	156.47	3.72	-52.4	-67.3	3.8	1.49e+00	0	40	104	0	76	19941
2026-01-30 09:48:04.27	156.48	3.79	-52.1	-66.4	3.8	1.49e+00	0	40	104	0	76	18089
2026-01-30 09:48:05.24	156.49	3.85	-52.0	-65.5	3.8	1.49e+00	0	40	104	0	76	16179
2026-01-30 09:48:06.21	156.50	3.92	-51.7	-63.9	4.1	1.48e+00	0	40	104	0	75	14313
2026-01-30 09:48:07.18	156.51	3.99	-51.8	-62.6	4.5	1.37e+00	37	40	0	0	75	12255
2026-01-30 09:48:08.15	156.52	4.05	-51.6	-60.8	5.4	6.40e-01	0	40	0	2097152	75	9949
2026-01-30 09:48:09.11	156.52	4.12	-51.4	-59.4	6.4	2.94e-01	0	40	0	3145728	74	8982
2026-01-30 09:48:10.08	156.53	4.19	-51.0	-57.5	8.1	1.25e-01	0	40	0	5242880	74	7284
2026-01-30 09:48:11.05	156.54	4.26	-50.7	-56.4	9.3	5.42e-02	0	40	0	7340032	73	6724
2026-01-30 09:48:12.02	156.55	4.32	-50.5	-55.8	9.9	1.29e-02	0	40	0	9437184	73	6287
2026-01-30 09:48:12.99	156.56	4.39	-50.1	-54.8	11.0	2.17e-03	0	40	0	10485760	72	5952
2026-01-30 09:48:13.96	156.57	4.46	-49.8	-53.9	11.9	6.74e-04	0	40	0	12582912	71	5721
2026-01-30 09:48:14.93	156.58	4.53	-49.6	-53.5	12.4	2.10e-04	0	40	0	14680064	71	5463
2026-01-30 09:48:15.90	156.59	4.60	-49.3	-52.8	13.1	1.03e-04	0	40	0	16777216	70	5320
2026-01-30 09:48:16.87	156.59	4.66	-49.3	-52.8	13.2	2.13e-05	0	40	0	17825792	70	5295
2026-01-30 09:48:17.83	156.60	4.73	-49.2	-52.7	13.2	3.43e-05	0	40	0	19922944	70	5245
2026-01-30 09:48:18.80	156.61	4.80	-49.1	-52.5	13.3	9.10e-06	0	40	0	22020096	70	5158
2026-01-30 09:48:19.77	156.62	4.87	-49.4	-53.0	12.8	2.05e-05	0	40	0	24117248	70	5457
2026-01-30 09:48:20.74	156.63	4.94	-49.3	-52.9	13.0	5.79e-05	0	40	0	25165824	70	5370
2026-01-30 09:48:21.71	156.64	5.01	-49.7	-53.8	12.1	1.67e-04	0	41	0	27262976	70	5956
2026-01-30 09:48:22.68	156.65	5.08	-49.0	-52.2	13.8	2.55e-04	0	40	0	29360128	70	4980
2026-01-30 09:48:23.65	156.66	5.15	-49.6	-53.4	12.6	3.00e-06	0	40	0	31457280	69	6053
2026-01-30 09:48:24.62	156.66	5.22	-50.3	-55.4	11.0	1.10e-04	0	40	0	32505856	71	6728
2026-01-30 09:48:25.59	156.67	5.29	-51.4	-59.9	4.5	1.48e+00	0	40	104	33554432	74	9606
2026-01-30 09:48:26.56	156.68	5.36	-48.8	-51.8	13.9	1.63e-01	0	40	0	34603008	69	4984
2026-01-30 09:48:27.53	156.69	5.43	-48.3	-51.0	15.0	0.00e+00	0	40	0	35651584	68	4833
2026-01-30 09:48:28.50	156.70	5.50	-48.2	-50.9	15.1	0.00e+00	0	40	0	37748736	68	4802
2026-01-30 09:48:29.47	156.71	5.57	-48.0	-50.5	15.5	0.00e+00	0	40	0	39845888	68	4574
2026-01-30 09:48:30.45	156.72	5.64	-48.2	-50.9	15.1	0.00e+00	0	41	0	41943040	67	5050
2026-01-30 09:48:31.42	156.73	5.71	-48.1	-50.7	15.2	0.00e+00	0	40	0	42991616	67	4958
2026-01-30 09:48:32.39	156.74	5.78	-47.7	-50.2	15.8	0.00e+00	0	40	0	45088768	67	4657
2026-01-30 09:48:33.35	156.75	5.85	-47.9	-50.5	15.5	0.00e+00	0	41	0	47185920	67	4823
2026-01-30 09:48:34.32	156.76	5.93	-48.1	-50.8	15.2	0.00e+00	0	40	0	48234496	67	4984
2026-01-30 09:48:35.29	156.77	6.00	-47.9	-50.5	15.5	0.00e+00	0	40	0	50331648	67	4822
2026-01-30 09:48:36.26	156.78	6.07	-48.0	-50.5	15.5	0.00e+00	0	41	0	52428800	67	4835
2026-01-30 09:48:37.23	156.78	6.14	-47.9	-50.4	15.6	0.00e+00	0	40	0	54525952	67	4763
2026-01-30 09:48:38.20	156.79	6.22	-48.0	-50.5	15.5	0.00e+00	0	41	0	55574528	67	4854
2026-01-30 09:48:39.17	156.80	6.29	-47.7	-50.1	15.9	0.00e+00	0	41	0	57671680	67	4627
2026-01-30 09:48:40.14	156.81	6.36	-47.6	-50.0	16.1	0.00e+00	0	41	0	59768832	67	4552
2026-01-30 09:48:41.10	156.82	6.43	-47.7	-50.0	16.0	0.00e+00	0	41	0	61865984	67	4576
2026-01-30 09:48:42.08	156.83	6.51	-47.8	-50.2	15.9	0.00e+00	0	40	0	62914560	67	4660
2026-01-30 09:48:43.05	156.84	6.58	-47.4	-49.6	16.4	0.00e+00	0	41	0	65011712	66	4612
2026-01-30 09:48:44.01	156.85	6.65	-47.6	-49.9	16.1	0.00e+00	0	41	0	67108864	66	4814
2026-01-30 09:48:44.98	156.86	6.73	-47.5	-49.7	16.3	0.00e+00	0	40	0	69206016	66	4666
2026-01-30 09:48:45.95	156.87	6.80	-47.5	-49.7	16.4	0.00e+00	0	40	0	70254592	66	4660
2026-01-30 09:48:46.92	156.88	6.88	-47.6	-49.9	16.2	0.00e+00	0	41	0	72351744	66	4774
2026-01-30 09:48:47.89	156.89	6.95	-47.4	-49.6	16.4	0.00e+00	0	41	0	74448896	66	4639
2026-01-30 09:48:48.86	156.90	7.03	-47.6	-49.9	16.2	0.00e+00	0	41	0	76546048	66	4799
2026-01-30 09:48:49.83	156.91	7.10	-47.5	-49.8	16.3	0.00e+00	0	41	0	77594624	66	4718
2026-01-30 09:48:50.80	156.92	7.18	-47.4	-49.6	16.5	0.00e+00	0	41	0	79691776	66	4620
2026-01-30 09:48:51.77	156.93	7.25	-47.6	-49.9	16.2	0.00e+00	0	41	0	81788928	66	4797
2026-01-30 09:48:52.74	156.94	7.33	-47.6	-49.8	16.3	0.00e+00	0	41	0	82837504	66	4730
2026-01-30 09:48:53.71	156.95	7.41	-47.5	-49.7	16.4	0.00e+00	0	41	0	84934656	66	4692
2026-01-30 09:48:54.68	156.96	7.48	-47.6	-49.8	16.3	0.00e+00	0	41	0	87031808	66	4737
2026-01-30 09:48:55.65	156.97	7.56	-47.6	-49.8	16.3	0.00e+00	0	41	0	89128960	66	4726
2026-01-30 09:48:56.62	156.98	7.63	-47.6	-49.8	16.3	0.00e+00	0	41	0	90177536	66	4744
2026-01-30 09:48:57.58	156.99	7.71	-47.4	-49.5	16.6	0.00e+00	0	41	0	92274688	66	4590
2026-01-30 09:48:58.55	157.00	7.79	-47.5	-49.7	16.5	0.00e+00	0	41	0	94371840	66	4667
2026-01-30 09:48:59.52	157.01	7.87	-47.5	-49.7	16.5	0.00e+00	0	41	0	95420416	66	4679
2026-01-30 09:49:00.49	157.02	7.94	-47.6	-49.8	16.4	0.00e+00	0	41	0	97517568	66	4739
2026-01-30 09:49:01.46	157.03	8.02	-47.4	-49.6	16.6	0.00e+00	0	41	0	99614720	66	4599
2026-01-30 09:49:02.43	157.04	8.10	-47.5	-49.7	16.5	0.00e+00	0	41	0	101711872	66	4678
2026-01-30 09:49:03.40	157.05	8.18	-47.3	-49.4	16.7	0.00e+00	0	41	0	102760448	66	4534
2026-01-30 09:49:04.37	157.06	8.26	-47.3	-49.3	16.9	0.00e+00	0	41	0	104857600	66	4465
2026-01-30 09:49:05.34	157.07	8.34	-47.2	-49.2	17.0	0.00e+00	0	41	0	106954752	66	4441
2026-01-30 09:49:06.31	157.08	8.41	-47.3	-49.3	16.9	0.00e+00	0	41	0	109051904	66	4483
2026-01-30 09:49:07.28	157.09	8.49	-47.2	-49.2	17.0	0.00e+00	0	41	0	110100480	66	4435
2026-01-30 09:49:08.25	157.10	8.57	-47.2	-49.2	17.1	0.00e+00	0	41	0	112197632	66	4409
2026-01-30 09:49:09.22	157.11	8.65	-47.2	-49.2	17.0	0.00e+00	0	41	0	114294784	66	4419
2026-01-30 09:49:10.19	157.12	8.73	-47.3	-49.4	16.9	0.00e+00	0	41	0	116391936	66	4504
2026-01-30 09:49:11.17	157.13	8.81	-47.2	-49.2	17.0	0.00e+00	0	41	0	117440512	66	4432
2026-01-30 09:49:12.13	157.14	8.89	-47.1	-49.0	17.2	0.00e+00	0	41	0	119537664	66	4335
2026-01-30 09:49:13.11	157.15	8.98	-47.3	-49.3	17.0	0.00e+00	0	41	0	121634816	66	4476
2026-01-30 09:49:14.08	157.16	9.06	-47.0	-48.9	17.3	0.00e+00	0	41	0	123731968	66	4290
2026-01-30 09:49:15.05	157.18	9.14	-47.1	-49.0	17.3	0.00e+00	0	41	0	124780544	66	4314
2026-01-30 09:49:16.02	157.19	9.22	-47.0	-48.9	17.4	0.00e+00	0	41	0	126877696	66	4281
2026-01-30 09:49:16.99	157.20	9.30	-47.1	-49.1	17.2	0.00e+00	0	41	0	128974848	66	4369
2026-01-30 09:49:17.96	157.21	9.38	-47.1	-49.0	17.3	0.00e+00	0	41	0	131072000	66	4306
2026-01-30 09:49:18.93	157.22	9.47	-47.0	-48.9	17.4	0.00e+00	0	41	0	132120576	66	4271
2026-01-30 09:49:19.90	157.23	9.55	-46.9	-48.8	17.5	0.00e+00	0	41	0	134217728	65	4485
2026-01-30 09:49:20.87	157.24	9.63	-46.9	-48.8	17.6	0.00e+00	0	41	0	136314880	65	4443
2026-01-30 09:49:21.83	157.25	9.72	-46.8	-48.7	17.6	0.00e+00	0	41	0	138412032	65	4409
2026-01-30 09:49:22.81	157.26	9.80	-46.8	-48.6	17.8	0.00e+00	0	41	0	139460608	65	4362
2026-01-30 09:49:23.77	157.27	9.88	-46.8	-48.6	17.7	0.00e+00	0	41	0	141557760	65	4382
2026-01-30 09:49:24.74	157.29	9.97	-46.8	-48.6	17.8	0.00e+00	0	41	0	143654912	65	4369
2026-01-30 09:49:25.71	157.30	10.05	-46.8	-48.7	17.7	0.00e+00	0	41	0	144703488	65	4405
2026-01-30 09:49:26.68	157.31	10.14	-46.6	-48.4	17.9	0.00e+00	0	41	0	146800640	65	4285
2026-01-30 09:49:27.65	157.32	10.22	-46.7	-48.5	17.8	0.00e+00	0	41	0	148897792	65	4319
2026-01-30 09:49:28.62	157.33	10.31	-46.6	-48.4	18.0	0.00e+00	0	41	0	150994944	65	4261
2026-01-30 09:49:29.59	157.34	10.39	-46.6	-48.4	17.9	0.00e+00	0	41	0	152043520	65	4289
2026-01-30 09:49:30.56	157.35	10.48	-46.6	-48.3	18.1	0.00e+00	0	41	0	154140672	65	4232
2026-01-30 09:49:31.52	157.36	10.56	-46.5	-48.3	18.1	0.00e+00	0	41	0	156237824	64	4442
2026-01-30 09:49:32.49	157.38	10.65	-46.5	-48.2	18.2	0.00e+00	0	41	0	157286400	64	4411
2026-01-30 09:49:33.46	157.39	10.74	-46.5	-48.2	18.1	0.00e+00	0	41	0	159383552	64	4422
2026-01-30 09:49:34.43	157.40	10.82	-46.4	-48.1	18.3	0.00e+00	0	41	0	161480704	64	4344
2026-01-30 09:49:35.39	157.41	10.91	-46.3	-48.0	18.4	0.00e+00	0	41	0	163577856	64	4310
2026-01-30 09:49:36.36	157.42	11.00	-46.3	-47.9	18.4	0.00e+00	0	41	0	164626432	64	4285
2026-01-30 09:49:37.33	157.43	11.09	-46.2	-47.9	18.5	0.00e+00	0	41	0	166723584	64	4246
2026-01-30 09:49:38.30	157.45	11.18	-46.3	-48.0	18.5	0.00e+00	0	41	0	168820736	64	4293
2026-01-30 09:49:39.27	157.46	11.26	-46.2	-47.8	18.6	0.00e+00	0	41	0	170917888	64	4220
2026-01-30 09:49:40.25	157.47	11.35	-46.1	-47.7	18.7	0.00e+00	0	41	0	171966464	63	4427
2026-01-30 09:49:41.22	157.48	11.44	-46.2	-47.8	18.7	0.00e+00	0	41	0	174063616	63	4462
2026-01-30 09:49:42.19	157.49	11.53	-46.1	-47.7	18.7	0.00e+00	0	41	0	176160768	63	4426
2026-01-30 09:49:43.16	157.51	11.62	-46.0	-47.5	19.0	0.00e+00	0	41	0	178257920	63	4328
2026-01-30 09:49:44.13	157.52	11.71	-46.0	-47.6	18.9	0.00e+00	0	41	0	179306496	63	4341
2026-01-30 09:49:45.10	157.53	11.80	-45.9	-47.5	19.0	0.00e+00	0	41	0	181403648	63	4305
2026-01-30 09:49:46.07	157.54	11.90	-46.0	-47.6	19.0	0.00e+00	0	41	0	183500800	63	4349
2026-01-30 09:49:47.04	157.56	11.99	-45.9	-47.4	19.1	0.00e+00	0	41	0	185597952	63	4276
2026-01-30 09:49:48.01	157.57	12.08	-45.7	-47.1	19.4	0.00e+00	0	41	0	186646528	63	4122
2026-01-30 09:49:48.98	157.58	12.17	-45.8	-47.3	19.2	0.00e+00	0	41	0	188743680	63	4206
2026-01-30 09:49:49.96	157.59	12.26	-45.8	-47.3	19.2	0.00e+00	0	41	0	190840832	63	4204
2026-01-30 09:49:50.92	157.61	12.36	-45.7	-47.2	19.3	0.00e+00	0	41	0	191889408	63	4164
2026-01-30 09:49:51.89	157.62	12.45	-45.6	-47.0	19.4	0.00e+00	0	41	0	193986560	63	4097
2026-01-30 09:49:52.87	157.63	12.54	-45.6	-47.0	19.4	0.00e+00	0	41	0	196083712	63	4086
2026-01-30 09:49:53.83	157.64	12.64	-45.5	-46.9	19.6	0.00e+00	0	41	0	198180864	62	4256
2026-01-30 09:49:54.80	157.66	12.73	-45.5	-46.9	19.6	0.00e+00	0	41	0	199229440	62	4245
2026-01-30 09:49:55.77	157.67	12.82	-45.3	-46.7	19.8	0.00e+00	0	41	0	201326592	62	4169
2026-01-30 09:49:56.74	157.68	12.92	-45.4	-46.8	19.7	0.00e+00	0	41	0	203423744	62	4221
2026-01-30 09:49:57.71	157.69	13.01	-45.4	-46.7	19.7	0.00e+00	0	41	0	205520896	62	4193
2026-01-30 09:49:58.68	157.71	13.11	-45.2	-46.6	19.9	0.00e+00	0	41	0	206569472	62	4100
2026-01-30 09:49:59.65	157.72	13.21	-45.3	-46.6	19.9	0.00e+00	0	41	0	208666624	62	4138
2026-01-30 09:50:00.61	157.73	13.30	-45.1	-46.5	20.0	0.00e+00	0	41	0	210763776	62	4057
2026-01-30 09:50:01.58	157.75	13.40	-45.0	-46.4	20.1	0.00e+00	0	41	0	212860928	61	4245
2026-01-30 09:50:02.54	157.76	13.50	-45.1	-46.4	20.0	0.00e+00	0	41	0	213909504	61	4280
2026-01-30 09:50:03.51	157.77	13.59	-44.9	-46.3	20.2	0.00e+00	0	41	0	216006656	61	4196
2026-01-30 09:50:04.48	157.79	13.69	-44.9	-46.2	20.2	0.00e+00	0	41	0	218103808	61	4175
2026-01-30 09:50:05.45	157.80	13.79	-44.9	-46.2	20.2	0.00e+00	0	41	0	219152384	61	4165
2026-01-30 09:50:06.42	157.81	13.89	-44.7	-46.0	20.5	0.00e+00	0	41	0	221249536	61	4062
2026-01-30 09:50:07.39	157.83	13.99	-44.7	-46.0	20.5	0.00e+00	0	41	0	223346688	61	4069
2026-01-30 09:50:08.36	157.84	14.09	-44.7	-45.9	20.5	0.00e+00	0	41	0	225443840	61	4050
2026-01-30 09:50:09.33	157.85	14.19	-44.6	-45.8	20.6	0.00e+00	0	41	0	226492416	61	3999
2026-01-30 09:50:10.29	157.87	14.29	-44.6	-45.9	20.5	0.00e+00	0	41	0	228589568	61	4027
2026-01-30 09:50:11.26	157.88	14.39	-44.6	-45.9	20.6	0.00e+00	0	41	0	230686720	61	4021
2026-01-30 09:50:12.24	157.90	14.49	-44.7	-45.9	20.5	0.00e+00	0	41	0	232783872	61	4043
2026-01-30 09:50:13.21	157.91	14.59	-44.5	-45.7	20.7	0.00e+00	0	41	0	233832448	61	3938
2026-01-30 09:50:14.18	157.92	14.69	-44.4	-45.5	20.8	0.00e+00	0	41	0	235929600	60	4097
2026-01-30 09:50:15.15	157.94	14.80	-44.4	-45.6	20.8	0.00e+00	0	41	0	238026752	60	4134
2026-01-30 09:50:16.12	157.95	14.90	-44.3	-45.5	20.9	0.00e+00	0	41	0	239075328	60	4058
2026-01-30 09:50:17.09	157.97	15.00	-44.3	-45.5	20.9	0.00e+00	0	41	0	241172480	60	4059
2026-01-30 09:50:18.06	157.98	15.11	-44.3	-45.4	20.9	0.00e+00	0	41	0	243269632	60	4049
2026-01-30 09:50:19.03	158.00	15.21	-44.2	-45.4	21.0	0.00e+00	0	41	0	245366784	60	4041
2026-01-30 09:50:20.00	158.01	15.31	-44.2	-45.3	21.1	0.00e+00	0	41	0	246415360	60	4001
2026-01-30 09:50:20.97	158.03	15.42	-44.3	-45.5	20.9	0.00e+00	0	41	0	248512512	60	4065
2026-01-30 09:50:21.94	158.04	15.53	-44.2	-45.4	21.1	0.00e+00	0	41	0	250609664	60	4027
2026-01-30 09:50:22.91	158.05	15.63	-44.2	-45.4	21.0	0.00e+00	0	41	0	252706816	60	4010
2026-01-30 09:50:23.89	158.07	15.74	-44.2	-45.4	21.1	0.00e+00	0	41	0	253755392	60	4012
2026-01-30 09:50:24.86	158.08	15.85	-44.2	-45.4	21.0	0.00e+00	0	41	0	255852544	60	4032
2026-01-30 09:50:25.84	158.10	15.96	-44.3	-45.4	21.0	0.00e+00	0	41	0	257949696	60	4042
2026-01-30 09:50:26.81	158.12	16.06	-44.2	-45.4	21.0	0.00e+00	0	41	0	260046848	60	4040
2026-01-30 09:50:27.78	158.13	16.17	-44.2	-45.4	21.1	0.00e+00	0	41	0	261095424	60	4006
2026-01-30 09:50:28.75	158.15	16.28	-44.2	-45.4	21.0	0.00e+00	0	41	0	263192576	60	4022
2026-01-30 09:50:29.72	158.16	16.39	-44.2	-45.4	21.0	0.00e+00	0	41	0	265289728	60	4025
2026-01-30 09:50:30.70	158.18	16.50	-44.2	-45.4	21.0	0.00e+00	0	41	0	267386880	60	4036
2026-01-30 09:50:31.66	158.19	16.61	-44.2	-45.3	21.1	0.00e+00	0	41	0	268435456	60	3997
2026-01-30 09:50:32.63	158.21	16.72	-44.1	-45.3	21.2	0.00e+00	0	41	0	270532608	60	3976
2026-01-30 09:50:33.60	158.22	16.83	-44.2	-45.3	21.1	0.00e+00	0	41	0	272629760	60	3989
2026-01-30 09:50:34.58	158.24	16.95	-44.0	-45.1	21.3	0.00e+00	0	41	0	274726912	60	3913
2026-01-30 09:50:35.56	158.26	17.06	-44.3	-45.4	21.3	0.00e+00	0	41	0	275775488	59	4276
2026-01-30 09:50:36.56	158.27	17.18	-44.4	-45.6	21.2	0.00e+00	0	41	0	277872640	59	4348
2026-01-30 09:50:37.56	158.29	17.29	-44.2	-45.5	21.0	0.00e+00	0	41	0	279969792	59	4337
2026-01-30 09:50:38.56	158.31	17.41	-44.1	-45.4	21.1	0.00e+00	0	41	0	282066944	59	4284
2026-01-30 09:50:39.57	158.32	17.53	-44.0	-45.2	21.3	0.00e+00	0	41	0	283115520	59	4187
2026-01-30 09:50:40.57	158.34	17.65	-44.1	-45.4	21.1	0.00e+00	0	41	0	285212672	59	4283
2026-01-30 09:50:41.57	158.36	17.77	-44.0	-45.3	21.2	0.00e+00	0	41	0	287309824	59	4230
2026-01-30 09:50:42.56	158.37	17.89	-44.0	-45.3	21.2	0.00e+00	0	41	0	289406976	59	4225
2026-01-30 09:50:43.57	158.39	18.01	-44.0	-45.3	21.3	0.00e+00	0	41	0	291504128	59	4211
2026-01-30 09:50:44.56	158.41	18.13	-44.1	-45.4	21.1	0.00e+00	0	41	0	292552704	59	4272
2026-01-30 09:50:45.55	158.42	18.25	-43.9	-45.2	21.3	0.00e+00	0	41	0	294649856	59	4168
2026-01-30 09:50:46.53	158.44	18.37	-44.2	-45.6	21.0	0.00e+00	0	41	0	296747008	59	4345
2026-01-30 09:50:47.53	158.46	18.49	-44.2	-45.5	21.1	0.00e+00	0	41	0	298844160	59	4311
2026-01-30 09:50:48.53	158.48	18.61	-44.4	-45.7	20.9	0.00e+00	0	41	0	299892736	59	4416
2026-01-30 09:50:49.52	158.50	18.74	-44.2	-45.6	21.1	0.00e+00	0	41	0	301989888	59	4341
2026-01-30 09:50:50.53	158.51	18.86	-44.3	-45.6	21.0	0.00e+00	0	41	0	304087040	59	4388
2026-01-30 09:50:51.53	158.53	18.99	-44.3	-45.6	21.0	0.00e+00	0	41	0	306184192	59	4383
2026-01-30 09:50:52.54	158.55	19.12	-44.4	-45.7	20.9	0.00e+00	0	41	0	308281344	59	4424
2026-01-30 09:50:53.54	158.57	19.24	-44.5	-45.8	20.8	0.00e+00	0	41	0	310378496	59	4475
2026-01-30 09:50:54.55	158.59	19.37	-44.5	-45.9	20.8	0.00e+00	0	41	0	311427072	59	4501
2026-01-30 09:50:55.56	158.61	19.50	-44.3	-45.6	21.0	0.00e+00	0	41	0	313524224	59	4389
2026-01-30 09:50:56.57	158.62	19.63	-44.4	-45.7	20.9	0.00e+00	0	41	0	315621376	59	4437
2026-01-30 09:50:57.57	158.64	19.76	-44.4	-45.7	20.9	0.00e+00	0	41	0	317718528	59	4424
2026-01-30 09:50:58.58	158.66	19.89	-44.4	-45.7	20.9	0.00e+00	0	41	0	318767104	59	4426
2026-01-30 09:50:59.59	158.68	20.02	-44.5	-45.9	20.8	0.00e+00	0	41	0	320864256	59	4499
2026-01-30 09:51:00.60	158.70	20.16	-44.4	-45.7	21.0	0.00e+00	0	41	0	322961408	59	4420
2026-01-30 09:51:01.60	158.72	20.29	-44.3	-45.6	21.1	0.00e+00	0	41	0	325058560	59	4380
2026-01-30 09:51:02.61	158.74	20.42	-44.3	-45.6	21.0	0.00e+00	0	41	0	327155712	59	4343
2026-01-30 09:51:03.61	158.76	20.56	-44.4	-45.7	21.0	0.00e+00	0	41	0	328204288	59	4423
2026-01-30 09:51:04.62	158.78	20.69	-44.4	-45.8	20.9	0.00e+00	0	41	0	330301440	59	4454
2026-01-30 09:51:05.63	158.80	20.83	-44.5	-45.8	20.8	0.00e+00	0	41	0	332398592	59	4486
2026-01-30 09:51:06.64	158.82	20.96	-44.6	-46.0	20.7	0.00e+00	0	41	0	334495744	59	4561
2026-01-30 09:51:07.65	158.84	21.10	-44.3	-45.7	20.7	0.00e+00	0	41	0	336592896	60	4163
2026-01-30 09:51:08.65	158.86	21.24	-44.3	-45.6	20.7	0.00e+00	0	41	0	338690048	60	4138
2026-01-30 09:51:09.66	158.88	21.38	-44.5	-45.9	20.6	0.00e+00	0	41	0	339738624	60	4261
2026-01-30 09:51:10.67	158.90	21.52	-44.6	-46.0	20.4	0.00e+00	0	41	0	341835776	60	4307
2026-01-30 09:51:11.67	158.92	21.66	-44.7	-46.1	20.3	0.00e+00	0	41	0	343932928	60	4389
2026-01-30 09:51:12.68	158.95	21.80	-44.9	-46.4	20.0	0.00e+00	0	41	0	346030080	60	4521
2026-01-30 09:51:13.68	158.97	21.94	-44.8	-46.2	20.3	0.00e+00	0	41	0	347078656	60	4437
2026-01-30 09:51:14.69	158.99	22.08	-44.9	-46.3	20.1	0.00e+00	0	41	0	349175808	60	4482
2026-01-30 09:51:15.70	159.01	22.23	-45.1	-46.7	19.8	0.00e+00	0	41	0	351272960	61	4406
2026-01-30 09:51:16.70	159.03	22.37	-44.9	-46.4	20.1	0.00e+00	0	41	0	353370112	61	4253
2026-01-30 09:51:17.71	159.05	22.52	-45.1	-46.6	20.0	0.00e+00	0	41	0	355467264	61	4347
2026-01-30 09:51:18.72	159.08	22.66	-45.1	-46.7	19.8	0.00e+00	0	41	0	356515840	61	4405
2026-01-30 09:51:19.73	159.10	22.81	-45.1	-46.6	20.0	0.00e+00	0	41	0	358612992	61	4366
2026-01-30 09:51:20.73	159.12	22.96	-45.4	-47.0	19.6	0.00e+00	0	41	0	360710144	61	4559
2026-01-30 09:51:21.74	159.14	23.11	-45.3	-46.9	19.7	0.00e+00	0	41	0	362807296	61	4515
2026-01-30 09:51:22.75	159.17	23.26	-45.2	-46.7	19.8	0.00e+00	0	41	0	364904448	61	4427
2026-01-30 09:51:23.75	159.19	23.40	-45.3	-46.9	19.7	0.00e+00	0	41	0	367001600	61	4507
2026-01-30 09:51:24.76	159.21	23.56	-45.4	-47.0	19.6	0.00e+00	0	41	0	368050176	61	4568
2026-01-30 09:51:25.77	159.24	23.71	-45.6	-47.2	19.3	0.00e+00	0	41	0	370147328	61	4704
2026-01-30 09:51:26.78	159.26	23.86	-45.7	-47.3	19.4	0.00e+00	0	41	0	372244480	61	4737
2026-01-30 09:51:27.78	159.28	24.01	-45.7	-47.3	19.3	0.00e+00	0	41	0	374341632	61	4747
2026-01-30 09:51:28.79	159.31	24.17	-45.7	-47.3	19.3	0.00e+00	0	41	0	375390208	62	4489
2026-01-30 09:51:29.79	159.33	24.32	-45.6	-47.2	19.4	0.00e+00	0	41	0	377487360	62	4433
2026-01-30 09:51:30.80	159.36	24.48	-45.7	-47.3	19.3	0.00e+00	0	41	0	379584512	62	4488
2026-01-30 09:51:31.81	159.38	24.64	-45.7	-47.4	19.3	0.00e+00	0	41	0	381681664	62	4502
2026-01-30 09:51:32.82	159.41	24.80	-45.8	-47.4	19.3	0.00e+00	0	41	0	383778816	62	4532
2026-01-30 09:51:33.82	159.43	24.96	-45.6	-47.2	19.5	0.00e+00	0	41	0	384827392	62	4407
2026-01-30 09:51:34.83	159.46	25.12	-45.5	-47.1	19.6	0.00e+00	0	41	0	386924544	62	4372
2026-01-30 09:51:35.84	159.48	25.28	-45.6	-47.1	19.5	0.00e+00	0	41	0	389021696	62	4391
2026-01-30 09:51:36.85	159.51	25.44	-45.6	-47.2	19.5	0.00e+00	0	41	0	391118848	62	4399
2026-01-30 09:51:37.85	159.53	25.60	-45.9	-47.6	19.1	0.00e+00	0	41	0	393216000	62	4613
2026-01-30 09:51:38.86	159.56	25.77	-46.1	-47.8	18.9	0.00e+00	0	41	0	395313152	62	4737
2026-01-30 09:51:39.87	159.59	25.93	-45.7	-47.4	19.3	0.00e+00	0	41	0	396361728	62	4502
2026-01-30 09:51:40.88	159.61	26.10	-46.0	-47.8	19.0	0.00e+00	0	41	0	398458880	62	4709
2026-01-30 09:51:41.88	159.64	26.27	-46.2	-48.0	18.7	0.00e+00	0	41	0	400556032	63	4566
2026-01-30 09:51:42.89	159.67	26.44	-46.3	-48.1	18.6	0.00e+00	0	41	0	402653184	63	4629
2026-01-30 09:51:43.90	159.69	26.61	-46.1	-47.9	18.9	0.00e+00	0	41	0	403701760	63	4516
2026-01-30 09:51:44.91	159.72	26.78	-46.1	-47.9	18.9	0.00e+00	0	41	0	405798912	63	4495
2026-01-30 09:51:45.91	159.75	26.95	-46.1	-47.9	18.9	0.00e+00	0	41	0	407896064	63	4511
2026-01-30 09:51:46.92	159.78	27.12	-46.0	-47.7	19.0	0.00e+00	0	41	0	409993216	63	4430
2026-01-30 09:51:47.93	159.81	27.30	-45.7	-47.4	19.4	0.00e+00	0	41	0	412090368	63	4246
2026-01-30 09:51:48.94	159.83	27.47	-45.9	-47.5	19.2	0.00e+00	0	41	0	414187520	63	4307
2026-01-30 09:51:49.94	159.86	27.65	-45.9	-47.5	19.3	0.00e+00	0	41	0	415236096	63	4328
2026-01-30 09:51:50.95	159.89	27.82	-45.9	-47.5	19.3	0.00e+00	0	41	0	417333248	63	4293
2026-01-30 09:51:51.96	159.92	28.00	-46.1	-47.7	19.1	0.00e+00	0	41	0	419430400	63	4413
2026-01-30 09:51:52.96	159.95	28.18	-46.0	-47.6	19.1	0.00e+00	0	41	0	421527552	63	4383
2026-01-30 09:51:53.97	159.98	28.36	-46.1	-47.7	19.1	0.00e+00	0	41	0	423624704	63	4434
2026-01-30 09:51:54.97	160.01	28.54	-46.0	-47.6	19.2	0.00e+00	0	41	0	424673280	63	4389
2026-01-30 09:51:55.98	160.04	28.73	-45.9	-47.5	19.3	0.00e+00	0	41	0	426770432	63	4322
2026-01-30 09:51:56.99	160.07	28.91	-45.8	-47.4	19.3	0.00e+00	0	41	0	428867584	63	4285
2026-01-30 09:51:57.99	160.11	29.09	-46.0	-47.7	19.1	0.00e+00	0	41	0	430964736	63	4404
2026-01-30 09:51:58.99	160.14	29.28	-45.7	-47.2	19.5	0.00e+00	0	41	0	432013312	62	4427
2026-01-30 09:51:59.99	160.17	29.47	-45.5	-47.1	19.6	0.00e+00	0	41	0	434110464	62	4355
2026-01-30 09:52:01.00	160.20	29.66	-45.6	-47.2	19.5	0.00e+00	0	41	0	436207616	62	4401
2026-01-30 09:52:02.00	160.23	29.84	-45.2	-46.7	19.9	0.00e+00	0	41	0	438304768	62	4181
2026-01-30 09:52:03.01	160.27	30.04	-45.5	-47.0	19.7	0.00e+00	0	41	0	440401920	62	4322
2026-01-30 09:52:04.02	160.30	30.23	-46.0	-47.7	19.0	0.00e+00	0	41	0	441450496	62	4675
2026-01-30 09:52:05.03	160.33	30.42	-45.8	-47.5	19.2	0.00e+00	0	41	0	443547648	62	4577
2026-01-30 09:52:06.04	160.37	30.62	-46.1	-47.9	18.9	0.00e+00	0	41	0	445644800	63	4513
2026-01-30 09:52:07.05	160.40	30.82	-46.2	-47.9	18.9	0.00e+00	0	41	0	447741952	63	4536
2026-01-30 09:52:08.05	160.44	31.01	-46.0	-47.7	19.1	0.00e+00	0	41	0	449839104	63	4424
2026-01-30 09:52:09.06	160.47	31.21	-46.5	-48.4	18.4	0.00e+00	0	41	0	451936256	63	4781
2026-01-30 09:52:10.07	160.51	31.42	-46.3	-48.2	18.6	0.00e+00	0	41	0	452984832	63	4662
2026-01-30 09:52:11.07	160.54	31.62	-46.1	-47.9	18.9	0.00e+00	0	41	0	455081984	63	4520
2026-01-30 09:52:12.08	160.58	31.82	-46.6	-48.4	18.4	0.00e+00	0	41	0	457179136	63	4805
2026-01-30 09:52:13.09	160.62	32.03	-46.2	-48.0	18.9	0.00e+00	0	41	0	459276288	63	4569
2026-01-30 09:52:14.10	160.65	32.23	-46.1	-47.8	19.0	0.00e+00	0	41	0	460324864	63	4459
2026-01-30 09:52:15.11	160.69	32.44	-46.5	-48.3	18.5	0.00e+00	0	41	0	462422016	63	4724
2026-01-30 09:52:16.11	160.73	32.65	-46.7	-48.6	18.2	0.00e+00	0	41	0	464519168	64	4651
2026-01-30 09:52:17.12	160.77	32.86	-46.4	-48.2	18.5	0.00e+00	0	41	0	466616320	64	4402
2026-01-30 09:52:18.13	160.81	33.07	-47.0	-49.0	17.7	0.00e+00	0	41	0	468713472	64	4840
2026-01-30 09:52:19.13	160.85	33.29	-46.8	-48.8	17.9	0.00e+00	0	41	0	470810624	64	4752
2026-01-30 09:52:20.14	160.89	33.50	-46.4	-48.3	18.4	0.00e+00	0	41	0	471859200	64	4448
2026-01-30 09:52:21.15	160.93	33.72	-46.6	-48.6	18.1	0.00e+00	0	41	0	473956352	64	4622
2026-01-30 09:52:22.15	160.97	33.94	-46.2	-48.0	18.7	0.00e+00	0	41	0	476053504	63	4566
2026-01-30 09:52:23.16	161.01	34.16	-46.1	-47.9	18.9	0.00e+00	0	41	0	478150656	63	4502
2026-01-30 09:52:24.17	161.05	34.38	-46.1	-47.9	18.8	0.00e+00	0	41	0	480247808	63	4521
2026-01-30 09:52:25.18	161.09	34.60	-45.8	-47.5	19.2	0.00e+00	0	41	0	481296384	63	4302
2026-01-30 09:52:26.19	161.14	34.83	-45.7	-47.3	19.4	0.00e+00	0	41	0	483393536	63	4240
2026-01-30 09:52:27.19	161.18	35.05	-45.5	-47.1	19.6	0.00e+00	0	41	0	485490688	63	4143
2026-01-30 09:52:28.20	161.22	35.28	-45.0	-46.4	20.2	0.00e+00	0	41	0	487587840	61	4285
2026-01-30 09:52:29.21	161.27	35.51	-44.6	-46.0	20.5	0.00e+00	0	41	0	488636416	61	4085
2026-01-30 09:52:30.22	161.31	35.74	-44.5	-45.8	20.7	0.00e+00	0	41	0	490733568	61	4000
2026-01-30 09:52:31.23	161.36	35.97	-44.3	-45.6	20.8	0.00e+00	0	41	0	492830720	60	4145
2026-01-30 09:52:32.23	161.41	36.21	-44.4	-45.8	21.0	0.00e+00	0	41	0	494927872	59	4464
2026-01-30 09:52:33.24	161.45	36.44	-44.3	-45.7	21.1	0.00e+00	0	41	0	497025024	59	4411
2026-01-30 09:52:34.25	161.50	36.68	-44.1	-45.4	21.3	0.00e+00	0	41	0	499122176	59	4275
2026-01-30 09:52:35.25	161.55	36.92	-44.1	-45.4	21.5	0.00e+00	0	41	0	500170752	59	4277
2026-01-30 09:52:36.26	161.60	37.16	-44.0	-45.2	21.5	0.00e+00	0	42	0	502267904	59	4185
2026-01-30 09:52:37.27	161.65	37.40	-44.1	-45.4	21.5	0.00e+00	0	41	0	504365056	59	4255
2026-01-30 09:52:38.28	161.70	37.65	-43.9	-45.2	21.6	0.00e+00	0	41	0	506462208	59	4152
2026-01-30 09:52:39.28	161.75	37.89	-44.1	-45.4	21.4	0.00e+00	0	41	0	508559360	59	4266
2026-01-30 09:52:40.28	161.80	38.14	-43.8	-45.1	21.5	0.00e+00	0	41	0	509607936	59	4114
2026-01-30 09:52:41.29	161.85	38.39	-44.1	-45.4	21.3	0.00e+00	0	41	0	511705088	59	4277
2026-01-30 09:52:42.30	161.91	38.64	-43.6	-44.8	21.9	0.00e+00	0	41	0	513802240	59	3995
2026-01-30 09:52:43.30	161.96	38.90	-43.6	-44.8	21.7	0.00e+00	0	41	0	515899392	59	3974
2026-01-30 09:52:44.31	162.01	39.15	-43.7	-45.0	21.7	0.00e+00	0	41	0	516947968	59	4058
2026-01-30 09:52:45.32	162.07	39.41	-43.8	-45.0	21.7	0.00e+00	0	41	0	519045120	59	4093
2026-01-30 09:52:46.33	162.13	39.67	-44.0	-45.3	21.5	0.00e+00	0	41	0	521142272	59	4199
2026-01-30 09:52:47.33	162.18	39.93	-43.6	-44.9	21.9	0.00e+00	0	41	0	523239424	59	4023
2026-01-30 09:52:48.34	162.24	40.19	-43.8	-45.0	21.8	0.00e+00	0	41	0	525336576	59	4091
2026-01-30 09:52:49.35	162.30	40.46	-44.0	-45.3	21.5	0.00e+00	0	41	0	527433728	59	4224
2026-01-30 09:52:50.35	162.36	40.73	-44.5	-45.9	21.0	0.00e+00	0	41	0	528482304	59	4525
2026-01-30 09:52:51.36	162.42	41.00	-44.6	-46.1	20.6	0.00e+00	0	41	0	530579456	60	4341
2026-01-30 09:52:52.36	162.48	41.26	-44.9	-46.4	20.2	0.00e+00	0	41	0	532676608	60	4508
2026-01-30 09:52:53.37	162.54	41.54	-45.0	-46.5	20.1	0.00e+00	0	41	0	534773760	60	4567
2026-01-30 09:52:54.37	162.61	41.81	-45.1	-46.7	20.0	0.00e+00	0	41	0	536870912	61	4401
2026-01-30 09:52:55.37	162.67	42.09	-45.4	-47.1	19.5	0.00e+00	0	41	0	537919488	61	4631
2026-01-30 09:52:56.38	162.74	42.37	-45.3	-47.0	19.8	0.00e+00	0	41	0	540016640	61	4558
2026-01-30 09:52:57.39	162.81	42.65	-45.4	-47.0	19.7	0.00e+00	0	41	0	542113792	61	4592
2026-01-30 09:52:58.39	162.87	42.93	-45.3	-47.0	19.8	0.00e+00	0	41	0	544210944	61	4567
2026-01-30 09:52:59.39	162.94	43.21	-45.2	-46.8	19.8	0.00e+00	0	41	0	545259520	61	4475
2026-01-30 09:53:00.40	163.01	43.50	-45.2	-46.8	19.8	0.00e+00	0	41	0	547356672	61	4459
2026-01-30 09:53:01.41	163.08	43.79	-44.7	-46.2	20.4	0.00e+00	0	41	0	549453824	61	4177
2026-01-30 09:53:02.42	163.16	44.09	-44.8	-46.3	20.4	0.00e+00	0	41	0	551550976	61	4199
2026-01-30 09:53:03.43	163.23	44.38	-44.3	-45.6	20.9	0.00e+00	0	41	0	553648128	60	4142
2026-01-30 09:53:04.43	163.31	44.67	-44.5	-45.9	21.0	0.00e+00	0	41	0	554696704	59	4525
2026-01-30 09:53:05.44	163.38	44.97	-44.5	-45.9	21.0	0.00e+00	0	41	0	556793856	59	4504
2026-01-30 09:53:06.45	163.46	45.27	-44.4	-45.8	21.0	0.00e+00	0	41	0	558891008	59	4472
2026-01-30 09:53:07.45	163.54	45.58	-44.7	-46.2	20.8	0.00e+00	0	41	0	560988160	59	4677
2026-01-30 09:53:08.46	163.62	45.88	-44.5	-45.9	20.8	0.00e+00	0	41	0	563085312	60	4253
2026-01-30 09:53:09.47	163.70	46.19	-45.0	-46.5	20.2	0.00e+00	0	41	0	565182464	60	4590
2026-01-30 09:53:10.48	163.79	46.50	-45.0	-46.5	20.2	0.00e+00	0	41	0	566231040	60	4577
2026-01-30 09:53:11.48	163.87	46.81	-45.4	-47.0	19.8	0.00e+00	0	41	0	568328192	61	4565
2026-01-30 09:53:12.49	163.96	47.12	-45.6	-47.2	19.6	0.00e+00	0	41	0	570425344	62	4420
2026-01-30 09:53:13.50	164.05	47.44	-45.9	-47.6	19.2	0.00e+00	0	41	0	572522496	62	4625
2026-01-30 09:53:14.51	164.14	47.76	-46.6	-48.4	18.5	0.00e+00	0	41	0	573571072	63	4795
2026-01-30 09:53:15.51	164.23	48.08	-46.5	-48.4	18.2	0.00e+00	0	41	0	575668224	64	4521
2026-01-30 09:53:16.53	164.33	48.41	-46.8	-48.8	18.0	0.00e+00	0	41	0	577765376	64	4747
2026-01-30 09:53:17.53	164.42	48.73	-46.4	-48.4	18.3	0.00e+00	0	41	0	579862528	64	4496
2026-01-30 09:53:18.54	164.52	49.06	-46.8	-48.9	17.9	0.00e+00	0	41	0	581959680	64	4774
2026-01-30 09:53:19.54	164.62	49.39	-46.1	-47.9	18.9	0.00e+00	0	41	0	584056832	64	4250
2026-01-30 09:53:20.54	164.72	49.72	-45.3	-46.8	19.8	0.00e+00	0	41	0	585105408	62	4201
2026-01-30 09:53:21.55	164.83	50.05	-44.8	-46.2	20.4	0.00e+00	0	41	0	587202560	61	4149
2026-01-30 09:53:22.56	164.94	50.39	-44.4	-45.7	20.9	0.00e+00	0	41	0	589299712	60	4191
2026-01-30 09:53:23.57	165.05	50.73	-44.1	-45.4	21.2	0.00e+00	0	41	0	591396864	60	4005
2026-01-30 09:53:24.57	165.16	51.07	-43.8	-45.1	21.7	0.00e+00	0	41	0	593494016	59	4106
2026-01-30 09:53:25.58	165.27	51.42	-43.4	-44.6	22.1	0.00e+00	0	41	0	594542592	58	4120
2026-01-30 09:53:26.59	165.39	51.76	-43.0	-44.1	22.4	0.00e+00	0	41	0	596639744	57	4101
2026-01-30 09:53:27.59	165.51	52.11	-43.4	-44.6	22.1	0.00e+00	0	41	0	598736896	57	4370
2026-01-30 09:53:28.60	165.63	52.46	-43.6	-44.8	22.0	0.00e+00	0	41	0	600834048	57	4465
2026-01-30 09:53:29.61	165.75	52.82	-43.9	-45.2	21.6	0.00e+00	0	41	0	601882624	58	4437
2026-01-30 09:53:30.62	165.88	53.18	-43.9	-45.3	21.6	0.00e+00	0	41	0	603979776	58	4444
2026-01-30 09:53:31.62	166.01	53.53	-44.3	-45.7	21.3	0.00e+00	0	41	0	606076928	59	4411
2026-01-30 09:53:32.63	166.15	53.89	-44.2	-45.6	21.3	0.00e+00	0	41	0	608174080	59	4384
2026-01-30 09:53:33.64	166.28	54.26	-43.9	-45.3	21.6	0.00e+00	0	41	0	610271232	59	4207
2026-01-30 09:53:34.65	166.43	54.63	-43.7	-44.9	21.9	0.00e+00	0	41	0	612368384	58	4282
2026-01-30 09:53:35.66	166.57	55.00	-43.8	-45.1	21.8	0.00e+00	0	41	0	613416960	58	4364
2026-01-30 09:53:36.67	166.72	55.37	-43.9	-45.2	21.8	0.00e+00	0	41	0	615514112	58	4409
2026-01-30 09:53:37.68	166.87	55.74	-43.3	-44.5	22.3	0.00e+00	0	41	0	617611264	58	4056
2026-01-30 09:53:38.68	167.03	56.12	-42.8	-43.9	22.8	0.00e+00	0	41	0	619708416	57	4033
2026-01-30 09:53:39.69	167.19	56.50	-42.6	-43.7	22.9	0.00e+00	0	41	0	621805568	57	3922
2026-01-30 09:53:40.70	167.35	56.88	-42.7	-43.9	22.9	0.00e+00	0	41	0	622854144	57	4017
2026-01-30 09:53:41.70	167.52	57.26	-42.6	-43.7	23.0	0.00e+00	0	41	0	624951296	56	4169
2026-01-30 09:53:42.71	167.69	57.64	-43.1	-44.2	22.6	0.00e+00	0	41	0	627048448	56	4439
2026-01-30 09:53:43.72	167.87	58.03	-43.0	-44.0	22.7	0.00e+00	0	41	0	629145600	57	4083
2026-01-30 09:53:44.73	168.06	58.42	-43.0	-44.1	22.7	0.00e+00	0	41	0	630194176	57	4120
2026-01-30 09:53:45.73	168.25	58.81	-43.5	-44.6	22.1	0.00e+00	0	41	0	632291328	57	4384
2026-01-30 09:53:46.74	168.44	59.21	-43.4	-44.5	22.2	0.00e+00	0	41	0	634388480	57	4340
2026-01-30 09:53:47.75	168.64	59.61	-42.9	-43.9	22.7	0.00e+00	0	41	0	636485632	57	4042
2026-01-30 09:53:48.76	168.85	60.01	-42.5	-43.5	23.1	0.00e+00	0	41	0	638582784	57	3846
2026-01-30 09:53:49.76	169.06	60.40	-42.4	-43.4	23.1	0.00e+00	0	41	0	640679936	56	4027
2026-01-30 09:53:50.77	169.28	60.81	-42.9	-44.0	22.7	0.00e+00	0	41	0	641728512	56	4297
2026-01-30 09:53:51.78	169.51	61.21	-43.7	-44.9	21.9	0.00e+00	0	41	0	643825664	58	4286
2026-01-30 09:53:52.78	169.74	61.62	-44.3	-45.6	21.4	0.00e+00	0	41	0	645922816	59	4353
2026-01-30 09:53:53.79	169.98	62.03	-44.1	-45.4	21.5	0.00e+00	0	41	0	648019968	59	4262
2026-01-30 09:53:54.80	170.24	62.44	-43.2	-44.3	22.4	0.00e+00	0	41	0	650117120	58	3966
2026-01-30 09:53:55.80	170.49	62.85	-42.6	-43.6	22.9	0.00e+00	0	41	0	651165696	56	4126
2026-01-30 09:53:56.81	170.76	63.27	-42.2	-43.2	23.2	0.00e+00	0	41	0	653262848	56	3955
2026-01-30 09:53:57.82	171.04	63.69	-42.3	-43.3	23.1	0.00e+00	0	41	0	655360000	55	4226
2026-01-30 09:53:58.82	171.32	64.11	-42.5	-43.5	23.0	0.00e+00	0	41	0	657457152	55	4338
2026-01-30 09:53:59.82	171.62	64.52	-43.1	-44.2	22.6	0.00e+00	0	41	0	658505728	56	4408
2026-01-30 09:54:00.83	171.93	64.95	-44.1	-45.3	21.8	0.00e+00	0	41	0	660602880	58	4473
2026-01-30 09:54:01.84	172.25	65.37	-44.5	-45.8	21.0	0.00e+00	0	41	0	662700032	60	4215
2026-01-30 09:54:02.85	172.58	65.80	-44.7	-46.0	20.7	0.00e+00	0	41	0	664797184	60	4324
2026-01-30 09:54:03.85	172.92	66.23	-44.7	-46.0	20.8	0.00e+00	0	41	0	666894336	60	4292
2026-01-30 09:54:04.86	173.28	66.66	-44.1	-45.3	21.7	0.00e+00	0	41	0	668991488	59	4205
2026-01-30 09:54:05.87	173.66	67.09	-44.2	-45.4	21.7	0.00e+00	0	41	0	670040064	59	4271
2026-01-30 09:54:06.88	174.05	67.52	-44.3	-45.5	21.6	0.00e+00	0	41	0	672137216	59	4305
2026-01-30 09:54:07.88	174.45	67.95	-44.5	-45.7	21.4	0.00e+00	0	41	0	674234368	59	4430
2026-01-30 09:54:08.89	174.88	68.39	-45.2	-46.6	20.4	0.00e+00	0	41	0	676331520	60	4614
2026-01-30 09:54:09.90	175.32	68.82	-46.3	-47.8	19.4	0.00e+00	0	41	0	678428672	63	4488
2026-01-30 09:54:10.91	175.79	69.26	-46.6	-48.2	18.9	0.00e+00	0	41	0	679477248	64	4416
2026-01-30 09:54:11.92	176.27	69.70	-47.0	-48.8	18.3	0.00e+00	0	41	0	681574400	64	4725
2026-01-30 09:54:12.93	176.78	70.14	-47.5	-49.4	17.9	0.00e+00	0	41	0	683671552	65	4797
2026-01-30 09:54:13.93	177.30	70.57	-47.4	-49.3	17.9	0.00e+00	0	41	0	685768704	66	4449
2026-01-30 09:54:14.94	177.86	71.01	-46.7	-48.3	18.8	0.00e+00	0	41	0	687865856	64	4468
2026-01-30 09:54:15.94	178.44	71.45	-45.7	-47.1	19.9	0.00e+00	0	41	0	688914432	63	4109
2026-01-30 09:54:16.95	179.06	71.89	-45.8	-47.2	20.1	0.00e+00	0	41	0	691011584	63	4151
2026-01-30 09:54:17.96	179.70	72.33	-45.7	-47.0	20.2	0.00e+00	0	41	0	693108736	62	4338
2026-01-30 09:54:18.97	180.39	72.77	-45.4	-46.7	20.4	0.00e+00	0	41	0	695205888	62	4181
2026-01-30 09:54:19.97	181.10	73.20	-45.7	-47.1	20.1	0.00e+00	0	41	0	697303040	62	4382
2026-01-30 09:54:20.98	181.86	73.64	-46.3	-47.9	19.2	0.00e+00	0	41	0	698351616	63	4531
2026-01-30 09:54:21.99	182.66	74.07	-45.8	-47.2	19.8	0.00e+00	0	41	0	700448768	63	4189
2026-01-30 09:54:22.99	183.50	74.50	-45.5	-46.9	20.2	0.00e+00	0	41	0	702545920	63	4014
2026-01-30 09:54:24.00	184.40	74.94	-47.2	-49.1	18.2	0.00e+00	0	41	0	704643072	64	4888
2026-01-30 09:54:25.01	185.36	75.37	-49.0	-51.6	15.9	0.00e+00	0	41	0	706740224	68	5213
2026-01-30 09:54:26.02	186.37	75.79	-48.3	-50.5	16.7	0.00e+00	0	41	0	707788800	68	4560
2026-01-30 09:54:27.03	187.45	76.22	-47.2	-49.0	18.2	0.00e+00	0	41	0	709885952	66	4310
2026-01-30 09:54:28.04	188.60	76.64	-47.2	-49.1	18.1	0.00e+00	0	41	0	711983104	66	4357
2026-01-30 09:54:29.04	189.81	77.05	-47.9	-50.2	17.0	0.00e+00	0	41	0	714080256	66	4974
2026-01-30 09:54:30.05	191.12	77.46	-49.3	-52.5	14.9	0.00e+00	0	41	0	716177408	69	5407
2026-01-30 09:54:31.05	192.50	77.86	-50.1	-53.9	13.5	1.37e-05	0	41	0	717225984	71	5715
2026-01-30 09:54:32.06	193.99	78.26	-49.0	-51.7	15.7	9.90e-06	0	41	0	719323136	69	4930
2026-01-30 09:54:33.07	195.60	78.65	-48.8	-51.4	15.8	0.00e+00	0	41	0	721420288	69	4813
2026-01-30 09:54:34.07	197.29	79.03	-48.6	-51.0	16.2	0.00e+00	0	41	0	723517440	68	4867
2026-01-30 09:54:35.08	199.13	79.41	-47.9	-50.0	17.2	0.00e+00	0	41	0	725614592	67	4555
2026-01-30 09:54:36.09	201.11	79.77	-47.8	-49.9	17.3	0.00e+00	0	41	0	726663168	66	4802
2026-01-30 09:54:37.10	203.23	80.12	-48.7	-51.2	16.0	0.00e+00	0	41	0	728760320	67	5275
2026-01-30 09:54:38.10	205.48	80.46	-49.3	-52.2	15.4	0.00e+00	0	41	0	730857472	69	5236
2026-01-30 09:54:39.11	207.92	80.78	-47.8	-49.9	17.3	0.00e+00	0	41	0	732954624	67	4510
2026-01-30 09:54:40.11	210.50	81.08	-47.0	-48.8	18.5	0.00e+00	0	41	0	735051776	65	4442
2026-01-30 09:54:41.12	213.30	81.37	-46.1	-47.7	19.2	0.00e+00	0	41	0	736100352	64	4165
2026-01-30 09:54:42.13	216.27	81.63	-45.4	-46.8	20.3	0.00e+00	0	41	0	738197504	62	4215
2026-01-30 09:54:43.13	219.41	81.87	-45.4	-46.7	20.4	0.00e+00	0	41	0	740294656	62	4169
2026-01-30 09:54:44.14	222.76	82.09	-45.6	-47.0	20.3	0.00e+00	0	41	0	742391808	62	4296
2026-01-30 09:54:45.14	226.25	82.27	-45.3	-46.7	20.4	0.00e+00	0	41	0	744488960	62	4155
2026-01-30 09:54:46.15	229.93	82.43	-45.3	-46.7	20.5	0.00e+00	0	41	0	745537536	62	4146
2026-01-30 09:54:47.16	233.76	82.56	-45.1	-46.5	20.6	0.00e+00	0	41	0	747634688	62	4062
2026-01-30 09:54:48.17	237.70	82.65	-45.2	-46.5	20.6	0.00e+00	0	41	0	749731840	62	4086
2026-01-30 09:54:49.18	241.73	82.71	-45.5	-46.9	20.2	0.00e+00	0	41	0	751828992	62	4268
2026-01-30 09:54:50.18	245.76	82.73	-45.2	-46.5	20.6	0.00e+00	0	41	0	753926144	62	4095
2026-01-30 09:54:51.18	249.79	82.71	-44.6	-45.9	21.3	0.00e+00	0	41	0	754974720	61	4005
2026-01-30 09:54:52.19	253.82	82.66	-44.1	-45.2	21.8	0.00e+00	0	41	0	757071872	60	3940
2026-01-30 09:54:53.20	257.78	82.57	-43.7	-44.7	22.5	0.00e+00	0	41	0	759169024	59	3934
2026-01-30 09:54:54.21	261.63	82.45	-42.9	-43.8	23.3	0.00e+00	0	41	0	761266176	57	3979
2026-01-30 09:54:55.22	265.34	82.30	-44.6	-45.8	21.7	0.00e+00	0	41	0	763363328	59	4444
2026-01-30 09:54:56.23	268.90	82.12	-47.0	-48.7	18.7	0.00e+00	0	41	0	764411904	64	4694
2026-01-30 09:54:57.24	272.27	81.91	-46.8	-48.5	18.9	0.00e+00	0	41	0	766509056	65	4305
2026-01-30 09:54:58.25	275.47	81.67	-46.8	-48.4	18.9	0.00e+00	0	41	0	768606208	64	4541
2026-01-30 09:54:59.25	278.44	81.41	-47.4	-49.2	17.8	0.00e+00	0	41	0	770703360	65	4683
2026-01-30 09:55:00.26	281.26	81.13	-45.9	-47.2	20.1	0.00e+00	0	41	0	772800512	63	4177
2026-01-30 09:55:01.27	283.90	80.83	-46.7	-48.2	19.0	0.00e+00	0	41	0	773849088	64	4430
2026-01-30 09:55:02.27	286.34	80.51	-48.3	-50.6	16.9	0.00e+00	0	41	0	775946240	67	4882
2026-01-30 09:55:03.28	288.64	80.17	-46.2	-47.7	19.5	0.00e+00	0	41	0	778043392	64	4175
2026-01-30 09:55:04.29	290.78	79.83	-46.7	-48.3	19.3	0.00e+00	0	41	0	780140544	63	4734
2026-01-30 09:55:05.29	292.76	79.47	-48.9	-51.5	15.7	0.00e+00	0	41	0	782237696	68	5108
2026-01-30 09:55:06.30	294.62	79.10	-47.3	-49.1	18.2	0.00e+00	0	41	0	783286272	66	4350
2026-01-30 09:55:07.30	296.34	78.72	-46.3	-47.8	19.6	0.00e+00	0	41	0	785383424	64	4205
2026-01-30 09:55:08.31	297.95	78.33	-46.4	-47.9	19.5	0.00e+00	0	41	0	787480576	63	4500
2026-01-30 09:55:09.31	299.45	77.94	-46.0	-47.3	20.0	0.00e+00	0	41	0	789577728	63	4238
2026-01-30 09:55:10.32	300.86	77.53	-46.5	-48.0	19.4	0.00e+00	0	41	0	791674880	63	4579
2026-01-30 09:55:11.33	302.18	77.12	-45.7	-47.0	20.4	0.00e+00	0	41	0	792723456	63	4093
2026-01-30 09:55:12.33	303.41	76.71	-45.8	-47.1	20.2	0.00e+00	0	41	0	794820608	63	4138
2026-01-30 09:55:13.34	304.57	76.29	-47.0	-48.9	18.6	0.00e+00	0	41	0	796917760	64	4766
2026-01-30 09:55:14.35	305.66	75.87	-46.9	-48.6	18.7	0.00e+00	0	41	0	799014912	65	4386
2026-01-30 09:55:15.36	306.68	75.44	-45.8	-47.2	20.3	0.00e+00	0	41	0	801112064	63	4154
2026-01-30 09:55:16.36	307.64	75.02	-45.6	-46.9	20.5	0.00e+00	0	41	0	802160640	63	4016
2026-01-30 09:55:17.37	308.54	74.59	-44.4	-45.5	21.6	0.00e+00	0	41	0	804257792	60	4079
2026-01-30 09:55:18.37	309.39	74.16	-44.3	-45.4	22.0	0.00e+00	0	41	0	806354944	59	4250
2026-01-30 09:55:19.38	310.20	73.72	-44.7	-45.8	21.4	0.00e+00	0	41	0	808452096	60	4233
2026-01-30 09:55:20.39	310.97	73.29	-45.4	-46.7	20.4	0.00e+00	0	41	0	810549248	61	4400
2026-01-30 09:55:21.40	311.69	72.85	-45.1	-46.4	20.9	0.00e+00	0	41	0	811597824	61	4254
2026-01-30 09:55:22.41	312.38	72.41	-46.0	-47.4	20.1	0.00e+00	0	41	0	813694976	62	4515
2026-01-30 09:55:23.42	313.04	71.97	-45.8	-47.2	20.1	0.00e+00	0	41	0	815792128	63	4186
2026-01-30 09:55:24.42	313.65	71.54	-46.2	-47.7	19.7	0.00e+00	0	41	0	817889280	63	4435
2026-01-30 09:55:25.43	314.24	71.10	-48.0	-50.2	17.2	0.00e+00	0	41	0	819986432	66	4935
2026-01-30 09:55:26.44	314.80	70.66	-48.6	-51.0	16.6	0.00e+00	0	41	0	821035008	69	4579
2026-01-30 09:55:27.45	315.34	70.22	-48.0	-50.1	17.4	0.00e+00	0	41	0	823132160	68	4341
2026-01-30 09:55:28.45	315.84	69.79	-46.9	-48.6	18.9	0.00e+00	0	42	0	825229312	65	4347
2026-01-30 09:55:29.46	316.33	69.35	-47.7	-49.6	17.9	0.00e+00	0	41	0	827326464	65	4918
2026-01-30 09:55:30.46	316.79	68.92	-49.8	-52.9	15.0	0.00e+00	0	41	0	829423616	70	5346
2026-01-30 09:55:31.47	317.24	68.48	-49.9	-53.0	14.0	7.00e-07	0	41	0	830472192	71	5154
2026-01-30 09:55:32.48	317.67	68.05	-48.9	-51.3	16.3	0.00e+00	0	41	0	832569344	69	4753
2026-01-30 09:55:33.49	318.08	67.61	-45.9	-47.2	20.0	0.00e+00	0	41	0	834666496	63	4184
2026-01-30 09:55:34.50	318.47	67.18	-44.0	-45.1	22.0	0.00e+00	0	41	0	836763648	60	3883
2026-01-30 09:55:35.51	318.85	66.75	-44.0	-45.0	22.3	0.00e+00	0	41	0	838860800	59	4094
2026-01-30 09:55:36.52	319.21	66.32	-44.6	-45.7	21.5	0.00e+00	0	41	0	839909376	60	4185
2026-01-30 09:55:37.53	319.56	65.89	-44.4	-45.6	21.5	0.00e+00	0	41	0	842006528	60	4116
2026-01-30 09:55:38.53	319.89	65.47	-44.3	-45.4	22.0	0.00e+00	0	41	0	844103680	59	4290
2026-01-30 09:55:39.54	320.22	65.04	-43.8	-44.9	22.3	0.00e+00	0	41	0	846200832	59	4020
2026-01-30 09:55:40.55	320.53	64.62	-45.2	-46.6	20.6	0.00e+00	0	41	0	848297984	60	4614
2026-01-30 09:55:41.55	320.82	64.20	-47.2	-49.3	18.0	0.00e+00	0	41	0	849346560	64	5017
2026-01-30 09:55:42.55	321.11	63.79	-45.2	-46.6	20.3	0.00e+00	0	41	0	851443712	62	4132
2026-01-30 09:55:43.55	321.39	63.37	-44.3	-45.5	21.5	0.00e+00	0	41	0	853540864	60	4086
2026-01-30 09:55:44.56	321.66	62.95	-44.5	-45.8	21.1	0.00e+00	0	41	0	855638016	60	4220
2026-01-30 09:55:45.57	321.92	62.54	-44.2	-45.4	21.6	0.00e+00	0	41	0	857735168	60	4018
2026-01-30 09:55:46.58	322.17	62.13	-44.4	-45.6	21.2	0.00e+00	0	41	0	858783744	60	4145
2026-01-30 09:55:47.58	322.41	61.72	-44.7	-46.0	21.0	0.00e+00	0	41	0	860880896	60	4318
2026-01-30 09:55:48.59	322.65	61.31	-44.6	-45.9	21.2	0.00e+00	0	41	0	862978048	60	4260
2026-01-30 09:55:49.59	322.87	60.91	-43.5	-44.6	22.5	0.00e+00	0	41	0	865075200	59	3877
2026-01-30 09:55:50.60	323.10	60.51	-42.9	-43.9	23.0	0.00e+00	0	41	0	867172352	57	4050
2026-01-30 09:55:51.60	323.31	60.11	-43.4	-44.6	22.4	0.00e+00	0	41	0	868220928	57	4343
2026-01-30 09:55:52.61	323.52	59.71	-44.1	-45.3	21.7	0.00e+00	0	41	0	870318080	58	4462
2026-01-30 09:55:53.62	323.72	59.31	-44.4	-45.8	20.9	0.00e+00	0	41	0	872415232	60	4215
2026-01-30 09:55:54.63	323.92	58.92	-44.6	-46.1	20.6	0.00e+00	0	41	0	874512384	60	4348
2026-01-30 09:55:55.63	324.11	58.53	-44.7	-46.1	20.7	0.00e+00	0	41	0	876609536	60	4377
2026-01-30 09:55:56.64	324.29	58.14	-44.4	-45.8	21.4	0.00e+00	0	41	0	877658112	59	4455
2026-01-30 09:55:57.64	324.47	57.76	-44.7	-46.1	20.9	0.00e+00	0	41	0	879755264	60	4376
2026-01-30 09:55:58.65	324.64	57.37	-44.4	-45.7	21.2	0.00e+00	0	41	0	881852416	60	4160
2026-01-30 09:55:59.66	324.82	56.99	-43.5	-44.6	22.4	0.00e+00	0	41	0	883949568	59	3905
2026-01-30 09:56:00.67	324.98	56.61	-43.3	-44.5	22.4	0.00e+00	0	41	0	886046720	58	4059
2026-01-30 09:56:01.67	325.14	56.23	-44.2	-45.4	21.6	0.00e+00	0	41	0	887095296	59	4271
2026-01-30 09:56:02.68	325.30	55.85	-44.2	-45.4	21.7	0.00e+00	0	41	0	889192448	59	4289
2026-01-30 09:56:03.69	325.45	55.48	-44.0	-45.3	21.7	0.00e+00	0	41	0	891289600	59	4194
2026-01-30 09:56:04.70	325.60	55.11	-44.6	-45.9	21.3	0.00e+00	0	41	0	893386752	59	4515
2026-01-30 09:56:05.70	325.75	54.74	-44.9	-46.3	20.5	0.00e+00	0	41	0	895483904	60	4472
2026-01-30 09:56:06.71	325.89	54.38	-45.1	-46.6	20.2	0.00e+00	0	41	0	896532480	61	4360
2026-01-30 09:56:07.71	326.02	54.02	-44.7	-46.1	20.8	0.00e+00	0	41	0	898629632	61	4113
2026-01-30 09:56:08.72	326.16	53.65	-44.5	-45.9	21.0	0.00e+00	0	41	0	900726784	60	4249
2026-01-30 09:56:09.73	326.29	53.30	-45.4	-47.0	19.9	0.00e+00	0	41	0	902823936	61	4551
2026-01-30 09:56:10.74	326.42	52.94	-46.0	-47.7	19.2	0.00e+00	0	41	0	904921088	62	4691
2026-01-30 09:56:11.74	326.55	52.59	-46.0	-47.7	19.2	0.00e+00	0	42	0	905969664	63	4407
2026-01-30 09:56:12.75	326.67	52.23	-45.4	-46.9	20.0	0.00e+00	0	41	0	908066816	62	4282
2026-01-30 09:56:13.76	326.79	51.89	-44.6	-46.0	20.9	0.00e+00	0	41	0	910163968	61	4055
2026-01-30 09:56:14.77	326.91	51.54	-44.5	-45.8	21.1	0.00e+00	0	41	0	912261120	60	4219
2026-01-30 09:56:15.77	327.02	51.20	-44.9	-46.3	20.7	0.00e+00	0	41	0	914358272	60	4480
2026-01-30 09:56:16.78	327.13	50.85	-45.8	-47.6	19.5	0.00e+00	0	41	0	915406848	62	4607
2026-01-30 09:56:17.78	327.24	50.52	-46.2	-48.1	18.8	0.00e+00	0	41	0	917504000	63	4604
2026-01-30 09:56:18.79	327.35	50.18	-46.3	-48.1	18.9	0.00e+00	0	41	0	919601152	63	4637
2026-01-30 09:56:19.80	327.45	49.84	-45.9	-47.5	19.5	0.00e+00	0	41	0	921698304	63	4314
2026-01-30 09:56:20.80	327.56	49.51	-45.6	-47.2	19.7	0.00e+00	0	41	0	923795456	63	4183
2026-01-30 09:56:21.81	327.66	49.18	-45.5	-47.1	19.9	0.00e+00	0	41	0	924844032	62	4358
2026-01-30 09:56:22.82	327.76	48.86	-45.3	-46.8	20.2	0.00e+00	0	41	0	926941184	61	4466
2026-01-30 09:56:23.82	327.85	48.53	-45.0	-46.4	20.5	0.00e+00	0	41	0	929038336	61	4259
2026-01-30 09:56:24.82	327.95	48.21	-45.0	-46.4	20.4	0.00e+00	0	41	0	931135488	61	4283
2026-01-30 09:56:25.83	328.04	47.89	-46.0	-47.6	19.5	0.00e+00	0	41	0	933232640	62	4630
2026-01-30 09:56:26.84	328.13	47.57	-47.7	-50.1	16.9	0.00e+00	0	41	0	934281216	65	5212
2026-01-30 09:56:27.85	328.22	47.25	-49.0	-52.5	14.6	0.00e+00	0	41	0	936378368	68	5787
2026-01-30 09:56:28.85	328.31	46.94	-49.3	-53.1	14.0	3.00e-06	0	41	0	938475520	69	5821
2026-01-30 09:56:29.86	328.40	46.63	-48.1	-50.8	16.4	0.00e+00	0	41	0	940572672	68	4710
2026-01-30 09:56:30.87	328.48	46.32	-45.9	-47.5	19.6	0.00e+00	0	41	0	942669824	63	4329
2026-01-30 09:56:31.87	328.56	46.02	-44.9	-46.3	20.6	0.00e+00	0	41	0	943718400	61	4230
2026-01-30 09:56:32.88	328.64	45.71	-44.8	-46.1	20.8	0.00e+00	0	41	0	945815552	61	4138
2026-01-30 09:56:33.89	328.72	45.41	-45.8	-47.4	19.7	0.00e+00	0	41	0	947912704	62	4525
2026-01-30 09:56:34.89	328.80	45.11	-46.4	-48.2	18.8	0.00e+00	0	41	0	950009856	63	4703
2026-01-30 09:56:35.90	328.88	44.81	-47.4	-49.7	17.4	0.00e+00	0	41	0	952107008	65	4958
2026-01-30 09:56:36.91	328.96	44.52	-46.4	-48.2	18.7	0.00e+00	0	41	0	953155584	64	4441
2026-01-30 09:56:37.91	329.03	44.22	-46.1	-47.9	19.1	0.00e+00	0	41	0	955252736	64	4255
2026-01-30 09:56:38.92	329.10	43.93	-46.2	-48.0	18.9	0.00e+00	0	41	0	957349888	64	4309
2026-01-30 09:56:39.93	329.18	43.64	-46.5	-48.5	18.5	0.00e+00	0	41	0	959447040	64	4563
2026-01-30 09:56:40.93	329.25	43.36	-45.9	-47.7	19.4	0.00e+00	0	41	0	961544192	63	4401
2026-01-30 09:56:41.95	329.32	43.07	-45.9	-47.6	19.5	0.00e+00	0	41	0	962592768	63	4351
2026-01-30 09:56:42.95	329.38	42.79	-45.4	-46.9	20.0	0.00e+00	0	41	0	964689920	62	4261
2026-01-30 09:56:43.95	329.45	42.51	-44.3	-45.6	21.3	0.00e+00	0	41	0	966787072	59	4351
2026-01-30 09:56:44.96	329.52	42.23	-44.0	-45.2	21.7	0.00e+00	0	41	0	968884224	59	4159
2026-01-30 09:56:45.97	329.58	41.95	-43.8	-45.0	21.9	0.00e+00	0	41	0	970981376	59	4057
2026-01-30 09:56:46.98	329.65	41.68	-44.3	-45.6	21.3	0.00e+00	0	41	0	972029952	59	4380
2026-01-30 09:56:47.99	329.71	41.40	-44.3	-45.6	21.3	0.00e+00	0	41	0	974127104	59	4373
2026-01-30 09:56:48.99	329.77	41.13	-44.9	-46.4	20.5	0.00e+00	0	41	0	976224256	60	4497
2026-01-30 09:56:50.00	329.83	40.86	-45.1	-46.6	20.3	0.00e+00	0	41	0	978321408	61	4370
2026-01-30 09:56:51.00	329.89	40.60	-45.3	-46.8	20.0	0.00e+00	0	41	0	980418560	61	4484
2026-01-30 09:56:52.01	329.95	40.33	-45.4	-46.9	19.9	0.00e+00	0	41	0	981467136	61	4542
2026-01-30 09:56:53.02	330.01	40.07	-44.9	-46.3	20.5	0.00e+00	0	41	0	983564288	61	4204
2026-01-30 09:56:54.03	330.07	39.81	-44.4	-45.7	21.1	0.00e+00	0	41	0	985661440	60	4182
2026-01-30 09:56:55.04	330.13	39.55	-43.9	-45.0	22.0	0.00e+00	0	41	0	987758592	59	4082
2026-01-30 09:56:56.04	330.18	39.29	-43.8	-45.0	22.0	0.00e+00	0	41	0	989855744	59	4060
2026-01-30 09:56:57.05	330.24	39.04	-43.3	-44.4	22.3	0.00e+00	0	41	0	990904320	58	4034
2026-01-30 09:56:58.06	330.29	38.78	-44.1	-45.3	21.5	0.00e+00	0	41	0	993001472	58	4471
2026-01-30 09:56:59.07	330.35	38.53	-44.8	-46.2	20.6	0.00e+00	0	41	0	995098624	60	4430
2026-01-30 09:57:00.07	330.40	38.28	-46.3	-48.1	18.9	0.00e+00	0	41	0	997195776	63	4618
2026-01-30 09:57:01.08	330.45	38.03	-47.6	-49.9	17.2	0.00e+00	0	41	0	999292928	65	5082
2026-01-30 09:57:02.09	330.50	37.79	-48.8	-52.0	15.0	0.00e+00	0	41	0	1000341504	68	5429
2026-01-30 09:57:03.10	330.55	37.54	-49.5	-53.4	13.6	6.80e-06	0	41	0	1002438656	69	6009
2026-01-30 09:57:04.10	330.60	37.30	-49.1	-52.6	14.4	7.00e-07	0	41	0	1004535808	69	5522
2026-01-30 09:57:05.11	330.65	37.06	-48.8	-52.1	14.9	0.00e+00	0	41	0	1006632960	69	5207
2026-01-30 09:57:06.12	330.70	36.82	-47.5	-49.7	17.1	0.00e+00	0	41	0	1008730112	67	4437
2026-01-30 09:57:07.13	330.75	36.58	-46.1	-47.8	18.9	0.00e+00	0	41	0	1009778688	64	4235
2026-01-30 09:57:08.13	330.80	36.35	-45.4	-46.9	19.9	0.00e+00	0	41	0	1011875840	62	4278
2026-01-30 09:57:09.14	330.84	36.11	-44.4	-45.7	21.0	0.00e+00	0	41	0	1013972992	60	4185
2026-01-30 09:57:10.14	330.89	35.88	-44.3	-45.5	21.4	0.00e+00	0	41	0	1016070144	59	4336
2026-01-30 09:57:11.15	330.93	35.65	-44.7	-45.9	21.1	0.00e+00	0	41	0	1018167296	59	4544
2026-01-30 09:57:12.15	330.98	35.43	-44.8	-46.1	20.7	0.00e+00	0	41	0	1019215872	60	4386
2026-01-30 09:57:13.16	331.02	35.20	-44.5	-45.8	20.9	0.00e+00	0	41	0	1021313024	60	4215
2026-01-30 09:57:14.17	331.07	34.97	-44.5	-45.8	20.9	0.00e+00	0	41	0	1023410176	60	4201
2026-01-30 09:57:15.17	331.11	34.75	-44.6	-45.9	20.9	0.00e+00	0	41	0	1025507328	60	4256
2026-01-30 09:57:16.18	331.15	34.53	-44.6	-45.9	20.8	0.00e+00	0	41	0	1027604480	60	4265
2026-01-30 09:57:17.19	331.19	34.30	-45.0	-46.3	20.5	0.00e+00	0	41	0	1028653056	60	4479
2026-01-30 09:57:18.19	331.24	34.09	-46.0	-47.6	19.4	0.00e+00	0	41	0	1030750208	62	4604
2026-01-30 09:57:19.20	331.28	33.87	-46.7	-48.6	18.5	0.00e+00	0	41	0	1032847360	63	4871
2026-01-30 09:57:20.21	331.32	33.65	-47.7	-50.0	17.0	0.00e+00	0	41	0	1034944512	65	5116
2026-01-30 09:57:21.22	331.36	33.44	-48.8	-51.8	15.3	0.00e+00	0	41	0	1037041664	68	5306
2026-01-30 09:57:22.23	331.40	33.22	-49.2	-52.5	14.6	0.00e+00	0	41	0	1038090240	68	5740
2026-01-30 09:57:23.23	331.44	33.01	-49.3	-52.7	14.4	1.50e-06	0	41	0	1040187392	69	5551
2026-01-30 09:57:24.24	331.48	32.80	-48.9	-51.8	15.2	0.00e+00	0	41	0	1042284544	69	5023
2026-01-30 09:57:25.25	331.52	32.59	-48.2	-50.6	16.4	0.00e+00	0	41	0	1044381696	68	4647
2026-01-30 09:57:26.26	331.55	32.38	-47.5	-49.7	17.3	0.00e+00	0	42	0	1046478848	67	4405
2026-01-30 09:57:27.27	331.59	32.18	-47.0	-48.9	18.1	0.00e+00	0	41	0	1047527424	66	4281
2026-01-30 09:57:28.27	331.63	31.97	-46.6	-48.4	18.6	0.00e+00	0	41	0	1049624576	65	4261
2026-01-30 09:57:29.28	331.66	31.77	-46.0	-47.6	19.3	0.00e+00	0	41	0	1051721728	64	4120
2026-01-30 09:57:30.29	331.70	31.57	-46.2	-47.8	18.9	0.00e+00	0	41	0	1053818880	64	4226
2026-01-30 09:57:31.30	331.74	31.36	-46.1	-47.7	19.3	0.00e+00	0	41	0	1055916032	63	4427
2026-01-30 09:57:32.30	331.77	31.17	-45.8	-47.2	19.7	0.00e+00	0	41	0	1056964608	63	4173
2026-01-30 09:57:33.30	331.81	30.97	-45.6	-47.1	19.8	0.00e+00	0	41	0	1059061760	63	4103
2026-01-30 09:57:34.31	331.84	30.77	-45.7	-47.1	19.8	0.00e+00	0	41	0	1061158912	62	4366
2026-01-30 09:57:35.32	331.88	30.58	-45.4	-46.8	20.1	0.00e+00	0	41	0	1063256064	62	4194
2026-01-30 09:57:36.33	331.91	30.38	-45.1	-46.4	20.4	0.00e+00	0	41	0	1065353216	62	4041
2026-01-30 09:57:37.34	331.94	30.19	-45.1	-46.4	20.4	0.00e+00	0	41	0	1067450368	61	4257
2026-01-30 09:57:38.35	331.98	30.00	-44.7	-46.0	20.7	0.00e+00	0	41	0	1068498944	61	4073
2026-01-30 09:57:39.36	332.01	29.81	-44.4	-45.6	21.2	0.00e+00	0	41	0	1070596096	60	4144
2026-01-30 09:57:40.37	332.04	29.62	-44.7	-45.9	20.9	0.00e+00	0	41	0	1072693248	60	4265
2026-01-30 09:57:41.37	332.08	29.43	-44.6	-45.8	21.0	0.00e+00	0	41	0	1074790400	60	4216
2026-01-30 09:57:42.38	332.11	29.25	-45.0	-46.3	20.6	0.00e+00	0	41	0	1075838976	60	4469
2026-01-30 09:57:43.39	332.14	29.06	-45.1	-46.4	20.5	0.00e+00	0	41	0	1077936128	60	4527
2026-01-30 09:57:44.40	332.17	28.88	-45.5	-46.9	20.1	0.00e+00	0	41	0	1080033280	61	4504
2026-01-30 09:57:45.40	332.20	28.69	-46.2	-47.7	19.3	0.00e+00	0	41	0	1082130432	63	4434
2026-01-30 09:57:46.41	332.23	28.51	-46.5	-48.2	18.9	0.00e+00	0	41	0	1084227584	63	4673
2026-01-30 09:57:47.42	332.26	28.33	-47.0	-48.9	17.8	0.00e+00	0	41	0	1085276160	65	4496
2026-01-30 09:57:48.42	332.29	28.15	-47.2	-49.1	17.9	0.00e+00	0	41	0	1087373312	65	4615
2026-01-30 09:57:49.43	332.32	27.98	-47.8	-50.0	16.9	0.00e+00	0	41	0	1089470464	66	4865
2026-01-30 09:57:50.44	332.35	27.80	-47.9	-50.2	16.8	0.00e+00	0	41	0	1091567616	66	4962
2026-01-30 09:57:51.45	332.38	27.62	-47.3	-49.2	17.7	0.00e+00	0	41	0	1093664768	66	4428
2026-01-30 09:57:52.45	332.41	27.45	-47.2	-49.2	17.7	0.00e+00	0	41	0	1095761920	66	4409
2026-01-30 09:57:53.46	332.44	27.27	-46.6	-48.3	18.5	0.00e+00	0	41	0	1096810496	65	4237
2026-01-30 09:57:54.47	332.47	27.10	-46.0	-47.5	19.3	0.00e+00	0	41	0	1098907648	63	4336
2026-01-30 09:57:55.48	332.50	26.93	-45.4	-46.8	20.1	0.00e+00	0	41	0	1101004800	62	4203
2026-01-30 09:57:56.49	332.53	26.76	-45.2	-46.5	20.3	0.00e+00	0	41	0	1103101952	62	4095
2026-01-30 09:57:57.49	332.55	26.59	-44.7	-46.0	20.7	0.00e+00	0	41	0	1104150528	61	4085
2026-01-30 09:57:58.50	332.58	26.42	-44.5	-45.7	21.0	0.00e+00	0	41	0	1106247680	60	4175
2026-01-30 09:57:59.51	332.61	26.25	-44.4	-45.6	21.1	0.00e+00	0	41	0	1108344832	60	4132
2026-01-30 09:58:00.52	332.64	26.09	-44.1	-45.3	21.3	0.00e+00	0	41	0	1110441984	60	3999
2026-01-30 09:58:01.52	332.66	25.92	-44.2	-45.4	21.6	0.00e+00	0	41	0	1112539136	59	4284
2026-01-30 09:58:02.53	332.69	25.76	-44.2	-45.4	21.6	0.00e+00	0	41	0	1113587712	59	4272
2026-01-30 09:58:03.54	332.72	25.60	-44.3	-45.5	21.4	0.00e+00	0	41	0	1115684864	59	4312
2026-01-30 09:58:04.54	332.74	25.43	-44.2	-45.4	21.5	0.00e+00	0	41	0	1117782016	59	4250
2026-01-30 09:58:05.55	332.77	25.27	-43.9	-45.0	21.8	0.00e+00	0	41	0	1119879168	59	4098
2026-01-30 09:58:06.56	332.79	25.11	-43.9	-45.0	21.8	0.00e+00	0	41	0	1121976320	59	4085
2026-01-30 09:58:07.57	332.82	24.95	-43.9	-45.0	21.8	0.00e+00	0	41	0	1124073472	59	4096
2026-01-30 09:58:08.58	332.84	24.79	-44.1	-45.3	21.6	0.00e+00	0	41	0	1125122048	59	4201
2026-01-30 09:58:09.58	332.87	24.64	-43.7	-44.9	21.9	0.00e+00	0	41	0	1127219200	59	4015
2026-01-30 09:58:10.59	332.89	24.48	-43.8	-44.9	21.9	0.00e+00	0	41	0	1129316352	59	4025
2026-01-30 09:58:11.60	332.92	24.33	-43.7	-44.8	21.9	0.00e+00	0	41	0	1131413504	59	3995
2026-01-30 09:58:12.61	332.94	24.17	-43.2	-44.2	22.5	0.00e+00	0	41	0	1132462080	58	3955
2026-01-30 09:58:13.61	332.97	24.02	-43.1	-44.1	22.5	0.00e+00	0	41	0	1134559232	58	3908
2026-01-30 09:58:14.62	332.99	23.87	-43.0	-44.0	22.6	0.00e+00	0	41	0	1136656384	57	4091
2026-01-30 09:58:15.63	333.01	23.71	-42.9	-43.9	22.7	0.00e+00	0	41	0	1138753536	57	4025
2026-01-30 09:58:16.63	333.04	23.56	-42.5	-43.5	23.0	0.00e+00	0	41	0	1140850688	57	3864
2026-01-30 09:58:17.64	333.06	23.41	-42.3	-43.3	23.2	0.00e+00	0	41	0	1142947840	56	3973
2026-01-30 09:58:18.64	333.09	23.26	-42.6	-43.6	22.9	0.00e+00	0	41	0	1143996416	56	4106
2026-01-30 09:58:19.65	333.11	23.12	-42.5	-43.5	22.9	0.00e+00	0	41	0	1146093568	56	4077
2026-01-30 09:58:20.66	333.13	22.97	-42.6	-43.6	22.8	0.00e+00	0	41	0	1148190720	56	4136
2026-01-30 09:58:21.67	333.15	22.82	-42.9	-43.9	22.4	0.00e+00	0	41	0	1150287872	56	4279
2026-01-30 09:58:22.68	333.18	22.67	-43.0	-44.1	22.4	0.00e+00	0	41	0	1152385024	56	4358
2026-01-30 09:58:23.68	333.20	22.53	-43.3	-44.5	22.1	0.00e+00	0	41	0	1153433600	57	4296
2026-01-30 09:58:24.69	333.22	22.39	-43.5	-44.7	22.0	0.00e+00	0	41	0	1155530752	57	4399
2026-01-30 09:58:25.69	333.24	22.24	-43.8	-45.0	21.7	0.00e+00	0	41	0	1157627904	58	4298
2026-01-30 09:58:26.70	333.27	22.10	-43.9	-45.2	21.6	0.00e+00	0	41	0	1159725056	58	4394
2026-01-30 09:58:27.71	333.29	21.96	-43.9	-45.2	21.5	0.00e+00	0	41	0	1160773632	58	4392
2026-01-30 09:58:28.72	333.31	21.82	-44.1	-45.4	21.3	0.00e+00	0	41	0	1162870784	58	4520
2026-01-30 09:58:29.72	333.33	21.68	-44.0	-45.2	21.5	0.00e+00	0	41	0	1164967936	58	4420
2026-01-30 09:58:30.73	333.35	21.54	-43.9	-45.1	21.6	0.00e+00	0	41	0	1167065088	58	4372
2026-01-30 09:58:31.73	333.37	21.40	-43.8	-45.0	21.7	0.00e+00	0	41	0	1169162240	58	4324
2026-01-30 09:58:32.73	333.39	21.26	-43.7	-44.8	21.8	0.00e+00	0	41	0	1170210816	58	4228
2026-01-30 09:58:33.73	333.41	21.13	-43.6	-44.8	21.9	0.00e+00	0	41	0	1172307968	58	4215
2026-01-30 09:58:34.74	333.43	20.99	-43.6	-44.8	21.8	0.00e+00	0	41	0	1174405120	58	4212
2026-01-30 09:58:35.75	333.46	20.86	-43.6	-44.8	21.9	0.00e+00	0	41	0	1176502272	58	4195
2026-01-30 09:58:36.76	333.48	20.72	-43.5	-44.7	21.9	0.00e+00	0	41	0	1178599424	58	4149
2026-01-30 09:58:37.77	333.50	20.59	-43.4	-44.6	22.0	0.00e+00	0	41	0	1180696576	58	4100
2026-01-30 09:58:38.78	333.52	20.45	-43.5	-44.7	21.9	0.00e+00	0	41	0	1181745152	58	4164
2026-01-30 09:58:39.79	333.54	20.32	-43.6	-44.8	21.8	0.00e+00	0	41	0	1183842304	58	4227
2026-01-30 09:58:40.80	333.56	20.19	-43.7	-44.9	21.7	0.00e+00	0	41	0	1185939456	58	4266
2026-01-30 09:58:41.80	333.58	20.06	-43.7	-44.9	21.7	0.00e+00	0	41	0	1188036608	58	4264
2026-01-30 09:58:42.81	333.60	19.92	-43.9	-45.1	21.5	0.00e+00	0	41	0	1189085184	58	4372
2026-01-30 09:58:43.82	333.62	19.79	-43.9	-45.2	21.5	0.00e+00	0	41	0	1191182336	58	4407
2026-01-30 09:58:44.83	333.63	19.66	-43.9	-45.1	21.5	0.00e+00	0	41	0	1193279488	58	4373
2026-01-30 09:58:45.83	333.65	19.54	-43.9	-45.1	21.5	0.00e+00	0	41	0	1195376640	58	4372
2026-01-30 09:58:46.84	333.67	19.41	-43.9	-45.2	21.4	0.00e+00	0	41	0	1197473792	58	4412
2026-01-30 09:58:47.84	333.69	19.28	-44.0	-45.3	21.3	0.00e+00	0	41	0	1199570944	58	4471
2026-01-30 09:58:48.85	333.71	19.15	-44.1	-45.3	21.3	0.00e+00	0	41	0	1200619520	58	4492
2026-01-30 09:58:49.85	333.73	19.03	-43.9	-45.2	21.5	0.00e+00	0	41	0	1202716672	58	4404
2026-01-30 09:58:50.85	333.75	18.90	-44.0	-45.3	21.4	0.00e+00	0	41	0	1204813824	58	4457
2026-01-30 09:58:51.86	333.77	18.78	-44.0	-45.2	21.4	7.00e-07	0	41	0	1206910976	58	4436
2026-01-30 09:58:52.86	333.78	18.66	-44.0	-45.3	21.4	0.00e+00	0	41	0	1209008128	58	4464
2026-01-30 09:58:53.87	333.80	18.53	-44.0	-45.3	21.3	0.00e+00	0	41	0	1210056704	58	4477
2026-01-30 09:58:54.87	333.82	18.41	-44.0	-45.3	21.4	0.00e+00	0	41	0	1212153856	58	4447
2026-01-30 09:58:55.88	333.84	18.29	-44.0	-45.3	21.3	0.00e+00	0	41	0	1214251008	58	4484
2026-01-30 09:58:56.88	333.86	18.17	-44.1	-45.4	21.2	0.00e+00	0	41	0	1216348160	58	4534
2026-01-30 09:58:57.89	333.87	18.04	-44.1	-45.4	21.2	0.00e+00	0	41	0	1217396736	58	4538
2026-01-30 09:58:58.90	333.89	17.92	-44.3	-45.6	21.1	7.00e-07	0	41	0	1219493888	59	4358
2026-01-30 09:58:59.90	333.91	17.80	-44.3	-45.6	21.1	0.00e+00	0	41	0	1221591040	59	4383
2026-01-30 09:59:00.91	333.93	17.69	-44.6	-46.0	20.7	0.00e+00	0	41	0	1223688192	59	4580
2026-01-30 09:59:01.91	333.94	17.57	-44.4	-45.8	20.9	0.00e+00	0	41	0	1225785344	59	4449
2026-01-30 09:59:02.92	333.96	17.45	-44.4	-45.7	21.0	0.00e+00	0	41	0	1226833920	59	4409
