passes_logs/2026/01/30/R3.2S_Murmansk/R3.2S_Murmansk__20260130_132457_AQUA_rec.log

#Pass ID: 20260130_132457_AQUA
#Satellite: AQUA
#Configuration: AQUA
#almurnet v.1.7.20251203
#Start time: 2026-01-30 13:24:59

#Version: 2.2.20231116
#Station: R3.2S_Murmansk
#Location: 33.079688 lon 68.888172 lat
#TLE: 1 27424U 02022A   26029.54575153  .00001738  00000+0  35736-3 0  9994
#TLE: 2 27424  98.4104 356.2197 0001804  61.7823  56.0643 14.61874165263019

#Time	Az	El	Level	Level2	SNR	BER	BlckErr	Temp	State	Recorded	gain1	gain2
2026-01-30 13:24:59.68	208.00	2.11	-55.1	-72.9	3.8	7.46e-01	0	40	0	0	82	26988
2026-01-30 13:25:00.67	208.07	2.17	-54.0	-71.8	3.8	7.48e-01	0	39	104	0	79	28329
2026-01-30 13:25:01.68	208.15	2.23	-54.0	-71.8	3.8	7.43e-01	0	40	104	0	79	28195
2026-01-30 13:25:02.68	208.22	2.29	-54.0	-71.8	3.8	7.44e-01	0	40	104	0	79	28137
2026-01-30 13:25:03.69	208.30	2.35	-54.0	-71.7	3.8	7.47e-01	0	40	104	0	79	28018
2026-01-30 13:25:04.70	208.38	2.41	-54.0	-71.8	3.8	7.45e-01	0	40	104	0	79	28056
2026-01-30 13:25:05.71	208.46	2.47	-54.0	-71.8	3.8	7.45e-01	0	40	104	0	79	28157
2026-01-30 13:25:06.72	208.53	2.53	-53.9	-71.8	3.8	7.44e-01	0	40	104	0	79	28027
2026-01-30 13:25:07.73	208.61	2.59	-53.9	-71.8	3.8	7.43e-01	0	40	104	0	79	28062
2026-01-30 13:25:08.74	208.69	2.65	-53.9	-71.7	3.8	7.43e-01	0	40	104	0	79	27935
2026-01-30 13:25:09.75	208.77	2.71	-53.9	-71.7	3.8	7.46e-01	0	40	104	0	79	27844
2026-01-30 13:25:10.76	208.85	2.77	-53.9	-71.7	3.8	7.47e-01	0	40	104	0	79	27784
2026-01-30 13:25:11.77	208.93	2.83	-53.9	-71.6	3.8	7.41e-01	0	40	104	0	79	27693
2026-01-30 13:25:12.78	209.01	2.89	-53.9	-71.6	3.8	7.45e-01	0	40	104	0	79	27664
2026-01-30 13:25:13.79	209.09	2.95	-53.9	-71.6	3.8	7.43e-01	0	40	104	0	79	27681
2026-01-30 13:25:14.79	209.17	3.01	-53.9	-71.7	3.8	7.47e-01	0	40	104	0	79	27739
2026-01-30 13:25:15.80	209.25	3.07	-53.9	-71.7	3.8	7.48e-01	0	40	104	0	79	27877
2026-01-30 13:25:16.81	209.33	3.13	-53.9	-71.7	3.8	7.45e-01	0	40	104	0	79	27900
2026-01-30 13:25:17.82	209.41	3.19	-53.9	-71.7	3.8	7.44e-01	0	40	104	0	79	27844
2026-01-30 13:25:18.83	209.50	3.25	-53.9	-71.7	3.8	7.43e-01	0	40	104	0	79	27791
2026-01-30 13:25:19.83	209.58	3.31	-53.9	-71.7	3.8	7.45e-01	0	40	104	0	79	27752
2026-01-30 13:25:20.84	209.66	3.37	-53.9	-71.6	3.8	7.46e-01	0	40	104	0	79	27618
2026-01-30 13:25:21.85	209.74	3.44	-53.9	-71.6	3.8	7.45e-01	0	40	104	0	79	27460
2026-01-30 13:25:22.86	209.83	3.50	-53.9	-71.4	3.8	7.46e-01	0	40	104	0	79	26996
2026-01-30 13:25:23.86	209.91	3.56	-53.9	-71.3	3.8	7.45e-01	0	40	104	0	79	26675
2026-01-30 13:25:24.86	209.99	3.62	-53.9	-71.2	3.8	7.46e-01	0	40	104	0	79	26386
2026-01-30 13:25:25.87	210.08	3.68	-53.9	-71.2	3.8	7.46e-01	0	40	104	0	79	26351
2026-01-30 13:25:26.88	210.16	3.74	-53.9	-71.4	3.8	7.46e-01	0	40	104	0	79	26820
2026-01-30 13:25:27.89	210.25	3.80	-53.9	-71.5	3.8	7.47e-01	0	40	104	0	79	27292
2026-01-30 13:25:28.89	210.33	3.87	-53.9	-71.5	3.8	7.42e-01	0	40	104	0	79	27256
2026-01-30 13:25:29.90	210.42	3.93	-53.9	-71.5	3.8	7.48e-01	0	40	104	0	79	27205
2026-01-30 13:25:30.91	210.50	3.99	-53.9	-71.4	3.8	7.44e-01	0	40	104	0	79	26961
2026-01-30 13:25:31.92	210.59	4.05	-53.9	-71.5	3.8	7.44e-01	0	40	104	0	79	27355
2026-01-30 13:25:32.93	210.68	4.11	-53.9	-71.6	3.8	7.45e-01	0	40	104	0	79	27531
2026-01-30 13:25:33.94	210.77	4.18	-53.9	-71.5	3.8	7.43e-01	0	40	104	0	79	27376
2026-01-30 13:25:34.94	210.85	4.24	-53.8	-71.1	3.8	7.45e-01	0	40	104	0	79	26043
2026-01-30 13:25:35.95	210.94	4.30	-53.8	-69.7	3.8	7.43e-01	0	40	104	0	79	22058
2026-01-30 13:25:36.96	211.03	4.36	-53.8	-68.3	4.1	7.32e-01	0	40	104	0	79	18733
2026-01-30 13:25:37.97	211.12	4.43	-53.7	-66.5	4.8	7.17e-01	0	40	104	0	79	15257
2026-01-30 13:25:38.97	211.21	4.49	-53.7	-66.2	5.0	7.11e-01	0	40	0	0	79	14760
2026-01-30 13:25:39.98	211.30	4.55	-53.6	-65.8	5.1	7.05e-01	0	40	0	0	79	14153
2026-01-30 13:25:40.99	211.39	4.62	-53.5	-64.4	6.1	6.83e-01	182	40	0	0	79	11986
2026-01-30 13:25:42.00	211.48	4.68	-53.2	-62.2	8.1	6.45e-01	155	40	0	2097152	78	9850
2026-01-30 13:25:43.00	211.57	4.74	-52.7	-59.3	11.1	6.17e-01	0	40	0	4194304	77	7501
2026-01-30 13:25:44.01	211.66	4.81	-51.9	-56.9	13.6	6.06e-01	0	40	0	5767168	75	6385
2026-01-30 13:25:45.01	211.75	4.87	-50.9	-54.7	15.9	6.07e-01	0	40	0	7864320	73	5545
2026-01-30 13:25:46.02	211.84	4.93	-50.3	-53.4	17.1	6.06e-01	0	40	0	9437184	72	5098
2026-01-30 13:25:47.03	211.94	5.00	-49.7	-52.6	18.1	6.07e-01	0	40	0	11534336	71	4878
2026-01-30 13:25:48.04	212.03	5.06	-49.3	-51.9	18.8	6.06e-01	0	40	0	13107200	70	4812
2026-01-30 13:25:49.04	212.12	5.13	-49.1	-51.6	19.1	6.07e-01	0	40	0	15204352	70	4618
2026-01-30 13:25:50.05	212.22	5.19	-52.0	-57.2	13.4	6.10e-01	0	40	0	17301504	74	7034
2026-01-30 13:25:51.06	212.31	5.25	-51.7	-55.8	15.4	6.07e-01	0	40	0	18874368	73	6330
2026-01-30 13:25:52.07	212.41	5.32	-53.7	-70.3	3.8	7.50e-01	0	40	104	19922944	77	26654
2026-01-30 13:25:53.08	212.50	5.38	-45.9	-47.3	22.6	6.04e-01	0	40	0	19922944	63	4231
2026-01-30 13:25:54.09	212.60	5.45	-45.9	-47.3	23.4	6.04e-01	0	40	0	22020096	63	4237
2026-01-30 13:25:55.09	212.69	5.51	-45.9	-47.4	23.5	6.07e-01	0	40	0	24117248	63	4248
2026-01-30 13:25:56.10	212.79	5.58	-45.8	-47.2	23.6	6.07e-01	0	40	0	25690112	63	4189
2026-01-30 13:25:57.11	212.89	5.64	-45.7	-47.1	23.7	6.05e-01	0	41	0	27787264	63	4115
2026-01-30 13:25:58.12	212.99	5.71	-45.7	-47.1	23.7	6.08e-01	0	41	0	29360128	63	4138
2026-01-30 13:25:59.12	213.08	5.77	-45.7	-47.1	23.7	6.07e-01	0	40	0	31457280	63	4140
2026-01-30 13:26:00.12	213.18	5.84	-45.7	-47.1	23.7	6.06e-01	0	40	0	33030144	63	4127
2026-01-30 13:26:01.13	213.28	5.90	-45.7	-47.2	23.7	6.07e-01	0	40	0	35127296	63	4165
2026-01-30 13:26:02.14	213.38	5.97	-45.8	-47.3	23.6	6.05e-01	0	41	0	37224448	63	4216
2026-01-30 13:26:03.14	213.48	6.03	-45.7	-47.1	23.8	6.07e-01	0	40	0	38797312	63	4138
2026-01-30 13:26:04.15	213.58	6.10	-45.9	-47.3	23.6	6.09e-01	0	40	0	40894464	63	4230
2026-01-30 13:26:05.16	213.68	6.17	-45.9	-47.3	23.6	6.06e-01	0	40	0	42467328	63	4229
2026-01-30 13:26:06.17	213.78	6.23	-45.7	-47.2	23.7	6.06e-01	0	40	0	44564480	63	4161
2026-01-30 13:26:07.18	213.88	6.30	-45.7	-47.2	23.8	6.07e-01	0	40	0	46661632	63	4151
2026-01-30 13:26:08.19	213.99	6.37	-45.4	-46.8	24.1	6.04e-01	0	40	0	48234496	62	4207
2026-01-30 13:26:09.19	214.09	6.43	-45.5	-46.9	24.0	6.06e-01	0	40	0	50331648	62	4268
2026-01-30 13:26:10.20	214.19	6.50	-45.4	-46.8	24.1	6.06e-01	0	40	0	52428800	62	4236
2026-01-30 13:26:11.21	214.29	6.57	-45.5	-46.9	24.0	6.06e-01	0	40	0	54001664	62	4277
2026-01-30 13:26:12.21	214.40	6.63	-45.3	-46.7	24.2	6.04e-01	0	40	0	56098816	62	4176
2026-01-30 13:26:13.22	214.50	6.70	-45.4	-46.8	24.1	6.05e-01	0	40	0	57671680	62	4225
2026-01-30 13:26:14.23	214.61	6.77	-45.5	-46.9	24.1	6.06e-01	0	41	0	59768832	62	4267
2026-01-30 13:26:15.24	214.71	6.83	-45.3	-46.7	24.2	6.07e-01	0	40	0	61341696	62	4182
2026-01-30 13:26:16.25	214.82	6.90	-45.3	-46.7	24.3	6.04e-01	0	41	0	63438848	62	4161
2026-01-30 13:26:17.26	214.93	6.97	-45.3	-46.6	24.3	6.08e-01	0	41	0	65536000	62	4143
2026-01-30 13:26:18.26	215.03	7.03	-45.5	-46.9	24.2	6.05e-01	0	40	0	67108864	62	4258
2026-01-30 13:26:19.27	215.14	7.10	-45.5	-46.9	24.1	6.04e-01	0	40	0	69206016	62	4285
2026-01-30 13:26:20.28	215.25	7.17	-45.4	-46.8	24.2	6.06e-01	0	40	0	71303168	62	4213
2026-01-30 13:26:21.29	215.36	7.24	-45.1	-46.4	24.5	6.06e-01	0	40	0	72876032	62	4046
2026-01-30 13:26:22.29	215.47	7.31	-45.1	-46.4	24.6	6.05e-01	0	40	0	74973184	62	4031
2026-01-30 13:26:23.30	215.58	7.37	-45.1	-46.5	24.5	6.09e-01	0	40	0	76546048	62	4065
2026-01-30 13:26:24.31	215.69	7.44	-45.3	-46.7	24.4	6.07e-01	0	41	0	78643200	62	4149
2026-01-30 13:26:25.32	215.80	7.51	-45.2	-46.6	24.5	6.06e-01	0	40	0	80740352	62	4115
2026-01-30 13:26:26.33	215.91	7.58	-45.3	-46.6	24.4	6.06e-01	0	41	0	82313216	62	4138
2026-01-30 13:26:27.33	216.02	7.65	-45.2	-46.6	24.5	6.05e-01	0	40	0	84410368	62	4111
2026-01-30 13:26:28.34	216.13	7.72	-45.1	-46.4	24.6	6.07e-01	0	41	0	85983232	62	4048
2026-01-30 13:26:29.34	216.25	7.79	-45.2	-46.5	24.5	6.04e-01	0	40	0	88080384	62	4095
2026-01-30 13:26:30.35	216.36	7.85	-45.1	-46.4	24.6	6.05e-01	0	40	0	89653248	62	4050
2026-01-30 13:26:31.36	216.48	7.92	-45.2	-46.5	24.6	6.05e-01	0	40	0	91750400	62	4082
2026-01-30 13:26:32.37	216.59	7.99	-45.3	-46.7	24.5	6.06e-01	0	40	0	93847552	62	4148
2026-01-30 13:26:33.38	216.71	8.06	-45.0	-46.3	24.8	6.06e-01	0	41	0	95420416	62	3971
2026-01-30 13:26:34.38	216.82	8.13	-44.7	-46.0	25.0	6.03e-01	0	41	0	97517568	61	4076
2026-01-30 13:26:35.39	216.94	8.20	-44.9	-46.2	24.9	6.07e-01	0	40	0	99614720	61	4155
2026-01-30 13:26:36.40	217.05	8.27	-45.0	-46.3	24.8	6.06e-01	0	41	0	101187584	61	4195
2026-01-30 13:26:37.41	217.17	8.34	-45.0	-46.3	24.8	6.06e-01	0	40	0	103284736	61	4222
2026-01-30 13:26:38.42	217.29	8.41	-45.0	-46.3	24.7	6.07e-01	0	40	0	104857600	61	4235
2026-01-30 13:26:39.42	217.41	8.48	-45.1	-46.5	24.6	6.06e-01	0	41	0	106954752	61	4298
2026-01-30 13:26:40.43	217.53	8.55	-44.9	-46.2	24.9	6.07e-01	0	40	0	109051904	61	4175
2026-01-30 13:26:41.44	217.65	8.62	-44.8	-46.1	25.0	6.05e-01	0	40	0	110624768	61	4123
2026-01-30 13:26:42.45	217.77	8.69	-44.8	-46.1	25.0	6.06e-01	0	41	0	112721920	61	4121
2026-01-30 13:26:43.45	217.89	8.76	-44.9	-46.1	25.0	6.08e-01	0	40	0	114294784	61	4142
2026-01-30 13:26:44.46	218.01	8.83	-44.8	-46.1	25.0	6.08e-01	0	41	0	116391936	61	4137
2026-01-30 13:26:45.47	218.14	8.90	-44.9	-46.2	24.9	6.04e-01	0	40	0	117964800	61	4150
2026-01-30 13:26:46.48	218.26	8.97	-44.8	-46.1	25.0	6.04e-01	0	41	0	120061952	61	4103
2026-01-30 13:26:47.49	218.38	9.05	-44.8	-46.0	25.1	6.07e-01	0	40	0	122159104	61	4088
2026-01-30 13:26:48.49	218.51	9.12	-44.8	-46.1	25.0	6.05e-01	0	41	0	123731968	61	4131
2026-01-30 13:26:49.50	218.63	9.19	-44.8	-46.0	25.1	6.05e-01	0	40	0	125829120	61	4097
2026-01-30 13:26:50.51	218.76	9.26	-44.6	-45.9	25.2	6.04e-01	0	40	0	127926272	61	4015
2026-01-30 13:26:51.52	218.88	9.33	-44.6	-45.9	25.2	6.04e-01	0	41	0	129499136	61	4015
2026-01-30 13:26:52.53	219.01	9.40	-44.8	-46.0	25.1	6.07e-01	0	41	0	131596288	61	4094
2026-01-30 13:26:53.53	219.14	9.47	-44.7	-45.9	25.2	6.07e-01	0	40	0	133169152	61	4039
2026-01-30 13:26:54.54	219.27	9.55	-44.6	-45.9	25.2	6.06e-01	0	41	0	135266304	61	4030
2026-01-30 13:26:55.55	219.40	9.62	-44.7	-46.0	25.1	6.05e-01	0	40	0	137363456	61	4065
2026-01-30 13:26:56.56	219.53	9.69	-44.7	-46.0	25.2	6.04e-01	0	41	0	138936320	61	4052
2026-01-30 13:26:57.57	219.66	9.76	-44.6	-45.9	25.3	6.07e-01	0	41	0	141033472	61	4030
2026-01-30 13:26:58.58	219.79	9.83	-44.7	-45.9	25.2	6.05e-01	0	40	0	142606336	61	4050
2026-01-30 13:26:59.59	219.92	9.91	-44.5	-45.7	25.4	6.07e-01	0	41	0	144703488	61	3949
2026-01-30 13:27:00.60	220.05	9.98	-44.6	-45.8	25.4	6.07e-01	0	40	0	146800640	61	3981
2026-01-30 13:27:01.60	220.18	10.05	-44.5	-45.7	25.4	6.05e-01	0	41	0	148373504	61	3956
2026-01-30 13:27:02.61	220.32	10.12	-44.4	-45.6	25.5	6.04e-01	0	40	0	150470656	60	4136
2026-01-30 13:27:03.62	220.45	10.20	-44.4	-45.6	25.5	6.03e-01	0	41	0	152043520	60	4128
2026-01-30 13:27:04.62	220.59	10.27	-44.4	-45.6	25.5	6.04e-01	0	41	0	154140672	60	4135
2026-01-30 13:27:05.63	220.72	10.34	-44.4	-45.6	25.6	6.06e-01	0	40	0	156237824	60	4130
2026-01-30 13:27:06.64	220.86	10.42	-44.4	-45.6	25.5	6.04e-01	0	40	0	157810688	60	4138
2026-01-30 13:27:07.65	221.00	10.49	-44.4	-45.6	25.5	6.05e-01	0	40	0	159907840	60	4117
2026-01-30 13:27:08.65	221.13	10.56	-44.4	-45.6	25.6	6.04e-01	0	40	0	161480704	60	4110
2026-01-30 13:27:09.66	221.27	10.64	-44.2	-45.4	25.7	6.07e-01	0	40	0	163577856	60	4047
2026-01-30 13:27:10.67	221.41	10.71	-44.3	-45.5	25.7	6.03e-01	0	41	0	165675008	60	4067
2026-01-30 13:27:11.68	221.55	10.78	-44.4	-45.6	25.6	6.05e-01	0	41	0	167247872	60	4132
2026-01-30 13:27:12.68	221.69	10.86	-44.4	-45.6	25.6	6.04e-01	0	40	0	169345024	60	4121
2026-01-30 13:27:13.69	221.83	10.93	-44.4	-45.6	25.6	6.06e-01	0	40	0	171442176	60	4112
2026-01-30 13:27:14.69	221.97	11.00	-44.3	-45.6	25.6	6.06e-01	0	40	0	173015040	60	4102
2026-01-30 13:27:15.70	222.12	11.08	-44.4	-45.6	25.6	6.05e-01	0	40	0	175112192	60	4110
2026-01-30 13:27:16.71	222.26	11.15	-44.3	-45.5	25.6	6.04e-01	0	40	0	176685056	60	4097
2026-01-30 13:27:17.71	222.41	11.23	-44.3	-45.5	25.7	6.06e-01	0	40	0	178782208	60	4085
2026-01-30 13:27:18.72	222.55	11.30	-44.1	-45.3	25.8	6.06e-01	0	40	0	180879360	60	3999
2026-01-30 13:27:19.73	222.70	11.38	-44.2	-45.3	25.8	6.04e-01	0	40	0	182452224	60	4003
2026-01-30 13:27:20.74	222.84	11.45	-44.2	-45.4	25.8	6.05e-01	0	41	0	184549376	60	4013
2026-01-30 13:27:21.75	222.99	11.53	-44.1	-45.3	25.9	6.05e-01	0	40	0	186122240	60	3992
2026-01-30 13:27:22.75	223.14	11.60	-44.2	-45.4	25.8	6.07e-01	0	40	0	188219392	60	4008
2026-01-30 13:27:23.76	223.29	11.67	-44.1	-45.3	25.9	6.06e-01	0	41	0	189792256	60	3977
2026-01-30 13:27:24.76	223.44	11.75	-44.1	-45.3	25.8	6.04e-01	0	40	0	191889408	60	3999
2026-01-30 13:27:25.77	223.59	11.82	-44.1	-45.3	25.9	6.07e-01	0	41	0	193986560	60	3980
2026-01-30 13:27:26.77	223.74	11.90	-44.1	-45.3	25.8	6.06e-01	0	40	0	195559424	60	4002
2026-01-30 13:27:27.78	223.89	11.97	-44.2	-45.4	25.8	6.06e-01	0	40	0	197656576	60	4008
2026-01-30 13:27:28.79	224.05	12.05	-44.1	-45.3	25.9	6.06e-01	0	41	0	199753728	60	3976
2026-01-30 13:27:29.80	224.20	12.12	-44.1	-45.3	25.9	6.05e-01	0	40	0	201326592	60	3970
2026-01-30 13:27:30.80	224.35	12.20	-44.2	-45.4	25.8	6.04e-01	0	40	0	203423744	60	4034
2026-01-30 13:27:31.81	224.51	12.28	-44.2	-45.4	25.8	6.03e-01	0	41	0	204996608	60	4024
2026-01-30 13:27:32.82	224.67	12.35	-44.0	-45.2	26.0	6.03e-01	0	40	0	207093760	60	3927
2026-01-30 13:27:33.83	224.82	12.43	-44.1	-45.3	25.9	6.08e-01	0	41	0	209190912	60	3960
2026-01-30 13:27:34.84	224.98	12.50	-44.1	-45.3	25.8	6.06e-01	0	41	0	210763776	59	4220
2026-01-30 13:27:35.85	225.14	12.58	-44.0	-45.2	25.7	6.06e-01	0	40	0	212860928	59	4147
2026-01-30 13:27:36.86	225.30	12.65	-44.1	-45.3	25.8	6.05e-01	0	40	0	214433792	59	4227
2026-01-30 13:27:37.86	225.46	12.73	-43.9	-45.1	26.0	6.04e-01	0	40	0	216530944	59	4127
2026-01-30 13:27:38.87	225.62	12.81	-44.0	-45.2	25.9	6.05e-01	0	40	0	218103808	59	4168
2026-01-30 13:27:39.88	225.79	12.88	-44.0	-45.2	25.9	6.05e-01	0	41	0	220200960	59	4166
2026-01-30 13:27:40.89	225.95	12.96	-43.9	-45.0	26.0	6.05e-01	0	41	0	222298112	59	4083
2026-01-30 13:27:41.89	226.11	13.03	-43.9	-45.0	26.0	6.04e-01	0	41	0	223870976	59	4085
2026-01-30 13:27:42.90	226.28	13.11	-43.8	-44.9	26.2	6.05e-01	0	40	0	225968128	59	4043
2026-01-30 13:27:43.91	226.44	13.19	-43.8	-45.0	26.2	6.02e-01	0	41	0	228065280	59	4055
2026-01-30 13:27:44.92	226.61	13.26	-44.0	-45.1	26.0	6.05e-01	0	41	0	229638144	59	4139
2026-01-30 13:27:45.92	226.78	13.34	-44.1	-45.2	25.9	6.04e-01	0	41	0	231735296	59	4192
2026-01-30 13:27:46.93	226.95	13.42	-44.0	-45.2	26.0	6.04e-01	0	41	0	233308160	59	4152
2026-01-30 13:27:47.94	227.12	13.49	-43.9	-45.1	26.0	6.07e-01	0	41	0	235405312	59	4113
2026-01-30 13:27:48.95	227.29	13.57	-43.8	-45.0	26.1	6.06e-01	0	41	0	237502464	59	4077
2026-01-30 13:27:49.96	227.46	13.65	-43.8	-44.9	26.2	6.05e-01	0	40	0	239075328	59	4039
2026-01-30 13:27:50.97	227.63	13.72	-43.8	-44.9	26.2	6.05e-01	0	40	0	241172480	59	4037
2026-01-30 13:27:51.97	227.80	13.80	-43.8	-44.9	25.4	6.02e-01	0	41	0	242745344	59	4032
2026-01-30 13:27:52.98	227.98	13.88	-43.7	-44.8	26.3	6.06e-01	0	40	0	244842496	59	3992
2026-01-30 13:27:53.99	228.15	13.95	-43.7	-44.8	26.3	6.06e-01	0	40	0	246939648	59	4002
2026-01-30 13:27:55.00	228.33	14.03	-43.7	-44.9	26.2	6.03e-01	0	41	0	248512512	59	4005
2026-01-30 13:27:56.01	228.51	14.11	-43.7	-44.8	26.3	6.05e-01	0	41	0	250609664	59	3994
2026-01-30 13:27:57.02	228.69	14.19	-43.7	-44.8	26.3	6.05e-01	0	41	0	252182528	59	3981
2026-01-30 13:27:58.03	228.87	14.26	-43.8	-44.9	26.2	6.06e-01	0	41	0	254279680	59	4027
2026-01-30 13:27:59.03	229.05	14.34	-43.6	-44.8	26.3	6.04e-01	0	40	0	256376832	59	3974
2026-01-30 13:28:00.04	229.23	14.42	-43.7	-44.8	26.3	6.07e-01	0	41	0	257949696	59	3999
2026-01-30 13:28:01.05	229.41	14.49	-43.6	-44.7	26.4	6.05e-01	0	41	0	260046848	59	3956
2026-01-30 13:28:02.05	229.59	14.57	-43.6	-44.8	26.4	6.05e-01	0	40	0	261619712	59	3959
2026-01-30 13:28:03.06	229.77	14.65	-43.5	-44.7	26.5	6.05e-01	0	41	0	263716864	59	3919
2026-01-30 13:28:04.07	229.96	14.72	-43.5	-44.7	26.5	6.05e-01	0	41	0	265814016	59	3916
2026-01-30 13:28:05.08	230.15	14.80	-43.7	-44.8	26.4	6.04e-01	0	40	0	267386880	59	3986
2026-01-30 13:28:06.09	230.33	14.88	-43.6	-44.7	26.4	6.06e-01	0	41	0	269484032	59	3930
2026-01-30 13:28:07.09	230.52	14.96	-43.5	-44.7	26.5	6.05e-01	0	41	0	271581184	59	3918
2026-01-30 13:28:08.10	230.71	15.03	-43.5	-44.7	26.5	6.05e-01	0	41	0	273154048	59	3923
2026-01-30 13:28:09.11	230.90	15.11	-43.6	-44.7	26.5	6.05e-01	0	40	0	275251200	59	3938
2026-01-30 13:28:10.12	231.09	15.19	-43.6	-44.7	26.5	6.04e-01	0	41	0	276824064	59	3932
2026-01-30 13:28:11.13	231.28	15.26	-43.5	-44.7	26.5	6.05e-01	0	40	0	278921216	59	3918
2026-01-30 13:28:12.13	231.47	15.34	-43.5	-44.6	26.5	6.04e-01	0	41	0	280494080	59	3898
2026-01-30 13:28:13.14	231.67	15.42	-43.5	-44.6	26.5	6.04e-01	0	41	0	282591232	58	4115
2026-01-30 13:28:14.14	231.86	15.49	-43.6	-44.7	26.4	6.06e-01	0	41	0	284688384	58	4174
2026-01-30 13:28:15.15	232.06	15.57	-43.6	-44.7	26.4	6.05e-01	0	41	0	286261248	58	4184
2026-01-30 13:28:16.16	232.26	15.65	-43.5	-44.6	26.5	6.06e-01	0	40	0	288358400	58	4130
2026-01-30 13:28:17.17	232.45	15.73	-43.5	-44.6	26.5	6.05e-01	0	41	0	289931264	58	4142
2026-01-30 13:28:18.18	232.65	15.80	-43.5	-44.6	26.6	6.07e-01	0	41	0	292028416	58	4118
2026-01-30 13:28:19.19	232.85	15.88	-43.5	-44.6	26.5	6.07e-01	0	40	0	294125568	58	4136
2026-01-30 13:28:20.20	233.06	15.96	-43.6	-44.7	26.4	6.07e-01	0	41	0	295698432	58	4181
2026-01-30 13:28:21.21	233.26	16.03	-43.5	-44.6	26.5	6.03e-01	0	40	0	297795584	58	4130
2026-01-30 13:28:22.21	233.46	16.11	-43.5	-44.7	26.5	6.04e-01	0	41	0	299892736	58	4153
2026-01-30 13:28:23.22	233.67	16.19	-43.5	-44.6	26.6	6.03e-01	0	40	0	301465600	58	4134
2026-01-30 13:28:24.23	233.87	16.26	-43.4	-44.6	26.6	6.04e-01	0	41	0	303562752	58	4104
2026-01-30 13:28:25.24	234.08	16.34	-43.4	-44.5	26.6	6.06e-01	0	40	0	305135616	58	4089
2026-01-30 13:28:26.24	234.28	16.41	-43.4	-44.6	26.6	6.02e-01	0	40	0	307232768	58	4103
2026-01-30 13:28:27.25	234.49	16.49	-43.4	-44.5	26.6	6.04e-01	0	40	0	308805632	58	4071
2026-01-30 13:28:28.26	234.70	16.57	-43.4	-44.5	26.7	6.04e-01	0	41	0	310902784	58	4082
2026-01-30 13:28:29.27	234.92	16.64	-43.4	-44.5	26.7	6.05e-01	0	41	0	312999936	58	4070
2026-01-30 13:28:30.28	235.13	16.72	-43.4	-44.5	26.6	6.06e-01	0	41	0	315097088	58	4089
2026-01-30 13:28:31.28	235.34	16.80	-43.4	-44.5	26.7	6.05e-01	0	41	0	316669952	58	4070
2026-01-30 13:28:32.29	235.56	16.87	-43.4	-44.5	26.6	6.05e-01	0	41	0	318767104	58	4098
2026-01-30 13:28:33.30	235.77	16.95	-43.3	-44.4	26.7	6.04e-01	0	40	0	320339968	58	4049
2026-01-30 13:28:34.30	235.99	17.02	-43.4	-44.5	26.7	6.04e-01	0	41	0	322437120	58	4072
2026-01-30 13:28:35.31	236.20	17.10	-43.4	-44.5	26.7	6.05e-01	0	41	0	324009984	58	4096
2026-01-30 13:28:36.32	236.42	17.17	-43.4	-44.5	26.7	6.07e-01	0	40	0	326107136	58	4098
2026-01-30 13:28:37.33	236.64	17.25	-43.4	-44.5	26.8	6.03e-01	0	41	0	328204288	58	4057
2026-01-30 13:28:38.33	236.86	17.32	-43.3	-44.4	26.8	6.05e-01	0	41	0	329777152	58	4039
2026-01-30 13:28:39.34	237.09	17.40	-43.3	-44.4	26.8	6.05e-01	0	41	0	331874304	58	4032
2026-01-30 13:28:40.35	237.31	17.47	-43.4	-44.5	26.7	6.05e-01	0	41	0	333447168	58	4090
2026-01-30 13:28:41.35	237.53	17.55	-43.5	-44.6	26.6	6.05e-01	0	41	0	335544320	58	4133
2026-01-30 13:28:42.36	237.76	17.62	-43.5	-44.7	26.6	6.06e-01	0	41	0	337117184	58	4154
2026-01-30 13:28:43.37	237.99	17.70	-43.6	-44.8	26.5	6.05e-01	0	41	0	339214336	58	4194
2026-01-30 13:28:44.38	238.22	17.77	-43.4	-44.5	26.7	6.06e-01	0	40	0	341311488	58	4097
2026-01-30 13:28:45.39	238.45	17.84	-43.7	-44.8	26.5	6.04e-01	0	41	0	343408640	58	4212
2026-01-30 13:28:46.39	238.67	17.92	-43.5	-44.6	26.7	6.04e-01	0	40	0	344981504	58	4111
2026-01-30 13:28:47.40	238.91	17.99	-43.4	-44.6	26.7	6.04e-01	0	40	0	347078656	58	4102
2026-01-30 13:28:48.41	239.14	18.07	-43.5	-44.6	26.7	6.05e-01	0	41	0	348651520	58	4110
2026-01-30 13:28:49.41	239.37	18.14	-44.0	-54.6	3.8	7.39e-01	0	41	104	348651520	58	13087
2026-01-30 13:28:50.42	239.61	18.21	-43.9	-54.6	3.8	7.54e-01	0	40	104	348651520	58	13082
2026-01-30 13:28:51.43	239.84	18.28	-44.0	-54.6	3.9	7.43e-01	0	41	104	348651520	58	13028
2026-01-30 13:28:52.44	240.08	18.36	-46.9	-57.8	3.8	7.49e-01	0	41	104	348651520	64	13371
2026-01-30 13:28:53.45	240.32	18.43	-52.4	-65.4	3.8	7.44e-01	0	41	104	348651520	76	16113
2026-01-30 13:28:54.45	240.56	18.50	-47.9	-59.2	3.8	7.45e-01	0	41	104	348651520	68	12491
2026-01-30 13:28:55.47	240.80	18.57	-44.6	-55.3	3.9	7.40e-01	0	41	104	348651520	61	11840
2026-01-30 13:28:56.48	241.04	18.65	-44.2	-54.8	3.8	7.43e-01	0	41	104	348651520	60	11954
2026-01-30 13:28:57.48	241.28	18.72	-44.3	-55.1	3.8	7.47e-01	0	40	104	348651520	60	12256
2026-01-30 13:28:58.49	241.53	18.79	-45.3	-56.2	3.7	7.46e-01	0	41	104	348651520	61	13234
2026-01-30 13:28:59.49	241.77	18.86	-45.3	-56.2	3.8	7.47e-01	0	41	104	348651520	62	12381
2026-01-30 13:29:00.50	242.02	18.93	-48.8	-60.4	3.9	7.44e-01	0	41	104	348651520	68	14266
2026-01-30 13:29:01.51	242.27	19.00	-52.7	-66.1	3.9	7.43e-01	0	41	104	348651520	77	16416
2026-01-30 13:29:02.52	242.52	19.07	-45.4	-56.2	3.9	7.44e-01	0	41	104	348651520	63	11752
2026-01-30 13:29:03.53	242.77	19.14	-44.5	-55.2	3.8	7.46e-01	0	41	104	348651520	61	11710
2026-01-30 13:29:04.53	243.02	19.21	-44.1	-54.7	3.7	7.49e-01	0	41	104	348651520	60	11711
2026-01-30 13:29:05.54	243.27	19.28	-44.0	-54.5	4.3	7.22e-01	0	41	104	348651520	59	12192
2026-01-30 13:29:06.55	243.53	19.35	-45.0	-55.5	4.2	7.34e-01	0	41	104	348651520	60	12904
2026-01-30 13:29:07.55	243.78	19.41	-44.9	-55.4	4.1	7.34e-01	0	40	104	348651520	61	12075
2026-01-30 13:29:08.56	244.04	19.48	-48.9	-60.3	4.1	7.34e-01	0	41	104	348651520	68	14079
2026-01-30 13:29:09.57	244.29	19.55	-52.9	-66.5	3.8	7.44e-01	0	41	104	348651520	77	17189
2026-01-30 13:29:10.58	244.55	19.62	-44.5	-55.2	3.8	7.43e-01	0	41	104	348651520	61	11733
2026-01-30 13:29:11.59	244.81	19.69	-44.7	-55.4	3.8	7.43e-01	0	41	104	348651520	61	11970
2026-01-30 13:29:12.59	245.07	19.75	-44.4	-55.2	3.8	7.46e-01	0	41	104	348651520	60	12407
2026-01-30 13:29:13.60	245.33	19.82	-44.4	-55.2	3.8	7.43e-01	0	41	104	348651520	60	12463
2026-01-30 13:29:14.61	245.60	19.88	-45.0	-55.8	3.8	7.44e-01	0	41	104	348651520	60	13295
2026-01-30 13:29:15.62	245.86	19.95	-44.7	-55.4	3.8	7.46e-01	0	41	104	348651520	60	12808
2026-01-30 13:29:16.63	246.13	20.02	-51.7	-64.3	3.8	7.46e-01	0	41	104	348651520	73	16698
2026-01-30 13:29:17.64	246.40	20.08	-53.3	-67.6	3.8	7.45e-01	0	41	104	348651520	77	19434
2026-01-30 13:29:18.65	246.66	20.14	-44.6	-55.3	3.8	7.43e-01	0	41	104	348651520	61	11827
2026-01-30 13:29:19.66	246.93	20.21	-44.7	-55.5	3.8	7.42e-01	0	41	104	348651520	61	12148
2026-01-30 13:29:20.67	247.20	20.27	-44.4	-55.1	3.8	7.44e-01	0	41	104	348651520	60	12352
2026-01-30 13:29:21.67	247.47	20.34	-44.0	-54.8	3.8	7.44e-01	0	41	104	348651520	60	11861
2026-01-30 13:29:22.68	247.75	20.40	-44.8	-55.6	3.8	7.44e-01	0	41	104	348651520	60	12994
2026-01-30 13:29:23.69	248.02	20.46	-44.3	-56.1	3.8	7.46e-01	0	41	104	348651520	59	14662
2026-01-30 13:29:24.69	248.29	20.52	-48.4	-67.3	3.8	7.52e-01	0	41	104	348651520	68	31533
2026-01-30 13:29:25.70	248.57	20.58	-50.1	-68.5	3.8	7.50e-01	0	41	104	348651520	72	28752
2026-01-30 13:29:26.71	248.85	20.64	-43.8	-55.5	3.8	7.45e-01	0	41	104	348651520	59	13666
2026-01-30 13:29:27.71	249.12	20.70	-44.0	-55.6	3.8	7.43e-01	0	41	104	348651520	59	13754
2026-01-30 13:29:28.72	249.40	20.76	-43.8	-55.1	3.8	7.42e-01	0	41	104	348651520	59	13001
2026-01-30 13:29:29.72	249.68	20.82	-43.6	-54.7	3.8	7.42e-01	0	40	104	348651520	58	13219
2026-01-30 13:29:30.73	249.96	20.88	-44.1	-55.6	3.8	7.45e-01	0	41	104	348651520	59	13806
2026-01-30 13:29:31.74	250.25	20.94	-44.5	-55.9	3.8	7.45e-01	0	41	104	348651520	59	14342
2026-01-30 13:29:32.75	250.53	21.00	-52.0	-68.1	3.8	7.47e-01	0	41	104	348651520	75	23103
2026-01-30 13:29:33.76	250.81	21.06	-48.5	-67.9	3.8	7.46e-01	0	41	104	348651520	69	31847
2026-01-30 13:29:34.76	251.10	21.11	-44.2	-55.1	3.8	7.43e-01	0	41	104	348651520	60	12313
2026-01-30 13:29:35.77	251.39	21.17	-44.2	-55.0	3.8	7.44e-01	0	41	104	348651520	60	12206
2026-01-30 13:29:36.77	251.67	21.22	-44.0	-54.7	3.8	7.46e-01	0	41	104	348651520	60	11781
2026-01-30 13:29:37.78	251.96	21.28	-44.1	-54.9	3.8	7.46e-01	0	41	104	348651520	59	12781
2026-01-30 13:29:38.79	252.25	21.33	-45.0	-55.9	3.8	7.45e-01	0	41	104	348651520	60	13521
2026-01-30 13:29:39.80	252.54	21.39	-45.1	-56.0	3.8	7.43e-01	0	41	104	348651520	60	13703
2026-01-30 13:29:40.80	252.83	21.44	-53.7	-70.2	3.8	7.42e-01	0	41	104	348651520	78	24700
2026-01-30 13:29:41.81	253.13	21.49	-53.0	-69.0	3.8	7.44e-01	0	41	104	348651520	76	24188
2026-01-30 13:29:42.81	253.42	21.54	-44.8	-55.5	3.8	7.45e-01	0	41	104	348651520	60	12816
2026-01-30 13:29:43.82	253.71	21.60	-44.2	-54.9	3.8	7.44e-01	0	41	104	348651520	60	12031
2026-01-30 13:29:44.83	254.01	21.65	-44.0	-54.8	3.8	7.43e-01	0	41	104	348651520	60	11872
2026-01-30 13:29:45.84	254.31	21.70	-44.1	-54.8	3.8	7.43e-01	0	41	104	348651520	59	12563
2026-01-30 13:29:46.85	254.61	21.75	-45.2	-55.9	3.8	7.47e-01	0	41	104	348651520	60	13551
2026-01-30 13:29:47.86	254.91	21.80	-45.3	-56.1	3.8	7.44e-01	0	41	104	348651520	61	13103
2026-01-30 13:29:48.87	255.21	21.84	-54.2	-70.4	3.8	7.49e-01	0	41	104	348651520	78	25304
2026-01-30 13:29:49.87	255.51	21.89	-54.0	-69.3	3.8	7.49e-01	0	41	104	348651520	78	22334
2026-01-30 13:29:50.88	255.81	21.94	-45.7	-56.5	3.9	7.45e-01	0	41	104	348651520	61	13605
2026-01-30 13:29:51.88	256.11	21.99	-44.5	-55.3	3.8	7.48e-01	0	41	104	348651520	61	11861
2026-01-30 13:29:52.89	256.41	22.03	-44.1	-54.8	3.8	7.45e-01	0	41	104	348651520	60	11829
2026-01-30 13:29:53.90	256.72	22.08	-44.1	-54.9	3.8	7.43e-01	0	41	104	348651520	60	11976
2026-01-30 13:29:54.91	257.02	22.12	-45.1	-56.0	3.8	7.42e-01	0	41	104	348651520	60	13669
2026-01-30 13:29:55.92	257.33	22.16	-45.4	-56.2	3.8	7.46e-01	0	41	104	348651520	61	13219
2026-01-30 13:29:56.93	257.64	22.21	-54.4	-70.8	3.8	7.45e-01	0	41	104	348651520	79	25259
2026-01-30 13:29:57.94	257.95	22.25	-54.1	-69.9	3.8	7.46e-01	0	41	104	348651520	78	24044
2026-01-30 13:29:58.95	258.26	22.29	-45.4	-56.2	3.8	7.43e-01	0	41	104	348651520	61	13190
2026-01-30 13:29:59.95	258.56	22.33	-44.1	-54.7	3.8	7.44e-01	0	41	104	348651520	60	11744
2026-01-30 13:30:00.96	258.88	22.37	-44.0	-54.7	3.8	7.44e-01	0	41	104	348651520	60	11746
2026-01-30 13:30:01.97	259.19	22.41	-44.1	-54.8	3.8	7.47e-01	0	41	104	348651520	59	12663
2026-01-30 13:30:02.97	259.50	22.45	-45.8	-56.8	3.8	7.42e-01	0	41	104	348651520	62	13340
2026-01-30 13:30:03.98	259.81	22.48	-45.5	-56.3	3.8	7.44e-01	0	41	104	348651520	62	12626
2026-01-30 13:30:04.99	260.12	22.52	-54.4	-71.0	3.8	7.45e-01	0	41	104	348651520	79	25763
2026-01-30 13:30:06.00	260.44	22.56	-54.2	-70.0	3.8	7.43e-01	0	41	104	348651520	78	24296
2026-01-30 13:30:07.01	260.76	22.59	-45.6	-56.4	3.8	7.46e-01	0	41	104	348651520	61	13475
2026-01-30 13:30:08.01	261.07	22.63	-44.1	-54.9	3.8	7.48e-01	0	41	104	348651520	60	11963
2026-01-30 13:30:09.02	261.39	22.66	-44.2	-54.9	3.8	7.43e-01	0	41	104	348651520	60	11966
2026-01-30 13:30:10.03	261.70	22.69	-44.2	-54.9	3.8	7.45e-01	0	41	104	348651520	60	12023
2026-01-30 13:30:11.04	262.02	22.72	-44.4	-55.2	3.8	7.47e-01	0	41	104	348651520	60	12444
2026-01-30 13:30:12.05	262.34	22.76	-45.6	-56.4	3.8	7.45e-01	0	41	104	348651520	61	13561
2026-01-30 13:30:13.06	262.66	22.79	-54.5	-71.1	3.8	7.45e-01	0	41	104	348651520	79	25896
2026-01-30 13:30:14.07	262.98	22.81	-54.2	-69.9	3.8	7.42e-01	0	41	104	348651520	78	24095
2026-01-30 13:30:15.07	263.30	22.84	-45.7	-56.5	3.8	7.42e-01	0	41	104	348651520	61	13648
2026-01-30 13:30:16.08	263.62	22.87	-44.2	-55.0	3.8	7.43e-01	0	41	104	348651520	60	12098
2026-01-30 13:30:17.09	263.94	22.90	-44.1	-54.8	3.8	7.43e-01	0	41	104	348651520	60	11929
2026-01-30 13:30:18.09	264.26	22.92	-44.1	-54.9	3.8	7.49e-01	0	41	104	348651520	60	12019
2026-01-30 13:30:19.10	264.59	22.95	-45.8	-56.7	3.8	7.47e-01	0	41	104	348651520	62	13156
2026-01-30 13:30:20.11	264.91	22.97	-45.7	-56.5	3.8	7.43e-01	0	41	104	348651520	62	12915
2026-01-30 13:30:21.11	265.23	23.00	-54.5	-71.1	3.8	7.45e-01	0	41	104	348651520	79	25862
2026-01-30 13:30:22.12	265.56	23.02	-53.8	-68.7	3.9	7.41e-01	0	41	104	348651520	79	19827
2026-01-30 13:30:23.13	265.88	23.04	-45.5	-56.3	3.8	7.43e-01	0	41	104	348651520	61	13356
2026-01-30 13:30:24.14	266.21	23.06	-44.2	-54.9	3.8	7.41e-01	0	41	104	348651520	60	12085
2026-01-30 13:30:25.14	266.53	23.08	-44.3	-54.9	3.8	7.40e-01	0	41	104	348651520	60	11988
2026-01-30 13:30:26.15	266.86	23.10	-44.2	-54.9	3.8	7.45e-01	0	41	104	348651520	60	12043
2026-01-30 13:30:27.16	267.19	23.12	-45.5	-56.4	3.8	7.46e-01	0	41	104	348651520	62	12785
2026-01-30 13:30:28.17	267.51	23.13	-45.8	-56.7	3.8	7.46e-01	0	41	104	348651520	62	13160
2026-01-30 13:30:29.18	267.84	23.15	-54.3	-70.5	3.8	7.43e-01	0	41	104	348651520	79	24179
2026-01-30 13:30:30.19	268.17	23.17	-52.6	-66.1	3.9	7.43e-01	0	41	104	348651520	77	16461
2026-01-30 13:30:31.20	268.50	23.18	-45.2	-55.9	3.8	7.45e-01	0	41	104	348651520	61	12778
2026-01-30 13:30:32.20	268.82	23.19	-44.3	-54.9	3.8	7.45e-01	0	41	104	348651520	60	12068
2026-01-30 13:30:33.21	269.15	23.21	-44.1	-54.8	3.8	7.44e-01	0	41	104	348651520	60	11855
2026-01-30 13:30:34.22	269.48	23.22	-44.1	-54.9	3.8	7.46e-01	0	41	104	348651520	60	11983
2026-01-30 13:30:35.23	269.81	23.23	-45.6	-56.4	3.8	7.43e-01	0	41	104	348651520	62	12745
2026-01-30 13:30:36.24	270.14	23.24	-46.2	-57.1	3.8	7.43e-01	0	41	104	348651520	62	13799
2026-01-30 13:30:37.25	270.47	23.25	-54.4	-70.6	3.9	7.45e-01	0	41	104	348651520	80	23227
2026-01-30 13:30:38.25	270.80	23.25	-52.6	-65.7	3.9	7.43e-01	0	41	104	348651520	77	15731
2026-01-30 13:30:39.26	271.13	23.26	-45.2	-56.0	3.8	7.48e-01	0	41	104	348651520	61	12826
2026-01-30 13:30:40.27	271.46	23.27	-44.3	-55.0	3.8	7.46e-01	0	41	104	348651520	60	12164
2026-01-30 13:30:41.28	271.79	23.27	-44.1	-54.8	3.8	7.42e-01	0	40	104	348651520	60	11939
2026-01-30 13:30:42.29	272.12	23.28	-44.2	-54.8	3.8	7.46e-01	0	41	104	348651520	60	11872
2026-01-30 13:30:43.29	272.44	23.28	-44.7	-55.5	3.8	7.43e-01	0	41	104	348651520	60	12917
2026-01-30 13:30:44.30	272.77	23.28	-46.9	-57.9	3.9	7.44e-01	0	41	104	348651520	64	13453
2026-01-30 13:30:45.31	273.11	23.28	-54.0	-68.8	3.9	7.40e-01	0	41	104	348651520	79	19924
2026-01-30 13:30:46.31	273.43	23.28	-50.2	-61.9	3.9	7.44e-01	0	41	104	348651520	72	13556
2026-01-30 13:30:47.32	273.76	23.28	-45.2	-56.0	3.8	7.45e-01	0	41	104	348651520	61	12947
2026-01-30 13:30:48.33	274.09	23.28	-44.7	-55.4	3.8	7.44e-01	0	41	104	348651520	61	11997
2026-01-30 13:30:49.34	274.42	23.28	-44.4	-55.0	3.8	7.43e-01	0	41	104	348651520	60	12183
2026-01-30 13:30:50.34	274.75	23.28	-44.3	-55.0	3.8	7.42e-01	0	41	104	348651520	60	12204
2026-01-30 13:30:51.35	275.08	23.27	-45.1	-56.0	3.8	7.48e-01	0	41	104	348651520	61	12821
2026-01-30 13:30:52.37	275.42	23.27	-46.9	-57.9	3.8	7.42e-01	0	41	104	348651520	64	13474
2026-01-30 13:30:53.37	275.74	23.26	-54.0	-69.3	3.9	7.41e-01	0	41	104	348651520	80	19991
2026-01-30 13:30:54.38	276.07	23.25	-47.6	-58.7	3.9	7.45e-01	0	41	104	348651520	67	12442
2026-01-30 13:30:55.39	276.40	23.24	-44.6	-55.3	3.8	7.44e-01	0	41	104	348651520	61	11935
2026-01-30 13:30:56.39	276.73	23.24	-44.2	-54.8	3.8	7.44e-01	0	41	104	348651520	60	11912
2026-01-30 13:30:57.41	277.06	23.23	-44.2	-54.9	3.8	7.46e-01	0	41	104	348651520	60	11961
2026-01-30 13:30:58.41	277.39	23.22	-44.3	-55.1	3.8	7.42e-01	0	41	104	348651520	60	12251
2026-01-30 13:30:59.42	277.72	23.20	-45.1	-55.8	3.8	7.46e-01	0	41	104	348651520	60	13297
2026-01-30 13:31:00.43	278.04	23.19	-48.7	-60.0	3.8	7.48e-01	0	41	104	348651520	67	14400
2026-01-30 13:31:01.44	278.37	23.18	-53.5	-67.8	3.8	7.40e-01	0	41	104	348651520	79	17745
2026-01-30 13:31:02.44	278.70	23.16	-47.6	-58.6	3.9	7.46e-01	0	41	104	348651520	67	12272
2026-01-30 13:31:03.45	279.02	23.15	-44.7	-55.5	3.8	7.46e-01	0	41	104	348651520	60	12868
2026-01-30 13:31:04.46	279.35	23.13	-44.3	-55.1	3.8	7.41e-01	0	41	104	348651520	60	12255
2026-01-30 13:31:05.46	279.68	23.11	-44.1	-54.7	3.8	7.45e-01	0	41	104	348651520	60	11730
2026-01-30 13:31:06.47	280.00	23.10	-44.5	-55.2	3.8	7.45e-01	0	40	104	348651520	60	12452
2026-01-30 13:31:07.48	280.33	23.08	-45.4	-56.2	3.8	7.45e-01	0	41	104	348651520	62	12460
2026-01-30 13:31:08.49	280.65	23.06	-51.2	-63.2	3.8	7.43e-01	0	40	104	348651520	72	15636
2026-01-30 13:31:09.49	280.98	23.04	-53.4	-67.4	3.9	7.47e-01	0	41	104	348651520	78	17898
2026-01-30 13:31:10.50	281.30	23.01	-45.2	-55.9	3.8	7.42e-01	0	41	104	348651520	62	12087
2026-01-30 13:31:11.51	281.63	22.99	-44.5	-55.1	3.8	7.46e-01	0	41	104	348651520	60	12334
2026-01-30 13:31:12.52	281.95	22.97	-44.3	-54.9	3.8	7.44e-01	0	41	104	348651520	60	12031
2026-01-30 13:31:13.52	282.27	22.94	-44.1	-54.9	3.8	7.45e-01	0	41	104	348651520	60	11968
2026-01-30 13:31:14.53	282.59	22.92	-44.4	-55.1	3.8	7.44e-01	0	41	104	348651520	60	12347
2026-01-30 13:31:15.54	282.91	22.89	-45.5	-56.3	3.8	7.44e-01	0	41	104	348651520	61	13301
2026-01-30 13:31:16.54	283.23	22.87	-51.1	-63.1	3.8	7.45e-01	0	41	104	348651520	72	15551
2026-01-30 13:31:17.55	283.55	22.84	-53.7	-67.9	3.8	7.43e-01	0	41	104	348651520	79	17988
2026-01-30 13:31:18.56	283.87	22.81	-45.5	-56.3	3.9	7.44e-01	0	41	104	348651520	63	11930
2026-01-30 13:31:19.57	284.19	22.78	-44.5	-55.2	3.9	7.45e-01	0	41	104	348651520	60	12415
2026-01-30 13:31:20.58	284.51	22.75	-44.1	-54.8	3.8	7.44e-01	0	41	104	348651520	60	11853
2026-01-30 13:31:21.59	284.83	22.72	-44.1	-54.8	3.8	7.43e-01	0	41	104	348651520	60	11854
2026-01-30 13:31:22.60	285.15	22.69	-44.8	-55.4	3.9	7.44e-01	0	41	104	348651520	60	12802
2026-01-30 13:31:23.61	285.47	22.65	-45.5	-56.2	3.8	7.46e-01	0	41	104	348651520	61	13247
2026-01-30 13:31:24.61	285.78	22.62	-53.5	-67.4	3.8	7.49e-01	0	41	104	348651520	77	19161
2026-01-30 13:31:25.62	286.10	22.59	-54.1	-68.9	3.8	7.47e-01	0	41	104	348651520	79	20129
2026-01-30 13:31:26.63	286.41	22.55	-44.6	-55.2	3.9	7.43e-01	0	41	104	348651520	61	11691
2026-01-30 13:31:27.64	286.73	22.51	-44.5	-55.2	3.8	7.43e-01	0	41	104	348651520	60	12491
2026-01-30 13:31:28.65	287.04	22.48	-44.2	-54.9	3.8	7.45e-01	0	41	104	348651520	60	12013
2026-01-30 13:31:29.65	287.35	22.44	-44.3	-55.0	3.8	7.42e-01	0	41	104	348651520	60	12103
2026-01-30 13:31:30.66	287.66	22.40	-46.3	-57.4	3.8	7.43e-01	0	41	104	348651520	63	13564
2026-01-30 13:31:31.67	287.97	22.36	-46.0	-56.8	3.8	7.43e-01	0	41	104	348651520	63	12621
2026-01-30 13:31:32.68	288.28	22.32	-54.5	-70.0	3.8	7.46e-01	0	41	104	348651520	79	22857
2026-01-30 13:31:33.69	288.59	22.28	-54.3	-69.4	3.8	7.44e-01	0	41	104	348651520	79	21384
2026-01-30 13:31:34.70	288.90	22.24	-44.2	-54.8	3.8	7.42e-01	0	41	104	348651520	60	11942
2026-01-30 13:31:35.71	289.21	22.20	-44.3	-55.0	3.8	7.43e-01	0	41	104	348651520	60	12222
2026-01-30 13:31:36.71	289.51	22.16	-44.3	-55.0	3.8	7.44e-01	0	41	104	348651520	60	12166
2026-01-30 13:31:37.72	289.82	22.11	-44.2	-54.9	3.8	7.50e-01	0	41	104	348651520	60	12021
2026-01-30 13:31:38.73	290.12	22.07	-46.0	-56.7	3.8	7.45e-01	0	41	104	348651520	62	13250
2026-01-30 13:31:39.74	290.43	22.02	-46.4	-57.2	3.8	7.43e-01	0	41	104	348651520	63	13210
2026-01-30 13:31:40.74	290.73	21.98	-54.3	-69.9	3.8	7.47e-01	0	41	104	348651520	79	22567
2026-01-30 13:31:41.75	291.03	21.93	-53.8	-68.0	3.8	7.43e-01	0	41	104	348651520	78	19207
2026-01-30 13:31:42.76	291.33	21.89	-44.1	-54.6	3.8	7.44e-01	0	41	104	348651520	60	11675
2026-01-30 13:31:43.77	291.63	21.84	-44.1	-54.5	3.8	7.46e-01	0	41	104	348651520	59	12217
2026-01-30 13:31:44.78	291.93	21.79	-44.1	-54.9	3.8	7.44e-01	0	41	104	348651520	59	12765
2026-01-30 13:31:45.79	292.23	21.74	-44.2	-54.9	3.8	7.44e-01	0	41	104	348651520	59	12800
2026-01-30 13:31:46.80	292.53	21.69	-46.5	-57.4	3.8	7.43e-01	0	41	104	348651520	63	13434
2026-01-30 13:31:47.81	292.83	21.64	-46.1	-56.9	3.8	7.45e-01	0	41	104	348651520	63	12774
2026-01-30 13:31:48.81	293.12	21.59	-54.7	-70.9	3.7	7.45e-01	0	41	104	348651520	80	24060
2026-01-30 13:31:49.82	293.41	21.54	-53.2	-66.8	3.8	7.51e-01	0	41	104	348651520	77	17857
2026-01-30 13:31:50.82	293.70	21.49	-44.2	-54.8	3.8	7.43e-01	0	41	104	348651520	60	11889
2026-01-30 13:31:51.83	294.00	21.43	-44.1	-54.7	3.8	7.42e-01	0	41	104	348651520	60	11731
2026-01-30 13:31:52.84	294.29	21.38	-44.0	-54.8	3.8	7.44e-01	0	41	104	348651520	60	11826
2026-01-30 13:31:53.85	294.58	21.33	-44.1	-54.9	3.8	7.43e-01	0	41	104	348651520	60	12013
2026-01-30 13:31:54.85	294.86	21.27	-44.3	-55.0	3.8	7.42e-01	0	41	104	348651520	60	12120
2026-01-30 13:31:55.86	295.15	21.22	-45.5	-56.1	3.8	7.40e-01	0	41	104	348651520	61	13104
2026-01-30 13:31:56.87	295.44	21.16	-54.7	-70.7	3.7	7.45e-01	0	41	104	348651520	79	24967
2026-01-30 13:31:57.88	295.73	21.11	-52.2	-64.9	3.8	7.45e-01	0	41	104	348651520	76	15218
2026-01-30 13:31:58.89	296.01	21.05	-44.7	-55.4	3.8	7.44e-01	0	41	104	348651520	59	13442
2026-01-30 13:31:59.89	296.29	20.99	-44.0	-54.5	3.8	7.45e-01	0	41	104	348651520	59	12224
2026-01-30 13:32:00.90	296.58	20.94	-44.0	-54.7	3.8	7.43e-01	0	41	104	348651520	59	12438
2026-01-30 13:32:01.91	296.86	20.88	-43.9	-54.7	3.8	7.45e-01	0	41	104	348651520	59	12500
2026-01-30 13:32:02.92	297.14	20.82	-45.3	-56.2	3.9	7.45e-01	0	41	104	348651520	61	13150
2026-01-30 13:32:03.93	297.42	20.76	-44.9	-55.7	3.8	7.41e-01	0	41	104	348651520	61	12440
2026-01-30 13:32:04.94	297.70	20.70	-54.7	-71.0	3.8	7.48e-01	0	41	104	348651520	79	25729
2026-01-30 13:32:05.95	297.97	20.64	-51.1	-63.2	3.8	7.43e-01	0	41	104	348651520	74	13901
2026-01-30 13:32:06.95	298.25	20.58	-44.9	-55.6	3.8	7.44e-01	0	41	104	348651520	60	13003
2026-01-30 13:32:07.96	298.52	20.52	-43.9	-54.7	3.8	7.46e-01	0	41	104	348651520	59	12419
2026-01-30 13:32:08.97	298.80	20.46	-44.0	-54.7	3.8	7.44e-01	0	41	104	348651520	59	12417
2026-01-30 13:32:09.97	299.07	20.39	-44.1	-54.7	3.8	7.44e-01	0	41	104	348651520	59	12420
2026-01-30 13:32:10.98	299.34	20.33	-45.2	-56.0	3.9	7.44e-01	0	41	104	348651520	61	12824
2026-01-30 13:32:11.99	299.61	20.27	-44.5	-55.4	3.8	7.44e-01	0	40	104	348651520	61	12017
2026-01-30 13:32:13.00	299.88	20.21	-54.6	-71.0	3.8	7.43e-01	0	41	104	348651520	79	25621
2026-01-30 13:32:14.01	300.15	20.14	-49.6	-61.2	3.8	7.43e-01	0	41	104	348651520	71	13256
2026-01-30 13:32:15.02	300.41	20.08	-45.6	-56.2	3.9	7.47e-01	0	41	104	348651520	61	13260
2026-01-30 13:32:16.03	300.68	20.01	-43.7	-54.3	3.8	7.43e-01	0	41	104	348651520	59	11946
2026-01-30 13:32:17.04	300.95	19.95	-43.7	-54.3	3.8	7.41e-01	0	41	104	348651520	59	11872
2026-01-30 13:32:18.05	301.21	19.88	-43.7	-54.4	3.8	7.43e-01	0	41	104	348651520	59	12025
2026-01-30 13:32:19.05	301.47	19.82	-46.8	-57.8	3.8	7.43e-01	0	41	104	348651520	64	13291
2026-01-30 13:32:20.06	301.73	19.75	-44.2	-55.0	3.8	7.46e-01	0	41	104	348651520	60	12124
2026-01-30 13:32:21.07	301.99	19.68	-54.6	-70.8	3.8	7.45e-01	0	41	104	348651520	79	25213
2026-01-30 13:32:22.08	302.25	19.62	-47.8	-58.9	3.8	7.43e-01	0	41	104	348651520	67	12769
2026-01-30 13:32:23.09	302.51	19.55	-45.9	-56.9	3.8	7.48e-01	0	41	104	348651520	62	13464
2026-01-30 13:32:24.09	302.76	19.48	-43.7	-54.4	3.8	7.46e-01	0	41	104	348651520	59	12069
2026-01-30 13:32:25.10	303.02	19.42	-43.7	-54.3	3.8	7.44e-01	0	41	104	348651520	59	11866
2026-01-30 13:32:26.11	303.27	19.35	-43.9	-54.4	3.8	7.42e-01	0	41	104	348651520	59	11976
2026-01-30 13:32:27.11	303.52	19.28	-47.9	-58.9	3.9	7.46e-01	0	41	104	348651520	67	12800
2026-01-30 13:32:28.12	303.77	19.21	-43.9	-54.5	3.8	7.43e-01	0	41	104	348651520	59	12149
2026-01-30 13:32:29.13	304.02	19.14	-54.3	-70.2	3.9	7.44e-01	0	41	104	348651520	79	23496
2026-01-30 13:32:30.14	304.27	19.07	-46.9	-58.1	3.9	7.48e-01	0	40	104	348651520	66	12318
2026-01-30 13:32:31.14	304.52	19.00	-46.2	-57.2	3.8	7.44e-01	0	41	104	348651520	63	13170
2026-01-30 13:32:32.15	304.77	18.93	-43.6	-54.3	3.8	7.43e-01	0	41	104	348651520	59	11879
2026-01-30 13:32:33.16	305.01	18.86	-43.6	-54.2	3.9	7.44e-01	0	41	104	348651520	59	11719
2026-01-30 13:32:34.17	305.26	18.79	-43.7	-54.3	3.8	7.45e-01	0	41	104	348651520	59	11822
2026-01-30 13:32:35.18	305.50	18.72	-45.8	-56.8	3.9	7.48e-01	0	41	104	348651520	63	12524
2026-01-30 13:32:36.18	305.74	18.65	-43.5	-54.1	3.8	7.41e-01	0	41	104	348651520	59	11640
2026-01-30 13:32:37.19	305.98	18.58	-53.6	-68.4	3.9	7.42e-01	0	41	104	348651520	79	19134
2026-01-30 13:32:38.20	306.22	18.51	-45.3	-55.9	3.8	7.44e-01	0	41	104	348651520	62	11981
2026-01-30 13:32:39.20	306.46	18.44	-46.2	-57.0	3.8	7.45e-01	0	41	104	348651520	63	12923
2026-01-30 13:32:40.21	306.70	18.36	-43.7	-54.3	3.8	7.45e-01	0	41	104	348651520	59	11936
2026-01-30 13:32:41.22	306.93	18.29	-43.6	-54.3	3.8	7.45e-01	0	41	104	348651520	59	11882
2026-01-30 13:32:42.23	307.17	18.22	-43.6	-54.3	3.8	7.45e-01	0	41	104	348651520	59	11921
2026-01-30 13:32:43.23	307.40	18.15	-45.6	-56.5	3.8	7.47e-01	0	41	104	348651520	63	12184
2026-01-30 13:32:44.24	307.63	18.07	-43.5	-54.2	3.8	7.43e-01	0	41	104	348651520	59	11749
2026-01-30 13:32:45.25	307.87	18.00	-53.5	-68.1	3.9	7.45e-01	0	41	104	348651520	79	18418
2026-01-30 13:32:46.25	308.10	17.93	-44.9	-55.3	3.8	7.47e-01	0	41	104	348651520	61	11926
2026-01-30 13:32:47.26	308.32	17.85	-46.5	-57.5	3.8	7.46e-01	0	41	104	348651520	64	12881
2026-01-30 13:32:48.27	308.55	17.78	-43.7	-54.4	3.8	7.44e-01	0	41	104	348651520	59	12062
2026-01-30 13:32:49.29	308.78	17.71	-43.5	-54.2	3.8	7.42e-01	0	41	104	348651520	59	11685
2026-01-30 13:32:50.29	309.01	17.63	-43.6	-54.2	3.8	7.45e-01	0	41	104	348651520	58	12506
2026-01-30 13:32:51.29	309.23	17.56	-44.8	-55.5	3.8	7.42e-01	0	41	104	348651520	61	12230
2026-01-30 13:32:52.30	309.45	17.49	-43.6	-54.3	3.8	7.47e-01	0	41	104	348651520	59	11839
2026-01-30 13:32:53.31	309.68	17.41	-51.6	-64.4	3.9	7.45e-01	0	41	104	348651520	75	15091
2026-01-30 13:32:54.32	309.90	17.34	-43.9	-54.6	3.8	7.46e-01	0	41	104	348651520	59	12295
2026-01-30 13:32:55.33	310.12	17.26	-45.7	-56.7	3.8	7.46e-01	0	41	104	348651520	63	12452
2026-01-30 13:32:56.34	310.34	17.19	-43.4	-54.0	3.8	7.44e-01	0	41	104	348651520	58	12205
2026-01-30 13:32:57.34	310.55	17.11	-43.4	-54.1	3.8	7.43e-01	0	41	104	348651520	58	12242
2026-01-30 13:32:58.35	310.77	17.04	-43.5	-54.1	3.8	7.45e-01	0	41	104	348651520	58	12306
2026-01-30 13:32:59.36	310.99	16.96	-44.7	-55.5	3.8	7.45e-01	0	41	104	348651520	61	12155
2026-01-30 13:33:00.37	311.20	16.89	-43.6	-54.2	3.8	7.47e-01	0	41	104	348651520	58	12387
2026-01-30 13:33:01.38	311.42	16.81	-49.2	-60.7	3.9	7.43e-01	0	41	104	348651520	70	13140
2026-01-30 13:33:02.39	311.63	16.74	-43.5	-54.1	3.8	7.40e-01	0	41	104	348651520	59	11657
2026-01-30 13:33:03.40	311.84	16.66	-45.0	-55.9	3.8	7.44e-01	0	41	104	348651520	62	12086
2026-01-30 13:33:04.41	312.05	16.58	-43.4	-54.1	3.8	7.46e-01	0	41	104	348651520	58	12248
2026-01-30 13:33:05.41	312.26	16.51	-43.4	-54.0	3.8	7.41e-01	0	41	104	348651520	58	12222
2026-01-30 13:33:06.42	312.47	16.43	-43.8	-54.4	3.8	7.43e-01	0	41	104	348651520	58	12806
2026-01-30 13:33:07.43	312.67	16.36	-43.9	-54.6	3.8	7.42e-01	0	41	104	348651520	59	12348
2026-01-30 13:33:08.44	312.88	16.28	-44.7	-55.3	3.8	7.45e-01	0	41	104	348651520	59	13366
2026-01-30 13:33:09.44	313.08	16.21	-49.9	-61.8	3.9	7.47e-01	0	41	104	348651520	72	13378
2026-01-30 13:33:10.45	313.29	16.13	-43.7	-54.4	3.8	7.42e-01	0	41	104	348651520	59	11964
2026-01-30 13:33:11.46	313.49	16.05	-44.6	-55.4	3.8	7.45e-01	0	40	104	348651520	61	11970
2026-01-30 13:33:12.47	313.69	15.98	-43.7	-54.4	3.8	7.45e-01	0	41	104	348651520	59	11971
2026-01-30 13:33:13.47	313.89	15.90	-43.4	-54.0	3.8	7.43e-01	0	41	104	348651520	58	12174
2026-01-30 13:33:14.48	314.09	15.82	-47.0	-58.0	3.8	7.40e-01	0	41	104	348651520	64	13572
2026-01-30 13:33:15.49	314.29	15.75	-44.4	-55.2	3.8	7.43e-01	0	41	104	348651520	61	11787
2026-01-30 13:33:16.49	314.48	15.67	-47.0	-58.0	3.8	7.46e-01	0	41	104	348651520	64	13725
2026-01-30 13:33:17.50	314.68	15.60	-48.1	-59.5	3.9	7.44e-01	0	41	104	348651520	68	12820
2026-01-30 13:33:18.51	314.88	15.52	-44.1	-54.8	3.8	7.46e-01	0	41	104	348651520	59	12541
2026-01-30 13:33:19.52	315.07	15.44	-44.5	-55.3	3.8	7.44e-01	0	41	104	348651520	61	11837
2026-01-30 13:33:20.53	315.26	15.37	-43.6	-54.3	3.8	7.48e-01	0	41	104	348651520	59	11881
2026-01-30 13:33:21.53	315.46	15.29	-43.7	-54.4	3.8	7.43e-01	0	41	104	348651520	59	12023
2026-01-30 13:33:22.54	315.65	15.21	-44.5	-55.2	3.8	7.44e-01	0	41	104	348651520	59	13199
2026-01-30 13:33:23.55	315.84	15.14	-43.5	-54.1	3.8	7.45e-01	0	41	104	348651520	59	11663
2026-01-30 13:33:24.56	316.03	15.06	-46.9	-58.0	3.8	7.48e-01	0	41	104	348651520	64	13673
2026-01-30 13:33:25.57	316.21	14.98	-47.9	-59.0	3.9	7.46e-01	0	41	104	348651520	67	12823
2026-01-30 13:33:26.57	316.40	14.91	-44.2	-54.9	3.8	7.44e-01	0	41	104	348651520	59	12700
2026-01-30 13:33:27.58	316.59	14.83	-44.0	-54.7	3.8	7.44e-01	0	41	104	348651520	60	11792
2026-01-30 13:33:28.59	316.77	14.75	-43.7	-54.4	3.9	7.47e-01	0	41	104	348651520	59	12014
2026-01-30 13:33:29.59	316.95	14.68	-43.6	-54.3	3.8	7.46e-01	0	41	104	348651520	59	11929
2026-01-30 13:33:30.60	317.14	14.60	-44.8	-55.6	3.8	7.47e-01	0	41	104	348651520	60	13036
2026-01-30 13:33:31.61	317.32	14.53	-43.8	-54.5	3.8	7.44e-01	0	41	104	348651520	59	12192
2026-01-30 13:33:32.61	317.50	14.45	-49.9	-61.9	3.8	7.47e-01	0	41	104	348651520	70	15178
2026-01-30 13:33:33.62	317.68	14.37	-46.7	-57.7	3.8	7.43e-01	0	41	104	348651520	65	12397
2026-01-30 13:33:34.63	317.86	14.30	-45.4	-56.4	3.8	7.48e-01	0	41	104	348651520	61	13509
2026-01-30 13:33:35.64	318.04	14.22	-44.1	-54.8	3.8	7.45e-01	0	41	104	348651520	60	11945
2026-01-30 13:33:36.65	318.22	14.14	-43.8	-54.5	3.8	7.42e-01	0	41	104	348651520	59	12169
2026-01-30 13:33:37.66	318.39	14.07	-43.7	-54.4	3.8	7.46e-01	0	41	104	348651520	59	12060
2026-01-30 13:33:38.67	318.57	13.99	-45.2	-56.0	3.8	7.44e-01	0	41	104	348651520	60	13635
2026-01-30 13:33:39.67	318.74	13.91	-43.8	-54.4	3.8	7.43e-01	0	41	104	348651520	59	12046
2026-01-30 13:33:40.67	318.91	13.84	-50.0	-61.9	3.8	7.43e-01	0	41	104	348651520	70	15154
2026-01-30 13:33:41.68	319.09	13.76	-46.6	-57.5	3.8	7.46e-01	0	41	104	348651520	65	12160
2026-01-30 13:33:42.69	319.26	13.69	-46.8	-57.7	3.8	7.41e-01	0	41	104	348651520	63	13910
2026-01-30 13:33:43.70	319.43	13.61	-44.0	-54.7	3.9	7.45e-01	0	41	104	348651520	59	12492
2026-01-30 13:33:44.70	319.60	13.53	-43.7	-54.4	3.8	7.44e-01	0	41	104	348651520	59	12051
2026-01-30 13:33:45.71	319.77	13.46	-43.7	-54.4	3.8	7.46e-01	0	41	104	348651520	59	12065
2026-01-30 13:33:46.72	319.94	13.38	-47.7	-58.9	3.8	7.45e-01	0	41	104	348651520	65	14221
2026-01-30 13:33:47.73	320.10	13.31	-47.5	-58.7	3.8	7.46e-01	0	41	104	348651520	67	12481
2026-01-30 13:33:48.74	320.27	13.23	-47.8	-58.9	3.8	7.45e-01	0	41	104	348651520	65	14340
2026-01-30 13:33:49.75	320.44	13.15	-53.1	-67.7	3.8	7.45e-01	0	41	104	348651520	76	20799
2026-01-30 13:33:50.76	320.60	13.08	-43.9	-54.6	3.8	7.43e-01	0	41	104	348651520	59	12357
2026-01-30 13:33:51.77	320.76	13.00	-43.7	-54.5	3.8	7.42e-01	0	41	104	348651520	59	12174
2026-01-30 13:33:52.77	320.93	12.93	-43.8	-54.6	3.8	7.40e-01	0	41	104	348651520	59	12302
2026-01-30 13:33:53.78	321.09	12.85	-43.7	-54.4	3.8	7.45e-01	0	41	104	348651520	59	11957
2026-01-30 13:33:54.79	321.25	12.78	-44.7	-55.5	3.9	7.46e-01	0	41	104	348651520	60	12885
2026-01-30 13:33:55.80	321.41	12.70	-44.7	-55.9	3.8	7.46e-01	0	41	104	348651520	60	13427
2026-01-30 13:33:56.81	321.57	12.62	-53.2	-67.9	3.8	7.47e-01	0	41	104	348651520	76	21314
2026-01-30 13:33:57.81	321.73	12.55	-45.5	-56.4	3.8	7.49e-01	0	41	104	348651520	63	11977
2026-01-30 13:33:58.82	321.88	12.47	-48.3	-59.8	3.8	7.47e-01	0	41	104	348651520	67	14207
2026-01-30 13:33:59.83	322.04	12.40	-43.8	-54.4	3.8	7.44e-01	0	41	104	348651520	59	11979
2026-01-30 13:34:00.84	322.20	12.32	-43.5	-54.2	3.8	7.46e-01	0	41	104	348651520	59	11695
2026-01-30 13:34:01.85	322.35	12.25	-43.6	-54.2	3.8	7.45e-01	0	41	104	348651520	59	11735
2026-01-30 13:34:02.86	322.51	12.17	-48.2	-59.6	3.9	7.45e-01	0	41	104	348651520	66	14568
2026-01-30 13:34:03.87	322.66	12.10	-44.8	-55.6	3.8	7.46e-01	0	41	104	348651520	60	13003
2026-01-30 13:34:04.88	322.81	12.02	-53.6	-69.3	3.8	7.47e-01	0	41	104	348651520	77	23845
2026-01-30 13:34:05.89	322.97	11.95	-45.3	-56.1	3.8	7.41e-01	0	41	104	348651520	62	12324
2026-01-30 13:34:06.90	323.12	11.87	-49.3	-61.2	3.8	7.46e-01	0	41	104	348651520	69	14798
2026-01-30 13:34:07.91	323.27	11.80	-43.8	-54.5	3.8	7.45e-01	0	41	104	348651520	59	12163
2026-01-30 13:34:08.91	323.42	11.73	-43.9	-54.6	3.8	7.42e-01	0	41	104	348651520	59	12266
2026-01-30 13:34:09.92	323.57	11.65	-43.6	-54.2	3.8	7.41e-01	0	41	104	348651520	59	11804
2026-01-30 13:34:10.93	323.71	11.58	-47.4	-58.5	3.8	7.44e-01	0	41	104	348651520	65	13687
2026-01-30 13:34:11.94	323.86	11.50	-45.3	-56.1	3.8	7.45e-01	0	41	104	348651520	61	13096
2026-01-30 13:34:12.94	324.01	11.43	-53.6	-69.3	3.8	7.48e-01	0	41	104	348651520	77	23844
2026-01-30 13:34:13.95	324.15	11.36	-45.3	-56.1	3.8	7.44e-01	0	41	104	348651520	62	12341
2026-01-30 13:34:14.96	324.30	11.28	-49.6	-61.3	3.8	7.46e-01	0	41	104	348651520	69	14934
2026-01-30 13:34:15.96	324.44	11.21	-44.0	-54.7	3.8	7.44e-01	0	41	104	348651520	59	12468
2026-01-30 13:34:16.97	324.58	11.14	-43.9	-54.6	3.8	7.44e-01	0	41	104	348651520	59	12300
2026-01-30 13:34:17.98	324.73	11.06	-43.8	-54.4	3.8	7.45e-01	0	41	104	348651520	59	12090
2026-01-30 13:34:18.99	324.87	10.99	-46.6	-57.6	3.8	7.47e-01	0	41	104	348651520	64	13100
2026-01-30 13:34:20.00	325.01	10.91	-45.5	-56.4	3.8	7.44e-01	0	41	104	348651520	61	13487
2026-01-30 13:34:21.00	325.15	10.84	-53.5	-69.4	3.8	7.42e-01	0	41	104	348651520	77	24130
2026-01-30 13:34:22.01	325.29	10.77	-44.5	-55.4	3.8	7.44e-01	0	41	104	348651520	61	11958
2026-01-30 13:34:23.02	325.43	10.70	-50.4	-62.7	3.8	7.45e-01	0	41	104	348651520	71	15725
2026-01-30 13:34:24.03	325.57	10.62	-43.8	-54.6	3.8	7.46e-01	0	41	104	348651520	59	12284
2026-01-30 13:34:25.04	325.71	10.55	-43.9	-54.7	3.8	7.44e-01	0	41	104	348651520	59	12447
2026-01-30 13:34:26.04	325.84	10.48	-44.0	-54.8	3.8	7.45e-01	0	41	104	348651520	59	12583
2026-01-30 13:34:27.05	325.98	10.40	-48.8	-60.5	3.8	7.44e-01	0	41	104	348651520	68	14473
2026-01-30 13:34:28.06	326.11	10.33	-45.6	-56.6	3.8	7.42e-01	0	41	104	348651520	61	13848
2026-01-30 13:34:29.07	326.25	10.26	-53.5	-69.3	3.8	7.45e-01	0	41	104	348651520	77	23811
2026-01-30 13:34:30.08	326.38	10.19	-45.2	-56.0	3.8	7.46e-01	0	41	104	348651520	62	12213
2026-01-30 13:34:31.08	326.51	10.12	-49.5	-61.5	3.8	7.43e-01	0	41	104	348651520	70	14374
2026-01-30 13:34:32.09	326.65	10.04	-44.1	-54.9	3.8	7.40e-01	0	41	104	348651520	60	12058
2026-01-30 13:34:33.09	326.78	9.97	-44.1	-55.0	3.8	7.44e-01	0	41	104	348651520	60	12108
2026-01-30 13:34:34.10	326.91	9.90	-44.0	-54.8	3.8	7.46e-01	0	41	104	348651520	60	11932
2026-01-30 13:34:35.11	327.04	9.83	-47.0	-58.3	3.8	7.46e-01	0	41	104	348651520	65	13276
2026-01-30 13:34:36.11	327.17	9.76	-46.7	-57.8	3.9	7.43e-01	0	41	104	348651520	65	12613
2026-01-30 13:34:37.12	327.30	9.69	-50.5	-62.8	3.8	7.45e-01	0	41	104	348651520	71	15928
2026-01-30 13:34:38.13	327.43	9.61	-52.8	-67.5	3.9	7.43e-01	0	41	104	348651520	77	19298
2026-01-30 13:34:39.13	327.55	9.54	-45.8	-56.6	3.8	7.43e-01	0	41	104	348651520	62	13090
2026-01-30 13:34:40.14	327.68	9.47	-44.9	-55.6	3.8	7.44e-01	0	41	104	348651520	61	12369
2026-01-30 13:34:41.15	327.81	9.40	-45.1	-55.9	3.8	7.45e-01	0	41	104	348651520	61	12768
2026-01-30 13:34:42.16	327.94	9.33	-44.9	-55.7	3.8	7.44e-01	0	41	104	348651520	61	12387
2026-01-30 13:34:43.17	328.06	9.26	-44.1	-54.7	3.8	7.44e-01	0	41	104	348651520	59	12486
2026-01-30 13:34:44.18	328.19	9.19	-44.8	-55.5	3.9	7.44e-01	0	41	104	348651520	61	12156
2026-01-30 13:34:45.19	328.31	9.12	-52.3	-66.3	3.9	7.42e-01	0	41	104	348651520	76	17812
2026-01-30 13:34:46.19	328.43	9.05	-44.4	-54.9	3.8	7.43e-01	0	41	104	348651520	60	12034
2026-01-30 13:34:47.20	328.56	8.98	-48.9	-60.2	3.9	7.45e-01	0	41	104	348651520	69	13209
2026-01-30 13:34:48.21	328.68	8.91	-44.3	-55.1	3.8	7.45e-01	0	41	104	348651520	60	12310
2026-01-30 13:34:49.22	328.80	8.84	-44.4	-55.2	3.8	7.45e-01	0	41	104	348651520	60	12487
2026-01-30 13:34:50.23	328.92	8.77	-44.0	-54.8	3.8	7.44e-01	0	41	104	348651520	60	11928
2026-01-30 13:34:51.24	329.04	8.70	-45.4	-56.2	3.8	7.42e-01	0	41	104	348651520	62	12383
2026-01-30 13:34:52.24	329.16	8.63	-44.9	-55.7	3.8	7.41e-01	0	41	104	348651520	61	12474
2026-01-30 13:34:53.25	329.28	8.56	-52.4	-67.0	3.9	7.43e-01	0	41	104	348651520	77	18150
2026-01-30 13:34:54.26	329.40	8.49	-44.7	-55.6	3.8	7.45e-01	0	41	104	348651520	61	12314
2026-01-30 13:34:55.27	329.52	8.42	-49.5	-61.6	3.8	7.45e-01	0	41	104	348651520	71	13789
2026-01-30 13:34:56.28	329.64	8.35	-45.0	-55.9	3.8	7.45e-01	0	41	104	348651520	61	12771
2026-01-30 13:34:57.29	329.75	8.28	-45.0	-56.0	3.8	7.43e-01	0	41	104	348651520	61	12895
2026-01-30 13:34:58.30	329.87	8.21	-44.5	-55.4	3.8	7.44e-01	0	41	104	348651520	61	11962
2026-01-30 13:34:59.31	329.99	8.14	-44.6	-55.5	3.8	7.42e-01	0	41	104	348651520	61	12151
2026-01-30 13:35:00.31	330.10	8.07	-45.2	-56.2	3.8	7.47e-01	0	41	104	348651520	62	12402
2026-01-30 13:35:01.31	330.21	8.00	-52.0	-65.9	3.8	7.42e-01	0	41	104	348651520	76	17031
2026-01-30 13:35:02.32	330.33	7.94	-46.1	-57.1	3.8	7.45e-01	0	41	104	348651520	64	12287
2026-01-30 13:35:03.33	330.44	7.87	-49.0	-60.9	3.8	7.47e-01	0	41	104	348651520	70	13424
2026-01-30 13:35:04.33	330.55	7.80	-46.0	-57.1	3.8	7.43e-01	0	41	104	348651520	64	12334
2026-01-30 13:35:05.34	330.67	7.73	-45.8	-56.7	3.8	7.45e-01	0	41	104	348651520	63	12468
2026-01-30 13:35:06.35	330.78	7.66	-44.8	-55.7	3.8	7.46e-01	0	41	104	348651520	61	12385
2026-01-30 13:35:07.36	330.89	7.59	-44.5	-55.3	3.8	7.44e-01	0	41	104	348651520	61	11866
2026-01-30 13:35:08.37	331.00	7.53	-45.3	-56.1	3.8	7.44e-01	0	41	104	348651520	62	12362
2026-01-30 13:35:09.37	331.11	7.46	-52.0	-66.0	3.9	7.48e-01	0	41	104	348651520	76	17276
2026-01-30 13:35:10.38	331.22	7.39	-46.5	-57.4	3.8	7.46e-01	0	41	104	348651520	64	12727
2026-01-30 13:35:11.39	331.33	7.32	-48.1	-59.5	3.8	7.40e-01	0	41	104	348651520	68	12950
2026-01-30 13:35:12.39	331.44	7.26	-46.1	-57.1	3.8	7.44e-01	0	41	104	348651520	64	12272
2026-01-30 13:35:13.40	331.55	7.19	-45.7	-56.5	3.8	7.45e-01	0	41	104	348651520	63	12224
2026-01-30 13:35:14.41	331.65	7.12	-44.8	-55.5	3.8	7.47e-01	0	41	104	348651520	61	12206
2026-01-30 13:35:15.42	331.76	7.05	-46.3	-57.3	3.8	7.46e-01	0	41	104	348651520	63	13261
2026-01-30 13:35:16.42	331.87	6.99	-46.4	-57.5	3.8	7.45e-01	0	41	104	348651520	63	13706
2026-01-30 13:35:17.43	331.97	6.92	-49.6	-61.8	3.9	7.43e-01	0	41	104	348651520	71	14079
2026-01-30 13:35:18.44	332.08	6.85	-45.6	-56.4	3.8	7.43e-01	0	41	104	348651520	62	12672
2026-01-30 13:35:19.45	332.19	6.79	-47.9	-59.2	3.8	7.45e-01	0	41	104	348651520	67	13117
2026-01-30 13:35:20.46	332.29	6.72	-45.6	-56.5	3.8	7.45e-01	0	41	104	348651520	63	12127
2026-01-30 13:35:21.46	332.39	6.66	-45.2	-56.1	3.8	7.46e-01	0	41	104	348651520	62	12356
2026-01-30 13:35:22.47	332.50	6.59	-44.8	-55.5	3.9	7.39e-01	0	41	104	348651520	61	12110
2026-01-30 13:35:23.48	332.60	6.52	-46.1	-57.0	3.9	7.44e-01	0	41	104	348651520	63	12929
2026-01-30 13:35:24.49	332.70	6.46	-48.8	-51.8	5.3	7.05e-01	0	41	104	348651520	67	5641
2026-01-30 13:35:25.49	332.81	6.39	-47.9	-49.9	19.4	5.99e-01	0	41	0	349700096	67	4524
2026-01-30 13:35:26.50	332.91	6.33	-46.5	-48.1	23.0	6.02e-01	0	41	0	351272960	63	4619
2026-01-30 13:35:27.51	333.01	6.26	-46.5	-48.2	22.0	6.03e-01	0	41	0	353370112	65	4175
2026-01-30 13:35:28.52	333.11	6.19	-45.4	-46.8	23.6	6.01e-01	0	41	0	355467264	62	4230
2026-01-30 13:35:29.53	333.21	6.13	-45.2	-46.6	23.8	6.02e-01	0	41	0	357040128	62	4127
2026-01-30 13:35:30.53	333.31	6.06	-45.1	-46.5	23.9	6.02e-01	0	41	0	359137280	62	4083
2026-01-30 13:35:31.54	333.41	6.00	-45.1	-46.5	23.9	6.04e-01	0	41	0	360710144	62	4098
2026-01-30 13:35:32.55	333.51	5.93	-44.9	-46.3	24.1	6.03e-01	0	41	0	362807296	61	4204
2026-01-30 13:35:33.55	333.61	5.87	-45.1	-46.6	23.8	6.02e-01	0	41	0	364380160	61	4341
2026-01-30 13:35:34.56	333.70	5.80	-44.6	-45.9	24.3	6.02e-01	0	41	0	366477312	61	4050
2026-01-30 13:35:35.57	333.80	5.74	-44.7	-46.1	24.2	6.03e-01	0	41	0	368574464	61	4129
2026-01-30 13:35:36.57	333.90	5.67	-44.6	-46.0	24.4	6.00e-01	0	41	0	370147328	61	4061
2026-01-30 13:35:37.58	333.99	5.61	-44.7	-46.1	24.3	6.01e-01	0	41	0	372244480	61	4112
2026-01-30 13:35:38.59	334.09	5.55	-44.7	-46.1	24.2	6.00e-01	0	41	0	374341632	61	4127
2026-01-30 13:35:39.60	334.19	5.48	-44.9	-46.3	24.1	6.02e-01	0	41	0	375914496	61	4199
2026-01-30 13:35:40.60	334.28	5.42	-44.8	-46.2	24.2	6.04e-01	0	41	0	378011648	61	4147
2026-01-30 13:35:41.61	334.38	5.35	-44.6	-45.9	24.3	6.03e-01	0	41	0	379584512	61	4038
2026-01-30 13:35:42.62	334.47	5.29	-45.3	-46.8	23.5	6.01e-01	0	41	0	381681664	61	4483
2026-01-30 13:35:43.63	334.57	5.23	-45.1	-46.5	23.6	5.99e-01	0	41	0	383778816	61	4323
2026-01-30 13:35:44.63	334.66	5.16	-44.9	-46.4	23.8	6.02e-01	0	41	0	385351680	61	4249
2026-01-30 13:35:45.64	334.75	5.10	-44.3	-45.6	24.4	6.02e-01	0	41	0	387448832	60	4127
2026-01-30 13:35:46.65	334.85	5.04	-44.1	-45.5	24.3	5.98e-01	0	41	0	389021696	60	4084
2026-01-30 13:35:47.66	334.94	4.97	-51.6	-57.0	15.3	6.04e-01	0	41	0	391118848	73	7237
2026-01-30 13:35:48.67	335.03	4.91	-53.9	-71.8	3.8	7.43e-01	0	41	104	391118848	78	29717
2026-01-30 13:35:49.67	335.12	4.85	-54.3	-72.1	3.8	7.43e-01	0	41	104	391118848	79	29328
2026-01-30 13:35:50.68	335.21	4.78	-54.6	-72.4	3.8	7.43e-01	0	41	104	391118848	79	30181
2026-01-30 13:35:51.68	335.30	4.72	-54.7	-72.5	3.8	7.41e-01	0	41	104	391118848	80	28940
2026-01-30 13:35:52.69	335.39	4.66	-54.8	-72.6	3.8	7.44e-01	0	41	104	391118848	80	29306
2026-01-30 13:35:53.70	335.48	4.59	-55.0	-72.7	3.8	7.47e-01	0	41	104	391118848	80	29385
2026-01-30 13:35:54.71	335.57	4.53	-55.0	-72.6	3.8	7.45e-01	0	41	104	391118848	80	29129
2026-01-30 13:35:55.72	335.66	4.47	-55.0	-72.7	3.8	7.48e-01	0	41	104	391118848	80	29666
2026-01-30 13:35:56.72	335.75	4.41	-50.6	-53.0	15.6	6.01e-01	0	41	104	391118848	73	4592
2026-01-30 13:35:57.73	335.84	4.35	-55.0	-72.4	3.8	7.46e-01	0	41	104	391643136	80	28399
2026-01-30 13:35:58.73	335.93	4.28	-54.9	-72.8	3.8	7.47e-01	0	41	104	391643136	80	29782
2026-01-30 13:35:59.74	336.01	4.22	-54.8	-72.6	3.8	7.48e-01	0	41	104	391643136	80	29337
2026-01-30 13:36:00.74	336.10	4.16	-54.8	-72.6	3.8	7.46e-01	0	41	104	391643136	80	29173
2026-01-30 13:36:01.75	336.19	4.10	-54.8	-72.6	3.8	7.44e-01	0	41	104	391643136	80	29036
2026-01-30 13:36:02.76	336.27	4.04	-54.9	-72.7	3.8	7.43e-01	0	41	104	391643136	80	29503
2026-01-30 13:36:03.77	336.36	3.97	-54.9	-72.7	3.8	7.48e-01	0	41	104	391643136	80	29515
2026-01-30 13:36:04.78	336.45	3.91	-54.9	-72.7	3.8	7.45e-01	0	41	104	391643136	80	29416
2026-01-30 13:36:05.78	336.53	3.85	-54.9	-72.7	3.8	7.45e-01	0	41	104	391643136	80	29686
2026-01-30 13:36:06.79	336.62	3.79	-55.0	-72.8	3.8	7.45e-01	0	41	104	391643136	80	29766
2026-01-30 13:36:07.80	336.70	3.73	-55.0	-72.7	3.8	7.46e-01	0	41	104	391643136	80	29610
2026-01-30 13:36:08.81	336.79	3.67	-55.0	-72.6	3.8	7.46e-01	0	41	104	391643136	80	29112
2026-01-30 13:36:09.82	336.87	3.61	-54.9	-72.7	3.8	7.47e-01	0	41	104	391643136	80	29615
2026-01-30 13:36:10.82	336.95	3.55	-54.9	-72.7	3.8	7.44e-01	0	41	104	391643136	80	29418
2026-01-30 13:36:11.83	337.04	3.49	-54.9	-72.7	3.8	7.47e-01	0	41	104	391643136	80	29394
2026-01-30 13:36:12.84	337.12	3.43	-54.8	-72.6	3.8	7.46e-01	0	41	104	391643136	80	29347
2026-01-30 13:36:13.85	337.20	3.37	-54.8	-72.6	3.8	7.49e-01	0	41	104	391643136	80	29326
2026-01-30 13:36:14.85	337.28	3.31	-54.8	-72.6	3.8	7.46e-01	0	41	104	391643136	80	29244
2026-01-30 13:36:15.86	337.37	3.24	-54.8	-72.6	3.8	7.48e-01	0	41	104	391643136	80	29159
2026-01-30 13:36:16.87	337.45	3.18	-54.8	-72.6	3.8	7.46e-01	0	41	104	391643136	80	29183
2026-01-30 13:36:17.88	337.53	3.12	-54.8	-72.6	3.8	7.44e-01	0	41	104	391643136	80	29143
2026-01-30 13:36:18.89	337.61	3.06	-54.8	-72.6	3.8	7.49e-01	0	41	104	391643136	80	29057
2026-01-30 13:36:19.90	337.69	3.00	-54.8	-72.6	3.8	7.47e-01	0	41	104	391643136	80	29062
2026-01-30 13:36:20.91	337.77	2.94	-54.8	-72.6	3.8	7.45e-01	0	41	104	391643136	80	29034
2026-01-30 13:36:21.92	337.85	2.88	-54.7	-72.6	3.8	7.46e-01	0	41	104	391643136	80	29050
2026-01-30 13:36:22.93	337.93	2.83	-54.7	-72.5	3.8	7.43e-01	0	41	104	391643136	80	28996
2026-01-30 13:36:23.94	338.01	2.77	-54.7	-72.6	3.8	7.45e-01	0	41	104	391643136	80	29013
2026-01-30 13:36:24.94	338.09	2.71	-54.7	-72.6	3.8	7.47e-01	0	41	104	391643136	80	29023
