passes_logs/2026/01/30/R3.2S_Murmansk/R3.2S_Murmansk__20260130_124144_NOAA_21_JPSS-2_rec.log

#Pass ID: 20260130_124144_NOAA 21 (JPSS-2)
#Satellite: NOAA 21 (JPSS-2)
#Configuration: NOAA-21
#almurnet v.1.7.20251203
#Start time: 2026-01-30 12:41:45

#Version: 2.2.20231116
#Station: R3.2S_Murmansk
#Location: 33.079688 lon 68.888172 lat
#TLE: 1 54234U 22150A   26029.46216196  .00000141  00000+0  87503-4 0  9994
#TLE: 2 54234  98.7512 330.1880 0000955 196.3413 163.7732 14.19540905166865

#Time	Az	El	Level	Level2	SNR	BER	BlckErr	Temp	State	Recorded	gain1	gain2
2026-01-30 12:41:45.46	233.81	2.03	-54.2	-66.9	3.8	1.49e+00	0	39	0	0	79	16056
2026-01-30 12:41:46.47	233.90	2.08	-54.1	-66.9	3.8	1.49e+00	0	39	104	0	78	17009
2026-01-30 12:41:47.48	233.99	2.12	-54.1	-66.9	3.8	1.49e+00	0	39	104	0	78	16936
2026-01-30 12:41:48.49	234.08	2.17	-54.1	-66.9	3.8	1.49e+00	0	39	104	0	78	16914
2026-01-30 12:41:49.50	234.18	2.22	-54.1	-66.9	3.8	1.49e+00	0	39	104	0	78	17022
2026-01-30 12:41:50.51	234.27	2.27	-54.1	-66.9	3.8	1.49e+00	0	39	104	0	78	16947
2026-01-30 12:41:51.52	234.36	2.32	-54.1	-66.9	3.8	1.49e+00	0	39	104	0	78	16912
2026-01-30 12:41:52.52	234.46	2.37	-54.1	-66.9	3.8	1.49e+00	0	39	104	0	78	16913
2026-01-30 12:41:53.54	234.55	2.42	-54.1	-66.8	3.8	1.49e+00	0	39	104	0	78	16858
2026-01-30 12:41:54.54	234.64	2.46	-54.1	-66.9	3.8	1.49e+00	0	39	104	0	78	16893
2026-01-30 12:41:55.55	234.74	2.51	-54.1	-66.9	3.8	1.49e+00	0	39	104	0	78	16907
2026-01-30 12:41:56.56	234.83	2.56	-54.3	-67.1	3.8	1.49e+00	0	40	104	0	79	16422
2026-01-30 12:41:57.56	234.93	2.61	-54.4	-67.2	3.8	1.49e+00	0	39	104	0	79	16627
2026-01-30 12:41:58.57	235.02	2.66	-54.5	-67.3	3.8	1.49e+00	0	39	104	0	79	16752
2026-01-30 12:41:59.58	235.12	2.71	-54.5	-67.3	3.8	1.49e+00	0	40	104	0	79	16750
2026-01-30 12:42:00.59	235.22	2.76	-54.5	-67.3	3.8	1.49e+00	0	40	104	0	79	16802
2026-01-30 12:42:01.60	235.31	2.81	-54.5	-67.3	3.8	1.49e+00	0	40	104	0	79	16721
2026-01-30 12:42:02.60	235.41	2.85	-54.4	-67.2	3.8	1.49e+00	0	39	104	0	79	16659
2026-01-30 12:42:03.61	235.51	2.90	-54.4	-67.1	3.8	1.49e+00	0	40	104	0	79	16503
2026-01-30 12:42:04.62	235.60	2.95	-54.4	-67.1	3.8	1.49e+00	0	39	104	0	79	16484
2026-01-30 12:42:05.63	235.70	3.00	-54.3	-67.1	3.8	1.49e+00	0	40	104	0	79	16396
2026-01-30 12:42:06.63	235.80	3.05	-54.3	-67.0	3.8	1.49e+00	0	40	104	0	79	16265
2026-01-30 12:42:07.64	235.90	3.10	-54.2	-66.9	3.8	1.49e+00	0	39	104	0	79	16125
2026-01-30 12:42:08.65	236.00	3.15	-54.1	-66.9	3.8	1.49e+00	0	40	104	0	79	16010
2026-01-30 12:42:09.66	236.09	3.20	-54.1	-66.8	3.8	1.49e+00	0	40	104	0	79	15867
2026-01-30 12:42:10.66	236.19	3.24	-54.0	-66.7	3.8	1.49e+00	0	40	104	0	79	15718
2026-01-30 12:42:11.67	236.29	3.29	-53.9	-66.6	3.8	1.49e+00	0	40	104	0	79	15486
2026-01-30 12:42:12.68	236.39	3.34	-53.8	-66.6	3.8	1.49e+00	0	40	104	0	79	15403
2026-01-30 12:42:13.69	236.49	3.39	-53.7	-66.4	3.8	1.49e+00	0	40	104	0	79	15173
2026-01-30 12:42:14.70	236.59	3.44	-53.5	-66.3	3.8	1.49e+00	0	40	104	0	79	14927
2026-01-30 12:42:15.70	236.69	3.49	-53.3	-66.1	3.8	1.49e+00	0	40	104	0	78	15495
2026-01-30 12:42:16.71	236.79	3.54	-53.1	-65.8	3.8	1.49e+00	0	40	104	0	78	14957
2026-01-30 12:42:17.72	236.90	3.59	-52.7	-65.4	3.8	1.49e+00	0	40	104	0	77	15114
2026-01-30 12:42:18.72	237.00	3.64	-52.5	-65.2	3.8	1.49e+00	0	40	104	0	77	14767
2026-01-30 12:42:19.73	237.10	3.69	-52.5	-65.2	3.8	1.49e+00	0	40	104	0	77	14757
2026-01-30 12:42:20.74	237.20	3.74	-52.5	-65.2	3.8	1.49e+00	0	40	104	0	76	15683
2026-01-30 12:42:21.74	237.30	3.78	-52.5	-65.2	3.8	1.49e+00	0	40	104	0	76	15665
2026-01-30 12:42:22.75	237.41	3.83	-52.4	-65.2	3.8	1.49e+00	0	40	104	0	76	15613
2026-01-30 12:42:23.76	237.51	3.88	-52.4	-65.1	3.8	1.49e+00	0	40	104	0	76	15526
2026-01-30 12:42:24.77	237.61	3.93	-52.4	-65.1	3.8	1.49e+00	0	40	104	0	76	15411
2026-01-30 12:42:25.78	237.72	3.98	-52.4	-65.0	3.8	1.49e+00	0	40	104	0	76	15293
2026-01-30 12:42:26.78	237.82	4.03	-52.4	-64.9	3.8	1.49e+00	0	40	104	0	76	15204
2026-01-30 12:42:27.79	237.93	4.08	-52.4	-65.0	3.8	1.49e+00	0	40	104	0	76	15228
2026-01-30 12:42:28.79	238.03	4.13	-52.4	-65.0	3.8	1.49e+00	0	40	104	0	76	15231
2026-01-30 12:42:29.79	238.13	4.18	-52.4	-65.0	3.8	1.49e+00	0	40	104	0	76	15392
2026-01-30 12:42:30.80	238.24	4.23	-52.4	-65.1	3.8	1.49e+00	0	40	104	0	76	15457
2026-01-30 12:42:31.81	238.35	4.28	-52.4	-65.1	3.8	1.49e+00	0	40	104	0	76	15452
2026-01-30 12:42:32.82	238.45	4.32	-52.4	-65.0	3.8	1.49e+00	0	40	104	0	76	15377
2026-01-30 12:42:33.82	238.56	4.37	-52.4	-65.0	3.8	1.49e+00	0	40	104	0	76	15309
2026-01-30 12:42:34.83	238.67	4.42	-52.4	-65.0	3.8	1.49e+00	0	40	104	0	76	15324
2026-01-30 12:42:35.84	238.77	4.47	-52.4	-65.0	3.8	1.49e+00	0	40	104	0	76	15334
2026-01-30 12:42:36.85	238.88	4.52	-52.4	-64.9	3.8	1.49e+00	0	40	104	0	76	15112
2026-01-30 12:42:37.86	238.99	4.57	-52.3	-64.6	3.8	1.49e+00	0	40	104	0	76	14702
2026-01-30 12:42:38.87	239.10	4.62	-52.3	-64.4	3.8	1.49e+00	0	40	104	0	76	14249
2026-01-30 12:42:39.87	239.21	4.67	-52.3	-64.3	3.8	1.49e+00	0	40	104	0	76	14096
2026-01-30 12:42:40.88	239.32	4.72	-52.3	-64.3	3.8	1.49e+00	0	40	104	0	76	14181
2026-01-30 12:42:41.89	239.43	4.77	-52.2	-63.7	3.8	1.49e+00	0	40	104	0	76	13152
2026-01-30 12:42:42.89	239.53	4.82	-52.0	-61.2	4.3	1.46e+00	0	40	104	0	76	9854
2026-01-30 12:42:43.90	239.64	4.87	-51.4	-57.7	6.2	4.53e-01	0	41	0	0	74	7397
2026-01-30 12:42:44.91	239.76	4.92	-50.4	-54.8	9.0	4.22e-02	0	40	0	3145728	72	5930
2026-01-30 12:42:45.92	239.87	4.97	-49.3	-52.4	11.5	1.21e-03	0	40	0	6291456	70	5064
2026-01-30 12:42:46.93	239.98	5.02	-48.2	-50.6	13.4	5.26e-05	0	40	0	9437184	68	4631
2026-01-30 12:42:47.94	240.09	5.06	-49.4	-52.5	11.6	5.72e-05	0	40	0	12582912	69	5427
2026-01-30 12:42:48.94	240.20	5.11	-51.6	-58.9	5.4	1.58e-01	0	40	0	15728640	73	8996
2026-01-30 12:42:49.95	240.31	5.16	-46.3	-47.9	16.0	0.00e+00	0	40	0	18874368	64	4252
2026-01-30 12:42:50.95	240.43	5.21	-52.0	-62.9	3.9	6.61e-01	0	40	104	22020096	74	13532
2026-01-30 12:42:51.97	240.54	5.26	-45.5	-46.8	17.0	5.55e-02	0	40	104	22020096	61	4487
2026-01-30 12:42:52.97	240.65	5.31	-44.9	-46.1	17.9	0.00e+00	0	40	0	25165824	61	4129
2026-01-30 12:42:53.97	240.76	5.36	-44.9	-46.2	17.8	0.00e+00	0	41	0	28311552	61	4157
2026-01-30 12:42:54.98	240.88	5.41	-45.0	-46.3	17.7	0.00e+00	0	40	0	31457280	61	4209
2026-01-30 12:42:55.99	240.99	5.46	-45.1	-46.4	17.6	0.00e+00	0	41	0	34603008	61	4276
2026-01-30 12:42:57.00	241.11	5.51	-44.9	-46.2	17.8	0.00e+00	0	40	0	37748736	61	4185
2026-01-30 12:42:58.01	241.22	5.56	-45.0	-46.3	17.6	0.00e+00	0	40	0	40894464	61	4242
2026-01-30 12:42:59.01	241.34	5.61	-44.7	-45.9	18.1	0.00e+00	0	41	0	42991616	61	4022
2026-01-30 12:43:00.02	241.46	5.66	-44.5	-45.7	18.3	0.00e+00	0	41	0	46137344	61	3953
2026-01-30 12:43:01.03	241.57	5.71	-44.5	-45.7	18.3	0.00e+00	0	40	0	49283072	60	4164
2026-01-30 12:43:02.04	241.69	5.76	-44.3	-45.5	18.5	0.00e+00	0	40	0	52428800	60	4087
2026-01-30 12:43:03.05	241.81	5.80	-44.4	-45.6	18.4	0.00e+00	0	40	0	55574528	60	4102
2026-01-30 12:43:04.05	241.92	5.85	-44.3	-45.5	18.5	0.00e+00	0	41	0	58720256	60	4057
2026-01-30 12:43:05.06	242.04	5.90	-44.4	-45.6	18.4	0.00e+00	0	40	0	61865984	60	4101
2026-01-30 12:43:06.07	242.16	5.95	-44.3	-45.5	18.6	0.00e+00	0	40	0	66060288	60	4056
2026-01-30 12:43:07.07	242.28	6.00	-44.3	-45.5	18.6	0.00e+00	0	40	0	69206016	60	4063
2026-01-30 12:43:08.08	242.40	6.05	-44.4	-45.5	18.5	0.00e+00	0	40	0	72351744	60	4096
2026-01-30 12:43:09.09	242.52	6.10	-44.3	-45.4	18.6	0.00e+00	0	41	0	75497472	60	4048
2026-01-30 12:43:10.10	242.64	6.15	-44.1	-45.3	18.8	0.00e+00	0	41	0	78643200	60	3972
2026-01-30 12:43:11.11	242.76	6.20	-44.2	-45.4	18.6	0.00e+00	0	40	0	81788928	60	4020
2026-01-30 12:43:12.12	242.88	6.25	-44.2	-45.4	18.7	0.00e+00	0	41	0	84934656	60	4012
2026-01-30 12:43:13.13	243.00	6.30	-44.3	-45.4	18.6	0.00e+00	0	41	0	88080384	60	4038
2026-01-30 12:43:14.13	243.12	6.35	-44.0	-45.1	18.9	0.00e+00	0	41	0	90177536	60	3912
2026-01-30 12:43:15.14	243.24	6.40	-44.0	-45.2	18.8	0.00e+00	0	40	0	93323264	60	3922
2026-01-30 12:43:16.15	243.36	6.45	-44.3	-45.5	18.9	0.00e+00	0	41	0	96468992	59	4292
2026-01-30 12:43:17.16	243.49	6.49	-44.3	-45.5	18.9	0.00e+00	0	41	0	99614720	59	4310
2026-01-30 12:43:18.17	243.61	6.54	-44.4	-45.5	18.8	0.00e+00	0	40	0	103809024	59	4338
2026-01-30 12:43:19.18	243.73	6.59	-44.4	-45.6	18.8	0.00e+00	0	41	0	106954752	59	4354
2026-01-30 12:43:20.19	243.86	6.64	-44.5	-45.7	18.7	0.00e+00	0	41	0	110100480	59	4401
2026-01-30 12:43:21.20	243.98	6.69	-44.4	-45.5	18.8	0.00e+00	0	41	0	113246208	59	4331
2026-01-30 12:43:22.20	244.11	6.74	-44.2	-45.3	19.1	0.00e+00	0	40	0	116391936	59	4225
2026-01-30 12:43:23.22	244.23	6.79	-44.2	-45.4	19.1	0.00e+00	0	40	0	119537664	59	4247
2026-01-30 12:43:24.23	244.36	6.84	-44.2	-45.3	19.1	0.00e+00	0	41	0	122683392	59	4224
2026-01-30 12:43:25.23	244.48	6.89	-44.1	-45.2	19.2	0.00e+00	0	40	0	125829120	59	4187
2026-01-30 12:43:26.24	244.61	6.94	-44.1	-45.2	19.2	0.00e+00	0	40	0	128974848	59	4174
2026-01-30 12:43:27.25	244.74	6.99	-44.0	-45.0	19.4	0.00e+00	0	41	0	132120576	59	4094
2026-01-30 12:43:28.26	244.86	7.04	-43.9	-45.0	19.4	0.00e+00	0	41	0	135266304	59	4093
2026-01-30 12:43:29.27	244.99	7.08	-43.9	-45.0	19.4	0.00e+00	0	41	0	138412032	59	4072
2026-01-30 12:43:30.28	245.12	7.13	-44.0	-45.1	19.3	0.00e+00	0	41	0	141557760	59	4136
2026-01-30 12:43:31.28	245.25	7.18	-44.0	-45.0	19.4	0.00e+00	0	41	0	144703488	59	4096
2026-01-30 12:43:32.29	245.37	7.23	-43.8	-44.9	19.6	0.00e+00	0	41	0	147849216	59	4025
2026-01-30 12:43:33.30	245.50	7.28	-43.9	-45.0	19.5	0.00e+00	0	40	0	150994944	59	4070
2026-01-30 12:43:34.30	245.63	7.33	-43.8	-44.8	19.6	0.00e+00	0	41	0	154140672	59	4002
2026-01-30 12:43:35.32	245.76	7.38	-43.8	-44.9	19.6	0.00e+00	0	41	0	157286400	59	4017
2026-01-30 12:43:36.32	245.89	7.43	-43.9	-44.9	19.5	0.00e+00	0	41	0	160432128	59	4040
2026-01-30 12:43:37.33	246.02	7.48	-43.8	-44.9	19.6	0.00e+00	0	41	0	163577856	59	4029
2026-01-30 12:43:38.34	246.16	7.52	-43.9	-45.0	19.5	0.00e+00	0	41	0	166723584	59	4053
2026-01-30 12:43:39.35	246.29	7.57	-43.8	-44.8	19.6	0.00e+00	0	41	0	169869312	59	4002
2026-01-30 12:43:40.35	246.42	7.62	-43.7	-44.7	19.7	0.00e+00	0	41	0	173015040	59	3946
2026-01-30 12:43:41.36	246.55	7.67	-43.8	-44.8	19.6	0.00e+00	0	41	0	176160768	59	3994
2026-01-30 12:43:42.37	246.68	7.72	-43.8	-44.8	19.6	0.00e+00	0	40	0	179306496	59	3997
2026-01-30 12:43:43.38	246.82	7.77	-43.7	-44.8	19.7	0.00e+00	0	41	0	182452224	59	3979
2026-01-30 12:43:44.39	246.95	7.82	-43.8	-44.9	19.6	0.00e+00	0	41	0	185597952	59	4010
2026-01-30 12:43:45.40	247.09	7.86	-43.6	-44.7	19.8	0.00e+00	0	41	0	188743680	59	3920
2026-01-30 12:43:46.40	247.22	7.91	-43.6	-44.7	19.7	0.00e+00	0	41	0	191889408	59	3928
2026-01-30 12:43:47.41	247.35	7.96	-43.8	-44.8	19.6	0.00e+00	0	41	0	195035136	59	3984
2026-01-30 12:43:48.42	247.49	8.01	-43.8	-44.8	19.6	0.00e+00	0	41	0	198180864	59	3986
2026-01-30 12:43:49.43	247.63	8.06	-43.8	-44.9	19.6	0.00e+00	0	41	0	201326592	59	4007
2026-01-30 12:43:50.44	247.76	8.11	-43.7	-44.7	19.7	0.00e+00	0	41	0	204472320	59	3951
2026-01-30 12:43:51.44	247.90	8.15	-43.7	-44.8	19.7	0.00e+00	0	41	0	207618048	59	3960
2026-01-30 12:43:52.46	248.04	8.20	-43.8	-44.9	19.6	0.00e+00	0	41	0	210763776	59	4010
2026-01-30 12:43:53.47	248.18	8.25	-43.8	-44.8	19.6	0.00e+00	0	41	0	213909504	59	3991
2026-01-30 12:43:54.47	248.31	8.30	-43.7	-44.8	19.7	0.00e+00	0	41	0	217055232	59	3961
2026-01-30 12:43:55.48	248.45	8.35	-43.8	-44.8	19.7	0.00e+00	0	41	0	220200960	59	3987
2026-01-30 12:43:56.49	248.59	8.39	-43.7	-44.7	19.7	0.00e+00	0	41	0	223346688	59	3955
2026-01-30 12:43:57.49	248.73	8.44	-43.7	-44.8	19.7	0.00e+00	0	41	0	226492416	59	3973
2026-01-30 12:43:58.50	248.87	8.49	-43.6	-44.7	19.8	0.00e+00	0	41	0	229638144	59	3931
2026-01-30 12:43:59.51	249.01	8.54	-43.5	-44.5	20.0	0.00e+00	0	41	0	232783872	59	3855
2026-01-30 12:44:00.52	249.15	8.59	-43.5	-44.6	19.9	0.00e+00	0	41	0	235929600	59	3871
2026-01-30 12:44:01.53	249.29	8.63	-43.5	-44.5	20.0	0.00e+00	0	41	0	239075328	58	4064
2026-01-30 12:44:02.54	249.43	8.68	-43.5	-44.5	20.0	0.00e+00	0	41	0	242221056	58	4076
2026-01-30 12:44:03.55	249.57	8.73	-43.6	-44.6	19.9	0.00e+00	0	41	0	245366784	58	4121
2026-01-30 12:44:04.56	249.72	8.78	-43.4	-44.4	20.0	0.00e+00	0	41	0	248512512	58	4030
2026-01-30 12:44:05.57	249.86	8.82	-43.3	-44.3	20.1	0.00e+00	0	41	0	251658240	58	3972
2026-01-30 12:44:06.57	250.00	8.87	-43.5	-44.5	19.9	0.00e+00	0	41	0	254803968	58	4068
2026-01-30 12:44:07.58	250.15	8.92	-43.4	-44.3	20.1	0.00e+00	0	41	0	257949696	58	3995
2026-01-30 12:44:08.59	250.29	8.97	-43.2	-44.2	20.3	0.00e+00	0	41	0	261095424	58	3925
2026-01-30 12:44:09.60	250.44	9.01	-43.2	-44.2	20.3	0.00e+00	0	41	0	264241152	58	3930
2026-01-30 12:44:10.61	250.58	9.06	-43.2	-44.2	20.3	0.00e+00	0	41	0	267386880	58	3927
2026-01-30 12:44:11.61	250.73	9.11	-43.1	-44.0	20.4	0.00e+00	0	41	0	270532608	58	3866
2026-01-30 12:44:12.62	250.87	9.15	-43.1	-44.1	20.3	0.00e+00	0	41	0	273678336	58	3890
2026-01-30 12:44:13.63	251.02	9.20	-43.2	-44.2	20.2	0.00e+00	0	41	0	276824064	58	3952
2026-01-30 12:44:14.64	251.17	9.25	-43.1	-44.1	20.3	0.00e+00	0	41	0	279969792	58	3884
2026-01-30 12:44:15.65	251.31	9.29	-43.1	-44.1	20.4	0.00e+00	0	41	0	283115520	58	3874
2026-01-30 12:44:16.66	251.46	9.34	-43.1	-44.0	20.4	0.00e+00	0	41	0	286261248	58	3852
2026-01-30 12:44:17.67	251.61	9.39	-43.1	-44.1	20.4	0.00e+00	0	41	0	289406976	58	3889
2026-01-30 12:44:18.67	251.76	9.43	-43.2	-44.2	20.3	0.00e+00	0	41	0	292552704	58	3924
2026-01-30 12:44:19.68	251.91	9.48	-43.2	-44.2	20.2	0.00e+00	0	40	0	295698432	58	3939
2026-01-30 12:44:20.69	252.06	9.53	-43.1	-44.1	20.4	0.00e+00	0	41	0	298844160	58	3888
2026-01-30 12:44:21.70	252.21	9.57	-43.1	-44.1	20.4	0.00e+00	0	41	0	301989888	58	3899
2026-01-30 12:44:22.71	252.36	9.62	-43.2	-44.1	20.4	0.00e+00	0	41	0	305135616	58	3904
2026-01-30 12:44:23.72	252.51	9.67	-43.1	-44.0	20.5	0.00e+00	0	41	0	308281344	58	3851
2026-01-30 12:44:24.73	252.66	9.71	-43.1	-44.0	20.5	0.00e+00	0	40	0	311427072	58	3856
2026-01-30 12:44:25.73	252.81	9.76	-43.1	-44.0	20.5	0.00e+00	0	41	0	314572800	58	3863
2026-01-30 12:44:26.74	252.97	9.80	-43.1	-44.1	20.4	0.00e+00	0	41	0	317718528	58	3896
2026-01-30 12:44:27.75	253.12	9.85	-43.2	-44.2	20.4	0.00e+00	0	41	0	320864256	58	3929
2026-01-30 12:44:28.75	253.27	9.89	-43.0	-44.0	20.6	0.00e+00	0	41	0	324009984	58	3835
2026-01-30 12:44:29.76	253.43	9.94	-42.9	-43.8	20.7	0.00e+00	0	41	0	327155712	57	3974
2026-01-30 12:44:30.77	253.58	9.99	-42.9	-43.8	20.7	0.00e+00	0	41	0	330301440	57	3977
2026-01-30 12:44:31.79	253.74	10.03	-42.9	-43.8	20.7	0.00e+00	0	41	0	333447168	57	4000
2026-01-30 12:44:32.80	253.89	10.08	-43.0	-44.0	20.5	0.00e+00	0	41	0	336592896	57	4054
2026-01-30 12:44:33.81	254.05	10.12	-42.9	-43.8	20.7	0.00e+00	0	41	0	339738624	57	3980
2026-01-30 12:44:34.81	254.20	10.17	-43.0	-43.9	20.6	0.00e+00	0	41	0	342884352	57	4024
2026-01-30 12:44:35.82	254.36	10.21	-42.8	-43.7	20.7	0.00e+00	0	41	0	346030080	57	3946
2026-01-30 12:44:36.83	254.52	10.26	-42.7	-43.6	20.8	0.00e+00	0	41	0	349175808	57	3910
2026-01-30 12:44:37.83	254.67	10.30	-42.7	-43.6	20.8	0.00e+00	0	41	0	352321536	57	3905
2026-01-30 12:44:38.84	254.83	10.35	-42.7	-43.6	20.8	0.00e+00	0	41	0	355467264	57	3900
2026-01-30 12:44:39.85	254.99	10.39	-42.7	-43.6	20.8	0.00e+00	0	41	0	358612992	57	3888
2026-01-30 12:44:40.85	255.15	10.43	-42.7	-43.6	20.9	0.00e+00	0	41	0	361758720	57	3879
2026-01-30 12:44:41.86	255.31	10.48	-42.7	-43.6	20.8	0.00e+00	0	41	0	364904448	57	3898
2026-01-30 12:44:42.87	255.47	10.52	-42.7	-43.6	20.9	0.00e+00	0	41	0	368050176	57	3888
2026-01-30 12:44:43.88	255.63	10.57	-42.8	-43.7	20.7	0.00e+00	0	41	0	371195904	57	3940
2026-01-30 12:44:44.89	255.79	10.61	-42.8	-43.7	20.8	0.00e+00	0	41	0	374341632	57	3944
2026-01-30 12:44:45.89	255.95	10.65	-42.8	-43.7	20.7	0.00e+00	0	41	0	377487360	57	3951
2026-01-30 12:44:46.90	256.11	10.70	-42.8	-43.7	20.7	0.00e+00	0	41	0	380633088	57	3957
2026-01-30 12:44:47.91	256.27	10.74	-42.8	-43.7	20.8	0.00e+00	0	41	0	383778816	57	3937
2026-01-30 12:44:48.92	256.44	10.79	-42.8	-43.7	20.8	0.00e+00	0	41	0	386924544	57	3956
2026-01-30 12:44:49.93	256.60	10.83	-42.8	-43.7	20.8	0.00e+00	0	41	0	390070272	57	3928
2026-01-30 12:44:50.93	256.76	10.87	-42.7	-43.6	20.9	0.00e+00	0	41	0	393216000	57	3912
2026-01-30 12:44:51.94	256.93	10.91	-42.7	-43.6	20.9	0.00e+00	0	41	0	396361728	57	3894
2026-01-30 12:44:52.95	257.09	10.96	-42.7	-43.6	20.9	0.00e+00	0	41	0	399507456	57	3883
2026-01-30 12:44:53.96	257.26	11.00	-42.7	-43.6	20.9	0.00e+00	0	41	0	402653184	57	3888
2026-01-30 12:44:54.96	257.42	11.04	-42.9	-43.8	20.7	0.00e+00	0	41	0	405798912	57	3977
2026-01-30 12:44:55.97	257.59	11.09	-42.8	-43.8	20.8	0.00e+00	0	41	0	408944640	57	3964
2026-01-30 12:44:56.98	257.75	11.13	-42.9	-43.9	20.7	0.00e+00	0	41	0	412090368	57	4019
2026-01-30 12:44:57.99	257.92	11.17	-42.9	-43.8	20.7	0.00e+00	0	41	0	415236096	57	3994
2026-01-30 12:44:59.00	258.09	11.21	-43.0	-43.9	20.6	0.00e+00	0	41	0	418381824	57	4035
2026-01-30 12:45:00.01	258.26	11.25	-43.1	-44.0	20.5	0.00e+00	0	41	0	421527552	57	4078
2026-01-30 12:45:01.02	258.42	11.30	-42.9	-43.9	20.7	0.00e+00	0	41	0	424673280	57	4010
2026-01-30 12:45:02.03	258.59	11.34	-43.0	-43.9	20.6	0.00e+00	0	41	0	427819008	57	4037
2026-01-30 12:45:03.03	258.76	11.38	-43.0	-44.0	20.5	0.00e+00	0	41	0	430964736	57	4069
2026-01-30 12:45:04.04	258.93	11.42	-43.0	-43.9	20.6	0.00e+00	0	41	0	434110464	57	4050
2026-01-30 12:45:05.05	259.10	11.46	-43.0	-44.0	20.6	0.00e+00	0	41	0	437256192	57	4055
2026-01-30 12:45:06.06	259.27	11.50	-43.0	-44.0	20.6	0.00e+00	0	41	0	440401920	57	4061
2026-01-30 12:45:07.07	259.44	11.54	-43.0	-44.0	20.6	0.00e+00	0	41	0	443547648	57	4080
2026-01-30 12:45:08.08	259.62	11.58	-43.0	-43.9	20.7	0.00e+00	0	41	0	446693376	57	4042
2026-01-30 12:45:09.09	259.79	11.62	-42.9	-43.8	20.7	0.00e+00	0	41	0	449839104	57	3999
2026-01-30 12:45:10.10	259.96	11.67	-42.9	-43.8	20.7	0.00e+00	0	41	0	452984832	57	3994
2026-01-30 12:45:11.11	260.13	11.71	-42.9	-43.8	20.7	0.00e+00	0	41	0	456130560	57	3990
2026-01-30 12:45:12.12	260.31	11.75	-42.8	-43.7	20.8	0.00e+00	0	41	0	459276288	57	3952
2026-01-30 12:45:13.12	260.48	11.79	-42.6	-43.5	21.0	0.00e+00	0	41	0	462422016	57	3864
2026-01-30 12:45:14.13	260.65	11.83	-42.6	-43.5	21.0	0.00e+00	0	41	0	465567744	57	3854
2026-01-30 12:45:15.13	260.83	11.86	-42.6	-43.5	21.0	0.00e+00	0	41	0	468713472	57	3859
2026-01-30 12:45:16.14	261.00	11.90	-42.6	-43.5	21.0	0.00e+00	0	41	0	471859200	57	3851
2026-01-30 12:45:17.15	261.18	11.94	-42.6	-43.5	21.0	0.00e+00	0	41	0	475004928	57	3867
2026-01-30 12:45:18.16	261.35	11.98	-42.7	-43.6	20.9	0.00e+00	0	41	0	478150656	57	3890
2026-01-30 12:45:19.17	261.53	12.02	-42.8	-43.7	20.9	0.00e+00	0	41	0	481296384	57	3924
2026-01-30 12:45:20.18	261.71	12.06	-42.9	-43.8	20.8	0.00e+00	0	41	0	484442112	57	3974
2026-01-30 12:45:21.19	261.89	12.10	-43.0	-43.9	20.6	0.00e+00	0	41	0	487587840	57	4049
2026-01-30 12:45:22.19	262.06	12.14	-42.9	-43.8	20.8	0.00e+00	0	41	0	490733568	57	3984
2026-01-30 12:45:23.20	262.24	12.17	-42.9	-43.9	20.8	0.00e+00	0	41	0	493879296	57	4005
2026-01-30 12:45:24.21	262.42	12.21	-42.8	-43.8	20.8	0.00e+00	0	41	0	497025024	57	3969
2026-01-30 12:45:25.22	262.60	12.25	-42.9	-43.8	20.8	0.00e+00	0	41	0	500170752	57	3993
2026-01-30 12:45:26.22	262.78	12.29	-42.9	-43.9	20.7	0.00e+00	0	41	0	503316480	57	4014
2026-01-30 12:45:27.23	262.96	12.32	-42.8	-43.7	20.9	0.00e+00	0	41	0	506462208	57	3934
2026-01-30 12:45:28.23	263.14	12.36	-42.8	-43.7	20.9	0.00e+00	0	41	0	509607936	57	3946
2026-01-30 12:45:29.24	263.32	12.40	-42.9	-43.8	20.8	0.00e+00	0	41	0	512753664	57	3994
2026-01-30 12:45:30.25	263.50	12.44	-42.9	-43.8	20.7	0.00e+00	0	41	0	515899392	57	3996
2026-01-30 12:45:31.26	263.68	12.47	-43.0	-43.9	20.7	0.00e+00	0	41	0	519045120	57	4025
2026-01-30 12:45:32.27	263.86	12.51	-42.8	-43.7	20.9	0.00e+00	0	41	0	522190848	57	3939
2026-01-30 12:45:33.28	264.05	12.54	-42.8	-43.8	20.8	0.00e+00	0	41	0	525336576	57	3963
2026-01-30 12:45:34.29	264.23	12.58	-42.9	-43.8	20.8	0.00e+00	0	41	0	528482304	57	3987
2026-01-30 12:45:35.30	264.41	12.62	-42.9	-43.8	20.8	0.00e+00	0	41	0	531628032	57	3978
2026-01-30 12:45:36.31	264.60	12.65	-42.9	-43.8	20.8	0.00e+00	0	41	0	534773760	57	3971
2026-01-30 12:45:37.31	264.78	12.69	-42.9	-43.8	20.7	0.00e+00	0	41	0	537919488	57	3995
2026-01-30 12:45:38.32	264.96	12.72	-42.9	-43.8	20.8	0.00e+00	0	41	0	541065216	57	3996
2026-01-30 12:45:39.33	265.15	12.76	-42.9	-43.9	20.8	0.00e+00	0	41	0	544210944	57	4010
2026-01-30 12:45:40.34	265.34	12.79	-42.9	-43.8	20.8	0.00e+00	0	41	0	547356672	57	3969
2026-01-30 12:45:41.35	265.52	12.83	-42.7	-43.7	20.9	0.00e+00	0	41	0	550502400	57	3915
2026-01-30 12:45:42.35	265.71	12.86	-42.7	-43.6	21.0	0.00e+00	0	41	0	553648128	57	3889
2026-01-30 12:45:43.36	265.89	12.89	-42.9	-43.8	20.8	0.00e+00	0	41	0	556793856	57	3975
2026-01-30 12:45:44.37	266.08	12.93	-42.7	-43.6	20.9	0.00e+00	0	41	0	559939584	57	3902
2026-01-30 12:45:45.37	266.27	12.96	-42.7	-43.6	20.9	0.00e+00	0	41	0	563085312	57	3899
2026-01-30 12:45:46.38	266.46	12.99	-42.6	-43.5	21.0	0.00e+00	0	41	0	566231040	57	3853
2026-01-30 12:45:47.39	266.65	13.03	-42.6	-43.5	21.0	0.00e+00	0	41	0	569376768	57	3839
2026-01-30 12:45:48.39	266.83	13.06	-42.7	-43.6	21.0	0.00e+00	0	41	0	572522496	57	3873
2026-01-30 12:45:49.41	267.02	13.09	-42.6	-43.6	21.0	0.00e+00	0	41	0	575668224	57	3869
2026-01-30 12:45:50.41	267.21	13.12	-42.7	-43.6	20.9	0.00e+00	0	41	0	578813952	57	3884
2026-01-30 12:45:51.42	267.40	13.16	-42.7	-43.6	21.0	0.00e+00	0	41	0	581959680	57	3891
2026-01-30 12:45:52.43	267.59	13.19	-42.7	-43.7	21.0	0.00e+00	0	41	0	585105408	57	3915
2026-01-30 12:45:53.44	267.78	13.22	-42.7	-43.6	21.0	0.00e+00	0	41	0	588251136	57	3875
2026-01-30 12:45:54.45	267.98	13.25	-42.6	-43.5	21.1	0.00e+00	0	41	0	591396864	57	3847
2026-01-30 12:45:55.46	268.17	13.28	-42.6	-43.6	21.0	0.00e+00	0	41	0	594542592	57	3871
2026-01-30 12:45:56.46	268.36	13.31	-42.6	-43.5	21.1	0.00e+00	0	41	0	597688320	57	3829
2026-01-30 12:45:57.47	268.55	13.34	-42.7	-43.6	20.9	0.00e+00	0	41	0	600834048	57	3900
2026-01-30 12:45:58.48	268.74	13.37	-42.7	-43.6	21.0	0.00e+00	0	41	0	603979776	57	3875
2026-01-30 12:45:59.49	268.94	13.40	-42.6	-43.5	21.0	0.00e+00	0	41	0	607125504	57	3865
2026-01-30 12:46:00.49	269.13	13.43	-42.7	-43.6	20.9	0.00e+00	0	41	0	610271232	57	3898
2026-01-30 12:46:01.49	269.32	13.46	-42.8	-43.7	20.9	0.00e+00	0	41	0	613416960	57	3921
2026-01-30 12:46:02.50	269.52	13.49	-42.8	-43.7	20.9	0.00e+00	0	41	0	616562688	57	3941
2026-01-30 12:46:03.51	269.71	13.52	-42.8	-43.7	20.9	0.00e+00	0	41	0	619708416	57	3939
2026-01-30 12:46:04.52	269.91	13.55	-42.9	-43.8	20.8	0.00e+00	0	41	0	622854144	57	3981
2026-01-30 12:46:05.53	270.10	13.58	-42.7	-43.6	21.0	0.00e+00	0	41	0	625999872	57	3904
2026-01-30 12:46:06.54	270.30	13.61	-42.5	-43.4	21.2	0.00e+00	0	41	0	629145600	57	3800
2026-01-30 12:46:07.55	270.49	13.63	-42.6	-43.5	21.1	0.00e+00	0	41	0	632291328	57	3844
2026-01-30 12:46:08.56	270.69	13.66	-42.6	-43.5	21.1	0.00e+00	0	41	0	635437056	57	3846
2026-01-30 12:46:09.57	270.89	13.69	-42.5	-43.3	21.2	0.00e+00	0	41	0	639631360	56	4002
2026-01-30 12:46:10.57	271.08	13.72	-42.6	-43.4	21.1	0.00e+00	0	41	0	642777088	56	4051
2026-01-30 12:46:11.58	271.28	13.74	-42.6	-43.4	21.2	0.00e+00	0	41	0	644874240	56	4048
2026-01-30 12:46:12.58	271.48	13.77	-42.5	-43.4	21.2	0.00e+00	0	41	0	648019968	56	4043
2026-01-30 12:46:13.59	271.68	13.79	-42.6	-43.4	21.2	0.00e+00	0	41	0	651165696	56	4047
2026-01-30 12:46:14.60	271.88	13.82	-42.5	-43.4	21.2	0.00e+00	0	40	0	654311424	56	4043
2026-01-30 12:46:15.60	272.07	13.85	-42.5	-43.4	21.2	0.00e+00	0	41	0	657457152	56	4023
2026-01-30 12:46:16.61	272.27	13.87	-42.6	-43.5	21.1	0.00e+00	0	41	0	660602880	56	4084
2026-01-30 12:46:17.62	272.47	13.90	-42.6	-43.5	21.1	0.00e+00	0	41	0	663748608	56	4090
2026-01-30 12:46:18.63	272.67	13.92	-42.5	-43.4	21.3	0.00e+00	0	41	0	666894336	56	4016
2026-01-30 12:46:19.64	272.87	13.95	-42.6	-43.4	21.2	0.00e+00	0	41	0	670040064	56	4050
2026-01-30 12:46:20.65	273.07	13.97	-42.4	-43.2	21.3	0.00e+00	0	41	0	673185792	56	3955
2026-01-30 12:46:21.65	273.27	13.99	-42.3	-43.1	21.4	0.00e+00	0	41	0	676331520	56	3910
2026-01-30 12:46:22.66	273.47	14.02	-42.4	-43.3	21.3	0.00e+00	0	41	0	680525824	56	3967
2026-01-30 12:46:23.67	273.68	14.04	-42.5	-43.4	21.2	0.00e+00	0	41	0	683671552	56	4010
2026-01-30 12:46:24.69	273.88	14.06	-42.6	-43.5	21.1	0.00e+00	0	41	0	686817280	56	4064
2026-01-30 12:46:25.69	274.08	14.09	-42.6	-43.5	21.1	0.00e+00	0	41	0	689963008	56	4075
2026-01-30 12:46:26.70	274.28	14.11	-42.7	-43.5	21.1	0.00e+00	0	41	0	692060160	56	4098
2026-01-30 12:46:27.71	274.49	14.13	-42.6	-43.5	21.2	0.00e+00	0	41	0	695205888	56	4069
2026-01-30 12:46:28.72	274.69	14.15	-42.5	-43.4	21.3	0.00e+00	0	41	0	698351616	56	4022
2026-01-30 12:46:29.73	274.89	14.17	-42.4	-43.3	21.3	0.00e+00	0	41	0	701497344	56	3985
2026-01-30 12:46:30.74	275.10	14.20	-42.3	-43.2	21.5	0.00e+00	0	41	0	704643072	56	3915
2026-01-30 12:46:31.75	275.30	14.22	-42.4	-43.3	21.4	0.00e+00	0	41	0	707788800	56	3960
2026-01-30 12:46:32.76	275.50	14.24	-42.3	-43.2	21.4	0.00e+00	0	41	0	710934528	56	3917
2026-01-30 12:46:33.77	275.71	14.26	-42.4	-43.3	21.3	0.00e+00	0	41	0	715128832	56	3979
2026-01-30 12:46:34.78	275.91	14.28	-42.4	-43.3	21.3	0.00e+00	0	41	0	718274560	56	3985
2026-01-30 12:46:35.79	276.12	14.30	-42.5	-43.4	21.3	0.00e+00	0	41	0	721420288	56	4011
2026-01-30 12:46:36.80	276.32	14.32	-42.5	-43.3	21.3	0.00e+00	0	41	0	724566016	56	3998
2026-01-30 12:46:37.81	276.53	14.33	-42.5	-43.3	21.3	0.00e+00	0	41	0	727711744	56	4000
2026-01-30 12:46:38.82	276.74	14.35	-42.4	-43.3	21.4	0.00e+00	0	41	0	730857472	56	3990
2026-01-30 12:46:39.83	276.94	14.37	-42.4	-43.3	21.4	0.00e+00	0	41	0	734003200	56	3967
2026-01-30 12:46:40.84	277.15	14.39	-42.5	-43.3	21.4	0.00e+00	0	41	0	737148928	56	3990
2026-01-30 12:46:41.85	277.35	14.41	-42.4	-43.2	21.4	0.00e+00	0	41	0	739246080	56	3957
2026-01-30 12:46:42.85	277.56	14.42	-42.5	-43.3	21.4	0.00e+00	0	41	0	742391808	56	3987
2026-01-30 12:46:43.86	277.77	14.44	-42.5	-43.4	21.3	0.00e+00	0	41	0	746586112	56	4026
2026-01-30 12:46:44.87	277.97	14.46	-42.6	-43.5	21.2	0.00e+00	0	41	0	749731840	56	4056
2026-01-30 12:46:45.87	278.18	14.47	-42.5	-43.4	21.3	0.00e+00	0	41	0	752877568	56	4021
2026-01-30 12:46:46.88	278.39	14.49	-42.6	-43.5	21.3	0.00e+00	0	41	0	756023296	56	4055
2026-01-30 12:46:47.89	278.59	14.50	-42.5	-43.4	21.4	0.00e+00	0	41	0	759169024	56	4025
2026-01-30 12:46:48.89	278.80	14.52	-42.5	-43.4	21.3	0.00e+00	0	41	0	762314752	56	4028
2026-01-30 12:46:49.90	279.01	14.53	-42.5	-43.4	21.3	0.00e+00	0	41	0	765460480	56	4035
2026-01-30 12:46:50.91	279.22	14.55	-42.5	-43.3	21.4	0.00e+00	0	41	0	768606208	56	4002
2026-01-30 12:46:51.92	279.43	14.56	-42.3	-43.2	21.5	0.00e+00	0	41	0	771751936	56	3933
2026-01-30 12:46:52.93	279.63	14.58	-42.3	-43.1	21.6	0.00e+00	0	41	0	774897664	56	3903
2026-01-30 12:46:53.93	279.84	14.59	-42.3	-43.2	21.5	0.00e+00	0	41	0	778043392	56	3920
2026-01-30 12:46:54.94	280.05	14.60	-42.4	-43.3	21.4	0.00e+00	0	41	0	781189120	56	3974
2026-01-30 12:46:55.95	280.26	14.62	-42.5	-43.4	21.4	0.00e+00	0	41	0	784334848	56	4017
2026-01-30 12:46:56.96	280.47	14.63	-42.6	-43.5	21.4	0.00e+00	0	41	0	786432000	56	4084
2026-01-30 12:46:57.96	280.68	14.64	-42.6	-43.5	21.4	0.00e+00	0	41	0	790626304	56	4057
2026-01-30 12:46:58.97	280.89	14.65	-42.6	-43.5	21.4	0.00e+00	0	41	0	793772032	56	4067
2026-01-30 12:46:59.98	281.10	14.66	-42.6	-43.4	21.4	0.00e+00	0	41	0	796917760	56	4046
2026-01-30 12:47:00.99	281.31	14.67	-42.5	-43.4	21.4	0.00e+00	0	41	0	800063488	56	4027
2026-01-30 12:47:02.00	281.52	14.69	-42.5	-43.4	21.3	0.00e+00	0	41	0	803209216	56	4028
2026-01-30 12:47:03.01	281.73	14.70	-42.7	-43.6	21.2	0.00e+00	0	41	0	806354944	56	4132
2026-01-30 12:47:04.02	281.94	14.71	-42.7	-43.6	21.2	0.00e+00	0	41	0	809500672	56	4138
2026-01-30 12:47:05.03	282.15	14.72	-42.8	-43.7	21.2	0.00e+00	0	41	0	812646400	56	4152
2026-01-30 12:47:06.04	282.36	14.72	-42.7	-43.5	21.3	0.00e+00	0	41	0	815792128	56	4097
2026-01-30 12:47:07.05	282.57	14.73	-42.6	-43.5	21.4	0.00e+00	0	41	0	818937856	56	4058
2026-01-30 12:47:08.06	282.78	14.74	-42.6	-43.4	21.4	0.00e+00	0	41	0	822083584	56	4038
2026-01-30 12:47:09.07	282.99	14.75	-42.6	-43.5	21.4	0.00e+00	0	41	0	825229312	56	4054
2026-01-30 12:47:10.08	283.21	14.76	-42.6	-43.4	21.4	0.00e+00	0	41	0	828375040	56	4038
2026-01-30 12:47:11.09	283.42	14.77	-42.6	-43.5	21.3	0.00e+00	0	41	0	831520768	56	4065
2026-01-30 12:47:12.10	283.63	14.77	-42.7	-43.6	21.2	0.00e+00	0	41	0	834666496	56	4115
2026-01-30 12:47:13.11	283.84	14.78	-42.8	-43.7	21.1	0.00e+00	0	41	0	837812224	56	4189
2026-01-30 12:47:14.11	284.05	14.79	-42.9	-43.8	21.0	0.00e+00	0	41	0	840957952	56	4222
2026-01-30 12:47:15.12	284.26	14.79	-43.0	-43.9	21.0	0.00e+00	0	41	0	844103680	56	4266
2026-01-30 12:47:16.13	284.47	14.80	-43.0	-43.9	21.0	0.00e+00	0	41	0	847249408	56	4288
2026-01-30 12:47:17.13	284.68	14.80	-42.8	-43.7	21.2	0.00e+00	0	41	0	850395136	56	4179
2026-01-30 12:47:18.14	284.89	14.81	-42.7	-43.5	21.4	0.00e+00	0	41	0	853540864	56	4080
2026-01-30 12:47:19.15	285.11	14.81	-42.6	-43.4	21.4	0.00e+00	0	41	0	856686592	56	4050
2026-01-30 12:47:20.17	285.32	14.82	-42.6	-43.5	21.4	0.00e+00	0	41	0	859832320	56	4069
2026-01-30 12:47:21.18	285.53	14.82	-42.6	-43.5	21.4	0.00e+00	0	41	0	862978048	56	4063
2026-01-30 12:47:22.19	285.75	14.82	-42.7	-43.6	21.3	0.00e+00	0	41	0	866123776	56	4117
2026-01-30 12:47:23.19	285.96	14.83	-42.8	-43.7	21.3	0.00e+00	0	41	0	869269504	56	4165
2026-01-30 12:47:24.20	286.17	14.83	-42.9	-43.8	21.1	0.00e+00	0	41	0	872415232	56	4227
2026-01-30 12:47:25.21	286.38	14.83	-42.9	-43.8	21.2	0.00e+00	0	41	0	875560960	56	4200
2026-01-30 12:47:26.22	286.59	14.84	-42.9	-43.8	21.1	0.00e+00	0	41	0	878706688	56	4220
2026-01-30 12:47:27.23	286.81	14.84	-43.0	-44.0	21.0	0.00e+00	0	41	0	881852416	56	4294
2026-01-30 12:47:28.24	287.02	14.84	-43.0	-43.9	21.1	0.00e+00	0	41	0	884998144	56	4256
2026-01-30 12:47:29.25	287.23	14.84	-42.9	-43.8	21.2	0.00e+00	0	41	0	888143872	56	4218
2026-01-30 12:47:30.25	287.44	14.84	-42.9	-43.8	21.2	0.00e+00	0	41	0	891289600	56	4209
2026-01-30 12:47:31.26	287.65	14.84	-42.9	-43.8	21.2	0.00e+00	0	41	0	894435328	56	4195
2026-01-30 12:47:32.27	287.87	14.84	-42.9	-43.8	21.1	0.00e+00	0	41	0	897581056	56	4203
2026-01-30 12:47:33.28	288.08	14.84	-42.9	-43.8	21.1	0.00e+00	0	41	0	900726784	56	4213
2026-01-30 12:47:34.28	288.29	14.84	-42.9	-43.7	21.2	0.00e+00	0	41	0	903872512	56	4188
2026-01-30 12:47:35.29	288.50	14.84	-42.8	-43.7	21.2	0.00e+00	0	41	0	907018240	56	4165
2026-01-30 12:47:36.30	288.71	14.84	-42.8	-43.7	21.2	0.00e+00	0	41	0	910163968	56	4167
2026-01-30 12:47:37.31	288.93	14.83	-42.8	-43.7	21.2	0.00e+00	0	41	0	913309696	56	4163
2026-01-30 12:47:38.31	289.14	14.83	-42.8	-43.7	21.2	0.00e+00	0	41	0	916455424	56	4160
2026-01-30 12:47:39.32	289.35	14.83	-42.8	-43.7	21.2	0.00e+00	0	41	0	919601152	56	4175
2026-01-30 12:47:40.33	289.56	14.83	-42.7	-43.6	21.3	0.00e+00	0	41	0	922746880	56	4124
2026-01-30 12:47:41.33	289.77	14.82	-42.8	-43.7	21.3	0.00e+00	0	41	0	925892608	56	4153
2026-01-30 12:47:42.34	289.98	14.82	-42.8	-43.6	21.4	0.00e+00	0	41	0	929038336	56	4135
2026-01-30 12:47:43.35	290.19	14.81	-42.8	-43.6	21.3	0.00e+00	0	41	0	932184064	56	4142
2026-01-30 12:47:44.36	290.41	14.81	-42.8	-43.6	21.3	0.00e+00	0	41	0	935329792	56	4133
2026-01-30 12:47:45.37	290.62	14.81	-42.7	-43.6	21.4	0.00e+00	0	41	0	938475520	56	4099
2026-01-30 12:47:46.37	290.83	14.80	-42.6	-43.5	21.5	0.00e+00	0	41	0	941621248	56	4064
2026-01-30 12:47:47.38	291.04	14.79	-42.6	-43.4	21.5	0.00e+00	0	41	0	944766976	56	4041
2026-01-30 12:47:48.39	291.25	14.79	-42.6	-43.4	21.5	0.00e+00	0	41	0	947912704	56	4048
2026-01-30 12:47:49.40	291.46	14.78	-42.5	-43.3	21.6	0.00e+00	0	41	0	951058432	56	3998
2026-01-30 12:47:50.40	291.67	14.78	-42.5	-43.3	21.6	0.00e+00	0	41	0	954204160	56	4000
2026-01-30 12:47:51.41	291.88	14.77	-42.6	-43.5	21.5	0.00e+00	0	41	0	957349888	56	4078
2026-01-30 12:47:52.42	292.10	14.76	-42.6	-43.5	21.5	0.00e+00	0	41	0	960495616	56	4066
2026-01-30 12:47:53.43	292.31	14.75	-42.6	-43.5	21.5	0.00e+00	0	41	0	963641344	56	4077
2026-01-30 12:47:54.43	292.52	14.75	-42.5	-43.4	21.6	0.00e+00	0	41	0	966787072	56	4017
2026-01-30 12:47:55.44	292.73	14.74	-42.6	-43.5	21.5	0.00e+00	0	41	0	969932800	56	4073
2026-01-30 12:47:56.45	292.94	14.73	-42.7	-43.6	21.4	0.00e+00	0	41	0	973078528	56	4114
2026-01-30 12:47:57.46	293.15	14.72	-42.8	-43.7	21.4	0.00e+00	0	41	0	976224256	56	4151
2026-01-30 12:47:58.47	293.36	14.71	-42.7	-43.6	21.4	0.00e+00	0	41	0	979369984	56	4110
2026-01-30 12:47:59.47	293.57	14.70	-42.8	-43.7	21.3	0.00e+00	0	41	0	982515712	56	4151
2026-01-30 12:48:00.49	293.78	14.69	-42.7	-43.5	21.4	0.00e+00	0	41	0	985661440	56	4087
2026-01-30 12:48:01.50	293.99	14.68	-42.7	-43.6	21.3	0.00e+00	0	41	0	988807168	56	4130
2026-01-30 12:48:02.50	294.20	14.67	-42.7	-43.6	21.3	0.00e+00	0	41	0	991952896	56	4129
2026-01-30 12:48:03.52	294.41	14.66	-42.7	-43.6	21.3	0.00e+00	0	41	0	995098624	56	4116
2026-01-30 12:48:04.52	294.62	14.65	-42.8	-43.7	21.2	0.00e+00	0	41	0	998244352	56	4161
2026-01-30 12:48:05.53	294.83	14.63	-42.9	-43.8	21.1	0.00e+00	0	41	0	1001390080	56	4211
2026-01-30 12:48:06.53	295.03	14.62	-42.9	-43.7	21.1	0.00e+00	0	41	0	1004535808	56	4193
2026-01-30 12:48:07.54	295.24	14.61	-42.9	-43.8	21.1	0.00e+00	0	41	0	1007681536	56	4203
2026-01-30 12:48:08.55	295.45	14.60	-42.9	-43.8	21.1	0.00e+00	0	41	0	1010827264	56	4219
2026-01-30 12:48:09.56	295.66	14.58	-43.0	-43.9	21.0	0.00e+00	0	41	0	1013972992	56	4262
2026-01-30 12:48:10.57	295.87	14.57	-42.9	-43.7	21.1	0.00e+00	0	41	0	1017118720	56	4186
2026-01-30 12:48:11.57	296.08	14.56	-42.9	-43.8	21.1	0.00e+00	0	41	0	1020264448	56	4216
2026-01-30 12:48:12.58	296.29	14.54	-43.0	-44.0	21.0	0.00e+00	0	41	0	1023410176	56	4292
2026-01-30 12:48:13.59	296.49	14.53	-43.1	-44.0	20.9	0.00e+00	0	41	0	1026555904	56	4333
2026-01-30 12:48:14.60	296.70	14.51	-43.0	-43.9	21.0	0.00e+00	0	41	0	1029701632	56	4272
2026-01-30 12:48:15.61	296.91	14.50	-43.1	-44.0	20.9	0.00e+00	0	41	0	1032847360	56	4329
2026-01-30 12:48:16.61	297.11	14.48	-43.0	-43.9	21.0	0.00e+00	0	41	0	1035993088	56	4262
2026-01-30 12:48:17.63	297.32	14.46	-42.8	-43.7	21.2	0.00e+00	0	41	0	1039138816	56	4146
2026-01-30 12:48:18.63	297.53	14.45	-42.7	-43.6	21.3	0.00e+00	0	41	0	1042284544	56	4130
2026-01-30 12:48:19.64	297.74	14.43	-42.8	-43.7	21.2	0.00e+00	0	41	0	1045430272	56	4170
2026-01-30 12:48:20.64	297.94	14.41	-42.8	-43.7	21.1	0.00e+00	0	41	0	1048576000	56	4178
2026-01-30 12:48:21.65	298.15	14.40	-42.7	-43.5	21.3	0.00e+00	0	41	0	1051721728	56	4083
2026-01-30 12:48:22.66	298.35	14.38	-42.7	-43.6	21.2	0.00e+00	0	41	0	1054867456	56	4122
2026-01-30 12:48:23.67	298.56	14.36	-42.8	-43.7	21.1	0.00e+00	0	41	0	1058013184	56	4175
2026-01-30 12:48:24.69	298.77	14.34	-42.7	-43.6	21.2	0.00e+00	0	41	0	1061158912	56	4134
2026-01-30 12:48:25.69	298.97	14.32	-42.6	-43.4	21.4	0.00e+00	0	41	0	1064304640	56	4039
2026-01-30 12:48:26.70	299.17	14.31	-42.6	-43.5	21.4	0.00e+00	0	41	0	1067450368	56	4054
2026-01-30 12:48:27.71	299.38	14.29	-42.5	-43.4	21.4	0.00e+00	0	41	0	1070596096	56	4036
2026-01-30 12:48:28.72	299.58	14.27	-42.6	-43.5	21.3	0.00e+00	0	41	0	1073741824	56	4071
2026-01-30 12:48:29.73	299.79	14.25	-42.8	-43.6	21.2	0.00e+00	0	41	0	1076887552	56	4141
2026-01-30 12:48:30.74	299.99	14.23	-42.6	-43.5	21.3	0.00e+00	0	41	0	1080033280	56	4059
2026-01-30 12:48:31.75	300.20	14.21	-42.6	-43.5	21.3	0.00e+00	0	41	0	1083179008	56	4090
2026-01-30 12:48:32.76	300.40	14.18	-42.6	-43.5	21.3	0.00e+00	0	41	0	1086324736	56	4060
2026-01-30 12:48:33.77	300.60	14.16	-42.6	-43.5	21.3	0.00e+00	0	41	0	1089470464	56	4068
2026-01-30 12:48:34.77	300.80	14.14	-42.7	-43.5	21.2	0.00e+00	0	41	0	1092616192	56	4097
2026-01-30 12:48:35.78	301.01	14.12	-42.6	-43.5	21.3	0.00e+00	0	41	0	1095761920	56	4085
2026-01-30 12:48:36.79	301.21	14.10	-42.6	-43.5	21.3	0.00e+00	0	41	0	1098907648	56	4070
2026-01-30 12:48:37.80	301.41	14.08	-42.6	-43.4	21.3	0.00e+00	0	41	0	1102053376	56	4049
2026-01-30 12:48:38.81	301.61	14.05	-42.6	-43.5	21.3	0.00e+00	0	41	0	1105199104	56	4065
2026-01-30 12:48:39.82	301.81	14.03	-42.5	-43.4	21.4	0.00e+00	0	41	0	1108344832	56	4012
2026-01-30 12:48:40.83	302.01	14.01	-42.5	-43.4	21.3	0.00e+00	0	41	0	1111490560	56	4036
2026-01-30 12:48:41.83	302.21	13.98	-42.6	-43.5	21.3	0.00e+00	0	41	0	1114636288	56	4053
2026-01-30 12:48:42.85	302.42	13.96	-42.4	-43.3	21.5	0.00e+00	0	41	0	1117782016	56	3967
2026-01-30 12:48:43.85	302.61	13.93	-42.5	-43.3	21.4	0.00e+00	0	41	0	1120927744	56	4002
2026-01-30 12:48:44.86	302.81	13.91	-42.6	-43.4	21.3	0.00e+00	0	41	0	1124073472	56	4050
2026-01-30 12:48:45.87	303.01	13.89	-42.5	-43.4	21.4	0.00e+00	0	41	0	1127219200	56	4010
2026-01-30 12:48:46.88	303.21	13.86	-42.6	-43.5	21.3	0.00e+00	0	41	0	1130364928	56	4063
2026-01-30 12:48:47.89	303.41	13.83	-42.6	-43.5	21.3	0.00e+00	0	41	0	1133510656	56	4067
2026-01-30 12:48:48.90	303.61	13.81	-42.5	-43.4	21.3	0.00e+00	0	41	0	1136656384	56	4020
2026-01-30 12:48:49.90	303.81	13.78	-42.6	-43.5	21.2	0.00e+00	0	41	0	1139802112	56	4068
2026-01-30 12:48:50.91	304.00	13.76	-42.7	-43.5	21.2	0.00e+00	0	41	0	1142947840	56	4097
2026-01-30 12:48:51.92	304.20	13.73	-42.5	-43.4	21.3	0.00e+00	0	41	0	1146093568	56	4039
2026-01-30 12:48:52.93	304.40	13.70	-42.4	-43.3	21.4	0.00e+00	0	41	0	1149239296	56	3976
2026-01-30 12:48:53.93	304.59	13.68	-42.3	-43.2	21.5	0.00e+00	0	41	0	1152385024	56	3934
2026-01-30 12:48:54.94	304.79	13.65	-42.4	-43.3	21.4	0.00e+00	0	41	0	1155530752	56	3960
2026-01-30 12:48:55.95	304.99	13.62	-42.4	-43.2	21.5	0.00e+00	0	41	0	1158676480	56	3945
2026-01-30 12:48:56.96	305.18	13.59	-42.2	-43.0	21.6	0.00e+00	0	41	0	1161822208	56	3862
2026-01-30 12:48:57.97	305.38	13.57	-42.3	-43.1	21.6	0.00e+00	0	41	0	1164967936	56	3891
2026-01-30 12:48:58.97	305.57	13.54	-42.3	-43.1	21.5	0.00e+00	0	41	0	1168113664	56	3905
2026-01-30 12:48:59.98	305.76	13.51	-42.3	-43.1	21.6	0.00e+00	0	41	0	1171259392	56	3893
2026-01-30 12:49:00.99	305.96	13.48	-42.4	-43.3	21.4	0.00e+00	0	41	0	1174405120	56	3973
2026-01-30 12:49:02.00	306.15	13.45	-42.4	-43.3	21.4	0.00e+00	0	41	0	1177550848	56	3966
2026-01-30 12:49:03.00	306.34	13.42	-42.5	-43.3	21.3	0.00e+00	0	41	0	1180696576	56	3997
2026-01-30 12:49:04.01	306.54	13.39	-42.4	-43.3	21.3	0.00e+00	0	41	0	1183842304	56	3987
2026-01-30 12:49:05.02	306.73	13.36	-42.5	-43.4	21.2	0.00e+00	0	41	0	1186988032	56	4030
2026-01-30 12:49:06.03	306.92	13.33	-42.6	-43.5	21.1	0.00e+00	0	41	0	1190133760	56	4075
2026-01-30 12:49:07.04	307.11	13.30	-42.6	-43.5	21.2	0.00e+00	0	41	0	1193279488	56	4068
2026-01-30 12:49:08.05	307.31	13.27	-42.6	-43.5	21.1	0.00e+00	0	41	0	1196425216	56	4088
2026-01-30 12:49:09.05	307.50	13.24	-42.6	-43.5	21.2	0.00e+00	0	41	0	1199570944	56	4057
2026-01-30 12:49:10.07	307.69	13.21	-42.6	-43.4	21.2	0.00e+00	0	41	0	1202716672	56	4049
2026-01-30 12:49:11.07	307.88	13.18	-42.5	-43.4	21.2	0.00e+00	0	41	0	1205862400	56	4041
2026-01-30 12:49:12.08	308.07	13.14	-42.6	-43.5	21.2	0.00e+00	0	41	0	1209008128	56	4066
2026-01-30 12:49:13.09	308.26	13.11	-42.6	-43.5	21.1	0.00e+00	0	41	0	1212153856	56	4094
2026-01-30 12:49:14.10	308.45	13.08	-42.6	-43.5	21.1	0.00e+00	0	41	0	1215299584	56	4088
2026-01-30 12:49:15.10	308.63	13.05	-42.6	-43.5	21.1	0.00e+00	0	41	0	1218445312	56	4085
2026-01-30 12:49:16.11	308.82	13.01	-42.7	-43.6	21.1	0.00e+00	0	41	0	1221591040	56	4108
2026-01-30 12:49:17.12	309.01	12.98	-42.7	-43.6	21.1	0.00e+00	0	41	0	1224736768	56	4100
2026-01-30 12:49:18.13	309.20	12.95	-42.6	-43.5	21.1	0.00e+00	0	41	0	1227882496	56	4094
2026-01-30 12:49:19.13	309.38	12.91	-42.7	-43.6	21.0	0.00e+00	0	41	0	1231028224	56	4139
2026-01-30 12:49:20.14	309.57	12.88	-42.5	-43.4	21.2	0.00e+00	0	41	0	1234173952	56	4026
2026-01-30 12:49:21.15	309.75	12.85	-42.6	-43.5	21.1	0.00e+00	0	41	0	1237319680	56	4062
2026-01-30 12:49:22.17	309.94	12.81	-42.6	-43.5	21.1	0.00e+00	0	41	0	1241513984	56	4086
2026-01-30 12:49:23.18	310.13	12.78	-42.5	-43.4	21.2	0.00e+00	0	41	0	1243611136	56	4016
2026-01-30 12:49:24.19	310.31	12.74	-42.5	-43.4	21.2	0.00e+00	0	41	0	1246756864	56	4014
2026-01-30 12:49:25.19	310.50	12.71	-42.6	-43.5	21.1	0.00e+00	0	41	0	1249902592	56	4079
2026-01-30 12:49:26.20	310.68	12.67	-42.6	-43.5	21.1	0.00e+00	0	41	0	1253048320	56	4082
2026-01-30 12:49:27.21	310.86	12.64	-42.6	-43.4	21.2	0.00e+00	0	41	0	1256194048	56	4048
2026-01-30 12:49:28.22	311.05	12.60	-42.5	-43.4	21.2	0.00e+00	0	41	0	1259339776	56	4031
2026-01-30 12:49:29.22	311.23	12.57	-42.6	-43.5	21.2	0.00e+00	0	41	0	1262485504	56	4059
2026-01-30 12:49:30.23	311.41	12.53	-42.5	-43.3	21.2	0.00e+00	0	41	0	1265631232	56	4004
2026-01-30 12:49:31.24	311.59	12.50	-42.4	-43.3	21.2	0.00e+00	0	41	0	1268776960	56	3993
2026-01-30 12:49:32.24	311.77	12.46	-42.4	-43.3	21.2	0.00e+00	0	41	0	1271922688	56	3989
2026-01-30 12:49:33.25	311.95	12.42	-42.4	-43.2	21.3	0.00e+00	0	41	0	1275068416	56	3958
2026-01-30 12:49:34.26	312.14	12.39	-42.3	-43.1	21.3	0.00e+00	0	41	0	1278214144	56	3907
2026-01-30 12:49:35.26	312.31	12.35	-42.3	-43.1	21.3	0.00e+00	0	41	0	1282408448	56	3904
2026-01-30 12:49:36.27	312.49	12.31	-42.3	-43.1	21.3	0.00e+00	0	41	0	1285554176	56	3905
2026-01-30 12:49:37.27	312.67	12.28	-42.2	-43.1	21.3	0.00e+00	0	41	0	1288699904	56	3876
2026-01-30 12:49:38.28	312.85	12.24	-42.2	-43.1	21.3	0.00e+00	0	41	0	1291845632	56	3881
2026-01-30 12:49:39.29	313.03	12.20	-42.3	-43.1	21.3	0.00e+00	0	41	0	1293942784	56	3895
2026-01-30 12:49:40.30	313.21	12.16	-42.3	-43.1	21.3	0.00e+00	0	41	0	1297088512	56	3909
2026-01-30 12:49:41.31	313.38	12.13	-42.2	-43.1	21.3	0.00e+00	0	41	0	1300234240	56	3874
2026-01-30 12:49:42.32	313.56	12.09	-42.2	-43.1	21.3	0.00e+00	0	41	0	1303379968	56	3889
2026-01-30 12:49:43.33	313.74	12.05	-42.3	-43.1	21.3	0.00e+00	0	41	0	1306525696	56	3903
2026-01-30 12:49:44.33	313.91	12.01	-42.4	-43.3	21.2	0.00e+00	0	41	0	1309671424	56	3961
2026-01-30 12:49:45.34	314.09	11.97	-42.6	-43.4	21.0	0.00e+00	0	41	0	1312817152	56	4051
2026-01-30 12:49:46.34	314.26	11.93	-42.5	-43.4	21.0	0.00e+00	0	41	0	1315962880	56	4038
2026-01-30 12:49:47.35	314.44	11.89	-42.5	-43.4	21.0	0.00e+00	0	41	0	1319108608	56	4051
2026-01-30 12:49:48.36	314.61	11.86	-42.6	-43.5	21.0	0.00e+00	0	41	0	1322254336	56	4070
2026-01-30 12:49:49.37	314.79	11.82	-42.6	-43.5	20.9	0.00e+00	0	41	0	1326448640	56	4090
2026-01-30 12:49:50.38	314.96	11.78	-42.7	-43.7	20.8	0.00e+00	0	41	0	1329594368	56	4151
2026-01-30 12:49:51.39	315.13	11.74	-42.7	-43.6	20.8	0.00e+00	0	41	0	1332740096	56	4145
2026-01-30 12:49:52.40	315.31	11.70	-42.7	-43.6	20.9	0.00e+00	0	41	0	1335885824	56	4129
2026-01-30 12:49:53.41	315.48	11.66	-42.6	-43.6	20.9	0.00e+00	0	41	0	1339031552	56	4102
2026-01-30 12:49:54.41	315.65	11.62	-42.7	-43.7	20.8	0.00e+00	0	41	0	1341128704	56	4151
2026-01-30 12:49:55.42	315.82	11.58	-42.5	-43.4	21.0	0.00e+00	0	41	0	1344274432	56	4046
2026-01-30 12:49:56.43	315.99	11.54	-42.5	-43.4	21.0	0.00e+00	0	41	0	1347420160	56	4032
2026-01-30 12:49:57.44	316.16	11.49	-42.6	-43.5	20.9	0.00e+00	0	41	0	1350565888	56	4093
2026-01-30 12:49:58.45	316.33	11.45	-42.6	-43.5	21.0	0.00e+00	0	41	0	1353711616	56	4074
2026-01-30 12:49:59.46	316.50	11.41	-42.7	-43.6	20.9	0.00e+00	0	41	0	1356857344	56	4112
2026-01-30 12:50:00.47	316.67	11.37	-42.7	-43.6	20.9	0.00e+00	0	41	0	1361051648	56	4133
2026-01-30 12:50:01.47	316.84	11.33	-42.8	-43.7	20.8	0.00e+00	0	41	0	1364197376	56	4164
2026-01-30 12:50:02.48	317.01	11.29	-42.8	-43.7	20.8	0.00e+00	0	41	0	1367343104	56	4162
2026-01-30 12:50:03.49	317.17	11.25	-42.8	-43.7	20.7	0.00e+00	0	41	0	1370488832	56	4183
2026-01-30 12:50:04.49	317.34	11.21	-42.7	-43.6	20.8	0.00e+00	0	41	0	1373634560	56	4143
2026-01-30 12:50:05.50	317.51	11.16	-42.7	-43.6	20.8	0.00e+00	0	41	0	1376780288	56	4130
2026-01-30 12:50:06.50	317.67	11.12	-42.7	-43.6	20.8	0.00e+00	0	41	0	1379926016	56	4131
2026-01-30 12:50:07.51	317.84	11.08	-42.7	-43.6	20.7	0.00e+00	0	41	0	1383071744	56	4119
2026-01-30 12:50:08.52	318.00	11.04	-42.7	-43.7	20.6	0.00e+00	0	41	0	1386217472	56	4158
2026-01-30 12:50:09.53	318.17	11.00	-42.8	-43.7	20.6	0.00e+00	0	41	0	1388314624	56	4182
2026-01-30 12:50:10.54	318.33	10.95	-42.8	-43.7	20.6	0.00e+00	0	41	0	1391460352	56	4162
2026-01-30 12:50:11.54	318.49	10.91	-42.8	-43.7	20.5	0.00e+00	0	41	0	1394606080	56	4191
2026-01-30 12:50:12.55	318.66	10.87	-42.8	-43.8	20.5	0.00e+00	0	41	0	1397751808	56	4202
2026-01-30 12:50:13.56	318.82	10.82	-42.9	-43.8	20.5	0.00e+00	0	41	0	1401946112	56	4241
2026-01-30 12:50:14.57	318.98	10.78	-42.8	-43.8	20.5	0.00e+00	0	41	0	1405091840	56	4196
2026-01-30 12:50:15.58	319.14	10.74	-42.8	-43.8	20.5	0.00e+00	0	41	0	1408237568	56	4218
2026-01-30 12:50:16.59	319.31	10.69	-43.0	-44.0	20.4	0.00e+00	0	41	0	1411383296	56	4293
2026-01-30 12:50:17.60	319.47	10.65	-42.9	-43.9	20.5	0.00e+00	0	41	0	1414529024	56	4259
2026-01-30 12:50:18.60	319.63	10.61	-43.0	-44.0	20.4	0.00e+00	0	41	0	1417674752	56	4299
2026-01-30 12:50:19.61	319.79	10.56	-43.0	-44.0	20.4	0.00e+00	0	41	0	1420820480	56	4319
2026-01-30 12:50:20.62	319.95	10.52	-43.2	-44.2	20.3	0.00e+00	0	41	0	1423966208	56	4393
2026-01-30 12:50:21.63	320.11	10.48	-43.0	-44.0	20.4	0.00e+00	0	41	0	1427111936	56	4316
2026-01-30 12:50:22.64	320.26	10.43	-43.2	-44.2	20.2	0.00e+00	0	41	0	1430257664	56	4397
2026-01-30 12:50:23.65	320.42	10.39	-43.2	-44.2	20.2	0.00e+00	0	41	0	1433403392	57	4186
2026-01-30 12:50:24.66	320.58	10.34	-43.2	-44.2	20.2	0.00e+00	0	41	0	1436549120	57	4183
2026-01-30 12:50:25.67	320.74	10.30	-43.2	-44.2	20.2	0.00e+00	0	41	0	1439694848	57	4159
2026-01-30 12:50:26.68	320.90	10.25	-43.3	-44.3	20.1	0.00e+00	0	41	0	1442840576	57	4209
2026-01-30 12:50:27.69	321.05	10.21	-43.3	-44.4	20.0	0.00e+00	0	41	0	1445986304	57	4250
2026-01-30 12:50:28.70	321.21	10.16	-43.2	-44.2	20.1	0.00e+00	0	41	0	1449132032	57	4178
2026-01-30 12:50:29.71	321.36	10.12	-43.2	-44.2	20.2	0.00e+00	0	41	0	1452277760	57	4155
2026-01-30 12:50:30.72	321.52	10.08	-43.2	-44.2	20.2	0.00e+00	0	41	0	1455423488	57	4152
2026-01-30 12:50:31.73	321.67	10.03	-43.1	-44.1	20.3	0.00e+00	0	41	0	1458569216	57	4112
2026-01-30 12:50:32.74	321.83	9.98	-43.2	-44.2	20.2	0.00e+00	0	41	0	1461714944	57	4161
2026-01-30 12:50:33.74	321.98	9.94	-43.2	-44.2	20.2	0.00e+00	0	41	0	1464860672	57	4169
2026-01-30 12:50:34.75	322.13	9.89	-43.1	-44.1	20.3	0.00e+00	0	41	0	1468006400	57	4125
2026-01-30 12:50:35.76	322.29	9.85	-43.2	-44.1	20.2	0.00e+00	0	41	0	1471152128	57	4141
2026-01-30 12:50:36.77	322.44	9.80	-43.2	-44.2	20.2	0.00e+00	0	41	0	1474297856	57	4155
2026-01-30 12:50:37.78	322.59	9.76	-43.2	-44.2	20.2	0.00e+00	0	41	0	1477443584	57	4147
2026-01-30 12:50:38.79	322.74	9.71	-43.3	-44.4	20.0	0.00e+00	0	41	0	1480589312	57	4244
2026-01-30 12:50:39.80	322.89	9.67	-43.3	-44.3	20.1	0.00e+00	0	41	0	1483735040	57	4204
2026-01-30 12:50:40.81	323.04	9.62	-43.2	-44.2	20.0	0.00e+00	0	41	0	1486880768	57	4190
2026-01-30 12:50:41.81	323.19	9.58	-43.3	-44.4	19.9	0.00e+00	0	41	0	1490026496	57	4249
2026-01-30 12:50:42.82	323.34	9.53	-43.4	-44.4	19.8	0.00e+00	0	41	0	1493172224	57	4284
2026-01-30 12:50:43.83	323.49	9.48	-43.5	-44.5	19.8	0.00e+00	0	41	0	1496317952	57	4312
2026-01-30 12:50:44.84	323.64	9.44	-43.5	-44.5	19.8	0.00e+00	0	41	0	1499463680	57	4335
2026-01-30 12:50:45.85	323.79	9.39	-43.5	-44.5	19.8	0.00e+00	0	41	0	1502609408	57	4312
2026-01-30 12:50:46.85	323.94	9.34	-43.5	-44.6	19.7	0.00e+00	0	41	0	1505755136	57	4345
2026-01-30 12:50:47.86	324.08	9.30	-43.4	-44.5	19.8	0.00e+00	0	41	0	1508900864	57	4297
2026-01-30 12:50:48.87	324.23	9.25	-43.4	-44.4	19.9	0.00e+00	0	41	0	1512046592	57	4270
2026-01-30 12:50:49.88	324.38	9.21	-43.4	-44.4	19.9	0.00e+00	0	41	0	1515192320	57	4270
2026-01-30 12:50:50.89	324.52	9.16	-43.4	-44.4	19.9	0.00e+00	0	41	0	1518338048	57	4271
2026-01-30 12:50:51.89	324.67	9.11	-43.4	-44.4	19.9	0.00e+00	0	41	0	1521483776	57	4276
2026-01-30 12:50:52.90	324.81	9.07	-43.4	-44.4	19.9	0.00e+00	0	41	0	1524629504	57	4278
2026-01-30 12:50:53.91	324.96	9.02	-43.4	-44.4	19.9	0.00e+00	0	41	0	1527775232	57	4286
2026-01-30 12:50:54.92	325.10	8.97	-43.4	-44.5	19.9	0.00e+00	0	41	0	1530920960	57	4293
2026-01-30 12:50:55.93	325.24	8.92	-43.6	-44.6	19.7	0.00e+00	0	41	0	1534066688	57	4375
2026-01-30 12:50:56.94	325.39	8.88	-43.5	-44.6	19.7	0.00e+00	0	41	0	1537212416	57	4347
2026-01-30 12:50:57.95	325.53	8.83	-43.6	-44.6	19.7	0.00e+00	0	41	0	1540358144	57	4378
2026-01-30 12:50:58.95	325.67	8.78	-43.5	-44.5	19.8	0.00e+00	0	41	0	1543503872	57	4334
2026-01-30 12:50:59.96	325.81	8.74	-43.5	-44.6	19.7	0.00e+00	0	41	0	1546649600	57	4352
2026-01-30 12:51:00.97	325.96	8.69	-43.6	-44.7	19.7	0.00e+00	0	41	0	1549795328	57	4400
2026-01-30 12:51:01.98	326.10	8.64	-43.6	-44.6	19.7	0.00e+00	0	41	0	1552941056	57	4368
2026-01-30 12:51:02.99	326.24	8.59	-43.6	-44.6	19.7	0.00e+00	0	41	0	1556086784	57	4376
2026-01-30 12:51:04.00	326.38	8.55	-43.5	-44.5	19.8	0.00e+00	0	41	0	1559232512	57	4324
2026-01-30 12:51:05.01	326.52	8.50	-43.5	-44.6	19.7	0.00e+00	0	41	0	1562378240	57	4344
2026-01-30 12:51:06.01	326.66	8.45	-43.6	-44.6	19.7	0.00e+00	0	41	0	1565523968	57	4374
2026-01-30 12:51:07.01	326.79	8.40	-43.6	-44.6	19.7	0.00e+00	0	41	0	1568669696	57	4361
2026-01-30 12:51:08.02	326.93	8.36	-43.6	-44.6	19.6	0.00e+00	0	41	0	1571815424	57	4376
2026-01-30 12:51:09.03	327.07	8.31	-43.6	-44.7	19.6	0.00e+00	0	41	0	1574961152	57	4401
2026-01-30 12:51:10.04	327.21	8.26	-43.6	-44.7	19.7	0.00e+00	0	41	0	1578106880	57	4404
2026-01-30 12:51:11.05	327.35	8.21	-43.6	-44.7	19.6	0.00e+00	0	41	0	1581252608	57	4408
2026-01-30 12:51:12.06	327.48	8.17	-43.6	-44.7	19.6	0.00e+00	0	41	0	1584398336	57	4400
2026-01-30 12:51:13.07	327.62	8.12	-43.5	-44.6	19.7	0.00e+00	0	41	0	1587544064	57	4367
2026-01-30 12:51:14.08	327.75	8.07	-43.6	-44.7	19.6	0.00e+00	0	41	0	1590689792	57	4412
2026-01-30 12:51:15.08	327.89	8.02	-43.7	-44.8	19.4	0.00e+00	0	41	0	1593835520	58	4229
2026-01-30 12:51:16.09	328.02	7.97	-43.7	-44.7	19.5	0.00e+00	0	41	0	1596981248	58	4188
2026-01-30 12:51:17.10	328.16	7.93	-43.7	-44.7	19.5	0.00e+00	0	41	0	1600126976	58	4187
2026-01-30 12:51:18.11	328.29	7.88	-43.7	-44.8	19.5	0.00e+00	0	41	0	1603272704	58	4229
2026-01-30 12:51:19.12	328.43	7.83	-43.8	-44.9	19.4	0.00e+00	0	41	0	1606418432	58	4251
2026-01-30 12:51:20.12	328.56	7.78	-43.9	-45.0	19.3	0.00e+00	0	41	0	1609564160	58	4313
2026-01-30 12:51:21.13	328.69	7.73	-43.8	-44.9	19.3	0.00e+00	0	41	0	1612709888	58	4287
2026-01-30 12:51:22.14	328.82	7.69	-43.8	-44.9	19.3	0.00e+00	0	41	0	1615855616	58	4288
2026-01-30 12:51:23.15	328.96	7.64	-43.9	-45.0	19.2	0.00e+00	0	41	0	1619001344	58	4340
2026-01-30 12:51:24.15	329.09	7.59	-43.8	-45.0	19.3	0.00e+00	0	41	0	1622147072	58	4293
2026-01-30 12:51:25.16	329.22	7.54	-43.8	-44.9	19.3	0.00e+00	0	41	0	1625292800	58	4254
2026-01-30 12:51:26.17	329.35	7.49	-43.8	-44.9	19.3	0.00e+00	0	41	0	1628438528	58	4263
2026-01-30 12:51:27.18	329.48	7.44	-43.9	-45.0	19.2	0.00e+00	0	41	0	1631584256	58	4307
2026-01-30 12:51:28.18	329.61	7.40	-43.9	-45.0	19.2	0.00e+00	0	41	0	1634729984	58	4336
2026-01-30 12:51:29.19	329.74	7.35	-44.0	-45.1	19.1	0.00e+00	0	41	0	1637875712	58	4361
2026-01-30 12:51:30.20	329.87	7.30	-43.9	-45.0	19.2	0.00e+00	0	41	0	1641021440	58	4294
2026-01-30 12:51:31.21	330.00	7.25	-43.9	-45.1	19.1	0.00e+00	0	41	0	1644167168	58	4348
2026-01-30 12:51:32.21	330.12	7.20	-44.0	-45.2	19.0	0.00e+00	0	41	0	1647312896	58	4394
2026-01-30 12:51:33.22	330.25	7.15	-44.0	-45.1	19.1	0.00e+00	0	41	0	1650458624	58	4358
2026-01-30 12:51:34.23	330.38	7.10	-43.8	-44.9	19.3	0.00e+00	0	41	0	1653604352	58	4275
2026-01-30 12:51:35.23	330.50	7.06	-43.9	-45.0	19.2	0.00e+00	0	41	0	1656750080	58	4304
2026-01-30 12:51:36.24	330.63	7.01	-43.9	-45.0	19.2	0.00e+00	0	41	0	1659895808	58	4326
2026-01-30 12:51:37.25	330.76	6.96	-43.9	-45.0	19.1	0.00e+00	0	41	0	1663041536	58	4322
2026-01-30 12:51:38.26	330.88	6.91	-43.9	-45.0	19.2	0.00e+00	0	41	0	1666187264	58	4309
2026-01-30 12:51:39.27	331.01	6.86	-43.9	-45.1	19.1	0.00e+00	0	41	0	1669332992	58	4356
2026-01-30 12:51:40.28	331.13	6.81	-43.8	-44.9	19.2	0.00e+00	0	41	0	1672478720	58	4255
2026-01-30 12:51:41.29	331.26	6.76	-43.8	-44.9	19.2	0.00e+00	0	41	0	1675624448	58	4247
2026-01-30 12:51:42.30	331.38	6.72	-43.7	-44.8	19.3	0.00e+00	0	41	0	1678770176	58	4218
2026-01-30 12:51:43.31	331.51	6.67	-43.7	-44.8	19.3	0.00e+00	0	41	0	1681915904	58	4236
2026-01-30 12:51:44.32	331.63	6.62	-43.9	-45.0	19.1	0.00e+00	0	41	0	1685061632	58	4327
2026-01-30 12:51:45.33	331.75	6.57	-43.9	-45.0	19.1	0.00e+00	0	41	0	1688207360	58	4339
2026-01-30 12:51:46.34	331.88	6.52	-44.0	-45.1	19.0	0.00e+00	0	41	0	1691353088	58	4367
2026-01-30 12:51:47.34	332.00	6.47	-43.9	-45.0	19.1	0.00e+00	0	41	0	1694498816	58	4329
2026-01-30 12:51:48.35	332.12	6.42	-43.8	-44.9	19.2	0.00e+00	0	41	0	1697644544	58	4279
2026-01-30 12:51:49.36	332.24	6.37	-43.9	-45.0	19.1	0.00e+00	0	41	0	1700790272	58	4305
2026-01-30 12:51:50.36	332.36	6.32	-44.0	-45.1	18.9	0.00e+00	0	41	0	1703936000	58	4385
2026-01-30 12:51:51.37	332.48	6.28	-43.9	-45.0	19.1	0.00e+00	0	41	0	1707081728	58	4316
2026-01-30 12:51:52.38	332.60	6.23	-43.8	-44.9	19.1	0.00e+00	0	41	0	1710227456	58	4281
2026-01-30 12:51:53.39	332.72	6.18	-44.0	-45.1	19.0	0.00e+00	0	41	0	1713373184	58	4360
2026-01-30 12:51:54.40	332.84	6.13	-44.0	-45.1	18.9	0.00e+00	0	41	0	1716518912	58	4388
2026-01-30 12:51:55.41	332.96	6.08	-44.2	-45.4	18.7	0.00e+00	0	41	0	1719664640	59	4258
2026-01-30 12:51:56.42	333.08	6.03	-44.2	-45.3	18.7	0.00e+00	0	41	0	1722810368	59	4236
2026-01-30 12:51:57.43	333.20	5.98	-44.1	-45.3	18.8	0.00e+00	0	41	0	1725956096	59	4217
2026-01-30 12:51:58.44	333.32	5.93	-44.1	-45.3	18.7	0.00e+00	0	41	0	1729101824	59	4207
2026-01-30 12:51:59.45	333.44	5.88	-44.1	-45.2	18.8	0.00e+00	0	41	0	1732247552	59	4181
2026-01-30 12:52:00.46	333.55	5.83	-44.1	-45.2	18.8	0.00e+00	0	41	0	1735393280	59	4188
2026-01-30 12:52:01.47	333.67	5.79	-44.2	-45.4	18.6	0.00e+00	0	41	0	1738539008	59	4283
2026-01-30 12:52:02.48	333.79	5.74	-44.3	-45.5	18.5	0.00e+00	0	41	0	1741684736	59	4317
2026-01-30 12:52:03.49	333.90	5.69	-44.1	-45.3	18.7	0.00e+00	0	41	0	1744830464	59	4216
2026-01-30 12:52:04.49	334.02	5.64	-44.3	-45.5	18.5	0.00e+00	0	41	0	1747976192	59	4309
2026-01-30 12:52:05.50	334.13	5.59	-44.3	-45.5	18.5	0.00e+00	0	41	0	1751121920	59	4306
2026-01-30 12:52:06.51	334.25	5.54	-44.2	-45.4	18.5	0.00e+00	0	41	0	1754267648	59	4279
2026-01-30 12:52:07.52	334.36	5.49	-44.6	-45.9	18.1	0.00e+00	0	41	0	1757413376	59	4494
2026-01-30 12:52:08.52	334.48	5.44	-44.4	-45.7	18.3	0.00e+00	0	41	0	1760559104	59	4392
2026-01-30 12:52:09.52	334.59	5.39	-44.1	-45.3	18.6	0.00e+00	0	41	0	1763704832	59	4209
2026-01-30 12:52:10.53	334.70	5.35	-44.7	-46.0	17.8	0.00e+00	0	41	0	1766850560	59	4578
2026-01-30 12:52:11.53	334.81	5.30	-44.5	-45.8	17.9	0.00e+00	0	41	0	1769996288	59	4487
2026-01-30 12:52:12.54	334.93	5.25	-44.5	-45.8	18.0	0.00e+00	0	41	0	1773142016	59	4471
2026-01-30 12:52:13.55	335.04	5.20	-44.2	-45.4	18.3	0.00e+00	0	41	0	1776287744	59	4277
2026-01-30 12:52:14.56	335.15	5.15	-44.1	-45.3	18.5	0.00e+00	0	41	0	1779433472	59	4203
2026-01-30 12:52:15.56	335.26	5.10	-44.4	-45.6	18.1	0.00e+00	0	41	0	1782579200	59	4388
2026-01-30 12:52:16.57	335.38	5.05	-44.7	-46.0	17.8	0.00e+00	0	41	0	1785724928	59	4570
2026-01-30 12:52:17.58	335.49	5.00	-50.5	-55.7	8.5	3.37e-03	0	41	0	1788870656	71	7011
2026-01-30 12:52:18.59	335.60	4.95	-52.5	-65.3	3.8	1.49e+00	0	41	104	1788870656	75	16756
2026-01-30 12:52:19.60	335.71	4.91	-52.9	-65.6	3.8	1.49e+00	0	41	104	1788870656	76	16464
2026-01-30 12:52:20.61	335.82	4.86	-53.1	-65.9	3.8	1.49e+00	0	41	104	1788870656	76	16970
2026-01-30 12:52:21.61	335.93	4.81	-53.3	-66.1	3.8	1.49e+00	0	41	104	1788870656	77	16386
2026-01-30 12:52:22.63	336.04	4.76	-53.4	-66.2	3.8	1.49e+00	0	41	104	1788870656	77	16649
2026-01-30 12:52:23.63	336.14	4.71	-53.5	-66.3	3.8	1.49e+00	0	41	104	1788870656	77	16728
2026-01-30 12:52:24.64	336.25	4.66	-53.6	-66.4	3.8	1.49e+00	0	41	104	1788870656	77	16911
2026-01-30 12:52:25.65	336.36	4.61	-53.6	-66.4	3.8	1.49e+00	0	41	104	1788870656	77	16982
2026-01-30 12:52:26.65	336.47	4.56	-53.6	-66.4	3.8	1.49e+00	0	41	104	1788870656	77	16964
2026-01-30 12:52:27.66	336.58	4.51	-53.6	-66.4	3.8	1.49e+00	0	41	104	1788870656	77	16892
2026-01-30 12:52:28.67	336.68	4.46	-53.5	-66.3	3.8	1.49e+00	0	41	104	1788870656	77	16748
2026-01-30 12:52:29.68	336.79	4.42	-53.4	-66.2	3.8	1.49e+00	0	41	104	1788870656	77	16567
2026-01-30 12:52:30.69	336.90	4.37	-53.3	-66.0	3.8	1.49e+00	0	41	104	1788870656	77	16307
2026-01-30 12:52:31.69	337.00	4.32	-53.4	-66.1	3.8	1.49e+00	0	41	104	1788870656	77	16421
2026-01-30 12:52:32.70	337.11	4.27	-53.4	-66.1	3.8	1.49e+00	0	41	104	1788870656	77	16479
2026-01-30 12:52:33.71	337.21	4.22	-53.4	-66.2	3.8	1.49e+00	0	41	104	1788870656	77	16570
2026-01-30 12:52:34.71	337.32	4.17	-53.5	-66.2	3.8	1.49e+00	0	41	104	1788870656	77	16664
2026-01-30 12:52:35.72	337.42	4.12	-53.5	-66.2	3.8	1.49e+00	0	41	104	1788870656	77	16686
2026-01-30 12:52:36.73	337.53	4.07	-53.5	-66.3	3.8	1.49e+00	0	41	104	1788870656	77	16724
2026-01-30 12:52:37.74	337.63	4.03	-53.5	-66.3	3.8	1.49e+00	0	41	104	1788870656	77	16724
2026-01-30 12:52:38.75	337.74	3.98	-53.5	-66.3	3.8	1.49e+00	0	41	104	1788870656	77	16727
2026-01-30 12:52:39.76	337.84	3.93	-53.5	-66.2	3.8	1.49e+00	0	41	104	1788870656	77	16687
2026-01-30 12:52:40.77	337.94	3.88	-53.4	-66.2	3.8	1.49e+00	0	41	104	1788870656	77	16559
2026-01-30 12:52:41.78	338.05	3.83	-53.4	-66.2	3.8	1.49e+00	0	41	104	1788870656	77	16534
2026-01-30 12:52:42.79	338.15	3.78	-53.4	-66.1	3.8	1.49e+00	0	41	104	1788870656	77	16479
2026-01-30 12:52:43.79	338.25	3.73	-53.4	-66.1	3.8	1.49e+00	0	41	104	1788870656	77	16486
2026-01-30 12:52:44.80	338.35	3.68	-53.4	-66.1	3.8	1.49e+00	0	41	104	1788870656	77	16459
2026-01-30 12:52:45.81	338.45	3.64	-53.4	-66.1	3.8	1.49e+00	0	41	104	1788870656	77	16470
2026-01-30 12:52:46.81	338.56	3.59	-53.4	-66.1	3.8	1.49e+00	0	41	104	1788870656	77	16370
2026-01-30 12:52:47.82	338.66	3.54	-53.3	-66.1	3.8	1.49e+00	0	41	104	1788870656	77	16388
2026-01-30 12:52:48.83	338.76	3.49	-53.3	-66.1	3.8	1.49e+00	0	41	104	1788870656	77	16367
2026-01-30 12:52:49.84	338.86	3.44	-53.3	-66.1	3.8	1.49e+00	0	41	104	1788870656	77	16330
2026-01-30 12:52:50.85	338.96	3.39	-53.3	-66.1	3.8	1.49e+00	0	41	104	1788870656	77	16377
2026-01-30 12:52:51.86	339.06	3.34	-53.3	-66.1	3.8	1.49e+00	0	41	104	1788870656	77	16359
2026-01-30 12:52:52.87	339.16	3.30	-53.3	-66.0	3.8	1.49e+00	0	41	104	1788870656	77	16278
2026-01-30 12:52:53.88	339.26	3.25	-53.3	-66.0	3.8	1.49e+00	0	41	104	1788870656	77	16281
2026-01-30 12:52:54.88	339.35	3.20	-53.3	-66.0	3.8	1.49e+00	0	41	104	1788870656	77	16272
2026-01-30 12:52:55.89	339.45	3.15	-53.3	-66.0	3.8	1.49e+00	0	41	104	1788870656	77	16281
2026-01-30 12:52:56.90	339.55	3.10	-53.3	-66.0	3.8	1.49e+00	0	41	104	1788870656	77	16288
2026-01-30 12:52:57.91	339.65	3.05	-53.3	-66.0	3.8	1.49e+00	0	41	104	1788870656	77	16217
2026-01-30 12:52:58.91	339.75	3.00	-53.3	-66.0	3.8	1.49e+00	0	41	104	1788870656	77	16186
2026-01-30 12:52:59.92	339.84	2.96	-53.3	-66.0	3.8	1.49e+00	0	41	104	1788870656	77	16252
2026-01-30 12:53:00.90	339.94	2.91	-53.3	-66.0	3.8	1.49e+00	0	41	104	1788870656	77	16211
2026-01-30 12:53:01.91	340.03	2.86	-53.2	-66.0	3.8	1.49e+00	0	41	104	1788870656	77	16153
2026-01-30 12:53:02.92	340.13	2.81	-53.2	-66.0	3.8	1.49e+00	0	41	104	1788870656	77	16241
2026-01-30 12:53:03.93	340.23	2.76	-53.2	-66.0	3.8	1.49e+00	0	41	104	1788870656	77	16179
2026-01-30 12:53:04.94	340.32	2.72	-53.2	-66.0	3.8	1.49e+00	0	41	104	1788870656	77	16186
2026-01-30 12:53:05.94	340.42	2.67	-53.2	-66.0	3.8	1.49e+00	0	41	104	1788870656	77	16158
2026-01-30 12:53:06.95	340.51	2.62	-53.2	-65.9	3.8	1.49e+00	0	41	104	1788870656	77	16107
2026-01-30 12:53:07.96	340.61	2.57	-53.2	-66.0	3.8	1.49e+00	0	41	104	1788870656	77	16142
2026-01-30 12:53:08.97	340.70	2.52	-53.2	-66.0	3.8	1.49e+00	0	41	104	1788870656	77	16138
2026-01-30 12:53:09.97	340.80	2.47	-53.2	-66.0	3.8	1.49e+00	0	41	104	1788870656	77	16138
2026-01-30 12:53:10.98	340.89	2.43	-53.2	-66.0	3.8	1.49e+00	0	41	104	1788870656	77	16151
2026-01-30 12:53:11.98	340.98	2.38	-53.2	-65.9	3.8	1.49e+00	0	41	104	1788870656	77	16113
2026-01-30 12:53:12.99	341.08	2.33	-53.2	-66.0	3.8	1.49e+00	0	41	104	1788870656	77	16130
2026-01-30 12:53:14.00	341.17	2.28	-53.2	-66.0	3.8	1.49e+00	0	41	104	1788870656	77	16130
2026-01-30 12:53:15.01	341.26	2.23	-53.2	-65.9	3.8	1.49e+00	0	41	104	1788870656	77	16080
2026-01-30 12:53:16.01	341.35	2.19	-53.2	-65.9	3.8	1.49e+00	0	41	104	1788870656	77	16085
2026-01-30 12:53:17.02	341.45	2.14	-53.2	-65.9	3.8	1.49e+00	0	41	104	1788870656	77	16090
