passes_logs/2026/01/30/R3.2S_Murmansk/R3.2S_Murmansk__20260130_122429_FENGYUN_3D_rec.log

#Pass ID: 20260130_122429_FENGYUN 3D
#Satellite: FENGYUN 3D
#Configuration: FENGYUN 3D
#almurnet v.1.7.20251203
#Start time: 2026-01-30 12:24:28

#Version: 2.2.20231116
#Station: R3.2S_Murmansk
#Location: 33.079688 lon 68.888172 lat
#TLE: 1 43010U 17072A   26029.52179110  .00000394  00000+0  20818-3 0  9997
#TLE: 2 43010  98.9957   1.5649 0002507  83.7772 276.3689 14.19703315425310

#Time	Az	El	Level	Level2	SNR	BER	BlckErr	Temp	State	Recorded	gain1	gain2
2026-01-30 12:24:28.51	171.38	1.97	-52.1	-64.0	3.8	8.46e-01	0	39	0	0	76	13651
2026-01-30 12:24:29.51	171.41	2.03	-52.0	-64.0	3.8	8.46e-01	0	39	104	0	74	15254
2026-01-30 12:24:30.52	171.44	2.09	-52.0	-63.9	3.8	8.47e-01	0	39	104	0	74	15129
2026-01-30 12:24:31.53	171.46	2.16	-52.0	-63.9	3.8	8.45e-01	0	39	104	0	74	15136
2026-01-30 12:24:32.53	171.49	2.22	-52.0	-63.9	3.8	8.46e-01	0	39	104	0	74	15057
2026-01-30 12:24:33.54	171.51	2.29	-52.0	-63.9	3.8	8.46e-01	0	39	104	0	74	15141
2026-01-30 12:24:34.55	171.54	2.35	-52.0	-63.9	3.8	8.46e-01	0	39	104	0	74	15133
2026-01-30 12:24:35.56	171.57	2.41	-52.0	-63.9	3.8	8.45e-01	0	39	104	0	74	15197
2026-01-30 12:24:36.56	171.60	2.48	-52.0	-63.9	3.8	8.48e-01	0	39	104	0	74	15211
2026-01-30 12:24:37.57	171.62	2.54	-52.0	-64.0	3.8	8.46e-01	0	39	104	0	74	15239
2026-01-30 12:24:38.58	171.65	2.61	-52.0	-63.9	3.8	8.46e-01	0	39	104	0	74	15201
2026-01-30 12:24:39.58	171.68	2.67	-52.0	-63.9	3.8	8.47e-01	0	39	104	0	74	15163
2026-01-30 12:24:40.59	171.70	2.74	-52.0	-63.9	3.8	8.46e-01	0	39	104	0	74	15137
2026-01-30 12:24:41.60	171.73	2.80	-52.0	-63.9	3.8	8.46e-01	0	39	104	0	74	15101
2026-01-30 12:24:42.61	171.76	2.87	-52.0	-63.8	3.8	8.47e-01	0	39	104	0	74	14985
2026-01-30 12:24:43.62	171.79	2.94	-52.0	-63.8	3.8	8.47e-01	0	39	104	0	74	14940
2026-01-30 12:24:44.63	171.82	3.00	-52.0	-63.8	3.8	8.46e-01	0	39	104	0	74	15028
2026-01-30 12:24:45.63	171.84	3.07	-52.0	-63.9	3.8	8.47e-01	0	39	104	0	74	15076
2026-01-30 12:24:46.64	171.87	3.13	-52.0	-63.9	3.8	8.46e-01	0	39	104	0	74	15136
2026-01-30 12:24:47.65	171.90	3.20	-52.0	-63.9	3.8	8.46e-01	0	39	104	0	74	15113
2026-01-30 12:24:48.66	171.93	3.27	-52.0	-63.8	3.8	8.45e-01	0	39	104	0	74	14996
2026-01-30 12:24:49.66	171.96	3.33	-52.0	-63.7	3.8	8.46e-01	0	39	104	0	74	14838
2026-01-30 12:24:50.67	171.98	3.40	-52.0	-63.5	3.8	8.45e-01	0	39	104	0	74	14392
2026-01-30 12:24:51.68	172.01	3.47	-51.9	-63.1	3.8	8.45e-01	0	39	104	0	74	13779
2026-01-30 12:24:52.69	172.04	3.53	-51.9	-62.9	3.8	8.46e-01	0	39	104	0	74	13460
2026-01-30 12:24:53.69	172.07	3.60	-51.9	-62.6	3.8	8.45e-01	0	39	104	0	74	13021
2026-01-30 12:24:54.70	172.10	3.67	-51.9	-62.5	3.8	8.46e-01	0	39	104	0	74	12865
2026-01-30 12:24:55.71	172.13	3.73	-51.9	-62.6	3.8	8.45e-01	0	39	104	0	74	13071
2026-01-30 12:24:56.73	172.16	3.80	-51.9	-62.7	3.8	8.46e-01	0	39	104	0	74	13228
2026-01-30 12:24:57.73	172.19	3.87	-51.9	-62.9	3.8	8.47e-01	0	39	104	0	74	13422
2026-01-30 12:24:58.74	172.22	3.94	-51.9	-62.6	3.8	8.46e-01	0	39	104	0	74	13049
2026-01-30 12:24:59.75	172.25	4.01	-51.7	-61.4	4.0	8.45e-01	0	39	104	0	74	11296
2026-01-30 12:25:00.76	172.28	4.08	-51.5	-59.5	4.4	8.33e-01	0	40	0	0	74	9164
2026-01-30 12:25:01.77	172.31	4.14	-51.1	-57.5	5.5	7.77e-01	0	40	0	0	74	7283
2026-01-30 12:25:02.77	172.34	4.21	-50.4	-55.5	7.1	2.14e-01	0	40	0	4194304	72	6429
2026-01-30 12:25:03.78	172.37	4.28	-49.9	-54.0	8.7	7.25e-02	0	40	0	10485760	71	5763
2026-01-30 12:25:04.79	172.40	4.35	-49.3	-52.7	10.0	1.57e-02	0	40	0	15728640	70	5259
2026-01-30 12:25:05.80	172.43	4.42	-48.6	-51.5	11.2	3.02e-03	0	39	0	20971520	69	4863
2026-01-30 12:25:06.81	172.46	4.49	-48.1	-50.7	12.1	5.69e-04	0	40	0	27262976	68	4693
2026-01-30 12:25:07.81	172.49	4.56	-47.6	-49.9	12.9	8.69e-05	0	40	0	32505856	67	4532
2026-01-30 12:25:08.82	172.52	4.63	-47.0	-49.1	13.7	1.71e-05	0	40	0	38797312	65	4611
2026-01-30 12:25:09.83	172.55	4.70	-47.1	-49.2	13.6	1.60e-05	0	40	0	44040192	65	4686
2026-01-30 12:25:10.84	172.58	4.77	-46.6	-48.5	14.3	0.00e+00	0	40	0	50331648	65	4309
2026-01-30 12:25:11.85	172.61	4.84	-47.0	-49.1	13.7	4.50e-06	0	40	0	55574528	65	4641
2026-01-30 12:25:12.85	172.64	4.91	-47.2	-49.3	13.4	8.00e-06	0	40	0	60817408	65	4750
2026-01-30 12:25:13.86	172.67	4.98	-47.1	-49.3	13.5	1.71e-05	0	40	0	67108864	65	4707
2026-01-30 12:25:14.87	172.71	5.05	-47.9	-50.4	12.4	9.15e-05	0	40	0	72351744	66	5047
2026-01-30 12:25:15.88	172.74	5.12	-44.3	-45.6	17.4	0.00e+00	0	40	0	77594624	60	4133
2026-01-30 12:25:16.89	172.77	5.19	-51.9	-63.4	3.8	1.17e-01	0	40	104	82837504	74	14328
2026-01-30 12:25:17.89	172.80	5.26	-43.0	-44.0	18.2	1.55e-01	0	40	104	82837504	58	3860
2026-01-30 12:25:18.90	172.83	5.33	-44.5	-45.8	17.7	0.00e+00	0	40	0	88080384	59	4472
2026-01-30 12:25:19.91	172.87	5.41	-46.9	-49.0	14.0	0.00e+00	0	40	0	93323264	64	4842
2026-01-30 12:25:20.92	172.90	5.48	-42.4	-43.4	19.8	0.00e+00	0	40	0	99614720	56	4025
2026-01-30 12:25:21.93	172.93	5.55	-42.4	-43.4	19.7	0.00e+00	0	40	0	104857600	56	4036
2026-01-30 12:25:22.94	172.96	5.62	-42.2	-43.2	19.9	0.00e+00	0	40	0	111149056	56	3955
2026-01-30 12:25:23.95	173.00	5.70	-42.2	-43.2	20.0	0.00e+00	0	40	0	116391936	56	3942
2026-01-30 12:25:24.95	173.03	5.77	-42.1	-43.1	20.2	0.00e+00	0	40	0	121634816	56	3881
2026-01-30 12:25:25.96	173.06	5.84	-42.0	-43.0	20.1	0.00e+00	0	40	0	127926272	55	4098
2026-01-30 12:25:26.97	173.09	5.91	-41.7	-42.7	20.5	0.00e+00	0	40	0	133169152	55	3919
2026-01-30 12:25:27.98	173.13	5.99	-41.5	-42.5	20.7	0.00e+00	0	40	0	138412032	55	3830
2026-01-30 12:25:28.98	173.16	6.06	-41.5	-42.5	20.7	0.00e+00	0	40	0	144703488	55	3851
2026-01-30 12:25:29.99	173.19	6.13	-41.6	-42.6	20.6	0.00e+00	0	40	0	149946368	55	3890
2026-01-30 12:25:31.00	173.23	6.21	-41.5	-42.4	20.8	0.00e+00	0	40	0	155189248	55	3816
2026-01-30 12:25:32.01	173.26	6.28	-41.5	-42.5	20.8	0.00e+00	0	40	0	161480704	54	4058
2026-01-30 12:25:33.02	173.30	6.36	-41.5	-42.5	20.7	0.00e+00	0	40	0	167772160	54	4075
2026-01-30 12:25:34.03	173.33	6.43	-41.5	-42.4	20.8	0.00e+00	0	40	0	173015040	54	4051
2026-01-30 12:25:35.03	173.37	6.51	-41.4	-42.4	20.9	0.00e+00	0	40	0	178257920	54	4005
2026-01-30 12:25:36.04	173.40	6.58	-41.3	-42.3	21.0	0.00e+00	0	40	0	184549376	54	3967
2026-01-30 12:25:37.04	173.43	6.66	-41.4	-42.3	20.9	0.00e+00	0	40	0	189792256	54	4002
2026-01-30 12:25:38.05	173.47	6.73	-41.4	-42.4	20.9	0.00e+00	0	40	0	196083712	54	4021
2026-01-30 12:25:39.07	173.51	6.81	-41.3	-42.3	21.0	0.00e+00	0	40	0	201326592	54	3968
2026-01-30 12:25:40.08	173.54	6.88	-41.5	-42.5	20.8	0.00e+00	0	40	0	206569472	54	4069
2026-01-30 12:25:41.09	173.58	6.96	-41.5	-42.4	20.9	0.00e+00	0	40	0	212860928	54	4025
2026-01-30 12:25:42.09	173.61	7.04	-41.4	-42.3	21.0	0.00e+00	0	40	0	218103808	54	3998
2026-01-30 12:25:43.10	173.65	7.11	-41.4	-42.3	21.0	0.00e+00	0	40	0	223346688	54	3972
2026-01-30 12:25:44.11	173.68	7.19	-41.2	-42.2	21.1	0.00e+00	0	40	0	229638144	54	3919
2026-01-30 12:25:45.12	173.72	7.27	-41.2	-42.1	21.2	0.00e+00	0	40	0	235929600	54	3913
2026-01-30 12:25:46.13	173.76	7.34	-41.3	-42.2	21.1	0.00e+00	0	40	0	241172480	54	3942
2026-01-30 12:25:47.14	173.79	7.42	-41.1	-42.0	21.3	0.00e+00	0	40	0	246415360	54	3849
2026-01-30 12:25:48.14	173.83	7.50	-41.1	-42.0	21.3	0.00e+00	0	40	0	252706816	54	3857
2026-01-30 12:25:49.15	173.87	7.58	-41.1	-42.0	21.4	0.00e+00	0	40	0	257949696	54	3831
2026-01-30 12:25:50.16	173.90	7.65	-41.2	-42.1	21.3	0.00e+00	0	40	0	263192576	54	3881
2026-01-30 12:25:51.17	173.94	7.73	-41.1	-42.0	21.4	0.00e+00	0	40	0	269484032	54	3825
2026-01-30 12:25:52.18	173.98	7.81	-41.0	-41.9	21.5	0.00e+00	0	40	0	274726912	54	3798
2026-01-30 12:25:53.19	174.01	7.89	-41.2	-42.1	21.3	0.00e+00	0	40	0	281018368	54	3887
2026-01-30 12:25:54.20	174.05	7.97	-41.0	-41.9	21.4	0.00e+00	0	40	0	286261248	54	3816
2026-01-30 12:25:55.21	174.09	8.05	-41.0	-41.9	21.5	0.00e+00	0	40	0	291504128	53	4007
2026-01-30 12:25:56.21	174.13	8.13	-41.0	-41.9	21.5	0.00e+00	0	40	0	297795584	53	4015
2026-01-30 12:25:57.22	174.17	8.21	-41.0	-41.9	21.5	0.00e+00	0	40	0	304087040	53	4029
2026-01-30 12:25:58.23	174.20	8.29	-41.0	-41.9	21.5	0.00e+00	0	40	0	309329920	53	4029
2026-01-30 12:25:59.24	174.24	8.37	-40.9	-41.8	21.5	0.00e+00	0	40	0	314572800	53	4000
2026-01-30 12:26:00.24	174.28	8.45	-40.9	-41.7	21.6	0.00e+00	0	40	0	320864256	53	3957
2026-01-30 12:26:01.25	174.32	8.53	-40.9	-41.7	21.6	0.00e+00	0	40	0	326107136	53	3957
2026-01-30 12:26:02.27	174.36	8.61	-40.9	-41.8	21.6	0.00e+00	0	40	0	331350016	53	3964
2026-01-30 12:26:03.27	174.40	8.69	-40.9	-41.8	21.6	0.00e+00	0	40	0	337641472	53	3992
2026-01-30 12:26:04.28	174.44	8.77	-40.9	-41.7	21.7	0.00e+00	0	40	0	342884352	53	3955
2026-01-30 12:26:05.29	174.48	8.85	-40.7	-41.6	21.8	0.00e+00	0	40	0	348127232	53	3892
2026-01-30 12:26:06.30	174.52	8.94	-40.7	-41.6	21.8	0.00e+00	0	40	0	354418688	53	3876
2026-01-30 12:26:07.31	174.56	9.02	-40.6	-41.5	21.9	0.00e+00	0	40	0	359661568	53	3859
2026-01-30 12:26:08.32	174.60	9.10	-40.6	-41.5	21.9	0.00e+00	0	40	0	365953024	53	3847
2026-01-30 12:26:09.33	174.64	9.18	-40.6	-41.4	22.0	0.00e+00	0	40	0	371195904	53	3814
2026-01-30 12:26:10.34	174.68	9.27	-40.6	-41.5	21.9	0.00e+00	0	40	0	377487360	53	3841
2026-01-30 12:26:11.35	174.72	9.35	-40.6	-41.5	21.9	0.00e+00	0	40	0	382730240	53	3855
2026-01-30 12:26:12.36	174.76	9.43	-40.6	-41.4	22.0	0.00e+00	0	40	0	389021696	53	3811
2026-01-30 12:26:13.37	174.81	9.52	-40.6	-41.4	22.0	0.00e+00	0	40	0	394264576	53	3814
2026-01-30 12:26:14.37	174.85	9.60	-40.5	-41.3	22.1	0.00e+00	0	40	0	399507456	53	3773
2026-01-30 12:26:15.38	174.89	9.68	-40.5	-41.3	22.1	0.00e+00	0	40	0	405798912	52	3999
2026-01-30 12:26:16.39	174.93	9.77	-40.4	-41.2	22.2	0.00e+00	0	40	0	411041792	52	3952
2026-01-30 12:26:17.40	174.97	9.85	-40.5	-41.4	22.1	0.00e+00	0	40	0	416284672	52	4012
2026-01-30 12:26:18.40	175.02	9.94	-40.4	-41.3	22.1	0.00e+00	0	40	0	422576128	52	3980
2026-01-30 12:26:19.41	175.06	10.02	-40.4	-41.2	22.3	0.00e+00	0	40	0	427819008	52	3936
2026-01-30 12:26:20.42	175.10	10.11	-40.4	-41.2	22.2	0.00e+00	0	40	0	434110464	52	3954
2026-01-30 12:26:21.43	175.15	10.20	-40.3	-41.2	22.3	0.00e+00	0	40	0	439353344	52	3914
2026-01-30 12:26:22.44	175.19	10.28	-40.5	-41.3	22.2	0.00e+00	0	40	0	445644800	52	3987
2026-01-30 12:26:23.44	175.23	10.37	-40.5	-41.3	22.1	0.00e+00	0	40	0	450887680	52	4004
2026-01-30 12:26:24.45	175.28	10.46	-40.3	-41.1	22.3	0.00e+00	0	40	0	456130560	52	3910
2026-01-30 12:26:25.47	175.32	10.54	-40.4	-41.2	22.3	0.00e+00	0	40	0	462422016	52	3943
2026-01-30 12:26:26.47	175.37	10.63	-40.5	-41.4	22.2	0.00e+00	0	40	0	467664896	52	4007
2026-01-30 12:26:27.48	175.41	10.72	-40.4	-41.2	22.3	0.00e+00	0	40	0	473956352	52	3941
2026-01-30 12:26:28.49	175.46	10.81	-40.4	-41.3	22.3	0.00e+00	0	40	0	479199232	52	3960
2026-01-30 12:26:29.50	175.50	10.90	-40.4	-41.2	22.3	0.00e+00	0	40	0	484442112	52	3950
2026-01-30 12:26:30.51	175.55	10.99	-40.4	-41.2	22.3	0.00e+00	0	40	0	490733568	52	3955
2026-01-30 12:26:31.52	175.59	11.07	-40.4	-41.2	22.3	0.00e+00	0	40	0	497025024	52	3950
2026-01-30 12:26:32.53	175.64	11.16	-40.4	-41.3	22.3	0.00e+00	0	40	0	502267904	52	3961
2026-01-30 12:26:33.53	175.68	11.25	-40.4	-41.3	22.2	0.00e+00	0	40	0	507510784	52	3970
2026-01-30 12:26:34.54	175.73	11.34	-40.5	-41.4	22.1	0.00e+00	0	40	0	513802240	52	4029
2026-01-30 12:26:35.55	175.78	11.43	-40.4	-41.3	22.3	0.00e+00	0	40	0	519045120	52	3967
2026-01-30 12:26:36.57	175.83	11.52	-40.3	-41.2	22.3	0.00e+00	0	40	0	524288000	52	3925
2026-01-30 12:26:37.57	175.87	11.61	-40.3	-41.2	22.3	0.00e+00	0	40	0	530579456	52	3931
2026-01-30 12:26:38.58	175.92	11.71	-40.4	-41.3	22.3	0.00e+00	0	40	0	535822336	52	3963
2026-01-30 12:26:39.58	175.97	11.80	-40.4	-41.2	22.3	0.00e+00	0	40	0	541065216	52	3936
2026-01-30 12:26:40.59	176.02	11.89	-40.2	-41.1	22.5	0.00e+00	0	40	0	547356672	52	3874
2026-01-30 12:26:41.60	176.06	11.98	-40.3	-41.1	22.4	0.00e+00	0	40	0	552599552	52	3911
2026-01-30 12:26:42.61	176.11	12.07	-40.2	-41.1	22.4	0.00e+00	0	40	0	558891008	52	3883
2026-01-30 12:26:43.62	176.16	12.17	-40.3	-41.1	22.4	0.00e+00	0	40	0	564133888	52	3912
2026-01-30 12:26:44.63	176.21	12.26	-40.2	-41.1	22.5	0.00e+00	0	40	0	570425344	52	3883
2026-01-30 12:26:45.63	176.26	12.35	-40.1	-41.0	22.6	0.00e+00	0	40	0	575668224	52	3825
2026-01-30 12:26:46.64	176.31	12.45	-40.1	-40.9	22.6	0.00e+00	0	40	0	581959680	52	3814
2026-01-30 12:26:47.65	176.36	12.54	-40.1	-40.9	22.6	0.00e+00	0	40	0	587202560	52	3820
2026-01-30 12:26:48.67	176.41	12.64	-40.1	-40.9	22.6	0.00e+00	0	40	0	592445440	52	3796
2026-01-30 12:26:49.67	176.46	12.73	-40.1	-40.9	22.6	0.00e+00	0	41	0	598736896	52	3802
2026-01-30 12:26:50.68	176.51	12.83	-40.2	-41.0	22.5	0.00e+00	0	40	0	603979776	52	3853
2026-01-30 12:26:51.69	176.56	12.92	-40.0	-40.8	22.7	0.00e+00	0	41	0	609222656	52	3771
2026-01-30 12:26:52.70	176.62	13.02	-39.9	-40.7	22.9	0.00e+00	0	41	0	615514112	51	3954
2026-01-30 12:26:53.71	176.67	13.12	-40.0	-40.8	22.9	0.00e+00	0	40	0	620756992	51	3969
2026-01-30 12:26:54.72	176.72	13.21	-40.0	-40.8	22.8	0.00e+00	0	40	0	627048448	51	3982
2026-01-30 12:26:55.73	176.77	13.31	-40.0	-40.8	22.8	0.00e+00	0	40	0	632291328	51	3977
2026-01-30 12:26:56.73	176.83	13.41	-39.8	-40.6	23.0	0.00e+00	0	40	0	638582784	51	3881
2026-01-30 12:26:57.74	176.88	13.50	-39.7	-40.6	23.1	0.00e+00	0	40	0	643825664	51	3869
2026-01-30 12:26:58.75	176.93	13.60	-39.6	-40.4	23.2	0.00e+00	0	40	0	649068544	51	3811
2026-01-30 12:26:59.76	176.99	13.70	-39.6	-40.4	23.2	0.00e+00	0	40	0	655360000	51	3819
2026-01-30 12:27:00.77	177.04	13.80	-39.6	-40.4	23.2	0.00e+00	0	40	0	660602880	51	3796
2026-01-30 12:27:01.78	177.10	13.90	-39.6	-40.4	23.2	0.00e+00	0	41	0	666894336	51	3804
2026-01-30 12:27:02.79	177.15	14.00	-39.7	-40.5	23.2	0.00e+00	0	41	0	672137216	51	3828
2026-01-30 12:27:03.79	177.21	14.10	-39.5	-40.3	23.3	0.00e+00	0	40	0	677380096	51	3755
2026-01-30 12:27:04.80	177.26	14.20	-39.6	-40.4	23.3	0.00e+00	0	40	0	683671552	51	3782
2026-01-30 12:27:05.81	177.32	14.30	-39.6	-40.4	23.2	0.00e+00	0	40	0	688914432	51	3795
2026-01-30 12:27:06.82	177.37	14.40	-39.6	-40.4	23.3	0.00e+00	0	40	0	695205888	51	3782
2026-01-30 12:27:07.83	177.43	14.51	-39.6	-40.4	23.3	0.00e+00	0	41	0	700448768	51	3782
2026-01-30 12:27:08.84	177.49	14.61	-39.5	-40.3	23.3	0.00e+00	0	40	0	706740224	51	3753
2026-01-30 12:27:09.85	177.54	14.71	-39.5	-40.3	23.4	0.00e+00	0	41	0	711983104	50	3960
2026-01-30 12:27:10.86	177.60	14.81	-39.5	-40.3	23.4	0.00e+00	0	40	0	717225984	50	3969
2026-01-30 12:27:11.87	177.66	14.92	-39.4	-40.2	23.4	0.00e+00	0	40	0	723517440	50	3936
2026-01-30 12:27:12.88	177.72	15.02	-39.5	-40.3	23.4	0.00e+00	0	41	0	728760320	50	3969
2026-01-30 12:27:13.89	177.78	15.13	-39.4	-40.2	23.4	0.00e+00	0	40	0	734003200	50	3933
2026-01-30 12:27:14.90	177.84	15.23	-39.4	-40.2	23.4	0.00e+00	0	40	0	740294656	50	3956
2026-01-30 12:27:15.91	177.90	15.34	-39.4	-40.2	23.5	0.00e+00	0	40	0	745537536	50	3932
2026-01-30 12:27:16.92	177.96	15.44	-39.3	-40.1	23.5	0.00e+00	0	41	0	751828992	50	3902
2026-01-30 12:27:17.93	178.02	15.55	-39.3	-40.1	23.6	0.00e+00	0	41	0	757071872	50	3898
2026-01-30 12:27:18.93	178.08	15.65	-39.3	-40.1	23.5	0.00e+00	0	40	0	763363328	50	3909
2026-01-30 12:27:19.95	178.14	15.76	-39.3	-40.1	23.6	0.00e+00	0	40	0	768606208	50	3874
2026-01-30 12:27:20.95	178.20	15.87	-39.3	-40.1	23.6	0.00e+00	0	40	0	774897664	50	3870
2026-01-30 12:27:21.96	178.26	15.98	-39.1	-39.9	23.7	0.00e+00	0	41	0	780140544	50	3814
2026-01-30 12:27:22.97	178.33	16.08	-39.1	-39.9	23.7	0.00e+00	0	41	0	785383424	50	3796
2026-01-30 12:27:23.98	178.39	16.19	-39.1	-39.9	23.7	0.00e+00	0	41	0	791674880	50	3807
2026-01-30 12:27:24.99	178.45	16.30	-39.0	-39.8	23.9	0.00e+00	0	41	0	796917760	50	3756
2026-01-30 12:27:26.00	178.52	16.41	-39.0	-39.8	23.9	0.00e+00	0	41	0	802160640	50	3766
2026-01-30 12:27:27.00	178.58	16.52	-38.9	-39.6	24.0	0.00e+00	0	41	0	808452096	49	3907
2026-01-30 12:27:28.01	178.65	16.63	-38.7	-39.5	24.1	0.00e+00	0	41	0	813694976	49	3836
2026-01-30 12:27:29.01	178.71	16.74	-38.6	-39.4	24.2	0.00e+00	0	40	0	818937856	49	3806
2026-01-30 12:27:30.02	178.78	16.85	-38.7	-39.5	24.1	0.00e+00	0	41	0	825229312	49	3849
2026-01-30 12:27:31.03	178.84	16.97	-38.8	-39.5	24.1	0.00e+00	0	40	0	831520768	49	3852
2026-01-30 12:27:32.04	178.91	17.08	-38.7	-39.4	24.2	0.00e+00	0	40	0	836763648	49	3824
2026-01-30 12:27:33.05	178.98	17.19	-38.6	-39.3	24.3	0.00e+00	0	41	0	842006528	49	3775
2026-01-30 12:27:34.05	179.04	17.30	-38.7	-39.5	24.2	0.00e+00	0	41	0	848297984	49	3829
2026-01-30 12:27:35.06	179.11	17.42	-38.6	-39.4	24.3	0.00e+00	0	41	0	853540864	49	3792
2026-01-30 12:27:36.07	179.18	17.53	-38.7	-39.5	24.2	0.00e+00	0	41	0	859832320	49	3833
2026-01-30 12:27:37.07	179.25	17.65	-38.6	-39.4	24.2	0.00e+00	0	41	0	865075200	49	3794
2026-01-30 12:27:38.08	179.32	17.76	-38.7	-39.4	24.2	0.00e+00	0	40	0	870318080	49	3807
2026-01-30 12:27:39.09	179.39	17.88	-38.7	-39.4	24.2	0.00e+00	0	41	0	876609536	49	3824
2026-01-30 12:27:40.10	179.46	17.99	-38.5	-39.2	24.4	0.00e+00	0	40	0	881852416	49	3733
2026-01-30 12:27:41.11	179.53	18.11	-38.4	-39.2	24.4	0.00e+00	0	40	0	887095296	48	3926
2026-01-30 12:27:42.12	179.60	18.23	-38.3	-39.1	24.5	0.00e+00	0	41	0	893386752	48	3872
2026-01-30 12:27:43.12	179.67	18.35	-38.3	-39.0	24.6	0.00e+00	0	40	0	899678208	48	3849
2026-01-30 12:27:44.13	179.75	18.46	-38.2	-38.9	24.6	0.00e+00	0	41	0	904921088	48	3822
2026-01-30 12:27:45.14	179.82	18.58	-38.2	-39.0	24.6	0.00e+00	0	41	0	910163968	48	3826
2026-01-30 12:27:46.15	179.89	18.70	-38.1	-38.9	24.7	0.00e+00	0	41	0	916455424	48	3790
2026-01-30 12:27:47.16	179.97	18.82	-38.2	-38.9	24.7	0.00e+00	0	41	0	921698304	48	3809
2026-01-30 12:27:48.17	180.04	18.94	-38.2	-38.9	24.7	0.00e+00	0	40	0	926941184	48	3803
2026-01-30 12:27:49.18	180.12	19.06	-38.2	-38.9	24.7	0.00e+00	0	41	0	933232640	48	3803
2026-01-30 12:27:50.19	180.19	19.19	-38.2	-39.0	24.6	0.00e+00	0	41	0	938475520	48	3831
2026-01-30 12:27:51.20	180.27	19.31	-38.2	-38.9	24.6	0.00e+00	0	41	0	944766976	48	3818
2026-01-30 12:27:52.21	180.35	19.43	-38.2	-39.0	24.7	0.00e+00	0	40	0	950009856	48	3825
2026-01-30 12:27:53.21	180.42	19.55	-38.3	-39.0	24.6	0.00e+00	0	41	0	955252736	48	3862
2026-01-30 12:27:54.22	180.50	19.68	-38.3	-39.0	24.6	0.00e+00	0	41	0	961544192	48	3848
2026-01-30 12:27:55.23	180.58	19.80	-38.3	-39.0	24.5	0.00e+00	0	40	0	967835648	48	3865
2026-01-30 12:27:56.24	180.66	19.93	-38.4	-39.2	24.4	0.00e+00	0	41	0	973078528	48	3932
2026-01-30 12:27:57.24	180.74	20.05	-38.3	-39.0	24.6	0.00e+00	0	41	0	978321408	48	3857
2026-01-30 12:27:58.25	180.82	20.18	-38.3	-39.0	24.6	0.00e+00	0	41	0	984612864	48	3857
2026-01-30 12:27:59.26	180.90	20.31	-38.2	-38.9	24.7	0.00e+00	0	41	0	989855744	48	3814
2026-01-30 12:28:00.27	180.98	20.43	-38.2	-38.9	24.7	0.00e+00	0	41	0	995098624	48	3813
2026-01-30 12:28:01.28	181.07	20.56	-38.1	-38.9	24.7	0.00e+00	0	41	0	1001390080	48	3789
2026-01-30 12:28:02.29	181.15	20.69	-38.1	-38.9	24.7	0.00e+00	0	41	0	1006632960	48	3796
2026-01-30 12:28:03.30	181.23	20.82	-38.2	-39.0	24.6	0.00e+00	0	41	0	1011875840	48	3832
2026-01-30 12:28:04.31	181.32	20.95	-38.1	-38.9	24.7	0.00e+00	0	41	0	1018167296	48	3796
2026-01-30 12:28:05.31	181.40	21.08	-38.3	-39.0	24.6	0.00e+00	0	41	0	1023410176	48	3866
2026-01-30 12:28:06.33	181.49	21.21	-38.2	-39.0	24.6	0.00e+00	0	40	0	1029701632	48	3845
2026-01-30 12:28:07.33	181.58	21.34	-38.3	-39.0	24.6	0.00e+00	0	41	0	1034944512	48	3868
2026-01-30 12:28:08.34	181.66	21.48	-38.2	-38.9	24.7	0.00e+00	0	41	0	1041235968	48	3819
2026-01-30 12:28:09.35	181.75	21.61	-38.2	-38.9	24.7	0.00e+00	0	41	0	1046478848	48	3815
2026-01-30 12:28:10.36	181.84	21.74	-38.1	-38.9	24.8	0.00e+00	0	41	0	1052770304	48	3787
2026-01-30 12:28:11.37	181.93	21.88	-38.1	-38.8	24.8	0.00e+00	0	41	0	1058013184	48	3767
2026-01-30 12:28:12.38	182.02	22.01	-37.6	-38.3	24.7	0.00e+00	0	41	0	1063256064	47	3777
2026-01-30 12:28:13.38	182.11	22.15	-37.4	-38.2	24.9	0.00e+00	0	41	0	1069547520	46	3915
2026-01-30 12:28:14.39	182.20	22.28	-37.4	-38.2	24.9	0.00e+00	0	41	0	1074790400	46	3935
2026-01-30 12:28:15.40	182.30	22.42	-37.5	-38.3	24.8	0.00e+00	0	41	0	1080033280	46	3963
2026-01-30 12:28:16.41	182.39	22.56	-37.1	-37.9	25.1	0.00e+00	0	40	0	1086324736	46	3789
2026-01-30 12:28:17.41	182.48	22.70	-37.0	-37.7	25.2	0.00e+00	0	40	0	1091567616	46	3734
2026-01-30 12:28:18.42	182.58	22.83	-37.0	-37.7	25.3	0.00e+00	0	41	0	1097859072	46	3737
2026-01-30 12:28:19.43	182.67	22.97	-37.0	-37.7	25.3	0.00e+00	0	41	0	1103101952	46	3712
2026-01-30 12:28:20.43	182.77	23.11	-37.0	-37.8	25.2	0.00e+00	0	40	0	1109393408	45	3973
2026-01-30 12:28:21.44	182.87	23.25	-37.0	-37.7	25.2	0.00e+00	0	41	0	1114636288	45	3958
2026-01-30 12:28:22.45	182.96	23.40	-37.1	-37.8	25.1	0.00e+00	0	41	0	1119879168	45	4000
2026-01-30 12:28:23.46	183.06	23.54	-37.1	-37.8	25.2	0.00e+00	0	41	0	1126170624	45	3998
2026-01-30 12:28:24.47	183.16	23.68	-37.2	-37.9	25.1	0.00e+00	0	40	0	1131413504	45	4024
2026-01-30 12:28:25.48	183.27	23.83	-37.2	-37.9	25.1	0.00e+00	0	40	0	1137704960	45	4046
2026-01-30 12:28:26.49	183.37	23.97	-37.1	-37.8	25.2	0.00e+00	0	41	0	1142947840	45	3990
2026-01-30 12:28:27.50	183.47	24.12	-37.1	-37.9	25.1	0.00e+00	0	41	0	1148190720	45	4016
2026-01-30 12:28:28.51	183.57	24.26	-37.1	-37.8	25.2	0.00e+00	0	41	0	1154482176	45	3992
2026-01-30 12:28:29.52	183.68	24.41	-37.1	-37.9	25.1	0.00e+00	0	41	0	1160773632	45	4015
2026-01-30 12:28:30.52	183.78	24.55	-37.0	-37.7	25.3	0.00e+00	0	41	0	1166016512	45	3951
2026-01-30 12:28:31.53	183.89	24.70	-36.9	-37.6	25.4	0.00e+00	0	41	0	1171259392	45	3882
2026-01-30 12:28:32.54	184.00	24.85	-36.9	-37.6	25.3	0.00e+00	0	41	0	1177550848	45	3907
2026-01-30 12:28:33.55	184.11	25.00	-36.8	-37.6	25.4	0.00e+00	0	41	0	1182793728	45	3881
2026-01-30 12:28:34.56	184.21	25.15	-36.9	-37.6	25.3	0.00e+00	0	41	0	1188036608	45	3911
2026-01-30 12:28:35.57	184.33	25.30	-37.0	-37.8	25.2	0.00e+00	0	41	0	1194328064	45	3959
2026-01-30 12:28:36.57	184.44	25.45	-37.0	-37.8	25.2	0.00e+00	0	41	0	1199570944	45	3964
2026-01-30 12:28:37.58	184.55	25.61	-36.9	-37.7	25.3	0.00e+00	0	41	0	1204813824	45	3924
2026-01-30 12:28:38.59	184.66	25.76	-37.0	-37.7	25.2	0.00e+00	0	41	0	1211105280	45	3956
2026-01-30 12:28:39.60	184.78	25.91	-36.9	-37.7	25.3	0.00e+00	0	41	0	1216348160	45	3921
2026-01-30 12:28:40.61	184.89	26.07	-36.8	-37.6	25.4	0.00e+00	0	41	0	1222639616	45	3875
2026-01-30 12:28:41.62	185.01	26.23	-36.9	-37.6	25.4	0.00e+00	0	41	0	1227882496	45	3897
2026-01-30 12:28:42.63	185.13	26.38	-36.8	-37.5	25.4	0.00e+00	0	40	0	1234173952	45	3859
2026-01-30 12:28:43.63	185.24	26.54	-36.8	-37.5	25.4	0.00e+00	0	41	0	1239416832	45	3847
2026-01-30 12:28:44.64	185.36	26.70	-36.8	-37.5	25.4	0.00e+00	0	41	0	1245708288	45	3854
2026-01-30 12:28:45.64	185.49	26.85	-36.8	-37.5	25.5	0.00e+00	0	41	0	1250951168	45	3845
2026-01-30 12:28:46.65	185.61	27.01	-36.8	-37.6	25.4	0.00e+00	0	41	0	1256194048	45	3873
2026-01-30 12:28:47.66	185.73	27.17	-36.9	-37.6	25.4	0.00e+00	0	40	0	1262485504	45	3882
2026-01-30 12:28:48.67	185.86	27.34	-36.9	-37.7	25.3	0.00e+00	0	41	0	1267728384	45	3922
2026-01-30 12:28:49.67	185.98	27.50	-36.9	-37.7	25.3	0.00e+00	0	41	0	1272971264	45	3934
2026-01-30 12:28:50.68	186.11	27.66	-36.9	-37.7	25.3	0.00e+00	0	41	0	1279262720	45	3933
2026-01-30 12:28:51.69	186.24	27.82	-36.8	-37.6	25.4	0.00e+00	0	41	0	1284505600	45	3882
2026-01-30 12:28:52.70	186.37	27.99	-36.7	-37.5	25.5	0.00e+00	0	41	0	1289748480	45	3839
2026-01-30 12:28:53.71	186.50	28.15	-36.8	-37.6	25.4	0.00e+00	0	41	0	1296039936	45	3873
2026-01-30 12:28:54.71	186.63	28.32	-36.7	-37.4	25.5	0.00e+00	0	41	0	1301282816	45	3818
2026-01-30 12:28:55.72	186.76	28.49	-36.8	-37.5	25.5	0.00e+00	0	41	0	1307574272	45	3842
2026-01-30 12:28:56.73	186.90	28.65	-36.8	-37.5	25.5	0.00e+00	0	41	0	1312817152	45	3865
2026-01-30 12:28:57.73	187.03	28.82	-36.8	-37.5	25.5	0.00e+00	0	41	0	1319108608	45	3864
2026-01-30 12:28:58.74	187.17	28.99	-36.8	-37.5	25.5	0.00e+00	0	41	0	1324351488	45	3853
2026-01-30 12:28:59.75	187.31	29.16	-36.8	-37.5	25.4	0.00e+00	0	41	0	1330642944	45	3860
2026-01-30 12:29:00.76	187.45	29.33	-36.8	-37.5	25.5	0.00e+00	0	41	0	1335885824	45	3847
2026-01-30 12:29:01.77	187.59	29.51	-36.8	-37.5	25.9	0.00e+00	0	41	0	1341128704	45	3843
2026-01-30 12:29:02.77	187.74	29.68	-36.8	-37.5	25.9	0.00e+00	0	40	0	1347420160	45	3854
2026-01-30 12:29:03.78	187.88	29.85	-36.8	-37.5	26.0	0.00e+00	0	40	0	1352663040	45	3843
2026-01-30 12:29:04.79	188.03	30.03	-36.8	-37.5	25.9	0.00e+00	0	41	0	1357905920	45	3860
2026-01-30 12:29:05.79	188.18	30.20	-36.8	-37.5	25.9	0.00e+00	0	41	0	1364197376	45	3865
2026-01-30 12:29:06.80	188.33	30.38	-36.8	-37.5	25.9	0.00e+00	0	41	0	1369440256	45	3851
2026-01-30 12:29:07.81	188.48	30.55	-36.8	-37.6	25.9	0.00e+00	0	41	0	1374683136	45	3872
2026-01-30 12:29:08.82	188.63	30.73	-36.9	-37.6	25.8	0.00e+00	0	41	0	1380974592	45	3884
2026-01-30 12:29:09.83	188.79	30.91	-36.6	-37.2	26.1	0.00e+00	0	41	0	1387266048	45	3736
2026-01-30 12:29:10.84	188.94	31.09	-36.6	-37.3	26.1	0.00e+00	0	41	0	1392508928	45	3748
2026-01-30 12:29:11.85	189.10	31.27	-36.6	-37.3	26.1	0.00e+00	0	41	0	1397751808	45	3752
2026-01-30 12:29:12.86	189.26	31.46	-36.5	-37.2	26.2	0.00e+00	0	40	0	1404043264	45	3725
2026-01-30 12:29:13.87	189.42	31.64	-36.7	-37.4	26.0	0.00e+00	0	41	0	1409286144	45	3808
2026-01-30 12:29:14.88	189.59	31.82	-36.7	-37.4	26.0	0.00e+00	0	41	0	1415577600	45	3817
2026-01-30 12:29:15.89	189.75	32.01	-36.7	-37.4	26.0	0.00e+00	0	41	0	1420820480	45	3810
2026-01-30 12:29:16.89	189.92	32.19	-36.8	-37.5	26.0	0.00e+00	0	41	0	1426063360	45	3825
2026-01-30 12:29:17.91	190.09	32.38	-36.7	-37.4	26.0	0.00e+00	0	41	0	1432354816	45	3811
2026-01-30 12:29:18.91	190.26	32.57	-36.7	-37.4	26.0	0.00e+00	0	41	0	1437597696	45	3791
2026-01-30 12:29:19.92	190.43	32.75	-36.6	-37.3	26.1	0.00e+00	0	41	0	1443889152	45	3760
2026-01-30 12:29:20.93	190.60	32.94	-36.6	-37.3	26.1	0.00e+00	0	41	0	1449132032	45	3772
2026-01-30 12:29:21.94	190.78	33.13	-36.6	-37.3	26.1	0.00e+00	0	41	0	1455423488	45	3766
2026-01-30 12:29:22.95	190.96	33.32	-36.6	-37.3	26.1	0.00e+00	0	41	0	1460666368	45	3773
2026-01-30 12:29:23.96	191.14	33.52	-36.6	-37.3	26.1	0.00e+00	0	41	0	1465909248	45	3767
2026-01-30 12:29:24.97	191.32	33.71	-36.5	-37.2	26.2	0.00e+00	0	41	0	1472200704	45	3717
2026-01-30 12:29:25.97	191.51	33.90	-36.6	-37.3	26.2	0.00e+00	0	41	0	1477443584	45	3741
2026-01-30 12:29:26.98	191.69	34.10	-36.6	-37.3	26.2	0.00e+00	0	41	0	1482686464	45	3743
2026-01-30 12:29:27.99	191.88	34.29	-36.5	-37.1	26.2	0.00e+00	0	41	0	1488977920	45	3694
2026-01-30 12:29:29.00	192.08	34.49	-36.5	-37.2	26.3	0.00e+00	0	40	0	1494220800	44	3916
2026-01-30 12:29:30.01	192.27	34.69	-36.5	-37.1	26.3	0.00e+00	0	41	0	1500512256	44	3909
2026-01-30 12:29:31.02	192.47	34.88	-36.3	-37.0	26.3	0.00e+00	0	41	0	1505755136	44	3858
2026-01-30 12:29:32.03	192.66	35.08	-36.3	-37.0	26.4	0.00e+00	0	41	0	1512046592	44	3854
2026-01-30 12:29:33.04	192.87	35.28	-36.5	-37.1	26.3	0.00e+00	0	41	0	1517289472	44	3912
2026-01-30 12:29:34.04	193.07	35.48	-36.4	-37.1	26.3	0.00e+00	0	41	0	1523580928	44	3908
2026-01-30 12:29:35.05	193.27	35.68	-36.5	-37.2	26.3	0.00e+00	0	41	0	1528823808	44	3915
2026-01-30 12:29:36.06	193.48	35.89	-36.4	-37.1	26.3	0.00e+00	0	41	0	1534066688	44	3898
2026-01-30 12:29:37.07	193.69	36.09	-36.4	-37.1	26.3	0.00e+00	0	41	0	1540358144	44	3903
2026-01-30 12:29:38.07	193.90	36.29	-36.4	-37.1	26.3	0.00e+00	0	41	0	1545601024	44	3890
2026-01-30 12:29:39.08	194.12	36.50	-36.2	-36.9	26.5	0.00e+00	0	41	0	1550843904	44	3809
2026-01-30 12:29:40.09	194.34	36.70	-36.2	-36.8	26.5	0.00e+00	0	41	0	1557135360	44	3778
2026-01-30 12:29:41.10	194.56	36.91	-36.2	-36.8	26.5	0.00e+00	0	41	0	1562378240	44	3772
2026-01-30 12:29:42.11	194.79	37.12	-36.1	-36.8	26.6	0.00e+00	0	41	0	1567621120	44	3767
2026-01-30 12:29:43.12	195.01	37.33	-36.2	-36.9	26.5	0.00e+00	0	41	0	1573912576	44	3789
2026-01-30 12:29:44.13	195.24	37.54	-36.3	-36.9	26.5	0.00e+00	0	41	0	1580204032	44	3819
2026-01-30 12:29:45.13	195.47	37.75	-36.2	-36.9	26.5	0.00e+00	0	41	0	1585446912	44	3795
2026-01-30 12:29:46.14	195.71	37.96	-36.1	-36.8	26.6	0.00e+00	0	41	0	1590689792	44	3748
2026-01-30 12:29:47.15	195.95	38.17	-36.1	-36.7	26.6	0.00e+00	0	41	0	1596981248	44	3730
2026-01-30 12:29:48.16	196.19	38.38	-35.9	-36.5	26.7	0.00e+00	0	41	0	1602224128	43	3850
2026-01-30 12:29:49.17	196.44	38.59	-35.8	-36.5	26.7	0.00e+00	0	41	0	1608515584	43	3841
2026-01-30 12:29:50.17	196.68	38.81	-35.9	-36.6	26.7	0.00e+00	0	41	0	1613758464	43	3894
2026-01-30 12:29:51.18	196.93	39.02	-36.1	-36.8	26.5	0.00e+00	0	41	0	1619001344	43	3995
2026-01-30 12:29:52.19	197.19	39.24	-36.2	-36.8	26.5	0.00e+00	0	41	0	1625292800	43	4002
2026-01-30 12:29:53.20	197.45	39.45	-36.2	-36.8	26.5	0.00e+00	0	41	0	1630535680	43	4000
2026-01-30 12:29:54.20	197.70	39.67	-36.2	-36.9	26.5	0.00e+00	0	41	0	1635778560	43	4010
2026-01-30 12:29:55.21	197.97	39.89	-36.2	-36.9	26.4	0.00e+00	0	41	0	1642070016	43	4008
2026-01-30 12:29:56.22	198.24	40.10	-36.3	-36.9	26.4	0.00e+00	0	41	0	1648361472	43	4044
2026-01-30 12:29:57.23	198.51	40.32	-36.3	-37.0	26.4	0.00e+00	0	41	0	1653604352	43	4058
2026-01-30 12:29:58.24	198.79	40.54	-36.3	-36.9	26.4	0.00e+00	0	41	0	1658847232	43	4050
2026-01-30 12:29:59.25	199.06	40.76	-36.2	-36.9	26.5	0.00e+00	0	41	0	1665138688	43	4009
2026-01-30 12:30:00.26	199.35	40.98	-36.2	-36.9	26.4	0.00e+00	0	41	0	1670381568	43	4028
2026-01-30 12:30:01.27	199.64	41.21	-36.3	-37.0	26.4	0.00e+00	0	40	0	1675624448	43	4061
2026-01-30 12:30:02.28	199.93	41.43	-36.2	-36.9	26.5	0.00e+00	0	41	0	1681915904	43	4019
2026-01-30 12:30:03.29	200.22	41.65	-36.4	-37.0	26.3	0.00e+00	0	41	0	1687158784	43	4093
2026-01-30 12:30:04.30	200.52	41.87	-36.4	-37.1	26.3	0.00e+00	0	41	0	1693450240	43	4114
2026-01-30 12:30:05.31	200.82	42.10	-36.4	-37.0	26.3	0.00e+00	0	41	0	1698693120	43	4089
2026-01-30 12:30:06.32	201.13	42.32	-36.3	-37.0	26.4	0.00e+00	0	41	0	1704984576	43	4077
2026-01-30 12:30:07.33	201.44	42.55	-36.5	-37.1	26.3	0.00e+00	0	41	0	1710227456	43	4136
2026-01-30 12:30:08.34	201.76	42.77	-36.6	-37.2	26.2	0.00e+00	0	41	0	1716518912	43	4193
2026-01-30 12:30:09.35	202.08	43.00	-36.5	-37.2	26.3	0.00e+00	0	41	0	1721761792	43	4148
2026-01-30 12:30:10.36	202.40	43.22	-36.5	-37.2	26.3	0.00e+00	0	40	0	1727004672	43	4147
2026-01-30 12:30:11.37	202.73	43.45	-36.5	-37.2	26.3	0.00e+00	0	41	0	1733296128	43	4148
2026-01-30 12:30:12.38	203.06	43.68	-36.6	-37.3	26.1	0.00e+00	0	41	0	1738539008	43	4205
2026-01-30 12:30:13.39	203.40	43.90	-36.8	-37.5	26.0	0.00e+00	0	41	0	1743781888	44	4091
2026-01-30 12:30:14.40	203.75	44.13	-36.6	-37.3	26.3	0.00e+00	0	41	0	1750073344	44	3960
2026-01-30 12:30:15.41	204.09	44.36	-36.5	-37.2	26.3	0.00e+00	0	41	0	1755316224	44	3938
2026-01-30 12:30:16.42	204.45	44.58	-36.7	-37.4	26.2	0.00e+00	0	41	0	1761607680	44	4008
2026-01-30 12:30:17.43	204.80	44.81	-36.8	-37.5	26.1	0.00e+00	0	41	0	1766850560	44	4088
2026-01-30 12:30:18.43	205.16	45.04	-37.1	-37.8	25.8	0.00e+00	0	40	0	1773142016	44	4207
2026-01-30 12:30:19.45	205.54	45.27	-37.1	-37.8	25.8	0.00e+00	0	41	0	1778384896	44	4229
2026-01-30 12:30:20.46	205.91	45.49	-37.0	-37.7	25.9	0.00e+00	0	41	0	1783627776	44	4154
2026-01-30 12:30:21.47	206.29	45.72	-37.1	-37.8	25.8	0.00e+00	0	41	0	1789919232	44	4218
2026-01-30 12:30:22.47	206.67	45.95	-37.0	-37.7	26.0	0.00e+00	0	41	0	1795162112	44	4150
2026-01-30 12:30:23.48	207.06	46.18	-36.8	-37.5	26.1	0.00e+00	0	41	0	1801453568	44	4062
2026-01-30 12:30:24.49	207.45	46.40	-36.7	-37.4	26.2	0.00e+00	0	40	0	1806696448	44	4035
2026-01-30 12:30:25.50	207.85	46.63	-36.7	-37.4	26.2	0.00e+00	0	41	0	1811939328	44	4033
2026-01-30 12:30:26.51	208.26	46.86	-36.9	-37.6	26.0	0.00e+00	0	41	0	1818230784	44	4126
2026-01-30 12:30:27.51	208.67	47.08	-37.1	-37.8	25.8	0.00e+00	0	40	0	1823473664	44	4219
2026-01-30 12:30:28.52	209.09	47.31	-37.2	-37.9	25.8	0.00e+00	0	41	0	1829765120	44	4261
2026-01-30 12:30:29.53	209.51	47.53	-37.2	-37.9	25.8	0.00e+00	0	41	0	1835008000	45	4031
2026-01-30 12:30:30.53	209.94	47.75	-37.1	-37.8	25.9	0.00e+00	0	40	0	1841299456	45	3968
2026-01-30 12:30:31.54	210.38	47.98	-36.8	-37.5	26.1	0.00e+00	0	41	0	1846542336	45	3846
2026-01-30 12:30:32.55	210.82	48.20	-36.6	-37.3	26.3	0.00e+00	0	41	0	1851785216	45	3760
2026-01-30 12:30:33.56	211.27	48.43	-36.9	-37.5	26.1	0.00e+00	0	41	0	1858076672	45	3863
2026-01-30 12:30:34.57	211.72	48.65	-37.2	-37.9	25.8	0.00e+00	0	41	0	1863319552	45	4018
2026-01-30 12:30:35.58	212.19	48.87	-37.1	-37.8	25.8	0.00e+00	0	40	0	1868562432	45	3998
2026-01-30 12:30:36.59	212.65	49.09	-37.3	-38.0	25.7	0.00e+00	0	41	0	1874853888	45	4085
2026-01-30 12:30:37.60	213.13	49.31	-37.3	-38.0	25.7	0.00e+00	0	41	0	1880096768	45	4085
2026-01-30 12:30:38.61	213.61	49.53	-37.2	-37.9	25.7	0.00e+00	0	41	0	1886388224	45	4051
2026-01-30 12:30:39.61	214.10	49.74	-37.2	-37.9	25.8	0.00e+00	0	41	0	1891631104	45	4021
2026-01-30 12:30:40.62	214.59	49.96	-37.2	-37.9	25.8	0.00e+00	0	41	0	1897922560	45	4028
2026-01-30 12:30:41.63	215.10	50.18	-37.0	-37.7	26.0	0.00e+00	0	41	0	1903165440	45	3914
2026-01-30 12:30:42.64	215.61	50.39	-37.0	-37.7	25.9	0.00e+00	0	41	0	1909456896	45	3935
2026-01-30 12:30:43.65	216.12	50.60	-37.1	-37.8	25.9	0.00e+00	0	41	0	1914699776	45	3988
2026-01-30 12:30:44.65	216.64	50.81	-37.3	-38.0	25.7	0.00e+00	0	41	0	1919942656	45	4071
2026-01-30 12:30:45.66	217.18	51.02	-37.4	-38.1	25.6	0.00e+00	0	41	0	1926234112	45	4101
2026-01-30 12:30:46.67	217.71	51.23	-37.2	-37.9	25.8	0.00e+00	0	40	0	1931476992	45	4015
2026-01-30 12:30:47.67	218.26	51.43	-37.1	-37.8	25.9	0.00e+00	0	41	0	1936719872	45	3980
2026-01-30 12:30:48.68	218.81	51.64	-37.2	-37.9	25.8	0.00e+00	0	41	0	1943011328	45	4033
2026-01-30 12:30:49.69	219.37	51.84	-37.2	-37.9	25.8	0.00e+00	0	41	0	1948254208	45	4044
2026-01-30 12:30:50.70	219.94	52.04	-37.3	-38.0	25.7	0.00e+00	0	41	0	1954545664	45	4062
2026-01-30 12:30:51.71	220.52	52.24	-37.5	-38.2	25.5	0.00e+00	0	41	0	1959788544	45	4178
2026-01-30 12:30:52.72	221.10	52.44	-37.6	-38.3	25.5	0.00e+00	0	41	0	1966080000	45	4215
2026-01-30 12:30:53.73	221.69	52.63	-37.6	-38.3	25.5	0.00e+00	0	41	0	1971322880	46	3994
2026-01-30 12:30:54.74	222.29	52.82	-37.6	-38.3	25.6	0.00e+00	0	41	0	1976565760	46	3963
2026-01-30 12:30:55.75	222.90	53.01	-37.6	-38.3	25.5	0.00e+00	0	41	0	1982857216	46	3987
2026-01-30 12:30:56.76	223.52	53.20	-37.7	-38.4	25.5	0.00e+00	0	41	0	1988100096	46	4008
2026-01-30 12:30:57.77	224.14	53.38	-37.5	-38.2	25.6	0.00e+00	0	41	0	1994391552	46	3939
2026-01-30 12:30:58.78	224.77	53.56	-37.6	-38.3	25.6	0.00e+00	0	41	0	1999634432	46	3963
2026-01-30 12:30:59.78	225.41	53.74	-37.6	-38.3	25.5	0.00e+00	0	41	0	2004877312	46	3983
2026-01-30 12:31:00.79	226.05	53.91	-37.5	-38.2	25.6	0.00e+00	0	41	0	2011168768	46	3924
2026-01-30 12:31:01.79	226.70	54.08	-37.6	-38.3	25.5	0.00e+00	0	41	0	2016411648	46	3993
2026-01-30 12:31:02.80	227.36	54.25	-38.1	-38.8	25.1	0.00e+00	0	41	0	2021654528	46	4232
2026-01-30 12:31:03.81	228.03	54.42	-38.1	-38.9	25.1	0.00e+00	0	41	0	2027945984	46	4252
2026-01-30 12:31:04.81	228.70	54.58	-38.1	-38.8	25.1	0.00e+00	0	41	0	2033188864	46	4206
2026-01-30 12:31:05.82	229.39	54.74	-38.1	-38.8	25.1	0.00e+00	0	41	0	2039480320	46	4196
2026-01-30 12:31:06.83	230.08	54.89	-37.9	-38.6	25.3	0.00e+00	0	41	0	2044723200	46	4111
2026-01-30 12:31:07.84	230.78	55.05	-38.1	-38.8	25.1	0.00e+00	0	41	0	2051014656	46	4230
2026-01-30 12:31:08.84	231.48	55.19	-38.0	-38.8	25.2	0.00e+00	0	41	0	2056257536	46	4207
2026-01-30 12:31:09.85	232.19	55.34	-37.9	-38.6	25.2	0.00e+00	0	41	0	2062548992	46	4144
2026-01-30 12:31:10.86	232.92	55.48	-38.0	-38.7	25.3	0.00e+00	0	41	0	2067791872	46	4167
2026-01-30 12:31:11.87	233.64	55.61	-37.7	-38.4	25.5	0.00e+00	0	41	0	2073034752	46	4032
2026-01-30 12:31:12.88	234.38	55.74	-37.4	-38.1	25.7	0.00e+00	0	41	0	2079326208	46	3910
2026-01-30 12:31:13.89	235.12	55.87	-37.6	-38.3	25.6	0.00e+00	0	41	0	2084569088	46	3969
2026-01-30 12:31:14.89	235.86	55.99	-37.8	-38.5	25.4	0.00e+00	0	41	0	2089811968	46	4096
2026-01-30 12:31:15.90	236.62	56.11	-38.0	-38.7	25.3	0.00e+00	0	40	0	2096103424	46	4158
2026-01-30 12:31:16.91	237.38	56.23	-37.9	-38.6	25.3	0.00e+00	0	41	0	2101346304	46	4124
2026-01-30 12:31:17.91	238.14	56.33	-37.9	-38.6	25.3	0.00e+00	0	41	0	2106589184	46	4130
2026-01-30 12:31:18.92	238.91	56.44	-37.8	-38.5	25.4	0.00e+00	0	41	0	2112880640	46	4091
2026-01-30 12:31:19.93	239.69	56.54	-37.6	-38.3	25.6	0.00e+00	0	41	0	2119172096	46	3980
2026-01-30 12:31:20.94	240.48	56.63	-37.6	-38.3	25.6	0.00e+00	0	40	0	2124414976	46	3960
2026-01-30 12:31:21.95	241.27	56.72	-37.6	-38.3	25.6	0.00e+00	0	41	0	2129657856	46	3965
2026-01-30 12:31:22.96	242.06	56.81	-37.7	-38.4	25.5	0.00e+00	0	41	0	2135949312	46	4046
2026-01-30 12:31:23.97	242.86	56.89	-37.7	-38.4	25.6	0.00e+00	0	41	0	2141192192	46	4006
2026-01-30 12:31:24.98	243.67	56.96	-37.7	-38.4	25.5	0.00e+00	0	41	0	2147483648	46	4045
2026-01-30 12:31:25.99	244.48	57.03	-37.8	-38.5	25.4	0.00e+00	0	41	0	2152726528	46	4097
2026-01-30 12:31:27.00	245.29	57.10	-37.9	-38.7	25.3	0.00e+00	0	41	0	2157969408	46	4153
2026-01-30 12:31:28.01	246.10	57.16	-37.7	-38.4	25.5	0.00e+00	0	41	0	2164260864	46	4039
2026-01-30 12:31:29.02	246.92	57.21	-37.8	-38.5	25.4	0.00e+00	0	41	0	2169503744	46	4089
2026-01-30 12:31:30.03	247.75	57.26	-38.0	-38.7	25.2	0.00e+00	0	41	0	2175795200	46	4188
2026-01-30 12:31:31.04	248.57	57.30	-38.0	-38.8	25.2	0.00e+00	0	41	0	2181038080	46	4204
2026-01-30 12:31:32.05	249.40	57.34	-38.1	-38.8	25.2	0.00e+00	0	41	0	2187329536	46	4223
2026-01-30 12:31:33.06	250.23	57.37	-37.8	-38.5	25.4	0.00e+00	0	41	0	2192572416	46	4080
2026-01-30 12:31:34.07	251.06	57.39	-37.8	-38.5	25.5	0.00e+00	0	41	0	2197815296	46	4053
2026-01-30 12:31:35.08	251.89	57.41	-37.9	-38.6	25.3	0.00e+00	0	41	0	2204106752	46	4143
2026-01-30 12:31:36.09	252.72	57.43	-37.9	-38.6	25.4	0.00e+00	0	41	0	2209349632	46	4141
2026-01-30 12:31:37.10	253.56	57.43	-38.0	-38.7	25.3	0.00e+00	0	41	0	2214592512	46	4165
2026-01-30 12:31:38.11	254.39	57.44	-37.9	-38.6	25.4	0.00e+00	0	41	0	2220883968	46	4117
2026-01-30 12:31:39.11	255.22	57.43	-38.0	-38.7	25.3	0.00e+00	0	41	0	2226126848	46	4163
2026-01-30 12:31:40.12	256.05	57.43	-37.7	-38.4	25.6	0.00e+00	0	41	0	2232418304	46	4022
2026-01-30 12:31:41.13	256.89	57.41	-37.8	-38.5	25.5	0.00e+00	0	41	0	2237661184	46	4072
2026-01-30 12:31:42.14	257.72	57.39	-37.7	-38.4	25.5	0.00e+00	0	41	0	2243952640	46	4043
2026-01-30 12:31:43.15	258.55	57.37	-37.7	-38.4	25.6	0.00e+00	0	41	0	2249195520	46	4023
2026-01-30 12:31:44.16	259.38	57.34	-37.8	-38.5	25.5	0.00e+00	0	41	0	2255486976	46	4075
2026-01-30 12:31:45.16	260.20	57.30	-37.8	-38.5	25.5	0.00e+00	0	41	0	2260729856	46	4079
2026-01-30 12:31:46.17	261.02	57.26	-38.0	-38.7	25.4	0.00e+00	0	41	0	2265972736	46	4159
2026-01-30 12:31:47.18	261.84	57.21	-37.8	-38.5	25.5	0.00e+00	0	40	0	2272264192	46	4084
2026-01-30 12:31:48.18	262.65	57.16	-37.6	-38.3	25.7	0.00e+00	0	41	0	2277507072	46	3960
2026-01-30 12:31:49.19	263.47	57.10	-37.6	-38.2	25.7	0.00e+00	0	41	0	2282749952	46	3958
2026-01-30 12:31:50.21	264.29	57.03	-37.7	-38.4	25.6	0.00e+00	0	40	0	2289041408	46	4035
2026-01-30 12:31:51.21	265.09	56.97	-37.8	-38.5	25.5	0.00e+00	0	40	0	2294284288	46	4075
2026-01-30 12:31:52.23	265.90	56.89	-37.9	-38.6	25.5	0.00e+00	0	41	0	2300575744	46	4110
2026-01-30 12:31:53.23	266.69	56.81	-37.9	-38.7	25.4	0.00e+00	0	41	0	2305818624	46	4146
2026-01-30 12:31:54.24	267.49	56.73	-38.1	-38.8	25.2	0.00e+00	0	41	0	2312110080	46	4228
2026-01-30 12:31:55.25	268.28	56.64	-38.0	-38.7	25.4	0.00e+00	0	41	0	2317352960	46	4154
2026-01-30 12:31:56.26	269.06	56.54	-37.9	-38.7	25.4	0.00e+00	0	41	0	2322595840	46	4149
2026-01-30 12:31:57.26	269.83	56.44	-38.1	-38.8	25.3	0.00e+00	0	41	0	2328887296	46	4199
2026-01-30 12:31:58.27	270.61	56.34	-38.0	-38.7	25.3	0.00e+00	0	41	0	2334130176	46	4163
2026-01-30 12:31:59.28	271.37	56.23	-37.8	-38.5	25.5	0.00e+00	0	41	0	2340421632	46	4078
2026-01-30 12:32:00.29	272.13	56.12	-37.8	-38.5	25.5	0.00e+00	0	41	0	2345664512	46	4070
2026-01-30 12:32:01.30	272.89	56.00	-37.9	-38.7	25.4	0.00e+00	0	41	0	2350907392	46	4151
2026-01-30 12:32:02.31	273.64	55.88	-38.1	-38.8	25.3	0.00e+00	0	40	0	2357198848	46	4210
2026-01-30 12:32:03.32	274.38	55.75	-38.3	-39.1	25.0	0.00e+00	0	41	0	2363490304	47	4110
2026-01-30 12:32:04.33	275.11	55.62	-38.6	-39.4	24.8	0.00e+00	0	41	0	2368733184	47	4252
2026-01-30 12:32:05.34	275.84	55.48	-38.7	-39.4	24.7	0.00e+00	0	41	0	2373976064	47	4284
2026-01-30 12:32:06.35	276.56	55.34	-38.7	-39.4	25.2	0.00e+00	0	41	0	2380267520	48	4039
2026-01-30 12:32:07.36	277.28	55.20	-38.7	-39.4	25.3	0.00e+00	0	41	0	2385510400	48	4021
2026-01-30 12:32:08.37	277.98	55.05	-38.8	-39.5	25.2	0.00e+00	0	41	0	2390753280	48	4091
2026-01-30 12:32:09.37	278.68	54.90	-38.7	-39.4	25.3	0.00e+00	0	41	0	2397044736	48	4017
2026-01-30 12:32:10.38	279.37	54.75	-38.4	-39.1	25.5	0.00e+00	0	41	0	2402287616	48	3898
2026-01-30 12:32:11.39	280.05	54.59	-38.4	-39.1	25.5	0.00e+00	0	41	0	2407530496	48	3907
2026-01-30 12:32:12.40	280.73	54.42	-38.4	-39.1	25.5	0.00e+00	0	41	0	2413821952	48	3898
2026-01-30 12:32:13.41	281.40	54.26	-38.3	-39.0	25.6	0.00e+00	0	41	0	2419064832	48	3847
2026-01-30 12:32:14.41	282.05	54.09	-38.4	-39.1	25.5	0.00e+00	0	41	0	2425356288	48	3902
2026-01-30 12:32:15.42	282.71	53.92	-38.5	-39.2	25.4	0.00e+00	0	41	0	2430599168	48	3946
2026-01-30 12:32:16.43	283.35	53.75	-38.4	-39.1	25.6	0.00e+00	0	41	0	2436890624	48	3873
2026-01-30 12:32:17.43	283.98	53.57	-38.4	-39.0	25.6	0.00e+00	0	41	0	2442133504	48	3857
2026-01-30 12:32:18.44	284.61	53.39	-38.5	-39.1	25.5	0.00e+00	0	40	0	2448424960	48	3913
2026-01-30 12:32:19.45	285.24	53.21	-38.6	-39.3	25.4	0.00e+00	0	41	0	2453667840	48	3979
2026-01-30 12:32:20.46	285.85	53.02	-38.4	-39.1	25.6	0.00e+00	0	41	0	2458910720	48	3873
2026-01-30 12:32:21.47	286.46	52.83	-38.4	-39.1	25.6	0.00e+00	0	41	0	2465202176	48	3874
2026-01-30 12:32:22.48	287.06	52.64	-38.3	-39.0	25.7	0.00e+00	0	41	0	2470445056	48	3831
2026-01-30 12:32:23.48	287.64	52.45	-38.1	-38.7	25.9	0.00e+00	0	41	0	2475687936	48	3725
2026-01-30 12:32:24.49	288.23	52.25	-38.1	-38.8	25.8	0.00e+00	0	41	0	2481979392	48	3752
2026-01-30 12:32:25.50	288.80	52.06	-38.2	-38.9	25.7	0.00e+00	0	41	0	2487222272	48	3813
2026-01-30 12:32:26.51	289.37	51.86	-38.3	-39.0	25.7	0.00e+00	0	41	0	2492465152	48	3827
2026-01-30 12:32:27.51	289.93	51.66	-38.4	-39.1	25.6	0.00e+00	0	41	0	2498756608	48	3890
2026-01-30 12:32:28.52	290.48	51.45	-38.1	-38.8	25.8	0.00e+00	0	40	0	2505048064	48	3755
2026-01-30 12:32:29.53	291.03	51.25	-37.6	-38.3	25.8	0.00e+00	0	41	0	2510290944	47	3741
2026-01-30 12:32:30.54	291.57	51.04	-37.5	-38.2	25.8	0.00e+00	0	41	0	2515533824	47	3736
2026-01-30 12:32:31.55	292.10	50.83	-37.5	-38.2	25.8	0.00e+00	0	41	0	2521825280	47	3735
2026-01-30 12:32:32.56	292.62	50.62	-37.4	-38.1	25.8	0.00e+00	0	41	0	2527068160	46	3912
2026-01-30 12:32:33.57	293.14	50.41	-37.4	-38.1	25.9	0.00e+00	0	41	0	2533359616	46	3899
2026-01-30 12:32:34.58	293.65	50.19	-37.4	-38.1	25.9	0.00e+00	0	41	0	2538602496	46	3895
2026-01-30 12:32:35.59	294.15	49.98	-37.5	-38.2	25.8	0.00e+00	0	41	0	2543845376	46	3942
2026-01-30 12:32:36.60	294.65	49.76	-37.4	-38.1	25.9	0.00e+00	0	41	0	2550136832	46	3880
2026-01-30 12:32:37.61	295.14	49.55	-37.3	-38.0	26.0	0.00e+00	0	41	0	2555379712	46	3846
2026-01-30 12:32:38.61	295.61	49.33	-37.4	-38.0	26.0	0.00e+00	0	40	0	2560622592	46	3862
2026-01-30 12:32:39.62	296.09	49.11	-37.4	-38.1	25.9	0.00e+00	0	41	0	2566914048	46	3896
2026-01-30 12:32:40.63	296.56	48.89	-37.5	-38.2	25.8	0.00e+00	0	41	0	2573205504	46	3939
2026-01-30 12:32:41.64	297.02	48.67	-37.5	-38.2	25.8	0.00e+00	0	41	0	2578448384	46	3950
2026-01-30 12:32:42.64	297.47	48.45	-37.4	-38.1	25.9	0.00e+00	0	41	0	2583691264	46	3897
2026-01-30 12:32:43.65	297.92	48.23	-37.4	-38.1	25.9	0.00e+00	0	41	0	2589982720	46	3884
2026-01-30 12:32:44.66	298.36	48.01	-37.4	-38.1	25.9	0.00e+00	0	41	0	2595225600	46	3906
2026-01-30 12:32:45.67	298.80	47.78	-37.4	-38.1	26.0	0.00e+00	0	41	0	2600468480	46	3883
2026-01-30 12:32:46.68	299.23	47.56	-37.4	-38.1	25.9	0.00e+00	0	41	0	2606759936	46	3910
2026-01-30 12:32:47.69	299.65	47.33	-37.4	-38.1	25.9	0.00e+00	0	41	0	2612002816	46	3884
2026-01-30 12:32:48.70	300.07	47.11	-37.4	-38.1	25.9	0.00e+00	0	41	0	2618294272	46	3906
2026-01-30 12:32:49.71	300.48	46.88	-37.5	-38.1	25.9	0.00e+00	0	41	0	2623537152	46	3908
2026-01-30 12:32:50.72	300.89	46.66	-37.3	-38.0	26.0	0.00e+00	0	41	0	2629828608	46	3844
2026-01-30 12:32:51.73	301.29	46.43	-37.4	-38.1	26.0	0.00e+00	0	41	0	2635071488	46	3871
2026-01-30 12:32:52.74	301.68	46.20	-37.3	-38.0	26.1	0.00e+00	0	41	0	2640314368	46	3829
2026-01-30 12:32:53.75	302.07	45.98	-37.2	-37.9	26.1	0.00e+00	0	40	0	2646605824	46	3811
2026-01-30 12:32:54.76	302.45	45.75	-37.2	-37.9	26.1	0.00e+00	0	41	0	2651848704	46	3789
2026-01-30 12:32:55.77	302.83	45.52	-37.1	-37.8	26.2	0.00e+00	0	41	0	2658140160	46	3761
2026-01-30 12:32:56.78	303.21	45.30	-37.2	-37.8	26.2	0.00e+00	0	41	0	2663383040	46	3777
2026-01-30 12:32:57.78	303.57	45.07	-37.1	-37.8	26.2	0.00e+00	0	41	0	2668625920	46	3769
2026-01-30 12:32:58.79	303.93	44.85	-37.2	-37.9	26.1	0.00e+00	0	41	0	2674917376	46	3790
2026-01-30 12:32:59.80	304.29	44.62	-37.2	-37.9	26.0	0.00e+00	0	41	0	2680160256	46	3819
2026-01-30 12:33:00.81	304.64	44.39	-37.2	-37.9	26.1	0.00e+00	0	41	0	2685403136	46	3813
2026-01-30 12:33:01.81	304.99	44.17	-37.0	-37.7	26.3	0.00e+00	0	41	0	2691694592	46	3715
2026-01-30 12:33:02.82	305.33	43.94	-37.0	-37.7	26.2	0.00e+00	0	41	0	2697986048	46	3725
2026-01-30 12:33:03.83	305.67	43.72	-36.9	-37.6	26.3	0.00e+00	0	41	0	2703228928	45	3896
2026-01-30 12:33:04.84	306.00	43.49	-36.9	-37.6	26.3	0.00e+00	0	40	0	2708471808	45	3886
2026-01-30 12:33:05.85	306.33	43.27	-37.0	-37.7	26.3	0.00e+00	0	41	0	2714763264	45	3921
2026-01-30 12:33:06.86	306.65	43.04	-36.9	-37.6	26.3	0.00e+00	0	41	0	2720006144	45	3875
2026-01-30 12:33:07.87	306.97	42.82	-36.9	-37.6	26.4	0.00e+00	0	41	0	2725249024	45	3883
2026-01-30 12:33:08.88	307.29	42.59	-36.9	-37.6	26.3	0.00e+00	0	41	0	2731540480	45	3907
2026-01-30 12:33:09.88	307.60	42.37	-37.0	-37.7	26.3	0.00e+00	0	41	0	2736783360	45	3916
2026-01-30 12:33:10.89	307.90	42.15	-36.9	-37.6	26.3	0.00e+00	0	41	0	2743074816	45	3895
2026-01-30 12:33:11.90	308.21	41.92	-37.0	-37.7	26.2	0.00e+00	0	41	0	2748317696	45	3930
2026-01-30 12:33:12.90	308.50	41.70	-36.8	-37.5	26.4	0.00e+00	0	41	0	2753560576	45	3836
2026-01-30 12:33:13.91	308.80	41.48	-36.9	-37.6	26.3	0.00e+00	0	41	0	2759852032	45	3887
2026-01-30 12:33:14.92	309.09	41.26	-36.9	-37.6	26.3	0.00e+00	0	41	0	2766143488	45	3895
2026-01-30 12:33:15.93	309.37	41.04	-37.0	-37.7	26.2	0.00e+00	0	41	0	2771386368	45	3922
2026-01-30 12:33:16.94	309.66	40.82	-37.0	-37.7	26.3	0.00e+00	0	41	0	2776629248	45	3915
2026-01-30 12:33:17.94	309.93	40.60	-37.0	-37.8	26.2	0.00e+00	0	41	0	2782920704	45	3960
2026-01-30 12:33:18.95	310.21	40.38	-37.1	-37.8	26.2	0.00e+00	0	41	0	2788163584	45	3969
2026-01-30 12:33:19.96	310.48	40.16	-37.1	-37.8	26.1	0.00e+00	0	41	0	2793406464	45	3997
2026-01-30 12:33:20.97	310.75	39.95	-36.9	-37.6	26.2	0.00e+00	0	41	0	2799697920	45	3901
2026-01-30 12:33:21.98	311.02	39.73	-37.0	-37.6	26.2	0.00e+00	0	41	0	2804940800	45	3907
2026-01-30 12:33:22.99	311.28	39.51	-36.9	-37.6	26.3	0.00e+00	0	41	0	2811232256	45	3869
2026-01-30 12:33:24.00	311.53	39.30	-36.8	-37.5	26.4	0.00e+00	0	40	0	2816475136	45	3826
2026-01-30 12:33:25.01	311.79	39.08	-36.9	-37.6	26.2	0.00e+00	0	40	0	2821718016	45	3907
2026-01-30 12:33:26.02	312.04	38.87	-36.9	-37.7	26.2	0.00e+00	0	41	0	2828009472	45	3919
2026-01-30 12:33:27.03	312.29	38.65	-37.0	-37.7	26.2	0.00e+00	0	41	0	2833252352	45	3948
2026-01-30 12:33:28.03	312.53	38.44	-37.0	-37.7	26.2	0.00e+00	0	41	0	2839543808	45	3932
2026-01-30 12:33:29.04	312.77	38.23	-36.9	-37.6	26.2	0.00e+00	0	41	0	2844786688	45	3910
2026-01-30 12:33:30.05	313.01	38.02	-36.8	-37.5	26.3	0.00e+00	0	41	0	2851078144	45	3838
2026-01-30 12:33:31.06	313.25	37.81	-36.8	-37.4	26.4	0.00e+00	0	41	0	2856321024	45	3816
2026-01-30 12:33:32.07	313.48	37.60	-36.7	-37.4	26.4	0.00e+00	0	41	0	2861563904	45	3781
2026-01-30 12:33:33.09	313.71	37.39	-36.6	-37.3	26.5	0.00e+00	0	41	0	2867855360	45	3762
2026-01-30 12:33:34.09	313.94	37.18	-36.7	-37.3	26.4	0.00e+00	0	41	0	2873098240	45	3771
2026-01-30 12:33:35.10	314.16	36.98	-36.7	-37.4	26.4	0.00e+00	0	41	0	2878341120	45	3789
2026-01-30 12:33:36.11	314.38	36.77	-36.6	-37.3	26.4	0.00e+00	0	41	0	2884632576	45	3769
2026-01-30 12:33:37.12	314.60	36.57	-36.6	-37.3	26.5	0.00e+00	0	41	0	2890924032	45	3744
2026-01-30 12:33:38.13	314.82	36.36	-36.6	-37.3	26.5	0.00e+00	0	41	0	2896166912	45	3766
2026-01-30 12:33:39.14	315.03	36.16	-36.5	-37.1	26.4	0.00e+00	0	40	0	2901409792	44	3913
2026-01-30 12:33:40.15	315.24	35.95	-36.5	-37.2	26.5	0.00e+00	0	41	0	2907701248	44	3925
2026-01-30 12:33:41.16	315.45	35.75	-36.4	-37.1	26.6	0.00e+00	0	41	0	2912944128	44	3876
2026-01-30 12:33:42.17	315.66	35.55	-36.4	-37.1	26.6	0.00e+00	0	41	0	2918187008	44	3878
2026-01-30 12:33:43.17	315.86	35.35	-36.5	-37.1	26.6	0.00e+00	0	41	0	2924478464	44	3907
2026-01-30 12:33:44.18	316.06	35.15	-36.6	-37.3	26.4	0.00e+00	0	41	0	2929721344	44	3973
2026-01-30 12:33:45.19	316.26	34.96	-36.7	-37.4	26.3	0.00e+00	0	41	0	2936012800	44	4020
2026-01-30 12:33:46.20	316.46	34.76	-36.7	-37.4	26.3	0.00e+00	0	41	0	2941255680	44	4047
2026-01-30 12:33:47.21	316.65	34.56	-36.7	-37.4	26.3	0.00e+00	0	41	0	2946498560	44	4050
2026-01-30 12:33:48.22	316.84	34.37	-36.7	-37.4	26.2	0.00e+00	0	41	0	2952790016	44	4048
2026-01-30 12:33:49.23	317.03	34.17	-36.8	-37.5	26.2	0.00e+00	0	41	0	2959081472	44	4067
2026-01-30 12:33:50.23	317.22	33.98	-36.8	-37.5	26.2	0.00e+00	0	41	0	2964324352	44	4058
2026-01-30 12:33:51.24	317.40	33.79	-36.8	-37.4	26.2	0.00e+00	0	41	0	2969567232	44	4050
2026-01-30 12:33:52.25	317.59	33.59	-36.5	-37.1	26.5	0.00e+00	0	41	0	2975858688	44	3902
2026-01-30 12:33:53.26	317.77	33.40	-36.3	-37.0	26.6	0.00e+00	0	41	0	2981101568	44	3845
2026-01-30 12:33:54.26	317.94	33.21	-36.4	-37.0	26.6	0.00e+00	0	41	0	2986344448	44	3863
2026-01-30 12:33:55.27	318.12	33.02	-36.4	-37.0	26.5	0.00e+00	0	41	0	2992635904	44	3865
2026-01-30 12:33:56.28	318.30	32.84	-36.5	-37.2	26.5	0.00e+00	0	41	0	2997878784	44	3941
2026-01-30 12:33:57.29	318.47	32.65	-36.7	-37.4	26.3	0.00e+00	0	41	0	3003121664	44	4005
2026-01-30 12:33:58.30	318.64	32.46	-36.8	-37.5	26.2	0.00e+00	0	41	0	3009413120	44	4090
2026-01-30 12:33:59.31	318.81	32.28	-36.9	-37.6	26.1	0.00e+00	0	41	0	3014656000	44	4138
2026-01-30 12:34:00.31	318.97	32.09	-37.0	-37.8	26.0	0.00e+00	0	41	0	3020947456	44	4197
2026-01-30 12:34:01.32	319.14	31.91	-37.0	-37.7	26.0	0.00e+00	0	41	0	3026190336	44	4165
2026-01-30 12:34:02.33	319.30	31.72	-37.0	-37.7	26.0	0.00e+00	0	41	0	3032481792	44	4190
2026-01-30 12:34:03.34	319.46	31.54	-36.9	-37.6	26.1	0.00e+00	0	41	0	3037724672	44	4128
2026-01-30 12:34:04.35	319.63	31.36	-37.0	-37.6	26.0	0.00e+00	0	41	0	3044016128	44	4145
2026-01-30 12:34:05.35	319.78	31.18	-36.8	-37.5	26.2	0.00e+00	0	41	0	3049259008	44	4063
2026-01-30 12:34:06.36	319.94	31.00	-36.5	-37.2	26.4	0.00e+00	0	41	0	3054501888	44	3938
2026-01-30 12:34:07.37	320.09	30.82	-36.5	-37.1	26.5	0.00e+00	0	41	0	3060793344	44	3912
2026-01-30 12:34:08.37	320.25	30.65	-36.6	-37.3	26.4	0.00e+00	0	41	0	3066036224	44	3968
2026-01-30 12:34:09.38	320.40	30.47	-36.7	-37.3	26.3	0.00e+00	0	41	0	3071279104	44	3995
2026-01-30 12:34:10.39	320.55	30.29	-36.7	-37.4	26.2	0.00e+00	0	41	0	3077570560	44	4030
2026-01-30 12:34:11.40	320.70	30.12	-36.9	-37.6	26.1	0.00e+00	0	41	0	3082813440	44	4106
2026-01-30 12:34:12.41	320.84	29.94	-36.8	-37.5	26.1	0.00e+00	0	40	0	3089104896	44	4097
2026-01-30 12:34:13.41	320.99	29.77	-37.0	-37.7	26.0	0.00e+00	0	41	0	3094347776	44	4154
2026-01-30 12:34:14.42	321.13	29.60	-37.0	-37.7	26.0	0.00e+00	0	41	0	3100639232	44	4172
2026-01-30 12:34:15.43	321.27	29.43	-37.1	-37.8	25.9	0.00e+00	0	41	0	3105882112	44	4203
2026-01-30 12:34:16.44	321.41	29.26	-37.1	-37.8	25.9	0.00e+00	0	41	0	3111124992	44	4225
2026-01-30 12:34:17.45	321.55	29.09	-37.1	-37.8	25.8	0.00e+00	0	41	0	3117416448	44	4220
2026-01-30 12:34:18.46	321.69	28.92	-37.0	-37.7	26.0	0.00e+00	0	41	0	3122659328	44	4153
2026-01-30 12:34:19.47	321.83	28.75	-36.9	-37.6	26.0	0.00e+00	0	41	0	3128950784	44	4124
2026-01-30 12:34:20.48	321.96	28.58	-36.9	-37.6	26.0	0.00e+00	0	41	0	3134193664	44	4114
2026-01-30 12:34:21.49	322.10	28.42	-37.0	-37.6	26.0	0.00e+00	0	41	0	3139436544	44	4140
2026-01-30 12:34:22.49	322.23	28.25	-36.8	-37.5	26.1	0.00e+00	0	41	0	3145728000	44	4063
2026-01-30 12:34:23.50	322.36	28.09	-36.8	-37.5	26.1	0.00e+00	0	41	0	3150970880	44	4079
2026-01-30 12:34:24.51	322.49	27.92	-36.9	-37.6	26.0	0.00e+00	0	41	0	3156213760	44	4102
2026-01-30 12:34:25.52	322.62	27.76	-36.7	-37.4	26.2	0.00e+00	0	41	0	3162505216	44	4024
2026-01-30 12:34:26.53	322.75	27.60	-36.8	-37.5	26.1	0.00e+00	0	41	0	3168796672	44	4074
2026-01-30 12:34:27.54	322.87	27.43	-36.8	-37.5	26.1	0.00e+00	0	41	0	3174039552	44	4091
2026-01-30 12:34:28.55	323.00	27.27	-36.8	-37.5	26.1	0.00e+00	0	41	0	3179282432	44	4071
2026-01-30 12:34:29.56	323.12	27.11	-36.8	-37.5	26.1	0.00e+00	0	41	0	3185573888	44	4080
2026-01-30 12:34:30.57	323.25	26.95	-36.8	-37.5	26.0	0.00e+00	0	41	0	3190816768	44	4075
2026-01-30 12:34:31.58	323.37	26.80	-36.9	-37.5	26.0	0.00e+00	0	40	0	3196059648	44	4098
2026-01-30 12:34:32.59	323.49	26.64	-36.8	-37.5	26.1	0.00e+00	0	41	0	3202351104	44	4062
2026-01-30 12:34:33.60	323.61	26.48	-36.9	-37.5	26.0	0.00e+00	0	41	0	3207593984	44	4098
2026-01-30 12:34:34.60	323.72	26.33	-36.8	-37.5	26.1	0.00e+00	0	41	0	3213885440	44	4061
2026-01-30 12:34:35.62	323.84	26.17	-36.9	-37.6	25.9	0.00e+00	0	41	0	3219128320	44	4123
2026-01-30 12:34:36.63	323.96	26.01	-37.0	-37.7	25.9	0.00e+00	0	41	0	3225419776	44	4148
2026-01-30 12:34:37.64	324.07	25.86	-36.9	-37.6	25.9	0.00e+00	0	41	0	3230662656	44	4125
2026-01-30 12:34:38.64	324.19	25.71	-36.9	-37.6	26.0	0.00e+00	0	41	0	3236954112	44	4115
2026-01-30 12:34:39.65	324.30	25.56	-37.0	-37.7	25.9	0.00e+00	0	41	0	3242196992	44	4156
2026-01-30 12:34:40.66	324.41	25.41	-37.0	-37.7	25.8	0.00e+00	0	41	0	3247439872	44	4179
2026-01-30 12:34:41.67	324.52	25.26	-37.0	-37.7	25.8	0.00e+00	0	41	0	3253731328	44	4187
2026-01-30 12:34:42.68	324.63	25.11	-37.0	-37.7	25.8	0.00e+00	0	41	0	3258974208	44	4167
2026-01-30 12:34:43.69	324.74	24.96	-37.1	-37.8	25.8	0.00e+00	0	41	0	3264217088	44	4210
2026-01-30 12:34:44.69	324.85	24.81	-37.1	-37.8	25.8	0.00e+00	0	41	0	3270508544	44	4221
2026-01-30 12:34:45.70	324.95	24.66	-37.1	-37.8	25.7	0.00e+00	0	41	0	3275751424	44	4226
2026-01-30 12:34:46.71	325.06	24.51	-37.1	-37.8	25.7	0.00e+00	0	41	0	3280994304	44	4226
2026-01-30 12:34:47.72	325.16	24.37	-37.2	-37.9	25.4	0.00e+00	0	41	0	3287285760	45	4048
2026-01-30 12:34:48.72	325.27	24.22	-37.2	-37.9	25.6	0.00e+00	0	41	0	3293577216	45	4048
2026-01-30 12:34:49.73	325.37	24.08	-37.2	-37.9	25.7	0.00e+00	0	41	0	3298820096	45	4025
2026-01-30 12:34:50.74	325.47	23.93	-37.2	-37.9	25.6	0.00e+00	0	41	0	3304062976	45	4043
2026-01-30 12:34:51.75	325.57	23.79	-37.2	-37.9	25.6	0.00e+00	0	41	0	3310354432	45	4048
2026-01-30 12:34:52.75	325.67	23.65	-37.2	-37.9	25.6	0.00e+00	0	41	0	3315597312	45	4043
2026-01-30 12:34:53.76	325.77	23.51	-37.2	-37.9	25.6	0.00e+00	0	41	0	3321888768	45	4042
2026-01-30 12:34:54.76	325.87	23.37	-37.2	-37.9	25.6	0.00e+00	0	41	0	3327131648	45	4028
2026-01-30 12:34:55.77	325.97	23.23	-37.3	-37.9	25.6	0.00e+00	0	41	0	3332374528	45	4049
2026-01-30 12:34:56.78	326.07	23.09	-37.3	-38.0	25.5	0.00e+00	0	41	0	3338665984	45	4087
2026-01-30 12:34:57.79	326.16	22.95	-37.3	-37.9	25.6	0.00e+00	0	41	0	3343908864	45	4050
2026-01-30 12:34:58.80	326.26	22.81	-37.4	-38.1	25.4	0.00e+00	0	41	0	3349151744	45	4114
2026-01-30 12:34:59.81	326.35	22.67	-37.4	-38.1	25.5	0.00e+00	0	40	0	3355443200	45	4103
2026-01-30 12:35:00.81	326.44	22.54	-37.3	-38.1	25.5	0.00e+00	0	41	0	3360686080	45	4101
2026-01-30 12:35:01.82	326.54	22.40	-37.4	-38.2	25.4	0.00e+00	0	41	0	3366977536	45	4148
2026-01-30 12:35:02.83	326.63	22.26	-37.4	-38.1	25.4	0.00e+00	0	41	0	3372220416	45	4135
2026-01-30 12:35:03.84	326.72	22.13	-37.5	-38.2	25.4	0.00e+00	0	41	0	3378511872	45	4156
2026-01-30 12:35:04.84	326.81	21.99	-37.6	-38.3	25.3	0.00e+00	0	41	0	3383754752	45	4204
2026-01-30 12:35:05.85	326.90	21.86	-37.6	-38.4	25.2	0.00e+00	0	41	0	3388997632	45	4248
2026-01-30 12:35:06.86	326.99	21.73	-37.7	-38.4	25.1	0.00e+00	0	41	0	3395289088	45	4281
2026-01-30 12:35:07.87	327.08	21.59	-37.7	-38.4	25.1	0.00e+00	0	40	0	3400531968	46	4049
2026-01-30 12:35:08.88	327.17	21.46	-37.7	-38.4	25.1	0.00e+00	0	41	0	3406823424	46	4050
2026-01-30 12:35:09.89	327.25	21.33	-37.8	-38.5	25.0	0.00e+00	0	41	0	3412066304	46	4080
2026-01-30 12:35:10.89	327.34	21.20	-37.9	-38.6	24.9	0.00e+00	0	40	0	3417309184	46	4143
2026-01-30 12:35:11.90	327.43	21.07	-38.0	-38.7	24.8	0.00e+00	0	40	0	3423600640	46	4182
2026-01-30 12:35:12.91	327.51	20.94	-37.9	-38.6	24.9	0.00e+00	0	41	0	3428843520	46	4127
2026-01-30 12:35:13.92	327.60	20.81	-38.0	-38.7	24.8	0.00e+00	0	41	0	3435134976	46	4165
2026-01-30 12:35:14.93	327.68	20.68	-38.0	-38.8	24.8	0.00e+00	0	41	0	3440377856	46	4200
2026-01-30 12:35:15.94	327.76	20.56	-38.0	-38.7	24.8	0.00e+00	0	41	0	3446669312	46	4192
2026-01-30 12:35:16.95	327.84	20.43	-38.0	-38.7	24.8	0.00e+00	0	41	0	3451912192	46	4178
2026-01-30 12:35:17.95	327.93	20.30	-38.0	-38.8	24.8	0.00e+00	0	41	0	3457155072	46	4201
2026-01-30 12:35:18.96	328.01	20.18	-37.9	-38.7	24.8	0.00e+00	0	41	0	3463446528	46	4163
2026-01-30 12:35:19.97	328.09	20.05	-38.0	-38.7	24.8	0.00e+00	0	41	0	3468689408	46	4186
2026-01-30 12:35:20.98	328.17	19.93	-38.1	-38.9	24.7	0.00e+00	0	41	0	3473932288	46	4250
2026-01-30 12:35:21.98	328.25	19.80	-37.9	-38.7	24.8	0.00e+00	0	41	0	3480223744	46	4153
2026-01-30 12:35:22.98	328.32	19.68	-37.9	-38.6	24.9	0.00e+00	0	41	0	3485466624	46	4114
2026-01-30 12:35:23.99	328.40	19.56	-37.9	-38.6	24.9	0.00e+00	0	41	0	3491758080	46	4139
2026-01-30 12:35:25.00	328.48	19.44	-37.9	-38.6	24.9	0.00e+00	0	41	0	3497000960	46	4118
2026-01-30 12:35:26.01	328.56	19.31	-37.9	-38.6	24.9	0.00e+00	0	41	0	3502243840	46	4133
2026-01-30 12:35:27.01	328.63	19.19	-38.1	-38.8	24.7	0.00e+00	0	41	0	3508535296	46	4220
2026-01-30 12:35:28.02	328.71	19.07	-38.0	-38.8	24.7	0.00e+00	0	41	0	3514826752	46	4202
2026-01-30 12:35:29.03	328.78	18.95	-37.9	-38.7	24.8	0.00e+00	0	41	0	3520069632	46	4150
2026-01-30 12:35:30.03	328.86	18.83	-38.0	-38.7	24.7	0.00e+00	0	41	0	3525312512	46	4186
2026-01-30 12:35:31.04	328.93	18.71	-38.0	-38.8	24.7	0.00e+00	0	41	0	3531603968	46	4202
2026-01-30 12:35:32.05	329.00	18.59	-38.1	-38.8	24.7	0.00e+00	0	41	0	3536846848	46	4202
2026-01-30 12:35:33.05	329.08	18.48	-38.1	-38.8	24.7	0.00e+00	0	41	0	3542089728	46	4213
2026-01-30 12:35:34.06	329.15	18.36	-38.2	-38.9	24.5	0.00e+00	0	41	0	3548381184	46	4271
2026-01-30 12:35:35.07	329.22	18.24	-38.3	-39.0	24.5	0.00e+00	0	41	0	3553624064	47	4068
2026-01-30 12:35:36.08	329.29	18.13	-38.3	-39.1	24.4	0.00e+00	0	41	0	3558866944	47	4107
2026-01-30 12:35:37.09	329.36	18.01	-38.4	-39.2	24.3	0.00e+00	0	41	0	3565158400	47	4157
2026-01-30 12:35:38.09	329.43	17.90	-38.6	-39.3	24.2	0.00e+00	0	41	0	3570401280	47	4222
2026-01-30 12:35:39.10	329.50	17.78	-38.5	-39.3	24.2	0.00e+00	0	41	0	3576692736	47	4206
2026-01-30 12:35:40.11	329.57	17.67	-38.6	-39.4	24.1	0.00e+00	0	41	0	3581935616	47	4256
2026-01-30 12:35:41.12	329.64	17.55	-38.7	-39.5	24.1	0.00e+00	0	41	0	3588227072	47	4295
2026-01-30 12:35:42.13	329.71	17.44	-38.7	-39.4	24.1	0.00e+00	0	41	0	3593469952	47	4288
2026-01-30 12:35:43.14	329.78	17.32	-39.1	-39.9	24.1	0.00e+00	0	41	0	3599761408	48	4256
2026-01-30 12:35:44.15	329.85	17.21	-39.2	-39.9	24.1	0.00e+00	0	41	0	3605004288	49	4037
2026-01-30 12:35:45.15	329.91	17.10	-39.2	-39.9	24.1	0.00e+00	0	41	0	3610247168	49	4037
2026-01-30 12:35:46.16	329.98	16.99	-39.2	-39.9	24.1	0.00e+00	0	41	0	3616538624	49	4032
2026-01-30 12:35:47.17	330.05	16.88	-39.3	-40.1	24.0	0.00e+00	0	41	0	3621781504	49	4103
2026-01-30 12:35:48.18	330.11	16.77	-39.3	-40.0	24.0	0.00e+00	0	41	0	3627024384	49	4098
2026-01-30 12:35:49.18	330.18	16.66	-39.3	-40.1	24.0	0.00e+00	0	41	0	3633315840	49	4104
2026-01-30 12:35:50.19	330.24	16.55	-39.4	-40.1	23.9	0.00e+00	0	41	0	3638558720	49	4127
2026-01-30 12:35:51.20	330.31	16.44	-39.4	-40.1	23.9	0.00e+00	0	41	0	3643801600	49	4140
2026-01-30 12:35:52.21	330.37	16.33	-39.4	-40.2	23.8	0.00e+00	0	41	0	3650093056	49	4147
2026-01-30 12:35:53.21	330.43	16.22	-39.5	-40.2	23.8	0.00e+00	0	41	0	3655335936	49	4183
2026-01-30 12:35:54.22	330.50	16.11	-39.5	-40.3	23.7	0.00e+00	0	41	0	3661627392	49	4212
2026-01-30 12:35:55.23	330.56	16.01	-39.6	-40.4	23.6	0.00e+00	0	41	0	3666870272	49	4259
