passes_logs/2026/01/30/R3.2S_Murmansk/R3.2S_Murmansk__20260130_051021_NOAA_20_JPSS-1_rec.log

#Pass ID: 20260130_051021_NOAA 20 (JPSS-1)
#Satellite: NOAA 20 (JPSS-1)
#Configuration: NOAA 20
#almurnet v.1.7.20251203
#Start time: 2026-01-30 05:10:22

#Version: 2.2.20231116
#Station: R3.2S_Murmansk
#Location: 33.079688 lon 68.888172 lat
#TLE: 1 43013U 17073A   26029.42702672  .00000137  00000+0  85918-4 0  9993
#TLE: 2 43013  98.7646 330.2153 0000804  19.9045 340.2162 14.19525092424781

#Time	Az	El	Level	Level2	SNR	BER	BlckErr	Temp	State	Recorded	gain1	gain2
2026-01-30 05:10:22.76	62.13	2.10	-53.8	-68.8	3.8	1.49e+00	0	39	0	0	79	20016
2026-01-30 05:10:23.76	62.06	2.15	-53.8	-68.8	3.8	1.49e+00	0	39	104	0	78	21111
2026-01-30 05:10:24.76	62.00	2.21	-53.8	-68.8	3.8	1.49e+00	0	39	104	0	78	21089
2026-01-30 05:10:25.77	61.93	2.27	-53.8	-68.8	3.8	1.49e+00	0	39	104	0	78	21103
2026-01-30 05:10:26.78	61.87	2.33	-53.8	-68.8	3.8	1.49e+00	0	39	104	0	78	21080
2026-01-30 05:10:27.79	61.80	2.38	-53.8	-68.7	3.8	1.49e+00	0	39	104	0	78	20975
2026-01-30 05:10:28.80	61.73	2.44	-53.8	-68.7	3.8	1.49e+00	0	40	104	0	78	20998
2026-01-30 05:10:29.80	61.67	2.50	-53.8	-68.7	3.8	1.49e+00	0	39	104	0	78	20987
2026-01-30 05:10:30.81	61.60	2.56	-53.7	-68.7	3.8	1.49e+00	0	39	104	0	78	20946
2026-01-30 05:10:31.82	61.53	2.61	-53.7	-68.7	3.8	1.49e+00	0	39	104	0	78	20944
2026-01-30 05:10:32.82	61.47	2.67	-53.7	-68.7	3.8	1.49e+00	0	39	104	0	78	20902
2026-01-30 05:10:33.83	61.40	2.73	-53.7	-68.7	3.8	1.49e+00	0	40	104	0	78	20864
2026-01-30 05:10:34.84	61.33	2.79	-53.9	-68.9	3.8	1.49e+00	0	40	104	0	78	21354
2026-01-30 05:10:35.85	61.26	2.85	-54.1	-69.1	3.8	1.49e+00	0	39	104	0	78	21811
2026-01-30 05:10:36.86	61.19	2.90	-54.2	-69.1	3.8	1.49e+00	0	40	104	0	78	21979
2026-01-30 05:10:37.86	61.13	2.96	-54.2	-69.2	3.8	1.49e+00	0	40	104	0	78	22155
2026-01-30 05:10:38.87	61.06	3.02	-54.2	-69.2	3.8	1.49e+00	0	40	104	0	78	22060
2026-01-30 05:10:39.88	60.99	3.08	-54.1	-69.1	3.8	1.49e+00	0	40	104	0	78	21920
2026-01-30 05:10:40.88	60.92	3.14	-54.1	-69.1	3.8	1.49e+00	0	40	104	0	78	21870
2026-01-30 05:10:41.89	60.85	3.20	-54.1	-69.0	3.8	1.49e+00	0	40	104	0	78	21755
2026-01-30 05:10:42.90	60.78	3.25	-54.0	-69.0	3.8	1.49e+00	0	40	104	0	78	21583
2026-01-30 05:10:43.91	60.71	3.31	-54.0	-68.9	3.8	1.49e+00	0	40	104	0	78	21473
2026-01-30 05:10:44.91	60.64	3.37	-53.9	-68.8	3.8	1.49e+00	0	40	104	0	78	21209
2026-01-30 05:10:45.92	60.57	3.43	-53.8	-68.8	3.8	1.49e+00	0	40	104	0	78	21124
2026-01-30 05:10:46.93	60.50	3.49	-53.8	-68.7	3.8	1.49e+00	0	40	104	0	78	20977
2026-01-30 05:10:47.94	60.42	3.55	-53.7	-68.7	3.8	1.49e+00	0	40	104	0	78	20865
2026-01-30 05:10:48.94	60.35	3.61	-53.6	-68.6	3.8	1.49e+00	0	40	104	0	78	20673
2026-01-30 05:10:49.95	60.28	3.67	-53.6	-68.5	3.8	1.49e+00	0	40	104	0	78	20512
2026-01-30 05:10:50.96	60.21	3.73	-53.5	-68.4	3.8	1.49e+00	0	40	104	0	78	20296
2026-01-30 05:10:51.96	60.14	3.79	-53.3	-68.2	3.8	1.49e+00	0	40	104	0	77	20992
2026-01-30 05:10:52.97	60.06	3.85	-53.1	-68.1	3.8	1.49e+00	0	40	104	0	77	20657
2026-01-30 05:10:53.98	59.99	3.91	-53.0	-67.8	3.8	1.49e+00	0	40	104	0	77	19941
2026-01-30 05:10:54.99	59.92	3.97	-52.7	-67.7	3.8	1.49e+00	0	40	104	0	77	19705
2026-01-30 05:10:56.00	59.84	4.03	-52.4	-67.3	3.8	1.49e+00	0	40	104	0	76	20029
2026-01-30 05:10:57.00	59.77	4.09	-51.9	-66.8	3.8	1.49e+00	0	40	104	0	75	20049
2026-01-30 05:10:58.01	59.69	4.15	-51.9	-66.8	3.8	1.49e+00	0	40	104	0	75	20001
2026-01-30 05:10:59.02	59.62	4.21	-51.9	-66.8	3.8	1.49e+00	0	40	104	0	75	19891
2026-01-30 05:11:00.03	59.54	4.27	-51.8	-66.6	3.8	1.49e+00	0	40	104	0	75	19572
2026-01-30 05:11:01.03	59.47	4.33	-51.8	-66.4	3.8	1.49e+00	0	40	104	0	75	19008
2026-01-30 05:11:02.04	59.39	4.39	-51.8	-66.1	3.8	1.49e+00	0	40	104	0	75	18426
2026-01-30 05:11:03.04	59.31	4.45	-51.8	-65.9	3.8	1.49e+00	0	40	104	0	75	18041
2026-01-30 05:11:04.05	59.24	4.51	-51.8	-65.9	3.8	1.49e+00	0	40	104	0	75	17935
2026-01-30 05:11:05.06	59.16	4.57	-51.8	-66.0	3.8	1.49e+00	0	40	104	0	75	18111
2026-01-30 05:11:06.07	59.08	4.63	-51.7	-65.5	3.8	1.49e+00	0	40	104	0	75	17196
2026-01-30 05:11:07.08	59.01	4.69	-51.7	-64.2	3.8	1.49e+00	0	40	104	0	75	14733
2026-01-30 05:11:08.09	58.93	4.75	-51.5	-61.8	4.6	1.30e+00	0	40	0	0	75	11239
2026-01-30 05:11:09.10	58.85	4.81	-51.2	-59.7	5.9	5.64e-01	0	40	0	2097152	74	9333
2026-01-30 05:11:10.11	58.77	4.87	-50.7	-57.4	8.0	1.94e-01	0	40	0	4194304	73	7549
2026-01-30 05:11:11.12	58.69	4.93	-50.3	-55.7	9.6	2.17e-02	0	40	0	5242880	72	6636
2026-01-30 05:11:12.13	58.61	5.00	-49.8	-54.2	11.3	4.32e-03	0	40	0	7340032	71	5906
2026-01-30 05:11:13.14	58.53	5.06	-49.4	-53.4	12.2	5.17e-04	0	41	0	9437184	70	5705
2026-01-30 05:11:14.15	58.45	5.12	-49.6	-53.7	12.0	2.71e-04	0	41	0	11534336	70	5875
2026-01-30 05:11:15.15	58.37	5.18	-51.4	-60.9	5.1	3.20e-01	0	41	0	13631488	73	11368
2026-01-30 05:11:16.16	58.29	5.24	-49.2	-52.9	12.7	1.43e-03	0	41	0	14680064	69	5682
2026-01-30 05:11:17.17	58.21	5.30	-47.4	-49.7	16.0	0.00e+00	0	40	0	16777216	66	4704
2026-01-30 05:11:18.18	58.13	5.36	-51.5	-63.9	3.9	7.41e-01	0	40	104	17825792	73	16026
2026-01-30 05:11:19.18	58.05	5.43	-47.3	-49.5	16.2	2.32e-03	0	40	0	18874368	66	4586
2026-01-30 05:11:20.18	57.96	5.49	-47.4	-49.8	16.0	0.00e+00	0	40	0	19922944	66	4721
2026-01-30 05:11:21.19	57.88	5.55	-47.4	-49.7	16.0	0.00e+00	0	40	0	22020096	66	4699
2026-01-30 05:11:22.20	57.80	5.61	-47.4	-49.8	15.9	0.00e+00	0	40	0	24117248	66	4753
2026-01-30 05:11:23.20	57.72	5.67	-47.4	-49.7	16.0	0.00e+00	0	40	0	26214400	66	4692
2026-01-30 05:11:24.21	57.63	5.74	-47.6	-50.0	15.8	0.00e+00	0	41	0	28311552	66	4843
2026-01-30 05:11:25.22	57.55	5.80	-47.3	-49.6	16.2	0.00e+00	0	40	0	29360128	66	4622
2026-01-30 05:11:26.23	57.46	5.86	-47.2	-49.5	16.3	0.00e+00	0	40	0	31457280	66	4562
2026-01-30 05:11:27.24	57.38	5.92	-47.2	-49.5	16.3	0.00e+00	0	41	0	33554432	66	4571
2026-01-30 05:11:28.24	57.29	5.99	-47.2	-49.4	16.4	0.00e+00	0	41	0	35651584	66	4526
2026-01-30 05:11:29.25	57.21	6.05	-46.9	-49.0	16.8	0.00e+00	0	41	0	37748736	65	4593
2026-01-30 05:11:30.25	57.12	6.11	-47.0	-49.1	16.7	0.00e+00	0	40	0	38797312	65	4647
2026-01-30 05:11:31.25	57.04	6.17	-46.9	-49.1	16.8	0.00e+00	0	40	0	40894464	65	4609
2026-01-30 05:11:32.26	56.95	6.24	-46.9	-49.0	16.9	0.00e+00	0	41	0	42991616	65	4551
2026-01-30 05:11:33.27	56.86	6.30	-47.1	-49.2	16.7	0.00e+00	0	41	0	45088768	65	4683
2026-01-30 05:11:34.28	56.78	6.36	-46.9	-49.0	16.9	0.00e+00	0	40	0	47185920	65	4592
2026-01-30 05:11:35.29	56.69	6.43	-47.0	-49.1	16.8	0.00e+00	0	40	0	48234496	65	4621
2026-01-30 05:11:36.29	56.60	6.49	-47.0	-49.1	16.8	0.00e+00	0	41	0	50331648	65	4640
2026-01-30 05:11:37.30	56.51	6.55	-47.1	-49.2	16.6	0.00e+00	0	41	0	52428800	65	4698
2026-01-30 05:11:38.31	56.42	6.62	-47.1	-49.3	16.7	0.00e+00	0	41	0	54525952	65	4707
2026-01-30 05:11:39.31	56.33	6.68	-47.1	-49.2	16.7	0.00e+00	0	41	0	56623104	65	4698
2026-01-30 05:11:40.32	56.24	6.74	-47.1	-49.2	16.7	0.00e+00	0	41	0	57671680	65	4688
2026-01-30 05:11:41.33	56.15	6.81	-47.2	-49.4	16.5	0.00e+00	0	40	0	59768832	65	4811
2026-01-30 05:11:42.33	56.06	6.87	-47.1	-49.2	16.7	0.00e+00	0	41	0	61865984	65	4705
2026-01-30 05:11:43.34	55.97	6.93	-47.0	-49.2	16.8	0.00e+00	0	41	0	63963136	65	4653
2026-01-30 05:11:44.34	55.88	7.00	-47.1	-49.2	16.8	0.00e+00	0	41	0	66060288	65	4666
2026-01-30 05:11:45.35	55.79	7.06	-47.1	-49.2	16.7	0.00e+00	0	41	0	67108864	65	4699
2026-01-30 05:11:46.36	55.70	7.13	-47.2	-49.4	16.6	0.00e+00	0	40	0	69206016	65	4773
2026-01-30 05:11:47.36	55.60	7.19	-47.0	-49.2	16.8	0.00e+00	0	41	0	71303168	65	4653
2026-01-30 05:11:48.37	55.51	7.26	-47.0	-49.1	16.9	0.00e+00	0	41	0	73400320	65	4650
2026-01-30 05:11:49.38	55.42	7.32	-46.9	-48.9	17.1	0.00e+00	0	41	0	75497472	65	4527
2026-01-30 05:11:50.38	55.32	7.38	-47.0	-49.1	16.9	0.00e+00	0	41	0	76546048	65	4620
2026-01-30 05:11:51.39	55.23	7.45	-46.9	-48.9	17.1	0.00e+00	0	41	0	78643200	65	4530
2026-01-30 05:11:52.40	55.13	7.51	-46.9	-48.9	17.1	0.00e+00	0	41	0	80740352	65	4529
2026-01-30 05:11:53.41	55.04	7.58	-46.8	-48.8	17.2	0.00e+00	0	41	0	82837504	65	4487
2026-01-30 05:11:54.42	54.94	7.64	-46.8	-48.8	17.3	0.00e+00	0	41	0	84934656	65	4469
2026-01-30 05:11:55.42	54.85	7.71	-46.9	-48.8	17.2	0.00e+00	0	41	0	85983232	65	4486
2026-01-30 05:11:56.43	54.75	7.77	-47.0	-49.0	17.1	0.00e+00	0	41	0	88080384	65	4567
2026-01-30 05:11:57.44	54.65	7.84	-47.0	-49.0	17.1	0.00e+00	0	41	0	90177536	65	4559
2026-01-30 05:11:58.44	54.56	7.90	-47.0	-49.0	17.1	0.00e+00	0	41	0	92274688	65	4570
2026-01-30 05:11:59.44	54.46	7.97	-46.7	-48.6	17.4	0.00e+00	0	41	0	94371840	65	4384
2026-01-30 05:12:00.45	54.36	8.03	-46.8	-48.8	17.3	0.00e+00	0	41	0	95420416	65	4480
2026-01-30 05:12:01.45	54.26	8.10	-46.7	-48.7	17.4	0.00e+00	0	41	0	97517568	65	4410
2026-01-30 05:12:02.46	54.16	8.17	-46.7	-48.6	17.5	0.00e+00	0	41	0	99614720	65	4355
2026-01-30 05:12:03.47	54.06	8.23	-46.5	-48.4	17.7	0.00e+00	0	41	0	101711872	65	4251
2026-01-30 05:12:04.47	53.96	8.30	-46.5	-48.4	17.7	0.00e+00	0	41	0	103809024	64	4520
2026-01-30 05:12:05.48	53.86	8.36	-46.4	-48.2	17.9	0.00e+00	0	41	0	104857600	64	4424
2026-01-30 05:12:06.49	53.76	8.43	-46.4	-48.3	17.8	0.00e+00	0	41	0	106954752	64	4448
2026-01-30 05:12:07.49	53.66	8.49	-46.4	-48.2	17.9	0.00e+00	0	41	0	109051904	64	4411
2026-01-30 05:12:08.50	53.56	8.56	-46.4	-48.2	17.9	0.00e+00	0	41	0	111149056	64	4404
2026-01-30 05:12:09.51	53.45	8.63	-46.4	-48.2	17.9	0.00e+00	0	41	0	113246208	64	4441
2026-01-30 05:12:10.52	53.35	8.69	-46.4	-48.2	18.0	0.00e+00	0	41	0	114294784	64	4407
2026-01-30 05:12:11.52	53.25	8.76	-46.3	-48.1	18.0	0.00e+00	0	41	0	116391936	64	4381
2026-01-30 05:12:12.53	53.14	8.83	-46.4	-48.2	18.0	0.00e+00	0	41	0	118489088	64	4402
2026-01-30 05:12:13.53	53.04	8.89	-46.4	-48.2	18.0	0.00e+00	0	41	0	120586240	64	4407
2026-01-30 05:12:14.53	52.94	8.96	-46.4	-48.2	18.0	0.00e+00	0	41	0	122683392	64	4401
2026-01-30 05:12:15.54	52.83	9.02	-46.4	-48.2	18.0	0.00e+00	0	41	0	123731968	64	4421
2026-01-30 05:12:16.55	52.72	9.09	-46.5	-48.3	17.9	0.00e+00	0	41	0	125829120	64	4474
2026-01-30 05:12:17.55	52.62	9.16	-46.5	-48.3	17.9	0.00e+00	0	41	0	127926272	64	4450
2026-01-30 05:12:18.56	52.51	9.23	-46.5	-48.3	17.9	0.00e+00	0	41	0	130023424	64	4453
2026-01-30 05:12:19.57	52.40	9.29	-46.4	-48.2	18.0	0.00e+00	0	41	0	132120576	64	4430
2026-01-30 05:12:20.58	52.29	9.36	-46.4	-48.2	18.0	0.00e+00	0	41	0	133169152	64	4435
2026-01-30 05:12:21.59	52.18	9.43	-46.5	-48.3	18.0	0.00e+00	0	41	0	135266304	64	4460
2026-01-30 05:12:22.59	52.08	9.49	-46.5	-48.3	17.9	0.00e+00	0	41	0	137363456	64	4489
2026-01-30 05:12:23.59	51.97	9.56	-46.6	-48.5	17.7	0.00e+00	0	41	0	139460608	64	4559
2026-01-30 05:12:24.60	51.86	9.63	-46.6	-48.5	17.7	0.00e+00	0	41	0	141557760	64	4580
2026-01-30 05:12:25.61	51.75	9.70	-46.7	-48.6	17.6	0.00e+00	0	41	0	142606336	64	4640
2026-01-30 05:12:26.61	51.64	9.76	-46.6	-48.4	17.8	0.00e+00	0	41	0	144703488	64	4522
2026-01-30 05:12:27.61	51.52	9.83	-46.7	-48.6	17.7	0.00e+00	0	41	0	146800640	64	4636
2026-01-30 05:12:28.62	51.41	9.90	-46.7	-48.5	17.8	0.00e+00	0	41	0	148897792	64	4573
2026-01-30 05:12:29.63	51.30	9.97	-46.7	-48.5	17.7	0.00e+00	0	41	0	150994944	64	4598
2026-01-30 05:12:30.63	51.19	10.03	-46.6	-48.4	17.8	0.00e+00	0	41	0	152043520	64	4526
2026-01-30 05:12:31.64	51.07	10.10	-46.7	-48.6	17.6	0.00e+00	0	41	0	154140672	64	4640
2026-01-30 05:12:32.65	50.96	10.17	-46.7	-48.6	17.6	0.00e+00	0	41	0	156237824	64	4620
2026-01-30 05:12:33.65	50.84	10.24	-46.6	-48.4	17.8	0.00e+00	0	41	0	158334976	64	4531
2026-01-30 05:12:34.66	50.73	10.31	-46.7	-48.5	17.8	0.00e+00	0	41	0	160432128	64	4580
2026-01-30 05:12:35.67	50.61	10.37	-46.5	-48.3	18.0	0.00e+00	0	41	0	161480704	64	4451
2026-01-30 05:12:36.68	50.49	10.44	-46.5	-48.4	17.9	0.00e+00	0	41	0	163577856	64	4498
2026-01-30 05:12:37.69	50.38	10.51	-46.4	-48.2	18.1	0.00e+00	0	41	0	165675008	64	4401
2026-01-30 05:12:38.69	50.26	10.58	-46.5	-48.3	18.0	0.00e+00	0	41	0	167772160	64	4484
2026-01-30 05:12:39.69	50.14	10.65	-46.4	-48.2	18.1	0.00e+00	0	41	0	169869312	64	4408
2026-01-30 05:12:40.70	50.02	10.72	-46.5	-48.4	18.0	0.00e+00	0	41	0	170917888	64	4495
2026-01-30 05:12:41.71	49.90	10.78	-46.4	-48.1	18.2	0.00e+00	0	41	0	173015040	64	4363
2026-01-30 05:12:42.71	49.78	10.85	-46.3	-48.1	18.2	0.00e+00	0	41	0	175112192	64	4353
2026-01-30 05:12:43.72	49.66	10.92	-46.2	-47.9	18.4	0.00e+00	0	41	0	177209344	64	4272
2026-01-30 05:12:44.73	49.54	10.99	-46.3	-48.0	18.3	0.00e+00	0	41	0	179306496	64	4322
2026-01-30 05:12:45.73	49.42	11.06	-46.3	-48.0	18.3	0.00e+00	0	41	0	180355072	64	4326
2026-01-30 05:12:46.73	49.30	11.13	-46.2	-47.9	18.5	0.00e+00	0	41	0	182452224	64	4253
2026-01-30 05:12:47.73	49.18	11.20	-46.1	-47.8	18.6	0.00e+00	0	41	0	184549376	64	4216
2026-01-30 05:12:48.74	49.05	11.27	-46.0	-47.6	18.7	0.00e+00	0	41	0	186646528	64	4136
2026-01-30 05:12:49.75	48.93	11.34	-46.0	-47.6	18.7	0.00e+00	0	41	0	187695104	64	4129
2026-01-30 05:12:50.75	48.80	11.40	-46.1	-47.7	18.8	0.00e+00	0	41	0	189792256	63	4405
2026-01-30 05:12:51.76	48.68	11.47	-46.1	-47.7	18.7	0.00e+00	0	41	0	191889408	63	4417
2026-01-30 05:12:52.77	48.55	11.54	-46.0	-47.6	18.8	0.00e+00	0	41	0	193986560	63	4370
2026-01-30 05:12:53.78	48.43	11.61	-46.1	-47.6	18.8	0.00e+00	0	41	0	196083712	63	4390
2026-01-30 05:12:54.78	48.30	11.68	-46.1	-47.7	18.8	0.00e+00	0	41	0	198180864	63	4419
2026-01-30 05:12:55.79	48.17	11.75	-46.0	-47.6	18.9	0.00e+00	0	41	0	199229440	63	4355
2026-01-30 05:12:56.80	48.04	11.82	-45.9	-47.5	19.0	0.00e+00	0	41	0	201326592	63	4312
2026-01-30 05:12:57.81	47.91	11.89	-46.1	-47.7	18.8	0.00e+00	0	41	0	203423744	63	4401
2026-01-30 05:12:58.81	47.78	11.96	-46.0	-47.6	18.9	0.00e+00	0	41	0	205520896	63	4341
2026-01-30 05:12:59.82	47.65	12.03	-46.0	-47.6	18.8	0.00e+00	0	41	0	207618048	63	4375
2026-01-30 05:13:00.82	47.52	12.10	-46.1	-47.7	18.8	0.00e+00	0	41	0	208666624	63	4405
2026-01-30 05:13:01.83	47.39	12.17	-46.0	-47.6	18.9	0.00e+00	0	41	0	210763776	63	4366
2026-01-30 05:13:02.83	47.26	12.24	-46.1	-47.7	18.8	0.00e+00	0	41	0	212860928	63	4428
2026-01-30 05:13:03.84	47.13	12.31	-45.9	-47.5	18.9	0.00e+00	0	41	0	214958080	63	4325
2026-01-30 05:13:04.85	46.99	12.38	-46.0	-47.6	18.9	0.00e+00	0	41	0	216006656	63	4385
2026-01-30 05:13:05.85	46.86	12.45	-46.0	-47.6	18.9	0.00e+00	0	41	0	218103808	63	4348
2026-01-30 05:13:06.86	46.73	12.52	-45.9	-47.5	19.0	0.00e+00	0	41	0	220200960	63	4318
2026-01-30 05:13:07.87	46.59	12.59	-45.8	-47.4	19.1	0.00e+00	0	41	0	222298112	63	4262
2026-01-30 05:13:08.88	46.45	12.66	-45.8	-47.4	19.1	0.00e+00	0	41	0	224395264	63	4259
2026-01-30 05:13:09.88	46.32	12.73	-45.6	-47.1	19.4	0.00e+00	0	41	0	226492416	63	4131
2026-01-30 05:13:10.89	46.18	12.80	-45.7	-47.2	19.3	0.00e+00	0	41	0	227540992	63	4183
2026-01-30 05:13:11.89	46.04	12.87	-45.7	-47.2	19.3	0.00e+00	0	41	0	229638144	63	4191
2026-01-30 05:13:12.91	45.90	12.94	-45.5	-47.0	19.4	0.00e+00	0	41	0	231735296	63	4061
2026-01-30 05:13:13.91	45.76	13.01	-45.6	-47.1	19.4	0.00e+00	0	41	0	233832448	63	4100
2026-01-30 05:13:14.92	45.62	13.08	-45.6	-47.1	19.4	0.00e+00	0	41	0	235929600	63	4119
2026-01-30 05:13:15.92	45.48	13.15	-45.5	-47.0	19.6	0.00e+00	0	41	0	236978176	63	4063
2026-01-30 05:13:16.93	45.34	13.22	-45.4	-46.8	19.7	0.00e+00	0	41	0	239075328	62	4227
2026-01-30 05:13:17.94	45.20	13.29	-45.3	-46.8	19.8	0.00e+00	0	41	0	241172480	62	4194
2026-01-30 05:13:18.94	45.06	13.36	-45.3	-46.8	19.8	0.00e+00	0	41	0	243269632	62	4201
2026-01-30 05:13:19.95	44.91	13.43	-45.3	-46.7	19.8	0.00e+00	0	41	0	244318208	62	4162
2026-01-30 05:13:20.96	44.77	13.50	-45.4	-46.8	19.7	0.00e+00	0	41	0	246415360	62	4222
2026-01-30 05:13:21.97	44.62	13.58	-45.3	-46.7	19.8	0.00e+00	0	41	0	248512512	62	4169
2026-01-30 05:13:22.97	44.48	13.65	-45.3	-46.7	19.8	0.00e+00	0	41	0	250609664	62	4171
2026-01-30 05:13:23.98	44.33	13.72	-45.4	-46.8	19.7	0.00e+00	0	41	0	252706816	62	4223
2026-01-30 05:13:24.98	44.18	13.79	-45.5	-47.0	19.6	0.00e+00	0	41	0	254803968	62	4299
2026-01-30 05:13:25.99	44.04	13.86	-45.5	-46.9	19.6	0.00e+00	0	41	0	255852544	62	4279
2026-01-30 05:13:27.00	43.89	13.93	-45.5	-47.0	19.5	0.00e+00	0	41	0	257949696	62	4319
2026-01-30 05:13:28.00	43.74	14.00	-45.4	-46.9	19.7	0.00e+00	0	41	0	260046848	62	4255
2026-01-30 05:13:29.01	43.59	14.07	-45.5	-46.9	19.6	0.00e+00	0	41	0	262144000	62	4286
2026-01-30 05:13:30.01	43.44	14.14	-45.6	-47.0	19.5	0.00e+00	0	41	0	264241152	62	4327
2026-01-30 05:13:31.02	43.29	14.21	-45.6	-47.0	19.5	0.00e+00	0	41	0	265289728	62	4319
2026-01-30 05:13:32.03	43.13	14.28	-45.6	-47.0	19.5	0.00e+00	0	41	0	267386880	62	4339
2026-01-30 05:13:33.03	42.98	14.35	-45.6	-47.0	19.5	0.00e+00	0	41	0	269484032	62	4335
2026-01-30 05:13:34.04	42.83	14.42	-45.6	-47.0	19.5	0.00e+00	0	41	0	271581184	62	4327
2026-01-30 05:13:35.04	42.68	14.49	-45.5	-47.0	19.6	0.00e+00	0	41	0	272629760	62	4317
2026-01-30 05:13:36.05	42.52	14.56	-45.6	-47.1	19.5	0.00e+00	0	41	0	274726912	62	4362
2026-01-30 05:13:37.06	42.36	14.63	-45.6	-47.1	19.5	0.00e+00	0	41	0	276824064	62	4366
2026-01-30 05:13:38.06	42.21	14.70	-45.7	-47.2	19.4	0.00e+00	0	41	0	278921216	62	4415
2026-01-30 05:13:39.07	42.05	14.77	-45.7	-47.2	19.4	0.00e+00	0	41	0	281018368	62	4395
2026-01-30 05:13:40.08	41.89	14.85	-45.6	-47.1	19.5	0.00e+00	0	41	0	283115520	62	4370
2026-01-30 05:13:41.08	41.73	14.92	-45.7	-47.2	19.4	0.00e+00	0	41	0	284164096	62	4411
2026-01-30 05:13:42.09	41.57	14.99	-45.8	-47.3	19.3	0.00e+00	0	41	0	286261248	62	4454
2026-01-30 05:13:43.10	41.41	15.06	-45.9	-47.4	19.2	0.00e+00	0	41	0	288358400	62	4512
2026-01-30 05:13:44.11	41.25	15.13	-45.9	-47.4	19.2	0.00e+00	0	41	0	290455552	62	4522
2026-01-30 05:13:45.11	41.09	15.20	-46.0	-47.6	19.0	0.00e+00	0	41	0	292552704	62	4618
2026-01-30 05:13:46.12	40.93	15.27	-46.0	-47.5	19.1	0.00e+00	0	41	0	293601280	62	4570
2026-01-30 05:13:47.13	40.76	15.34	-46.0	-47.5	19.1	0.00e+00	0	41	0	295698432	62	4594
2026-01-30 05:13:48.14	40.60	15.41	-46.1	-47.6	19.0	0.00e+00	0	41	0	297795584	62	4636
2026-01-30 05:13:49.14	40.43	15.48	-46.0	-47.6	19.0	0.00e+00	0	41	0	299892736	62	4616
2026-01-30 05:13:50.14	40.27	15.55	-46.1	-47.6	19.0	0.00e+00	0	41	0	300941312	62	4642
2026-01-30 05:13:51.15	40.10	15.62	-46.1	-47.6	19.0	0.00e+00	0	41	0	303038464	62	4647
2026-01-30 05:13:52.15	39.94	15.69	-46.2	-47.8	18.9	0.00e+00	0	41	0	305135616	62	4713
2026-01-30 05:13:53.16	39.77	15.76	-46.1	-47.6	19.0	0.00e+00	0	41	0	307232768	62	4645
2026-01-30 05:13:54.17	39.60	15.83	-46.1	-47.7	18.9	0.00e+00	0	41	0	309329920	62	4692
2026-01-30 05:13:55.18	39.43	15.90	-46.0	-47.6	19.1	0.00e+00	0	41	0	311427072	62	4615
2026-01-30 05:13:56.18	39.26	15.97	-46.1	-47.7	19.0	0.00e+00	0	41	0	312475648	62	4660
2026-01-30 05:13:57.19	39.08	16.04	-46.1	-47.7	18.9	0.00e+00	0	41	0	314572800	62	4686
2026-01-30 05:13:58.20	38.91	16.11	-46.2	-47.8	18.9	0.00e+00	0	41	0	316669952	62	4723
2026-01-30 05:13:59.21	38.74	16.18	-46.2	-47.7	18.9	0.00e+00	0	41	0	318767104	63	4439
2026-01-30 05:14:00.21	38.57	16.25	-46.2	-47.7	18.9	0.00e+00	0	41	0	320864256	63	4441
2026-01-30 05:14:01.21	38.39	16.32	-46.1	-47.7	19.0	0.00e+00	0	41	0	321912832	63	4415
2026-01-30 05:14:02.22	38.22	16.39	-46.2	-47.8	18.9	0.00e+00	0	41	0	324009984	63	4477
2026-01-30 05:14:03.22	38.04	16.46	-46.1	-47.7	19.0	0.00e+00	0	41	0	326107136	63	4432
2026-01-30 05:14:04.23	37.86	16.53	-46.1	-47.6	19.1	0.00e+00	0	41	0	328204288	63	4376
2026-01-30 05:14:05.24	37.68	16.60	-46.2	-47.8	18.9	0.00e+00	0	41	0	329252864	63	4453
2026-01-30 05:14:06.25	37.50	16.67	-46.1	-47.7	19.0	0.00e+00	0	41	0	331350016	63	4420
2026-01-30 05:14:07.25	37.33	16.73	-46.1	-47.6	19.0	0.00e+00	0	41	0	333447168	63	4386
2026-01-30 05:14:08.26	37.14	16.80	-46.0	-47.6	19.1	0.00e+00	0	41	0	335544320	63	4341
2026-01-30 05:14:09.27	36.96	16.87	-46.0	-47.6	19.1	0.00e+00	0	41	0	337641472	63	4362
2026-01-30 05:14:10.28	36.78	16.94	-46.1	-47.7	19.0	0.00e+00	0	41	0	339738624	63	4423
2026-01-30 05:14:11.28	36.60	17.01	-46.1	-47.7	19.0	0.00e+00	0	41	0	340787200	63	4400
2026-01-30 05:14:12.29	36.41	17.08	-46.2	-47.8	18.8	0.00e+00	0	41	0	342884352	63	4489
2026-01-30 05:14:13.30	36.23	17.15	-46.0	-47.5	19.1	0.00e+00	0	41	0	344981504	63	4336
2026-01-30 05:14:14.31	36.04	17.22	-46.0	-47.6	19.1	0.00e+00	0	41	0	347078656	63	4341
2026-01-30 05:14:15.31	35.86	17.28	-46.1	-47.6	19.1	0.00e+00	0	41	0	349175808	63	4366
2026-01-30 05:14:16.32	35.67	17.35	-46.0	-47.6	19.1	0.00e+00	0	41	0	350224384	63	4346
2026-01-30 05:14:17.32	35.48	17.42	-45.9	-47.4	19.3	0.00e+00	0	41	0	352321536	63	4285
2026-01-30 05:14:18.33	35.29	17.49	-45.8	-47.3	19.4	0.00e+00	0	41	0	354418688	63	4213
2026-01-30 05:14:19.33	35.10	17.56	-45.7	-47.1	19.6	0.00e+00	0	41	0	356515840	63	4142
2026-01-30 05:14:20.34	34.91	17.62	-45.7	-47.2	19.5	0.00e+00	0	41	0	357564416	63	4163
2026-01-30 05:14:21.34	34.72	17.69	-45.6	-47.0	19.7	0.00e+00	0	41	0	359661568	63	4080
2026-01-30 05:14:22.35	34.53	17.76	-45.4	-46.8	19.9	0.00e+00	0	41	0	361758720	62	4229
2026-01-30 05:14:23.36	34.33	17.82	-45.5	-46.9	19.8	0.00e+00	0	41	0	363855872	62	4280
2026-01-30 05:14:24.36	34.14	17.89	-45.3	-46.6	20.1	0.00e+00	0	41	0	365953024	62	4125
2026-01-30 05:14:25.37	33.94	17.96	-45.1	-46.4	20.2	0.00e+00	0	41	0	368050176	61	4264
2026-01-30 05:14:26.38	33.75	18.03	-45.0	-46.4	20.3	0.00e+00	0	41	0	369098752	61	4248
2026-01-30 05:14:27.39	33.55	18.09	-45.0	-46.3	20.3	0.00e+00	0	41	0	371195904	61	4233
2026-01-30 05:14:28.40	33.35	18.16	-44.8	-46.1	20.5	0.00e+00	0	41	0	373293056	61	4127
2026-01-30 05:14:29.40	33.15	18.22	-44.6	-45.9	20.8	0.00e+00	0	41	0	375390208	61	4024
2026-01-30 05:14:30.40	32.96	18.29	-44.5	-45.7	20.9	0.00e+00	0	41	0	377487360	61	3955
2026-01-30 05:14:31.41	32.76	18.36	-44.5	-45.7	21.0	0.00e+00	0	41	0	378535936	60	4163
2026-01-30 05:14:32.41	32.56	18.42	-44.4	-45.6	21.1	0.00e+00	0	41	0	380633088	60	4106
2026-01-30 05:14:33.42	32.35	18.49	-44.2	-45.3	21.3	0.00e+00	0	41	0	382730240	60	3996
2026-01-30 05:14:34.42	32.15	18.55	-44.2	-45.4	21.3	0.00e+00	0	41	0	384827392	60	4029
2026-01-30 05:14:35.43	31.95	18.62	-44.2	-45.4	21.3	0.00e+00	0	41	0	385875968	60	4027
2026-01-30 05:14:36.43	31.74	18.68	-44.2	-45.3	21.3	0.00e+00	0	41	0	387973120	60	3993
2026-01-30 05:14:37.44	31.54	18.75	-44.0	-45.2	21.5	0.00e+00	0	41	0	390070272	60	3934
2026-01-30 05:14:38.45	31.33	18.81	-44.0	-45.2	21.5	0.00e+00	0	41	0	392167424	60	3923
2026-01-30 05:14:39.46	31.12	18.87	-44.3	-45.5	21.5	0.00e+00	0	41	0	394264576	59	4293
2026-01-30 05:14:40.46	30.91	18.94	-44.3	-45.4	21.5	0.00e+00	0	41	0	396361728	59	4282
2026-01-30 05:14:41.47	30.70	19.00	-44.3	-45.4	21.5	0.00e+00	0	41	0	397410304	59	4286
2026-01-30 05:14:42.48	30.49	19.06	-44.3	-45.4	21.6	0.00e+00	0	41	0	399507456	59	4282
2026-01-30 05:14:43.48	30.28	19.13	-44.3	-45.5	21.5	0.00e+00	0	41	0	401604608	59	4293
2026-01-30 05:14:44.49	30.07	19.19	-44.1	-45.2	21.8	0.00e+00	0	41	0	403701760	59	4169
2026-01-30 05:14:45.50	29.86	19.25	-44.1	-45.3	21.8	0.00e+00	0	41	0	405798912	59	4196
2026-01-30 05:14:46.50	29.65	19.32	-44.1	-45.2	21.8	0.00e+00	0	41	0	406847488	59	4182
2026-01-30 05:14:47.51	29.43	19.38	-44.2	-45.3	21.7	0.00e+00	0	41	0	408944640	59	4242
2026-01-30 05:14:48.52	29.21	19.44	-44.1	-45.2	21.8	0.00e+00	0	41	0	411041792	59	4165
2026-01-30 05:14:49.53	29.00	19.50	-44.1	-45.2	21.8	0.00e+00	0	41	0	413138944	59	4193
2026-01-30 05:14:50.54	28.78	19.56	-44.2	-45.3	21.7	0.00e+00	0	41	0	414187520	59	4231
2026-01-30 05:14:51.55	28.56	19.62	-44.2	-45.4	21.6	0.00e+00	0	41	0	416284672	59	4266
2026-01-30 05:14:52.55	28.34	19.68	-43.9	-45.0	22.0	0.00e+00	0	41	0	418381824	59	4061
2026-01-30 05:14:53.56	28.12	19.74	-44.0	-45.1	21.9	0.00e+00	0	41	0	420478976	59	4128
2026-01-30 05:14:54.56	27.90	19.80	-44.1	-45.2	21.8	0.00e+00	0	41	0	422576128	59	4186
2026-01-30 05:14:55.57	27.68	19.86	-44.0	-45.1	21.8	0.00e+00	0	41	0	424673280	59	4141
2026-01-30 05:14:56.58	27.46	19.92	-43.8	-44.8	22.1	0.00e+00	0	41	0	425721856	59	4004
2026-01-30 05:14:57.58	27.24	19.98	-43.9	-45.0	22.1	0.00e+00	0	41	0	427819008	59	4074
2026-01-30 05:14:58.59	27.01	20.04	-43.9	-45.1	21.9	0.00e+00	0	41	0	429916160	59	4102
2026-01-30 05:14:59.60	26.79	20.10	-44.0	-45.1	21.9	0.00e+00	0	41	0	432013312	59	4112
2026-01-30 05:15:00.61	26.56	20.16	-44.0	-45.1	21.9	0.00e+00	0	41	0	434110464	59	4144
2026-01-30 05:15:01.61	26.33	20.22	-44.0	-45.1	21.9	0.00e+00	0	41	0	435159040	59	4129
2026-01-30 05:15:02.62	26.10	20.27	-43.9	-45.0	22.0	0.00e+00	0	41	0	437256192	59	4093
2026-01-30 05:15:03.63	25.88	20.33	-44.0	-45.1	21.9	0.00e+00	0	41	0	439353344	59	4134
2026-01-30 05:15:04.63	25.65	20.39	-44.1	-45.2	21.8	0.00e+00	0	41	0	441450496	59	4180
2026-01-30 05:15:05.64	25.42	20.44	-44.1	-45.2	21.8	0.00e+00	0	41	0	442499072	59	4171
2026-01-30 05:15:06.65	25.18	20.50	-44.1	-45.3	21.8	0.00e+00	0	41	0	444596224	59	4207
2026-01-30 05:15:07.66	24.95	20.56	-44.1	-45.3	21.8	0.00e+00	0	41	0	446693376	59	4196
2026-01-30 05:15:08.67	24.72	20.61	-44.2	-45.4	21.7	0.00e+00	0	41	0	448790528	59	4251
2026-01-30 05:15:09.68	24.48	20.67	-44.1	-45.2	21.8	0.00e+00	0	41	0	450887680	59	4193
2026-01-30 05:15:10.68	24.25	20.72	-44.2	-45.3	21.8	0.00e+00	0	41	0	452984832	59	4222
2026-01-30 05:15:11.68	24.02	20.78	-44.2	-45.3	21.8	0.00e+00	0	41	0	454033408	59	4210
2026-01-30 05:15:12.69	23.78	20.83	-44.1	-45.2	21.9	0.00e+00	0	41	0	456130560	59	4174
2026-01-30 05:15:13.70	23.54	20.88	-44.1	-45.2	21.8	0.00e+00	0	41	0	458227712	59	4187
2026-01-30 05:15:14.71	23.30	20.94	-44.1	-45.2	21.8	0.00e+00	0	41	0	460324864	59	4174
2026-01-30 05:15:15.72	23.07	20.99	-44.1	-45.2	21.8	0.00e+00	0	41	0	462422016	59	4168
2026-01-30 05:15:16.73	22.82	21.04	-44.1	-45.3	21.8	0.00e+00	0	41	0	463470592	59	4195
2026-01-30 05:15:17.73	22.59	21.09	-44.0	-45.1	22.0	0.00e+00	0	41	0	465567744	59	4110
2026-01-30 05:15:18.74	22.34	21.14	-43.9	-45.0	22.0	0.00e+00	0	41	0	467664896	59	4074
2026-01-30 05:15:19.75	22.10	21.19	-44.0	-45.1	22.0	0.00e+00	0	41	0	469762048	59	4104
2026-01-30 05:15:20.75	21.86	21.24	-44.0	-45.1	22.0	0.00e+00	0	41	0	470810624	59	4103
2026-01-30 05:15:21.76	21.62	21.29	-43.6	-44.7	22.3	0.00e+00	0	41	0	472907776	59	3925
2026-01-30 05:15:22.77	21.37	21.34	-43.6	-44.7	22.4	0.00e+00	0	41	0	475004928	59	3914
2026-01-30 05:15:23.77	21.13	21.39	-43.4	-44.4	22.6	0.00e+00	0	41	0	477102080	58	4025
2026-01-30 05:15:24.78	20.88	21.44	-43.4	-44.4	22.6	0.00e+00	0	41	0	479199232	58	4036
2026-01-30 05:15:25.78	20.64	21.49	-43.4	-44.5	22.5	0.00e+00	0	41	0	481296384	58	4063
2026-01-30 05:15:26.79	20.39	21.54	-43.4	-44.5	22.6	0.00e+00	0	41	0	482344960	58	4061
2026-01-30 05:15:27.80	20.14	21.58	-43.5	-44.5	22.5	0.00e+00	0	41	0	484442112	58	4077
2026-01-30 05:15:28.80	19.89	21.63	-43.5	-44.6	22.5	0.00e+00	0	41	0	486539264	58	4103
2026-01-30 05:15:29.81	19.64	21.68	-43.4	-44.5	22.6	0.00e+00	0	41	0	488636416	58	4059
2026-01-30 05:15:30.82	19.39	21.72	-43.3	-44.4	22.7	0.00e+00	0	41	0	490733568	58	4009
2026-01-30 05:15:31.83	19.14	21.77	-43.4	-44.4	22.7	0.00e+00	0	41	0	491782144	58	4021
2026-01-30 05:15:32.83	18.89	21.81	-43.2	-44.3	22.8	0.00e+00	0	41	0	493879296	58	3966
2026-01-30 05:15:33.83	18.64	21.86	-43.2	-44.2	22.8	0.00e+00	0	41	0	495976448	58	3958
2026-01-30 05:15:34.84	18.38	21.90	-43.4	-44.4	22.6	0.00e+00	0	41	0	498073600	58	4049
2026-01-30 05:15:35.84	18.13	21.94	-43.5	-44.5	22.6	0.00e+00	0	41	0	499122176	58	4078
2026-01-30 05:15:36.85	17.88	21.99	-43.5	-44.5	22.6	0.00e+00	0	41	0	501219328	58	4084
2026-01-30 05:15:37.86	17.62	22.03	-43.3	-44.3	22.7	0.00e+00	0	41	0	503316480	58	3990
2026-01-30 05:15:38.87	17.36	22.07	-43.2	-44.2	22.8	0.00e+00	0	41	0	505413632	58	3943
2026-01-30 05:15:39.87	17.11	22.11	-43.3	-44.3	22.7	0.00e+00	0	41	0	507510784	58	3979
2026-01-30 05:15:40.88	16.85	22.15	-43.5	-44.5	22.6	0.00e+00	0	41	0	509607936	58	4081
2026-01-30 05:15:41.88	16.59	22.19	-43.5	-44.6	22.5	0.00e+00	0	41	0	510656512	58	4116
2026-01-30 05:15:42.89	16.33	22.23	-43.7	-44.8	22.3	0.00e+00	0	41	0	512753664	58	4197
2026-01-30 05:15:43.90	16.07	22.27	-43.8	-44.8	22.3	0.00e+00	0	41	0	514850816	58	4239
2026-01-30 05:15:44.90	15.81	22.31	-43.7	-44.8	22.3	0.00e+00	0	41	0	516947968	58	4207
2026-01-30 05:15:45.91	15.55	22.34	-43.7	-44.7	22.4	0.00e+00	0	41	0	519045120	58	4172
2026-01-30 05:15:46.91	15.29	22.38	-43.7	-44.7	22.4	0.00e+00	0	41	0	520093696	58	4180
2026-01-30 05:15:47.92	15.03	22.42	-43.6	-44.7	22.4	0.00e+00	0	41	0	522190848	58	4162
2026-01-30 05:15:48.93	14.77	22.45	-43.7	-44.7	22.4	0.00e+00	0	41	0	524288000	58	4180
2026-01-30 05:15:49.93	14.51	22.49	-43.7	-44.8	22.3	0.00e+00	0	41	0	526385152	58	4200
2026-01-30 05:15:50.94	14.24	22.52	-43.7	-44.8	22.3	0.00e+00	0	41	0	527433728	58	4215
2026-01-30 05:15:51.94	13.98	22.55	-43.9	-45.0	22.1	0.00e+00	0	41	0	529530880	58	4302
2026-01-30 05:15:52.95	13.71	22.59	-44.0	-45.1	22.0	0.00e+00	0	41	0	531628032	58	4389
2026-01-30 05:15:53.96	13.45	22.62	-44.2	-45.3	21.8	0.00e+00	0	41	0	533725184	58	4484
2026-01-30 05:15:54.96	13.18	22.65	-44.4	-45.6	21.6	0.00e+00	0	41	0	535822336	59	4347
2026-01-30 05:15:55.97	12.91	22.68	-44.6	-45.7	21.5	0.00e+00	0	41	0	537919488	59	4440
2026-01-30 05:15:56.98	12.65	22.72	-44.7	-45.9	21.3	0.00e+00	0	41	0	538968064	59	4512
2026-01-30 05:15:57.98	12.38	22.75	-44.5	-45.7	21.2	0.00e+00	0	41	0	541065216	60	4161
2026-01-30 05:15:58.99	12.11	22.77	-44.4	-45.6	21.3	0.00e+00	0	41	0	543162368	60	4122
2026-01-30 05:15:59.99	11.84	22.80	-44.4	-45.6	21.3	0.00e+00	0	41	0	545259520	60	4125
2026-01-30 05:16:01.00	11.57	22.83	-44.3	-45.5	21.3	0.00e+00	0	41	0	547356672	60	4075
2026-01-30 05:16:02.01	11.30	22.86	-44.3	-45.5	21.4	0.00e+00	0	41	0	548405248	60	4066
2026-01-30 05:16:03.02	11.03	22.89	-44.5	-45.7	21.2	0.00e+00	0	41	0	550502400	60	4173
2026-01-30 05:16:04.02	10.76	22.91	-44.7	-45.9	21.0	0.00e+00	0	41	0	552599552	60	4251
2026-01-30 05:16:05.02	10.49	22.94	-44.6	-45.8	21.1	0.00e+00	0	41	0	554696704	60	4195
2026-01-30 05:16:06.04	10.22	22.96	-44.6	-45.8	21.1	0.00e+00	0	41	0	555745280	60	4223
2026-01-30 05:16:07.04	9.95	22.99	-44.7	-45.9	21.0	0.00e+00	0	41	0	557842432	60	4265
2026-01-30 05:16:08.05	9.68	23.01	-44.7	-45.9	21.1	0.00e+00	0	41	0	559939584	60	4252
2026-01-30 05:16:09.05	9.40	23.03	-44.8	-46.0	20.9	0.00e+00	0	41	0	562036736	60	4335
2026-01-30 05:16:10.05	9.13	23.06	-45.1	-46.4	20.6	0.00e+00	0	41	0	564133888	60	4509
2026-01-30 05:16:11.05	8.86	23.08	-45.3	-46.6	20.3	0.00e+00	0	41	0	565182464	61	4362
2026-01-30 05:16:12.06	8.59	23.10	-45.2	-46.6	20.4	0.00e+00	0	41	0	567279616	61	4347
2026-01-30 05:16:13.07	8.31	23.12	-45.4	-46.7	20.2	0.00e+00	0	41	0	569376768	61	4435
2026-01-30 05:16:14.07	8.04	23.14	-45.4	-46.8	20.2	0.00e+00	0	41	0	571473920	61	4474
2026-01-30 05:16:15.08	7.76	23.16	-45.3	-46.6	20.3	0.00e+00	0	41	0	573571072	61	4376
2026-01-30 05:16:16.08	7.49	23.17	-45.5	-46.9	20.1	0.00e+00	0	41	0	575668224	61	4510
2026-01-30 05:16:17.09	7.21	23.19	-45.4	-46.8	20.2	0.00e+00	0	41	0	576716800	61	4456
2026-01-30 05:16:18.10	6.94	23.21	-45.4	-46.7	20.2	0.00e+00	0	41	0	578813952	61	4434
2026-01-30 05:16:19.10	6.66	23.22	-45.3	-46.6	20.3	0.00e+00	0	41	0	580911104	61	4387
2026-01-30 05:16:20.11	6.38	23.24	-45.2	-46.5	20.4	0.00e+00	0	41	0	583008256	61	4337
2026-01-30 05:16:21.12	6.11	23.25	-45.2	-46.4	20.5	0.00e+00	0	41	0	584056832	61	4289
2026-01-30 05:16:22.13	5.83	23.27	-45.0	-46.3	20.7	0.00e+00	0	41	0	586153984	61	4222
2026-01-30 05:16:23.13	5.55	23.28	-45.0	-46.3	20.6	0.00e+00	0	41	0	588251136	61	4197
2026-01-30 05:16:24.14	5.27	23.29	-44.9	-46.2	20.7	0.00e+00	0	41	0	590348288	61	4162
2026-01-30 05:16:25.15	5.00	23.31	-44.9	-46.1	20.8	0.00e+00	0	41	0	592445440	61	4141
2026-01-30 05:16:26.16	4.72	23.32	-44.9	-46.2	20.7	0.00e+00	0	41	0	593494016	61	4164
2026-01-30 05:16:27.16	4.44	23.33	-45.0	-46.3	20.6	0.00e+00	0	41	0	595591168	61	4223
2026-01-30 05:16:28.17	4.16	23.34	-45.2	-46.5	20.4	0.00e+00	0	41	0	597688320	61	4333
2026-01-30 05:16:29.18	3.88	23.34	-45.2	-46.5	20.4	0.00e+00	0	41	0	599785472	61	4326
2026-01-30 05:16:30.19	3.60	23.35	-45.2	-46.5	20.4	0.00e+00	0	41	0	601882624	61	4339
2026-01-30 05:16:31.20	3.32	23.36	-45.2	-46.5	20.5	0.00e+00	0	41	0	603979776	61	4301
2026-01-30 05:16:32.21	3.04	23.37	-45.0	-46.3	20.7	0.00e+00	0	41	0	605028352	61	4211
2026-01-30 05:16:33.22	2.76	23.37	-45.1	-46.4	20.6	0.00e+00	0	41	0	607125504	61	4246
2026-01-30 05:16:34.23	2.48	23.38	-44.9	-46.2	20.7	0.00e+00	0	41	0	609222656	61	4172
2026-01-30 05:16:35.23	2.21	23.38	-44.9	-46.2	20.7	0.00e+00	0	41	0	611319808	61	4174
2026-01-30 05:16:36.23	1.93	23.39	-45.0	-46.3	20.7	0.00e+00	0	41	0	613416960	61	4196
2026-01-30 05:16:37.24	1.65	23.39	-44.8	-46.0	20.8	0.00e+00	0	41	0	614465536	61	4096
2026-01-30 05:16:38.25	1.37	23.39	-44.9	-46.1	20.8	0.00e+00	0	41	0	616562688	61	4142
2026-01-30 05:16:39.25	1.09	23.39	-44.8	-46.1	20.8	0.00e+00	0	41	0	618659840	61	4114
2026-01-30 05:16:40.26	0.81	23.39	-44.9	-46.2	20.8	0.00e+00	0	41	0	620756992	61	4153
2026-01-30 05:16:41.27	0.53	23.39	-44.8	-46.1	20.9	0.00e+00	0	41	0	622854144	61	4103
2026-01-30 05:16:42.28	0.25	23.39	-44.7	-46.0	21.0	0.00e+00	0	41	0	623902720	61	4062
2026-01-30 05:16:43.28	359.97	23.39	-44.7	-45.9	21.0	0.00e+00	0	41	0	625999872	61	4031
2026-01-30 05:16:44.29	359.69	23.39	-44.7	-45.9	21.0	0.00e+00	0	41	0	628097024	61	4019
2026-01-30 05:16:45.30	359.41	23.39	-44.5	-45.7	21.3	0.00e+00	0	41	0	630194176	61	3918
2026-01-30 05:16:46.30	359.14	23.38	-44.5	-45.7	21.2	0.00e+00	0	41	0	632291328	61	3932
2026-01-30 05:16:47.31	358.86	23.38	-44.4	-45.5	21.4	0.00e+00	0	41	0	633339904	60	4092
2026-01-30 05:16:48.32	358.58	23.37	-44.3	-45.5	21.4	0.00e+00	0	41	0	635437056	60	4062
2026-01-30 05:16:49.33	358.30	23.37	-44.1	-45.3	21.6	0.00e+00	0	41	0	637534208	60	3971
2026-01-30 05:16:50.33	358.02	23.36	-44.2	-45.3	21.6	0.00e+00	0	41	0	639631360	60	3980
2026-01-30 05:16:51.34	357.74	23.35	-44.1	-45.3	21.6	0.00e+00	0	41	0	641728512	60	3975
2026-01-30 05:16:52.34	357.46	23.34	-44.2	-45.4	21.6	0.00e+00	0	41	0	642777088	60	4006
2026-01-30 05:16:53.34	357.19	23.33	-44.1	-45.2	21.7	0.00e+00	0	41	0	644874240	60	3926
2026-01-30 05:16:54.35	356.91	23.33	-44.0	-45.1	21.8	0.00e+00	0	41	0	646971392	60	3892
2026-01-30 05:16:55.35	356.63	23.31	-44.2	-45.4	21.9	0.00e+00	0	41	0	649068544	59	4250
2026-01-30 05:16:56.36	356.35	23.30	-44.2	-45.4	21.8	0.00e+00	0	41	0	650117120	59	4249
2026-01-30 05:16:57.36	356.08	23.29	-44.0	-45.1	22.1	0.00e+00	0	41	0	652214272	59	4135
2026-01-30 05:16:58.36	355.80	23.28	-43.9	-45.0	22.2	0.00e+00	0	41	0	654311424	59	4073
2026-01-30 05:16:59.37	355.52	23.27	-43.9	-45.0	22.1	0.00e+00	0	41	0	656408576	59	4086
2026-01-30 05:17:00.37	355.25	23.25	-43.7	-44.8	22.3	0.00e+00	0	42	0	658505728	59	3981
2026-01-30 05:17:01.38	354.97	23.24	-43.7	-44.7	22.4	0.00e+00	0	41	0	660602880	59	3958
2026-01-30 05:17:02.39	354.69	23.22	-43.6	-44.6	22.6	0.00e+00	0	41	0	661651456	59	3893
2026-01-30 05:17:03.40	354.42	23.21	-43.4	-44.4	22.7	0.00e+00	0	41	0	663748608	58	4048
2026-01-30 05:17:04.41	354.14	23.19	-43.4	-44.4	22.7	0.00e+00	0	41	0	665845760	58	4025
2026-01-30 05:17:05.41	353.86	23.17	-43.3	-44.3	22.8	0.00e+00	0	41	0	667942912	58	3973
2026-01-30 05:17:06.42	353.59	23.15	-43.2	-44.2	22.9	0.00e+00	0	41	0	670040064	58	3923
2026-01-30 05:17:07.43	353.31	23.14	-43.1	-44.1	23.1	0.00e+00	0	41	0	671088640	58	3869
2026-01-30 05:17:08.43	353.04	23.12	-43.1	-44.0	23.0	0.00e+00	0	41	0	673185792	58	3863
2026-01-30 05:17:09.44	352.76	23.10	-43.1	-44.1	23.0	0.00e+00	0	41	0	675282944	58	3887
2026-01-30 05:17:10.45	352.49	23.07	-43.3	-44.3	22.8	0.00e+00	0	41	0	677380096	58	3991
2026-01-30 05:17:11.46	352.22	23.05	-43.3	-44.4	22.8	0.00e+00	0	41	0	678428672	58	4006
2026-01-30 05:17:12.46	351.94	23.03	-43.2	-44.2	22.9	0.00e+00	0	41	0	680525824	58	3930
2026-01-30 05:17:13.47	351.67	23.01	-43.1	-44.1	23.0	0.00e+00	0	41	0	682622976	58	3877
2026-01-30 05:17:14.47	351.40	22.98	-43.1	-44.1	23.0	0.00e+00	0	41	0	684720128	58	3902
2026-01-30 05:17:15.48	351.13	22.96	-42.9	-43.9	23.2	0.00e+00	0	41	0	686817280	57	4014
2026-01-30 05:17:16.48	350.86	22.93	-42.9	-43.9	23.2	0.00e+00	0	41	0	688914432	57	4011
2026-01-30 05:17:17.49	350.59	22.91	-43.0	-44.0	23.1	0.00e+00	0	41	0	689963008	57	4053
2026-01-30 05:17:18.50	350.31	22.88	-42.9	-43.9	23.1	0.00e+00	0	41	0	692060160	57	4037
2026-01-30 05:17:19.50	350.05	22.86	-43.0	-44.0	23.1	0.00e+00	0	41	0	694157312	57	4067
2026-01-30 05:17:20.51	349.78	22.83	-43.1	-44.1	23.0	0.00e+00	0	41	0	696254464	57	4115
2026-01-30 05:17:21.52	349.51	22.80	-43.1	-44.1	22.9	0.00e+00	0	41	0	698351616	57	4139
2026-01-30 05:17:22.52	349.24	22.77	-43.3	-44.3	22.8	0.00e+00	0	41	0	699400192	57	4235
2026-01-30 05:17:23.53	348.97	22.74	-43.3	-44.3	22.8	0.00e+00	0	41	0	701497344	57	4204
2026-01-30 05:17:24.54	348.70	22.71	-43.2	-44.2	22.9	0.00e+00	0	41	0	703594496	57	4176
2026-01-30 05:17:25.54	348.44	22.68	-43.2	-44.2	22.9	0.00e+00	0	41	0	705691648	57	4180
2026-01-30 05:17:26.55	348.17	22.65	-43.2	-44.2	22.9	0.00e+00	0	41	0	706740224	57	4156
2026-01-30 05:17:27.56	347.90	22.62	-43.3	-44.3	22.8	0.00e+00	0	41	0	708837376	57	4225
2026-01-30 05:17:28.57	347.64	22.58	-43.5	-44.5	22.6	0.00e+00	0	41	0	710934528	57	4327
2026-01-30 05:17:29.57	347.37	22.55	-43.5	-44.6	22.5	0.00e+00	0	41	0	713031680	57	4361
2026-01-30 05:17:30.58	347.11	22.52	-43.6	-44.7	22.5	0.00e+00	0	41	0	715128832	57	4401
2026-01-30 05:17:31.58	346.85	22.48	-43.8	-44.8	22.3	0.00e+00	0	41	0	717225984	58	4226
2026-01-30 05:17:32.59	346.58	22.45	-43.7	-44.7	22.4	0.00e+00	0	41	0	718274560	58	4185
2026-01-30 05:17:33.60	346.32	22.41	-43.8	-44.9	22.2	0.00e+00	0	41	0	720371712	58	4279
2026-01-30 05:17:34.61	346.06	22.37	-43.9	-45.0	22.2	0.00e+00	0	41	0	722468864	58	4323
2026-01-30 05:17:35.61	345.80	22.34	-44.0	-45.1	22.0	0.00e+00	0	41	0	724566016	58	4385
2026-01-30 05:17:36.62	345.53	22.30	-44.0	-45.1	22.0	0.00e+00	0	41	0	726663168	58	4388
2026-01-30 05:17:37.62	345.28	22.26	-44.1	-45.2	22.0	0.00e+00	0	41	0	727711744	58	4425
2026-01-30 05:17:38.63	345.02	22.22	-44.1	-45.2	21.9	0.00e+00	0	41	0	729808896	58	4433
2026-01-30 05:17:39.63	344.76	22.18	-44.2	-45.3	21.9	0.00e+00	0	41	0	731906048	58	4472
2026-01-30 05:17:40.64	344.50	22.14	-44.3	-45.4	21.8	0.00e+00	0	41	0	734003200	59	4262
2026-01-30 05:17:41.64	344.25	22.10	-44.3	-45.4	21.8	0.00e+00	0	41	0	735051776	59	4261
2026-01-30 05:17:42.65	343.99	22.06	-44.4	-45.6	21.6	0.00e+00	0	41	0	737148928	59	4348
2026-01-30 05:17:43.66	343.73	22.02	-44.5	-45.7	21.5	0.00e+00	0	41	0	739246080	59	4424
2026-01-30 05:17:44.67	343.47	21.98	-44.7	-45.8	21.4	0.00e+00	0	41	0	741343232	59	4482
2026-01-30 05:17:45.68	343.22	21.94	-44.4	-45.5	21.3	0.00e+00	0	41	0	743440384	60	4093
2026-01-30 05:17:46.68	342.97	21.89	-44.4	-45.6	21.3	0.00e+00	0	41	0	745537536	60	4135
2026-01-30 05:17:47.69	342.71	21.85	-44.5	-45.7	21.2	0.00e+00	0	41	0	746586112	60	4147
2026-01-30 05:17:48.69	342.46	21.81	-44.4	-45.6	21.2	0.00e+00	0	41	0	748683264	60	4126
2026-01-30 05:17:49.70	342.21	21.76	-44.4	-45.5	21.4	0.00e+00	0	41	0	750780416	60	4083
2026-01-30 05:17:50.71	341.96	21.72	-44.3	-45.5	21.4	0.00e+00	0	41	0	752877568	60	4071
2026-01-30 05:17:51.71	341.71	21.67	-44.4	-45.6	21.2	0.00e+00	0	41	0	754974720	60	4133
2026-01-30 05:17:52.72	341.46	21.62	-44.5	-45.7	21.2	0.00e+00	0	41	0	756023296	60	4182
2026-01-30 05:17:53.73	341.21	21.58	-44.5	-45.8	21.1	0.00e+00	0	41	0	758120448	60	4194
2026-01-30 05:17:54.73	340.96	21.53	-44.6	-45.8	21.1	0.00e+00	0	41	0	760217600	60	4212
2026-01-30 05:17:55.74	340.72	21.48	-44.7	-45.9	21.0	0.00e+00	0	41	0	762314752	60	4256
2026-01-30 05:17:56.74	340.47	21.43	-44.8	-46.0	20.9	0.00e+00	0	41	0	763363328	60	4340
2026-01-30 05:17:57.75	340.22	21.39	-44.9	-46.1	20.8	0.00e+00	0	41	0	765460480	60	4390
2026-01-30 05:17:58.76	339.98	21.34	-44.9	-46.1	20.8	0.00e+00	0	41	0	767557632	60	4385
2026-01-30 05:17:59.76	339.74	21.29	-45.0	-46.2	20.7	0.00e+00	0	41	0	769654784	60	4427
2026-01-30 05:18:00.77	339.49	21.24	-44.9	-46.1	20.7	0.00e+00	0	41	0	771751936	60	4386
2026-01-30 05:18:01.78	339.25	21.19	-44.9	-46.2	20.7	0.00e+00	0	41	0	773849088	60	4400
2026-01-30 05:18:02.79	339.01	21.14	-44.9	-46.2	20.7	0.00e+00	0	41	0	774897664	60	4420
2026-01-30 05:18:03.79	338.77	21.08	-44.9	-46.2	20.7	0.00e+00	0	41	0	776994816	60	4408
2026-01-30 05:18:04.80	338.53	21.03	-44.7	-45.9	20.9	0.00e+00	0	41	0	779091968	60	4281
2026-01-30 05:18:05.80	338.29	20.98	-44.6	-45.8	21.1	0.00e+00	0	41	0	781189120	60	4200
2026-01-30 05:18:06.81	338.05	20.93	-44.7	-46.0	21.0	0.00e+00	0	41	0	783286272	60	4293
2026-01-30 05:18:07.81	337.81	20.88	-44.6	-45.8	21.1	0.00e+00	0	41	0	784334848	60	4194
2026-01-30 05:18:08.82	337.58	20.82	-44.8	-46.0	20.9	0.00e+00	0	41	0	786432000	60	4332
2026-01-30 05:18:09.83	337.34	20.77	-45.0	-46.3	20.7	0.00e+00	0	41	0	788529152	60	4446
2026-01-30 05:18:10.83	337.11	20.71	-45.2	-46.5	20.5	0.00e+00	0	41	0	790626304	60	4560
2026-01-30 05:18:11.83	336.87	20.66	-45.1	-46.4	20.5	0.00e+00	0	41	0	791674880	60	4531
2026-01-30 05:18:12.83	336.64	20.61	-45.0	-46.3	20.6	0.00e+00	0	41	0	793772032	60	4460
2026-01-30 05:18:13.84	336.41	20.55	-44.9	-46.2	20.7	0.00e+00	0	41	0	795869184	60	4395
2026-01-30 05:18:14.84	336.18	20.49	-44.8	-46.0	20.9	0.00e+00	0	41	0	797966336	60	4328
2026-01-30 05:18:15.84	335.95	20.44	-44.7	-45.9	21.0	0.00e+00	0	41	0	800063488	60	4264
2026-01-30 05:18:16.84	335.72	20.38	-44.7	-45.9	21.0	0.00e+00	0	41	0	801112064	60	4273
2026-01-30 05:18:17.84	335.49	20.33	-44.7	-45.9	21.0	0.00e+00	0	41	0	803209216	60	4285
2026-01-30 05:18:18.85	335.26	20.27	-44.6	-45.8	21.0	0.00e+00	0	41	0	805306368	60	4229
2026-01-30 05:18:19.85	335.04	20.21	-44.7	-45.9	20.9	0.00e+00	0	41	0	807403520	60	4282
2026-01-30 05:18:20.86	334.81	20.15	-44.7	-45.9	21.0	0.00e+00	0	41	0	809500672	60	4268
2026-01-30 05:18:21.87	334.58	20.10	-44.7	-45.9	20.9	0.00e+00	0	41	0	811597824	60	4287
2026-01-30 05:18:22.87	334.36	20.04	-44.7	-45.9	20.9	0.00e+00	0	41	0	812646400	60	4283
2026-01-30 05:18:23.88	334.13	19.98	-44.7	-46.0	20.9	0.00e+00	0	41	0	814743552	60	4298
2026-01-30 05:18:24.88	333.91	19.92	-44.6	-45.8	21.1	0.00e+00	0	41	0	816840704	60	4205
2026-01-30 05:18:25.89	333.69	19.86	-44.5	-45.6	21.2	0.00e+00	0	41	0	818937856	60	4127
2026-01-30 05:18:26.89	333.47	19.80	-44.3	-45.5	21.4	0.00e+00	0	41	0	819986432	60	4052
2026-01-30 05:18:27.90	333.25	19.74	-44.4	-45.6	21.2	0.00e+00	0	41	0	822083584	60	4123
2026-01-30 05:18:28.91	333.03	19.68	-44.4	-45.6	21.2	0.00e+00	0	41	0	824180736	60	4121
2026-01-30 05:18:29.91	332.81	19.62	-44.4	-45.6	21.2	0.00e+00	0	41	0	826277888	60	4138
2026-01-30 05:18:30.92	332.59	19.56	-44.5	-45.7	21.2	0.00e+00	0	41	0	828375040	60	4155
2026-01-30 05:18:31.93	332.37	19.50	-44.5	-45.7	21.1	0.00e+00	0	41	0	829423616	60	4186
2026-01-30 05:18:32.93	332.16	19.44	-44.6	-45.8	21.1	0.00e+00	0	41	0	831520768	60	4210
2026-01-30 05:18:33.93	331.95	19.37	-44.5	-45.7	21.1	0.00e+00	0	41	0	833617920	60	4188
2026-01-30 05:18:34.94	331.73	19.31	-44.5	-45.7	21.1	0.00e+00	0	41	0	835715072	60	4183
2026-01-30 05:18:35.95	331.52	19.25	-44.6	-45.8	21.0	0.00e+00	0	41	0	837812224	60	4233
2026-01-30 05:18:36.96	331.30	19.19	-44.5	-45.7	21.1	0.00e+00	0	41	0	838860800	60	4191
2026-01-30 05:18:37.96	331.09	19.12	-44.5	-45.7	21.1	0.00e+00	0	41	0	840957952	60	4170
2026-01-30 05:18:38.97	330.88	19.06	-44.5	-45.7	21.0	0.00e+00	0	41	0	843055104	60	4182
2026-01-30 05:18:39.97	330.67	19.00	-44.5	-45.7	21.1	0.00e+00	0	41	0	845152256	60	4154
2026-01-30 05:18:40.98	330.46	18.93	-44.4	-45.6	21.2	0.00e+00	0	41	0	847249408	60	4100
2026-01-30 05:18:41.98	330.26	18.87	-44.4	-45.5	21.3	0.00e+00	0	41	0	848297984	60	4098
2026-01-30 05:18:42.99	330.05	18.81	-44.3	-45.5	21.3	0.00e+00	0	41	0	850395136	60	4070
2026-01-30 05:18:44.00	329.84	18.74	-44.3	-45.5	21.2	0.00e+00	0	41	0	852492288	60	4068
2026-01-30 05:18:45.00	329.64	18.68	-44.3	-45.4	21.3	0.00e+00	0	41	0	854589440	60	4050
2026-01-30 05:18:46.01	329.43	18.61	-44.3	-45.4	21.3	0.00e+00	0	41	0	856686592	60	4044
2026-01-30 05:18:47.02	329.23	18.55	-44.3	-45.5	21.2	0.00e+00	0	41	0	857735168	60	4083
2026-01-30 05:18:48.02	329.03	18.48	-44.4	-45.6	21.0	0.00e+00	0	41	0	859832320	60	4138
2026-01-30 05:18:49.03	328.82	18.42	-44.6	-45.8	21.0	0.00e+00	0	41	0	861929472	60	4204
2026-01-30 05:18:50.03	328.62	18.35	-44.5	-45.7	21.0	0.00e+00	0	41	0	864026624	60	4193
2026-01-30 05:18:51.04	328.42	18.29	-44.6	-45.9	20.9	0.00e+00	0	41	0	866123776	60	4245
2026-01-30 05:18:52.05	328.22	18.22	-44.5	-45.8	21.1	0.00e+00	0	41	0	867172352	60	4196
2026-01-30 05:18:53.05	328.02	18.15	-44.5	-45.7	21.0	0.00e+00	0	41	0	869269504	60	4184
2026-01-30 05:18:54.06	327.83	18.09	-44.5	-45.7	21.0	0.00e+00	0	41	0	871366656	60	4179
2026-01-30 05:18:55.07	327.63	18.02	-44.5	-45.8	21.0	0.00e+00	0	41	0	873463808	60	4196
2026-01-30 05:18:56.07	327.43	17.95	-44.6	-45.8	20.9	0.00e+00	0	41	0	875560960	60	4227
2026-01-30 05:18:57.08	327.24	17.89	-44.6	-45.9	20.9	0.00e+00	0	41	0	876609536	60	4256
2026-01-30 05:18:58.09	327.04	17.82	-44.6	-45.8	20.9	0.00e+00	0	41	0	878706688	60	4238
2026-01-30 05:18:59.09	326.85	17.75	-44.6	-45.8	20.9	0.00e+00	0	41	0	880803840	60	4218
2026-01-30 05:19:00.10	326.66	17.69	-44.7	-45.9	20.9	0.00e+00	0	41	0	882900992	60	4270
2026-01-30 05:19:01.11	326.47	17.62	-44.6	-45.8	20.9	0.00e+00	0	41	0	884998144	60	4224
2026-01-30 05:19:02.11	326.28	17.55	-44.6	-45.8	20.9	0.00e+00	0	41	0	886046720	60	4233
2026-01-30 05:19:03.12	326.09	17.48	-44.7	-45.9	20.8	0.00e+00	0	41	0	888143872	60	4265
2026-01-30 05:19:04.13	325.90	17.42	-44.7	-46.0	20.8	0.00e+00	0	41	0	890241024	60	4306
2026-01-30 05:19:05.13	325.71	17.35	-44.7	-45.9	20.8	0.00e+00	0	41	0	892338176	60	4269
2026-01-30 05:19:06.14	325.52	17.28	-44.7	-45.9	20.8	0.00e+00	0	41	0	894435328	60	4280
2026-01-30 05:19:07.14	325.34	17.21	-44.8	-46.0	20.7	0.00e+00	0	42	0	895483904	60	4333
2026-01-30 05:19:08.15	325.15	17.14	-44.7	-45.9	20.8	0.00e+00	0	41	0	897581056	60	4290
2026-01-30 05:19:09.15	324.97	17.08	-44.6	-45.8	20.9	0.00e+00	0	41	0	899678208	60	4207
2026-01-30 05:19:10.16	324.78	17.01	-44.6	-45.8	20.9	0.00e+00	0	41	0	901775360	60	4217
2026-01-30 05:19:11.17	324.60	16.94	-44.6	-45.8	21.0	0.00e+00	0	41	0	903872512	60	4210
2026-01-30 05:19:12.17	324.42	16.87	-44.5	-45.7	21.0	0.00e+00	0	41	0	904921088	60	4179
2026-01-30 05:19:13.17	324.24	16.80	-44.5	-45.8	21.0	0.00e+00	0	41	0	907018240	60	4202
2026-01-30 05:19:14.17	324.06	16.73	-44.4	-45.6	21.1	0.00e+00	0	41	0	909115392	60	4131
2026-01-30 05:19:15.17	323.88	16.66	-44.4	-45.6	21.1	0.00e+00	0	41	0	911212544	60	4109
2026-01-30 05:19:16.18	323.70	16.59	-44.3	-45.4	21.2	0.00e+00	0	41	0	913309696	60	4045
2026-01-30 05:19:17.18	323.52	16.53	-44.3	-45.5	21.3	0.00e+00	0	41	0	914358272	60	4056
2026-01-30 05:19:18.19	323.35	16.46	-44.2	-45.4	21.3	0.00e+00	0	41	0	916455424	60	4035
2026-01-30 05:19:19.20	323.17	16.39	-44.1	-45.2	21.5	0.00e+00	0	41	0	918552576	60	3942
2026-01-30 05:19:20.21	322.99	16.32	-44.3	-45.5	21.5	0.00e+00	0	41	0	920649728	59	4317
2026-01-30 05:19:21.21	322.82	16.25	-44.4	-45.5	21.5	0.00e+00	0	41	0	922746880	59	4328
2026-01-30 05:19:22.22	322.64	16.18	-44.3	-45.5	21.5	0.00e+00	0	41	0	923795456	59	4316
2026-01-30 05:19:23.22	322.47	16.11	-44.3	-45.5	21.4	0.00e+00	0	41	0	925892608	59	4328
2026-01-30 05:19:24.23	322.30	16.04	-44.4	-45.6	21.4	0.00e+00	0	41	0	927989760	59	4362
2026-01-30 05:19:25.23	322.13	15.97	-44.5	-45.7	21.3	0.00e+00	0	41	0	930086912	59	4414
2026-01-30 05:19:26.24	321.96	15.90	-44.5	-45.6	21.4	0.00e+00	0	41	0	931135488	59	4390
2026-01-30 05:19:27.25	321.79	15.83	-44.4	-45.5	21.5	0.00e+00	0	41	0	933232640	59	4336
2026-01-30 05:19:28.25	321.62	15.76	-44.4	-45.6	21.3	0.00e+00	0	41	0	935329792	59	4390
2026-01-30 05:19:29.26	321.45	15.69	-44.4	-45.6	21.4	0.00e+00	0	41	0	937426944	59	4364
2026-01-30 05:19:30.26	321.29	15.62	-44.3	-45.5	21.5	0.00e+00	0	41	0	939524096	59	4294
2026-01-30 05:19:31.27	321.12	15.55	-44.2	-45.4	21.6	0.00e+00	0	41	0	941621248	59	4268
2026-01-30 05:19:32.28	320.95	15.48	-44.2	-45.3	21.6	0.00e+00	0	41	0	942669824	59	4239
2026-01-30 05:19:33.29	320.79	15.41	-44.0	-45.1	21.8	0.00e+00	0	41	0	944766976	59	4133
2026-01-30 05:19:34.29	320.62	15.34	-44.0	-45.1	21.8	0.00e+00	0	41	0	946864128	59	4134
2026-01-30 05:19:35.30	320.46	15.27	-44.0	-45.1	21.8	0.00e+00	0	41	0	948961280	59	4134
2026-01-30 05:19:36.31	320.30	15.20	-43.9	-45.1	21.9	0.00e+00	0	41	0	951058432	59	4107
2026-01-30 05:19:37.32	320.13	15.13	-44.0	-45.2	21.8	0.00e+00	0	41	0	952107008	59	4156
2026-01-30 05:19:38.32	319.97	15.06	-44.0	-45.2	21.7	0.00e+00	0	41	0	954204160	59	4164
2026-01-30 05:19:39.33	319.81	14.98	-44.1	-45.2	21.7	0.00e+00	0	41	0	956301312	59	4186
2026-01-30 05:19:40.33	319.65	14.91	-44.2	-45.4	21.5	0.00e+00	0	41	0	958398464	59	4260
2026-01-30 05:19:41.34	319.49	14.84	-44.1	-45.3	21.7	0.00e+00	0	41	0	959447040	59	4197
2026-01-30 05:19:42.34	319.34	14.77	-44.1	-45.2	21.7	0.00e+00	0	41	0	961544192	59	4171
2026-01-30 05:19:43.35	319.18	14.70	-44.0	-45.2	21.7	0.00e+00	0	41	0	963641344	59	4156
2026-01-30 05:19:44.36	319.02	14.63	-44.1	-45.3	21.6	0.00e+00	0	41	0	965738496	59	4208
2026-01-30 05:19:45.36	318.87	14.56	-44.1	-45.2	21.7	0.00e+00	0	41	0	967835648	59	4182
2026-01-30 05:19:46.37	318.71	14.49	-44.1	-45.2	21.7	0.00e+00	0	41	0	969932800	59	4173
2026-01-30 05:19:47.37	318.56	14.42	-44.1	-45.3	21.6	0.00e+00	0	41	0	970981376	59	4225
2026-01-30 05:19:48.37	318.41	14.35	-44.1	-45.2	21.7	0.00e+00	0	41	0	973078528	59	4180
2026-01-30 05:19:49.37	318.26	14.28	-44.1	-45.2	21.6	0.00e+00	0	41	0	975175680	59	4190
2026-01-30 05:19:50.38	318.10	14.21	-44.1	-45.2	21.7	0.00e+00	0	41	0	977272832	59	4178
2026-01-30 05:19:51.38	317.95	14.14	-44.2	-45.3	21.6	0.00e+00	0	41	0	979369984	59	4235
2026-01-30 05:19:52.39	317.80	14.07	-44.2	-45.4	21.5	0.00e+00	0	41	0	980418560	59	4262
2026-01-30 05:19:53.40	317.65	14.00	-44.3	-45.5	21.4	0.00e+00	0	41	0	982515712	59	4296
2026-01-30 05:19:54.41	317.50	13.93	-44.2	-45.4	21.5	0.00e+00	0	41	0	984612864	59	4267
2026-01-30 05:19:55.42	317.35	13.86	-44.3	-45.5	21.4	0.00e+00	0	41	0	986710016	59	4308
2026-01-30 05:19:56.43	317.20	13.79	-44.3	-45.5	21.4	0.00e+00	0	41	0	987758592	59	4329
2026-01-30 05:19:57.43	317.06	13.72	-44.4	-45.6	21.3	0.00e+00	0	41	0	989855744	59	4349
2026-01-30 05:19:58.44	316.91	13.65	-44.3	-45.5	21.4	0.00e+00	0	41	0	991952896	59	4304
2026-01-30 05:19:59.45	316.77	13.57	-44.5	-45.7	21.2	0.00e+00	0	41	0	994050048	59	4398
2026-01-30 05:20:00.45	316.62	13.50	-44.5	-45.7	21.2	0.00e+00	0	41	0	996147200	59	4417
2026-01-30 05:20:01.46	316.48	13.43	-44.5	-45.7	21.2	0.00e+00	0	41	0	998244352	59	4428
2026-01-30 05:20:02.47	316.33	13.36	-44.6	-45.8	21.1	0.00e+00	0	41	0	999292928	59	4458
2026-01-30 05:20:03.47	316.19	13.29	-44.6	-45.9	21.0	0.00e+00	0	41	0	1001390080	59	4514
2026-01-30 05:20:04.47	316.05	13.22	-44.4	-45.6	20.9	0.00e+00	0	41	0	1003487232	60	4138
2026-01-30 05:20:05.48	315.91	13.15	-44.5	-45.7	20.8	0.00e+00	0	41	0	1005584384	60	4186
2026-01-30 05:20:06.49	315.77	13.08	-44.5	-45.7	20.8	0.00e+00	0	41	0	1007681536	60	4177
2026-01-30 05:20:07.50	315.63	13.01	-44.5	-45.7	20.8	0.00e+00	0	41	0	1008730112	60	4190
2026-01-30 05:20:08.50	315.49	12.94	-44.5	-45.7	20.8	0.00e+00	0	41	0	1010827264	60	4185
2026-01-30 05:20:09.51	315.35	12.87	-44.4	-45.7	20.9	0.00e+00	0	41	0	1012924416	60	4147
2026-01-30 05:20:10.52	315.21	12.80	-44.4	-45.6	20.9	0.00e+00	0	41	0	1015021568	60	4138
2026-01-30 05:20:11.53	315.07	12.73	-44.3	-45.6	20.9	0.00e+00	0	41	0	1016070144	60	4103
2026-01-30 05:20:12.53	314.94	12.66	-44.2	-45.4	21.1	0.00e+00	0	41	0	1018167296	60	4014
2026-01-30 05:20:13.54	314.80	12.59	-44.2	-45.4	21.1	0.00e+00	0	42	0	1020264448	60	4017
2026-01-30 05:20:14.55	314.67	12.52	-44.3	-45.5	21.0	0.00e+00	0	41	0	1022361600	60	4084
2026-01-30 05:20:15.56	314.53	12.45	-44.3	-45.5	21.0	0.00e+00	0	41	0	1024458752	60	4097
2026-01-30 05:20:16.56	314.40	12.38	-44.3	-45.5	21.0	0.00e+00	0	41	0	1025507328	60	4077
2026-01-30 05:20:17.57	314.26	12.31	-44.3	-45.6	20.9	0.00e+00	0	41	0	1027604480	60	4101
2026-01-30 05:20:18.58	314.13	12.24	-44.4	-45.6	20.9	0.00e+00	0	41	0	1029701632	60	4134
2026-01-30 05:20:19.59	314.00	12.17	-44.5	-45.7	20.8	0.00e+00	0	41	0	1031798784	60	4186
2026-01-30 05:20:20.59	313.87	12.10	-44.7	-45.9	20.6	0.00e+00	0	41	0	1033895936	60	4290
2026-01-30 05:20:21.60	313.74	12.03	-44.7	-45.9	20.6	0.00e+00	0	41	0	1035993088	60	4281
2026-01-30 05:20:22.61	313.61	11.96	-44.6	-45.9	20.6	0.00e+00	0	41	0	1037041664	60	4264
2026-01-30 05:20:23.62	313.48	11.89	-44.6	-45.9	20.6	0.00e+00	0	41	0	1039138816	60	4281
2026-01-30 05:20:24.62	313.35	11.82	-44.7	-46.0	20.5	0.00e+00	0	41	0	1041235968	60	4294
2026-01-30 05:20:25.63	313.22	11.75	-44.8	-46.1	20.4	0.00e+00	0	41	0	1043333120	60	4343
2026-01-30 05:20:26.64	313.09	11.68	-44.7	-46.0	20.5	0.00e+00	0	41	0	1044381696	60	4319
2026-01-30 05:20:27.65	312.96	11.61	-44.9	-46.2	20.3	0.00e+00	0	41	0	1046478848	60	4404
2026-01-30 05:20:28.65	312.84	11.54	-44.7	-46.0	20.4	0.00e+00	0	41	0	1048576000	60	4327
2026-01-30 05:20:29.66	312.71	11.47	-44.8	-46.1	20.3	0.00e+00	0	41	0	1050673152	60	4381
2026-01-30 05:20:30.66	312.59	11.41	-44.9	-46.2	20.3	0.00e+00	0	41	0	1052770304	60	4413
2026-01-30 05:20:31.67	312.46	11.34	-44.9	-46.2	20.3	0.00e+00	0	41	0	1054867456	60	4407
2026-01-30 05:20:32.68	312.34	11.27	-45.0	-46.3	20.1	0.00e+00	0	41	0	1055916032	60	4478
2026-01-30 05:20:33.69	312.21	11.20	-44.9	-46.2	20.2	0.00e+00	0	41	0	1058013184	60	4435
2026-01-30 05:20:34.70	312.09	11.13	-44.9	-46.3	20.2	0.00e+00	0	41	0	1060110336	60	4462
2026-01-30 05:20:35.71	311.97	11.06	-45.0	-46.3	20.1	0.00e+00	0	41	0	1062207488	60	4480
2026-01-30 05:20:36.72	311.85	10.99	-44.9	-46.3	20.1	0.00e+00	0	41	0	1064304640	60	4452
2026-01-30 05:20:37.73	311.72	10.92	-45.1	-46.4	20.0	0.00e+00	0	41	0	1065353216	60	4522
2026-01-30 05:20:38.74	311.60	10.85	-45.0	-46.3	20.1	0.00e+00	0	41	0	1067450368	60	4472
2026-01-30 05:20:39.75	311.48	10.78	-44.9	-46.3	20.1	0.00e+00	0	41	0	1069547520	60	4465
2026-01-30 05:20:40.75	311.36	10.71	-45.1	-46.4	20.0	0.00e+00	0	41	0	1071644672	60	4528
2026-01-30 05:20:41.75	311.25	10.65	-45.1	-46.4	20.0	0.00e+00	0	41	0	1072693248	60	4533
2026-01-30 05:20:42.75	311.13	10.58	-45.1	-46.6	19.8	0.00e+00	0	41	0	1074790400	60	4605
2026-01-30 05:20:43.76	311.01	10.51	-45.2	-46.6	19.8	0.00e+00	0	41	0	1076887552	61	4374
2026-01-30 05:20:44.77	310.89	10.44	-45.2	-46.7	19.8	0.00e+00	0	42	0	1078984704	61	4394
2026-01-30 05:20:45.77	310.78	10.37	-45.4	-46.8	19.6	0.00e+00	0	41	0	1081081856	61	4474
2026-01-30 05:20:46.78	310.66	10.30	-45.3	-46.8	19.6	0.00e+00	0	41	0	1083179008	61	4447
2026-01-30 05:20:47.78	310.55	10.24	-45.4	-46.8	19.5	0.00e+00	0	41	0	1084227584	61	4488
2026-01-30 05:20:48.79	310.43	10.17	-45.5	-46.9	19.4	0.00e+00	0	41	0	1086324736	61	4534
2026-01-30 05:20:49.80	310.32	10.10	-45.4	-46.9	19.5	0.00e+00	0	41	0	1088421888	61	4502
2026-01-30 05:20:50.81	310.20	10.03	-45.4	-46.9	19.4	0.00e+00	0	41	0	1090519040	61	4522
2026-01-30 05:20:51.82	310.09	9.96	-45.5	-47.0	19.4	0.00e+00	0	41	0	1092616192	61	4571
2026-01-30 05:20:52.82	309.98	9.90	-45.4	-46.9	19.5	0.00e+00	0	41	0	1093664768	61	4527
2026-01-30 05:20:53.82	309.87	9.83	-45.3	-46.8	19.6	0.00e+00	0	41	0	1095761920	61	4455
2026-01-30 05:20:54.82	309.76	9.76	-45.3	-46.8	19.6	0.00e+00	0	41	0	1097859072	61	4448
2026-01-30 05:20:55.82	309.65	9.70	-45.4	-46.8	19.6	0.00e+00	0	41	0	1099956224	61	4465
2026-01-30 05:20:56.83	309.53	9.63	-45.4	-46.8	19.5	0.00e+00	0	41	0	1101004800	61	4477
2026-01-30 05:20:57.84	309.42	9.56	-45.3	-46.8	19.5	0.00e+00	0	41	0	1103101952	61	4458
2026-01-30 05:20:58.85	309.31	9.49	-45.2	-46.7	19.6	0.00e+00	0	41	0	1105199104	61	4396
2026-01-30 05:20:59.85	309.21	9.43	-45.3	-46.8	19.5	0.00e+00	0	41	0	1107296256	61	4444
2026-01-30 05:21:00.86	309.10	9.36	-45.4	-46.8	19.5	0.00e+00	0	41	0	1109393408	61	4480
2026-01-30 05:21:01.86	308.99	9.29	-45.4	-46.9	19.4	0.00e+00	0	41	0	1111490560	61	4515
2026-01-30 05:21:02.87	308.88	9.23	-45.5	-47.0	19.3	0.00e+00	0	41	0	1112539136	61	4557
2026-01-30 05:21:03.87	308.78	9.16	-45.7	-47.2	19.1	0.00e+00	0	41	0	1114636288	61	4692
2026-01-30 05:21:04.88	308.67	9.09	-45.9	-47.5	18.8	0.00e+00	0	41	0	1116733440	62	4571
2026-01-30 05:21:05.89	308.56	9.03	-45.8	-47.3	19.0	0.00e+00	0	41	0	1118830592	62	4476
2026-01-30 05:21:06.90	308.46	8.96	-45.9	-47.5	18.9	0.00e+00	0	41	0	1120927744	62	4550
2026-01-30 05:21:07.91	308.35	8.89	-45.9	-47.5	18.7	0.00e+00	0	41	0	1121976320	62	4596
2026-01-30 05:21:08.91	308.25	8.83	-46.0	-47.6	18.7	0.00e+00	0	41	0	1124073472	62	4624
2026-01-30 05:21:09.91	308.14	8.76	-46.1	-47.7	18.6	0.00e+00	0	41	0	1126170624	62	4677
2026-01-30 05:21:10.92	308.04	8.69	-46.0	-47.6	18.7	0.00e+00	0	41	0	1128267776	62	4626
2026-01-30 05:21:11.93	307.94	8.63	-46.0	-47.7	18.6	0.00e+00	0	41	0	1129316352	62	4667
2026-01-30 05:21:12.93	307.84	8.56	-46.0	-47.6	18.7	0.00e+00	0	41	0	1131413504	62	4617
2026-01-30 05:21:13.94	307.73	8.49	-46.0	-47.7	18.6	0.00e+00	0	41	0	1133510656	62	4673
2026-01-30 05:21:14.94	307.63	8.43	-46.1	-47.8	18.5	0.00e+00	0	41	0	1135607808	62	4713
2026-01-30 05:21:15.95	307.53	8.36	-46.0	-47.6	18.7	0.00e+00	0	41	0	1137704960	62	4623
2026-01-30 05:21:16.96	307.43	8.30	-46.1	-47.7	18.5	0.00e+00	0	41	0	1138753536	62	4705
2026-01-30 05:21:17.97	307.33	8.23	-46.1	-47.8	18.5	0.00e+00	0	41	0	1140850688	62	4723
2026-01-30 05:21:18.98	307.23	8.17	-46.2	-48.0	18.3	0.00e+00	0	41	0	1142947840	63	4555
2026-01-30 05:21:19.99	307.13	8.10	-46.3	-48.0	18.3	0.00e+00	0	41	0	1145044992	63	4563
2026-01-30 05:21:20.99	307.03	8.03	-46.3	-48.0	18.2	0.00e+00	0	41	0	1147142144	63	4584
2026-01-30 05:21:22.00	306.93	7.97	-46.5	-48.3	18.0	0.00e+00	0	41	0	1149239296	63	4727
2026-01-30 05:21:23.00	306.84	7.90	-46.5	-48.4	17.9	0.00e+00	0	41	0	1150287872	63	4765
2026-01-30 05:21:24.01	306.74	7.84	-46.6	-48.4	17.9	0.00e+00	0	41	0	1152385024	63	4781
2026-01-30 05:21:25.02	306.64	7.77	-46.5	-48.4	17.8	0.00e+00	0	41	0	1154482176	63	4763
2026-01-30 05:21:26.03	306.54	7.71	-46.5	-48.4	17.9	0.00e+00	0	41	0	1156579328	63	4770
2026-01-30 05:21:27.03	306.45	7.64	-46.6	-48.5	17.7	0.00e+00	0	41	0	1157627904	63	4834
2026-01-30 05:21:28.04	306.35	7.58	-46.5	-48.3	17.9	0.00e+00	0	41	0	1159725056	63	4732
2026-01-30 05:21:29.04	306.26	7.51	-46.4	-48.2	18.0	0.00e+00	0	41	0	1161822208	63	4687
2026-01-30 05:21:30.05	306.16	7.45	-46.4	-48.2	17.9	0.00e+00	0	41	0	1163919360	63	4702
2026-01-30 05:21:31.05	306.07	7.39	-46.4	-48.3	17.9	0.00e+00	0	41	0	1166016512	63	4706
2026-01-30 05:21:32.05	305.98	7.32	-46.3	-48.1	18.0	0.00e+00	0	41	0	1167065088	63	4623
2026-01-30 05:21:33.06	305.88	7.26	-46.4	-48.1	18.0	0.00e+00	0	41	0	1169162240	63	4649
2026-01-30 05:21:34.06	305.79	7.19	-46.3	-48.1	18.1	0.00e+00	0	41	0	1171259392	63	4614
2026-01-30 05:21:35.07	305.70	7.13	-46.2	-48.0	18.2	0.00e+00	0	41	0	1173356544	63	4571
2026-01-30 05:21:36.07	305.61	7.06	-46.3	-48.1	18.0	0.00e+00	0	41	0	1175453696	63	4647
2026-01-30 05:21:37.08	305.51	7.00	-46.4	-48.2	17.9	0.00e+00	0	41	0	1177550848	63	4699
2026-01-30 05:21:38.08	305.42	6.94	-46.5	-48.3	17.8	0.00e+00	0	41	0	1178599424	63	4736
2026-01-30 05:21:39.08	305.33	6.87	-46.5	-48.4	17.7	0.00e+00	0	41	0	1180696576	63	4792
2026-01-30 05:21:40.09	305.24	6.81	-46.4	-48.3	17.9	0.00e+00	0	41	0	1182793728	63	4715
2026-01-30 05:21:41.10	305.15	6.75	-46.5	-48.4	17.7	0.00e+00	0	41	0	1184890880	63	4794
2026-01-30 05:21:42.11	305.06	6.68	-46.6	-48.5	17.6	0.00e+00	0	41	0	1185939456	63	4848
2026-01-30 05:21:43.11	304.97	6.62	-46.7	-48.6	17.4	0.00e+00	0	41	0	1188036608	64	4625
2026-01-30 05:21:44.12	304.88	6.55	-46.8	-48.8	17.2	0.00e+00	0	41	0	1190133760	64	4711
2026-01-30 05:21:45.12	304.80	6.49	-46.9	-48.9	17.0	0.00e+00	0	41	0	1192230912	64	4802
2026-01-30 05:21:46.13	304.71	6.43	-46.8	-48.8	17.2	0.00e+00	0	41	0	1194328064	64	4732
2026-01-30 05:21:47.13	304.62	6.37	-46.9	-49.0	16.9	0.00e+00	0	41	0	1195376640	64	4860
2026-01-30 05:21:48.14	304.53	6.30	-46.7	-48.7	17.3	0.00e+00	0	41	0	1197473792	64	4663
2026-01-30 05:21:49.15	304.44	6.24	-46.8	-48.8	17.1	0.00e+00	0	41	0	1199570944	64	4738
2026-01-30 05:21:50.16	304.36	6.18	-46.9	-48.9	17.1	0.00e+00	0	41	0	1201668096	64	4777
2026-01-30 05:21:51.16	304.27	6.11	-46.8	-48.8	17.1	0.00e+00	0	41	0	1203765248	64	4735
2026-01-30 05:21:52.17	304.19	6.05	-46.8	-48.9	17.0	0.00e+00	0	41	0	1205862400	64	4781
2026-01-30 05:21:53.17	304.10	5.99	-46.8	-48.9	17.0	0.00e+00	0	41	0	1206910976	64	4769
2026-01-30 05:21:54.18	304.02	5.93	-46.8	-48.8	17.1	0.00e+00	0	41	0	1209008128	64	4727
2026-01-30 05:21:55.19	303.93	5.86	-46.9	-49.0	16.9	0.00e+00	0	41	0	1211105280	64	4828
2026-01-30 05:21:56.19	303.85	5.80	-47.1	-49.3	16.5	0.00e+00	0	42	0	1213202432	64	5007
2026-01-30 05:21:57.19	303.76	5.74	-46.9	-49.0	16.8	0.00e+00	0	41	0	1214251008	64	4858
2026-01-30 05:21:58.20	303.68	5.68	-47.0	-49.1	16.8	0.00e+00	0	41	0	1216348160	64	4889
2026-01-30 05:21:59.21	303.60	5.61	-47.0	-49.1	16.7	0.00e+00	0	41	0	1218445312	64	4898
