passes_logs/2026/01/30/R3.2S_Murmansk/R3.2S_Murmansk__20260130_170434_JL1KF01B_rec.log

#Pass ID: 20260130_170434_JL1KF01B
#Satellite: JL1KF01B
#Configuration: 01B_900M
#almurnet v.1.7.20251203
#Start time: 2026-01-30 17:04:36

#Version: 2.2.20231116
#Station: R3.2S_Murmansk
#Location: 33.079688 lon 68.888172 lat
#TLE: 1 49003U 21061A   26030.17054890  .00005909  00000+0  37580-3 0  9999
#TLE: 2 49003  97.5345 108.8937 0007975 174.4542 185.6776 15.09158609252522

#Time	Az	El	Level	Level2	SNR	BER	BlckErr	Temp	State	Recorded	gain1	gain2
2026-01-30 17:04:36.13	106.04	2.12	-54.3	-56.4	6.2	0.00e+00	0	41	0	0	79	19071
2026-01-30 17:04:37.13	105.97	2.18	-54.2	-56.3	6.2	0.00e+00	0	41	104	0	80	17922
2026-01-30 17:04:38.13	105.90	2.24	-54.2	-56.3	6.2	0.00e+00	0	41	104	0	80	17877
2026-01-30 17:04:39.14	105.83	2.31	-54.2	-56.3	6.2	0.00e+00	0	41	104	0	80	17855
2026-01-30 17:04:40.15	105.76	2.37	-54.2	-56.3	6.2	0.00e+00	0	41	104	0	80	17795
2026-01-30 17:04:41.16	105.68	2.44	-54.2	-56.3	6.2	0.00e+00	0	41	104	0	80	17782
2026-01-30 17:04:42.17	105.61	2.50	-54.2	-56.2	6.2	0.00e+00	0	41	104	0	80	17742
2026-01-30 17:04:43.18	105.54	2.57	-54.2	-56.3	6.2	0.00e+00	0	41	104	0	80	17799
2026-01-30 17:04:44.19	105.46	2.63	-54.3	-56.4	6.2	0.00e+00	0	41	104	0	80	18012
2026-01-30 17:04:45.20	105.39	2.70	-54.3	-56.4	6.2	0.00e+00	0	41	104	0	80	18085
2026-01-30 17:04:46.21	105.32	2.77	-54.4	-56.4	6.2	0.00e+00	0	41	104	0	80	18170
2026-01-30 17:04:47.21	105.24	2.83	-54.4	-56.5	6.2	0.00e+00	0	41	104	0	80	18283
2026-01-30 17:04:48.22	105.17	2.90	-54.4	-56.5	6.2	0.00e+00	0	41	104	0	80	18323
2026-01-30 17:04:49.23	105.09	2.96	-54.4	-56.5	6.2	0.00e+00	0	41	104	0	80	18289
2026-01-30 17:04:50.23	105.01	3.03	-54.4	-56.5	6.2	0.00e+00	0	42	104	0	80	18258
2026-01-30 17:04:51.24	104.94	3.10	-54.4	-56.4	6.2	0.00e+00	0	41	104	0	80	18160
2026-01-30 17:04:52.25	104.86	3.16	-54.4	-56.4	6.2	0.00e+00	0	41	104	0	80	18179
2026-01-30 17:04:53.26	104.78	3.23	-54.3	-56.4	6.2	0.00e+00	0	42	104	0	80	18132
2026-01-30 17:04:54.27	104.70	3.30	-54.3	-56.3	6.2	0.00e+00	0	42	104	0	80	17952
2026-01-30 17:04:55.28	104.63	3.36	-54.2	-56.3	6.2	0.00e+00	0	42	104	0	80	17933
2026-01-30 17:04:56.29	104.55	3.43	-54.2	-56.3	6.2	0.00e+00	0	42	104	0	80	17796
2026-01-30 17:04:57.30	104.47	3.50	-54.1	-56.2	6.2	0.00e+00	0	42	104	0	80	17720
2026-01-30 17:04:58.31	104.39	3.57	-54.1	-56.1	6.2	0.00e+00	0	42	104	0	80	17562
2026-01-30 17:04:59.32	104.31	3.64	-54.0	-56.1	6.2	0.00e+00	0	42	104	0	80	17504
2026-01-30 17:05:00.33	104.23	3.70	-54.0	-56.1	6.2	0.00e+00	0	42	104	0	79	18463
2026-01-30 17:05:01.34	104.15	3.77	-54.0	-56.0	6.2	0.00e+00	0	42	104	0	79	18383
2026-01-30 17:05:02.34	104.06	3.84	-53.9	-55.9	6.2	0.00e+00	0	42	104	0	79	18151
2026-01-30 17:05:03.35	103.98	3.91	-53.8	-55.9	6.2	0.00e+00	0	42	104	0	79	18100
2026-01-30 17:05:04.36	103.90	3.98	-53.8	-55.9	6.2	0.00e+00	0	42	104	0	79	18116
2026-01-30 17:05:05.37	103.82	4.05	-53.7	-55.8	6.2	0.00e+00	0	42	104	0	79	17937
2026-01-30 17:05:06.38	103.73	4.12	-53.7	-55.7	6.2	0.00e+00	0	42	104	0	79	17765
2026-01-30 17:05:07.39	103.65	4.18	-53.6	-55.7	6.2	0.00e+00	0	42	104	0	79	17597
2026-01-30 17:05:08.40	103.56	4.25	-53.4	-55.5	6.2	0.00e+00	0	42	104	0	78	18221
2026-01-30 17:05:09.41	103.48	4.32	-53.3	-55.4	6.2	0.00e+00	0	42	104	0	78	18114
2026-01-30 17:05:10.42	103.39	4.39	-53.2	-55.3	6.2	0.00e+00	0	42	104	0	78	17910
2026-01-30 17:05:11.43	103.30	4.46	-53.1	-55.1	6.2	0.00e+00	0	42	104	0	78	17548
2026-01-30 17:05:12.43	103.22	4.53	-52.8	-54.9	6.2	0.00e+00	0	42	104	0	77	18158
2026-01-30 17:05:13.44	103.13	4.60	-52.8	-54.9	6.2	0.00e+00	0	42	104	0	77	18081
2026-01-30 17:05:14.45	103.04	4.67	-52.8	-54.9	6.2	0.00e+00	0	42	104	0	77	18009
2026-01-30 17:05:15.46	102.95	4.74	-52.8	-54.9	6.2	0.00e+00	0	42	104	0	77	18004
2026-01-30 17:05:16.47	102.87	4.82	-52.8	-54.8	6.2	0.00e+00	0	42	104	0	77	17952
2026-01-30 17:05:17.48	102.78	4.89	-52.7	-54.8	6.2	0.00e+00	0	42	104	0	77	17960
2026-01-30 17:05:18.49	102.69	4.96	-52.8	-54.8	6.2	0.00e+00	0	42	104	0	77	17966
2026-01-30 17:05:19.50	102.59	5.03	-52.7	-54.8	6.2	0.00e+00	0	42	104	0	77	17947
2026-01-30 17:05:20.51	102.50	5.10	-52.8	-54.9	6.2	0.00e+00	0	42	104	0	77	18099
2026-01-30 17:05:21.51	102.41	5.17	-52.8	-54.9	6.2	0.00e+00	0	42	104	0	77	18105
2026-01-30 17:05:22.52	102.32	5.24	-52.8	-54.9	6.2	0.00e+00	0	43	104	0	77	18067
2026-01-30 17:05:23.53	102.23	5.32	-53.0	-55.1	6.2	0.00e+00	0	42	104	0	77	18549
2026-01-30 17:05:24.54	102.13	5.39	-53.1	-55.2	6.2	0.00e+00	0	43	104	0	77	18744
2026-01-30 17:05:25.55	102.04	5.46	-53.1	-55.2	6.2	0.00e+00	0	42	104	0	77	18696
2026-01-30 17:05:26.56	101.94	5.53	-53.1	-55.2	6.2	0.00e+00	0	42	104	0	77	18655
2026-01-30 17:05:27.57	101.85	5.61	-53.2	-55.3	6.2	0.00e+00	0	42	104	0	77	18861
2026-01-30 17:05:28.58	101.75	5.68	-53.2	-55.3	6.2	0.00e+00	0	42	104	0	77	18894
2026-01-30 17:05:29.59	101.66	5.75	-53.1	-55.2	6.2	0.00e+00	0	43	104	0	77	18800
2026-01-30 17:05:30.60	101.56	5.83	-53.1	-55.2	6.2	0.00e+00	0	43	104	0	77	18714
2026-01-30 17:05:31.60	101.46	5.90	-53.2	-55.3	6.2	0.00e+00	0	42	104	0	77	18891
2026-01-30 17:05:32.61	101.36	5.98	-53.2	-55.3	6.2	0.00e+00	0	42	104	0	77	18948
2026-01-30 17:05:33.62	101.26	6.05	-53.2	-55.3	6.2	0.00e+00	0	43	104	0	77	18835
2026-01-30 17:05:34.63	101.16	6.12	-53.1	-55.2	6.2	0.00e+00	0	43	104	0	77	18737
2026-01-30 17:05:35.64	101.06	6.20	-53.2	-55.3	6.2	0.00e+00	0	42	104	0	77	18990
2026-01-30 17:05:36.64	100.96	6.27	-53.2	-55.3	6.2	0.00e+00	0	43	104	0	77	18913
2026-01-30 17:05:37.65	100.86	6.35	-53.2	-55.3	6.2	0.00e+00	0	43	104	0	77	18907
2026-01-30 17:05:38.66	100.76	6.42	-53.1	-55.2	6.2	0.00e+00	0	42	104	0	77	18794
2026-01-30 17:05:39.67	100.66	6.50	-53.3	-55.3	6.2	0.00e+00	0	43	104	0	77	19007
2026-01-30 17:05:40.68	100.55	6.57	-53.2	-55.3	6.2	0.00e+00	0	43	104	0	77	18971
2026-01-30 17:05:41.69	100.45	6.65	-53.2	-55.3	6.2	0.00e+00	0	43	104	0	77	18971
2026-01-30 17:05:42.69	100.34	6.73	-53.2	-55.3	6.2	0.00e+00	0	43	104	0	77	18890
2026-01-30 17:05:43.70	100.24	6.80	-53.2	-55.4	6.2	0.00e+00	0	43	104	0	77	19058
2026-01-30 17:05:44.71	100.13	6.88	-53.2	-55.4	6.2	0.00e+00	0	43	104	0	77	19054
2026-01-30 17:05:45.72	100.03	6.95	-53.2	-55.3	6.2	0.00e+00	0	43	104	0	77	18956
2026-01-30 17:05:46.73	99.92	7.03	-53.2	-55.2	6.2	0.00e+00	0	43	104	0	77	18815
2026-01-30 17:05:47.73	99.81	7.11	-53.3	-55.4	6.2	0.00e+00	0	43	104	0	77	19163
2026-01-30 17:05:48.74	99.70	7.18	-53.2	-55.3	6.2	0.00e+00	0	43	104	0	77	18998
2026-01-30 17:05:49.75	99.59	7.26	-53.3	-55.3	6.2	0.00e+00	0	43	104	0	77	19030
2026-01-30 17:05:50.76	99.48	7.34	-53.2	-55.3	6.2	0.00e+00	0	43	104	0	77	18890
2026-01-30 17:05:51.77	99.37	7.42	-53.3	-55.4	6.2	0.00e+00	0	43	104	0	77	19094
2026-01-30 17:05:52.77	99.26	7.50	-53.2	-55.3	6.2	0.00e+00	0	43	104	0	77	18991
2026-01-30 17:05:53.78	99.14	7.57	-53.2	-55.4	6.2	0.00e+00	0	43	104	0	77	19081
2026-01-30 17:05:54.79	99.03	7.65	-53.2	-55.3	6.2	0.00e+00	0	43	104	0	77	18908
2026-01-30 17:05:55.80	98.92	7.73	-53.3	-55.3	6.2	0.00e+00	0	43	104	0	77	19035
2026-01-30 17:05:56.81	98.80	7.81	-53.2	-55.3	6.2	0.00e+00	0	43	104	0	77	18928
2026-01-30 17:05:57.82	98.68	7.89	-53.2	-55.3	6.2	0.00e+00	0	43	104	0	77	18963
2026-01-30 17:05:58.82	98.57	7.97	-53.2	-55.3	6.2	0.00e+00	0	43	104	0	77	18836
2026-01-30 17:05:59.83	98.45	8.05	-53.3	-55.4	6.2	0.00e+00	0	43	104	0	77	19066
2026-01-30 17:06:00.84	98.33	8.13	-53.2	-55.3	6.2	0.00e+00	0	43	104	0	77	18880
2026-01-30 17:06:01.85	98.21	8.21	-53.2	-55.3	6.2	0.00e+00	0	43	104	0	77	18930
2026-01-30 17:06:02.86	98.09	8.29	-53.2	-55.2	6.2	0.00e+00	0	43	104	0	77	18700
2026-01-30 17:06:03.87	97.97	8.37	-53.2	-55.4	6.2	0.00e+00	0	43	104	0	77	19052
2026-01-30 17:06:04.88	97.85	8.45	-53.2	-55.3	6.2	0.00e+00	0	43	104	0	77	18892
2026-01-30 17:06:05.89	97.73	8.53	-53.2	-55.3	6.2	0.00e+00	0	43	104	0	77	18865
2026-01-30 17:06:06.89	97.61	8.61	-53.1	-55.2	6.2	0.00e+00	0	43	104	0	77	18738
2026-01-30 17:06:07.90	97.48	8.69	-53.2	-55.3	6.2	0.00e+00	0	43	104	0	77	18938
2026-01-30 17:06:08.91	97.36	8.77	-53.1	-55.3	6.2	0.00e+00	0	43	104	0	77	18826
2026-01-30 17:06:09.92	97.23	8.86	-53.2	-55.3	6.2	0.00e+00	0	43	104	0	77	18883
2026-01-30 17:06:10.93	97.11	8.94	-53.1	-55.2	6.2	0.00e+00	0	43	104	0	77	18666
2026-01-30 17:06:11.94	96.98	9.02	-53.2	-55.3	6.2	0.00e+00	0	43	104	0	77	18875
2026-01-30 17:06:12.95	96.85	9.10	-53.1	-55.2	6.2	0.00e+00	0	43	104	0	77	18684
2026-01-30 17:06:13.95	96.72	9.19	-53.1	-55.2	6.2	0.00e+00	0	43	104	0	77	18683
2026-01-30 17:06:14.96	96.59	9.27	-53.1	-55.2	6.2	0.00e+00	0	43	104	0	77	18646
2026-01-30 17:06:15.97	96.46	9.35	-53.2	-55.3	6.2	0.00e+00	0	43	104	0	77	18830
2026-01-30 17:06:16.98	96.33	9.44	-53.1	-55.2	6.2	0.00e+00	0	43	104	0	77	18626
2026-01-30 17:06:17.99	96.19	9.52	-53.1	-55.2	6.2	0.00e+00	0	43	104	0	77	18690
2026-01-30 17:06:18.99	96.06	9.60	-53.0	-55.1	6.2	0.00e+00	0	43	104	0	77	18580
2026-01-30 17:06:20.00	95.93	9.69	-53.1	-55.3	6.2	0.00e+00	0	43	104	0	77	18841
2026-01-30 17:06:21.01	95.79	9.77	-53.0	-55.2	6.2	0.00e+00	0	43	104	0	77	18603
2026-01-30 17:06:22.02	95.65	9.86	-53.1	-55.2	6.2	0.00e+00	0	43	104	0	77	18638
2026-01-30 17:06:23.03	95.52	9.94	-53.0	-55.1	6.2	0.00e+00	0	43	104	0	77	18501
2026-01-30 17:06:24.04	95.38	10.03	-53.1	-55.2	6.2	0.00e+00	0	43	104	0	77	18707
2026-01-30 17:06:25.05	95.24	10.11	-53.0	-55.1	6.2	0.00e+00	0	43	104	0	77	18474
2026-01-30 17:06:26.06	95.10	10.20	-53.0	-55.1	6.2	0.00e+00	0	43	104	0	77	18577
2026-01-30 17:06:27.07	94.95	10.28	-53.0	-55.1	6.2	0.00e+00	0	43	104	0	77	18528
2026-01-30 17:06:28.07	94.81	10.37	-53.1	-55.2	6.2	0.00e+00	0	43	104	0	77	18666
2026-01-30 17:06:29.08	94.67	10.45	-53.0	-55.1	6.2	0.00e+00	0	43	104	0	77	18482
2026-01-30 17:06:30.09	94.52	10.54	-53.0	-55.1	6.2	0.00e+00	0	43	104	0	77	18515
2026-01-30 17:06:31.10	94.38	10.63	-53.0	-55.1	6.2	0.00e+00	0	43	104	0	77	18433
2026-01-30 17:06:32.11	94.23	10.71	-53.1	-55.2	6.2	0.00e+00	0	43	104	0	77	18640
2026-01-30 17:06:33.11	94.09	10.80	-53.0	-55.1	6.2	0.00e+00	0	43	104	0	77	18411
2026-01-30 17:06:34.12	93.94	10.89	-53.0	-55.1	6.2	0.00e+00	0	43	104	0	77	18555
2026-01-30 17:06:35.13	93.79	10.98	-53.0	-55.1	6.2	0.00e+00	0	43	104	0	77	18450
2026-01-30 17:06:36.13	93.64	11.06	-53.0	-55.1	6.2	0.00e+00	0	43	104	0	77	18520
2026-01-30 17:06:37.14	93.48	11.15	-52.9	-55.0	6.2	0.00e+00	0	43	104	0	77	18272
2026-01-30 17:06:38.15	93.33	11.24	-53.0	-55.1	6.2	0.00e+00	0	43	104	0	77	18392
2026-01-30 17:06:39.16	93.18	11.33	-53.0	-55.1	6.2	0.00e+00	0	43	104	0	77	18415
2026-01-30 17:06:40.17	93.02	11.42	-53.0	-55.1	6.2	0.00e+00	0	43	104	0	77	18564
2026-01-30 17:06:41.17	92.86	11.50	-52.9	-55.0	6.2	0.00e+00	0	43	104	0	77	18325
2026-01-30 17:06:42.18	92.71	11.59	-53.0	-55.0	6.2	0.00e+00	0	43	104	0	77	18385
2026-01-30 17:06:43.19	92.55	11.68	-52.9	-55.0	6.2	0.00e+00	0	43	104	0	77	18357
2026-01-30 17:06:44.19	92.39	11.77	-53.0	-55.1	6.2	0.00e+00	0	43	104	0	77	18507
2026-01-30 17:06:45.20	92.23	11.86	-52.9	-55.0	6.2	0.00e+00	0	43	104	0	77	18245
2026-01-30 17:06:46.21	92.07	11.95	-52.9	-55.0	6.2	0.00e+00	0	43	104	0	77	18371
2026-01-30 17:06:47.22	91.90	12.04	-52.9	-55.0	6.2	0.00e+00	0	43	104	0	77	18300
2026-01-30 17:06:48.23	91.74	12.13	-53.0	-55.1	6.2	0.00e+00	0	43	104	0	77	18417
2026-01-30 17:06:49.23	91.57	12.22	-52.9	-55.0	6.2	0.00e+00	0	43	104	0	77	18218
2026-01-30 17:06:50.24	91.40	12.31	-52.9	-55.0	6.2	0.00e+00	0	43	104	0	77	18307
2026-01-30 17:06:51.25	91.24	12.40	-52.9	-55.0	6.2	0.00e+00	0	43	104	0	77	18366
2026-01-30 17:06:52.26	91.07	12.50	-53.0	-55.1	6.2	0.00e+00	0	43	104	0	77	18455
2026-01-30 17:06:53.27	90.89	12.59	-52.9	-55.0	6.2	0.00e+00	0	43	104	0	77	18269
2026-01-30 17:06:54.28	90.72	12.68	-52.9	-55.0	6.2	0.00e+00	0	43	104	0	77	18243
2026-01-30 17:06:55.29	90.55	12.77	-52.9	-55.0	6.2	0.00e+00	0	43	104	0	77	18269
2026-01-30 17:06:56.29	90.37	12.86	-52.9	-55.1	6.2	0.00e+00	0	43	104	0	77	18436
2026-01-30 17:06:57.30	90.20	12.96	-52.9	-55.0	6.2	0.00e+00	0	43	104	0	77	18204
2026-01-30 17:06:58.31	90.02	13.05	-52.9	-55.0	6.2	0.00e+00	0	43	104	0	77	18281
2026-01-30 17:06:59.32	89.84	13.14	-52.9	-55.0	6.2	0.00e+00	0	43	104	0	77	18299
2026-01-30 17:07:00.33	89.66	13.23	-52.9	-55.0	6.2	0.00e+00	0	43	104	0	77	18383
2026-01-30 17:07:01.34	89.48	13.33	-52.9	-55.0	6.2	0.00e+00	0	43	104	0	77	18195
2026-01-30 17:07:02.35	89.30	13.42	-52.9	-55.0	6.2	0.00e+00	0	43	104	0	77	18264
2026-01-30 17:07:03.36	89.11	13.51	-52.9	-55.0	6.2	0.00e+00	0	43	104	0	77	18271
2026-01-30 17:07:04.37	88.93	13.61	-52.9	-55.0	6.2	0.00e+00	0	43	104	0	77	18317
2026-01-30 17:07:05.37	88.74	13.70	-52.8	-55.0	6.2	0.00e+00	0	43	104	0	77	18194
2026-01-30 17:07:06.38	88.55	13.80	-52.9	-55.0	6.2	0.00e+00	0	43	104	0	77	18216
2026-01-30 17:07:07.39	88.36	13.89	-52.9	-55.0	6.2	0.00e+00	0	43	104	0	77	18251
2026-01-30 17:07:08.40	88.17	13.98	-52.9	-55.0	6.2	0.00e+00	0	43	104	0	77	18342
2026-01-30 17:07:09.40	87.98	14.08	-52.8	-54.9	6.2	0.00e+00	0	43	104	0	77	18167
2026-01-30 17:07:10.41	87.78	14.17	-52.9	-55.0	6.2	0.00e+00	0	43	104	0	77	18215
2026-01-30 17:07:11.42	87.59	14.27	-52.9	-55.0	6.2	0.00e+00	0	44	104	0	77	18222
2026-01-30 17:07:12.43	87.39	14.36	-52.9	-55.0	6.2	0.00e+00	0	43	104	0	77	18313
2026-01-30 17:07:13.44	87.19	14.46	-52.9	-54.9	6.2	0.00e+00	0	43	104	0	77	18145
2026-01-30 17:07:14.45	86.99	14.55	-52.9	-54.9	6.2	0.00e+00	0	43	104	0	77	18164
2026-01-30 17:07:15.45	86.79	14.65	-52.9	-55.0	6.2	0.00e+00	0	44	104	0	77	18235
2026-01-30 17:07:16.46	86.59	14.75	-52.9	-55.0	6.2	0.00e+00	0	44	104	0	77	18310
2026-01-30 17:07:17.47	86.38	14.84	-52.9	-55.0	6.2	0.00e+00	0	43	104	0	77	18261
2026-01-30 17:07:18.48	86.18	14.94	-52.9	-54.9	6.2	0.00e+00	0	43	104	0	77	18169
2026-01-30 17:07:19.49	85.97	15.03	-52.9	-55.0	6.2	0.00e+00	0	43	104	0	77	18235
2026-01-30 17:07:20.50	85.76	15.13	-52.9	-55.0	6.2	0.00e+00	0	43	104	0	77	18282
2026-01-30 17:07:21.51	85.55	15.23	-52.9	-55.0	6.2	0.00e+00	0	43	104	0	77	18260
2026-01-30 17:07:22.52	85.33	15.32	-52.9	-55.0	6.2	0.00e+00	0	43	104	0	77	18194
2026-01-30 17:07:23.52	85.12	15.42	-52.9	-55.0	6.2	0.00e+00	0	43	104	0	77	18283
2026-01-30 17:07:24.53	84.91	15.52	-52.9	-55.0	6.2	0.00e+00	0	43	104	0	77	18299
2026-01-30 17:07:25.54	84.69	15.61	-52.9	-55.0	6.2	0.00e+00	0	43	104	0	77	18286
2026-01-30 17:07:26.55	84.47	15.71	-52.9	-55.0	6.2	0.00e+00	0	43	104	0	77	18261
2026-01-30 17:07:27.56	84.25	15.81	-52.9	-55.0	6.2	0.00e+00	0	43	104	0	77	18318
2026-01-30 17:07:28.57	84.03	15.91	-52.9	-55.0	6.2	0.00e+00	0	43	104	0	77	18371
2026-01-30 17:07:29.57	83.80	16.00	-52.9	-55.0	6.2	0.00e+00	0	43	104	0	77	18292
2026-01-30 17:07:30.58	83.58	16.10	-52.9	-55.0	6.2	0.00e+00	0	43	104	0	77	18259
2026-01-30 17:07:31.59	83.35	16.20	-52.9	-55.0	6.2	0.00e+00	0	43	104	0	77	18379
2026-01-30 17:07:32.60	83.12	16.30	-52.9	-55.0	6.2	0.00e+00	0	43	104	0	77	18360
2026-01-30 17:07:33.61	82.89	16.39	-52.9	-55.1	6.2	0.00e+00	0	44	104	0	77	18396
2026-01-30 17:07:34.61	82.66	16.49	-52.9	-55.0	6.2	0.00e+00	0	43	104	0	77	18289
2026-01-30 17:07:35.62	82.42	16.59	-52.9	-55.0	6.2	0.00e+00	0	43	104	0	77	18385
2026-01-30 17:07:36.63	82.19	16.69	-53.0	-55.0	6.2	0.00e+00	0	43	104	0	77	18336
2026-01-30 17:07:37.64	81.95	16.78	-53.0	-55.0	6.2	0.00e+00	0	43	104	0	77	18331
2026-01-30 17:07:38.64	81.71	16.88	-52.9	-55.0	6.2	0.00e+00	0	43	104	0	77	18357
2026-01-30 17:07:39.65	81.47	16.98	-53.0	-55.1	6.2	0.00e+00	0	44	104	0	77	18466
2026-01-30 17:07:40.66	81.22	17.08	-53.0	-55.0	6.2	0.00e+00	0	44	104	0	77	18379
2026-01-30 17:07:41.67	80.98	17.17	-53.0	-55.1	6.2	0.00e+00	0	43	104	0	77	18519
2026-01-30 17:07:42.68	80.73	17.27	-53.0	-55.0	6.2	0.00e+00	0	43	104	0	77	18366
2026-01-30 17:07:43.69	80.48	17.37	-53.0	-55.1	6.2	0.00e+00	0	43	104	0	77	18443
2026-01-30 17:07:44.70	80.23	17.47	-53.0	-55.1	6.2	0.00e+00	0	44	104	0	77	18496
2026-01-30 17:07:45.71	79.98	17.57	-53.0	-55.1	6.2	0.00e+00	0	43	104	0	77	18541
2026-01-30 17:07:46.71	79.72	17.66	-53.0	-55.1	6.2	0.00e+00	0	44	104	0	77	18440
2026-01-30 17:07:47.72	79.47	17.76	-53.0	-55.1	6.2	0.00e+00	0	43	104	0	77	18550
2026-01-30 17:07:48.73	79.21	17.86	-53.0	-55.1	6.2	0.00e+00	0	43	104	0	77	18583
2026-01-30 17:07:49.74	78.95	17.96	-53.0	-55.1	6.2	0.00e+00	0	43	104	0	77	18511
2026-01-30 17:07:50.75	78.69	18.05	-53.0	-55.1	6.2	0.00e+00	0	43	104	0	77	18553
2026-01-30 17:07:51.76	78.42	18.15	-53.1	-55.2	6.2	0.00e+00	0	43	104	0	77	18653
2026-01-30 17:07:52.77	78.15	18.25	-53.1	-55.1	6.2	0.00e+00	0	44	104	0	77	18601
2026-01-30 17:07:53.77	77.89	18.35	-53.1	-55.2	6.2	0.00e+00	0	44	104	0	77	18646
2026-01-30 17:07:54.78	77.62	18.44	-53.0	-55.1	6.2	0.00e+00	0	44	104	0	77	18536
2026-01-30 17:07:55.79	77.35	18.54	-53.1	-55.2	6.2	0.00e+00	0	44	104	0	77	18639
2026-01-30 17:07:56.79	77.07	18.64	-53.1	-55.2	6.2	0.00e+00	0	44	104	0	77	18616
2026-01-30 17:07:57.80	76.80	18.73	-53.1	-55.2	6.2	0.00e+00	0	44	104	0	77	18633
2026-01-30 17:07:58.81	76.52	18.83	-53.1	-55.1	6.2	0.00e+00	0	43	104	0	77	18601
2026-01-30 17:07:59.82	76.24	18.93	-53.1	-55.2	6.2	0.00e+00	0	44	104	0	77	18682
2026-01-30 17:08:00.83	75.96	19.02	-53.1	-55.2	6.2	0.00e+00	0	44	104	0	77	18720
2026-01-30 17:08:01.84	75.67	19.12	-53.1	-55.2	6.2	0.00e+00	0	44	104	0	77	18675
2026-01-30 17:08:02.84	75.39	19.21	-53.1	-55.2	6.2	0.00e+00	0	44	104	0	77	18669
2026-01-30 17:08:03.85	75.10	19.31	-53.1	-55.2	6.2	0.00e+00	0	44	104	0	77	18780
2026-01-30 17:08:04.86	74.81	19.41	-53.1	-55.2	6.2	0.00e+00	0	44	104	0	77	18793
2026-01-30 17:08:05.87	74.52	19.50	-53.1	-55.2	6.2	0.00e+00	0	44	104	0	77	18780
2026-01-30 17:08:06.88	74.22	19.60	-53.1	-55.2	6.2	0.00e+00	0	44	104	0	77	18682
2026-01-30 17:08:07.89	73.92	19.69	-53.1	-55.2	6.2	0.00e+00	0	43	104	0	77	18790
2026-01-30 17:08:08.90	73.63	19.78	-53.2	-55.2	6.2	0.00e+00	0	43	104	0	77	18785
2026-01-30 17:08:09.91	73.33	19.88	-53.1	-55.2	6.2	0.00e+00	0	44	104	0	77	18799
2026-01-30 17:08:10.92	73.02	19.97	-53.1	-55.2	6.2	0.00e+00	0	44	104	0	77	18739
2026-01-30 17:08:11.93	72.72	20.07	-53.2	-55.3	6.2	0.00e+00	0	44	104	0	77	18837
2026-01-30 17:08:12.93	72.41	20.16	-53.2	-55.3	6.2	0.00e+00	0	44	104	0	77	18890
2026-01-30 17:08:13.94	72.10	20.25	-53.2	-55.3	6.2	0.00e+00	0	43	104	0	77	18846
2026-01-30 17:08:14.95	71.79	20.34	-53.1	-55.2	6.2	0.00e+00	0	44	104	0	77	18697
2026-01-30 17:08:15.96	71.48	20.43	-53.2	-55.3	6.2	0.00e+00	0	44	104	0	77	18838
2026-01-30 17:08:16.97	71.16	20.53	-53.2	-55.3	6.2	0.00e+00	0	44	104	0	77	18933
2026-01-30 17:08:17.98	70.84	20.62	-53.2	-55.3	6.2	0.00e+00	0	43	104	0	77	18880
2026-01-30 17:08:18.98	70.53	20.71	-53.2	-55.3	6.2	0.00e+00	0	43	104	0	77	18840
2026-01-30 17:08:19.99	70.21	20.80	-53.2	-55.3	6.2	0.00e+00	0	44	104	0	77	18923
2026-01-30 17:08:21.00	69.88	20.89	-53.2	-55.3	6.2	0.00e+00	0	44	104	0	77	18938
2026-01-30 17:08:22.01	69.56	20.97	-53.2	-55.3	6.2	0.00e+00	0	44	104	0	77	18904
2026-01-30 17:08:23.02	69.23	21.06	-53.2	-55.3	6.2	0.00e+00	0	43	104	0	77	18900
2026-01-30 17:08:24.03	68.90	21.15	-53.2	-55.3	6.2	0.00e+00	0	43	104	0	77	18923
2026-01-30 17:08:25.04	68.56	21.24	-53.2	-55.3	6.2	0.00e+00	0	44	104	0	77	18990
2026-01-30 17:08:26.05	68.23	21.33	-53.2	-55.3	6.2	0.00e+00	0	43	104	0	77	19009
2026-01-30 17:08:27.05	67.90	21.41	-53.2	-55.3	6.2	0.00e+00	0	43	104	0	77	18912
2026-01-30 17:08:28.06	67.56	21.50	-53.3	-55.3	6.2	0.00e+00	0	44	104	0	77	19027
2026-01-30 17:08:29.07	67.22	21.58	-53.3	-55.3	6.2	0.00e+00	0	44	104	0	77	19029
2026-01-30 17:08:30.07	66.88	21.66	-53.2	-55.3	6.2	0.00e+00	0	44	104	0	77	18989
2026-01-30 17:08:31.08	66.53	21.75	-53.2	-55.3	6.2	0.00e+00	0	44	104	0	77	18974
2026-01-30 17:08:32.09	66.18	21.83	-53.3	-55.4	6.2	0.00e+00	0	43	104	0	77	19078
2026-01-30 17:08:33.10	65.83	21.91	-53.3	-55.4	6.2	0.00e+00	0	43	104	0	77	19094
2026-01-30 17:08:34.11	65.48	22.00	-53.3	-55.3	6.2	0.00e+00	0	44	104	0	77	19028
2026-01-30 17:08:35.11	65.13	22.08	-53.2	-55.3	6.2	0.00e+00	0	43	104	0	77	18972
2026-01-30 17:08:36.12	64.78	22.16	-53.3	-55.4	6.2	0.00e+00	0	44	104	0	77	19073
2026-01-30 17:08:37.13	64.42	22.23	-53.3	-55.4	6.2	0.00e+00	0	43	104	0	77	19140
2026-01-30 17:08:38.13	64.06	22.31	-53.3	-55.4	6.2	0.00e+00	0	43	104	0	77	19075
2026-01-30 17:08:39.14	63.70	22.39	-53.3	-55.3	6.2	0.00e+00	0	44	104	0	77	19010
2026-01-30 17:08:40.15	63.34	22.47	-53.3	-55.4	6.2	0.00e+00	0	44	104	0	77	19088
2026-01-30 17:08:41.16	62.97	22.54	-53.3	-55.4	6.2	0.00e+00	0	43	104	0	77	19176
2026-01-30 17:08:42.17	62.60	22.62	-53.3	-55.4	6.2	0.00e+00	0	43	104	0	77	19101
2026-01-30 17:08:43.17	62.24	22.69	-53.3	-55.4	6.2	0.00e+00	0	44	104	0	77	19043
2026-01-30 17:08:44.18	61.87	22.76	-53.3	-55.4	6.2	0.00e+00	0	44	104	0	77	19147
2026-01-30 17:08:45.19	61.49	22.84	-53.3	-55.4	6.2	0.00e+00	0	44	104	0	77	19164
2026-01-30 17:08:46.20	61.12	22.91	-53.3	-55.4	6.2	0.00e+00	0	43	104	0	77	19200
2026-01-30 17:08:47.21	60.74	22.98	-53.3	-55.4	6.2	0.00e+00	0	44	104	0	77	19150
2026-01-30 17:08:48.21	60.37	23.05	-53.3	-55.4	6.2	0.00e+00	0	43	104	0	77	19162
2026-01-30 17:08:49.22	59.99	23.12	-53.3	-55.4	6.2	0.00e+00	0	43	104	0	77	19213
2026-01-30 17:08:50.23	59.60	23.18	-53.3	-55.4	6.2	0.00e+00	0	44	104	0	77	19156
2026-01-30 17:08:51.24	59.22	23.25	-53.3	-55.4	6.2	0.00e+00	0	44	104	0	77	19074
2026-01-30 17:08:52.25	58.83	23.31	-53.3	-55.4	6.2	0.00e+00	0	44	104	0	77	19223
2026-01-30 17:08:53.25	58.45	23.38	-53.3	-55.4	6.2	0.00e+00	0	44	104	0	77	19234
2026-01-30 17:08:54.26	58.06	23.44	-53.3	-55.4	6.2	0.00e+00	0	44	104	0	77	19177
2026-01-30 17:08:55.27	57.67	23.50	-53.3	-55.4	6.2	0.00e+00	0	44	104	0	77	19186
2026-01-30 17:08:56.28	57.27	23.56	-53.3	-55.4	6.2	0.00e+00	0	44	104	0	77	19232
2026-01-30 17:08:57.29	56.88	23.62	-53.4	-55.5	6.2	0.00e+00	0	44	104	0	77	19348
2026-01-30 17:08:58.30	56.48	23.68	-53.4	-55.4	6.2	0.00e+00	0	43	104	0	77	19199
2026-01-30 17:08:59.31	56.08	23.74	-53.3	-55.4	6.2	0.00e+00	0	44	104	0	77	19182
2026-01-30 17:09:00.32	55.68	23.79	-53.4	-55.4	6.2	0.00e+00	0	44	104	0	77	19246
2026-01-30 17:09:01.33	55.28	23.85	-53.4	-55.5	6.2	0.00e+00	0	44	104	0	77	19301
2026-01-30 17:09:02.34	54.88	23.90	-53.4	-55.4	6.2	0.00e+00	0	44	104	0	77	19233
2026-01-30 17:09:03.34	54.48	23.95	-53.3	-55.4	6.2	0.00e+00	0	44	104	0	77	19244
2026-01-30 17:09:04.35	54.07	24.00	-53.4	-55.4	6.2	0.00e+00	0	44	104	0	77	19216
2026-01-30 17:09:05.36	53.66	24.05	-53.4	-55.4	6.2	0.00e+00	0	44	104	0	77	19256
2026-01-30 17:09:06.37	53.26	24.10	-53.4	-55.4	6.2	0.00e+00	0	44	104	0	77	19252
2026-01-30 17:09:07.38	52.85	24.15	-53.3	-55.4	6.2	0.00e+00	0	44	104	0	77	19252
2026-01-30 17:09:08.39	52.43	24.19	-53.4	-55.4	6.2	0.00e+00	0	44	104	0	77	19235
2026-01-30 17:09:09.40	52.02	24.24	-53.4	-55.5	6.2	0.00e+00	0	44	104	0	77	19329
2026-01-30 17:09:10.41	51.61	24.28	-53.4	-55.4	6.2	0.00e+00	0	43	104	0	77	19252
2026-01-30 17:09:11.41	51.20	24.32	-53.4	-55.4	6.2	0.00e+00	0	44	104	0	77	19234
2026-01-30 17:09:12.42	50.78	24.36	-53.4	-55.5	6.2	0.00e+00	0	44	104	0	77	19265
2026-01-30 17:09:13.43	50.36	24.40	-53.4	-55.5	6.2	0.00e+00	0	44	104	0	77	19344
2026-01-30 17:09:14.44	49.94	24.43	-53.4	-55.5	6.2	0.00e+00	0	44	104	0	77	19326
2026-01-30 17:09:15.45	49.52	24.47	-53.4	-55.5	6.2	0.00e+00	0	44	104	0	77	19282
2026-01-30 17:09:16.46	49.10	24.50	-53.4	-55.5	6.2	0.00e+00	0	44	104	0	77	19378
2026-01-30 17:09:17.47	48.68	24.54	-53.4	-55.5	6.2	0.00e+00	0	44	104	0	77	19333
2026-01-30 17:09:18.48	48.26	24.57	-53.4	-55.5	6.2	0.00e+00	0	44	104	0	77	19328
2026-01-30 17:09:19.49	47.84	24.60	-53.4	-55.5	6.2	0.00e+00	0	43	104	0	77	19371
2026-01-30 17:09:20.50	47.41	24.62	-53.4	-55.5	6.2	0.00e+00	0	44	104	0	77	19352
2026-01-30 17:09:21.51	46.99	24.65	-53.4	-55.5	6.2	0.00e+00	0	44	104	0	77	19387
2026-01-30 17:09:22.52	46.56	24.67	-53.4	-55.5	6.2	0.00e+00	0	44	104	0	77	19351
2026-01-30 17:09:23.53	46.13	24.70	-53.4	-55.5	6.2	0.00e+00	0	44	104	0	77	19319
2026-01-30 17:09:24.54	45.71	24.72	-53.4	-55.5	6.2	0.00e+00	0	44	104	0	77	19454
2026-01-30 17:09:25.55	45.28	24.74	-53.4	-55.5	6.2	0.00e+00	0	44	104	0	77	19471
2026-01-30 17:09:26.55	44.85	24.76	-53.4	-55.5	6.2	0.00e+00	0	44	104	0	77	19406
2026-01-30 17:09:27.56	44.43	24.77	-53.4	-55.5	6.2	0.00e+00	0	44	104	0	77	19458
2026-01-30 17:09:28.57	44.00	24.79	-53.4	-55.5	6.2	0.00e+00	0	44	104	0	77	19416
2026-01-30 17:09:29.57	43.57	24.80	-53.4	-55.5	6.2	0.00e+00	0	44	104	0	77	19398
2026-01-30 17:09:30.58	43.14	24.81	-53.4	-55.5	6.2	0.00e+00	0	44	104	0	77	19381
2026-01-30 17:09:31.59	42.71	24.82	-53.4	-55.5	6.2	0.00e+00	0	44	104	0	77	19433
2026-01-30 17:09:32.60	42.28	24.83	-53.5	-55.5	6.2	0.00e+00	0	44	104	0	77	19459
2026-01-30 17:09:33.61	41.85	24.84	-53.5	-55.5	6.2	0.00e+00	0	44	104	0	77	19436
2026-01-30 17:09:34.61	41.42	24.85	-53.4	-55.5	6.2	0.00e+00	0	44	104	0	77	19427
2026-01-30 17:09:35.62	40.99	24.85	-53.4	-55.5	6.2	0.00e+00	0	44	104	0	77	19478
2026-01-30 17:09:36.63	40.56	24.85	-53.5	-55.6	6.2	0.00e+00	0	44	104	0	77	19483
2026-01-30 17:09:37.64	40.13	24.85	-53.5	-55.5	6.2	0.00e+00	0	44	104	0	77	19452
2026-01-30 17:09:38.64	39.70	24.85	-53.4	-55.5	6.2	0.00e+00	0	44	104	0	77	19343
2026-01-30 17:09:39.65	39.27	24.85	-53.4	-55.5	6.2	0.00e+00	0	44	104	0	77	19440
2026-01-30 17:09:40.66	38.84	24.84	-53.5	-55.5	6.2	0.00e+00	0	44	104	0	77	19473
2026-01-30 17:09:41.67	38.41	24.84	-53.5	-55.5	6.2	0.00e+00	0	44	104	0	77	19453
2026-01-30 17:09:42.68	37.98	24.83	-53.4	-55.5	6.2	0.00e+00	0	44	104	0	77	19454
2026-01-30 17:09:43.69	37.54	24.82	-53.5	-55.5	6.2	0.00e+00	0	44	104	0	77	19452
2026-01-30 17:09:44.70	37.11	24.81	-53.5	-55.5	6.2	0.00e+00	0	44	104	0	77	19479
2026-01-30 17:09:45.71	36.68	24.80	-53.5	-55.6	6.2	0.00e+00	0	44	104	0	77	19581
2026-01-30 17:09:46.71	36.26	24.78	-53.4	-55.5	6.2	0.00e+00	0	44	104	0	77	19395
2026-01-30 17:09:47.72	35.83	24.77	-53.4	-55.5	6.2	0.00e+00	0	44	104	0	77	19451
2026-01-30 17:09:48.73	35.40	24.75	-53.5	-55.5	6.2	0.00e+00	0	44	104	0	77	19459
2026-01-30 17:09:49.74	34.97	24.73	-53.5	-55.5	6.2	0.00e+00	0	44	104	0	77	19465
2026-01-30 17:09:50.75	34.54	24.71	-53.4	-55.5	6.2	0.00e+00	0	44	104	0	77	19395
2026-01-30 17:09:51.76	34.12	24.69	-53.5	-55.5	6.2	0.00e+00	0	44	104	0	77	19467
2026-01-30 17:09:52.77	33.69	24.66	-53.5	-55.6	6.2	0.00e+00	0	44	104	0	77	19521
2026-01-30 17:09:53.78	33.27	24.64	-53.5	-55.6	6.2	0.00e+00	0	44	104	0	77	19482
2026-01-30 17:09:54.78	32.85	24.61	-53.4	-55.5	6.2	0.00e+00	0	44	104	0	77	19413
2026-01-30 17:09:55.79	32.42	24.58	-53.5	-55.6	6.2	0.00e+00	0	44	104	0	77	19482
2026-01-30 17:09:56.80	32.00	24.55	-53.5	-55.6	6.2	0.00e+00	0	44	104	0	77	19521
2026-01-30 17:09:57.81	31.58	24.52	-53.5	-55.5	6.2	0.00e+00	0	44	104	0	77	19455
2026-01-30 17:09:58.81	31.16	24.49	-53.4	-55.5	6.2	0.00e+00	0	44	104	0	77	19408
2026-01-30 17:09:59.82	30.74	24.46	-53.4	-55.5	6.2	0.00e+00	0	44	104	0	77	19409
2026-01-30 17:10:00.83	30.32	24.42	-53.5	-55.6	6.2	0.00e+00	0	44	104	0	77	19492
2026-01-30 17:10:01.84	29.90	24.38	-53.5	-55.5	6.2	0.00e+00	0	44	104	0	77	19465
2026-01-30 17:10:02.85	29.49	24.34	-53.4	-55.5	6.2	0.00e+00	0	44	104	0	77	19408
2026-01-30 17:10:03.86	29.07	24.30	-53.4	-55.6	6.2	0.00e+00	0	44	104	0	77	19480
2026-01-30 17:10:04.87	28.65	24.26	-53.5	-55.6	6.2	0.00e+00	0	44	104	0	77	19500
2026-01-30 17:10:05.88	28.24	24.22	-53.4	-55.5	6.2	0.00e+00	0	44	104	0	77	19384
2026-01-30 17:10:06.89	27.83	24.18	-53.4	-55.5	6.2	0.00e+00	0	44	104	0	77	19358
2026-01-30 17:10:07.90	27.42	24.13	-53.4	-55.5	6.2	0.00e+00	0	44	104	0	77	19438
2026-01-30 17:10:08.90	27.01	24.08	-53.5	-55.5	6.2	0.00e+00	0	44	104	0	77	19441
2026-01-30 17:10:09.91	26.60	24.03	-53.4	-55.5	6.2	0.00e+00	0	44	104	0	77	19410
2026-01-30 17:10:10.92	26.20	23.98	-53.4	-55.5	6.2	0.00e+00	0	44	104	0	77	19384
2026-01-30 17:10:11.93	25.79	23.93	-53.4	-55.5	6.2	0.00e+00	0	44	104	0	77	19461
2026-01-30 17:10:12.93	25.39	23.88	-53.5	-55.5	6.2	0.00e+00	0	44	104	0	77	19452
2026-01-30 17:10:13.94	24.99	23.83	-53.4	-55.5	6.2	0.00e+00	0	44	104	0	77	19470
2026-01-30 17:10:14.95	24.59	23.77	-53.4	-55.5	6.2	0.00e+00	0	44	104	0	77	19372
2026-01-30 17:10:15.96	24.19	23.72	-53.4	-55.5	6.2	0.00e+00	0	44	104	0	77	19435
2026-01-30 17:10:16.97	23.79	23.66	-53.4	-55.5	6.2	0.00e+00	0	44	104	0	77	19414
2026-01-30 17:10:17.98	23.40	23.60	-53.4	-55.5	6.2	0.00e+00	0	44	104	0	77	19448
2026-01-30 17:10:18.99	23.00	23.54	-53.4	-55.5	6.2	0.00e+00	0	44	104	0	77	19325
2026-01-30 17:10:19.99	22.61	23.48	-53.4	-55.5	6.2	0.00e+00	0	44	104	0	77	19400
2026-01-30 17:10:21.00	22.22	23.42	-53.4	-55.5	6.2	0.00e+00	0	44	104	0	77	19397
2026-01-30 17:10:22.01	21.83	23.35	-53.4	-55.5	6.2	0.00e+00	0	44	104	0	77	19406
2026-01-30 17:10:23.02	21.45	23.29	-53.4	-55.5	6.2	0.00e+00	0	44	104	0	77	19356
2026-01-30 17:10:24.03	21.06	23.22	-53.4	-55.5	6.2	0.00e+00	0	44	104	0	77	19459
2026-01-30 17:10:25.04	20.68	23.16	-53.4	-55.5	6.2	0.00e+00	0	44	104	0	77	19443
2026-01-30 17:10:26.05	20.30	23.09	-53.4	-55.5	6.2	0.00e+00	0	44	104	0	77	19386
2026-01-30 17:10:27.05	19.92	23.02	-53.4	-55.5	6.2	0.00e+00	0	44	104	0	77	19352
2026-01-30 17:10:28.06	19.54	22.95	-53.4	-55.5	6.2	0.00e+00	0	44	104	0	77	19383
2026-01-30 17:10:29.06	19.17	22.88	-53.4	-55.5	6.2	0.00e+00	0	44	104	0	77	19400
2026-01-30 17:10:30.07	18.79	22.81	-53.4	-55.5	6.2	0.00e+00	0	44	104	0	77	19363
2026-01-30 17:10:31.08	18.42	22.74	-53.4	-55.5	6.2	0.00e+00	0	44	104	0	77	19361
2026-01-30 17:10:32.09	18.05	22.66	-53.4	-55.5	6.2	0.00e+00	0	44	104	0	77	19388
2026-01-30 17:10:33.10	17.68	22.59	-53.4	-55.5	6.2	0.00e+00	0	44	104	0	77	19388
2026-01-30 17:10:34.11	17.32	22.51	-53.4	-55.5	6.2	0.00e+00	0	44	104	0	77	19323
2026-01-30 17:10:35.12	16.95	22.44	-53.4	-55.5	6.2	0.00e+00	0	44	104	0	77	19275
2026-01-30 17:10:36.13	16.59	22.36	-53.4	-55.5	6.2	0.00e+00	0	44	104	0	77	19324
2026-01-30 17:10:37.14	16.23	22.28	-53.4	-55.5	6.2	0.00e+00	0	44	104	0	77	19395
2026-01-30 17:10:38.14	15.87	22.20	-53.4	-55.5	6.2	0.00e+00	0	44	104	0	77	19365
2026-01-30 17:10:39.15	15.52	22.12	-53.4	-55.5	6.2	0.00e+00	0	44	104	0	77	19324
2026-01-30 17:10:40.16	15.16	22.04	-53.4	-55.5	6.2	0.00e+00	0	44	104	0	77	19376
2026-01-30 17:10:41.17	14.81	21.96	-53.4	-55.5	6.2	0.00e+00	0	44	104	0	77	19343
2026-01-30 17:10:42.18	14.46	21.88	-53.4	-55.5	6.2	0.00e+00	0	44	104	0	77	19359
2026-01-30 17:10:43.19	14.11	21.80	-53.4	-55.5	6.2	0.00e+00	0	44	104	0	77	19311
2026-01-30 17:10:44.19	13.77	21.72	-53.4	-55.5	6.2	0.00e+00	0	44	104	0	77	19272
2026-01-30 17:10:45.20	13.42	21.63	-53.4	-55.5	6.2	0.00e+00	0	44	104	0	77	19278
2026-01-30 17:10:46.21	13.08	21.55	-53.4	-55.5	6.2	0.00e+00	0	44	104	0	77	19318
2026-01-30 17:10:47.22	12.74	21.46	-53.4	-55.5	6.2	0.00e+00	0	44	104	0	77	19348
2026-01-30 17:10:48.23	12.40	21.38	-53.4	-55.5	6.2	0.00e+00	0	44	104	0	77	19291
2026-01-30 17:10:49.24	12.07	21.29	-53.4	-55.4	6.2	0.00e+00	0	44	104	0	77	19238
2026-01-30 17:10:50.25	11.73	21.20	-53.4	-55.5	6.2	0.00e+00	0	44	104	0	77	19258
2026-01-30 17:10:51.26	11.40	21.12	-53.4	-55.4	6.2	0.00e+00	0	44	104	0	77	19209
2026-01-30 17:10:52.26	11.07	21.03	-53.4	-55.4	6.2	0.00e+00	0	44	104	0	77	19256
2026-01-30 17:10:53.27	10.75	20.94	-53.4	-55.4	6.2	0.00e+00	0	44	104	0	77	19242
2026-01-30 17:10:54.28	10.42	20.85	-53.3	-55.5	6.2	0.00e+00	0	44	104	0	77	19279
2026-01-30 17:10:55.29	10.10	20.76	-53.3	-55.4	6.2	0.00e+00	0	44	104	0	77	19195
2026-01-30 17:10:56.30	9.78	20.67	-53.3	-55.5	6.2	0.00e+00	0	44	104	0	77	19264
2026-01-30 17:10:57.31	9.46	20.58	-53.4	-55.4	6.2	0.00e+00	0	44	104	0	77	19248
2026-01-30 17:10:58.31	9.14	20.49	-53.3	-55.5	6.2	0.00e+00	0	44	104	0	77	19258
2026-01-30 17:10:59.32	8.83	20.40	-53.3	-55.4	6.2	0.00e+00	0	44	104	0	77	19194
2026-01-30 17:11:00.33	8.52	20.31	-53.3	-55.4	6.2	0.00e+00	0	44	104	0	77	19178
2026-01-30 17:11:01.34	8.21	20.21	-53.3	-55.4	6.2	0.00e+00	0	44	104	0	77	19256
2026-01-30 17:11:02.34	7.90	20.12	-53.3	-55.4	6.2	0.00e+00	0	44	104	0	77	19238
2026-01-30 17:11:03.35	7.60	20.03	-53.3	-55.4	6.2	0.00e+00	0	44	104	0	77	19190
2026-01-30 17:11:04.36	7.29	19.93	-53.3	-55.4	6.2	0.00e+00	0	44	104	0	77	19170
2026-01-30 17:11:05.37	6.99	19.84	-53.3	-55.4	6.2	0.00e+00	0	44	104	0	77	19205
2026-01-30 17:11:06.38	6.69	19.75	-53.3	-55.4	6.2	0.00e+00	0	44	104	0	77	19143
2026-01-30 17:11:07.39	6.39	19.65	-53.3	-55.4	6.2	0.00e+00	0	44	104	0	77	19088
2026-01-30 17:11:08.40	6.10	19.56	-53.3	-55.4	6.2	0.00e+00	0	44	104	0	77	19131
2026-01-30 17:11:09.41	5.80	19.46	-53.3	-55.4	6.2	0.00e+00	0	44	104	0	77	19196
2026-01-30 17:11:10.41	5.51	19.37	-53.3	-55.4	6.2	0.00e+00	0	44	104	0	77	19094
2026-01-30 17:11:11.42	5.22	19.27	-53.3	-55.4	6.2	0.00e+00	0	44	104	0	77	19093
2026-01-30 17:11:12.43	4.94	19.18	-53.3	-55.4	6.2	0.00e+00	0	44	104	0	77	19100
2026-01-30 17:11:13.44	4.65	19.08	-53.3	-55.4	6.2	0.00e+00	0	44	104	0	77	19076
2026-01-30 17:11:14.44	4.37	18.99	-53.3	-55.4	6.2	0.00e+00	0	44	104	0	77	19141
2026-01-30 17:11:15.45	4.09	18.89	-53.3	-55.4	6.2	0.00e+00	0	44	104	0	77	19108
2026-01-30 17:11:16.46	3.81	18.79	-53.3	-55.3	6.2	0.00e+00	0	44	104	0	77	19012
2026-01-30 17:11:17.47	3.53	18.70	-53.3	-55.4	6.2	0.00e+00	0	44	104	0	77	19076
2026-01-30 17:11:18.48	3.26	18.60	-53.3	-55.4	6.2	0.00e+00	0	44	104	0	77	19057
2026-01-30 17:11:19.49	2.98	18.50	-53.3	-55.4	6.2	0.00e+00	0	44	104	0	77	19086
2026-01-30 17:11:20.50	2.71	18.41	-53.2	-55.3	6.2	0.00e+00	0	44	104	0	77	18950
2026-01-30 17:11:21.51	2.44	18.31	-53.3	-55.3	6.2	0.00e+00	0	44	104	0	77	19013
2026-01-30 17:11:22.52	2.17	18.21	-53.2	-55.3	6.2	0.00e+00	0	44	104	0	77	18932
2026-01-30 17:11:23.52	1.91	18.11	-53.2	-55.3	6.2	0.00e+00	0	44	104	0	77	18999
2026-01-30 17:11:24.53	1.65	18.02	-53.2	-55.3	6.2	0.00e+00	0	44	104	0	77	18963
2026-01-30 17:11:25.54	1.39	17.92	-53.2	-55.3	6.2	0.00e+00	0	44	104	0	77	19001
2026-01-30 17:11:26.55	1.13	17.82	-53.2	-55.3	6.2	0.00e+00	0	44	104	0	77	18948
2026-01-30 17:11:27.56	0.87	17.72	-53.2	-55.3	6.2	0.00e+00	0	44	104	0	77	18949
2026-01-30 17:11:28.57	0.61	17.63	-53.2	-55.3	6.2	0.00e+00	0	44	104	0	77	18892
2026-01-30 17:11:29.58	0.36	17.53	-53.2	-55.3	6.2	0.00e+00	0	44	104	0	77	18917
2026-01-30 17:11:30.59	0.11	17.43	-53.2	-55.3	6.2	0.00e+00	0	44	104	0	77	18895
2026-01-30 17:11:31.60	359.86	17.33	-53.2	-55.3	6.2	0.00e+00	0	44	104	0	77	18939
2026-01-30 17:11:32.61	359.61	17.23	-53.2	-55.3	6.2	0.00e+00	0	44	104	0	77	18901
2026-01-30 17:11:33.61	359.36	17.14	-53.2	-55.3	6.2	0.00e+00	0	44	104	0	77	18866
2026-01-30 17:11:34.62	359.12	17.04	-53.2	-55.3	6.2	0.00e+00	0	44	104	0	77	18921
2026-01-30 17:11:35.63	358.88	16.94	-53.2	-55.3	6.2	0.00e+00	0	44	104	0	77	18919
2026-01-30 17:11:36.64	358.63	16.84	-53.2	-55.3	6.2	0.00e+00	0	44	104	0	77	18864
2026-01-30 17:11:37.65	358.40	16.74	-53.2	-55.3	6.2	0.00e+00	0	44	104	0	77	18853
2026-01-30 17:11:38.66	358.16	16.65	-53.2	-55.2	6.2	0.00e+00	0	44	104	0	77	18770
2026-01-30 17:11:39.66	357.92	16.55	-53.2	-55.2	6.2	0.00e+00	0	44	104	0	77	18814
2026-01-30 17:11:40.67	357.69	16.45	-53.2	-55.3	6.2	0.00e+00	0	44	104	0	77	18843
2026-01-30 17:11:41.68	357.46	16.35	-53.1	-55.3	6.2	0.00e+00	0	44	104	0	77	18833
2026-01-30 17:11:42.69	357.23	16.26	-53.1	-55.2	6.2	0.00e+00	0	44	104	0	77	18767
2026-01-30 17:11:43.70	357.00	16.16	-53.1	-55.2	6.2	0.00e+00	0	44	104	0	77	18784
2026-01-30 17:11:44.71	356.77	16.06	-53.1	-55.2	6.2	0.00e+00	0	44	104	0	77	18782
2026-01-30 17:11:45.72	356.55	15.96	-53.1	-55.2	6.2	0.00e+00	0	44	104	0	77	18782
2026-01-30 17:11:46.73	356.32	15.87	-53.1	-55.2	6.2	0.00e+00	0	44	104	0	77	18651
2026-01-30 17:11:47.73	356.10	15.77	-53.1	-55.2	6.2	0.00e+00	0	44	104	0	77	18717
2026-01-30 17:11:48.74	355.88	15.67	-53.1	-55.2	6.2	0.00e+00	0	44	104	0	77	18751
2026-01-30 17:11:49.74	355.67	15.58	-53.1	-55.2	6.2	0.00e+00	0	44	104	0	77	18693
2026-01-30 17:11:50.76	355.45	15.48	-53.1	-55.2	6.2	0.00e+00	0	44	104	0	77	18640
2026-01-30 17:11:51.77	355.23	15.38	-53.1	-55.2	6.2	0.00e+00	0	44	104	0	77	18668
2026-01-30 17:11:52.77	355.02	15.29	-53.1	-55.2	6.2	0.00e+00	0	44	104	0	77	18668
2026-01-30 17:11:53.78	354.81	15.19	-53.1	-55.1	6.2	0.00e+00	0	44	104	0	77	18591
2026-01-30 17:11:54.79	354.60	15.09	-53.1	-55.2	6.2	0.00e+00	0	44	104	0	77	18630
2026-01-30 17:11:55.80	354.39	15.00	-53.1	-55.2	6.2	0.00e+00	0	44	104	0	77	18613
2026-01-30 17:11:56.81	354.18	14.90	-53.1	-55.2	6.2	0.00e+00	0	44	104	0	77	18606
2026-01-30 17:11:57.82	353.98	14.80	-53.1	-55.1	6.2	0.00e+00	0	44	104	0	77	18569
2026-01-30 17:11:58.82	353.78	14.71	-53.0	-55.1	6.2	0.00e+00	0	44	104	0	77	18572
2026-01-30 17:11:59.83	353.57	14.61	-53.1	-55.2	6.2	0.00e+00	0	44	104	0	77	18635
2026-01-30 17:12:00.84	353.37	14.52	-53.0	-55.1	6.2	0.00e+00	0	44	104	0	77	18565
2026-01-30 17:12:01.85	353.17	14.42	-53.0	-55.1	6.2	0.00e+00	0	44	104	0	77	18497
2026-01-30 17:12:02.86	352.97	14.33	-53.0	-55.1	6.2	0.00e+00	0	44	104	0	77	18492
2026-01-30 17:12:03.86	352.78	14.23	-53.0	-55.1	6.2	0.00e+00	0	44	104	0	77	18534
2026-01-30 17:12:04.87	352.58	14.14	-53.0	-55.1	6.2	0.00e+00	0	44	104	0	77	18513
2026-01-30 17:12:05.88	352.39	14.04	-53.0	-55.1	6.2	0.00e+00	0	44	104	0	77	18510
2026-01-30 17:12:06.89	352.20	13.95	-53.0	-55.1	6.2	0.00e+00	0	44	104	0	77	18434
2026-01-30 17:12:07.90	352.01	13.85	-53.0	-55.1	6.2	0.00e+00	0	44	104	0	77	18519
2026-01-30 17:12:08.90	351.82	13.76	-53.0	-55.1	6.2	0.00e+00	0	44	104	0	77	18535
2026-01-30 17:12:09.91	351.63	13.66	-53.0	-55.1	6.2	0.00e+00	0	44	104	0	77	18446
2026-01-30 17:12:10.92	351.45	13.57	-53.0	-55.1	6.2	0.00e+00	0	44	104	0	77	18450
2026-01-30 17:12:11.93	351.26	13.48	-53.0	-55.1	6.2	0.00e+00	0	44	104	0	77	18406
2026-01-30 17:12:12.94	351.08	13.38	-53.0	-55.1	6.2	0.00e+00	0	44	104	0	77	18404
2026-01-30 17:12:13.95	350.90	13.29	-53.0	-55.0	6.2	0.00e+00	0	44	104	0	77	18368
2026-01-30 17:12:14.96	350.71	13.20	-52.9	-55.0	6.2	0.00e+00	0	44	104	0	77	18377
2026-01-30 17:12:15.97	350.53	13.10	-53.0	-55.1	6.2	0.00e+00	0	44	104	0	77	18398
2026-01-30 17:12:16.97	350.36	13.01	-52.9	-55.0	6.2	0.00e+00	0	44	104	0	77	18342
2026-01-30 17:12:17.98	350.18	12.92	-52.9	-55.0	6.2	0.00e+00	0	44	104	0	77	18302
2026-01-30 17:12:18.99	350.01	12.83	-52.9	-55.0	6.2	0.00e+00	0	44	104	0	77	18250
2026-01-30 17:12:20.00	349.83	12.74	-52.9	-55.0	6.2	0.00e+00	0	44	104	0	77	18357
2026-01-30 17:12:21.01	349.66	12.64	-52.9	-55.0	6.2	0.00e+00	0	44	104	0	77	18274
2026-01-30 17:12:22.02	349.49	12.55	-52.9	-55.0	6.2	0.00e+00	0	44	104	0	77	18246
2026-01-30 17:12:23.03	349.32	12.46	-52.9	-55.0	6.2	0.00e+00	0	44	104	0	77	18296
2026-01-30 17:12:24.04	349.15	12.37	-52.9	-55.0	6.2	0.00e+00	0	43	104	0	77	18310
2026-01-30 17:12:25.05	348.98	12.28	-52.9	-55.0	6.2	0.00e+00	0	44	104	0	77	18317
2026-01-30 17:12:26.06	348.81	12.19	-52.9	-55.0	6.2	0.00e+00	0	44	104	0	77	18300
2026-01-30 17:12:27.06	348.65	12.10	-52.9	-55.0	6.2	0.00e+00	0	44	104	0	77	18223
2026-01-30 17:12:28.07	348.48	12.01	-52.9	-55.0	6.2	0.00e+00	0	44	104	0	77	18271
2026-01-30 17:12:29.08	348.32	11.92	-52.9	-55.0	6.2	0.00e+00	0	44	104	0	77	18256
2026-01-30 17:12:30.09	348.16	11.83	-52.9	-55.0	6.2	0.00e+00	0	44	104	0	77	18189
2026-01-30 17:12:31.10	348.00	11.74	-52.9	-54.9	6.2	0.00e+00	0	44	104	0	77	18151
2026-01-30 17:12:32.10	347.84	11.65	-52.9	-55.0	6.2	0.00e+00	0	44	104	0	77	18264
2026-01-30 17:12:33.11	347.68	11.56	-52.9	-55.0	6.2	0.00e+00	0	44	104	0	77	18199
2026-01-30 17:12:34.12	347.52	11.47	-52.9	-54.9	6.2	0.00e+00	0	44	104	0	77	18142
2026-01-30 17:12:35.12	347.37	11.38	-52.8	-54.9	6.2	0.00e+00	0	44	104	0	77	18119
2026-01-30 17:12:36.13	347.22	11.29	-52.9	-54.9	6.2	0.00e+00	0	44	104	0	77	18176
2026-01-30 17:12:37.14	347.06	11.20	-52.8	-54.9	6.2	0.00e+00	0	44	104	0	77	18114
2026-01-30 17:12:38.15	346.91	11.12	-52.8	-54.9	6.2	0.00e+00	0	44	104	0	77	18126
2026-01-30 17:12:39.16	346.76	11.03	-52.8	-54.9	6.2	0.00e+00	0	44	104	0	77	18134
2026-01-30 17:12:40.17	346.61	10.94	-52.8	-54.9	6.2	0.00e+00	0	44	104	0	77	18082
2026-01-30 17:12:41.17	346.46	10.85	-52.8	-54.9	6.2	0.00e+00	0	44	104	0	77	18054
2026-01-30 17:12:42.18	346.31	10.77	-52.8	-54.9	6.2	0.00e+00	0	44	104	0	77	18026
2026-01-30 17:12:43.19	346.16	10.68	-52.8	-54.9	6.2	0.00e+00	0	44	104	0	77	18029
2026-01-30 17:12:44.20	346.02	10.59	-52.8	-54.9	6.2	0.00e+00	0	44	104	0	77	18126
2026-01-30 17:12:45.21	345.87	10.51	-52.8	-54.9	6.2	0.00e+00	0	44	104	0	77	18001
2026-01-30 17:12:46.22	345.73	10.42	-52.8	-54.8	6.2	0.00e+00	0	44	104	0	77	17939
2026-01-30 17:12:47.22	345.59	10.33	-52.8	-54.9	6.2	0.00e+00	0	44	104	0	77	17982
2026-01-30 17:12:48.23	345.44	10.25	-52.8	-54.8	6.2	0.00e+00	0	44	104	0	77	17953
2026-01-30 17:12:49.24	345.30	10.16	-52.7	-54.8	6.2	0.00e+00	0	44	104	0	77	17947
2026-01-30 17:12:50.25	345.16	10.08	-52.7	-54.8	6.2	0.00e+00	0	44	104	0	77	17942
2026-01-30 17:12:51.26	345.02	9.99	-52.7	-54.8	6.2	0.00e+00	0	44	104	0	77	17927
2026-01-30 17:12:52.27	344.89	9.91	-52.7	-54.8	6.2	0.00e+00	0	44	104	0	77	17917
2026-01-30 17:12:53.27	344.75	9.82	-52.7	-54.8	6.2	0.00e+00	0	44	104	0	77	17835
2026-01-30 17:12:54.28	344.61	9.74	-52.7	-54.8	6.2	0.00e+00	0	44	104	0	77	17796
2026-01-30 17:12:55.29	344.48	9.65	-52.7	-54.8	6.2	0.00e+00	0	44	104	0	77	17916
2026-01-30 17:12:56.30	344.34	9.57	-52.7	-54.8	6.2	0.00e+00	0	44	104	0	77	17806
2026-01-30 17:12:57.31	344.21	9.49	-52.7	-54.7	6.2	0.00e+00	0	44	104	0	77	17726
2026-01-30 17:12:58.32	344.08	9.40	-52.6	-54.8	6.2	0.00e+00	0	44	104	0	77	17772
2026-01-30 17:12:59.33	343.95	9.32	-52.7	-54.7	6.2	0.00e+00	0	44	104	0	77	17764
2026-01-30 17:13:00.34	343.82	9.24	-52.6	-54.7	6.2	0.00e+00	0	44	104	0	77	17718
2026-01-30 17:13:01.35	343.69	9.15	-52.6	-54.7	6.2	0.00e+00	0	44	104	0	77	17618
2026-01-30 17:13:02.35	343.56	9.07	-52.6	-54.7	6.2	0.00e+00	0	44	104	0	77	17640
2026-01-30 17:13:03.36	343.43	8.99	-52.6	-54.7	6.2	0.00e+00	0	44	104	0	77	17662
2026-01-30 17:13:04.37	343.30	8.91	-52.6	-54.7	6.2	0.00e+00	0	44	104	0	77	17623
2026-01-30 17:13:05.38	343.18	8.82	-52.5	-54.6	6.2	0.00e+00	0	44	104	0	77	17532
2026-01-30 17:13:06.39	343.05	8.74	-52.5	-54.6	6.2	0.00e+00	0	44	104	0	77	17544
2026-01-30 17:13:07.40	342.93	8.66	-52.6	-54.6	6.2	0.00e+00	0	44	104	0	77	17558
2026-01-30 17:13:08.40	342.81	8.58	-52.5	-54.7	6.2	0.00e+00	0	44	104	0	77	17585
2026-01-30 17:13:09.41	342.68	8.50	-52.5	-54.6	6.2	0.00e+00	0	44	104	0	77	17458
2026-01-30 17:13:10.42	342.56	8.42	-52.5	-54.6	6.2	0.00e+00	0	44	104	0	77	17412
2026-01-30 17:13:11.43	342.44	8.34	-52.5	-54.6	6.2	0.00e+00	0	44	104	0	77	17437
2026-01-30 17:13:12.44	342.32	8.26	-52.5	-54.6	6.2	0.00e+00	0	44	104	0	77	17431
2026-01-30 17:13:13.45	342.20	8.18	-52.4	-54.5	6.2	0.00e+00	0	44	104	0	76	18335
2026-01-30 17:13:14.45	342.08	8.10	-52.5	-54.6	6.2	0.00e+00	0	44	104	0	76	18393
2026-01-30 17:13:15.46	341.97	8.02	-52.5	-54.5	6.2	0.00e+00	0	44	104	0	76	18378
2026-01-30 17:13:16.47	341.85	7.94	-52.4	-54.5	6.2	0.00e+00	0	44	104	0	76	18339
2026-01-30 17:13:17.48	341.73	7.86	-52.4	-54.4	6.2	0.00e+00	0	44	104	0	76	18131
2026-01-30 17:13:18.49	341.62	7.78	-52.4	-54.5	6.2	0.00e+00	0	44	104	0	76	18218
2026-01-30 17:13:19.49	341.50	7.70	-52.4	-54.5	6.2	0.00e+00	0	44	104	0	76	18366
2026-01-30 17:13:20.50	341.39	7.62	-52.3	-54.4	6.2	0.00e+00	0	44	104	0	76	17990
2026-01-30 17:13:21.51	341.28	7.54	-52.2	-54.2	6.2	0.00e+00	0	44	104	0	76	17676
2026-01-30 17:13:22.52	341.17	7.47	-52.2	-54.2	6.2	0.00e+00	0	44	104	0	75	18786
2026-01-30 17:13:23.52	341.06	7.39	-52.2	-54.2	6.2	0.00e+00	0	44	104	0	75	18723
2026-01-30 17:13:24.53	340.94	7.31	-52.3	-54.4	6.2	0.00e+00	0	44	104	0	75	19215
2026-01-30 17:13:25.54	340.83	7.23	-52.3	-54.4	6.2	0.00e+00	0	44	104	0	75	19251
2026-01-30 17:13:26.55	340.73	7.15	-52.3	-54.4	6.2	0.00e+00	0	44	104	0	75	19174
2026-01-30 17:13:27.56	340.62	7.08	-52.3	-54.4	6.2	0.00e+00	0	44	104	0	75	19200
2026-01-30 17:13:28.57	340.51	7.00	-52.3	-54.4	6.2	0.00e+00	0	44	104	0	75	19141
2026-01-30 17:13:29.57	340.40	6.92	-52.3	-54.4	6.2	0.00e+00	0	44	104	0	75	19157
2026-01-30 17:13:30.58	340.30	6.85	-52.3	-54.4	6.2	0.00e+00	0	44	104	0	75	19146
2026-01-30 17:13:31.59	340.19	6.77	-52.4	-54.4	6.2	0.00e+00	0	44	104	0	75	19236
2026-01-30 17:13:32.60	340.08	6.70	-52.3	-54.4	6.2	0.00e+00	0	44	104	0	75	19095
2026-01-30 17:13:33.60	339.98	6.62	-52.3	-54.4	6.2	0.00e+00	0	44	104	0	75	19067
2026-01-30 17:13:34.61	339.88	6.54	-52.3	-54.4	6.2	0.00e+00	0	44	104	0	75	19117
2026-01-30 17:13:35.61	339.78	6.47	-52.3	-54.4	6.2	0.00e+00	0	44	104	0	75	19197
2026-01-30 17:13:36.62	339.67	6.39	-52.2	-54.3	6.2	0.00e+00	0	44	104	0	75	18994
2026-01-30 17:13:37.63	339.57	6.32	-52.2	-54.3	6.2	0.00e+00	0	44	104	0	75	18972
2026-01-30 17:13:38.64	339.47	6.24	-52.3	-54.3	6.2	0.00e+00	0	44	104	0	75	19014
2026-01-30 17:13:39.65	339.37	6.17	-52.3	-54.4	6.2	0.00e+00	0	44	104	0	75	19110
2026-01-30 17:13:40.66	339.27	6.10	-52.2	-54.3	6.2	0.00e+00	0	44	104	0	75	18922
2026-01-30 17:13:41.67	339.17	6.02	-52.2	-54.3	6.2	0.00e+00	0	44	104	0	75	18827
2026-01-30 17:13:42.68	339.07	5.95	-52.2	-54.3	6.2	0.00e+00	0	44	104	0	75	18967
2026-01-30 17:13:43.69	338.97	5.87	-52.2	-54.4	6.2	0.00e+00	0	44	104	0	75	19040
2026-01-30 17:13:44.70	338.88	5.80	-52.1	-54.2	6.2	0.00e+00	0	44	104	0	75	18729
2026-01-30 17:13:45.71	338.78	5.73	-52.1	-54.2	6.2	0.00e+00	0	44	104	0	75	18757
2026-01-30 17:13:46.71	338.69	5.65	-52.2	-54.3	6.2	0.00e+00	0	44	104	0	75	18852
2026-01-30 17:13:47.72	338.59	5.58	-52.2	-54.3	6.2	0.00e+00	0	44	104	0	75	18863
2026-01-30 17:13:48.73	338.50	5.51	-52.1	-54.2	6.2	0.00e+00	0	44	104	0	75	18638
2026-01-30 17:13:49.74	338.40	5.43	-52.1	-54.2	6.2	0.00e+00	0	44	104	0	75	18659
2026-01-30 17:13:50.75	338.31	5.36	-52.1	-54.2	6.2	0.00e+00	0	44	104	0	75	18797
2026-01-30 17:13:51.75	338.22	5.29	-52.2	-54.2	6.2	0.00e+00	0	44	104	0	75	18790
2026-01-30 17:13:52.76	338.12	5.22	-52.0	-54.1	6.2	0.00e+00	0	44	104	0	75	18431
2026-01-30 17:13:53.76	338.03	5.15	-52.0	-54.1	6.2	0.00e+00	0	44	104	0	75	18532
2026-01-30 17:13:54.77	337.94	5.07	-52.1	-54.2	6.2	0.00e+00	0	44	104	0	75	18632
2026-01-30 17:13:55.78	337.85	5.00	-52.2	-54.3	6.2	0.00e+00	0	44	104	0	75	18983
2026-01-30 17:13:56.79	337.76	4.93	-52.9	-55.0	6.2	0.00e+00	0	44	104	0	76	19317
2026-01-30 17:13:57.80	337.67	4.86	-53.2	-55.3	6.2	0.00e+00	0	44	104	0	76	20039
2026-01-30 17:13:58.81	337.58	4.79	-53.5	-55.6	6.2	0.00e+00	0	44	104	0	77	19569
2026-01-30 17:13:59.82	337.49	4.72	-53.7	-55.8	6.2	0.00e+00	0	44	104	0	77	19960
2026-01-30 17:14:00.83	337.40	4.65	-53.8	-55.9	6.2	0.00e+00	0	44	104	0	78	19184
2026-01-30 17:14:01.84	337.32	4.58	-53.9	-56.0	6.2	0.00e+00	0	44	104	0	78	19340
2026-01-30 17:14:02.85	337.23	4.51	-53.9	-56.0	6.2	0.00e+00	0	44	104	0	78	19386
2026-01-30 17:14:03.85	337.14	4.44	-53.9	-56.0	6.2	0.00e+00	0	44	104	0	78	19382
2026-01-30 17:14:04.86	337.06	4.37	-53.9	-56.0	6.2	0.00e+00	0	44	104	0	78	19397
2026-01-30 17:14:05.87	336.97	4.30	-53.9	-56.0	6.2	0.00e+00	0	44	104	0	78	19305
2026-01-30 17:14:06.88	336.89	4.23	-53.8	-55.9	6.2	0.00e+00	0	44	104	0	78	19201
2026-01-30 17:14:07.89	336.80	4.16	-53.7	-55.8	6.2	0.00e+00	0	44	104	0	78	18914
2026-01-30 17:14:08.90	336.72	4.09	-53.5	-55.6	6.2	0.00e+00	0	44	104	0	78	18540
2026-01-30 17:14:09.91	336.64	4.02	-53.4	-55.6	6.2	0.00e+00	0	44	104	0	78	18393
2026-01-30 17:14:10.91	336.56	3.95	-53.5	-55.6	6.2	0.00e+00	0	44	104	0	78	18431
2026-01-30 17:14:11.92	336.47	3.88	-53.5	-55.6	6.2	0.00e+00	0	44	104	0	78	18467
2026-01-30 17:14:12.93	336.39	3.81	-53.5	-55.6	6.2	0.00e+00	0	44	104	0	78	18553
2026-01-30 17:14:13.94	336.31	3.75	-53.5	-55.7	6.2	0.00e+00	0	44	104	0	78	18613
2026-01-30 17:14:14.94	336.23	3.68	-53.5	-55.6	6.2	0.00e+00	0	44	104	0	78	18576
2026-01-30 17:14:15.95	336.15	3.61	-53.5	-55.6	6.2	0.00e+00	0	44	104	0	78	18569
2026-01-30 17:14:16.96	336.07	3.54	-53.5	-55.6	6.2	0.00e+00	0	44	104	0	78	18601
2026-01-30 17:14:17.97	335.99	3.47	-53.5	-55.6	6.2	0.00e+00	0	44	104	0	78	18459
2026-01-30 17:14:18.98	335.91	3.41	-53.4	-55.5	6.2	0.00e+00	0	44	104	0	78	18386
2026-01-30 17:14:19.99	335.83	3.34	-53.4	-55.5	6.2	0.00e+00	0	44	104	0	78	18351
2026-01-30 17:14:21.00	335.76	3.27	-53.4	-55.5	6.2	0.00e+00	0	44	104	0	78	18335
2026-01-30 17:14:22.00	335.68	3.21	-53.4	-55.5	6.2	0.00e+00	0	44	104	0	78	18260
2026-01-30 17:14:23.01	335.60	3.14	-53.4	-55.5	6.2	0.00e+00	0	44	104	0	78	18316
2026-01-30 17:14:24.01	335.53	3.07	-53.4	-55.5	6.2	0.00e+00	0	44	104	0	78	18243
2026-01-30 17:14:25.02	335.45	3.01	-53.4	-55.5	6.2	0.00e+00	0	44	104	0	78	18232
2026-01-30 17:14:26.03	335.37	2.94	-53.4	-55.5	6.2	0.00e+00	0	44	104	0	78	18213
2026-01-30 17:14:27.04	335.30	2.87	-53.4	-55.4	6.2	0.00e+00	0	44	104	0	78	18179
2026-01-30 17:14:28.04	335.22	2.81	-53.3	-55.5	6.2	0.00e+00	0	44	104	0	78	18227
2026-01-30 17:14:29.05	335.15	2.74	-53.4	-55.5	6.2	0.00e+00	0	44	104	0	78	18197
2026-01-30 17:14:30.06	335.08	2.68	-53.3	-55.4	6.2	0.00e+00	0	44	104	0	78	18062
2026-01-30 17:14:31.07	335.00	2.61	-53.3	-55.4	6.2	0.00e+00	0	44	104	0	78	18073
2026-01-30 17:14:32.08	334.93	2.55	-53.3	-55.4	6.2	0.00e+00	0	44	104	0	78	18178
2026-01-30 17:14:33.09	334.86	2.48	-53.3	-55.4	6.2	0.00e+00	0	44	104	0	78	18045
2026-01-30 17:14:34.09	334.79	2.42	-53.3	-55.4	6.2	0.00e+00	0	44	104	0	78	18025
2026-01-30 17:14:35.10	334.71	2.35	-53.3	-55.4	6.2	0.00e+00	0	44	104	0	78	18047
2026-01-30 17:14:36.11	334.64	2.29	-53.3	-55.4	6.2	0.00e+00	0	44	104	0	78	18026
2026-01-30 17:14:37.12	334.57	2.22	-53.3	-55.3	6.2	0.00e+00	0	44	104	0	78	17970
2026-01-30 17:14:38.13	334.50	2.16	-53.3	-55.4	6.2	0.00e+00	0	44	104	0	78	18045
2026-01-30 17:14:39.13	334.43	2.09	-53.3	-55.3	6.2	0.00e+00	0	44	104	0	78	17959
2026-01-30 17:14:40.14	334.36	2.03	-53.3	-55.4	6.2	0.00e+00	0	44	104	0	78	17975

#Closed at: 2026-01-30 17:14:41
#Recorded file [0 MB]: D:/lorett/data/31041_260130_200435.dat