passes_logs/2026/01/30/R3.2S_Murmansk/R3.2S_Murmansk__20260130_140636_FENGYUN_3D_rec.log

#Pass ID: 20260130_140636_FENGYUN 3D
#Satellite: FENGYUN 3D
#Configuration: FENGYUN 3D
#almurnet v.1.7.20251203
#Start time: 2026-01-30 14:06:36

#Version: 2.2.20231116
#Station: R3.2S_Murmansk
#Location: 33.079688 lon 68.888172 lat
#TLE: 1 43010U 17072A   26029.52179110  .00000394  00000+0  20818-3 0  9997
#TLE: 2 43010  98.9957   1.5649 0002507  83.7772 276.3689 14.19703315425310

#Time	Az	El	Level	Level2	SNR	BER	BlckErr	Temp	State	Recorded	gain1	gain2
2026-01-30 14:06:36.24	215.47	2.01	-54.1	-66.1	3.8	8.47e-01	0	39	0	0	79	14651
2026-01-30 14:06:37.25	215.55	2.07	-54.1	-66.1	3.8	8.47e-01	0	39	104	0	78	15506
2026-01-30 14:06:38.25	215.62	2.12	-54.1	-66.1	3.8	8.46e-01	0	39	104	0	78	15533
2026-01-30 14:06:39.26	215.70	2.18	-54.1	-66.1	3.8	8.46e-01	0	39	104	0	78	15416
2026-01-30 14:06:40.27	215.77	2.23	-54.1	-66.0	3.8	8.46e-01	0	39	104	0	78	15387
2026-01-30 14:06:41.28	215.85	2.29	-54.1	-66.1	3.8	8.47e-01	0	39	104	0	78	15426
2026-01-30 14:06:42.29	215.93	2.34	-54.1	-66.0	3.8	8.46e-01	0	39	104	0	78	15396
2026-01-30 14:06:43.29	216.00	2.40	-54.1	-66.0	3.8	8.47e-01	0	39	104	0	78	15351
2026-01-30 14:06:44.30	216.08	2.45	-54.1	-66.0	3.8	8.46e-01	0	39	104	0	78	15354
2026-01-30 14:06:45.31	216.16	2.51	-54.0	-66.0	3.8	8.45e-01	0	39	104	0	78	15327
2026-01-30 14:06:46.31	216.24	2.56	-54.1	-66.0	3.8	8.46e-01	0	39	104	0	78	15347
2026-01-30 14:06:47.32	216.31	2.62	-54.0	-66.0	3.8	8.45e-01	0	39	104	0	78	15346
2026-01-30 14:06:48.33	216.39	2.67	-54.1	-66.0	3.8	8.46e-01	0	39	104	0	78	15333
2026-01-30 14:06:49.33	216.47	2.73	-54.0	-66.0	3.8	8.47e-01	0	39	104	0	78	15309
2026-01-30 14:06:50.34	216.55	2.78	-54.0	-66.0	3.8	8.47e-01	0	39	104	0	78	15288
2026-01-30 14:06:51.35	216.63	2.84	-54.0	-66.0	3.8	8.47e-01	0	39	104	0	78	15321
2026-01-30 14:06:52.36	216.71	2.89	-54.0	-66.0	3.8	8.46e-01	0	39	104	0	78	15349
2026-01-30 14:06:53.37	216.79	2.95	-54.0	-66.0	3.8	8.46e-01	0	39	104	0	78	15318
2026-01-30 14:06:54.37	216.87	3.00	-54.0	-66.0	3.8	8.46e-01	0	39	104	0	78	15271
2026-01-30 14:06:55.38	216.95	3.06	-54.0	-66.0	3.8	8.46e-01	0	39	104	0	78	15370
2026-01-30 14:06:56.39	217.03	3.12	-54.0	-66.0	3.8	8.46e-01	0	39	104	0	78	15303
2026-01-30 14:06:57.40	217.11	3.17	-54.0	-66.0	3.8	8.46e-01	0	39	104	0	78	15292
2026-01-30 14:06:58.41	217.19	3.23	-54.0	-66.0	3.8	8.47e-01	0	39	104	0	78	15316
2026-01-30 14:06:59.42	217.27	3.28	-54.0	-66.0	3.8	8.46e-01	0	39	104	0	78	15283
2026-01-30 14:07:00.42	217.35	3.34	-54.0	-66.0	3.8	8.47e-01	0	39	104	0	78	15247
2026-01-30 14:07:01.43	217.43	3.39	-54.1	-66.0	3.8	8.46e-01	0	40	104	0	78	15347
2026-01-30 14:07:02.44	217.52	3.45	-54.0	-66.0	3.8	8.47e-01	0	40	104	0	78	15306
2026-01-30 14:07:03.44	217.60	3.51	-54.0	-66.0	3.8	8.46e-01	0	40	104	0	78	15285
2026-01-30 14:07:04.44	217.68	3.56	-54.0	-66.0	3.8	8.46e-01	0	40	104	0	78	15270
2026-01-30 14:07:05.45	217.76	3.62	-54.0	-66.0	3.8	8.46e-01	0	40	104	0	78	15252
2026-01-30 14:07:06.46	217.85	3.68	-54.0	-66.0	3.8	8.45e-01	0	40	104	0	78	15305
2026-01-30 14:07:07.47	217.93	3.73	-54.0	-65.9	3.8	8.47e-01	0	39	104	0	78	15171
2026-01-30 14:07:08.47	218.01	3.79	-54.0	-66.0	3.8	8.46e-01	0	40	104	0	78	15321
2026-01-30 14:07:09.48	218.10	3.85	-54.0	-66.0	3.8	8.46e-01	0	40	104	0	78	15317
2026-01-30 14:07:10.49	218.18	3.90	-54.0	-66.0	3.8	8.45e-01	0	40	104	0	78	15278
2026-01-30 14:07:11.50	218.27	3.96	-54.0	-66.0	3.8	8.46e-01	0	40	104	0	78	15282
2026-01-30 14:07:12.50	218.35	4.02	-54.0	-65.9	3.8	8.46e-01	0	40	104	0	78	15192
2026-01-30 14:07:13.51	218.44	4.07	-54.0	-66.0	3.8	8.47e-01	0	40	104	0	78	15235
2026-01-30 14:07:14.52	218.53	4.13	-54.0	-66.0	3.8	8.46e-01	0	40	104	0	78	15276
2026-01-30 14:07:15.53	218.61	4.19	-54.0	-66.0	3.8	8.46e-01	0	40	104	0	78	15295
2026-01-30 14:07:16.53	218.70	4.24	-54.3	-66.3	3.8	8.45e-01	0	40	104	0	79	14907
2026-01-30 14:07:17.54	218.79	4.30	-54.4	-66.4	3.8	8.47e-01	0	40	104	0	79	15137
2026-01-30 14:07:18.55	218.87	4.36	-54.5	-66.4	3.8	8.46e-01	0	40	104	0	79	15197
2026-01-30 14:07:19.56	218.96	4.42	-54.5	-66.5	3.8	8.46e-01	0	40	104	0	79	15286
2026-01-30 14:07:20.57	219.05	4.47	-54.5	-66.5	3.8	8.45e-01	0	40	104	0	79	15296
2026-01-30 14:07:21.58	219.14	4.53	-54.5	-66.5	3.8	8.46e-01	0	40	104	0	79	15245
2026-01-30 14:07:22.58	219.22	4.59	-54.5	-66.5	3.8	8.47e-01	0	40	104	0	79	15265
2026-01-30 14:07:23.59	219.31	4.65	-54.4	-66.4	3.8	8.46e-01	0	40	104	0	79	15099
2026-01-30 14:07:24.61	219.40	4.70	-54.4	-66.4	3.8	8.47e-01	0	40	104	0	79	15083
2026-01-30 14:07:25.61	219.49	4.76	-54.4	-66.3	3.8	8.46e-01	0	40	104	0	79	15030
2026-01-30 14:07:26.62	219.58	4.82	-54.3	-66.3	3.8	8.46e-01	0	40	104	0	79	14929
2026-01-30 14:07:27.63	219.67	4.88	-54.3	-66.2	3.8	8.47e-01	0	40	104	0	79	14812
2026-01-30 14:07:28.64	219.76	4.94	-54.2	-66.1	3.8	8.47e-01	0	40	104	0	79	14688
2026-01-30 14:07:29.64	219.85	4.99	-54.1	-66.1	3.8	8.47e-01	0	40	104	0	79	14595
2026-01-30 14:07:30.65	219.95	5.05	-54.1	-66.0	3.8	8.47e-01	0	40	104	0	79	14488
2026-01-30 14:07:31.66	220.04	5.11	-54.0	-65.9	3.8	8.47e-01	0	40	104	0	79	14345
2026-01-30 14:07:32.67	220.13	5.17	-53.9	-65.8	3.8	8.44e-01	0	40	104	0	79	14180
2026-01-30 14:07:33.68	220.22	5.23	-53.8	-65.7	3.8	8.48e-01	0	40	104	0	79	13963
2026-01-30 14:07:34.69	220.32	5.29	-53.7	-65.6	3.8	8.45e-01	0	40	104	0	79	13810
2026-01-30 14:07:35.69	220.41	5.34	-53.5	-65.4	3.8	8.47e-01	0	40	104	0	79	13442
2026-01-30 14:07:36.71	220.50	5.40	-53.3	-65.1	3.8	8.45e-01	0	40	104	0	78	13796
2026-01-30 14:07:37.71	220.59	5.46	-52.7	-62.9	3.8	8.46e-01	0	40	104	0	77	11306
2026-01-30 14:07:38.72	220.69	5.52	-49.0	-51.7	11.8	7.78e-04	0	40	0	1048576	70	4667
2026-01-30 14:07:39.73	220.78	5.58	-51.5	-57.3	6.3	3.33e-03	0	40	0	7340032	73	7467
2026-01-30 14:07:40.73	220.88	5.64	-52.0	-59.9	4.6	4.68e-01	0	40	0	9437184	74	9559
2026-01-30 14:07:41.74	220.97	5.70	-47.6	-49.6	13.9	8.33e-02	0	40	0	9437184	67	4341
2026-01-30 14:07:42.74	221.07	5.75	-52.3	-61.4	4.2	8.66e-03	0	40	0	14680064	75	10671
2026-01-30 14:07:43.75	221.16	5.81	-43.9	-44.9	18.0	7.88e-01	0	40	104	14680064	59	4029
2026-01-30 14:07:44.76	221.26	5.87	-42.9	-43.8	20.0	0.00e+00	0	40	0	18874368	57	3994
2026-01-30 14:07:45.76	221.36	5.93	-42.3	-43.3	20.5	0.00e+00	0	40	0	24117248	56	3973
2026-01-30 14:07:46.77	221.45	5.99	-42.3	-43.2	20.6	0.00e+00	0	40	0	30408704	56	3943
2026-01-30 14:07:47.78	221.55	6.05	-42.4	-43.3	20.5	0.00e+00	0	40	0	35651584	56	3984
2026-01-30 14:07:48.79	221.65	6.11	-42.1	-43.0	20.8	0.00e+00	0	40	0	40894464	56	3843
2026-01-30 14:07:49.79	221.75	6.17	-41.9	-42.9	20.8	0.00e+00	0	40	0	47185920	55	4006
2026-01-30 14:07:50.80	221.85	6.23	-41.9	-42.9	20.8	0.00e+00	0	40	0	52428800	55	4010
2026-01-30 14:07:51.81	221.94	6.29	-42.0	-43.0	20.7	0.00e+00	0	40	0	58720256	55	4054
2026-01-30 14:07:52.81	222.04	6.35	-42.0	-42.9	20.8	0.00e+00	0	40	0	63963136	55	4031
2026-01-30 14:07:53.81	222.14	6.41	-42.0	-42.9	20.8	0.00e+00	0	40	0	69206016	55	4043
2026-01-30 14:07:54.82	222.24	6.47	-42.0	-42.9	20.8	0.00e+00	0	40	0	75497472	55	4039
2026-01-30 14:07:55.83	222.34	6.53	-42.0	-43.0	20.8	0.00e+00	0	40	0	80740352	55	4055
2026-01-30 14:07:56.84	222.44	6.59	-42.1	-43.0	20.7	0.00e+00	0	40	0	85983232	55	4091
2026-01-30 14:07:57.84	222.54	6.64	-42.0	-42.9	20.9	0.00e+00	0	40	0	92274688	55	4013
2026-01-30 14:07:58.85	222.65	6.71	-42.1	-43.0	20.8	0.00e+00	0	40	0	98566144	55	4060
2026-01-30 14:07:59.86	222.75	6.77	-42.0	-42.9	20.8	0.00e+00	0	40	0	103809024	55	4049
2026-01-30 14:08:00.87	222.85	6.83	-42.2	-43.1	20.7	0.00e+00	0	40	0	109051904	55	4130
2026-01-30 14:08:01.88	222.95	6.89	-42.1	-43.0	20.8	0.00e+00	0	40	0	115343360	55	4088
2026-01-30 14:08:02.89	223.06	6.95	-42.0	-42.9	20.9	0.00e+00	0	40	0	120586240	55	4039
2026-01-30 14:08:03.90	223.16	7.01	-42.0	-42.9	20.9	0.00e+00	0	40	0	125829120	55	4048
2026-01-30 14:08:04.91	223.27	7.07	-42.1	-43.0	20.8	0.00e+00	0	40	0	132120576	55	4071
2026-01-30 14:08:05.92	223.37	7.13	-42.0	-42.9	20.9	0.00e+00	0	40	0	137363456	55	4013
2026-01-30 14:08:06.93	223.48	7.19	-41.9	-42.8	21.0	0.00e+00	0	40	0	143654912	55	3988
2026-01-30 14:08:07.93	223.58	7.25	-41.9	-42.8	21.1	0.00e+00	0	40	0	148897792	55	3980
2026-01-30 14:08:08.94	223.69	7.31	-41.9	-42.8	21.0	0.00e+00	0	40	0	155189248	55	4002
2026-01-30 14:08:09.95	223.79	7.37	-41.7	-42.5	21.3	0.00e+00	0	40	0	160432128	55	3865
2026-01-30 14:08:10.96	223.90	7.43	-41.6	-42.5	21.3	0.00e+00	0	40	0	166723584	55	3840
2026-01-30 14:08:11.97	224.01	7.49	-41.7	-42.6	21.3	0.00e+00	0	40	0	171966464	55	3872
2026-01-30 14:08:12.98	224.12	7.55	-41.7	-42.6	21.3	0.00e+00	0	40	0	177209344	55	3875
2026-01-30 14:08:13.99	224.22	7.61	-41.8	-42.7	21.2	0.00e+00	0	40	0	183500800	55	3924
2026-01-30 14:08:14.99	224.33	7.67	-41.8	-42.7	21.2	0.00e+00	0	40	0	188743680	55	3922
2026-01-30 14:08:16.00	224.44	7.74	-41.8	-42.8	21.1	0.00e+00	0	40	0	193986560	55	3967
2026-01-30 14:08:17.01	224.55	7.80	-42.0	-42.9	21.0	0.00e+00	0	40	0	200278016	55	4018
2026-01-30 14:08:18.02	224.66	7.86	-41.6	-42.6	21.3	0.00e+00	0	40	0	205520896	55	3869
2026-01-30 14:08:19.03	224.77	7.92	-41.6	-42.5	21.4	0.00e+00	0	40	0	210763776	55	3829
2026-01-30 14:08:20.03	224.88	7.98	-41.6	-42.5	21.3	0.00e+00	0	40	0	217055232	55	3865
2026-01-30 14:08:21.04	224.99	8.04	-41.7	-42.6	21.3	0.00e+00	0	40	0	223346688	55	3876
2026-01-30 14:08:22.05	225.10	8.10	-41.6	-42.5	21.4	0.00e+00	0	40	0	228589568	55	3829
2026-01-30 14:08:23.06	225.21	8.17	-41.5	-42.4	21.5	0.00e+00	0	40	0	233832448	55	3797
2026-01-30 14:08:24.07	225.33	8.23	-41.5	-42.4	21.4	0.00e+00	0	40	0	240123904	54	4034
2026-01-30 14:08:25.08	225.44	8.29	-41.4	-42.3	21.6	0.00e+00	0	40	0	245366784	54	3977
2026-01-30 14:08:26.09	225.55	8.35	-41.2	-42.1	21.8	0.00e+00	0	40	0	251658240	54	3870
2026-01-30 14:08:27.09	225.67	8.41	-41.2	-42.1	21.8	0.00e+00	0	41	0	256901120	54	3877
2026-01-30 14:08:28.10	225.78	8.47	-41.2	-42.1	21.8	0.00e+00	0	40	0	262144000	54	3869
2026-01-30 14:08:29.11	225.90	8.54	-41.3	-42.1	21.7	0.00e+00	0	41	0	268435456	54	3899
2026-01-30 14:08:30.12	226.01	8.60	-41.3	-42.1	21.8	0.00e+00	0	40	0	273678336	54	3899
2026-01-30 14:08:31.13	226.13	8.66	-41.2	-42.1	21.8	0.00e+00	0	40	0	278921216	54	3876
2026-01-30 14:08:32.13	226.24	8.72	-41.2	-42.0	21.8	0.00e+00	0	40	0	285212672	54	3861
2026-01-30 14:08:33.14	226.36	8.78	-41.2	-42.1	21.8	0.00e+00	0	40	0	291504128	54	3890
2026-01-30 14:08:34.15	226.48	8.85	-41.2	-42.1	21.8	0.00e+00	0	40	0	296747008	54	3876
2026-01-30 14:08:35.15	226.59	8.91	-41.3	-42.2	21.7	0.00e+00	0	40	0	301989888	54	3936
2026-01-30 14:08:36.16	226.71	8.97	-41.2	-42.0	21.8	0.00e+00	0	41	0	308281344	54	3861
2026-01-30 14:08:37.17	226.83	9.03	-41.1	-41.9	22.0	0.00e+00	0	41	0	313524224	54	3806
2026-01-30 14:08:38.18	226.95	9.09	-41.1	-41.9	21.9	0.00e+00	0	40	0	318767104	54	3815
2026-01-30 14:08:39.19	227.07	9.16	-41.0	-41.8	22.1	0.00e+00	0	40	0	325058560	54	3771
2026-01-30 14:08:40.19	227.19	9.22	-40.9	-41.7	22.2	0.00e+00	0	40	0	330301440	53	3943
2026-01-30 14:08:41.20	227.31	9.28	-40.7	-41.6	22.3	0.00e+00	0	41	0	336592896	53	3869
2026-01-30 14:08:42.21	227.43	9.34	-40.8	-41.6	22.3	0.00e+00	0	40	0	341835776	53	3891
2026-01-30 14:08:43.22	227.55	9.41	-40.7	-41.5	22.4	0.00e+00	0	40	0	347078656	53	3831
2026-01-30 14:08:44.23	227.67	9.47	-40.6	-41.4	22.5	0.00e+00	0	40	0	353370112	53	3802
2026-01-30 14:08:45.23	227.80	9.53	-40.6	-41.4	22.4	0.00e+00	0	41	0	358612992	53	3818
2026-01-30 14:08:46.24	227.92	9.60	-40.6	-41.4	22.4	0.00e+00	0	41	0	363855872	53	3823
2026-01-30 14:08:47.24	228.04	9.66	-40.8	-41.6	22.3	0.00e+00	0	41	0	370147328	53	3883
2026-01-30 14:08:48.25	228.17	9.72	-40.7	-41.5	22.4	0.00e+00	0	40	0	376438784	53	3834
2026-01-30 14:08:49.26	228.29	9.78	-40.6	-41.4	22.5	0.00e+00	0	41	0	381681664	53	3816
2026-01-30 14:08:50.27	228.42	9.85	-40.7	-41.5	22.4	0.00e+00	0	41	0	386924544	53	3860
2026-01-30 14:08:51.28	228.54	9.91	-40.7	-41.5	22.4	0.00e+00	0	41	0	393216000	53	3844
2026-01-30 14:08:52.29	228.67	9.97	-40.7	-41.5	22.4	0.00e+00	0	41	0	398458880	53	3839
2026-01-30 14:08:53.29	228.79	10.03	-40.7	-41.5	22.4	0.00e+00	0	41	0	403701760	53	3848
2026-01-30 14:08:54.30	228.92	10.10	-40.7	-41.5	22.4	0.00e+00	0	40	0	409993216	53	3848
2026-01-30 14:08:55.31	229.05	10.16	-40.7	-41.5	22.4	0.00e+00	0	40	0	415236096	53	3857
2026-01-30 14:08:56.32	229.18	10.22	-40.7	-41.5	22.4	0.00e+00	0	40	0	421527552	53	3863
2026-01-30 14:08:57.33	229.31	10.29	-40.7	-41.6	22.4	0.00e+00	0	41	0	426770432	53	3878
2026-01-30 14:08:58.34	229.43	10.35	-40.9	-41.8	22.2	0.00e+00	0	41	0	433061888	53	3965
2026-01-30 14:08:59.35	229.56	10.41	-40.7	-41.6	22.4	0.00e+00	0	41	0	438304768	53	3881
2026-01-30 14:09:00.36	229.70	10.48	-40.7	-41.5	22.4	0.00e+00	0	41	0	444596224	53	3862
2026-01-30 14:09:01.37	229.83	10.54	-40.7	-41.6	22.4	0.00e+00	0	40	0	449839104	53	3877
2026-01-30 14:09:02.37	229.96	10.60	-40.7	-41.6	22.4	0.00e+00	0	40	0	455081984	53	3870
2026-01-30 14:09:03.38	230.09	10.67	-40.6	-41.4	22.5	0.00e+00	0	41	0	461373440	53	3803
2026-01-30 14:09:04.39	230.22	10.73	-40.5	-41.3	22.6	0.00e+00	0	41	0	466616320	53	3757
2026-01-30 14:09:05.40	230.36	10.79	-40.4	-41.2	22.7	0.00e+00	0	41	0	471859200	52	3952
2026-01-30 14:09:06.41	230.49	10.86	-40.3	-41.1	22.8	0.00e+00	0	41	0	478150656	52	3902
2026-01-30 14:09:07.42	230.62	10.92	-40.3	-41.1	22.8	0.00e+00	0	41	0	483393536	52	3908
2026-01-30 14:09:08.43	230.76	10.99	-40.3	-41.1	22.8	0.00e+00	0	41	0	488636416	52	3903
2026-01-30 14:09:09.44	230.89	11.05	-40.1	-40.9	23.0	0.00e+00	0	41	0	494927872	52	3819
2026-01-30 14:09:10.45	231.03	11.11	-40.2	-41.0	22.9	0.00e+00	0	40	0	501219328	52	3845
2026-01-30 14:09:11.46	231.17	11.18	-40.2	-41.0	22.9	0.00e+00	0	41	0	506462208	52	3855
2026-01-30 14:09:12.47	231.30	11.24	-40.2	-41.0	22.9	0.00e+00	0	41	0	511705088	52	3839
2026-01-30 14:09:13.48	231.44	11.30	-40.3	-41.1	22.8	0.00e+00	0	41	0	517996544	52	3909
2026-01-30 14:09:14.49	231.58	11.37	-40.4	-41.2	22.7	0.00e+00	0	40	0	523239424	52	3928
2026-01-30 14:09:15.50	231.72	11.43	-40.4	-41.2	22.7	0.00e+00	0	41	0	529530880	52	3928
2026-01-30 14:09:16.51	231.86	11.50	-40.5	-41.3	22.6	0.00e+00	0	41	0	534773760	52	3983
2026-01-30 14:09:17.52	232.00	11.56	-40.5	-41.4	22.6	0.00e+00	0	41	0	540016640	52	4005
2026-01-30 14:09:18.53	232.14	11.62	-40.5	-41.3	22.6	0.00e+00	0	40	0	546308096	52	3996
2026-01-30 14:09:19.53	232.28	11.69	-40.4	-41.2	22.8	0.00e+00	0	41	0	551550976	52	3917
2026-01-30 14:09:20.54	232.42	11.75	-40.3	-41.1	22.9	0.00e+00	0	40	0	557842432	52	3883
2026-01-30 14:09:21.55	232.56	11.81	-40.4	-41.2	22.8	0.00e+00	0	41	0	563085312	52	3921
2026-01-30 14:09:22.55	232.71	11.88	-40.3	-41.1	22.9	0.00e+00	0	41	0	569376768	52	3884
2026-01-30 14:09:23.56	232.85	11.94	-40.3	-41.1	22.9	0.00e+00	0	40	0	574619648	52	3874
2026-01-30 14:09:24.57	232.99	12.01	-40.3	-41.1	22.8	0.00e+00	0	41	0	579862528	52	3879
2026-01-30 14:09:25.57	233.14	12.07	-40.2	-41.0	22.9	0.00e+00	0	41	0	586153984	52	3842
2026-01-30 14:09:26.58	233.28	12.13	-40.0	-40.8	23.1	0.00e+00	0	41	0	591396864	52	3761
2026-01-30 14:09:27.59	233.43	12.20	-40.0	-40.8	23.2	0.00e+00	0	41	0	596639744	52	3743
2026-01-30 14:09:28.60	233.58	12.26	-40.0	-40.8	23.2	0.00e+00	0	41	0	602931200	51	3981
2026-01-30 14:09:29.61	233.72	12.32	-40.0	-40.8	23.2	0.00e+00	0	41	0	608174080	51	3990
2026-01-30 14:09:30.62	233.87	12.39	-40.1	-40.9	23.1	0.00e+00	0	41	0	614465536	51	4030
2026-01-30 14:09:31.63	234.02	12.45	-40.1	-40.8	23.2	0.00e+00	0	41	0	619708416	51	4003
2026-01-30 14:09:32.64	234.17	12.52	-40.1	-40.9	23.2	0.00e+00	0	41	0	624951296	51	4018
2026-01-30 14:09:33.64	234.32	12.58	-40.1	-40.9	23.1	0.00e+00	0	41	0	631242752	51	4036
2026-01-30 14:09:34.65	234.47	12.64	-40.2	-41.0	23.1	0.00e+00	0	41	0	637534208	51	4068
2026-01-30 14:09:35.66	234.62	12.71	-40.2	-40.9	23.1	0.00e+00	0	41	0	642777088	51	4045
2026-01-30 14:09:36.67	234.77	12.77	-40.0	-40.8	23.2	0.00e+00	0	41	0	648019968	51	3991
2026-01-30 14:09:37.68	234.92	12.83	-40.0	-40.8	23.3	0.00e+00	0	41	0	654311424	51	3978
2026-01-30 14:09:38.69	235.08	12.90	-40.0	-40.8	23.3	0.00e+00	0	41	0	659554304	51	3979
2026-01-30 14:09:39.70	235.23	12.96	-39.9	-40.7	23.3	0.00e+00	0	41	0	664797184	51	3940
2026-01-30 14:09:40.71	235.39	13.03	-40.0	-40.7	23.3	0.00e+00	0	41	0	671088640	51	3950
2026-01-30 14:09:41.72	235.54	13.09	-39.8	-40.6	23.5	0.00e+00	0	41	0	676331520	51	3882
2026-01-30 14:09:42.73	235.70	13.15	-39.8	-40.6	23.4	0.00e+00	0	41	0	681574400	51	3899
2026-01-30 14:09:43.73	235.85	13.22	-39.9	-40.7	23.4	0.00e+00	0	41	0	687865856	51	3915
2026-01-30 14:09:44.74	236.01	13.28	-39.7	-40.5	23.5	0.00e+00	0	41	0	694157312	51	3837
2026-01-30 14:09:45.75	236.17	13.34	-39.8	-40.6	23.5	0.00e+00	0	41	0	699400192	51	3875
2026-01-30 14:09:46.75	236.32	13.41	-39.8	-40.6	23.4	0.00e+00	0	41	0	704643072	51	3893
2026-01-30 14:09:47.76	236.48	13.47	-39.8	-40.6	23.5	0.00e+00	0	41	0	710934528	51	3873
2026-01-30 14:09:48.77	236.64	13.53	-39.8	-40.6	23.5	0.00e+00	0	40	0	716177408	51	3880
2026-01-30 14:09:49.78	236.80	13.60	-39.9	-40.6	23.4	0.00e+00	0	41	0	722468864	51	3906
2026-01-30 14:09:50.79	236.96	13.66	-39.9	-40.7	23.4	0.00e+00	0	41	0	727711744	51	3921
2026-01-30 14:09:51.79	237.12	13.72	-39.7	-40.5	23.5	0.00e+00	0	41	0	732954624	51	3836
2026-01-30 14:09:52.80	237.28	13.79	-39.8	-40.5	23.5	0.00e+00	0	41	0	739246080	51	3849
2026-01-30 14:09:53.81	237.45	13.85	-39.7	-40.5	23.6	0.00e+00	0	41	0	744488960	51	3835
2026-01-30 14:09:54.81	237.61	13.91	-39.9	-40.6	23.4	0.00e+00	0	41	0	749731840	51	3907
2026-01-30 14:09:55.82	237.77	13.98	-39.6	-40.3	23.7	0.00e+00	0	41	0	756023296	51	3774
2026-01-30 14:09:56.83	237.94	14.04	-39.6	-40.4	23.7	0.00e+00	0	41	0	761266176	51	3785
2026-01-30 14:09:57.84	238.10	14.10	-39.7	-40.5	23.6	0.00e+00	0	41	0	767557632	51	3843
2026-01-30 14:09:58.85	238.27	14.17	-39.9	-40.7	23.4	0.00e+00	0	41	0	772800512	51	3922
2026-01-30 14:09:59.86	238.44	14.23	-39.8	-40.6	23.4	0.00e+00	0	41	0	779091968	51	3898
2026-01-30 14:10:00.87	238.60	14.29	-40.0	-40.8	23.3	0.00e+00	0	41	0	784334848	51	3964
2026-01-30 14:10:01.88	238.77	14.36	-39.7	-40.4	23.6	0.00e+00	0	41	0	789577728	51	3823
2026-01-30 14:10:02.89	238.94	14.42	-39.7	-40.5	23.6	0.00e+00	0	41	0	795869184	51	3827
2026-01-30 14:10:03.89	239.11	14.48	-39.8	-40.6	23.5	0.00e+00	0	41	0	801112064	51	3875
2026-01-30 14:10:04.90	239.28	14.54	-39.8	-40.6	23.4	0.00e+00	0	41	0	807403520	51	3873
2026-01-30 14:10:05.91	239.45	14.61	-39.7	-40.4	23.5	0.00e+00	0	41	0	812646400	51	3823
2026-01-30 14:10:06.92	239.62	14.67	-39.6	-40.4	23.6	0.00e+00	0	41	0	817889280	51	3802
2026-01-30 14:10:07.93	239.80	14.73	-39.7	-40.5	23.5	0.00e+00	0	41	0	824180736	51	3846
2026-01-30 14:10:08.93	239.97	14.79	-39.7	-40.5	23.6	0.00e+00	0	41	0	829423616	51	3830
2026-01-30 14:10:09.93	240.14	14.85	-39.8	-40.6	23.4	0.00e+00	0	41	0	834666496	51	3894
2026-01-30 14:10:10.94	240.31	14.92	-39.5	-40.3	23.7	0.00e+00	0	41	0	840957952	51	3751
2026-01-30 14:10:11.95	240.49	14.98	-39.4	-40.2	23.8	0.00e+00	0	41	0	847249408	50	3925
2026-01-30 14:10:12.97	240.67	15.04	-39.3	-40.0	24.0	0.00e+00	0	41	0	852492288	50	3868
2026-01-30 14:10:13.97	240.84	15.10	-39.2	-40.0	24.0	0.00e+00	0	41	0	857735168	50	3827
2026-01-30 14:10:14.98	241.02	15.17	-39.3	-40.0	24.0	0.00e+00	0	41	0	864026624	50	3868
2026-01-30 14:10:15.99	241.20	15.23	-39.3	-40.0	24.0	0.00e+00	0	41	0	869269504	50	3859
2026-01-30 14:10:17.00	241.38	15.29	-39.5	-40.2	23.9	0.00e+00	0	41	0	874512384	50	3944
2026-01-30 14:10:18.01	241.56	15.35	-39.5	-40.2	23.8	0.00e+00	0	41	0	880803840	50	3949
2026-01-30 14:10:19.02	241.74	15.41	-39.6	-40.3	23.7	0.00e+00	0	41	0	886046720	50	4004
2026-01-30 14:10:20.03	241.92	15.47	-39.5	-40.3	23.7	0.00e+00	0	41	0	892338176	50	3980
2026-01-30 14:10:21.03	242.10	15.53	-39.6	-40.3	23.7	0.00e+00	0	41	0	897581056	50	3985
2026-01-30 14:10:22.04	242.28	15.60	-39.3	-40.1	24.0	0.00e+00	0	41	0	902823936	50	3870
2026-01-30 14:10:23.04	242.46	15.66	-39.2	-40.0	24.0	0.00e+00	0	41	0	909115392	50	3829
2026-01-30 14:10:24.05	242.65	15.72	-39.2	-40.0	24.1	0.00e+00	0	40	0	915406848	50	3827
2026-01-30 14:10:25.07	242.83	15.78	-39.2	-39.9	24.1	0.00e+00	0	41	0	920649728	50	3804
2026-01-30 14:10:26.08	243.02	15.84	-39.2	-39.9	24.1	0.00e+00	0	41	0	925892608	50	3812
2026-01-30 14:10:27.08	243.20	15.90	-39.2	-39.9	24.1	0.00e+00	0	41	0	932184064	50	3803
2026-01-30 14:10:28.09	243.39	15.96	-39.0	-39.8	24.3	0.00e+00	0	41	0	937426944	50	3747
2026-01-30 14:10:29.09	243.57	16.02	-39.1	-39.9	24.2	0.00e+00	0	41	0	942669824	50	3786
2026-01-30 14:10:30.10	243.76	16.08	-38.9	-39.7	24.4	0.00e+00	0	41	0	948961280	49	3926
2026-01-30 14:10:31.11	243.95	16.14	-39.1	-39.8	24.2	0.00e+00	0	41	0	954204160	49	3982
2026-01-30 14:10:32.12	244.14	16.20	-39.1	-39.9	24.2	0.00e+00	0	41	0	959447040	49	4009
2026-01-30 14:10:33.12	244.33	16.26	-39.2	-39.9	24.1	0.00e+00	0	40	0	965738496	49	4037
2026-01-30 14:10:34.13	244.52	16.32	-39.1	-39.8	24.2	0.00e+00	0	41	0	970981376	49	3998
2026-01-30 14:10:35.14	244.71	16.38	-39.1	-39.8	24.2	0.00e+00	0	41	0	977272832	49	3985
2026-01-30 14:10:36.14	244.90	16.44	-39.1	-39.8	24.3	0.00e+00	0	41	0	982515712	49	3982
2026-01-30 14:10:37.15	245.10	16.49	-39.1	-39.9	24.2	0.00e+00	0	41	0	988807168	49	4013
2026-01-30 14:10:38.17	245.29	16.55	-39.2	-39.9	24.1	0.00e+00	0	41	0	994050048	49	4040
2026-01-30 14:10:39.18	245.49	16.61	-39.1	-39.8	24.2	0.00e+00	0	41	0	1000341504	49	4001
2026-01-30 14:10:40.19	245.68	16.67	-39.1	-39.8	24.3	0.00e+00	0	41	0	1005584384	49	3991
2026-01-30 14:10:41.19	245.88	16.73	-39.0	-39.8	24.3	0.00e+00	0	41	0	1010827264	49	3972
2026-01-30 14:10:42.20	246.07	16.79	-39.1	-39.8	24.3	0.00e+00	0	41	0	1017118720	49	3983
2026-01-30 14:10:43.21	246.27	16.85	-39.0	-39.7	24.3	0.00e+00	0	40	0	1022361600	49	3936
2026-01-30 14:10:44.22	246.47	16.90	-39.0	-39.7	24.4	0.00e+00	0	41	0	1027604480	49	3929
2026-01-30 14:10:45.23	246.67	16.96	-39.0	-39.7	24.4	0.00e+00	0	41	0	1033895936	49	3933
2026-01-30 14:10:46.24	246.87	17.02	-39.0	-39.7	24.3	0.00e+00	0	41	0	1040187392	49	3951
2026-01-30 14:10:47.25	247.07	17.08	-38.9	-39.6	24.5	0.00e+00	0	41	0	1045430272	49	3876
2026-01-30 14:10:48.25	247.27	17.13	-39.0	-39.7	24.4	0.00e+00	0	41	0	1050673152	49	3937
2026-01-30 14:10:49.26	247.47	17.19	-38.8	-39.5	24.6	0.00e+00	0	41	0	1056964608	49	3827
2026-01-30 14:10:50.27	247.68	17.25	-38.7	-39.4	24.6	0.00e+00	0	41	0	1062207488	49	3814
2026-01-30 14:10:51.28	247.88	17.30	-38.7	-39.4	24.6	0.00e+00	0	41	0	1067450368	49	3808
2026-01-30 14:10:52.29	248.08	17.36	-38.7	-39.4	24.6	0.00e+00	0	41	0	1073741824	49	3822
2026-01-30 14:10:53.29	248.29	17.41	-38.7	-39.4	24.6	0.00e+00	0	41	0	1078984704	49	3822
2026-01-30 14:10:54.30	248.49	17.47	-38.9	-39.6	24.5	0.00e+00	0	41	0	1085276160	49	3884
2026-01-30 14:10:55.31	248.70	17.52	-38.9	-39.6	24.5	0.00e+00	0	41	0	1090519040	49	3894
2026-01-30 14:10:56.32	248.91	17.58	-38.9	-39.6	24.5	0.00e+00	0	41	0	1095761920	49	3906
2026-01-30 14:10:57.33	249.12	17.63	-38.8	-39.5	24.5	0.00e+00	0	41	0	1102053376	49	3868
2026-01-30 14:10:58.33	249.32	17.69	-38.8	-39.5	24.6	0.00e+00	0	41	0	1107296256	49	3841
2026-01-30 14:10:59.34	249.53	17.74	-38.7	-39.4	24.6	0.00e+00	0	41	0	1112539136	49	3810
2026-01-30 14:11:00.35	249.74	17.80	-38.8	-39.5	24.6	0.00e+00	0	41	0	1118830592	49	3834
2026-01-30 14:11:01.36	249.95	17.85	-38.6	-39.4	24.7	0.00e+00	0	41	0	1125122048	49	3785
2026-01-30 14:11:02.36	250.16	17.91	-38.8	-39.5	24.6	0.00e+00	0	41	0	1130364928	49	3837
2026-01-30 14:11:03.37	250.38	17.96	-38.9	-39.6	24.5	0.00e+00	0	41	0	1135607808	49	3888
2026-01-30 14:11:04.38	250.59	18.01	-38.8	-39.6	24.5	0.00e+00	0	41	0	1141899264	49	3869
2026-01-30 14:11:05.39	250.80	18.07	-38.9	-39.6	24.5	0.00e+00	0	41	0	1147142144	49	3909
2026-01-30 14:11:06.40	251.02	18.12	-39.0	-39.7	24.4	0.00e+00	0	41	0	1152385024	49	3939
2026-01-30 14:11:07.41	251.23	18.17	-38.9	-39.6	24.5	0.00e+00	0	41	0	1158676480	49	3885
2026-01-30 14:11:08.41	251.45	18.22	-38.8	-39.5	24.6	0.00e+00	0	41	0	1163919360	49	3862
2026-01-30 14:11:09.42	251.66	18.27	-38.9	-39.7	24.4	0.00e+00	0	41	0	1170210816	49	3921
2026-01-30 14:11:10.43	251.88	18.33	-38.8	-39.5	24.6	0.00e+00	0	41	0	1175453696	49	3841
2026-01-30 14:11:11.44	252.10	18.38	-38.8	-39.5	24.5	0.00e+00	0	41	0	1180696576	49	3863
2026-01-30 14:11:12.45	252.32	18.43	-38.8	-39.5	24.6	0.00e+00	0	41	0	1186988032	49	3863
2026-01-30 14:11:13.46	252.54	18.48	-38.7	-39.4	24.7	0.00e+00	0	41	0	1193279488	49	3791
2026-01-30 14:11:14.46	252.76	18.53	-38.6	-39.3	24.7	0.00e+00	0	41	0	1198522368	49	3780
2026-01-30 14:11:15.47	252.98	18.58	-38.6	-39.3	24.8	0.00e+00	0	41	0	1203765248	49	3763
2026-01-30 14:11:16.48	253.20	18.63	-38.6	-39.3	24.8	0.00e+00	0	41	0	1210056704	49	3760
2026-01-30 14:11:17.49	253.42	18.68	-38.7	-39.4	24.7	0.00e+00	0	41	0	1215299584	49	3808
2026-01-30 14:11:18.49	253.64	18.73	-38.7	-39.4	24.7	0.00e+00	0	41	0	1220542464	49	3807
2026-01-30 14:11:19.50	253.87	18.78	-38.6	-39.3	24.8	0.00e+00	0	41	0	1226833920	49	3767
2026-01-30 14:11:20.51	254.09	18.82	-38.6	-39.3	24.8	0.00e+00	0	41	0	1232076800	49	3751
2026-01-30 14:11:21.52	254.32	18.87	-38.4	-39.1	25.0	0.00e+00	0	41	0	1238368256	48	3900
2026-01-30 14:11:22.53	254.54	18.92	-38.5	-39.2	24.9	0.00e+00	0	41	0	1243611136	48	3928
2026-01-30 14:11:23.54	254.77	18.97	-38.5	-39.2	24.9	0.00e+00	0	41	0	1248854016	48	3923
2026-01-30 14:11:24.54	255.00	19.01	-38.4	-39.1	25.0	0.00e+00	0	41	0	1255145472	48	3875
2026-01-30 14:11:25.55	255.22	19.06	-38.4	-39.1	25.0	0.00e+00	0	41	0	1260388352	48	3891
2026-01-30 14:11:26.56	255.45	19.11	-38.4	-39.0	25.0	0.00e+00	0	41	0	1266679808	48	3860
2026-01-30 14:11:27.57	255.68	19.15	-38.3	-39.0	25.1	0.00e+00	0	40	0	1271922688	48	3836
2026-01-30 14:11:28.58	255.91	19.20	-38.5	-39.2	24.9	0.00e+00	0	41	0	1278214144	48	3917
2026-01-30 14:11:29.59	256.14	19.24	-38.4	-39.1	24.9	0.00e+00	0	41	0	1283457024	48	3905
2026-01-30 14:11:30.60	256.37	19.29	-38.5	-39.2	24.9	0.00e+00	0	41	0	1288699904	48	3946
2026-01-30 14:11:31.61	256.61	19.33	-38.5	-39.2	24.9	0.00e+00	0	41	0	1294991360	48	3938
2026-01-30 14:11:32.62	256.84	19.38	-38.5	-39.2	24.9	0.00e+00	0	41	0	1300234240	48	3920
2026-01-30 14:11:33.63	257.07	19.42	-38.5	-39.3	24.8	0.00e+00	0	41	0	1305477120	48	3962
2026-01-30 14:11:34.63	257.30	19.47	-38.5	-39.2	24.9	0.00e+00	0	41	0	1311768576	48	3957
2026-01-30 14:11:35.64	257.54	19.51	-38.4	-39.1	25.0	0.00e+00	0	41	0	1318060032	48	3874
2026-01-30 14:11:36.65	257.77	19.55	-38.2	-38.9	25.1	0.00e+00	0	41	0	1323302912	48	3818
2026-01-30 14:11:37.66	258.01	19.59	-38.2	-38.9	25.1	0.00e+00	0	41	0	1328545792	48	3816
2026-01-30 14:11:38.67	258.25	19.64	-38.4	-39.1	25.0	0.00e+00	0	41	0	1334837248	48	3909
2026-01-30 14:11:39.68	258.48	19.68	-38.6	-39.3	24.9	0.00e+00	0	41	0	1340080128	48	3974
2026-01-30 14:11:40.69	258.72	19.72	-38.6	-39.3	24.8	0.00e+00	0	41	0	1346371584	48	4003
2026-01-30 14:11:41.69	258.96	19.76	-38.6	-39.4	24.7	0.00e+00	0	41	0	1351614464	48	4013
2026-01-30 14:11:42.70	259.20	19.80	-38.7	-39.4	24.7	0.00e+00	0	41	0	1356857344	48	4035
2026-01-30 14:11:43.71	259.44	19.84	-38.5	-39.2	24.9	0.00e+00	0	41	0	1363148800	48	3929
2026-01-30 14:11:44.72	259.68	19.88	-38.3	-39.0	25.1	0.00e+00	0	41	0	1368391680	48	3831
2026-01-30 14:11:45.73	259.92	19.92	-38.4	-39.1	25.0	0.00e+00	0	41	0	1373634560	48	3883
2026-01-30 14:11:46.73	260.16	19.95	-38.4	-39.1	25.0	0.00e+00	0	41	0	1379926016	48	3899
2026-01-30 14:11:47.74	260.40	19.99	-38.5	-39.2	24.9	0.00e+00	0	41	0	1386217472	48	3944
2026-01-30 14:11:48.75	260.64	20.03	-38.4	-39.1	25.0	0.00e+00	0	41	0	1391460352	48	3899
2026-01-30 14:11:49.76	260.89	20.07	-38.4	-39.1	25.0	0.00e+00	0	41	0	1396703232	48	3880
2026-01-30 14:11:50.77	261.13	20.10	-38.3	-38.9	25.1	0.00e+00	0	41	0	1402994688	48	3824
2026-01-30 14:11:51.77	261.37	20.14	-38.3	-39.0	25.1	0.00e+00	0	41	0	1408237568	48	3859
2026-01-30 14:11:52.78	261.62	20.18	-38.3	-39.0	25.1	0.00e+00	0	41	0	1413480448	48	3855
2026-01-30 14:11:53.79	261.86	20.21	-38.3	-39.0	25.1	0.00e+00	0	41	0	1419771904	48	3864
2026-01-30 14:11:54.79	262.11	20.24	-38.4	-39.1	25.0	0.00e+00	0	41	0	1425014784	48	3905
2026-01-30 14:11:55.80	262.35	20.28	-38.2	-38.9	25.2	0.00e+00	0	41	0	1431306240	48	3781
2026-01-30 14:11:56.81	262.60	20.31	-38.2	-38.9	25.2	0.00e+00	0	41	0	1436549120	48	3782
2026-01-30 14:11:57.82	262.85	20.35	-38.3	-39.0	25.1	0.00e+00	0	41	0	1441792000	48	3846
2026-01-30 14:11:58.82	263.09	20.38	-38.0	-38.7	25.4	0.00e+00	0	41	0	1448083456	48	3712
2026-01-30 14:11:59.83	263.34	20.41	-37.6	-38.3	25.2	0.00e+00	0	41	0	1453326336	47	3767
2026-01-30 14:12:00.84	263.59	20.44	-37.6	-38.3	25.2	0.00e+00	0	41	0	1458569216	47	3758
2026-01-30 14:12:01.84	263.84	20.47	-37.6	-38.3	25.2	0.00e+00	0	41	0	1464860672	47	3769
2026-01-30 14:12:02.85	264.09	20.51	-37.6	-38.3	25.2	0.00e+00	0	41	0	1471152128	47	3777
2026-01-30 14:12:03.86	264.34	20.54	-37.7	-38.4	25.1	0.00e+00	0	41	0	1476395008	47	3819
2026-01-30 14:12:04.87	264.59	20.57	-37.8	-38.5	25.1	0.00e+00	0	41	0	1481637888	47	3835
2026-01-30 14:12:05.87	264.84	20.59	-37.8	-38.5	25.1	0.00e+00	0	41	0	1487929344	47	3840
2026-01-30 14:12:06.88	265.09	20.62	-37.8	-38.5	25.0	0.00e+00	0	41	0	1493172224	47	3853
2026-01-30 14:12:07.89	265.34	20.65	-37.9	-38.6	25.0	0.00e+00	0	41	0	1498415104	47	3872
2026-01-30 14:12:08.89	265.59	20.68	-37.8	-38.5	25.0	0.00e+00	0	41	0	1504706560	47	3866
2026-01-30 14:12:09.90	265.85	20.71	-37.9	-38.7	24.9	0.00e+00	0	41	0	1509949440	47	3918
2026-01-30 14:12:10.91	266.10	20.73	-38.0	-38.7	24.9	0.00e+00	0	41	0	1516240896	47	3942
2026-01-30 14:12:11.92	266.35	20.76	-38.0	-38.8	24.9	0.00e+00	0	41	0	1521483776	47	3959
2026-01-30 14:12:12.93	266.61	20.79	-37.9	-38.6	25.0	0.00e+00	0	41	0	1526726656	47	3902
2026-01-30 14:12:13.94	266.86	20.81	-38.0	-38.7	24.9	0.00e+00	0	41	0	1533018112	47	3928
2026-01-30 14:12:14.94	267.12	20.84	-38.0	-38.8	24.8	0.00e+00	0	41	0	1538260992	47	3967
2026-01-30 14:12:15.95	267.37	20.86	-38.0	-38.7	24.9	0.00e+00	0	41	0	1544552448	47	3937
2026-01-30 14:12:16.96	267.63	20.88	-38.0	-38.7	24.9	0.00e+00	0	41	0	1549795328	47	3945
2026-01-30 14:12:17.97	267.88	20.91	-37.9	-38.6	25.0	0.00e+00	0	41	0	1556086784	47	3887
2026-01-30 14:12:18.98	268.14	20.93	-37.9	-38.6	25.0	0.00e+00	0	41	0	1561329664	47	3879
2026-01-30 14:12:19.99	268.40	20.95	-37.8	-38.6	25.0	0.00e+00	0	41	0	1566572544	47	3870
2026-01-30 14:12:20.99	268.65	20.97	-37.8	-38.5	25.1	0.00e+00	0	41	0	1572864000	47	3864
2026-01-30 14:12:22.00	268.91	20.99	-37.9	-38.6	25.0	0.00e+00	0	41	0	1578106880	47	3890
2026-01-30 14:12:23.01	269.17	21.01	-37.9	-38.7	24.9	0.00e+00	0	41	0	1583349760	47	3921
2026-01-30 14:12:24.02	269.43	21.03	-37.9	-38.6	25.0	0.00e+00	0	41	0	1589641216	47	3898
2026-01-30 14:12:25.02	269.68	21.05	-37.9	-38.6	25.0	0.00e+00	0	41	0	1594884096	47	3895
2026-01-30 14:12:26.03	269.94	21.07	-37.8	-38.5	25.1	0.00e+00	0	41	0	1601175552	47	3853
2026-01-30 14:12:27.04	270.20	21.09	-37.7	-38.4	25.2	0.00e+00	0	41	0	1606418432	47	3816
2026-01-30 14:12:28.05	270.46	21.11	-37.8	-38.5	25.1	0.00e+00	0	41	0	1612709888	47	3841
2026-01-30 14:12:29.06	270.72	21.12	-37.8	-38.5	25.1	0.00e+00	0	41	0	1617952768	47	3842
2026-01-30 14:12:30.06	270.98	21.14	-37.8	-38.5	25.1	0.00e+00	0	41	0	1624244224	47	3844
2026-01-30 14:12:31.07	271.24	21.15	-37.8	-38.6	25.1	0.00e+00	0	41	0	1629487104	47	3869
2026-01-30 14:12:32.07	271.50	21.17	-37.9	-38.7	25.0	0.00e+00	0	41	0	1634729984	47	3916
2026-01-30 14:12:33.08	271.76	21.18	-37.8	-38.6	25.0	0.00e+00	0	41	0	1641021440	47	3874
2026-01-30 14:12:34.09	272.02	21.20	-37.9	-38.6	25.0	0.00e+00	0	41	0	1646264320	47	3889
2026-01-30 14:12:35.10	272.28	21.21	-38.0	-38.7	25.0	0.00e+00	0	41	0	1651507200	47	3925
2026-01-30 14:12:36.11	272.55	21.22	-37.8	-38.5	25.1	0.00e+00	0	41	0	1657798656	47	3855
2026-01-30 14:12:37.11	272.80	21.24	-37.8	-38.5	25.1	0.00e+00	0	41	0	1663041536	47	3851
2026-01-30 14:12:38.13	273.07	21.25	-37.8	-38.5	25.1	0.00e+00	0	41	0	1668284416	47	3854
2026-01-30 14:12:39.13	273.33	21.26	-37.8	-38.6	25.1	0.00e+00	0	41	0	1674575872	47	3878
2026-01-30 14:12:40.15	273.59	21.27	-37.8	-38.6	25.1	0.00e+00	0	41	0	1680867328	47	3875
2026-01-30 14:12:41.16	273.86	21.28	-37.8	-38.5	25.1	0.00e+00	0	41	0	1686110208	47	3842
2026-01-30 14:12:42.17	274.12	21.29	-37.9	-38.6	25.0	0.00e+00	0	41	0	1691353088	47	3896
2026-01-30 14:12:43.17	274.38	21.30	-37.8	-38.5	25.2	0.00e+00	0	41	0	1697644544	47	3838
2026-01-30 14:12:44.18	274.64	21.30	-37.8	-38.5	25.1	0.00e+00	0	41	0	1702887424	47	3855
2026-01-30 14:12:45.19	274.91	21.31	-37.7	-38.4	25.2	0.00e+00	0	41	0	1709178880	47	3814
2026-01-30 14:12:46.20	275.17	21.32	-37.7	-38.4	25.2	0.00e+00	0	41	0	1714421760	47	3808
2026-01-30 14:12:47.21	275.43	21.33	-37.8	-38.5	25.1	0.00e+00	0	41	0	1719664640	47	3862
2026-01-30 14:12:48.22	275.70	21.33	-37.8	-38.5	25.2	0.00e+00	0	41	0	1725956096	47	3858
2026-01-30 14:12:49.23	275.96	21.34	-37.8	-38.5	25.2	0.00e+00	0	41	0	1731198976	47	3844
2026-01-30 14:12:50.23	276.22	21.34	-37.9	-38.6	25.1	0.00e+00	0	41	0	1736441856	47	3883
2026-01-30 14:12:51.23	276.48	21.34	-37.8	-38.5	25.1	0.00e+00	0	41	0	1742733312	47	3867
2026-01-30 14:12:52.25	276.75	21.35	-37.8	-38.5	25.2	0.00e+00	0	41	0	1749024768	47	3865
2026-01-30 14:12:53.26	277.01	21.35	-37.9	-38.6	25.1	0.00e+00	0	41	0	1754267648	47	3897
2026-01-30 14:12:54.26	277.27	21.35	-38.0	-38.7	25.0	0.00e+00	0	41	0	1759510528	47	3926
2026-01-30 14:12:55.27	277.54	21.35	-37.9	-38.6	25.1	0.00e+00	0	41	0	1765801984	47	3896
2026-01-30 14:12:56.28	277.80	21.35	-37.9	-38.6	25.2	0.00e+00	0	41	0	1771044864	47	3902
2026-01-30 14:12:57.29	278.07	21.35	-38.0	-38.7	25.1	0.00e+00	0	41	0	1776287744	47	3937
2026-01-30 14:12:58.29	278.33	21.35	-38.0	-38.7	25.0	0.00e+00	0	41	0	1782579200	47	3941
2026-01-30 14:12:59.30	278.59	21.35	-38.0	-38.8	25.0	0.00e+00	0	41	0	1787822080	47	3965
2026-01-30 14:13:00.31	278.85	21.35	-37.9	-38.6	25.1	0.00e+00	0	41	0	1794113536	47	3896
2026-01-30 14:13:01.32	279.12	21.35	-37.9	-38.6	25.2	0.00e+00	0	41	0	1799356416	47	3886
2026-01-30 14:13:02.33	279.38	21.35	-37.9	-38.6	25.2	0.00e+00	0	41	0	1804599296	47	3880
2026-01-30 14:13:03.33	279.64	21.34	-37.9	-38.5	25.2	0.00e+00	0	41	0	1810890752	47	3868
2026-01-30 14:13:04.34	279.91	21.34	-37.9	-38.6	25.2	0.00e+00	0	41	0	1817182208	47	3888
2026-01-30 14:13:05.34	280.17	21.33	-37.9	-38.6	25.1	0.00e+00	0	41	0	1822425088	47	3911
2026-01-30 14:13:06.35	280.43	21.33	-37.9	-38.6	25.1	0.00e+00	0	41	0	1827667968	47	3885
2026-01-30 14:13:07.36	280.69	21.32	-37.9	-38.6	25.1	0.00e+00	0	41	0	1833959424	47	3903
2026-01-30 14:13:08.37	280.96	21.32	-37.9	-38.6	25.2	0.00e+00	0	41	0	1839202304	47	3882
2026-01-30 14:13:09.38	281.22	21.31	-37.9	-38.6	25.1	0.00e+00	0	41	0	1844445184	47	3895
2026-01-30 14:13:10.39	281.48	21.30	-37.9	-38.6	25.1	0.00e+00	0	41	0	1850736640	47	3907
2026-01-30 14:13:11.40	281.75	21.29	-37.9	-38.7	25.1	0.00e+00	0	41	0	1855979520	47	3925
2026-01-30 14:13:12.41	282.01	21.28	-38.0	-38.7	25.1	0.00e+00	0	41	0	1861222400	47	3932
2026-01-30 14:13:13.42	282.27	21.27	-38.0	-38.7	25.1	0.00e+00	0	41	0	1867513856	47	3925
2026-01-30 14:13:14.43	282.53	21.26	-38.0	-38.8	25.0	0.00e+00	0	41	0	1872756736	47	3959
2026-01-30 14:13:15.44	282.80	21.25	-38.0	-38.7	25.0	0.00e+00	0	41	0	1879048192	47	3941
2026-01-30 14:13:16.45	283.06	21.24	-38.1	-38.9	24.9	0.00e+00	0	41	0	1884291072	47	4009
2026-01-30 14:13:17.45	283.32	21.23	-38.2	-39.0	24.8	0.00e+00	0	41	0	1890582528	47	4058
2026-01-30 14:13:18.46	283.58	21.22	-38.1	-38.9	24.9	0.00e+00	0	41	0	1895825408	47	4015
2026-01-30 14:13:19.47	283.84	21.21	-38.1	-38.8	25.0	0.00e+00	0	41	0	1902116864	47	3983
2026-01-30 14:13:20.48	284.10	21.19	-38.1	-38.8	25.0	0.00e+00	0	41	0	1907359744	47	3999
2026-01-30 14:13:21.49	284.36	21.18	-38.0	-38.7	25.1	0.00e+00	0	41	0	1912602624	47	3926
2026-01-30 14:13:22.50	284.62	21.16	-38.1	-38.8	25.0	0.00e+00	0	41	0	1918894080	47	3964
2026-01-30 14:13:23.51	284.88	21.15	-37.9	-38.6	25.2	0.00e+00	0	41	0	1924136960	47	3878
2026-01-30 14:13:24.52	285.14	21.13	-37.8	-38.5	25.2	0.00e+00	0	41	0	1929379840	47	3840
2026-01-30 14:13:25.53	285.40	21.12	-37.7	-38.4	25.4	0.00e+00	0	41	0	1935671296	47	3792
2026-01-30 14:13:26.54	285.66	21.10	-37.8	-38.5	25.3	0.00e+00	0	41	0	1941962752	47	3825
2026-01-30 14:13:27.55	285.92	21.08	-37.9	-38.6	25.2	0.00e+00	0	41	0	1947205632	47	3881
2026-01-30 14:13:28.56	286.18	21.06	-38.1	-38.8	25.0	0.00e+00	0	41	0	1952448512	47	3971
2026-01-30 14:13:29.57	286.44	21.04	-38.1	-38.8	25.0	0.00e+00	0	41	0	1958739968	47	3994
2026-01-30 14:13:30.58	286.70	21.02	-38.2	-38.9	24.9	0.00e+00	0	41	0	1963982848	47	4050
2026-01-30 14:13:31.59	286.96	21.00	-38.2	-38.9	24.9	0.00e+00	0	41	0	1969225728	47	4033
2026-01-30 14:13:32.60	287.22	20.98	-38.2	-38.9	24.9	0.00e+00	0	41	0	1975517184	47	4031
2026-01-30 14:13:33.61	287.47	20.96	-38.2	-38.9	24.9	0.00e+00	0	41	0	1980760064	47	4038
2026-01-30 14:13:34.62	287.73	20.94	-38.2	-39.0	24.9	0.00e+00	0	41	0	1987051520	47	4067
2026-01-30 14:13:35.63	287.99	20.92	-38.4	-39.1	24.7	0.00e+00	0	41	0	1992294400	47	4131
2026-01-30 14:13:36.63	288.24	20.90	-38.3	-39.1	24.8	0.00e+00	0	41	0	1997537280	47	4111
2026-01-30 14:13:37.64	288.50	20.87	-38.4	-39.1	24.8	0.00e+00	0	41	0	2003828736	47	4143
2026-01-30 14:13:38.65	288.75	20.85	-38.3	-39.1	24.8	0.00e+00	0	41	0	2010120192	47	4110
2026-01-30 14:13:39.66	289.01	20.83	-38.4	-39.2	24.7	0.00e+00	0	41	0	2015363072	47	4150
2026-01-30 14:13:40.67	289.26	20.80	-38.4	-39.2	24.7	0.00e+00	0	41	0	2020605952	47	4147
2026-01-30 14:13:41.68	289.52	20.77	-38.3	-39.0	24.9	0.00e+00	0	41	0	2026897408	47	4075
2026-01-30 14:13:42.69	289.77	20.75	-38.3	-39.0	24.8	0.00e+00	0	41	0	2032140288	47	4098
2026-01-30 14:13:43.70	290.02	20.72	-38.3	-39.0	24.8	0.00e+00	0	41	0	2037383168	47	4095
2026-01-30 14:13:44.71	290.28	20.70	-38.5	-39.2	24.7	0.00e+00	0	41	0	2043674624	47	4171
2026-01-30 14:13:45.72	290.53	20.67	-38.5	-39.3	24.6	0.00e+00	0	41	0	2048917504	47	4200
2026-01-30 14:13:46.73	290.78	20.64	-38.6	-39.3	24.7	0.00e+00	0	41	0	2054160384	47	4215
2026-01-30 14:13:47.74	291.03	20.61	-38.6	-39.4	24.6	0.00e+00	0	41	0	2060451840	47	4250
2026-01-30 14:13:48.75	291.28	20.58	-39.0	-39.7	24.8	0.00e+00	0	41	0	2066743296	48	4165
2026-01-30 14:13:49.76	291.54	20.55	-38.8	-39.5	24.9	0.00e+00	0	41	0	2071986176	48	4098
2026-01-30 14:13:50.77	291.79	20.52	-38.8	-39.5	24.9	0.00e+00	0	41	0	2077229056	48	4095
2026-01-30 14:13:51.77	292.03	20.49	-38.9	-39.6	24.9	0.00e+00	0	41	0	2083520512	48	4106
2026-01-30 14:13:52.78	292.28	20.46	-38.7	-39.4	25.1	0.00e+00	0	41	0	2088763392	48	4028
2026-01-30 14:13:53.79	292.53	20.43	-38.8	-39.5	25.0	0.00e+00	0	41	0	2095054848	48	4058
2026-01-30 14:13:54.80	292.78	20.40	-38.6	-39.3	25.2	0.00e+00	0	41	0	2100297728	48	3968
2026-01-30 14:13:55.80	293.03	20.37	-38.6	-39.3	25.1	0.00e+00	0	41	0	2105540608	48	3999
2026-01-30 14:13:56.81	293.27	20.33	-38.6	-39.3	25.2	0.00e+00	0	41	0	2111832064	48	3986
2026-01-30 14:13:57.82	293.52	20.30	-38.6	-39.3	25.2	0.00e+00	0	41	0	2117074944	48	3986
2026-01-30 14:13:58.83	293.77	20.26	-38.6	-39.3	25.2	0.00e+00	0	41	0	2122317824	48	3998
2026-01-30 14:13:59.84	294.01	20.23	-38.7	-39.4	25.0	0.00e+00	0	41	0	2128609280	48	4037
2026-01-30 14:14:00.85	294.26	20.20	-38.7	-39.4	25.0	0.00e+00	0	41	0	2134900736	48	4042
2026-01-30 14:14:01.86	294.50	20.16	-38.7	-39.4	25.1	0.00e+00	0	41	0	2140143616	48	4030
2026-01-30 14:14:02.87	294.75	20.12	-38.6	-39.3	25.2	0.00e+00	0	41	0	2145386496	48	3977
2026-01-30 14:14:03.88	294.99	20.09	-38.6	-39.3	25.2	0.00e+00	0	41	0	2151677952	48	3960
2026-01-30 14:14:04.89	295.23	20.05	-38.7	-39.4	25.1	0.00e+00	0	41	0	2156920832	48	4044
2026-01-30 14:14:05.89	295.47	20.01	-38.7	-39.5	25.0	0.00e+00	0	41	0	2162163712	48	4053
2026-01-30 14:14:06.90	295.71	19.98	-38.7	-39.5	25.0	0.00e+00	0	41	0	2168455168	48	4052
2026-01-30 14:14:07.91	295.95	19.94	-38.7	-39.4	25.0	0.00e+00	0	41	0	2173698048	48	4033
2026-01-30 14:14:08.92	296.19	19.90	-38.8	-39.5	24.9	0.00e+00	0	41	0	2179989504	48	4072
2026-01-30 14:14:09.93	296.43	19.86	-38.8	-39.5	25.0	0.00e+00	0	41	0	2185232384	48	4060
2026-01-30 14:14:10.93	296.67	19.82	-38.8	-39.5	24.9	0.00e+00	0	41	0	2190475264	48	4064
2026-01-30 14:14:11.94	296.91	19.78	-38.8	-39.5	24.9	0.00e+00	0	41	0	2196766720	48	4090
2026-01-30 14:14:12.94	297.15	19.74	-38.9	-39.6	24.8	0.00e+00	0	41	0	2203058176	48	4141
2026-01-30 14:14:13.95	297.38	19.70	-39.0	-39.7	24.7	0.00e+00	0	41	0	2208301056	48	4188
2026-01-30 14:14:14.96	297.62	19.66	-39.0	-39.7	24.8	0.00e+00	0	41	0	2213543936	48	4170
2026-01-30 14:14:15.97	297.86	19.62	-39.0	-39.8	24.7	0.00e+00	0	41	0	2219835392	48	4202
2026-01-30 14:14:16.98	298.09	19.58	-39.1	-39.8	24.6	0.00e+00	0	41	0	2225078272	48	4238
2026-01-30 14:14:17.99	298.33	19.54	-39.1	-39.8	24.6	0.00e+00	0	41	0	2230321152	48	4212
2026-01-30 14:14:19.00	298.56	19.49	-39.1	-39.8	24.6	0.00e+00	0	41	0	2236612608	48	4237
2026-01-30 14:14:20.01	298.80	19.45	-39.1	-39.8	24.6	0.00e+00	0	41	0	2241855488	48	4223
2026-01-30 14:14:21.02	299.03	19.41	-39.0	-39.8	24.6	0.00e+00	0	41	0	2247098368	48	4199
2026-01-30 14:14:22.03	299.26	19.36	-39.0	-39.7	24.7	0.00e+00	0	41	0	2253389824	48	4179
2026-01-30 14:14:23.03	299.49	19.32	-39.0	-39.7	24.6	0.00e+00	0	41	0	2258632704	48	4192
2026-01-30 14:14:24.04	299.72	19.27	-38.9	-39.6	24.7	0.00e+00	0	41	0	2264924160	48	4141
2026-01-30 14:14:25.05	299.95	19.23	-38.9	-39.7	24.7	0.00e+00	0	41	0	2270167040	48	4157
2026-01-30 14:14:26.06	300.18	19.18	-39.0	-39.7	24.7	0.00e+00	0	41	0	2276458496	48	4155
2026-01-30 14:14:27.07	300.41	19.14	-39.0	-39.8	24.6	0.00e+00	0	41	0	2281701376	48	4203
2026-01-30 14:14:28.08	300.64	19.09	-39.1	-39.9	24.5	0.00e+00	0	41	0	2287992832	48	4243
2026-01-30 14:14:29.09	300.87	19.05	-39.1	-39.8	24.5	0.00e+00	0	41	0	2293235712	48	4217
2026-01-30 14:14:30.09	301.09	19.00	-39.1	-39.8	24.5	0.00e+00	0	41	0	2298478592	48	4232
2026-01-30 14:14:31.10	301.32	18.95	-39.1	-39.8	24.5	0.00e+00	0	41	0	2304770048	48	4226
2026-01-30 14:14:32.11	301.55	18.90	-39.1	-39.9	24.5	0.00e+00	0	41	0	2310012928	48	4251
2026-01-30 14:14:33.12	301.77	18.86	-39.1	-39.8	24.5	0.00e+00	0	41	0	2315255808	48	4223
2026-01-30 14:14:34.13	301.99	18.81	-39.0	-39.8	24.5	0.00e+00	0	41	0	2321547264	48	4201
2026-01-30 14:14:35.13	302.22	18.76	-39.1	-39.8	24.5	0.00e+00	0	41	0	2326790144	48	4241
2026-01-30 14:14:36.14	302.44	18.71	-39.2	-39.9	24.4	0.00e+00	0	41	0	2333081600	48	4264
2026-01-30 14:14:37.15	302.66	18.66	-39.0	-39.8	24.5	0.00e+00	0	41	0	2338324480	48	4201
2026-01-30 14:14:38.16	302.88	18.61	-39.1	-39.8	24.4	0.00e+00	0	41	0	2344615936	48	4236
2026-01-30 14:14:39.17	303.10	18.56	-39.0	-39.7	24.5	0.00e+00	0	41	0	2349858816	48	4184
2026-01-30 14:14:40.17	303.32	18.51	-39.0	-39.7	24.6	0.00e+00	0	41	0	2355101696	48	4169
2026-01-30 14:14:41.18	303.54	18.46	-39.0	-39.7	24.5	0.00e+00	0	41	0	2361393152	48	4193
2026-01-30 14:14:42.19	303.76	18.41	-39.0	-39.7	24.6	0.00e+00	0	41	0	2366636032	48	4165
2026-01-30 14:14:43.20	303.98	18.36	-39.0	-39.7	24.6	0.00e+00	0	41	0	2372927488	48	4176
2026-01-30 14:14:44.21	304.20	18.31	-39.1	-39.8	24.5	0.00e+00	0	41	0	2378170368	48	4206
2026-01-30 14:14:45.21	304.41	18.26	-39.0	-39.7	24.5	0.00e+00	0	41	0	2383413248	48	4176
2026-01-30 14:14:46.22	304.63	18.21	-39.0	-39.7	24.5	0.00e+00	0	41	0	2389704704	48	4180
2026-01-30 14:14:47.23	304.84	18.16	-39.0	-39.7	24.5	0.00e+00	0	41	0	2394947584	48	4184
2026-01-30 14:14:48.24	305.06	18.10	-39.0	-39.8	24.5	0.00e+00	0	41	0	2400190464	48	4200
2026-01-30 14:14:49.25	305.27	18.05	-39.1	-39.9	24.4	0.00e+00	0	41	0	2406481920	48	4258
2026-01-30 14:14:50.25	305.48	18.00	-39.0	-39.8	24.5	0.00e+00	0	41	0	2412773376	48	4206
2026-01-30 14:14:51.26	305.69	17.95	-39.1	-39.8	24.4	0.00e+00	0	41	0	2418016256	48	4222
2026-01-30 14:14:52.27	305.90	17.89	-39.1	-39.8	24.4	0.00e+00	0	41	0	2423259136	48	4238
2026-01-30 14:14:53.28	306.11	17.84	-39.0	-39.8	24.4	0.00e+00	0	41	0	2429550592	48	4205
2026-01-30 14:14:54.29	306.32	17.79	-39.1	-39.8	24.4	0.00e+00	0	41	0	2434793472	48	4212
2026-01-30 14:14:55.30	306.53	17.73	-39.1	-39.8	24.4	0.00e+00	0	41	0	2440036352	48	4213
2026-01-30 14:14:56.31	306.74	17.68	-39.0	-39.8	24.4	0.00e+00	0	41	0	2446327808	48	4195
2026-01-30 14:14:57.31	306.95	17.62	-39.0	-39.7	24.5	0.00e+00	0	41	0	2451570688	48	4172
2026-01-30 14:14:58.33	307.16	17.57	-39.0	-39.7	24.5	0.00e+00	0	41	0	2457862144	48	4171
2026-01-30 14:14:59.33	307.36	17.51	-39.1	-39.8	24.4	0.00e+00	0	41	0	2463105024	48	4216
2026-01-30 14:15:00.34	307.57	17.46	-39.2	-40.0	24.3	0.00e+00	0	41	0	2469396480	48	4292
2026-01-30 14:15:01.35	307.77	17.40	-39.4	-40.1	24.1	0.00e+00	0	41	0	2474639360	49	4140
2026-01-30 14:15:02.36	307.98	17.35	-39.4	-40.2	24.1	0.00e+00	0	41	0	2480930816	49	4151
2026-01-30 14:15:03.37	308.18	17.29	-39.5	-40.3	24.0	0.00e+00	0	41	0	2486173696	49	4194
2026-01-30 14:15:04.37	308.38	17.23	-39.5	-40.2	24.0	0.00e+00	0	41	0	2491416576	49	4175
2026-01-30 14:15:05.38	308.58	17.18	-39.4	-40.2	24.0	0.00e+00	0	41	0	2497708032	49	4165
2026-01-30 14:15:06.39	308.78	17.12	-39.5	-40.2	24.0	0.00e+00	0	41	0	2502950912	49	4175
2026-01-30 14:15:07.40	308.98	17.06	-39.5	-40.2	24.0	0.00e+00	0	41	0	2508193792	49	4176
2026-01-30 14:15:08.41	309.18	17.01	-39.4	-40.1	24.1	0.00e+00	0	41	0	2514485248	49	4123
2026-01-30 14:15:09.41	309.38	16.95	-39.4	-40.1	24.1	0.00e+00	0	41	0	2519728128	49	4132
2026-01-30 14:15:10.42	309.58	16.89	-39.4	-40.1	24.1	0.00e+00	0	41	0	2524971008	49	4128
2026-01-30 14:15:11.43	309.78	16.84	-39.4	-40.1	24.1	0.00e+00	0	41	0	2531262464	49	4132
2026-01-30 14:15:12.43	309.97	16.78	-39.3	-40.1	24.1	0.00e+00	0	41	0	2536505344	49	4104
2026-01-30 14:15:13.44	310.17	16.72	-39.3	-40.0	24.2	0.00e+00	0	41	0	2542796800	49	4067
2026-01-30 14:15:14.45	310.36	16.66	-39.3	-40.0	24.1	0.00e+00	0	41	0	2548039680	49	4092
2026-01-30 14:15:15.46	310.56	16.61	-39.2	-39.9	24.3	0.00e+00	0	41	0	2554331136	49	4030
2026-01-30 14:15:16.47	310.75	16.55	-39.2	-40.0	24.2	0.00e+00	0	41	0	2559574016	49	4058
2026-01-30 14:15:17.47	310.94	16.49	-39.2	-39.9	24.3	0.00e+00	0	41	0	2565865472	49	4023
2026-01-30 14:15:18.48	311.14	16.43	-39.2	-39.9	24.2	0.00e+00	0	41	0	2571108352	49	4050
2026-01-30 14:15:19.49	311.33	16.37	-39.3	-40.1	24.1	0.00e+00	0	41	0	2576351232	49	4107
2026-01-30 14:15:20.50	311.52	16.31	-39.4	-40.1	24.0	0.00e+00	0	41	0	2582642688	49	4129
2026-01-30 14:15:21.51	311.71	16.25	-39.5	-40.3	23.9	0.00e+00	0	41	0	2587885568	49	4195
2026-01-30 14:15:22.52	311.90	16.19	-39.6	-40.4	23.8	0.00e+00	0	41	0	2593128448	49	4249
2026-01-30 14:15:23.53	312.09	16.13	-39.7	-40.5	23.7	0.00e+00	0	41	0	2599419904	50	4080
2026-01-30 14:15:24.53	312.27	16.07	-39.7	-40.5	23.7	0.00e+00	0	41	0	2604662784	50	4073
2026-01-30 14:15:25.54	312.46	16.01	-39.8	-40.6	23.6	0.00e+00	0	41	0	2610954240	50	4104
2026-01-30 14:15:26.55	312.65	15.95	-39.7	-40.5	23.6	0.00e+00	0	41	0	2616197120	50	4076
2026-01-30 14:15:27.56	312.83	15.89	-39.8	-40.5	23.6	0.00e+00	0	41	0	2622488576	50	4098
2026-01-30 14:15:28.57	313.02	15.83	-39.8	-40.5	23.6	0.00e+00	0	41	0	2627731456	50	4093
2026-01-30 14:15:29.57	313.20	15.77	-39.9	-40.7	23.5	0.00e+00	0	41	0	2632974336	50	4158
2026-01-30 14:15:30.58	313.38	15.71	-40.0	-40.8	23.4	0.00e+00	0	41	0	2639265792	50	4205
2026-01-30 14:15:31.59	313.57	15.65	-40.1	-40.9	23.3	0.00e+00	0	41	0	2644508672	50	4282
2026-01-30 14:15:32.60	313.75	15.59	-40.2	-41.0	23.3	0.00e+00	0	41	0	2650800128	50	4296
2026-01-30 14:15:33.61	313.93	15.53	-40.1	-40.9	23.2	0.00e+00	0	41	0	2656043008	50	4287
2026-01-30 14:15:34.61	314.11	15.47	-40.1	-40.9	23.2	0.00e+00	0	41	0	2661285888	50	4281
2026-01-30 14:15:35.62	314.29	15.41	-40.0	-40.8	23.4	0.00e+00	0	41	0	2667577344	50	4208
2026-01-30 14:15:36.63	314.47	15.35	-39.8	-40.6	23.6	0.00e+00	0	41	0	2672820224	50	4100
2026-01-30 14:15:37.63	314.65	15.29	-39.7	-40.4	23.7	0.00e+00	0	41	0	2678063104	50	4037
2026-01-30 14:15:38.64	314.82	15.23	-39.7	-40.4	23.6	0.00e+00	0	41	0	2684354560	50	4045
2026-01-30 14:15:39.64	315.00	15.17	-39.6	-40.4	23.7	0.00e+00	0	41	0	2689597440	50	4025
2026-01-30 14:15:40.65	315.18	15.11	-39.7	-40.4	23.7	0.00e+00	0	41	0	2695888896	50	4032
2026-01-30 14:15:41.66	315.35	15.04	-39.6	-40.3	23.8	0.00e+00	0	41	0	2701131776	50	3996
2026-01-30 14:15:42.67	315.53	14.98	-39.5	-40.3	23.8	0.00e+00	0	41	0	2707423232	50	3979
2026-01-30 14:15:43.68	315.70	14.92	-39.6	-40.4	23.7	0.00e+00	0	41	0	2712666112	50	4029
2026-01-30 14:15:44.69	315.88	14.86	-39.6	-40.4	23.7	0.00e+00	0	41	0	2717908992	50	4012
2026-01-30 14:15:45.69	316.05	14.80	-39.7	-40.4	23.6	0.00e+00	0	41	0	2724200448	50	4049
2026-01-30 14:15:46.70	316.22	14.74	-39.6	-40.4	23.7	0.00e+00	0	41	0	2729443328	50	4031
2026-01-30 14:15:47.71	316.39	14.67	-39.6	-40.4	23.7	0.00e+00	0	41	0	2735734784	50	4016
2026-01-30 14:15:48.72	316.56	14.61	-39.6	-40.4	23.7	0.00e+00	0	41	0	2740977664	50	4020
2026-01-30 14:15:49.72	316.73	14.55	-39.6	-40.4	23.7	0.00e+00	0	41	0	2746220544	50	4006
2026-01-30 14:15:50.73	316.90	14.49	-39.6	-40.4	23.7	0.00e+00	0	41	0	2752512000	50	4010
2026-01-30 14:15:51.73	317.07	14.43	-39.7	-40.5	23.6	0.00e+00	0	41	0	2757754880	50	4060
2026-01-30 14:15:52.74	317.24	14.36	-39.7	-40.5	23.6	0.00e+00	0	41	0	2764046336	50	4052
2026-01-30 14:15:53.75	317.40	14.30	-39.7	-40.5	23.6	0.00e+00	0	41	0	2769289216	50	4059
2026-01-30 14:15:54.76	317.57	14.24	-39.7	-40.5	23.5	0.00e+00	0	41	0	2775580672	50	4069
2026-01-30 14:15:55.76	317.74	14.18	-39.9	-40.6	23.4	0.00e+00	0	41	0	2780823552	50	4131
2026-01-30 14:15:56.77	317.90	14.11	-39.9	-40.7	23.3	0.00e+00	0	41	0	2786066432	50	4161
2026-01-30 14:15:57.78	318.07	14.05	-40.1	-40.8	23.2	0.00e+00	0	41	0	2792357888	50	4240
2026-01-30 14:15:58.79	318.23	13.99	-40.0	-40.8	23.2	0.00e+00	0	41	0	2797600768	50	4216
2026-01-30 14:15:59.79	318.39	13.93	-40.1	-40.9	23.1	0.00e+00	0	41	0	2802843648	50	4260
2026-01-30 14:16:00.80	318.55	13.86	-40.0	-40.8	23.2	0.00e+00	0	41	0	2809135104	50	4200
2026-01-30 14:16:01.81	318.72	13.80	-40.0	-40.7	23.2	0.00e+00	0	41	0	2814377984	50	4193
2026-01-30 14:16:02.82	318.88	13.74	-39.9	-40.7	23.3	0.00e+00	0	41	0	2820669440	50	4171
2026-01-30 14:16:03.83	319.04	13.67	-40.0	-40.7	23.2	0.00e+00	0	41	0	2825912320	50	4191
2026-01-30 14:16:04.83	319.20	13.61	-40.1	-40.9	23.1	0.00e+00	0	41	0	2831155200	50	4260
2026-01-30 14:16:05.84	319.36	13.55	-40.1	-40.9	23.1	0.00e+00	0	41	0	2837446656	50	4286
2026-01-30 14:16:06.84	319.51	13.49	-40.2	-41.0	23.0	0.00e+00	0	41	0	2843738112	50	4301
2026-01-30 14:16:07.85	319.67	13.42	-40.2	-41.1	22.9	0.00e+00	0	41	0	2848980992	51	4099
2026-01-30 14:16:08.86	319.83	13.36	-40.4	-41.2	22.8	0.00e+00	0	41	0	2854223872	51	4165
2026-01-30 14:16:09.87	319.99	13.30	-40.3	-41.1	22.9	0.00e+00	0	41	0	2860515328	51	4133
2026-01-30 14:16:10.88	320.14	13.23	-40.3	-41.1	22.9	0.00e+00	0	41	0	2865758208	51	4111
2026-01-30 14:16:11.89	320.30	13.17	-40.2	-41.0	23.0	0.00e+00	0	41	0	2871001088	51	4063
2026-01-30 14:16:12.90	320.45	13.11	-40.1	-40.9	23.1	0.00e+00	0	41	0	2877292544	51	4017
2026-01-30 14:16:13.91	320.61	13.04	-40.1	-40.9	23.1	0.00e+00	0	41	0	2882535424	51	4023
2026-01-30 14:16:14.92	320.76	12.98	-40.2	-41.0	23.0	0.00e+00	0	41	0	2887778304	51	4059
2026-01-30 14:16:15.93	320.91	12.92	-40.1	-40.8	23.1	0.00e+00	0	41	0	2894069760	51	3994
2026-01-30 14:16:16.94	321.07	12.85	-40.0	-40.8	23.1	0.00e+00	0	41	0	2900361216	51	3991
2026-01-30 14:16:17.95	321.22	12.79	-40.1	-40.9	23.1	0.00e+00	0	41	0	2905604096	51	4021
2026-01-30 14:16:18.96	321.37	12.73	-40.2	-40.9	23.0	0.00e+00	0	41	0	2910846976	51	4051
2026-01-30 14:16:19.97	321.52	12.66	-40.1	-40.9	23.1	0.00e+00	0	41	0	2917138432	51	4009
2026-01-30 14:16:20.98	321.67	12.60	-40.2	-41.0	22.9	0.00e+00	0	41	0	2922381312	51	4088
2026-01-30 14:16:21.99	321.82	12.54	-40.2	-41.0	23.0	0.00e+00	0	41	0	2928672768	51	4056
2026-01-30 14:16:23.00	321.97	12.47	-40.1	-40.9	23.1	0.00e+00	0	41	0	2933915648	51	4018
2026-01-30 14:16:24.01	322.12	12.41	-40.1	-40.9	23.0	0.00e+00	0	41	0	2939158528	51	4029
2026-01-30 14:16:25.02	322.26	12.34	-40.1	-40.9	23.0	0.00e+00	0	41	0	2945449984	51	4047
2026-01-30 14:16:26.03	322.41	12.28	-40.2	-41.0	22.9	0.00e+00	0	41	0	2950692864	51	4064
2026-01-30 14:16:27.03	322.55	12.22	-40.1	-40.9	23.0	0.00e+00	0	41	0	2955935744	51	4006
2026-01-30 14:16:28.04	322.70	12.16	-40.1	-40.9	23.0	0.00e+00	0	41	0	2962227200	51	4035
2026-01-30 14:16:29.05	322.85	12.09	-40.0	-40.8	23.1	0.00e+00	0	41	0	2968518656	51	3976
2026-01-30 14:16:30.05	322.99	12.03	-40.1	-40.9	23.0	0.00e+00	0	41	0	2973761536	51	4021
2026-01-30 14:16:31.07	323.13	11.96	-40.2	-41.0	22.9	0.00e+00	0	41	0	2979004416	51	4069
2026-01-30 14:16:32.08	323.28	11.90	-40.2	-41.0	22.9	0.00e+00	0	41	0	2985295872	51	4061
2026-01-30 14:16:33.09	323.42	11.84	-40.3	-41.0	22.8	0.00e+00	0	41	0	2990538752	51	4090
2026-01-30 14:16:34.09	323.56	11.78	-40.3	-41.1	22.7	0.00e+00	0	41	0	2995781632	51	4124
2026-01-30 14:16:35.10	323.70	11.71	-40.3	-41.1	22.8	0.00e+00	0	41	0	3002073088	51	4122
2026-01-30 14:16:36.11	323.84	11.65	-40.3	-41.1	22.7	0.00e+00	0	41	0	3007315968	51	4141
2026-01-30 14:16:37.12	323.98	11.59	-40.4	-41.2	22.6	0.00e+00	0	41	0	3013607424	51	4192
2026-01-30 14:16:38.12	324.12	11.52	-40.6	-41.4	22.5	0.00e+00	0	41	0	3018850304	51	4276
2026-01-30 14:16:39.13	324.26	11.46	-40.6	-41.4	22.4	0.00e+00	0	41	0	3024093184	51	4280
2026-01-30 14:16:40.14	324.40	11.40	-40.7	-41.5	22.4	0.00e+00	0	41	0	3030384640	51	4326
2026-01-30 14:16:41.15	324.54	11.33	-40.7	-41.6	22.2	0.00e+00	0	41	0	3036676096	52	4103
2026-01-30 14:16:42.16	324.67	11.27	-40.7	-41.5	22.3	0.00e+00	0	41	0	3041918976	52	4084
2026-01-30 14:16:43.17	324.81	11.21	-40.6	-41.5	22.3	0.00e+00	0	41	0	3047161856	52	4061
2026-01-30 14:16:44.17	324.95	11.14	-40.7	-41.5	22.3	0.00e+00	0	41	0	3053453312	52	4079
2026-01-30 14:16:45.18	325.08	11.08	-40.7	-41.5	22.3	0.00e+00	0	41	0	3058696192	52	4064
2026-01-30 14:16:46.19	325.22	11.02	-40.8	-41.6	22.2	0.00e+00	0	41	0	3063939072	52	4112
2026-01-30 14:16:47.20	325.35	10.95	-40.7	-41.5	22.3	0.00e+00	0	41	0	3070230528	52	4068
2026-01-30 14:16:48.21	325.48	10.89	-40.7	-41.5	22.3	0.00e+00	0	41	0	3075473408	52	4063
2026-01-30 14:16:49.23	325.62	10.83	-40.7	-41.5	22.3	0.00e+00	0	41	0	3080716288	52	4065
2026-01-30 14:16:50.23	325.75	10.76	-40.5	-41.3	22.4	0.00e+00	0	41	0	3087007744	52	3997
2026-01-30 14:16:51.24	325.88	10.70	-40.5	-41.3	22.4	0.00e+00	0	41	0	3093299200	52	3973
2026-01-30 14:16:52.25	326.01	10.64	-40.5	-41.4	22.4	0.00e+00	0	41	0	3098542080	52	4005
2026-01-30 14:16:53.26	326.15	10.58	-40.5	-41.3	22.4	0.00e+00	0	41	0	3103784960	52	3980
2026-01-30 14:16:54.27	326.28	10.51	-40.5	-41.4	22.3	0.00e+00	0	41	0	3110076416	52	4011
2026-01-30 14:16:55.28	326.41	10.45	-40.6	-41.4	22.3	0.00e+00	0	41	0	3115319296	52	4048
2026-01-30 14:16:56.29	326.54	10.39	-40.7	-41.6	22.1	0.00e+00	0	41	0	3121610752	52	4109
2026-01-30 14:16:57.29	326.66	10.32	-40.8	-41.7	22.1	0.00e+00	0	41	0	3126853632	52	4147
2026-01-30 14:16:58.30	326.79	10.26	-40.9	-41.7	22.0	0.00e+00	0	41	0	3132096512	52	4187
2026-01-30 14:16:59.31	326.92	10.20	-40.9	-41.8	21.9	0.00e+00	0	41	0	3138387968	52	4208
2026-01-30 14:17:00.32	327.05	10.14	-41.0	-41.9	21.8	0.00e+00	0	41	0	3143630848	52	4251
2026-01-30 14:17:01.32	327.17	10.07	-41.0	-41.8	21.9	0.00e+00	0	41	0	3148873728	52	4239
2026-01-30 14:17:02.33	327.30	10.01	-41.0	-41.9	21.8	0.00e+00	0	41	0	3155165184	52	4246
2026-01-30 14:17:03.34	327.43	9.95	-41.0	-41.8	21.9	0.00e+00	0	41	0	3160408064	52	4231
2026-01-30 14:17:04.34	327.55	9.89	-40.9	-41.8	21.9	0.00e+00	0	41	0	3166699520	52	4214
2026-01-30 14:17:05.35	327.68	9.82	-40.9	-41.8	21.9	0.00e+00	0	41	0	3171942400	52	4203
2026-01-30 14:17:06.36	327.80	9.76	-41.0	-41.8	21.8	0.00e+00	0	41	0	3178233856	52	4231
2026-01-30 14:17:07.37	327.92	9.70	-40.9	-41.7	21.9	0.00e+00	0	41	0	3183476736	52	4182
2026-01-30 14:17:08.38	328.05	9.64	-40.9	-41.7	21.9	0.00e+00	0	41	0	3188719616	52	4186
2026-01-30 14:17:09.39	328.17	9.57	-40.8	-41.7	21.9	0.00e+00	0	41	0	3195011072	52	4162
2026-01-30 14:17:10.39	328.29	9.51	-40.9	-41.8	21.9	0.00e+00	0	41	0	3200253952	52	4197
2026-01-30 14:17:11.40	328.41	9.45	-40.9	-41.8	21.8	0.00e+00	0	41	0	3206545408	52	4203
2026-01-30 14:17:12.41	328.53	9.39	-41.0	-41.9	21.7	0.00e+00	0	41	0	3211788288	52	4247
2026-01-30 14:17:13.42	328.66	9.33	-41.0	-41.9	21.7	0.00e+00	0	41	0	3217031168	52	4269
2026-01-30 14:17:14.43	328.78	9.26	-41.0	-41.9	21.7	0.00e+00	0	41	0	3223322624	52	4260
2026-01-30 14:17:15.44	328.90	9.20	-41.1	-42.0	21.6	0.00e+00	0	41	0	3228565504	52	4301
2026-01-30 14:17:16.45	329.01	9.14	-41.1	-42.0	21.5	0.00e+00	0	41	0	3234856960	52	4334
2026-01-30 14:17:17.46	329.13	9.08	-41.3	-42.2	21.5	0.00e+00	0	41	0	3240099840	53	4148
2026-01-30 14:17:18.47	329.25	9.02	-41.2	-42.1	21.5	0.00e+00	0	41	0	3246391296	53	4100
2026-01-30 14:17:19.48	329.37	8.95	-41.4	-42.3	21.3	0.00e+00	0	41	0	3251634176	53	4195
2026-01-30 14:17:20.49	329.49	8.89	-41.3	-42.2	21.4	0.00e+00	0	41	0	3256877056	53	4146
2026-01-30 14:17:21.49	329.60	8.83	-41.2	-42.1	21.5	0.00e+00	0	41	0	3263168512	53	4132
2026-01-30 14:17:22.50	329.72	8.77	-41.2	-42.0	21.5	0.00e+00	0	41	0	3268411392	53	4087
2026-01-30 14:17:23.51	329.84	8.71	-41.2	-42.0	21.5	0.00e+00	0	41	0	3273654272	53	4078
2026-01-30 14:17:24.52	329.95	8.65	-41.2	-42.1	21.5	0.00e+00	0	41	0	3279945728	53	4109
2026-01-30 14:17:25.53	330.07	8.58	-41.2	-42.1	21.5	0.00e+00	0	41	0	3285188608	53	4110
2026-01-30 14:17:26.54	330.18	8.52	-41.0	-41.9	21.7	0.00e+00	0	41	0	3291480064	53	4005
2026-01-30 14:17:27.55	330.30	8.46	-41.0	-41.8	21.7	0.00e+00	0	41	0	3296722944	53	3999
2026-01-30 14:17:28.55	330.41	8.40	-41.1	-41.9	21.6	0.00e+00	0	41	0	3303014400	53	4041
2026-01-30 14:17:29.56	330.52	8.34	-41.0	-41.8	21.7	0.00e+00	0	41	0	3308257280	53	4002
2026-01-30 14:17:30.57	330.63	8.28	-41.0	-41.8	21.7	0.00e+00	0	41	0	3314548736	53	3993
2026-01-30 14:17:31.57	330.75	8.22	-41.2	-42.0	21.5	0.00e+00	0	41	0	3319791616	53	4076
2026-01-30 14:17:32.58	330.86	8.16	-41.1	-42.0	21.5	0.00e+00	0	41	0	3325034496	53	4069
2026-01-30 14:17:33.59	330.97	8.10	-41.1	-42.0	21.5	0.00e+00	0	41	0	3331325952	53	4062
2026-01-30 14:17:34.60	331.08	8.03	-41.2	-42.1	21.4	0.00e+00	0	41	0	3336568832	53	4113
2026-01-30 14:17:35.61	331.19	7.97	-41.3	-42.2	21.3	0.00e+00	0	41	0	3341811712	53	4180
2026-01-30 14:17:36.62	331.30	7.91	-41.3	-42.2	21.3	0.00e+00	0	41	0	3348103168	53	4163
2026-01-30 14:17:37.63	331.41	7.85	-41.5	-42.4	21.1	0.00e+00	0	41	0	3353346048	53	4257
2026-01-30 14:17:38.63	331.52	7.79	-41.5	-42.4	21.1	0.00e+00	0	41	0	3358588928	53	4282
2026-01-30 14:17:39.64	331.63	7.73	-41.7	-42.6	20.9	0.00e+00	0	41	0	3364880384	53	4376
2026-01-30 14:17:40.64	331.74	7.67	-41.6	-42.5	20.9	0.00e+00	0	41	0	3371171840	54	4095
2026-01-30 14:17:41.65	331.84	7.61	-41.7	-42.6	20.9	0.00e+00	0	41	0	3376414720	54	4126
2026-01-30 14:17:42.67	331.95	7.55	-41.6	-42.5	21.0	0.00e+00	0	41	0	3381657600	54	4070
2026-01-30 14:17:43.67	332.06	7.49	-41.6	-42.6	20.9	0.00e+00	0	41	0	3387949056	54	4112
2026-01-30 14:17:44.68	332.16	7.43	-41.8	-42.7	20.8	0.00e+00	0	41	0	3393191936	54	4185
2026-01-30 14:17:45.69	332.27	7.37	-41.7	-42.6	20.9	0.00e+00	0	41	0	3399483392	54	4122
2026-01-30 14:17:46.70	332.38	7.31	-41.8	-42.7	20.8	0.00e+00	0	41	0	3404726272	54	4176
2026-01-30 14:17:47.71	332.48	7.25	-41.3	-42.2	21.2	0.00e+00	0	41	0	3409969152	54	3954
2026-01-30 14:17:48.72	332.59	7.19	-41.4	-42.3	21.1	0.00e+00	0	41	0	3416260608	54	3986
2026-01-30 14:17:49.73	332.69	7.13	-41.4	-42.3	21.1	0.00e+00	0	41	0	3421503488	54	4004
2026-01-30 14:17:50.73	332.80	7.07	-41.5	-42.3	21.0	0.00e+00	0	41	0	3426746368	54	4003
2026-01-30 14:17:51.74	332.90	7.01	-41.3	-42.2	21.2	0.00e+00	0	41	0	3433037824	54	3927
2026-01-30 14:17:52.75	333.00	6.95	-41.2	-42.1	21.3	0.00e+00	0	41	0	3439329280	54	3884
2026-01-30 14:17:53.76	333.11	6.89	-41.2	-42.1	21.3	0.00e+00	0	41	0	3444572160	54	3894
2026-01-30 14:17:54.77	333.21	6.83	-41.4	-42.2	21.1	0.00e+00	0	41	0	3449815040	54	3958
2026-01-30 14:17:55.77	333.31	6.77	-41.4	-42.3	21.1	0.00e+00	0	41	0	3456106496	54	3976
2026-01-30 14:17:56.78	333.41	6.71	-41.5	-42.4	21.0	0.00e+00	0	41	0	3461349376	54	4022
2026-01-30 14:17:57.79	333.51	6.65	-41.4	-42.3	21.1	4.50e-06	0	41	0	3466592256	54	3965
2026-01-30 14:17:58.79	333.61	6.59	-41.5	-42.4	20.9	0.00e+00	0	41	0	3472883712	54	4050
2026-01-30 14:17:59.80	333.71	6.53	-41.6	-42.6	20.8	0.00e+00	0	41	0	3478126592	54	4102
2026-01-30 14:18:00.81	333.81	6.47	-41.7	-42.7	20.7	0.00e+00	0	41	0	3484418048	54	4158
2026-01-30 14:18:01.82	333.91	6.41	-41.7	-42.7	20.7	0.00e+00	0	41	0	3489660928	54	4148
2026-01-30 14:18:02.83	334.01	6.35	-41.8	-42.7	20.6	0.00e+00	0	41	0	3494903808	54	4177
2026-01-30 14:18:03.84	334.11	6.29	-41.8	-42.8	20.6	0.00e+00	0	41	0	3501195264	54	4194
2026-01-30 14:18:04.85	334.21	6.24	-41.9	-42.8	20.5	0.00e+00	0	41	0	3506438144	54	4227
2026-01-30 14:18:05.85	334.31	6.18	-41.9	-42.9	20.4	0.00e+00	0	41	0	3512729600	54	4276
2026-01-30 14:18:06.86	334.41	6.12	-41.9	-42.9	20.4	0.00e+00	0	41	0	3517972480	54	4279
