passes_logs/2026/01/30/R3.2S_Murmansk/R3.2S_Murmansk__20260130_001045_NOAA_20_JPSS-1_rec.log

#Pass ID: 20260130_001045_NOAA 20 (JPSS-1)
#Satellite: NOAA 20 (JPSS-1)
#Configuration: NOAA 20
#almurnet v.1.7.20251203
#Start time: 2026-01-30 00:10:47

#Version: 2.2.20231116
#Station: R3.2S_Murmansk
#Location: 33.079688 lon 68.888172 lat
#TLE: 1 43013U 17073A   26029.42702672  .00000137  00000+0  85918-4 0  9993
#TLE: 2 43013  98.7646 330.2153 0000804  19.9045 340.2162 14.19525092424781

#Time	Az	El	Level	Level2	SNR	BER	BlckErr	Temp	State	Recorded	gain1	gain2
2026-01-30 00:10:47.15	22.77	2.13	-53.9	-68.8	3.8	1.49e+00	0	39	0	0	79	20063
2026-01-30 00:10:48.15	22.79	2.20	-53.9	-68.9	3.8	1.49e+00	0	39	104	0	78	21468
2026-01-30 00:10:49.15	22.81	2.26	-53.9	-68.9	3.8	1.49e+00	0	39	104	0	78	21387
2026-01-30 00:10:50.17	22.83	2.33	-53.9	-68.9	3.8	1.49e+00	0	39	104	0	78	21300
2026-01-30 00:10:51.17	22.84	2.39	-53.9	-68.8	3.8	1.49e+00	0	39	104	0	78	21209
2026-01-30 00:10:52.18	22.86	2.46	-53.9	-68.8	3.8	1.49e+00	0	39	104	0	78	21255
2026-01-30 00:10:53.18	22.88	2.52	-54.1	-69.1	3.8	1.49e+00	0	39	104	0	78	21855
2026-01-30 00:10:54.19	22.90	2.59	-54.2	-69.2	3.8	1.49e+00	0	40	104	0	78	22052
2026-01-30 00:10:55.20	22.92	2.65	-54.2	-69.2	3.8	1.49e+00	0	39	104	0	78	22096
2026-01-30 00:10:56.21	22.94	2.72	-54.2	-69.2	3.8	1.49e+00	0	40	104	0	79	20905
2026-01-30 00:10:57.22	22.95	2.78	-54.2	-69.2	3.8	1.49e+00	0	39	104	0	79	20908
2026-01-30 00:10:58.22	22.97	2.85	-54.2	-69.2	3.8	1.49e+00	0	40	104	0	79	20885
2026-01-30 00:10:59.23	22.99	2.91	-54.2	-69.2	3.8	1.49e+00	0	40	104	0	79	20887
2026-01-30 00:11:00.24	23.01	2.98	-54.2	-69.2	3.8	1.49e+00	0	40	104	0	79	20840
2026-01-30 00:11:01.24	23.03	3.04	-54.2	-69.1	3.8	1.49e+00	0	40	104	0	79	20705
2026-01-30 00:11:02.25	23.05	3.11	-54.1	-69.1	3.8	1.49e+00	0	40	104	0	79	20657
2026-01-30 00:11:03.26	23.07	3.18	-54.1	-69.1	3.8	1.49e+00	0	40	104	0	79	20627
2026-01-30 00:11:04.27	23.09	3.24	-54.1	-69.1	3.8	1.49e+00	0	40	104	0	79	20699
2026-01-30 00:11:05.27	23.10	3.31	-54.1	-69.1	3.8	1.49e+00	0	40	104	0	79	20625
2026-01-30 00:11:06.28	23.12	3.38	-54.0	-69.0	3.8	1.49e+00	0	40	104	0	79	20473
2026-01-30 00:11:07.29	23.14	3.44	-54.0	-68.9	3.8	1.49e+00	0	40	104	0	79	20260
2026-01-30 00:11:08.30	23.16	3.51	-53.9	-68.8	3.8	1.49e+00	0	40	104	0	79	20060
2026-01-30 00:11:09.31	23.18	3.58	-53.8	-68.7	3.8	1.49e+00	0	40	104	0	79	19785
2026-01-30 00:11:10.31	23.20	3.65	-53.6	-68.6	3.8	1.49e+00	0	40	104	0	79	19486
2026-01-30 00:11:11.32	23.22	3.71	-53.4	-68.4	3.8	1.49e+00	0	40	104	0	78	20210
2026-01-30 00:11:12.32	23.24	3.78	-53.3	-68.2	3.8	1.49e+00	0	40	104	0	78	19765
2026-01-30 00:11:13.33	23.26	3.85	-53.0	-68.0	3.8	1.49e+00	0	40	104	0	78	19209
2026-01-30 00:11:14.34	23.28	3.92	-52.7	-67.5	3.8	1.49e+00	0	40	104	0	77	19343
2026-01-30 00:11:15.34	23.30	3.98	-52.1	-66.5	3.8	1.49e+00	0	40	104	0	76	18270
2026-01-30 00:11:16.35	23.32	4.05	-50.9	-57.2	8.4	8.34e-02	0	40	0	0	73	7435
2026-01-30 00:11:17.35	23.34	4.12	-50.4	-55.6	10.0	1.71e-02	0	40	0	2097152	72	6561
2026-01-30 00:11:18.35	23.36	4.19	-50.0	-54.4	11.4	1.43e-03	0	40	0	4194304	71	5994
2026-01-30 00:11:19.36	23.38	4.26	-49.4	-53.2	12.7	2.40e-04	0	40	0	6291456	70	5547
2026-01-30 00:11:20.36	23.40	4.33	-49.0	-52.3	13.6	2.82e-05	0	40	0	7340032	70	4995
2026-01-30 00:11:21.36	23.42	4.40	-48.2	-51.0	15.0	3.80e-06	0	40	0	9437184	68	4817
2026-01-30 00:11:22.37	23.44	4.47	-48.3	-51.2	14.8	0.00e+00	0	40	0	11534336	68	4935
2026-01-30 00:11:23.38	23.46	4.54	-47.9	-50.4	15.5	0.00e+00	0	40	0	13631488	67	4798
2026-01-30 00:11:24.38	23.48	4.61	-47.6	-49.9	15.9	0.00e+00	0	40	0	15728640	67	4540
2026-01-30 00:11:25.39	23.50	4.68	-47.5	-49.9	16.0	0.00e+00	0	40	0	16777216	66	4783
2026-01-30 00:11:26.40	23.52	4.75	-47.5	-49.8	16.0	0.00e+00	0	40	0	18874368	66	4747
2026-01-30 00:11:27.41	23.54	4.82	-47.8	-50.3	15.6	0.00e+00	0	40	0	20971520	66	5013
2026-01-30 00:11:28.41	23.56	4.89	-47.9	-50.4	15.4	0.00e+00	0	40	0	23068672	66	5091
2026-01-30 00:11:29.42	23.58	4.96	-48.4	-51.3	14.6	0.00e+00	0	40	0	25165824	67	5290
2026-01-30 00:11:30.43	23.60	5.03	-48.7	-51.8	14.0	7.00e-07	0	40	0	26214400	67	5655
2026-01-30 00:11:31.43	23.62	5.10	-48.6	-51.6	14.2	1.29e-05	0	40	0	28311552	69	4910
2026-01-30 00:11:32.44	23.64	5.17	-46.7	-48.7	17.2	0.00e+00	0	40	0	30408704	65	4417
2026-01-30 00:11:33.45	23.66	5.24	-47.9	-50.4	15.6	0.00e+00	0	40	0	32505856	66	5076
2026-01-30 00:11:34.45	23.68	5.31	-49.9	-55.3	5.2	1.16e+00	37	40	104	32505856	72	6314
2026-01-30 00:11:35.45	23.71	5.38	-46.9	-49.0	17.1	0.00e+00	0	40	0	32505856	64	4825
2026-01-30 00:11:36.46	23.73	5.46	-48.4	-51.1	14.6	2.74e-02	0	40	0	34603008	68	4900
2026-01-30 00:11:37.46	23.75	5.53	-46.2	-48.0	17.8	0.00e+00	0	40	0	36700160	64	4335
2026-01-30 00:11:38.47	23.77	5.60	-46.3	-48.1	17.8	0.00e+00	0	40	0	38797312	64	4389
2026-01-30 00:11:39.48	23.79	5.67	-46.2	-48.0	17.9	0.00e+00	0	40	0	39845888	64	4337
2026-01-30 00:11:40.49	23.81	5.75	-46.0	-47.8	18.1	0.00e+00	0	40	0	41943040	64	4202
2026-01-30 00:11:41.49	23.83	5.82	-46.1	-47.9	18.0	0.00e+00	0	40	0	44040192	64	4277
2026-01-30 00:11:42.50	23.86	5.89	-46.0	-47.7	18.3	0.00e+00	0	40	0	46137344	63	4395
2026-01-30 00:11:43.50	23.88	5.97	-46.1	-47.8	18.2	0.00e+00	0	40	0	48234496	63	4485
2026-01-30 00:11:44.51	23.90	6.04	-45.7	-47.3	18.7	0.00e+00	0	41	0	49283072	63	4237
2026-01-30 00:11:45.52	23.92	6.11	-46.2	-48.0	18.1	0.00e+00	0	40	0	51380224	63	4577
2026-01-30 00:11:46.53	23.94	6.19	-46.0	-47.7	18.4	0.00e+00	0	40	0	53477376	63	4413
2026-01-30 00:11:47.53	23.97	6.26	-45.7	-47.3	18.8	0.00e+00	0	40	0	55574528	63	4195
2026-01-30 00:11:48.53	23.99	6.34	-45.7	-47.3	18.8	0.00e+00	0	40	0	57671680	63	4194
2026-01-30 00:11:49.54	24.01	6.41	-45.9	-47.6	18.5	0.00e+00	0	40	0	58720256	63	4355
2026-01-30 00:11:50.54	24.03	6.49	-45.9	-47.5	18.6	0.00e+00	0	40	0	60817408	63	4334
2026-01-30 00:11:51.55	24.05	6.56	-45.7	-47.3	18.8	0.00e+00	0	40	0	62914560	63	4234
2026-01-30 00:11:52.56	24.08	6.64	-45.8	-47.4	18.8	0.00e+00	0	41	0	65011712	63	4259
2026-01-30 00:11:53.57	24.10	6.71	-45.8	-47.4	18.7	0.00e+00	0	40	0	67108864	63	4253
2026-01-30 00:11:54.57	24.12	6.79	-45.7	-47.3	18.9	0.00e+00	0	40	0	68157440	63	4213
2026-01-30 00:11:55.58	24.15	6.86	-45.7	-47.3	18.8	0.00e+00	0	40	0	70254592	63	4230
2026-01-30 00:11:56.58	24.17	6.94	-45.5	-47.1	19.1	0.00e+00	0	41	0	72351744	63	4111
2026-01-30 00:11:57.59	24.19	7.02	-45.7	-47.2	18.9	0.00e+00	0	41	0	74448896	63	4188
2026-01-30 00:11:58.60	24.21	7.09	-45.7	-47.3	19.0	0.00e+00	0	41	0	76546048	63	4200
2026-01-30 00:11:59.61	24.24	7.17	-45.6	-47.2	18.9	0.00e+00	0	40	0	77594624	63	4171
2026-01-30 00:12:00.61	24.26	7.25	-45.6	-47.1	19.1	0.00e+00	0	41	0	79691776	63	4129
2026-01-30 00:12:01.62	24.28	7.33	-45.6	-47.1	19.1	0.00e+00	0	41	0	81788928	63	4137
2026-01-30 00:12:02.63	24.31	7.40	-45.6	-47.1	19.1	0.00e+00	0	41	0	83886080	63	4142
2026-01-30 00:12:03.64	24.33	7.48	-45.6	-47.1	19.1	0.00e+00	0	41	0	85983232	63	4137
2026-01-30 00:12:04.64	24.36	7.56	-45.5	-47.0	19.2	0.00e+00	0	41	0	87031808	63	4097
2026-01-30 00:12:05.65	24.38	7.64	-45.5	-47.0	19.2	0.00e+00	0	41	0	89128960	62	4327
2026-01-30 00:12:06.66	24.40	7.72	-45.7	-47.2	19.1	0.00e+00	0	40	0	91226112	62	4421
2026-01-30 00:12:07.66	24.43	7.79	-45.6	-47.1	19.2	0.00e+00	0	40	0	93323264	62	4388
2026-01-30 00:12:08.67	24.45	7.87	-45.5	-47.0	19.3	0.00e+00	0	41	0	95420416	62	4315
2026-01-30 00:12:09.67	24.48	7.95	-45.6	-47.1	19.2	0.00e+00	0	41	0	96468992	62	4358
2026-01-30 00:12:10.67	24.50	8.03	-45.7	-47.2	19.1	0.00e+00	0	41	0	98566144	62	4426
2026-01-30 00:12:11.68	24.52	8.11	-45.6	-47.1	19.2	0.00e+00	0	40	0	100663296	62	4349
2026-01-30 00:12:12.69	24.55	8.19	-45.4	-46.8	19.4	0.00e+00	0	41	0	102760448	62	4236
2026-01-30 00:12:13.70	24.57	8.27	-45.3	-46.8	19.5	0.00e+00	0	41	0	104857600	62	4208
2026-01-30 00:12:14.71	24.60	8.35	-45.4	-46.9	19.4	0.00e+00	0	41	0	105906176	62	4258
2026-01-30 00:12:15.71	24.62	8.43	-45.3	-46.8	19.5	0.00e+00	0	41	0	108003328	62	4216
2026-01-30 00:12:16.72	24.65	8.51	-45.4	-46.9	19.4	0.00e+00	0	41	0	110100480	62	4269
2026-01-30 00:12:17.73	24.67	8.60	-45.3	-46.8	19.6	0.00e+00	0	41	0	112197632	62	4201
2026-01-30 00:12:18.73	24.70	8.68	-45.2	-46.6	19.7	0.00e+00	0	41	0	114294784	62	4122
2026-01-30 00:12:19.74	24.73	8.76	-45.2	-46.7	19.7	0.00e+00	0	41	0	115343360	62	4159
2026-01-30 00:12:20.75	24.75	8.84	-45.2	-46.6	19.7	0.00e+00	0	41	0	117440512	62	4144
2026-01-30 00:12:21.75	24.78	8.92	-45.2	-46.6	19.7	0.00e+00	0	41	0	119537664	62	4108
2026-01-30 00:12:22.76	24.80	9.01	-45.3	-46.7	19.7	0.00e+00	0	41	0	121634816	62	4155
2026-01-30 00:12:23.77	24.83	9.09	-45.2	-46.6	19.8	0.00e+00	0	41	0	123731968	62	4112
2026-01-30 00:12:24.78	24.85	9.17	-45.2	-46.6	19.8	0.00e+00	0	41	0	124780544	62	4128
2026-01-30 00:12:25.78	24.88	9.26	-45.1	-46.5	19.9	0.00e+00	0	41	0	126877696	62	4087
2026-01-30 00:12:26.79	24.91	9.34	-45.0	-46.4	20.0	0.00e+00	0	41	0	128974848	62	4019
2026-01-30 00:12:27.80	24.93	9.42	-45.0	-46.4	20.0	0.00e+00	0	41	0	131072000	62	4032
2026-01-30 00:12:28.81	24.96	9.51	-45.0	-46.3	20.1	0.00e+00	0	41	0	133169152	62	3996
2026-01-30 00:12:29.81	24.99	9.59	-45.0	-46.4	20.0	0.00e+00	0	41	0	134217728	62	4014
2026-01-30 00:12:30.82	25.01	9.68	-45.1	-46.4	20.0	0.00e+00	0	41	0	136314880	62	4039
2026-01-30 00:12:31.82	25.04	9.76	-44.9	-46.2	20.2	0.00e+00	0	41	0	138412032	61	4188
2026-01-30 00:12:32.83	25.07	9.85	-44.9	-46.2	20.1	0.00e+00	0	41	0	140509184	61	4184
2026-01-30 00:12:33.84	25.09	9.93	-44.9	-46.3	20.1	0.00e+00	0	41	0	142606336	61	4203
2026-01-30 00:12:34.84	25.12	10.02	-44.9	-46.2	20.2	0.00e+00	0	41	0	143654912	61	4182
2026-01-30 00:12:35.85	25.15	10.11	-44.8	-46.1	20.3	0.00e+00	0	41	0	145752064	61	4124
2026-01-30 00:12:36.85	25.18	10.19	-44.8	-46.2	20.2	0.00e+00	0	41	0	147849216	61	4158
2026-01-30 00:12:37.86	25.20	10.28	-44.9	-46.2	20.3	0.00e+00	0	41	0	149946368	61	4162
2026-01-30 00:12:38.86	25.23	10.37	-44.8	-46.1	20.3	0.00e+00	0	41	0	152043520	61	4120
2026-01-30 00:12:39.87	25.26	10.45	-44.7	-46.0	20.4	0.00e+00	0	41	0	153092096	61	4057
2026-01-30 00:12:40.87	25.29	10.54	-44.8	-46.1	20.3	0.00e+00	0	41	0	155189248	61	4116
2026-01-30 00:12:41.88	25.32	10.63	-44.7	-46.0	20.4	0.00e+00	0	41	0	157286400	61	4078
2026-01-30 00:12:42.89	25.34	10.72	-44.7	-46.0	20.4	0.00e+00	0	41	0	159383552	61	4087
2026-01-30 00:12:43.89	25.37	10.81	-44.8	-46.1	20.4	0.00e+00	0	41	0	161480704	61	4130
2026-01-30 00:12:44.89	25.40	10.89	-44.6	-45.9	20.5	0.00e+00	0	41	0	162529280	61	4041
2026-01-30 00:12:45.90	25.43	10.98	-44.7	-46.0	20.5	0.00e+00	0	41	0	164626432	61	4069
2026-01-30 00:12:46.91	25.46	11.07	-44.7	-45.9	20.5	0.00e+00	0	41	0	166723584	61	4051
2026-01-30 00:12:47.92	25.49	11.16	-44.5	-45.8	20.7	0.00e+00	0	41	0	168820736	61	3968
2026-01-30 00:12:48.93	25.52	11.25	-44.6	-45.8	20.6	0.00e+00	0	41	0	170917888	61	3993
2026-01-30 00:12:49.93	25.55	11.34	-44.6	-45.9	20.6	0.00e+00	0	41	0	171966464	61	4039
2026-01-30 00:12:50.94	25.58	11.44	-44.6	-45.8	20.6	0.00e+00	0	41	0	174063616	61	3998
2026-01-30 00:12:51.94	25.61	11.53	-44.5	-45.8	20.7	0.00e+00	0	41	0	176160768	61	3964
2026-01-30 00:12:52.95	25.64	11.62	-44.6	-45.8	20.7	0.00e+00	0	41	0	178257920	61	3990
2026-01-30 00:12:53.95	25.67	11.71	-44.6	-45.8	20.7	0.00e+00	0	41	0	180355072	61	3994
2026-01-30 00:12:54.96	25.70	11.80	-44.6	-45.8	20.7	0.00e+00	0	41	0	181403648	61	3986
2026-01-30 00:12:55.96	25.73	11.90	-44.6	-45.9	20.7	0.00e+00	0	41	0	183500800	61	4016
2026-01-30 00:12:56.97	25.76	11.99	-44.4	-45.6	20.9	0.00e+00	0	41	0	185597952	60	4134
2026-01-30 00:12:57.98	25.79	12.08	-44.5	-45.7	20.8	0.00e+00	0	41	0	187695104	60	4166
2026-01-30 00:12:58.99	25.82	12.18	-44.5	-45.7	20.8	0.00e+00	0	41	0	189792256	60	4189
2026-01-30 00:13:00.00	25.85	12.27	-44.6	-45.8	20.7	0.00e+00	0	41	0	190840832	60	4228
2026-01-30 00:13:01.00	25.88	12.36	-44.4	-45.7	20.9	0.00e+00	0	41	0	192937984	60	4157
2026-01-30 00:13:02.01	25.91	12.46	-44.5	-45.8	20.8	0.00e+00	0	41	0	195035136	60	4205
2026-01-30 00:13:03.02	25.94	12.56	-44.5	-45.7	20.8	0.00e+00	0	41	0	197132288	60	4177
2026-01-30 00:13:04.03	25.98	12.65	-44.5	-45.7	20.9	0.00e+00	0	41	0	199229440	60	4165
2026-01-30 00:13:05.03	26.01	12.75	-44.5	-45.8	20.8	0.00e+00	0	41	0	200278016	60	4202
2026-01-30 00:13:06.03	26.04	12.84	-44.4	-45.7	20.9	0.00e+00	0	41	0	202375168	60	4151
2026-01-30 00:13:07.04	26.07	12.94	-44.6	-45.8	20.8	0.00e+00	0	41	0	204472320	60	4222
2026-01-30 00:13:08.04	26.10	13.04	-44.6	-45.9	20.7	0.00e+00	0	41	0	206569472	60	4245
2026-01-30 00:13:09.05	26.14	13.13	-44.5	-45.8	20.8	0.00e+00	0	41	0	208666624	60	4202
2026-01-30 00:13:10.06	26.17	13.23	-44.6	-45.9	20.7	0.00e+00	0	41	0	209715200	60	4254
2026-01-30 00:13:11.07	26.20	13.33	-44.5	-45.8	20.8	0.00e+00	0	41	0	211812352	60	4195
2026-01-30 00:13:12.07	26.24	13.43	-44.5	-45.8	20.8	0.00e+00	0	41	0	213909504	60	4209
2026-01-30 00:13:13.08	26.27	13.53	-44.7	-46.0	20.6	0.00e+00	0	41	0	216006656	60	4310
2026-01-30 00:13:14.09	26.30	13.63	-44.6	-45.8	20.7	0.00e+00	0	41	0	218103808	60	4239
2026-01-30 00:13:15.10	26.34	13.73	-44.6	-45.8	20.8	0.00e+00	0	41	0	219152384	60	4219
2026-01-30 00:13:16.11	26.37	13.83	-44.7	-45.9	20.7	0.00e+00	0	41	0	221249536	60	4269
2026-01-30 00:13:17.12	26.41	13.93	-44.6	-45.8	20.8	0.00e+00	0	41	0	223346688	60	4235
2026-01-30 00:13:18.13	26.44	14.03	-44.6	-45.8	20.8	0.00e+00	0	41	0	225443840	60	4216
2026-01-30 00:13:19.14	26.48	14.13	-44.7	-46.0	20.6	0.00e+00	0	41	0	227540992	60	4293
2026-01-30 00:13:20.14	26.51	14.23	-44.6	-45.9	20.7	0.00e+00	0	41	0	228589568	60	4250
2026-01-30 00:13:21.15	26.54	14.34	-44.6	-45.8	20.8	0.00e+00	0	41	0	230686720	60	4242
2026-01-30 00:13:22.15	26.58	14.44	-44.7	-45.9	20.7	0.00e+00	0	41	0	232783872	60	4268
2026-01-30 00:13:23.16	26.62	14.54	-44.8	-46.0	20.6	0.00e+00	0	41	0	234881024	60	4338
2026-01-30 00:13:24.17	26.65	14.64	-44.7	-45.9	20.7	0.00e+00	0	41	0	236978176	60	4284
2026-01-30 00:13:25.17	26.69	14.75	-44.6	-45.9	20.8	0.00e+00	0	41	0	238026752	60	4254
2026-01-30 00:13:26.18	26.72	14.85	-44.7	-46.0	20.7	0.00e+00	0	41	0	240123904	60	4308
2026-01-30 00:13:27.19	26.76	14.96	-44.7	-46.0	20.7	0.00e+00	0	41	0	242221056	60	4292
2026-01-30 00:13:28.20	26.80	15.06	-44.7	-46.0	20.7	0.00e+00	0	41	0	244318208	60	4300
2026-01-30 00:13:29.20	26.83	15.17	-44.8	-46.1	20.6	0.00e+00	0	41	0	246415360	60	4346
2026-01-30 00:13:30.21	26.87	15.28	-44.7	-45.9	20.7	0.00e+00	0	41	0	247463936	60	4266
2026-01-30 00:13:31.21	26.91	15.38	-44.7	-46.0	20.7	0.00e+00	0	41	0	249561088	60	4297
2026-01-30 00:13:32.22	26.94	15.49	-44.7	-45.9	20.7	0.00e+00	0	41	0	251658240	60	4285
2026-01-30 00:13:33.23	26.98	15.60	-44.7	-46.0	20.7	0.00e+00	0	41	0	253755392	60	4296
2026-01-30 00:13:34.24	27.02	15.71	-44.7	-46.0	20.7	0.00e+00	0	41	0	255852544	60	4292
2026-01-30 00:13:35.25	27.06	15.81	-44.7	-46.0	20.7	0.00e+00	0	41	0	256901120	60	4315
2026-01-30 00:13:36.25	27.10	15.92	-44.8	-46.0	20.7	0.00e+00	0	41	0	258998272	60	4331
2026-01-30 00:13:37.26	27.14	16.03	-44.9	-46.2	20.5	0.00e+00	0	41	0	261095424	60	4417
2026-01-30 00:13:38.26	27.17	16.14	-44.7	-46.0	20.7	0.00e+00	0	41	0	263192576	60	4310
2026-01-30 00:13:39.27	27.21	16.25	-44.9	-46.2	20.6	0.00e+00	0	41	0	265289728	60	4393
2026-01-30 00:13:40.27	27.25	16.36	-44.8	-46.1	20.6	0.00e+00	0	41	0	266338304	60	4370
2026-01-30 00:13:41.27	27.29	16.47	-45.0	-46.3	20.5	0.00e+00	0	41	0	268435456	60	4446
2026-01-30 00:13:42.28	27.33	16.59	-44.9	-46.2	20.5	0.00e+00	0	41	0	270532608	60	4420
2026-01-30 00:13:43.28	27.37	16.70	-45.0	-46.3	20.5	0.00e+00	0	41	0	272629760	60	4456
2026-01-30 00:13:44.29	27.41	16.81	-44.9	-46.2	20.5	0.00e+00	0	41	0	274726912	60	4440
2026-01-30 00:13:45.29	27.45	16.92	-45.0	-46.3	20.5	0.00e+00	0	41	0	275775488	60	4475
2026-01-30 00:13:46.30	27.49	17.04	-45.0	-46.3	20.4	0.00e+00	0	41	0	277872640	60	4481
2026-01-30 00:13:47.30	27.54	17.15	-45.0	-46.3	20.4	0.00e+00	0	41	0	279969792	60	4481
2026-01-30 00:13:48.31	27.58	17.27	-45.0	-46.3	20.4	0.00e+00	0	41	0	282066944	60	4472
2026-01-30 00:13:49.32	27.62	17.38	-45.0	-46.3	20.4	0.00e+00	0	41	0	284164096	60	4489
2026-01-30 00:13:50.33	27.66	17.50	-45.1	-46.4	20.4	0.00e+00	0	41	0	285212672	60	4511
2026-01-30 00:13:51.33	27.70	17.62	-45.1	-46.4	20.3	0.00e+00	0	41	0	287309824	60	4535
2026-01-30 00:13:52.34	27.75	17.73	-45.1	-46.4	20.4	0.00e+00	0	41	0	289406976	60	4508
2026-01-30 00:13:53.35	27.79	17.85	-45.1	-46.4	20.4	0.00e+00	0	41	0	291504128	60	4537
2026-01-30 00:13:54.35	27.83	17.97	-45.1	-46.5	20.3	0.00e+00	0	41	0	293601280	60	4554
2026-01-30 00:13:55.36	27.88	18.09	-45.2	-46.5	20.3	0.00e+00	0	41	0	294649856	61	4313
2026-01-30 00:13:56.37	27.92	18.21	-45.1	-46.4	20.4	0.00e+00	0	41	0	296747008	61	4246
2026-01-30 00:13:57.38	27.97	18.33	-45.1	-46.4	20.4	0.00e+00	0	41	0	298844160	61	4282
2026-01-30 00:13:58.39	28.01	18.45	-45.1	-46.4	20.4	0.00e+00	0	41	0	300941312	61	4288
2026-01-30 00:13:59.39	28.05	18.57	-45.2	-46.5	20.3	0.00e+00	0	41	0	303038464	61	4316
2026-01-30 00:14:00.40	28.10	18.69	-45.2	-46.5	20.3	0.00e+00	0	41	0	304087040	61	4313
2026-01-30 00:14:01.40	28.15	18.81	-45.1	-46.4	20.4	0.00e+00	0	41	0	306184192	61	4287
2026-01-30 00:14:02.41	28.19	18.94	-45.2	-46.5	20.3	0.00e+00	0	41	0	308281344	61	4315
2026-01-30 00:14:03.42	28.24	19.06	-45.2	-46.6	20.3	0.00e+00	0	41	0	310378496	61	4343
2026-01-30 00:14:04.42	28.28	19.19	-45.2	-46.5	20.4	0.00e+00	0	41	0	312475648	61	4311
2026-01-30 00:14:05.43	28.33	19.31	-45.2	-46.5	20.3	0.00e+00	0	41	0	313524224	61	4321
2026-01-30 00:14:06.44	28.38	19.44	-45.2	-46.6	20.3	0.00e+00	0	41	0	315621376	61	4343
2026-01-30 00:14:07.45	28.43	19.56	-45.2	-46.6	20.3	0.00e+00	0	41	0	317718528	61	4346
2026-01-30 00:14:08.45	28.47	19.69	-45.2	-46.5	20.3	0.00e+00	0	41	0	319815680	61	4334
2026-01-30 00:14:09.46	28.52	19.82	-45.3	-46.6	20.3	0.00e+00	0	41	0	321912832	61	4356
2026-01-30 00:14:10.47	28.57	19.94	-45.3	-46.6	20.3	0.00e+00	0	41	0	322961408	61	4357
2026-01-30 00:14:11.47	28.62	20.07	-45.2	-46.6	20.4	0.00e+00	0	41	0	325058560	61	4346
2026-01-30 00:14:12.48	28.67	20.20	-45.3	-46.6	20.3	0.00e+00	0	41	0	327155712	61	4355
2026-01-30 00:14:13.48	28.72	20.33	-45.3	-46.7	20.2	0.00e+00	0	41	0	329252864	61	4402
2026-01-30 00:14:14.49	28.77	20.46	-45.2	-46.6	20.3	0.00e+00	0	41	0	331350016	61	4350
2026-01-30 00:14:15.49	28.82	20.59	-45.3	-46.6	20.3	0.00e+00	0	41	0	332398592	61	4354
2026-01-30 00:14:16.50	28.87	20.72	-45.3	-46.6	20.3	0.00e+00	0	41	0	334495744	61	4377
2026-01-30 00:14:17.51	28.92	20.86	-45.3	-46.6	20.3	0.00e+00	0	41	0	336592896	61	4371
2026-01-30 00:14:18.52	28.98	20.99	-45.2	-46.5	20.4	0.00e+00	0	41	0	338690048	61	4325
2026-01-30 00:14:19.52	29.03	21.12	-45.2	-46.6	20.3	0.00e+00	0	41	0	340787200	61	4342
2026-01-30 00:14:20.53	29.08	21.26	-45.1	-46.4	20.5	0.00e+00	0	41	0	341835776	61	4278
2026-01-30 00:14:21.54	29.13	21.39	-45.1	-46.4	20.5	0.00e+00	0	41	0	343932928	61	4271
2026-01-30 00:14:22.55	29.19	21.53	-45.2	-46.5	20.5	0.00e+00	0	41	0	346030080	61	4301
2026-01-30 00:14:23.55	29.24	21.67	-45.1	-46.4	20.6	0.00e+00	0	41	0	348127232	61	4252
2026-01-30 00:14:24.56	29.30	21.80	-45.0	-46.3	20.6	0.00e+00	0	41	0	350224384	61	4215
2026-01-30 00:14:25.57	29.35	21.94	-45.0	-46.3	20.6	0.00e+00	0	41	0	351272960	61	4222
2026-01-30 00:14:26.57	29.40	22.08	-45.1	-46.4	20.5	0.00e+00	0	41	0	353370112	61	4264
2026-01-30 00:14:27.58	29.46	22.22	-45.1	-46.3	20.6	0.00e+00	0	41	0	355467264	61	4242
2026-01-30 00:14:28.59	29.52	22.36	-45.0	-46.3	20.6	0.00e+00	0	41	0	357564416	61	4230
2026-01-30 00:14:29.59	29.57	22.50	-45.0	-46.2	20.7	0.00e+00	0	41	0	359661568	61	4184
2026-01-30 00:14:30.60	29.63	22.65	-45.0	-46.2	20.7	0.00e+00	0	41	0	360710144	61	4187
2026-01-30 00:14:31.61	29.69	22.79	-45.0	-46.2	20.7	0.00e+00	0	41	0	362807296	61	4193
2026-01-30 00:14:32.62	29.75	22.93	-44.9	-46.2	20.7	0.00e+00	0	41	0	364904448	61	4177
2026-01-30 00:14:33.62	29.81	23.08	-45.0	-46.2	20.7	0.00e+00	0	41	0	367001600	61	4187
2026-01-30 00:14:34.63	29.86	23.22	-45.1	-46.4	20.6	0.00e+00	0	41	0	369098752	61	4246
2026-01-30 00:14:35.64	29.92	23.37	-45.0	-46.2	20.7	0.00e+00	0	41	0	370147328	61	4172
2026-01-30 00:14:36.65	29.98	23.51	-45.0	-46.3	20.6	0.00e+00	0	41	0	372244480	61	4211
2026-01-30 00:14:37.65	30.05	23.66	-44.9	-46.2	20.8	0.00e+00	0	41	0	374341632	61	4163
2026-01-30 00:14:38.66	30.11	23.81	-44.9	-46.2	20.8	0.00e+00	0	41	0	376438784	61	4153
2026-01-30 00:14:39.67	30.17	23.96	-44.9	-46.1	20.8	0.00e+00	0	41	0	378535936	61	4143
2026-01-30 00:14:40.68	30.23	24.11	-44.9	-46.1	20.9	0.00e+00	0	41	0	379584512	61	4118
2026-01-30 00:14:41.68	30.29	24.26	-44.9	-46.2	20.8	0.00e+00	0	41	0	381681664	61	4161
2026-01-30 00:14:42.69	30.36	24.41	-44.9	-46.1	20.9	0.00e+00	0	41	0	383778816	61	4122
2026-01-30 00:14:43.69	30.42	24.56	-44.9	-46.1	20.8	0.00e+00	0	41	0	385875968	61	4138
2026-01-30 00:14:44.70	30.49	24.72	-45.0	-46.3	20.7	0.00e+00	0	41	0	387973120	61	4205
2026-01-30 00:14:45.71	30.55	24.87	-44.9	-46.2	20.8	0.00e+00	0	41	0	389021696	61	4153
2026-01-30 00:14:46.72	30.62	25.03	-45.0	-46.2	20.8	0.00e+00	0	41	0	391118848	61	4188
2026-01-30 00:14:47.73	30.68	25.18	-45.0	-46.2	20.8	0.00e+00	0	41	0	393216000	61	4169
2026-01-30 00:14:48.73	30.75	25.34	-45.0	-46.2	20.8	0.00e+00	0	41	0	395313152	61	4183
2026-01-30 00:14:49.74	30.82	25.50	-45.1	-46.3	20.7	0.00e+00	0	41	0	397410304	61	4228
2026-01-30 00:14:50.74	30.89	25.65	-45.0	-46.2	20.8	0.00e+00	0	41	0	398458880	61	4170
2026-01-30 00:14:51.75	30.95	25.81	-44.9	-46.1	20.9	0.00e+00	0	41	0	400556032	61	4129
2026-01-30 00:14:52.76	31.02	25.98	-44.9	-46.1	20.9	0.00e+00	0	41	0	402653184	61	4137
2026-01-30 00:14:53.76	31.09	26.14	-44.8	-46.0	21.0	0.00e+00	0	41	0	404750336	61	4060
2026-01-30 00:14:54.77	31.17	26.30	-44.7	-45.9	21.1	0.00e+00	0	41	0	406847488	61	4037
2026-01-30 00:14:55.77	31.24	26.46	-44.6	-45.7	21.2	0.00e+00	0	41	0	407896064	61	3954
2026-01-30 00:14:56.78	31.31	26.63	-44.5	-45.6	21.4	0.00e+00	0	41	0	409993216	61	3903
2026-01-30 00:14:57.79	31.38	26.79	-44.4	-45.5	21.4	0.00e+00	0	41	0	412090368	60	4098
2026-01-30 00:14:58.79	31.46	26.96	-44.3	-45.4	21.6	0.00e+00	0	41	0	414187520	60	4037
2026-01-30 00:14:59.80	31.53	27.12	-44.2	-45.3	21.6	0.00e+00	0	41	0	416284672	60	3999
2026-01-30 00:15:00.81	31.61	27.29	-44.2	-45.3	21.6	0.00e+00	0	41	0	417333248	60	4003
2026-01-30 00:15:01.82	31.68	27.46	-44.1	-45.2	21.8	0.00e+00	0	41	0	419430400	60	3941
2026-01-30 00:15:02.81	31.76	27.63	-44.2	-45.3	21.7	0.00e+00	0	41	0	421527552	60	3974
2026-01-30 00:15:03.82	31.83	27.80	-44.2	-45.4	21.7	0.00e+00	0	41	0	423624704	60	4008
2026-01-30 00:15:04.82	31.91	27.97	-44.4	-45.5	21.5	0.00e+00	0	41	0	425721856	60	4071
2026-01-30 00:15:05.82	31.99	28.14	-44.3	-45.5	21.6	0.00e+00	0	41	0	426770432	60	4054
2026-01-30 00:15:06.83	32.07	28.32	-44.5	-45.6	21.3	0.00e+00	0	41	0	428867584	60	4143
2026-01-30 00:15:07.83	32.15	28.49	-44.6	-45.7	21.3	0.00e+00	0	41	0	430964736	60	4188
2026-01-30 00:15:08.83	32.23	28.67	-44.7	-45.9	21.1	0.00e+00	0	41	0	433061888	60	4274
2026-01-30 00:15:09.84	32.31	28.85	-44.8	-46.0	21.0	0.00e+00	0	41	0	434110464	60	4332
2026-01-30 00:15:10.85	32.40	29.02	-44.9	-46.1	20.9	0.00e+00	0	41	0	436207616	60	4380
2026-01-30 00:15:11.86	32.48	29.20	-45.2	-46.5	20.6	0.00e+00	0	41	0	438304768	61	4326
2026-01-30 00:15:12.86	32.57	29.38	-45.3	-46.6	20.5	0.00e+00	0	41	0	440401920	61	4353
2026-01-30 00:15:13.87	32.65	29.57	-45.5	-46.8	20.4	0.00e+00	0	41	0	442499072	61	4452
2026-01-30 00:15:14.87	32.74	29.75	-45.6	-46.9	20.2	0.00e+00	0	41	0	444596224	61	4538
2026-01-30 00:15:15.88	32.83	29.93	-45.6	-46.9	20.2	0.00e+00	0	41	0	445644800	61	4518
2026-01-30 00:15:16.88	32.91	30.12	-45.7	-47.1	20.1	0.00e+00	0	41	0	447741952	62	4360
2026-01-30 00:15:17.89	33.00	30.30	-45.8	-47.2	20.0	0.00e+00	0	41	0	449839104	62	4403
2026-01-30 00:15:18.90	33.10	30.49	-45.9	-47.3	19.9	0.00e+00	0	41	0	451936256	62	4463
2026-01-30 00:15:19.91	33.19	30.68	-45.9	-47.3	19.8	0.00e+00	0	41	0	454033408	62	4493
2026-01-30 00:15:20.92	33.28	30.87	-45.9	-47.4	19.8	0.00e+00	0	41	0	455081984	62	4496
2026-01-30 00:15:21.92	33.37	31.06	-46.0	-47.5	19.7	0.00e+00	0	41	0	457179136	62	4556
2026-01-30 00:15:22.93	33.47	31.25	-46.1	-47.5	19.7	0.00e+00	0	41	0	459276288	62	4584
2026-01-30 00:15:23.93	33.56	31.44	-46.1	-47.6	19.6	0.00e+00	0	41	0	461373440	62	4619
2026-01-30 00:15:24.93	33.66	31.64	-46.3	-47.8	19.4	0.00e+00	0	41	0	463470592	63	4457
2026-01-30 00:15:25.94	33.76	31.83	-46.3	-47.8	19.5	0.00e+00	0	41	0	464519168	63	4442
2026-01-30 00:15:26.94	33.86	32.03	-46.4	-47.9	19.4	0.00e+00	0	41	0	466616320	63	4510
2026-01-30 00:15:27.95	33.96	32.23	-46.6	-48.1	19.2	0.00e+00	0	41	0	468713472	63	4619
2026-01-30 00:15:28.96	34.06	32.43	-46.6	-48.1	19.1	0.00e+00	0	41	0	470810624	63	4626
2026-01-30 00:15:29.97	34.16	32.63	-46.4	-47.9	19.4	0.00e+00	0	41	0	472907776	63	4504
2026-01-30 00:15:30.97	34.27	32.83	-46.4	-47.9	19.3	0.00e+00	0	41	0	473956352	63	4541
2026-01-30 00:15:31.98	34.37	33.03	-46.3	-47.8	19.5	0.00e+00	0	41	0	476053504	63	4462
2026-01-30 00:15:32.99	34.48	33.24	-46.3	-47.8	19.4	0.00e+00	0	41	0	478150656	63	4466
2026-01-30 00:15:33.99	34.59	33.44	-46.2	-47.6	19.6	0.00e+00	0	41	0	480247808	63	4370
2026-01-30 00:15:35.00	34.70	33.65	-45.9	-47.2	20.0	0.00e+00	0	41	0	482344960	63	4187
2026-01-30 00:15:36.00	34.81	33.86	-46.0	-47.4	19.8	0.00e+00	0	41	0	483393536	63	4260
2026-01-30 00:15:37.01	34.92	34.07	-45.8	-47.2	20.1	0.00e+00	0	41	0	485490688	63	4151
2026-01-30 00:15:38.02	35.03	34.28	-45.8	-47.2	20.1	0.00e+00	0	41	0	487587840	63	4166
2026-01-30 00:15:39.03	35.15	34.49	-45.8	-47.1	20.1	0.00e+00	0	41	0	489684992	63	4125
2026-01-30 00:15:40.03	35.26	34.70	-45.8	-47.2	20.0	0.00e+00	0	41	0	491782144	63	4172
2026-01-30 00:15:41.04	35.38	34.92	-45.8	-47.2	20.1	0.00e+00	0	41	0	492830720	63	4167
2026-01-30 00:15:42.04	35.50	35.13	-46.0	-47.3	19.9	0.00e+00	0	41	0	494927872	63	4235
2026-01-30 00:15:43.05	35.62	35.35	-46.1	-47.6	19.7	0.00e+00	0	41	0	497025024	63	4349
2026-01-30 00:15:44.05	35.74	35.57	-46.5	-48.0	19.3	0.00e+00	0	41	0	499122176	63	4546
2026-01-30 00:15:45.05	35.86	35.79	-46.7	-48.2	19.1	0.00e+00	0	41	0	500170752	63	4696
2026-01-30 00:15:46.05	35.99	36.01	-47.0	-48.6	18.6	0.00e+00	0	41	0	502267904	64	4630
2026-01-30 00:15:47.06	36.11	36.23	-47.1	-48.7	18.4	0.00e+00	0	41	0	504365056	64	4697
2026-01-30 00:15:48.07	36.24	36.46	-47.0	-48.7	18.5	0.00e+00	0	41	0	506462208	64	4671
2026-01-30 00:15:49.07	36.37	36.68	-47.0	-48.7	18.5	0.00e+00	0	41	0	508559360	64	4665
2026-01-30 00:15:50.08	36.51	36.91	-47.1	-48.8	18.5	0.00e+00	0	41	0	510656512	64	4718
2026-01-30 00:15:51.08	36.64	37.14	-47.0	-48.7	18.6	0.00e+00	0	41	0	511705088	64	4671
2026-01-30 00:15:52.09	36.78	37.37	-47.1	-48.8	18.5	0.00e+00	0	41	0	513802240	64	4739
2026-01-30 00:15:53.10	36.91	37.60	-47.1	-48.8	18.5	0.00e+00	0	41	0	515899392	64	4726
2026-01-30 00:15:54.11	37.05	37.83	-47.3	-49.0	18.3	0.00e+00	0	41	0	517996544	65	4559
2026-01-30 00:15:55.11	37.19	38.06	-47.4	-49.1	18.2	0.00e+00	0	41	0	520093696	65	4628
2026-01-30 00:15:56.12	37.34	38.30	-47.6	-49.4	17.9	0.00e+00	0	41	0	521142272	65	4788
2026-01-30 00:15:57.13	37.48	38.54	-48.0	-49.9	17.5	0.00e+00	0	41	0	523239424	66	4779
2026-01-30 00:15:58.13	37.63	38.78	-48.1	-50.0	17.3	0.00e+00	0	41	0	525336576	66	4870
2026-01-30 00:15:59.14	37.78	39.02	-48.3	-50.4	17.0	0.00e+00	0	41	0	527433728	67	4760
2026-01-30 00:16:00.15	37.93	39.26	-48.4	-50.5	16.8	0.00e+00	0	41	0	529530880	67	4834
2026-01-30 00:16:01.16	38.09	39.50	-48.3	-50.5	16.8	0.00e+00	0	41	0	530579456	67	4815
2026-01-30 00:16:02.16	38.24	39.75	-48.3	-50.5	16.9	0.00e+00	0	41	0	532676608	67	4823
2026-01-30 00:16:03.17	38.40	39.99	-48.4	-50.5	16.8	0.00e+00	0	41	0	534773760	67	4868
2026-01-30 00:16:04.18	38.57	40.24	-48.4	-50.5	16.9	0.00e+00	0	41	0	536870912	67	4825
2026-01-30 00:16:05.18	38.73	40.49	-48.4	-50.6	16.8	0.00e+00	0	41	0	538968064	67	4886
2026-01-30 00:16:06.19	38.89	40.74	-48.5	-50.7	16.7	0.00e+00	0	41	0	540016640	67	4975
2026-01-30 00:16:07.19	39.06	40.99	-48.1	-50.1	17.2	0.00e+00	0	41	0	542113792	67	4635
2026-01-30 00:16:08.20	39.23	41.25	-48.0	-50.0	17.3	0.00e+00	0	41	0	544210944	67	4575
2026-01-30 00:16:09.21	39.41	41.50	-48.0	-50.0	17.4	0.00e+00	0	41	0	546308096	67	4555
2026-01-30 00:16:10.22	39.58	41.76	-47.7	-49.6	17.8	0.00e+00	0	41	0	548405248	67	4354
2026-01-30 00:16:11.23	39.76	42.02	-47.4	-49.1	18.2	0.00e+00	0	41	0	549453824	66	4373
2026-01-30 00:16:12.24	39.95	42.28	-47.2	-48.8	18.5	0.00e+00	0	41	0	551550976	66	4231
2026-01-30 00:16:13.25	40.13	42.54	-47.0	-48.7	18.6	0.00e+00	0	41	0	553648128	65	4401
2026-01-30 00:16:14.25	40.32	42.81	-47.0	-48.6	18.7	0.00e+00	0	41	0	555745280	65	4350
2026-01-30 00:16:15.26	40.51	43.07	-47.2	-48.8	18.6	0.00e+00	0	41	0	557842432	65	4478
2026-01-30 00:16:16.26	40.70	43.33	-47.2	-48.9	18.5	0.00e+00	0	41	0	558891008	65	4515
2026-01-30 00:16:17.27	40.90	43.60	-47.1	-48.7	18.6	0.00e+00	0	41	0	560988160	65	4435
2026-01-30 00:16:18.28	41.10	43.87	-46.8	-48.4	19.0	0.00e+00	0	41	0	563085312	65	4274
2026-01-30 00:16:19.28	41.31	44.14	-46.6	-48.1	19.3	0.00e+00	0	41	0	565182464	64	4361
2026-01-30 00:16:20.29	41.51	44.41	-46.2	-47.6	19.7	0.00e+00	0	41	0	567279616	64	4139
2026-01-30 00:16:21.30	41.73	44.69	-46.2	-47.6	19.7	0.00e+00	0	41	0	568328192	64	4145
2026-01-30 00:16:22.31	41.94	44.96	-46.2	-47.6	19.8	0.00e+00	0	41	0	570425344	64	4112
2026-01-30 00:16:23.31	42.16	45.24	-46.4	-47.9	19.5	0.00e+00	0	41	0	572522496	64	4246
2026-01-30 00:16:24.31	42.38	45.52	-46.8	-48.3	19.1	0.00e+00	0	41	0	574619648	64	4479
2026-01-30 00:16:25.31	42.60	45.79	-47.3	-49.0	18.4	0.00e+00	0	41	0	576716800	65	4565
2026-01-30 00:16:26.32	42.83	46.07	-47.5	-49.3	18.0	0.00e+00	0	41	0	577765376	65	4711
2026-01-30 00:16:27.32	43.06	46.36	-47.4	-49.2	18.2	0.00e+00	0	41	0	579862528	65	4655
2026-01-30 00:16:28.33	43.30	46.64	-47.0	-48.6	18.8	0.00e+00	0	41	0	581959680	65	4355
2026-01-30 00:16:29.33	43.54	46.92	-46.9	-48.4	18.9	0.00e+00	0	41	0	584056832	65	4287
2026-01-30 00:16:30.34	43.79	47.21	-46.5	-47.9	19.4	0.00e+00	0	41	0	585105408	65	4049
2026-01-30 00:16:31.34	44.04	47.50	-46.4	-47.9	19.4	0.00e+00	0	41	0	587202560	64	4248
2026-01-30 00:16:32.35	44.30	47.79	-46.4	-47.9	19.4	0.00e+00	0	41	0	589299712	64	4275
2026-01-30 00:16:33.35	44.56	48.08	-46.9	-48.4	18.9	0.00e+00	0	41	0	591396864	64	4536
2026-01-30 00:16:34.36	44.82	48.37	-47.0	-48.7	18.7	0.00e+00	0	41	0	593494016	64	4657
2026-01-30 00:16:35.37	45.09	48.66	-46.9	-48.5	18.9	0.00e+00	0	41	0	595591168	64	4583
2026-01-30 00:16:36.38	45.37	48.96	-46.7	-48.2	19.1	0.00e+00	0	41	0	596639744	64	4436
2026-01-30 00:16:37.38	45.65	49.25	-46.4	-47.9	19.5	0.00e+00	0	41	0	598736896	64	4246
2026-01-30 00:16:38.39	45.94	49.55	-46.0	-47.4	19.9	0.00e+00	0	41	0	600834048	64	4014
2026-01-30 00:16:39.39	46.23	49.85	-45.7	-47.0	20.4	0.00e+00	0	41	0	602931200	63	4058
2026-01-30 00:16:40.40	46.52	50.15	-45.1	-46.3	21.1	0.00e+00	0	41	0	605028352	62	3966
2026-01-30 00:16:41.41	46.83	50.45	-44.8	-46.0	21.4	0.00e+00	0	41	0	606076928	61	4058
2026-01-30 00:16:42.41	47.13	50.75	-44.7	-45.8	21.6	0.00e+00	0	41	0	608174080	61	3975
2026-01-30 00:16:43.42	47.45	51.05	-44.4	-45.5	21.8	0.00e+00	0	41	0	610271232	60	4067
2026-01-30 00:16:44.43	47.77	51.36	-44.3	-45.3	22.0	0.00e+00	0	41	0	612368384	60	3998
2026-01-30 00:16:45.43	48.10	51.66	-44.4	-45.5	22.1	0.00e+00	0	41	0	613416960	59	4295
2026-01-30 00:16:46.44	48.44	51.97	-43.7	-44.7	22.8	0.00e+00	0	41	0	615514112	59	3955
2026-01-30 00:16:47.44	48.78	52.28	-43.4	-44.3	23.2	0.00e+00	0	41	0	617611264	58	3995
2026-01-30 00:16:48.45	49.13	52.58	-43.1	-44.0	23.5	0.00e+00	0	41	0	619708416	58	3860
2026-01-30 00:16:49.46	49.48	52.89	-42.9	-43.8	23.7	0.00e+00	0	41	0	621805568	57	3981
2026-01-30 00:16:50.47	49.85	53.20	-42.6	-43.5	24.0	0.00e+00	0	41	0	623902720	57	3856
2026-01-30 00:16:51.47	50.22	53.51	-42.2	-43.1	24.3	0.00e+00	0	41	0	624951296	56	3893
2026-01-30 00:16:52.48	50.60	53.83	-42.1	-43.0	24.4	0.00e+00	0	41	0	627048448	56	3841
2026-01-30 00:16:53.49	50.99	54.14	-41.8	-42.7	24.6	0.00e+00	0	41	0	629145600	55	3941
2026-01-30 00:16:54.50	51.38	54.45	-42.2	-43.1	24.2	0.00e+00	0	41	0	631242752	55	4128
2026-01-30 00:16:55.50	51.79	54.76	-42.6	-43.5	23.9	0.00e+00	0	41	0	633339904	55	4311
2026-01-30 00:16:56.50	52.20	55.07	-42.8	-43.8	23.7	0.00e+00	0	41	0	634388480	56	4198
2026-01-30 00:16:57.51	52.62	55.39	-42.9	-43.8	23.7	0.00e+00	0	41	0	636485632	56	4231
2026-01-30 00:16:58.52	53.05	55.70	-42.8	-43.7	23.7	0.00e+00	0	41	0	638582784	56	4192
2026-01-30 00:16:59.52	53.49	56.02	-42.9	-43.8	23.7	0.00e+00	0	41	0	640679936	56	4229
2026-01-30 00:17:00.52	53.94	56.33	-43.2	-44.1	23.4	0.00e+00	0	41	0	641728512	56	4387
2026-01-30 00:17:01.53	54.41	56.64	-43.8	-44.8	22.7	0.00e+00	0	41	0	643825664	58	4237
2026-01-30 00:17:02.53	54.88	56.96	-44.6	-45.7	22.0	0.00e+00	0	41	0	645922816	59	4409
2026-01-30 00:17:03.53	55.36	57.27	-44.9	-46.1	21.4	0.00e+00	0	41	0	648019968	60	4360
2026-01-30 00:17:04.54	55.85	57.58	-45.3	-46.5	21.0	0.00e+00	0	41	0	650117120	61	4340
2026-01-30 00:17:05.54	56.35	57.90	-45.4	-46.7	20.8	0.00e+00	0	41	0	651165696	61	4419
2026-01-30 00:17:06.55	56.87	58.21	-45.4	-46.7	20.8	0.00e+00	0	41	0	653262848	61	4392
2026-01-30 00:17:07.56	57.41	58.52	-45.0	-46.2	21.2	0.00e+00	0	41	0	655360000	61	4174
2026-01-30 00:17:08.57	57.95	58.84	-44.8	-45.9	21.5	0.00e+00	0	41	0	657457152	61	4034
2026-01-30 00:17:09.57	58.50	59.15	-44.5	-45.6	21.8	0.00e+00	0	41	0	659554304	61	3910
2026-01-30 00:17:10.57	59.07	59.46	-44.4	-45.5	21.9	0.00e+00	0	41	0	661651456	60	4064
2026-01-30 00:17:11.58	59.65	59.77	-44.7	-45.8	21.6	0.00e+00	0	41	0	662700032	60	4229
2026-01-30 00:17:12.59	60.25	60.08	-45.0	-46.2	21.3	0.00e+00	0	41	0	664797184	60	4416
2026-01-30 00:17:13.60	60.86	60.38	-44.9	-46.1	21.4	0.00e+00	0	41	0	666894336	60	4350
2026-01-30 00:17:14.60	61.48	60.69	-44.6	-45.7	21.7	0.00e+00	0	41	0	668991488	60	4169
2026-01-30 00:17:15.61	62.13	60.99	-44.2	-45.3	22.1	0.00e+00	0	41	0	670040064	60	3960
2026-01-30 00:17:16.62	62.78	61.30	-44.2	-45.2	22.5	0.00e+00	0	41	0	672137216	59	4192
2026-01-30 00:17:17.62	63.45	61.60	-43.7	-44.7	23.0	0.00e+00	0	41	0	674234368	59	3920
2026-01-30 00:17:18.63	64.14	61.89	-43.5	-44.4	23.2	0.00e+00	0	41	0	676331520	58	4044
2026-01-30 00:17:19.63	64.84	62.19	-44.0	-45.1	22.6	0.00e+00	0	41	0	678428672	58	4355
2026-01-30 00:17:20.64	65.57	62.48	-44.7	-45.8	21.9	0.00e+00	0	41	0	679477248	59	4480
2026-01-30 00:17:21.64	66.30	62.77	-44.8	-45.9	21.5	0.00e+00	0	41	0	681574400	60	4268
2026-01-30 00:17:22.65	67.06	63.06	-44.7	-45.8	21.7	0.00e+00	0	41	0	683671552	60	4228
2026-01-30 00:17:23.65	67.83	63.35	-44.3	-45.4	22.0	0.00e+00	0	41	0	685768704	60	4016
2026-01-30 00:17:24.66	68.63	63.63	-44.2	-45.2	22.5	0.00e+00	0	41	0	687865856	59	4173
2026-01-30 00:17:25.66	69.44	63.91	-44.1	-45.1	22.5	0.00e+00	0	41	0	689963008	59	4144
2026-01-30 00:17:26.66	70.27	64.18	-44.7	-45.8	22.0	0.00e+00	0	41	0	691011584	59	4471
2026-01-30 00:17:27.67	71.12	64.45	-45.0	-46.2	21.3	0.00e+00	0	41	0	693108736	60	4439
2026-01-30 00:17:28.67	71.99	64.72	-45.2	-46.4	21.0	0.00e+00	0	41	0	695205888	61	4288
2026-01-30 00:17:29.67	72.88	64.98	-45.2	-46.4	21.1	0.00e+00	0	41	0	697303040	61	4257
2026-01-30 00:17:30.68	73.80	65.23	-44.5	-45.6	21.8	0.00e+00	0	41	0	698351616	61	3907
2026-01-30 00:17:31.68	74.73	65.49	-44.0	-45.0	22.4	0.00e+00	0	41	0	700448768	60	3855
2026-01-30 00:17:32.69	75.69	65.73	-43.8	-44.7	22.9	0.00e+00	0	41	0	702545920	59	3955
2026-01-30 00:17:33.69	76.66	65.97	-43.7	-44.7	23.0	0.00e+00	0	41	0	704643072	59	3940
2026-01-30 00:17:34.70	77.66	66.21	-44.2	-45.3	22.3	0.00e+00	0	41	0	706740224	59	4203
2026-01-30 00:17:35.71	78.69	66.44	-45.0	-46.2	21.3	0.00e+00	0	41	0	707788800	60	4408
2026-01-30 00:17:36.71	79.72	66.67	-45.6	-46.9	20.7	0.00e+00	0	41	0	709885952	61	4514
2026-01-30 00:17:37.72	80.79	66.89	-45.9	-47.2	20.3	0.00e+00	0	41	0	711983104	62	4424
2026-01-30 00:17:38.73	81.88	67.10	-45.6	-46.9	20.6	0.00e+00	0	41	0	714080256	62	4256
2026-01-30 00:17:39.74	83.00	67.30	-45.3	-46.5	21.0	0.00e+00	0	41	0	716177408	62	4067
2026-01-30 00:17:40.74	84.12	67.50	-45.3	-46.5	21.0	0.00e+00	0	41	0	717225984	62	4054
2026-01-30 00:17:41.74	85.26	67.68	-45.6	-46.8	20.8	0.00e+00	0	41	0	719323136	62	4213
2026-01-30 00:17:42.74	86.43	67.86	-46.2	-47.6	20.0	0.00e+00	0	41	0	721420288	63	4369
2026-01-30 00:17:43.75	87.62	68.04	-46.7	-48.1	19.5	0.00e+00	0	41	0	723517440	63	4635
2026-01-30 00:17:44.75	88.83	68.20	-46.5	-47.9	19.5	0.00e+00	0	41	0	725614592	64	4263
2026-01-30 00:17:45.76	90.07	68.36	-46.7	-48.3	19.3	0.00e+00	0	41	0	726663168	64	4443
2026-01-30 00:17:46.77	91.32	68.50	-47.0	-48.6	18.8	0.00e+00	0	41	0	728760320	64	4640
2026-01-30 00:17:47.77	92.58	68.64	-47.2	-48.9	18.7	0.00e+00	0	41	0	730857472	65	4506
2026-01-30 00:17:48.78	93.87	68.77	-46.6	-48.1	19.4	0.00e+00	0	41	0	732954624	65	4114
2026-01-30 00:17:49.78	95.16	68.88	-46.4	-47.8	19.7	0.00e+00	0	41	0	735051776	64	4207
2026-01-30 00:17:50.79	96.49	68.99	-46.0	-47.4	20.1	0.00e+00	0	41	0	736100352	64	4010
2026-01-30 00:17:51.79	97.81	69.09	-46.4	-47.8	19.8	0.00e+00	0	41	0	738197504	64	4227
2026-01-30 00:17:52.80	99.16	69.18	-46.1	-47.5	20.0	0.00e+00	0	41	0	740294656	64	4054
2026-01-30 00:17:53.80	100.50	69.25	-45.6	-46.9	20.7	0.00e+00	0	41	0	742391808	63	4013
2026-01-30 00:17:54.80	101.86	69.32	-45.6	-46.8	20.9	0.00e+00	0	41	0	744488960	62	4240
2026-01-30 00:17:55.81	103.24	69.37	-46.1	-47.5	20.0	0.00e+00	0	41	0	745537536	62	4568
2026-01-30 00:17:56.81	104.61	69.42	-46.1	-47.5	20.1	0.00e+00	0	41	0	747634688	63	4326
2026-01-30 00:17:57.81	105.99	69.45	-45.4	-46.6	20.9	0.00e+00	0	41	0	749731840	62	4139
2026-01-30 00:17:58.82	107.38	69.47	-45.3	-46.5	21.0	0.00e+00	0	41	0	751828992	62	4089
2026-01-30 00:17:59.82	108.76	69.48	-45.1	-46.3	21.3	0.00e+00	0	41	0	752877568	62	3965
2026-01-30 00:18:00.83	110.16	69.48	-44.8	-46.0	21.5	0.00e+00	0	41	0	754974720	61	4064
2026-01-30 00:18:01.84	111.56	69.47	-44.7	-45.8	21.7	0.00e+00	0	41	0	757071872	61	3970
2026-01-30 00:18:02.85	112.95	69.45	-44.5	-45.6	21.9	0.00e+00	0	41	0	759169024	61	3894
2026-01-30 00:18:03.85	114.33	69.41	-44.5	-45.6	21.8	0.00e+00	0	41	0	761266176	60	4131
2026-01-30 00:18:04.85	115.70	69.37	-45.2	-46.4	21.2	0.00e+00	0	41	0	763363328	60	4512
2026-01-30 00:18:05.86	117.08	69.31	-45.0	-46.2	21.3	0.00e+00	0	41	0	764411904	61	4163
2026-01-30 00:18:06.86	118.44	69.25	-44.0	-45.0	22.3	0.00e+00	0	41	0	766509056	60	3856
2026-01-30 00:18:07.87	119.79	69.17	-44.4	-45.5	22.0	0.00e+00	0	41	0	768606208	60	4067
2026-01-30 00:18:08.88	121.14	69.08	-46.0	-47.4	20.2	0.00e+00	0	41	0	770703360	62	4501
2026-01-30 00:18:09.89	122.48	68.98	-46.7	-48.3	19.3	0.00e+00	0	41	0	772800512	64	4447
2026-01-30 00:18:10.89	123.78	68.87	-46.4	-47.8	19.7	0.00e+00	0	41	0	773849088	64	4241
2026-01-30 00:18:11.89	125.08	68.76	-46.3	-47.7	19.8	0.00e+00	0	41	0	775946240	64	4186
2026-01-30 00:18:12.90	126.37	68.63	-47.2	-48.8	18.7	0.00e+00	0	41	0	778043392	65	4463
2026-01-30 00:18:13.91	127.64	68.49	-48.6	-50.8	16.8	0.00e+00	0	41	0	780140544	67	4997
2026-01-30 00:18:14.91	128.88	68.34	-48.0	-49.8	17.8	0.00e+00	0	41	0	781189120	68	4237
2026-01-30 00:18:15.91	130.10	68.19	-46.4	-47.9	19.6	0.00e+00	0	41	0	783286272	64	4243
2026-01-30 00:18:16.92	131.32	68.02	-46.4	-47.8	19.6	0.00e+00	0	41	0	785383424	64	4215
2026-01-30 00:18:17.93	132.51	67.85	-47.8	-49.6	18.0	0.00e+00	0	41	0	787480576	66	4621
2026-01-30 00:18:18.94	133.69	67.66	-48.2	-50.2	17.3	0.00e+00	0	41	0	789577728	67	4682
2026-01-30 00:18:19.95	134.84	67.47	-46.6	-48.0	19.5	0.00e+00	0	41	0	790626304	65	4083
2026-01-30 00:18:20.96	135.98	67.28	-45.9	-47.2	20.4	0.00e+00	0	41	0	792723456	63	4176
2026-01-30 00:18:21.97	137.09	67.07	-45.7	-47.0	20.6	0.00e+00	0	41	0	794820608	63	4063
2026-01-30 00:18:22.98	138.18	66.86	-46.1	-47.4	20.1	0.00e+00	0	41	0	796917760	63	4276
2026-01-30 00:18:23.99	139.24	66.64	-45.7	-47.0	20.5	0.00e+00	0	41	0	799014912	63	4058
2026-01-30 00:18:25.00	140.29	66.41	-45.1	-46.2	21.3	0.00e+00	0	41	0	801112064	62	3944
2026-01-30 00:18:26.01	141.31	66.18	-45.0	-46.1	21.4	0.00e+00	0	41	0	802160640	61	4132
2026-01-30 00:18:27.01	142.30	65.94	-45.8	-47.1	20.4	0.00e+00	0	41	0	804257792	62	4364
2026-01-30 00:18:28.01	143.27	65.70	-45.5	-46.7	20.8	0.00e+00	0	41	0	806354944	62	4186
2026-01-30 00:18:29.02	144.23	65.45	-43.9	-45.0	22.7	0.00e+00	0	41	0	808452096	59	4054
2026-01-30 00:18:30.02	145.16	65.20	-43.8	-44.8	22.9	0.00e+00	0	41	0	809500672	59	3959
2026-01-30 00:18:31.03	146.08	64.94	-44.7	-45.8	21.7	0.00e+00	0	41	0	811597824	60	4214
2026-01-30 00:18:32.03	146.96	64.68	-45.2	-46.4	21.1	0.00e+00	0	41	0	813694976	60	4513
2026-01-30 00:18:33.04	147.84	64.41	-45.1	-46.3	21.1	0.00e+00	0	41	0	815792128	61	4237
2026-01-30 00:18:34.04	148.68	64.14	-44.8	-45.9	21.5	0.00e+00	0	41	0	817889280	61	4050
2026-01-30 00:18:35.04	149.51	63.87	-44.3	-45.4	22.0	0.00e+00	0	41	0	818937856	60	4023
2026-01-30 00:18:36.05	150.32	63.58	-44.3	-45.4	22.4	0.00e+00	0	41	0	821035008	59	4251
2026-01-30 00:18:37.06	151.12	63.30	-44.3	-45.4	22.3	0.00e+00	0	41	0	823132160	59	4275
2026-01-30 00:18:38.07	151.90	63.01	-43.8	-44.8	22.9	0.00e+00	0	41	0	825229312	59	3970
2026-01-30 00:18:39.08	152.66	62.72	-43.3	-44.2	23.4	0.00e+00	0	41	0	827326464	58	3955
2026-01-30 00:18:40.08	153.39	62.43	-44.0	-45.0	22.7	0.00e+00	0	41	0	829423616	58	4330
2026-01-30 00:18:41.09	154.11	62.14	-44.2	-45.3	22.4	0.00e+00	0	41	0	830472192	59	4210
2026-01-30 00:18:42.09	154.81	61.84	-43.0	-44.0	23.6	0.00e+00	0	41	0	832569344	58	3825
2026-01-30 00:18:43.09	155.49	61.55	-41.9	-42.7	24.6	0.00e+00	0	41	0	834666496	55	3944
2026-01-30 00:18:44.10	156.16	61.24	-42.2	-43.0	24.3	0.00e+00	0	41	0	836763648	55	4085
2026-01-30 00:18:45.11	156.82	60.94	-43.0	-43.9	23.7	0.00e+00	0	41	0	837812224	56	4266
2026-01-30 00:18:46.12	157.46	60.63	-42.9	-43.8	23.7	0.00e+00	0	41	0	839909376	56	4226
2026-01-30 00:18:47.12	158.08	60.33	-42.7	-43.6	23.8	0.00e+00	0	41	0	842006528	56	4142
2026-01-30 00:18:48.12	158.69	60.02	-42.2	-43.0	24.4	0.00e+00	0	41	0	844103680	56	3857
2026-01-30 00:18:49.12	159.28	59.71	-42.1	-43.0	24.4	0.00e+00	0	41	0	846200832	56	3842
2026-01-30 00:18:50.13	159.86	59.40	-42.9	-43.8	23.7	0.00e+00	0	41	0	847249408	56	4238
2026-01-30 00:18:51.13	160.42	59.09	-43.8	-44.8	22.7	0.00e+00	0	41	0	849346560	58	4240
2026-01-30 00:18:52.14	160.98	58.78	-43.7	-44.7	22.9	0.00e+00	0	41	0	851443712	58	4190
2026-01-30 00:18:53.15	161.52	58.47	-43.4	-44.3	23.2	0.00e+00	0	41	0	853540864	58	4001
2026-01-30 00:18:54.16	162.05	58.15	-43.9	-44.9	22.7	0.00e+00	0	41	0	855638016	58	4247
2026-01-30 00:18:55.16	162.57	57.84	-44.9	-46.1	21.4	0.00e+00	0	41	0	857735168	60	4345
2026-01-30 00:18:56.17	163.07	57.52	-46.2	-47.6	19.9	0.00e+00	0	41	0	858783744	62	4647
2026-01-30 00:18:57.18	163.57	57.21	-46.5	-48.0	19.4	0.00e+00	0	41	0	860880896	64	4322
2026-01-30 00:18:58.18	164.05	56.89	-45.6	-47.0	20.5	0.00e+00	0	41	0	862978048	63	4059
2026-01-30 00:18:59.19	164.52	56.58	-44.1	-45.1	22.2	0.00e+00	0	41	0	865075200	60	3894
2026-01-30 00:19:00.20	164.98	56.26	-43.7	-44.7	22.9	0.00e+00	0	41	0	866123776	59	3925
2026-01-30 00:19:01.21	165.44	55.94	-44.4	-45.5	21.9	0.00e+00	0	41	0	868220928	60	4089
2026-01-30 00:19:02.21	165.87	55.63	-46.0	-47.4	20.1	0.00e+00	0	41	0	870318080	62	4533
2026-01-30 00:19:03.22	166.31	55.32	-44.5	-45.7	21.6	0.00e+00	0	41	0	872415232	61	3938
2026-01-30 00:19:04.23	166.73	55.00	-42.9	-43.8	23.7	0.00e+00	0	41	0	874512384	57	3981
2026-01-30 00:19:05.24	167.14	54.69	-41.7	-42.6	24.6	0.00e+00	0	41	0	875560960	55	3869
2026-01-30 00:19:06.24	167.54	54.37	-41.8	-42.6	24.6	0.00e+00	0	41	0	877658112	55	3896
2026-01-30 00:19:07.25	167.94	54.06	-42.1	-42.9	24.4	0.00e+00	0	41	0	879755264	55	4047
2026-01-30 00:19:08.25	168.32	53.75	-42.3	-43.2	24.1	0.00e+00	0	41	0	881852416	55	4189
2026-01-30 00:19:09.26	168.70	53.44	-42.2	-43.1	24.2	0.00e+00	0	41	0	883949568	55	4108
2026-01-30 00:19:10.27	169.08	53.12	-42.0	-42.9	24.4	0.00e+00	0	41	0	886046720	55	4007
2026-01-30 00:19:11.28	169.44	52.81	-41.4	-42.2	24.9	0.00e+00	0	41	0	887095296	54	3943
2026-01-30 00:19:12.28	169.79	52.50	-41.3	-42.0	25.1	0.00e+00	0	41	0	889192448	54	3867
2026-01-30 00:19:13.28	170.14	52.20	-41.2	-42.0	25.1	0.00e+00	0	41	0	891289600	54	3860
2026-01-30 00:19:14.29	170.48	51.89	-42.7	-43.6	23.7	0.00e+00	0	41	0	893386752	55	4389
2026-01-30 00:19:15.30	170.82	51.58	-44.0	-45.1	22.6	0.00e+00	0	41	0	894435328	58	4353
2026-01-30 00:19:16.31	171.14	51.27	-43.8	-44.9	22.5	0.00e+00	0	41	0	896532480	59	4008
2026-01-30 00:19:17.31	171.46	50.97	-42.7	-43.7	23.8	0.00e+00	0	41	0	898629632	57	3925
2026-01-30 00:19:18.32	171.78	50.67	-42.4	-43.2	24.1	0.00e+00	0	41	0	900726784	56	3953
2026-01-30 00:19:19.33	172.09	50.36	-42.4	-43.3	24.1	0.00e+00	0	41	0	902823936	56	3990
2026-01-30 00:19:20.33	172.39	50.06	-43.6	-44.6	22.9	0.00e+00	0	41	0	903872512	57	4367
2026-01-30 00:19:21.34	172.69	49.76	-45.0	-46.2	21.2	0.00e+00	0	41	0	905969664	60	4419
2026-01-30 00:19:22.35	172.98	49.46	-46.7	-48.3	19.2	0.00e+00	0	41	0	908066816	64	4467
2026-01-30 00:19:23.35	173.26	49.17	-47.8	-49.7	17.7	0.00e+00	0	41	0	910163968	66	4699
2026-01-30 00:19:24.36	173.54	48.87	-46.8	-48.4	18.9	0.00e+00	0	41	0	912261120	65	4251
2026-01-30 00:19:25.36	173.81	48.57	-45.8	-47.2	20.3	0.00e+00	0	41	0	914358272	63	4147
2026-01-30 00:19:26.37	174.08	48.28	-45.4	-46.6	20.8	0.00e+00	0	41	0	915406848	62	4124
2026-01-30 00:19:27.38	174.35	47.99	-45.6	-46.9	20.6	0.00e+00	0	41	0	917504000	62	4260
2026-01-30 00:19:28.38	174.61	47.70	-46.9	-48.6	18.9	0.00e+00	0	41	0	919601152	64	4599
2026-01-30 00:19:29.39	174.86	47.41	-48.5	-50.7	16.8	0.00e+00	0	41	0	921698304	67	4978
2026-01-30 00:19:30.40	175.11	47.12	-49.0	-51.5	15.9	0.00e+00	0	41	0	922746880	68	5113
2026-01-30 00:19:31.41	175.36	46.83	-47.8	-49.7	17.8	0.00e+00	0	41	0	924844032	67	4418
2026-01-30 00:19:32.42	175.60	46.54	-46.7	-48.2	19.1	0.00e+00	0	41	0	926941184	65	4186
2026-01-30 00:19:33.43	175.84	46.26	-45.6	-46.9	20.5	0.00e+00	0	41	0	929038336	63	4034
2026-01-30 00:19:34.44	176.08	45.97	-45.2	-46.4	21.0	0.00e+00	0	41	0	931135488	62	4019
2026-01-30 00:19:35.44	176.30	45.69	-45.0	-46.2	21.2	0.00e+00	0	41	0	932184064	61	4152
2026-01-30 00:19:36.45	176.53	45.41	-44.6	-45.7	21.6	0.00e+00	0	41	0	934281216	61	3940
2026-01-30 00:19:37.45	176.75	45.13	-45.1	-46.2	21.1	0.00e+00	0	41	0	936378368	61	4186
2026-01-30 00:19:38.46	176.97	44.86	-45.9	-47.2	20.2	0.00e+00	0	41	0	938475520	62	4433
2026-01-30 00:19:39.47	177.18	44.58	-46.6	-48.1	19.4	0.00e+00	0	41	0	940572672	63	4629
2026-01-30 00:19:40.46	177.39	44.31	-46.2	-47.7	19.5	0.00e+00	0	41	0	942669824	64	4189
2026-01-30 00:19:41.47	177.60	44.04	-44.9	-46.1	21.1	0.00e+00	0	41	0	943718400	61	4137
2026-01-30 00:19:42.48	177.80	43.77	-44.1	-45.1	22.4	0.00e+00	0	41	0	945815552	59	4133
2026-01-30 00:19:43.48	178.00	43.50	-43.1	-44.0	23.4	0.00e+00	0	41	0	947912704	58	3851
2026-01-30 00:19:44.49	178.20	43.23	-42.9	-43.8	23.5	0.00e+00	0	41	0	950009856	57	3973
2026-01-30 00:19:45.49	178.39	42.96	-42.8	-43.7	23.7	0.00e+00	0	41	0	951058432	57	3923
2026-01-30 00:19:46.50	178.58	42.70	-43.4	-44.4	23.1	0.00e+00	0	41	0	953155584	57	4245
2026-01-30 00:19:47.51	178.77	42.43	-44.6	-45.8	21.9	0.00e+00	0	41	0	955252736	59	4449
2026-01-30 00:19:48.51	178.95	42.17	-45.6	-46.9	20.5	0.00e+00	0	41	0	957349888	61	4530
2026-01-30 00:19:49.52	179.13	41.91	-46.1	-47.5	19.8	0.00e+00	0	41	0	959447040	62	4597
2026-01-30 00:19:50.53	179.31	41.65	-46.0	-47.4	19.9	0.00e+00	0	41	0	960495616	62	4526
2026-01-30 00:19:51.53	179.49	41.40	-45.3	-46.6	20.7	0.00e+00	0	41	0	962592768	62	4104
2026-01-30 00:19:52.54	179.66	41.14	-44.2	-45.3	21.9	0.00e+00	0	41	0	964689920	60	3998
2026-01-30 00:19:53.54	179.83	40.89	-44.1	-45.1	22.4	0.00e+00	0	41	0	966787072	59	4127
2026-01-30 00:19:54.55	180.00	40.63	-43.6	-44.6	22.8	0.00e+00	0	41	0	968884224	59	3894
2026-01-30 00:19:55.55	180.16	40.38	-43.9	-44.9	22.5	0.00e+00	0	41	0	970981376	59	4044
2026-01-30 00:19:56.55	180.32	40.14	-44.4	-45.4	22.1	0.00e+00	0	41	0	972029952	59	4286
2026-01-30 00:19:57.56	180.49	39.89	-44.8	-46.0	21.2	0.00e+00	0	41	0	974127104	60	4321
2026-01-30 00:19:58.56	180.64	39.64	-45.6	-46.9	20.4	0.00e+00	0	41	0	976224256	61	4537
2026-01-30 00:19:59.57	180.80	39.40	-46.1	-47.6	19.7	0.00e+00	0	41	0	978321408	62	4644
2026-01-30 00:20:00.57	180.95	39.15	-46.5	-48.0	19.3	0.00e+00	0	41	0	979369984	63	4581
2026-01-30 00:20:01.58	181.10	38.91	-46.0	-47.5	19.8	0.00e+00	0	41	0	981467136	63	4314
2026-01-30 00:20:02.58	181.25	38.67	-45.5	-46.8	20.5	0.00e+00	0	41	0	983564288	63	4002
2026-01-30 00:20:03.59	181.40	38.43	-45.1	-46.3	20.9	0.00e+00	0	41	0	985661440	62	3997
2026-01-30 00:20:04.59	181.54	38.20	-44.3	-45.4	21.7	0.00e+00	0	41	0	987758592	60	4051
2026-01-30 00:20:05.60	181.69	37.96	-44.1	-45.1	22.1	0.00e+00	0	41	0	988807168	60	3906
2026-01-30 00:20:06.61	181.83	37.72	-44.1	-45.2	22.0	0.00e+00	0	41	0	990904320	60	3919
2026-01-30 00:20:07.61	181.97	37.49	-44.3	-45.4	22.2	0.00e+00	0	41	0	993001472	59	4254
2026-01-30 00:20:08.62	182.11	37.26	-44.5	-45.6	21.9	0.00e+00	0	41	0	995098624	59	4374
2026-01-30 00:20:09.63	182.24	37.03	-44.7	-45.9	21.4	0.00e+00	0	41	0	997195776	60	4276
2026-01-30 00:20:10.63	182.37	36.80	-45.1	-46.4	20.9	0.00e+00	0	41	0	998244352	60	4519
2026-01-30 00:20:11.64	182.51	36.57	-45.6	-46.9	20.4	0.00e+00	0	41	0	1000341504	61	4530
2026-01-30 00:20:12.65	182.64	36.34	-45.9	-47.3	20.1	0.00e+00	0	41	0	1002438656	62	4451
2026-01-30 00:20:13.65	182.76	36.12	-45.6	-47.0	20.3	0.00e+00	0	41	0	1004535808	62	4292
2026-01-30 00:20:14.66	182.89	35.90	-45.3	-46.6	20.7	0.00e+00	0	41	0	1006632960	62	4113
2026-01-30 00:20:15.66	183.02	35.68	-45.2	-46.4	20.8	0.00e+00	0	41	0	1007681536	62	4050
2026-01-30 00:20:16.67	183.14	35.45	-45.1	-46.4	20.9	0.00e+00	0	41	0	1009778688	62	4021
2026-01-30 00:20:17.68	183.26	35.23	-44.7	-45.9	21.2	0.00e+00	0	41	0	1011875840	61	4033
2026-01-30 00:20:18.69	183.38	35.02	-44.7	-45.9	21.3	0.00e+00	0	41	0	1013972992	61	4020
2026-01-30 00:20:19.69	183.50	34.80	-44.4	-45.5	21.6	0.00e+00	0	41	0	1016070144	60	4079
2026-01-30 00:20:20.70	183.62	34.58	-44.1	-45.2	21.9	0.00e+00	0	41	0	1017118720	60	3933
2026-01-30 00:20:21.71	183.73	34.37	-44.4	-45.4	22.0	0.00e+00	0	41	0	1019215872	59	4290
2026-01-30 00:20:22.71	183.85	34.16	-44.6	-45.7	21.8	0.00e+00	0	41	0	1021313024	59	4414
2026-01-30 00:20:23.72	183.96	33.95	-44.7	-45.8	21.7	0.00e+00	0	41	0	1023410176	59	4481
2026-01-30 00:20:24.73	184.07	33.74	-44.6	-45.8	21.4	0.00e+00	0	41	0	1025507328	60	4195
2026-01-30 00:20:25.74	184.18	33.53	-45.0	-46.2	20.9	0.00e+00	0	41	0	1026555904	60	4430
2026-01-30 00:20:26.74	184.29	33.32	-45.5	-46.8	20.5	0.00e+00	0	41	0	1028653056	61	4444
2026-01-30 00:20:27.75	184.40	33.11	-45.8	-47.2	20.1	0.00e+00	0	41	0	1030750208	62	4399
2026-01-30 00:20:28.76	184.50	32.91	-46.1	-47.5	19.8	0.00e+00	0	41	0	1032847360	62	4560
2026-01-30 00:20:29.76	184.61	32.71	-46.0	-47.4	19.8	0.00e+00	0	41	0	1034944512	62	4529
2026-01-30 00:20:30.77	184.71	32.50	-46.2	-47.7	19.6	0.00e+00	0	41	0	1035993088	62	4666
2026-01-30 00:20:31.77	184.81	32.30	-46.2	-47.7	19.6	0.00e+00	0	41	0	1038090240	63	4393
2026-01-30 00:20:32.77	184.91	32.11	-45.9	-47.3	19.9	0.00e+00	0	41	0	1040187392	63	4232
2026-01-30 00:20:33.78	185.01	31.91	-45.9	-47.3	19.9	0.00e+00	0	41	0	1042284544	63	4207
2026-01-30 00:20:34.78	185.11	31.71	-45.9	-47.3	19.9	0.00e+00	0	41	0	1044381696	63	4236
2026-01-30 00:20:35.79	185.21	31.52	-45.8	-47.2	20.0	0.00e+00	0	41	0	1045430272	63	4174
2026-01-30 00:20:36.80	185.31	31.32	-45.9	-47.2	20.0	0.00e+00	0	41	0	1047527424	63	4186
2026-01-30 00:20:37.80	185.40	31.13	-45.9	-47.3	19.9	0.00e+00	0	41	0	1049624576	63	4225
2026-01-30 00:20:38.80	185.50	30.94	-45.9	-47.3	19.9	0.00e+00	0	41	0	1051721728	63	4201
2026-01-30 00:20:39.81	185.59	30.74	-45.7	-47.1	20.1	0.00e+00	0	41	0	1053818880	63	4117
2026-01-30 00:20:40.82	185.68	30.55	-45.7	-47.0	20.2	0.00e+00	0	41	0	1054867456	63	4083
2026-01-30 00:20:41.82	185.77	30.37	-45.5	-46.8	20.3	0.00e+00	0	41	0	1056964608	62	4228
2026-01-30 00:20:42.83	185.86	30.18	-45.3	-46.5	20.6	0.00e+00	0	41	0	1059061760	62	4079
2026-01-30 00:20:43.83	185.95	29.99	-45.2	-46.4	20.7	0.00e+00	0	41	0	1061158912	62	4047
2026-01-30 00:20:44.84	186.04	29.81	-45.1	-46.3	20.4	0.00e+00	0	41	0	1063256064	62	3968
2026-01-30 00:20:45.85	186.13	29.62	-45.1	-46.3	20.8	0.00e+00	0	41	0	1064304640	62	3999
2026-01-30 00:20:46.85	186.21	29.44	-45.1	-46.4	20.7	0.00e+00	0	41	0	1066401792	62	4015
2026-01-30 00:20:47.86	186.30	29.26	-45.2	-46.4	20.7	0.00e+00	0	41	0	1068498944	62	4037
2026-01-30 00:20:48.86	186.38	29.08	-45.2	-46.4	20.7	0.00e+00	0	41	0	1070596096	62	4050
2026-01-30 00:20:49.87	186.47	28.90	-45.3	-46.6	20.5	0.00e+00	0	41	0	1072693248	62	4108
2026-01-30 00:20:50.88	186.55	28.72	-45.4	-46.7	20.4	0.00e+00	0	41	0	1073741824	62	4176
2026-01-30 00:20:51.89	186.63	28.54	-45.4	-46.7	20.4	0.00e+00	0	41	0	1075838976	62	4165
2026-01-30 00:20:52.89	186.71	28.36	-45.4	-46.8	20.3	0.00e+00	0	41	0	1077936128	62	4194
2026-01-30 00:20:53.90	186.79	28.19	-45.2	-46.5	20.6	0.00e+00	0	41	0	1080033280	62	4059
2026-01-30 00:20:54.91	186.87	28.01	-45.1	-46.4	20.7	0.00e+00	0	41	0	1082130432	62	4016
2026-01-30 00:20:55.91	186.95	27.84	-44.8	-46.1	21.0	0.00e+00	0	41	0	1083179008	61	4106
2026-01-30 00:20:56.92	187.03	27.67	-44.8	-46.0	21.0	0.00e+00	0	41	0	1085276160	61	4070
2026-01-30 00:20:57.93	187.11	27.50	-44.4	-45.5	21.5	0.00e+00	0	41	0	1087373312	60	4068
2026-01-30 00:20:58.93	187.18	27.33	-44.0	-45.1	21.9	0.00e+00	0	41	0	1089470464	60	3888
2026-01-30 00:20:59.94	187.26	27.16	-44.2	-45.2	22.0	0.00e+00	0	41	0	1091567616	59	4188
2026-01-30 00:21:00.95	187.33	26.99	-44.1	-45.2	22.1	0.00e+00	0	41	0	1093664768	59	4160
2026-01-30 00:21:01.96	187.41	26.82	-44.1	-45.2	22.1	0.00e+00	0	41	0	1094713344	59	4159
2026-01-30 00:21:02.96	187.48	26.65	-44.0	-45.1	22.1	0.00e+00	0	41	0	1096810496	59	4129
2026-01-30 00:21:03.96	187.55	26.49	-43.9	-45.0	22.3	0.00e+00	0	41	0	1098907648	59	4068
2026-01-30 00:21:04.97	187.62	26.33	-44.0	-45.1	22.1	0.00e+00	0	41	0	1101004800	59	4139
2026-01-30 00:21:05.98	187.70	26.16	-44.2	-45.3	21.9	0.00e+00	0	41	0	1102053376	59	4237
2026-01-30 00:21:06.99	187.77	26.00	-44.4	-45.6	21.7	0.00e+00	0	41	0	1104150528	59	4341
2026-01-30 00:21:08.00	187.84	25.84	-44.6	-45.7	21.6	0.00e+00	0	41	0	1106247680	59	4437
2026-01-30 00:21:09.00	187.90	25.68	-44.7	-45.9	21.4	0.00e+00	0	41	0	1108344832	59	4509
2026-01-30 00:21:10.01	187.97	25.52	-44.4	-45.6	21.3	0.00e+00	0	41	0	1110441984	60	4122
2026-01-30 00:21:11.02	188.04	25.36	-44.5	-45.7	21.2	0.00e+00	0	41	0	1111490560	60	4150
2026-01-30 00:21:12.03	188.11	25.20	-44.4	-45.5	21.4	0.00e+00	0	41	0	1113587712	60	4096
2026-01-30 00:21:13.03	188.17	25.04	-44.3	-45.5	21.4	0.00e+00	0	41	0	1115684864	60	4084
2026-01-30 00:21:14.04	188.24	24.89	-44.3	-45.4	21.5	0.00e+00	0	41	0	1117782016	60	4046
2026-01-30 00:21:15.05	188.31	24.73	-44.1	-45.3	21.6	0.00e+00	0	41	0	1119879168	60	3974
2026-01-30 00:21:16.05	188.37	24.58	-44.2	-45.3	21.6	0.00e+00	0	41	0	1121976320	60	4001
2026-01-30 00:21:17.06	188.43	24.42	-44.3	-45.4	21.8	0.00e+00	0	41	0	1123024896	59	4282
2026-01-30 00:21:18.07	188.50	24.27	-44.0	-45.0	22.1	0.00e+00	0	41	0	1125122048	59	4097
2026-01-30 00:21:19.07	188.56	24.12	-43.9	-45.0	22.2	0.00e+00	0	41	0	1127219200	59	4053
2026-01-30 00:21:20.08	188.62	23.97	-43.6	-44.7	22.5	0.00e+00	0	41	0	1129316352	59	3937
2026-01-30 00:21:21.08	188.68	23.82	-43.4	-44.5	22.6	0.00e+00	0	41	0	1130364928	58	4057
2026-01-30 00:21:22.09	188.75	23.67	-43.4	-44.4	22.7	0.00e+00	0	41	0	1132462080	58	4017
2026-01-30 00:21:23.09	188.81	23.52	-43.3	-44.3	22.8	0.00e+00	0	41	0	1134559232	58	3970
2026-01-30 00:21:24.10	188.87	23.37	-43.3	-44.3	22.7	0.00e+00	0	41	0	1136656384	58	4004
2026-01-30 00:21:25.11	188.93	23.23	-43.3	-44.4	22.8	0.00e+00	0	41	0	1138753536	58	4013
2026-01-30 00:21:26.12	188.99	23.08	-43.4	-44.4	22.7	0.00e+00	0	41	0	1139802112	58	4014
2026-01-30 00:21:27.12	189.04	22.93	-43.4	-44.5	22.6	0.00e+00	0	41	0	1141899264	58	4067
2026-01-30 00:21:28.13	189.10	22.79	-43.4	-44.4	22.7	0.00e+00	0	41	0	1143996416	58	4019
2026-01-30 00:21:29.14	189.16	22.65	-43.4	-44.5	22.7	0.00e+00	0	41	0	1146093568	58	4055
2026-01-30 00:21:30.15	189.22	22.50	-43.6	-44.6	22.5	0.00e+00	0	41	0	1148190720	58	4135
2026-01-30 00:21:31.16	189.27	22.36	-43.5	-44.6	22.5	0.00e+00	0	41	0	1149239296	58	4123
2026-01-30 00:21:32.16	189.33	22.22	-43.6	-44.7	22.4	0.00e+00	0	41	0	1151336448	58	4150
2026-01-30 00:21:33.17	189.39	22.08	-43.7	-44.8	22.3	0.00e+00	0	41	0	1153433600	58	4219
2026-01-30 00:21:34.17	189.44	21.94	-43.6	-44.7	22.4	0.00e+00	0	41	0	1155530752	58	4174
2026-01-30 00:21:35.18	189.50	21.80	-43.7	-44.8	22.3	0.00e+00	0	41	0	1157627904	58	4219
2026-01-30 00:21:36.19	189.55	21.66	-43.7	-44.8	22.3	0.00e+00	0	41	0	1158676480	58	4209
2026-01-30 00:21:37.19	189.60	21.52	-43.8	-44.9	22.1	0.00e+00	0	41	0	1160773632	58	4285
2026-01-30 00:21:38.20	189.66	21.39	-43.9	-45.0	22.1	0.00e+00	0	41	0	1162870784	58	4292
2026-01-30 00:21:39.20	189.71	21.25	-43.8	-44.9	22.2	0.00e+00	0	41	0	1164967936	58	4272
2026-01-30 00:21:40.21	189.76	21.12	-43.9	-45.0	22.0	0.00e+00	0	41	0	1167065088	58	4338
2026-01-30 00:21:41.21	189.82	20.98	-43.9	-45.0	22.1	0.00e+00	0	41	0	1168113664	58	4311
2026-01-30 00:21:42.22	189.87	20.85	-43.9	-45.0	22.1	0.00e+00	0	41	0	1170210816	58	4340
2026-01-30 00:21:43.23	189.92	20.71	-43.7	-44.8	22.3	0.00e+00	0	41	0	1172307968	58	4223
2026-01-30 00:21:44.24	189.97	20.58	-43.8	-44.8	22.2	0.00e+00	0	41	0	1174405120	58	4228
2026-01-30 00:21:45.25	190.02	20.45	-43.6	-44.7	22.3	0.00e+00	0	41	0	1176502272	58	4168
2026-01-30 00:21:46.25	190.07	20.32	-43.7	-44.8	22.3	0.00e+00	0	41	0	1178599424	58	4205
2026-01-30 00:21:47.26	190.12	20.19	-43.7	-44.8	22.3	0.00e+00	0	41	0	1179648000	58	4198
2026-01-30 00:21:48.26	190.17	20.06	-43.8	-44.8	21.9	0.00e+00	0	41	0	1181745152	58	4232
2026-01-30 00:21:49.26	190.22	19.93	-43.8	-44.8	22.1	0.00e+00	0	41	0	1183842304	58	4234
2026-01-30 00:21:50.27	190.27	19.80	-43.8	-44.8	22.2	0.00e+00	0	41	0	1185939456	58	4242
2026-01-30 00:21:51.28	190.32	19.67	-43.8	-44.8	22.2	0.00e+00	0	41	0	1186988032	58	4227
2026-01-30 00:21:52.29	190.36	19.54	-43.8	-44.9	22.2	0.00e+00	0	41	0	1189085184	58	4253
2026-01-30 00:21:53.30	190.41	19.41	-43.8	-44.9	22.2	0.00e+00	0	41	0	1191182336	58	4247
2026-01-30 00:21:54.30	190.46	19.29	-43.8	-44.9	22.2	0.00e+00	0	41	0	1193279488	58	4262
2026-01-30 00:21:55.31	190.50	19.16	-43.9	-44.9	22.1	0.00e+00	0	41	0	1195376640	58	4288
2026-01-30 00:21:56.32	190.55	19.04	-43.9	-45.0	22.0	0.00e+00	0	41	0	1196425216	58	4299
2026-01-30 00:21:57.33	190.60	18.91	-44.0	-45.1	22.0	0.00e+00	0	41	0	1198522368	58	4357
2026-01-30 00:21:58.33	190.64	18.79	-44.0	-45.2	21.9	0.00e+00	0	41	0	1200619520	58	4392
2026-01-30 00:21:59.34	190.69	18.67	-43.9	-45.0	22.0	0.00e+00	0	41	0	1202716672	58	4326
2026-01-30 00:22:00.35	190.73	18.54	-44.0	-45.2	21.9	0.00e+00	0	41	0	1204813824	58	4400
2026-01-30 00:22:01.36	190.78	18.42	-44.1	-45.2	21.8	0.00e+00	0	41	0	1206910976	58	4401
2026-01-30 00:22:02.36	190.82	18.30	-44.0	-45.2	21.8	0.00e+00	0	41	0	1207959552	58	4399
2026-01-30 00:22:03.37	190.87	18.18	-44.1	-45.3	21.8	0.00e+00	0	41	0	1210056704	58	4449
2026-01-30 00:22:04.37	190.91	18.06	-44.2	-45.3	21.7	0.00e+00	0	41	0	1212153856	59	4239
2026-01-30 00:22:05.38	190.95	17.94	-44.2	-45.4	21.6	0.00e+00	0	41	0	1214251008	59	4259
2026-01-30 00:22:06.39	191.00	17.82	-44.3	-45.5	21.6	0.00e+00	0	41	0	1215299584	59	4302
2026-01-30 00:22:07.40	191.04	17.70	-44.3	-45.5	21.5	0.00e+00	0	41	0	1217396736	59	4315
2026-01-30 00:22:08.41	191.08	17.58	-44.4	-45.6	21.4	0.00e+00	0	41	0	1219493888	59	4375
2026-01-30 00:22:09.41	191.12	17.47	-44.5	-45.7	21.4	0.00e+00	0	41	0	1221591040	59	4392
2026-01-30 00:22:10.42	191.17	17.35	-44.6	-45.8	21.2	0.00e+00	0	41	0	1223688192	59	4475
2026-01-30 00:22:11.43	191.21	17.23	-44.5	-45.7	21.3	0.00e+00	0	41	0	1224736768	59	4397
2026-01-30 00:22:12.43	191.25	17.12	-44.6	-45.8	21.2	0.00e+00	0	41	0	1226833920	59	4467
2026-01-30 00:22:13.44	191.29	17.00	-44.6	-45.8	21.2	0.00e+00	0	41	0	1228931072	59	4456
2026-01-30 00:22:14.44	191.33	16.89	-44.7	-45.9	21.1	0.00e+00	0	41	0	1231028224	59	4527
2026-01-30 00:22:15.45	191.37	16.77	-44.4	-45.5	21.1	0.00e+00	0	41	0	1233125376	60	4093
2026-01-30 00:22:16.46	191.41	16.66	-44.4	-45.6	21.1	0.00e+00	0	41	0	1235222528	60	4127
2026-01-30 00:22:17.47	191.45	16.55	-44.4	-45.6	21.1	0.00e+00	0	41	0	1236271104	60	4118
2026-01-30 00:22:18.48	191.49	16.43	-44.3	-45.5	21.1	0.00e+00	0	41	0	1238368256	60	4089
2026-01-30 00:22:19.49	191.53	16.32	-44.4	-45.6	21.1	0.00e+00	0	41	0	1240465408	60	4100
2026-01-30 00:22:20.50	191.57	16.21	-44.3	-45.5	21.2	0.00e+00	0	41	0	1242562560	60	4062
2026-01-30 00:22:21.50	191.61	16.10	-44.3	-45.5	21.2	0.00e+00	0	41	0	1243611136	60	4060
