passes_logs/2026/01/30/R3.2S_Murmansk/R3.2S_Murmansk__20260130_093043_TY-42_rec.log

#Pass ID: 20260130_093043_TY-42
#Satellite: TY-42
#Configuration: TY-42_900M
#almurnet v.1.7.20251203
#Start time: 2026-01-30 09:30:43

#Version: 2.2.20231116
#Station: R3.2S_Murmansk
#Location: 33.079688 lon 68.888172 lat
#TLE: 1 64048U 25103A   26029.85667824  .00008009  00000-0  38191-3 0 09990
#TLE: 2 64048 097.4120 104.9954 0001690 093.3503 286.4957 15.19163422 39072

#Time	Az	El	Level	Level2	SNR	BER	BlckErr	Temp	State	Recorded	gain1	gain2
2026-01-30 09:30:43.38	20.88	2.01	-54.4	-56.5	6.2	0.00e+00	0	48	0	0	80	18337
2026-01-30 09:30:44.38	20.88	2.08	-54.3	-56.5	6.2	0.00e+00	0	47	104	0	80	18378
2026-01-30 09:30:45.39	20.88	2.15	-54.3	-56.5	6.2	0.00e+00	0	48	104	0	80	18263
2026-01-30 09:30:46.40	20.88	2.22	-54.3	-56.5	6.2	0.00e+00	0	48	104	0	80	18258
2026-01-30 09:30:47.40	20.88	2.29	-54.3	-56.4	6.2	0.00e+00	0	48	104	0	80	18158
2026-01-30 09:30:48.41	20.88	2.36	-54.3	-56.5	6.2	0.00e+00	0	48	104	0	80	18208
2026-01-30 09:30:49.42	20.88	2.43	-54.3	-56.4	6.2	0.00e+00	0	48	104	0	80	18145
2026-01-30 09:30:50.42	20.88	2.50	-54.3	-56.5	6.2	0.00e+00	0	48	104	0	80	18205
2026-01-30 09:30:51.42	20.88	2.57	-54.3	-56.4	6.2	0.00e+00	0	48	104	0	80	18152
2026-01-30 09:30:52.43	20.88	2.65	-54.4	-56.5	6.2	0.00e+00	0	48	104	0	80	18296
2026-01-30 09:30:53.44	20.88	2.72	-54.5	-56.6	6.2	0.00e+00	0	48	104	0	80	18510
2026-01-30 09:30:54.44	20.87	2.79	-54.5	-56.6	6.2	0.00e+00	0	48	104	0	80	18483
2026-01-30 09:30:55.46	20.87	2.86	-54.6	-56.7	6.2	0.00e+00	0	48	104	0	80	18692
2026-01-30 09:30:56.46	20.87	2.94	-54.6	-56.7	6.2	0.00e+00	0	48	104	0	80	18731
2026-01-30 09:30:57.47	20.87	3.01	-54.6	-56.7	6.2	0.00e+00	0	48	104	0	80	18727
2026-01-30 09:30:58.48	20.87	3.08	-54.6	-56.7	6.2	0.00e+00	0	48	104	0	80	18722
2026-01-30 09:30:59.48	20.87	3.16	-54.5	-56.6	6.2	0.00e+00	0	48	104	0	80	18601
2026-01-30 09:31:00.49	20.87	3.23	-54.5	-56.6	6.2	0.00e+00	0	48	104	0	80	18599
2026-01-30 09:31:01.50	20.87	3.30	-54.5	-56.6	6.2	0.00e+00	0	49	104	0	80	18584
2026-01-30 09:31:02.50	20.86	3.38	-54.4	-56.6	6.2	0.00e+00	0	49	104	0	80	18406
2026-01-30 09:31:03.51	20.86	3.45	-54.4	-56.6	6.2	0.00e+00	0	49	104	0	80	18390
2026-01-30 09:31:04.52	20.86	3.53	-54.4	-56.6	6.2	0.00e+00	0	49	104	0	80	18413
2026-01-30 09:31:05.52	20.86	3.60	-54.4	-56.5	6.2	0.00e+00	0	49	104	0	80	18338
2026-01-30 09:31:06.53	20.86	3.68	-54.3	-56.5	6.2	0.00e+00	0	49	104	0	80	18197
2026-01-30 09:31:07.53	20.86	3.75	-54.3	-56.4	6.2	0.00e+00	0	49	104	0	80	18092
2026-01-30 09:31:08.54	20.86	3.83	-54.2	-56.3	6.2	0.00e+00	0	49	104	0	80	17875
2026-01-30 09:31:09.54	20.85	3.91	-54.1	-56.2	6.2	0.00e+00	0	49	104	0	80	17657
2026-01-30 09:31:10.55	20.85	3.98	-54.0	-56.1	6.2	0.00e+00	0	49	104	0	79	18512
2026-01-30 09:31:11.56	20.85	4.06	-53.8	-56.0	6.2	0.00e+00	0	49	104	0	79	18225
2026-01-30 09:31:12.57	20.85	4.14	-53.6	-55.8	6.2	0.00e+00	0	49	104	0	79	17776
2026-01-30 09:31:13.58	20.85	4.22	-53.3	-55.5	6.2	0.00e+00	0	49	104	0	78	18259
2026-01-30 09:31:14.59	20.85	4.29	-52.9	-55.0	6.2	0.00e+00	0	49	104	0	77	18329
2026-01-30 09:31:15.60	20.84	4.37	-52.5	-54.7	6.2	0.00e+00	0	49	104	0	77	17595
2026-01-30 09:31:16.61	20.84	4.45	-52.5	-54.6	6.2	0.00e+00	0	49	104	0	77	17456
2026-01-30 09:31:17.62	20.84	4.53	-52.5	-54.6	6.2	0.00e+00	0	50	104	0	76	18466
2026-01-30 09:31:18.62	20.84	4.61	-52.4	-54.6	6.2	0.00e+00	0	49	104	0	76	18453
2026-01-30 09:31:19.63	20.84	4.69	-52.4	-54.6	6.2	0.00e+00	0	49	104	0	76	18456
2026-01-30 09:31:20.64	20.83	4.77	-52.4	-54.6	6.2	0.00e+00	0	50	104	0	76	18420
2026-01-30 09:31:21.64	20.83	4.85	-52.4	-54.6	6.2	0.00e+00	0	49	104	0	76	18435
2026-01-30 09:31:22.65	20.83	4.93	-52.4	-54.6	6.2	0.00e+00	0	50	104	0	76	18447
2026-01-30 09:31:23.66	20.83	5.01	-52.4	-54.6	6.2	0.00e+00	0	50	104	0	76	18455
2026-01-30 09:31:24.67	20.82	5.09	-52.5	-54.6	6.2	0.00e+00	0	50	104	0	76	18470
2026-01-30 09:31:25.67	20.82	5.17	-52.5	-54.6	6.2	0.00e+00	0	50	104	0	76	18421
2026-01-30 09:31:26.68	20.82	5.25	-52.4	-54.6	6.2	0.00e+00	0	50	104	0	76	18437
2026-01-30 09:31:27.69	20.82	5.33	-52.6	-54.7	6.2	0.00e+00	0	50	104	0	76	18718
2026-01-30 09:31:28.70	20.81	5.42	-52.4	-54.6	6.2	0.00e+00	0	50	104	0	76	18390
2026-01-30 09:31:29.71	20.81	5.50	-52.4	-54.6	6.2	0.00e+00	0	50	104	0	76	18470
2026-01-30 09:31:30.71	20.81	5.58	-52.5	-54.6	6.2	0.00e+00	0	50	104	0	76	18494
2026-01-30 09:31:31.72	20.81	5.67	-52.6	-54.7	6.2	0.00e+00	0	50	104	0	76	18732
2026-01-30 09:31:32.73	20.80	5.75	-45.3	-45.6	9.2	5.87e-02	10608	52	104	0	60	16514
2026-01-30 09:31:33.73	20.80	5.83	-41.0	-41.0	11.1	0.00e+00	6649	51	104	0	54	13644
2026-01-30 09:31:34.74	20.80	5.92	-39.2	-39.2	13.0	0.00e+00	0	52	0	92274688	50	13963
2026-01-30 09:31:35.75	20.80	6.00	-38.9	-38.8	13.2	7.63e-02	0	52	0	201326592	49	14156
2026-01-30 09:31:36.75	20.79	6.09	-38.8	-38.7	13.2	7.63e-02	0	52	0	318767104	49	14106
2026-01-30 09:31:37.76	20.79	6.17	-36.9	-36.9	13.4	7.63e-02	0	52	0	427819008	45	14276
2026-01-30 09:31:38.77	20.79	6.26	-36.3	-36.3	13.7	5.87e-02	0	52	0	536870912	44	14114
2026-01-30 09:31:39.77	20.78	6.34	-36.1	-36.1	13.8	5.87e-02	0	52	0	654311424	44	13828
2026-01-30 09:31:40.78	20.78	6.43	-35.7	-35.6	14.1	5.87e-02	0	52	0	763363328	43	13940
2026-01-30 09:31:41.79	20.78	6.52	-35.4	-35.4	14.2	3.22e-02	0	52	0	889192448	42	14308
2026-01-30 09:31:42.80	20.78	6.61	-35.7	-35.6	14.1	3.22e-02	0	52	0	998244352	42	14746
2026-01-30 09:31:43.80	20.77	6.69	-35.6	-35.5	14.2	2.41e-02	0	53	0	1115684864	42	14592
2026-01-30 09:31:44.80	20.77	6.78	-35.6	-35.5	14.2	2.41e-02	0	53	0	1224736768	42	14552
2026-01-30 09:31:45.81	20.77	6.87	-35.6	-35.6	14.1	2.41e-02	0	53	0	1342177280	42	14639
2026-01-30 09:31:46.82	20.76	6.96	-35.5	-35.5	14.2	2.41e-02	0	53	0	1451229184	42	14458
2026-01-30 09:31:47.82	20.76	7.05	-35.6	-35.5	14.1	2.37e-02	0	53	0	1560281088	42	14589
2026-01-30 09:31:48.83	20.75	7.14	-35.5	-35.4	14.1	2.37e-02	0	53	0	1677721600	42	14340
2026-01-30 09:31:49.84	20.75	7.23	-35.5	-35.4	14.1	2.20e-02	0	53	0	1786773504	42	14418
2026-01-30 09:31:50.85	20.75	7.32	-35.5	-35.4	14.2	2.20e-02	0	53	0	1904214016	42	14310
2026-01-30 09:31:51.85	20.74	7.41	-35.3	-35.3	14.2	2.20e-02	0	53	0	2013265920	42	14139
2026-01-30 09:31:52.85	20.74	7.50	-35.2	-35.1	14.3	2.13e-02	0	53	0	2130706432	42	13927
2026-01-30 09:31:53.85	20.74	7.59	-35.2	-35.1	14.3	2.13e-02	0	53	0	2239758336	42	13824
2026-01-30 09:31:54.86	20.73	7.68	-35.2	-35.1	14.3	2.13e-02	0	53	0	2348810240	42	13935
2026-01-30 09:31:55.87	20.73	7.78	-35.3	-35.2	14.2	2.13e-02	0	53	0	2466250752	42	14036
2026-01-30 09:31:56.88	20.72	7.87	-35.3	-35.3	14.2	2.00e-02	0	53	0	2575302656	42	14123
2026-01-30 09:31:57.88	20.72	7.96	-35.3	-35.2	14.2	2.00e-02	0	53	0	2692743168	42	14073
2026-01-30 09:31:58.89	20.72	8.06	-35.2	-35.1	14.3	2.00e-02	0	53	0	2810183680	42	13877
2026-01-30 09:31:59.90	20.71	8.15	-34.9	-34.8	14.4	2.00e-02	0	53	0	2927624192	41	14177
2026-01-30 09:32:00.91	20.71	8.25	-35.0	-35.0	14.3	1.94e-02	0	53	0	3036676096	41	14475
2026-01-30 09:32:01.91	20.70	8.34	-34.9	-34.8	14.4	1.94e-02	0	54	0	3154116608	41	14250
2026-01-30 09:32:02.92	20.70	8.44	-35.0	-34.9	14.4	1.94e-02	0	54	0	3263168512	41	14329
2026-01-30 09:32:03.93	20.69	8.54	-34.7	-34.6	14.5	1.56e-02	0	53	0	3372220416	41	13896
2026-01-30 09:32:04.93	20.69	8.63	-34.8	-34.8	14.5	1.56e-02	0	53	0	3489660928	41	14120
2026-01-30 09:32:05.94	20.68	8.73	-34.9	-34.9	14.4	1.56e-02	0	53	0	3598712832	41	14276
2026-01-30 09:32:06.95	20.68	8.83	-34.7	-34.6	14.5	1.43e-02	0	54	0	3716153344	41	13845
2026-01-30 09:32:07.96	20.67	8.93	-34.7	-34.6	14.5	1.43e-02	0	54	0	3825205248	41	13898
2026-01-30 09:32:08.96	20.67	9.03	-34.5	-34.4	14.6	1.43e-02	0	54	0	3934257152	41	13560
2026-01-30 09:32:09.97	20.67	9.13	-34.4	-34.4	14.6	1.34e-02	0	54	0	4051697664	40	14276
2026-01-30 09:32:10.98	20.66	9.23	-34.4	-34.3	14.6	1.34e-02	0	54	0	4160749568	40	14269
2026-01-30 09:32:11.99	20.65	9.33	-34.5	-34.4	14.6	1.34e-02	0	54	0	4286578688	40	14373
2026-01-30 09:32:12.99	20.65	9.43	-34.4	-34.3	14.6	1.13e-02	0	54	0	4395630592	40	14240
2026-01-30 09:32:14.00	20.64	9.53	-34.3	-34.2	14.7	1.13e-02	0	54	0	4513071104	40	14020
2026-01-30 09:32:15.01	20.64	9.63	-34.2	-34.2	14.7	1.13e-02	0	54	0	4622123008	40	13970
2026-01-30 09:32:16.02	20.63	9.74	-34.2	-34.1	14.7	1.13e-02	0	54	0	4739563520	40	13889
2026-01-30 09:32:17.02	20.63	9.84	-34.2	-34.2	14.7	1.01e-02	0	54	0	4848615424	40	13975
2026-01-30 09:32:18.03	20.62	9.94	-34.3	-34.2	14.7	1.01e-02	0	54	0	4957667328	40	13972
2026-01-30 09:32:19.03	20.62	10.05	-34.2	-34.1	14.7	9.62e-03	0	54	0	5075107840	40	13892
2026-01-30 09:32:20.05	20.61	10.15	-34.3	-34.2	14.7	9.62e-03	0	54	0	5184159744	40	13976
2026-01-30 09:32:21.05	20.60	10.26	-34.1	-34.0	14.8	9.62e-03	0	54	0	5301600256	40	13659
2026-01-30 09:32:22.05	20.60	10.36	-34.0	-33.9	14.9	8.55e-03	0	54	0	5410652160	39	14300
2026-01-30 09:32:23.06	20.59	10.47	-34.1	-34.0	14.8	8.55e-03	0	54	0	5528092672	39	14582
2026-01-30 09:32:24.07	20.59	10.58	-33.9	-33.8	14.9	8.55e-03	0	54	0	5637144576	39	14171
2026-01-30 09:32:25.08	20.58	10.69	-33.9	-33.8	14.9	7.41e-03	0	54	0	5746196480	39	14131
2026-01-30 09:32:26.09	20.57	10.80	-33.9	-33.8	14.9	7.41e-03	0	54	0	5872025600	39	14131
2026-01-30 09:32:27.09	20.57	10.91	-33.6	-33.6	15.0	6.40e-03	0	55	0	5989466112	39	13799
2026-01-30 09:32:28.10	20.56	11.02	-33.7	-33.6	15.0	6.40e-03	0	55	0	6098518016	39	13897
2026-01-30 09:32:29.10	20.55	11.13	-33.6	-33.5	15.0	6.40e-03	0	55	0	6207569920	39	13752
2026-01-30 09:32:30.11	20.55	11.24	-33.6	-33.5	15.0	5.76e-03	0	55	0	6325010432	39	13787
2026-01-30 09:32:31.11	20.54	11.35	-33.5	-33.4	15.0	5.76e-03	0	55	0	6434062336	39	13625
2026-01-30 09:32:32.12	20.53	11.46	-33.5	-33.4	15.1	5.22e-03	0	55	0	6551502848	39	13521
2026-01-30 09:32:33.12	20.53	11.58	-33.4	-33.3	15.1	5.22e-03	0	55	0	6660554752	38	14264
2026-01-30 09:32:34.13	20.52	11.69	-33.4	-33.3	15.1	5.22e-03	0	55	0	6769606656	38	14148
2026-01-30 09:32:35.13	20.51	11.80	-33.4	-33.3	15.1	4.62e-03	0	55	0	6887047168	38	14258
2026-01-30 09:32:36.14	20.51	11.92	-33.3	-33.2	15.1	4.62e-03	0	55	0	6996099072	38	14109
2026-01-30 09:32:37.15	20.50	12.04	-33.2	-33.1	15.2	4.62e-03	0	55	0	7113539584	38	13801
2026-01-30 09:32:38.16	20.49	12.15	-33.1	-33.0	15.2	4.36e-03	0	55	0	7222591488	38	13709
2026-01-30 09:32:39.16	20.48	12.27	-33.1	-33.0	15.2	4.36e-03	0	55	0	7331643392	38	13719
2026-01-30 09:32:40.17	20.47	12.39	-33.1	-33.0	15.2	4.36e-03	0	55	0	7449083904	38	13653
2026-01-30 09:32:41.17	20.47	12.51	-33.1	-33.0	15.2	3.50e-03	0	55	0	7558135808	38	13739
2026-01-30 09:32:42.18	20.46	12.63	-33.1	-33.0	15.2	3.50e-03	0	55	0	7675576320	38	13633
2026-01-30 09:32:43.19	20.45	12.75	-32.9	-32.8	15.3	3.19e-03	0	55	0	7793016832	37	14195
2026-01-30 09:32:44.20	20.44	12.87	-32.8	-32.7	15.3	3.19e-03	0	55	0	7910457344	37	14038
2026-01-30 09:32:45.20	20.43	12.99	-32.8	-32.7	15.3	3.19e-03	0	55	0	8019509248	37	14024
2026-01-30 09:32:46.21	20.42	13.12	-32.9	-32.8	15.3	3.19e-03	0	55	0	8136949760	37	14254
2026-01-30 09:32:47.22	20.42	13.24	-32.9	-32.8	15.3	2.90e-03	0	55	0	8246001664	37	14171
2026-01-30 09:32:48.22	20.41	13.37	-32.6	-32.5	15.4	2.90e-03	0	55	0	8363442176	37	13768
2026-01-30 09:32:49.23	20.40	13.49	-32.6	-32.5	15.4	2.74e-03	0	55	0	8472494080	37	13727
2026-01-30 09:32:50.24	20.39	13.62	-32.5	-32.4	15.4	2.74e-03	0	55	0	8581545984	37	13606
2026-01-30 09:32:51.24	20.38	13.75	-32.5	-32.4	15.4	2.74e-03	0	55	0	8698986496	37	13518
2026-01-30 09:32:52.25	20.37	13.87	-32.3	-32.2	15.5	2.15e-03	0	55	0	8808038400	36	14081
2026-01-30 09:32:53.25	20.36	14.00	-32.3	-32.2	15.5	2.15e-03	0	55	0	8925478912	36	14016
2026-01-30 09:32:54.26	20.35	14.13	-32.3	-32.2	15.5	2.15e-03	0	55	0	9034530816	36	14075
2026-01-30 09:32:55.27	20.34	14.26	-32.3	-32.2	15.5	1.75e-03	0	55	0	9143582720	36	13971
2026-01-30 09:32:56.27	20.33	14.40	-32.3	-32.3	15.5	1.75e-03	0	55	0	9261023232	36	14113
2026-01-30 09:32:57.28	20.32	14.53	-32.2	-32.1	15.5	1.71e-03	0	55	0	9370075136	36	13898
2026-01-30 09:32:58.29	20.31	14.66	-32.0	-31.9	15.6	1.71e-03	0	55	0	9495904256	36	13570
2026-01-30 09:32:59.29	20.30	14.80	-29.6	-29.5	15.2	1.71e-03	0	55	0	9604956160	31	13756
2026-01-30 09:33:00.30	20.29	14.93	-29.7	-29.6	15.2	1.71e-03	0	55	0	9722396672	31	13827
2026-01-30 09:33:01.31	20.28	15.07	-29.6	-29.5	15.2	3.37e-03	0	55	0	9831448576	31	13662
2026-01-30 09:33:02.31	20.27	15.21	-29.5	-29.4	15.2	3.37e-03	0	55	0	9948889088	31	13559
2026-01-30 09:33:03.32	20.26	15.35	-29.6	-29.5	15.2	3.37e-03	0	56	0	10057940992	31	13708
2026-01-30 09:33:04.33	20.25	15.49	-29.6	-29.5	15.2	3.12e-03	0	55	0	10166992896	31	13678
2026-01-30 09:33:05.33	20.24	15.63	-29.4	-29.3	15.3	3.12e-03	0	55	0	10284433408	30	14207
2026-01-30 09:33:06.33	20.22	15.77	-29.3	-29.2	15.3	3.12e-03	0	55	0	10393485312	30	14060
2026-01-30 09:33:07.34	20.21	15.91	-29.3	-29.2	15.3	2.94e-03	0	55	0	10510925824	30	14019
2026-01-30 09:33:08.35	20.20	16.05	-29.2	-29.1	15.3	2.94e-03	0	56	0	10619977728	30	13938
2026-01-30 09:33:09.36	20.19	16.20	-29.2	-29.1	15.3	2.44e-03	0	55	0	10729029632	30	13851
2026-01-30 09:33:10.37	20.18	16.35	-29.2	-29.1	15.3	2.44e-03	0	55	0	10846470144	30	13874
2026-01-30 09:33:11.38	20.16	16.49	-29.1	-29.0	15.4	2.44e-03	0	56	0	10955522048	30	13704
2026-01-30 09:33:12.38	20.15	16.64	-29.0	-28.9	15.4	2.51e-03	0	56	0	11072962560	30	13619
2026-01-30 09:33:13.39	20.14	16.79	-28.9	-28.8	15.4	2.51e-03	0	55	0	11190403072	29	14112
2026-01-30 09:33:14.40	20.12	16.94	-28.9	-28.8	15.4	2.51e-03	0	55	0	11307843584	29	14196
2026-01-30 09:33:15.40	20.11	17.09	-28.8	-28.7	15.5	2.05e-03	0	56	0	11416895488	29	14045
2026-01-30 09:33:16.41	20.10	17.25	-28.7	-28.6	15.5	2.05e-03	0	55	0	11534336000	29	13863
2026-01-30 09:33:17.41	20.08	17.40	-28.6	-28.6	15.5	1.62e-03	0	56	0	11643387904	29	13809
2026-01-30 09:33:18.42	20.07	17.56	-28.6	-28.5	15.5	1.62e-03	0	56	0	11760828416	29	13704
2026-01-30 09:33:19.43	20.06	17.71	-28.6	-28.5	15.6	1.62e-03	0	56	0	11869880320	29	13682
2026-01-30 09:33:20.43	20.04	17.87	-28.5	-28.4	15.6	1.50e-03	0	56	0	11978932224	29	13625
2026-01-30 09:33:21.44	20.03	18.03	-28.5	-28.4	15.6	1.50e-03	0	55	0	12096372736	29	13593
2026-01-30 09:33:22.45	20.01	18.19	-28.3	-28.2	15.6	1.46e-03	0	56	0	12205424640	28	14084
2026-01-30 09:33:23.45	20.00	18.35	-28.4	-28.3	15.6	1.46e-03	0	56	0	12322865152	28	14212
2026-01-30 09:33:24.45	19.98	18.52	-28.1	-28.0	15.7	1.46e-03	0	56	0	12431917056	28	13747
2026-01-30 09:33:25.46	19.97	18.68	-28.1	-28.0	15.7	1.15e-03	0	56	0	12540968960	28	13682
2026-01-30 09:33:26.46	19.95	18.85	-28.2	-28.1	15.6	1.15e-03	0	55	0	12658409472	28	13946
2026-01-30 09:33:27.47	19.94	19.02	-28.1	-28.0	15.7	1.15e-03	0	56	0	12767461376	28	13653
2026-01-30 09:33:28.48	19.92	19.19	-27.9	-27.8	15.8	1.15e-03	0	56	0	12884901888	27	14264
2026-01-30 09:33:29.48	19.90	19.35	-27.7	-27.6	15.8	8.34e-04	0	56	0	12993953792	27	13878
2026-01-30 09:33:30.49	19.89	19.53	-27.7	-27.6	15.9	8.34e-04	0	55	0	13119782912	27	13838
2026-01-30 09:33:31.50	19.87	19.70	-27.7	-27.6	15.8	8.34e-04	0	56	0	13228834816	27	13910
2026-01-30 09:33:32.51	19.85	19.88	-27.7	-27.6	15.8	5.05e-04	0	56	0	13346275328	27	13931
2026-01-30 09:33:33.52	19.83	20.05	-27.6	-27.5	15.9	5.05e-04	0	56	0	13455327232	27	13742
2026-01-30 09:33:34.53	19.82	20.23	-27.7	-27.6	15.8	6.25e-04	0	56	0	13564379136	27	13811
2026-01-30 09:33:35.53	19.80	20.41	-35.8	-35.7	14.9	6.25e-04	5144	56	0	13681819648	49	9931
2026-01-30 09:33:36.53	19.78	20.59	-40.2	-40.1	12.7	6.25e-04	1	56	0	13790871552	53	13148
2026-01-30 09:33:37.54	19.76	20.78	-37.0	-36.9	13.6	7.88e-02	0	56	0	13908312064	46	13493
2026-01-30 09:33:38.55	19.74	20.96	-36.7	-36.7	13.7	7.88e-02	0	56	0	14017363968	44	14828
2026-01-30 09:33:39.56	19.72	21.15	-36.5	-36.4	13.8	7.88e-02	0	56	0	14134804480	44	14395
2026-01-30 09:33:40.56	19.70	21.34	-36.7	-36.6	13.7	4.00e-02	0	56	0	14243856384	44	14735
2026-01-30 09:33:41.57	19.68	21.53	-34.7	-34.6	14.7	4.00e-02	0	56	0	14352908288	41	13851
2026-01-30 09:33:42.57	19.66	21.72	-32.7	-32.6	15.4	4.00e-02	0	56	0	14470348800	37	13841
2026-01-30 09:33:43.58	19.64	21.91	-28.6	-28.5	15.5	4.00e-02	0	56	0	14579400704	29	13773
2026-01-30 09:33:44.59	19.62	22.11	-27.5	-27.4	15.8	9.05e-03	0	56	0	14705229824	27	13632
2026-01-30 09:33:45.60	19.60	22.31	-26.9	-26.8	16.0	9.05e-03	0	56	0	14814281728	25	14125
2026-01-30 09:33:46.61	19.58	22.51	-26.6	-26.5	16.0	4.48e-04	0	56	0	14931722240	25	13678
2026-01-30 09:33:47.61	19.55	22.71	-26.6	-26.5	16.0	4.48e-04	0	56	0	15040774144	25	13769
2026-01-30 09:33:48.62	19.53	22.91	-26.6	-26.5	16.0	4.48e-04	0	56	0	15158214656	25	13657
2026-01-30 09:33:49.62	19.51	23.11	-26.5	-26.4	16.0	1.33e-04	0	56	0	15267266560	25	13626
2026-01-30 09:33:50.63	19.49	23.32	-26.3	-26.2	16.1	1.33e-04	0	56	0	15376318464	24	14044
2026-01-30 09:33:51.64	19.46	23.53	-26.3	-26.2	16.1	1.33e-04	0	56	0	15493758976	24	14044
2026-01-30 09:33:52.65	19.44	23.74	-26.2	-26.1	16.1	1.14e-04	0	56	0	15602810880	24	13943
2026-01-30 09:33:53.65	19.41	23.96	-26.2	-26.1	16.1	1.14e-04	0	56	0	15720251392	24	13874
2026-01-30 09:33:54.66	19.39	24.17	-26.0	-26.0	16.1	1.14e-04	0	56	0	15829303296	24	13647
2026-01-30 09:33:55.67	19.36	24.39	-25.9	-25.8	16.1	1.00e-04	0	56	0	15938355200	23	14127
2026-01-30 09:33:56.67	19.34	24.61	-25.7	-25.6	16.2	1.00e-04	0	56	0	16055795712	23	13927
2026-01-30 09:33:57.68	19.31	24.83	-25.6	-25.5	16.2	1.00e-04	0	56	0	16164847616	23	13687
2026-01-30 09:33:58.69	19.28	25.06	-25.4	-25.3	16.4	7.15e-05	0	56	0	16290676736	22	14249
2026-01-30 09:33:59.70	19.26	25.29	-25.5	-25.4	16.4	7.15e-05	0	56	0	16399728640	22	14300
2026-01-30 09:34:00.70	19.23	25.51	-25.5	-25.4	16.4	7.15e-05	0	56	0	16517169152	22	14322
2026-01-30 09:34:01.71	19.20	25.75	-25.5	-25.4	16.4	4.76e-05	0	56	0	16626221056	22	14320
2026-01-30 09:34:02.72	19.17	25.98	-25.2	-25.1	16.5	4.76e-05	0	56	0	16743661568	22	13919
2026-01-30 09:34:03.73	19.14	26.22	-25.1	-25.0	16.5	4.76e-05	0	56	0	16852713472	22	13750
2026-01-30 09:34:04.73	19.11	26.46	-25.1	-25.0	16.5	1.90e-05	0	56	0	16961765376	22	13670
2026-01-30 09:34:05.74	19.08	26.70	-25.2	-25.1	16.5	1.90e-05	0	56	0	17079205888	22	13857
2026-01-30 09:34:06.75	19.05	26.94	-24.8	-24.7	16.6	1.90e-05	0	56	0	17188257792	21	14081
2026-01-30 09:34:07.76	19.02	27.19	-53.6	-55.9	6.2	0.00e+00	0	55	104	17255366656	77	20200
2026-01-30 09:34:08.76	18.98	27.44	-53.6	-55.8	6.2	0.00e+00	0	55	104	17255366656	77	20049
2026-01-30 09:34:09.77	18.95	27.69	-53.6	-55.8	6.2	0.00e+00	0	55	104	17255366656	77	20020
2026-01-30 09:34:10.77	18.92	27.95	-53.6	-55.8	6.2	0.00e+00	0	55	104	17255366656	77	19998
2026-01-30 09:34:11.79	18.88	28.21	-53.6	-55.7	6.2	0.00e+00	0	55	104	17255366656	77	19836
2026-01-30 09:34:12.80	18.85	28.47	-53.6	-55.7	6.2	0.00e+00	0	55	104	17255366656	77	19897
2026-01-30 09:34:13.80	18.81	28.73	-53.6	-55.7	6.2	0.00e+00	0	55	104	17255366656	77	19855
2026-01-30 09:34:14.80	18.78	29.00	-53.7	-55.8	6.2	0.00e+00	0	54	104	17255366656	77	20023
2026-01-30 09:34:15.81	18.74	29.27	-53.6	-55.7	6.2	0.00e+00	0	54	104	17255366656	77	19887
2026-01-30 09:34:16.81	18.70	29.54	-53.6	-55.7	6.2	0.00e+00	0	54	104	17255366656	77	19913
2026-01-30 09:34:17.82	18.66	29.82	-53.6	-55.7	6.2	0.00e+00	0	54	104	17255366656	77	19899
2026-01-30 09:34:18.82	18.62	30.10	-53.7	-55.8	6.2	0.00e+00	0	54	104	17255366656	77	20028
2026-01-30 09:34:19.83	18.58	30.38	-53.6	-55.7	6.2	0.00e+00	0	54	104	17255366656	77	19911
2026-01-30 09:34:20.83	18.54	30.66	-53.6	-55.8	6.2	0.00e+00	0	54	104	17255366656	77	19985
2026-01-30 09:34:21.83	18.50	30.95	-53.6	-55.8	6.2	0.00e+00	0	54	104	17255366656	77	20028
2026-01-30 09:34:22.84	18.45	31.24	-53.7	-55.8	6.2	0.00e+00	0	54	104	17255366656	77	20113
2026-01-30 09:34:23.84	18.41	31.54	-53.6	-55.8	6.2	0.00e+00	0	54	104	17255366656	77	19982
2026-01-30 09:34:24.85	18.37	31.84	-53.7	-55.8	6.2	0.00e+00	0	54	104	17255366656	77	20032
2026-01-30 09:34:25.85	18.32	32.14	-53.7	-55.8	6.2	0.00e+00	0	54	104	17255366656	77	20048
2026-01-30 09:34:26.86	18.27	32.45	-53.7	-55.9	6.2	0.00e+00	0	54	104	17255366656	78	19050
2026-01-30 09:34:27.87	18.22	32.76	-53.7	-55.8	6.2	0.00e+00	0	54	104	17255366656	78	18993
2026-01-30 09:34:28.87	18.18	33.07	-53.7	-55.8	6.2	0.00e+00	0	54	104	17255366656	78	19025
2026-01-30 09:34:29.88	18.13	33.39	-53.7	-55.8	6.2	0.00e+00	0	54	104	17255366656	78	19022
2026-01-30 09:34:30.89	18.07	33.72	-53.8	-55.9	6.2	0.00e+00	0	54	104	17255366656	78	19198
2026-01-30 09:34:31.89	18.02	34.04	-53.7	-55.8	6.2	0.00e+00	0	54	104	17255366656	78	18996
2026-01-30 09:34:32.90	17.97	34.37	-53.7	-55.9	6.2	0.00e+00	0	54	104	17255366656	78	19063
2026-01-30 09:34:33.90	17.91	34.70	-53.7	-55.9	6.2	0.00e+00	0	54	104	17255366656	78	19059
2026-01-30 09:34:34.91	17.86	35.04	-53.8	-55.9	6.2	0.00e+00	0	54	104	17255366656	78	19187
2026-01-30 09:34:35.92	17.80	35.39	-53.7	-55.9	6.2	0.00e+00	0	54	104	17255366656	78	19065
2026-01-30 09:34:36.92	17.74	35.73	-53.8	-55.9	6.2	0.00e+00	0	54	104	17255366656	78	19132
2026-01-30 09:34:37.93	17.68	36.08	-53.8	-55.9	6.2	0.00e+00	0	54	104	17255366656	78	19126
2026-01-30 09:34:38.94	17.62	36.44	-53.8	-55.9	6.2	0.00e+00	0	54	104	17255366656	78	19220
2026-01-30 09:34:39.95	17.55	36.80	-53.8	-55.9	6.2	0.00e+00	0	54	104	17255366656	78	19118
2026-01-30 09:34:40.96	17.49	37.17	-53.8	-55.9	6.2	0.00e+00	0	54	104	17255366656	78	19166
2026-01-30 09:34:41.97	17.42	37.54	-53.8	-55.9	6.2	0.00e+00	0	54	104	17255366656	78	19188
2026-01-30 09:34:42.98	17.35	37.91	-53.9	-56.0	6.2	0.00e+00	0	54	104	17255366656	78	19348
2026-01-30 09:34:43.99	17.28	38.29	-53.8	-55.9	6.2	0.00e+00	0	54	104	17255366656	78	19163
2026-01-30 09:34:45.00	17.21	38.68	-53.8	-56.0	6.2	0.00e+00	0	53	104	17255366656	78	19300
2026-01-30 09:34:46.01	17.13	39.07	-53.8	-56.0	6.2	0.00e+00	0	54	104	17255366656	78	19301
2026-01-30 09:34:47.02	17.06	39.46	-53.9	-56.0	6.2	0.00e+00	0	54	104	17255366656	78	19457
2026-01-30 09:34:48.02	16.98	39.86	-53.8	-56.0	6.2	0.00e+00	0	53	104	17255366656	78	19259
2026-01-30 09:34:49.02	16.90	40.26	-53.9	-56.0	6.2	0.00e+00	0	54	104	17255366656	78	19393
2026-01-30 09:34:50.03	16.82	40.67	-53.9	-56.0	6.2	0.00e+00	0	54	104	17255366656	78	19400
2026-01-30 09:34:51.04	16.73	41.09	-53.9	-56.0	6.2	0.00e+00	0	53	104	17255366656	78	19474
2026-01-30 09:34:52.05	16.64	41.51	-53.9	-56.0	6.2	0.00e+00	0	53	104	17255366656	78	19371
2026-01-30 09:34:53.05	16.55	41.93	-53.9	-56.0	6.2	0.00e+00	0	53	104	17255366656	78	19473
2026-01-30 09:34:54.06	16.46	42.37	-53.9	-56.1	6.2	0.00e+00	0	53	104	17255366656	78	19535
2026-01-30 09:34:55.07	16.37	42.80	-53.9	-56.1	6.2	0.00e+00	0	53	104	17255366656	78	19482
2026-01-30 09:34:56.08	16.27	43.25	-53.9	-56.1	6.2	0.00e+00	0	54	104	17255366656	78	19480
2026-01-30 09:34:57.08	16.17	43.69	-53.9	-56.1	6.2	0.00e+00	0	53	104	17255366656	78	19505
2026-01-30 09:34:58.09	16.06	44.15	-53.9	-56.1	6.2	0.00e+00	0	53	104	17255366656	78	19520
2026-01-30 09:34:59.10	15.95	44.61	-53.9	-56.1	6.2	0.00e+00	0	53	104	17255366656	78	19532
2026-01-30 09:35:00.11	15.84	45.08	-53.9	-56.1	6.2	0.00e+00	0	53	104	17255366656	78	19511
2026-01-30 09:35:01.11	15.73	45.55	-53.9	-56.1	6.2	0.00e+00	0	53	104	17255366656	78	19482
2026-01-30 09:35:02.12	15.61	46.03	-54.0	-56.1	6.2	0.00e+00	0	53	104	17255366656	78	19596
2026-01-30 09:35:03.13	15.49	46.51	-54.0	-56.1	6.2	0.00e+00	0	53	104	17255366656	78	19622
2026-01-30 09:35:04.13	15.36	47.00	-53.9	-56.1	6.2	0.00e+00	0	53	104	17255366656	78	19532
2026-01-30 09:35:05.14	15.23	47.50	-54.0	-56.1	6.2	0.00e+00	0	53	104	17255366656	78	19614
2026-01-30 09:35:06.15	15.09	48.00	-54.0	-56.1	6.2	0.00e+00	0	53	104	17255366656	78	19698
2026-01-30 09:35:07.16	14.95	48.52	-54.0	-56.1	6.2	0.00e+00	0	53	104	17255366656	78	19666
2026-01-30 09:35:08.17	14.81	49.03	-54.0	-56.1	6.2	0.00e+00	0	53	104	17255366656	78	19605
2026-01-30 09:35:09.17	14.66	49.55	-54.0	-56.1	6.2	0.00e+00	0	53	104	17255366656	78	19692
2026-01-30 09:35:10.18	14.50	50.08	-54.0	-56.2	6.2	0.00e+00	0	53	104	17255366656	78	19770
2026-01-30 09:35:11.18	14.34	50.62	-54.0	-56.2	6.2	0.00e+00	0	53	104	17255366656	78	19741
2026-01-30 09:35:12.19	14.17	51.16	-54.0	-56.1	6.2	0.00e+00	0	53	104	17255366656	78	19598
2026-01-30 09:35:13.20	14.00	51.71	-54.0	-56.2	6.2	0.00e+00	0	53	104	17255366656	78	19723
2026-01-30 09:35:14.21	13.82	52.27	-54.1	-56.2	6.2	0.00e+00	0	53	104	17255366656	78	19796
2026-01-30 09:35:15.21	13.63	52.83	-54.1	-56.2	6.2	0.00e+00	0	53	104	17255366656	78	19767
2026-01-30 09:35:16.22	13.43	53.40	-54.0	-56.1	6.2	0.00e+00	0	53	104	17255366656	78	19676
2026-01-30 09:35:17.22	13.23	53.98	-54.1	-56.2	6.2	0.00e+00	0	53	104	17255366656	78	19803
2026-01-30 09:35:18.23	13.01	54.56	-54.1	-56.2	6.2	0.00e+00	0	53	104	17255366656	78	19910
2026-01-30 09:35:19.24	12.79	55.15	-54.1	-56.2	6.2	0.00e+00	0	53	104	17255366656	78	19884
2026-01-30 09:35:20.25	12.56	55.75	-54.1	-56.2	6.2	0.00e+00	0	53	104	17255366656	78	19781
2026-01-30 09:35:21.26	12.31	56.36	-54.1	-56.2	6.2	0.00e+00	0	53	104	17255366656	78	19897
2026-01-30 09:35:22.27	12.06	56.97	-54.1	-56.3	6.2	0.00e+00	0	53	104	17255366656	78	19980
2026-01-30 09:35:23.28	11.79	57.59	-54.1	-56.3	6.2	0.00e+00	0	53	104	17255366656	78	19963
2026-01-30 09:35:24.28	11.51	58.21	-54.1	-56.2	6.2	0.00e+00	0	53	104	17255366656	78	19770
2026-01-30 09:35:25.29	11.22	58.84	-54.1	-56.3	6.2	0.00e+00	0	53	104	17255366656	78	19995
2026-01-30 09:35:26.30	10.91	59.48	-54.2	-56.3	6.2	0.00e+00	0	53	104	17255366656	78	20093
2026-01-30 09:35:27.31	10.59	60.13	-54.2	-56.3	6.2	0.00e+00	0	53	104	17255366656	78	20041
2026-01-30 09:35:28.32	10.24	60.78	-54.1	-56.3	6.2	0.00e+00	0	53	104	17255366656	78	19956
2026-01-30 09:35:29.32	9.89	61.43	-54.2	-56.3	6.2	0.00e+00	0	53	104	17255366656	78	20078
2026-01-30 09:35:30.33	9.50	62.10	-54.2	-56.3	6.2	0.00e+00	0	53	104	17255366656	79	19015
2026-01-30 09:35:31.33	9.11	62.76	-54.2	-56.4	6.2	0.00e+00	0	53	104	17255366656	79	19044
2026-01-30 09:35:32.34	8.68	63.44	-54.2	-56.3	6.2	0.00e+00	0	53	104	17255366656	79	18926
2026-01-30 09:35:33.35	8.23	64.12	-54.2	-56.3	6.2	0.00e+00	0	53	104	17255366656	79	18995
2026-01-30 09:35:34.36	7.75	64.81	-54.3	-56.4	6.2	0.00e+00	0	53	104	17255366656	79	19164
2026-01-30 09:35:35.36	7.24	65.50	-54.2	-56.4	6.2	0.00e+00	0	53	104	17255366656	79	19081
2026-01-30 09:35:36.37	6.69	66.19	-54.2	-56.3	6.2	0.00e+00	0	53	104	17255366656	79	18958
2026-01-30 09:35:37.37	6.12	66.89	-54.3	-56.4	6.2	0.00e+00	0	53	104	17255366656	79	19185
2026-01-30 09:35:38.39	5.49	67.60	-54.3	-56.4	6.2	0.00e+00	0	53	104	17255366656	79	19239
2026-01-30 09:35:39.39	4.83	68.30	-54.3	-56.4	6.2	0.00e+00	0	53	104	17255366656	79	19161
2026-01-30 09:35:40.40	4.11	69.02	-54.3	-56.4	6.2	0.00e+00	0	53	104	17255366656	79	19063
2026-01-30 09:35:41.40	3.35	69.73	-54.3	-56.4	6.2	0.00e+00	0	53	104	17255366656	79	19240
2026-01-30 09:35:42.41	2.52	70.44	-54.3	-56.5	6.2	0.00e+00	0	53	104	17255366656	79	19314
2026-01-30 09:35:43.42	1.61	71.16	-54.3	-56.4	6.2	0.00e+00	0	53	104	17255366656	79	19245
2026-01-30 09:35:44.43	0.64	71.88	-54.3	-56.4	6.2	0.00e+00	0	53	104	17255366656	79	19148
2026-01-30 09:35:45.43	359.58	72.60	-54.3	-56.5	6.2	0.00e+00	0	53	104	17255366656	79	19274
2026-01-30 09:35:46.43	358.43	73.31	-54.4	-56.5	6.2	0.00e+00	0	53	104	17255366656	79	19370
2026-01-30 09:35:47.44	357.16	74.02	-54.3	-56.5	6.2	0.00e+00	0	53	104	17255366656	79	19287
2026-01-30 09:35:48.45	355.76	74.74	-54.3	-56.4	6.2	0.00e+00	0	53	104	17255366656	79	19245
2026-01-30 09:35:49.46	354.22	75.44	-54.4	-56.5	6.2	0.00e+00	0	53	104	17255366656	79	19313
2026-01-30 09:35:50.46	352.54	76.14	-54.4	-56.5	6.2	0.00e+00	0	53	104	17255366656	79	19373
2026-01-30 09:35:51.47	350.65	76.83	-54.3	-56.5	6.2	0.00e+00	0	53	104	17255366656	79	19279
2026-01-30 09:35:52.48	348.55	77.51	-54.3	-56.5	6.2	0.00e+00	0	53	104	17255366656	79	19294
2026-01-30 09:35:53.49	346.20	78.17	-54.4	-56.5	6.2	0.00e+00	0	53	104	17255366656	79	19415
2026-01-30 09:35:54.49	343.60	78.81	-54.4	-56.5	6.2	0.00e+00	0	53	104	17255366656	79	19375
2026-01-30 09:35:55.50	340.65	79.43	-54.3	-56.5	6.2	0.00e+00	0	53	104	17255366656	79	19302
2026-01-30 09:35:56.50	337.37	80.01	-54.4	-56.5	6.2	0.00e+00	0	52	104	17255366656	79	19331
2026-01-30 09:35:57.51	333.64	80.57	-54.4	-56.5	6.2	0.00e+00	0	53	104	17255366656	79	19471
2026-01-30 09:35:58.52	329.46	81.08	-54.4	-56.5	6.2	0.00e+00	0	53	104	17255366656	79	19454
2026-01-30 09:35:59.53	324.78	81.55	-54.4	-56.5	6.2	0.00e+00	0	53	104	17255366656	79	19293
2026-01-30 09:36:00.54	319.59	81.95	-54.4	-56.6	6.2	0.00e+00	0	53	104	17255366656	79	19490
2026-01-30 09:36:01.55	313.90	82.28	-54.4	-56.5	6.2	0.00e+00	0	53	104	17255366656	79	19468
2026-01-30 09:36:02.55	307.83	82.53	-54.4	-56.5	6.2	0.00e+00	0	53	104	17255366656	79	19470
2026-01-30 09:36:03.56	301.35	82.69	-54.4	-56.5	6.2	0.00e+00	0	52	104	17255366656	79	19364
2026-01-30 09:36:04.57	294.66	82.75	-54.4	-56.5	6.2	0.00e+00	0	53	104	17255366656	79	19476
2026-01-30 09:36:05.58	287.95	82.72	-54.4	-56.5	6.2	0.00e+00	0	53	104	17255366656	79	19455
2026-01-30 09:36:06.58	281.45	82.59	-54.4	-56.5	6.2	0.00e+00	0	53	104	17255366656	79	19429
2026-01-30 09:36:07.59	275.20	82.36	-54.4	-56.5	6.2	0.00e+00	0	53	104	17255366656	79	19370
2026-01-30 09:36:08.60	269.37	82.06	-54.4	-56.5	6.2	0.00e+00	0	53	104	17255366656	79	19479
2026-01-30 09:36:09.61	264.03	81.67	-54.4	-56.6	6.2	0.00e+00	0	53	104	17255366656	79	19556
2026-01-30 09:36:10.61	259.24	81.23	-54.5	-56.6	6.2	0.00e+00	0	53	104	17255366656	79	19546
2026-01-30 09:36:11.62	254.91	80.73	-54.4	-56.6	6.2	0.00e+00	0	53	104	17255366656	79	19511
2026-01-30 09:36:12.63	251.05	80.19	-54.4	-56.6	6.2	0.00e+00	0	53	104	17255366656	79	19546
2026-01-30 09:36:13.64	247.61	79.60	-54.5	-56.6	6.2	0.00e+00	0	53	104	17255366656	79	19503
2026-01-30 09:36:14.65	244.56	78.99	-54.5	-56.6	6.2	0.00e+00	0	53	104	17255366656	79	19542
2026-01-30 09:36:15.65	241.86	78.36	-54.4	-56.5	6.2	0.00e+00	0	52	104	17255366656	79	19460
2026-01-30 09:36:16.66	239.43	77.70	-54.4	-56.6	6.2	0.00e+00	0	53	104	17255366656	79	19495
2026-01-30 09:36:17.66	237.28	77.03	-54.5	-56.6	6.2	0.00e+00	0	52	104	17255366656	79	19582
2026-01-30 09:36:18.67	235.33	76.34	-54.5	-56.6	6.2	0.00e+00	0	53	104	17255366656	79	19582
2026-01-30 09:36:19.68	233.58	75.65	-54.4	-56.6	6.2	0.00e+00	0	53	104	17255366656	79	19485
2026-01-30 09:36:20.68	232.01	74.95	-54.5	-56.6	6.2	0.00e+00	0	53	104	17255366656	79	19559
2026-01-30 09:36:21.69	230.57	74.24	-54.5	-56.6	6.2	0.00e+00	0	53	104	17255366656	79	19580
2026-01-30 09:36:22.70	229.26	73.52	-54.5	-56.6	6.2	0.00e+00	0	53	104	17255366656	79	19618
2026-01-30 09:36:23.70	228.08	72.81	-54.4	-56.5	6.2	0.00e+00	0	53	104	17255366656	79	19460
2026-01-30 09:36:24.71	226.98	72.09	-54.4	-56.6	6.2	0.00e+00	0	52	104	17255366656	79	19511
2026-01-30 09:36:25.71	225.99	71.37	-54.5	-56.6	6.2	0.00e+00	0	53	104	17255366656	79	19603
2026-01-30 09:36:26.72	225.07	70.65	-54.5	-56.6	6.2	0.00e+00	0	53	104	17255366656	79	19589
2026-01-30 09:36:27.72	224.22	69.94	-54.5	-56.6	6.2	0.00e+00	0	53	104	17255366656	79	19581
2026-01-30 09:36:28.73	223.43	69.22	-54.5	-56.6	6.2	0.00e+00	0	53	104	17255366656	79	19621
2026-01-30 09:36:29.74	222.70	68.51	-54.5	-56.6	6.2	0.00e+00	0	52	104	17255366656	79	19580
2026-01-30 09:36:30.75	222.02	67.79	-54.5	-56.6	6.2	0.00e+00	0	53	104	17255366656	79	19612
2026-01-30 09:36:31.76	221.38	67.09	-54.4	-56.6	6.2	0.00e+00	0	52	104	17255366656	79	19535
2026-01-30 09:36:32.77	220.79	66.38	-54.4	-56.6	6.2	0.00e+00	0	52	104	17255366656	79	19527
2026-01-30 09:36:33.78	220.23	65.68	-54.4	-56.6	6.2	0.00e+00	0	53	104	17255366656	79	19544
2026-01-30 09:36:34.79	219.71	64.99	-54.4	-56.6	6.2	0.00e+00	0	53	104	17255366656	79	19497
2026-01-30 09:36:35.80	219.22	64.30	-54.4	-56.5	6.2	0.00e+00	0	52	104	17255366656	79	19388
2026-01-30 09:36:36.81	218.76	63.61	-54.4	-56.6	6.2	0.00e+00	0	53	104	17255366656	79	19483
2026-01-30 09:36:37.82	218.33	62.93	-54.4	-56.6	6.2	0.00e+00	0	53	104	17255366656	79	19510
2026-01-30 09:36:38.83	217.92	62.26	-54.4	-56.6	6.2	0.00e+00	0	52	104	17255366656	79	19485
2026-01-30 09:36:39.84	217.53	61.59	-54.4	-56.5	6.2	0.00e+00	0	52	104	17255366656	79	19377
2026-01-30 09:36:40.85	217.16	60.93	-54.4	-56.5	6.2	0.00e+00	0	53	104	17255366656	79	19358
2026-01-30 09:36:41.85	216.82	60.28	-54.4	-56.5	6.2	0.00e+00	0	53	104	17255366656	79	19412
2026-01-30 09:36:42.86	216.49	59.63	-54.4	-56.5	6.2	0.00e+00	0	53	104	17255366656	79	19388
2026-01-30 09:36:43.87	216.18	58.99	-54.3	-56.5	6.2	0.00e+00	0	53	104	17255366656	79	19311
2026-01-30 09:36:44.88	215.88	58.35	-54.4	-56.5	6.2	0.00e+00	0	52	104	17255366656	79	19343
2026-01-30 09:36:45.89	215.59	57.72	-54.4	-56.5	6.2	0.00e+00	0	53	104	17255366656	79	19320
2026-01-30 09:36:46.89	215.32	57.10	-54.3	-56.5	6.2	0.00e+00	0	53	104	17255366656	79	19315
2026-01-30 09:36:47.90	215.07	56.49	-54.3	-56.4	6.2	0.00e+00	0	52	104	17255366656	79	19217
2026-01-30 09:36:48.90	214.82	55.88	-54.3	-56.4	6.2	0.00e+00	0	52	104	17255366656	79	19244
2026-01-30 09:36:49.91	214.58	55.28	-54.3	-56.5	6.2	0.00e+00	0	53	104	17255366656	79	19296
2026-01-30 09:36:50.92	214.36	54.69	-54.3	-56.4	6.2	0.00e+00	0	52	104	17255366656	79	19229
2026-01-30 09:36:51.92	214.14	54.10	-54.3	-56.4	6.2	0.00e+00	0	52	104	17255366656	79	19182
2026-01-30 09:36:52.93	213.94	53.52	-54.3	-56.4	6.2	0.00e+00	0	52	104	17255366656	79	19171
2026-01-30 09:36:53.94	213.74	52.95	-54.3	-56.4	6.2	0.00e+00	0	53	104	17255366656	79	19151
2026-01-30 09:36:54.95	213.54	52.38	-54.3	-56.4	6.2	0.00e+00	0	52	104	17255366656	79	19091
2026-01-30 09:36:55.96	213.36	51.82	-54.2	-56.4	6.2	0.00e+00	0	53	104	17255366656	79	19052
2026-01-30 09:36:56.97	213.18	51.26	-54.2	-56.4	6.2	0.00e+00	0	52	104	17255366656	79	19097
2026-01-30 09:36:57.97	213.02	50.72	-54.2	-56.4	6.2	0.00e+00	0	52	104	17255366656	79	19096
2026-01-30 09:36:58.98	212.85	50.18	-54.2	-56.4	6.2	0.00e+00	0	52	104	17255366656	79	19084
2026-01-30 09:36:59.98	212.69	49.65	-54.2	-56.3	6.2	0.00e+00	0	53	104	17255366656	79	18954
2026-01-30 09:37:00.99	212.54	49.12	-54.2	-56.3	6.2	0.00e+00	0	52	104	17255366656	79	19003
2026-01-30 09:37:02.00	212.39	48.60	-54.2	-56.3	6.2	0.00e+00	0	52	104	17255366656	79	18974
2026-01-30 09:37:03.01	212.25	48.08	-54.2	-56.3	6.2	0.00e+00	0	53	104	17255366656	79	19011
2026-01-30 09:37:04.01	212.12	47.58	-54.2	-56.3	6.2	0.00e+00	0	53	104	17255366656	79	18923
2026-01-30 09:37:05.02	211.98	47.08	-54.2	-56.3	6.2	0.00e+00	0	52	104	17255366656	79	18935
2026-01-30 09:37:06.03	211.86	46.58	-54.2	-56.3	6.2	0.00e+00	0	52	104	17255366656	79	18888
2026-01-30 09:37:07.04	211.73	46.10	-54.2	-56.3	6.2	0.00e+00	0	52	104	17255366656	79	18911
2026-01-30 09:37:08.05	211.61	45.61	-54.1	-56.3	6.2	0.00e+00	0	52	104	17255366656	79	18852
2026-01-30 09:37:09.05	211.50	45.14	-54.1	-56.2	6.2	0.00e+00	0	52	104	17255366656	79	18746
2026-01-30 09:37:10.05	211.39	44.68	-54.1	-56.3	6.2	0.00e+00	0	53	104	17255366656	79	18831
2026-01-30 09:37:11.06	211.28	44.21	-54.1	-56.3	6.2	0.00e+00	0	53	104	17255366656	79	18826
2026-01-30 09:37:12.07	211.17	43.75	-54.1	-56.2	6.2	0.00e+00	0	53	104	17255366656	79	18746
2026-01-30 09:37:13.08	211.07	43.30	-54.1	-56.2	6.2	0.00e+00	0	53	104	17255366656	79	18773
2026-01-30 09:37:14.09	210.97	42.85	-54.1	-56.2	6.2	0.00e+00	0	52	104	17255366656	79	18785
2026-01-30 09:37:15.09	210.87	42.42	-54.1	-56.2	6.2	0.00e+00	0	52	104	17255366656	79	18706
2026-01-30 09:37:16.10	210.78	41.98	-54.0	-56.2	6.2	0.00e+00	0	52	104	17255366656	79	18628
2026-01-30 09:37:17.11	210.69	41.55	-54.0	-56.2	6.2	0.00e+00	0	53	104	17255366656	79	18624
2026-01-30 09:37:18.12	210.60	41.13	-54.1	-56.2	6.2	0.00e+00	0	52	104	17255366656	79	18693
2026-01-30 09:37:19.13	210.51	40.71	-54.0	-56.2	6.2	0.00e+00	0	53	104	17255366656	79	18648
2026-01-30 09:37:20.13	210.43	40.30	-54.0	-56.1	6.2	0.00e+00	0	52	104	17255366656	79	18566
2026-01-30 09:37:21.13	210.35	39.90	-54.0	-56.1	6.2	0.00e+00	0	52	104	17255366656	79	18546
2026-01-30 09:37:22.14	210.27	39.49	-54.0	-56.1	6.2	0.00e+00	0	52	104	17255366656	79	18546
2026-01-30 09:37:23.14	210.19	39.10	-54.0	-56.1	6.2	0.00e+00	0	53	104	17255366656	79	18583
2026-01-30 09:37:24.15	210.12	38.71	-54.0	-56.1	6.2	0.00e+00	0	53	104	17255366656	79	18562
2026-01-30 09:37:25.16	210.05	38.32	-54.0	-56.1	6.2	0.00e+00	0	52	104	17255366656	79	18490
2026-01-30 09:37:26.17	209.97	37.94	-54.0	-56.1	6.2	0.00e+00	0	53	104	17255366656	79	18484
2026-01-30 09:37:27.17	209.91	37.56	-54.0	-56.1	6.2	0.00e+00	0	52	104	17255366656	79	18523
2026-01-30 09:37:28.18	209.84	37.19	-53.9	-56.0	6.2	0.00e+00	0	52	104	17255366656	79	18366
2026-01-30 09:37:29.19	209.77	36.82	-53.9	-56.0	6.2	0.00e+00	0	52	104	17255366656	79	18356
2026-01-30 09:37:30.20	209.71	36.46	-53.9	-56.1	6.2	0.00e+00	0	53	104	17255366656	79	18494
2026-01-30 09:37:31.20	209.64	36.10	-53.9	-56.0	6.2	0.00e+00	0	52	104	17255366656	79	18370
2026-01-30 09:37:32.20	209.58	35.75	-53.9	-56.0	6.2	0.00e+00	0	53	104	17255366656	79	18293
2026-01-30 09:37:33.21	209.52	35.40	-53.9	-56.0	6.2	0.00e+00	0	52	104	17255366656	79	18387
2026-01-30 09:37:34.23	209.46	35.05	-53.9	-56.0	6.2	0.00e+00	0	53	104	17255366656	79	18385
2026-01-30 09:37:35.23	209.41	34.71	-53.9	-56.0	6.2	0.00e+00	0	53	104	17255366656	79	18325
2026-01-30 09:37:36.24	209.35	34.38	-53.9	-56.0	6.2	0.00e+00	0	52	104	17255366656	79	18267
2026-01-30 09:37:37.25	209.30	34.04	-53.9	-56.0	6.2	0.00e+00	0	53	104	17255366656	79	18222
2026-01-30 09:37:38.26	209.24	33.71	-53.9	-56.0	6.2	0.00e+00	0	52	104	17255366656	79	18276
2026-01-30 09:37:39.27	209.19	33.39	-53.9	-56.0	6.2	0.00e+00	0	52	104	17255366656	79	18253
2026-01-30 09:37:40.28	209.14	33.07	-53.8	-56.0	6.2	0.00e+00	0	53	104	17255366656	79	18194
2026-01-30 09:37:41.29	209.09	32.75	-53.8	-55.9	6.2	0.00e+00	0	53	104	17255366656	79	18172
2026-01-30 09:37:42.29	209.04	32.44	-53.8	-56.0	6.2	0.00e+00	0	52	104	17255366656	79	18221
2026-01-30 09:37:43.29	209.00	32.13	-53.8	-56.0	6.2	0.00e+00	0	53	104	17255366656	79	18219
2026-01-30 09:37:44.30	208.95	31.83	-53.8	-55.9	6.2	0.00e+00	0	52	104	17255366656	79	18092
2026-01-30 09:37:45.31	208.90	31.52	-53.8	-55.9	6.2	0.00e+00	0	52	104	17255366656	79	18050
2026-01-30 09:37:46.32	208.86	31.22	-53.8	-56.0	6.2	0.00e+00	0	52	104	17255366656	79	18183
2026-01-30 09:37:47.32	208.82	30.93	-53.8	-55.9	6.2	0.00e+00	0	52	104	17255366656	79	18151
2026-01-30 09:37:48.33	208.77	30.64	-53.8	-55.9	6.2	0.00e+00	0	52	104	17255366656	79	18018
2026-01-30 09:37:49.34	208.73	30.35	-53.7	-55.9	6.2	0.00e+00	0	52	104	17255366656	79	18070
2026-01-30 09:37:50.35	208.69	30.07	-53.8	-55.9	6.2	0.00e+00	0	52	104	17255366656	79	18065
2026-01-30 09:37:51.36	208.65	29.78	-53.8	-55.9	6.2	0.00e+00	0	52	104	17255366656	79	18003
2026-01-30 09:37:52.37	208.61	29.51	-53.7	-55.9	6.2	0.00e+00	0	52	104	17255366656	79	17999
2026-01-30 09:37:53.38	208.57	29.23	-53.7	-55.8	6.2	0.00e+00	0	52	104	17255366656	79	17962
2026-01-30 09:37:54.39	208.53	28.96	-53.7	-55.9	6.2	0.00e+00	0	52	104	17255366656	79	18065
2026-01-30 09:37:55.40	208.50	28.69	-53.7	-55.9	6.2	0.00e+00	0	52	104	17255366656	79	17981
2026-01-30 09:37:56.41	208.46	28.42	-53.7	-55.8	6.2	0.00e+00	0	52	104	17255366656	79	17885
2026-01-30 09:37:57.42	208.42	28.16	-53.7	-55.8	6.2	0.00e+00	0	52	104	17255366656	79	17919
2026-01-30 09:37:58.42	208.39	27.90	-53.7	-55.8	6.2	0.00e+00	0	52	104	17255366656	79	17916
2026-01-30 09:37:59.43	208.36	27.64	-53.7	-55.8	6.2	0.00e+00	0	52	104	17255366656	79	17933
2026-01-30 09:38:00.44	208.32	27.39	-53.7	-55.8	6.2	0.00e+00	0	52	104	17255366656	79	17871
2026-01-30 09:38:01.45	208.29	27.14	-53.7	-55.8	6.2	0.00e+00	0	53	104	17255366656	79	17857
2026-01-30 09:38:02.45	208.26	26.89	-53.7	-55.8	6.2	0.00e+00	0	52	104	17255366656	79	17823
2026-01-30 09:38:03.46	208.23	26.64	-53.6	-55.8	6.2	0.00e+00	0	52	104	17255366656	79	17787
2026-01-30 09:38:04.47	208.19	26.40	-53.6	-55.8	6.2	0.00e+00	0	52	104	17255366656	79	17819
2026-01-30 09:38:05.48	208.16	26.16	-53.6	-55.8	6.2	0.00e+00	0	52	104	17255366656	79	17767
2026-01-30 09:38:06.49	208.13	25.92	-53.6	-55.8	6.2	0.00e+00	0	52	104	17255366656	79	17809
2026-01-30 09:38:07.50	208.10	25.68	-53.6	-55.7	6.2	0.00e+00	0	53	104	17255366656	79	17745
2026-01-30 09:38:08.51	208.08	25.45	-53.6	-55.7	6.2	0.00e+00	0	52	104	17255366656	79	17672
2026-01-30 09:38:09.52	208.05	25.22	-53.6	-55.7	6.2	0.00e+00	0	52	104	17255366656	79	17653
2026-01-30 09:38:10.53	208.02	24.99	-53.6	-55.7	6.2	0.00e+00	0	52	104	17255366656	79	17719
2026-01-30 09:38:11.53	207.99	24.77	-53.6	-55.7	6.2	0.00e+00	0	52	104	17255366656	79	17736
2026-01-30 09:38:12.54	207.96	24.54	-53.6	-55.7	6.2	0.00e+00	0	52	104	17255366656	79	17610
2026-01-30 09:38:13.54	207.94	24.32	-53.6	-55.7	6.2	0.00e+00	0	53	104	17255366656	79	17627
2026-01-30 09:38:14.55	207.91	24.10	-53.6	-55.7	6.2	0.00e+00	0	52	104	17255366656	79	17632
2026-01-30 09:38:15.56	207.89	23.89	-53.6	-55.7	6.2	0.00e+00	0	52	104	17255366656	79	17630
2026-01-30 09:38:16.57	207.86	23.67	-53.5	-55.7	6.2	0.00e+00	0	53	104	17255366656	79	17602
2026-01-30 09:38:17.57	207.84	23.46	-53.5	-55.7	6.2	0.00e+00	0	52	104	17255366656	79	17566
2026-01-30 09:38:18.59	207.81	23.25	-53.5	-55.7	6.2	0.00e+00	0	53	104	17255366656	79	17600
2026-01-30 09:38:19.60	207.79	23.04	-53.5	-55.7	6.2	0.00e+00	0	52	104	17255366656	79	17585
2026-01-30 09:38:20.60	207.77	22.83	-53.5	-55.6	6.2	0.00e+00	0	52	104	17255366656	79	17549
2026-01-30 09:38:21.60	207.74	22.63	-53.5	-55.6	6.2	0.00e+00	0	52	104	17255366656	79	17495
2026-01-30 09:38:22.61	207.72	22.43	-53.5	-55.6	6.2	0.00e+00	0	52	104	17255366656	79	17462
2026-01-30 09:38:23.62	207.70	22.23	-53.5	-55.6	6.2	0.00e+00	0	52	104	17255366656	79	17480
2026-01-30 09:38:24.63	207.68	22.03	-53.4	-55.6	6.2	0.00e+00	0	52	104	17255366656	78	18459
2026-01-30 09:38:25.64	207.65	21.83	-53.5	-55.6	6.2	0.00e+00	0	52	104	17255366656	78	18470
2026-01-30 09:38:26.65	207.63	21.64	-53.5	-55.6	6.2	0.00e+00	0	52	104	17255366656	78	18502
2026-01-30 09:38:27.66	207.61	21.44	-53.4	-55.6	6.2	0.00e+00	0	52	104	17255366656	78	18432
2026-01-30 09:38:28.67	207.59	21.25	-53.4	-55.6	6.2	0.00e+00	0	52	104	17255366656	78	18471
2026-01-30 09:38:29.67	207.57	21.07	-53.4	-55.5	6.2	0.00e+00	0	52	104	17255366656	78	18386
2026-01-30 09:38:30.67	207.55	20.88	-53.4	-55.6	6.2	0.00e+00	0	52	104	17255366656	78	18394
2026-01-30 09:38:31.68	207.53	20.69	-53.4	-55.6	6.2	0.00e+00	0	52	104	17255366656	78	18419
2026-01-30 09:38:32.69	207.51	20.51	-53.4	-55.5	6.2	0.00e+00	0	52	104	17255366656	78	18330
2026-01-30 09:38:33.70	207.49	20.33	-53.4	-55.5	6.2	0.00e+00	0	53	104	17255366656	78	18318
2026-01-30 09:38:34.70	207.48	20.15	-53.4	-55.5	6.2	0.00e+00	0	52	104	17255366656	78	18321
2026-01-30 09:38:35.71	207.46	19.97	-53.4	-55.5	6.2	0.00e+00	0	53	104	17255366656	78	18297
2026-01-30 09:38:36.72	207.44	19.79	-53.4	-55.5	6.2	0.00e+00	0	52	104	17255366656	78	18243
2026-01-30 09:38:37.73	207.42	19.61	-53.3	-55.5	6.2	0.00e+00	0	53	104	17255366656	78	18253
2026-01-30 09:38:38.73	207.41	19.44	-53.4	-55.5	6.2	0.00e+00	0	52	104	17255366656	78	18301
2026-01-30 09:38:39.74	207.39	19.27	-53.4	-55.5	6.2	0.00e+00	0	53	104	17255366656	78	18240
2026-01-30 09:38:40.75	207.37	19.09	-53.3	-55.5	6.2	0.00e+00	0	53	104	17255366656	78	18202
2026-01-30 09:38:41.75	207.35	18.93	-53.3	-55.4	6.2	0.00e+00	0	52	104	17255366656	78	18166
2026-01-30 09:38:42.77	207.34	18.76	-53.3	-55.4	6.2	0.00e+00	0	53	104	17255366656	78	18178
2026-01-30 09:38:43.78	207.32	18.59	-53.3	-55.5	6.2	0.00e+00	0	53	104	17255366656	78	18187
2026-01-30 09:38:44.79	207.31	18.42	-53.3	-55.4	6.2	0.00e+00	0	52	104	17255366656	78	18117
2026-01-30 09:38:45.79	207.29	18.26	-53.3	-55.4	6.2	0.00e+00	0	53	104	17255366656	78	18120
2026-01-30 09:38:46.80	207.28	18.10	-53.3	-55.4	6.2	0.00e+00	0	52	104	17255366656	78	18100
2026-01-30 09:38:47.81	207.26	17.93	-53.3	-55.4	6.2	0.00e+00	0	53	104	17255366656	78	18094
2026-01-30 09:38:48.81	207.25	17.77	-53.3	-55.4	6.2	0.00e+00	0	52	104	17255366656	78	18068
2026-01-30 09:38:49.82	207.23	17.62	-53.3	-55.4	6.2	0.00e+00	0	52	104	17255366656	78	18033
2026-01-30 09:38:50.83	207.22	17.46	-53.2	-55.4	6.2	0.00e+00	0	52	104	17255366656	78	18057
2026-01-30 09:38:51.83	207.20	17.30	-53.2	-55.4	6.2	0.00e+00	0	52	104	17255366656	78	18029
2026-01-30 09:38:52.84	207.19	17.15	-53.2	-55.3	6.2	0.00e+00	0	53	104	17255366656	78	17964
2026-01-30 09:38:53.85	207.17	16.99	-53.2	-55.3	6.2	0.00e+00	0	53	104	17255366656	78	17958
2026-01-30 09:38:54.86	207.16	16.84	-53.2	-55.4	6.2	0.00e+00	0	53	104	17255366656	78	17993
2026-01-30 09:38:55.86	207.15	16.69	-53.2	-55.3	6.2	0.00e+00	0	52	104	17255366656	78	17946
2026-01-30 09:38:56.87	207.13	16.54	-53.2	-55.3	6.2	0.00e+00	0	52	104	17255366656	78	17834
2026-01-30 09:38:57.88	207.12	16.39	-53.2	-55.3	6.2	0.00e+00	0	53	104	17255366656	78	17905
2026-01-30 09:38:58.88	207.11	16.24	-53.2	-55.3	6.2	0.00e+00	0	52	104	17255366656	78	17903
2026-01-30 09:38:59.89	207.09	16.10	-53.2	-55.3	6.2	0.00e+00	0	53	104	17255366656	78	17918
2026-01-30 09:39:00.90	207.08	15.95	-53.1	-55.3	6.2	0.00e+00	0	52	104	17255366656	78	17790
2026-01-30 09:39:01.90	207.07	15.81	-53.2	-55.3	6.2	0.00e+00	0	53	104	17255366656	78	17842
2026-01-30 09:39:02.90	207.06	15.66	-53.1	-55.3	6.2	0.00e+00	0	52	104	17255366656	78	17776
2026-01-30 09:39:03.91	207.05	15.52	-53.1	-55.3	6.2	0.00e+00	0	52	104	17255366656	78	17844
2026-01-30 09:39:04.92	207.03	15.38	-53.1	-55.2	6.2	0.00e+00	0	52	104	17255366656	78	17763
2026-01-30 09:39:05.93	207.02	15.24	-53.1	-55.3	6.2	0.00e+00	0	53	104	17255366656	78	17804
2026-01-30 09:39:06.94	207.01	15.10	-53.1	-55.3	6.2	0.00e+00	0	52	104	17255366656	78	17816
2026-01-30 09:39:07.94	207.00	14.96	-53.1	-55.2	6.2	0.00e+00	0	52	104	17255366656	78	17725
2026-01-30 09:39:08.95	206.99	14.82	-53.1	-55.2	6.2	0.00e+00	0	52	104	17255366656	78	17704
2026-01-30 09:39:09.95	206.98	14.69	-53.1	-55.2	6.2	0.00e+00	0	53	104	17255366656	78	17707
2026-01-30 09:39:10.96	206.97	14.55	-53.1	-55.2	6.2	0.00e+00	0	52	104	17255366656	78	17697
2026-01-30 09:39:11.97	206.96	14.42	-53.1	-55.2	6.2	0.00e+00	0	52	104	17255366656	78	17676
2026-01-30 09:39:12.97	206.95	14.29	-53.1	-55.2	6.2	0.00e+00	0	52	104	17255366656	78	17606
2026-01-30 09:39:13.98	206.94	14.15	-53.1	-55.2	6.2	0.00e+00	0	52	104	17255366656	78	17625
2026-01-30 09:39:14.99	206.93	14.02	-53.1	-55.2	6.2	0.00e+00	0	53	104	17255366656	78	17676
2026-01-30 09:39:15.99	206.92	13.89	-53.1	-55.2	6.2	0.00e+00	0	53	104	17255366656	78	17690
2026-01-30 09:39:17.00	206.91	13.76	-53.0	-55.2	6.2	0.00e+00	0	53	104	17255366656	78	17595
2026-01-30 09:39:18.01	206.90	13.63	-53.0	-55.2	6.2	0.00e+00	0	52	104	17255366656	78	17582
2026-01-30 09:39:19.02	206.89	13.51	-53.0	-55.2	6.2	0.00e+00	0	53	104	17255366656	78	17623
2026-01-30 09:39:20.03	206.88	13.38	-53.0	-55.2	6.2	0.00e+00	0	53	104	17255366656	78	17635
2026-01-30 09:39:21.03	206.87	13.25	-53.0	-55.2	6.2	0.00e+00	0	52	104	17255366656	78	17578
2026-01-30 09:39:22.04	206.86	13.13	-53.0	-55.1	6.2	0.00e+00	0	52	104	17255366656	78	17501
2026-01-30 09:39:23.05	206.85	13.00	-53.0	-55.1	6.2	0.00e+00	0	53	104	17255366656	78	17501
2026-01-30 09:39:24.05	206.84	12.88	-53.0	-55.2	6.2	0.00e+00	0	52	104	17255366656	78	17576
2026-01-30 09:39:25.06	206.83	12.76	-53.0	-55.1	6.2	0.00e+00	0	53	104	17255366656	78	17458
2026-01-30 09:39:26.07	206.82	12.63	-53.0	-55.1	6.2	0.00e+00	0	52	104	17255366656	77	18447
2026-01-30 09:39:27.07	206.81	12.51	-53.0	-55.1	6.2	0.00e+00	0	52	104	17255366656	77	18480
2026-01-30 09:39:28.08	206.80	12.39	-53.0	-55.1	6.2	0.00e+00	0	52	104	17255366656	77	18522
2026-01-30 09:39:29.09	206.80	12.27	-52.9	-55.1	6.2	0.00e+00	0	52	104	17255366656	77	18417
2026-01-30 09:39:30.10	206.79	12.15	-52.9	-55.1	6.2	0.00e+00	0	53	104	17255366656	77	18443
2026-01-30 09:39:31.11	206.78	12.04	-52.9	-55.1	6.2	0.00e+00	0	52	104	17255366656	77	18460
2026-01-30 09:39:32.12	206.77	11.92	-52.9	-55.1	6.2	0.00e+00	0	53	104	17255366656	77	18421
2026-01-30 09:39:33.13	206.76	11.80	-52.9	-55.0	6.2	0.00e+00	0	53	104	17255366656	77	18279
2026-01-30 09:39:34.14	206.76	11.69	-52.9	-55.0	6.2	0.00e+00	0	52	104	17255366656	77	18300
2026-01-30 09:39:35.15	206.75	11.57	-52.9	-55.0	6.2	0.00e+00	0	53	104	17255366656	77	18305
2026-01-30 09:39:36.15	206.74	11.46	-52.9	-55.0	6.2	0.00e+00	0	52	104	17255366656	77	18380
2026-01-30 09:39:37.16	206.73	11.34	-52.8	-55.0	6.2	0.00e+00	0	53	104	17255366656	77	18233
2026-01-30 09:39:38.17	206.73	11.23	-52.9	-55.0	6.2	0.00e+00	0	53	104	17255366656	77	18219
2026-01-30 09:39:39.17	206.72	11.12	-52.9	-55.0	6.2	0.00e+00	0	53	104	17255366656	77	18195
2026-01-30 09:39:40.18	206.71	11.00	-52.9	-55.0	6.2	0.00e+00	0	52	104	17255366656	77	18296
2026-01-30 09:39:41.19	206.70	10.89	-52.8	-54.9	6.2	0.00e+00	0	52	104	17255366656	77	18165
2026-01-30 09:39:42.20	206.70	10.78	-52.8	-55.0	6.2	0.00e+00	0	52	104	17255366656	77	18187
2026-01-30 09:39:43.21	206.69	10.67	-52.8	-54.9	6.2	0.00e+00	0	52	104	17255366656	77	18088
2026-01-30 09:39:44.21	206.68	10.56	-52.8	-54.9	6.2	0.00e+00	0	52	104	17255366656	77	18166
2026-01-30 09:39:45.22	206.68	10.46	-52.8	-54.9	6.2	0.00e+00	0	52	104	17255366656	77	18093
2026-01-30 09:39:46.22	206.67	10.35	-52.8	-54.9	6.2	0.00e+00	0	52	104	17255366656	77	18108
2026-01-30 09:39:47.23	206.66	10.24	-52.8	-54.9	6.2	0.00e+00	0	53	104	17255366656	77	18108
2026-01-30 09:39:48.24	206.66	10.13	-52.8	-54.9	6.2	0.00e+00	0	52	104	17255366656	77	18163
2026-01-30 09:39:49.25	206.65	10.03	-52.7	-54.9	6.2	0.00e+00	0	52	104	17255366656	77	18045
2026-01-30 09:39:50.26	206.64	9.92	-52.7	-54.9	6.2	0.00e+00	0	52	104	17255366656	77	18066
2026-01-30 09:39:51.27	206.64	9.82	-52.8	-54.9	6.2	0.00e+00	0	52	104	17255366656	77	18052
2026-01-30 09:39:52.28	206.63	9.71	-52.8	-54.9	6.2	0.00e+00	0	52	104	17255366656	77	18103
2026-01-30 09:39:53.29	206.63	9.61	-52.7	-54.9	6.2	0.00e+00	0	52	104	17255366656	77	17976
2026-01-30 09:39:54.29	206.62	9.51	-52.7	-54.9	6.2	0.00e+00	0	52	104	17255366656	77	17977
2026-01-30 09:39:55.30	206.61	9.40	-52.7	-54.9	6.2	0.00e+00	0	52	104	17255366656	77	18066
2026-01-30 09:39:56.30	206.61	9.30	-52.7	-54.9	6.2	0.00e+00	0	52	104	17255366656	77	17977
2026-01-30 09:39:57.31	206.60	9.20	-52.7	-54.8	6.2	0.00e+00	0	53	104	17255366656	77	17837
2026-01-30 09:39:58.32	206.60	9.10	-52.7	-54.8	6.2	0.00e+00	0	52	104	17255366656	77	17924
2026-01-30 09:39:59.33	206.59	9.00	-52.7	-54.8	6.2	0.00e+00	0	53	104	17255366656	77	17911
2026-01-30 09:40:00.33	206.59	8.90	-52.7	-54.8	6.2	0.00e+00	0	53	104	17255366656	77	17918
2026-01-30 09:40:01.34	206.58	8.80	-52.7	-54.8	6.2	0.00e+00	0	53	104	17255366656	77	17839
2026-01-30 09:40:02.35	206.58	8.70	-52.6	-54.8	6.2	0.00e+00	0	52	104	17255366656	77	17786
2026-01-30 09:40:03.36	206.57	8.60	-52.6	-54.8	6.2	0.00e+00	0	52	104	17255366656	77	17787
2026-01-30 09:40:04.36	206.56	8.50	-52.7	-54.8	6.2	0.00e+00	0	52	104	17255366656	77	17787
2026-01-30 09:40:05.37	206.56	8.41	-52.6	-54.7	6.2	0.00e+00	0	52	104	17255366656	77	17734
2026-01-30 09:40:06.37	206.55	8.31	-52.6	-54.7	6.2	0.00e+00	0	52	104	17255366656	77	17652
2026-01-30 09:40:07.38	206.55	8.21	-52.6	-54.7	6.2	0.00e+00	0	52	104	17255366656	77	17714
2026-01-30 09:40:08.40	206.54	8.12	-52.6	-54.7	6.2	0.00e+00	0	52	104	17255366656	77	17749
2026-01-30 09:40:09.40	206.54	8.02	-52.6	-54.7	6.2	0.00e+00	0	52	104	17255366656	77	17731
2026-01-30 09:40:10.41	206.54	7.93	-52.5	-54.7	6.2	0.00e+00	0	53	104	17255366656	77	17615
2026-01-30 09:40:11.42	206.53	7.83	-52.6	-54.7	6.2	0.00e+00	0	52	104	17255366656	77	17667
2026-01-30 09:40:12.43	206.53	7.74	-52.6	-54.7	6.2	0.00e+00	0	52	104	17255366656	77	17704
2026-01-30 09:40:13.43	206.52	7.65	-52.5	-54.6	6.2	0.00e+00	0	52	104	17255366656	77	17561
2026-01-30 09:40:14.44	206.52	7.55	-52.5	-54.6	6.2	0.00e+00	0	53	104	17255366656	77	17502
2026-01-30 09:40:15.45	206.51	7.46	-52.5	-54.7	6.2	0.00e+00	0	52	104	17255366656	77	17599
2026-01-30 09:40:16.45	206.51	7.37	-52.5	-54.6	6.2	0.00e+00	0	52	104	17255366656	77	17558
2026-01-30 09:40:17.46	206.50	7.28	-52.5	-54.6	6.2	0.00e+00	0	52	104	17255366656	77	17494
2026-01-30 09:40:18.46	206.50	7.19	-52.5	-54.6	6.2	0.00e+00	0	52	104	17255366656	76	18447
2026-01-30 09:40:19.48	206.49	7.09	-52.5	-54.6	6.2	0.00e+00	0	52	104	17255366656	76	18534
2026-01-30 09:40:20.48	206.49	7.00	-52.5	-54.6	6.2	0.00e+00	0	52	104	17255366656	76	18573
2026-01-30 09:40:21.49	206.49	6.91	-52.4	-54.6	6.2	0.00e+00	0	53	104	17255366656	76	18451
2026-01-30 09:40:22.49	206.48	6.83	-52.4	-54.6	6.2	0.00e+00	0	52	104	17255366656	76	18426
2026-01-30 09:40:23.50	206.48	6.74	-52.5	-54.6	6.2	0.00e+00	0	52	104	17255366656	76	18475
2026-01-30 09:40:24.51	206.47	6.65	-52.4	-54.6	6.2	0.00e+00	0	53	104	17255366656	76	18409
2026-01-30 09:40:25.52	206.47	6.56	-52.4	-54.5	6.2	0.00e+00	0	52	104	17255366656	76	18318
2026-01-30 09:40:26.53	206.47	6.47	-52.4	-54.4	6.2	0.00e+00	0	53	104	17255366656	76	18168
2026-01-30 09:40:27.53	206.46	6.38	-52.4	-54.5	6.2	0.00e+00	0	53	104	17255366656	76	18354
2026-01-30 09:40:28.54	206.46	6.30	-52.4	-54.5	6.2	0.00e+00	0	52	104	17255366656	76	18298
2026-01-30 09:40:29.55	206.46	6.21	-52.3	-54.5	6.2	0.00e+00	0	53	104	17255366656	76	18198
2026-01-30 09:40:30.56	206.45	6.12	-52.3	-54.4	6.2	0.00e+00	0	53	104	17255366656	76	18152
2026-01-30 09:40:31.56	206.45	6.04	-52.4	-54.5	6.2	0.00e+00	0	53	104	17255366656	76	18283
2026-01-30 09:40:32.57	206.45	5.95	-52.3	-54.5	6.2	0.00e+00	0	53	104	17255366656	76	18244
2026-01-30 09:40:33.57	206.44	5.87	-52.3	-54.4	6.2	0.00e+00	0	53	104	17255366656	76	18164
2026-01-30 09:40:34.58	206.44	5.78	-52.2	-54.4	6.2	0.00e+00	0	52	104	17255366656	76	17989
2026-01-30 09:40:35.59	206.44	5.70	-52.3	-54.4	6.2	0.00e+00	0	53	104	17255366656	76	18175
2026-01-30 09:40:36.60	206.43	5.61	-52.3	-54.4	6.2	0.00e+00	0	52	104	17255366656	76	18153
2026-01-30 09:40:37.60	206.43	5.53	-52.2	-54.4	6.2	0.00e+00	0	53	104	17255366656	76	18064
2026-01-30 09:40:38.61	206.43	5.45	-52.2	-54.3	6.2	0.00e+00	0	52	104	17255366656	76	17842
2026-01-30 09:40:39.62	206.42	5.36	-52.3	-54.5	6.2	0.00e+00	0	53	104	17255366656	76	18188
2026-01-30 09:40:40.63	206.42	5.28	-52.2	-54.4	6.2	0.00e+00	0	52	104	17255366656	76	18012
2026-01-30 09:40:41.63	206.42	5.20	-52.2	-54.3	6.2	0.00e+00	0	52	104	17255366656	76	17912
2026-01-30 09:40:42.64	206.41	5.12	-52.1	-54.3	6.2	0.00e+00	0	52	104	17255366656	76	17812
2026-01-30 09:40:43.65	206.41	5.03	-52.2	-54.4	6.2	0.00e+00	0	52	104	17255366656	76	18034
2026-01-30 09:40:44.65	206.41	4.95	-52.4	-54.5	6.2	0.00e+00	0	52	104	17255366656	76	18345
2026-01-30 09:40:45.66	206.40	4.87	-52.9	-55.0	6.2	0.00e+00	0	53	104	17255366656	76	19397
2026-01-30 09:40:46.67	206.40	4.79	-53.2	-55.4	6.2	0.00e+00	0	52	104	17255366656	76	20165
2026-01-30 09:40:47.68	206.40	4.71	-53.5	-55.6	6.2	0.00e+00	0	53	104	17255366656	77	19594
2026-01-30 09:40:48.69	206.40	4.63	-53.7	-55.8	6.2	0.00e+00	0	53	104	17255366656	77	20059
2026-01-30 09:40:49.69	206.39	4.55	-53.8	-56.0	6.2	0.00e+00	0	52	104	17255366656	78	19347
2026-01-30 09:40:50.69	206.39	4.47	-54.0	-56.1	6.2	0.00e+00	0	52	104	17255366656	78	19577
2026-01-30 09:40:51.70	206.39	4.39	-54.1	-56.2	6.2	0.00e+00	0	53	104	17255366656	78	19745
2026-01-30 09:40:52.71	206.39	4.31	-54.1	-56.3	6.2	0.00e+00	0	52	104	17255366656	78	20007
2026-01-30 09:40:53.72	206.38	4.23	-54.2	-56.3	6.2	0.00e+00	0	52	104	17255366656	78	20137
2026-01-30 09:40:54.73	206.38	4.16	-54.3	-56.4	6.2	0.00e+00	0	52	104	17255366656	79	19124
2026-01-30 09:40:55.74	206.38	4.08	-54.3	-56.4	6.2	0.00e+00	0	52	104	17255366656	79	19204
2026-01-30 09:40:56.74	206.38	4.00	-54.3	-56.5	6.2	0.00e+00	0	52	104	17255366656	79	19301
2026-01-30 09:40:57.75	206.37	3.92	-54.4	-56.5	6.2	0.00e+00	0	53	104	17255366656	79	19350
2026-01-30 09:40:58.76	206.37	3.85	-54.4	-56.5	6.2	0.00e+00	0	52	104	17255366656	79	19393
2026-01-30 09:40:59.77	206.37	3.77	-54.4	-56.5	6.2	0.00e+00	0	53	104	17255366656	79	19393
2026-01-30 09:41:00.78	206.37	3.69	-54.4	-56.6	6.2	0.00e+00	0	52	104	17255366656	79	19554
2026-01-30 09:41:01.78	206.36	3.62	-54.4	-56.6	6.2	0.00e+00	0	52	104	17255366656	79	19498
2026-01-30 09:41:02.79	206.36	3.54	-54.4	-56.6	6.2	0.00e+00	0	53	104	17255366656	79	19558
2026-01-30 09:41:03.80	206.36	3.46	-54.4	-56.5	6.2	0.00e+00	0	52	104	17255366656	79	19443
2026-01-30 09:41:04.81	206.36	3.39	-54.4	-56.5	6.2	0.00e+00	0	53	104	17255366656	79	19465
2026-01-30 09:41:05.81	206.36	3.31	-54.4	-56.5	6.2	0.00e+00	0	52	104	17255366656	79	19323
2026-01-30 09:41:06.82	206.35	3.24	-54.3	-56.5	6.2	0.00e+00	0	53	104	17255366656	79	19281
2026-01-30 09:41:07.83	206.35	3.16	-54.2	-56.4	6.2	0.00e+00	0	53	104	17255366656	79	19058
2026-01-30 09:41:08.84	206.35	3.09	-54.1	-56.2	6.2	0.00e+00	0	53	104	17255366656	79	18794
2026-01-30 09:41:09.84	206.35	3.02	-53.9	-56.0	6.2	0.00e+00	0	52	104	17255366656	79	18372
2026-01-30 09:41:10.85	206.35	2.94	-53.8	-55.9	6.2	0.00e+00	0	53	104	17255366656	79	18064
2026-01-30 09:41:11.86	206.34	2.87	-53.7	-55.8	6.2	0.00e+00	0	53	104	17255366656	79	17898
2026-01-30 09:41:12.86	206.34	2.80	-53.6	-55.8	6.2	0.00e+00	0	52	104	17255366656	79	17852
2026-01-30 09:41:13.86	206.34	2.72	-53.6	-55.8	6.2	0.00e+00	0	53	104	17255366656	79	17870
2026-01-30 09:41:14.87	206.34	2.65	-53.6	-55.7	6.2	0.00e+00	0	52	104	17255366656	79	17732
2026-01-30 09:41:15.88	206.34	2.58	-53.6	-55.7	6.2	0.00e+00	0	52	104	17255366656	79	17711
2026-01-30 09:41:16.88	206.34	2.51	-53.6	-55.7	6.2	0.00e+00	0	52	104	17255366656	79	17731
2026-01-30 09:41:17.89	206.33	2.43	-53.6	-55.7	6.2	0.00e+00	0	52	104	17255366656	79	17696
2026-01-30 09:41:18.90	206.33	2.36	-53.6	-55.7	6.2	0.00e+00	0	52	104	17255366656	79	17696
2026-01-30 09:41:19.91	206.33	2.29	-53.6	-55.7	6.2	0.00e+00	0	52	104	17255366656	79	17669
2026-01-30 09:41:20.91	206.33	2.22	-53.6	-55.7	6.2	0.00e+00	0	52	104	17255366656	79	17656
2026-01-30 09:41:21.92	206.33	2.15	-53.6	-55.7	6.2	0.00e+00	0	53	104	17255366656	79	17721
2026-01-30 09:41:22.93	206.33	2.08	-53.6	-55.7	6.2	0.00e+00	0	52	104	17255366656	79	17631
2026-01-30 09:41:23.94	206.32	2.00	-53.6	-55.7	6.2	0.00e+00	0	52	104	17255366656	79	17637

#Closed at: 2026-01-30 09:41:24
#Recorded file [17255 MB]: D:/lorett/data/31041_260130_123043.dat