passes_logs/2026/01/30/R3.2S_Murmansk/R3.2S_Murmansk__20260130_004629_FENGYUN_3D_rec.log

#Pass ID: 20260130_004629_FENGYUN 3D
#Satellite: FENGYUN 3D
#Configuration: FENGYUN 3D
#almurnet v.1.7.20251203
#Start time: 2026-01-30 00:46:31

#Version: 2.2.20231116
#Station: R3.2S_Murmansk
#Location: 33.079688 lon 68.888172 lat
#TLE: 1 43010U 17072A   26029.52179110  .00000394  00000+0  20818-3 0  9997
#TLE: 2 43010  98.9957   1.5649 0002507  83.7772 276.3689 14.19703315425310

#Time	Az	El	Level	Level2	SNR	BER	BlckErr	Temp	State	Recorded	gain1	gain2
2026-01-30 00:46:31.91	20.00	2.11	-53.8	-65.8	3.8	8.47e-01	0	40	0	0	79	14071
2026-01-30 00:46:32.91	20.06	2.17	-53.8	-65.8	3.8	8.47e-01	0	40	104	0	78	14904
2026-01-30 00:46:33.91	20.12	2.23	-54.0	-66.0	3.8	8.46e-01	0	40	104	0	78	15341
2026-01-30 00:46:34.92	20.19	2.29	-54.1	-66.1	3.8	8.46e-01	0	40	104	0	78	15498
2026-01-30 00:46:35.93	20.25	2.34	-54.2	-66.2	3.8	8.46e-01	0	40	104	0	78	15586
2026-01-30 00:46:36.93	20.31	2.40	-54.2	-66.2	3.8	8.46e-01	0	40	104	0	79	14772
2026-01-30 00:46:37.94	20.38	2.46	-54.2	-66.2	3.8	8.47e-01	0	40	104	0	79	14823
2026-01-30 00:46:38.96	20.44	2.52	-54.2	-66.2	3.8	8.46e-01	0	40	104	0	79	14760
2026-01-30 00:46:39.96	20.50	2.58	-54.2	-66.2	3.8	8.47e-01	0	40	104	0	79	14770
2026-01-30 00:46:40.97	20.57	2.64	-54.2	-66.2	3.8	8.46e-01	0	40	104	0	79	14730
2026-01-30 00:46:41.98	20.63	2.69	-54.2	-66.1	3.8	8.46e-01	0	40	104	0	79	14662
2026-01-30 00:46:42.99	20.70	2.75	-54.1	-66.1	3.8	8.46e-01	0	40	104	0	79	14582
2026-01-30 00:46:43.99	20.76	2.81	-54.1	-66.1	3.8	8.45e-01	0	40	104	0	79	14632
2026-01-30 00:46:45.00	20.83	2.87	-54.1	-66.1	3.8	8.45e-01	0	40	104	0	79	14589
2026-01-30 00:46:46.01	20.89	2.93	-54.1	-66.1	3.8	8.45e-01	0	40	104	0	79	14638
2026-01-30 00:46:47.01	20.96	2.99	-54.1	-66.0	3.8	8.46e-01	0	40	104	0	79	14513
2026-01-30 00:46:48.02	21.02	3.05	-54.0	-65.9	3.8	8.47e-01	0	40	104	0	79	14331
2026-01-30 00:46:49.03	21.09	3.11	-53.9	-65.9	3.8	8.45e-01	0	40	104	0	79	14219
2026-01-30 00:46:50.04	21.16	3.17	-53.8	-65.7	3.8	8.45e-01	0	40	104	0	79	13976
2026-01-30 00:46:51.05	21.22	3.23	-53.7	-65.6	3.8	8.46e-01	0	40	104	0	79	13803
2026-01-30 00:46:52.06	21.29	3.29	-53.5	-65.5	3.8	8.47e-01	0	40	104	0	79	13596
2026-01-30 00:46:53.06	21.36	3.34	-53.3	-65.3	3.8	8.46e-01	0	40	104	0	78	14054
2026-01-30 00:46:54.07	21.42	3.40	-53.1	-65.0	3.8	8.45e-01	0	40	104	0	78	13699
2026-01-30 00:46:55.08	21.49	3.46	-52.8	-64.7	3.8	8.47e-01	0	40	104	0	77	13975
2026-01-30 00:46:56.09	21.56	3.52	-52.3	-64.2	3.8	8.47e-01	0	40	104	0	76	13991
2026-01-30 00:46:57.09	21.63	3.58	-52.1	-63.9	3.8	8.47e-01	0	40	104	0	76	13419
2026-01-30 00:46:58.10	21.70	3.64	-52.1	-63.9	3.8	8.46e-01	0	40	104	0	76	13500
2026-01-30 00:46:59.11	21.76	3.70	-52.1	-63.9	3.8	8.46e-01	0	41	104	0	76	13553
2026-01-30 00:47:00.12	21.83	3.77	-52.1	-64.0	3.8	8.46e-01	0	41	104	0	76	13583
2026-01-30 00:47:01.13	21.90	3.83	-52.0	-63.8	3.8	8.44e-01	0	40	104	0	76	13340
2026-01-30 00:47:02.14	21.97	3.89	-52.0	-63.4	3.8	8.46e-01	0	40	104	0	76	12775
2026-01-30 00:47:03.15	22.04	3.95	-52.0	-63.1	3.8	8.46e-01	0	41	104	0	75	12963
2026-01-30 00:47:04.15	22.11	4.01	-51.9	-62.8	3.8	8.47e-01	0	40	104	0	75	12597
2026-01-30 00:47:05.16	22.18	4.07	-51.9	-63.0	3.8	8.45e-01	0	41	104	0	75	12921
2026-01-30 00:47:06.17	22.25	4.13	-51.9	-63.0	3.8	8.46e-01	0	40	104	0	75	12887
2026-01-30 00:47:07.17	22.32	4.19	-51.9	-62.4	3.8	8.45e-01	0	41	104	0	75	12083
2026-01-30 00:47:08.18	22.39	4.25	-51.6	-60.2	4.2	8.40e-01	0	41	0	0	75	9345
2026-01-30 00:47:09.19	22.47	4.31	-50.9	-56.8	6.0	7.06e-01	0	41	0	0	73	7087
2026-01-30 00:47:10.20	22.54	4.37	-49.8	-53.8	8.8	1.00e-01	0	41	0	6291456	71	5648
2026-01-30 00:47:11.20	22.61	4.43	-48.7	-51.5	11.2	6.07e-03	0	41	0	11534336	69	4870
2026-01-30 00:47:12.21	22.68	4.50	-47.1	-49.2	13.6	8.35e-05	0	41	0	17825792	66	4410
2026-01-30 00:47:13.22	22.75	4.56	-46.0	-47.7	15.1	0.00e+00	0	41	0	23068672	64	4168
2026-01-30 00:47:14.23	22.83	4.62	-44.9	-46.3	16.7	0.00e+00	0	41	0	29360128	61	4201
2026-01-30 00:47:15.23	22.90	4.68	-44.1	-45.4	17.6	0.00e+00	0	41	0	34603008	60	4011
2026-01-30 00:47:16.24	22.97	4.74	-43.9	-45.1	18.2	0.00e+00	0	41	0	40894464	59	4142
2026-01-30 00:47:17.25	23.05	4.81	-43.5	-44.7	18.6	0.00e+00	0	41	0	46137344	58	4166
2026-01-30 00:47:18.26	23.12	4.87	-43.5	-44.6	18.7	0.00e+00	0	41	0	51380224	58	4133
2026-01-30 00:47:19.27	23.19	4.93	-43.3	-44.4	18.9	0.00e+00	0	41	0	57671680	58	4025
2026-01-30 00:47:20.27	23.27	4.99	-44.0	-45.2	18.1	0.00e+00	0	41	0	62914560	58	4423
2026-01-30 00:47:21.28	23.34	5.06	-44.7	-46.0	17.3	0.00e+00	0	41	0	68157440	59	4579
2026-01-30 00:47:22.29	23.42	5.12	-43.8	-44.9	18.4	0.00e+00	0	41	0	74448896	59	4042
2026-01-30 00:47:23.30	23.49	5.18	-45.1	-46.6	16.2	0.00e+00	0	41	0	79691776	62	4139
2026-01-30 00:47:24.31	23.57	5.24	-49.5	-53.0	9.8	5.35e-02	0	41	0	84934656	71	5111
2026-01-30 00:47:25.32	23.64	5.31	-43.0	-44.1	19.3	0.00e+00	0	41	0	91226112	58	3877
2026-01-30 00:47:26.33	23.72	5.37	-47.8	-50.2	12.4	2.51e-02	0	41	0	97517568	67	4679
2026-01-30 00:47:27.33	23.80	5.43	-42.9	-44.0	19.3	0.00e+00	0	41	0	102760448	57	4052
2026-01-30 00:47:28.34	23.87	5.50	-42.3	-43.3	20.0	0.00e+00	0	41	0	108003328	56	3977
2026-01-30 00:47:29.35	23.95	5.56	-42.4	-43.4	19.9	0.00e+00	0	41	0	114294784	56	4025
2026-01-30 00:47:30.36	24.03	5.62	-41.7	-42.7	20.5	0.00e+00	0	41	0	119537664	55	3927
2026-01-30 00:47:31.36	24.11	5.69	-41.5	-42.4	20.7	0.00e+00	0	41	0	125829120	54	4042
2026-01-30 00:47:32.37	24.18	5.75	-41.8	-42.7	20.4	0.00e+00	0	41	0	131072000	54	4189
2026-01-30 00:47:33.38	24.26	5.82	-41.5	-42.4	20.8	0.00e+00	0	41	0	136314880	54	4033
2026-01-30 00:47:34.39	24.34	5.88	-41.6	-42.5	20.7	0.00e+00	0	41	0	142606336	54	4083
2026-01-30 00:47:35.39	24.42	5.94	-41.6	-42.5	20.7	0.00e+00	0	41	0	147849216	54	4072
2026-01-30 00:47:36.40	24.50	6.01	-41.6	-42.5	20.7	0.00e+00	0	41	0	153092096	54	4097
2026-01-30 00:47:37.41	24.58	6.07	-41.4	-42.3	20.9	0.00e+00	0	41	0	159383552	54	4000
2026-01-30 00:47:38.41	24.66	6.14	-41.5	-42.4	20.8	0.00e+00	0	41	0	165675008	54	4041
2026-01-30 00:47:39.43	24.74	6.20	-41.2	-42.1	21.1	0.00e+00	0	41	0	170917888	54	3904
2026-01-30 00:47:40.43	24.82	6.27	-41.2	-42.1	21.1	0.00e+00	0	41	0	176160768	54	3905
2026-01-30 00:47:41.43	24.90	6.33	-41.3	-42.2	21.0	0.00e+00	0	41	0	182452224	54	3931
2026-01-30 00:47:42.44	24.98	6.39	-41.3	-42.2	21.0	0.00e+00	0	41	0	187695104	54	3951
2026-01-30 00:47:43.45	25.06	6.46	-41.5	-42.5	20.8	0.00e+00	0	41	0	192937984	54	4059
2026-01-30 00:47:44.46	25.15	6.53	-41.6	-42.5	20.7	0.00e+00	0	41	0	199229440	54	4075
2026-01-30 00:47:45.47	25.23	6.59	-41.7	-42.6	20.7	0.00e+00	0	41	0	204472320	54	4130
2026-01-30 00:47:46.48	25.31	6.66	-41.8	-42.7	20.5	0.00e+00	0	41	0	210763776	54	4181
2026-01-30 00:47:47.49	25.40	6.72	-41.6	-42.6	20.7	0.00e+00	0	41	0	216006656	54	4109
2026-01-30 00:47:48.50	25.48	6.79	-41.4	-42.3	21.0	0.00e+00	0	41	0	221249536	54	3985
2026-01-30 00:47:49.50	25.56	6.85	-41.5	-42.4	20.9	0.00e+00	0	41	0	227540992	54	4023
2026-01-30 00:47:50.50	25.65	6.92	-41.6	-42.5	20.8	0.00e+00	0	41	0	232783872	54	4080
2026-01-30 00:47:51.51	25.73	6.98	-41.4	-42.4	21.0	0.00e+00	0	41	0	238026752	54	4006
2026-01-30 00:47:52.52	25.82	7.05	-41.4	-42.4	21.0	0.00e+00	0	41	0	244318208	54	4008
2026-01-30 00:47:53.52	25.90	7.12	-41.5	-42.4	20.9	0.00e+00	0	41	0	250609664	54	4037
2026-01-30 00:47:54.52	25.99	7.18	-41.5	-42.5	20.9	0.00e+00	0	41	0	255852544	54	4054
2026-01-30 00:47:55.53	26.07	7.25	-41.4	-42.3	21.0	0.00e+00	0	41	0	261095424	54	3995
2026-01-30 00:47:56.54	26.16	7.32	-41.6	-42.5	20.9	0.00e+00	0	41	0	267386880	54	4067
2026-01-30 00:47:57.54	26.24	7.38	-41.4	-42.3	21.1	0.00e+00	0	41	0	272629760	54	3971
2026-01-30 00:47:58.55	26.33	7.45	-41.3	-42.2	21.1	0.00e+00	0	41	0	277872640	54	3952
2026-01-30 00:47:59.56	26.42	7.52	-41.3	-42.2	21.2	0.00e+00	0	41	0	284164096	54	3938
2026-01-30 00:48:00.56	26.51	7.58	-41.2	-42.1	21.3	0.00e+00	0	41	0	289406976	54	3890
2026-01-30 00:48:01.57	26.59	7.65	-41.2	-42.1	21.3	0.00e+00	0	41	0	295698432	54	3879
2026-01-30 00:48:02.58	26.68	7.72	-41.3	-42.2	21.2	0.00e+00	0	41	0	300941312	54	3915
2026-01-30 00:48:03.59	26.77	7.79	-41.2	-42.1	21.3	0.00e+00	0	41	0	306184192	54	3904
2026-01-30 00:48:04.59	26.86	7.85	-41.1	-42.0	21.4	0.00e+00	0	41	0	312475648	54	3851
2026-01-30 00:48:05.60	26.95	7.92	-41.1	-41.9	21.4	0.00e+00	0	41	0	317718528	54	3822
2026-01-30 00:48:06.60	27.04	7.99	-41.2	-42.1	21.4	0.00e+00	0	41	0	322961408	54	3886
2026-01-30 00:48:07.61	27.13	8.06	-41.3	-42.2	21.3	0.00e+00	0	41	0	329252864	54	3922
2026-01-30 00:48:08.61	27.22	8.12	-41.2	-42.1	21.3	0.00e+00	0	41	0	335544320	54	3886
2026-01-30 00:48:09.62	27.31	8.19	-40.9	-41.8	21.6	0.00e+00	0	41	0	340787200	53	3985
2026-01-30 00:48:10.63	27.41	8.26	-41.2	-42.0	21.4	0.00e+00	0	41	0	346030080	53	4097
2026-01-30 00:48:11.64	27.50	8.33	-41.1	-41.9	21.5	0.00e+00	0	41	0	352321536	53	4046
2026-01-30 00:48:12.64	27.59	8.40	-41.0	-41.9	21.5	0.00e+00	0	41	0	357564416	53	4028
2026-01-30 00:48:13.65	27.68	8.47	-41.0	-41.8	21.6	0.00e+00	0	41	0	362807296	53	4000
2026-01-30 00:48:14.65	27.78	8.53	-40.9	-41.8	21.7	0.00e+00	0	41	0	369098752	53	3960
2026-01-30 00:48:15.66	27.87	8.60	-40.9	-41.7	21.7	0.00e+00	0	41	0	374341632	53	3946
2026-01-30 00:48:16.66	27.96	8.67	-40.8	-41.7	21.7	0.00e+00	0	41	0	380633088	53	3929
2026-01-30 00:48:17.67	28.06	8.74	-40.8	-41.7	21.8	0.00e+00	0	41	0	385875968	53	3930
2026-01-30 00:48:18.67	28.15	8.81	-40.9	-41.7	21.7	0.00e+00	0	41	0	391118848	53	3956
2026-01-30 00:48:19.68	28.25	8.88	-40.8	-41.6	21.8	0.00e+00	0	41	0	397410304	53	3911
2026-01-30 00:48:20.69	28.35	8.95	-40.7	-41.5	21.9	0.00e+00	0	41	0	402653184	53	3866
2026-01-30 00:48:21.70	28.44	9.02	-40.6	-41.5	22.0	0.00e+00	0	41	0	407896064	53	3831
2026-01-30 00:48:22.70	28.54	9.09	-40.8	-41.7	21.8	0.00e+00	0	41	0	414187520	53	3917
2026-01-30 00:48:23.71	28.64	9.16	-40.6	-41.4	22.1	0.00e+00	0	41	0	419430400	53	3801
2026-01-30 00:48:24.71	28.73	9.23	-40.6	-41.5	22.0	0.00e+00	0	41	0	425721856	53	3836
2026-01-30 00:48:25.72	28.83	9.30	-40.6	-41.4	22.1	0.00e+00	0	41	0	430964736	53	3808
2026-01-30 00:48:26.73	28.93	9.37	-40.5	-41.3	22.1	0.00e+00	0	41	0	437256192	53	3777
2026-01-30 00:48:27.73	29.03	9.44	-40.5	-41.3	22.2	0.00e+00	0	41	0	442499072	52	3991
2026-01-30 00:48:28.74	29.13	9.51	-40.5	-41.3	22.2	0.00e+00	0	41	0	447741952	52	3990
2026-01-30 00:48:29.75	29.23	9.58	-40.4	-41.2	22.3	0.00e+00	0	41	0	454033408	52	3921
2026-01-30 00:48:30.75	29.33	9.65	-40.4	-41.3	22.2	0.00e+00	0	41	0	459276288	52	3969
2026-01-30 00:48:31.76	29.43	9.72	-40.5	-41.3	22.2	0.00e+00	0	41	0	465567744	52	3994
2026-01-30 00:48:32.77	29.53	9.79	-40.6	-41.4	22.1	0.00e+00	0	41	0	470810624	52	4033
2026-01-30 00:48:33.77	29.63	9.86	-40.5	-41.3	22.2	0.00e+00	0	41	0	476053504	52	3998
2026-01-30 00:48:34.78	29.74	9.94	-40.4	-41.2	22.3	0.00e+00	0	41	0	482344960	52	3945
2026-01-30 00:48:35.78	29.84	10.01	-40.5	-41.3	22.2	0.00e+00	0	41	0	487587840	52	3989
2026-01-30 00:48:36.79	29.94	10.08	-40.4	-41.2	22.3	0.00e+00	0	41	0	492830720	52	3923
2026-01-30 00:48:37.80	30.04	10.15	-40.4	-41.2	22.3	0.00e+00	0	41	0	499122176	52	3926
2026-01-30 00:48:38.80	30.15	10.22	-40.5	-41.3	22.2	0.00e+00	0	41	0	504365056	52	3991
2026-01-30 00:48:39.81	30.25	10.29	-40.6	-41.4	22.1	0.00e+00	0	41	0	509607936	52	4022
2026-01-30 00:48:40.81	30.36	10.37	-40.3	-41.1	22.4	0.00e+00	0	41	0	515899392	52	3897
2026-01-30 00:48:41.82	30.46	10.44	-40.3	-41.1	22.4	0.00e+00	0	41	0	522190848	52	3894
2026-01-30 00:48:42.83	30.57	10.51	-40.4	-41.2	22.3	0.00e+00	0	41	0	527433728	52	3937
2026-01-30 00:48:43.83	30.68	10.58	-40.4	-41.2	22.4	0.00e+00	0	41	0	532676608	52	3929
2026-01-30 00:48:44.84	30.78	10.66	-40.4	-41.2	22.3	0.00e+00	0	41	0	538968064	52	3938
2026-01-30 00:48:45.85	30.89	10.73	-40.3	-41.2	22.4	0.00e+00	0	41	0	544210944	52	3916
2026-01-30 00:48:46.86	31.00	10.80	-40.4	-41.3	22.3	0.00e+00	0	41	0	550502400	52	3972
2026-01-30 00:48:47.86	31.11	10.88	-40.4	-41.3	22.3	0.00e+00	0	41	0	555745280	52	3968
2026-01-30 00:48:48.87	31.22	10.95	-40.5	-41.3	22.3	0.00e+00	0	42	0	560988160	52	3991
2026-01-30 00:48:49.87	31.33	11.02	-40.6	-41.4	22.2	0.00e+00	0	41	0	567279616	52	4027
2026-01-30 00:48:50.88	31.44	11.10	-40.3	-41.1	22.5	0.00e+00	0	41	0	572522496	52	3898
2026-01-30 00:48:51.89	31.55	11.17	-40.2	-41.0	22.5	0.00e+00	0	42	0	577765376	52	3865
2026-01-30 00:48:52.89	31.66	11.24	-40.1	-41.0	22.6	0.00e+00	0	41	0	584056832	52	3830
2026-01-30 00:48:53.90	31.77	11.32	-40.1	-40.9	22.7	0.00e+00	0	41	0	589299712	52	3796
2026-01-30 00:48:54.90	31.88	11.39	-40.1	-40.9	22.8	0.00e+00	0	41	0	594542592	51	4026
2026-01-30 00:48:55.90	32.00	11.46	-40.1	-40.9	22.7	0.00e+00	0	41	0	600834048	51	4040
2026-01-30 00:48:56.91	32.11	11.54	-40.0	-40.8	22.9	0.00e+00	0	41	0	606076928	51	3966
2026-01-30 00:48:57.91	32.22	11.61	-40.1	-40.9	22.8	0.00e+00	0	41	0	612368384	51	4013
2026-01-30 00:48:58.93	32.34	11.69	-40.2	-41.0	22.7	0.00e+00	0	41	0	617611264	51	4061
2026-01-30 00:48:59.93	32.45	11.76	-40.2	-41.0	22.7	0.00e+00	0	41	0	623902720	51	4078
2026-01-30 00:49:00.94	32.57	11.84	-40.1	-40.9	22.8	0.00e+00	0	41	0	629145600	51	4021
2026-01-30 00:49:01.95	32.69	11.91	-40.2	-41.0	22.7	0.00e+00	0	41	0	635437056	51	4079
2026-01-30 00:49:02.95	32.80	11.99	-40.4	-41.2	22.5	0.00e+00	0	41	0	640679936	51	4172
2026-01-30 00:49:03.96	32.92	12.06	-40.4	-41.2	22.5	0.00e+00	0	41	0	645922816	51	4159
2026-01-30 00:49:04.97	33.04	12.14	-40.2	-41.0	22.7	0.00e+00	0	41	0	652214272	51	4084
2026-01-30 00:49:05.99	33.16	12.21	-40.1	-40.9	22.8	0.00e+00	0	42	0	657457152	51	4032
2026-01-30 00:49:06.99	33.28	12.29	-40.0	-40.8	22.8	0.00e+00	0	41	0	662700032	51	3999
2026-01-30 00:49:08.00	33.40	12.36	-40.0	-40.8	22.9	0.00e+00	0	41	0	668991488	51	3979
2026-01-30 00:49:09.00	33.52	12.44	-39.8	-40.5	23.2	0.00e+00	0	41	0	674234368	51	3865
2026-01-30 00:49:10.00	33.64	12.51	-39.7	-40.5	23.2	0.00e+00	0	41	0	680525824	51	3830
2026-01-30 00:49:11.01	33.76	12.59	-39.6	-40.4	23.3	0.00e+00	0	41	0	685768704	51	3807
2026-01-30 00:49:12.02	33.88	12.67	-39.7	-40.5	23.2	0.00e+00	0	41	0	692060160	51	3851
2026-01-30 00:49:13.03	34.01	12.74	-39.7	-40.4	23.3	0.00e+00	0	41	0	697303040	51	3816
2026-01-30 00:49:14.03	34.13	12.82	-39.7	-40.4	23.3	0.00e+00	0	41	0	702545920	51	3818
2026-01-30 00:49:15.04	34.25	12.90	-39.7	-40.5	23.2	0.00e+00	0	41	0	708837376	51	3830
2026-01-30 00:49:16.05	34.38	12.97	-39.8	-40.6	23.1	0.00e+00	0	41	0	714080256	51	3891
2026-01-30 00:49:17.05	34.50	13.05	-39.9	-40.6	23.1	0.00e+00	0	41	0	720371712	51	3911
2026-01-30 00:49:18.06	34.63	13.13	-39.9	-40.6	23.1	0.00e+00	0	42	0	725614592	51	3911
2026-01-30 00:49:19.07	34.75	13.20	-39.9	-40.7	23.0	0.00e+00	0	42	0	730857472	51	3949
2026-01-30 00:49:20.09	34.88	13.28	-39.9	-40.7	23.0	0.00e+00	0	42	0	737148928	51	3942
2026-01-30 00:49:21.09	35.01	13.36	-40.0	-40.8	23.0	0.00e+00	0	42	0	742391808	51	3969
2026-01-30 00:49:22.10	35.14	13.44	-39.9	-40.7	23.1	0.00e+00	0	41	0	747634688	51	3925
2026-01-30 00:49:23.11	35.27	13.51	-39.7	-40.5	23.2	0.00e+00	0	41	0	753926144	51	3835
2026-01-30 00:49:24.12	35.40	13.59	-39.6	-40.4	23.3	0.00e+00	0	41	0	760217600	51	3800
2026-01-30 00:49:25.12	35.53	13.67	-39.7	-40.5	23.2	0.00e+00	0	42	0	765460480	51	3838
2026-01-30 00:49:26.13	35.66	13.75	-39.8	-40.6	23.2	0.00e+00	0	41	0	770703360	51	3873
2026-01-30 00:49:27.14	35.79	13.82	-39.9	-40.7	23.1	0.00e+00	0	41	0	776994816	51	3929
2026-01-30 00:49:28.15	35.92	13.90	-39.9	-40.7	23.1	0.00e+00	0	41	0	782237696	51	3933
2026-01-30 00:49:29.15	36.06	13.98	-39.8	-40.6	23.2	0.00e+00	0	42	0	788529152	51	3899
2026-01-30 00:49:30.16	36.19	14.06	-39.8	-40.6	23.2	0.00e+00	0	41	0	793772032	51	3892
2026-01-30 00:49:31.17	36.33	14.14	-39.8	-40.6	23.1	0.00e+00	0	41	0	799014912	51	3905
2026-01-30 00:49:32.18	36.46	14.22	-39.7	-40.5	23.3	0.00e+00	0	41	0	805306368	51	3847
2026-01-30 00:49:33.19	36.60	14.30	-39.7	-40.5	23.3	0.00e+00	0	41	0	810549248	51	3828
2026-01-30 00:49:34.20	36.73	14.37	-39.3	-40.1	23.6	0.00e+00	0	42	0	815792128	50	3882
2026-01-30 00:49:35.21	36.87	14.45	-39.3	-40.0	23.7	0.00e+00	0	41	0	822083584	50	3854
2026-01-30 00:49:36.22	37.01	14.53	-39.3	-40.0	23.7	0.00e+00	0	42	0	828375040	50	3868
2026-01-30 00:49:37.23	37.15	14.61	-39.2	-40.0	23.7	0.00e+00	0	42	0	833617920	50	3850
2026-01-30 00:49:38.24	37.29	14.69	-39.3	-40.0	23.7	0.00e+00	0	42	0	838860800	50	3857
2026-01-30 00:49:39.25	37.43	14.77	-39.2	-40.0	23.8	0.00e+00	0	41	0	845152256	50	3836
2026-01-30 00:49:40.26	37.57	14.85	-39.3	-40.0	23.7	0.00e+00	0	41	0	850395136	50	3860
2026-01-30 00:49:41.27	37.71	14.93	-39.1	-39.9	23.8	0.00e+00	0	41	0	855638016	50	3800
2026-01-30 00:49:42.28	37.86	15.01	-39.3	-40.1	23.7	0.00e+00	0	41	0	861929472	50	3874
2026-01-30 00:49:43.28	38.00	15.09	-39.1	-39.8	23.9	0.00e+00	0	42	0	867172352	50	3777
2026-01-30 00:49:44.29	38.14	15.17	-39.1	-39.8	23.9	0.00e+00	0	41	0	873463808	50	3767
2026-01-30 00:49:45.30	38.29	15.25	-39.1	-39.8	23.9	0.00e+00	0	42	0	878706688	50	3762
2026-01-30 00:49:46.30	38.43	15.33	-39.0	-39.7	24.0	0.00e+00	0	41	0	883949568	50	3733
2026-01-30 00:49:47.31	38.58	15.41	-39.0	-39.8	24.0	0.00e+00	0	41	0	890241024	50	3740
2026-01-30 00:49:48.32	38.73	15.49	-39.0	-39.8	24.0	0.00e+00	0	41	0	895483904	50	3748
2026-01-30 00:49:49.33	38.87	15.57	-39.1	-39.8	23.9	0.00e+00	0	42	0	901775360	50	3779
2026-01-30 00:49:50.34	39.02	15.65	-39.1	-39.8	23.9	0.00e+00	0	42	0	907018240	50	3766
2026-01-30 00:49:51.35	39.17	15.73	-39.1	-39.8	23.9	0.00e+00	0	41	0	913309696	50	3765
2026-01-30 00:49:52.35	39.32	15.81	-39.0	-39.8	24.0	0.00e+00	0	41	0	918552576	50	3747
2026-01-30 00:49:53.36	39.47	15.89	-38.9	-39.7	24.1	0.00e+00	0	41	0	923795456	49	3915
2026-01-30 00:49:54.37	39.62	15.97	-38.9	-39.7	24.1	0.00e+00	0	41	0	930086912	49	3921
2026-01-30 00:49:55.37	39.77	16.05	-38.8	-39.5	24.2	0.00e+00	0	41	0	935329792	49	3847
2026-01-30 00:49:56.38	39.93	16.13	-38.8	-39.5	24.2	0.00e+00	0	41	0	940572672	49	3867
2026-01-30 00:49:57.39	40.08	16.22	-38.7	-39.5	24.2	0.00e+00	0	42	0	946864128	49	3832
2026-01-30 00:49:58.40	40.24	16.30	-38.6	-39.4	24.4	0.00e+00	0	41	0	952107008	49	3782
2026-01-30 00:49:59.41	40.39	16.38	-38.8	-39.5	24.2	0.00e+00	0	41	0	958398464	49	3848
2026-01-30 00:50:00.42	40.55	16.46	-38.8	-39.6	24.2	0.00e+00	0	41	0	963641344	49	3881
2026-01-30 00:50:01.43	40.71	16.54	-39.0	-39.7	24.1	0.00e+00	0	41	0	969932800	49	3942
2026-01-30 00:50:02.44	40.87	16.62	-39.0	-39.8	24.0	0.00e+00	0	41	0	975175680	49	3977
2026-01-30 00:50:03.45	41.02	16.70	-38.9	-39.7	24.1	0.00e+00	0	42	0	981467136	49	3935
2026-01-30 00:50:04.45	41.18	16.78	-38.9	-39.7	24.1	0.00e+00	0	42	0	986710016	49	3930
2026-01-30 00:50:05.46	41.34	16.87	-38.9	-39.7	24.1	0.00e+00	0	42	0	991952896	49	3939
2026-01-30 00:50:06.47	41.51	16.95	-39.0	-39.7	24.1	0.00e+00	0	41	0	998244352	49	3947
2026-01-30 00:50:07.48	41.67	17.03	-38.7	-39.4	24.3	0.00e+00	0	42	0	1003487232	49	3811
2026-01-30 00:50:08.49	41.83	17.11	-38.6	-39.3	24.4	0.00e+00	0	41	0	1008730112	49	3757
2026-01-30 00:50:09.50	42.00	17.19	-38.7	-39.4	24.4	0.00e+00	0	42	0	1015021568	49	3787
2026-01-30 00:50:10.50	42.16	17.28	-38.8	-39.5	24.3	0.00e+00	0	42	0	1020264448	49	3835
2026-01-30 00:50:11.51	42.33	17.36	-38.7	-39.4	24.3	0.00e+00	0	42	0	1025507328	49	3824
2026-01-30 00:50:12.51	42.49	17.44	-38.6	-39.3	24.4	0.00e+00	0	42	0	1031798784	49	3757
2026-01-30 00:50:13.52	42.66	17.52	-38.6	-39.4	24.4	0.00e+00	0	42	0	1038090240	49	3788
2026-01-30 00:50:14.53	42.83	17.60	-38.7	-39.4	24.4	0.00e+00	0	41	0	1043333120	49	3807
2026-01-30 00:50:15.54	43.00	17.69	-38.7	-39.4	24.4	0.00e+00	0	41	0	1048576000	49	3795
2026-01-30 00:50:16.55	43.17	17.77	-38.6	-39.3	24.4	0.00e+00	0	42	0	1054867456	49	3780
2026-01-30 00:50:17.56	43.34	17.85	-38.5	-39.2	24.5	0.00e+00	0	42	0	1060110336	49	3724
2026-01-30 00:50:18.57	43.51	17.93	-38.6	-39.3	24.5	0.00e+00	0	42	0	1066401792	48	3966
2026-01-30 00:50:19.58	43.68	18.01	-38.4	-39.1	24.6	0.00e+00	0	42	0	1071644672	48	3887
2026-01-30 00:50:20.58	43.86	18.10	-38.3	-39.0	24.7	0.00e+00	0	42	0	1076887552	48	3843
2026-01-30 00:50:21.59	44.03	18.18	-38.2	-38.9	24.8	0.00e+00	0	41	0	1083179008	48	3818
2026-01-30 00:50:22.59	44.21	18.26	-38.3	-38.9	24.8	0.00e+00	0	42	0	1088421888	48	3818
2026-01-30 00:50:23.60	44.38	18.34	-38.3	-39.1	24.7	0.00e+00	0	42	0	1093664768	48	3869
2026-01-30 00:50:24.61	44.56	18.43	-38.3	-39.0	24.7	0.00e+00	0	42	0	1099956224	48	3864
2026-01-30 00:50:25.62	44.74	18.51	-38.5	-39.2	24.6	0.00e+00	0	42	0	1106247680	48	3930
2026-01-30 00:50:26.62	44.92	18.59	-38.5	-39.2	24.6	0.00e+00	0	42	0	1111490560	48	3946
2026-01-30 00:50:27.63	45.10	18.67	-38.6	-39.3	24.5	0.00e+00	0	41	0	1116733440	48	3987
2026-01-30 00:50:28.64	45.28	18.76	-38.6	-39.3	24.5	0.00e+00	0	42	0	1123024896	48	3987
2026-01-30 00:50:29.65	45.46	18.84	-38.5	-39.2	24.5	0.00e+00	0	42	0	1128267776	48	3943
2026-01-30 00:50:30.65	45.64	18.92	-38.3	-39.0	24.7	0.00e+00	0	42	0	1133510656	48	3852
2026-01-30 00:50:31.66	45.83	19.00	-38.3	-39.0	24.7	0.00e+00	0	42	0	1139802112	48	3851
2026-01-30 00:50:32.66	46.01	19.08	-38.1	-38.8	24.9	0.00e+00	0	41	0	1145044992	48	3780
2026-01-30 00:50:33.67	46.20	19.17	-38.0	-38.7	25.0	0.00e+00	0	41	0	1151336448	48	3723
2026-01-30 00:50:34.69	46.39	19.25	-38.1	-38.7	25.0	0.00e+00	0	42	0	1156579328	48	3737
2026-01-30 00:50:35.70	46.58	19.33	-38.1	-38.9	24.9	0.00e+00	0	42	0	1161822208	48	3788
2026-01-30 00:50:36.70	46.76	19.41	-38.0	-38.7	25.0	0.00e+00	0	42	0	1168113664	48	3733
2026-01-30 00:50:37.71	46.95	19.50	-38.1	-38.8	25.0	0.00e+00	0	42	0	1173356544	48	3741
2026-01-30 00:50:38.72	47.15	19.58	-38.1	-38.8	24.9	0.00e+00	0	41	0	1179648000	48	3777
2026-01-30 00:50:39.72	47.34	19.66	-38.1	-38.8	24.9	0.00e+00	0	42	0	1184890880	48	3773
2026-01-30 00:50:40.73	47.53	19.74	-38.1	-38.8	24.9	0.00e+00	0	41	0	1191182336	48	3763
2026-01-30 00:50:41.74	47.72	19.82	-38.1	-38.8	24.9	0.00e+00	0	42	0	1196425216	48	3779
2026-01-30 00:50:42.75	47.92	19.91	-38.1	-38.8	25.0	0.00e+00	0	41	0	1201668096	48	3739
2026-01-30 00:50:43.75	48.11	19.99	-38.1	-38.8	25.0	0.00e+00	0	42	0	1207959552	48	3741
2026-01-30 00:50:44.76	48.31	20.07	-38.1	-38.8	25.0	0.00e+00	0	42	0	1213202432	48	3756
2026-01-30 00:50:45.77	48.51	20.15	-38.1	-38.8	24.9	0.00e+00	0	42	0	1218445312	48	3773
2026-01-30 00:50:46.77	48.71	20.23	-38.1	-38.8	25.0	0.00e+00	0	41	0	1224736768	48	3753
2026-01-30 00:50:47.78	48.91	20.32	-38.0	-38.7	25.0	0.00e+00	0	41	0	1229979648	48	3732
2026-01-30 00:50:48.79	49.11	20.40	-37.6	-38.4	24.9	0.00e+00	0	42	0	1236271104	47	3795
2026-01-30 00:50:49.79	49.31	20.48	-37.5	-38.2	25.0	0.00e+00	0	42	0	1241513984	47	3735
2026-01-30 00:50:50.80	49.51	20.56	-37.6	-38.3	25.0	0.00e+00	0	41	0	1246756864	47	3748
2026-01-30 00:50:51.80	49.72	20.64	-37.5	-38.2	25.0	0.00e+00	0	41	0	1253048320	47	3735
2026-01-30 00:50:52.81	49.92	20.72	-37.5	-38.3	25.0	0.00e+00	0	41	0	1258291200	47	3738
2026-01-30 00:50:53.81	50.13	20.80	-37.7	-38.4	24.9	0.00e+00	0	41	0	1264582656	47	3786
2026-01-30 00:50:54.83	50.34	20.88	-37.8	-38.5	24.8	0.00e+00	0	42	0	1269825536	47	3860
2026-01-30 00:50:55.83	50.54	20.97	-37.8	-38.6	24.7	0.00e+00	0	41	0	1276116992	47	3870
2026-01-30 00:50:56.84	50.75	21.05	-37.9	-38.6	24.7	0.00e+00	0	41	0	1281359872	47	3913
2026-01-30 00:50:57.85	50.97	21.13	-38.0	-38.8	24.6	0.00e+00	0	42	0	1286602752	47	3964
2026-01-30 00:50:58.86	51.18	21.21	-37.8	-38.5	24.7	0.00e+00	0	42	0	1292894208	47	3866
2026-01-30 00:50:59.86	51.39	21.29	-37.6	-38.3	25.0	0.00e+00	0	41	0	1298137088	47	3769
2026-01-30 00:51:00.87	51.60	21.37	-37.5	-38.3	25.0	0.00e+00	0	41	0	1303379968	46	3965
2026-01-30 00:51:01.88	51.82	21.45	-37.3	-38.0	25.2	0.00e+00	0	41	0	1309671424	46	3856
2026-01-30 00:51:02.88	52.03	21.53	-37.1	-37.8	25.4	0.00e+00	0	41	0	1314914304	46	3766
2026-01-30 00:51:03.89	52.25	21.61	-37.1	-37.8	25.5	0.00e+00	0	41	0	1321205760	46	3754
2026-01-30 00:51:04.89	52.47	21.69	-37.2	-37.9	25.3	0.00e+00	0	42	0	1326448640	46	3815
2026-01-30 00:51:05.90	52.69	21.77	-37.4	-38.1	25.2	0.00e+00	0	41	0	1331691520	46	3894
2026-01-30 00:51:06.91	52.91	21.85	-37.4	-38.1	25.1	0.00e+00	0	41	0	1337982976	46	3905
2026-01-30 00:51:07.92	53.13	21.93	-37.4	-38.1	25.1	0.00e+00	0	41	0	1344274432	46	3903
2026-01-30 00:51:08.93	53.35	22.01	-37.3	-38.0	25.2	0.00e+00	0	41	0	1349517312	46	3857
2026-01-30 00:51:09.93	53.58	22.08	-37.3	-38.0	25.3	0.00e+00	0	42	0	1354760192	46	3828
2026-01-30 00:51:10.93	53.80	22.16	-37.4	-38.0	25.2	0.00e+00	0	41	0	1361051648	46	3868
2026-01-30 00:51:11.94	54.03	22.24	-37.2	-37.9	25.3	0.00e+00	0	41	0	1366294528	46	3806
2026-01-30 00:51:12.95	54.25	22.32	-37.3	-38.0	25.3	0.00e+00	0	41	0	1371537408	46	3832
2026-01-30 00:51:13.96	54.48	22.40	-37.5	-38.2	25.1	0.00e+00	0	41	0	1377828864	46	3934
2026-01-30 00:51:14.97	54.71	22.48	-37.5	-38.2	25.1	0.00e+00	0	41	0	1383071744	46	3950
2026-01-30 00:51:15.97	54.94	22.55	-37.6	-38.3	25.0	0.00e+00	0	42	0	1388314624	46	3993
2026-01-30 00:51:16.98	55.17	22.63	-37.6	-38.4	25.0	0.00e+00	0	42	0	1394606080	46	4006
2026-01-30 00:51:17.99	55.41	22.71	-37.7	-38.4	24.9	0.00e+00	0	41	0	1399848960	46	4031
2026-01-30 00:51:19.00	55.64	22.79	-37.7	-38.4	24.9	0.00e+00	0	42	0	1406140416	46	4032
2026-01-30 00:51:20.01	55.88	22.86	-37.7	-38.4	24.9	0.00e+00	0	41	0	1411383296	46	4023
2026-01-30 00:51:21.01	56.11	22.94	-37.4	-38.1	25.1	0.00e+00	0	42	0	1417674752	46	3913
2026-01-30 00:51:22.02	56.35	23.01	-37.1	-37.8	25.4	0.00e+00	0	41	0	1422917632	46	3766
2026-01-30 00:51:23.03	56.59	23.09	-37.0	-37.7	25.5	0.00e+00	0	42	0	1429209088	46	3717
2026-01-30 00:51:24.03	56.83	23.17	-37.1	-37.8	25.5	0.00e+00	0	42	0	1434451968	46	3745
2026-01-30 00:51:25.04	57.07	23.24	-37.2	-37.9	25.3	0.00e+00	0	42	0	1439694848	46	3824
2026-01-30 00:51:26.05	57.31	23.32	-37.3	-38.0	25.3	0.00e+00	0	41	0	1445986304	46	3858
2026-01-30 00:51:27.06	57.55	23.39	-37.3	-38.0	25.3	0.00e+00	0	42	0	1451229184	46	3842
2026-01-30 00:51:28.07	57.80	23.47	-37.1	-37.8	25.4	0.00e+00	0	42	0	1456472064	46	3751
2026-01-30 00:51:29.08	58.04	23.54	-36.8	-37.5	25.7	0.00e+00	0	42	0	1462763520	45	3841
2026-01-30 00:51:30.08	58.29	23.61	-36.8	-37.5	25.7	0.00e+00	0	42	0	1468006400	45	3850
2026-01-30 00:51:31.10	58.54	23.69	-36.8	-37.4	25.7	0.00e+00	0	41	0	1473249280	45	3821
2026-01-30 00:51:32.10	58.79	23.76	-36.8	-37.5	25.8	0.00e+00	0	42	0	1479540736	45	3829
2026-01-30 00:51:33.11	59.04	23.83	-36.8	-37.5	25.8	0.00e+00	0	42	0	1484783616	45	3831
2026-01-30 00:51:34.11	59.29	23.90	-36.9	-37.6	25.7	0.00e+00	0	42	0	1491075072	45	3892
2026-01-30 00:51:35.12	59.54	23.98	-36.9	-37.6	25.6	0.00e+00	0	41	0	1496317952	45	3896
2026-01-30 00:51:36.13	59.79	24.05	-36.8	-37.5	25.7	0.00e+00	0	42	0	1502609408	45	3854
2026-01-30 00:51:37.14	60.05	24.12	-36.9	-37.6	25.7	0.00e+00	0	41	0	1507852288	45	3870
2026-01-30 00:51:38.14	60.30	24.19	-36.8	-37.5	25.7	0.00e+00	0	42	0	1514143744	45	3857
2026-01-30 00:51:39.14	60.56	24.26	-36.7	-37.3	25.8	0.00e+00	0	42	0	1519386624	45	3776
2026-01-30 00:51:40.15	60.81	24.33	-36.6	-37.2	26.0	0.00e+00	0	41	0	1524629504	45	3730
2026-01-30 00:51:41.16	61.07	24.40	-36.7	-37.4	25.9	0.00e+00	0	41	0	1530920960	45	3785
2026-01-30 00:51:42.17	61.33	24.47	-36.7	-37.4	25.8	0.00e+00	0	41	0	1536163840	45	3792
2026-01-30 00:51:43.17	61.59	24.54	-36.8	-37.4	25.7	0.00e+00	0	41	0	1541406720	45	3821
2026-01-30 00:51:44.18	61.86	24.61	-36.7	-37.4	25.7	0.00e+00	0	42	0	1547698176	45	3820
2026-01-30 00:51:45.19	62.12	24.68	-36.7	-37.4	25.7	0.00e+00	0	42	0	1552941056	45	3821
2026-01-30 00:51:46.19	62.38	24.74	-36.8	-37.5	25.7	0.00e+00	0	42	0	1558183936	45	3834
2026-01-30 00:51:47.20	62.65	24.81	-36.7	-37.4	25.8	0.00e+00	0	41	0	1564475392	45	3795
2026-01-30 00:51:48.21	62.92	24.88	-36.7	-37.4	25.8	0.00e+00	0	42	0	1569718272	45	3791
2026-01-30 00:51:49.21	63.18	24.94	-36.6	-37.3	25.9	0.00e+00	0	41	0	1576009728	45	3763
2026-01-30 00:51:50.22	63.45	25.01	-36.6	-37.3	25.9	0.00e+00	0	41	0	1581252608	45	3768
2026-01-30 00:51:51.23	63.72	25.07	-36.6	-37.3	25.9	0.00e+00	0	41	0	1587544064	45	3769
2026-01-30 00:51:52.24	63.99	25.14	-36.5	-37.2	26.0	0.00e+00	0	42	0	1592786944	45	3713
2026-01-30 00:51:53.25	64.27	25.20	-36.5	-37.2	26.0	0.00e+00	0	42	0	1599078400	44	3916
2026-01-30 00:51:54.25	64.54	25.27	-36.5	-37.2	26.0	0.00e+00	0	41	0	1604321280	44	3933
2026-01-30 00:51:55.26	64.81	25.33	-36.6	-37.3	25.9	0.00e+00	0	42	0	1609564160	44	3991
2026-01-30 00:51:56.27	65.09	25.39	-36.7	-37.4	25.8	0.00e+00	0	42	0	1615855616	44	4050
2026-01-30 00:51:57.28	65.37	25.45	-36.7	-37.4	25.8	0.00e+00	0	42	0	1621098496	44	4047
2026-01-30 00:51:58.29	65.65	25.52	-36.7	-37.4	25.8	0.00e+00	0	42	0	1626341376	44	4014
2026-01-30 00:51:59.29	65.92	25.58	-36.7	-37.4	25.8	0.00e+00	0	41	0	1632632832	44	4044
2026-01-30 00:52:00.30	66.20	25.64	-36.7	-37.4	25.8	0.00e+00	0	42	0	1637875712	44	4049
2026-01-30 00:52:01.30	66.48	25.70	-36.6	-37.3	25.9	0.00e+00	0	42	0	1643118592	44	3972
2026-01-30 00:52:02.31	66.76	25.76	-36.6	-37.3	25.9	0.00e+00	0	41	0	1649410048	44	3959
2026-01-30 00:52:03.32	67.05	25.81	-36.3	-37.0	26.2	0.00e+00	0	41	0	1655701504	44	3850
2026-01-30 00:52:04.33	67.33	25.87	-36.4	-37.1	26.1	0.00e+00	0	42	0	1660944384	44	3881
2026-01-30 00:52:05.33	67.61	25.93	-36.4	-37.0	26.1	0.00e+00	0	42	0	1666187264	44	3868
2026-01-30 00:52:06.34	67.90	25.99	-36.3	-36.9	26.3	0.00e+00	0	41	0	1672478720	44	3812
2026-01-30 00:52:07.35	68.19	26.04	-36.3	-37.0	26.2	0.00e+00	0	42	0	1677721600	44	3856
2026-01-30 00:52:08.35	68.47	26.10	-36.4	-37.1	26.0	0.00e+00	0	42	0	1684013056	44	3905
2026-01-30 00:52:09.36	68.76	26.15	-36.6	-37.3	25.9	0.00e+00	0	42	0	1689255936	44	3963
2026-01-30 00:52:10.36	69.05	26.21	-36.7	-37.3	25.9	0.00e+00	0	41	0	1694498816	44	4002
2026-01-30 00:52:11.37	69.34	26.26	-36.5	-37.2	26.0	0.00e+00	0	41	0	1700790272	44	3930
2026-01-30 00:52:12.37	69.63	26.31	-36.4	-37.1	26.1	0.00e+00	0	42	0	1706033152	44	3899
2026-01-30 00:52:13.38	69.93	26.37	-36.4	-37.1	26.1	0.00e+00	0	42	0	1711276032	44	3897
2026-01-30 00:52:14.39	70.22	26.42	-36.5	-37.2	26.0	0.00e+00	0	42	0	1717567488	44	3946
2026-01-30 00:52:15.39	70.51	26.47	-36.5	-37.3	26.0	0.00e+00	0	41	0	1722810368	44	3959
2026-01-30 00:52:16.40	70.81	26.52	-36.6	-37.3	25.9	0.00e+00	0	41	0	1728053248	44	3981
2026-01-30 00:52:17.41	71.11	26.57	-36.6	-37.3	25.9	0.00e+00	0	41	0	1734344704	44	3985
2026-01-30 00:52:18.41	71.40	26.62	-36.6	-37.3	26.0	0.00e+00	0	42	0	1740636160	44	3966
2026-01-30 00:52:19.42	71.70	26.66	-36.5	-37.2	25.9	0.00e+00	0	41	0	1745879040	44	3949
2026-01-30 00:52:20.43	72.00	26.71	-36.5	-37.3	26.0	0.00e+00	0	42	0	1751121920	44	3961
2026-01-30 00:52:21.44	72.30	26.76	-36.6	-37.3	25.9	0.00e+00	0	42	0	1757413376	44	3987
2026-01-30 00:52:22.44	72.60	26.80	-36.5	-37.2	26.0	0.00e+00	0	42	0	1762656256	44	3932
2026-01-30 00:52:23.45	72.90	26.85	-36.3	-37.0	26.1	0.00e+00	0	41	0	1768947712	44	3865
2026-01-30 00:52:24.45	73.20	26.89	-36.4	-37.1	26.1	0.00e+00	0	42	0	1774190592	44	3871
2026-01-30 00:52:25.46	73.51	26.94	-36.4	-37.1	26.1	0.00e+00	0	41	0	1779433472	44	3876
2026-01-30 00:52:26.47	73.81	26.98	-36.5	-37.2	26.0	0.00e+00	0	42	0	1785724928	44	3917
2026-01-30 00:52:27.48	74.12	27.02	-36.6	-37.3	25.9	0.00e+00	0	42	0	1790967808	44	3981
2026-01-30 00:52:28.49	74.42	27.06	-36.6	-37.3	26.0	0.00e+00	0	42	0	1796210688	44	3964
2026-01-30 00:52:29.50	74.73	27.10	-36.6	-37.3	26.0	0.00e+00	0	42	0	1802502144	44	3971
2026-01-30 00:52:30.50	75.04	27.14	-36.4	-37.1	26.1	0.00e+00	0	41	0	1807745024	44	3876
2026-01-30 00:52:31.51	75.35	27.18	-36.3	-37.0	26.2	0.00e+00	0	42	0	1812987904	44	3841
2026-01-30 00:52:32.52	75.66	27.22	-36.3	-37.0	26.2	0.00e+00	0	42	0	1819279360	44	3835
2026-01-30 00:52:33.53	75.97	27.26	-36.3	-37.0	26.2	0.00e+00	0	41	0	1825570816	44	3847
2026-01-30 00:52:34.53	76.27	27.29	-36.3	-37.0	26.2	0.00e+00	0	42	0	1830813696	44	3850
2026-01-30 00:52:35.54	76.59	27.33	-36.3	-37.0	26.2	0.00e+00	0	42	0	1836056576	44	3848
2026-01-30 00:52:36.54	76.89	27.36	-36.3	-36.9	26.2	0.00e+00	0	42	0	1842348032	44	3818
2026-01-30 00:52:37.55	77.21	27.40	-36.1	-36.8	26.4	0.00e+00	0	42	0	1847590912	44	3750
2026-01-30 00:52:38.56	77.52	27.43	-36.2	-36.8	26.3	0.00e+00	0	41	0	1853882368	44	3773
2026-01-30 00:52:39.57	77.84	27.46	-36.1	-36.8	26.3	0.00e+00	0	42	0	1859125248	44	3757
2026-01-30 00:52:40.57	78.15	27.49	-36.1	-36.8	26.3	0.00e+00	0	42	0	1864368128	44	3756
2026-01-30 00:52:41.58	78.46	27.52	-36.1	-36.8	26.4	0.00e+00	0	41	0	1870659584	44	3741
2026-01-30 00:52:42.59	78.78	27.55	-36.0	-36.6	26.5	0.00e+00	0	42	0	1875902464	44	3688
2026-01-30 00:52:43.61	79.10	27.58	-36.2	-36.9	26.3	0.00e+00	0	42	0	1881145344	44	3794
2026-01-30 00:52:44.61	79.41	27.61	-36.4	-37.1	26.1	0.00e+00	0	41	0	1887436800	44	3908
2026-01-30 00:52:45.61	79.73	27.64	-36.5	-37.2	26.0	0.00e+00	0	41	0	1893728256	44	3957
2026-01-30 00:52:46.62	80.05	27.66	-36.5	-37.2	26.0	0.00e+00	0	41	0	1898971136	44	3943
2026-01-30 00:52:47.63	80.37	27.69	-36.4	-37.1	26.1	0.00e+00	0	42	0	1904214016	44	3871
2026-01-30 00:52:48.64	80.68	27.71	-36.2	-36.9	26.3	0.00e+00	0	41	0	1910505472	44	3799
2026-01-30 00:52:49.64	81.00	27.73	-36.4	-37.1	26.1	0.00e+00	0	41	0	1915748352	44	3878
2026-01-30 00:52:50.65	81.32	27.76	-36.5	-37.2	26.1	0.00e+00	0	42	0	1920991232	44	3914
2026-01-30 00:52:51.66	81.64	27.78	-36.5	-37.1	26.1	0.00e+00	0	41	0	1927282688	44	3913
2026-01-30 00:52:52.67	81.96	27.80	-36.5	-37.1	26.0	0.00e+00	0	42	0	1932525568	44	3913
2026-01-30 00:52:53.67	82.28	27.82	-36.5	-37.1	26.1	0.00e+00	0	42	0	1938817024	44	3913
2026-01-30 00:52:54.68	82.60	27.84	-36.5	-37.2	26.0	0.00e+00	0	42	0	1944059904	44	3936
2026-01-30 00:52:55.69	82.93	27.85	-36.5	-37.2	26.0	0.00e+00	0	41	0	1949302784	44	3939
2026-01-30 00:52:56.69	83.25	27.87	-36.5	-37.1	26.1	0.00e+00	0	42	0	1955594240	44	3911
2026-01-30 00:52:57.70	83.57	27.89	-36.3	-37.0	26.2	0.00e+00	0	41	0	1960837120	44	3832
2026-01-30 00:52:58.71	83.89	27.90	-36.2	-36.9	26.3	0.00e+00	0	41	0	1966080000	44	3792
2026-01-30 00:52:59.72	84.21	27.92	-36.3	-36.9	26.2	0.00e+00	0	42	0	1972371456	44	3821
2026-01-30 00:53:00.72	84.54	27.93	-36.3	-36.9	26.2	0.00e+00	0	42	0	1978662912	44	3815
2026-01-30 00:53:01.73	84.86	27.94	-36.3	-37.0	26.3	0.00e+00	0	42	0	1983905792	44	3831
2026-01-30 00:53:02.74	85.18	27.95	-36.4	-37.0	26.2	0.00e+00	0	42	0	1989148672	44	3859
2026-01-30 00:53:03.74	85.51	27.96	-36.3	-37.0	26.2	0.00e+00	0	41	0	1995440128	44	3832
2026-01-30 00:53:04.75	85.83	27.97	-36.2	-36.8	26.4	0.00e+00	0	41	0	2000683008	44	3767
2026-01-30 00:53:05.76	86.15	27.98	-36.2	-36.9	26.3	0.00e+00	0	42	0	2005925888	44	3782
2026-01-30 00:53:06.77	86.48	27.98	-36.3	-36.9	26.3	0.00e+00	0	41	0	2012217344	44	3820
2026-01-30 00:53:07.78	86.80	27.99	-36.3	-36.9	26.3	0.00e+00	0	42	0	2017460224	44	3823
2026-01-30 00:53:08.79	87.13	28.00	-36.4	-37.1	26.1	0.00e+00	0	42	0	2023751680	44	3903
2026-01-30 00:53:09.79	87.45	28.00	-36.4	-37.1	26.1	0.00e+00	0	41	0	2028994560	44	3902
2026-01-30 00:53:10.80	87.78	28.00	-36.4	-37.1	26.1	0.00e+00	0	42	0	2034237440	44	3909
2026-01-30 00:53:11.81	88.10	28.01	-36.6	-37.3	26.0	0.00e+00	0	42	0	2040528896	44	3994
2026-01-30 00:53:12.81	88.43	28.01	-36.4	-37.1	26.2	0.00e+00	0	42	0	2046820352	44	3870
2026-01-30 00:53:13.82	88.75	28.01	-36.2	-36.9	26.3	0.00e+00	0	42	0	2052063232	44	3802
2026-01-30 00:53:14.83	89.08	28.01	-36.3	-36.9	26.3	0.00e+00	0	41	0	2057306112	44	3819
2026-01-30 00:53:15.83	89.40	28.00	-36.1	-36.8	26.4	0.00e+00	0	42	0	2063597568	44	3757
2026-01-30 00:53:16.84	89.72	28.00	-36.2	-36.9	26.3	0.00e+00	0	42	0	2068840448	44	3796
2026-01-30 00:53:17.85	90.05	28.00	-36.3	-37.0	26.2	0.00e+00	0	42	0	2074083328	44	3841
2026-01-30 00:53:18.86	90.38	27.99	-36.4	-37.0	26.2	0.00e+00	0	42	0	2080374784	44	3859
2026-01-30 00:53:19.87	90.70	27.99	-36.4	-37.0	26.1	0.00e+00	0	41	0	2085617664	44	3864
2026-01-30 00:53:20.87	91.02	27.98	-36.2	-36.9	26.3	0.00e+00	0	41	0	2090860544	44	3808
2026-01-30 00:53:21.88	91.35	27.97	-36.2	-36.9	26.2	0.00e+00	0	41	0	2097152000	44	3811
2026-01-30 00:53:22.88	91.67	27.97	-36.4	-37.0	26.2	0.00e+00	0	42	0	2102394880	44	3868
2026-01-30 00:53:23.89	91.99	27.96	-36.3	-36.9	26.3	0.00e+00	0	42	0	2108686336	44	3815
2026-01-30 00:53:24.90	92.32	27.95	-36.3	-37.0	26.2	0.00e+00	0	41	0	2113929216	44	3828
2026-01-30 00:53:25.91	92.64	27.93	-36.4	-37.1	26.1	0.00e+00	0	41	0	2119172096	44	3887
2026-01-30 00:53:26.92	92.97	27.92	-36.5	-37.2	26.0	0.00e+00	0	41	0	2125463552	44	3942
2026-01-30 00:53:27.93	93.29	27.91	-36.5	-37.2	26.0	0.00e+00	0	41	0	2131755008	44	3938
2026-01-30 00:53:28.94	93.61	27.89	-36.5	-37.3	26.0	0.00e+00	0	42	0	2136997888	44	3959
2026-01-30 00:53:29.95	93.94	27.88	-36.5	-37.2	26.1	0.00e+00	0	42	0	2142240768	44	3917
2026-01-30 00:53:30.96	94.26	27.86	-36.6	-37.3	26.0	0.00e+00	0	42	0	2148532224	44	3960
2026-01-30 00:53:31.96	94.58	27.85	-36.5	-37.2	26.1	0.00e+00	0	42	0	2153775104	44	3927
2026-01-30 00:53:32.97	94.90	27.83	-36.6	-37.2	26.0	0.00e+00	0	42	0	2159017984	44	3952
2026-01-30 00:53:33.97	95.22	27.81	-36.7	-37.4	25.9	0.00e+00	0	42	0	2165309440	44	4007
2026-01-30 00:53:34.98	95.54	27.79	-36.6	-37.3	26.0	0.00e+00	0	41	0	2170552320	44	3983
2026-01-30 00:53:35.99	95.86	27.77	-36.6	-37.3	25.9	0.00e+00	0	41	0	2175795200	44	3995
2026-01-30 00:53:36.99	96.18	27.75	-36.6	-37.3	25.9	0.00e+00	0	41	0	2182086656	44	3985
2026-01-30 00:53:38.00	96.50	27.72	-36.5	-37.2	26.0	0.00e+00	0	42	0	2187329536	44	3925
2026-01-30 00:53:39.01	96.82	27.70	-36.5	-37.1	26.1	0.00e+00	0	42	0	2193620992	44	3913
2026-01-30 00:53:40.02	97.14	27.67	-36.5	-37.2	26.1	0.00e+00	0	41	0	2198863872	44	3918
2026-01-30 00:53:41.03	97.46	27.65	-36.5	-37.2	26.1	0.00e+00	0	42	0	2205155328	44	3921
2026-01-30 00:53:42.04	97.78	27.62	-36.6	-37.3	25.9	0.00e+00	0	42	0	2210398208	44	3993
2026-01-30 00:53:43.05	98.10	27.60	-36.6	-37.3	26.0	0.00e+00	0	42	0	2216689664	44	3970
2026-01-30 00:53:44.06	98.41	27.57	-36.7	-37.3	25.9	0.00e+00	0	42	0	2221932544	44	4000
2026-01-30 00:53:45.07	98.73	27.54	-36.6	-37.3	25.9	0.00e+00	0	42	0	2227175424	44	3982
2026-01-30 00:53:46.08	99.05	27.51	-36.6	-37.3	26.0	0.00e+00	0	41	0	2233466880	44	3969
2026-01-30 00:53:47.08	99.36	27.48	-36.6	-37.2	26.0	0.00e+00	0	41	0	2238709760	44	3953
2026-01-30 00:53:48.09	99.67	27.45	-36.5	-37.2	26.0	0.00e+00	0	42	0	2243952640	44	3948
2026-01-30 00:53:49.10	99.99	27.41	-36.5	-37.2	26.1	0.00e+00	0	42	0	2250244096	44	3916
2026-01-30 00:53:50.11	100.30	27.38	-36.4	-37.1	26.1	0.00e+00	0	41	0	2255486976	44	3888
2026-01-30 00:53:51.11	100.61	27.35	-36.3	-37.0	26.2	0.00e+00	0	41	0	2260729856	44	3836
2026-01-30 00:53:52.12	100.93	27.31	-36.3	-37.0	26.2	0.00e+00	0	42	0	2267021312	44	3843
2026-01-30 00:53:53.12	101.23	27.27	-36.5	-37.2	26.1	0.00e+00	0	42	0	2273312768	44	3916
2026-01-30 00:53:54.13	101.55	27.24	-36.6	-37.3	26.0	0.00e+00	0	42	0	2278555648	44	3980
2026-01-30 00:53:55.14	101.86	27.20	-36.8	-37.5	25.8	0.00e+00	0	41	0	2283798528	44	4080
2026-01-30 00:53:56.14	102.16	27.16	-36.9	-37.6	25.7	0.00e+00	0	41	0	2290089984	44	4111
2026-01-30 00:53:57.14	102.47	27.12	-37.0	-37.7	25.6	0.00e+00	0	41	0	2295332864	44	4166
2026-01-30 00:53:58.15	102.78	27.08	-37.1	-37.8	25.6	0.00e+00	0	41	0	2301624320	44	4201
2026-01-30 00:53:59.17	103.09	27.04	-36.9	-37.6	25.7	0.00e+00	0	42	0	2306867200	44	4113
2026-01-30 00:54:00.17	103.39	27.00	-36.9	-37.6	25.7	0.00e+00	0	42	0	2312110080	44	4110
2026-01-30 00:54:01.18	103.70	26.96	-36.9	-37.6	25.7	0.00e+00	0	42	0	2318401536	44	4099
2026-01-30 00:54:02.18	104.00	26.91	-36.8	-37.5	25.7	0.00e+00	0	42	0	2323644416	44	4097
2026-01-30 00:54:03.19	104.30	26.87	-36.8	-37.6	25.7	0.00e+00	0	41	0	2328887296	44	4103
2026-01-30 00:54:04.21	104.61	26.82	-37.0	-37.7	25.6	0.00e+00	0	42	0	2335178752	44	4180
2026-01-30 00:54:05.21	104.91	26.78	-37.0	-37.7	25.6	0.00e+00	0	42	0	2341470208	44	4175
2026-01-30 00:54:06.23	105.21	26.73	-36.9	-37.6	25.7	0.00e+00	0	42	0	2346713088	44	4129
2026-01-30 00:54:07.23	105.51	26.68	-36.9	-37.6	25.6	0.00e+00	0	41	0	2351955968	44	4140
2026-01-30 00:54:08.23	105.81	26.64	-36.8	-37.5	25.8	0.00e+00	0	41	0	2358247424	44	4068
2026-01-30 00:54:09.24	106.11	26.59	-36.7	-37.4	25.8	0.00e+00	0	41	0	2363490304	44	4020
2026-01-30 00:54:10.25	106.41	26.54	-36.8	-37.5	25.8	0.00e+00	0	41	0	2368733184	44	4056
2026-01-30 00:54:11.25	106.70	26.49	-36.9	-37.6	25.7	0.00e+00	0	41	0	2375024640	44	4106
2026-01-30 00:54:12.26	107.00	26.44	-36.9	-37.6	25.7	0.00e+00	0	42	0	2380267520	44	4120
2026-01-30 00:54:13.26	107.29	26.39	-36.9	-37.6	25.6	0.00e+00	0	41	0	2386558976	44	4143
2026-01-30 00:54:14.27	107.58	26.34	-36.9	-37.6	25.7	0.00e+00	0	42	0	2391801856	44	4101
2026-01-30 00:54:15.28	107.88	26.28	-37.0	-37.6	25.6	0.00e+00	0	41	0	2397044736	44	4144
2026-01-30 00:54:16.29	108.17	26.23	-36.9	-37.6	25.7	0.00e+00	0	41	0	2403336192	44	4117
2026-01-30 00:54:17.29	108.46	26.17	-37.0	-37.7	25.6	0.00e+00	0	41	0	2408579072	44	4173
2026-01-30 00:54:18.30	108.75	26.12	-37.1	-37.8	25.5	0.00e+00	0	42	0	2413821952	44	4214
2026-01-30 00:54:19.31	109.04	26.06	-37.1	-37.8	25.5	0.00e+00	0	42	0	2420113408	44	4236
2026-01-30 00:54:20.32	109.33	26.01	-37.1	-37.8	25.5	0.00e+00	0	41	0	2426404864	44	4204
2026-01-30 00:54:21.32	109.61	25.95	-37.1	-37.8	25.5	0.00e+00	0	42	0	2431647744	44	4197
2026-01-30 00:54:22.33	109.90	25.89	-37.0	-37.7	25.6	0.00e+00	0	42	0	2436890624	44	4153
2026-01-30 00:54:23.34	110.19	25.84	-37.0	-37.7	25.6	0.00e+00	0	42	0	2443182080	44	4179
2026-01-30 00:54:24.34	110.47	25.78	-37.0	-37.6	25.7	0.00e+00	0	42	0	2448424960	44	4141
2026-01-30 00:54:25.35	110.75	25.72	-36.9	-37.6	25.7	0.00e+00	0	42	0	2453667840	44	4104
2026-01-30 00:54:26.36	111.03	25.66	-37.0	-37.7	25.6	0.00e+00	0	42	0	2459959296	44	4176
2026-01-30 00:54:27.37	111.31	25.60	-37.0	-37.7	25.5	0.00e+00	0	42	0	2465202176	44	4189
2026-01-30 00:54:28.37	111.59	25.54	-37.1	-37.8	25.5	0.00e+00	0	42	0	2471493632	44	4227
2026-01-30 00:54:29.39	111.87	25.48	-37.0	-37.8	25.5	0.00e+00	0	42	0	2476736512	44	4196
2026-01-30 00:54:30.39	112.15	25.41	-36.9	-37.6	25.6	0.00e+00	0	42	0	2481979392	44	4131
2026-01-30 00:54:31.40	112.43	25.35	-36.9	-37.6	25.6	0.00e+00	0	42	0	2488270848	44	4137
2026-01-30 00:54:32.41	112.70	25.29	-36.9	-37.6	25.6	0.00e+00	0	41	0	2493513728	44	4128
2026-01-30 00:54:33.41	112.98	25.22	-37.0	-37.6	25.6	0.00e+00	0	42	0	2498756608	44	4145
2026-01-30 00:54:34.42	113.25	25.16	-37.1	-37.8	25.5	0.00e+00	0	42	0	2505048064	44	4203
2026-01-30 00:54:35.43	113.52	25.10	-37.2	-37.9	25.4	0.00e+00	0	42	0	2511339520	44	4267
2026-01-30 00:54:36.44	113.80	25.03	-37.2	-38.0	25.3	0.00e+00	0	42	0	2516582400	45	4060
2026-01-30 00:54:37.45	114.07	24.96	-37.4	-38.1	25.3	0.00e+00	0	42	0	2521825280	45	4117
2026-01-30 00:54:38.45	114.33	24.90	-37.4	-38.1	25.2	0.00e+00	0	42	0	2528116736	45	4129
2026-01-30 00:54:39.45	114.60	24.83	-37.2	-37.9	25.4	0.00e+00	0	41	0	2533359616	45	4038
2026-01-30 00:54:40.46	114.87	24.76	-37.1	-37.8	25.5	0.00e+00	0	42	0	2538602496	45	3993
2026-01-30 00:54:41.47	115.13	24.70	-37.1	-37.8	25.4	0.00e+00	0	42	0	2544893952	45	4001
2026-01-30 00:54:42.48	115.40	24.63	-37.2	-37.9	25.5	0.00e+00	0	42	0	2550136832	45	4010
2026-01-30 00:54:43.48	115.66	24.56	-37.2	-37.9	25.5	0.00e+00	0	42	0	2556428288	45	4027
2026-01-30 00:54:44.49	115.92	24.49	-37.3	-38.0	25.4	0.00e+00	0	41	0	2561671168	45	4092
2026-01-30 00:54:45.50	116.18	24.42	-37.4	-38.1	25.3	0.00e+00	0	41	0	2566914048	45	4117
2026-01-30 00:54:46.50	116.44	24.35	-37.4	-38.1	25.2	0.00e+00	0	42	0	2573205504	45	4135
2026-01-30 00:54:47.51	116.70	24.28	-37.4	-38.1	24.8	0.00e+00	0	41	0	2578448384	45	4145
2026-01-30 00:54:48.52	116.96	24.21	-37.5	-38.3	24.6	0.00e+00	0	42	0	2584739840	45	4209
2026-01-30 00:54:49.53	117.22	24.14	-37.5	-38.3	24.5	0.00e+00	0	42	0	2589982720	45	4223
2026-01-30 00:54:50.54	117.47	24.07	-37.5	-38.3	24.5	0.00e+00	0	42	0	2596274176	45	4236
2026-01-30 00:54:51.55	117.73	24.00	-37.5	-38.3	24.6	0.00e+00	0	42	0	2601517056	45	4222
2026-01-30 00:54:52.55	117.98	23.92	-37.5	-38.3	24.5	0.00e+00	0	42	0	2606759936	45	4234
2026-01-30 00:54:53.56	118.23	23.85	-37.5	-38.3	24.5	0.00e+00	0	42	0	2613051392	45	4217
2026-01-30 00:54:54.56	118.48	23.78	-37.4	-38.2	24.6	0.00e+00	0	42	0	2618294272	45	4171
2026-01-30 00:54:55.57	118.73	23.71	-37.3	-38.1	24.8	0.00e+00	0	41	0	2623537152	45	4112
2026-01-30 00:54:56.58	118.98	23.63	-37.3	-38.0	24.8	0.00e+00	0	42	0	2629828608	45	4079
2026-01-30 00:54:57.59	119.23	23.56	-37.3	-38.0	24.8	0.00e+00	0	41	0	2635071488	45	4091
2026-01-30 00:54:58.60	119.48	23.48	-37.4	-38.2	24.7	0.00e+00	0	41	0	2641362944	45	4169
2026-01-30 00:54:59.60	119.72	23.41	-37.6	-38.4	24.5	0.00e+00	0	42	0	2646605824	45	4244
2026-01-30 00:55:00.60	119.96	23.33	-37.7	-38.5	24.5	0.00e+00	0	42	0	2651848704	45	4303
2026-01-30 00:55:01.61	120.21	23.26	-37.5	-38.3	24.6	0.00e+00	0	42	0	2658140160	45	4229
2026-01-30 00:55:02.62	120.45	23.18	-37.5	-38.3	24.6	0.00e+00	0	42	0	2664431616	45	4212
2026-01-30 00:55:03.63	120.69	23.11	-37.6	-38.3	24.6	0.00e+00	0	42	0	2669674496	45	4232
2026-01-30 00:55:04.64	120.93	23.03	-37.5	-38.3	24.7	0.00e+00	0	41	0	2674917376	45	4197
2026-01-30 00:55:05.65	121.17	22.95	-37.4	-38.2	24.7	0.00e+00	0	41	0	2681208832	45	4171
2026-01-30 00:55:06.65	121.41	22.88	-37.5	-38.3	24.6	0.00e+00	0	41	0	2686451712	45	4203
2026-01-30 00:55:07.65	121.64	22.80	-37.5	-38.3	24.5	0.00e+00	0	42	0	2691694592	45	4231
2026-01-30 00:55:08.66	121.88	22.72	-37.5	-38.3	24.6	0.00e+00	0	42	0	2697986048	45	4213
2026-01-30 00:55:09.67	122.11	22.65	-37.5	-38.3	24.5	0.00e+00	0	42	0	2703228928	45	4228
2026-01-30 00:55:10.68	122.34	22.57	-37.5	-38.3	24.5	0.00e+00	0	41	0	2708471808	45	4227
2026-01-30 00:55:11.68	122.57	22.49	-37.5	-38.3	24.5	0.00e+00	0	42	0	2714763264	45	4232
2026-01-30 00:55:12.68	122.80	22.41	-37.7	-38.5	24.4	0.00e+00	0	41	0	2720006144	45	4292
2026-01-30 00:55:13.69	123.03	22.34	-37.5	-38.3	24.5	0.00e+00	0	41	0	2726297600	45	4211
2026-01-30 00:55:14.70	123.26	22.26	-37.6	-38.3	24.6	0.00e+00	0	42	0	2731540480	45	4230
2026-01-30 00:55:15.70	123.49	22.18	-37.6	-38.3	24.6	0.00e+00	0	41	0	2736783360	45	4222
2026-01-30 00:55:16.71	123.71	22.10	-37.6	-38.3	24.6	0.00e+00	0	41	0	2743074816	45	4216
2026-01-30 00:55:17.72	123.94	22.02	-37.7	-38.4	24.5	0.00e+00	0	41	0	2749366272	45	4276
2026-01-30 00:55:18.73	124.16	21.94	-37.8	-38.6	24.4	0.00e+00	0	41	0	2754609152	46	4132
2026-01-30 00:55:19.73	124.39	21.86	-38.0	-38.8	24.2	0.00e+00	0	41	0	2759852032	46	4226
2026-01-30 00:55:20.74	124.61	21.78	-38.1	-38.9	24.0	0.00e+00	0	41	0	2766143488	46	4285
2026-01-30 00:55:21.74	124.83	21.70	-38.1	-39.0	24.0	0.00e+00	0	42	0	2771386368	46	4305
2026-01-30 00:55:22.75	125.05	21.62	-38.2	-39.0	24.0	0.00e+00	0	41	0	2776629248	47	4082
2026-01-30 00:55:23.75	125.26	21.54	-38.1	-38.9	24.0	0.00e+00	0	42	0	2782920704	47	4051
2026-01-30 00:55:24.76	125.48	21.46	-37.9	-38.7	24.2	0.00e+00	0	41	0	2788163584	47	3947
2026-01-30 00:55:25.77	125.70	21.38	-37.9	-38.7	24.2	0.00e+00	0	41	0	2793406464	47	3940
2026-01-30 00:55:26.77	125.91	21.30	-37.9	-38.7	24.2	0.00e+00	0	41	0	2799697920	47	3940
2026-01-30 00:55:27.78	126.13	21.22	-37.9	-38.7	24.2	0.00e+00	0	41	0	2804940800	47	3941
2026-01-30 00:55:28.78	126.34	21.14	-37.7	-38.5	24.4	0.00e+00	0	41	0	2811232256	47	3827
2026-01-30 00:55:29.79	126.55	21.06	-37.7	-38.5	24.4	0.00e+00	0	41	0	2816475136	47	3832
2026-01-30 00:55:30.80	126.76	20.98	-37.7	-38.5	24.4	0.00e+00	0	41	0	2821718016	47	3849
2026-01-30 00:55:31.81	126.97	20.89	-37.8	-38.6	24.3	0.00e+00	0	41	0	2828009472	47	3876
2026-01-30 00:55:32.82	127.18	20.81	-37.9	-38.7	24.2	0.00e+00	0	42	0	2834300928	47	3916
2026-01-30 00:55:33.82	127.39	20.73	-37.8	-38.6	24.2	0.00e+00	0	41	0	2839543808	47	3892
2026-01-30 00:55:34.83	127.59	20.65	-37.9	-38.7	24.1	0.00e+00	0	41	0	2844786688	47	3939
2026-01-30 00:55:35.83	127.80	20.57	-37.8	-38.6	24.2	0.00e+00	0	42	0	2851078144	47	3896
2026-01-30 00:55:36.84	128.00	20.49	-37.8	-38.6	24.2	0.00e+00	0	41	0	2856321024	47	3889
2026-01-30 00:55:37.85	128.20	20.40	-37.9	-38.7	24.1	0.00e+00	0	41	0	2861563904	47	3950
2026-01-30 00:55:38.85	128.41	20.32	-37.9	-38.6	24.1	0.00e+00	0	42	0	2867855360	47	3911
2026-01-30 00:55:39.86	128.61	20.24	-37.9	-38.7	24.1	0.00e+00	0	41	0	2873098240	47	3918
2026-01-30 00:55:40.86	128.81	20.16	-38.0	-38.8	24.0	0.00e+00	0	42	0	2878341120	47	3973
2026-01-30 00:55:41.87	129.01	20.08	-38.0	-38.8	24.0	0.00e+00	0	41	0	2884632576	47	3986
2026-01-30 00:55:42.88	129.20	19.99	-38.1	-38.9	24.0	0.00e+00	0	42	0	2889875456	47	4008
2026-01-30 00:55:43.88	129.40	19.91	-38.0	-38.8	24.0	0.00e+00	0	42	0	2896166912	47	3989
2026-01-30 00:55:44.89	129.60	19.83	-38.0	-38.8	24.0	0.00e+00	0	42	0	2901409792	47	3986
2026-01-30 00:55:45.90	129.79	19.75	-38.1	-38.9	23.9	0.00e+00	0	41	0	2906652672	47	4017
2026-01-30 00:55:46.91	129.99	19.66	-38.2	-39.0	23.8	0.00e+00	0	42	0	2912944128	47	4061
2026-01-30 00:55:47.91	130.18	19.58	-38.2	-39.0	23.8	0.00e+00	0	41	0	2918187008	47	4063
2026-01-30 00:55:48.91	130.37	19.50	-38.2	-39.1	23.8	0.00e+00	0	42	0	2923429888	47	4099
2026-01-30 00:55:49.92	130.56	19.42	-38.3	-39.1	23.6	0.00e+00	0	41	0	2929721344	47	4133
2026-01-30 00:55:50.92	130.75	19.33	-38.4	-39.2	23.6	0.00e+00	0	42	0	2936012800	47	4166
2026-01-30 00:55:51.93	130.94	19.25	-38.4	-39.3	23.6	0.00e+00	0	41	0	2941255680	47	4199
2026-01-30 00:55:52.94	131.12	19.17	-38.3	-39.1	23.7	0.00e+00	0	41	0	2946498560	47	4126
2026-01-30 00:55:53.95	131.31	19.09	-38.3	-39.1	23.6	0.00e+00	0	41	0	2952790016	47	4135
2026-01-30 00:55:54.95	131.50	19.00	-38.3	-39.2	23.6	0.00e+00	0	41	0	2958032896	47	4147
2026-01-30 00:55:55.96	131.68	18.92	-38.3	-39.1	23.6	0.00e+00	0	41	0	2963275776	47	4137
2026-01-30 00:55:56.97	131.87	18.84	-38.4	-39.2	23.5	0.00e+00	0	41	0	2969567232	47	4180
2026-01-30 00:55:57.97	132.05	18.75	-38.4	-39.2	23.5	0.00e+00	0	42	0	2974810112	47	4186
2026-01-30 00:55:58.98	132.23	18.67	-38.3	-39.2	23.6	0.00e+00	0	42	0	2981101568	47	4146
2026-01-30 00:55:59.99	132.41	18.59	-38.3	-39.1	23.6	0.00e+00	0	41	0	2986344448	47	4132
2026-01-30 00:56:00.99	132.59	18.51	-38.3	-39.2	23.6	0.00e+00	0	42	0	2991587328	47	4146
2026-01-30 00:56:02.00	132.77	18.42	-38.3	-39.1	23.7	0.00e+00	0	41	0	2997878784	47	4124
2026-01-30 00:56:03.01	132.95	18.34	-38.3	-39.2	23.6	0.00e+00	0	42	0	3003121664	47	4146
2026-01-30 00:56:04.01	133.13	18.26	-38.4	-39.3	23.5	0.00e+00	0	41	0	3009413120	47	4199
2026-01-30 00:56:05.02	133.30	18.17	-38.5	-39.3	23.4	0.00e+00	0	41	0	3014656000	47	4228
2026-01-30 00:56:06.02	133.48	18.09	-38.6	-39.4	23.3	0.00e+00	0	42	0	3020947456	47	4277
2026-01-30 00:56:07.03	133.65	18.01	-38.7	-39.5	23.3	0.00e+00	0	41	0	3026190336	47	4330
2026-01-30 00:56:08.04	133.83	17.93	-39.0	-39.8	23.5	0.00e+00	0	41	0	3031433216	48	4211
2026-01-30 00:56:09.04	134.00	17.84	-38.9	-39.7	23.6	0.00e+00	0	41	0	3037724672	48	4185
2026-01-30 00:56:10.05	134.17	17.76	-38.9	-39.7	23.6	0.00e+00	0	42	0	3042967552	48	4170
2026-01-30 00:56:11.06	134.34	17.68	-38.8	-39.6	23.7	0.00e+00	0	42	0	3048210432	48	4123
2026-01-30 00:56:12.07	134.51	17.60	-38.8	-39.5	23.7	0.00e+00	0	42	0	3054501888	48	4094
2026-01-30 00:56:13.07	134.68	17.51	-38.7	-39.5	23.8	0.00e+00	0	42	0	3059744768	48	4054
2026-01-30 00:56:14.08	134.85	17.43	-38.8	-39.5	23.7	0.00e+00	0	42	0	3066036224	48	4094
2026-01-30 00:56:15.09	135.01	17.35	-38.7	-39.5	23.8	0.00e+00	0	41	0	3071279104	48	4067
2026-01-30 00:56:16.10	135.18	17.27	-38.8	-39.6	23.7	0.00e+00	0	42	0	3076521984	48	4111
2026-01-30 00:56:17.10	135.35	17.18	-38.9	-39.7	23.6	0.00e+00	0	41	0	3082813440	48	4159
2026-01-30 00:56:18.11	135.51	17.10	-38.9	-39.7	23.6	0.00e+00	0	41	0	3088056320	48	4176
2026-01-30 00:56:19.12	135.67	17.02	-38.8	-39.6	23.6	0.00e+00	0	41	0	3094347776	48	4130
2026-01-30 00:56:20.12	135.84	16.94	-38.9	-39.7	23.6	0.00e+00	0	41	0	3099590656	48	4149
2026-01-30 00:56:21.13	136.00	16.86	-38.8	-39.5	23.7	0.00e+00	0	42	0	3105882112	48	4098
2026-01-30 00:56:22.14	136.16	16.77	-38.7	-39.5	23.7	0.00e+00	0	42	0	3111124992	48	4081
2026-01-30 00:56:23.14	136.32	16.69	-38.8	-39.6	23.6	0.00e+00	0	41	0	3116367872	48	4134
2026-01-30 00:56:24.15	136.48	16.61	-38.8	-39.6	23.6	0.00e+00	0	42	0	3122659328	48	4135
2026-01-30 00:56:25.16	136.64	16.53	-39.0	-39.8	23.5	0.00e+00	0	41	0	3127902208	48	4201
2026-01-30 00:56:26.17	136.80	16.45	-39.0	-39.8	23.4	0.00e+00	0	42	0	3133145088	48	4227
2026-01-30 00:56:27.17	136.95	16.36	-39.1	-40.0	23.3	0.00e+00	0	42	0	3139436544	48	4302
2026-01-30 00:56:28.18	137.11	16.28	-39.2	-40.0	23.3	0.00e+00	0	41	0	3144679424	49	4067
2026-01-30 00:56:29.19	137.26	16.20	-39.3	-40.1	23.2	0.00e+00	0	42	0	3150970880	49	4112
2026-01-30 00:56:30.19	137.42	16.12	-39.2	-40.0	23.3	0.00e+00	0	42	0	3156213760	49	4070
2026-01-30 00:56:31.20	137.57	16.04	-39.1	-39.9	23.3	0.00e+00	0	42	0	3161456640	49	4046
2026-01-30 00:56:32.20	137.72	15.96	-39.2	-40.0	23.3	0.00e+00	0	42	0	3167748096	49	4060
2026-01-30 00:56:33.21	137.88	15.88	-39.2	-40.0	23.3	0.00e+00	0	42	0	3172990976	49	4073
2026-01-30 00:56:34.22	138.03	15.79	-39.2	-40.0	23.2	0.00e+00	0	42	0	3179282432	49	4084
2026-01-30 00:56:35.22	138.18	15.71	-39.3	-40.1	23.2	0.00e+00	0	41	0	3184525312	49	4117
2026-01-30 00:56:36.23	138.33	15.63	-39.4	-40.2	23.1	0.00e+00	0	42	0	3190816768	49	4180
2026-01-30 00:56:37.24	138.48	15.55	-39.4	-40.2	23.0	0.00e+00	0	41	0	3196059648	49	4190
2026-01-30 00:56:38.24	138.62	15.47	-39.5	-40.3	23.0	0.00e+00	0	41	0	3201302528	49	4235
2026-01-30 00:56:39.25	138.77	15.39	-39.5	-40.3	23.0	0.00e+00	0	41	0	3207593984	49	4213
2026-01-30 00:56:40.25	138.92	15.31	-39.5	-40.4	22.9	0.00e+00	0	41	0	3212836864	49	4252
2026-01-30 00:56:41.26	139.06	15.23	-39.5	-40.4	22.9	0.00e+00	0	42	0	3218079744	49	4243
2026-01-30 00:56:42.27	139.21	15.15	-39.5	-40.4	22.9	0.00e+00	0	41	0	3224371200	49	4246
2026-01-30 00:56:43.27	139.35	15.07	-39.6	-40.5	22.9	0.00e+00	0	42	0	3229614080	49	4301
2026-01-30 00:56:44.28	139.50	14.99	-39.7	-40.6	22.7	0.00e+00	0	42	0	3235905536	50	4120
2026-01-30 00:56:45.29	139.64	14.91	-39.7	-40.6	22.7	0.00e+00	0	42	0	3241148416	50	4106
2026-01-30 00:56:46.30	139.78	14.83	-39.7	-40.6	22.7	0.00e+00	0	42	0	3246391296	50	4116
2026-01-30 00:56:47.30	139.92	14.75	-39.8	-40.6	22.7	0.00e+00	0	41	0	3252682752	50	4125
2026-01-30 00:56:48.30	140.06	14.67	-39.7	-40.6	22.7	0.00e+00	0	41	0	3257925632	50	4100
2026-01-30 00:56:49.31	140.20	14.59	-39.6	-40.4	22.9	0.00e+00	0	41	0	3263168512	50	4035
2026-01-30 00:56:50.31	140.34	14.51	-39.6	-40.4	22.8	0.00e+00	0	41	0	3269459968	50	4040
2026-01-30 00:56:51.32	140.48	14.43	-39.7	-40.6	22.7	0.00e+00	0	42	0	3275751424	50	4106
2026-01-30 00:56:52.33	140.62	14.35	-39.4	-40.2	23.0	0.00e+00	0	42	0	3280994304	50	3946
2026-01-30 00:56:53.34	140.76	14.27	-39.4	-40.2	23.0	0.00e+00	0	42	0	3286237184	50	3939
2026-01-30 00:56:54.34	140.89	14.19	-39.4	-40.2	23.0	0.00e+00	0	41	0	3292528640	50	3925
2026-01-30 00:56:55.35	141.03	14.11	-39.5	-40.3	22.9	0.00e+00	0	41	0	3297771520	50	3977
2026-01-30 00:56:56.36	141.16	14.03	-39.5	-40.3	22.9	0.00e+00	0	41	0	3303014400	50	3980
2026-01-30 00:56:57.36	141.30	13.96	-39.6	-40.5	22.8	0.00e+00	0	41	0	3309305856	50	4055
2026-01-30 00:56:58.37	141.43	13.88	-39.6	-40.4	22.9	0.00e+00	0	42	0	3314548736	50	4037
2026-01-30 00:56:59.37	141.56	13.80	-39.6	-40.5	22.8	0.00e+00	0	42	0	3320840192	50	4069
2026-01-30 00:57:00.38	141.69	13.72	-39.6	-40.5	22.8	0.00e+00	0	41	0	3326083072	50	4066
2026-01-30 00:57:01.39	141.83	13.64	-39.7	-40.6	22.7	0.00e+00	0	41	0	3331325952	50	4103
2026-01-30 00:57:02.40	141.96	13.56	-39.6	-40.4	22.8	0.00e+00	0	42	0	3337617408	50	4046
2026-01-30 00:57:03.41	142.09	13.48	-39.6	-40.5	22.8	0.00e+00	0	42	0	3342860288	50	4062
2026-01-30 00:57:04.41	142.22	13.41	-39.6	-40.5	22.8	0.00e+00	0	42	0	3348103168	50	4063
2026-01-30 00:57:05.42	142.35	13.33	-39.7	-40.5	22.7	0.00e+00	0	41	0	3354394624	50	4083
2026-01-30 00:57:06.42	142.47	13.25	-39.6	-40.4	22.8	0.00e+00	0	41	0	3360686080	50	4044
2026-01-30 00:57:07.43	142.60	13.17	-39.5	-40.4	22.8	0.00e+00	0	41	0	3365928960	50	4019
2026-01-30 00:57:08.43	142.73	13.10	-39.6	-40.5	22.8	0.00e+00	0	42	0	3371171840	50	4058
2026-01-30 00:57:09.43	142.85	13.02	-39.6	-40.5	22.8	0.00e+00	0	42	0	3377463296	50	4059
2026-01-30 00:57:10.43	142.98	12.94	-39.7	-40.5	22.7	0.00e+00	0	42	0	3382706176	50	4094
2026-01-30 00:57:11.42	143.10	12.87	-39.7	-40.5	22.7	0.00e+00	0	41	0	3387949056	50	4078
2026-01-30 00:57:12.43	143.23	12.79	-39.8	-40.6	22.6	0.00e+00	0	42	0	3394240512	50	4143
2026-01-30 00:57:13.44	143.35	12.71	-40.0	-40.8	22.5	0.00e+00	0	42	0	3399483392	50	4225
2026-01-30 00:57:14.45	143.47	12.64	-39.8	-40.7	22.6	0.00e+00	0	42	0	3405774848	50	4162
2026-01-30 00:57:15.45	143.59	12.56	-39.8	-40.7	22.5	0.00e+00	0	42	0	3411017728	50	4154
2026-01-30 00:57:16.46	143.72	12.48	-39.9	-40.8	22.5	0.00e+00	0	42	0	3416260608	50	4206
2026-01-30 00:57:17.47	143.84	12.41	-40.0	-40.8	22.4	0.00e+00	0	41	0	3422552064	50	4238
2026-01-30 00:57:18.48	143.96	12.33	-40.0	-40.8	22.4	0.00e+00	0	42	0	3427794944	50	4241
2026-01-30 00:57:19.48	144.08	12.25	-40.1	-40.9	22.3	0.00e+00	0	42	0	3433037824	50	4287
2026-01-30 00:57:20.49	144.20	12.18	-40.0	-40.9	22.3	0.00e+00	0	42	0	3439329280	50	4261
2026-01-30 00:57:21.49	144.32	12.10	-40.1	-41.0	22.2	0.00e+00	0	42	0	3444572160	50	4311
2026-01-30 00:57:22.50	144.44	12.03	-40.1	-40.9	22.3	0.00e+00	0	42	0	3449815040	51	4051
2026-01-30 00:57:23.50	144.55	11.95	-40.0	-40.9	22.3	0.00e+00	0	42	0	3456106496	51	4029
2026-01-30 00:57:24.51	144.67	11.88	-40.1	-40.9	22.3	0.00e+00	0	42	0	3462397952	51	4045
2026-01-30 00:57:25.52	144.79	11.80	-40.0	-40.9	22.3	0.00e+00	0	42	0	3467640832	51	4021
2026-01-30 00:57:26.53	144.90	11.72	-40.1	-41.0	22.3	0.00e+00	0	41	0	3472883712	51	4054
2026-01-30 00:57:27.54	145.02	11.65	-40.1	-40.9	22.3	0.00e+00	0	42	0	3479175168	51	4043
2026-01-30 00:57:28.54	145.13	11.57	-40.2	-41.1	22.2	0.00e+00	0	41	0	3484418048	51	4110
2026-01-30 00:57:29.55	145.25	11.50	-40.3	-41.1	22.1	0.00e+00	0	42	0	3490709504	51	4140
2026-01-30 00:57:30.55	145.36	11.42	-40.2	-41.1	22.2	0.00e+00	0	41	0	3495952384	51	4111
2026-01-30 00:57:31.55	145.47	11.35	-40.2	-41.1	22.1	0.00e+00	0	41	0	3501195264	51	4113
2026-01-30 00:57:32.56	145.59	11.28	-40.3	-41.2	22.0	0.00e+00	0	42	0	3507486720	51	4171
2026-01-30 00:57:33.56	145.70	11.20	-40.4	-41.3	21.9	0.00e+00	0	42	0	3512729600	51	4227
2026-01-30 00:57:34.57	145.81	11.13	-40.4	-41.3	22.0	0.00e+00	0	41	0	3517972480	51	4194
2026-01-30 00:57:35.57	145.92	11.05	-40.5	-41.4	21.8	0.00e+00	0	41	0	3524263936	51	4273
2026-01-30 00:57:36.58	146.03	10.98	-40.4	-41.3	21.9	0.00e+00	0	41	0	3529506816	51	4234
2026-01-30 00:57:37.59	146.14	10.91	-40.6	-41.5	21.7	0.00e+00	0	42	0	3534749696	51	4302
2026-01-30 00:57:38.59	146.25	10.83	-40.5	-41.3	21.8	0.00e+00	0	42	0	3541041152	51	4242
2026-01-30 00:57:39.60	146.36	10.76	-40.4	-41.3	21.9	0.00e+00	0	42	0	3546284032	51	4221
2026-01-30 00:57:40.60	146.47	10.69	-40.5	-41.4	21.8	0.00e+00	0	42	0	3552575488	51	4266
2026-01-30 00:57:41.60	146.57	10.61	-40.4	-41.3	21.8	0.00e+00	0	41	0	3557818368	51	4228
2026-01-30 00:57:42.60	146.68	10.54	-40.5	-41.5	21.7	0.00e+00	0	41	0	3563061248	51	4295
2026-01-30 00:57:43.61	146.79	10.47	-40.6	-41.5	21.7	0.00e+00	0	42	0	3569352704	51	4304
2026-01-30 00:57:44.61	146.89	10.39	-40.5	-41.4	21.8	0.00e+00	0	41	0	3575644160	51	4264
2026-01-30 00:57:45.62	147.00	10.32	-40.6	-41.5	21.7	0.00e+00	0	42	0	3580887040	51	4326
2026-01-30 00:57:46.63	147.11	10.25	-40.7	-41.6	21.5	0.00e+00	0	41	0	3586129920	51	4389
2026-01-30 00:57:47.64	147.21	10.18	-40.6	-41.6	21.5	0.00e+00	0	42	0	3592421376	52	4100
2026-01-30 00:57:48.65	147.32	10.10	-40.6	-41.5	21.6	0.00e+00	0	41	0	3597664256	52	4061
2026-01-30 00:57:49.65	147.42	10.03	-40.5	-41.5	21.6	0.00e+00	0	42	0	3602907136	52	4055
2026-01-30 00:57:50.66	147.52	9.96	-40.7	-41.6	21.5	0.00e+00	0	41	0	3609198592	52	4134
2026-01-30 00:57:51.67	147.63	9.89	-40.7	-41.6	21.4	0.00e+00	0	42	0	3614441472	52	4127
2026-01-30 00:57:52.68	147.73	9.81	-40.7	-41.6	21.4	0.00e+00	0	41	0	3619684352	52	4125
2026-01-30 00:57:53.68	147.83	9.74	-40.7	-41.6	21.4	0.00e+00	0	41	0	3625975808	52	4135
2026-01-30 00:57:54.69	147.93	9.67	-40.8	-41.8	21.3	0.00e+00	0	41	0	3631218688	52	4203
2026-01-30 00:57:55.70	148.03	9.60	-40.8	-41.7	21.3	0.00e+00	0	41	0	3637510144	52	4190
2026-01-30 00:57:56.70	148.13	9.53	-40.8	-41.7	21.4	0.00e+00	0	41	0	3642753024	52	4166
2026-01-30 00:57:57.71	148.23	9.46	-40.7	-41.7	21.4	0.00e+00	0	41	0	3647995904	52	4150
2026-01-30 00:57:58.72	148.33	9.39	-40.9	-41.8	21.2	0.00e+00	0	41	0	3654287360	52	4231
2026-01-30 00:57:59.72	148.43	9.32	-40.8	-41.7	21.4	0.00e+00	0	42	0	3660578816	52	4153
2026-01-30 00:58:00.73	148.53	9.24	-40.7	-41.6	21.4	0.00e+00	0	42	0	3665821696	52	4143
2026-01-30 00:58:01.74	148.63	9.17	-40.8	-41.7	21.4	0.00e+00	0	41	0	3671064576	52	4164
2026-01-30 00:58:02.74	148.73	9.10	-40.8	-41.7	21.3	0.00e+00	0	41	0	3677356032	52	4168
2026-01-30 00:58:03.75	148.82	9.03	-40.7	-41.6	21.4	0.00e+00	0	41	0	3682598912	52	4135
