passes_logs/2026/01/30/R3.2S_Murmansk/R3.2S_Murmansk__20260130_015107_NOAA_20_JPSS-1_rec.log

#Pass ID: 20260130_015107_NOAA 20 (JPSS-1)
#Satellite: NOAA 20 (JPSS-1)
#Configuration: NOAA 20
#almurnet v.1.7.20251203
#Start time: 2026-01-30 01:51:09

#Version: 2.2.20231116
#Station: R3.2S_Murmansk
#Location: 33.079688 lon 68.888172 lat
#TLE: 1 43013U 17073A   26029.42702672  .00000137  00000+0  85918-4 0  9993
#TLE: 2 43013  98.7646 330.2153 0000804  19.9045 340.2162 14.19525092424781

#Time	Az	El	Level	Level2	SNR	BER	BlckErr	Temp	State	Recorded	gain1	gain2
2026-01-30 01:51:09.64	29.83	2.13	-53.9	-68.9	3.8	1.49e+00	0	39	0	0	79	20198
2026-01-30 01:51:10.64	29.81	2.19	-54.2	-69.2	3.8	1.49e+00	0	39	104	0	78	22067
2026-01-30 01:51:11.65	29.78	2.26	-54.1	-69.2	3.8	1.49e+00	0	39	104	0	78	22018
2026-01-30 01:51:12.65	29.76	2.32	-54.2	-69.1	3.8	1.49e+00	0	39	104	0	78	21964
2026-01-30 01:51:13.66	29.73	2.39	-54.2	-69.2	3.8	1.49e+00	0	40	104	0	78	22033
2026-01-30 01:51:14.67	29.71	2.45	-54.2	-69.1	3.8	1.49e+00	0	39	104	0	78	21994
2026-01-30 01:51:15.67	29.68	2.51	-54.1	-69.1	3.8	1.49e+00	0	39	104	0	78	21900
2026-01-30 01:51:16.68	29.65	2.58	-54.1	-69.1	3.8	1.49e+00	0	39	104	0	78	21837
2026-01-30 01:51:17.68	29.63	2.64	-54.1	-69.0	3.8	1.49e+00	0	40	104	0	78	21729
2026-01-30 01:51:18.69	29.60	2.71	-54.1	-69.1	3.8	1.49e+00	0	39	104	0	78	21764
2026-01-30 01:51:19.70	29.57	2.77	-54.1	-69.1	3.8	1.49e+00	0	40	104	0	78	21839
2026-01-30 01:51:20.70	29.55	2.84	-54.1	-69.1	3.8	1.49e+00	0	40	104	0	78	21816
2026-01-30 01:51:21.71	29.52	2.90	-54.0	-69.0	3.8	1.49e+00	0	39	104	0	78	21747
2026-01-30 01:51:22.72	29.50	2.97	-54.0	-68.9	3.8	1.49e+00	0	40	104	0	78	21506
2026-01-30 01:51:23.72	29.47	3.03	-53.9	-68.9	3.8	1.49e+00	0	39	104	0	78	21323
2026-01-30 01:51:24.73	29.44	3.10	-53.8	-68.7	3.8	1.49e+00	0	40	104	0	78	20988
2026-01-30 01:51:25.74	29.41	3.16	-53.6	-68.6	3.8	1.49e+00	0	40	104	0	78	20662
2026-01-30 01:51:26.74	29.39	3.23	-53.5	-68.5	3.8	1.49e+00	0	40	104	0	78	20338
2026-01-30 01:51:27.75	29.36	3.30	-53.3	-68.3	3.8	1.49e+00	0	40	104	0	78	19903
2026-01-30 01:51:28.76	29.33	3.36	-53.1	-68.1	3.8	1.49e+00	0	40	104	0	78	19392
2026-01-30 01:51:29.77	29.30	3.43	-52.8	-67.7	3.8	1.49e+00	0	40	104	0	77	19820
2026-01-30 01:51:30.77	29.28	3.49	-52.3	-67.2	3.8	1.49e+00	0	40	104	0	76	19834
2026-01-30 01:51:31.78	29.25	3.56	-52.0	-66.8	3.8	1.49e+00	0	40	104	0	76	18862
2026-01-30 01:51:32.79	29.22	3.63	-51.9	-66.7	3.8	1.49e+00	0	40	104	0	75	19672
2026-01-30 01:51:33.79	29.19	3.69	-51.9	-66.5	3.8	1.49e+00	0	40	104	0	75	19337
2026-01-30 01:51:34.80	29.16	3.76	-51.9	-66.2	3.8	1.49e+00	0	40	104	0	75	18633
2026-01-30 01:51:35.81	29.13	3.83	-51.9	-65.8	3.8	1.49e+00	0	40	104	0	75	17852
2026-01-30 01:51:36.81	29.11	3.90	-51.8	-65.6	3.8	1.49e+00	0	40	104	0	75	17315
2026-01-30 01:51:37.82	29.08	3.96	-51.8	-65.6	3.8	1.49e+00	0	40	104	0	75	17450
2026-01-30 01:51:38.83	29.05	4.03	-51.8	-65.7	3.8	1.49e+00	0	40	104	0	75	17664
2026-01-30 01:51:39.83	29.02	4.10	-51.8	-65.8	3.8	1.49e+00	0	40	104	0	75	17738
2026-01-30 01:51:40.84	28.99	4.17	-51.8	-66.0	3.8	1.49e+00	0	40	104	0	75	18156
2026-01-30 01:51:41.85	28.96	4.24	-51.8	-65.9	3.8	1.49e+00	0	40	104	0	75	17935
2026-01-30 01:51:42.85	28.93	4.30	-51.8	-65.2	3.8	1.49e+00	0	40	104	0	75	16660
2026-01-30 01:51:43.86	28.90	4.37	-51.7	-63.9	3.9	1.48e+00	0	40	104	0	75	14352
2026-01-30 01:51:44.86	28.87	4.44	-51.6	-62.2	4.6	1.30e+00	3	40	0	0	75	11721
2026-01-30 01:51:45.87	28.84	4.51	-51.4	-60.4	5.6	6.27e-01	0	40	0	2097152	74	10070
2026-01-30 01:51:46.88	28.81	4.58	-51.0	-58.4	7.1	2.86e-01	0	40	0	4194304	74	8052
2026-01-30 01:51:47.89	28.78	4.65	-50.8	-57.4	8.1	7.75e-02	0	40	0	5242880	73	7618
2026-01-30 01:51:48.89	28.75	4.72	-50.5	-56.3	9.2	2.97e-02	0	40	0	7340032	73	6716
2026-01-30 01:51:49.90	28.72	4.79	-50.2	-55.4	10.2	1.27e-02	0	40	0	9437184	72	6402
2026-01-30 01:51:50.91	28.69	4.86	-50.0	-54.7	11.0	3.42e-03	0	40	0	11534336	71	6243
2026-01-30 01:51:51.91	28.66	4.93	-49.8	-54.2	11.5	1.43e-03	0	40	0	12582912	71	5892
2026-01-30 01:51:52.92	28.62	5.00	-49.8	-54.1	11.6	4.51e-04	0	40	0	14680064	71	5823
2026-01-30 01:51:53.93	28.59	5.07	-49.8	-54.1	11.7	8.05e-04	0	40	0	16777216	71	5824
2026-01-30 01:51:54.93	28.56	5.14	-51.4	-59.7	6.2	7.02e-02	0	41	0	18874368	73	9894
2026-01-30 01:51:55.93	28.53	5.21	-51.0	-58.6	7.1	1.03e-02	0	40	0	20971520	72	9244
2026-01-30 01:51:56.95	28.50	5.28	-45.8	-47.4	18.4	5.29e-02	0	40	0	23068672	63	4280
2026-01-30 01:51:57.96	28.46	5.35	-51.7	-65.7	3.8	7.26e-01	0	40	104	24117248	74	18564
2026-01-30 01:51:58.96	28.43	5.42	-46.1	-47.8	17.5	9.14e-01	0	40	104	24117248	64	4225
2026-01-30 01:51:59.97	28.40	5.49	-45.6	-47.2	18.7	0.00e+00	0	40	0	25165824	63	4178
2026-01-30 01:52:00.97	28.37	5.56	-45.6	-47.2	18.7	0.00e+00	0	40	0	27262976	63	4186
2026-01-30 01:52:01.98	28.33	5.63	-45.3	-46.8	19.1	0.00e+00	0	40	0	29360128	62	4239
2026-01-30 01:52:02.99	28.30	5.71	-45.7	-47.3	18.7	0.00e+00	0	40	0	31457280	62	4464
2026-01-30 01:52:03.99	28.27	5.78	-45.4	-47.0	18.9	0.00e+00	0	40	0	33554432	62	4329
2026-01-30 01:52:05.00	28.23	5.85	-45.4	-46.9	19.0	0.00e+00	0	40	0	34603008	62	4285
2026-01-30 01:52:06.01	28.20	5.92	-45.5	-47.0	18.9	0.00e+00	0	40	0	36700160	62	4340
2026-01-30 01:52:07.01	28.17	5.99	-45.5	-47.0	18.9	0.00e+00	0	41	0	38797312	62	4330
2026-01-30 01:52:08.02	28.13	6.07	-45.6	-47.2	18.8	0.00e+00	0	40	0	40894464	62	4437
2026-01-30 01:52:09.03	28.10	6.14	-45.5	-47.1	19.0	0.00e+00	0	40	0	41943040	62	4351
2026-01-30 01:52:10.04	28.06	6.21	-45.6	-47.2	18.8	0.00e+00	0	41	0	44040192	62	4418
2026-01-30 01:52:11.04	28.03	6.29	-45.4	-46.9	19.1	0.00e+00	0	40	0	46137344	62	4290
2026-01-30 01:52:12.04	28.00	6.36	-45.3	-46.8	19.3	0.00e+00	0	41	0	48234496	62	4210
2026-01-30 01:52:13.05	27.96	6.43	-45.2	-46.7	19.3	0.00e+00	0	40	0	50331648	62	4161
2026-01-30 01:52:14.05	27.93	6.51	-45.2	-46.7	19.4	0.00e+00	0	40	0	52428800	62	4174
2026-01-30 01:52:15.06	27.89	6.58	-45.2	-46.7	19.4	0.00e+00	0	41	0	53477376	62	4177
2026-01-30 01:52:16.07	27.85	6.66	-45.1	-46.5	19.6	0.00e+00	0	41	0	55574528	62	4085
2026-01-30 01:52:17.07	27.82	6.73	-45.2	-46.7	19.4	0.00e+00	0	41	0	57671680	62	4167
2026-01-30 01:52:18.07	27.78	6.80	-45.2	-46.7	19.5	0.00e+00	0	41	0	59768832	62	4156
2026-01-30 01:52:19.07	27.75	6.88	-45.3	-46.8	19.3	0.00e+00	0	41	0	61865984	62	4218
2026-01-30 01:52:20.08	27.71	6.95	-45.1	-46.5	19.6	0.00e+00	0	41	0	62914560	62	4085
2026-01-30 01:52:21.08	27.67	7.03	-45.1	-46.5	19.6	0.00e+00	0	41	0	65011712	62	4092
2026-01-30 01:52:22.09	27.64	7.10	-45.0	-46.4	19.7	0.00e+00	0	41	0	67108864	61	4264
2026-01-30 01:52:23.09	27.60	7.18	-45.2	-46.6	19.6	0.00e+00	0	41	0	69206016	61	4374
2026-01-30 01:52:24.10	27.56	7.26	-45.3	-46.7	19.4	0.00e+00	0	41	0	70254592	61	4440
2026-01-30 01:52:25.11	27.52	7.33	-45.0	-46.5	19.7	0.00e+00	0	41	0	72351744	61	4301
2026-01-30 01:52:26.11	27.49	7.41	-45.2	-46.6	19.5	0.00e+00	0	41	0	74448896	61	4388
2026-01-30 01:52:27.12	27.45	7.49	-45.0	-46.4	19.8	0.00e+00	0	41	0	76546048	61	4280
2026-01-30 01:52:28.13	27.41	7.56	-45.0	-46.4	19.8	0.00e+00	0	41	0	78643200	61	4250
2026-01-30 01:52:29.14	27.37	7.64	-45.0	-46.5	19.8	0.00e+00	0	41	0	80740352	61	4294
2026-01-30 01:52:30.15	27.33	7.72	-45.2	-46.6	19.6	0.00e+00	0	41	0	81788928	61	4375
2026-01-30 01:52:31.16	27.30	7.79	-45.2	-46.7	19.6	0.00e+00	0	41	0	83886080	61	4396
2026-01-30 01:52:32.16	27.26	7.87	-44.9	-46.3	19.9	0.00e+00	0	41	0	85983232	61	4219
2026-01-30 01:52:33.17	27.22	7.95	-44.8	-46.1	20.0	0.00e+00	0	41	0	88080384	61	4141
2026-01-30 01:52:34.18	27.18	8.03	-44.9	-46.3	20.0	0.00e+00	0	41	0	90177536	61	4212
2026-01-30 01:52:35.18	27.14	8.11	-44.9	-46.3	19.9	0.00e+00	0	41	0	91226112	61	4210
2026-01-30 01:52:36.19	27.10	8.19	-44.9	-46.3	19.9	0.00e+00	0	41	0	93323264	61	4213
2026-01-30 01:52:37.20	27.06	8.26	-44.9	-46.3	20.0	0.00e+00	0	41	0	95420416	61	4216
2026-01-30 01:52:38.20	27.02	8.34	-45.0	-46.4	19.8	0.00e+00	0	41	0	97517568	61	4282
2026-01-30 01:52:39.21	26.98	8.42	-45.0	-46.4	19.8	0.00e+00	0	41	0	98566144	61	4288
2026-01-30 01:52:40.21	26.94	8.50	-45.1	-46.5	19.7	0.00e+00	0	41	0	100663296	61	4329
2026-01-30 01:52:41.22	26.89	8.58	-45.0	-46.4	19.9	0.00e+00	0	41	0	102760448	61	4275
2026-01-30 01:52:42.23	26.85	8.66	-45.0	-46.3	19.9	0.00e+00	0	41	0	104857600	61	4240
2026-01-30 01:52:43.23	26.81	8.74	-44.9	-46.3	20.0	0.00e+00	0	41	0	106954752	61	4210
2026-01-30 01:52:44.24	26.77	8.82	-44.9	-46.3	20.1	0.00e+00	0	41	0	108003328	61	4201
2026-01-30 01:52:45.25	26.73	8.90	-44.8	-46.2	20.1	0.00e+00	0	41	0	110100480	61	4166
2026-01-30 01:52:46.25	26.68	8.98	-44.8	-46.1	20.2	0.00e+00	0	41	0	112197632	61	4136
2026-01-30 01:52:47.26	26.64	9.06	-44.7	-46.1	20.3	0.00e+00	0	41	0	114294784	61	4101
2026-01-30 01:52:48.27	26.60	9.15	-44.8	-46.2	20.2	0.00e+00	0	41	0	116391936	61	4154
2026-01-30 01:52:49.28	26.56	9.23	-44.7	-46.1	20.3	0.00e+00	0	41	0	118489088	61	4101
2026-01-30 01:52:50.28	26.51	9.31	-44.8	-46.1	20.3	0.00e+00	0	41	0	119537664	61	4121
2026-01-30 01:52:51.29	26.47	9.39	-44.6	-45.9	20.4	0.00e+00	0	41	0	121634816	61	4050
2026-01-30 01:52:52.29	26.42	9.47	-44.7	-46.0	20.4	0.00e+00	0	41	0	123731968	61	4064
2026-01-30 01:52:53.30	26.38	9.56	-44.7	-46.0	20.4	0.00e+00	0	41	0	125829120	61	4057
2026-01-30 01:52:54.31	26.34	9.64	-44.7	-46.0	20.4	0.00e+00	0	41	0	126877696	61	4056
2026-01-30 01:52:55.31	26.29	9.72	-44.7	-46.1	20.3	0.00e+00	0	41	0	128974848	61	4108
2026-01-30 01:52:56.32	26.25	9.81	-44.7	-46.0	20.4	0.00e+00	0	41	0	131072000	61	4091
2026-01-30 01:52:57.33	26.20	9.89	-44.7	-46.0	20.4	0.00e+00	0	41	0	133169152	61	4074
2026-01-30 01:52:58.34	26.15	9.98	-44.7	-46.0	20.4	0.00e+00	0	41	0	135266304	61	4084
2026-01-30 01:52:59.35	26.11	10.06	-44.7	-46.0	20.4	0.00e+00	0	41	0	137363456	61	4063
2026-01-30 01:53:00.36	26.06	10.14	-44.6	-45.8	20.5	0.00e+00	0	41	0	138412032	61	4002
2026-01-30 01:53:01.36	26.01	10.23	-44.7	-46.0	20.4	0.00e+00	0	41	0	140509184	61	4082
2026-01-30 01:53:02.37	25.97	10.31	-44.7	-46.0	20.4	0.00e+00	0	41	0	142606336	61	4062
2026-01-30 01:53:03.37	25.92	10.40	-44.5	-45.8	20.6	0.00e+00	0	41	0	144703488	61	3986
2026-01-30 01:53:04.38	25.87	10.49	-44.5	-45.8	20.6	0.00e+00	0	41	0	146800640	61	3992
2026-01-30 01:53:05.39	25.83	10.57	-44.5	-45.8	20.6	0.00e+00	0	41	0	147849216	61	3994
2026-01-30 01:53:06.39	25.78	10.66	-44.6	-45.8	20.6	0.00e+00	0	41	0	149946368	61	3996
2026-01-30 01:53:07.39	25.73	10.74	-44.6	-45.9	20.5	0.00e+00	0	41	0	152043520	61	4029
2026-01-30 01:53:08.40	25.68	10.83	-44.6	-45.9	20.6	0.00e+00	0	41	0	154140672	61	4011
2026-01-30 01:53:09.40	25.63	10.92	-44.4	-45.6	20.8	0.00e+00	0	41	0	155189248	60	4140
2026-01-30 01:53:10.40	25.58	11.00	-44.5	-45.7	20.7	0.00e+00	0	41	0	157286400	60	4172
2026-01-30 01:53:11.41	25.53	11.09	-44.5	-45.8	20.7	0.00e+00	0	41	0	159383552	60	4226
2026-01-30 01:53:12.42	25.48	11.18	-44.5	-45.8	20.7	0.00e+00	0	41	0	161480704	60	4222
2026-01-30 01:53:13.43	25.43	11.27	-44.6	-45.9	20.6	0.00e+00	0	41	0	163577856	60	4246
2026-01-30 01:53:14.44	25.38	11.36	-44.5	-45.8	20.7	0.00e+00	0	41	0	164626432	60	4205
2026-01-30 01:53:15.45	25.33	11.45	-44.5	-45.8	20.7	0.00e+00	0	41	0	166723584	60	4197
2026-01-30 01:53:16.45	25.28	11.53	-44.5	-45.7	20.8	0.00e+00	0	41	0	168820736	60	4171
2026-01-30 01:53:17.46	25.23	11.62	-44.4	-45.7	20.8	0.00e+00	0	41	0	170917888	60	4166
2026-01-30 01:53:18.47	25.18	11.71	-44.5	-45.8	20.7	0.00e+00	0	41	0	173015040	60	4213
2026-01-30 01:53:19.47	25.12	11.80	-44.5	-45.7	20.7	0.00e+00	0	41	0	175112192	60	4189
2026-01-30 01:53:20.48	25.07	11.89	-44.4	-45.7	20.8	0.00e+00	0	41	0	176160768	60	4155
2026-01-30 01:53:21.49	25.02	11.98	-44.5	-45.8	20.7	0.00e+00	0	41	0	178257920	60	4195
2026-01-30 01:53:22.49	24.96	12.08	-44.6	-45.8	20.7	0.00e+00	0	41	0	180355072	60	4233
2026-01-30 01:53:23.50	24.91	12.17	-44.4	-45.6	20.9	0.00e+00	0	41	0	182452224	60	4137
2026-01-30 01:53:24.51	24.86	12.26	-44.4	-45.7	20.8	0.00e+00	0	41	0	183500800	60	4146
2026-01-30 01:53:25.52	24.80	12.35	-44.4	-45.6	20.9	0.00e+00	0	41	0	185597952	60	4139
2026-01-30 01:53:26.52	24.75	12.44	-44.4	-45.7	20.8	0.00e+00	0	41	0	187695104	60	4158
2026-01-30 01:53:27.53	24.69	12.54	-44.4	-45.6	20.9	0.00e+00	0	41	0	189792256	60	4119
2026-01-30 01:53:28.53	24.64	12.63	-44.3	-45.6	21.0	0.00e+00	0	41	0	191889408	60	4100
2026-01-30 01:53:29.54	24.58	12.72	-44.3	-45.5	21.0	0.00e+00	0	41	0	193986560	60	4091
2026-01-30 01:53:30.55	24.52	12.81	-44.3	-45.5	21.0	0.00e+00	0	41	0	195035136	60	4072
2026-01-30 01:53:31.56	24.47	12.91	-44.3	-45.5	21.0	0.00e+00	0	41	0	197132288	60	4072
2026-01-30 01:53:32.56	24.41	13.00	-44.4	-45.6	21.0	0.00e+00	0	41	0	199229440	60	4111
2026-01-30 01:53:33.57	24.35	13.10	-44.3	-45.5	21.0	0.00e+00	0	41	0	201326592	60	4085
2026-01-30 01:53:34.58	24.30	13.19	-44.2	-45.4	21.1	0.00e+00	0	41	0	203423744	60	4041
2026-01-30 01:53:35.59	24.24	13.29	-44.3	-45.5	21.1	0.00e+00	0	41	0	204472320	60	4063
2026-01-30 01:53:36.59	24.18	13.38	-44.2	-45.4	21.1	0.00e+00	0	41	0	206569472	60	4040
2026-01-30 01:53:37.60	24.12	13.48	-44.2	-45.4	21.2	0.00e+00	0	41	0	208666624	60	4027
2026-01-30 01:53:38.61	24.06	13.58	-44.3	-45.5	21.1	0.00e+00	0	41	0	210763776	60	4065
2026-01-30 01:53:39.61	24.00	13.67	-44.2	-45.4	21.2	0.00e+00	0	41	0	211812352	60	4027
2026-01-30 01:53:40.62	23.94	13.77	-44.2	-45.4	21.1	0.00e+00	0	41	0	213909504	60	4029
2026-01-30 01:53:41.63	23.88	13.87	-44.3	-45.5	21.1	0.00e+00	0	41	0	216006656	60	4072
2026-01-30 01:53:42.63	23.82	13.96	-44.2	-45.4	21.2	0.00e+00	0	41	0	218103808	60	4028
2026-01-30 01:53:43.64	23.76	14.06	-44.3	-45.5	21.1	0.00e+00	0	41	0	220200960	60	4059
2026-01-30 01:53:44.65	23.69	14.16	-44.2	-45.4	21.2	0.00e+00	0	41	0	222298112	60	4018
2026-01-30 01:53:45.66	23.63	14.26	-44.3	-45.5	21.1	0.00e+00	0	41	0	223346688	60	4075
2026-01-30 01:53:46.66	23.57	14.36	-44.3	-45.4	21.2	0.00e+00	0	41	0	225443840	60	4050
2026-01-30 01:53:47.67	23.51	14.46	-44.2	-45.4	21.3	0.00e+00	0	41	0	227540992	60	4010
2026-01-30 01:53:48.68	23.44	14.56	-44.2	-45.4	21.3	0.00e+00	0	41	0	229638144	60	4006
2026-01-30 01:53:49.68	23.38	14.66	-44.1	-45.3	21.3	0.00e+00	0	41	0	231735296	60	3975
2026-01-30 01:53:50.69	23.31	14.76	-44.1	-45.2	21.4	0.00e+00	0	41	0	232783872	60	3947
2026-01-30 01:53:51.70	23.25	14.86	-44.1	-45.3	21.4	0.00e+00	0	41	0	234881024	60	3968
2026-01-30 01:53:52.71	23.18	14.96	-44.0	-45.2	21.4	0.00e+00	0	41	0	236978176	60	3936
2026-01-30 01:53:53.71	23.12	15.06	-44.1	-45.3	21.3	0.00e+00	0	41	0	239075328	60	3979
2026-01-30 01:53:54.72	23.05	15.16	-44.0	-45.2	21.5	0.00e+00	0	41	0	240123904	60	3915
2026-01-30 01:53:55.73	22.98	15.27	-44.1	-45.2	21.4	0.00e+00	0	41	0	242221056	60	3939
2026-01-30 01:53:56.74	22.91	15.37	-44.0	-45.2	21.5	0.00e+00	0	41	0	244318208	60	3924
2026-01-30 01:53:57.74	22.85	15.47	-44.1	-45.3	21.4	0.00e+00	0	41	0	246415360	60	3983
2026-01-30 01:53:58.75	22.78	15.58	-44.1	-45.2	21.4	0.00e+00	0	41	0	248512512	60	3941
2026-01-30 01:53:59.75	22.71	15.68	-44.3	-45.5	21.5	0.00e+00	0	41	0	250609664	59	4326
2026-01-30 01:54:00.76	22.64	15.78	-44.3	-45.5	21.5	0.00e+00	0	41	0	251658240	59	4323
2026-01-30 01:54:01.77	22.57	15.89	-44.4	-45.6	21.4	0.00e+00	0	41	0	253755392	59	4387
2026-01-30 01:54:02.78	22.50	15.99	-44.5	-45.7	21.3	0.00e+00	0	41	0	255852544	59	4395
2026-01-30 01:54:03.78	22.43	16.10	-44.4	-45.6	21.4	0.00e+00	0	41	0	257949696	59	4373
2026-01-30 01:54:04.79	22.36	16.21	-44.5	-45.6	21.4	0.00e+00	0	41	0	260046848	59	4388
2026-01-30 01:54:05.80	22.28	16.31	-44.4	-45.6	21.4	0.00e+00	0	41	0	261095424	59	4362
2026-01-30 01:54:06.81	22.21	16.42	-44.5	-45.7	21.2	0.00e+00	0	41	0	263192576	59	4413
2026-01-30 01:54:07.81	22.14	16.53	-44.4	-45.6	21.4	0.00e+00	0	41	0	265289728	59	4381
2026-01-30 01:54:08.82	22.06	16.64	-44.5	-45.7	21.4	0.00e+00	0	41	0	267386880	59	4403
2026-01-30 01:54:09.82	21.99	16.74	-44.6	-45.7	21.3	0.00e+00	0	41	0	268435456	59	4440
2026-01-30 01:54:10.82	21.91	16.85	-44.6	-45.8	21.3	0.00e+00	0	41	0	270532608	59	4450
2026-01-30 01:54:11.83	21.84	16.96	-44.5	-45.7	21.3	0.00e+00	0	41	0	272629760	59	4438
2026-01-30 01:54:12.84	21.76	17.07	-44.6	-45.8	21.3	0.00e+00	0	41	0	274726912	59	4443
2026-01-30 01:54:13.85	21.69	17.18	-44.5	-45.7	21.3	0.00e+00	0	41	0	276824064	59	4436
2026-01-30 01:54:14.86	21.61	17.29	-44.6	-45.9	21.2	0.00e+00	0	41	0	278921216	59	4497
2026-01-30 01:54:15.86	21.53	17.40	-44.6	-45.8	21.3	0.00e+00	0	41	0	279969792	59	4464
2026-01-30 01:54:16.87	21.45	17.51	-44.6	-45.8	21.2	0.00e+00	0	41	0	282066944	59	4482
2026-01-30 01:54:17.87	21.37	17.62	-44.5	-45.7	21.3	0.00e+00	0	41	0	284164096	59	4419
2026-01-30 01:54:18.88	21.29	17.74	-44.6	-45.8	21.2	0.00e+00	0	41	0	286261248	59	4467
2026-01-30 01:54:19.89	21.21	17.85	-44.6	-45.7	21.3	0.00e+00	0	41	0	288358400	59	4437
2026-01-30 01:54:20.90	21.13	17.96	-44.6	-45.8	21.3	0.00e+00	0	41	0	289406976	59	4449
2026-01-30 01:54:21.91	21.05	18.08	-44.6	-45.9	21.3	0.00e+00	0	41	0	291504128	59	4495
2026-01-30 01:54:22.91	20.97	18.19	-44.6	-45.8	21.2	0.00e+00	0	41	0	293601280	59	4493
2026-01-30 01:54:23.92	20.88	18.30	-44.3	-45.5	21.3	0.00e+00	0	41	0	295698432	60	4053
2026-01-30 01:54:24.92	20.80	18.42	-44.1	-45.2	21.5	0.00e+00	0	41	0	296747008	60	3952
2026-01-30 01:54:25.92	20.72	18.53	-44.4	-45.6	21.5	0.00e+00	0	41	0	298844160	59	4355
2026-01-30 01:54:26.93	20.63	18.65	-44.5	-45.7	21.4	0.00e+00	0	41	0	300941312	59	4422
2026-01-30 01:54:27.94	20.55	18.76	-44.4	-45.6	21.5	0.00e+00	0	41	0	303038464	59	4357
2026-01-30 01:54:28.95	20.46	18.88	-44.3	-45.5	21.6	0.00e+00	0	41	0	305135616	59	4318
2026-01-30 01:54:29.95	20.37	19.00	-44.5	-45.6	21.5	0.00e+00	0	41	0	307232768	59	4380
2026-01-30 01:54:30.96	20.29	19.12	-44.6	-45.8	21.4	0.00e+00	0	41	0	308281344	59	4452
2026-01-30 01:54:31.97	20.20	19.24	-44.5	-45.7	21.4	0.00e+00	0	41	0	310378496	59	4411
2026-01-30 01:54:32.98	20.11	19.35	-44.5	-45.7	21.4	0.00e+00	0	41	0	312475648	59	4428
2026-01-30 01:54:33.98	20.02	19.47	-44.5	-45.6	21.5	0.00e+00	0	41	0	314572800	59	4388
2026-01-30 01:54:34.99	19.93	19.59	-44.6	-45.8	21.4	0.00e+00	0	41	0	316669952	59	4453
2026-01-30 01:54:36.00	19.84	19.71	-44.6	-45.8	21.4	0.00e+00	0	41	0	317718528	59	4465
2026-01-30 01:54:37.01	19.74	19.83	-44.6	-45.7	21.4	0.00e+00	0	41	0	319815680	59	4439
2026-01-30 01:54:38.01	19.65	19.95	-44.7	-45.9	21.3	0.00e+00	0	41	0	321912832	59	4501
2026-01-30 01:54:39.02	19.56	20.08	-44.4	-45.6	21.3	0.00e+00	0	41	0	324009984	60	4126
2026-01-30 01:54:40.02	19.46	20.20	-44.3	-45.4	21.4	0.00e+00	0	41	0	325058560	60	4042
2026-01-30 01:54:41.03	19.37	20.32	-44.7	-45.8	21.3	0.00e+00	0	41	0	327155712	61	4001
2026-01-30 01:54:42.03	19.27	20.44	-44.6	-45.8	21.1	0.00e+00	0	41	0	329252864	61	3988
2026-01-30 01:54:43.04	19.18	20.57	-44.5	-45.6	21.3	0.00e+00	0	41	0	331350016	60	4144
2026-01-30 01:54:44.05	19.08	20.69	-44.5	-45.7	21.2	0.00e+00	0	41	0	333447168	60	4169
2026-01-30 01:54:45.06	18.98	20.82	-44.5	-45.7	21.0	0.00e+00	0	41	0	335544320	60	4182
2026-01-30 01:54:46.06	18.88	20.94	-44.5	-45.7	21.2	0.00e+00	0	41	0	336592896	60	4166
2026-01-30 01:54:47.07	18.78	21.07	-44.6	-45.8	21.1	0.00e+00	0	41	0	338690048	60	4227
2026-01-30 01:54:48.08	18.68	21.20	-44.7	-46.0	21.0	0.00e+00	0	41	0	340787200	60	4292
2026-01-30 01:54:49.09	18.58	21.32	-44.8	-46.1	20.9	0.00e+00	0	41	0	342884352	60	4351
2026-01-30 01:54:50.10	18.48	21.45	-44.9	-46.1	20.8	0.00e+00	0	41	0	344981504	60	4387
2026-01-30 01:54:51.10	18.37	21.58	-45.0	-46.2	20.8	0.00e+00	0	41	0	346030080	60	4416
2026-01-30 01:54:52.11	18.27	21.71	-45.0	-46.2	20.7	0.00e+00	0	41	0	348127232	60	4429
2026-01-30 01:54:53.11	18.16	21.83	-45.0	-46.2	20.8	0.00e+00	0	41	0	350224384	60	4417
2026-01-30 01:54:54.11	18.06	21.96	-45.1	-46.3	20.7	0.00e+00	0	41	0	352321536	60	4470
2026-01-30 01:54:55.12	17.95	22.09	-45.0	-46.3	20.7	0.00e+00	0	41	0	353370112	60	4454
2026-01-30 01:54:56.13	17.84	22.23	-45.0	-46.3	20.7	0.00e+00	0	41	0	355467264	60	4458
2026-01-30 01:54:57.13	17.73	22.36	-45.1	-46.4	20.6	0.00e+00	0	41	0	357564416	60	4507
2026-01-30 01:54:58.14	17.62	22.49	-45.1	-46.4	20.7	0.00e+00	0	41	0	359661568	60	4515
2026-01-30 01:54:59.15	17.51	22.62	-45.0	-46.3	20.7	0.00e+00	0	41	0	361758720	60	4473
2026-01-30 01:55:00.15	17.40	22.75	-45.1	-46.4	20.7	0.00e+00	0	41	0	363855872	60	4506
2026-01-30 01:55:01.16	17.29	22.89	-45.1	-46.4	20.7	0.00e+00	0	41	0	364904448	60	4497
2026-01-30 01:55:02.17	17.17	23.02	-45.1	-46.4	20.6	0.00e+00	0	41	0	367001600	60	4509
2026-01-30 01:55:03.17	17.06	23.16	-45.2	-46.5	20.6	0.00e+00	0	41	0	369098752	60	4562
2026-01-30 01:55:04.18	16.94	23.29	-45.1	-46.4	20.6	0.00e+00	0	41	0	371195904	60	4529
2026-01-30 01:55:05.19	16.83	23.43	-45.2	-46.5	20.5	0.00e+00	0	41	0	373293056	61	4322
2026-01-30 01:55:06.20	16.71	23.57	-45.3	-46.6	20.5	0.00e+00	0	41	0	374341632	61	4351
2026-01-30 01:55:07.20	16.59	23.70	-45.5	-46.8	20.3	0.00e+00	0	41	0	376438784	61	4464
2026-01-30 01:55:08.21	16.47	23.84	-45.5	-46.8	20.3	0.00e+00	0	41	0	378535936	61	4454
2026-01-30 01:55:09.21	16.35	23.98	-45.6	-46.9	20.1	0.00e+00	0	41	0	380633088	61	4542
2026-01-30 01:55:10.22	16.23	24.12	-45.7	-47.1	20.1	0.00e+00	0	41	0	381681664	61	4610
2026-01-30 01:55:11.22	16.10	24.25	-45.6	-47.0	20.1	0.00e+00	0	41	0	383778816	61	4576
2026-01-30 01:55:12.23	15.98	24.39	-45.7	-47.1	20.0	0.00e+00	0	41	0	385875968	62	4380
2026-01-30 01:55:13.23	15.85	24.53	-45.8	-47.1	20.0	0.00e+00	0	41	0	387973120	62	4384
2026-01-30 01:55:14.24	15.73	24.68	-45.8	-47.2	20.0	0.00e+00	0	41	0	390070272	62	4394
2026-01-30 01:55:15.25	15.60	24.82	-45.9	-47.3	19.8	0.00e+00	0	41	0	392167424	62	4475
2026-01-30 01:55:16.26	15.47	24.96	-45.9	-47.3	19.9	0.00e+00	0	41	0	393216000	62	4451
2026-01-30 01:55:17.26	15.34	25.10	-46.0	-47.4	19.8	0.00e+00	0	41	0	395313152	62	4513
2026-01-30 01:55:18.27	15.21	25.25	-45.9	-47.3	19.8	0.00e+00	0	41	0	397410304	62	4489
2026-01-30 01:55:19.27	15.07	25.39	-46.0	-47.4	19.7	0.00e+00	0	41	0	399507456	62	4535
2026-01-30 01:55:20.28	14.94	25.54	-46.1	-47.5	19.6	0.00e+00	0	41	0	401604608	62	4593
2026-01-30 01:55:21.29	14.80	25.68	-46.1	-47.6	19.6	0.00e+00	0	41	0	402653184	62	4605
2026-01-30 01:55:22.29	14.67	25.83	-46.1	-47.5	19.7	0.00e+00	0	41	0	404750336	62	4572
2026-01-30 01:55:23.30	14.53	25.97	-46.1	-47.6	19.6	0.00e+00	0	41	0	406847488	62	4608
2026-01-30 01:55:24.31	14.39	26.12	-46.2	-47.6	19.5	0.00e+00	0	41	0	408944640	62	4638
2026-01-30 01:55:25.31	14.25	26.27	-46.2	-47.7	19.5	0.00e+00	0	41	0	409993216	63	4397
2026-01-30 01:55:26.32	14.11	26.42	-46.3	-47.8	19.5	0.00e+00	0	41	0	412090368	63	4444
2026-01-30 01:55:27.33	13.96	26.57	-46.3	-47.8	19.5	0.00e+00	0	41	0	414187520	63	4443
2026-01-30 01:55:28.33	13.82	26.72	-46.2	-47.7	19.5	0.00e+00	0	41	0	416284672	63	4416
2026-01-30 01:55:29.34	13.67	26.87	-46.2	-47.7	19.5	0.00e+00	0	41	0	418381824	63	4419
2026-01-30 01:55:30.34	13.53	27.02	-46.0	-47.4	19.8	0.00e+00	0	41	0	419430400	63	4270
2026-01-30 01:55:31.35	13.38	27.17	-46.0	-47.4	19.8	0.00e+00	0	41	0	421527552	63	4243
2026-01-30 01:55:32.36	13.23	27.32	-45.8	-47.1	20.1	0.00e+00	0	41	0	423624704	63	4138
2026-01-30 01:55:33.36	13.07	27.47	-45.9	-47.3	19.9	0.00e+00	0	41	0	425721856	63	4198
2026-01-30 01:55:34.37	12.92	27.63	-46.0	-47.4	19.9	0.00e+00	0	41	0	427819008	63	4247
2026-01-30 01:55:35.38	12.77	27.78	-46.1	-47.5	19.7	0.00e+00	0	41	0	429916160	63	4312
2026-01-30 01:55:36.39	12.61	27.94	-46.0	-47.5	19.8	0.00e+00	0	41	0	430964736	63	4301
2026-01-30 01:55:37.39	12.45	28.09	-46.0	-47.4	19.8	0.00e+00	0	41	0	433061888	63	4278
2026-01-30 01:55:38.40	12.29	28.25	-46.0	-47.4	19.8	0.00e+00	0	41	0	435159040	63	4260
2026-01-30 01:55:39.40	12.13	28.41	-46.0	-47.4	19.9	0.00e+00	0	41	0	437256192	63	4250
2026-01-30 01:55:40.41	11.97	28.56	-46.0	-47.4	19.8	0.00e+00	0	41	0	438304768	63	4244
2026-01-30 01:55:41.42	11.80	28.72	-45.9	-47.3	19.9	0.00e+00	0	41	0	440401920	63	4219
2026-01-30 01:55:42.42	11.64	28.88	-45.8	-47.2	20.1	0.00e+00	0	41	0	442499072	63	4166
2026-01-30 01:55:43.43	11.47	29.04	-45.9	-47.3	19.9	0.00e+00	0	41	0	444596224	63	4210
2026-01-30 01:55:44.43	11.30	29.20	-45.9	-47.3	19.9	0.00e+00	0	41	0	446693376	63	4210
2026-01-30 01:55:45.44	11.13	29.36	-46.0	-47.5	19.8	0.00e+00	0	41	0	447741952	63	4292
2026-01-30 01:55:46.45	10.95	29.52	-46.0	-47.4	19.9	0.00e+00	0	41	0	449839104	63	4252
2026-01-30 01:55:47.45	10.78	29.68	-46.0	-47.4	19.9	0.00e+00	0	41	0	451936256	63	4247
2026-01-30 01:55:48.46	10.60	29.84	-46.0	-47.4	19.9	0.00e+00	0	41	0	454033408	63	4261
2026-01-30 01:55:49.47	10.42	30.01	-46.1	-47.5	19.7	0.00e+00	0	41	0	456130560	63	4333
2026-01-30 01:55:50.48	10.24	30.17	-46.2	-47.6	19.7	0.00e+00	0	41	0	458227712	63	4375
2026-01-30 01:55:51.48	10.06	30.33	-46.4	-47.9	19.4	0.00e+00	0	41	0	459276288	63	4499
2026-01-30 01:55:52.49	9.88	30.50	-46.5	-48.0	19.3	0.00e+00	0	41	0	461373440	63	4547
2026-01-30 01:55:53.50	9.69	30.67	-46.4	-47.9	19.4	0.00e+00	0	41	0	463470592	63	4502
2026-01-30 01:55:54.50	9.50	30.83	-46.5	-48.0	19.3	0.00e+00	0	41	0	465567744	63	4574
2026-01-30 01:55:55.51	9.31	31.00	-46.5	-48.0	19.3	0.00e+00	0	41	0	466616320	63	4575
2026-01-30 01:55:56.52	9.12	31.17	-46.5	-48.0	19.3	0.00e+00	0	41	0	468713472	63	4587
2026-01-30 01:55:57.53	8.93	31.33	-46.6	-48.1	19.3	0.00e+00	0	41	0	470810624	63	4613
2026-01-30 01:55:58.53	8.73	31.50	-46.6	-48.1	19.2	0.00e+00	0	41	0	472907776	63	4628
2026-01-30 01:55:59.54	8.53	31.67	-46.6	-48.2	19.1	0.00e+00	0	41	0	475004928	64	4428
2026-01-30 01:56:00.55	8.33	31.84	-46.8	-48.4	18.8	0.00e+00	0	41	0	477102080	64	4524
2026-01-30 01:56:01.55	8.13	32.01	-46.8	-48.4	18.9	0.00e+00	0	41	0	478150656	64	4511
2026-01-30 01:56:02.56	7.93	32.18	-46.8	-48.4	18.8	0.00e+00	0	41	0	480247808	64	4523
2026-01-30 01:56:03.57	7.72	32.35	-46.8	-48.4	18.9	0.00e+00	0	41	0	482344960	64	4525
2026-01-30 01:56:04.58	7.51	32.52	-46.8	-48.3	19.0	0.00e+00	0	41	0	484442112	64	4475
2026-01-30 01:56:05.59	7.30	32.70	-46.9	-48.5	18.7	0.00e+00	0	41	0	486539264	64	4581
2026-01-30 01:56:06.59	7.08	32.87	-47.0	-48.6	18.6	0.00e+00	0	41	0	487587840	64	4630
2026-01-30 01:56:07.60	6.87	33.04	-47.1	-48.8	18.5	0.00e+00	0	41	0	489684992	64	4724
2026-01-30 01:56:08.60	6.65	33.21	-47.3	-49.0	18.3	0.00e+00	0	41	0	491782144	65	4562
2026-01-30 01:56:09.61	6.43	33.39	-47.2	-48.9	18.4	0.00e+00	0	41	0	493879296	65	4536
2026-01-30 01:56:10.62	6.21	33.57	-47.2	-48.9	18.4	0.00e+00	0	41	0	494927872	65	4498
2026-01-30 01:56:11.63	5.98	33.74	-47.2	-48.9	18.5	0.00e+00	0	41	0	497025024	65	4519
2026-01-30 01:56:12.63	5.75	33.92	-47.2	-48.9	18.5	0.00e+00	0	41	0	499122176	65	4510
2026-01-30 01:56:13.64	5.52	34.09	-47.0	-48.6	18.7	0.00e+00	0	41	0	501219328	65	4371
2026-01-30 01:56:14.64	5.29	34.27	-47.0	-48.7	18.6	0.00e+00	0	41	0	503316480	65	4404
2026-01-30 01:56:15.65	5.05	34.45	-46.9	-48.5	18.8	0.00e+00	0	41	0	505413632	65	4310
2026-01-30 01:56:16.66	4.81	34.62	-46.8	-48.4	18.9	0.00e+00	0	41	0	506462208	65	4270
2026-01-30 01:56:17.66	4.58	34.80	-46.8	-48.3	19.0	0.00e+00	0	41	0	508559360	65	4225
2026-01-30 01:56:18.67	4.33	34.98	-46.4	-47.9	19.4	0.00e+00	0	41	0	510656512	64	4272
2026-01-30 01:56:19.68	4.08	35.16	-46.5	-47.9	19.4	0.00e+00	0	41	0	512753664	64	4290
2026-01-30 01:56:20.69	3.83	35.34	-46.5	-48.0	19.3	0.00e+00	0	41	0	514850816	64	4331
2026-01-30 01:56:21.69	3.58	35.52	-46.6	-48.1	19.2	0.00e+00	0	41	0	515899392	64	4352
2026-01-30 01:56:22.70	3.33	35.70	-46.6	-48.1	19.2	0.00e+00	0	41	0	517996544	64	4365
2026-01-30 01:56:23.71	3.07	35.88	-46.4	-47.9	19.4	0.00e+00	0	41	0	520093696	64	4278
2026-01-30 01:56:24.72	2.81	36.06	-46.5	-48.0	19.4	0.00e+00	0	41	0	522190848	64	4305
2026-01-30 01:56:25.73	2.54	36.24	-46.4	-47.8	19.5	0.00e+00	0	41	0	523239424	64	4238
2026-01-30 01:56:26.74	2.28	36.42	-46.3	-47.8	19.6	0.00e+00	0	41	0	525336576	64	4200
2026-01-30 01:56:27.75	2.01	36.61	-46.4	-47.9	19.5	0.00e+00	0	41	0	527433728	64	4248
2026-01-30 01:56:28.75	1.74	36.79	-46.6	-48.1	19.3	0.00e+00	0	41	0	529530880	64	4355
2026-01-30 01:56:29.76	1.46	36.97	-46.8	-48.3	19.1	0.00e+00	0	41	0	531628032	64	4486
2026-01-30 01:56:30.77	1.18	37.15	-46.7	-48.2	19.1	0.00e+00	0	41	0	533725184	64	4437
2026-01-30 01:56:31.77	0.90	37.34	-46.6	-48.0	19.4	0.00e+00	0	41	0	534773760	64	4334
2026-01-30 01:56:32.78	0.61	37.52	-46.5	-48.0	19.4	0.00e+00	0	41	0	536870912	64	4325
2026-01-30 01:56:33.78	0.33	37.70	-46.7	-48.2	19.3	0.00e+00	0	41	0	538968064	64	4400
2026-01-30 01:56:34.79	0.04	37.88	-46.8	-48.3	19.1	0.00e+00	0	41	0	541065216	64	4488
2026-01-30 01:56:35.79	359.74	38.07	-47.0	-48.5	18.9	0.00e+00	0	41	0	543162368	64	4590
2026-01-30 01:56:36.79	359.45	38.25	-46.9	-48.5	18.9	0.00e+00	0	41	0	544210944	64	4574
2026-01-30 01:56:37.80	359.14	38.43	-46.9	-48.4	19.0	0.00e+00	0	41	0	546308096	64	4539
2026-01-30 01:56:38.81	358.84	38.62	-47.0	-48.6	18.9	0.00e+00	0	41	0	548405248	64	4633
2026-01-30 01:56:39.81	358.53	38.80	-46.9	-48.4	19.0	0.00e+00	0	41	0	550502400	64	4537
2026-01-30 01:56:40.82	358.22	38.98	-46.9	-48.5	19.0	0.00e+00	0	41	0	551550976	64	4563
2026-01-30 01:56:41.83	357.90	39.17	-46.9	-48.5	19.0	0.00e+00	0	41	0	553648128	64	4549
2026-01-30 01:56:42.83	357.58	39.35	-47.0	-48.6	18.9	0.00e+00	0	41	0	555745280	64	4602
2026-01-30 01:56:43.84	357.26	39.54	-46.9	-48.5	19.0	0.00e+00	0	41	0	557842432	64	4570
2026-01-30 01:56:44.85	356.93	39.72	-47.0	-48.6	18.9	0.00e+00	0	41	0	559939584	64	4620
2026-01-30 01:56:45.85	356.60	39.90	-47.0	-48.6	18.9	0.00e+00	0	41	0	562036736	64	4635
2026-01-30 01:56:46.86	356.27	40.09	-46.7	-48.2	19.2	0.00e+00	0	41	0	563085312	64	4404
2026-01-30 01:56:47.87	355.93	40.27	-46.6	-48.1	19.4	0.00e+00	0	41	0	565182464	64	4345
2026-01-30 01:56:48.88	355.58	40.45	-46.5	-48.0	19.5	0.00e+00	0	41	0	567279616	64	4326
2026-01-30 01:56:49.89	355.24	40.64	-46.7	-48.2	19.3	0.00e+00	0	41	0	569376768	64	4407
2026-01-30 01:56:50.90	354.89	40.82	-46.8	-48.4	19.1	0.00e+00	0	41	0	571473920	64	4518
2026-01-30 01:56:51.90	354.53	41.00	-47.0	-48.6	18.9	0.00e+00	0	42	0	572522496	64	4625
2026-01-30 01:56:52.91	354.17	41.18	-47.3	-49.0	18.6	0.00e+00	0	41	0	574619648	65	4559
2026-01-30 01:56:53.92	353.81	41.36	-47.5	-49.2	18.3	0.00e+00	0	41	0	576716800	65	4670
2026-01-30 01:56:54.93	353.44	41.55	-47.6	-49.3	18.3	0.00e+00	0	41	0	578813952	65	4729
2026-01-30 01:56:55.93	353.08	41.73	-47.4	-49.1	18.4	0.00e+00	0	41	0	579862528	65	4642
2026-01-30 01:56:56.94	352.70	41.91	-47.2	-48.8	18.7	0.00e+00	0	41	0	581959680	65	4489
2026-01-30 01:56:57.95	352.32	42.09	-47.2	-48.9	18.7	0.00e+00	0	41	0	584056832	65	4494
2026-01-30 01:56:58.96	351.94	42.27	-47.2	-48.8	18.7	0.00e+00	0	41	0	586153984	65	4461
2026-01-30 01:56:59.97	351.55	42.44	-47.4	-49.0	18.5	0.00e+00	0	41	0	588251136	65	4585
2026-01-30 01:57:00.97	351.16	42.62	-47.3	-48.9	18.6	0.00e+00	0	41	0	590348288	65	4545
2026-01-30 01:57:01.98	350.76	42.80	-47.7	-49.4	18.2	0.00e+00	0	41	0	591396864	65	4796
2026-01-30 01:57:02.99	350.36	42.98	-47.5	-49.3	18.3	0.00e+00	0	41	0	593494016	66	4444
2026-01-30 01:57:03.99	349.96	43.15	-47.5	-49.3	18.3	0.00e+00	0	41	0	595591168	66	4446
2026-01-30 01:57:05.00	349.54	43.33	-47.5	-49.2	18.4	0.00e+00	0	41	0	597688320	66	4405
2026-01-30 01:57:06.01	349.13	43.50	-47.2	-48.8	18.8	0.00e+00	0	41	0	599785472	66	4236
2026-01-30 01:57:07.01	348.71	43.67	-46.9	-48.5	19.1	0.00e+00	0	41	0	600834048	65	4295
2026-01-30 01:57:08.02	348.29	43.84	-46.9	-48.4	19.1	0.00e+00	0	41	0	602931200	65	4282
2026-01-30 01:57:09.02	347.86	44.01	-47.1	-48.7	18.9	0.00e+00	0	41	0	605028352	65	4413
2026-01-30 01:57:10.03	347.43	44.18	-47.1	-48.7	18.9	0.00e+00	0	41	0	607125504	65	4422
2026-01-30 01:57:11.04	346.99	44.35	-47.1	-48.7	18.8	0.00e+00	0	41	0	608174080	65	4433
2026-01-30 01:57:12.05	346.55	44.52	-46.7	-48.1	19.4	0.00e+00	0	41	0	610271232	65	4136
2026-01-30 01:57:13.06	346.10	44.69	-46.4	-47.8	19.8	0.00e+00	0	41	0	612368384	64	4214
2026-01-30 01:57:14.07	345.65	44.85	-46.2	-47.6	20.0	0.00e+00	0	41	0	614465536	64	4104
2026-01-30 01:57:15.08	345.19	45.02	-46.0	-47.3	20.2	0.00e+00	0	41	0	616562688	64	3996
2026-01-30 01:57:16.08	344.73	45.18	-46.0	-47.3	20.3	0.00e+00	0	41	0	618659840	64	3971
2026-01-30 01:57:17.09	344.27	45.34	-45.9	-47.2	20.4	0.00e+00	0	41	0	619708416	63	4178
2026-01-30 01:57:18.10	343.79	45.50	-45.8	-47.1	20.6	0.00e+00	0	41	0	621805568	63	4111
2026-01-30 01:57:19.11	343.32	45.66	-45.7	-46.9	20.8	0.00e+00	0	41	0	623902720	63	4048
2026-01-30 01:57:20.11	342.84	45.81	-45.7	-47.0	20.6	0.00e+00	0	41	0	625999872	63	4085
2026-01-30 01:57:21.12	342.35	45.97	-45.8	-47.1	20.6	0.00e+00	0	41	0	628097024	63	4123
2026-01-30 01:57:22.13	341.86	46.12	-45.9	-47.2	20.5	0.00e+00	0	41	0	629145600	63	4169
2026-01-30 01:57:23.14	341.37	46.27	-45.9	-47.2	20.4	0.00e+00	0	41	0	631242752	63	4190
2026-01-30 01:57:24.14	340.87	46.42	-46.0	-47.3	20.4	0.00e+00	0	41	0	633339904	63	4215
2026-01-30 01:57:25.15	340.37	46.57	-46.1	-47.5	20.2	0.00e+00	0	41	0	635437056	63	4317
2026-01-30 01:57:26.16	339.86	46.72	-46.1	-47.4	20.4	0.00e+00	0	41	0	637534208	63	4260
2026-01-30 01:57:27.17	339.34	46.86	-46.2	-47.5	20.2	0.00e+00	0	41	0	638582784	63	4311
2026-01-30 01:57:28.18	338.82	47.00	-46.0	-47.3	20.3	0.00e+00	0	41	0	640679936	63	4230
2026-01-30 01:57:29.18	338.30	47.14	-46.0	-47.3	20.4	0.00e+00	0	41	0	642777088	63	4195
2026-01-30 01:57:30.19	337.77	47.28	-46.0	-47.3	20.4	0.00e+00	0	41	0	644874240	63	4212
2026-01-30 01:57:31.20	337.24	47.41	-46.2	-47.6	20.2	0.00e+00	0	41	0	646971392	63	4362
2026-01-30 01:57:32.21	336.70	47.55	-46.5	-47.9	19.9	0.00e+00	0	41	0	648019968	63	4506
2026-01-30 01:57:33.21	336.16	47.68	-46.5	-48.0	19.7	0.00e+00	0	41	0	650117120	64	4298
2026-01-30 01:57:34.22	335.62	47.80	-46.6	-48.1	19.6	0.00e+00	0	41	0	652214272	64	4353
2026-01-30 01:57:35.23	335.07	47.93	-46.6	-48.0	19.6	0.00e+00	0	41	0	654311424	64	4333
2026-01-30 01:57:36.24	334.51	48.05	-46.8	-48.3	19.4	0.00e+00	0	41	0	656408576	64	4459
2026-01-30 01:57:37.24	333.95	48.17	-47.1	-48.7	19.0	0.00e+00	0	41	0	658505728	64	4678
2026-01-30 01:57:38.25	333.39	48.29	-47.2	-48.8	18.9	0.00e+00	0	41	0	659554304	65	4491
2026-01-30 01:57:39.26	332.82	48.40	-47.5	-49.2	18.5	0.00e+00	0	41	0	661651456	65	4679
2026-01-30 01:57:40.27	332.24	48.52	-47.4	-49.0	18.7	0.00e+00	0	41	0	663748608	65	4574
2026-01-30 01:57:41.27	331.67	48.62	-47.6	-49.2	18.5	0.00e+00	0	41	0	665845760	65	4691
2026-01-30 01:57:42.28	331.09	48.73	-47.8	-49.5	18.3	0.00e+00	0	41	0	666894336	66	4587
2026-01-30 01:57:43.28	330.51	48.83	-48.2	-50.1	17.8	0.00e+00	0	41	0	668991488	66	4882
2026-01-30 01:57:44.29	329.92	48.93	-48.6	-50.6	17.2	0.00e+00	0	41	0	671088640	67	4904
2026-01-30 01:57:45.30	329.33	49.03	-48.8	-50.8	17.2	0.00e+00	0	41	0	673185792	68	4738
2026-01-30 01:57:46.30	328.74	49.13	-48.9	-51.1	16.9	0.00e+00	0	41	0	675282944	68	4881
2026-01-30 01:57:47.31	328.13	49.22	-49.0	-51.1	16.9	0.00e+00	0	41	0	676331520	68	4888
2026-01-30 01:57:48.32	327.53	49.30	-48.9	-51.0	17.0	0.00e+00	0	41	0	678428672	68	4820
2026-01-30 01:57:49.33	326.92	49.39	-48.6	-50.5	17.3	0.00e+00	0	41	0	680525824	68	4598
2026-01-30 01:57:50.34	326.31	49.47	-48.3	-50.1	17.7	0.00e+00	0	41	0	682622976	68	4380
2026-01-30 01:57:51.35	325.70	49.55	-47.9	-49.6	18.2	0.00e+00	0	41	0	684720128	67	4375
2026-01-30 01:57:52.35	325.08	49.62	-47.9	-49.7	18.1	0.00e+00	0	41	0	686817280	67	4423
2026-01-30 01:57:53.36	324.46	49.69	-47.9	-49.6	18.2	0.00e+00	0	41	0	687865856	67	4370
2026-01-30 01:57:54.37	323.84	49.76	-47.4	-49.0	18.8	0.00e+00	0	41	0	689963008	66	4294
2026-01-30 01:57:55.38	323.21	49.82	-47.2	-48.7	19.0	0.00e+00	0	41	0	692060160	66	4176
2026-01-30 01:57:56.38	322.59	49.88	-46.5	-47.9	19.8	0.00e+00	0	41	0	694157312	65	4033
2026-01-30 01:57:57.39	321.96	49.94	-46.1	-47.4	20.3	0.00e+00	0	41	0	695205888	64	4046
2026-01-30 01:57:58.39	321.33	49.99	-46.0	-47.3	20.5	0.00e+00	0	41	0	697303040	63	4194
2026-01-30 01:57:59.40	320.70	50.04	-45.7	-47.0	20.8	0.00e+00	0	41	0	699400192	63	4066
2026-01-30 01:58:00.41	320.06	50.09	-46.1	-47.4	20.5	0.00e+00	0	41	0	701497344	63	4279
2026-01-30 01:58:01.41	319.43	50.13	-46.4	-47.8	20.1	0.00e+00	0	41	0	703594496	63	4450
2026-01-30 01:58:02.42	318.78	50.17	-46.5	-47.9	20.0	0.00e+00	0	41	0	704643072	63	4517
2026-01-30 01:58:03.43	318.14	50.20	-46.4	-47.7	20.1	0.00e+00	0	41	0	706740224	63	4435
2026-01-30 01:58:04.44	317.50	50.24	-45.9	-47.2	20.6	0.00e+00	0	41	0	708837376	63	4155
2026-01-30 01:58:05.44	316.86	50.26	-45.4	-46.5	21.2	0.00e+00	0	41	0	710934528	62	4096
2026-01-30 01:58:06.45	316.21	50.28	-45.1	-46.2	21.5	0.00e+00	0	41	0	713031680	62	3935
2026-01-30 01:58:07.46	315.56	50.30	-45.1	-46.3	21.5	0.00e+00	0	41	0	715128832	61	4219
2026-01-30 01:58:08.47	314.92	50.32	-44.9	-46.0	21.7	0.00e+00	0	41	0	716177408	61	4092
2026-01-30 01:58:09.47	314.27	50.33	-45.0	-46.1	21.6	0.00e+00	0	41	0	718274560	61	4145
2026-01-30 01:58:10.48	313.62	50.34	-45.1	-46.2	21.6	0.00e+00	0	41	0	720371712	61	4186
2026-01-30 01:58:11.49	312.97	50.34	-45.3	-46.5	21.3	0.00e+00	0	41	0	722468864	61	4302
2026-01-30 01:58:12.49	312.33	50.34	-45.6	-46.8	21.1	0.00e+00	0	41	0	723517440	61	4460
2026-01-30 01:58:13.50	311.68	50.34	-45.3	-46.4	21.2	0.00e+00	0	41	0	725614592	61	4276
2026-01-30 01:58:14.51	311.03	50.33	-45.2	-46.3	21.5	0.00e+00	0	41	0	727711744	61	4224
2026-01-30 01:58:15.52	310.38	50.32	-45.2	-46.3	21.4	0.00e+00	0	41	0	729808896	61	4226
2026-01-30 01:58:16.53	309.74	50.30	-45.3	-46.5	21.4	0.00e+00	0	41	0	731906048	61	4295
2026-01-30 01:58:17.53	309.09	50.28	-45.3	-46.5	21.3	0.00e+00	0	41	0	732954624	61	4324
2026-01-30 01:58:18.54	308.45	50.26	-45.7	-46.9	21.0	0.00e+00	0	41	0	735051776	61	4521
2026-01-30 01:58:19.55	307.80	50.23	-45.7	-46.9	21.0	0.00e+00	0	41	0	737148928	61	4525
2026-01-30 01:58:20.55	307.16	50.20	-45.4	-46.6	21.2	0.00e+00	0	41	0	739246080	61	4346
2026-01-30 01:58:21.56	306.52	50.17	-45.1	-46.2	21.6	0.00e+00	0	41	0	741343232	61	4187
2026-01-30 01:58:22.56	305.89	50.13	-45.3	-46.5	21.3	0.00e+00	0	41	0	743440384	61	4296
2026-01-30 01:58:23.57	305.25	50.08	-45.4	-46.6	21.2	0.00e+00	0	41	0	744488960	61	4373
2026-01-30 01:58:24.58	304.61	50.04	-45.8	-47.0	20.9	0.00e+00	0	41	0	746586112	62	4317
2026-01-30 01:58:25.59	303.97	49.99	-45.8	-47.0	20.8	0.00e+00	0	41	0	748683264	62	4325
2026-01-30 01:58:26.60	303.34	49.93	-45.7	-46.9	21.0	0.00e+00	0	41	0	750780416	62	4259
2026-01-30 01:58:27.60	302.71	49.88	-45.5	-46.7	21.2	0.00e+00	0	41	0	751828992	62	4155
2026-01-30 01:58:28.61	302.09	49.82	-45.5	-46.7	21.2	0.00e+00	0	41	0	753926144	62	4155
2026-01-30 01:58:29.62	301.46	49.75	-45.6	-46.8	21.0	0.00e+00	0	41	0	756023296	62	4213
2026-01-30 01:58:30.63	300.84	49.68	-45.8	-47.0	20.8	0.00e+00	0	41	0	758120448	62	4333
2026-01-30 01:58:31.64	300.22	49.61	-45.8	-47.1	20.8	0.00e+00	0	41	0	760217600	62	4365
2026-01-30 01:58:32.65	299.60	49.54	-45.9	-47.2	20.6	0.00e+00	0	41	0	762314752	62	4415
2026-01-30 01:58:33.66	298.98	49.46	-46.1	-47.4	20.4	0.00e+00	0	41	0	763363328	62	4524
2026-01-30 01:58:34.66	298.38	49.38	-46.1	-47.4	20.5	0.00e+00	0	41	0	765460480	63	4253
2026-01-30 01:58:35.67	297.77	49.29	-46.0	-47.3	20.5	0.00e+00	0	41	0	767557632	63	4220
2026-01-30 01:58:36.68	297.17	49.20	-46.0	-47.3	20.7	0.00e+00	0	41	0	769654784	63	4199
2026-01-30 01:58:37.68	296.57	49.11	-45.9	-47.2	20.7	0.00e+00	0	41	0	771751936	63	4162
2026-01-30 01:58:38.69	295.97	49.02	-46.0	-47.3	20.6	0.00e+00	0	41	0	772800512	63	4212
2026-01-30 01:58:39.70	295.38	48.92	-46.5	-47.9	20.1	0.00e+00	0	41	0	774897664	63	4508
2026-01-30 01:58:40.70	294.80	48.82	-46.5	-47.9	20.0	0.00e+00	0	41	0	776994816	63	4521
2026-01-30 01:58:41.71	294.21	48.71	-46.5	-47.9	19.9	0.00e+00	0	41	0	779091968	64	4284
2026-01-30 01:58:42.71	293.63	48.61	-46.3	-47.6	20.2	0.00e+00	0	41	0	780140544	64	4134
2026-01-30 01:58:43.72	293.06	48.50	-46.4	-47.8	20.1	0.00e+00	0	41	0	782237696	64	4198
2026-01-30 01:58:44.73	292.48	48.39	-46.5	-47.9	19.9	0.00e+00	0	41	0	784334848	64	4270
2026-01-30 01:58:45.73	291.92	48.27	-46.7	-48.1	19.7	0.00e+00	0	41	0	786432000	64	4383
2026-01-30 01:58:46.73	291.36	48.15	-46.8	-48.3	19.5	0.00e+00	0	41	0	788529152	64	4446
2026-01-30 01:58:47.74	290.80	48.03	-47.0	-48.5	19.4	0.00e+00	0	41	0	789577728	64	4595
2026-01-30 01:58:48.74	290.25	47.91	-47.2	-48.8	19.1	0.00e+00	0	41	0	791674880	65	4459
2026-01-30 01:58:49.75	289.69	47.79	-47.3	-48.9	18.9	0.00e+00	0	41	0	793772032	65	4539
2026-01-30 01:58:50.75	289.15	47.66	-47.1	-48.7	19.2	0.00e+00	0	41	0	795869184	65	4401
2026-01-30 01:58:51.76	288.61	47.53	-47.0	-48.5	19.4	0.00e+00	0	41	0	797966336	65	4295
2026-01-30 01:58:52.76	288.08	47.39	-46.8	-48.2	19.6	0.00e+00	0	41	0	800063488	65	4174
2026-01-30 01:58:53.77	287.54	47.26	-47.0	-48.5	19.4	0.00e+00	0	41	0	801112064	65	4297
2026-01-30 01:58:54.78	287.01	47.12	-47.2	-48.8	19.1	0.00e+00	0	41	0	803209216	65	4472
2026-01-30 01:58:55.78	286.49	46.98	-47.5	-49.1	18.8	0.00e+00	0	41	0	805306368	65	4611
2026-01-30 01:58:56.79	285.97	46.84	-47.5	-49.2	18.7	0.00e+00	0	41	0	807403520	65	4652
2026-01-30 01:58:57.80	285.46	46.70	-47.1	-48.6	19.2	0.00e+00	0	41	0	808452096	65	4390
2026-01-30 01:58:58.80	284.95	46.55	-46.6	-48.0	19.8	0.00e+00	0	42	0	810549248	65	4079
2026-01-30 01:58:59.81	284.45	46.40	-46.6	-48.0	19.9	0.00e+00	0	41	0	812646400	65	4052
2026-01-30 01:59:00.81	283.95	46.25	-46.1	-47.4	20.4	0.00e+00	0	41	0	814743552	64	4008
2026-01-30 01:59:01.82	283.46	46.10	-45.9	-47.1	20.7	0.00e+00	0	41	0	816840704	63	4136
2026-01-30 01:59:02.83	282.97	45.95	-46.1	-47.4	20.5	0.00e+00	0	41	0	817889280	63	4263
2026-01-30 01:59:03.83	282.48	45.79	-46.5	-47.9	20.1	0.00e+00	0	41	0	819986432	63	4494
2026-01-30 01:59:04.84	282.00	45.64	-46.5	-47.9	20.0	0.00e+00	0	41	0	822083584	63	4497
2026-01-30 01:59:05.84	281.53	45.48	-46.3	-47.6	20.3	0.00e+00	0	41	0	824180736	63	4371
2026-01-30 01:59:06.85	281.06	45.32	-45.9	-47.2	20.7	0.00e+00	0	41	0	826277888	63	4176
2026-01-30 01:59:07.86	280.59	45.16	-45.7	-46.9	20.9	0.00e+00	0	41	0	828375040	63	4050
2026-01-30 01:59:08.87	280.13	44.99	-45.4	-46.6	21.2	0.00e+00	0	41	0	829423616	62	4137
2026-01-30 01:59:09.87	279.68	44.83	-45.6	-46.8	21.1	0.00e+00	0	41	0	831520768	62	4205
2026-01-30 01:59:10.88	279.22	44.66	-45.7	-47.0	20.9	0.00e+00	0	41	0	833617920	62	4301
2026-01-30 01:59:11.89	278.78	44.50	-46.0	-47.3	20.6	0.00e+00	0	41	0	835715072	62	4444
2026-01-30 01:59:12.90	278.33	44.33	-46.0	-47.2	20.7	0.00e+00	0	41	0	836763648	62	4436
2026-01-30 01:59:13.90	277.90	44.16	-45.9	-47.1	20.8	0.00e+00	0	41	0	838860800	62	4384
2026-01-30 01:59:14.91	277.46	43.99	-45.6	-46.8	21.0	0.00e+00	0	41	0	840957952	62	4211
2026-01-30 01:59:15.92	277.03	43.82	-45.4	-46.5	21.3	0.00e+00	0	41	0	843055104	62	4084
2026-01-30 01:59:16.93	276.61	43.65	-45.2	-46.3	21.5	0.00e+00	0	41	0	845152256	62	3993
2026-01-30 01:59:17.93	276.19	43.47	-45.4	-46.6	21.2	0.00e+00	0	41	0	846200832	62	4128
2026-01-30 01:59:18.94	275.78	43.30	-46.0	-47.2	20.6	0.00e+00	0	41	0	848297984	62	4439
2026-01-30 01:59:19.95	275.37	43.12	-46.2	-47.6	20.3	0.00e+00	0	41	0	850395136	63	4349
2026-01-30 01:59:20.95	274.96	42.95	-46.1	-47.3	20.5	0.00e+00	0	41	0	852492288	63	4239
2026-01-30 01:59:21.96	274.56	42.77	-45.9	-47.2	20.7	0.00e+00	0	41	0	854589440	63	4155
2026-01-30 01:59:22.97	274.16	42.59	-45.7	-47.0	20.8	0.00e+00	0	41	0	856686592	63	4053
2026-01-30 01:59:23.97	273.77	42.42	-45.7	-46.9	20.9	0.00e+00	0	41	0	857735168	63	4038
2026-01-30 01:59:24.98	273.39	42.24	-45.6	-46.9	21.0	0.00e+00	0	41	0	859832320	63	4007
2026-01-30 01:59:25.98	273.00	42.06	-45.6	-46.9	20.9	0.00e+00	0	41	0	861929472	63	4005
2026-01-30 01:59:26.99	272.62	41.88	-45.7	-47.0	20.8	0.00e+00	0	41	0	864026624	63	4053
2026-01-30 01:59:28.00	272.25	41.70	-45.6	-46.8	21.0	0.00e+00	0	41	0	865075200	63	3983
2026-01-30 01:59:29.01	271.88	41.51	-45.4	-46.6	21.2	0.00e+00	0	41	0	867172352	62	4105
2026-01-30 01:59:30.01	271.51	41.33	-45.3	-46.4	21.3	0.00e+00	0	41	0	869269504	62	4039
2026-01-30 01:59:31.02	271.15	41.15	-45.4	-46.6	21.1	0.00e+00	0	41	0	871366656	62	4144
2026-01-30 01:59:32.03	270.79	40.97	-45.6	-46.9	21.0	0.00e+00	0	41	0	873463808	62	4252
2026-01-30 01:59:33.03	270.44	40.79	-45.8	-47.0	20.8	0.00e+00	0	41	0	874512384	62	4320
2026-01-30 01:59:34.04	270.09	40.60	-45.9	-47.2	20.6	0.00e+00	0	41	0	876609536	62	4423
2026-01-30 01:59:35.05	269.74	40.42	-46.1	-47.4	20.4	0.00e+00	0	41	0	878706688	62	4545
2026-01-30 01:59:36.06	269.39	40.24	-46.1	-47.4	20.4	0.00e+00	0	41	0	880803840	62	4511
2026-01-30 01:59:37.07	269.05	40.05	-46.1	-47.4	20.3	0.00e+00	0	41	0	882900992	62	4523
2026-01-30 01:59:38.07	268.72	39.87	-46.1	-47.3	20.4	0.00e+00	0	41	0	884998144	62	4493
2026-01-30 01:59:39.08	268.39	39.69	-46.1	-47.4	20.3	0.00e+00	0	41	0	886046720	62	4523
2026-01-30 01:59:40.09	268.06	39.50	-46.2	-47.6	20.2	0.00e+00	0	41	0	888143872	63	4354
2026-01-30 01:59:41.09	267.74	39.32	-46.4	-47.7	20.0	0.00e+00	0	41	0	890241024	63	4441
2026-01-30 01:59:42.10	267.42	39.13	-46.7	-48.2	19.6	0.00e+00	0	41	0	892338176	63	4659
2026-01-30 01:59:43.10	267.11	38.95	-46.9	-48.4	19.2	0.00e+00	0	41	0	893386752	64	4513
2026-01-30 01:59:44.12	266.79	38.76	-47.1	-48.6	19.0	0.00e+00	0	41	0	895483904	64	4648
2026-01-30 01:59:45.12	266.48	38.58	-47.1	-48.6	19.0	0.00e+00	0	41	0	897581056	64	4649
2026-01-30 01:59:46.13	266.18	38.40	-46.9	-48.4	19.2	0.00e+00	0	41	0	899678208	64	4537
2026-01-30 01:59:47.13	265.88	38.21	-46.8	-48.3	19.4	0.00e+00	0	41	0	901775360	64	4447
2026-01-30 01:59:48.14	265.58	38.03	-46.7	-48.1	19.5	0.00e+00	0	41	0	902823936	64	4376
2026-01-30 01:59:49.15	265.28	37.84	-46.9	-48.4	19.2	0.00e+00	0	41	0	904921088	64	4521
2026-01-30 01:59:50.16	264.99	37.66	-47.3	-49.0	18.7	0.00e+00	0	41	0	907018240	65	4547
2026-01-30 01:59:51.17	264.70	37.48	-47.8	-49.6	18.1	0.00e+00	0	41	0	909115392	66	4607
2026-01-30 01:59:52.18	264.41	37.29	-47.8	-49.5	18.2	0.00e+00	0	41	0	911212544	66	4582
2026-01-30 01:59:53.19	264.13	37.11	-47.6	-49.3	18.4	0.00e+00	0	42	0	913309696	66	4448
2026-01-30 01:59:54.20	263.85	36.92	-47.4	-49.1	18.5	0.00e+00	0	41	0	914358272	66	4364
2026-01-30 01:59:55.21	263.57	36.74	-47.4	-49.1	18.6	0.00e+00	0	41	0	916455424	66	4357
2026-01-30 01:59:56.22	263.30	36.56	-47.6	-49.3	18.4	0.00e+00	0	42	0	918552576	66	4488
2026-01-30 01:59:57.22	263.03	36.38	-47.6	-49.4	18.3	0.00e+00	0	41	0	920649728	66	4507
2026-01-30 01:59:58.23	262.76	36.19	-47.8	-49.6	18.1	0.00e+00	0	41	0	921698304	66	4625
2026-01-30 01:59:59.23	262.50	36.01	-48.2	-50.1	17.6	0.00e+00	0	41	0	923795456	67	4648
2026-01-30 02:00:00.24	262.24	35.83	-48.3	-50.2	17.4	0.00e+00	0	41	0	925892608	67	4696
2026-01-30 02:00:01.24	261.98	35.65	-47.9	-49.7	17.9	0.00e+00	0	41	0	927989760	67	4404
2026-01-30 02:00:02.25	261.73	35.47	-47.7	-49.4	18.2	0.00e+00	0	42	0	930086912	67	4271
2026-01-30 02:00:03.26	261.48	35.29	-47.6	-49.3	18.4	0.00e+00	0	41	0	932184064	67	4204
2026-01-30 02:00:04.27	261.23	35.11	-47.6	-49.2	18.5	0.00e+00	0	41	0	933232640	66	4437
2026-01-30 02:00:05.28	260.98	34.93	-47.6	-49.3	18.4	0.00e+00	0	41	0	935329792	66	4453
2026-01-30 02:00:06.29	260.73	34.75	-47.4	-49.0	18.6	0.00e+00	0	41	0	937426944	66	4318
2026-01-30 02:00:07.30	260.49	34.57	-47.8	-49.5	18.1	0.00e+00	0	41	0	939524096	66	4579
2026-01-30 02:00:08.31	260.25	34.39	-47.7	-49.4	18.2	0.00e+00	0	41	0	941621248	66	4540
2026-01-30 02:00:09.32	260.02	34.22	-47.9	-49.7	18.0	0.00e+00	0	41	0	942669824	66	4660
2026-01-30 02:00:10.33	259.78	34.04	-48.0	-49.9	17.8	0.00e+00	0	41	0	944766976	66	4767
2026-01-30 02:00:11.33	259.55	33.86	-48.0	-49.8	17.8	0.00e+00	0	41	0	946864128	66	4729
2026-01-30 02:00:12.34	259.32	33.69	-47.6	-49.4	18.2	0.00e+00	0	41	0	948961280	66	4500
2026-01-30 02:00:13.35	259.10	33.51	-47.5	-49.2	18.4	0.00e+00	0	41	0	951058432	66	4407
2026-01-30 02:00:14.36	258.87	33.33	-47.4	-49.1	18.5	0.00e+00	0	41	0	952107008	66	4359
2026-01-30 02:00:15.36	258.65	33.16	-47.6	-49.3	18.4	0.00e+00	0	41	0	954204160	66	4481
2026-01-30 02:00:16.37	258.43	32.98	-47.6	-49.3	18.4	0.00e+00	0	42	0	956301312	66	4448
2026-01-30 02:00:17.38	258.22	32.81	-47.4	-49.0	18.6	0.00e+00	0	41	0	958398464	66	4330
2026-01-30 02:00:18.39	258.00	32.64	-47.2	-48.8	18.7	0.00e+00	0	41	0	960495616	66	4239
2026-01-30 02:00:19.39	257.79	32.47	-47.3	-48.9	18.6	0.00e+00	0	41	0	961544192	66	4269
2026-01-30 02:00:20.40	257.58	32.29	-47.0	-48.6	18.9	0.00e+00	0	41	0	963641344	66	4131
2026-01-30 02:00:21.41	257.38	32.12	-47.1	-48.7	18.7	0.00e+00	0	41	0	965738496	65	4436
2026-01-30 02:00:22.42	257.17	31.95	-47.1	-48.7	18.8	0.00e+00	0	41	0	967835648	65	4400
2026-01-30 02:00:23.43	256.97	31.78	-47.2	-48.8	18.7	0.00e+00	0	41	0	969932800	65	4478
2026-01-30 02:00:24.44	256.77	31.61	-47.3	-48.9	18.6	0.00e+00	0	41	0	970981376	65	4543
2026-01-30 02:00:25.45	256.57	31.44	-47.3	-49.0	18.5	0.00e+00	0	41	0	973078528	65	4595
2026-01-30 02:00:26.45	256.37	31.27	-47.5	-49.2	18.3	0.00e+00	0	41	0	975175680	65	4689
2026-01-30 02:00:27.46	256.18	31.10	-47.6	-49.4	18.1	0.00e+00	0	41	0	977272832	65	4775
2026-01-30 02:00:28.46	255.99	30.94	-47.6	-49.4	18.1	0.00e+00	0	41	0	979369984	66	4509
2026-01-30 02:00:29.47	255.80	30.77	-47.7	-49.5	18.0	0.00e+00	0	41	0	980418560	66	4591
2026-01-30 02:00:30.48	255.61	30.60	-47.6	-49.4	18.1	0.00e+00	0	41	0	982515712	66	4534
2026-01-30 02:00:31.49	255.42	30.44	-47.2	-48.8	18.6	0.00e+00	0	41	0	984612864	66	4234
2026-01-30 02:00:32.49	255.24	30.27	-46.9	-48.5	18.9	0.00e+00	0	41	0	986710016	65	4317
2026-01-30 02:00:33.50	255.05	30.11	-46.8	-48.3	19.1	0.00e+00	0	41	0	988807168	65	4230
2026-01-30 02:00:34.51	254.87	29.94	-46.6	-48.1	19.4	0.00e+00	0	41	0	989855744	65	4099
2026-01-30 02:00:35.51	254.70	29.78	-46.6	-48.1	19.3	0.00e+00	0	41	0	991952896	65	4128
2026-01-30 02:00:36.52	254.52	29.62	-46.8	-48.3	19.1	0.00e+00	0	41	0	994050048	65	4232
2026-01-30 02:00:37.51	254.35	29.46	-46.8	-48.3	19.0	0.00e+00	0	41	0	996147200	65	4240
2026-01-30 02:00:38.52	254.17	29.30	-46.9	-48.5	19.0	0.00e+00	0	41	0	998244352	65	4304
2026-01-30 02:00:39.53	254.00	29.13	-46.9	-48.5	18.9	0.00e+00	0	41	0	999292928	65	4294
2026-01-30 02:00:40.54	253.83	28.97	-46.9	-48.5	18.9	0.00e+00	0	41	0	1001390080	65	4333
2026-01-30 02:00:41.55	253.66	28.81	-46.9	-48.5	18.9	0.00e+00	0	41	0	1003487232	65	4295
2026-01-30 02:00:42.55	253.50	28.66	-46.6	-48.2	19.3	0.00e+00	0	41	0	1005584384	65	4154
2026-01-30 02:00:43.56	253.33	28.50	-46.5	-48.0	19.4	0.00e+00	0	41	0	1007681536	65	4074
2026-01-30 02:00:44.57	253.17	28.34	-46.2	-47.6	19.8	0.00e+00	0	41	0	1008730112	64	4125
2026-01-30 02:00:45.58	253.00	28.18	-46.0	-47.4	19.9	0.00e+00	0	41	0	1010827264	64	4034
2026-01-30 02:00:46.58	252.85	28.03	-46.0	-47.4	19.9	0.00e+00	0	41	0	1012924416	64	4012
2026-01-30 02:00:47.59	252.69	27.87	-46.0	-47.3	20.1	0.00e+00	0	41	0	1015021568	63	4240
2026-01-30 02:00:48.59	252.53	27.72	-46.0	-47.4	20.0	0.00e+00	0	41	0	1017118720	63	4270
2026-01-30 02:00:49.60	252.38	27.56	-46.1	-47.5	19.9	0.00e+00	0	41	0	1018167296	63	4296
2026-01-30 02:00:50.61	252.22	27.41	-46.2	-47.6	19.8	0.00e+00	0	41	0	1020264448	63	4376
2026-01-30 02:00:51.62	252.07	27.25	-46.2	-47.6	19.8	0.00e+00	0	41	0	1022361600	63	4388
2026-01-30 02:00:52.63	251.92	27.10	-46.1	-47.4	20.0	0.00e+00	0	41	0	1024458752	63	4280
2026-01-30 02:00:53.63	251.77	26.95	-46.1	-47.4	19.9	0.00e+00	0	41	0	1026555904	63	4286
2026-01-30 02:00:54.64	251.62	26.80	-46.1	-47.4	20.0	0.00e+00	0	41	0	1027604480	63	4280
2026-01-30 02:00:55.65	251.47	26.65	-45.8	-47.2	20.2	0.00e+00	0	41	0	1029701632	63	4151
2026-01-30 02:00:56.66	251.33	26.49	-45.7	-47.0	20.4	0.00e+00	0	41	0	1031798784	63	4078
2026-01-30 02:00:57.67	251.18	26.34	-45.8	-47.1	20.3	0.00e+00	0	41	0	1033895936	63	4111
2026-01-30 02:00:58.67	251.04	26.20	-45.9	-47.2	20.2	0.00e+00	0	41	0	1035993088	63	4168
2026-01-30 02:00:59.68	250.90	26.05	-46.0	-47.4	20.0	0.00e+00	0	41	0	1037041664	63	4245
2026-01-30 02:01:00.69	250.76	25.90	-46.1	-47.4	19.9	0.00e+00	0	41	0	1039138816	63	4291
2026-01-30 02:01:01.69	250.62	25.75	-46.3	-47.8	19.6	0.00e+00	0	41	0	1041235968	63	4447
2026-01-30 02:01:02.70	250.49	25.61	-46.3	-47.8	19.6	0.00e+00	0	41	0	1043333120	63	4474
2026-01-30 02:01:03.71	250.35	25.46	-46.3	-47.8	19.6	0.00e+00	0	41	0	1045430272	63	4461
2026-01-30 02:01:04.72	250.22	25.32	-46.3	-47.7	19.6	0.00e+00	0	41	0	1046478848	63	4431
2026-01-30 02:01:05.72	250.08	25.17	-46.2	-47.6	19.7	0.00e+00	0	41	0	1048576000	63	4361
2026-01-30 02:01:06.73	249.95	25.03	-46.2	-47.6	19.7	0.00e+00	0	41	0	1050673152	63	4362
2026-01-30 02:01:07.73	249.82	24.88	-46.1	-47.5	19.8	0.00e+00	0	41	0	1052770304	63	4340
2026-01-30 02:01:08.74	249.69	24.74	-45.9	-47.3	20.1	0.00e+00	0	41	0	1054867456	63	4198
2026-01-30 02:01:09.75	249.56	24.60	-45.8	-47.1	20.2	0.00e+00	0	41	0	1055916032	63	4142
2026-01-30 02:01:10.76	249.43	24.46	-45.7	-47.0	20.3	0.00e+00	0	41	0	1058013184	63	4076
2026-01-30 02:01:11.76	249.31	24.32	-45.5	-46.8	20.4	0.00e+00	0	41	0	1060110336	63	3999
2026-01-30 02:01:12.77	249.18	24.18	-45.6	-46.9	20.4	0.00e+00	0	41	0	1062207488	63	4028
2026-01-30 02:01:13.78	249.06	24.04	-45.7	-47.0	20.3	0.00e+00	0	41	0	1064304640	63	4085
2026-01-30 02:01:14.79	248.94	23.90	-45.6	-46.9	20.3	0.00e+00	0	41	0	1065353216	63	4048
2026-01-30 02:01:15.80	248.82	23.76	-45.7	-47.1	20.2	0.00e+00	0	41	0	1067450368	63	4108
2026-01-30 02:01:16.80	248.70	23.62	-45.7	-47.1	20.2	0.00e+00	0	41	0	1069547520	63	4117
2026-01-30 02:01:17.81	248.58	23.48	-45.7	-47.1	20.2	0.00e+00	0	41	0	1071644672	63	4110
2026-01-30 02:01:18.81	248.46	23.35	-45.8	-47.1	20.1	0.00e+00	0	41	0	1073741824	63	4142
2026-01-30 02:01:19.82	248.34	23.21	-45.8	-47.1	20.2	0.00e+00	0	41	0	1074790400	63	4141
2026-01-30 02:01:20.83	248.22	23.07	-45.7	-47.0	20.2	0.00e+00	0	41	0	1076887552	63	4091
2026-01-30 02:01:21.83	248.11	22.94	-45.6	-47.0	20.2	0.00e+00	0	41	0	1078984704	63	4069
2026-01-30 02:01:22.84	248.00	22.81	-45.6	-47.0	20.2	0.00e+00	0	41	0	1081081856	63	4061
2026-01-30 02:01:23.85	247.88	22.67	-45.7	-47.0	20.3	0.00e+00	0	41	0	1083179008	63	4083
2026-01-30 02:01:24.85	247.77	22.54	-45.6	-46.9	20.3	0.00e+00	0	41	0	1084227584	63	4044
2026-01-30 02:01:25.86	247.66	22.41	-45.7	-47.0	20.2	0.00e+00	0	41	0	1086324736	63	4086
2026-01-30 02:01:26.86	247.55	22.28	-45.8	-47.1	20.1	0.00e+00	0	41	0	1088421888	63	4138
2026-01-30 02:01:27.87	247.44	22.14	-45.7	-47.0	20.2	0.00e+00	0	41	0	1090519040	63	4082
2026-01-30 02:01:28.87	247.33	22.01	-45.7	-47.1	20.1	0.00e+00	0	41	0	1092616192	63	4108
2026-01-30 02:01:29.88	247.22	21.88	-45.7	-47.0	20.2	0.00e+00	0	41	0	1093664768	63	4089
2026-01-30 02:01:30.89	247.12	21.75	-45.7	-47.0	20.2	0.00e+00	0	41	0	1095761920	63	4078
2026-01-30 02:01:31.89	247.01	21.62	-45.6	-46.9	20.3	0.00e+00	0	41	0	1097859072	63	4030
2026-01-30 02:01:32.90	246.91	21.49	-45.7	-47.0	20.2	0.00e+00	0	41	0	1099956224	63	4080
2026-01-30 02:01:33.91	246.80	21.37	-45.7	-47.0	20.2	0.00e+00	0	41	0	1102053376	63	4064
2026-01-30 02:01:34.92	246.70	21.24	-45.4	-46.7	20.5	0.00e+00	0	41	0	1103101952	62	4149
2026-01-30 02:01:35.92	246.60	21.11	-45.4	-46.7	20.5	0.00e+00	0	41	0	1105199104	62	4162
2026-01-30 02:01:36.93	246.50	20.98	-45.4	-46.7	20.4	0.00e+00	0	41	0	1107296256	62	4176
2026-01-30 02:01:37.93	246.40	20.86	-45.4	-46.7	20.5	0.00e+00	0	41	0	1109393408	62	4146
2026-01-30 02:01:38.94	246.30	20.73	-45.3	-46.6	20.6	0.00e+00	0	41	0	1111490560	62	4114
2026-01-30 02:01:39.95	246.20	20.61	-45.4	-46.7	20.4	0.00e+00	0	41	0	1112539136	62	4181
2026-01-30 02:01:40.96	246.10	20.48	-45.4	-46.7	20.5	0.00e+00	0	41	0	1114636288	62	4150
2026-01-30 02:01:41.96	246.01	20.36	-45.5	-46.8	20.3	0.00e+00	0	41	0	1116733440	62	4212
2026-01-30 02:01:42.97	245.91	20.24	-45.5	-46.9	20.2	0.00e+00	0	41	0	1118830592	62	4246
2026-01-30 02:01:43.98	245.81	20.11	-45.6	-47.0	20.1	0.00e+00	0	41	0	1120927744	62	4298
2026-01-30 02:01:44.99	245.72	19.99	-45.6	-47.0	20.1	0.00e+00	0	41	0	1121976320	62	4307
2026-01-30 02:01:46.00	245.62	19.87	-45.5	-46.9	20.3	0.00e+00	0	41	0	1124073472	62	4247
2026-01-30 02:01:47.01	245.53	19.75	-45.5	-46.8	20.3	0.00e+00	0	41	0	1126170624	62	4222
2026-01-30 02:01:48.01	245.44	19.63	-45.4	-46.7	20.4	0.00e+00	0	41	0	1128267776	62	4159
2026-01-30 02:01:49.02	245.35	19.50	-45.4	-46.7	20.3	0.00e+00	0	41	0	1130364928	62	4189
2026-01-30 02:01:50.03	245.26	19.38	-45.4	-46.7	20.4	0.00e+00	0	41	0	1131413504	62	4180
2026-01-30 02:01:51.04	245.17	19.26	-45.4	-46.7	20.4	0.00e+00	0	41	0	1133510656	62	4149
2026-01-30 02:01:52.04	245.08	19.15	-45.3	-46.6	20.4	0.00e+00	0	41	0	1135607808	62	4126
2026-01-30 02:01:53.05	244.99	19.03	-45.4	-46.7	20.4	0.00e+00	0	41	0	1137704960	62	4156
2026-01-30 02:01:54.06	244.90	18.91	-45.4	-46.7	20.3	0.00e+00	0	41	0	1139802112	62	4189
2026-01-30 02:01:55.06	244.81	18.79	-45.4	-46.8	20.3	0.00e+00	0	41	0	1140850688	62	4199
2026-01-30 02:01:56.07	244.73	18.68	-45.5	-46.9	20.2	0.00e+00	0	41	0	1142947840	62	4253
2026-01-30 02:01:57.08	244.64	18.56	-45.6	-47.0	20.1	0.00e+00	0	41	0	1145044992	62	4312
2026-01-30 02:01:58.08	244.56	18.44	-45.7	-47.1	20.0	0.00e+00	0	41	0	1147142144	62	4371
2026-01-30 02:01:59.09	244.47	18.33	-45.9	-47.3	19.8	0.00e+00	0	41	0	1149239296	62	4462
2026-01-30 02:02:00.10	244.39	18.21	-46.0	-47.4	19.6	0.00e+00	0	41	0	1150287872	62	4532
2026-01-30 02:02:01.10	244.30	18.10	-46.0	-47.4	19.6	0.00e+00	0	41	0	1152385024	62	4534
2026-01-30 02:02:02.11	244.22	17.98	-46.0	-47.4	19.6	0.00e+00	0	41	0	1154482176	62	4545
2026-01-30 02:02:03.12	244.14	17.87	-46.0	-47.5	19.5	0.00e+00	0	41	0	1156579328	62	4578
2026-01-30 02:02:04.13	244.06	17.76	-46.0	-47.4	19.6	0.00e+00	0	41	0	1158676480	62	4545
2026-01-30 02:02:05.13	243.98	17.65	-46.0	-47.5	19.6	0.00e+00	0	41	0	1159725056	62	4556
2026-01-30 02:02:06.14	243.90	17.53	-46.1	-47.5	19.5	0.00e+00	0	41	0	1161822208	62	4583
2026-01-30 02:02:07.15	243.82	17.42	-45.9	-47.4	19.6	0.00e+00	0	41	0	1163919360	62	4507
2026-01-30 02:02:08.15	243.74	17.31	-46.0	-47.5	19.5	0.00e+00	0	41	0	1166016512	62	4569
2026-01-30 02:02:09.16	243.66	17.20	-46.0	-47.5	19.5	0.00e+00	0	41	0	1168113664	62	4567
2026-01-30 02:02:10.17	243.58	17.09	-45.9	-47.4	19.7	0.00e+00	0	41	0	1170210816	62	4498
2026-01-30 02:02:11.18	243.51	16.98	-46.0	-47.5	19.6	0.00e+00	0	41	0	1171259392	62	4558
2026-01-30 02:02:12.18	243.43	16.87	-45.9	-47.4	19.6	0.00e+00	0	41	0	1173356544	62	4512
2026-01-30 02:02:13.19	243.35	16.76	-46.0	-47.4	19.6	0.00e+00	0	41	0	1175453696	62	4525
2026-01-30 02:02:14.20	243.28	16.65	-46.0	-47.5	19.6	0.00e+00	0	41	0	1177550848	62	4549
2026-01-30 02:02:15.21	243.20	16.54	-45.9	-47.4	19.7	0.00e+00	0	41	0	1178599424	62	4504
2026-01-30 02:02:16.21	243.13	16.43	-46.0	-47.4	19.6	0.00e+00	0	41	0	1180696576	62	4533
2026-01-30 02:02:17.22	243.05	16.33	-46.0	-47.4	19.7	0.00e+00	0	41	0	1182793728	62	4522
2026-01-30 02:02:18.23	242.98	16.22	-45.9	-47.4	19.7	0.00e+00	0	41	0	1184890880	62	4501
2026-01-30 02:02:19.24	242.91	16.11	-45.9	-47.3	19.7	0.00e+00	0	41	0	1186988032	62	4485
2026-01-30 02:02:20.24	242.84	16.01	-45.8	-47.2	19.8	0.00e+00	0	41	0	1189085184	62	4392
2026-01-30 02:02:21.25	242.77	15.90	-45.7	-47.0	20.0	0.00e+00	0	41	0	1190133760	62	4333
2026-01-30 02:02:22.26	242.69	15.79	-45.7	-47.1	19.9	0.00e+00	0	41	0	1192230912	62	4352
2026-01-30 02:02:23.27	242.62	15.69	-45.7	-47.1	19.9	0.00e+00	0	41	0	1194328064	62	4349
2026-01-30 02:02:24.28	242.55	15.58	-45.5	-46.8	20.2	0.00e+00	0	41	0	1196425216	62	4229
2026-01-30 02:02:25.28	242.48	15.48	-45.5	-46.9	20.2	0.00e+00	0	41	0	1198522368	62	4246
2026-01-30 02:02:26.29	242.42	15.38	-45.5	-46.8	20.1	0.00e+00	0	41	0	1199570944	62	4241
2026-01-30 02:02:27.30	242.35	15.27	-45.6	-47.0	20.0	0.00e+00	0	41	0	1201668096	62	4324
2026-01-30 02:02:28.30	242.28	15.17	-45.6	-47.0	20.0	0.00e+00	0	41	0	1203765248	62	4299
2026-01-30 02:02:29.32	242.21	15.07	-45.7	-47.1	19.8	0.00e+00	0	41	0	1205862400	62	4373
2026-01-30 02:02:30.32	242.14	14.97	-45.8	-47.3	19.7	0.00e+00	0	41	0	1206910976	62	4448
2026-01-30 02:02:31.33	242.08	14.86	-45.9	-47.3	19.7	0.00e+00	0	41	0	1209008128	62	4468
2026-01-30 02:02:32.33	242.01	14.76	-46.1	-47.5	19.4	0.00e+00	0	41	0	1211105280	62	4589
2026-01-30 02:02:33.33	241.95	14.66	-46.0	-47.6	19.4	0.00e+00	0	41	0	1213202432	62	4600
2026-01-30 02:02:34.34	241.88	14.56	-46.3	-47.8	19.1	0.00e+00	0	41	0	1215299584	63	4470
2026-01-30 02:02:35.35	241.82	14.46	-46.4	-48.0	19.0	0.00e+00	0	41	0	1217396736	63	4560
2026-01-30 02:02:36.35	241.75	14.36	-46.5	-48.1	18.9	0.00e+00	0	41	0	1218445312	63	4602
2026-01-30 02:02:37.36	241.69	14.26	-46.5	-48.1	18.8	0.00e+00	0	41	0	1220542464	63	4639
2026-01-30 02:02:38.37	241.63	14.16	-46.6	-48.2	18.7	0.00e+00	0	41	0	1222639616	63	4686
2026-01-30 02:02:39.37	241.56	14.06	-46.5	-48.1	18.8	0.00e+00	0	41	0	1224736768	63	4624
2026-01-30 02:02:40.38	241.50	13.97	-46.4	-48.0	18.9	0.00e+00	0	41	0	1226833920	63	4580
2026-01-30 02:02:41.38	241.44	13.87	-46.5	-48.1	18.9	0.00e+00	0	41	0	1227882496	63	4601
2026-01-30 02:02:42.39	241.38	13.77	-46.4	-48.0	18.9	0.00e+00	0	41	0	1229979648	63	4584
2026-01-30 02:02:43.40	241.32	13.67	-46.4	-47.9	19.0	0.00e+00	0	41	0	1232076800	63	4545
2026-01-30 02:02:44.41	241.26	13.57	-46.4	-48.0	18.9	0.00e+00	0	41	0	1234173952	63	4561
