passes_logs/2026/01/30/R3.2S_Murmansk/R3.2S_Murmansk__20260130_002809_AQUA_rec.log

#Pass ID: 20260130_002809_AQUA
#Satellite: AQUA
#Configuration: AQUA
#almurnet v.1.7.20251203
#Start time: 2026-01-30 00:28:09

#Version: 2.2.20231116
#Station: R3.2S_Murmansk
#Location: 33.079688 lon 68.888172 lat
#TLE: 1 27424U 02022A   26029.54575153  .00001738  00000+0  35736-3 0  9994
#TLE: 2 27424  98.4104 356.2197 0001804  61.7823  56.0643 14.61874165263019

#Time	Az	El	Level	Level2	SNR	BER	BlckErr	Temp	State	Recorded	gain1	gain2
2026-01-30 00:28:09.29	20.99	2.00	-55.4	-73.3	3.8	7.47e-01	0	40	0	0	82	28029
2026-01-30 00:28:10.29	21.05	2.06	-55.4	-73.2	3.8	7.45e-01	0	40	104	0	81	29648
2026-01-30 00:28:11.29	21.12	2.12	-55.4	-73.2	3.8	7.47e-01	0	40	104	0	81	29513
2026-01-30 00:28:12.30	21.19	2.18	-55.4	-73.2	3.8	7.45e-01	0	40	104	0	81	29420
2026-01-30 00:28:13.31	21.26	2.24	-55.4	-73.2	3.8	7.47e-01	0	40	104	0	81	29609
2026-01-30 00:28:14.32	21.33	2.30	-55.4	-73.2	3.8	7.47e-01	0	40	104	0	81	29561
2026-01-30 00:28:15.33	21.41	2.36	-55.4	-73.2	3.8	7.44e-01	0	40	104	0	81	29490
2026-01-30 00:28:16.34	21.48	2.42	-55.3	-73.1	3.8	7.48e-01	0	40	104	0	81	29328
2026-01-30 00:28:17.34	21.55	2.48	-55.3	-73.1	3.8	7.45e-01	0	40	104	0	81	29298
2026-01-30 00:28:18.35	21.62	2.54	-55.3	-73.1	3.8	7.46e-01	0	40	104	0	81	29292
2026-01-30 00:28:19.36	21.69	2.60	-55.3	-73.1	3.8	7.46e-01	0	40	104	0	81	29246
2026-01-30 00:28:20.37	21.76	2.66	-55.3	-73.1	3.8	7.46e-01	0	40	104	0	81	29318
2026-01-30 00:28:21.37	21.84	2.72	-55.3	-73.1	3.8	7.41e-01	0	40	104	0	81	29255
2026-01-30 00:28:22.38	21.91	2.78	-55.3	-73.1	3.8	7.44e-01	0	40	104	0	81	29313
2026-01-30 00:28:23.39	21.98	2.84	-55.3	-73.1	3.8	7.45e-01	0	40	104	0	81	29278
2026-01-30 00:28:24.39	22.05	2.91	-55.3	-73.1	3.8	7.44e-01	0	40	104	0	81	29159
2026-01-30 00:28:25.40	22.13	2.97	-55.3	-73.1	3.8	7.46e-01	0	40	104	0	81	29155
2026-01-30 00:28:26.41	22.20	3.03	-55.4	-73.2	3.8	7.43e-01	0	40	104	0	81	29375
2026-01-30 00:28:27.41	22.28	3.09	-55.5	-73.3	3.8	7.44e-01	0	40	104	0	81	30028
2026-01-30 00:28:28.42	22.35	3.15	-55.6	-73.4	3.8	7.46e-01	0	40	104	0	81	30230
2026-01-30 00:28:29.43	22.43	3.21	-55.6	-73.5	3.8	7.46e-01	0	40	104	0	81	30394
2026-01-30 00:28:30.44	22.50	3.27	-55.6	-73.5	3.8	7.47e-01	0	40	104	0	81	30394
2026-01-30 00:28:31.44	22.58	3.34	-55.6	-73.5	3.8	7.45e-01	0	40	104	0	81	30380
2026-01-30 00:28:32.45	22.65	3.40	-55.6	-73.4	3.8	7.44e-01	0	40	104	0	81	30376
2026-01-30 00:28:33.46	22.73	3.46	-55.6	-73.4	3.8	7.45e-01	0	40	104	0	81	30325
2026-01-30 00:28:34.47	22.81	3.52	-55.6	-73.4	3.8	7.45e-01	0	40	104	0	81	30264
2026-01-30 00:28:35.47	22.88	3.58	-55.6	-73.4	3.8	7.42e-01	0	40	104	0	81	30130
2026-01-30 00:28:36.48	22.96	3.65	-55.5	-73.3	3.8	7.45e-01	0	40	104	0	81	29945
2026-01-30 00:28:37.49	23.04	3.71	-55.5	-73.3	3.8	7.52e-01	0	40	104	0	81	30029
2026-01-30 00:28:38.50	23.12	3.77	-55.6	-73.4	3.8	7.45e-01	0	41	104	0	81	30068
2026-01-30 00:28:39.50	23.19	3.83	-55.5	-73.3	3.8	7.45e-01	0	40	104	0	81	29774
2026-01-30 00:28:40.51	23.27	3.90	-55.4	-73.2	3.8	7.46e-01	0	40	104	0	81	29616
2026-01-30 00:28:41.52	23.35	3.96	-55.4	-73.2	3.8	7.45e-01	0	40	104	0	81	29457
2026-01-30 00:28:42.53	23.43	4.02	-55.3	-73.1	3.8	7.44e-01	0	40	104	0	81	29120
2026-01-30 00:28:43.53	23.51	4.09	-55.2	-73.0	3.8	7.43e-01	0	40	104	0	81	28714
2026-01-30 00:28:44.54	23.59	4.15	-55.0	-72.8	3.8	7.45e-01	0	40	104	0	81	28044
2026-01-30 00:28:45.55	23.67	4.21	-54.9	-72.5	3.8	7.45e-01	0	41	104	0	81	27180
2026-01-30 00:28:46.55	23.75	4.28	-54.7	-72.5	3.8	7.46e-01	0	40	104	0	81	27082
2026-01-30 00:28:47.55	23.83	4.34	-54.4	-72.2	3.8	7.44e-01	0	41	104	0	80	27844
2026-01-30 00:28:48.55	23.91	4.40	-54.0	-71.8	3.8	7.46e-01	0	41	104	0	80	26574
2026-01-30 00:28:49.56	24.00	4.47	-50.5	-54.0	15.5	6.07e-01	0	40	104	0	73	5155
2026-01-30 00:28:50.57	24.08	4.53	-48.9	-51.4	18.9	6.03e-01	0	41	0	1572864	69	4764
2026-01-30 00:28:51.58	24.16	4.60	-47.5	-49.5	20.8	6.03e-01	0	41	0	3145728	67	4311
2026-01-30 00:28:52.58	24.24	4.66	-46.7	-48.4	22.0	6.02e-01	0	41	0	5242880	65	4263
2026-01-30 00:28:53.59	24.33	4.73	-46.5	-48.3	22.1	6.05e-01	0	41	0	7340032	64	4442
2026-01-30 00:28:54.60	24.41	4.79	-45.9	-47.5	23.0	6.05e-01	0	41	0	9437184	63	4294
2026-01-30 00:28:55.61	24.50	4.86	-45.9	-47.5	22.4	6.05e-01	0	41	0	11010048	63	4302
2026-01-30 00:28:56.61	24.58	4.92	-46.4	-48.1	22.4	6.04e-01	0	41	0	13107200	63	4608
2026-01-30 00:28:57.62	24.66	4.99	-46.9	-48.7	21.7	6.03e-01	0	41	0	14680064	64	4680
2026-01-30 00:28:58.63	24.75	5.05	-46.0	-47.6	22.8	6.03e-01	0	40	0	16777216	64	4108
2026-01-30 00:28:59.63	24.83	5.12	-46.2	-47.8	22.7	6.01e-01	0	41	0	18350080	63	4484
2026-01-30 00:29:00.64	24.92	5.18	-48.7	-51.2	20.0	6.05e-01	0	41	0	20447232	67	5259
2026-01-30 00:29:01.65	25.01	5.25	-50.6	-54.4	15.7	6.05e-01	0	41	0	22544384	73	5393
2026-01-30 00:29:02.65	25.09	5.31	-45.9	-47.4	23.2	6.03e-01	0	41	0	24117248	63	4265
2026-01-30 00:29:03.65	25.18	5.38	-47.2	-49.0	21.4	6.04e-01	0	41	0	26214400	66	4303
2026-01-30 00:29:04.66	25.27	5.45	-46.6	-48.3	22.1	6.02e-01	0	41	0	27787264	65	4227
2026-01-30 00:29:05.66	25.36	5.51	-46.6	-48.3	22.1	6.04e-01	0	41	0	29884416	65	4240
2026-01-30 00:29:06.67	25.44	5.58	-46.4	-48.0	22.4	6.02e-01	0	41	0	31457280	64	4332
2026-01-30 00:29:07.68	25.53	5.64	-46.1	-47.7	22.8	6.05e-01	0	40	0	33554432	64	4174
2026-01-30 00:29:08.68	25.62	5.71	-46.1	-47.7	22.9	6.03e-01	0	41	0	35651584	64	4151
2026-01-30 00:29:09.69	25.71	5.78	-46.0	-47.5	23.0	6.02e-01	0	41	0	37224448	63	4331
2026-01-30 00:29:10.70	25.80	5.84	-45.7	-47.2	23.4	6.04e-01	0	41	0	39321600	63	4153
2026-01-30 00:29:11.70	25.89	5.91	-45.7	-47.1	23.5	6.05e-01	0	41	0	41418752	63	4144
2026-01-30 00:29:12.71	25.98	5.98	-45.7	-47.2	23.4	6.04e-01	0	41	0	42991616	63	4181
2026-01-30 00:29:13.72	26.08	6.05	-45.2	-46.6	24.0	6.03e-01	0	41	0	45088768	62	4111
2026-01-30 00:29:14.72	26.17	6.11	-45.5	-46.9	23.6	6.03e-01	0	41	0	46661632	62	4271
2026-01-30 00:29:15.73	26.26	6.18	-45.5	-47.0	23.6	6.04e-01	0	41	0	48758784	62	4298
2026-01-30 00:29:16.74	26.35	6.25	-45.8	-47.4	23.2	6.05e-01	0	41	0	50855936	62	4498
2026-01-30 00:29:17.75	26.45	6.32	-45.4	-46.8	23.7	6.03e-01	0	41	0	52428800	62	4223
2026-01-30 00:29:18.76	26.54	6.38	-45.4	-46.8	23.8	6.03e-01	0	41	0	54525952	62	4235
2026-01-30 00:29:19.76	26.63	6.45	-45.4	-46.8	23.8	6.04e-01	0	41	0	56098816	62	4208
2026-01-30 00:29:20.77	26.73	6.52	-45.3	-46.7	23.9	6.04e-01	0	41	0	58195968	62	4193
2026-01-30 00:29:21.78	26.82	6.59	-45.4	-46.8	23.8	6.05e-01	0	41	0	59768832	62	4228
2026-01-30 00:29:22.78	26.92	6.66	-45.6	-47.0	23.6	6.04e-01	0	41	0	61865984	62	4327
2026-01-30 00:29:23.79	27.02	6.73	-45.1	-46.5	24.1	6.01e-01	0	41	0	63963136	62	4072
2026-01-30 00:29:24.80	27.11	6.79	-45.1	-46.5	24.1	6.04e-01	0	41	0	66060288	62	4070
2026-01-30 00:29:25.81	27.21	6.86	-45.1	-46.5	24.1	6.03e-01	0	41	0	67633152	62	4088
2026-01-30 00:29:26.81	27.31	6.93	-44.9	-46.3	24.4	6.04e-01	0	41	0	69730304	61	4210
2026-01-30 00:29:27.82	27.40	7.00	-45.0	-46.4	24.3	6.04e-01	0	41	0	71303168	61	4253
2026-01-30 00:29:28.82	27.50	7.07	-45.3	-46.7	24.0	6.01e-01	0	41	0	73400320	61	4407
2026-01-30 00:29:29.83	27.60	7.14	-45.0	-46.4	24.2	6.03e-01	0	41	0	74973184	61	4251
2026-01-30 00:29:30.84	27.70	7.21	-44.8	-46.1	24.5	6.04e-01	0	41	0	77070336	61	4143
2026-01-30 00:29:31.84	27.80	7.28	-44.8	-46.2	24.5	6.05e-01	0	41	0	79167488	61	4155
2026-01-30 00:29:32.85	27.90	7.35	-44.9	-46.2	24.5	6.04e-01	0	41	0	80740352	61	4180
2026-01-30 00:29:33.85	28.00	7.42	-44.9	-46.2	24.5	6.04e-01	0	41	0	82837504	61	4182
2026-01-30 00:29:34.87	28.10	7.49	-44.9	-46.2	24.4	6.03e-01	0	41	0	84410368	61	4193
2026-01-30 00:29:35.87	28.20	7.56	-45.1	-46.5	24.2	6.04e-01	0	41	0	86507520	61	4318
2026-01-30 00:29:36.88	28.31	7.63	-45.2	-46.6	24.1	6.04e-01	0	41	0	88080384	61	4374
2026-01-30 00:29:37.88	28.41	7.70	-45.0	-46.4	24.3	6.03e-01	0	41	0	90177536	61	4264
2026-01-30 00:29:38.88	28.51	7.77	-44.7	-46.0	24.7	6.04e-01	0	41	0	92274688	61	4087
2026-01-30 00:29:39.89	28.62	7.84	-44.9	-46.2	24.5	6.03e-01	0	41	0	93847552	61	4168
2026-01-30 00:29:40.90	28.72	7.91	-45.0	-46.4	24.3	6.01e-01	0	41	0	95944704	61	4250
2026-01-30 00:29:41.91	28.83	7.99	-44.7	-46.1	24.7	6.04e-01	0	41	0	98041856	61	4101
2026-01-30 00:29:42.91	28.93	8.06	-44.9	-46.2	24.5	6.05e-01	0	41	0	99614720	61	4182
2026-01-30 00:29:43.92	29.04	8.13	-44.8	-46.1	24.6	6.03e-01	0	41	0	101711872	61	4143
2026-01-30 00:29:44.93	29.14	8.20	-44.8	-46.2	24.6	6.05e-01	0	41	0	103284736	61	4158
2026-01-30 00:29:45.94	29.25	8.27	-44.6	-45.9	24.9	6.03e-01	0	41	0	105381888	61	4023
2026-01-30 00:29:46.95	29.36	8.34	-44.6	-45.9	24.9	6.02e-01	0	41	0	107479040	61	4016
2026-01-30 00:29:47.96	29.47	8.42	-44.6	-45.9	24.8	6.04e-01	0	41	0	109051904	61	4046
2026-01-30 00:29:48.96	29.58	8.49	-44.8	-46.1	24.6	6.04e-01	0	41	0	111149056	61	4133
2026-01-30 00:29:49.97	29.68	8.56	-45.0	-46.3	24.5	6.04e-01	0	41	0	112721920	61	4216
2026-01-30 00:29:50.98	29.79	8.63	-45.1	-46.5	24.3	6.04e-01	0	41	0	114819072	61	4303
2026-01-30 00:29:51.98	29.90	8.71	-44.7	-46.0	24.7	6.05e-01	0	41	0	116391936	61	4084
2026-01-30 00:29:52.99	30.02	8.78	-44.9	-46.2	24.6	6.04e-01	0	41	0	118489088	61	4163
2026-01-30 00:29:54.00	30.13	8.85	-44.5	-45.8	25.0	6.02e-01	0	41	0	120586240	61	3978
2026-01-30 00:29:55.01	30.24	8.93	-44.4	-45.7	25.0	6.05e-01	0	41	0	122683392	60	4170
2026-01-30 00:29:56.02	30.35	9.00	-44.4	-45.7	25.0	6.05e-01	0	41	0	124256256	60	4175
2026-01-30 00:29:57.02	30.47	9.07	-44.4	-45.7	25.0	6.02e-01	0	41	0	126353408	60	4180
2026-01-30 00:29:58.03	30.58	9.15	-44.5	-45.8	24.9	6.04e-01	0	41	0	127926272	60	4227
2026-01-30 00:29:59.04	30.70	9.22	-44.5	-45.8	24.9	6.03e-01	0	41	0	130023424	60	4216
2026-01-30 00:30:00.05	30.81	9.30	-44.5	-45.8	25.0	6.03e-01	0	41	0	131596288	60	4200
2026-01-30 00:30:01.05	30.93	9.37	-44.5	-45.7	25.0	6.01e-01	0	41	0	133693440	60	4189
2026-01-30 00:30:02.06	31.04	9.44	-44.3	-45.6	25.2	6.03e-01	0	41	0	135790592	60	4110
2026-01-30 00:30:03.06	31.16	9.52	-44.3	-45.6	25.2	6.04e-01	0	41	0	137363456	60	4111
2026-01-30 00:30:04.07	31.28	9.59	-44.4	-45.6	25.2	6.03e-01	0	41	0	139460608	60	4126
2026-01-30 00:30:05.07	31.39	9.67	-44.3	-45.6	25.2	6.05e-01	0	41	0	141033472	60	4118
2026-01-30 00:30:06.08	31.51	9.74	-44.2	-45.5	25.3	6.03e-01	0	41	0	143130624	60	4066
2026-01-30 00:30:07.08	31.63	9.82	-44.3	-45.5	25.3	6.03e-01	0	41	0	144703488	60	4085
2026-01-30 00:30:08.09	31.75	9.89	-44.1	-45.3	25.4	6.04e-01	0	41	0	146800640	60	4001
2026-01-30 00:30:09.09	31.87	9.97	-44.2	-45.4	25.4	6.04e-01	0	41	0	148897792	60	4050
2026-01-30 00:30:10.09	31.99	10.04	-44.1	-45.3	25.5	6.07e-01	0	41	0	150994944	60	3982
2026-01-30 00:30:11.10	32.12	10.12	-44.2	-45.4	25.4	6.03e-01	0	41	0	152567808	60	4024
2026-01-30 00:30:12.10	32.24	10.19	-44.2	-45.4	25.4	6.06e-01	0	41	0	154664960	60	4046
2026-01-30 00:30:13.11	32.36	10.27	-44.2	-45.5	25.4	6.06e-01	0	41	0	156237824	60	4055
2026-01-30 00:30:14.12	32.49	10.35	-44.3	-45.6	25.3	6.05e-01	0	41	0	158334976	60	4106
2026-01-30 00:30:15.13	32.61	10.42	-44.3	-45.6	24.9	6.06e-01	0	41	0	159907840	60	4115
2026-01-30 00:30:16.13	32.73	10.50	-44.5	-45.7	25.1	6.06e-01	0	41	0	162004992	60	4191
2026-01-30 00:30:17.14	32.86	10.58	-44.4	-45.6	25.2	6.04e-01	0	41	0	164102144	60	4142
2026-01-30 00:30:18.15	32.99	10.65	-44.3	-45.5	25.3	6.04e-01	0	41	0	165675008	60	4077
2026-01-30 00:30:19.15	33.11	10.73	-44.2	-45.4	25.5	6.04e-01	0	41	0	167772160	60	4030
2026-01-30 00:30:20.15	33.24	10.81	-44.0	-45.2	25.5	6.05e-01	0	41	0	169345024	59	4185
2026-01-30 00:30:21.16	33.37	10.88	-44.1	-45.3	25.4	6.03e-01	0	41	0	171442176	59	4240
2026-01-30 00:30:22.17	33.50	10.96	-44.3	-45.5	25.3	6.05e-01	0	41	0	173015040	59	4339
2026-01-30 00:30:23.17	33.63	11.04	-44.4	-45.7	25.1	6.04e-01	0	41	0	175112192	59	4397
2026-01-30 00:30:24.18	33.76	11.12	-44.1	-45.3	25.5	6.03e-01	0	41	0	177209344	59	4202
2026-01-30 00:30:25.18	33.89	11.19	-44.0	-45.2	25.5	6.05e-01	0	41	0	178782208	59	4190
2026-01-30 00:30:26.19	34.03	11.27	-44.1	-45.3	25.5	6.05e-01	0	41	0	180879360	59	4203
2026-01-30 00:30:27.20	34.16	11.35	-44.2	-45.4	25.4	6.04e-01	0	41	0	182976512	59	4267
2026-01-30 00:30:28.21	34.29	11.43	-44.2	-45.4	25.3	6.06e-01	0	41	0	184549376	59	4261
2026-01-30 00:30:29.21	34.43	11.51	-44.1	-45.3	25.4	6.05e-01	0	41	0	186646528	59	4222
2026-01-30 00:30:30.21	34.56	11.58	-44.1	-45.3	25.5	6.02e-01	0	41	0	188219392	59	4210
2026-01-30 00:30:31.22	34.70	11.66	-44.0	-45.2	25.6	6.03e-01	0	41	0	190316544	59	4171
2026-01-30 00:30:32.23	34.84	11.74	-44.1	-45.4	25.4	6.05e-01	0	41	0	192413696	59	4255
2026-01-30 00:30:33.24	34.97	11.82	-44.0	-45.2	25.7	6.02e-01	0	41	0	193986560	59	4170
2026-01-30 00:30:34.24	35.11	11.90	-43.9	-45.1	25.7	6.04e-01	0	41	0	196083712	59	4114
2026-01-30 00:30:35.25	35.25	11.98	-43.9	-45.1	25.8	6.03e-01	0	41	0	197656576	59	4104
2026-01-30 00:30:36.25	35.39	12.06	-43.9	-45.1	25.7	6.04e-01	0	41	0	199753728	59	4106
2026-01-30 00:30:37.26	35.53	12.14	-43.9	-45.1	25.8	6.03e-01	0	41	0	201326592	59	4121
2026-01-30 00:30:38.27	35.67	12.22	-43.9	-45.0	25.7	6.05e-01	0	41	0	203423744	59	4097
2026-01-30 00:30:39.28	35.82	12.30	-43.9	-45.1	25.7	6.03e-01	0	41	0	205520896	59	4140
2026-01-30 00:30:40.28	35.96	12.38	-43.9	-45.1	25.7	6.05e-01	0	41	0	207093760	59	4123
2026-01-30 00:30:41.29	36.10	12.46	-44.0	-45.2	25.7	6.04e-01	0	41	0	209190912	59	4151
2026-01-30 00:30:42.29	36.25	12.54	-43.9	-45.1	25.8	6.04e-01	0	41	0	210763776	59	4108
2026-01-30 00:30:43.30	36.39	12.62	-44.0	-45.2	25.7	6.03e-01	0	41	0	212860928	59	4187
2026-01-30 00:30:44.31	36.54	12.70	-43.9	-45.1	25.7	6.04e-01	0	41	0	214958080	59	4126
2026-01-30 00:30:45.31	36.69	12.78	-43.9	-45.0	25.8	6.01e-01	0	41	0	216530944	59	4092
2026-01-30 00:30:46.32	36.83	12.86	-43.9	-45.0	25.8	6.04e-01	0	41	0	218628096	59	4090
2026-01-30 00:30:47.33	36.98	12.94	-43.8	-44.9	25.9	6.05e-01	0	41	0	220725248	59	4048
2026-01-30 00:30:48.33	37.13	13.02	-43.7	-44.9	25.9	6.03e-01	0	41	0	222298112	59	4039
2026-01-30 00:30:49.33	37.28	13.10	-43.6	-44.8	26.0	6.05e-01	0	41	0	224395264	59	3980
2026-01-30 00:30:50.34	37.43	13.18	-43.6	-44.8	25.9	6.01e-01	0	41	0	225968128	59	3980
2026-01-30 00:30:51.35	37.59	13.27	-43.7	-44.8	26.0	6.03e-01	0	41	0	228065280	59	3991
2026-01-30 00:30:52.35	37.74	13.35	-43.6	-44.8	26.0	6.03e-01	0	41	0	229638144	59	3971
2026-01-30 00:30:53.36	37.89	13.43	-43.7	-44.8	25.9	6.04e-01	0	41	0	231735296	59	3999
2026-01-30 00:30:54.37	38.05	13.51	-43.7	-44.8	26.0	6.03e-01	0	41	0	233832448	59	4003
2026-01-30 00:30:55.37	38.20	13.59	-43.6	-44.7	26.1	6.02e-01	0	41	0	235405312	59	3949
2026-01-30 00:30:56.38	38.36	13.68	-43.7	-44.9	26.0	6.04e-01	0	41	0	237502464	59	4021
2026-01-30 00:30:57.38	38.52	13.76	-43.6	-44.8	26.1	6.02e-01	0	41	0	239075328	59	3979
2026-01-30 00:30:58.39	38.68	13.84	-43.6	-44.7	26.2	6.05e-01	0	41	0	241172480	59	3953
2026-01-30 00:30:59.40	38.84	13.92	-43.7	-44.8	26.1	6.04e-01	0	41	0	243269632	59	3996
2026-01-30 00:31:00.41	39.00	14.01	-43.6	-44.7	26.1	6.03e-01	0	41	0	244842496	59	3946
2026-01-30 00:31:01.41	39.16	14.09	-43.5	-44.6	26.2	6.05e-01	0	41	0	246939648	59	3893
2026-01-30 00:31:02.41	39.32	14.17	-43.5	-44.7	26.2	6.03e-01	0	41	0	249036800	58	4171
2026-01-30 00:31:03.42	39.48	14.25	-43.5	-44.6	26.2	6.02e-01	0	41	0	250609664	58	4132
2026-01-30 00:31:04.42	39.65	14.34	-43.5	-44.6	26.3	6.01e-01	0	41	0	252706816	58	4120
2026-01-30 00:31:05.43	39.81	14.42	-43.5	-44.6	26.2	6.07e-01	0	41	0	254279680	58	4135
2026-01-30 00:31:06.43	39.98	14.50	-43.4	-44.6	26.3	6.04e-01	0	41	0	256376832	58	4118
2026-01-30 00:31:07.44	40.14	14.59	-43.4	-44.6	26.3	6.05e-01	0	41	0	257949696	58	4112
2026-01-30 00:31:08.44	40.31	14.67	-43.4	-44.5	26.4	6.05e-01	0	41	0	260046848	58	4075
2026-01-30 00:31:09.45	40.48	14.75	-43.4	-44.5	26.4	6.05e-01	0	41	0	262144000	58	4069
2026-01-30 00:31:10.45	40.65	14.84	-43.2	-44.4	26.5	6.04e-01	0	41	0	263716864	58	4006
2026-01-30 00:31:11.46	40.82	14.92	-43.3	-44.4	26.4	6.03e-01	0	41	0	265814016	58	4041
2026-01-30 00:31:12.47	40.99	15.00	-43.3	-44.4	26.4	6.02e-01	0	41	0	267386880	58	4044
2026-01-30 00:31:13.48	41.17	15.09	-43.3	-44.4	26.4	6.03e-01	0	41	0	269484032	58	4045
2026-01-30 00:31:14.48	41.34	15.17	-43.3	-44.4	26.4	6.03e-01	0	41	0	271581184	58	4040
2026-01-30 00:31:15.49	41.52	15.26	-43.3	-44.4	26.4	6.03e-01	0	41	0	273154048	58	4032
2026-01-30 00:31:16.50	41.69	15.34	-43.2	-44.3	26.6	6.04e-01	0	41	0	275251200	58	3988
2026-01-30 00:31:17.50	41.87	15.43	-43.3	-44.5	26.4	6.04e-01	0	41	0	277348352	58	4066
2026-01-30 00:31:18.50	42.05	15.51	-43.3	-44.4	26.5	6.05e-01	0	41	0	278921216	58	4023
2026-01-30 00:31:19.51	42.23	15.59	-43.2	-44.3	26.5	6.04e-01	0	41	0	281018368	58	3995
2026-01-30 00:31:20.52	42.41	15.68	-43.2	-44.3	26.6	6.02e-01	0	41	0	282591232	58	3983
2026-01-30 00:31:21.53	42.59	15.76	-43.1	-44.3	26.6	6.01e-01	0	41	0	284688384	58	3962
2026-01-30 00:31:22.53	42.77	15.85	-43.2	-44.3	26.6	6.04e-01	0	41	0	286261248	58	3992
2026-01-30 00:31:23.54	42.95	15.93	-43.2	-44.3	26.6	6.01e-01	0	41	0	288358400	58	3996
2026-01-30 00:31:24.55	43.14	16.02	-43.2	-44.4	26.5	6.04e-01	0	41	0	290455552	58	4013
2026-01-30 00:31:25.55	43.32	16.10	-43.3	-44.5	26.4	6.03e-01	0	41	0	292028416	58	4061
2026-01-30 00:31:26.56	43.51	16.19	-43.3	-44.4	26.5	6.03e-01	0	41	0	294125568	58	4022
2026-01-30 00:31:27.56	43.70	16.27	-43.3	-44.4	26.5	6.03e-01	0	41	0	295698432	58	4033
2026-01-30 00:31:28.57	43.89	16.36	-43.1	-44.2	26.6	6.05e-01	0	41	0	297795584	58	3957
2026-01-30 00:31:29.58	44.08	16.44	-43.2	-44.3	26.6	6.04e-01	0	41	0	299892736	58	3976
2026-01-30 00:31:30.59	44.27	16.53	-43.2	-44.3	26.5	6.03e-01	0	41	0	301465600	58	3987
2026-01-30 00:31:31.59	44.46	16.61	-43.2	-44.3	26.6	6.03e-01	0	41	0	303562752	58	3989
2026-01-30 00:31:32.60	44.65	16.70	-43.2	-44.3	26.5	6.04e-01	0	41	0	305659904	58	3987
2026-01-30 00:31:33.60	44.85	16.78	-43.2	-44.3	26.6	6.03e-01	0	41	0	307232768	58	3996
2026-01-30 00:31:34.61	45.04	16.87	-43.1	-44.3	26.6	6.03e-01	0	41	0	309329920	58	3961
2026-01-30 00:31:35.61	45.24	16.95	-43.1	-44.2	26.6	6.02e-01	0	41	0	310902784	58	3957
2026-01-30 00:31:36.62	45.44	17.04	-43.1	-44.2	26.7	6.05e-01	0	41	0	312999936	58	3936
2026-01-30 00:31:37.63	45.64	17.13	-43.2	-44.3	26.6	6.02e-01	0	41	0	314572800	58	3979
2026-01-30 00:31:38.64	45.84	17.21	-43.2	-44.4	26.6	6.03e-01	0	41	0	316669952	58	4009
2026-01-30 00:31:39.64	46.04	17.30	-43.2	-44.3	26.6	6.03e-01	0	41	0	318767104	58	4001
2026-01-30 00:31:40.65	46.24	17.38	-43.1	-44.2	26.7	6.03e-01	0	41	0	320339968	58	3942
2026-01-30 00:31:41.66	46.45	17.47	-43.1	-44.2	26.7	6.02e-01	0	41	0	322437120	58	3945
2026-01-30 00:31:42.66	46.65	17.55	-43.1	-44.2	26.7	6.02e-01	0	41	0	324009984	58	3942
2026-01-30 00:31:43.67	46.86	17.64	-43.1	-44.2	26.7	6.02e-01	0	41	0	326107136	58	3945
2026-01-30 00:31:44.68	47.07	17.72	-43.2	-44.3	26.6	6.02e-01	0	41	0	328204288	58	3970
2026-01-30 00:31:45.69	47.28	17.81	-43.1	-44.3	26.6	6.05e-01	0	41	0	329777152	58	3962
2026-01-30 00:31:46.69	47.48	17.89	-43.1	-44.2	26.7	6.03e-01	0	41	0	331874304	58	3950
2026-01-30 00:31:47.70	47.70	17.98	-43.1	-44.2	26.7	6.04e-01	0	41	0	333971456	58	3930
2026-01-30 00:31:48.70	47.91	18.07	-43.3	-44.4	26.6	6.01e-01	0	41	0	335544320	58	4015
2026-01-30 00:31:49.71	48.12	18.15	-43.2	-44.3	26.6	6.05e-01	0	41	0	337641472	58	4002
2026-01-30 00:31:50.73	48.34	18.24	-43.1	-44.2	26.7	6.04e-01	0	41	0	339214336	58	3954
2026-01-30 00:31:51.73	48.55	18.32	-43.1	-44.3	26.7	6.05e-01	0	41	0	341311488	58	3961
2026-01-30 00:31:52.74	48.77	18.41	-43.1	-44.2	26.8	6.02e-01	0	41	0	342884352	58	3914
2026-01-30 00:31:53.75	48.99	18.49	-43.2	-44.3	26.7	6.04e-01	0	41	0	344981504	58	3968
2026-01-30 00:31:54.75	49.21	18.58	-43.2	-44.3	26.7	6.02e-01	0	41	0	347078656	58	3982
2026-01-30 00:31:55.76	49.43	18.66	-43.2	-44.3	26.6	6.03e-01	0	41	0	348651520	58	3999
2026-01-30 00:31:56.77	49.66	18.75	-43.1	-44.2	26.8	6.06e-01	0	41	0	350748672	58	3914
2026-01-30 00:31:57.77	49.88	18.83	-43.1	-44.2	26.7	6.02e-01	0	41	0	352321536	58	3942
2026-01-30 00:31:58.77	50.10	18.92	-43.2	-44.3	26.7	6.01e-01	0	41	0	354418688	58	3965
2026-01-30 00:31:59.78	50.33	19.00	-43.2	-44.3	26.5	6.03e-01	0	41	0	356515840	58	3973
2026-01-30 00:32:00.79	50.56	19.09	-43.2	-44.4	26.6	6.03e-01	0	41	0	358088704	58	4014
2026-01-30 00:32:01.79	50.78	19.17	-43.2	-44.3	26.7	6.02e-01	0	41	0	360185856	58	3967
2026-01-30 00:32:02.80	51.02	19.25	-43.2	-44.3	26.7	6.04e-01	0	41	0	362283008	58	3978
2026-01-30 00:32:03.80	51.25	19.34	-43.2	-44.3	26.7	6.03e-01	0	41	0	363855872	58	4002
2026-01-30 00:32:04.81	51.48	19.42	-43.2	-44.3	26.7	6.03e-01	0	41	0	365953024	58	4002
2026-01-30 00:32:05.82	51.71	19.51	-43.2	-44.4	26.6	6.02e-01	0	41	0	367525888	58	4010
2026-01-30 00:32:06.83	51.95	19.59	-43.1	-44.2	26.7	6.05e-01	0	41	0	369623040	58	3928
2026-01-30 00:32:07.83	52.19	19.67	-43.3	-44.4	26.7	6.04e-01	0	41	0	371195904	58	4011
2026-01-30 00:32:08.83	52.42	19.76	-43.2	-44.3	26.7	6.04e-01	0	41	0	373293056	58	3987
2026-01-30 00:32:09.84	52.66	19.84	-43.2	-44.4	26.7	6.03e-01	0	41	0	375390208	58	4005
2026-01-30 00:32:10.85	52.91	19.92	-43.4	-44.5	26.5	6.02e-01	0	41	0	376963072	58	4065
2026-01-30 00:32:11.86	53.15	20.01	-43.4	-44.5	26.4	6.05e-01	0	41	0	379060224	58	4067
2026-01-30 00:32:12.86	53.39	20.09	-43.3	-44.5	26.5	6.04e-01	0	41	0	380633088	58	4056
2026-01-30 00:32:13.87	53.64	20.17	-43.3	-44.4	26.6	6.04e-01	0	41	0	382730240	58	4043
2026-01-30 00:32:14.88	53.88	20.25	-43.2	-44.3	26.7	6.03e-01	0	41	0	384827392	58	3978
2026-01-30 00:32:15.88	54.13	20.34	-43.2	-44.4	26.7	6.02e-01	0	41	0	386400256	58	4009
2026-01-30 00:32:16.88	54.38	20.42	-43.1	-44.2	26.8	6.03e-01	0	41	0	388497408	58	3936
2026-01-30 00:32:17.89	54.63	20.50	-43.2	-44.3	26.7	6.04e-01	0	41	0	390594560	58	3975
2026-01-30 00:32:18.90	54.88	20.58	-43.3	-44.4	26.6	6.03e-01	0	41	0	392167424	58	4034
2026-01-30 00:32:19.90	55.13	20.66	-43.3	-44.5	26.6	6.02e-01	0	41	0	394264576	58	4056
2026-01-30 00:32:20.91	55.39	20.74	-43.4	-44.5	26.6	6.05e-01	0	41	0	395837440	58	4070
2026-01-30 00:32:21.92	55.65	20.82	-43.3	-44.4	26.6	6.05e-01	0	41	0	397934592	58	4021
2026-01-30 00:32:22.92	55.90	20.90	-43.3	-44.4	26.6	6.04e-01	0	41	0	399507456	58	4019
2026-01-30 00:32:23.93	56.16	20.98	-43.3	-44.4	26.6	6.03e-01	0	41	0	401604608	58	4034
2026-01-30 00:32:24.94	56.42	21.06	-43.4	-44.6	26.5	6.03e-01	0	41	0	403701760	58	4114
2026-01-30 00:32:25.95	56.68	21.14	-43.3	-44.4	26.7	6.04e-01	0	41	0	405274624	58	4035
2026-01-30 00:32:26.95	56.95	21.22	-43.4	-44.5	26.5	6.04e-01	0	41	0	407371776	58	4084
2026-01-30 00:32:27.96	57.21	21.30	-43.6	-44.7	26.4	6.05e-01	0	41	0	408944640	58	4168
2026-01-30 00:32:28.96	57.47	21.38	-43.4	-44.5	26.5	6.04e-01	0	41	0	411041792	58	4079
2026-01-30 00:32:29.97	57.74	21.46	-43.5	-44.6	26.5	6.04e-01	0	41	0	413138944	58	4117
2026-01-30 00:32:30.97	58.01	21.54	-43.4	-44.5	26.5	6.04e-01	0	41	0	414711808	58	4087
2026-01-30 00:32:31.98	58.28	21.61	-43.5	-44.6	26.4	6.04e-01	0	41	0	416808960	58	4120
2026-01-30 00:32:32.99	58.55	21.69	-43.4	-44.5	26.5	6.03e-01	0	41	0	418381824	58	4096
2026-01-30 00:32:34.00	58.83	21.77	-43.4	-44.5	26.5	6.05e-01	0	41	0	420478976	58	4076
2026-01-30 00:32:34.99	59.10	21.84	-43.4	-44.6	26.5	6.04e-01	0	41	0	422576128	58	4111
2026-01-30 00:32:36.00	59.37	21.92	-43.5	-44.7	26.4	6.04e-01	0	41	0	424148992	58	4149
2026-01-30 00:32:37.00	59.65	22.00	-43.4	-44.6	26.5	6.05e-01	0	41	0	426246144	58	4108
2026-01-30 00:32:38.01	59.93	22.07	-43.5	-44.7	26.5	6.01e-01	0	41	0	427819008	58	4146
2026-01-30 00:32:39.02	60.21	22.15	-43.4	-44.5	25.9	6.03e-01	0	41	0	429916160	58	4085
2026-01-30 00:32:40.02	60.49	22.22	-43.5	-44.7	26.4	6.05e-01	0	41	0	432013312	58	4150
2026-01-30 00:32:41.02	60.77	22.30	-43.5	-44.6	26.4	6.04e-01	0	41	0	433586176	58	4135
2026-01-30 00:32:42.03	61.05	22.37	-43.5	-44.7	26.4	6.02e-01	0	41	0	435683328	58	4152
2026-01-30 00:32:43.04	61.34	22.44	-43.4	-44.5	26.6	6.02e-01	0	41	0	437256192	58	4063
2026-01-30 00:32:44.04	61.62	22.51	-43.4	-44.6	26.5	6.03e-01	0	41	0	439353344	58	4102
2026-01-30 00:32:45.05	61.91	22.59	-43.5	-44.7	26.4	6.03e-01	0	41	0	441450496	58	4152
2026-01-30 00:32:46.05	62.20	22.66	-43.5	-44.6	26.5	6.02e-01	0	41	0	443023360	58	4122
2026-01-30 00:32:47.06	62.49	22.73	-43.5	-44.7	26.4	6.04e-01	0	41	0	445120512	58	4146
2026-01-30 00:32:48.06	62.78	22.80	-43.6	-44.8	26.3	6.01e-01	0	41	0	446693376	58	4208
2026-01-30 00:32:49.07	63.08	22.87	-43.6	-44.7	26.4	6.03e-01	0	41	0	448790528	58	4164
2026-01-30 00:32:50.07	63.37	22.94	-43.5	-44.6	26.5	6.04e-01	0	41	0	450363392	58	4124
2026-01-30 00:32:51.08	63.67	23.01	-43.6	-44.8	26.4	6.00e-01	0	41	0	452460544	58	4196
2026-01-30 00:32:52.09	63.97	23.08	-43.7	-44.9	26.2	6.03e-01	0	41	0	454557696	58	4266
2026-01-30 00:32:53.11	64.27	23.15	-43.8	-44.9	26.2	6.03e-01	0	41	0	456130560	58	4277
2026-01-30 00:32:54.11	64.57	23.21	-43.8	-44.9	26.1	6.04e-01	0	41	0	458227712	58	4279
2026-01-30 00:32:55.12	64.87	23.28	-43.9	-45.1	25.6	6.03e-01	0	41	0	460324864	58	4352
2026-01-30 00:32:56.12	65.17	23.35	-43.7	-44.8	26.3	6.03e-01	0	41	0	461897728	58	4224
2026-01-30 00:32:57.13	65.48	23.41	-43.8	-45.0	26.2	6.06e-01	0	41	0	463994880	58	4304
2026-01-30 00:32:58.13	65.78	23.48	-43.8	-44.9	26.2	6.03e-01	0	41	0	465567744	58	4275
2026-01-30 00:32:59.14	66.09	23.54	-43.5	-44.7	26.4	6.02e-01	0	41	0	467664896	58	4162
2026-01-30 00:33:00.15	66.40	23.61	-43.6	-44.8	26.3	6.04e-01	0	41	0	469762048	58	4214
2026-01-30 00:33:01.16	66.71	23.67	-43.7	-44.9	26.3	6.04e-01	0	41	0	471334912	58	4252
2026-01-30 00:33:02.17	67.02	23.73	-43.6	-44.7	26.3	6.05e-01	0	42	0	473432064	58	4191
2026-01-30 00:33:03.17	67.33	23.79	-43.4	-44.5	26.6	6.03e-01	0	41	0	475004928	58	4072
2026-01-30 00:33:04.18	67.64	23.86	-43.6	-44.8	26.4	6.05e-01	0	41	0	477102080	58	4194
2026-01-30 00:33:05.19	67.96	23.92	-43.8	-45.0	26.1	6.04e-01	0	42	0	478674944	58	4310
2026-01-30 00:33:06.20	68.28	23.98	-43.5	-44.6	26.5	6.03e-01	0	41	0	480772096	58	4132
2026-01-30 00:33:07.21	68.59	24.04	-43.6	-44.8	26.4	6.02e-01	0	41	0	482869248	58	4201
2026-01-30 00:33:08.21	68.91	24.09	-43.8	-44.9	26.2	6.03e-01	0	41	0	484442112	58	4284
2026-01-30 00:33:09.22	69.23	24.15	-43.6	-44.7	26.4	6.03e-01	0	41	0	486539264	58	4161
2026-01-30 00:33:10.22	69.55	24.21	-43.6	-44.7	26.4	6.05e-01	0	41	0	488636416	58	4168
2026-01-30 00:33:11.23	69.87	24.26	-43.6	-44.8	26.3	6.03e-01	0	41	0	490209280	58	4211
2026-01-30 00:33:12.24	70.20	24.32	-43.7	-44.8	26.4	6.04e-01	0	41	0	492306432	58	4219
2026-01-30 00:33:13.24	70.52	24.37	-43.5	-44.7	26.5	6.05e-01	0	41	0	493879296	58	4154
2026-01-30 00:33:14.25	70.84	24.43	-43.7	-44.8	26.4	6.03e-01	0	41	0	495976448	58	4235
2026-01-30 00:33:15.26	71.17	24.48	-43.7	-44.9	26.3	6.04e-01	0	41	0	498073600	58	4247
2026-01-30 00:33:16.27	71.50	24.53	-43.6	-44.7	26.5	6.04e-01	0	41	0	499646464	58	4172
2026-01-30 00:33:17.28	71.83	24.58	-43.6	-44.8	26.4	6.04e-01	0	41	0	501743616	58	4212
2026-01-30 00:33:18.29	72.16	24.63	-43.6	-44.8	26.3	6.06e-01	0	41	0	503316480	58	4214
2026-01-30 00:33:19.30	72.49	24.68	-43.5	-44.6	26.5	6.04e-01	0	41	0	505413632	58	4138
2026-01-30 00:33:20.30	72.82	24.73	-43.5	-44.7	26.5	6.03e-01	0	41	0	507510784	58	4154
2026-01-30 00:33:21.31	73.16	24.78	-43.7	-44.8	26.4	6.06e-01	0	41	0	509083648	58	4218
2026-01-30 00:33:22.31	73.49	24.83	-43.6	-44.8	26.4	6.05e-01	0	41	0	511180800	58	4196
2026-01-30 00:33:23.31	73.82	24.87	-43.6	-44.8	26.4	6.02e-01	0	41	0	512753664	58	4206
2026-01-30 00:33:24.32	74.16	24.92	-43.6	-44.7	26.4	6.03e-01	0	41	0	514850816	58	4191
2026-01-30 00:33:25.33	74.50	24.96	-43.6	-44.7	26.4	6.04e-01	0	41	0	516947968	58	4186
2026-01-30 00:33:26.34	74.84	25.00	-43.7	-44.8	26.3	6.04e-01	0	41	0	518520832	58	4217
2026-01-30 00:33:27.34	75.17	25.05	-43.6	-44.7	26.4	6.04e-01	0	41	0	520617984	58	4156
2026-01-30 00:33:28.35	75.52	25.09	-43.6	-44.7	26.4	6.01e-01	0	41	0	522190848	58	4191
2026-01-30 00:33:29.35	75.85	25.13	-43.7	-44.8	26.3	6.04e-01	0	41	0	524288000	58	4216
2026-01-30 00:33:30.36	76.20	25.17	-43.6	-44.8	26.4	6.03e-01	0	41	0	526385152	58	4202
2026-01-30 00:33:31.37	76.54	25.21	-43.5	-44.7	26.5	6.05e-01	0	41	0	527958016	58	4151
2026-01-30 00:33:32.38	76.88	25.24	-43.6	-44.7	26.5	6.06e-01	0	41	0	530055168	58	4161
2026-01-30 00:33:33.38	77.23	25.28	-43.6	-44.7	26.4	6.05e-01	0	41	0	531628032	58	4191
2026-01-30 00:33:34.39	77.57	25.32	-43.4	-44.5	26.5	6.04e-01	0	41	0	533725184	58	4095
2026-01-30 00:33:35.39	77.92	25.35	-43.6	-44.8	26.4	6.03e-01	0	41	0	535822336	58	4214
2026-01-30 00:33:36.40	78.26	25.38	-43.6	-44.7	26.5	6.01e-01	0	41	0	537395200	58	4158
2026-01-30 00:33:37.40	78.61	25.42	-43.6	-44.7	26.5	6.02e-01	0	41	0	539492352	58	4168
2026-01-30 00:33:38.41	78.96	25.45	-43.5	-44.6	26.6	6.04e-01	0	41	0	541065216	58	4112
2026-01-30 00:33:39.41	79.31	25.48	-43.5	-44.6	26.6	6.06e-01	0	41	0	543162368	58	4138
2026-01-30 00:33:40.42	79.66	25.51	-43.5	-44.6	26.5	6.04e-01	0	41	0	545259520	58	4133
2026-01-30 00:33:41.43	80.01	25.54	-43.7	-44.9	26.3	6.04e-01	0	41	0	546832384	58	4252
2026-01-30 00:33:42.43	80.36	25.56	-43.6	-44.8	26.3	6.04e-01	0	41	0	548929536	58	4208
2026-01-30 00:33:43.44	80.71	25.59	-43.3	-44.4	26.8	6.04e-01	0	41	0	550502400	58	4026
2026-01-30 00:33:44.44	81.06	25.62	-43.4	-44.5	26.6	6.04e-01	0	41	0	552599552	58	4080
2026-01-30 00:33:45.45	81.41	25.64	-43.6	-44.7	26.4	6.04e-01	0	41	0	554696704	58	4191
2026-01-30 00:33:46.45	81.76	25.66	-43.5	-44.6	26.5	6.02e-01	0	41	0	556269568	58	4138
2026-01-30 00:33:47.46	82.12	25.68	-43.5	-44.6	26.5	6.04e-01	0	41	0	558366720	58	4135
2026-01-30 00:33:48.47	82.47	25.71	-43.5	-44.6	26.5	6.03e-01	0	41	0	559939584	58	4112
2026-01-30 00:33:49.48	82.83	25.73	-43.5	-44.6	26.5	6.03e-01	0	41	0	562036736	58	4144
2026-01-30 00:33:50.48	83.18	25.74	-43.5	-44.6	26.5	6.04e-01	0	41	0	563609600	58	4127
2026-01-30 00:33:51.49	83.54	25.76	-43.4	-44.5	26.6	6.03e-01	0	41	0	565706752	58	4096
2026-01-30 00:33:52.50	83.90	25.78	-43.5	-44.6	26.6	6.02e-01	0	41	0	567803904	58	4113
2026-01-30 00:33:53.50	84.25	25.79	-43.5	-44.6	26.5	6.04e-01	0	41	0	569376768	58	4142
2026-01-30 00:33:54.51	84.61	25.81	-43.5	-44.6	26.5	6.01e-01	0	41	0	571473920	58	4135
2026-01-30 00:33:55.52	84.97	25.82	-43.3	-44.4	26.7	6.03e-01	0	41	0	573571072	58	4016
2026-01-30 00:33:56.53	85.32	25.83	-43.3	-44.4	26.6	6.04e-01	0	41	0	575143936	58	4030
2026-01-30 00:33:57.53	85.68	25.84	-43.5	-44.6	26.5	6.02e-01	0	41	0	577241088	58	4139
2026-01-30 00:33:58.55	86.04	25.85	-43.5	-44.6	26.6	6.04e-01	0	41	0	578813952	58	4132
2026-01-30 00:33:59.56	86.40	25.86	-43.4	-44.5	26.7	6.04e-01	0	41	0	580911104	58	4070
2026-01-30 00:34:00.56	86.76	25.87	-43.4	-44.5	26.7	6.03e-01	0	41	0	583008256	58	4073
2026-01-30 00:34:01.57	87.12	25.88	-43.2	-44.3	26.8	6.04e-01	0	41	0	584581120	58	3995
2026-01-30 00:34:02.57	87.47	25.88	-43.2	-44.3	26.9	6.03e-01	0	41	0	586678272	58	3984
2026-01-30 00:34:03.58	87.83	25.89	-43.3	-44.4	26.7	6.03e-01	0	41	0	588251136	58	4018
2026-01-30 00:34:04.58	88.19	25.89	-43.4	-44.6	26.5	6.05e-01	0	41	0	590348288	58	4099
2026-01-30 00:34:05.59	88.55	25.89	-43.3	-44.4	26.8	6.06e-01	0	41	0	591921152	58	4010
2026-01-30 00:34:06.60	88.91	25.89	-43.2	-44.3	26.8	6.05e-01	0	41	0	594018304	58	3994
2026-01-30 00:34:07.60	89.27	25.89	-43.2	-44.3	26.8	6.03e-01	0	41	0	596115456	58	3990
2026-01-30 00:34:08.61	89.63	25.89	-43.3	-44.4	26.8	6.03e-01	0	41	0	597688320	58	4034
2026-01-30 00:34:09.61	89.98	25.89	-43.4	-44.5	26.7	6.03e-01	0	41	0	599785472	58	4071
2026-01-30 00:34:10.62	90.34	25.88	-43.4	-44.6	26.6	6.03e-01	0	41	0	601882624	58	4104
2026-01-30 00:34:11.63	90.70	25.88	-43.3	-44.4	26.7	6.04e-01	0	41	0	603455488	58	4025
2026-01-30 00:34:12.63	91.06	25.87	-43.2	-44.3	26.9	6.02e-01	0	41	0	605552640	58	3980
2026-01-30 00:34:13.64	91.42	25.87	-43.3	-44.5	26.7	6.04e-01	0	41	0	607125504	58	4053
2026-01-30 00:34:14.65	91.78	25.86	-43.3	-44.4	26.7	6.04e-01	0	41	0	609222656	58	4049
2026-01-30 00:34:15.66	92.14	25.85	-43.3	-44.4	26.8	6.03e-01	0	41	0	611319808	58	4006
2026-01-30 00:34:16.67	92.50	25.84	-43.3	-44.4	26.8	6.04e-01	0	42	0	612892672	58	4037
2026-01-30 00:34:17.67	92.85	25.82	-43.3	-44.4	26.8	6.02e-01	0	41	0	614989824	58	4023
2026-01-30 00:34:18.69	93.21	25.81	-43.1	-44.2	26.8	6.07e-01	0	41	0	616562688	58	3953
2026-01-30 00:34:19.69	93.57	25.80	-43.4	-44.5	26.7	6.03e-01	0	41	0	618659840	58	4071
2026-01-30 00:34:20.69	93.92	25.78	-43.2	-44.3	26.8	6.03e-01	0	41	0	620756992	58	4001
2026-01-30 00:34:21.70	94.28	25.77	-43.2	-44.3	26.8	6.04e-01	0	41	0	622329856	58	3998
2026-01-30 00:34:22.71	94.64	25.75	-43.2	-44.3	26.9	6.04e-01	0	41	0	624427008	58	3975
2026-01-30 00:34:23.71	94.99	25.73	-43.3	-44.4	26.8	6.03e-01	0	41	0	625999872	58	4015
2026-01-30 00:34:24.72	95.35	25.71	-43.3	-44.4	26.7	6.02e-01	0	41	0	628097024	58	4043
2026-01-30 00:34:25.73	95.70	25.69	-43.3	-44.4	26.7	6.04e-01	0	41	0	630194176	58	4035
2026-01-30 00:34:26.73	96.05	25.67	-43.4	-44.5	26.6	6.05e-01	0	41	0	631767040	58	4058
2026-01-30 00:34:27.74	96.41	25.65	-43.1	-44.2	26.9	6.03e-01	0	41	0	633864192	58	3941
2026-01-30 00:34:28.75	96.76	25.62	-43.1	-44.2	26.9	6.03e-01	0	41	0	635437056	58	3952
2026-01-30 00:34:29.76	97.12	25.60	-43.2	-44.3	26.8	6.03e-01	0	41	0	637534208	58	3980
2026-01-30 00:34:30.76	97.47	25.57	-43.2	-44.3	26.8	6.03e-01	0	41	0	639631360	58	4000
2026-01-30 00:34:31.77	97.82	25.54	-43.1	-44.2	26.9	6.01e-01	0	41	0	641204224	58	3952
2026-01-30 00:34:32.78	98.17	25.51	-43.3	-44.4	26.7	6.04e-01	0	41	0	643301376	58	4013
2026-01-30 00:34:33.78	98.52	25.49	-43.2	-44.3	26.9	6.04e-01	0	41	0	644874240	58	3979
2026-01-30 00:34:34.79	98.87	25.46	-43.1	-44.2	26.9	6.03e-01	0	41	0	646971392	58	3930
2026-01-30 00:34:35.80	99.22	25.42	-43.0	-44.1	27.0	6.02e-01	0	41	0	649068544	58	3901
2026-01-30 00:34:36.81	99.57	25.39	-43.3	-44.4	26.8	6.04e-01	0	41	0	650641408	58	4016
2026-01-30 00:34:37.81	99.91	25.36	-43.2	-44.3	26.8	6.04e-01	0	41	0	652738560	58	3992
2026-01-30 00:34:38.82	100.26	25.32	-43.1	-44.2	26.9	6.03e-01	0	41	0	654311424	58	3934
2026-01-30 00:34:39.83	100.61	25.29	-43.0	-44.1	27.0	6.02e-01	0	41	0	656408576	58	3895
2026-01-30 00:34:40.84	100.95	25.25	-43.0	-44.1	27.0	6.03e-01	0	41	0	658505728	58	3889
2026-01-30 00:34:41.84	101.30	25.21	-43.0	-44.1	27.0	6.03e-01	0	41	0	660078592	58	3890
2026-01-30 00:34:42.84	101.64	25.18	-43.2	-44.3	26.9	6.03e-01	0	41	0	662175744	58	3969
2026-01-30 00:34:43.85	101.98	25.14	-43.1	-44.2	26.9	6.03e-01	0	41	0	663748608	58	3950
2026-01-30 00:34:44.86	102.32	25.10	-43.2	-44.3	26.8	6.05e-01	0	41	0	665845760	58	3992
2026-01-30 00:34:45.87	102.67	25.05	-43.2	-44.3	26.9	6.05e-01	0	41	0	667942912	58	3971
2026-01-30 00:34:46.87	103.00	25.01	-43.2	-44.3	26.9	6.08e-01	0	41	0	669515776	58	3967
2026-01-30 00:34:47.88	103.34	24.97	-43.2	-44.3	26.9	6.02e-01	0	41	0	671612928	58	3962
2026-01-30 00:34:48.88	103.68	24.93	-43.0	-44.1	26.9	6.02e-01	0	41	0	673185792	58	3904
2026-01-30 00:34:49.89	104.02	24.88	-43.1	-44.1	27.0	6.03e-01	0	41	0	675282944	58	3905
2026-01-30 00:34:50.90	104.35	24.83	-43.2	-44.3	26.8	6.03e-01	0	41	0	677380096	58	3989
2026-01-30 00:34:51.91	104.69	24.79	-43.2	-44.3	26.9	6.03e-01	0	41	0	678952960	58	3963
2026-01-30 00:34:52.91	105.02	24.74	-43.1	-44.2	26.9	6.03e-01	0	41	0	681050112	58	3933
2026-01-30 00:34:53.92	105.36	24.69	-43.3	-44.4	26.8	6.05e-01	0	41	0	683147264	58	4024
2026-01-30 00:34:54.93	105.69	24.64	-43.1	-44.2	26.9	6.02e-01	0	41	0	684720128	58	3931
2026-01-30 00:34:55.93	106.02	24.59	-42.9	-43.9	27.1	6.04e-01	0	41	0	686817280	57	4037
2026-01-30 00:34:56.94	106.35	24.54	-42.9	-43.9	27.1	6.03e-01	0	41	0	688390144	57	4050
2026-01-30 00:34:57.95	106.68	24.49	-43.2	-44.3	26.8	6.03e-01	0	41	0	690487296	57	4216
2026-01-30 00:34:58.95	107.00	24.44	-43.3	-44.4	26.7	6.05e-01	0	41	0	692060160	57	4257
2026-01-30 00:34:59.96	107.33	24.38	-43.2	-44.3	26.8	6.04e-01	0	41	0	694157312	57	4203
2026-01-30 00:35:00.97	107.66	24.33	-43.2	-44.3	26.8	6.03e-01	0	41	0	696254464	57	4201
2026-01-30 00:35:01.97	107.98	24.27	-43.2	-44.3	26.8	6.02e-01	0	41	0	697827328	57	4203
2026-01-30 00:35:02.98	108.30	24.22	-43.1	-44.2	26.9	6.04e-01	0	41	0	699924480	57	4150
2026-01-30 00:35:03.99	108.63	24.16	-43.0	-44.1	27.0	6.04e-01	0	41	0	701497344	57	4111
2026-01-30 00:35:05.00	108.95	24.10	-43.0	-44.1	27.0	6.03e-01	0	41	0	703594496	57	4106
2026-01-30 00:35:06.01	109.27	24.04	-43.1	-44.2	26.8	6.02e-01	0	41	0	705691648	57	4186
2026-01-30 00:35:07.01	109.58	23.98	-43.2	-44.3	26.8	6.02e-01	0	41	0	707264512	57	4212
2026-01-30 00:35:08.02	109.90	23.92	-43.1	-44.2	26.9	6.04e-01	0	41	0	709361664	57	4172
2026-01-30 00:35:09.02	110.22	23.86	-43.0	-44.1	27.0	6.03e-01	0	41	0	711458816	57	4133
2026-01-30 00:35:10.03	110.53	23.80	-43.0	-44.1	27.0	6.03e-01	0	41	0	713031680	57	4130
2026-01-30 00:35:11.03	110.84	23.74	-43.0	-44.1	27.0	6.02e-01	0	41	0	715128832	57	4106
2026-01-30 00:35:12.04	111.15	23.68	-43.1	-44.1	27.0	6.02e-01	0	41	0	716701696	57	4144
2026-01-30 00:35:13.05	111.47	23.61	-43.1	-44.1	26.8	6.03e-01	0	41	0	718798848	57	4144
2026-01-30 00:35:14.06	111.78	23.55	-43.0	-44.1	26.8	6.03e-01	0	41	0	720371712	57	4132
2026-01-30 00:35:15.06	112.08	23.49	-43.1	-44.2	26.8	6.02e-01	0	41	0	722468864	57	4171
2026-01-30 00:35:16.07	112.39	23.42	-43.1	-44.2	26.9	6.02e-01	0	41	0	724566016	57	4152
2026-01-30 00:35:17.07	112.69	23.36	-43.0	-44.1	26.9	6.01e-01	0	41	0	726138880	57	4123
2026-01-30 00:35:18.09	113.00	23.29	-43.0	-44.1	27.0	6.05e-01	0	41	0	728236032	57	4131
2026-01-30 00:35:19.09	113.30	23.22	-43.1	-44.2	26.9	6.03e-01	0	41	0	730333184	57	4151
2026-01-30 00:35:20.10	113.61	23.15	-43.0	-44.1	26.9	6.05e-01	0	41	0	731906048	57	4140
2026-01-30 00:35:21.11	113.91	23.09	-43.0	-44.1	26.9	6.03e-01	0	41	0	734003200	57	4128
2026-01-30 00:35:22.12	114.21	23.02	-43.0	-44.1	26.9	6.02e-01	0	41	0	735576064	57	4127
2026-01-30 00:35:23.12	114.50	22.95	-43.1	-44.2	27.0	6.04e-01	0	41	0	737673216	57	4146
2026-01-30 00:35:24.13	114.80	22.88	-43.2	-44.3	26.8	6.03e-01	0	41	0	739770368	57	4224
2026-01-30 00:35:25.14	115.09	22.81	-43.2	-44.3	26.9	6.04e-01	0	41	0	741343232	57	4208
2026-01-30 00:35:26.15	115.39	22.74	-43.3	-44.4	26.8	6.04e-01	0	41	0	743440384	57	4256
2026-01-30 00:35:27.15	115.68	22.66	-43.1	-44.2	26.9	6.05e-01	0	41	0	745013248	57	4180
2026-01-30 00:35:28.16	115.97	22.59	-43.0	-44.1	26.9	6.03e-01	0	41	0	747110400	57	4126
2026-01-30 00:35:29.17	116.26	22.52	-43.0	-44.1	27.0	6.03e-01	0	41	0	748683264	57	4104
2026-01-30 00:35:30.18	116.55	22.45	-43.0	-44.1	27.0	6.04e-01	0	41	0	750780416	57	4114
2026-01-30 00:35:31.18	116.83	22.37	-43.1	-44.2	26.8	6.03e-01	0	41	0	752877568	57	4170
2026-01-30 00:35:32.19	117.12	22.30	-43.1	-44.2	26.8	6.02e-01	0	41	0	754450432	57	4155
2026-01-30 00:35:33.20	117.40	22.22	-43.1	-44.2	26.9	6.04e-01	0	41	0	756547584	57	4148
2026-01-30 00:35:34.21	117.69	22.15	-42.9	-44.0	27.0	6.02e-01	0	41	0	758644736	57	4085
2026-01-30 00:35:35.22	117.97	22.07	-43.0	-44.0	27.0	6.01e-01	0	41	0	760217600	57	4098
2026-01-30 00:35:36.23	118.25	22.00	-42.9	-44.0	27.1	6.03e-01	0	41	0	762314752	57	4061
2026-01-30 00:35:37.24	118.53	21.92	-42.9	-44.0	27.0	6.04e-01	0	41	0	763887616	57	4063
2026-01-30 00:35:38.25	118.81	21.84	-42.9	-44.0	27.0	6.02e-01	0	41	0	765984768	57	4091
2026-01-30 00:35:39.25	119.08	21.77	-42.9	-44.0	27.0	6.02e-01	0	41	0	768081920	57	4080
2026-01-30 00:35:40.26	119.35	21.69	-43.1	-44.2	26.8	6.04e-01	0	41	0	769654784	57	4174
2026-01-30 00:35:41.27	119.63	21.61	-43.1	-44.2	26.8	6.04e-01	0	41	0	771751936	57	4176
2026-01-30 00:35:42.28	119.90	21.53	-42.9	-44.0	26.9	6.04e-01	0	41	0	773324800	57	4081
2026-01-30 00:35:43.28	120.17	21.46	-43.0	-44.1	26.9	6.00e-01	0	41	0	775421952	57	4104
2026-01-30 00:35:44.29	120.44	21.38	-43.0	-44.1	27.0	6.04e-01	0	41	0	776994816	57	4099
2026-01-30 00:35:45.30	120.70	21.30	-42.9	-43.9	27.1	6.03e-01	0	41	0	779091968	57	4049
2026-01-30 00:35:46.31	120.97	21.22	-43.0	-44.1	26.9	6.05e-01	0	41	0	781189120	57	4126
2026-01-30 00:35:47.31	121.23	21.14	-42.9	-44.0	27.0	6.05e-01	0	41	0	782761984	57	4067
2026-01-30 00:35:48.32	121.50	21.06	-43.0	-44.1	26.9	6.04e-01	0	41	0	784859136	57	4101
2026-01-30 00:35:49.33	121.76	20.98	-42.9	-44.0	26.9	6.03e-01	0	41	0	786956288	57	4094
2026-01-30 00:35:50.33	122.02	20.90	-43.0	-44.1	26.8	6.05e-01	0	41	0	788529152	57	4119
2026-01-30 00:35:51.34	122.28	20.82	-43.0	-44.1	26.9	6.02e-01	0	41	0	790626304	57	4104
2026-01-30 00:35:52.35	122.53	20.74	-42.9	-44.0	27.0	6.04e-01	0	41	0	792199168	57	4079
2026-01-30 00:35:53.36	122.79	20.65	-43.0	-44.1	26.9	6.04e-01	0	41	0	794296320	57	4102
2026-01-30 00:35:54.36	123.04	20.57	-42.9	-44.0	27.1	6.05e-01	0	41	0	796393472	57	4064
2026-01-30 00:35:55.37	123.30	20.49	-42.8	-43.9	27.2	6.02e-01	0	41	0	797966336	57	4009
2026-01-30 00:35:56.37	123.55	20.41	-42.8	-43.8	27.2	6.04e-01	0	41	0	800063488	57	3995
2026-01-30 00:35:57.38	123.80	20.33	-42.7	-43.8	27.2	6.03e-01	0	41	0	801636352	57	3992
2026-01-30 00:35:58.39	124.05	20.24	-42.8	-43.9	27.1	6.03e-01	0	41	0	803733504	57	4030
2026-01-30 00:35:59.40	124.29	20.16	-42.9	-44.0	27.0	6.02e-01	0	41	0	805830656	57	4064
2026-01-30 00:36:00.40	124.54	20.08	-43.0	-44.1	26.9	6.02e-01	0	41	0	807403520	57	4108
2026-01-30 00:36:01.41	124.78	19.99	-42.9	-44.0	26.9	6.04e-01	0	41	0	809500672	57	4075
2026-01-30 00:36:02.42	125.03	19.91	-42.8	-43.9	27.0	6.03e-01	0	41	0	811073536	57	4009
2026-01-30 00:36:03.43	125.27	19.83	-42.8	-43.9	26.9	6.05e-01	0	41	0	813170688	57	4033
2026-01-30 00:36:04.44	125.51	19.74	-42.8	-43.8	27.0	6.05e-01	0	41	0	815267840	57	4002
2026-01-30 00:36:05.44	125.75	19.66	-42.9	-44.0	26.9	6.03e-01	0	41	0	816840704	57	4083
2026-01-30 00:36:06.45	125.99	19.57	-42.8	-43.9	27.0	6.02e-01	0	41	0	818937856	57	4015
2026-01-30 00:36:07.46	126.23	19.49	-42.7	-43.8	27.1	6.05e-01	0	41	0	820510720	57	3983
2026-01-30 00:36:08.46	126.46	19.41	-42.7	-43.8	27.1	6.03e-01	0	41	0	822607872	57	3984
2026-01-30 00:36:09.47	126.69	19.32	-42.8	-43.9	27.0	6.04e-01	0	41	0	824705024	57	4013
2026-01-30 00:36:10.48	126.93	19.24	-42.8	-43.8	27.0	6.05e-01	0	41	0	826277888	57	4001
2026-01-30 00:36:11.49	127.16	19.15	-42.7	-43.8	27.0	6.03e-01	0	41	0	828375040	57	3984
2026-01-30 00:36:12.49	127.39	19.07	-42.9	-43.9	26.8	6.03e-01	0	41	0	830472192	57	4050
2026-01-30 00:36:13.50	127.62	18.98	-42.7	-43.8	27.0	6.03e-01	0	41	0	832045056	57	3983
2026-01-30 00:36:14.51	127.85	18.90	-42.8	-43.9	26.9	6.07e-01	0	41	0	834142208	57	4006
2026-01-30 00:36:15.51	128.07	18.81	-42.7	-43.8	27.0	6.01e-01	0	41	0	835715072	57	3984
2026-01-30 00:36:16.52	128.30	18.73	-42.8	-43.9	26.9	6.04e-01	0	41	0	837812224	57	4013
2026-01-30 00:36:17.53	128.52	18.64	-42.8	-43.9	26.9	6.04e-01	0	41	0	839385088	57	4032
2026-01-30 00:36:18.54	128.74	18.56	-42.6	-43.7	27.1	6.03e-01	0	41	0	841482240	57	3947
2026-01-30 00:36:19.54	128.96	18.47	-42.6	-43.7	27.1	6.02e-01	0	41	0	843579392	57	3945
2026-01-30 00:36:20.55	129.18	18.38	-42.7	-43.8	27.0	6.00e-01	0	41	0	845152256	57	3963
2026-01-30 00:36:21.55	129.40	18.30	-42.5	-43.6	27.2	6.04e-01	0	41	0	847249408	57	3881
2026-01-30 00:36:22.56	129.62	18.21	-42.7	-43.7	27.0	6.04e-01	0	41	0	848822272	57	3957
2026-01-30 00:36:23.57	129.83	18.13	-42.6	-43.7	27.1	6.02e-01	0	41	0	850919424	57	3934
2026-01-30 00:36:24.57	130.05	18.04	-42.6	-43.7	27.0	6.04e-01	0	41	0	853016576	57	3939
2026-01-30 00:36:25.58	130.26	17.96	-42.8	-43.9	26.8	6.04e-01	0	41	0	854589440	57	4025
2026-01-30 00:36:26.59	130.47	17.87	-42.7	-43.8	26.9	6.03e-01	0	41	0	856686592	57	3975
2026-01-30 00:36:27.59	130.68	17.78	-42.6	-43.7	27.0	6.04e-01	0	41	0	858783744	57	3931
2026-01-30 00:36:28.60	130.89	17.70	-42.5	-43.6	27.0	6.04e-01	0	41	0	860356608	57	3870
2026-01-30 00:36:29.61	131.10	17.61	-42.6	-43.6	27.0	6.02e-01	0	41	0	862453760	56	4135
2026-01-30 00:36:30.61	131.31	17.53	-42.6	-43.7	27.0	6.04e-01	0	41	0	864026624	56	4173
2026-01-30 00:36:31.62	131.51	17.44	-42.7	-43.8	26.9	6.04e-01	0	41	0	866123776	56	4239
2026-01-30 00:36:32.63	131.72	17.35	-42.7	-43.8	27.0	6.03e-01	0	41	0	867696640	56	4204
2026-01-30 00:36:33.63	131.92	17.27	-42.6	-43.7	27.0	6.03e-01	0	41	0	869793792	56	4165
2026-01-30 00:36:34.64	132.12	17.18	-42.7	-43.7	26.9	6.04e-01	0	41	0	871890944	56	4193
2026-01-30 00:36:35.65	132.33	17.10	-42.5	-43.6	27.1	6.01e-01	0	41	0	873463808	56	4108
2026-01-30 00:36:36.65	132.52	17.01	-42.5	-43.6	27.1	6.03e-01	0	41	0	875560960	56	4105
2026-01-30 00:36:37.66	132.72	16.92	-42.4	-43.5	27.1	6.05e-01	0	41	0	877133824	56	4071
2026-01-30 00:36:38.66	132.92	16.84	-42.6	-43.6	27.0	6.06e-01	0	41	0	879230976	56	4144
2026-01-30 00:36:39.67	133.12	16.75	-42.5	-43.6	27.1	6.04e-01	0	41	0	881328128	56	4125
2026-01-30 00:36:40.68	133.31	16.67	-42.5	-43.6	27.0	6.03e-01	0	41	0	882900992	56	4136
2026-01-30 00:36:41.69	133.51	16.58	-42.5	-43.6	27.0	6.04e-01	0	41	0	884998144	56	4127
2026-01-30 00:36:42.69	133.70	16.50	-42.7	-43.8	26.8	6.03e-01	0	41	0	887095296	56	4195
2026-01-30 00:36:43.70	133.89	16.41	-42.6	-43.7	27.0	6.05e-01	0	41	0	888668160	56	4156
2026-01-30 00:36:44.71	134.08	16.32	-42.7	-43.8	26.8	6.02e-01	0	41	0	890765312	56	4201
2026-01-30 00:36:45.72	134.27	16.24	-42.6	-43.7	26.9	6.04e-01	0	41	0	892338176	56	4180
2026-01-30 00:36:46.72	134.46	16.15	-42.6	-43.7	26.8	6.04e-01	0	41	0	894435328	56	4179
2026-01-30 00:36:47.73	134.65	16.07	-42.6	-43.7	26.9	6.02e-01	0	41	0	896008192	56	4158
2026-01-30 00:36:48.73	134.83	15.98	-42.5	-43.6	27.0	6.03e-01	0	41	0	898105344	56	4121
2026-01-30 00:36:49.74	135.02	15.90	-42.6	-43.7	26.9	6.04e-01	0	41	0	900202496	56	4152
2026-01-30 00:36:50.75	135.20	15.81	-42.5	-43.6	27.0	6.03e-01	0	41	0	901775360	56	4117
2026-01-30 00:36:51.75	135.39	15.73	-42.6	-43.7	26.8	6.03e-01	0	41	0	903872512	56	4179
2026-01-30 00:36:52.75	135.57	15.64	-42.5	-43.6	26.9	6.05e-01	0	41	0	905445376	56	4130
2026-01-30 00:36:53.76	135.75	15.56	-42.4	-43.4	27.0	6.03e-01	0	41	0	907542528	56	4047
2026-01-30 00:36:54.77	135.93	15.47	-42.4	-43.5	27.0	6.04e-01	0	41	0	909639680	56	4063
2026-01-30 00:36:55.77	136.11	15.39	-42.5	-43.6	26.9	6.01e-01	0	41	0	911212544	56	4112
2026-01-30 00:36:56.78	136.28	15.30	-42.5	-43.5	27.0	6.03e-01	0	41	0	913309696	56	4092
2026-01-30 00:36:57.79	136.46	15.22	-42.6	-43.7	26.9	6.04e-01	0	41	0	914882560	56	4146
2026-01-30 00:36:58.79	136.64	15.13	-42.6	-43.7	26.9	6.03e-01	0	41	0	916979712	56	4153
2026-01-30 00:36:59.80	136.81	15.05	-42.6	-43.7	26.9	6.02e-01	0	41	0	919076864	56	4180
2026-01-30 00:37:00.81	136.98	14.96	-42.7	-43.8	26.7	6.04e-01	0	41	0	920649728	56	4204
2026-01-30 00:37:01.82	137.16	14.88	-42.8	-43.9	26.7	6.05e-01	0	41	0	922746880	56	4258
2026-01-30 00:37:02.82	137.33	14.79	-42.8	-44.0	26.5	6.04e-01	0	41	0	924319744	56	4296
2026-01-30 00:37:03.83	137.50	14.71	-42.9	-44.0	26.6	6.05e-01	0	41	0	926416896	56	4314
2026-01-30 00:37:04.84	137.67	14.62	-42.7	-43.8	26.7	6.04e-01	0	41	0	928514048	56	4241
2026-01-30 00:37:05.84	137.84	14.54	-42.6	-43.7	26.8	6.04e-01	0	41	0	930086912	56	4183
2026-01-30 00:37:06.85	138.01	14.46	-42.6	-43.7	26.8	6.04e-01	0	41	0	932184064	56	4159
2026-01-30 00:37:07.86	138.17	14.37	-42.6	-43.7	26.8	6.03e-01	0	41	0	933756928	56	4169
2026-01-30 00:37:08.87	138.34	14.29	-42.6	-43.6	26.9	6.04e-01	0	41	0	935854080	56	4144
2026-01-30 00:37:09.87	138.50	14.20	-42.5	-43.6	26.9	6.02e-01	0	41	0	937951232	56	4122
2026-01-30 00:37:10.87	138.66	14.12	-42.6	-43.7	26.8	6.03e-01	0	41	0	939524096	56	4165
2026-01-30 00:37:11.88	138.83	14.04	-42.7	-43.8	26.8	6.03e-01	0	41	0	941621248	56	4225
2026-01-30 00:37:12.89	138.99	13.95	-42.7	-43.8	26.7	6.04e-01	0	41	0	943718400	56	4229
2026-01-30 00:37:13.90	139.15	13.87	-42.9	-44.0	26.6	6.05e-01	0	41	0	945291264	56	4315
2026-01-30 00:37:14.90	139.31	13.79	-42.7	-43.8	26.7	6.03e-01	0	41	0	947388416	56	4218
2026-01-30 00:37:15.91	139.47	13.71	-42.8	-43.9	26.5	6.02e-01	0	41	0	948961280	56	4280
2026-01-30 00:37:16.91	139.63	13.62	-42.8	-43.9	26.6	6.04e-01	0	41	0	951058432	56	4272
2026-01-30 00:37:17.92	139.78	13.54	-42.8	-44.0	26.5	6.02e-01	0	41	0	952631296	56	4301
2026-01-30 00:37:18.93	139.94	13.46	-42.8	-44.0	26.5	6.03e-01	0	41	0	954728448	56	4295
2026-01-30 00:37:19.93	140.10	13.38	-42.9	-44.1	26.4	6.02e-01	0	41	0	956825600	56	4350
2026-01-30 00:37:20.94	140.25	13.29	-42.6	-43.7	26.7	6.03e-01	0	41	0	958398464	56	4159
2026-01-30 00:37:21.95	140.40	13.21	-42.7	-43.8	26.7	6.03e-01	0	41	0	960495616	56	4234
2026-01-30 00:37:22.96	140.56	13.13	-42.7	-43.8	26.7	6.03e-01	0	41	0	962068480	56	4200
2026-01-30 00:37:23.97	140.71	13.05	-42.7	-43.8	26.7	6.02e-01	0	41	0	964165632	56	4215
2026-01-30 00:37:24.98	140.86	12.96	-42.6	-43.7	26.7	6.02e-01	0	41	0	966262784	56	4179
2026-01-30 00:37:25.98	141.01	12.88	-42.7	-43.8	26.7	6.04e-01	0	41	0	967835648	56	4215
2026-01-30 00:37:26.99	141.16	12.80	-42.7	-43.9	26.6	6.04e-01	0	41	0	969932800	56	4244
2026-01-30 00:37:27.99	141.31	12.72	-42.9	-44.0	26.5	6.03e-01	0	41	0	972029952	56	4311
2026-01-30 00:37:29.00	141.46	12.64	-42.8	-43.9	26.6	6.04e-01	0	41	0	973602816	56	4271
2026-01-30 00:37:30.01	141.60	12.56	-42.9	-44.0	26.5	6.01e-01	0	41	0	975699968	56	4331
2026-01-30 00:37:31.02	141.75	12.48	-42.9	-44.0	26.4	6.04e-01	0	41	0	977272832	56	4332
2026-01-30 00:37:32.02	141.89	12.40	-42.9	-44.0	26.5	6.05e-01	0	41	0	979369984	56	4324
2026-01-30 00:37:33.03	142.04	12.31	-42.9	-44.1	26.4	6.01e-01	0	41	0	980942848	56	4356
2026-01-30 00:37:34.04	142.18	12.23	-43.1	-44.2	26.2	6.04e-01	0	41	0	983040000	56	4438
2026-01-30 00:37:35.04	142.32	12.15	-43.0	-44.1	26.3	6.04e-01	0	41	0	985137152	56	4376
2026-01-30 00:37:36.05	142.47	12.07	-43.0	-44.2	26.2	6.03e-01	0	41	0	986710016	56	4399
2026-01-30 00:37:37.06	142.61	11.99	-43.0	-44.2	26.3	6.02e-01	0	41	0	988807168	56	4396
2026-01-30 00:37:38.06	142.75	11.91	-42.9	-44.1	26.4	6.04e-01	0	41	0	990380032	56	4344
2026-01-30 00:37:39.07	142.89	11.83	-43.0	-44.2	26.2	6.03e-01	0	41	0	992477184	56	4396
2026-01-30 00:37:40.07	143.02	11.75	-43.0	-44.2	26.2	6.04e-01	0	41	0	994574336	56	4409
2026-01-30 00:37:41.08	143.16	11.67	-42.9	-44.0	26.3	6.05e-01	0	41	0	996147200	56	4336
2026-01-30 00:37:42.09	143.30	11.60	-43.0	-44.1	26.1	6.03e-01	0	41	0	998244352	56	4381
2026-01-30 00:37:43.10	143.44	11.52	-43.0	-44.1	25.7	6.05e-01	0	41	0	1000341504	56	4358
2026-01-30 00:37:44.10	143.57	11.44	-43.1	-44.2	26.1	6.04e-01	0	41	0	1001914368	56	4429
2026-01-30 00:37:45.11	143.71	11.36	-43.1	-44.3	26.1	6.03e-01	0	41	0	1004011520	56	4444
2026-01-30 00:37:46.12	143.84	11.28	-42.9	-44.0	26.3	6.02e-01	0	41	0	1005584384	56	4322
2026-01-30 00:37:47.12	143.97	11.20	-43.1	-44.2	26.1	6.04e-01	0	41	0	1007681536	56	4426
2026-01-30 00:37:48.13	144.11	11.12	-43.0	-44.2	26.1	6.04e-01	0	41	0	1009254400	56	4403
2026-01-30 00:37:49.14	144.24	11.04	-43.1	-44.2	26.1	6.03e-01	0	41	0	1011351552	56	4419
2026-01-30 00:37:50.14	144.37	10.97	-43.1	-44.3	26.1	6.05e-01	0	41	0	1013448704	56	4442
2026-01-30 00:37:51.15	144.50	10.89	-43.1	-44.3	26.0	6.04e-01	0	41	0	1015021568	56	4468
2026-01-30 00:37:52.15	144.63	10.81	-43.2	-44.3	25.9	6.04e-01	0	41	0	1017118720	56	4488
2026-01-30 00:37:53.16	144.76	10.73	-43.4	-44.6	25.7	6.04e-01	0	41	0	1018691584	57	4351
2026-01-30 00:37:54.16	144.88	10.66	-43.4	-44.6	25.8	6.02e-01	0	41	0	1020788736	57	4352
2026-01-30 00:37:55.16	145.01	10.58	-43.3	-44.5	25.9	6.04e-01	0	41	0	1022885888	57	4294
2026-01-30 00:37:56.17	145.14	10.50	-43.3	-44.5	25.9	6.04e-01	0	41	0	1024458752	57	4295
2026-01-30 00:37:57.18	145.27	10.42	-43.2	-44.4	26.0	6.02e-01	0	41	0	1026555904	57	4267
2026-01-30 00:37:58.19	145.39	10.35	-43.3	-44.5	25.9	6.04e-01	0	41	0	1028128768	57	4321
2026-01-30 00:37:59.20	145.52	10.27	-43.4	-44.5	25.8	6.03e-01	0	41	0	1030225920	57	4340
2026-01-30 00:38:00.21	145.64	10.19	-43.3	-44.5	25.9	6.04e-01	0	41	0	1032323072	57	4304
2026-01-30 00:38:01.21	145.76	10.12	-43.3	-44.5	25.9	6.03e-01	0	41	0	1033895936	57	4303
2026-01-30 00:38:02.22	145.89	10.04	-43.3	-44.5	25.9	6.06e-01	0	41	0	1035993088	57	4324
2026-01-30 00:38:03.23	146.01	9.96	-43.2	-44.4	26.0	6.04e-01	0	41	0	1037565952	57	4264
2026-01-30 00:38:04.24	146.13	9.89	-43.3	-44.5	25.9	6.02e-01	0	41	0	1039663104	57	4317
2026-01-30 00:38:05.25	146.25	9.81	-43.4	-44.5	25.9	6.02e-01	0	41	0	1041760256	57	4339
2026-01-30 00:38:06.25	146.37	9.74	-43.4	-44.6	25.8	6.04e-01	0	41	0	1043333120	57	4345
2026-01-30 00:38:07.26	146.49	9.66	-43.6	-44.8	25.6	6.03e-01	0	41	0	1045430272	57	4450
2026-01-30 00:38:08.27	146.61	9.58	-43.5	-44.7	25.6	6.03e-01	0	41	0	1047003136	57	4418
2026-01-30 00:38:09.28	146.73	9.51	-43.6	-44.8	25.5	6.05e-01	0	41	0	1049100288	57	4454
2026-01-30 00:38:10.28	146.85	9.43	-43.4	-44.6	25.7	6.01e-01	0	41	0	1051197440	57	4381
2026-01-30 00:38:11.29	146.96	9.36	-43.5	-44.7	25.6	6.03e-01	0	41	0	1052770304	57	4433
2026-01-30 00:38:12.30	147.08	9.28	-43.6	-44.8	25.4	6.03e-01	0	41	0	1054867456	57	4492
2026-01-30 00:38:13.30	147.19	9.21	-43.7	-44.9	25.4	6.04e-01	0	41	0	1056964608	58	4271
2026-01-30 00:38:14.31	147.31	9.14	-43.8	-45.1	25.3	6.02e-01	0	41	0	1058537472	58	4351
2026-01-30 00:38:15.31	147.42	9.06	-43.9	-45.1	25.2	6.03e-01	0	41	0	1060634624	58	4376
2026-01-30 00:38:16.32	147.54	8.99	-43.7	-44.9	25.4	6.04e-01	0	41	0	1062207488	58	4270
2026-01-30 00:38:17.33	147.65	8.91	-43.7	-44.9	25.4	6.05e-01	0	41	0	1064304640	58	4291
2026-01-30 00:38:18.33	147.76	8.84	-43.8	-45.1	25.3	6.03e-01	0	41	0	1065877504	58	4341
2026-01-30 00:38:19.34	147.88	8.77	-43.9	-45.1	25.2	6.06e-01	0	41	0	1067974656	58	4387
2026-01-30 00:38:20.35	147.99	8.69	-43.9	-45.2	25.2	6.02e-01	0	41	0	1070071808	58	4417
2026-01-30 00:38:21.36	148.10	8.62	-44.0	-45.2	25.1	6.05e-01	0	41	0	1071644672	58	4427
2026-01-30 00:38:22.36	148.21	8.55	-44.0	-45.3	25.0	6.05e-01	0	41	0	1073741824	58	4455
2026-01-30 00:38:23.37	148.32	8.47	-44.1	-45.4	24.9	6.05e-01	0	41	0	1075314688	58	4507
2026-01-30 00:38:24.37	148.43	8.40	-43.8	-45.1	25.2	6.02e-01	0	41	0	1077411840	58	4354
2026-01-30 00:38:25.38	148.54	8.33	-43.9	-45.2	25.2	6.04e-01	0	41	0	1079508992	58	4393
2026-01-30 00:38:26.38	148.64	8.26	-43.9	-45.1	25.2	6.03e-01	0	41	0	1081081856	58	4390
2026-01-30 00:38:27.39	148.75	8.18	-43.9	-45.2	25.1	6.03e-01	0	41	0	1083179008	58	4402
2026-01-30 00:38:28.40	148.86	8.11	-44.0	-45.3	25.0	6.04e-01	0	41	0	1085276160	58	4459
2026-01-30 00:38:29.40	148.96	8.04	-44.0	-45.3	25.0	6.04e-01	0	41	0	1086849024	58	4443
2026-01-30 00:38:30.41	149.07	7.97	-43.9	-45.2	25.1	6.03e-01	0	41	0	1088946176	58	4403
2026-01-30 00:38:31.41	149.17	7.89	-43.9	-45.1	25.1	6.04e-01	0	41	0	1090519040	58	4390
2026-01-30 00:38:32.42	149.28	7.82	-43.9	-45.2	25.1	6.05e-01	0	41	0	1092616192	58	4414
2026-01-30 00:38:33.43	149.38	7.75	-44.0	-45.2	25.1	6.02e-01	0	41	0	1094189056	58	4434
2026-01-30 00:38:34.44	149.49	7.68	-44.0	-45.3	24.9	6.03e-01	0	41	0	1096286208	58	4470
2026-01-30 00:38:35.44	149.59	7.61	-44.0	-45.3	24.9	6.02e-01	0	41	0	1098383360	58	4448
2026-01-30 00:38:36.45	149.69	7.54	-44.1	-45.3	24.9	6.04e-01	0	41	0	1099956224	58	4488
2026-01-30 00:38:37.46	149.80	7.47	-44.2	-45.5	24.7	6.03e-01	0	41	0	1102053376	58	4577
2026-01-30 00:38:38.47	149.90	7.40	-44.4	-45.7	24.5	6.03e-01	0	41	0	1103626240	59	4407
2026-01-30 00:38:39.48	150.00	7.32	-44.0	-45.3	24.8	6.02e-01	0	41	0	1105723392	59	4222
2026-01-30 00:38:40.48	150.10	7.25	-44.2	-45.5	24.6	6.01e-01	0	41	0	1107820544	59	4315
2026-01-30 00:38:41.49	150.20	7.18	-44.1	-45.4	24.7	6.03e-01	0	41	0	1109393408	59	4280
2026-01-30 00:38:42.50	150.30	7.11	-44.1	-45.4	24.7	6.01e-01	0	41	0	1111490560	59	4263
2026-01-30 00:38:43.50	150.40	7.04	-44.2	-45.5	24.5	6.04e-01	0	41	0	1113587712	59	4323
2026-01-30 00:38:44.51	150.50	6.97	-44.1	-45.4	24.7	6.02e-01	0	41	0	1115160576	59	4265
2026-01-30 00:38:45.52	150.60	6.90	-44.3	-45.6	24.4	6.05e-01	0	41	0	1117257728	59	4386
2026-01-30 00:38:46.52	150.69	6.83	-44.2	-45.4	24.6	6.04e-01	0	41	0	1118830592	59	4284
2026-01-30 00:38:47.53	150.79	6.76	-44.2	-45.5	24.6	6.06e-01	0	41	0	1120927744	59	4313
2026-01-30 00:38:48.54	150.89	6.69	-44.2	-45.5	24.6	6.04e-01	0	41	0	1122500608	59	4295
2026-01-30 00:38:49.55	150.98	6.63	-44.3	-45.6	24.5	6.03e-01	0	41	0	1124597760	59	4365
2026-01-30 00:38:50.55	151.08	6.56	-44.3	-45.6	24.4	6.05e-01	0	41	0	1126694912	59	4388
2026-01-30 00:38:51.56	151.17	6.49	-44.2	-45.5	24.6	6.04e-01	0	41	0	1128267776	59	4311
2026-01-30 00:38:52.56	151.27	6.42	-44.2	-45.5	24.5	6.07e-01	0	41	0	1130364928	59	4330
2026-01-30 00:38:53.57	151.36	6.35	-44.5	-45.8	24.3	6.03e-01	0	41	0	1131937792	59	4491
2026-01-30 00:38:54.58	151.46	6.28	-44.7	-46.1	24.1	6.05e-01	0	41	0	1134034944	59	4604
2026-01-30 00:38:55.59	151.55	6.21	-44.4	-45.8	24.3	6.01e-01	0	41	0	1136132096	59	4449
2026-01-30 00:38:56.60	151.64	6.15	-44.3	-45.6	24.4	6.03e-01	0	41	0	1137704960	59	4379
2026-01-30 00:38:57.61	151.74	6.08	-44.3	-45.6	24.4	6.05e-01	0	41	0	1139802112	59	4363
2026-01-30 00:38:58.61	151.83	6.01	-44.7	-46.1	24.0	6.05e-01	0	41	0	1141899264	60	4365
2026-01-30 00:38:59.62	151.92	5.94	-44.5	-45.9	24.2	6.04e-01	0	41	0	1143472128	60	4244
2026-01-30 00:39:00.62	152.01	5.87	-44.5	-45.9	24.1	6.04e-01	0	41	0	1145569280	60	4270
2026-01-30 00:39:01.63	152.10	5.81	-44.5	-45.9	24.1	6.02e-01	0	41	0	1147142144	60	4272
2026-01-30 00:39:02.64	152.19	5.74	-44.5	-45.9	24.1	6.05e-01	0	41	0	1149239296	60	4279
2026-01-30 00:39:03.65	152.28	5.67	-44.6	-45.9	24.1	6.04e-01	0	41	0	1150812160	60	4287
2026-01-30 00:39:04.65	152.37	5.61	-44.9	-46.3	23.7	6.05e-01	0	41	0	1152909312	60	4484
2026-01-30 00:39:05.66	152.46	5.54	-44.5	-45.9	24.1	6.03e-01	0	41	0	1155006464	60	4252
2026-01-30 00:39:06.67	152.55	5.47	-44.7	-46.1	23.9	6.05e-01	0	41	0	1156579328	60	4354
2026-01-30 00:39:07.68	152.64	5.40	-44.6	-46.0	23.9	6.04e-01	0	41	0	1158676480	60	4302
2026-01-30 00:39:08.68	152.72	5.34	-44.5	-45.9	24.0	6.03e-01	0	41	0	1160249344	60	4284
2026-01-30 00:39:09.69	152.81	5.27	-44.7	-46.1	23.7	6.03e-01	0	41	0	1162346496	60	4381
2026-01-30 00:39:10.70	152.90	5.20	-44.8	-46.3	23.7	6.02e-01	0	41	0	1164443648	60	4456
2026-01-30 00:39:11.71	152.99	5.14	-45.0	-46.4	23.6	6.02e-01	0	41	0	1166016512	60	4527
2026-01-30 00:39:12.72	153.07	5.07	-45.1	-46.6	23.4	6.03e-01	0	41	0	1168113664	60	4608
2026-01-30 00:39:13.73	153.16	5.01	-52.8	-60.1	12.6	6.15e-01	0	41	0	1170210816	75	9253
2026-01-30 00:39:14.73	153.24	4.94	-53.8	-71.3	3.8	7.44e-01	0	41	104	1170210816	78	28172
2026-01-30 00:39:15.74	153.33	4.88	-54.2	-72.0	3.8	7.45e-01	0	42	104	1170210816	78	30464
2026-01-30 00:39:16.74	153.41	4.81	-54.4	-72.2	3.8	7.43e-01	0	41	104	1170210816	79	29574
2026-01-30 00:39:17.75	153.50	4.74	-54.6	-72.4	3.8	7.45e-01	0	41	104	1170210816	79	30118
2026-01-30 00:39:18.76	153.58	4.68	-54.7	-72.5	3.8	7.47e-01	0	41	104	1170210816	80	28869
2026-01-30 00:39:19.77	153.66	4.61	-54.9	-72.6	3.8	7.42e-01	0	41	104	1170210816	80	29211
2026-01-30 00:39:20.77	153.75	4.55	-55.0	-71.9	3.9	7.47e-01	0	41	104	1170210816	80	26992
2026-01-30 00:39:21.78	153.83	4.48	-55.1	-72.8	3.8	7.49e-01	0	42	104	1170210816	80	30023
2026-01-30 00:39:22.79	153.91	4.42	-55.2	-72.9	3.8	7.43e-01	0	41	104	1170210816	80	30069
2026-01-30 00:39:23.80	153.99	4.36	-55.2	-73.0	3.8	7.47e-01	0	42	104	1170210816	81	29003
2026-01-30 00:39:24.81	154.08	4.29	-55.3	-73.1	3.8	7.45e-01	0	42	104	1170210816	81	29100
2026-01-30 00:39:25.82	154.16	4.23	-55.4	-73.2	3.8	7.44e-01	0	42	104	1170210816	81	29457
2026-01-30 00:39:26.83	154.24	4.16	-55.5	-73.3	3.8	7.47e-01	0	41	104	1170210816	81	29732
2026-01-30 00:39:27.83	154.32	4.10	-55.5	-73.3	3.8	7.43e-01	0	41	104	1170210816	81	29969
2026-01-30 00:39:28.84	154.40	4.03	-55.6	-73.4	3.8	7.48e-01	0	41	104	1170210816	81	30094
2026-01-30 00:39:29.85	154.48	3.97	-55.6	-73.4	3.8	7.47e-01	0	42	104	1170210816	81	30305
2026-01-30 00:39:30.86	154.56	3.91	-55.7	-73.5	3.8	7.47e-01	0	41	104	1170210816	81	30540
2026-01-30 00:39:31.86	154.64	3.84	-55.8	-73.6	3.8	7.46e-01	0	41	104	1170210816	82	29059
2026-01-30 00:39:32.87	154.71	3.78	-55.8	-73.6	3.8	7.44e-01	0	41	104	1170210816	82	29177
2026-01-30 00:39:33.87	154.79	3.72	-55.8	-73.7	3.8	7.46e-01	0	41	104	1170210816	82	29365
2026-01-30 00:39:34.88	154.87	3.65	-55.9	-73.7	3.8	7.47e-01	0	42	104	1170210816	82	29438
2026-01-30 00:39:35.88	154.95	3.59	-55.9	-73.7	3.8	7.44e-01	0	42	104	1170210816	82	29485
2026-01-30 00:39:36.89	155.02	3.53	-55.9	-73.7	3.8	7.44e-01	0	42	104	1170210816	82	29557
2026-01-30 00:39:37.90	155.10	3.46	-55.9	-73.7	3.8	7.47e-01	0	42	104	1170210816	82	29603
2026-01-30 00:39:38.91	155.18	3.40	-55.9	-73.7	3.8	7.45e-01	0	42	104	1170210816	82	29671
2026-01-30 00:39:39.92	155.25	3.34	-55.9	-73.8	3.8	7.45e-01	0	41	104	1170210816	82	29770
2026-01-30 00:39:40.92	155.33	3.28	-55.9	-73.8	3.8	7.44e-01	0	42	104	1170210816	82	29718
2026-01-30 00:39:41.93	155.41	3.21	-55.9	-73.8	3.8	7.45e-01	0	42	104	1170210816	82	29728
2026-01-30 00:39:42.93	155.48	3.15	-55.9	-73.8	3.8	7.48e-01	0	41	104	1170210816	82	29688
2026-01-30 00:39:43.94	155.56	3.09	-56.0	-73.8	3.8	7.46e-01	0	41	104	1170210816	82	29941
2026-01-30 00:39:44.95	155.63	3.03	-56.0	-73.8	3.8	7.46e-01	0	42	104	1170210816	82	29753
