passes_logs/2026/01/30/R3.2S_Murmansk/R3.2S_Murmansk__20260130_090506_FENGYUN_3D_rec.log

#Pass ID: 20260130_090506_FENGYUN 3D
#Satellite: FENGYUN 3D
#Configuration: FENGYUN 3D
#almurnet v.1.7.20251203
#Start time: 2026-01-30 09:05:07

#Version: 2.2.20231116
#Station: R3.2S_Murmansk
#Location: 33.079688 lon 68.888172 lat
#TLE: 1 43010U 17072A   26029.52179110  .00000394  00000+0  20818-3 0  9997
#TLE: 2 43010  98.9957   1.5649 0002507  83.7772 276.3689 14.19703315425310

#Time	Az	El	Level	Level2	SNR	BER	BlckErr	Temp	State	Recorded	gain1	gain2
2026-01-30 09:05:07.49	95.28	2.06	-54.1	-66.0	3.8	8.46e-01	0	39	0	0	79	14468
2026-01-30 09:05:08.48	95.23	2.12	-54.1	-66.0	3.8	8.45e-01	0	39	104	0	78	15362
2026-01-30 09:05:09.49	95.18	2.18	-54.0	-66.0	3.8	8.46e-01	0	39	104	0	78	15299
2026-01-30 09:05:10.49	95.13	2.24	-54.0	-66.0	3.8	8.47e-01	0	39	104	0	78	15306
2026-01-30 09:05:11.50	95.08	2.30	-54.0	-66.0	3.8	8.45e-01	0	39	104	0	78	15287
2026-01-30 09:05:12.51	95.03	2.36	-54.0	-66.0	3.8	8.46e-01	0	39	104	0	78	15278
2026-01-30 09:05:13.52	94.97	2.42	-54.1	-66.1	3.8	8.46e-01	0	39	104	0	78	15407
2026-01-30 09:05:14.52	94.92	2.48	-54.2	-66.4	3.8	8.45e-01	0	39	104	0	79	15085
2026-01-30 09:05:15.53	94.87	2.55	-54.3	-66.2	3.8	8.46e-01	0	40	104	0	79	14874
2026-01-30 09:05:16.54	94.82	2.61	-54.3	-66.2	3.8	8.47e-01	0	39	104	0	79	14825
2026-01-30 09:05:17.55	94.77	2.67	-54.3	-66.2	3.8	8.46e-01	0	39	104	0	79	14874
2026-01-30 09:05:18.55	94.72	2.73	-54.3	-66.2	3.8	8.45e-01	0	40	104	0	79	14858
2026-01-30 09:05:19.56	94.66	2.79	-54.2	-66.2	3.8	8.46e-01	0	39	104	0	79	14772
2026-01-30 09:05:20.57	94.61	2.85	-54.2	-66.1	3.8	8.46e-01	0	40	104	0	79	14673
2026-01-30 09:05:21.57	94.56	2.91	-54.2	-66.1	3.8	8.46e-01	0	40	104	0	79	14606
2026-01-30 09:05:22.58	94.50	2.98	-54.1	-66.1	3.8	8.46e-01	0	40	104	0	79	14586
2026-01-30 09:05:23.59	94.45	3.04	-54.0	-66.0	3.8	8.46e-01	0	40	104	0	79	14402
2026-01-30 09:05:24.60	94.40	3.10	-53.9	-65.8	3.8	8.46e-01	0	40	104	0	79	14205
2026-01-30 09:05:25.60	94.34	3.16	-53.9	-65.8	3.8	8.46e-01	0	40	104	0	79	14169
2026-01-30 09:05:26.61	94.29	3.23	-53.9	-65.8	3.8	8.47e-01	0	40	104	0	79	14131
2026-01-30 09:05:27.62	94.23	3.29	-53.8	-65.7	3.8	8.47e-01	0	40	104	0	79	13998
2026-01-30 09:05:28.62	94.18	3.35	-53.6	-65.6	3.8	8.46e-01	0	40	104	0	79	13766
2026-01-30 09:05:29.63	94.12	3.41	-53.5	-65.4	3.8	8.45e-01	0	40	104	0	79	13525
2026-01-30 09:05:30.64	94.07	3.48	-53.3	-65.3	3.8	8.45e-01	0	40	104	0	78	14095
2026-01-30 09:05:31.65	94.01	3.54	-53.1	-65.1	3.8	8.46e-01	0	40	104	0	78	13746
2026-01-30 09:05:32.66	93.96	3.60	-52.9	-64.8	3.8	8.47e-01	0	40	104	0	77	14161
2026-01-30 09:05:33.66	93.90	3.67	-52.7	-64.6	3.8	8.46e-01	0	40	104	0	77	13799
2026-01-30 09:05:34.67	93.84	3.73	-52.6	-64.5	3.8	8.47e-01	0	40	104	0	77	13614
2026-01-30 09:05:35.68	93.79	3.79	-52.5	-64.5	3.8	8.46e-01	0	40	104	0	77	13577
2026-01-30 09:05:36.68	93.73	3.86	-52.4	-64.4	3.8	8.46e-01	0	40	104	0	76	14223
2026-01-30 09:05:37.69	93.67	3.92	-52.3	-64.2	3.8	8.46e-01	0	40	104	0	76	13934
2026-01-30 09:05:38.70	93.61	3.98	-52.1	-63.9	3.8	8.45e-01	0	40	104	0	76	13472
2026-01-30 09:05:39.71	93.56	4.05	-52.0	-63.6	3.8	8.47e-01	0	40	104	0	76	13102
2026-01-30 09:05:40.71	93.50	4.11	-51.9	-63.1	3.8	8.46e-01	0	40	104	0	75	13043
2026-01-30 09:05:41.72	93.44	4.18	-51.9	-62.8	3.8	8.46e-01	0	40	104	0	75	12658
2026-01-30 09:05:42.73	93.38	4.24	-51.9	-62.8	3.8	8.47e-01	0	40	104	0	75	12596
2026-01-30 09:05:43.73	93.32	4.30	-51.9	-62.6	3.8	8.45e-01	0	40	104	0	75	12373
2026-01-30 09:05:44.74	93.26	4.37	-51.9	-62.8	3.8	8.46e-01	0	40	104	0	75	12571
2026-01-30 09:05:45.75	93.21	4.43	-51.8	-62.5	3.8	8.46e-01	0	40	104	0	75	12099
2026-01-30 09:05:46.76	93.15	4.50	-51.7	-61.5	4.0	8.45e-01	0	40	104	0	75	10803
2026-01-30 09:05:47.76	93.09	4.56	-51.4	-59.5	4.5	8.36e-01	0	40	0	0	74	9095
2026-01-30 09:05:48.77	93.03	4.63	-50.9	-56.9	5.9	5.84e-01	0	40	0	1048576	73	7170
2026-01-30 09:05:49.78	92.97	4.69	-50.2	-55.0	7.6	1.79e-01	0	40	0	6291456	72	6074
2026-01-30 09:05:50.79	92.90	4.76	-49.4	-53.1	9.6	2.75e-02	0	40	0	12582912	70	5467
2026-01-30 09:05:51.79	92.84	4.82	-48.7	-51.6	11.1	4.47e-03	0	40	0	17825792	69	4894
2026-01-30 09:05:52.80	92.78	4.89	-47.7	-50.1	12.6	2.84e-04	0	40	0	24117248	67	4618
2026-01-30 09:05:53.81	92.72	4.96	-47.1	-49.3	13.5	5.03e-05	0	40	0	29360128	66	4462
2026-01-30 09:05:54.82	92.66	5.02	-46.7	-48.6	14.2	4.50e-06	0	40	0	34603008	65	4376
2026-01-30 09:05:55.83	92.60	5.09	-48.1	-50.7	12.2	1.71e-05	0	40	0	40894464	66	5266
2026-01-30 09:05:56.83	92.53	5.15	-44.2	-45.5	17.6	0.00e+00	0	40	0	46137344	60	4057
2026-01-30 09:05:57.84	92.47	5.22	-51.5	-60.0	4.4	6.59e-03	0	40	0	51380224	73	10273
2026-01-30 09:05:58.84	92.41	5.29	-49.6	-53.1	10.0	3.39e-01	0	40	0	51380224	69	5848
2026-01-30 09:05:59.85	92.35	5.35	-43.4	-44.6	18.7	0.00e+00	0	41	0	57671680	58	4104
2026-01-30 09:06:00.86	92.28	5.42	-43.1	-44.2	19.0	0.00e+00	0	40	0	62914560	58	3958
2026-01-30 09:06:01.87	92.22	5.49	-43.2	-44.3	18.9	0.00e+00	0	40	0	68157440	57	4225
2026-01-30 09:06:02.87	92.15	5.55	-42.9	-44.1	19.2	0.00e+00	0	41	0	74448896	57	4100
2026-01-30 09:06:03.88	92.09	5.62	-42.6	-43.7	19.5	0.00e+00	0	41	0	79691776	57	3947
2026-01-30 09:06:04.88	92.02	5.69	-42.4	-43.5	19.7	0.00e+00	0	40	0	84934656	56	4073
2026-01-30 09:06:05.89	91.96	5.75	-42.3	-43.3	19.9	0.00e+00	0	41	0	91226112	56	3994
2026-01-30 09:06:06.90	91.89	5.82	-42.5	-43.5	19.7	0.00e+00	0	40	0	97517568	56	4092
2026-01-30 09:06:07.91	91.83	5.89	-42.3	-43.4	19.9	0.00e+00	0	40	0	102760448	56	4009
2026-01-30 09:06:08.92	91.76	5.96	-42.1	-43.1	20.1	0.00e+00	0	41	0	108003328	56	3909
2026-01-30 09:06:09.92	91.69	6.02	-42.2	-43.2	20.0	0.00e+00	0	40	0	114294784	56	3941
2026-01-30 09:06:10.93	91.63	6.09	-42.1	-43.1	20.1	0.00e+00	0	41	0	119537664	56	3911
2026-01-30 09:06:11.94	91.56	6.16	-42.0	-43.0	20.2	0.00e+00	0	41	0	125829120	56	3852
2026-01-30 09:06:12.95	91.49	6.23	-41.9	-42.9	20.2	0.00e+00	0	41	0	131072000	55	4021
2026-01-30 09:06:13.96	91.42	6.30	-41.8	-42.8	20.3	0.00e+00	0	41	0	136314880	55	3982
2026-01-30 09:06:14.97	91.36	6.37	-41.8	-42.8	20.4	0.00e+00	0	41	0	142606336	55	3973
2026-01-30 09:06:15.98	91.29	6.44	-41.8	-42.7	20.4	0.00e+00	0	40	0	147849216	55	3957
2026-01-30 09:06:16.99	91.22	6.50	-41.8	-42.8	20.4	0.00e+00	0	41	0	154140672	55	3971
2026-01-30 09:06:18.00	91.15	6.57	-41.7	-42.7	20.5	0.00e+00	0	41	0	159383552	55	3927
2026-01-30 09:06:19.00	91.08	6.64	-41.7	-42.7	20.5	0.00e+00	0	41	0	165675008	55	3929
2026-01-30 09:06:20.01	91.01	6.71	-41.6	-42.6	20.6	0.00e+00	0	41	0	170917888	55	3899
2026-01-30 09:06:21.02	90.94	6.78	-41.5	-42.5	20.7	0.00e+00	0	41	0	176160768	55	3844
2026-01-30 09:06:22.02	90.87	6.85	-41.7	-42.7	20.4	0.00e+00	0	41	0	182452224	55	3941
2026-01-30 09:06:23.03	90.80	6.92	-41.6	-42.5	20.7	0.00e+00	0	41	0	187695104	55	3848
2026-01-30 09:06:24.04	90.73	6.99	-41.7	-42.6	20.6	0.00e+00	0	41	0	192937984	55	3912
2026-01-30 09:06:25.05	90.66	7.06	-41.5	-42.5	20.7	0.00e+00	0	41	0	199229440	55	3828
2026-01-30 09:06:26.05	90.58	7.13	-41.5	-42.5	20.7	0.00e+00	0	41	0	204472320	55	3830
2026-01-30 09:06:27.05	90.51	7.20	-41.5	-42.5	20.7	0.00e+00	0	41	0	210763776	55	3833
2026-01-30 09:06:28.06	90.44	7.27	-41.5	-42.4	20.7	0.00e+00	0	41	0	216006656	54	4037
2026-01-30 09:06:29.06	90.37	7.34	-41.4	-42.3	20.9	0.00e+00	0	41	0	221249536	54	4004
2026-01-30 09:06:30.07	90.29	7.41	-41.4	-42.3	20.9	0.00e+00	0	41	0	227540992	54	3999
2026-01-30 09:06:31.08	90.22	7.48	-41.4	-42.3	20.9	0.00e+00	0	41	0	232783872	54	3988
2026-01-30 09:06:32.08	90.14	7.55	-41.5	-42.5	20.8	0.00e+00	0	41	0	238026752	54	4052
2026-01-30 09:06:33.09	90.07	7.62	-41.5	-42.4	20.9	0.00e+00	0	41	0	244318208	54	4036
2026-01-30 09:06:34.10	89.99	7.70	-41.6	-42.5	20.7	0.00e+00	0	41	0	250609664	54	4092
2026-01-30 09:06:35.11	89.92	7.77	-41.4	-42.3	20.9	0.00e+00	0	41	0	255852544	54	3998
2026-01-30 09:06:36.11	89.84	7.84	-41.2	-42.1	21.1	0.00e+00	0	41	0	261095424	54	3901
2026-01-30 09:06:37.12	89.77	7.91	-41.3	-42.2	21.0	0.00e+00	0	41	0	267386880	54	3954
2026-01-30 09:06:38.13	89.69	7.98	-41.4	-42.3	20.9	0.00e+00	0	41	0	272629760	54	4002
2026-01-30 09:06:39.14	89.61	8.06	-41.3	-42.2	21.0	0.00e+00	0	41	0	277872640	54	3953
2026-01-30 09:06:40.14	89.54	8.13	-41.4	-42.3	21.0	0.00e+00	0	41	0	284164096	54	3985
2026-01-30 09:06:41.15	89.46	8.20	-41.5	-42.4	20.9	0.00e+00	0	41	0	289406976	54	4045
2026-01-30 09:06:42.16	89.38	8.27	-41.3	-42.2	21.0	0.00e+00	0	41	0	295698432	54	3955
2026-01-30 09:06:43.16	89.30	8.35	-41.3	-42.3	21.0	0.00e+00	0	41	0	300941312	54	3971
2026-01-30 09:06:44.17	89.22	8.42	-41.2	-42.1	21.2	0.00e+00	0	41	0	306184192	54	3895
2026-01-30 09:06:45.18	89.14	8.49	-41.2	-42.2	21.1	0.00e+00	0	41	0	312475648	54	3923
2026-01-30 09:06:46.19	89.06	8.56	-41.3	-42.2	21.1	0.00e+00	0	41	0	318767104	54	3954
2026-01-30 09:06:47.20	88.98	8.64	-41.3	-42.2	21.1	0.00e+00	0	41	0	324009984	54	3950
2026-01-30 09:06:48.20	88.90	8.71	-41.3	-42.2	21.1	0.00e+00	0	41	0	329252864	54	3944
2026-01-30 09:06:49.21	88.82	8.79	-41.2	-42.1	21.2	0.00e+00	0	41	0	335544320	54	3891
2026-01-30 09:06:50.22	88.74	8.86	-41.3	-42.2	21.1	0.00e+00	0	41	0	340787200	54	3936
2026-01-30 09:06:51.23	88.66	8.93	-41.2	-42.1	21.2	0.00e+00	0	41	0	346030080	54	3893
2026-01-30 09:06:52.23	88.58	9.01	-41.3	-42.2	21.1	0.00e+00	0	41	0	352321536	54	3938
2026-01-30 09:06:53.24	88.49	9.08	-41.3	-42.3	21.1	0.00e+00	0	41	0	357564416	54	3961
2026-01-30 09:06:54.24	88.41	9.16	-41.2	-42.2	21.2	0.00e+00	0	41	0	362807296	54	3919
2026-01-30 09:06:55.25	88.33	9.23	-41.1	-42.1	21.3	0.00e+00	0	41	0	369098752	54	3877
2026-01-30 09:06:56.26	88.24	9.31	-41.2	-42.1	21.2	0.00e+00	0	41	0	374341632	54	3887
2026-01-30 09:06:57.26	88.16	9.38	-41.2	-42.2	21.2	0.00e+00	0	41	0	380633088	54	3927
2026-01-30 09:06:58.27	88.07	9.46	-41.2	-42.1	21.2	0.00e+00	0	41	0	385875968	54	3911
2026-01-30 09:06:59.28	87.99	9.53	-41.3	-42.3	21.1	0.00e+00	0	41	0	391118848	54	3974
2026-01-30 09:07:00.29	87.90	9.61	-41.4	-42.3	21.1	0.00e+00	0	41	0	397410304	54	3997
2026-01-30 09:07:01.29	87.82	9.68	-41.3	-42.3	21.1	0.00e+00	0	41	0	403701760	54	3981
2026-01-30 09:07:02.30	87.73	9.76	-41.2	-42.1	21.2	0.00e+00	0	41	0	408944640	54	3894
2026-01-30 09:07:03.30	87.64	9.83	-41.3	-42.2	21.1	0.00e+00	0	41	0	414187520	54	3949
2026-01-30 09:07:04.31	87.55	9.91	-41.1	-42.0	21.3	0.00e+00	0	41	0	420478976	54	3860
2026-01-30 09:07:05.32	87.47	9.99	-40.8	-41.7	21.6	0.00e+00	0	41	0	425721856	53	3951
2026-01-30 09:07:06.33	87.38	10.06	-40.9	-41.8	21.5	0.00e+00	0	41	0	430964736	53	3981
2026-01-30 09:07:07.33	87.29	10.14	-40.8	-41.7	21.6	0.00e+00	0	41	0	437256192	53	3948
2026-01-30 09:07:08.34	87.20	10.22	-40.8	-41.7	21.7	0.00e+00	0	41	0	442499072	53	3923
2026-01-30 09:07:09.34	87.11	10.29	-40.8	-41.7	21.6	0.00e+00	0	41	0	447741952	53	3946
2026-01-30 09:07:10.35	87.02	10.37	-40.9	-41.8	21.5	0.00e+00	0	41	0	454033408	53	3985
2026-01-30 09:07:11.36	86.93	10.45	-40.7	-41.6	21.7	0.00e+00	0	41	0	459276288	53	3899
2026-01-30 09:07:12.37	86.83	10.52	-40.8	-41.7	21.7	0.00e+00	0	41	0	465567744	53	3932
2026-01-30 09:07:13.37	86.74	10.60	-40.7	-41.6	21.7	0.00e+00	0	41	0	470810624	53	3905
2026-01-30 09:07:14.38	86.65	10.68	-40.7	-41.5	21.8	0.00e+00	0	41	0	476053504	53	3865
2026-01-30 09:07:15.39	86.56	10.76	-40.5	-41.4	22.0	0.00e+00	0	41	0	482344960	53	3803
2026-01-30 09:07:16.39	86.46	10.84	-40.4	-41.3	22.0	0.00e+00	0	41	0	488636416	52	3989
2026-01-30 09:07:17.40	86.37	10.91	-40.6	-41.5	21.9	0.00e+00	0	41	0	493879296	52	4063
2026-01-30 09:07:18.41	86.27	10.99	-40.5	-41.4	22.0	0.00e+00	0	41	0	499122176	52	4006
2026-01-30 09:07:19.41	86.18	11.07	-40.6	-41.4	21.9	0.00e+00	0	41	0	505413632	52	4051
2026-01-30 09:07:20.42	86.08	11.15	-40.5	-41.4	21.9	0.00e+00	0	41	0	510656512	52	4042
2026-01-30 09:07:21.43	85.99	11.23	-40.7	-41.6	21.8	0.00e+00	0	41	0	515899392	52	4107
2026-01-30 09:07:22.44	85.89	11.31	-40.4	-41.3	22.1	0.00e+00	0	41	0	522190848	52	3975
2026-01-30 09:07:23.45	85.79	11.39	-40.5	-41.4	22.0	0.00e+00	0	41	0	527433728	52	4034
2026-01-30 09:07:24.45	85.70	11.47	-40.5	-41.4	22.0	0.00e+00	0	41	0	532676608	52	4008
2026-01-30 09:07:25.46	85.60	11.55	-40.5	-41.4	22.0	0.00e+00	0	41	0	538968064	52	4012
2026-01-30 09:07:26.47	85.50	11.63	-40.3	-41.2	22.1	0.00e+00	0	41	0	544210944	52	3941
2026-01-30 09:07:27.48	85.40	11.71	-40.3	-41.1	22.2	0.00e+00	0	41	0	550502400	52	3899
2026-01-30 09:07:28.49	85.30	11.79	-40.2	-41.0	22.3	0.00e+00	0	41	0	555745280	52	3866
2026-01-30 09:07:29.49	85.20	11.87	-40.2	-41.0	22.3	0.00e+00	0	41	0	562036736	52	3863
2026-01-30 09:07:30.50	85.10	11.95	-40.2	-41.0	22.3	0.00e+00	0	41	0	567279616	52	3859
2026-01-30 09:07:31.51	84.99	12.03	-40.1	-41.0	22.4	0.00e+00	0	41	0	573571072	52	3839
2026-01-30 09:07:32.52	84.89	12.11	-40.2	-41.1	22.3	0.00e+00	0	41	0	578813952	52	3878
2026-01-30 09:07:33.52	84.79	12.19	-40.2	-41.1	22.3	0.00e+00	0	41	0	584056832	52	3871
2026-01-30 09:07:34.53	84.68	12.27	-40.1	-41.0	22.4	0.00e+00	0	41	0	590348288	52	3830
2026-01-30 09:07:35.54	84.58	12.36	-40.2	-41.1	22.3	0.00e+00	0	41	0	595591168	52	3882
2026-01-30 09:07:36.55	84.47	12.44	-40.1	-41.0	22.4	0.00e+00	0	41	0	600834048	52	3833
2026-01-30 09:07:37.56	84.37	12.52	-40.1	-41.0	22.4	0.00e+00	0	41	0	607125504	52	3839
2026-01-30 09:07:38.56	84.26	12.60	-40.1	-41.0	22.4	0.00e+00	0	41	0	612368384	52	3836
2026-01-30 09:07:39.57	84.16	12.68	-40.2	-41.0	22.3	0.00e+00	0	41	0	617611264	52	3854
2026-01-30 09:07:40.58	84.05	12.77	-40.1	-41.0	22.4	0.00e+00	0	41	0	623902720	52	3827
2026-01-30 09:07:41.58	83.94	12.85	-40.1	-41.0	22.4	0.00e+00	0	41	0	629145600	52	3847
2026-01-30 09:07:42.58	83.83	12.93	-40.1	-40.9	22.5	0.00e+00	0	41	0	635437056	52	3802
2026-01-30 09:07:43.59	83.72	13.01	-40.0	-40.9	22.5	0.00e+00	0	41	0	640679936	52	3787
2026-01-30 09:07:44.60	83.61	13.10	-40.1	-40.9	22.5	0.00e+00	0	41	0	646971392	52	3814
2026-01-30 09:07:45.61	83.50	13.18	-40.0	-40.8	22.6	0.00e+00	0	41	0	652214272	51	3988
2026-01-30 09:07:46.62	83.39	13.26	-40.0	-40.8	22.6	0.00e+00	0	41	0	658505728	51	3996
2026-01-30 09:07:47.63	83.28	13.35	-40.0	-40.9	22.6	0.00e+00	0	41	0	663748608	51	4009
2026-01-30 09:07:48.64	83.17	13.43	-40.1	-41.0	22.5	0.00e+00	0	41	0	668991488	51	4060
2026-01-30 09:07:49.64	83.06	13.51	-40.1	-40.9	22.5	0.00e+00	0	41	0	675282944	51	4044
2026-01-30 09:07:50.65	82.94	13.60	-40.0	-40.9	22.6	0.00e+00	0	41	0	680525824	51	4016
2026-01-30 09:07:51.66	82.83	13.68	-40.0	-40.8	22.6	0.00e+00	0	41	0	685768704	51	3997
2026-01-30 09:07:52.67	82.71	13.77	-40.0	-40.9	22.6	0.00e+00	0	41	0	692060160	51	4017
2026-01-30 09:07:53.68	82.60	13.85	-40.0	-40.8	22.9	0.00e+00	0	41	0	697303040	51	3997
2026-01-30 09:07:54.69	82.48	13.94	-40.0	-40.8	22.9	0.00e+00	0	41	0	703594496	51	3976
2026-01-30 09:07:55.70	82.36	14.02	-40.0	-40.8	22.9	0.00e+00	0	41	0	708837376	51	4001
2026-01-30 09:07:56.71	82.24	14.11	-40.2	-40.9	22.8	0.00e+00	0	41	0	715128832	51	4051
2026-01-30 09:07:57.71	82.13	14.19	-40.0	-40.8	23.0	0.00e+00	0	41	0	720371712	51	3959
2026-01-30 09:07:58.71	82.01	14.28	-39.9	-40.7	23.0	0.00e+00	0	41	0	725614592	51	3955
2026-01-30 09:07:59.72	81.89	14.36	-39.9	-40.7	23.1	0.00e+00	0	41	0	731906048	51	3921
2026-01-30 09:08:00.73	81.77	14.45	-39.7	-40.5	23.2	0.00e+00	0	41	0	737148928	51	3839
2026-01-30 09:08:01.73	81.65	14.54	-39.8	-40.6	23.2	0.00e+00	0	41	0	743440384	51	3873
2026-01-30 09:08:02.74	81.52	14.62	-39.8	-40.6	23.1	0.00e+00	0	41	0	748683264	51	3890
2026-01-30 09:08:03.75	81.40	14.71	-39.7	-40.5	23.2	0.00e+00	0	41	0	753926144	51	3848
2026-01-30 09:08:04.75	81.28	14.80	-39.8	-40.6	23.2	0.00e+00	0	41	0	760217600	51	3871
2026-01-30 09:08:05.76	81.15	14.88	-39.6	-40.4	23.4	0.00e+00	0	41	0	765460480	51	3781
2026-01-30 09:08:06.77	81.03	14.97	-39.6	-40.3	23.4	0.00e+00	0	41	0	770703360	51	3780
2026-01-30 09:08:07.79	80.90	15.06	-39.5	-40.2	23.5	0.00e+00	0	41	0	776994816	50	3957
2026-01-30 09:08:08.79	80.78	15.14	-39.4	-40.2	23.5	0.00e+00	0	41	0	783286272	50	3928
2026-01-30 09:08:09.80	80.65	15.23	-39.5	-40.3	23.5	0.00e+00	0	41	0	788529152	50	3967
2026-01-30 09:08:10.81	80.52	15.32	-39.6	-40.3	23.4	0.00e+00	0	41	0	793772032	50	3997
2026-01-30 09:08:11.81	80.39	15.41	-39.5	-40.3	23.4	0.00e+00	0	41	0	800063488	50	3981
2026-01-30 09:08:12.82	80.26	15.50	-39.6	-40.4	23.4	0.00e+00	0	41	0	805306368	50	4007
2026-01-30 09:08:13.83	80.13	15.58	-39.5	-40.3	23.5	0.00e+00	0	41	0	810549248	50	3968
2026-01-30 09:08:14.84	80.00	15.67	-39.4	-40.2	23.5	0.00e+00	0	41	0	816840704	50	3930
2026-01-30 09:08:15.84	79.87	15.76	-39.5	-40.3	23.4	0.00e+00	0	41	0	822083584	50	3976
2026-01-30 09:08:16.85	79.74	15.85	-39.6	-40.3	23.4	0.00e+00	0	41	0	828375040	50	3997
2026-01-30 09:08:17.86	79.60	15.94	-39.5	-40.2	23.5	0.00e+00	0	41	0	833617920	50	3957
2026-01-30 09:08:18.87	79.47	16.03	-39.3	-40.1	23.6	0.00e+00	0	41	0	838860800	50	3895
2026-01-30 09:08:19.88	79.33	16.12	-39.3	-40.1	23.6	0.00e+00	0	41	0	845152256	50	3886
2026-01-30 09:08:20.88	79.20	16.21	-39.4	-40.1	23.6	0.00e+00	0	41	0	850395136	50	3906
2026-01-30 09:08:21.89	79.06	16.30	-39.3	-40.1	23.7	0.00e+00	0	41	0	856686592	50	3873
2026-01-30 09:08:22.89	78.92	16.38	-39.2	-40.0	23.8	0.00e+00	0	41	0	861929472	50	3825
2026-01-30 09:08:23.90	78.79	16.47	-39.1	-39.9	23.9	0.00e+00	0	41	0	868220928	50	3789
2026-01-30 09:08:24.90	78.65	16.56	-39.1	-39.8	23.9	0.00e+00	0	41	0	873463808	50	3777
2026-01-30 09:08:25.91	78.51	16.65	-39.1	-39.8	23.9	0.00e+00	0	41	0	878706688	50	3777
2026-01-30 09:08:26.92	78.37	16.74	-39.1	-39.8	23.9	0.00e+00	0	41	0	884998144	50	3763
2026-01-30 09:08:27.93	78.22	16.83	-39.0	-39.8	24.0	0.00e+00	0	41	0	890241024	50	3743
2026-01-30 09:08:28.93	78.08	16.92	-39.1	-39.8	23.9	0.00e+00	0	41	0	895483904	50	3770
2026-01-30 09:08:29.94	77.94	17.02	-39.1	-39.9	23.9	0.00e+00	0	41	0	901775360	50	3786
2026-01-30 09:08:30.95	77.79	17.11	-38.9	-39.7	24.1	0.00e+00	0	41	0	907018240	49	3916
2026-01-30 09:08:31.96	77.65	17.20	-38.8	-39.6	24.2	0.00e+00	0	41	0	913309696	49	3873
2026-01-30 09:08:32.96	77.50	17.29	-38.9	-39.6	24.1	0.00e+00	0	41	0	918552576	49	3912
2026-01-30 09:08:33.97	77.35	17.38	-38.7	-39.5	24.2	0.00e+00	0	41	0	923795456	49	3837
2026-01-30 09:08:34.98	77.21	17.47	-38.7	-39.5	24.2	0.00e+00	0	41	0	930086912	49	3830
2026-01-30 09:08:35.99	77.06	17.56	-38.8	-39.5	24.2	0.00e+00	0	41	0	935329792	49	3843
2026-01-30 09:08:36.99	76.91	17.65	-38.8	-39.6	24.2	0.00e+00	0	41	0	941621248	49	3872
2026-01-30 09:08:38.00	76.76	17.75	-38.8	-39.5	24.2	0.00e+00	0	41	0	946864128	49	3844
2026-01-30 09:08:39.01	76.60	17.84	-38.7	-39.5	24.2	0.00e+00	0	41	0	953155584	49	3832
2026-01-30 09:08:40.02	76.45	17.93	-38.7	-39.5	24.3	0.00e+00	0	41	0	958398464	49	3839
2026-01-30 09:08:41.03	76.30	18.02	-38.8	-39.5	24.2	0.00e+00	0	41	0	963641344	49	3860
2026-01-30 09:08:42.03	76.14	18.12	-38.9	-39.6	24.1	0.00e+00	0	41	0	969932800	49	3896
2026-01-30 09:08:43.04	75.99	18.21	-38.9	-39.6	24.1	0.00e+00	0	41	0	975175680	49	3902
2026-01-30 09:08:44.05	75.83	18.30	-38.7	-39.5	24.3	0.00e+00	0	41	0	980418560	49	3837
2026-01-30 09:08:45.05	75.67	18.39	-38.5	-39.3	24.5	0.00e+00	0	41	0	986710016	49	3741
2026-01-30 09:08:46.06	75.52	18.49	-38.4	-39.1	24.6	0.00e+00	0	41	0	991952896	48	3906
2026-01-30 09:08:47.07	75.36	18.58	-38.4	-39.1	24.5	0.00e+00	0	41	0	998244352	48	3911
2026-01-30 09:08:48.08	75.19	18.67	-38.4	-39.1	24.6	0.00e+00	0	41	0	1003487232	48	3879
2026-01-30 09:08:49.09	75.03	18.77	-38.4	-39.1	24.6	0.00e+00	0	41	0	1008730112	48	3913
2026-01-30 09:08:50.08	74.87	18.86	-38.3	-39.0	24.7	0.00e+00	0	41	0	1015021568	48	3856
2026-01-30 09:08:51.09	74.71	18.95	-38.2	-38.9	24.8	0.00e+00	0	41	0	1021313024	48	3818
2026-01-30 09:08:52.10	74.54	19.05	-38.3	-39.0	24.7	0.00e+00	0	41	0	1026555904	48	3852
2026-01-30 09:08:53.10	74.38	19.14	-38.4	-39.1	24.6	0.00e+00	0	41	0	1031798784	48	3890
2026-01-30 09:08:54.11	74.21	19.23	-38.3	-39.0	24.7	0.00e+00	0	41	0	1038090240	48	3846
2026-01-30 09:08:55.12	74.04	19.33	-38.2	-38.9	24.7	0.00e+00	0	41	0	1043333120	48	3821
2026-01-30 09:08:56.13	73.88	19.42	-38.2	-38.9	24.8	0.00e+00	0	41	0	1048576000	48	3806
2026-01-30 09:08:57.13	73.71	19.51	-38.2	-38.9	24.8	0.00e+00	0	41	0	1054867456	48	3788
2026-01-30 09:08:58.15	73.53	19.61	-38.2	-38.9	24.8	0.00e+00	0	41	0	1060110336	48	3824
2026-01-30 09:08:59.15	73.36	19.70	-38.1	-38.8	24.9	0.00e+00	0	41	0	1065353216	48	3763
2026-01-30 09:09:00.16	73.19	19.80	-38.1	-38.9	24.8	0.00e+00	0	41	0	1071644672	48	3782
2026-01-30 09:09:01.17	73.02	19.89	-38.1	-38.8	24.9	0.00e+00	0	41	0	1076887552	48	3771
2026-01-30 09:09:02.17	72.84	19.99	-38.2	-38.9	24.8	0.00e+00	0	41	0	1083179008	48	3807
2026-01-30 09:09:03.18	72.66	20.08	-38.2	-38.9	24.8	0.00e+00	0	41	0	1088421888	48	3806
2026-01-30 09:09:04.19	72.49	20.17	-38.3	-39.1	24.7	0.00e+00	0	41	0	1094713344	48	3870
2026-01-30 09:09:05.20	72.31	20.27	-38.4	-39.1	24.6	0.00e+00	0	41	0	1099956224	48	3898
2026-01-30 09:09:06.20	72.13	20.36	-38.5	-39.3	24.5	0.00e+00	0	41	0	1106247680	48	3970
2026-01-30 09:09:07.21	71.95	20.46	-38.5	-39.2	24.5	0.00e+00	0	41	0	1111490560	48	3956
2026-01-30 09:09:08.22	71.77	20.55	-38.5	-39.2	24.5	0.00e+00	0	41	0	1116733440	48	3954
2026-01-30 09:09:09.22	71.58	20.65	-38.5	-39.2	24.6	0.00e+00	0	41	0	1123024896	48	3944
2026-01-30 09:09:10.24	71.40	20.74	-38.5	-39.3	24.5	0.00e+00	0	41	0	1128267776	48	3960
2026-01-30 09:09:11.25	71.21	20.84	-38.4	-39.1	24.7	0.00e+00	0	41	0	1133510656	48	3905
2026-01-30 09:09:12.25	71.03	20.93	-38.4	-39.1	24.7	0.00e+00	0	41	0	1139802112	48	3885
2026-01-30 09:09:13.26	70.84	21.03	-38.3	-39.0	24.7	0.00e+00	0	41	0	1145044992	48	3860
2026-01-30 09:09:14.27	70.65	21.12	-38.3	-39.0	24.7	0.00e+00	0	41	0	1150287872	48	3859
2026-01-30 09:09:15.28	70.46	21.22	-38.2	-39.0	24.8	0.00e+00	0	41	0	1156579328	48	3830
2026-01-30 09:09:16.29	70.27	21.31	-38.3	-39.0	24.8	0.00e+00	0	41	0	1161822208	48	3844
2026-01-30 09:09:17.29	70.08	21.41	-38.1	-38.9	24.9	0.00e+00	0	41	0	1168113664	48	3782
2026-01-30 09:09:18.29	69.89	21.50	-38.1	-38.8	24.9	0.00e+00	0	41	0	1173356544	48	3779
2026-01-30 09:09:19.30	69.69	21.60	-38.1	-38.8	24.9	0.00e+00	0	41	0	1179648000	48	3772
2026-01-30 09:09:20.30	69.50	21.69	-38.2	-38.9	24.9	0.00e+00	0	41	0	1184890880	48	3786
2026-01-30 09:09:21.30	69.30	21.79	-38.2	-38.9	24.9	0.00e+00	0	41	0	1191182336	48	3809
2026-01-30 09:09:22.31	69.10	21.88	-38.2	-38.9	24.9	0.00e+00	0	41	0	1196425216	48	3801
2026-01-30 09:09:23.31	68.90	21.98	-38.0	-38.7	25.0	0.00e+00	0	41	0	1201668096	48	3732
2026-01-30 09:09:24.32	68.70	22.07	-38.1	-38.8	25.0	0.00e+00	0	41	0	1207959552	48	3749
2026-01-30 09:09:25.32	68.50	22.17	-37.6	-38.4	24.9	0.00e+00	0	41	0	1213202432	47	3786
2026-01-30 09:09:26.33	68.30	22.26	-37.6	-38.3	24.9	0.00e+00	0	41	0	1218445312	47	3772
2026-01-30 09:09:27.34	68.09	22.36	-37.6	-38.3	24.9	0.00e+00	0	41	0	1224736768	47	3769
2026-01-30 09:09:28.34	67.89	22.45	-37.6	-38.3	25.0	0.00e+00	0	41	0	1229979648	47	3765
2026-01-30 09:09:29.35	67.68	22.55	-37.5	-38.2	25.0	0.00e+00	0	41	0	1235222528	47	3733
2026-01-30 09:09:30.36	67.47	22.64	-37.6	-38.3	24.9	0.00e+00	0	41	0	1241513984	47	3780
2026-01-30 09:09:31.37	67.26	22.74	-37.4	-38.2	25.1	0.00e+00	0	41	0	1246756864	46	3921
2026-01-30 09:09:32.37	67.05	22.83	-37.4	-38.1	25.1	0.00e+00	0	41	0	1253048320	46	3896
2026-01-30 09:09:33.37	66.84	22.92	-37.4	-38.1	25.1	0.00e+00	0	41	0	1258291200	46	3892
2026-01-30 09:09:34.38	66.63	23.02	-37.2	-37.9	25.3	0.00e+00	0	41	0	1263534080	46	3822
2026-01-30 09:09:35.38	66.41	23.11	-37.1	-37.8	25.4	0.00e+00	0	41	0	1269825536	46	3754
2026-01-30 09:09:36.38	66.20	23.21	-37.1	-37.8	25.4	0.00e+00	0	41	0	1275068416	46	3778
2026-01-30 09:09:37.39	65.98	23.30	-37.3	-38.0	25.2	0.00e+00	0	41	0	1281359872	46	3859
2026-01-30 09:09:38.39	65.76	23.39	-37.4	-38.1	25.2	0.00e+00	0	41	0	1286602752	46	3884
2026-01-30 09:09:39.40	65.54	23.49	-37.5	-38.2	25.1	0.00e+00	0	41	0	1292894208	46	3925
2026-01-30 09:09:40.41	65.32	23.58	-37.6	-38.3	25.0	0.00e+00	0	41	0	1298137088	46	3969
2026-01-30 09:09:41.41	65.10	23.68	-37.5	-38.2	25.1	0.00e+00	0	41	0	1303379968	46	3945
2026-01-30 09:09:42.42	64.87	23.77	-37.5	-38.2	25.1	0.00e+00	0	41	0	1309671424	46	3942
2026-01-30 09:09:43.42	64.65	23.86	-37.4	-38.1	25.2	0.00e+00	0	41	0	1314914304	46	3888
2026-01-30 09:09:44.43	64.42	23.96	-37.1	-37.8	25.4	0.00e+00	0	41	0	1320157184	46	3771
2026-01-30 09:09:45.43	64.20	24.05	-37.0	-37.7	25.6	0.00e+00	0	41	0	1326448640	46	3699
2026-01-30 09:09:46.44	63.97	24.14	-36.9	-37.6	25.6	0.00e+00	0	41	0	1331691520	45	3894
2026-01-30 09:09:47.45	63.73	24.23	-37.0	-37.7	25.5	0.00e+00	0	41	0	1337982976	45	3930
2026-01-30 09:09:48.45	63.50	24.33	-37.1	-37.8	25.5	0.00e+00	0	41	0	1343225856	45	3960
2026-01-30 09:09:49.45	63.27	24.42	-37.1	-37.7	25.5	0.00e+00	0	41	0	1348468736	45	3956
2026-01-30 09:09:50.46	63.04	24.51	-37.1	-37.8	25.4	0.00e+00	0	41	0	1354760192	45	4004
2026-01-30 09:09:51.46	62.80	24.60	-37.1	-37.8	25.4	0.00e+00	0	41	0	1360003072	45	4000
2026-01-30 09:09:52.47	62.56	24.69	-37.0	-37.7	25.5	0.00e+00	0	41	0	1365245952	45	3958
2026-01-30 09:09:53.48	62.32	24.79	-37.0	-37.7	25.5	0.00e+00	0	41	0	1371537408	45	3930
2026-01-30 09:09:54.48	62.08	24.88	-36.9	-37.6	25.6	0.00e+00	0	41	0	1376780288	45	3880
2026-01-30 09:09:55.49	61.84	24.97	-36.7	-37.4	25.8	0.00e+00	0	41	0	1383071744	45	3806
2026-01-30 09:09:56.50	61.60	25.06	-36.7	-37.4	25.8	0.00e+00	0	41	0	1388314624	45	3811
2026-01-30 09:09:57.50	61.35	25.15	-36.8	-37.5	25.7	0.00e+00	0	41	0	1394606080	45	3827
2026-01-30 09:09:58.51	61.11	25.24	-36.9	-37.6	25.6	0.00e+00	0	41	0	1399848960	45	3888
2026-01-30 09:09:59.52	60.86	25.33	-37.0	-37.7	25.6	0.00e+00	0	41	0	1405091840	45	3928
2026-01-30 09:10:00.52	60.61	25.42	-37.1	-37.8	25.5	0.00e+00	0	41	0	1411383296	45	3978
2026-01-30 09:10:01.52	60.36	25.51	-37.1	-37.8	25.4	0.00e+00	0	41	0	1416626176	45	3993
2026-01-30 09:10:02.53	60.11	25.60	-37.1	-37.8	25.4	0.00e+00	0	41	0	1422917632	45	4000
2026-01-30 09:10:03.54	59.85	25.69	-37.2	-37.9	25.4	0.00e+00	0	41	0	1428160512	45	4032
2026-01-30 09:10:04.54	59.60	25.77	-37.2	-37.9	25.4	0.00e+00	0	41	0	1433403392	45	4048
2026-01-30 09:10:05.54	59.35	25.86	-37.2	-37.9	25.4	0.00e+00	0	41	0	1439694848	45	4042
2026-01-30 09:10:06.55	59.09	25.95	-37.2	-37.9	25.5	0.00e+00	0	41	0	1444937728	45	4008
2026-01-30 09:10:07.56	58.83	26.04	-37.0	-37.7	25.6	0.00e+00	0	41	0	1450180608	45	3945
2026-01-30 09:10:08.56	58.57	26.12	-37.0	-37.7	25.6	0.00e+00	0	41	0	1456472064	45	3918
2026-01-30 09:10:09.57	58.31	26.21	-37.0	-37.7	25.6	0.00e+00	0	41	0	1461714944	45	3918
2026-01-30 09:10:10.57	58.04	26.30	-37.1	-37.8	25.5	0.00e+00	0	41	0	1468006400	45	3979
2026-01-30 09:10:11.58	57.78	26.38	-37.1	-37.8	25.4	0.00e+00	0	41	0	1473249280	45	4004
2026-01-30 09:10:12.59	57.51	26.47	-37.1	-37.9	25.5	0.00e+00	0	41	0	1478492160	45	4009
2026-01-30 09:10:13.59	57.25	26.55	-37.1	-37.8	25.5	0.00e+00	0	41	0	1484783616	45	3991
2026-01-30 09:10:14.60	56.97	26.64	-37.0	-37.7	25.6	0.00e+00	0	41	0	1491075072	45	3949
2026-01-30 09:10:15.61	56.70	26.72	-37.0	-37.7	25.5	0.00e+00	0	41	0	1496317952	45	3942
2026-01-30 09:10:16.61	56.43	26.81	-37.0	-37.6	25.6	0.00e+00	0	41	0	1501560832	45	3910
2026-01-30 09:10:17.61	56.16	26.89	-36.7	-37.4	25.8	0.00e+00	0	41	0	1507852288	45	3806
2026-01-30 09:10:18.62	55.89	26.97	-36.6	-37.3	25.9	0.00e+00	0	41	0	1513095168	45	3774
2026-01-30 09:10:19.62	55.61	27.05	-36.6	-37.3	25.9	0.00e+00	0	41	0	1518338048	45	3762
2026-01-30 09:10:20.62	55.33	27.13	-36.5	-37.2	26.0	0.00e+00	0	41	0	1524629504	45	3730
2026-01-30 09:10:21.63	55.05	27.22	-36.4	-37.1	26.1	0.00e+00	0	41	0	1529872384	44	3883
2026-01-30 09:10:22.64	54.77	27.30	-36.5	-37.2	26.0	0.00e+00	0	41	0	1535115264	44	3914
2026-01-30 09:10:23.64	54.49	27.38	-36.4	-37.1	26.1	0.00e+00	0	41	0	1541406720	44	3888
2026-01-30 09:10:24.65	54.21	27.46	-36.5	-37.2	26.1	0.00e+00	0	41	0	1546649600	44	3917
2026-01-30 09:10:25.65	53.93	27.53	-36.4	-37.1	26.1	0.00e+00	0	41	0	1552941056	44	3904
2026-01-30 09:10:26.66	53.64	27.61	-36.6	-37.3	26.0	0.00e+00	0	41	0	1558183936	44	3960
2026-01-30 09:10:27.67	53.35	27.69	-36.6	-37.4	25.9	0.00e+00	0	41	0	1563426816	44	4006
2026-01-30 09:10:28.67	53.06	27.77	-36.8	-37.5	25.8	0.00e+00	0	41	0	1569718272	44	4069
2026-01-30 09:10:29.68	52.77	27.85	-36.9	-37.6	25.7	0.00e+00	0	41	0	1574961152	44	4107
2026-01-30 09:10:30.69	52.48	27.92	-36.8	-37.5	25.8	0.00e+00	0	41	0	1581252608	44	4075
2026-01-30 09:10:31.70	52.18	28.00	-36.8	-37.5	25.8	0.00e+00	0	41	0	1586495488	44	4065
2026-01-30 09:10:32.70	51.89	28.07	-36.5	-37.2	26.0	0.00e+00	0	41	0	1592786944	44	3952
2026-01-30 09:10:33.71	51.59	28.15	-36.5	-37.2	26.1	0.00e+00	0	41	0	1598029824	44	3939
2026-01-30 09:10:34.71	51.30	28.22	-36.5	-37.2	26.0	0.00e+00	0	41	0	1603272704	44	3951
2026-01-30 09:10:35.72	51.00	28.29	-36.6	-37.3	25.9	0.00e+00	0	41	0	1609564160	44	3994
2026-01-30 09:10:36.73	50.70	28.37	-36.5	-37.2	26.0	0.00e+00	0	41	0	1614807040	44	3937
2026-01-30 09:10:37.74	50.39	28.44	-36.5	-37.2	26.0	0.00e+00	0	41	0	1620049920	44	3937
2026-01-30 09:10:38.74	50.09	28.51	-36.6	-37.2	26.0	0.00e+00	0	41	0	1626341376	44	3949
2026-01-30 09:10:39.74	49.79	28.58	-36.5	-37.2	26.1	0.00e+00	0	41	0	1631584256	44	3922
2026-01-30 09:10:40.75	49.48	28.65	-36.6	-37.3	26.0	0.00e+00	0	41	0	1637875712	44	3982
2026-01-30 09:10:41.75	49.18	28.72	-36.7	-37.4	25.9	0.00e+00	0	41	0	1643118592	44	4009
2026-01-30 09:10:42.75	48.87	28.78	-36.5	-37.2	26.0	0.00e+00	0	41	0	1648361472	44	3945
2026-01-30 09:10:43.76	48.56	28.85	-36.5	-37.2	26.0	0.00e+00	0	41	0	1654652928	44	3938
2026-01-30 09:10:44.76	48.25	28.92	-36.4	-37.0	26.2	0.00e+00	0	41	0	1659895808	44	3865
2026-01-30 09:10:45.77	47.94	28.98	-36.3	-37.0	26.2	0.00e+00	0	41	0	1665138688	44	3837
2026-01-30 09:10:46.77	47.63	29.05	-36.1	-36.8	26.4	0.00e+00	0	41	0	1671430144	44	3761
2026-01-30 09:10:47.79	47.31	29.11	-36.2	-36.9	26.4	0.00e+00	0	41	0	1676673024	44	3782
2026-01-30 09:10:48.79	47.00	29.17	-36.4	-37.1	26.1	0.00e+00	0	41	0	1682964480	44	3895
2026-01-30 09:10:49.80	46.68	29.24	-36.5	-37.2	26.0	0.00e+00	0	41	0	1688207360	44	3939
2026-01-30 09:10:50.80	46.36	29.30	-36.5	-37.1	26.1	0.00e+00	0	41	0	1694498816	44	3907
2026-01-30 09:10:51.81	46.04	29.36	-36.4	-37.1	26.1	0.00e+00	0	41	0	1699741696	44	3910
2026-01-30 09:10:52.82	45.72	29.42	-36.4	-37.1	26.1	0.00e+00	0	41	0	1704984576	44	3907
2026-01-30 09:10:53.83	45.39	29.48	-36.2	-36.9	26.3	0.00e+00	0	41	0	1711276032	44	3804
2026-01-30 09:10:54.83	45.07	29.54	-36.3	-37.0	26.3	0.00e+00	0	41	0	1716518912	44	3847
2026-01-30 09:10:55.84	44.75	29.59	-36.4	-37.1	26.1	0.00e+00	0	41	0	1722810368	44	3886
2026-01-30 09:10:56.84	44.42	29.65	-36.4	-37.1	26.2	0.00e+00	0	41	0	1728053248	44	3892
2026-01-30 09:10:57.85	44.10	29.70	-36.4	-37.1	26.2	0.00e+00	0	41	0	1733296128	44	3891
2026-01-30 09:10:58.85	43.77	29.76	-36.4	-37.1	26.2	0.00e+00	0	41	0	1739587584	44	3877
2026-01-30 09:10:59.86	43.44	29.81	-36.3	-37.0	26.2	0.00e+00	0	41	0	1744830464	44	3857
2026-01-30 09:11:00.86	43.11	29.86	-36.3	-37.0	26.2	0.00e+00	0	41	0	1750073344	44	3855
2026-01-30 09:11:01.87	42.78	29.91	-36.4	-37.1	26.2	0.00e+00	0	41	0	1756364800	44	3869
2026-01-30 09:11:02.88	42.45	29.96	-36.2	-36.9	26.3	0.00e+00	0	41	0	1761607680	44	3809
2026-01-30 09:11:03.88	42.12	30.01	-36.3	-37.0	26.3	0.00e+00	0	41	0	1766850560	44	3826
2026-01-30 09:11:04.89	41.78	30.06	-36.5	-37.2	26.1	0.00e+00	0	41	0	1773142016	44	3923
2026-01-30 09:11:05.89	41.45	30.11	-36.4	-37.1	26.2	0.00e+00	0	41	0	1779433472	44	3904
2026-01-30 09:11:06.90	41.11	30.16	-36.4	-37.0	26.2	0.00e+00	0	41	0	1784676352	44	3861
2026-01-30 09:11:07.91	40.77	30.20	-36.3	-36.9	26.3	0.00e+00	0	41	0	1789919232	44	3816
2026-01-30 09:11:08.91	40.44	30.24	-36.0	-36.7	26.5	0.00e+00	0	41	0	1796210688	44	3713
2026-01-30 09:11:09.92	40.10	30.29	-35.8	-36.5	26.6	0.00e+00	0	41	0	1801453568	43	3849
2026-01-30 09:11:10.92	39.76	30.33	-35.9	-36.6	26.5	0.00e+00	0	41	0	1807745024	43	3875
2026-01-30 09:11:11.92	39.42	30.37	-36.0	-36.7	26.4	0.00e+00	0	41	0	1812987904	43	3936
2026-01-30 09:11:12.93	39.08	30.41	-36.0	-36.7	26.4	0.00e+00	0	41	0	1818230784	43	3928
2026-01-30 09:11:13.94	38.74	30.45	-36.0	-36.7	26.4	0.00e+00	0	41	0	1824522240	43	3930
2026-01-30 09:11:14.95	38.39	30.49	-36.1	-36.8	26.4	0.00e+00	0	42	0	1829765120	43	3967
2026-01-30 09:11:15.96	38.05	30.52	-36.1	-36.8	26.4	0.00e+00	0	41	0	1835008000	43	3969
2026-01-30 09:11:16.96	37.70	30.56	-36.2	-36.9	26.3	0.00e+00	0	41	0	1841299456	43	4010
2026-01-30 09:11:17.97	37.36	30.59	-36.3	-37.0	26.2	0.00e+00	0	41	0	1846542336	43	4060
2026-01-30 09:11:18.97	37.01	30.63	-36.3	-37.0	26.2	0.00e+00	0	41	0	1851785216	43	4056
2026-01-30 09:11:19.98	36.67	30.66	-36.3	-37.0	26.2	0.00e+00	0	41	0	1858076672	43	4055
2026-01-30 09:11:20.99	36.32	30.69	-36.1	-36.8	26.3	0.00e+00	0	41	0	1864368128	43	3998
2026-01-30 09:11:21.99	35.97	30.72	-36.1	-36.7	26.4	0.00e+00	0	41	0	1869611008	43	3950
2026-01-30 09:11:23.01	35.62	30.75	-36.1	-36.8	26.4	0.00e+00	0	41	0	1874853888	43	3961
2026-01-30 09:11:24.01	35.27	30.78	-36.1	-36.7	26.4	0.00e+00	0	41	0	1881145344	43	3952
2026-01-30 09:11:25.02	34.92	30.80	-36.0	-36.7	26.4	0.00e+00	0	41	0	1886388224	43	3942
2026-01-30 09:11:26.03	34.57	30.83	-36.0	-36.7	26.5	0.00e+00	0	41	0	1892679680	43	3929
2026-01-30 09:11:27.03	34.22	30.85	-36.0	-36.7	26.5	0.00e+00	0	41	0	1897922560	43	3933
2026-01-30 09:11:28.04	33.87	30.87	-35.9	-36.5	26.5	0.00e+00	0	41	0	1903165440	43	3860
2026-01-30 09:11:29.05	33.51	30.89	-35.8	-36.5	26.6	0.00e+00	0	41	0	1909456896	43	3832
2026-01-30 09:11:30.05	33.16	30.91	-35.7	-36.4	26.7	0.00e+00	0	41	0	1914699776	43	3807
2026-01-30 09:11:31.05	32.81	30.93	-35.8	-36.4	26.7	0.00e+00	0	41	0	1919942656	43	3822
2026-01-30 09:11:32.06	32.46	30.95	-35.8	-36.5	26.6	0.00e+00	0	41	0	1926234112	43	3828
2026-01-30 09:11:33.07	32.10	30.97	-35.9	-36.6	26.5	0.00e+00	0	41	0	1931476992	43	3886
2026-01-30 09:11:34.08	31.75	30.98	-36.0	-36.7	26.4	0.00e+00	0	41	0	1936719872	43	3951
2026-01-30 09:11:35.09	31.39	31.00	-36.1	-36.8	26.4	0.00e+00	0	41	0	1943011328	43	3962
2026-01-30 09:11:36.09	31.04	31.01	-36.0	-36.7	26.5	0.00e+00	0	41	0	1949302784	43	3926
2026-01-30 09:11:37.10	30.68	31.02	-35.9	-36.6	26.5	0.00e+00	0	41	0	1954545664	43	3877
2026-01-30 09:11:38.10	30.33	31.03	-35.9	-36.6	26.5	0.00e+00	0	41	0	1959788544	43	3884
2026-01-30 09:11:39.11	29.97	31.04	-35.9	-36.6	26.5	0.00e+00	0	41	0	1966080000	43	3889
2026-01-30 09:11:40.12	29.62	31.05	-35.9	-36.6	26.5	0.00e+00	0	41	0	1971322880	43	3882
2026-01-30 09:11:41.13	29.26	31.06	-35.8	-36.5	26.6	0.00e+00	0	41	0	1977614336	43	3845
2026-01-30 09:11:42.13	28.91	31.06	-35.9	-36.5	26.6	0.00e+00	0	41	0	1982857216	43	3856
2026-01-30 09:11:43.14	28.55	31.07	-35.9	-36.6	26.6	0.00e+00	0	41	0	1988100096	43	3888
2026-01-30 09:11:44.14	28.19	31.07	-36.1	-36.7	26.4	0.00e+00	0	41	0	1994391552	43	3956
2026-01-30 09:11:45.15	27.84	31.07	-36.0	-36.6	26.5	0.00e+00	0	41	0	1999634432	43	3902
2026-01-30 09:11:46.16	27.48	31.07	-36.0	-36.6	26.5	0.00e+00	0	41	0	2004877312	43	3902
2026-01-30 09:11:47.17	27.12	31.07	-35.9	-36.6	26.6	0.00e+00	0	41	0	2011168768	43	3881
2026-01-30 09:11:48.17	26.77	31.07	-35.9	-36.5	26.6	0.00e+00	0	41	0	2016411648	43	3866
2026-01-30 09:11:49.17	26.41	31.06	-35.9	-36.6	26.6	0.00e+00	0	41	0	2021654528	43	3873
2026-01-30 09:11:50.18	26.06	31.06	-35.9	-36.5	26.6	0.00e+00	0	41	0	2027945984	43	3856
2026-01-30 09:11:51.19	25.70	31.05	-35.9	-36.5	26.6	0.00e+00	0	41	0	2034237440	43	3861
2026-01-30 09:11:52.19	25.35	31.05	-35.9	-36.6	26.6	0.00e+00	0	41	0	2039480320	43	3872
2026-01-30 09:11:53.20	24.99	31.04	-36.0	-36.6	26.5	0.00e+00	0	41	0	2044723200	43	3905
2026-01-30 09:11:54.21	24.63	31.03	-35.9	-36.6	26.6	0.00e+00	0	41	0	2051014656	43	3876
2026-01-30 09:11:55.22	24.28	31.02	-36.0	-36.7	26.5	0.00e+00	0	41	0	2056257536	43	3916
2026-01-30 09:11:56.23	23.92	31.01	-35.9	-36.6	26.5	0.00e+00	0	41	0	2062548992	43	3884
2026-01-30 09:11:57.23	23.57	30.99	-36.0	-36.7	26.4	0.00e+00	0	41	0	2067791872	43	3945
2026-01-30 09:11:58.24	23.21	30.98	-36.1	-36.8	26.4	0.00e+00	0	41	0	2073034752	43	3994
2026-01-30 09:11:59.25	22.86	30.96	-36.2	-36.9	26.3	0.00e+00	0	41	0	2079326208	43	4005
2026-01-30 09:12:00.25	22.51	30.95	-35.9	-36.6	26.6	0.00e+00	0	41	0	2084569088	43	3871
2026-01-30 09:12:01.26	22.15	30.93	-35.7	-36.4	26.7	0.00e+00	0	41	0	2089811968	43	3783
2026-01-30 09:12:02.27	21.80	30.91	-35.9	-36.5	26.6	0.00e+00	0	41	0	2096103424	43	3862
2026-01-30 09:12:03.27	21.45	30.89	-36.0	-36.7	26.5	0.00e+00	0	41	0	2101346304	43	3941
2026-01-30 09:12:04.27	21.10	30.87	-36.0	-36.7	26.5	0.00e+00	0	41	0	2106589184	43	3931
2026-01-30 09:12:05.28	20.75	30.84	-36.0	-36.7	26.4	0.00e+00	0	41	0	2112880640	43	3949
2026-01-30 09:12:06.29	20.39	30.82	-36.0	-36.7	26.5	0.00e+00	0	41	0	2118123520	43	3933
2026-01-30 09:12:07.29	20.05	30.79	-36.1	-36.7	26.4	0.00e+00	0	41	0	2124414976	43	3951
2026-01-30 09:12:08.30	19.70	30.77	-36.1	-36.7	26.4	0.00e+00	0	41	0	2129657856	43	3957
2026-01-30 09:12:09.31	19.35	30.74	-36.2	-36.9	26.3	0.00e+00	0	41	0	2135949312	43	4023
2026-01-30 09:12:10.31	19.00	30.71	-36.4	-37.0	26.2	0.00e+00	0	41	0	2141192192	43	4098
2026-01-30 09:12:11.32	18.65	30.68	-36.3	-37.0	26.2	0.00e+00	0	41	0	2147483648	43	4085
2026-01-30 09:12:12.32	18.31	30.65	-36.2	-36.9	26.3	0.00e+00	0	41	0	2152726528	43	4037
2026-01-30 09:12:13.33	17.96	30.62	-36.2	-36.9	26.3	0.00e+00	0	41	0	2157969408	43	4037
2026-01-30 09:12:14.33	17.61	30.58	-36.2	-36.8	26.4	0.00e+00	0	41	0	2164260864	43	4004
2026-01-30 09:12:15.33	17.27	30.55	-36.1	-36.7	26.4	0.00e+00	0	41	0	2169503744	43	3954
2026-01-30 09:12:16.34	16.93	30.51	-36.0	-36.7	26.5	0.00e+00	0	41	0	2174746624	43	3915
2026-01-30 09:12:17.35	16.58	30.48	-35.9	-36.6	26.5	0.00e+00	0	41	0	2181038080	43	3893
2026-01-30 09:12:18.35	16.24	30.44	-35.8	-36.4	26.7	0.00e+00	0	41	0	2186280960	43	3821
2026-01-30 09:12:19.36	15.90	30.40	-35.7	-36.4	26.7	0.00e+00	0	41	0	2191523840	43	3796
2026-01-30 09:12:20.37	15.56	30.36	-35.7	-36.3	26.8	0.00e+00	0	41	0	2197815296	43	3780
2026-01-30 09:12:21.37	15.22	30.32	-35.8	-36.5	26.7	0.00e+00	0	41	0	2203058176	43	3842
2026-01-30 09:12:22.38	14.88	30.28	-35.9	-36.6	26.6	0.00e+00	0	41	0	2209349632	43	3876
2026-01-30 09:12:23.39	14.54	30.23	-35.9	-36.5	26.6	0.00e+00	0	41	0	2214592512	43	3855
2026-01-30 09:12:24.39	14.20	30.19	-36.0	-36.7	26.5	0.00e+00	0	41	0	2220883968	43	3927
2026-01-30 09:12:25.40	13.86	30.14	-36.1	-36.8	26.4	0.00e+00	0	41	0	2226126848	43	3971
2026-01-30 09:12:26.41	13.53	30.10	-36.2	-36.9	26.3	0.00e+00	0	42	0	2232418304	43	4031
2026-01-30 09:12:27.41	13.20	30.05	-36.3	-37.0	26.2	0.00e+00	0	41	0	2237661184	43	4068
2026-01-30 09:12:28.42	12.86	30.00	-36.4	-37.1	26.1	0.00e+00	0	41	0	2242904064	43	4132
2026-01-30 09:12:29.42	12.53	29.95	-36.4	-37.1	26.1	0.00e+00	0	41	0	2249195520	43	4141
2026-01-30 09:12:30.43	12.20	29.90	-36.3	-36.9	26.3	0.00e+00	0	41	0	2254438400	43	4047
2026-01-30 09:12:31.44	11.87	29.85	-36.3	-37.0	26.2	0.00e+00	0	41	0	2259681280	43	4052
2026-01-30 09:12:32.44	11.54	29.80	-36.2	-36.9	26.3	0.00e+00	0	41	0	2265972736	43	4018
2026-01-30 09:12:33.45	11.21	29.74	-36.2	-36.9	26.3	0.00e+00	0	41	0	2271215616	43	4029
2026-01-30 09:12:34.45	10.89	29.69	-36.1	-36.7	26.4	0.00e+00	0	41	0	2276458496	43	3957
2026-01-30 09:12:35.46	10.56	29.63	-36.1	-36.8	26.4	0.00e+00	0	41	0	2282749952	43	3969
2026-01-30 09:12:36.47	10.23	29.58	-35.9	-36.6	26.6	0.00e+00	0	41	0	2287992832	43	3878
2026-01-30 09:12:37.48	9.91	29.52	-35.9	-36.6	26.6	0.00e+00	0	41	0	2294284288	43	3878
2026-01-30 09:12:38.48	9.59	29.46	-36.0	-36.7	26.5	0.00e+00	0	41	0	2299527168	43	3922
2026-01-30 09:12:39.49	9.26	29.40	-36.1	-36.8	26.4	0.00e+00	0	41	0	2305818624	43	3968
2026-01-30 09:12:40.50	8.94	29.34	-36.2	-36.8	26.3	0.00e+00	0	41	0	2311061504	43	4001
2026-01-30 09:12:41.50	8.63	29.28	-36.2	-36.8	26.3	0.00e+00	0	41	0	2317352960	43	3999
2026-01-30 09:12:42.50	8.31	29.22	-36.1	-36.8	26.3	0.00e+00	0	41	0	2322595840	43	3994
2026-01-30 09:12:43.51	7.99	29.16	-36.1	-36.8	26.3	0.00e+00	0	41	0	2327838720	43	3989
2026-01-30 09:12:44.52	7.68	29.09	-36.3	-36.9	26.3	0.00e+00	0	41	0	2334130176	43	4043
2026-01-30 09:12:45.53	7.36	29.03	-36.4	-37.1	26.1	0.00e+00	0	41	0	2339373056	43	4117
2026-01-30 09:12:46.53	7.05	28.97	-36.4	-37.1	26.1	0.00e+00	0	41	0	2344615936	43	4130
2026-01-30 09:12:47.54	6.74	28.90	-36.4	-37.1	26.1	0.00e+00	0	41	0	2350907392	43	4128
2026-01-30 09:12:48.55	6.43	28.83	-36.4	-37.1	26.1	0.00e+00	0	41	0	2356150272	43	4126
2026-01-30 09:12:49.55	6.12	28.77	-36.5	-37.1	26.1	0.00e+00	0	41	0	2361393152	43	4136
2026-01-30 09:12:50.56	5.81	28.70	-36.3	-37.0	26.2	0.00e+00	0	41	0	2367684608	43	4081
2026-01-30 09:12:51.57	5.50	28.63	-36.3	-37.0	26.2	0.00e+00	0	41	0	2372927488	43	4061
2026-01-30 09:12:52.57	5.20	28.56	-36.1	-36.8	26.4	0.00e+00	0	41	0	2379218944	43	3977
2026-01-30 09:12:53.58	4.90	28.49	-36.2	-36.9	26.3	0.00e+00	0	41	0	2384461824	43	4009
2026-01-30 09:12:54.58	4.60	28.42	-36.1	-36.8	26.4	0.00e+00	0	41	0	2389704704	43	3990
2026-01-30 09:12:55.59	4.30	28.35	-36.1	-36.8	26.4	0.00e+00	0	41	0	2395996160	43	3977
2026-01-30 09:12:56.60	3.99	28.27	-36.1	-36.8	26.4	0.00e+00	0	41	0	2402287616	43	3995
2026-01-30 09:12:57.61	3.70	28.20	-36.1	-36.8	26.4	0.00e+00	0	41	0	2407530496	43	3975
2026-01-30 09:12:58.61	3.40	28.13	-36.1	-36.8	26.3	0.00e+00	0	41	0	2412773376	43	3995
2026-01-30 09:12:59.62	3.10	28.05	-36.2	-36.8	26.3	0.00e+00	0	41	0	2419064832	43	3999
2026-01-30 09:13:00.63	2.81	27.98	-36.0	-36.7	26.5	0.00e+00	0	41	0	2424307712	43	3928
2026-01-30 09:13:01.64	2.52	27.90	-36.1	-36.7	26.4	0.00e+00	0	41	0	2429550592	43	3948
2026-01-30 09:13:02.65	2.22	27.82	-36.1	-36.7	26.4	0.00e+00	0	41	0	2435842048	43	3953
2026-01-30 09:13:03.64	1.94	27.75	-36.0	-36.7	26.4	0.00e+00	0	41	0	2441084928	43	3938
2026-01-30 09:13:04.65	1.65	27.67	-36.2	-36.9	26.3	0.00e+00	0	41	0	2446327808	43	4014
2026-01-30 09:13:05.65	1.36	27.59	-36.3	-37.0	26.2	0.00e+00	0	41	0	2452619264	43	4067
2026-01-30 09:13:06.66	1.08	27.51	-36.3	-37.0	26.2	0.00e+00	0	41	0	2457862144	43	4067
2026-01-30 09:13:07.67	0.79	27.44	-36.4	-37.1	26.1	0.00e+00	0	41	0	2464153600	43	4115
2026-01-30 09:13:08.68	0.51	27.36	-36.3	-37.0	26.2	0.00e+00	0	41	0	2469396480	43	4052
2026-01-30 09:13:09.68	0.23	27.28	-36.1	-36.8	26.4	0.00e+00	0	41	0	2474639360	43	3983
2026-01-30 09:13:10.69	359.95	27.19	-36.1	-36.8	26.3	0.00e+00	0	41	0	2480930816	43	3986
2026-01-30 09:13:11.70	359.67	27.11	-36.2	-36.8	26.3	0.00e+00	0	41	0	2487222272	43	4002
2026-01-30 09:13:12.71	359.39	27.03	-36.3	-37.0	26.2	0.00e+00	0	41	0	2492465152	43	4064
2026-01-30 09:13:13.71	359.12	26.95	-36.4	-37.0	26.2	0.00e+00	0	41	0	2497708032	43	4095
2026-01-30 09:13:14.72	358.84	26.87	-36.3	-37.0	26.2	0.00e+00	0	41	0	2503999488	43	4067
2026-01-30 09:13:15.73	358.57	26.78	-36.3	-37.0	26.2	0.00e+00	0	41	0	2509242368	43	4053
2026-01-30 09:13:16.74	358.30	26.70	-36.3	-36.9	26.2	0.00e+00	0	41	0	2514485248	43	4045
2026-01-30 09:13:17.74	358.03	26.61	-36.3	-36.9	26.2	0.00e+00	0	41	0	2520776704	43	4050
2026-01-30 09:13:18.75	357.76	26.53	-36.3	-37.0	26.2	0.00e+00	0	41	0	2526019584	43	4067
2026-01-30 09:13:19.76	357.49	26.44	-36.5	-37.1	26.1	0.00e+00	0	41	0	2531262464	43	4139
2026-01-30 09:13:20.77	357.23	26.36	-36.6	-37.3	26.0	0.00e+00	0	41	0	2537553920	43	4196
2026-01-30 09:13:21.77	356.96	26.27	-36.6	-37.3	25.9	0.00e+00	0	41	0	2542796800	43	4221
2026-01-30 09:13:22.78	356.70	26.19	-36.6	-37.3	25.9	0.00e+00	0	41	0	2549088256	43	4230
2026-01-30 09:13:23.79	356.44	26.10	-36.5	-37.2	26.0	0.00e+00	0	41	0	2554331136	43	4180
2026-01-30 09:13:24.79	356.18	26.01	-36.4	-37.1	26.1	0.00e+00	0	41	0	2560622592	43	4136
2026-01-30 09:13:25.80	355.92	25.93	-36.5	-37.1	26.0	0.00e+00	0	41	0	2565865472	43	4139
2026-01-30 09:13:26.81	355.66	25.84	-36.4	-37.1	26.1	0.00e+00	0	41	0	2572156928	43	4128
2026-01-30 09:13:27.82	355.41	25.75	-36.5	-37.2	26.0	0.00e+00	0	41	0	2577399808	43	4160
2026-01-30 09:13:28.83	355.15	25.66	-36.6	-37.2	25.9	0.00e+00	0	41	0	2582642688	43	4190
2026-01-30 09:13:29.83	354.90	25.57	-36.5	-37.2	26.0	0.00e+00	0	41	0	2588934144	43	4179
2026-01-30 09:13:30.84	354.65	25.48	-36.5	-37.2	26.0	0.00e+00	0	41	0	2594177024	43	4178
2026-01-30 09:13:31.85	354.40	25.39	-36.5	-37.2	26.0	0.00e+00	0	41	0	2599419904	43	4156
2026-01-30 09:13:32.86	354.15	25.30	-36.5	-37.2	26.0	0.00e+00	0	41	0	2605711360	43	4187
2026-01-30 09:13:33.87	353.90	25.21	-36.6	-37.3	26.0	0.00e+00	0	41	0	2610954240	43	4196
2026-01-30 09:13:34.87	353.66	25.12	-36.4	-37.1	26.1	0.00e+00	0	41	0	2616197120	43	4124
2026-01-30 09:13:35.88	353.42	25.03	-36.4	-37.1	26.1	0.00e+00	0	41	0	2622488576	43	4103
2026-01-30 09:13:36.88	353.17	24.94	-36.5	-37.1	26.0	0.00e+00	0	41	0	2627731456	43	4136
2026-01-30 09:13:37.89	352.93	24.85	-36.4	-37.1	26.0	0.00e+00	0	41	0	2634022912	43	4127
2026-01-30 09:13:38.90	352.69	24.76	-36.5	-37.2	26.0	0.00e+00	0	41	0	2639265792	43	4166
2026-01-30 09:13:39.91	352.45	24.67	-36.6	-37.3	25.9	0.00e+00	0	41	0	2645557248	43	4200
2026-01-30 09:13:40.91	352.22	24.58	-36.6	-37.3	25.9	0.00e+00	0	41	0	2650800128	43	4201
2026-01-30 09:13:41.92	351.98	24.49	-36.6	-37.3	25.9	0.00e+00	0	41	0	2657091584	43	4236
2026-01-30 09:13:42.93	351.75	24.39	-36.6	-37.3	25.9	0.00e+00	0	41	0	2662334464	43	4195
2026-01-30 09:13:43.94	351.51	24.30	-36.5	-37.2	25.9	0.00e+00	0	41	0	2667577344	43	4182
2026-01-30 09:13:44.95	351.28	24.21	-36.6	-37.2	25.9	0.00e+00	0	41	0	2673868800	43	4185
2026-01-30 09:13:45.95	351.05	24.12	-36.5	-37.2	26.0	0.00e+00	0	41	0	2679111680	43	4154
2026-01-30 09:13:46.96	350.82	24.02	-36.6	-37.3	25.9	0.00e+00	0	41	0	2684354560	43	4207
2026-01-30 09:13:47.96	350.60	23.93	-36.9	-37.6	25.7	0.00e+00	0	41	0	2690646016	44	4101
2026-01-30 09:13:48.97	350.37	23.84	-37.0	-37.7	25.6	0.00e+00	0	41	0	2695888896	44	4187
2026-01-30 09:13:49.98	350.15	23.74	-37.0	-37.8	25.6	0.00e+00	0	41	0	2701131776	44	4201
2026-01-30 09:13:50.99	349.92	23.65	-37.0	-37.7	25.6	0.00e+00	0	41	0	2707423232	44	4150
2026-01-30 09:13:51.99	349.70	23.56	-37.0	-37.7	25.6	0.00e+00	0	41	0	2713714688	44	4148
2026-01-30 09:13:53.00	349.48	23.46	-36.9	-37.6	25.7	0.00e+00	0	41	0	2718957568	44	4119
2026-01-30 09:13:54.01	349.26	23.37	-36.9	-37.6	25.7	0.00e+00	0	41	0	2724200448	44	4138
2026-01-30 09:13:55.02	349.04	23.27	-36.9	-37.6	25.7	0.00e+00	0	41	0	2730491904	44	4124
2026-01-30 09:13:56.02	348.83	23.18	-37.0	-37.7	25.6	0.00e+00	0	41	0	2735734784	44	4184
2026-01-30 09:13:57.03	348.61	23.09	-36.9	-37.6	25.7	0.00e+00	0	41	0	2742026240	44	4131
2026-01-30 09:13:58.04	348.40	22.99	-36.8	-37.5	25.7	0.00e+00	0	41	0	2747269120	44	4088
2026-01-30 09:13:59.04	348.19	22.90	-36.9	-37.6	25.7	0.00e+00	0	41	0	2752512000	44	4111
2026-01-30 09:14:00.05	347.97	22.80	-37.0	-37.7	25.6	0.00e+00	0	41	0	2758803456	44	4164
2026-01-30 09:14:01.06	347.76	22.71	-37.0	-37.7	25.6	0.00e+00	0	41	0	2764046336	44	4179
2026-01-30 09:14:02.07	347.55	22.61	-37.0	-37.8	25.6	0.00e+00	0	41	0	2769289216	44	4197
2026-01-30 09:14:03.08	347.35	22.52	-37.1	-37.8	25.5	0.00e+00	0	41	0	2775580672	44	4224
2026-01-30 09:14:04.09	347.14	22.42	-37.1	-37.8	25.5	0.00e+00	0	41	0	2780823552	44	4224
2026-01-30 09:14:05.09	346.94	22.33	-37.1	-37.8	25.5	0.00e+00	0	41	0	2787115008	44	4200
2026-01-30 09:14:06.10	346.73	22.24	-37.0	-37.7	25.6	0.00e+00	0	41	0	2792357888	44	4161
2026-01-30 09:14:07.11	346.53	22.14	-37.1	-37.8	25.5	0.00e+00	0	41	0	2798649344	44	4213
2026-01-30 09:14:08.11	346.33	22.05	-37.2	-37.9	25.4	0.00e+00	0	41	0	2803892224	44	4267
2026-01-30 09:14:09.12	346.13	21.95	-37.3	-38.0	25.4	0.00e+00	0	41	0	2809135104	45	4067
2026-01-30 09:14:10.13	345.93	21.86	-37.2	-38.0	25.4	0.00e+00	0	41	0	2815426560	45	4059
2026-01-30 09:14:11.13	345.73	21.76	-37.3	-38.0	25.3	0.00e+00	0	41	0	2820669440	45	4061
2026-01-30 09:14:12.15	345.54	21.67	-37.2	-37.9	25.4	0.00e+00	0	41	0	2826960896	45	4040
2026-01-30 09:14:13.16	345.34	21.57	-37.2	-37.9	25.4	0.00e+00	0	41	0	2832203776	45	4020
2026-01-30 09:14:14.17	345.15	21.48	-37.2	-38.0	25.3	0.00e+00	0	41	0	2837446656	45	4054
2026-01-30 09:14:15.18	344.95	21.38	-37.2	-37.9	25.4	0.00e+00	0	41	0	2843738112	45	4045
2026-01-30 09:14:16.19	344.76	21.28	-37.3	-38.0	25.4	0.00e+00	0	41	0	2848980992	45	4065
2026-01-30 09:14:17.19	344.57	21.19	-37.3	-38.0	25.3	0.00e+00	0	41	0	2855272448	45	4075
2026-01-30 09:14:18.21	344.38	21.09	-37.3	-38.0	25.3	0.00e+00	0	41	0	2860515328	45	4090
2026-01-30 09:14:19.21	344.19	21.00	-37.2	-37.9	25.4	0.00e+00	0	41	0	2866806784	45	4044
2026-01-30 09:14:20.22	344.01	20.91	-37.1	-37.8	25.5	0.00e+00	0	41	0	2872049664	45	3997
2026-01-30 09:14:21.23	343.82	20.81	-37.1	-37.8	25.5	0.00e+00	0	41	0	2877292544	45	3973
2026-01-30 09:14:22.23	343.64	20.72	-37.1	-37.9	25.4	0.00e+00	0	41	0	2883584000	45	4005
2026-01-30 09:14:23.24	343.45	20.62	-37.2	-37.9	25.4	0.00e+00	0	41	0	2888826880	45	4030
2026-01-30 09:14:24.25	343.27	20.53	-37.1	-37.8	25.5	0.00e+00	0	41	0	2894069760	45	3980
2026-01-30 09:14:25.26	343.09	20.43	-37.2	-37.9	25.4	0.00e+00	0	41	0	2900361216	45	4014
2026-01-30 09:14:26.27	342.91	20.34	-37.2	-37.9	25.4	0.00e+00	0	41	0	2905604096	45	4038
2026-01-30 09:14:27.27	342.73	20.24	-37.2	-37.9	25.3	0.00e+00	0	41	0	2911895552	45	4051
2026-01-30 09:14:28.28	342.55	20.15	-37.2	-37.9	25.4	0.00e+00	0	41	0	2917138432	45	4006
2026-01-30 09:14:29.29	342.38	20.05	-37.2	-37.9	25.4	0.00e+00	0	41	0	2923429888	45	4043
2026-01-30 09:14:30.30	342.20	19.96	-37.4	-38.1	25.2	0.00e+00	0	41	0	2928672768	45	4107
2026-01-30 09:14:31.30	342.03	19.87	-37.4	-38.2	25.2	0.00e+00	0	41	0	2934964224	45	4148
2026-01-30 09:14:32.30	341.86	19.77	-37.4	-38.1	25.2	0.00e+00	0	41	0	2940207104	45	4132
2026-01-30 09:14:33.30	341.69	19.68	-37.5	-38.2	25.1	0.00e+00	0	41	0	2945449984	45	4178
2026-01-30 09:14:34.31	341.52	19.59	-37.6	-38.3	25.0	0.00e+00	0	41	0	2951741440	45	4207
2026-01-30 09:14:35.32	341.34	19.49	-37.6	-38.4	24.9	0.00e+00	0	41	0	2956984320	45	4250
2026-01-30 09:14:36.33	341.18	19.40	-37.6	-38.3	25.0	0.00e+00	0	41	0	2962227200	45	4232
2026-01-30 09:14:37.33	341.01	19.30	-37.7	-38.4	24.9	0.00e+00	0	41	0	2968518656	45	4284
2026-01-30 09:14:38.34	340.84	19.21	-37.7	-38.4	24.9	0.00e+00	0	41	0	2973761536	46	4046
2026-01-30 09:14:39.35	340.68	19.12	-37.7	-38.4	25.0	0.00e+00	0	41	0	2979004416	46	4025
2026-01-30 09:14:40.36	340.51	19.02	-37.6	-38.3	25.0	0.00e+00	0	41	0	2985295872	46	3996
2026-01-30 09:14:41.36	340.35	18.93	-37.7	-38.4	25.0	0.00e+00	0	41	0	2990538752	46	4022
2026-01-30 09:14:42.37	340.19	18.84	-37.8	-38.5	24.8	0.00e+00	0	41	0	2996830208	46	4082
2026-01-30 09:14:43.38	340.02	18.74	-37.8	-38.6	24.8	0.00e+00	0	41	0	3002073088	46	4107
2026-01-30 09:14:44.38	339.86	18.65	-37.9	-38.6	24.7	0.00e+00	0	41	0	3007315968	46	4118
2026-01-30 09:14:45.39	339.70	18.56	-37.9	-38.6	24.7	0.00e+00	0	41	0	3013607424	46	4121
2026-01-30 09:14:46.39	339.55	18.47	-37.9	-38.7	24.7	0.00e+00	0	41	0	3019898880	46	4163
2026-01-30 09:14:47.40	339.39	18.37	-38.0	-38.7	24.7	0.00e+00	0	41	0	3025141760	46	4176
2026-01-30 09:14:48.40	339.23	18.28	-37.8	-38.5	24.8	0.00e+00	0	41	0	3030384640	46	4095
2026-01-30 09:14:49.41	339.08	18.19	-37.9	-38.6	24.7	0.00e+00	0	41	0	3036676096	46	4123
2026-01-30 09:14:50.42	338.92	18.10	-37.9	-38.6	24.7	0.00e+00	0	41	0	3041918976	46	4140
2026-01-30 09:14:51.43	338.77	18.00	-38.0	-38.7	24.6	0.00e+00	0	41	0	3047161856	46	4184
2026-01-30 09:14:52.43	338.62	17.91	-38.0	-38.8	24.6	0.00e+00	0	41	0	3053453312	46	4200
2026-01-30 09:14:53.44	338.46	17.82	-38.1	-38.8	24.5	0.00e+00	0	41	0	3058696192	46	4236
2026-01-30 09:14:54.45	338.31	17.73	-38.1	-38.8	24.5	0.00e+00	0	41	0	3063939072	46	4225
2026-01-30 09:14:55.45	338.16	17.64	-38.1	-38.8	24.5	0.00e+00	0	41	0	3070230528	46	4239
2026-01-30 09:14:56.46	338.01	17.55	-38.1	-38.8	24.5	0.00e+00	0	41	0	3075473408	46	4242
2026-01-30 09:14:57.47	337.86	17.45	-38.1	-38.8	24.5	0.00e+00	0	41	0	3081764864	46	4230
2026-01-30 09:14:58.48	337.72	17.36	-38.1	-38.8	24.5	0.00e+00	0	41	0	3087007744	46	4230
2026-01-30 09:14:59.49	337.57	17.27	-38.1	-38.8	24.5	0.00e+00	0	41	0	3093299200	46	4231
2026-01-30 09:15:00.50	337.42	17.18	-38.1	-38.9	24.5	0.00e+00	0	41	0	3098542080	46	4247
2026-01-30 09:15:01.51	337.28	17.09	-38.2	-39.0	24.4	0.00e+00	0	41	0	3104833536	47	4064
2026-01-30 09:15:02.51	337.14	17.00	-38.3	-39.1	24.3	0.00e+00	0	41	0	3110076416	47	4108
2026-01-30 09:15:03.52	336.99	16.91	-38.3	-39.0	24.3	0.00e+00	0	41	0	3115319296	47	4083
2026-01-30 09:15:04.53	336.85	16.82	-38.4	-39.2	24.2	0.00e+00	0	41	0	3121610752	47	4171
2026-01-30 09:15:05.53	336.71	16.73	-38.5	-39.2	24.2	0.00e+00	0	41	0	3126853632	47	4179
2026-01-30 09:15:06.54	336.57	16.64	-38.5	-39.2	24.1	0.00e+00	0	41	0	3132096512	47	4180
2026-01-30 09:15:07.55	336.43	16.55	-38.5	-39.2	24.1	0.00e+00	0	41	0	3138387968	47	4192
2026-01-30 09:15:08.56	336.29	16.46	-38.5	-39.3	24.1	0.00e+00	0	41	0	3143630848	47	4216
2026-01-30 09:15:09.56	336.16	16.37	-38.4	-39.1	24.2	0.00e+00	0	41	0	3148873728	47	4142
2026-01-30 09:15:10.57	336.02	16.28	-38.5	-39.2	24.1	0.00e+00	0	41	0	3155165184	47	4189
2026-01-30 09:15:11.58	335.88	16.19	-38.5	-39.2	24.1	0.00e+00	0	41	0	3160408064	47	4189
2026-01-30 09:15:12.58	335.75	16.10	-38.6	-39.4	24.0	0.00e+00	0	41	0	3166699520	47	4262
2026-01-30 09:15:13.59	335.61	16.01	-39.0	-39.8	24.1	0.00e+00	0	41	0	3171942400	48	4197
2026-01-30 09:15:14.60	335.48	15.92	-39.2	-40.0	23.9	0.00e+00	0	41	0	3178233856	49	4068
2026-01-30 09:15:15.61	335.35	15.84	-39.2	-40.0	23.9	0.00e+00	0	41	0	3183476736	49	4073
2026-01-30 09:15:16.61	335.22	15.75	-39.3	-40.1	23.8	0.00e+00	0	41	0	3189768192	49	4104
2026-01-30 09:15:17.62	335.08	15.66	-39.4	-40.1	23.8	3.40e-06	0	41	0	3195011072	49	4134
2026-01-30 09:15:18.63	334.95	15.57	-39.3	-40.0	23.8	0.00e+00	0	41	0	3200253952	49	4092
2026-01-30 09:15:19.63	334.82	15.48	-39.2	-40.0	23.9	0.00e+00	0	41	0	3206545408	49	4055
2026-01-30 09:15:20.63	334.70	15.40	-39.1	-39.9	24.0	0.00e+00	0	41	0	3211788288	49	4012
2026-01-30 09:15:21.64	334.57	15.31	-39.1	-39.8	24.0	0.00e+00	0	41	0	3217031168	49	3998
2026-01-30 09:15:22.64	334.44	15.22	-39.1	-39.9	24.0	0.00e+00	0	41	0	3223322624	49	4011
2026-01-30 09:15:23.65	334.32	15.13	-39.1	-39.9	24.0	0.00e+00	0	41	0	3228565504	49	4015
2026-01-30 09:15:24.65	334.19	15.05	-39.2	-40.0	23.9	0.00e+00	0	41	0	3233808384	49	4054
2026-01-30 09:15:25.66	334.06	14.96	-39.2	-39.9	23.9	0.00e+00	0	41	0	3240099840	49	4042
2026-01-30 09:15:26.67	333.94	14.87	-39.2	-40.0	23.9	0.00e+00	0	41	0	3245342720	49	4056
2026-01-30 09:15:27.68	333.82	14.79	-39.3	-40.1	23.8	0.00e+00	0	41	0	3251634176	49	4111
2026-01-30 09:15:28.69	333.69	14.70	-39.4	-40.1	23.7	0.00e+00	0	41	0	3256877056	49	4132
2026-01-30 09:15:29.69	333.57	14.61	-39.4	-40.1	23.7	0.00e+00	0	41	0	3263168512	49	4145
2026-01-30 09:15:30.70	333.45	14.53	-39.3	-40.1	23.8	0.00e+00	0	41	0	3268411392	49	4107
2026-01-30 09:15:31.71	333.33	14.44	-39.5	-40.2	23.7	0.00e+00	0	41	0	3274702848	49	4173
2026-01-30 09:15:32.72	333.21	14.36	-39.5	-40.2	23.6	0.00e+00	0	41	0	3279945728	49	4190
2026-01-30 09:15:33.72	333.09	14.27	-39.4	-40.2	23.6	0.00e+00	0	41	0	3285188608	49	4162
2026-01-30 09:15:34.73	332.97	14.19	-39.5	-40.2	23.6	0.00e+00	0	41	0	3291480064	49	4173
2026-01-30 09:15:35.73	332.86	14.10	-39.4	-40.1	23.7	0.00e+00	0	41	0	3296722944	49	4137
2026-01-30 09:15:36.74	332.74	14.02	-39.4	-40.2	23.7	0.00e+00	0	41	0	3301965824	49	4147
2026-01-30 09:15:37.75	332.62	13.93	-39.6	-40.3	23.5	3.40e-06	0	41	0	3308257280	49	4233
2026-01-30 09:15:38.76	332.51	13.85	-39.7	-40.4	23.4	0.00e+00	0	41	0	3313500160	49	4274
2026-01-30 09:15:39.76	332.39	13.76	-39.7	-40.5	23.4	0.00e+00	0	41	0	3318743040	50	4062
2026-01-30 09:15:40.76	332.28	13.68	-39.6	-40.4	23.4	0.00e+00	0	41	0	3325034496	50	4024
2026-01-30 09:15:41.77	332.16	13.59	-39.8	-40.5	23.3	0.00e+00	0	41	0	3330277376	50	4093
2026-01-30 09:15:42.78	332.05	13.51	-39.8	-40.6	23.2	0.00e+00	0	41	0	3336568832	50	4129
2026-01-30 09:15:43.79	331.94	13.43	-39.8	-40.6	23.3	0.00e+00	0	41	0	3341811712	50	4116
2026-01-30 09:15:44.79	331.83	13.34	-39.8	-40.6	23.3	0.00e+00	0	41	0	3348103168	50	4106
2026-01-30 09:15:45.80	331.72	13.26	-39.8	-40.6	23.3	0.00e+00	0	41	0	3353346048	50	4107
2026-01-30 09:15:46.80	331.61	13.18	-39.7	-40.5	23.3	0.00e+00	0	41	0	3359637504	50	4068
2026-01-30 09:15:47.82	331.50	13.09	-39.9	-40.6	23.2	0.00e+00	0	41	0	3364880384	50	4131
2026-01-30 09:15:48.82	331.39	13.01	-39.8	-40.6	23.3	0.00e+00	0	41	0	3370123264	50	4108
2026-01-30 09:15:49.83	331.28	12.93	-39.9	-40.7	23.2	0.00e+00	0	41	0	3376414720	50	4154
2026-01-30 09:15:50.84	331.17	12.85	-39.9	-40.7	23.1	0.00e+00	0	41	0	3381657600	50	4164
2026-01-30 09:15:51.85	331.06	12.76	-40.0	-40.8	23.1	0.00e+00	0	41	0	3386900480	50	4200
2026-01-30 09:15:52.85	330.96	12.68	-40.0	-40.8	23.1	0.00e+00	0	41	0	3393191936	50	4203
2026-01-30 09:15:53.86	330.85	12.60	-40.1	-40.9	23.0	0.00e+00	0	41	0	3398434816	50	4253
2026-01-30 09:15:54.87	330.74	12.52	-40.0	-40.8	23.0	0.00e+00	0	41	0	3403677696	50	4220
2026-01-30 09:15:55.87	330.64	12.44	-40.0	-40.8	23.0	0.00e+00	0	41	0	3409969152	50	4220
2026-01-30 09:15:56.88	330.54	12.35	-40.1	-40.9	22.9	0.00e+00	0	41	0	3415212032	50	4262
2026-01-30 09:15:57.88	330.43	12.27	-40.1	-40.9	22.9	0.00e+00	0	41	0	3421503488	50	4266
2026-01-30 09:15:58.89	330.33	12.19	-40.0	-40.8	23.0	0.00e+00	0	41	0	3426746368	50	4220
2026-01-30 09:15:59.90	330.23	12.11	-40.2	-41.0	22.8	0.00e+00	0	41	0	3433037824	50	4312
2026-01-30 09:16:00.91	330.13	12.03	-40.0	-40.8	23.0	0.00e+00	0	41	0	3438280704	50	4209
2026-01-30 09:16:01.91	330.02	11.95	-40.1	-40.8	23.0	0.00e+00	0	41	0	3444572160	50	4242
2026-01-30 09:16:02.92	329.92	11.87	-40.0	-40.8	23.0	0.00e+00	0	41	0	3449815040	50	4221
2026-01-30 09:16:03.93	329.82	11.79	-40.1	-40.9	22.9	0.00e+00	0	41	0	3455057920	50	4255
2026-01-30 09:16:04.93	329.72	11.71	-40.1	-40.9	22.8	0.00e+00	0	41	0	3461349376	50	4279
2026-01-30 09:16:05.94	329.63	11.63	-40.0	-40.8	22.9	0.00e+00	0	41	0	3466592256	50	4230
2026-01-30 09:16:06.95	329.53	11.55	-40.1	-40.9	22.9	0.00e+00	0	41	0	3471835136	50	4243
2026-01-30 09:16:07.96	329.43	11.47	-40.2	-40.9	22.8	0.00e+00	0	41	0	3478126592	50	4290
2026-01-30 09:16:08.96	329.33	11.39	-40.3	-41.1	22.7	0.00e+00	0	41	0	3483369472	51	4115
2026-01-30 09:16:09.97	329.23	11.31	-40.2	-41.0	22.8	0.00e+00	0	41	0	3488612352	51	4087
2026-01-30 09:16:10.98	329.14	11.23	-40.2	-41.1	22.8	0.00e+00	0	41	0	3494903808	51	4100
2026-01-30 09:16:11.99	329.04	11.15	-40.3	-41.1	22.7	0.00e+00	0	41	0	3501195264	51	4117
2026-01-30 09:16:13.00	328.95	11.07	-40.3	-41.1	22.7	0.00e+00	0	41	0	3506438144	51	4106
2026-01-30 09:16:14.00	328.85	11.00	-40.2	-41.0	22.7	0.00e+00	0	41	0	3511681024	51	4078
2026-01-30 09:16:15.01	328.76	10.92	-40.3	-41.0	22.7	0.00e+00	0	41	0	3517972480	51	4097
2026-01-30 09:16:16.02	328.66	10.84	-40.3	-41.1	22.7	0.00e+00	0	41	0	3523215360	51	4112
2026-01-30 09:16:17.03	328.57	10.76	-40.4	-41.2	22.5	0.00e+00	0	41	0	3529506816	51	4179
2026-01-30 09:16:18.03	328.48	10.68	-40.5	-41.3	22.4	0.00e+00	0	41	0	3534749696	51	4236
2026-01-30 09:16:19.04	328.39	10.61	-40.6	-41.4	22.3	0.00e+00	0	41	0	3539992576	51	4276
2026-01-30 09:16:20.04	328.30	10.53	-40.6	-41.4	22.2	0.00e+00	0	41	0	3546284032	52	4045
2026-01-30 09:16:21.05	328.20	10.45	-40.5	-41.3	22.3	0.00e+00	0	41	0	3551526912	52	4000
2026-01-30 09:16:22.06	328.11	10.37	-40.5	-41.4	22.3	0.00e+00	0	41	0	3556769792	52	4015
2026-01-30 09:16:23.07	328.02	10.30	-40.6	-41.4	22.3	0.00e+00	0	41	0	3563061248	52	4028
2026-01-30 09:16:24.08	327.93	10.22	-40.5	-41.3	22.3	0.00e+00	0	41	0	3568304128	52	4003
2026-01-30 09:16:25.08	327.84	10.14	-40.5	-41.3	22.3	0.00e+00	0	41	0	3573547008	52	3994
2026-01-30 09:16:26.09	327.76	10.07	-40.6	-41.5	22.1	0.00e+00	0	41	0	3579838464	52	4060
2026-01-30 09:16:27.10	327.67	9.99	-40.7	-41.5	22.1	0.00e+00	0	41	0	3586129920	52	4072
2026-01-30 09:16:28.11	327.58	9.91	-40.8	-41.7	22.0	0.00e+00	0	41	0	3591372800	52	4147
2026-01-30 09:16:29.12	327.49	9.84	-40.6	-41.5	22.1	0.00e+00	0	41	0	3596615680	52	4055
2026-01-30 09:16:30.13	327.41	9.76	-40.7	-41.5	22.1	0.00e+00	0	41	0	3602907136	52	4086
2026-01-30 09:16:31.14	327.32	9.69	-40.6	-41.5	22.1	0.00e+00	0	41	0	3608150016	52	4053
2026-01-30 09:16:32.15	327.23	9.61	-40.7	-41.5	22.1	0.00e+00	0	41	0	3614441472	52	4067
2026-01-30 09:16:33.16	327.15	9.54	-40.6	-41.4	22.1	0.00e+00	0	41	0	3619684352	52	4042
2026-01-30 09:16:34.17	327.06	9.46	-40.7	-41.5	22.1	0.00e+00	0	41	0	3624927232	52	4075
2026-01-30 09:16:35.17	326.98	9.39	-40.7	-41.6	22.0	0.00e+00	0	41	0	3631218688	52	4120
2026-01-30 09:16:36.18	326.89	9.31	-40.7	-41.6	22.0	0.00e+00	0	41	0	3636461568	52	4109
2026-01-30 09:16:37.19	326.81	9.24	-40.7	-41.5	22.0	0.00e+00	0	41	0	3642753024	52	4082
2026-01-30 09:16:38.20	326.73	9.16	-40.8	-41.7	21.9	0.00e+00	0	41	0	3647995904	52	4154
2026-01-30 09:16:39.21	326.64	9.09	-40.7	-41.6	22.0	0.00e+00	0	41	0	3654287360	52	4099
2026-01-30 09:16:40.21	326.56	9.01	-40.8	-41.6	22.0	0.00e+00	0	41	0	3659530240	52	4129
