passes_logs/2026/01/30/R3.2S_Murmansk/R3.2S_Murmansk__20260130_112900_SUOMI_NPP_rec.log

#Pass ID: 20260130_112900_SUOMI NPP
#Satellite: SUOMI NPP
#Configuration: NPP
#almurnet v.1.7.20251203
#Start time: 2026-01-30 11:29:00

#Version: 2.2.20231116
#Station: R3.2S_Murmansk
#Location: 33.079688 lon 68.888172 lat
#TLE: 1 37849U 11061A   26029.48304708  .00000140  00000+0  87283-4 0  9999
#TLE: 2 37849  98.7824 331.4079 0002024  38.4342 321.6978 14.19531488738761

#Time	Az	El	Level	Level2	SNR	BER	BlckErr	Temp	State	Recorded	gain1	gain2
2026-01-30 11:29:00.28	198.62	2.00	-54.3	-69.3	3.8	1.49e+00	0	39	0	0	79	21186
2026-01-30 11:29:01.29	198.67	2.06	-54.1	-69.2	3.8	1.49e+00	0	39	104	0	79	20803
2026-01-30 11:29:02.29	198.73	2.12	-54.1	-69.1	3.8	1.49e+00	0	39	104	0	79	20565
2026-01-30 11:29:03.30	198.79	2.18	-54.0	-69.0	3.8	1.49e+00	0	39	104	0	79	20436
2026-01-30 11:29:04.31	198.85	2.24	-54.0	-69.0	3.8	1.49e+00	0	39	104	0	79	20352
2026-01-30 11:29:05.31	198.90	2.30	-53.9	-68.9	3.8	1.49e+00	0	39	104	0	79	20119
2026-01-30 11:29:06.32	198.96	2.36	-53.8	-68.8	3.8	1.49e+00	0	39	104	0	79	19934
2026-01-30 11:29:07.32	199.02	2.42	-53.7	-68.7	3.8	1.49e+00	0	39	104	0	79	19739
2026-01-30 11:29:08.33	199.08	2.48	-53.6	-68.5	3.8	1.49e+00	0	39	104	0	79	19368
2026-01-30 11:29:09.34	199.13	2.54	-53.5	-68.4	3.8	1.49e+00	0	39	104	0	78	20245
2026-01-30 11:29:10.35	199.19	2.60	-53.3	-68.2	3.8	1.49e+00	0	39	104	0	78	19812
2026-01-30 11:29:11.36	199.25	2.66	-52.9	-67.9	3.8	1.49e+00	0	39	104	0	77	20188
2026-01-30 11:29:12.36	199.31	2.72	-52.3	-67.2	3.8	1.49e+00	0	39	104	0	76	19767
2026-01-30 11:29:13.37	199.37	2.78	-52.3	-67.2	3.8	1.49e+00	0	39	104	0	76	19675
2026-01-30 11:29:14.38	199.43	2.84	-52.2	-67.2	3.8	1.49e+00	0	39	104	0	76	19699
2026-01-30 11:29:15.39	199.49	2.90	-52.2	-67.2	3.8	1.49e+00	0	39	104	0	76	19699
2026-01-30 11:29:16.40	199.55	2.96	-52.2	-67.2	3.8	1.49e+00	0	39	104	0	76	19704
2026-01-30 11:29:17.41	199.61	3.02	-52.2	-67.2	3.8	1.49e+00	0	39	104	0	76	19629
2026-01-30 11:29:18.41	199.67	3.08	-52.2	-67.2	3.8	1.49e+00	0	39	104	0	76	19620
2026-01-30 11:29:19.42	199.73	3.14	-52.2	-67.1	3.8	1.49e+00	0	39	104	0	76	19533
2026-01-30 11:29:20.43	199.79	3.21	-52.2	-67.1	3.8	1.49e+00	0	39	104	0	76	19563
2026-01-30 11:29:21.44	199.85	3.27	-52.2	-67.1	3.8	1.49e+00	0	40	104	0	76	19487
2026-01-30 11:29:22.44	199.91	3.33	-52.2	-67.1	3.8	1.49e+00	0	39	104	0	76	19487
2026-01-30 11:29:23.45	199.98	3.39	-52.2	-67.1	3.8	1.49e+00	0	39	104	0	76	19566
2026-01-30 11:29:24.46	200.04	3.45	-52.2	-67.1	3.8	1.49e+00	0	39	104	0	76	19587
2026-01-30 11:29:25.47	200.10	3.51	-52.2	-67.1	3.8	1.49e+00	0	40	104	0	76	19558
2026-01-30 11:29:26.47	200.16	3.57	-52.2	-67.1	3.8	1.49e+00	0	40	104	0	76	19530
2026-01-30 11:29:27.48	200.22	3.64	-52.2	-67.1	3.8	1.49e+00	0	40	104	0	76	19553
2026-01-30 11:29:28.48	200.29	3.70	-52.2	-67.1	3.8	1.49e+00	0	40	104	0	76	19543
2026-01-30 11:29:29.49	200.35	3.76	-52.2	-67.1	3.8	1.49e+00	0	40	104	0	76	19598
2026-01-30 11:29:30.50	200.41	3.82	-52.2	-67.1	3.8	1.49e+00	0	40	104	0	76	19480
2026-01-30 11:29:31.51	200.48	3.89	-52.2	-67.1	3.8	1.49e+00	0	40	104	0	76	19549
2026-01-30 11:29:32.52	200.54	3.95	-52.2	-67.1	3.8	1.49e+00	0	40	104	0	76	19471
2026-01-30 11:29:33.53	200.61	4.01	-52.2	-67.1	3.8	1.49e+00	0	40	104	0	76	19438
2026-01-30 11:29:34.54	200.67	4.07	-52.2	-67.0	3.8	1.49e+00	0	40	104	0	76	19286
2026-01-30 11:29:35.55	200.73	4.14	-52.2	-66.9	3.8	1.49e+00	0	40	104	0	76	19106
2026-01-30 11:29:36.56	200.80	4.20	-52.1	-66.7	3.8	1.49e+00	0	40	104	0	76	18715
2026-01-30 11:29:37.56	200.86	4.26	-52.1	-66.7	3.8	1.49e+00	0	40	104	0	76	18586
2026-01-30 11:29:38.57	200.93	4.33	-52.1	-66.7	3.8	1.49e+00	0	40	104	0	76	18597
2026-01-30 11:29:39.58	201.00	4.39	-52.1	-66.7	3.8	1.49e+00	0	40	104	0	76	18684
2026-01-30 11:29:40.59	201.06	4.45	-52.1	-66.6	3.8	1.49e+00	0	40	104	0	76	18485
2026-01-30 11:29:41.60	201.13	4.52	-52.1	-66.0	3.8	1.49e+00	0	40	104	0	76	17271
2026-01-30 11:29:42.60	201.19	4.58	-52.1	-65.0	3.8	1.49e+00	0	40	104	0	76	15308
2026-01-30 11:29:43.61	201.26	4.65	-51.9	-63.3	4.3	1.48e+00	0	40	104	0	75	13302
2026-01-30 11:29:44.62	201.33	4.71	-51.7	-61.3	5.1	7.52e-01	0	40	0	1048576	75	10653
2026-01-30 11:29:45.63	201.40	4.77	-51.6	-59.9	6.0	4.36e-01	0	40	0	3145728	75	9066
2026-01-30 11:29:46.64	201.46	4.84	-51.3	-58.6	7.2	2.03e-01	0	40	0	5242880	74	8205
2026-01-30 11:29:47.64	201.53	4.90	-51.1	-57.6	8.2	1.09e-01	0	40	0	7340032	74	7307
2026-01-30 11:29:48.65	201.60	4.97	-50.9	-56.8	8.9	3.60e-02	0	40	0	8388608	73	7102
2026-01-30 11:29:49.66	201.67	5.03	-50.7	-56.2	9.6	1.75e-02	0	40	0	10485760	73	6582
2026-01-30 11:29:50.67	201.74	5.10	-50.6	-56.1	9.7	9.16e-03	0	40	0	12582912	73	6547
2026-01-30 11:29:51.67	201.81	5.16	-51.3	-58.5	7.6	3.21e-02	0	40	0	14680064	73	8594
2026-01-30 11:29:52.68	201.87	5.23	-50.8	-56.6	9.4	2.03e-01	0	40	0	16777216	73	6884
2026-01-30 11:29:53.69	201.94	5.29	-52.1	-67.0	3.8	2.32e-01	0	40	104	17825792	74	21664
2026-01-30 11:29:54.69	202.01	5.36	-48.7	-51.6	5.8	1.48e+00	0	40	104	17825792	69	4892
2026-01-30 11:29:55.70	202.08	5.42	-47.7	-50.1	15.8	0.00e+00	0	40	0	17825792	67	4605
2026-01-30 11:29:56.71	202.15	5.49	-47.6	-50.0	16.0	0.00e+00	0	40	0	19922944	67	4563
2026-01-30 11:29:57.71	202.23	5.55	-47.6	-49.8	16.2	0.00e+00	0	40	0	22020096	67	4488
2026-01-30 11:29:58.72	202.30	5.62	-47.4	-49.6	16.5	0.00e+00	0	40	0	24117248	66	4607
2026-01-30 11:29:59.73	202.37	5.68	-47.4	-49.6	16.5	0.00e+00	0	40	0	26214400	66	4635
2026-01-30 11:30:00.74	202.44	5.75	-47.6	-49.8	16.3	0.00e+00	0	40	0	27262976	66	4736
2026-01-30 11:30:01.74	202.51	5.82	-47.6	-49.8	16.4	0.00e+00	0	40	0	29360128	66	4742
2026-01-30 11:30:02.75	202.58	5.88	-47.4	-49.5	16.7	0.00e+00	0	40	0	31457280	66	4572
2026-01-30 11:30:03.75	202.66	5.95	-47.3	-49.4	16.8	0.00e+00	0	40	0	33554432	66	4517
2026-01-30 11:30:04.76	202.73	6.02	-47.3	-49.3	16.9	0.00e+00	0	40	0	35651584	66	4481
2026-01-30 11:30:05.76	202.80	6.08	-47.3	-49.3	16.9	0.00e+00	0	40	0	36700160	66	4474
2026-01-30 11:30:06.77	202.88	6.15	-47.3	-49.3	16.9	0.00e+00	0	40	0	38797312	66	4482
2026-01-30 11:30:07.78	202.95	6.22	-47.4	-49.5	16.8	0.00e+00	0	40	0	40894464	66	4566
2026-01-30 11:30:08.79	203.02	6.28	-47.2	-49.2	17.1	0.00e+00	0	40	0	42991616	66	4397
2026-01-30 11:30:09.79	203.10	6.35	-47.2	-49.3	17.0	0.00e+00	0	40	0	45088768	66	4448
2026-01-30 11:30:10.80	203.17	6.42	-47.2	-49.2	17.1	0.00e+00	0	40	0	46137344	66	4411
2026-01-30 11:30:11.81	203.25	6.48	-47.0	-49.0	17.4	0.00e+00	0	40	0	48234496	66	4298
2026-01-30 11:30:12.82	203.32	6.55	-47.1	-49.1	17.2	0.00e+00	0	40	0	50331648	65	4610
2026-01-30 11:30:13.82	203.40	6.62	-47.0	-49.0	17.3	0.00e+00	0	40	0	52428800	65	4559
2026-01-30 11:30:14.82	203.47	6.69	-46.9	-48.8	17.5	0.00e+00	0	40	0	54525952	65	4464
2026-01-30 11:30:15.83	203.55	6.76	-46.9	-48.8	17.5	0.00e+00	0	40	0	55574528	65	4457
2026-01-30 11:30:16.84	203.63	6.82	-46.8	-48.6	17.6	0.00e+00	0	40	0	57671680	65	4388
2026-01-30 11:30:17.84	203.71	6.89	-46.9	-48.8	17.5	0.00e+00	0	40	0	59768832	65	4455
2026-01-30 11:30:18.85	203.78	6.96	-46.7	-48.5	17.8	0.00e+00	0	40	0	61865984	65	4320
2026-01-30 11:30:19.87	203.86	7.03	-46.8	-48.6	17.7	0.00e+00	0	40	0	63963136	65	4380
2026-01-30 11:30:20.87	203.94	7.10	-46.8	-48.6	17.6	0.00e+00	0	40	0	65011712	65	4388
2026-01-30 11:30:21.87	204.02	7.17	-46.7	-48.5	17.8	0.00e+00	0	40	0	67108864	65	4330
2026-01-30 11:30:22.88	204.10	7.24	-46.8	-48.6	17.7	0.00e+00	0	40	0	69206016	65	4377
2026-01-30 11:30:23.89	204.18	7.30	-46.7	-48.5	17.8	0.00e+00	0	40	0	71303168	65	4313
2026-01-30 11:30:24.90	204.26	7.37	-46.6	-48.4	18.0	0.00e+00	0	40	0	73400320	65	4251
2026-01-30 11:30:25.90	204.34	7.44	-46.8	-48.6	17.8	0.00e+00	0	40	0	74448896	65	4376
2026-01-30 11:30:26.91	204.42	7.51	-46.7	-48.5	17.8	0.00e+00	0	40	0	76546048	65	4320
2026-01-30 11:30:27.92	204.50	7.58	-46.8	-48.6	17.8	0.00e+00	0	40	0	78643200	65	4375
2026-01-30 11:30:28.93	204.58	7.65	-46.8	-48.7	17.7	0.00e+00	0	40	0	80740352	65	4394
2026-01-30 11:30:29.93	204.66	7.72	-46.8	-48.6	17.8	0.00e+00	0	40	0	82837504	65	4375
2026-01-30 11:30:30.94	204.74	7.79	-46.8	-48.6	17.8	0.00e+00	0	41	0	83886080	65	4385
2026-01-30 11:30:31.94	204.82	7.86	-46.7	-48.6	17.8	0.00e+00	0	40	0	85983232	65	4342
2026-01-30 11:30:32.94	204.90	7.93	-46.5	-48.3	18.1	0.00e+00	0	40	0	88080384	65	4211
2026-01-30 11:30:33.95	204.99	8.00	-46.4	-48.2	18.2	0.00e+00	0	41	0	90177536	64	4392
2026-01-30 11:30:34.96	205.07	8.07	-46.5	-48.3	18.1	0.00e+00	0	40	0	92274688	64	4442
2026-01-30 11:30:35.97	205.16	8.15	-46.6	-48.4	18.0	0.00e+00	0	40	0	93323264	64	4519
2026-01-30 11:30:36.97	205.24	8.22	-46.6	-48.3	18.1	0.00e+00	0	41	0	95420416	64	4468
2026-01-30 11:30:37.98	205.32	8.29	-46.4	-48.1	18.4	0.00e+00	0	40	0	97517568	64	4362
2026-01-30 11:30:38.99	205.41	8.36	-46.3	-48.0	18.4	0.00e+00	0	41	0	99614720	64	4301
2026-01-30 11:30:40.00	205.49	8.43	-46.1	-47.7	18.8	0.00e+00	0	40	0	101711872	64	4146
2026-01-30 11:30:41.00	205.58	8.50	-46.2	-47.8	18.6	0.00e+00	0	41	0	102760448	64	4222
2026-01-30 11:30:42.01	205.67	8.57	-46.1	-47.7	18.7	0.00e+00	0	41	0	104857600	64	4168
2026-01-30 11:30:43.02	205.75	8.65	-46.0	-47.6	18.8	0.00e+00	0	41	0	106954752	64	4140
2026-01-30 11:30:44.03	205.84	8.72	-46.0	-47.6	18.9	0.00e+00	0	40	0	109051904	63	4349
2026-01-30 11:30:45.03	205.93	8.79	-46.0	-47.6	19.0	0.00e+00	0	41	0	111149056	63	4349
2026-01-30 11:30:46.04	206.01	8.86	-45.9	-47.5	19.0	0.00e+00	0	41	0	112197632	63	4305
2026-01-30 11:30:47.05	206.10	8.94	-45.9	-47.4	19.1	0.00e+00	0	40	0	114294784	63	4265
2026-01-30 11:30:48.06	206.19	9.01	-45.8	-47.3	19.3	0.00e+00	0	41	0	116391936	63	4197
2026-01-30 11:30:49.07	206.28	9.08	-45.7	-47.2	19.3	0.00e+00	0	41	0	118489088	63	4151
2026-01-30 11:30:50.08	206.37	9.16	-45.7	-47.2	19.3	0.00e+00	0	41	0	120586240	63	4180
2026-01-30 11:30:51.09	206.46	9.23	-45.5	-46.9	19.6	0.00e+00	0	41	0	122683392	63	4038
2026-01-30 11:30:52.09	206.55	9.30	-45.7	-47.2	19.3	0.00e+00	0	41	0	123731968	63	4159
2026-01-30 11:30:53.10	206.64	9.37	-45.5	-46.9	19.6	0.00e+00	0	40	0	125829120	62	4253
2026-01-30 11:30:54.11	206.73	9.45	-45.5	-46.9	19.6	0.00e+00	0	41	0	127926272	62	4262
2026-01-30 11:30:55.12	206.82	9.52	-45.5	-46.9	19.6	0.00e+00	0	40	0	130023424	62	4289
2026-01-30 11:30:56.13	206.92	9.60	-45.4	-46.8	19.8	0.00e+00	0	41	0	131072000	62	4201
2026-01-30 11:30:57.13	207.01	9.67	-45.3	-46.7	19.8	0.00e+00	0	41	0	133169152	62	4176
2026-01-30 11:30:58.14	207.10	9.75	-45.2	-46.6	19.9	0.00e+00	0	41	0	135266304	62	4109
2026-01-30 11:30:59.15	207.19	9.82	-45.2	-46.5	20.0	0.00e+00	0	41	0	137363456	62	4098
2026-01-30 11:31:00.15	207.29	9.89	-45.3	-46.6	19.9	0.00e+00	0	41	0	139460608	62	4135
2026-01-30 11:31:01.16	207.38	9.97	-45.2	-46.6	20.0	0.00e+00	0	40	0	140509184	62	4113
2026-01-30 11:31:02.17	207.48	10.04	-45.1	-46.4	20.1	0.00e+00	0	41	0	142606336	62	4042
2026-01-30 11:31:03.17	207.57	10.12	-45.1	-46.5	20.0	0.00e+00	0	41	0	144703488	62	4056
2026-01-30 11:31:04.18	207.67	10.19	-44.9	-46.1	20.3	0.00e+00	0	41	0	146800640	61	4143
2026-01-30 11:31:05.19	207.76	10.27	-44.8	-46.0	20.5	0.00e+00	0	41	0	148897792	61	4087
2026-01-30 11:31:06.20	207.86	10.35	-45.0	-46.3	20.3	0.00e+00	0	41	0	150994944	61	4196
2026-01-30 11:31:07.21	207.96	10.42	-45.0	-46.3	20.2	0.00e+00	0	40	0	152043520	61	4221
2026-01-30 11:31:08.21	208.06	10.50	-44.6	-45.8	20.7	0.00e+00	0	40	0	154140672	61	3989
2026-01-30 11:31:09.22	208.15	10.57	-44.7	-46.0	20.5	0.00e+00	0	41	0	156237824	61	4069
2026-01-30 11:31:10.22	208.25	10.65	-44.8	-46.0	20.5	0.00e+00	0	40	0	158334976	61	4097
2026-01-30 11:31:11.23	208.35	10.73	-44.7	-46.0	20.6	0.00e+00	0	41	0	159383552	61	4052
2026-01-30 11:31:12.24	208.45	10.80	-44.9	-46.2	20.4	0.00e+00	0	41	0	161480704	61	4159
2026-01-30 11:31:13.25	208.55	10.88	-44.9	-46.2	20.3	0.00e+00	0	41	0	163577856	61	4188
2026-01-30 11:31:14.26	208.65	10.96	-45.2	-46.5	20.1	0.00e+00	0	41	0	165675008	61	4321
2026-01-30 11:31:15.26	208.75	11.03	-45.1	-46.4	20.1	0.00e+00	0	41	0	167772160	61	4275
2026-01-30 11:31:16.27	208.85	11.11	-45.2	-46.5	20.1	0.00e+00	0	41	0	168820736	61	4329
2026-01-30 11:31:17.27	208.96	11.19	-45.3	-46.7	20.0	0.00e+00	0	41	0	170917888	61	4395
2026-01-30 11:31:18.28	209.06	11.27	-45.0	-46.4	20.2	0.00e+00	0	41	0	173015040	61	4253
2026-01-30 11:31:19.29	209.16	11.34	-45.3	-46.7	19.9	0.00e+00	0	41	0	175112192	61	4396
2026-01-30 11:31:20.29	209.26	11.42	-45.3	-46.7	19.9	0.00e+00	0	41	0	177209344	61	4422
2026-01-30 11:31:21.31	209.37	11.50	-45.3	-46.7	19.9	0.00e+00	0	41	0	179306496	61	4409
2026-01-30 11:31:22.31	209.47	11.58	-45.2	-46.6	20.0	0.00e+00	0	41	0	180355072	61	4370
2026-01-30 11:31:23.32	209.58	11.66	-45.1	-46.4	20.2	0.00e+00	0	41	0	182452224	61	4287
2026-01-30 11:31:24.33	209.69	11.73	-45.0	-46.3	20.3	0.00e+00	0	41	0	184549376	61	4219
2026-01-30 11:31:25.33	209.79	11.81	-44.9	-46.2	20.4	0.00e+00	0	41	0	186646528	61	4173
2026-01-30 11:31:26.34	209.90	11.89	-44.9	-46.2	20.4	0.00e+00	0	41	0	187695104	61	4170
2026-01-30 11:31:27.34	210.01	11.97	-44.8	-46.0	20.6	0.00e+00	0	41	0	189792256	61	4075
2026-01-30 11:31:28.35	210.11	12.05	-44.6	-45.8	20.7	0.00e+00	0	41	0	191889408	61	3972
2026-01-30 11:31:29.36	210.22	12.13	-44.5	-45.7	20.8	0.00e+00	0	41	0	193986560	61	3930
2026-01-30 11:31:30.36	210.33	12.21	-44.5	-45.7	20.9	0.00e+00	0	41	0	196083712	60	4171
2026-01-30 11:31:31.37	210.44	12.29	-44.4	-45.6	20.9	0.00e+00	0	41	0	197132288	60	4119
2026-01-30 11:31:32.37	210.55	12.37	-44.2	-45.4	21.1	0.00e+00	0	41	0	199229440	60	4005
2026-01-30 11:31:33.38	210.66	12.45	-44.2	-45.4	21.2	0.00e+00	0	41	0	201326592	60	4013
2026-01-30 11:31:34.39	210.77	12.53	-44.5	-45.7	20.9	0.00e+00	0	41	0	203423744	60	4151
2026-01-30 11:31:35.40	210.89	12.61	-44.6	-45.8	20.8	0.00e+00	0	41	0	205520896	60	4216
2026-01-30 11:31:36.41	211.00	12.69	-44.6	-45.8	20.7	0.00e+00	0	41	0	207618048	60	4232
2026-01-30 11:31:37.42	211.11	12.77	-44.5	-45.7	20.8	0.00e+00	0	41	0	208666624	60	4187
2026-01-30 11:31:38.43	211.23	12.85	-44.5	-45.7	20.8	0.00e+00	0	41	0	210763776	60	4176
2026-01-30 11:31:39.44	211.34	12.93	-44.6	-45.8	20.9	0.00e+00	0	41	0	212860928	60	4204
2026-01-30 11:31:40.45	211.46	13.01	-44.5	-45.8	20.8	0.00e+00	0	41	0	214958080	60	4202
2026-01-30 11:31:41.45	211.57	13.10	-44.5	-45.7	20.9	0.00e+00	0	41	0	216006656	60	4180
2026-01-30 11:31:42.45	211.69	13.18	-44.7	-45.9	20.7	0.00e+00	0	41	0	218103808	60	4266
2026-01-30 11:31:43.46	211.80	13.26	-44.8	-46.0	20.6	0.00e+00	0	41	0	220200960	60	4324
2026-01-30 11:31:44.47	211.92	13.34	-44.9	-46.2	20.5	0.00e+00	0	41	0	222298112	60	4408
2026-01-30 11:31:45.48	212.04	13.42	-45.1	-46.4	20.2	0.00e+00	0	41	0	224395264	60	4542
2026-01-30 11:31:46.49	212.16	13.51	-45.1	-46.5	20.2	0.00e+00	0	41	0	226492416	60	4561
2026-01-30 11:31:47.49	212.28	13.59	-45.2	-46.6	20.1	0.00e+00	0	41	0	227540992	61	4365
2026-01-30 11:31:48.50	212.40	13.67	-45.2	-46.5	20.1	0.00e+00	0	41	0	229638144	61	4332
2026-01-30 11:31:49.50	212.52	13.75	-45.2	-46.5	20.2	0.00e+00	0	41	0	231735296	61	4315
2026-01-30 11:31:50.51	212.64	13.84	-45.1	-46.3	20.4	0.00e+00	0	41	0	233832448	61	4241
2026-01-30 11:31:51.52	212.76	13.92	-45.1	-46.4	20.4	0.00e+00	0	41	0	235929600	61	4247
2026-01-30 11:31:52.52	212.88	14.00	-45.1	-46.4	20.3	0.00e+00	0	41	0	236978176	61	4243
2026-01-30 11:31:53.53	213.01	14.09	-44.9	-46.1	20.6	0.00e+00	0	41	0	239075328	61	4125
2026-01-30 11:31:54.53	213.13	14.17	-44.9	-46.1	20.6	0.00e+00	0	41	0	241172480	61	4117
2026-01-30 11:31:55.55	213.25	14.25	-44.8	-46.0	20.7	0.00e+00	0	41	0	243269632	61	4064
2026-01-30 11:31:56.55	213.38	14.34	-44.8	-46.0	20.8	0.00e+00	0	41	0	244318208	61	4064
2026-01-30 11:31:57.56	213.51	14.42	-44.8	-46.0	20.8	0.00e+00	0	41	0	246415360	61	4057
2026-01-30 11:31:58.56	213.63	14.50	-44.7	-45.9	20.8	0.00e+00	0	41	0	248512512	61	4019
2026-01-30 11:31:59.57	213.76	14.59	-44.8	-46.0	20.7	0.00e+00	0	41	0	250609664	61	4083
2026-01-30 11:32:00.58	213.89	14.67	-45.0	-46.3	20.5	0.00e+00	0	41	0	252706816	61	4214
2026-01-30 11:32:01.59	214.02	14.76	-45.0	-46.3	20.5	0.00e+00	0	41	0	254803968	61	4205
2026-01-30 11:32:02.60	214.15	14.84	-45.1	-46.4	20.4	0.00e+00	0	41	0	255852544	61	4278
2026-01-30 11:32:03.60	214.28	14.93	-45.2	-46.5	20.3	0.00e+00	0	41	0	257949696	61	4325
2026-01-30 11:32:04.61	214.41	15.01	-45.3	-46.6	20.2	0.00e+00	0	41	0	260046848	61	4375
2026-01-30 11:32:05.62	214.54	15.10	-45.2	-46.5	20.3	0.00e+00	0	41	0	262144000	61	4337
2026-01-30 11:32:06.62	214.67	15.19	-45.3	-46.6	20.2	0.00e+00	0	41	0	264241152	61	4379
2026-01-30 11:32:07.63	214.80	15.27	-45.2	-46.5	20.3	0.00e+00	0	41	0	265289728	61	4310
2026-01-30 11:32:08.64	214.94	15.36	-45.2	-46.6	20.2	0.00e+00	0	41	0	267386880	61	4342
2026-01-30 11:32:09.65	215.07	15.44	-45.1	-46.3	20.5	0.00e+00	0	41	0	269484032	61	4238
2026-01-30 11:32:10.65	215.21	15.53	-45.1	-46.4	20.4	0.00e+00	0	41	0	271581184	61	4284
2026-01-30 11:32:11.66	215.34	15.62	-45.1	-46.4	20.4	0.00e+00	0	41	0	272629760	61	4255
2026-01-30 11:32:12.67	215.48	15.70	-45.0	-46.3	20.5	0.00e+00	0	41	0	274726912	61	4222
2026-01-30 11:32:13.67	215.62	15.79	-45.2	-46.5	20.3	0.00e+00	0	41	0	276824064	61	4308
2026-01-30 11:32:14.68	215.76	15.88	-45.1	-46.4	20.4	0.00e+00	0	41	0	278921216	61	4266
2026-01-30 11:32:15.69	215.90	15.96	-45.2	-46.5	20.3	0.00e+00	0	41	0	281018368	61	4317
2026-01-30 11:32:16.69	216.03	16.05	-45.3	-46.7	20.2	0.00e+00	0	41	0	283115520	61	4398
2026-01-30 11:32:17.70	216.17	16.14	-45.6	-47.0	19.9	0.00e+00	0	41	0	284164096	61	4568
2026-01-30 11:32:18.71	216.32	16.22	-45.5	-46.9	20.0	0.00e+00	0	41	0	286261248	61	4506
2026-01-30 11:32:19.71	216.46	16.31	-45.6	-47.0	19.9	0.00e+00	0	41	0	288358400	61	4546
2026-01-30 11:32:20.72	216.60	16.40	-45.8	-47.2	19.8	0.00e+00	0	41	0	290455552	62	4392
2026-01-30 11:32:21.72	216.74	16.49	-45.6	-47.0	19.9	0.00e+00	0	41	0	292552704	62	4302
2026-01-30 11:32:22.73	216.89	16.58	-45.9	-47.3	19.6	0.00e+00	0	41	0	293601280	62	4454
2026-01-30 11:32:23.74	217.04	16.66	-45.7	-47.1	19.8	0.00e+00	0	40	0	295698432	62	4378
2026-01-30 11:32:24.75	217.18	16.75	-45.7	-47.0	19.9	0.00e+00	0	41	0	297795584	62	4337
2026-01-30 11:32:25.75	217.33	16.84	-45.8	-47.2	19.8	0.00e+00	0	41	0	299892736	62	4397
2026-01-30 11:32:26.76	217.48	16.93	-45.7	-47.1	19.8	0.00e+00	0	41	0	300941312	62	4343
2026-01-30 11:32:27.77	217.63	17.02	-45.7	-47.1	19.8	0.00e+00	0	41	0	303038464	62	4347
2026-01-30 11:32:28.77	217.77	17.11	-45.8	-47.2	19.7	0.00e+00	0	41	0	305135616	62	4413
2026-01-30 11:32:29.78	217.93	17.20	-45.7	-47.1	19.8	0.00e+00	0	41	0	307232768	62	4348
2026-01-30 11:32:30.79	218.08	17.29	-45.4	-46.7	20.1	0.00e+00	0	41	0	309329920	62	4170
2026-01-30 11:32:31.79	218.23	17.37	-45.5	-46.9	20.0	0.00e+00	0	41	0	311427072	62	4263
2026-01-30 11:32:32.80	218.38	17.46	-45.2	-46.5	20.3	0.00e+00	0	41	0	312475648	62	4078
2026-01-30 11:32:33.80	218.54	17.55	-45.0	-46.3	20.5	0.00e+00	0	41	0	314572800	61	4210
2026-01-30 11:32:34.81	218.69	17.64	-45.0	-46.2	20.6	0.00e+00	0	41	0	316669952	61	4188
2026-01-30 11:32:35.81	218.85	17.73	-44.9	-46.2	20.6	0.00e+00	0	41	0	318767104	61	4160
2026-01-30 11:32:36.82	219.00	17.82	-44.7	-45.9	20.9	0.00e+00	0	41	0	320864256	61	4011
2026-01-30 11:32:37.83	219.16	17.91	-44.7	-45.9	20.9	0.00e+00	0	41	0	321912832	61	4025
2026-01-30 11:32:38.83	219.32	18.00	-44.7	-45.9	20.9	0.00e+00	0	41	0	324009984	61	4035
2026-01-30 11:32:39.84	219.48	18.09	-44.6	-45.8	21.0	0.00e+00	0	41	0	326107136	61	3963
2026-01-30 11:32:40.85	219.64	18.18	-44.5	-45.6	21.1	0.00e+00	0	41	0	328204288	60	4132
2026-01-30 11:32:41.86	219.80	18.27	-44.5	-45.6	21.1	0.00e+00	0	41	0	329252864	60	4138
2026-01-30 11:32:42.86	219.96	18.36	-44.5	-45.6	21.1	0.00e+00	0	41	0	331350016	60	4141
2026-01-30 11:32:43.86	220.12	18.45	-44.4	-45.6	21.2	0.00e+00	0	41	0	333447168	60	4102
2026-01-30 11:32:44.87	220.29	18.55	-44.6	-45.8	21.0	0.00e+00	0	41	0	335544320	60	4228
2026-01-30 11:32:45.87	220.45	18.64	-44.6	-45.9	20.9	0.00e+00	0	41	0	337641472	60	4248
2026-01-30 11:32:46.88	220.62	18.73	-44.5	-45.6	21.1	0.00e+00	0	41	0	339738624	60	4142
2026-01-30 11:32:47.89	220.79	18.82	-44.5	-45.7	21.0	0.00e+00	0	41	0	340787200	60	4170
2026-01-30 11:32:48.89	220.95	18.91	-44.5	-45.6	21.1	0.00e+00	0	41	0	342884352	60	4137
2026-01-30 11:32:49.90	221.12	19.00	-44.6	-45.8	21.0	0.00e+00	0	41	0	344981504	60	4231
2026-01-30 11:32:50.91	221.29	19.09	-44.6	-45.8	21.0	0.00e+00	0	41	0	347078656	60	4223
2026-01-30 11:32:51.91	221.46	19.18	-44.4	-45.6	21.2	0.00e+00	0	41	0	349175808	60	4128
2026-01-30 11:32:52.92	221.63	19.28	-44.6	-45.7	21.1	0.00e+00	0	41	0	350224384	60	4182
2026-01-30 11:32:53.93	221.81	19.37	-44.4	-45.5	21.3	0.00e+00	0	41	0	352321536	60	4072
2026-01-30 11:32:54.94	221.98	19.46	-44.4	-45.5	21.3	0.00e+00	0	41	0	354418688	60	4088
2026-01-30 11:32:55.94	222.16	19.55	-44.5	-45.6	21.2	0.00e+00	0	41	0	356515840	60	4132
2026-01-30 11:32:56.95	222.33	19.64	-44.4	-45.5	21.3	0.00e+00	0	41	0	357564416	60	4088
2026-01-30 11:32:57.96	222.51	19.74	-44.4	-45.6	21.2	0.00e+00	0	41	0	359661568	60	4114
2026-01-30 11:32:58.96	222.69	19.83	-44.5	-45.6	21.2	0.00e+00	0	41	0	361758720	60	4138
2026-01-30 11:32:59.97	222.87	19.92	-44.5	-45.6	21.2	0.00e+00	0	41	0	363855872	60	4140
2026-01-30 11:33:00.97	223.05	20.01	-44.3	-45.5	21.4	0.00e+00	0	41	0	365953024	60	4053
2026-01-30 11:33:01.98	223.23	20.11	-44.2	-45.4	21.3	0.00e+00	0	41	0	368050176	60	4018
2026-01-30 11:33:02.99	223.41	20.20	-44.1	-45.2	21.6	0.00e+00	0	41	0	369098752	60	3930
2026-01-30 11:33:04.00	223.59	20.29	-44.4	-45.6	21.5	0.00e+00	0	41	0	371195904	59	4352
2026-01-30 11:33:05.00	223.78	20.38	-44.4	-45.5	21.5	0.00e+00	0	41	0	373293056	59	4338
2026-01-30 11:33:06.01	223.96	20.48	-44.4	-45.5	21.6	0.00e+00	0	41	0	375390208	59	4310
2026-01-30 11:33:07.02	224.15	20.57	-44.4	-45.5	21.6	0.00e+00	0	41	0	377487360	59	4339
2026-01-30 11:33:08.02	224.34	20.66	-44.3	-45.4	21.7	0.00e+00	0	41	0	378535936	59	4264
2026-01-30 11:33:09.03	224.53	20.75	-44.3	-45.4	21.7	0.00e+00	0	41	0	380633088	59	4288
2026-01-30 11:33:10.04	224.72	20.85	-44.1	-45.2	21.9	0.00e+00	0	41	0	382730240	59	4183
2026-01-30 11:33:11.04	224.91	20.94	-44.3	-45.4	21.7	0.00e+00	0	41	0	384827392	59	4254
2026-01-30 11:33:12.05	225.10	21.03	-43.8	-44.9	22.2	0.00e+00	0	41	0	385875968	59	4010
2026-01-30 11:33:13.06	225.29	21.13	-44.0	-45.1	22.0	0.00e+00	0	41	0	387973120	59	4111
2026-01-30 11:33:14.07	225.49	21.22	-44.1	-45.1	21.9	0.00e+00	0	41	0	390070272	59	4140
2026-01-30 11:33:15.07	225.68	21.31	-43.7	-44.8	22.2	0.00e+00	0	41	0	392167424	59	3976
2026-01-30 11:33:16.08	225.88	21.40	-43.6	-44.6	22.3	0.00e+00	0	41	0	394264576	59	3900
2026-01-30 11:33:17.08	226.07	21.50	-43.8	-44.9	22.1	0.00e+00	0	41	0	396361728	59	4036
2026-01-30 11:33:18.09	226.27	21.59	-43.6	-44.7	22.3	0.00e+00	0	41	0	397410304	59	3914
2026-01-30 11:33:19.09	226.47	21.68	-43.5	-44.6	22.4	0.00e+00	0	41	0	399507456	59	3874
2026-01-30 11:33:20.10	226.67	21.77	-43.5	-44.5	22.5	0.00e+00	0	41	0	401604608	58	4073
2026-01-30 11:33:21.11	226.88	21.87	-43.3	-44.4	22.6	0.00e+00	0	41	0	403701760	58	4007
2026-01-30 11:33:22.12	227.08	21.96	-43.5	-44.5	22.5	0.00e+00	0	41	0	405798912	58	4071
2026-01-30 11:33:23.12	227.28	22.05	-43.3	-44.3	22.7	0.00e+00	0	41	0	406847488	58	3972
2026-01-30 11:33:24.13	227.49	22.15	-43.6	-44.7	22.4	0.00e+00	0	41	0	408944640	58	4152
2026-01-30 11:33:25.14	227.70	22.24	-43.7	-44.8	22.3	0.00e+00	0	41	0	411041792	58	4198
2026-01-30 11:33:26.15	227.91	22.33	-43.7	-44.8	22.3	0.00e+00	0	41	0	413138944	58	4204
2026-01-30 11:33:27.15	228.12	22.42	-43.8	-44.9	22.1	0.00e+00	0	41	0	414187520	58	4271
2026-01-30 11:33:28.16	228.33	22.52	-44.0	-45.1	22.0	0.00e+00	0	41	0	416284672	58	4352
2026-01-30 11:33:29.17	228.54	22.61	-44.2	-45.3	21.9	0.00e+00	0	41	0	418381824	58	4447
2026-01-30 11:33:30.17	228.75	22.70	-44.3	-45.5	21.7	0.00e+00	0	41	0	420478976	59	4303
2026-01-30 11:33:31.18	228.97	22.79	-44.6	-45.8	21.5	0.00e+00	0	41	0	422576128	59	4449
2026-01-30 11:33:32.19	229.18	22.89	-44.5	-45.6	21.3	0.00e+00	0	41	0	424673280	60	4137
2026-01-30 11:33:33.20	229.40	22.98	-44.3	-45.5	21.4	0.00e+00	0	41	0	425721856	60	4063
2026-01-30 11:33:34.20	229.62	23.07	-44.3	-45.4	21.5	0.00e+00	0	41	0	427819008	60	4023
2026-01-30 11:33:35.21	229.84	23.16	-44.2	-45.3	21.6	0.00e+00	0	41	0	429916160	60	3963
2026-01-30 11:33:36.22	230.06	23.26	-44.4	-45.5	21.4	0.00e+00	0	41	0	432013312	60	4069
2026-01-30 11:33:37.23	230.28	23.35	-44.2	-45.3	21.5	0.00e+00	0	41	0	434110464	60	3996
2026-01-30 11:33:38.23	230.50	23.44	-44.1	-45.2	21.6	0.00e+00	0	41	0	435159040	60	3953
2026-01-30 11:33:39.23	230.73	23.53	-44.3	-45.4	21.5	0.00e+00	0	41	0	437256192	60	4025
2026-01-30 11:33:40.25	230.96	23.62	-44.3	-45.4	21.5	0.00e+00	0	41	0	439353344	60	4027
2026-01-30 11:33:41.25	231.18	23.71	-44.3	-45.4	21.4	0.00e+00	0	41	0	441450496	60	4050
2026-01-30 11:33:42.26	231.41	23.81	-44.1	-45.2	21.6	0.00e+00	0	41	0	442499072	60	3946
2026-01-30 11:33:43.27	231.64	23.90	-44.1	-45.2	21.6	0.00e+00	0	41	0	444596224	60	3938
2026-01-30 11:33:44.28	231.87	23.99	-44.1	-45.2	21.7	0.00e+00	0	41	0	446693376	60	3922
2026-01-30 11:33:45.28	232.10	24.08	-44.1	-45.1	21.7	0.00e+00	0	41	0	448790528	60	3911
2026-01-30 11:33:46.29	232.34	24.17	-44.0	-45.1	21.7	0.00e+00	0	41	0	450887680	60	3898
2026-01-30 11:33:47.29	232.57	24.26	-44.2	-45.3	21.8	0.00e+00	0	41	0	452984832	59	4223
2026-01-30 11:33:48.30	232.81	24.35	-44.2	-45.3	21.8	0.00e+00	0	41	0	454033408	59	4215
2026-01-30 11:33:49.31	233.05	24.44	-44.0	-45.1	22.0	0.00e+00	0	41	0	456130560	59	4107
2026-01-30 11:33:50.32	233.29	24.53	-43.7	-44.8	22.3	0.00e+00	0	41	0	458227712	59	3960
2026-01-30 11:33:51.33	233.53	24.62	-43.8	-44.8	22.2	0.00e+00	0	41	0	460324864	59	4000
2026-01-30 11:33:52.33	233.77	24.71	-43.6	-44.6	22.4	0.00e+00	0	41	0	462422016	59	3897
2026-01-30 11:33:53.34	234.01	24.80	-43.8	-44.8	22.3	0.00e+00	0	41	0	463470592	59	3986
2026-01-30 11:33:54.35	234.26	24.89	-43.7	-44.7	22.4	0.00e+00	0	41	0	465567744	59	3933
2026-01-30 11:33:55.35	234.50	24.98	-43.7	-44.7	22.3	0.00e+00	0	41	0	467664896	59	3957
2026-01-30 11:33:56.36	234.75	25.07	-43.8	-44.9	22.2	0.00e+00	0	41	0	469762048	59	4022
2026-01-30 11:33:57.36	234.99	25.15	-44.0	-45.1	22.1	0.00e+00	0	41	0	470810624	59	4104
2026-01-30 11:33:58.37	235.24	25.24	-44.3	-45.4	21.7	0.00e+00	0	41	0	472907776	59	4275
2026-01-30 11:33:59.38	235.50	25.33	-44.5	-45.7	21.5	0.00e+00	0	41	0	475004928	59	4405
2026-01-30 11:34:00.37	235.74	25.42	-44.7	-45.9	21.4	0.00e+00	0	41	0	477102080	59	4518
2026-01-30 11:34:01.38	236.00	25.50	-44.5	-45.7	21.3	0.00e+00	0	41	0	479199232	60	4166
2026-01-30 11:34:02.39	236.26	25.59	-44.2	-45.3	21.6	0.00e+00	0	41	0	481296384	60	3981
2026-01-30 11:34:03.39	236.51	25.68	-44.3	-45.4	21.7	0.00e+00	0	41	0	482344960	59	4274
2026-01-30 11:34:04.40	236.77	25.76	-44.2	-45.3	21.8	0.00e+00	0	41	0	484442112	59	4239
2026-01-30 11:34:05.41	237.03	25.85	-44.4	-45.5	21.7	0.00e+00	0	41	0	486539264	59	4327
2026-01-30 11:34:06.42	237.29	25.93	-44.2	-45.4	21.8	0.00e+00	0	41	0	488636416	59	4243
2026-01-30 11:34:07.43	237.55	26.02	-44.3	-45.4	21.8	0.00e+00	0	41	0	490733568	59	4256
2026-01-30 11:34:08.43	237.81	26.10	-44.4	-45.6	21.7	0.00e+00	0	41	0	491782144	59	4345
2026-01-30 11:34:09.43	238.08	26.19	-44.4	-45.6	21.6	0.00e+00	0	41	0	493879296	59	4362
2026-01-30 11:34:10.44	238.34	26.27	-44.4	-45.5	21.7	0.00e+00	0	41	0	495976448	59	4315
2026-01-30 11:34:11.45	238.61	26.36	-44.1	-45.1	22.0	0.00e+00	0	41	0	498073600	59	4137
2026-01-30 11:34:12.46	238.88	26.44	-44.3	-45.4	21.7	0.00e+00	0	41	0	499122176	59	4279
2026-01-30 11:34:13.47	239.15	26.52	-44.5	-45.7	21.6	0.00e+00	0	41	0	501219328	59	4402
2026-01-30 11:34:14.48	239.43	26.61	-44.5	-45.6	21.6	0.00e+00	0	41	0	503316480	59	4383
2026-01-30 11:34:15.48	239.70	26.69	-44.6	-45.7	21.6	0.00e+00	0	41	0	505413632	59	4407
2026-01-30 11:34:16.49	239.97	26.77	-44.2	-45.3	21.9	0.00e+00	0	41	0	507510784	59	4213
2026-01-30 11:34:17.49	240.25	26.85	-44.1	-45.1	22.0	0.00e+00	0	41	0	509607936	59	4136
2026-01-30 11:34:18.50	240.52	26.93	-44.2	-45.3	21.9	0.00e+00	0	41	0	510656512	59	4225
2026-01-30 11:34:19.51	240.80	27.01	-44.3	-45.4	21.8	0.00e+00	0	41	0	512753664	59	4253
2026-01-30 11:34:20.52	241.08	27.09	-44.5	-45.7	21.6	0.00e+00	0	41	0	514850816	59	4393
2026-01-30 11:34:21.53	241.37	27.17	-44.5	-45.7	21.3	0.00e+00	0	41	0	516947968	60	4174
2026-01-30 11:34:22.54	241.65	27.25	-44.5	-45.6	21.3	0.00e+00	0	41	0	519045120	60	4128
2026-01-30 11:34:23.55	241.93	27.33	-44.6	-45.7	21.2	0.00e+00	0	41	0	520093696	60	4179
2026-01-30 11:34:24.55	242.22	27.41	-44.4	-45.6	21.4	0.00e+00	0	41	0	522190848	60	4112
2026-01-30 11:34:25.55	242.50	27.48	-44.6	-45.7	21.2	0.00e+00	0	41	0	524288000	60	4181
2026-01-30 11:34:26.56	242.79	27.56	-44.6	-45.7	21.2	0.00e+00	0	41	0	526385152	60	4175
2026-01-30 11:34:27.57	243.08	27.64	-44.3	-45.4	21.5	0.00e+00	0	41	0	527433728	60	4018
2026-01-30 11:34:28.57	243.37	27.71	-44.1	-45.2	21.7	0.00e+00	0	41	0	529530880	60	3941
2026-01-30 11:34:29.58	243.66	27.79	-44.2	-45.3	21.6	0.00e+00	0	41	0	531628032	60	3978
2026-01-30 11:34:30.59	243.96	27.86	-44.4	-45.5	21.7	0.00e+00	0	41	0	533725184	59	4324
2026-01-30 11:34:31.59	244.25	27.93	-44.4	-45.5	21.7	0.00e+00	0	41	0	535822336	59	4304
2026-01-30 11:34:32.60	244.55	28.01	-44.2	-45.2	21.9	0.00e+00	0	41	0	537919488	59	4189
2026-01-30 11:34:33.60	244.84	28.08	-44.3	-45.3	21.9	0.00e+00	0	41	0	538968064	59	4240
2026-01-30 11:34:34.61	245.14	28.15	-44.5	-45.6	21.6	0.00e+00	0	41	0	541065216	59	4367
2026-01-30 11:34:35.62	245.44	28.22	-44.4	-45.5	21.7	0.00e+00	0	41	0	543162368	59	4314
2026-01-30 11:34:36.63	245.74	28.29	-44.5	-45.6	21.4	0.00e+00	0	41	0	545259520	60	4121
2026-01-30 11:34:37.64	246.05	28.36	-44.8	-46.0	20.9	0.00e+00	0	41	0	547356672	60	4318
2026-01-30 11:34:38.65	246.35	28.43	-45.0	-46.2	20.8	0.00e+00	0	41	0	548405248	60	4417
2026-01-30 11:34:39.66	246.66	28.50	-45.4	-46.6	20.4	0.00e+00	0	41	0	550502400	61	4387
2026-01-30 11:34:40.66	246.96	28.57	-44.7	-45.9	21.1	0.00e+00	0	41	0	552599552	61	4020
2026-01-30 11:34:41.67	247.27	28.64	-44.4	-45.5	21.4	0.00e+00	0	41	0	554696704	60	4097
2026-01-30 11:34:42.68	247.58	28.70	-44.1	-45.2	21.7	0.00e+00	0	41	0	556793856	60	3944
2026-01-30 11:34:43.69	247.89	28.77	-44.4	-45.6	21.6	0.00e+00	0	41	0	557842432	59	4343
2026-01-30 11:34:44.69	248.20	28.83	-44.4	-45.5	21.4	0.00e+00	0	41	0	559939584	60	4097
2026-01-30 11:34:45.70	248.52	28.90	-44.8	-46.0	21.0	0.00e+00	0	41	0	562036736	60	4338
2026-01-30 11:34:46.71	248.83	28.96	-44.9	-46.1	20.9	0.00e+00	0	41	0	564133888	60	4345
2026-01-30 11:34:47.71	249.14	29.02	-45.2	-46.5	20.6	0.00e+00	0	41	0	566231040	61	4292
2026-01-30 11:34:48.71	249.46	29.09	-44.8	-46.0	21.0	0.00e+00	0	41	0	567279616	61	4055
2026-01-30 11:34:49.71	249.77	29.15	-45.0	-46.2	20.8	0.00e+00	0	41	0	569376768	61	4162
2026-01-30 11:34:50.72	250.09	29.21	-45.0	-46.3	20.8	0.00e+00	0	41	0	571473920	61	4196
2026-01-30 11:34:51.73	250.41	29.27	-45.1	-46.3	20.8	0.00e+00	0	41	0	573571072	61	4218
2026-01-30 11:34:52.74	250.74	29.33	-45.3	-46.6	20.6	0.00e+00	0	41	0	575668224	61	4361
2026-01-30 11:34:53.75	251.06	29.38	-45.2	-46.5	20.6	0.00e+00	0	41	0	576716800	61	4318
2026-01-30 11:34:54.75	251.38	29.44	-45.3	-46.6	20.5	0.00e+00	0	41	0	578813952	61	4351
2026-01-30 11:34:55.76	251.70	29.50	-45.7	-47.1	20.1	0.00e+00	0	41	0	580911104	61	4610
2026-01-30 11:34:56.77	252.03	29.55	-46.2	-47.6	19.6	0.00e+00	0	41	0	583008256	62	4629
2026-01-30 11:34:57.78	252.36	29.61	-46.6	-48.1	19.0	0.00e+00	0	41	0	585105408	64	4367
2026-01-30 11:34:58.79	252.69	29.66	-46.5	-48.0	19.1	0.00e+00	0	41	0	586153984	64	4336
2026-01-30 11:34:59.79	253.01	29.71	-46.3	-47.7	19.3	0.00e+00	0	41	0	588251136	64	4191
2026-01-30 11:35:00.80	253.34	29.76	-46.1	-47.5	19.6	0.00e+00	0	41	0	590348288	64	4077
2026-01-30 11:35:01.80	253.67	29.81	-45.7	-47.0	20.1	0.00e+00	0	41	0	592445440	63	4084
2026-01-30 11:35:02.81	254.00	29.86	-45.9	-47.2	20.0	0.00e+00	0	41	0	594542592	63	4163
2026-01-30 11:35:03.82	254.34	29.91	-46.3	-47.7	19.6	0.00e+00	0	41	0	595591168	63	4424
2026-01-30 11:35:04.83	254.67	29.96	-46.4	-47.9	19.3	0.00e+00	0	41	0	597688320	63	4518
2026-01-30 11:35:05.83	255.01	30.01	-46.7	-48.2	19.0	0.00e+00	0	41	0	599785472	64	4427
2026-01-30 11:35:06.84	255.34	30.05	-46.8	-48.4	18.8	0.00e+00	0	41	0	601882624	64	4535
2026-01-30 11:35:07.85	255.68	30.10	-46.8	-48.4	18.8	0.00e+00	0	41	0	603979776	64	4516
2026-01-30 11:35:08.85	256.01	30.14	-46.7	-48.2	19.0	0.00e+00	0	41	0	605028352	64	4414
2026-01-30 11:35:09.86	256.35	30.19	-46.0	-47.4	19.8	0.00e+00	0	41	0	607125504	63	4250
2026-01-30 11:35:10.86	256.69	30.23	-45.5	-46.7	20.4	0.00e+00	0	41	0	609222656	63	3957
2026-01-30 11:35:11.87	257.03	30.27	-45.3	-46.5	20.6	0.00e+00	0	41	0	611319808	62	4088
2026-01-30 11:35:12.88	257.37	30.31	-45.9	-47.2	20.1	0.00e+00	0	41	0	613416960	62	4414
2026-01-30 11:35:13.89	257.72	30.35	-46.5	-48.0	19.4	0.00e+00	0	41	0	614465536	63	4546
2026-01-30 11:35:14.89	258.06	30.38	-46.7	-48.3	19.0	0.00e+00	0	41	0	616562688	64	4457
2026-01-30 11:35:15.90	258.40	30.42	-46.5	-48.0	19.2	0.00e+00	0	41	0	618659840	64	4339
2026-01-30 11:35:16.91	258.75	30.46	-46.1	-47.4	19.7	0.00e+00	0	41	0	620756992	64	4039
2026-01-30 11:35:17.92	259.09	30.49	-45.8	-47.1	20.1	0.00e+00	0	41	0	622854144	63	4134
2026-01-30 11:35:18.93	259.44	30.52	-45.8	-47.1	20.0	0.00e+00	0	41	0	623902720	63	4136
2026-01-30 11:35:19.93	259.78	30.56	-45.8	-47.1	20.1	0.00e+00	0	41	0	625999872	63	4103
2026-01-30 11:35:20.94	260.13	30.59	-45.6	-46.9	20.3	0.00e+00	0	41	0	628097024	63	4043
2026-01-30 11:35:21.95	260.48	30.62	-44.8	-45.9	21.2	0.00e+00	0	41	0	630194176	61	4038
2026-01-30 11:35:22.95	260.82	30.65	-44.7	-45.9	21.2	0.00e+00	0	41	0	632291328	61	4011
2026-01-30 11:35:23.96	261.17	30.68	-44.7	-45.9	21.2	0.00e+00	0	41	0	633339904	61	4010
2026-01-30 11:35:24.96	261.52	30.70	-45.0	-46.2	20.9	0.00e+00	0	41	0	635437056	61	4178
2026-01-30 11:35:25.97	261.87	30.73	-45.4	-46.7	20.5	0.00e+00	0	41	0	637534208	61	4427
2026-01-30 11:35:26.98	262.22	30.75	-45.7	-47.0	20.2	0.00e+00	0	41	0	639631360	62	4301
2026-01-30 11:35:27.99	262.57	30.78	-45.2	-46.4	20.8	0.00e+00	0	41	0	641728512	62	4015
2026-01-30 11:35:28.99	262.92	30.80	-45.0	-46.1	21.0	0.00e+00	0	41	0	642777088	61	4145
2026-01-30 11:35:30.00	263.27	30.82	-44.8	-45.9	21.2	0.00e+00	0	41	0	644874240	61	4045
2026-01-30 11:35:31.01	263.63	30.84	-44.8	-45.9	21.2	0.00e+00	0	41	0	646971392	61	4044
2026-01-30 11:35:32.02	263.98	30.86	-44.7	-45.8	21.3	0.00e+00	0	41	0	649068544	61	3989
2026-01-30 11:35:33.03	264.33	30.88	-44.3	-45.4	21.6	0.00e+00	0	41	0	651165696	60	4031
2026-01-30 11:35:34.03	264.69	30.89	-44.0	-45.1	21.9	0.00e+00	0	41	0	652214272	60	3885
2026-01-30 11:35:35.03	265.04	30.91	-43.9	-44.9	22.3	0.00e+00	0	41	0	654311424	59	4043
2026-01-30 11:35:36.04	265.39	30.92	-44.1	-45.1	22.1	0.00e+00	0	41	0	656408576	59	4115
2026-01-30 11:35:37.05	265.75	30.94	-44.5	-45.6	21.8	0.00e+00	0	41	0	658505728	59	4351
2026-01-30 11:35:38.05	266.10	30.95	-44.5	-45.6	21.5	0.00e+00	0	41	0	660602880	60	4099
2026-01-30 11:35:39.06	266.45	30.96	-44.7	-45.8	21.2	0.00e+00	0	41	0	661651456	60	4232
2026-01-30 11:35:40.07	266.81	30.97	-45.3	-46.5	20.7	0.00e+00	0	41	0	663748608	61	4310
2026-01-30 11:35:41.08	267.17	30.98	-45.4	-46.7	20.5	0.00e+00	0	41	0	665845760	61	4413
2026-01-30 11:35:42.09	267.52	30.98	-45.4	-46.7	20.5	0.00e+00	0	41	0	667942912	61	4417
2026-01-30 11:35:43.10	267.88	30.99	-45.6	-46.9	20.4	0.00e+00	0	41	0	670040064	61	4495
2026-01-30 11:35:44.10	268.23	30.99	-45.9	-47.3	20.1	0.00e+00	0	41	0	671088640	62	4448
2026-01-30 11:35:45.11	268.59	31.00	-46.1	-47.5	19.8	0.00e+00	0	41	0	673185792	62	4587
2026-01-30 11:35:46.12	268.95	31.00	-46.1	-47.5	19.8	0.00e+00	0	41	0	675282944	63	4302
2026-01-30 11:35:47.13	269.30	31.00	-46.0	-47.4	19.9	0.00e+00	0	41	0	677380096	63	4249
2026-01-30 11:35:48.13	269.65	31.00	-45.7	-47.0	20.3	0.00e+00	0	41	0	679477248	63	4058
2026-01-30 11:35:49.14	270.01	31.00	-45.3	-46.5	20.7	0.00e+00	0	41	0	680525824	62	4061
2026-01-30 11:35:50.14	270.36	31.00	-45.1	-46.3	20.9	0.00e+00	0	41	0	682622976	62	3971
2026-01-30 11:35:51.15	270.72	30.99	-45.1	-46.3	20.9	0.00e+00	0	41	0	684720128	62	3967
2026-01-30 11:35:52.16	271.08	30.99	-45.3	-46.5	20.7	0.00e+00	0	41	0	686817280	62	4094
2026-01-30 11:35:53.17	271.43	30.98	-45.1	-46.3	21.0	0.00e+00	0	41	0	688914432	61	4200
2026-01-30 11:35:54.17	271.79	30.98	-44.8	-45.9	21.3	0.00e+00	0	41	0	689963008	61	4037
2026-01-30 11:35:55.18	272.14	30.97	-44.5	-45.6	21.5	0.00e+00	0	41	0	692060160	61	3896
2026-01-30 11:35:56.19	272.50	30.96	-44.5	-45.6	21.5	0.00e+00	0	41	0	694157312	60	4142
2026-01-30 11:35:57.20	272.85	30.95	-44.8	-46.0	21.1	0.00e+00	0	41	0	696254464	60	4317
2026-01-30 11:35:58.20	273.21	30.94	-45.5	-46.7	20.6	0.00e+00	0	41	0	698351616	61	4437
2026-01-30 11:35:59.20	273.56	30.92	-45.6	-46.9	20.4	0.00e+00	0	41	0	699400192	61	4497
2026-01-30 11:36:00.21	273.91	30.91	-45.6	-46.9	20.5	0.00e+00	0	41	0	701497344	62	4243
2026-01-30 11:36:01.22	274.27	30.89	-45.6	-46.8	20.5	0.00e+00	0	41	0	703594496	62	4232
2026-01-30 11:36:02.22	274.62	30.88	-45.7	-47.0	20.4	0.00e+00	0	41	0	705691648	62	4336
2026-01-30 11:36:03.23	274.97	30.86	-46.3	-47.7	19.7	0.00e+00	0	41	0	707788800	63	4394
2026-01-30 11:36:04.24	275.32	30.84	-46.4	-47.9	19.5	0.00e+00	0	41	0	708837376	63	4513
2026-01-30 11:36:05.24	275.67	30.82	-46.5	-48.0	19.3	0.00e+00	0	41	0	710934528	64	4309
2026-01-30 11:36:06.25	276.03	30.80	-46.0	-47.4	20.0	0.00e+00	0	41	0	713031680	63	4258
2026-01-30 11:36:07.26	276.38	30.78	-45.6	-46.9	20.4	0.00e+00	0	41	0	715128832	63	4008
2026-01-30 11:36:08.26	276.73	30.75	-45.3	-46.6	20.7	0.00e+00	0	41	0	717225984	62	4106
2026-01-30 11:36:09.26	277.07	30.73	-45.3	-46.5	20.8	0.00e+00	0	41	0	718274560	62	4067
2026-01-30 11:36:10.27	277.42	30.70	-45.5	-46.7	20.6	0.00e+00	0	41	0	720371712	62	4181
2026-01-30 11:36:11.28	277.77	30.68	-45.8	-47.1	20.3	0.00e+00	0	41	0	722468864	62	4390
2026-01-30 11:36:12.29	278.12	30.65	-45.6	-46.9	20.4	0.00e+00	0	41	0	724566016	62	4254
2026-01-30 11:36:13.30	278.47	30.62	-45.2	-46.5	20.8	0.00e+00	0	41	0	726663168	62	4053
2026-01-30 11:36:14.30	278.82	30.59	-45.1	-46.3	20.9	0.00e+00	0	41	0	727711744	62	3984
2026-01-30 11:36:15.31	279.16	30.56	-44.9	-46.1	21.1	0.00e+00	0	41	0	729808896	61	4124
2026-01-30 11:36:16.31	279.51	30.53	-45.4	-46.6	20.6	0.00e+00	0	41	0	731906048	61	4380
2026-01-30 11:36:17.32	279.85	30.49	-45.8	-47.2	20.2	0.00e+00	0	41	0	734003200	62	4396
2026-01-30 11:36:18.32	280.19	30.46	-46.1	-47.4	20.0	0.00e+00	0	41	0	736100352	62	4535
2026-01-30 11:36:19.33	280.54	30.42	-46.3	-47.7	19.7	0.00e+00	0	41	0	737148928	63	4431
2026-01-30 11:36:20.34	280.88	30.39	-46.6	-48.1	19.3	0.00e+00	0	41	0	739246080	63	4644
2026-01-30 11:36:21.34	281.22	30.35	-46.7	-48.3	19.1	0.00e+00	0	41	0	741343232	64	4449
2026-01-30 11:36:22.35	281.56	30.31	-46.7	-48.2	19.1	0.00e+00	0	41	0	743440384	64	4438
2026-01-30 11:36:23.36	281.91	30.27	-46.6	-48.2	19.2	0.00e+00	0	41	0	745537536	64	4393
2026-01-30 11:36:24.36	282.24	30.23	-46.7	-48.2	19.2	0.00e+00	0	41	0	746586112	64	4416
2026-01-30 11:36:25.37	282.58	30.19	-46.3	-47.8	19.5	0.00e+00	0	41	0	748683264	64	4208
2026-01-30 11:36:26.38	282.92	30.15	-46.0	-47.4	20.0	0.00e+00	0	41	0	750780416	63	4255
2026-01-30 11:36:27.39	283.26	30.10	-46.2	-47.6	19.7	0.00e+00	0	41	0	752877568	63	4371
2026-01-30 11:36:28.39	283.59	30.06	-46.6	-48.1	19.4	0.00e+00	0	41	0	754974720	63	4628
2026-01-30 11:36:29.40	283.93	30.01	-47.3	-49.0	18.4	0.00e+00	0	41	0	756023296	65	4565
2026-01-30 11:36:30.41	284.26	29.97	-47.5	-49.3	18.1	0.00e+00	0	41	0	758120448	66	4460
2026-01-30 11:36:31.41	284.59	29.92	-47.9	-49.8	17.7	0.00e+00	0	41	0	760217600	66	4725
2026-01-30 11:36:32.42	284.93	29.87	-48.0	-49.9	17.6	0.00e+00	0	41	0	762314752	66	4798
2026-01-30 11:36:33.43	285.26	29.82	-48.3	-50.3	17.2	0.00e+00	0	41	0	764411904	67	4718
2026-01-30 11:36:34.44	285.59	29.77	-49.2	-51.6	16.1	0.00e+00	0	41	0	765460480	68	5160
2026-01-30 11:36:35.45	285.92	29.72	-49.3	-51.7	15.9	0.00e+00	0	41	0	767557632	69	4966
2026-01-30 11:36:36.45	286.25	29.67	-48.7	-50.8	16.7	0.00e+00	0	41	0	769654784	69	4485
2026-01-30 11:36:37.46	286.57	29.61	-48.2	-50.1	17.5	0.00e+00	0	41	0	771751936	68	4382
2026-01-30 11:36:38.46	286.90	29.56	-47.9	-49.7	17.8	0.00e+00	0	41	0	773849088	67	4420
2026-01-30 11:36:39.47	287.22	29.50	-47.5	-49.2	18.2	0.00e+00	0	41	0	774897664	66	4424
2026-01-30 11:36:40.48	287.55	29.45	-47.7	-49.6	17.9	0.00e+00	0	41	0	776994816	66	4603
2026-01-30 11:36:41.49	287.87	29.39	-47.9	-49.8	17.7	0.00e+00	0	41	0	779091968	66	4724
2026-01-30 11:36:42.50	288.19	29.33	-47.9	-49.7	17.8	0.00e+00	0	41	0	781189120	66	4701
2026-01-30 11:36:43.50	288.51	29.28	-47.4	-49.1	18.4	0.00e+00	0	41	0	783286272	66	4377
2026-01-30 11:36:44.51	288.83	29.22	-47.3	-48.9	18.6	0.00e+00	0	41	0	784334848	66	4277
2026-01-30 11:36:45.52	289.15	29.16	-46.6	-48.0	19.3	0.00e+00	0	41	0	786432000	65	4090
2026-01-30 11:36:46.53	289.47	29.09	-46.4	-47.8	19.6	0.00e+00	0	41	0	788529152	64	4202
2026-01-30 11:36:47.54	289.78	29.03	-46.8	-48.4	19.1	0.00e+00	0	41	0	790626304	64	4501
2026-01-30 11:36:48.55	290.10	28.97	-46.8	-48.2	19.2	0.00e+00	0	41	0	792723456	64	4438
2026-01-30 11:36:49.55	290.41	28.91	-46.9	-48.5	18.9	0.00e+00	0	41	0	793772032	64	4573
2026-01-30 11:36:50.56	290.72	28.84	-46.4	-47.8	19.6	0.00e+00	0	41	0	795869184	64	4232
2026-01-30 11:36:51.57	291.04	28.78	-46.0	-47.2	20.2	0.00e+00	0	41	0	797966336	63	4192
2026-01-30 11:36:52.58	291.35	28.71	-45.5	-46.7	20.7	0.00e+00	0	41	0	800063488	62	4166
2026-01-30 11:36:53.58	291.65	28.65	-45.6	-46.8	20.5	0.00e+00	0	41	0	802160640	62	4226
2026-01-30 11:36:54.59	291.96	28.58	-45.9	-47.2	20.2	0.00e+00	0	41	0	804257792	62	4419
2026-01-30 11:36:55.60	292.27	28.51	-46.1	-47.4	20.2	0.00e+00	0	41	0	805306368	62	4507
2026-01-30 11:36:56.61	292.57	28.44	-46.3	-47.7	20.0	0.00e+00	0	41	0	807403520	63	4398
2026-01-30 11:36:57.61	292.87	28.38	-46.3	-47.6	19.9	0.00e+00	0	41	0	809500672	63	4382
2026-01-30 11:36:58.62	293.18	28.31	-46.7	-48.1	19.3	0.00e+00	0	41	0	811597824	64	4368
2026-01-30 11:36:59.63	293.48	28.23	-46.9	-48.4	19.1	0.00e+00	0	41	0	812646400	64	4497
2026-01-30 11:37:00.64	293.78	28.16	-47.3	-49.0	18.6	0.00e+00	0	41	0	814743552	65	4552
2026-01-30 11:37:01.65	294.08	28.09	-47.7	-49.5	18.2	0.00e+00	0	41	0	816840704	66	4554
2026-01-30 11:37:02.65	294.37	28.02	-47.9	-49.7	17.9	0.00e+00	0	41	0	818937856	66	4700
2026-01-30 11:37:03.66	294.67	27.95	-47.7	-49.5	18.0	0.00e+00	0	41	0	821035008	66	4565
2026-01-30 11:37:04.67	294.96	27.87	-47.2	-48.8	18.7	0.00e+00	0	41	0	822083584	66	4222
2026-01-30 11:37:05.67	295.25	27.80	-47.1	-48.7	18.8	0.00e+00	0	41	0	824180736	65	4402
2026-01-30 11:37:06.68	295.54	27.73	-46.8	-48.3	19.2	0.00e+00	0	41	0	826277888	65	4209
2026-01-30 11:37:07.69	295.84	27.65	-47.3	-49.0	18.7	0.00e+00	0	41	0	828375040	65	4556
2026-01-30 11:37:08.70	296.12	27.57	-48.0	-49.9	17.7	0.00e+00	0	41	0	830472192	66	4794
2026-01-30 11:37:09.71	296.41	27.50	-48.4	-50.4	17.2	0.00e+00	0	41	0	832569344	67	4772
2026-01-30 11:37:10.71	296.70	27.42	-48.3	-50.3	17.3	0.00e+00	0	41	0	833617920	67	4739
2026-01-30 11:37:11.72	296.98	27.34	-48.2	-50.1	17.5	0.00e+00	0	41	0	835715072	67	4646
2026-01-30 11:37:12.72	297.26	27.27	-47.8	-49.6	18.0	0.00e+00	0	41	0	837812224	67	4346
2026-01-30 11:37:13.72	297.54	27.19	-48.0	-49.8	17.7	0.00e+00	0	41	0	839909376	67	4482
2026-01-30 11:37:14.73	297.82	27.11	-48.1	-49.9	17.6	0.00e+00	0	41	0	840957952	67	4536
2026-01-30 11:37:15.74	298.10	27.03	-48.3	-50.3	17.3	0.00e+00	0	41	0	843055104	67	4723
2026-01-30 11:37:16.75	298.38	26.95	-48.2	-50.1	17.4	0.00e+00	0	41	0	845152256	67	4622
2026-01-30 11:37:17.75	298.66	26.87	-47.8	-49.6	17.8	0.00e+00	0	41	0	847249408	67	4360
2026-01-30 11:37:18.76	298.93	26.79	-47.6	-49.3	18.2	0.00e+00	0	41	0	849346560	67	4226
2026-01-30 11:37:19.77	299.21	26.71	-47.4	-49.1	18.4	0.00e+00	0	41	0	850395136	66	4359
2026-01-30 11:37:20.77	299.48	26.63	-47.1	-48.6	18.8	0.00e+00	0	41	0	852492288	65	4376
2026-01-30 11:37:21.77	299.75	26.55	-47.2	-48.8	18.6	0.00e+00	0	41	0	854589440	65	4476
2026-01-30 11:37:22.78	300.02	26.46	-47.1	-48.7	18.7	0.00e+00	0	41	0	856686592	65	4412
2026-01-30 11:37:23.79	300.29	26.38	-47.2	-48.8	18.7	0.00e+00	0	41	0	858783744	65	4453
2026-01-30 11:37:24.80	300.55	26.30	-47.4	-49.1	18.3	0.00e+00	0	41	0	860880896	65	4618
2026-01-30 11:37:25.80	300.82	26.21	-47.3	-49.0	18.5	0.00e+00	0	41	0	861929472	65	4572
2026-01-30 11:37:26.81	301.08	26.13	-47.1	-48.7	18.7	0.00e+00	0	41	0	864026624	65	4436
2026-01-30 11:37:27.81	301.34	26.04	-47.4	-49.0	18.4	0.00e+00	0	41	0	866123776	65	4589
2026-01-30 11:37:28.82	301.60	25.96	-47.5	-49.2	18.2	0.00e+00	0	41	0	868220928	65	4687
2026-01-30 11:37:29.83	301.87	25.87	-47.7	-49.4	18.0	0.00e+00	0	41	0	869269504	66	4529
2026-01-30 11:37:30.83	302.12	25.79	-47.2	-48.9	18.6	0.00e+00	0	41	0	871366656	66	4266
2026-01-30 11:37:31.84	302.38	25.70	-47.1	-48.7	18.7	0.00e+00	0	41	0	873463808	66	4181
2026-01-30 11:37:32.85	302.64	25.62	-46.8	-48.3	19.1	0.00e+00	0	41	0	875560960	65	4209
2026-01-30 11:37:33.85	302.89	25.53	-46.5	-48.0	19.3	0.00e+00	0	41	0	877658112	65	4055
2026-01-30 11:37:34.86	303.14	25.44	-46.7	-48.2	19.2	0.00e+00	0	41	0	878706688	64	4395
2026-01-30 11:37:35.87	303.40	25.36	-46.5	-48.0	19.3	0.00e+00	0	41	0	880803840	64	4304
2026-01-30 11:37:36.88	303.65	25.27	-46.7	-48.2	19.1	0.00e+00	0	41	0	882900992	64	4416
2026-01-30 11:37:37.89	303.90	25.18	-46.3	-47.7	19.5	0.00e+00	0	41	0	884998144	64	4185
2026-01-30 11:37:38.89	304.14	25.10	-45.8	-47.1	20.2	0.00e+00	0	41	0	887095296	63	4108
2026-01-30 11:37:39.90	304.39	25.01	-45.6	-46.9	20.4	0.00e+00	0	41	0	889192448	63	4008
2026-01-30 11:37:40.91	304.64	24.92	-45.6	-46.8	20.4	0.00e+00	0	41	0	890241024	62	4230
2026-01-30 11:37:41.91	304.88	24.83	-45.6	-46.9	20.4	0.00e+00	0	41	0	892338176	62	4248
2026-01-30 11:37:42.92	305.12	24.74	-45.8	-47.1	20.2	0.00e+00	0	41	0	894435328	62	4346
2026-01-30 11:37:43.93	305.36	24.65	-46.1	-47.5	19.8	0.00e+00	0	41	0	896532480	62	4576
2026-01-30 11:37:44.94	305.60	24.56	-45.8	-47.1	20.1	0.00e+00	0	41	0	897581056	62	4363
2026-01-30 11:37:45.94	305.84	24.47	-45.6	-46.9	20.4	0.00e+00	0	41	0	899678208	62	4251
2026-01-30 11:37:46.95	306.08	24.38	-45.4	-46.7	20.6	0.00e+00	0	41	0	901775360	62	4152
2026-01-30 11:37:47.96	306.31	24.29	-45.1	-46.3	20.8	0.00e+00	0	41	0	903872512	61	4212
2026-01-30 11:37:48.97	306.55	24.20	-45.3	-46.6	20.6	0.00e+00	0	41	0	905969664	61	4350
2026-01-30 11:37:49.97	306.78	24.12	-45.8	-47.1	20.1	0.00e+00	0	41	0	907018240	62	4390
2026-01-30 11:37:50.98	307.01	24.02	-46.0	-47.4	19.9	0.00e+00	0	41	0	909115392	62	4507
2026-01-30 11:37:51.98	307.24	23.93	-46.1	-47.4	19.8	0.00e+00	0	41	0	911212544	63	4286
2026-01-30 11:37:52.99	307.47	23.84	-45.7	-47.0	20.1	0.00e+00	0	41	0	913309696	63	4098
2026-01-30 11:37:53.99	307.70	23.75	-45.2	-46.4	20.8	0.00e+00	0	41	0	915406848	62	4021
2026-01-30 11:37:55.01	307.93	23.66	-44.6	-45.8	21.3	0.00e+00	0	41	0	917504000	61	3963
2026-01-30 11:37:56.01	308.15	23.57	-44.4	-45.5	21.6	0.00e+00	0	41	0	918552576	60	4065
2026-01-30 11:37:57.02	308.37	23.48	-44.6	-45.7	21.3	0.00e+00	0	41	0	920649728	60	4157
2026-01-30 11:37:58.03	308.60	23.39	-45.1	-46.3	20.9	0.00e+00	0	41	0	922746880	60	4450
2026-01-30 11:37:59.04	308.82	23.30	-46.1	-47.5	19.7	0.00e+00	0	41	0	924844032	62	4576
2026-01-30 11:38:00.05	309.04	23.21	-46.3	-47.8	19.5	0.00e+00	0	41	0	925892608	63	4444
2026-01-30 11:38:01.05	309.26	23.11	-46.2	-47.6	19.6	0.00e+00	0	41	0	927989760	63	4381
2026-01-30 11:38:02.06	309.48	23.02	-45.8	-47.2	20.0	0.00e+00	0	41	0	930086912	63	4171
2026-01-30 11:38:03.06	309.69	22.93	-45.5	-46.8	20.2	0.00e+00	0	41	0	932184064	63	3996
2026-01-30 11:38:04.07	309.91	22.84	-45.2	-46.4	20.6	0.00e+00	0	41	0	934281216	62	4033
2026-01-30 11:38:05.08	310.12	22.75	-45.2	-46.4	20.7	0.00e+00	0	41	0	936378368	62	4015
2026-01-30 11:38:06.09	310.33	22.66	-44.7	-45.8	21.2	0.00e+00	0	41	0	937426944	61	4001
2026-01-30 11:38:07.09	310.54	22.56	-44.4	-45.5	21.5	0.00e+00	0	41	0	939524096	60	4069
2026-01-30 11:38:08.10	310.76	22.47	-44.1	-45.2	21.7	0.00e+00	0	41	0	941621248	60	3947
2026-01-30 11:38:09.11	310.97	22.38	-44.1	-45.2	22.0	0.00e+00	0	41	0	943718400	59	4173
2026-01-30 11:38:10.11	311.17	22.29	-43.5	-44.5	22.5	0.00e+00	0	41	0	945815552	59	3858
2026-01-30 11:38:11.12	311.38	22.20	-43.5	-44.5	22.5	0.00e+00	0	41	0	946864128	58	4091
2026-01-30 11:38:12.13	311.59	22.10	-43.7	-44.7	22.4	0.00e+00	0	41	0	948961280	58	4174
2026-01-30 11:38:13.14	311.79	22.01	-44.4	-45.4	21.8	0.00e+00	0	41	0	951058432	59	4287
2026-01-30 11:38:14.14	311.99	21.92	-44.9	-46.0	21.0	0.00e+00	0	41	0	953155584	60	4337
2026-01-30 11:38:15.15	312.19	21.83	-45.9	-47.3	19.9	0.00e+00	0	41	0	954204160	62	4452
2026-01-30 11:38:16.16	312.40	21.73	-46.9	-48.6	18.6	0.00e+00	0	41	0	956301312	64	4615
2026-01-30 11:38:17.17	312.60	21.64	-47.1	-48.8	18.3	0.00e+00	0	41	0	958398464	64	4755
2026-01-30 11:38:18.17	312.79	21.55	-46.8	-48.4	18.7	0.00e+00	0	41	0	960495616	64	4537
2026-01-30 11:38:19.18	312.99	21.46	-46.1	-47.5	19.5	0.00e+00	0	41	0	962592768	64	4082
2026-01-30 11:38:20.19	313.19	21.36	-45.6	-46.9	20.2	0.00e+00	0	41	0	964689920	63	4017
2026-01-30 11:38:21.20	313.38	21.27	-45.1	-46.3	20.7	0.00e+00	0	41	0	965738496	62	3975
2026-01-30 11:38:22.20	313.58	21.18	-44.9	-46.1	20.9	0.00e+00	0	41	0	967835648	61	4103
2026-01-30 11:38:23.21	313.77	21.09	-44.9	-46.1	20.9	0.00e+00	0	41	0	969932800	61	4144
2026-01-30 11:38:24.22	313.96	20.99	-45.2	-46.4	20.6	0.00e+00	0	41	0	972029952	61	4269
2026-01-30 11:38:25.23	314.15	20.90	-45.1	-46.3	20.7	0.00e+00	0	41	0	974127104	61	4216
2026-01-30 11:38:26.23	314.34	20.81	-44.9	-46.1	20.9	0.00e+00	0	41	0	975175680	61	4102
2026-01-30 11:38:27.24	314.53	20.72	-44.3	-45.5	21.4	0.00e+00	0	41	0	977272832	60	4053
2026-01-30 11:38:28.25	314.72	20.63	-44.3	-45.4	21.8	0.00e+00	0	41	0	979369984	59	4247
2026-01-30 11:38:29.26	314.90	20.53	-44.0	-45.0	22.0	0.00e+00	0	41	0	981467136	59	4089
2026-01-30 11:38:30.26	315.09	20.44	-43.8	-44.8	22.2	0.00e+00	0	41	0	982515712	59	3997
2026-01-30 11:38:31.27	315.27	20.35	-43.7	-44.7	22.3	0.00e+00	0	41	0	984612864	59	3955
2026-01-30 11:38:32.27	315.45	20.26	-44.1	-45.2	22.0	0.00e+00	0	41	0	986710016	59	4158
2026-01-30 11:38:33.28	315.64	20.17	-44.3	-45.5	21.7	0.00e+00	0	41	0	988807168	59	4292
2026-01-30 11:38:34.29	315.82	20.07	-44.6	-45.7	21.5	0.00e+00	0	41	0	990904320	59	4430
2026-01-30 11:38:35.29	315.99	19.98	-44.5	-45.7	21.3	0.00e+00	0	41	0	993001472	60	4153
2026-01-30 11:38:36.30	316.17	19.89	-44.3	-45.4	21.4	0.00e+00	0	41	0	994050048	60	4040
2026-01-30 11:38:37.31	316.35	19.80	-44.2	-45.3	21.5	0.00e+00	0	41	0	996147200	60	3974
2026-01-30 11:38:38.31	316.53	19.71	-44.1	-45.2	21.6	0.00e+00	0	41	0	998244352	60	3941
2026-01-30 11:38:39.32	316.70	19.62	-44.1	-45.2	21.5	0.00e+00	0	41	0	1000341504	60	3940
2026-01-30 11:38:40.33	316.88	19.53	-44.3	-45.4	21.4	0.00e+00	0	41	0	1002438656	60	4038
2026-01-30 11:38:41.34	317.05	19.43	-44.4	-45.5	21.3	0.00e+00	0	41	0	1003487232	60	4082
2026-01-30 11:38:42.34	317.22	19.34	-44.7	-45.9	21.1	0.00e+00	0	41	0	1005584384	60	4258
2026-01-30 11:38:43.35	317.40	19.25	-45.0	-46.2	20.7	0.00e+00	0	41	0	1007681536	60	4422
2026-01-30 11:38:44.35	317.57	19.16	-45.0	-46.3	20.7	0.00e+00	0	41	0	1009778688	60	4456
2026-01-30 11:38:45.35	317.73	19.07	-45.1	-46.3	20.6	0.00e+00	0	41	0	1010827264	60	4477
2026-01-30 11:38:46.36	317.90	18.98	-44.8	-46.1	20.8	0.00e+00	0	41	0	1012924416	60	4342
2026-01-30 11:38:47.37	318.07	18.89	-44.5	-45.7	21.2	0.00e+00	0	41	0	1015021568	60	4155
2026-01-30 11:38:48.38	318.24	18.80	-44.4	-45.5	21.3	0.00e+00	0	41	0	1017118720	60	4079
2026-01-30 11:38:49.38	318.40	18.71	-44.1	-45.2	21.6	0.00e+00	0	41	0	1019215872	60	3920
2026-01-30 11:38:50.39	318.57	18.62	-44.2	-45.3	21.7	0.00e+00	0	41	0	1021313024	59	4230
2026-01-30 11:38:51.39	318.73	18.53	-44.1	-45.2	21.8	0.00e+00	0	41	0	1022361600	59	4178
2026-01-30 11:38:52.40	318.89	18.44	-44.1	-45.2	21.8	0.00e+00	0	41	0	1024458752	59	4179
2026-01-30 11:38:53.41	319.06	18.35	-44.2	-45.3	21.7	0.00e+00	0	41	0	1026555904	59	4208
2026-01-30 11:38:54.41	319.22	18.26	-44.1	-45.1	21.9	0.00e+00	0	41	0	1028653056	59	4139
2026-01-30 11:38:55.41	319.38	18.17	-44.1	-45.2	21.8	0.00e+00	0	41	0	1030750208	59	4187
2026-01-30 11:38:56.42	319.53	18.08	-44.1	-45.2	21.8	0.00e+00	0	41	0	1031798784	59	4167
2026-01-30 11:38:57.42	319.69	17.99	-43.9	-45.0	22.0	0.00e+00	0	41	0	1033895936	59	4079
2026-01-30 11:38:58.43	319.85	17.90	-43.9	-44.9	22.0	0.00e+00	0	41	0	1035993088	59	4042
2026-01-30 11:38:59.44	320.01	17.81	-43.9	-44.9	22.0	0.00e+00	0	41	0	1038090240	59	4049
2026-01-30 11:39:00.45	320.16	17.72	-43.6	-44.6	22.3	0.00e+00	0	41	0	1039138816	59	3896
2026-01-30 11:39:01.46	320.32	17.63	-43.5	-44.5	22.3	0.00e+00	0	41	0	1041235968	58	4081
2026-01-30 11:39:02.46	320.47	17.54	-43.6	-44.7	22.2	0.00e+00	0	41	0	1043333120	58	4147
2026-01-30 11:39:03.46	320.62	17.45	-43.8	-44.9	22.0	0.00e+00	0	41	0	1045430272	58	4252
2026-01-30 11:39:04.47	320.78	17.37	-43.9	-45.0	22.0	0.00e+00	0	41	0	1047527424	58	4300
2026-01-30 11:39:05.48	320.93	17.28	-44.1	-45.2	21.8	0.00e+00	0	41	0	1049624576	58	4397
2026-01-30 11:39:06.49	321.08	17.19	-44.0	-45.1	21.8	0.00e+00	0	41	0	1050673152	58	4359
2026-01-30 11:39:07.49	321.23	17.10	-44.2	-45.3	21.6	0.00e+00	0	41	0	1052770304	58	4471
2026-01-30 11:39:08.50	321.38	17.01	-44.1	-45.2	21.8	0.00e+00	0	41	0	1054867456	59	4160
2026-01-30 11:39:09.50	321.52	16.92	-44.1	-45.2	21.7	0.00e+00	0	41	0	1056964608	59	4157
2026-01-30 11:39:10.51	321.67	16.84	-44.2	-45.3	21.6	0.00e+00	0	41	0	1059061760	59	4227
2026-01-30 11:39:11.52	321.82	16.75	-44.1	-45.2	21.7	0.00e+00	0	41	0	1060110336	59	4186
2026-01-30 11:39:12.53	321.96	16.66	-44.1	-45.2	21.7	0.00e+00	0	41	0	1062207488	59	4162
2026-01-30 11:39:13.53	322.11	16.57	-44.1	-45.2	21.7	0.00e+00	0	41	0	1064304640	59	4176
2026-01-30 11:39:14.54	322.25	16.49	-44.0	-45.1	21.8	0.00e+00	0	41	0	1066401792	59	4121
2026-01-30 11:39:15.55	322.39	16.40	-44.0	-45.1	21.8	0.00e+00	0	41	0	1067450368	59	4132
2026-01-30 11:39:16.56	322.54	16.31	-44.1	-45.2	21.7	0.00e+00	0	41	0	1069547520	59	4182
2026-01-30 11:39:17.56	322.68	16.23	-44.1	-45.2	21.7	0.00e+00	0	41	0	1071644672	59	4172
2026-01-30 11:39:18.56	322.82	16.14	-44.1	-45.2	21.7	0.00e+00	0	41	0	1073741824	59	4153
2026-01-30 11:39:19.57	322.96	16.05	-44.1	-45.2	21.6	0.00e+00	0	41	0	1075838976	59	4187
2026-01-30 11:39:20.57	323.09	15.97	-44.1	-45.3	21.6	0.00e+00	0	41	0	1076887552	59	4209
2026-01-30 11:39:21.57	323.23	15.88	-44.3	-45.5	21.4	0.00e+00	0	41	0	1078984704	59	4315
2026-01-30 11:39:22.58	323.37	15.79	-44.4	-45.6	21.4	0.00e+00	0	41	0	1081081856	59	4341
2026-01-30 11:39:23.58	323.50	15.71	-44.3	-45.5	21.4	0.00e+00	0	41	0	1083179008	59	4329
2026-01-30 11:39:24.59	323.64	15.62	-44.5	-45.7	21.2	0.00e+00	0	41	0	1085276160	59	4428
2026-01-30 11:39:25.59	323.77	15.54	-44.4	-45.6	21.3	0.00e+00	0	41	0	1087373312	59	4376
2026-01-30 11:39:26.59	323.91	15.45	-44.4	-45.5	21.3	0.00e+00	0	41	0	1088421888	59	4335
2026-01-30 11:39:27.60	324.04	15.37	-44.1	-45.2	21.6	0.00e+00	0	41	0	1090519040	59	4165
2026-01-30 11:39:28.61	324.18	15.28	-44.0	-45.1	21.7	0.00e+00	0	41	0	1092616192	59	4134
2026-01-30 11:39:29.62	324.31	15.20	-44.0	-45.1	21.7	0.00e+00	0	41	0	1094713344	59	4113
2026-01-30 11:39:30.62	324.44	15.11	-43.9	-45.0	21.8	0.00e+00	0	41	0	1095761920	59	4058
2026-01-30 11:39:31.63	324.57	15.03	-43.8	-44.9	21.9	0.00e+00	0	41	0	1097859072	59	4031
2026-01-30 11:39:32.63	324.70	14.94	-44.0	-45.1	21.7	0.00e+00	0	41	0	1099956224	59	4132
2026-01-30 11:39:33.64	324.83	14.86	-44.1	-45.3	21.6	0.00e+00	0	41	0	1102053376	59	4198
2026-01-30 11:39:34.65	324.96	14.77	-44.6	-45.8	21.2	0.00e+00	0	41	0	1104150528	59	4453
2026-01-30 11:39:35.66	325.09	14.69	-44.2	-45.4	21.2	0.00e+00	0	41	0	1105199104	60	4026
2026-01-30 11:39:36.66	325.21	14.61	-44.3	-45.5	21.1	0.00e+00	0	41	0	1107296256	60	4085
2026-01-30 11:39:37.67	325.34	14.52	-44.8	-46.1	20.5	0.00e+00	0	41	0	1109393408	60	4349
2026-01-30 11:39:38.67	325.47	14.44	-44.8	-46.1	20.5	0.00e+00	0	41	0	1111490560	60	4349
2026-01-30 11:39:39.68	325.59	14.36	-44.8	-46.1	20.5	0.00e+00	0	41	0	1113587712	60	4365
2026-01-30 11:39:40.68	325.71	14.27	-44.9	-46.2	20.4	0.00e+00	0	41	0	1115684864	60	4438
2026-01-30 11:39:41.68	325.84	14.19	-44.8	-46.1	20.5	0.00e+00	0	41	0	1116733440	60	4376
2026-01-30 11:39:42.69	325.96	14.11	-45.0	-46.3	20.3	0.00e+00	0	41	0	1118830592	60	4484
2026-01-30 11:39:43.69	326.08	14.03	-44.9	-46.2	20.4	0.00e+00	0	41	0	1120927744	60	4425
2026-01-30 11:39:44.70	326.21	13.94	-44.9	-46.1	20.5	0.00e+00	0	41	0	1123024896	60	4382
2026-01-30 11:39:45.70	326.33	13.86	-44.9	-46.1	20.4	0.00e+00	0	41	0	1124073472	60	4380
2026-01-30 11:39:46.70	326.45	13.78	-44.8	-46.0	20.5	0.00e+00	0	41	0	1126170624	60	4326
2026-01-30 11:39:47.71	326.57	13.70	-44.7	-45.9	20.7	0.00e+00	0	41	0	1128267776	60	4258
2026-01-30 11:39:48.72	326.69	13.62	-44.9	-46.1	20.4	0.00e+00	0	41	0	1130364928	60	4369
2026-01-30 11:39:49.73	326.80	13.53	-45.0	-46.3	20.3	0.00e+00	0	41	0	1132462080	60	4462
2026-01-30 11:39:50.73	326.92	13.45	-45.4	-46.7	19.9	0.00e+00	0	41	0	1133510656	61	4435
2026-01-30 11:39:51.74	327.04	13.37	-45.2	-46.6	20.0	0.00e+00	0	41	0	1135607808	61	4353
2026-01-30 11:39:52.74	327.16	13.29	-45.3	-46.7	20.0	0.00e+00	0	41	0	1137704960	61	4426
2026-01-30 11:39:53.75	327.27	13.21	-45.6	-47.1	19.6	0.00e+00	0	41	0	1139802112	61	4600
2026-01-30 11:39:54.76	327.39	13.13	-45.6	-47.1	19.6	0.00e+00	0	41	0	1141899264	62	4349
2026-01-30 11:39:55.76	327.50	13.05	-45.8	-47.3	19.4	0.00e+00	0	41	0	1142947840	62	4452
2026-01-30 11:39:56.76	327.62	12.97	-46.1	-47.6	19.1	0.00e+00	0	41	0	1145044992	62	4622
2026-01-30 11:39:57.77	327.73	12.89	-46.1	-47.6	19.0	0.00e+00	0	41	0	1147142144	62	4620
2026-01-30 11:39:58.78	327.84	12.81	-46.2	-47.7	18.9	0.00e+00	0	41	0	1149239296	62	4700
2026-01-30 11:39:59.78	327.96	12.73	-46.0	-47.6	19.0	0.00e+00	0	41	0	1151336448	62	4619
2026-01-30 11:40:00.79	328.07	12.65	-45.9	-47.4	19.1	0.00e+00	0	41	0	1152385024	62	4544
2026-01-30 11:40:01.80	328.18	12.57	-46.0	-47.5	19.0	0.00e+00	0	41	0	1154482176	62	4578
2026-01-30 11:40:02.81	328.29	12.49	-45.9	-47.3	19.3	0.00e+00	0	41	0	1156579328	62	4489
2026-01-30 11:40:03.82	328.40	12.41	-45.9	-47.4	19.2	0.00e+00	0	41	0	1158676480	62	4511
2026-01-30 11:40:04.82	328.51	12.33	-45.6	-47.0	19.5	0.00e+00	0	41	0	1160773632	62	4337
2026-01-30 11:40:05.83	328.62	12.25	-45.6	-47.0	19.5	0.00e+00	0	41	0	1161822208	62	4334
2026-01-30 11:40:06.83	328.73	12.17	-45.9	-47.4	19.2	0.00e+00	0	41	0	1163919360	62	4516
2026-01-30 11:40:07.83	328.84	12.09	-45.8	-47.3	19.3	0.00e+00	0	41	0	1166016512	62	4453
2026-01-30 11:40:08.84	328.94	12.01	-45.9	-47.4	19.2	0.00e+00	0	41	0	1168113664	62	4498
2026-01-30 11:40:09.85	329.05	11.93	-46.1	-47.6	18.9	0.00e+00	0	41	0	1170210816	62	4643
2026-01-30 11:40:10.85	329.16	11.86	-46.2	-47.8	18.8	0.00e+00	0	41	0	1171259392	62	4711
2026-01-30 11:40:11.86	329.26	11.78	-46.2	-47.8	18.8	0.00e+00	0	41	0	1173356544	62	4725
2026-01-30 11:40:12.86	329.37	11.70	-45.9	-47.5	19.1	0.00e+00	0	41	0	1175453696	63	4306
2026-01-30 11:40:13.87	329.47	11.62	-45.9	-47.4	19.1	0.00e+00	0	41	0	1177550848	63	4283
2026-01-30 11:40:14.87	329.58	11.55	-45.9	-47.4	19.1	0.00e+00	0	41	0	1179648000	63	4290
2026-01-30 11:40:15.88	329.68	11.47	-45.5	-47.0	19.5	0.00e+00	0	41	0	1180696576	63	4070
2026-01-30 11:40:16.89	329.79	11.39	-45.4	-46.8	19.7	0.00e+00	0	41	0	1182793728	62	4220
2026-01-30 11:40:17.89	329.89	11.31	-45.2	-46.5	19.9	0.00e+00	0	41	0	1184890880	62	4089
2026-01-30 11:40:18.90	329.99	11.24	-45.1	-46.5	19.9	0.00e+00	0	41	0	1186988032	62	4069
2026-01-30 11:40:19.91	330.09	11.16	-45.1	-46.5	19.9	0.00e+00	0	41	0	1189085184	62	4061
2026-01-30 11:40:20.92	330.19	11.08	-45.2	-46.5	19.9	0.00e+00	0	41	0	1190133760	62	4080
2026-01-30 11:40:21.91	330.29	11.01	-44.8	-46.1	20.2	0.00e+00	0	41	0	1192230912	61	4101
2026-01-30 11:40:22.92	330.39	10.93	-44.9	-46.2	20.2	0.00e+00	0	41	0	1194328064	61	4167
2026-01-30 11:40:23.92	330.49	10.86	-44.8	-46.1	20.3	0.00e+00	0	41	0	1196425216	61	4099
2026-01-30 11:40:24.93	330.59	10.78	-44.8	-46.1	20.2	0.00e+00	0	41	0	1198522368	61	4114
2026-01-30 11:40:25.94	330.69	10.70	-44.8	-46.1	20.2	0.00e+00	0	41	0	1199570944	61	4112
2026-01-30 11:40:26.94	330.79	10.63	-44.9	-46.3	20.0	0.00e+00	0	41	0	1201668096	61	4197
2026-01-30 11:40:27.95	330.89	10.55	-45.2	-46.5	19.9	0.00e+00	0	41	0	1203765248	61	4328
2026-01-30 11:40:28.95	330.98	10.48	-45.2	-46.5	19.8	0.00e+00	0	41	0	1205862400	61	4324
2026-01-30 11:40:29.96	331.08	10.40	-45.4	-46.8	19.5	0.00e+00	0	41	0	1207959552	61	4476
2026-01-30 11:40:30.96	331.18	10.33	-45.7	-47.1	19.1	0.00e+00	0	41	0	1209008128	61	4644
2026-01-30 11:40:31.97	331.27	10.25	-45.9	-47.5	19.0	0.00e+00	0	41	0	1211105280	62	4547
