passes_logs/2026/01/30/R3.2S_Murmansk/R3.2S_Murmansk__20260130_040718_FENGYUN_3D_rec.log

#Pass ID: 20260130_040718_FENGYUN 3D
#Satellite: FENGYUN 3D
#Configuration: FENGYUN 3D
#almurnet v.1.7.20251203
#Start time: 2026-01-30 04:07:19

#Version: 2.2.20231116
#Station: R3.2S_Murmansk
#Location: 33.079688 lon 68.888172 lat
#TLE: 1 43010U 17072A   26029.52179110  .00000394  00000+0  20818-3 0  9997
#TLE: 2 43010  98.9957   1.5649 0002507  83.7772 276.3689 14.19703315425310

#Time	Az	El	Level	Level2	SNR	BER	BlckErr	Temp	State	Recorded	gain1	gain2
2026-01-30 04:07:19.81	31.43	2.08	-54.1	-66.0	3.8	8.47e-01	0	39	0	0	79	14466
2026-01-30 04:07:20.81	31.40	2.14	-53.7	-65.7	3.8	8.46e-01	0	39	104	0	78	14793
2026-01-30 04:07:21.82	31.37	2.20	-53.6	-65.5	3.8	8.47e-01	0	39	104	0	78	14481
2026-01-30 04:07:22.82	31.34	2.27	-53.4	-65.4	3.8	8.45e-01	0	39	104	0	78	14236
2026-01-30 04:07:23.83	31.31	2.33	-53.3	-65.2	3.8	8.47e-01	0	40	104	0	78	13990
2026-01-30 04:07:24.84	31.28	2.39	-53.1	-65.0	3.8	8.45e-01	0	40	104	0	78	13622
2026-01-30 04:07:25.85	31.26	2.46	-52.8	-64.7	3.8	8.46e-01	0	39	104	0	77	13923
2026-01-30 04:07:26.85	31.23	2.52	-52.3	-64.2	3.8	8.46e-01	0	39	104	0	76	13958
2026-01-30 04:07:27.86	31.20	2.59	-52.0	-63.9	3.8	8.47e-01	0	39	104	0	75	14308
2026-01-30 04:07:28.87	31.17	2.65	-52.0	-63.9	3.8	8.46e-01	0	40	104	0	75	14287
2026-01-30 04:07:29.88	31.14	2.72	-52.0	-63.9	3.8	8.45e-01	0	40	104	0	75	14272
2026-01-30 04:07:30.88	31.11	2.78	-51.9	-63.9	3.8	8.46e-01	0	40	104	0	75	14278
2026-01-30 04:07:31.89	31.08	2.84	-52.0	-63.9	3.8	8.45e-01	0	40	104	0	75	14281
2026-01-30 04:07:32.90	31.05	2.91	-51.9	-63.9	3.8	8.46e-01	0	40	104	0	75	14220
2026-01-30 04:07:33.91	31.02	2.97	-51.9	-63.9	3.8	8.46e-01	0	40	104	0	75	14235
2026-01-30 04:07:34.92	30.99	3.04	-51.9	-63.9	3.8	8.46e-01	0	40	104	0	75	14258
2026-01-30 04:07:35.92	30.96	3.10	-51.9	-63.9	3.8	8.46e-01	0	40	104	0	75	14240
2026-01-30 04:07:36.93	30.93	3.17	-51.9	-63.8	3.8	8.46e-01	0	40	104	0	75	14173
2026-01-30 04:07:37.94	30.90	3.24	-51.9	-63.8	3.8	8.46e-01	0	40	104	0	75	14208
2026-01-30 04:07:38.95	30.87	3.30	-51.9	-63.8	3.8	8.46e-01	0	40	104	0	75	14175
2026-01-30 04:07:39.96	30.84	3.37	-51.9	-63.8	3.8	8.47e-01	0	40	104	0	75	14161
2026-01-30 04:07:40.96	30.81	3.43	-51.9	-63.8	3.8	8.45e-01	0	40	104	0	75	14144
2026-01-30 04:07:41.97	30.78	3.50	-51.9	-63.9	3.8	8.46e-01	0	40	104	0	75	14223
2026-01-30 04:07:42.98	30.74	3.57	-51.9	-63.8	3.8	8.46e-01	0	40	104	0	75	14159
2026-01-30 04:07:43.99	30.71	3.63	-51.9	-63.7	3.8	8.46e-01	0	40	104	0	75	14016
2026-01-30 04:07:45.00	30.68	3.70	-51.8	-63.5	3.8	8.46e-01	0	40	104	0	75	13712
2026-01-30 04:07:46.00	30.65	3.77	-51.8	-63.2	3.8	8.46e-01	0	40	104	0	75	13224
2026-01-30 04:07:47.01	30.62	3.83	-51.8	-62.7	3.8	8.45e-01	0	40	104	0	75	12466
2026-01-30 04:07:48.02	30.59	3.90	-51.7	-62.0	3.8	8.46e-01	0	40	104	0	75	11471
2026-01-30 04:07:49.02	30.55	3.97	-51.6	-61.5	3.8	8.45e-01	0	40	104	0	75	10815
2026-01-30 04:07:50.03	30.52	4.04	-51.6	-61.3	4.0	8.42e-01	0	40	104	0	75	10544
2026-01-30 04:07:51.04	30.49	4.10	-51.6	-61.2	4.0	8.44e-01	0	40	104	0	75	10483
2026-01-30 04:07:52.04	30.46	4.17	-51.6	-61.6	3.9	8.44e-01	0	40	104	0	75	10964
2026-01-30 04:07:53.05	30.42	4.24	-51.7	-62.5	3.8	8.45e-01	0	40	104	0	75	12130
2026-01-30 04:07:54.06	30.39	4.31	-51.8	-63.1	3.8	8.47e-01	0	40	104	0	75	13055
2026-01-30 04:07:55.07	30.36	4.38	-51.8	-62.7	3.8	8.46e-01	0	40	104	0	75	12464
2026-01-30 04:07:56.08	30.32	4.44	-51.6	-60.8	4.1	8.44e-01	0	40	104	0	75	10055
2026-01-30 04:07:57.08	30.29	4.51	-51.1	-57.9	5.2	7.95e-01	0	40	0	0	74	7555
2026-01-30 04:07:58.09	30.26	4.58	-50.2	-55.0	7.4	2.81e-01	0	40	0	3145728	72	6120
2026-01-30 04:07:59.10	30.22	4.65	-49.1	-52.4	10.2	2.05e-02	0	40	0	9437184	70	5074
2026-01-30 04:08:00.11	30.19	4.72	-47.8	-50.2	12.4	1.20e-03	0	40	0	14680064	67	4691
2026-01-30 04:08:01.11	30.15	4.79	-47.1	-49.2	13.4	4.23e-05	0	41	0	20971520	66	4434
2026-01-30 04:08:02.12	30.12	4.86	-45.9	-47.5	15.3	0.00e+00	0	40	0	26214400	63	4334
2026-01-30 04:08:03.13	30.08	4.93	-45.0	-46.4	16.4	0.00e+00	0	41	0	32505856	62	4046
2026-01-30 04:08:04.13	30.05	5.00	-44.2	-45.5	17.3	0.00e+00	0	41	0	37748736	60	4085
2026-01-30 04:08:05.14	30.01	5.07	-44.0	-45.2	18.0	0.00e+00	0	40	0	44040192	59	4178
2026-01-30 04:08:06.14	29.98	5.14	-50.7	-56.1	6.6	1.16e-01	0	41	0	49283072	72	6955
2026-01-30 04:08:07.15	29.94	5.21	-49.6	-53.3	9.3	1.03e-01	0	41	0	54525952	71	5318
2026-01-30 04:08:08.16	29.91	5.28	-44.4	-45.7	17.0	0.00e+00	0	41	0	60817408	60	4186
2026-01-30 04:08:09.17	29.87	5.35	-42.6	-43.6	19.6	0.00e+00	0	40	0	66060288	56	4106
2026-01-30 04:08:10.18	29.84	5.42	-49.2	-52.8	9.6	4.31e-03	0	41	0	71303168	69	5640
2026-01-30 04:08:11.18	29.80	5.49	-42.2	-43.2	19.9	0.00e+00	0	41	0	77594624	56	3929
2026-01-30 04:08:12.19	29.76	5.56	-41.8	-42.8	20.2	0.00e+00	0	40	0	82837504	55	3988
2026-01-30 04:08:13.20	29.73	5.63	-42.0	-43.0	20.1	0.00e+00	0	41	0	88080384	55	4065
2026-01-30 04:08:14.21	29.69	5.70	-41.9	-42.9	20.2	0.00e+00	0	40	0	94371840	55	4027
2026-01-30 04:08:15.21	29.65	5.78	-41.7	-42.7	20.4	0.00e+00	0	41	0	99614720	55	3914
2026-01-30 04:08:16.22	29.62	5.85	-42.0	-42.9	20.1	0.00e+00	0	41	0	105906176	55	4049
2026-01-30 04:08:17.23	29.58	5.92	-41.8	-42.8	20.3	0.00e+00	0	41	0	111149056	55	3985
2026-01-30 04:08:18.24	29.54	5.99	-42.2	-43.2	20.0	0.00e+00	0	41	0	117440512	55	4174
2026-01-30 04:08:19.24	29.50	6.06	-42.1	-43.1	20.1	0.00e+00	0	40	0	122683392	55	4137
2026-01-30 04:08:20.25	29.46	6.14	-41.9	-42.9	20.3	0.00e+00	0	41	0	128974848	55	4035
2026-01-30 04:08:21.26	29.43	6.21	-41.6	-42.5	20.6	0.00e+00	0	41	0	134217728	55	3856
2026-01-30 04:08:22.27	29.39	6.28	-41.7	-42.6	20.5	0.00e+00	0	41	0	139460608	55	3913
2026-01-30 04:08:23.28	29.35	6.36	-41.7	-42.6	20.6	0.00e+00	0	41	0	145752064	55	3904
2026-01-30 04:08:24.29	29.31	6.43	-41.8	-42.8	20.4	0.00e+00	0	41	0	150994944	55	3959
2026-01-30 04:08:25.30	29.27	6.50	-42.0	-42.9	20.3	0.00e+00	0	41	0	156237824	55	4043
2026-01-30 04:08:26.31	29.23	6.58	-41.9	-42.9	20.3	0.00e+00	0	41	0	162529280	55	4030
2026-01-30 04:08:27.32	29.19	6.65	-42.0	-43.0	20.3	0.00e+00	0	40	0	168820736	55	4060
2026-01-30 04:08:28.32	29.15	6.73	-42.0	-42.9	20.3	0.00e+00	0	41	0	174063616	55	4039
2026-01-30 04:08:29.33	29.11	6.80	-41.7	-42.7	20.6	0.00e+00	0	41	0	179306496	55	3915
2026-01-30 04:08:30.34	29.07	6.87	-41.8	-42.8	20.5	0.00e+00	0	41	0	185597952	55	3982
2026-01-30 04:08:31.35	29.03	6.95	-41.9	-42.9	20.4	0.00e+00	0	41	0	190840832	55	4014
2026-01-30 04:08:32.36	28.99	7.02	-41.6	-42.5	20.8	0.00e+00	0	41	0	196083712	55	3854
2026-01-30 04:08:33.36	28.95	7.10	-41.5	-42.4	20.9	0.00e+00	0	41	0	202375168	55	3810
2026-01-30 04:08:34.37	28.91	7.17	-41.5	-42.4	20.8	0.00e+00	0	41	0	207618048	54	4044
2026-01-30 04:08:35.38	28.87	7.25	-41.6	-42.5	20.8	0.00e+00	0	41	0	213909504	54	4072
2026-01-30 04:08:36.38	28.82	7.33	-41.7	-42.7	20.6	0.00e+00	0	41	0	219152384	54	4163
2026-01-30 04:08:37.39	28.78	7.40	-41.8	-42.7	20.6	0.00e+00	0	41	0	224395264	54	4168
2026-01-30 04:08:38.40	28.74	7.48	-41.8	-42.8	20.6	0.00e+00	0	41	0	230686720	54	4206
2026-01-30 04:08:39.41	28.70	7.56	-41.6	-42.5	20.8	0.00e+00	0	41	0	235929600	54	4093
2026-01-30 04:08:40.42	28.66	7.63	-41.7	-42.6	20.7	0.00e+00	0	41	0	242221056	54	4130
2026-01-30 04:08:41.43	28.61	7.71	-41.7	-42.7	20.7	0.00e+00	0	41	0	247463936	54	4152
2026-01-30 04:08:42.44	28.57	7.79	-41.8	-42.7	20.7	0.00e+00	0	41	0	253755392	54	4187
2026-01-30 04:08:43.44	28.53	7.86	-41.9	-42.9	20.5	0.00e+00	0	41	0	258998272	54	4248
2026-01-30 04:08:44.45	28.48	7.94	-41.7	-42.6	20.7	0.00e+00	0	41	0	264241152	54	4141
2026-01-30 04:08:45.46	28.44	8.02	-41.5	-42.5	20.9	0.00e+00	0	41	0	270532608	54	4063
2026-01-30 04:08:46.47	28.39	8.10	-41.6	-42.5	20.9	0.00e+00	0	41	0	275775488	54	4072
2026-01-30 04:08:47.47	28.35	8.17	-41.7	-42.6	20.8	0.00e+00	0	41	0	281018368	54	4142
2026-01-30 04:08:48.48	28.31	8.25	-41.8	-42.7	20.7	0.00e+00	0	41	0	287309824	54	4169
2026-01-30 04:08:49.49	28.26	8.33	-41.7	-42.7	20.8	0.00e+00	0	41	0	292552704	54	4158
2026-01-30 04:08:50.49	28.22	8.41	-41.6	-42.5	20.9	0.00e+00	0	41	0	298844160	54	4068
2026-01-30 04:08:51.50	28.17	8.49	-41.6	-42.6	20.9	0.00e+00	0	41	0	304087040	54	4108
2026-01-30 04:08:52.51	28.12	8.57	-41.7	-42.6	20.8	0.00e+00	0	41	0	309329920	54	4139
2026-01-30 04:08:53.51	28.08	8.65	-41.6	-42.5	20.9	0.00e+00	0	41	0	315621376	54	4062
2026-01-30 04:08:54.52	28.03	8.73	-41.5	-42.4	21.1	0.00e+00	0	41	0	321912832	54	4012
2026-01-30 04:08:55.52	27.99	8.81	-41.5	-42.4	21.1	0.00e+00	0	41	0	327155712	54	4014
2026-01-30 04:08:56.53	27.94	8.89	-41.3	-42.2	21.2	0.00e+00	0	41	0	332398592	54	3957
2026-01-30 04:08:57.54	27.89	8.97	-41.2	-42.1	21.3	0.00e+00	0	41	0	338690048	54	3890
2026-01-30 04:08:58.55	27.84	9.05	-41.2	-42.1	21.4	0.00e+00	0	41	0	343932928	54	3876
2026-01-30 04:08:59.56	27.80	9.13	-41.5	-42.4	21.1	0.00e+00	0	41	0	349175808	54	4013
2026-01-30 04:09:00.56	27.75	9.21	-41.3	-42.2	21.3	0.00e+00	0	41	0	355467264	54	3943
2026-01-30 04:09:01.57	27.70	9.29	-41.5	-42.4	21.1	0.00e+00	0	41	0	360710144	54	4012
2026-01-30 04:09:02.58	27.65	9.38	-41.3	-42.2	21.3	0.00e+00	0	41	0	365953024	54	3923
2026-01-30 04:09:03.58	27.60	9.46	-41.3	-42.2	21.3	0.00e+00	0	41	0	372244480	54	3926
2026-01-30 04:09:04.59	27.55	9.54	-41.3	-42.2	21.3	0.00e+00	0	41	0	377487360	54	3932
2026-01-30 04:09:05.60	27.50	9.62	-41.2	-42.1	21.4	0.00e+00	0	41	0	383778816	54	3873
2026-01-30 04:09:06.61	27.45	9.70	-40.9	-41.7	21.8	0.00e+00	0	41	0	389021696	53	3950
2026-01-30 04:09:07.62	27.40	9.79	-40.9	-41.8	21.7	0.00e+00	0	41	0	395313152	53	3960
2026-01-30 04:09:08.63	27.35	9.87	-40.9	-41.7	21.8	0.00e+00	0	41	0	400556032	53	3955
2026-01-30 04:09:09.63	27.30	9.95	-40.9	-41.7	21.8	0.00e+00	0	41	0	406847488	53	3943
2026-01-30 04:09:10.64	27.25	10.04	-40.8	-41.6	21.9	0.00e+00	0	41	0	412090368	53	3891
2026-01-30 04:09:11.65	27.20	10.12	-40.9	-41.8	21.7	0.00e+00	0	41	0	417333248	53	3967
2026-01-30 04:09:12.65	27.15	10.21	-40.8	-41.6	21.9	0.00e+00	0	41	0	423624704	53	3905
2026-01-30 04:09:13.66	27.10	10.29	-40.9	-41.7	21.8	0.00e+00	0	41	0	428867584	53	3942
2026-01-30 04:09:14.67	27.05	10.38	-40.7	-41.6	21.9	0.00e+00	0	41	0	434110464	53	3878
2026-01-30 04:09:15.68	26.99	10.46	-40.8	-41.6	21.9	0.00e+00	0	41	0	440401920	53	3908
2026-01-30 04:09:16.69	26.94	10.55	-40.6	-41.5	22.0	0.00e+00	0	41	0	445644800	53	3833
2026-01-30 04:09:17.69	26.89	10.63	-40.6	-41.4	22.1	0.00e+00	0	41	0	450887680	53	3820
2026-01-30 04:09:18.70	26.83	10.72	-40.6	-41.4	22.1	0.00e+00	0	41	0	457179136	53	3802
2026-01-30 04:09:19.70	26.78	10.80	-40.4	-41.2	22.3	0.00e+00	0	41	0	462422016	52	3942
2026-01-30 04:09:20.71	26.72	10.89	-40.5	-41.3	22.2	0.00e+00	0	41	0	468713472	52	3979
2026-01-30 04:09:21.71	26.67	10.98	-40.5	-41.3	22.3	0.00e+00	0	41	0	473956352	52	3979
2026-01-30 04:09:22.72	26.62	11.06	-40.4	-41.2	22.3	0.00e+00	0	41	0	480247808	52	3938
2026-01-30 04:09:23.73	26.56	11.15	-40.5	-41.4	22.2	0.00e+00	0	41	0	485490688	52	4010
2026-01-30 04:09:24.73	26.50	11.24	-40.5	-41.4	22.2	0.00e+00	0	41	0	491782144	52	4008
2026-01-30 04:09:25.74	26.45	11.33	-40.5	-41.4	22.2	0.00e+00	0	41	0	497025024	52	4011
2026-01-30 04:09:26.75	26.39	11.41	-40.5	-41.3	22.2	0.00e+00	0	41	0	502267904	52	4001
2026-01-30 04:09:27.75	26.34	11.50	-40.3	-41.1	22.5	0.00e+00	0	41	0	508559360	52	3899
2026-01-30 04:09:28.77	26.28	11.59	-40.4	-41.2	22.4	0.00e+00	0	41	0	513802240	52	3938
2026-01-30 04:09:29.77	26.22	11.68	-40.4	-41.2	22.4	0.00e+00	0	41	0	519045120	52	3916
2026-01-30 04:09:30.78	26.16	11.77	-40.3	-41.1	22.5	0.00e+00	0	41	0	525336576	52	3885
2026-01-30 04:09:31.79	26.10	11.86	-40.3	-41.1	22.5	0.00e+00	0	41	0	530579456	52	3890
2026-01-30 04:09:32.80	26.05	11.95	-40.4	-41.2	22.4	0.00e+00	0	41	0	535822336	52	3932
2026-01-30 04:09:33.81	25.99	12.04	-40.3	-41.1	22.5	0.00e+00	0	41	0	542113792	52	3890
2026-01-30 04:09:34.81	25.93	12.13	-40.3	-41.2	22.4	0.00e+00	0	41	0	547356672	52	3914
2026-01-30 04:09:35.82	25.87	12.22	-40.5	-41.4	22.3	0.00e+00	0	41	0	553648128	52	4009
2026-01-30 04:09:36.83	25.81	12.31	-40.3	-41.1	22.5	0.00e+00	0	41	0	558891008	52	3895
2026-01-30 04:09:37.83	25.75	12.40	-40.3	-41.1	22.5	0.00e+00	0	41	0	565182464	52	3895
2026-01-30 04:09:38.84	25.69	12.49	-40.3	-41.1	22.4	0.00e+00	0	41	0	570425344	52	3913
2026-01-30 04:09:39.85	25.62	12.59	-40.1	-40.9	22.7	0.00e+00	0	41	0	576716800	52	3820
2026-01-30 04:09:40.86	25.56	12.68	-40.1	-40.9	22.7	0.00e+00	0	41	0	581959680	52	3807
2026-01-30 04:09:41.86	25.50	12.77	-40.1	-40.9	22.7	0.00e+00	0	41	0	587202560	52	3794
2026-01-30 04:09:42.87	25.44	12.86	-40.1	-40.9	22.7	0.00e+00	0	41	0	593494016	52	3807
2026-01-30 04:09:43.87	25.38	12.96	-40.2	-41.0	22.6	0.00e+00	0	41	0	598736896	52	3845
2026-01-30 04:09:44.88	25.31	13.05	-40.1	-40.9	22.7	0.00e+00	0	41	0	603979776	52	3806
2026-01-30 04:09:45.88	25.25	13.14	-40.1	-40.9	22.7	0.00e+00	0	41	0	610271232	52	3804
2026-01-30 04:09:46.89	25.18	13.24	-40.1	-40.9	22.7	0.00e+00	0	41	0	615514112	52	3805
2026-01-30 04:09:47.89	25.12	13.33	-40.0	-40.8	22.8	0.00e+00	0	41	0	620756992	52	3768
2026-01-30 04:09:48.90	25.05	13.43	-40.1	-40.9	22.7	0.00e+00	0	41	0	627048448	52	3811
2026-01-30 04:09:49.91	24.99	13.52	-40.0	-40.7	23.0	0.00e+00	0	41	0	632291328	51	3955
2026-01-30 04:09:50.92	24.92	13.62	-40.0	-40.8	23.0	0.00e+00	0	41	0	638582784	51	3973
2026-01-30 04:09:51.92	24.86	13.71	-39.9	-40.7	23.0	0.00e+00	0	41	0	643825664	51	3931
2026-01-30 04:09:52.93	24.79	13.81	-39.9	-40.7	23.0	0.00e+00	0	41	0	650117120	51	3939
2026-01-30 04:09:53.94	24.72	13.91	-40.1	-40.8	22.9	0.00e+00	0	41	0	655360000	51	4001
2026-01-30 04:09:54.94	24.65	14.00	-40.0	-40.8	23.0	0.00e+00	0	41	0	661651456	51	3963
2026-01-30 04:09:55.95	24.58	14.10	-40.0	-40.8	22.9	0.00e+00	0	41	0	666894336	51	3996
2026-01-30 04:09:56.96	24.52	14.20	-39.9	-40.7	23.1	0.00e+00	0	41	0	672137216	51	3915
2026-01-30 04:09:57.96	24.45	14.30	-39.8	-40.6	23.2	0.00e+00	0	41	0	678428672	51	3870
2026-01-30 04:09:58.97	24.38	14.39	-39.9	-40.6	23.1	0.00e+00	0	41	0	683671552	51	3913
2026-01-30 04:09:59.98	24.31	14.49	-39.7	-40.4	23.3	0.00e+00	0	41	0	688914432	51	3818
2026-01-30 04:10:00.99	24.24	14.59	-39.8	-40.6	23.1	0.00e+00	0	41	0	695205888	51	3887
2026-01-30 04:10:01.99	24.16	14.69	-39.9	-40.6	23.1	0.00e+00	0	41	0	700448768	51	3908
2026-01-30 04:10:03.00	24.09	14.79	-39.8	-40.6	23.2	0.00e+00	0	41	0	705691648	51	3889
2026-01-30 04:10:04.01	24.02	14.89	-39.8	-40.6	23.1	0.00e+00	0	41	0	711983104	51	3874
2026-01-30 04:10:05.01	23.95	14.99	-39.8	-40.6	23.2	0.00e+00	0	41	0	717225984	51	3874
2026-01-30 04:10:06.02	23.87	15.09	-39.8	-40.6	23.2	0.00e+00	0	41	0	723517440	51	3879
2026-01-30 04:10:07.03	23.80	15.19	-39.8	-40.6	23.2	0.00e+00	0	41	0	728760320	51	3875
2026-01-30 04:10:08.04	23.73	15.30	-39.6	-40.3	23.4	0.00e+00	0	41	0	735051776	51	3779
2026-01-30 04:10:09.05	23.65	15.40	-39.6	-40.3	23.4	0.00e+00	0	41	0	740294656	51	3780
2026-01-30 04:10:10.05	23.58	15.50	-39.6	-40.3	23.4	0.00e+00	0	41	0	746586112	51	3769
2026-01-30 04:10:11.06	23.50	15.60	-39.5	-40.3	23.5	0.00e+00	0	41	0	751828992	51	3762
2026-01-30 04:10:12.06	23.42	15.70	-39.4	-40.2	23.6	0.00e+00	0	41	0	757071872	50	3917
2026-01-30 04:10:13.07	23.35	15.81	-39.3	-40.1	23.7	0.00e+00	0	41	0	763363328	50	3891
2026-01-30 04:10:14.08	23.27	15.91	-39.3	-40.1	23.7	0.00e+00	0	41	0	768606208	50	3881
2026-01-30 04:10:15.09	23.19	16.02	-39.2	-40.0	23.8	0.00e+00	0	41	0	773849088	50	3825
2026-01-30 04:10:16.10	23.11	16.12	-39.1	-39.8	23.9	0.00e+00	0	41	0	780140544	50	3765
2026-01-30 04:10:17.11	23.03	16.23	-39.2	-39.9	23.9	0.00e+00	0	41	0	785383424	50	3805
2026-01-30 04:10:18.12	22.95	16.33	-39.1	-39.9	23.9	0.00e+00	0	41	0	791674880	50	3788
2026-01-30 04:10:19.13	22.87	16.44	-39.1	-39.9	23.9	0.00e+00	0	41	0	796917760	50	3791
2026-01-30 04:10:20.13	22.79	16.54	-39.0	-39.7	24.1	0.00e+00	0	41	0	803209216	50	3726
2026-01-30 04:10:21.14	22.71	16.65	-39.0	-39.8	24.0	0.00e+00	0	41	0	808452096	50	3742
2026-01-30 04:10:22.15	22.62	16.76	-39.0	-39.7	24.1	0.00e+00	0	41	0	813694976	50	3720
2026-01-30 04:10:23.15	22.54	16.87	-38.9	-39.7	24.1	0.00e+00	0	41	0	819986432	49	3919
2026-01-30 04:10:24.16	22.46	16.97	-39.0	-39.7	24.1	0.00e+00	0	41	0	825229312	49	3947
2026-01-30 04:10:25.16	22.37	17.08	-38.9	-39.7	24.1	0.00e+00	0	41	0	831520768	49	3929
2026-01-30 04:10:26.16	22.29	17.19	-39.0	-39.7	24.1	0.00e+00	0	41	0	836763648	49	3942
2026-01-30 04:10:27.17	22.20	17.30	-39.0	-39.7	24.1	0.00e+00	0	41	0	842006528	49	3935
2026-01-30 04:10:28.18	22.12	17.41	-39.0	-39.7	24.1	0.00e+00	0	42	0	848297984	49	3942
2026-01-30 04:10:29.19	22.03	17.52	-39.0	-39.7	24.1	0.00e+00	0	41	0	853540864	49	3957
2026-01-30 04:10:30.19	21.94	17.63	-39.1	-39.8	24.0	0.00e+00	0	41	0	858783744	49	3994
2026-01-30 04:10:31.20	21.85	17.74	-39.0	-39.7	24.1	0.00e+00	0	41	0	865075200	49	3946
2026-01-30 04:10:32.20	21.77	17.85	-38.9	-39.6	24.1	0.00e+00	0	41	0	870318080	49	3912
2026-01-30 04:10:33.22	21.68	17.96	-38.9	-39.7	24.2	0.00e+00	0	41	0	876609536	49	3918
2026-01-30 04:10:34.22	21.59	18.07	-38.9	-39.6	24.2	0.00e+00	0	42	0	881852416	49	3888
2026-01-30 04:10:35.23	21.49	18.19	-38.8	-39.6	24.3	0.00e+00	0	41	0	888143872	49	3879
2026-01-30 04:10:36.24	21.40	18.30	-38.8	-39.5	24.3	0.00e+00	0	41	0	893386752	49	3863
2026-01-30 04:10:37.25	21.31	18.41	-38.8	-39.5	24.3	0.00e+00	0	41	0	898629632	49	3851
2026-01-30 04:10:38.25	21.22	18.53	-38.7	-39.5	24.3	0.00e+00	0	41	0	904921088	49	3831
2026-01-30 04:10:39.26	21.12	18.64	-38.8	-39.5	24.3	0.00e+00	0	41	0	910163968	49	3866
2026-01-30 04:10:40.26	21.03	18.75	-38.9	-39.6	24.2	0.00e+00	0	41	0	916455424	49	3899
2026-01-30 04:10:41.26	20.94	18.87	-38.8	-39.5	24.3	0.00e+00	0	41	0	921698304	49	3844
2026-01-30 04:10:42.27	20.84	18.98	-38.8	-39.5	24.3	0.00e+00	0	41	0	926941184	49	3868
2026-01-30 04:10:43.28	20.74	19.10	-38.8	-39.5	24.3	0.00e+00	0	41	0	933232640	49	3846
2026-01-30 04:10:44.29	20.64	19.22	-38.8	-39.5	24.3	0.00e+00	0	41	0	938475520	49	3863
2026-01-30 04:10:45.29	20.55	19.33	-38.8	-39.6	24.3	0.00e+00	0	41	0	943718400	49	3876
2026-01-30 04:10:46.30	20.45	19.45	-38.8	-39.6	24.3	0.00e+00	0	42	0	950009856	49	3871
2026-01-30 04:10:47.31	20.35	19.57	-38.8	-39.5	24.3	0.00e+00	0	41	0	955252736	49	3857
2026-01-30 04:10:48.31	20.25	19.69	-38.8	-39.5	24.4	0.00e+00	0	41	0	961544192	49	3859
2026-01-30 04:10:49.33	20.14	19.81	-38.9	-39.6	24.3	0.00e+00	0	41	0	966787072	49	3903
2026-01-30 04:10:50.33	20.04	19.93	-38.7	-39.4	24.5	0.00e+00	0	41	0	973078528	49	3811
2026-01-30 04:10:51.34	19.94	20.05	-38.6	-39.4	24.5	0.00e+00	0	41	0	978321408	49	3786
2026-01-30 04:10:52.34	19.84	20.17	-38.6	-39.4	24.5	0.00e+00	0	41	0	983564288	49	3788
2026-01-30 04:10:53.35	19.73	20.29	-38.6	-39.4	24.5	0.00e+00	0	41	0	989855744	49	3792
2026-01-30 04:10:54.36	19.62	20.41	-38.7	-39.5	24.4	0.00e+00	0	41	0	995098624	49	3828
2026-01-30 04:10:55.37	19.52	20.53	-38.3	-39.0	24.8	0.00e+00	0	41	0	1001390080	48	3838
2026-01-30 04:10:56.37	19.41	20.65	-38.2	-38.9	24.9	0.00e+00	0	41	0	1006632960	48	3791
2026-01-30 04:10:57.38	19.30	20.77	-38.3	-39.0	24.9	0.00e+00	0	41	0	1011875840	48	3838
2026-01-30 04:10:58.39	19.19	20.90	-38.2	-38.9	24.9	0.00e+00	0	41	0	1018167296	48	3814
2026-01-30 04:10:59.40	19.08	21.02	-37.6	-38.4	24.9	0.00e+00	0	41	0	1023410176	47	3786
2026-01-30 04:11:00.41	18.97	21.15	-37.6	-38.3	25.0	0.00e+00	0	41	0	1028653056	47	3767
2026-01-30 04:11:01.41	18.86	21.27	-37.7	-38.4	24.9	0.00e+00	0	41	0	1034944512	47	3802
2026-01-30 04:11:02.42	18.75	21.39	-37.6	-38.3	25.0	0.00e+00	0	41	0	1041235968	47	3777
2026-01-30 04:11:03.43	18.63	21.52	-37.6	-38.3	25.0	0.00e+00	0	41	0	1046478848	47	3749
2026-01-30 04:11:04.43	18.52	21.65	-37.6	-38.3	25.0	0.00e+00	0	41	0	1051721728	47	3758
2026-01-30 04:11:05.44	18.40	21.77	-37.6	-38.3	25.0	0.00e+00	0	41	0	1058013184	47	3752
2026-01-30 04:11:06.45	18.28	21.90	-37.6	-38.4	25.0	0.00e+00	0	41	0	1063256064	47	3783
2026-01-30 04:11:07.46	18.17	22.03	-37.5	-38.2	25.1	0.00e+00	0	41	0	1068498944	47	3715
2026-01-30 04:11:08.46	18.05	22.16	-37.6	-38.3	25.0	0.00e+00	0	41	0	1074790400	47	3759
2026-01-30 04:11:09.47	17.93	22.28	-37.6	-38.3	25.0	0.00e+00	0	41	0	1080033280	47	3771
2026-01-30 04:11:10.48	17.81	22.41	-37.6	-38.3	25.0	0.00e+00	0	41	0	1086324736	47	3764
2026-01-30 04:11:11.49	17.68	22.54	-37.5	-38.2	25.1	0.00e+00	0	41	0	1091567616	47	3736
2026-01-30 04:11:12.50	17.56	22.67	-37.7	-38.4	25.0	0.00e+00	0	41	0	1096810496	47	3802
2026-01-30 04:11:13.51	17.44	22.81	-37.6	-38.3	25.0	0.00e+00	0	41	0	1103101952	47	3768
2026-01-30 04:11:14.52	17.31	22.94	-37.5	-38.3	25.1	0.00e+00	0	41	0	1109393408	47	3746
2026-01-30 04:11:15.52	17.19	23.07	-37.4	-38.2	25.2	0.00e+00	0	41	0	1114636288	46	3918
2026-01-30 04:11:16.53	17.06	23.20	-37.4	-38.2	25.2	0.00e+00	0	41	0	1119879168	46	3923
2026-01-30 04:11:17.54	16.93	23.33	-37.5	-38.3	25.1	0.00e+00	0	41	0	1126170624	46	3971
2026-01-30 04:11:18.54	16.80	23.47	-37.6	-38.3	25.1	0.00e+00	0	41	0	1131413504	46	3979
2026-01-30 04:11:19.55	16.67	23.60	-37.4	-38.2	25.2	0.00e+00	0	41	0	1136656384	46	3925
2026-01-30 04:11:20.56	16.54	23.74	-37.5	-38.2	25.2	0.00e+00	0	41	0	1142947840	46	3946
2026-01-30 04:11:21.56	16.41	23.87	-37.4	-38.1	25.2	0.00e+00	0	41	0	1148190720	46	3906
2026-01-30 04:11:22.56	16.27	24.00	-37.4	-38.1	25.3	0.00e+00	0	41	0	1153433600	46	3877
2026-01-30 04:11:23.57	16.14	24.14	-37.3	-38.0	25.3	0.00e+00	0	41	0	1159725056	46	3866
2026-01-30 04:11:24.58	16.00	24.28	-37.4	-38.1	25.2	0.00e+00	0	41	0	1164967936	46	3897
2026-01-30 04:11:25.59	15.86	24.41	-37.4	-38.1	25.2	0.00e+00	0	41	0	1171259392	46	3906
2026-01-30 04:11:26.60	15.72	24.55	-37.4	-38.1	25.3	0.00e+00	0	41	0	1176502272	46	3902
2026-01-30 04:11:27.60	15.58	24.69	-37.4	-38.1	25.2	0.00e+00	0	41	0	1181745152	46	3896
2026-01-30 04:11:28.61	15.44	24.83	-37.4	-38.1	25.3	0.00e+00	0	41	0	1188036608	46	3907
2026-01-30 04:11:29.62	15.30	24.97	-37.4	-38.1	25.3	0.00e+00	0	41	0	1194328064	46	3898
2026-01-30 04:11:30.63	15.15	25.11	-37.3	-38.0	25.3	0.00e+00	0	41	0	1199570944	46	3856
2026-01-30 04:11:31.64	15.01	25.25	-37.3	-38.0	25.4	0.00e+00	0	41	0	1204813824	46	3847
2026-01-30 04:11:32.64	14.86	25.39	-37.3	-38.0	25.4	0.00e+00	0	41	0	1211105280	46	3845
2026-01-30 04:11:33.65	14.71	25.53	-37.2	-37.9	25.4	0.00e+00	0	41	0	1216348160	46	3821
2026-01-30 04:11:34.65	14.56	25.67	-37.2	-37.9	25.4	0.00e+00	0	41	0	1221591040	46	3822
2026-01-30 04:11:35.66	14.41	25.81	-37.0	-37.7	25.6	0.00e+00	0	41	0	1227882496	46	3733
2026-01-30 04:11:36.67	14.26	25.96	-37.0	-37.7	25.6	0.00e+00	0	41	0	1233125376	46	3723
2026-01-30 04:11:37.68	14.11	26.10	-36.9	-37.6	25.7	0.00e+00	0	41	0	1238368256	45	3909
2026-01-30 04:11:38.69	13.95	26.25	-36.8	-37.4	25.8	0.00e+00	0	41	0	1244659712	45	3821
2026-01-30 04:11:39.70	13.79	26.39	-36.8	-37.5	25.9	0.00e+00	0	41	0	1249902592	45	3825
2026-01-30 04:11:40.70	13.64	26.53	-36.8	-37.5	25.8	0.00e+00	0	41	0	1256194048	45	3837
2026-01-30 04:11:41.71	13.48	26.68	-36.7	-37.4	25.9	0.00e+00	0	41	0	1261436928	45	3806
2026-01-30 04:11:42.72	13.31	26.83	-36.7	-37.4	25.8	0.00e+00	0	41	0	1267728384	45	3823
2026-01-30 04:11:43.73	13.15	26.97	-36.7	-37.4	25.9	0.00e+00	0	41	0	1272971264	45	3798
2026-01-30 04:11:44.73	12.99	27.12	-36.8	-37.5	25.8	0.00e+00	0	41	0	1279262720	45	3857
2026-01-30 04:11:45.74	12.82	27.27	-36.8	-37.5	25.8	0.00e+00	0	41	0	1284505600	45	3858
2026-01-30 04:11:46.74	12.66	27.42	-36.9	-37.6	25.8	0.00e+00	0	41	0	1289748480	45	3881
2026-01-30 04:11:47.75	12.49	27.56	-36.9	-37.6	25.7	0.00e+00	0	41	0	1296039936	45	3900
2026-01-30 04:11:48.77	12.31	27.72	-36.9	-37.7	25.7	0.00e+00	0	41	0	1301282816	45	3920
2026-01-30 04:11:49.77	12.14	27.86	-37.1	-37.8	25.6	0.00e+00	0	41	0	1306525696	45	3967
2026-01-30 04:11:50.78	11.97	28.02	-37.1	-37.8	25.6	0.00e+00	0	41	0	1312817152	45	3994
2026-01-30 04:11:51.79	11.79	28.17	-37.1	-37.8	25.6	0.00e+00	0	41	0	1318060032	45	3975
2026-01-30 04:11:52.80	11.62	28.32	-37.0	-37.7	25.6	0.00e+00	0	41	0	1324351488	45	3949
2026-01-30 04:11:53.81	11.44	28.47	-36.9	-37.6	25.7	0.00e+00	0	41	0	1329594368	45	3900
2026-01-30 04:11:54.82	11.25	28.62	-36.8	-37.4	25.9	0.00e+00	0	41	0	1335885824	45	3824
2026-01-30 04:11:55.83	11.07	28.78	-36.7	-37.4	26.0	0.00e+00	0	41	0	1341128704	45	3797
2026-01-30 04:11:56.84	10.89	28.93	-36.7	-37.4	25.9	0.00e+00	0	41	0	1346371584	45	3819
2026-01-30 04:11:57.85	10.70	29.09	-36.6	-37.3	26.0	0.00e+00	0	41	0	1352663040	45	3764
2026-01-30 04:11:58.86	10.51	29.24	-36.7	-37.4	26.0	0.00e+00	0	42	0	1357905920	45	3785
2026-01-30 04:11:59.87	10.32	29.40	-36.7	-37.4	26.0	0.00e+00	0	41	0	1364197376	45	3801
2026-01-30 04:12:00.88	10.13	29.55	-36.7	-37.4	26.0	0.00e+00	0	41	0	1369440256	45	3813
2026-01-30 04:12:01.89	9.94	29.71	-36.8	-37.5	25.9	0.00e+00	0	41	0	1374683136	45	3838
2026-01-30 04:12:02.89	9.74	29.86	-36.8	-37.5	25.9	0.00e+00	0	41	0	1380974592	45	3841
2026-01-30 04:12:03.90	9.54	30.02	-36.8	-37.5	25.9	0.00e+00	0	41	0	1386217472	45	3852
2026-01-30 04:12:04.91	9.34	30.18	-36.7	-37.4	26.0	0.00e+00	0	42	0	1391460352	45	3801
2026-01-30 04:12:05.92	9.14	30.34	-36.6	-37.3	26.1	0.00e+00	0	42	0	1397751808	45	3744
2026-01-30 04:12:06.93	8.94	30.50	-36.5	-37.2	26.2	0.00e+00	0	41	0	1404043264	45	3720
2026-01-30 04:12:07.94	8.73	30.65	-36.6	-37.3	26.1	0.00e+00	0	41	0	1409286144	45	3767
2026-01-30 04:12:08.95	8.53	30.81	-36.6	-37.3	26.1	0.00e+00	0	41	0	1414529024	45	3770
2026-01-30 04:12:09.96	8.32	30.97	-36.6	-37.3	26.1	0.00e+00	0	41	0	1420820480	45	3765
2026-01-30 04:12:10.96	8.11	31.13	-36.7	-37.4	26.0	0.00e+00	0	41	0	1426063360	45	3789
2026-01-30 04:12:11.97	7.89	31.29	-36.5	-37.2	26.1	0.00e+00	0	41	0	1432354816	45	3726
2026-01-30 04:12:12.98	7.67	31.46	-36.6	-37.3	26.1	0.00e+00	0	41	0	1437597696	45	3761
2026-01-30 04:12:13.99	7.46	31.62	-36.5	-37.2	26.2	0.00e+00	0	41	0	1442840576	45	3719
2026-01-30 04:12:14.99	7.24	31.78	-36.5	-37.1	26.3	0.00e+00	0	41	0	1449132032	44	3904
2026-01-30 04:12:16.00	7.01	31.94	-36.5	-37.2	26.2	0.00e+00	0	41	0	1454374912	44	3931
2026-01-30 04:12:17.00	6.79	32.10	-36.6	-37.2	26.2	0.00e+00	0	41	0	1459617792	44	3956
2026-01-30 04:12:18.01	6.56	32.27	-36.6	-37.2	26.2	0.00e+00	0	41	0	1465909248	44	3950
2026-01-30 04:12:19.02	6.33	32.43	-36.6	-37.3	26.1	0.00e+00	0	42	0	1472200704	44	3986
2026-01-30 04:12:20.03	6.10	32.59	-36.8	-37.5	26.0	0.00e+00	0	41	0	1477443584	44	4079
2026-01-30 04:12:21.03	5.87	32.76	-36.9	-37.6	25.9	0.00e+00	0	41	0	1482686464	44	4125
2026-01-30 04:12:22.04	5.63	32.92	-36.8	-37.5	26.0	0.00e+00	0	42	0	1488977920	44	4088
2026-01-30 04:12:23.04	5.39	33.08	-36.7	-37.4	26.1	0.00e+00	0	41	0	1494220800	44	4014
2026-01-30 04:12:24.05	5.15	33.25	-36.6	-37.3	26.2	0.00e+00	0	42	0	1499463680	44	3969
2026-01-30 04:12:25.07	4.90	33.42	-36.6	-37.3	26.1	0.00e+00	0	41	0	1505755136	44	3985
2026-01-30 04:12:26.08	4.66	33.58	-36.4	-37.0	26.4	0.00e+00	0	41	0	1510998016	44	3859
2026-01-30 04:12:27.08	4.41	33.75	-36.4	-37.0	26.3	0.00e+00	0	41	0	1517289472	44	3868
2026-01-30 04:12:28.09	4.16	33.91	-36.5	-37.1	26.3	0.00e+00	0	41	0	1522532352	44	3913
2026-01-30 04:12:29.10	3.90	34.08	-36.5	-37.2	26.2	0.00e+00	0	41	0	1527775232	44	3936
2026-01-30 04:12:30.10	3.65	34.25	-36.7	-37.4	26.1	0.00e+00	0	41	0	1534066688	44	4022
2026-01-30 04:12:31.11	3.39	34.41	-36.6	-37.2	26.2	0.00e+00	0	41	0	1539309568	44	3957
2026-01-30 04:12:32.12	3.12	34.58	-36.6	-37.2	26.2	0.00e+00	0	41	0	1545601024	44	3953
2026-01-30 04:12:33.12	2.86	34.75	-36.4	-37.1	26.3	0.00e+00	0	41	0	1550843904	44	3907
2026-01-30 04:12:34.13	2.59	34.92	-36.5	-37.2	26.3	0.00e+00	0	41	0	1557135360	44	3919
2026-01-30 04:12:35.14	2.32	35.08	-36.5	-37.2	26.3	0.00e+00	0	41	0	1562378240	44	3921
2026-01-30 04:12:36.15	2.05	35.25	-36.4	-37.1	26.3	0.00e+00	0	41	0	1567621120	44	3903
2026-01-30 04:12:37.16	1.77	35.42	-36.5	-37.2	26.2	0.00e+00	0	42	0	1573912576	44	3949
2026-01-30 04:12:38.16	1.49	35.59	-36.7	-37.4	26.1	0.00e+00	0	41	0	1579155456	44	4018
2026-01-30 04:12:39.17	1.21	35.76	-36.7	-37.4	26.1	0.00e+00	0	41	0	1584398336	44	4046
2026-01-30 04:12:40.18	0.92	35.93	-36.7	-37.4	26.1	0.00e+00	0	41	0	1590689792	44	4023
2026-01-30 04:12:41.18	0.64	36.09	-36.7	-37.4	26.1	0.00e+00	0	41	0	1595932672	44	4008
2026-01-30 04:12:42.19	0.35	36.26	-36.5	-37.2	26.3	0.00e+00	0	41	0	1602224128	44	3933
2026-01-30 04:12:43.20	0.05	36.43	-36.6	-37.2	26.2	0.00e+00	0	41	0	1607467008	44	3953
2026-01-30 04:12:44.20	359.76	36.60	-36.6	-37.3	26.2	0.00e+00	0	41	0	1612709888	44	3970
2026-01-30 04:12:45.20	359.46	36.76	-36.7	-37.4	26.2	0.00e+00	0	41	0	1619001344	44	4017
2026-01-30 04:12:46.21	359.15	36.93	-36.7	-37.4	26.2	0.00e+00	0	42	0	1624244224	44	4024
2026-01-30 04:12:47.22	358.85	37.10	-36.7	-37.4	26.2	0.00e+00	0	41	0	1630535680	44	4037
2026-01-30 04:12:48.23	358.53	37.27	-36.7	-37.4	26.1	0.00e+00	0	41	0	1635778560	44	4026
2026-01-30 04:12:49.23	358.22	37.44	-36.6	-37.3	26.2	0.00e+00	0	42	0	1642070016	44	3971
2026-01-30 04:12:50.24	357.91	37.61	-36.5	-37.2	26.3	0.00e+00	0	41	0	1647312896	44	3930
2026-01-30 04:12:51.24	357.59	37.77	-36.5	-37.2	26.4	0.00e+00	0	41	0	1652555776	44	3940
2026-01-30 04:12:52.25	357.27	37.94	-36.6	-37.2	26.3	0.00e+00	0	41	0	1658847232	44	3952
2026-01-30 04:12:53.26	356.94	38.11	-36.5	-37.2	26.3	0.00e+00	0	41	0	1664090112	44	3948
2026-01-30 04:12:54.26	356.61	38.27	-36.5	-37.2	26.3	0.00e+00	0	41	0	1669332992	44	3941
2026-01-30 04:12:55.27	356.28	38.44	-36.6	-37.3	26.3	0.00e+00	0	41	0	1675624448	44	3970
2026-01-30 04:12:56.28	355.94	38.61	-36.6	-37.2	26.3	0.00e+00	0	41	0	1680867328	44	3948
2026-01-30 04:12:57.29	355.60	38.78	-36.7	-37.4	26.2	0.00e+00	0	41	0	1687158784	44	4009
2026-01-30 04:12:58.30	355.25	38.94	-36.8	-37.5	26.1	0.00e+00	0	42	0	1692401664	44	4083
2026-01-30 04:12:59.31	354.90	39.11	-36.9	-37.6	26.0	0.00e+00	0	41	0	1697644544	44	4121
2026-01-30 04:13:00.31	354.56	39.27	-36.9	-37.6	26.0	0.00e+00	0	42	0	1703936000	44	4111
2026-01-30 04:13:01.32	354.20	39.44	-36.9	-37.6	26.0	0.00e+00	0	41	0	1710227456	44	4127
2026-01-30 04:13:02.33	353.84	39.60	-36.9	-37.5	26.1	0.00e+00	0	41	0	1715470336	44	4092
2026-01-30 04:13:03.33	353.48	39.76	-36.7	-37.4	26.2	0.00e+00	0	41	0	1720713216	44	4033
2026-01-30 04:13:04.34	353.12	39.93	-36.7	-37.4	26.2	0.00e+00	0	41	0	1727004672	44	4038
2026-01-30 04:13:05.35	352.74	40.09	-36.8	-37.5	26.1	0.00e+00	0	41	0	1732247552	44	4081
2026-01-30 04:13:06.36	352.37	40.25	-36.4	-37.1	26.4	0.00e+00	0	41	0	1737490432	44	3904
2026-01-30 04:13:07.36	352.00	40.41	-36.5	-37.1	26.5	0.00e+00	0	41	0	1743781888	44	3903
2026-01-30 04:13:08.37	351.62	40.57	-36.5	-37.2	26.4	0.00e+00	0	41	0	1749024768	44	3923
2026-01-30 04:13:09.38	351.23	40.73	-36.7	-37.4	26.3	0.00e+00	0	41	0	1754267648	44	4010
2026-01-30 04:13:10.38	350.84	40.89	-36.8	-37.5	26.2	0.00e+00	0	42	0	1760559104	44	4074
2026-01-30 04:13:11.39	350.45	41.05	-36.9	-37.6	26.1	0.00e+00	0	41	0	1765801984	44	4110
2026-01-30 04:13:12.40	350.05	41.21	-36.8	-37.5	26.1	0.00e+00	0	41	0	1772093440	44	4088
2026-01-30 04:13:13.41	349.65	41.36	-36.7	-37.4	26.3	0.00e+00	0	41	0	1777336320	44	4016
2026-01-30 04:13:14.42	349.25	41.52	-36.4	-37.1	26.5	0.00e+00	0	41	0	1783627776	44	3890
2026-01-30 04:13:15.42	348.84	41.67	-36.3	-37.0	26.6	0.00e+00	0	42	0	1788870656	44	3829
2026-01-30 04:13:16.44	348.43	41.83	-36.4	-37.1	26.5	0.00e+00	0	41	0	1795162112	44	3886
2026-01-30 04:13:17.45	348.01	41.98	-36.4	-37.1	26.5	0.00e+00	0	41	0	1800404992	44	3895
2026-01-30 04:13:18.45	347.59	42.13	-36.5	-37.2	26.4	0.00e+00	0	41	0	1805647872	44	3939
2026-01-30 04:13:19.46	347.17	42.28	-36.5	-37.2	26.4	0.00e+00	0	41	0	1811939328	44	3945
2026-01-30 04:13:20.47	346.74	42.43	-36.6	-37.2	26.4	0.00e+00	0	41	0	1817182208	44	3950
2026-01-30 04:13:21.48	346.31	42.58	-36.6	-37.3	26.4	0.00e+00	0	41	0	1822425088	44	3968
2026-01-30 04:13:22.48	345.88	42.72	-36.8	-37.5	26.1	0.00e+00	0	42	0	1828716544	44	4077
2026-01-30 04:13:23.49	345.44	42.87	-36.9	-37.6	26.1	0.00e+00	0	42	0	1833959424	44	4135
2026-01-30 04:13:24.50	344.99	43.01	-37.0	-37.7	26.0	0.00e+00	0	42	0	1839202304	44	4152
2026-01-30 04:13:25.51	344.54	43.16	-36.9	-37.5	26.1	0.00e+00	0	42	0	1845493760	44	4095
2026-01-30 04:13:26.52	344.09	43.30	-36.9	-37.6	26.1	0.00e+00	0	42	0	1851785216	44	4108
2026-01-30 04:13:27.52	343.64	43.44	-36.9	-37.6	26.2	0.00e+00	0	41	0	1857028096	44	4112
2026-01-30 04:13:28.54	343.17	43.57	-36.8	-37.5	26.2	0.00e+00	0	41	0	1862270976	44	4079
2026-01-30 04:13:29.55	342.71	43.71	-36.8	-37.5	26.2	0.00e+00	0	41	0	1868562432	44	4078
2026-01-30 04:13:30.56	342.24	43.85	-36.7	-37.4	26.3	0.00e+00	0	41	0	1873805312	44	4030
2026-01-30 04:13:31.57	341.77	43.98	-36.9	-37.6	26.2	0.00e+00	0	41	0	1880096768	44	4119
2026-01-30 04:13:32.57	341.29	44.11	-36.8	-37.5	26.2	0.00e+00	0	42	0	1885339648	44	4072
2026-01-30 04:13:33.59	340.81	44.24	-36.7	-37.4	26.3	0.00e+00	0	42	0	1890582528	44	4037
2026-01-30 04:13:34.60	340.32	44.37	-36.7	-37.4	26.3	0.00e+00	0	41	0	1896873984	44	4026
2026-01-30 04:13:35.61	339.83	44.49	-36.8	-37.5	26.2	0.00e+00	0	41	0	1902116864	44	4054
2026-01-30 04:13:36.61	339.35	44.62	-36.6	-37.3	26.4	0.00e+00	0	41	0	1907359744	44	3990
2026-01-30 04:13:37.62	338.85	44.74	-36.8	-37.5	26.3	0.00e+00	0	41	0	1913651200	44	4060
2026-01-30 04:13:38.63	338.35	44.86	-37.0	-37.7	26.1	0.00e+00	0	41	0	1919942656	44	4171
2026-01-30 04:13:39.64	337.85	44.98	-37.1	-37.8	26.0	0.00e+00	0	42	0	1925185536	44	4223
2026-01-30 04:13:40.65	337.34	45.09	-37.1	-37.8	26.0	0.00e+00	0	41	0	1930428416	44	4197
2026-01-30 04:13:41.66	336.83	45.21	-37.1	-37.8	26.0	0.00e+00	0	41	0	1936719872	44	4232
2026-01-30 04:13:42.66	336.32	45.32	-37.1	-37.8	26.0	0.00e+00	0	41	0	1941962752	44	4221
2026-01-30 04:13:43.67	335.80	45.43	-37.0	-37.7	26.1	0.00e+00	0	41	0	1947205632	44	4188
2026-01-30 04:13:44.68	335.28	45.53	-36.9	-37.6	26.2	0.00e+00	0	41	0	1953497088	44	4130
2026-01-30 04:13:45.68	334.76	45.63	-36.9	-37.6	26.2	0.00e+00	0	41	0	1958739968	44	4125
2026-01-30 04:13:46.69	334.23	45.74	-37.1	-37.7	26.0	0.00e+00	0	41	0	1965031424	44	4191
2026-01-30 04:13:47.69	333.70	45.84	-36.9	-37.6	26.2	0.00e+00	0	41	0	1970274304	44	4104
2026-01-30 04:13:48.70	333.17	45.93	-37.0	-37.7	26.1	0.00e+00	0	41	0	1975517184	44	4170
2026-01-30 04:13:49.71	332.63	46.03	-37.0	-37.7	26.1	0.00e+00	0	41	0	1981808640	44	4183
2026-01-30 04:13:50.71	332.09	46.12	-37.1	-37.7	26.1	0.00e+00	0	41	0	1987051520	44	4190
2026-01-30 04:13:51.72	331.55	46.21	-36.9	-37.6	26.2	0.00e+00	0	41	0	1993342976	44	4138
2026-01-30 04:13:52.73	331.00	46.29	-36.9	-37.6	26.2	0.00e+00	0	41	0	1998585856	44	4137
2026-01-30 04:13:53.73	330.45	46.38	-36.9	-37.6	26.2	0.00e+00	0	41	0	2004877312	44	4112
2026-01-30 04:13:54.74	329.90	46.46	-37.0	-37.7	26.1	0.00e+00	0	41	0	2010120192	44	4178
2026-01-30 04:13:55.74	329.35	46.53	-37.0	-37.6	26.2	0.00e+00	0	41	0	2015363072	44	4144
2026-01-30 04:13:56.75	328.79	46.61	-37.1	-37.8	26.1	0.00e+00	0	41	0	2021654528	44	4194
2026-01-30 04:13:57.76	328.22	46.68	-37.2	-37.9	26.0	0.00e+00	0	41	0	2026897408	44	4247
2026-01-30 04:13:58.77	327.66	46.75	-37.1	-37.8	26.1	0.00e+00	0	41	0	2032140288	44	4213
2026-01-30 04:13:59.78	327.09	46.82	-37.2	-37.9	26.0	0.00e+00	0	41	0	2038431744	45	4028
2026-01-30 04:14:00.79	326.52	46.88	-37.3	-38.0	25.9	0.00e+00	0	41	0	2043674624	45	4091
2026-01-30 04:14:01.80	325.95	46.94	-37.6	-38.3	25.7	0.00e+00	0	41	0	2049966080	45	4207
2026-01-30 04:14:02.80	325.38	47.00	-37.5	-38.3	25.7	0.00e+00	0	41	0	2055208960	45	4195
2026-01-30 04:14:03.81	324.80	47.05	-37.3	-38.0	25.9	0.00e+00	0	41	0	2060451840	45	4081
2026-01-30 04:14:04.81	324.23	47.10	-37.4	-38.1	25.9	0.00e+00	0	41	0	2066743296	45	4100
2026-01-30 04:14:05.82	323.65	47.15	-37.3	-38.0	25.9	0.00e+00	0	41	0	2073034752	45	4058
2026-01-30 04:14:06.83	323.07	47.20	-37.2	-37.9	26.0	0.00e+00	0	41	0	2078277632	45	4012
2026-01-30 04:14:07.83	322.49	47.24	-37.2	-37.9	26.0	0.00e+00	0	41	0	2083520512	45	4033
2026-01-30 04:14:08.84	321.91	47.28	-37.3	-38.0	25.9	0.00e+00	0	41	0	2089811968	45	4056
2026-01-30 04:14:09.85	321.32	47.31	-37.3	-38.0	25.9	0.00e+00	0	41	0	2095054848	45	4085
2026-01-30 04:14:10.86	320.73	47.34	-37.6	-38.3	25.7	0.00e+00	0	41	0	2100297728	45	4197
2026-01-30 04:14:11.86	320.15	47.37	-37.4	-38.1	25.8	0.00e+00	0	41	0	2106589184	45	4108
2026-01-30 04:14:12.87	319.56	47.40	-37.4	-38.1	25.8	0.00e+00	0	41	0	2111832064	45	4123
2026-01-30 04:14:13.88	318.97	47.42	-37.4	-38.1	25.9	0.00e+00	0	41	0	2117074944	45	4113
2026-01-30 04:14:14.88	318.38	47.44	-37.4	-38.1	25.9	0.00e+00	0	41	0	2123366400	45	4106
2026-01-30 04:14:15.89	317.79	47.45	-37.4	-38.1	25.8	0.00e+00	0	41	0	2128609280	45	4142
2026-01-30 04:14:16.90	317.20	47.46	-37.3	-38.0	26.0	0.00e+00	0	42	0	2134900736	45	4055
2026-01-30 04:14:17.90	316.61	47.47	-37.4	-38.1	25.9	0.00e+00	0	41	0	2140143616	45	4103
2026-01-30 04:14:18.91	316.01	47.48	-37.1	-37.8	26.1	0.00e+00	0	41	0	2145386496	45	3991
2026-01-30 04:14:19.92	315.42	47.48	-37.0	-37.7	26.2	0.00e+00	0	42	0	2151677952	45	3931
2026-01-30 04:14:20.92	314.83	47.48	-36.9	-37.5	26.3	0.00e+00	0	41	0	2157969408	45	3866
2026-01-30 04:14:21.93	314.24	47.48	-36.9	-37.5	26.3	0.00e+00	0	41	0	2163212288	45	3868
2026-01-30 04:14:22.94	313.65	47.47	-36.8	-37.5	26.4	0.00e+00	0	42	0	2168455168	45	3846
2026-01-30 04:14:23.94	313.06	47.46	-36.9	-37.6	26.3	0.00e+00	0	41	0	2174746624	45	3890
2026-01-30 04:14:24.95	312.47	47.44	-37.0	-37.7	26.2	0.00e+00	0	42	0	2179989504	45	3931
2026-01-30 04:14:25.96	311.87	47.42	-37.3	-38.0	26.0	0.00e+00	0	41	0	2185232384	45	4053
2026-01-30 04:14:26.97	311.28	47.40	-37.3	-38.0	26.0	0.00e+00	0	41	0	2191523840	45	4067
2026-01-30 04:14:27.97	310.70	47.38	-37.5	-38.2	25.8	0.00e+00	0	41	0	2196766720	45	4160
2026-01-30 04:14:28.98	310.11	47.35	-37.5	-38.2	25.7	0.00e+00	0	41	0	2202009600	45	4189
2026-01-30 04:14:29.99	309.52	47.32	-37.4	-38.1	25.9	0.00e+00	0	41	0	2208301056	45	4125
2026-01-30 04:14:31.00	308.93	47.28	-37.4	-38.1	25.9	0.00e+00	0	41	0	2213543936	45	4116
2026-01-30 04:14:32.01	308.35	47.25	-37.4	-38.0	25.9	0.00e+00	0	41	0	2219835392	45	4097
2026-01-30 04:14:33.01	307.77	47.21	-37.4	-38.1	25.9	0.00e+00	0	41	0	2225078272	45	4121
2026-01-30 04:14:34.02	307.19	47.16	-37.1	-37.8	26.1	0.00e+00	0	41	0	2231369728	45	3972
2026-01-30 04:14:35.02	306.61	47.11	-36.9	-37.6	26.3	0.00e+00	0	41	0	2236612608	45	3869
2026-01-30 04:14:36.03	306.03	47.06	-37.2	-37.9	26.1	0.00e+00	0	41	0	2242904064	45	4006
2026-01-30 04:14:37.04	305.46	47.01	-37.4	-38.1	25.9	0.00e+00	0	41	0	2248146944	45	4131
2026-01-30 04:14:38.05	304.88	46.95	-37.4	-38.1	25.9	0.00e+00	0	41	0	2253389824	45	4118
2026-01-30 04:14:39.06	304.31	46.89	-37.3	-38.0	26.0	0.00e+00	0	41	0	2259681280	45	4071
2026-01-30 04:14:40.06	303.74	46.83	-37.3	-38.0	26.0	0.00e+00	0	41	0	2264924160	45	4076
2026-01-30 04:14:41.07	303.17	46.77	-37.4	-38.1	25.9	0.00e+00	0	41	0	2270167040	45	4119
2026-01-30 04:14:42.08	302.61	46.70	-37.4	-38.1	25.9	0.00e+00	0	41	0	2276458496	45	4134
2026-01-30 04:14:43.09	302.05	46.63	-37.3	-38.0	26.0	0.00e+00	0	41	0	2281701376	45	4052
2026-01-30 04:14:44.09	301.49	46.55	-37.1	-37.8	26.1	0.00e+00	0	41	0	2286944256	45	3987
2026-01-30 04:14:45.10	300.93	46.47	-37.1	-37.8	26.1	0.00e+00	0	41	0	2293235712	45	3997
2026-01-30 04:14:46.11	300.38	46.39	-37.0	-37.7	26.2	0.00e+00	0	42	0	2298478592	45	3952
2026-01-30 04:14:47.12	299.82	46.31	-37.0	-37.7	26.2	0.00e+00	0	41	0	2304770048	45	3942
2026-01-30 04:14:48.13	299.27	46.22	-36.9	-37.6	26.3	0.00e+00	0	41	0	2310012928	45	3879
2026-01-30 04:14:49.14	298.73	46.14	-37.0	-37.7	26.3	0.00e+00	0	41	0	2316304384	45	3916
2026-01-30 04:14:50.15	298.18	46.05	-36.9	-37.6	26.3	0.00e+00	0	41	0	2321547264	45	3898
2026-01-30 04:14:51.16	297.64	45.95	-37.0	-37.7	26.3	0.00e+00	0	42	0	2327838720	45	3922
2026-01-30 04:14:52.17	297.11	45.85	-37.0	-37.6	26.3	0.00e+00	0	41	0	2333081600	45	3911
2026-01-30 04:14:53.18	296.57	45.76	-36.8	-37.5	26.4	0.00e+00	0	41	0	2338324480	45	3846
2026-01-30 04:14:54.19	296.04	45.65	-36.8	-37.5	26.4	0.00e+00	0	41	0	2344615936	45	3847
2026-01-30 04:14:55.20	295.52	45.55	-37.0	-37.7	26.2	0.00e+00	0	41	0	2349858816	45	3951
2026-01-30 04:14:56.21	294.99	45.44	-37.0	-37.7	26.2	0.00e+00	0	41	0	2355101696	45	3953
2026-01-30 04:14:57.22	294.47	45.34	-36.9	-37.6	26.3	0.00e+00	0	42	0	2361393152	45	3889
2026-01-30 04:14:58.23	293.96	45.22	-36.9	-37.6	26.4	0.00e+00	0	41	0	2367684608	45	3870
2026-01-30 04:14:59.24	293.45	45.11	-36.9	-37.6	26.3	0.00e+00	0	41	0	2372927488	45	3889
2026-01-30 04:15:00.25	292.94	45.00	-37.0	-37.7	26.2	0.00e+00	0	42	0	2378170368	45	3937
2026-01-30 04:15:01.25	292.44	44.88	-37.0	-37.7	26.3	0.00e+00	0	42	0	2384461824	45	3927
2026-01-30 04:15:02.26	291.94	44.76	-37.0	-37.7	26.2	0.00e+00	0	41	0	2389704704	45	3925
2026-01-30 04:15:03.27	291.44	44.64	-37.1	-37.7	26.2	0.00e+00	0	41	0	2394947584	45	3953
2026-01-30 04:15:04.28	290.94	44.51	-36.9	-37.6	26.3	0.00e+00	0	41	0	2401239040	45	3883
2026-01-30 04:15:05.29	290.45	44.39	-37.0	-37.7	26.3	0.00e+00	0	41	0	2406481920	45	3919
2026-01-30 04:15:06.30	289.97	44.26	-36.9	-37.6	26.3	0.00e+00	0	41	0	2412773376	45	3901
2026-01-30 04:15:07.30	289.49	44.13	-36.8	-37.5	26.4	0.00e+00	0	41	0	2418016256	45	3846
2026-01-30 04:15:08.31	289.01	44.00	-36.7	-37.3	26.5	0.00e+00	0	41	0	2423259136	45	3775
2026-01-30 04:15:09.32	288.54	43.87	-36.8	-37.5	26.4	0.00e+00	0	41	0	2429550592	45	3829
2026-01-30 04:15:10.33	288.07	43.73	-36.7	-37.4	26.5	0.00e+00	0	41	0	2435842048	45	3811
2026-01-30 04:15:11.33	287.61	43.60	-36.7	-37.4	26.5	0.00e+00	0	41	0	2441084928	45	3790
2026-01-30 04:15:12.34	287.15	43.46	-36.7	-37.3	26.6	0.00e+00	0	41	0	2446327808	45	3765
2026-01-30 04:15:13.35	286.69	43.32	-36.7	-37.3	26.5	0.00e+00	0	41	0	2452619264	45	3775
2026-01-30 04:15:14.36	286.23	43.18	-36.7	-37.4	26.5	0.00e+00	0	41	0	2457862144	45	3790
2026-01-30 04:15:15.37	285.78	43.04	-36.8	-37.5	26.4	0.00e+00	0	41	0	2463105024	45	3844
2026-01-30 04:15:16.38	285.34	42.89	-37.0	-37.7	26.3	0.00e+00	0	42	0	2469396480	45	3919
2026-01-30 04:15:17.39	284.90	42.75	-36.9	-37.5	26.4	0.00e+00	0	41	0	2474639360	45	3861
2026-01-30 04:15:18.40	284.46	42.60	-36.8	-37.5	26.4	0.00e+00	0	41	0	2479882240	45	3853
2026-01-30 04:15:19.41	284.02	42.45	-36.9	-37.5	26.3	0.00e+00	0	41	0	2486173696	45	3863
2026-01-30 04:15:20.42	283.59	42.30	-36.8	-37.5	26.4	0.00e+00	0	41	0	2492465152	45	3834
2026-01-30 04:15:21.43	283.17	42.15	-36.7	-37.4	26.5	0.00e+00	0	41	0	2497708032	45	3787
2026-01-30 04:15:22.44	282.75	42.00	-36.7	-37.4	26.5	0.00e+00	0	41	0	2502950912	45	3804
2026-01-30 04:15:23.45	282.33	41.85	-36.8	-37.4	26.4	0.00e+00	0	41	0	2509242368	45	3820
2026-01-30 04:15:24.45	281.92	41.70	-36.8	-37.5	26.4	0.00e+00	0	41	0	2514485248	45	3833
2026-01-30 04:15:25.46	281.51	41.54	-37.0	-37.7	26.2	0.00e+00	0	41	0	2520776704	45	3920
2026-01-30 04:15:26.47	281.10	41.38	-37.1	-37.8	26.2	0.00e+00	0	41	0	2526019584	45	3965
2026-01-30 04:15:27.48	280.70	41.23	-37.2	-37.9	26.0	0.00e+00	0	41	0	2531262464	45	4040
2026-01-30 04:15:28.49	280.30	41.07	-37.0	-37.7	26.2	0.00e+00	0	41	0	2537553920	45	3945
2026-01-30 04:15:29.49	279.91	40.91	-36.9	-37.5	26.3	0.00e+00	0	41	0	2542796800	45	3867
2026-01-30 04:15:30.50	279.52	40.75	-36.8	-37.5	26.4	0.00e+00	0	41	0	2548039680	45	3826
2026-01-30 04:15:31.51	279.13	40.59	-36.8	-37.5	26.3	0.00e+00	0	41	0	2554331136	45	3860
2026-01-30 04:15:32.52	278.75	40.43	-37.0	-37.7	26.2	0.00e+00	0	41	0	2560622592	45	3927
2026-01-30 04:15:33.53	278.37	40.27	-37.0	-37.7	26.2	0.00e+00	0	41	0	2565865472	45	3917
2026-01-30 04:15:34.54	277.99	40.11	-37.0	-37.6	26.2	0.00e+00	0	41	0	2571108352	45	3909
2026-01-30 04:15:35.55	277.62	39.94	-37.1	-37.8	26.2	0.00e+00	0	42	0	2577399808	45	3963
2026-01-30 04:15:36.56	277.26	39.78	-37.2	-37.9	26.0	0.00e+00	0	41	0	2582642688	45	4014
2026-01-30 04:15:37.57	276.89	39.62	-37.3	-38.0	26.0	0.00e+00	0	41	0	2587885568	45	4057
2026-01-30 04:15:38.58	276.53	39.45	-37.2	-37.9	26.0	0.00e+00	0	41	0	2594177024	45	4036
2026-01-30 04:15:39.59	276.17	39.29	-37.2	-37.9	26.0	0.00e+00	0	41	0	2599419904	45	4034
2026-01-30 04:15:40.60	275.82	39.12	-37.2	-37.9	26.0	0.00e+00	0	41	0	2605711360	45	4029
2026-01-30 04:15:41.61	275.47	38.95	-37.2	-37.9	26.0	0.00e+00	0	41	0	2610954240	45	4006
2026-01-30 04:15:42.61	275.13	38.79	-36.9	-37.6	26.3	0.00e+00	0	41	0	2616197120	45	3872
2026-01-30 04:15:43.62	274.79	38.62	-36.9	-37.6	26.3	0.00e+00	0	42	0	2622488576	45	3876
2026-01-30 04:15:44.63	274.45	38.46	-36.8	-37.5	26.3	0.00e+00	0	42	0	2628780032	45	3840
2026-01-30 04:15:45.64	274.11	38.29	-36.8	-37.5	26.3	0.00e+00	0	41	0	2634022912	45	3829
2026-01-30 04:15:46.64	273.78	38.12	-36.9	-37.5	26.3	0.00e+00	0	41	0	2639265792	45	3866
2026-01-30 04:15:47.65	273.46	37.95	-36.8	-37.5	26.3	0.00e+00	0	41	0	2645557248	45	3852
2026-01-30 04:15:48.65	273.13	37.79	-36.8	-37.5	26.4	0.00e+00	0	41	0	2650800128	45	3825
2026-01-30 04:15:49.66	272.81	37.62	-36.7	-37.4	26.4	0.00e+00	0	41	0	2656043008	45	3789
2026-01-30 04:15:50.67	272.49	37.45	-36.6	-37.3	26.5	0.00e+00	0	41	0	2662334464	45	3749
2026-01-30 04:15:51.67	272.18	37.28	-36.6	-37.3	26.5	0.00e+00	0	41	0	2667577344	45	3748
2026-01-30 04:15:52.68	271.87	37.11	-36.7	-37.4	26.4	0.00e+00	0	41	0	2672820224	45	3800
2026-01-30 04:15:53.69	271.56	36.94	-36.7	-37.4	26.4	0.00e+00	0	41	0	2679111680	45	3801
2026-01-30 04:15:54.70	271.26	36.78	-36.6	-37.3	26.4	0.00e+00	0	41	0	2684354560	45	3766
2026-01-30 04:15:55.71	270.95	36.61	-36.5	-37.2	26.5	0.00e+00	0	41	0	2690646016	45	3724
2026-01-30 04:15:56.71	270.66	36.44	-36.6	-37.3	26.4	0.00e+00	0	41	0	2695888896	45	3767
2026-01-30 04:15:57.72	270.36	36.27	-36.6	-37.3	26.5	0.00e+00	0	41	0	2702180352	45	3749
2026-01-30 04:15:58.72	270.07	36.10	-36.7	-37.4	26.4	0.00e+00	0	41	0	2707423232	45	3787
2026-01-30 04:15:59.73	269.78	35.93	-36.8	-37.5	26.3	0.00e+00	0	41	0	2713714688	45	3837
2026-01-30 04:16:00.74	269.49	35.76	-36.7	-37.4	26.4	0.00e+00	0	41	0	2718957568	45	3785
2026-01-30 04:16:01.75	269.21	35.59	-36.7	-37.4	26.3	0.00e+00	0	41	0	2724200448	45	3801
2026-01-30 04:16:02.75	268.93	35.43	-36.5	-37.1	26.6	0.00e+00	0	41	0	2730491904	45	3691
2026-01-30 04:16:03.76	268.65	35.26	-36.3	-37.0	26.7	0.00e+00	0	41	0	2735734784	44	3836
2026-01-30 04:16:04.77	268.38	35.09	-36.4	-37.1	26.6	0.00e+00	0	41	0	2740977664	44	3897
2026-01-30 04:16:05.77	268.11	34.92	-36.4	-37.1	26.6	0.00e+00	0	41	0	2747269120	44	3887
2026-01-30 04:16:06.78	267.84	34.75	-36.5	-37.2	26.5	0.00e+00	0	41	0	2752512000	44	3918
2026-01-30 04:16:07.79	267.57	34.59	-36.6	-37.3	26.5	0.00e+00	0	41	0	2757754880	44	3963
2026-01-30 04:16:08.80	267.31	34.42	-36.7	-37.4	26.3	0.00e+00	0	41	0	2764046336	44	4014
2026-01-30 04:16:09.81	267.05	34.25	-36.7	-37.4	26.3	0.00e+00	0	41	0	2769289216	44	4042
2026-01-30 04:16:10.82	266.79	34.08	-36.6	-37.3	26.4	0.00e+00	0	41	0	2775580672	44	3979
2026-01-30 04:16:11.82	266.53	33.92	-36.6	-37.3	26.3	0.00e+00	0	41	0	2780823552	44	3982
2026-01-30 04:16:12.83	266.28	33.75	-36.7	-37.4	26.4	0.00e+00	0	41	0	2787115008	44	4005
2026-01-30 04:16:13.83	266.03	33.58	-36.7	-37.4	26.3	0.00e+00	0	41	0	2792357888	44	4022
2026-01-30 04:16:14.84	265.79	33.42	-36.7	-37.4	26.3	0.00e+00	0	42	0	2798649344	44	4024
2026-01-30 04:16:15.84	265.54	33.25	-36.8	-37.4	26.3	0.00e+00	0	41	0	2803892224	44	4047
2026-01-30 04:16:16.85	265.30	33.09	-36.6	-37.3	26.4	0.00e+00	0	41	0	2809135104	44	3980
2026-01-30 04:16:17.85	265.06	32.92	-36.6	-37.3	26.4	0.00e+00	0	41	0	2815426560	44	3975
2026-01-30 04:16:18.86	264.82	32.76	-36.7	-37.4	26.3	0.00e+00	0	41	0	2820669440	44	4006
2026-01-30 04:16:19.87	264.59	32.59	-36.8	-37.5	26.2	0.00e+00	0	41	0	2825912320	44	4074
2026-01-30 04:16:20.88	264.35	32.43	-36.8	-37.5	26.2	0.00e+00	0	41	0	2832203776	44	4083
2026-01-30 04:16:21.88	264.12	32.27	-36.9	-37.6	26.1	0.00e+00	0	41	0	2837446656	44	4131
2026-01-30 04:16:22.89	263.90	32.10	-36.9	-37.6	26.1	0.00e+00	0	41	0	2842689536	44	4106
2026-01-30 04:16:23.89	263.67	31.94	-36.9	-37.6	26.1	0.00e+00	0	41	0	2848980992	44	4118
2026-01-30 04:16:24.90	263.45	31.78	-36.9	-37.5	26.1	0.00e+00	0	41	0	2854223872	44	4094
2026-01-30 04:16:25.91	263.23	31.61	-36.9	-37.6	26.1	0.00e+00	0	41	0	2860515328	44	4106
2026-01-30 04:16:26.92	263.01	31.45	-36.8	-37.5	26.2	0.00e+00	0	41	0	2865758208	44	4058
2026-01-30 04:16:27.92	262.79	31.29	-36.9	-37.5	26.1	0.00e+00	0	41	0	2872049664	44	4096
2026-01-30 04:16:28.93	262.58	31.13	-36.9	-37.6	26.1	0.00e+00	0	41	0	2877292544	44	4127
2026-01-30 04:16:29.93	262.37	30.97	-37.0	-37.7	26.0	0.00e+00	0	41	0	2883584000	44	4154
2026-01-30 04:16:30.94	262.15	30.81	-36.8	-37.5	26.2	0.00e+00	0	41	0	2888826880	44	4069
2026-01-30 04:16:31.94	261.95	30.65	-36.8	-37.4	26.2	0.00e+00	0	41	0	2894069760	44	4049
2026-01-30 04:16:32.95	261.74	30.49	-36.7	-37.4	26.3	0.00e+00	0	41	0	2900361216	44	4011
2026-01-30 04:16:33.96	261.54	30.33	-36.8	-37.4	26.2	0.00e+00	0	41	0	2905604096	44	4043
2026-01-30 04:16:34.97	261.33	30.17	-36.8	-37.4	26.2	0.00e+00	0	41	0	2910846976	44	4051
2026-01-30 04:16:35.97	261.14	30.02	-36.8	-37.5	26.2	0.00e+00	0	41	0	2917138432	44	4058
2026-01-30 04:16:36.98	260.94	29.86	-36.8	-37.5	26.1	0.00e+00	0	41	0	2922381312	44	4096
2026-01-30 04:16:37.99	260.74	29.70	-36.8	-37.5	26.1	0.00e+00	0	41	0	2927624192	44	4070
2026-01-30 04:16:39.00	260.55	29.54	-36.9	-37.6	26.0	0.00e+00	0	41	0	2933915648	44	4134
2026-01-30 04:16:40.00	260.35	29.39	-37.0	-37.6	26.0	0.00e+00	0	41	0	2939158528	44	4142
2026-01-30 04:16:41.01	260.16	29.23	-36.9	-37.6	26.0	0.00e+00	0	42	0	2945449984	44	4114
2026-01-30 04:16:42.02	259.97	29.08	-36.9	-37.6	26.0	0.00e+00	0	41	0	2950692864	44	4123
2026-01-30 04:16:43.03	259.79	28.92	-37.1	-37.8	25.9	0.00e+00	0	42	0	2956984320	44	4197
2026-01-30 04:16:44.04	259.60	28.77	-37.2	-37.9	25.7	0.00e+00	0	41	0	2962227200	45	4039
2026-01-30 04:16:45.04	259.42	28.62	-37.2	-37.9	25.7	0.00e+00	0	41	0	2968518656	45	4033
2026-01-30 04:16:46.05	259.24	28.46	-37.3	-38.0	25.7	0.00e+00	0	41	0	2973761536	45	4081
2026-01-30 04:16:47.06	259.06	28.31	-37.4	-38.1	25.5	0.00e+00	0	41	0	2979004416	45	4138
2026-01-30 04:16:48.06	258.88	28.16	-37.3	-38.0	25.7	0.00e+00	0	41	0	2985295872	45	4067
2026-01-30 04:16:49.07	258.70	28.01	-37.2	-37.9	25.8	0.00e+00	0	41	0	2990538752	45	4025
2026-01-30 04:16:50.08	258.53	27.86	-37.2	-37.9	25.7	0.00e+00	0	41	0	2995781632	45	4044
2026-01-30 04:16:51.09	258.36	27.71	-37.2	-37.9	25.7	0.00e+00	0	42	0	3002073088	45	4026
2026-01-30 04:16:52.09	258.19	27.56	-37.3	-38.0	25.7	0.00e+00	0	41	0	3007315968	45	4058
2026-01-30 04:16:53.10	258.02	27.41	-37.1	-37.8	25.8	0.00e+00	0	41	0	3012558848	45	4000
2026-01-30 04:16:54.11	257.85	27.26	-37.2	-37.9	25.8	0.00e+00	0	41	0	3018850304	45	4015
2026-01-30 04:16:55.12	257.68	27.11	-37.0	-37.7	25.9	0.00e+00	0	41	0	3025141760	45	3950
2026-01-30 04:16:56.13	257.51	26.96	-37.1	-37.8	25.8	0.00e+00	0	41	0	3030384640	45	3960
2026-01-30 04:16:57.13	257.35	26.82	-37.1	-37.8	25.8	0.00e+00	0	41	0	3035627520	45	3970
2026-01-30 04:16:58.14	257.19	26.67	-37.1	-37.8	25.8	0.00e+00	0	41	0	3041918976	45	3976
2026-01-30 04:16:59.15	257.03	26.52	-37.2	-37.9	25.7	0.00e+00	0	42	0	3047161856	45	4005
2026-01-30 04:17:00.15	256.87	26.38	-37.1	-37.7	25.8	0.00e+00	0	41	0	3053453312	45	3954
2026-01-30 04:17:01.16	256.71	26.23	-37.1	-37.8	25.8	0.00e+00	0	41	0	3058696192	45	3993
2026-01-30 04:17:02.17	256.56	26.09	-37.2	-37.9	25.7	0.00e+00	0	41	0	3063939072	45	4033
2026-01-30 04:17:03.18	256.40	25.94	-37.2	-37.9	25.7	0.00e+00	0	41	0	3070230528	45	4039
2026-01-30 04:17:04.18	256.25	25.80	-37.3	-38.0	25.6	0.00e+00	0	41	0	3075473408	45	4057
2026-01-30 04:17:05.19	256.10	25.66	-37.3	-38.0	25.6	0.00e+00	0	41	0	3080716288	45	4075
2026-01-30 04:17:06.20	255.95	25.52	-37.3	-38.0	25.6	0.00e+00	0	41	0	3087007744	45	4078
2026-01-30 04:17:07.21	255.80	25.37	-37.4	-38.1	25.5	0.00e+00	0	41	0	3092250624	45	4125
2026-01-30 04:17:08.21	255.65	25.23	-37.4	-38.1	25.5	0.00e+00	0	41	0	3097493504	45	4119
2026-01-30 04:17:09.22	255.51	25.09	-37.3	-38.0	25.6	0.00e+00	0	41	0	3103784960	45	4079
2026-01-30 04:17:10.23	255.36	24.95	-37.3	-38.0	25.6	0.00e+00	0	41	0	3110076416	45	4065
2026-01-30 04:17:11.23	255.22	24.81	-37.2	-37.9	25.7	0.00e+00	0	41	0	3115319296	45	4031
2026-01-30 04:17:12.24	255.07	24.67	-37.1	-37.8	25.7	0.00e+00	0	41	0	3120562176	45	3990
2026-01-30 04:17:13.25	254.93	24.53	-37.0	-37.7	25.8	0.00e+00	0	41	0	3126853632	45	3944
2026-01-30 04:17:14.25	254.79	24.40	-37.0	-37.7	25.8	0.00e+00	0	41	0	3132096512	45	3927
2026-01-30 04:17:15.26	254.66	24.26	-36.9	-37.6	25.9	0.00e+00	0	41	0	3138387968	45	3898
2026-01-30 04:17:16.27	254.52	24.12	-37.0	-37.7	25.8	0.00e+00	0	41	0	3143630848	45	3950
2026-01-30 04:17:17.28	254.38	23.99	-37.0	-37.7	25.8	0.00e+00	0	41	0	3148873728	45	3950
2026-01-30 04:17:18.29	254.25	23.85	-37.1	-37.8	25.7	0.00e+00	0	41	0	3155165184	45	3982
2026-01-30 04:17:19.30	254.11	23.71	-37.2	-37.9	25.7	0.00e+00	0	41	0	3160408064	45	4014
2026-01-30 04:17:20.30	253.98	23.58	-37.1	-37.8	25.7	0.00e+00	0	41	0	3165650944	45	3979
2026-01-30 04:17:21.31	253.85	23.45	-37.2	-37.9	25.7	0.00e+00	0	41	0	3171942400	45	4008
2026-01-30 04:17:22.31	253.72	23.31	-37.0	-37.7	25.8	0.00e+00	0	41	0	3178233856	45	3945
2026-01-30 04:17:23.31	253.59	23.18	-37.1	-37.8	25.7	0.00e+00	0	42	0	3182428160	45	3965
2026-01-30 04:17:24.32	253.46	23.05	-37.1	-37.8	25.7	0.00e+00	0	41	0	3188719616	45	3960
2026-01-30 04:17:25.33	253.34	22.91	-37.2	-37.9	25.6	0.00e+00	0	41	0	3195011072	45	4022
2026-01-30 04:17:26.34	253.21	22.78	-37.3	-38.0	25.6	0.00e+00	0	41	0	3200253952	45	4054
2026-01-30 04:17:27.35	253.08	22.65	-37.3	-38.0	25.5	0.00e+00	0	41	0	3205496832	45	4085
2026-01-30 04:17:28.36	252.96	22.52	-37.4	-38.1	25.4	0.00e+00	0	41	0	3211788288	45	4143
2026-01-30 04:17:29.36	252.84	22.39	-37.5	-38.2	25.3	0.00e+00	0	41	0	3217031168	45	4158
2026-01-30 04:17:30.37	252.72	22.26	-37.7	-38.4	25.1	0.00e+00	0	41	0	3223322624	45	4264
2026-01-30 04:17:31.38	252.60	22.13	-37.5	-38.2	25.3	0.00e+00	0	41	0	3228565504	45	4174
2026-01-30 04:17:32.39	252.48	22.00	-37.5	-38.2	25.3	0.00e+00	0	41	0	3233808384	45	4192
2026-01-30 04:17:33.39	252.36	21.88	-37.5	-38.2	25.3	0.00e+00	0	41	0	3240099840	45	4187
2026-01-30 04:17:34.40	252.24	21.75	-37.5	-38.2	25.3	0.00e+00	0	41	0	3245342720	45	4193
2026-01-30 04:17:35.40	252.13	21.62	-37.6	-38.3	25.2	0.00e+00	0	41	0	3250585600	45	4222
2026-01-30 04:17:36.41	252.01	21.50	-37.7	-38.4	25.1	0.00e+00	0	41	0	3256877056	46	4045
2026-01-30 04:17:37.41	251.90	21.37	-37.7	-38.4	25.1	0.00e+00	0	41	0	3262119936	46	4029
2026-01-30 04:17:38.42	251.78	21.24	-37.7	-38.4	25.1	0.00e+00	0	41	0	3268411392	46	4048
2026-01-30 04:17:39.43	251.67	21.12	-37.7	-38.5	25.1	0.00e+00	0	41	0	3273654272	46	4052
2026-01-30 04:17:40.44	251.56	20.99	-37.8	-38.5	25.0	0.00e+00	0	41	0	3279945728	46	4097
2026-01-30 04:17:41.45	251.45	20.87	-37.8	-38.5	25.0	0.00e+00	0	41	0	3285188608	46	4085
2026-01-30 04:17:42.46	251.34	20.75	-37.8	-38.6	25.0	0.00e+00	0	41	0	3290431488	46	4106
2026-01-30 04:17:43.46	251.23	20.62	-37.8	-38.6	25.0	0.00e+00	0	41	0	3296722944	46	4102
2026-01-30 04:17:44.47	251.12	20.50	-37.8	-38.6	25.0	0.00e+00	0	41	0	3301965824	46	4106
2026-01-30 04:17:45.47	251.01	20.38	-37.9	-38.6	24.9	0.00e+00	0	41	0	3308257280	46	4138
2026-01-30 04:17:46.48	250.91	20.26	-37.9	-38.6	24.9	0.00e+00	0	41	0	3313500160	46	4134
2026-01-30 04:17:47.49	250.80	20.14	-37.9	-38.7	24.9	0.00e+00	0	41	0	3318743040	46	4161
2026-01-30 04:17:48.50	250.69	20.02	-37.9	-38.6	24.9	0.00e+00	0	41	0	3325034496	46	4136
2026-01-30 04:17:49.50	250.59	19.90	-38.0	-38.7	24.8	0.00e+00	0	41	0	3330277376	46	4172
2026-01-30 04:17:50.51	250.49	19.78	-38.0	-38.7	24.8	0.00e+00	0	41	0	3335520256	46	4163
2026-01-30 04:17:51.52	250.39	19.66	-37.9	-38.7	24.8	0.00e+00	0	41	0	3341811712	46	4157
2026-01-30 04:17:52.52	250.29	19.54	-38.1	-38.8	24.7	0.00e+00	0	41	0	3348103168	46	4214
2026-01-30 04:17:53.54	250.18	19.42	-38.1	-38.8	24.7	0.00e+00	0	41	0	3353346048	46	4225
2026-01-30 04:17:54.54	250.08	19.30	-38.1	-38.9	24.6	0.00e+00	0	41	0	3358588928	46	4253
2026-01-30 04:17:55.55	249.99	19.18	-37.9	-38.6	24.9	0.00e+00	0	41	0	3364880384	46	4142
2026-01-30 04:17:56.55	249.89	19.07	-37.9	-38.6	24.8	0.00e+00	0	41	0	3370123264	46	4145
2026-01-30 04:17:57.56	249.79	18.95	-38.0	-38.7	24.8	0.00e+00	0	41	0	3375366144	46	4192
2026-01-30 04:17:58.56	249.69	18.84	-38.1	-38.8	24.7	0.00e+00	0	41	0	3381657600	46	4217
2026-01-30 04:17:59.57	249.60	18.72	-38.2	-38.9	24.6	0.00e+00	0	41	0	3386900480	46	4286
2026-01-30 04:18:00.58	249.50	18.61	-38.2	-39.0	24.5	0.00e+00	0	41	0	3393191936	47	4066
2026-01-30 04:18:01.58	249.41	18.49	-38.3	-39.1	24.5	0.00e+00	0	41	0	3398434816	47	4118
2026-01-30 04:18:02.59	249.31	18.38	-38.4	-39.2	24.4	0.00e+00	0	41	0	3403677696	47	4158
2026-01-30 04:18:03.60	249.22	18.26	-38.4	-39.2	24.4	0.00e+00	0	41	0	3409969152	47	4155
2026-01-30 04:18:04.60	249.13	18.15	-38.5	-39.3	24.3	0.00e+00	0	41	0	3415212032	47	4206
2026-01-30 04:18:05.61	249.04	18.04	-38.6	-39.3	24.2	0.00e+00	0	41	0	3420454912	47	4241
2026-01-30 04:18:06.61	248.95	17.93	-38.6	-39.4	24.2	0.00e+00	0	41	0	3426746368	47	4251
2026-01-30 04:18:07.62	248.86	17.81	-38.7	-39.5	24.1	0.00e+00	0	41	0	3433037824	47	4295
2026-01-30 04:18:08.63	248.77	17.70	-38.7	-39.4	24.1	0.00e+00	0	41	0	3438280704	47	4278
2026-01-30 04:18:09.64	248.68	17.59	-39.0	-39.7	24.3	0.00e+00	0	41	0	3443523584	48	4182
2026-01-30 04:18:10.64	248.59	17.48	-39.0	-39.7	24.4	0.00e+00	0	41	0	3449815040	48	4161
2026-01-30 04:18:11.65	248.50	17.37	-38.9	-39.7	24.4	0.00e+00	0	41	0	3455057920	48	4151
2026-01-30 04:18:12.66	248.42	17.26	-39.0	-39.8	24.3	0.00e+00	0	41	0	3460300800	48	4204
2026-01-30 04:18:13.67	248.33	17.15	-39.1	-39.9	24.2	0.00e+00	0	41	0	3466592256	48	4260
2026-01-30 04:18:14.67	248.24	17.04	-39.2	-40.0	24.1	0.00e+00	0	41	0	3471835136	49	4076
2026-01-30 04:18:15.68	248.16	16.93	-39.2	-40.0	24.1	0.00e+00	0	41	0	3478126592	49	4058
2026-01-30 04:18:16.69	248.08	16.83	-39.2	-40.0	24.1	0.00e+00	0	41	0	3483369472	49	4062
2026-01-30 04:18:17.69	247.99	16.72	-39.3	-40.1	24.0	0.00e+00	0	41	0	3488612352	49	4113
2026-01-30 04:18:18.70	247.91	16.61	-39.5	-40.3	23.8	0.00e+00	0	41	0	3494903808	49	4196
2026-01-30 04:18:19.71	247.83	16.50	-39.3	-40.1	24.0	0.00e+00	0	41	0	3500146688	49	4124
2026-01-30 04:18:20.72	247.74	16.40	-39.4	-40.1	23.9	0.00e+00	0	41	0	3506438144	49	4140
2026-01-30 04:18:21.73	247.66	16.29	-39.4	-40.1	23.9	0.00e+00	0	41	0	3511681024	49	4143
2026-01-30 04:18:22.73	247.58	16.19	-39.3	-40.1	24.0	0.00e+00	0	42	0	3517972480	49	4109
2026-01-30 04:18:23.74	247.50	16.08	-39.3	-40.0	24.1	0.00e+00	0	41	0	3523215360	49	4072
2026-01-30 04:18:24.75	247.42	15.98	-39.2	-39.9	24.1	0.00e+00	0	41	0	3528458240	49	4034
2026-01-30 04:18:25.75	247.34	15.87	-39.2	-40.0	24.1	0.00e+00	0	41	0	3534749696	49	4059
2026-01-30 04:18:26.76	247.27	15.77	-39.2	-39.9	24.1	0.00e+00	0	41	0	3539992576	49	4036
2026-01-30 04:18:27.77	247.19	15.66	-39.3	-40.0	24.0	0.00e+00	0	41	0	3545235456	49	4063
2026-01-30 04:18:28.78	247.11	15.56	-39.3	-40.0	24.0	0.00e+00	0	41	0	3551526912	49	4092
2026-01-30 04:18:29.79	247.03	15.46	-39.4	-40.1	23.9	0.00e+00	0	41	0	3556769792	49	4117
2026-01-30 04:18:30.79	246.96	15.35	-39.4	-40.2	23.8	0.00e+00	0	41	0	3563061248	49	4151
2026-01-30 04:18:31.80	246.88	15.25	-39.3	-40.1	24.0	0.00e+00	0	41	0	3568304128	49	4110
2026-01-30 04:18:32.80	246.81	15.15	-39.5	-40.2	23.8	0.00e+00	0	41	0	3573547008	49	4167
2026-01-30 04:18:33.81	246.73	15.05	-39.4	-40.2	23.8	0.00e+00	0	41	0	3579838464	49	4162
2026-01-30 04:18:34.82	246.66	14.95	-39.5	-40.2	23.8	0.00e+00	0	41	0	3586129920	49	4169
2026-01-30 04:18:35.83	246.59	14.85	-39.5	-40.2	23.8	0.00e+00	0	41	0	3591372800	49	4184
2026-01-30 04:18:36.83	246.51	14.75	-39.5	-40.3	23.8	0.00e+00	0	41	0	3596615680	49	4195
2026-01-30 04:18:37.84	246.44	14.65	-39.5	-40.3	23.8	0.00e+00	0	41	0	3602907136	49	4197
2026-01-30 04:18:38.84	246.37	14.55	-39.5	-40.3	23.8	0.00e+00	0	41	0	3608150016	49	4194
2026-01-30 04:18:39.84	246.30	14.45	-39.5	-40.2	23.8	0.00e+00	0	41	0	3613392896	49	4187
2026-01-30 04:18:40.85	246.23	14.35	-39.6	-40.3	23.7	0.00e+00	0	41	0	3619684352	49	4226
2026-01-30 04:18:41.86	246.16	14.25	-39.6	-40.4	23.6	0.00e+00	0	41	0	3624927232	49	4257
2026-01-30 04:18:42.87	246.09	14.15	-39.6	-40.3	23.7	0.00e+00	0	42	0	3630170112	49	4227
2026-01-30 04:18:43.87	246.02	14.06	-39.6	-40.3	23.7	0.00e+00	0	41	0	3636461568	49	4214
2026-01-30 04:18:44.88	245.95	13.96	-39.6	-40.4	23.6	0.00e+00	0	41	0	3641704448	49	4254
2026-01-30 04:18:45.89	245.88	13.86	-39.6	-40.3	23.7	0.00e+00	0	41	0	3647995904	50	4003
2026-01-30 04:18:46.90	245.81	13.76	-39.7	-40.5	23.5	0.00e+00	0	41	0	3653238784	50	4069
2026-01-30 04:18:47.90	245.74	13.67	-39.6	-40.4	23.6	0.00e+00	0	41	0	3658481664	50	4015
2026-01-30 04:18:48.91	245.68	13.57	-39.7	-40.4	23.6	0.00e+00	0	41	0	3664773120	50	4045
2026-01-30 04:18:49.91	245.61	13.48	-39.7	-40.5	23.6	0.00e+00	0	41	0	3670016000	50	4055
2026-01-30 04:18:50.91	245.55	13.38	-39.9	-40.7	23.3	0.00e+00	0	41	0	3675258880	50	4166
