passes_logs/2026/01/11/R4.6S_Anadyr/R4.6S_Anadyr__20260111_161242_AQUA_rec.log

#Pass ID: 20260111_161242_AQUA
#Satellite: AQUA
#Configuration: AQUA
#almurnet v.1.7.20251203
#Start time: 2026-01-11 16:12:44

#Version: 2.2.20231116
#Station: R4.6S_Anadyr
#Location: 177.4865 lon 64.73178 lat
#TLE: 1 27424U 02022A   26010.91777001  .00001106  00000+0  23130-3 0  9995
#TLE: 2 27424  98.4077 337.2768 0002031  83.1713 340.5382 14.61814337260293

#Time	Az	El	Level	Level2	SNR	BER	BlckErr	Temp	State	Recorded	gain1	gain2
2026-01-11 16:12:44.44	19.71	0.11	-48.1	-60.6	3.4	1.51e+00	0	27	0	0	60	37621
2026-01-11 16:12:45.45	19.72	0.17	-48.7	-66.5	3.5	3.03e+01	0	28	104	0	60	81532
2026-01-11 16:12:46.46	19.73	0.23	-48.4	-66.4	3.5	3.03e+01	0	28	104	0	60	80293
2026-01-11 16:12:47.46	19.74	0.29	-48.5	-66.4	3.5	3.03e+01	0	28	104	0	60	80361
2026-01-11 16:12:48.47	19.75	0.36	-48.5	-66.4	3.5	3.03e+01	0	28	104	0	60	80407
2026-01-11 16:12:49.48	19.76	0.42	-48.5	-66.5	3.5	3.03e+01	0	28	104	0	60	80979
2026-01-11 16:12:50.49	19.77	0.48	-48.6	-66.5	3.5	3.03e+01	0	28	104	0	60	81079
2026-01-11 16:12:51.50	19.78	0.55	-48.4	-66.4	3.5	3.03e+01	0	28	104	0	60	80745
2026-01-11 16:12:52.51	19.79	0.61	-48.4	-66.4	3.5	3.03e+01	0	28	104	0	60	80246
2026-01-11 16:12:53.52	19.80	0.67	-48.4	-66.3	3.5	3.03e+01	0	29	104	0	60	79072
2026-01-11 16:12:54.53	19.81	0.74	-48.3	-66.3	3.5	3.03e+01	0	28	104	0	60	79195
2026-01-11 16:12:55.54	19.82	0.80	-47.9	-66.1	3.5	3.03e+01	0	28	104	0	60	78000
2026-01-11 16:12:56.55	19.83	0.86	-48.0	-66.0	3.5	3.03e+01	0	29	104	0	60	76426
2026-01-11 16:12:57.56	19.84	0.93	-47.1	-65.8	3.5	3.03e+01	0	29	104	0	60	74770
2026-01-11 16:12:58.57	19.85	0.99	-47.7	-65.6	3.5	3.03e+01	0	29	104	0	60	73110
2026-01-11 16:12:59.57	19.87	1.05	-47.4	-65.4	3.5	3.03e+01	0	29	104	0	60	71354
2026-01-11 16:13:00.58	19.88	1.12	-47.1	-64.9	3.5	3.03e+01	0	29	104	0	60	67608
2026-01-11 16:13:01.59	19.89	1.18	-47.1	-65.0	3.5	3.03e+01	0	29	104	0	60	68046
2026-01-11 16:13:02.60	19.90	1.25	-47.1	-64.9	3.5	3.03e+01	0	29	104	0	60	67573
2026-01-11 16:13:03.61	19.91	1.31	-47.1	-64.9	3.5	3.03e+01	0	29	104	0	60	67732
2026-01-11 16:13:04.62	19.92	1.38	-47.1	-64.9	3.5	3.03e+01	0	29	104	0	60	67873
2026-01-11 16:13:05.63	19.93	1.44	-47.1	-64.9	3.5	3.03e+01	0	29	104	0	60	67692
2026-01-11 16:13:06.64	19.94	1.51	-47.1	-64.9	3.5	3.03e+01	0	29	104	0	60	67688
2026-01-11 16:13:07.65	19.95	1.57	-47.1	-64.9	3.5	3.03e+01	0	29	104	0	60	67735
2026-01-11 16:13:08.66	19.96	1.64	-47.1	-64.9	3.5	3.03e+01	0	29	104	0	60	67527
2026-01-11 16:13:09.67	19.98	1.70	-47.1	-64.9	3.5	3.03e+01	0	29	104	0	60	67319
2026-01-11 16:13:10.68	19.99	1.77	-47.1	-64.9	3.5	3.03e+01	0	29	104	0	60	67265
2026-01-11 16:13:11.69	20.00	1.84	-47.1	-64.9	3.5	3.03e+01	0	29	104	0	60	67407
2026-01-11 16:13:12.70	20.01	1.90	-47.1	-64.9	3.5	3.03e+01	0	29	104	0	60	67673
2026-01-11 16:13:13.71	20.02	1.97	-47.1	-64.9	3.5	3.03e+01	0	29	104	0	60	67885
2026-01-11 16:13:14.72	20.03	2.03	-47.1	-64.9	3.5	3.03e+01	0	29	104	0	60	67643
2026-01-11 16:13:15.73	20.04	2.10	-47.1	-64.9	3.5	3.03e+01	0	29	104	0	60	67501
2026-01-11 16:13:16.74	20.05	2.17	-47.1	-64.9	3.5	3.03e+01	0	29	104	0	60	67489
2026-01-11 16:13:17.75	20.07	2.24	-47.1	-65.0	3.5	3.03e+01	0	29	104	0	60	68227
2026-01-11 16:13:18.76	20.08	2.30	-47.1	-65.0	3.5	3.03e+01	0	29	104	0	60	68083
2026-01-11 16:13:19.76	20.09	2.37	-47.1	-64.9	3.5	3.03e+01	0	29	104	0	60	67591
2026-01-11 16:13:20.77	20.10	2.44	-47.0	-64.7	3.5	3.03e+01	0	29	104	0	60	66250
2026-01-11 16:13:21.78	20.11	2.50	-46.9	-64.2	3.5	3.03e+01	0	29	104	0	60	62505
2026-01-11 16:13:22.79	20.12	2.57	-46.9	-64.0	3.5	3.03e+01	0	29	104	0	60	61071
2026-01-11 16:13:23.80	20.13	2.64	-46.8	-63.6	3.5	3.03e+01	0	29	104	0	60	58194
2026-01-11 16:13:24.81	20.15	2.71	-46.7	-63.1	3.5	3.03e+01	0	29	104	0	60	54939
2026-01-11 16:13:25.82	20.16	2.78	-46.7	-62.9	3.5	3.03e+01	0	29	104	0	60	53991
2026-01-11 16:13:26.83	20.17	2.85	-46.7	-62.8	3.5	3.03e+01	0	29	104	0	60	53416
2026-01-11 16:13:27.85	20.18	2.92	-46.6	-62.7	3.6	3.03e+01	0	29	104	0	60	52572
2026-01-11 16:13:28.86	20.19	2.99	-46.2	-61.2	3.5	3.03e+01	0	29	104	0	60	44367
2026-01-11 16:13:29.86	20.20	3.05	-45.4	-59.2	3.5	3.03e+01	0	29	104	0	60	35253
2026-01-11 16:13:30.87	20.22	3.12	-44.5	-57.4	3.5	3.03e+01	0	29	104	0	60	28494
2026-01-11 16:13:31.88	20.23	3.19	-43.5	-55.5	3.5	3.03e+01	0	29	104	0	60	23029
2026-01-11 16:13:32.89	20.24	3.26	-42.2	-53.6	3.5	3.03e+01	0	29	104	0	60	18439
2026-01-11 16:13:33.90	20.25	3.33	-41.2	-52.3	3.5	3.03e+01	0	29	104	0	58	17709
2026-01-11 16:13:34.91	20.26	3.40	-40.5	-51.4	3.5	3.03e+01	0	29	104	0	56	17906
2026-01-11 16:13:35.92	20.28	3.47	-39.9	-50.7	3.5	3.03e+01	0	29	104	0	54	18645
2026-01-11 16:13:36.93	20.29	3.54	-39.8	-50.5	3.5	3.03e+01	0	29	104	0	54	18260
2026-01-11 16:13:37.94	20.30	3.61	-40.0	-50.8	3.5	3.03e+01	0	29	104	0	54	18768
2026-01-11 16:13:38.95	20.31	3.69	-40.3	-51.2	3.5	3.03e+01	0	29	104	0	54	19676
2026-01-11 16:13:39.96	20.33	3.76	-41.0	-52.0	3.6	3.03e+01	0	29	104	0	54	21751
2026-01-11 16:13:40.97	20.34	3.83	-41.9	-53.2	3.4	3.03e+01	0	29	104	0	56	22114
2026-01-11 16:13:41.98	20.35	3.90	-43.3	-55.2	3.5	3.03e+01	0	29	104	0	60	22035
2026-01-11 16:13:42.99	20.36	3.97	-38.8	-49.4	3.5	3.03e+01	0	29	104	0	50	20095
2026-01-11 16:13:44.00	20.37	4.04	-40.8	-51.8	3.5	3.03e+01	0	29	104	0	54	21127
2026-01-11 16:13:45.01	20.39	4.12	-46.9	-64.6	3.5	3.03e+01	0	29	104	0	60	65311
2026-01-11 16:13:46.02	20.40	4.19	-42.5	-54.1	3.5	3.03e+01	0	29	104	0	60	19448
2026-01-11 16:13:47.03	20.41	4.26	-47.1	-64.7	3.5	3.03e+01	0	29	104	0	60	66382
2026-01-11 16:13:48.04	20.42	4.33	-42.0	-53.3	3.5	3.03e+01	0	29	104	0	60	17840
2026-01-11 16:13:49.05	20.44	4.41	-42.2	-53.6	3.5	3.03e+01	0	29	104	0	58	20624
2026-01-11 16:13:50.06	20.45	4.48	-41.7	-52.9	3.5	3.03e+01	0	29	104	0	58	19040
2026-01-11 16:13:51.07	20.46	4.56	-41.8	-53.0	3.5	3.03e+01	0	29	104	0	58	19380
2026-01-11 16:13:52.08	20.48	4.63	-37.7	-48.2	3.5	3.03e+01	0	29	104	0	50	17556
2026-01-11 16:13:53.09	20.49	4.70	-42.6	-54.2	3.5	3.03e+01	0	29	104	0	58	22127
2026-01-11 16:13:54.10	20.50	4.78	-47.2	-64.7	3.5	3.03e+01	0	29	104	0	60	66114
2026-01-11 16:13:55.11	20.51	4.85	-41.3	-52.5	3.6	3.03e+01	0	29	104	0	58	18109
2026-01-11 16:13:56.12	20.53	4.93	-47.1	-64.7	3.5	3.03e+01	0	29	104	0	60	66222
2026-01-11 16:13:57.13	20.54	5.00	-39.4	-50.0	3.5	3.03e+01	0	29	104	0	54	17285
2026-01-11 16:13:58.14	20.55	5.08	-39.1	-49.8	3.5	3.03e+01	0	29	104	0	54	16804
2026-01-11 16:13:59.14	20.57	5.15	-38.7	-49.3	3.5	3.03e+01	0	29	104	0	52	17700
2026-01-11 16:14:00.15	20.58	5.23	-38.8	-49.4	3.5	3.03e+01	0	29	104	0	52	17971
2026-01-11 16:14:01.16	20.59	5.30	-46.9	-62.7	3.5	3.03e+01	0	29	104	0	60	52462
2026-01-11 16:14:02.17	20.60	5.38	-41.1	-52.1	3.5	3.03e+01	0	29	104	0	58	17444
2026-01-11 16:14:03.18	20.62	5.46	-47.2	-64.9	3.5	3.03e+01	0	29	104	0	60	67450
2026-01-11 16:14:04.19	20.63	5.53	-37.9	-48.4	3.5	3.03e+01	0	29	104	0	52	16112
2026-01-11 16:14:05.20	20.64	5.61	-47.2	-64.6	3.5	3.03e+01	0	29	104	0	60	65068
2026-01-11 16:14:06.21	20.66	5.69	-37.5	-47.9	3.5	3.03e+01	0	29	104	0	50	17068
2026-01-11 16:14:07.22	20.67	5.76	-37.3	-47.7	3.5	3.03e+01	0	29	104	0	50	16528
2026-01-11 16:14:08.23	20.69	5.84	-36.9	-47.3	3.5	3.03e+01	0	29	104	0	50	15898
2026-01-11 16:14:09.24	20.70	5.92	-36.7	-47.0	3.5	3.03e+01	0	29	104	0	48	17247
2026-01-11 16:14:10.25	20.71	6.00	-42.7	-54.1	3.5	3.03e+01	0	29	104	0	60	19581
2026-01-11 16:14:11.26	20.73	6.08	-40.6	-51.4	3.5	3.03e+01	0	29	104	0	56	17997
2026-01-11 16:14:12.27	20.74	6.16	-47.3	-64.8	3.5	3.03e+01	0	29	104	0	60	66507
2026-01-11 16:14:13.28	20.75	6.23	-40.1	-50.9	3.5	3.03e+01	0	29	104	0	56	17008
2026-01-11 16:14:14.29	20.77	6.31	-47.4	-65.0	3.5	3.03e+01	0	29	104	0	60	68421
2026-01-11 16:14:15.30	20.78	6.39	-40.9	-51.7	3.5	3.03e+01	0	29	104	0	56	18589
2026-01-11 16:14:16.31	20.80	6.47	-40.9	-51.7	3.5	3.03e+01	0	29	104	0	56	18735
2026-01-11 16:14:17.32	20.81	6.55	-40.6	-51.4	3.5	3.03e+01	0	29	104	0	56	17949
2026-01-11 16:14:18.34	20.82	6.63	-40.4	-51.2	3.5	3.03e+01	0	29	104	0	56	17581
2026-01-11 16:14:19.34	20.84	6.71	-42.1	-53.3	3.5	3.03e+01	0	29	104	0	58	20009
2026-01-11 16:14:20.35	20.85	6.80	-40.0	-50.7	3.5	3.03e+01	0	29	104	0	56	16656
2026-01-11 16:14:21.36	20.87	6.88	-47.1	-63.2	3.5	3.03e+01	0	29	104	0	60	55660
2026-01-11 16:14:22.36	20.88	6.96	-38.5	-49.0	3.5	3.03e+01	0	29	104	0	52	17199
2026-01-11 16:14:23.37	20.89	7.04	-47.4	-65.1	3.5	3.03e+01	0	29	104	0	60	69295
2026-01-11 16:14:24.38	20.91	7.12	-40.6	-51.4	3.5	3.03e+01	0	29	104	0	56	18052
2026-01-11 16:14:25.39	20.92	7.20	-40.0	-50.7	3.5	3.03e+01	0	29	104	0	56	16648
2026-01-11 16:14:26.40	20.94	7.29	-38.9	-49.4	3.5	3.03e+01	0	29	104	0	52	18049
2026-01-11 16:14:27.41	20.95	7.37	-38.5	-48.9	3.5	3.03e+01	0	29	104	0	52	17063
2026-01-11 16:14:28.42	20.97	7.45	-45.2	-58.1	3.5	3.03e+01	0	29	104	0	60	30901
2026-01-11 16:14:29.43	20.98	7.54	-38.4	-49.0	3.5	3.03e+01	0	29	104	0	52	17143
2026-01-11 16:14:30.44	21.00	7.62	-47.5	-65.3	3.5	3.03e+01	0	29	104	0	60	71230
2026-01-11 16:14:31.45	21.01	7.70	-36.2	-46.5	3.5	3.03e+01	0	29	104	0	48	16268
2026-01-11 16:14:32.46	21.03	7.79	-43.9	-55.7	3.5	3.03e+01	0	29	104	0	60	23396
2026-01-11 16:14:33.47	21.04	7.87	-36.4	-46.6	3.5	3.03e+01	0	29	104	0	48	16482
2026-01-11 16:14:34.48	21.06	7.96	-36.3	-46.6	3.5	3.03e+01	0	29	104	0	48	16359
2026-01-11 16:14:35.49	21.07	8.04	-36.2	-46.4	3.5	3.03e+01	0	29	104	0	48	16120
2026-01-11 16:14:36.50	21.09	8.13	-35.7	-46.0	3.5	3.03e+01	0	29	104	0	46	17097
2026-01-11 16:14:37.51	21.10	8.22	-37.0	-47.3	3.5	3.03e+01	0	29	104	0	50	15907
2026-01-11 16:14:38.52	21.12	8.30	-40.0	-50.7	3.5	3.03e+01	0	29	104	0	54	18566
2026-01-11 16:14:39.53	21.13	8.39	-44.3	-56.4	3.5	3.03e+01	0	29	104	0	60	25546
2026-01-11 16:14:40.54	21.15	8.48	-39.0	-49.6	3.5	3.03e+01	0	29	104	0	50	20557
2026-01-11 16:14:41.55	21.16	8.56	-47.2	-63.4	3.5	3.03e+01	0	29	104	0	60	56635
2026-01-11 16:14:42.56	21.18	8.65	-39.8	-50.4	3.5	3.03e+01	0	29	104	0	54	17937
2026-01-11 16:14:43.57	21.19	8.74	-39.5	-50.1	3.5	3.03e+01	0	29	104	0	54	17333
2026-01-11 16:14:44.57	21.21	8.83	-38.4	-48.8	3.5	3.03e+01	0	29	104	0	52	16876
2026-01-11 16:14:45.58	21.23	8.92	-37.6	-48.0	3.5	3.03e+01	0	29	104	0	50	17279
2026-01-11 16:14:46.59	21.24	9.01	-43.0	-54.5	3.5	3.03e+01	0	29	104	0	60	20515
2026-01-11 16:14:47.60	21.26	9.09	-40.2	-50.9	3.5	3.03e+01	0	29	104	0	52	21385
2026-01-11 16:14:48.61	21.27	9.18	-46.3	-60.3	3.5	3.03e+01	0	29	104	0	60	40009
2026-01-11 16:14:49.62	21.29	9.28	-40.0	-50.8	3.4	3.03e+01	0	29	104	0	52	21037
2026-01-11 16:14:50.63	21.31	9.37	-43.4	-55.0	3.5	3.03e+01	0	29	104	0	60	21707
2026-01-11 16:14:51.64	21.32	9.46	-38.3	-48.7	3.5	3.03e+01	0	29	104	0	52	16554
2026-01-11 16:14:52.65	21.34	9.55	-38.5	-49.0	3.6	3.03e+01	0	29	104	0	52	17170
2026-01-11 16:14:53.66	21.36	9.64	-37.3	-47.6	3.5	3.03e+01	0	29	104	0	50	16386
2026-01-11 16:14:54.67	21.37	9.73	-36.7	-46.9	3.5	3.03e+01	0	29	104	0	46	19134
2026-01-11 16:14:55.68	21.39	9.82	-36.7	-47.0	3.6	3.03e+01	0	29	104	0	46	19268
2026-01-11 16:14:56.69	21.41	9.92	-44.4	-56.5	3.5	3.03e+01	0	29	104	0	56	32274
2026-01-11 16:14:57.69	21.42	10.01	-39.7	-50.4	3.5	3.03e+01	0	29	104	0	56	15975
2026-01-11 16:14:58.70	21.44	10.10	-44.6	-56.9	3.6	3.03e+01	0	29	104	0	54	38017
2026-01-11 16:14:59.71	21.46	10.20	-38.7	-49.2	3.5	3.03e+01	0	29	104	0	60	11064
2026-01-11 16:15:00.72	21.47	10.29	-36.0	-46.3	3.5	3.03e+01	0	29	104	0	48	15858
2026-01-11 16:15:01.73	21.49	10.39	-35.8	-46.0	3.5	3.03e+01	0	29	104	0	46	17241
2026-01-11 16:15:02.75	21.51	10.48	-35.5	-45.7	3.5	3.03e+01	0	29	104	0	46	16585
2026-01-11 16:15:03.76	21.53	10.58	-44.1	-56.0	3.5	3.03e+01	0	29	104	0	56	30564
2026-01-11 16:15:04.77	21.54	10.67	-36.1	-46.4	3.5	3.03e+01	0	29	104	0	46	18016
2026-01-11 16:15:05.78	21.56	10.77	-45.2	-57.8	3.5	3.03e+01	0	29	104	0	58	33392
2026-01-11 16:15:06.79	21.58	10.87	-41.9	-53.1	3.5	3.03e+01	0	29	104	0	60	17427
2026-01-11 16:15:07.80	21.60	10.97	-46.6	-61.1	3.5	3.03e+01	0	29	104	0	58	49262
2026-01-11 16:15:08.81	21.61	11.06	-40.9	-51.7	3.5	3.03e+01	0	29	104	0	60	14736
2026-01-11 16:15:09.82	21.63	11.16	-38.7	-49.3	3.5	3.03e+01	0	29	104	0	54	15863
2026-01-11 16:15:10.83	21.65	11.26	-37.7	-48.2	3.6	3.03e+01	0	29	104	0	50	17517
2026-01-11 16:15:11.84	21.67	11.36	-37.7	-48.1	3.5	3.03e+01	0	29	104	0	50	17465
2026-01-11 16:15:12.85	21.69	11.46	-46.3	-60.4	3.5	3.03e+01	0	29	104	0	60	40122
2026-01-11 16:15:13.86	21.70	11.56	-43.2	-54.7	3.5	3.03e+01	0	29	104	0	60	20804
2026-01-11 16:15:14.87	21.72	11.66	-47.2	-65.4	3.5	3.03e+01	0	29	104	0	60	71514
2026-01-11 16:15:15.88	21.74	11.76	-38.8	-49.4	3.5	3.03e+01	0	29	104	0	54	16017
2026-01-11 16:15:16.89	21.76	11.86	-47.4	-63.7	3.6	3.03e+01	0	29	104	0	60	58742
2026-01-11 16:15:17.90	21.78	11.96	-37.7	-48.0	3.5	3.03e+01	0	29	104	0	50	17257
2026-01-11 16:15:18.91	21.80	12.07	-36.7	-47.0	3.5	3.03e+01	0	29	104	0	48	17110
2026-01-11 16:15:19.92	21.82	12.17	-35.8	-46.0	3.5	3.03e+01	0	29	104	0	46	17221
2026-01-11 16:15:20.93	21.83	12.27	-35.4	-45.6	3.5	3.03e+01	0	29	104	0	46	16381
2026-01-11 16:15:21.94	21.85	12.38	-39.0	-49.5	3.5	3.03e+01	0	29	104	0	50	20447
2026-01-11 16:15:22.95	21.87	12.48	-41.6	-52.7	3.5	3.03e+01	0	29	104	0	54	23369
2026-01-11 16:15:23.96	21.89	12.59	-47.5	-64.4	3.5	3.03e+01	0	29	104	0	60	63716
2026-01-11 16:15:24.97	21.91	12.69	-38.3	-48.8	3.6	3.03e+01	0	29	104	0	50	18743
2026-01-11 16:15:25.98	21.93	12.80	-47.9	-65.8	3.5	3.03e+01	0	29	104	0	60	75124
2026-01-11 16:15:26.99	21.95	12.90	-37.3	-47.7	3.5	3.03e+01	0	29	104	0	50	16524
2026-01-11 16:15:28.00	21.97	13.01	-36.8	-47.2	3.4	3.03e+01	0	29	104	0	50	15682
2026-01-11 16:15:29.01	21.99	13.12	-35.8	-46.0	3.5	3.03e+01	0	29	104	0	46	17201
2026-01-11 16:15:30.02	22.01	13.22	-35.4	-45.6	3.5	3.03e+01	0	29	104	0	46	16350
2026-01-11 16:15:31.03	22.03	13.33	-42.9	-54.2	3.5	3.03e+01	0	29	104	0	58	22190
2026-01-11 16:15:32.04	22.05	13.44	-41.9	-53.1	3.5	3.03e+01	0	29	104	0	58	19419
2026-01-11 16:15:33.05	22.07	13.55	-47.6	-64.2	3.5	3.03e+01	0	29	104	0	60	62720
2026-01-11 16:15:34.05	22.09	13.66	-38.1	-48.5	3.5	3.03e+01	0	29	104	0	52	16205
2026-01-11 16:15:35.06	22.11	13.77	-48.0	-65.8	3.5	3.03e+01	0	29	104	0	60	74897
2026-01-11 16:15:36.07	22.13	13.88	-37.1	-47.4	3.5	3.03e+01	0	29	104	0	50	16025
2026-01-11 16:15:37.08	22.16	13.99	-37.2	-47.5	3.6	3.03e+01	0	29	104	0	48	18296
2026-01-11 16:15:38.09	22.18	14.11	-35.8	-46.0	3.5	3.03e+01	0	29	104	0	46	17236
2026-01-11 16:15:39.10	22.20	14.22	-35.2	-45.4	3.5	3.03e+01	0	29	104	0	46	16123
2026-01-11 16:15:40.12	22.22	14.33	-42.2	-53.4	3.5	3.03e+01	0	29	104	0	58	20118
2026-01-11 16:15:41.12	22.24	14.45	-41.3	-52.2	3.5	3.03e+01	0	29	104	0	58	17647
2026-01-11 16:15:42.14	22.26	14.56	-47.6	-64.1	3.5	3.03e+01	0	29	104	0	60	61765
2026-01-11 16:15:43.15	22.28	14.68	-37.7	-48.1	3.5	3.03e+01	0	29	104	0	50	17387
2026-01-11 16:15:44.16	22.31	14.79	-48.0	-65.9	3.5	3.03e+01	0	29	104	0	60	75679
2026-01-11 16:15:45.17	22.33	14.91	-36.5	-46.8	3.5	3.03e+01	0	29	104	0	48	16796
2026-01-11 16:15:46.18	22.35	15.03	-36.6	-46.9	3.6	3.03e+01	0	29	104	0	48	16963
2026-01-11 16:15:47.18	22.37	15.14	-35.5	-45.7	3.5	3.03e+01	0	29	104	0	46	16612
2026-01-11 16:15:48.19	22.40	15.26	-34.8	-45.0	3.5	3.03e+01	0	29	104	0	44	17132
2026-01-11 16:15:49.20	22.42	15.38	-41.8	-53.0	3.5	3.03e+01	0	29	104	0	58	19196
2026-01-11 16:15:50.21	22.44	15.50	-40.6	-51.4	3.5	3.03e+01	0	29	104	0	58	16054
2026-01-11 16:15:51.22	22.46	15.62	-47.6	-64.1	3.5	3.03e+01	0	29	104	0	60	61798
2026-01-11 16:15:52.23	22.49	15.74	-37.5	-47.9	3.5	3.03e+01	0	29	104	0	50	16988
2026-01-11 16:15:53.24	22.51	15.86	-48.0	-65.8	3.5	3.03e+01	0	29	104	0	60	75380
2026-01-11 16:15:54.25	22.53	15.98	-36.4	-46.8	3.5	3.03e+01	0	29	104	0	48	16733
2026-01-11 16:15:55.26	22.56	16.11	-35.7	-45.9	3.5	3.03e+01	0	29	104	0	46	16972
2026-01-11 16:15:56.26	22.58	16.23	-34.8	-45.0	3.5	3.03e+01	0	29	104	0	44	17128
2026-01-11 16:15:57.27	22.61	16.35	-34.5	-44.7	3.5	3.03e+01	0	29	104	0	44	16575
2026-01-11 16:15:58.28	22.63	16.48	-41.7	-52.8	3.6	3.03e+01	0	29	104	0	60	16743
2026-01-11 16:15:59.29	22.65	16.61	-37.7	-48.0	3.5	3.03e+01	0	29	104	0	50	17108
2026-01-11 16:16:00.30	22.68	16.73	-48.1	-65.9	3.5	3.03e+01	0	29	104	0	60	75957
2026-01-11 16:16:01.31	22.70	16.86	-37.7	-48.1	3.5	3.03e+01	0	29	104	0	52	15465
2026-01-11 16:16:02.32	22.73	16.99	-47.8	-64.4	3.5	3.03e+01	0	29	104	0	60	64012
2026-01-11 16:16:03.33	22.75	17.12	-37.8	-48.2	3.6	3.03e+01	0	29	104	0	50	17570
2026-01-11 16:16:04.34	22.78	17.24	-36.8	-47.1	3.5	3.03e+01	0	29	104	0	48	17377
2026-01-11 16:16:05.35	22.80	17.37	-37.0	-47.3	3.5	3.03e+01	0	29	104	0	48	17793
2026-01-11 16:16:06.37	22.83	17.51	-36.2	-46.5	3.5	3.03e+01	0	29	104	0	48	16149
2026-01-11 16:16:07.38	22.86	17.64	-36.5	-46.9	3.5	3.03e+01	0	29	104	0	50	15076
2026-01-11 16:16:08.39	22.88	17.77	-38.1	-48.5	3.5	3.03e+01	0	29	104	0	54	14528
2026-01-11 16:16:09.40	22.91	17.90	-47.9	-65.4	3.5	3.03e+01	0	29	104	0	60	71504
2026-01-11 16:16:10.41	22.94	18.04	-36.7	-46.9	3.5	3.03e+01	0	29	104	0	50	15201
2026-01-11 16:16:11.42	22.96	18.17	-47.5	-63.6	3.6	3.03e+01	0	29	104	0	60	57958
2026-01-11 16:16:12.43	22.99	18.31	-36.6	-46.9	3.5	3.03e+01	0	29	104	0	48	16918
2026-01-11 16:16:13.44	23.02	18.45	-36.5	-46.9	3.5	3.03e+01	0	29	104	0	48	16916
2026-01-11 16:16:14.45	23.04	18.58	-35.2	-45.4	3.5	3.03e+01	0	29	104	0	46	15979
2026-01-11 16:16:15.46	23.07	18.72	-35.1	-45.3	3.5	3.03e+01	0	29	104	0	44	17818
2026-01-11 16:16:16.46	23.10	18.86	-36.3	-46.6	3.5	3.03e+01	0	29	104	0	50	14603
2026-01-11 16:16:17.47	23.13	19.00	-37.3	-47.6	3.5	3.03e+01	0	29	104	0	50	16488
2026-01-11 16:16:18.48	23.16	19.14	-43.3	-54.7	3.6	3.03e+01	0	29	104	0	60	20829
2026-01-11 16:16:19.50	23.18	19.28	-35.2	-45.4	3.5	3.03e+01	0	29	104	0	46	16029
2026-01-11 16:16:20.50	23.21	19.42	-45.1	-57.4	3.6	3.03e+01	0	29	104	0	60	28659
2026-01-11 16:16:21.51	23.24	19.57	-34.8	-45.0	3.5	3.03e+01	0	29	104	0	44	17282
2026-01-11 16:16:22.52	23.27	19.71	-34.6	-44.8	3.5	3.03e+01	0	29	104	0	44	16716
2026-01-11 16:16:23.53	23.30	19.86	-34.6	-44.8	3.5	3.03e+01	0	29	104	0	44	16791
2026-01-11 16:16:24.54	23.33	20.00	-38.2	-48.6	3.5	3.03e+01	0	29	104	0	44	26146
2026-01-11 16:16:25.55	23.36	20.15	-39.0	-49.5	3.6	3.03e+01	0	29	104	0	60	11542
2026-01-11 16:16:26.56	23.39	20.30	-38.0	-48.3	3.5	3.03e+01	0	29	104	0	50	17839
2026-01-11 16:16:27.57	23.42	20.45	-44.7	-56.7	3.5	3.03e+01	0	29	104	0	60	26443
2026-01-11 16:16:28.58	23.45	20.60	-37.5	-47.8	3.5	3.03e+01	0	29	104	0	48	18918
2026-01-11 16:16:29.59	23.48	20.75	-46.9	-61.4	3.6	3.03e+01	0	29	104	0	60	45149
2026-01-11 16:16:30.60	23.51	20.90	-37.4	-47.7	3.5	3.03e+01	0	29	104	0	50	16535
2026-01-11 16:16:31.61	23.55	21.05	-36.5	-46.7	3.5	3.03e+01	0	29	104	0	48	16563
2026-01-11 16:16:32.62	23.58	21.21	-36.4	-46.6	3.5	3.03e+01	0	29	104	0	48	16454
2026-01-11 16:16:33.63	23.61	21.36	-40.7	-51.5	3.8	3.03e+01	0	29	104	0	50	25639
2026-01-11 16:16:34.64	23.64	21.52	-43.8	-55.5	3.5	3.03e+01	0	29	104	0	60	22870
2026-01-11 16:16:35.64	23.67	21.67	-42.7	-53.8	3.5	3.03e+01	0	29	104	0	50	33452
2026-01-11 16:16:36.65	23.71	21.83	-45.1	-57.5	3.6	3.03e+01	0	29	104	0	60	28818
2026-01-11 16:16:37.66	23.74	21.99	-42.2	-53.1	3.5	3.03e+01	0	29	104	0	52	27583
2026-01-11 16:16:38.67	23.78	22.15	-39.7	-50.3	3.6	3.03e+01	0	29	104	0	60	12610
2026-01-11 16:16:39.68	23.81	22.31	-36.4	-46.7	3.5	3.03e+01	0	29	104	0	48	16628
2026-01-11 16:16:40.69	23.84	22.47	-35.8	-46.0	3.5	3.03e+01	0	29	104	0	46	17231
2026-01-11 16:16:41.70	23.88	22.64	-35.2	-45.5	3.5	3.03e+01	0	29	104	0	46	16144
2026-01-11 16:16:42.70	23.91	22.80	-40.0	-50.7	3.5	3.03e+01	0	29	104	0	50	23335
2026-01-11 16:16:43.71	23.95	22.97	-35.6	-45.8	3.5	3.03e+01	0	29	104	0	46	16832
2026-01-11 16:16:44.72	23.98	23.13	-43.7	-55.2	3.5	3.03e+01	0	29	104	0	54	31163
2026-01-11 16:16:45.73	24.02	23.30	-39.6	-50.2	3.5	3.03e+01	0	29	104	0	56	15669
2026-01-11 16:16:46.74	24.06	23.47	-43.1	-54.5	3.5	3.03e+01	0	29	104	0	50	36172
2026-01-11 16:16:47.75	24.09	23.64	-37.2	-47.5	3.5	3.03e+01	0	29	104	0	54	12856
2026-01-11 16:16:48.76	24.13	23.81	-35.1	-45.4	3.5	3.03e+01	0	29	104	0	46	15954
2026-01-11 16:16:49.77	24.17	23.99	-35.0	-45.1	3.5	3.03e+01	0	29	104	0	46	15537
2026-01-11 16:16:50.78	24.21	24.16	-35.0	-45.2	3.5	3.03e+01	0	29	104	0	46	15617
2026-01-11 16:16:51.79	24.25	24.34	-46.9	-61.3	3.5	3.03e+01	0	29	104	0	60	44637
2026-01-11 16:16:52.80	24.28	24.51	-35.8	-46.1	3.5	3.03e+01	0	29	104	0	48	15504
2026-01-11 16:16:53.81	24.32	24.69	-47.6	-63.0	3.5	3.03e+01	0	29	104	0	60	54283
2026-01-11 16:16:54.82	24.36	24.87	-42.3	-53.4	3.5	3.03e+01	0	29	104	0	60	18097
2026-01-11 16:16:55.83	24.40	25.05	-47.9	-65.2	3.5	3.03e+01	0	29	104	0	60	69657
2026-01-11 16:16:56.84	24.44	25.23	-39.6	-50.1	3.5	3.03e+01	0	29	104	0	56	15545
2026-01-11 16:16:57.85	24.48	25.42	-37.7	-48.0	3.5	3.03e+01	0	29	104	0	50	17269
2026-01-11 16:16:58.85	24.53	25.60	-36.9	-47.3	3.5	3.03e+01	0	29	104	0	50	15825
2026-01-11 16:16:59.86	24.57	25.79	-36.5	-46.8	3.5	3.03e+01	0	29	104	0	48	16727
2026-01-11 16:17:00.87	24.61	25.98	-38.0	-48.4	3.5	3.03e+01	0	29	104	0	46	22581
2026-01-11 16:17:01.88	24.65	26.16	-37.1	-47.4	3.5	3.03e+01	0	29	104	0	46	20130
2026-01-11 16:17:02.89	24.70	26.36	-47.9	-64.2	3.5	3.03e+01	0	29	104	0	60	62092
2026-01-11 16:17:03.90	24.74	26.55	-42.2	-53.2	3.5	3.03e+01	0	29	104	0	60	17599
2026-01-11 16:17:04.91	24.78	26.74	-48.0	-65.2	3.5	3.03e+01	0	29	104	0	60	69908
2026-01-11 16:17:05.92	24.83	26.94	-39.2	-49.8	3.5	3.03e+01	0	29	104	0	56	14909
2026-01-11 16:17:06.93	24.87	27.13	-37.9	-48.2	3.5	3.03e+01	0	29	104	0	52	15733
2026-01-11 16:17:07.93	24.92	27.33	-37.0	-47.3	3.5	3.03e+01	0	29	104	0	50	15801
2026-01-11 16:17:08.94	24.97	27.53	-37.1	-47.5	3.5	3.03e+01	0	29	104	0	48	18105
2026-01-11 16:17:09.95	25.01	27.73	-45.0	-57.5	3.5	3.03e+01	0	29	104	0	60	28988
2026-01-11 16:17:10.96	25.06	27.93	-43.2	-54.7	3.5	3.03e+01	0	29	104	0	60	20879
2026-01-11 16:17:11.97	25.11	28.14	-47.7	-63.7	3.5	3.03e+01	0	29	104	0	60	59122
2026-01-11 16:17:12.97	25.16	28.34	-37.9	-48.3	3.5	3.03e+01	0	29	104	0	50	17818
2026-01-11 16:17:13.98	25.20	28.55	-48.2	-65.8	3.5	3.03e+01	0	29	104	0	60	75393
2026-01-11 16:17:14.99	25.25	28.76	-35.9	-46.2	3.4	3.03e+01	0	29	104	0	48	15618
2026-01-11 16:17:16.00	25.31	28.97	-36.0	-46.2	3.5	3.03e+01	0	29	104	0	46	17549
2026-01-11 16:17:17.01	25.36	29.18	-35.1	-45.2	3.5	3.03e+01	0	29	104	0	46	15750
2026-01-11 16:17:18.01	25.41	29.39	-34.4	-44.6	3.5	3.03e+01	0	29	104	0	44	16427
2026-01-11 16:17:19.02	25.46	29.61	-45.2	-57.7	3.5	3.03e+01	0	29	104	0	60	29643
2026-01-11 16:17:20.03	25.51	29.83	-37.9	-48.3	3.5	3.03e+01	0	29	104	0	48	19969
2026-01-11 16:17:21.04	25.57	30.05	-48.2	-65.8	3.5	3.03e+01	0	29	104	0	60	74704
2026-01-11 16:17:22.04	25.62	30.27	-42.0	-53.1	3.5	3.03e+01	0	29	104	0	58	19492
2026-01-11 16:17:23.05	25.68	30.49	-47.8	-63.4	3.5	3.03e+01	0	29	104	0	60	56982
2026-01-11 16:17:24.06	25.73	30.71	-37.5	-47.8	3.5	3.03e+01	0	29	104	0	50	16796
2026-01-11 16:17:25.07	25.79	30.94	-36.7	-47.0	3.5	3.03e+01	0	29	104	0	48	17135
2026-01-11 16:17:26.08	25.85	31.17	-36.3	-46.5	3.5	3.03e+01	0	29	104	0	48	16199
2026-01-11 16:17:27.08	25.90	31.40	-36.2	-46.5	3.5	3.03e+01	0	29	104	0	48	16172
2026-01-11 16:17:28.09	25.96	31.63	-42.4	-53.6	3.5	3.03e+01	0	29	104	0	58	20588
2026-01-11 16:17:29.10	26.02	31.87	-43.0	-54.5	3.5	3.03e+01	0	29	104	0	60	20363
2026-01-11 16:17:30.11	26.08	32.10	-47.8	-63.3	3.5	3.03e+01	0	29	104	0	60	56345
2026-01-11 16:17:31.12	26.14	32.34	-38.3	-48.7	3.5	3.03e+01	0	29	104	0	52	16702
2026-01-11 16:17:32.12	26.21	32.58	-48.0	-65.3	3.5	3.03e+01	0	29	104	0	60	70978
2026-01-11 16:17:33.13	26.27	32.82	-37.2	-47.5	3.5	3.03e+01	0	29	104	0	50	16139
2026-01-11 16:17:34.14	26.33	33.07	-37.9	-48.2	3.5	3.03e+01	0	29	104	0	50	17565
2026-01-11 16:17:35.15	26.40	33.31	-37.4	-47.8	3.5	3.03e+01	0	29	104	0	50	16733
2026-01-11 16:17:36.15	26.46	33.56	-37.1	-47.4	3.5	3.03e+01	0	29	104	0	48	18084
2026-01-11 16:17:37.17	26.53	33.81	-39.9	-50.5	3.5	3.03e+01	0	29	104	0	54	18297
2026-01-11 16:17:38.17	26.60	34.06	-41.6	-52.5	3.5	3.03e+01	0	29	104	0	60	16262
2026-01-11 16:17:39.18	26.67	34.32	-47.7	-63.6	3.5	3.03e+01	0	29	104	0	60	58503
2026-01-11 16:17:40.19	26.74	34.58	-38.4	-48.8	3.5	3.03e+01	0	29	104	0	52	16892
2026-01-11 16:17:41.20	26.81	34.84	-48.2	-65.6	3.5	3.03e+01	0	29	104	0	60	73362
2026-01-11 16:17:42.20	26.88	35.10	-36.8	-47.0	3.5	3.03e+01	0	29	104	0	48	17268
2026-01-11 16:17:43.21	26.95	35.36	-36.7	-47.0	3.5	3.03e+01	0	29	104	0	48	17218
2026-01-11 16:17:44.22	27.03	35.63	-36.8	-47.0	3.5	3.03e+01	0	29	104	0	48	17237
2026-01-11 16:17:45.23	27.11	35.90	-36.1	-46.4	3.5	3.03e+01	0	29	104	0	48	16013
2026-01-11 16:17:46.24	27.18	36.17	-44.1	-55.8	3.5	3.03e+01	0	29	104	0	60	23860
2026-01-11 16:17:47.25	27.26	36.44	-39.3	-49.9	3.5	3.03e+01	0	29	104	0	54	16922
2026-01-11 16:17:48.26	27.34	36.72	-48.2	-65.6	3.5	3.03e+01	0	28	104	0	60	73356
2026-01-11 16:17:49.26	27.42	36.99	-41.1	-51.9	3.5	3.03e+01	0	28	104	0	60	15194
2026-01-11 16:17:50.27	27.50	37.28	-48.0	-64.3	3.5	3.03e+01	0	29	104	0	60	63191
2026-01-11 16:17:51.28	27.59	37.56	-39.2	-49.8	3.5	3.03e+01	0	29	104	0	54	16718
2026-01-11 16:17:52.29	27.67	37.84	-38.4	-48.7	3.5	3.03e+01	0	29	104	0	52	16690
2026-01-11 16:17:53.30	27.76	38.13	-38.3	-48.6	3.5	3.03e+01	0	28	104	0	52	16460
2026-01-11 16:17:54.31	27.85	38.43	-38.7	-49.2	3.5	3.03e+01	0	29	104	0	52	17623
2026-01-11 16:17:55.32	27.94	38.72	-45.9	-58.9	3.5	3.03e+01	0	28	104	0	60	33972
2026-01-11 16:17:56.32	28.03	39.01	-39.7	-50.3	3.6	3.03e+01	0	29	104	0	56	15817
2026-01-11 16:17:57.33	28.12	39.31	-47.9	-64.5	3.5	3.03e+01	0	29	104	0	60	64857
2026-01-11 16:17:58.34	28.21	39.61	-39.3	-49.8	3.5	3.03e+01	0	28	104	0	56	14967
2026-01-11 16:17:59.35	28.31	39.92	-48.3	-65.6	3.5	3.03e+01	0	29	104	0	60	73580
2026-01-11 16:18:00.37	28.41	40.23	-38.5	-48.9	3.5	3.03e+01	0	29	104	0	52	16942
2026-01-11 16:18:01.38	28.51	40.54	-38.2	-48.6	3.5	3.03e+01	0	28	104	0	52	16454
2026-01-11 16:18:02.38	28.61	40.85	-37.4	-47.8	3.5	3.03e+01	0	28	104	0	50	16706
2026-01-11 16:18:03.39	28.71	41.16	-37.2	-47.5	3.5	3.03e+01	0	28	104	0	50	16248
2026-01-11 16:18:04.40	28.82	41.48	-44.0	-55.7	3.5	3.03e+01	0	29	104	0	60	23430
2026-01-11 16:18:05.41	28.93	41.80	-38.2	-48.6	3.5	3.03e+01	0	28	104	0	54	14644
2026-01-11 16:18:06.41	29.04	42.13	-48.2	-65.5	3.5	3.03e+01	0	28	104	0	60	72455
2026-01-11 16:18:07.42	29.15	42.45	-36.8	-47.1	3.5	3.03e+01	0	28	104	0	50	15482
2026-01-11 16:18:08.43	29.26	42.78	-47.8	-64.1	3.5	3.03e+01	0	28	104	0	60	61487
2026-01-11 16:18:09.45	29.38	43.12	-37.6	-48.0	3.5	3.03e+01	0	28	104	0	50	17120
2026-01-11 16:18:10.46	29.50	43.46	-36.8	-47.0	3.5	3.03e+01	0	29	104	0	48	17269
2026-01-11 16:18:11.46	29.62	43.79	-35.7	-45.9	3.5	3.03e+01	0	28	104	0	46	16942
2026-01-11 16:18:12.47	29.75	44.13	-34.6	-44.7	3.5	3.03e+01	0	28	104	0	44	16701
2026-01-11 16:18:13.48	29.87	44.48	-35.5	-45.7	3.5	3.03e+01	0	29	104	0	48	14778
2026-01-11 16:18:14.49	30.00	44.83	-36.3	-46.6	3.5	3.03e+01	0	29	104	0	48	16395
2026-01-11 16:18:15.50	30.13	45.18	-47.1	-61.2	3.5	3.03e+01	0	29	104	0	60	44267
2026-01-11 16:18:16.51	30.27	45.53	-36.8	-47.1	3.5	3.03e+01	0	28	104	0	46	19402
2026-01-11 16:18:17.52	30.41	45.89	-46.3	-59.6	3.6	3.03e+01	0	29	104	0	60	36892
2026-01-11 16:18:18.53	30.55	46.25	-36.6	-46.8	3.5	3.03e+01	0	28	104	0	48	16789
2026-01-11 16:18:19.54	30.70	46.62	-36.1	-46.3	3.5	3.03e+01	0	28	104	0	48	15897
2026-01-11 16:18:20.55	30.84	46.98	-35.1	-45.4	3.5	3.03e+01	0	28	104	0	46	16044
2026-01-11 16:18:21.56	31.00	47.35	-37.2	-47.5	3.5	3.03e+01	0	28	104	0	44	22970
2026-01-11 16:18:22.57	31.15	47.73	-37.3	-47.6	3.6	3.03e+01	0	28	104	0	52	14692
2026-01-11 16:18:23.58	31.31	48.10	-37.1	-47.4	3.5	3.03e+01	0	28	104	0	48	17958
2026-01-11 16:18:24.59	31.47	48.48	-44.2	-55.8	3.5	3.03e+01	0	29	104	0	60	23679
2026-01-11 16:18:25.60	31.64	48.87	-37.1	-47.5	3.5	3.03e+01	0	29	104	0	48	18131
2026-01-11 16:18:26.61	31.81	49.25	-44.4	-56.3	3.5	3.03e+01	0	28	104	0	60	25109
2026-01-11 16:18:27.62	31.99	49.64	-36.5	-46.7	3.5	3.03e+01	0	28	104	0	48	16693
2026-01-11 16:18:28.62	32.16	50.03	-36.2	-46.5	3.5	3.03e+01	0	28	104	0	48	16228
2026-01-11 16:18:29.63	32.35	50.43	-36.7	-47.0	3.5	3.03e+01	0	28	104	0	48	17228
2026-01-11 16:18:30.64	32.54	50.83	-37.4	-47.7	3.5	3.03e+01	0	28	104	0	46	20820
2026-01-11 16:18:31.65	32.73	51.23	-45.1	-57.4	3.6	3.03e+01	0	28	104	0	60	28431
2026-01-11 16:18:32.66	32.93	51.64	-41.3	-52.1	3.6	3.03e+01	0	28	104	0	48	31008
2026-01-11 16:18:33.68	33.14	52.05	-38.7	-49.2	3.1	3.03e+01	0	28	104	0	58	12524
2026-01-11 16:18:34.68	33.35	52.46	-41.7	-52.5	4.0	3.03e+01	0	28	104	0	48	32547
2026-01-11 16:18:35.69	33.57	52.88	-39.1	-49.5	3.0	3.03e+01	0	28	104	0	60	11500
2026-01-11 16:18:36.70	33.79	53.30	-35.3	-45.6	3.5	3.03e+01	0	28	104	0	46	16338
2026-01-11 16:18:37.71	34.02	53.72	-34.6	-44.8	3.5	3.03e+01	0	28	104	0	44	16840
2026-01-11 16:18:38.72	34.26	54.14	-34.6	-44.7	3.5	3.03e+01	0	29	104	0	44	16595
2026-01-11 16:18:39.73	34.50	54.57	-34.3	-44.5	3.5	3.03e+01	0	28	104	0	42	18299
2026-01-11 16:18:40.74	34.75	55.01	-35.7	-45.8	3.5	3.03e+01	0	28	104	0	44	18846
2026-01-11 16:18:41.75	35.01	55.44	-44.2	-55.9	3.5	3.03e+01	0	28	104	0	52	37976
2026-01-11 16:18:42.76	35.28	55.88	-42.8	-54.1	3.5	3.03e+01	0	28	104	0	60	19516
2026-01-11 16:18:43.77	35.55	56.32	-42.9	-53.9	3.5	3.03e+01	0	28	104	0	52	30221
2026-01-11 16:18:44.78	35.84	56.77	-38.6	-49.0	3.5	3.03e+01	0	28	104	0	56	13715
2026-01-11 16:18:45.78	36.13	57.21	-37.1	-47.3	3.5	3.03e+01	0	28	104	0	48	17778
2026-01-11 16:18:46.80	36.43	57.67	-36.8	-47.2	3.5	3.03e+01	0	28	104	0	48	17574
2026-01-11 16:18:47.81	36.75	58.12	-36.8	-47.0	3.5	3.03e+01	0	28	104	0	48	17218
2026-01-11 16:18:48.81	37.07	58.57	-48.0	-64.8	3.5	3.03e+01	0	28	104	0	60	66901
2026-01-11 16:18:49.82	37.40	59.03	-47.0	-61.5	3.5	3.03e+01	0	28	104	0	60	45764
2026-01-11 16:18:50.83	37.75	59.49	-45.1	-57.3	3.4	3.03e+01	0	29	104	0	56	35573
2026-01-11 16:18:51.84	38.11	59.96	-39.6	-50.1	3.5	3.03e+01	0	28	104	0	56	15542
2026-01-11 16:18:52.85	38.48	60.43	-45.9	-58.6	3.5	3.03e+01	0	28	104	0	58	36930
2026-01-11 16:18:53.86	38.87	60.90	-38.7	-49.1	3.5	3.03e+01	0	28	104	0	54	15459
2026-01-11 16:18:54.86	39.27	61.36	-38.2	-48.4	3.5	3.03e+01	0	28	104	0	52	16087
2026-01-11 16:18:55.88	39.69	61.84	-38.3	-48.7	3.5	3.03e+01	0	28	104	0	50	18671
2026-01-11 16:18:56.88	40.12	62.31	-37.7	-48.0	3.5	3.03e+01	0	28	104	0	50	17151
2026-01-11 16:18:57.89	40.57	62.79	-42.7	-53.9	3.5	3.03e+01	0	28	104	0	58	21439
2026-01-11 16:18:58.90	41.04	63.27	-41.3	-52.0	3.5	3.03e+01	0	28	104	0	54	21646
2026-01-11 16:18:59.91	41.53	63.76	-48.1	-65.1	3.5	3.03e+01	0	28	104	0	60	69415
2026-01-11 16:19:00.92	42.03	64.24	-45.6	-58.2	3.5	3.03e+01	0	28	104	0	60	31457
2026-01-11 16:19:01.93	42.56	64.73	-48.1	-65.2	3.5	3.03e+01	0	28	104	0	60	69720
2026-01-11 16:19:02.94	43.12	65.21	-40.7	-51.5	3.5	3.03e+01	0	28	104	0	56	18195
2026-01-11 16:19:03.95	43.70	65.70	-40.2	-50.7	3.5	3.03e+01	0	28	104	0	56	16570
2026-01-11 16:19:04.96	44.30	66.19	-39.7	-50.3	3.5	3.03e+01	0	28	104	0	54	17825
2026-01-11 16:19:05.97	44.94	66.68	-39.5	-49.8	3.5	3.03e+01	0	28	104	0	54	16872
2026-01-11 16:19:06.98	45.60	67.17	-48.3	-66.1	3.5	3.03e+01	0	28	104	0	60	77680
2026-01-11 16:19:07.99	46.29	67.66	-47.5	-62.8	3.5	3.03e+01	0	28	104	0	60	53097
2026-01-11 16:19:09.00	47.02	68.15	-48.2	-65.9	3.5	3.03e+01	0	28	104	0	60	75776
2026-01-11 16:19:10.01	47.78	68.64	-46.4	-59.9	3.5	3.03e+01	0	28	104	0	60	38248
2026-01-11 16:19:11.02	48.59	69.12	-48.3	-65.9	3.5	3.03e+01	0	28	104	0	60	75787
2026-01-11 16:19:12.03	49.43	69.61	-46.5	-60.2	3.5	3.03e+01	0	28	104	0	60	39168
2026-01-11 16:19:13.04	50.32	70.10	-45.9	-58.6	3.5	3.03e+01	0	28	104	0	60	32579
2026-01-11 16:19:14.06	51.26	70.58	-45.2	-57.7	3.5	3.03e+01	0	28	104	0	60	29552
2026-01-11 16:19:15.07	52.25	71.06	-44.1	-55.6	3.5	3.03e+01	0	28	104	0	60	23068
2026-01-11 16:19:16.08	53.29	71.54	-39.8	-50.4	3.4	3.03e+01	0	28	104	0	54	17998
2026-01-11 16:19:17.08	54.38	72.01	-48.2	-65.4	3.5	3.03e+01	0	28	104	0	60	71996
2026-01-11 16:19:18.09	55.54	72.48	-45.6	-50.2	16.0	3.03e+01	60	28	104	0	60	12493
2026-01-11 16:19:19.10	56.77	72.94	-47.2	-54.3	12.6	3.03e+01	57	28	0	524288	60	19878
2026-01-11 16:19:20.11	58.07	73.40	-47.8	-57.8	7.3	3.03e+01	92	28	0	2621440	60	29743
2026-01-11 16:19:21.12	59.45	73.85	-45.1	-48.6	17.3	3.03e+01	48	28	0	4718592	60	10366
2026-01-11 16:19:22.13	60.91	74.30	-44.2	-47.2	18.7	3.03e+01	59	28	0	6291456	60	8840
2026-01-11 16:19:23.14	62.45	74.73	-43.8	-46.7	20.2	3.03e+01	63	28	0	8388608	60	8313
2026-01-11 16:19:24.15	64.09	75.16	-42.3	-44.5	21.7	3.03e+01	50	28	0	9961472	60	6458
2026-01-11 16:19:25.16	65.83	75.57	-40.5	-42.2	23.5	3.03e+01	62	28	0	12058624	58	5573
2026-01-11 16:19:26.17	67.67	75.97	-40.3	-42.0	23.5	3.03e+01	58	28	0	14155776	54	6846
2026-01-11 16:19:27.18	69.63	76.36	-40.0	-41.7	24.0	3.03e+01	55	28	0	15728640	54	6618
2026-01-11 16:19:28.19	71.70	76.73	-38.7	-40.2	25.3	3.03e+01	60	28	0	17825792	52	6258
2026-01-11 16:19:29.20	73.89	77.09	-38.0	-39.4	26.1	3.03e+01	54	28	0	19398656	52	5698
2026-01-11 16:19:30.21	76.20	77.43	-37.8	-39.2	26.4	3.03e+01	60	28	0	21495808	50	6229
2026-01-11 16:19:31.23	78.67	77.75	-36.4	-37.7	27.7	3.03e+01	61	28	0	23592960	48	5876
2026-01-11 16:19:32.24	81.24	78.04	-36.3	-37.7	27.6	3.03e+01	57	28	0	25165824	48	5859
2026-01-11 16:19:33.24	83.91	78.31	-35.4	-36.7	28.5	3.03e+01	60	28	0	27262976	46	5886
2026-01-11 16:19:34.25	86.74	78.56	-35.2	-36.4	28.8	3.03e+01	46	28	0	28835840	46	5680
2026-01-11 16:19:35.26	89.68	78.77	-35.8	-37.1	28.1	3.03e+01	58	28	0	30932992	44	6949
2026-01-11 16:19:36.27	92.73	78.96	-35.7	-36.9	28.3	3.03e+01	57	28	0	33030144	46	6057
2026-01-11 16:19:37.28	95.89	79.12	-35.5	-36.7	28.6	3.03e+01	45	28	0	34603008	46	5886
2026-01-11 16:19:38.28	99.09	79.24	-35.8	-37.1	28.1	3.03e+01	59	28	0	36700160	46	6167
2026-01-11 16:19:39.29	102.39	79.33	-35.5	-36.7	28.6	3.03e+01	61	28	0	38273024	46	5908
2026-01-11 16:19:40.30	105.74	79.38	-35.3	-36.6	28.6	3.03e+01	58	28	0	40370176	46	5822
2026-01-11 16:19:41.31	109.11	79.40	-35.9	-37.3	28.0	3.03e+01	59	28	0	42467328	46	6280
2026-01-11 16:19:42.32	112.48	79.39	-35.6	-36.9	28.4	3.03e+01	61	28	0	44040192	46	6008
2026-01-11 16:19:43.33	115.82	79.33	-35.7	-36.9	28.3	3.03e+01	59	28	0	46137344	46	6047
2026-01-11 16:19:44.34	119.13	79.24	-36.1	-37.4	27.9	3.03e+01	60	28	0	48234496	46	6384
2026-01-11 16:19:45.35	122.37	79.12	-36.0	-37.3	28.1	3.03e+01	44	28	0	49807360	46	6280
2026-01-11 16:19:46.36	125.52	78.97	-35.7	-37.0	28.3	3.03e+01	61	28	0	51904512	46	6092
2026-01-11 16:19:47.37	128.58	78.78	-36.1	-37.4	27.8	3.03e+01	60	28	0	53477376	46	6384
2026-01-11 16:19:48.38	131.52	78.56	-35.6	-36.9	28.5	3.03e+01	57	28	0	55574528	46	6012
2026-01-11 16:19:49.39	134.35	78.32	-36.1	-37.4	27.9	3.03e+01	57	28	0	57671680	46	6395
2026-01-11 16:19:50.40	137.05	78.05	-35.8	-37.1	28.2	3.03e+01	59	28	0	59244544	46	6145
2026-01-11 16:19:51.40	139.60	77.75	-36.5	-37.8	27.6	3.03e+01	58	28	0	61341696	46	6696
2026-01-11 16:19:52.41	142.05	77.44	-36.7	-38.0	27.3	3.03e+01	61	28	0	62914560	46	6856
2026-01-11 16:19:53.42	144.37	77.10	-36.6	-37.9	27.4	3.03e+01	44	28	0	65011712	46	6786
2026-01-11 16:19:54.43	146.57	76.74	-36.6	-37.9	27.3	3.03e+01	55	28	0	67108864	46	6787
2026-01-11 16:19:55.44	148.64	76.37	-36.9	-38.3	27.1	3.03e+01	60	28	0	68681728	46	7074
2026-01-11 16:19:56.45	150.60	75.98	-37.3	-38.7	26.8	3.03e+01	58	28	0	70778880	48	6585
2026-01-11 16:19:57.46	152.45	75.58	-36.4	-37.7	27.6	3.03e+01	58	28	0	72876032	48	5920
2026-01-11 16:19:58.47	154.19	75.17	-36.7	-38.0	27.4	3.03e+01	51	28	0	74448896	48	6129
2026-01-11 16:19:59.48	155.84	74.74	-37.0	-38.4	27.1	3.03e+01	61	28	0	76546048	48	6388
2026-01-11 16:20:00.49	157.39	74.31	-36.6	-37.9	27.4	3.03e+01	61	28	0	78118912	48	6016
2026-01-11 16:20:01.50	158.85	73.86	-36.6	-37.9	27.4	3.03e+01	45	28	0	80216064	48	6037
2026-01-11 16:20:02.51	160.23	73.41	-36.9	-38.2	27.1	3.03e+01	60	28	0	82313216	48	6244
2026-01-11 16:20:03.52	161.53	72.95	-37.3	-38.8	26.6	3.03e+01	54	28	0	83886080	48	6653
2026-01-11 16:20:04.53	162.77	72.49	-37.1	-38.4	27.0	3.03e+01	58	28	0	85983232	48	6386
2026-01-11 16:20:05.54	163.93	72.02	-37.4	-38.8	26.5	3.03e+01	59	28	0	87556096	48	6722
2026-01-11 16:20:06.55	165.03	71.54	-38.1	-39.6	25.9	3.03e+01	48	28	0	89653248	50	6535
2026-01-11 16:20:07.56	166.07	71.07	-37.5	-38.9	26.5	3.03e+01	63	28	0	91750400	50	6025
2026-01-11 16:20:08.57	167.06	70.59	-38.3	-39.7	25.7	3.03e+01	56	28	0	93323264	50	6639
2026-01-11 16:20:09.58	168.00	70.10	-37.7	-39.0	26.4	3.03e+01	62	28	0	95420416	50	6113
2026-01-11 16:20:10.59	168.89	69.62	-38.1	-39.6	26.0	3.03e+01	60	28	0	96993280	50	6504
2026-01-11 16:20:11.60	169.74	69.13	-37.8	-39.3	26.1	3.03e+01	41	28	0	99090432	50	6293
2026-01-11 16:20:12.61	170.54	68.64	-37.5	-38.9	26.4	3.03e+01	60	28	0	101187584	50	5996
2026-01-11 16:20:13.62	171.31	68.15	-37.5	-38.9	26.5	3.03e+01	60	28	0	102760448	50	6028
2026-01-11 16:20:14.63	172.04	67.66	-37.7	-39.1	26.4	3.03e+01	47	28	0	104857600	50	6153
2026-01-11 16:20:15.64	172.73	67.17	-37.6	-39.0	26.4	3.03e+01	58	28	0	106430464	50	6125
2026-01-11 16:20:16.65	173.40	66.68	-37.3	-38.7	26.8	3.03e+01	59	28	0	108527616	50	5882
2026-01-11 16:20:17.66	174.03	66.19	-36.9	-38.2	27.1	3.03e+01	60	28	0	110624768	48	6263
2026-01-11 16:20:18.67	174.64	65.70	-37.6	-39.1	26.4	3.03e+01	58	28	0	112197632	48	6894
2026-01-11 16:20:19.68	175.22	65.21	-37.6	-39.0	26.5	3.03e+01	55	28	0	114294784	48	6842
2026-01-11 16:20:20.69	175.77	64.72	-36.8	-38.1	27.2	3.03e+01	57	28	0	116391936	48	6201
2026-01-11 16:20:21.70	176.30	64.23	-36.6	-37.9	27.4	3.03e+01	59	28	0	117964800	48	6048
2026-01-11 16:20:22.71	176.81	63.75	-36.5	-37.8	27.4	3.03e+01	51	28	0	120061952	48	5963
2026-01-11 16:20:23.72	177.30	63.26	-36.9	-38.3	27.0	3.03e+01	57	28	0	121634816	48	6280
2026-01-11 16:20:24.73	177.77	62.78	-36.6	-38.0	27.5	3.03e+01	56	28	0	123731968	48	6074
2026-01-11 16:20:25.74	178.22	62.30	-35.7	-36.9	28.3	3.03e+01	58	28	0	125829120	46	6056
2026-01-11 16:20:26.74	178.65	61.83	-35.4	-36.6	28.6	3.03e+01	62	28	0	127401984	46	5836
2026-01-11 16:20:27.76	179.07	61.35	-35.4	-36.6	28.5	3.03e+01	49	28	0	129499136	46	5813
2026-01-11 16:20:28.77	179.48	60.88	-35.7	-37.1	28.2	3.03e+01	60	28	0	131072000	46	6136
2026-01-11 16:20:29.77	179.86	60.41	-35.2	-36.4	28.6	3.03e+01	59	28	0	133169152	46	5718
2026-01-11 16:20:30.78	180.23	59.94	-35.0	-36.2	29.0	3.03e+01	36	28	0	135266304	46	5579
2026-01-11 16:20:31.79	180.59	59.47	-35.1	-36.3	28.9	3.03e+01	60	28	0	136839168	44	6319
2026-01-11 16:20:32.79	180.94	59.02	-34.9	-36.1	28.9	3.03e+01	59	28	0	138936320	44	6182
2026-01-11 16:20:33.80	181.27	58.56	-34.7	-35.9	29.2	3.03e+01	60	28	0	141033472	44	6017
2026-01-11 16:20:34.81	181.60	58.10	-34.9	-36.1	29.1	3.03e+01	61	28	0	142606336	44	6188
2026-01-11 16:20:35.82	181.91	57.64	-34.7	-35.9	29.2	3.03e+01	52	28	0	144703488	44	6062
2026-01-11 16:20:36.83	182.21	57.19	-34.6	-35.8	29.3	3.03e+01	60	28	0	146276352	44	5981
2026-01-11 16:20:37.84	182.51	56.74	-34.4	-35.6	29.3	3.03e+01	59	28	0	148373504	44	5838
2026-01-11 16:20:38.85	182.79	56.29	-34.2	-35.4	29.6	3.03e+01	57	28	0	149946368	44	5703
2026-01-11 16:20:39.86	183.07	55.85	-34.1	-35.3	29.8	3.03e+01	58	28	0	152043520	44	5626
2026-01-11 16:20:40.87	183.34	55.41	-34.2	-35.4	29.7	3.03e+01	45	28	0	154140672	44	5699
2026-01-11 16:20:41.88	183.59	54.97	-33.8	-35.0	30.0	3.03e+01	60	28	0	155713536	42	6097
2026-01-11 16:20:42.88	183.84	54.55	-33.7	-34.9	30.1	3.03e+01	63	28	0	157810688	42	5996
2026-01-11 16:20:43.89	184.09	54.12	-33.8	-35.0	30.0	3.03e+01	51	28	0	159383552	42	6093
2026-01-11 16:20:44.90	184.32	53.69	-34.2	-35.4	29.6	3.03e+01	57	28	0	161480704	42	6391
2026-01-11 16:20:45.91	184.55	53.26	-34.0	-35.2	29.8	3.03e+01	62	28	0	163577856	42	6256
2026-01-11 16:20:46.91	184.78	52.85	-34.1	-35.3	29.8	3.03e+01	57	28	0	165150720	42	6288
2026-01-11 16:20:47.92	184.99	52.43	-34.1	-35.3	29.7	3.03e+01	57	28	0	167247872	42	6316
2026-01-11 16:20:48.93	185.20	52.02	-33.7	-34.8	30.1	3.03e+01	52	28	0	169345024	42	5976
2026-01-11 16:20:49.94	185.41	51.60	-33.9	-35.1	30.0	3.03e+01	57	28	0	170917888	42	6173
2026-01-11 16:20:50.95	185.61	51.20	-33.9	-35.1	29.9	3.03e+01	59	28	0	173015040	42	6168
2026-01-11 16:20:51.96	185.80	50.79	-34.0	-35.2	29.9	3.03e+01	46	28	0	174587904	42	6211
2026-01-11 16:20:52.97	185.99	50.39	-34.1	-35.3	29.8	3.03e+01	57	28	0	176685056	42	6327
2026-01-11 16:20:53.98	186.18	49.99	-34.4	-35.7	29.5	3.03e+01	58	28	0	178782208	42	6584
2026-01-11 16:20:54.99	186.36	49.60	-34.7	-35.9	29.1	3.03e+01	57	28	0	180355072	42	6784
2026-01-11 16:20:55.99	186.53	49.21	-34.8	-36.0	29.0	3.03e+01	59	28	0	182452224	42	6863
2026-01-11 16:20:57.00	186.70	48.82	-34.7	-36.0	29.1	3.03e+01	51	28	0	184025088	42	6812
2026-01-11 16:20:58.01	186.87	48.44	-34.7	-35.9	29.2	3.03e+01	59	28	0	186122240	42	6784
2026-01-11 16:20:59.02	187.03	48.06	-34.4	-35.6	29.4	3.03e+01	61	28	0	188219392	42	6562
2026-01-11 16:21:00.03	187.19	47.68	-34.4	-35.6	29.5	3.03e+01	49	28	0	189792256	42	6531
2026-01-11 16:21:01.04	187.35	47.31	-34.4	-35.6	29.5	3.03e+01	60	28	0	191889408	42	6523
2026-01-11 16:21:02.05	187.50	46.93	-34.5	-35.7	29.4	3.03e+01	62	28	0	193462272	42	6608
2026-01-11 16:21:03.06	187.65	46.56	-34.6	-35.8	29.3	3.03e+01	60	28	0	195559424	42	6707
2026-01-11 16:21:04.07	187.79	46.20	-34.7	-35.9	29.4	3.03e+01	58	28	0	197656576	42	6754
2026-01-11 16:21:05.08	187.94	45.84	-34.7	-36.0	29.2	3.03e+01	51	28	0	199229440	42	6816
2026-01-11 16:21:06.09	188.07	45.48	-34.7	-35.9	29.1	3.03e+01	57	28	0	201326592	42	6779
2026-01-11 16:21:07.10	188.21	45.12	-34.7	-36.0	29.1	3.03e+01	57	28	0	202899456	42	6822
2026-01-11 16:21:08.11	188.34	44.77	-34.7	-35.9	29.2	3.03e+01	46	28	0	204996608	42	6751
2026-01-11 16:21:09.12	188.47	44.42	-34.4	-35.6	29.4	3.03e+01	60	28	0	207093760	42	6551
2026-01-11 16:21:10.13	188.60	44.07	-34.6	-35.8	29.3	3.03e+01	59	28	0	208666624	42	6687
2026-01-11 16:21:11.14	188.72	43.73	-34.7	-36.0	29.2	3.03e+01	57	28	0	210763776	42	6805
2026-01-11 16:21:12.15	188.84	43.39	-34.6	-35.9	29.1	3.03e+01	55	28	0	212860928	42	6736
2026-01-11 16:21:13.16	188.96	43.05	-34.7	-35.9	29.2	3.03e+01	54	28	0	214433792	42	6786
2026-01-11 16:21:14.17	189.08	42.72	-34.9	-36.2	28.9	3.03e+01	60	28	0	216530944	42	6983
2026-01-11 16:21:15.18	189.19	42.39	-35.0	-36.2	28.9	3.03e+01	59	28	0	218103808	44	6252
2026-01-11 16:21:16.19	189.31	42.06	-34.8	-36.1	29.1	3.03e+01	62	28	0	220200960	44	6155
2026-01-11 16:21:17.20	189.42	41.73	-35.0	-36.2	28.9	3.03e+01	62	28	0	222298112	44	6249
2026-01-11 16:21:18.21	189.52	41.41	-35.0	-36.3	28.8	3.03e+01	45	28	0	223870976	44	6299
2026-01-11 16:21:19.22	189.63	41.09	-35.0	-36.3	28.8	3.03e+01	59	28	0	225968128	44	6311
2026-01-11 16:21:20.23	189.73	40.78	-35.0	-36.2	28.9	3.03e+01	58	28	0	227540992	44	6274
2026-01-11 16:21:21.24	189.84	40.46	-35.2	-36.4	28.7	3.03e+01	54	28	0	229638144	44	6399
2026-01-11 16:21:22.25	189.93	40.15	-35.4	-36.7	28.6	3.03e+01	59	28	0	231735296	44	6582
2026-01-11 16:21:23.25	190.03	39.84	-35.6	-36.9	28.2	3.03e+01	59	28	0	233308160	44	6785
2026-01-11 16:21:24.26	190.13	39.54	-35.5	-36.8	28.3	3.03e+01	58	28	0	235405312	44	6692
2026-01-11 16:21:25.27	190.22	39.24	-35.3	-36.6	28.6	3.03e+01	59	28	0	237502464	44	6523
2026-01-11 16:21:26.28	190.32	38.94	-35.4	-36.7	28.6	3.03e+01	56	28	0	239075328	44	6592
2026-01-11 16:21:27.29	190.41	38.64	-35.5	-36.8	28.4	3.03e+01	57	28	0	241172480	44	6685
2026-01-11 16:21:28.30	190.50	38.34	-35.6	-36.9	28.2	3.03e+01	60	28	0	242745344	44	6793
2026-01-11 16:21:29.31	190.58	38.05	-35.5	-36.8	28.5	3.03e+01	44	28	0	244842496	44	6655
2026-01-11 16:21:30.32	190.67	37.76	-35.5	-36.8	28.4	3.03e+01	58	28	0	246939648	44	6650
2026-01-11 16:21:31.33	190.76	37.47	-35.1	-36.4	28.7	3.03e+01	55	28	0	248512512	44	6404
2026-01-11 16:21:32.34	190.84	37.19	-35.1	-36.4	28.8	3.03e+01	58	28	0	250609664	44	6373
2026-01-11 16:21:33.35	190.92	36.91	-35.0	-36.2	29.0	3.03e+01	59	28	0	252182528	44	6266
2026-01-11 16:21:34.36	191.00	36.63	-34.8	-36.1	29.1	3.03e+01	59	28	0	254279680	44	6142
2026-01-11 16:21:35.37	191.08	36.35	-34.6	-35.8	29.3	3.03e+01	62	28	0	256376832	44	5958
2026-01-11 16:21:36.38	191.16	36.08	-34.5	-35.7	29.4	3.03e+01	57	28	0	257949696	44	5906
2026-01-11 16:21:37.39	191.24	35.80	-34.3	-35.5	29.6	3.03e+01	45	28	0	260046848	44	5750
2026-01-11 16:21:38.40	191.31	35.53	-34.3	-35.5	29.5	3.03e+01	57	28	0	261619712	44	5776
2026-01-11 16:21:39.41	191.39	35.27	-34.2	-35.4	29.7	3.03e+01	57	28	0	263716864	44	5672
2026-01-11 16:21:40.42	191.46	35.00	-34.3	-35.5	29.6	3.03e+01	57	28	0	265814016	44	5747
2026-01-11 16:21:41.43	191.53	34.74	-34.3	-35.5	29.6	3.03e+01	58	28	0	267386880	44	5744
2026-01-11 16:21:42.44	191.60	34.48	-34.4	-35.6	29.4	3.03e+01	48	28	0	269484032	44	5823
2026-01-11 16:21:43.44	191.67	34.22	-34.2	-35.4	29.7	3.03e+01	58	28	0	271056896	44	5709
2026-01-11 16:21:44.45	191.74	33.97	-34.1	-35.3	29.6	3.03e+01	59	28	0	273154048	44	5633
2026-01-11 16:21:45.46	191.81	33.71	-33.8	-35.0	30.0	3.03e+01	52	28	0	275251200	42	6130
2026-01-11 16:21:46.47	191.88	33.46	-33.8	-35.1	30.0	3.03e+01	60	28	0	276824064	42	6140
2026-01-11 16:21:47.48	191.94	33.21	-33.7	-34.9	30.0	3.03e+01	60	28	0	278921216	42	6049
2026-01-11 16:21:48.49	192.01	32.96	-33.6	-34.8	30.1	3.03e+01	59	28	0	281018368	42	5976
2026-01-11 16:21:49.50	192.07	32.72	-33.7	-34.9	30.0	3.03e+01	62	28	0	282591232	42	6043
2026-01-11 16:21:50.51	192.13	32.47	-33.4	-34.6	30.1	3.03e+01	50	28	0	284688384	42	5823
2026-01-11 16:21:51.52	192.19	32.23	-33.4	-34.6	30.2	3.03e+01	59	28	0	286261248	42	5813
2026-01-11 16:21:52.53	192.26	31.99	-33.2	-34.3	30.4	3.03e+01	59	28	0	288358400	42	5643
2026-01-11 16:21:53.54	192.32	31.76	-33.3	-34.4	30.2	3.03e+01	53	28	0	290455552	42	5718
2026-01-11 16:21:54.55	192.38	31.52	-33.4	-34.6	30.1	3.03e+01	59	28	0	292028416	42	5834
2026-01-11 16:21:55.56	192.43	31.29	-33.4	-34.6	30.3	3.03e+01	47	28	0	294125568	42	5805
2026-01-11 16:21:56.57	192.49	31.06	-33.4	-34.6	30.2	3.03e+01	61	28	0	295698432	42	5830
2026-01-11 16:21:57.58	192.55	30.83	-33.3	-34.5	30.2	3.03e+01	58	28	0	297795584	42	5754
2026-01-11 16:21:58.59	192.61	30.60	-33.4	-34.6	30.2	3.03e+01	49	28	0	299892736	42	5802
2026-01-11 16:21:59.60	192.66	30.37	-33.4	-34.6	30.2	3.03e+01	59	28	0	301465600	42	5838
2026-01-11 16:22:00.61	192.72	30.15	-33.3	-34.5	30.3	3.03e+01	60	28	0	303562752	42	5771
2026-01-11 16:22:01.62	192.77	29.93	-33.5	-34.7	30.1	3.03e+01	61	28	0	305659904	42	5910
2026-01-11 16:22:02.62	192.82	29.71	-33.6	-34.8	30.1	3.03e+01	59	28	0	307232768	42	5939
2026-01-11 16:22:03.63	192.88	29.49	-33.7	-34.9	29.9	3.03e+01	58	28	0	309329920	42	6023
2026-01-11 16:22:04.64	192.93	29.27	-33.6	-34.8	29.9	3.03e+01	59	28	0	310902784	42	5990
2026-01-11 16:22:05.65	192.98	29.06	-33.7	-34.9	29.8	3.03e+01	58	28	0	312999936	42	6039
2026-01-11 16:22:06.66	193.03	28.85	-33.8	-35.0	29.8	3.03e+01	52	28	0	315097088	42	6074
2026-01-11 16:22:07.67	193.08	28.63	-33.7	-34.9	29.8	3.03e+01	57	28	0	316669952	42	6017
2026-01-11 16:22:08.68	193.13	28.42	-33.5	-34.7	29.9	3.03e+01	58	28	0	318767104	42	5910
2026-01-11 16:22:09.69	193.18	28.22	-33.5	-34.6	30.1	3.03e+01	56	28	0	320339968	42	5851
2026-01-11 16:22:10.70	193.23	28.01	-33.5	-34.6	30.1	3.03e+01	58	28	0	322437120	42	5852
2026-01-11 16:22:11.71	193.27	27.81	-33.5	-34.7	30.1	3.03e+01	44	28	0	324534272	42	5910
2026-01-11 16:22:12.72	193.32	27.60	-33.6	-34.7	30.0	3.03e+01	58	28	0	326107136	42	5925
2026-01-11 16:22:13.72	193.37	27.40	-33.7	-34.9	30.0	3.03e+01	59	28	0	328204288	42	6023
2026-01-11 16:22:14.73	193.41	27.20	-33.7	-34.9	30.0	3.03e+01	43	28	0	329777152	42	6021
2026-01-11 16:22:15.74	193.46	27.00	-33.8	-34.9	29.9	3.03e+01	58	28	0	331874304	42	6064
2026-01-11 16:22:16.75	193.50	26.81	-33.8	-35.0	30.0	3.03e+01	59	28	0	333971456	42	6085
2026-01-11 16:22:17.76	193.55	26.61	-34.0	-35.2	29.8	3.03e+01	57	28	0	335544320	42	6231
2026-01-11 16:22:18.77	193.59	26.42	-33.9	-35.1	29.8	3.03e+01	59	28	0	337641472	42	6167
2026-01-11 16:22:19.78	193.64	26.22	-34.1	-35.3	29.7	3.03e+01	44	28	0	339214336	42	6281
2026-01-11 16:22:20.79	193.68	26.03	-34.3	-35.5	29.6	3.03e+01	61	28	0	341311488	42	6450
2026-01-11 16:22:21.80	193.72	25.84	-34.3	-35.5	29.4	3.03e+01	57	28	0	343408640	42	6461
2026-01-11 16:22:22.81	193.76	25.66	-34.3	-35.5	29.6	3.03e+01	57	28	0	344981504	42	6486
2026-01-11 16:22:23.82	193.80	25.47	-34.4	-35.6	29.4	3.03e+01	64	28	0	347078656	42	6565
2026-01-11 16:22:24.83	193.85	25.28	-34.5	-35.7	29.3	3.03e+01	58	28	0	348651520	42	6644
2026-01-11 16:22:25.84	193.89	25.10	-34.5	-35.8	29.3	3.03e+01	60	28	0	350748672	42	6684
2026-01-11 16:22:26.85	193.93	24.92	-34.7	-35.9	29.2	3.03e+01	58	28	0	352845824	42	6790
2026-01-11 16:22:27.86	193.97	24.74	-34.7	-35.9	29.2	3.03e+01	52	28	0	354418688	42	6792
2026-01-11 16:22:28.87	194.00	24.56	-34.7	-36.0	29.1	3.03e+01	60	28	0	356515840	42	6825
2026-01-11 16:22:29.88	194.04	24.38	-34.9	-36.1	29.0	3.03e+01	61	28	0	358612992	42	6943
2026-01-11 16:22:30.89	194.08	24.20	-34.9	-36.1	29.0	3.03e+01	59	28	0	360185856	44	6176
2026-01-11 16:22:31.90	194.12	24.02	-34.9	-36.1	28.9	3.03e+01	55	28	0	362283008	44	6200
2026-01-11 16:22:32.91	194.16	23.85	-34.8	-36.1	28.9	3.03e+01	49	28	0	363855872	44	6142
2026-01-11 16:22:33.92	194.19	23.68	-34.8	-36.0	28.9	3.03e+01	58	28	0	365953024	44	6100
2026-01-11 16:22:34.93	194.23	23.50	-34.7	-36.0	28.9	3.03e+01	57	28	0	368050176	44	6099
2026-01-11 16:22:35.93	194.27	23.33	-34.6	-35.8	29.1	3.03e+01	45	28	0	369623040	44	5994
2026-01-11 16:22:36.94	194.30	23.16	-34.6	-35.8	29.2	3.03e+01	56	28	0	371720192	44	5962
2026-01-11 16:22:37.95	194.34	23.00	-34.6	-35.8	29.2	3.03e+01	59	28	0	373293056	44	5951
2026-01-11 16:22:38.95	194.37	22.83	-34.6	-35.8	29.2	3.03e+01	58	28	0	375390208	44	5959
2026-01-11 16:22:39.96	194.41	22.66	-34.7	-35.9	29.0	3.03e+01	59	28	0	377487360	44	6043
2026-01-11 16:22:40.97	194.44	22.50	-34.6	-35.8	29.1	3.03e+01	59	28	0	379060224	44	5993
2026-01-11 16:22:41.98	194.48	22.33	-34.4	-35.6	29.3	3.03e+01	61	28	0	381157376	44	5832
2026-01-11 16:22:42.99	194.51	22.17	-34.4	-35.6	29.3	3.03e+01	57	28	0	382730240	44	5841
2026-01-11 16:22:44.00	194.55	22.01	-34.3	-35.5	29.4	3.03e+01	50	28	0	384827392	44	5755
2026-01-11 16:22:45.00	194.58	21.85	-34.3	-35.5	29.5	3.03e+01	58	28	0	386924544	44	5736
2026-01-11 16:22:46.01	194.61	21.69	-34.3	-35.6	29.4	3.03e+01	58	28	0	388497408	44	5793
2026-01-11 16:22:47.02	194.64	21.53	-34.3	-35.5	29.5	3.03e+01	61	28	0	390594560	44	5743
2026-01-11 16:22:48.03	194.68	21.37	-34.4	-35.6	29.3	3.03e+01	63	28	0	392167424	44	5813
2026-01-11 16:22:49.04	194.71	21.22	-34.2	-35.4	29.5	3.03e+01	52	28	0	394264576	44	5672
2026-01-11 16:22:50.05	194.74	21.06	-34.3	-35.5	29.4	3.03e+01	58	28	0	396361728	44	5730
2026-01-11 16:22:51.06	194.77	20.91	-34.3	-35.4	29.4	3.03e+01	60	28	0	397934592	44	5721
2026-01-11 16:22:52.07	194.80	20.76	-34.3	-35.6	29.3	3.03e+01	49	28	0	400031744	44	5800
2026-01-11 16:22:53.08	194.83	20.60	-34.4	-35.6	29.4	3.03e+01	58	28	0	402128896	44	5805
2026-01-11 16:22:54.09	194.87	20.45	-34.3	-35.5	29.4	3.03e+01	61	28	0	403701760	44	5762
2026-01-11 16:22:55.10	194.90	20.30	-34.2	-35.4	29.5	3.03e+01	59	28	0	405798912	44	5690
2026-01-11 16:22:56.11	194.93	20.15	-34.2	-35.4	29.5	3.03e+01	57	28	0	407371776	44	5698
2026-01-11 16:22:57.12	194.96	20.00	-34.3	-35.5	29.5	3.03e+01	48	28	0	409468928	44	5735
2026-01-11 16:22:58.13	194.98	19.86	-34.2	-35.4	29.5	3.03e+01	57	28	0	411566080	44	5674
2026-01-11 16:22:59.14	195.01	19.71	-34.2	-35.4	29.5	3.03e+01	58	28	0	413138944	44	5660
2026-01-11 16:23:00.15	195.04	19.56	-34.3	-35.5	29.5	3.03e+01	47	28	0	415236096	44	5744
2026-01-11 16:23:01.16	195.07	19.42	-34.1	-35.3	29.5	3.03e+01	56	28	0	416808960	44	5642
2026-01-11 16:23:02.16	195.10	19.28	-34.1	-35.3	29.6	3.03e+01	48	28	0	418906112	44	5608
2026-01-11 16:23:03.18	195.13	19.13	-34.2	-35.4	29.4	3.03e+01	60	28	0	421003264	44	5707
2026-01-11 16:23:04.19	195.16	18.99	-34.3	-35.5	29.4	3.03e+01	58	28	0	422576128	44	5758
2026-01-11 16:23:05.19	195.18	18.85	-34.3	-35.5	29.4	3.03e+01	53	28	0	424673280	44	5790
2026-01-11 16:23:06.20	195.21	18.71	-34.4	-35.6	29.3	3.03e+01	61	28	0	426770432	44	5823
2026-01-11 16:23:07.22	195.24	18.57	-34.4	-35.6	29.4	3.03e+01	59	28	0	428343296	44	5806
2026-01-11 16:23:08.23	195.27	18.43	-34.3	-35.6	29.3	3.03e+01	59	28	0	430440448	44	5818
2026-01-11 16:23:09.23	195.29	18.30	-34.5	-35.7	29.3	3.03e+01	63	28	0	432013312	44	5874
2026-01-11 16:23:10.25	195.32	18.16	-34.3	-35.5	29.3	3.03e+01	39	28	0	434110464	44	5769
2026-01-11 16:23:11.26	195.35	18.02	-34.4	-35.6	29.3	3.03e+01	59	28	0	436207616	44	5824
2026-01-11 16:23:12.26	195.37	17.89	-34.3	-35.5	29.4	3.03e+01	58	28	0	437780480	44	5763
2026-01-11 16:23:13.27	195.40	17.75	-34.4	-35.6	29.2	3.03e+01	44	28	0	439877632	44	5815
2026-01-11 16:23:14.28	195.42	17.62	-34.6	-35.8	29.1	3.03e+01	58	28	0	441450496	44	5969
2026-01-11 16:23:15.29	195.45	17.49	-34.6	-35.9	28.9	3.03e+01	62	28	0	443547648	44	6024
2026-01-11 16:23:16.30	195.48	17.36	-34.5	-35.8	29.1	3.03e+01	58	28	0	445120512	44	5928
2026-01-11 16:23:17.31	195.50	17.23	-34.5	-35.8	29.1	3.03e+01	58	28	0	447217664	44	5938
2026-01-11 16:23:18.31	195.53	17.10	-34.5	-35.7	29.1	3.03e+01	62	28	0	449314816	44	5889
2026-01-11 16:23:19.32	195.55	16.97	-34.4	-35.6	29.1	3.03e+01	61	28	0	450887680	44	5840
2026-01-11 16:23:20.33	195.57	16.84	-34.4	-35.7	29.0	3.03e+01	57	28	0	452984832	44	5882
2026-01-11 16:23:21.35	195.60	16.71	-34.3	-35.5	29.1	3.03e+01	54	28	0	455081984	44	5762
2026-01-11 16:23:22.36	195.62	16.58	-34.2	-35.4	29.2	3.03e+01	58	28	0	456654848	44	5721
2026-01-11 16:23:23.36	195.65	16.46	-34.3	-35.5	29.3	3.03e+01	60	28	0	458752000	44	5753
2026-01-11 16:23:24.37	195.67	16.33	-34.3	-35.5	29.2	3.03e+01	61	28	0	460324864	44	5789
2026-01-11 16:23:25.38	195.69	16.20	-34.5	-35.7	29.1	3.03e+01	59	28	0	462422016	44	5903
2026-01-11 16:23:26.39	195.72	16.08	-34.2	-35.4	29.4	3.03e+01	48	27	0	464519168	44	5707
2026-01-11 16:23:27.40	195.74	15.96	-34.2	-35.4	29.3	3.03e+01	58	27	0	466092032	44	5715
2026-01-11 16:23:28.41	195.76	15.83	-34.2	-35.4	29.3	3.03e+01	58	27	0	468189184	44	5723
2026-01-11 16:23:29.42	195.79	15.71	-34.2	-35.4	29.3	3.03e+01	40	28	0	470286336	44	5692
2026-01-11 16:23:30.43	195.81	15.59	-34.1	-35.3	29.4	3.03e+01	60	28	0	471859200	44	5649
2026-01-11 16:23:31.44	195.83	15.47	-34.1	-35.3	29.3	3.03e+01	57	28	0	473956352	44	5635
2026-01-11 16:23:32.44	195.86	15.35	-34.2	-35.4	29.3	3.03e+01	59	27	0	475529216	44	5675
2026-01-11 16:23:33.45	195.88	15.23	-34.1	-35.4	29.3	3.03e+01	58	27	0	477626368	44	5665
2026-01-11 16:23:34.46	195.90	15.11	-34.1	-35.3	29.4	3.03e+01	52	27	0	479723520	44	5638
2026-01-11 16:23:35.47	195.92	14.99	-34.1	-35.3	29.4	3.03e+01	56	28	0	481296384	44	5639
2026-01-11 16:23:36.48	195.94	14.87	-34.0	-35.2	29.4	3.03e+01	61	28	0	483393536	44	5572
2026-01-11 16:23:37.49	195.97	14.75	-34.1	-35.3	29.5	3.03e+01	51	27	0	484966400	44	5598
2026-01-11 16:23:38.49	195.99	14.64	-34.1	-35.3	29.4	3.03e+01	60	27	0	487063552	44	5616
2026-01-11 16:23:39.50	196.01	14.52	-34.1	-35.3	29.4	3.03e+01	45	27	0	489160704	44	5652
2026-01-11 16:23:40.52	196.03	14.41	-34.1	-35.3	29.5	3.03e+01	60	28	0	490733568	44	5625
2026-01-11 16:23:41.53	196.05	14.29	-34.1	-35.3	29.4	3.03e+01	59	28	0	492830720	44	5631
2026-01-11 16:23:42.54	196.07	14.18	-34.0	-35.2	29.5	3.03e+01	52	27	0	494403584	44	5556
2026-01-11 16:23:43.54	196.09	14.07	-34.1	-35.3	29.5	3.03e+01	58	28	0	496500736	44	5618
2026-01-11 16:23:44.55	196.11	13.95	-34.1	-35.3	29.4	3.03e+01	60	28	0	498597888	44	5651
2026-01-11 16:23:45.56	196.13	13.84	-34.1	-35.3	29.4	3.03e+01	58	28	0	500170752	44	5656
2026-01-11 16:23:46.58	196.15	13.73	-34.1	-35.3	29.4	3.03e+01	58	28	0	502267904	44	5647
2026-01-11 16:23:47.59	196.17	13.62	-34.0	-35.2	29.4	3.03e+01	46	27	0	503840768	44	5592
2026-01-11 16:23:48.60	196.19	13.50	-34.0	-35.2	29.4	3.03e+01	59	28	0	505937920	44	5572
2026-01-11 16:23:49.60	196.21	13.40	-34.0	-35.3	29.4	3.03e+01	59	28	0	508035072	44	5597
2026-01-11 16:23:50.61	196.23	13.29	-34.1	-35.3	29.5	3.03e+01	47	28	0	509607936	44	5615
2026-01-11 16:23:51.62	196.25	13.18	-34.2	-35.4	29.4	3.03e+01	56	28	0	511705088	44	5687
2026-01-11 16:23:52.63	196.27	13.07	-34.0	-35.2	29.5	3.03e+01	60	28	0	513277952	44	5588
2026-01-11 16:23:53.64	196.29	12.96	-34.2	-35.4	29.4	3.03e+01	59	28	0	515375104	44	5695
2026-01-11 16:23:54.65	196.31	12.85	-34.1	-35.3	29.4	3.03e+01	60	27	0	517472256	44	5628
2026-01-11 16:23:55.66	196.33	12.75	-34.1	-35.3	29.4	3.03e+01	56	27	0	519045120	44	5621
2026-01-11 16:23:56.67	196.35	12.64	-34.1	-35.3	29.4	3.03e+01	58	27	0	521142272	44	5599
2026-01-11 16:23:57.68	196.37	12.53	-34.1	-35.3	29.4	3.03e+01	61	28	0	523239424	44	5616
2026-01-11 16:23:58.69	196.39	12.43	-34.1	-35.3	29.4	3.03e+01	45	28	0	524812288	44	5650
2026-01-11 16:23:59.69	196.41	12.32	-34.1	-35.3	29.4	3.03e+01	56	27	0	526909440	44	5651
2026-01-11 16:24:00.70	196.43	12.22	-34.2	-35.3	29.3	3.03e+01	59	27	0	528482304	44	5657
2026-01-11 16:24:01.71	196.44	12.11	-34.2	-35.4	29.3	3.03e+01	58	27	0	530579456	44	5666
2026-01-11 16:24:02.72	196.46	12.01	-34.2	-35.4	29.3	3.03e+01	60	27	0	532676608	44	5690
2026-01-11 16:24:03.73	196.48	11.91	-34.2	-35.4	29.3	3.03e+01	55	27	0	534249472	44	5671
2026-01-11 16:24:04.74	196.50	11.81	-34.3	-35.5	29.2	3.03e+01	56	28	0	536346624	44	5767
2026-01-11 16:24:05.74	196.52	11.70	-34.3	-35.4	29.2	3.03e+01	60	28	0	537919488	44	5723
2026-01-11 16:24:06.75	196.54	11.60	-34.3	-35.5	29.3	3.03e+01	50	27	0	540016640	44	5756
2026-01-11 16:24:07.76	196.55	11.50	-34.5	-35.7	29.1	3.03e+01	59	27	0	542113792	44	5884
2026-01-11 16:24:08.77	196.57	11.40	-34.3	-35.5	29.2	3.03e+01	57	27	0	543686656	44	5768
2026-01-11 16:24:09.77	196.59	11.30	-34.5	-35.7	29.0	3.03e+01	59	27	0	545783808	44	5904
2026-01-11 16:24:10.78	196.61	11.20	-34.4	-35.6	29.1	3.03e+01	58	27	0	547356672	44	5856
2026-01-11 16:24:11.79	196.62	11.10	-34.4	-35.6	29.1	3.03e+01	44	28	0	549453824	44	5820
2026-01-11 16:24:12.80	196.64	11.00	-34.4	-35.6	29.1	3.03e+01	58	27	0	551550976	44	5803
2026-01-11 16:24:13.81	196.66	10.91	-34.5	-35.7	29.0	3.03e+01	59	27	0	553123840	44	5916
2026-01-11 16:24:14.81	196.67	10.81	-34.4	-35.7	29.1	3.03e+01	46	27	0	555220992	44	5862
2026-01-11 16:24:15.82	196.69	10.71	-34.5	-35.7	29.1	3.03e+01	60	27	0	556793856	44	5882
2026-01-11 16:24:16.83	196.71	10.61	-34.5	-35.7	29.0	3.03e+01	63	27	0	558891008	44	5903
2026-01-11 16:24:17.84	196.73	10.52	-34.6	-35.8	28.9	3.03e+01	61	27	0	560988160	44	5969
2026-01-11 16:24:18.85	196.74	10.42	-34.6	-35.8	28.8	3.03e+01	59	27	0	562561024	44	5971
2026-01-11 16:24:19.86	196.76	10.32	-34.7	-35.9	28.9	3.03e+01	52	27	0	564658176	44	6028
2026-01-11 16:24:20.87	196.78	10.23	-34.7	-35.9	28.8	3.03e+01	59	27	0	566755328	44	6047
2026-01-11 16:24:21.88	196.79	10.13	-34.7	-36.0	28.8	3.03e+01	60	27	0	568328192	44	6069
2026-01-11 16:24:22.89	196.81	10.04	-34.6	-35.8	29.0	3.03e+01	58	27	0	570425344	44	5987
2026-01-11 16:24:23.89	196.82	9.95	-34.8	-36.0	28.8	3.03e+01	59	28	0	571998208	44	6105
2026-01-11 16:24:24.91	196.84	9.85	-34.8	-36.1	28.7	3.03e+01	50	27	0	574095360	44	6146
2026-01-11 16:24:25.91	196.86	9.76	-34.7	-36.0	28.8	3.03e+01	58	27	0	576192512	44	6092
2026-01-11 16:24:26.92	196.87	9.67	-34.7	-36.0	28.8	3.03e+01	58	27	0	577765376	44	6082
2026-01-11 16:24:27.93	196.89	9.57	-34.8	-36.1	28.7	3.03e+01	46	27	0	579862528	44	6162
2026-01-11 16:24:28.94	196.90	9.48	-34.8	-36.1	28.7	3.03e+01	60	27	0	581435392	44	6141
2026-01-11 16:24:29.95	196.92	9.39	-34.8	-36.0	28.8	3.03e+01	58	27	0	583532544	44	6107
2026-01-11 16:24:30.96	196.94	9.30	-34.9	-36.1	28.6	3.03e+01	57	27	0	585629696	44	6197
2026-01-11 16:24:31.97	196.95	9.21	-34.9	-36.2	28.6	3.03e+01	57	28	0	587202560	44	6212
2026-01-11 16:24:32.97	196.97	9.12	-35.1	-36.4	28.3	3.03e+01	48	27	0	589299712	44	6408
2026-01-11 16:24:33.98	196.98	9.03	-35.2	-36.5	28.3	3.03e+01	58	27	0	590872576	44	6461
2026-01-11 16:24:34.99	197.00	8.94	-35.1	-36.4	28.4	3.03e+01	57	27	0	592969728	44	6351
2026-01-11 16:24:36.00	197.01	8.85	-35.0	-36.3	28.5	3.03e+01	40	27	0	595066880	44	6292
2026-01-11 16:24:37.00	197.03	8.76	-35.1	-36.4	28.3	3.03e+01	59	27	0	596639744	44	6399
2026-01-11 16:24:38.01	197.04	8.67	-35.1	-36.4	28.4	3.03e+01	60	27	0	598736896	44	6360
2026-01-11 16:24:39.02	197.06	8.58	-35.1	-36.4	28.4	3.03e+01	59	27	0	600309760	44	6359
2026-01-11 16:24:40.03	197.07	8.49	-35.3	-36.6	28.2	3.03e+01	57	27	0	602406912	44	6525
2026-01-11 16:24:41.04	197.09	8.40	-35.2	-36.5	28.2	3.03e+01	53	27	0	604504064	44	6468
2026-01-11 16:24:42.05	197.10	8.32	-35.3	-36.6	28.1	3.03e+01	60	27	0	606076928	44	6508
2026-01-11 16:24:43.06	197.12	8.23	-35.4	-36.7	28.1	3.03e+01	59	27	0	608174080	44	6606
2026-01-11 16:24:44.07	197.13	8.14	-35.2	-36.5	28.2	3.03e+01	48	27	0	609746944	44	6439
2026-01-11 16:24:45.08	197.15	8.05	-35.3	-36.6	28.2	3.03e+01	58	27	0	611844096	44	6564
