passes_logs/2026/01/11/R4.6S_Anadyr/R4.6S_Anadyr__20260111_205704_SUOMI_NPP_rec.log

#Pass ID: 20260111_205704_SUOMI NPP
#Satellite: SUOMI NPP
#Configuration: NPP
#almurnet v.1.7.20251203
#Start time: 2026-01-11 20:57:08

#Version: 2.2.20231116
#Station: R4.6S_Anadyr
#Location: 177.4865 lon 64.73178 lat
#TLE: 1 37849U 11061A   26011.57971124  .00000103  00000+0  69927-4 0  9996
#TLE: 2 37849  98.7807 313.6578 0002518  69.5076 290.6370 14.19524515736228

#Time	Az	El	Level	Level2	SNR	BER	BlckErr	Temp	State	Recorded	gain1	gain2
2026-01-11 20:57:08.27	78.55	0.18	-48.3	-62.1	3.3	1.54e+00	0	28	0	0	60	45937
2026-01-11 20:57:09.27	78.48	0.23	-48.2	-63.5	3.6	1.51e+00	0	28	104	0	60	53822
2026-01-11 20:57:10.28	78.41	0.28	-48.3	-63.4	3.6	1.51e+00	0	28	104	0	60	53610
2026-01-11 20:57:11.29	78.34	0.33	-48.3	-63.5	3.6	1.51e+00	0	28	104	0	60	53941
2026-01-11 20:57:12.30	78.27	0.38	-48.2	-63.4	3.6	1.51e+00	0	28	104	0	60	53762
2026-01-11 20:57:13.31	78.20	0.44	-48.3	-63.5	3.6	1.51e+00	0	28	104	0	60	54099
2026-01-11 20:57:14.32	78.13	0.49	-48.0	-63.4	3.6	1.51e+00	0	28	104	0	60	53614
2026-01-11 20:57:15.33	78.06	0.54	-48.2	-63.4	3.6	1.51e+00	0	28	104	0	60	53558
2026-01-11 20:57:16.34	77.99	0.59	-48.2	-63.4	3.6	1.51e+00	0	28	104	0	60	53729
2026-01-11 20:57:17.34	77.92	0.64	-48.2	-63.4	3.6	1.51e+00	0	28	104	0	60	53592
2026-01-11 20:57:18.36	77.84	0.70	-48.1	-63.2	3.6	1.51e+00	0	28	104	0	60	52487
2026-01-11 20:57:19.36	77.77	0.75	-47.9	-63.2	3.6	1.51e+00	0	28	104	0	60	51975
2026-01-11 20:57:20.37	77.70	0.80	-47.7	-63.0	3.6	1.51e+00	0	28	104	0	60	50874
2026-01-11 20:57:21.38	77.63	0.85	-47.4	-62.6	3.6	1.51e+00	0	28	104	0	60	49002
2026-01-11 20:57:22.39	77.56	0.90	-47.0	-62.1	3.6	1.51e+00	0	28	104	0	60	46080
2026-01-11 20:57:23.40	77.48	0.96	-46.2	-61.7	3.6	1.51e+00	0	28	104	0	60	44211
2026-01-11 20:57:24.41	77.41	1.01	-46.1	-61.7	3.6	1.51e+00	0	28	104	0	60	43955
2026-01-11 20:57:25.42	77.34	1.06	-46.1	-61.7	3.6	1.51e+00	0	28	104	0	60	44195
2026-01-11 20:57:26.43	77.26	1.11	-46.1	-61.7	3.6	1.51e+00	0	28	104	0	60	44008
2026-01-11 20:57:27.44	77.19	1.17	-46.1	-61.7	3.6	1.51e+00	0	28	104	0	60	43827
2026-01-11 20:57:28.45	77.11	1.22	-46.1	-61.7	3.6	1.51e+00	0	28	104	0	60	43977
2026-01-11 20:57:29.46	77.04	1.27	-46.1	-61.7	3.6	1.51e+00	0	28	104	0	60	43873
2026-01-11 20:57:30.46	76.97	1.32	-46.1	-61.6	3.6	1.51e+00	0	28	104	0	60	43689
2026-01-11 20:57:31.48	76.89	1.38	-46.2	-61.7	3.6	1.51e+00	0	28	104	0	60	43762
2026-01-11 20:57:32.49	76.81	1.43	-46.1	-61.6	3.6	1.51e+00	0	28	104	0	60	43481
2026-01-11 20:57:33.50	76.74	1.48	-46.1	-61.7	3.6	1.51e+00	0	29	104	0	60	43851
2026-01-11 20:57:34.50	76.66	1.53	-46.1	-61.6	3.6	1.51e+00	0	29	104	0	60	43548
2026-01-11 20:57:35.51	76.59	1.59	-46.1	-61.7	3.6	1.51e+00	0	29	104	0	60	43933
2026-01-11 20:57:36.52	76.51	1.64	-46.1	-61.7	3.6	1.51e+00	0	29	104	0	60	43891
2026-01-11 20:57:37.54	76.43	1.69	-46.1	-61.6	3.5	1.51e+00	0	29	104	0	60	43693
2026-01-11 20:57:38.54	76.36	1.74	-46.2	-61.7	3.6	1.51e+00	0	28	104	0	60	43824
2026-01-11 20:57:39.56	76.28	1.80	-46.1	-61.7	3.6	1.51e+00	0	29	104	0	60	43837
2026-01-11 20:57:40.57	76.20	1.85	-46.1	-61.6	3.6	1.51e+00	0	29	104	0	60	43495
2026-01-11 20:57:41.58	76.12	1.90	-46.1	-61.5	3.6	1.51e+00	0	29	104	0	60	42777
2026-01-11 20:57:42.59	76.05	1.96	-46.1	-61.5	3.6	1.51e+00	0	29	104	0	60	42759
2026-01-11 20:57:43.60	75.97	2.01	-46.1	-61.3	3.6	1.51e+00	0	29	104	0	60	42020
2026-01-11 20:57:44.61	75.89	2.06	-46.1	-61.3	3.6	1.51e+00	0	29	104	0	60	42056
2026-01-11 20:57:45.62	75.81	2.12	-46.1	-61.3	3.6	1.51e+00	0	29	104	0	60	42009
2026-01-11 20:57:46.63	75.73	2.17	-46.1	-61.6	3.6	1.51e+00	0	29	104	0	60	43271
2026-01-11 20:57:47.64	75.65	2.22	-46.1	-61.7	3.6	1.51e+00	0	29	104	0	60	44028
2026-01-11 20:57:48.65	75.57	2.28	-46.1	-61.7	3.6	1.51e+00	0	29	104	0	60	43728
2026-01-11 20:57:49.66	75.49	2.33	-46.1	-61.7	3.6	1.51e+00	0	29	104	0	60	43765
2026-01-11 20:57:50.66	75.41	2.38	-46.1	-61.6	3.6	1.51e+00	0	29	104	0	60	43629
2026-01-11 20:57:51.67	75.33	2.44	-46.1	-61.6	3.6	1.51e+00	0	29	104	0	60	43646
2026-01-11 20:57:52.68	75.25	2.49	-46.1	-61.7	3.6	1.51e+00	0	29	104	0	60	43804
2026-01-11 20:57:53.70	75.17	2.55	-46.1	-61.2	3.6	1.51e+00	0	29	104	0	60	41522
2026-01-11 20:57:54.71	75.08	2.60	-46.1	-60.6	3.6	1.51e+00	0	29	104	0	60	38630
2026-01-11 20:57:55.72	75.00	2.65	-46.1	-60.6	3.6	1.51e+00	0	29	104	0	60	38655
2026-01-11 20:57:56.72	74.92	2.71	-46.1	-60.6	3.6	1.51e+00	0	29	104	0	60	38909
2026-01-11 20:57:57.73	74.84	2.76	-46.1	-61.3	3.6	1.51e+00	0	29	104	0	60	41819
2026-01-11 20:57:58.74	74.75	2.81	-46.0	-59.5	3.6	1.51e+00	0	29	104	0	60	33965
2026-01-11 20:57:59.75	74.67	2.87	-45.7	-55.4	5.2	1.12e+00	0	29	0	0	60	21229
2026-01-11 20:58:00.76	74.59	2.92	-45.1	-51.4	8.6	8.16e-02	0	29	0	2097152	60	13497
2026-01-11 20:58:01.77	74.50	2.98	-44.5	-49.4	10.9	4.61e-03	0	29	0	3145728	60	10638
2026-01-11 20:58:02.78	74.42	3.03	-43.8	-47.7	12.9	9.03e-04	0	29	0	5242880	60	8776
2026-01-11 20:58:03.79	74.33	3.08	-44.9	-49.8	10.6	4.19e-05	0	29	0	7340032	60	11164
2026-01-11 20:58:04.80	74.25	3.14	-42.8	-45.4	15.4	4.65e-05	0	29	0	9437184	60	6760
2026-01-11 20:58:05.81	74.16	3.19	-46.1	-56.1	3.6	0.00e+00	29	29	104	11534336	60	23186
2026-01-11 20:58:06.82	74.08	3.25	-46.3	-57.4	3.8	1.51e+00	0	29	104	11534336	60	26689
2026-01-11 20:58:07.83	73.99	3.30	-43.6	-47.1	13.1	7.81e-03	0	29	0	11534336	60	8158
2026-01-11 20:58:08.84	73.91	3.36	-43.7	-47.2	13.5	3.96e-04	0	29	0	13631488	60	8237
2026-01-11 20:58:09.85	73.82	3.41	-43.9	-47.5	13.1	9.10e-06	0	29	0	14680064	60	8620
2026-01-11 20:58:10.86	73.73	3.46	-43.9	-47.4	13.3	9.91e-05	0	29	0	16777216	60	8439
2026-01-11 20:58:11.87	73.64	3.52	-44.1	-47.8	12.3	1.02e-04	0	29	0	18874368	60	8913
2026-01-11 20:58:12.88	73.56	3.57	-44.6	-48.9	12.3	9.15e-05	0	29	0	20971520	60	10069
2026-01-11 20:58:13.89	73.47	3.63	-44.1	-47.8	12.4	2.04e-04	0	29	0	23068672	60	8901
2026-01-11 20:58:14.89	73.38	3.68	-44.2	-48.0	12.9	2.89e-05	0	29	0	24117248	60	9098
2026-01-11 20:58:15.90	73.29	3.74	-44.0	-47.6	13.4	6.80e-06	0	29	0	26214400	60	8691
2026-01-11 20:58:16.91	73.20	3.79	-43.6	-46.7	14.1	0.00e+00	0	29	0	28311552	58	8781
2026-01-11 20:58:17.92	73.11	3.85	-42.7	-45.3	15.0	0.00e+00	0	29	0	30408704	58	7471
2026-01-11 20:58:18.93	73.02	3.90	-42.3	-44.7	16.1	0.00e+00	0	29	0	32505856	58	6944
2026-01-11 20:58:19.94	72.93	3.96	-42.7	-45.3	16.0	0.00e+00	0	29	0	33554432	58	7451
2026-01-11 20:58:20.95	72.84	4.01	-42.3	-44.6	15.2	0.00e+00	0	29	0	35651584	58	6906
2026-01-11 20:58:21.96	72.75	4.07	-42.9	-45.5	15.7	7.00e-07	0	29	0	37748736	58	7669
2026-01-11 20:58:22.97	72.66	4.12	-42.4	-44.8	15.9	0.00e+00	0	29	0	39845888	58	7008
2026-01-11 20:58:23.98	72.57	4.18	-42.6	-45.0	15.7	0.00e+00	0	29	0	41943040	58	7218
2026-01-11 20:58:24.99	72.48	4.23	-43.2	-46.1	14.7	0.00e+00	0	29	0	42991616	58	8158
2026-01-11 20:58:26.00	72.39	4.29	-42.9	-45.5	15.5	0.00e+00	0	29	0	45088768	58	7614
2026-01-11 20:58:27.01	72.29	4.34	-42.6	-45.1	15.7	0.00e+00	0	29	0	47185920	58	7259
2026-01-11 20:58:28.01	72.20	4.40	-42.5	-44.9	15.8	0.00e+00	0	29	0	49283072	58	7108
2026-01-11 20:58:29.02	72.11	4.45	-43.2	-46.0	14.9	0.00e+00	0	29	0	51380224	58	8079
2026-01-11 20:58:30.03	72.02	4.51	-42.7	-45.2	16.0	0.00e+00	0	29	0	53477376	58	7413
2026-01-11 20:58:31.04	71.92	4.56	-42.9	-45.7	15.3	0.00e+00	0	29	0	54525952	58	7781
2026-01-11 20:58:32.05	71.83	4.62	-42.9	-45.6	15.3	0.00e+00	0	29	0	56623104	58	7726
2026-01-11 20:58:33.06	71.73	4.67	-42.3	-44.6	16.3	7.00e-07	0	29	0	58720256	58	6878
2026-01-11 20:58:34.07	71.64	4.73	-42.2	-44.5	16.1	0.00e+00	0	29	0	60817408	58	6832
2026-01-11 20:58:35.08	71.54	4.79	-42.1	-44.2	16.5	0.00e+00	0	29	0	62914560	58	6561
2026-01-11 20:58:36.09	71.45	4.84	-41.6	-43.5	17.5	0.00e+00	0	29	0	63963136	56	6821
2026-01-11 20:58:37.10	71.35	4.90	-41.3	-43.0	17.9	0.00e+00	0	29	0	66060288	56	6454
2026-01-11 20:58:38.11	71.25	4.95	-41.3	-43.0	17.9	0.00e+00	0	29	0	68157440	56	6446
2026-01-11 20:58:39.12	71.16	5.01	-41.3	-43.0	18.1	0.00e+00	0	29	0	70254592	56	6457
2026-01-11 20:58:40.12	71.06	5.06	-40.8	-42.5	18.4	0.00e+00	0	29	0	71303168	56	6067
2026-01-11 20:58:41.13	70.96	5.12	-40.9	-42.6	18.4	0.00e+00	0	29	0	73400320	56	6171
2026-01-11 20:58:42.14	70.86	5.17	-40.9	-42.6	18.5	0.00e+00	0	29	0	75497472	56	6140
2026-01-11 20:58:43.15	70.77	5.23	-40.7	-42.4	18.5	0.00e+00	0	29	0	77594624	54	6715
2026-01-11 20:58:44.16	70.67	5.29	-40.7	-42.3	18.7	0.00e+00	0	29	0	79691776	54	6635
2026-01-11 20:58:45.17	70.57	5.34	-40.8	-42.4	18.5	0.00e+00	0	29	0	81788928	54	6719
2026-01-11 20:58:46.18	70.47	5.40	-40.6	-42.2	18.8	0.00e+00	0	29	0	82837504	54	6581
2026-01-11 20:58:47.19	70.37	5.45	-40.5	-42.1	18.9	0.00e+00	0	29	0	84934656	54	6465
2026-01-11 20:58:48.19	70.27	5.51	-40.6	-42.2	18.8	0.00e+00	0	29	0	87031808	54	6598
2026-01-11 20:58:49.20	70.17	5.57	-40.8	-42.5	18.5	0.00e+00	0	29	0	89128960	54	6803
2026-01-11 20:58:50.21	70.07	5.62	-41.0	-42.7	18.2	0.00e+00	0	29	0	91226112	54	6979
2026-01-11 20:58:51.22	69.96	5.68	-41.0	-42.7	18.4	0.00e+00	0	29	0	92274688	54	6985
2026-01-11 20:58:52.23	69.86	5.73	-41.2	-43.0	18.0	0.00e+00	0	29	0	94371840	54	7197
2026-01-11 20:58:53.24	69.76	5.79	-40.8	-42.5	18.7	0.00e+00	0	29	0	96468992	54	6786
2026-01-11 20:58:54.25	69.66	5.85	-40.8	-42.5	18.5	0.00e+00	0	29	0	98566144	54	6790
2026-01-11 20:58:55.26	69.55	5.90	-40.9	-42.7	18.4	0.00e+00	0	29	0	100663296	54	6944
2026-01-11 20:58:56.27	69.45	5.96	-40.9	-42.6	18.4	0.00e+00	0	29	0	101711872	54	6907
2026-01-11 20:58:57.28	69.35	6.02	-40.9	-42.6	18.4	0.00e+00	0	29	0	103809024	54	6906
2026-01-11 20:58:58.28	69.24	6.07	-41.0	-42.8	18.1	0.00e+00	0	29	0	105906176	54	7050
2026-01-11 20:58:59.29	69.14	6.13	-40.9	-42.6	18.5	0.00e+00	0	29	0	108003328	54	6860
2026-01-11 20:59:00.30	69.03	6.18	-40.6	-42.3	18.8	0.00e+00	0	29	0	110100480	54	6616
2026-01-11 20:59:01.31	68.93	6.24	-40.5	-42.1	19.1	0.00e+00	0	29	0	111149056	54	6520
2026-01-11 20:59:02.32	68.82	6.30	-40.8	-42.5	18.5	0.00e+00	0	29	0	113246208	54	6810
2026-01-11 20:59:03.33	68.71	6.35	-40.6	-42.2	18.9	0.00e+00	0	29	0	115343360	54	6579
2026-01-11 20:59:04.34	68.61	6.41	-40.7	-42.3	18.8	0.00e+00	0	29	0	117440512	54	6668
2026-01-11 20:59:05.35	68.50	6.47	-40.5	-42.0	19.1	0.00e+00	0	29	0	119537664	54	6441
2026-01-11 20:59:06.36	68.39	6.52	-40.7	-42.3	18.8	0.00e+00	0	29	0	120586240	54	6657
2026-01-11 20:59:07.37	68.28	6.58	-40.4	-41.9	19.3	0.00e+00	0	29	0	122683392	54	6374
2026-01-11 20:59:08.38	68.17	6.64	-40.3	-41.8	19.3	0.00e+00	0	29	0	124780544	54	6313
2026-01-11 20:59:09.39	68.06	6.69	-40.4	-41.9	19.2	0.00e+00	0	29	0	126877696	54	6367
2026-01-11 20:59:10.39	67.96	6.75	-40.4	-41.9	19.2	0.00e+00	0	29	0	128974848	54	6358
2026-01-11 20:59:11.40	67.85	6.81	-40.3	-41.8	19.2	0.00e+00	0	29	0	130023424	54	6310
2026-01-11 20:59:12.41	67.74	6.86	-40.5	-42.0	19.1	0.00e+00	0	29	0	132120576	54	6459
2026-01-11 20:59:13.42	67.62	6.92	-40.4	-41.9	19.2	0.00e+00	0	30	0	134217728	54	6390
2026-01-11 20:59:14.43	67.51	6.98	-40.4	-41.9	19.3	0.00e+00	0	29	0	136314880	54	6369
2026-01-11 20:59:15.44	67.40	7.03	-40.2	-41.7	19.4	0.00e+00	0	29	0	138412032	54	6210
2026-01-11 20:59:16.45	67.29	7.09	-40.1	-41.7	19.5	0.00e+00	0	29	0	139460608	54	6184
2026-01-11 20:59:17.45	67.18	7.15	-40.3	-41.8	19.3	0.00e+00	0	30	0	141557760	54	6303
2026-01-11 20:59:18.46	67.06	7.20	-40.2	-41.7	19.4	0.00e+00	0	29	0	143654912	54	6212
2026-01-11 20:59:19.47	66.95	7.26	-40.3	-41.8	19.4	0.00e+00	0	30	0	145752064	54	6250
2026-01-11 20:59:20.48	66.84	7.32	-40.3	-41.8	19.4	0.00e+00	0	29	0	147849216	54	6265
2026-01-11 20:59:21.49	66.72	7.38	-40.1	-41.5	19.6	0.00e+00	0	29	0	149946368	54	6087
2026-01-11 20:59:22.50	66.61	7.43	-40.3	-41.8	19.3	0.00e+00	0	30	0	150994944	54	6315
2026-01-11 20:59:23.51	66.49	7.49	-40.3	-41.8	19.4	0.00e+00	0	30	0	153092096	54	6279
2026-01-11 20:59:24.52	66.38	7.55	-40.1	-41.6	19.6	0.00e+00	0	29	0	155189248	54	6105
2026-01-11 20:59:25.53	66.26	7.60	-40.4	-42.0	19.2	0.00e+00	0	30	0	157286400	54	6396
2026-01-11 20:59:26.54	66.14	7.66	-40.2	-41.7	19.4	0.00e+00	0	30	0	159383552	54	6233
2026-01-11 20:59:27.55	66.02	7.72	-40.1	-41.6	19.5	0.00e+00	0	30	0	160432128	54	6142
2026-01-11 20:59:28.56	65.91	7.77	-40.3	-41.8	19.3	0.00e+00	0	30	0	162529280	54	6313
2026-01-11 20:59:29.57	65.79	7.83	-40.4	-42.0	19.2	0.00e+00	0	30	0	164626432	54	6436
2026-01-11 20:59:30.57	65.67	7.89	-40.5	-42.1	19.1	0.00e+00	0	30	0	166723584	54	6493
2026-01-11 20:59:31.58	65.55	7.95	-40.7	-42.4	19.0	0.00e+00	0	30	0	168820736	54	6708
2026-01-11 20:59:32.59	65.43	8.00	-40.6	-42.2	19.2	0.00e+00	0	30	0	169869312	54	6596
2026-01-11 20:59:33.60	65.31	8.06	-40.3	-41.9	19.4	0.00e+00	0	29	0	171966464	54	6336
2026-01-11 20:59:34.61	65.19	8.12	-40.3	-41.8	19.4	0.00e+00	0	30	0	174063616	54	6269
2026-01-11 20:59:35.62	65.07	8.17	-40.3	-41.8	19.4	0.00e+00	0	30	0	176160768	54	6305
2026-01-11 20:59:36.63	64.95	8.23	-40.0	-41.4	19.8	0.00e+00	0	30	0	178257920	54	6014
2026-01-11 20:59:37.64	64.83	8.29	-40.1	-41.6	19.7	0.00e+00	0	30	0	179306496	54	6104
2026-01-11 20:59:38.65	64.70	8.35	-39.9	-41.3	19.9	0.00e+00	0	30	0	181403648	52	6639
2026-01-11 20:59:39.65	64.58	8.40	-39.7	-41.1	20.1	0.00e+00	0	30	0	183500800	52	6478
2026-01-11 20:59:40.66	64.46	8.46	-39.6	-41.0	20.2	0.00e+00	0	30	0	185597952	52	6420
2026-01-11 20:59:41.67	64.33	8.52	-39.5	-40.8	20.3	0.00e+00	0	30	0	187695104	52	6304
2026-01-11 20:59:42.68	64.21	8.57	-39.5	-40.8	20.4	0.00e+00	0	30	0	188743680	52	6317
2026-01-11 20:59:43.68	64.08	8.63	-39.6	-40.9	20.3	0.00e+00	0	30	0	190840832	52	6361
2026-01-11 20:59:44.69	63.96	8.69	-39.3	-40.6	20.6	0.00e+00	0	30	0	192937984	52	6138
2026-01-11 20:59:45.70	63.83	8.74	-39.3	-40.6	20.7	0.00e+00	0	30	0	195035136	52	6142
2026-01-11 20:59:46.71	63.71	8.80	-39.4	-40.7	20.5	0.00e+00	0	30	0	197132288	52	6186
2026-01-11 20:59:47.72	63.58	8.86	-39.4	-40.7	20.6	0.00e+00	0	30	0	198180864	52	6191
2026-01-11 20:59:48.73	63.45	8.92	-39.4	-40.7	20.6	0.00e+00	0	30	0	200278016	52	6205
2026-01-11 20:59:49.74	63.32	8.97	-39.4	-40.6	20.6	0.00e+00	0	30	0	202375168	52	6171
2026-01-11 20:59:50.75	63.19	9.03	-39.4	-40.6	20.7	0.00e+00	0	30	0	204472320	52	6163
2026-01-11 20:59:51.76	63.07	9.09	-39.5	-40.8	20.5	0.00e+00	0	30	0	206569472	52	6294
2026-01-11 20:59:52.77	62.94	9.14	-39.5	-40.9	20.4	0.00e+00	0	30	0	207618048	52	6322
2026-01-11 20:59:53.78	62.81	9.20	-39.6	-40.9	20.0	0.00e+00	0	30	0	209715200	52	6367
2026-01-11 20:59:54.79	62.67	9.26	-39.6	-40.9	20.0	0.00e+00	0	30	0	211812352	52	6357
2026-01-11 20:59:55.79	62.54	9.32	-39.6	-40.9	20.3	0.00e+00	0	30	0	213909504	52	6328
2026-01-11 20:59:56.80	62.41	9.37	-39.6	-40.9	20.4	0.00e+00	0	30	0	216006656	52	6369
2026-01-11 20:59:57.81	62.28	9.43	-39.5	-40.8	20.3	0.00e+00	0	30	0	217055232	52	6300
2026-01-11 20:59:58.82	62.15	9.49	-39.6	-40.9	20.3	0.00e+00	0	30	0	219152384	52	6379
2026-01-11 20:59:59.83	62.01	9.54	-39.7	-41.1	20.3	0.00e+00	0	30	0	221249536	52	6501
2026-01-11 21:00:00.84	61.88	9.60	-39.5	-40.8	20.5	0.00e+00	0	30	0	223346688	52	6285
2026-01-11 21:00:01.85	61.75	9.66	-39.5	-40.8	20.5	0.00e+00	0	30	0	225443840	52	6253
2026-01-11 21:00:02.86	61.61	9.71	-39.3	-40.5	20.8	0.00e+00	0	30	0	226492416	52	6071
2026-01-11 21:00:03.87	61.48	9.77	-39.3	-40.6	20.7	0.00e+00	0	30	0	228589568	52	6131
2026-01-11 21:00:04.88	61.34	9.83	-39.2	-40.4	20.9	0.00e+00	0	30	0	230686720	52	6017
2026-01-11 21:00:05.88	61.20	9.88	-39.2	-40.4	20.9	0.00e+00	0	30	0	232783872	52	5979
2026-01-11 21:00:06.89	61.07	9.94	-39.2	-40.4	20.9	0.00e+00	0	30	0	234881024	52	5990
2026-01-11 21:00:07.90	60.93	10.00	-39.5	-40.7	20.6	0.00e+00	0	30	0	235929600	52	6223
2026-01-11 21:00:08.91	60.79	10.06	-39.6	-40.9	20.4	0.00e+00	0	30	0	238026752	52	6352
2026-01-11 21:00:09.92	60.65	10.11	-39.7	-40.9	20.4	0.00e+00	0	30	0	240123904	52	6377
2026-01-11 21:00:10.93	60.51	10.17	-39.7	-41.0	20.3	0.00e+00	0	30	0	242221056	52	6447
2026-01-11 21:00:11.94	60.37	10.23	-39.5	-40.7	20.6	0.00e+00	0	30	0	244318208	52	6236
2026-01-11 21:00:12.95	60.23	10.28	-39.4	-40.6	20.5	0.00e+00	0	30	0	246415360	52	6165
2026-01-11 21:00:13.95	60.09	10.34	-39.6	-40.9	20.5	0.00e+00	0	30	0	247463936	52	6345
2026-01-11 21:00:14.96	59.95	10.39	-39.6	-40.8	20.4	0.00e+00	0	30	0	249561088	52	6315
2026-01-11 21:00:15.97	59.81	10.45	-39.4	-40.7	20.6	0.00e+00	0	30	0	251658240	52	6186
2026-01-11 21:00:16.98	59.67	10.51	-39.6	-40.9	20.4	0.00e+00	0	30	0	253755392	52	6349
2026-01-11 21:00:17.99	59.52	10.56	-39.6	-40.8	20.5	0.00e+00	0	30	0	255852544	52	6299
2026-01-11 21:00:19.00	59.38	10.62	-39.5	-40.8	20.6	0.00e+00	0	30	0	256901120	52	6273
2026-01-11 21:00:20.01	59.24	10.68	-39.5	-40.7	20.6	0.00e+00	0	30	0	258998272	52	6227
2026-01-11 21:00:21.02	59.09	10.73	-39.8	-41.1	20.3	0.00e+00	0	30	0	261095424	52	6476
2026-01-11 21:00:22.03	58.94	10.79	-39.6	-40.9	20.4	0.00e+00	0	30	0	263192576	52	6381
2026-01-11 21:00:23.04	58.80	10.85	-39.7	-41.0	20.5	0.00e+00	0	30	0	265289728	52	6427
2026-01-11 21:00:24.05	58.65	10.90	-39.7	-41.0	20.3	0.00e+00	0	30	0	266338304	52	6436
2026-01-11 21:00:25.05	58.51	10.96	-39.7	-41.1	20.3	0.00e+00	0	30	0	268435456	52	6467
2026-01-11 21:00:26.06	58.36	11.01	-39.6	-40.9	20.4	0.00e+00	0	30	0	270532608	52	6379
2026-01-11 21:00:27.07	58.21	11.07	-39.7	-41.1	20.3	0.00e+00	0	30	0	272629760	52	6477
2026-01-11 21:00:28.08	58.06	11.13	-39.9	-41.3	20.2	0.00e+00	0	30	0	274726912	52	6655
2026-01-11 21:00:29.09	57.91	11.18	-40.2	-41.6	20.0	0.00e+00	0	30	0	275775488	52	6868
2026-01-11 21:00:30.10	57.76	11.24	-40.3	-41.7	19.7	0.00e+00	0	30	0	277872640	52	6964
2026-01-11 21:00:31.11	57.61	11.29	-40.2	-41.7	19.9	0.00e+00	0	30	0	279969792	52	6941
2026-01-11 21:00:32.12	57.46	11.35	-39.9	-41.3	20.1	0.00e+00	0	30	0	282066944	52	6664
2026-01-11 21:00:33.13	57.31	11.40	-39.8	-41.1	20.4	0.00e+00	0	30	0	284164096	52	6496
2026-01-11 21:00:34.13	57.16	11.46	-39.7	-41.0	20.4	0.00e+00	0	30	0	285212672	52	6418
2026-01-11 21:00:35.14	57.00	11.51	-39.6	-40.8	20.5	0.00e+00	0	30	0	287309824	52	6312
2026-01-11 21:00:36.15	56.85	11.57	-39.7	-41.0	20.2	0.00e+00	0	30	0	289406976	52	6445
2026-01-11 21:00:37.16	56.70	11.62	-39.7	-41.0	20.5	0.00e+00	0	30	0	291504128	52	6436
2026-01-11 21:00:38.17	56.54	11.68	-39.4	-40.7	20.8	0.00e+00	0	30	0	293601280	52	6183
2026-01-11 21:00:39.18	56.39	11.74	-39.4	-40.6	20.8	0.00e+00	0	30	0	294649856	52	6162
2026-01-11 21:00:40.19	56.23	11.79	-39.1	-40.3	21.0	0.00e+00	0	30	0	296747008	52	5939
2026-01-11 21:00:41.20	56.07	11.85	-38.9	-40.1	21.2	0.00e+00	0	30	0	298844160	52	5786
2026-01-11 21:00:42.21	55.92	11.90	-39.1	-40.3	21.1	0.00e+00	0	30	0	300941312	52	5929
2026-01-11 21:00:43.22	55.76	11.95	-39.0	-40.2	21.2	0.00e+00	0	30	0	303038464	52	5866
2026-01-11 21:00:44.22	55.60	12.01	-39.1	-40.3	21.0	0.00e+00	0	30	0	304087040	52	5947
2026-01-11 21:00:45.24	55.44	12.06	-39.0	-40.2	21.1	0.00e+00	0	30	0	306184192	52	5846
2026-01-11 21:00:46.25	55.28	12.12	-39.0	-40.2	21.2	0.00e+00	0	30	0	308281344	52	5837
2026-01-11 21:00:47.25	55.12	12.17	-38.6	-39.8	21.5	0.00e+00	0	30	0	310378496	50	6247
2026-01-11 21:00:48.26	54.96	12.23	-38.4	-39.5	21.7	0.00e+00	0	30	0	312475648	50	6073
2026-01-11 21:00:49.27	54.80	12.28	-38.2	-39.3	21.9	0.00e+00	0	30	0	313524224	50	5963
2026-01-11 21:00:50.28	54.64	12.34	-38.3	-39.4	22.1	0.00e+00	0	30	0	315621376	50	6011
2026-01-11 21:00:51.29	54.48	12.39	-38.2	-39.3	21.8	0.00e+00	0	30	0	317718528	50	5964
2026-01-11 21:00:52.30	54.31	12.44	-38.2	-39.3	21.9	0.00e+00	0	30	0	319815680	50	5943
2026-01-11 21:00:53.31	54.15	12.50	-38.2	-39.3	21.9	0.00e+00	0	30	0	321912832	50	5918
2026-01-11 21:00:54.32	53.99	12.55	-38.0	-39.0	22.2	0.00e+00	0	30	0	322961408	50	5746
2026-01-11 21:00:55.33	53.82	12.60	-37.8	-38.8	22.0	0.00e+00	0	30	0	325058560	50	5611
2026-01-11 21:00:56.34	53.65	12.66	-38.0	-39.1	22.1	0.00e+00	0	30	0	327155712	48	6465
2026-01-11 21:00:57.35	53.49	12.71	-37.9	-39.0	22.2	0.00e+00	0	30	0	329252864	48	6411
2026-01-11 21:00:58.36	53.32	12.76	-37.9	-38.9	22.3	0.00e+00	0	30	0	331350016	48	6343
2026-01-11 21:00:59.37	53.15	12.82	-37.7	-38.7	22.3	0.00e+00	0	30	0	332398592	48	6232
2026-01-11 21:01:00.38	52.99	12.87	-37.5	-38.5	22.5	0.00e+00	0	30	0	334495744	48	6066
2026-01-11 21:01:01.39	52.82	12.92	-37.5	-38.5	22.5	0.00e+00	0	30	0	336592896	48	6058
2026-01-11 21:01:02.40	52.65	12.98	-37.7	-38.7	22.4	0.00e+00	0	30	0	338690048	48	6219
2026-01-11 21:01:03.41	52.48	13.03	-37.9	-38.9	22.2	0.00e+00	0	30	0	340787200	48	6383
2026-01-11 21:01:04.42	52.31	13.08	-38.0	-39.0	22.1	0.00e+00	0	30	0	342884352	48	6432
2026-01-11 21:01:05.43	52.14	13.13	-38.1	-39.2	22.2	0.00e+00	0	30	0	343932928	48	6582
2026-01-11 21:01:06.44	51.96	13.18	-38.1	-39.1	22.2	0.00e+00	0	30	0	346030080	48	6522
2026-01-11 21:01:07.45	51.79	13.24	-37.4	-38.4	22.7	0.00e+00	0	30	0	348127232	48	6010
2026-01-11 21:01:08.45	51.62	13.29	-37.3	-38.3	22.6	0.00e+00	0	30	0	350224384	48	5949
2026-01-11 21:01:09.46	51.45	13.34	-37.4	-38.4	22.7	0.00e+00	0	30	0	352321536	48	5979
2026-01-11 21:01:10.47	51.27	13.39	-37.5	-38.5	22.6	0.00e+00	0	30	0	353370112	48	6057
2026-01-11 21:01:11.48	51.10	13.44	-37.5	-38.5	22.4	0.00e+00	0	30	0	355467264	48	6096
2026-01-11 21:01:12.49	50.92	13.49	-37.5	-38.5	22.6	0.00e+00	0	30	0	357564416	48	6083
2026-01-11 21:01:13.50	50.75	13.54	-37.5	-38.5	22.6	0.00e+00	0	30	0	359661568	48	6036
2026-01-11 21:01:14.51	50.57	13.60	-37.3	-38.3	22.7	0.00e+00	0	30	0	361758720	48	5925
2026-01-11 21:01:15.52	50.39	13.65	-37.3	-38.3	22.8	0.00e+00	0	30	0	362807296	48	5906
2026-01-11 21:01:16.53	50.22	13.70	-37.4	-38.4	22.7	0.00e+00	0	30	0	364904448	48	6018
2026-01-11 21:01:17.53	50.04	13.75	-37.9	-38.9	22.4	0.00e+00	0	30	0	367001600	48	6378
2026-01-11 21:01:18.54	49.86	13.80	-38.0	-39.0	22.2	0.00e+00	0	30	0	369098752	48	6444
2026-01-11 21:01:19.55	49.68	13.85	-38.0	-39.1	22.1	0.00e+00	0	30	0	371195904	48	6470
2026-01-11 21:01:20.56	49.50	13.90	-37.9	-39.0	22.2	0.00e+00	0	30	0	372244480	48	6424
2026-01-11 21:01:21.57	49.32	13.95	-37.7	-38.8	22.4	0.00e+00	0	30	0	374341632	48	6261
2026-01-11 21:01:22.58	49.14	14.00	-37.6	-38.6	22.4	0.00e+00	0	30	0	376438784	48	6172
2026-01-11 21:01:23.59	48.96	14.04	-37.5	-38.5	22.6	0.00e+00	0	30	0	378535936	48	6074
2026-01-11 21:01:24.60	48.77	14.09	-37.4	-38.4	22.7	0.00e+00	0	30	0	380633088	48	6028
2026-01-11 21:01:25.61	48.59	14.14	-37.2	-38.2	22.8	0.00e+00	0	30	0	381681664	48	5869
2026-01-11 21:01:26.62	48.41	14.19	-36.8	-37.7	23.2	0.00e+00	0	30	0	383778816	48	5563
2026-01-11 21:01:27.63	48.22	14.24	-36.5	-37.4	23.5	0.00e+00	0	30	0	385875968	46	5973
2026-01-11 21:01:28.64	48.04	14.29	-36.3	-37.2	23.7	0.00e+00	0	30	0	387973120	46	5845
2026-01-11 21:01:29.64	47.85	14.34	-36.3	-37.1	23.7	0.00e+00	0	30	0	390070272	46	5810
2026-01-11 21:01:30.65	47.67	14.38	-36.2	-37.0	23.8	0.00e+00	0	30	0	391118848	46	5748
2026-01-11 21:01:31.66	47.48	14.43	-36.5	-37.4	23.5	0.00e+00	0	30	0	393216000	46	5979
2026-01-11 21:01:32.67	47.29	14.48	-36.6	-37.5	23.5	0.00e+00	0	30	0	395313152	46	6075
2026-01-11 21:01:33.68	47.10	14.53	-36.4	-37.3	23.6	0.00e+00	0	30	0	397410304	46	5935
2026-01-11 21:01:34.69	46.91	14.57	-36.6	-37.5	23.4	0.00e+00	0	30	0	399507456	46	6092
2026-01-11 21:01:35.70	46.72	14.62	-36.6	-37.5	23.4	0.00e+00	0	30	0	400556032	46	6076
2026-01-11 21:01:36.71	46.53	14.67	-37.0	-38.0	23.1	0.00e+00	0	30	0	402653184	46	6413
2026-01-11 21:01:37.72	46.34	14.71	-37.3	-38.3	22.9	0.00e+00	0	30	0	404750336	46	6628
2026-01-11 21:01:38.73	46.15	14.76	-37.4	-38.4	22.7	0.00e+00	0	30	0	406847488	46	6719
2026-01-11 21:01:39.74	45.96	14.80	-37.5	-38.5	22.6	0.00e+00	0	30	0	408944640	46	6838
2026-01-11 21:01:40.74	45.77	14.85	-37.7	-38.7	22.5	0.00e+00	0	30	0	411041792	46	6962
2026-01-11 21:01:41.75	45.58	14.90	-37.6	-38.6	22.2	0.00e+00	0	30	0	412090368	46	6874
2026-01-11 21:01:42.76	45.38	14.94	-37.5	-38.5	22.7	0.00e+00	0	30	0	414187520	46	6797
2026-01-11 21:01:43.77	45.19	14.99	-37.2	-38.2	22.9	0.00e+00	0	30	0	416284672	46	6552
2026-01-11 21:01:44.78	44.99	15.03	-37.1	-38.1	23.0	0.00e+00	0	30	0	418381824	46	6471
2026-01-11 21:01:45.79	44.80	15.07	-36.8	-37.7	23.2	0.00e+00	0	30	0	420478976	46	6237
2026-01-11 21:01:46.80	44.60	15.12	-37.0	-38.0	23.1	0.00e+00	0	30	0	421527552	46	6392
2026-01-11 21:01:47.81	44.41	15.16	-37.0	-38.0	23.0	0.00e+00	0	30	0	423624704	46	6437
2026-01-11 21:01:48.81	44.21	15.21	-37.1	-38.1	23.0	0.00e+00	0	30	0	425721856	46	6506
2026-01-11 21:01:49.82	44.01	15.25	-37.2	-38.2	22.8	0.00e+00	0	30	0	427819008	46	6553
2026-01-11 21:01:50.83	43.82	15.29	-37.2	-38.2	23.0	0.00e+00	0	30	0	429916160	46	6611
2026-01-11 21:01:51.84	43.62	15.34	-37.0	-38.0	23.1	0.00e+00	0	30	0	430964736	46	6421
2026-01-11 21:01:52.85	43.42	15.38	-37.1	-38.1	23.0	0.00e+00	0	30	0	433061888	46	6507
2026-01-11 21:01:53.86	43.22	15.42	-37.3	-38.3	22.8	0.00e+00	0	30	0	435159040	46	6649
2026-01-11 21:01:54.87	43.02	15.46	-36.9	-37.9	23.0	0.00e+00	0	30	0	437256192	46	6336
2026-01-11 21:01:55.88	42.82	15.50	-36.8	-37.8	23.2	0.00e+00	0	30	0	439353344	46	6260
2026-01-11 21:01:56.89	42.61	15.55	-36.7	-37.6	23.3	0.00e+00	0	30	0	440401920	46	6150
2026-01-11 21:01:57.90	42.41	15.59	-36.6	-37.5	23.5	0.00e+00	0	30	0	442499072	46	6045
2026-01-11 21:01:58.90	42.21	15.63	-36.6	-37.5	23.4	0.00e+00	0	30	0	444596224	46	6039
2026-01-11 21:01:59.91	42.01	15.67	-36.7	-37.6	23.4	0.00e+00	0	30	0	446693376	46	6123
2026-01-11 21:02:00.92	41.80	15.71	-36.6	-37.5	23.4	0.00e+00	0	30	0	448790528	46	6098
2026-01-11 21:02:01.93	41.60	15.75	-36.8	-37.7	23.3	0.00e+00	0	30	0	449839104	46	6234
2026-01-11 21:02:02.94	41.39	15.79	-37.1	-38.1	23.0	0.00e+00	0	30	0	451936256	46	6475
2026-01-11 21:02:03.95	41.19	15.83	-37.0	-37.9	23.1	0.00e+00	0	30	0	454033408	46	6387
2026-01-11 21:02:04.96	40.98	15.87	-37.2	-38.2	22.9	0.00e+00	0	30	0	456130560	46	6578
2026-01-11 21:02:05.97	40.78	15.90	-37.2	-38.1	22.9	0.00e+00	0	29	0	458227712	46	6533
2026-01-11 21:02:06.98	40.57	15.94	-37.1	-38.1	23.0	0.00e+00	0	30	0	459276288	46	6505
2026-01-11 21:02:07.99	40.36	15.98	-36.8	-37.8	23.0	0.00e+00	0	30	0	461373440	46	6256
2026-01-11 21:02:09.00	40.15	16.02	-36.8	-37.7	23.2	0.00e+00	0	30	0	463470592	46	6237
2026-01-11 21:02:10.01	39.94	16.06	-36.7	-37.7	23.3	0.00e+00	0	30	0	465567744	46	6185
2026-01-11 21:02:11.01	39.74	16.09	-36.7	-37.7	23.3	0.00e+00	0	30	0	467664896	46	6185
2026-01-11 21:02:12.02	39.53	16.13	-36.7	-37.7	23.4	0.00e+00	0	30	0	468713472	46	6183
2026-01-11 21:02:13.03	39.32	16.17	-36.5	-37.4	23.6	0.00e+00	0	30	0	470810624	46	6028
2026-01-11 21:02:14.04	39.11	16.20	-36.2	-37.1	23.7	0.00e+00	0	30	0	472907776	46	5793
2026-01-11 21:02:15.05	38.89	16.24	-36.2	-37.0	23.8	0.00e+00	0	29	0	475004928	46	5749
2026-01-11 21:02:16.05	38.68	16.27	-35.9	-36.8	24.1	0.00e+00	0	30	0	477102080	46	5599
2026-01-11 21:02:17.06	38.47	16.31	-35.8	-36.6	24.1	0.00e+00	0	29	0	478150656	46	5492
2026-01-11 21:02:18.07	38.26	16.34	-35.9	-36.7	24.1	0.00e+00	0	30	0	480247808	46	5552
2026-01-11 21:02:19.08	38.05	16.38	-35.9	-36.8	24.1	0.00e+00	0	30	0	482344960	46	5581
2026-01-11 21:02:20.09	37.83	16.41	-35.7	-36.5	23.9	0.00e+00	0	30	0	484442112	44	6059
2026-01-11 21:02:21.10	37.62	16.44	-35.6	-36.4	23.7	0.00e+00	0	30	0	486539264	44	6012
2026-01-11 21:02:22.10	37.40	16.48	-35.7	-36.6	24.0	0.00e+00	0	30	0	487587840	44	6108
2026-01-11 21:02:23.11	37.19	16.51	-36.1	-36.9	23.8	0.00e+00	0	29	0	489684992	44	6388
2026-01-11 21:02:24.12	36.97	16.54	-36.3	-37.1	23.7	0.00e+00	0	29	0	491782144	44	6532
2026-01-11 21:02:25.13	36.76	16.57	-36.5	-37.4	23.5	0.00e+00	0	29	0	493879296	44	6764
2026-01-11 21:02:26.14	36.54	16.61	-36.5	-37.4	23.6	0.00e+00	0	29	0	495976448	44	6738
2026-01-11 21:02:27.15	36.32	16.64	-36.6	-37.5	23.4	0.00e+00	0	29	0	497025024	44	6792
2026-01-11 21:02:28.15	36.11	16.67	-36.7	-37.6	23.3	0.00e+00	0	29	0	499122176	44	6876
2026-01-11 21:02:29.16	35.89	16.70	-36.8	-37.7	23.3	0.00e+00	0	29	0	501219328	46	6208
2026-01-11 21:02:30.17	35.67	16.73	-37.2	-38.1	23.0	0.00e+00	0	30	0	503316480	46	6532
2026-01-11 21:02:31.18	35.45	16.76	-37.2	-38.2	23.0	0.00e+00	0	29	0	505413632	46	6574
2026-01-11 21:02:32.19	35.23	16.79	-37.0	-38.0	23.1	0.00e+00	0	29	0	507510784	46	6415
2026-01-11 21:02:33.20	35.01	16.82	-37.2	-38.2	22.8	0.00e+00	0	29	0	508559360	46	6571
2026-01-11 21:02:34.21	34.79	16.85	-37.3	-38.3	22.9	0.00e+00	0	29	0	510656512	46	6659
2026-01-11 21:02:35.22	34.57	16.87	-37.3	-38.3	22.9	0.00e+00	0	29	0	512753664	46	6648
2026-01-11 21:02:36.23	34.35	16.90	-37.6	-38.6	22.6	0.00e+00	0	29	0	514850816	46	6891
2026-01-11 21:02:37.24	34.13	16.93	-37.7	-38.7	22.4	0.00e+00	0	29	0	516947968	48	6240
2026-01-11 21:02:38.25	33.91	16.96	-37.8	-38.8	22.4	0.00e+00	0	29	0	517996544	48	6297
2026-01-11 21:02:39.26	33.69	16.98	-37.7	-38.8	22.6	0.00e+00	0	29	0	520093696	48	6248
2026-01-11 21:02:40.27	33.46	17.01	-37.6	-38.6	22.7	0.00e+00	0	30	0	522190848	48	6112
2026-01-11 21:02:41.28	33.24	17.04	-37.2	-38.2	22.9	0.00e+00	0	29	0	524288000	48	5843
2026-01-11 21:02:42.29	33.02	17.06	-37.4	-38.3	22.8	0.00e+00	0	29	0	526385152	48	5962
2026-01-11 21:02:43.30	32.79	17.09	-37.6	-38.6	22.5	0.00e+00	0	29	0	527433728	48	6143
2026-01-11 21:02:44.31	32.57	17.11	-37.7	-38.8	22.3	0.00e+00	0	29	0	529530880	48	6250
2026-01-11 21:02:45.32	32.34	17.13	-37.4	-38.4	22.8	0.00e+00	0	29	0	531628032	48	5975
2026-01-11 21:02:46.32	32.12	17.16	-36.9	-37.8	23.2	0.00e+00	0	30	0	533725184	48	5591
2026-01-11 21:02:47.33	31.90	17.18	-36.7	-37.6	23.4	0.00e+00	0	29	0	535822336	46	6115
2026-01-11 21:02:48.34	31.67	17.20	-36.6	-37.5	23.5	0.00e+00	0	29	0	536870912	46	6036
2026-01-11 21:02:49.35	31.44	17.23	-36.8	-37.7	23.3	0.00e+00	0	29	0	538968064	46	6219
2026-01-11 21:02:50.36	31.22	17.25	-36.8	-37.7	23.3	0.00e+00	0	29	0	541065216	46	6211
2026-01-11 21:02:51.37	30.99	17.27	-36.9	-37.8	23.3	0.00e+00	0	29	0	543162368	46	6285
2026-01-11 21:02:52.38	30.76	17.29	-36.9	-37.8	23.3	0.00e+00	0	29	0	545259520	46	6259
2026-01-11 21:02:53.39	30.54	17.31	-36.9	-37.8	23.3	0.00e+00	0	29	0	546308096	46	6271
2026-01-11 21:02:54.40	30.31	17.33	-36.6	-37.5	23.5	0.00e+00	0	29	0	548405248	46	6089
2026-01-11 21:02:55.41	30.08	17.35	-36.7	-37.6	23.4	0.00e+00	0	29	0	550502400	46	6158
2026-01-11 21:02:56.41	29.86	17.37	-36.8	-37.7	23.3	0.00e+00	0	29	0	552599552	46	6190
2026-01-11 21:02:57.42	29.63	17.39	-36.8	-37.7	23.3	0.00e+00	0	29	0	554696704	46	6224
2026-01-11 21:02:58.43	29.40	17.41	-36.9	-37.8	23.2	0.00e+00	0	29	0	555745280	46	6306
2026-01-11 21:02:59.44	29.17	17.43	-37.1	-38.1	23.0	0.00e+00	0	29	0	557842432	46	6497
2026-01-11 21:03:00.45	28.94	17.44	-37.3	-38.3	22.9	0.00e+00	0	29	0	559939584	46	6656
2026-01-11 21:03:01.46	28.71	17.46	-37.8	-38.9	22.5	0.00e+00	0	29	0	562036736	46	7094
2026-01-11 21:03:02.47	28.48	17.48	-37.9	-38.9	22.3	0.00e+00	0	29	0	564133888	48	6363
2026-01-11 21:03:03.47	28.25	17.49	-38.1	-39.2	22.0	0.00e+00	0	29	0	565182464	48	6591
2026-01-11 21:03:04.48	28.02	17.51	-38.5	-39.7	21.7	0.00e+00	0	29	0	567279616	48	6935
2026-01-11 21:03:05.49	27.79	17.52	-38.5	-39.7	21.8	0.00e+00	0	29	0	569376768	48	6939
2026-01-11 21:03:06.50	27.56	17.54	-38.5	-39.6	21.7	0.00e+00	0	29	0	571473920	48	6920
2026-01-11 21:03:07.51	27.33	17.55	-38.5	-39.6	21.6	0.00e+00	0	29	0	573571072	48	6921
2026-01-11 21:03:08.52	27.10	17.57	-38.7	-39.8	21.7	0.00e+00	0	29	0	574619648	48	7073
2026-01-11 21:03:09.53	26.87	17.58	-38.4	-39.6	21.8	0.00e+00	0	29	0	576716800	48	6862
2026-01-11 21:03:10.54	26.64	17.59	-38.3	-39.4	22.0	0.00e+00	0	29	0	578813952	48	6733
2026-01-11 21:03:11.55	26.40	17.60	-38.0	-39.1	22.2	0.00e+00	0	29	0	580911104	48	6476
2026-01-11 21:03:12.56	26.17	17.62	-37.9	-39.0	22.3	0.00e+00	0	29	0	583008256	48	6427
2026-01-11 21:03:13.57	25.94	17.63	-37.7	-38.7	22.5	0.00e+00	0	29	0	584056832	48	6234
2026-01-11 21:03:14.58	25.71	17.64	-37.7	-38.7	22.6	0.00e+00	0	29	0	586153984	48	6209
2026-01-11 21:03:15.59	25.48	17.65	-37.4	-38.3	22.8	0.00e+00	0	29	0	588251136	48	5962
2026-01-11 21:03:16.60	25.24	17.66	-37.3	-38.2	22.8	0.00e+00	0	29	0	590348288	48	5876
2026-01-11 21:03:17.61	25.01	17.67	-37.4	-38.4	22.7	0.00e+00	0	29	0	592445440	48	6001
2026-01-11 21:03:18.62	24.78	17.68	-37.5	-38.5	22.6	0.00e+00	0	29	0	593494016	48	6046
2026-01-11 21:03:19.63	24.54	17.69	-37.4	-38.4	22.7	0.00e+00	0	29	0	595591168	48	6031
2026-01-11 21:03:20.64	24.31	17.69	-37.4	-38.3	22.9	0.00e+00	0	29	0	597688320	48	5958
2026-01-11 21:03:21.65	24.08	17.70	-37.4	-38.4	22.8	0.00e+00	0	29	0	599785472	48	5974
2026-01-11 21:03:22.66	23.84	17.71	-37.2	-38.2	23.0	0.00e+00	0	29	0	601882624	48	5831
2026-01-11 21:03:23.67	23.61	17.71	-37.1	-38.0	23.1	0.00e+00	0	29	0	603979776	48	5754
2026-01-11 21:03:24.68	23.38	17.72	-37.0	-37.9	23.2	0.00e+00	0	29	0	605028352	48	5672
2026-01-11 21:03:25.69	23.14	17.73	-37.3	-38.2	22.8	0.00e+00	0	29	0	607125504	48	5892
2026-01-11 21:03:26.69	22.91	17.73	-37.5	-38.5	22.7	0.00e+00	0	29	0	609222656	48	6064
2026-01-11 21:03:27.70	22.68	17.74	-37.9	-38.9	22.5	0.00e+00	0	29	0	611319808	48	6355
2026-01-11 21:03:28.71	22.44	17.74	-38.0	-39.0	22.4	0.00e+00	0	29	0	613416960	48	6446
2026-01-11 21:03:29.72	22.21	17.74	-37.8	-38.9	22.3	0.00e+00	0	29	0	614465536	48	6327
2026-01-11 21:03:30.73	21.98	17.75	-37.9	-39.0	22.2	0.00e+00	0	29	0	616562688	48	6409
2026-01-11 21:03:31.74	21.74	17.75	-37.9	-39.0	22.4	0.00e+00	0	29	0	618659840	48	6407
2026-01-11 21:03:32.75	21.51	17.75	-38.0	-39.0	22.3	0.00e+00	0	29	0	620756992	48	6438
2026-01-11 21:03:33.76	21.27	17.75	-37.6	-38.6	22.6	0.00e+00	0	29	0	622854144	48	6144
2026-01-11 21:03:34.77	21.04	17.75	-37.9	-38.9	22.4	0.00e+00	0	29	0	623902720	48	6373
2026-01-11 21:03:35.78	20.81	17.75	-37.5	-38.5	22.7	0.00e+00	0	29	0	625999872	48	6071
2026-01-11 21:03:36.79	20.57	17.75	-37.2	-38.2	22.9	0.00e+00	0	29	0	628097024	48	5858
2026-01-11 21:03:37.80	20.34	17.75	-37.1	-38.0	23.1	0.00e+00	0	29	0	630194176	48	5737
2026-01-11 21:03:38.81	20.10	17.75	-36.9	-37.8	23.3	0.00e+00	0	29	0	632291328	48	5622
2026-01-11 21:03:39.82	19.87	17.75	-36.7	-37.6	23.2	0.00e+00	0	29	0	633339904	46	6117
2026-01-11 21:03:40.82	19.64	17.75	-36.8	-37.8	23.1	0.00e+00	0	29	0	635437056	46	6268
2026-01-11 21:03:41.83	19.40	17.75	-37.2	-38.1	23.0	0.00e+00	0	29	0	637534208	46	6516
2026-01-11 21:03:42.84	19.17	17.75	-37.5	-38.5	22.7	0.00e+00	0	29	0	639631360	46	6775
2026-01-11 21:03:43.84	18.94	17.74	-37.7	-38.7	22.5	0.00e+00	0	29	0	641728512	48	6244
2026-01-11 21:03:44.85	18.70	17.74	-37.9	-39.0	22.3	0.00e+00	0	29	0	642777088	48	6424
2026-01-11 21:03:45.86	18.47	17.73	-38.0	-39.1	22.2	0.00e+00	0	29	0	644874240	48	6492
2026-01-11 21:03:46.87	18.24	17.73	-38.1	-39.2	22.1	0.00e+00	0	29	0	646971392	48	6595
2026-01-11 21:03:47.88	18.00	17.72	-38.2	-39.4	22.0	0.00e+00	0	29	0	649068544	48	6693
2026-01-11 21:03:48.89	17.77	17.72	-38.2	-39.3	22.2	0.00e+00	0	29	0	651165696	48	6655
2026-01-11 21:03:49.90	17.54	17.71	-38.1	-39.2	22.1	0.00e+00	0	29	0	652214272	48	6569
2026-01-11 21:03:50.91	17.30	17.71	-37.9	-38.9	21.9	0.00e+00	0	29	0	654311424	48	6350
2026-01-11 21:03:51.92	17.07	17.70	-37.9	-38.9	22.2	0.00e+00	0	29	0	656408576	48	6362
2026-01-11 21:03:52.93	16.84	17.69	-37.3	-38.3	22.8	0.00e+00	0	29	0	658505728	48	5901
2026-01-11 21:03:53.93	16.60	17.68	-37.2	-38.2	22.7	0.00e+00	0	29	0	660602880	48	5848
2026-01-11 21:03:54.94	16.37	17.67	-36.9	-37.9	23.1	0.00e+00	0	29	0	661651456	48	5671
2026-01-11 21:03:55.95	16.14	17.66	-36.9	-37.9	23.1	0.00e+00	0	29	0	663748608	48	5663
2026-01-11 21:03:56.96	15.91	17.65	-37.0	-38.0	23.0	0.00e+00	0	29	0	665845760	48	5703
2026-01-11 21:03:57.97	15.67	17.64	-37.1	-38.1	22.9	0.00e+00	0	29	0	667942912	48	5828
2026-01-11 21:03:58.98	15.44	17.63	-37.2	-38.2	22.9	0.00e+00	0	29	0	670040064	48	5832
2026-01-11 21:03:59.98	15.21	17.62	-37.3	-38.3	22.8	0.00e+00	0	29	0	672137216	48	5916
2026-01-11 21:04:00.99	14.98	17.61	-37.1	-38.1	23.0	0.00e+00	0	29	0	673185792	48	5806
2026-01-11 21:04:02.00	14.75	17.60	-36.9	-37.8	23.2	0.00e+00	0	29	0	675282944	48	5598
2026-01-11 21:04:03.01	14.52	17.59	-36.8	-37.7	23.3	0.00e+00	0	29	0	677380096	46	6235
2026-01-11 21:04:04.01	14.29	17.57	-36.9	-37.8	23.2	0.00e+00	0	29	0	679477248	46	6281
2026-01-11 21:04:05.02	14.06	17.56	-37.0	-38.0	23.1	0.00e+00	0	29	0	680525824	46	6396
2026-01-11 21:04:06.03	13.83	17.55	-36.8	-37.7	23.3	0.00e+00	0	29	0	682622976	46	6232
2026-01-11 21:04:07.04	13.59	17.53	-36.6	-37.6	23.4	0.00e+00	0	29	0	684720128	46	6105
2026-01-11 21:04:08.05	13.36	17.52	-36.4	-37.3	23.6	0.00e+00	0	29	0	686817280	46	5941
2026-01-11 21:04:09.05	13.14	17.50	-36.4	-37.3	23.6	0.00e+00	0	29	0	688914432	46	5947
2026-01-11 21:04:10.06	12.91	17.49	-36.4	-37.3	23.6	0.00e+00	0	29	0	689963008	46	5950
2026-01-11 21:04:11.07	12.68	17.47	-36.1	-37.0	23.9	0.00e+00	0	29	0	692060160	46	5733
2026-01-11 21:04:12.08	12.45	17.45	-36.0	-36.8	23.9	0.00e+00	0	29	0	694157312	46	5612
2026-01-11 21:04:13.09	12.22	17.44	-35.7	-36.6	23.9	0.00e+00	0	29	0	696254464	44	6123
2026-01-11 21:04:14.09	11.99	17.42	-35.9	-36.8	23.9	0.00e+00	0	29	0	698351616	44	6260
2026-01-11 21:04:15.09	11.76	17.40	-36.0	-36.9	23.9	0.00e+00	0	29	0	700448768	44	6352
2026-01-11 21:04:16.10	11.54	17.38	-35.9	-36.7	23.9	0.00e+00	0	29	0	701497344	44	6211
2026-01-11 21:04:17.11	11.31	17.36	-36.0	-36.8	23.9	0.00e+00	0	29	0	703594496	44	6292
2026-01-11 21:04:18.12	11.08	17.34	-36.1	-36.9	23.9	0.00e+00	0	29	0	705691648	44	6362
2026-01-11 21:04:19.12	10.85	17.32	-36.1	-37.0	23.7	0.00e+00	0	29	0	707788800	44	6445
2026-01-11 21:04:20.13	10.63	17.30	-36.3	-37.2	23.7	0.00e+00	0	29	0	709885952	44	6593
2026-01-11 21:04:21.14	10.40	17.28	-36.5	-37.4	23.5	0.00e+00	0	29	0	710934528	44	6754
2026-01-11 21:04:22.15	10.17	17.26	-36.7	-37.6	23.3	0.00e+00	0	29	0	713031680	46	6167
2026-01-11 21:04:23.16	9.95	17.24	-36.8	-37.7	23.3	0.00e+00	0	29	0	715128832	46	6243
2026-01-11 21:04:24.17	9.72	17.22	-36.8	-37.7	23.3	0.00e+00	0	29	0	717225984	46	6207
2026-01-11 21:04:25.18	9.50	17.20	-36.9	-37.9	23.0	0.00e+00	0	29	0	719323136	46	6346
2026-01-11 21:04:26.19	9.27	17.17	-36.7	-37.6	23.4	0.00e+00	0	29	0	720371712	46	6142
2026-01-11 21:04:27.20	9.05	17.15	-36.7	-37.7	23.4	0.00e+00	0	29	0	722468864	46	6177
2026-01-11 21:04:28.21	8.82	17.13	-36.7	-37.7	23.3	0.00e+00	0	29	0	724566016	46	6189
2026-01-11 21:04:29.22	8.60	17.10	-36.5	-37.4	23.5	0.00e+00	0	29	0	726663168	46	5993
2026-01-11 21:04:30.23	8.37	17.08	-36.5	-37.4	23.6	0.00e+00	0	29	0	728760320	46	6028
2026-01-11 21:04:31.24	8.15	17.05	-36.6	-37.5	23.5	0.00e+00	0	29	0	729808896	46	6085
2026-01-11 21:04:32.25	7.93	17.03	-37.0	-37.9	23.2	0.00e+00	0	29	0	731906048	46	6359
2026-01-11 21:04:33.26	7.70	17.00	-37.1	-38.0	23.1	0.00e+00	0	29	0	734003200	46	6441
2026-01-11 21:04:34.27	7.48	16.97	-37.6	-38.6	22.6	0.00e+00	0	29	0	736100352	46	6897
2026-01-11 21:04:35.28	7.26	16.95	-37.4	-38.4	22.8	0.00e+00	0	29	0	738197504	46	6744
2026-01-11 21:04:36.29	7.04	16.92	-37.5	-38.5	22.6	0.00e+00	0	29	0	739246080	46	6804
2026-01-11 21:04:37.30	6.82	16.89	-37.4	-38.4	22.8	0.00e+00	0	29	0	741343232	46	6697
2026-01-11 21:04:38.31	6.60	16.86	-37.2	-38.1	23.0	0.00e+00	0	29	0	743440384	46	6507
2026-01-11 21:04:39.32	6.38	16.84	-37.1	-38.1	23.0	0.00e+00	0	29	0	745537536	46	6476
2026-01-11 21:04:40.33	6.16	16.81	-37.1	-38.0	23.1	0.00e+00	0	29	0	747634688	46	6436
2026-01-11 21:04:41.33	5.94	16.78	-37.3	-38.3	22.9	0.00e+00	0	29	0	748683264	46	6639
2026-01-11 21:04:42.34	5.72	16.75	-37.3	-38.3	22.9	0.00e+00	0	29	0	750780416	46	6658
2026-01-11 21:04:43.35	5.50	16.72	-37.4	-38.4	22.9	0.00e+00	0	29	0	752877568	46	6761
2026-01-11 21:04:44.36	5.28	16.69	-37.3	-38.3	22.8	0.00e+00	0	29	0	754974720	46	6619
2026-01-11 21:04:45.37	5.07	16.66	-37.4	-38.4	22.7	0.00e+00	0	29	0	757071872	46	6752
2026-01-11 21:04:46.38	4.85	16.63	-37.5	-38.5	22.6	0.00e+00	0	29	0	758120448	46	6837
2026-01-11 21:04:47.39	4.63	16.59	-37.9	-39.0	22.3	0.00e+00	0	29	0	760217600	48	6419
2026-01-11 21:04:48.40	4.41	16.56	-38.3	-39.5	21.7	0.00e+00	0	29	0	762314752	48	6778
2026-01-11 21:04:49.41	4.20	16.53	-38.3	-39.4	21.9	0.00e+00	0	29	0	764411904	48	6731
2026-01-11 21:04:50.41	3.99	16.50	-38.4	-39.5	21.8	0.00e+00	0	29	0	766509056	48	6824
2026-01-11 21:04:51.43	3.77	16.47	-38.7	-39.9	21.6	0.00e+00	0	29	0	767557632	50	6347
2026-01-11 21:04:52.43	3.56	16.43	-38.6	-39.7	21.7	0.00e+00	0	29	0	769654784	50	6244
2026-01-11 21:04:53.44	3.34	16.40	-38.6	-39.7	21.8	0.00e+00	0	29	0	771751936	50	6207
2026-01-11 21:04:54.45	3.13	16.36	-38.4	-39.5	21.8	0.00e+00	0	29	0	773849088	50	6102
2026-01-11 21:04:55.46	2.92	16.33	-38.0	-39.1	22.1	0.00e+00	0	29	0	775946240	50	5774
2026-01-11 21:04:56.47	2.70	16.30	-38.0	-39.1	22.4	0.00e+00	0	29	0	776994816	50	5784
2026-01-11 21:04:57.48	2.49	16.26	-37.9	-38.9	22.3	0.00e+00	0	29	0	779091968	50	5674
2026-01-11 21:04:58.49	2.28	16.22	-37.5	-38.5	22.6	0.00e+00	0	29	0	781189120	48	6055
2026-01-11 21:04:59.50	2.07	16.19	-37.5	-38.5	22.6	0.00e+00	0	29	0	783286272	48	6086
2026-01-11 21:05:00.50	1.86	16.15	-37.6	-38.6	22.8	0.00e+00	0	29	0	785383424	48	6109
2026-01-11 21:05:01.51	1.65	16.12	-37.5	-38.5	22.8	0.00e+00	0	29	0	786432000	48	6073
2026-01-11 21:05:02.52	1.44	16.08	-37.3	-38.3	22.9	0.00e+00	0	29	0	788529152	48	5962
2026-01-11 21:05:03.53	1.23	16.04	-37.3	-38.3	22.8	0.00e+00	0	29	0	790626304	48	5908
2026-01-11 21:05:04.54	1.03	16.01	-37.5	-38.5	22.7	0.00e+00	0	29	0	792723456	48	6035
2026-01-11 21:05:05.55	0.82	15.97	-37.3	-38.2	22.9	0.00e+00	0	29	0	794820608	48	5893
2026-01-11 21:05:06.56	0.61	15.93	-36.9	-37.9	23.2	0.00e+00	0	29	0	796917760	48	5645
2026-01-11 21:05:07.57	0.40	15.89	-36.8	-37.7	23.3	0.00e+00	0	29	0	797966336	48	5547
2026-01-11 21:05:08.58	0.20	15.85	-36.7	-37.6	23.3	0.00e+00	0	29	0	800063488	46	6172
2026-01-11 21:05:09.59	359.99	15.81	-36.5	-37.4	23.5	0.00e+00	0	29	0	802160640	46	6001
2026-01-11 21:05:10.60	359.79	15.77	-36.5	-37.4	23.4	0.00e+00	0	29	0	804257792	46	6007
2026-01-11 21:05:11.61	359.58	15.73	-36.7	-37.6	23.4	0.00e+00	0	29	0	806354944	46	6134
2026-01-11 21:05:12.62	359.38	15.69	-36.6	-37.6	23.3	0.00e+00	0	29	0	807403520	46	6104
2026-01-11 21:05:13.63	359.17	15.65	-36.8	-37.8	22.7	0.00e+00	0	29	0	809500672	46	6248
2026-01-11 21:05:14.64	358.97	15.61	-36.9	-37.8	23.0	0.00e+00	0	29	0	811597824	46	6294
2026-01-11 21:05:15.65	358.77	15.57	-36.8	-37.8	23.1	0.00e+00	0	29	0	813694976	46	6257
2026-01-11 21:05:16.66	358.57	15.53	-36.9	-37.8	23.0	0.00e+00	0	29	0	815792128	46	6317
2026-01-11 21:05:17.67	358.37	15.49	-37.2	-38.2	22.9	0.00e+00	0	29	0	816840704	46	6540
2026-01-11 21:05:18.68	358.17	15.45	-37.4	-38.5	22.6	0.00e+00	0	29	0	818937856	46	6803
2026-01-11 21:05:19.69	357.97	15.41	-38.0	-39.1	22.1	0.00e+00	0	29	0	821035008	48	6499
2026-01-11 21:05:20.69	357.77	15.36	-38.3	-39.4	21.8	0.00e+00	0	29	0	823132160	48	6747
2026-01-11 21:05:21.70	357.57	15.32	-38.5	-39.7	21.7	0.00e+00	0	29	0	825229312	48	6993
2026-01-11 21:05:22.71	357.37	15.28	-38.3	-39.4	21.8	0.00e+00	0	29	0	826277888	48	6758
2026-01-11 21:05:23.72	357.17	15.23	-38.4	-39.5	21.8	0.00e+00	0	29	0	828375040	48	6826
2026-01-11 21:05:24.73	356.98	15.19	-38.3	-39.4	21.8	0.00e+00	0	29	0	830472192	48	6726
2026-01-11 21:05:25.73	356.78	15.15	-38.1	-39.1	22.1	0.00e+00	0	29	0	832569344	48	6536
2026-01-11 21:05:26.74	356.59	15.10	-38.0	-39.1	22.2	0.00e+00	0	29	0	834666496	48	6493
2026-01-11 21:05:27.75	356.39	15.06	-38.3	-39.4	21.8	0.00e+00	0	29	0	835715072	48	6752
2026-01-11 21:05:28.76	356.20	15.02	-38.1	-39.2	22.0	0.00e+00	0	29	0	837812224	48	6546
2026-01-11 21:05:29.77	356.00	14.97	-38.2	-39.3	21.9	0.00e+00	0	29	0	839909376	48	6660
2026-01-11 21:05:30.78	355.81	14.93	-38.3	-39.4	21.6	0.00e+00	0	29	0	842006528	48	6754
2026-01-11 21:05:31.79	355.61	14.88	-38.4	-39.6	21.8	0.00e+00	0	29	0	844103680	48	6874
2026-01-11 21:05:32.80	355.42	14.84	-38.6	-39.7	21.5	0.00e+00	0	29	0	845152256	48	6997
2026-01-11 21:05:33.81	355.23	14.79	-38.4	-39.5	21.8	0.00e+00	0	29	0	847249408	48	6810
2026-01-11 21:05:34.82	355.04	14.74	-38.4	-39.5	21.7	0.00e+00	0	29	0	849346560	48	6834
2026-01-11 21:05:35.83	354.85	14.70	-37.9	-39.0	22.2	0.00e+00	0	29	0	851443712	48	6401
2026-01-11 21:05:36.84	354.66	14.65	-37.9	-39.0	22.2	0.00e+00	0	29	0	853540864	48	6420
2026-01-11 21:05:37.85	354.47	14.60	-37.7	-38.7	22.4	0.00e+00	0	29	0	854589440	48	6218
2026-01-11 21:05:38.85	354.28	14.56	-37.6	-38.6	22.5	0.00e+00	0	28	0	856686592	48	6141
2026-01-11 21:05:39.86	354.09	14.51	-37.7	-38.7	22.4	0.00e+00	0	28	0	858783744	48	6239
2026-01-11 21:05:40.87	353.91	14.46	-37.5	-38.5	22.7	0.00e+00	0	29	0	860880896	48	6069
2026-01-11 21:05:41.88	353.72	14.42	-37.4	-38.3	22.8	0.00e+00	0	28	0	862978048	48	5959
2026-01-11 21:05:42.89	353.53	14.37	-37.0	-38.0	23.0	0.00e+00	0	28	0	865075200	48	5696
2026-01-11 21:05:43.90	353.35	14.32	-37.2	-38.2	22.8	0.00e+00	0	29	0	866123776	48	5870
2026-01-11 21:05:44.91	353.16	14.27	-36.9	-37.8	23.1	0.00e+00	0	29	0	868220928	48	5603
2026-01-11 21:05:45.91	352.98	14.23	-36.8	-37.8	23.2	0.00e+00	0	29	0	870318080	48	5568
2026-01-11 21:05:46.92	352.80	14.18	-37.1	-38.0	23.0	0.00e+00	0	29	0	872415232	48	5748
2026-01-11 21:05:47.93	352.61	14.13	-37.2	-38.2	22.8	0.00e+00	0	29	0	874512384	48	5858
2026-01-11 21:05:48.94	352.43	14.08	-37.4	-38.4	22.9	0.00e+00	0	29	0	875560960	48	5976
2026-01-11 21:05:49.95	352.25	14.03	-37.6	-38.6	22.5	0.00e+00	0	28	0	877658112	48	6143
2026-01-11 21:05:50.96	352.07	13.98	-37.6	-38.6	22.5	0.00e+00	0	29	0	879755264	48	6155
2026-01-11 21:05:51.97	351.88	13.93	-37.4	-38.4	22.6	0.00e+00	0	28	0	881852416	48	5969
2026-01-11 21:05:52.98	351.70	13.88	-37.4	-38.4	22.7	0.00e+00	0	29	0	883949568	48	6009
2026-01-11 21:05:53.99	351.52	13.83	-37.2	-38.2	22.8	0.00e+00	0	28	0	884998144	48	5835
2026-01-11 21:05:55.00	351.35	13.78	-37.3	-38.2	22.9	0.00e+00	0	28	0	887095296	48	5863
2026-01-11 21:05:56.01	351.17	13.73	-37.1	-38.0	23.0	0.00e+00	0	28	0	889192448	48	5747
2026-01-11 21:05:57.01	350.99	13.68	-37.3	-38.3	22.7	0.00e+00	0	28	0	891289600	48	5902
2026-01-11 21:05:58.02	350.81	13.63	-37.3	-38.2	22.8	0.00e+00	0	29	0	893386752	48	5871
2026-01-11 21:05:59.03	350.64	13.58	-37.5	-38.4	22.6	0.00e+00	0	29	0	894435328	48	6017
2026-01-11 21:06:00.04	350.46	13.53	-37.7	-38.7	22.4	0.00e+00	0	28	0	896532480	48	6177
2026-01-11 21:06:01.05	350.29	13.48	-38.4	-39.5	21.7	0.00e+00	0	28	0	898629632	48	6809
2026-01-11 21:06:02.06	350.11	13.43	-39.0	-40.2	21.1	0.00e+00	0	28	0	900726784	50	6576
2026-01-11 21:06:03.07	349.94	13.38	-39.8	-41.1	20.4	0.00e+00	0	29	0	902823936	50	7319
2026-01-11 21:06:04.08	349.76	13.32	-40.5	-42.0	19.6	0.00e+00	0	28	0	903872512	52	7214
2026-01-11 21:06:05.09	349.59	13.27	-40.6	-42.2	19.4	0.00e+00	0	28	0	905969664	54	6549
2026-01-11 21:06:06.09	349.42	13.22	-40.9	-42.5	19.0	0.00e+00	0	28	0	908066816	54	6840
2026-01-11 21:06:07.10	349.25	13.17	-40.8	-42.5	19.2	0.00e+00	0	28	0	910163968	54	6782
2026-01-11 21:06:08.11	349.08	13.12	-41.0	-42.7	19.0	0.00e+00	0	28	0	912261120	54	6971
2026-01-11 21:06:09.12	348.91	13.07	-40.1	-41.6	19.9	0.00e+00	0	28	0	913309696	54	6148
2026-01-11 21:06:10.13	348.74	13.01	-40.0	-41.4	20.0	0.00e+00	0	28	0	915406848	54	6031
2026-01-11 21:06:11.14	348.57	12.96	-40.0	-41.4	20.0	0.00e+00	0	29	0	917504000	54	5976
2026-01-11 21:06:12.15	348.40	12.91	-39.8	-41.2	20.4	0.00e+00	0	29	0	919601152	52	6574
2026-01-11 21:06:13.16	348.23	12.86	-39.8	-41.2	20.3	0.00e+00	0	28	0	921698304	52	6550
2026-01-11 21:06:14.17	348.06	12.80	-39.5	-40.8	20.7	0.00e+00	0	29	0	922746880	52	6258
2026-01-11 21:06:15.18	347.90	12.75	-39.5	-40.7	20.7	0.00e+00	0	28	0	924844032	52	6233
2026-01-11 21:06:16.19	347.73	12.70	-39.2	-40.4	20.9	0.00e+00	0	29	0	926941184	52	6014
2026-01-11 21:06:17.20	347.57	12.64	-39.0	-40.1	21.1	0.00e+00	0	28	0	929038336	52	5828
2026-01-11 21:06:18.20	347.40	12.59	-38.4	-39.5	21.7	0.00e+00	0	28	0	931135488	50	6086
2026-01-11 21:06:19.21	347.24	12.54	-38.4	-39.5	21.8	0.00e+00	0	28	0	932184064	50	6048
2026-01-11 21:06:20.22	347.07	12.48	-38.1	-39.2	22.0	0.00e+00	0	28	0	934281216	50	5861
2026-01-11 21:06:21.23	346.91	12.43	-38.5	-39.6	21.6	0.00e+00	0	28	0	936378368	50	6116
2026-01-11 21:06:22.24	346.75	12.38	-38.5	-39.6	21.6	0.00e+00	0	28	0	938475520	50	6150
2026-01-11 21:06:23.24	346.59	12.32	-38.6	-39.8	21.5	0.00e+00	0	28	0	940572672	50	6256
2026-01-11 21:06:24.25	346.43	12.27	-38.8	-40.0	21.3	0.00e+00	0	28	0	941621248	50	6430
2026-01-11 21:06:25.26	346.27	12.21	-38.7	-39.9	21.4	0.00e+00	0	28	0	943718400	50	6324
2026-01-11 21:06:26.27	346.11	12.16	-39.0	-40.2	21.2	0.00e+00	0	28	0	945815552	50	6607
2026-01-11 21:06:27.28	345.95	12.11	-38.7	-39.8	21.4	0.00e+00	0	28	0	947912704	50	6264
2026-01-11 21:06:28.29	345.79	12.05	-38.5	-39.6	21.7	0.00e+00	0	28	0	950009856	50	6156
2026-01-11 21:06:29.30	345.63	12.00	-38.2	-39.2	21.9	0.00e+00	0	28	0	951058432	50	5867
2026-01-11 21:06:30.31	345.47	11.94	-38.1	-39.2	21.9	0.00e+00	0	28	0	953155584	50	5842
2026-01-11 21:06:31.32	345.31	11.89	-38.1	-39.1	22.0	0.00e+00	0	28	0	955252736	50	5816
2026-01-11 21:06:32.33	345.16	11.83	-38.1	-39.2	21.9	0.00e+00	0	28	0	957349888	50	5876
2026-01-11 21:06:33.34	345.00	11.78	-38.0	-39.0	22.1	0.00e+00	0	28	0	959447040	50	5761
2026-01-11 21:06:34.35	344.85	11.72	-37.9	-39.0	22.1	0.00e+00	0	28	0	961544192	50	5697
2026-01-11 21:06:35.36	344.69	11.67	-38.0	-39.1	22.0	0.00e+00	0	28	0	962592768	50	5782
2026-01-11 21:06:36.37	344.54	11.61	-38.2	-39.3	21.8	0.00e+00	0	28	0	964689920	50	5928
2026-01-11 21:06:37.37	344.39	11.56	-38.4	-39.5	21.8	0.00e+00	0	28	0	966787072	50	6082
2026-01-11 21:06:38.38	344.23	11.50	-38.4	-39.5	21.6	0.00e+00	0	28	0	968884224	50	6057
2026-01-11 21:06:39.39	344.08	11.45	-38.4	-39.5	21.7	0.00e+00	0	28	0	970981376	50	6083
2026-01-11 21:06:40.40	343.93	11.39	-38.6	-39.7	21.5	0.00e+00	0	28	0	972029952	50	6203
2026-01-11 21:06:41.41	343.78	11.34	-38.7	-39.9	21.3	0.00e+00	0	28	0	974127104	50	6351
2026-01-11 21:06:42.42	343.63	11.28	-38.9	-40.1	21.2	0.00e+00	0	28	0	976224256	50	6506
2026-01-11 21:06:43.43	343.48	11.22	-38.8	-40.0	21.3	0.00e+00	0	28	0	978321408	50	6405
2026-01-11 21:06:44.44	343.33	11.17	-38.8	-39.9	21.2	0.00e+00	0	28	0	980418560	50	6383
2026-01-11 21:06:45.45	343.18	11.11	-38.9	-40.0	21.2	0.00e+00	0	28	0	981467136	50	6464
2026-01-11 21:06:46.46	343.03	11.06	-38.7	-39.9	21.4	0.00e+00	0	28	0	983564288	50	6340
2026-01-11 21:06:47.46	342.88	11.00	-38.5	-39.7	21.6	0.00e+00	0	28	0	985661440	50	6174
2026-01-11 21:06:48.47	342.74	10.95	-38.6	-39.7	21.5	0.00e+00	0	28	0	987758592	50	6243
2026-01-11 21:06:49.48	342.59	10.89	-38.4	-39.6	21.5	0.00e+00	0	28	0	989855744	50	6111
2026-01-11 21:06:50.49	342.44	10.83	-38.3	-39.4	21.6	0.00e+00	0	28	0	990904320	50	5998
2026-01-11 21:06:51.51	342.30	10.78	-38.5	-39.7	21.7	0.00e+00	0	28	0	993001472	50	6179
2026-01-11 21:06:52.51	342.15	10.72	-38.4	-39.5	21.7	0.00e+00	0	28	0	995098624	50	6080
2026-01-11 21:06:53.52	342.01	10.67	-38.1	-39.2	22.1	0.00e+00	0	28	0	997195776	50	5884
2026-01-11 21:06:54.53	341.87	10.61	-37.8	-38.8	22.2	0.00e+00	0	28	0	999292928	50	5623
2026-01-11 21:06:55.54	341.72	10.55	-37.7	-38.7	22.3	0.00e+00	0	28	0	1000341504	48	6230
2026-01-11 21:06:56.55	341.58	10.50	-37.1	-38.1	22.8	0.00e+00	0	28	0	1002438656	48	5810
2026-01-11 21:06:57.56	341.44	10.44	-37.3	-38.3	22.7	0.00e+00	0	28	0	1004535808	48	5908
2026-01-11 21:06:58.57	341.30	10.38	-36.8	-37.8	23.1	0.00e+00	0	28	0	1006632960	48	5591
2026-01-11 21:06:59.58	341.16	10.33	-36.9	-37.9	23.0	0.00e+00	0	28	0	1008730112	48	5638
2026-01-11 21:07:00.59	341.01	10.27	-36.8	-37.7	23.2	0.00e+00	0	28	0	1009778688	48	5562
2026-01-11 21:07:01.60	340.87	10.21	-36.9	-37.9	22.9	0.00e+00	0	28	0	1011875840	46	6352
2026-01-11 21:07:02.61	340.74	10.16	-37.0	-38.0	22.8	0.00e+00	0	28	0	1013972992	46	6448
2026-01-11 21:07:03.61	340.60	10.10	-37.5	-38.6	22.5	0.00e+00	0	28	0	1016070144	46	6882
2026-01-11 21:07:04.62	340.46	10.04	-37.5	-38.5	22.3	0.00e+00	0	28	0	1018167296	46	6847
2026-01-11 21:07:05.63	340.32	9.99	-37.6	-38.7	22.3	0.00e+00	0	28	0	1019215872	48	6209
2026-01-11 21:07:06.63	340.19	9.93	-37.7	-38.8	22.3	0.00e+00	0	28	0	1021313024	48	6292
2026-01-11 21:07:07.64	340.05	9.87	-37.7	-38.8	22.4	0.00e+00	0	28	0	1023410176	48	6268
2026-01-11 21:07:08.65	339.91	9.82	-37.6	-38.7	22.3	0.00e+00	0	28	0	1025507328	48	6197
2026-01-11 21:07:09.66	339.78	9.76	-37.4	-38.4	22.4	0.00e+00	0	28	0	1027604480	48	6030
2026-01-11 21:07:10.67	339.64	9.70	-37.5	-38.6	22.4	0.00e+00	0	28	0	1028653056	48	6111
2026-01-11 21:07:11.68	339.51	9.65	-37.2	-38.2	22.6	0.00e+00	0	28	0	1030750208	48	5882
2026-01-11 21:07:12.69	339.38	9.59	-37.2	-38.3	22.6	0.00e+00	0	28	0	1032847360	48	5907
2026-01-11 21:07:13.69	339.24	9.53	-37.2	-38.2	22.6	0.00e+00	0	28	0	1034944512	48	5869
2026-01-11 21:07:14.70	339.11	9.48	-37.2	-38.2	22.6	0.00e+00	0	28	0	1037041664	48	5861
2026-01-11 21:07:15.71	338.98	9.42	-37.3	-38.3	22.5	0.00e+00	0	28	0	1038090240	48	5923
2026-01-11 21:07:16.72	338.85	9.36	-37.4	-38.4	22.4	0.00e+00	0	28	0	1040187392	48	6018
2026-01-11 21:07:17.73	338.72	9.31	-37.4	-38.5	22.4	0.00e+00	0	28	0	1042284544	48	6057
2026-01-11 21:07:18.73	338.59	9.25	-37.4	-38.4	22.4	0.00e+00	0	28	0	1044381696	48	6009
2026-01-11 21:07:19.74	338.46	9.19	-37.6	-38.7	22.2	0.00e+00	0	28	0	1046478848	48	6226
2026-01-11 21:07:20.75	338.33	9.14	-37.7	-38.8	22.1	0.00e+00	0	28	0	1047527424	48	6284
2026-01-11 21:07:21.76	338.20	9.08	-37.6	-38.7	22.3	0.00e+00	0	28	0	1049624576	48	6207
2026-01-11 21:07:22.77	338.07	9.02	-37.7	-38.8	22.1	0.00e+00	0	28	0	1051721728	48	6286
2026-01-11 21:07:23.78	337.94	8.96	-37.7	-38.8	22.1	0.00e+00	0	28	0	1053818880	48	6284
2026-01-11 21:07:24.79	337.81	8.91	-37.9	-39.0	21.9	0.00e+00	0	28	0	1055916032	48	6391
2026-01-11 21:07:25.80	337.69	8.85	-38.0	-39.1	21.8	0.00e+00	0	28	0	1058013184	48	6534
2026-01-11 21:07:26.80	337.56	8.79	-38.3	-39.4	21.5	0.00e+00	0	28	0	1059061760	48	6745
2026-01-11 21:07:27.81	337.43	8.74	-37.9	-39.0	21.9	0.00e+00	0	28	0	1061158912	48	6453
2026-01-11 21:07:28.82	337.31	8.68	-38.2	-39.4	21.6	0.00e+00	0	28	0	1063256064	48	6696
2026-01-11 21:07:29.83	337.18	8.62	-38.4	-39.6	21.5	0.00e+00	0	28	0	1065353216	48	6897
2026-01-11 21:07:30.84	337.06	8.57	-38.3	-39.4	21.5	0.00e+00	0	28	0	1067450368	48	6758
2026-01-11 21:07:31.85	336.94	8.51	-38.3	-39.4	21.5	0.00e+00	0	28	0	1068498944	48	6741
2026-01-11 21:07:32.86	336.81	8.45	-38.2	-39.4	21.5	0.00e+00	0	28	0	1070596096	48	6726
2026-01-11 21:07:33.87	336.69	8.39	-38.0	-39.2	21.7	0.00e+00	0	28	0	1072693248	48	6549
2026-01-11 21:07:34.88	336.57	8.34	-38.0	-39.1	21.7	0.00e+00	0	28	0	1074790400	48	6501
2026-01-11 21:07:35.89	336.44	8.28	-38.3	-39.5	21.2	0.00e+00	0	28	0	1076887552	48	6778
2026-01-11 21:07:36.90	336.32	8.22	-38.2	-39.3	21.4	0.00e+00	0	28	0	1077936128	48	6692
2026-01-11 21:07:37.91	336.20	8.17	-37.8	-38.9	21.9	0.00e+00	0	28	0	1080033280	48	6352
2026-01-11 21:07:38.91	336.08	8.11	-37.5	-38.5	22.3	0.00e+00	0	28	0	1082130432	48	6085
2026-01-11 21:07:39.92	335.96	8.05	-37.2	-38.2	22.5	0.00e+00	0	28	0	1084227584	48	5867
2026-01-11 21:07:40.93	335.84	8.00	-37.1	-38.1	22.4	0.00e+00	0	28	0	1086324736	48	5786
2026-01-11 21:07:41.94	335.72	7.94	-37.2	-38.2	22.5	0.00e+00	0	28	0	1087373312	48	5840
2026-01-11 21:07:42.95	335.60	7.88	-37.4	-38.4	21.7	0.00e+00	0	28	0	1089470464	48	5991
2026-01-11 21:07:43.96	335.49	7.82	-37.3	-38.3	22.2	0.00e+00	0	28	0	1091567616	48	5954
2026-01-11 21:07:44.97	335.37	7.77	-37.6	-38.7	22.0	0.00e+00	0	28	0	1093664768	48	6216
2026-01-11 21:07:45.97	335.25	7.71	-37.9	-39.0	21.8	0.00e+00	0	28	0	1095761920	48	6458
2026-01-11 21:07:46.98	335.14	7.65	-38.1	-39.3	21.5	0.00e+00	0	28	0	1096810496	48	6643
2026-01-11 21:07:47.99	335.02	7.60	-38.4	-39.6	21.3	0.00e+00	0	28	0	1098907648	48	6881
2026-01-11 21:07:49.00	334.90	7.54	-38.5	-39.7	21.2	0.00e+00	0	28	0	1101004800	48	6979
2026-01-11 21:07:50.01	334.79	7.48	-38.6	-39.8	21.0	0.00e+00	0	28	0	1103101952	48	7058
2026-01-11 21:07:51.02	334.67	7.43	-38.8	-40.0	20.9	0.00e+00	0	28	0	1105199104	48	7208
2026-01-11 21:07:52.03	334.56	7.37	-38.8	-40.0	21.0	0.00e+00	0	28	0	1106247680	50	6422
2026-01-11 21:07:53.04	334.45	7.31	-38.6	-39.8	21.1	0.00e+00	0	28	0	1108344832	50	6299
2026-01-11 21:07:54.05	334.33	7.26	-38.5	-39.7	21.3	0.00e+00	0	28	0	1110441984	50	6175
2026-01-11 21:07:55.06	334.22	7.20	-38.4	-39.6	21.3	0.00e+00	0	28	0	1112539136	50	6143
2026-01-11 21:07:56.07	334.11	7.14	-38.2	-39.3	21.5	0.00e+00	0	28	0	1114636288	50	5910
2026-01-11 21:07:57.08	333.99	7.09	-38.1	-39.2	21.6	0.00e+00	0	28	0	1115684864	50	5877
2026-01-11 21:07:58.09	333.88	7.03	-38.0	-39.0	21.7	0.00e+00	0	28	0	1117782016	50	5759
2026-01-11 21:07:59.10	333.77	6.97	-37.9	-39.0	21.9	0.00e+00	0	28	0	1119879168	50	5712
2026-01-11 21:08:00.11	333.66	6.92	-37.9	-39.0	21.8	0.00e+00	0	28	0	1121976320	48	6397
2026-01-11 21:08:01.12	333.55	6.86	-37.9	-39.0	21.8	0.00e+00	0	28	0	1124073472	48	6425
2026-01-11 21:08:02.13	333.44	6.80	-37.7	-38.8	21.9	0.00e+00	0	28	0	1126170624	48	6271
2026-01-11 21:08:03.14	333.33	6.75	-37.9	-38.9	21.7	0.00e+00	0	28	0	1127219200	48	6383
2026-01-11 21:08:04.15	333.22	6.69	-38.2	-39.3	21.5	0.00e+00	0	28	0	1129316352	48	6680
2026-01-11 21:08:05.16	333.11	6.63	-38.1	-39.2	21.6	0.00e+00	0	28	0	1131413504	48	6572
2026-01-11 21:08:06.17	333.00	6.58	-38.4	-39.6	21.2	0.00e+00	0	28	0	1133510656	48	6872
2026-01-11 21:08:07.17	332.90	6.52	-38.2	-39.3	21.5	0.00e+00	0	28	0	1134559232	48	6691
2026-01-11 21:08:08.19	332.79	6.46	-38.3	-39.5	21.3	7.00e-07	0	28	0	1136656384	48	6820
2026-01-11 21:08:09.19	332.68	6.41	-38.8	-40.1	20.8	0.00e+00	0	28	0	1138753536	50	6468
2026-01-11 21:08:10.20	332.58	6.35	-39.1	-40.3	20.7	0.00e+00	0	28	0	1140850688	50	6680
2026-01-11 21:08:11.21	332.47	6.29	-39.0	-40.3	20.5	0.00e+00	0	28	0	1142947840	50	6653
2026-01-11 21:08:12.22	332.37	6.24	-39.1	-40.4	20.6	0.00e+00	0	28	0	1143996416	50	6724
2026-01-11 21:08:13.23	332.26	6.18	-39.2	-40.5	20.3	0.00e+00	0	28	0	1146093568	50	6805
2026-01-11 21:08:14.24	332.16	6.12	-39.3	-40.6	20.3	0.00e+00	0	28	0	1148190720	50	6858
2026-01-11 21:08:15.25	332.05	6.07	-39.4	-40.8	20.1	0.00e+00	0	28	0	1150287872	50	7039
2026-01-11 21:08:16.26	331.95	6.01	-39.7	-41.1	20.0	0.00e+00	0	28	0	1152385024	52	6489
2026-01-11 21:08:17.27	331.84	5.96	-39.5	-40.9	20.2	0.00e+00	0	28	0	1154482176	52	6335
2026-01-11 21:08:18.28	331.74	5.90	-39.7	-41.2	19.8	0.00e+00	0	28	0	1155530752	52	6541
2026-01-11 21:08:19.29	331.64	5.84	-39.6	-41.0	20.0	0.00e+00	0	28	0	1157627904	52	6434
2026-01-11 21:08:20.30	331.54	5.79	-39.4	-40.7	20.3	0.00e+00	0	28	0	1159725056	52	6237
2026-01-11 21:08:21.31	331.43	5.73	-39.6	-41.0	20.0	0.00e+00	0	28	0	1161822208	52	6432
2026-01-11 21:08:22.31	331.33	5.67	-39.4	-40.7	20.2	0.00e+00	0	28	0	1163919360	52	6217
2026-01-11 21:08:23.33	331.23	5.62	-39.3	-40.6	20.4	0.00e+00	0	28	0	1164967936	52	6135
2026-01-11 21:08:24.33	331.13	5.56	-39.1	-40.3	20.5	0.00e+00	0	28	0	1167065088	52	5945
2026-01-11 21:08:25.34	331.03	5.51	-39.4	-40.7	20.3	0.00e+00	0	28	0	1169162240	52	6203
2026-01-11 21:08:26.35	330.93	5.45	-39.3	-40.7	20.2	0.00e+00	0	28	0	1171259392	52	6176
2026-01-11 21:08:27.36	330.83	5.39	-39.4	-40.7	20.1	0.00e+00	0	28	0	1173356544	52	6242
2026-01-11 21:08:28.37	330.73	5.34	-39.7	-41.1	19.8	0.00e+00	0	28	0	1174405120	52	6501
2026-01-11 21:08:29.38	330.63	5.28	-39.7	-41.0	20.0	0.00e+00	0	28	0	1176502272	52	6458
2026-01-11 21:08:30.39	330.54	5.23	-40.1	-41.6	19.4	0.00e+00	0	28	0	1178599424	52	6911
2026-01-11 21:08:31.40	330.44	5.17	-40.4	-41.9	19.0	0.00e+00	0	28	0	1180696576	52	7142
2026-01-11 21:08:32.41	330.34	5.12	-40.6	-42.3	18.7	0.00e+00	0	28	0	1182793728	52	7450
2026-01-11 21:08:33.42	330.24	5.06	-40.7	-42.3	18.7	0.00e+00	0	28	0	1183842304	52	7455
2026-01-11 21:08:34.43	330.15	5.00	-40.6	-42.2	18.8	0.00e+00	0	28	0	1185939456	52	7359
2026-01-11 21:08:35.44	330.05	4.95	-40.9	-42.6	18.5	0.00e+00	0	28	0	1188036608	54	6877
2026-01-11 21:08:36.45	329.95	4.89	-40.5	-42.1	18.8	0.00e+00	0	28	0	1190133760	54	6520
2026-01-11 21:08:37.46	329.86	4.84	-40.8	-42.5	18.6	0.00e+00	0	28	0	1192230912	54	6787
2026-01-11 21:08:38.47	329.76	4.78	-40.4	-41.9	19.0	0.00e+00	0	28	0	1193279488	54	6371
2026-01-11 21:08:39.48	329.67	4.73	-40.4	-42.0	19.0	0.00e+00	0	28	0	1195376640	54	6421
2026-01-11 21:08:40.49	329.57	4.67	-40.2	-41.8	19.1	0.00e+00	0	28	0	1197473792	54	6250
2026-01-11 21:08:41.49	329.48	4.62	-40.3	-41.8	19.0	0.00e+00	0	28	0	1199570944	54	6284
2026-01-11 21:08:42.50	329.39	4.56	-40.3	-41.9	18.9	0.00e+00	0	28	0	1201668096	54	6340
2026-01-11 21:08:43.51	329.29	4.51	-39.9	-41.4	19.4	0.00e+00	0	28	0	1202716672	54	5966
2026-01-11 21:08:44.52	329.20	4.45	-39.9	-41.3	19.4	0.00e+00	0	28	0	1204813824	54	5947
2026-01-11 21:08:45.52	329.11	4.40	-39.9	-41.3	19.5	0.00e+00	0	28	0	1206910976	54	5940
2026-01-11 21:08:46.53	329.02	4.34	-40.0	-41.5	19.2	0.00e+00	0	28	0	1209008128	54	6095
2026-01-11 21:08:47.54	328.92	4.29	-40.0	-41.5	19.3	0.00e+00	0	28	0	1211105280	54	6080
2026-01-11 21:08:48.55	328.83	4.23	-39.9	-41.4	19.4	0.00e+00	0	28	0	1212153856	54	5995
2026-01-11 21:08:49.56	328.74	4.18	-40.3	-41.9	18.9	0.00e+00	0	28	0	1214251008	54	6351
