passes_logs/2026/01/11/R4.6S_Anadyr/R4.6S_Anadyr__20260111_175014_AQUA_rec.log

#Pass ID: 20260111_175014_AQUA
#Satellite: AQUA
#Configuration: AQUA
#almurnet v.1.7.20251203
#Start time: 2026-01-11 17:50:15

#Version: 2.2.20231116
#Station: R4.6S_Anadyr
#Location: 177.4865 lon 64.73178 lat
#TLE: 1 27424U 02022A   26010.91777001  .00001106  00000+0  23130-3 0  9995
#TLE: 2 27424  98.4077 337.2768 0002031  83.1713 340.5382 14.61814337260293

#Time	Az	El	Level	Level2	SNR	BER	BlckErr	Temp	State	Recorded	gain1	gain2
2026-01-11 17:50:15.53	22.54	0.04	-48.0	-59.7	3.5	8.45e-01	0	25	0	0	60	34847
2026-01-11 17:50:16.53	22.50	0.10	-48.5	-66.4	3.5	3.02e+01	0	26	104	0	60	80534
2026-01-11 17:50:17.54	22.46	0.16	-48.5	-66.4	3.5	3.02e+01	0	26	104	0	60	80866
2026-01-11 17:50:18.55	22.41	0.22	-48.5	-66.4	3.5	3.02e+01	0	26	104	0	60	80131
2026-01-11 17:50:19.56	22.37	0.28	-48.4	-66.4	3.5	3.02e+01	0	26	104	0	60	80015
2026-01-11 17:50:20.57	22.33	0.34	-48.5	-66.3	3.5	3.02e+01	0	27	104	0	60	79796
2026-01-11 17:50:21.58	22.28	0.40	-48.5	-66.4	3.5	3.02e+01	0	27	104	0	60	80085
2026-01-11 17:50:22.59	22.24	0.46	-48.5	-66.3	3.5	3.02e+01	0	27	104	0	60	79645
2026-01-11 17:50:23.60	22.20	0.52	-48.3	-66.3	3.5	3.02e+01	0	26	104	0	60	79462
2026-01-11 17:50:24.61	22.15	0.58	-48.3	-66.2	3.5	3.02e+01	0	27	104	0	60	78666
2026-01-11 17:50:25.62	22.11	0.64	-48.3	-66.2	3.5	3.02e+01	0	27	104	0	60	78281
2026-01-11 17:50:26.63	22.06	0.70	-48.2	-66.1	3.5	3.02e+01	0	27	104	0	60	77247
2026-01-11 17:50:27.64	22.02	0.76	-48.0	-65.9	3.5	3.02e+01	0	27	104	0	60	75676
2026-01-11 17:50:28.65	21.98	0.82	-47.7	-65.7	3.5	3.02e+01	0	27	104	0	60	74084
2026-01-11 17:50:29.66	21.93	0.88	-47.6	-65.5	3.5	3.02e+01	0	27	104	0	60	72159
2026-01-11 17:50:30.67	21.89	0.94	-47.4	-65.2	3.5	3.02e+01	0	27	104	0	60	69759
2026-01-11 17:50:31.68	21.84	1.00	-46.9	-64.9	3.5	3.02e+01	0	27	104	0	60	67328
2026-01-11 17:50:32.68	21.79	1.06	-46.9	-64.8	3.5	3.02e+01	0	27	104	0	60	66892
2026-01-11 17:50:33.69	21.75	1.12	-46.9	-64.8	3.5	3.02e+01	0	27	104	0	60	66844
2026-01-11 17:50:34.71	21.70	1.19	-46.9	-64.7	3.5	3.02e+01	0	27	104	0	60	66344
2026-01-11 17:50:35.71	21.66	1.25	-46.9	-64.8	3.5	3.02e+01	0	27	104	0	60	66619
2026-01-11 17:50:36.72	21.61	1.31	-46.9	-64.8	3.5	3.02e+01	0	27	104	0	60	66640
2026-01-11 17:50:37.73	21.56	1.37	-46.9	-64.8	3.5	3.02e+01	0	27	104	0	60	66777
2026-01-11 17:50:38.74	21.52	1.43	-46.9	-64.8	3.5	3.02e+01	0	27	104	0	60	66815
2026-01-11 17:50:39.75	21.47	1.50	-46.9	-64.8	3.5	3.02e+01	0	27	104	0	60	66789
2026-01-11 17:50:40.76	21.42	1.56	-46.9	-64.8	3.5	3.02e+01	0	27	104	0	60	66504
2026-01-11 17:50:41.77	21.37	1.62	-46.9	-64.8	3.5	3.02e+01	0	27	104	0	60	66621
2026-01-11 17:50:42.78	21.33	1.68	-46.9	-64.7	3.5	3.02e+01	0	27	104	0	60	66451
2026-01-11 17:50:43.79	21.28	1.74	-46.9	-64.8	3.5	3.02e+01	0	27	104	0	60	66728
2026-01-11 17:50:44.80	21.23	1.81	-46.9	-64.8	3.5	3.02e+01	0	27	104	0	60	66618
2026-01-11 17:50:45.81	21.18	1.87	-46.9	-64.8	3.5	3.02e+01	0	27	104	0	60	66646
2026-01-11 17:50:46.82	21.13	1.93	-46.9	-64.8	3.5	3.02e+01	0	27	104	0	60	66735
2026-01-11 17:50:47.83	21.08	2.00	-46.9	-64.8	3.5	3.02e+01	0	27	104	0	60	66881
2026-01-11 17:50:48.84	21.03	2.06	-46.9	-64.7	3.5	3.02e+01	0	27	104	0	60	66219
2026-01-11 17:50:49.85	20.98	2.12	-46.8	-64.7	3.5	3.02e+01	0	27	104	0	60	65764
2026-01-11 17:50:50.86	20.93	2.19	-46.8	-64.6	3.5	3.02e+01	0	27	104	0	60	65410
2026-01-11 17:50:51.87	20.88	2.25	-46.8	-64.6	3.5	3.02e+01	0	27	104	0	60	65529
2026-01-11 17:50:52.88	20.83	2.31	-46.8	-64.6	3.5	3.02e+01	0	27	104	0	60	65370
2026-01-11 17:50:53.89	20.78	2.38	-46.9	-64.7	3.5	3.02e+01	0	27	104	0	60	66168
2026-01-11 17:50:54.90	20.73	2.44	-46.9	-64.7	3.5	3.02e+01	0	27	104	0	60	66363
2026-01-11 17:50:55.91	20.68	2.51	-46.9	-64.8	3.5	3.02e+01	0	27	104	0	60	66562
2026-01-11 17:50:56.92	20.63	2.57	-46.9	-64.8	3.5	3.02e+01	0	27	104	0	60	66609
2026-01-11 17:50:57.93	20.58	2.64	-46.8	-64.7	3.5	3.02e+01	0	27	104	0	60	66029
2026-01-11 17:50:58.94	20.52	2.70	-46.8	-64.6	3.5	3.02e+01	0	27	104	0	60	65618
2026-01-11 17:50:59.95	20.47	2.77	-46.8	-64.7	3.5	3.02e+01	0	27	104	0	60	65905
2026-01-11 17:51:00.96	20.42	2.83	-46.8	-64.5	3.5	3.02e+01	0	27	104	0	60	64788
2026-01-11 17:51:01.96	20.37	2.89	-46.8	-64.3	3.5	3.02e+01	0	27	104	0	60	63045
2026-01-11 17:51:02.97	20.31	2.96	-46.7	-64.1	3.5	3.02e+01	0	27	104	0	60	61983
2026-01-11 17:51:03.98	20.26	3.03	-46.8	-64.2	3.5	3.02e+01	0	27	104	0	60	62589
2026-01-11 17:51:04.99	20.21	3.09	-46.8	-64.6	3.5	3.02e+01	0	27	104	0	60	65307
2026-01-11 17:51:06.00	20.15	3.16	-46.9	-64.7	3.5	3.02e+01	0	27	104	0	60	66409
2026-01-11 17:51:07.01	20.10	3.22	-46.7	-64.0	3.5	3.02e+01	0	27	104	0	60	60919
2026-01-11 17:51:08.02	20.04	3.29	-46.3	-61.9	3.5	3.02e+01	0	27	104	0	60	47812
2026-01-11 17:51:09.03	19.99	3.36	-45.5	-59.6	3.5	3.02e+01	0	27	104	0	60	36841
2026-01-11 17:51:10.04	19.93	3.42	-44.5	-57.3	3.5	3.02e+01	0	27	104	0	60	28075
2026-01-11 17:51:11.05	19.88	3.49	-43.8	-56.1	3.5	3.02e+01	0	28	104	0	60	24575
2026-01-11 17:51:12.06	19.82	3.55	-43.5	-55.5	3.5	3.02e+01	0	27	104	0	60	22931
2026-01-11 17:51:13.07	19.77	3.62	-43.3	-55.2	3.5	3.02e+01	0	27	104	0	60	22110
2026-01-11 17:51:14.08	19.71	3.69	-46.7	-63.8	3.5	3.02e+01	0	27	104	0	60	59272
2026-01-11 17:51:15.09	19.65	3.76	-46.5	-62.4	3.5	3.02e+01	0	27	104	0	60	50696
2026-01-11 17:51:16.10	19.60	3.82	-46.3	-62.3	3.5	3.02e+01	0	27	104	0	60	49878
2026-01-11 17:51:17.11	19.54	3.89	-37.2	-47.6	3.5	3.02e+01	0	27	104	0	50	16378
2026-01-11 17:51:18.11	19.48	3.96	-46.8	-64.5	3.5	3.02e+01	0	27	104	0	60	64348
2026-01-11 17:51:19.12	19.42	4.02	-37.6	-48.1	3.5	3.02e+01	0	27	104	0	50	17363
2026-01-11 17:51:20.13	19.37	4.09	-37.3	-47.8	3.5	3.02e+01	0	27	104	0	50	16705
2026-01-11 17:51:21.14	19.31	4.16	-37.2	-47.6	3.5	3.02e+01	0	28	104	0	50	16414
2026-01-11 17:51:22.15	19.25	4.23	-37.0	-47.4	3.5	3.02e+01	0	28	104	0	48	17973
2026-01-11 17:51:23.16	19.19	4.30	-46.9	-64.0	3.5	3.02e+01	0	28	104	0	60	60893
2026-01-11 17:51:24.17	19.13	4.37	-37.5	-47.9	3.5	3.02e+01	0	28	104	0	50	16986
2026-01-11 17:51:25.18	19.07	4.43	-46.9	-64.2	3.5	3.02e+01	0	27	104	0	60	62428
2026-01-11 17:51:26.19	19.01	4.50	-45.1	-58.3	3.5	3.02e+01	0	28	104	0	60	31759
2026-01-11 17:51:27.20	18.95	4.57	-41.2	-52.3	3.5	3.02e+01	0	27	104	0	56	20068
2026-01-11 17:51:28.21	18.89	4.64	-37.8	-48.3	3.5	3.02e+01	0	28	104	0	50	17779
2026-01-11 17:51:29.22	18.83	4.71	-37.2	-47.7	3.5	3.02e+01	0	27	104	0	50	16557
2026-01-11 17:51:30.22	18.77	4.78	-37.2	-47.7	3.5	3.02e+01	0	27	104	0	50	16514
2026-01-11 17:51:31.23	18.71	4.85	-36.6	-46.9	3.6	3.02e+01	0	28	104	0	48	17070
2026-01-11 17:51:32.24	18.64	4.92	-38.1	-48.7	3.5	3.02e+01	0	28	104	0	50	18561
2026-01-11 17:51:33.25	18.58	4.99	-37.2	-47.6	3.5	3.02e+01	0	28	104	0	50	16471
2026-01-11 17:51:34.26	18.52	5.06	-47.0	-64.1	3.5	3.02e+01	0	28	104	0	60	62029
2026-01-11 17:51:35.27	18.45	5.13	-43.7	-55.9	3.5	3.02e+01	0	28	104	0	60	23922
2026-01-11 17:51:36.28	18.39	5.20	-42.4	-53.9	3.5	3.02e+01	0	28	104	0	60	19032
2026-01-11 17:51:37.29	18.33	5.27	-38.9	-49.5	3.5	3.02e+01	0	28	104	0	54	16233
2026-01-11 17:51:38.30	18.26	5.34	-37.7	-48.1	3.5	3.02e+01	0	28	104	0	50	17483
2026-01-11 17:51:39.31	18.20	5.41	-36.8	-47.2	3.5	3.02e+01	0	28	104	0	48	17606
2026-01-11 17:51:40.32	18.13	5.48	-36.5	-46.9	3.5	3.02e+01	0	28	104	0	48	16990
2026-01-11 17:51:41.33	18.07	5.56	-38.5	-49.1	3.5	3.02e+01	0	28	104	0	50	19523
2026-01-11 17:51:42.34	18.00	5.63	-37.1	-47.5	3.5	3.02e+01	0	28	104	0	50	16283
2026-01-11 17:51:43.35	17.94	5.70	-47.1	-64.3	3.5	3.02e+01	0	28	104	0	60	63373
2026-01-11 17:51:44.36	17.87	5.77	-42.8	-54.3	3.5	3.02e+01	0	28	104	0	60	19927
2026-01-11 17:51:45.37	17.80	5.84	-41.5	-52.7	3.5	3.02e+01	0	28	104	0	60	16540
2026-01-11 17:51:46.37	17.74	5.92	-38.8	-49.3	3.6	3.02e+01	0	28	104	0	52	17897
2026-01-11 17:51:47.38	17.67	5.99	-38.7	-49.3	3.5	3.02e+01	0	28	104	0	52	17773
2026-01-11 17:51:48.39	17.60	6.06	-37.3	-47.7	3.5	3.02e+01	0	28	104	0	50	16683
2026-01-11 17:51:49.40	17.53	6.13	-36.4	-46.8	3.5	3.02e+01	0	28	104	0	48	16800
2026-01-11 17:51:50.41	17.46	6.21	-37.4	-47.8	3.5	3.02e+01	0	28	104	0	48	18824
2026-01-11 17:51:51.42	17.39	6.28	-38.8	-49.3	3.5	3.02e+01	0	28	104	0	50	19983
2026-01-11 17:51:52.43	17.32	6.35	-46.7	-62.2	3.5	3.02e+01	0	28	104	0	60	49485
2026-01-11 17:51:53.44	17.25	6.43	-41.3	-52.4	3.6	3.02e+01	0	28	104	0	60	16042
2026-01-11 17:51:54.45	17.18	6.50	-39.1	-49.7	3.5	3.02e+01	0	28	104	0	54	16665
2026-01-11 17:51:55.46	17.11	6.58	-37.6	-48.0	3.5	3.02e+01	0	28	104	0	50	17109
2026-01-11 17:51:56.46	17.04	6.65	-37.8	-48.3	3.5	3.02e+01	0	28	104	0	50	17828
2026-01-11 17:51:57.47	16.97	6.72	-37.9	-48.4	3.5	3.02e+01	0	28	104	0	50	17960
2026-01-11 17:51:58.48	16.90	6.80	-37.2	-47.6	3.5	3.02e+01	0	28	104	0	50	16399
2026-01-11 17:51:59.49	16.83	6.87	-38.2	-48.8	3.5	3.02e+01	0	28	104	0	50	18777
2026-01-11 17:52:00.50	16.75	6.95	-41.2	-52.1	3.5	3.02e+01	0	28	104	0	60	15558
2026-01-11 17:52:01.51	16.68	7.02	-43.6	-55.5	3.5	3.02e+01	0	28	104	0	60	22900
2026-01-11 17:52:02.52	16.61	7.10	-41.4	-52.4	3.5	3.02e+01	0	28	104	0	52	25545
2026-01-11 17:52:03.53	16.53	7.17	-46.5	-61.4	3.5	3.02e+01	0	28	104	0	60	45279
2026-01-11 17:52:04.54	16.46	7.25	-39.0	-49.5	3.6	3.02e+01	0	28	104	0	54	16234
2026-01-11 17:52:05.55	16.38	7.33	-38.8	-49.4	3.4	3.02e+01	0	28	104	0	52	18033
2026-01-11 17:52:06.56	16.31	7.40	-38.7	-40.6	22.5	3.02e+01	44	28	104	0	52	6512
2026-01-11 17:52:07.56	16.23	7.48	-37.0	-38.5	26.3	3.02e+01	58	28	0	524288	50	5731
2026-01-11 17:52:08.57	16.15	7.56	-36.1	-37.5	27.2	3.02e+01	57	28	0	2097152	48	5757
2026-01-11 17:52:09.58	16.08	7.63	-35.9	-37.3	27.5	3.02e+01	59	28	0	4194304	46	6303
2026-01-11 17:52:10.59	16.00	7.71	-35.6	-37.0	27.6	3.02e+01	57	28	0	6291456	46	6067
2026-01-11 17:52:11.60	15.92	7.79	-35.5	-36.8	27.7	3.02e+01	56	28	0	7864320	46	5990
2026-01-11 17:52:12.61	15.84	7.87	-35.3	-36.6	27.9	3.02e+01	58	28	0	9961472	46	5827
2026-01-11 17:52:13.62	15.76	7.94	-35.2	-36.5	28.0	3.02e+01	59	28	0	11534336	46	5787
2026-01-11 17:52:14.63	15.69	8.02	-35.0	-36.3	28.2	3.02e+01	46	28	0	13631488	46	5630
2026-01-11 17:52:15.63	15.61	8.10	-35.0	-36.3	28.2	3.02e+01	61	28	0	15728640	46	5649
2026-01-11 17:52:16.65	15.53	8.18	-35.1	-36.4	28.2	3.02e+01	57	28	0	17301504	46	5678
2026-01-11 17:52:17.66	15.44	8.26	-35.0	-36.3	28.2	3.02e+01	56	28	0	19398656	44	6302
2026-01-11 17:52:18.66	15.36	8.33	-34.9	-36.2	28.3	3.02e+01	60	28	0	21495808	44	6234
2026-01-11 17:52:19.67	15.28	8.41	-35.0	-36.3	28.3	3.02e+01	44	28	0	23068672	44	6279
2026-01-11 17:52:20.68	15.20	8.49	-34.9	-36.2	28.4	3.02e+01	60	28	0	25165824	44	6230
2026-01-11 17:52:21.69	15.12	8.57	-35.1	-36.4	28.3	3.02e+01	58	28	0	26738688	44	6375
2026-01-11 17:52:22.70	15.03	8.65	-34.8	-36.1	28.4	3.02e+01	45	28	0	28835840	44	6165
2026-01-11 17:52:23.71	14.95	8.73	-34.9	-36.2	28.4	3.02e+01	60	28	0	30932992	44	6245
2026-01-11 17:52:24.72	14.87	8.81	-34.8	-36.1	28.5	3.02e+01	55	28	0	32505856	44	6184
2026-01-11 17:52:25.73	14.78	8.89	-34.9	-36.2	28.4	3.02e+01	61	28	0	34603008	44	6209
2026-01-11 17:52:26.74	14.69	8.97	-34.7	-36.0	28.5	3.02e+01	59	28	0	36700160	44	6088
2026-01-11 17:52:27.75	14.61	9.05	-34.9	-36.2	28.4	3.02e+01	61	28	0	38273024	44	6208
2026-01-11 17:52:28.76	14.52	9.14	-34.7	-35.9	28.6	3.02e+01	59	28	0	40370176	44	6033
2026-01-11 17:52:29.77	14.44	9.22	-34.6	-35.9	28.7	3.02e+01	59	28	0	41943040	44	6016
2026-01-11 17:52:30.78	14.35	9.30	-34.5	-35.8	28.8	3.02e+01	46	28	0	44040192	44	5935
2026-01-11 17:52:31.79	14.26	9.38	-34.5	-35.8	28.8	3.02e+01	63	28	0	45613056	44	5935
2026-01-11 17:52:32.80	14.17	9.46	-34.6	-35.8	28.7	3.02e+01	52	28	0	47710208	44	5976
2026-01-11 17:52:33.80	14.08	9.54	-34.6	-35.9	28.7	3.02e+01	58	28	0	49807360	44	6030
2026-01-11 17:52:34.82	13.99	9.63	-34.7	-35.9	28.6	3.02e+01	64	28	0	51380224	44	6047
2026-01-11 17:52:35.82	13.90	9.71	-34.4	-35.6	28.9	3.02e+01	46	28	0	53477376	44	5821
2026-01-11 17:52:36.84	13.81	9.79	-34.5	-35.8	28.8	3.02e+01	62	28	0	55050240	44	5928
2026-01-11 17:52:37.85	13.72	9.88	-34.4	-35.7	28.9	3.02e+01	58	28	0	57147392	44	5872
2026-01-11 17:52:38.86	13.63	9.96	-34.6	-35.8	28.8	3.02e+01	59	28	0	59244544	44	5952
2026-01-11 17:52:39.86	13.53	10.04	-34.5	-35.7	28.8	3.02e+01	59	28	0	60817408	44	5917
2026-01-11 17:52:40.87	13.44	10.13	-34.5	-35.8	28.8	3.02e+01	47	28	0	62914560	44	5967
2026-01-11 17:52:41.88	13.35	10.21	-34.4	-35.7	28.9	3.02e+01	60	28	0	65011712	44	5894
2026-01-11 17:52:42.89	13.25	10.30	-34.6	-35.9	28.7	3.02e+01	61	28	0	66584576	44	5996
2026-01-11 17:52:43.90	13.16	10.38	-34.7	-35.9	28.7	3.02e+01	42	28	0	68681728	44	6049
2026-01-11 17:52:44.91	13.06	10.47	-34.5	-35.7	28.9	3.02e+01	56	28	0	70254592	44	5890
2026-01-11 17:52:45.92	12.96	10.55	-34.5	-35.7	28.9	3.02e+01	59	28	0	72351744	44	5914
2026-01-11 17:52:46.93	12.87	10.64	-34.4	-35.6	29.0	3.02e+01	60	28	0	74448896	44	5844
2026-01-11 17:52:47.93	12.77	10.72	-34.4	-35.6	28.9	3.02e+01	58	28	0	76021760	44	5858
2026-01-11 17:52:48.94	12.67	10.81	-34.5	-35.8	28.9	3.02e+01	51	28	0	78118912	44	5932
2026-01-11 17:52:49.95	12.57	10.89	-34.5	-35.7	28.9	3.02e+01	59	28	0	79691776	44	5895
2026-01-11 17:52:50.96	12.47	10.98	-34.5	-35.8	28.8	3.02e+01	60	28	0	81788928	44	5935
2026-01-11 17:52:51.97	12.37	11.07	-34.7	-35.9	28.7	3.02e+01	51	28	0	83886080	44	6033
2026-01-11 17:52:52.98	12.27	11.16	-34.7	-35.9	28.6	3.02e+01	57	28	0	85458944	44	6063
2026-01-11 17:52:53.99	12.17	11.24	-34.8	-36.1	28.7	3.02e+01	60	28	0	87556096	44	6162
2026-01-11 17:52:55.00	12.07	11.33	-34.8	-36.1	28.4	3.02e+01	57	28	0	89653248	44	6142
2026-01-11 17:52:56.01	11.96	11.42	-35.1	-36.3	28.6	3.02e+01	61	28	0	91226112	44	6334
2026-01-11 17:52:57.02	11.86	11.51	-34.6	-35.8	28.8	3.02e+01	47	28	0	93323264	44	5965
2026-01-11 17:52:58.02	11.76	11.59	-34.5	-35.8	28.8	3.02e+01	59	28	0	94896128	44	5944
2026-01-11 17:52:59.03	11.65	11.68	-34.6	-35.8	28.7	3.02e+01	61	28	0	96993280	44	5992
2026-01-11 17:53:00.04	11.55	11.77	-34.6	-35.8	28.9	3.02e+01	47	28	0	99090432	44	5976
2026-01-11 17:53:01.05	11.44	11.86	-34.2	-35.4	29.2	3.02e+01	58	28	0	100663296	44	5722
2026-01-11 17:53:02.06	11.33	11.95	-34.2	-35.4	29.2	3.02e+01	59	28	0	102760448	44	5687
2026-01-11 17:53:03.07	11.22	12.04	-34.3	-35.5	29.2	3.02e+01	57	28	0	104333312	44	5776
2026-01-11 17:53:04.08	11.11	12.13	-34.2	-35.4	29.2	3.02e+01	60	28	0	106430464	44	5715
2026-01-11 17:53:05.09	11.01	12.22	-34.2	-35.4	29.2	3.02e+01	55	28	0	108527616	44	5693
2026-01-11 17:53:06.10	10.90	12.31	-34.2	-35.4	29.3	3.02e+01	52	28	0	110100480	44	5678
2026-01-11 17:53:07.11	10.78	12.40	-34.1	-35.4	29.3	3.02e+01	59	28	0	112197632	44	5662
2026-01-11 17:53:08.12	10.67	12.49	-34.2	-35.4	29.2	3.02e+01	45	28	0	113770496	44	5712
2026-01-11 17:53:09.13	10.56	12.58	-34.2	-35.4	29.3	3.02e+01	55	28	0	115867648	44	5666
2026-01-11 17:53:10.14	10.45	12.68	-34.2	-35.4	29.2	3.02e+01	48	28	0	117964800	44	5683
2026-01-11 17:53:11.15	10.33	12.77	-34.4	-35.6	29.1	3.02e+01	61	28	0	119537664	44	5811
2026-01-11 17:53:12.16	10.22	12.86	-34.1	-35.3	29.3	3.02e+01	58	28	0	121634816	44	5617
2026-01-11 17:53:13.17	10.10	12.95	-34.2	-35.4	29.2	3.02e+01	53	28	0	123207680	44	5666
2026-01-11 17:53:14.17	9.99	13.04	-34.0	-35.2	29.4	3.02e+01	60	28	0	125304832	44	5570
2026-01-11 17:53:15.18	9.87	13.14	-34.0	-35.2	29.4	3.02e+01	60	29	0	127401984	44	5568
2026-01-11 17:53:16.19	9.75	13.23	-34.1	-35.3	29.4	3.02e+01	58	28	0	128974848	44	5608
2026-01-11 17:53:17.20	9.63	13.32	-34.1	-35.3	29.4	3.02e+01	58	28	0	131072000	44	5625
2026-01-11 17:53:18.21	9.51	13.42	-34.1	-35.3	29.3	3.02e+01	46	29	0	133169152	44	5614
2026-01-11 17:53:19.22	9.39	13.51	-34.0	-35.2	29.5	3.02e+01	56	28	0	134742016	44	5541
2026-01-11 17:53:20.23	9.27	13.61	-34.0	-35.2	29.5	3.02e+01	56	29	0	136839168	42	6212
2026-01-11 17:53:21.24	9.15	13.70	-34.0	-35.2	29.5	3.02e+01	43	29	0	138412032	42	6233
2026-01-11 17:53:22.25	9.02	13.80	-34.0	-35.2	29.4	3.02e+01	58	28	0	140509184	42	6276
2026-01-11 17:53:23.26	8.90	13.89	-33.9	-35.1	29.6	3.02e+01	58	28	0	142606336	42	6148
2026-01-11 17:53:24.27	8.77	13.99	-33.8	-35.0	29.6	3.02e+01	58	29	0	144179200	42	6113
2026-01-11 17:53:25.28	8.65	14.08	-34.0	-35.2	29.5	3.02e+01	57	28	0	146276352	42	6241
2026-01-11 17:53:26.29	8.52	14.18	-33.7	-34.9	29.7	3.02e+01	61	29	0	147849216	42	6048
2026-01-11 17:53:27.29	8.40	14.27	-33.8	-34.9	29.7	3.02e+01	58	29	0	149946368	42	6059
2026-01-11 17:53:28.30	8.27	14.37	-33.8	-35.0	29.7	3.02e+01	59	29	0	152043520	42	6106
2026-01-11 17:53:29.31	8.14	14.47	-33.9	-35.1	29.5	3.02e+01	55	29	0	153616384	42	6194
2026-01-11 17:53:30.32	8.01	14.56	-33.9	-35.1	29.5	3.02e+01	60	29	0	155713536	42	6186
2026-01-11 17:53:31.33	7.88	14.66	-33.9	-35.1	29.6	3.02e+01	60	29	0	157286400	42	6170
2026-01-11 17:53:32.34	7.74	14.76	-34.0	-35.2	29.5	3.02e+01	57	28	0	159383552	42	6231
2026-01-11 17:53:33.35	7.61	14.86	-33.7	-34.9	29.7	3.02e+01	57	29	0	161480704	42	6013
2026-01-11 17:53:34.36	7.48	14.96	-33.7	-34.9	29.8	3.02e+01	49	29	0	163053568	42	6051
2026-01-11 17:53:35.37	7.34	15.06	-33.7	-34.9	29.8	3.02e+01	58	29	0	165150720	42	6019
2026-01-11 17:53:36.38	7.20	15.15	-33.8	-34.9	29.7	3.02e+01	58	29	0	166723584	42	6060
2026-01-11 17:53:37.39	7.07	15.25	-33.8	-35.0	29.7	3.02e+01	45	29	0	168820736	42	6086
2026-01-11 17:53:38.40	6.93	15.35	-33.7	-34.9	29.8	3.02e+01	59	29	0	170917888	42	6022
2026-01-11 17:53:39.41	6.79	15.45	-33.8	-35.0	29.7	3.02e+01	56	29	0	172490752	42	6081
2026-01-11 17:53:40.41	6.65	15.55	-33.7	-34.9	29.9	3.02e+01	56	29	0	174587904	42	6011
2026-01-11 17:53:41.42	6.51	15.65	-33.9	-35.1	29.6	3.02e+01	59	29	0	176160768	42	6155
2026-01-11 17:53:42.43	6.37	15.75	-33.8	-35.0	29.7	3.02e+01	54	29	0	178257920	42	6107
2026-01-11 17:53:43.44	6.22	15.85	-33.9	-35.1	29.6	3.02e+01	57	29	0	180355072	42	6153
2026-01-11 17:53:44.45	6.08	15.96	-33.8	-35.0	29.7	3.02e+01	55	29	0	181927936	42	6124
2026-01-11 17:53:45.46	5.93	16.06	-33.9	-35.1	29.7	3.02e+01	50	29	0	184025088	42	6157
2026-01-11 17:53:46.47	5.79	16.16	-33.9	-35.1	29.7	3.02e+01	58	29	0	186122240	42	6173
2026-01-11 17:53:47.48	5.64	16.26	-33.7	-34.9	29.8	3.02e+01	47	29	0	187695104	42	6015
2026-01-11 17:53:48.49	5.49	16.36	-33.7	-34.9	29.8	3.02e+01	57	29	0	189792256	42	6046
2026-01-11 17:53:49.49	5.34	16.46	-33.7	-34.9	29.8	3.02e+01	58	29	0	191365120	42	6019
2026-01-11 17:53:50.50	5.19	16.57	-33.8	-35.0	29.9	3.02e+01	51	29	0	193462272	42	6093
2026-01-11 17:53:51.51	5.04	16.67	-33.5	-34.7	30.0	3.02e+01	61	29	0	195559424	42	5899
2026-01-11 17:53:52.53	4.88	16.78	-33.6	-34.8	30.0	3.02e+01	59	29	0	197132288	42	5937
2026-01-11 17:53:53.53	4.73	16.88	-33.6	-34.8	29.9	3.02e+01	58	29	0	199229440	42	5948
2026-01-11 17:53:54.54	4.57	16.98	-33.6	-34.8	29.9	3.02e+01	59	29	0	201326592	42	5969
2026-01-11 17:53:55.55	4.42	17.09	-33.7	-34.9	29.9	3.02e+01	57	29	0	202899456	42	6011
2026-01-11 17:53:56.56	4.26	17.19	-33.8	-35.0	29.8	3.02e+01	60	29	0	204996608	42	6089
2026-01-11 17:53:57.57	4.10	17.30	-33.7	-34.9	29.9	3.02e+01	57	29	0	206569472	42	6016
2026-01-11 17:53:58.58	3.94	17.40	-33.9	-35.1	29.7	3.02e+01	47	29	0	208666624	42	6171
2026-01-11 17:53:59.59	3.78	17.51	-33.8	-35.0	29.8	3.02e+01	61	29	0	210763776	42	6102
2026-01-11 17:54:00.60	3.62	17.61	-33.8	-35.0	29.8	3.02e+01	62	29	0	212336640	42	6081
2026-01-11 17:54:01.61	3.45	17.72	-33.7	-34.9	29.9	3.02e+01	61	29	0	214433792	42	6028
2026-01-11 17:54:02.62	3.29	17.83	-33.8	-35.0	29.8	3.02e+01	60	29	0	216006656	42	6082
2026-01-11 17:54:03.63	3.12	17.93	-33.8	-35.0	29.7	3.02e+01	57	29	0	218103808	42	6109
2026-01-11 17:54:04.64	2.95	18.04	-34.0	-35.2	29.5	3.02e+01	60	29	0	219676672	42	6254
2026-01-11 17:54:05.65	2.78	18.15	-34.0	-35.2	29.6	3.02e+01	57	29	0	221773824	42	6238
2026-01-11 17:54:06.66	2.61	18.25	-34.1	-35.3	29.6	3.02e+01	45	29	0	223870976	42	6284
2026-01-11 17:54:07.66	2.44	18.36	-33.9	-35.1	29.7	3.02e+01	59	29	0	225443840	42	6173
2026-01-11 17:54:08.67	2.27	18.47	-34.0	-35.2	29.7	3.02e+01	59	29	0	227540992	42	6217
2026-01-11 17:54:09.68	2.10	18.58	-33.9	-35.1	29.7	3.02e+01	51	29	0	229638144	42	6191
2026-01-11 17:54:10.69	1.92	18.68	-33.9	-35.1	29.7	3.02e+01	56	29	0	231211008	42	6186
2026-01-11 17:54:11.70	1.74	18.79	-34.0	-35.2	29.6	3.02e+01	45	29	0	233308160	42	6225
2026-01-11 17:54:12.71	1.56	18.90	-34.0	-35.2	29.7	3.02e+01	60	29	0	234881024	42	6227
2026-01-11 17:54:13.72	1.38	19.01	-34.0	-35.2	29.7	3.02e+01	59	29	0	236978176	42	6210
2026-01-11 17:54:14.73	1.20	19.12	-33.9	-35.1	29.8	3.02e+01	47	29	0	239075328	42	6151
2026-01-11 17:54:15.74	1.02	19.23	-33.9	-35.1	29.8	3.02e+01	59	29	0	240648192	42	6156
2026-01-11 17:54:16.75	0.84	19.34	-33.9	-35.1	29.7	3.02e+01	53	29	0	242745344	42	6163
2026-01-11 17:54:17.76	0.65	19.45	-33.8	-35.0	29.8	3.02e+01	60	29	0	244318208	42	6094
2026-01-11 17:54:18.77	0.46	19.56	-33.9	-35.1	29.8	3.02e+01	61	29	0	246415360	42	6176
2026-01-11 17:54:19.78	0.28	19.67	-33.8	-35.0	29.8	3.02e+01	59	29	0	248512512	42	6089
2026-01-11 17:54:20.79	0.09	19.78	-33.9	-35.1	29.8	3.02e+01	57	29	0	250085376	42	6141
2026-01-11 17:54:21.80	359.89	19.89	-33.8	-35.0	29.9	3.02e+01	57	29	0	252182528	42	6084
2026-01-11 17:54:22.81	359.70	20.00	-34.0	-35.2	29.7	3.02e+01	57	29	0	254279680	42	6225
2026-01-11 17:54:23.81	359.51	20.11	-33.9	-35.1	29.7	3.02e+01	60	29	0	255852544	42	6200
2026-01-11 17:54:24.82	359.31	20.23	-34.0	-35.2	29.6	3.02e+01	53	29	0	257949696	42	6213
2026-01-11 17:54:25.83	359.12	20.34	-33.9	-35.1	29.7	3.02e+01	62	29	0	259522560	42	6183
2026-01-11 17:54:26.84	358.92	20.45	-34.0	-35.2	29.6	3.02e+01	59	29	0	261619712	42	6244
2026-01-11 17:54:27.85	358.72	20.56	-34.1	-35.2	29.7	3.02e+01	46	29	0	263716864	42	6276
2026-01-11 17:54:28.86	358.51	20.67	-34.0	-35.1	29.7	3.02e+01	54	29	0	265289728	42	6201
2026-01-11 17:54:29.87	358.31	20.79	-34.1	-35.3	29.6	3.02e+01	60	29	0	267386880	42	6290
2026-01-11 17:54:30.88	358.11	20.90	-34.2	-35.4	29.5	3.02e+01	57	29	0	268959744	42	6361
2026-01-11 17:54:31.89	357.90	21.01	-34.2	-35.4	29.5	3.02e+01	59	29	0	271056896	42	6358
2026-01-11 17:54:32.90	357.69	21.13	-34.1	-35.3	29.6	3.02e+01	61	29	0	273154048	42	6308
2026-01-11 17:54:33.91	357.48	21.24	-34.1	-35.3	29.5	3.02e+01	60	29	0	274726912	42	6339
2026-01-11 17:54:34.92	357.27	21.35	-34.0	-35.2	29.7	3.02e+01	59	29	0	276824064	42	6240
2026-01-11 17:54:35.93	357.06	21.47	-34.0	-35.2	29.6	3.02e+01	49	29	0	278396928	42	6261
2026-01-11 17:54:36.94	356.84	21.58	-34.0	-35.2	29.6	3.02e+01	60	29	0	280494080	42	6269
2026-01-11 17:54:37.95	356.62	21.69	-34.1	-35.3	29.6	3.02e+01	59	29	0	282591232	42	6332
2026-01-11 17:54:38.96	356.41	21.81	-34.0	-35.2	29.6	3.02e+01	61	29	0	284164096	42	6254
2026-01-11 17:54:39.97	356.19	21.92	-34.1	-35.3	29.6	3.02e+01	60	29	0	286261248	42	6305
2026-01-11 17:54:40.98	355.96	22.04	-34.0	-35.2	29.6	3.02e+01	52	29	0	287834112	42	6255
2026-01-11 17:54:41.99	355.74	22.15	-34.2	-35.4	29.6	3.02e+01	59	29	0	289931264	42	6366
2026-01-11 17:54:43.00	355.51	22.26	-34.1	-35.3	29.6	3.02e+01	59	29	0	292028416	42	6347
2026-01-11 17:54:44.01	355.29	22.38	-34.0	-35.2	29.6	3.02e+01	48	29	0	293601280	42	6274
2026-01-11 17:54:45.02	355.06	22.49	-34.1	-35.3	29.6	3.02e+01	58	29	0	295698432	42	6320
2026-01-11 17:54:46.03	354.83	22.61	-34.1	-35.3	29.6	3.02e+01	61	29	0	297795584	42	6331
2026-01-11 17:54:47.04	354.59	22.72	-34.3	-35.5	29.4	3.02e+01	60	29	0	299368448	42	6465
2026-01-11 17:54:48.05	354.36	22.84	-34.3	-35.5	29.4	3.02e+01	52	29	0	301465600	42	6431
2026-01-11 17:54:49.06	354.12	22.95	-34.3	-35.5	29.5	3.02e+01	55	29	0	303038464	42	6431
2026-01-11 17:54:50.07	353.89	23.07	-34.2	-35.4	29.5	3.02e+01	58	29	0	305135616	42	6388
2026-01-11 17:54:51.08	353.65	23.18	-34.4	-35.6	29.4	3.02e+01	60	29	0	307232768	42	6515
2026-01-11 17:54:52.08	353.41	23.30	-34.3	-35.5	29.3	3.02e+01	47	29	0	308805632	42	6497
2026-01-11 17:54:53.09	353.16	23.41	-34.3	-35.5	29.5	3.02e+01	59	29	0	310902784	42	6461
2026-01-11 17:54:54.10	352.92	23.53	-34.3	-35.5	29.5	3.02e+01	58	29	0	312475648	42	6448
2026-01-11 17:54:55.11	352.67	23.64	-34.2	-35.4	29.6	3.02e+01	61	29	0	314572800	42	6398
2026-01-11 17:54:56.12	352.42	23.76	-34.2	-35.4	29.6	3.02e+01	55	29	0	316669952	42	6352
2026-01-11 17:54:57.13	352.17	23.87	-34.1	-35.3	29.6	3.02e+01	53	29	0	318242816	42	6342
2026-01-11 17:54:58.14	351.91	23.99	-34.0	-35.2	29.7	3.02e+01	59	29	0	320339968	42	6233
2026-01-11 17:54:59.15	351.66	24.10	-34.0	-35.2	29.7	3.02e+01	60	29	0	322437120	42	6223
2026-01-11 17:55:00.16	351.40	24.22	-34.1	-35.3	29.6	3.02e+01	59	29	0	324009984	42	6303
2026-01-11 17:55:01.17	351.14	24.33	-34.2	-35.4	29.5	3.02e+01	60	29	0	326107136	42	6406
2026-01-11 17:55:02.18	350.88	24.45	-34.2	-35.4	29.6	3.02e+01	48	29	0	327680000	42	6407
2026-01-11 17:55:03.19	350.62	24.56	-34.3	-35.5	29.5	3.02e+01	61	29	0	329777152	42	6429
2026-01-11 17:55:04.20	350.35	24.68	-34.3	-35.5	29.6	3.02e+01	58	29	0	331874304	42	6434
2026-01-11 17:55:05.21	350.08	24.79	-34.2	-35.4	29.7	3.02e+01	45	29	0	333447168	42	6375
2026-01-11 17:55:06.22	349.82	24.90	-34.3	-35.5	29.4	3.02e+01	55	29	0	335544320	42	6486
2026-01-11 17:55:07.23	349.54	25.02	-34.1	-35.3	29.7	3.02e+01	55	29	0	337117184	42	6341
2026-01-11 17:55:08.24	349.27	25.13	-34.2	-35.4	29.5	3.02e+01	60	29	0	339214336	42	6398
2026-01-11 17:55:09.25	348.99	25.25	-33.9	-35.1	29.8	3.02e+01	60	29	0	341311488	42	6191
2026-01-11 17:55:10.25	348.72	25.36	-33.9	-35.1	29.8	3.02e+01	63	29	0	342884352	42	6162
2026-01-11 17:55:11.26	348.44	25.47	-33.9	-35.1	29.8	3.02e+01	58	29	0	344981504	42	6190
2026-01-11 17:55:12.27	348.16	25.59	-34.0	-35.2	29.7	3.02e+01	59	29	0	346554368	42	6227
2026-01-11 17:55:13.28	347.87	25.70	-34.1	-35.3	29.7	3.02e+01	53	29	0	348651520	42	6311
2026-01-11 17:55:14.28	347.59	25.81	-34.1	-35.3	29.7	3.02e+01	61	29	0	350748672	42	6317
2026-01-11 17:55:15.29	347.30	25.92	-33.9	-35.1	29.8	3.02e+01	59	29	0	352321536	42	6143
2026-01-11 17:55:16.30	347.01	26.03	-34.1	-35.3	29.7	3.02e+01	59	29	0	354418688	42	6316
2026-01-11 17:55:17.31	346.72	26.15	-33.9	-35.1	29.9	3.02e+01	56	29	0	355991552	42	6138
2026-01-11 17:55:18.31	346.43	26.26	-33.9	-35.1	29.8	3.02e+01	62	29	0	358088704	42	6156
2026-01-11 17:55:19.32	346.13	26.37	-33.9	-35.1	29.8	3.02e+01	61	29	0	360185856	42	6172
2026-01-11 17:55:20.33	345.83	26.48	-34.0	-35.2	29.8	3.02e+01	61	29	0	361758720	42	6224
2026-01-11 17:55:21.34	345.53	26.59	-33.9	-35.1	29.8	3.02e+01	44	29	0	363855872	42	6173
2026-01-11 17:55:22.35	345.22	26.70	-33.9	-35.1	29.8	3.02e+01	60	29	0	365953024	42	6180
2026-01-11 17:55:23.36	344.92	26.81	-33.7	-34.9	30.0	3.02e+01	59	29	0	367525888	42	5998
2026-01-11 17:55:24.37	344.61	26.92	-33.7	-34.9	30.0	3.02e+01	58	29	0	369623040	42	6022
2026-01-11 17:55:25.38	344.30	27.03	-33.7	-34.9	30.0	3.02e+01	57	29	0	371195904	42	6000
2026-01-11 17:55:26.39	343.99	27.14	-33.6	-34.8	30.1	3.02e+01	51	29	0	373293056	42	5950
2026-01-11 17:55:27.40	343.67	27.25	-33.7	-34.9	30.0	3.02e+01	63	29	0	375390208	42	6030
2026-01-11 17:55:28.41	343.35	27.35	-33.8	-35.0	29.9	3.02e+01	59	29	0	376963072	42	6087
2026-01-11 17:55:29.41	343.04	27.46	-33.8	-35.0	29.9	3.02e+01	50	29	0	379060224	42	6106
2026-01-11 17:55:30.42	342.72	27.57	-33.8	-35.0	29.9	3.02e+01	59	29	0	380633088	42	6097
2026-01-11 17:55:31.43	342.39	27.67	-33.6	-34.8	30.1	3.02e+01	56	29	0	382730240	42	5942
2026-01-11 17:55:32.44	342.07	27.78	-33.5	-34.7	30.2	3.02e+01	61	29	0	384827392	42	5899
2026-01-11 17:55:33.45	341.74	27.88	-33.6	-34.8	30.0	3.02e+01	60	29	0	386400256	42	5951
2026-01-11 17:55:34.46	341.41	27.99	-33.5	-34.7	30.2	3.02e+01	51	29	0	388497408	42	5898
2026-01-11 17:55:35.47	341.07	28.09	-33.6	-34.7	30.2	3.02e+01	59	29	0	390070272	42	5920
2026-01-11 17:55:36.48	340.74	28.20	-33.5	-34.7	30.2	3.02e+01	58	29	0	392167424	42	5866
2026-01-11 17:55:37.49	340.40	28.30	-33.6	-34.8	30.1	3.02e+01	50	29	0	394264576	42	5956
2026-01-11 17:55:38.49	340.06	28.40	-33.4	-34.6	30.3	3.02e+01	58	29	0	395837440	42	5810
2026-01-11 17:55:39.50	339.72	28.50	-33.6	-34.8	30.1	3.02e+01	44	29	0	397934592	42	5927
2026-01-11 17:55:40.51	339.38	28.60	-33.6	-34.8	30.1	3.02e+01	59	29	0	399507456	42	5958
2026-01-11 17:55:41.52	339.03	28.70	-33.5	-34.7	30.2	3.02e+01	60	29	0	401604608	42	5904
2026-01-11 17:55:42.53	338.68	28.80	-33.3	-34.4	30.4	3.02e+01	55	29	0	403701760	42	5723
2026-01-11 17:55:43.54	338.33	28.90	-33.5	-34.7	30.2	3.02e+01	59	29	0	405274624	42	5870
2026-01-11 17:55:44.55	337.98	29.00	-33.5	-34.6	30.2	3.02e+01	60	29	0	407371776	42	5848
2026-01-11 17:55:45.56	337.62	29.09	-33.4	-34.5	30.3	3.02e+01	59	29	0	408944640	42	5789
2026-01-11 17:55:46.57	337.27	29.19	-33.3	-34.4	30.4	3.02e+01	58	29	0	411041792	42	5722
2026-01-11 17:55:47.57	336.91	29.28	-33.4	-34.5	30.3	3.02e+01	57	29	0	413138944	42	5789
2026-01-11 17:55:48.58	336.55	29.38	-33.3	-34.5	30.4	3.02e+01	60	29	0	414711808	42	5755
2026-01-11 17:55:49.59	336.18	29.47	-33.4	-34.6	30.3	3.02e+01	58	29	0	416808960	42	5802
2026-01-11 17:55:50.60	335.82	29.56	-33.4	-34.5	30.3	3.02e+01	50	29	0	418906112	42	5788
2026-01-11 17:55:51.61	335.45	29.65	-33.2	-34.4	30.4	3.02e+01	57	29	0	420478976	42	5668
2026-01-11 17:55:52.62	335.08	29.74	-33.4	-34.5	30.3	3.02e+01	54	29	0	422576128	42	5777
2026-01-11 17:55:53.63	334.70	29.83	-33.3	-34.5	30.3	3.02e+01	61	29	0	424148992	42	5762
2026-01-11 17:55:54.64	334.33	29.92	-33.4	-34.6	30.2	3.02e+01	59	29	0	426246144	42	5799
2026-01-11 17:55:55.65	333.95	30.01	-33.2	-34.4	30.5	3.02e+01	44	29	0	428343296	42	5670
2026-01-11 17:55:56.66	333.57	30.09	-33.3	-34.5	30.4	3.02e+01	57	29	0	429916160	42	5760
2026-01-11 17:55:57.67	333.19	30.18	-33.2	-34.4	30.4	3.02e+01	59	29	0	432013312	42	5696
2026-01-11 17:55:58.68	332.81	30.26	-33.2	-34.4	30.5	3.02e+01	45	29	0	433586176	42	5669
2026-01-11 17:55:59.69	332.42	30.34	-33.3	-34.5	30.4	3.02e+01	59	29	0	435683328	42	5737
2026-01-11 17:56:00.69	332.04	30.42	-33.3	-34.4	30.4	3.02e+01	62	29	0	437780480	42	5714
2026-01-11 17:56:01.70	331.65	30.50	-33.3	-34.4	30.5	3.02e+01	59	29	0	439353344	42	5715
2026-01-11 17:56:02.71	331.26	30.58	-33.2	-34.4	30.4	3.02e+01	57	29	0	441450496	42	5701
2026-01-11 17:56:03.72	330.86	30.66	-33.3	-34.5	30.5	3.02e+01	58	29	0	443023360	42	5765
2026-01-11 17:56:04.73	330.47	30.74	-33.4	-34.6	30.3	3.02e+01	53	29	0	445120512	42	5816
2026-01-11 17:56:05.73	330.07	30.81	-33.3	-34.5	30.4	3.02e+01	60	29	0	447217664	42	5766
2026-01-11 17:56:06.75	329.67	30.89	-33.4	-34.6	30.3	3.02e+01	46	29	0	448790528	42	5807
2026-01-11 17:56:07.75	329.27	30.96	-33.1	-34.2	30.6	3.02e+01	55	29	0	450887680	42	5590
2026-01-11 17:56:08.76	328.87	31.03	-33.3	-34.5	30.4	3.02e+01	55	29	0	452460544	42	5728
2026-01-11 17:56:09.77	328.46	31.10	-33.4	-34.6	30.2	3.02e+01	60	29	0	454557696	42	5842
2026-01-11 17:56:10.78	328.06	31.17	-33.5	-34.7	30.2	3.02e+01	60	29	0	456654848	42	5870
2026-01-11 17:56:11.79	327.65	31.24	-33.3	-34.5	30.4	3.02e+01	54	29	0	458227712	42	5732
2026-01-11 17:56:12.80	327.24	31.30	-33.3	-34.5	30.4	3.02e+01	58	29	0	460324864	42	5754
2026-01-11 17:56:13.81	326.83	31.36	-33.3	-34.4	30.4	3.02e+01	59	29	0	462422016	42	5718
2026-01-11 17:56:14.82	326.41	31.43	-33.4	-34.6	30.4	3.02e+01	58	29	0	463994880	42	5796
2026-01-11 17:56:15.83	326.00	31.49	-33.4	-34.6	30.3	3.02e+01	59	29	0	466092032	42	5795
2026-01-11 17:56:16.84	325.58	31.55	-33.5	-34.6	30.3	3.02e+01	44	29	0	467664896	42	5850
2026-01-11 17:56:17.85	325.16	31.61	-33.5	-34.7	30.2	3.02e+01	59	29	0	469762048	42	5883
2026-01-11 17:56:18.86	324.74	31.66	-33.4	-34.6	30.3	3.02e+01	60	29	0	471859200	42	5810
2026-01-11 17:56:19.87	324.32	31.72	-33.4	-34.6	30.3	3.02e+01	45	29	0	473432064	42	5812
2026-01-11 17:56:20.88	323.90	31.77	-33.8	-35.0	29.9	3.02e+01	58	29	0	475529216	42	6086
2026-01-11 17:56:21.89	323.47	31.82	-33.5	-34.7	30.2	3.02e+01	63	29	0	477102080	42	5881
2026-01-11 17:56:22.89	323.05	31.87	-33.4	-34.6	30.4	3.02e+01	60	30	0	479199232	42	5819
2026-01-11 17:56:23.90	322.62	31.92	-33.4	-34.5	30.3	3.02e+01	59	29	0	481296384	42	5788
2026-01-11 17:56:24.91	322.19	31.97	-33.5	-34.7	30.3	3.02e+01	58	29	0	482869248	42	5870
2026-01-11 17:56:25.92	321.76	32.01	-33.7	-34.9	30.1	3.02e+01	57	29	0	484966400	42	6009
2026-01-11 17:56:26.93	321.33	32.05	-33.6	-34.8	30.1	3.02e+01	59	29	0	486539264	42	5969
2026-01-11 17:56:27.94	320.90	32.10	-33.5	-34.6	30.3	3.02e+01	49	29	0	488636416	42	5845
2026-01-11 17:56:28.95	320.47	32.13	-33.9	-35.1	29.9	3.02e+01	60	29	0	490733568	42	6166
2026-01-11 17:56:29.96	320.03	32.17	-33.7	-34.9	30.0	3.02e+01	58	29	0	492306432	42	6028
2026-01-11 17:56:30.97	319.60	32.21	-33.9	-35.1	29.9	3.02e+01	60	29	0	494403584	42	6155
2026-01-11 17:56:31.98	319.16	32.24	-33.9	-35.1	29.9	3.02e+01	60	29	0	495976448	42	6180
2026-01-11 17:56:32.99	318.72	32.28	-34.0	-35.2	29.8	3.02e+01	58	30	0	498073600	42	6258
2026-01-11 17:56:34.00	318.29	32.31	-34.4	-35.6	29.5	3.02e+01	61	29	0	500170752	42	6520
2026-01-11 17:56:35.01	317.85	32.34	-34.3	-35.5	29.6	3.02e+01	57	30	0	501743616	42	6449
2026-01-11 17:56:36.02	317.41	32.36	-33.9	-35.1	29.9	3.02e+01	47	30	0	503840768	42	6179
2026-01-11 17:56:37.02	316.97	32.39	-33.8	-34.9	30.0	3.02e+01	58	29	0	505413632	42	6057
2026-01-11 17:56:38.03	316.53	32.41	-33.8	-35.0	30.1	3.02e+01	57	29	0	507510784	42	6104
2026-01-11 17:56:39.04	316.09	32.43	-34.3	-35.5	29.6	3.02e+01	59	29	0	509607936	42	6436
2026-01-11 17:56:40.05	315.64	32.45	-34.2	-35.4	29.7	3.02e+01	61	29	0	511180800	42	6356
2026-01-11 17:56:41.06	315.20	32.47	-33.6	-34.8	30.2	3.02e+01	55	30	0	513277952	42	5966
2026-01-11 17:56:42.07	314.76	32.49	-33.8	-34.9	30.0	3.02e+01	58	29	0	515375104	42	6054
2026-01-11 17:56:43.08	314.31	32.50	-34.1	-35.3	29.9	3.02e+01	59	29	0	516947968	42	6321
2026-01-11 17:56:44.09	313.87	32.51	-34.7	-35.9	29.3	3.02e+01	44	30	0	519045120	42	6772
2026-01-11 17:56:45.10	313.42	32.52	-34.3	-35.6	29.6	3.02e+01	58	30	0	520617984	42	6512
2026-01-11 17:56:46.11	312.98	32.53	-34.5	-35.7	29.4	3.02e+01	59	29	0	522715136	42	6610
2026-01-11 17:56:47.12	312.53	32.54	-34.2	-35.4	29.6	3.02e+01	59	30	0	524812288	44	5679
2026-01-11 17:56:48.13	312.09	32.54	-34.0	-35.1	29.9	3.02e+01	57	30	0	526385152	44	5516
2026-01-11 17:56:49.13	311.65	32.54	-34.2	-35.4	29.6	3.02e+01	58	30	0	528482304	42	6377
2026-01-11 17:56:50.14	311.20	32.55	-34.9	-36.2	29.0	3.02e+01	60	30	0	530579456	44	6232
2026-01-11 17:56:51.15	310.76	32.54	-35.3	-36.6	28.6	3.02e+01	58	30	0	532152320	44	6515
2026-01-11 17:56:52.16	310.31	32.54	-34.2	-35.4	29.5	3.02e+01	59	29	0	534249472	42	6420
2026-01-11 17:56:53.17	309.86	32.54	-33.8	-35.0	29.7	3.02e+01	59	29	0	535822336	42	6103
2026-01-11 17:56:54.18	309.42	32.53	-33.5	-34.7	30.0	3.02e+01	48	30	0	537919488	42	5866
2026-01-11 17:56:55.19	308.97	32.52	-33.4	-34.6	30.3	3.02e+01	58	29	0	540016640	42	5803
2026-01-11 17:56:56.20	308.53	32.51	-34.0	-35.2	29.8	3.02e+01	59	29	0	541589504	42	6264
2026-01-11 17:56:57.21	308.08	32.50	-35.0	-36.2	28.7	3.02e+01	44	29	0	543686656	44	6265
2026-01-11 17:56:58.22	307.64	32.48	-35.0	-36.3	28.7	3.02e+01	57	30	0	545259520	42	7085
2026-01-11 17:56:59.23	307.20	32.47	-35.0	-36.3	28.6	3.02e+01	59	30	0	547356672	42	7069
2026-01-11 17:57:00.24	306.75	32.45	-34.7	-35.9	28.8	3.02e+01	56	30	0	549453824	42	6780
2026-01-11 17:57:01.25	306.31	32.43	-34.4	-35.6	29.1	3.02e+01	62	30	0	551026688	42	6517
2026-01-11 17:57:02.26	305.87	32.41	-33.4	-34.5	30.2	3.02e+01	60	30	0	553123840	42	5762
2026-01-11 17:57:03.27	305.43	32.38	-33.7	-34.8	30.1	3.02e+01	58	30	0	554696704	42	5992
2026-01-11 17:57:04.28	304.99	32.36	-34.5	-35.7	29.1	3.02e+01	60	30	0	556793856	44	5863
2026-01-11 17:57:05.29	304.55	32.33	-34.8	-36.1	29.1	3.02e+01	44	30	0	558891008	42	6903
2026-01-11 17:57:06.30	304.11	32.30	-34.0	-35.2	29.9	3.02e+01	58	30	0	560463872	42	6223
2026-01-11 17:57:07.31	303.67	32.27	-34.1	-35.2	29.8	3.02e+01	59	30	0	562561024	42	6276
2026-01-11 17:57:08.32	303.23	32.23	-34.7	-35.9	29.3	3.02e+01	55	30	0	564133888	42	6768
2026-01-11 17:57:09.33	302.80	32.20	-34.6	-35.8	29.2	3.02e+01	61	30	0	566231040	42	6723
2026-01-11 17:57:10.33	302.36	32.16	-34.5	-35.7	29.4	3.02e+01	63	30	0	568328192	42	6636
2026-01-11 17:57:11.34	301.93	32.12	-33.9	-35.1	29.8	3.02e+01	59	30	0	569901056	42	6192
2026-01-11 17:57:12.36	301.49	32.08	-33.8	-35.0	29.9	3.02e+01	58	30	0	571998208	42	6120
2026-01-11 17:57:13.36	301.06	32.04	-34.0	-35.1	29.8	3.02e+01	44	30	0	573571072	42	6202
2026-01-11 17:57:14.37	300.63	32.00	-34.3	-35.5	29.6	3.02e+01	58	30	0	575668224	42	6448
2026-01-11 17:57:15.38	300.20	31.95	-34.2	-35.4	29.7	3.02e+01	56	30	0	577765376	42	6386
2026-01-11 17:57:16.39	299.77	31.91	-34.2	-35.4	29.7	3.02e+01	59	30	0	579338240	42	6352
2026-01-11 17:57:17.40	299.35	31.86	-34.2	-35.4	29.6	3.02e+01	61	30	0	581435392	42	6416
2026-01-11 17:57:18.41	298.92	31.81	-34.5	-35.8	29.3	3.02e+01	52	30	0	583532544	42	6673
2026-01-11 17:57:19.42	298.50	31.76	-34.8	-36.1	29.1	3.02e+01	61	30	0	585105408	42	6897
2026-01-11 17:57:20.43	298.07	31.70	-34.0	-35.2	29.7	3.02e+01	55	30	0	587202560	42	6246
2026-01-11 17:57:21.44	297.65	31.65	-33.8	-34.9	30.0	3.02e+01	51	30	0	588775424	42	6051
2026-01-11 17:57:22.45	297.23	31.59	-33.9	-35.1	29.8	3.02e+01	60	30	0	590872576	42	6173
2026-01-11 17:57:23.46	296.81	31.53	-34.6	-35.8	29.2	3.02e+01	46	30	0	592969728	42	6701
2026-01-11 17:57:24.47	296.39	31.47	-34.7	-35.9	29.1	3.02e+01	56	30	0	594542592	42	6790
2026-01-11 17:57:25.48	295.98	31.41	-34.4	-35.7	29.3	3.02e+01	60	30	0	596639744	42	6576
2026-01-11 17:57:26.48	295.57	31.35	-33.8	-34.9	29.8	3.02e+01	53	30	0	598212608	42	6049
2026-01-11 17:57:27.49	295.16	31.28	-33.6	-34.7	30.2	3.02e+01	61	30	0	600309760	42	5886
2026-01-11 17:57:28.50	294.75	31.22	-34.4	-35.6	29.0	3.02e+01	61	30	0	602406912	44	5812
2026-01-11 17:57:29.51	294.34	31.15	-35.0	-36.3	28.7	3.02e+01	60	30	0	603979776	42	7057
2026-01-11 17:57:30.52	293.93	31.08	-34.2	-35.3	28.9	3.02e+01	57	30	0	606076928	42	6329
2026-01-11 17:57:31.53	293.52	31.01	-33.7	-34.8	30.0	3.02e+01	48	30	0	607649792	42	5975
2026-01-11 17:57:32.54	293.12	30.94	-34.1	-35.3	29.1	3.02e+01	61	30	0	609746944	44	5598
2026-01-11 17:57:33.55	292.72	30.86	-34.9	-36.2	28.8	3.02e+01	59	30	0	611844096	44	6233
2026-01-11 17:57:34.56	292.32	30.79	-34.5	-35.7	29.3	3.02e+01	44	30	0	613416960	42	6621
2026-01-11 17:57:35.56	291.93	30.72	-34.0	-35.2	29.8	3.02e+01	60	30	0	615514112	44	5531
2026-01-11 17:57:36.57	291.53	30.64	-34.6	-35.8	29.0	3.02e+01	59	30	0	617086976	44	5977
2026-01-11 17:57:37.58	291.14	30.56	-35.3	-36.6	28.5	3.02e+01	58	30	0	619184128	44	6531
2026-01-11 17:57:38.59	290.74	30.48	-34.2	-35.4	29.3	3.02e+01	62	30	0	621281280	42	6407
2026-01-11 17:57:39.59	290.36	30.40	-33.9	-35.0	29.8	3.02e+01	57	30	0	622854144	44	5440
2026-01-11 17:57:40.60	289.97	30.32	-35.2	-36.5	28.2	3.02e+01	59	30	0	624951296	44	6454
2026-01-11 17:57:41.61	289.58	30.24	-34.7	-35.9	28.9	3.02e+01	58	30	0	627048448	44	6052
2026-01-11 17:57:42.62	289.20	30.15	-34.0	-35.2	29.7	3.02e+01	44	30	0	628621312	44	5531
2026-01-11 17:57:43.63	288.82	30.07	-34.8	-36.0	29.0	3.02e+01	58	30	0	630718464	42	6878
2026-01-11 17:57:44.64	288.44	29.98	-34.2	-35.4	29.6	3.02e+01	61	30	0	632291328	42	6406
2026-01-11 17:57:45.65	288.06	29.89	-34.6	-35.8	29.3	3.02e+01	59	30	0	634388480	42	6667
2026-01-11 17:57:46.66	287.69	29.80	-34.6	-35.8	29.4	3.02e+01	58	30	0	636485632	42	6687
2026-01-11 17:57:47.67	287.31	29.71	-34.5	-35.7	29.4	3.02e+01	58	30	0	638058496	42	6607
2026-01-11 17:57:48.68	286.94	29.62	-34.3	-35.4	29.6	3.02e+01	58	30	0	640155648	42	6413
2026-01-11 17:57:49.69	286.57	29.53	-34.5	-35.7	29.4	3.02e+01	58	30	0	641728512	42	6611
2026-01-11 17:57:50.69	286.21	29.44	-34.8	-36.0	29.1	3.02e+01	45	30	0	643825664	42	6851
2026-01-11 17:57:51.70	285.85	29.35	-34.0	-35.2	29.7	3.02e+01	56	30	0	645922816	42	6236
2026-01-11 17:57:52.71	285.48	29.25	-35.2	-36.5	28.6	3.02e+01	64	30	0	647495680	44	6449
2026-01-11 17:57:53.72	285.12	29.16	-34.8	-36.0	28.9	3.02e+01	55	30	0	649592832	44	6111
2026-01-11 17:57:54.73	284.76	29.06	-36.1	-37.5	27.7	3.02e+01	61	30	0	651165696	46	6439
2026-01-11 17:57:55.74	284.41	28.96	-35.9	-37.2	28.0	3.02e+01	58	30	0	653262848	46	6218
2026-01-11 17:57:56.75	284.06	28.87	-36.2	-37.5	27.7	3.02e+01	63	30	0	655360000	46	6463
2026-01-11 17:57:57.76	283.70	28.77	-34.9	-36.1	29.0	3.02e+01	58	30	0	656932864	44	6158
2026-01-11 17:57:58.77	283.36	28.67	-34.9	-36.1	29.0	3.02e+01	58	30	0	659030016	44	6200
2026-01-11 17:57:59.78	283.01	28.57	-35.1	-36.4	28.7	3.02e+01	59	30	0	660602880	44	6371
2026-01-11 17:58:00.79	282.66	28.47	-35.2	-36.4	28.8	3.02e+01	44	30	0	662700032	44	6402
2026-01-11 17:58:01.81	282.32	28.36	-35.2	-36.4	28.8	3.02e+01	59	30	0	664797184	44	6406
2026-01-11 17:58:02.81	281.98	28.26	-35.1	-36.4	28.4	3.02e+01	60	30	0	666370048	44	6354
2026-01-11 17:58:03.82	281.64	28.16	-34.7	-35.8	29.2	3.02e+01	44	30	0	668467200	44	5986
2026-01-11 17:58:04.83	281.31	28.06	-35.6	-36.9	28.2	3.02e+01	58	30	0	670040064	44	6785
2026-01-11 17:58:05.84	280.98	27.95	-34.2	-35.4	29.6	3.02e+01	61	30	0	672137216	44	5691
2026-01-11 17:58:06.85	280.64	27.85	-35.1	-36.4	28.8	3.02e+01	58	30	0	674234368	44	6359
2026-01-11 17:58:07.86	280.32	27.74	-34.5	-35.7	29.1	3.02e+01	58	30	0	675807232	44	5908
2026-01-11 17:58:08.87	279.99	27.63	-35.1	-36.3	28.7	3.02e+01	44	30	0	677904384	44	6307
2026-01-11 17:58:09.88	279.66	27.53	-35.3	-36.6	28.4	3.02e+01	57	30	0	680001536	44	6501
2026-01-11 17:58:10.89	279.34	27.42	-34.7	-35.9	29.1	3.02e+01	60	30	0	681574400	44	6030
2026-01-11 17:58:11.90	279.02	27.31	-34.8	-36.1	28.7	3.02e+01	44	30	0	683671552	44	6165
2026-01-11 17:58:12.91	278.71	27.20	-34.5	-35.7	29.3	3.02e+01	58	30	0	685244416	44	5876
2026-01-11 17:58:13.91	278.39	27.10	-35.3	-36.6	28.6	3.02e+01	62	30	0	687341568	44	6511
2026-01-11 17:58:14.92	278.08	26.99	-34.9	-36.1	28.9	3.02e+01	58	30	0	689438720	44	6160
2026-01-11 17:58:15.93	277.77	26.88	-34.7	-35.9	29.1	3.02e+01	59	30	0	691011584	44	6059
2026-01-11 17:58:16.94	277.46	26.77	-35.0	-36.2	28.9	3.02e+01	54	30	0	693108736	44	6260
2026-01-11 17:58:17.95	277.15	26.66	-34.7	-35.9	29.1	3.02e+01	58	30	0	695205888	44	6037
2026-01-11 17:58:18.96	276.85	26.55	-34.9	-36.1	29.1	3.02e+01	59	30	0	696778752	44	6156
2026-01-11 17:58:19.97	276.55	26.43	-35.3	-36.5	28.5	3.02e+01	51	30	0	698875904	44	6487
2026-01-11 17:58:20.98	276.25	26.32	-34.8	-36.0	29.1	3.02e+01	61	30	0	700448768	44	6085
2026-01-11 17:58:21.99	275.95	26.21	-34.9	-36.2	28.9	3.02e+01	59	30	0	702545920	44	6233
2026-01-11 17:58:23.00	275.66	26.10	-35.1	-36.4	28.5	3.02e+01	59	30	0	704643072	44	6398
2026-01-11 17:58:24.01	275.36	25.99	-34.6	-35.7	29.4	3.02e+01	61	30	0	706215936	44	5913
2026-01-11 17:58:25.02	275.07	25.87	-34.9	-36.2	28.9	3.02e+01	45	30	0	708313088	44	6214
2026-01-11 17:58:26.03	274.78	25.76	-35.2	-36.5	28.3	3.02e+01	61	30	0	709885952	44	6463
2026-01-11 17:58:27.04	274.50	25.65	-35.0	-36.2	28.8	3.02e+01	58	30	0	711983104	44	6226
2026-01-11 17:58:28.05	274.21	25.53	-35.5	-36.8	28.4	3.02e+01	44	30	0	714080256	44	6669
2026-01-11 17:58:29.06	273.93	25.42	-35.2	-36.5	28.2	3.02e+01	61	30	0	715653120	44	6486
2026-01-11 17:58:30.07	273.65	25.31	-34.4	-35.6	29.2	3.02e+01	60	30	0	717750272	44	5795
2026-01-11 17:58:31.08	273.37	25.19	-34.6	-35.7	29.1	3.02e+01	52	30	0	719323136	44	5911
2026-01-11 17:58:32.09	273.10	25.08	-35.5	-36.8	28.4	3.02e+01	59	30	0	721420288	44	6656
2026-01-11 17:58:33.10	272.82	24.96	-35.3	-36.6	28.2	3.02e+01	56	30	0	723517440	44	6527
2026-01-11 17:58:34.11	272.55	24.85	-35.2	-36.4	28.6	3.02e+01	57	30	0	725090304	44	6415
2026-01-11 17:58:35.11	272.28	24.74	-35.0	-36.2	28.8	3.02e+01	59	30	0	727187456	44	6212
2026-01-11 17:58:36.12	272.02	24.62	-35.8	-37.2	28.0	3.02e+01	47	30	0	728760320	44	6995
2026-01-11 17:58:37.13	271.75	24.51	-35.4	-36.6	28.1	3.02e+01	61	30	0	730857472	44	6548
2026-01-11 17:58:38.14	271.49	24.39	-35.3	-36.5	28.5	3.02e+01	48	30	0	732954624	44	6484
2026-01-11 17:58:39.15	271.22	24.28	-35.6	-36.9	28.1	3.02e+01	61	30	0	734527488	44	6761
2026-01-11 17:58:40.16	270.96	24.16	-36.0	-37.3	28.0	3.02e+01	59	30	0	736624640	46	6330
2026-01-11 17:58:41.17	270.71	24.04	-35.3	-36.5	28.2	3.02e+01	46	30	0	738197504	46	5765
2026-01-11 17:58:42.18	270.45	23.93	-35.1	-36.3	28.8	3.02e+01	60	30	0	740294656	46	5610
2026-01-11 17:58:43.19	270.20	23.81	-34.7	-35.9	28.9	3.02e+01	59	30	0	742391808	44	6031
2026-01-11 17:58:44.19	269.95	23.70	-35.6	-36.9	28.3	3.02e+01	58	30	0	743964672	44	6754
2026-01-11 17:58:45.20	269.70	23.58	-35.9	-37.2	27.9	3.02e+01	58	30	0	746061824	44	7019
2026-01-11 17:58:46.21	269.45	23.47	-35.4	-36.7	28.1	3.02e+01	46	30	0	748158976	44	6591
2026-01-11 17:58:47.22	269.20	23.35	-35.0	-36.2	28.6	3.02e+01	59	30	0	749731840	44	6227
2026-01-11 17:58:48.23	268.96	23.24	-34.7	-35.9	29.1	3.02e+01	60	30	0	751828992	44	6002
2026-01-11 17:58:49.24	268.72	23.12	-34.8	-36.0	29.0	3.02e+01	47	30	0	753401856	44	6074
2026-01-11 17:58:50.25	268.48	23.01	-35.1	-36.4	28.8	3.02e+01	52	30	0	755499008	44	6391
2026-01-11 17:58:51.26	268.24	22.89	-35.1	-36.4	28.6	3.02e+01	62	30	0	757596160	44	6388
2026-01-11 17:58:52.27	268.00	22.78	-34.8	-36.0	28.8	3.02e+01	59	30	0	759169024	44	6112
2026-01-11 17:58:53.28	267.77	22.66	-34.8	-36.0	29.0	3.02e+01	54	30	0	761266176	44	6106
2026-01-11 17:58:54.29	267.54	22.55	-34.6	-35.8	29.2	3.02e+01	62	30	0	762839040	44	5937
2026-01-11 17:58:55.30	267.30	22.43	-34.6	-35.8	29.2	3.02e+01	60	30	0	764936192	44	5943
2026-01-11 17:58:56.31	267.07	22.32	-34.7	-35.9	29.1	3.02e+01	61	30	0	767033344	44	6048
2026-01-11 17:58:57.32	266.85	22.20	-34.9	-36.1	29.0	3.02e+01	55	30	0	768606208	44	6163
2026-01-11 17:58:58.33	266.62	22.09	-34.8	-36.1	28.9	3.02e+01	57	30	0	770703360	44	6151
2026-01-11 17:58:59.33	266.40	21.97	-34.8	-36.0	29.0	3.02e+01	62	30	0	772276224	44	6101
2026-01-11 17:59:00.34	266.18	21.86	-34.7	-35.9	29.1	3.02e+01	60	30	0	774373376	44	6036
2026-01-11 17:59:01.35	265.96	21.74	-34.7	-35.9	29.1	3.02e+01	57	30	0	776470528	44	6040
2026-01-11 17:59:02.36	265.74	21.63	-34.7	-35.9	29.1	3.02e+01	51	30	0	778043392	44	6035
2026-01-11 17:59:03.37	265.52	21.51	-34.8	-36.0	29.0	3.02e+01	60	30	0	780140544	44	6115
2026-01-11 17:59:04.38	265.31	21.40	-35.0	-36.2	28.8	3.02e+01	59	30	0	781713408	44	6247
2026-01-11 17:59:05.39	265.09	21.29	-35.0	-36.2	28.8	3.02e+01	51	30	0	783810560	44	6271
2026-01-11 17:59:06.40	264.88	21.17	-34.9	-36.1	28.9	3.02e+01	58	30	0	785907712	44	6162
2026-01-11 17:59:07.41	264.67	21.06	-34.7	-35.9	29.0	3.02e+01	58	30	0	787480576	44	6053
2026-01-11 17:59:08.42	264.46	20.95	-34.9	-36.1	29.1	3.02e+01	57	30	0	789577728	44	6154
2026-01-11 17:59:09.43	264.25	20.83	-34.7	-35.9	29.2	3.02e+01	59	30	0	791674880	44	5999
2026-01-11 17:59:10.44	264.05	20.72	-34.6	-35.8	29.2	3.02e+01	52	30	0	793247744	44	5952
2026-01-11 17:59:11.45	263.84	20.61	-34.7	-35.9	29.1	3.02e+01	59	30	0	795344896	44	6050
2026-01-11 17:59:12.46	263.64	20.49	-34.9	-36.1	29.0	3.02e+01	60	30	0	796917760	44	6177
2026-01-11 17:59:13.47	263.44	20.38	-35.0	-36.3	28.8	3.02e+01	60	30	0	799014912	44	6290
2026-01-11 17:59:14.48	263.24	20.27	-35.1	-36.3	28.8	3.02e+01	57	30	0	801112064	44	6308
2026-01-11 17:59:15.49	263.04	20.16	-34.8	-36.0	29.0	3.02e+01	60	30	0	802684928	44	6086
2026-01-11 17:59:16.50	262.85	20.04	-34.8	-36.1	29.0	3.02e+01	59	30	0	804782080	44	6146
2026-01-11 17:59:17.51	262.65	19.93	-34.6	-35.8	29.1	3.02e+01	58	30	0	806354944	44	5955
2026-01-11 17:59:18.52	262.46	19.82	-34.5	-35.7	29.2	3.02e+01	47	30	0	808452096	44	5920
2026-01-11 17:59:19.52	262.27	19.71	-34.5	-35.6	29.2	3.02e+01	60	30	0	810549248	44	5858
2026-01-11 17:59:20.53	262.08	19.60	-34.5	-35.6	29.2	3.02e+01	59	30	0	812122112	44	5854
2026-01-11 17:59:21.54	261.89	19.49	-34.6	-35.8	29.2	3.02e+01	61	30	0	814219264	44	5940
2026-01-11 17:59:22.55	261.70	19.38	-34.7	-35.9	29.1	3.02e+01	60	30	0	816316416	44	6051
2026-01-11 17:59:23.56	261.52	19.27	-34.7	-35.9	29.1	3.02e+01	55	30	0	817889280	44	6030
2026-01-11 17:59:24.57	261.33	19.16	-34.8	-36.0	29.0	3.02e+01	59	30	0	819986432	44	6099
2026-01-11 17:59:25.58	261.15	19.05	-34.7	-35.9	29.0	3.02e+01	58	30	0	821559296	44	6049
2026-01-11 17:59:26.59	260.97	18.94	-34.7	-36.0	29.0	3.02e+01	53	30	0	823656448	44	6068
2026-01-11 17:59:27.60	260.79	18.83	-34.7	-35.9	29.0	3.02e+01	59	30	0	825753600	44	6054
2026-01-11 17:59:28.61	260.61	18.72	-34.8	-36.0	29.0	3.02e+01	59	30	0	827326464	44	6114
2026-01-11 17:59:29.62	260.43	18.61	-34.6	-35.8	29.1	3.02e+01	59	30	0	829423616	44	5947
2026-01-11 17:59:30.63	260.26	18.50	-34.7	-35.9	29.1	3.02e+01	58	30	0	830996480	44	6018
2026-01-11 17:59:31.63	260.08	18.39	-34.4	-35.6	29.2	3.02e+01	58	30	0	833093632	44	5849
2026-01-11 17:59:32.64	259.91	18.29	-34.5	-35.7	29.1	3.02e+01	55	30	0	835190784	44	5874
2026-01-11 17:59:33.65	259.74	18.18	-34.6	-35.8	29.1	3.02e+01	56	30	0	836763648	44	5969
2026-01-11 17:59:34.66	259.57	18.07	-34.7	-35.9	29.0	3.02e+01	45	30	0	838860800	44	6063
2026-01-11 17:59:35.67	259.40	17.96	-34.7	-35.9	29.0	3.02e+01	57	30	0	840433664	44	6047
2026-01-11 17:59:36.67	259.23	17.86	-34.6	-35.9	29.0	3.02e+01	61	30	0	842530816	44	5999
2026-01-11 17:59:37.69	259.06	17.75	-34.5	-35.7	29.1	3.02e+01	56	30	0	844627968	44	5925
2026-01-11 17:59:38.70	258.90	17.64	-34.5	-35.7	29.2	3.02e+01	58	30	0	846200832	44	5919
2026-01-11 17:59:39.70	258.73	17.54	-34.5	-35.7	29.2	3.02e+01	58	30	0	848297984	44	5873
2026-01-11 17:59:40.71	258.57	17.43	-34.5	-35.7	29.1	3.02e+01	58	30	0	849870848	44	5918
2026-01-11 17:59:41.72	258.41	17.33	-34.6	-35.9	29.0	3.02e+01	60	30	0	851968000	44	6011
2026-01-11 17:59:42.73	258.25	17.22	-34.7	-36.0	28.9	3.02e+01	45	30	0	854065152	44	6072
2026-01-11 17:59:43.74	258.09	17.11	-34.8	-36.0	28.9	3.02e+01	59	30	0	855638016	44	6088
2026-01-11 17:59:44.75	257.93	17.01	-34.7	-35.9	29.0	3.02e+01	61	30	0	857735168	44	6037
2026-01-11 17:59:45.76	257.77	16.91	-34.8	-36.1	28.9	3.02e+01	60	30	0	859832320	44	6142
2026-01-11 17:59:46.77	257.62	16.80	-34.9	-36.2	28.7	3.02e+01	60	30	0	861405184	44	6215
2026-01-11 17:59:47.78	257.46	16.70	-34.8	-36.0	28.9	3.02e+01	53	30	0	863502336	44	6108
2026-01-11 17:59:48.79	257.31	16.59	-34.6	-35.9	28.9	3.02e+01	60	30	0	865075200	44	5996
2026-01-11 17:59:49.80	257.16	16.49	-34.6	-35.9	28.9	3.02e+01	62	30	0	867172352	44	6006
2026-01-11 17:59:50.81	257.00	16.39	-34.5	-35.7	29.2	3.02e+01	57	30	0	869269504	44	5879
2026-01-11 17:59:51.82	256.85	16.28	-34.5	-35.7	29.0	3.02e+01	57	30	0	870842368	44	5901
2026-01-11 17:59:52.83	256.70	16.18	-34.4	-35.6	29.1	3.02e+01	56	30	0	872939520	44	5854
2026-01-11 17:59:53.84	256.56	16.08	-34.7	-35.9	29.0	3.02e+01	57	30	0	874512384	44	6004
2026-01-11 17:59:54.84	256.41	15.98	-34.7	-35.9	29.0	3.02e+01	58	30	0	876609536	44	6039
2026-01-11 17:59:55.85	256.27	15.87	-34.7	-36.0	28.8	3.02e+01	45	29	0	878706688	44	6073
2026-01-11 17:59:56.86	256.12	15.77	-34.9	-36.1	28.8	3.02e+01	59	30	0	880279552	44	6180
2026-01-11 17:59:57.87	255.98	15.67	-34.6	-35.8	29.0	3.02e+01	58	30	0	882376704	44	5982
2026-01-11 17:59:58.88	255.83	15.57	-34.6	-35.8	29.0	3.02e+01	59	30	0	883949568	44	5942
2026-01-11 17:59:59.89	255.69	15.47	-34.5	-35.7	29.1	3.02e+01	62	30	0	886046720	44	5886
2026-01-11 18:00:00.90	255.55	15.37	-34.6	-35.8	29.0	3.02e+01	47	30	0	888143872	44	5979
2026-01-11 18:00:01.91	255.41	15.27	-34.5	-35.7	29.2	3.02e+01	58	30	0	889716736	44	5904
2026-01-11 18:00:02.92	255.27	15.17	-34.7	-35.9	29.0	3.02e+01	60	30	0	891813888	44	6038
2026-01-11 18:00:03.93	255.14	15.07	-34.7	-35.9	29.0	3.02e+01	44	30	0	893386752	44	6009
2026-01-11 18:00:04.94	255.00	14.97	-34.7	-36.0	29.0	3.02e+01	61	30	0	895483904	44	6077
2026-01-11 18:00:05.95	254.86	14.87	-34.8	-36.0	28.9	3.02e+01	63	29	0	897581056	44	6096
2026-01-11 18:00:06.96	254.73	14.77	-34.8	-36.0	28.8	3.02e+01	57	30	0	899153920	44	6125
2026-01-11 18:00:07.97	254.59	14.68	-34.7	-35.9	28.9	3.02e+01	59	30	0	901251072	44	6042
2026-01-11 18:00:08.98	254.46	14.58	-34.7	-35.9	28.9	3.02e+01	57	29	0	902823936	44	6044
2026-01-11 18:00:09.99	254.33	14.48	-34.8	-36.0	28.8	3.02e+01	61	29	0	904921088	44	6134
2026-01-11 18:00:11.00	254.20	14.38	-34.8	-36.1	28.8	3.02e+01	59	30	0	907018240	44	6150
2026-01-11 18:00:12.01	254.07	14.29	-34.9	-36.1	28.8	3.02e+01	47	29	0	908591104	44	6197
2026-01-11 18:00:13.02	253.94	14.19	-34.9	-36.2	28.7	3.02e+01	56	29	0	910688256	44	6212
2026-01-11 18:00:14.03	253.81	14.09	-34.7	-35.9	28.9	3.02e+01	59	29	0	912785408	44	6049
2026-01-11 18:00:15.04	253.68	14.00	-34.7	-36.0	28.9	3.02e+01	56	30	0	914358272	44	6077
2026-01-11 18:00:16.04	253.56	13.90	-34.7	-36.0	28.8	3.02e+01	60	30	0	916455424	44	6079
2026-01-11 18:00:17.05	253.43	13.80	-34.7	-36.0	28.9	3.02e+01	56	29	0	918028288	44	6069
2026-01-11 18:00:18.06	253.31	13.71	-34.7	-35.9	28.9	3.02e+01	57	29	0	920125440	44	6031
2026-01-11 18:00:19.07	253.19	13.61	-34.8	-36.0	28.9	3.02e+01	57	30	0	922222592	44	6093
2026-01-11 18:00:20.08	253.06	13.52	-34.7	-36.0	28.9	3.02e+01	47	29	0	923795456	44	6080
2026-01-11 18:00:21.09	252.94	13.42	-34.7	-35.9	28.9	3.02e+01	61	29	0	925892608	44	6042
2026-01-11 18:00:22.10	252.82	13.33	-34.8	-36.0	28.8	3.02e+01	50	29	0	927989760	44	6130
2026-01-11 18:00:23.11	252.70	13.24	-35.0	-36.3	28.6	3.02e+01	57	29	0	929562624	44	6280
2026-01-11 18:00:24.12	252.58	13.14	-35.0	-36.3	28.6	3.02e+01	60	29	0	931659776	44	6295
2026-01-11 18:00:25.13	252.46	13.05	-35.1	-36.4	28.5	3.02e+01	50	29	0	933232640	44	6355
2026-01-11 18:00:26.14	252.34	12.96	-35.1	-36.4	28.4	3.02e+01	60	29	0	935329792	44	6385
2026-01-11 18:00:27.15	252.23	12.86	-35.1	-36.3	28.4	3.02e+01	58	29	0	937426944	44	6348
2026-01-11 18:00:28.16	252.11	12.77	-35.1	-36.3	28.4	3.02e+01	57	29	0	938999808	44	6341
2026-01-11 18:00:29.17	251.99	12.68	-35.1	-36.4	28.4	3.02e+01	60	29	0	941096960	44	6398
2026-01-11 18:00:30.18	251.88	12.59	-35.1	-36.4	28.4	3.02e+01	49	29	0	942669824	44	6365
2026-01-11 18:00:31.19	251.77	12.49	-35.1	-36.3	28.4	3.02e+01	61	29	0	944766976	44	6339
2026-01-11 18:00:32.19	251.65	12.40	-34.9	-36.1	28.5	3.02e+01	60	29	0	946864128	44	6182
2026-01-11 18:00:33.20	251.54	12.31	-34.9	-36.1	28.6	3.02e+01	48	29	0	948436992	44	6177
2026-01-11 18:00:34.21	251.43	12.22	-35.0	-36.2	28.5	3.02e+01	59	29	0	950534144	44	6268
2026-01-11 18:00:35.22	251.32	12.13	-34.8	-36.0	28.7	3.02e+01	56	29	0	952107008	44	6124
2026-01-11 18:00:36.23	251.21	12.04	-34.9	-36.2	28.6	3.02e+01	56	29	0	954204160	44	6230
2026-01-11 18:00:37.24	251.10	11.95	-35.1	-36.3	28.5	3.02e+01	60	29	0	956301312	44	6323
2026-01-11 18:00:38.25	250.99	11.86	-35.2	-36.5	28.3	3.02e+01	47	29	0	957874176	44	6435
2026-01-11 18:00:39.26	250.88	11.77	-35.2	-36.5	28.3	3.02e+01	59	29	0	959971328	44	6447
2026-01-11 18:00:40.27	250.78	11.68	-35.3	-36.6	28.2	3.02e+01	58	29	0	961544192	44	6518
2026-01-11 18:00:41.28	250.67	11.59	-35.3	-36.6	28.2	3.02e+01	52	29	0	963641344	44	6500
2026-01-11 18:00:42.29	250.56	11.50	-35.3	-36.6	28.2	3.02e+01	59	29	0	965738496	44	6503
2026-01-11 18:00:43.30	250.46	11.41	-35.2	-36.5	28.3	3.02e+01	62	29	0	967311360	44	6432
2026-01-11 18:00:44.31	250.36	11.33	-35.4	-36.6	28.1	3.02e+01	60	29	0	969408512	44	6572
2026-01-11 18:00:45.32	250.25	11.24	-35.4	-36.6	28.2	3.02e+01	58	29	0	970981376	44	6556
2026-01-11 18:00:46.33	250.15	11.15	-35.4	-36.6	28.2	3.02e+01	59	29	0	973078528	44	6551
2026-01-11 18:00:47.33	250.05	11.06	-35.3	-36.5	28.2	3.02e+01	58	29	0	975175680	44	6479
2026-01-11 18:00:48.34	249.95	10.98	-35.3	-36.6	28.2	3.02e+01	58	29	0	976748544	44	6504
2026-01-11 18:00:49.35	249.85	10.89	-35.4	-36.6	28.1	3.02e+01	46	29	0	978845696	44	6558
2026-01-11 18:00:50.36	249.75	10.80	-35.3	-36.6	28.1	3.02e+01	60	29	0	980942848	44	6526
2026-01-11 18:00:51.37	249.65	10.72	-35.5	-36.7	28.0	3.02e+01	62	29	0	982515712	44	6640
2026-01-11 18:00:52.38	249.55	10.63	-35.5	-36.8	28.0	3.02e+01	62	29	0	984612864	44	6662
2026-01-11 18:00:53.39	249.45	10.54	-35.6	-36.8	28.0	3.02e+01	60	29	0	986185728	44	6723
2026-01-11 18:00:54.40	249.35	10.46	-35.5	-36.8	28.0	3.02e+01	51	29	0	988282880	44	6670
2026-01-11 18:00:55.41	249.25	10.37	-35.6	-36.9	27.9	3.02e+01	58	29	0	990380032	44	6727
2026-01-11 18:00:56.42	249.16	10.29	-35.4	-36.7	28.1	3.02e+01	57	29	0	991952896	44	6606
2026-01-11 18:00:57.43	249.06	10.20	-35.7	-37.0	27.8	3.02e+01	51	29	0	994050048	44	6814
2026-01-11 18:00:58.44	248.97	10.12	-35.4	-36.6	28.1	3.02e+01	58	29	0	995622912	44	6557
2026-01-11 18:00:59.45	248.87	10.03	-35.5	-36.8	27.9	3.02e+01	47	29	0	997720064	44	6701
2026-01-11 18:01:00.46	248.78	9.95	-35.5	-36.8	28.0	3.02e+01	59	29	0	999817216	44	6675
2026-01-11 18:01:01.47	248.68	9.86	-35.5	-36.8	27.9	3.02e+01	60	29	0	1001390080	44	6725
2026-01-11 18:01:02.47	248.59	9.78	-35.7	-37.0	27.8	3.02e+01	52	29	0	1003487232	44	6827
2026-01-11 18:01:03.49	248.50	9.70	-35.6	-36.9	27.8	3.02e+01	63	29	0	1005060096	44	6773
2026-01-11 18:01:04.49	248.41	9.61	-35.7	-37.0	27.8	3.02e+01	61	29	0	1007157248	44	6806
2026-01-11 18:01:05.50	248.32	9.53	-35.7	-37.0	27.8	3.02e+01	59	29	0	1009254400	44	6832
2026-01-11 18:01:06.51	248.23	9.45	-35.7	-37.0	27.7	3.02e+01	60	29	0	1010827264	44	6881
2026-01-11 18:01:07.52	248.14	9.37	-35.8	-37.1	27.7	3.02e+01	45	29	0	1012924416	44	6894
2026-01-11 18:01:08.53	248.05	9.28	-35.9	-37.3	27.5	3.02e+01	58	29	0	1014497280	44	7047
2026-01-11 18:01:09.54	247.96	9.20	-35.9	-37.2	27.5	3.02e+01	61	29	0	1016594432	46	6226
2026-01-11 18:01:10.54	247.87	9.12	-35.9	-37.2	27.6	3.02e+01	47	29	0	1018691584	46	6235
2026-01-11 18:01:11.55	247.79	9.04	-36.0	-37.3	27.4	3.02e+01	61	29	0	1020264448	46	6349
2026-01-11 18:01:12.56	247.70	8.96	-36.1	-37.4	27.4	3.02e+01	59	29	0	1022361600	46	6368
2026-01-11 18:01:13.57	247.61	8.88	-36.0	-37.3	27.5	3.02e+01	54	29	0	1023934464	46	6297
2026-01-11 18:01:14.58	247.53	8.80	-36.0	-37.4	27.4	3.02e+01	59	29	0	1026031616	46	6352
2026-01-11 18:01:15.59	247.44	8.72	-36.2	-37.5	27.2	3.02e+01	58	29	0	1028128768	46	6469
2026-01-11 18:01:16.60	247.35	8.64	-36.2	-37.6	27.2	3.02e+01	58	29	0	1029701632	46	6519
2026-01-11 18:01:17.61	247.27	8.56	-36.4	-37.7	27.0	3.02e+01	58	29	0	1031798784	46	6635
2026-01-11 18:01:18.62	247.19	8.48	-36.3	-37.7	27.1	3.02e+01	52	29	0	1033895936	46	6609
2026-01-11 18:01:19.63	247.10	8.40	-36.4	-37.8	26.9	3.02e+01	59	29	0	1035468800	46	6687
2026-01-11 18:01:20.64	247.02	8.32	-36.4	-37.8	26.9	3.02e+01	55	29	0	1037565952	46	6691
2026-01-11 18:01:21.65	246.94	8.24	-36.6	-37.9	26.7	3.02e+01	58	29	0	1039138816	46	6801
2026-01-11 18:01:22.66	246.86	8.16	-36.5	-37.9	26.8	3.02e+01	59	29	0	1041235968	46	6732
2026-01-11 18:01:23.67	246.77	8.08	-36.5	-37.9	26.8	3.02e+01	45	29	0	1043333120	46	6790
2026-01-11 18:01:24.68	246.69	8.00	-36.7	-38.1	26.6	3.02e+01	60	29	0	1044905984	46	6903
2026-01-11 18:01:25.69	246.61	7.92	-36.8	-38.2	26.5	3.02e+01	58	29	0	1047003136	46	6985
2026-01-11 18:01:26.69	246.53	7.84	-36.9	-38.4	26.3	3.02e+01	46	29	0	1049100288	46	7135
2026-01-11 18:01:27.70	246.45	7.77	-36.8	-38.2	26.5	3.02e+01	58	29	0	1050673152	46	6979
2026-01-11 18:01:28.71	246.38	7.69	-36.8	-38.2	26.4	3.02e+01	61	29	0	1052770304	46	7010
2026-01-11 18:01:29.73	246.30	7.61	-37.0	-38.4	26.2	3.02e+01	58	29	0	1054343168	48	6364
2026-01-11 18:01:30.74	246.22	7.53	-37.2	-38.6	26.0	3.02e+01	59	29	0	1056440320	48	6552
2026-01-11 18:01:31.74	246.14	7.46	-37.4	-38.8	25.8	3.02e+01	55	29	0	1058537472	48	6702
2026-01-11 18:01:32.75	246.06	7.38	-37.6	-39.1	25.6	3.02e+01	60	29	0	1060110336	48	6891
2026-01-11 18:01:33.76	245.99	7.30	-37.4	-38.9	25.7	3.02e+01	62	29	0	1062207488	48	6736
2026-01-11 18:01:34.77	245.91	7.23	-37.6	-39.1	25.5	3.02e+01	59	29	0	1063780352	48	6928
2026-01-11 18:01:35.78	245.84	7.15	-37.8	-39.4	25.3	3.02e+01	60	29	0	1065877504	48	7138
2026-01-11 18:01:36.79	245.76	7.07	-37.8	-39.3	25.3	3.02e+01	55	29	0	1067974656	48	7107
2026-01-11 18:01:37.80	245.69	7.00	-38.0	-39.5	25.1	3.02e+01	63	29	0	1069547520	50	6485
2026-01-11 18:01:38.81	245.61	6.92	-38.1	-39.6	25.0	3.02e+01	58	29	0	1071644672	50	6553
2026-01-11 18:01:39.82	245.54	6.85	-38.0	-39.5	25.0	3.02e+01	45	29	0	1073217536	50	6492
2026-01-11 18:01:40.83	245.46	6.77	-38.0	-39.6	24.9	3.02e+01	63	29	0	1075314688	50	6512
2026-01-11 18:01:41.84	245.39	6.70	-38.2	-39.8	24.8	3.02e+01	60	29	0	1077411840	50	6698
2026-01-11 18:01:42.85	245.32	6.62	-38.4	-40.0	24.5	3.02e+01	56	29	0	1078984704	50	6845
2026-01-11 18:01:43.86	245.25	6.55	-38.4	-40.0	24.6	3.02e+01	59	29	0	1081081856	50	6851
2026-01-11 18:01:44.86	245.17	6.47	-38.6	-40.2	24.2	3.02e+01	47	29	0	1082654720	50	6990
2026-01-11 18:01:45.87	245.10	6.40	-38.6	-40.3	24.3	3.02e+01	58	29	0	1084751872	50	7054
2026-01-11 18:01:46.88	245.03	6.33	-38.8	-40.5	24.0	3.02e+01	59	29	0	1086849024	50	7213
2026-01-11 18:01:47.89	244.96	6.25	-38.7	-40.4	24.1	3.02e+01	46	29	0	1088421888	50	7171
2026-01-11 18:01:48.90	244.89	6.18	-38.9	-40.6	24.0	3.02e+01	59	29	0	1090519040	50	7318
2026-01-11 18:01:49.91	244.82	6.11	-39.2	-40.9	23.6	3.02e+01	60	29	0	1092091904	52	6781
2026-01-11 18:01:50.92	244.75	6.03	-39.2	-41.0	23.6	3.02e+01	59	29	0	1094189056	52	6835
2026-01-11 18:01:51.93	244.68	5.96	-39.2	-41.0	23.6	3.02e+01	60	29	0	1096286208	52	6813
