passes_logs/2026/01/11/R4.6S_Anadyr/R4.6S_Anadyr__20260111_025041_AQUA_rec.log

#Pass ID: 20260111_025041_AQUA
#Satellite: AQUA
#Configuration: AQUA
#almurnet v.1.7.20251203
#Start time: 2026-01-11 02:50:42

#Version: 2.2.20231116
#Station: R4.6S_Anadyr
#Location: 177.4865 lon 64.73178 lat
#TLE: 1 27424U 02022A   26009.89520876  .00001045  00000+0  21914-3 0  9996
#TLE: 2 27424  98.4076 336.2372 0002032  84.5955   1.0356 14.61811442260144

#Time	Az	El	Level	Level2	SNR	BER	BlckErr	Temp	State	Recorded	gain1	gain2
2026-01-11 02:50:42.91	180.40	0.10	-48.0	-62.9	3.5	1.51e+00	0	28	0	0	60	50436
2026-01-11 02:50:43.92	180.43	0.17	-47.8	-66.1	3.5	3.02e+01	0	29	104	0	60	77341
2026-01-11 02:50:44.93	180.47	0.23	-48.2	-66.1	3.5	3.02e+01	0	29	104	0	60	77773
2026-01-11 02:50:45.94	180.50	0.29	-48.0	-66.2	3.5	3.02e+01	0	29	104	0	60	78166
2026-01-11 02:50:46.95	180.54	0.35	-47.8	-66.1	3.5	3.02e+01	0	29	104	0	60	78091
2026-01-11 02:50:47.96	180.58	0.41	-47.8	-66.2	3.5	3.02e+01	0	29	104	0	60	78381
2026-01-11 02:50:48.97	180.61	0.47	-48.3	-66.2	3.5	3.02e+01	0	29	104	0	60	78725
2026-01-11 02:50:49.97	180.65	0.53	-48.3	-66.3	3.5	3.02e+01	0	29	104	0	60	79412
2026-01-11 02:50:50.98	180.68	0.59	-48.3	-66.1	3.5	3.02e+01	0	29	104	0	60	78097
2026-01-11 02:50:51.99	180.72	0.66	-48.2	-66.1	3.5	3.02e+01	0	29	104	0	60	77930
2026-01-11 02:50:53.01	180.76	0.72	-48.1	-66.0	3.5	3.02e+01	0	29	104	0	60	77079
2026-01-11 02:50:54.01	180.79	0.78	-48.0	-65.8	3.5	3.02e+01	0	29	104	0	60	75414
2026-01-11 02:50:55.02	180.83	0.84	-47.9	-65.6	3.5	3.02e+01	0	29	104	0	60	73385
2026-01-11 02:50:56.03	180.87	0.91	-47.5	-65.6	3.5	3.02e+01	0	29	104	0	60	73428
2026-01-11 02:50:57.04	180.90	0.97	-46.6	-65.4	3.5	3.02e+01	0	29	104	0	60	71334
2026-01-11 02:50:58.05	180.94	1.03	-46.5	-64.9	3.5	3.02e+01	0	29	104	0	60	67747
2026-01-11 02:50:59.06	180.98	1.09	-46.6	-64.5	3.5	3.02e+01	0	29	104	0	60	64895
2026-01-11 02:51:00.07	181.02	1.16	-46.6	-64.3	3.5	3.02e+01	0	29	104	0	60	62944
2026-01-11 02:51:01.08	181.05	1.22	-46.6	-64.5	3.5	3.02e+01	0	29	104	0	60	64540
2026-01-11 02:51:02.09	181.09	1.28	-46.6	-64.3	3.5	3.02e+01	0	29	104	0	60	63130
2026-01-11 02:51:03.10	181.13	1.35	-46.6	-64.3	3.5	3.02e+01	0	29	104	0	60	63284
2026-01-11 02:51:04.11	181.17	1.41	-46.6	-64.6	3.5	3.02e+01	0	29	104	0	60	65384
2026-01-11 02:51:05.12	181.21	1.47	-46.6	-64.7	3.5	3.02e+01	0	29	104	0	60	66270
2026-01-11 02:51:06.13	181.24	1.54	-46.6	-64.7	3.5	3.02e+01	0	29	104	0	60	65904
2026-01-11 02:51:07.14	181.28	1.60	-46.6	-64.7	3.5	3.02e+01	0	29	104	0	60	66459
2026-01-11 02:51:08.16	181.32	1.67	-46.6	-64.8	3.5	3.02e+01	0	29	104	0	60	66881
2026-01-11 02:51:09.16	181.36	1.73	-46.6	-64.8	3.5	3.02e+01	0	29	104	0	60	66892
2026-01-11 02:51:10.18	181.40	1.80	-46.6	-64.7	3.5	3.02e+01	0	29	104	0	60	66220
2026-01-11 02:51:11.19	181.44	1.86	-46.6	-64.7	3.5	3.02e+01	0	29	104	0	60	66188
2026-01-11 02:51:12.19	181.48	1.92	-46.6	-64.6	3.5	3.02e+01	0	29	104	0	60	65573
2026-01-11 02:51:13.20	181.52	1.99	-46.6	-64.2	3.5	3.02e+01	0	29	104	0	60	62628
2026-01-11 02:51:14.22	181.56	2.06	-46.6	-64.3	3.5	3.02e+01	0	29	104	0	60	63438
2026-01-11 02:51:15.23	181.60	2.12	-46.6	-64.6	3.5	3.02e+01	0	29	104	0	60	65117
2026-01-11 02:51:16.24	181.64	2.19	-46.6	-64.8	3.5	3.02e+01	0	29	104	0	60	66536
2026-01-11 02:51:17.25	181.68	2.25	-46.6	-64.7	3.5	3.02e+01	0	29	104	0	60	66356
2026-01-11 02:51:18.26	181.72	2.32	-46.6	-64.5	3.5	3.02e+01	0	29	104	0	60	64876
2026-01-11 02:51:19.26	181.76	2.38	-46.6	-64.3	3.5	3.02e+01	0	29	104	0	60	63235
2026-01-11 02:51:20.28	181.80	2.45	-46.6	-64.2	3.5	3.02e+01	0	29	104	0	60	62745
2026-01-11 02:51:21.29	181.84	2.52	-46.6	-64.5	3.5	3.02e+01	0	29	104	0	60	64978
2026-01-11 02:51:22.30	181.89	2.58	-46.6	-64.7	3.5	3.02e+01	0	29	104	0	60	66323
2026-01-11 02:51:23.31	181.93	2.65	-46.6	-64.3	3.5	3.02e+01	0	29	104	0	60	62783
2026-01-11 02:51:24.32	181.97	2.72	-46.6	-63.3	3.6	3.02e+01	0	29	104	0	60	55963
2026-01-11 02:51:25.33	182.01	2.78	-46.5	-61.8	4.0	3.02e+01	0	29	104	0	60	47177
2026-01-11 02:51:26.34	182.05	2.85	-46.4	-60.0	4.9	3.02e+01	0	29	104	0	60	38366
2026-01-11 02:51:27.34	182.10	2.92	-46.4	-59.9	5.0	3.02e+01	0	29	104	0	60	38108
2026-01-11 02:51:28.36	182.14	2.98	-46.5	-60.9	4.3	3.02e+01	0	29	104	0	60	42485
2026-01-11 02:51:29.37	182.18	3.05	-46.5	-63.3	3.5	3.02e+01	0	30	104	0	60	56413
2026-01-11 02:51:30.37	182.22	3.12	-46.4	-60.4	3.7	3.02e+01	0	30	104	0	60	40504
2026-01-11 02:51:31.39	182.27	3.19	-45.6	-53.4	11.0	3.02e+01	92	29	0	0	60	17980
2026-01-11 02:51:32.40	182.31	3.26	-44.5	-49.4	14.9	3.02e+01	90	29	0	2097152	60	11368
2026-01-11 02:51:33.41	182.35	3.32	-42.8	-46.0	18.5	3.02e+01	92	29	0	3670016	60	7680
2026-01-11 02:51:34.42	182.40	3.39	-41.0	-43.3	21.1	3.02e+01	91	29	0	5767168	58	6332
2026-01-11 02:51:35.42	182.44	3.46	-39.3	-41.2	23.0	3.02e+01	92	29	0	7864320	54	6240
2026-01-11 02:51:36.43	182.49	3.53	-37.9	-39.6	23.7	3.02e+01	92	29	0	9437184	52	5813
2026-01-11 02:51:37.45	182.53	3.60	-37.5	-39.1	25.0	3.02e+01	92	29	0	11534336	50	6192
2026-01-11 02:51:38.46	182.57	3.67	-37.1	-38.7	25.4	3.02e+01	91	29	0	13631488	50	5859
2026-01-11 02:51:39.46	182.62	3.74	-37.7	-39.3	24.8	3.02e+01	90	29	0	15204352	50	6319
2026-01-11 02:51:40.48	182.66	3.81	-38.3	-40.0	24.2	3.02e+01	92	29	0	17301504	50	6879
2026-01-11 02:51:41.49	182.71	3.88	-37.3	-38.9	25.3	3.02e+01	92	29	0	18874368	50	6002
2026-01-11 02:51:42.50	182.76	3.95	-39.2	-41.2	23.0	3.02e+01	92	29	0	20971520	50	7898
2026-01-11 02:51:43.51	182.80	4.02	-38.1	-39.8	23.4	3.02e+01	92	29	0	23068672	50	6689
2026-01-11 02:51:44.52	182.85	4.09	-46.3	-56.1	4.4	3.02e+01	0	29	104	23592960	60	24586
2026-01-11 02:51:45.53	182.89	4.16	-37.7	-39.7	23.1	3.02e+01	90	29	104	23592960	54	5252
2026-01-11 02:51:46.54	182.94	4.23	-39.3	-41.2	23.8	3.02e+01	92	29	0	24641536	56	5556
2026-01-11 02:51:47.54	182.99	4.30	-37.9	-39.5	25.1	3.02e+01	90	29	0	26738688	50	6492
2026-01-11 02:51:48.55	183.03	4.37	-37.0	-38.5	25.8	3.02e+01	91	29	0	28311552	50	5782
2026-01-11 02:51:49.56	183.08	4.44	-36.9	-38.5	25.8	3.02e+01	90	29	0	30408704	50	5764
2026-01-11 02:51:50.57	183.13	4.51	-36.5	-38.0	26.2	3.02e+01	92	29	0	32505856	48	6097
2026-01-11 02:51:51.58	183.17	4.58	-36.5	-38.0	26.3	3.02e+01	92	29	0	34078720	48	6068
2026-01-11 02:51:52.59	183.22	4.65	-36.4	-37.9	26.4	3.02e+01	91	29	0	36175872	48	6029
2026-01-11 02:51:53.60	183.27	4.73	-36.3	-37.8	26.5	3.02e+01	95	29	0	37748736	48	5927
2026-01-11 02:51:54.61	183.32	4.80	-36.6	-38.1	26.1	3.02e+01	92	29	0	39845888	48	6157
2026-01-11 02:51:55.62	183.37	4.87	-36.5	-38.0	26.4	3.02e+01	91	29	0	41943040	48	6087
2026-01-11 02:51:56.63	183.42	4.94	-36.4	-37.9	26.4	3.02e+01	92	29	0	43515904	48	6045
2026-01-11 02:51:57.64	183.46	5.02	-36.3	-37.8	26.5	3.02e+01	91	29	0	45613056	48	5959
2026-01-11 02:51:58.65	183.51	5.09	-36.4	-37.9	26.4	3.02e+01	92	29	0	47710208	48	6011
2026-01-11 02:51:59.65	183.56	5.16	-36.4	-37.9	26.5	3.02e+01	90	29	0	49283072	48	6037
2026-01-11 02:52:00.67	183.61	5.24	-36.6	-38.0	26.3	3.02e+01	91	29	0	51380224	48	6118
2026-01-11 02:52:01.67	183.66	5.31	-36.2	-37.7	26.6	3.02e+01	91	29	0	52953088	48	5890
2026-01-11 02:52:02.68	183.71	5.38	-36.4	-37.8	26.5	3.02e+01	91	29	0	55050240	48	5989
2026-01-11 02:52:03.69	183.76	5.46	-36.3	-37.8	26.6	3.02e+01	91	29	0	57147392	48	5969
2026-01-11 02:52:04.70	183.81	5.53	-36.2	-37.7	26.7	3.02e+01	91	29	0	58720256	48	5869
2026-01-11 02:52:05.71	183.86	5.61	-36.1	-37.6	26.8	3.02e+01	92	29	0	60817408	48	5794
2026-01-11 02:52:06.72	183.92	5.68	-36.0	-37.4	26.8	3.02e+01	92	29	0	62390272	48	5699
2026-01-11 02:52:07.73	183.97	5.76	-36.1	-37.5	26.8	3.02e+01	92	29	0	64487424	48	5777
2026-01-11 02:52:08.74	184.02	5.83	-36.2	-37.7	26.6	3.02e+01	92	29	0	66584576	48	5899
2026-01-11 02:52:09.75	184.07	5.91	-36.4	-37.9	26.5	3.02e+01	92	29	0	68157440	48	6046
2026-01-11 02:52:10.76	184.12	5.98	-36.5	-37.9	26.5	3.02e+01	91	29	0	70254592	48	6058
2026-01-11 02:52:11.77	184.18	6.06	-36.0	-37.4	26.9	3.02e+01	90	29	0	71827456	48	5723
2026-01-11 02:52:12.77	184.23	6.13	-36.0	-37.4	27.0	3.02e+01	92	29	0	73924608	46	6370
2026-01-11 02:52:13.79	184.28	6.21	-36.2	-37.6	26.9	3.02e+01	90	29	0	76021760	46	6542
2026-01-11 02:52:14.80	184.34	6.29	-36.4	-37.9	26.7	3.02e+01	91	29	0	77594624	46	6754
2026-01-11 02:52:15.81	184.39	6.37	-36.1	-37.5	27.0	3.02e+01	92	29	0	79691776	46	6469
2026-01-11 02:52:16.82	184.44	6.44	-36.0	-37.4	27.1	3.02e+01	92	29	0	81264640	46	6387
2026-01-11 02:52:17.83	184.50	6.52	-35.9	-37.3	27.2	3.02e+01	92	29	0	83361792	46	6312
2026-01-11 02:52:18.84	184.55	6.60	-35.8	-37.2	27.2	3.02e+01	91	29	0	85458944	46	6238
2026-01-11 02:52:19.84	184.61	6.67	-36.0	-37.3	27.2	3.02e+01	92	29	0	87031808	46	6338
2026-01-11 02:52:20.85	184.66	6.75	-36.0	-37.4	27.1	3.02e+01	92	29	0	89128960	46	6378
2026-01-11 02:52:21.86	184.72	6.83	-36.0	-37.4	27.1	3.02e+01	92	29	0	91226112	46	6397
2026-01-11 02:52:22.87	184.77	6.91	-35.9	-37.3	27.1	3.02e+01	91	29	0	92798976	46	6329
2026-01-11 02:52:23.87	184.83	6.99	-35.8	-37.1	27.4	3.02e+01	90	29	0	94896128	46	6177
2026-01-11 02:52:24.88	184.89	7.07	-35.7	-37.1	27.4	3.02e+01	90	29	0	96468992	46	6163
2026-01-11 02:52:25.90	184.94	7.15	-35.6	-37.0	27.5	3.02e+01	90	29	0	98566144	46	6083
2026-01-11 02:52:26.91	185.00	7.23	-35.8	-37.2	27.4	3.02e+01	91	29	0	100663296	46	6234
2026-01-11 02:52:27.92	185.06	7.31	-35.9	-37.2	27.3	3.02e+01	92	29	0	102236160	46	6248
2026-01-11 02:52:28.92	185.12	7.39	-36.0	-37.4	27.2	3.02e+01	87	29	0	104333312	46	6371
2026-01-11 02:52:29.94	185.17	7.47	-35.9	-37.3	27.2	3.02e+01	92	29	0	106430464	46	6311
2026-01-11 02:52:30.95	185.23	7.55	-35.8	-37.2	27.4	3.02e+01	92	29	0	108003328	46	6207
2026-01-11 02:52:31.96	185.29	7.63	-35.6	-36.9	27.5	3.02e+01	92	29	0	110100480	46	6063
2026-01-11 02:52:32.97	185.35	7.71	-35.6	-36.9	27.5	3.02e+01	92	29	0	111673344	46	6055
2026-01-11 02:52:33.98	185.41	7.79	-35.6	-37.0	27.4	3.02e+01	91	29	0	113770496	46	6093
2026-01-11 02:52:34.99	185.47	7.87	-35.5	-36.9	27.6	3.02e+01	91	29	0	115867648	46	6014
2026-01-11 02:52:36.00	185.53	7.95	-35.4	-36.7	27.7	3.02e+01	91	29	0	117440512	46	5922
2026-01-11 02:52:37.01	185.59	8.04	-35.5	-36.9	27.6	3.02e+01	92	29	0	119537664	46	5996
2026-01-11 02:52:38.01	185.65	8.12	-35.4	-36.8	27.7	3.02e+01	92	29	0	121110528	46	5955
2026-01-11 02:52:39.02	185.71	8.20	-35.4	-36.8	27.7	3.02e+01	90	29	0	123207680	46	5931
2026-01-11 02:52:40.03	185.77	8.28	-35.4	-36.8	27.7	3.02e+01	90	29	0	125304832	46	5950
2026-01-11 02:52:41.05	185.84	8.37	-35.4	-36.8	27.7	3.02e+01	91	29	0	126877696	46	5933
2026-01-11 02:52:42.05	185.90	8.45	-35.4	-36.7	27.8	3.02e+01	90	29	0	128974848	46	5916
2026-01-11 02:52:43.06	185.96	8.53	-35.4	-36.7	27.9	3.02e+01	92	29	0	130547712	46	5919
2026-01-11 02:52:44.07	186.02	8.62	-35.4	-36.8	27.7	3.02e+01	90	29	0	132644864	46	5942
2026-01-11 02:52:45.08	186.09	8.70	-35.3	-36.7	27.9	3.02e+01	92	29	0	134742016	46	5899
2026-01-11 02:52:46.09	186.15	8.79	-35.3	-36.6	27.9	3.02e+01	92	29	0	136314880	46	5845
2026-01-11 02:52:47.10	186.21	8.87	-35.4	-36.8	27.8	3.02e+01	91	29	0	138412032	46	5958
2026-01-11 02:52:48.11	186.28	8.96	-35.3	-36.7	27.8	3.02e+01	92	29	0	139984896	46	5888
2026-01-11 02:52:49.12	186.34	9.04	-35.4	-36.8	27.8	3.02e+01	92	29	0	142082048	46	5969
2026-01-11 02:52:50.13	186.41	9.13	-35.3	-36.7	27.9	3.02e+01	91	29	0	144179200	46	5868
2026-01-11 02:52:51.14	186.47	9.22	-35.3	-36.7	27.9	3.02e+01	92	29	0	145752064	46	5875
2026-01-11 02:52:52.15	186.54	9.30	-35.1	-36.5	28.0	3.02e+01	91	29	0	147849216	46	5755
2026-01-11 02:52:53.15	186.61	9.39	-35.2	-36.5	28.1	3.02e+01	92	29	0	149422080	46	5768
2026-01-11 02:52:54.17	186.67	9.48	-35.1	-36.5	28.1	3.02e+01	92	29	0	151519232	46	5726
2026-01-11 02:52:55.18	186.74	9.56	-35.2	-36.6	28.0	3.02e+01	92	29	0	153616384	46	5809
2026-01-11 02:52:56.18	186.81	9.65	-34.9	-36.2	28.2	3.02e+01	92	29	0	155189248	44	6242
2026-01-11 02:52:57.20	186.88	9.74	-35.0	-36.3	28.1	3.02e+01	92	29	0	157286400	44	6335
2026-01-11 02:52:58.20	186.94	9.83	-35.2	-36.5	28.0	3.02e+01	92	29	0	159383552	44	6459
2026-01-11 02:52:59.22	187.01	9.92	-34.8	-36.1	28.4	3.02e+01	92	29	0	160956416	44	6152
2026-01-11 02:53:00.23	187.08	10.01	-34.8	-36.1	28.4	3.02e+01	92	29	0	163053568	44	6169
2026-01-11 02:53:01.23	187.15	10.09	-34.8	-36.1	28.3	3.02e+01	92	29	0	164626432	44	6190
2026-01-11 02:53:02.24	187.22	10.18	-34.9	-36.2	28.3	3.02e+01	92	29	0	166723584	44	6270
2026-01-11 02:53:03.25	187.29	10.27	-34.8	-36.2	28.4	3.02e+01	92	29	0	168820736	44	6227
2026-01-11 02:53:04.26	187.36	10.36	-35.0	-36.3	28.2	3.02e+01	90	29	0	170393600	44	6326
2026-01-11 02:53:05.27	187.44	10.46	-34.9	-36.2	28.3	3.02e+01	92	29	0	172490752	44	6255
2026-01-11 02:53:06.28	187.51	10.55	-35.1	-36.4	28.2	3.02e+01	92	29	0	174063616	44	6395
2026-01-11 02:53:07.29	187.58	10.64	-34.9	-36.2	28.3	3.02e+01	90	29	0	176160768	44	6267
2026-01-11 02:53:08.30	187.65	10.73	-34.9	-36.2	28.3	3.02e+01	92	29	0	178257920	44	6266
2026-01-11 02:53:09.31	187.73	10.82	-34.9	-36.2	28.3	3.02e+01	90	29	0	179830784	44	6229
2026-01-11 02:53:10.32	187.80	10.91	-34.9	-36.2	28.3	3.02e+01	92	29	0	181927936	44	6254
2026-01-11 02:53:11.33	187.87	11.01	-34.8	-36.1	28.4	3.02e+01	91	29	0	184025088	44	6194
2026-01-11 02:53:12.34	187.95	11.10	-34.8	-36.1	28.4	3.02e+01	92	29	0	185597952	44	6153
2026-01-11 02:53:13.35	188.02	11.19	-34.8	-36.1	28.5	3.02e+01	92	29	0	187695104	44	6191
2026-01-11 02:53:14.36	188.10	11.29	-34.6	-35.9	28.6	3.02e+01	92	29	0	189267968	44	6059
2026-01-11 02:53:15.37	188.18	11.38	-34.7	-36.0	28.6	3.02e+01	92	29	0	191365120	44	6103
2026-01-11 02:53:16.38	188.25	11.48	-34.5	-35.8	28.7	3.02e+01	91	29	0	193462272	44	5974
2026-01-11 02:53:17.39	188.33	11.57	-34.6	-35.9	28.6	3.02e+01	91	29	0	195035136	44	5995
2026-01-11 02:53:18.40	188.41	11.67	-34.7	-36.0	28.5	3.02e+01	92	29	0	197132288	44	6101
2026-01-11 02:53:19.41	188.49	11.76	-34.6	-35.9	28.6	3.02e+01	90	29	0	198705152	44	6039
2026-01-11 02:53:20.42	188.57	11.86	-34.9	-36.2	28.5	3.02e+01	92	29	0	200802304	44	6222
2026-01-11 02:53:21.43	188.65	11.96	-34.6	-35.9	28.6	3.02e+01	92	29	0	202899456	44	6057
2026-01-11 02:53:22.44	188.73	12.05	-34.7	-36.0	28.6	3.02e+01	90	29	0	204472320	44	6072
2026-01-11 02:53:23.45	188.81	12.15	-34.8	-36.1	28.5	3.02e+01	92	29	0	206569472	44	6150
2026-01-11 02:53:24.46	188.89	12.25	-34.7	-36.0	28.6	3.02e+01	90	29	0	208142336	44	6115
2026-01-11 02:53:25.47	188.97	12.34	-34.6	-35.9	28.7	3.02e+01	92	29	0	210239488	44	6023
2026-01-11 02:53:26.48	189.05	12.44	-34.4	-35.7	28.9	3.02e+01	92	29	0	212336640	44	5868
2026-01-11 02:53:27.49	189.13	12.54	-34.4	-35.7	28.8	3.02e+01	91	29	0	213909504	44	5903
2026-01-11 02:53:28.50	189.22	12.64	-34.3	-35.6	28.9	3.02e+01	92	29	0	216006656	44	5821
2026-01-11 02:53:29.51	189.30	12.74	-34.3	-35.6	28.9	3.02e+01	92	29	0	217579520	44	5855
2026-01-11 02:53:30.52	189.39	12.84	-34.3	-35.6	29.0	3.02e+01	91	29	0	219676672	44	5799
2026-01-11 02:53:31.52	189.47	12.94	-34.1	-35.4	29.0	3.02e+01	90	29	0	221773824	44	5681
2026-01-11 02:53:32.53	189.56	13.04	-34.3	-35.6	28.9	3.02e+01	91	29	0	223346688	44	5833
2026-01-11 02:53:33.54	189.64	13.14	-34.2	-35.5	29.0	3.02e+01	90	29	0	225443840	44	5747
2026-01-11 02:53:34.55	189.73	13.24	-34.3	-35.5	29.0	3.02e+01	92	29	0	227540992	44	5780
2026-01-11 02:53:35.56	189.82	13.35	-34.3	-35.6	29.0	3.02e+01	92	29	0	229113856	44	5831
2026-01-11 02:53:36.57	189.90	13.45	-34.4	-35.7	28.8	3.02e+01	92	29	0	231211008	44	5875
2026-01-11 02:53:37.58	189.99	13.55	-34.4	-35.7	28.9	3.02e+01	90	29	0	232783872	44	5889
2026-01-11 02:53:38.59	190.08	13.65	-34.4	-35.7	28.9	3.02e+01	91	29	0	234881024	44	5860
2026-01-11 02:53:39.59	190.17	13.76	-34.4	-35.7	28.8	3.02e+01	90	29	0	236978176	44	5901
2026-01-11 02:53:40.60	190.26	13.86	-34.3	-35.6	29.0	3.02e+01	92	29	0	238551040	44	5813
2026-01-11 02:53:41.61	190.35	13.97	-34.3	-35.5	29.0	3.02e+01	90	29	0	240648192	44	5787
2026-01-11 02:53:42.62	190.45	14.07	-34.1	-35.4	29.1	3.02e+01	92	29	0	242221056	44	5687
2026-01-11 02:53:43.63	190.54	14.18	-34.3	-35.5	29.1	3.02e+01	92	29	0	244318208	44	5766
2026-01-11 02:53:44.64	190.63	14.28	-34.1	-35.4	29.2	3.02e+01	92	29	0	246415360	44	5667
2026-01-11 02:53:45.65	190.73	14.39	-34.1	-35.4	29.1	3.02e+01	92	29	0	247988224	44	5664
2026-01-11 02:53:46.66	190.82	14.50	-34.2	-35.4	29.1	3.02e+01	92	29	0	250085376	44	5720
2026-01-11 02:53:47.67	190.92	14.60	-34.1	-35.3	29.1	3.02e+01	92	28	0	251658240	44	5653
2026-01-11 02:53:48.68	191.01	14.71	-34.1	-35.3	29.1	3.02e+01	92	29	0	253755392	44	5645
2026-01-11 02:53:49.69	191.11	14.82	-34.1	-35.4	29.3	3.02e+01	92	29	0	255852544	44	5679
2026-01-11 02:53:50.70	191.21	14.93	-34.0	-35.3	29.2	3.02e+01	90	29	0	257425408	44	5615
2026-01-11 02:53:51.71	191.30	15.04	-34.1	-35.4	29.2	3.02e+01	92	29	0	259522560	44	5672
2026-01-11 02:53:52.72	191.40	15.15	-34.1	-35.4	29.2	3.02e+01	92	29	0	261095424	44	5664
2026-01-11 02:53:53.73	191.50	15.26	-34.1	-35.3	29.2	3.02e+01	92	29	0	263192576	44	5631
2026-01-11 02:53:54.74	191.60	15.37	-34.0	-35.3	29.3	3.02e+01	90	29	0	265289728	44	5601
2026-01-11 02:53:55.75	191.70	15.48	-34.0	-35.2	29.3	3.02e+01	92	29	0	266862592	44	5560
2026-01-11 02:53:56.76	191.81	15.59	-34.0	-35.2	29.3	3.02e+01	92	28	0	268959744	44	5548
2026-01-11 02:53:57.76	191.91	15.70	-34.0	-35.2	29.4	3.02e+01	90	29	0	271056896	42	6227
2026-01-11 02:53:58.77	192.01	15.81	-33.9	-35.1	29.4	3.02e+01	92	29	0	272629760	42	6173
2026-01-11 02:53:59.78	192.12	15.93	-34.0	-35.3	29.3	3.02e+01	90	29	0	274726912	42	6286
2026-01-11 02:54:00.79	192.22	16.04	-33.9	-35.1	29.4	3.02e+01	91	29	0	276299776	42	6190
2026-01-11 02:54:01.80	192.33	16.15	-33.9	-35.1	29.5	3.02e+01	92	29	0	278396928	42	6171
2026-01-11 02:54:02.82	192.44	16.27	-33.9	-35.1	29.5	3.02e+01	92	28	0	280494080	42	6179
2026-01-11 02:54:03.82	192.54	16.38	-34.0	-35.2	29.5	3.02e+01	92	28	0	282066944	42	6238
2026-01-11 02:54:04.83	192.65	16.50	-34.1	-35.3	29.3	3.02e+01	89	28	0	284164096	42	6346
2026-01-11 02:54:05.84	192.76	16.61	-34.1	-35.3	29.3	3.02e+01	92	28	0	285736960	42	6327
2026-01-11 02:54:06.85	192.87	16.73	-34.2	-35.4	29.2	3.02e+01	92	28	0	287834112	42	6400
2026-01-11 02:54:07.86	192.98	16.85	-34.1	-35.3	29.3	3.02e+01	90	29	0	289931264	42	6322
2026-01-11 02:54:08.87	193.09	16.97	-34.0	-35.3	29.4	3.02e+01	91	29	0	291504128	42	6294
2026-01-11 02:54:09.88	193.21	17.08	-34.1	-35.3	29.4	3.02e+01	90	28	0	293601280	42	6325
2026-01-11 02:54:10.89	193.32	17.20	-33.8	-35.0	29.5	3.02e+01	91	28	0	295698432	42	6127
2026-01-11 02:54:11.90	193.44	17.32	-34.0	-35.2	29.5	3.02e+01	92	28	0	297271296	42	6250
2026-01-11 02:54:12.91	193.55	17.44	-33.9	-35.1	29.7	3.02e+01	92	28	0	299368448	42	6200
2026-01-11 02:54:13.92	193.67	17.56	-34.0	-35.2	29.5	3.02e+01	88	28	0	300941312	42	6234
2026-01-11 02:54:14.93	193.79	17.68	-33.8	-35.0	29.6	3.02e+01	92	28	0	303038464	42	6113
2026-01-11 02:54:15.93	193.90	17.80	-34.0	-35.2	29.4	3.02e+01	92	28	0	305135616	42	6248
2026-01-11 02:54:16.94	194.02	17.92	-33.9	-35.1	29.6	3.02e+01	92	28	0	306708480	42	6165
2026-01-11 02:54:17.96	194.14	18.05	-33.8	-35.0	29.6	3.02e+01	92	28	0	308805632	42	6104
2026-01-11 02:54:18.96	194.26	18.17	-33.8	-35.0	29.6	3.02e+01	91	28	0	310378496	42	6088
2026-01-11 02:54:19.98	194.39	18.29	-34.0	-35.2	29.5	3.02e+01	92	28	0	312475648	42	6206
2026-01-11 02:54:20.99	194.51	18.42	-33.8	-35.0	29.6	3.02e+01	92	28	0	314572800	42	6089
2026-01-11 02:54:22.00	194.64	18.54	-33.9	-35.1	29.6	3.02e+01	92	28	0	316145664	42	6152
2026-01-11 02:54:23.01	194.76	18.67	-34.0	-35.2	29.4	3.02e+01	92	28	0	318242816	42	6218
2026-01-11 02:54:24.02	194.89	18.80	-33.9	-35.1	29.5	3.02e+01	92	28	0	319815680	42	6193
2026-01-11 02:54:25.03	195.02	18.92	-34.1	-35.3	29.5	3.02e+01	90	28	0	321912832	42	6288
2026-01-11 02:54:26.04	195.14	19.05	-34.2	-35.4	29.4	3.02e+01	90	28	0	324009984	42	6369
2026-01-11 02:54:27.04	195.27	19.17	-34.0	-35.2	29.6	3.02e+01	92	28	0	325582848	42	6207
2026-01-11 02:54:28.05	195.40	19.30	-34.0	-35.2	29.5	3.02e+01	92	28	0	327680000	42	6261
2026-01-11 02:54:29.06	195.54	19.43	-33.9	-35.1	29.6	3.02e+01	92	28	0	329252864	42	6165
2026-01-11 02:54:30.07	195.67	19.56	-33.9	-35.1	29.5	3.02e+01	91	28	0	331350016	42	6192
2026-01-11 02:54:31.08	195.80	19.69	-34.0	-35.2	29.5	3.02e+01	92	28	0	333447168	42	6219
2026-01-11 02:54:32.09	195.94	19.82	-34.1	-35.3	29.3	3.02e+01	92	28	0	335020032	42	6324
2026-01-11 02:54:33.10	196.08	19.95	-34.1	-35.3	29.4	3.02e+01	92	28	0	337117184	42	6305
2026-01-11 02:54:34.11	196.22	20.08	-34.1	-35.3	29.4	3.02e+01	92	28	0	339214336	42	6346
2026-01-11 02:54:35.12	196.35	20.22	-33.9	-35.1	29.5	3.02e+01	92	28	0	340787200	42	6199
2026-01-11 02:54:36.13	196.50	20.35	-33.9	-35.1	29.6	3.02e+01	92	28	0	342884352	42	6142
2026-01-11 02:54:37.14	196.64	20.48	-33.9	-35.1	29.5	3.02e+01	92	28	0	344457216	42	6154
2026-01-11 02:54:38.14	196.78	20.62	-33.9	-35.1	29.6	3.02e+01	92	28	0	346554368	42	6162
2026-01-11 02:54:39.15	196.92	20.75	-34.1	-35.4	29.3	3.02e+01	90	28	0	348651520	42	6361
2026-01-11 02:54:40.16	197.07	20.89	-34.0	-35.3	29.5	3.02e+01	92	28	0	350224384	42	6278
2026-01-11 02:54:41.17	197.22	21.02	-34.2	-35.4	29.4	3.02e+01	90	28	0	352321536	42	6391
2026-01-11 02:54:42.18	197.36	21.16	-34.3	-35.6	29.3	3.02e+01	92	28	0	353894400	42	6513
2026-01-11 02:54:43.19	197.51	21.30	-34.3	-35.5	29.2	3.02e+01	92	28	0	355991552	42	6448
2026-01-11 02:54:44.20	197.66	21.44	-34.2	-35.4	29.4	3.02e+01	92	28	0	358088704	42	6355
2026-01-11 02:54:45.21	197.82	21.57	-34.2	-35.4	29.3	3.02e+01	92	28	0	359661568	42	6392
2026-01-11 02:54:46.22	197.97	21.71	-34.2	-35.4	29.4	3.02e+01	88	28	0	361758720	42	6397
2026-01-11 02:54:47.23	198.13	21.85	-34.3	-35.6	29.2	3.02e+01	92	28	0	363855872	42	6509
2026-01-11 02:54:48.24	198.28	21.99	-34.3	-35.5	29.3	3.02e+01	92	28	0	365428736	42	6467
2026-01-11 02:54:49.25	198.44	22.13	-34.3	-35.5	29.2	3.02e+01	92	28	0	367525888	42	6474
2026-01-11 02:54:50.26	198.60	22.28	-34.3	-35.5	29.3	3.02e+01	92	28	0	369098752	42	6454
2026-01-11 02:54:51.27	198.76	22.42	-34.5	-35.7	29.2	3.02e+01	92	28	0	371195904	42	6600
2026-01-11 02:54:52.28	198.92	22.56	-34.2	-35.4	29.4	3.02e+01	92	28	0	373293056	42	6360
2026-01-11 02:54:53.29	199.09	22.71	-34.3	-35.5	29.3	3.02e+01	92	28	0	374865920	42	6463
2026-01-11 02:54:54.30	199.25	22.85	-34.4	-35.6	29.2	3.02e+01	92	28	0	376963072	42	6532
2026-01-11 02:54:55.31	199.42	23.00	-34.3	-35.5	29.2	3.02e+01	92	28	0	378535936	42	6480
2026-01-11 02:54:56.31	199.59	23.14	-34.2	-35.4	29.3	3.02e+01	92	28	0	380633088	42	6400
2026-01-11 02:54:57.32	199.76	23.29	-34.3	-35.5	29.3	3.02e+01	92	28	0	382205952	42	6444
2026-01-11 02:54:58.33	199.93	23.43	-34.2	-35.5	29.3	3.02e+01	91	28	0	384303104	42	6432
2026-01-11 02:54:59.34	200.10	23.58	-34.3	-35.6	29.2	3.02e+01	92	28	0	386400256	42	6530
2026-01-11 02:55:00.35	200.28	23.73	-34.4	-35.6	29.3	3.02e+01	92	28	0	387973120	42	6536
2026-01-11 02:55:01.36	200.46	23.88	-34.4	-35.6	29.1	3.02e+01	92	28	0	390070272	42	6569
2026-01-11 02:55:02.37	200.63	24.03	-34.2	-35.4	29.3	3.02e+01	92	28	0	392167424	42	6404
2026-01-11 02:55:03.38	200.82	24.18	-34.4	-35.6	29.2	3.02e+01	91	28	0	393740288	42	6533
2026-01-11 02:55:04.39	201.00	24.33	-34.3	-35.6	29.2	3.02e+01	91	28	0	395837440	42	6509
2026-01-11 02:55:05.40	201.18	24.48	-34.3	-35.5	29.3	3.02e+01	92	28	0	397410304	42	6498
2026-01-11 02:55:06.41	201.37	24.63	-34.3	-35.5	29.3	3.02e+01	92	28	0	399507456	42	6498
2026-01-11 02:55:07.42	201.56	24.79	-34.2	-35.4	29.3	3.02e+01	91	28	0	401604608	42	6366
2026-01-11 02:55:08.43	201.74	24.94	-34.3	-35.5	29.3	3.02e+01	92	28	0	403177472	42	6438
2026-01-11 02:55:09.44	201.94	25.09	-34.2	-35.4	29.3	3.02e+01	92	28	0	405274624	42	6409
2026-01-11 02:55:10.45	202.13	25.25	-34.2	-35.4	29.4	3.02e+01	92	28	0	407371776	42	6363
2026-01-11 02:55:11.46	202.32	25.41	-34.2	-35.4	29.3	3.02e+01	92	28	0	408944640	42	6390
2026-01-11 02:55:12.46	202.52	25.56	-34.2	-35.4	29.3	3.02e+01	90	28	0	411041792	42	6375
2026-01-11 02:55:13.48	202.72	25.72	-34.3	-35.5	29.3	3.02e+01	92	28	0	412614656	42	6433
2026-01-11 02:55:14.48	202.92	25.87	-34.3	-35.5	29.4	3.02e+01	91	28	0	414711808	42	6434
2026-01-11 02:55:15.49	203.12	26.03	-34.3	-35.5	29.3	3.02e+01	91	28	0	416808960	42	6493
2026-01-11 02:55:16.50	203.33	26.19	-34.1	-35.3	29.4	3.02e+01	92	28	0	418381824	42	6339
2026-01-11 02:55:17.51	203.54	26.35	-34.2	-35.4	29.4	3.02e+01	92	28	0	420478976	42	6372
2026-01-11 02:55:18.52	203.75	26.51	-34.3	-35.5	29.4	3.02e+01	89	28	0	422051840	42	6429
2026-01-11 02:55:19.53	203.96	26.67	-34.3	-35.5	29.3	3.02e+01	92	28	0	424148992	42	6471
2026-01-11 02:55:20.54	204.17	26.83	-34.4	-35.6	29.3	3.02e+01	89	28	0	426246144	42	6568
2026-01-11 02:55:21.55	204.39	27.00	-34.4	-35.6	29.3	3.02e+01	92	28	0	427819008	42	6526
2026-01-11 02:55:22.56	204.61	27.16	-34.1	-35.3	29.6	3.02e+01	91	28	0	429916160	42	6278
2026-01-11 02:55:23.57	204.83	27.32	-34.3	-35.4	29.6	3.02e+01	92	28	0	431489024	42	6418
2026-01-11 02:55:24.58	205.05	27.49	-34.4	-35.6	29.4	3.02e+01	90	28	0	433586176	42	6519
2026-01-11 02:55:25.59	205.28	27.65	-34.4	-35.6	29.2	3.02e+01	92	28	0	435683328	42	6565
2026-01-11 02:55:26.60	205.50	27.82	-34.2	-35.4	29.4	3.02e+01	90	28	0	437256192	42	6377
2026-01-11 02:55:27.61	205.73	27.98	-34.3	-35.5	29.2	3.02e+01	91	28	0	439353344	42	6491
2026-01-11 02:55:28.62	205.97	28.15	-34.3	-35.5	29.3	3.02e+01	90	28	0	440926208	42	6443
2026-01-11 02:55:29.63	206.20	28.31	-34.2	-35.4	29.3	3.02e+01	90	28	0	443023360	42	6410
2026-01-11 02:55:30.64	206.44	28.48	-34.2	-35.4	29.4	3.02e+01	92	28	0	445120512	42	6394
2026-01-11 02:55:31.64	206.68	28.65	-34.1	-35.3	29.5	3.02e+01	92	28	0	446693376	42	6313
2026-01-11 02:55:32.65	206.92	28.82	-34.2	-35.5	29.4	3.02e+01	90	28	0	448790528	42	6425
2026-01-11 02:55:33.66	207.16	28.99	-34.4	-35.6	29.2	3.02e+01	92	28	0	450363392	42	6564
2026-01-11 02:55:34.67	207.41	29.16	-34.4	-35.6	29.3	3.02e+01	90	28	0	452460544	42	6566
2026-01-11 02:55:35.68	207.66	29.33	-34.6	-35.9	29.2	3.02e+01	92	28	0	454557696	42	6736
2026-01-11 02:55:36.69	207.92	29.50	-35.0	-36.3	28.8	3.02e+01	90	28	0	456130560	42	7081
2026-01-11 02:55:37.70	208.17	29.67	-34.5	-35.7	29.3	3.02e+01	92	28	0	458227712	44	5904
2026-01-11 02:55:38.71	208.43	29.84	-34.5	-35.8	29.2	3.02e+01	90	28	0	460324864	44	5931
2026-01-11 02:55:39.72	208.69	30.01	-34.2	-35.4	29.4	3.02e+01	92	28	0	461897728	44	5663
2026-01-11 02:55:40.73	208.96	30.19	-34.2	-35.4	29.4	3.02e+01	91	28	0	463994880	44	5700
2026-01-11 02:55:41.74	209.22	30.36	-34.2	-35.4	29.4	3.02e+01	90	28	0	465567744	44	5673
2026-01-11 02:55:42.75	209.49	30.53	-34.4	-35.6	29.3	3.02e+01	90	28	0	467664896	44	5808
2026-01-11 02:55:43.76	209.77	30.71	-34.4	-35.6	29.2	3.02e+01	92	28	0	469762048	44	5814
2026-01-11 02:55:44.77	210.04	30.88	-34.3	-35.5	29.5	3.02e+01	92	28	0	471334912	44	5772
2026-01-11 02:55:45.78	210.32	31.06	-34.3	-35.5	29.3	3.02e+01	90	28	0	473432064	44	5775
2026-01-11 02:55:46.79	210.60	31.23	-34.4	-35.6	29.3	3.02e+01	86	28	0	475529216	44	5851
2026-01-11 02:55:47.80	210.89	31.41	-34.4	-35.6	29.4	3.02e+01	90	28	0	477102080	44	5812
2026-01-11 02:55:48.81	211.18	31.58	-34.2	-35.4	29.4	3.02e+01	92	28	0	479199232	44	5696
2026-01-11 02:55:49.82	211.47	31.76	-34.3	-35.6	29.2	3.02e+01	90	28	0	480772096	44	5798
2026-01-11 02:55:50.83	211.77	31.94	-34.6	-35.8	29.1	3.02e+01	91	28	0	482869248	44	5987
2026-01-11 02:55:51.84	212.06	32.11	-34.6	-35.8	29.1	3.02e+01	90	28	0	484966400	44	5975
2026-01-11 02:55:52.85	212.37	32.29	-34.5	-35.7	29.1	3.02e+01	90	28	0	486539264	44	5917
2026-01-11 02:55:53.86	212.67	32.47	-34.5	-35.7	29.2	3.02e+01	90	28	0	488636416	44	5880
2026-01-11 02:55:54.87	212.98	32.65	-34.6	-35.9	29.1	3.02e+01	92	28	0	490209280	44	5999
2026-01-11 02:55:55.88	213.29	32.83	-34.4	-35.6	29.2	3.02e+01	91	28	0	492306432	44	5831
2026-01-11 02:55:56.89	213.61	33.00	-34.7	-35.9	29.1	3.02e+01	91	28	0	494403584	44	6049
2026-01-11 02:55:57.90	213.92	33.18	-35.3	-36.5	28.7	3.02e+01	88	28	0	495976448	44	6470
2026-01-11 02:55:58.91	214.25	33.36	-35.0	-36.2	28.8	3.02e+01	91	28	0	498073600	44	6253
2026-01-11 02:55:59.92	214.57	33.54	-34.6	-35.8	29.1	3.02e+01	92	28	0	499646464	44	5964
2026-01-11 02:56:00.93	214.90	33.72	-34.7	-36.0	28.9	3.02e+01	91	28	0	501743616	44	6068
2026-01-11 02:56:01.94	215.23	33.90	-34.9	-36.1	28.9	3.02e+01	92	28	0	503840768	44	6161
2026-01-11 02:56:02.94	215.57	34.08	-34.8	-36.0	28.9	3.02e+01	92	28	0	505413632	44	6132
2026-01-11 02:56:03.96	215.91	34.26	-34.9	-36.1	28.9	3.02e+01	92	28	0	507510784	44	6191
2026-01-11 02:56:04.97	216.26	34.44	-34.8	-36.1	29.0	3.02e+01	92	28	0	509083648	44	6147
2026-01-11 02:56:05.98	216.60	34.62	-34.7	-36.0	28.9	3.02e+01	85	28	0	511180800	44	6070
2026-01-11 02:56:06.99	216.96	34.80	-34.9	-36.1	28.8	3.02e+01	92	28	0	513277952	44	6201
2026-01-11 02:56:08.00	217.31	34.98	-34.8	-36.0	29.0	3.02e+01	91	28	0	514850816	44	6103
2026-01-11 02:56:09.01	217.67	35.15	-34.7	-35.9	29.0	3.02e+01	88	28	0	516947968	44	6054
2026-01-11 02:56:10.02	218.04	35.33	-34.8	-36.0	28.8	3.02e+01	93	28	0	518520832	44	6122
2026-01-11 02:56:11.03	218.41	35.51	-35.0	-36.2	28.7	3.02e+01	92	28	0	520617984	44	6265
2026-01-11 02:56:12.04	218.78	35.69	-35.2	-36.5	28.6	3.02e+01	90	28	0	522715136	44	6433
2026-01-11 02:56:13.05	219.15	35.87	-35.0	-36.3	28.7	3.02e+01	92	28	0	524288000	44	6290
2026-01-11 02:56:14.06	219.53	36.05	-34.9	-36.1	29.0	3.02e+01	92	28	0	526385152	44	6159
2026-01-11 02:56:15.07	219.92	36.22	-35.0	-36.3	28.7	3.02e+01	91	28	0	528482304	44	6282
2026-01-11 02:56:16.08	220.31	36.40	-35.2	-36.4	28.6	3.02e+01	91	28	0	530055168	44	6405
2026-01-11 02:56:17.08	220.70	36.58	-35.1	-36.3	28.6	3.02e+01	93	28	0	532152320	44	6335
2026-01-11 02:56:18.09	221.09	36.75	-35.3	-36.5	28.5	3.02e+01	92	28	0	533725184	44	6485
2026-01-11 02:56:19.10	221.50	36.93	-34.9	-36.2	28.7	3.02e+01	91	28	0	535822336	44	6227
2026-01-11 02:56:20.11	221.90	37.10	-34.7	-35.9	29.1	3.02e+01	92	28	0	537919488	44	6041
2026-01-11 02:56:21.12	222.31	37.28	-35.1	-36.3	28.8	3.02e+01	93	28	0	539492352	44	6310
2026-01-11 02:56:22.13	222.73	37.45	-35.1	-36.3	28.8	3.02e+01	92	28	0	541589504	44	6327
2026-01-11 02:56:23.14	223.15	37.62	-35.0	-36.3	28.8	3.02e+01	90	28	0	543162368	44	6304
2026-01-11 02:56:24.15	223.57	37.80	-35.1	-36.3	28.8	3.02e+01	92	28	0	545259520	44	6296
2026-01-11 02:56:25.16	224.00	37.97	-34.5	-35.8	29.2	3.02e+01	91	28	0	547356672	44	5928
2026-01-11 02:56:26.16	224.43	38.14	-34.8	-36.0	29.0	3.02e+01	92	28	0	548929536	44	6100
2026-01-11 02:56:27.17	224.87	38.31	-34.8	-36.0	28.9	3.02e+01	92	28	0	551026688	44	6100
2026-01-11 02:56:28.18	225.31	38.48	-34.9	-36.1	28.8	3.02e+01	89	28	0	553123840	44	6171
2026-01-11 02:56:29.19	225.76	38.65	-35.1	-36.3	28.9	3.02e+01	90	28	0	554696704	44	6312
2026-01-11 02:56:30.20	226.21	38.81	-34.6	-35.9	29.1	3.02e+01	92	28	0	556793856	44	6010
2026-01-11 02:56:31.22	226.67	38.98	-34.7	-36.0	29.1	3.02e+01	92	28	0	558366720	44	6065
2026-01-11 02:56:32.23	227.13	39.15	-34.9	-36.1	28.9	3.02e+01	92	28	0	560463872	44	6191
2026-01-11 02:56:33.24	227.60	39.31	-34.5	-35.8	29.1	3.02e+01	92	28	0	562561024	44	5931
2026-01-11 02:56:34.25	228.07	39.47	-34.6	-35.8	29.1	3.02e+01	90	28	0	564133888	44	5942
2026-01-11 02:56:35.26	228.54	39.63	-34.7	-35.9	29.0	3.02e+01	92	28	0	566231040	44	6046
2026-01-11 02:56:36.27	229.02	39.79	-34.7	-35.9	29.1	3.02e+01	92	28	0	567803904	44	6057
2026-01-11 02:56:37.28	229.51	39.95	-34.6	-35.8	29.2	3.02e+01	92	28	0	569901056	44	5976
2026-01-11 02:56:38.29	230.00	40.11	-34.3	-35.5	29.4	3.02e+01	92	28	0	571998208	44	5755
2026-01-11 02:56:39.30	230.49	40.26	-34.4	-35.6	29.3	3.02e+01	92	28	0	573571072	44	5800
2026-01-11 02:56:40.31	230.99	40.42	-34.0	-35.2	29.5	3.02e+01	92	28	0	575668224	44	5591
2026-01-11 02:56:41.32	231.49	40.57	-34.2	-35.4	29.5	3.02e+01	92	28	0	577241088	44	5674
2026-01-11 02:56:42.33	232.00	40.72	-34.1	-35.3	29.6	3.02e+01	92	28	0	579338240	44	5654
2026-01-11 02:56:43.34	232.51	40.87	-33.9	-35.1	29.7	3.02e+01	92	28	0	581435392	44	5478
2026-01-11 02:56:44.35	233.03	41.01	-33.9	-35.1	29.7	3.02e+01	91	28	0	583008256	42	6150
2026-01-11 02:56:45.36	233.55	41.16	-34.5	-35.7	29.4	3.02e+01	90	28	0	585105408	42	6586
2026-01-11 02:56:46.36	234.08	41.30	-33.9	-35.1	29.8	3.02e+01	91	28	0	586678272	42	6150
2026-01-11 02:56:47.37	234.61	41.44	-33.8	-35.0	29.9	3.02e+01	87	28	0	588775424	42	6086
2026-01-11 02:56:48.38	235.15	41.58	-33.6	-34.8	29.9	3.02e+01	91	28	0	590872576	42	5977
2026-01-11 02:56:49.39	235.69	41.71	-33.7	-34.9	29.9	3.02e+01	91	28	0	592445440	42	6005
2026-01-11 02:56:50.40	236.23	41.85	-33.5	-34.6	30.1	3.02e+01	91	27	0	594542592	42	5852
2026-01-11 02:56:51.41	236.78	41.98	-33.7	-34.9	29.9	3.02e+01	92	28	0	596639744	42	6015
2026-01-11 02:56:52.42	237.34	42.11	-33.7	-34.9	29.9	3.02e+01	92	27	0	598212608	42	6012
2026-01-11 02:56:53.43	237.90	42.23	-33.5	-34.6	30.1	3.02e+01	92	28	0	600309760	42	5833
2026-01-11 02:56:54.44	238.46	42.36	-33.5	-34.7	30.0	3.02e+01	92	28	0	601882624	42	5917
2026-01-11 02:56:55.45	239.03	42.48	-33.5	-34.7	30.0	3.02e+01	92	27	0	603979776	42	5907
2026-01-11 02:56:56.46	239.60	42.60	-33.7	-34.9	29.9	3.02e+01	92	27	0	606076928	42	6009
2026-01-11 02:56:57.47	240.18	42.71	-33.7	-34.9	30.0	3.02e+01	92	28	0	607649792	42	6029
2026-01-11 02:56:58.48	240.76	42.83	-33.4	-34.6	30.1	3.02e+01	92	27	0	609746944	42	5832
2026-01-11 02:56:59.49	241.34	42.94	-33.5	-34.7	30.0	3.02e+01	92	27	0	611319808	42	5891
2026-01-11 02:57:00.50	241.93	43.04	-33.5	-34.7	30.0	3.02e+01	91	28	0	613416960	42	5899
2026-01-11 02:57:01.51	242.52	43.15	-33.5	-34.7	30.1	3.02e+01	91	27	0	615514112	42	5880
2026-01-11 02:57:02.52	243.12	43.25	-33.5	-34.7	30.0	3.02e+01	92	28	0	617086976	42	5879
2026-01-11 02:57:03.53	243.72	43.35	-33.3	-34.5	30.3	3.02e+01	92	28	0	619184128	42	5766
2026-01-11 02:57:04.54	244.32	43.44	-33.5	-34.7	30.1	3.02e+01	92	27	0	621281280	42	5862
2026-01-11 02:57:05.55	244.93	43.54	-33.5	-34.7	30.1	3.02e+01	91	28	0	622854144	42	5878
2026-01-11 02:57:06.56	245.54	43.62	-33.2	-34.4	30.2	3.02e+01	91	28	0	624951296	42	5697
2026-01-11 02:57:07.56	246.15	43.71	-33.4	-34.5	30.2	3.02e+01	91	27	0	626524160	42	5784
2026-01-11 02:57:08.57	246.76	43.79	-33.3	-34.5	30.2	3.02e+01	89	27	0	628621312	42	5757
2026-01-11 02:57:09.58	247.38	43.87	-33.4	-34.6	30.1	3.02e+01	92	27	0	630718464	42	5815
2026-01-11 02:57:10.59	248.01	43.94	-33.5	-34.7	30.0	3.02e+01	92	28	0	632291328	42	5902
2026-01-11 02:57:11.60	248.63	44.02	-33.4	-34.6	30.2	3.02e+01	92	27	0	634388480	42	5815
2026-01-11 02:57:12.61	249.26	44.08	-33.5	-34.7	30.1	3.02e+01	95	27	0	635961344	42	5880
2026-01-11 02:57:13.62	249.89	44.15	-33.7	-34.9	30.0	3.02e+01	92	27	0	638058496	42	6010
2026-01-11 02:57:14.63	250.53	44.21	-33.6	-34.8	29.9	3.02e+01	92	27	0	640155648	42	5966
2026-01-11 02:57:15.64	251.16	44.27	-33.3	-34.4	30.3	3.02e+01	92	27	0	641728512	42	5714
2026-01-11 02:57:16.65	251.80	44.32	-33.6	-34.8	29.9	3.02e+01	92	27	0	643825664	42	5953
2026-01-11 02:57:17.66	252.44	44.37	-33.7	-34.9	29.9	3.02e+01	92	27	0	645398528	42	6017
2026-01-11 02:57:18.67	253.08	44.42	-33.6	-34.8	29.9	3.02e+01	92	28	0	647495680	42	5945
2026-01-11 02:57:19.68	253.73	44.46	-33.6	-34.7	30.1	3.02e+01	92	27	0	649592832	42	5919
2026-01-11 02:57:20.69	254.37	44.50	-34.0	-35.2	29.7	3.02e+01	92	27	0	651165696	42	6218
2026-01-11 02:57:21.69	255.01	44.53	-33.7	-34.9	29.8	3.02e+01	92	27	0	653262848	42	6038
2026-01-11 02:57:22.70	255.66	44.56	-33.5	-34.7	30.0	3.02e+01	92	27	0	654835712	42	5887
2026-01-11 02:57:23.71	256.31	44.59	-33.5	-34.7	30.0	3.02e+01	90	27	0	656932864	42	5905
2026-01-11 02:57:24.72	256.96	44.61	-33.7	-34.9	29.9	3.02e+01	92	27	0	659030016	42	5995
2026-01-11 02:57:25.73	257.61	44.63	-33.8	-34.9	29.9	3.02e+01	92	27	0	660602880	42	6060
2026-01-11 02:57:26.74	258.27	44.64	-33.6	-34.8	30.0	3.02e+01	92	27	0	662700032	42	5937
2026-01-11 02:57:27.75	258.92	44.65	-33.6	-34.8	29.9	3.02e+01	91	27	0	664797184	42	5974
2026-01-11 02:57:28.76	259.57	44.66	-33.6	-34.8	30.1	3.02e+01	84	27	0	666370048	42	5952
2026-01-11 02:57:29.77	260.23	44.66	-34.1	-35.3	29.7	3.02e+01	92	27	0	668467200	42	6293
2026-01-11 02:57:30.78	260.88	44.66	-33.6	-34.7	30.0	3.02e+01	92	27	0	670040064	42	5917
2026-01-11 02:57:31.79	261.53	44.65	-33.4	-34.6	30.1	3.02e+01	92	27	0	672137216	42	5823
2026-01-11 02:57:32.80	262.18	44.64	-33.8	-34.9	29.8	3.02e+01	92	27	0	674234368	42	6061
2026-01-11 02:57:33.81	262.84	44.63	-33.8	-35.0	29.8	3.02e+01	92	27	0	675807232	42	6077
2026-01-11 02:57:34.82	263.49	44.61	-33.6	-34.8	29.9	3.02e+01	90	27	0	677904384	42	5977
2026-01-11 02:57:35.83	264.14	44.59	-33.7	-34.9	29.8	3.02e+01	92	27	0	679477248	42	6026
2026-01-11 02:57:36.84	264.79	44.57	-33.7	-34.9	29.8	3.02e+01	91	27	0	681574400	42	6032
2026-01-11 02:57:37.85	265.44	44.54	-33.9	-35.1	29.8	3.02e+01	90	27	0	683671552	42	6142
2026-01-11 02:57:38.86	266.08	44.50	-33.7	-34.9	29.9	3.02e+01	92	27	0	685244416	42	6008
2026-01-11 02:57:39.87	266.73	44.47	-33.8	-35.0	29.9	3.02e+01	90	27	0	687341568	42	6093
2026-01-11 02:57:40.88	267.37	44.43	-33.7	-34.8	29.8	3.02e+01	90	27	0	689438720	42	5981
2026-01-11 02:57:41.89	268.02	44.38	-33.9	-35.1	29.7	3.02e+01	90	27	0	691011584	42	6194
2026-01-11 02:57:42.90	268.66	44.33	-34.1	-35.3	29.6	3.02e+01	92	27	0	693108736	42	6304
2026-01-11 02:57:43.91	269.29	44.28	-33.8	-35.0	29.8	3.02e+01	92	27	0	694681600	42	6077
2026-01-11 02:57:44.92	269.93	44.23	-33.7	-34.9	29.8	3.02e+01	90	27	0	696778752	42	6052
2026-01-11 02:57:45.93	270.56	44.17	-33.9	-35.1	29.6	3.02e+01	92	27	0	698875904	42	6156
2026-01-11 02:57:46.94	271.20	44.10	-33.9	-35.1	29.7	3.02e+01	91	27	0	700448768	42	6174
2026-01-11 02:57:47.95	271.83	44.03	-33.9	-35.0	29.8	3.02e+01	86	27	0	702545920	42	6129
2026-01-11 02:57:48.96	272.45	43.96	-34.0	-35.2	29.6	3.02e+01	92	27	0	704118784	42	6261
2026-01-11 02:57:49.97	273.07	43.89	-33.9	-35.1	29.8	3.02e+01	92	27	0	706215936	42	6152
2026-01-11 02:57:50.98	273.69	43.81	-34.1	-35.3	29.6	3.02e+01	92	27	0	708313088	42	6288
2026-01-11 02:57:51.99	274.31	43.73	-33.8	-35.0	29.8	3.02e+01	91	27	0	709885952	42	6074
2026-01-11 02:57:53.00	274.93	43.65	-34.3	-35.5	29.3	3.02e+01	91	27	0	711983104	42	6456
2026-01-11 02:57:54.01	275.54	43.56	-34.4	-35.6	29.2	3.02e+01	90	27	0	713555968	42	6542
2026-01-11 02:57:55.02	276.14	43.47	-34.0	-35.2	29.4	3.02e+01	91	27	0	715653120	42	6207
2026-01-11 02:57:56.03	276.75	43.37	-34.6	-35.9	29.0	3.02e+01	90	27	0	717750272	42	6744
2026-01-11 02:57:57.04	277.35	43.28	-34.0	-35.2	29.7	3.02e+01	91	27	0	719323136	42	6261
2026-01-11 02:57:58.05	277.94	43.18	-33.9	-35.1	29.7	3.02e+01	91	27	0	721420288	42	6163
2026-01-11 02:57:59.06	278.54	43.07	-33.9	-35.1	29.8	3.02e+01	88	27	0	722993152	42	6175
2026-01-11 02:58:00.06	279.12	42.97	-34.2	-35.4	29.5	3.02e+01	92	27	0	725090304	42	6380
2026-01-11 02:58:01.07	279.70	42.86	-34.1	-35.3	29.6	3.02e+01	92	27	0	727187456	42	6323
2026-01-11 02:58:02.08	280.28	42.75	-34.0	-35.2	29.6	3.02e+01	92	27	0	728760320	42	6255
2026-01-11 02:58:03.09	280.86	42.63	-33.8	-35.0	29.8	3.02e+01	92	27	0	730857472	42	6097
2026-01-11 02:58:04.10	281.43	42.51	-34.2	-35.4	29.4	3.02e+01	92	27	0	732954624	42	6414
2026-01-11 02:58:05.11	282.00	42.39	-34.3	-35.5	29.3	3.02e+01	92	27	0	734527488	42	6453
2026-01-11 02:58:06.13	282.57	42.27	-34.0	-35.2	29.6	3.02e+01	92	27	0	736624640	42	6238
2026-01-11 02:58:07.13	283.12	42.14	-34.1	-35.3	29.6	3.02e+01	87	27	0	738197504	42	6309
2026-01-11 02:58:08.14	283.68	42.02	-34.2	-35.4	29.5	3.02e+01	92	27	0	740294656	42	6377
2026-01-11 02:58:09.15	284.23	41.89	-34.6	-35.8	29.1	3.02e+01	92	27	0	742391808	42	6720
2026-01-11 02:58:10.16	284.77	41.75	-34.1	-35.3	29.5	3.02e+01	92	27	0	743964672	42	6350
2026-01-11 02:58:11.16	285.31	41.62	-34.1	-35.3	29.6	3.02e+01	92	27	0	746061824	42	6285
2026-01-11 02:58:12.18	285.85	41.48	-34.5	-35.7	29.2	3.02e+01	90	27	0	747634688	42	6601
2026-01-11 02:58:13.19	286.38	41.34	-34.3	-35.6	29.3	3.02e+01	92	27	0	749731840	42	6505
2026-01-11 02:58:14.20	286.91	41.20	-34.1	-35.3	29.5	3.02e+01	92	27	0	751828992	42	6342
2026-01-11 02:58:15.21	287.43	41.06	-34.2	-35.4	29.4	3.02e+01	92	27	0	753401856	42	6420
2026-01-11 02:58:16.22	287.95	40.91	-34.3	-35.5	29.4	3.02e+01	92	27	0	755499008	42	6449
2026-01-11 02:58:17.22	288.46	40.77	-34.4	-35.6	29.3	3.02e+01	91	27	0	757071872	42	6573
2026-01-11 02:58:18.23	288.97	40.62	-34.3	-35.5	29.3	3.02e+01	91	27	0	759169024	42	6451
2026-01-11 02:58:19.24	289.47	40.47	-34.4	-35.7	29.2	3.02e+01	92	27	0	761266176	42	6574
2026-01-11 02:58:20.25	289.97	40.31	-34.6	-35.9	29.0	3.02e+01	92	27	0	762839040	42	6742
2026-01-11 02:58:21.26	290.46	40.16	-34.4	-35.6	29.1	3.02e+01	92	27	0	764936192	42	6533
2026-01-11 02:58:22.27	290.95	40.00	-34.2	-35.4	29.4	3.02e+01	92	27	0	766509056	42	6414
2026-01-11 02:58:23.28	291.44	39.85	-34.4	-35.6	29.3	3.02e+01	90	27	0	768606208	42	6559
2026-01-11 02:58:24.29	291.92	39.69	-34.3	-35.5	29.4	3.02e+01	92	27	0	770703360	42	6474
2026-01-11 02:58:25.30	292.39	39.53	-34.3	-35.5	29.3	3.02e+01	49	27	0	772276224	42	6470
2026-01-11 02:58:26.31	292.86	39.37	-34.5	-35.7	29.2	3.02e+01	59	27	0	774373376	42	6627
2026-01-11 02:58:27.32	293.33	39.20	-34.3	-35.5	29.3	3.02e+01	61	27	0	775946240	42	6481
2026-01-11 02:58:28.33	293.79	39.04	-34.3	-35.5	29.4	3.02e+01	59	27	0	778043392	42	6444
2026-01-11 02:58:29.34	294.25	38.88	-34.9	-36.2	28.8	3.02e+01	60	27	0	780140544	42	7014
2026-01-11 02:58:30.35	294.70	38.71	-34.6	-35.9	28.9	3.02e+01	54	27	0	781713408	44	6052
2026-01-11 02:58:31.36	295.15	38.54	-34.1	-35.3	29.5	3.02e+01	56	27	0	783810560	44	5656
2026-01-11 02:58:32.36	295.58	38.38	-34.2	-35.5	29.5	3.02e+01	61	27	0	785907712	44	5735
2026-01-11 02:58:33.38	296.03	38.21	-34.2	-35.5	29.3	3.02e+01	46	27	0	787480576	44	5758
2026-01-11 02:58:34.39	296.46	38.04	-34.3	-35.5	29.2	3.02e+01	60	27	0	789577728	44	5772
2026-01-11 02:58:35.40	296.89	37.86	-34.2	-35.5	29.4	3.02e+01	60	27	0	791150592	44	5743
2026-01-11 02:58:36.41	297.31	37.69	-34.0	-35.3	29.5	3.02e+01	59	27	0	793247744	42	6288
2026-01-11 02:58:37.42	297.73	37.52	-34.0	-35.2	29.5	3.02e+01	60	27	0	795344896	42	6270
2026-01-11 02:58:38.43	298.15	37.35	-33.8	-35.0	29.7	3.02e+01	53	27	0	796917760	42	6104
2026-01-11 02:58:39.44	298.56	37.17	-34.2	-35.5	29.4	3.02e+01	57	27	0	799014912	42	6450
2026-01-11 02:58:40.44	298.96	37.00	-33.9	-35.1	29.7	3.02e+01	58	27	0	801112064	42	6175
2026-01-11 02:58:41.45	299.36	36.83	-33.9	-35.1	29.6	3.02e+01	58	27	0	802684928	42	6177
2026-01-11 02:58:42.46	299.76	36.65	-33.7	-34.9	29.9	3.02e+01	58	27	0	804782080	42	6047
2026-01-11 02:58:43.47	300.15	36.48	-33.5	-34.7	30.0	3.02e+01	59	27	0	806354944	42	5886
2026-01-11 02:58:44.48	300.54	36.30	-33.4	-34.6	30.1	3.02e+01	58	27	0	808452096	42	5856
2026-01-11 02:58:45.49	300.93	36.12	-33.4	-34.6	30.2	3.02e+01	59	27	0	810549248	42	5809
2026-01-11 02:58:46.50	301.31	35.95	-33.4	-34.6	30.2	3.02e+01	53	27	0	812122112	42	5815
2026-01-11 02:58:47.51	301.69	35.77	-33.6	-34.8	30.0	3.02e+01	61	27	0	814219264	42	5971
2026-01-11 02:58:48.52	302.06	35.59	-33.6	-34.8	30.0	3.02e+01	54	27	0	815792128	42	5955
2026-01-11 02:58:49.53	302.43	35.41	-33.3	-34.5	30.1	3.02e+01	56	27	0	817889280	42	5740
2026-01-11 02:58:50.54	302.79	35.24	-33.1	-34.3	30.4	3.02e+01	59	27	0	819986432	42	5599
2026-01-11 02:58:51.55	303.15	35.06	-33.3	-34.5	30.2	3.02e+01	47	27	0	821559296	42	5747
2026-01-11 02:58:52.56	303.51	34.88	-33.3	-34.5	30.1	3.02e+01	61	27	0	823656448	42	5736
2026-01-11 02:58:53.57	303.86	34.70	-33.0	-34.2	30.4	3.02e+01	58	27	0	825229312	42	5563
2026-01-11 02:58:54.58	304.21	34.52	-32.7	-33.9	30.6	3.02e+01	53	27	0	827326464	40	6021
2026-01-11 02:58:55.59	304.55	34.34	-32.7	-33.9	30.6	3.02e+01	55	27	0	829423616	40	6001
2026-01-11 02:58:56.60	304.89	34.17	-32.9	-34.1	30.5	3.02e+01	57	27	0	830996480	40	6151
2026-01-11 02:58:57.60	305.23	33.99	-33.0	-34.2	30.4	3.02e+01	59	27	0	833093632	40	6211
2026-01-11 02:58:58.61	305.56	33.81	-33.0	-34.2	30.4	3.02e+01	57	27	0	834666496	40	6253
2026-01-11 02:58:59.62	305.89	33.63	-32.6	-33.8	30.7	3.02e+01	55	27	0	836763648	40	5935
2026-01-11 02:59:00.63	306.22	33.45	-32.5	-33.6	30.9	3.02e+01	59	27	0	838860800	40	5858
2026-01-11 02:59:01.64	306.54	33.28	-32.5	-33.7	30.8	3.02e+01	60	27	0	840433664	40	5882
2026-01-11 02:59:02.65	306.86	33.10	-32.5	-33.7	30.7	3.02e+01	52	27	0	842530816	40	5898
2026-01-11 02:59:03.66	307.17	32.92	-32.5	-33.7	30.7	3.02e+01	60	27	0	844103680	40	5890
2026-01-11 02:59:04.67	307.48	32.74	-32.5	-33.6	30.8	3.02e+01	59	27	0	846200832	40	5837
2026-01-11 02:59:05.68	307.79	32.57	-32.5	-33.7	30.8	3.02e+01	57	27	0	848297984	40	5864
2026-01-11 02:59:06.69	308.10	32.39	-32.4	-33.6	30.8	3.02e+01	59	27	0	849870848	40	5833
2026-01-11 02:59:07.69	308.40	32.22	-32.5	-33.6	30.7	3.02e+01	40	27	0	851968000	40	5850
2026-01-11 02:59:08.70	308.70	32.04	-32.3	-33.5	30.9	3.02e+01	57	27	0	854065152	40	5742
2026-01-11 02:59:09.71	308.99	31.86	-32.2	-33.3	31.1	3.02e+01	59	27	0	855638016	40	5640
2026-01-11 02:59:10.72	309.28	31.69	-32.2	-33.4	31.0	3.02e+01	45	27	0	857735168	40	5666
2026-01-11 02:59:11.73	309.57	31.51	-32.4	-33.5	30.9	3.02e+01	61	27	0	859308032	40	5790
2026-01-11 02:59:12.74	309.86	31.34	-32.3	-33.4	31.0	3.02e+01	59	27	0	861405184	40	5712
2026-01-11 02:59:13.75	310.14	31.16	-32.2	-33.3	31.0	3.02e+01	60	27	0	863502336	40	5645
2026-01-11 02:59:14.76	310.42	30.99	-32.4	-33.6	30.8	3.02e+01	61	28	0	865075200	40	5820
2026-01-11 02:59:15.77	310.70	30.81	-32.6	-33.8	30.7	3.02e+01	54	27	0	867172352	40	5962
2026-01-11 02:59:16.78	310.97	30.64	-32.6	-33.7	30.7	3.02e+01	58	27	0	869269504	40	5901
2026-01-11 02:59:17.79	311.24	30.47	-32.4	-33.5	30.9	3.02e+01	61	27	0	870842368	40	5780
2026-01-11 02:59:18.80	311.51	30.30	-32.3	-33.4	30.9	3.02e+01	53	27	0	872939520	40	5721
2026-01-11 02:59:19.81	311.77	30.12	-32.2	-33.4	30.9	3.02e+01	61	27	0	874512384	40	5669
2026-01-11 02:59:20.82	312.03	29.95	-32.3	-33.4	30.9	3.02e+01	58	27	0	876609536	40	5691
2026-01-11 02:59:21.83	312.29	29.78	-32.4	-33.6	30.9	3.02e+01	56	28	0	878706688	40	5828
2026-01-11 02:59:22.84	312.55	29.61	-32.6	-33.8	30.7	3.02e+01	59	27	0	880279552	40	5943
2026-01-11 02:59:23.85	312.80	29.44	-32.8	-33.9	30.5	3.02e+01	45	27	0	882376704	40	6050
2026-01-11 02:59:24.86	313.05	29.27	-32.7	-33.9	30.5	3.02e+01	60	27	0	883949568	40	6008
2026-01-11 02:59:25.86	313.30	29.10	-32.6	-33.7	30.7	3.02e+01	60	27	0	886046720	40	5894
2026-01-11 02:59:26.87	313.54	28.93	-32.6	-33.8	30.7	3.02e+01	54	27	0	887619584	40	5942
2026-01-11 02:59:27.89	313.79	28.76	-32.8	-34.0	30.6	3.02e+01	59	28	0	889716736	40	6066
2026-01-11 02:59:28.90	314.03	28.60	-32.8	-34.0	30.5	3.02e+01	45	27	0	891813888	40	6118
2026-01-11 02:59:29.90	314.27	28.43	-32.8	-34.0	30.5	3.02e+01	57	27	0	893386752	40	6074
2026-01-11 02:59:30.91	314.50	28.27	-32.8	-34.0	30.6	3.02e+01	60	28	0	895483904	40	6084
2026-01-11 02:59:31.92	314.73	28.10	-32.8	-34.0	30.5	3.02e+01	44	27	0	897581056	40	6109
2026-01-11 02:59:32.93	314.96	27.94	-32.8	-34.0	30.6	3.02e+01	60	27	0	899153920	40	6070
2026-01-11 02:59:33.94	315.19	27.77	-32.9	-34.1	30.4	3.02e+01	59	27	0	901251072	40	6139
2026-01-11 02:59:34.95	315.42	27.61	-32.9	-34.1	30.3	3.02e+01	59	27	0	902823936	40	6172
2026-01-11 02:59:35.96	315.64	27.44	-32.9	-34.1	30.3	3.02e+01	58	27	0	904921088	40	6175
2026-01-11 02:59:36.97	315.86	27.28	-33.0	-34.2	30.4	3.02e+01	59	28	0	907018240	40	6220
2026-01-11 02:59:37.98	316.08	27.12	-32.9	-34.1	30.4	3.02e+01	61	27	0	908591104	40	6158
2026-01-11 02:59:38.99	316.30	26.96	-32.9	-34.1	30.3	3.02e+01	61	27	0	910688256	40	6184
2026-01-11 02:59:40.00	316.51	26.80	-33.1	-34.2	30.3	3.02e+01	46	28	0	912261120	40	6260
2026-01-11 02:59:41.01	316.72	26.64	-33.0	-34.1	30.3	3.02e+01	57	27	0	914358272	40	6190
2026-01-11 02:59:42.02	316.93	26.48	-33.0	-34.2	30.3	3.02e+01	59	28	0	916455424	40	6230
2026-01-11 02:59:43.02	317.14	26.32	-33.1	-34.3	30.2	3.02e+01	58	28	0	918028288	40	6305
2026-01-11 02:59:44.03	317.35	26.16	-33.2	-34.3	30.3	3.02e+01	62	28	0	920125440	40	6338
2026-01-11 02:59:45.04	317.55	26.00	-33.3	-34.5	30.1	3.02e+01	58	27	0	922222592	40	6479
2026-01-11 02:59:46.05	317.75	25.85	-33.5	-34.6	30.0	3.02e+01	59	28	0	923795456	40	6571
2026-01-11 02:59:47.07	317.95	25.69	-33.5	-34.7	29.9	3.02e+01	61	28	0	925892608	40	6586
2026-01-11 02:59:48.08	318.15	25.53	-33.3	-34.5	30.0	3.02e+01	44	28	0	927465472	40	6469
2026-01-11 02:59:49.08	318.34	25.38	-33.4	-34.5	29.9	3.02e+01	62	28	0	929562624	40	6496
2026-01-11 02:59:50.09	318.54	25.23	-33.4	-34.6	29.8	3.02e+01	52	28	0	931659776	40	6527
2026-01-11 02:59:51.11	318.73	25.07	-33.3	-34.5	30.0	3.02e+01	61	28	0	933232640	40	6432
2026-01-11 02:59:52.11	318.92	24.92	-33.2	-34.3	30.1	3.02e+01	61	28	0	935329792	40	6328
2026-01-11 02:59:53.12	319.11	24.77	-33.1	-34.3	30.2	3.02e+01	51	27	0	936902656	40	6325
2026-01-11 02:59:54.13	319.29	24.62	-33.1	-34.3	30.2	3.02e+01	61	28	0	938999808	40	6307
2026-01-11 02:59:55.14	319.48	24.46	-33.3	-34.5	30.0	3.02e+01	60	28	0	941096960	40	6434
2026-01-11 02:59:56.15	319.66	24.31	-33.5	-34.7	29.8	3.02e+01	55	28	0	942669824	40	6628
2026-01-11 02:59:57.16	319.84	24.16	-33.3	-34.4	30.0	3.02e+01	60	28	0	944766976	40	6423
2026-01-11 02:59:58.17	320.02	24.02	-33.3	-34.5	29.9	3.02e+01	52	28	0	946339840	40	6459
2026-01-11 02:59:59.18	320.20	23.87	-33.2	-34.4	30.1	3.02e+01	58	28	0	948436992	40	6353
2026-01-11 03:00:00.19	320.38	23.72	-33.1	-34.2	30.2	3.02e+01	59	28	0	950534144	40	6275
2026-01-11 03:00:01.20	320.55	23.57	-33.0	-34.2	30.2	3.02e+01	44	28	0	952107008	40	6250
2026-01-11 03:00:02.21	320.72	23.43	-33.1	-34.3	30.2	3.02e+01	55	28	0	954204160	40	6300
2026-01-11 03:00:03.22	320.89	23.28	-33.3	-34.4	30.1	3.02e+01	60	28	0	955777024	40	6412
2026-01-11 03:00:04.23	321.06	23.13	-33.4	-34.6	29.9	3.02e+01	60	28	0	957874176	40	6531
2026-01-11 03:00:05.24	321.23	22.99	-33.3	-34.5	30.0	3.02e+01	51	28	0	959971328	40	6479
2026-01-11 03:00:06.24	321.39	22.85	-33.5	-34.7	29.9	3.02e+01	50	28	0	961544192	40	6579
2026-01-11 03:00:07.26	321.56	22.70	-33.4	-34.6	30.0	3.02e+01	60	28	0	963641344	40	6531
2026-01-11 03:00:08.26	321.72	22.56	-33.5	-34.7	29.8	3.02e+01	56	28	0	965738496	40	6645
2026-01-11 03:00:09.27	321.88	22.42	-33.5	-34.7	29.9	3.02e+01	45	28	0	967311360	40	6577
2026-01-11 03:00:10.28	322.04	22.28	-33.4	-34.6	29.8	3.02e+01	58	28	0	969408512	40	6568
2026-01-11 03:00:11.29	322.20	22.14	-33.4	-34.6	29.8	3.02e+01	57	28	0	970981376	40	6540
2026-01-11 03:00:12.30	322.36	22.00	-33.3	-34.5	29.8	3.02e+01	58	28	0	973078528	40	6478
2026-01-11 03:00:13.31	322.51	21.86	-33.6	-34.8	29.7	3.02e+01	57	28	0	975175680	40	6714
2026-01-11 03:00:14.32	322.67	21.72	-33.2	-34.4	30.1	3.02e+01	63	28	0	976748544	40	6358
2026-01-11 03:00:15.33	322.82	21.58	-33.2	-34.4	30.1	3.02e+01	62	28	0	978845696	40	6369
2026-01-11 03:00:16.34	322.97	21.44	-33.1	-34.3	30.1	3.02e+01	59	28	0	980418560	40	6336
2026-01-11 03:00:17.35	323.12	21.31	-33.1	-34.3	30.2	3.02e+01	46	28	0	982515712	40	6322
2026-01-11 03:00:18.36	323.27	21.17	-33.1	-34.3	30.2	3.02e+01	59	28	0	984612864	40	6309
2026-01-11 03:00:19.37	323.42	21.04	-33.2	-34.3	30.1	3.02e+01	61	28	0	986185728	40	6338
2026-01-11 03:00:20.38	323.56	20.90	-33.2	-34.4	30.0	3.02e+01	60	28	0	988282880	40	6370
2026-01-11 03:00:21.39	323.71	20.77	-33.2	-34.4	30.2	3.02e+01	56	28	0	990380032	40	6356
2026-01-11 03:00:22.40	323.85	20.63	-33.1	-34.3	30.1	3.02e+01	56	28	0	991952896	40	6316
2026-01-11 03:00:23.41	323.99	20.50	-33.2	-34.4	30.1	3.02e+01	60	28	0	994050048	40	6352
2026-01-11 03:00:24.41	324.13	20.37	-33.2	-34.4	30.0	3.02e+01	60	28	0	995622912	40	6391
2026-01-11 03:00:25.42	324.27	20.24	-33.2	-34.4	30.1	3.02e+01	45	28	0	997720064	40	6366
2026-01-11 03:00:26.43	324.41	20.10	-33.2	-34.4	30.0	3.02e+01	59	28	0	999817216	40	6372
2026-01-11 03:00:27.44	324.55	19.97	-33.3	-34.4	30.0	3.02e+01	41	28	0	1001390080	40	6411
2026-01-11 03:00:28.45	324.69	19.84	-33.3	-34.5	30.1	3.02e+01	61	28	0	1003487232	40	6470
2026-01-11 03:00:29.46	324.82	19.71	-33.3	-34.5	30.0	3.02e+01	58	28	0	1005060096	40	6431
2026-01-11 03:00:30.47	324.95	19.59	-33.2	-34.3	30.1	3.02e+01	48	28	0	1007157248	40	6349
2026-01-11 03:00:31.48	325.09	19.46	-33.0	-34.2	30.2	3.02e+01	60	28	0	1009254400	40	6210
2026-01-11 03:00:32.49	325.22	19.33	-33.0	-34.2	30.2	3.02e+01	56	28	0	1010827264	40	6219
2026-01-11 03:00:33.50	325.35	19.20	-32.9	-34.1	30.3	3.02e+01	59	28	0	1012924416	40	6151
2026-01-11 03:00:34.51	325.48	19.08	-33.1	-34.3	30.1	3.02e+01	60	28	0	1014497280	40	6300
2026-01-11 03:00:35.52	325.61	18.95	-32.9	-34.1	30.2	3.02e+01	48	28	0	1016594432	40	6178
2026-01-11 03:00:36.53	325.73	18.82	-33.1	-34.2	30.1	3.02e+01	63	28	0	1018691584	40	6269
2026-01-11 03:00:37.54	325.86	18.70	-33.1	-34.2	30.2	3.02e+01	60	28	0	1020264448	40	6263
2026-01-11 03:00:38.55	325.99	18.57	-33.2	-34.3	30.1	3.02e+01	45	28	0	1022361600	40	6337
2026-01-11 03:00:39.56	326.11	18.45	-33.1	-34.3	30.1	3.02e+01	61	28	0	1023934464	40	6288
2026-01-11 03:00:40.57	326.23	18.33	-33.0	-34.2	30.2	3.02e+01	60	28	0	1026031616	40	6234
2026-01-11 03:00:41.58	326.35	18.21	-33.1	-34.3	30.1	3.02e+01	55	28	0	1028128768	40	6302
2026-01-11 03:00:42.59	326.48	18.08	-33.1	-34.3	30.1	3.02e+01	60	28	0	1029701632	40	6306
2026-01-11 03:00:43.59	326.59	17.96	-33.0	-34.2	30.1	3.02e+01	53	28	0	1031798784	40	6246
2026-01-11 03:00:44.61	326.71	17.84	-33.1	-34.2	30.1	3.02e+01	57	28	0	1033895936	40	6264
2026-01-11 03:00:45.62	326.83	17.72	-33.1	-34.3	30.1	3.02e+01	60	28	0	1035468800	40	6316
2026-01-11 03:00:46.63	326.95	17.60	-33.0	-34.2	30.0	3.02e+01	53	28	0	1037565952	40	6252
2026-01-11 03:00:47.63	327.07	17.48	-32.9	-34.1	30.2	3.02e+01	59	28	0	1039138816	40	6180
2026-01-11 03:00:48.64	327.18	17.36	-32.9	-34.1	30.2	3.02e+01	59	28	0	1041235968	40	6156
2026-01-11 03:00:49.65	327.29	17.25	-33.0	-34.2	30.2	3.02e+01	59	28	0	1043333120	40	6212
2026-01-11 03:00:50.66	327.41	17.13	-32.9	-34.1	30.3	3.02e+01	58	28	0	1044905984	40	6161
2026-01-11 03:00:51.67	327.52	17.01	-32.9	-34.1	30.3	3.02e+01	50	28	0	1047003136	40	6159
2026-01-11 03:00:52.68	327.63	16.89	-33.0	-34.1	30.2	3.02e+01	56	28	0	1048576000	40	6185
2026-01-11 03:00:53.69	327.74	16.78	-32.9	-34.1	30.3	3.02e+01	60	28	0	1050673152	40	6137
2026-01-11 03:00:54.70	327.85	16.66	-33.0	-34.2	30.2	3.02e+01	44	28	0	1052770304	40	6208
2026-01-11 03:00:55.71	327.96	16.55	-32.9	-34.1	30.2	3.02e+01	59	28	0	1054343168	40	6189
2026-01-11 03:00:56.72	328.07	16.43	-33.0	-34.2	30.1	3.02e+01	56	28	0	1056440320	40	6248
2026-01-11 03:00:57.73	328.18	16.32	-33.1	-34.2	30.1	3.02e+01	58	28	0	1058537472	40	6253
2026-01-11 03:00:58.73	328.28	16.21	-33.0	-34.1	30.2	3.02e+01	59	28	0	1060110336	40	6194
2026-01-11 03:00:59.74	328.39	16.09	-33.0	-34.1	30.2	3.02e+01	55	28	0	1062207488	40	6191
2026-01-11 03:01:00.76	328.50	15.98	-33.1	-34.3	30.1	3.02e+01	60	28	0	1063780352	40	6328
2026-01-11 03:01:01.76	328.60	15.87	-33.0	-34.2	30.2	3.02e+01	59	28	0	1065877504	40	6225
2026-01-11 03:01:02.78	328.70	15.75	-33.1	-34.2	30.1	3.02e+01	45	28	0	1067450368	40	6263
2026-01-11 03:01:03.79	328.81	15.64	-33.1	-34.3	30.0	3.02e+01	61	28	0	1069547520	40	6320
2026-01-11 03:01:04.79	328.91	15.53	-33.1	-34.2	30.1	3.02e+01	64	28	0	1071644672	40	6277
2026-01-11 03:01:05.80	329.01	15.42	-33.1	-34.3	30.0	3.02e+01	60	28	0	1073217536	40	6344
2026-01-11 03:01:06.81	329.11	15.31	-33.1	-34.3	30.0	3.02e+01	64	28	0	1075314688	40	6327
2026-01-11 03:01:07.82	329.21	15.20	-33.2	-34.4	29.9	3.02e+01	54	28	0	1076887552	40	6389
2026-01-11 03:01:08.83	329.31	15.10	-33.2	-34.4	29.9	3.02e+01	60	28	0	1078984704	40	6421
2026-01-11 03:01:09.84	329.40	14.99	-33.3	-34.5	29.9	3.02e+01	59	28	0	1081081856	40	6472
2026-01-11 03:01:10.85	329.50	14.88	-33.3	-34.5	29.8	3.02e+01	57	28	0	1082654720	40	6480
2026-01-11 03:01:11.86	329.60	14.77	-33.5	-34.7	29.8	3.02e+01	57	28	0	1084751872	40	6590
2026-01-11 03:01:12.87	329.69	14.67	-33.3	-34.5	29.9	3.02e+01	44	28	0	1086849024	40	6479
2026-01-11 03:01:13.88	329.79	14.56	-33.2	-34.4	29.9	3.02e+01	59	28	0	1088421888	40	6388
2026-01-11 03:01:14.89	329.88	14.45	-33.3	-34.5	29.9	3.02e+01	57	28	0	1090519040	40	6427
2026-01-11 03:01:15.90	329.98	14.35	-33.2	-34.4	29.9	3.02e+01	46	28	0	1092091904	40	6402
2026-01-11 03:01:16.91	330.07	14.24	-33.2	-34.4	29.8	3.02e+01	61	28	0	1094189056	40	6411
2026-01-11 03:01:17.92	330.16	14.14	-33.3	-34.5	29.8	3.02e+01	62	28	0	1096286208	40	6447
2026-01-11 03:01:18.93	330.26	14.03	-33.4	-34.6	29.7	3.02e+01	56	28	0	1097859072	40	6548
2026-01-11 03:01:19.94	330.35	13.93	-33.2	-34.4	29.8	3.02e+01	60	28	0	1099956224	40	6396
2026-01-11 03:01:20.95	330.44	13.83	-33.3	-34.5	29.8	3.02e+01	56	28	0	1102053376	40	6452
2026-01-11 03:01:21.96	330.53	13.72	-33.3	-34.5	29.8	3.02e+01	60	28	0	1103626240	40	6478
2026-01-11 03:01:22.97	330.62	13.62	-33.4	-34.6	29.7	3.02e+01	59	28	0	1105723392	40	6550
2026-01-11 03:01:23.98	330.70	13.52	-33.6	-34.8	29.6	3.02e+01	51	28	0	1107296256	40	6664
2026-01-11 03:01:24.99	330.79	13.42	-33.4	-34.6	29.7	3.02e+01	58	28	0	1109393408	40	6524
2026-01-11 03:01:26.00	330.88	13.31	-33.4	-34.6	29.7	3.02e+01	61	28	0	1111490560	40	6522
2026-01-11 03:01:27.01	330.97	13.21	-33.4	-34.6	29.7	3.02e+01	59	28	0	1113063424	40	6512
2026-01-11 03:01:28.02	331.05	13.11	-33.4	-34.6	29.7	3.02e+01	59	28	0	1115160576	40	6556
2026-01-11 03:01:29.03	331.14	13.01	-33.6	-34.8	29.6	3.02e+01	46	28	0	1116733440	40	6666
2026-01-11 03:01:30.04	331.22	12.91	-33.4	-34.6	29.6	3.02e+01	59	28	0	1118830592	40	6562
2026-01-11 03:01:31.05	331.31	12.81	-33.6	-34.8	29.5	3.02e+01	61	28	0	1120927744	40	6670
2026-01-11 03:01:32.06	331.39	12.72	-33.5	-34.7	29.6	3.02e+01	45	28	0	1122500608	40	6637
2026-01-11 03:01:33.07	331.48	12.62	-33.5	-34.7	29.6	3.02e+01	57	28	0	1124597760	40	6622
2026-01-11 03:01:34.08	331.56	12.52	-33.5	-34.7	29.7	3.02e+01	50	28	0	1126694912	40	6592
2026-01-11 03:01:35.09	331.64	12.42	-33.5	-34.7	29.6	3.02e+01	60	28	0	1128267776	40	6614
2026-01-11 03:01:36.10	331.72	12.32	-33.6	-34.8	29.5	3.02e+01	54	28	0	1130364928	40	6691
2026-01-11 03:01:37.11	331.80	12.23	-33.8	-35.0	29.4	3.02e+01	57	28	0	1131937792	40	6826
2026-01-11 03:01:38.12	331.88	12.13	-33.9	-35.1	29.2	3.02e+01	58	28	0	1134034944	42	6137
2026-01-11 03:01:39.13	331.96	12.03	-33.8	-35.0	29.3	3.02e+01	58	28	0	1136132096	42	6076
2026-01-11 03:01:40.14	332.04	11.94	-33.9	-35.1	29.2	3.02e+01	59	28	0	1137704960	42	6182
2026-01-11 03:01:41.15	332.12	11.84	-33.8	-35.0	29.3	3.02e+01	59	28	0	1139802112	42	6118
2026-01-11 03:01:42.16	332.20	11.75	-34.0	-35.2	29.1	3.02e+01	46	28	0	1141374976	42	6257
2026-01-11 03:01:43.17	332.28	11.65	-33.8	-35.0	29.3	3.02e+01	60	28	0	1143472128	42	6100
2026-01-11 03:01:44.18	332.36	11.56	-33.7	-34.9	29.3	3.02e+01	61	28	0	1145569280	42	6054
2026-01-11 03:01:45.18	332.43	11.47	-33.8	-35.0	29.2	3.02e+01	47	28	0	1147142144	42	6133
2026-01-11 03:01:46.19	332.51	11.37	-33.8	-35.0	29.3	3.02e+01	56	28	0	1149239296	42	6094
2026-01-11 03:01:47.20	332.59	11.28	-33.9	-35.1	29.2	3.02e+01	55	28	0	1150812160	42	6182
2026-01-11 03:01:48.21	332.66	11.19	-34.0	-35.2	29.1	3.02e+01	57	28	0	1152909312	42	6231
2026-01-11 03:01:49.22	332.74	11.09	-33.8	-35.0	29.3	3.02e+01	58	28	0	1155006464	42	6130
2026-01-11 03:01:50.23	332.81	11.00	-33.9	-35.1	29.1	3.02e+01	61	28	0	1156579328	42	6155
2026-01-11 03:01:51.24	332.89	10.91	-34.0	-35.2	29.0	3.02e+01	60	28	0	1158676480	42	6277
2026-01-11 03:01:52.25	332.96	10.82	-33.9	-35.2	29.1	3.02e+01	60	28	0	1160249344	42	6219
2026-01-11 03:01:53.26	333.03	10.73	-34.0	-35.2	29.1	3.02e+01	45	28	0	1162346496	42	6231
2026-01-11 03:01:54.27	333.10	10.64	-34.0	-35.2	29.0	3.02e+01	58	28	0	1164443648	42	6251
2026-01-11 03:01:55.28	333.18	10.55	-33.9	-35.2	29.1	3.02e+01	58	28	0	1166016512	42	6223
2026-01-11 03:01:56.29	333.25	10.46	-34.0	-35.2	29.0	3.02e+01	61	28	0	1168113664	42	6266
2026-01-11 03:01:57.30	333.32	10.37	-34.1	-35.3	29.0	3.02e+01	60	28	0	1169686528	42	6314
2026-01-11 03:01:58.31	333.39	10.28	-33.9	-35.1	29.1	3.02e+01	53	28	0	1171783680	42	6202
2026-01-11 03:01:59.32	333.46	10.19	-34.0	-35.2	29.0	3.02e+01	59	28	0	1173880832	42	6254
2026-01-11 03:02:00.33	333.53	10.10	-34.0	-35.2	29.0	3.02e+01	63	28	0	1175453696	42	6245
2026-01-11 03:02:01.34	333.60	10.01	-34.1	-35.3	29.0	3.02e+01	48	28	0	1177550848	42	6296
2026-01-11 03:02:02.35	333.67	9.92	-34.2	-35.4	28.9	3.02e+01	61	28	0	1179648000	42	6376
2026-01-11 03:02:03.36	333.74	9.83	-34.2	-35.4	28.9	3.02e+01	59	29	0	1181220864	42	6393
2026-01-11 03:02:04.37	333.81	9.75	-34.2	-35.5	28.7	3.02e+01	57	28	0	1183318016	42	6444
2026-01-11 03:02:05.38	333.88	9.66	-34.2	-35.5	28.8	3.02e+01	59	29	0	1184890880	42	6439
2026-01-11 03:02:06.39	333.94	9.57	-34.3	-35.5	28.8	3.02e+01	47	28	0	1186988032	42	6462
2026-01-11 03:02:07.40	334.01	9.49	-34.3	-35.6	28.7	3.02e+01	62	29	0	1189085184	42	6514
2026-01-11 03:02:08.41	334.08	9.40	-34.7	-44.9	3.4	3.02e+01	0	28	104	1190133760	42	19156
2026-01-11 03:02:09.42	334.14	9.31	-34.7	-45.0	3.4	3.02e+01	0	28	104	1190133760	42	19237
