passes_logs/2026/01/11/R4.6S_Anadyr/R4.6S_Anadyr__20260111_144005_NOAA_20_JPSS-1_rec.log

#Pass ID: 20260111_144005_NOAA 20 (JPSS-1)
#Satellite: NOAA 20 (JPSS-1)
#Configuration: NOAA 20
#almurnet v.1.7.20251203
#Start time: 2026-01-11 14:40:07

#Version: 2.2.20231116
#Station: R4.6S_Anadyr
#Location: 177.4865 lon 64.73178 lat
#TLE: 1 43013U 17073A   26010.88944318  .00000078  00000+0  57801-4 0  9992
#TLE: 2 43013  98.7631 311.8723 0001655  45.1140 315.0170 14.19535117422152

#Time	Az	El	Level	Level2	SNR	BER	BlckErr	Temp	State	Recorded	gain1	gain2
2026-01-11 14:40:07.84	20.41	0.13	-48.0	-62.9	3.5	1.51e+00	0	24	0	0	60	50588
2026-01-11 14:40:08.85	20.41	0.19	-48.1	-63.3	3.6	1.51e+00	0	26	104	0	60	52707
2026-01-11 14:40:09.86	20.42	0.25	-48.1	-63.4	3.6	1.51e+00	0	26	104	0	60	53292
2026-01-11 14:40:10.87	20.43	0.31	-48.1	-63.4	3.6	1.51e+00	0	26	104	0	60	53636
2026-01-11 14:40:11.88	20.43	0.37	-48.1	-63.3	3.6	1.51e+00	0	26	104	0	60	52990
2026-01-11 14:40:12.89	20.44	0.43	-48.2	-63.3	3.6	1.51e+00	0	26	104	0	60	53153
2026-01-11 14:40:13.90	20.44	0.49	-48.2	-63.4	3.6	1.51e+00	0	26	104	0	60	53399
2026-01-11 14:40:14.91	20.45	0.56	-48.1	-63.4	3.6	1.51e+00	0	26	104	0	60	53251
2026-01-11 14:40:15.92	20.46	0.62	-48.2	-63.3	3.6	1.51e+00	0	26	104	0	60	53138
2026-01-11 14:40:16.93	20.46	0.68	-48.1	-63.3	3.6	1.51e+00	0	26	104	0	60	52778
2026-01-11 14:40:17.94	20.47	0.74	-48.0	-63.2	3.6	1.51e+00	0	26	104	0	60	52161
2026-01-11 14:40:18.95	20.48	0.80	-48.0	-63.1	3.6	1.51e+00	0	26	104	0	60	51707
2026-01-11 14:40:19.96	20.48	0.86	-47.8	-63.0	3.6	1.51e+00	0	26	104	0	60	50784
2026-01-11 14:40:20.97	20.49	0.93	-47.6	-62.8	3.6	1.51e+00	0	26	104	0	60	49998
2026-01-11 14:40:21.98	20.50	0.99	-47.5	-62.6	3.6	1.51e+00	0	26	104	0	60	48967
2026-01-11 14:40:22.99	20.50	1.05	-47.3	-62.4	3.6	1.51e+00	0	26	104	0	60	47619
2026-01-11 14:40:24.00	20.51	1.11	-47.0	-62.1	3.5	1.51e+00	0	26	104	0	60	46161
2026-01-11 14:40:25.01	20.51	1.17	-46.6	-61.8	3.6	1.51e+00	0	26	104	0	60	44502
2026-01-11 14:40:26.02	20.52	1.24	-46.6	-61.8	3.6	1.51e+00	0	26	104	0	60	44358
2026-01-11 14:40:27.03	20.53	1.30	-46.6	-61.8	3.6	1.51e+00	0	26	104	0	60	44288
2026-01-11 14:40:28.03	20.53	1.36	-46.6	-61.6	3.6	1.51e+00	0	26	104	0	60	43683
2026-01-11 14:40:29.04	20.54	1.43	-46.6	-61.7	3.6	1.51e+00	0	26	104	0	60	43935
2026-01-11 14:40:30.05	20.55	1.49	-46.6	-61.7	3.6	1.51e+00	0	26	104	0	60	43874
2026-01-11 14:40:31.07	20.55	1.55	-46.6	-61.7	3.6	1.51e+00	0	26	104	0	60	43711
2026-01-11 14:40:32.07	20.56	1.62	-46.6	-61.6	3.6	1.51e+00	0	26	104	0	60	43495
2026-01-11 14:40:33.09	20.57	1.68	-46.6	-61.7	3.6	1.51e+00	0	26	104	0	60	43850
2026-01-11 14:40:34.10	20.57	1.74	-46.5	-61.7	3.6	1.51e+00	0	26	104	0	60	43980
2026-01-11 14:40:35.11	20.58	1.81	-46.6	-61.7	3.6	1.51e+00	0	26	104	0	60	44206
2026-01-11 14:40:36.12	20.58	1.87	-46.5	-61.7	3.6	1.51e+00	0	26	104	0	60	44012
2026-01-11 14:40:37.13	20.59	1.94	-46.5	-61.7	3.6	1.51e+00	0	26	104	0	60	43813
2026-01-11 14:40:38.14	20.60	2.00	-46.5	-61.7	3.6	1.51e+00	0	26	104	0	60	44079
2026-01-11 14:40:39.15	20.60	2.06	-46.5	-61.7	3.6	1.51e+00	0	26	104	0	60	44060
2026-01-11 14:40:40.16	20.61	2.13	-46.5	-61.7	3.6	1.51e+00	0	26	104	0	60	44213
2026-01-11 14:40:41.17	20.62	2.19	-46.5	-61.7	3.6	1.51e+00	0	26	104	0	60	44017
2026-01-11 14:40:42.18	20.62	2.26	-46.5	-61.6	3.6	1.51e+00	0	26	104	0	60	43517
2026-01-11 14:40:43.19	20.63	2.32	-46.5	-61.3	3.6	1.51e+00	0	26	104	0	60	42084
2026-01-11 14:40:44.20	20.64	2.39	-46.5	-60.9	3.6	1.51e+00	0	26	104	0	60	40061
2026-01-11 14:40:45.21	20.64	2.45	-46.5	-60.5	3.6	1.51e+00	0	26	104	0	60	38174
2026-01-11 14:40:46.22	20.65	2.52	-46.5	-60.1	3.6	1.51e+00	0	26	104	0	60	36568
2026-01-11 14:40:47.23	20.66	2.58	-46.4	-59.6	3.6	1.50e+00	0	26	104	0	60	34591
2026-01-11 14:40:48.24	20.66	2.65	-46.4	-59.3	3.6	1.49e+00	0	26	104	0	60	33334
2026-01-11 14:40:49.25	20.67	2.72	-46.4	-59.4	3.6	1.49e+00	0	26	104	0	60	33892
2026-01-11 14:40:50.25	20.67	2.78	-46.4	-59.2	3.6	1.49e+00	0	26	104	0	60	33033
2026-01-11 14:40:51.26	20.68	2.85	-46.4	-57.9	3.8	1.46e+00	0	26	0	0	60	28234
2026-01-11 14:40:52.27	20.69	2.91	-46.2	-56.6	4.7	1.34e+00	0	26	104	0	60	24469
2026-01-11 14:40:53.28	20.69	2.98	-45.9	-53.6	6.2	3.98e-01	0	26	0	1048576	60	17239
2026-01-11 14:40:54.29	20.70	3.05	-45.4	-51.3	8.7	7.98e-02	0	26	0	3145728	60	13348
2026-01-11 14:40:55.30	20.71	3.11	-44.9	-49.9	10.5	1.27e-02	0	26	0	4194304	60	11260
2026-01-11 14:40:56.31	20.71	3.18	-44.5	-48.7	11.9	6.47e-04	0	26	0	6291456	60	9840
2026-01-11 14:40:57.32	20.72	3.25	-43.8	-47.3	13.6	3.20e-05	0	26	0	8388608	60	8336
2026-01-11 14:40:58.34	20.73	3.32	-43.1	-46.1	14.5	7.00e-07	0	26	0	10485760	60	7275
2026-01-11 14:40:59.34	20.73	3.38	-43.0	-45.8	14.9	0.00e+00	0	26	0	12582912	60	7040
2026-01-11 14:41:00.36	20.74	3.45	-42.8	-45.4	15.2	0.00e+00	0	26	0	13631488	60	6755
2026-01-11 14:41:01.37	20.75	3.52	-42.7	-45.3	15.3	0.00e+00	0	26	0	15728640	58	7470
2026-01-11 14:41:02.38	20.75	3.59	-42.7	-45.4	15.2	0.00e+00	0	26	0	17825792	58	7556
2026-01-11 14:41:03.39	20.76	3.66	-43.0	-45.8	14.8	0.00e+00	0	26	0	19922944	58	7933
2026-01-11 14:41:04.39	20.77	3.72	-43.6	-46.8	13.7	7.00e-07	0	26	0	22020096	58	8916
2026-01-11 14:41:05.40	20.77	3.79	-44.2	-48.1	12.5	4.34e-05	0	26	0	23068672	60	9231
2026-01-11 14:41:06.41	20.78	3.86	-43.2	-46.1	15.4	5.45e-04	0	26	0	25165824	60	7302
2026-01-11 14:41:07.42	20.79	3.93	-40.6	-42.3	18.5	0.00e+00	0	26	0	27262976	56	5927
2026-01-11 14:41:08.43	20.79	4.00	-43.5	-46.7	13.9	1.50e-06	0	26	0	29360128	60	7780
2026-01-11 14:41:09.44	20.80	4.07	-46.1	-54.7	4.9	9.21e-01	0	26	104	30408704	60	19698
2026-01-11 14:41:10.45	20.81	4.14	-41.0	-42.9	16.9	4.38e-01	0	26	104	30408704	54	7094
2026-01-11 14:41:11.46	20.81	4.21	-46.5	-61.2	3.6	1.51e+00	0	26	104	30408704	60	41526
2026-01-11 14:41:12.47	20.82	4.28	-42.9	-45.5	15.6	5.94e-03	0	26	0	31457280	60	6798
2026-01-11 14:41:13.48	20.83	4.35	-41.6	-43.6	17.3	0.00e+00	0	26	0	32505856	56	6915
2026-01-11 14:41:14.49	20.83	4.42	-41.5	-43.4	17.4	0.00e+00	0	26	0	34603008	56	6713
2026-01-11 14:41:15.50	20.84	4.49	-41.2	-43.0	18.0	0.00e+00	0	26	0	36700160	56	6418
2026-01-11 14:41:16.51	20.85	4.56	-41.0	-42.7	18.1	0.00e+00	0	26	0	38797312	56	6240
2026-01-11 14:41:17.52	20.85	4.63	-41.0	-42.7	18.3	0.00e+00	0	26	0	40894464	56	6197
2026-01-11 14:41:18.53	20.86	4.70	-40.8	-42.5	18.4	0.00e+00	0	26	0	41943040	56	6056
2026-01-11 14:41:19.54	20.87	4.77	-40.5	-42.1	18.7	0.00e+00	0	26	0	44040192	54	6520
2026-01-11 14:41:20.55	20.88	4.84	-40.7	-42.3	18.5	0.00e+00	0	26	0	46137344	54	6657
2026-01-11 14:41:21.56	20.88	4.91	-40.3	-41.9	19.0	0.00e+00	0	26	0	48234496	54	6361
2026-01-11 14:41:22.56	20.89	4.98	-40.2	-41.8	19.1	0.00e+00	0	26	0	50331648	54	6258
2026-01-11 14:41:23.57	20.90	5.06	-40.3	-41.8	19.2	0.00e+00	0	26	0	51380224	54	6272
2026-01-11 14:41:24.58	20.90	5.13	-40.2	-41.7	19.2	0.00e+00	0	27	0	53477376	54	6231
2026-01-11 14:41:25.59	20.91	5.20	-40.4	-41.9	19.0	0.00e+00	0	26	0	55574528	54	6366
2026-01-11 14:41:26.60	20.92	5.27	-40.2	-41.7	19.3	0.00e+00	0	26	0	57671680	54	6199
2026-01-11 14:41:27.61	20.92	5.34	-40.4	-41.9	19.1	0.00e+00	0	26	0	59768832	54	6345
2026-01-11 14:41:28.62	20.93	5.42	-40.3	-41.8	19.1	0.00e+00	0	26	0	61865984	54	6289
2026-01-11 14:41:29.63	20.94	5.49	-40.1	-41.6	19.5	0.00e+00	0	26	0	62914560	54	6117
2026-01-11 14:41:30.64	20.94	5.56	-40.0	-41.5	19.5	0.00e+00	0	26	0	65011712	54	6063
2026-01-11 14:41:31.65	20.95	5.64	-40.0	-41.5	19.4	0.00e+00	0	26	0	67108864	54	6069
2026-01-11 14:41:32.66	20.96	5.71	-40.1	-41.6	19.4	0.00e+00	0	26	0	69206016	54	6114
2026-01-11 14:41:33.67	20.97	5.78	-40.0	-41.5	19.6	0.00e+00	0	26	0	71303168	54	6044
2026-01-11 14:41:34.68	20.97	5.86	-40.0	-41.5	19.6	0.00e+00	0	26	0	72351744	54	6059
2026-01-11 14:41:35.69	20.98	5.93	-40.1	-41.5	19.5	0.00e+00	0	26	0	74448896	54	6098
2026-01-11 14:41:36.70	20.99	6.01	-39.9	-41.3	19.7	0.00e+00	0	26	0	76546048	54	5939
2026-01-11 14:41:37.71	20.99	6.08	-39.8	-41.2	19.8	0.00e+00	0	26	0	78643200	54	5867
2026-01-11 14:41:38.72	21.00	6.16	-39.9	-41.3	19.8	0.00e+00	0	26	0	80740352	54	5916
2026-01-11 14:41:39.73	21.01	6.23	-39.8	-41.2	20.0	0.00e+00	0	26	0	81788928	52	6549
2026-01-11 14:41:40.74	21.01	6.31	-39.9	-41.2	19.8	0.00e+00	0	26	0	83886080	52	6615
2026-01-11 14:41:41.75	21.02	6.38	-39.8	-41.2	19.9	0.00e+00	0	26	0	85983232	52	6575
2026-01-11 14:41:42.75	21.03	6.46	-39.8	-41.2	19.9	0.00e+00	0	26	0	88080384	52	6603
2026-01-11 14:41:43.77	21.04	6.53	-39.9	-41.3	19.9	0.00e+00	0	26	0	90177536	52	6626
2026-01-11 14:41:44.77	21.04	6.61	-39.8	-41.1	20.1	0.00e+00	0	26	0	91226112	52	6530
2026-01-11 14:41:45.78	21.05	6.69	-39.7	-41.1	20.0	0.00e+00	0	26	0	93323264	52	6488
2026-01-11 14:41:46.79	21.06	6.76	-39.9	-41.3	19.9	0.00e+00	0	26	0	95420416	52	6673
2026-01-11 14:41:47.80	21.06	6.84	-39.8	-41.2	20.0	0.00e+00	0	26	0	97517568	52	6542
2026-01-11 14:41:48.81	21.07	6.92	-39.7	-41.0	20.2	0.00e+00	0	26	0	99614720	52	6449
2026-01-11 14:41:49.82	21.08	6.99	-39.6	-41.0	20.2	0.00e+00	0	26	0	100663296	52	6397
2026-01-11 14:41:50.83	21.09	7.07	-39.7	-41.0	20.2	0.00e+00	0	27	0	102760448	52	6435
2026-01-11 14:41:51.84	21.09	7.15	-39.6	-40.9	20.4	0.00e+00	0	26	0	104857600	52	6342
2026-01-11 14:41:52.85	21.10	7.23	-39.6	-40.9	20.3	0.00e+00	0	26	0	106954752	52	6339
2026-01-11 14:41:53.86	21.11	7.31	-39.5	-40.8	20.5	0.00e+00	0	26	0	109051904	52	6265
2026-01-11 14:41:54.87	21.11	7.39	-39.4	-40.7	20.5	0.00e+00	0	26	0	110100480	52	6223
2026-01-11 14:41:55.87	21.12	7.46	-39.5	-40.7	20.5	0.00e+00	0	26	0	112197632	52	6239
2026-01-11 14:41:56.88	21.13	7.54	-39.6	-40.9	20.4	0.00e+00	0	27	0	114294784	52	6320
2026-01-11 14:41:57.89	21.14	7.62	-39.4	-40.7	20.5	0.00e+00	0	26	0	116391936	52	6217
2026-01-11 14:41:58.90	21.14	7.70	-39.3	-40.6	20.7	0.00e+00	0	27	0	118489088	52	6128
2026-01-11 14:41:59.91	21.15	7.78	-39.4	-40.6	20.6	0.00e+00	0	26	0	119537664	52	6160
2026-01-11 14:42:00.92	21.16	7.86	-39.4	-40.6	20.6	0.00e+00	0	26	0	121634816	52	6153
2026-01-11 14:42:01.93	21.17	7.94	-39.2	-40.5	20.8	0.00e+00	0	26	0	123731968	52	6043
2026-01-11 14:42:02.94	21.17	8.02	-39.4	-40.6	20.7	0.00e+00	0	26	0	125829120	52	6139
2026-01-11 14:42:03.95	21.18	8.10	-39.3	-40.5	20.8	0.00e+00	0	26	0	127926272	52	6055
2026-01-11 14:42:04.96	21.19	8.18	-39.3	-40.5	20.8	0.00e+00	0	26	0	130023424	52	6063
2026-01-11 14:42:05.97	21.20	8.26	-39.2	-40.5	20.9	0.00e+00	0	26	0	131072000	52	6055
2026-01-11 14:42:06.98	21.20	8.35	-39.2	-40.5	20.9	0.00e+00	0	27	0	133169152	52	6048
2026-01-11 14:42:07.99	21.21	8.43	-39.3	-40.5	20.8	0.00e+00	0	26	0	135266304	52	6070
2026-01-11 14:42:09.00	21.22	8.51	-39.1	-40.3	21.0	0.00e+00	0	26	0	137363456	52	5897
2026-01-11 14:42:10.01	21.23	8.59	-39.0	-40.2	21.1	0.00e+00	0	26	0	139460608	52	5852
2026-01-11 14:42:11.02	21.23	8.68	-39.1	-40.3	21.1	0.00e+00	0	26	0	140509184	52	5902
2026-01-11 14:42:12.03	21.24	8.76	-39.0	-40.1	21.2	0.00e+00	0	26	0	142606336	52	5821
2026-01-11 14:42:13.04	21.25	8.84	-39.0	-40.2	21.1	0.00e+00	0	26	0	144703488	52	5843
2026-01-11 14:42:14.05	21.26	8.92	-39.0	-40.2	21.0	0.00e+00	0	26	0	146800640	52	5878
2026-01-11 14:42:15.06	21.26	9.01	-39.2	-40.4	21.1	0.00e+00	0	26	0	147849216	52	5981
2026-01-11 14:42:16.07	21.27	9.09	-38.9	-40.1	21.3	0.00e+00	0	27	0	149946368	52	5792
2026-01-11 14:42:17.07	21.28	9.18	-38.8	-40.0	21.3	0.00e+00	0	27	0	152043520	52	5731
2026-01-11 14:42:18.08	21.29	9.26	-39.0	-40.2	21.2	0.00e+00	0	26	0	154140672	52	5830
2026-01-11 14:42:19.09	21.29	9.35	-38.8	-40.0	21.4	0.00e+00	0	26	0	156237824	52	5699
2026-01-11 14:42:20.10	21.30	9.43	-38.8	-40.0	21.4	0.00e+00	0	26	0	158334976	52	5704
2026-01-11 14:42:21.11	21.31	9.52	-38.7	-39.9	21.4	0.00e+00	0	26	0	159383552	50	6345
2026-01-11 14:42:22.12	21.32	9.60	-38.7	-39.9	21.5	0.00e+00	0	26	0	161480704	50	6341
2026-01-11 14:42:23.14	21.32	9.69	-38.8	-39.9	21.5	0.00e+00	0	27	0	163577856	50	6369
2026-01-11 14:42:24.15	21.33	9.78	-38.6	-39.7	21.6	0.00e+00	0	26	0	165675008	50	6240
2026-01-11 14:42:25.15	21.34	9.86	-38.7	-39.8	21.6	0.00e+00	0	27	0	167772160	50	6312
2026-01-11 14:42:26.16	21.35	9.95	-38.8	-39.9	21.4	0.00e+00	0	27	0	168820736	50	6374
2026-01-11 14:42:27.17	21.36	10.04	-38.6	-39.7	21.7	0.00e+00	0	27	0	170917888	50	6189
2026-01-11 14:42:28.18	21.36	10.12	-38.7	-39.8	21.5	0.00e+00	0	26	0	173015040	50	6279
2026-01-11 14:42:29.19	21.37	10.21	-38.6	-39.8	21.6	0.00e+00	0	27	0	175112192	50	6257
2026-01-11 14:42:30.20	21.38	10.30	-38.7	-39.8	21.5	0.00e+00	0	27	0	177209344	50	6264
2026-01-11 14:42:31.21	21.39	10.39	-38.6	-39.8	21.7	0.00e+00	0	27	0	178257920	50	6248
2026-01-11 14:42:32.22	21.39	10.48	-38.4	-39.5	21.8	0.00e+00	0	27	0	180355072	50	6092
2026-01-11 14:42:33.23	21.40	10.57	-38.5	-39.5	21.8	0.00e+00	0	26	0	182452224	50	6096
2026-01-11 14:42:34.24	21.41	10.66	-38.5	-39.6	21.7	0.00e+00	0	27	0	184549376	50	6156
2026-01-11 14:42:35.25	21.42	10.75	-38.4	-39.5	21.9	0.00e+00	0	27	0	186646528	50	6066
2026-01-11 14:42:36.26	21.43	10.84	-38.5	-39.6	21.8	0.00e+00	0	27	0	187695104	50	6136
2026-01-11 14:42:37.27	21.43	10.93	-38.5	-39.6	21.8	0.00e+00	0	27	0	189792256	50	6141
2026-01-11 14:42:38.28	21.44	11.02	-38.4	-39.5	22.0	0.00e+00	0	26	0	191889408	50	6050
2026-01-11 14:42:39.29	21.45	11.11	-38.4	-39.5	21.9	0.00e+00	0	27	0	193986560	50	6044
2026-01-11 14:42:40.30	21.46	11.20	-38.3	-39.4	22.0	0.00e+00	0	27	0	196083712	50	5980
2026-01-11 14:42:41.31	21.47	11.29	-38.2	-39.3	22.0	0.00e+00	0	27	0	198180864	50	5925
2026-01-11 14:42:42.32	21.48	11.38	-38.3	-39.3	22.1	0.00e+00	0	27	0	199229440	50	5954
2026-01-11 14:42:43.33	21.48	11.48	-38.3	-39.4	22.0	0.00e+00	0	27	0	201326592	50	5967
2026-01-11 14:42:44.34	21.49	11.57	-38.2	-39.2	22.1	0.00e+00	0	27	0	203423744	50	5884
2026-01-11 14:42:45.35	21.50	11.66	-38.2	-39.3	22.2	0.00e+00	0	27	0	205520896	50	5917
2026-01-11 14:42:46.36	21.51	11.76	-38.2	-39.2	22.2	0.00e+00	0	27	0	207618048	50	5860
2026-01-11 14:42:47.37	21.52	11.85	-38.1	-39.2	22.2	0.00e+00	0	27	0	208666624	50	5831
2026-01-11 14:42:48.38	21.52	11.94	-38.1	-39.1	22.3	0.00e+00	0	27	0	210763776	50	5788
2026-01-11 14:42:49.39	21.53	12.04	-38.1	-39.2	22.3	0.00e+00	0	27	0	212860928	50	5835
2026-01-11 14:42:50.40	21.54	12.13	-38.1	-39.2	22.2	0.00e+00	0	27	0	214958080	50	5837
2026-01-11 14:42:51.41	21.55	12.23	-38.1	-39.1	22.3	0.00e+00	0	27	0	217055232	50	5820
2026-01-11 14:42:52.42	21.56	12.32	-37.9	-39.0	22.4	0.00e+00	0	27	0	218103808	50	5703
2026-01-11 14:42:53.43	21.57	12.42	-38.0	-39.1	22.4	0.00e+00	0	27	0	220200960	50	5765
2026-01-11 14:42:54.43	21.58	12.52	-38.1	-39.2	22.3	0.00e+00	0	27	0	222298112	50	5842
2026-01-11 14:42:55.44	21.58	12.61	-38.1	-39.1	22.3	0.00e+00	0	27	0	224395264	50	5812
2026-01-11 14:42:56.45	21.59	12.71	-38.1	-39.1	22.4	0.00e+00	0	27	0	226492416	50	5783
2026-01-11 14:42:57.46	21.60	12.81	-37.9	-38.9	22.5	0.00e+00	0	27	0	227540992	50	5670
2026-01-11 14:42:58.47	21.61	12.91	-38.0	-39.1	22.4	0.00e+00	0	27	0	229638144	50	5771
2026-01-11 14:42:59.48	21.62	13.01	-37.9	-38.9	22.6	0.00e+00	0	27	0	231735296	50	5643
2026-01-11 14:43:00.49	21.63	13.10	-37.8	-38.8	22.6	0.00e+00	0	27	0	233832448	50	5568
2026-01-11 14:43:01.50	21.64	13.20	-37.9	-38.9	22.6	0.00e+00	0	27	0	235929600	50	5634
2026-01-11 14:43:02.51	21.64	13.30	-37.8	-38.8	22.7	0.00e+00	0	27	0	236978176	48	6258
2026-01-11 14:43:03.52	21.65	13.40	-37.8	-38.8	22.6	0.00e+00	0	27	0	239075328	48	6264
2026-01-11 14:43:04.53	21.66	13.50	-37.6	-38.6	22.8	0.00e+00	0	27	0	241172480	48	6140
2026-01-11 14:43:05.54	21.67	13.61	-37.7	-38.7	22.7	0.00e+00	0	27	0	243269632	48	6223
2026-01-11 14:43:06.55	21.68	13.71	-37.7	-38.7	22.7	0.00e+00	0	27	0	245366784	48	6235
2026-01-11 14:43:07.56	21.69	13.81	-37.7	-38.6	22.8	0.00e+00	0	27	0	246415360	48	6161
2026-01-11 14:43:08.57	21.70	13.91	-37.6	-38.6	22.9	0.00e+00	0	27	0	248512512	48	6106
2026-01-11 14:43:09.58	21.71	14.01	-37.5	-38.5	22.9	0.00e+00	0	27	0	250609664	48	6075
2026-01-11 14:43:10.58	21.71	14.12	-37.6	-38.6	22.9	0.00e+00	0	27	0	252706816	48	6132
2026-01-11 14:43:11.59	21.72	14.22	-37.5	-38.5	22.9	0.00e+00	0	27	0	254803968	48	6079
2026-01-11 14:43:12.60	21.73	14.32	-37.5	-38.4	22.9	0.00e+00	0	27	0	255852544	48	6016
2026-01-11 14:43:13.61	21.74	14.43	-37.4	-38.4	23.0	0.00e+00	0	27	0	257949696	48	5999
2026-01-11 14:43:14.62	21.75	14.53	-37.5	-38.4	23.1	0.00e+00	0	27	0	260046848	48	6016
2026-01-11 14:43:15.63	21.76	14.64	-37.5	-38.4	23.1	0.00e+00	0	27	0	262144000	48	6008
2026-01-11 14:43:16.64	21.77	14.74	-37.5	-38.5	22.9	0.00e+00	0	27	0	264241152	48	6067
2026-01-11 14:43:17.65	21.78	14.85	-37.4	-38.3	23.1	0.00e+00	0	27	0	265289728	48	5954
2026-01-11 14:43:18.66	21.79	14.96	-37.4	-38.3	23.1	0.00e+00	0	27	0	267386880	48	5944
2026-01-11 14:43:19.67	21.80	15.06	-37.5	-38.4	23.0	0.00e+00	0	27	0	269484032	48	6007
2026-01-11 14:43:20.68	21.81	15.17	-37.4	-38.4	23.0	0.00e+00	0	27	0	271581184	48	5987
2026-01-11 14:43:21.69	21.81	15.28	-37.3	-38.3	23.2	0.00e+00	0	27	0	273678336	48	5917
2026-01-11 14:43:22.70	21.82	15.39	-37.3	-38.2	23.2	0.00e+00	0	27	0	274726912	48	5857
2026-01-11 14:43:23.71	21.83	15.50	-37.3	-38.2	23.3	0.00e+00	0	27	0	276824064	48	5889
2026-01-11 14:43:24.72	21.84	15.61	-37.3	-38.2	23.3	0.00e+00	0	27	0	278921216	48	5849
2026-01-11 14:43:25.73	21.85	15.72	-37.3	-38.2	23.2	0.00e+00	0	27	0	281018368	48	5879
2026-01-11 14:43:26.74	21.86	15.83	-37.4	-38.3	23.2	0.00e+00	0	27	0	283115520	48	5941
2026-01-11 14:43:27.75	21.87	15.94	-37.3	-38.3	23.2	0.00e+00	0	27	0	284164096	48	5911
2026-01-11 14:43:28.76	21.88	16.05	-37.2	-38.1	23.3	0.00e+00	0	27	0	286261248	48	5786
2026-01-11 14:43:29.77	21.89	16.16	-37.2	-38.1	23.3	0.00e+00	0	27	0	288358400	48	5827
2026-01-11 14:43:30.78	21.90	16.28	-37.1	-38.0	23.4	0.00e+00	0	27	0	290455552	48	5757
2026-01-11 14:43:31.79	21.91	16.39	-37.1	-38.0	23.5	0.00e+00	0	27	0	292552704	48	5711
2026-01-11 14:43:32.80	21.92	16.50	-37.1	-38.0	23.4	0.00e+00	0	27	0	294649856	48	5758
2026-01-11 14:43:33.80	21.93	16.62	-37.1	-38.0	23.5	0.00e+00	0	27	0	295698432	48	5748
2026-01-11 14:43:34.81	21.94	16.73	-37.3	-38.3	23.2	0.00e+00	0	27	0	297795584	48	5897
2026-01-11 14:43:35.82	21.95	16.85	-37.2	-38.1	23.3	0.00e+00	0	27	0	299892736	48	5806
2026-01-11 14:43:36.83	21.96	16.96	-37.3	-38.2	23.2	0.00e+00	0	27	0	301989888	48	5881
2026-01-11 14:43:37.84	21.97	17.08	-37.1	-38.0	23.5	0.00e+00	0	27	0	304087040	48	5755
2026-01-11 14:43:38.85	21.98	17.20	-37.0	-37.9	23.5	0.00e+00	0	27	0	305135616	48	5688
2026-01-11 14:43:39.86	21.99	17.31	-37.1	-38.0	23.4	0.00e+00	0	27	0	307232768	48	5729
2026-01-11 14:43:40.87	22.00	17.43	-37.0	-37.9	23.5	0.00e+00	0	27	0	309329920	48	5676
2026-01-11 14:43:41.88	22.01	17.55	-37.0	-37.9	23.5	0.00e+00	0	27	0	311427072	48	5686
2026-01-11 14:43:42.89	22.02	17.67	-37.0	-38.0	23.5	0.00e+00	0	27	0	313524224	48	5699
2026-01-11 14:43:43.90	22.03	17.79	-37.1	-38.0	23.5	0.00e+00	0	27	0	314572800	48	5715
2026-01-11 14:43:44.91	22.04	17.91	-37.0	-37.9	23.6	0.00e+00	0	27	0	316669952	48	5682
2026-01-11 14:43:45.92	22.05	18.03	-37.0	-37.8	23.6	0.00e+00	0	27	0	318767104	48	5630
2026-01-11 14:43:46.93	22.06	18.15	-37.0	-38.0	23.6	0.00e+00	0	27	0	320864256	48	5699
2026-01-11 14:43:47.94	22.07	18.27	-36.9	-37.8	23.7	0.00e+00	0	27	0	322961408	48	5593
2026-01-11 14:43:48.95	22.08	18.40	-37.0	-37.9	23.6	0.00e+00	0	27	0	324009984	48	5653
2026-01-11 14:43:49.96	22.09	18.52	-37.1	-38.0	23.5	0.00e+00	0	27	0	326107136	48	5730
2026-01-11 14:43:50.97	22.10	18.64	-37.1	-38.0	23.5	0.00e+00	0	27	0	328204288	48	5702
2026-01-11 14:43:51.98	22.11	18.77	-37.0	-37.9	23.5	0.00e+00	0	27	0	330301440	48	5675
2026-01-11 14:43:52.99	22.12	18.90	-37.0	-37.9	23.6	0.00e+00	0	27	0	332398592	48	5677
2026-01-11 14:43:54.00	22.13	19.02	-37.1	-38.0	23.5	0.00e+00	0	27	0	333447168	48	5734
2026-01-11 14:43:55.01	22.14	19.15	-37.1	-38.0	23.5	0.00e+00	0	27	0	335544320	48	5710
2026-01-11 14:43:56.02	22.15	19.28	-37.1	-38.0	23.5	0.00e+00	0	27	0	337641472	48	5736
2026-01-11 14:43:57.03	22.17	19.40	-37.2	-38.1	23.5	0.00e+00	0	27	0	339738624	48	5773
2026-01-11 14:43:58.04	22.18	19.53	-37.1	-38.0	23.6	0.00e+00	0	27	0	341835776	48	5703
2026-01-11 14:43:59.05	22.19	19.66	-37.1	-38.0	23.5	0.00e+00	0	27	0	342884352	48	5711
2026-01-11 14:44:00.06	22.20	19.79	-37.1	-38.0	23.5	0.00e+00	0	27	0	344981504	48	5756
2026-01-11 14:44:01.07	22.21	19.92	-37.1	-38.0	23.6	0.00e+00	0	27	0	347078656	48	5711
2026-01-11 14:44:02.07	22.22	20.05	-37.1	-38.0	23.4	0.00e+00	0	27	0	349175808	48	5755
2026-01-11 14:44:03.08	22.23	20.18	-37.1	-38.0	23.6	0.00e+00	0	27	0	351272960	48	5713
2026-01-11 14:44:04.09	22.24	20.32	-37.1	-38.0	23.5	0.00e+00	0	27	0	352321536	48	5760
2026-01-11 14:44:05.10	22.25	20.45	-37.1	-38.0	23.6	0.00e+00	0	27	0	354418688	48	5745
2026-01-11 14:44:06.11	22.27	20.58	-37.1	-38.0	23.5	0.00e+00	0	28	0	356515840	48	5752
2026-01-11 14:44:07.12	22.28	20.72	-37.2	-38.1	23.4	0.00e+00	0	28	0	358612992	48	5788
2026-01-11 14:44:08.13	22.29	20.85	-37.1	-38.0	23.5	0.00e+00	0	28	0	360710144	48	5752
2026-01-11 14:44:09.14	22.30	20.99	-37.2	-38.1	23.5	0.00e+00	0	27	0	362807296	48	5790
2026-01-11 14:44:10.15	22.31	21.13	-37.2	-38.2	23.4	0.00e+00	0	28	0	363855872	48	5831
2026-01-11 14:44:11.16	22.32	21.27	-37.2	-38.1	23.5	0.00e+00	0	28	0	365953024	48	5776
2026-01-11 14:44:12.17	22.34	21.40	-37.1	-38.0	23.5	0.00e+00	0	28	0	368050176	48	5747
2026-01-11 14:44:13.18	22.35	21.54	-37.1	-38.0	23.5	0.00e+00	0	27	0	370147328	48	5744
2026-01-11 14:44:14.18	22.36	21.68	-37.1	-38.0	23.5	0.00e+00	0	27	0	372244480	48	5751
2026-01-11 14:44:15.20	22.37	21.83	-37.2	-38.1	23.5	0.00e+00	0	27	0	373293056	48	5814
2026-01-11 14:44:16.20	22.38	21.97	-37.2	-38.1	23.5	0.00e+00	0	28	0	375390208	48	5768
2026-01-11 14:44:17.21	22.40	22.11	-37.2	-38.2	23.5	0.00e+00	0	27	0	377487360	48	5838
2026-01-11 14:44:18.22	22.41	22.25	-37.1	-38.0	23.6	0.00e+00	0	27	0	379584512	48	5751
2026-01-11 14:44:19.23	22.42	22.40	-37.1	-38.0	23.6	0.00e+00	0	28	0	381681664	48	5712
2026-01-11 14:44:20.24	22.43	22.54	-37.2	-38.1	23.5	0.00e+00	0	28	0	382730240	48	5808
2026-01-11 14:44:21.25	22.44	22.69	-37.2	-38.1	23.5	0.00e+00	0	28	0	384827392	48	5796
2026-01-11 14:44:22.26	22.46	22.83	-37.3	-38.2	23.4	0.00e+00	0	28	0	386924544	48	5885
2026-01-11 14:44:23.27	22.47	22.98	-37.3	-38.2	23.4	0.00e+00	0	27	0	389021696	48	5845
2026-01-11 14:44:24.28	22.48	23.13	-37.3	-38.2	23.4	0.00e+00	0	28	0	391118848	48	5868
2026-01-11 14:44:25.29	22.50	23.28	-37.3	-38.2	23.4	0.00e+00	0	28	0	392167424	48	5877
2026-01-11 14:44:26.30	22.51	23.43	-37.5	-38.4	23.2	0.00e+00	0	28	0	394264576	48	6004
2026-01-11 14:44:27.31	22.52	23.58	-37.4	-38.4	23.2	0.00e+00	0	27	0	396361728	48	5983
2026-01-11 14:44:28.31	22.53	23.73	-37.4	-38.3	23.3	0.00e+00	0	28	0	398458880	48	5944
2026-01-11 14:44:29.32	22.55	23.88	-37.3	-38.3	23.3	0.00e+00	0	28	0	400556032	48	5910
2026-01-11 14:44:30.33	22.56	24.04	-37.3	-38.2	23.4	0.00e+00	0	28	0	401604608	48	5847
2026-01-11 14:44:31.34	22.57	24.19	-37.4	-38.3	23.2	0.00e+00	0	28	0	403701760	48	5922
2026-01-11 14:44:32.35	22.59	24.35	-37.3	-38.2	23.4	0.00e+00	0	28	0	405798912	48	5854
2026-01-11 14:44:33.36	22.60	24.50	-37.4	-38.3	23.3	0.00e+00	0	28	0	407896064	48	5943
2026-01-11 14:44:34.37	22.61	24.66	-37.4	-38.3	23.3	0.00e+00	0	28	0	409993216	48	5947
2026-01-11 14:44:35.38	22.63	24.82	-37.3	-38.2	23.4	0.00e+00	0	28	0	411041792	48	5853
2026-01-11 14:44:36.39	22.64	24.98	-37.4	-38.4	23.3	0.00e+00	0	28	0	413138944	48	5995
2026-01-11 14:44:37.40	22.65	25.14	-37.4	-38.4	23.3	0.00e+00	0	28	0	415236096	48	5988
2026-01-11 14:44:38.41	22.67	25.30	-37.3	-38.3	23.4	0.00e+00	0	28	0	417333248	48	5900
2026-01-11 14:44:39.42	22.68	25.46	-37.4	-38.3	23.3	0.00e+00	0	28	0	419430400	48	5958
2026-01-11 14:44:40.42	22.70	25.62	-37.5	-38.4	23.3	0.00e+00	0	28	0	420478976	48	5994
2026-01-11 14:44:41.44	22.71	25.79	-37.6	-38.5	23.1	0.00e+00	0	28	0	422576128	48	6087
2026-01-11 14:44:42.45	22.73	25.95	-37.6	-38.5	23.2	0.00e+00	0	28	0	424673280	48	6088
2026-01-11 14:44:43.45	22.74	26.12	-37.6	-38.5	23.2	0.00e+00	0	28	0	426770432	48	6068
2026-01-11 14:44:44.46	22.75	26.28	-37.7	-38.7	23.1	0.00e+00	0	28	0	428867584	48	6188
2026-01-11 14:44:45.47	22.77	26.45	-37.8	-38.7	23.0	0.00e+00	0	28	0	430964736	48	6244
2026-01-11 14:44:46.48	22.78	26.62	-37.7	-38.6	23.1	0.00e+00	0	28	0	432013312	48	6147
2026-01-11 14:44:47.49	22.80	26.79	-37.8	-38.8	23.0	0.00e+00	0	28	0	434110464	48	6283
2026-01-11 14:44:48.50	22.81	26.96	-38.0	-39.0	22.8	0.00e+00	0	28	0	436207616	48	6401
2026-01-11 14:44:49.51	22.83	27.14	-38.1	-39.1	22.7	0.00e+00	0	28	0	438304768	48	6482
2026-01-11 14:44:50.52	22.84	27.31	-38.1	-39.1	22.7	0.00e+00	0	28	0	440401920	48	6481
2026-01-11 14:44:51.53	22.86	27.49	-38.3	-39.3	22.5	0.00e+00	0	28	0	441450496	48	6655
2026-01-11 14:44:52.54	22.87	27.66	-38.4	-39.4	22.3	0.00e+00	0	28	0	443547648	48	6761
2026-01-11 14:44:53.55	22.89	27.84	-38.6	-39.7	22.1	0.00e+00	0	28	0	445644800	48	6969
2026-01-11 14:44:54.56	22.91	28.02	-38.6	-39.6	22.2	0.00e+00	0	28	0	447741952	50	6169
2026-01-11 14:44:55.57	22.92	28.20	-38.6	-39.6	22.2	0.00e+00	0	28	0	449839104	50	6138
2026-01-11 14:44:56.58	22.94	28.38	-38.8	-39.9	21.9	0.00e+00	0	28	0	450887680	50	6364
2026-01-11 14:44:57.59	22.95	28.56	-38.7	-39.8	22.1	0.00e+00	0	28	0	452984832	50	6290
2026-01-11 14:44:58.60	22.97	28.74	-38.9	-40.0	21.9	0.00e+00	0	28	0	455081984	50	6401
2026-01-11 14:44:59.61	22.99	28.93	-39.2	-40.3	21.6	0.00e+00	0	28	0	457179136	50	6681
2026-01-11 14:45:00.61	23.00	29.11	-39.3	-40.4	21.5	0.00e+00	0	28	0	459276288	50	6762
2026-01-11 14:45:01.62	23.02	29.30	-39.5	-40.6	21.2	0.00e+00	0	28	0	460324864	50	6922
2026-01-11 14:45:02.63	23.04	29.48	-39.5	-40.7	21.2	0.00e+00	0	28	0	462422016	50	6952
2026-01-11 14:45:03.64	23.05	29.67	-39.5	-40.7	21.1	0.00e+00	0	28	0	464519168	50	6948
2026-01-11 14:45:04.65	23.07	29.86	-39.6	-40.8	21.1	0.00e+00	0	28	0	466616320	50	7052
2026-01-11 14:45:05.66	23.09	30.05	-39.7	-40.9	21.0	0.00e+00	0	28	0	468713472	50	7154
2026-01-11 14:45:06.67	23.10	30.25	-39.6	-40.8	21.1	0.00e+00	0	28	0	469762048	50	7064
2026-01-11 14:45:07.68	23.12	30.44	-39.7	-41.0	21.1	0.00e+00	0	28	0	471859200	52	6392
2026-01-11 14:45:08.69	23.14	30.64	-39.8	-41.1	20.9	0.00e+00	0	28	0	473956352	52	6503
2026-01-11 14:45:09.70	23.16	30.83	-39.7	-40.9	21.1	0.00e+00	0	28	0	476053504	52	6358
2026-01-11 14:45:10.71	23.18	31.03	-39.6	-40.9	21.1	0.00e+00	0	28	0	478150656	52	6319
2026-01-11 14:45:11.72	23.19	31.23	-39.6	-40.8	21.2	0.00e+00	0	28	0	479199232	52	6316
2026-01-11 14:45:12.73	23.21	31.43	-39.5	-40.7	21.3	0.00e+00	0	28	0	481296384	52	6180
2026-01-11 14:45:13.74	23.23	31.63	-39.6	-40.8	21.2	0.00e+00	0	28	0	483393536	52	6299
2026-01-11 14:45:14.75	23.25	31.84	-39.8	-41.0	21.1	0.00e+00	0	28	0	485490688	52	6404
2026-01-11 14:45:15.76	23.27	32.04	-39.8	-41.0	20.9	0.00e+00	0	28	0	487587840	52	6446
2026-01-11 14:45:16.77	23.29	32.25	-39.7	-40.9	21.1	0.00e+00	0	28	0	488636416	52	6364
2026-01-11 14:45:17.78	23.31	32.46	-39.5	-40.7	21.2	0.00e+00	0	28	0	490733568	52	6235
2026-01-11 14:45:18.79	23.33	32.67	-39.5	-40.8	21.3	0.00e+00	0	28	0	492830720	52	6252
2026-01-11 14:45:19.79	23.35	32.88	-39.6	-40.8	21.2	0.00e+00	0	28	0	494927872	52	6276
2026-01-11 14:45:20.80	23.37	33.09	-39.4	-40.5	21.4	0.00e+00	0	28	0	497025024	52	6099
2026-01-11 14:45:21.81	23.39	33.30	-39.5	-40.7	21.3	0.00e+00	0	28	0	499122176	52	6226
2026-01-11 14:45:22.82	23.41	33.52	-39.3	-40.4	21.6	0.00e+00	0	28	0	500170752	52	6005
2026-01-11 14:45:23.83	23.43	33.73	-39.1	-40.2	21.7	0.00e+00	0	28	0	502267904	52	5882
2026-01-11 14:45:24.84	23.45	33.95	-38.8	-39.8	21.7	0.00e+00	0	28	0	504365056	52	5615
2026-01-11 14:45:25.85	23.47	34.17	-38.5	-39.5	22.3	0.00e+00	0	28	0	506462208	50	6070
2026-01-11 14:45:26.86	23.49	34.39	-38.3	-39.3	22.5	0.00e+00	0	28	0	508559360	50	5915
2026-01-11 14:45:27.87	23.51	34.62	-38.2	-39.2	22.6	0.00e+00	0	28	0	509607936	50	5884
2026-01-11 14:45:28.88	23.53	34.84	-38.0	-39.0	22.9	0.00e+00	0	28	0	511705088	50	5720
2026-01-11 14:45:29.89	23.56	35.07	-37.9	-38.9	23.0	0.00e+00	0	28	0	513802240	50	5671
2026-01-11 14:45:30.90	23.58	35.30	-37.7	-38.7	23.2	0.00e+00	0	28	0	515899392	48	6187
2026-01-11 14:45:31.91	23.60	35.53	-37.4	-38.3	23.4	0.00e+00	0	28	0	517996544	48	5947
2026-01-11 14:45:32.92	23.62	35.76	-37.3	-38.2	23.6	0.00e+00	0	28	0	519045120	48	5883
2026-01-11 14:45:33.93	23.65	35.99	-37.3	-38.2	23.6	0.00e+00	0	28	0	521142272	48	5842
2026-01-11 14:45:34.94	23.67	36.23	-37.1	-38.0	23.8	0.00e+00	0	28	0	523239424	48	5700
2026-01-11 14:45:35.95	23.69	36.46	-37.0	-37.8	23.8	0.00e+00	0	28	0	525336576	48	5625
2026-01-11 14:45:36.96	23.72	36.70	-37.1	-38.0	23.7	0.00e+00	0	28	0	527433728	48	5737
2026-01-11 14:45:37.97	23.74	36.94	-36.7	-37.6	24.1	0.00e+00	0	28	0	528482304	46	6132
2026-01-11 14:45:38.98	23.77	37.18	-36.7	-37.5	24.1	0.00e+00	0	28	0	530579456	46	6071
2026-01-11 14:45:39.99	23.79	37.43	-36.5	-37.4	24.2	0.00e+00	0	28	0	532676608	46	5997
2026-01-11 14:45:41.00	23.82	37.67	-36.6	-37.4	24.2	0.00e+00	0	28	0	534773760	46	6027
2026-01-11 14:45:42.01	23.84	37.92	-36.5	-37.3	24.3	0.00e+00	0	28	0	536870912	46	5938
2026-01-11 14:45:43.02	23.87	38.17	-36.6	-37.4	24.0	0.00e+00	0	28	0	537919488	46	6007
2026-01-11 14:45:44.03	23.89	38.42	-36.4	-37.3	24.0	0.00e+00	0	28	0	540016640	46	5915
2026-01-11 14:45:45.04	23.92	38.67	-36.6	-37.5	24.2	0.00e+00	0	28	0	542113792	46	6041
2026-01-11 14:45:46.05	23.95	38.93	-36.5	-37.4	24.3	0.00e+00	0	28	0	544210944	46	5990
2026-01-11 14:45:47.06	23.97	39.18	-36.3	-37.2	24.5	0.00e+00	0	28	0	546308096	46	5839
2026-01-11 14:45:48.06	24.00	39.44	-36.3	-37.1	24.5	0.00e+00	0	28	0	547356672	46	5783
2026-01-11 14:45:49.07	24.03	39.70	-36.2	-37.0	24.6	0.00e+00	0	28	0	549453824	46	5748
2026-01-11 14:45:50.08	24.06	39.96	-36.0	-36.8	24.8	0.00e+00	0	28	0	551550976	46	5615
2026-01-11 14:45:51.09	24.09	40.23	-35.8	-36.6	25.0	0.00e+00	0	28	0	553648128	46	5488
2026-01-11 14:45:52.10	24.11	40.49	-35.9	-36.6	24.9	0.00e+00	0	28	0	555745280	46	5502
2026-01-11 14:45:53.11	24.14	40.76	-36.1	-36.9	24.8	0.00e+00	0	28	0	556793856	46	5640
2026-01-11 14:45:54.12	24.17	41.03	-36.0	-36.8	24.8	0.00e+00	0	28	0	558891008	46	5603
2026-01-11 14:45:55.13	24.20	41.30	-36.4	-37.3	24.4	0.00e+00	0	28	0	560988160	46	5898
2026-01-11 14:45:56.14	24.24	41.58	-36.7	-37.5	24.1	0.00e+00	0	28	0	563085312	46	6073
2026-01-11 14:45:57.15	24.27	41.85	-37.0	-37.9	23.7	0.00e+00	0	28	0	565182464	46	6366
2026-01-11 14:45:58.16	24.30	42.13	-37.2	-38.1	23.7	0.00e+00	0	28	0	567279616	46	6470
2026-01-11 14:45:59.17	24.33	42.41	-37.4	-38.3	23.5	0.00e+00	0	28	0	568328192	46	6626
2026-01-11 14:46:00.18	24.36	42.70	-37.4	-38.3	23.6	0.00e+00	0	28	0	570425344	46	6648
2026-01-11 14:46:01.19	24.40	42.98	-37.2	-38.1	23.7	0.00e+00	0	28	0	572522496	46	6477
2026-01-11 14:46:02.20	24.43	43.27	-37.2	-38.1	23.8	0.00e+00	0	28	0	574619648	46	6467
2026-01-11 14:46:03.21	24.46	43.56	-37.1	-38.0	23.7	0.00e+00	0	28	0	576716800	46	6432
2026-01-11 14:46:04.22	24.50	43.85	-36.9	-37.8	24.0	0.00e+00	0	28	0	577765376	46	6277
2026-01-11 14:46:05.23	24.53	44.14	-37.1	-38.0	23.7	0.00e+00	0	28	0	579862528	46	6448
2026-01-11 14:46:06.24	24.57	44.44	-37.5	-38.4	23.5	0.00e+00	0	28	0	581959680	46	6703
2026-01-11 14:46:07.25	24.61	44.74	-37.8	-38.8	23.1	0.00e+00	0	28	0	584056832	46	7015
2026-01-11 14:46:08.26	24.64	45.04	-38.2	-39.2	22.7	0.00e+00	0	28	0	586153984	48	6592
2026-01-11 14:46:09.27	24.68	45.34	-38.6	-39.6	22.1	0.00e+00	0	28	0	587202560	48	6926
2026-01-11 14:46:10.28	24.72	45.65	-38.9	-40.0	21.4	0.00e+00	0	28	0	589299712	50	6414
2026-01-11 14:46:11.29	24.76	45.95	-39.1	-40.1	21.7	0.00e+00	0	28	0	591396864	50	6528
2026-01-11 14:46:12.30	24.80	46.26	-39.4	-40.6	21.5	0.00e+00	0	28	0	593494016	50	6851
2026-01-11 14:46:13.31	24.84	46.58	-39.4	-40.5	21.4	0.00e+00	0	28	0	595591168	50	6829
2026-01-11 14:46:14.32	24.88	46.89	-39.7	-40.9	21.1	0.00e+00	0	28	0	596639744	50	7108
2026-01-11 14:46:15.32	24.92	47.20	-39.5	-40.7	21.3	0.00e+00	0	28	0	598736896	50	6976
2026-01-11 14:46:16.33	24.97	47.52	-39.6	-40.8	21.2	0.00e+00	0	28	0	600834048	50	7074
2026-01-11 14:46:17.34	25.01	47.84	-40.0	-41.2	20.9	0.00e+00	0	28	0	602931200	52	6599
2026-01-11 14:46:18.35	25.05	48.17	-40.2	-41.5	20.6	0.00e+00	0	28	0	605028352	52	6815
2026-01-11 14:46:19.36	25.10	48.50	-40.1	-41.4	20.7	0.00e+00	0	28	0	606076928	52	6745
2026-01-11 14:46:20.37	25.15	48.82	-40.3	-41.6	20.5	0.00e+00	0	28	0	608174080	52	6888
2026-01-11 14:46:21.38	25.19	49.16	-39.8	-41.1	21.0	0.00e+00	0	28	0	610271232	52	6497
2026-01-11 14:46:22.39	25.24	49.49	-39.6	-40.8	21.3	0.00e+00	0	28	0	612368384	52	6283
2026-01-11 14:46:23.40	25.29	49.83	-39.5	-40.7	21.4	0.00e+00	0	28	0	614465536	52	6187
2026-01-11 14:46:24.41	25.34	50.16	-39.3	-40.5	21.4	0.00e+00	0	28	0	615514112	52	6087
2026-01-11 14:46:25.42	25.39	50.51	-39.0	-40.1	21.9	0.00e+00	0	28	0	617611264	52	5776
2026-01-11 14:46:26.43	25.44	50.85	-38.2	-39.2	22.8	0.00e+00	0	28	0	619708416	50	5869
2026-01-11 14:46:27.44	25.50	51.20	-37.7	-38.6	23.3	0.00e+00	0	29	0	621805568	48	6170
2026-01-11 14:46:28.45	25.55	51.55	-36.4	-37.2	24.4	0.00e+00	0	29	0	623902720	46	5871
2026-01-11 14:46:29.46	25.61	51.90	-35.9	-36.7	24.8	0.00e+00	0	29	0	624951296	46	5554
2026-01-11 14:46:30.47	25.66	52.25	-35.6	-36.4	25.1	0.00e+00	0	29	0	627048448	44	5988
2026-01-11 14:46:31.48	25.72	52.61	-35.6	-36.3	25.1	0.00e+00	0	28	0	629145600	44	5957
2026-01-11 14:46:32.49	25.78	52.97	-35.7	-36.5	24.9	0.00e+00	0	28	0	631242752	44	6077
2026-01-11 14:46:33.50	25.84	53.33	-35.8	-36.6	25.0	0.00e+00	0	29	0	633339904	44	6123
2026-01-11 14:46:34.51	25.90	53.69	-35.6	-36.4	25.0	0.00e+00	0	29	0	635437056	44	6003
2026-01-11 14:46:35.52	25.97	54.06	-35.3	-36.1	25.3	0.00e+00	0	29	0	636485632	44	5796
2026-01-11 14:46:36.53	26.03	54.43	-35.4	-36.2	25.3	0.00e+00	0	29	0	638582784	44	5846
2026-01-11 14:46:37.54	26.10	54.80	-35.8	-36.6	25.0	0.00e+00	0	29	0	640679936	44	6144
2026-01-11 14:46:38.54	26.17	55.17	-36.0	-36.8	24.7	0.00e+00	0	29	0	642777088	44	6263
2026-01-11 14:46:39.56	26.24	55.55	-35.9	-36.7	24.8	0.00e+00	0	29	0	643825664	44	6230
2026-01-11 14:46:40.56	26.31	55.93	-35.7	-36.5	25.0	0.00e+00	0	29	0	645922816	44	6052
2026-01-11 14:46:41.57	26.39	56.31	-35.6	-36.4	25.0	0.00e+00	0	29	0	648019968	44	5995
2026-01-11 14:46:42.58	26.46	56.70	-35.9	-36.7	24.9	0.00e+00	0	29	0	650117120	44	6225
2026-01-11 14:46:43.60	26.54	57.09	-36.1	-37.0	24.5	0.00e+00	0	29	0	652214272	44	6397
2026-01-11 14:46:44.60	26.62	57.48	-36.7	-37.6	24.0	0.00e+00	0	29	0	653262848	44	6887
2026-01-11 14:46:45.61	26.70	57.87	-37.1	-38.0	23.6	0.00e+00	0	28	0	655360000	46	6403
2026-01-11 14:46:46.62	26.79	58.27	-37.4	-38.3	23.5	0.00e+00	0	29	0	657457152	46	6680
2026-01-11 14:46:47.64	26.88	58.67	-37.5	-38.4	23.2	0.00e+00	0	29	0	659554304	46	6740
2026-01-11 14:46:48.64	26.96	59.07	-36.8	-37.7	24.0	0.00e+00	0	29	0	661651456	46	6210
2026-01-11 14:46:49.65	27.06	59.47	-36.0	-36.8	24.9	0.00e+00	0	29	0	663748608	46	5616
2026-01-11 14:46:50.66	27.15	59.88	-35.4	-36.2	25.2	0.00e+00	0	29	0	664797184	44	5839
2026-01-11 14:46:51.67	27.25	60.29	-35.1	-35.8	25.3	0.00e+00	0	29	0	666894336	44	5628
2026-01-11 14:46:52.68	27.35	60.70	-34.3	-35.0	26.1	7.00e-07	0	29	0	668991488	42	5712
2026-01-11 14:46:53.69	27.46	61.11	-34.1	-34.9	26.3	0.00e+00	0	29	0	671088640	42	5632
2026-01-11 14:46:54.70	27.56	61.53	-34.3	-35.1	26.3	0.00e+00	0	29	0	673185792	42	5763
2026-01-11 14:46:55.71	27.68	61.95	-34.3	-35.0	26.3	0.00e+00	0	29	0	674234368	42	5736
2026-01-11 14:46:56.72	27.79	62.37	-34.0	-34.7	26.6	0.00e+00	0	29	0	676331520	42	5535
2026-01-11 14:46:57.73	27.91	62.80	-33.9	-34.6	26.5	0.00e+00	0	29	0	678428672	42	5451
2026-01-11 14:46:58.74	28.03	63.22	-34.2	-34.9	26.3	0.00e+00	0	29	0	680525824	42	5662
2026-01-11 14:46:59.75	28.16	63.65	-34.6	-35.4	25.8	0.00e+00	0	29	0	682622976	42	5970
2026-01-11 14:47:00.76	28.29	64.08	-35.2	-36.0	25.4	0.00e+00	0	29	0	683671552	42	6408
2026-01-11 14:47:01.77	28.43	64.52	-35.8	-36.6	24.9	0.00e+00	0	29	0	685768704	44	6127
2026-01-11 14:47:02.78	28.57	64.95	-36.4	-37.2	24.3	0.00e+00	0	29	0	687865856	44	6598
2026-01-11 14:47:03.79	28.72	65.39	-37.3	-38.2	23.4	0.00e+00	0	29	0	689963008	46	6579
2026-01-11 14:47:04.80	28.88	65.84	-37.7	-38.7	23.0	0.00e+00	0	29	0	692060160	48	6181
2026-01-11 14:47:05.81	29.04	66.28	-37.8	-38.8	23.1	0.00e+00	0	29	0	693108736	48	6273
2026-01-11 14:47:06.82	29.20	66.72	-37.6	-38.5	23.3	0.00e+00	0	29	0	695205888	48	6093
2026-01-11 14:47:07.83	29.38	67.17	-37.8	-38.7	23.1	0.00e+00	0	29	0	697303040	48	6207
2026-01-11 14:47:08.84	29.56	67.62	-38.0	-38.9	22.9	0.00e+00	0	29	0	699400192	48	6383
2026-01-11 14:47:09.85	29.75	68.08	-38.1	-39.2	22.7	0.00e+00	0	29	0	701497344	48	6540
2026-01-11 14:47:10.86	29.94	68.53	-38.2	-39.2	22.7	0.00e+00	0	29	0	703594496	48	6554
2026-01-11 14:47:11.87	30.15	68.99	-37.9	-38.9	23.0	0.00e+00	0	29	0	704643072	48	6336
2026-01-11 14:47:12.88	30.37	69.45	-37.1	-38.0	23.7	0.00e+00	0	29	0	706740224	48	5752
2026-01-11 14:47:13.89	30.60	69.91	-36.8	-37.6	24.1	0.00e+00	0	29	0	708837376	48	5492
2026-01-11 14:47:14.90	30.83	70.37	-36.8	-37.7	23.9	0.00e+00	0	29	0	710934528	46	6209
2026-01-11 14:47:15.91	31.08	70.84	-37.0	-37.9	23.8	0.00e+00	0	29	0	713031680	46	6348
2026-01-11 14:47:16.92	31.35	71.30	-37.3	-38.2	23.3	0.00e+00	0	29	0	714080256	46	6564
2026-01-11 14:47:17.92	31.62	71.77	-37.9	-38.9	22.8	0.00e+00	0	29	0	716177408	48	6363
2026-01-11 14:47:18.93	31.91	72.24	-38.2	-39.2	22.4	0.00e+00	0	29	0	718274560	48	6580
2026-01-11 14:47:19.94	32.22	72.71	-38.4	-39.4	22.6	0.00e+00	0	29	0	720371712	48	6726
2026-01-11 14:47:20.95	32.55	73.18	-37.9	-38.8	23.0	0.00e+00	0	29	0	721420288	48	6313
2026-01-11 14:47:21.96	32.90	73.66	-38.3	-39.3	22.5	0.00e+00	0	29	0	723517440	48	6685
2026-01-11 14:47:22.97	33.27	74.13	-39.2	-40.3	21.7	0.00e+00	0	29	0	725614592	50	6680
2026-01-11 14:47:23.98	33.66	74.61	-39.5	-40.6	21.4	0.00e+00	0	29	0	727711744	50	6901
2026-01-11 14:47:24.99	34.08	75.09	-39.1	-40.2	21.8	0.00e+00	0	29	0	729808896	50	6564
2026-01-11 14:47:26.00	34.53	75.57	-38.1	-39.1	22.8	0.00e+00	0	29	0	731906048	50	5768
2026-01-11 14:47:27.00	35.00	76.04	-37.8	-38.8	22.9	0.00e+00	0	29	0	732954624	50	5595
2026-01-11 14:47:28.02	35.52	76.53	-37.2	-38.1	23.7	0.00e+00	0	29	0	735051776	48	5818
2026-01-11 14:47:29.03	36.07	77.01	-37.2	-38.1	23.5	0.00e+00	0	29	0	737148928	48	5814
2026-01-11 14:47:30.03	36.66	77.48	-37.8	-38.8	23.1	0.00e+00	0	29	0	739246080	48	6251
2026-01-11 14:47:31.04	37.30	77.97	-37.7	-38.7	23.2	0.00e+00	0	29	0	741343232	48	6200
2026-01-11 14:47:32.05	38.00	78.45	-36.8	-37.7	23.9	0.00e+00	0	29	0	742391808	48	5521
2026-01-11 14:47:33.06	38.76	78.93	-36.4	-37.2	24.4	0.00e+00	0	29	0	744488960	46	5861
2026-01-11 14:47:34.07	39.60	79.41	-36.0	-36.8	24.7	0.00e+00	0	29	0	746586112	46	5615
2026-01-11 14:47:35.08	40.51	79.89	-35.5	-36.2	25.3	0.00e+00	0	29	0	748683264	44	5882
2026-01-11 14:47:36.09	41.51	80.37	-35.5	-36.3	25.3	0.00e+00	0	29	0	750780416	44	5904
2026-01-11 14:47:37.10	42.62	80.84	-36.0	-36.8	24.4	0.00e+00	0	29	0	751828992	44	6316
2026-01-11 14:47:38.11	43.85	81.31	-38.0	-39.0	22.7	0.00e+00	0	29	0	753926144	48	6446
2026-01-11 14:47:39.12	45.22	81.78	-41.3	-42.9	19.3	0.00e+00	0	29	0	756023296	54	7091
2026-01-11 14:47:40.13	46.76	82.25	-42.2	-44.1	18.1	0.00e+00	0	29	0	758120448	56	7301
2026-01-11 14:47:41.14	48.50	82.71	-40.0	-41.3	20.7	0.00e+00	0	29	0	760217600	54	5944
2026-01-11 14:47:42.15	50.47	83.16	-39.1	-40.2	21.9	0.00e+00	0	29	0	761266176	52	5860
2026-01-11 14:47:43.16	52.72	83.60	-37.7	-38.7	23.2	0.00e+00	0	29	0	763363328	48	6203
2026-01-11 14:47:44.17	55.31	84.04	-37.7	-38.6	23.3	0.00e+00	0	29	0	765460480	48	6132
2026-01-11 14:47:45.18	58.29	84.46	-36.7	-37.5	24.2	0.00e+00	0	29	0	767557632	48	5436
2026-01-11 14:47:46.19	61.76	84.86	-36.3	-37.1	24.6	0.00e+00	0	29	0	769654784	46	5782
2026-01-11 14:47:47.19	65.76	85.24	-36.2	-37.0	24.6	0.00e+00	0	29	0	770703360	46	5737
2026-01-11 14:47:48.21	70.53	85.60	-36.4	-37.2	24.5	0.00e+00	0	29	0	772800512	46	5856
2026-01-11 14:47:49.21	75.98	85.92	-36.6	-37.4	24.3	0.00e+00	0	29	0	774897664	46	6030
2026-01-11 14:47:50.22	82.35	86.20	-36.9	-37.7	23.9	0.00e+00	0	29	0	776994816	46	6220
2026-01-11 14:47:51.24	89.70	86.42	-37.5	-38.3	23.3	0.00e+00	0	29	0	779091968	46	6688
2026-01-11 14:47:52.24	97.72	86.58	-37.9	-38.9	22.9	0.00e+00	0	29	0	780140544	48	6341
2026-01-11 14:47:53.26	106.50	86.66	-38.4	-39.5	22.5	0.00e+00	0	29	0	782237696	48	6773
2026-01-11 14:47:54.27	115.44	86.67	-38.3	-39.3	22.6	0.00e+00	0	29	0	784334848	48	6619
2026-01-11 14:47:55.28	124.19	86.60	-37.7	-38.6	23.2	0.00e+00	0	29	0	786432000	48	6146
2026-01-11 14:47:56.28	132.31	86.45	-37.4	-38.3	22.9	0.00e+00	0	29	0	788529152	48	5925
2026-01-11 14:47:57.29	139.71	86.23	-37.7	-38.6	23.1	0.00e+00	0	29	0	789577728	48	6142
2026-01-11 14:47:58.30	146.22	85.96	-37.4	-38.3	23.6	0.00e+00	0	29	0	791674880	48	5960
2026-01-11 14:47:59.31	151.86	85.65	-36.6	-37.5	24.2	0.00e+00	0	29	0	793772032	48	5407
2026-01-11 14:48:00.32	156.69	85.30	-36.8	-37.7	24.1	0.00e+00	0	29	0	795869184	46	6218
2026-01-11 14:48:01.33	160.82	84.92	-36.8	-37.7	24.1	0.00e+00	0	29	0	797966336	46	6229
2026-01-11 14:48:02.34	164.36	84.52	-36.7	-37.6	24.2	0.00e+00	0	29	0	800063488	46	6158
2026-01-11 14:48:03.35	167.41	84.10	-37.6	-38.6	23.3	0.00e+00	0	29	0	801112064	46	6855
2026-01-11 14:48:04.36	170.05	83.67	-39.1	-40.2	21.7	0.00e+00	0	29	0	803209216	50	6547
2026-01-11 14:48:05.37	172.34	83.22	-40.5	-41.9	20.0	0.00e+00	0	29	0	805306368	52	7137
2026-01-11 14:48:06.38	174.35	82.77	-41.2	-42.7	19.2	0.00e+00	0	29	0	807403520	54	6991
2026-01-11 14:48:07.39	176.12	82.31	-40.3	-41.5	20.6	0.00e+00	0	29	0	809500672	54	6088
2026-01-11 14:48:08.40	177.68	81.85	-39.8	-41.0	21.2	0.00e+00	0	29	0	810549248	52	6443
2026-01-11 14:48:09.41	179.08	81.38	-38.4	-39.4	22.7	0.00e+00	0	29	0	812646400	50	5998
2026-01-11 14:48:10.42	180.33	80.90	-37.4	-38.3	23.6	0.00e+00	0	29	0	814743552	48	5959
2026-01-11 14:48:11.43	181.45	80.43	-37.2	-38.1	23.7	0.00e+00	0	29	0	816840704	48	5810
2026-01-11 14:48:12.44	182.47	79.95	-36.1	-36.9	24.9	0.00e+00	0	29	0	818937856	46	5691
2026-01-11 14:48:13.45	183.40	79.47	-35.6	-36.4	25.0	0.00e+00	0	29	0	819986432	44	5980
2026-01-11 14:48:14.46	184.24	78.99	-37.1	-38.0	23.8	0.00e+00	0	29	0	822083584	46	6430
2026-01-11 14:48:15.47	185.01	78.51	-38.3	-39.3	22.5	0.00e+00	0	29	0	824180736	48	6664
2026-01-11 14:48:16.48	185.71	78.03	-38.9	-39.9	22.1	0.00e+00	0	29	0	826277888	50	6381
2026-01-11 14:48:17.49	186.37	77.55	-41.1	-42.5	19.5	0.00e+00	0	29	0	828375040	52	7681
2026-01-11 14:48:18.50	186.97	77.06	-42.4	-44.3	17.9	0.00e+00	0	29	0	829423616	56	7466
2026-01-11 14:48:19.51	187.53	76.58	-41.5	-43.0	19.5	0.00e+00	0	29	0	831520768	56	6439
2026-01-11 14:48:20.52	188.04	76.10	-39.8	-41.0	21.1	0.00e+00	0	29	0	833617920	52	6440
2026-01-11 14:48:21.53	188.53	75.62	-39.2	-40.3	21.8	0.00e+00	0	29	0	835715072	52	5910
2026-01-11 14:48:22.54	188.98	75.14	-39.9	-41.1	21.0	0.00e+00	0	29	0	837812224	52	6507
2026-01-11 14:48:23.55	189.40	74.66	-40.8	-42.2	20.0	0.00e+00	0	29	0	838860800	54	6605
2026-01-11 14:48:24.56	189.80	74.18	-38.7	-39.8	22.4	0.00e+00	0	29	0	840957952	52	5593
2026-01-11 14:48:25.57	190.17	73.71	-37.6	-38.5	23.3	0.00e+00	0	29	0	843055104	48	6064
2026-01-11 14:48:26.58	190.52	73.23	-37.1	-38.0	23.9	0.00e+00	0	29	0	845152256	48	5698
2026-01-11 14:48:27.59	190.85	72.76	-37.2	-38.1	23.8	0.00e+00	0	29	0	847249408	48	5799
2026-01-11 14:48:28.60	191.16	72.29	-36.8	-37.6	24.2	0.00e+00	0	29	0	848297984	48	5499
2026-01-11 14:48:29.61	191.45	71.81	-36.3	-37.1	24.6	0.00e+00	0	29	0	850395136	46	5780
2026-01-11 14:48:30.62	191.73	71.35	-36.1	-36.9	24.5	0.00e+00	0	29	0	852492288	46	5683
2026-01-11 14:48:31.63	192.00	70.88	-36.9	-37.7	23.8	0.00e+00	0	29	0	854589440	46	6245
2026-01-11 14:48:32.64	192.25	70.41	-38.4	-39.4	22.4	0.00e+00	0	29	0	856686592	48	6768
2026-01-11 14:48:33.65	192.49	69.95	-39.0	-40.1	22.0	0.00e+00	0	29	0	857735168	50	6494
2026-01-11 14:48:34.66	192.72	69.49	-38.3	-39.3	22.8	0.00e+00	0	29	0	859832320	50	5901
2026-01-11 14:48:35.67	192.94	69.03	-39.1	-40.2	21.7	0.00e+00	0	29	0	861929472	50	6557
2026-01-11 14:48:36.68	193.14	68.57	-41.9	-43.5	18.3	0.00e+00	0	29	0	864026624	54	7679
2026-01-11 14:48:37.69	193.34	68.11	-43.9	-46.4	15.9	0.00e+00	0	29	0	866123776	58	8496
2026-01-11 14:48:38.70	193.53	67.66	-42.0	-43.8	18.6	0.00e+00	0	29	0	868220928	58	6275
2026-01-11 14:48:39.71	193.71	67.21	-40.3	-41.6	20.6	0.00e+00	0	29	0	869269504	54	6114
2026-01-11 14:48:40.72	193.89	66.76	-40.1	-41.3	20.9	0.00e+00	0	29	0	871366656	54	5946
2026-01-11 14:48:41.73	194.06	66.31	-39.7	-40.9	21.2	0.00e+00	0	29	0	873463808	52	6337
2026-01-11 14:48:42.74	194.22	65.86	-40.3	-41.6	20.5	0.00e+00	0	29	0	875560960	52	6854
2026-01-11 14:48:43.75	194.37	65.42	-39.5	-40.7	21.5	0.00e+00	0	29	0	877658112	52	6196
2026-01-11 14:48:44.76	194.52	64.98	-37.0	-37.9	23.9	0.00e+00	0	29	0	878706688	48	5651
2026-01-11 14:48:45.77	194.66	64.54	-36.1	-36.9	24.7	0.00e+00	0	29	0	880803840	46	5681
2026-01-11 14:48:46.78	194.80	64.11	-35.6	-36.4	25.1	0.00e+00	0	29	0	882900992	44	6022
2026-01-11 14:48:47.79	194.93	63.68	-35.6	-36.4	25.1	0.00e+00	0	29	0	884998144	44	5984
2026-01-11 14:48:48.80	195.06	63.24	-35.1	-35.9	25.4	0.00e+00	0	29	0	887095296	44	5672
2026-01-11 14:48:49.81	195.19	62.82	-35.0	-35.7	25.7	0.00e+00	0	29	0	888143872	44	5550
2026-01-11 14:48:50.82	195.31	62.39	-34.8	-35.6	25.8	0.00e+00	0	29	0	890241024	44	5442
2026-01-11 14:48:51.83	195.42	61.97	-34.2	-35.0	26.3	0.00e+00	0	29	0	892338176	42	5696
2026-01-11 14:48:52.84	195.53	61.55	-34.3	-35.0	26.2	0.00e+00	0	29	0	894435328	42	5724
2026-01-11 14:48:53.84	195.64	61.13	-35.5	-36.2	25.3	0.00e+00	0	29	0	896532480	42	6608
2026-01-11 14:48:54.86	195.75	60.71	-36.8	-37.6	24.1	0.00e+00	0	29	0	897581056	44	6903
2026-01-11 14:48:55.86	195.85	60.30	-37.1	-37.9	23.9	0.00e+00	0	29	0	899678208	46	6376
2026-01-11 14:48:56.87	195.95	59.89	-36.9	-37.8	24.0	0.00e+00	0	29	0	901775360	46	6246
2026-01-11 14:48:57.88	196.04	59.49	-37.3	-38.2	23.5	0.00e+00	0	29	0	903872512	46	6586
2026-01-11 14:48:58.89	196.13	59.08	-38.1	-39.1	22.7	0.00e+00	0	29	0	905969664	48	6491
2026-01-11 14:48:59.90	196.22	58.68	-38.9	-40.0	22.0	0.00e+00	0	29	0	907018240	50	6400
2026-01-11 14:49:00.91	196.31	58.28	-39.9	-41.0	21.0	0.00e+00	0	29	0	909115392	50	7253
2026-01-11 14:49:01.92	196.40	57.88	-41.2	-42.6	19.4	0.00e+00	0	29	0	911212544	54	6916
2026-01-11 14:49:02.93	196.48	57.49	-41.8	-43.5	18.8	0.00e+00	0	29	0	913309696	56	6800
2026-01-11 14:49:03.94	196.56	57.10	-40.5	-41.9	20.5	0.00e+00	0	29	0	915406848	56	5653
2026-01-11 14:49:04.95	196.64	56.71	-39.0	-40.1	22.1	0.00e+00	0	29	0	916455424	52	5772
2026-01-11 14:49:05.96	196.71	56.32	-38.3	-39.3	22.7	0.00e+00	0	29	0	918552576	50	5920
2026-01-11 14:49:06.97	196.79	55.94	-37.6	-38.5	23.5	0.00e+00	0	29	0	920649728	48	6071
2026-01-11 14:49:07.98	196.86	55.55	-36.8	-37.7	24.1	0.00e+00	0	29	0	922746880	48	5535
2026-01-11 14:49:08.99	196.93	55.17	-37.0	-37.8	23.8	0.00e+00	0	29	0	924844032	48	5627
2026-01-11 14:49:10.00	197.00	54.80	-36.8	-37.7	24.0	0.00e+00	0	29	0	925892608	46	6192
2026-01-11 14:49:11.01	197.07	54.43	-37.0	-37.9	23.8	0.00e+00	0	29	0	927989760	46	6386
2026-01-11 14:49:12.02	197.13	54.05	-36.9	-37.8	24.1	0.00e+00	0	29	0	930086912	46	6305
2026-01-11 14:49:13.03	197.20	53.69	-36.0	-36.8	24.9	0.00e+00	0	29	0	932184064	46	5618
2026-01-11 14:49:14.03	197.26	53.32	-35.6	-36.4	25.2	0.00e+00	0	29	0	934281216	44	5979
2026-01-11 14:49:15.04	197.32	52.96	-35.5	-36.3	25.3	0.00e+00	0	29	0	936378368	44	5907
2026-01-11 14:49:16.05	197.38	52.60	-36.0	-36.9	24.8	0.00e+00	0	29	0	937426944	44	6325
2026-01-11 14:49:17.06	197.44	52.24	-37.7	-38.7	23.2	0.00e+00	0	29	0	939524096	46	6939
2026-01-11 14:49:18.07	197.49	51.89	-38.4	-39.5	22.4	0.00e+00	0	29	0	941621248	48	6786
2026-01-11 14:49:19.08	197.55	51.53	-38.8	-39.9	22.1	0.00e+00	0	29	0	943718400	50	6389
2026-01-11 14:49:20.09	197.60	51.18	-38.8	-40.0	22.0	0.00e+00	0	29	0	945815552	50	6415
2026-01-11 14:49:21.10	197.66	50.84	-39.1	-40.2	21.8	0.00e+00	0	29	0	946864128	50	6612
2026-01-11 14:49:22.11	197.71	50.49	-39.0	-40.1	21.9	0.00e+00	0	29	0	948961280	50	6487
2026-01-11 14:49:23.12	197.76	50.15	-39.0	-40.1	21.9	0.00e+00	0	29	0	951058432	50	6513
2026-01-11 14:49:24.13	197.81	49.81	-39.2	-40.3	21.8	0.00e+00	0	29	0	953155584	50	6660
2026-01-11 14:49:25.14	197.86	49.47	-40.0	-41.3	20.9	0.00e+00	0	29	0	955252736	52	6637
2026-01-11 14:49:26.15	197.91	49.14	-41.2	-42.8	19.3	0.00e+00	0	29	0	956301312	54	7052
2026-01-11 14:49:27.16	197.95	48.80	-43.9	-46.7	15.2	0.00e+00	0	29	0	958398464	58	8750
2026-01-11 14:49:28.17	198.00	48.47	-43.9	-46.7	15.9	0.00e+00	0	30	0	960495616	60	7788
2026-01-11 14:49:29.18	198.05	48.15	-41.5	-43.2	19.0	0.00e+00	0	30	0	962592768	56	6542
2026-01-11 14:49:30.19	198.09	47.82	-40.5	-41.9	20.2	0.00e+00	0	29	0	964689920	54	6352
2026-01-11 14:49:31.20	198.13	47.50	-39.7	-40.8	21.4	0.00e+00	0	30	0	965738496	54	5626
2026-01-11 14:49:32.21	198.18	47.18	-37.7	-38.5	23.4	0.00e+00	0	29	0	967835648	50	5438
2026-01-11 14:49:33.22	198.22	46.86	-37.1	-38.0	23.9	0.00e+00	0	29	0	969932800	48	5710
2026-01-11 14:49:34.23	198.26	46.54	-37.8	-38.8	23.1	0.00e+00	0	29	0	972029952	48	6261
2026-01-11 14:49:35.24	198.30	46.23	-38.4	-39.5	22.4	0.00e+00	0	30	0	974127104	48	6773
2026-01-11 14:49:36.24	198.34	45.92	-39.0	-40.1	22.1	0.00e+00	0	29	0	975175680	50	6506
2026-01-11 14:49:37.25	198.38	45.61	-39.0	-40.1	22.0	0.00e+00	0	29	0	977272832	50	6479
2026-01-11 14:49:38.26	198.42	45.31	-39.0	-40.1	22.0	0.00e+00	0	29	0	979369984	50	6489
2026-01-11 14:49:39.27	198.45	45.00	-38.8	-40.0	22.1	0.00e+00	0	29	0	981467136	50	6394
2026-01-11 14:49:40.29	198.49	44.70	-37.6	-38.6	23.4	0.00e+00	0	29	0	983564288	48	6138
2026-01-11 14:49:41.29	198.53	44.40	-36.5	-37.3	24.3	0.00e+00	0	29	0	984612864	46	5964
2026-01-11 14:49:42.30	198.56	44.11	-35.6	-36.4	25.3	0.00e+00	0	29	0	986710016	44	5985
2026-01-11 14:49:43.31	198.60	43.81	-34.9	-35.7	25.7	0.00e+00	0	29	0	988807168	44	5516
2026-01-11 14:49:44.32	198.63	43.52	-34.8	-35.5	25.9	0.00e+00	0	29	0	990904320	44	5389
2026-01-11 14:49:45.33	198.67	43.23	-35.2	-36.0	25.4	0.00e+00	0	29	0	993001472	44	5718
2026-01-11 14:49:46.34	198.70	42.94	-36.3	-37.1	24.6	0.00e+00	0	29	0	994050048	44	6501
2026-01-11 14:49:47.35	198.73	42.65	-37.2	-38.1	23.7	0.00e+00	0	29	0	996147200	46	6508
2026-01-11 14:49:48.36	198.77	42.37	-38.3	-39.4	22.5	0.00e+00	0	29	0	998244352	48	6699
2026-01-11 14:49:49.37	198.80	42.09	-39.1	-40.2	21.8	0.00e+00	0	29	0	1000341504	50	6587
2026-01-11 14:49:50.38	198.83	41.81	-38.7	-39.8	22.3	0.00e+00	0	29	0	1002438656	50	6269
2026-01-11 14:49:51.39	198.86	41.53	-38.6	-39.7	22.3	0.00e+00	0	30	0	1004535808	50	6188
2026-01-11 14:49:52.40	198.89	41.26	-38.2	-39.2	22.8	0.00e+00	0	29	0	1005584384	50	5880
2026-01-11 14:49:53.41	198.92	40.98	-37.4	-38.3	23.6	0.00e+00	0	30	0	1007681536	48	5912
2026-01-11 14:49:54.42	198.95	40.71	-37.2	-38.1	23.7	0.00e+00	0	30	0	1009778688	48	5796
2026-01-11 14:49:55.43	198.98	40.44	-37.0	-37.9	23.9	0.00e+00	0	29	0	1011875840	48	5641
2026-01-11 14:49:56.44	199.01	40.17	-37.0	-37.9	23.9	0.00e+00	0	30	0	1013972992	48	5650
2026-01-11 14:49:57.45	199.04	39.91	-37.3	-38.2	23.6	0.00e+00	0	29	0	1015021568	48	5866
2026-01-11 14:49:58.46	199.07	39.65	-38.1	-39.1	22.9	0.00e+00	0	30	0	1017118720	48	6477
2026-01-11 14:49:59.46	199.09	39.39	-39.2	-40.3	21.7	0.00e+00	0	29	0	1019215872	50	6648
2026-01-11 14:50:00.47	199.12	39.13	-40.3	-41.6	20.5	0.00e+00	0	29	0	1021313024	52	6866
2026-01-11 14:50:01.49	199.15	38.87	-41.5	-43.1	19.1	0.00e+00	0	30	0	1023410176	54	7310
2026-01-11 14:50:02.49	199.17	38.61	-42.6	-44.6	17.7	0.00e+00	0	30	0	1024458752	56	7718
2026-01-11 14:50:03.50	199.20	38.36	-42.9	-45.0	17.2	0.00e+00	0	30	0	1026555904	58	7216
2026-01-11 14:50:04.51	199.23	38.11	-43.0	-45.2	17.1	0.00e+00	0	29	0	1028653056	58	7384
2026-01-11 14:50:05.52	199.25	37.86	-42.6	-44.5	17.9	0.00e+00	0	29	0	1030750208	58	6843
2026-01-11 14:50:06.53	199.28	37.61	-42.1	-43.8	18.3	0.00e+00	0	30	0	1032847360	58	6309
2026-01-11 14:50:07.54	199.30	37.36	-41.1	-42.5	19.8	0.00e+00	0	30	0	1033895936	56	6096
2026-01-11 14:50:08.55	199.33	37.12	-40.2	-41.5	20.8	0.00e+00	0	29	0	1035993088	54	6040
2026-01-11 14:50:09.56	199.35	36.88	-39.2	-40.3	21.7	0.00e+00	0	30	0	1038090240	52	5963
2026-01-11 14:50:10.57	199.37	36.64	-39.2	-40.3	21.7	0.00e+00	0	30	0	1040187392	52	5917
2026-01-11 14:50:11.58	199.40	36.40	-39.3	-40.4	21.6	0.00e+00	0	29	0	1042284544	52	5992
2026-01-11 14:50:12.59	199.42	36.16	-39.3	-40.4	21.6	0.00e+00	0	29	0	1043333120	52	5998
2026-01-11 14:50:13.60	199.44	35.92	-39.4	-40.6	21.6	0.00e+00	0	30	0	1045430272	52	6118
2026-01-11 14:50:14.61	199.47	35.69	-39.6	-40.7	21.4	0.00e+00	0	29	0	1047527424	52	6240
2026-01-11 14:50:15.62	199.49	35.46	-40.0	-41.3	20.8	0.00e+00	0	30	0	1049624576	52	6618
2026-01-11 14:50:16.63	199.51	35.23	-40.6	-42.0	20.1	0.00e+00	0	30	0	1051721728	52	7239
2026-01-11 14:50:17.64	199.53	35.00	-41.5	-43.2	19.0	0.00e+00	0	30	0	1052770304	54	7390
2026-01-11 14:50:18.65	199.55	34.77	-42.5	-44.5	17.8	0.00e+00	0	30	0	1054867456	56	7615
2026-01-11 14:50:19.65	199.58	34.55	-43.2	-45.6	16.5	0.00e+00	0	30	0	1056964608	58	7752
2026-01-11 14:50:20.66	199.60	34.32	-43.5	-46.0	16.2	0.00e+00	0	30	0	1059061760	58	8092
2026-01-11 14:50:21.67	199.62	34.10	-43.6	-46.3	16.1	0.00e+00	0	30	0	1061158912	58	8338
2026-01-11 14:50:22.68	199.64	33.88	-43.2	-45.5	16.7	0.00e+00	0	30	0	1062207488	58	7663
2026-01-11 14:50:23.69	199.66	33.66	-43.0	-45.2	17.1	0.00e+00	0	30	0	1064304640	58	7355
2026-01-11 14:50:24.70	199.68	33.44	-42.3	-44.2	18.0	0.00e+00	0	30	0	1066401792	58	6568
2026-01-11 14:50:25.71	199.70	33.23	-41.5	-43.1	19.1	0.00e+00	0	30	0	1068498944	56	6514
2026-01-11 14:50:26.72	199.72	33.01	-41.0	-42.4	19.9	0.00e+00	0	30	0	1070596096	56	6010
2026-01-11 14:50:27.73	199.74	32.80	-40.4	-41.7	20.5	0.00e+00	0	30	0	1072693248	54	6198
2026-01-11 14:50:28.74	199.76	32.59	-40.0	-41.3	20.8	0.00e+00	0	30	0	1073741824	54	5901
2026-01-11 14:50:29.75	199.78	32.38	-39.7	-40.9	21.2	0.00e+00	0	30	0	1075838976	52	6333
2026-01-11 14:50:30.76	199.80	32.17	-39.4	-40.5	21.5	0.00e+00	0	30	0	1077936128	52	6102
2026-01-11 14:50:31.77	199.82	31.96	-39.2	-40.3	21.8	0.00e+00	0	30	0	1080033280	52	5944
2026-01-11 14:50:32.78	199.83	31.76	-39.2	-40.2	21.8	0.00e+00	0	29	0	1082130432	52	5884
2026-01-11 14:50:33.79	199.85	31.55	-39.4	-40.4	21.6	0.00e+00	0	30	0	1083179008	52	6033
2026-01-11 14:50:34.80	199.87	31.35	-39.7	-40.8	21.2	0.00e+00	0	30	0	1085276160	52	6317
2026-01-11 14:50:35.81	199.89	31.15	-40.0	-41.3	20.9	0.00e+00	0	30	0	1087373312	52	6621
2026-01-11 14:50:36.82	199.91	30.95	-40.4	-41.7	20.4	0.00e+00	0	30	0	1089470464	52	6989
2026-01-11 14:50:37.83	199.92	30.75	-40.6	-42.0	20.1	0.00e+00	0	30	0	1091567616	54	6406
2026-01-11 14:50:38.84	199.94	30.55	-41.1	-42.5	19.6	0.00e+00	0	30	0	1092616192	54	6823
2026-01-11 14:50:39.85	199.96	30.35	-41.2	-42.7	19.5	0.00e+00	0	30	0	1094713344	54	6933
2026-01-11 14:50:40.86	199.98	30.16	-41.3	-42.8	19.2	0.00e+00	0	30	0	1096810496	54	7083
2026-01-11 14:50:41.88	199.99	29.96	-41.4	-42.9	19.2	0.00e+00	0	30	0	1098907648	54	7145
2026-01-11 14:50:42.89	200.01	29.77	-41.3	-42.9	19.4	0.00e+00	0	30	0	1101004800	54	7135
2026-01-11 14:50:43.90	200.03	29.58	-41.4	-43.0	19.1	0.00e+00	0	30	0	1102053376	54	7176
2026-01-11 14:50:44.90	200.04	29.39	-41.1	-42.7	19.6	0.00e+00	0	30	0	1104150528	54	6928
2026-01-11 14:50:45.91	200.06	29.20	-40.7	-42.1	20.0	0.00e+00	0	30	0	1106247680	54	6496
2026-01-11 14:50:46.92	200.08	29.02	-40.5	-41.9	20.2	0.00e+00	0	30	0	1108344832	54	6360
2026-01-11 14:50:47.93	200.09	28.83	-40.5	-41.8	20.2	0.00e+00	0	30	0	1110441984	54	6312
2026-01-11 14:50:48.94	200.11	28.65	-40.0	-41.3	20.8	0.00e+00	0	30	0	1111490560	54	5920
2026-01-11 14:50:49.95	200.12	28.46	-40.1	-41.3	20.8	0.00e+00	0	30	0	1113587712	54	5954
2026-01-11 14:50:50.97	200.14	28.28	-39.5	-40.6	21.3	0.00e+00	0	30	0	1115684864	52	6161
2026-01-11 14:50:51.98	200.16	28.10	-39.0	-40.1	21.9	0.00e+00	0	30	0	1117782016	52	5773
2026-01-11 14:50:52.99	200.17	27.92	-38.8	-39.9	22.1	0.00e+00	0	30	0	1119879168	52	5649
2026-01-11 14:50:54.00	200.19	27.74	-38.7	-39.7	22.2	0.00e+00	0	30	0	1120927744	50	6233
2026-01-11 14:50:55.01	200.20	27.56	-38.6	-39.6	22.3	0.00e+00	0	30	0	1123024896	50	6162
2026-01-11 14:50:56.02	200.22	27.38	-38.3	-39.3	22.6	0.00e+00	0	30	0	1125122048	50	5947
2026-01-11 14:50:57.03	200.23	27.21	-38.0	-39.0	23.0	0.00e+00	0	30	0	1127219200	50	5702
2026-01-11 14:50:58.04	200.25	27.04	-37.9	-38.9	23.0	0.00e+00	0	30	0	1129316352	50	5636
2026-01-11 14:50:59.05	200.26	26.86	-37.5	-38.5	23.4	0.00e+00	0	30	0	1130364928	48	6037
2026-01-11 14:51:00.06	200.28	26.69	-37.8	-38.7	23.1	0.00e+00	0	30	0	1132462080	48	6211
2026-01-11 14:51:01.07	200.29	26.52	-37.6	-38.5	23.3	0.00e+00	0	30	0	1134559232	48	6096
2026-01-11 14:51:02.08	200.30	26.35	-37.7	-38.6	23.3	0.00e+00	0	30	0	1136656384	48	6148
2026-01-11 14:51:03.09	200.32	26.18	-37.7	-38.7	23.2	0.00e+00	0	30	0	1138753536	48	6185
2026-01-11 14:51:04.10	200.33	26.01	-37.7	-38.7	23.2	0.00e+00	0	30	0	1140850688	48	6186
2026-01-11 14:51:05.10	200.35	25.85	-37.7	-38.7	23.2	0.00e+00	0	30	0	1141899264	48	6196
2026-01-11 14:51:06.11	200.36	25.68	-37.8	-38.8	23.1	0.00e+00	0	30	0	1143996416	48	6300
2026-01-11 14:51:07.12	200.37	25.52	-37.8	-38.8	23.1	0.00e+00	0	30	0	1146093568	48	6259
2026-01-11 14:51:08.13	200.39	25.35	-37.6	-38.6	23.3	0.00e+00	0	30	0	1148190720	48	6138
2026-01-11 14:51:09.14	200.40	25.19	-37.5	-38.4	23.4	0.00e+00	0	30	0	1150287872	48	5991
2026-01-11 14:51:10.15	200.42	25.03	-37.6	-38.5	23.3	0.00e+00	0	30	0	1151336448	48	6068
2026-01-11 14:51:11.16	200.43	24.87	-37.5	-38.4	23.4	0.00e+00	0	30	0	1153433600	48	6013
2026-01-11 14:51:12.17	200.44	24.71	-37.5	-38.4	23.3	0.00e+00	0	30	0	1155530752	48	6021
2026-01-11 14:51:13.18	200.45	24.55	-37.3	-38.3	23.4	0.00e+00	0	30	0	1157627904	48	5913
2026-01-11 14:51:14.19	200.47	24.39	-37.3	-38.2	23.5	0.00e+00	0	30	0	1159725056	48	5893
2026-01-11 14:51:15.20	200.48	24.24	-37.0	-37.8	23.9	0.00e+00	0	30	0	1160773632	48	5624
2026-01-11 14:51:16.21	200.49	24.08	-36.8	-37.7	23.9	0.00e+00	0	30	0	1162870784	48	5535
2026-01-11 14:51:17.22	200.51	23.92	-36.7	-37.6	24.1	0.00e+00	0	30	0	1164967936	46	6149
2026-01-11 14:51:18.23	200.52	23.77	-36.8	-37.7	24.0	0.00e+00	0	30	0	1167065088	46	6186
2026-01-11 14:51:19.24	200.53	23.62	-36.6	-37.5	24.1	0.00e+00	0	30	0	1169162240	46	6056
2026-01-11 14:51:20.25	200.54	23.47	-36.2	-37.1	24.3	0.00e+00	0	30	0	1170210816	46	5769
2026-01-11 14:51:21.26	200.56	23.31	-36.3	-37.1	24.5	0.00e+00	0	30	0	1172307968	46	5803
2026-01-11 14:51:22.27	200.57	23.16	-36.3	-37.2	24.2	0.00e+00	0	30	0	1174405120	46	5831
2026-01-11 14:51:23.27	200.58	23.02	-36.0	-36.8	24.8	0.00e+00	0	30	0	1176502272	46	5623
2026-01-11 14:51:24.28	200.59	22.87	-35.9	-36.8	24.7	0.00e+00	0	30	0	1178599424	46	5571
2026-01-11 14:51:25.29	200.61	22.72	-36.0	-36.9	24.7	0.00e+00	0	30	0	1179648000	46	5634
2026-01-11 14:51:26.30	200.62	22.57	-36.0	-36.8	24.7	0.00e+00	0	30	0	1181745152	46	5613
2026-01-11 14:51:27.31	200.63	22.43	-36.0	-36.9	24.7	0.00e+00	0	30	0	1183842304	46	5652
2026-01-11 14:51:28.32	200.64	22.28	-36.0	-36.9	24.7	0.00e+00	0	30	0	1185939456	46	5644
2026-01-11 14:51:29.33	200.65	22.14	-36.1	-37.0	24.6	0.00e+00	0	30	0	1188036608	46	5704
2026-01-11 14:51:30.34	200.66	21.99	-36.1	-37.0	24.6	0.00e+00	0	30	0	1189085184	46	5707
2026-01-11 14:51:31.35	200.68	21.85	-36.2	-37.0	24.6	0.00e+00	0	30	0	1191182336	46	5741
2026-01-11 14:51:32.36	200.69	21.71	-36.2	-37.0	24.6	0.00e+00	0	30	0	1193279488	46	5744
2026-01-11 14:51:33.37	200.70	21.57	-36.3	-37.2	24.4	0.00e+00	0	30	0	1195376640	46	5846
2026-01-11 14:51:34.38	200.71	21.42	-36.3	-37.2	24.4	0.00e+00	0	30	0	1197473792	46	5836
2026-01-11 14:51:35.39	200.72	21.29	-36.3	-37.2	24.4	0.00e+00	0	30	0	1198522368	46	5833
2026-01-11 14:51:36.39	200.73	21.15	-36.5	-37.3	24.4	0.00e+00	0	30	0	1200619520	46	5955
2026-01-11 14:51:37.40	200.74	21.01	-36.4	-37.2	24.4	0.00e+00	0	30	0	1202716672	46	5873
2026-01-11 14:51:38.41	200.76	20.87	-36.7	-37.5	24.2	0.00e+00	0	30	0	1204813824	46	6076
2026-01-11 14:51:39.42	200.77	20.74	-36.6	-37.4	24.2	0.00e+00	0	30	0	1206910976	46	6020
2026-01-11 14:51:40.43	200.78	20.60	-36.5	-37.4	24.3	0.00e+00	0	30	0	1209008128	46	5994
2026-01-11 14:51:41.44	200.79	20.46	-36.6	-37.5	24.2	0.00e+00	0	30	0	1210056704	46	6059
2026-01-11 14:51:42.45	200.80	20.33	-36.8	-37.7	24.1	0.00e+00	0	30	0	1212153856	46	6176
2026-01-11 14:51:43.46	200.81	20.20	-36.8	-37.7	24.0	0.00e+00	0	30	0	1214251008	46	6179
2026-01-11 14:51:44.47	200.82	20.06	-36.8	-37.7	23.9	0.00e+00	0	30	0	1216348160	46	6215
2026-01-11 14:51:45.48	200.83	19.93	-36.8	-37.8	23.9	0.00e+00	0	30	0	1218445312	46	6255
2026-01-11 14:51:46.49	200.84	19.80	-37.0	-37.9	23.8	0.00e+00	0	30	0	1219493888	46	6354
