passes_logs/2026/01/11/R4.6S_Anadyr/R4.6S_Anadyr__20260111_183936_FENGYUN_3D_rec.log

#Pass ID: 20260111_183936_FENGYUN 3D
#Satellite: FENGYUN 3D
#Configuration: FENGYUN 3D
#almurnet v.1.7.20251203
#Start time: 2026-01-11 18:39:38

#Version: 2.2.20231116
#Station: R4.6S_Anadyr
#Location: 177.4865 lon 64.73178 lat
#TLE: 1 43010U 17072A   26010.98637270  .00000005  00000+0  24269-4 0  9997
#TLE: 2 43010  98.9936 342.7405 0002213 115.1030 245.0375 14.19693961422685

#Time	Az	El	Level	Level2	SNR	BER	BlckErr	Temp	State	Recorded	gain1	gain2
2026-01-11 18:39:38.82	27.38	0.11	-48.3	-66.1	3.5	3.02e+01	0	24	0	0	60	77464
2026-01-11 18:39:39.83	27.34	0.17	-48.3	-60.4	3.6	8.45e-01	0	25	104	0	60	37955
2026-01-11 18:39:40.84	27.29	0.23	-48.3	-60.3	3.6	8.45e-01	0	25	104	0	60	37592
2026-01-11 18:39:41.85	27.25	0.28	-48.2	-60.3	3.6	8.45e-01	0	25	104	0	60	37361
2026-01-11 18:39:42.86	27.21	0.34	-48.1	-60.3	3.6	8.45e-01	0	26	104	0	60	37229
2026-01-11 18:39:43.87	27.17	0.40	-48.2	-60.3	3.6	8.45e-01	0	26	104	0	60	37273
2026-01-11 18:39:44.88	27.12	0.46	-48.2	-60.3	3.5	8.46e-01	0	26	104	0	60	37418
2026-01-11 18:39:45.89	27.08	0.51	-48.2	-60.3	3.6	8.45e-01	0	26	104	0	60	37312
2026-01-11 18:39:46.90	27.03	0.57	-48.2	-60.3	3.6	8.46e-01	0	26	104	0	60	37318
2026-01-11 18:39:47.91	26.99	0.63	-48.0	-60.2	3.6	8.46e-01	0	26	104	0	60	36811
2026-01-11 18:39:48.92	26.94	0.69	-47.9	-60.0	3.6	8.45e-01	0	26	104	0	60	36165
2026-01-11 18:39:49.93	26.90	0.75	-47.8	-59.9	3.6	8.46e-01	0	26	104	0	60	35582
2026-01-11 18:39:50.94	26.86	0.80	-47.7	-59.8	3.6	8.44e-01	0	26	104	0	60	35202
2026-01-11 18:39:51.95	26.81	0.86	-47.5	-59.6	3.6	8.45e-01	0	26	104	0	60	34610
2026-01-11 18:39:52.95	26.77	0.92	-47.3	-59.4	3.6	8.47e-01	0	26	104	0	60	33860
2026-01-11 18:39:53.96	26.72	0.98	-47.0	-59.1	3.6	8.46e-01	0	26	104	0	60	32474
2026-01-11 18:39:54.98	26.67	1.04	-46.5	-58.5	3.5	8.45e-01	0	26	104	0	60	30304
2026-01-11 18:39:55.99	26.63	1.10	-46.5	-58.6	3.6	8.47e-01	0	26	104	0	60	30591
2026-01-11 18:39:56.99	26.58	1.15	-46.5	-58.6	3.6	8.45e-01	0	26	104	0	60	30592
2026-01-11 18:39:58.00	26.54	1.21	-46.4	-58.5	3.6	8.44e-01	0	26	104	0	60	30542
2026-01-11 18:39:59.01	26.49	1.27	-46.4	-58.6	3.6	8.45e-01	0	26	104	0	60	30677
2026-01-11 18:40:00.02	26.44	1.33	-46.4	-58.6	3.5	8.45e-01	0	26	104	0	60	30605
2026-01-11 18:40:01.03	26.40	1.39	-46.4	-58.6	3.6	8.46e-01	0	26	104	0	60	30609
2026-01-11 18:40:02.04	26.35	1.45	-46.4	-58.6	3.6	8.45e-01	0	26	104	0	60	30661
2026-01-11 18:40:03.05	26.30	1.51	-46.4	-58.5	3.6	8.45e-01	0	26	104	0	60	30502
2026-01-11 18:40:04.06	26.26	1.57	-46.4	-58.5	3.6	8.46e-01	0	26	104	0	60	30372
2026-01-11 18:40:05.07	26.21	1.63	-46.4	-58.5	3.6	8.46e-01	0	26	104	0	60	30322
2026-01-11 18:40:06.08	26.16	1.69	-46.4	-58.5	3.6	8.46e-01	0	26	104	0	60	30349
2026-01-11 18:40:07.09	26.11	1.75	-46.4	-58.6	3.6	8.46e-01	0	26	104	0	60	30745
2026-01-11 18:40:08.10	26.06	1.81	-46.4	-58.5	3.6	8.46e-01	0	26	104	0	60	30504
2026-01-11 18:40:09.11	26.02	1.87	-46.4	-58.6	3.6	8.45e-01	0	26	104	0	60	30721
2026-01-11 18:40:10.12	25.97	1.93	-46.4	-58.5	3.6	8.46e-01	0	26	104	0	60	30555
2026-01-11 18:40:11.13	25.92	1.99	-46.4	-58.4	3.6	8.45e-01	0	26	104	0	60	30229
2026-01-11 18:40:12.14	25.87	2.05	-46.4	-58.2	3.6	8.45e-01	0	26	104	0	60	29436
2026-01-11 18:40:13.15	25.82	2.11	-46.4	-58.0	3.6	8.45e-01	0	26	104	0	60	28641
2026-01-11 18:40:14.16	25.77	2.17	-46.4	-57.9	3.6	8.46e-01	0	26	104	0	60	28537
2026-01-11 18:40:15.17	25.72	2.23	-46.4	-58.2	3.6	8.45e-01	0	26	104	0	60	29407
2026-01-11 18:40:16.18	25.67	2.29	-46.4	-58.2	3.6	8.45e-01	0	26	104	0	60	29392
2026-01-11 18:40:17.19	25.62	2.35	-46.4	-58.5	3.6	8.44e-01	0	26	104	0	60	30266
2026-01-11 18:40:18.20	25.57	2.41	-46.4	-58.5	3.6	8.45e-01	0	26	104	0	60	30536
2026-01-11 18:40:19.21	25.52	2.47	-46.4	-58.5	3.6	8.46e-01	0	26	104	0	60	30453
2026-01-11 18:40:20.22	25.47	2.53	-46.4	-58.5	3.6	8.46e-01	0	26	104	0	60	30335
2026-01-11 18:40:21.23	25.42	2.59	-46.4	-58.4	3.6	8.46e-01	0	27	104	0	60	30037
2026-01-11 18:40:22.24	25.37	2.66	-46.4	-58.3	3.6	8.46e-01	0	27	104	0	60	29821
2026-01-11 18:40:23.25	25.31	2.72	-46.4	-58.3	3.6	8.44e-01	0	27	104	0	60	29646
2026-01-11 18:40:24.26	25.26	2.78	-46.4	-57.9	3.6	8.45e-01	0	27	104	0	60	28240
2026-01-11 18:40:25.27	25.21	2.84	-46.3	-57.3	3.6	8.44e-01	0	27	104	0	60	26591
2026-01-11 18:40:26.28	25.16	2.90	-46.3	-57.1	3.6	8.45e-01	0	27	104	0	60	26011
2026-01-11 18:40:27.29	25.11	2.96	-46.3	-57.5	3.6	8.45e-01	0	27	104	0	60	27031
2026-01-11 18:40:28.30	25.05	3.03	-46.4	-58.2	3.6	8.45e-01	0	27	104	0	60	29276
2026-01-11 18:40:29.31	25.00	3.09	-46.4	-58.6	3.6	8.44e-01	0	27	104	0	60	30596
2026-01-11 18:40:30.32	24.95	3.15	-46.2	-56.7	3.6	8.45e-01	0	27	104	0	60	24861
2026-01-11 18:40:31.33	24.89	3.21	-45.5	-52.2	5.5	7.96e-01	0	27	104	0	60	14723
2026-01-11 18:40:32.34	24.84	3.28	-44.4	-48.2	8.8	1.20e-01	0	27	0	2097152	60	9295
2026-01-11 18:40:33.35	24.79	3.34	-43.3	-46.1	11.2	3.93e-03	0	27	0	8388608	60	7298
2026-01-11 18:40:34.36	24.73	3.40	-41.9	-44.0	13.4	1.01e-04	0	27	0	13631488	58	6463
2026-01-11 18:40:35.37	24.68	3.46	-41.4	-43.3	14.2	0.00e+00	0	27	0	18874368	56	6628
2026-01-11 18:40:36.38	24.62	3.53	-40.4	-42.0	15.4	0.00e+00	0	27	0	25165824	54	6421
2026-01-11 18:40:37.39	24.57	3.59	-42.2	-44.5	11.8	3.08e-05	0	27	0	30408704	54	8544
2026-01-11 18:40:38.40	24.51	3.65	-44.6	-49.0	5.6	8.45e-01	0	27	104	31457280	60	10179
2026-01-11 18:40:39.41	24.46	3.72	-37.2	-38.2	17.2	1.20e-01	0	27	104	31457280	44	7406
2026-01-11 18:40:40.41	24.40	3.78	-45.8	-53.2	4.7	8.45e-01	0	27	104	31457280	60	16532
2026-01-11 18:40:41.42	24.35	3.84	-37.6	-38.6	18.7	5.45e-02	0	27	104	31457280	54	4355
2026-01-11 18:40:42.43	24.29	3.91	-38.0	-39.1	18.6	0.00e+00	0	27	0	35651584	52	5190
2026-01-11 18:40:43.44	24.23	3.97	-36.5	-37.4	20.3	0.00e+00	0	27	0	41943040	46	6031
2026-01-11 18:40:44.45	24.18	4.03	-35.7	-36.6	20.9	0.00e+00	0	27	0	47185920	44	6153
2026-01-11 18:40:45.46	24.12	4.10	-36.0	-36.9	20.9	0.00e+00	0	27	0	52428800	44	6329
2026-01-11 18:40:46.47	24.06	4.16	-36.0	-36.9	20.8	0.00e+00	0	27	0	58720256	44	6358
2026-01-11 18:40:47.48	24.01	4.23	-36.1	-37.0	20.8	0.00e+00	0	27	0	63963136	44	6392
2026-01-11 18:40:48.49	23.95	4.29	-36.1	-37.0	20.7	0.00e+00	0	27	0	70254592	44	6394
2026-01-11 18:40:49.50	23.89	4.36	-35.7	-36.6	20.8	0.00e+00	0	27	0	75497472	44	6126
2026-01-11 18:40:50.51	23.83	4.42	-36.1	-37.0	20.9	0.00e+00	0	27	0	80740352	44	6443
2026-01-11 18:40:51.52	23.77	4.49	-35.2	-36.0	21.7	0.00e+00	0	27	0	87031808	44	5732
2026-01-11 18:40:52.53	23.71	4.55	-35.1	-35.9	21.8	0.00e+00	0	27	0	92274688	44	5687
2026-01-11 18:40:53.54	23.65	4.62	-35.1	-35.9	21.8	0.00e+00	0	27	0	98566144	44	5674
2026-01-11 18:40:54.55	23.59	4.68	-34.9	-35.7	22.0	0.00e+00	0	27	0	103809024	44	5516
2026-01-11 18:40:55.55	23.54	4.74	-35.0	-35.8	21.9	0.00e+00	0	27	0	109051904	44	5604
2026-01-11 18:40:56.56	23.48	4.81	-35.0	-35.8	21.9	0.00e+00	0	27	0	115343360	44	5606
2026-01-11 18:40:57.57	23.41	4.88	-35.0	-35.8	22.0	0.00e+00	0	27	0	120586240	44	5584
2026-01-11 18:40:58.58	23.35	4.94	-34.8	-35.6	22.1	0.00e+00	0	27	0	126877696	44	5491
2026-01-11 18:40:59.59	23.29	5.01	-34.6	-35.4	22.4	0.00e+00	0	27	0	132120576	42	6011
2026-01-11 18:41:00.60	23.23	5.07	-34.8	-35.6	22.2	0.00e+00	0	27	0	138412032	42	6106
2026-01-11 18:41:01.61	23.17	5.14	-34.7	-35.5	22.3	0.00e+00	0	27	0	143654912	42	6095
2026-01-11 18:41:02.62	23.11	5.21	-34.7	-35.5	22.3	0.00e+00	0	27	0	148897792	42	6096
2026-01-11 18:41:03.63	23.05	5.27	-34.6	-35.3	22.5	0.00e+00	0	27	0	155189248	42	5963
2026-01-11 18:41:04.64	22.98	5.34	-34.5	-35.3	22.5	0.00e+00	0	27	0	160432128	42	5941
2026-01-11 18:41:05.65	22.92	5.41	-34.7	-35.4	22.4	0.00e+00	0	27	0	166723584	42	6010
2026-01-11 18:41:06.66	22.86	5.47	-34.6	-35.4	22.4	0.00e+00	0	27	0	171966464	42	6012
2026-01-11 18:41:07.67	22.80	5.54	-34.6	-35.3	22.6	0.00e+00	0	27	0	177209344	42	5960
2026-01-11 18:41:08.68	22.73	5.61	-34.6	-35.4	22.5	0.00e+00	0	27	0	183500800	42	5970
2026-01-11 18:41:09.69	22.67	5.67	-34.5	-35.3	22.6	0.00e+00	0	27	0	188743680	42	5927
2026-01-11 18:41:10.70	22.60	5.74	-34.4	-35.1	22.8	0.00e+00	0	27	0	195035136	42	5823
2026-01-11 18:41:11.71	22.54	5.81	-34.4	-35.2	22.8	0.00e+00	0	27	0	200278016	42	5852
2026-01-11 18:41:12.72	22.47	5.88	-34.3	-35.1	22.8	0.00e+00	0	27	0	205520896	42	5794
2026-01-11 18:41:13.73	22.41	5.94	-34.2	-35.0	23.0	0.00e+00	0	27	0	211812352	42	5715
2026-01-11 18:41:14.74	22.34	6.01	-34.2	-35.0	22.9	0.00e+00	0	27	0	217055232	42	5711
2026-01-11 18:41:15.75	22.28	6.08	-34.3	-35.0	22.9	0.00e+00	0	27	0	223346688	42	5756
2026-01-11 18:41:16.75	22.21	6.15	-34.2	-35.0	23.0	0.00e+00	0	27	0	228589568	42	5703
2026-01-11 18:41:17.77	22.14	6.22	-34.2	-35.0	23.0	0.00e+00	0	27	0	234881024	42	5697
2026-01-11 18:41:18.78	22.08	6.28	-33.9	-34.7	23.2	0.00e+00	0	27	0	240123904	42	5518
2026-01-11 18:41:19.79	22.01	6.35	-34.2	-35.0	23.0	0.00e+00	0	27	0	246415360	42	5721
2026-01-11 18:41:20.79	21.94	6.42	-34.0	-34.7	23.2	0.00e+00	0	27	0	251658240	42	5541
2026-01-11 18:41:21.80	21.88	6.49	-34.0	-34.7	23.2	0.00e+00	0	27	0	256901120	42	5529
2026-01-11 18:41:22.81	21.81	6.56	-34.0	-34.7	23.2	0.00e+00	0	27	0	263192576	42	5545
2026-01-11 18:41:23.82	21.74	6.63	-34.1	-34.9	23.1	0.00e+00	0	27	0	268435456	42	5646
2026-01-11 18:41:24.82	21.67	6.70	-33.8	-34.5	23.4	0.00e+00	0	27	0	273678336	42	5424
2026-01-11 18:41:25.83	21.60	6.77	-34.0	-34.7	23.3	0.00e+00	0	27	0	279969792	42	5552
2026-01-11 18:41:26.84	21.53	6.83	-34.0	-34.7	23.3	0.00e+00	0	27	0	285212672	42	5539
2026-01-11 18:41:27.85	21.46	6.90	-34.0	-34.8	23.3	0.00e+00	0	27	0	291504128	42	5572
2026-01-11 18:41:28.86	21.39	6.97	-34.1	-34.8	23.2	0.00e+00	0	27	0	296747008	42	5592
2026-01-11 18:41:29.87	21.32	7.04	-33.9	-34.6	23.4	0.00e+00	0	27	0	301989888	42	5493
2026-01-11 18:41:30.88	21.25	7.11	-34.0	-34.8	23.3	0.00e+00	0	28	0	308281344	42	5575
2026-01-11 18:41:31.89	21.18	7.18	-33.9	-34.6	23.4	0.00e+00	0	28	0	313524224	42	5491
2026-01-11 18:41:32.90	21.11	7.26	-34.0	-34.7	23.3	0.00e+00	0	28	0	319815680	42	5536
2026-01-11 18:41:33.91	21.03	7.33	-33.9	-34.7	23.3	0.00e+00	0	28	0	325058560	42	5517
2026-01-11 18:41:34.92	20.96	7.40	-34.1	-34.8	23.3	0.00e+00	0	27	0	331350016	42	5623
2026-01-11 18:41:35.93	20.89	7.47	-33.9	-34.7	23.4	0.00e+00	0	27	0	336592896	42	5506
2026-01-11 18:41:36.94	20.82	7.54	-33.8	-34.5	23.5	0.00e+00	0	28	0	342884352	42	5429
2026-01-11 18:41:37.95	20.74	7.61	-33.8	-34.6	23.5	0.00e+00	0	28	0	348127232	42	5442
2026-01-11 18:41:38.96	20.67	7.68	-33.8	-34.5	23.6	0.00e+00	0	27	0	353370112	42	5419
2026-01-11 18:41:39.97	20.59	7.75	-34.0	-34.8	23.4	0.00e+00	0	28	0	359661568	40	6248
2026-01-11 18:41:40.98	20.52	7.82	-33.8	-34.5	23.5	0.00e+00	0	28	0	364904448	40	6043
2026-01-11 18:41:41.99	20.44	7.90	-33.9	-34.7	23.4	0.00e+00	0	28	0	371195904	40	6200
2026-01-11 18:41:43.00	20.37	7.97	-33.9	-34.7	23.4	0.00e+00	0	28	0	376438784	40	6188
2026-01-11 18:41:44.01	20.29	8.04	-33.9	-34.7	23.5	0.00e+00	0	27	0	381681664	40	6178
2026-01-11 18:41:45.02	20.22	8.11	-33.7	-34.4	23.7	0.00e+00	0	28	0	387973120	40	6024
2026-01-11 18:41:46.03	20.14	8.19	-33.5	-34.2	23.9	0.00e+00	0	28	0	393216000	40	5878
2026-01-11 18:41:47.04	20.06	8.26	-33.6	-34.3	23.8	0.00e+00	0	28	0	399507456	40	5899
2026-01-11 18:41:48.05	19.99	8.33	-33.5	-34.2	23.9	0.00e+00	0	28	0	404750336	40	5863
2026-01-11 18:41:49.06	19.91	8.40	-33.5	-34.2	23.8	0.00e+00	0	28	0	409993216	40	5878
2026-01-11 18:41:50.07	19.83	8.48	-33.3	-34.0	24.0	0.00e+00	0	28	0	416284672	40	5742
2026-01-11 18:41:51.08	19.75	8.55	-33.3	-34.0	24.0	0.00e+00	0	28	0	421527552	40	5749
2026-01-11 18:41:52.09	19.67	8.62	-33.4	-34.1	24.0	0.00e+00	0	28	0	427819008	40	5812
2026-01-11 18:41:53.10	19.59	8.70	-33.5	-34.2	23.9	0.00e+00	0	28	0	433061888	40	5852
2026-01-11 18:41:54.11	19.51	8.77	-33.4	-34.1	24.0	0.00e+00	0	28	0	439353344	40	5821
2026-01-11 18:41:55.11	19.43	8.84	-33.3	-34.0	24.1	0.00e+00	0	28	0	444596224	40	5710
2026-01-11 18:41:56.12	19.35	8.92	-33.4	-34.1	23.9	0.00e+00	0	28	0	449839104	40	5816
2026-01-11 18:41:57.13	19.27	8.99	-33.3	-34.0	24.2	0.00e+00	0	28	0	456130560	40	5705
2026-01-11 18:41:58.14	19.19	9.07	-33.1	-33.8	24.3	0.00e+00	0	28	0	461373440	40	5576
2026-01-11 18:41:59.14	19.11	9.14	-33.1	-33.8	24.3	0.00e+00	0	28	0	467664896	40	5598
2026-01-11 18:42:00.15	19.02	9.21	-33.2	-33.9	24.2	0.00e+00	0	28	0	472907776	40	5643
2026-01-11 18:42:01.16	18.94	9.29	-33.2	-33.9	24.3	0.00e+00	0	28	0	478150656	40	5648
2026-01-11 18:42:02.17	18.86	9.36	-33.2	-33.9	24.2	0.00e+00	0	28	0	484442112	40	5689
2026-01-11 18:42:03.18	18.77	9.44	-33.1	-33.8	24.2	0.00e+00	0	28	0	489684992	40	5620
2026-01-11 18:42:04.18	18.69	9.51	-33.4	-34.1	24.0	0.00e+00	0	28	0	495976448	40	5776
2026-01-11 18:42:05.19	18.60	9.59	-33.2	-33.9	24.3	0.00e+00	0	28	0	501219328	40	5647
2026-01-11 18:42:06.21	18.52	9.67	-33.1	-33.8	24.3	0.00e+00	0	28	0	506462208	40	5608
2026-01-11 18:42:07.21	18.43	9.74	-33.1	-33.8	24.4	0.00e+00	0	28	0	512753664	40	5577
2026-01-11 18:42:08.22	18.35	9.82	-33.0	-33.7	24.4	0.00e+00	0	28	0	517996544	40	5527
2026-01-11 18:42:09.23	18.26	9.89	-33.1	-33.8	24.3	0.00e+00	0	28	0	524288000	40	5605
2026-01-11 18:42:10.24	18.17	9.97	-33.2	-33.9	24.2	0.00e+00	0	28	0	529530880	40	5672
2026-01-11 18:42:11.25	18.09	10.05	-33.1	-33.8	24.3	0.00e+00	0	28	0	535822336	40	5578
2026-01-11 18:42:12.26	18.00	10.12	-32.9	-33.6	24.5	0.00e+00	0	28	0	541065216	40	5476
2026-01-11 18:42:13.27	17.91	10.20	-33.0	-33.7	24.4	0.00e+00	0	28	0	546308096	40	5522
2026-01-11 18:42:14.28	17.82	10.28	-32.9	-33.6	24.5	0.00e+00	0	28	0	552599552	40	5450
2026-01-11 18:42:15.29	17.73	10.35	-32.9	-33.6	24.5	0.00e+00	0	28	0	557842432	40	5474
2026-01-11 18:42:16.30	17.64	10.43	-32.8	-33.5	24.5	0.00e+00	0	28	0	564133888	40	5436
2026-01-11 18:42:17.31	17.55	10.51	-32.8	-33.4	24.6	0.00e+00	0	28	0	569376768	40	5377
2026-01-11 18:42:18.32	17.46	10.59	-32.8	-33.4	24.6	0.00e+00	0	28	0	574619648	38	6024
2026-01-11 18:42:19.33	17.37	10.66	-32.7	-33.3	24.8	0.00e+00	0	28	0	580911104	38	5955
2026-01-11 18:42:20.34	17.28	10.74	-32.8	-33.4	24.7	0.00e+00	0	28	0	586153984	38	6032
2026-01-11 18:42:21.35	17.18	10.82	-32.9	-33.6	24.6	0.00e+00	0	28	0	592445440	38	6130
2026-01-11 18:42:22.35	17.09	10.90	-32.7	-33.4	24.7	0.00e+00	0	28	0	597688320	38	6014
2026-01-11 18:42:23.37	17.00	10.98	-32.8	-33.5	24.6	0.00e+00	0	28	0	602931200	38	6100
2026-01-11 18:42:24.37	16.90	11.06	-32.8	-33.5	24.7	0.00e+00	0	28	0	609222656	38	6044
2026-01-11 18:42:25.38	16.81	11.13	-32.9	-33.6	24.6	0.00e+00	0	28	0	614465536	38	6144
2026-01-11 18:42:26.39	16.71	11.21	-32.9	-33.5	24.7	0.00e+00	0	28	0	620756992	38	6100
2026-01-11 18:42:27.40	16.62	11.29	-32.8	-33.5	24.7	0.00e+00	0	28	0	625999872	38	6046
2026-01-11 18:42:28.41	16.52	11.37	-32.9	-33.6	24.6	0.00e+00	0	28	0	632291328	38	6168
2026-01-11 18:42:29.42	16.42	11.45	-32.7	-33.4	24.8	0.00e+00	0	28	0	637534208	38	6006
2026-01-11 18:42:30.43	16.33	11.53	-32.7	-33.4	24.7	0.00e+00	0	28	0	642777088	38	6026
2026-01-11 18:42:31.43	16.23	11.61	-32.9	-33.6	24.7	0.00e+00	0	28	0	649068544	38	6112
2026-01-11 18:42:32.44	16.13	11.69	-32.8	-33.4	24.8	0.00e+00	0	28	0	654311424	38	6022
2026-01-11 18:42:33.45	16.03	11.77	-32.9	-33.6	24.7	0.00e+00	0	28	0	660602880	38	6141
2026-01-11 18:42:34.46	15.93	11.85	-32.7	-33.3	24.8	0.00e+00	0	28	0	665845760	38	5960
2026-01-11 18:42:35.47	15.83	11.93	-32.7	-33.4	24.8	0.00e+00	0	28	0	671088640	38	5986
2026-01-11 18:42:36.48	15.73	12.01	-32.7	-33.3	24.9	0.00e+00	0	28	0	677380096	38	5952
2026-01-11 18:42:37.49	15.63	12.10	-32.7	-33.3	24.9	0.00e+00	0	28	0	682622976	38	5958
2026-01-11 18:42:38.50	15.53	12.18	-32.4	-33.1	24.9	0.00e+00	0	28	0	688914432	38	5786
2026-01-11 18:42:39.51	15.42	12.26	-32.4	-33.1	25.1	0.00e+00	0	28	0	694157312	38	5787
2026-01-11 18:42:40.51	15.32	12.34	-32.4	-33.1	25.1	0.00e+00	0	28	0	699400192	38	5776
2026-01-11 18:42:41.52	15.22	12.42	-32.4	-33.0	25.2	0.00e+00	0	28	0	705691648	38	5748
2026-01-11 18:42:42.53	15.11	12.50	-32.4	-33.1	25.1	0.00e+00	0	28	0	710934528	38	5794
2026-01-11 18:42:43.53	15.01	12.58	-32.5	-33.2	25.0	0.00e+00	0	28	0	717225984	38	5853
2026-01-11 18:42:44.54	14.91	12.67	-32.5	-33.2	25.0	0.00e+00	0	28	0	722468864	38	5860
2026-01-11 18:42:45.55	14.80	12.75	-32.5	-33.1	25.1	0.00e+00	0	28	0	728760320	38	5807
2026-01-11 18:42:46.56	14.69	12.83	-32.4	-33.1	25.1	0.00e+00	0	28	0	734003200	38	5783
2026-01-11 18:42:47.57	14.59	12.91	-32.6	-33.3	24.9	0.00e+00	0	28	0	739246080	38	5929
2026-01-11 18:42:48.58	14.48	13.00	-32.5	-33.2	25.0	0.00e+00	0	28	0	745537536	38	5863
2026-01-11 18:42:49.59	14.37	13.08	-32.7	-33.3	24.8	0.00e+00	0	28	0	750780416	38	5962
2026-01-11 18:42:50.60	14.26	13.16	-32.2	-32.9	25.3	0.00e+00	0	28	0	757071872	38	5682
2026-01-11 18:42:51.61	14.15	13.25	-32.2	-32.8	25.4	0.00e+00	0	28	0	762314752	38	5630
2026-01-11 18:42:52.62	14.04	13.33	-32.0	-32.7	25.5	0.00e+00	0	28	0	767557632	38	5536
2026-01-11 18:42:53.62	13.93	13.41	-32.1	-32.8	25.4	0.00e+00	0	28	0	773849088	38	5581
2026-01-11 18:42:54.63	13.82	13.50	-32.2	-32.9	25.4	0.00e+00	0	28	0	779091968	38	5647
2026-01-11 18:42:55.64	13.70	13.58	-32.0	-32.7	25.5	0.00e+00	0	28	0	785383424	38	5529
2026-01-11 18:42:56.65	13.59	13.67	-32.2	-32.8	25.3	0.00e+00	0	28	0	790626304	38	5624
2026-01-11 18:42:57.65	13.48	13.75	-32.3	-32.9	25.3	0.00e+00	0	28	0	795869184	38	5661
2026-01-11 18:42:58.66	13.36	13.84	-32.1	-32.7	25.5	0.00e+00	0	28	0	802160640	38	5542
2026-01-11 18:42:59.67	13.25	13.92	-32.0	-32.6	25.5	0.00e+00	0	28	0	807403520	38	5489
2026-01-11 18:43:00.68	13.13	14.01	-32.0	-32.7	25.5	0.00e+00	0	28	0	813694976	38	5504
2026-01-11 18:43:01.69	13.02	14.09	-32.0	-32.6	25.5	0.00e+00	0	28	0	818937856	38	5492
2026-01-11 18:43:02.70	12.90	14.18	-31.8	-32.5	25.6	0.00e+00	0	28	0	825229312	38	5416
2026-01-11 18:43:03.71	12.78	14.26	-31.9	-32.6	25.6	0.00e+00	0	28	0	830472192	38	5475
2026-01-11 18:43:04.72	12.66	14.35	-31.8	-32.4	25.7	0.00e+00	0	28	0	835715072	38	5374
2026-01-11 18:43:05.73	12.54	14.43	-31.8	-32.4	25.8	0.00e+00	0	28	0	842006528	36	6010
2026-01-11 18:43:06.74	12.42	14.52	-31.8	-32.4	25.7	0.00e+00	0	28	0	847249408	36	6005
2026-01-11 18:43:07.74	12.30	14.61	-31.8	-32.5	25.7	0.00e+00	0	28	0	853540864	36	6049
2026-01-11 18:43:08.75	12.18	14.69	-31.7	-32.4	25.8	0.00e+00	0	28	0	858783744	36	5986
2026-01-11 18:43:09.76	12.06	14.78	-31.8	-32.5	25.7	0.00e+00	0	28	0	864026624	36	6075
2026-01-11 18:43:10.78	11.94	14.87	-31.6	-32.3	25.9	0.00e+00	0	28	0	870318080	36	5900
2026-01-11 18:43:11.79	11.81	14.95	-31.7	-32.4	25.9	0.00e+00	0	28	0	875560960	36	5966
2026-01-11 18:43:12.79	11.69	15.04	-31.5	-32.2	25.9	0.00e+00	0	28	0	881852416	36	5855
2026-01-11 18:43:13.80	11.56	15.13	-31.6	-32.3	25.9	0.00e+00	0	28	0	887095296	36	5901
2026-01-11 18:43:14.81	11.44	15.22	-31.7	-32.3	25.9	0.00e+00	0	28	0	892338176	36	5951
2026-01-11 18:43:15.82	11.31	15.30	-31.5	-32.2	26.0	0.00e+00	0	28	0	898629632	36	5830
2026-01-11 18:43:16.83	11.18	15.39	-31.5	-32.2	26.0	0.00e+00	0	28	0	903872512	36	5864
2026-01-11 18:43:17.84	11.06	15.48	-31.6	-32.2	26.0	0.00e+00	0	28	0	910163968	36	5853
2026-01-11 18:43:18.85	10.93	15.57	-31.6	-32.3	25.9	0.00e+00	0	28	0	915406848	36	5898
2026-01-11 18:43:19.86	10.80	15.66	-31.6	-32.2	26.0	0.00e+00	0	28	0	921698304	36	5893
2026-01-11 18:43:20.86	10.67	15.74	-31.5	-32.2	26.0	0.00e+00	0	29	0	926941184	36	5848
2026-01-11 18:43:21.87	10.54	15.83	-31.4	-32.0	26.2	0.00e+00	0	29	0	932184064	36	5751
2026-01-11 18:43:22.88	10.40	15.92	-31.3	-32.0	26.2	0.00e+00	0	29	0	938475520	36	5718
2026-01-11 18:43:23.89	10.27	16.01	-31.3	-32.0	26.2	0.00e+00	0	28	0	943718400	36	5712
2026-01-11 18:43:24.90	10.14	16.10	-31.3	-31.9	26.2	0.00e+00	0	29	0	950009856	36	5683
2026-01-11 18:43:25.91	10.00	16.19	-31.3	-31.9	26.2	0.00e+00	0	29	0	955252736	36	5689
2026-01-11 18:43:26.92	9.87	16.28	-31.1	-31.7	26.4	0.00e+00	0	29	0	960495616	36	5533
2026-01-11 18:43:27.92	9.73	16.37	-31.1	-31.7	26.4	0.00e+00	0	29	0	966787072	36	5564
2026-01-11 18:43:28.93	9.59	16.46	-31.0	-31.6	26.5	0.00e+00	0	29	0	972029952	36	5490
2026-01-11 18:43:29.94	9.46	16.55	-31.1	-31.7	26.4	0.00e+00	0	29	0	978321408	36	5562
2026-01-11 18:43:30.95	9.32	16.64	-31.0	-31.6	26.6	0.00e+00	0	29	0	983564288	36	5470
2026-01-11 18:43:31.96	9.18	16.73	-31.2	-31.8	26.3	0.00e+00	0	28	0	988807168	36	5612
2026-01-11 18:43:32.97	9.04	16.82	-31.1	-31.7	26.4	0.00e+00	0	28	0	995098624	36	5535
2026-01-11 18:43:33.98	8.90	16.91	-31.1	-31.7	26.4	0.00e+00	0	28	0	1000341504	36	5548
2026-01-11 18:43:34.99	8.75	17.00	-31.2	-31.8	26.3	0.00e+00	0	29	0	1006632960	36	5621
2026-01-11 18:43:36.00	8.61	17.09	-31.2	-31.8	26.3	0.00e+00	0	29	0	1011875840	36	5626
2026-01-11 18:43:37.01	8.47	17.18	-31.3	-32.0	26.2	0.00e+00	0	29	0	1018167296	36	5698
2026-01-11 18:43:38.02	8.32	17.28	-31.1	-31.8	26.4	0.00e+00	0	28	0	1023410176	36	5579
2026-01-11 18:43:39.02	8.18	17.37	-31.1	-31.7	26.4	0.00e+00	0	28	0	1028653056	36	5560
2026-01-11 18:43:40.03	8.03	17.46	-31.1	-31.8	26.4	0.00e+00	0	29	0	1034944512	36	5588
2026-01-11 18:43:41.04	7.88	17.55	-30.9	-31.5	26.6	0.00e+00	0	29	0	1040187392	36	5435
2026-01-11 18:43:42.05	7.73	17.64	-30.8	-31.4	26.7	0.00e+00	0	29	0	1046478848	34	6022
2026-01-11 18:43:43.06	7.58	17.73	-30.8	-31.4	26.7	0.00e+00	0	29	0	1051721728	34	5992
2026-01-11 18:43:44.07	7.43	17.83	-30.6	-31.2	26.9	0.00e+00	0	29	0	1056964608	34	5853
2026-01-11 18:43:45.08	7.28	17.92	-30.7	-31.3	26.8	0.00e+00	0	29	0	1063256064	34	5918
2026-01-11 18:43:46.09	7.13	18.01	-30.8	-31.4	26.7	0.00e+00	0	29	0	1068498944	34	6003
2026-01-11 18:43:47.10	6.98	18.10	-30.8	-31.4	26.7	0.00e+00	0	29	0	1074790400	34	6020
2026-01-11 18:43:48.11	6.82	18.20	-31.0	-31.7	26.5	0.00e+00	0	29	0	1080033280	34	6180
2026-01-11 18:43:49.12	6.67	18.29	-30.7	-31.3	26.8	0.00e+00	0	29	0	1085276160	34	5935
2026-01-11 18:43:50.12	6.51	18.38	-30.9	-31.5	26.5	0.00e+00	0	29	0	1091567616	34	6068
2026-01-11 18:43:51.13	6.35	18.48	-30.8	-31.5	26.7	0.00e+00	0	29	0	1096810496	34	6042
2026-01-11 18:43:52.14	6.20	18.57	-30.7	-31.4	26.8	0.00e+00	0	29	0	1103101952	34	5966
2026-01-11 18:43:53.15	6.04	18.66	-30.7	-31.3	26.9	0.00e+00	0	29	0	1108344832	34	5959
2026-01-11 18:43:54.16	5.88	18.76	-30.7	-31.3	26.8	0.00e+00	0	29	0	1114636288	34	5919
2026-01-11 18:43:55.18	5.71	18.85	-30.6	-31.2	26.9	0.00e+00	0	29	0	1119879168	34	5886
2026-01-11 18:43:56.19	5.55	18.94	-30.7	-31.3	26.8	0.00e+00	0	29	0	1126170624	34	5955
2026-01-11 18:43:57.19	5.39	19.04	-30.5	-31.2	26.8	0.00e+00	0	29	0	1131413504	34	5857
2026-01-11 18:43:58.21	5.22	19.13	-30.5	-31.1	27.0	0.00e+00	0	29	0	1136656384	34	5802
2026-01-11 18:43:59.22	5.06	19.23	-30.6	-31.2	27.0	0.00e+00	0	29	0	1142947840	34	5846
2026-01-11 18:44:00.23	4.89	19.32	-30.6	-31.2	26.9	0.00e+00	0	29	0	1148190720	34	5864
2026-01-11 18:44:01.24	4.72	19.41	-30.4	-31.1	27.0	0.00e+00	0	29	0	1154482176	34	5785
2026-01-11 18:44:02.25	4.56	19.51	-30.2	-30.8	27.3	0.00e+00	0	29	0	1159725056	34	5625
2026-01-11 18:44:03.26	4.39	19.60	-30.2	-30.8	27.2	0.00e+00	0	29	0	1164967936	34	5592
2026-01-11 18:44:04.27	4.22	19.70	-30.3	-30.9	27.1	0.00e+00	0	29	0	1171259392	34	5695
2026-01-11 18:44:05.28	4.04	19.79	-30.1	-30.7	27.3	0.00e+00	0	29	0	1176502272	34	5547
2026-01-11 18:44:06.29	3.87	19.89	-30.2	-30.8	27.2	0.00e+00	0	29	0	1182793728	34	5592
2026-01-11 18:44:07.30	3.70	19.98	-30.4	-31.0	27.1	0.00e+00	0	29	0	1188036608	34	5735
2026-01-11 18:44:08.31	3.52	20.08	-30.4	-31.0	27.0	0.00e+00	0	29	0	1193279488	34	5755
2026-01-11 18:44:09.32	3.35	20.17	-30.5	-31.1	27.0	0.00e+00	0	29	0	1199570944	34	5783
2026-01-11 18:44:10.33	3.17	20.27	-30.6	-31.2	26.9	0.00e+00	0	29	0	1204813824	34	5871
2026-01-11 18:44:11.33	2.99	20.36	-30.4	-31.1	27.0	0.00e+00	0	29	0	1211105280	34	5795
2026-01-11 18:44:12.35	2.81	20.46	-30.4	-31.0	27.1	0.00e+00	0	29	0	1216348160	34	5732
2026-01-11 18:44:13.35	2.63	20.55	-30.3	-30.9	27.1	0.00e+00	0	29	0	1222639616	34	5676
2026-01-11 18:44:14.36	2.45	20.65	-30.3	-30.9	27.1	0.00e+00	0	29	0	1227882496	34	5687
2026-01-11 18:44:15.37	2.27	20.74	-30.1	-30.7	27.3	0.00e+00	0	29	0	1233125376	34	5547
2026-01-11 18:44:16.38	2.08	20.84	-30.0	-30.6	27.3	0.00e+00	0	29	0	1239416832	34	5491
2026-01-11 18:44:17.39	1.90	20.93	-30.0	-30.6	27.3	0.00e+00	0	29	0	1244659712	34	5492
2026-01-11 18:44:18.40	1.71	21.03	-30.0	-30.7	27.4	0.00e+00	0	29	0	1250951168	34	5516
2026-01-11 18:44:19.40	1.53	21.12	-30.2	-30.8	27.2	0.00e+00	0	29	0	1256194048	34	5607
2026-01-11 18:44:20.41	1.34	21.22	-30.2	-30.8	27.2	0.00e+00	0	29	0	1261436928	34	5613
2026-01-11 18:44:21.42	1.15	21.32	-30.3	-31.0	27.1	0.00e+00	0	29	0	1267728384	34	5696
2026-01-11 18:44:22.44	0.95	21.41	-30.2	-30.9	27.2	0.00e+00	0	29	0	1272971264	34	5636
2026-01-11 18:44:23.44	0.76	21.51	-30.2	-30.8	27.2	0.00e+00	0	29	0	1279262720	34	5611
2026-01-11 18:44:24.45	0.57	21.60	-30.2	-30.8	27.2	0.00e+00	0	29	0	1284505600	34	5604
2026-01-11 18:44:25.46	0.37	21.70	-30.2	-30.8	27.3	0.00e+00	0	29	0	1289748480	34	5629
2026-01-11 18:44:26.47	0.18	21.79	-30.1	-30.7	27.3	0.00e+00	0	29	0	1296039936	34	5562
2026-01-11 18:44:27.48	359.98	21.89	-30.2	-30.8	27.2	0.00e+00	0	29	0	1301282816	34	5580
2026-01-11 18:44:28.49	359.78	21.99	-30.4	-31.0	27.2	0.00e+00	0	29	0	1307574272	34	5713
2026-01-11 18:44:29.50	359.58	22.08	-30.0	-30.6	27.4	0.00e+00	0	29	0	1312817152	34	5480
2026-01-11 18:44:30.51	359.38	22.18	-30.1	-30.7	27.3	0.00e+00	0	29	0	1319108608	34	5540
2026-01-11 18:44:31.52	359.18	22.27	-30.0	-30.6	27.4	0.00e+00	0	29	0	1324351488	34	5464
2026-01-11 18:44:32.53	358.98	22.37	-29.9	-30.5	27.5	0.00e+00	0	29	0	1329594368	34	5405
2026-01-11 18:44:33.54	358.77	22.46	-30.0	-30.7	27.4	0.00e+00	0	29	0	1335885824	34	5523
2026-01-11 18:44:34.55	358.57	22.56	-30.0	-30.6	27.5	0.00e+00	0	29	0	1341128704	34	5489
2026-01-11 18:44:35.56	358.36	22.66	-30.1	-30.7	27.4	0.00e+00	0	29	0	1347420160	34	5539
2026-01-11 18:44:36.57	358.15	22.75	-30.1	-30.7	27.4	0.00e+00	0	29	0	1352663040	34	5511
2026-01-11 18:44:37.58	357.94	22.85	-30.2	-30.8	27.3	0.00e+00	0	29	0	1357905920	34	5596
2026-01-11 18:44:38.58	357.73	22.94	-29.9	-30.5	27.5	0.00e+00	0	29	0	1364197376	34	5419
2026-01-11 18:44:39.59	357.52	23.04	-29.9	-30.6	27.5	0.00e+00	0	29	0	1369440256	34	5440
2026-01-11 18:44:40.60	357.30	23.13	-29.8	-30.5	27.6	0.00e+00	0	29	0	1375731712	34	5383
2026-01-11 18:44:41.61	357.09	23.23	-29.8	-30.4	27.6	0.00e+00	0	29	0	1380974592	32	6013
2026-01-11 18:44:42.62	356.87	23.32	-29.7	-30.3	27.6	0.00e+00	0	29	0	1386217472	32	5963
2026-01-11 18:44:43.63	356.65	23.42	-29.8	-30.4	27.6	0.00e+00	0	29	0	1392508928	32	6003
2026-01-11 18:44:44.64	356.43	23.51	-29.8	-30.4	27.6	0.00e+00	0	29	0	1397751808	32	6016
2026-01-11 18:44:45.65	356.21	23.61	-29.6	-30.2	27.8	0.00e+00	0	29	0	1404043264	32	5866
2026-01-11 18:44:46.66	355.99	23.70	-29.5	-30.1	27.8	0.00e+00	0	29	0	1409286144	32	5798
2026-01-11 18:44:47.67	355.77	23.79	-29.3	-29.9	28.0	0.00e+00	0	29	0	1415577600	32	5676
2026-01-11 18:44:48.68	355.54	23.89	-29.4	-30.0	27.9	0.00e+00	0	29	0	1420820480	32	5700
2026-01-11 18:44:49.69	355.32	23.98	-29.5	-30.1	27.9	0.00e+00	0	29	0	1427111936	32	5786
2026-01-11 18:44:50.70	355.09	24.08	-29.5	-30.1	27.9	0.00e+00	0	29	0	1432354816	32	5796
2026-01-11 18:44:51.70	354.86	24.17	-29.5	-30.1	27.8	0.00e+00	0	29	0	1437597696	32	5828
2026-01-11 18:44:52.71	354.63	24.26	-29.5	-30.1	27.9	0.00e+00	0	29	0	1443889152	32	5767
2026-01-11 18:44:53.73	354.40	24.36	-29.5	-30.1	27.8	0.00e+00	0	29	0	1449132032	32	5820
2026-01-11 18:44:54.74	354.17	24.45	-29.7	-30.3	27.7	0.00e+00	0	29	0	1455423488	32	5910
2026-01-11 18:44:55.75	353.93	24.55	-29.6	-30.2	27.6	0.00e+00	0	29	0	1460666368	32	5876
2026-01-11 18:44:56.75	353.70	24.64	-29.5	-30.2	27.7	0.00e+00	0	29	0	1465909248	32	5853
2026-01-11 18:44:57.77	353.46	24.73	-29.7	-30.3	27.7	0.00e+00	0	29	0	1472200704	32	5923
2026-01-11 18:44:58.77	353.22	24.82	-29.6	-30.2	27.8	0.00e+00	0	29	0	1477443584	32	5839
2026-01-11 18:44:59.79	352.98	24.92	-29.5	-30.1	27.8	0.00e+00	0	29	0	1483735040	32	5786
2026-01-11 18:45:00.80	352.74	25.01	-29.3	-29.9	28.0	0.00e+00	0	29	0	1488977920	32	5654
2026-01-11 18:45:01.81	352.50	25.10	-29.4	-30.0	28.0	0.00e+00	0	29	0	1494220800	32	5721
2026-01-11 18:45:02.82	352.25	25.19	-29.5	-30.1	27.9	0.00e+00	0	29	0	1500512256	32	5810
2026-01-11 18:45:03.83	352.01	25.28	-29.5	-30.1	27.9	0.00e+00	0	29	0	1505755136	32	5779
2026-01-11 18:45:04.84	351.76	25.37	-29.5	-30.1	27.9	0.00e+00	0	29	0	1512046592	32	5794
2026-01-11 18:45:05.85	351.51	25.46	-29.5	-30.1	27.8	0.00e+00	0	29	0	1517289472	32	5792
2026-01-11 18:45:06.86	351.26	25.56	-29.4	-30.1	27.9	0.00e+00	0	29	0	1523580928	32	5763
2026-01-11 18:45:07.86	351.01	25.64	-29.3	-29.9	28.0	0.00e+00	0	29	0	1528823808	32	5676
2026-01-11 18:45:08.87	350.76	25.73	-29.2	-29.8	28.1	0.00e+00	0	29	0	1534066688	32	5618
2026-01-11 18:45:09.88	350.50	25.82	-29.3	-29.9	28.0	0.00e+00	0	29	0	1540358144	32	5648
2026-01-11 18:45:10.89	350.25	25.91	-29.2	-29.7	28.1	0.00e+00	0	29	0	1545601024	32	5564
2026-01-11 18:45:11.90	349.99	26.00	-29.3	-29.9	28.0	0.00e+00	0	29	0	1551892480	32	5668
2026-01-11 18:45:12.91	349.73	26.09	-29.3	-30.0	27.9	0.00e+00	0	29	0	1557135360	32	5696
2026-01-11 18:45:13.92	349.47	26.18	-29.4	-30.0	27.8	0.00e+00	0	29	0	1562378240	32	5723
2026-01-11 18:45:14.93	349.21	26.27	-29.3	-29.9	28.0	0.00e+00	0	29	0	1568669696	32	5636
2026-01-11 18:45:15.94	348.94	26.35	-29.3	-29.9	27.9	0.00e+00	0	29	0	1573912576	32	5684
2026-01-11 18:45:16.95	348.68	26.44	-29.2	-29.8	28.0	0.00e+00	0	29	0	1580204032	32	5584
2026-01-11 18:45:17.96	348.41	26.53	-29.2	-29.8	28.0	0.00e+00	0	29	0	1585446912	32	5577
2026-01-11 18:45:18.97	348.15	26.61	-29.2	-29.7	28.0	0.00e+00	0	29	0	1590689792	32	5563
2026-01-11 18:45:19.98	347.88	26.70	-29.0	-29.6	28.1	0.00e+00	0	29	0	1596981248	32	5495
2026-01-11 18:45:20.98	347.61	26.78	-29.1	-29.7	28.1	0.00e+00	0	29	0	1602224128	32	5521
2026-01-11 18:45:21.99	347.34	26.87	-29.2	-29.8	28.1	0.00e+00	0	29	0	1608515584	32	5616
2026-01-11 18:45:23.00	347.06	26.95	-29.3	-29.9	27.9	0.00e+00	0	29	0	1613758464	32	5680
2026-01-11 18:45:24.01	346.79	27.04	-29.4	-30.0	27.8	0.00e+00	0	29	0	1620049920	32	5726
2026-01-11 18:45:25.02	346.51	27.12	-29.4	-30.0	28.0	0.00e+00	0	29	0	1625292800	32	5732
2026-01-11 18:45:26.03	346.23	27.20	-29.2	-29.8	28.1	0.00e+00	0	29	0	1631584256	32	5592
2026-01-11 18:45:27.04	345.95	27.29	-29.1	-29.7	28.1	0.00e+00	0	29	0	1636827136	32	5528
2026-01-11 18:45:28.05	345.67	27.37	-28.9	-29.5	28.2	0.00e+00	0	29	0	1642070016	32	5427
2026-01-11 18:45:29.06	345.39	27.45	-29.0	-29.6	28.2	0.00e+00	0	29	0	1648361472	32	5498
2026-01-11 18:45:30.07	345.11	27.53	-29.0	-29.6	28.2	0.00e+00	0	29	0	1653604352	32	5494
2026-01-11 18:45:31.08	344.82	27.61	-29.0	-29.5	28.2	0.00e+00	0	29	0	1658847232	32	5436
2026-01-11 18:45:32.09	344.53	27.69	-28.8	-29.3	28.4	0.00e+00	0	29	0	1665138688	32	5312
2026-01-11 18:45:33.10	344.25	27.77	-28.8	-29.4	28.5	0.00e+00	0	29	0	1670381568	30	5996
2026-01-11 18:45:34.10	343.96	27.85	-28.8	-29.3	28.4	0.00e+00	0	29	0	1676673024	30	5955
2026-01-11 18:45:35.11	343.67	27.93	-28.7	-29.3	28.5	0.00e+00	0	29	0	1681915904	30	5955
2026-01-11 18:45:36.12	343.38	28.01	-28.8	-29.4	28.4	0.00e+00	0	29	0	1687158784	30	5988
2026-01-11 18:45:37.13	343.08	28.08	-28.9	-29.5	28.3	0.00e+00	0	29	0	1693450240	30	6079
2026-01-11 18:45:38.14	342.79	28.16	-28.9	-29.6	28.3	0.00e+00	0	29	0	1698693120	30	6108
2026-01-11 18:45:39.15	342.49	28.23	-28.9	-29.4	28.3	0.00e+00	0	29	0	1704984576	30	6033
2026-01-11 18:45:40.16	342.19	28.31	-28.9	-29.5	28.4	0.00e+00	0	29	0	1710227456	30	6047
2026-01-11 18:45:41.17	341.89	28.38	-28.9	-29.5	28.3	0.00e+00	0	29	0	1716518912	30	6042
2026-01-11 18:45:42.18	341.59	28.46	-29.1	-29.7	28.2	0.00e+00	0	29	0	1721761792	30	6215
2026-01-11 18:45:43.19	341.29	28.53	-29.1	-29.8	28.1	0.00e+00	0	29	0	1728053248	30	6250
2026-01-11 18:45:44.19	340.99	28.60	-29.0	-29.6	28.2	0.00e+00	0	29	0	1733296128	30	6172
2026-01-11 18:45:45.20	340.68	28.67	-28.9	-29.5	28.4	0.00e+00	0	29	0	1738539008	30	6099
2026-01-11 18:45:46.22	340.37	28.75	-28.9	-29.5	28.3	0.00e+00	0	29	0	1744830464	30	6092
2026-01-11 18:45:47.22	340.07	28.81	-28.8	-29.4	28.4	0.00e+00	0	29	0	1750073344	30	6005
2026-01-11 18:45:48.23	339.76	28.88	-28.8	-29.5	28.5	0.00e+00	0	29	0	1756364800	30	6043
2026-01-11 18:45:49.24	339.45	28.95	-28.8	-29.4	28.4	0.00e+00	0	29	0	1761607680	30	6007
2026-01-11 18:45:50.25	339.14	29.02	-28.9	-29.5	28.4	0.00e+00	0	29	0	1766850560	30	6035
2026-01-11 18:45:51.26	338.82	29.09	-28.9	-29.6	28.5	0.00e+00	0	29	0	1773142016	30	6104
2026-01-11 18:45:52.27	338.51	29.15	-29.0	-29.6	28.2	0.00e+00	0	29	0	1778384896	30	6160
2026-01-11 18:45:53.28	338.19	29.22	-29.1	-29.7	28.2	0.00e+00	0	29	0	1783627776	30	6188
2026-01-11 18:45:54.29	337.88	29.28	-29.0	-29.6	28.4	0.00e+00	0	29	0	1789919232	30	6130
2026-01-11 18:45:55.30	337.56	29.35	-28.7	-29.4	28.5	0.00e+00	0	29	0	1795162112	30	5967
2026-01-11 18:45:56.30	337.24	29.41	-28.6	-29.2	28.6	0.00e+00	0	29	0	1801453568	30	5856
2026-01-11 18:45:57.31	336.92	29.47	-28.4	-29.0	28.7	0.00e+00	0	29	0	1806696448	30	5711
2026-01-11 18:45:58.33	336.59	29.53	-28.4	-29.0	28.8	0.00e+00	0	29	0	1812987904	30	5716
2026-01-11 18:45:59.33	336.27	29.59	-28.6	-29.2	28.6	0.00e+00	0	29	0	1818230784	30	5832
2026-01-11 18:46:00.34	335.95	29.65	-28.7	-29.3	28.5	0.00e+00	0	29	0	1824522240	30	5908
2026-01-11 18:46:01.35	335.62	29.71	-28.8	-29.4	28.4	0.00e+00	0	29	0	1829765120	30	5998
2026-01-11 18:46:02.36	335.30	29.77	-28.8	-29.4	28.5	0.00e+00	0	29	0	1835008000	30	6015
2026-01-11 18:46:03.37	334.97	29.82	-28.9	-29.5	28.4	0.00e+00	0	29	0	1841299456	30	6050
2026-01-11 18:46:04.38	334.64	29.88	-28.7	-29.3	28.5	0.00e+00	0	29	0	1846542336	30	5957
2026-01-11 18:46:05.39	334.31	29.93	-28.7	-29.4	28.5	0.00e+00	0	29	0	1852833792	30	5976
2026-01-11 18:46:06.40	333.98	29.99	-28.8	-29.4	28.4	0.00e+00	0	29	0	1858076672	30	5985
2026-01-11 18:46:07.41	333.64	30.04	-28.9	-29.5	28.3	0.00e+00	0	29	0	1863319552	30	6082
2026-01-11 18:46:08.42	333.31	30.09	-28.8	-29.5	28.4	0.00e+00	0	29	0	1869611008	30	6038
2026-01-11 18:46:09.43	332.98	30.14	-28.7	-29.3	28.5	0.00e+00	0	29	0	1874853888	30	5964
2026-01-11 18:46:10.44	332.64	30.19	-28.8	-29.4	28.4	0.00e+00	0	29	0	1881145344	30	5990
2026-01-11 18:46:11.44	332.31	30.24	-28.7	-29.3	28.3	0.00e+00	0	29	0	1886388224	30	5961
2026-01-11 18:46:12.45	331.97	30.29	-28.9	-29.5	28.4	0.00e+00	0	29	0	1891631104	30	6081
2026-01-11 18:46:13.46	331.63	30.33	-28.8	-29.3	28.5	0.00e+00	0	29	0	1897922560	30	5963
2026-01-11 18:46:14.47	331.29	30.38	-28.7	-29.3	28.5	0.00e+00	0	29	0	1903165440	30	5922
2026-01-11 18:46:15.48	330.95	30.42	-28.9	-29.5	28.4	0.00e+00	0	29	0	1909456896	30	6046
2026-01-11 18:46:16.49	330.61	30.47	-28.9	-29.5	28.4	0.00e+00	0	29	0	1914699776	30	6077
2026-01-11 18:46:17.50	330.26	30.51	-28.9	-29.5	28.4	0.00e+00	0	29	0	1920991232	30	6034
2026-01-11 18:46:18.51	329.92	30.55	-28.7	-29.3	28.5	0.00e+00	0	29	0	1926234112	30	5900
2026-01-11 18:46:19.52	329.57	30.59	-28.6	-29.2	28.6	0.00e+00	0	29	0	1931476992	30	5870
2026-01-11 18:46:20.53	329.23	30.63	-28.5	-29.0	28.8	0.00e+00	0	30	0	1937768448	30	5761
2026-01-11 18:46:21.54	328.88	30.67	-28.5	-29.1	28.7	0.00e+00	0	29	0	1943011328	30	5824
2026-01-11 18:46:22.55	328.54	30.70	-28.7	-29.3	28.5	0.00e+00	0	29	0	1949302784	30	5911
2026-01-11 18:46:23.56	328.19	30.74	-28.7	-29.2	28.6	0.00e+00	0	29	0	1954545664	30	5875
2026-01-11 18:46:24.57	327.84	30.77	-28.6	-29.2	28.7	0.00e+00	0	29	0	1959788544	30	5883
2026-01-11 18:46:25.58	327.49	30.81	-28.7	-29.2	28.6	0.00e+00	0	29	0	1966080000	30	5886
2026-01-11 18:46:26.59	327.14	30.84	-28.7	-29.3	28.5	0.00e+00	0	30	0	1971322880	30	5917
2026-01-11 18:46:27.60	326.79	30.87	-28.8	-29.4	28.4	0.00e+00	0	30	0	1977614336	30	5989
2026-01-11 18:46:28.60	326.44	30.90	-28.9	-29.5	28.3	0.00e+00	0	30	0	1982857216	30	6086
2026-01-11 18:46:29.62	326.09	30.93	-28.8	-29.4	28.5	0.00e+00	0	30	0	1988100096	30	5996
2026-01-11 18:46:30.62	325.74	30.96	-28.7	-29.3	28.5	0.00e+00	0	30	0	1994391552	30	5914
2026-01-11 18:46:31.63	325.38	30.98	-28.6	-29.2	28.6	0.00e+00	0	30	0	1999634432	30	5877
2026-01-11 18:46:32.64	325.03	31.01	-28.5	-29.1	28.7	0.00e+00	0	30	0	2005925888	30	5782
2026-01-11 18:46:33.65	324.67	31.03	-28.6	-29.2	28.7	0.00e+00	0	30	0	2011168768	30	5852
2026-01-11 18:46:34.66	324.32	31.05	-28.6	-29.1	28.6	0.00e+00	0	30	0	2017460224	30	5828
2026-01-11 18:46:35.67	323.96	31.07	-28.5	-29.2	28.6	0.00e+00	0	30	0	2022703104	30	5851
2026-01-11 18:46:36.68	323.61	31.09	-28.6	-29.2	28.6	0.00e+00	0	30	0	2028994560	30	5835
2026-01-11 18:46:37.69	323.25	31.11	-28.5	-29.1	28.5	0.00e+00	0	30	0	2034237440	30	5826
2026-01-11 18:46:38.70	322.90	31.13	-28.4	-28.9	28.7	0.00e+00	0	30	0	2039480320	30	5693
2026-01-11 18:46:39.71	322.54	31.15	-28.3	-28.9	28.7	0.00e+00	0	30	0	2045771776	30	5691
2026-01-11 18:46:40.71	322.18	31.16	-28.4	-28.9	28.7	0.00e+00	0	30	0	2051014656	30	5664
2026-01-11 18:46:41.72	321.83	31.18	-28.3	-28.9	28.7	0.00e+00	0	29	0	2056257536	30	5692
2026-01-11 18:46:42.74	321.46	31.19	-28.4	-29.0	28.8	0.00e+00	0	30	0	2062548992	30	5735
2026-01-11 18:46:43.74	321.11	31.20	-28.5	-29.1	28.6	0.00e+00	0	30	0	2067791872	30	5794
2026-01-11 18:46:44.75	320.75	31.21	-28.7	-29.3	28.5	0.00e+00	0	30	0	2074083328	30	5898
2026-01-11 18:46:45.76	320.39	31.22	-28.9	-29.5	28.4	0.00e+00	0	30	0	2079326208	30	6067
2026-01-11 18:46:46.77	320.03	31.23	-28.9	-29.4	28.4	0.00e+00	0	29	0	2084569088	30	6020
2026-01-11 18:46:47.78	319.67	31.23	-28.8	-29.5	28.5	0.00e+00	0	29	0	2090860544	30	6048
2026-01-11 18:46:48.79	319.32	31.24	-29.1	-29.7	28.3	0.00e+00	0	29	0	2096103424	30	6210
2026-01-11 18:46:49.80	318.96	31.24	-28.8	-29.4	28.5	0.00e+00	0	30	0	2102394880	30	5975
2026-01-11 18:46:50.81	318.60	31.24	-28.5	-29.2	28.7	0.00e+00	0	29	0	2107637760	30	5837
2026-01-11 18:46:51.82	318.24	31.24	-28.7	-29.3	28.6	0.00e+00	0	30	0	2113929216	30	5898
2026-01-11 18:46:52.83	317.88	31.24	-28.4	-29.0	28.8	0.00e+00	0	29	0	2119172096	30	5722
2026-01-11 18:46:53.84	317.52	31.24	-28.6	-29.1	28.6	0.00e+00	0	30	0	2125463552	30	5827
2026-01-11 18:46:54.85	317.16	31.24	-28.6	-29.3	28.6	0.00e+00	0	30	0	2130706432	30	5921
2026-01-11 18:46:55.86	316.80	31.24	-28.7	-29.2	28.5	0.00e+00	0	30	0	2135949312	30	5886
2026-01-11 18:46:56.87	316.44	31.23	-28.6	-29.2	28.6	0.00e+00	0	30	0	2142240768	30	5864
2026-01-11 18:46:57.88	316.08	31.22	-28.6	-29.2	28.6	0.00e+00	0	30	0	2147483648	30	5872
2026-01-11 18:46:58.89	315.72	31.22	-28.7	-29.3	28.5	0.00e+00	0	30	0	2153775104	30	5913
2026-01-11 18:46:59.90	315.36	31.21	-28.8	-29.4	28.5	0.00e+00	0	30	0	2159017984	30	5995
2026-01-11 18:47:00.91	315.00	31.20	-28.6	-29.1	28.5	0.00e+00	0	30	0	2164260864	30	5791
2026-01-11 18:47:01.91	314.65	31.19	-28.5	-29.1	28.5	0.00e+00	0	30	0	2170552320	30	5805
2026-01-11 18:47:02.92	314.29	31.17	-28.6	-29.2	28.5	0.00e+00	0	30	0	2175795200	30	5879
2026-01-11 18:47:03.93	313.93	31.16	-28.7	-29.3	28.3	0.00e+00	0	30	0	2181038080	30	5908
2026-01-11 18:47:04.94	313.58	31.14	-28.7	-29.3	28.2	0.00e+00	0	29	0	2187329536	30	5959
2026-01-11 18:47:05.95	313.22	31.13	-28.6	-29.2	28.5	0.00e+00	0	30	0	2192572416	30	5843
2026-01-11 18:47:06.96	312.86	31.11	-28.6	-29.1	28.5	0.00e+00	0	29	0	2198863872	30	5796
2026-01-11 18:47:07.97	312.50	31.09	-28.6	-29.2	28.6	0.00e+00	0	30	0	2204106752	30	5869
2026-01-11 18:47:08.98	312.15	31.07	-28.7	-29.4	28.6	0.00e+00	0	30	0	2210398208	30	5987
2026-01-11 18:47:09.98	311.80	31.05	-28.5	-29.1	28.7	0.00e+00	0	30	0	2215641088	30	5819
2026-01-11 18:47:11.00	311.44	31.03	-28.5	-29.1	28.7	0.00e+00	0	30	0	2221932544	30	5803
2026-01-11 18:47:12.00	311.09	31.00	-28.4	-29.0	28.8	0.00e+00	0	30	0	2227175424	30	5732
2026-01-11 18:47:13.02	310.73	30.98	-28.4	-29.0	28.6	0.00e+00	0	29	0	2232418304	30	5729
2026-01-11 18:47:14.02	310.38	30.95	-28.4	-29.0	28.7	0.00e+00	0	30	0	2238709760	30	5736
2026-01-11 18:47:15.03	310.03	30.92	-28.5	-29.2	28.7	0.00e+00	0	30	0	2243952640	30	5847
2026-01-11 18:47:16.04	309.67	30.89	-28.7	-29.3	28.5	0.00e+00	0	30	0	2250244096	30	5956
2026-01-11 18:47:17.05	309.32	30.86	-28.5	-29.1	28.7	0.00e+00	0	30	0	2255486976	30	5782
2026-01-11 18:47:18.06	308.97	30.83	-28.6	-29.2	28.7	0.00e+00	0	30	0	2260729856	30	5852
2026-01-11 18:47:19.07	308.62	30.80	-28.6	-29.2	28.6	0.00e+00	0	29	0	2267021312	30	5833
2026-01-11 18:47:20.08	308.27	30.77	-28.8	-29.4	28.5	0.00e+00	0	30	0	2272264192	30	5968
2026-01-11 18:47:21.09	307.92	30.73	-28.9	-29.5	28.4	0.00e+00	0	30	0	2278555648	30	6088
2026-01-11 18:47:22.10	307.58	30.70	-29.1	-29.7	28.3	0.00e+00	0	30	0	2283798528	30	6196
2026-01-11 18:47:23.11	307.23	30.66	-28.9	-29.5	28.4	0.00e+00	0	30	0	2289041408	30	6088
2026-01-11 18:47:24.12	306.88	30.62	-28.8	-29.3	28.5	0.00e+00	0	30	0	2295332864	30	5953
2026-01-11 18:47:25.13	306.54	30.58	-28.8	-29.4	28.5	0.00e+00	0	30	0	2300575744	30	5983
2026-01-11 18:47:26.14	306.19	30.54	-28.8	-29.4	28.5	0.00e+00	0	30	0	2306867200	30	6003
2026-01-11 18:47:27.15	305.85	30.50	-28.6	-29.2	28.6	0.00e+00	0	30	0	2312110080	30	5849
2026-01-11 18:47:28.16	305.50	30.46	-28.4	-29.0	28.8	0.00e+00	0	30	0	2318401536	30	5733
2026-01-11 18:47:29.17	305.16	30.41	-28.2	-28.8	28.9	0.00e+00	0	30	0	2323644416	30	5625
2026-01-11 18:47:30.18	304.82	30.37	-28.1	-28.7	28.9	0.00e+00	0	30	0	2328887296	30	5557
2026-01-11 18:47:31.19	304.48	30.32	-28.2	-28.7	28.9	0.00e+00	0	30	0	2335178752	30	5542
2026-01-11 18:47:32.19	304.14	30.28	-28.4	-29.0	28.8	0.00e+00	0	30	0	2340421632	30	5700
2026-01-11 18:47:33.20	303.81	30.23	-28.4	-29.0	28.7	0.00e+00	0	30	0	2346713088	30	5701
2026-01-11 18:47:34.21	303.47	30.18	-28.6	-29.1	28.6	0.00e+00	0	30	0	2351955968	30	5823
2026-01-11 18:47:35.22	303.13	30.13	-28.7	-29.2	28.6	0.00e+00	0	30	0	2357198848	30	5888
2026-01-11 18:47:36.23	302.80	30.08	-28.8	-29.4	28.5	0.00e+00	0	30	0	2363490304	30	6000
2026-01-11 18:47:37.24	302.46	30.03	-28.9	-29.5	28.4	0.00e+00	0	30	0	2368733184	30	6066
2026-01-11 18:47:38.25	302.13	29.98	-29.2	-29.7	28.2	0.00e+00	0	30	0	2375024640	30	6239
2026-01-11 18:47:39.26	301.80	29.92	-29.2	-29.8	28.1	0.00e+00	0	30	0	2380267520	30	6252
2026-01-11 18:47:40.27	301.47	29.87	-29.4	-29.9	28.0	0.00e+00	0	30	0	2385510400	30	6360
2026-01-11 18:47:41.28	301.14	29.81	-29.3	-29.8	28.1	0.00e+00	0	30	0	2391801856	30	6308
2026-01-11 18:47:42.29	300.81	29.75	-29.0	-29.6	28.4	0.00e+00	0	30	0	2397044736	30	6161
2026-01-11 18:47:43.29	300.49	29.70	-29.0	-29.5	28.4	0.00e+00	0	30	0	2403336192	30	6090
2026-01-11 18:47:44.30	300.16	29.64	-28.9	-29.5	28.3	0.00e+00	0	30	0	2408579072	30	6060
2026-01-11 18:47:45.31	299.83	29.58	-28.8	-29.3	28.6	0.00e+00	0	30	0	2414870528	30	5954
2026-01-11 18:47:46.32	299.51	29.52	-28.7	-29.2	28.5	0.00e+00	0	30	0	2420113408	30	5859
2026-01-11 18:47:47.33	299.19	29.46	-28.7	-29.3	28.5	0.00e+00	0	30	0	2425356288	30	5952
2026-01-11 18:47:48.34	298.87	29.39	-28.6	-29.1	28.6	0.00e+00	0	30	0	2431647744	30	5778
2026-01-11 18:47:49.35	298.55	29.33	-28.7	-29.3	28.6	0.00e+00	0	30	0	2436890624	30	5929
2026-01-11 18:47:50.36	298.23	29.27	-28.8	-29.5	28.5	0.00e+00	0	30	0	2443182080	30	6035
2026-01-11 18:47:51.36	297.91	29.20	-28.8	-29.4	28.4	0.00e+00	0	30	0	2448424960	30	6012
2026-01-11 18:47:52.37	297.60	29.14	-28.9	-29.5	28.2	0.00e+00	0	30	0	2453667840	30	6042
2026-01-11 18:47:53.38	297.28	29.07	-28.9	-29.6	28.3	0.00e+00	0	30	0	2459959296	30	6144
2026-01-11 18:47:54.39	296.97	29.00	-28.9	-29.5	28.4	0.00e+00	0	30	0	2465202176	30	6072
2026-01-11 18:47:55.40	296.66	28.94	-29.1	-29.8	28.2	0.00e+00	0	30	0	2471493632	30	6252
2026-01-11 18:47:56.41	296.35	28.87	-29.1	-29.7	28.3	0.00e+00	0	30	0	2476736512	30	6199
2026-01-11 18:47:57.42	296.04	28.80	-29.0	-29.6	28.3	0.00e+00	0	30	0	2481979392	30	6173
2026-01-11 18:47:58.43	295.73	28.73	-29.2	-29.8	28.1	0.00e+00	0	30	0	2488270848	30	6284
2026-01-11 18:47:59.43	295.42	28.66	-29.1	-29.8	28.4	0.00e+00	0	30	0	2493513728	30	6259
2026-01-11 18:48:00.44	295.12	28.58	-29.1	-29.8	28.3	0.00e+00	0	30	0	2499805184	30	6251
2026-01-11 18:48:01.45	294.81	28.51	-28.9	-29.5	28.5	0.00e+00	0	30	0	2505048064	30	6050
2026-01-11 18:48:02.45	294.51	28.44	-28.9	-29.5	28.5	0.00e+00	0	30	0	2511339520	30	6070
2026-01-11 18:48:03.46	294.21	28.37	-28.8	-29.3	28.5	0.00e+00	0	30	0	2516582400	30	5921
2026-01-11 18:48:04.47	293.91	28.29	-28.7	-29.3	28.5	0.00e+00	0	30	0	2521825280	30	5964
2026-01-11 18:48:05.48	293.61	28.22	-28.8	-29.4	28.6	0.00e+00	0	30	0	2528116736	30	6023
2026-01-11 18:48:06.49	293.32	28.14	-28.7	-29.4	28.6	0.00e+00	0	30	0	2533359616	30	5993
2026-01-11 18:48:07.50	293.02	28.06	-28.8	-29.5	28.5	0.00e+00	0	30	0	2539651072	30	6057
2026-01-11 18:48:08.51	292.73	27.99	-28.8	-29.3	28.4	0.00e+00	0	30	0	2544893952	30	5953
2026-01-11 18:48:09.53	292.43	27.91	-28.8	-29.4	28.4	0.00e+00	0	30	0	2550136832	30	6032
2026-01-11 18:48:10.53	292.14	27.83	-28.8	-29.4	28.6	0.00e+00	0	30	0	2556428288	30	6020
2026-01-11 18:48:11.54	291.85	27.75	-28.7	-29.4	28.4	0.00e+00	0	30	0	2561671168	30	5971
2026-01-11 18:48:12.55	291.56	27.67	-28.7	-29.2	28.5	0.00e+00	0	30	0	2567962624	30	5887
2026-01-11 18:48:13.56	291.28	27.59	-28.7	-29.4	28.5	0.00e+00	0	30	0	2573205504	30	5976
2026-01-11 18:48:14.57	290.99	27.51	-28.8	-29.3	28.4	0.00e+00	0	30	0	2578448384	30	5957
2026-01-11 18:48:15.58	290.71	27.43	-29.0	-29.5	28.3	0.00e+00	0	30	0	2584739840	30	6057
2026-01-11 18:48:16.59	290.42	27.35	-29.1	-29.7	28.2	0.00e+00	0	30	0	2589982720	30	6176
2026-01-11 18:48:17.60	290.14	27.26	-29.2	-29.7	28.2	0.00e+00	0	30	0	2596274176	30	6234
2026-01-11 18:48:18.61	289.86	27.18	-29.1	-29.7	28.2	0.00e+00	0	30	0	2601517056	30	6238
2026-01-11 18:48:19.62	289.58	27.10	-29.0	-29.7	28.2	0.00e+00	0	30	0	2607808512	30	6192
2026-01-11 18:48:20.63	289.31	27.01	-29.1	-29.6	28.2	0.00e+00	0	30	0	2613051392	30	6157
2026-01-11 18:48:21.64	289.03	26.93	-29.1	-29.7	28.2	0.00e+00	0	30	0	2619342848	30	6235
2026-01-11 18:48:22.65	288.76	26.84	-29.1	-29.6	28.3	0.00e+00	0	30	0	2624585728	30	6125
2026-01-11 18:48:23.66	288.49	26.76	-29.1	-29.7	28.2	0.00e+00	0	30	0	2629828608	30	6232
2026-01-11 18:48:24.67	288.21	26.67	-29.2	-29.7	28.2	0.00e+00	0	30	0	2636120064	30	6203
2026-01-11 18:48:25.68	287.94	26.59	-29.2	-29.7	28.1	0.00e+00	0	30	0	2641362944	30	6207
2026-01-11 18:48:26.69	287.68	26.50	-29.2	-29.7	28.2	0.00e+00	0	30	0	2647654400	30	6214
2026-01-11 18:48:27.70	287.41	26.41	-29.2	-29.7	28.1	0.00e+00	0	30	0	2652897280	30	6213
2026-01-11 18:48:28.71	287.14	26.33	-29.2	-29.9	28.1	0.00e+00	0	30	0	2658140160	30	6329
2026-01-11 18:48:29.72	286.88	26.24	-29.1	-29.6	28.1	0.00e+00	0	30	0	2664431616	30	6164
2026-01-11 18:48:30.73	286.62	26.15	-29.1	-29.7	28.2	0.00e+00	0	30	0	2669674496	30	6213
2026-01-11 18:48:31.74	286.36	26.06	-29.3	-29.9	28.2	0.00e+00	0	30	0	2675965952	30	6361
2026-01-11 18:48:32.75	286.10	25.97	-29.3	-29.9	27.9	0.00e+00	0	30	0	2681208832	30	6330
2026-01-11 18:48:33.76	285.84	25.88	-29.4	-30.1	28.1	0.00e+00	0	30	0	2686451712	30	6508
2026-01-11 18:48:34.77	285.58	25.79	-29.3	-29.9	27.8	0.00e+00	0	30	0	2692743168	30	6345
2026-01-11 18:48:35.78	285.33	25.70	-29.3	-29.8	27.8	0.00e+00	0	30	0	2697986048	30	6275
2026-01-11 18:48:36.78	285.08	25.61	-29.2	-29.8	27.8	0.00e+00	0	30	0	2704277504	30	6275
2026-01-11 18:48:37.79	284.83	25.52	-29.3	-29.9	27.8	0.00e+00	0	30	0	2709520384	30	6335
2026-01-11 18:48:38.80	284.58	25.43	-29.3	-30.0	27.8	0.00e+00	0	30	0	2715811840	30	6403
2026-01-11 18:48:39.81	284.33	25.34	-29.6	-30.2	27.7	0.00e+00	0	30	0	2721054720	30	6547
2026-01-11 18:48:40.82	284.08	25.25	-29.3	-30.0	27.8	0.00e+00	0	30	0	2726297600	30	6440
2026-01-11 18:48:41.83	283.83	25.16	-29.2	-29.9	27.9	0.00e+00	0	30	0	2732589056	30	6359
2026-01-11 18:48:42.84	283.59	25.07	-29.4	-30.1	27.8	0.00e+00	0	30	0	2737831936	30	6475
2026-01-11 18:48:43.85	283.34	24.97	-29.5	-30.0	27.8	0.00e+00	0	30	0	2744123392	30	6435
2026-01-11 18:48:44.86	283.10	24.88	-29.4	-30.0	27.8	0.00e+00	0	30	0	2749366272	30	6436
2026-01-11 18:48:45.87	282.86	24.79	-29.4	-30.0	27.8	0.00e+00	0	30	0	2754609152	30	6422
2026-01-11 18:48:46.87	282.62	24.70	-29.2	-29.7	27.9	0.00e+00	0	30	0	2760900608	30	6204
2026-01-11 18:48:47.88	282.39	24.60	-29.1	-29.6	28.0	0.00e+00	0	30	0	2766143488	30	6155
2026-01-11 18:48:48.89	282.15	24.51	-29.2	-29.7	27.9	0.00e+00	0	30	0	2772434944	30	6203
2026-01-11 18:48:49.90	281.92	24.42	-29.2	-29.9	27.9	0.00e+00	0	30	0	2777677824	30	6359
2026-01-11 18:48:50.91	281.68	24.32	-29.3	-29.8	27.8	0.00e+00	0	30	0	2782920704	30	6289
2026-01-11 18:48:51.92	281.45	24.23	-29.4	-29.9	27.8	0.00e+00	0	30	0	2789212160	30	6342
2026-01-11 18:48:52.93	281.22	24.14	-29.4	-29.9	27.6	0.00e+00	0	30	0	2794455040	30	6349
2026-01-11 18:48:53.94	280.99	24.04	-29.5	-30.1	27.5	0.00e+00	0	30	0	2800746496	30	6533
2026-01-11 18:48:54.95	280.76	23.95	-29.7	-30.2	27.2	0.00e+00	0	30	0	2805989376	30	6582
2026-01-11 18:48:55.96	280.54	23.85	-29.4	-30.0	27.4	0.00e+00	0	30	0	2812280832	32	5707
2026-01-11 18:48:56.97	280.31	23.76	-29.4	-30.0	27.5	0.00e+00	0	30	0	2817523712	32	5698
2026-01-11 18:48:57.98	280.09	23.66	-29.3	-30.0	27.6	0.00e+00	0	30	0	2822766592	32	5723
2026-01-11 18:48:58.99	279.86	23.57	-29.4	-30.0	27.6	0.00e+00	0	30	0	2829058048	32	5726
2026-01-11 18:49:00.00	279.64	23.47	-29.5	-30.0	27.5	0.00e+00	0	30	0	2834300928	32	5728
2026-01-11 18:49:01.01	279.42	23.38	-29.5	-30.1	27.6	0.00e+00	0	30	0	2840592384	32	5766
2026-01-11 18:49:02.02	279.21	23.28	-29.7	-30.3	27.5	0.00e+00	0	30	0	2845835264	32	5962
2026-01-11 18:49:03.03	278.99	23.19	-29.9	-30.5	27.3	0.00e+00	0	30	0	2852126720	32	6041
2026-01-11 18:49:04.04	278.77	23.09	-29.9	-30.5	27.4	0.00e+00	0	30	0	2857369600	32	6069
2026-01-11 18:49:05.05	278.56	23.00	-29.7	-30.2	27.5	0.00e+00	0	30	0	2862612480	32	5884
2026-01-11 18:49:06.06	278.34	22.90	-29.7	-30.2	27.5	0.00e+00	0	30	0	2868903936	32	5881
2026-01-11 18:49:07.07	278.13	22.81	-29.6	-30.3	27.6	0.00e+00	0	30	0	2874146816	32	5925
2026-01-11 18:49:08.08	277.92	22.71	-29.9	-30.4	27.4	0.00e+00	0	30	0	2879389696	32	6000
2026-01-11 18:49:09.09	277.71	22.61	-29.7	-30.3	27.5	0.00e+00	0	30	0	2885681152	32	5905
2026-01-11 18:49:10.10	277.51	22.52	-29.7	-30.2	27.5	0.00e+00	0	30	0	2890924032	32	5875
2026-01-11 18:49:11.10	277.30	22.42	-29.6	-30.3	27.5	0.00e+00	0	30	0	2897215488	32	5945
2026-01-11 18:49:12.11	277.10	22.33	-29.6	-30.2	27.6	0.00e+00	0	30	0	2902458368	32	5838
2026-01-11 18:49:13.12	276.89	22.23	-29.6	-30.2	27.5	0.00e+00	0	30	0	2908749824	32	5847
2026-01-11 18:49:14.13	276.69	22.13	-29.7	-30.3	27.5	0.00e+00	0	30	0	2913992704	32	5925
2026-01-11 18:49:15.14	276.49	22.04	-29.9	-30.6	27.3	0.00e+00	0	30	0	2920284160	32	6165
2026-01-11 18:49:16.15	276.29	21.94	-30.1	-30.8	27.1	0.00e+00	0	30	0	2925527040	32	6246
2026-01-11 18:49:17.16	276.09	21.85	-29.9	-30.4	27.4	0.00e+00	0	30	0	2930769920	32	6019
2026-01-11 18:49:18.17	275.89	21.75	-29.8	-30.4	27.5	0.00e+00	0	30	0	2937061376	32	5968
2026-01-11 18:49:19.18	275.69	21.65	-29.6	-30.2	27.5	0.00e+00	0	30	0	2942304256	32	5853
2026-01-11 18:49:20.19	275.50	21.56	-29.7	-30.4	27.4	0.00e+00	0	30	0	2948595712	32	6011
2026-01-11 18:49:21.20	275.30	21.46	-29.9	-30.4	27.3	0.00e+00	0	30	0	2953838592	32	6003
2026-01-11 18:49:22.21	275.11	21.37	-30.0	-30.7	27.2	0.00e+00	0	30	0	2959081472	32	6232
2026-01-11 18:49:23.22	274.92	21.27	-29.8	-30.5	27.4	0.00e+00	0	30	0	2965372928	32	6087
2026-01-11 18:49:24.23	274.73	21.17	-29.9	-30.5	27.3	0.00e+00	0	30	0	2970615808	32	6070
2026-01-11 18:49:25.23	274.54	21.08	-29.8	-30.4	27.4	0.00e+00	0	30	0	2976907264	32	6004
2026-01-11 18:49:26.25	274.35	20.98	-29.8	-30.5	27.4	0.00e+00	0	30	0	2982150144	32	6079
2026-01-11 18:49:27.26	274.17	20.89	-29.9	-30.4	27.3	0.00e+00	0	30	0	2987393024	32	6001
2026-01-11 18:49:28.27	273.98	20.79	-29.9	-30.5	27.3	0.00e+00	0	30	0	2993684480	32	6044
2026-01-11 18:49:29.28	273.80	20.70	-30.1	-30.7	27.2	0.00e+00	0	30	0	2998927360	32	6193
2026-01-11 18:49:30.29	273.61	20.60	-30.0	-30.6	27.2	0.00e+00	0	30	0	3005218816	32	6156
2026-01-11 18:49:31.29	273.43	20.50	-30.0	-30.7	27.3	0.00e+00	0	30	0	3010461696	32	6202
2026-01-11 18:49:32.30	273.25	20.41	-30.0	-30.6	27.2	0.00e+00	0	30	0	3016753152	32	6127
2026-01-11 18:49:33.31	273.07	20.31	-30.2	-30.9	27.1	0.00e+00	0	30	0	3021996032	32	6319
2026-01-11 18:49:34.32	272.89	20.22	-30.0	-30.5	27.3	0.00e+00	0	30	0	3027238912	32	6070
2026-01-11 18:49:35.33	272.71	20.12	-30.0	-30.6	27.2	0.00e+00	0	30	0	3033530368	32	6173
2026-01-11 18:49:36.34	272.54	20.03	-29.9	-30.6	27.3	0.00e+00	0	30	0	3038773248	32	6129
2026-01-11 18:49:37.35	272.36	19.93	-29.9	-30.6	27.3	0.00e+00	0	30	0	3045064704	32	6124
2026-01-11 18:49:38.36	272.19	19.84	-30.0	-30.7	27.2	0.00e+00	0	30	0	3050307584	32	6202
2026-01-11 18:49:39.36	272.02	19.74	-30.0	-30.6	27.3	0.00e+00	0	30	0	3055550464	32	6149
2026-01-11 18:49:40.38	271.84	19.65	-30.1	-30.8	27.1	0.00e+00	0	30	0	3061841920	32	6271
2026-01-11 18:49:41.38	271.67	19.55	-29.9	-30.5	27.3	0.00e+00	0	30	0	3067084800	32	6040
2026-01-11 18:49:42.39	271.50	19.46	-30.0	-30.6	27.2	0.00e+00	0	30	0	3073376256	32	6164
2026-01-11 18:49:43.40	271.33	19.36	-30.2	-30.9	27.1	0.00e+00	0	30	0	3078619136	32	6343
2026-01-11 18:49:44.42	271.16	19.27	-30.1	-30.6	27.2	0.00e+00	0	30	0	3083862016	32	6153
2026-01-11 18:49:45.43	271.00	19.17	-30.1	-30.8	27.2	0.00e+00	0	30	0	3090153472	32	6273
2026-01-11 18:49:46.44	270.83	19.08	-30.2	-30.7	27.1	0.00e+00	0	30	0	3095396352	32	6239
2026-01-11 18:49:47.45	270.67	18.98	-30.2	-30.7	27.1	0.00e+00	0	30	0	3101687808	32	6239
2026-01-11 18:49:48.45	270.50	18.89	-30.3	-30.9	26.9	0.00e+00	0	30	0	3106930688	32	6330
2026-01-11 18:49:49.47	270.34	18.80	-30.5	-31.1	26.9	0.00e+00	0	30	0	3113222144	32	6481
2026-01-11 18:49:50.47	270.18	18.70	-30.5	-31.0	26.9	0.00e+00	0	30	0	3118465024	32	6428
2026-01-11 18:49:51.48	270.02	18.61	-30.6	-31.2	26.8	0.00e+00	0	30	0	3124756480	32	6543
2026-01-11 18:49:52.48	269.86	18.52	-30.8	-31.3	26.6	0.00e+00	0	30	0	3129999360	34	5941
2026-01-11 18:49:53.49	269.70	18.42	-30.8	-31.5	26.6	0.00e+00	0	30	0	3135242240	34	6062
2026-01-11 18:49:54.50	269.54	18.33	-30.9	-31.6	26.6	0.00e+00	0	30	0	3141533696	34	6131
2026-01-11 18:49:55.51	269.39	18.24	-31.0	-31.6	26.5	0.00e+00	0	30	0	3146776576	34	6104
2026-01-11 18:49:56.52	269.23	18.14	-30.9	-31.6	26.6	0.00e+00	0	30	0	3152019456	34	6140
2026-01-11 18:49:57.53	269.08	18.05	-30.9	-31.5	26.5	0.00e+00	0	30	0	3158310912	34	6065
2026-01-11 18:49:58.54	268.92	17.96	-30.6	-31.2	26.8	0.00e+00	0	30	0	3163553792	34	5856
2026-01-11 18:49:59.55	268.77	17.86	-30.9	-31.4	26.6	0.00e+00	0	30	0	3169845248	34	6020
2026-01-11 18:50:00.56	268.62	17.77	-30.7	-31.4	26.7	0.00e+00	0	30	0	3175088128	34	6027
2026-01-11 18:50:01.57	268.47	17.68	-30.8	-31.5	26.5	0.00e+00	0	30	0	3180331008	34	6036
2026-01-11 18:50:02.58	268.32	17.59	-31.1	-31.7	26.4	0.00e+00	0	30	0	3186622464	34	6204
2026-01-11 18:50:03.59	268.17	17.49	-30.8	-31.3	26.6	0.00e+00	0	30	0	3191865344	34	5952
2026-01-11 18:50:04.60	268.02	17.40	-30.8	-31.5	26.6	0.00e+00	0	30	0	3198156800	34	6099
2026-01-11 18:50:05.61	267.87	17.31	-30.9	-31.4	26.5	0.00e+00	0	30	0	3203399680	34	6032
2026-01-11 18:50:06.61	267.73	17.22	-30.8	-31.5	26.6	0.00e+00	0	30	0	3209691136	34	6052
2026-01-11 18:50:07.62	267.58	17.13	-30.8	-31.5	26.6	0.00e+00	0	30	0	3214934016	34	6082
2026-01-11 18:50:08.63	267.44	17.04	-30.9	-31.4	26.5	0.00e+00	0	30	0	3221225472	34	6033
2026-01-11 18:50:09.64	267.29	16.94	-30.9	-31.5	26.5	0.00e+00	0	30	0	3226468352	34	6077
2026-01-11 18:50:10.65	267.15	16.85	-31.0	-31.7	26.5	0.00e+00	0	30	0	3231711232	34	6197
2026-01-11 18:50:11.66	267.01	16.76	-31.1	-31.8	26.3	0.00e+00	0	30	0	3238002688	34	6309
2026-01-11 18:50:12.67	266.87	16.67	-31.2	-31.8	26.3	0.00e+00	0	30	0	3243245568	34	6249
2026-01-11 18:50:13.68	266.73	16.58	-31.2	-31.7	26.3	0.00e+00	0	30	0	3248488448	34	6243
2026-01-11 18:50:14.69	266.59	16.49	-31.0	-31.7	26.4	0.00e+00	0	30	0	3254779904	34	6208
2026-01-11 18:50:15.70	266.45	16.40	-31.0	-31.6	26.4	0.00e+00	0	30	0	3260022784	34	6149
2026-01-11 18:50:16.71	266.31	16.31	-31.1	-31.7	26.3	0.00e+00	0	30	0	3266314240	34	6200
2026-01-11 18:50:17.72	266.17	16.22	-31.2	-31.7	26.3	0.00e+00	0	30	0	3271557120	34	6243
2026-01-11 18:50:18.73	266.04	16.13	-31.0	-31.7	26.4	0.00e+00	0	30	0	3276800000	34	6227
2026-01-11 18:50:19.74	265.90	16.04	-31.2	-31.9	26.2	0.00e+00	0	30	0	3283091456	34	6368
2026-01-11 18:50:20.75	265.77	15.95	-31.3	-31.9	26.2	0.00e+00	0	30	0	3288334336	34	6320
2026-01-11 18:50:21.76	265.64	15.86	-31.2	-31.9	26.2	0.00e+00	0	30	0	3294625792	34	6355
2026-01-11 18:50:22.77	265.50	15.77	-31.3	-32.0	26.2	0.00e+00	0	30	0	3299868672	34	6443
2026-01-11 18:50:23.78	265.37	15.68	-31.4	-31.9	26.2	0.00e+00	0	30	0	3306160128	34	6374
2026-01-11 18:50:24.79	265.24	15.59	-31.4	-32.0	26.1	0.00e+00	0	30	0	3311403008	34	6416
2026-01-11 18:50:25.80	265.11	15.50	-31.2	-31.8	26.2	0.00e+00	0	30	0	3317694464	34	6290
2026-01-11 18:50:26.80	264.98	15.42	-31.3	-31.9	26.2	0.00e+00	0	30	0	3322937344	34	6359
2026-01-11 18:50:27.81	264.85	15.33	-31.2	-31.9	26.3	0.00e+00	0	30	0	3328180224	34	6364
2026-01-11 18:50:28.82	264.72	15.24	-31.3	-32.0	26.2	0.00e+00	0	30	0	3334471680	34	6396
2026-01-11 18:50:29.83	264.60	15.15	-31.4	-32.2	26.1	0.00e+00	0	30	0	3339714560	34	6546
2026-01-11 18:50:30.84	264.47	15.06	-33.3	-34.1	20.3	0.00e+00	0	30	104	3340763136	40	5801
2026-01-11 18:50:31.85	264.34	14.98	-32.3	-33.0	26.0	0.00e+00	0	30	0	3344957440	38	5715
2026-01-11 18:50:32.86	264.22	14.89	-31.9	-32.4	25.9	0.00e+00	0	30	0	3350200320	38	5376
2026-01-11 18:50:33.87	264.10	14.80	-31.8	-32.5	25.8	0.00e+00	0	30	0	3355443200	38	5432
2026-01-11 18:50:34.88	263.97	14.71	-31.9	-32.7	25.7	0.00e+00	0	30	0	3361734656	38	5517
2026-01-11 18:50:35.89	263.85	14.63	-31.9	-32.5	25.7	0.00e+00	0	30	0	3366977536	38	5423
2026-01-11 18:50:36.90	263.73	14.54	-31.9	-32.5	25.6	0.00e+00	0	30	0	3373268992	38	5423
2026-01-11 18:50:37.91	263.61	14.45	-31.9	-32.5	25.6	0.00e+00	0	30	0	3378511872	38	5421
2026-01-11 18:50:38.92	263.49	14.37	-32.0	-32.6	25.6	0.00e+00	0	30	0	3383754752	38	5462
2026-01-11 18:50:39.93	263.37	14.28	-32.3	-33.0	25.4	0.00e+00	0	30	0	3390046208	38	5722
2026-01-11 18:50:40.94	263.25	14.19	-32.0	-32.7	25.6	0.00e+00	0	30	0	3395289088	38	5552
2026-01-11 18:50:41.95	263.13	14.11	-31.9	-32.6	25.7	0.00e+00	0	30	0	3401580544	38	5487
2026-01-11 18:50:42.95	263.01	14.02	-32.0	-32.7	25.6	0.00e+00	0	30	0	3406823424	38	5541
2026-01-11 18:50:43.96	262.89	13.94	-31.8	-32.5	25.7	0.00e+00	0	30	0	3413114880	38	5439
2026-01-11 18:50:44.97	262.78	13.85	-32.0	-32.6	25.5	0.00e+00	0	30	0	3418357760	38	5460
2026-01-11 18:50:45.98	262.66	13.77	-31.9	-32.5	25.7	0.00e+00	0	30	0	3424649216	38	5401
2026-01-11 18:50:46.99	262.55	13.68	-32.0	-32.6	25.5	0.00e+00	0	30	0	3429892096	38	5464
2026-01-11 18:50:48.00	262.43	13.60	-31.9	-32.5	25.6	0.00e+00	0	30	0	3435134976	38	5414
2026-01-11 18:50:49.01	262.32	13.51	-32.1	-32.7	25.5	0.00e+00	0	30	0	3441426432	38	5519
2026-01-11 18:50:50.02	262.21	13.43	-32.1	-32.7	25.4	0.00e+00	0	30	0	3446669312	38	5503
2026-01-11 18:50:51.03	262.09	13.34	-32.2	-32.9	25.5	0.00e+00	0	30	0	3451912192	38	5652
2026-01-11 18:50:52.04	261.98	13.26	-32.2	-32.9	25.4	0.00e+00	0	30	0	3458203648	38	5676
2026-01-11 18:50:53.05	261.87	13.18	-32.1	-32.8	25.3	0.00e+00	0	30	0	3463446528	38	5596
2026-01-11 18:50:54.06	261.76	13.09	-32.5	-33.1	25.1	0.00e+00	0	30	0	3469737984	38	5800
2026-01-11 18:50:55.07	261.65	13.01	-32.0	-32.7	25.6	0.00e+00	0	30	0	3474980864	38	5548
2026-01-11 18:50:56.08	261.54	12.93	-31.9	-32.5	25.6	0.00e+00	0	30	0	3480223744	38	5406
2026-01-11 18:50:57.08	261.43	12.84	-32.1	-32.7	25.5	0.00e+00	0	30	0	3486515200	38	5551
2026-01-11 18:50:58.09	261.33	12.76	-32.1	-32.8	25.4	0.00e+00	0	30	0	3491758080	38	5628
2026-01-11 18:50:59.10	261.22	12.68	-32.3	-32.9	25.3	0.00e+00	0	30	0	3498049536	38	5648
2026-01-11 18:51:00.11	261.11	12.59	-32.3	-33.1	25.2	0.00e+00	0	30	0	3503292416	38	5766
2026-01-11 18:51:01.12	261.01	12.51	-32.2	-33.0	25.2	0.00e+00	0	30	0	3509583872	38	5700
2026-01-11 18:51:02.13	260.90	12.43	-32.4	-33.2	25.1	0.00e+00	0	30	0	3514826752	38	5850
2026-01-11 18:51:03.14	260.80	12.35	-32.4	-33.2	25.1	0.00e+00	0	30	0	3521118208	38	5837
2026-01-11 18:51:04.15	260.69	12.27	-32.4	-33.1	25.1	0.00e+00	0	30	0	3526361088	38	5828
2026-01-11 18:51:05.16	260.59	12.18	-32.4	-33.1	25.2	0.00e+00	0	30	0	3531603968	38	5782
2026-01-11 18:51:06.17	260.49	12.10	-32.5	-33.1	25.1	0.00e+00	0	30	0	3537895424	38	5817
2026-01-11 18:51:07.18	260.38	12.02	-32.6	-33.3	25.1	0.00e+00	0	30	0	3543138304	38	5936
2026-01-11 18:51:08.19	260.28	11.94	-32.5	-33.1	25.1	0.00e+00	0	30	0	3549429760	38	5819
2026-01-11 18:51:09.20	260.18	11.86	-32.5	-33.1	25.1	0.00e+00	0	30	0	3554672640	38	5812
2026-01-11 18:51:10.21	260.08	11.78	-32.7	-33.3	24.9	0.00e+00	0	30	0	3559915520	38	5903
2026-01-11 18:51:11.23	259.98	11.70	-32.5	-33.1	25.0	0.00e+00	0	30	0	3566206976	38	5819
2026-01-11 18:51:12.23	259.88	11.62	-32.7	-33.3	24.9	0.00e+00	0	30	0	3571449856	38	5907
