passes_logs/2026/01/11/R4.6S_Anadyr/R4.6S_Anadyr__20260111_123854_SUOMI_NPP_rec.log

#Pass ID: 20260111_123854_SUOMI NPP
#Satellite: SUOMI NPP
#Configuration: NPP
#almurnet v.1.7.20251203
#Start time: 2026-01-11 12:38:57

#Version: 2.2.20231116
#Station: R4.6S_Anadyr
#Location: 177.4865 lon 64.73178 lat
#TLE: 1 37849U 11061A   26010.94533966  .00000106  00000+0  71276-4 0  9997
#TLE: 2 37849  98.7807 313.0290 0002520  70.6146 289.5303 14.19524339736134

#Time	Az	El	Level	Level2	SNR	BER	BlckErr	Temp	State	Recorded	gain1	gain2
2026-01-11 12:38:57.89	19.10	0.15	-48.1	-61.9	3.3	1.54e+00	0	27	0	0	60	44772
2026-01-11 12:38:58.90	19.17	0.20	-48.1	-63.3	3.6	1.51e+00	0	27	104	0	60	52801
2026-01-11 12:38:59.91	19.24	0.25	-48.1	-63.3	3.6	1.51e+00	0	27	104	0	60	52993
2026-01-11 12:39:00.92	19.31	0.31	-48.2	-63.3	3.6	1.51e+00	0	27	104	0	60	53143
2026-01-11 12:39:01.93	19.38	0.36	-48.0	-63.3	3.6	1.51e+00	0	27	104	0	60	52951
2026-01-11 12:39:02.94	19.45	0.41	-48.1	-63.3	3.6	1.51e+00	0	27	104	0	60	53067
2026-01-11 12:39:03.95	19.52	0.46	-48.0	-63.2	3.6	1.51e+00	0	27	104	0	60	52400
2026-01-11 12:39:04.96	19.59	0.51	-47.9	-63.1	3.6	1.51e+00	0	27	104	0	60	51827
2026-01-11 12:39:05.97	19.67	0.56	-47.8	-63.0	3.6	1.51e+00	0	27	104	0	60	51081
2026-01-11 12:39:06.98	19.74	0.61	-47.7	-62.9	3.6	1.51e+00	0	27	104	0	60	50206
2026-01-11 12:39:07.99	19.81	0.67	-47.6	-62.7	3.6	1.51e+00	0	27	104	0	60	49538
2026-01-11 12:39:09.00	19.88	0.72	-47.4	-62.5	3.6	1.51e+00	0	27	104	0	60	48327
2026-01-11 12:39:10.01	19.95	0.77	-47.1	-62.3	3.6	1.51e+00	0	27	104	0	60	47003
2026-01-11 12:39:11.02	20.02	0.82	-46.6	-61.7	3.6	1.51e+00	0	27	104	0	60	43886
2026-01-11 12:39:12.03	20.09	0.87	-46.5	-61.6	3.6	1.51e+00	0	27	104	0	60	43517
2026-01-11 12:39:13.04	20.17	0.93	-46.5	-61.6	3.6	1.51e+00	0	27	104	0	60	43278
2026-01-11 12:39:14.05	20.24	0.98	-46.4	-61.5	3.6	1.51e+00	0	27	104	0	60	43206
2026-01-11 12:39:15.06	20.31	1.03	-46.4	-61.5	3.6	1.51e+00	0	27	104	0	60	43019
2026-01-11 12:39:16.07	20.39	1.08	-46.4	-61.6	3.6	1.51e+00	0	27	104	0	60	43219
2026-01-11 12:39:17.07	20.46	1.13	-46.4	-61.5	3.6	1.51e+00	0	27	104	0	60	43040
2026-01-11 12:39:18.08	20.53	1.19	-46.4	-61.6	3.6	1.51e+00	0	27	104	0	60	43271
2026-01-11 12:39:19.09	20.61	1.24	-46.4	-61.5	3.6	1.51e+00	0	27	104	0	60	43135
2026-01-11 12:39:20.10	20.68	1.29	-46.4	-61.6	3.6	1.51e+00	0	27	104	0	60	43258
2026-01-11 12:39:21.11	20.75	1.34	-46.4	-61.6	3.6	1.51e+00	0	27	104	0	60	43261
2026-01-11 12:39:22.13	20.83	1.40	-46.4	-61.6	3.6	1.51e+00	0	27	104	0	60	43273
2026-01-11 12:39:23.13	20.90	1.45	-46.4	-61.6	3.6	1.51e+00	0	28	104	0	60	43331
2026-01-11 12:39:24.14	20.98	1.50	-46.4	-61.5	3.6	1.51e+00	0	27	104	0	60	43197
2026-01-11 12:39:25.15	21.05	1.55	-46.4	-61.5	3.6	1.51e+00	0	27	104	0	60	43172
2026-01-11 12:39:26.16	21.13	1.61	-46.4	-61.6	3.6	1.51e+00	0	28	104	0	60	43212
2026-01-11 12:39:27.18	21.21	1.66	-46.4	-61.5	3.5	1.51e+00	0	28	104	0	60	42842
2026-01-11 12:39:28.19	21.28	1.71	-46.4	-61.5	3.6	1.51e+00	0	28	104	0	60	42778
2026-01-11 12:39:29.20	21.36	1.76	-46.4	-61.5	3.6	1.51e+00	0	28	104	0	60	42770
2026-01-11 12:39:30.21	21.43	1.82	-46.4	-61.5	3.6	1.51e+00	0	28	104	0	60	42977
2026-01-11 12:39:31.22	21.51	1.87	-46.4	-61.5	3.6	1.51e+00	0	28	104	0	60	42932
2026-01-11 12:39:32.23	21.59	1.92	-46.4	-61.5	3.6	1.51e+00	0	28	104	0	60	43036
2026-01-11 12:39:33.24	21.67	1.98	-46.4	-61.5	3.6	1.51e+00	0	28	104	0	60	42969
2026-01-11 12:39:34.25	21.74	2.03	-46.4	-61.5	3.6	1.51e+00	0	28	104	0	60	43075
2026-01-11 12:39:35.26	21.82	2.08	-46.4	-61.5	3.6	1.51e+00	0	28	104	0	60	43091
2026-01-11 12:39:36.27	21.90	2.14	-46.4	-61.3	3.6	1.51e+00	0	28	104	0	60	42141
2026-01-11 12:39:37.28	21.98	2.19	-46.4	-60.8	3.6	1.51e+00	0	28	104	0	60	39430
2026-01-11 12:39:38.28	22.06	2.24	-46.4	-60.2	3.6	1.51e+00	0	28	104	0	60	36807
2026-01-11 12:39:39.30	22.14	2.30	-46.3	-59.8	3.6	1.51e+00	0	28	104	0	60	35427
2026-01-11 12:39:40.30	22.21	2.35	-46.4	-60.3	3.6	1.51e+00	0	28	104	0	60	37326
2026-01-11 12:39:41.32	22.29	2.40	-46.3	-59.6	3.6	1.51e+00	0	28	104	0	60	34480
2026-01-11 12:39:42.33	22.37	2.46	-46.1	-56.1	5.0	1.03e+00	0	28	104	0	60	23140
2026-01-11 12:39:43.34	22.45	2.51	-45.4	-51.5	8.3	1.43e-01	92	28	0	1048576	60	13509
2026-01-11 12:39:44.35	22.53	2.57	-44.3	-48.4	11.9	5.67e-03	0	28	0	3145728	60	9486
2026-01-11 12:39:45.36	22.61	2.62	-43.1	-46.1	14.7	5.49e-05	0	28	0	5242880	60	7312
2026-01-11 12:39:46.37	22.70	2.67	-42.0	-44.3	16.3	0.00e+00	0	28	0	7340032	58	6653
2026-01-11 12:39:47.38	22.78	2.73	-41.2	-43.2	17.4	0.00e+00	0	28	0	8388608	56	6546
2026-01-11 12:39:48.39	22.86	2.78	-40.6	-42.4	18.0	0.00e+00	35	28	0	10485760	54	6767
2026-01-11 12:39:49.40	22.94	2.83	-40.5	-42.3	18.0	0.00e+00	0	28	0	12582912	54	6622
2026-01-11 12:39:50.41	23.02	2.89	-41.0	-42.9	17.2	0.00e+00	92	28	0	14680064	54	7133
2026-01-11 12:39:51.42	23.10	2.94	-42.1	-44.6	15.8	0.00e+00	0	28	0	16777216	56	7689
2026-01-11 12:39:52.43	23.19	3.00	-43.4	-46.8	13.5	7.00e-07	33	28	0	17825792	58	8845
2026-01-11 12:39:53.44	23.27	3.05	-44.5	-49.0	11.2	8.84e-04	0	28	0	19922944	60	10200
2026-01-11 12:39:54.45	23.35	3.11	-41.7	-43.9	17.2	0.00e+00	0	28	0	22020096	58	6385
2026-01-11 12:39:55.46	23.44	3.16	-40.2	-41.8	18.1	0.00e+00	61	28	0	24117248	54	6298
2026-01-11 12:39:56.47	23.52	3.22	-46.4	-60.6	3.6	1.43e+00	0	28	104	25165824	60	38577
2026-01-11 12:39:57.48	23.60	3.27	-45.7	-53.6	8.4	1.49e+00	49	28	104	25165824	60	17342
2026-01-11 12:39:58.49	23.69	3.32	-44.0	-47.4	13.2	0.00e+00	0	28	0	26214400	60	8517
2026-01-11 12:39:59.50	23.77	3.38	-41.1	-43.0	17.8	0.00e+00	0	28	0	27262976	56	6393
2026-01-11 12:40:00.51	23.86	3.43	-41.0	-42.9	17.6	0.00e+00	0	28	0	29360128	54	7105
2026-01-11 12:40:01.52	23.94	3.49	-40.4	-42.1	18.6	0.00e+00	0	28	0	31457280	54	6515
2026-01-11 12:40:02.53	24.03	3.54	-40.5	-42.2	18.4	0.00e+00	32	28	0	33554432	54	6552
2026-01-11 12:40:03.53	24.11	3.60	-40.1	-41.7	18.9	0.00e+00	0	28	0	35651584	54	6220
2026-01-11 12:40:04.54	24.20	3.65	-40.0	-41.5	19.0	0.00e+00	68	28	0	36700160	54	6099
2026-01-11 12:40:05.55	24.28	3.71	-39.9	-41.5	19.1	0.00e+00	0	28	0	38797312	54	6062
2026-01-11 12:40:06.56	24.37	3.76	-40.0	-41.6	19.0	0.00e+00	0	28	0	40894464	54	6117
2026-01-11 12:40:07.57	24.46	3.82	-40.0	-41.5	19.0	0.00e+00	0	28	0	42991616	54	6072
2026-01-11 12:40:08.58	24.55	3.87	-40.3	-41.9	18.7	0.00e+00	33	28	0	45088768	54	6364
2026-01-11 12:40:09.59	24.63	3.93	-40.2	-41.8	18.8	0.00e+00	34	28	0	46137344	54	6299
2026-01-11 12:40:10.60	24.72	3.98	-40.2	-41.7	18.8	0.00e+00	0	28	0	48234496	54	6239
2026-01-11 12:40:11.61	24.81	4.04	-40.4	-42.0	18.6	0.00e+00	91	28	0	50331648	54	6433
2026-01-11 12:40:12.62	24.90	4.10	-40.3	-41.9	18.8	0.00e+00	0	28	0	52428800	54	6349
2026-01-11 12:40:13.63	24.99	4.15	-40.4	-42.0	18.6	0.00e+00	0	28	0	54525952	54	6449
2026-01-11 12:40:14.64	25.08	4.21	-40.4	-42.0	18.6	0.00e+00	0	28	0	56623104	54	6453
2026-01-11 12:40:15.65	25.17	4.26	-40.5	-42.2	18.5	0.00e+00	0	28	0	57671680	54	6582
2026-01-11 12:40:16.65	25.25	4.32	-40.7	-42.5	18.3	0.00e+00	0	28	0	59768832	54	6782
2026-01-11 12:40:17.66	25.34	4.37	-40.8	-42.6	18.1	0.00e+00	0	28	0	61865984	54	6870
2026-01-11 12:40:18.67	25.43	4.43	-40.8	-42.5	18.2	0.00e+00	91	28	0	63963136	54	6809
2026-01-11 12:40:19.68	25.53	4.49	-40.7	-42.5	18.3	0.00e+00	0	28	0	66060288	54	6789
2026-01-11 12:40:20.69	25.62	4.54	-40.7	-42.5	18.2	0.00e+00	91	28	0	67108864	54	6775
2026-01-11 12:40:21.70	25.71	4.60	-40.8	-42.6	18.2	0.00e+00	0	28	0	69206016	54	6864
2026-01-11 12:40:22.71	25.80	4.65	-40.8	-42.5	18.2	0.00e+00	0	28	0	71303168	54	6816
2026-01-11 12:40:23.72	25.89	4.71	-40.8	-42.6	18.1	0.00e+00	0	28	0	73400320	54	6884
2026-01-11 12:40:24.73	25.98	4.77	-40.6	-42.3	18.3	0.00e+00	0	28	0	75497472	54	6639
2026-01-11 12:40:25.74	26.08	4.82	-40.8	-42.6	18.2	0.00e+00	34	28	0	76546048	54	6877
2026-01-11 12:40:26.75	26.17	4.88	-40.7	-42.4	18.4	0.00e+00	0	28	0	78643200	54	6737
2026-01-11 12:40:27.76	26.26	4.93	-40.6	-42.2	18.6	0.00e+00	71	28	0	80740352	54	6609
2026-01-11 12:40:28.77	26.36	4.99	-40.5	-42.1	18.7	0.00e+00	0	28	0	82837504	54	6505
2026-01-11 12:40:29.78	26.45	5.05	-40.2	-41.7	19.1	0.00e+00	0	28	0	84934656	54	6195
2026-01-11 12:40:30.79	26.55	5.10	-40.2	-41.7	19.1	0.00e+00	33	28	0	85983232	54	6202
2026-01-11 12:40:31.80	26.64	5.16	-40.2	-41.7	19.1	0.00e+00	0	28	0	88080384	54	6240
2026-01-11 12:40:32.81	26.74	5.22	-40.2	-41.7	19.1	0.00e+00	35	28	0	90177536	54	6226
2026-01-11 12:40:33.82	26.83	5.27	-40.2	-41.7	19.2	0.00e+00	0	28	0	92274688	54	6216
2026-01-11 12:40:34.83	26.93	5.33	-40.2	-41.7	19.2	0.00e+00	92	28	0	94371840	54	6242
2026-01-11 12:40:35.84	27.02	5.39	-39.9	-41.3	19.5	0.00e+00	0	28	0	95420416	54	5931
2026-01-11 12:40:36.85	27.12	5.44	-40.0	-41.4	19.3	0.00e+00	0	28	0	97517568	52	6767
2026-01-11 12:40:37.86	27.22	5.50	-40.1	-41.6	19.2	0.00e+00	0	28	0	99614720	52	6918
2026-01-11 12:40:38.87	27.31	5.56	-40.0	-41.4	19.5	0.00e+00	0	28	0	101711872	52	6767
2026-01-11 12:40:39.88	27.41	5.62	-39.9	-41.3	19.6	0.00e+00	27	28	0	103809024	52	6652
2026-01-11 12:40:40.89	27.51	5.67	-39.6	-41.0	19.7	0.00e+00	0	28	0	104857600	52	6459
2026-01-11 12:40:41.90	27.61	5.73	-39.7	-41.1	19.8	0.00e+00	83	28	0	106954752	52	6483
2026-01-11 12:40:42.91	27.71	5.79	-39.7	-41.1	19.8	0.00e+00	0	28	0	109051904	52	6509
2026-01-11 12:40:43.92	27.81	5.85	-39.5	-40.9	20.0	0.00e+00	0	28	0	111149056	52	6344
2026-01-11 12:40:44.93	27.91	5.90	-39.4	-40.8	20.1	0.00e+00	0	28	0	113246208	52	6277
2026-01-11 12:40:45.94	28.01	5.96	-39.4	-40.8	20.1	0.00e+00	0	28	0	114294784	52	6265
2026-01-11 12:40:46.95	28.11	6.02	-39.6	-41.0	20.0	0.00e+00	33	28	0	116391936	52	6392
2026-01-11 12:40:47.96	28.21	6.08	-39.4	-40.7	20.2	0.00e+00	0	28	0	118489088	52	6212
2026-01-11 12:40:48.97	28.31	6.13	-39.5	-40.8	20.0	0.00e+00	72	28	0	120586240	52	6309
2026-01-11 12:40:49.98	28.41	6.19	-39.5	-40.8	20.2	0.00e+00	0	28	0	122683392	52	6309
2026-01-11 12:40:50.99	28.51	6.25	-39.3	-40.6	20.2	0.00e+00	0	28	0	124780544	52	6154
2026-01-11 12:40:52.00	28.61	6.31	-39.2	-40.5	20.4	0.00e+00	0	28	0	125829120	52	6041
2026-01-11 12:40:53.01	28.72	6.36	-39.3	-40.6	20.3	0.00e+00	0	28	0	127926272	52	6124
2026-01-11 12:40:54.02	28.82	6.42	-39.2	-40.6	20.3	0.00e+00	9	28	0	130023424	52	6105
2026-01-11 12:40:55.03	28.92	6.48	-39.3	-40.6	20.3	0.00e+00	0	28	0	132120576	52	6163
2026-01-11 12:40:56.04	29.03	6.54	-39.4	-40.7	20.2	0.00e+00	38	28	0	134217728	52	6205
2026-01-11 12:40:57.05	29.13	6.60	-39.3	-40.6	20.4	0.00e+00	0	28	0	135266304	52	6117
2026-01-11 12:40:58.06	29.23	6.65	-39.0	-40.3	20.5	0.00e+00	13	28	0	137363456	52	5926
2026-01-11 12:40:59.07	29.34	6.71	-39.2	-40.5	20.4	0.00e+00	0	28	0	139460608	52	6094
2026-01-11 12:41:00.08	29.44	6.77	-39.2	-40.5	20.4	0.00e+00	0	28	0	141557760	52	6075
2026-01-11 12:41:01.09	29.55	6.83	-39.4	-40.7	20.2	0.00e+00	0	28	0	143654912	52	6194
2026-01-11 12:41:02.10	29.66	6.89	-39.5	-40.8	20.1	0.00e+00	0	28	0	144703488	52	6298
2026-01-11 12:41:03.11	29.76	6.95	-39.6	-40.9	20.0	0.00e+00	50	28	0	146800640	52	6355
2026-01-11 12:41:04.12	29.87	7.00	-39.5	-40.8	20.2	0.00e+00	0	28	0	148897792	52	6279
2026-01-11 12:41:05.13	29.98	7.06	-39.4	-40.7	20.3	0.00e+00	91	28	0	150994944	52	6196
2026-01-11 12:41:06.14	30.08	7.12	-39.4	-40.7	20.0	0.00e+00	0	28	0	153092096	52	6187
2026-01-11 12:41:07.15	30.19	7.18	-39.3	-40.6	19.9	0.00e+00	0	29	0	154140672	52	6159
2026-01-11 12:41:08.16	30.30	7.24	-39.2	-40.5	20.2	0.00e+00	0	29	0	156237824	52	6091
2026-01-11 12:41:09.17	30.41	7.30	-39.2	-40.5	20.4	0.00e+00	0	29	0	158334976	52	6083
2026-01-11 12:41:10.17	30.52	7.35	-39.2	-40.4	20.5	0.00e+00	41	29	0	160432128	52	6027
2026-01-11 12:41:11.18	30.63	7.41	-39.3	-40.6	20.4	0.00e+00	0	28	0	162529280	52	6108
2026-01-11 12:41:12.20	30.74	7.47	-39.1	-40.4	20.6	0.00e+00	47	29	0	163577856	52	5975
2026-01-11 12:41:13.21	30.85	7.53	-39.2	-40.5	20.5	0.00e+00	0	29	0	165675008	52	6062
2026-01-11 12:41:14.21	30.96	7.59	-39.5	-40.8	20.2	0.00e+00	0	28	0	167772160	52	6295
2026-01-11 12:41:15.23	31.07	7.65	-39.2	-40.5	20.6	0.00e+00	0	29	0	169869312	52	6049
2026-01-11 12:41:16.24	31.18	7.71	-39.1	-40.3	20.8	0.00e+00	0	28	0	171966464	52	5931
2026-01-11 12:41:17.25	31.30	7.77	-39.0	-40.2	20.8	0.00e+00	30	28	0	173015040	52	5849
2026-01-11 12:41:18.26	31.41	7.83	-38.7	-39.8	21.0	0.00e+00	0	28	0	175112192	50	6315
2026-01-11 12:41:19.26	31.52	7.89	-38.7	-39.9	21.0	0.00e+00	92	28	0	177209344	50	6339
2026-01-11 12:41:20.27	31.64	7.95	-38.7	-39.9	21.1	0.00e+00	0	28	0	179306496	50	6351
2026-01-11 12:41:21.29	31.75	8.00	-38.5	-39.7	21.3	0.00e+00	0	29	0	181403648	50	6186
2026-01-11 12:41:22.29	31.86	8.06	-38.1	-39.2	21.6	0.00e+00	0	29	0	182452224	50	5867
2026-01-11 12:41:23.30	31.98	8.12	-37.9	-39.0	21.9	0.00e+00	0	29	0	184549376	50	5701
2026-01-11 12:41:24.31	32.09	8.18	-37.8	-38.9	21.8	0.00e+00	57	29	0	186646528	50	5664
2026-01-11 12:41:25.32	32.21	8.24	-37.9	-39.0	21.8	0.00e+00	0	29	0	188743680	50	5730
2026-01-11 12:41:26.33	32.33	8.30	-37.8	-38.9	22.0	0.00e+00	92	29	0	190840832	50	5670
2026-01-11 12:41:27.34	32.44	8.36	-37.8	-38.9	22.0	0.00e+00	0	29	0	192937984	50	5652
2026-01-11 12:41:28.35	32.56	8.42	-37.9	-39.0	21.7	0.00e+00	65	29	0	193986560	50	5749
2026-01-11 12:41:29.36	32.68	8.48	-38.0	-39.1	21.8	0.00e+00	33	29	0	196083712	50	5790
2026-01-11 12:41:30.37	32.80	8.54	-38.1	-39.2	21.7	0.00e+00	0	29	0	198180864	50	5878
2026-01-11 12:41:31.38	32.92	8.60	-38.1	-39.2	21.7	0.00e+00	40	29	0	200278016	50	5849
2026-01-11 12:41:32.39	33.04	8.66	-38.2	-39.3	21.7	0.00e+00	0	29	0	202375168	50	5911
2026-01-11 12:41:33.40	33.15	8.72	-38.2	-39.4	21.7	0.00e+00	49	29	0	203423744	50	5972
2026-01-11 12:41:34.41	33.27	8.78	-38.1	-39.2	21.8	0.00e+00	0	29	0	205520896	50	5844
2026-01-11 12:41:35.42	33.40	8.84	-38.3	-39.4	21.5	0.00e+00	90	29	0	207618048	50	5981
2026-01-11 12:41:36.43	33.52	8.90	-38.1	-39.2	21.7	0.00e+00	0	29	0	209715200	50	5833
2026-01-11 12:41:37.44	33.64	8.96	-38.1	-39.2	21.7	0.00e+00	0	29	0	211812352	50	5846
2026-01-11 12:41:38.45	33.76	9.02	-38.1	-39.2	21.6	0.00e+00	33	29	0	212860928	50	5874
2026-01-11 12:41:39.45	33.88	9.08	-38.1	-39.2	21.7	0.00e+00	33	29	0	214958080	50	5843
2026-01-11 12:41:40.46	34.00	9.14	-38.2	-39.3	21.6	0.00e+00	41	29	0	217055232	50	5931
2026-01-11 12:41:41.47	34.13	9.20	-38.3	-39.4	21.5	0.00e+00	0	29	0	219152384	50	6012
2026-01-11 12:41:42.48	34.25	9.26	-38.2	-39.3	21.6	0.00e+00	92	29	0	221249536	50	5936
2026-01-11 12:41:43.49	34.38	9.32	-38.2	-39.3	21.6	0.00e+00	0	29	0	222298112	50	5931
2026-01-11 12:41:44.50	34.50	9.38	-38.2	-39.3	21.6	0.00e+00	0	29	0	224395264	50	5953
2026-01-11 12:41:45.51	34.63	9.44	-38.3	-39.4	21.6	0.00e+00	0	29	0	226492416	50	6004
2026-01-11 12:41:46.52	34.75	9.50	-38.1	-39.2	21.7	0.00e+00	0	29	0	228589568	50	5855
2026-01-11 12:41:47.53	34.88	9.56	-38.4	-39.5	21.6	0.00e+00	47	29	0	230686720	50	6099
2026-01-11 12:41:48.54	35.01	9.62	-38.2	-39.3	21.6	0.00e+00	0	29	0	231735296	50	5922
2026-01-11 12:41:49.55	35.13	9.68	-38.4	-39.6	21.5	0.00e+00	92	29	0	233832448	50	6130
2026-01-11 12:41:50.56	35.26	9.74	-38.5	-39.6	21.4	0.00e+00	0	29	0	235929600	50	6165
2026-01-11 12:41:51.57	35.39	9.80	-38.3	-39.5	20.7	1.50e-06	0	29	0	238026752	50	6047
2026-01-11 12:41:52.58	35.52	9.86	-38.5	-39.8	20.6	0.00e+00	0	29	0	240123904	50	6280
2026-01-11 12:41:53.59	35.65	9.92	-38.6	-39.9	20.6	3.35e-05	0	29	0	241172480	50	6323
2026-01-11 12:41:54.60	35.78	9.98	-38.4	-39.6	20.1	2.05e-05	0	29	0	243269632	50	6118
2026-01-11 12:41:55.61	35.91	10.04	-38.5	-39.7	20.0	6.08e-04	0	29	0	245366784	50	6229
2026-01-11 12:41:56.62	36.04	10.10	-38.3	-39.5	19.9	5.87e-05	76	29	0	247463936	50	6058
2026-01-11 12:41:57.63	36.17	10.16	-38.7	-39.9	21.2	2.03e-04	0	29	0	249561088	50	6337
2026-01-11 12:41:58.64	36.30	10.22	-38.2	-39.3	21.7	0.00e+00	28	29	0	250609664	50	5927
2026-01-11 12:41:59.65	36.44	10.28	-38.3	-39.4	21.6	0.00e+00	0	29	0	252706816	50	5974
2026-01-11 12:42:00.66	36.57	10.34	-38.0	-39.1	21.9	0.00e+00	0	29	0	254803968	50	5796
2026-01-11 12:42:01.67	36.70	10.41	-38.0	-39.0	21.8	0.00e+00	37	29	0	256901120	50	5759
2026-01-11 12:42:02.68	36.84	10.47	-37.9	-39.0	21.9	0.00e+00	0	29	0	258998272	50	5703
2026-01-11 12:42:03.69	36.97	10.53	-38.1	-39.1	21.9	0.00e+00	92	29	0	261095424	50	5810
2026-01-11 12:42:04.70	37.11	10.59	-38.1	-39.1	21.8	0.00e+00	0	29	0	262144000	50	5821
2026-01-11 12:42:05.71	37.24	10.65	-38.1	-39.1	21.8	0.00e+00	92	29	0	264241152	50	5818
2026-01-11 12:42:06.71	37.38	10.71	-38.1	-39.2	21.6	0.00e+00	0	29	0	266338304	50	5888
2026-01-11 12:42:07.72	37.51	10.77	-38.1	-39.2	21.3	0.00e+00	0	29	0	268435456	50	5848
2026-01-11 12:42:08.73	37.65	10.83	-38.3	-39.4	21.1	0.00e+00	0	29	0	270532608	50	5968
2026-01-11 12:42:09.74	37.79	10.89	-38.0	-39.0	21.8	0.00e+00	0	29	0	271581184	50	5737
2026-01-11 12:42:10.75	37.93	10.95	-37.9	-39.0	22.0	0.00e+00	91	29	0	273678336	50	5718
2026-01-11 12:42:11.76	38.07	11.01	-37.9	-39.0	22.0	0.00e+00	0	29	0	275775488	50	5728
2026-01-11 12:42:12.77	38.21	11.07	-37.8	-38.9	22.1	0.00e+00	80	29	0	277872640	50	5636
2026-01-11 12:42:13.78	38.35	11.13	-37.7	-38.8	22.1	0.00e+00	0	29	0	279969792	48	6269
2026-01-11 12:42:14.79	38.49	11.19	-37.8	-38.8	22.1	0.00e+00	0	29	0	281018368	48	6308
2026-01-11 12:42:15.80	38.63	11.25	-37.7	-38.7	22.3	0.00e+00	0	29	0	283115520	48	6209
2026-01-11 12:42:16.81	38.77	11.31	-37.5	-38.5	22.4	0.00e+00	0	29	0	285212672	48	6068
2026-01-11 12:42:17.82	38.91	11.37	-37.8	-38.9	22.2	0.00e+00	92	29	0	287309824	48	6328
2026-01-11 12:42:18.83	39.06	11.44	-37.7	-38.7	22.3	0.00e+00	0	29	0	289406976	48	6197
2026-01-11 12:42:19.84	39.20	11.50	-37.7	-38.7	22.2	0.00e+00	68	29	0	290455552	48	6243
2026-01-11 12:42:20.85	39.34	11.56	-37.6	-38.7	22.3	0.00e+00	0	29	0	292552704	48	6175
2026-01-11 12:42:21.86	39.49	11.62	-37.5	-38.6	22.3	0.00e+00	0	29	0	294649856	48	6109
2026-01-11 12:42:22.87	39.63	11.68	-37.5	-38.5	22.4	0.00e+00	0	29	0	296747008	48	6084
2026-01-11 12:42:23.88	39.78	11.74	-37.7	-38.7	22.3	0.00e+00	0	29	0	298844160	48	6220
2026-01-11 12:42:24.89	39.93	11.80	-37.8	-38.8	22.1	0.00e+00	38	29	0	299892736	48	6307
2026-01-11 12:42:25.90	40.07	11.86	-37.8	-38.8	22.2	0.00e+00	0	29	0	301989888	48	6310
2026-01-11 12:42:26.91	40.22	11.92	-37.9	-39.0	22.1	0.00e+00	92	29	0	304087040	48	6406
2026-01-11 12:42:27.92	40.37	11.98	-37.9	-38.9	22.1	0.00e+00	0	29	0	306184192	48	6359
2026-01-11 12:42:28.93	40.52	12.04	-38.0	-39.1	21.9	0.00e+00	0	29	0	308281344	48	6518
2026-01-11 12:42:29.94	40.67	12.10	-38.1	-39.2	21.9	0.00e+00	0	29	0	309329920	48	6552
2026-01-11 12:42:30.95	40.82	12.16	-38.0	-39.0	22.0	0.00e+00	0	29	0	311427072	48	6464
2026-01-11 12:42:31.96	40.97	12.22	-38.0	-39.1	22.0	0.00e+00	24	29	0	313524224	48	6488
2026-01-11 12:42:32.97	41.12	12.28	-37.9	-39.0	22.0	0.00e+00	0	29	0	315621376	48	6405
2026-01-11 12:42:33.98	41.27	12.34	-38.1	-39.2	22.0	0.00e+00	92	29	0	317718528	48	6592
2026-01-11 12:42:34.99	41.42	12.40	-37.9	-39.0	22.0	0.00e+00	0	29	0	318767104	48	6423
2026-01-11 12:42:35.99	41.58	12.46	-37.8	-38.8	22.2	0.00e+00	0	29	0	320864256	48	6295
2026-01-11 12:42:37.00	41.73	12.52	-37.5	-38.5	22.3	0.00e+00	0	29	0	322961408	48	6101
2026-01-11 12:42:38.01	41.88	12.58	-37.6	-38.6	22.3	0.00e+00	0	29	0	325058560	48	6127
2026-01-11 12:42:39.02	42.04	12.64	-37.5	-38.5	22.5	0.00e+00	16	29	0	327155712	48	6055
2026-01-11 12:42:40.03	42.19	12.70	-37.6	-38.6	22.4	0.00e+00	0	29	0	328204288	48	6151
2026-01-11 12:42:41.04	42.35	12.76	-37.7	-38.7	22.2	0.00e+00	92	29	0	330301440	48	6242
2026-01-11 12:42:42.05	42.51	12.83	-37.6	-38.7	22.3	0.00e+00	0	29	0	332398592	48	6176
2026-01-11 12:42:43.06	42.66	12.89	-37.7	-38.7	22.3	0.00e+00	79	29	0	334495744	48	6204
2026-01-11 12:42:44.07	42.82	12.95	-37.5	-38.5	22.5	0.00e+00	0	29	0	336592896	48	6075
2026-01-11 12:42:45.08	42.98	13.01	-37.4	-38.5	22.5	0.00e+00	0	29	0	338690048	48	6043
2026-01-11 12:42:46.09	43.14	13.07	-37.2	-38.2	22.7	0.00e+00	42	29	0	339738624	48	5849
2026-01-11 12:42:47.10	43.30	13.13	-37.0	-38.0	22.9	0.00e+00	0	29	0	341835776	48	5719
2026-01-11 12:42:48.11	43.46	13.18	-36.9	-37.8	23.0	0.00e+00	40	29	0	343932928	48	5615
2026-01-11 12:42:49.12	43.62	13.24	-36.8	-37.8	23.2	0.00e+00	0	29	0	346030080	48	5576
2026-01-11 12:42:50.13	43.78	13.30	-36.9	-37.8	23.1	0.00e+00	44	29	0	348127232	48	5615
2026-01-11 12:42:51.14	43.95	13.36	-36.8	-37.7	23.1	0.00e+00	0	29	0	349175808	48	5545
2026-01-11 12:42:52.15	44.11	13.42	-37.1	-38.1	22.9	0.00e+00	0	29	0	351272960	48	5768
2026-01-11 12:42:53.16	44.27	13.48	-37.2	-38.2	22.6	0.00e+00	0	29	0	353370112	48	5860
2026-01-11 12:42:54.17	44.44	13.54	-37.2	-38.2	22.6	0.00e+00	0	29	0	355467264	48	5890
2026-01-11 12:42:55.18	44.60	13.60	-37.4	-38.4	22.6	0.00e+00	45	29	0	357564416	48	5987
2026-01-11 12:42:56.19	44.77	13.66	-37.4	-38.5	22.6	0.00e+00	0	29	0	358612992	48	6042
2026-01-11 12:42:57.20	44.93	13.72	-37.4	-38.4	22.6	0.00e+00	90	29	0	360710144	48	5977
2026-01-11 12:42:58.21	45.10	13.78	-37.4	-38.4	22.6	0.00e+00	0	29	0	362807296	48	5974
2026-01-11 12:42:59.22	45.27	13.84	-37.3	-38.2	22.7	0.00e+00	0	29	0	364904448	48	5893
2026-01-11 12:43:00.23	45.44	13.90	-37.3	-38.3	22.7	0.00e+00	0	29	0	367001600	48	5930
2026-01-11 12:43:01.24	45.60	13.96	-37.1	-38.0	22.9	0.00e+00	0	29	0	368050176	48	5751
2026-01-11 12:43:02.25	45.77	14.02	-36.9	-37.9	23.0	0.00e+00	44	29	0	370147328	48	5669
2026-01-11 12:43:03.26	45.94	14.07	-36.9	-37.9	23.0	0.00e+00	0	29	0	372244480	48	5644
2026-01-11 12:43:04.28	46.12	14.13	-37.0	-38.0	22.9	0.00e+00	84	29	0	374341632	48	5703
2026-01-11 12:43:05.29	46.29	14.19	-36.9	-37.8	23.0	0.00e+00	0	29	0	376438784	48	5620
2026-01-11 12:43:06.30	46.46	14.25	-36.9	-37.8	23.1	0.00e+00	0	29	0	377487360	48	5618
2026-01-11 12:43:07.31	46.63	14.31	-36.9	-37.9	23.1	0.00e+00	0	29	0	379584512	46	6345
2026-01-11 12:43:08.32	46.81	14.37	-37.0	-38.0	23.0	0.00e+00	0	29	0	381681664	46	6393
2026-01-11 12:43:09.32	46.98	14.43	-36.9	-37.8	23.0	0.00e+00	17	29	0	383778816	46	6315
2026-01-11 12:43:10.34	47.16	14.48	-37.0	-37.9	22.9	0.00e+00	0	29	0	385875968	46	6372
2026-01-11 12:43:11.35	47.33	14.54	-36.9	-37.9	23.0	0.00e+00	92	29	0	386924544	46	6354
2026-01-11 12:43:12.35	47.51	14.60	-37.0	-37.9	22.8	0.00e+00	0	29	0	389021696	46	6368
2026-01-11 12:43:13.36	47.68	14.66	-37.2	-38.2	22.8	0.00e+00	27	29	0	391118848	46	6549
2026-01-11 12:43:14.37	47.86	14.71	-37.4	-38.4	22.6	0.00e+00	0	29	0	393216000	46	6724
2026-01-11 12:43:15.38	48.04	14.77	-37.4	-38.4	22.6	0.00e+00	0	29	0	395313152	46	6715
2026-01-11 12:43:16.39	48.22	14.83	-37.4	-38.4	22.7	0.00e+00	45	29	0	396361728	46	6704
2026-01-11 12:43:17.40	48.40	14.89	-37.2	-38.2	22.8	0.00e+00	0	29	0	398458880	46	6615
2026-01-11 12:43:18.41	48.58	14.94	-37.2	-38.2	22.7	0.00e+00	92	29	0	400556032	46	6569
2026-01-11 12:43:19.42	48.76	15.00	-37.1	-38.1	22.8	0.00e+00	33	29	0	402653184	46	6522
2026-01-11 12:43:20.43	48.94	15.06	-37.3	-38.3	22.8	0.00e+00	91	29	0	404750336	46	6624
2026-01-11 12:43:21.44	49.12	15.12	-37.3	-38.3	22.7	0.00e+00	0	29	0	406847488	46	6651
2026-01-11 12:43:22.45	49.30	15.17	-37.1	-38.1	22.9	0.00e+00	0	29	0	407896064	46	6474
2026-01-11 12:43:23.46	49.49	15.23	-37.1	-38.1	22.9	0.00e+00	0	29	0	409993216	46	6478
2026-01-11 12:43:24.47	49.67	15.29	-37.2	-38.2	22.8	0.00e+00	0	29	0	412090368	46	6595
2026-01-11 12:43:25.48	49.86	15.34	-37.3	-38.3	22.6	0.00e+00	42	29	0	414187520	46	6685
2026-01-11 12:43:26.49	50.04	15.40	-37.4	-38.5	22.6	0.00e+00	0	29	0	416284672	46	6779
2026-01-11 12:43:27.50	50.23	15.45	-37.7	-38.7	22.3	0.00e+00	92	29	0	417333248	46	6989
2026-01-11 12:43:28.51	50.41	15.51	-37.7	-38.8	22.2	0.00e+00	0	29	0	419430400	48	6285
2026-01-11 12:43:29.52	50.60	15.56	-37.7	-38.8	22.3	0.00e+00	0	29	0	421527552	48	6267
2026-01-11 12:43:30.52	50.79	15.62	-37.6	-38.7	22.5	0.00e+00	0	29	0	423624704	48	6188
2026-01-11 12:43:31.53	50.98	15.68	-37.5	-38.5	22.5	0.00e+00	0	30	0	425721856	48	6101
2026-01-11 12:43:32.54	51.17	15.73	-37.7	-38.7	22.4	0.00e+00	53	29	0	426770432	48	6210
2026-01-11 12:43:33.55	51.36	15.79	-37.8	-38.9	22.3	0.00e+00	0	29	0	428867584	48	6331
2026-01-11 12:43:34.56	51.55	15.84	-37.8	-38.9	22.2	0.00e+00	78	29	0	430964736	48	6341
2026-01-11 12:43:35.57	51.74	15.89	-38.3	-39.4	21.9	0.00e+00	0	29	0	433061888	48	6737
2026-01-11 12:43:36.58	51.93	15.95	-38.2	-39.3	21.9	0.00e+00	0	29	0	435159040	48	6649
2026-01-11 12:43:37.59	52.12	16.00	-38.2	-39.3	21.9	0.00e+00	0	29	0	436207616	48	6679
2026-01-11 12:43:38.60	52.32	16.06	-38.4	-39.6	21.6	0.00e+00	0	29	0	438304768	48	6877
2026-01-11 12:43:39.61	52.51	16.11	-38.5	-39.6	21.7	0.00e+00	37	29	0	440401920	48	6926
2026-01-11 12:43:40.62	52.71	16.17	-38.2	-39.3	21.8	0.00e+00	0	30	0	442499072	48	6679
2026-01-11 12:43:41.63	52.90	16.22	-38.3	-39.4	21.8	0.00e+00	89	30	0	444596224	48	6750
2026-01-11 12:43:42.64	53.10	16.27	-38.4	-39.5	22.0	0.00e+00	0	30	0	445644800	48	6779
2026-01-11 12:43:43.65	53.30	16.33	-38.3	-39.4	21.7	0.00e+00	0	30	0	447741952	48	6752
2026-01-11 12:43:44.66	53.49	16.38	-38.3	-39.4	21.7	0.00e+00	0	30	0	449839104	48	6739
2026-01-11 12:43:45.67	53.69	16.43	-38.1	-39.2	22.0	0.00e+00	0	30	0	451936256	48	6582
2026-01-11 12:43:46.68	53.89	16.48	-38.3	-39.4	21.9	0.00e+00	38	30	0	454033408	48	6734
2026-01-11 12:43:47.69	54.09	16.54	-38.1	-39.2	21.9	0.00e+00	0	30	0	455081984	48	6580
2026-01-11 12:43:48.70	54.29	16.59	-38.2	-39.2	22.0	0.00e+00	91	30	0	457179136	48	6611
2026-01-11 12:43:49.71	54.49	16.64	-38.2	-39.3	21.8	0.00e+00	0	30	0	459276288	48	6630
2026-01-11 12:43:50.72	54.70	16.69	-38.4	-39.5	21.7	0.00e+00	9	30	0	461373440	48	6832
2026-01-11 12:43:51.73	54.90	16.74	-38.5	-39.6	21.7	0.00e+00	0	29	0	463470592	48	6916
2026-01-11 12:43:52.74	55.10	16.79	-38.5	-39.6	21.7	0.00e+00	0	29	0	464519168	48	6898
2026-01-11 12:43:53.75	55.31	16.85	-38.5	-39.6	21.6	0.00e+00	0	30	0	466616320	48	6922
2026-01-11 12:43:54.76	55.51	16.90	-38.6	-39.7	21.6	0.00e+00	0	29	0	468713472	48	6985
2026-01-11 12:43:55.77	55.72	16.95	-38.5	-39.6	21.7	0.00e+00	92	29	0	470810624	48	6872
2026-01-11 12:43:56.78	55.92	17.00	-38.3	-39.4	21.9	0.00e+00	0	29	0	472907776	48	6719
2026-01-11 12:43:57.79	56.13	17.05	-38.3	-39.4	21.8	0.00e+00	64	30	0	475004928	48	6755
2026-01-11 12:43:58.80	56.33	17.10	-38.4	-39.6	21.4	0.00e+00	0	29	0	476053504	48	6851
2026-01-11 12:43:59.81	56.54	17.15	-38.5	-39.7	21.4	0.00e+00	0	30	0	478150656	48	6929
2026-01-11 12:44:00.81	56.75	17.19	-38.8	-40.0	21.4	0.00e+00	0	30	0	480247808	50	6418
2026-01-11 12:44:01.83	56.96	17.24	-39.2	-40.4	21.0	0.00e+00	0	30	0	482344960	50	6765
2026-01-11 12:44:02.83	57.17	17.29	-39.2	-40.4	20.9	0.00e+00	38	30	0	484442112	50	6736
2026-01-11 12:44:03.85	57.38	17.34	-39.1	-40.3	21.1	0.00e+00	0	30	0	485490688	50	6665
2026-01-11 12:44:04.85	57.59	17.39	-38.9	-40.1	21.4	0.00e+00	45	30	0	487587840	50	6481
2026-01-11 12:44:05.86	57.80	17.44	-38.4	-39.5	21.9	0.00e+00	0	30	0	489684992	50	6035
2026-01-11 12:44:06.87	58.01	17.48	-38.5	-39.6	21.7	0.00e+00	0	30	0	491782144	50	6106
2026-01-11 12:44:07.88	58.23	17.53	-38.0	-39.1	22.2	0.00e+00	0	30	0	493879296	50	5778
2026-01-11 12:44:08.89	58.44	17.58	-38.0	-39.1	22.2	0.00e+00	0	30	0	494927872	50	5767
2026-01-11 12:44:09.90	58.66	17.63	-38.0	-39.1	22.1	0.00e+00	43	30	0	497025024	50	5767
2026-01-11 12:44:10.91	58.87	17.67	-38.1	-39.2	22.0	0.00e+00	0	30	0	499122176	50	5852
2026-01-11 12:44:11.92	59.09	17.72	-38.1	-39.2	22.0	0.00e+00	74	30	0	501219328	50	5832
2026-01-11 12:44:12.93	59.30	17.76	-37.9	-38.9	22.1	0.00e+00	0	30	0	503316480	50	5690
2026-01-11 12:44:13.94	59.52	17.81	-37.8	-38.9	22.4	0.00e+00	0	30	0	504365056	50	5633
2026-01-11 12:44:14.95	59.74	17.85	-38.1	-39.1	22.2	0.00e+00	0	30	0	506462208	50	5823
2026-01-11 12:44:15.96	59.96	17.90	-38.1	-39.2	22.1	0.00e+00	0	30	0	508559360	50	5839
2026-01-11 12:44:16.97	60.18	17.94	-37.8	-38.8	22.4	0.00e+00	43	30	0	510656512	48	6312
2026-01-11 12:44:17.98	60.40	17.99	-38.1	-39.1	22.1	0.00e+00	0	30	0	512753664	48	6522
2026-01-11 12:44:18.99	60.62	18.03	-38.2	-39.3	22.0	0.00e+00	81	30	0	513802240	48	6641
2026-01-11 12:44:20.00	60.84	18.08	-38.2	-39.2	22.0	0.00e+00	0	30	0	515899392	48	6609
2026-01-11 12:44:21.01	61.06	18.12	-38.2	-39.3	22.0	0.00e+00	0	30	0	517996544	48	6632
2026-01-11 12:44:22.01	61.28	18.16	-37.7	-38.7	22.5	0.00e+00	0	30	0	520093696	48	6205
2026-01-11 12:44:23.03	61.50	18.21	-37.3	-38.3	22.7	0.00e+00	0	30	0	522190848	48	5941
2026-01-11 12:44:24.04	61.73	18.25	-37.0	-38.0	23.0	0.00e+00	43	30	0	523239424	48	5722
2026-01-11 12:44:25.04	61.95	18.29	-37.2	-38.2	22.8	0.00e+00	0	30	0	525336576	48	5844
2026-01-11 12:44:26.05	62.17	18.33	-37.5	-38.5	22.6	0.00e+00	92	30	0	527433728	48	6081
2026-01-11 12:44:27.06	62.40	18.37	-37.3	-38.3	22.7	0.00e+00	0	30	0	529530880	48	5933
2026-01-11 12:44:28.07	62.62	18.41	-37.5	-38.4	22.6	0.00e+00	0	30	0	531628032	48	6028
2026-01-11 12:44:29.08	62.85	18.45	-37.4	-38.4	22.6	0.00e+00	0	30	0	532676608	48	6022
2026-01-11 12:44:30.09	63.08	18.49	-37.5	-38.5	22.6	0.00e+00	0	30	0	534773760	48	6084
2026-01-11 12:44:31.10	63.30	18.53	-37.1	-38.2	22.7	0.00e+00	0	30	0	536870912	48	5830
2026-01-11 12:44:32.11	63.53	18.57	-37.1	-38.2	22.8	0.00e+00	0	30	0	538968064	48	5843
2026-01-11 12:44:33.12	63.76	18.61	-36.9	-37.9	23.1	0.00e+00	90	30	0	541065216	48	5658
2026-01-11 12:44:34.13	63.99	18.65	-36.8	-37.7	23.3	0.00e+00	0	30	0	543162368	46	6240
2026-01-11 12:44:35.14	64.22	18.69	-36.9	-37.8	23.1	0.00e+00	92	30	0	544210944	46	6308
2026-01-11 12:44:36.15	64.45	18.73	-36.7	-37.7	23.2	0.00e+00	0	30	0	546308096	46	6195
2026-01-11 12:44:37.16	64.68	18.76	-36.7	-37.7	23.2	0.00e+00	0	30	0	548405248	46	6188
2026-01-11 12:44:38.17	64.91	18.80	-36.4	-37.3	22.9	0.00e+00	45	30	0	550502400	46	5912
2026-01-11 12:44:39.18	65.15	18.84	-36.4	-37.3	23.3	0.00e+00	0	30	0	552599552	46	5932
2026-01-11 12:44:40.19	65.38	18.87	-36.2	-37.1	23.7	0.00e+00	45	30	0	553648128	46	5781
2026-01-11 12:44:41.19	65.61	18.91	-36.1	-37.0	23.8	0.00e+00	0	30	0	555745280	46	5720
2026-01-11 12:44:42.20	65.84	18.94	-36.2	-37.1	23.6	0.00e+00	90	30	0	557842432	46	5782
2026-01-11 12:44:43.21	66.08	18.98	-36.3	-37.2	23.6	0.00e+00	0	30	0	559939584	46	5866
2026-01-11 12:44:44.22	66.31	19.01	-36.4	-37.3	23.5	0.00e+00	0	30	0	562036736	46	5954
2026-01-11 12:44:45.23	66.55	19.05	-36.5	-37.4	23.4	0.00e+00	0	30	0	563085312	46	6028
2026-01-11 12:44:46.24	66.78	19.08	-36.8	-37.7	23.2	0.00e+00	0	30	0	565182464	46	6213
2026-01-11 12:44:47.25	67.02	19.12	-36.5	-37.5	23.5	0.00e+00	44	30	0	567279616	46	6035
2026-01-11 12:44:48.26	67.26	19.15	-36.5	-37.4	23.3	0.00e+00	0	30	0	569376768	46	6031
2026-01-11 12:44:49.27	67.49	19.18	-36.6	-37.5	23.4	0.00e+00	92	30	0	571473920	46	6062
2026-01-11 12:44:50.28	67.73	19.21	-36.8	-37.7	23.1	0.00e+00	0	30	0	572522496	46	6208
2026-01-11 12:44:51.29	67.97	19.24	-36.8	-37.8	23.1	0.00e+00	0	30	0	574619648	46	6283
2026-01-11 12:44:52.29	68.21	19.28	-36.9	-37.9	23.0	0.00e+00	0	30	0	576716800	46	6350
2026-01-11 12:44:53.30	68.44	19.31	-37.0	-38.0	23.0	0.00e+00	0	30	0	578813952	46	6462
2026-01-11 12:44:54.31	68.68	19.34	-36.8	-37.7	23.2	0.00e+00	79	30	0	580911104	46	6216
2026-01-11 12:44:55.32	68.92	19.37	-36.7	-37.6	23.4	0.00e+00	0	30	0	581959680	46	6118
2026-01-11 12:44:56.34	69.17	19.40	-36.9	-37.8	23.4	0.00e+00	92	30	0	584056832	46	6303
2026-01-11 12:44:57.34	69.41	19.42	-36.9	-37.8	23.2	0.00e+00	0	30	0	586153984	46	6310
2026-01-11 12:44:58.35	69.65	19.45	-37.0	-37.9	23.1	0.00e+00	50	30	0	588251136	46	6383
2026-01-11 12:44:59.36	69.89	19.48	-37.1	-38.1	23.1	0.00e+00	0	30	0	590348288	46	6470
2026-01-11 12:45:00.37	70.13	19.51	-36.8	-37.8	23.2	0.00e+00	33	30	0	591396864	46	6288
2026-01-11 12:45:01.38	70.38	19.54	-36.6	-37.6	23.3	0.00e+00	41	30	0	593494016	46	6173
2026-01-11 12:45:02.39	70.62	19.56	-36.3	-37.2	23.3	0.00e+00	0	30	0	595591168	46	5837
2026-01-11 12:45:03.40	70.86	19.59	-36.3	-37.2	23.6	0.00e+00	92	30	0	597688320	46	5866
2026-01-11 12:45:04.41	71.11	19.61	-36.3	-37.2	23.6	0.00e+00	0	30	0	599785472	46	5883
2026-01-11 12:45:05.42	71.35	19.64	-36.9	-37.9	23.2	0.00e+00	61	30	0	600834048	46	6347
2026-01-11 12:45:06.43	71.60	19.66	-37.0	-37.9	23.2	0.00e+00	0	30	0	602931200	46	6365
2026-01-11 12:45:07.43	71.84	19.69	-37.3	-38.3	22.9	0.00e+00	0	30	0	605028352	46	6660
2026-01-11 12:45:08.44	72.08	19.71	-37.5	-38.5	22.6	0.00e+00	0	30	0	607125504	46	6809
2026-01-11 12:45:09.45	72.33	19.73	-37.8	-38.8	22.4	0.00e+00	0	30	0	609222656	48	6275
2026-01-11 12:45:10.46	72.58	19.76	-37.3	-38.3	22.8	0.00e+00	92	30	0	611319808	48	5909
2026-01-11 12:45:11.47	72.82	19.78	-37.2	-38.2	22.7	0.00e+00	0	30	0	612368384	48	5889
2026-01-11 12:45:12.48	73.07	19.80	-37.5	-38.5	22.6	0.00e+00	90	30	0	614465536	48	6091
2026-01-11 12:45:13.50	73.32	19.82	-37.7	-38.8	22.4	0.00e+00	0	30	0	616562688	48	6263
2026-01-11 12:45:14.51	73.57	19.84	-37.9	-38.9	22.4	0.00e+00	0	30	0	618659840	48	6343
2026-01-11 12:45:15.52	73.82	19.86	-37.8	-38.8	22.4	0.00e+00	0	30	0	620756992	48	6260
2026-01-11 12:45:16.52	74.06	19.88	-37.6	-38.6	22.6	0.00e+00	0	30	0	621805568	48	6108
2026-01-11 12:45:17.54	74.31	19.90	-37.4	-38.3	22.8	0.00e+00	45	30	0	623902720	48	5946
2026-01-11 12:45:18.55	74.56	19.92	-37.2	-38.1	23.0	0.00e+00	0	30	0	625999872	48	5800
2026-01-11 12:45:19.56	74.81	19.94	-36.9	-37.9	23.1	0.00e+00	92	30	0	628097024	48	5644
2026-01-11 12:45:20.57	75.06	19.95	-37.1	-38.0	23.0	0.00e+00	0	30	0	630194176	48	5753
2026-01-11 12:45:21.58	75.31	19.97	-37.1	-38.0	23.0	0.00e+00	0	30	0	631242752	48	5715
2026-01-11 12:45:22.58	75.56	19.99	-37.0	-37.9	23.1	0.00e+00	0	30	0	633339904	48	5682
2026-01-11 12:45:23.59	75.81	20.00	-36.8	-37.7	23.2	0.00e+00	0	30	0	635437056	48	5549
2026-01-11 12:45:24.60	76.06	20.02	-36.8	-37.7	23.3	0.00e+00	21	30	0	637534208	46	6220
2026-01-11 12:45:25.61	76.31	20.03	-36.6	-37.5	23.4	0.00e+00	0	30	0	639631360	46	6084
2026-01-11 12:45:26.62	76.56	20.05	-36.6	-37.5	23.4	0.00e+00	81	30	0	640679936	46	6063
2026-01-11 12:45:27.63	76.81	20.06	-36.8	-37.8	23.2	0.00e+00	0	30	0	642777088	46	6272
2026-01-11 12:45:28.64	77.06	20.08	-36.9	-37.8	23.1	0.00e+00	0	30	0	644874240	46	6315
2026-01-11 12:45:29.64	77.31	20.09	-37.3	-38.3	22.8	0.00e+00	0	30	0	646971392	46	6642
2026-01-11 12:45:30.65	77.57	20.10	-37.7	-38.7	22.4	0.00e+00	0	30	0	649068544	46	6961
2026-01-11 12:45:31.66	77.82	20.11	-38.0	-39.0	22.2	0.00e+00	21	30	0	650117120	48	6410
2026-01-11 12:45:32.67	78.07	20.12	-38.0	-39.1	22.2	0.00e+00	0	30	0	652214272	48	6480
2026-01-11 12:45:33.68	78.32	20.13	-37.8	-38.8	22.4	0.00e+00	92	30	0	654311424	48	6310
2026-01-11 12:45:34.69	78.58	20.14	-37.8	-38.8	22.3	0.00e+00	0	30	0	656408576	48	6286
2026-01-11 12:45:35.70	78.83	20.15	-38.0	-39.1	22.1	0.00e+00	84	30	0	658505728	48	6480
2026-01-11 12:45:36.71	79.08	20.16	-38.0	-39.0	22.3	0.00e+00	0	30	0	659554304	48	6444
2026-01-11 12:45:37.72	79.34	20.17	-38.0	-39.0	22.2	0.00e+00	0	30	0	661651456	48	6440
2026-01-11 12:45:38.73	79.59	20.18	-38.0	-39.0	22.3	0.00e+00	0	30	0	663748608	48	6409
2026-01-11 12:45:39.74	79.84	20.19	-37.5	-38.5	22.7	0.00e+00	0	30	0	665845760	48	6078
2026-01-11 12:45:40.75	80.10	20.19	-37.5	-38.4	22.7	0.00e+00	92	30	0	667942912	48	6012
2026-01-11 12:45:41.76	80.35	20.20	-37.6	-38.6	22.6	0.00e+00	0	30	0	668991488	48	6110
2026-01-11 12:45:42.77	80.60	20.20	-37.5	-38.5	22.7	0.00e+00	91	30	0	671088640	48	6064
2026-01-11 12:45:43.78	80.86	20.21	-37.7	-38.8	22.4	0.00e+00	0	30	0	673185792	48	6283
2026-01-11 12:45:44.79	81.11	20.21	-37.9	-39.0	22.3	0.00e+00	0	30	0	675282944	48	6455
2026-01-11 12:45:45.80	81.37	20.22	-37.9	-39.0	22.1	0.00e+00	0	30	0	677380096	48	6437
2026-01-11 12:45:46.80	81.62	20.22	-37.9	-39.0	22.3	0.00e+00	0	30	0	678428672	48	6459
2026-01-11 12:45:47.81	81.87	20.22	-37.5	-38.6	22.6	0.00e+00	36	30	0	680525824	48	6141
2026-01-11 12:45:48.82	82.13	20.23	-37.5	-38.6	22.6	0.00e+00	0	30	0	682622976	48	6121
2026-01-11 12:45:49.83	82.38	20.23	-37.6	-38.6	22.3	0.00e+00	60	30	0	684720128	48	6159
2026-01-11 12:45:50.83	82.63	20.23	-37.7	-38.7	22.5	0.00e+00	0	30	0	686817280	48	6232
2026-01-11 12:45:51.85	82.89	20.23	-38.0	-39.1	22.1	0.00e+00	0	30	0	687865856	48	6508
2026-01-11 12:45:52.86	83.14	20.23	-37.8	-38.9	22.4	0.00e+00	0	30	0	689963008	48	6350
2026-01-11 12:45:53.87	83.40	20.23	-37.9	-39.0	22.3	0.00e+00	0	30	0	692060160	48	6431
2026-01-11 12:45:54.88	83.65	20.23	-37.5	-38.5	22.6	0.00e+00	44	30	0	694157312	48	6092
2026-01-11 12:45:55.89	83.91	20.23	-37.6	-38.7	22.5	0.00e+00	0	30	0	696254464	48	6197
2026-01-11 12:45:56.89	84.16	20.23	-37.7	-38.7	22.4	0.00e+00	91	30	0	697303040	48	6215
2026-01-11 12:45:57.91	84.41	20.22	-37.8	-38.8	22.4	0.00e+00	33	30	0	699400192	48	6286
2026-01-11 12:45:58.91	84.67	20.22	-37.8	-38.9	22.3	0.00e+00	0	30	0	701497344	48	6335
2026-01-11 12:45:59.93	84.92	20.22	-38.0	-39.1	22.1	0.00e+00	0	30	0	703594496	48	6500
2026-01-11 12:46:00.94	85.18	20.21	-37.8	-38.8	22.4	0.00e+00	0	30	0	705691648	48	6315
2026-01-11 12:46:01.95	85.43	20.21	-37.5	-38.5	22.6	0.00e+00	40	30	0	707788800	48	6060
2026-01-11 12:46:02.96	85.69	20.20	-37.4	-38.3	22.8	0.00e+00	0	30	0	708837376	48	5962
2026-01-11 12:46:03.96	85.94	20.19	-37.2	-38.2	22.9	0.00e+00	80	30	0	710934528	48	5831
2026-01-11 12:46:04.98	86.19	20.19	-37.1	-38.1	23.0	0.00e+00	0	30	0	713031680	48	5777
2026-01-11 12:46:05.98	86.44	20.18	-37.0	-38.0	23.1	0.00e+00	12	30	0	715128832	48	5723
2026-01-11 12:46:06.99	86.70	20.17	-37.0	-37.9	23.1	0.00e+00	0	30	0	717225984	46	6380
2026-01-11 12:46:08.00	86.95	20.17	-36.9	-37.8	22.9	0.00e+00	0	30	0	718274560	46	6268
2026-01-11 12:46:09.01	87.20	20.16	-37.0	-37.9	22.8	0.00e+00	42	30	0	720371712	46	6369
2026-01-11 12:46:10.02	87.46	20.15	-37.1	-38.1	22.9	0.00e+00	0	30	0	722468864	46	6469
2026-01-11 12:46:11.03	87.71	20.14	-37.4	-38.3	22.7	0.00e+00	64	30	0	724566016	46	6692
2026-01-11 12:46:12.04	87.96	20.13	-37.6	-38.6	22.5	0.00e+00	0	30	0	726663168	46	6889
2026-01-11 12:46:13.05	88.22	20.12	-37.5	-38.5	22.6	0.00e+00	92	30	0	727711744	48	6102
2026-01-11 12:46:14.06	88.47	20.10	-37.8	-38.8	22.4	0.00e+00	0	30	0	729808896	48	6307
2026-01-11 12:46:15.07	88.72	20.09	-37.6	-38.6	22.6	0.00e+00	0	30	0	731906048	48	6163
2026-01-11 12:46:16.08	88.97	20.08	-37.5	-38.5	22.7	0.00e+00	0	30	0	734003200	48	6045
2026-01-11 12:46:17.09	89.22	20.07	-37.3	-38.3	22.8	0.00e+00	0	30	0	736100352	48	5955
2026-01-11 12:46:18.10	89.48	20.05	-37.4	-38.4	22.7	0.00e+00	88	30	0	737148928	48	6010
2026-01-11 12:46:19.11	89.73	20.04	-37.3	-38.3	22.7	0.00e+00	0	30	0	739246080	48	5902
2026-01-11 12:46:20.12	89.98	20.02	-37.4	-38.3	22.7	0.00e+00	92	30	0	741343232	48	5958
2026-01-11 12:46:21.13	90.23	20.01	-37.6	-38.6	22.5	0.00e+00	0	30	0	743440384	48	6136
2026-01-11 12:46:22.14	90.48	19.99	-37.6	-38.6	22.5	0.00e+00	0	30	0	745537536	48	6121
2026-01-11 12:46:23.15	90.73	19.98	-37.5	-38.5	22.6	0.00e+00	0	30	0	746586112	48	6043
2026-01-11 12:46:24.16	90.98	19.96	-37.3	-38.2	22.8	0.00e+00	0	30	0	748683264	48	5886
2026-01-11 12:46:25.16	91.23	19.94	-37.1	-38.1	22.8	0.00e+00	77	30	0	750780416	48	5798
2026-01-11 12:46:26.17	91.48	19.92	-37.0	-37.9	23.1	0.00e+00	0	30	0	752877568	48	5687
2026-01-11 12:46:27.18	91.73	19.91	-36.9	-37.8	23.1	0.00e+00	78	30	0	754974720	46	6283
2026-01-11 12:46:28.19	91.98	19.89	-37.0	-37.9	23.1	0.00e+00	0	30	0	756023296	46	6369
2026-01-11 12:46:29.20	92.23	19.87	-36.9	-37.8	23.0	0.00e+00	0	30	0	758120448	46	6288
2026-01-11 12:46:30.21	92.48	19.85	-37.2	-38.2	22.7	0.00e+00	0	30	0	760217600	46	6588
2026-01-11 12:46:31.22	92.72	19.83	-37.6	-38.6	22.4	0.00e+00	0	30	0	762314752	46	6924
2026-01-11 12:46:32.23	92.97	19.81	-37.2	-38.2	22.8	0.00e+00	54	30	0	764411904	46	6589
2026-01-11 12:46:33.24	93.22	19.78	-37.3	-38.2	22.7	0.00e+00	0	30	0	765460480	46	6608
2026-01-11 12:46:34.25	93.47	19.76	-37.3	-38.3	22.7	0.00e+00	81	30	0	767557632	46	6625
2026-01-11 12:46:35.26	93.71	19.74	-37.3	-38.3	22.7	0.00e+00	0	30	0	769654784	46	6682
2026-01-11 12:46:36.27	93.96	19.72	-37.5	-38.5	22.4	0.00e+00	0	30	0	771751936	46	6834
2026-01-11 12:46:37.28	94.21	19.69	-37.9	-38.9	22.2	0.00e+00	0	30	0	773849088	48	6388
2026-01-11 12:46:38.29	94.45	19.67	-38.0	-39.1	22.0	0.00e+00	0	30	0	775946240	48	6510
2026-01-11 12:46:39.30	94.70	19.64	-38.0	-39.2	22.0	0.00e+00	12	30	0	776994816	48	6558
2026-01-11 12:46:40.31	94.94	19.62	-38.0	-39.1	22.2	0.00e+00	0	30	0	779091968	48	6483
2026-01-11 12:46:41.32	95.19	19.59	-37.8	-38.9	22.3	0.00e+00	55	30	0	781189120	48	6385
2026-01-11 12:46:42.33	95.43	19.57	-37.3	-38.3	22.6	0.00e+00	0	30	0	783286272	48	5918
2026-01-11 12:46:43.34	95.67	19.54	-37.0	-37.9	23.1	0.00e+00	42	30	0	785383424	48	5679
2026-01-11 12:46:44.34	95.92	19.51	-36.7	-37.7	23.2	0.00e+00	0	29	0	786432000	46	6205
2026-01-11 12:46:45.35	96.16	19.49	-36.6	-37.5	23.3	0.00e+00	0	30	0	788529152	46	6068
2026-01-11 12:46:46.36	96.40	19.46	-37.0	-38.0	23.1	0.00e+00	40	30	0	790626304	46	6403
2026-01-11 12:46:47.37	96.64	19.43	-36.9	-37.8	23.1	0.00e+00	0	30	0	792723456	46	6305
2026-01-11 12:46:48.38	96.89	19.40	-36.9	-37.9	23.1	0.00e+00	92	30	0	794820608	46	6360
2026-01-11 12:46:49.39	97.13	19.37	-36.7	-37.6	23.2	0.00e+00	0	30	0	795869184	46	6168
2026-01-11 12:46:50.40	97.37	19.34	-36.6	-37.5	23.3	0.00e+00	92	30	0	797966336	46	6089
2026-01-11 12:46:51.41	97.61	19.31	-36.5	-37.4	23.5	0.00e+00	0	30	0	800063488	46	6015
2026-01-11 12:46:52.42	97.85	19.28	-36.5	-37.4	23.4	0.00e+00	0	30	0	802160640	46	5983
2026-01-11 12:46:53.43	98.09	19.25	-36.6	-37.5	23.1	0.00e+00	0	30	0	804257792	46	6102
2026-01-11 12:46:54.44	98.33	19.22	-36.6	-37.6	23.2	0.00e+00	0	30	0	805306368	46	6172
2026-01-11 12:46:55.45	98.56	19.19	-36.7	-37.7	23.2	0.00e+00	90	30	0	807403520	46	6219
2026-01-11 12:46:56.46	98.80	19.15	-36.8	-37.8	23.1	0.00e+00	0	30	0	809500672	46	6296
2026-01-11 12:46:57.47	99.04	19.12	-36.8	-37.7	23.2	0.00e+00	92	30	0	811597824	46	6239
2026-01-11 12:46:58.48	99.28	19.09	-36.7	-37.7	23.3	0.00e+00	0	29	0	813694976	46	6181
2026-01-11 12:46:59.49	99.51	19.05	-36.7	-37.6	23.3	0.00e+00	0	29	0	814743552	46	6137
2026-01-11 12:47:00.50	99.75	19.02	-36.4	-37.3	23.7	0.00e+00	0	30	0	816840704	46	5938
2026-01-11 12:47:01.51	99.99	18.99	-36.2	-37.1	23.8	0.00e+00	0	30	0	818937856	46	5783
2026-01-11 12:47:02.52	100.22	18.95	-36.3	-37.2	23.6	0.00e+00	43	30	0	821035008	46	5835
2026-01-11 12:47:03.53	100.45	18.92	-36.2	-37.1	23.7	0.00e+00	0	30	0	823132160	46	5788
2026-01-11 12:47:04.54	100.69	18.88	-36.3	-37.2	23.6	0.00e+00	81	30	0	824180736	46	5892
2026-01-11 12:47:05.55	100.92	18.84	-36.5	-37.4	23.3	0.00e+00	0	30	0	826277888	46	6020
2026-01-11 12:47:06.56	101.15	18.81	-36.7	-37.6	23.3	0.00e+00	0	30	0	828375040	46	6140
2026-01-11 12:47:07.57	101.39	18.77	-36.6	-37.6	23.3	0.00e+00	0	30	0	830472192	46	6115
2026-01-11 12:47:08.58	101.62	18.73	-36.6	-37.5	23.4	0.00e+00	0	30	0	832569344	46	6078
2026-01-11 12:47:09.58	101.85	18.69	-36.6	-37.5	23.3	0.00e+00	31	29	0	833617920	46	6099
2026-01-11 12:47:10.60	102.08	18.66	-36.6	-37.5	23.4	0.00e+00	0	29	0	835715072	46	6082
2026-01-11 12:47:11.60	102.31	18.62	-36.9	-37.9	23.0	0.00e+00	92	29	0	837812224	46	6351
2026-01-11 12:47:12.62	102.54	18.58	-37.0	-38.0	23.0	0.00e+00	0	29	0	839909376	46	6409
2026-01-11 12:47:13.63	102.77	18.54	-36.9	-37.9	23.0	0.00e+00	22	29	0	842006528	46	6358
2026-01-11 12:47:14.63	102.99	18.50	-36.9	-37.9	23.0	0.00e+00	0	29	0	844103680	46	6367
2026-01-11 12:47:15.65	103.22	18.46	-37.1	-38.1	22.9	0.00e+00	0	30	0	845152256	46	6486
2026-01-11 12:47:16.66	103.45	18.42	-37.0	-38.0	23.0	0.00e+00	22	29	0	847249408	46	6446
2026-01-11 12:47:17.66	103.68	18.38	-36.7	-37.8	23.1	0.00e+00	0	30	0	849346560	46	6266
2026-01-11 12:47:18.67	103.90	18.34	-36.7	-37.9	23.1	0.00e+00	79	29	0	851443712	46	6356
2026-01-11 12:47:19.68	104.13	18.29	-36.6	-37.8	23.2	0.00e+00	0	29	0	853540864	46	6289
2026-01-11 12:47:20.69	104.35	18.25	-36.6	-37.8	23.1	0.00e+00	0	29	0	854589440	46	6285
2026-01-11 12:47:21.70	104.58	18.21	-36.6	-37.8	23.1	0.00e+00	0	29	0	856686592	46	6279
2026-01-11 12:47:22.71	104.80	18.17	-36.5	-37.7	23.2	0.00e+00	0	29	0	858783744	46	6209
2026-01-11 12:47:23.72	105.02	18.12	-36.6	-37.7	23.1	0.00e+00	35	29	0	860880896	46	6232
2026-01-11 12:47:24.73	105.25	18.08	-36.9	-37.9	23.0	0.00e+00	0	29	0	862978048	46	6379
2026-01-11 12:47:25.74	105.47	18.04	-37.3	-38.3	22.8	0.00e+00	91	29	0	864026624	46	6655
2026-01-11 12:47:26.75	105.69	17.99	-37.4	-38.4	22.6	0.00e+00	0	29	0	866123776	46	6719
2026-01-11 12:47:27.76	105.91	17.95	-37.5	-38.5	22.6	0.00e+00	92	29	0	868220928	46	6835
2026-01-11 12:47:28.77	106.13	17.90	-37.4	-38.5	22.5	0.00e+00	0	29	0	870318080	46	6787
2026-01-11 12:47:29.78	106.35	17.86	-37.4	-38.5	22.3	0.00e+00	0	29	0	872415232	46	6808
2026-01-11 12:47:30.79	106.57	17.81	-37.5	-38.7	22.2	0.00e+00	0	29	0	873463808	48	6183
2026-01-11 12:47:31.80	106.78	17.77	-37.6	-38.7	22.4	0.00e+00	0	29	0	875560960	48	6215
2026-01-11 12:47:32.81	107.00	17.72	-37.6	-38.7	22.3	0.00e+00	90	29	0	877658112	48	6207
2026-01-11 12:47:33.82	107.22	17.68	-37.8	-38.8	22.1	0.00e+00	0	29	0	879755264	48	6316
2026-01-11 12:47:34.83	107.43	17.63	-37.8	-38.9	22.2	0.00e+00	92	29	0	881852416	48	6342
2026-01-11 12:47:35.84	107.65	17.58	-37.6	-38.7	22.4	0.00e+00	0	29	0	882900992	48	6200
2026-01-11 12:47:36.85	107.86	17.53	-37.7	-38.8	22.2	0.00e+00	0	29	0	884998144	48	6266
2026-01-11 12:47:37.86	108.08	17.49	-37.3	-38.3	22.7	0.00e+00	25	29	0	887095296	48	5954
2026-01-11 12:47:38.87	108.29	17.44	-37.2	-38.2	22.8	0.00e+00	0	29	0	889192448	48	5836
2026-01-11 12:47:39.88	108.50	17.39	-37.5	-38.5	22.4	0.00e+00	35	29	0	891289600	48	6081
2026-01-11 12:47:40.89	108.72	17.34	-37.5	-38.5	22.5	0.00e+00	0	29	0	892338176	48	6094
2026-01-11 12:47:41.90	108.93	17.29	-37.7	-38.8	22.3	0.00e+00	76	29	0	894435328	48	6270
2026-01-11 12:47:42.91	109.14	17.24	-37.9	-39.1	22.1	0.00e+00	0	29	0	896532480	48	6473
2026-01-11 12:47:43.91	109.35	17.20	-38.1	-39.3	21.6	0.00e+00	0	29	0	898629632	48	6653
2026-01-11 12:47:44.93	109.56	17.15	-38.0	-39.2	21.9	0.00e+00	0	29	0	900726784	48	6560
2026-01-11 12:47:45.94	109.77	17.10	-38.0	-39.1	21.9	0.00e+00	0	29	0	901775360	48	6516
2026-01-11 12:47:46.94	109.97	17.05	-38.0	-39.1	22.0	0.00e+00	37	29	0	903872512	48	6484
2026-01-11 12:47:47.95	110.18	17.00	-37.9	-39.0	21.9	0.00e+00	0	29	0	905969664	48	6441
2026-01-11 12:47:48.96	110.39	16.95	-38.0	-39.1	22.0	0.00e+00	90	29	0	908066816	48	6508
2026-01-11 12:47:49.97	110.59	16.90	-37.8	-38.9	22.2	0.00e+00	0	29	0	910163968	48	6325
2026-01-11 12:47:50.98	110.80	16.84	-37.7	-38.8	22.2	0.00e+00	0	29	0	912261120	48	6293
2026-01-11 12:47:51.99	111.00	16.79	-37.8	-38.9	22.2	0.00e+00	0	29	0	913309696	48	6372
2026-01-11 12:47:53.00	111.21	16.74	-38.0	-39.1	22.0	0.00e+00	0	29	0	915406848	48	6485
2026-01-11 12:47:54.01	111.41	16.69	-37.9	-39.0	22.1	0.00e+00	40	29	0	917504000	48	6456
2026-01-11 12:47:55.02	111.61	16.64	-38.1	-39.2	21.9	0.00e+00	0	29	0	919601152	48	6598
2026-01-11 12:47:56.03	111.82	16.59	-37.8	-38.9	22.1	0.00e+00	82	29	0	921698304	48	6364
2026-01-11 12:47:57.04	112.02	16.53	-38.0	-39.0	22.1	0.00e+00	0	29	0	922746880	48	6455
2026-01-11 12:47:58.05	112.22	16.48	-37.8	-38.9	22.2	0.00e+00	92	29	0	924844032	48	6352
2026-01-11 12:47:59.06	112.42	16.43	-37.9	-39.0	22.1	0.00e+00	0	29	0	926941184	48	6399
2026-01-11 12:48:00.07	112.62	16.38	-37.9	-39.0	22.2	0.00e+00	0	29	0	929038336	48	6392
2026-01-11 12:48:01.08	112.82	16.32	-38.4	-39.6	21.5	0.00e+00	42	29	0	931135488	48	6856
2026-01-11 12:48:02.09	113.01	16.27	-38.7	-39.9	21.4	0.00e+00	0	29	0	932184064	48	7118
2026-01-11 12:48:03.10	113.21	16.21	-38.6	-39.8	21.4	0.00e+00	53	29	0	934281216	50	6286
2026-01-11 12:48:04.11	113.41	16.16	-38.9	-40.2	21.1	0.00e+00	0	29	0	936378368	50	6545
2026-01-11 12:48:05.12	113.60	16.11	-38.7	-39.9	21.4	0.00e+00	90	29	0	938475520	50	6366
2026-01-11 12:48:06.13	113.80	16.05	-38.6	-39.7	21.4	0.00e+00	0	29	0	940572672	50	6242
2026-01-11 12:48:07.14	113.99	16.00	-38.4	-39.5	21.7	0.00e+00	0	29	0	941621248	50	6064
2026-01-11 12:48:08.15	114.19	15.94	-38.1	-39.2	22.0	0.00e+00	0	29	0	943718400	50	5849
2026-01-11 12:48:09.16	114.38	15.89	-38.0	-39.2	22.1	0.00e+00	0	29	0	945815552	50	5832
2026-01-11 12:48:10.17	114.57	15.83	-37.9	-39.1	22.1	0.00e+00	91	29	0	947912704	50	5784
2026-01-11 12:48:11.18	114.76	15.78	-37.9	-39.2	21.9	0.00e+00	0	29	0	950009856	50	5842
2026-01-11 12:48:12.18	114.95	15.72	-37.8	-39.1	22.1	0.00e+00	92	29	0	951058432	50	5764
2026-01-11 12:48:13.19	115.14	15.67	-37.6	-38.7	22.3	0.00e+00	0	29	0	953155584	48	6244
2026-01-11 12:48:14.20	115.33	15.61	-37.7	-38.8	22.3	0.00e+00	0	29	0	955252736	48	6293
2026-01-11 12:48:15.21	115.52	15.56	-37.5	-38.6	22.4	0.00e+00	0	29	0	957349888	48	6128
2026-01-11 12:48:16.22	115.71	15.50	-37.5	-38.6	22.5	0.00e+00	0	29	0	959447040	48	6112
2026-01-11 12:48:17.23	115.90	15.44	-37.3	-38.3	22.5	0.00e+00	72	29	0	960495616	48	5924
2026-01-11 12:48:18.24	116.09	15.39	-37.4	-38.5	22.5	0.00e+00	0	29	0	962592768	48	6042
2026-01-11 12:48:19.25	116.27	15.33	-37.6	-38.7	22.3	0.00e+00	92	29	0	964689920	48	6243
2026-01-11 12:48:20.26	116.46	15.27	-37.6	-38.7	22.2	0.00e+00	0	29	0	966787072	48	6231
2026-01-11 12:48:21.27	116.64	15.22	-37.7	-38.8	22.1	0.00e+00	0	29	0	968884224	48	6315
2026-01-11 12:48:22.28	116.83	15.16	-37.8	-39.0	22.2	0.00e+00	0	29	0	969932800	48	6393
2026-01-11 12:48:23.29	117.01	15.10	-38.0	-39.1	22.0	0.00e+00	0	29	0	972029952	48	6519
2026-01-11 12:48:24.30	117.19	15.05	-37.9	-39.0	22.0	0.00e+00	24	29	0	974127104	48	6445
2026-01-11 12:48:25.31	117.38	14.99	-37.8	-38.9	22.1	0.00e+00	0	29	0	976224256	48	6370
2026-01-11 12:48:26.32	117.56	14.93	-38.2	-39.3	21.7	0.00e+00	90	29	0	978321408	48	6656
2026-01-11 12:48:27.32	117.74	14.88	-37.8	-38.9	22.1	0.00e+00	0	29	0	980418560	48	6386
2026-01-11 12:48:28.34	117.92	14.82	-38.0	-39.1	21.9	0.00e+00	0	29	0	981467136	48	6524
2026-01-11 12:48:29.34	118.10	14.76	-38.0	-39.2	21.9	0.00e+00	0	29	0	983564288	48	6545
2026-01-11 12:48:30.35	118.27	14.70	-38.1	-39.3	21.6	0.00e+00	0	29	0	985661440	48	6649
2026-01-11 12:48:31.36	118.45	14.64	-38.1	-39.4	21.7	0.00e+00	37	29	0	987758592	48	6704
2026-01-11 12:48:32.37	118.63	14.59	-37.5	-38.7	22.2	0.00e+00	0	29	0	989855744	48	6235
2026-01-11 12:48:33.38	118.81	14.53	-37.5	-38.7	22.2	0.00e+00	90	29	0	990904320	48	6244
2026-01-11 12:48:34.39	118.98	14.47	-37.5	-38.7	22.1	0.00e+00	0	29	0	993001472	48	6243
2026-01-11 12:48:35.40	119.16	14.41	-37.4	-38.6	22.4	0.00e+00	92	29	0	995098624	48	6126
2026-01-11 12:48:36.41	119.33	14.35	-37.4	-38.5	22.5	0.00e+00	0	29	0	997195776	48	6064
2026-01-11 12:48:37.42	119.51	14.29	-37.6	-38.8	22.3	0.00e+00	33	29	0	999292928	48	6256
2026-01-11 12:48:38.43	119.68	14.23	-37.7	-38.9	22.1	0.00e+00	0	29	0	1000341504	48	6324
2026-01-11 12:48:39.44	119.85	14.17	-37.8	-39.0	22.0	0.00e+00	0	29	0	1002438656	48	6396
2026-01-11 12:48:40.45	120.03	14.12	-37.8	-38.9	22.1	0.00e+00	34	29	0	1004535808	48	6346
2026-01-11 12:48:41.46	120.20	14.06	-37.7	-38.8	22.2	0.00e+00	0	29	0	1006632960	48	6290
2026-01-11 12:48:42.47	120.37	14.00	-37.5	-38.5	22.4	0.00e+00	92	29	0	1008730112	48	6097
2026-01-11 12:48:43.48	120.54	13.94	-37.4	-38.4	22.5	0.00e+00	0	29	0	1009778688	48	6011
2026-01-11 12:48:44.49	120.71	13.88	-37.0	-38.0	22.9	0.00e+00	0	29	0	1011875840	48	5736
2026-01-11 12:48:45.50	120.88	13.82	-37.1	-38.1	22.7	0.00e+00	0	29	0	1013972992	48	5802
2026-01-11 12:48:46.51	121.04	13.76	-37.3	-38.2	22.7	0.00e+00	0	29	0	1016070144	48	5886
2026-01-11 12:48:47.52	121.21	13.70	-37.0	-38.0	22.9	0.00e+00	90	29	0	1018167296	48	5698
2026-01-11 12:48:48.53	121.38	13.64	-37.6	-38.6	22.3	0.00e+00	0	29	0	1019215872	48	6142
2026-01-11 12:48:49.54	121.55	13.58	-37.8	-38.9	22.2	0.00e+00	92	29	0	1021313024	48	6333
2026-01-11 12:48:50.55	121.71	13.52	-38.1	-39.2	21.8	0.00e+00	0	29	0	1023410176	48	6607
2026-01-11 12:48:51.56	121.88	13.46	-38.2	-39.4	21.6	0.00e+00	0	29	0	1025507328	48	6753
2026-01-11 12:48:52.57	122.04	13.40	-38.3	-39.4	21.7	0.00e+00	0	29	0	1027604480	48	6736
2026-01-11 12:48:53.58	122.20	13.34	-38.1	-39.2	21.7	0.00e+00	0	29	0	1028653056	48	6608
2026-01-11 12:48:54.59	122.37	13.28	-37.8	-38.9	22.1	0.00e+00	49	29	0	1030750208	48	6375
2026-01-11 12:48:55.60	122.53	13.22	-37.5	-38.6	22.4	0.00e+00	0	29	0	1032847360	48	6133
2026-01-11 12:48:56.61	122.69	13.16	-37.2	-38.2	22.7	0.00e+00	49	29	0	1034944512	48	5845
2026-01-11 12:48:57.62	122.85	13.10	-37.2	-38.2	22.6	0.00e+00	33	29	0	1037041664	48	5893
2026-01-11 12:48:58.63	123.01	13.04	-37.1	-38.1	22.7	0.00e+00	0	29	0	1038090240	48	5786
2026-01-11 12:48:59.63	123.17	12.98	-36.6	-37.5	23.3	0.00e+00	0	29	0	1040187392	46	6044
2026-01-11 12:49:00.64	123.33	12.92	-36.6	-37.5	23.3	0.00e+00	0	29	0	1042284544	46	6046
2026-01-11 12:49:01.65	123.49	12.86	-36.6	-37.5	23.2	0.00e+00	39	29	0	1044381696	46	6084
2026-01-11 12:49:02.66	123.65	12.80	-36.5	-37.5	23.2	0.00e+00	0	29	0	1046478848	46	6052
2026-01-11 12:49:03.67	123.80	12.74	-36.7	-37.6	23.1	0.00e+00	92	29	0	1048576000	46	6131
2026-01-11 12:49:04.68	123.96	12.68	-36.8	-37.7	23.1	0.00e+00	0	29	0	1049624576	46	6215
2026-01-11 12:49:05.69	124.12	12.62	-36.8	-37.8	23.1	0.00e+00	0	29	0	1051721728	46	6272
2026-01-11 12:49:06.70	124.27	12.56	-36.7	-37.6	23.1	0.00e+00	0	29	0	1053818880	46	6155
2026-01-11 12:49:07.71	124.43	12.49	-37.0	-37.9	22.7	0.00e+00	0	29	0	1055916032	46	6387
2026-01-11 12:49:08.72	124.58	12.43	-36.8	-37.8	22.7	0.00e+00	30	29	0	1058013184	46	6257
2026-01-11 12:49:09.73	124.73	12.37	-36.8	-37.8	22.9	0.00e+00	0	29	0	1059061760	46	6249
2026-01-11 12:49:10.74	124.89	12.31	-36.9	-37.9	22.9	0.00e+00	91	29	0	1061158912	46	6355
2026-01-11 12:49:11.75	125.04	12.25	-37.2	-38.3	22.5	0.00e+00	0	29	0	1063256064	46	6636
2026-01-11 12:49:12.75	125.19	12.19	-37.6	-38.6	22.2	0.00e+00	67	29	0	1065353216	46	6911
2026-01-11 12:49:13.76	125.34	12.13	-37.8	-38.9	22.0	0.00e+00	0	29	0	1067450368	48	6348
2026-01-11 12:49:14.78	125.49	12.07	-37.9	-39.0	22.0	0.00e+00	0	29	0	1068498944	48	6420
2026-01-11 12:49:15.78	125.64	12.01	-38.1	-39.2	21.8	0.00e+00	33	29	0	1070596096	48	6586
2026-01-11 12:49:16.79	125.79	11.95	-37.9	-39.1	21.9	0.00e+00	0	29	0	1072693248	48	6483
2026-01-11 12:49:17.80	125.94	11.89	-37.8	-38.9	22.0	0.00e+00	88	29	0	1074790400	48	6352
2026-01-11 12:49:18.81	126.09	11.83	-37.8	-38.9	22.0	0.00e+00	0	29	0	1076887552	48	6357
2026-01-11 12:49:19.82	126.24	11.76	-37.6	-38.7	22.2	0.00e+00	92	29	0	1077936128	48	6191
2026-01-11 12:49:20.83	126.38	11.70	-37.7	-38.8	22.2	0.00e+00	0	29	0	1080033280	48	6251
2026-01-11 12:49:21.84	126.53	11.64	-37.8	-38.9	22.0	0.00e+00	0	29	0	1082130432	48	6340
2026-01-11 12:49:22.85	126.68	11.58	-37.8	-38.8	22.2	0.00e+00	0	29	0	1084227584	48	6302
2026-01-11 12:49:23.86	126.82	11.52	-38.0	-39.0	21.9	0.00e+00	0	29	0	1086324736	48	6447
2026-01-11 12:49:24.87	126.97	11.46	-37.9	-39.0	21.8	0.00e+00	72	29	0	1087373312	48	6439
2026-01-11 12:49:25.88	127.11	11.40	-38.1	-39.2	21.8	0.00e+00	0	29	0	1089470464	48	6563
2026-01-11 12:49:26.89	127.25	11.34	-38.0	-39.1	21.9	0.00e+00	92	29	0	1091567616	48	6476
2026-01-11 12:49:27.90	127.40	11.28	-37.7	-38.8	22.1	0.00e+00	0	29	0	1093664768	48	6271
2026-01-11 12:49:28.91	127.54	11.21	-37.5	-38.5	22.4	0.00e+00	0	29	0	1095761920	48	6060
2026-01-11 12:49:29.92	127.68	11.15	-37.4	-38.4	22.4	0.00e+00	0	29	0	1096810496	48	6025
2026-01-11 12:49:30.93	127.82	11.09	-37.1	-38.0	22.7	0.00e+00	0	29	0	1098907648	48	5748
2026-01-11 12:49:31.93	127.96	11.03	-36.8	-37.8	22.9	0.00e+00	46	29	0	1101004800	48	5595
2026-01-11 12:49:32.95	128.10	10.97	-36.9	-37.9	22.8	0.00e+00	0	29	0	1103101952	48	5660
2026-01-11 12:49:33.96	128.24	10.91	-36.8	-37.7	22.9	0.00e+00	79	29	0	1105199104	46	6241
2026-01-11 12:49:34.97	128.38	10.85	-37.1	-38.1	22.7	0.00e+00	0	29	0	1106247680	46	6482
2026-01-11 12:49:35.98	128.52	10.79	-37.3	-38.3	22.5	0.00e+00	0	29	0	1108344832	46	6685
2026-01-11 12:49:36.99	128.66	10.72	-37.3	-38.3	22.5	0.00e+00	0	29	0	1110441984	46	6632
2026-01-11 12:49:38.00	128.79	10.66	-37.4	-38.4	22.4	0.00e+00	0	29	0	1112539136	46	6719
2026-01-11 12:49:39.01	128.93	10.60	-37.4	-38.5	22.3	0.00e+00	54	29	0	1114636288	46	6791
2026-01-11 12:49:40.02	129.07	10.54	-37.5	-38.5	22.4	0.00e+00	0	29	0	1116733440	46	6810
2026-01-11 12:49:41.02	129.20	10.48	-37.7	-38.7	22.1	0.00e+00	92	29	0	1117782016	46	7003
2026-01-11 12:49:42.03	129.34	10.42	-37.7	-38.8	22.1	0.00e+00	0	29	0	1119879168	48	6304
2026-01-11 12:49:43.05	129.47	10.36	-37.6	-38.7	22.2	0.00e+00	0	29	0	1121976320	48	6206
2026-01-11 12:49:44.06	129.61	10.30	-37.8	-38.8	22.0	0.00e+00	0	29	0	1124073472	48	6314
2026-01-11 12:49:45.06	129.74	10.24	-37.7	-38.7	22.1	0.00e+00	0	29	0	1126170624	48	6235
2026-01-11 12:49:46.07	129.87	10.18	-37.9	-39.0	21.8	0.00e+00	39	29	0	1127219200	48	6448
2026-01-11 12:49:47.08	130.00	10.11	-38.0	-39.1	21.7	0.00e+00	0	29	0	1129316352	48	6513
2026-01-11 12:49:48.09	130.14	10.05	-38.3	-39.4	21.6	0.00e+00	72	29	0	1131413504	48	6727
2026-01-11 12:49:49.10	130.27	9.99	-38.4	-39.6	21.4	0.00e+00	0	29	0	1133510656	48	6854
2026-01-11 12:49:50.11	130.40	9.93	-38.6	-39.8	21.2	0.00e+00	91	29	0	1135607808	48	7057
2026-01-11 12:49:51.12	130.53	9.87	-38.4	-39.6	21.3	0.00e+00	0	29	0	1136656384	48	6892
2026-01-11 12:49:52.13	130.66	9.81	-38.5	-39.7	21.3	0.00e+00	0	29	0	1138753536	48	6988
2026-01-11 12:49:53.14	130.79	9.75	-38.4	-39.6	21.3	0.00e+00	0	29	0	1140850688	48	6852
2026-01-11 12:49:54.15	130.92	9.69	-38.2	-39.3	21.6	0.00e+00	0	29	0	1142947840	48	6676
2026-01-11 12:49:55.16	131.04	9.63	-38.0	-39.1	21.7	0.00e+00	91	29	0	1145044992	48	6472
2026-01-11 12:49:56.17	131.17	9.57	-38.0	-39.1	21.5	0.00e+00	0	29	0	1146093568	48	6520
2026-01-11 12:49:57.18	131.30	9.51	-37.4	-38.4	22.3	0.00e+00	90	29	0	1148190720	48	6016
2026-01-11 12:49:58.19	131.43	9.44	-37.2	-38.2	22.4	0.00e+00	0	29	0	1150287872	48	5835
2026-01-11 12:49:59.20	131.55	9.38	-36.9	-37.9	22.7	0.00e+00	0	29	0	1152385024	48	5668
2026-01-11 12:50:00.21	131.68	9.32	-36.8	-37.8	22.8	0.00e+00	0	29	0	1154482176	48	5580
2026-01-11 12:50:01.22	131.80	9.26	-36.8	-37.7	22.8	0.00e+00	0	29	0	1155530752	48	5564
2026-01-11 12:50:02.23	131.93	9.20	-36.9	-37.9	22.8	0.00e+00	92	29	0	1157627904	46	6336
2026-01-11 12:50:03.24	132.05	9.14	-37.2	-38.2	22.2	0.00e+00	0	29	0	1159725056	46	6563
2026-01-11 12:50:04.25	132.17	9.08	-37.2	-38.2	22.4	0.00e+00	89	29	0	1161822208	46	6588
2026-01-11 12:50:05.26	132.30	9.02	-37.5	-38.6	21.9	0.00e+00	0	29	0	1163919360	46	6894
2026-01-11 12:50:06.27	132.42	8.96	-37.8	-38.9	21.7	0.00e+00	0	28	0	1164967936	48	6387
2026-01-11 12:50:07.28	132.54	8.90	-38.2	-39.4	21.4	0.00e+00	0	29	0	1167065088	48	6711
2026-01-11 12:50:08.29	132.66	8.84	-38.3	-39.4	21.4	0.00e+00	0	29	0	1169162240	48	6765
2026-01-11 12:50:09.30	132.79	8.78	-38.4	-39.6	21.2	0.00e+00	7	29	0	1171259392	48	6872
2026-01-11 12:50:10.30	132.91	8.72	-38.6	-39.8	21.2	0.00e+00	0	29	0	1173356544	48	7035
2026-01-11 12:50:11.32	133.03	8.66	-38.6	-39.8	21.0	0.00e+00	62	29	0	1174405120	48	7062
2026-01-11 12:50:12.33	133.15	8.60	-38.7	-39.9	20.9	0.00e+00	0	28	0	1176502272	48	7158
2026-01-11 12:50:13.34	133.27	8.54	-39.0	-40.2	20.7	0.00e+00	1	29	0	1178599424	50	6576
2026-01-11 12:50:14.34	133.38	8.48	-39.1	-40.4	20.6	0.00e+00	0	28	0	1180696576	50	6700
2026-01-11 12:50:15.35	133.50	8.42	-39.1	-40.4	20.5	0.00e+00	0	29	0	1182793728	50	6727
2026-01-11 12:50:16.36	133.62	8.36	-39.4	-40.7	20.3	0.00e+00	34	29	0	1184890880	50	6971
2026-01-11 12:50:17.37	133.74	8.30	-39.4	-40.8	20.2	0.00e+00	0	28	0	1185939456	50	7020
2026-01-11 12:50:18.38	133.85	8.24	-39.7	-41.1	20.0	0.00e+00	92	29	0	1188036608	50	7276
2026-01-11 12:50:19.39	133.97	8.18	-39.7	-41.1	19.9	0.00e+00	0	28	0	1190133760	52	6519
2026-01-11 12:50:20.40	134.09	8.12	-39.6	-41.0	19.9	0.00e+00	92	29	0	1192230912	52	6459
2026-01-11 12:50:21.41	134.20	8.06	-39.6	-41.1	19.9	0.00e+00	0	29	0	1194328064	52	6480
2026-01-11 12:50:22.42	134.32	8.00	-39.7	-41.2	19.9	0.00e+00	0	28	0	1195376640	52	6604
2026-01-11 12:50:23.43	134.43	7.94	-39.2	-40.8	20.2	0.00e+00	29	28	0	1197473792	52	6276
2026-01-11 12:50:24.44	134.55	7.88	-39.3	-40.9	20.1	0.00e+00	0	29	0	1199570944	52	6380
2026-01-11 12:50:25.45	134.66	7.82	-39.0	-40.6	20.3	0.00e+00	38	28	0	1201668096	52	6137
2026-01-11 12:50:26.46	134.77	7.76	-38.9	-40.4	20.5	0.00e+00	0	28	0	1203765248	52	6008
2026-01-11 12:50:27.47	134.89	7.70	-39.1	-40.5	20.5	0.00e+00	90	29	0	1204813824	52	6042
2026-01-11 12:50:28.48	135.00	7.64	-38.7	-40.1	20.8	0.00e+00	0	28	0	1206910976	50	6469
2026-01-11 12:50:29.49	135.11	7.58	-38.6	-39.8	20.9	0.00e+00	0	28	0	1209008128	50	6309
2026-01-11 12:50:30.50	135.22	7.52	-38.7	-39.9	20.8	0.00e+00	9	29	0	1211105280	50	6375
2026-01-11 12:50:31.51	135.33	7.46	-38.6	-39.9	20.9	0.00e+00	0	28	0	1213202432	50	6344
2026-01-11 12:50:32.52	135.44	7.40	-38.9	-40.2	20.7	0.00e+00	33	28	0	1214251008	50	6567
2026-01-11 12:50:33.52	135.55	7.34	-38.7	-39.9	20.9	0.00e+00	0	28	0	1216348160	50	6352
2026-01-11 12:50:34.53	135.66	7.28	-38.9	-40.1	20.7	0.00e+00	91	29	0	1218445312	50	6523
2026-01-11 12:50:35.55	135.77	7.22	-39.0	-40.3	20.4	0.00e+00	0	28	0	1220542464	50	6660
