passes_logs/2026/01/11/R4.6S_Anadyr/R4.6S_Anadyr__20260111_165923_FENGYUN_3D_rec.log

#Pass ID: 20260111_165923_FENGYUN 3D
#Satellite: FENGYUN 3D
#Configuration: FENGYUN 3D
#almurnet v.1.7.20251203
#Start time: 2026-01-11 16:59:25

#Version: 2.2.20231116
#Station: R4.6S_Anadyr
#Location: 177.4865 lon 64.73178 lat
#TLE: 1 43010U 17072A   26010.98637270  .00000005  00000+0  24269-4 0  9997
#TLE: 2 43010  98.9936 342.7405 0002213 115.1030 245.0375 14.19693961422685

#Time	Az	El	Level	Level2	SNR	BER	BlckErr	Temp	State	Recorded	gain1	gain2
2026-01-11 16:59:25.73	21.47	0.14	-48.5	-66.2	3.5	3.03e+01	0	25	0	0	60	78829
2026-01-11 16:59:26.74	21.47	0.20	-48.1	-60.2	3.6	8.45e-01	0	26	104	0	60	37162
2026-01-11 16:59:27.75	21.46	0.26	-48.2	-60.2	3.6	8.46e-01	0	26	104	0	60	37145
2026-01-11 16:59:28.76	21.46	0.33	-48.1	-60.2	3.6	8.45e-01	0	26	104	0	60	37126
2026-01-11 16:59:29.77	21.46	0.39	-48.1	-60.2	3.6	8.47e-01	0	26	104	0	60	37159
2026-01-11 16:59:30.78	21.46	0.45	-48.0	-60.2	3.6	8.44e-01	0	26	104	0	60	37198
2026-01-11 16:59:31.79	21.46	0.51	-48.2	-60.2	3.6	8.46e-01	0	26	104	0	60	37177
2026-01-11 16:59:32.80	21.46	0.57	-48.1	-60.2	3.6	8.44e-01	0	26	104	0	60	36925
2026-01-11 16:59:33.81	21.46	0.63	-47.9	-60.1	3.6	8.46e-01	0	26	104	0	60	36575
2026-01-11 16:59:34.82	21.46	0.69	-47.9	-60.0	3.6	8.45e-01	0	26	104	0	60	36244
2026-01-11 16:59:35.83	21.46	0.75	-47.8	-59.9	3.6	8.45e-01	0	27	104	0	60	35877
2026-01-11 16:59:36.84	21.46	0.82	-47.7	-59.8	3.6	8.45e-01	0	26	104	0	60	35391
2026-01-11 16:59:37.84	21.46	0.88	-47.6	-59.6	3.6	8.45e-01	0	27	104	0	60	34518
2026-01-11 16:59:38.85	21.46	0.94	-47.4	-59.4	3.6	8.44e-01	0	27	104	0	60	33908
2026-01-11 16:59:39.86	21.46	1.00	-47.2	-59.3	3.6	8.45e-01	0	27	104	0	60	33301
2026-01-11 16:59:40.88	21.46	1.06	-46.9	-59.0	3.6	8.45e-01	0	27	104	0	60	32031
2026-01-11 16:59:41.88	21.45	1.13	-46.6	-58.7	3.6	8.45e-01	0	27	104	0	60	30959
2026-01-11 16:59:42.89	21.45	1.19	-46.5	-58.6	3.6	8.46e-01	0	27	104	0	60	30829
2026-01-11 16:59:43.90	21.45	1.25	-46.5	-58.6	3.6	8.46e-01	0	27	104	0	60	30659
2026-01-11 16:59:44.91	21.45	1.31	-46.5	-58.5	3.6	8.46e-01	0	27	104	0	60	30586
2026-01-11 16:59:45.92	21.45	1.38	-46.5	-58.3	3.6	8.44e-01	0	27	104	0	60	29692
2026-01-11 16:59:46.93	21.45	1.44	-46.5	-58.1	3.6	8.46e-01	0	27	104	0	60	29072
2026-01-11 16:59:47.93	21.45	1.50	-46.5	-57.9	3.6	8.45e-01	0	27	104	0	60	28393
2026-01-11 16:59:48.94	21.45	1.57	-46.5	-58.1	3.6	8.46e-01	0	27	104	0	60	28954
2026-01-11 16:59:49.95	21.45	1.63	-46.5	-58.1	3.6	8.45e-01	0	27	104	0	60	29209
2026-01-11 16:59:50.96	21.45	1.69	-46.5	-58.2	3.6	8.44e-01	0	27	104	0	60	29265
2026-01-11 16:59:51.97	21.45	1.76	-46.5	-58.4	3.6	8.45e-01	0	27	104	0	60	30135
2026-01-11 16:59:52.98	21.44	1.82	-46.5	-58.5	3.6	8.45e-01	0	27	104	0	60	30346
2026-01-11 16:59:53.99	21.44	1.89	-46.5	-58.5	3.6	8.45e-01	0	27	104	0	60	30573
2026-01-11 16:59:55.00	21.44	1.95	-46.5	-58.5	3.6	8.46e-01	0	27	104	0	60	30559
2026-01-11 16:59:56.01	21.44	2.01	-46.5	-58.5	3.6	8.46e-01	0	27	104	0	60	30393
2026-01-11 16:59:57.02	21.44	2.08	-46.5	-58.5	3.6	8.45e-01	0	27	104	0	60	30242
2026-01-11 16:59:58.02	21.44	2.14	-46.5	-58.3	3.6	8.44e-01	0	27	104	0	60	29646
2026-01-11 16:59:59.03	21.44	2.21	-46.5	-58.2	3.6	8.46e-01	0	27	104	0	60	29231
2026-01-11 17:00:00.04	21.44	2.27	-46.4	-57.8	3.5	8.45e-01	0	27	104	0	60	28008
2026-01-11 17:00:01.05	21.43	2.34	-46.4	-57.3	3.6	8.44e-01	0	27	104	0	60	26406
2026-01-11 17:00:02.06	21.43	2.40	-46.3	-56.7	3.6	8.43e-01	0	27	104	0	60	24633
2026-01-11 17:00:03.07	21.43	2.47	-46.2	-55.6	3.9	8.43e-01	0	27	104	0	60	21695
2026-01-11 17:00:04.08	21.43	2.53	-46.1	-53.6	3.8	8.33e-01	0	27	0	0	60	17313
2026-01-11 17:00:05.09	21.43	2.60	-46.1	-54.6	4.1	8.40e-01	0	27	104	0	60	19405
2026-01-11 17:00:06.10	21.43	2.67	-46.0	-53.1	4.0	8.29e-01	0	27	0	0	60	16260
2026-01-11 17:00:07.11	21.43	2.73	-46.0	-53.2	4.0	8.29e-01	0	27	0	0	60	16508
2026-01-11 17:00:08.12	21.42	2.80	-46.0	-52.8	4.2	8.22e-01	0	27	0	0	60	15806
2026-01-11 17:00:09.13	21.42	2.86	-45.7	-51.3	5.2	7.69e-01	0	27	0	0	60	13317
2026-01-11 17:00:10.14	21.42	2.93	-45.2	-49.9	7.0	2.52e-01	0	27	0	4194304	60	11235
2026-01-11 17:00:11.14	21.42	3.00	-44.2	-47.7	9.4	3.36e-02	0	27	0	9437184	60	8811
2026-01-11 17:00:12.15	21.42	3.06	-43.3	-46.0	11.4	3.63e-03	0	27	0	15728640	60	7249
2026-01-11 17:00:13.16	21.42	3.13	-41.8	-43.8	13.7	7.32e-05	0	27	0	20971520	58	6308
2026-01-11 17:00:14.17	21.42	3.20	-40.9	-42.6	15.0	0.00e+00	0	27	0	27262976	56	6110
2026-01-11 17:00:15.18	21.41	3.27	-40.0	-41.5	16.0	0.00e+00	0	27	0	32505856	54	6044
2026-01-11 17:00:16.19	21.41	3.33	-39.4	-40.7	16.9	0.00e+00	0	27	0	37748736	52	6194
2026-01-11 17:00:17.20	21.41	3.40	-38.7	-39.9	17.7	0.00e+00	0	27	0	44040192	52	5639
2026-01-11 17:00:18.21	21.41	3.47	-38.3	-39.5	18.1	0.00e+00	0	27	0	49283072	50	6043
2026-01-11 17:00:19.22	21.41	3.54	-38.2	-39.3	18.3	0.00e+00	0	28	0	55574528	50	5953
2026-01-11 17:00:20.23	21.40	3.60	-38.3	-39.5	18.0	0.00e+00	0	27	0	60817408	50	6069
2026-01-11 17:00:21.24	21.40	3.67	-39.0	-40.2	17.3	0.00e+00	0	27	0	66060288	50	6614
2026-01-11 17:00:22.25	21.40	3.74	-40.2	-41.7	15.8	0.00e+00	0	27	0	72351744	52	6953
2026-01-11 17:00:23.26	21.40	3.81	-39.8	-41.1	18.1	0.00e+00	0	28	0	77594624	54	5813
2026-01-11 17:00:24.27	21.40	3.88	-36.8	-37.7	18.8	0.00e+00	0	27	0	83886080	48	5529
2026-01-11 17:00:25.28	21.40	3.95	-39.2	-40.4	18.1	0.00e+00	0	28	0	89128960	54	5328
2026-01-11 17:00:26.29	21.39	4.02	-46.3	-57.4	3.6	8.45e-01	0	28	104	91226112	60	26739
2026-01-11 17:00:27.29	21.39	4.09	-36.2	-37.1	20.1	0.00e+00	0	28	0	93323264	46	5805
2026-01-11 17:00:28.30	21.39	4.16	-45.6	-52.0	4.9	8.45e-01	0	28	104	96468992	60	14375
2026-01-11 17:00:29.32	21.39	4.23	-36.3	-37.2	19.1	2.99e-02	0	28	104	96468992	46	5889
2026-01-11 17:00:30.33	21.38	4.30	-36.1	-37.0	20.6	0.00e+00	0	28	0	99614720	46	5705
2026-01-11 17:00:31.34	21.38	4.37	-35.0	-35.8	21.9	0.00e+00	0	28	0	104857600	44	5587
2026-01-11 17:00:32.35	21.38	4.44	-34.9	-35.7	22.0	0.00e+00	0	28	0	111149056	42	6222
2026-01-11 17:00:33.35	21.38	4.51	-34.8	-35.6	22.2	0.00e+00	0	28	0	116391936	42	6119
2026-01-11 17:00:34.37	21.38	4.58	-34.4	-35.2	22.5	0.00e+00	0	28	0	122683392	42	5831
2026-01-11 17:00:35.37	21.37	4.65	-34.2	-35.0	22.7	0.00e+00	0	28	0	127926272	42	5713
2026-01-11 17:00:36.39	21.37	4.72	-34.6	-35.4	22.4	0.00e+00	0	28	0	133169152	42	5968
2026-01-11 17:00:37.40	21.37	4.79	-34.7	-35.5	22.3	0.00e+00	0	28	0	139460608	42	6039
2026-01-11 17:00:38.41	21.37	4.86	-34.7	-35.5	22.3	0.00e+00	0	28	0	144703488	42	6037
2026-01-11 17:00:39.42	21.36	4.93	-34.7	-35.5	22.3	0.00e+00	0	28	0	150994944	42	6082
2026-01-11 17:00:40.42	21.36	5.00	-34.9	-35.7	22.0	0.00e+00	0	28	0	156237824	42	6219
2026-01-11 17:00:41.43	21.36	5.08	-34.4	-35.2	22.7	0.00e+00	0	28	0	161480704	42	5860
2026-01-11 17:00:42.44	21.36	5.15	-34.1	-34.8	22.9	0.00e+00	0	28	0	167772160	42	5605
2026-01-11 17:00:43.45	21.35	5.22	-34.0	-34.8	23.0	0.00e+00	0	28	0	173015040	42	5576
2026-01-11 17:00:44.46	21.35	5.29	-34.1	-34.8	22.9	0.00e+00	0	28	0	179306496	42	5621
2026-01-11 17:00:45.47	21.35	5.37	-34.0	-34.7	23.1	0.00e+00	0	28	0	184549376	42	5558
2026-01-11 17:00:46.48	21.35	5.44	-34.1	-34.9	22.9	0.00e+00	0	28	0	190840832	42	5632
2026-01-11 17:00:47.49	21.34	5.51	-34.1	-34.8	23.1	0.00e+00	0	28	0	196083712	42	5612
2026-01-11 17:00:48.50	21.34	5.59	-34.0	-34.7	23.1	0.00e+00	0	28	0	201326592	42	5525
2026-01-11 17:00:49.51	21.34	5.66	-34.0	-34.8	23.1	0.00e+00	0	28	0	207618048	42	5568
2026-01-11 17:00:50.52	21.34	5.73	-33.8	-34.5	23.2	0.00e+00	0	28	0	212860928	42	5439
2026-01-11 17:00:51.52	21.33	5.81	-33.8	-34.5	23.3	0.00e+00	0	28	0	219152384	42	5435
2026-01-11 17:00:52.53	21.33	5.88	-33.8	-34.6	23.3	0.00e+00	0	28	0	224395264	42	5452
2026-01-11 17:00:53.54	21.33	5.95	-33.9	-34.6	23.3	0.00e+00	0	28	0	229638144	42	5499
2026-01-11 17:00:54.56	21.32	6.03	-33.7	-34.4	23.5	0.00e+00	0	28	0	235929600	40	5990
2026-01-11 17:00:55.56	21.32	6.10	-33.9	-34.6	23.4	0.00e+00	0	28	0	241172480	40	6139
2026-01-11 17:00:56.57	21.32	6.18	-33.6	-34.3	23.5	0.00e+00	0	28	0	247463936	40	5942
2026-01-11 17:00:57.59	21.31	6.26	-33.6	-34.4	23.5	0.00e+00	0	28	0	252706816	40	5969
2026-01-11 17:00:58.59	21.31	6.33	-33.8	-34.5	23.4	0.00e+00	0	28	0	257949696	40	6071
2026-01-11 17:00:59.60	21.31	6.41	-33.6	-34.3	23.5	0.00e+00	0	28	0	264241152	40	5937
2026-01-11 17:01:00.61	21.31	6.48	-33.5	-34.2	23.6	0.00e+00	0	28	0	269484032	40	5894
2026-01-11 17:01:01.62	21.30	6.56	-33.5	-34.2	23.6	0.00e+00	0	28	0	275775488	40	5884
2026-01-11 17:01:02.63	21.30	6.63	-33.5	-34.2	23.7	0.00e+00	0	28	0	281018368	40	5833
2026-01-11 17:01:03.64	21.30	6.71	-33.4	-34.1	23.7	0.00e+00	0	28	0	287309824	40	5796
2026-01-11 17:01:04.65	21.29	6.79	-33.5	-34.2	23.7	0.00e+00	0	28	0	292552704	40	5891
2026-01-11 17:01:05.66	21.29	6.86	-33.7	-34.4	23.6	0.00e+00	0	28	0	298844160	40	6003
2026-01-11 17:01:06.66	21.29	6.94	-33.3	-34.0	23.9	0.00e+00	0	28	0	304087040	40	5703
2026-01-11 17:01:07.67	21.28	7.02	-33.1	-33.8	24.0	0.00e+00	0	28	0	309329920	40	5623
2026-01-11 17:01:08.68	21.28	7.10	-33.1	-33.8	24.1	0.00e+00	0	28	0	315621376	40	5586
2026-01-11 17:01:09.69	21.27	7.17	-33.3	-34.0	23.9	0.00e+00	0	28	0	320864256	40	5705
2026-01-11 17:01:10.70	21.27	7.25	-33.2	-33.9	24.0	0.00e+00	0	28	0	327155712	40	5677
2026-01-11 17:01:11.71	21.27	7.33	-33.2	-33.9	24.0	0.00e+00	0	28	0	332398592	40	5631
2026-01-11 17:01:12.72	21.26	7.41	-33.3	-34.0	24.0	0.00e+00	0	28	0	337641472	40	5710
2026-01-11 17:01:13.73	21.26	7.49	-33.1	-33.8	24.1	0.00e+00	0	28	0	343932928	40	5580
2026-01-11 17:01:14.74	21.26	7.57	-33.1	-33.8	24.2	0.00e+00	0	28	0	349175808	40	5591
2026-01-11 17:01:15.75	21.25	7.65	-33.0	-33.7	24.2	0.00e+00	0	28	0	355467264	40	5531
2026-01-11 17:01:16.76	21.25	7.73	-33.1	-33.8	24.2	0.00e+00	0	28	0	360710144	40	5572
2026-01-11 17:01:17.76	21.24	7.81	-33.0	-33.7	24.2	0.00e+00	0	28	0	365953024	40	5508
2026-01-11 17:01:18.77	21.24	7.89	-33.0	-33.7	24.3	0.00e+00	0	28	0	372244480	40	5551
2026-01-11 17:01:19.78	21.24	7.97	-33.1	-33.8	24.2	0.00e+00	0	28	0	377487360	40	5578
2026-01-11 17:01:20.79	21.23	8.05	-33.0	-33.7	24.3	0.00e+00	0	28	0	383778816	40	5503
2026-01-11 17:01:21.80	21.23	8.13	-32.9	-33.6	24.3	0.00e+00	0	28	0	389021696	40	5492
2026-01-11 17:01:22.81	21.22	8.21	-32.8	-33.5	24.5	0.00e+00	0	28	0	395313152	40	5381
2026-01-11 17:01:23.82	21.22	8.29	-33.0	-33.6	24.3	0.00e+00	0	28	0	400556032	40	5496
2026-01-11 17:01:24.83	21.22	8.37	-32.9	-33.6	24.4	0.00e+00	0	28	0	405798912	40	5451
2026-01-11 17:01:25.84	21.21	8.46	-33.1	-33.8	24.2	0.00e+00	0	28	0	412090368	40	5611
2026-01-11 17:01:26.85	21.21	8.54	-32.8	-33.5	24.5	0.00e+00	0	28	0	417333248	40	5402
2026-01-11 17:01:27.86	21.20	8.62	-32.8	-33.5	24.6	0.00e+00	0	28	0	423624704	40	5378
2026-01-11 17:01:28.87	21.20	8.70	-32.9	-33.6	24.4	0.00e+00	0	28	0	428867584	38	6107
2026-01-11 17:01:29.87	21.19	8.79	-32.7	-33.4	24.6	0.00e+00	0	28	0	434110464	38	6009
2026-01-11 17:01:30.88	21.19	8.87	-32.9	-33.6	24.4	0.00e+00	0	28	0	440401920	38	6130
2026-01-11 17:01:31.89	21.19	8.95	-32.7	-33.3	24.7	0.00e+00	0	28	0	445644800	38	5949
2026-01-11 17:01:32.90	21.18	9.04	-32.7	-33.4	24.7	0.00e+00	0	28	0	451936256	38	5987
2026-01-11 17:01:33.91	21.18	9.12	-32.7	-33.4	24.6	0.00e+00	0	28	0	457179136	38	5996
2026-01-11 17:01:34.92	21.17	9.21	-32.9	-33.5	24.6	0.00e+00	0	28	0	462422016	38	6101
2026-01-11 17:01:35.93	21.17	9.29	-32.7	-33.4	24.6	0.00e+00	0	28	0	468713472	38	5986
2026-01-11 17:01:36.94	21.16	9.38	-32.6	-33.3	24.6	0.00e+00	0	28	0	473956352	38	5952
2026-01-11 17:01:37.95	21.16	9.46	-32.7	-33.4	24.7	0.00e+00	0	28	0	480247808	38	6017
2026-01-11 17:01:38.96	21.15	9.55	-32.8	-33.5	24.6	0.00e+00	0	28	0	485490688	38	6036
2026-01-11 17:01:39.97	21.15	9.63	-32.6	-33.2	24.8	0.00e+00	0	28	0	491782144	38	5895
2026-01-11 17:01:40.98	21.14	9.72	-32.7	-33.3	24.7	0.00e+00	0	28	0	497025024	38	5959
2026-01-11 17:01:41.99	21.14	9.80	-32.7	-33.4	24.8	0.00e+00	0	28	0	502267904	38	5994
2026-01-11 17:01:43.00	21.13	9.89	-32.8	-33.4	24.7	0.00e+00	0	28	0	508559360	38	6025
2026-01-11 17:01:44.01	21.13	9.98	-32.8	-33.5	24.6	0.00e+00	0	28	0	513802240	38	6042
2026-01-11 17:01:45.02	21.12	10.07	-32.6	-33.3	24.7	0.00e+00	0	28	0	520093696	38	5950
2026-01-11 17:01:46.03	21.12	10.15	-32.7	-33.4	24.7	0.00e+00	0	28	0	525336576	38	5967
2026-01-11 17:01:47.04	21.11	10.24	-32.7	-33.3	24.8	0.00e+00	0	28	0	530579456	38	5958
2026-01-11 17:01:48.05	21.10	10.33	-32.6	-33.3	24.9	0.00e+00	0	28	0	536870912	38	5917
2026-01-11 17:01:49.06	21.10	10.42	-32.6	-33.3	24.7	0.00e+00	0	28	0	542113792	38	5957
2026-01-11 17:01:50.07	21.09	10.51	-32.6	-33.3	24.8	0.00e+00	0	28	0	548405248	38	5924
2026-01-11 17:01:51.08	21.09	10.60	-32.6	-33.3	24.9	0.00e+00	0	29	0	553648128	38	5917
2026-01-11 17:01:52.09	21.08	10.69	-32.6	-33.3	24.9	0.00e+00	0	28	0	558891008	38	5903
2026-01-11 17:01:53.10	21.08	10.78	-32.6	-33.3	24.8	0.00e+00	0	28	0	565182464	38	5906
2026-01-11 17:01:54.11	21.07	10.87	-32.6	-33.3	24.8	0.00e+00	0	28	0	570425344	38	5944
2026-01-11 17:01:55.12	21.06	10.96	-32.5	-33.2	24.9	0.00e+00	0	28	0	576716800	38	5848
2026-01-11 17:01:56.13	21.06	11.05	-32.6	-33.3	24.9	0.00e+00	0	28	0	581959680	38	5897
2026-01-11 17:01:57.14	21.05	11.14	-32.5	-33.1	25.0	0.00e+00	0	28	0	588251136	38	5814
2026-01-11 17:01:58.15	21.05	11.23	-32.6	-33.2	24.8	0.00e+00	0	28	0	593494016	38	5891
2026-01-11 17:01:59.16	21.04	11.33	-32.4	-33.1	25.0	0.00e+00	0	28	0	599785472	38	5792
2026-01-11 17:02:00.17	21.03	11.42	-32.5	-33.2	24.9	0.00e+00	0	28	0	605028352	38	5846
2026-01-11 17:02:01.18	21.03	11.51	-32.6	-33.3	24.8	0.00e+00	0	28	0	610271232	38	5919
2026-01-11 17:02:02.19	21.02	11.60	-32.6	-33.2	24.8	0.00e+00	0	28	0	616562688	38	5894
2026-01-11 17:02:03.20	21.01	11.70	-32.5	-33.1	25.0	0.00e+00	0	28	0	621805568	38	5827
2026-01-11 17:02:04.21	21.01	11.79	-32.5	-33.2	25.0	0.00e+00	0	28	0	628097024	38	5848
2026-01-11 17:02:05.22	21.00	11.89	-32.5	-33.2	24.9	0.00e+00	0	29	0	633339904	38	5847
2026-01-11 17:02:06.22	20.99	11.98	-32.4	-33.1	25.1	0.00e+00	0	29	0	638582784	38	5769
2026-01-11 17:02:07.23	20.99	12.07	-32.5	-33.2	24.9	0.00e+00	0	28	0	644874240	38	5859
2026-01-11 17:02:08.24	20.98	12.17	-32.5	-33.2	24.9	0.00e+00	0	29	0	650117120	38	5883
2026-01-11 17:02:09.25	20.97	12.26	-32.4	-33.1	25.1	0.00e+00	0	28	0	656408576	38	5776
2026-01-11 17:02:10.26	20.97	12.36	-32.5	-33.1	25.0	0.00e+00	0	29	0	661651456	38	5811
2026-01-11 17:02:11.27	20.96	12.46	-32.5	-33.2	24.9	0.00e+00	0	29	0	666894336	38	5838
2026-01-11 17:02:12.28	20.95	12.55	-32.4	-33.1	25.1	0.00e+00	0	28	0	673185792	38	5774
2026-01-11 17:02:13.29	20.95	12.65	-32.5	-33.2	25.0	0.00e+00	0	29	0	678428672	38	5831
2026-01-11 17:02:14.30	20.94	12.75	-32.3	-33.0	25.1	0.00e+00	0	28	0	684720128	38	5720
2026-01-11 17:02:15.31	20.93	12.85	-32.3	-33.0	25.1	0.00e+00	0	29	0	689963008	38	5720
2026-01-11 17:02:16.32	20.92	12.95	-32.3	-33.0	25.2	0.00e+00	0	28	0	696254464	38	5720
2026-01-11 17:02:17.33	20.92	13.04	-32.2	-32.8	25.3	0.00e+00	0	29	0	701497344	38	5610
2026-01-11 17:02:18.34	20.91	13.14	-32.2	-32.8	25.3	0.00e+00	0	28	0	706740224	38	5629
2026-01-11 17:02:19.35	20.90	13.24	-32.1	-32.8	25.3	0.00e+00	0	28	0	713031680	38	5584
2026-01-11 17:02:20.36	20.89	13.34	-32.0	-32.7	25.3	0.00e+00	0	29	0	718274560	38	5539
2026-01-11 17:02:21.37	20.89	13.44	-32.1	-32.8	25.3	0.00e+00	0	28	0	724566016	38	5575
2026-01-11 17:02:22.37	20.88	13.54	-32.2	-32.8	25.3	0.00e+00	0	29	0	729808896	38	5599
2026-01-11 17:02:23.38	20.87	13.64	-31.9	-32.6	25.5	0.00e+00	0	29	0	735051776	38	5457
2026-01-11 17:02:24.39	20.86	13.75	-31.9	-32.5	25.5	0.00e+00	0	29	0	741343232	38	5437
2026-01-11 17:02:25.40	20.85	13.85	-31.9	-32.6	25.5	0.00e+00	0	29	0	746586112	38	5448
2026-01-11 17:02:26.41	20.85	13.95	-31.8	-32.5	25.6	0.00e+00	0	29	0	752877568	38	5392
2026-01-11 17:02:27.42	20.84	14.05	-31.9	-32.6	25.6	0.00e+00	0	29	0	758120448	38	5459
2026-01-11 17:02:28.43	20.83	14.16	-31.7	-32.4	25.6	0.00e+00	0	29	0	763363328	36	6004
2026-01-11 17:02:29.44	20.82	14.26	-31.8	-32.4	25.7	0.00e+00	0	29	0	769654784	36	6028
2026-01-11 17:02:30.45	20.81	14.37	-31.8	-32.5	25.6	0.00e+00	0	29	0	774897664	36	6046
2026-01-11 17:02:31.46	20.80	14.47	-31.7	-32.4	25.8	0.00e+00	0	29	0	781189120	36	5980
2026-01-11 17:02:32.47	20.80	14.57	-31.6	-32.2	25.9	0.00e+00	0	29	0	786432000	36	5879
2026-01-11 17:02:33.47	20.79	14.68	-31.6	-32.3	25.8	0.00e+00	0	29	0	792723456	36	5897
2026-01-11 17:02:34.48	20.78	14.79	-31.6	-32.2	25.8	0.00e+00	0	29	0	797966336	36	5880
2026-01-11 17:02:35.49	20.77	14.89	-31.7	-32.3	25.8	0.00e+00	0	29	0	803209216	36	5953
2026-01-11 17:02:36.50	20.76	15.00	-31.7	-32.4	25.7	0.00e+00	0	29	0	809500672	36	5981
2026-01-11 17:02:37.51	20.75	15.11	-31.7	-32.3	25.8	0.00e+00	0	29	0	814743552	36	5942
2026-01-11 17:02:38.52	20.74	15.21	-31.4	-32.1	25.9	0.00e+00	0	29	0	821035008	36	5788
2026-01-11 17:02:39.53	20.73	15.32	-31.3	-31.9	26.1	0.00e+00	0	29	0	826277888	36	5695
2026-01-11 17:02:40.54	20.72	15.43	-31.3	-32.0	26.1	0.00e+00	0	29	0	831520768	36	5696
2026-01-11 17:02:41.55	20.71	15.54	-31.3	-31.9	26.1	0.00e+00	0	29	0	837812224	36	5672
2026-01-11 17:02:42.56	20.70	15.65	-31.3	-31.9	26.1	0.00e+00	0	29	0	843055104	36	5689
2026-01-11 17:02:43.57	20.69	15.76	-31.2	-31.8	26.1	0.00e+00	0	29	0	849346560	36	5622
2026-01-11 17:02:44.58	20.68	15.87	-31.2	-31.9	26.2	0.00e+00	0	29	0	854589440	36	5635
2026-01-11 17:02:45.59	20.67	15.98	-31.1	-31.8	26.4	0.00e+00	0	29	0	859832320	36	5580
2026-01-11 17:02:46.59	20.66	16.10	-31.1	-31.7	26.3	0.00e+00	0	29	0	866123776	36	5556
2026-01-11 17:02:47.60	20.65	16.21	-31.0	-31.7	26.3	0.00e+00	0	29	0	871366656	36	5513
2026-01-11 17:02:48.61	20.64	16.32	-31.0	-31.6	26.4	0.00e+00	0	29	0	877658112	36	5470
2026-01-11 17:02:49.62	20.63	16.43	-31.0	-31.6	26.4	0.00e+00	0	29	0	882900992	36	5463
2026-01-11 17:02:50.64	20.62	16.55	-31.0	-31.6	26.5	0.00e+00	0	29	0	889192448	36	5467
2026-01-11 17:02:51.64	20.61	16.66	-31.0	-31.6	26.5	0.00e+00	0	29	0	894435328	36	5464
2026-01-11 17:02:52.66	20.60	16.78	-30.8	-31.4	26.5	0.00e+00	0	29	0	900726784	36	5357
2026-01-11 17:02:53.67	20.59	16.89	-30.8	-31.4	26.4	0.00e+00	0	29	0	905969664	36	5357
2026-01-11 17:02:54.67	20.58	17.01	-30.7	-31.4	26.6	0.00e+00	0	29	0	911212544	36	5337
2026-01-11 17:02:55.68	20.57	17.13	-30.6	-31.3	26.7	0.00e+00	0	29	0	917504000	34	5899
2026-01-11 17:02:56.69	20.56	17.24	-30.6	-31.2	26.7	0.00e+00	0	29	0	922746880	34	5886
2026-01-11 17:02:57.71	20.54	17.36	-30.6	-31.2	26.7	0.00e+00	0	29	0	929038336	34	5885
2026-01-11 17:02:58.72	20.53	17.48	-30.6	-31.2	26.7	0.00e+00	0	29	0	934281216	34	5839
2026-01-11 17:02:59.72	20.52	17.60	-30.7	-31.4	26.5	0.00e+00	0	29	0	939524096	34	5971
2026-01-11 17:03:00.73	20.51	17.72	-30.5	-31.1	26.8	0.00e+00	0	29	0	945815552	34	5787
2026-01-11 17:03:01.74	20.50	17.84	-30.4	-31.0	26.8	0.00e+00	0	29	0	951058432	34	5743
2026-01-11 17:03:02.75	20.49	17.96	-30.4	-31.0	26.9	0.00e+00	0	29	0	956301312	34	5728
2026-01-11 17:03:03.75	20.47	18.08	-30.4	-31.0	26.6	0.00e+00	0	29	0	962592768	34	5716
2026-01-11 17:03:04.76	20.46	18.20	-30.4	-31.0	26.9	0.00e+00	0	29	0	967835648	34	5706
2026-01-11 17:03:05.77	20.45	18.32	-30.3	-30.9	27.0	0.00e+00	0	29	0	974127104	34	5688
2026-01-11 17:03:06.78	20.44	18.45	-30.3	-30.9	26.9	0.00e+00	0	29	0	979369984	34	5661
2026-01-11 17:03:07.79	20.42	18.57	-30.3	-31.0	26.9	0.00e+00	0	29	0	985661440	34	5710
2026-01-11 17:03:08.80	20.41	18.70	-30.2	-30.9	27.0	0.00e+00	0	29	0	990904320	34	5643
2026-01-11 17:03:09.81	20.40	18.82	-30.1	-30.7	27.1	0.00e+00	0	29	0	997195776	34	5562
2026-01-11 17:03:10.82	20.39	18.95	-30.1	-30.8	27.1	0.00e+00	0	29	0	1002438656	34	5568
2026-01-11 17:03:11.83	20.37	19.07	-30.1	-30.7	27.0	0.00e+00	0	29	0	1007681536	34	5546
2026-01-11 17:03:12.84	20.36	19.20	-30.1	-30.7	27.2	0.00e+00	0	29	0	1013972992	34	5518
2026-01-11 17:03:13.85	20.35	19.33	-30.0	-30.6	27.3	0.00e+00	0	29	0	1019215872	34	5488
2026-01-11 17:03:14.86	20.33	19.46	-30.1	-30.7	27.1	0.00e+00	0	29	0	1025507328	34	5507
2026-01-11 17:03:15.87	20.32	19.59	-30.0	-30.6	27.3	0.00e+00	0	29	0	1030750208	34	5450
2026-01-11 17:03:16.88	20.30	19.72	-30.0	-30.6	27.2	0.00e+00	0	29	0	1035993088	34	5502
2026-01-11 17:03:17.89	20.29	19.85	-30.1	-30.7	27.3	0.00e+00	0	29	0	1042284544	34	5564
2026-01-11 17:03:18.90	20.28	19.98	-29.8	-30.4	27.5	0.00e+00	0	29	0	1047527424	34	5374
2026-01-11 17:03:19.91	20.26	20.11	-29.9	-30.5	27.3	0.00e+00	0	29	0	1053818880	34	5428
2026-01-11 17:03:20.91	20.25	20.24	-29.9	-30.5	27.4	0.00e+00	0	29	0	1059061760	34	5396
2026-01-11 17:03:21.92	20.23	20.37	-29.9	-30.5	27.4	0.00e+00	0	29	0	1064304640	34	5407
2026-01-11 17:03:22.93	20.22	20.51	-29.8	-30.4	27.4	0.00e+00	0	29	0	1070596096	34	5371
2026-01-11 17:03:23.95	20.20	20.64	-29.7	-30.3	27.6	0.00e+00	0	29	0	1075838976	32	5949
2026-01-11 17:03:24.96	20.19	20.78	-29.7	-30.3	27.6	0.00e+00	0	29	0	1082130432	32	5920
2026-01-11 17:03:25.97	20.17	20.91	-29.7	-30.3	27.6	0.00e+00	0	29	0	1087373312	32	5938
2026-01-11 17:03:26.97	20.16	21.05	-29.8	-30.4	27.5	0.00e+00	0	29	0	1093664768	32	5998
2026-01-11 17:03:27.98	20.14	21.19	-29.8	-30.4	27.5	0.00e+00	0	29	0	1098907648	32	5977
2026-01-11 17:03:28.99	20.12	21.32	-29.6	-30.2	27.6	0.00e+00	0	29	0	1104150528	32	5847
2026-01-11 17:03:30.00	20.11	21.46	-29.5	-30.2	27.7	0.00e+00	0	29	0	1110441984	32	5833
2026-01-11 17:03:31.01	20.09	21.60	-29.5	-30.1	27.6	0.00e+00	0	29	0	1115684864	32	5823
2026-01-11 17:03:32.02	20.08	21.74	-29.6	-30.2	27.7	0.00e+00	0	29	0	1121976320	32	5860
2026-01-11 17:03:33.03	20.06	21.89	-29.5	-30.2	27.7	0.00e+00	0	29	0	1127219200	32	5854
2026-01-11 17:03:34.04	20.04	22.03	-29.6	-30.2	27.7	0.00e+00	0	29	0	1132462080	32	5860
2026-01-11 17:03:35.05	20.02	22.17	-29.6	-30.2	27.7	0.00e+00	0	29	0	1138753536	32	5871
2026-01-11 17:03:36.06	20.01	22.31	-29.5	-30.2	27.7	0.00e+00	0	29	0	1143996416	32	5842
2026-01-11 17:03:37.07	19.99	22.46	-29.6	-30.2	27.7	0.00e+00	0	29	0	1150287872	32	5858
2026-01-11 17:03:38.08	19.97	22.60	-29.7	-30.3	27.5	0.00e+00	0	29	0	1155530752	32	5935
2026-01-11 17:03:39.09	19.95	22.75	-29.6	-30.3	27.7	0.00e+00	0	29	0	1160773632	32	5902
2026-01-11 17:03:40.10	19.94	22.90	-29.6	-30.2	27.7	0.00e+00	0	29	0	1167065088	32	5846
2026-01-11 17:03:41.11	19.92	23.05	-29.6	-30.2	27.6	0.00e+00	0	29	0	1172307968	32	5863
2026-01-11 17:03:42.12	19.90	23.19	-29.5	-30.2	27.7	0.00e+00	0	29	0	1178599424	32	5837
2026-01-11 17:03:43.13	19.88	23.34	-29.5	-30.0	27.7	0.00e+00	0	29	0	1183842304	32	5757
2026-01-11 17:03:44.13	19.86	23.49	-29.4	-30.0	27.9	0.00e+00	0	29	0	1190133760	32	5715
2026-01-11 17:03:45.15	19.84	23.65	-29.3	-29.9	28.0	0.00e+00	0	29	0	1195376640	32	5687
2026-01-11 17:03:46.15	19.82	23.80	-29.2	-29.8	28.0	0.00e+00	0	29	0	1201668096	32	5618
2026-01-11 17:03:47.16	19.80	23.95	-29.2	-29.8	28.0	0.00e+00	0	29	0	1206910976	32	5590
2026-01-11 17:03:48.17	19.78	24.10	-29.3	-29.9	27.9	0.00e+00	0	29	0	1212153856	32	5635
2026-01-11 17:03:49.18	19.76	24.26	-29.1	-29.7	28.1	0.00e+00	0	29	0	1218445312	32	5538
2026-01-11 17:03:50.19	19.74	24.41	-29.1	-29.6	28.1	0.00e+00	0	29	0	1223688192	32	5502
2026-01-11 17:03:51.20	19.72	24.57	-29.0	-29.6	28.1	0.00e+00	0	29	0	1229979648	32	5500
2026-01-11 17:03:52.21	19.70	24.73	-29.0	-29.6	28.2	0.00e+00	0	29	0	1235222528	32	5461
2026-01-11 17:03:53.22	19.68	24.89	-29.1	-29.7	28.1	0.00e+00	0	29	0	1240465408	32	5557
2026-01-11 17:03:54.23	19.66	25.05	-29.1	-29.7	28.1	0.00e+00	0	29	0	1246756864	32	5548
2026-01-11 17:03:55.24	19.64	25.21	-29.2	-29.8	28.1	0.00e+00	0	29	0	1251999744	32	5584
2026-01-11 17:03:56.25	19.62	25.37	-29.2	-29.8	28.1	0.00e+00	0	29	0	1257242624	32	5614
2026-01-11 17:03:57.26	19.59	25.53	-29.2	-29.9	28.0	0.00e+00	0	29	0	1263534080	32	5632
2026-01-11 17:03:58.27	19.57	25.69	-29.1	-29.8	28.0	0.00e+00	0	29	0	1268776960	32	5569
2026-01-11 17:03:59.27	19.55	25.86	-29.2	-29.8	28.0	0.00e+00	0	29	0	1275068416	32	5567
2026-01-11 17:04:00.28	19.53	26.02	-29.2	-29.8	28.0	0.00e+00	0	29	0	1280311296	32	5606
2026-01-11 17:04:01.29	19.50	26.19	-29.1	-29.7	28.2	0.00e+00	0	29	0	1286602752	32	5513
2026-01-11 17:04:02.30	19.48	26.36	-29.0	-29.6	28.2	0.00e+00	0	29	0	1291845632	32	5500
2026-01-11 17:04:03.31	19.46	26.53	-28.9	-29.5	28.0	0.00e+00	0	29	0	1298137088	32	5432
2026-01-11 17:04:04.32	19.43	26.70	-28.9	-29.5	28.2	0.00e+00	0	29	0	1303379968	32	5417
2026-01-11 17:04:05.33	19.41	26.87	-29.0	-29.6	28.2	0.00e+00	0	29	0	1308622848	32	5468
2026-01-11 17:04:06.34	19.38	27.04	-28.8	-29.4	28.3	0.00e+00	0	29	0	1314914304	32	5337
2026-01-11 17:04:07.35	19.36	27.21	-28.8	-29.5	28.3	0.00e+00	0	29	0	1320157184	32	5380
2026-01-11 17:04:08.36	19.33	27.39	-28.9	-29.5	28.2	0.00e+00	0	29	0	1326448640	32	5416
2026-01-11 17:04:09.37	19.31	27.56	-29.0	-29.6	28.3	0.00e+00	0	29	0	1331691520	32	5455
2026-01-11 17:04:10.37	19.28	27.74	-29.0	-29.5	28.2	0.00e+00	0	29	0	1336934400	32	5438
2026-01-11 17:04:11.38	19.25	27.91	-29.0	-29.6	28.2	0.00e+00	0	29	0	1343225856	32	5441
2026-01-11 17:04:12.39	19.23	28.09	-29.0	-29.6	28.2	0.00e+00	0	29	0	1348468736	32	5490
2026-01-11 17:04:13.40	19.20	28.27	-29.0	-29.6	28.1	0.00e+00	0	29	0	1354760192	32	5496
2026-01-11 17:04:14.41	19.17	28.45	-29.1	-29.8	28.0	0.00e+00	0	29	0	1360003072	32	5576
2026-01-11 17:04:15.42	19.15	28.63	-29.1	-29.7	28.2	0.00e+00	0	29	0	1365245952	32	5518
2026-01-11 17:04:16.43	19.12	28.82	-29.2	-29.9	28.0	0.00e+00	0	29	0	1371537408	32	5634
2026-01-11 17:04:17.44	19.09	29.00	-29.3	-29.9	27.9	0.00e+00	0	29	0	1376780288	32	5655
2026-01-11 17:04:18.45	19.06	29.19	-29.3	-29.9	28.0	0.00e+00	0	29	0	1383071744	32	5683
2026-01-11 17:04:19.46	19.03	29.37	-29.3	-29.9	27.9	0.00e+00	0	29	0	1388314624	32	5679
2026-01-11 17:04:20.47	19.00	29.56	-29.3	-29.9	28.0	0.00e+00	0	29	0	1394606080	32	5656
2026-01-11 17:04:21.48	18.97	29.75	-29.3	-29.9	28.0	0.00e+00	0	29	0	1399848960	32	5680
2026-01-11 17:04:22.49	18.94	29.94	-29.2	-29.9	28.0	0.00e+00	0	29	0	1405091840	32	5634
2026-01-11 17:04:23.50	18.91	30.13	-29.2	-29.8	27.9	0.00e+00	0	29	0	1411383296	32	5621
2026-01-11 17:04:24.51	18.88	30.33	-29.1	-29.7	28.1	0.00e+00	0	29	0	1416626176	32	5517
2026-01-11 17:04:25.52	18.85	30.52	-29.0	-29.6	28.2	0.00e+00	0	29	0	1422917632	32	5487
2026-01-11 17:04:26.52	18.82	30.72	-28.8	-29.4	28.3	0.00e+00	0	29	0	1428160512	32	5367
2026-01-11 17:04:27.53	18.78	30.91	-28.8	-29.4	28.4	0.00e+00	0	29	0	1433403392	32	5339
2026-01-11 17:04:28.54	18.75	31.11	-28.7	-29.3	28.5	0.00e+00	0	29	0	1439694848	30	5906
2026-01-11 17:04:29.55	18.72	31.31	-28.7	-29.3	28.5	0.00e+00	0	29	0	1444937728	30	5905
2026-01-11 17:04:30.56	18.68	31.51	-28.7	-29.3	28.5	0.00e+00	0	29	0	1451229184	30	5912
2026-01-11 17:04:31.57	18.65	31.72	-28.6	-29.2	28.5	0.00e+00	0	29	0	1456472064	30	5874
2026-01-11 17:04:32.58	18.61	31.92	-28.6	-29.2	28.5	0.00e+00	0	29	0	1461714944	30	5861
2026-01-11 17:04:33.59	18.58	32.12	-28.7	-29.3	28.5	0.00e+00	0	29	0	1468006400	30	5905
2026-01-11 17:04:34.60	18.54	32.33	-28.8	-29.4	28.5	0.00e+00	0	29	0	1473249280	30	5991
2026-01-11 17:04:35.61	18.51	32.54	-28.8	-29.4	28.4	0.00e+00	0	29	0	1479540736	30	6016
2026-01-11 17:04:36.62	18.47	32.75	-28.8	-29.4	28.3	0.00e+00	0	29	0	1484783616	30	5998
2026-01-11 17:04:37.63	18.43	32.96	-28.8	-29.4	28.3	0.00e+00	0	29	0	1491075072	30	6012
2026-01-11 17:04:38.64	18.39	33.17	-28.9	-29.5	28.3	0.00e+00	0	29	0	1496317952	30	6063
2026-01-11 17:04:39.65	18.36	33.39	-29.0	-29.6	28.2	0.00e+00	0	29	0	1501560832	30	6125
2026-01-11 17:04:40.66	18.32	33.60	-28.8	-29.4	28.4	0.00e+00	0	29	0	1507852288	30	5982
2026-01-11 17:04:41.67	18.28	33.82	-28.8	-29.4	28.4	0.00e+00	0	29	0	1513095168	30	6009
2026-01-11 17:04:42.68	18.24	34.04	-28.8	-29.4	28.5	0.00e+00	0	29	0	1519386624	30	5976
2026-01-11 17:04:43.68	18.20	34.26	-28.6	-29.2	28.6	0.00e+00	0	29	0	1524629504	30	5841
2026-01-11 17:04:44.69	18.16	34.48	-28.7	-29.3	28.5	0.00e+00	0	29	0	1529872384	30	5912
2026-01-11 17:04:45.70	18.11	34.70	-28.5	-29.1	28.6	0.00e+00	0	29	0	1536163840	30	5813
2026-01-11 17:04:46.71	18.07	34.93	-28.6	-29.2	28.6	0.00e+00	0	30	0	1541406720	30	5863
2026-01-11 17:04:47.72	18.03	35.15	-28.5	-29.1	28.7	0.00e+00	0	29	0	1547698176	30	5789
2026-01-11 17:04:48.72	17.98	35.38	-28.4	-29.0	28.7	0.00e+00	0	29	0	1552941056	30	5732
2026-01-11 17:04:49.73	17.94	35.61	-28.4	-29.0	28.6	0.00e+00	0	29	0	1558183936	30	5710
2026-01-11 17:04:50.74	17.89	35.84	-28.3	-28.9	28.8	0.00e+00	0	29	0	1564475392	30	5633
2026-01-11 17:04:51.75	17.85	36.07	-28.2	-28.8	28.8	0.00e+00	0	29	0	1569718272	30	5620
2026-01-11 17:04:52.76	17.80	36.31	-28.1	-28.7	28.9	0.00e+00	0	29	0	1576009728	30	5538
2026-01-11 17:04:53.77	17.75	36.54	-28.2	-28.8	28.8	0.00e+00	0	29	0	1581252608	30	5600
2026-01-11 17:04:54.78	17.70	36.78	-28.2	-28.8	29.0	0.00e+00	0	29	0	1587544064	30	5575
2026-01-11 17:04:55.79	17.66	37.02	-28.3	-28.8	28.8	0.00e+00	0	29	0	1592786944	30	5626
2026-01-11 17:04:56.80	17.61	37.26	-28.3	-28.9	28.7	0.00e+00	0	30	0	1599078400	30	5684
2026-01-11 17:04:57.81	17.56	37.51	-28.4	-29.0	28.7	0.00e+00	0	30	0	1604321280	30	5697
2026-01-11 17:04:58.82	17.50	37.75	-28.2	-28.8	28.9	0.00e+00	0	29	0	1609564160	30	5602
2026-01-11 17:04:59.83	17.45	38.00	-28.1	-28.7	28.8	0.00e+00	0	30	0	1615855616	30	5546
2026-01-11 17:05:00.84	17.40	38.25	-28.0	-28.6	29.0	0.00e+00	0	29	0	1621098496	30	5467
2026-01-11 17:05:01.85	17.34	38.50	-28.0	-28.6	29.0	0.00e+00	0	29	0	1627389952	30	5449
2026-01-11 17:05:02.86	17.29	38.75	-28.0	-28.6	29.0	0.00e+00	0	30	0	1632632832	30	5481
2026-01-11 17:05:03.87	17.23	39.00	-28.2	-28.8	28.9	0.00e+00	0	29	0	1637875712	30	5576
2026-01-11 17:05:04.88	17.18	39.26	-28.4	-29.0	28.7	0.00e+00	0	30	0	1644167168	30	5696
2026-01-11 17:05:05.89	17.12	39.52	-28.5	-29.1	28.7	0.00e+00	0	30	0	1649410048	30	5827
2026-01-11 17:05:06.90	17.06	39.78	-28.7	-29.3	28.5	0.00e+00	0	29	0	1655701504	30	5928
2026-01-11 17:05:07.91	17.00	40.04	-28.9	-29.5	28.3	0.00e+00	0	30	0	1660944384	30	6066
2026-01-11 17:05:08.92	16.94	40.30	-29.0	-29.6	28.3	0.00e+00	0	29	0	1666187264	30	6106
2026-01-11 17:05:09.93	16.88	40.57	-29.1	-29.7	28.2	0.00e+00	0	29	0	1672478720	30	6206
2026-01-11 17:05:10.94	16.81	40.84	-29.1	-29.7	28.3	0.00e+00	0	29	0	1677721600	30	6203
2026-01-11 17:05:11.95	16.75	41.11	-29.1	-29.7	28.3	0.00e+00	0	29	0	1684013056	30	6195
2026-01-11 17:05:12.96	16.68	41.38	-29.1	-29.7	28.2	0.00e+00	0	30	0	1689255936	30	6193
2026-01-11 17:05:13.97	16.62	41.65	-29.1	-29.7	28.3	0.00e+00	0	30	0	1695547392	30	6217
2026-01-11 17:05:14.98	16.55	41.93	-28.9	-29.5	28.4	0.00e+00	0	30	0	1700790272	30	6073
2026-01-11 17:05:15.99	16.48	42.20	-29.0	-29.6	28.3	0.00e+00	0	30	0	1706033152	30	6115
2026-01-11 17:05:17.00	16.41	42.48	-29.0	-29.6	28.3	0.00e+00	0	30	0	1712324608	30	6162
2026-01-11 17:05:18.01	16.34	42.77	-28.9	-29.5	28.5	0.00e+00	0	29	0	1717567488	30	6075
2026-01-11 17:05:19.01	16.27	43.05	-28.5	-29.1	28.7	0.00e+00	0	30	0	1723858944	30	5814
2026-01-11 17:05:20.02	16.19	43.33	-28.6	-29.1	28.7	0.00e+00	0	30	0	1729101824	30	5821
2026-01-11 17:05:21.03	16.12	43.62	-28.6	-29.2	28.6	0.00e+00	0	29	0	1734344704	30	5829
2026-01-11 17:05:22.04	16.04	43.91	-28.8	-29.4	28.5	0.00e+00	0	30	0	1740636160	30	5984
2026-01-11 17:05:23.05	15.96	44.20	-28.9	-29.5	28.4	0.00e+00	0	30	0	1745879040	30	6053
2026-01-11 17:05:24.06	15.88	44.50	-29.0	-29.6	28.3	0.00e+00	0	29	0	1752170496	30	6144
2026-01-11 17:05:25.07	15.80	44.79	-29.0	-29.6	28.3	0.00e+00	0	30	0	1757413376	30	6135
2026-01-11 17:05:26.08	15.72	45.09	-28.9	-29.5	28.3	0.00e+00	0	30	0	1762656256	30	6085
2026-01-11 17:05:27.09	15.63	45.39	-28.8	-29.4	28.5	0.00e+00	0	30	0	1768947712	30	5990
2026-01-11 17:05:28.10	15.55	45.70	-29.0	-29.6	28.3	0.00e+00	0	29	0	1774190592	30	6111
2026-01-11 17:05:29.11	15.46	46.00	-29.1	-29.8	28.1	0.00e+00	0	30	0	1780482048	30	6248
2026-01-11 17:05:30.12	15.37	46.31	-29.3	-30.0	28.1	0.00e+00	0	30	0	1785724928	30	6394
2026-01-11 17:05:31.13	15.28	46.62	-29.1	-29.7	28.3	0.00e+00	0	30	0	1792016384	30	6204
2026-01-11 17:05:32.14	15.18	46.93	-28.9	-29.6	28.4	0.00e+00	0	30	0	1797259264	30	6106
2026-01-11 17:05:33.15	15.09	47.25	-28.7	-29.3	28.6	0.00e+00	0	30	0	1803550720	30	5921
2026-01-11 17:05:34.16	14.99	47.56	-28.8	-29.4	28.4	0.00e+00	0	30	0	1808793600	30	5984
2026-01-11 17:05:35.17	14.89	47.88	-29.0	-29.6	28.4	0.00e+00	0	30	0	1814036480	30	6122
2026-01-11 17:05:36.18	14.79	48.20	-29.2	-29.9	28.2	0.00e+00	0	30	0	1820327936	30	6319
2026-01-11 17:05:37.19	14.68	48.53	-29.3	-29.9	28.0	0.00e+00	0	30	0	1825570816	30	6323
2026-01-11 17:05:38.20	14.57	48.85	-29.3	-29.9	28.1	0.00e+00	0	30	0	1830813696	30	6352
2026-01-11 17:05:39.21	14.47	49.18	-29.2	-29.8	28.1	0.00e+00	0	30	0	1837105152	30	6246
2026-01-11 17:05:40.21	14.35	49.51	-29.3	-29.9	28.1	0.00e+00	0	30	0	1842348032	30	6340
2026-01-11 17:05:41.22	14.24	49.84	-29.2	-29.8	28.1	0.00e+00	0	30	0	1848639488	30	6275
2026-01-11 17:05:42.23	14.12	50.17	-29.2	-29.8	28.1	0.00e+00	0	30	0	1853882368	30	6301
2026-01-11 17:05:43.24	14.00	50.51	-29.5	-30.1	27.9	0.00e+00	0	30	0	1859125248	30	6517
2026-01-11 17:05:44.25	13.88	50.85	-29.8	-30.4	27.7	0.00e+00	0	30	0	1865416704	32	6017
2026-01-11 17:05:45.26	13.76	51.19	-29.9	-30.6	27.6	0.00e+00	0	30	0	1870659584	32	6112
2026-01-11 17:05:46.27	13.63	51.54	-29.9	-30.5	27.6	0.00e+00	0	30	0	1876951040	32	6090
2026-01-11 17:05:47.28	13.50	51.89	-30.0	-30.7	27.5	0.00e+00	0	30	0	1882193920	32	6183
2026-01-11 17:05:48.29	13.36	52.23	-30.3	-30.9	27.3	0.00e+00	0	30	0	1888485376	32	6322
2026-01-11 17:05:49.30	13.23	52.59	-30.4	-31.0	27.3	0.00e+00	0	30	0	1893728256	32	6411
2026-01-11 17:05:50.30	13.09	52.94	-30.3	-30.9	27.3	0.00e+00	0	30	0	1900019712	32	6324
2026-01-11 17:05:51.32	12.94	53.30	-29.9	-30.5	27.6	0.00e+00	0	30	0	1905262592	32	6089
2026-01-11 17:05:52.33	12.79	53.65	-29.9	-30.5	27.6	0.00e+00	0	30	0	1910505472	32	6062
2026-01-11 17:05:53.34	12.64	54.02	-30.1	-30.7	27.5	0.00e+00	0	30	0	1916796928	32	6198
2026-01-11 17:05:54.35	12.48	54.38	-30.4	-31.1	27.2	0.00e+00	0	30	0	1922039808	32	6466
2026-01-11 17:05:55.36	12.32	54.74	-30.3	-31.0	27.3	0.00e+00	0	30	0	1928331264	32	6399
2026-01-11 17:05:56.37	12.16	55.11	-30.2	-30.9	27.3	0.00e+00	0	30	0	1933574144	32	6324
2026-01-11 17:05:57.38	11.99	55.48	-30.2	-30.7	27.4	0.00e+00	0	30	0	1938817024	32	6222
2026-01-11 17:05:58.39	11.82	55.86	-29.7	-30.3	27.7	0.00e+00	0	30	0	1945108480	32	5943
2026-01-11 17:05:59.40	11.64	56.23	-29.4	-30.0	28.0	0.00e+00	0	30	0	1950351360	32	5751
2026-01-11 17:06:00.40	11.46	56.60	-29.7	-30.3	27.7	0.00e+00	0	30	0	1956642816	32	5948
2026-01-11 17:06:01.42	11.26	56.99	-29.7	-30.3	27.7	0.00e+00	0	30	0	1961885696	32	5962
2026-01-11 17:06:02.43	11.07	57.37	-29.5	-30.1	27.9	0.00e+00	0	30	0	1967128576	32	5803
2026-01-11 17:06:03.43	10.87	57.75	-29.4	-30.0	28.1	0.00e+00	0	30	0	1973420032	32	5712
2026-01-11 17:06:04.44	10.67	58.13	-28.9	-29.5	28.3	0.00e+00	0	30	0	1978662912	32	5419
2026-01-11 17:06:05.45	10.46	58.52	-29.1	-29.7	28.2	0.00e+00	0	30	0	1984954368	32	5536
2026-01-11 17:06:06.46	10.24	58.91	-29.3	-29.8	28.1	0.00e+00	0	30	0	1990197248	32	5618
2026-01-11 17:06:07.47	10.01	59.31	-29.4	-30.0	28.0	0.00e+00	0	30	0	1996488704	32	5742
2026-01-11 17:06:08.47	9.78	59.70	-28.9	-29.5	28.2	0.00e+00	0	30	0	2001731584	32	5391
2026-01-11 17:06:09.48	9.54	60.09	-28.6	-29.2	28.6	0.00e+00	0	30	0	2006974464	30	5850
2026-01-11 17:06:10.49	9.30	60.49	-28.6	-29.2	28.6	0.00e+00	0	30	0	2013265920	30	5836
2026-01-11 17:06:11.50	9.04	60.89	-29.0	-29.6	28.2	0.00e+00	0	30	0	2018508800	30	6129
2026-01-11 17:06:12.51	8.78	61.30	-28.9	-29.6	28.3	0.00e+00	0	30	0	2024800256	30	6109
2026-01-11 17:06:13.52	8.51	61.70	-28.7	-29.3	28.4	0.00e+00	0	30	0	2030043136	30	5953
2026-01-11 17:06:14.53	8.23	62.11	-28.5	-29.1	28.4	0.00e+00	0	30	0	2035286016	30	5814
2026-01-11 17:06:15.54	7.93	62.52	-29.0	-29.6	28.2	0.00e+00	0	30	0	2041577472	30	6115
2026-01-11 17:06:16.55	7.63	62.93	-29.2	-29.7	28.1	0.00e+00	0	30	0	2046820352	30	6243
2026-01-11 17:06:17.56	7.32	63.34	-28.9	-29.5	28.3	0.00e+00	0	30	0	2053111808	30	6048
2026-01-11 17:06:18.57	7.00	63.75	-28.8	-29.4	28.5	0.00e+00	0	30	0	2058354688	30	5985
2026-01-11 17:06:19.58	6.66	64.17	-29.1	-29.7	28.2	0.00e+00	0	30	0	2063597568	30	6174
2026-01-11 17:06:20.59	6.32	64.58	-29.2	-29.8	28.2	0.00e+00	0	30	0	2069889024	30	6306
2026-01-11 17:06:21.60	5.96	65.00	-28.4	-29.0	28.7	0.00e+00	0	30	0	2075131904	30	5745
2026-01-11 17:06:22.61	5.58	65.42	-28.6	-29.2	28.6	0.00e+00	0	30	0	2081423360	30	5868
2026-01-11 17:06:23.62	5.19	65.84	-28.7	-29.2	28.6	0.00e+00	0	30	0	2086666240	30	5880
2026-01-11 17:06:24.63	4.79	66.26	-28.4	-29.0	28.7	0.00e+00	0	30	0	2092957696	30	5743
2026-01-11 17:06:25.64	4.37	66.69	-28.5	-29.1	28.6	0.00e+00	0	30	0	2098200576	30	5782
2026-01-11 17:06:26.65	3.93	67.11	-28.0	-28.6	28.9	0.00e+00	0	30	0	2104492032	30	5478
2026-01-11 17:06:27.66	3.48	67.54	-28.1	-28.7	28.9	0.00e+00	0	30	0	2109734912	30	5550
2026-01-11 17:06:28.67	3.00	67.96	-28.3	-28.9	28.8	0.00e+00	0	30	0	2114977792	30	5658
2026-01-11 17:06:29.68	2.50	68.39	-28.2	-28.8	28.8	0.00e+00	0	30	0	2121269248	30	5614
2026-01-11 17:06:30.69	1.99	68.82	-28.0	-28.6	29.0	0.00e+00	0	30	0	2126512128	30	5488
2026-01-11 17:06:31.69	1.45	69.24	-27.8	-28.4	29.0	0.00e+00	0	30	0	2131755008	30	5333
2026-01-11 17:06:32.70	0.89	69.67	-28.0	-28.6	29.0	0.00e+00	0	30	0	2138046464	30	5452
2026-01-11 17:06:33.71	0.29	70.09	-28.1	-28.8	28.9	0.00e+00	0	30	0	2143289344	30	5567
2026-01-11 17:06:34.72	359.67	70.52	-27.5	-28.1	29.3	0.00e+00	0	30	0	2149580800	28	5810
2026-01-11 17:06:35.73	359.02	70.95	-27.4	-27.9	29.3	0.00e+00	0	30	0	2154823680	28	5694
2026-01-11 17:06:36.74	358.34	71.37	-27.7	-28.2	29.2	0.00e+00	0	30	0	2160066560	28	5878
2026-01-11 17:06:37.75	357.63	71.80	-27.4	-28.0	29.3	0.00e+00	0	30	0	2166358016	28	5752
2026-01-11 17:06:38.76	356.88	72.22	-27.4	-27.9	29.3	0.00e+00	0	30	0	2171600896	28	5695
2026-01-11 17:06:39.77	356.09	72.64	-27.1	-27.7	29.5	0.00e+00	0	30	0	2177892352	28	5544
2026-01-11 17:06:40.78	355.25	73.07	-27.3	-28.0	29.4	0.00e+00	0	30	0	2183135232	28	5699
2026-01-11 17:06:41.79	354.38	73.48	-27.3	-27.9	29.3	0.00e+00	0	30	0	2189426688	28	5632
2026-01-11 17:06:42.79	353.46	73.90	-27.5	-28.1	29.3	0.00e+00	0	30	0	2194669568	28	5781
2026-01-11 17:06:43.80	352.48	74.31	-27.6	-28.2	29.2	0.00e+00	0	30	0	2200961024	28	5876
2026-01-11 17:06:44.81	351.45	74.72	-27.3	-27.9	29.4	0.00e+00	0	30	0	2206203904	28	5640
2026-01-11 17:06:45.82	350.36	75.13	-27.6	-28.2	29.2	0.00e+00	0	30	0	2211446784	28	5877
2026-01-11 17:06:46.83	349.21	75.53	-27.4	-28.0	29.3	0.00e+00	0	30	0	2217738240	28	5707
2026-01-11 17:06:47.84	347.99	75.93	-27.0	-27.6	29.6	0.00e+00	0	30	0	2222981120	28	5455
2026-01-11 17:06:48.85	346.69	76.32	-27.1	-27.7	29.6	0.00e+00	0	30	0	2228224000	28	5550
2026-01-11 17:06:49.86	345.32	76.70	-27.3	-27.9	29.5	0.00e+00	0	30	0	2234515456	28	5654
2026-01-11 17:06:50.87	343.86	77.08	-27.3	-27.8	29.5	0.00e+00	0	30	0	2239758336	28	5605
2026-01-11 17:06:51.88	342.31	77.45	-27.3	-27.8	29.5	0.00e+00	0	30	0	2246049792	28	5623
2026-01-11 17:06:52.89	340.67	77.82	-26.7	-27.3	29.6	0.00e+00	0	30	0	2251292672	28	5278
2026-01-11 17:06:53.90	338.92	78.17	-26.7	-27.3	29.9	0.00e+00	0	30	0	2257584128	26	5952
2026-01-11 17:06:54.91	337.07	78.51	-26.5	-27.1	29.9	0.00e+00	0	30	0	2262827008	26	5811
2026-01-11 17:06:55.91	335.12	78.84	-26.3	-26.8	30.1	0.00e+00	0	30	0	2268069888	26	5606
2026-01-11 17:06:56.92	333.03	79.16	-26.1	-26.6	30.2	0.00e+00	0	30	0	2274361344	26	5499
2026-01-11 17:06:57.93	330.81	79.46	-26.0	-26.5	30.3	0.00e+00	0	30	0	2279604224	26	5437
2026-01-11 17:06:58.94	328.47	79.75	-25.9	-26.4	30.3	0.00e+00	0	30	0	2285895680	26	5360
2026-01-11 17:06:59.95	325.99	80.01	-25.8	-26.3	30.4	0.00e+00	0	30	0	2291138560	26	5303
2026-01-11 17:07:00.96	323.37	80.26	-26.1	-26.6	30.2	0.00e+00	0	30	0	2297430016	26	5493
2026-01-11 17:07:01.96	320.65	80.49	-26.0	-26.7	30.2	0.00e+00	0	30	0	2302672896	26	5512
2026-01-11 17:07:02.97	317.78	80.70	-25.8	-26.3	30.3	0.00e+00	0	30	0	2307915776	26	5293
2026-01-11 17:07:03.98	314.77	80.88	-25.7	-26.2	30.4	0.00e+00	0	30	0	2314207232	24	5890
2026-01-11 17:07:04.99	311.65	81.04	-26.0	-26.6	30.3	0.00e+00	0	30	0	2319450112	24	6107
2026-01-11 17:07:06.00	308.43	81.17	-25.9	-26.4	30.4	0.00e+00	0	30	0	2325741568	24	6011
2026-01-11 17:07:07.01	305.12	81.27	-26.1	-26.7	30.3	0.00e+00	0	30	0	2330984448	24	6216
2026-01-11 17:07:08.02	301.74	81.35	-26.0	-26.6	30.3	0.00e+00	0	30	0	2336227328	24	6117
2026-01-11 17:07:09.03	298.32	81.39	-26.0	-26.6	30.3	0.00e+00	0	30	0	2342518784	24	6139
2026-01-11 17:07:10.04	294.87	81.40	-26.3	-26.8	30.1	0.00e+00	0	30	0	2347761664	24	6308
2026-01-11 17:07:11.05	291.42	81.38	-26.1	-26.7	30.3	0.00e+00	0	30	0	2354053120	24	6175
2026-01-11 17:07:12.06	288.01	81.33	-26.0	-26.6	30.3	0.00e+00	0	30	0	2359296000	24	6123
2026-01-11 17:07:13.07	284.64	81.25	-26.3	-26.8	30.1	0.00e+00	0	30	0	2364538880	24	6294
2026-01-11 17:07:14.08	281.35	81.14	-26.3	-26.9	29.9	0.00e+00	0	30	0	2370830336	24	6322
2026-01-11 17:07:15.09	278.15	81.01	-26.2	-26.8	29.7	0.00e+00	0	30	0	2376073216	24	6262
2026-01-11 17:07:16.10	275.05	80.84	-26.3	-26.8	30.0	0.00e+00	0	30	0	2382364672	24	6311
2026-01-11 17:07:17.11	272.08	80.65	-26.3	-26.9	29.9	0.00e+00	0	30	0	2387607552	24	6329
2026-01-11 17:07:18.12	269.23	80.44	-26.5	-27.1	29.9	0.00e+00	0	30	0	2393899008	24	6509
2026-01-11 17:07:19.13	266.51	80.21	-26.1	-26.7	30.1	0.00e+00	0	30	0	2399141888	24	6211
2026-01-11 17:07:20.14	263.93	79.95	-25.9	-26.5	30.2	0.00e+00	0	30	0	2404384768	24	6087
2026-01-11 17:07:21.15	261.48	79.68	-26.5	-27.1	30.0	0.00e+00	0	30	0	2410676224	24	6474
2026-01-11 17:07:22.16	259.16	79.39	-27.0	-27.6	29.9	0.00e+00	0	30	0	2415919104	26	6161
2026-01-11 17:07:23.17	256.98	79.08	-26.6	-27.2	30.1	0.00e+00	0	30	0	2422210560	26	5851
2026-01-11 17:07:24.18	254.92	78.76	-26.4	-27.0	30.3	0.00e+00	0	30	0	2427453440	26	5727
2026-01-11 17:07:25.18	252.99	78.43	-26.5	-27.1	30.1	0.00e+00	0	30	0	2432696320	26	5803
2026-01-11 17:07:26.19	251.16	78.08	-26.4	-27.0	30.0	0.00e+00	0	30	0	2438987776	26	5758
2026-01-11 17:07:27.20	249.44	77.73	-26.3	-26.8	30.0	0.00e+00	0	30	0	2444230656	26	5616
2026-01-11 17:07:28.21	247.82	77.36	-26.5	-27.2	30.0	0.00e+00	0	30	0	2450522112	26	5834
2026-01-11 17:07:29.22	246.29	76.99	-26.8	-27.3	29.8	0.00e+00	0	30	0	2455764992	26	5944
2026-01-11 17:07:30.23	244.85	76.61	-26.8	-27.3	29.8	0.00e+00	0	30	0	2461007872	26	5932
2026-01-11 17:07:31.24	243.50	76.22	-26.9	-27.4	29.7	0.00e+00	0	30	0	2467299328	26	6000
2026-01-11 17:07:32.25	242.22	75.83	-26.8	-27.5	29.8	0.00e+00	0	30	0	2472542208	26	6042
2026-01-11 17:07:33.26	241.01	75.43	-26.8	-27.3	29.7	0.00e+00	0	30	0	2478833664	26	5964
2026-01-11 17:07:34.27	239.88	75.03	-26.8	-27.4	29.7	0.00e+00	0	30	0	2484076544	26	5977
2026-01-11 17:07:35.28	238.80	74.62	-27.1	-27.7	29.6	0.00e+00	0	30	0	2490368000	26	6190
2026-01-11 17:07:36.29	237.78	74.21	-27.3	-27.9	29.5	0.00e+00	0	30	0	2495610880	26	6321
2026-01-11 17:07:37.30	236.82	73.79	-27.2	-27.8	29.4	0.00e+00	0	30	0	2501902336	26	6316
2026-01-11 17:07:38.31	235.90	73.37	-27.3	-27.8	29.4	0.00e+00	0	30	0	2507145216	26	6263
2026-01-11 17:07:39.32	235.04	72.95	-27.3	-27.9	29.4	0.00e+00	0	30	0	2512388096	26	6377
2026-01-11 17:07:40.33	234.21	72.53	-27.4	-27.9	29.3	0.00e+00	0	30	0	2518679552	26	6368
2026-01-11 17:07:41.34	233.43	72.11	-27.7	-28.4	29.2	0.00e+00	0	30	0	2523922432	26	6738
2026-01-11 17:07:42.34	232.70	71.69	-27.6	-28.3	29.2	0.00e+00	0	30	0	2529165312	26	6633
2026-01-11 17:07:43.35	231.99	71.26	-27.6	-28.2	29.2	0.00e+00	0	30	0	2535456768	26	6550
2026-01-11 17:07:44.36	231.32	70.83	-27.6	-28.2	29.3	0.00e+00	0	30	0	2540699648	26	6604
2026-01-11 17:07:45.37	230.67	70.41	-27.9	-28.5	29.1	0.00e+00	0	30	0	2546991104	28	6038
2026-01-11 17:07:46.38	230.06	69.98	-28.4	-28.9	28.7	0.00e+00	0	30	0	2552233984	28	6359
2026-01-11 17:07:47.39	229.47	69.55	-28.2	-28.9	28.8	0.00e+00	0	30	0	2557476864	28	6349
2026-01-11 17:07:48.40	228.92	69.12	-28.1	-28.7	28.9	0.00e+00	0	30	0	2563768320	28	6241
2026-01-11 17:07:49.41	228.38	68.69	-28.2	-28.8	28.8	0.00e+00	0	30	0	2569011200	28	6295
2026-01-11 17:07:50.42	227.87	68.27	-28.0	-28.5	28.9	0.00e+00	0	30	0	2575302656	28	6083
2026-01-11 17:07:51.43	227.38	67.84	-27.8	-28.4	29.1	0.00e+00	0	30	0	2580545536	28	5983
2026-01-11 17:07:52.44	226.91	67.41	-28.0	-28.5	28.9	0.00e+00	0	30	0	2586836992	28	6095
2026-01-11 17:07:53.45	226.45	66.99	-27.9	-28.5	29.0	0.00e+00	0	30	0	2592079872	28	6061
2026-01-11 17:07:54.46	226.02	66.56	-27.9	-28.5	29.1	0.00e+00	0	30	0	2598371328	28	6053
2026-01-11 17:07:55.47	225.60	66.14	-27.8	-28.3	29.2	0.00e+00	0	30	0	2603614208	28	5917
2026-01-11 17:07:56.47	225.21	65.72	-27.8	-28.5	28.9	0.00e+00	0	30	0	2608857088	28	6042
2026-01-11 17:07:57.48	224.82	65.30	-27.8	-28.4	29.1	0.00e+00	0	30	0	2615148544	28	6006
2026-01-11 17:07:58.49	224.45	64.88	-27.7	-28.2	29.1	0.00e+00	0	30	0	2620391424	28	5891
2026-01-11 17:07:59.50	224.09	64.46	-28.0	-28.7	28.9	0.00e+00	0	30	0	2626682880	28	6196
2026-01-11 17:08:00.51	223.75	64.04	-28.2	-28.8	28.8	0.00e+00	0	30	0	2631925760	28	6274
2026-01-11 17:08:01.52	223.42	63.63	-28.0	-28.5	29.0	0.00e+00	0	30	0	2637168640	28	6089
2026-01-11 17:08:02.53	223.10	63.21	-28.0	-28.5	28.9	0.00e+00	0	30	0	2643460096	28	6091
2026-01-11 17:08:03.54	222.79	62.80	-28.2	-28.7	28.7	0.00e+00	0	30	0	2648702976	28	6224
2026-01-11 17:08:04.55	222.49	62.39	-28.3	-28.8	28.8	0.00e+00	0	30	0	2654994432	28	6263
2026-01-11 17:08:05.56	222.20	61.98	-28.2	-28.8	28.7	0.00e+00	0	30	0	2660237312	28	6257
2026-01-11 17:08:06.57	221.92	61.57	-28.5	-29.1	28.5	0.00e+00	0	30	0	2665480192	28	6507
2026-01-11 17:08:07.58	221.65	61.17	-28.6	-29.2	28.6	0.00e+00	0	30	0	2671771648	28	6548
2026-01-11 17:08:08.59	221.39	60.76	-28.4	-29.1	28.6	0.00e+00	0	30	0	2677014528	28	6473
2026-01-11 17:08:09.60	221.14	60.36	-28.5	-29.0	28.6	0.00e+00	0	30	0	2683305984	28	6403
2026-01-11 17:08:10.61	220.89	59.96	-28.6	-29.3	28.5	0.00e+00	0	30	0	2688548864	28	6633
2026-01-11 17:08:11.62	220.65	59.57	-28.7	-29.2	28.5	0.00e+00	0	30	0	2694840320	28	6605
2026-01-11 17:08:12.63	220.42	59.17	-29.1	-29.7	28.2	0.00e+00	0	30	0	2700083200	30	6216
2026-01-11 17:08:13.63	220.20	58.78	-29.5	-30.1	28.1	0.00e+00	0	30	0	2705326080	30	6536
2026-01-11 17:08:14.65	219.98	58.39	-29.3	-30.0	28.0	0.00e+00	0	30	0	2711617536	30	6458
2026-01-11 17:08:15.66	219.77	58.00	-29.4	-30.0	28.0	0.00e+00	0	30	0	2716860416	30	6396
2026-01-11 17:08:16.66	219.57	57.62	-29.6	-30.1	27.7	0.00e+00	0	30	0	2723151872	30	6519
2026-01-11 17:08:17.68	219.37	57.23	-29.8	-30.4	27.8	0.00e+00	0	30	0	2728394752	32	6014
2026-01-11 17:08:18.69	219.18	56.85	-29.9	-30.4	27.6	0.00e+00	0	30	0	2733637632	32	6007
2026-01-11 17:08:19.70	218.99	56.47	-29.9	-30.5	27.6	0.00e+00	0	30	0	2739929088	32	6080
2026-01-11 17:08:20.71	218.81	56.09	-29.8	-30.3	27.7	0.00e+00	0	30	0	2745171968	32	5939
2026-01-11 17:08:21.71	218.63	55.72	-29.6	-30.2	27.7	0.00e+00	0	30	0	2751463424	32	5889
2026-01-11 17:08:22.72	218.46	55.34	-29.8	-30.3	28.0	0.00e+00	0	30	0	2756706304	32	5942
2026-01-11 17:08:23.74	218.29	54.97	-29.7	-30.2	27.5	0.00e+00	0	30	0	2761949184	32	5848
2026-01-11 17:08:24.75	218.12	54.60	-29.6	-30.3	27.5	0.00e+00	0	30	0	2768240640	32	5942
2026-01-11 17:08:25.76	217.96	54.24	-29.7	-30.3	27.5	0.00e+00	0	30	0	2773483520	32	5900
2026-01-11 17:08:26.77	217.81	53.87	-29.8	-30.5	27.4	0.00e+00	0	30	0	2779774976	32	6060
2026-01-11 17:08:27.78	217.66	53.51	-29.8	-30.5	27.6	0.00e+00	0	30	0	2785017856	32	6049
2026-01-11 17:08:28.79	217.51	53.15	-29.5	-30.0	27.9	0.00e+00	0	30	0	2791309312	32	5721
2026-01-11 17:08:29.80	217.37	52.79	-29.3	-29.8	28.1	0.00e+00	0	30	0	2796552192	32	5580
2026-01-11 17:08:30.81	217.23	52.44	-29.2	-29.9	28.0	0.00e+00	0	30	0	2802843648	32	5672
2026-01-11 17:08:31.82	217.09	52.09	-29.5	-30.1	27.9	0.00e+00	0	30	0	2808086528	32	5815
2026-01-11 17:08:32.83	216.95	51.74	-29.5	-30.2	27.9	0.00e+00	0	30	0	2813329408	32	5846
2026-01-11 17:08:33.83	216.83	51.40	-29.4	-30.0	27.9	0.00e+00	0	30	0	2819620864	32	5696
2026-01-11 17:08:34.84	216.70	51.05	-29.2	-29.8	28.0	0.00e+00	0	30	0	2824863744	32	5588
2026-01-11 17:08:35.85	216.57	50.71	-29.0	-29.7	28.2	0.00e+00	0	30	0	2831155200	32	5524
2026-01-11 17:08:36.85	216.45	50.37	-28.7	-29.4	28.5	0.00e+00	0	30	0	2836398080	30	6001
2026-01-11 17:08:37.86	216.33	50.03	-28.6	-29.1	28.5	0.00e+00	0	30	0	2841640960	30	5814
2026-01-11 17:08:38.87	216.22	49.70	-28.6	-29.2	28.5	0.00e+00	0	30	0	2847932416	30	5830
2026-01-11 17:08:39.88	216.10	49.36	-28.6	-29.2	28.4	0.00e+00	0	30	0	2853175296	30	5836
2026-01-11 17:08:40.89	215.99	49.03	-28.7	-29.4	28.4	0.00e+00	0	30	0	2858418176	30	5967
2026-01-11 17:08:41.90	215.88	48.71	-28.5	-29.1	28.6	0.00e+00	0	30	0	2864709632	30	5772
2026-01-11 17:08:42.91	215.78	48.38	-28.5	-29.0	28.6	0.00e+00	0	30	0	2869952512	30	5751
2026-01-11 17:08:43.92	215.67	48.06	-28.5	-29.1	28.4	0.00e+00	0	30	0	2876243968	30	5768
2026-01-11 17:08:44.93	215.57	47.73	-28.7	-29.3	28.5	0.00e+00	0	30	0	2881486848	30	5942
2026-01-11 17:08:45.94	215.47	47.41	-28.8	-29.5	28.5	0.00e+00	0	30	0	2887778304	30	6052
2026-01-11 17:08:46.95	215.37	47.10	-28.9	-29.6	28.3	0.00e+00	0	30	0	2893021184	30	6146
2026-01-11 17:08:47.96	215.28	46.78	-28.7	-29.3	28.4	0.00e+00	0	30	0	2899312640	30	5914
2026-01-11 17:08:48.97	215.18	46.47	-28.6	-29.3	28.4	0.00e+00	0	29	0	2904555520	30	5927
2026-01-11 17:08:49.98	215.09	46.16	-28.7	-29.2	28.4	0.00e+00	0	30	0	2909798400	30	5878
2026-01-11 17:08:50.98	215.00	45.86	-28.7	-29.4	28.5	0.00e+00	0	29	0	2916089856	30	5987
2026-01-11 17:08:51.99	214.92	45.55	-29.0	-29.5	28.3	0.00e+00	0	29	0	2921332736	30	6077
2026-01-11 17:08:53.00	214.83	45.25	-28.6	-29.2	28.6	0.00e+00	0	30	0	2927624192	30	5831
2026-01-11 17:08:54.01	214.74	44.95	-28.9	-29.4	28.4	0.00e+00	0	30	0	2932867072	30	6004
2026-01-11 17:08:55.02	214.66	44.65	-28.7	-29.3	28.5	0.00e+00	0	30	0	2938109952	30	5911
2026-01-11 17:08:56.03	214.58	44.35	-29.0	-29.6	28.4	0.00e+00	0	30	0	2944401408	30	6159
2026-01-11 17:08:57.04	214.50	44.05	-29.1	-29.6	28.3	0.00e+00	0	30	0	2949644288	30	6160
2026-01-11 17:08:58.05	214.42	43.76	-29.2	-29.7	28.2	0.00e+00	0	30	0	2955935744	30	6227
2026-01-11 17:08:59.06	214.34	43.47	-29.0	-29.7	28.4	0.00e+00	0	30	0	2961178624	30	6180
2026-01-11 17:09:00.07	214.27	43.18	-28.9	-29.6	28.4	0.00e+00	0	30	0	2966421504	30	6127
2026-01-11 17:09:01.08	214.19	42.90	-28.8	-29.5	28.5	0.00e+00	0	30	0	2972712960	30	6055
2026-01-11 17:09:02.09	214.12	42.61	-28.8	-29.3	28.4	0.00e+00	0	29	0	2977955840	30	5925
2026-01-11 17:09:03.10	214.05	42.33	-28.8	-29.5	28.5	0.00e+00	0	29	0	2984247296	30	6070
2026-01-11 17:09:04.10	213.98	42.05	-28.8	-29.5	28.5	0.00e+00	0	30	0	2989490176	30	6060
2026-01-11 17:09:05.11	213.91	41.78	-28.9	-29.6	28.4	0.00e+00	0	30	0	2995781632	30	6130
2026-01-11 17:09:06.12	213.84	41.50	-28.6	-29.3	28.6	0.00e+00	0	30	0	3001024512	30	5909
2026-01-11 17:09:07.13	213.78	41.23	-28.5	-29.1	28.7	0.00e+00	0	30	0	3006267392	30	5770
2026-01-11 17:09:08.14	213.71	40.95	-28.3	-28.8	28.8	0.00e+00	0	29	0	3012558848	30	5617
2026-01-11 17:09:09.15	213.65	40.68	-28.3	-28.8	28.8	0.00e+00	0	30	0	3017801728	30	5625
2026-01-11 17:09:10.16	213.59	40.42	-28.2	-28.7	28.9	0.00e+00	0	30	0	3024093184	30	5525
2026-01-11 17:09:11.17	213.52	40.15	-28.3	-28.9	28.8	0.00e+00	0	29	0	3029336064	30	5671
2026-01-11 17:09:12.18	213.46	39.89	-28.1	-28.7	28.8	0.00e+00	0	29	0	3034578944	30	5547
2026-01-11 17:09:13.18	213.40	39.63	-28.0	-28.7	29.0	0.00e+00	0	29	0	3040870400	30	5531
2026-01-11 17:09:14.19	213.34	39.37	-28.2	-28.7	28.9	0.00e+00	0	29	0	3046113280	30	5557
2026-01-11 17:09:15.21	213.29	39.11	-28.2	-28.7	28.7	0.00e+00	0	30	0	3052404736	30	5534
2026-01-11 17:09:16.21	213.23	38.85	-28.2	-28.8	28.8	0.00e+00	0	29	0	3057647616	30	5572
2026-01-11 17:09:17.22	213.17	38.60	-28.2	-28.7	28.8	0.00e+00	0	29	0	3062890496	30	5523
2026-01-11 17:09:18.23	213.12	38.35	-28.3	-28.8	28.8	0.00e+00	0	29	0	3069181952	30	5607
2026-01-11 17:09:19.24	213.06	38.09	-28.3	-28.9	28.8	0.00e+00	0	29	0	3074424832	30	5636
2026-01-11 17:09:20.25	213.01	37.85	-28.1	-28.6	28.8	0.00e+00	0	29	0	3080716288	30	5495
2026-01-11 17:09:21.26	212.96	37.60	-28.1	-28.6	28.8	0.00e+00	0	30	0	3085959168	30	5493
2026-01-11 17:09:22.27	212.91	37.35	-28.1	-28.8	28.8	0.00e+00	0	29	0	3092250624	30	5604
2026-01-11 17:09:23.28	212.86	37.11	-28.1	-28.7	28.8	0.00e+00	0	29	0	3097493504	30	5504
2026-01-11 17:09:24.29	212.81	36.87	-28.2	-28.7	28.8	0.00e+00	0	29	0	3102736384	30	5531
2026-01-11 17:09:25.30	212.76	36.63	-28.1	-28.6	28.9	0.00e+00	0	29	0	3109027840	30	5469
2026-01-11 17:09:26.31	212.71	36.39	-28.1	-28.6	28.9	0.00e+00	0	29	0	3114270720	30	5476
2026-01-11 17:09:27.32	212.66	36.15	-28.2	-28.7	28.8	0.00e+00	0	29	0	3120562176	30	5564
2026-01-11 17:09:28.33	212.61	35.92	-28.2	-28.8	28.8	0.00e+00	0	29	0	3125805056	30	5569
2026-01-11 17:09:29.33	212.57	35.69	-28.3	-28.9	28.7	0.00e+00	0	29	0	3131047936	30	5631
2026-01-11 17:09:30.34	212.52	35.45	-28.5	-29.0	28.6	0.00e+00	0	29	0	3137339392	30	5712
2026-01-11 17:09:31.35	212.48	35.22	-28.6	-29.1	28.6	0.00e+00	0	29	0	3142582272	30	5803
2026-01-11 17:09:32.36	212.43	35.00	-28.7	-29.2	28.5	0.00e+00	0	29	0	3148873728	30	5865
2026-01-11 17:09:33.37	212.39	34.77	-28.8	-29.3	28.4	0.00e+00	0	29	0	3154116608	30	5935
2026-01-11 17:09:34.38	212.35	34.54	-28.7	-29.3	28.5	0.00e+00	0	29	0	3159359488	30	5899
2026-01-11 17:09:35.39	212.31	34.32	-28.9	-29.4	28.4	0.00e+00	0	29	0	3165650944	30	6021
2026-01-11 17:09:36.40	212.26	34.10	-28.8	-29.3	28.4	0.00e+00	0	29	0	3170893824	30	5930
2026-01-11 17:09:37.41	212.22	33.88	-28.7	-29.3	28.5	0.00e+00	0	29	0	3177185280	30	5906
2026-01-11 17:09:38.42	212.18	33.66	-28.6	-29.3	28.5	0.00e+00	0	29	0	3182428160	30	5935
2026-01-11 17:09:39.43	212.14	33.44	-28.7	-29.2	28.4	0.00e+00	0	29	0	3188719616	30	5873
2026-01-11 17:09:40.44	212.10	33.23	-28.7	-29.3	28.5	0.00e+00	0	29	0	3193962496	30	5903
2026-01-11 17:09:41.45	212.06	33.01	-28.8	-29.3	28.5	0.00e+00	0	29	0	3199205376	30	5915
2026-01-11 17:09:42.46	212.03	32.80	-28.8	-29.3	28.4	0.00e+00	0	29	0	3205496832	30	5962
2026-01-11 17:09:43.46	211.99	32.59	-28.9	-29.4	28.4	0.00e+00	0	29	0	3210739712	30	6029
2026-01-11 17:09:44.47	211.95	32.38	-28.7	-29.4	28.5	0.00e+00	0	29	0	3217031168	30	5966
2026-01-11 17:09:45.48	211.92	32.17	-28.8	-29.5	28.3	0.00e+00	0	29	0	3222274048	30	6049
2026-01-11 17:09:46.49	211.88	31.96	-28.8	-29.3	28.4	0.00e+00	0	29	0	3227516928	30	5925
2026-01-11 17:09:47.50	211.84	31.76	-28.8	-29.3	28.4	0.00e+00	0	29	0	3233808384	30	5959
2026-01-11 17:09:48.51	211.81	31.55	-28.9	-29.6	28.4	0.00e+00	0	29	0	3239051264	30	6111
2026-01-11 17:09:49.52	211.77	31.35	-29.1	-29.8	28.2	0.00e+00	0	29	0	3245342720	30	6247
2026-01-11 17:09:50.53	211.74	31.15	-29.0	-29.7	28.3	0.00e+00	0	29	0	3250585600	30	6176
2026-01-11 17:09:51.54	211.71	30.95	-29.0	-29.5	28.3	0.00e+00	0	29	0	3255828480	30	6065
2026-01-11 17:09:52.55	211.67	30.75	-28.9	-29.4	28.3	0.00e+00	0	29	0	3262119936	30	6030
2026-01-11 17:09:53.56	211.64	30.55	-29.0	-29.5	28.2	0.00e+00	0	29	0	3267362816	30	6100
2026-01-11 17:09:54.57	211.61	30.36	-28.8	-29.3	28.4	0.00e+00	0	29	0	3273654272	30	5929
2026-01-11 17:09:55.58	211.58	30.16	-28.9	-29.4	28.4	0.00e+00	0	29	0	3278897152	30	5997
2026-01-11 17:09:56.59	211.54	29.97	-28.9	-29.4	28.4	0.00e+00	0	29	0	3284140032	30	5988
2026-01-11 17:09:57.60	211.51	29.78	-28.7	-29.4	28.5	0.00e+00	0	29	0	3290431488	30	6004
2026-01-11 17:09:58.61	211.48	29.59	-28.9	-29.4	28.3	0.00e+00	0	29	0	3295674368	30	5979
2026-01-11 17:09:59.62	211.45	29.40	-28.7	-29.2	28.5	0.00e+00	0	29	0	3301965824	30	5893
2026-01-11 17:10:00.62	211.42	29.21	-28.6	-29.1	28.5	0.00e+00	0	29	0	3307208704	30	5818
2026-01-11 17:10:01.63	211.39	29.02	-28.7	-29.3	28.5	0.00e+00	0	29	0	3313500160	30	5897
2026-01-11 17:10:02.64	211.36	28.84	-28.7	-29.2	28.5	0.00e+00	0	29	0	3318743040	30	5862
2026-01-11 17:10:03.65	211.34	28.65	-28.7	-29.2	28.4	0.00e+00	0	29	0	3325034496	30	5883
2026-01-11 17:10:04.66	211.31	28.47	-28.8	-29.3	28.4	0.00e+00	0	29	0	3330277376	30	5953
2026-01-11 17:10:05.67	211.28	28.29	-29.0	-29.5	28.1	0.00e+00	0	29	0	3335520256	30	6071
2026-01-11 17:10:06.68	211.25	28.11	-28.9	-29.4	28.4	0.00e+00	0	29	0	3341811712	30	6016
2026-01-11 17:10:07.69	211.22	27.93	-29.0	-29.6	28.1	0.00e+00	0	29	0	3347054592	30	6112
2026-01-11 17:10:08.70	211.20	27.75	-29.0	-29.6	28.2	0.00e+00	0	29	0	3353346048	30	6128
2026-01-11 17:10:09.71	211.17	27.57	-29.2	-29.7	28.2	0.00e+00	0	29	0	3358588928	30	6236
2026-01-11 17:10:10.72	211.14	27.39	-29.0	-29.6	28.1	0.00e+00	0	29	0	3363831808	30	6110
2026-01-11 17:10:11.73	211.12	27.22	-29.1	-29.7	28.1	0.00e+00	0	29	0	3370123264	30	6197
2026-01-11 17:10:12.74	211.09	27.04	-29.0	-29.7	28.3	0.00e+00	0	29	0	3375366144	30	6176
2026-01-11 17:10:13.75	211.07	26.87	-29.1	-29.7	28.1	0.00e+00	0	29	0	3381657600	30	6187
2026-01-11 17:10:14.76	211.04	26.70	-29.1	-29.6	28.2	0.00e+00	0	29	0	3386900480	30	6144
2026-01-11 17:10:15.77	211.02	26.53	-29.1	-29.8	28.2	0.00e+00	0	29	0	3392143360	30	6251
2026-01-11 17:10:16.78	210.99	26.36	-29.2	-29.9	28.1	0.00e+00	0	29	0	3398434816	30	6325
2026-01-11 17:10:17.79	210.97	26.19	-29.1	-29.7	28.2	0.00e+00	0	29	0	3403677696	30	6179
2026-01-11 17:10:18.80	210.95	26.02	-29.2	-29.7	28.1	0.00e+00	0	29	0	3409969152	30	6230
2026-01-11 17:10:19.81	210.92	25.85	-29.0	-29.7	28.2	0.00e+00	0	29	0	3415212032	30	6187
2026-01-11 17:10:20.82	210.90	25.69	-29.2	-29.9	28.1	0.00e+00	0	29	0	3421503488	30	6321
2026-01-11 17:10:21.83	210.88	25.52	-29.1	-29.8	28.1	0.00e+00	0	29	0	3426746368	30	6264
2026-01-11 17:10:22.84	210.85	25.36	-29.1	-29.6	28.2	0.00e+00	0	29	0	3431989248	30	6152
2026-01-11 17:10:23.85	210.83	25.20	-29.0	-29.5	28.2	0.00e+00	0	29	0	3438280704	30	6092
2026-01-11 17:10:24.86	210.81	25.04	-29.0	-29.6	28.2	0.00e+00	0	29	0	3443523584	30	6111
2026-01-11 17:10:25.87	210.79	24.88	-29.0	-29.5	28.1	0.00e+00	0	29	0	3449815040	30	6082
2026-01-11 17:10:26.88	210.76	24.72	-29.1	-29.6	28.2	0.00e+00	0	29	0	3455057920	30	6135
2026-01-11 17:10:27.88	210.74	24.56	-29.2	-29.7	28.0	0.00e+00	0	29	0	3460300800	30	6208
2026-01-11 17:10:28.89	210.72	24.40	-29.2	-29.8	28.1	0.00e+00	0	29	0	3466592256	30	6262
2026-01-11 17:10:29.90	210.70	24.24	-29.1	-29.7	28.1	0.00e+00	0	29	0	3471835136	30	6185
2026-01-11 17:10:30.91	210.68	24.09	-29.2	-29.7	28.0	0.00e+00	0	29	0	3478126592	30	6203
2026-01-11 17:10:31.92	210.66	23.93	-29.2	-29.8	28.0	0.00e+00	0	29	0	3483369472	30	6261
2026-01-11 17:10:32.93	210.64	23.78	-29.2	-29.8	28.0	0.00e+00	0	29	0	3488612352	30	6270
2026-01-11 17:10:33.94	210.62	23.62	-29.4	-29.9	28.0	0.00e+00	0	29	0	3494903808	30	6345
2026-01-11 17:10:34.95	210.60	23.47	-29.4	-29.9	27.9	0.00e+00	0	29	0	3500146688	30	6351
2026-01-11 17:10:35.96	210.58	23.32	-29.3	-29.8	28.0	0.00e+00	0	29	0	3506438144	30	6316
2026-01-11 17:10:36.97	210.56	23.17	-29.5	-30.0	27.7	0.00e+00	0	29	0	3511681024	30	6433
2026-01-11 17:10:37.98	210.54	23.02	-29.5	-30.1	27.8	0.00e+00	0	29	0	3517972480	30	6484
2026-01-11 17:10:38.99	210.52	22.87	-29.3	-29.9	27.9	0.00e+00	0	29	0	3523215360	30	6340
2026-01-11 17:10:40.00	210.50	22.72	-29.5	-30.0	27.8	0.00e+00	0	29	0	3529506816	30	6433
2026-01-11 17:10:41.01	210.49	22.58	-29.4	-30.0	27.8	0.00e+00	0	29	0	3534749696	30	6408
2026-01-11 17:10:42.02	210.47	22.43	-29.5	-30.1	27.8	0.00e+00	0	29	0	3539992576	30	6483
2026-01-11 17:10:43.03	210.45	22.28	-29.5	-30.2	27.8	0.00e+00	0	29	0	3546284032	30	6568
2026-01-11 17:10:44.04	210.43	22.14	-29.6	-30.3	27.8	0.00e+00	0	29	0	3551526912	30	6626
2026-01-11 17:10:45.05	210.41	22.00	-29.5	-30.0	27.8	0.00e+00	0	29	0	3556769792	30	6456
2026-01-11 17:10:46.06	210.40	21.85	-29.6	-30.3	27.7	0.00e+00	0	29	0	3563061248	30	6620
2026-01-11 17:10:47.07	210.38	21.71	-29.6	-30.3	27.8	0.00e+00	0	29	0	3568304128	30	6631
2026-01-11 17:10:48.07	210.36	21.57	-29.7	-30.4	27.7	0.00e+00	0	29	0	3574595584	32	5986
2026-01-11 17:10:49.08	210.34	21.43	-29.6	-30.1	27.8	0.00e+00	0	29	0	3579838464	32	5787
2026-01-11 17:10:50.09	210.33	21.29	-29.6	-30.2	27.7	0.00e+00	0	29	0	3585081344	32	5829
2026-01-11 17:10:51.10	210.31	21.15	-29.7	-30.3	27.6	0.00e+00	0	29	0	3591372800	32	5915
2026-01-11 17:10:52.11	210.29	21.01	-29.7	-30.2	27.7	0.00e+00	0	29	0	3596615680	32	5868
2026-01-11 17:10:53.12	210.28	20.88	-29.7	-30.2	27.6	0.00e+00	0	29	0	3602907136	32	5879
2026-01-11 17:10:54.13	210.26	20.74	-29.7	-30.3	27.6	0.00e+00	0	29	0	3608150016	32	5908
2026-01-11 17:10:55.14	210.25	20.60	-29.8	-30.3	27.6	0.00e+00	0	29	0	3614441472	32	5940
2026-01-11 17:10:56.15	210.23	20.47	-29.8	-30.3	27.6	0.00e+00	0	29	0	3619684352	32	5927
2026-01-11 17:10:57.16	210.22	20.33	-29.9	-30.5	27.5	0.00e+00	0	29	0	3625975808	32	6088
2026-01-11 17:10:58.17	210.20	20.20	-29.8	-30.5	27.6	0.00e+00	0	29	0	3631218688	32	6069
2026-01-11 17:10:59.18	210.18	20.06	-29.8	-30.5	27.5	0.00e+00	0	29	0	3636461568	32	6094
2026-01-11 17:11:00.17	210.17	19.93	-30.0	-30.7	27.4	0.00e+00	0	29	0	3642753024	32	6217
