passes_logs/2026/01/11/R4.6S_Anadyr/R4.6S_Anadyr__20260111_045643_FENGYUN_3D_rec.log

#Pass ID: 20260111_045643_FENGYUN 3D
#Satellite: FENGYUN 3D
#Configuration: FENGYUN 3D
#almurnet v.1.7.20251203
#Start time: 2026-01-11 04:56:44

#Version: 2.2.20231116
#Station: R4.6S_Anadyr
#Location: 177.4865 lon 64.73178 lat
#TLE: 1 43010U 17072A   26009.92921666 -.00000228  00000+0 -86059-4 0  9998
#TLE: 2 43010  98.9936 341.6668 0002176 116.7510 243.3888 14.19693142422537

#Time	Az	El	Level	Level2	SNR	BER	BlckErr	Temp	State	Recorded	gain1	gain2
2026-01-11 04:56:44.65	227.76	0.04	-48.2	-66.0	3.5	3.02e+01	0	27	0	0	60	77056
2026-01-11 04:56:45.66	227.84	0.09	-47.9	-60.0	3.6	8.45e-01	0	28	104	0	60	36254
2026-01-11 04:56:46.67	227.93	0.13	-47.8	-60.0	3.6	8.45e-01	0	28	104	0	60	36246
2026-01-11 04:56:47.68	228.01	0.18	-47.9	-60.1	3.6	8.46e-01	0	28	104	0	60	36380
2026-01-11 04:56:48.69	228.10	0.23	-47.8	-60.0	3.6	8.44e-01	0	28	104	0	60	36294
2026-01-11 04:56:49.70	228.18	0.27	-47.7	-60.0	3.6	8.44e-01	0	28	104	0	60	36224
2026-01-11 04:56:50.71	228.27	0.32	-47.9	-60.1	3.6	8.45e-01	0	28	104	0	60	36686
2026-01-11 04:56:51.72	228.35	0.37	-48.0	-60.1	3.6	8.45e-01	0	28	104	0	60	36499
2026-01-11 04:56:52.73	228.44	0.41	-47.7	-60.0	3.6	8.44e-01	0	28	104	0	60	36327
2026-01-11 04:56:53.74	228.52	0.46	-47.3	-60.0	3.6	8.45e-01	0	29	104	0	60	36023
2026-01-11 04:56:54.75	228.61	0.51	-47.6	-60.1	3.6	8.45e-01	0	28	104	0	60	36525
2026-01-11 04:56:55.76	228.69	0.55	-47.9	-60.1	3.6	8.45e-01	0	28	104	0	60	36446
2026-01-11 04:56:56.77	228.78	0.60	-47.9	-60.0	3.6	8.45e-01	0	29	104	0	60	35943
2026-01-11 04:56:57.78	228.87	0.65	-47.8	-59.9	3.6	8.46e-01	0	29	104	0	60	35668
2026-01-11 04:56:58.79	228.95	0.69	-47.6	-59.7	3.6	8.45e-01	0	29	104	0	60	35023
2026-01-11 04:56:59.80	229.04	0.74	-47.2	-59.3	3.6	8.46e-01	0	28	104	0	60	33523
2026-01-11 04:57:00.81	229.13	0.79	-46.5	-58.6	3.6	8.46e-01	0	29	104	0	60	30904
2026-01-11 04:57:01.81	229.22	0.83	-45.3	-57.4	3.6	8.46e-01	0	29	104	0	60	26754
2026-01-11 04:57:02.82	229.30	0.88	-45.3	-57.4	3.6	8.45e-01	0	29	104	0	60	26704
2026-01-11 04:57:03.83	229.39	0.93	-45.3	-57.3	3.6	8.44e-01	0	29	104	0	60	26587
2026-01-11 04:57:04.84	229.48	0.98	-45.3	-57.4	3.6	8.44e-01	0	29	104	0	60	26685
2026-01-11 04:57:05.85	229.57	1.02	-45.3	-57.4	3.6	8.46e-01	0	29	104	0	60	26673
2026-01-11 04:57:06.86	229.66	1.07	-45.3	-57.4	3.6	8.46e-01	0	29	104	0	60	26721
2026-01-11 04:57:07.87	229.75	1.12	-45.3	-57.3	3.6	8.44e-01	0	29	104	0	60	26574
2026-01-11 04:57:08.88	229.84	1.16	-45.3	-57.3	3.6	8.45e-01	0	29	104	0	60	26454
2026-01-11 04:57:09.89	229.93	1.21	-45.3	-57.3	3.6	8.44e-01	0	29	104	0	60	26470
2026-01-11 04:57:10.90	230.02	1.26	-45.3	-57.3	3.6	8.46e-01	0	29	104	0	60	26639
2026-01-11 04:57:11.91	230.11	1.30	-45.3	-57.4	3.6	8.45e-01	0	29	104	0	60	26685
2026-01-11 04:57:12.92	230.20	1.35	-45.3	-57.3	3.6	8.46e-01	0	29	104	0	60	26512
2026-01-11 04:57:13.93	230.29	1.40	-45.3	-57.4	3.6	8.45e-01	0	29	104	0	60	26693
2026-01-11 04:57:14.94	230.38	1.45	-45.3	-57.3	3.6	8.46e-01	0	29	104	0	60	26568
2026-01-11 04:57:15.95	230.47	1.49	-45.3	-57.3	3.6	8.45e-01	0	29	104	0	60	26579
2026-01-11 04:57:16.96	230.56	1.54	-45.3	-57.3	3.6	8.46e-01	0	29	104	0	60	26546
2026-01-11 04:57:17.97	230.66	1.59	-45.3	-57.3	3.6	8.45e-01	0	29	104	0	60	26573
2026-01-11 04:57:18.98	230.75	1.64	-45.3	-57.4	3.6	8.46e-01	0	29	104	0	60	26644
2026-01-11 04:57:19.99	230.84	1.68	-45.3	-57.3	3.6	8.44e-01	0	29	104	0	60	26496
2026-01-11 04:57:21.00	230.93	1.73	-45.3	-57.3	3.6	8.45e-01	0	29	104	0	60	26576
2026-01-11 04:57:22.01	231.03	1.78	-45.3	-57.3	3.6	8.45e-01	0	29	104	0	60	26575
2026-01-11 04:57:23.02	231.12	1.82	-45.3	-57.3	3.6	8.45e-01	0	29	104	0	60	26581
2026-01-11 04:57:24.03	231.22	1.87	-45.3	-57.3	3.6	8.45e-01	0	29	104	0	60	26548
2026-01-11 04:57:25.04	231.31	1.92	-45.3	-57.3	3.6	8.44e-01	0	29	104	0	60	26505
2026-01-11 04:57:26.05	231.40	1.97	-45.3	-57.3	3.6	8.44e-01	0	29	104	0	60	26506
2026-01-11 04:57:27.06	231.50	2.01	-45.3	-57.3	3.6	8.45e-01	0	29	104	0	60	26454
2026-01-11 04:57:28.07	231.59	2.06	-45.3	-57.3	3.6	8.45e-01	0	29	104	0	60	26343
2026-01-11 04:57:29.08	231.69	2.11	-45.3	-57.3	3.6	8.46e-01	0	29	104	0	60	26467
2026-01-11 04:57:30.09	231.78	2.16	-45.3	-57.3	3.6	8.44e-01	0	29	104	0	60	26438
2026-01-11 04:57:31.10	231.88	2.20	-45.3	-57.3	3.6	8.45e-01	0	29	104	0	60	26439
2026-01-11 04:57:32.11	231.98	2.25	-45.3	-57.3	3.6	8.45e-01	0	29	104	0	60	26484
2026-01-11 04:57:33.12	232.07	2.30	-45.3	-57.3	3.6	8.45e-01	0	29	104	0	60	26567
2026-01-11 04:57:34.13	232.17	2.35	-45.3	-57.3	3.6	8.44e-01	0	29	104	0	60	26561
2026-01-11 04:57:35.14	232.27	2.39	-45.3	-57.3	3.6	8.46e-01	0	29	104	0	60	26444
2026-01-11 04:57:36.15	232.36	2.44	-45.3	-57.3	3.6	8.45e-01	0	29	104	0	60	26488
2026-01-11 04:57:37.15	232.46	2.49	-45.3	-57.3	3.5	8.45e-01	0	29	104	0	60	26540
2026-01-11 04:57:38.16	232.56	2.54	-45.3	-57.3	3.6	8.46e-01	0	29	104	0	60	26527
2026-01-11 04:57:39.17	232.66	2.58	-45.3	-57.3	3.6	8.44e-01	0	29	104	0	60	26397
2026-01-11 04:57:40.19	232.76	2.63	-45.3	-57.3	3.6	8.44e-01	0	29	104	0	60	26442
2026-01-11 04:57:41.19	232.85	2.68	-45.2	-57.2	3.6	8.46e-01	0	29	104	0	60	26195
2026-01-11 04:57:42.20	232.95	2.73	-45.2	-57.2	3.6	8.46e-01	0	29	104	0	60	26047
2026-01-11 04:57:43.22	233.05	2.77	-45.2	-57.1	3.6	8.44e-01	0	29	104	0	60	25857
2026-01-11 04:57:44.22	233.15	2.82	-45.2	-57.0	3.6	8.46e-01	0	29	104	0	60	25507
2026-01-11 04:57:45.23	233.25	2.87	-45.2	-56.8	3.6	8.45e-01	0	29	104	0	60	25069
2026-01-11 04:57:46.24	233.35	2.92	-45.2	-56.7	3.6	8.46e-01	0	29	104	0	60	24717
2026-01-11 04:57:47.25	233.45	2.96	-45.2	-56.6	3.6	8.44e-01	0	29	104	0	60	24545
2026-01-11 04:57:48.26	233.55	3.01	-45.2	-56.6	3.6	8.44e-01	0	29	104	0	60	24564
2026-01-11 04:57:49.27	233.66	3.06	-45.2	-56.6	3.6	8.44e-01	0	29	104	0	60	24341
2026-01-11 04:57:50.28	233.76	3.11	-45.4	-56.5	3.6	8.45e-01	0	29	104	0	60	24166
2026-01-11 04:57:51.29	233.86	3.16	-45.1	-57.0	3.6	8.45e-01	0	29	104	0	60	25543
2026-01-11 04:57:52.30	233.96	3.20	-45.4	-56.2	3.6	8.45e-01	0	29	104	0	60	23210
2026-01-11 04:57:53.31	234.06	3.25	-45.6	-57.0	3.6	8.45e-01	0	29	104	0	60	25594
2026-01-11 04:57:54.32	234.17	3.30	-45.5	-57.1	3.6	8.45e-01	0	29	104	0	60	25842
2026-01-11 04:57:55.33	234.27	3.35	-45.5	-56.6	3.6	8.45e-01	0	29	104	0	60	24519
2026-01-11 04:57:56.34	234.37	3.39	-45.5	-56.6	3.6	8.45e-01	0	29	104	0	60	24496
2026-01-11 04:57:57.35	234.48	3.44	-45.5	-56.5	3.6	8.45e-01	0	29	104	0	60	24287
2026-01-11 04:57:58.36	234.58	3.49	-45.6	-56.5	3.5	8.45e-01	0	29	104	0	60	24070
2026-01-11 04:57:59.37	234.69	3.54	-45.5	-56.1	3.6	8.45e-01	0	29	104	0	60	23103
2026-01-11 04:58:00.38	234.79	3.59	-45.3	-56.6	3.6	8.45e-01	0	29	104	0	60	24526
2026-01-11 04:58:01.39	234.90	3.63	-45.3	-57.0	3.6	8.45e-01	0	29	104	0	60	25584
2026-01-11 04:58:02.39	235.00	3.68	-45.6	-56.4	3.6	8.44e-01	0	29	104	0	60	23805
2026-01-11 04:58:03.40	235.11	3.73	-45.5	-57.1	3.6	8.44e-01	0	29	104	0	60	25932
2026-01-11 04:58:04.41	235.21	3.78	-45.5	-56.5	3.5	8.45e-01	0	29	104	0	60	24054
2026-01-11 04:58:05.42	235.32	3.82	-45.6	-56.3	3.5	8.46e-01	0	30	104	0	60	23492
2026-01-11 04:58:06.43	235.43	3.87	-45.6	-56.1	3.6	8.44e-01	0	29	104	0	60	23174
2026-01-11 04:58:07.44	235.53	3.92	-45.5	-55.9	3.6	8.44e-01	0	29	104	0	60	22505
2026-01-11 04:58:08.45	235.64	3.97	-45.6	-56.1	3.6	8.46e-01	0	29	104	0	60	23012
2026-01-11 04:58:09.46	235.75	4.02	-45.5	-56.3	3.6	8.45e-01	0	29	104	0	60	23724
2026-01-11 04:58:10.47	235.86	4.06	-45.6	-56.9	3.6	8.45e-01	0	29	104	0	60	25188
2026-01-11 04:58:11.48	235.97	4.11	-45.8	-55.4	3.6	8.44e-01	0	29	104	0	60	21261
2026-01-11 04:58:12.49	236.07	4.16	-45.8	-57.3	3.6	8.46e-01	0	29	104	0	60	26608
2026-01-11 04:58:13.50	236.18	4.21	-45.8	-56.1	3.7	8.45e-01	0	29	104	0	60	23091
2026-01-11 04:58:14.51	236.29	4.25	-45.8	-55.4	3.8	8.43e-01	0	29	104	0	60	21204
2026-01-11 04:58:15.52	236.40	4.30	-45.8	-55.3	3.7	8.42e-01	0	29	104	0	60	21072
2026-01-11 04:58:16.52	236.51	4.35	-45.8	-55.3	3.7	8.43e-01	0	29	104	0	60	20927
2026-01-11 04:58:17.53	236.62	4.40	-45.9	-55.7	3.6	8.42e-01	0	29	104	0	60	22127
2026-01-11 04:58:18.54	236.73	4.45	-45.8	-55.3	3.7	8.42e-01	0	29	104	0	60	21000
2026-01-11 04:58:19.55	236.84	4.49	-45.7	-53.8	3.9	8.39e-01	0	30	0	0	60	17630
2026-01-11 04:58:20.56	236.96	4.54	-45.7	-52.8	4.0	8.29e-01	0	30	0	0	60	15835
2026-01-11 04:58:21.57	237.07	4.59	-45.6	-52.4	4.1	8.19e-01	0	30	0	0	60	15110
2026-01-11 04:58:22.58	237.18	4.64	-45.6	-52.0	4.4	8.12e-01	0	30	0	0	60	14464
2026-01-11 04:58:23.59	237.29	4.68	-45.5	-51.7	4.6	7.85e-01	0	30	0	0	60	13911
2026-01-11 04:58:24.60	237.41	4.73	-45.6	-51.7	4.7	7.78e-01	0	30	0	0	60	13839
2026-01-11 04:58:25.61	237.52	4.78	-45.6	-51.5	4.8	7.57e-01	0	30	0	0	60	13540
2026-01-11 04:58:26.62	237.63	4.83	-45.5	-51.4	4.9	7.59e-01	0	30	0	0	60	13384
2026-01-11 04:58:27.63	237.75	4.88	-45.3	-50.7	5.5	6.13e-01	0	30	0	1048576	60	12425
2026-01-11 04:58:28.64	237.86	4.92	-45.2	-50.4	5.8	3.89e-01	0	30	0	6291456	60	12002
2026-01-11 04:58:29.65	237.98	4.97	-45.3	-50.5	5.8	3.61e-01	0	30	0	11534336	60	12046
2026-01-11 04:58:30.66	238.09	5.02	-45.1	-50.0	6.4	2.75e-01	0	30	0	17825792	60	11391
2026-01-11 04:58:31.67	238.21	5.07	-45.1	-49.8	6.6	2.13e-01	0	30	0	23068672	60	11177
2026-01-11 04:58:32.68	238.32	5.11	-45.0	-49.5	6.9	1.78e-01	0	30	0	29360128	60	10787
2026-01-11 04:58:33.69	238.44	5.16	-45.0	-49.4	7.1	1.69e-01	0	30	0	34603008	60	10651
2026-01-11 04:58:34.70	238.56	5.21	-44.7	-48.9	7.7	1.17e-01	0	30	0	40894464	60	10070
2026-01-11 04:58:35.70	238.67	5.26	-44.5	-48.5	8.2	7.50e-02	0	30	0	46137344	60	9582
2026-01-11 04:58:36.71	238.79	5.31	-44.4	-48.3	8.4	5.37e-02	0	30	0	51380224	60	9386
2026-01-11 04:58:37.72	238.91	5.35	-44.3	-48.0	8.7	4.03e-02	0	30	0	57671680	60	9122
2026-01-11 04:58:38.73	239.02	5.40	-44.3	-48.1	8.7	3.68e-02	0	30	0	62914560	60	9164
2026-01-11 04:58:39.74	239.14	5.45	-44.1	-47.6	9.4	2.59e-02	0	30	0	69206016	60	8637
2026-01-11 04:58:40.75	239.26	5.50	-43.9	-47.2	9.8	1.52e-02	0	30	0	74448896	60	8298
2026-01-11 04:58:41.76	239.38	5.54	-43.9	-47.3	9.8	1.74e-02	0	30	0	79691776	60	8348
2026-01-11 04:58:42.77	239.50	5.59	-43.6	-46.6	10.4	6.55e-03	0	30	0	85983232	60	7766
2026-01-11 04:58:43.78	239.62	5.64	-43.5	-46.4	10.6	6.06e-03	0	30	0	91226112	60	7558
2026-01-11 04:58:44.79	239.74	5.69	-43.5	-46.5	10.6	4.19e-03	0	30	0	97517568	60	7621
2026-01-11 04:58:45.80	239.86	5.73	-43.0	-45.6	11.6	1.46e-03	0	30	0	102760448	60	6866
2026-01-11 04:58:46.81	239.98	5.78	-42.6	-45.1	12.0	5.93e-04	0	30	0	108003328	58	7300
2026-01-11 04:58:47.82	240.10	5.83	-42.5	-44.8	12.3	3.09e-04	0	30	0	114294784	58	7079
2026-01-11 04:58:48.83	240.23	5.88	-42.2	-44.5	12.8	9.49e-05	0	30	0	119537664	58	6793
2026-01-11 04:58:49.84	240.35	5.92	-42.2	-44.4	12.8	8.92e-05	0	30	0	125829120	58	6766
2026-01-11 04:58:50.85	240.47	5.97	-41.9	-44.0	13.4	4.23e-05	0	30	0	131072000	58	6426
2026-01-11 04:58:51.86	240.59	6.02	-41.8	-43.9	13.6	1.37e-05	0	30	0	137363456	58	6322
2026-01-11 04:58:52.87	240.72	6.07	-41.6	-43.5	14.0	1.25e-05	0	30	0	142606336	56	6792
2026-01-11 04:58:53.88	240.84	6.11	-41.2	-43.0	14.5	0.00e+00	0	30	0	148897792	56	6460
2026-01-11 04:58:54.89	240.97	6.16	-40.9	-42.6	14.9	0.00e+00	0	30	0	154140672	56	6170
2026-01-11 04:58:55.90	241.09	6.21	-40.6	-42.2	15.3	0.00e+00	0	30	0	159383552	54	6567
2026-01-11 04:58:56.91	241.21	6.26	-40.5	-42.1	15.4	0.00e+00	0	30	0	165675008	54	6469
2026-01-11 04:58:57.92	241.34	6.30	-40.1	-41.6	16.0	0.00e+00	0	30	0	170917888	54	6107
2026-01-11 04:58:58.92	241.46	6.35	-40.0	-41.5	16.1	0.00e+00	0	30	0	177209344	54	6058
2026-01-11 04:58:59.93	241.59	6.40	-40.0	-41.4	16.2	0.00e+00	0	30	0	182452224	54	5979
2026-01-11 04:59:00.95	241.72	6.44	-39.5	-40.8	16.9	0.00e+00	0	30	0	187695104	52	6269
2026-01-11 04:59:01.95	241.84	6.49	-39.2	-40.5	17.2	0.00e+00	0	30	0	193986560	52	6066
2026-01-11 04:59:02.96	241.97	6.54	-39.0	-40.3	17.4	0.00e+00	0	30	0	199229440	52	5913
2026-01-11 04:59:03.97	242.10	6.59	-39.1	-40.3	17.4	0.00e+00	0	30	0	205520896	52	5948
2026-01-11 04:59:04.98	242.23	6.63	-39.1	-40.4	17.5	0.00e+00	0	30	0	210763776	52	6002
2026-01-11 04:59:05.99	242.36	6.68	-38.7	-39.9	17.9	0.00e+00	0	30	0	216006656	50	6319
2026-01-11 04:59:07.00	242.48	6.73	-38.4	-39.5	18.2	0.00e+00	0	30	0	222298112	50	6100
2026-01-11 04:59:08.01	242.61	6.77	-38.4	-39.5	18.0	0.00e+00	0	30	0	227540992	50	6097
2026-01-11 04:59:09.02	242.74	6.82	-38.1	-39.2	18.5	0.00e+00	0	30	0	233832448	50	5849
2026-01-11 04:59:10.03	242.87	6.87	-38.0	-39.1	18.6	0.00e+00	0	30	0	239075328	50	5776
2026-01-11 04:59:11.04	243.00	6.91	-38.0	-39.1	18.6	0.00e+00	0	30	0	245366784	50	5783
2026-01-11 04:59:12.06	243.14	6.96	-37.7	-38.8	18.9	0.00e+00	0	30	0	250609664	50	5577
2026-01-11 04:59:13.06	243.27	7.01	-37.3	-38.3	19.4	0.00e+00	0	30	0	255852544	48	5932
2026-01-11 04:59:14.07	243.40	7.06	-37.2	-38.2	19.5	0.00e+00	0	30	0	262144000	48	5856
2026-01-11 04:59:15.08	243.53	7.10	-36.9	-37.9	19.8	0.00e+00	0	30	0	267386880	48	5657
2026-01-11 04:59:16.09	243.66	7.15	-37.0	-37.9	19.8	0.00e+00	0	30	0	273678336	48	5690
2026-01-11 04:59:17.10	243.80	7.20	-36.6	-37.5	20.2	0.00e+00	0	30	0	278921216	46	6088
2026-01-11 04:59:18.11	243.93	7.24	-36.4	-37.4	20.4	0.00e+00	0	30	0	284164096	46	5978
2026-01-11 04:59:19.12	244.06	7.29	-36.3	-37.2	20.5	0.00e+00	0	30	0	290455552	46	5877
2026-01-11 04:59:20.13	244.20	7.33	-36.0	-36.9	20.9	0.00e+00	0	30	0	295698432	46	5677
2026-01-11 04:59:21.14	244.33	7.38	-35.9	-36.8	21.0	0.00e+00	0	30	0	301989888	46	5602
2026-01-11 04:59:22.15	244.47	7.43	-35.6	-36.5	21.2	0.00e+00	0	30	0	307232768	44	6036
2026-01-11 04:59:23.16	244.60	7.47	-35.7	-36.5	21.3	0.00e+00	0	30	0	312475648	44	6076
2026-01-11 04:59:24.17	244.74	7.52	-35.2	-36.0	21.8	0.00e+00	0	30	0	318767104	44	5719
2026-01-11 04:59:25.18	244.87	7.57	-34.9	-35.7	22.1	0.00e+00	0	30	0	324009984	44	5504
2026-01-11 04:59:26.19	245.01	7.61	-34.9	-35.8	22.0	0.00e+00	0	30	0	330301440	44	5567
2026-01-11 04:59:27.20	245.15	7.66	-34.9	-35.7	22.1	0.00e+00	0	30	0	335544320	44	5515
2026-01-11 04:59:28.21	245.28	7.71	-34.7	-35.5	22.3	0.00e+00	0	30	0	341835776	42	6052
2026-01-11 04:59:29.22	245.42	7.75	-34.7	-35.5	22.4	0.00e+00	0	30	0	347078656	42	6045
2026-01-11 04:59:30.23	245.56	7.80	-34.6	-35.4	22.5	0.00e+00	0	30	0	353370112	42	5967
2026-01-11 04:59:31.24	245.70	7.84	-34.6	-35.4	22.5	0.00e+00	0	30	0	358612992	42	5982
2026-01-11 04:59:32.25	245.84	7.89	-34.6	-35.4	22.5	0.00e+00	0	30	0	363855872	42	5978
2026-01-11 04:59:33.26	245.98	7.93	-34.4	-35.2	22.6	0.00e+00	0	30	0	370147328	42	5864
2026-01-11 04:59:34.27	246.12	7.98	-34.4	-35.1	22.8	0.00e+00	0	30	0	375390208	42	5812
2026-01-11 04:59:35.28	246.26	8.03	-34.2	-35.0	22.9	0.00e+00	0	30	0	381681664	42	5698
2026-01-11 04:59:36.29	246.40	8.07	-34.1	-34.9	22.9	0.00e+00	0	30	0	386924544	42	5654
2026-01-11 04:59:37.30	246.54	8.12	-34.0	-34.8	23.1	0.00e+00	0	30	0	392167424	42	5583
2026-01-11 04:59:38.31	246.68	8.16	-33.9	-34.7	23.2	0.00e+00	0	30	0	398458880	42	5509
2026-01-11 04:59:39.31	246.82	8.21	-33.8	-34.6	23.3	0.00e+00	0	30	0	403701760	42	5459
2026-01-11 04:59:40.32	246.97	8.25	-33.8	-34.5	23.3	0.00e+00	0	30	0	409993216	42	5420
2026-01-11 04:59:41.33	247.11	8.30	-33.7	-34.5	23.4	0.00e+00	0	30	0	415236096	40	6047
2026-01-11 04:59:42.34	247.25	8.34	-33.8	-34.6	23.4	0.00e+00	0	30	0	420478976	40	6106
2026-01-11 04:59:43.35	247.40	8.39	-33.6	-34.4	23.5	0.00e+00	0	30	0	426770432	40	5988
2026-01-11 04:59:44.36	247.54	8.43	-33.5	-34.3	23.6	0.00e+00	0	30	0	432013312	40	5901
2026-01-11 04:59:45.37	247.69	8.48	-33.6	-34.3	23.6	0.00e+00	0	30	0	438304768	40	5957
2026-01-11 04:59:46.38	247.83	8.52	-33.2	-34.0	23.9	0.00e+00	0	30	0	443547648	40	5721
2026-01-11 04:59:47.39	247.98	8.57	-33.3	-34.1	23.9	0.00e+00	0	30	0	449839104	40	5765
2026-01-11 04:59:48.40	248.12	8.61	-33.2	-33.9	24.0	0.00e+00	0	30	0	455081984	40	5652
2026-01-11 04:59:49.41	248.27	8.66	-33.2	-33.9	24.0	0.00e+00	0	30	0	460324864	40	5645
2026-01-11 04:59:50.42	248.42	8.70	-33.1	-33.9	24.1	0.00e+00	0	30	0	466616320	40	5633
2026-01-11 04:59:51.43	248.56	8.75	-33.0	-33.7	24.1	0.00e+00	0	30	0	471859200	40	5564
2026-01-11 04:59:52.44	248.71	8.79	-33.0	-33.7	24.1	0.00e+00	0	30	0	478150656	40	5522
2026-01-11 04:59:53.45	248.86	8.84	-33.0	-33.7	24.2	0.00e+00	0	30	0	483393536	40	5520
2026-01-11 04:59:54.45	249.01	8.88	-33.0	-33.7	24.2	0.00e+00	0	30	0	488636416	40	5503
2026-01-11 04:59:55.46	249.15	8.92	-32.8	-33.5	24.3	0.00e+00	0	30	0	494927872	40	5422
2026-01-11 04:59:56.47	249.30	8.97	-32.9	-33.6	24.3	0.00e+00	0	30	0	500170752	40	5480
2026-01-11 04:59:57.48	249.45	9.01	-32.9	-33.6	24.3	0.00e+00	0	30	0	506462208	40	5477
2026-01-11 04:59:58.49	249.60	9.06	-32.8	-33.5	24.4	0.00e+00	0	30	0	511705088	40	5435
2026-01-11 04:59:59.50	249.76	9.10	-32.8	-33.5	24.4	0.00e+00	0	30	0	516947968	38	6051
2026-01-11 05:00:00.51	249.91	9.14	-32.8	-33.5	24.5	0.00e+00	0	30	0	523239424	38	6064
2026-01-11 05:00:01.52	250.06	9.19	-32.8	-33.5	24.4	0.00e+00	0	30	0	528482304	38	6075
2026-01-11 05:00:02.53	250.21	9.23	-32.7	-33.4	24.6	0.00e+00	0	30	0	534773760	38	5972
2026-01-11 05:00:03.54	250.36	9.27	-32.6	-33.4	24.6	0.00e+00	0	30	0	540016640	38	5965
2026-01-11 05:00:04.55	250.52	9.32	-32.9	-33.7	24.3	0.00e+00	0	30	0	546308096	38	6187
2026-01-11 05:00:05.56	250.67	9.36	-32.8	-33.6	24.4	0.00e+00	0	30	0	551550976	38	6120
2026-01-11 05:00:06.57	250.82	9.40	-32.6	-33.3	24.6	0.00e+00	0	30	0	556793856	38	5945
2026-01-11 05:00:07.58	250.98	9.45	-32.7	-33.4	24.5	0.00e+00	0	30	0	563085312	38	6021
2026-01-11 05:00:08.59	251.13	9.49	-32.6	-33.3	24.6	0.00e+00	0	30	0	568328192	38	5958
2026-01-11 05:00:09.60	251.29	9.53	-32.6	-33.3	24.6	0.00e+00	0	30	0	574619648	38	5940
2026-01-11 05:00:10.61	251.44	9.57	-32.7	-33.4	24.5	0.00e+00	0	30	0	579862528	38	6005
2026-01-11 05:00:11.62	251.60	9.62	-32.6	-33.2	24.6	0.00e+00	0	30	0	585105408	38	5894
2026-01-11 05:00:12.62	251.75	9.66	-32.5	-33.2	24.7	0.00e+00	0	30	0	591396864	38	5883
2026-01-11 05:00:13.64	251.91	9.70	-32.6	-33.3	24.6	0.00e+00	0	30	0	596639744	38	5934
2026-01-11 05:00:14.65	252.07	9.74	-32.6	-33.2	24.7	0.00e+00	0	30	0	602931200	38	5892
2026-01-11 05:00:15.66	252.23	9.79	-32.6	-33.3	24.6	0.00e+00	0	30	0	608174080	38	5924
2026-01-11 05:00:16.67	252.38	9.83	-32.7	-33.3	24.5	0.00e+00	0	30	0	614465536	38	5960
2026-01-11 05:00:17.68	252.54	9.87	-32.5	-33.2	24.7	0.00e+00	0	30	0	619708416	38	5867
2026-01-11 05:00:18.69	252.70	9.91	-32.6	-33.3	24.7	0.00e+00	0	30	0	624951296	38	5904
2026-01-11 05:00:19.70	252.86	9.95	-32.4	-33.1	24.8	0.00e+00	0	30	0	631242752	38	5776
2026-01-11 05:00:20.71	253.02	9.99	-32.5	-33.2	24.6	0.00e+00	0	30	0	636485632	38	5877
2026-01-11 05:00:21.72	253.18	10.04	-32.4	-33.1	24.8	0.00e+00	0	30	0	642777088	38	5781
2026-01-11 05:00:22.73	253.34	10.08	-32.4	-33.1	24.8	0.00e+00	0	30	0	648019968	38	5774
2026-01-11 05:00:23.74	253.50	10.12	-32.3	-33.0	24.9	0.00e+00	0	30	0	654311424	38	5712
2026-01-11 05:00:24.75	253.67	10.16	-32.3	-33.0	24.9	0.00e+00	0	30	0	659554304	38	5724
2026-01-11 05:00:25.76	253.83	10.20	-32.4	-33.1	24.8	0.00e+00	0	30	0	664797184	38	5803
2026-01-11 05:00:26.77	253.99	10.24	-32.3	-33.0	24.8	0.00e+00	0	30	0	671088640	38	5743
2026-01-11 05:00:27.78	254.15	10.28	-32.3	-32.9	24.9	0.00e+00	0	30	0	676331520	38	5685
2026-01-11 05:00:28.79	254.32	10.32	-32.4	-33.1	24.9	0.00e+00	0	30	0	682622976	38	5790
2026-01-11 05:00:29.80	254.48	10.36	-32.3	-33.0	24.8	0.00e+00	0	30	0	687865856	38	5735
2026-01-11 05:00:30.81	254.65	10.40	-32.2	-32.9	25.0	0.00e+00	0	30	0	693108736	38	5652
2026-01-11 05:00:31.82	254.81	10.44	-32.2	-32.8	25.0	0.00e+00	0	30	0	699400192	38	5627
2026-01-11 05:00:32.83	254.98	10.48	-32.2	-32.9	25.0	0.00e+00	0	30	0	704643072	38	5662
2026-01-11 05:00:33.84	255.14	10.52	-32.2	-32.8	25.0	0.00e+00	0	30	0	710934528	38	5625
2026-01-11 05:00:34.85	255.31	10.56	-32.2	-32.9	25.0	0.00e+00	0	30	0	716177408	38	5666
2026-01-11 05:00:35.86	255.47	10.60	-32.2	-32.8	25.1	0.00e+00	0	30	0	721420288	38	5609
2026-01-11 05:00:36.87	255.64	10.64	-32.1	-32.8	25.1	0.00e+00	0	30	0	727711744	38	5592
2026-01-11 05:00:37.88	255.81	10.68	-32.2	-32.9	25.0	0.00e+00	0	30	0	732954624	38	5664
2026-01-11 05:00:38.89	255.98	10.72	-32.0	-32.7	25.2	0.00e+00	0	30	0	739246080	38	5528
2026-01-11 05:00:39.90	256.14	10.76	-32.1	-32.7	25.2	0.00e+00	0	30	0	744488960	38	5548
2026-01-11 05:00:40.91	256.31	10.79	-32.1	-32.8	25.1	0.00e+00	0	30	0	750780416	38	5579
2026-01-11 05:00:41.92	256.48	10.83	-32.1	-32.8	25.1	0.00e+00	0	30	0	756023296	38	5597
2026-01-11 05:00:42.92	256.65	10.87	-32.2	-32.9	25.1	0.00e+00	0	30	0	762314752	38	5657
2026-01-11 05:00:43.93	256.82	10.91	-32.1	-32.8	25.2	0.00e+00	0	30	0	767557632	38	5593
2026-01-11 05:00:44.94	256.99	10.95	-32.1	-32.7	25.2	0.00e+00	0	30	0	772800512	38	5566
2026-01-11 05:00:45.95	257.16	10.99	-32.1	-32.7	25.1	0.00e+00	0	30	0	779091968	38	5542
2026-01-11 05:00:46.96	257.33	11.02	-32.1	-32.8	25.2	0.00e+00	0	30	0	784334848	38	5571
2026-01-11 05:00:47.97	257.50	11.06	-32.1	-32.8	25.2	0.00e+00	0	30	0	790626304	38	5578
2026-01-11 05:00:48.98	257.68	11.10	-32.2	-32.9	25.1	0.00e+00	0	30	0	795869184	38	5670
2026-01-11 05:00:49.99	257.85	11.13	-32.3	-32.9	25.1	0.00e+00	0	30	0	801112064	38	5670
2026-01-11 05:00:51.00	258.02	11.17	-32.2	-32.8	25.1	0.00e+00	0	30	0	807403520	38	5613
2026-01-11 05:00:52.01	258.19	11.21	-32.3	-33.0	25.0	0.00e+00	0	30	0	812646400	38	5745
2026-01-11 05:00:53.02	258.37	11.25	-32.2	-32.9	25.0	0.00e+00	0	30	0	818937856	38	5658
2026-01-11 05:00:54.03	258.54	11.28	-32.2	-32.9	25.1	0.00e+00	0	30	0	824180736	38	5695
2026-01-11 05:00:55.04	258.72	11.32	-32.1	-32.8	25.2	0.00e+00	0	30	0	829423616	38	5620
2026-01-11 05:00:56.05	258.89	11.35	-32.2	-32.9	25.1	0.00e+00	0	30	0	835715072	38	5644
2026-01-11 05:00:57.06	259.07	11.39	-32.2	-32.9	25.1	0.00e+00	0	30	0	840957952	38	5680
2026-01-11 05:00:58.07	259.24	11.43	-32.2	-32.9	25.1	0.00e+00	0	30	0	847249408	38	5644
2026-01-11 05:00:59.08	259.42	11.46	-32.2	-32.9	25.1	0.00e+00	0	30	0	852492288	38	5655
2026-01-11 05:01:00.10	259.60	11.50	-32.2	-32.9	25.1	0.00e+00	0	30	0	858783744	38	5647
2026-01-11 05:01:01.10	259.77	11.53	-31.9	-32.6	25.3	0.00e+00	0	30	0	864026624	38	5471
2026-01-11 05:01:02.11	259.95	11.57	-31.9	-32.6	25.3	0.00e+00	0	30	0	869269504	38	5452
2026-01-11 05:01:03.12	260.13	11.60	-31.9	-32.5	25.4	0.00e+00	0	30	0	875560960	38	5429
2026-01-11 05:01:04.14	260.31	11.64	-31.9	-32.6	25.3	0.00e+00	0	30	0	880803840	38	5464
2026-01-11 05:01:05.14	260.48	11.67	-32.0	-32.7	25.3	0.00e+00	0	30	0	887095296	38	5516
2026-01-11 05:01:06.15	260.66	11.70	-32.0	-32.7	25.2	0.00e+00	0	30	0	892338176	38	5556
2026-01-11 05:01:07.16	260.84	11.74	-32.1	-32.8	25.2	0.00e+00	0	30	0	897581056	38	5613
2026-01-11 05:01:08.17	261.02	11.77	-32.1	-32.8	25.2	0.00e+00	0	30	0	903872512	38	5613
2026-01-11 05:01:09.18	261.20	11.81	-32.2	-32.9	25.0	0.00e+00	0	30	0	909115392	38	5670
2026-01-11 05:01:10.19	261.38	11.84	-32.2	-32.9	25.0	0.00e+00	0	30	0	915406848	38	5651
2026-01-11 05:01:11.20	261.56	11.87	-32.0	-32.7	25.2	0.00e+00	0	30	0	920649728	38	5527
2026-01-11 05:01:12.21	261.75	11.90	-31.9	-32.6	25.3	0.00e+00	0	30	0	925892608	38	5456
2026-01-11 05:01:13.22	261.93	11.94	-31.8	-32.5	25.4	0.00e+00	0	30	0	932184064	38	5430
2026-01-11 05:01:14.23	262.11	11.97	-31.7	-32.4	25.5	0.00e+00	0	30	0	937426944	36	5977
2026-01-11 05:01:15.24	262.29	12.00	-31.7	-32.4	25.6	0.00e+00	0	30	0	943718400	36	5965
2026-01-11 05:01:16.25	262.48	12.03	-31.5	-32.2	25.7	0.00e+00	0	30	0	948961280	36	5850
2026-01-11 05:01:17.26	262.66	12.07	-31.7	-32.3	25.6	0.00e+00	0	30	0	955252736	36	5938
2026-01-11 05:01:18.27	262.84	12.10	-31.7	-32.4	25.5	0.00e+00	0	30	0	960495616	36	5999
2026-01-11 05:01:19.28	263.03	12.13	-31.9	-32.6	25.3	0.00e+00	0	30	0	966787072	36	6107
2026-01-11 05:01:20.29	263.21	12.16	-31.9	-32.5	25.4	0.00e+00	0	30	0	972029952	36	6090
2026-01-11 05:01:21.30	263.40	12.19	-32.0	-32.7	25.3	0.00e+00	0	30	0	977272832	36	6210
2026-01-11 05:01:22.31	263.58	12.22	-32.0	-32.8	25.2	0.00e+00	0	30	0	983564288	36	6246
2026-01-11 05:01:23.32	263.77	12.25	-32.1	-32.8	25.2	0.00e+00	0	30	0	988807168	36	6264
2026-01-11 05:01:24.33	263.95	12.28	-31.9	-32.6	25.3	0.00e+00	0	30	0	995098624	36	6134
2026-01-11 05:01:25.34	264.14	12.31	-31.8	-32.4	25.5	0.00e+00	0	30	0	1000341504	36	6009
2026-01-11 05:01:26.35	264.33	12.34	-31.6	-32.3	25.6	0.00e+00	0	30	0	1005584384	36	5939
2026-01-11 05:01:27.35	264.51	12.37	-31.7	-32.4	25.5	0.00e+00	0	30	0	1011875840	36	5999
2026-01-11 05:01:28.36	264.70	12.40	-31.7	-32.4	25.5	0.00e+00	0	30	0	1017118720	36	5987
2026-01-11 05:01:29.38	264.89	12.43	-31.7	-32.4	25.5	0.00e+00	0	30	0	1023410176	36	6008
2026-01-11 05:01:30.38	265.08	12.46	-31.6	-32.2	25.7	0.00e+00	0	30	0	1028653056	36	5867
2026-01-11 05:01:31.39	265.26	12.49	-31.7	-32.4	25.5	0.00e+00	0	30	0	1033895936	36	5994
2026-01-11 05:01:32.40	265.45	12.52	-31.6	-32.2	25.6	0.00e+00	0	30	0	1040187392	36	5895
2026-01-11 05:01:33.41	265.64	12.54	-31.7	-32.3	25.5	0.00e+00	0	30	0	1045430272	36	5949
2026-01-11 05:01:34.42	265.83	12.57	-31.7	-32.3	25.6	0.00e+00	0	30	0	1051721728	36	5964
2026-01-11 05:01:35.43	266.02	12.60	-31.7	-32.4	25.5	0.00e+00	0	30	0	1056964608	36	6023
2026-01-11 05:01:36.44	266.21	12.63	-31.7	-32.4	25.5	0.00e+00	0	30	0	1063256064	36	5978
2026-01-11 05:01:37.45	266.40	12.65	-31.7	-32.4	25.5	0.00e+00	0	30	0	1068498944	36	6011
2026-01-11 05:01:38.45	266.59	12.68	-31.9	-32.5	25.3	0.00e+00	0	30	0	1073741824	36	6100
2026-01-11 05:01:39.46	266.78	12.71	-31.7	-32.4	25.5	0.00e+00	0	30	0	1080033280	36	6022
2026-01-11 05:01:40.48	266.98	12.73	-31.8	-32.5	25.4	0.00e+00	0	30	0	1085276160	36	6046
2026-01-11 05:01:41.49	267.17	12.76	-31.7	-32.4	25.5	0.00e+00	0	30	0	1091567616	36	5972
2026-01-11 05:01:42.50	267.36	12.78	-31.8	-32.5	25.5	0.00e+00	0	30	0	1096810496	36	6063
2026-01-11 05:01:43.50	267.55	12.81	-31.8	-32.5	25.4	0.00e+00	0	30	0	1102053376	36	6062
2026-01-11 05:01:44.51	267.74	12.83	-31.9	-32.6	25.3	0.00e+00	0	30	0	1108344832	36	6139
2026-01-11 05:01:45.52	267.94	12.86	-31.8	-32.4	25.5	0.00e+00	0	30	0	1113587712	36	6016
2026-01-11 05:01:46.53	268.13	12.88	-31.6	-32.3	25.6	0.00e+00	0	30	0	1119879168	36	5919
2026-01-11 05:01:47.54	268.32	12.91	-31.6	-32.3	25.7	0.00e+00	0	30	0	1125122048	36	5898
2026-01-11 05:01:48.55	268.52	12.93	-31.6	-32.2	25.6	0.00e+00	0	30	0	1130364928	36	5879
2026-01-11 05:01:49.56	268.71	12.96	-31.6	-32.3	25.7	0.00e+00	0	30	0	1136656384	36	5919
2026-01-11 05:01:50.57	268.91	12.98	-31.7	-32.4	25.5	0.00e+00	0	30	0	1141899264	36	5981
2026-01-11 05:01:51.58	269.10	13.00	-31.7	-32.4	25.5	0.00e+00	0	30	0	1148190720	36	5972
2026-01-11 05:01:52.59	269.30	13.03	-31.6	-32.3	25.7	0.00e+00	0	30	0	1153433600	36	5913
2026-01-11 05:01:53.60	269.49	13.05	-31.7	-32.4	25.6	0.00e+00	0	30	0	1159725056	36	5986
2026-01-11 05:01:54.60	269.69	13.07	-31.6	-32.3	25.6	0.00e+00	0	30	0	1164967936	36	5924
2026-01-11 05:01:55.62	269.89	13.09	-31.5	-32.2	25.7	0.00e+00	0	30	0	1170210816	36	5847
2026-01-11 05:01:56.63	270.08	13.12	-31.4	-32.1	25.8	0.00e+00	0	30	0	1176502272	36	5788
2026-01-11 05:01:57.64	270.28	13.14	-31.4	-32.1	25.8	0.00e+00	0	30	0	1181745152	36	5776
2026-01-11 05:01:58.65	270.48	13.16	-31.4	-32.0	25.9	0.00e+00	0	30	0	1188036608	36	5714
2026-01-11 05:01:59.66	270.67	13.18	-31.2	-31.9	25.9	0.00e+00	0	30	0	1193279488	36	5666
2026-01-11 05:02:00.67	270.87	13.20	-31.3	-31.9	25.8	0.00e+00	0	30	0	1198522368	36	5684
2026-01-11 05:02:01.67	271.07	13.22	-31.3	-32.0	25.9	0.00e+00	0	30	0	1204813824	36	5712
2026-01-11 05:02:02.69	271.27	13.24	-31.3	-31.9	25.9	0.00e+00	0	30	0	1210056704	36	5691
2026-01-11 05:02:03.69	271.46	13.26	-31.2	-31.9	25.9	0.00e+00	0	30	0	1216348160	36	5673
2026-01-11 05:02:04.70	271.66	13.28	-31.3	-32.0	25.9	0.00e+00	0	30	0	1221591040	36	5720
2026-01-11 05:02:05.71	271.86	13.30	-31.3	-31.9	25.9	0.00e+00	0	30	0	1226833920	36	5693
2026-01-11 05:02:06.72	272.06	13.32	-31.2	-31.8	26.0	0.00e+00	0	30	0	1233125376	36	5602
2026-01-11 05:02:07.73	272.26	13.34	-31.2	-31.8	25.9	0.00e+00	0	30	0	1238368256	36	5622
2026-01-11 05:02:08.74	272.46	13.35	-31.1	-31.7	26.1	0.00e+00	0	30	0	1244659712	36	5556
2026-01-11 05:02:09.75	272.66	13.37	-31.1	-31.8	26.1	0.00e+00	0	30	0	1249902592	36	5577
2026-01-11 05:02:10.76	272.86	13.39	-31.1	-31.7	26.1	0.00e+00	0	30	0	1256194048	36	5539
2026-01-11 05:02:11.77	273.06	13.41	-31.2	-31.8	26.0	0.00e+00	0	30	0	1261436928	36	5615
2026-01-11 05:02:12.78	273.26	13.42	-31.3	-31.9	25.9	0.00e+00	0	30	0	1267728384	36	5683
2026-01-11 05:02:13.79	273.46	13.44	-31.3	-32.0	25.8	0.00e+00	0	30	0	1272971264	36	5708
2026-01-11 05:02:14.80	273.66	13.46	-31.3	-32.0	25.9	0.00e+00	0	30	0	1278214144	36	5739
2026-01-11 05:02:15.81	273.86	13.47	-31.4	-32.1	25.7	0.00e+00	0	30	0	1284505600	36	5812
2026-01-11 05:02:16.82	274.06	13.49	-31.5	-32.2	25.7	0.00e+00	0	30	0	1289748480	36	5855
2026-01-11 05:02:17.83	274.26	13.51	-31.5	-32.2	25.7	0.00e+00	0	30	0	1296039936	36	5847
2026-01-11 05:02:18.84	274.47	13.52	-31.6	-32.3	25.6	0.00e+00	0	30	0	1301282816	36	5928
2026-01-11 05:02:19.85	274.67	13.54	-31.6	-32.3	25.6	0.00e+00	0	30	0	1306525696	36	5930
2026-01-11 05:02:20.86	274.87	13.55	-31.7	-32.4	25.6	0.00e+00	0	30	0	1312817152	36	5968
2026-01-11 05:02:21.87	275.07	13.56	-31.7	-32.4	25.5	0.00e+00	0	30	0	1318060032	36	5990
2026-01-11 05:02:22.89	275.28	13.58	-31.6	-32.3	25.6	0.00e+00	0	30	0	1324351488	36	5908
2026-01-11 05:02:23.90	275.48	13.59	-31.7	-32.3	25.6	0.00e+00	0	30	0	1329594368	36	5956
2026-01-11 05:02:24.90	275.68	13.61	-31.5	-32.2	25.7	0.00e+00	0	30	0	1334837248	36	5850
2026-01-11 05:02:25.92	275.88	13.62	-31.3	-31.9	25.9	0.00e+00	0	30	0	1341128704	36	5691
2026-01-11 05:02:26.93	276.09	13.63	-31.3	-32.0	25.9	0.00e+00	0	30	0	1346371584	36	5719
2026-01-11 05:02:27.93	276.29	13.64	-31.3	-32.0	25.9	0.00e+00	0	30	0	1352663040	36	5708
2026-01-11 05:02:28.95	276.49	13.66	-31.4	-32.1	25.8	0.00e+00	0	30	0	1357905920	36	5795
2026-01-11 05:02:29.95	276.70	13.67	-31.5	-32.1	25.8	0.00e+00	0	30	0	1364197376	36	5802
2026-01-11 05:02:30.97	276.90	13.68	-31.5	-32.1	25.7	0.00e+00	0	30	0	1369440256	36	5809
2026-01-11 05:02:31.98	277.11	13.69	-31.5	-32.1	25.8	0.00e+00	0	30	0	1375731712	36	5791
2026-01-11 05:02:32.99	277.31	13.70	-31.5	-32.1	25.7	0.00e+00	0	30	0	1380974592	36	5808
2026-01-11 05:02:34.00	277.51	13.71	-31.5	-32.1	25.7	0.00e+00	0	30	0	1386217472	36	5821
2026-01-11 05:02:35.01	277.72	13.72	-31.4	-32.1	25.8	0.00e+00	0	30	0	1392508928	36	5789
2026-01-11 05:02:36.01	277.92	13.73	-31.6	-32.2	25.7	0.00e+00	0	30	0	1397751808	36	5893
2026-01-11 05:02:37.03	278.13	13.74	-31.5	-32.1	25.8	0.00e+00	0	30	0	1404043264	36	5802
2026-01-11 05:02:38.04	278.33	13.75	-31.4	-32.1	25.7	0.00e+00	0	30	0	1409286144	36	5785
2026-01-11 05:02:39.05	278.54	13.76	-31.4	-32.0	25.8	0.00e+00	0	30	0	1414529024	36	5745
2026-01-11 05:02:40.06	278.74	13.77	-31.3	-31.9	25.9	0.00e+00	0	30	0	1420820480	36	5686
2026-01-11 05:02:41.07	278.95	13.77	-31.2	-31.9	25.9	0.00e+00	0	30	0	1426063360	36	5635
2026-01-11 05:02:42.08	279.15	13.78	-31.1	-31.8	26.0	0.00e+00	0	30	0	1432354816	36	5571
2026-01-11 05:02:43.09	279.36	13.79	-31.2	-31.8	26.1	0.00e+00	0	30	0	1437597696	36	5583
2026-01-11 05:02:44.10	279.56	13.80	-31.2	-31.8	26.0	0.00e+00	0	30	0	1442840576	36	5598
2026-01-11 05:02:45.11	279.77	13.80	-31.1	-31.8	26.0	0.00e+00	0	30	0	1449132032	36	5579
2026-01-11 05:02:46.12	279.97	13.81	-31.1	-31.7	26.1	0.00e+00	0	30	0	1454374912	36	5536
2026-01-11 05:02:47.13	280.18	13.82	-31.2	-31.8	26.0	0.00e+00	0	30	0	1460666368	36	5595
2026-01-11 05:02:48.14	280.39	13.82	-31.2	-31.9	25.9	0.00e+00	0	30	0	1465909248	36	5670
2026-01-11 05:02:49.15	280.59	13.83	-31.5	-32.1	25.8	0.00e+00	0	30	0	1472200704	36	5800
2026-01-11 05:02:50.16	280.80	13.83	-31.3	-32.0	25.8	0.00e+00	0	30	0	1477443584	36	5721
2026-01-11 05:02:51.16	281.00	13.84	-31.4	-32.0	25.8	0.00e+00	0	30	0	1482686464	36	5761
2026-01-11 05:02:52.17	281.21	13.84	-31.5	-32.1	25.8	0.00e+00	0	30	0	1488977920	36	5828
2026-01-11 05:02:53.18	281.41	13.84	-31.3	-31.9	25.9	0.00e+00	0	30	0	1494220800	36	5677
2026-01-11 05:02:54.19	281.62	13.85	-31.3	-31.9	25.9	0.00e+00	0	30	0	1500512256	36	5681
2026-01-11 05:02:55.20	281.83	13.85	-31.3	-32.0	25.9	0.00e+00	0	30	0	1505755136	36	5737
2026-01-11 05:02:56.20	282.03	13.85	-31.5	-32.1	25.7	0.00e+00	0	30	0	1510998016	36	5824
2026-01-11 05:02:57.22	282.24	13.86	-31.6	-32.2	25.6	0.00e+00	0	30	0	1517289472	36	5883
2026-01-11 05:02:58.23	282.44	13.86	-31.6	-32.2	25.7	0.00e+00	0	30	0	1522532352	36	5896
2026-01-11 05:02:59.24	282.65	13.86	-31.5	-32.2	25.7	0.00e+00	0	30	0	1528823808	36	5835
2026-01-11 05:03:00.25	282.86	13.86	-31.4	-32.1	25.8	0.00e+00	0	30	0	1534066688	36	5770
2026-01-11 05:03:01.26	283.06	13.86	-31.4	-32.1	25.8	0.00e+00	0	30	0	1539309568	36	5763
2026-01-11 05:03:02.27	283.27	13.87	-31.5	-32.1	25.7	0.00e+00	0	30	0	1545601024	36	5823
2026-01-11 05:03:03.28	283.48	13.87	-31.4	-32.0	25.8	0.00e+00	0	30	0	1550843904	36	5748
2026-01-11 05:03:04.29	283.68	13.87	-31.3	-32.0	25.9	0.00e+00	0	30	0	1557135360	36	5737
2026-01-11 05:03:05.30	283.89	13.87	-31.4	-32.0	25.8	0.00e+00	0	30	0	1562378240	36	5739
2026-01-11 05:03:06.31	284.09	13.87	-31.3	-32.0	25.9	0.00e+00	0	30	0	1568669696	36	5747
2026-01-11 05:03:07.32	284.30	13.87	-31.3	-32.0	25.9	0.00e+00	0	30	0	1573912576	36	5718
2026-01-11 05:03:08.32	284.51	13.86	-31.3	-32.0	25.9	0.00e+00	0	30	0	1580204032	36	5748
2026-01-11 05:03:09.33	284.71	13.86	-31.3	-32.0	25.9	0.00e+00	0	30	0	1585446912	36	5760
2026-01-11 05:03:10.34	284.92	13.86	-31.4	-32.0	25.9	0.00e+00	0	30	0	1590689792	36	5724
2026-01-11 05:03:11.35	285.12	13.86	-31.4	-32.0	25.9	0.00e+00	0	30	0	1596981248	36	5759
2026-01-11 05:03:12.35	285.33	13.86	-31.4	-32.0	25.8	0.00e+00	0	30	0	1602224128	36	5746
2026-01-11 05:03:13.36	285.53	13.85	-31.4	-32.1	25.8	0.00e+00	0	30	0	1607467008	36	5780
2026-01-11 05:03:14.37	285.74	13.85	-31.5	-32.1	25.6	0.00e+00	0	30	0	1613758464	36	5808
2026-01-11 05:03:15.38	285.95	13.85	-31.6	-32.2	25.6	0.00e+00	0	30	0	1619001344	36	5857
2026-01-11 05:03:16.39	286.15	13.84	-31.4	-32.1	25.7	0.00e+00	0	30	0	1625292800	36	5809
2026-01-11 05:03:17.40	286.36	13.84	-31.4	-32.0	25.8	0.00e+00	0	30	0	1630535680	36	5725
2026-01-11 05:03:18.40	286.56	13.83	-31.4	-32.0	25.8	0.00e+00	0	31	0	1635778560	36	5742
2026-01-11 05:03:19.41	286.77	13.83	-31.4	-32.1	25.6	0.00e+00	0	30	0	1642070016	36	5804
2026-01-11 05:03:20.42	286.97	13.83	-31.4	-32.1	25.7	0.00e+00	0	30	0	1647312896	36	5765
2026-01-11 05:03:21.44	287.18	13.82	-31.5	-32.1	25.4	0.00e+00	0	30	0	1653604352	36	5802
2026-01-11 05:03:22.45	287.39	13.81	-31.4	-32.1	25.7	0.00e+00	0	30	0	1658847232	36	5776
2026-01-11 05:03:23.46	287.59	13.81	-31.6	-32.3	25.5	0.00e+00	0	30	0	1665138688	36	5951
2026-01-11 05:03:24.47	287.80	13.80	-31.6	-32.2	25.6	0.00e+00	0	31	0	1670381568	36	5887
2026-01-11 05:03:25.48	288.00	13.79	-31.6	-32.2	25.6	0.00e+00	0	30	0	1676673024	36	5891
2026-01-11 05:03:26.49	288.21	13.79	-31.7	-32.4	25.4	0.00e+00	0	30	0	1681915904	36	5988
2026-01-11 05:03:27.50	288.41	13.78	-31.7	-32.4	25.5	0.00e+00	0	30	0	1687158784	36	5993
2026-01-11 05:03:28.51	288.62	13.77	-31.5	-32.2	25.6	0.00e+00	0	30	0	1693450240	36	5876
2026-01-11 05:03:29.52	288.82	13.76	-31.6	-32.2	25.6	0.00e+00	0	30	0	1698693120	36	5887
2026-01-11 05:03:30.53	289.03	13.76	-31.5	-32.1	25.8	0.00e+00	0	30	0	1704984576	36	5823
2026-01-11 05:03:31.54	289.23	13.75	-31.4	-32.1	25.7	0.00e+00	0	30	0	1710227456	36	5770
2026-01-11 05:03:32.55	289.44	13.74	-31.5	-32.2	25.7	0.00e+00	0	30	0	1715470336	36	5868
2026-01-11 05:03:33.56	289.64	13.73	-31.5	-32.1	25.8	0.00e+00	0	30	0	1721761792	36	5808
2026-01-11 05:03:34.57	289.85	13.72	-31.5	-32.2	25.7	0.00e+00	0	30	0	1727004672	36	5852
2026-01-11 05:03:35.58	290.05	13.71	-31.6	-32.2	25.7	0.00e+00	0	30	0	1733296128	36	5888
2026-01-11 05:03:36.58	290.25	13.70	-31.6	-32.3	25.6	0.00e+00	0	30	0	1738539008	36	5959
2026-01-11 05:03:37.59	290.46	13.69	-31.6	-32.3	25.6	0.00e+00	0	30	0	1743781888	36	5946
2026-01-11 05:03:38.60	290.66	13.68	-31.6	-32.2	25.7	0.00e+00	0	30	0	1750073344	36	5896
2026-01-11 05:03:39.61	290.86	13.66	-31.6	-32.2	25.6	0.00e+00	0	30	0	1755316224	36	5896
2026-01-11 05:03:40.62	291.07	13.65	-31.6	-32.2	25.6	0.00e+00	0	30	0	1761607680	36	5850
2026-01-11 05:03:41.63	291.27	13.64	-31.6	-32.3	25.7	0.00e+00	0	30	0	1766850560	36	5929
2026-01-11 05:03:42.64	291.47	13.63	-31.7	-32.3	25.6	0.00e+00	0	30	0	1773142016	36	5949
2026-01-11 05:03:43.65	291.67	13.61	-31.8	-32.5	25.4	0.00e+00	0	30	0	1778384896	36	6080
2026-01-11 05:03:44.66	291.88	13.60	-31.6	-32.4	25.6	0.00e+00	0	30	0	1783627776	36	5975
2026-01-11 05:03:45.67	292.08	13.59	-31.7	-32.4	25.5	0.00e+00	0	30	0	1789919232	36	5971
2026-01-11 05:03:46.68	292.28	13.57	-31.8	-32.4	25.5	0.00e+00	0	30	0	1795162112	36	6026
2026-01-11 05:03:47.69	292.48	13.56	-31.7	-32.4	25.5	0.00e+00	0	30	0	1801453568	36	6029
2026-01-11 05:03:48.69	292.68	13.55	-31.7	-32.4	25.5	0.00e+00	0	30	0	1806696448	36	6019
2026-01-11 05:03:49.70	292.89	13.53	-31.8	-32.5	25.4	0.00e+00	0	30	0	1811939328	36	6051
2026-01-11 05:03:50.71	293.09	13.52	-31.6	-32.2	25.7	0.00e+00	0	31	0	1818230784	36	5885
2026-01-11 05:03:51.72	293.29	13.50	-31.5	-32.2	25.7	0.00e+00	0	30	0	1823473664	36	5848
2026-01-11 05:03:52.73	293.49	13.49	-31.5	-32.1	25.8	0.00e+00	0	30	0	1829765120	36	5799
2026-01-11 05:03:53.74	293.69	13.47	-31.6	-32.2	25.7	0.00e+00	0	30	0	1835008000	36	5867
2026-01-11 05:03:54.75	293.89	13.45	-31.7	-32.3	25.6	0.00e+00	0	31	0	1840250880	36	5953
2026-01-11 05:03:55.76	294.09	13.44	-31.7	-32.4	25.6	0.00e+00	0	30	0	1846542336	36	5995
2026-01-11 05:03:56.77	294.29	13.42	-31.7	-32.4	25.6	0.00e+00	0	30	0	1851785216	36	5996
2026-01-11 05:03:57.78	294.49	13.40	-31.7	-32.4	25.6	0.00e+00	0	31	0	1858076672	36	5998
2026-01-11 05:03:58.79	294.69	13.39	-31.5	-32.2	25.7	0.00e+00	0	31	0	1863319552	36	5892
2026-01-11 05:03:59.80	294.89	13.37	-31.7	-32.3	25.5	0.00e+00	0	30	0	1869611008	36	5915
2026-01-11 05:04:00.81	295.09	13.35	-31.4	-32.1	25.8	0.00e+00	0	31	0	1874853888	36	5788
2026-01-11 05:04:01.82	295.29	13.33	-31.4	-32.1	25.8	0.00e+00	0	30	0	1881145344	36	5763
2026-01-11 05:04:02.83	295.49	13.31	-31.5	-32.2	25.7	0.00e+00	0	30	0	1886388224	36	5889
2026-01-11 05:04:03.84	295.69	13.29	-31.6	-32.3	25.6	0.00e+00	0	30	0	1891631104	36	5919
2026-01-11 05:04:04.85	295.89	13.28	-31.8	-32.5	25.5	0.00e+00	0	30	0	1897922560	36	6090
2026-01-11 05:04:05.85	296.08	13.26	-31.8	-32.5	25.5	0.00e+00	0	30	0	1903165440	36	6063
2026-01-11 05:04:06.86	296.28	13.24	-31.9	-32.5	25.4	0.00e+00	0	30	0	1908408320	36	6056
2026-01-11 05:04:07.87	296.48	13.22	-31.9	-32.5	25.3	0.00e+00	0	30	0	1914699776	36	6079
2026-01-11 05:04:08.88	296.68	13.20	-31.7	-32.3	25.6	0.00e+00	0	30	0	1919942656	36	5937
2026-01-11 05:04:09.89	296.87	13.17	-31.7	-32.3	25.5	0.00e+00	0	30	0	1926234112	36	5957
2026-01-11 05:04:10.90	297.07	13.15	-31.8	-32.5	25.5	0.00e+00	0	30	0	1931476992	36	6044
2026-01-11 05:04:11.91	297.27	13.13	-32.0	-32.7	25.3	0.00e+00	0	30	0	1936719872	36	6181
2026-01-11 05:04:12.91	297.46	13.11	-32.0	-32.7	25.4	0.00e+00	0	30	0	1943011328	36	6215
2026-01-11 05:04:13.92	297.66	13.09	-31.9	-32.6	25.4	0.00e+00	0	31	0	1948254208	36	6128
2026-01-11 05:04:14.93	297.85	13.07	-31.8	-32.4	25.4	0.00e+00	0	30	0	1954545664	36	6023
2026-01-11 05:04:15.94	298.05	13.04	-31.8	-32.4	25.5	0.00e+00	0	30	0	1959788544	36	6014
2026-01-11 05:04:16.95	298.24	13.02	-31.9	-32.5	25.4	0.00e+00	0	31	0	1966080000	36	6065
2026-01-11 05:04:17.96	298.44	13.00	-32.0	-32.7	25.3	0.00e+00	0	30	0	1971322880	36	6189
2026-01-11 05:04:18.97	298.63	12.98	-32.1	-32.8	25.1	0.00e+00	0	30	0	1977614336	36	6250
2026-01-11 05:04:19.98	298.83	12.95	-32.1	-32.7	25.2	0.00e+00	0	31	0	1982857216	36	6212
2026-01-11 05:04:20.99	299.02	12.93	-32.0	-32.6	25.3	0.00e+00	0	31	0	1988100096	36	6143
2026-01-11 05:04:22.00	299.21	12.90	-32.0	-32.6	25.3	0.00e+00	0	31	0	1994391552	36	6142
2026-01-11 05:04:23.01	299.41	12.88	-31.9	-32.5	25.4	0.00e+00	0	30	0	1999634432	36	6066
2026-01-11 05:04:24.02	299.60	12.86	-31.9	-32.5	25.4	0.00e+00	0	31	0	2005925888	36	6067
2026-01-11 05:04:25.03	299.79	12.83	-32.0	-32.7	25.3	0.00e+00	0	31	0	2011168768	36	6176
2026-01-11 05:04:26.04	299.98	12.81	-31.9	-32.6	25.3	0.00e+00	0	30	0	2016411648	36	6112
2026-01-11 05:04:27.05	300.18	12.78	-32.0	-32.8	25.3	0.00e+00	0	30	0	2022703104	36	6253
2026-01-11 05:04:28.06	300.37	12.75	-32.2	-32.9	25.1	0.00e+00	0	31	0	2027945984	36	6388
2026-01-11 05:04:29.07	300.56	12.73	-32.1	-32.9	25.2	0.00e+00	0	30	0	2034237440	36	6322
2026-01-11 05:04:30.08	300.75	12.70	-32.0	-32.7	25.2	0.00e+00	0	30	0	2039480320	36	6212
2026-01-11 05:04:31.09	300.94	12.68	-32.0	-32.7	25.3	0.00e+00	0	30	0	2044723200	36	6186
2026-01-11 05:04:32.10	301.13	12.65	-32.0	-32.7	25.2	0.00e+00	0	30	0	2051014656	36	6174
2026-01-11 05:04:33.11	301.32	12.62	-32.0	-32.7	25.2	0.00e+00	0	30	0	2056257536	36	6238
2026-01-11 05:04:34.12	301.51	12.60	-32.1	-32.8	25.2	0.00e+00	0	30	0	2062548992	36	6290
2026-01-11 05:04:35.13	301.70	12.57	-32.1	-32.7	25.3	0.00e+00	0	31	0	2067791872	36	6223
2026-01-11 05:04:36.13	301.89	12.54	-32.0	-32.6	25.3	0.00e+00	0	31	0	2074083328	36	6149
2026-01-11 05:04:37.14	302.08	12.51	-32.0	-32.7	25.3	0.00e+00	0	30	0	2079326208	36	6223
2026-01-11 05:04:38.15	302.26	12.48	-32.0	-32.7	25.3	0.00e+00	0	30	0	2084569088	36	6224
2026-01-11 05:04:39.16	302.45	12.46	-32.0	-32.7	25.4	0.00e+00	0	30	0	2090860544	36	6183
2026-01-11 05:04:40.17	302.64	12.43	-31.9	-32.6	25.5	0.00e+00	0	31	0	2096103424	36	6170
2026-01-11 05:04:41.18	302.83	12.40	-31.9	-32.6	25.5	0.00e+00	0	31	0	2102394880	36	6110
2026-01-11 05:04:42.19	303.01	12.37	-31.9	-32.5	25.5	0.00e+00	0	30	0	2107637760	36	6095
2026-01-11 05:04:43.20	303.20	12.34	-32.0	-32.6	25.4	0.00e+00	0	30	0	2112880640	36	6117
2026-01-11 05:04:44.21	303.39	12.31	-32.2	-32.8	25.3	0.00e+00	0	31	0	2119172096	36	6256
2026-01-11 05:04:45.22	303.57	12.28	-32.2	-32.8	25.2	0.00e+00	0	30	0	2124414976	36	6290
2026-01-11 05:04:46.23	303.76	12.25	-32.2	-32.9	25.2	0.00e+00	0	30	0	2130706432	36	6372
2026-01-11 05:04:47.24	303.94	12.22	-32.2	-32.9	25.2	0.00e+00	0	30	0	2135949312	36	6346
2026-01-11 05:04:48.25	304.13	12.19	-32.2	-32.8	25.2	0.00e+00	0	30	0	2141192192	36	6312
2026-01-11 05:04:49.26	304.31	12.16	-32.2	-32.8	25.2	0.00e+00	0	31	0	2147483648	36	6313
2026-01-11 05:04:50.26	304.49	12.13	-32.1	-32.7	25.3	0.00e+00	0	31	0	2152726528	36	6189
2026-01-11 05:04:51.27	304.68	12.10	-32.1	-32.8	25.3	0.00e+00	0	31	0	2159017984	36	6278
2026-01-11 05:04:52.29	304.86	12.06	-32.2	-32.8	25.2	0.00e+00	0	30	0	2164260864	36	6306
2026-01-11 05:04:53.29	305.04	12.03	-32.3	-33.0	25.1	0.00e+00	0	31	0	2170552320	36	6441
2026-01-11 05:04:54.30	305.22	12.00	-32.4	-33.1	25.0	0.00e+00	0	30	0	2175795200	36	6522
2026-01-11 05:04:55.31	305.41	11.97	-32.3	-33.0	25.1	0.00e+00	0	31	0	2181038080	36	6431
2026-01-11 05:04:56.32	305.59	11.94	-32.4	-33.0	25.0	0.00e+00	0	30	0	2187329536	36	6464
2026-01-11 05:04:57.33	305.77	11.90	-32.3	-33.0	25.1	0.00e+00	0	31	0	2192572416	36	6392
2026-01-11 05:04:58.34	305.95	11.87	-32.1	-32.9	25.2	0.00e+00	0	31	0	2198863872	36	6327
2026-01-11 05:04:59.35	306.13	11.84	-32.1	-32.7	25.3	0.00e+00	0	31	0	2204106752	36	6203
2026-01-11 05:05:00.36	306.31	11.81	-32.0	-32.7	25.3	0.00e+00	0	31	0	2209349632	36	6230
2026-01-11 05:05:01.37	306.49	11.77	-32.1	-32.7	25.2	0.00e+00	0	31	0	2215641088	36	6207
2026-01-11 05:05:02.38	306.67	11.74	-32.1	-32.8	25.2	0.00e+00	0	30	0	2220883968	36	6301
2026-01-11 05:05:03.39	306.85	11.70	-32.2	-33.0	25.1	0.00e+00	0	30	0	2227175424	36	6393
2026-01-11 05:05:04.40	307.03	11.67	-32.3	-33.0	25.1	0.00e+00	0	30	0	2232418304	36	6447
2026-01-11 05:05:05.40	307.20	11.64	-32.3	-32.9	25.0	0.00e+00	0	31	0	2237661184	36	6356
2026-01-11 05:05:06.41	307.38	11.60	-32.3	-32.9	25.0	0.00e+00	0	31	0	2243952640	36	6390
2026-01-11 05:05:07.42	307.56	11.57	-32.2	-33.0	25.1	0.00e+00	0	31	0	2249195520	36	6401
2026-01-11 05:05:08.43	307.73	11.53	-32.2	-32.8	25.2	0.00e+00	0	31	0	2255486976	36	6302
2026-01-11 05:05:09.44	307.91	11.50	-32.3	-33.0	25.1	0.00e+00	0	31	0	2260729856	36	6397
2026-01-11 05:05:10.45	308.09	11.46	-32.3	-32.9	25.1	0.00e+00	0	31	0	2267021312	36	6363
2026-01-11 05:05:11.46	308.26	11.43	-32.2	-32.9	25.1	0.00e+00	0	31	0	2272264192	36	6324
2026-01-11 05:05:12.47	308.44	11.39	-32.3	-32.9	25.0	0.00e+00	0	31	0	2278555648	36	6360
2026-01-11 05:05:13.48	308.61	11.36	-32.3	-33.0	25.0	0.00e+00	0	31	0	2283798528	36	6394
2026-01-11 05:05:14.49	308.78	11.32	-32.3	-33.1	25.0	0.00e+00	0	30	0	2289041408	36	6480
2026-01-11 05:05:15.50	308.96	11.28	-32.5	-33.1	24.9	0.00e+00	0	31	0	2295332864	36	6509
2026-01-11 05:05:16.51	309.13	11.25	-32.5	-33.1	24.9	0.00e+00	0	31	0	2300575744	36	6522
2026-01-11 05:05:17.52	309.31	11.21	-32.5	-33.2	24.8	0.00e+00	0	30	0	2306867200	36	6575
2026-01-11 05:05:18.53	309.48	11.18	-32.4	-33.0	25.0	0.00e+00	0	31	0	2312110080	36	6454
2026-01-11 05:05:19.54	309.65	11.14	-32.4	-33.1	25.0	0.00e+00	0	31	0	2317352960	36	6533
2026-01-11 05:05:20.55	309.82	11.10	-32.4	-33.1	25.0	0.00e+00	0	31	0	2323644416	36	6511
2026-01-11 05:05:21.55	309.99	11.06	-32.4	-33.2	24.9	0.00e+00	0	31	0	2328887296	36	6549
2026-01-11 05:05:22.56	310.16	11.03	-32.5	-33.3	24.9	0.00e+00	0	31	0	2334130176	36	6632
2026-01-11 05:05:23.57	310.33	10.99	-32.5	-33.2	24.9	0.00e+00	0	31	0	2340421632	36	6548
2026-01-11 05:05:24.58	310.50	10.95	-32.6	-33.3	24.8	0.00e+00	0	31	0	2345664512	36	6654
2026-01-11 05:05:25.59	310.67	10.91	-32.6	-33.2	24.8	0.00e+00	0	31	0	2351955968	36	6576
2026-01-11 05:05:26.60	310.84	10.88	-32.7	-33.3	24.7	0.00e+00	0	31	0	2357198848	36	6672
2026-01-11 05:05:27.61	311.01	10.84	-32.8	-33.5	24.6	0.00e+00	0	31	0	2363490304	38	6060
2026-01-11 05:05:28.62	311.18	10.80	-32.7	-33.4	24.7	0.00e+00	0	31	0	2368733184	38	6019
2026-01-11 05:05:29.63	311.35	10.76	-32.8	-33.4	24.7	0.00e+00	0	31	0	2375024640	38	6032
2026-01-11 05:05:30.64	311.51	10.72	-32.6	-33.3	24.8	0.00e+00	0	31	0	2380267520	38	5931
2026-01-11 05:05:31.65	311.68	10.68	-32.6	-33.2	24.8	0.00e+00	0	31	0	2385510400	38	5875
2026-01-11 05:05:32.66	311.85	10.65	-32.6	-33.2	24.8	0.00e+00	0	31	0	2391801856	38	5879
2026-01-11 05:05:33.67	312.01	10.61	-32.6	-33.2	24.7	0.00e+00	0	31	0	2397044736	38	5868
2026-01-11 05:05:34.68	312.18	10.57	-32.6	-33.3	24.8	0.00e+00	0	31	0	2403336192	38	5930
2026-01-11 05:05:35.69	312.35	10.53	-32.6	-33.2	24.7	0.00e+00	0	31	0	2408579072	38	5892
2026-01-11 05:05:36.70	312.51	10.49	-32.7	-33.3	24.7	0.00e+00	0	31	0	2413821952	38	5960
2026-01-11 05:05:37.72	312.68	10.45	-32.7	-33.3	24.7	0.00e+00	0	31	0	2420113408	38	5950
2026-01-11 05:05:38.72	312.84	10.41	-32.7	-33.4	24.7	0.00e+00	0	31	0	2425356288	38	6000
2026-01-11 05:05:39.73	313.00	10.37	-32.7	-33.3	24.7	0.00e+00	0	31	0	2431647744	38	5951
2026-01-11 05:05:40.74	313.17	10.33	-32.7	-33.4	24.7	0.00e+00	0	31	0	2436890624	38	5984
2026-01-11 05:05:41.75	313.33	10.29	-32.6	-33.4	24.8	0.00e+00	0	31	0	2442133504	38	5967
2026-01-11 05:05:42.76	313.49	10.25	-32.6	-33.2	24.7	0.00e+00	0	31	0	2448424960	38	5879
2026-01-11 05:05:43.76	313.65	10.21	-32.6	-33.2	24.7	0.00e+00	0	31	0	2453667840	38	5895
2026-01-11 05:05:44.77	313.81	10.17	-32.6	-33.3	24.8	0.00e+00	0	31	0	2459959296	38	5934
2026-01-11 05:05:45.78	313.97	10.13	-32.7	-33.3	24.7	0.00e+00	0	31	0	2465202176	38	5917
2026-01-11 05:05:46.79	314.13	10.09	-32.8	-33.6	24.5	0.00e+00	0	31	0	2471493632	38	6118
2026-01-11 05:05:47.79	314.29	10.05	-32.6	-33.3	24.7	0.00e+00	0	31	0	2476736512	38	5932
2026-01-11 05:05:48.80	314.45	10.01	-32.7	-33.4	24.7	0.00e+00	0	31	0	2481979392	38	6012
2026-01-11 05:05:49.81	314.61	9.96	-32.8	-33.4	24.6	0.00e+00	0	31	0	2488270848	38	6018
2026-01-11 05:05:50.82	314.77	9.92	-32.7	-33.5	24.7	0.00e+00	0	31	0	2493513728	38	6061
2026-01-11 05:05:51.83	314.93	9.88	-32.8	-33.4	24.6	0.00e+00	0	31	0	2499805184	38	6016
2026-01-11 05:05:52.84	315.09	9.84	-32.7	-33.5	24.6	0.00e+00	0	31	0	2505048064	38	6035
2026-01-11 05:05:53.85	315.24	9.80	-33.0	-33.7	24.4	0.00e+00	0	31	0	2510290944	38	6212
2026-01-11 05:05:54.86	315.40	9.76	-33.0	-33.7	24.3	0.00e+00	0	31	0	2516582400	38	6197
2026-01-11 05:05:55.87	315.56	9.72	-33.3	-34.0	24.1	0.00e+00	0	31	0	2521825280	38	6455
2026-01-11 05:05:56.88	315.71	9.67	-33.2	-33.9	24.0	0.00e+00	0	31	0	2528116736	38	6383
2026-01-11 05:05:57.89	315.87	9.63	-33.5	-34.2	23.7	0.00e+00	0	31	0	2533359616	38	6611
2026-01-11 05:05:58.90	316.03	9.59	-33.6	-34.3	23.9	0.00e+00	0	31	0	2538602496	38	6635
2026-01-11 05:05:59.91	316.18	9.55	-33.6	-34.3	23.8	0.00e+00	0	31	0	2544893952	38	6673
2026-01-11 05:06:00.92	316.34	9.50	-33.7	-34.5	23.7	0.00e+00	0	31	0	2550136832	38	6835
2026-01-11 05:06:01.93	316.49	9.46	-33.7	-34.4	23.6	0.00e+00	0	31	0	2556428288	40	6025
2026-01-11 05:06:02.94	316.64	9.42	-33.7	-34.4	23.6	0.00e+00	0	31	0	2561671168	40	5989
2026-01-11 05:06:03.95	316.80	9.38	-33.2	-33.9	24.1	0.00e+00	0	31	0	2567962624	40	5676
2026-01-11 05:06:04.96	316.95	9.33	-33.1	-33.8	24.2	0.00e+00	0	31	0	2573205504	40	5607
2026-01-11 05:06:05.97	317.10	9.29	-33.2	-33.8	24.1	0.00e+00	0	31	0	2579496960	40	5614
2026-01-11 05:06:06.98	317.25	9.25	-33.0	-33.8	24.3	0.00e+00	0	31	0	2584739840	40	5585
2026-01-11 05:06:07.99	317.40	9.20	-33.0	-33.7	24.3	0.00e+00	0	31	0	2589982720	40	5558
2026-01-11 05:06:08.99	317.55	9.16	-33.0	-33.8	24.2	0.00e+00	0	31	0	2596274176	40	5603
2026-01-11 05:06:10.00	317.70	9.12	-33.1	-33.8	24.1	0.00e+00	0	31	0	2601517056	40	5569
2026-01-11 05:06:11.01	317.86	9.07	-33.2	-33.8	24.2	0.00e+00	0	31	0	2606759936	40	5628
2026-01-11 05:06:12.03	318.01	9.03	-33.0	-33.6	24.3	0.00e+00	0	31	0	2613051392	40	5480
2026-01-11 05:06:13.03	318.15	8.99	-33.0	-33.6	24.2	0.00e+00	0	31	0	2618294272	40	5501
2026-01-11 05:06:14.04	318.30	8.94	-33.0	-33.7	24.2	0.00e+00	0	31	0	2624585728	40	5533
2026-01-11 05:06:15.06	318.45	8.90	-33.1	-33.8	24.2	0.00e+00	0	31	0	2629828608	40	5606
2026-01-11 05:06:16.07	318.60	8.86	-33.1	-33.7	24.2	0.00e+00	0	31	0	2635071488	40	5552
2026-01-11 05:06:17.07	318.75	8.81	-33.1	-33.8	24.1	0.00e+00	0	31	0	2641362944	40	5621
2026-01-11 05:06:18.08	318.89	8.77	-33.1	-33.8	24.2	0.00e+00	0	31	0	2646605824	40	5591
2026-01-11 05:06:19.10	319.04	8.72	-33.1	-33.7	24.2	0.00e+00	0	31	0	2652897280	40	5556
2026-01-11 05:06:20.10	319.19	8.68	-33.2	-33.8	24.1	0.00e+00	0	31	0	2658140160	40	5606
2026-01-11 05:06:21.11	319.33	8.64	-33.2	-33.9	24.1	0.00e+00	0	31	0	2664431616	40	5687
2026-01-11 05:06:22.12	319.48	8.59	-33.1	-33.7	24.2	0.00e+00	0	31	0	2669674496	40	5547
2026-01-11 05:06:23.13	319.62	8.55	-33.0	-33.7	24.2	0.00e+00	0	31	0	2675965952	40	5545
2026-01-11 05:06:24.14	319.77	8.50	-33.1	-33.8	24.2	0.00e+00	0	31	0	2681208832	40	5621
2026-01-11 05:06:25.15	319.91	8.46	-33.1	-33.7	24.1	0.00e+00	0	31	0	2686451712	40	5523
2026-01-11 05:06:26.16	320.06	8.41	-33.0	-33.6	24.2	0.00e+00	0	31	0	2692743168	40	5475
2026-01-11 05:06:27.18	320.20	8.37	-33.0	-33.7	24.2	0.00e+00	0	31	0	2697986048	40	5535
2026-01-11 05:06:28.18	320.34	8.32	-33.0	-33.7	24.2	0.00e+00	0	31	0	2704277504	40	5545
2026-01-11 05:06:29.20	320.49	8.28	-33.0	-33.7	24.1	0.00e+00	0	31	0	2709520384	40	5552
2026-01-11 05:06:30.21	320.63	8.23	-33.0	-33.6	24.1	0.00e+00	0	31	0	2714763264	40	5462
2026-01-11 05:06:31.21	320.77	8.19	-33.2	-33.8	24.0	0.00e+00	0	31	0	2721054720	40	5617
2026-01-11 05:06:32.22	320.91	8.14	-33.0	-33.8	24.1	0.00e+00	0	31	0	2726297600	40	5605
2026-01-11 05:06:33.23	321.05	8.10	-33.2	-34.0	23.9	0.00e+00	0	31	0	2732589056	40	5733
2026-01-11 05:06:34.24	321.19	8.05	-33.4	-34.1	23.8	0.00e+00	0	31	0	2737831936	40	5819
2026-01-11 05:06:35.25	321.33	8.01	-33.4	-34.2	23.6	0.00e+00	0	31	0	2743074816	40	5841
2026-01-11 05:06:36.26	321.47	7.96	-33.5	-34.2	23.4	0.00e+00	0	31	0	2749366272	40	5860
2026-01-11 05:06:37.27	321.61	7.92	-33.6	-34.5	23.4	0.00e+00	0	31	0	2754609152	40	6045
2026-01-11 05:06:38.28	321.75	7.87	-33.6	-34.3	23.5	0.00e+00	0	31	0	2760900608	40	5951
2026-01-11 05:06:39.29	321.89	7.83	-33.7	-34.5	23.4	0.00e+00	0	31	0	2766143488	40	6097
2026-01-11 05:06:40.30	322.02	7.78	-33.7	-34.4	23.4	0.00e+00	0	31	0	2772434944	40	5984
2026-01-11 05:06:41.31	322.16	7.74	-33.5	-34.2	23.6	0.00e+00	0	31	0	2777677824	40	5868
2026-01-11 05:06:42.32	322.30	7.69	-33.5	-34.2	23.5	0.00e+00	0	31	0	2783969280	40	5861
2026-01-11 05:06:43.33	322.43	7.64	-33.5	-34.3	23.7	0.00e+00	0	31	0	2789212160	40	5930
2026-01-11 05:06:44.33	322.57	7.60	-33.4	-34.1	23.4	0.00e+00	0	31	0	2794455040	40	5795
2026-01-11 05:06:45.34	322.71	7.55	-33.5	-34.2	23.5	0.00e+00	0	31	0	2800746496	40	5850
2026-01-11 05:06:46.35	322.84	7.51	-33.5	-34.3	23.6	0.00e+00	0	31	0	2805989376	40	5918
2026-01-11 05:06:47.36	322.98	7.46	-33.5	-34.2	23.6	0.00e+00	0	31	0	2811232256	40	5834
2026-01-11 05:06:48.37	323.11	7.41	-33.6	-34.3	23.5	0.00e+00	0	30	0	2817523712	40	5964
2026-01-11 05:06:49.38	323.24	7.37	-33.6	-34.4	23.4	0.00e+00	0	31	0	2822766592	40	6005
2026-01-11 05:06:50.39	323.38	7.32	-33.8	-34.6	23.2	0.00e+00	0	31	0	2829058048	40	6123
2026-01-11 05:06:51.40	323.51	7.28	-33.8	-34.6	23.3	0.00e+00	0	31	0	2834300928	40	6113
2026-01-11 05:06:52.41	323.64	7.23	-33.8	-34.5	23.3	0.00e+00	0	30	0	2839543808	40	6053
2026-01-11 05:06:53.42	323.78	7.18	-33.8	-34.5	23.3	0.00e+00	0	31	0	2845835264	40	6093
2026-01-11 05:06:54.43	323.91	7.14	-33.9	-34.5	23.3	0.00e+00	0	30	0	2851078144	40	6089
2026-01-11 05:06:55.43	324.04	7.09	-33.9	-34.6	23.2	0.00e+00	0	30	0	2857369600	40	6112
2026-01-11 05:06:56.44	324.17	7.05	-33.8	-34.5	23.3	0.00e+00	0	31	0	2862612480	40	6058
2026-01-11 05:06:57.45	324.30	7.00	-33.8	-34.5	23.3	0.00e+00	0	30	0	2868903936	40	6069
2026-01-11 05:06:58.46	324.43	6.95	-33.8	-34.5	23.3	0.00e+00	0	31	0	2874146816	40	6096
2026-01-11 05:06:59.47	324.56	6.91	-33.9	-34.6	23.2	0.00e+00	0	31	0	2880438272	40	6125
2026-01-11 05:07:00.48	324.69	6.86	-33.8	-34.5	23.3	0.00e+00	0	30	0	2885681152	40	6044
2026-01-11 05:07:01.49	324.82	6.81	-33.9	-34.7	23.1	0.00e+00	0	30	0	2890924032	40	6240
2026-01-11 05:07:02.50	324.95	6.77	-33.9	-34.8	23.1	0.00e+00	0	30	0	2897215488	40	6254
2026-01-11 05:07:03.51	325.08	6.72	-33.9	-34.6	23.2	0.00e+00	0	30	0	2902458368	40	6126
2026-01-11 05:07:04.52	325.21	6.67	-33.9	-34.7	23.2	0.00e+00	0	30	0	2908749824	40	6182
2026-01-11 05:07:05.53	325.33	6.63	-33.9	-34.6	23.2	0.00e+00	0	30	0	2913992704	40	6132
2026-01-11 05:07:06.54	325.46	6.58	-34.0	-34.7	23.1	0.00e+00	0	30	0	2919235584	40	6239
2026-01-11 05:07:07.55	325.59	6.53	-33.8	-34.6	23.2	0.00e+00	0	30	0	2925527040	40	6112
2026-01-11 05:07:08.57	325.72	6.49	-33.8	-34.6	23.2	0.00e+00	0	30	0	2930769920	40	6108
2026-01-11 05:07:09.58	325.84	6.44	-33.9	-34.6	23.2	0.00e+00	0	30	0	2937061376	40	6134
2026-01-11 05:07:10.59	325.97	6.39	-33.8	-34.5	23.2	0.00e+00	0	30	0	2942304256	40	6078
2026-01-11 05:07:11.60	326.09	6.35	-33.9	-34.6	23.1	0.00e+00	0	30	0	2947547136	40	6142
2026-01-11 05:07:12.61	326.22	6.30	-33.9	-34.6	23.1	0.00e+00	0	30	0	2953838592	40	6157
2026-01-11 05:07:13.62	326.34	6.25	-33.9	-34.6	23.1	0.00e+00	0	30	0	2959081472	40	6108
2026-01-11 05:07:14.63	326.47	6.21	-34.0	-34.7	23.1	0.00e+00	0	30	0	2965372928	40	6198
2026-01-11 05:07:15.64	326.59	6.16	-33.9	-34.7	23.1	0.00e+00	0	30	0	2970615808	40	6201
2026-01-11 05:07:16.65	326.71	6.11	-34.0	-34.8	22.9	0.00e+00	0	30	0	2976907264	40	6317
2026-01-11 05:07:17.66	326.84	6.06	-34.0	-34.7	22.9	0.00e+00	0	30	0	2982150144	40	6216
2026-01-11 05:07:18.67	326.96	6.02	-34.0	-34.8	23.0	0.00e+00	0	30	0	2988441600	40	6269
2026-01-11 05:07:19.67	327.08	5.97	-34.2	-35.1	22.7	0.00e+00	0	30	0	2993684480	40	6485
2026-01-11 05:07:20.69	327.20	5.92	-34.2	-35.0	22.8	0.00e+00	0	30	0	2998927360	40	6414
2026-01-11 05:07:21.70	327.33	5.88	-34.3	-35.1	22.6	0.00e+00	0	30	0	3005218816	40	6538
2026-01-11 05:07:22.71	327.45	5.83	-34.3	-35.1	22.6	0.00e+00	0	30	0	3010461696	40	6478
2026-01-11 05:07:23.72	327.57	5.78	-34.4	-35.1	22.5	0.00e+00	0	30	0	3015704576	40	6537
2026-01-11 05:07:24.73	327.69	5.73	-34.3	-35.2	22.6	0.00e+00	0	30	0	3021996032	40	6547
2026-01-11 05:07:25.73	327.81	5.69	-34.3	-35.1	22.6	0.00e+00	0	30	0	3027238912	40	6479
2026-01-11 05:07:26.74	327.93	5.64	-34.4	-35.2	22.6	0.00e+00	0	30	0	3033530368	40	6559
2026-01-11 05:07:27.75	328.05	5.59	-34.5	-35.3	22.4	0.00e+00	0	30	0	3038773248	40	6664
2026-01-11 05:07:28.76	328.17	5.55	-34.4	-35.2	22.5	0.00e+00	0	30	0	3044016128	40	6542
2026-01-11 05:07:29.77	328.28	5.50	-34.4	-35.1	22.5	0.00e+00	0	30	0	3050307584	40	6529
2026-01-11 05:07:30.78	328.40	5.45	-34.6	-35.3	22.4	0.00e+00	0	30	0	3055550464	40	6692
2026-01-11 05:07:31.79	328.52	5.40	-34.5	-35.2	22.4	0.00e+00	0	30	0	3061841920	40	6581
2026-01-11 05:07:32.80	328.64	5.36	-34.4	-35.2	22.4	0.00e+00	0	30	0	3067084800	40	6541
2026-01-11 05:07:33.81	328.76	5.31	-34.5	-35.2	22.4	0.00e+00	0	30	0	3073376256	40	6567
2026-01-11 05:07:34.82	328.87	5.26	-34.4	-35.2	22.6	0.00e+00	0	30	0	3078619136	40	6550
2026-01-11 05:07:35.83	328.99	5.22	-34.4	-35.1	22.4	0.00e+00	0	30	0	3084910592	40	6489
2026-01-11 05:07:36.84	329.10	5.17	-34.2	-34.9	22.6	0.00e+00	0	30	0	3090153472	40	6376
2026-01-11 05:07:37.85	329.22	5.12	-34.4	-35.1	22.4	0.00e+00	0	30	0	3095396352	40	6526
2026-01-11 05:07:38.85	329.33	5.07	-34.4	-35.3	22.4	0.00e+00	0	30	0	3101687808	40	6636
2026-01-11 05:07:39.86	329.45	5.03	-34.5	-35.3	22.3	0.00e+00	0	30	0	3106930688	40	6633
2026-01-11 05:07:40.87	329.56	4.98	-34.6	-35.3	22.2	0.00e+00	0	30	0	3113222144	40	6635
2026-01-11 05:07:41.88	329.68	4.93	-34.6	-35.3	22.1	0.00e+00	0	30	0	3118465024	40	6667
2026-01-11 05:07:42.89	329.79	4.88	-34.7	-35.5	22.1	0.00e+00	0	30	0	3123707904	40	6810
2026-01-11 05:07:43.90	329.91	4.84	-34.8	-35.5	21.9	0.00e+00	0	30	0	3129999360	40	6823
2026-01-11 05:07:44.91	330.02	4.79	-34.7	-35.6	22.0	0.00e+00	0	30	0	3135242240	42	6142
2026-01-11 05:07:45.92	330.13	4.74	-34.9	-35.7	21.9	0.00e+00	0	30	0	3141533696	42	6235
2026-01-11 05:07:46.93	330.24	4.70	-34.8	-35.5	21.9	0.00e+00	0	30	0	3146776576	42	6097
2026-01-11 05:07:47.95	330.36	4.65	-34.7	-35.5	22.0	0.00e+00	0	30	0	3152019456	42	6039
2026-01-11 05:07:48.96	330.47	4.60	-34.9	-35.7	21.8	0.00e+00	0	30	0	3158310912	42	6194
2026-01-11 05:07:49.97	330.58	4.55	-35.0	-35.8	21.7	0.00e+00	0	30	0	3163553792	42	6292
2026-01-11 05:07:50.97	330.69	4.51	-34.9	-35.7	21.7	0.00e+00	0	30	0	3169845248	42	6223
2026-01-11 05:07:51.99	330.80	4.46	-34.9	-35.8	21.7	0.00e+00	0	30	0	3175088128	42	6275
2026-01-11 05:07:52.99	330.91	4.41	-35.2	-36.0	21.4	0.00e+00	0	30	0	3181379584	42	6399
2026-01-11 05:07:54.00	331.02	4.36	-35.2	-36.0	21.4	0.00e+00	0	30	0	3186622464	42	6457
2026-01-11 05:07:55.02	331.13	4.32	-35.2	-36.1	21.3	0.00e+00	0	30	0	3191865344	42	6495
2026-01-11 05:07:56.03	331.24	4.27	-35.3	-36.1	21.1	0.00e+00	0	30	0	3198156800	42	6535
2026-01-11 05:07:57.03	331.35	4.22	-35.6	-36.4	20.8	0.00e+00	0	30	0	3203399680	42	6765
2026-01-11 05:07:58.04	331.46	4.17	-35.9	-36.8	20.3	0.00e+00	0	30	0	3209691136	44	6283
2026-01-11 05:07:59.06	331.57	4.13	-36.1	-37.1	19.8	0.00e+00	0	30	0	3214934016	44	6512
2026-01-11 05:08:00.07	331.68	4.08	-36.6	-37.6	19.0	0.00e+00	0	30	0	3220176896	44	6853
2026-01-11 05:08:01.08	331.78	4.03	-37.6	-38.7	17.7	0.00e+00	0	30	0	3226468352	46	6981
2026-01-11 05:08:02.09	331.89	3.98	-37.9	-39.1	17.1	0.00e+00	0	30	0	3231711232	48	6503
2026-01-11 05:08:03.09	332.00	3.94	-38.5	-40.0	15.9	0.00e+00	0	30	0	3238002688	48	7195
2026-01-11 05:08:04.10	332.10	3.89	-38.9	-40.6	14.9	0.00e+00	0	30	0	3243245568	50	6857
2026-01-11 05:08:05.11	332.21	3.84	-39.9	-41.9	13.1	6.80e-06	0	30	0	3248488448	52	7170
2026-01-11 05:08:06.12	332.32	3.80	-40.7	-43.5	11.0	9.27e-04	0	30	0	3254779904	52	8610
2026-01-11 05:08:07.13	332.42	3.75	-41.2	-44.7	9.2	8.34e-03	0	30	0	3260022784	54	8803
2026-01-11 05:08:08.14	332.53	3.70	-41.6	-45.8	7.3	7.95e-02	0	30	0	3266314240	54	10004
2026-01-11 05:08:09.15	332.63	3.65	-42.1	-47.3	5.7	2.79e-01	0	30	0	3271557120	56	10578
2026-01-11 05:08:10.16	332.74	3.61	-42.4	-48.5	4.5	7.80e-01	0	30	0	3273654272	56	12170
2026-01-11 05:08:11.17	332.84	3.56	-42.5	-50.0	3.7	8.31e-01	0	30	0	3273654272	56	14451
2026-01-11 05:08:12.18	332.95	3.51	-42.6	-52.7	3.6	8.43e-01	0	30	104	3273654272	56	19540
2026-01-11 05:08:13.20	333.05	3.46	-42.6	-53.4	3.6	8.45e-01	0	30	104	3273654272	56	21330
2026-01-11 05:08:14.20	333.15	3.42	-42.7	-53.9	3.6	8.44e-01	0	30	104	3273654272	56	22438
2026-01-11 05:08:15.22	333.26	3.37	-42.7	-54.2	3.6	8.45e-01	0	30	104	3273654272	56	23324
2026-01-11 05:08:16.22	333.36	3.32	-42.7	-54.4	3.5	8.46e-01	0	30	104	3273654272	56	23775
2026-01-11 05:08:17.23	333.46	3.27	-42.7	-54.5	3.6	8.46e-01	0	30	104	3273654272	56	24250
2026-01-11 05:08:18.24	333.57	3.23	-42.7	-54.7	3.6	8.45e-01	0	30	104	3273654272	58	21958
2026-01-11 05:08:19.25	333.67	3.18	-42.7	-54.6	3.6	8.46e-01	0	30	104	3273654272	58	21896
2026-01-11 05:08:20.26	333.77	3.13	-42.7	-54.6	3.6	8.46e-01	0	30	104	3273654272	58	21800
2026-01-11 05:08:21.27	333.87	3.09	-42.7	-54.7	3.5	8.45e-01	0	30	104	3273654272	58	21992
