passes_logs/2026/01/11/R4.6S_Anadyr/R4.6S_Anadyr__20260111_153007_NOAA_21_JPSS-2_rec.log

#Pass ID: 20260111_153007_NOAA 21 (JPSS-2)
#Satellite: NOAA 21 (JPSS-2)
#Configuration: NOAA-21
#almurnet v.1.7.20251203
#Start time: 2026-01-11 15:30:09

#Version: 2.2.20231116
#Station: R4.6S_Anadyr
#Location: 177.4865 lon 64.73178 lat
#TLE: 1 54234U 22150A   26010.92456470  .00000095  00000+0  65865-4 0  9991
#TLE: 2 54234  98.7494 311.8737 0000784 316.5119  43.5995 14.19533975164234

#Time	Az	El	Level	Level2	SNR	BER	BlckErr	Temp	State	Recorded	gain1	gain2
2026-01-11 15:30:09.27	22.46	0.12	-48.1	-63.0	3.5	1.51e+00	0	25	0	0	60	51088
2026-01-11 15:30:10.27	22.44	0.18	-48.2	-61.0	3.5	1.52e+00	0	26	104	0	60	39495
2026-01-11 15:30:11.29	22.43	0.24	-48.1	-61.0	3.5	1.52e+00	0	26	104	0	60	39580
2026-01-11 15:30:12.30	22.41	0.30	-48.2	-61.0	3.5	1.52e+00	0	26	104	0	60	39571
2026-01-11 15:30:13.30	22.39	0.36	-48.2	-61.1	3.5	1.52e+00	0	26	104	0	60	39914
2026-01-11 15:30:14.31	22.37	0.42	-48.2	-61.1	3.5	1.52e+00	0	26	104	0	60	40061
2026-01-11 15:30:15.32	22.36	0.48	-48.3	-61.1	3.5	1.52e+00	0	26	104	0	60	40029
2026-01-11 15:30:16.33	22.34	0.55	-48.3	-61.1	3.5	1.52e+00	0	26	104	0	60	39805
2026-01-11 15:30:17.34	22.32	0.61	-48.2	-61.0	3.5	1.52e+00	0	26	104	0	60	39226
2026-01-11 15:30:18.35	22.30	0.67	-48.1	-61.0	3.5	1.52e+00	0	26	104	0	60	39239
2026-01-11 15:30:19.36	22.28	0.73	-47.9	-60.8	3.5	1.52e+00	0	26	104	0	60	38521
2026-01-11 15:30:20.37	22.27	0.79	-47.8	-60.7	3.5	1.52e+00	0	26	104	0	60	37969
2026-01-11 15:30:21.38	22.25	0.85	-47.4	-60.5	3.5	1.52e+00	0	26	104	0	60	37192
2026-01-11 15:30:22.39	22.23	0.91	-47.5	-60.3	3.5	1.52e+00	0	26	104	0	60	36444
2026-01-11 15:30:23.40	22.21	0.97	-47.3	-60.1	3.5	1.52e+00	0	26	104	0	60	35553
2026-01-11 15:30:24.41	22.19	1.04	-46.9	-59.8	3.5	1.52e+00	0	26	104	0	60	34224
2026-01-11 15:30:25.42	22.17	1.10	-46.7	-59.6	3.5	1.51e+00	0	26	104	0	60	33359
2026-01-11 15:30:26.43	22.16	1.16	-46.7	-59.6	3.5	1.52e+00	0	27	104	0	60	33378
2026-01-11 15:30:27.44	22.14	1.22	-46.7	-59.6	3.5	1.52e+00	0	26	104	0	60	33339
2026-01-11 15:30:28.45	22.12	1.28	-46.7	-59.5	3.5	1.52e+00	0	26	104	0	60	33071
2026-01-11 15:30:29.46	22.10	1.35	-46.7	-59.5	3.5	1.52e+00	0	26	104	0	60	33114
2026-01-11 15:30:30.47	22.08	1.41	-46.7	-59.5	3.5	1.51e+00	0	27	104	0	60	33112
2026-01-11 15:30:31.49	22.06	1.47	-46.7	-59.4	3.5	1.52e+00	0	27	104	0	60	32867
2026-01-11 15:30:32.50	22.04	1.53	-46.7	-59.4	3.5	1.52e+00	0	26	104	0	60	32623
2026-01-11 15:30:33.50	22.02	1.60	-46.6	-59.2	3.5	1.51e+00	0	27	104	0	60	32088
2026-01-11 15:30:34.51	22.00	1.66	-46.6	-59.2	3.5	1.52e+00	0	27	104	0	60	31859
2026-01-11 15:30:35.53	21.98	1.72	-46.6	-59.0	3.5	1.52e+00	0	27	104	0	60	31355
2026-01-11 15:30:36.54	21.96	1.79	-46.6	-59.0	3.5	1.52e+00	0	27	104	0	60	31371
2026-01-11 15:30:37.55	21.94	1.85	-46.6	-59.1	3.5	1.52e+00	0	27	104	0	60	31739
2026-01-11 15:30:38.55	21.92	1.91	-46.6	-59.3	3.5	1.52e+00	0	27	104	0	60	32260
2026-01-11 15:30:39.57	21.90	1.98	-46.6	-59.3	3.5	1.52e+00	0	27	104	0	60	32479
2026-01-11 15:30:40.58	21.88	2.04	-46.6	-59.4	3.5	1.52e+00	0	27	104	0	60	32779
2026-01-11 15:30:41.58	21.86	2.10	-46.6	-59.5	3.5	1.52e+00	0	27	104	0	60	33078
2026-01-11 15:30:42.59	21.84	2.17	-46.6	-59.5	3.5	1.51e+00	0	27	104	0	60	33090
2026-01-11 15:30:43.60	21.82	2.23	-46.6	-59.3	3.5	1.52e+00	0	27	104	0	60	32510
2026-01-11 15:30:44.62	21.80	2.30	-46.6	-59.3	3.5	1.52e+00	0	27	104	0	60	32434
2026-01-11 15:30:45.62	21.78	2.36	-46.6	-59.2	3.5	1.52e+00	0	27	104	0	60	31896
2026-01-11 15:30:46.63	21.76	2.42	-46.6	-58.8	3.5	1.52e+00	0	27	104	0	60	30574
2026-01-11 15:30:47.64	21.74	2.49	-46.6	-58.8	3.5	1.51e+00	0	27	104	0	60	30443
2026-01-11 15:30:48.65	21.72	2.55	-46.6	-58.4	3.5	1.51e+00	0	27	104	0	60	29208
2026-01-11 15:30:49.66	21.70	2.62	-46.5	-58.0	3.5	1.51e+00	0	27	104	0	60	27872
2026-01-11 15:30:50.67	21.68	2.68	-46.5	-57.9	3.5	1.51e+00	0	27	104	0	60	27603
2026-01-11 15:30:51.68	21.66	2.75	-46.6	-58.2	3.5	1.51e+00	0	27	104	0	60	28610
2026-01-11 15:30:52.69	21.63	2.81	-46.5	-58.2	3.5	1.51e+00	0	27	104	0	60	28396
2026-01-11 15:30:53.70	21.61	2.88	-46.6	-58.3	3.5	1.51e+00	0	27	104	0	60	28985
2026-01-11 15:30:54.71	21.59	2.95	-46.6	-58.5	3.5	1.51e+00	0	27	104	0	60	29653
2026-01-11 15:30:55.72	21.57	3.01	-46.5	-57.6	3.5	1.51e+00	0	27	104	0	60	26635
2026-01-11 15:30:56.73	21.55	3.08	-46.2	-55.3	4.5	1.51e+00	20	27	104	0	60	20493
2026-01-11 15:30:57.74	21.53	3.14	-45.6	-51.2	6.8	3.05e-01	123	27	0	1048576	60	12780
2026-01-11 15:30:58.75	21.50	3.21	-44.8	-49.1	9.0	3.49e-02	121	27	0	4194304	60	9959
2026-01-11 15:30:59.76	21.48	3.28	-44.2	-47.9	10.5	5.49e-03	120	27	0	7340032	60	8746
2026-01-11 15:31:00.77	21.46	3.34	-43.3	-46.2	12.6	3.81e-04	122	27	0	10485760	60	7202
2026-01-11 15:31:01.78	21.44	3.41	-42.9	-45.7	13.0	6.79e-05	123	27	0	13631488	60	6783
2026-01-11 15:31:02.79	21.41	3.48	-42.4	-44.9	13.8	9.90e-06	123	27	0	16777216	58	6887
2026-01-11 15:31:03.80	21.39	3.54	-41.8	-44.1	14.6	0.00e+00	123	27	0	19922944	58	6286
2026-01-11 15:31:04.81	21.37	3.61	-42.1	-44.5	14.2	0.00e+00	123	27	0	23068672	56	7398
2026-01-11 15:31:05.82	21.35	3.68	-42.2	-44.6	14.2	2.20e-06	122	27	0	26214400	56	7476
2026-01-11 15:31:06.83	21.32	3.75	-42.4	-44.9	13.8	3.80e-06	123	27	0	29360128	56	7777
2026-01-11 15:31:07.84	21.30	3.81	-45.3	-50.4	7.2	3.43e-03	123	27	0	32505856	60	11681
2026-01-11 15:31:08.85	21.28	3.88	-45.3	-50.2	8.2	1.01e-01	122	27	0	35651584	60	11324
2026-01-11 15:31:09.86	21.25	3.95	-46.4	-55.8	3.5	5.06e-01	0	27	104	38797312	60	21665
2026-01-11 15:31:10.86	21.23	4.02	-37.2	-38.8	5.2	1.43e+00	0	27	104	38797312	48	6071
2026-01-11 15:31:11.87	21.21	4.09	-46.7	-58.9	3.5	2.74e-02	0	27	104	38797312	60	30874
2026-01-11 15:31:12.88	21.18	4.15	-37.8	-39.1	20.1	1.15e-02	123	27	0	38797312	50	5616
2026-01-11 15:31:13.89	21.16	4.22	-37.2	-38.4	20.3	0.00e+00	121	27	0	41943040	48	5798
2026-01-11 15:31:14.90	21.13	4.29	-37.1	-38.3	20.3	0.00e+00	123	27	0	45088768	48	5763
2026-01-11 15:31:15.91	21.11	4.36	-37.0	-38.2	20.6	0.00e+00	120	27	0	48234496	48	5664
2026-01-11 15:31:16.92	21.09	4.43	-37.0	-38.1	20.5	0.00e+00	123	27	0	51380224	48	5653
2026-01-11 15:31:17.93	21.06	4.50	-36.9	-38.1	20.5	0.00e+00	120	27	0	54525952	48	5624
2026-01-11 15:31:18.94	21.04	4.57	-36.9	-38.1	20.6	0.00e+00	122	27	0	57671680	46	6325
2026-01-11 15:31:19.95	21.01	4.64	-37.0	-38.1	20.5	0.00e+00	120	27	0	60817408	46	6338
2026-01-11 15:31:20.96	20.99	4.71	-36.9	-38.0	20.7	0.00e+00	123	27	0	63963136	46	6247
2026-01-11 15:31:21.97	20.96	4.78	-36.9	-38.1	20.6	0.00e+00	122	27	0	67108864	46	6311
2026-01-11 15:31:22.98	20.94	4.85	-36.8	-38.0	20.7	0.00e+00	123	27	0	70254592	46	6221
2026-01-11 15:31:23.99	20.91	4.92	-36.9	-38.0	20.7	0.00e+00	123	27	0	73400320	46	6238
2026-01-11 15:31:25.00	20.89	4.99	-36.9	-38.0	20.7	0.00e+00	123	27	0	76546048	46	6265
2026-01-11 15:31:26.01	20.86	5.06	-36.8	-37.9	20.8	0.00e+00	122	27	0	79691776	46	6159
2026-01-11 15:31:27.02	20.83	5.13	-36.9	-38.0	20.8	0.00e+00	123	27	0	82837504	46	6248
2026-01-11 15:31:28.02	20.81	5.20	-36.8	-37.9	20.8	0.00e+00	120	27	0	85983232	46	6174
2026-01-11 15:31:29.04	20.78	5.28	-36.7	-37.8	21.0	0.00e+00	123	27	0	89128960	46	6100
2026-01-11 15:31:30.05	20.76	5.35	-36.7	-37.8	21.0	0.00e+00	122	27	0	92274688	46	6117
2026-01-11 15:31:31.06	20.73	5.42	-36.8	-37.9	20.8	0.00e+00	123	27	0	95420416	46	6187
2026-01-11 15:31:32.06	20.70	5.49	-36.6	-37.7	21.0	0.00e+00	123	27	0	98566144	46	6045
2026-01-11 15:31:33.07	20.68	5.56	-36.5	-37.7	21.1	0.00e+00	122	27	0	101711872	46	5995
2026-01-11 15:31:34.08	20.65	5.63	-36.6	-37.7	21.0	0.00e+00	123	27	0	104857600	46	6050
2026-01-11 15:31:35.10	20.62	5.71	-36.5	-37.6	21.2	0.00e+00	121	27	0	108003328	46	5947
2026-01-11 15:31:36.10	20.60	5.78	-36.5	-37.6	21.1	0.00e+00	122	27	0	111149056	46	5968
2026-01-11 15:31:37.11	20.57	5.85	-36.5	-37.6	21.2	0.00e+00	120	27	0	114294784	46	5945
2026-01-11 15:31:38.12	20.54	5.93	-36.6	-37.8	21.1	0.00e+00	123	27	0	117440512	46	6065
2026-01-11 15:31:39.13	20.51	6.00	-36.5	-37.6	21.2	0.00e+00	123	27	0	120586240	46	5979
2026-01-11 15:31:40.14	20.48	6.07	-36.5	-37.6	21.3	0.00e+00	122	27	0	123731968	46	5965
2026-01-11 15:31:41.15	20.46	6.15	-36.3	-37.4	21.4	0.00e+00	122	27	0	126877696	46	5828
2026-01-11 15:31:42.16	20.43	6.22	-36.4	-37.5	21.3	0.00e+00	123	27	0	130023424	46	5874
2026-01-11 15:31:43.17	20.40	6.29	-36.3	-37.3	21.5	0.00e+00	120	27	0	133169152	46	5787
2026-01-11 15:31:44.18	20.37	6.37	-36.3	-37.4	21.4	0.00e+00	120	27	0	136314880	46	5816
2026-01-11 15:31:45.19	20.34	6.44	-36.1	-37.1	21.6	0.00e+00	122	27	0	139460608	46	5658
2026-01-11 15:31:46.20	20.31	6.52	-36.1	-37.2	21.6	0.00e+00	122	27	0	142606336	46	5690
2026-01-11 15:31:47.21	20.29	6.59	-36.1	-37.2	21.6	0.00e+00	122	27	0	145752064	46	5676
2026-01-11 15:31:48.22	20.26	6.67	-36.1	-37.1	21.7	0.00e+00	120	27	0	148897792	46	5652
2026-01-11 15:31:49.23	20.23	6.74	-36.0	-37.1	21.7	0.00e+00	123	27	0	152043520	46	5603
2026-01-11 15:31:50.24	20.20	6.82	-36.1	-37.1	21.7	0.00e+00	122	27	0	155189248	46	5642
2026-01-11 15:31:51.26	20.17	6.90	-36.1	-37.2	21.6	0.00e+00	123	27	0	158334976	46	5672
2026-01-11 15:31:52.27	20.14	6.97	-36.1	-37.1	21.7	0.00e+00	120	27	0	161480704	46	5638
2026-01-11 15:31:53.28	20.11	7.05	-36.0	-37.1	21.7	0.00e+00	122	27	0	164626432	46	5617
2026-01-11 15:31:54.29	20.08	7.12	-36.0	-37.0	21.8	0.00e+00	120	27	0	167772160	46	5586
2026-01-11 15:31:55.30	20.05	7.20	-35.8	-36.9	21.9	0.00e+00	120	27	0	170917888	46	5486
2026-01-11 15:31:56.31	20.02	7.28	-35.8	-36.8	22.0	0.00e+00	122	27	0	174063616	46	5445
2026-01-11 15:31:57.32	19.99	7.36	-35.9	-37.0	21.8	0.00e+00	122	27	0	177209344	46	5543
2026-01-11 15:31:58.32	19.96	7.43	-35.8	-36.9	21.9	0.00e+00	122	27	0	180355072	46	5495
2026-01-11 15:31:59.34	19.92	7.51	-35.8	-36.8	22.0	0.00e+00	122	27	0	183500800	46	5441
2026-01-11 15:32:00.35	19.89	7.59	-35.8	-36.9	22.0	0.00e+00	122	27	0	186646528	46	5468
2026-01-11 15:32:01.36	19.86	7.67	-35.9	-36.9	21.9	0.00e+00	123	27	0	189792256	46	5505
2026-01-11 15:32:02.37	19.83	7.74	-35.8	-36.9	22.0	0.00e+00	122	27	0	192937984	46	5485
2026-01-11 15:32:03.38	19.80	7.82	-35.6	-36.6	22.2	0.00e+00	123	27	0	196083712	44	5992
2026-01-11 15:32:04.39	19.77	7.90	-35.6	-36.6	22.1	0.00e+00	123	27	0	199229440	44	5968
2026-01-11 15:32:05.40	19.73	7.98	-35.6	-36.6	22.2	0.00e+00	123	27	0	202375168	44	5977
2026-01-11 15:32:06.41	19.70	8.06	-35.6	-36.6	22.2	0.00e+00	120	27	0	205520896	44	5973
2026-01-11 15:32:07.41	19.67	8.14	-35.4	-36.4	22.4	0.00e+00	123	27	0	208666624	44	5851
2026-01-11 15:32:08.42	19.64	8.22	-35.4	-36.4	22.4	0.00e+00	122	27	0	211812352	44	5842
2026-01-11 15:32:09.43	19.60	8.30	-35.4	-36.4	22.4	0.00e+00	123	27	0	214958080	44	5813
2026-01-11 15:32:10.45	19.57	8.38	-35.4	-36.4	22.4	0.00e+00	123	27	0	218103808	44	5829
2026-01-11 15:32:11.46	19.54	8.46	-35.4	-36.4	22.5	0.00e+00	120	27	0	221249536	44	5802
2026-01-11 15:32:12.47	19.50	8.54	-35.4	-36.4	22.5	0.00e+00	122	27	0	224395264	44	5795
2026-01-11 15:32:13.48	19.47	8.62	-35.2	-36.2	22.6	0.00e+00	120	27	0	227540992	44	5702
2026-01-11 15:32:14.49	19.43	8.70	-35.2	-36.2	22.6	0.00e+00	122	27	0	230686720	44	5695
2026-01-11 15:32:15.50	19.40	8.78	-35.1	-36.1	22.7	0.00e+00	121	27	0	233832448	44	5605
2026-01-11 15:32:16.51	19.37	8.86	-35.1	-36.1	22.7	0.00e+00	123	27	0	236978176	44	5646
2026-01-11 15:32:17.52	19.33	8.95	-35.0	-36.0	22.8	0.00e+00	123	27	0	240123904	44	5559
2026-01-11 15:32:18.53	19.30	9.03	-35.0	-36.0	22.8	0.00e+00	123	27	0	243269632	44	5549
2026-01-11 15:32:19.54	19.26	9.11	-35.0	-36.0	22.8	0.00e+00	123	27	0	247463936	44	5547
2026-01-11 15:32:20.55	19.23	9.19	-34.9	-35.8	23.0	0.00e+00	122	27	0	250609664	44	5461
2026-01-11 15:32:21.56	19.19	9.28	-34.9	-35.8	22.9	0.00e+00	122	27	0	252706816	44	5461
2026-01-11 15:32:22.57	19.15	9.36	-34.8	-35.8	23.0	0.00e+00	122	27	0	255852544	44	5440
2026-01-11 15:32:23.58	19.12	9.44	-34.9	-35.9	22.9	0.00e+00	120	27	0	258998272	44	5507
2026-01-11 15:32:24.59	19.08	9.53	-34.8	-35.7	23.1	0.00e+00	123	27	0	263192576	42	6063
2026-01-11 15:32:25.60	19.05	9.61	-34.8	-35.7	23.0	0.00e+00	123	27	0	266338304	42	6062
2026-01-11 15:32:26.61	19.01	9.70	-34.7	-35.7	23.1	0.00e+00	120	27	0	269484032	42	6027
2026-01-11 15:32:27.62	18.97	9.78	-34.6	-35.6	23.2	0.00e+00	122	27	0	272629760	42	5948
2026-01-11 15:32:28.62	18.93	9.86	-34.6	-35.6	23.2	0.00e+00	120	27	0	274726912	42	5939
2026-01-11 15:32:29.64	18.90	9.95	-34.7	-35.6	23.2	0.00e+00	122	27	0	278921216	42	5970
2026-01-11 15:32:30.65	18.86	10.04	-34.8	-35.7	23.1	0.00e+00	123	27	0	282066944	42	6039
2026-01-11 15:32:31.65	18.82	10.12	-34.5	-35.4	23.4	0.00e+00	122	27	0	285212672	42	5848
2026-01-11 15:32:32.67	18.78	10.21	-34.4	-35.4	23.4	0.00e+00	123	27	0	288358400	42	5803
2026-01-11 15:32:33.68	18.74	10.29	-34.4	-35.3	23.4	0.00e+00	122	27	0	291504128	42	5774
2026-01-11 15:32:34.69	18.71	10.38	-34.6	-35.5	23.3	0.00e+00	122	27	0	294649856	42	5896
2026-01-11 15:32:35.70	18.67	10.47	-34.3	-35.2	23.6	0.00e+00	124	27	0	297795584	42	5709
2026-01-11 15:32:36.71	18.63	10.55	-34.4	-35.3	23.4	0.00e+00	122	27	0	300941312	42	5783
2026-01-11 15:32:37.72	18.59	10.64	-34.4	-35.3	23.5	0.00e+00	123	27	0	304087040	42	5753
2026-01-11 15:32:38.73	18.55	10.73	-34.4	-35.3	23.5	0.00e+00	123	27	0	307232768	42	5759
2026-01-11 15:32:39.74	18.51	10.82	-34.2	-35.2	23.6	0.00e+00	123	27	0	310378496	42	5681
2026-01-11 15:32:40.75	18.47	10.91	-34.2	-35.1	23.6	0.00e+00	123	27	0	313524224	42	5654
2026-01-11 15:32:41.76	18.43	10.99	-34.3	-35.2	23.6	0.00e+00	122	27	0	316669952	42	5693
2026-01-11 15:32:42.77	18.39	11.08	-34.4	-35.3	23.5	0.00e+00	123	27	0	319815680	42	5774
2026-01-11 15:32:43.78	18.34	11.17	-34.5	-35.4	23.6	0.00e+00	123	27	0	322961408	42	5821
2026-01-11 15:32:44.79	18.30	11.26	-34.1	-35.0	23.8	0.00e+00	123	27	0	326107136	42	5577
2026-01-11 15:32:45.80	18.26	11.35	-34.1	-35.0	23.8	0.00e+00	122	27	0	329252864	42	5564
2026-01-11 15:32:46.81	18.22	11.44	-34.1	-35.0	23.7	0.00e+00	123	27	0	332398592	42	5581
2026-01-11 15:32:47.82	18.18	11.53	-34.0	-35.0	23.8	0.00e+00	123	27	0	335544320	42	5537
2026-01-11 15:32:48.83	18.14	11.62	-34.0	-34.9	23.8	0.00e+00	122	27	0	338690048	42	5526
2026-01-11 15:32:49.84	18.09	11.71	-34.0	-34.9	23.8	0.00e+00	123	27	0	341835776	42	5529
2026-01-11 15:32:50.85	18.05	11.81	-34.1	-35.0	23.7	0.00e+00	123	27	0	344981504	42	5580
2026-01-11 15:32:51.86	18.01	11.90	-34.0	-34.9	23.8	0.00e+00	122	27	0	348127232	42	5506
2026-01-11 15:32:52.87	17.96	11.99	-34.1	-35.0	23.7	0.00e+00	123	27	0	351272960	42	5589
2026-01-11 15:32:53.88	17.92	12.08	-33.9	-34.8	23.9	0.00e+00	123	27	0	354418688	42	5447
2026-01-11 15:32:54.89	17.87	12.17	-33.9	-34.8	23.9	0.00e+00	123	27	0	357564416	42	5431
2026-01-11 15:32:55.90	17.83	12.27	-34.0	-34.9	23.8	0.00e+00	123	27	0	360710144	42	5484
2026-01-11 15:32:56.91	17.78	12.36	-34.0	-34.9	23.8	0.00e+00	123	27	0	363855872	42	5505
2026-01-11 15:32:57.92	17.74	12.45	-33.9	-34.8	23.9	0.00e+00	122	27	0	367001600	42	5442
2026-01-11 15:32:58.93	17.69	12.55	-34.0	-35.0	23.7	0.00e+00	123	27	0	370147328	42	5536
2026-01-11 15:32:59.94	17.65	12.64	-34.0	-34.9	23.8	0.00e+00	123	27	0	373293056	42	5524
2026-01-11 15:33:00.95	17.60	12.74	-34.0	-34.9	23.7	0.00e+00	123	27	0	376438784	42	5520
2026-01-11 15:33:01.96	17.56	12.83	-33.8	-34.7	23.9	0.00e+00	122	27	0	379584512	42	5377
2026-01-11 15:33:02.97	17.51	12.93	-34.0	-34.9	23.8	0.00e+00	122	27	0	382730240	42	5523
2026-01-11 15:33:03.98	17.46	13.02	-33.9	-34.8	23.9	0.00e+00	123	27	0	385875968	42	5436
2026-01-11 15:33:04.98	17.41	13.12	-33.9	-34.8	23.9	0.00e+00	123	27	0	389021696	42	5448
2026-01-11 15:33:05.99	17.37	13.22	-33.7	-34.7	24.1	0.00e+00	122	27	0	392167424	42	5346
2026-01-11 15:33:07.00	17.32	13.31	-33.7	-34.7	23.9	0.00e+00	122	27	0	395313152	40	6007
2026-01-11 15:33:08.01	17.27	13.41	-33.7	-34.6	24.0	0.00e+00	123	27	0	398458880	40	5952
2026-01-11 15:33:09.02	17.22	13.51	-33.8	-34.7	23.9	0.00e+00	123	27	0	401604608	40	6051
2026-01-11 15:33:10.03	17.17	13.61	-33.7	-34.7	23.9	0.00e+00	120	27	0	404750336	40	6012
2026-01-11 15:33:11.04	17.12	13.70	-33.8	-34.8	23.9	0.00e+00	120	27	0	407896064	40	6080
2026-01-11 15:33:12.05	17.07	13.80	-33.9	-34.9	23.9	0.00e+00	123	27	0	411041792	40	6149
2026-01-11 15:33:13.06	17.02	13.90	-33.7	-34.6	24.0	0.00e+00	123	27	0	414187520	40	5972
2026-01-11 15:33:14.07	16.97	14.00	-33.7	-34.6	24.0	0.00e+00	122	27	0	417333248	40	5984
2026-01-11 15:33:15.08	16.92	14.10	-33.8	-34.8	23.9	0.00e+00	123	27	0	420478976	40	6079
2026-01-11 15:33:16.09	16.87	14.20	-33.8	-34.7	24.0	0.00e+00	122	27	0	423624704	40	6009
2026-01-11 15:33:17.10	16.82	14.30	-33.7	-34.7	24.0	0.00e+00	123	27	0	426770432	40	5997
2026-01-11 15:33:18.11	16.77	14.40	-33.8	-34.8	23.9	0.00e+00	123	27	0	429916160	40	6069
2026-01-11 15:33:19.12	16.71	14.50	-33.8	-34.8	23.9	0.00e+00	123	27	0	433061888	40	6075
2026-01-11 15:33:20.13	16.66	14.61	-33.7	-34.6	24.0	0.00e+00	122	27	0	436207616	40	5987
2026-01-11 15:33:21.14	16.61	14.71	-33.8	-34.7	23.9	0.00e+00	122	27	0	439353344	40	6020
2026-01-11 15:33:22.15	16.55	14.81	-33.7	-34.6	24.0	0.00e+00	123	27	0	442499072	40	5965
2026-01-11 15:33:23.16	16.50	14.91	-33.9	-34.8	23.9	0.00e+00	122	27	0	445644800	40	6089
2026-01-11 15:33:24.17	16.44	15.02	-33.9	-34.8	23.9	0.00e+00	123	27	0	448790528	40	6118
2026-01-11 15:33:25.18	16.39	15.12	-33.8	-34.7	24.0	0.00e+00	122	27	0	451936256	40	6055
2026-01-11 15:33:26.19	16.33	15.23	-33.8	-34.8	24.0	0.00e+00	121	27	0	455081984	40	6085
2026-01-11 15:33:27.20	16.28	15.33	-33.8	-34.8	24.0	0.00e+00	122	27	0	458227712	40	6073
2026-01-11 15:33:28.21	16.22	15.44	-33.9	-34.8	23.9	0.00e+00	123	27	0	461373440	40	6105
2026-01-11 15:33:29.22	16.17	15.54	-33.9	-34.8	24.0	0.00e+00	123	27	0	464519168	40	6086
2026-01-11 15:33:30.23	16.11	15.65	-34.0	-35.0	23.8	0.00e+00	122	27	0	467664896	40	6209
2026-01-11 15:33:31.24	16.05	15.75	-34.1	-35.1	23.9	0.00e+00	121	27	0	470810624	40	6289
2026-01-11 15:33:32.25	15.99	15.86	-33.9	-34.9	24.0	0.00e+00	123	27	0	473956352	40	6156
2026-01-11 15:33:33.26	15.93	15.97	-34.0	-34.9	23.9	0.00e+00	120	27	0	477102080	40	6186
2026-01-11 15:33:34.27	15.88	16.08	-34.1	-35.0	23.8	0.00e+00	123	27	0	480247808	40	6231
2026-01-11 15:33:35.28	15.82	16.18	-34.0	-34.9	23.9	0.00e+00	120	27	0	483393536	40	6187
2026-01-11 15:33:36.29	15.76	16.29	-34.1	-35.0	23.9	0.00e+00	123	27	0	486539264	40	6226
2026-01-11 15:33:37.30	15.70	16.40	-34.0	-35.0	23.9	0.00e+00	123	27	0	489684992	40	6219
2026-01-11 15:33:38.31	15.64	16.51	-34.1	-35.0	23.9	0.00e+00	122	27	0	492830720	40	6270
2026-01-11 15:33:39.32	15.58	16.62	-34.1	-35.1	23.9	0.00e+00	123	27	0	495976448	40	6298
2026-01-11 15:33:40.33	15.51	16.73	-34.2	-35.1	23.8	0.00e+00	122	27	0	499122176	40	6330
2026-01-11 15:33:41.35	15.45	16.84	-34.2	-35.2	23.8	0.00e+00	122	27	0	502267904	40	6364
2026-01-11 15:33:42.35	15.39	16.95	-34.2	-35.1	23.8	0.00e+00	123	27	0	505413632	40	6298
2026-01-11 15:33:43.36	15.33	17.07	-34.1	-35.0	23.9	0.00e+00	120	27	0	508559360	40	6271
2026-01-11 15:33:44.37	15.26	17.18	-34.2	-35.1	23.8	0.00e+00	122	27	0	511705088	40	6311
2026-01-11 15:33:45.38	15.20	17.29	-34.3	-35.2	23.8	0.00e+00	123	27	0	514850816	40	6401
2026-01-11 15:33:46.39	15.13	17.40	-34.2	-35.2	23.8	0.00e+00	122	27	0	517996544	40	6364
2026-01-11 15:33:47.40	15.07	17.52	-34.2	-35.2	23.8	0.00e+00	120	27	0	521142272	40	6364
2026-01-11 15:33:48.41	15.00	17.63	-34.1	-35.0	23.9	0.00e+00	122	27	0	524288000	40	6273
2026-01-11 15:33:49.42	14.94	17.75	-34.2	-35.2	23.8	0.00e+00	123	27	0	527433728	40	6364
2026-01-11 15:33:50.42	14.87	17.86	-34.1	-35.0	23.9	0.00e+00	120	27	0	530579456	40	6277
2026-01-11 15:33:51.43	14.80	17.98	-34.1	-35.0	23.9	0.00e+00	123	27	0	533725184	40	6260
2026-01-11 15:33:52.45	14.74	18.09	-34.1	-35.0	23.9	0.00e+00	123	27	0	536870912	40	6268
2026-01-11 15:33:53.46	14.67	18.21	-34.2	-35.1	23.8	0.00e+00	122	27	0	540016640	40	6327
2026-01-11 15:33:54.47	14.60	18.33	-34.3	-35.2	23.7	0.00e+00	121	27	0	543162368	40	6389
2026-01-11 15:33:55.48	14.53	18.45	-34.2	-35.1	23.9	0.00e+00	123	27	0	546308096	40	6296
2026-01-11 15:33:56.49	14.46	18.56	-34.3	-35.2	23.8	0.00e+00	122	27	0	549453824	40	6373
2026-01-11 15:33:57.50	14.39	18.68	-34.3	-35.2	23.8	0.00e+00	123	27	0	552599552	40	6390
2026-01-11 15:33:58.51	14.32	18.80	-34.0	-34.9	23.9	0.00e+00	123	27	0	555745280	40	6188
2026-01-11 15:33:59.52	14.25	18.92	-34.0	-35.0	23.9	0.00e+00	123	27	0	558891008	40	6211
2026-01-11 15:34:00.53	14.17	19.04	-34.0	-34.9	23.9	0.00e+00	122	27	0	563085312	40	6190
2026-01-11 15:34:01.54	14.10	19.16	-34.0	-35.0	23.9	0.00e+00	128	27	0	566231040	40	6208
2026-01-11 15:34:02.55	14.03	19.29	-34.1	-35.0	23.8	0.00e+00	123	27	0	568328192	40	6229
2026-01-11 15:34:03.56	13.95	19.41	-34.1	-35.0	23.9	0.00e+00	122	27	0	571473920	40	6249
2026-01-11 15:34:04.57	13.88	19.53	-34.0	-35.0	23.9	0.00e+00	121	27	0	574619648	40	6218
2026-01-11 15:34:05.58	13.80	19.65	-34.0	-34.9	23.9	0.00e+00	123	27	0	577765376	40	6196
2026-01-11 15:34:06.59	13.73	19.78	-33.9	-34.8	24.1	0.00e+00	123	27	0	581959680	40	6115
2026-01-11 15:34:07.60	13.65	19.90	-33.9	-34.8	24.1	0.00e+00	122	27	0	585105408	40	6131
2026-01-11 15:34:08.61	13.57	20.03	-33.9	-34.8	24.1	0.00e+00	123	27	0	588251136	40	6130
2026-01-11 15:34:09.62	13.50	20.15	-34.0	-34.9	24.1	0.00e+00	123	27	0	591396864	40	6160
2026-01-11 15:34:10.63	13.42	20.28	-34.1	-35.1	23.8	0.00e+00	123	27	0	594542592	40	6283
2026-01-11 15:34:11.65	13.34	20.41	-33.8	-34.8	24.1	0.00e+00	123	27	0	597688320	40	6069
2026-01-11 15:34:12.66	13.26	20.53	-33.9	-34.8	24.1	0.00e+00	123	27	0	600834048	40	6098
2026-01-11 15:34:13.67	13.18	20.66	-33.6	-34.5	24.2	0.00e+00	122	27	0	603979776	40	5904
2026-01-11 15:34:14.68	13.09	20.79	-33.5	-34.4	24.3	0.00e+00	122	27	0	607125504	40	5823
2026-01-11 15:34:15.69	13.01	20.92	-33.3	-34.2	24.4	0.00e+00	120	27	0	610271232	40	5722
2026-01-11 15:34:16.70	12.93	21.05	-33.3	-34.2	24.5	0.00e+00	123	27	0	613416960	40	5674
2026-01-11 15:34:17.71	12.85	21.18	-33.3	-34.3	24.5	0.00e+00	122	27	0	616562688	40	5726
2026-01-11 15:34:18.72	12.76	21.31	-33.1	-34.0	24.5	0.00e+00	122	27	0	619708416	40	5585
2026-01-11 15:34:19.73	12.68	21.44	-33.1	-34.0	24.6	0.00e+00	120	27	0	622854144	40	5540
2026-01-11 15:34:20.74	12.59	21.57	-33.1	-34.0	24.6	0.00e+00	123	27	0	625999872	40	5565
2026-01-11 15:34:21.75	12.50	21.70	-32.9	-33.8	24.7	0.00e+00	123	27	0	629145600	40	5454
2026-01-11 15:34:22.76	12.42	21.84	-32.9	-33.9	24.6	0.00e+00	123	27	0	632291328	40	5468
2026-01-11 15:34:23.77	12.33	21.97	-32.8	-33.7	24.8	0.00e+00	123	27	0	635437056	40	5354
2026-01-11 15:34:24.78	12.24	22.11	-32.9	-33.7	24.7	0.00e+00	120	27	0	638582784	40	5398
2026-01-11 15:34:25.79	12.15	22.24	-32.9	-33.8	24.8	0.00e+00	123	27	0	641728512	40	5437
2026-01-11 15:34:26.81	12.06	22.38	-33.1	-34.0	24.5	0.00e+00	122	27	0	644874240	40	5558
2026-01-11 15:34:27.82	11.97	22.51	-32.9	-33.7	24.8	0.00e+00	123	27	0	648019968	40	5404
2026-01-11 15:34:28.83	11.87	22.65	-32.8	-33.7	24.9	0.00e+00	123	27	0	651165696	40	5345
2026-01-11 15:34:29.84	11.78	22.79	-32.9	-33.8	24.8	0.00e+00	123	27	0	654311424	38	6113
2026-01-11 15:34:30.85	11.69	22.93	-32.7	-33.6	25.0	0.00e+00	123	27	0	657457152	38	5952
2026-01-11 15:34:31.86	11.59	23.07	-32.6	-33.5	25.1	0.00e+00	122	27	0	660602880	38	5875
2026-01-11 15:34:32.87	11.50	23.21	-32.3	-33.2	25.3	0.00e+00	122	27	0	663748608	38	5701
2026-01-11 15:34:33.88	11.40	23.35	-32.5	-33.4	25.2	0.00e+00	123	27	0	666894336	38	5811
2026-01-11 15:34:34.89	11.30	23.49	-32.5	-33.3	25.1	0.00e+00	123	27	0	670040064	38	5785
2026-01-11 15:34:35.90	11.20	23.63	-32.5	-33.4	25.1	0.00e+00	120	27	0	673185792	38	5796
2026-01-11 15:34:36.91	11.10	23.77	-32.5	-33.4	25.1	0.00e+00	122	27	0	676331520	38	5802
2026-01-11 15:34:37.92	11.00	23.91	-32.4	-33.3	25.2	0.00e+00	121	27	0	679477248	38	5750
2026-01-11 15:34:38.93	10.90	24.06	-32.5	-33.4	25.2	0.00e+00	122	27	0	682622976	38	5801
2026-01-11 15:34:39.94	10.80	24.20	-32.5	-33.4	25.1	0.00e+00	122	27	0	685768704	38	5801
2026-01-11 15:34:40.95	10.70	24.35	-32.7	-33.6	24.9	0.00e+00	123	27	0	688914432	38	5931
2026-01-11 15:34:41.96	10.59	24.49	-32.7	-33.6	24.9	0.00e+00	122	27	0	692060160	38	5981
2026-01-11 15:34:42.97	10.49	24.64	-32.8	-33.7	24.8	0.00e+00	123	27	0	695205888	38	6063
2026-01-11 15:34:43.98	10.38	24.79	-32.9	-33.8	24.8	0.00e+00	120	27	0	698351616	38	6095
2026-01-11 15:34:44.99	10.27	24.94	-33.0	-33.9	24.8	0.00e+00	123	27	0	701497344	38	6137
2026-01-11 15:34:46.00	10.16	25.08	-33.0	-33.9	24.8	0.00e+00	123	27	0	704643072	38	6151
2026-01-11 15:34:47.01	10.05	25.23	-33.1	-34.0	24.6	0.00e+00	123	27	0	707788800	38	6246
2026-01-11 15:34:48.02	9.94	25.38	-33.2	-34.1	24.7	0.00e+00	122	27	0	710934528	38	6280
2026-01-11 15:34:49.03	9.83	25.53	-33.2	-34.1	24.7	0.00e+00	122	27	0	714080256	38	6296
2026-01-11 15:34:50.04	9.72	25.69	-33.2	-34.1	24.6	0.00e+00	123	27	0	717225984	38	6340
2026-01-11 15:34:51.05	9.61	25.84	-33.2	-34.1	24.7	0.00e+00	123	27	0	720371712	38	6324
2026-01-11 15:34:52.06	9.49	25.99	-33.4	-34.3	24.6	0.00e+00	123	27	0	723517440	38	6426
2026-01-11 15:34:53.07	9.37	26.15	-33.3	-34.2	24.7	0.00e+00	122	27	0	726663168	38	6364
2026-01-11 15:34:54.08	9.26	26.30	-33.3	-34.2	24.7	0.00e+00	123	27	0	729808896	38	6362
2026-01-11 15:34:55.09	9.14	26.46	-33.4	-34.3	24.6	0.00e+00	123	27	0	732954624	38	6443
2026-01-11 15:34:56.10	9.02	26.61	-33.3	-34.2	24.7	0.00e+00	123	27	0	736100352	38	6380
2026-01-11 15:34:57.11	8.90	26.77	-33.3	-34.2	24.7	0.00e+00	122	27	0	739246080	38	6355
2026-01-11 15:34:58.12	8.78	26.93	-33.3	-34.2	24.7	0.00e+00	123	27	0	742391808	38	6383
2026-01-11 15:34:59.12	8.65	27.08	-33.3	-34.2	24.7	0.00e+00	123	27	0	745537536	38	6398
2026-01-11 15:35:00.14	8.53	27.24	-33.3	-34.2	24.6	0.00e+00	120	27	0	748683264	38	6406
2026-01-11 15:35:01.15	8.40	27.40	-33.5	-34.4	24.5	0.00e+00	123	27	0	751828992	38	6506
2026-01-11 15:35:02.16	8.28	27.56	-33.6	-34.5	24.4	0.00e+00	123	27	0	754974720	38	6593
2026-01-11 15:35:03.17	8.15	27.73	-33.5	-34.4	24.3	0.00e+00	123	27	0	758120448	38	6544
2026-01-11 15:35:04.17	8.02	27.89	-33.7	-34.6	24.2	0.00e+00	123	27	0	761266176	38	6709
2026-01-11 15:35:05.18	7.89	28.05	-33.6	-34.5	24.2	0.00e+00	123	27	0	764411904	38	6619
2026-01-11 15:35:06.19	7.75	28.21	-33.6	-34.5	24.3	0.00e+00	123	27	0	767557632	38	6590
2026-01-11 15:35:07.20	7.62	28.38	-33.5	-34.4	24.4	0.00e+00	123	27	0	770703360	38	6551
2026-01-11 15:35:08.21	7.48	28.54	-33.5	-34.4	24.4	0.00e+00	122	27	0	773849088	38	6564
2026-01-11 15:35:09.22	7.35	28.71	-33.5	-34.4	24.5	0.00e+00	123	27	0	776994816	38	6503
2026-01-11 15:35:10.23	7.21	28.88	-33.6	-34.4	24.5	0.00e+00	120	27	0	780140544	38	6572
2026-01-11 15:35:11.24	7.07	29.05	-33.6	-34.5	24.5	0.00e+00	122	27	0	783286272	38	6578
2026-01-11 15:35:12.25	6.93	29.21	-33.5	-34.3	24.5	0.00e+00	123	27	0	786432000	38	6497
2026-01-11 15:35:13.26	6.78	29.38	-33.5	-34.5	24.3	0.00e+00	122	27	0	789577728	38	6574
2026-01-11 15:35:14.27	6.64	29.55	-33.4	-34.3	24.5	0.00e+00	122	27	0	792723456	38	6487
2026-01-11 15:35:15.28	6.49	29.73	-33.4	-34.3	24.5	0.00e+00	123	27	0	795869184	38	6460
2026-01-11 15:35:16.29	6.35	29.90	-33.4	-34.2	24.5	0.00e+00	123	27	0	799014912	38	6417
2026-01-11 15:35:17.30	6.20	30.07	-33.4	-34.3	24.4	0.00e+00	122	27	0	802160640	38	6439
2026-01-11 15:35:18.31	6.05	30.24	-33.3	-34.2	24.4	0.00e+00	123	27	0	805306368	38	6394
2026-01-11 15:35:19.32	5.89	30.42	-33.5	-34.4	24.3	0.00e+00	122	27	0	808452096	38	6558
2026-01-11 15:35:20.33	5.74	30.59	-33.6	-34.5	24.3	0.00e+00	123	27	0	811597824	38	6618
2026-01-11 15:35:21.34	5.58	30.77	-33.7	-34.6	24.3	0.00e+00	122	27	0	814743552	38	6666
2026-01-11 15:35:22.35	5.43	30.95	-33.9	-34.8	24.2	0.00e+00	122	27	0	817889280	40	6079
2026-01-11 15:35:23.36	5.27	31.12	-33.7	-34.6	24.3	0.00e+00	120	27	0	821035008	40	5981
2026-01-11 15:35:24.37	5.10	31.30	-33.9	-34.8	24.3	0.00e+00	123	27	0	824180736	40	6084
2026-01-11 15:35:25.38	4.94	31.48	-33.6	-34.5	24.5	0.00e+00	122	27	0	827326464	40	5899
2026-01-11 15:35:26.39	4.78	31.66	-33.5	-34.4	24.5	0.00e+00	122	27	0	830472192	40	5812
2026-01-11 15:35:27.40	4.61	31.84	-33.6	-34.5	24.6	0.00e+00	123	27	0	833617920	40	5885
2026-01-11 15:35:28.41	4.44	32.03	-33.6	-34.5	24.4	0.00e+00	122	27	0	836763648	40	5881
2026-01-11 15:35:29.42	4.27	32.21	-33.5	-34.4	24.5	0.00e+00	121	27	0	839909376	40	5851
2026-01-11 15:35:30.43	4.10	32.39	-33.6	-34.5	24.3	0.00e+00	120	27	0	843055104	40	5900
2026-01-11 15:35:31.44	3.92	32.58	-33.7	-34.6	24.3	0.00e+00	122	27	0	846200832	40	5952
2026-01-11 15:35:32.45	3.74	32.76	-33.8	-34.7	24.1	0.00e+00	122	27	0	849346560	40	6026
2026-01-11 15:35:33.45	3.57	32.95	-33.9	-34.8	24.1	0.00e+00	122	27	0	852492288	40	6113
2026-01-11 15:35:34.46	3.39	33.13	-34.0	-35.0	24.1	0.00e+00	120	27	0	855638016	40	6223
2026-01-11 15:35:35.47	3.20	33.32	-34.1	-35.1	24.0	0.00e+00	123	27	0	858783744	40	6288
2026-01-11 15:35:36.48	3.02	33.51	-34.3	-35.2	23.9	0.00e+00	122	27	0	861929472	40	6418
2026-01-11 15:35:37.49	2.83	33.70	-34.2	-35.2	24.0	0.00e+00	123	27	0	865075200	40	6373
2026-01-11 15:35:38.50	2.64	33.89	-34.4	-35.4	23.9	0.00e+00	123	27	0	868220928	40	6518
2026-01-11 15:35:39.51	2.45	34.08	-34.4	-35.4	23.9	0.00e+00	122	27	0	871366656	40	6530
2026-01-11 15:35:40.52	2.25	34.27	-34.5	-35.4	23.8	0.00e+00	123	27	0	874512384	40	6543
2026-01-11 15:35:41.53	2.06	34.46	-34.4	-35.3	23.9	0.00e+00	123	27	0	878706688	40	6451
2026-01-11 15:35:42.50	1.87	34.65	-34.3	-35.2	24.0	0.00e+00	123	27	0	881852416	40	6375
2026-01-11 15:35:43.51	1.66	34.84	-34.5	-35.5	23.7	0.00e+00	122	27	0	883949568	40	6582
2026-01-11 15:35:44.52	1.46	35.04	-34.4	-35.3	23.8	0.00e+00	123	27	0	887095296	40	6465
2026-01-11 15:35:45.53	1.25	35.23	-34.6	-35.5	23.6	0.00e+00	123	27	0	890241024	40	6630
2026-01-11 15:35:46.54	1.05	35.43	-34.6	-35.6	23.6	0.00e+00	123	27	0	893386752	40	6653
2026-01-11 15:35:47.55	0.83	35.63	-34.9	-35.8	23.3	0.00e+00	123	27	0	897581056	42	6125
2026-01-11 15:35:48.56	0.62	35.83	-35.0	-35.9	23.4	0.00e+00	123	27	0	900726784	42	6200
2026-01-11 15:35:49.57	0.40	36.02	-34.9	-35.9	23.3	0.00e+00	120	27	0	903872512	42	6178
2026-01-11 15:35:50.58	0.18	36.22	-34.9	-35.9	23.3	0.00e+00	122	27	0	907018240	42	6175
2026-01-11 15:35:51.59	359.96	36.42	-34.9	-35.9	23.4	0.00e+00	122	27	0	910163968	42	6154
2026-01-11 15:35:52.60	359.74	36.63	-35.0	-36.0	23.4	0.00e+00	122	27	0	913309696	42	6206
2026-01-11 15:35:53.61	359.51	36.83	-35.0	-35.9	23.4	0.00e+00	122	27	0	916455424	42	6194
2026-01-11 15:35:54.62	359.28	37.03	-34.9	-35.8	23.5	0.00e+00	123	27	0	919601152	42	6120
2026-01-11 15:35:55.63	359.04	37.23	-35.0	-36.0	23.4	0.00e+00	123	27	0	922746880	42	6257
2026-01-11 15:35:56.64	358.81	37.44	-35.2	-36.2	23.1	0.00e+00	122	27	0	925892608	42	6368
2026-01-11 15:35:57.65	358.57	37.64	-35.4	-36.5	22.9	0.00e+00	123	27	0	929038336	42	6595
2026-01-11 15:35:58.67	358.32	37.85	-35.4	-36.4	22.9	0.00e+00	123	27	0	932184064	42	6565
2026-01-11 15:35:59.67	358.08	38.05	-35.5	-36.6	22.9	0.00e+00	122	27	0	935329792	42	6656
2026-01-11 15:36:00.68	357.83	38.26	-35.4	-36.4	23.1	0.00e+00	122	27	0	938475520	42	6546
2026-01-11 15:36:01.69	357.58	38.47	-35.5	-36.5	22.9	0.00e+00	122	27	0	941621248	42	6581
2026-01-11 15:36:02.71	357.32	38.68	-35.4	-36.4	23.1	0.00e+00	123	27	0	944766976	42	6500
2026-01-11 15:36:03.72	357.06	38.88	-35.6	-36.6	22.9	0.00e+00	123	27	0	947912704	42	6712
2026-01-11 15:36:04.73	356.80	39.09	-35.7	-36.7	22.8	0.00e+00	120	27	0	951058432	44	6047
2026-01-11 15:36:05.74	356.53	39.30	-35.9	-36.9	22.6	0.00e+00	122	27	0	954204160	44	6162
2026-01-11 15:36:06.75	356.26	39.51	-35.7	-36.7	22.9	0.00e+00	123	27	0	957349888	44	6036
2026-01-11 15:36:07.76	355.99	39.72	-35.3	-36.3	23.2	0.00e+00	122	27	0	960495616	44	5739
2026-01-11 15:36:08.77	355.71	39.94	-35.2	-36.1	23.3	0.00e+00	123	27	0	963641344	44	5652
2026-01-11 15:36:09.77	355.44	40.14	-35.2	-36.2	23.3	0.00e+00	122	27	0	966787072	44	5688
2026-01-11 15:36:10.79	355.15	40.36	-35.3	-36.3	23.0	0.00e+00	123	27	0	969932800	44	5758
2026-01-11 15:36:11.80	354.86	40.57	-35.3	-36.3	23.1	0.00e+00	122	27	0	973078528	44	5738
2026-01-11 15:36:12.81	354.57	40.78	-35.4	-36.4	23.1	0.00e+00	123	27	0	976224256	44	5796
2026-01-11 15:36:13.82	354.28	41.00	-35.5	-36.5	23.0	0.00e+00	123	27	0	979369984	44	5885
2026-01-11 15:36:14.83	353.98	41.21	-35.6	-36.6	23.0	0.00e+00	122	27	0	982515712	44	5937
2026-01-11 15:36:15.84	353.67	41.43	-35.6	-36.6	22.9	0.00e+00	123	27	0	985661440	44	5989
2026-01-11 15:36:16.85	353.37	41.64	-35.6	-36.6	22.8	0.00e+00	122	27	0	988807168	44	5952
2026-01-11 15:36:17.86	353.05	41.86	-35.7	-36.7	22.8	0.00e+00	122	27	0	991952896	44	6012
2026-01-11 15:36:18.87	352.74	42.07	-35.7	-36.7	22.7	0.00e+00	123	27	0	995098624	44	6043
2026-01-11 15:36:19.88	352.42	42.29	-36.2	-37.2	22.4	0.00e+00	123	27	0	998244352	44	6351
2026-01-11 15:36:20.89	352.09	42.50	-36.3	-37.3	22.2	0.00e+00	123	27	0	1001390080	44	6465
2026-01-11 15:36:21.90	351.76	42.72	-36.5	-37.6	22.0	0.00e+00	120	27	0	1004535808	44	6657
2026-01-11 15:36:22.91	351.43	42.93	-36.6	-37.6	22.0	0.00e+00	120	27	0	1007681536	44	6716
2026-01-11 15:36:23.92	351.09	43.15	-36.4	-37.4	22.1	0.00e+00	123	27	0	1010827264	44	6543
2026-01-11 15:36:24.93	350.75	43.37	-36.2	-37.2	22.2	0.00e+00	120	27	0	1013972992	44	6407
2026-01-11 15:36:25.94	350.40	43.58	-36.0	-37.1	22.6	0.00e+00	122	27	0	1017118720	44	6286
2026-01-11 15:36:26.95	350.05	43.80	-36.1	-37.2	22.4	0.00e+00	123	27	0	1020264448	44	6355
2026-01-11 15:36:27.96	349.69	44.01	-36.2	-37.2	22.4	0.00e+00	123	27	0	1023410176	44	6370
2026-01-11 15:36:28.97	349.33	44.23	-36.5	-37.5	22.0	0.00e+00	123	27	0	1026555904	44	6636
2026-01-11 15:36:29.98	348.96	44.45	-37.0	-38.1	21.5	0.00e+00	120	27	0	1029701632	46	6338
2026-01-11 15:36:30.99	348.59	44.66	-37.4	-38.6	21.2	0.00e+00	123	27	0	1032847360	46	6711
2026-01-11 15:36:32.00	348.22	44.88	-37.5	-38.6	21.2	0.00e+00	120	27	0	1035993088	46	6725
2026-01-11 15:36:33.01	347.83	45.09	-36.6	-37.6	22.1	0.00e+00	122	27	0	1039138816	46	5968
2026-01-11 15:36:34.02	347.45	45.31	-36.2	-37.3	22.3	0.00e+00	120	27	0	1042284544	46	5726
2026-01-11 15:36:35.03	347.05	45.52	-36.0	-37.0	22.3	0.00e+00	123	27	0	1045430272	46	5559
2026-01-11 15:36:36.04	346.65	45.74	-36.0	-37.0	22.3	0.00e+00	121	27	0	1048576000	46	5583
2026-01-11 15:36:37.05	346.25	45.95	-36.4	-37.5	22.0	0.00e+00	127	27	0	1051721728	46	5874
2026-01-11 15:36:38.06	345.84	46.17	-36.6	-37.7	21.9	0.00e+00	123	27	0	1054867456	46	6023
2026-01-11 15:36:39.07	345.43	46.38	-36.5	-37.5	22.1	0.00e+00	120	27	0	1058013184	46	5879
2026-01-11 15:36:40.08	345.01	46.59	-36.5	-37.6	22.1	0.00e+00	123	27	0	1061158912	46	5939
2026-01-11 15:36:41.09	344.58	46.80	-36.2	-37.3	22.3	0.00e+00	122	27	0	1064304640	46	5732
2026-01-11 15:36:42.10	344.15	47.02	-36.2	-37.2	22.3	0.00e+00	120	27	0	1067450368	46	5723
2026-01-11 15:36:43.11	343.71	47.23	-35.9	-36.9	22.6	0.00e+00	122	27	0	1070596096	46	5498
2026-01-11 15:36:44.12	343.26	47.44	-35.8	-36.8	22.6	0.00e+00	122	27	0	1073741824	46	5463
2026-01-11 15:36:45.13	342.81	47.64	-35.5	-36.5	22.9	0.00e+00	121	27	0	1076887552	44	5883
2026-01-11 15:36:46.14	342.36	47.85	-35.4	-36.3	23.1	0.00e+00	123	27	0	1080033280	44	5765
2026-01-11 15:36:47.15	341.90	48.06	-35.3	-36.3	23.1	0.00e+00	122	27	0	1083179008	44	5758
2026-01-11 15:36:48.16	341.43	48.26	-35.4	-36.4	23.0	0.00e+00	120	27	0	1086324736	44	5808
2026-01-11 15:36:49.17	340.95	48.47	-35.6	-36.6	22.9	0.00e+00	120	27	0	1089470464	44	5930
2026-01-11 15:36:50.18	340.47	48.67	-35.6	-36.6	22.9	0.00e+00	120	27	0	1092616192	44	5972
2026-01-11 15:36:51.19	339.98	48.87	-35.5	-36.5	22.9	0.00e+00	122	27	0	1095761920	44	5892
2026-01-11 15:36:52.20	339.49	49.07	-35.3	-36.4	23.0	0.00e+00	123	27	0	1098907648	44	5800
2026-01-11 15:36:53.21	338.99	49.27	-35.1	-36.1	23.1	0.00e+00	127	27	0	1102053376	44	5631
2026-01-11 15:36:54.22	338.48	49.47	-35.2	-36.2	23.2	0.00e+00	122	28	0	1105199104	44	5671
2026-01-11 15:36:55.23	337.96	49.67	-35.2	-36.2	23.2	0.00e+00	121	27	0	1108344832	44	5670
2026-01-11 15:36:56.24	337.44	49.86	-35.3	-36.2	23.2	0.00e+00	123	27	0	1111490560	44	5725
2026-01-11 15:36:57.25	336.92	50.06	-35.0	-35.9	23.3	0.00e+00	123	27	0	1114636288	44	5518
2026-01-11 15:36:58.26	336.38	50.25	-35.3	-36.4	22.9	0.00e+00	122	27	0	1117782016	44	5793
2026-01-11 15:36:59.27	335.84	50.43	-35.6	-36.7	22.7	0.00e+00	122	27	0	1120927744	44	6012
2026-01-11 15:37:00.28	335.29	50.62	-35.6	-36.6	22.9	0.00e+00	122	27	0	1124073472	44	5967
2026-01-11 15:37:01.29	334.74	50.81	-35.4	-36.4	23.2	0.00e+00	122	28	0	1127219200	44	5802
2026-01-11 15:37:02.30	334.18	50.99	-35.3	-36.2	23.0	0.00e+00	120	28	0	1130364928	44	5702
2026-01-11 15:37:03.31	333.61	51.17	-35.4	-36.4	22.9	0.00e+00	122	27	0	1133510656	44	5830
2026-01-11 15:37:04.32	333.03	51.35	-35.5	-36.5	22.9	0.00e+00	123	28	0	1136656384	44	5859
2026-01-11 15:37:05.33	332.45	51.52	-35.5	-36.5	23.0	0.00e+00	122	27	0	1139802112	44	5919
2026-01-11 15:37:06.34	331.86	51.70	-35.1	-36.1	23.3	0.00e+00	123	27	0	1142947840	44	5625
2026-01-11 15:37:07.35	331.26	51.87	-34.7	-35.7	23.7	0.00e+00	123	28	0	1146093568	44	5350
2026-01-11 15:37:08.36	330.66	52.04	-34.3	-35.2	23.9	0.00e+00	123	27	0	1149239296	42	5713
2026-01-11 15:37:09.37	330.05	52.20	-34.2	-35.2	24.0	0.00e+00	122	28	0	1152385024	42	5677
2026-01-11 15:37:10.38	329.43	52.36	-34.3	-35.2	24.0	0.00e+00	123	28	0	1155530752	42	5704
2026-01-11 15:37:11.39	328.81	52.52	-34.3	-35.2	24.0	0.00e+00	123	28	0	1158676480	42	5704
2026-01-11 15:37:12.40	328.18	52.68	-33.9	-34.9	24.3	0.00e+00	123	28	0	1161822208	42	5474
2026-01-11 15:37:13.41	327.54	52.83	-34.1	-35.1	24.1	0.00e+00	123	28	0	1164967936	42	5611
2026-01-11 15:37:14.42	326.90	52.98	-34.3	-35.3	24.0	0.00e+00	123	28	0	1168113664	42	5753
2026-01-11 15:37:15.43	326.25	53.13	-34.3	-35.2	23.9	0.00e+00	122	28	0	1171259392	42	5718
2026-01-11 15:37:16.44	325.59	53.27	-34.2	-35.1	24.0	0.00e+00	123	28	0	1175453696	42	5619
2026-01-11 15:37:17.45	324.93	53.41	-33.9	-34.8	24.3	0.00e+00	123	28	0	1177550848	42	5428
2026-01-11 15:37:18.46	324.26	53.55	-33.5	-34.4	24.5	0.00e+00	122	28	0	1180696576	40	5820
2026-01-11 15:37:19.47	323.58	53.68	-33.6	-34.5	24.4	0.00e+00	123	28	0	1183842304	40	5923
2026-01-11 15:37:20.48	322.90	53.81	-33.9	-34.8	24.3	0.00e+00	123	27	0	1186988032	40	6081
2026-01-11 15:37:21.49	322.21	53.94	-33.8	-34.7	24.2	0.00e+00	122	28	0	1191182336	40	6053
2026-01-11 15:37:22.50	321.52	54.06	-34.0	-34.9	24.1	0.00e+00	123	28	0	1194328064	40	6187
2026-01-11 15:37:23.51	320.82	54.18	-34.2	-35.1	24.0	0.00e+00	123	28	0	1197473792	40	6306
2026-01-11 15:37:24.52	320.11	54.29	-34.5	-35.5	23.6	0.00e+00	123	28	0	1200619520	40	6582
2026-01-11 15:37:25.53	319.40	54.40	-34.9	-35.9	23.5	0.00e+00	123	28	0	1202716672	42	6161
2026-01-11 15:37:26.54	318.69	54.50	-34.8	-35.8	23.6	0.00e+00	120	28	0	1206910976	42	6099
2026-01-11 15:37:27.55	317.96	54.60	-34.6	-35.5	23.7	0.00e+00	122	28	0	1210056704	42	5907
2026-01-11 15:37:28.56	317.24	54.70	-34.6	-35.5	23.7	0.00e+00	122	28	0	1213202432	42	5890
2026-01-11 15:37:29.57	316.51	54.79	-34.4	-35.3	23.8	0.00e+00	123	28	0	1216348160	42	5786
2026-01-11 15:37:30.58	315.77	54.88	-34.5	-35.4	23.8	0.00e+00	120	28	0	1219493888	42	5847
2026-01-11 15:37:31.59	315.03	54.96	-34.0	-35.0	24.2	0.00e+00	122	28	0	1222639616	42	5545
2026-01-11 15:37:32.61	314.28	55.04	-33.9	-34.8	24.3	0.00e+00	120	28	0	1225785344	42	5427
2026-01-11 15:37:33.61	313.54	55.11	-33.4	-34.3	24.6	0.00e+00	123	28	0	1228931072	40	5755
2026-01-11 15:37:34.62	312.78	55.18	-33.4	-34.3	24.6	0.00e+00	120	28	0	1232076800	40	5768
2026-01-11 15:37:35.64	312.02	55.24	-33.9	-34.8	24.2	0.00e+00	123	28	0	1235222528	40	6107
2026-01-11 15:37:36.64	311.27	55.30	-33.9	-34.9	24.3	0.00e+00	120	28	0	1238368256	40	6135
2026-01-11 15:37:37.65	310.51	55.35	-33.8	-34.7	24.4	0.00e+00	127	28	0	1241513984	40	6001
2026-01-11 15:37:38.66	309.74	55.40	-34.0	-34.9	24.2	0.00e+00	122	28	0	1244659712	40	6177
2026-01-11 15:37:39.67	308.97	55.44	-33.9	-34.8	24.3	0.00e+00	123	28	0	1247805440	40	6122
2026-01-11 15:37:40.68	308.20	55.48	-33.9	-34.9	24.2	0.00e+00	122	28	0	1250951168	40	6139
2026-01-11 15:37:41.69	307.43	55.52	-33.8	-34.7	24.3	0.00e+00	120	28	0	1254096896	40	6052
2026-01-11 15:37:42.70	306.66	55.54	-33.9	-34.8	24.3	0.00e+00	122	28	0	1257242624	40	6075
2026-01-11 15:37:43.71	305.88	55.57	-34.1	-35.0	24.1	0.00e+00	122	28	0	1260388352	40	6217
2026-01-11 15:37:44.73	305.10	55.58	-34.3	-35.3	23.9	0.00e+00	123	28	0	1263534080	40	6426
2026-01-11 15:37:45.73	304.33	55.60	-34.0	-34.9	24.3	0.00e+00	122	28	0	1266679808	40	6151
2026-01-11 15:37:46.74	303.55	55.60	-33.7	-34.5	24.5	0.00e+00	122	28	0	1269825536	40	5921
2026-01-11 15:37:47.75	302.77	55.61	-33.7	-34.6	24.2	0.00e+00	123	28	0	1272971264	40	5972
2026-01-11 15:37:48.76	301.99	55.60	-33.8	-34.7	24.4	0.00e+00	122	28	0	1276116992	40	6038
2026-01-11 15:37:49.77	301.22	55.60	-33.9	-34.8	24.2	0.00e+00	122	28	0	1279262720	40	6101
2026-01-11 15:37:50.78	300.44	55.58	-34.3	-35.2	23.9	0.00e+00	123	28	0	1282408448	40	6404
2026-01-11 15:37:51.79	299.66	55.56	-34.4	-35.3	23.9	0.00e+00	120	28	0	1285554176	40	6471
2026-01-11 15:37:52.80	298.89	55.54	-34.1	-35.0	24.0	0.00e+00	122	28	0	1288699904	40	6253
2026-01-11 15:37:53.81	298.12	55.51	-33.7	-34.6	24.4	0.00e+00	120	28	0	1291845632	40	5986
2026-01-11 15:37:54.82	297.34	55.48	-33.8	-34.7	24.3	0.00e+00	120	28	0	1294991360	40	6059
2026-01-11 15:37:55.83	296.57	55.44	-33.8	-34.8	24.3	0.00e+00	122	28	0	1298137088	40	6069
2026-01-11 15:37:56.84	295.81	55.39	-34.0	-34.9	24.1	0.00e+00	120	28	0	1301282816	40	6189
2026-01-11 15:37:57.85	295.04	55.34	-34.4	-35.4	23.5	0.00e+00	123	28	0	1304428544	40	6516
2026-01-11 15:37:58.86	294.28	55.29	-34.6	-35.6	23.4	0.00e+00	120	28	0	1307574272	40	6684
2026-01-11 15:37:59.87	293.52	55.23	-34.5	-35.4	23.5	0.00e+00	123	28	0	1310720000	40	6560
2026-01-11 15:38:00.88	292.76	55.17	-34.4	-35.4	23.8	0.00e+00	120	28	0	1313865728	40	6506
2026-01-11 15:38:01.89	292.01	55.10	-34.3	-35.3	23.9	0.00e+00	123	28	0	1317011456	40	6426
2026-01-11 15:38:02.90	291.26	55.02	-34.0	-35.0	24.1	0.00e+00	122	28	0	1320157184	40	6231
2026-01-11 15:38:03.91	290.52	54.94	-34.3	-35.2	24.0	0.00e+00	122	28	0	1323302912	40	6380
2026-01-11 15:38:04.92	289.78	54.86	-34.0	-35.0	23.8	0.00e+00	123	28	0	1326448640	40	6221
2026-01-11 15:38:05.93	289.04	54.77	-34.1	-35.1	23.7	0.00e+00	120	28	0	1329594368	40	6298
2026-01-11 15:38:06.94	288.31	54.68	-33.8	-34.7	24.3	0.00e+00	120	28	0	1332740096	40	6018
2026-01-11 15:38:07.95	287.58	54.58	-33.7	-34.6	24.5	0.00e+00	123	28	0	1335885824	40	5984
2026-01-11 15:38:08.96	286.86	54.48	-33.5	-34.3	24.6	0.00e+00	123	28	0	1339031552	40	5788
2026-01-11 15:38:09.97	286.15	54.38	-34.0	-34.9	24.2	0.00e+00	123	28	0	1342177280	40	6145
2026-01-11 15:38:10.98	285.44	54.27	-34.5	-35.4	23.9	0.00e+00	120	28	0	1345323008	40	6510
2026-01-11 15:38:11.99	284.73	54.15	-33.9	-34.8	24.3	0.00e+00	122	28	0	1348468736	40	6119
2026-01-11 15:38:13.00	284.03	54.04	-33.7	-34.6	24.4	0.00e+00	120	28	0	1351614464	40	5979
2026-01-11 15:38:14.01	283.34	53.91	-33.5	-34.4	24.7	0.00e+00	122	28	0	1354760192	40	5820
2026-01-11 15:38:15.02	282.65	53.79	-33.6	-34.4	24.6	0.00e+00	120	28	0	1357905920	40	5856
2026-01-11 15:38:16.03	281.97	53.66	-34.1	-35.1	24.1	0.00e+00	120	28	0	1361051648	40	6280
2026-01-11 15:38:17.04	281.29	53.52	-34.7	-35.6	23.6	0.00e+00	122	28	0	1364197376	40	6723
2026-01-11 15:38:18.05	280.62	53.39	-34.8	-35.7	23.7	0.00e+00	122	28	0	1367343104	42	6034
2026-01-11 15:38:19.06	279.96	53.25	-34.5	-35.4	23.9	0.00e+00	120	28	0	1370488832	42	5842
2026-01-11 15:38:20.07	279.30	53.10	-34.1	-34.9	24.3	0.00e+00	122	28	0	1373634560	42	5530
2026-01-11 15:38:21.08	278.65	52.95	-33.9	-34.8	24.3	0.00e+00	123	28	0	1376780288	42	5427
2026-01-11 15:38:22.09	278.01	52.80	-33.6	-34.4	24.6	0.00e+00	123	28	0	1379926016	40	5857
2026-01-11 15:38:23.10	277.37	52.65	-34.3	-35.2	24.0	0.00e+00	120	28	0	1383071744	40	6386
2026-01-11 15:38:24.11	276.74	52.49	-35.2	-36.2	23.1	0.00e+00	122	28	0	1386217472	42	6352
2026-01-11 15:38:25.13	276.11	52.33	-35.3	-36.3	23.0	0.00e+00	120	28	0	1389363200	42	6434
2026-01-11 15:38:26.13	275.50	52.17	-34.8	-35.8	23.6	0.00e+00	123	28	0	1392508928	42	6081
2026-01-11 15:38:27.14	274.89	52.00	-33.7	-34.6	24.6	0.00e+00	122	28	0	1395654656	42	5286
2026-01-11 15:38:28.16	274.29	51.83	-33.8	-34.7	24.4	0.00e+00	123	28	0	1398800384	40	5996
2026-01-11 15:38:29.17	273.69	51.66	-34.3	-35.2	23.9	0.00e+00	120	28	0	1401946112	40	6377
2026-01-11 15:38:30.18	273.10	51.49	-35.0	-35.9	23.4	0.00e+00	123	28	0	1405091840	42	6192
2026-01-11 15:38:31.19	272.52	51.31	-35.2	-36.1	23.4	0.00e+00	123	28	0	1408237568	42	6343
2026-01-11 15:38:32.20	271.94	51.13	-34.9	-35.8	23.3	0.00e+00	120	28	0	1411383296	42	6106
2026-01-11 15:38:33.21	271.38	50.95	-34.6	-35.6	23.0	0.00e+00	120	28	0	1414529024	42	5931
2026-01-11 15:38:34.22	270.81	50.76	-34.4	-35.4	23.2	0.00e+00	123	28	0	1417674752	42	5836
2026-01-11 15:38:35.23	270.26	50.58	-34.4	-35.4	23.6	0.00e+00	121	28	0	1420820480	42	5809
2026-01-11 15:38:36.24	269.71	50.39	-34.8	-35.7	23.5	0.00e+00	123	28	0	1423966208	42	6056
2026-01-11 15:38:37.25	269.17	50.20	-35.5	-36.5	23.0	0.00e+00	122	28	0	1427111936	42	6635
2026-01-11 15:38:38.26	268.64	50.01	-35.7	-36.7	22.7	0.00e+00	120	28	0	1430257664	44	6026
2026-01-11 15:38:39.27	268.11	49.82	-35.5	-36.5	22.8	0.00e+00	123	28	0	1433403392	44	5896
2026-01-11 15:38:40.28	267.59	49.62	-35.6	-36.5	22.9	0.00e+00	123	28	0	1436549120	44	5923
2026-01-11 15:38:41.29	267.08	49.42	-35.0	-35.9	23.6	0.00e+00	123	28	0	1439694848	44	5490
2026-01-11 15:38:42.30	266.57	49.22	-34.8	-35.7	23.5	0.00e+00	122	28	0	1442840576	44	5380
2026-01-11 15:38:43.31	266.07	49.02	-34.9	-35.8	23.6	0.00e+00	120	28	0	1445986304	44	5457
2026-01-11 15:38:44.32	265.57	48.82	-35.4	-36.4	22.9	0.00e+00	122	28	0	1449132032	44	5817
2026-01-11 15:38:45.33	265.09	48.62	-36.5	-37.6	21.9	0.00e+00	120	28	0	1452277760	44	6663
2026-01-11 15:38:46.34	264.61	48.42	-36.9	-38.0	21.5	0.00e+00	122	28	0	1455423488	46	6269
2026-01-11 15:38:47.35	264.13	48.21	-36.4	-37.5	21.5	0.00e+00	120	28	0	1458569216	46	5882
2026-01-11 15:38:48.36	263.66	48.00	-36.0	-37.0	22.0	0.00e+00	123	28	0	1461714944	46	5562
2026-01-11 15:38:49.36	263.20	47.80	-34.9	-35.9	23.4	0.00e+00	120	28	0	1464860672	44	5468
2026-01-11 15:38:50.37	262.75	47.59	-34.6	-35.5	23.8	0.00e+00	122	28	0	1468006400	42	5903
2026-01-11 15:38:51.38	262.30	47.38	-34.6	-35.5	23.6	0.00e+00	122	28	0	1471152128	42	5918
2026-01-11 15:38:52.39	261.85	47.17	-35.5	-36.5	22.8	0.00e+00	120	28	0	1474297856	42	6595
2026-01-11 15:38:53.41	261.41	46.96	-36.5	-37.6	22.0	0.00e+00	122	28	0	1477443584	44	6662
2026-01-11 15:38:54.42	260.98	46.75	-37.5	-38.6	21.2	0.00e+00	120	28	0	1480589312	46	6695
2026-01-11 15:38:55.42	260.56	46.53	-37.8	-39.0	20.7	0.00e+00	122	28	0	1483735040	46	6970
2026-01-11 15:38:56.43	260.14	46.32	-36.7	-37.8	21.2	0.00e+00	123	28	0	1486880768	46	6098
2026-01-11 15:38:57.44	259.72	46.11	-35.9	-36.9	21.7	0.00e+00	120	28	0	1491075072	46	5524
2026-01-11 15:38:58.45	259.31	45.89	-35.1	-36.1	22.9	0.00e+00	123	28	0	1493172224	44	5637
2026-01-11 15:38:59.46	258.91	45.68	-34.8	-35.8	23.5	0.00e+00	122	28	0	1496317952	44	5418
2026-01-11 15:39:00.47	258.51	45.46	-35.1	-36.0	23.4	0.00e+00	122	28	0	1499463680	42	6258
2026-01-11 15:39:01.48	258.12	45.25	-35.9	-36.8	22.5	0.00e+00	122	28	0	1502609408	44	6123
2026-01-11 15:39:02.49	257.73	45.03	-37.1	-38.2	21.4	0.00e+00	123	28	0	1505755136	46	6372
2026-01-11 15:39:03.50	257.35	44.82	-37.8	-39.0	20.9	0.00e+00	123	28	0	1509949440	48	6228
2026-01-11 15:39:04.51	256.97	44.60	-37.7	-38.8	21.0	0.00e+00	120	28	0	1513095168	48	6130
2026-01-11 15:39:05.52	256.60	44.38	-37.0	-38.1	21.7	0.00e+00	123	29	0	1516240896	48	5603
2026-01-11 15:39:06.53	256.23	44.17	-36.3	-37.3	22.1	0.00e+00	121	28	0	1518338048	46	5765
2026-01-11 15:39:07.54	255.87	43.95	-35.7	-36.7	22.7	0.00e+00	120	28	0	1521483776	46	5368
2026-01-11 15:39:08.55	255.52	43.73	-35.6	-36.5	23.0	0.00e+00	123	29	0	1525678080	44	5919
2026-01-11 15:39:09.56	255.16	43.51	-34.8	-35.7	23.7	0.00e+00	123	28	0	1528823808	44	5361
2026-01-11 15:39:10.57	254.82	43.30	-35.0	-35.9	23.5	0.00e+00	123	28	0	1531969536	42	6167
2026-01-11 15:39:11.58	254.47	43.08	-35.7	-36.7	22.8	0.00e+00	120	28	0	1535115264	42	6767
2026-01-11 15:39:12.59	254.14	42.86	-36.6	-37.6	22.1	0.00e+00	123	28	0	1538260992	44	6702
2026-01-11 15:39:13.60	253.80	42.65	-37.0	-38.1	21.4	0.00e+00	123	28	0	1541406720	46	6329
2026-01-11 15:39:14.61	253.47	42.43	-36.6	-37.6	21.4	0.00e+00	122	29	0	1544552448	46	5975
2026-01-11 15:39:15.62	253.15	42.21	-35.7	-36.7	22.0	0.00e+00	122	29	0	1547698176	46	5394
2026-01-11 15:39:16.62	252.83	42.00	-35.3	-36.3	22.5	0.00e+00	123	28	0	1550843904	44	5751
2026-01-11 15:39:17.63	252.52	41.79	-35.1	-36.1	22.9	0.00e+00	123	29	0	1553989632	44	5617
2026-01-11 15:39:18.64	252.20	41.57	-35.6	-36.6	22.7	0.00e+00	122	29	0	1557135360	44	5987
2026-01-11 15:39:19.65	251.90	41.35	-36.3	-37.4	22.2	0.00e+00	123	29	0	1560281088	44	6519
2026-01-11 15:39:20.66	251.59	41.14	-36.7	-37.8	21.9	0.00e+00	122	29	0	1563426816	44	6875
2026-01-11 15:39:21.67	251.29	40.92	-36.9	-38.0	21.8	0.00e+00	120	29	0	1566572544	46	6214
2026-01-11 15:39:22.68	251.00	40.71	-36.5	-37.6	22.2	0.00e+00	122	29	0	1569718272	46	5952
2026-01-11 15:39:23.69	250.71	40.50	-36.4	-37.4	22.3	0.00e+00	122	29	0	1572864000	46	5809
2026-01-11 15:39:24.70	250.42	40.28	-36.2	-37.2	22.3	0.00e+00	123	28	0	1576009728	46	5711
2026-01-11 15:39:25.71	250.14	40.07	-35.9	-36.9	22.8	0.00e+00	123	29	0	1579155456	46	5477
2026-01-11 15:39:26.72	249.86	39.86	-34.7	-35.7	23.6	0.00e+00	120	29	0	1582301184	44	5352
2026-01-11 15:39:27.73	249.58	39.65	-34.3	-35.2	23.8	0.00e+00	123	28	0	1585446912	42	5693
2026-01-11 15:39:28.74	249.31	39.44	-34.1	-35.0	24.1	0.00e+00	123	29	0	1588592640	42	5533
2026-01-11 15:39:29.75	249.04	39.22	-33.9	-34.7	24.4	0.00e+00	123	29	0	1591738368	42	5403
2026-01-11 15:39:30.76	248.77	39.01	-34.1	-35.0	24.2	0.00e+00	123	28	0	1594884096	42	5565
2026-01-11 15:39:31.77	248.51	38.80	-35.3	-36.2	23.2	0.00e+00	122	29	0	1598029824	42	6394
2026-01-11 15:39:32.78	248.25	38.60	-36.1	-37.1	22.4	0.00e+00	123	29	0	1601175552	44	6339
2026-01-11 15:39:33.79	247.99	38.39	-36.6	-37.7	21.9	0.00e+00	120	29	0	1604321280	44	6740
2026-01-11 15:39:34.80	247.74	38.18	-36.3	-37.3	22.3	0.00e+00	120	29	0	1607467008	44	6483
2026-01-11 15:39:35.81	247.49	37.97	-36.1	-37.1	22.4	0.00e+00	122	29	0	1610612736	44	6298
2026-01-11 15:39:36.82	247.25	37.77	-36.2	-37.2	22.3	0.00e+00	120	29	0	1613758464	44	6382
2026-01-11 15:39:37.83	247.00	37.56	-35.6	-36.5	23.0	0.00e+00	123	29	0	1616904192	44	5916
2026-01-11 15:39:38.84	246.76	37.35	-35.6	-36.6	22.9	0.00e+00	121	29	0	1620049920	44	5953
2026-01-11 15:39:39.85	246.53	37.15	-35.8	-36.8	22.7	0.00e+00	123	29	0	1623195648	44	6109
2026-01-11 15:39:40.86	246.29	36.95	-35.6	-36.6	22.8	0.00e+00	120	28	0	1626341376	44	5965
2026-01-11 15:39:41.87	246.06	36.74	-35.7	-36.7	22.8	0.00e+00	123	29	0	1629487104	44	6018
2026-01-11 15:39:42.88	245.84	36.54	-35.4	-36.4	23.0	0.00e+00	123	29	0	1632632832	44	5795
2026-01-11 15:39:43.89	245.61	36.34	-34.8	-35.8	23.5	0.00e+00	122	29	0	1635778560	44	5416
2026-01-11 15:39:44.90	245.39	36.14	-34.7	-35.7	23.7	0.00e+00	120	29	0	1638924288	44	5357
2026-01-11 15:39:45.90	245.17	35.94	-35.1	-36.0	23.4	0.00e+00	122	29	0	1642070016	42	6272
2026-01-11 15:39:46.91	244.95	35.74	-35.3	-36.3	23.2	0.00e+00	120	29	0	1645215744	42	6473
2026-01-11 15:39:47.93	244.74	35.54	-35.6	-36.6	22.8	0.00e+00	123	29	0	1648361472	42	6696
2026-01-11 15:39:48.94	244.53	35.34	-35.6	-36.7	22.7	0.00e+00	121	29	0	1651507200	42	6731
2026-01-11 15:39:49.94	244.32	35.15	-35.4	-36.4	22.7	0.00e+00	123	29	0	1654652928	42	6563
2026-01-11 15:39:50.96	244.11	34.95	-35.4	-36.4	22.8	0.00e+00	122	29	0	1657798656	42	6526
2026-01-11 15:39:51.96	243.91	34.76	-35.1	-36.0	23.4	0.00e+00	123	29	0	1660944384	42	6258
2026-01-11 15:39:52.97	243.71	34.56	-34.4	-35.3	23.9	0.00e+00	123	29	0	1664090112	42	5786
2026-01-11 15:39:53.98	243.51	34.37	-34.5	-35.4	23.9	0.00e+00	122	29	0	1667235840	42	5847
2026-01-11 15:39:54.99	243.31	34.17	-34.6	-35.5	23.9	0.00e+00	123	29	0	1670381568	42	5878
2026-01-11 15:39:56.00	243.12	33.98	-34.6	-35.5	23.7	0.00e+00	120	29	0	1673527296	42	5903
2026-01-11 15:39:57.01	242.92	33.79	-34.7	-35.7	23.7	0.00e+00	123	29	0	1676673024	42	5996
2026-01-11 15:39:58.01	242.74	33.60	-34.7	-35.6	23.7	0.00e+00	123	29	0	1679818752	42	5988
2026-01-11 15:39:59.02	242.55	33.41	-34.6	-35.5	23.8	0.00e+00	123	29	0	1682964480	42	5914
2026-01-11 15:40:00.03	242.36	33.22	-34.6	-35.5	23.7	0.00e+00	122	29	0	1686110208	42	5895
2026-01-11 15:40:01.04	242.18	33.04	-34.5	-35.5	23.8	0.00e+00	122	29	0	1689255936	42	5863
2026-01-11 15:40:02.06	242.00	32.85	-34.2	-35.1	24.1	0.00e+00	120	29	0	1692401664	42	5630
2026-01-11 15:40:03.07	241.82	32.66	-34.2	-35.1	24.0	0.00e+00	123	29	0	1695547392	42	5638
2026-01-11 15:40:04.07	241.64	32.48	-34.0	-34.9	24.2	0.00e+00	123	29	0	1698693120	42	5506
2026-01-11 15:40:05.08	241.47	32.29	-33.9	-34.8	24.3	0.00e+00	120	29	0	1701838848	42	5413
2026-01-11 15:40:06.09	241.29	32.11	-33.8	-34.7	24.2	0.00e+00	123	29	0	1704984576	42	5401
2026-01-11 15:40:07.10	241.12	31.92	-33.9	-34.8	24.1	0.00e+00	123	29	0	1708130304	42	5430
2026-01-11 15:40:08.12	240.95	31.74	-33.9	-34.8	24.0	0.00e+00	123	29	0	1711276032	42	5444
2026-01-11 15:40:09.12	240.79	31.56	-34.0	-34.9	24.0	0.00e+00	122	29	0	1714421760	42	5512
2026-01-11 15:40:10.13	240.62	31.38	-34.2	-35.1	23.9	0.00e+00	123	29	0	1717567488	42	5643
2026-01-11 15:40:11.15	240.46	31.20	-34.3	-35.2	23.9	0.00e+00	122	29	0	1720713216	42	5718
2026-01-11 15:40:12.16	240.30	31.02	-34.5	-35.4	23.7	0.00e+00	123	29	0	1723858944	42	5836
2026-01-11 15:40:13.16	240.14	30.84	-34.5	-35.5	23.7	0.00e+00	122	29	0	1727004672	42	5862
2026-01-11 15:40:14.18	239.98	30.66	-34.7	-35.7	23.5	0.00e+00	123	29	0	1730150400	42	6019
2026-01-11 15:40:15.18	239.82	30.49	-34.5	-35.4	23.8	0.00e+00	122	29	0	1733296128	42	5857
2026-01-11 15:40:16.19	239.67	30.31	-34.6	-35.5	23.6	0.00e+00	122	29	0	1736441856	42	5925
2026-01-11 15:40:17.21	239.51	30.14	-34.4	-35.3	23.9	0.00e+00	122	29	0	1739587584	42	5764
2026-01-11 15:40:18.22	239.36	29.96	-34.0	-35.0	24.1	0.00e+00	123	29	0	1742733312	42	5545
2026-01-11 15:40:19.23	239.21	29.79	-34.1	-35.0	24.2	0.00e+00	122	29	0	1745879040	42	5550
2026-01-11 15:40:20.24	239.07	29.62	-33.9	-34.7	24.4	0.00e+00	122	29	0	1749024768	42	5401
2026-01-11 15:40:21.25	238.92	29.44	-33.6	-34.4	24.5	0.00e+00	122	29	0	1752170496	40	5858
2026-01-11 15:40:22.26	238.77	29.27	-33.2	-34.1	24.7	0.00e+00	123	29	0	1755316224	40	5625
2026-01-11 15:40:23.27	238.63	29.10	-33.3	-34.2	24.7	0.00e+00	122	29	0	1758461952	40	5661
2026-01-11 15:40:24.28	238.49	28.94	-33.3	-34.1	24.7	0.00e+00	122	29	0	1761607680	40	5641
2026-01-11 15:40:25.29	238.35	28.77	-33.4	-34.2	24.6	0.00e+00	120	29	0	1764753408	40	5710
2026-01-11 15:40:26.30	238.21	28.60	-33.5	-34.4	24.6	0.00e+00	122	29	0	1767899136	40	5823
2026-01-11 15:40:27.31	238.07	28.43	-33.6	-34.4	24.6	0.00e+00	122	29	0	1771044864	40	5849
2026-01-11 15:40:28.32	237.94	28.27	-33.5	-34.4	24.6	0.00e+00	123	29	0	1774190592	40	5802
2026-01-11 15:40:29.32	237.80	28.10	-33.6	-34.4	24.5	0.00e+00	123	29	0	1777336320	40	5856
2026-01-11 15:40:30.33	237.67	27.94	-33.5	-34.4	24.6	0.00e+00	123	29	0	1780482048	40	5819
2026-01-11 15:40:31.34	237.54	27.78	-33.6	-34.4	24.5	0.00e+00	122	29	0	1783627776	40	5853
2026-01-11 15:40:32.35	237.41	27.61	-33.6	-34.5	24.5	0.00e+00	122	29	0	1786773504	40	5883
2026-01-11 15:40:33.36	237.28	27.45	-33.4	-34.3	24.6	0.00e+00	122	29	0	1789919232	40	5763
2026-01-11 15:40:34.37	237.15	27.29	-33.4	-34.3	24.6	0.00e+00	122	29	0	1793064960	40	5753
2026-01-11 15:40:35.38	237.03	27.13	-33.2	-34.1	24.8	0.00e+00	122	29	0	1796210688	40	5650
2026-01-11 15:40:36.39	236.90	26.97	-33.1	-34.0	24.8	0.00e+00	123	29	0	1799356416	40	5578
2026-01-11 15:40:37.40	236.78	26.81	-33.2	-34.1	24.7	0.00e+00	123	29	0	1802502144	40	5616
2026-01-11 15:40:38.41	236.66	26.65	-33.2	-34.1	24.6	0.00e+00	123	29	0	1805647872	40	5595
2026-01-11 15:40:39.42	236.54	26.50	-33.3	-34.2	24.5	0.00e+00	122	29	0	1808793600	40	5701
2026-01-11 15:40:40.42	236.42	26.34	-33.4	-34.2	24.4	0.00e+00	122	29	0	1811939328	40	5717
2026-01-11 15:40:41.43	236.30	26.19	-33.4	-34.2	24.5	0.00e+00	122	29	0	1815085056	40	5725
2026-01-11 15:40:42.44	236.18	26.03	-33.5	-34.4	24.5	0.00e+00	123	29	0	1818230784	40	5824
2026-01-11 15:40:43.45	236.06	25.88	-33.5	-34.4	24.5	0.00e+00	123	29	0	1821376512	40	5800
2026-01-11 15:40:44.46	235.95	25.72	-33.4	-34.3	24.6	0.00e+00	123	29	0	1824522240	40	5762
2026-01-11 15:40:45.47	235.83	25.57	-33.4	-34.3	24.6	0.00e+00	122	29	0	1827667968	40	5779
2026-01-11 15:40:46.48	235.72	25.42	-33.3	-34.2	24.7	0.00e+00	122	29	0	1830813696	40	5674
2026-01-11 15:40:47.49	235.61	25.27	-33.2	-34.1	24.8	0.00e+00	123	29	0	1833959424	40	5612
2026-01-11 15:40:48.50	235.50	25.12	-33.2	-34.1	24.8	0.00e+00	120	29	0	1837105152	40	5632
2026-01-11 15:40:49.51	235.39	24.97	-33.3	-34.1	24.7	0.00e+00	123	29	0	1840250880	40	5647
2026-01-11 15:40:50.52	235.28	24.82	-33.2	-34.0	24.8	0.00e+00	122	29	0	1843396608	40	5580
2026-01-11 15:40:51.53	235.17	24.67	-33.1	-33.9	24.9	0.00e+00	123	29	0	1846542336	40	5517
2026-01-11 15:40:52.54	235.07	24.52	-32.9	-33.8	25.1	0.00e+00	123	29	0	1849688064	40	5426
2026-01-11 15:40:53.55	234.96	24.38	-32.9	-33.8	25.0	0.00e+00	123	29	0	1853882368	40	5421
2026-01-11 15:40:54.56	234.86	24.23	-32.9	-33.8	25.1	0.00e+00	123	29	0	1855979520	40	5428
2026-01-11 15:40:55.57	234.75	24.08	-32.9	-33.8	25.0	0.00e+00	122	29	0	1859125248	40	5431
2026-01-11 15:40:56.58	234.65	23.94	-33.0	-33.8	24.9	0.00e+00	123	29	0	1862270976	40	5449
2026-01-11 15:40:57.58	234.55	23.80	-33.1	-34.0	24.9	0.00e+00	122	29	0	1865416704	40	5539
2026-01-11 15:40:58.59	234.45	23.65	-33.1	-34.0	24.9	0.00e+00	123	29	0	1869611008	40	5550
2026-01-11 15:40:59.60	234.35	23.51	-33.2	-34.1	24.7	0.00e+00	122	29	0	1872756736	40	5631
2026-01-11 15:41:00.62	234.25	23.37	-33.3	-34.2	24.7	0.00e+00	122	29	0	1875902464	40	5691
2026-01-11 15:41:01.62	234.15	23.23	-33.5	-34.4	24.5	0.00e+00	122	29	0	1879048192	40	5826
2026-01-11 15:41:02.64	234.05	23.09	-33.6	-34.4	24.5	0.00e+00	123	29	0	1881145344	40	5853
2026-01-11 15:41:03.65	233.96	22.95	-33.7	-34.6	24.5	0.00e+00	122	29	0	1885339648	40	5973
2026-01-11 15:41:04.66	233.86	22.81	-33.8	-34.7	24.4	0.00e+00	122	29	0	1888485376	40	6005
2026-01-11 15:41:05.67	233.77	22.67	-33.8	-34.7	24.4	0.00e+00	123	29	0	1891631104	40	6023
2026-01-11 15:41:06.68	233.67	22.53	-34.0	-34.9	24.2	0.00e+00	122	29	0	1894776832	40	6155
2026-01-11 15:41:07.69	233.58	22.39	-33.9	-34.9	24.1	0.00e+00	122	29	0	1897922560	40	6141
2026-01-11 15:41:08.70	233.49	22.26	-34.1	-35.0	23.9	0.00e+00	120	29	0	1901068288	40	6239
2026-01-11 15:41:09.71	233.40	22.12	-34.0	-35.0	23.8	0.00e+00	122	29	0	1904214016	40	6247
2026-01-11 15:41:10.71	233.31	21.99	-34.0	-35.0	23.8	0.00e+00	122	29	0	1907359744	40	6228
2026-01-11 15:41:11.73	233.22	21.85	-34.0	-35.0	23.7	0.00e+00	122	29	0	1910505472	40	6232
2026-01-11 15:41:12.74	233.13	21.72	-34.0	-34.9	23.7	0.00e+00	122	29	0	1913651200	40	6197
2026-01-11 15:41:13.75	233.04	21.58	-33.7	-34.6	23.8	0.00e+00	120	29	0	1916796928	40	5979
2026-01-11 15:41:14.76	232.96	21.45	-33.7	-34.6	23.9	0.00e+00	122	29	0	1919942656	40	5953
2026-01-11 15:41:15.77	232.87	21.32	-33.8	-34.7	23.9	0.00e+00	123	29	0	1923088384	40	6024
2026-01-11 15:41:16.78	232.78	21.19	-33.3	-34.2	24.4	0.00e+00	123	29	0	1926234112	40	5697
2026-01-11 15:41:17.79	232.70	21.05	-33.2	-34.1	24.3	0.00e+00	122	29	0	1929379840	40	5637
2026-01-11 15:41:18.80	232.62	20.92	-33.1	-34.0	24.5	0.00e+00	123	29	0	1932525568	40	5553
2026-01-11 15:41:19.80	232.53	20.80	-32.8	-33.7	24.7	0.00e+00	123	29	0	1935671296	40	5353
2026-01-11 15:41:20.81	232.45	20.67	-32.8	-33.7	24.8	0.00e+00	122	29	0	1938817024	40	5359
2026-01-11 15:41:21.82	232.37	20.54	-32.7	-33.6	24.8	0.00e+00	122	29	0	1941962752	38	5931
2026-01-11 15:41:22.83	232.29	20.41	-32.7	-33.5	24.9	0.00e+00	123	29	0	1945108480	38	5915
2026-01-11 15:41:23.84	232.21	20.28	-32.6	-33.5	24.9	0.00e+00	122	29	0	1948254208	38	5874
2026-01-11 15:41:24.85	232.13	20.16	-32.6	-33.5	25.0	0.00e+00	123	29	0	1951399936	38	5868
2026-01-11 15:41:25.86	232.05	20.03	-32.7	-33.5	24.9	0.00e+00	123	29	0	1954545664	38	5923
2026-01-11 15:41:26.87	231.97	19.90	-32.7	-33.6	24.9	0.00e+00	122	29	0	1957691392	38	5928
2026-01-11 15:41:27.88	231.89	19.78	-32.7	-33.5	25.0	0.00e+00	123	29	0	1960837120	38	5904
2026-01-11 15:41:28.89	231.81	19.65	-32.7	-33.6	25.0	0.00e+00	123	29	0	1963982848	38	5946
2026-01-11 15:41:29.90	231.74	19.53	-32.7	-33.5	25.0	0.00e+00	122	29	0	1967128576	38	5926
2026-01-11 15:41:30.91	231.66	19.41	-32.8	-33.6	25.0	0.00e+00	123	29	0	1970274304	38	5986
