passes_logs/2026/01/11/R4.6S_Anadyr/R4.6S_Anadyr__20260111_191850_SUOMI_NPP_rec.log

#Pass ID: 20260111_191850_SUOMI NPP
#Satellite: SUOMI NPP
#Configuration: NPP
#almurnet v.1.7.20251203
#Start time: 2026-01-11 19:18:51

#Version: 2.2.20231116
#Station: R4.6S_Anadyr
#Location: 177.4865 lon 64.73178 lat
#TLE: 1 37849U 11061A   26010.94533966  .00000106  00000+0  71276-4 0  9997
#TLE: 2 37849  98.7807 313.0290 0002520  70.6146 289.5303 14.19524339736134

#Time	Az	El	Level	Level2	SNR	BER	BlckErr	Temp	State	Recorded	gain1	gain2
2026-01-11 19:18:51.69	50.45	0.05	-48.0	-59.6	3.5	8.44e-01	0	26	0	0	60	34685
2026-01-11 19:18:52.70	50.38	0.10	-48.2	-63.4	3.6	1.51e+00	0	27	104	0	60	53292
2026-01-11 19:18:53.71	50.30	0.15	-48.2	-63.4	3.6	1.51e+00	0	27	104	0	60	53286
2026-01-11 19:18:54.72	50.23	0.20	-48.3	-63.5	3.6	1.51e+00	0	27	104	0	60	54144
2026-01-11 19:18:55.73	50.15	0.25	-48.2	-63.5	3.6	1.51e+00	0	28	104	0	60	54157
2026-01-11 19:18:56.74	50.07	0.30	-48.2	-63.4	3.5	1.51e+00	0	28	104	0	60	53503
2026-01-11 19:18:57.75	50.00	0.35	-48.1	-63.4	3.6	1.51e+00	0	28	104	0	60	53242
2026-01-11 19:18:58.76	49.92	0.40	-48.2	-63.4	3.6	1.51e+00	0	28	104	0	60	53466
2026-01-11 19:18:59.77	49.84	0.44	-48.2	-63.4	3.6	1.51e+00	0	28	104	0	60	53279
2026-01-11 19:19:00.78	49.76	0.49	-48.2	-63.4	3.6	1.51e+00	0	28	104	0	60	53358
2026-01-11 19:19:01.79	49.68	0.54	-48.2	-63.4	3.6	1.51e+00	0	28	104	0	60	53215
2026-01-11 19:19:02.80	49.60	0.59	-48.2	-63.3	3.6	1.51e+00	0	28	104	0	60	53151
2026-01-11 19:19:03.81	49.53	0.64	-48.2	-63.3	3.6	1.51e+00	0	28	104	0	60	52962
2026-01-11 19:19:04.82	49.45	0.69	-48.0	-63.3	3.6	1.51e+00	0	28	104	0	60	52672
2026-01-11 19:19:05.83	49.37	0.74	-48.0	-63.2	3.6	1.51e+00	0	28	104	0	60	52350
2026-01-11 19:19:06.84	49.29	0.79	-47.9	-63.1	3.6	1.51e+00	0	28	104	0	60	51939
2026-01-11 19:19:07.85	49.21	0.84	-47.9	-63.1	3.6	1.51e+00	0	28	104	0	60	51886
2026-01-11 19:19:08.86	49.13	0.89	-47.7	-62.9	3.6	1.51e+00	0	28	104	0	60	50673
2026-01-11 19:19:09.87	49.05	0.94	-47.5	-62.7	3.6	1.51e+00	0	28	104	0	60	49095
2026-01-11 19:19:10.88	48.97	0.99	-47.1	-62.2	3.6	1.51e+00	0	28	104	0	60	46657
2026-01-11 19:19:11.89	48.89	1.04	-46.4	-61.7	3.6	1.51e+00	0	28	104	0	60	43903
2026-01-11 19:19:12.90	48.80	1.09	-46.5	-61.7	3.6	1.51e+00	0	28	104	0	60	43891
2026-01-11 19:19:13.91	48.72	1.14	-46.4	-61.6	3.6	1.51e+00	0	28	104	0	60	43692
2026-01-11 19:19:14.92	48.64	1.19	-46.4	-61.6	3.6	1.51e+00	0	28	104	0	60	43392
2026-01-11 19:19:15.93	48.56	1.24	-46.5	-61.7	3.6	1.51e+00	0	28	104	0	60	43994
2026-01-11 19:19:16.94	48.48	1.29	-46.4	-61.7	3.6	1.51e+00	0	28	104	0	60	43720
2026-01-11 19:19:17.95	48.39	1.34	-46.4	-61.6	3.6	1.51e+00	0	28	104	0	60	43615
2026-01-11 19:19:18.96	48.31	1.39	-46.4	-61.6	3.6	1.51e+00	0	28	104	0	60	43607
2026-01-11 19:19:19.97	48.23	1.44	-46.4	-61.6	3.6	1.51e+00	0	28	104	0	60	43671
2026-01-11 19:19:20.98	48.14	1.49	-46.4	-61.6	3.6	1.51e+00	0	28	104	0	60	43578
2026-01-11 19:19:21.99	48.06	1.53	-46.4	-61.7	3.6	1.51e+00	0	28	104	0	60	43836
2026-01-11 19:19:23.00	47.97	1.58	-46.4	-61.6	3.6	1.51e+00	0	28	104	0	60	43303
2026-01-11 19:19:24.01	47.89	1.63	-46.4	-61.6	3.6	1.51e+00	0	28	104	0	60	43708
2026-01-11 19:19:25.02	47.81	1.68	-46.4	-61.6	3.6	1.51e+00	0	28	104	0	60	43429
2026-01-11 19:19:26.03	47.72	1.73	-46.4	-61.6	3.6	1.51e+00	0	28	104	0	60	43453
2026-01-11 19:19:27.04	47.63	1.78	-46.4	-61.6	3.6	1.51e+00	0	28	104	0	60	43590
2026-01-11 19:19:28.05	47.55	1.83	-46.4	-61.6	3.6	1.51e+00	0	28	104	0	60	43588
2026-01-11 19:19:29.06	47.46	1.88	-46.4	-61.6	3.6	1.51e+00	0	28	104	0	60	43518
2026-01-11 19:19:30.07	47.38	1.93	-46.4	-61.6	3.6	1.51e+00	0	28	104	0	60	43238
2026-01-11 19:19:31.08	47.29	1.98	-46.4	-61.4	3.6	1.51e+00	0	28	104	0	60	42677
2026-01-11 19:19:32.09	47.20	2.04	-46.4	-61.4	3.6	1.51e+00	0	28	104	0	60	42260
2026-01-11 19:19:33.10	47.12	2.09	-46.4	-61.3	3.6	1.51e+00	0	28	104	0	60	41909
2026-01-11 19:19:34.11	47.03	2.14	-46.4	-61.1	3.6	1.51e+00	0	28	104	0	60	41247
2026-01-11 19:19:35.12	46.94	2.19	-46.4	-61.2	3.6	1.51e+00	0	28	104	0	60	41486
2026-01-11 19:19:36.13	46.85	2.24	-46.4	-61.4	3.6	1.51e+00	0	28	104	0	60	42269
2026-01-11 19:19:37.13	46.76	2.29	-46.4	-61.6	3.6	1.51e+00	0	28	104	0	60	43267
2026-01-11 19:19:38.15	46.67	2.34	-46.4	-61.6	3.6	1.51e+00	0	28	104	0	60	43563
2026-01-11 19:19:39.16	46.59	2.39	-46.4	-61.5	3.6	1.51e+00	0	28	104	0	60	43068
2026-01-11 19:19:40.17	46.50	2.44	-46.4	-61.5	3.6	1.51e+00	0	28	104	0	60	42926
2026-01-11 19:19:41.18	46.41	2.49	-46.4	-61.6	3.6	1.51e+00	0	28	104	0	60	43388
2026-01-11 19:19:42.19	46.32	2.54	-46.4	-61.6	3.6	1.51e+00	0	28	104	0	60	43403
2026-01-11 19:19:43.20	46.23	2.59	-46.4	-61.3	3.6	1.51e+00	0	28	104	0	60	41834
2026-01-11 19:19:44.21	46.14	2.64	-46.4	-60.4	3.6	1.51e+00	0	28	104	0	60	38043
2026-01-11 19:19:45.21	46.05	2.69	-46.3	-60.3	3.6	1.51e+00	0	28	104	0	60	37437
2026-01-11 19:19:46.22	45.95	2.74	-46.4	-60.7	3.6	1.51e+00	0	28	104	0	60	39382
2026-01-11 19:19:47.23	45.86	2.79	-46.4	-61.3	3.6	1.51e+00	0	28	104	0	60	41950
2026-01-11 19:19:48.24	45.77	2.84	-46.3	-59.2	3.6	1.51e+00	0	28	104	0	60	33127
2026-01-11 19:19:49.25	45.68	2.89	-46.1	-56.3	5.0	8.84e-01	0	28	0	0	60	23668
2026-01-11 19:19:50.26	45.59	2.94	-45.5	-51.8	8.0	1.56e-01	0	28	0	1048576	60	14018
2026-01-11 19:19:51.27	45.49	2.99	-44.7	-49.5	10.9	8.47e-03	0	28	0	3145728	60	10739
2026-01-11 19:19:52.28	45.40	3.04	-44.4	-48.7	11.5	6.13e-04	0	28	0	5242880	60	9842
2026-01-11 19:19:53.29	45.31	3.09	-45.5	-51.7	8.1	1.55e-02	0	28	0	6291456	60	13860
2026-01-11 19:19:54.30	45.21	3.14	-46.0	-55.2	6.4	1.46e+00	0	28	104	7340032	60	20743
2026-01-11 19:19:55.31	45.12	3.19	-44.7	-49.3	12.9	5.79e-03	0	28	0	7340032	60	10590
2026-01-11 19:19:56.32	45.02	3.25	-41.6	-43.8	16.2	0.00e+00	0	28	0	9437184	58	6248
2026-01-11 19:19:57.33	44.93	3.30	-46.3	-60.7	3.6	1.51e+00	0	28	104	10485760	60	39167
2026-01-11 19:19:58.33	44.83	3.35	-42.5	-45.1	15.0	1.19e+00	0	28	104	10485760	58	7273
2026-01-11 19:19:59.34	44.74	3.40	-42.4	-45.0	15.7	0.00e+00	0	28	0	11534336	58	7182
2026-01-11 19:20:00.35	44.64	3.45	-41.9	-44.1	16.3	0.00e+00	0	28	0	13631488	58	6523
2026-01-11 19:20:01.36	44.54	3.50	-41.8	-44.0	16.7	0.00e+00	0	28	0	14680064	56	7198
2026-01-11 19:20:02.37	44.45	3.55	-41.9	-44.1	16.7	0.00e+00	0	28	0	16777216	56	7279
2026-01-11 19:20:03.38	44.35	3.60	-41.6	-43.7	17.0	0.00e+00	0	28	0	18874368	56	6962
2026-01-11 19:20:04.39	44.25	3.65	-41.7	-43.8	17.1	0.00e+00	0	28	0	20971520	56	7053
2026-01-11 19:20:05.40	44.16	3.70	-41.6	-43.7	17.1	0.00e+00	0	28	0	23068672	56	6960
2026-01-11 19:20:06.41	44.06	3.75	-41.5	-43.5	17.2	0.00e+00	0	28	0	24117248	56	6819
2026-01-11 19:20:07.42	43.96	3.80	-41.5	-43.5	17.3	0.00e+00	0	28	0	26214400	56	6781
2026-01-11 19:20:08.43	43.86	3.86	-41.3	-43.3	17.5	0.00e+00	0	28	0	28311552	56	6630
2026-01-11 19:20:09.44	43.76	3.91	-41.3	-43.2	17.7	0.00e+00	0	28	0	30408704	56	6579
2026-01-11 19:20:10.45	43.66	3.96	-41.5	-43.6	17.2	0.00e+00	0	28	0	32505856	56	6864
2026-01-11 19:20:11.45	43.56	4.01	-41.4	-43.3	17.5	0.00e+00	0	28	0	33554432	56	6676
2026-01-11 19:20:12.46	43.46	4.06	-41.5	-43.4	17.3	0.00e+00	0	28	0	35651584	56	6757
2026-01-11 19:20:13.47	43.36	4.11	-41.4	-43.3	17.5	0.00e+00	0	28	0	37748736	56	6661
2026-01-11 19:20:14.48	43.26	4.16	-41.2	-43.0	17.9	0.00e+00	0	28	0	39845888	56	6459
2026-01-11 19:20:15.49	43.16	4.21	-41.4	-43.3	17.5	0.00e+00	0	28	0	41943040	56	6659
2026-01-11 19:20:16.50	43.06	4.26	-41.2	-43.1	17.7	0.00e+00	0	28	0	42991616	56	6492
2026-01-11 19:20:17.51	42.96	4.31	-41.1	-42.9	17.9	0.00e+00	0	28	0	45088768	56	6360
2026-01-11 19:20:18.52	42.85	4.36	-41.0	-42.8	18.0	0.00e+00	0	28	0	47185920	56	6262
2026-01-11 19:20:19.53	42.75	4.42	-41.1	-42.9	17.9	0.00e+00	0	28	0	49283072	56	6367
2026-01-11 19:20:20.54	42.65	4.47	-41.2	-43.1	17.9	0.00e+00	0	28	0	51380224	56	6465
2026-01-11 19:20:21.55	42.54	4.52	-41.2	-43.1	17.9	0.00e+00	0	28	0	53477376	56	6508
2026-01-11 19:20:22.56	42.44	4.57	-41.3	-43.2	17.8	0.00e+00	0	28	0	54525952	56	6580
2026-01-11 19:20:23.57	42.33	4.62	-41.1	-43.0	17.9	0.00e+00	0	28	0	56623104	56	6451
2026-01-11 19:20:24.57	42.23	4.67	-40.9	-42.7	18.1	0.00e+00	0	28	0	58720256	56	6231
2026-01-11 19:20:25.58	42.13	4.72	-41.2	-43.1	17.9	0.00e+00	0	28	0	60817408	56	6477
2026-01-11 19:20:26.59	42.02	4.77	-41.3	-43.3	17.6	0.00e+00	0	28	0	62914560	56	6649
2026-01-11 19:20:27.60	41.91	4.82	-41.2	-43.0	17.9	0.00e+00	0	28	0	63963136	56	6464
2026-01-11 19:20:28.61	41.81	4.88	-41.1	-42.9	18.0	0.00e+00	0	28	0	66060288	56	6363
2026-01-11 19:20:29.62	41.70	4.93	-41.2	-43.1	17.9	0.00e+00	0	28	0	68157440	56	6488
2026-01-11 19:20:30.63	41.60	4.98	-41.0	-42.8	18.2	0.00e+00	0	28	0	70254592	56	6246
2026-01-11 19:20:31.64	41.49	5.03	-41.2	-43.0	18.0	0.00e+00	0	28	0	72351744	56	6464
2026-01-11 19:20:32.65	41.38	5.08	-41.1	-42.9	18.1	0.00e+00	0	28	0	73400320	56	6369
2026-01-11 19:20:33.66	41.27	5.13	-41.0	-42.8	18.2	0.00e+00	0	28	0	75497472	56	6263
2026-01-11 19:20:34.67	41.16	5.18	-41.2	-43.0	18.1	0.00e+00	0	28	0	77594624	56	6424
2026-01-11 19:20:35.67	41.06	5.23	-41.2	-43.0	18.1	0.00e+00	0	28	0	79691776	56	6412
2026-01-11 19:20:36.68	40.95	5.28	-41.1	-42.9	18.2	0.00e+00	0	28	0	81788928	56	6372
2026-01-11 19:20:37.69	40.84	5.34	-41.2	-43.0	17.9	0.00e+00	0	28	0	82837504	56	6452
2026-01-11 19:20:38.70	40.73	5.39	-41.1	-42.9	18.1	0.00e+00	0	28	0	84934656	56	6376
2026-01-11 19:20:39.71	40.62	5.44	-41.1	-43.0	18.1	0.00e+00	0	28	0	87031808	56	6399
2026-01-11 19:20:40.72	40.50	5.49	-41.0	-42.8	18.2	0.00e+00	0	28	0	89128960	56	6290
2026-01-11 19:20:41.73	40.39	5.54	-41.0	-42.7	18.4	0.00e+00	0	28	0	91226112	56	6214
2026-01-11 19:20:42.74	40.28	5.59	-40.8	-42.4	18.6	0.00e+00	0	28	0	92274688	56	6019
2026-01-11 19:20:43.74	40.17	5.64	-40.7	-42.4	18.7	0.00e+00	0	28	0	94371840	54	6693
2026-01-11 19:20:44.75	40.06	5.69	-40.6	-42.3	18.7	0.00e+00	0	28	0	96468992	54	6626
2026-01-11 19:20:45.76	39.95	5.74	-40.7	-42.3	18.8	0.00e+00	0	28	0	98566144	54	6665
2026-01-11 19:20:46.77	39.83	5.79	-40.4	-42.0	18.9	0.00e+00	0	28	0	100663296	54	6463
2026-01-11 19:20:47.78	39.72	5.85	-40.3	-41.9	19.1	0.00e+00	0	28	0	101711872	54	6318
2026-01-11 19:20:48.79	39.60	5.90	-40.4	-42.0	19.0	0.00e+00	0	28	0	103809024	54	6432
2026-01-11 19:20:49.80	39.49	5.95	-40.2	-41.8	19.2	0.00e+00	0	28	0	105906176	54	6264
2026-01-11 19:20:50.81	39.37	6.00	-40.0	-41.4	19.5	0.00e+00	0	28	0	108003328	54	6031
2026-01-11 19:20:51.82	39.26	6.05	-39.8	-41.2	19.7	0.00e+00	0	28	0	110100480	52	6607
2026-01-11 19:20:52.83	39.14	6.10	-39.7	-41.1	19.8	0.00e+00	0	28	0	111149056	52	6510
2026-01-11 19:20:53.84	39.03	6.15	-39.9	-41.3	19.7	0.00e+00	0	28	0	113246208	52	6636
2026-01-11 19:20:54.85	38.91	6.20	-39.8	-41.2	19.7	0.00e+00	0	28	0	115343360	52	6575
2026-01-11 19:20:55.86	38.79	6.25	-40.0	-41.4	19.5	0.00e+00	0	28	0	117440512	52	6744
2026-01-11 19:20:56.86	38.68	6.31	-39.9	-41.3	19.6	0.00e+00	0	28	0	119537664	52	6691
2026-01-11 19:20:57.87	38.56	6.36	-40.0	-41.4	19.6	0.00e+00	0	28	0	120586240	52	6727
2026-01-11 19:20:58.88	38.44	6.41	-39.9	-41.4	19.7	0.00e+00	0	28	0	122683392	52	6706
2026-01-11 19:20:59.89	38.32	6.46	-39.8	-41.2	19.7	0.00e+00	0	28	0	124780544	52	6561
2026-01-11 19:21:00.90	38.20	6.51	-39.6	-40.9	19.7	0.00e+00	0	28	0	126877696	52	6378
2026-01-11 19:21:01.91	38.08	6.56	-39.7	-41.1	19.5	0.00e+00	0	28	0	128974848	52	6488
2026-01-11 19:21:02.92	37.96	6.61	-39.5	-40.9	19.9	0.00e+00	0	28	0	131072000	52	6345
2026-01-11 19:21:03.92	37.84	6.66	-39.6	-40.9	20.0	0.00e+00	0	28	0	132120576	52	6390
2026-01-11 19:21:04.93	37.72	6.71	-39.9	-41.3	19.6	0.00e+00	0	28	0	134217728	52	6643
2026-01-11 19:21:05.94	37.60	6.76	-40.1	-41.5	19.6	0.00e+00	0	28	0	136314880	52	6816
2026-01-11 19:21:06.95	37.48	6.81	-39.9	-41.3	19.7	0.00e+00	0	28	0	138412032	52	6674
2026-01-11 19:21:07.96	37.36	6.87	-39.9	-41.3	19.8	0.00e+00	0	28	0	140509184	52	6638
2026-01-11 19:21:08.97	37.24	6.92	-39.8	-41.2	19.8	0.00e+00	0	28	0	141557760	52	6568
2026-01-11 19:21:09.98	37.11	6.97	-39.7	-41.1	19.9	0.00e+00	0	28	0	143654912	52	6494
2026-01-11 19:21:10.99	36.99	7.02	-39.7	-41.1	19.9	0.00e+00	0	28	0	145752064	52	6510
2026-01-11 19:21:12.00	36.86	7.07	-39.9	-41.4	19.6	0.00e+00	0	28	0	147849216	52	6701
2026-01-11 19:21:13.01	36.74	7.12	-40.2	-41.6	19.5	0.00e+00	0	28	0	149946368	52	6915
2026-01-11 19:21:14.02	36.62	7.17	-40.3	-41.8	19.4	0.00e+00	0	28	0	150994944	52	7040
2026-01-11 19:21:15.03	36.49	7.22	-40.0	-41.5	19.6	0.00e+00	0	28	0	153092096	52	6795
2026-01-11 19:21:16.04	36.36	7.27	-40.1	-41.6	19.5	0.00e+00	0	28	0	155189248	52	6867
2026-01-11 19:21:17.05	36.24	7.32	-40.2	-41.7	19.6	0.00e+00	0	28	0	157286400	52	6937
2026-01-11 19:21:18.05	36.11	7.37	-40.2	-41.7	19.6	0.00e+00	0	28	0	159383552	52	6958
2026-01-11 19:21:19.06	35.99	7.42	-40.2	-41.7	19.5	0.00e+00	0	28	0	160432128	52	6958
2026-01-11 19:21:20.07	35.86	7.47	-40.2	-41.7	19.5	0.00e+00	0	28	0	162529280	52	6966
2026-01-11 19:21:21.08	35.73	7.52	-40.5	-42.0	19.2	0.00e+00	0	28	0	164626432	52	7208
2026-01-11 19:21:22.09	35.60	7.57	-40.3	-41.8	19.4	0.00e+00	0	28	0	166723584	52	7040
2026-01-11 19:21:23.10	35.47	7.62	-40.4	-41.9	19.1	0.00e+00	0	28	0	168820736	52	7142
2026-01-11 19:21:24.11	35.34	7.67	-40.4	-41.9	19.2	0.00e+00	0	28	0	169869312	52	7120
2026-01-11 19:21:25.12	35.21	7.72	-40.0	-41.5	19.8	0.00e+00	0	28	0	171966464	52	6789
2026-01-11 19:21:26.13	35.08	7.78	-39.9	-41.2	19.9	0.00e+00	0	28	0	174063616	52	6603
2026-01-11 19:21:27.14	34.95	7.83	-40.0	-41.4	19.7	0.00e+00	0	28	0	176160768	52	6755
2026-01-11 19:21:28.15	34.82	7.88	-39.8	-41.2	20.0	0.00e+00	0	28	0	178257920	52	6564
2026-01-11 19:21:29.16	34.69	7.93	-40.0	-41.4	19.8	0.00e+00	0	28	0	179306496	52	6700
2026-01-11 19:21:30.17	34.56	7.98	-40.0	-41.4	19.7	0.00e+00	0	28	0	181403648	52	6753
2026-01-11 19:21:31.18	34.42	8.03	-39.9	-41.3	19.9	0.00e+00	0	28	0	183500800	52	6635
2026-01-11 19:21:32.19	34.29	8.08	-39.8	-41.1	19.9	0.00e+00	0	28	0	185597952	52	6536
2026-01-11 19:21:33.20	34.16	8.13	-39.7	-41.1	20.1	0.00e+00	0	28	0	187695104	52	6477
2026-01-11 19:21:34.20	34.03	8.18	-39.8	-41.1	20.1	0.00e+00	0	28	0	188743680	52	6508
2026-01-11 19:21:35.21	33.89	8.22	-39.9	-41.2	19.9	0.00e+00	0	28	0	190840832	52	6588
2026-01-11 19:21:36.22	33.76	8.27	-40.0	-41.4	19.8	0.00e+00	0	28	0	192937984	52	6769
2026-01-11 19:21:37.23	33.62	8.32	-40.1	-41.5	19.7	0.00e+00	0	28	0	195035136	52	6828
2026-01-11 19:21:38.25	33.48	8.37	-40.5	-42.1	19.2	0.00e+00	0	28	0	197132288	52	7286
2026-01-11 19:21:39.25	33.35	8.42	-40.1	-41.6	19.5	0.00e+00	0	28	0	198180864	52	6891
2026-01-11 19:21:40.26	33.21	8.47	-39.9	-41.3	19.9	0.00e+00	0	28	0	200278016	52	6652
2026-01-11 19:21:41.27	33.07	8.52	-39.9	-41.3	19.9	0.00e+00	0	28	0	202375168	52	6671
2026-01-11 19:21:42.28	32.94	8.57	-40.0	-41.5	19.8	0.00e+00	0	28	0	204472320	52	6771
2026-01-11 19:21:43.29	32.80	8.62	-40.2	-41.7	19.5	0.00e+00	0	28	0	206569472	52	7004
2026-01-11 19:21:44.30	32.66	8.67	-40.3	-41.9	19.3	0.00e+00	0	28	0	207618048	52	7109
2026-01-11 19:21:45.31	32.52	8.72	-40.4	-41.9	19.3	0.00e+00	0	28	0	209715200	52	7149
2026-01-11 19:21:46.32	32.38	8.77	-40.3	-41.9	19.6	0.00e+00	0	28	0	211812352	52	7103
2026-01-11 19:21:47.33	32.24	8.82	-40.0	-41.5	19.7	0.00e+00	0	28	0	213909504	52	6788
2026-01-11 19:21:48.34	32.10	8.87	-40.0	-41.4	19.8	0.00e+00	0	28	0	216006656	52	6734
2026-01-11 19:21:49.34	31.96	8.92	-39.9	-41.3	19.8	0.00e+00	0	28	0	217055232	52	6650
2026-01-11 19:21:50.36	31.82	8.97	-39.9	-41.3	20.0	0.00e+00	0	28	0	219152384	52	6648
2026-01-11 19:21:51.37	31.67	9.01	-39.8	-41.2	20.0	0.00e+00	0	28	0	221249536	52	6576
2026-01-11 19:21:52.37	31.53	9.06	-39.9	-41.4	20.0	0.00e+00	0	28	0	223346688	52	6694
2026-01-11 19:21:53.38	31.39	9.11	-39.8	-41.1	20.0	0.00e+00	0	28	0	225443840	52	6519
2026-01-11 19:21:54.39	31.25	9.16	-39.8	-41.1	20.1	0.00e+00	0	28	0	227540992	52	6528
2026-01-11 19:21:55.40	31.10	9.21	-39.7	-41.0	20.2	0.00e+00	0	28	0	228589568	52	6455
2026-01-11 19:21:56.41	30.96	9.26	-39.5	-40.9	20.4	0.00e+00	0	28	0	230686720	52	6324
2026-01-11 19:21:57.42	30.81	9.31	-39.5	-40.8	20.4	0.00e+00	0	28	0	232783872	52	6302
2026-01-11 19:21:58.43	30.67	9.35	-39.4	-40.6	20.5	0.00e+00	0	28	0	234881024	52	6155
2026-01-11 19:21:59.44	30.52	9.40	-39.4	-40.6	20.5	0.00e+00	0	28	0	236978176	52	6167
2026-01-11 19:22:00.45	30.37	9.45	-39.3	-40.6	20.6	0.00e+00	0	28	0	238026752	52	6145
2026-01-11 19:22:01.46	30.23	9.50	-39.0	-40.3	20.9	0.00e+00	0	28	0	240123904	52	5910
2026-01-11 19:22:02.47	30.08	9.55	-38.9	-40.1	21.0	0.00e+00	0	28	0	242221056	52	5826
2026-01-11 19:22:03.48	29.93	9.59	-38.8	-40.0	21.2	0.00e+00	0	28	0	244318208	50	6407
2026-01-11 19:22:04.49	29.78	9.64	-38.8	-40.0	21.1	0.00e+00	0	28	0	246415360	50	6438
2026-01-11 19:22:05.50	29.63	9.69	-38.8	-40.0	21.1	0.00e+00	0	28	0	247463936	50	6447
2026-01-11 19:22:06.51	29.48	9.74	-38.7	-39.8	21.3	0.00e+00	0	28	0	249561088	50	6301
2026-01-11 19:22:07.52	29.33	9.78	-38.7	-39.9	21.4	0.00e+00	0	28	0	251658240	50	6326
2026-01-11 19:22:08.53	29.18	9.83	-38.3	-39.4	21.3	0.00e+00	0	28	0	253755392	50	6007
2026-01-11 19:22:09.54	29.03	9.88	-38.2	-39.2	21.7	0.00e+00	0	28	0	255852544	50	5895
2026-01-11 19:22:10.54	28.88	9.93	-38.1	-39.2	21.8	0.00e+00	0	28	0	256901120	50	5871
2026-01-11 19:22:11.56	28.73	9.97	-37.8	-38.8	22.1	0.00e+00	0	28	0	258998272	50	5621
2026-01-11 19:22:12.56	28.58	10.02	-37.8	-38.8	22.1	0.00e+00	0	28	0	261095424	48	6300
2026-01-11 19:22:13.57	28.43	10.07	-37.8	-38.8	22.1	0.00e+00	0	28	0	263192576	48	6301
2026-01-11 19:22:14.58	28.27	10.11	-37.8	-38.8	22.1	0.00e+00	0	28	0	265289728	48	6283
2026-01-11 19:22:15.59	28.12	10.16	-37.9	-39.0	22.0	0.00e+00	0	28	0	266338304	48	6394
2026-01-11 19:22:16.60	27.96	10.21	-38.0	-39.1	21.8	0.00e+00	0	28	0	268435456	48	6472
2026-01-11 19:22:17.61	27.81	10.25	-38.0	-39.1	21.9	0.00e+00	0	28	0	270532608	48	6493
2026-01-11 19:22:18.62	27.65	10.30	-38.3	-39.5	21.6	0.00e+00	0	28	0	272629760	48	6786
2026-01-11 19:22:19.63	27.50	10.34	-38.3	-39.5	21.7	0.00e+00	0	28	0	274726912	48	6776
2026-01-11 19:22:20.64	27.34	10.39	-38.4	-39.6	21.5	0.00e+00	0	28	0	275775488	48	6878
2026-01-11 19:22:21.65	27.18	10.44	-38.6	-39.8	21.3	0.00e+00	0	28	0	277872640	48	7038
2026-01-11 19:22:22.66	27.03	10.48	-38.6	-39.7	21.4	0.00e+00	0	28	0	279969792	48	6992
2026-01-11 19:22:23.67	26.87	10.53	-38.3	-39.4	21.6	0.00e+00	0	28	0	282066944	48	6755
2026-01-11 19:22:24.67	26.71	10.57	-38.2	-39.4	21.6	0.00e+00	0	28	0	284164096	48	6721
2026-01-11 19:22:25.68	26.55	10.62	-38.3	-39.4	21.6	0.00e+00	0	28	0	285212672	48	6740
2026-01-11 19:22:26.69	26.39	10.66	-38.1	-39.2	21.7	0.00e+00	0	28	0	287309824	48	6592
2026-01-11 19:22:27.70	26.23	10.71	-38.1	-39.2	21.7	0.00e+00	0	28	0	289406976	48	6585
2026-01-11 19:22:28.70	26.07	10.75	-37.8	-38.8	22.2	0.00e+00	0	28	0	291504128	48	6304
2026-01-11 19:22:29.71	25.91	10.80	-37.5	-38.5	22.4	0.00e+00	0	28	0	293601280	48	6092
2026-01-11 19:22:30.72	25.75	10.84	-37.3	-38.3	22.6	0.00e+00	0	28	0	295698432	48	5947
2026-01-11 19:22:31.73	25.59	10.89	-37.2	-38.2	22.6	0.00e+00	0	28	0	296747008	48	5880
2026-01-11 19:22:32.74	25.43	10.93	-37.2	-38.2	22.7	0.00e+00	0	28	0	298844160	48	5852
2026-01-11 19:22:33.74	25.27	10.98	-37.1	-38.0	22.8	0.00e+00	0	28	0	300941312	48	5744
2026-01-11 19:22:34.75	25.10	11.02	-37.1	-38.1	22.8	0.00e+00	0	28	0	303038464	48	5781
2026-01-11 19:22:35.76	24.94	11.06	-37.1	-38.1	22.6	0.00e+00	0	28	0	305135616	48	5793
2026-01-11 19:22:36.77	24.77	11.11	-37.1	-38.1	22.8	0.00e+00	0	28	0	306184192	48	5795
2026-01-11 19:22:37.78	24.61	11.15	-37.1	-38.0	22.8	0.00e+00	0	28	0	308281344	48	5753
2026-01-11 19:22:38.79	24.44	11.20	-37.1	-38.1	22.8	0.00e+00	0	28	0	310378496	48	5768
2026-01-11 19:22:39.80	24.28	11.24	-37.2	-38.2	22.6	0.00e+00	0	28	0	312475648	48	5846
2026-01-11 19:22:40.81	24.11	11.28	-37.4	-38.4	22.5	0.00e+00	0	28	0	314572800	48	6019
2026-01-11 19:22:41.82	23.94	11.33	-37.6	-38.6	22.3	0.00e+00	0	28	0	315621376	48	6151
2026-01-11 19:22:42.83	23.78	11.37	-37.5	-38.5	22.4	0.00e+00	0	28	0	317718528	48	6092
2026-01-11 19:22:43.84	23.61	11.41	-37.5	-38.5	22.4	0.00e+00	0	28	0	319815680	48	6044
2026-01-11 19:22:44.85	23.44	11.45	-37.0	-37.9	22.8	0.00e+00	0	28	0	321912832	48	5666
2026-01-11 19:22:45.86	23.27	11.50	-36.9	-37.9	23.0	0.00e+00	0	28	0	324009984	48	5639
2026-01-11 19:22:46.87	23.10	11.54	-36.8	-37.7	23.0	0.00e+00	0	28	0	325058560	46	6231
2026-01-11 19:22:47.88	22.93	11.58	-36.7	-37.6	23.1	0.00e+00	0	28	0	327155712	46	6164
2026-01-11 19:22:48.89	22.76	11.62	-36.8	-37.8	23.0	0.00e+00	0	28	0	329252864	46	6258
2026-01-11 19:22:49.89	22.59	11.66	-36.8	-37.8	22.9	0.00e+00	0	28	0	331350016	46	6268
2026-01-11 19:22:50.90	22.42	11.70	-36.8	-37.8	22.9	0.00e+00	0	28	0	333447168	46	6264
2026-01-11 19:22:51.91	22.25	11.75	-37.0	-38.0	22.9	0.00e+00	0	28	0	334495744	46	6430
2026-01-11 19:22:52.92	22.08	11.79	-37.0	-38.0	22.9	0.00e+00	0	28	0	336592896	46	6438
2026-01-11 19:22:53.92	21.90	11.83	-37.1	-38.1	22.7	0.00e+00	0	28	0	338690048	46	6499
2026-01-11 19:22:54.93	21.73	11.87	-37.4	-38.4	22.6	0.00e+00	0	28	0	340787200	46	6714
2026-01-11 19:22:55.94	21.56	11.91	-37.4	-38.5	22.4	0.00e+00	0	28	0	342884352	46	6788
2026-01-11 19:22:56.95	21.38	11.95	-37.8	-38.9	22.2	0.00e+00	0	28	0	343932928	48	6357
2026-01-11 19:22:57.96	21.21	11.99	-37.8	-38.9	22.2	0.00e+00	0	28	0	346030080	48	6332
2026-01-11 19:22:58.97	21.03	12.03	-37.7	-38.7	22.2	0.00e+00	0	28	0	348127232	48	6229
2026-01-11 19:22:59.98	20.86	12.07	-37.5	-38.6	21.9	0.00e+00	0	28	0	350224384	48	6124
2026-01-11 19:23:00.98	20.68	12.11	-37.5	-38.5	22.3	0.00e+00	0	28	0	352321536	48	6087
2026-01-11 19:23:01.99	20.51	12.15	-37.6	-38.6	22.4	0.00e+00	0	28	0	353370112	48	6141
2026-01-11 19:23:03.00	20.33	12.19	-37.5	-38.6	22.4	0.00e+00	0	28	0	355467264	48	6117
2026-01-11 19:23:04.01	20.15	12.23	-37.6	-38.6	22.4	0.00e+00	0	28	0	357564416	48	6125
2026-01-11 19:23:05.02	19.97	12.27	-37.4	-38.4	22.5	0.00e+00	0	28	0	359661568	48	6011
2026-01-11 19:23:06.02	19.79	12.30	-37.4	-38.4	22.5	0.00e+00	0	28	0	361758720	48	5989
2026-01-11 19:23:07.04	19.61	12.34	-37.4	-38.4	22.5	0.00e+00	0	28	0	362807296	48	5980
2026-01-11 19:23:08.04	19.44	12.38	-37.5	-38.5	22.4	0.00e+00	0	28	0	364904448	48	6086
2026-01-11 19:23:09.05	19.26	12.42	-37.7	-38.8	22.3	0.00e+00	0	28	0	367001600	48	6256
2026-01-11 19:23:10.06	19.08	12.46	-38.0	-39.1	22.1	0.00e+00	0	28	0	369098752	48	6469
2026-01-11 19:23:11.07	18.89	12.49	-38.0	-39.1	22.0	0.00e+00	0	28	0	371195904	48	6503
2026-01-11 19:23:12.08	18.71	12.53	-37.9	-38.9	22.1	0.00e+00	0	28	0	372244480	48	6386
2026-01-11 19:23:13.09	18.53	12.57	-37.6	-38.6	22.4	0.00e+00	0	28	0	374341632	48	6147
2026-01-11 19:23:14.10	18.35	12.60	-37.6	-38.6	22.2	0.00e+00	0	28	0	376438784	48	6119
2026-01-11 19:23:15.11	18.17	12.64	-37.1	-38.1	22.8	0.00e+00	0	28	0	378535936	48	5806
2026-01-11 19:23:16.12	17.98	12.68	-37.0	-38.0	22.9	0.00e+00	0	28	0	380633088	48	5728
2026-01-11 19:23:17.13	17.80	12.71	-37.2	-38.1	22.8	0.00e+00	0	28	0	381681664	48	5814
2026-01-11 19:23:18.14	17.61	12.75	-37.3	-38.3	22.6	0.00e+00	0	28	0	383778816	48	5927
2026-01-11 19:23:19.15	17.43	12.78	-37.3	-38.2	22.7	0.00e+00	0	28	0	385875968	48	5887
2026-01-11 19:23:20.15	17.25	12.82	-37.3	-38.3	22.7	0.00e+00	0	28	0	387973120	48	5913
2026-01-11 19:23:21.16	17.06	12.85	-37.3	-38.2	22.7	0.00e+00	0	28	0	390070272	48	5893
2026-01-11 19:23:22.17	16.87	12.89	-37.4	-38.4	22.5	0.00e+00	0	28	0	392167424	48	5993
2026-01-11 19:23:23.18	16.69	12.92	-37.6	-38.6	22.4	0.00e+00	0	28	0	393216000	48	6144
2026-01-11 19:23:24.19	16.50	12.96	-37.5	-38.5	22.6	0.00e+00	0	28	0	395313152	48	6048
2026-01-11 19:23:25.20	16.31	12.99	-37.6	-38.6	22.4	0.00e+00	0	28	0	397410304	48	6134
2026-01-11 19:23:26.21	16.12	13.03	-37.5	-38.5	22.5	0.00e+00	0	28	0	399507456	48	6071
2026-01-11 19:23:27.22	15.94	13.06	-37.2	-38.2	22.8	0.00e+00	0	28	0	401604608	48	5850
2026-01-11 19:23:28.23	15.75	13.09	-37.2	-38.2	22.6	0.00e+00	0	28	0	402653184	48	5866
2026-01-11 19:23:29.24	15.56	13.13	-37.1	-38.1	22.5	0.00e+00	0	28	0	404750336	48	5801
2026-01-11 19:23:30.24	15.37	13.16	-37.2	-38.2	22.7	0.00e+00	0	28	0	406847488	48	5874
2026-01-11 19:23:31.25	15.18	13.19	-37.5	-38.6	22.4	0.00e+00	0	28	0	408944640	48	6113
2026-01-11 19:23:32.26	14.99	13.22	-37.7	-38.8	22.2	0.00e+00	0	28	0	411041792	48	6274
2026-01-11 19:23:33.28	14.80	13.26	-37.9	-39.0	22.1	0.00e+00	0	28	0	412090368	48	6393
2026-01-11 19:23:34.29	14.61	13.29	-38.3	-39.5	21.7	0.00e+00	0	28	0	414187520	48	6783
2026-01-11 19:23:35.29	14.42	13.32	-38.2	-39.3	21.9	0.00e+00	0	28	0	416284672	48	6654
2026-01-11 19:23:36.30	14.22	13.35	-38.0	-39.2	22.0	0.00e+00	0	28	0	418381824	48	6552
2026-01-11 19:23:37.32	14.03	13.38	-38.1	-39.2	21.9	0.00e+00	0	28	0	420478976	48	6601
2026-01-11 19:23:38.32	13.84	13.41	-38.0	-39.1	22.1	0.00e+00	0	28	0	421527552	48	6501
2026-01-11 19:23:39.33	13.65	13.44	-37.7	-38.7	22.4	0.00e+00	0	28	0	423624704	48	6237
2026-01-11 19:23:40.34	13.45	13.47	-37.5	-38.5	22.5	0.00e+00	0	28	0	425721856	48	6062
2026-01-11 19:23:41.35	13.26	13.50	-37.3	-38.2	22.7	0.00e+00	0	28	0	427819008	48	5880
2026-01-11 19:23:42.36	13.06	13.53	-36.8	-37.7	22.5	0.00e+00	0	28	0	429916160	48	5523
2026-01-11 19:23:43.37	12.87	13.56	-36.5	-37.4	23.2	0.00e+00	0	28	0	430964736	46	6008
2026-01-11 19:23:44.38	12.67	13.59	-36.6	-37.5	23.4	0.00e+00	0	28	0	433061888	46	6064
2026-01-11 19:23:45.39	12.48	13.62	-36.4	-37.3	23.5	0.00e+00	0	28	0	435159040	46	5907
2026-01-11 19:23:46.40	12.28	13.65	-36.7	-37.7	23.1	0.00e+00	0	28	0	437256192	46	6183
2026-01-11 19:23:47.41	12.08	13.67	-36.8	-37.7	23.1	0.00e+00	0	28	0	439353344	46	6209
2026-01-11 19:23:48.42	11.89	13.70	-36.8	-37.7	23.2	0.00e+00	0	28	0	440401920	46	6218
2026-01-11 19:23:49.43	11.69	13.73	-36.7	-37.6	23.2	0.00e+00	0	28	0	442499072	46	6146
2026-01-11 19:23:50.44	11.49	13.76	-36.3	-37.2	23.6	0.00e+00	0	28	0	444596224	46	5884
2026-01-11 19:23:51.45	11.30	13.78	-36.3	-37.2	23.6	0.00e+00	0	28	0	446693376	46	5846
2026-01-11 19:23:52.46	11.10	13.81	-36.2	-37.1	23.5	0.00e+00	0	28	0	448790528	46	5786
2026-01-11 19:23:53.47	10.90	13.84	-36.4	-37.3	23.4	0.00e+00	0	28	0	449839104	46	5943
2026-01-11 19:23:54.47	10.70	13.86	-36.6	-37.5	23.2	0.00e+00	0	28	0	451936256	46	6043
2026-01-11 19:23:55.48	10.50	13.89	-36.6	-37.6	23.1	0.00e+00	0	28	0	454033408	46	6115
2026-01-11 19:23:56.49	10.30	13.91	-36.5	-37.4	23.3	0.00e+00	0	27	0	456130560	46	6002
2026-01-11 19:23:57.50	10.10	13.94	-36.8	-37.7	23.2	0.00e+00	0	28	0	458227712	46	6210
2026-01-11 19:23:58.51	9.90	13.96	-37.0	-37.9	23.0	0.00e+00	0	28	0	460324864	46	6381
2026-01-11 19:23:59.52	9.70	13.99	-37.3	-38.3	22.7	0.00e+00	0	28	0	461373440	46	6620
2026-01-11 19:24:00.53	9.50	14.01	-37.5	-38.5	22.5	0.00e+00	0	28	0	463470592	46	6844
2026-01-11 19:24:01.54	9.30	14.03	-37.6	-38.6	22.4	0.00e+00	0	28	0	465567744	46	6905
2026-01-11 19:24:02.55	9.10	14.06	-37.8	-38.8	22.2	0.00e+00	0	28	0	467664896	48	6306
2026-01-11 19:24:03.55	8.90	14.08	-37.8	-38.9	22.3	0.00e+00	0	28	0	468713472	48	6353
2026-01-11 19:24:04.56	8.69	14.10	-37.9	-39.0	22.1	0.00e+00	0	28	0	470810624	48	6449
2026-01-11 19:24:05.57	8.49	14.12	-37.8	-38.9	22.2	0.00e+00	0	28	0	472907776	48	6332
2026-01-11 19:24:06.58	8.29	14.15	-37.7	-38.8	22.3	0.00e+00	0	28	0	475004928	48	6259
2026-01-11 19:24:07.59	8.09	14.17	-37.7	-38.7	22.3	0.00e+00	0	28	0	477102080	48	6207
2026-01-11 19:24:08.60	7.88	14.19	-37.6	-38.6	22.0	0.00e+00	0	28	0	478150656	48	6161
2026-01-11 19:24:09.61	7.68	14.21	-37.8	-38.9	22.1	0.00e+00	0	27	0	480247808	48	6373
2026-01-11 19:24:10.62	7.47	14.23	-37.8	-38.8	22.2	0.00e+00	0	28	0	482344960	48	6312
2026-01-11 19:24:11.63	7.27	14.25	-37.9	-38.9	22.1	0.00e+00	0	28	0	484442112	48	6388
2026-01-11 19:24:12.64	7.07	14.27	-37.6	-38.7	22.4	0.00e+00	0	28	0	486539264	48	6189
2026-01-11 19:24:13.65	6.86	14.29	-37.8	-38.8	22.2	0.00e+00	0	28	0	488636416	48	6310
2026-01-11 19:24:14.66	6.66	14.31	-37.6	-38.6	22.4	0.00e+00	0	28	0	489684992	48	6171
2026-01-11 19:24:15.67	6.45	14.33	-37.3	-38.4	22.6	0.00e+00	0	28	0	491782144	48	5973
2026-01-11 19:24:16.68	6.24	14.35	-37.3	-38.4	22.7	0.00e+00	0	28	0	493879296	48	5980
2026-01-11 19:24:17.69	6.04	14.36	-37.3	-38.3	22.7	0.00e+00	0	28	0	495976448	48	5914
2026-01-11 19:24:18.70	5.83	14.38	-37.2	-38.2	22.8	0.00e+00	0	28	0	498073600	48	5843
2026-01-11 19:24:19.71	5.63	14.40	-37.1	-38.0	23.0	0.00e+00	0	28	0	499122176	48	5735
2026-01-11 19:24:20.71	5.42	14.42	-36.8	-37.7	23.1	0.00e+00	0	27	0	501219328	48	5560
2026-01-11 19:24:21.72	5.21	14.43	-36.6	-37.5	23.3	0.00e+00	0	28	0	503316480	46	6097
2026-01-11 19:24:22.73	5.01	14.45	-36.6	-37.5	23.3	0.00e+00	0	28	0	505413632	46	6060
2026-01-11 19:24:23.74	4.80	14.46	-36.6	-37.5	23.3	0.00e+00	0	28	0	507510784	46	6084
2026-01-11 19:24:24.74	4.59	14.48	-37.1	-38.0	22.9	0.00e+00	0	28	0	508559360	46	6448
2026-01-11 19:24:25.75	4.39	14.50	-37.5	-38.5	22.7	0.00e+00	0	28	0	510656512	46	6788
2026-01-11 19:24:26.76	4.18	14.51	-37.5	-38.5	22.6	0.00e+00	0	28	0	512753664	46	6824
2026-01-11 19:24:27.77	3.97	14.52	-37.8	-38.8	22.3	0.00e+00	0	28	0	514850816	46	7071
2026-01-11 19:24:28.78	3.76	14.54	-37.4	-38.5	22.5	0.00e+00	0	28	0	516947968	48	6046
2026-01-11 19:24:29.79	3.55	14.55	-37.3	-38.4	22.6	0.00e+00	0	28	0	517996544	48	5968
2026-01-11 19:24:30.80	3.34	14.57	-37.3	-38.3	22.8	0.00e+00	0	28	0	520093696	48	5952
2026-01-11 19:24:31.81	3.13	14.58	-37.4	-38.5	22.5	0.00e+00	0	27	0	522190848	48	6065
2026-01-11 19:24:32.82	2.93	14.59	-37.1	-38.1	22.8	0.00e+00	0	28	0	524288000	48	5791
2026-01-11 19:24:33.83	2.72	14.60	-37.1	-38.1	22.7	0.00e+00	0	27	0	526385152	48	5817
2026-01-11 19:24:34.83	2.51	14.62	-37.3	-38.3	22.7	0.00e+00	0	27	0	527433728	48	5923
2026-01-11 19:24:35.84	2.30	14.63	-37.2	-38.2	22.7	0.00e+00	0	28	0	529530880	48	5831
2026-01-11 19:24:36.85	2.09	14.64	-37.3	-38.3	22.7	0.00e+00	0	28	0	531628032	48	5928
2026-01-11 19:24:37.86	1.88	14.65	-37.4	-38.4	22.6	0.00e+00	0	28	0	533725184	48	6031
2026-01-11 19:24:38.87	1.67	14.66	-37.3	-38.4	22.7	0.00e+00	0	27	0	535822336	48	5968
2026-01-11 19:24:39.88	1.46	14.67	-37.2	-38.2	22.9	0.00e+00	0	28	0	536870912	48	5835
2026-01-11 19:24:40.89	1.25	14.68	-37.4	-38.4	22.6	0.00e+00	0	27	0	538968064	48	6006
2026-01-11 19:24:41.90	1.04	14.69	-37.4	-38.4	22.5	0.00e+00	0	28	0	541065216	48	6021
2026-01-11 19:24:42.90	0.83	14.70	-37.6	-38.6	22.5	0.00e+00	0	27	0	543162368	48	6138
2026-01-11 19:24:43.91	0.62	14.70	-37.7	-38.7	22.3	0.00e+00	0	27	0	545259520	48	6219
2026-01-11 19:24:44.92	0.41	14.71	-37.5	-38.5	22.5	0.00e+00	0	27	0	546308096	48	6088
2026-01-11 19:24:45.93	0.19	14.72	-37.3	-38.3	22.7	0.00e+00	0	27	0	548405248	48	5912
2026-01-11 19:24:46.94	359.98	14.73	-37.2	-38.2	22.8	0.00e+00	0	28	0	550502400	48	5862
2026-01-11 19:24:47.95	359.77	14.73	-37.2	-38.2	22.8	0.00e+00	0	27	0	552599552	48	5872
2026-01-11 19:24:48.96	359.56	14.74	-36.9	-37.9	23.0	0.00e+00	0	28	0	554696704	48	5639
2026-01-11 19:24:49.97	359.35	14.75	-36.9	-37.9	23.0	0.00e+00	0	28	0	556793856	48	5646
2026-01-11 19:24:50.98	359.14	14.75	-37.0	-38.0	23.0	0.00e+00	0	28	0	557842432	48	5719
2026-01-11 19:24:51.99	358.93	14.76	-37.1	-38.1	22.9	0.00e+00	0	28	0	559939584	48	5766
2026-01-11 19:24:53.00	358.71	14.76	-37.0	-38.0	22.9	0.00e+00	0	28	0	562036736	48	5750
2026-01-11 19:24:54.01	358.50	14.77	-37.1	-38.1	22.8	0.00e+00	0	28	0	564133888	48	5780
2026-01-11 19:24:55.02	358.29	14.77	-37.1	-38.1	22.8	0.00e+00	0	27	0	566231040	48	5816
2026-01-11 19:24:56.02	358.08	14.77	-37.0	-38.0	22.9	0.00e+00	0	27	0	567279616	48	5738
2026-01-11 19:24:57.03	357.87	14.78	-37.2	-38.2	22.7	0.00e+00	0	27	0	569376768	48	5873
2026-01-11 19:24:58.04	357.66	14.78	-37.2	-38.2	22.9	0.00e+00	0	27	0	571473920	48	5831
2026-01-11 19:24:59.05	357.44	14.78	-37.3	-38.3	22.7	0.00e+00	0	27	0	573571072	48	5926
2026-01-11 19:25:00.06	357.23	14.79	-37.4	-38.4	22.6	0.00e+00	0	27	0	575668224	48	5993
2026-01-11 19:25:01.07	357.02	14.79	-37.7	-38.7	22.3	0.00e+00	0	27	0	576716800	48	6216
2026-01-11 19:25:02.08	356.81	14.79	-37.7	-38.8	22.3	0.00e+00	0	28	0	578813952	48	6264
2026-01-11 19:25:03.09	356.60	14.79	-37.9	-39.0	22.2	0.00e+00	0	27	0	580911104	48	6399
2026-01-11 19:25:04.10	356.38	14.79	-37.6	-38.7	22.4	0.00e+00	0	28	0	583008256	48	6185
2026-01-11 19:25:05.11	356.17	14.79	-37.5	-38.5	22.5	0.00e+00	0	27	0	585105408	48	6060
2026-01-11 19:25:06.12	355.96	14.79	-37.3	-38.3	22.7	0.00e+00	0	27	0	586153984	48	5948
2026-01-11 19:25:07.13	355.75	14.79	-37.0	-38.0	22.8	0.00e+00	0	28	0	588251136	48	5746
2026-01-11 19:25:08.13	355.54	14.79	-36.8	-37.7	23.1	0.00e+00	0	27	0	590348288	48	5552
2026-01-11 19:25:09.14	355.33	14.79	-36.8	-37.7	23.1	0.00e+00	0	27	0	592445440	48	5566
2026-01-11 19:25:10.15	355.11	14.78	-36.8	-37.8	23.1	0.00e+00	0	27	0	594542592	46	6313
2026-01-11 19:25:11.16	354.90	14.78	-36.8	-37.8	23.2	0.00e+00	0	27	0	595591168	46	6255
2026-01-11 19:25:12.17	354.69	14.78	-37.0	-38.0	22.8	0.00e+00	0	27	0	597688320	46	6454
2026-01-11 19:25:13.18	354.48	14.78	-37.2	-38.2	22.7	0.00e+00	0	28	0	599785472	46	6568
2026-01-11 19:25:14.19	354.27	14.77	-37.4	-38.4	22.7	0.00e+00	0	27	0	601882624	46	6743
2026-01-11 19:25:15.20	354.05	14.77	-37.6	-38.6	22.4	0.00e+00	0	27	0	603979776	46	6879
2026-01-11 19:25:16.21	353.84	14.77	-37.6	-38.6	22.5	0.00e+00	0	27	0	605028352	46	6909
2026-01-11 19:25:17.22	353.63	14.76	-37.7	-38.7	22.4	0.00e+00	0	28	0	607125504	46	6996
2026-01-11 19:25:18.23	353.42	14.76	-37.5	-38.6	22.4	0.00e+00	0	27	0	609222656	46	6860
2026-01-11 19:25:19.24	353.21	14.75	-37.5	-38.6	22.5	0.00e+00	0	27	0	611319808	46	6896
2026-01-11 19:25:20.25	352.99	14.75	-37.6	-38.6	22.5	0.00e+00	0	27	0	613416960	46	6909
2026-01-11 19:25:21.26	352.78	14.74	-37.6	-38.6	21.7	0.00e+00	0	27	0	614465536	46	6904
2026-01-11 19:25:22.26	352.57	14.73	-37.8	-38.9	22.2	0.00e+00	0	27	0	616562688	48	6351
2026-01-11 19:25:23.27	352.36	14.73	-38.0	-39.1	22.0	0.00e+00	0	27	0	618659840	48	6512
2026-01-11 19:25:24.28	352.15	14.72	-38.2	-39.3	21.8	0.00e+00	0	28	0	620756992	48	6680
2026-01-11 19:25:25.29	351.94	14.71	-38.3	-39.4	21.8	0.00e+00	0	27	0	622854144	48	6729
2026-01-11 19:25:26.30	351.73	14.70	-38.1	-39.2	21.9	0.00e+00	0	27	0	623902720	48	6597
2026-01-11 19:25:27.31	351.52	14.69	-37.8	-38.9	22.3	0.00e+00	0	27	0	625999872	48	6331
2026-01-11 19:25:28.32	351.31	14.69	-37.7	-38.8	22.4	0.00e+00	0	27	0	628097024	48	6259
2026-01-11 19:25:29.33	351.10	14.68	-37.5	-38.5	22.6	0.00e+00	0	27	0	630194176	48	6080
2026-01-11 19:25:30.33	350.89	14.67	-37.3	-38.3	22.7	0.00e+00	0	27	0	632291328	48	5912
2026-01-11 19:25:31.34	350.68	14.66	-37.1	-38.1	23.0	0.00e+00	0	27	0	633339904	48	5770
2026-01-11 19:25:32.36	350.47	14.65	-37.0	-38.0	23.0	0.00e+00	0	27	0	635437056	48	5716
2026-01-11 19:25:33.36	350.26	14.64	-37.0	-38.0	23.0	0.00e+00	0	27	0	637534208	48	5701
2026-01-11 19:25:34.37	350.05	14.62	-37.0	-38.0	23.0	0.00e+00	0	27	0	639631360	48	5734
2026-01-11 19:25:35.38	349.84	14.61	-37.1	-38.1	22.9	0.00e+00	0	27	0	641728512	48	5767
2026-01-11 19:25:36.39	349.63	14.60	-37.3	-38.3	22.6	0.00e+00	0	27	0	642777088	48	5938
2026-01-11 19:25:37.40	349.42	14.59	-37.6	-38.6	22.5	0.00e+00	0	27	0	644874240	48	6171
2026-01-11 19:25:38.41	349.21	14.58	-37.7	-38.7	22.3	0.00e+00	0	27	0	646971392	48	6237
2026-01-11 19:25:39.42	349.00	14.56	-37.7	-38.7	22.5	0.00e+00	0	27	0	649068544	48	6208
2026-01-11 19:25:40.43	348.79	14.55	-37.3	-38.3	22.8	0.00e+00	0	27	0	651165696	48	5899
2026-01-11 19:25:41.44	348.58	14.54	-37.1	-38.1	22.9	0.00e+00	0	27	0	653262848	48	5815
2026-01-11 19:25:42.45	348.38	14.52	-36.7	-37.6	23.3	0.00e+00	0	27	0	654311424	46	6150
2026-01-11 19:25:43.46	348.17	14.51	-36.5	-37.4	23.3	0.00e+00	0	27	0	656408576	46	6015
2026-01-11 19:25:44.47	347.96	14.49	-36.4	-37.4	23.5	0.00e+00	0	27	0	658505728	46	5980
2026-01-11 19:25:45.48	347.75	14.48	-36.6	-37.5	23.1	0.00e+00	0	27	0	660602880	46	6092
2026-01-11 19:25:46.48	347.55	14.46	-36.8	-37.7	23.2	0.00e+00	0	27	0	662700032	46	6223
2026-01-11 19:25:47.49	347.34	14.45	-36.7	-37.6	23.3	0.00e+00	0	28	0	663748608	46	6164
2026-01-11 19:25:48.50	347.13	14.43	-36.8	-37.8	23.0	0.00e+00	0	28	0	665845760	46	6300
2026-01-11 19:25:49.51	346.92	14.41	-36.9	-37.9	23.0	0.00e+00	0	27	0	667942912	46	6323
2026-01-11 19:25:50.52	346.72	14.40	-37.1	-38.1	22.9	0.00e+00	0	28	0	670040064	46	6520
2026-01-11 19:25:51.53	346.51	14.38	-36.9	-37.9	23.1	0.00e+00	0	28	0	672137216	46	6374
2026-01-11 19:25:52.54	346.31	14.36	-37.0	-38.0	22.9	0.00e+00	0	27	0	673185792	46	6440
2026-01-11 19:25:53.55	346.10	14.34	-37.1	-38.1	22.8	0.00e+00	0	27	0	675282944	46	6491
2026-01-11 19:25:54.56	345.89	14.32	-37.1	-38.1	22.8	0.00e+00	0	27	0	677380096	46	6509
2026-01-11 19:25:55.57	345.69	14.31	-37.4	-38.4	22.6	0.00e+00	0	27	0	679477248	46	6745
2026-01-11 19:25:56.58	345.48	14.29	-37.5	-38.6	22.6	0.00e+00	0	27	0	681574400	46	6853
2026-01-11 19:25:57.59	345.28	14.27	-37.5	-38.6	22.4	0.00e+00	0	27	0	682622976	46	6872
2026-01-11 19:25:58.60	345.07	14.25	-37.3	-38.4	22.6	0.00e+00	0	28	0	684720128	46	6736
2026-01-11 19:25:59.61	344.87	14.23	-37.5	-38.6	22.5	0.00e+00	0	28	0	686817280	46	6871
2026-01-11 19:26:00.62	344.67	14.21	-37.3	-38.4	22.7	0.00e+00	0	27	0	688914432	46	6724
2026-01-11 19:26:01.63	344.46	14.19	-37.3	-38.5	22.5	0.00e+00	0	27	0	691011584	46	6779
2026-01-11 19:26:02.64	344.26	14.16	-37.5	-38.7	22.5	0.00e+00	0	28	0	692060160	46	6948
2026-01-11 19:26:03.65	344.05	14.14	-37.5	-38.6	22.5	0.00e+00	0	27	0	694157312	46	6887
2026-01-11 19:26:04.66	343.85	14.12	-37.5	-38.6	22.5	0.00e+00	0	28	0	696254464	46	6907
2026-01-11 19:26:05.67	343.65	14.10	-37.0	-38.0	22.9	0.00e+00	0	27	0	698351616	46	6446
2026-01-11 19:26:06.67	343.45	14.08	-36.9	-38.0	22.9	0.00e+00	0	27	0	700448768	46	6418
2026-01-11 19:26:07.69	343.25	14.05	-36.7	-37.7	23.2	0.00e+00	0	27	0	701497344	46	6204
2026-01-11 19:26:08.70	343.04	14.03	-36.9	-38.0	22.9	0.00e+00	0	27	0	703594496	46	6428
2026-01-11 19:26:09.70	342.84	14.01	-37.0	-38.1	22.8	0.00e+00	0	27	0	705691648	46	6469
2026-01-11 19:26:10.71	342.64	13.98	-37.3	-38.4	22.4	0.00e+00	0	27	0	707788800	46	6754
2026-01-11 19:26:11.72	342.44	13.96	-37.3	-38.4	22.6	0.00e+00	0	27	0	709885952	46	6706
2026-01-11 19:26:12.73	342.24	13.93	-37.0	-38.1	22.9	0.00e+00	0	27	0	710934528	46	6512
2026-01-11 19:26:13.74	342.04	13.91	-37.0	-38.1	22.9	0.00e+00	0	27	0	713031680	46	6465
2026-01-11 19:26:14.75	341.84	13.88	-36.8	-37.8	23.2	0.00e+00	0	27	0	715128832	46	6291
2026-01-11 19:26:15.76	341.64	13.86	-36.9	-37.9	23.0	0.00e+00	0	27	0	717225984	46	6358
2026-01-11 19:26:16.77	341.44	13.83	-36.9	-37.9	23.0	0.00e+00	0	27	0	719323136	46	6384
2026-01-11 19:26:17.78	341.25	13.80	-36.9	-37.9	22.9	0.00e+00	0	27	0	721420288	46	6372
2026-01-11 19:26:18.79	341.05	13.78	-37.1	-38.1	22.8	0.00e+00	0	27	0	722468864	46	6522
2026-01-11 19:26:19.80	340.85	13.75	-37.4	-38.5	22.5	0.00e+00	0	27	0	724566016	46	6784
2026-01-11 19:26:20.81	340.65	13.72	-37.4	-38.4	22.6	0.00e+00	0	27	0	726663168	46	6769
2026-01-11 19:26:21.82	340.46	13.70	-37.6	-38.7	22.4	0.00e+00	0	27	0	728760320	46	6983
2026-01-11 19:26:22.83	340.26	13.67	-37.6	-38.7	22.4	0.00e+00	0	27	0	730857472	46	6946
2026-01-11 19:26:23.84	340.06	13.64	-37.5	-38.6	22.4	0.00e+00	0	27	0	731906048	46	6915
2026-01-11 19:26:24.85	339.87	13.61	-37.5	-38.6	22.4	0.00e+00	0	27	0	734003200	46	6915
2026-01-11 19:26:25.86	339.67	13.58	-37.4	-38.5	22.6	0.00e+00	0	27	0	736100352	46	6830
2026-01-11 19:26:26.86	339.48	13.56	-37.7	-38.8	22.4	0.00e+00	0	27	0	738197504	46	7045
2026-01-11 19:26:27.87	339.28	13.53	-37.4	-38.4	22.6	0.00e+00	0	27	0	740294656	46	6766
2026-01-11 19:26:28.88	339.09	13.50	-37.5	-38.6	22.4	0.00e+00	0	27	0	741343232	46	6915
2026-01-11 19:26:29.89	338.89	13.47	-37.5	-38.6	22.5	0.00e+00	0	27	0	743440384	46	6873
2026-01-11 19:26:30.90	338.70	13.44	-37.6	-38.7	22.4	0.00e+00	0	27	0	745537536	46	6949
2026-01-11 19:26:31.91	338.51	13.41	-37.5	-38.6	22.4	0.00e+00	0	27	0	747634688	48	6133
2026-01-11 19:26:32.92	338.31	13.38	-37.6	-38.7	22.3	0.00e+00	0	27	0	749731840	48	6192
2026-01-11 19:26:33.93	338.12	13.34	-37.6	-38.7	22.4	0.00e+00	0	28	0	750780416	48	6236
2026-01-11 19:26:34.94	337.93	13.31	-37.4	-38.5	22.5	0.00e+00	0	27	0	752877568	48	6044
2026-01-11 19:26:35.95	337.74	13.28	-37.4	-38.5	22.5	0.00e+00	0	27	0	754974720	48	6040
2026-01-11 19:26:36.96	337.55	13.25	-37.4	-38.5	22.6	0.00e+00	0	27	0	757071872	48	6040
2026-01-11 19:26:37.97	337.36	13.22	-37.2	-38.2	22.8	0.00e+00	0	27	0	759169024	48	5853
2026-01-11 19:26:38.97	337.17	13.19	-37.3	-38.4	22.7	0.00e+00	0	27	0	760217600	48	5978
2026-01-11 19:26:39.98	336.98	13.15	-37.3	-38.4	22.7	0.00e+00	0	27	0	762314752	48	5972
2026-01-11 19:26:40.99	336.79	13.12	-37.3	-38.4	22.6	0.00e+00	0	27	0	764411904	48	5982
2026-01-11 19:26:42.00	336.60	13.09	-37.3	-38.3	22.6	0.00e+00	0	27	0	766509056	48	5961
2026-01-11 19:26:43.01	336.41	13.05	-37.3	-38.3	22.7	0.00e+00	0	27	0	768606208	48	5945
2026-01-11 19:26:44.02	336.22	13.02	-37.2	-38.2	22.8	0.00e+00	0	27	0	769654784	48	5850
2026-01-11 19:26:45.03	336.03	12.99	-37.2	-38.2	22.7	0.00e+00	0	27	0	771751936	48	5879
2026-01-11 19:26:46.04	335.85	12.95	-37.1	-38.1	22.8	0.00e+00	0	27	0	773849088	48	5820
2026-01-11 19:26:47.05	335.66	12.92	-37.0	-38.0	22.8	0.00e+00	0	27	0	775946240	48	5722
2026-01-11 19:26:48.06	335.47	12.88	-36.7	-37.7	23.2	0.00e+00	0	27	0	778043392	48	5519
2026-01-11 19:26:49.07	335.29	12.85	-36.6	-37.5	23.4	0.00e+00	0	27	0	779091968	46	6091
2026-01-11 19:26:50.08	335.10	12.81	-36.3	-37.2	23.5	0.00e+00	0	27	0	781189120	46	5847
2026-01-11 19:26:51.09	334.92	12.78	-36.6	-37.5	22.9	0.00e+00	0	27	0	783286272	46	6065
2026-01-11 19:26:52.10	334.73	12.74	-36.6	-37.6	23.1	0.00e+00	0	27	0	785383424	46	6108
2026-01-11 19:26:53.10	334.55	12.71	-36.4	-37.3	23.3	0.00e+00	0	27	0	787480576	46	5959
2026-01-11 19:26:54.12	334.36	12.67	-36.8	-37.7	23.1	0.00e+00	0	27	0	789577728	46	6235
2026-01-11 19:26:55.13	334.18	12.63	-37.1	-38.0	22.7	0.00e+00	0	27	0	790626304	46	6445
2026-01-11 19:26:56.13	334.00	12.60	-37.2	-38.2	22.8	0.00e+00	0	27	0	792723456	46	6565
2026-01-11 19:26:57.14	333.82	12.56	-37.1	-38.1	22.8	0.00e+00	0	27	0	794820608	46	6499
2026-01-11 19:26:58.15	333.64	12.52	-37.1	-38.1	22.8	0.00e+00	0	27	0	796917760	46	6487
2026-01-11 19:26:59.15	333.46	12.49	-37.4	-38.4	22.5	0.00e+00	0	27	0	797966336	46	6712
2026-01-11 19:27:00.16	333.27	12.45	-37.4	-38.5	22.5	0.00e+00	0	27	0	800063488	46	6776
2026-01-11 19:27:01.17	333.09	12.41	-37.8	-38.8	22.2	0.00e+00	0	27	0	802160640	48	6300
2026-01-11 19:27:02.18	332.91	12.37	-37.8	-38.9	22.2	0.00e+00	0	27	0	804257792	48	6326
2026-01-11 19:27:03.19	332.73	12.34	-37.9	-39.0	22.1	0.00e+00	0	27	0	806354944	48	6397
2026-01-11 19:27:04.20	332.56	12.30	-38.0	-39.0	22.1	0.00e+00	0	27	0	807403520	48	6461
2026-01-11 19:27:05.21	332.38	12.26	-37.9	-39.0	22.0	0.00e+00	0	27	0	809500672	48	6432
2026-01-11 19:27:06.22	332.20	12.22	-37.9	-39.0	22.1	0.00e+00	0	27	0	811597824	48	6392
2026-01-11 19:27:07.23	332.02	12.18	-37.8	-38.8	22.2	0.00e+00	0	27	0	813694976	48	6304
2026-01-11 19:27:08.24	331.84	12.14	-37.6	-38.7	22.3	0.00e+00	0	27	0	815792128	48	6183
2026-01-11 19:27:09.25	331.67	12.10	-37.6	-38.6	22.2	0.00e+00	0	27	0	817889280	48	6124
2026-01-11 19:27:10.25	331.49	12.06	-37.8	-38.9	22.1	0.00e+00	0	27	0	818937856	48	6338
2026-01-11 19:27:11.26	331.32	12.02	-38.0	-39.1	22.0	0.00e+00	0	27	0	821035008	48	6473
2026-01-11 19:27:12.27	331.14	11.98	-37.9	-39.0	22.1	0.00e+00	0	27	0	823132160	48	6419
2026-01-11 19:27:13.28	330.97	11.94	-38.0	-39.1	22.0	0.00e+00	0	27	0	825229312	48	6467
2026-01-11 19:27:14.29	330.79	11.90	-38.3	-39.4	21.8	0.00e+00	0	27	0	827326464	48	6736
2026-01-11 19:27:15.30	330.62	11.86	-38.2	-39.3	21.8	0.00e+00	0	27	0	828375040	48	6661
2026-01-11 19:27:16.30	330.45	11.82	-38.1	-39.2	21.9	0.00e+00	0	27	0	830472192	48	6571
2026-01-11 19:27:17.31	330.27	11.78	-38.0	-39.1	22.0	0.00e+00	0	27	0	832569344	48	6486
2026-01-11 19:27:18.32	330.10	11.74	-38.0	-39.1	22.0	0.00e+00	0	27	0	834666496	48	6488
2026-01-11 19:27:19.33	329.93	11.70	-38.0	-39.0	22.0	0.00e+00	0	27	0	836763648	48	6447
2026-01-11 19:27:20.34	329.76	11.66	-38.0	-39.1	22.0	0.00e+00	0	27	0	837812224	48	6487
2026-01-11 19:27:21.34	329.59	11.61	-38.3	-39.4	21.7	0.00e+00	0	27	0	839909376	48	6734
2026-01-11 19:27:22.36	329.42	11.57	-38.3	-39.4	21.7	0.00e+00	0	27	0	842006528	48	6726
2026-01-11 19:27:23.36	329.25	11.53	-38.6	-39.8	21.4	0.00e+00	0	27	0	844103680	48	7013
2026-01-11 19:27:24.37	329.08	11.49	-38.7	-39.8	21.4	0.00e+00	0	27	0	846200832	50	6304
2026-01-11 19:27:25.38	328.91	11.45	-38.8	-39.9	21.4	0.00e+00	0	27	0	847249408	50	6369
2026-01-11 19:27:26.39	328.74	11.40	-38.9	-40.0	21.5	0.00e+00	0	27	0	849346560	50	6396
2026-01-11 19:27:27.40	328.57	11.36	-38.4	-39.4	21.8	0.00e+00	0	27	0	851443712	50	6012
2026-01-11 19:27:28.41	328.41	11.32	-38.0	-39.0	22.1	0.00e+00	0	27	0	853540864	50	5712
2026-01-11 19:27:29.42	328.24	11.27	-37.8	-38.8	22.3	0.00e+00	0	27	0	855638016	50	5602
2026-01-11 19:27:30.43	328.07	11.23	-38.1	-39.1	22.0	0.00e+00	0	27	0	856686592	50	5770
2026-01-11 19:27:31.44	327.91	11.19	-37.9	-38.9	22.2	0.00e+00	0	27	0	858783744	50	5662
2026-01-11 19:27:32.45	327.74	11.14	-38.1	-39.1	22.1	0.00e+00	0	27	0	860880896	50	5786
2026-01-11 19:27:33.46	327.58	11.10	-38.5	-39.5	21.7	0.00e+00	0	27	0	862978048	50	6091
2026-01-11 19:27:34.47	327.41	11.06	-38.8	-39.9	21.2	0.00e+00	0	27	0	865075200	50	6390
2026-01-11 19:27:35.47	327.25	11.01	-39.3	-40.5	20.9	0.00e+00	0	27	0	866123776	50	6826
2026-01-11 19:27:36.48	327.09	10.97	-39.4	-40.6	20.7	0.00e+00	0	27	0	868220928	50	6889
2026-01-11 19:27:37.49	326.92	10.92	-39.7	-41.0	20.4	0.00e+00	0	27	0	870318080	50	7191
2026-01-11 19:27:38.50	326.76	10.88	-39.6	-40.9	20.6	0.00e+00	0	27	0	872415232	52	6344
2026-01-11 19:27:39.51	326.60	10.84	-39.7	-41.0	20.3	0.00e+00	0	27	0	874512384	52	6448
2026-01-11 19:27:40.52	326.44	10.79	-39.6	-40.9	20.6	0.00e+00	0	27	0	875560960	52	6320
2026-01-11 19:27:41.53	326.28	10.75	-39.3	-40.6	20.8	0.00e+00	0	27	0	877658112	52	6109
2026-01-11 19:27:42.54	326.12	10.70	-39.2	-40.4	20.9	0.00e+00	0	27	0	879755264	52	5990
2026-01-11 19:27:43.55	325.96	10.66	-39.2	-40.4	20.8	0.00e+00	0	27	0	881852416	52	5983
2026-01-11 19:27:44.56	325.80	10.61	-38.7	-39.9	21.4	0.00e+00	0	27	0	883949568	50	6330
2026-01-11 19:27:45.56	325.64	10.57	-38.7	-39.8	21.3	0.00e+00	0	27	0	886046720	50	6315
2026-01-11 19:27:46.57	325.48	10.52	-39.0	-40.2	21.2	0.00e+00	0	27	0	887095296	50	6586
2026-01-11 19:27:47.58	325.32	10.47	-39.2	-40.4	20.8	0.00e+00	0	27	0	889192448	50	6695
2026-01-11 19:27:48.59	325.17	10.43	-39.4	-40.7	20.5	0.00e+00	0	27	0	891289600	50	6941
2026-01-11 19:27:49.60	325.01	10.38	-40.1	-41.5	19.8	0.00e+00	0	27	0	893386752	52	6782
2026-01-11 19:27:50.61	324.85	10.34	-40.8	-42.3	19.1	0.00e+00	0	27	0	895483904	52	7482
2026-01-11 19:27:51.62	324.70	10.29	-40.8	-42.4	18.9	0.00e+00	0	27	0	896532480	54	6721
2026-01-11 19:27:52.63	324.54	10.24	-41.6	-43.4	18.0	0.00e+00	0	27	0	898629632	54	7535
2026-01-11 19:27:53.64	324.39	10.20	-41.7	-43.5	18.1	0.00e+00	0	27	0	900726784	54	7635
2026-01-11 19:27:54.65	324.23	10.15	-41.3	-43.0	18.5	0.00e+00	0	27	0	902823936	54	7224
2026-01-11 19:27:55.66	324.08	10.10	-41.0	-42.7	18.7	0.00e+00	0	27	0	904921088	54	6949
2026-01-11 19:27:56.66	323.93	10.06	-41.1	-42.7	18.8	0.00e+00	0	27	0	905969664	54	6980
2026-01-11 19:27:57.67	323.77	10.01	-41.1	-42.7	18.9	0.00e+00	0	27	0	908066816	54	6950
2026-01-11 19:27:58.68	323.62	9.96	-40.8	-42.4	19.3	0.00e+00	0	27	0	910163968	54	6726
2026-01-11 19:27:59.69	323.47	9.92	-40.9	-42.5	19.0	0.00e+00	0	27	0	912261120	54	6776
2026-01-11 19:28:00.70	323.32	9.87	-40.9	-42.5	18.9	0.00e+00	0	27	0	914358272	54	6840
2026-01-11 19:28:01.71	323.17	9.82	-40.3	-41.8	19.6	0.00e+00	0	27	0	915406848	54	6253
2026-01-11 19:28:02.72	323.02	9.78	-40.3	-41.7	19.6	0.00e+00	0	27	0	917504000	54	6180
2026-01-11 19:28:03.73	322.87	9.73	-40.2	-41.6	19.8	0.00e+00	0	27	0	919601152	54	6168
2026-01-11 19:28:04.74	322.72	9.68	-40.1	-41.4	19.8	0.00e+00	0	27	0	921698304	54	6028
2026-01-11 19:28:05.75	322.57	9.63	-39.9	-41.2	20.0	0.00e+00	0	27	0	923795456	54	5891
2026-01-11 19:28:06.75	322.42	9.59	-39.7	-41.0	20.4	0.00e+00	0	27	0	924844032	52	6395
2026-01-11 19:28:07.76	322.27	9.54	-39.6	-40.9	20.4	0.00e+00	0	27	0	926941184	52	6345
2026-01-11 19:28:08.78	322.12	9.49	-39.6	-40.9	20.4	0.00e+00	0	27	0	929038336	52	6339
2026-01-11 19:28:09.78	321.98	9.44	-39.6	-40.9	20.4	0.00e+00	0	27	0	931135488	52	6365
2026-01-11 19:28:10.79	321.83	9.39	-39.5	-40.8	20.5	0.00e+00	0	27	0	933232640	52	6265
2026-01-11 19:28:11.80	321.69	9.34	-39.7	-40.9	20.4	0.00e+00	0	27	0	934281216	52	6390
2026-01-11 19:28:12.81	321.54	9.30	-39.6	-40.8	20.6	0.00e+00	0	27	0	936378368	52	6306
2026-01-11 19:28:13.82	321.40	9.25	-39.5	-40.7	20.5	0.00e+00	0	27	0	938475520	52	6209
2026-01-11 19:28:14.83	321.25	9.20	-39.4	-40.7	20.5	0.00e+00	0	27	0	940572672	52	6185
2026-01-11 19:28:15.84	321.11	9.15	-39.4	-40.6	20.6	0.00e+00	0	27	0	942669824	52	6137
2026-01-11 19:28:16.85	320.96	9.10	-39.3	-40.4	20.7	0.00e+00	0	27	0	943718400	52	6032
2026-01-11 19:28:17.86	320.82	9.05	-39.0	-40.2	21.0	0.00e+00	0	27	0	945815552	52	5848
2026-01-11 19:28:18.87	320.68	9.01	-38.9	-40.1	21.2	0.00e+00	0	27	0	947912704	52	5795
2026-01-11 19:28:19.88	320.54	8.96	-38.7	-39.8	21.3	0.00e+00	0	27	0	950009856	50	6308
2026-01-11 19:28:20.89	320.39	8.91	-38.6	-39.8	21.3	0.00e+00	0	27	0	952107008	50	6254
2026-01-11 19:28:21.90	320.25	8.86	-38.5	-39.6	21.5	0.00e+00	0	27	0	953155584	50	6168
2026-01-11 19:28:22.90	320.11	8.81	-38.5	-39.6	21.5	0.00e+00	0	27	0	955252736	50	6167
2026-01-11 19:28:23.91	319.97	8.76	-38.5	-39.6	21.5	0.00e+00	0	27	0	957349888	50	6160
2026-01-11 19:28:24.92	319.83	8.71	-38.6	-39.7	21.4	0.00e+00	0	27	0	959447040	50	6194
2026-01-11 19:28:25.93	319.70	8.66	-38.6	-39.7	21.4	0.00e+00	0	27	0	961544192	50	6224
2026-01-11 19:28:26.94	319.56	8.61	-38.6	-39.7	21.4	0.00e+00	0	27	0	962592768	50	6211
2026-01-11 19:28:27.95	319.42	8.56	-38.6	-39.8	21.3	2.20e-06	0	27	0	964689920	50	6270
2026-01-11 19:28:28.96	319.28	8.51	-38.7	-39.9	21.3	0.00e+00	0	27	0	966787072	50	6322
2026-01-11 19:28:29.97	319.14	8.46	-38.8	-40.0	21.1	0.00e+00	0	27	0	968884224	50	6432
2026-01-11 19:28:30.98	319.01	8.42	-39.1	-40.2	21.0	0.00e+00	0	27	0	970981376	50	6610
2026-01-11 19:28:31.98	318.87	8.37	-39.0	-40.2	20.9	0.00e+00	0	27	0	972029952	50	6607
2026-01-11 19:28:33.00	318.73	8.32	-39.0	-40.2	20.9	0.00e+00	0	27	0	974127104	50	6597
2026-01-11 19:28:34.01	318.60	8.27	-39.2	-40.4	20.7	0.00e+00	0	27	0	976224256	50	6746
2026-01-11 19:28:35.02	318.46	8.22	-39.2	-40.4	20.8	0.00e+00	0	27	0	978321408	50	6713
2026-01-11 19:28:36.02	318.33	8.17	-39.2	-40.4	20.6	0.00e+00	0	27	0	980418560	50	6720
2026-01-11 19:28:37.03	318.20	8.12	-39.2	-40.4	20.8	0.00e+00	0	27	0	982515712	50	6708
2026-01-11 19:28:38.04	318.06	8.07	-39.0	-40.2	20.9	0.00e+00	0	27	0	983564288	50	6562
2026-01-11 19:28:39.05	317.93	8.02	-38.9	-40.1	21.0	0.00e+00	0	27	0	985661440	50	6500
2026-01-11 19:28:40.06	317.80	7.97	-39.0	-40.1	21.0	0.00e+00	0	27	0	987758592	50	6539
2026-01-11 19:28:41.07	317.67	7.92	-38.9	-40.1	21.0	0.00e+00	0	27	0	989855744	50	6527
2026-01-11 19:28:42.07	317.54	7.87	-38.9	-40.1	21.0	0.00e+00	0	27	0	991952896	50	6532
2026-01-11 19:28:43.08	317.40	7.82	-38.9	-40.1	21.0	0.00e+00	0	27	0	993001472	50	6517
2026-01-11 19:28:44.09	317.27	7.77	-38.9	-40.1	21.0	0.00e+00	0	27	0	995098624	50	6519
2026-01-11 19:28:45.10	317.14	7.72	-38.9	-40.1	21.0	0.00e+00	0	27	0	997195776	50	6502
2026-01-11 19:28:46.11	317.01	7.67	-38.8	-40.0	21.1	0.00e+00	0	27	0	999292928	50	6420
2026-01-11 19:28:47.12	316.88	7.62	-38.7	-39.8	21.3	0.00e+00	0	27	0	1001390080	50	6288
2026-01-11 19:28:48.13	316.76	7.57	-38.4	-39.5	21.5	0.00e+00	0	27	0	1002438656	50	6082
2026-01-11 19:28:49.14	316.63	7.52	-38.4	-39.5	21.6	0.00e+00	0	27	0	1004535808	50	6056
2026-01-11 19:28:50.15	316.50	7.46	-38.2	-39.3	21.7	0.00e+00	0	27	0	1006632960	50	5924
2026-01-11 19:28:51.16	316.37	7.41	-37.8	-38.9	22.0	0.00e+00	0	27	0	1008730112	50	5651
2026-01-11 19:28:52.16	316.25	7.36	-37.8	-38.8	22.1	0.00e+00	0	27	0	1010827264	50	5616
2026-01-11 19:28:53.17	316.12	7.31	-37.6	-38.6	22.3	0.00e+00	0	27	0	1011875840	48	6150
2026-01-11 19:28:54.18	315.99	7.26	-37.6	-38.6	22.2	0.00e+00	0	27	0	1013972992	48	6121
2026-01-11 19:28:55.19	315.87	7.21	-37.5	-38.6	22.1	0.00e+00	0	27	0	1016070144	48	6112
2026-01-11 19:28:56.19	315.74	7.16	-37.8	-38.8	22.0	0.00e+00	0	27	0	1018167296	48	6294
2026-01-11 19:28:57.20	315.62	7.11	-37.8	-38.8	22.1	0.00e+00	0	27	0	1020264448	48	6276
2026-01-11 19:28:58.21	315.49	7.06	-37.9	-38.9	21.9	0.00e+00	0	27	0	1021313024	48	6375
2026-01-11 19:28:59.22	315.37	7.01	-38.3	-39.4	21.5	0.00e+00	0	27	0	1023410176	48	6744
2026-01-11 19:29:00.22	315.25	6.96	-38.2	-39.2	21.6	0.00e+00	0	27	0	1025507328	48	6607
2026-01-11 19:29:01.23	315.13	6.91	-38.2	-39.3	21.6	0.00e+00	0	27	0	1027604480	48	6654
2026-01-11 19:29:02.24	315.00	6.86	-38.1	-39.1	21.7	0.00e+00	0	27	0	1029701632	48	6528
2026-01-11 19:29:03.25	314.88	6.81	-38.1	-39.2	21.7	0.00e+00	0	27	0	1030750208	48	6558
2026-01-11 19:29:04.26	314.76	6.76	-37.8	-38.8	22.0	0.00e+00	0	27	0	1032847360	48	6307
2026-01-11 19:29:05.26	314.64	6.71	-37.7	-38.7	22.1	0.00e+00	0	27	0	1034944512	48	6231
2026-01-11 19:29:06.27	314.52	6.66	-37.7	-38.7	22.0	0.00e+00	0	27	0	1037041664	48	6228
2026-01-11 19:29:07.28	314.40	6.60	-37.7	-38.7	22.0	0.00e+00	0	27	0	1039138816	48	6237
2026-01-11 19:29:08.29	314.28	6.55	-37.8	-38.9	21.9	0.00e+00	0	27	0	1040187392	48	6345
2026-01-11 19:29:09.30	314.16	6.50	-37.8	-38.9	21.7	0.00e+00	0	27	0	1042284544	48	6353
2026-01-11 19:29:10.31	314.04	6.45	-37.9	-39.0	21.8	0.00e+00	0	27	0	1044381696	48	6451
2026-01-11 19:29:11.32	313.92	6.40	-37.9	-39.0	21.8	0.00e+00	0	27	0	1046478848	48	6414
2026-01-11 19:29:12.33	313.80	6.35	-38.2	-39.3	21.6	0.00e+00	0	27	0	1048576000	48	6672
2026-01-11 19:29:13.34	313.68	6.30	-38.2	-39.3	21.5	0.00e+00	0	27	0	1049624576	48	6674
2026-01-11 19:29:14.35	313.57	6.25	-38.4	-39.5	21.4	0.00e+00	0	27	0	1051721728	48	6817
2026-01-11 19:29:15.36	313.45	6.20	-38.3	-39.5	21.3	0.00e+00	0	27	0	1053818880	48	6791
2026-01-11 19:29:16.37	313.33	6.15	-38.4	-39.6	21.2	0.00e+00	0	27	0	1055916032	48	6896
2026-01-11 19:29:17.38	313.22	6.09	-38.7	-39.9	21.0	0.00e+00	0	27	0	1058013184	48	7145
2026-01-11 19:29:18.39	313.10	6.04	-38.7	-40.0	20.9	0.00e+00	0	27	0	1059061760	48	7174
2026-01-11 19:29:19.40	312.99	5.99	-38.7	-39.9	21.0	0.00e+00	0	27	0	1061158912	50	6337
2026-01-11 19:29:20.41	312.87	5.94	-38.8	-40.0	20.9	0.00e+00	0	27	0	1063256064	50	6443
2026-01-11 19:29:21.42	312.76	5.89	-38.9	-40.2	20.8	0.00e+00	0	27	0	1065353216	50	6557
2026-01-11 19:29:22.42	312.64	5.84	-39.0	-40.2	20.7	0.00e+00	0	27	0	1067450368	50	6575
2026-01-11 19:29:23.43	312.53	5.79	-39.1	-40.4	20.7	0.00e+00	0	27	0	1068498944	50	6712
2026-01-11 19:29:24.44	312.42	5.74	-39.2	-40.4	20.6	0.00e+00	0	27	0	1070596096	50	6758
2026-01-11 19:29:25.45	312.30	5.69	-38.9	-40.2	20.8	0.00e+00	0	27	0	1072693248	50	6553
2026-01-11 19:29:26.46	312.19	5.63	-39.1	-40.3	20.4	0.00e+00	0	27	0	1074790400	50	6678
2026-01-11 19:29:27.47	312.08	5.58	-39.1	-40.4	20.4	0.00e+00	0	27	0	1076887552	50	6712
2026-01-11 19:29:28.48	311.97	5.53	-39.0	-40.2	20.3	0.00e+00	0	27	0	1078984704	50	6612
2026-01-11 19:29:29.49	311.86	5.48	-39.0	-40.2	20.6	0.00e+00	0	27	0	1080033280	50	6597
2026-01-11 19:29:30.50	311.74	5.43	-38.8	-40.0	20.8	0.00e+00	0	27	0	1082130432	50	6441
2026-01-11 19:29:31.51	311.63	5.38	-39.1	-40.3	20.6	0.00e+00	0	27	0	1084227584	50	6672
2026-01-11 19:29:32.51	311.52	5.33	-39.0	-40.3	20.5	0.00e+00	0	27	0	1086324736	50	6651
2026-01-11 19:29:33.52	311.42	5.28	-38.8	-40.0	20.8	0.00e+00	0	27	0	1088421888	50	6451
2026-01-11 19:29:34.53	311.31	5.23	-38.7	-39.9	20.7	0.00e+00	0	27	0	1089470464	50	6337
2026-01-11 19:29:35.54	311.20	5.17	-38.7	-39.9	20.4	0.00e+00	0	27	0	1091567616	50	6388
2026-01-11 19:29:36.55	311.09	5.12	-38.7	-39.9	20.7	0.00e+00	0	27	0	1093664768	50	6366
2026-01-11 19:29:37.56	310.98	5.07	-38.6	-39.8	20.9	0.00e+00	0	27	0	1095761920	50	6248
2026-01-11 19:29:38.57	310.87	5.02	-38.8	-40.0	20.9	0.00e+00	0	27	0	1097859072	50	6399
2026-01-11 19:29:39.58	310.77	4.97	-38.5	-39.7	21.1	0.00e+00	0	27	0	1098907648	50	6210
2026-01-11 19:29:40.59	310.66	4.92	-38.4	-39.6	21.0	0.00e+00	0	27	0	1101004800	50	6138
2026-01-11 19:29:41.60	310.55	4.87	-38.5	-39.7	21.0	0.00e+00	0	27	0	1103101952	50	6218
2026-01-11 19:29:42.60	310.45	4.82	-38.7	-39.9	20.8	0.00e+00	0	27	0	1105199104	50	6333
2026-01-11 19:29:43.61	310.34	4.77	-38.8	-40.0	20.7	0.00e+00	0	27	0	1107296256	50	6440
2026-01-11 19:29:44.63	310.23	4.71	-38.5	-39.7	21.0	0.00e+00	0	27	0	1108344832	50	6197
2026-01-11 19:29:45.63	310.13	4.66	-38.6	-39.8	20.9	0.00e+00	0	27	0	1110441984	50	6312
2026-01-11 19:29:46.64	310.03	4.61	-38.8	-40.1	20.7	0.00e+00	0	27	0	1112539136	50	6476
2026-01-11 19:29:47.65	309.92	4.56	-39.2	-40.5	20.2	0.00e+00	0	27	0	1114636288	50	6840
2026-01-11 19:29:48.66	309.82	4.51	-39.4	-40.7	20.1	0.00e+00	0	27	0	1116733440	50	6972
2026-01-11 19:29:49.67	309.71	4.46	-39.4	-40.7	20.1	0.00e+00	0	27	0	1117782016	50	6969
2026-01-11 19:29:50.68	309.61	4.41	-39.4	-40.8	20.0	0.00e+00	0	27	0	1119879168	50	7012
2026-01-11 19:29:51.69	309.51	4.36	-39.5	-40.9	19.9	0.00e+00	0	27	0	1121976320	50	7118
2026-01-11 19:29:52.69	309.41	4.31	-39.9	-41.3	19.5	0.00e+00	0	27	0	1124073472	50	7467
2026-01-11 19:29:53.70	309.30	4.26	-39.8	-41.2	19.6	0.00e+00	0	27	0	1126170624	52	6593
2026-01-11 19:29:54.71	309.20	4.20	-39.3	-40.6	20.0	0.00e+00	0	27	0	1127219200	52	6173
2026-01-11 19:29:55.72	309.10	4.15	-39.2	-40.5	20.2	0.00e+00	0	27	0	1129316352	52	6050
2026-01-11 19:29:56.73	309.00	4.10	-39.2	-40.6	20.2	0.00e+00	0	27	0	1131413504	52	6107
2026-01-11 19:29:57.74	308.90	4.05	-39.3	-40.6	20.1	0.00e+00	0	27	0	1133510656	52	6155
2026-01-11 19:29:58.75	308.80	4.00	-39.2	-40.5	20.1	0.00e+00	0	27	0	1135607808	52	6054
2026-01-11 19:29:59.76	308.70	3.95	-39.3	-40.6	20.1	0.00e+00	0	27	0	1136656384	52	6139
2026-01-11 19:30:00.77	308.60	3.90	-38.5	-39.7	20.8	0.00e+00	0	27	0	1138753536	52	5565
2026-01-11 19:30:01.78	308.50	3.85	-39.3	-40.6	20.1	0.00e+00	0	27	0	1140850688	50	6911
2026-01-11 19:30:02.78	308.40	3.80	-39.2	-40.5	20.4	0.00e+00	0	27	0	1142947840	50	6803
2026-01-11 19:30:03.79	308.30	3.75	-38.4	-39.6	21.0	0.00e+00	0	27	0	1145044992	50	6159
2026-01-11 19:30:04.80	308.21	3.70	-38.6	-39.9	20.6	0.00e+00	0	27	0	1146093568	50	6329
2026-01-11 19:30:05.81	308.11	3.64	-38.4	-39.6	20.8	0.00e+00	0	27	0	1148190720	50	6159
2026-01-11 19:30:06.81	308.01	3.59	-38.6	-39.8	20.6	0.00e+00	0	27	0	1150287872	50	6281
2026-01-11 19:30:07.82	307.92	3.54	-39.0	-40.3	20.2	0.00e+00	0	27	0	1152385024	50	6650
2026-01-11 19:30:08.83	307.82	3.49	-38.7	-40.0	20.5	0.00e+00	0	27	0	1154482176	50	6415
2026-01-11 19:30:09.84	307.72	3.44	-38.7	-39.9	20.6	0.00e+00	0	27	0	1155530752	50	6371
2026-01-11 19:30:10.85	307.63	3.39	-38.9	-40.1	20.4	0.00e+00	0	27	0	1157627904	50	6525
2026-01-11 19:30:11.86	307.53	3.34	-39.4	-40.8	19.8	0.00e+00	0	27	0	1159725056	50	7032
2026-01-11 19:30:12.87	307.44	3.29	-38.8	-40.1	20.3	0.00e+00	0	27	0	1161822208	50	6471
2026-01-11 19:30:13.88	307.34	3.24	-39.3	-40.7	19.8	0.00e+00	0	27	0	1163919360	50	6964
2026-01-11 19:30:14.89	307.25	3.19	-40.1	-41.7	18.9	0.00e+00	0	27	0	1164967936	52	6945
2026-01-11 19:30:15.90	307.15	3.14	-39.4	-40.8	19.8	0.00e+00	0	27	0	1167065088	52	6262
2026-01-11 19:30:16.91	307.06	3.09	-40.1	-41.7	18.8	0.00e+00	0	27	0	1169162240	52	6966
2026-01-11 19:30:17.92	306.96	3.04	-40.0	-41.5	18.9	0.00e+00	0	27	0	1171259392	52	6817
2026-01-11 19:30:18.93	306.87	2.99	-47.2	-62.3	3.6	9.95e-01	0	27	104	1172307968	60	47313
2026-01-11 19:30:19.94	306.78	2.94	-47.7	-62.9	3.6	1.51e+00	0	27	104	1172307968	60	50622
2026-01-11 19:30:20.95	306.68	2.88	-48.0	-63.1	3.6	1.51e+00	0	27	104	1172307968	60	51718
2026-01-11 19:30:21.96	306.59	2.83	-48.1	-63.3	3.6	1.51e+00	0	27	104	1172307968	60	52711
2026-01-11 19:30:22.96	306.50	2.78	-48.2	-63.4	3.6	1.51e+00	0	27	104	1172307968	60	53258
2026-01-11 19:30:23.98	306.41	2.73	-48.3	-63.4	3.6	1.51e+00	0	27	104	1172307968	60	53455
2026-01-11 19:30:24.99	306.32	2.68	-48.3	-63.5	3.6	1.51e+00	0	27	104	1172307968	60	53836
2026-01-11 19:30:25.99	306.23	2.63	-48.3	-63.5	3.6	1.51e+00	0	27	104	1172307968	60	53793
2026-01-11 19:30:27.00	306.14	2.58	-48.2	-63.4	3.6	1.51e+00	0	27	104	1172307968	60	53609
2026-01-11 19:30:28.01	306.05	2.53	-48.0	-63.4	3.6	1.51e+00	0	27	104	1172307968	60	53585
2026-01-11 19:30:29.02	305.96	2.48	-47.5	-63.3	3.6	1.51e+00	0	27	104	1172307968	60	52975
2026-01-11 19:30:30.03	305.87	2.43	-48.0	-63.3	3.6	1.51e+00	0	27	104	1172307968	60	52861
2026-01-11 19:30:31.04	305.78	2.38	-48.0	-63.3	3.6	1.51e+00	0	27	104	1172307968	60	52714
2026-01-11 19:30:32.05	305.69	2.33	-48.0	-63.3	3.6	1.51e+00	0	27	104	1172307968	60	52718
2026-01-11 19:30:33.06	305.60	2.28	-48.0	-63.3	3.6	1.51e+00	0	27	104	1172307968	60	52590
