passes_logs/2026/01/11/R4.6S_Anadyr/R4.6S_Anadyr__20260111_224255_TY-39_rec.log

#Pass ID: 20260111_224255_TY-39
#Satellite: TY-39
#Configuration: TY-39
#almurnet v.1.7.20251203
#Start time: 2026-01-11 22:43:00

#Version: 2.2.20231116
#Station: R4.6S_Anadyr
#Location: 177.4865 lon 64.73178 lat
#TLE: 1 51832U 22019J   26011.60034042  .00005582  00000-0  26480-3 0  9995
#TLE: 2 51832  97.3647  78.3734 0010183  62.3489 297.8778 15.19626918214018

#Time	Az	El	Level	Level2	SNR	BER	BlckErr	Temp	State	Recorded	gain1	gain2
2026-01-11 22:43:00.20	17.98	0.33	-48.3	-60.8	3.5	1.52e+00	0	24	0	0	60	38394
2026-01-11 22:43:01.21	18.00	0.39	-48.2	-50.6	3.6	0.00e+00	0	26	104	0	60	41345
2026-01-11 22:43:02.21	18.01	0.46	-48.5	-50.9	3.6	0.00e+00	0	26	104	0	60	42993
2026-01-11 22:43:03.23	18.03	0.52	-48.4	-50.8	3.6	0.00e+00	0	26	104	0	60	42659
2026-01-11 22:43:04.23	18.04	0.59	-48.4	-50.9	3.6	0.00e+00	0	26	104	0	60	42786
2026-01-11 22:43:05.24	18.06	0.65	-48.3	-50.8	3.6	0.00e+00	0	26	104	0	60	42428
2026-01-11 22:43:06.25	18.07	0.72	-48.3	-50.8	3.6	0.00e+00	0	26	104	0	60	42321
2026-01-11 22:43:07.26	18.09	0.79	-48.2	-50.6	3.6	0.00e+00	0	26	104	0	60	41714
2026-01-11 22:43:08.27	18.11	0.85	-48.3	-50.8	3.5	0.00e+00	0	26	104	0	60	42351
2026-01-11 22:43:09.28	18.12	0.92	-48.0	-50.5	3.6	0.00e+00	0	26	104	0	60	41053
2026-01-11 22:43:10.29	18.14	0.99	-47.6	-50.1	3.6	0.00e+00	0	26	104	0	60	39239
2026-01-11 22:43:11.30	18.15	1.05	-47.6	-50.1	3.6	0.00e+00	0	26	104	0	60	39052
2026-01-11 22:43:12.31	18.17	1.12	-47.3	-49.8	3.6	0.00e+00	0	26	104	0	60	37942
2026-01-11 22:43:13.32	18.19	1.19	-47.3	-49.7	3.6	0.00e+00	0	26	104	0	60	37551
2026-01-11 22:43:14.33	18.20	1.25	-47.3	-49.8	3.6	0.00e+00	0	26	104	0	60	37686
2026-01-11 22:43:15.34	18.22	1.32	-47.3	-49.8	3.6	0.00e+00	0	26	104	0	60	37691
2026-01-11 22:43:16.35	18.23	1.39	-47.2	-49.7	3.6	0.00e+00	0	26	104	0	60	37554
2026-01-11 22:43:17.36	18.25	1.46	-47.2	-49.8	3.6	0.00e+00	0	26	104	0	60	37641
2026-01-11 22:43:18.37	18.27	1.53	-47.2	-49.7	3.6	0.00e+00	0	26	104	0	60	37583
2026-01-11 22:43:19.38	18.28	1.60	-47.3	-49.8	3.6	0.00e+00	0	26	104	0	60	37843
2026-01-11 22:43:20.38	18.30	1.66	-47.2	-49.7	3.6	0.00e+00	0	26	104	0	60	37389
2026-01-11 22:43:21.39	18.32	1.73	-47.2	-49.8	3.6	0.00e+00	0	26	104	0	60	37660
2026-01-11 22:43:22.40	18.33	1.80	-47.2	-49.8	3.6	0.00e+00	0	26	104	0	60	37662
2026-01-11 22:43:23.41	18.35	1.87	-47.2	-49.7	3.6	0.00e+00	0	27	104	0	60	37484
2026-01-11 22:43:24.42	18.37	1.94	-47.2	-49.7	3.6	0.00e+00	0	27	104	0	60	37475
2026-01-11 22:43:25.43	18.39	2.01	-47.2	-49.7	3.6	0.00e+00	0	27	104	0	60	37506
2026-01-11 22:43:26.44	18.40	2.08	-47.2	-49.6	3.6	0.00e+00	0	27	104	0	60	37184
2026-01-11 22:43:27.45	18.42	2.15	-47.2	-49.7	3.6	0.00e+00	0	27	104	0	60	37253
2026-01-11 22:43:28.46	18.44	2.22	-47.2	-49.7	3.6	0.00e+00	0	27	104	0	60	37275
2026-01-11 22:43:29.47	18.46	2.29	-47.2	-49.7	3.6	0.00e+00	0	27	104	0	60	37364
2026-01-11 22:43:30.48	18.47	2.36	-47.2	-49.7	3.6	0.00e+00	0	27	104	0	60	37341
2026-01-11 22:43:31.49	18.49	2.44	-47.2	-49.7	3.6	0.00e+00	0	27	104	0	60	37211
2026-01-11 22:43:32.50	18.51	2.51	-47.2	-49.7	3.6	0.00e+00	0	27	104	0	60	37362
2026-01-11 22:43:33.51	18.53	2.58	-47.2	-49.7	3.6	0.00e+00	0	27	104	0	60	37470
2026-01-11 22:43:34.52	18.54	2.65	-47.2	-49.7	3.6	0.00e+00	0	27	104	0	60	37411
2026-01-11 22:43:35.53	18.56	2.72	-47.2	-49.7	3.6	0.00e+00	0	27	104	0	60	37452
2026-01-11 22:43:36.54	18.58	2.80	-47.2	-49.7	3.6	0.00e+00	0	27	104	0	60	37494
2026-01-11 22:43:37.55	18.60	2.87	-47.2	-49.7	3.6	0.00e+00	0	27	104	0	60	37371
2026-01-11 22:43:38.55	18.62	2.94	-47.2	-49.7	3.6	0.00e+00	0	27	104	0	60	37334
2026-01-11 22:43:39.56	18.63	3.01	-47.2	-49.7	3.6	0.00e+00	0	27	104	0	60	37273
2026-01-11 22:43:40.57	18.65	3.09	-47.2	-49.7	3.6	0.00e+00	0	27	104	0	60	37361
2026-01-11 22:43:41.58	18.67	3.16	-47.2	-49.7	3.6	0.00e+00	0	27	104	0	60	37499
2026-01-11 22:43:42.59	18.69	3.24	-47.2	-49.7	3.6	0.00e+00	0	27	104	0	60	37309
2026-01-11 22:43:43.60	18.71	3.31	-47.2	-49.7	3.6	0.00e+00	0	27	104	0	60	37258
2026-01-11 22:43:44.61	18.73	3.39	-47.2	-49.7	3.6	0.00e+00	0	27	104	0	60	37310
2026-01-11 22:43:45.62	18.75	3.46	-47.2	-49.7	3.6	0.00e+00	0	27	104	0	60	37324
2026-01-11 22:43:46.63	18.76	3.54	-47.2	-49.6	3.6	0.00e+00	0	27	104	0	60	37118
2026-01-11 22:43:47.63	18.78	3.61	-47.2	-49.6	3.6	0.00e+00	0	27	104	0	60	37169
2026-01-11 22:43:48.64	18.80	3.69	-47.2	-49.6	3.6	0.00e+00	0	27	104	0	60	37160
2026-01-11 22:43:49.65	18.82	3.76	-47.2	-49.7	3.6	0.00e+00	0	27	104	0	60	37334
2026-01-11 22:43:50.66	18.84	3.84	-47.2	-49.7	3.6	0.00e+00	0	27	104	0	60	37385
2026-01-11 22:43:51.67	18.86	3.91	-47.2	-49.7	3.5	0.00e+00	0	27	104	0	60	37259
2026-01-11 22:43:52.68	18.88	3.99	-47.2	-49.6	3.6	0.00e+00	0	27	104	0	60	37183
2026-01-11 22:43:53.69	18.90	4.07	-47.2	-49.7	3.6	0.00e+00	0	27	104	0	60	37537
2026-01-11 22:43:54.70	18.92	4.15	-47.2	-49.7	3.6	0.00e+00	0	27	104	0	60	37264
2026-01-11 22:43:55.71	18.94	4.22	-47.3	-49.8	3.6	0.00e+00	0	27	104	0	60	37959
2026-01-11 22:43:56.72	18.96	4.30	-47.2	-49.7	3.6	0.00e+00	0	27	104	0	60	37265
2026-01-11 22:43:57.73	18.98	4.38	-47.2	-49.7	3.6	0.00e+00	0	27	104	0	60	37480
2026-01-11 22:43:58.74	19.00	4.46	-47.4	-49.8	3.6	0.00e+00	0	27	104	0	60	37871
2026-01-11 22:43:59.74	19.02	4.54	-47.2	-49.6	3.6	0.00e+00	0	27	104	0	60	36966
2026-01-11 22:44:00.75	19.04	4.62	-47.2	-49.7	3.6	0.00e+00	0	27	104	0	60	37510
2026-01-11 22:44:01.76	19.06	4.70	-47.3	-49.8	3.6	0.00e+00	0	27	104	0	60	37920
2026-01-11 22:44:02.77	19.08	4.78	-47.4	-49.9	3.6	0.00e+00	0	27	104	0	60	38241
2026-01-11 22:44:03.78	19.10	4.86	-47.2	-49.7	3.6	0.00e+00	0	27	104	0	60	37436
2026-01-11 22:44:04.79	19.12	4.94	-47.2	-49.7	3.6	0.00e+00	0	27	104	0	60	37309
2026-01-11 22:44:05.80	19.14	5.02	-47.4	-49.8	3.6	0.00e+00	0	27	104	0	60	38064
2026-01-11 22:44:06.81	19.16	5.10	-47.4	-50.0	3.6	0.00e+00	0	27	104	0	60	38582
2026-01-11 22:44:07.82	19.18	5.18	-47.3	-49.8	3.6	0.00e+00	0	27	104	0	60	37930
2026-01-11 22:44:08.82	19.21	5.26	-47.3	-49.7	3.6	0.00e+00	0	27	104	0	60	37567
2026-01-11 22:44:09.83	19.23	5.34	-47.4	-49.9	3.6	0.00e+00	0	27	104	0	60	38438
2026-01-11 22:44:10.84	19.25	5.42	-47.4	-49.9	3.6	0.00e+00	0	27	104	0	60	38414
2026-01-11 22:44:11.85	19.27	5.51	-47.4	-49.9	3.6	0.00e+00	0	27	104	0	60	38099
2026-01-11 22:44:12.86	19.29	5.59	-47.4	-49.9	3.6	0.00e+00	0	27	104	0	60	38262
2026-01-11 22:44:13.87	19.31	5.67	-47.5	-49.9	3.6	0.00e+00	0	27	104	0	60	38297
2026-01-11 22:44:14.88	19.34	5.76	-47.3	-49.9	3.6	0.00e+00	0	27	104	0	60	38115
2026-01-11 22:44:15.88	19.36	5.84	-47.4	-49.9	3.6	0.00e+00	0	27	104	0	60	38434
2026-01-11 22:44:16.89	19.38	5.93	-47.4	-49.9	3.6	0.00e+00	0	27	104	0	60	38442
2026-01-11 22:44:17.90	19.40	6.01	-47.4	-49.9	3.6	0.00e+00	0	27	104	0	60	38069
2026-01-11 22:44:18.91	19.42	6.10	-47.4	-50.0	3.6	0.00e+00	0	27	104	0	60	38554
2026-01-11 22:44:19.92	19.45	6.18	-47.4	-49.9	3.6	0.00e+00	0	27	104	0	60	38224
2026-01-11 22:44:20.93	19.47	6.27	-47.5	-49.9	3.6	0.00e+00	0	28	104	0	60	38454
2026-01-11 22:44:21.94	19.49	6.35	-47.4	-49.9	3.6	0.00e+00	0	27	104	0	60	38136
2026-01-11 22:44:22.95	19.52	6.44	-47.6	-50.1	3.6	0.00e+00	0	28	104	0	60	39042
2026-01-11 22:44:23.96	19.54	6.53	-47.3	-49.9	3.6	0.00e+00	0	28	104	0	60	38146
2026-01-11 22:44:24.96	19.56	6.61	-47.5	-50.0	3.6	0.00e+00	0	28	104	0	60	38576
2026-01-11 22:44:25.97	19.59	6.70	-47.6	-50.1	3.6	0.00e+00	0	28	104	0	60	39068
2026-01-11 22:44:26.98	19.61	6.79	-47.6	-50.1	3.6	0.00e+00	0	28	104	0	60	39032
2026-01-11 22:44:27.99	19.63	6.88	-47.4	-49.9	3.6	0.00e+00	0	28	104	0	60	38232
2026-01-11 22:44:29.00	19.66	6.97	-47.6	-50.0	3.6	0.00e+00	0	28	104	0	60	38949
2026-01-11 22:44:30.01	19.68	7.06	-47.6	-50.1	3.6	0.00e+00	0	28	104	0	60	39199
2026-01-11 22:44:31.01	19.70	7.15	-47.6	-50.1	3.6	0.00e+00	0	28	104	0	60	39180
2026-01-11 22:44:32.02	19.73	7.24	-47.5	-49.9	3.6	0.00e+00	0	28	104	0	60	38350
2026-01-11 22:44:33.03	19.75	7.33	-47.6	-50.1	3.6	0.00e+00	0	28	104	0	60	39241
2026-01-11 22:44:34.03	19.78	7.42	-47.6	-50.1	3.5	0.00e+00	0	28	104	0	60	39295
2026-01-11 22:44:35.04	19.80	7.51	-47.6	-50.2	3.6	0.00e+00	0	28	104	0	60	39534
2026-01-11 22:44:36.05	19.83	7.60	-47.6	-50.1	3.6	0.00e+00	0	28	104	0	60	39240
2026-01-11 22:44:37.06	19.85	7.70	-47.6	-50.1	3.6	0.00e+00	0	28	104	0	60	39034
2026-01-11 22:44:38.07	19.88	7.79	-47.7	-50.2	3.6	0.00e+00	0	28	104	0	60	39448
2026-01-11 22:44:39.08	19.90	7.88	-47.7	-50.2	3.6	0.00e+00	0	28	104	0	60	39715
2026-01-11 22:44:40.09	19.93	7.98	-47.6	-50.0	3.6	0.00e+00	0	28	104	0	60	38947
2026-01-11 22:44:41.10	19.96	8.07	-47.7	-50.2	3.6	0.00e+00	0	28	104	0	60	39656
2026-01-11 22:44:42.11	19.98	8.17	-47.7	-50.2	3.6	0.00e+00	0	28	104	0	60	39689
2026-01-11 22:44:43.12	20.01	8.26	-47.8	-50.3	3.6	0.00e+00	0	28	104	0	60	39873
2026-01-11 22:44:44.13	20.03	8.36	-47.6	-50.1	3.6	0.00e+00	0	28	104	0	60	39361
2026-01-11 22:44:45.13	20.06	8.45	-47.7	-50.2	3.6	0.00e+00	0	28	104	0	60	39670
2026-01-11 22:44:46.14	20.09	8.55	-47.8	-50.3	3.6	0.00e+00	0	28	104	0	60	40059
2026-01-11 22:44:47.15	20.11	8.65	-47.8	-50.3	3.6	0.00e+00	0	28	104	0	60	40039
2026-01-11 22:44:48.16	20.14	8.74	-47.7	-50.2	3.6	0.00e+00	0	28	104	0	60	39534
2026-01-11 22:44:49.16	20.17	8.84	-47.7	-50.2	3.6	0.00e+00	0	28	104	0	60	39738
2026-01-11 22:44:50.17	20.19	8.94	-47.8	-50.3	3.6	0.00e+00	0	28	104	0	60	40063
2026-01-11 22:44:51.18	20.22	9.04	-47.8	-50.3	3.6	0.00e+00	0	28	104	0	60	40079
2026-01-11 22:44:52.19	20.25	9.14	-47.5	-50.1	3.6	0.00e+00	0	28	104	0	60	39013
2026-01-11 22:44:53.20	20.28	9.24	-47.8	-50.2	3.6	0.00e+00	0	28	104	0	60	39814
2026-01-11 22:44:54.21	20.31	9.34	-47.8	-50.3	3.6	0.00e+00	0	28	104	0	60	40012
2026-01-11 22:44:55.22	20.34	9.44	-47.7	-50.3	3.6	0.00e+00	0	28	104	0	60	39904
2026-01-11 22:44:56.23	20.36	9.55	-47.8	-50.3	3.6	0.00e+00	0	28	104	0	60	40002
2026-01-11 22:44:57.24	20.39	9.65	-47.7	-50.2	3.6	0.00e+00	0	28	104	0	60	39799
2026-01-11 22:44:58.25	20.42	9.75	-47.8	-50.3	3.6	0.00e+00	0	28	104	0	60	40295
2026-01-11 22:44:59.26	20.45	9.86	-47.7	-50.3	3.6	0.00e+00	0	28	104	0	60	39876
2026-01-11 22:45:00.27	20.48	9.96	-47.8	-50.3	3.6	0.00e+00	0	28	104	0	60	39875
2026-01-11 22:45:01.28	20.51	10.06	-47.8	-50.3	3.6	0.00e+00	0	28	104	0	60	39876
2026-01-11 22:45:02.29	20.54	10.17	-47.8	-50.3	3.6	0.00e+00	0	28	104	0	60	40239
2026-01-11 22:45:03.30	20.57	10.28	-47.6	-50.2	3.6	0.00e+00	0	28	104	0	60	39409
2026-01-11 22:45:04.31	20.60	10.38	-47.8	-50.2	3.6	0.00e+00	0	28	104	0	60	39753
2026-01-11 22:45:05.32	20.63	10.49	-46.8	-49.4	3.6	0.00e+00	0	28	104	0	60	36309
2026-01-11 22:45:06.33	20.66	10.60	-47.3	-49.9	3.6	0.00e+00	0	28	104	0	60	38337
2026-01-11 22:45:07.33	20.69	10.71	-47.3	-49.8	3.6	0.00e+00	0	28	104	0	60	37948
2026-01-11 22:45:08.34	20.72	10.82	-47.2	-49.9	3.6	0.00e+00	0	28	104	0	60	38088
2026-01-11 22:45:09.35	20.76	10.93	-47.9	-50.4	3.6	0.00e+00	0	28	104	0	60	40477
2026-01-11 22:45:10.36	20.79	11.04	-47.3	-49.9	3.6	0.00e+00	0	28	104	0	60	38127
2026-01-11 22:45:11.37	20.82	11.15	-47.8	-50.3	3.6	0.00e+00	0	28	104	0	60	39934
2026-01-11 22:45:12.38	20.85	11.26	-47.6	-50.1	3.6	0.00e+00	0	28	104	0	60	39077
2026-01-11 22:45:13.39	20.89	11.37	-46.9	-49.5	3.6	0.00e+00	0	28	104	0	60	36651
2026-01-11 22:45:14.40	20.92	11.48	-47.7	-50.2	3.6	0.00e+00	0	28	104	0	60	39642
2026-01-11 22:45:15.41	20.95	11.60	-47.8	-50.3	3.6	0.00e+00	0	28	104	0	60	40043
2026-01-11 22:45:16.40	20.98	11.71	-47.8	-50.3	3.6	0.00e+00	0	28	104	0	60	40205
2026-01-11 22:45:17.41	21.02	11.83	-47.8	-50.3	3.6	0.00e+00	0	28	104	0	60	40272
2026-01-11 22:45:18.42	21.05	11.94	-47.9	-50.4	3.6	0.00e+00	0	28	104	0	60	40590
2026-01-11 22:45:19.43	21.09	12.06	-47.9	-50.4	3.6	0.00e+00	0	28	104	0	60	40590
2026-01-11 22:45:20.44	21.12	12.18	-47.9	-50.4	3.6	0.00e+00	0	28	104	0	60	40329
2026-01-11 22:45:21.45	21.16	12.29	-48.0	-50.5	3.6	0.00e+00	0	28	104	0	60	40909
2026-01-11 22:45:22.46	21.19	12.41	-47.8	-50.4	3.6	0.00e+00	0	28	104	0	60	40494
2026-01-11 22:45:23.47	21.23	12.53	-47.9	-50.4	3.6	0.00e+00	0	28	104	0	60	40393
2026-01-11 22:45:24.47	21.26	12.65	-48.0	-50.5	3.6	0.00e+00	0	28	104	0	60	40856
2026-01-11 22:45:25.48	21.30	12.77	-48.0	-50.4	3.6	0.00e+00	0	28	104	0	60	40775
2026-01-11 22:45:26.49	21.33	12.90	-47.9	-50.4	3.6	0.00e+00	0	28	104	0	60	40420
2026-01-11 22:45:27.50	21.37	13.02	-48.0	-50.5	3.6	0.00e+00	0	28	104	0	60	40840
2026-01-11 22:45:28.51	21.41	13.14	-47.9	-50.4	3.6	0.00e+00	0	28	104	0	60	40776
2026-01-11 22:45:29.52	21.45	13.27	-47.9	-50.4	3.6	0.00e+00	0	28	104	0	60	40726
2026-01-11 22:45:30.53	21.48	13.39	-48.0	-50.5	3.6	0.00e+00	0	28	104	0	60	41033
2026-01-11 22:45:31.53	21.52	13.52	-47.9	-50.4	3.6	0.00e+00	0	28	104	0	60	40673
2026-01-11 22:45:32.54	21.56	13.64	-48.0	-50.5	3.6	0.00e+00	0	28	104	0	60	40972
2026-01-11 22:45:33.55	21.60	13.77	-48.0	-50.4	3.6	0.00e+00	0	28	104	0	60	40719
2026-01-11 22:45:34.56	21.64	13.90	-47.9	-50.4	3.6	0.00e+00	0	28	104	0	60	40494
2026-01-11 22:45:35.57	21.68	14.03	-48.0	-50.5	3.6	0.00e+00	0	28	104	0	60	41239
2026-01-11 22:45:36.58	21.72	14.16	-48.0	-50.4	3.6	0.00e+00	0	28	104	0	60	40789
2026-01-11 22:45:37.59	21.76	14.29	-48.0	-50.5	3.6	0.00e+00	0	28	104	0	60	41093
2026-01-11 22:45:38.60	21.80	14.42	-48.0	-50.5	3.6	0.00e+00	0	28	104	0	60	41063
2026-01-11 22:45:39.61	21.84	14.56	-48.0	-50.5	3.6	0.00e+00	0	28	104	0	60	41007
2026-01-11 22:45:40.62	21.88	14.69	-48.0	-50.5	3.6	0.00e+00	0	28	104	0	60	41027
2026-01-11 22:45:41.63	21.92	14.83	-47.9	-50.4	3.6	0.00e+00	0	28	104	0	60	40548
2026-01-11 22:45:42.64	21.96	14.96	-48.1	-50.6	3.6	0.00e+00	0	28	104	0	60	41330
2026-01-11 22:45:43.65	22.01	15.10	-48.0	-50.5	3.6	0.00e+00	0	28	104	0	60	41057
2026-01-11 22:45:44.65	22.05	15.24	-48.0	-50.5	3.6	0.00e+00	0	28	104	0	60	40844
2026-01-11 22:45:45.66	22.09	15.38	-48.0	-50.5	3.6	0.00e+00	0	28	104	0	60	41189
2026-01-11 22:45:46.67	22.14	15.52	-48.1	-50.5	3.6	0.00e+00	0	28	104	0	60	41253
2026-01-11 22:45:47.68	22.18	15.66	-47.9	-50.4	3.6	0.00e+00	0	28	104	0	60	40614
2026-01-11 22:45:48.69	22.23	15.80	-48.1	-50.6	3.6	0.00e+00	0	28	104	0	60	41347
2026-01-11 22:45:49.70	22.27	15.94	-48.0	-50.5	3.6	0.00e+00	0	28	104	0	60	40938
2026-01-11 22:45:50.71	22.32	16.09	-48.0	-50.5	3.6	0.00e+00	0	28	104	0	60	40817
2026-01-11 22:45:51.72	22.36	16.23	-48.1	-50.6	3.6	0.00e+00	0	28	104	0	60	41398
2026-01-11 22:45:52.73	22.41	16.38	-48.2	-50.7	3.6	0.00e+00	0	28	104	0	60	42007
2026-01-11 22:45:53.73	22.46	16.53	-48.1	-50.6	3.6	0.00e+00	0	28	104	0	60	41546
2026-01-11 22:45:54.74	22.50	16.68	-48.1	-50.6	3.6	0.00e+00	0	28	104	0	60	41507
2026-01-11 22:45:55.75	22.55	16.83	-48.2	-50.7	3.6	0.00e+00	0	28	104	0	60	41748
2026-01-11 22:45:56.76	22.60	16.98	-47.8	-50.4	3.6	0.00e+00	0	28	104	0	60	40402
2026-01-11 22:45:57.77	22.65	17.13	-48.1	-50.6	3.6	0.00e+00	0	28	104	0	60	41470
2026-01-11 22:45:58.78	22.70	17.28	-48.1	-50.6	3.6	0.00e+00	0	28	104	0	60	41494
2026-01-11 22:45:59.79	22.75	17.44	-47.9	-50.4	3.6	0.00e+00	0	28	104	0	60	40697
2026-01-11 22:46:00.80	22.80	17.59	-47.8	-50.3	3.6	0.00e+00	0	28	104	0	60	40190
2026-01-11 22:46:01.81	22.85	17.75	-48.0	-50.5	3.6	0.00e+00	0	28	104	0	60	41255
2026-01-11 22:46:02.82	22.90	17.91	-47.9	-50.4	3.6	0.00e+00	0	28	104	0	60	40626
2026-01-11 22:46:03.83	22.96	18.07	-48.0	-50.5	3.6	0.00e+00	0	28	104	0	60	40999
2026-01-11 22:46:04.84	23.01	18.23	-48.2	-50.6	3.6	0.00e+00	0	28	104	0	60	41730
2026-01-11 22:46:05.85	23.06	18.40	-47.9	-50.4	3.6	0.00e+00	0	28	104	0	60	40722
2026-01-11 22:46:06.86	23.12	18.56	-48.0	-50.5	3.6	0.00e+00	0	28	104	0	60	41145
2026-01-11 22:46:07.87	23.17	18.72	-48.1	-50.6	3.6	0.00e+00	0	28	104	0	60	41516
2026-01-11 22:46:08.88	23.23	18.89	-48.0	-50.5	3.6	0.00e+00	0	28	104	0	60	41252
2026-01-11 22:46:09.88	23.28	19.06	-48.2	-50.7	3.6	0.00e+00	0	28	104	0	60	41982
2026-01-11 22:46:10.89	23.34	19.23	-48.2	-50.7	3.6	0.00e+00	0	28	104	0	60	41782
2026-01-11 22:46:11.90	23.40	19.40	-48.1	-50.6	3.6	0.00e+00	0	28	104	0	60	41665
2026-01-11 22:46:12.91	23.46	19.57	-48.2	-50.7	3.6	0.00e+00	0	28	104	0	60	42126
2026-01-11 22:46:13.92	23.52	19.75	-48.1	-50.7	3.6	0.00e+00	0	28	104	0	60	41845
2026-01-11 22:46:14.93	23.58	19.92	-48.0	-50.5	3.6	0.00e+00	0	28	104	0	60	41248
2026-01-11 22:46:15.94	23.64	20.10	-48.2	-50.7	3.6	0.00e+00	0	28	104	0	60	42042
2026-01-11 22:46:16.95	23.70	20.28	-48.2	-50.7	3.6	0.00e+00	0	28	104	0	60	41938
2026-01-11 22:46:17.96	23.76	20.46	-48.2	-50.7	3.6	0.00e+00	0	28	104	0	60	42134
2026-01-11 22:46:18.97	23.82	20.64	-48.2	-50.7	3.6	0.00e+00	0	28	104	0	60	41781
2026-01-11 22:46:19.98	23.89	20.82	-48.2	-50.7	3.6	0.00e+00	0	28	104	0	60	42039
2026-01-11 22:46:20.99	23.95	21.01	-48.2	-50.7	3.6	0.00e+00	0	28	104	0	60	42093
2026-01-11 22:46:22.00	24.02	21.20	-48.2	-50.7	3.6	0.00e+00	0	28	104	0	60	41957
2026-01-11 22:46:23.01	24.08	21.38	-48.2	-50.7	3.6	0.00e+00	0	28	104	0	60	41880
2026-01-11 22:46:24.02	24.15	21.57	-48.3	-50.8	3.6	0.00e+00	0	28	104	0	60	42445
2026-01-11 22:46:25.03	24.22	21.77	-48.3	-50.8	3.6	0.00e+00	0	28	104	0	60	42377
2026-01-11 22:46:26.04	24.29	21.96	-48.2	-50.7	3.6	0.00e+00	0	28	104	0	60	41959
2026-01-11 22:46:27.05	24.36	22.16	-48.2	-50.7	3.6	0.00e+00	0	28	104	0	60	41892
2026-01-11 22:46:28.06	24.43	22.35	-48.3	-50.8	3.6	0.00e+00	0	28	104	0	60	42427
2026-01-11 22:46:29.07	24.50	22.55	-48.2	-50.8	3.6	0.00e+00	0	28	104	0	60	42232
2026-01-11 22:46:30.08	24.57	22.76	-48.3	-50.8	3.6	0.00e+00	0	28	104	0	60	42260
2026-01-11 22:46:31.09	24.64	22.96	-48.2	-50.7	3.6	0.00e+00	0	28	104	0	60	42003
2026-01-11 22:46:32.10	24.72	23.16	-48.3	-50.8	3.6	0.00e+00	0	28	104	0	60	42362
2026-01-11 22:46:33.11	24.79	23.37	-48.3	-50.8	3.6	0.00e+00	0	28	104	0	60	42274
2026-01-11 22:46:34.11	24.87	23.58	-48.2	-50.7	3.6	0.00e+00	0	28	104	0	60	42082
2026-01-11 22:46:35.12	24.95	23.79	-48.3	-50.7	3.6	0.00e+00	0	28	104	0	60	42143
2026-01-11 22:46:36.13	25.03	24.00	-48.3	-50.8	3.6	0.00e+00	0	28	104	0	60	42246
2026-01-11 22:46:37.14	25.11	24.22	-48.2	-50.7	3.6	0.00e+00	0	28	104	0	60	42144
2026-01-11 22:46:38.15	25.19	24.44	-48.2	-50.7	3.6	0.00e+00	0	28	104	0	60	42192
2026-01-11 22:46:39.16	25.27	24.66	-48.2	-50.7	3.6	0.00e+00	0	28	104	0	60	41869
2026-01-11 22:46:40.17	25.35	24.88	-48.3	-50.8	3.6	0.00e+00	0	28	104	0	60	42530
2026-01-11 22:46:41.18	25.44	25.10	-48.3	-50.7	3.6	0.00e+00	0	28	104	0	60	42071
2026-01-11 22:46:42.19	25.53	25.33	-48.2	-50.7	3.6	0.00e+00	0	28	104	0	60	42090
2026-01-11 22:46:43.20	25.61	25.56	-48.2	-50.7	3.6	0.00e+00	0	28	104	0	60	42143
2026-01-11 22:46:44.20	25.70	25.79	-48.3	-50.8	3.6	0.00e+00	0	28	104	0	60	42656
2026-01-11 22:46:45.22	25.79	26.03	-48.3	-50.8	3.6	0.00e+00	0	28	104	0	60	42510
2026-01-11 22:46:46.22	25.88	26.26	-48.3	-50.8	3.6	0.00e+00	0	28	104	0	60	42650
2026-01-11 22:46:47.23	25.98	26.50	-48.3	-50.8	3.6	0.00e+00	0	28	104	0	60	42481
2026-01-11 22:46:48.24	26.07	26.74	-48.3	-50.7	3.6	0.00e+00	0	29	104	0	60	42119
2026-01-11 22:46:49.25	26.17	26.98	-48.2	-50.7	3.6	0.00e+00	0	28	104	0	60	42149
2026-01-11 22:46:50.26	26.26	27.23	-48.3	-50.7	3.6	0.00e+00	0	28	104	0	60	42210
2026-01-11 22:46:51.27	26.36	27.48	-48.3	-50.8	3.6	0.00e+00	0	28	104	0	60	42578
2026-01-11 22:46:52.28	26.46	27.73	-48.3	-50.8	3.6	0.00e+00	0	28	104	0	60	42647
2026-01-11 22:46:53.29	26.57	27.98	-48.3	-50.8	3.6	0.00e+00	0	28	104	0	60	42491
2026-01-11 22:46:54.30	26.67	28.24	-48.3	-50.8	3.6	0.00e+00	0	28	104	0	60	42491
2026-01-11 22:46:55.31	26.78	28.50	-48.3	-50.8	3.6	0.00e+00	0	28	104	0	60	42509
2026-01-11 22:46:56.32	26.89	28.76	-48.1	-50.6	3.6	0.00e+00	0	29	104	0	60	41684
2026-01-11 22:46:57.33	26.99	29.03	-48.1	-50.7	3.6	0.00e+00	0	28	104	0	60	42117
2026-01-11 22:46:58.34	27.11	29.30	-48.3	-50.8	3.6	0.00e+00	0	29	104	0	60	42308
2026-01-11 22:46:59.35	27.22	29.57	-48.2	-50.7	3.6	0.00e+00	0	29	104	0	60	41845
2026-01-11 22:47:00.35	27.33	29.84	-48.2	-50.7	3.6	0.00e+00	0	29	104	0	60	42110
2026-01-11 22:47:01.36	27.45	30.12	-48.3	-50.8	3.6	0.00e+00	0	29	104	0	60	42626
2026-01-11 22:47:02.37	27.57	30.40	-48.2	-50.8	3.6	0.00e+00	0	29	104	0	60	42474
2026-01-11 22:47:03.38	27.69	30.68	-48.3	-50.7	3.6	0.00e+00	0	29	104	0	60	42027
2026-01-11 22:47:04.39	27.82	30.97	-48.0	-50.4	3.6	0.00e+00	0	29	104	0	60	40682
2026-01-11 22:47:05.40	27.95	31.26	-32.4	-32.9	4.9	0.00e+00	0	29	104	0	38	19291
2026-01-11 22:47:06.41	28.08	31.56	-41.8	-42.6	4.9	0.00e+00	0	29	104	0	60	16465
2026-01-11 22:47:07.42	28.21	31.85	-46.6	-48.5	3.6	0.00e+00	0	29	104	0	60	32647
2026-01-11 22:47:08.43	28.34	32.15	-48.2	-50.6	3.6	0.00e+00	0	29	104	0	60	41471
2026-01-11 22:47:09.44	28.48	32.46	-48.1	-50.5	3.5	0.00e+00	0	29	104	0	60	41226
2026-01-11 22:47:10.44	28.62	32.76	-48.3	-50.8	3.6	0.00e+00	0	29	104	0	60	42337
2026-01-11 22:47:11.45	28.76	33.07	-48.3	-50.8	3.6	0.00e+00	0	29	104	0	60	42500
2026-01-11 22:47:12.47	28.91	33.39	-48.3	-50.8	3.6	0.00e+00	0	29	104	0	60	42639
2026-01-11 22:47:13.47	29.05	33.71	-48.3	-50.8	3.6	0.00e+00	0	29	104	0	60	42595
2026-01-11 22:47:14.48	29.20	34.03	-48.4	-50.9	3.6	0.00e+00	0	29	104	0	60	42791
2026-01-11 22:47:15.49	29.36	34.35	-48.4	-50.9	3.6	0.00e+00	0	29	104	0	60	42899
2026-01-11 22:47:16.50	29.51	34.68	-48.3	-50.8	3.6	0.00e+00	0	29	104	0	60	42485
2026-01-11 22:47:17.50	29.67	35.01	-48.4	-50.9	3.6	0.00e+00	0	29	104	0	60	43050
2026-01-11 22:47:18.51	29.84	35.35	-48.2	-50.7	3.6	0.00e+00	0	29	104	0	60	42103
2026-01-11 22:47:19.52	30.01	35.69	-48.3	-50.8	3.6	0.00e+00	0	29	104	0	60	42538
2026-01-11 22:47:20.53	30.18	36.04	-48.4	-50.9	3.6	0.00e+00	0	29	104	0	60	42824
2026-01-11 22:47:21.54	30.35	36.38	-48.4	-50.9	3.6	0.00e+00	0	29	104	0	60	42960
2026-01-11 22:47:22.55	30.53	36.74	-48.4	-50.9	3.6	0.00e+00	0	29	104	0	60	42765
2026-01-11 22:47:23.56	30.72	37.10	-48.4	-50.9	3.6	0.00e+00	0	29	104	0	60	42923
2026-01-11 22:47:24.57	30.90	37.46	-48.4	-50.9	3.6	0.00e+00	0	29	104	0	60	42988
2026-01-11 22:47:25.58	31.10	37.82	-48.3	-50.9	3.6	0.00e+00	0	29	104	0	60	42929
2026-01-11 22:47:26.58	31.29	38.19	-48.4	-50.9	3.6	0.00e+00	0	29	104	0	60	42987
2026-01-11 22:47:27.59	31.49	38.56	-48.1	-50.7	3.6	0.00e+00	0	29	104	0	60	41843
2026-01-11 22:47:28.60	31.70	38.94	-48.3	-50.8	3.6	0.00e+00	0	29	104	0	60	42592
2026-01-11 22:47:29.61	31.91	39.33	-48.4	-50.9	3.6	0.00e+00	0	29	104	0	60	43026
2026-01-11 22:47:30.62	32.13	39.71	-48.4	-50.9	3.6	0.00e+00	0	29	104	0	60	43020
2026-01-11 22:47:31.63	32.35	40.11	-48.4	-50.9	3.6	0.00e+00	0	29	104	0	60	43131
2026-01-11 22:47:32.64	32.57	40.50	-48.4	-50.9	3.5	0.00e+00	0	29	104	0	60	43002
2026-01-11 22:47:33.65	32.81	40.90	-48.5	-51.0	3.6	0.00e+00	0	29	104	0	60	43231
2026-01-11 22:47:34.66	33.05	41.31	-48.4	-50.9	3.6	0.00e+00	0	29	104	0	60	42988
2026-01-11 22:47:35.67	33.29	41.72	-48.4	-50.9	3.6	0.00e+00	0	29	104	0	60	42880
2026-01-11 22:47:36.68	33.54	42.14	-48.3	-50.8	3.6	0.00e+00	0	29	104	0	60	42543
2026-01-11 22:47:37.69	33.80	42.56	-48.3	-50.8	3.6	0.00e+00	0	29	104	0	60	42431
2026-01-11 22:47:38.70	34.07	42.98	-48.5	-51.0	3.6	0.00e+00	0	29	104	0	60	43331
2026-01-11 22:47:39.71	34.34	43.41	-48.4	-50.9	3.6	0.00e+00	0	29	104	0	60	43079
2026-01-11 22:47:40.72	34.62	43.85	-48.5	-51.0	3.6	0.00e+00	0	29	104	0	60	43214
2026-01-11 22:47:41.73	34.91	44.29	-48.5	-50.9	3.6	0.00e+00	0	29	104	0	60	43036
2026-01-11 22:47:42.74	35.21	44.73	-48.5	-51.0	3.6	0.00e+00	0	29	104	0	60	43341
2026-01-11 22:47:43.74	35.51	45.18	-48.4	-50.9	3.6	0.00e+00	0	29	104	0	60	42714
2026-01-11 22:47:44.75	35.83	45.63	-48.4	-50.9	3.6	0.00e+00	0	29	104	0	60	42801
2026-01-11 22:47:45.76	36.15	46.09	-48.4	-50.9	3.6	0.00e+00	0	29	104	0	60	42962
2026-01-11 22:47:46.77	36.48	46.55	-48.5	-51.0	3.6	0.00e+00	0	29	104	0	60	43372
2026-01-11 22:47:47.78	36.83	47.02	-48.5	-51.0	3.6	0.00e+00	0	29	104	0	60	43409
2026-01-11 22:47:48.78	37.18	47.49	-48.4	-50.9	3.6	0.00e+00	0	29	104	0	60	42847
2026-01-11 22:47:49.79	37.54	47.97	-48.5	-50.9	3.6	0.00e+00	0	29	104	0	60	43104
2026-01-11 22:47:50.80	37.92	48.45	-48.4	-50.9	3.6	0.00e+00	0	29	104	0	60	43079
2026-01-11 22:47:51.81	38.31	48.94	-48.4	-51.0	3.6	0.00e+00	0	29	104	0	60	43212
2026-01-11 22:47:52.82	38.71	49.43	-48.4	-50.9	3.6	0.00e+00	0	29	104	0	60	43197
2026-01-11 22:47:53.83	39.13	49.93	-48.4	-50.9	3.6	0.00e+00	0	29	104	0	60	43023
2026-01-11 22:47:54.83	39.56	50.42	-48.4	-50.9	3.6	0.00e+00	0	29	104	0	60	43056
2026-01-11 22:47:55.84	40.00	50.93	-48.4	-50.9	3.6	0.00e+00	0	29	104	0	60	42919
2026-01-11 22:47:56.85	40.46	51.44	-48.4	-50.9	3.6	0.00e+00	0	29	104	0	60	43011
2026-01-11 22:47:57.85	40.93	51.95	-48.5	-51.0	3.6	0.00e+00	0	29	104	0	60	43465
2026-01-11 22:47:58.86	41.43	52.46	-48.5	-51.0	3.6	0.00e+00	0	29	104	0	60	43286
2026-01-11 22:47:59.87	41.94	52.99	-48.4	-51.0	3.6	0.00e+00	0	29	104	0	60	43230
2026-01-11 22:48:00.88	42.47	53.51	-48.5	-50.9	3.6	0.00e+00	0	29	104	0	60	43025
2026-01-11 22:48:01.89	43.02	54.04	-48.4	-50.9	3.6	0.00e+00	0	29	104	0	60	42846
2026-01-11 22:48:02.90	43.59	54.57	-48.5	-51.0	3.6	0.00e+00	0	29	104	0	60	43369
2026-01-11 22:48:03.91	44.19	55.11	-48.5	-51.0	3.6	0.00e+00	0	29	104	0	60	43300
2026-01-11 22:48:04.92	44.80	55.65	-48.5	-51.0	3.6	0.00e+00	0	29	104	0	60	43218
2026-01-11 22:48:05.93	45.44	56.19	-48.4	-50.8	3.6	0.00e+00	0	29	104	0	60	42606
2026-01-11 22:48:06.93	46.10	56.73	-48.5	-51.0	3.6	0.00e+00	0	29	104	0	60	43442
2026-01-11 22:48:07.94	46.80	57.27	-48.5	-50.9	3.6	0.00e+00	0	29	104	0	60	43143
2026-01-11 22:48:08.95	47.52	57.82	-48.5	-51.0	3.6	0.00e+00	0	29	104	0	60	43265
2026-01-11 22:48:09.96	48.27	58.37	-48.5	-51.0	3.6	0.00e+00	0	29	104	0	60	43262
2026-01-11 22:48:10.97	49.06	58.92	-48.5	-50.9	3.6	0.00e+00	0	29	104	0	60	43180
2026-01-11 22:48:11.98	49.88	59.47	-48.5	-50.9	3.6	0.00e+00	0	29	104	0	60	43024
2026-01-11 22:48:12.99	50.73	60.02	-48.5	-51.0	3.6	0.00e+00	0	29	104	0	60	43437
2026-01-11 22:48:14.00	51.62	60.57	-48.4	-50.9	3.6	0.00e+00	0	29	104	0	60	42960
2026-01-11 22:48:15.01	52.55	61.12	-48.4	-50.9	3.6	0.00e+00	0	29	104	0	60	43080
2026-01-11 22:48:16.02	53.53	61.66	-48.4	-50.9	3.6	0.00e+00	0	29	104	0	60	42936
2026-01-11 22:48:17.03	54.54	62.21	-48.4	-50.9	3.6	0.00e+00	0	29	104	0	60	43042
2026-01-11 22:48:18.04	55.61	62.75	-48.4	-50.9	3.6	0.00e+00	0	29	104	0	60	43010
2026-01-11 22:48:19.05	56.72	63.28	-48.4	-50.9	3.6	0.00e+00	0	29	104	0	60	42951
2026-01-11 22:48:20.06	57.89	63.82	-48.5	-51.0	3.6	0.00e+00	0	29	104	0	60	43228
2026-01-11 22:48:21.06	59.09	64.34	-48.4	-50.9	3.6	0.00e+00	0	29	104	0	60	43148
2026-01-11 22:48:22.08	60.38	64.86	-48.4	-50.9	3.6	0.00e+00	0	29	104	0	60	42936
2026-01-11 22:48:23.09	61.72	65.37	-48.5	-50.9	3.6	0.00e+00	0	29	104	0	60	43182
2026-01-11 22:48:24.09	63.11	65.87	-48.4	-50.9	3.6	0.00e+00	0	29	104	0	60	42988
2026-01-11 22:48:25.10	64.57	66.36	-48.4	-51.0	3.6	0.00e+00	0	29	104	0	60	43240
2026-01-11 22:48:26.11	66.10	66.85	-48.4	-50.9	3.6	0.00e+00	0	30	104	0	60	42899
2026-01-11 22:48:27.12	67.71	67.32	-48.5	-51.0	3.6	0.00e+00	0	29	104	0	60	43213
2026-01-11 22:48:28.13	69.39	67.77	-48.4	-50.9	3.6	0.00e+00	0	30	104	0	60	43142
2026-01-11 22:48:29.13	71.12	68.20	-48.4	-50.9	3.6	0.00e+00	0	29	104	0	60	42774
2026-01-11 22:48:30.14	72.95	68.63	-48.4	-51.0	3.6	0.00e+00	0	29	104	0	60	43350
2026-01-11 22:48:31.15	74.86	69.03	-48.4	-50.9	3.6	0.00e+00	0	29	104	0	60	43157
2026-01-11 22:48:32.16	76.84	69.41	-48.4	-50.9	3.6	0.00e+00	0	29	104	0	60	42842
2026-01-11 22:48:33.17	78.91	69.77	-48.4	-50.9	3.6	0.00e+00	0	29	104	0	60	42811
2026-01-11 22:48:34.18	81.05	70.11	-48.3	-50.9	3.6	0.00e+00	0	29	104	0	60	42907
2026-01-11 22:48:35.19	83.27	70.42	-48.4	-51.0	3.6	0.00e+00	0	30	104	0	60	43265
2026-01-11 22:48:36.20	85.56	70.71	-48.4	-50.9	3.6	0.00e+00	0	29	104	0	60	43051
2026-01-11 22:48:37.20	87.90	70.96	-48.4	-50.9	3.6	0.00e+00	0	30	104	0	60	42898
2026-01-11 22:48:38.21	90.33	71.19	-48.4	-51.0	3.6	0.00e+00	0	29	104	0	60	43234
2026-01-11 22:48:39.22	92.82	71.38	-48.4	-50.9	3.6	0.00e+00	0	30	104	0	60	43034
2026-01-11 22:48:40.23	95.35	71.54	-48.4	-50.9	3.6	0.00e+00	0	30	104	0	60	43039
2026-01-11 22:48:41.24	97.93	71.67	-48.4	-50.8	3.6	0.00e+00	0	30	104	0	60	42563
2026-01-11 22:48:42.25	100.54	71.76	-48.4	-50.9	3.6	0.00e+00	0	30	104	0	60	43181
2026-01-11 22:48:43.26	103.17	71.81	-48.5	-50.9	3.6	0.00e+00	0	30	104	0	60	43194
2026-01-11 22:48:44.27	105.82	71.83	-48.4	-50.9	3.6	0.00e+00	0	30	104	0	60	42846
2026-01-11 22:48:45.27	108.44	71.81	-48.3	-50.8	3.6	0.00e+00	0	30	104	0	60	42625
2026-01-11 22:48:46.28	111.07	71.76	-48.4	-50.9	3.6	0.00e+00	0	30	104	0	60	43160
2026-01-11 22:48:47.29	113.68	71.67	-48.4	-50.8	3.5	0.00e+00	0	30	104	0	60	42677
2026-01-11 22:48:48.30	116.26	71.55	-48.4	-50.9	3.6	0.00e+00	0	29	104	0	60	43137
2026-01-11 22:48:49.30	118.78	71.39	-48.4	-50.9	3.6	0.00e+00	0	30	104	0	60	42984
2026-01-11 22:48:50.31	121.27	71.20	-48.4	-50.9	3.6	0.00e+00	0	30	104	0	60	42915
2026-01-11 22:48:51.32	123.70	70.98	-48.4	-50.9	3.6	0.00e+00	0	30	104	0	60	43043
2026-01-11 22:48:52.33	126.06	70.72	-48.4	-50.9	3.6	0.00e+00	0	30	104	0	60	42955
2026-01-11 22:48:53.34	128.36	70.44	-48.5	-50.9	3.6	0.00e+00	0	30	104	0	60	43123
2026-01-11 22:48:54.35	130.59	70.13	-48.4	-50.9	3.6	0.00e+00	0	30	104	0	60	42936
2026-01-11 22:48:55.36	132.73	69.79	-48.4	-50.9	3.6	0.00e+00	0	30	104	0	60	42897
2026-01-11 22:48:56.37	134.80	69.43	-48.4	-50.9	3.6	0.00e+00	0	30	104	0	60	42884
2026-01-11 22:48:57.38	136.80	69.05	-48.4	-50.9	3.6	0.00e+00	0	30	104	0	60	42841
2026-01-11 22:48:58.39	138.71	68.65	-48.5	-50.9	3.6	0.00e+00	0	30	104	0	60	43053
2026-01-11 22:48:59.40	140.54	68.23	-48.3	-50.8	3.6	0.00e+00	0	30	104	0	60	42458
2026-01-11 22:49:00.40	142.28	67.79	-48.3	-50.8	3.6	0.00e+00	0	29	104	0	60	42528
2026-01-11 22:49:01.41	143.96	67.34	-48.3	-50.8	3.6	0.00e+00	0	30	104	0	60	42488
2026-01-11 22:49:02.43	145.59	66.86	-48.4	-50.9	3.6	0.00e+00	0	30	104	0	60	43155
2026-01-11 22:49:03.44	147.12	66.38	-48.3	-50.8	3.6	0.00e+00	0	30	104	0	60	42603
2026-01-11 22:49:04.45	148.59	65.89	-48.2	-50.7	3.6	0.00e+00	0	30	104	0	60	42028
2026-01-11 22:49:05.45	149.98	65.39	-48.2	-50.7	3.6	0.00e+00	0	30	104	0	60	42211
2026-01-11 22:49:06.46	151.32	64.88	-48.3	-50.9	3.6	0.00e+00	0	30	104	0	60	42724
2026-01-11 22:49:07.47	152.60	64.36	-48.3	-50.8	3.6	0.00e+00	0	30	104	0	60	42482
2026-01-11 22:49:08.48	153.82	63.83	-48.0	-50.6	3.6	0.00e+00	0	30	104	0	60	41600
2026-01-11 22:49:09.49	154.99	63.30	-48.1	-50.6	3.6	0.00e+00	0	30	104	0	60	41735
2026-01-11 22:49:10.50	156.11	62.76	-47.8	-50.4	3.6	0.00e+00	0	30	104	0	60	40744
2026-01-11 22:49:11.51	157.18	62.22	-48.3	-50.8	3.6	0.00e+00	0	30	104	0	60	42479
2026-01-11 22:49:12.52	158.20	61.68	-48.1	-50.7	3.6	0.00e+00	0	30	104	0	60	42032
2026-01-11 22:49:13.53	159.17	61.13	-48.1	-50.6	3.6	0.00e+00	0	30	104	0	60	41715
2026-01-11 22:49:14.54	160.10	60.58	-47.9	-50.5	3.6	0.00e+00	0	30	104	0	60	41179
2026-01-11 22:49:15.54	160.99	60.04	-47.7	-50.3	3.6	0.00e+00	0	30	104	0	60	40197
2026-01-11 22:49:16.55	161.85	59.49	-47.8	-50.4	3.6	0.00e+00	0	30	104	0	60	40692
2026-01-11 22:49:17.56	162.67	58.94	-47.8	-50.4	3.6	0.00e+00	0	30	104	0	60	40615
2026-01-11 22:49:18.57	163.45	58.38	-48.3	-50.8	3.6	0.00e+00	0	30	104	0	60	42590
2026-01-11 22:49:19.58	164.21	57.84	-48.1	-50.7	3.6	0.00e+00	0	30	104	0	60	41861
2026-01-11 22:49:20.59	164.93	57.29	-48.0	-50.6	3.6	0.00e+00	0	30	104	0	60	41319
2026-01-11 22:49:21.60	165.63	56.74	-48.0	-50.6	3.6	0.00e+00	0	30	104	0	60	41346
2026-01-11 22:49:22.60	166.29	56.20	-47.8	-50.5	3.5	0.00e+00	0	30	104	0	60	40816
2026-01-11 22:49:23.61	166.93	55.66	-48.3	-50.8	3.6	0.00e+00	0	30	104	0	60	42290
2026-01-11 22:49:24.62	167.55	55.12	-48.2	-50.8	3.6	0.00e+00	0	30	104	0	60	42258
2026-01-11 22:49:25.63	168.15	54.58	-48.3	-50.8	3.6	0.00e+00	0	30	104	0	60	42614
2026-01-11 22:49:26.64	168.72	54.05	-48.5	-51.0	3.6	0.00e+00	0	30	104	0	60	43254
2026-01-11 22:49:27.65	169.27	53.52	-48.5	-51.0	3.6	0.00e+00	0	30	104	0	60	43552
2026-01-11 22:49:28.66	169.80	52.99	-48.5	-51.0	3.6	0.00e+00	0	30	104	0	60	43335
2026-01-11 22:49:29.66	170.31	52.47	-48.4	-50.9	3.6	0.00e+00	0	30	104	0	60	43094
2026-01-11 22:49:30.67	170.80	51.96	-48.4	-51.0	3.6	0.00e+00	0	30	104	0	60	43310
2026-01-11 22:49:31.68	171.28	51.44	-48.5	-50.9	3.6	0.00e+00	0	30	104	0	60	43175
2026-01-11 22:49:32.69	171.74	50.93	-48.5	-51.0	3.6	0.00e+00	0	30	104	0	60	43241
2026-01-11 22:49:33.70	172.19	50.42	-48.5	-50.9	3.6	0.00e+00	0	30	104	0	60	43190
2026-01-11 22:49:34.71	172.62	49.92	-48.4	-50.9	3.6	0.00e+00	0	30	104	0	60	42801
2026-01-11 22:49:35.72	173.04	49.42	-48.5	-51.0	3.6	0.00e+00	0	30	104	0	60	43530
2026-01-11 22:49:36.73	173.44	48.93	-48.5	-51.0	3.6	0.00e+00	0	30	104	0	60	43501
2026-01-11 22:49:37.74	173.83	48.44	-48.5	-51.0	3.6	0.00e+00	0	30	104	0	60	43648
2026-01-11 22:49:38.75	174.21	47.96	-48.6	-51.1	3.6	0.00e+00	0	30	104	0	60	43854
2026-01-11 22:49:39.76	174.57	47.48	-48.5	-51.0	3.6	0.00e+00	0	30	104	0	60	43381
2026-01-11 22:49:40.76	174.93	47.01	-48.5	-51.0	3.6	0.00e+00	0	30	104	0	60	43372
2026-01-11 22:49:41.78	175.27	46.53	-48.5	-51.0	3.6	0.00e+00	0	30	104	0	60	43430
2026-01-11 22:49:42.78	175.61	46.07	-48.3	-50.9	3.6	0.00e+00	0	30	104	0	60	42874
2026-01-11 22:49:43.79	175.93	45.61	-48.4	-50.9	3.6	0.00e+00	0	30	104	0	60	43156
2026-01-11 22:49:44.80	176.24	45.16	-48.4	-50.9	3.6	0.00e+00	0	30	104	0	60	42865
2026-01-11 22:49:45.81	176.55	44.71	-48.4	-51.0	3.6	0.00e+00	0	30	104	0	60	43372
2026-01-11 22:49:46.82	176.85	44.26	-48.1	-50.6	3.6	0.00e+00	0	30	104	0	60	41711
2026-01-11 22:49:47.83	177.14	43.82	-48.3	-50.8	3.6	0.00e+00	0	30	104	0	60	42482
2026-01-11 22:49:48.84	177.42	43.39	-48.2	-50.7	3.6	0.00e+00	0	30	104	0	60	42103
2026-01-11 22:49:49.85	177.69	42.96	-48.3	-50.8	3.6	0.00e+00	0	30	104	0	60	42559
2026-01-11 22:49:50.86	177.96	42.53	-48.2	-50.8	3.6	0.00e+00	0	30	104	0	60	42244
2026-01-11 22:49:51.87	178.22	42.11	-48.4	-50.9	3.6	0.00e+00	0	30	104	0	60	43019
2026-01-11 22:49:52.88	178.47	41.69	-48.2	-50.7	3.6	0.00e+00	0	30	104	0	60	42146
2026-01-11 22:49:53.89	178.71	41.28	-48.4	-50.9	3.6	0.00e+00	0	30	104	0	60	43067
2026-01-11 22:49:54.90	178.95	40.88	-48.5	-51.1	3.6	0.00e+00	0	30	104	0	60	43874
2026-01-11 22:49:55.91	179.19	40.47	-48.5	-51.0	3.6	0.00e+00	0	30	104	0	60	43652
2026-01-11 22:49:56.91	179.41	40.08	-48.5	-51.1	3.5	0.00e+00	0	30	104	0	60	43764
2026-01-11 22:49:57.92	179.63	39.69	-48.5	-51.0	3.6	0.00e+00	0	30	104	0	60	43610
2026-01-11 22:49:58.93	179.85	39.30	-48.5	-51.1	3.6	0.00e+00	0	30	104	0	60	43802
2026-01-11 22:49:59.94	180.06	38.91	-48.5	-51.0	3.6	0.00e+00	0	30	104	0	60	43545
2026-01-11 22:50:00.95	180.27	38.53	-48.5	-51.0	3.6	0.00e+00	0	30	104	0	60	43277
2026-01-11 22:50:01.96	180.47	38.16	-48.5	-51.0	3.6	0.00e+00	0	30	104	0	60	43376
2026-01-11 22:50:02.97	180.66	37.79	-48.5	-50.9	3.6	0.00e+00	0	30	104	0	60	43127
2026-01-11 22:50:03.98	180.86	37.42	-48.4	-50.9	3.6	0.00e+00	0	30	104	0	60	43105
2026-01-11 22:50:04.99	181.04	37.06	-48.5	-50.9	3.6	0.00e+00	0	30	104	0	60	43155
2026-01-11 22:50:06.00	181.23	36.70	-48.4	-51.0	3.6	0.00e+00	0	30	104	0	60	43257
2026-01-11 22:50:07.01	181.41	36.35	-48.4	-50.9	3.6	0.00e+00	0	30	104	0	60	43153
2026-01-11 22:50:08.02	181.58	36.00	-48.4	-50.9	3.6	0.00e+00	0	30	104	0	60	42751
2026-01-11 22:50:09.03	181.75	35.65	-48.4	-50.9	3.6	0.00e+00	0	30	104	0	60	43182
2026-01-11 22:50:10.04	181.92	35.31	-48.3	-50.8	3.6	0.00e+00	0	30	104	0	60	42651
2026-01-11 22:50:11.05	182.09	34.97	-48.4	-50.9	3.6	0.00e+00	0	30	104	0	60	43107
2026-01-11 22:50:12.05	182.25	34.64	-48.4	-50.9	3.6	0.00e+00	0	30	104	0	60	43182
2026-01-11 22:50:13.06	182.40	34.31	-48.4	-50.9	3.6	0.00e+00	0	30	104	0	60	42827
2026-01-11 22:50:14.08	182.56	33.98	-48.4	-50.8	3.6	0.00e+00	0	30	104	0	60	42674
2026-01-11 22:50:15.08	182.71	33.66	-48.4	-50.9	3.6	0.00e+00	0	30	104	0	60	42896
2026-01-11 22:50:16.09	182.86	33.34	-48.2	-50.8	3.6	0.00e+00	0	30	104	0	60	42282
2026-01-11 22:50:17.10	183.00	33.03	-48.5	-50.9	3.6	0.00e+00	0	30	104	0	60	43097
2026-01-11 22:50:18.11	183.14	32.72	-48.3	-50.9	3.6	0.00e+00	0	30	104	0	60	42845
2026-01-11 22:50:19.12	183.28	32.41	-48.1	-50.6	3.6	0.00e+00	0	30	104	0	60	41663
2026-01-11 22:50:20.13	183.42	32.10	-48.0	-50.5	3.6	0.00e+00	0	30	104	0	60	41190
2026-01-11 22:50:21.14	183.55	31.80	-48.1	-50.7	3.6	0.00e+00	0	30	104	0	60	41789
2026-01-11 22:50:22.15	183.68	31.51	-48.2	-50.7	3.6	0.00e+00	0	30	104	0	60	41831
2026-01-11 22:50:23.16	183.81	31.21	-47.5	-50.2	3.6	0.00e+00	0	30	104	0	60	39570
2026-01-11 22:50:24.17	183.94	30.92	-47.7	-50.4	3.6	0.00e+00	0	30	104	0	60	40338
2026-01-11 22:50:25.18	184.06	30.63	-48.0	-50.6	3.6	0.00e+00	0	30	104	0	60	41475
2026-01-11 22:50:26.19	184.19	30.35	-47.8	-50.4	3.6	0.00e+00	0	30	104	0	60	40470
2026-01-11 22:50:27.20	184.31	30.07	-47.7	-50.3	3.6	0.00e+00	0	30	104	0	60	40294
2026-01-11 22:50:28.21	184.42	29.79	-47.7	-50.3	3.6	0.00e+00	0	30	104	0	60	40256
2026-01-11 22:50:29.22	184.54	29.51	-47.7	-50.3	3.6	0.00e+00	0	30	104	0	60	40095
2026-01-11 22:50:30.23	184.65	29.24	-47.6	-50.2	3.6	0.00e+00	0	31	104	0	60	39731
2026-01-11 22:50:31.23	184.76	28.98	-47.7	-50.3	3.6	0.00e+00	0	31	104	0	60	40007
2026-01-11 22:50:32.24	184.87	28.71	-47.8	-50.4	3.6	0.00e+00	0	31	104	0	60	40359
2026-01-11 22:50:33.25	184.98	28.45	-47.6	-50.3	3.6	0.00e+00	0	30	104	0	60	39931
2026-01-11 22:50:34.26	185.09	28.19	-47.7	-50.3	3.6	0.00e+00	0	31	104	0	60	40282
2026-01-11 22:50:35.27	185.19	27.93	-47.9	-50.5	3.6	0.00e+00	0	30	104	0	60	40913
2026-01-11 22:50:36.28	185.29	27.67	-47.8	-50.4	3.6	0.00e+00	0	30	104	0	60	40684
2026-01-11 22:50:37.29	185.39	27.42	-47.7	-50.3	3.6	0.00e+00	0	30	104	0	60	40097
2026-01-11 22:50:38.30	185.49	27.17	-47.9	-50.5	3.6	0.00e+00	0	30	104	0	60	40955
2026-01-11 22:50:39.31	185.59	26.92	-47.9	-50.4	3.6	0.00e+00	0	30	104	0	60	40579
2026-01-11 22:50:40.32	185.69	26.68	-48.0	-50.5	3.6	0.00e+00	0	31	104	0	60	41050
2026-01-11 22:50:41.33	185.78	26.44	-48.0	-50.5	3.6	0.00e+00	0	30	104	0	60	41161
2026-01-11 22:50:42.34	185.87	26.20	-48.1	-50.7	3.6	0.00e+00	0	31	104	0	60	41797
2026-01-11 22:50:43.35	185.96	25.96	-47.9	-50.5	3.6	0.00e+00	0	30	104	0	60	40963
2026-01-11 22:50:44.36	186.05	25.73	-48.0	-50.6	3.6	0.00e+00	0	31	104	0	60	41356
2026-01-11 22:50:45.37	186.14	25.50	-48.0	-50.5	3.6	0.00e+00	0	31	104	0	60	41100
2026-01-11 22:50:46.38	186.23	25.27	-47.9	-50.5	3.6	0.00e+00	0	31	104	0	60	41076
2026-01-11 22:50:47.38	186.32	25.04	-48.0	-50.6	3.6	0.00e+00	0	31	104	0	60	41297
2026-01-11 22:50:48.40	186.40	24.82	-48.1	-50.6	3.6	0.00e+00	0	31	104	0	60	41718
2026-01-11 22:50:49.40	186.48	24.60	-47.9	-50.5	3.6	0.00e+00	0	30	104	0	60	41202
2026-01-11 22:50:50.41	186.57	24.37	-48.1	-50.6	3.6	0.00e+00	0	30	104	0	60	41470
2026-01-11 22:50:51.42	186.65	24.16	-47.7	-50.3	3.6	0.00e+00	0	31	104	0	60	40178
2026-01-11 22:50:52.43	186.73	23.94	-47.9	-50.5	3.6	0.00e+00	0	30	104	0	60	40826
2026-01-11 22:50:53.44	186.81	23.73	-47.9	-50.5	3.6	0.00e+00	0	30	104	0	60	41058
2026-01-11 22:50:54.45	186.88	23.51	-47.8	-50.4	3.6	0.00e+00	0	31	104	0	60	40561
2026-01-11 22:50:55.46	186.96	23.31	-47.6	-50.2	3.6	0.00e+00	0	31	104	0	60	39540
2026-01-11 22:50:56.47	187.03	23.10	-47.7	-50.3	3.5	0.00e+00	0	31	104	0	60	40247
2026-01-11 22:50:57.48	187.11	22.89	-47.8	-50.4	3.6	0.00e+00	0	31	104	0	60	40480
2026-01-11 22:50:58.49	187.18	22.69	-47.8	-50.4	3.6	0.00e+00	0	31	104	0	60	40426
2026-01-11 22:50:59.50	187.25	22.49	-47.7	-50.3	3.6	0.00e+00	0	31	104	0	60	40046
2026-01-11 22:51:00.50	187.32	22.29	-47.8	-50.3	3.6	0.00e+00	0	31	104	0	60	40309
2026-01-11 22:51:01.51	187.39	22.09	-47.7	-50.3	3.6	0.00e+00	0	31	104	0	60	40212
2026-01-11 22:51:02.52	187.46	21.89	-47.6	-50.2	3.6	0.00e+00	0	31	104	0	60	39773
2026-01-11 22:51:03.53	187.53	21.70	-47.4	-50.1	3.5	0.00e+00	0	31	104	0	60	39219
2026-01-11 22:51:04.54	187.60	21.51	-47.4	-50.1	3.6	0.00e+00	0	31	104	0	60	39080
2026-01-11 22:51:05.55	187.67	21.32	-47.6	-50.2	3.6	0.00e+00	0	31	104	0	60	39587
2026-01-11 22:51:06.56	187.73	21.13	-47.3	-49.9	3.6	0.00e+00	0	31	104	0	60	38471
2026-01-11 22:51:07.57	187.80	20.94	-47.5	-50.2	3.6	0.00e+00	0	31	104	0	60	39477
2026-01-11 22:51:08.58	187.86	20.75	-47.4	-50.1	3.6	0.00e+00	0	31	104	0	60	39080
2026-01-11 22:51:09.58	187.92	20.57	-47.4	-50.1	3.6	0.00e+00	0	31	104	0	60	39072
2026-01-11 22:51:10.59	187.99	20.39	-47.9	-50.5	3.6	0.00e+00	0	31	104	0	60	40886
2026-01-11 22:51:11.60	188.05	20.21	-47.7	-50.4	3.6	0.00e+00	0	31	104	0	60	40370
2026-01-11 22:51:12.61	188.11	20.03	-47.6	-50.3	3.6	0.00e+00	0	31	104	0	60	40133
2026-01-11 22:51:13.63	188.17	19.85	-47.6	-50.2	3.6	0.00e+00	0	31	104	0	60	39564
2026-01-11 22:51:14.63	188.23	19.68	-47.8	-50.4	3.6	0.00e+00	0	31	104	0	60	40662
2026-01-11 22:51:15.64	188.29	19.50	-48.1	-50.6	3.6	0.00e+00	0	31	104	0	60	41515
2026-01-11 22:51:16.65	188.35	19.33	-47.9	-50.5	3.6	0.00e+00	0	31	104	0	60	41001
2026-01-11 22:51:17.66	188.40	19.16	-48.0	-50.5	3.6	0.00e+00	0	31	104	0	60	41209
2026-01-11 22:51:18.67	188.46	18.99	-48.0	-50.6	3.6	0.00e+00	0	31	104	0	60	41446
2026-01-11 22:51:19.68	188.51	18.82	-47.9	-50.5	3.6	0.00e+00	0	31	104	0	60	40797
2026-01-11 22:51:20.69	188.57	18.65	-48.0	-50.6	3.6	0.00e+00	0	31	104	0	60	41288
2026-01-11 22:51:21.70	188.62	18.49	-48.0	-50.5	3.6	0.00e+00	0	31	104	0	60	40974
2026-01-11 22:51:22.70	188.68	18.32	-48.0	-50.5	3.6	0.00e+00	0	31	104	0	60	41152
2026-01-11 22:51:23.72	188.73	18.16	-47.7	-50.3	3.6	0.00e+00	0	31	104	0	60	40301
2026-01-11 22:51:24.72	188.78	18.00	-48.0	-50.6	3.6	0.00e+00	0	31	104	0	60	41482
2026-01-11 22:51:25.73	188.84	17.84	-47.8	-50.4	3.6	0.00e+00	0	31	104	0	60	40633
2026-01-11 22:51:26.74	188.89	17.68	-47.8	-50.4	3.6	0.00e+00	0	31	104	0	60	40491
2026-01-11 22:51:27.75	188.94	17.52	-47.9	-50.4	3.6	0.00e+00	0	31	104	0	60	40782
2026-01-11 22:51:28.76	188.99	17.37	-47.8	-50.4	3.6	0.00e+00	0	31	104	0	60	40474
2026-01-11 22:51:29.77	189.04	17.21	-47.8	-50.4	3.6	0.00e+00	0	31	104	0	60	40564
2026-01-11 22:51:30.78	189.09	17.06	-47.8	-50.4	3.6	0.00e+00	0	31	104	0	60	40637
2026-01-11 22:51:31.79	189.14	16.91	-48.0	-50.5	3.6	0.00e+00	0	31	104	0	60	41208
2026-01-11 22:51:32.80	189.19	16.75	-47.8	-50.4	3.6	0.00e+00	0	31	104	0	60	40540
2026-01-11 22:51:33.81	189.23	16.60	-48.0	-50.5	3.6	0.00e+00	0	31	104	0	60	41053
2026-01-11 22:51:34.82	189.28	16.45	-47.9	-50.5	3.6	0.00e+00	0	31	104	0	60	40906
2026-01-11 22:51:35.83	189.33	16.31	-48.1	-50.6	3.6	0.00e+00	0	31	104	0	60	41626
2026-01-11 22:51:36.84	189.37	16.16	-47.9	-50.4	3.6	0.00e+00	0	31	104	0	60	40494
2026-01-11 22:51:37.85	189.42	16.01	-47.8	-50.4	3.6	0.00e+00	0	31	104	0	60	40360
2026-01-11 22:51:38.86	189.46	15.87	-48.0	-50.6	3.6	0.00e+00	0	31	104	0	60	41340
2026-01-11 22:51:39.86	189.51	15.73	-48.2	-50.7	3.6	0.00e+00	0	31	104	0	60	42117
2026-01-11 22:51:40.87	189.55	15.58	-48.0	-50.5	3.6	0.00e+00	0	31	104	0	60	41231
2026-01-11 22:51:41.88	189.60	15.44	-48.1	-50.6	3.6	0.00e+00	0	31	104	0	60	41709
2026-01-11 22:51:42.89	189.64	15.30	-48.1	-50.6	3.6	0.00e+00	0	31	104	0	60	41693
2026-01-11 22:51:43.90	189.68	15.16	-48.1	-50.6	3.6	0.00e+00	0	31	104	0	60	41715
2026-01-11 22:51:44.91	189.73	15.02	-48.2	-50.7	3.6	0.00e+00	0	31	104	0	60	41788
2026-01-11 22:51:45.92	189.77	14.89	-48.1	-50.7	3.6	0.00e+00	0	31	104	0	60	41749
2026-01-11 22:51:46.93	189.81	14.75	-48.2	-50.7	3.6	0.00e+00	0	31	104	0	60	42066
2026-01-11 22:51:47.94	189.85	14.62	-47.9	-50.5	3.6	0.00e+00	0	31	104	0	60	41119
2026-01-11 22:51:48.95	189.89	14.48	-48.2	-50.7	3.6	0.00e+00	0	31	104	0	60	42147
2026-01-11 22:51:49.96	189.93	14.35	-48.1	-50.6	3.6	0.00e+00	0	31	104	0	60	41702
2026-01-11 22:51:50.96	189.97	14.22	-48.1	-50.6	3.6	0.00e+00	0	31	104	0	60	41684
2026-01-11 22:51:51.97	190.01	14.08	-47.9	-50.5	3.6	0.00e+00	0	31	104	0	60	40933
2026-01-11 22:51:52.98	190.05	13.95	-48.1	-50.6	3.6	0.00e+00	0	31	104	0	60	41504
2026-01-11 22:51:53.99	190.09	13.82	-47.8	-50.4	3.6	0.00e+00	0	31	104	0	60	40597
2026-01-11 22:51:55.00	190.13	13.69	-47.9	-50.5	3.6	0.00e+00	0	31	104	0	60	40917
2026-01-11 22:51:56.01	190.17	13.57	-48.0	-50.5	3.6	0.00e+00	0	31	104	0	60	41218
2026-01-11 22:51:57.02	190.21	13.44	-48.1	-50.6	3.6	0.00e+00	0	31	104	0	60	41465
2026-01-11 22:51:58.03	190.24	13.31	-47.9	-50.4	3.6	0.00e+00	0	31	104	0	60	40646
2026-01-11 22:51:59.04	190.28	13.19	-48.0	-50.5	3.6	0.00e+00	0	31	104	0	60	41255
2026-01-11 22:52:00.05	190.32	13.06	-48.1	-50.6	3.6	0.00e+00	0	31	104	0	60	41691
2026-01-11 22:52:01.06	190.35	12.94	-47.9	-50.4	3.6	0.00e+00	0	31	104	0	60	40790
2026-01-11 22:52:02.07	190.39	12.82	-47.9	-50.5	3.6	0.00e+00	0	31	104	0	60	40973
2026-01-11 22:52:03.08	190.43	12.69	-48.0	-50.5	3.6	0.00e+00	0	31	104	0	60	41181
2026-01-11 22:52:04.09	190.46	12.57	-48.0	-50.5	3.6	0.00e+00	0	31	104	0	60	41021
2026-01-11 22:52:05.10	190.50	12.45	-48.0	-50.6	3.6	0.00e+00	0	31	104	0	60	41341
2026-01-11 22:52:06.11	190.53	12.33	-48.0	-50.6	3.6	0.00e+00	0	31	104	0	60	41417
2026-01-11 22:52:07.11	190.57	12.21	-48.1	-50.6	3.6	0.00e+00	0	31	104	0	60	41626
2026-01-11 22:52:08.12	190.60	12.10	-48.1	-50.7	3.5	0.00e+00	0	31	104	0	60	41786
2026-01-11 22:52:09.13	190.64	11.98	-48.2	-50.7	3.6	0.00e+00	0	31	104	0	60	41892
2026-01-11 22:52:10.14	190.67	11.86	-48.1	-50.6	3.6	0.00e+00	0	31	104	0	60	41623
2026-01-11 22:52:11.15	190.70	11.75	-48.1	-50.6	3.6	0.00e+00	0	31	104	0	60	41722
2026-01-11 22:52:12.16	190.74	11.63	-48.2	-50.6	3.6	0.00e+00	0	31	104	0	60	41688
2026-01-11 22:52:13.17	190.77	11.52	-48.0	-50.6	3.6	0.00e+00	0	31	104	0	60	41461
2026-01-11 22:52:14.18	190.80	11.40	-48.0	-50.5	3.6	0.00e+00	0	31	104	0	60	41097
2026-01-11 22:52:15.19	190.83	11.29	-48.1	-50.6	3.6	0.00e+00	0	31	104	0	60	41442
2026-01-11 22:52:16.20	190.87	11.18	-48.1	-50.6	3.6	0.00e+00	0	31	104	0	60	41593
2026-01-11 22:52:17.21	190.90	11.06	-48.2	-50.7	3.6	0.00e+00	0	31	104	0	60	42023
2026-01-11 22:52:18.22	190.93	10.95	-48.1	-50.6	3.6	0.00e+00	0	31	104	0	60	41361
2026-01-11 22:52:19.22	190.96	10.84	-48.1	-50.6	3.6	0.00e+00	0	31	104	0	60	41363
2026-01-11 22:52:20.23	190.99	10.73	-48.0	-50.6	3.6	0.00e+00	0	31	104	0	60	41378
2026-01-11 22:52:21.24	191.02	10.62	-48.2	-50.7	3.6	0.00e+00	0	31	104	0	60	41885
2026-01-11 22:52:22.25	191.05	10.51	-48.0	-50.5	3.6	0.00e+00	0	31	104	0	60	41217
2026-01-11 22:52:23.26	191.08	10.41	-48.1	-50.6	3.6	0.00e+00	0	31	104	0	60	41555
2026-01-11 22:52:24.27	191.11	10.30	-48.0	-50.5	3.6	0.00e+00	0	31	104	0	60	40993
2026-01-11 22:52:25.28	191.14	10.19	-48.1	-50.6	3.6	0.00e+00	0	31	104	0	60	41323
2026-01-11 22:52:26.29	191.17	10.09	-48.1	-50.6	3.6	0.00e+00	0	31	104	0	60	41457
2026-01-11 22:52:27.30	191.20	9.98	-48.1	-50.6	3.6	0.00e+00	0	31	104	0	60	41535
2026-01-11 22:52:28.30	191.23	9.88	-48.1	-50.6	3.6	0.00e+00	0	31	104	0	60	41355
2026-01-11 22:52:29.31	191.26	9.77	-48.1	-50.6	3.6	0.00e+00	0	31	104	0	60	41528
2026-01-11 22:52:30.32	191.29	9.67	-48.1	-50.6	3.6	0.00e+00	0	31	104	0	60	41355
2026-01-11 22:52:31.33	191.32	9.56	-48.1	-50.6	3.6	0.00e+00	0	31	104	0	60	41645
2026-01-11 22:52:32.34	191.35	9.46	-48.0	-50.5	3.6	0.00e+00	0	31	104	0	60	40937
2026-01-11 22:52:33.35	191.37	9.36	-48.1	-50.6	3.6	0.00e+00	0	31	104	0	60	41443
2026-01-11 22:52:34.36	191.40	9.26	-48.0	-50.5	3.6	0.00e+00	0	31	104	0	60	40969
2026-01-11 22:52:35.37	191.43	9.16	-48.1	-50.5	3.6	0.00e+00	0	31	104	0	60	41197
2026-01-11 22:52:36.38	191.46	9.06	-47.9	-50.4	3.6	0.00e+00	0	31	104	0	60	40686
2026-01-11 22:52:37.39	191.48	8.96	-48.1	-50.6	3.6	0.00e+00	0	31	104	0	60	41632
2026-01-11 22:52:38.40	191.51	8.86	-48.0	-50.4	3.6	0.00e+00	0	31	104	0	60	40678
2026-01-11 22:52:39.41	191.54	8.76	-48.0	-50.4	3.6	0.00e+00	0	31	104	0	60	40724
2026-01-11 22:52:40.42	191.56	8.66	-48.0	-50.5	3.6	0.00e+00	0	31	104	0	60	41006
2026-01-11 22:52:41.43	191.59	8.56	-48.0	-50.5	3.6	0.00e+00	0	31	104	0	60	40980
2026-01-11 22:52:42.44	191.62	8.46	-47.8	-50.4	3.5	0.00e+00	0	31	104	0	60	40490
2026-01-11 22:52:43.45	191.64	8.37	-47.9	-50.5	3.6	0.00e+00	0	31	104	0	60	40825
2026-01-11 22:52:44.46	191.67	8.27	-47.8	-50.4	3.6	0.00e+00	0	31	104	0	60	40478
2026-01-11 22:52:45.46	191.69	8.18	-47.9	-50.4	3.6	0.00e+00	0	31	104	0	60	40608
2026-01-11 22:52:46.47	191.72	8.08	-47.8	-50.3	3.6	0.00e+00	0	31	104	0	60	40029
2026-01-11 22:52:47.48	191.75	7.98	-47.8	-50.3	3.6	0.00e+00	0	31	104	0	60	40207
2026-01-11 22:52:48.50	191.77	7.89	-47.9	-50.4	3.6	0.00e+00	0	31	104	0	60	40575
2026-01-11 22:52:49.50	191.80	7.80	-47.9	-50.4	3.6	0.00e+00	0	31	104	0	60	40432
2026-01-11 22:52:50.51	191.82	7.70	-47.9	-50.4	3.6	0.00e+00	0	31	104	0	60	40622
2026-01-11 22:52:51.52	191.85	7.61	-47.8	-50.4	3.6	0.00e+00	0	31	104	0	60	40351
2026-01-11 22:52:52.53	191.87	7.52	-47.8	-50.3	3.6	0.00e+00	0	31	104	0	60	40025
2026-01-11 22:52:53.54	191.89	7.42	-47.8	-50.3	3.6	0.00e+00	0	31	104	0	60	40321
2026-01-11 22:52:54.55	191.92	7.33	-47.7	-50.2	3.6	0.00e+00	0	31	104	0	60	39832
2026-01-11 22:52:55.56	191.94	7.24	-47.7	-50.2	3.6	0.00e+00	0	31	104	0	60	39859
2026-01-11 22:52:56.57	191.97	7.15	-47.8	-50.3	3.6	0.00e+00	0	31	104	0	60	39941
2026-01-11 22:52:57.58	191.99	7.06	-47.7	-50.3	3.6	0.00e+00	0	31	104	0	60	39863
2026-01-11 22:52:58.59	192.01	6.97	-47.7	-50.2	3.6	0.00e+00	0	31	104	0	60	39609
2026-01-11 22:52:59.60	192.04	6.88	-47.6	-50.1	3.6	0.00e+00	0	31	104	0	60	39377
2026-01-11 22:53:00.60	192.06	6.79	-47.6	-50.2	3.6	0.00e+00	0	31	104	0	60	39580
2026-01-11 22:53:01.62	192.08	6.70	-47.7	-50.3	3.6	0.00e+00	0	31	104	0	60	39927
2026-01-11 22:53:02.62	192.11	6.61	-47.5	-50.1	3.6	0.00e+00	0	31	104	0	60	39142
2026-01-11 22:53:03.63	192.13	6.53	-47.7	-50.2	3.6	0.00e+00	0	31	104	0	60	39733
2026-01-11 22:53:04.64	192.15	6.44	-47.5	-50.1	3.6	0.00e+00	0	31	104	0	60	39182
2026-01-11 22:53:05.65	192.17	6.35	-47.5	-50.1	3.6	0.00e+00	0	31	104	0	60	39197
2026-01-11 22:53:06.66	192.20	6.26	-47.7	-50.2	3.6	0.00e+00	0	31	104	0	60	39835
2026-01-11 22:53:07.67	192.22	6.18	-47.8	-50.3	3.6	0.00e+00	0	31	104	0	60	40080
2026-01-11 22:53:08.68	192.24	6.09	-47.7	-50.2	3.6	0.00e+00	0	31	104	0	60	39793
2026-01-11 22:53:09.69	192.26	6.01	-47.7	-50.2	3.6	0.00e+00	0	31	104	0	60	39452
2026-01-11 22:53:10.70	192.28	5.92	-47.7	-50.2	3.6	0.00e+00	0	31	104	0	60	39772
2026-01-11 22:53:11.71	192.31	5.84	-47.7	-50.2	3.6	0.00e+00	0	31	104	0	60	39781
2026-01-11 22:53:12.72	192.33	5.75	-47.8	-50.3	3.6	0.00e+00	0	31	104	0	60	39927
2026-01-11 22:53:13.72	192.35	5.67	-47.7	-50.2	3.6	0.00e+00	0	31	104	0	60	39811
2026-01-11 22:53:14.73	192.37	5.58	-47.7	-50.2	3.6	0.00e+00	0	31	104	0	60	39803
2026-01-11 22:53:15.74	192.39	5.50	-47.6	-50.1	3.6	0.00e+00	0	31	104	0	60	39178
2026-01-11 22:53:16.75	192.41	5.42	-47.8	-50.3	3.6	0.00e+00	0	31	104	0	60	39944
2026-01-11 22:53:17.76	192.43	5.33	-47.7	-50.2	3.6	0.00e+00	0	31	104	0	60	39676
2026-01-11 22:53:18.77	192.45	5.25	-47.6	-50.1	3.6	0.00e+00	0	31	104	0	60	39352
2026-01-11 22:53:19.78	192.47	5.17	-47.7	-50.1	3.5	0.00e+00	0	31	104	0	60	39253
2026-01-11 22:53:20.79	192.49	5.09	-47.7	-50.2	3.6	0.00e+00	0	31	104	0	60	39584
2026-01-11 22:53:21.80	192.52	5.01	-47.6	-50.1	3.6	0.00e+00	0	31	104	0	60	39364
2026-01-11 22:53:22.80	192.54	4.92	-47.7	-50.2	3.6	0.00e+00	0	31	104	0	60	39552
2026-01-11 22:53:23.81	192.56	4.84	-47.6	-50.1	3.6	0.00e+00	0	31	104	0	60	39130
2026-01-11 22:53:24.82	192.58	4.76	-47.6	-50.2	3.6	0.00e+00	0	31	104	0	60	39423
2026-01-11 22:53:25.83	192.60	4.68	-47.6	-50.1	3.6	0.00e+00	0	31	104	0	60	39301
2026-01-11 22:53:26.84	192.62	4.60	-47.6	-50.1	3.6	0.00e+00	0	31	104	0	60	39223
2026-01-11 22:53:27.85	192.64	4.52	-47.5	-50.0	3.6	0.00e+00	0	31	104	0	60	38732
2026-01-11 22:53:28.86	192.65	4.44	-47.7	-50.2	3.6	0.00e+00	0	31	104	0	60	39443
2026-01-11 22:53:29.86	192.67	4.37	-47.5	-50.1	3.6	0.00e+00	0	31	104	0	60	38974
2026-01-11 22:53:30.87	192.69	4.29	-47.6	-50.0	3.6	0.00e+00	0	31	104	0	60	38856
2026-01-11 22:53:31.88	192.71	4.21	-47.4	-49.9	3.6	0.00e+00	0	31	104	0	60	38418
2026-01-11 22:53:32.89	192.73	4.13	-47.6	-50.1	3.6	0.00e+00	0	31	104	0	60	39179
2026-01-11 22:53:33.90	192.75	4.05	-47.4	-50.0	3.6	0.00e+00	0	31	104	0	60	38627
2026-01-11 22:53:34.91	192.77	3.98	-47.5	-50.0	3.6	0.00e+00	0	31	104	0	60	38735
2026-01-11 22:53:35.92	192.79	3.90	-47.3	-49.8	3.6	0.00e+00	0	31	104	0	60	37960
2026-01-11 22:53:36.93	192.81	3.82	-47.6	-50.1	3.6	0.00e+00	0	31	104	0	60	39158
2026-01-11 22:53:37.94	192.83	3.75	-47.4	-49.9	3.6	0.00e+00	0	31	104	0	60	38236
2026-01-11 22:53:38.95	192.84	3.67	-47.4	-49.9	3.6	0.00e+00	0	31	104	0	60	38377
2026-01-11 22:53:39.96	192.86	3.59	-47.2	-49.7	3.6	0.00e+00	0	31	104	0	60	37485
2026-01-11 22:53:40.97	192.88	3.52	-47.5	-50.0	3.6	0.00e+00	0	31	104	0	60	38854
2026-01-11 22:53:41.98	192.90	3.44	-47.3	-49.8	3.6	0.00e+00	0	31	104	0	60	37799
2026-01-11 22:53:42.98	192.92	3.37	-47.4	-49.9	3.6	0.00e+00	0	32	104	0	60	38185
2026-01-11 22:53:43.99	192.94	3.29	-47.1	-49.7	3.5	0.00e+00	0	31	104	0	60	37207
2026-01-11 22:53:45.00	192.95	3.22	-47.5	-50.0	3.6	0.00e+00	0	31	104	0	60	38654
2026-01-11 22:53:46.01	192.97	3.14	-47.2	-49.7	3.6	0.00e+00	0	31	104	0	60	37423
2026-01-11 22:53:47.02	192.99	3.07	-47.2	-49.7	3.6	0.00e+00	0	31	104	0	60	37382
2026-01-11 22:53:48.03	193.01	3.00	-47.7	-50.2	3.6	0.00e+00	0	32	104	0	60	39467
2026-01-11 22:53:49.04	193.02	2.92	-48.0	-50.5	3.6	0.00e+00	0	31	104	0	60	41087
2026-01-11 22:53:50.05	193.04	2.85	-48.4	-50.8	3.6	0.00e+00	0	31	104	0	60	42668
2026-01-11 22:53:51.06	193.06	2.78	-48.5	-51.0	3.6	0.00e+00	0	32	104	0	60	43560
2026-01-11 22:53:52.07	193.08	2.70	-48.5	-51.0	3.6	0.00e+00	0	31	104	0	60	43426
2026-01-11 22:53:53.07	193.09	2.63	-48.6	-51.1	3.6	0.00e+00	0	32	104	0	60	43762
2026-01-11 22:53:54.08	193.11	2.56	-48.6	-51.1	3.6	0.00e+00	0	31	104	0	60	44074
2026-01-11 22:53:55.09	193.13	2.49	-48.6	-51.1	3.6	0.00e+00	0	32	104	0	60	44143
2026-01-11 22:53:56.10	193.14	2.41	-48.5	-51.1	3.6	0.00e+00	0	32	104	0	60	43888
2026-01-11 22:53:57.11	193.16	2.34	-48.4	-51.0	3.6	0.00e+00	0	32	104	0	60	43244
2026-01-11 22:53:58.12	193.18	2.27	-48.3	-50.9	3.6	0.00e+00	0	32	104	0	60	42823
2026-01-11 22:53:59.13	193.19	2.20	-48.3	-50.8	3.6	0.00e+00	0	32	104	0	60	42346
2026-01-11 22:54:00.14	193.21	2.13	-48.4	-50.9	3.6	0.00e+00	0	31	104	0	60	43198
2026-01-11 22:54:01.15	193.23	2.06	-48.4	-51.0	3.6	0.00e+00	0	32	104	0	60	43259
2026-01-11 22:54:02.16	193.24	1.99	-48.0	-50.5	3.6	0.00e+00	0	31	104	0	60	41094
2026-01-11 22:54:03.17	193.26	1.92	-48.6	-51.1	3.6	0.00e+00	0	32	104	0	60	43873
2026-01-11 22:54:04.18	193.28	1.85	-48.5	-51.0	3.6	0.00e+00	0	31	104	0	60	43593
2026-01-11 22:54:05.18	193.29	1.78	-48.5	-51.0	3.6	0.00e+00	0	32	104	0	60	43325
2026-01-11 22:54:06.19	193.31	1.71	-48.5	-51.0	3.6	0.00e+00	0	31	104	0	60	43447
2026-01-11 22:54:07.20	193.33	1.64	-48.5	-51.0	3.5	0.00e+00	0	32	104	0	60	43375
2026-01-11 22:54:08.21	193.34	1.57	-48.5	-50.9	3.6	0.00e+00	0	32	104	0	60	43169
2026-01-11 22:54:09.22	193.36	1.50	-48.5	-51.0	3.6	0.00e+00	0	32	104	0	60	43390
2026-01-11 22:54:10.23	193.37	1.43	-48.5	-50.9	3.5	0.00e+00	0	31	104	0	60	43162
2026-01-11 22:54:11.24	193.39	1.36	-48.5	-51.0	3.6	0.00e+00	0	32	104	0	60	43414
2026-01-11 22:54:12.25	193.40	1.30	-48.5	-51.0	3.6	0.00e+00	0	31	104	0	60	43338
2026-01-11 22:54:13.26	193.42	1.23	-48.5	-51.0	3.6	0.00e+00	0	32	104	0	60	43492
2026-01-11 22:54:14.27	193.44	1.16	-48.5	-51.0	3.6	0.00e+00	0	32	104	0	60	43498
2026-01-11 22:54:15.28	193.45	1.09	-48.5	-50.9	3.6	0.00e+00	0	32	104	0	60	43184
2026-01-11 22:54:16.29	193.47	1.02	-48.5	-50.9	3.5	0.00e+00	0	32	104	0	60	43139
2026-01-11 22:54:17.30	193.48	0.96	-48.5	-51.0	3.6	0.00e+00	0	32	104	0	60	43394
2026-01-11 22:54:18.31	193.50	0.89	-48.5	-51.0	3.6	0.00e+00	0	32	104	0	60	43331
2026-01-11 22:54:19.32	193.51	0.82	-48.5	-50.9	3.6	0.00e+00	0	32	104	0	60	43004
2026-01-11 22:54:20.33	193.53	0.76	-48.5	-51.0	3.6	0.00e+00	0	32	104	0	60	43348
2026-01-11 22:54:21.34	193.54	0.69	-48.5	-50.9	3.6	0.00e+00	0	32	104	0	60	43151
2026-01-11 22:54:22.34	193.56	0.62	-48.5	-51.0	3.6	0.00e+00	0	32	104	0	60	43318
2026-01-11 22:54:23.35	193.57	0.56	-48.5	-51.0	3.6	0.00e+00	0	32	104	0	60	43269
2026-01-11 22:54:24.36	193.59	0.49	-48.5	-51.0	3.6	0.00e+00	0	32	104	0	60	43231
2026-01-11 22:54:25.37	193.60	0.43	-48.5	-50.9	3.6	0.00e+00	0	32	104	0	60	43180
2026-01-11 22:54:26.38	193.62	0.36	-48.5	-51.0	3.6	0.00e+00	0	32	104	0	60	43331
2026-01-11 22:54:27.39	193.63	0.30	-48.5	-51.0	3.6	0.00e+00	0	32	104	0	60	43514
2026-01-11 22:54:28.40	193.65	0.23	-48.5	-51.0	3.6	0.00e+00	0	32	104	0	60	43378
2026-01-11 22:54:29.41	193.66	0.16	-48.5	-50.9	3.6	0.00e+00	0	32	104	0	60	43064
2026-01-11 22:54:30.42	193.67	0.10	-48.5	-51.0	3.5	0.00e+00	0	32	104	0	60	43425
2026-01-11 22:54:31.43	193.69	0.04	-48.5	-51.0	3.6	0.00e+00	0	32	104	0	60	43409
2026-01-11 22:54:32.44	193.70	-0.03	-48.5	-51.0	3.6	0.00e+00	0	32	104	0	60	43498

#Closed at: 2026-01-11 22:54:32
#Recorded file [0 MB]: D:/lorett/data/35029_260112_104300.dat