passes_logs/2026/01/11/R4.6S_Anadyr/R4.6S_Anadyr__20260111_003328_SUOMI_NPP_rec.log

#Pass ID: 20260111_003328_SUOMI NPP
#Satellite: SUOMI NPP
#Configuration: NPP
#almurnet v.1.7.20251203
#Start time: 2026-01-11 00:33:30

#Version: 2.2.20231116
#Station: R4.6S_Anadyr
#Location: 177.4865 lon 64.73178 lat
#TLE: 1 37849U 11061A   26009.81756760  .00000113  00000+0  74747-4 0  9994
#TLE: 2 37849  98.7806 311.9110 0002525  72.5604 287.5848 14.19524046735974

#Time	Az	El	Level	Level2	SNR	BER	BlckErr	Temp	State	Recorded	gain1	gain2
2026-01-11 00:33:30.65	162.96	0.15	-48.0	-60.5	3.5	1.52e+00	0	26	0	0	60	37281
2026-01-11 00:33:31.65	162.98	0.21	-47.9	-63.1	3.6	1.51e+00	0	27	104	0	60	51607
2026-01-11 00:33:32.66	162.99	0.27	-48.1	-63.3	3.6	1.51e+00	0	27	104	0	60	52568
2026-01-11 00:33:33.67	163.00	0.33	-48.1	-63.3	3.6	1.51e+00	0	27	104	0	60	52982
2026-01-11 00:33:34.68	163.01	0.39	-48.1	-63.3	3.6	1.51e+00	0	27	104	0	60	52584
2026-01-11 00:33:35.69	163.02	0.45	-48.2	-63.4	3.6	1.51e+00	0	27	104	0	60	53617
2026-01-11 00:33:36.70	163.03	0.51	-48.0	-63.3	3.6	1.51e+00	0	27	104	0	60	52753
2026-01-11 00:33:37.71	163.05	0.58	-48.0	-63.2	3.6	1.51e+00	0	27	104	0	60	51996
2026-01-11 00:33:38.72	163.06	0.64	-47.9	-63.1	3.6	1.51e+00	0	28	104	0	60	51887
2026-01-11 00:33:39.73	163.07	0.70	-47.8	-63.1	3.6	1.51e+00	0	28	104	0	60	51521
2026-01-11 00:33:40.74	163.08	0.76	-47.7	-62.9	3.6	1.51e+00	0	28	104	0	60	50710
2026-01-11 00:33:41.75	163.09	0.82	-47.6	-62.8	3.6	1.51e+00	0	28	104	0	60	49626
2026-01-11 00:33:42.77	163.11	0.89	-47.4	-62.6	3.6	1.51e+00	0	28	104	0	60	48670
2026-01-11 00:33:43.78	163.12	0.95	-46.7	-61.9	3.6	1.51e+00	0	28	104	0	60	44838
2026-01-11 00:33:44.79	163.13	1.01	-46.7	-61.9	3.6	1.51e+00	0	28	104	0	60	45235
2026-01-11 00:33:45.80	163.14	1.07	-46.5	-61.7	3.6	1.51e+00	0	28	104	0	60	43757
2026-01-11 00:33:46.80	163.15	1.14	-46.4	-61.6	3.6	1.51e+00	0	28	104	0	60	43481
2026-01-11 00:33:47.81	163.17	1.20	-46.3	-61.5	3.6	1.51e+00	0	28	104	0	60	43158
2026-01-11 00:33:48.82	163.18	1.26	-46.4	-61.6	3.6	1.51e+00	0	28	104	0	60	43351
2026-01-11 00:33:49.83	163.19	1.32	-46.3	-61.6	3.6	1.51e+00	0	28	104	0	60	43230
2026-01-11 00:33:50.85	163.20	1.39	-46.3	-61.5	3.6	1.51e+00	0	28	104	0	60	42969
2026-01-11 00:33:51.85	163.22	1.45	-46.3	-61.5	3.6	1.51e+00	0	28	104	0	60	42878
2026-01-11 00:33:52.86	163.23	1.51	-46.3	-61.4	3.6	1.51e+00	0	28	104	0	60	42541
2026-01-11 00:33:53.87	163.24	1.58	-46.3	-61.3	3.6	1.51e+00	0	28	104	0	60	42107
2026-01-11 00:33:54.88	163.25	1.64	-46.3	-61.4	3.6	1.51e+00	0	28	104	0	60	42581
2026-01-11 00:33:55.89	163.27	1.71	-46.3	-61.3	3.6	1.51e+00	0	28	104	0	60	42144
2026-01-11 00:33:56.90	163.28	1.77	-46.3	-61.4	3.6	1.51e+00	0	28	104	0	60	42299
2026-01-11 00:33:57.91	163.29	1.83	-46.3	-61.5	3.6	1.51e+00	0	28	104	0	60	42803
2026-01-11 00:33:58.92	163.30	1.90	-46.3	-61.5	3.5	1.51e+00	0	28	104	0	60	42906
2026-01-11 00:33:59.93	163.32	1.96	-46.3	-61.5	3.6	1.51e+00	0	28	104	0	60	43040
2026-01-11 00:34:00.94	163.33	2.03	-46.4	-61.5	3.6	1.51e+00	0	28	104	0	60	43193
2026-01-11 00:34:01.95	163.34	2.09	-46.3	-61.5	3.6	1.51e+00	0	28	104	0	60	43106
2026-01-11 00:34:02.96	163.35	2.16	-46.3	-61.5	3.6	1.51e+00	0	28	104	0	60	43042
2026-01-11 00:34:03.97	163.37	2.22	-46.3	-61.5	3.6	1.51e+00	0	28	104	0	60	42726
2026-01-11 00:34:04.98	163.38	2.29	-46.3	-61.4	3.6	1.51e+00	0	28	104	0	60	42360
2026-01-11 00:34:05.99	163.39	2.35	-46.3	-61.3	3.6	1.51e+00	0	28	104	0	60	41937
2026-01-11 00:34:07.00	163.41	2.42	-46.3	-61.2	3.6	1.51e+00	0	28	104	0	60	41378
2026-01-11 00:34:08.01	163.42	2.48	-46.3	-60.9	3.6	1.51e+00	0	28	104	0	60	40233
2026-01-11 00:34:09.01	163.43	2.55	-46.3	-60.7	3.6	1.51e+00	0	28	104	0	60	38992
2026-01-11 00:34:10.02	163.45	2.62	-46.3	-60.6	3.5	1.51e+00	0	28	104	0	60	38940
2026-01-11 00:34:11.03	163.46	2.68	-46.3	-60.4	3.6	1.51e+00	0	28	104	0	60	37771
2026-01-11 00:34:12.04	163.47	2.75	-46.3	-60.5	3.6	1.51e+00	0	28	104	0	60	38147
2026-01-11 00:34:13.05	163.49	2.81	-46.3	-60.6	3.6	1.51e+00	0	28	104	0	60	38572
2026-01-11 00:34:14.06	163.50	2.88	-46.2	-60.4	3.6	1.51e+00	0	28	104	0	60	38062
2026-01-11 00:34:15.07	163.51	2.95	-46.2	-59.1	3.6	1.51e+00	0	28	104	0	60	32503
2026-01-11 00:34:16.08	163.53	3.02	-46.0	-56.1	4.7	1.23e+00	0	28	0	0	60	23169
2026-01-11 00:34:17.09	163.54	3.08	-45.7	-53.3	6.2	5.19e-01	78	28	0	1048576	60	16714
2026-01-11 00:34:18.10	163.55	3.15	-45.4	-51.7	8.1	1.78e-01	0	28	0	3145728	60	13976
2026-01-11 00:34:19.11	163.57	3.22	-44.7	-49.6	10.6	7.49e-03	92	28	0	5242880	60	10869
2026-01-11 00:34:20.12	163.58	3.28	-44.2	-48.4	12.1	1.75e-03	45	28	0	7340032	60	9533
2026-01-11 00:34:21.13	163.59	3.35	-43.4	-46.7	13.8	7.09e-05	92	28	0	9437184	60	7820
2026-01-11 00:34:22.14	163.61	3.42	-43.2	-46.4	14.0	2.20e-06	92	28	0	10485760	60	7516
2026-01-11 00:34:23.15	163.62	3.49	-42.4	-45.1	15.3	0.00e+00	0	28	0	12582912	58	7256
2026-01-11 00:34:24.16	163.63	3.56	-42.2	-44.7	15.7	0.00e+00	92	28	0	14680064	58	7004
2026-01-11 00:34:25.17	163.65	3.63	-42.1	-44.5	15.8	0.00e+00	0	28	0	16777216	58	6817
2026-01-11 00:34:26.18	163.66	3.69	-42.4	-45.0	15.4	0.00e+00	92	28	0	18874368	58	7232
2026-01-11 00:34:27.19	163.68	3.76	-42.6	-45.4	15.0	0.00e+00	0	28	0	19922944	58	7556
2026-01-11 00:34:28.20	163.69	3.83	-43.3	-46.6	13.7	2.20e-06	92	28	0	22020096	58	8655
2026-01-11 00:34:29.21	163.70	3.90	-45.4	-51.4	8.7	2.94e-02	90	28	0	24117248	60	13376
2026-01-11 00:34:30.22	163.72	3.97	-44.0	-47.5	13.7	2.71e-03	0	29	0	26214400	60	8588
2026-01-11 00:34:31.23	163.73	4.04	-46.3	-60.1	3.6	1.54e+00	0	28	104	27262976	60	36699
2026-01-11 00:34:32.24	163.75	4.11	-42.9	-45.8	14.7	1.13e+00	0	28	104	27262976	60	7026
2026-01-11 00:34:33.25	163.76	4.18	-46.3	-57.9	3.8	4.02e-01	0	29	104	27262976	60	28505
2026-01-11 00:34:34.26	163.77	4.25	-42.7	-45.4	15.0	1.48e-02	0	28	0	27262976	60	6764
2026-01-11 00:34:35.27	163.79	4.32	-42.5	-45.0	15.5	0.00e+00	92	28	0	29360128	58	7238
2026-01-11 00:34:36.28	163.80	4.39	-42.4	-45.0	15.3	7.00e-07	92	29	0	30408704	58	7199
2026-01-11 00:34:37.29	163.82	4.46	-42.3	-44.8	15.9	0.00e+00	0	29	0	32505856	58	7010
2026-01-11 00:34:38.29	163.83	4.53	-41.8	-44.1	16.5	0.00e+00	92	29	0	34603008	58	6474
2026-01-11 00:34:39.30	163.85	4.60	-41.7	-43.8	17.0	0.00e+00	0	29	0	36700160	56	7020
2026-01-11 00:34:40.31	163.86	4.67	-41.3	-43.2	17.4	0.00e+00	92	29	0	38797312	56	6592
2026-01-11 00:34:41.32	163.88	4.74	-41.3	-43.2	17.5	0.00e+00	0	29	0	40894464	56	6589
2026-01-11 00:34:42.33	163.89	4.82	-40.6	-42.3	18.3	0.00e+00	92	28	0	41943040	54	6667
2026-01-11 00:34:43.34	163.91	4.89	-40.7	-42.5	18.1	0.00e+00	92	28	0	44040192	54	6815
2026-01-11 00:34:44.36	163.92	4.96	-40.7	-42.4	18.2	0.00e+00	0	29	0	46137344	54	6742
2026-01-11 00:34:45.36	163.94	5.03	-40.6	-42.2	18.3	0.00e+00	92	29	0	48234496	54	6602
2026-01-11 00:34:46.37	163.95	5.10	-40.6	-42.4	18.1	0.00e+00	0	28	0	50331648	54	6711
2026-01-11 00:34:47.38	163.97	5.18	-40.6	-42.3	18.3	0.00e+00	92	28	0	51380224	54	6675
2026-01-11 00:34:48.39	163.98	5.25	-40.5	-42.2	18.4	0.00e+00	0	28	0	53477376	54	6584
2026-01-11 00:34:49.40	164.00	5.32	-40.5	-42.2	18.4	0.00e+00	90	29	0	55574528	54	6589
2026-01-11 00:34:50.41	164.01	5.39	-40.3	-42.0	18.5	0.00e+00	71	29	0	57671680	54	6402
2026-01-11 00:34:51.42	164.03	5.47	-40.4	-42.1	18.5	0.00e+00	83	29	0	59768832	54	6468
2026-01-11 00:34:52.43	164.04	5.54	-40.4	-42.0	18.6	0.00e+00	91	29	0	60817408	54	6452
2026-01-11 00:34:53.44	164.06	5.62	-40.4	-42.1	18.5	0.00e+00	0	29	0	62914560	54	6473
2026-01-11 00:34:54.45	164.07	5.69	-40.7	-42.5	18.2	0.00e+00	92	29	0	65011712	54	6819
2026-01-11 00:34:55.46	164.09	5.76	-40.7	-42.5	18.2	0.00e+00	0	29	0	67108864	54	6803
2026-01-11 00:34:56.46	164.10	5.84	-40.8	-42.5	18.3	0.00e+00	91	29	0	69206016	54	6830
2026-01-11 00:34:57.47	164.12	5.91	-40.4	-42.0	18.6	0.00e+00	32	29	0	70254592	54	6430
2026-01-11 00:34:58.48	164.13	5.99	-40.4	-42.1	18.7	0.00e+00	91	29	0	72351744	54	6468
2026-01-11 00:34:59.49	164.15	6.06	-40.5	-42.2	18.6	0.00e+00	92	29	0	74448896	54	6546
2026-01-11 00:35:00.50	164.17	6.14	-40.5	-42.2	18.7	0.00e+00	0	29	0	76546048	54	6568
2026-01-11 00:35:01.51	164.18	6.21	-40.5	-42.2	18.5	0.00e+00	91	29	0	78643200	54	6559
2026-01-11 00:35:02.52	164.20	6.29	-40.4	-42.0	18.7	0.00e+00	0	29	0	79691776	54	6431
2026-01-11 00:35:03.53	164.21	6.36	-40.1	-41.6	19.1	0.00e+00	91	29	0	81788928	54	6147
2026-01-11 00:35:04.54	164.23	6.44	-40.2	-41.8	19.0	0.00e+00	0	29	0	83886080	54	6257
2026-01-11 00:35:05.55	164.25	6.52	-40.1	-41.7	19.0	0.00e+00	91	29	0	85983232	54	6185
2026-01-11 00:35:06.56	164.26	6.59	-39.9	-41.4	19.4	0.00e+00	92	29	0	88080384	54	5999
2026-01-11 00:35:07.57	164.28	6.67	-40.0	-41.5	19.2	0.00e+00	0	29	0	89128960	54	6049
2026-01-11 00:35:08.58	164.30	6.75	-40.0	-41.4	19.3	0.00e+00	92	29	0	91226112	54	6028
2026-01-11 00:35:09.59	164.31	6.82	-39.9	-41.4	19.4	0.00e+00	0	29	0	93323264	54	5981
2026-01-11 00:35:10.60	164.33	6.90	-39.8	-41.2	19.5	0.00e+00	91	29	0	95420416	52	6577
2026-01-11 00:35:11.61	164.34	6.98	-40.0	-41.5	19.3	0.00e+00	33	29	0	97517568	52	6812
2026-01-11 00:35:12.62	164.36	7.06	-39.9	-41.3	19.3	0.00e+00	91	29	0	98566144	52	6681
2026-01-11 00:35:13.63	164.38	7.13	-40.1	-41.6	19.1	0.00e+00	90	29	0	100663296	52	6864
2026-01-11 00:35:14.64	164.39	7.21	-39.7	-41.2	19.6	0.00e+00	0	29	0	102760448	52	6577
2026-01-11 00:35:15.65	164.41	7.29	-39.9	-41.4	19.5	0.00e+00	92	29	0	104857600	52	6744
2026-01-11 00:35:16.66	164.43	7.37	-39.7	-41.2	19.7	0.00e+00	0	29	0	106954752	52	6541
2026-01-11 00:35:17.67	164.45	7.45	-39.8	-41.2	19.6	0.00e+00	92	29	0	109051904	52	6590
2026-01-11 00:35:18.68	164.46	7.53	-39.7	-41.2	19.7	0.00e+00	0	29	0	110100480	52	6563
2026-01-11 00:35:19.69	164.48	7.61	-40.0	-41.5	19.4	0.00e+00	90	29	0	112197632	52	6800
2026-01-11 00:35:20.70	164.50	7.69	-40.2	-41.8	19.1	0.00e+00	92	29	0	114294784	52	7009
2026-01-11 00:35:21.71	164.51	7.77	-40.0	-41.5	19.4	0.00e+00	90	29	0	116391936	52	6801
2026-01-11 00:35:22.72	164.53	7.85	-39.9	-41.4	19.5	0.00e+00	91	29	0	118489088	52	6696
2026-01-11 00:35:23.73	164.55	7.93	-39.6	-41.0	19.9	0.00e+00	0	29	0	119537664	52	6459
2026-01-11 00:35:24.74	164.57	8.01	-39.7	-41.1	19.9	0.00e+00	90	29	0	121634816	52	6517
2026-01-11 00:35:25.75	164.58	8.09	-39.6	-41.0	19.8	0.00e+00	0	29	0	123731968	52	6435
2026-01-11 00:35:26.76	164.60	8.17	-39.5	-40.8	20.1	0.00e+00	91	29	0	125829120	52	6300
2026-01-11 00:35:27.77	164.62	8.25	-39.3	-40.7	20.2	0.00e+00	92	29	0	127926272	52	6175
2026-01-11 00:35:28.78	164.64	8.34	-39.5	-40.9	20.0	0.00e+00	92	29	0	128974848	52	6379
2026-01-11 00:35:29.79	164.66	8.42	-39.2	-40.6	20.4	0.00e+00	92	29	0	131072000	52	6114
2026-01-11 00:35:30.80	164.67	8.50	-39.3	-40.6	20.3	0.00e+00	0	29	0	133169152	52	6138
2026-01-11 00:35:31.81	164.69	8.58	-38.9	-40.2	20.7	0.00e+00	90	29	0	135266304	52	5833
2026-01-11 00:35:32.82	164.71	8.67	-38.9	-40.1	20.7	0.00e+00	0	29	0	137363456	52	5819
2026-01-11 00:35:33.83	164.73	8.75	-39.2	-40.5	20.4	0.00e+00	92	29	0	138412032	52	6055
2026-01-11 00:35:34.84	164.75	8.83	-38.8	-40.1	20.8	0.00e+00	80	29	0	140509184	52	5767
2026-01-11 00:35:35.85	164.77	8.92	-39.0	-40.2	20.5	0.00e+00	90	29	0	142606336	52	5881
2026-01-11 00:35:36.86	164.78	9.00	-39.0	-40.2	20.8	0.00e+00	92	29	0	144703488	52	5895
2026-01-11 00:35:37.87	164.80	9.09	-38.8	-40.0	21.0	0.00e+00	0	29	0	146800640	52	5707
2026-01-11 00:35:38.88	164.82	9.17	-38.7	-39.9	20.9	0.00e+00	92	29	0	147849216	50	6377
2026-01-11 00:35:39.90	164.84	9.26	-38.7	-39.9	20.8	0.00e+00	0	29	0	149946368	50	6375
2026-01-11 00:35:40.91	164.86	9.34	-38.4	-39.6	21.2	0.00e+00	92	29	0	152043520	50	6148
2026-01-11 00:35:41.92	164.88	9.43	-38.5	-39.7	21.1	0.00e+00	0	29	0	154140672	50	6184
2026-01-11 00:35:42.93	164.90	9.51	-38.3	-39.5	21.3	0.00e+00	92	29	0	156237824	50	6061
2026-01-11 00:35:43.94	164.92	9.60	-38.4	-39.6	21.1	0.00e+00	92	29	0	157286400	50	6142
2026-01-11 00:35:44.95	164.94	9.68	-38.2	-39.4	21.4	0.00e+00	0	29	0	159383552	50	5983
2026-01-11 00:35:45.96	164.96	9.77	-38.1	-39.3	21.4	0.00e+00	92	29	0	161480704	50	5915
2026-01-11 00:35:46.97	164.97	9.86	-38.3	-39.4	21.4	0.00e+00	0	29	0	163577856	50	5998
2026-01-11 00:35:47.98	164.99	9.95	-38.1	-39.2	21.5	0.00e+00	92	29	0	165675008	50	5874
2026-01-11 00:35:48.99	165.01	10.03	-38.3	-39.4	21.4	0.00e+00	81	29	0	166723584	50	5999
2026-01-11 00:35:50.00	165.03	10.12	-38.2	-39.4	21.5	0.00e+00	92	29	0	168820736	50	5970
2026-01-11 00:35:51.01	165.05	10.21	-37.9	-39.0	21.7	0.00e+00	92	29	0	170917888	50	5760
2026-01-11 00:35:52.02	165.07	10.30	-38.0	-39.1	21.6	0.00e+00	0	29	0	173015040	50	5784
2026-01-11 00:35:53.03	165.09	10.39	-37.8	-38.9	21.9	0.00e+00	92	29	0	175112192	50	5644
2026-01-11 00:35:54.04	165.11	10.48	-37.8	-38.8	21.9	0.00e+00	0	29	0	177209344	50	5624
2026-01-11 00:35:55.05	165.13	10.57	-37.8	-38.9	21.9	0.00e+00	92	29	0	178257920	50	5632
2026-01-11 00:35:56.05	165.15	10.66	-37.7	-38.8	21.9	0.00e+00	0	29	0	180355072	48	6248
2026-01-11 00:35:57.07	165.18	10.75	-37.8	-38.9	21.8	0.00e+00	92	29	0	182452224	48	6340
2026-01-11 00:35:58.08	165.20	10.84	-37.5	-38.6	22.1	0.00e+00	92	29	0	184549376	48	6121
2026-01-11 00:35:59.09	165.22	10.93	-37.5	-38.5	22.1	0.00e+00	0	29	0	186646528	48	6084
2026-01-11 00:36:00.09	165.24	11.02	-37.6	-38.6	22.1	0.00e+00	92	29	0	187695104	48	6153
2026-01-11 00:36:01.10	165.26	11.11	-37.6	-38.7	22.1	0.00e+00	0	29	0	189792256	48	6174
2026-01-11 00:36:02.11	165.28	11.20	-37.5	-38.5	22.1	0.00e+00	75	29	0	191889408	48	6096
2026-01-11 00:36:03.12	165.30	11.29	-37.5	-38.6	22.2	0.00e+00	0	29	0	193986560	48	6110
2026-01-11 00:36:04.13	165.32	11.39	-37.4	-38.4	22.2	0.00e+00	92	29	0	196083712	48	6032
2026-01-11 00:36:05.14	165.34	11.48	-37.4	-38.4	22.3	0.00e+00	46	29	0	197132288	48	5983
2026-01-11 00:36:06.15	165.36	11.57	-37.3	-38.3	22.3	0.00e+00	76	29	0	199229440	48	5954
2026-01-11 00:36:07.16	165.39	11.67	-37.3	-38.3	22.5	0.00e+00	92	29	0	201326592	48	5908
2026-01-11 00:36:08.17	165.41	11.76	-37.2	-38.2	22.4	0.00e+00	0	29	0	203423744	48	5878
2026-01-11 00:36:09.18	165.43	11.85	-37.2	-38.2	22.5	0.00e+00	92	29	0	205520896	48	5840
2026-01-11 00:36:10.19	165.45	11.95	-37.2	-38.2	22.5	0.00e+00	0	29	0	206569472	48	5868
2026-01-11 00:36:11.20	165.47	12.04	-37.0	-38.0	22.7	0.00e+00	92	29	0	208666624	48	5711
2026-01-11 00:36:12.21	165.50	12.14	-36.9	-37.8	22.8	0.00e+00	81	29	0	210763776	48	5614
2026-01-11 00:36:13.22	165.52	12.24	-36.9	-37.9	22.7	0.00e+00	92	29	0	212860928	48	5654
2026-01-11 00:36:14.23	165.54	12.33	-36.8	-37.7	22.9	0.00e+00	92	29	0	214958080	46	6226
2026-01-11 00:36:15.24	165.56	12.43	-36.9	-37.8	22.8	0.00e+00	0	29	0	216006656	46	6292
2026-01-11 00:36:16.25	165.59	12.52	-36.7	-37.7	22.9	0.00e+00	92	29	0	218103808	46	6181
2026-01-11 00:36:17.26	165.61	12.62	-36.7	-37.7	22.9	0.00e+00	0	29	0	220200960	46	6184
2026-01-11 00:36:18.27	165.63	12.72	-36.6	-37.6	23.0	0.00e+00	92	29	0	222298112	46	6116
2026-01-11 00:36:19.28	165.65	12.82	-36.6	-37.5	23.0	0.00e+00	83	29	0	224395264	46	6080
2026-01-11 00:36:20.29	165.68	12.92	-36.6	-37.6	23.0	0.00e+00	92	29	0	225443840	46	6128
2026-01-11 00:36:21.30	165.70	13.02	-36.6	-37.5	23.1	0.00e+00	92	29	0	227540992	46	6066
2026-01-11 00:36:22.31	165.72	13.11	-36.6	-37.5	23.0	0.00e+00	0	29	0	229638144	46	6088
2026-01-11 00:36:23.32	165.75	13.21	-36.5	-37.4	23.1	0.00e+00	92	29	0	231735296	46	6016
2026-01-11 00:36:24.33	165.77	13.31	-36.4	-37.4	23.1	0.00e+00	0	29	0	233832448	46	5967
2026-01-11 00:36:25.34	165.80	13.41	-36.5	-37.4	23.1	0.00e+00	92	29	0	234881024	46	6013
2026-01-11 00:36:26.34	165.82	13.51	-36.4	-37.3	23.1	0.00e+00	0	29	0	236978176	46	5949
2026-01-11 00:36:27.35	165.84	13.62	-36.3	-37.2	23.3	0.00e+00	92	29	0	239075328	46	5849
2026-01-11 00:36:28.36	165.87	13.72	-36.4	-37.3	23.2	0.00e+00	92	29	0	241172480	46	5928
2026-01-11 00:36:29.37	165.89	13.82	-36.2	-37.1	23.3	0.00e+00	0	29	0	243269632	46	5787
2026-01-11 00:36:30.38	165.92	13.92	-36.3	-37.3	23.2	0.00e+00	92	29	0	245366784	46	5916
2026-01-11 00:36:31.39	165.94	14.03	-36.2	-37.1	23.3	0.00e+00	0	29	0	246415360	46	5804
2026-01-11 00:36:32.40	165.97	14.13	-36.3	-37.3	23.2	0.00e+00	92	29	0	248512512	46	5907
2026-01-11 00:36:33.41	165.99	14.23	-36.2	-37.1	23.3	0.00e+00	0	29	0	250609664	46	5827
2026-01-11 00:36:34.42	166.02	14.34	-36.2	-37.2	23.3	0.00e+00	91	29	0	252706816	46	5843
2026-01-11 00:36:35.43	166.04	14.44	-36.1	-37.0	23.4	0.00e+00	90	29	0	254803968	46	5725
2026-01-11 00:36:36.45	166.07	14.55	-36.1	-37.0	23.4	0.00e+00	0	29	0	255852544	46	5756
2026-01-11 00:36:37.45	166.09	14.65	-35.9	-36.8	23.5	0.00e+00	90	29	0	257949696	46	5628
2026-01-11 00:36:38.46	166.12	14.76	-36.1	-37.0	23.4	0.00e+00	0	29	0	260046848	46	5746
2026-01-11 00:36:39.48	166.14	14.87	-36.1	-37.0	23.4	0.00e+00	92	29	0	262144000	46	5714
2026-01-11 00:36:40.48	166.17	14.97	-36.1	-37.0	23.4	0.00e+00	0	29	0	264241152	46	5736
2026-01-11 00:36:41.49	166.20	15.08	-36.1	-37.0	23.5	0.00e+00	92	29	0	265289728	46	5705
2026-01-11 00:36:42.50	166.22	15.19	-36.3	-37.2	23.3	0.00e+00	83	29	0	267386880	46	5861
2026-01-11 00:36:43.51	166.25	15.30	-36.2	-37.1	23.4	0.00e+00	62	29	0	269484032	46	5789
2026-01-11 00:36:44.52	166.28	15.41	-36.1	-37.0	23.6	0.00e+00	90	29	0	271581184	46	5701
2026-01-11 00:36:45.53	166.30	15.52	-36.2	-37.0	23.4	0.00e+00	0	29	0	273678336	46	5760
2026-01-11 00:36:46.53	166.33	15.63	-36.0	-36.9	23.5	0.00e+00	90	29	0	274726912	46	5631
2026-01-11 00:36:47.55	166.36	15.74	-36.1	-37.0	23.2	0.00e+00	0	29	0	276824064	46	5698
2026-01-11 00:36:48.56	166.39	15.85	-36.0	-36.9	23.6	0.00e+00	90	29	0	278921216	46	5688
2026-01-11 00:36:49.56	166.41	15.96	-35.8	-36.7	23.1	0.00e+00	79	29	0	281018368	46	5555
2026-01-11 00:36:50.57	166.44	16.07	-35.8	-36.7	23.7	0.00e+00	92	29	0	283115520	44	6203
2026-01-11 00:36:51.58	166.47	16.18	-35.9	-36.8	23.6	0.00e+00	90	29	0	284164096	44	6290
2026-01-11 00:36:52.59	166.50	16.30	-35.7	-36.6	23.6	0.00e+00	0	29	0	286261248	44	6111
2026-01-11 00:36:53.60	166.53	16.41	-35.8	-36.6	23.8	0.00e+00	92	29	0	288358400	44	6168
2026-01-11 00:36:54.61	166.55	16.52	-35.8	-36.6	23.6	0.00e+00	0	29	0	290455552	44	6155
2026-01-11 00:36:55.62	166.58	16.64	-35.9	-36.8	23.5	0.00e+00	92	29	0	292552704	44	6270
2026-01-11 00:36:56.63	166.61	16.75	-36.0	-36.9	23.6	0.00e+00	9	29	0	293601280	44	6333
2026-01-11 00:36:57.64	166.64	16.87	-35.9	-36.8	23.7	0.00e+00	90	29	0	295698432	44	6259
2026-01-11 00:36:58.65	166.67	16.98	-35.9	-36.7	23.7	0.00e+00	92	29	0	297795584	44	6244
2026-01-11 00:36:59.66	166.70	17.10	-36.0	-36.9	23.8	0.00e+00	0	29	0	299892736	44	6321
2026-01-11 00:37:00.67	166.73	17.22	-35.9	-36.8	23.7	0.00e+00	89	29	0	301989888	44	6280
2026-01-11 00:37:01.68	166.76	17.34	-36.0	-36.9	23.7	0.00e+00	0	29	0	303038464	44	6330
2026-01-11 00:37:02.69	166.79	17.46	-36.1	-37.0	23.4	0.00e+00	90	29	0	305135616	44	6460
2026-01-11 00:37:03.70	166.82	17.57	-36.1	-37.0	23.6	0.00e+00	0	29	0	307232768	44	6426
2026-01-11 00:37:04.71	166.85	17.69	-36.3	-37.2	23.3	0.00e+00	92	29	0	309329920	44	6604
2026-01-11 00:37:05.72	166.88	17.81	-36.2	-37.2	23.3	0.00e+00	92	29	0	311427072	44	6544
2026-01-11 00:37:06.73	166.91	17.94	-36.4	-37.3	23.3	0.00e+00	0	29	0	313524224	44	6677
2026-01-11 00:37:07.74	166.94	18.06	-36.3	-37.2	23.4	0.00e+00	92	29	0	314572800	44	6582
2026-01-11 00:37:08.75	166.98	18.18	-36.5	-37.4	23.2	0.00e+00	0	29	0	316669952	44	6749
2026-01-11 00:37:09.75	167.01	18.30	-36.5	-37.4	23.2	0.00e+00	92	29	0	318767104	44	6716
2026-01-11 00:37:10.76	167.04	18.42	-36.5	-37.4	23.2	0.00e+00	0	30	0	320864256	44	6767
2026-01-11 00:37:11.77	167.07	18.55	-36.6	-37.5	23.2	0.00e+00	92	29	0	321912832	44	6832
2026-01-11 00:37:12.78	167.10	18.67	-36.7	-37.6	23.2	0.00e+00	92	29	0	324009984	44	6899
2026-01-11 00:37:13.79	167.14	18.80	-36.6	-37.5	23.2	0.00e+00	0	29	0	326107136	44	6822
2026-01-11 00:37:14.80	167.17	18.92	-36.6	-37.6	23.1	0.00e+00	92	29	0	328204288	44	6874
2026-01-11 00:37:15.81	167.20	19.05	-36.4	-37.4	23.2	0.00e+00	0	29	0	330301440	44	6704
2026-01-11 00:37:16.82	167.24	19.17	-36.5	-37.4	23.2	0.00e+00	93	29	0	331350016	44	6708
2026-01-11 00:37:17.83	167.27	19.30	-36.5	-37.4	23.3	0.00e+00	0	29	0	333447168	46	6022
2026-01-11 00:37:18.84	167.30	19.43	-36.8	-37.8	23.0	0.00e+00	92	29	0	335544320	46	6260
2026-01-11 00:37:19.85	167.34	19.56	-36.8	-37.7	23.0	0.00e+00	92	29	0	337641472	46	6224
2026-01-11 00:37:20.86	167.37	19.69	-36.8	-37.7	23.0	0.00e+00	0	29	0	339738624	46	6239
2026-01-11 00:37:21.87	167.41	19.82	-36.9	-37.9	22.9	0.00e+00	92	29	0	341835776	46	6325
2026-01-11 00:37:22.88	167.44	19.95	-37.2	-38.2	22.7	0.00e+00	0	29	0	342884352	46	6584
2026-01-11 00:37:23.89	167.48	20.08	-37.1	-38.1	22.8	0.00e+00	92	29	0	344981504	46	6496
2026-01-11 00:37:24.90	167.51	20.21	-37.4	-38.5	22.6	0.00e+00	0	29	0	347078656	46	6776
2026-01-11 00:37:25.91	167.55	20.35	-37.3	-38.3	22.6	0.00e+00	92	29	0	349175808	46	6659
2026-01-11 00:37:26.92	167.58	20.48	-37.5	-38.5	22.4	0.00e+00	0	29	0	351272960	46	6792
2026-01-11 00:37:27.93	167.62	20.61	-37.6	-38.7	22.4	0.00e+00	0	29	0	352321536	46	6946
2026-01-11 00:37:28.94	167.66	20.75	-37.4	-38.4	22.4	0.00e+00	92	29	0	354418688	46	6759
2026-01-11 00:37:29.95	167.69	20.89	-37.4	-38.4	22.6	0.00e+00	0	29	0	356515840	46	6738
2026-01-11 00:37:30.96	167.73	21.02	-37.4	-38.4	22.5	0.00e+00	89	30	0	358612992	46	6737
2026-01-11 00:37:31.96	167.77	21.16	-37.7	-38.7	22.2	0.00e+00	0	30	0	360710144	46	6946
2026-01-11 00:37:32.97	167.81	21.30	-37.4	-38.4	22.5	0.00e+00	92	30	0	361758720	48	6007
2026-01-11 00:37:33.99	167.84	21.44	-37.4	-38.4	22.5	0.00e+00	87	30	0	363855872	48	6024
2026-01-11 00:37:34.99	167.88	21.57	-37.3	-38.3	22.6	0.00e+00	92	29	0	365953024	48	5956
2026-01-11 00:37:36.00	167.92	21.71	-37.6	-38.6	22.3	0.00e+00	92	29	0	368050176	48	6152
2026-01-11 00:37:37.01	167.96	21.86	-37.4	-38.3	22.6	0.00e+00	0	29	0	370147328	48	5962
2026-01-11 00:37:38.02	168.00	22.00	-37.4	-38.4	22.5	0.00e+00	92	29	0	371195904	48	6025
2026-01-11 00:37:39.03	168.04	22.14	-37.6	-38.7	22.3	0.00e+00	0	29	0	373293056	48	6182
2026-01-11 00:37:40.04	168.08	22.28	-37.8	-38.9	22.2	0.00e+00	92	29	0	375390208	48	6319
2026-01-11 00:37:41.05	168.12	22.43	-37.8	-38.8	22.1	0.00e+00	0	29	0	377487360	48	6304
2026-01-11 00:37:42.06	168.16	22.57	-38.0	-39.1	21.8	0.00e+00	92	29	0	379584512	48	6498
2026-01-11 00:37:43.07	168.20	22.72	-38.0	-39.0	22.1	0.00e+00	92	29	0	380633088	48	6422
2026-01-11 00:37:44.08	168.24	22.87	-37.8	-38.9	22.2	0.00e+00	0	29	0	382730240	48	6322
2026-01-11 00:37:45.09	168.28	23.01	-37.7	-38.8	22.3	0.00e+00	51	30	0	384827392	48	6246
2026-01-11 00:37:46.10	168.33	23.16	-37.8	-38.8	22.5	0.00e+00	0	29	0	386924544	48	6293
2026-01-11 00:37:47.11	168.37	23.31	-37.6	-38.6	22.3	0.00e+00	92	30	0	389021696	48	6162
2026-01-11 00:37:48.12	168.41	23.46	-37.5	-38.5	22.5	0.00e+00	0	29	0	390070272	48	6091
2026-01-11 00:37:49.13	168.45	23.61	-37.4	-38.4	22.5	0.00e+00	92	29	0	392167424	48	5993
2026-01-11 00:37:50.14	168.50	23.76	-37.3	-38.3	22.7	0.00e+00	90	29	0	394264576	48	5912
2026-01-11 00:37:51.15	168.54	23.92	-37.2	-38.2	22.8	0.00e+00	0	29	0	396361728	48	5850
2026-01-11 00:37:52.16	168.59	24.07	-37.3	-38.3	22.7	0.00e+00	92	29	0	398458880	48	5902
2026-01-11 00:37:53.16	168.63	24.22	-37.3	-38.2	22.6	0.00e+00	0	30	0	399507456	48	5882
2026-01-11 00:37:54.17	168.68	24.38	-37.2	-38.2	22.7	0.00e+00	90	29	0	401604608	48	5847
2026-01-11 00:37:55.18	168.72	24.53	-37.4	-38.3	22.6	0.00e+00	0	29	0	403701760	48	5952
2026-01-11 00:37:56.20	168.77	24.69	-37.4	-38.4	22.6	0.00e+00	92	30	0	405798912	48	5983
2026-01-11 00:37:57.20	168.81	24.85	-37.1	-38.0	22.8	0.00e+00	83	29	0	407896064	48	5756
2026-01-11 00:37:58.21	168.86	25.01	-37.5	-38.4	22.6	0.00e+00	0	29	0	409993216	48	6025
2026-01-11 00:37:59.22	168.91	25.17	-37.4	-38.4	22.6	0.00e+00	92	29	0	411041792	48	5988
2026-01-11 00:38:00.23	168.96	25.33	-37.3	-38.3	22.7	0.00e+00	0	30	0	413138944	48	5946
2026-01-11 00:38:01.24	169.00	25.49	-37.3	-38.3	22.7	0.00e+00	92	29	0	415236096	48	5944
2026-01-11 00:38:02.25	169.05	25.65	-37.0	-38.0	22.8	0.00e+00	0	29	0	417333248	48	5720
2026-01-11 00:38:03.26	169.10	25.82	-37.0	-38.0	22.8	0.00e+00	92	30	0	419430400	48	5697
2026-01-11 00:38:04.27	169.15	25.98	-37.1	-38.1	22.8	0.00e+00	81	29	0	420478976	48	5797
2026-01-11 00:38:05.28	169.20	26.15	-37.0	-38.0	22.8	0.00e+00	20	30	0	422576128	48	5707
2026-01-11 00:38:06.29	169.25	26.31	-37.2	-38.2	22.7	0.00e+00	90	30	0	424673280	48	5861
2026-01-11 00:38:07.30	169.30	26.48	-37.2	-38.1	22.8	0.00e+00	0	30	0	426770432	48	5827
2026-01-11 00:38:08.31	169.35	26.65	-37.4	-38.4	22.6	0.00e+00	86	30	0	428867584	48	6008
2026-01-11 00:38:09.32	169.41	26.82	-37.2	-38.1	22.6	0.00e+00	0	29	0	429916160	48	5828
2026-01-11 00:38:10.33	169.46	26.99	-37.6	-38.6	22.4	0.00e+00	92	29	0	432013312	48	6134
2026-01-11 00:38:11.33	169.51	27.16	-37.4	-38.3	22.6	0.00e+00	0	29	0	434110464	48	5963
2026-01-11 00:38:12.34	169.57	27.33	-37.1	-38.1	22.9	0.00e+00	90	30	0	436207616	48	5794
2026-01-11 00:38:13.35	169.62	27.51	-37.7	-38.7	22.3	0.00e+00	91	30	0	438304768	48	6227
2026-01-11 00:38:14.36	169.67	27.68	-37.5	-38.5	22.6	0.00e+00	0	29	0	439353344	48	6068
2026-01-11 00:38:15.37	169.73	27.86	-37.3	-38.3	22.7	0.00e+00	87	30	0	441450496	48	5944
2026-01-11 00:38:16.38	169.79	28.04	-37.3	-38.3	22.6	0.00e+00	0	30	0	443547648	48	5950
2026-01-11 00:38:17.39	169.84	28.22	-37.5	-38.5	22.6	0.00e+00	87	30	0	445644800	48	6043
2026-01-11 00:38:18.40	169.90	28.40	-37.4	-38.4	22.7	0.00e+00	0	30	0	447741952	48	6011
2026-01-11 00:38:19.41	169.96	28.58	-37.6	-38.6	22.4	0.00e+00	90	30	0	448790528	48	6152
2026-01-11 00:38:20.42	170.02	28.76	-37.5	-38.5	22.4	0.00e+00	92	30	0	450887680	48	6096
2026-01-11 00:38:21.43	170.07	28.94	-37.8	-38.8	22.3	0.00e+00	0	29	0	452984832	48	6313
2026-01-11 00:38:22.44	170.13	29.13	-38.6	-39.8	21.7	0.00e+00	92	30	0	455081984	48	7012
2026-01-11 00:38:23.45	170.19	29.31	-38.5	-39.7	21.9	0.00e+00	0	29	0	457179136	48	6934
2026-01-11 00:38:24.46	170.25	29.50	-38.4	-39.5	21.6	0.00e+00	90	29	0	458227712	48	6795
2026-01-11 00:38:25.47	170.32	29.69	-38.8	-40.0	21.4	0.00e+00	0	29	0	460324864	50	6456
2026-01-11 00:38:26.48	170.38	29.87	-38.6	-39.7	21.5	0.00e+00	92	29	0	462422016	50	6236
2026-01-11 00:38:27.49	170.44	30.06	-38.8	-40.0	21.3	0.00e+00	92	29	0	464519168	50	6391
2026-01-11 00:38:28.49	170.50	30.25	-39.0	-40.2	21.1	0.00e+00	0	30	0	466616320	50	6600
2026-01-11 00:38:29.51	170.57	30.45	-38.6	-39.8	21.5	0.00e+00	92	30	0	467664896	50	6262
2026-01-11 00:38:30.52	170.63	30.64	-39.1	-40.3	21.0	0.00e+00	0	29	0	469762048	50	6677
2026-01-11 00:38:31.53	170.70	30.84	-39.3	-40.5	20.8	0.00e+00	92	29	0	471859200	50	6843
2026-01-11 00:38:32.53	170.77	31.03	-39.7	-41.1	20.2	0.00e+00	0	29	0	473956352	50	7254
2026-01-11 00:38:33.54	170.83	31.23	-40.0	-41.4	20.2	0.00e+00	90	30	0	476053504	52	6740
2026-01-11 00:38:34.55	170.90	31.43	-40.2	-41.7	19.9	0.00e+00	92	30	0	478150656	52	6955
2026-01-11 00:38:35.56	170.97	31.63	-40.6	-42.1	19.7	0.00e+00	90	30	0	479199232	54	6482
2026-01-11 00:38:36.57	171.04	31.83	-40.1	-41.5	20.0	0.00e+00	92	30	0	481296384	54	6068
2026-01-11 00:38:37.58	171.11	32.04	-40.2	-41.6	19.8	0.00e+00	0	30	0	483393536	54	6127
2026-01-11 00:38:38.59	171.18	32.24	-39.8	-41.2	20.1	0.00e+00	92	30	0	485490688	54	5850
2026-01-11 00:38:39.60	171.25	32.45	-40.1	-41.4	20.0	0.00e+00	0	30	0	487587840	54	6029
2026-01-11 00:38:40.61	171.33	32.65	-39.7	-41.1	20.3	0.00e+00	92	30	0	488636416	54	5775
2026-01-11 00:38:41.62	171.40	32.86	-40.1	-41.5	20.2	0.00e+00	0	30	0	490733568	52	6786
2026-01-11 00:38:42.63	171.48	33.07	-40.6	-42.0	19.6	0.00e+00	92	30	0	492830720	52	7250
2026-01-11 00:38:43.64	171.55	33.28	-39.5	-40.7	20.6	0.00e+00	92	30	0	494927872	52	6244
2026-01-11 00:38:44.65	171.63	33.50	-38.6	-39.7	21.5	0.00e+00	0	30	0	497025024	52	5544
2026-01-11 00:38:45.66	171.71	33.71	-38.9	-40.0	21.5	0.00e+00	90	30	0	498073600	50	6461
2026-01-11 00:38:46.67	171.78	33.93	-37.9	-38.9	22.3	0.00e+00	0	30	0	500170752	50	5640
2026-01-11 00:38:47.68	171.86	34.14	-37.8	-38.7	22.2	0.00e+00	92	30	0	502267904	50	5566
2026-01-11 00:38:48.68	171.94	34.36	-37.2	-38.1	22.9	0.00e+00	0	30	0	504365056	48	5808
2026-01-11 00:38:49.70	172.03	34.58	-37.5	-38.5	22.6	0.00e+00	92	30	0	506462208	48	6053
2026-01-11 00:38:50.70	172.11	34.80	-37.2	-38.2	22.8	0.00e+00	90	30	0	507510784	48	5847
2026-01-11 00:38:51.71	172.19	35.03	-37.6	-38.6	22.6	0.00e+00	0	30	0	509607936	48	6107
2026-01-11 00:38:52.72	172.28	35.25	-37.3	-38.3	22.6	0.00e+00	78	30	0	511705088	48	5906
2026-01-11 00:38:53.73	172.36	35.48	-37.2	-38.2	22.8	0.00e+00	0	30	0	513802240	48	5858
2026-01-11 00:38:54.74	172.45	35.71	-37.0	-37.9	22.9	0.00e+00	92	30	0	515899392	48	5671
2026-01-11 00:38:55.75	172.54	35.93	-37.1	-38.0	22.9	0.00e+00	0	30	0	516947968	48	5743
2026-01-11 00:38:56.76	172.63	36.17	-37.5	-38.6	22.7	0.00e+00	92	30	0	519045120	48	6107
2026-01-11 00:38:57.77	172.72	36.40	-37.4	-38.4	22.5	0.00e+00	92	30	0	521142272	48	6029
2026-01-11 00:38:58.78	172.81	36.63	-37.2	-38.2	22.6	0.00e+00	0	30	0	523239424	48	5889
2026-01-11 00:38:59.79	172.90	36.87	-38.0	-39.1	22.0	0.00e+00	90	30	0	525336576	48	6481
2026-01-11 00:39:00.80	173.00	37.11	-38.1	-39.2	21.8	0.00e+00	0	30	0	526385152	48	6606
2026-01-11 00:39:01.81	173.10	37.34	-38.3	-39.5	21.3	0.00e+00	92	30	0	528482304	48	6792
2026-01-11 00:39:02.82	173.19	37.59	-38.6	-39.9	21.5	0.00e+00	0	30	0	530579456	50	6360
2026-01-11 00:39:03.83	173.29	37.83	-38.4	-39.7	21.6	0.00e+00	92	30	0	532676608	50	6182
2026-01-11 00:39:04.84	173.39	38.07	-38.4	-39.6	21.6	0.00e+00	87	30	0	534773760	50	6115
2026-01-11 00:39:05.85	173.49	38.32	-38.3	-39.5	21.8	0.00e+00	0	30	0	535822336	50	6053
2026-01-11 00:39:06.86	173.60	38.57	-38.6	-39.8	21.5	0.00e+00	92	30	0	537919488	50	6288
2026-01-11 00:39:07.87	173.70	38.81	-38.2	-39.4	21.8	0.00e+00	0	30	0	540016640	50	6017
2026-01-11 00:39:08.88	173.81	39.07	-37.9	-39.0	22.0	0.00e+00	92	30	0	542113792	50	5758
2026-01-11 00:39:09.89	173.92	39.32	-37.7	-38.7	22.4	0.00e+00	0	30	0	544210944	48	6222
2026-01-11 00:39:10.90	174.02	39.57	-37.3	-38.3	22.7	0.00e+00	92	30	0	546308096	48	5919
2026-01-11 00:39:11.90	174.13	39.83	-37.0	-38.0	23.0	0.00e+00	0	30	0	547356672	46	6430
2026-01-11 00:39:12.91	174.25	40.08	-36.6	-37.5	23.2	0.00e+00	92	30	0	549453824	46	6041
2026-01-11 00:39:13.92	174.36	40.34	-36.8	-37.7	23.1	0.00e+00	92	30	0	551550976	46	6216
2026-01-11 00:39:14.93	174.48	40.61	-36.5	-37.5	23.3	0.00e+00	0	30	0	553648128	46	6035
2026-01-11 00:39:15.95	174.60	40.87	-37.1	-38.1	22.9	0.00e+00	92	30	0	555745280	46	6476
2026-01-11 00:39:16.95	174.72	41.13	-37.3	-38.3	22.5	0.00e+00	0	30	0	556793856	46	6639
2026-01-11 00:39:17.96	174.84	41.40	-37.5	-38.5	22.4	0.00e+00	92	30	0	558891008	46	6784
2026-01-11 00:39:18.97	174.96	41.67	-38.1	-39.2	22.2	0.00e+00	9	30	0	560988160	48	6573
2026-01-11 00:39:19.98	175.09	41.94	-38.2	-39.4	21.7	0.00e+00	92	30	0	563085312	48	6712
2026-01-11 00:39:20.99	175.22	42.21	-38.6	-39.8	21.5	0.00e+00	92	30	0	565182464	50	6298
2026-01-11 00:39:22.00	175.35	42.49	-39.2	-40.5	20.9	0.00e+00	0	30	0	566231040	50	6796
2026-01-11 00:39:23.01	175.48	42.76	-39.3	-40.6	20.8	0.00e+00	87	30	0	568328192	50	6915
2026-01-11 00:39:24.02	175.61	43.04	-39.2	-40.5	20.8	0.00e+00	0	30	0	570425344	50	6821
2026-01-11 00:39:25.03	175.75	43.32	-39.3	-40.5	21.1	0.00e+00	92	30	0	572522496	52	6074
2026-01-11 00:39:26.04	175.89	43.60	-38.8	-39.9	21.4	0.00e+00	0	30	0	574619648	52	5675
2026-01-11 00:39:27.05	176.03	43.89	-38.9	-40.1	21.3	0.00e+00	92	30	0	575668224	50	6500
2026-01-11 00:39:28.06	176.18	44.17	-39.0	-40.2	21.2	0.00e+00	92	30	0	577765376	50	6572
2026-01-11 00:39:29.07	176.32	44.46	-38.2	-39.3	21.9	0.00e+00	0	30	0	579862528	50	5900
2026-01-11 00:39:30.08	176.47	44.75	-38.8	-39.9	21.3	0.00e+00	70	30	0	581959680	50	6366
2026-01-11 00:39:31.09	176.62	45.04	-38.4	-39.6	21.5	0.00e+00	0	30	0	584056832	50	6120
2026-01-11 00:39:32.10	176.78	45.33	-39.3	-40.5	20.8	0.00e+00	92	30	0	585105408	50	6831
2026-01-11 00:39:33.11	176.93	45.63	-39.4	-40.7	20.9	0.00e+00	0	30	0	587202560	50	6937
2026-01-11 00:39:34.12	177.10	45.93	-39.6	-41.0	20.3	0.00e+00	92	30	0	589299712	50	7207
2026-01-11 00:39:35.13	177.26	46.23	-39.6	-40.9	20.6	0.00e+00	74	30	0	591396864	52	6373
2026-01-11 00:39:36.14	177.42	46.53	-39.5	-40.8	20.3	0.00e+00	0	30	0	593494016	52	6284
2026-01-11 00:39:37.14	177.59	46.83	-39.2	-40.5	20.9	0.00e+00	92	30	0	594542592	52	6064
2026-01-11 00:39:38.15	177.77	47.13	-38.8	-40.0	21.3	0.00e+00	0	30	0	596639744	52	5731
2026-01-11 00:39:39.16	177.94	47.44	-39.2	-40.6	20.8	0.00e+00	90	30	0	598736896	52	6108
2026-01-11 00:39:40.17	178.12	47.75	-38.9	-40.1	21.1	0.00e+00	0	30	0	600834048	52	5804
2026-01-11 00:39:41.18	178.30	48.06	-38.7	-40.0	21.3	0.00e+00	92	30	0	602931200	50	6411
2026-01-11 00:39:42.19	178.49	48.37	-38.2	-39.4	21.9	0.00e+00	84	30	0	603979776	50	5993
2026-01-11 00:39:43.20	178.68	48.69	-38.0	-39.2	22.0	0.00e+00	58	30	0	606076928	50	5830
2026-01-11 00:39:44.21	178.88	49.00	-37.5	-38.6	22.6	0.00e+00	90	30	0	608174080	48	6119
2026-01-11 00:39:45.22	179.07	49.32	-36.8	-37.7	23.1	0.00e+00	0	30	0	610271232	46	6231
2026-01-11 00:39:46.23	179.28	49.64	-36.4	-37.3	23.5	0.00e+00	92	30	0	612368384	46	5918
2026-01-11 00:39:47.24	179.48	49.96	-35.7	-36.6	24.0	0.00e+00	0	30	0	614465536	44	6126
2026-01-11 00:39:48.25	179.69	50.29	-35.6	-36.5	24.1	0.00e+00	92	30	0	615514112	44	6036
2026-01-11 00:39:49.26	179.91	50.61	-35.2	-36.1	24.5	0.00e+00	85	30	0	617611264	44	5779
2026-01-11 00:39:50.27	180.13	50.94	-34.8	-35.7	24.4	0.00e+00	92	30	0	619708416	44	5508
2026-01-11 00:39:51.27	180.35	51.27	-34.1	-34.8	25.2	0.00e+00	92	30	0	621805568	42	5620
2026-01-11 00:39:52.28	180.58	51.60	-34.3	-35.1	25.1	0.00e+00	0	30	0	623902720	42	5771
2026-01-11 00:39:53.29	180.82	51.93	-34.2	-35.0	25.1	0.00e+00	92	30	0	624951296	42	5704
2026-01-11 00:39:54.30	181.06	52.27	-34.1	-34.9	24.9	0.00e+00	0	30	0	627048448	42	5677
2026-01-11 00:39:55.31	181.30	52.61	-34.3	-35.1	24.9	0.00e+00	92	30	0	629145600	42	5801
2026-01-11 00:39:56.32	181.55	52.95	-34.5	-35.3	25.0	0.00e+00	0	30	0	631242752	42	5961
2026-01-11 00:39:57.33	181.81	53.29	-34.4	-35.2	25.0	0.00e+00	92	30	0	633339904	42	5850
2026-01-11 00:39:58.34	182.07	53.63	-34.3	-35.1	24.9	0.00e+00	90	30	0	634388480	42	5815
2026-01-11 00:39:59.35	182.34	53.97	-34.3	-35.1	25.1	0.00e+00	0	30	0	636485632	42	5778
2026-01-11 00:40:00.36	182.62	54.32	-34.0	-34.7	25.3	0.00e+00	92	30	0	638582784	42	5559
2026-01-11 00:40:01.37	182.90	54.67	-33.4	-34.1	25.6	0.00e+00	0	30	0	640679936	40	5792
2026-01-11 00:40:02.38	183.19	55.02	-33.3	-34.0	25.8	0.00e+00	90	30	0	642777088	40	5732
2026-01-11 00:40:03.39	183.48	55.37	-33.0	-33.7	25.9	0.00e+00	0	30	0	643825664	40	5524
2026-01-11 00:40:04.40	183.79	55.72	-33.1	-33.8	25.7	0.00e+00	92	30	0	645922816	40	5630
2026-01-11 00:40:05.41	184.10	56.07	-33.2	-34.0	25.7	0.00e+00	92	30	0	648019968	40	5713
2026-01-11 00:40:06.41	184.41	56.42	-33.4	-34.1	25.7	0.00e+00	15	30	0	650117120	40	5798
2026-01-11 00:40:07.42	184.74	56.78	-33.9	-34.7	25.3	0.00e+00	92	30	0	652214272	40	6199
2026-01-11 00:40:08.43	185.08	57.14	-33.6	-34.4	25.3	0.00e+00	0	30	0	653262848	40	5999
2026-01-11 00:40:09.44	185.42	57.50	-33.8	-34.6	25.2	0.00e+00	92	30	0	655360000	40	6133
2026-01-11 00:40:10.45	185.78	57.86	-34.1	-34.9	25.2	0.00e+00	0	30	0	657457152	40	6340
2026-01-11 00:40:11.46	186.14	58.22	-33.7	-34.4	25.5	0.00e+00	92	30	0	659554304	40	6029
2026-01-11 00:40:12.47	186.51	58.58	-33.6	-34.3	25.5	0.00e+00	90	30	0	661651456	40	5917
2026-01-11 00:40:13.48	186.89	58.95	-33.9	-34.6	25.3	0.00e+00	63	30	0	662700032	40	6131
2026-01-11 00:40:14.49	187.29	59.31	-34.7	-35.5	24.7	0.00e+00	89	30	0	664797184	42	6060
2026-01-11 00:40:15.50	187.69	59.68	-35.3	-36.2	24.4	0.00e+00	0	30	0	666894336	42	6575
2026-01-11 00:40:16.51	188.11	60.05	-34.7	-35.5	24.8	0.00e+00	90	30	0	668991488	42	6081
2026-01-11 00:40:17.52	188.54	60.41	-34.0	-34.7	25.3	0.00e+00	0	30	0	671088640	42	5558
2026-01-11 00:40:18.52	188.97	60.78	-33.6	-34.3	25.6	0.00e+00	92	30	0	672137216	40	5942
2026-01-11 00:40:19.53	189.43	61.15	-33.0	-33.7	25.9	0.00e+00	92	30	0	674234368	40	5533
2026-01-11 00:40:20.54	189.89	61.52	-33.1	-33.8	25.8	0.00e+00	13	30	0	676331520	40	5620
2026-01-11 00:40:21.55	190.38	61.89	-33.0	-33.7	26.0	0.00e+00	78	30	0	678428672	40	5551
2026-01-11 00:40:22.56	190.87	62.26	-33.0	-33.8	25.6	0.00e+00	0	30	0	680525824	40	5572
2026-01-11 00:40:23.57	191.38	62.63	-32.9	-33.7	25.9	0.00e+00	92	30	0	681574400	40	5509
2026-01-11 00:40:24.58	191.91	63.00	-32.8	-33.5	26.1	0.00e+00	0	30	0	683671552	38	6058
2026-01-11 00:40:25.58	192.45	63.36	-32.7	-33.4	25.9	0.00e+00	92	30	0	685768704	38	5979
2026-01-11 00:40:26.59	193.00	63.73	-33.1	-33.8	26.0	0.00e+00	85	30	0	687865856	38	6308
2026-01-11 00:40:27.60	193.58	64.10	-33.2	-33.9	25.8	0.00e+00	43	30	0	689963008	38	6375
2026-01-11 00:40:28.61	194.18	64.47	-33.0	-33.7	26.0	0.00e+00	92	30	0	691011584	38	6228
2026-01-11 00:40:29.62	194.79	64.84	-32.6	-33.3	26.3	0.00e+00	0	30	0	693108736	38	5944
2026-01-11 00:40:30.63	195.43	65.21	-32.6	-33.3	26.1	0.00e+00	83	30	0	695205888	38	5915
2026-01-11 00:40:31.64	196.09	65.57	-33.5	-34.2	25.6	0.00e+00	0	30	0	697303040	38	6587
2026-01-11 00:40:32.65	196.77	65.94	-34.8	-35.6	24.7	0.00e+00	92	30	0	699400192	40	6923
2026-01-11 00:40:33.66	197.47	66.30	-35.1	-35.9	24.2	0.00e+00	0	30	0	700448768	42	6378
2026-01-11 00:40:34.67	198.19	66.66	-35.3	-36.1	24.6	0.00e+00	92	30	0	702545920	42	6509
2026-01-11 00:40:35.68	198.95	67.02	-35.2	-35.9	24.5	0.00e+00	92	30	0	704643072	42	6388
2026-01-11 00:40:36.69	199.72	67.38	-35.4	-36.2	24.5	0.00e+00	0	30	0	706740224	42	6569
2026-01-11 00:40:37.70	200.53	67.74	-35.9	-36.8	23.9	0.00e+00	66	30	0	708837376	44	6262
2026-01-11 00:40:38.71	201.36	68.09	-37.1	-38.1	22.9	0.00e+00	0	30	0	710934528	46	6520
2026-01-11 00:40:39.71	202.21	68.44	-37.5	-38.5	22.5	0.00e+00	92	30	0	711983104	48	6095
2026-01-11 00:40:40.72	203.10	68.78	-37.7	-38.7	22.4	0.00e+00	0	30	0	714080256	48	6201
2026-01-11 00:40:41.73	204.02	69.13	-37.2	-38.2	22.8	0.00e+00	92	30	0	716177408	48	5848
2026-01-11 00:40:42.74	204.98	69.47	-37.3	-38.3	22.7	0.00e+00	92	30	0	718274560	48	5929
2026-01-11 00:40:43.75	205.97	69.80	-38.1	-39.2	22.2	0.00e+00	0	30	0	720371712	48	6545
2026-01-11 00:40:44.76	207.00	70.13	-38.5	-39.6	21.9	0.00e+00	90	30	0	721420288	48	6887
2026-01-11 00:40:45.77	208.06	70.46	-37.6	-38.6	22.5	0.00e+00	0	30	0	723517440	48	6151
2026-01-11 00:40:46.78	209.16	70.78	-37.7	-38.7	22.6	0.00e+00	92	30	0	725614592	48	6179
2026-01-11 00:40:47.79	210.30	71.09	-39.1	-40.3	21.5	0.00e+00	0	30	0	727711744	50	6627
2026-01-11 00:40:48.80	211.48	71.40	-39.1	-40.3	20.9	0.00e+00	92	30	0	729808896	50	6689
2026-01-11 00:40:49.81	212.70	71.70	-38.9	-40.1	21.0	0.00e+00	86	30	0	730857472	50	6466
2026-01-11 00:40:50.82	213.96	71.99	-39.1	-40.4	21.4	0.00e+00	0	30	0	732954624	50	6697
2026-01-11 00:40:51.83	215.27	72.28	-37.8	-38.9	22.3	0.00e+00	92	30	0	735051776	50	5665
2026-01-11 00:40:52.84	216.62	72.56	-37.5	-38.6	22.6	0.00e+00	0	30	0	737148928	48	6155
2026-01-11 00:40:53.84	218.00	72.82	-37.3	-38.3	22.8	0.00e+00	91	30	0	739246080	48	5907
2026-01-11 00:40:54.85	219.44	73.08	-36.8	-37.8	23.2	0.00e+00	0	30	0	740294656	46	6254
2026-01-11 00:40:55.86	220.93	73.33	-36.7	-37.6	23.4	0.00e+00	91	30	0	742391808	46	6142
2026-01-11 00:40:56.87	222.46	73.57	-37.6	-38.6	22.6	0.00e+00	86	30	0	744488960	48	6160
2026-01-11 00:40:57.88	224.04	73.80	-37.3	-38.2	22.9	0.00e+00	0	30	0	746586112	48	5886
2026-01-11 00:40:58.89	225.67	74.01	-36.9	-37.8	23.3	0.00e+00	92	30	0	748683264	46	6267
2026-01-11 00:40:59.90	227.34	74.22	-37.2	-38.2	22.6	0.00e+00	0	30	0	749731840	46	6544
2026-01-11 00:41:00.91	229.05	74.41	-37.3	-38.3	23.1	0.00e+00	92	30	0	751828992	48	5925
2026-01-11 00:41:01.92	230.81	74.59	-38.0	-39.0	22.3	0.00e+00	0	30	0	753926144	48	6439
2026-01-11 00:41:02.93	232.61	74.75	-37.8	-38.8	22.7	0.00e+00	92	30	0	756023296	48	6275
2026-01-11 00:41:03.94	234.45	74.90	-36.8	-37.7	23.5	0.00e+00	73	30	0	758120448	46	6186
2026-01-11 00:41:04.95	236.32	75.04	-35.8	-36.6	24.0	0.00e+00	0	30	0	759169024	46	5479
2026-01-11 00:41:05.96	238.23	75.16	-35.8	-36.7	24.0	0.00e+00	92	30	0	761266176	44	6180
2026-01-11 00:41:06.97	240.17	75.26	-37.5	-38.5	22.5	0.00e+00	0	30	0	763363328	46	6815
2026-01-11 00:41:07.98	242.13	75.35	-39.2	-40.5	21.0	0.00e+00	47	30	0	765460480	50	6784
2026-01-11 00:41:08.99	244.11	75.42	-39.8	-41.2	20.4	0.00e+00	0	30	0	767557632	50	7403
2026-01-11 00:41:10.00	246.11	75.47	-38.8	-40.1	21.3	0.00e+00	92	30	0	768606208	50	6483
2026-01-11 00:41:11.01	248.13	75.50	-38.3	-39.4	21.9	0.00e+00	0	30	0	770703360	50	6029
2026-01-11 00:41:12.01	250.13	75.52	-37.3	-38.3	22.8	0.00e+00	88	30	0	772800512	48	5919
2026-01-11 00:41:13.02	252.16	75.52	-36.3	-37.2	23.7	0.00e+00	92	30	0	774897664	46	5830
2026-01-11 00:41:14.03	254.18	75.51	-35.2	-36.0	24.5	0.00e+00	0	30	0	776994816	44	5719
2026-01-11 00:41:15.04	256.19	75.48	-35.6	-36.5	24.2	0.00e+00	39	30	0	779091968	44	6052
2026-01-11 00:41:16.05	258.20	75.43	-36.0	-36.8	23.9	0.00e+00	0	30	0	780140544	44	6286
2026-01-11 00:41:17.06	260.19	75.36	-36.8	-37.7	23.3	0.00e+00	89	30	0	782237696	44	6948
2026-01-11 00:41:18.07	262.15	75.27	-36.8	-37.6	23.4	0.00e+00	0	30	0	784334848	46	6169
2026-01-11 00:41:19.08	264.09	75.17	-36.4	-37.3	23.3	0.00e+00	92	30	0	786432000	46	5915
2026-01-11 00:41:20.09	266.00	75.06	-38.1	-39.1	22.3	0.00e+00	91	30	0	788529152	46	7295
2026-01-11 00:41:21.10	267.88	74.93	-38.9	-40.1	21.2	0.00e+00	0	30	0	789577728	50	6535
2026-01-11 00:41:22.11	269.73	74.78	-38.3	-39.5	22.0	0.00e+00	55	30	0	791674880	50	6042
2026-01-11 00:41:23.12	271.53	74.62	-38.0	-39.1	22.0	0.00e+00	0	30	0	793772032	50	5803
2026-01-11 00:41:24.13	273.29	74.44	-38.0	-39.1	22.0	0.00e+00	91	30	0	795869184	48	6493
2026-01-11 00:41:25.14	275.02	74.25	-37.4	-38.4	22.8	0.00e+00	0	30	0	797966336	48	5987
2026-01-11 00:41:26.14	276.68	74.05	-36.8	-37.7	23.2	0.00e+00	90	30	0	799014912	46	6239
2026-01-11 00:41:27.16	278.33	73.84	-38.3	-39.4	21.9	0.00e+00	92	30	0	801112064	48	6740
2026-01-11 00:41:28.16	279.90	73.61	-38.7	-39.9	21.5	0.00e+00	0	30	0	803209216	50	6322
2026-01-11 00:41:29.17	281.44	73.38	-37.8	-38.8	22.6	0.00e+00	57	30	0	805306368	48	6295
2026-01-11 00:41:30.18	282.93	73.13	-37.4	-38.4	22.6	0.00e+00	0	30	0	807403520	48	6003
2026-01-11 00:41:31.19	284.38	72.87	-37.7	-38.7	22.4	0.00e+00	92	30	0	808452096	48	6198
2026-01-11 00:41:32.20	285.79	72.60	-37.2	-38.1	23.0	0.00e+00	0	30	0	810549248	48	5808
2026-01-11 00:41:33.21	287.14	72.33	-36.9	-37.8	23.2	0.00e+00	92	30	0	812646400	46	6290
2026-01-11 00:41:34.22	288.46	72.04	-38.0	-39.0	22.0	0.00e+00	85	30	0	814743552	46	7249
2026-01-11 00:41:35.23	289.73	71.75	-37.8	-38.8	22.5	0.00e+00	0	30	0	816840704	48	6294
2026-01-11 00:41:36.24	290.95	71.45	-38.5	-39.7	21.4	0.00e+00	91	30	0	817889280	48	6991
2026-01-11 00:41:37.25	292.14	71.15	-39.3	-40.6	20.8	0.00e+00	31	30	0	819986432	50	6898
2026-01-11 00:41:38.26	293.28	70.84	-38.7	-39.9	21.2	0.00e+00	86	30	0	822083584	50	6380
2026-01-11 00:41:39.27	294.39	70.52	-37.5	-38.5	22.6	0.00e+00	0	30	0	824180736	48	6057
2026-01-11 00:41:40.28	295.46	70.19	-36.4	-37.3	23.5	0.00e+00	90	30	0	826277888	46	5925
2026-01-11 00:41:41.29	296.49	69.86	-36.6	-37.5	23.3	0.00e+00	0	30	0	827326464	46	6062
2026-01-11 00:41:42.30	297.48	69.53	-37.5	-38.5	22.7	0.00e+00	59	30	0	829423616	46	6783
2026-01-11 00:41:43.31	298.44	69.19	-38.1	-39.1	21.8	0.00e+00	92	30	0	831520768	48	6536
2026-01-11 00:41:44.32	299.37	68.85	-38.6	-39.8	21.6	0.00e+00	0	30	0	833617920	50	6255
2026-01-11 00:41:45.33	300.27	68.51	-38.8	-40.0	21.4	0.00e+00	89	30	0	835715072	50	6426
2026-01-11 00:41:46.34	301.13	68.16	-37.1	-38.1	22.8	0.00e+00	0	30	0	836763648	48	5785
2026-01-11 00:41:47.35	301.97	67.81	-37.5	-38.5	22.3	0.00e+00	92	30	0	838860800	48	6079
2026-01-11 00:41:48.36	302.78	67.45	-38.4	-39.6	21.6	0.00e+00	0	30	0	840957952	48	6926
2026-01-11 00:41:49.37	303.56	67.09	-39.7	-41.2	20.5	0.00e+00	88	30	0	843055104	52	6590
2026-01-11 00:41:50.38	304.31	66.74	-37.5	-38.6	22.5	0.00e+00	92	30	0	845152256	48	6114
2026-01-11 00:41:51.39	305.04	66.38	-36.6	-37.5	23.5	0.00e+00	0	30	0	847249408	46	6076
2026-01-11 00:41:52.40	305.75	66.01	-36.0	-36.9	23.5	0.00e+00	21	30	0	848297984	44	6338
2026-01-11 00:41:53.41	306.43	65.65	-36.0	-36.9	23.7	0.00e+00	0	30	0	850395136	44	6328
2026-01-11 00:41:54.42	307.09	65.28	-35.6	-36.5	24.1	0.00e+00	92	30	0	852492288	44	6089
2026-01-11 00:41:55.42	307.72	64.92	-35.3	-36.2	24.3	0.00e+00	0	30	0	854589440	44	5835
2026-01-11 00:41:56.43	308.34	64.55	-34.1	-34.8	25.1	0.00e+00	92	30	0	856686592	42	5618
2026-01-11 00:41:57.45	308.95	64.18	-33.3	-34.0	25.5	0.00e+00	87	30	0	857735168	40	5750
2026-01-11 00:41:58.46	309.53	63.81	-33.5	-34.3	25.5	0.00e+00	0	30	0	859832320	40	5909
2026-01-11 00:41:59.47	310.09	63.44	-33.3	-34.1	25.6	0.00e+00	89	30	0	861929472	40	5763
2026-01-11 00:42:00.48	310.63	63.07	-32.3	-33.0	26.3	0.00e+00	0	30	0	864026624	38	5717
2026-01-11 00:42:01.48	311.16	62.71	-32.3	-33.0	26.2	0.00e+00	89	30	0	866123776	38	5740
2026-01-11 00:42:02.49	311.67	62.34	-33.9	-34.7	25.1	0.00e+00	0	30	0	867172352	38	6970
2026-01-11 00:42:03.50	312.17	61.97	-35.5	-36.4	24.1	0.00e+00	92	30	0	869269504	42	6754
2026-01-11 00:42:04.51	312.65	61.60	-36.3	-37.2	23.5	0.00e+00	82	30	0	871366656	44	6608
2026-01-11 00:42:05.52	313.12	61.23	-34.9	-35.8	24.6	0.00e+00	0	30	0	873463808	44	5568
2026-01-11 00:42:06.53	313.58	60.87	-33.7	-34.5	25.5	0.00e+00	81	30	0	875560960	42	5383
2026-01-11 00:42:07.54	314.02	60.50	-33.4	-34.2	25.6	0.00e+00	0	30	0	876609536	40	5843
2026-01-11 00:42:08.55	314.45	60.13	-34.1	-34.9	25.3	0.00e+00	92	30	0	878706688	40	6342
2026-01-11 00:42:09.56	314.87	59.77	-34.4	-35.2	24.8	0.00e+00	0	30	0	880803840	40	6567
2026-01-11 00:42:10.57	315.27	59.40	-35.7	-36.6	24.0	0.00e+00	91	30	0	882900992	42	6901
2026-01-11 00:42:11.58	315.67	59.04	-36.0	-37.0	23.8	0.00e+00	76	30	0	884998144	44	6402
2026-01-11 00:42:12.58	316.05	58.68	-34.8	-35.6	23.2	0.00e+00	0	30	0	886046720	44	5491
2026-01-11 00:42:13.59	316.42	58.31	-33.7	-34.4	25.7	0.00e+00	91	30	0	888143872	40	6004
2026-01-11 00:42:14.61	316.79	57.95	-32.9	-33.7	25.9	0.00e+00	0	30	0	890241024	40	5515
2026-01-11 00:42:15.61	317.14	57.59	-33.3	-34.1	25.5	0.00e+00	79	30	0	892338176	40	5785
2026-01-11 00:42:16.62	317.49	57.23	-34.2	-35.0	25.0	0.00e+00	0	30	0	894435328	40	6457
2026-01-11 00:42:17.64	317.83	56.87	-34.1	-34.9	25.1	0.00e+00	92	30	0	895483904	40	6380
2026-01-11 00:42:18.64	318.15	56.52	-33.3	-34.0	25.6	0.00e+00	0	30	0	897581056	40	5727
2026-01-11 00:42:19.66	318.48	56.16	-32.9	-33.6	25.9	0.00e+00	0	30	0	899678208	40	5450
2026-01-11 00:42:20.66	318.79	55.81	-33.1	-33.8	25.7	0.00e+00	92	30	0	901775360	40	5600
2026-01-11 00:42:21.67	319.09	55.46	-33.8	-34.6	25.3	0.00e+00	0	30	0	903872512	40	6143
2026-01-11 00:42:22.68	319.39	55.11	-34.9	-35.8	24.6	0.00e+00	85	30	0	904921088	40	7018
2026-01-11 00:42:23.69	319.68	54.76	-34.7	-35.6	24.5	0.00e+00	0	30	0	907018240	42	6110
2026-01-11 00:42:24.70	319.96	54.42	-34.8	-35.6	24.6	0.00e+00	84	30	0	909115392	42	6154
2026-01-11 00:42:25.71	320.24	54.07	-35.0	-35.9	24.5	0.00e+00	0	30	0	911212544	42	6336
2026-01-11 00:42:26.72	320.51	53.73	-35.1	-36.0	24.4	0.00e+00	0	30	0	913309696	42	6427
2026-01-11 00:42:27.73	320.77	53.39	-35.3	-36.2	24.3	0.00e+00	87	30	0	915406848	42	6557
2026-01-11 00:42:28.74	321.03	53.05	-35.2	-36.1	24.4	0.00e+00	0	30	0	916455424	42	6471
2026-01-11 00:42:29.75	321.28	52.71	-35.7	-36.6	23.9	0.00e+00	82	30	0	918552576	44	6171
2026-01-11 00:42:30.76	321.53	52.37	-36.6	-37.6	23.2	0.00e+00	0	30	0	920649728	44	6921
2026-01-11 00:42:31.77	321.77	52.04	-36.1	-37.1	23.6	0.00e+00	90	30	0	922746880	46	5784
2026-01-11 00:42:32.78	322.00	51.71	-35.2	-36.0	24.3	0.00e+00	0	30	0	924844032	44	5742
2026-01-11 00:42:33.79	322.23	51.37	-34.9	-35.7	24.6	0.00e+00	0	30	0	925892608	44	5553
2026-01-11 00:42:34.80	322.46	51.05	-35.5	-36.4	24.0	0.00e+00	92	30	0	927989760	44	6001
2026-01-11 00:42:35.81	322.68	50.72	-35.9	-36.8	23.9	0.00e+00	0	30	0	930086912	44	6294
2026-01-11 00:42:36.82	322.90	50.39	-36.5	-37.5	23.3	0.00e+00	12	30	0	932184064	44	6790
2026-01-11 00:42:37.83	323.11	50.07	-37.2	-38.3	22.7	0.00e+00	0	30	0	934281216	46	6628
2026-01-11 00:42:38.84	323.32	49.75	-37.5	-38.6	22.5	0.00e+00	92	30	0	935329792	46	6897
2026-01-11 00:42:39.85	323.52	49.43	-37.8	-39.0	22.3	0.00e+00	0	30	0	937426944	48	6420
2026-01-11 00:42:40.86	323.72	49.11	-37.7	-38.8	22.5	0.00e+00	65	30	0	939524096	48	6278
2026-01-11 00:42:41.87	323.91	48.79	-36.6	-37.5	23.3	0.00e+00	92	30	0	941621248	46	6074
2026-01-11 00:42:42.88	324.10	48.48	-36.1	-37.1	23.8	0.00e+00	0	30	0	943718400	46	5768
2026-01-11 00:42:43.89	324.29	48.17	-36.2	-37.1	23.8	0.00e+00	9	30	0	944766976	46	5783
2026-01-11 00:42:44.90	324.47	47.86	-36.9	-38.0	23.2	0.00e+00	0	30	0	946864128	46	6412
2026-01-11 00:42:45.90	324.65	47.55	-38.7	-40.0	21.5	0.00e+00	68	30	0	948961280	48	7224
2026-01-11 00:42:46.92	324.83	47.24	-40.9	-42.8	18.8	0.00e+00	0	30	0	951058432	52	7940
2026-01-11 00:42:47.92	325.00	46.94	-41.7	-44.0	17.7	0.00e+00	0	30	0	953155584	56	7236
2026-01-11 00:42:48.93	325.17	46.64	-40.2	-42.0	19.6	0.00e+00	87	30	0	954204160	54	6422
2026-01-11 00:42:49.94	325.34	46.34	-38.0	-39.2	22.0	0.00e+00	0	30	0	956301312	50	5890
2026-01-11 00:42:50.95	325.50	46.04	-36.4	-37.3	23.5	0.00e+00	0	30	0	958398464	46	5964
2026-01-11 00:42:51.96	325.67	45.75	-36.0	-37.0	23.8	0.00e+00	0	30	0	960495616	46	5721
2026-01-11 00:42:52.97	325.82	45.45	-36.9	-37.9	23.1	0.00e+00	87	30	0	962592768	46	6354
2026-01-11 00:42:53.98	325.98	45.16	-38.0	-39.2	21.9	0.00e+00	0	30	0	963641344	46	7385
2026-01-11 00:42:54.99	326.13	44.87	-38.8	-40.2	21.1	0.00e+00	82	30	0	965738496	50	6602
2026-01-11 00:42:56.00	326.28	44.58	-39.1	-40.6	20.6	0.00e+00	86	30	0	967835648	50	6904
2026-01-11 00:42:57.01	326.43	44.29	-38.5	-39.9	21.5	0.00e+00	0	30	0	969932800	50	6342
2026-01-11 00:42:58.02	326.57	44.01	-38.2	-39.5	21.6	0.00e+00	86	30	0	972029952	50	6059
2026-01-11 00:42:59.03	326.71	43.72	-38.5	-39.7	21.7	0.00e+00	0	30	0	973078528	50	6236
2026-01-11 00:43:00.04	326.85	43.44	-38.0	-39.2	22.1	0.00e+00	89	30	0	975175680	48	6558
2026-01-11 00:43:01.05	326.99	43.16	-37.7	-38.8	21.7	0.00e+00	0	30	0	977272832	48	6251
2026-01-11 00:43:02.06	327.13	42.89	-37.0	-38.0	22.9	0.00e+00	88	30	0	979369984	48	5741
2026-01-11 00:43:03.07	327.26	42.61	-36.1	-37.0	23.8	0.00e+00	0	30	0	981467136	46	5735
2026-01-11 00:43:04.07	327.39	42.34	-35.7	-36.6	24.0	0.00e+00	0	30	0	982515712	44	6121
2026-01-11 00:43:05.08	327.52	42.07	-35.9	-36.8	24.0	0.00e+00	57	30	0	984612864	44	6295
2026-01-11 00:43:06.09	327.64	41.80	-36.7	-37.7	22.9	0.00e+00	0	30	0	986710016	44	6983
2026-01-11 00:43:07.10	327.77	41.53	-36.8	-37.8	22.9	0.00e+00	52	30	0	988807168	46	6313
2026-01-11 00:43:08.11	327.89	41.26	-37.9	-39.1	22.2	0.00e+00	0	30	0	990904320	48	6504
2026-01-11 00:43:09.12	328.01	41.00	-37.4	-38.5	22.6	0.00e+00	90	30	0	991952896	48	6063
2026-01-11 00:43:10.13	328.13	40.74	-36.5	-37.5	23.5	0.00e+00	0	30	0	994050048	46	6072
2026-01-11 00:43:11.14	328.25	40.47	-36.0	-36.9	23.8	0.00e+00	0	30	0	996147200	46	5659
2026-01-11 00:43:12.15	328.36	40.22	-35.1	-35.9	24.5	0.00e+00	92	30	0	998244352	44	5679
2026-01-11 00:43:13.16	328.48	39.96	-34.6	-35.4	24.8	0.00e+00	0	30	0	1000341504	42	6008
2026-01-11 00:43:14.17	328.59	39.70	-34.5	-35.3	24.9	0.00e+00	52	30	0	1001390080	42	5926
2026-01-11 00:43:15.18	328.70	39.45	-35.0	-35.8	24.6	0.00e+00	0	30	0	1003487232	42	6304
2026-01-11 00:43:16.19	328.81	39.20	-35.6	-36.4	24.2	0.00e+00	90	30	0	1005584384	42	6764
2026-01-11 00:43:17.20	328.91	38.95	-36.2	-37.1	23.6	0.00e+00	0	30	0	1007681536	44	6512
2026-01-11 00:43:18.21	329.02	38.70	-37.4	-38.5	22.7	0.00e+00	32	30	0	1009778688	46	6787
2026-01-11 00:43:19.22	329.12	38.45	-37.8	-38.9	22.2	0.00e+00	89	30	0	1011875840	48	6340
2026-01-11 00:43:20.23	329.22	38.21	-38.2	-39.4	21.8	0.00e+00	0	30	0	1012924416	48	6752
2026-01-11 00:43:21.24	329.32	37.96	-38.1	-39.2	21.9	0.00e+00	87	30	0	1015021568	48	6600
2026-01-11 00:43:22.25	329.42	37.72	-36.8	-37.8	23.0	0.00e+00	0	30	0	1017118720	48	5588
2026-01-11 00:43:23.26	329.52	37.48	-35.5	-36.4	24.2	0.00e+00	90	30	0	1019215872	44	6022
2026-01-11 00:43:24.27	329.62	37.24	-35.3	-36.1	24.4	0.00e+00	0	30	0	1021313024	44	5820
2026-01-11 00:43:25.28	329.71	37.00	-34.5	-35.3	25.0	0.00e+00	53	30	0	1022361600	42	5962
2026-01-11 00:43:26.29	329.81	36.77	-34.7	-35.6	24.8	0.00e+00	86	30	0	1024458752	42	6112
2026-01-11 00:43:27.29	329.90	36.54	-35.4	-36.2	24.4	0.00e+00	0	30	0	1026555904	42	6584
2026-01-11 00:43:28.30	329.99	36.31	-35.6	-36.5	24.1	0.00e+00	86	30	0	1028653056	42	6816
2026-01-11 00:43:29.32	330.08	36.07	-35.9	-36.8	23.9	0.00e+00	0	30	0	1030750208	44	6261
2026-01-11 00:43:30.33	330.17	35.84	-36.3	-37.3	23.5	0.00e+00	86	30	0	1031798784	44	6638
2026-01-11 00:43:31.33	330.26	35.62	-36.8	-37.8	23.1	0.00e+00	0	31	0	1033895936	46	6285
2026-01-11 00:43:32.34	330.34	35.39	-37.0	-38.0	23.0	0.00e+00	90	30	0	1035993088	46	6442
2026-01-11 00:43:33.35	330.43	35.17	-37.9	-39.0	22.2	0.00e+00	57	30	0	1038090240	48	6415
2026-01-11 00:43:34.36	330.51	34.95	-38.3	-39.5	21.8	0.00e+00	0	30	0	1040187392	48	6819
2026-01-11 00:43:35.37	330.60	34.72	-39.0	-40.3	20.9	0.00e+00	84	30	0	1041235968	50	6634
2026-01-11 00:43:36.38	330.68	34.51	-40.4	-42.0	19.8	0.00e+00	0	30	0	1043333120	52	7244
2026-01-11 00:43:37.39	330.76	34.29	-40.1	-41.7	19.8	0.00e+00	87	30	0	1045430272	52	6977
2026-01-11 00:43:38.40	330.84	34.07	-40.6	-42.3	19.2	0.00e+00	0	30	0	1047527424	52	7499
2026-01-11 00:43:39.41	330.92	33.85	-40.1	-41.6	19.8	0.00e+00	75	30	0	1049624576	54	6126
2026-01-11 00:43:40.42	331.00	33.64	-39.6	-41.0	20.6	0.00e+00	0	30	0	1050673152	52	6396
2026-01-11 00:43:41.43	331.07	33.43	-38.5	-39.7	21.7	0.00e+00	0	30	0	1052770304	50	6190
2026-01-11 00:43:42.44	331.15	33.22	-37.8	-38.9	22.3	0.00e+00	46	30	0	1054867456	50	5641
2026-01-11 00:43:43.45	331.22	33.01	-37.5	-38.5	22.5	0.00e+00	0	30	0	1056964608	48	6071
2026-01-11 00:43:44.46	331.30	32.80	-36.8	-37.8	23.2	0.00e+00	91	30	0	1059061760	46	6249
2026-01-11 00:43:45.47	331.37	32.59	-36.5	-37.5	23.4	0.00e+00	0	30	0	1060110336	46	6069
2026-01-11 00:43:46.48	331.45	32.39	-36.3	-37.2	23.6	0.00e+00	79	30	0	1062207488	46	5891
2026-01-11 00:43:47.48	331.52	32.18	-36.4	-37.4	23.4	0.00e+00	0	30	0	1064304640	46	5971
2026-01-11 00:43:48.49	331.59	31.98	-36.7	-37.6	23.2	0.00e+00	0	30	0	1066401792	46	6168
2026-01-11 00:43:49.50	331.66	31.78	-36.7	-37.7	23.2	0.00e+00	68	30	0	1068498944	46	6193
2026-01-11 00:43:50.51	331.73	31.58	-37.2	-38.2	22.8	0.00e+00	0	30	0	1069547520	46	6553
2026-01-11 00:43:51.52	331.80	31.38	-37.8	-38.8	22.2	0.00e+00	78	30	0	1071644672	48	6257
2026-01-11 00:43:52.53	331.86	31.18	-38.4	-39.5	21.6	0.00e+00	0	30	0	1073741824	48	6810
2026-01-11 00:43:53.54	331.93	30.99	-38.3	-39.3	21.8	0.00e+00	67	31	0	1075838976	48	6688
2026-01-11 00:43:54.55	332.00	30.79	-39.2	-40.5	21.0	0.00e+00	0	31	0	1077936128	50	6777
2026-01-11 00:43:55.56	332.06	30.60	-38.5	-39.6	21.7	0.00e+00	0	31	0	1080033280	50	6121
2026-01-11 00:43:56.57	332.13	30.41	-38.0	-39.1	22.1	0.00e+00	90	30	0	1081081856	50	5777
2026-01-11 00:43:57.58	332.19	30.22	-37.7	-38.8	22.4	0.00e+00	0	30	0	1083179008	48	6253
2026-01-11 00:43:58.59	332.25	30.03	-37.7	-38.7	22.4	0.00e+00	78	30	0	1085276160	48	6208
2026-01-11 00:43:59.60	332.32	29.84	-37.3	-38.4	22.6	0.00e+00	0	30	0	1087373312	48	5969
2026-01-11 00:44:00.61	332.38	29.65	-37.3	-38.3	22.7	0.00e+00	75	31	0	1089470464	48	5912
2026-01-11 00:44:01.62	332.44	29.46	-37.5	-38.5	22.7	0.00e+00	0	30	0	1090519040	48	6096
2026-01-11 00:44:02.63	332.50	29.28	-37.4	-38.5	22.6	0.00e+00	41	30	0	1092616192	48	6038
2026-01-11 00:44:03.64	332.56	29.09	-37.4	-38.4	22.6	0.00e+00	77	30	0	1094713344	48	6004
2026-01-11 00:44:04.65	332.62	28.91	-37.1	-38.1	22.7	0.00e+00	0	30	0	1096810496	48	5828
2026-01-11 00:44:05.66	332.68	28.73	-37.0	-38.0	23.0	0.00e+00	73	30	0	1098907648	48	5734
2026-01-11 00:44:06.67	332.74	28.55	-37.0	-38.0	22.7	0.00e+00	0	30	0	1099956224	48	5753
2026-01-11 00:44:07.68	332.79	28.37	-36.8	-37.7	23.2	0.00e+00	52	30	0	1102053376	48	5552
2026-01-11 00:44:08.69	332.85	28.19	-36.8	-37.7	23.1	0.00e+00	0	30	0	1104150528	46	6200
2026-01-11 00:44:09.70	332.91	28.02	-36.9	-37.8	23.1	0.00e+00	74	30	0	1106247680	46	6287
2026-01-11 00:44:10.71	332.96	27.84	-36.8	-37.7	23.0	0.00e+00	75	30	0	1108344832	46	6208
2026-01-11 00:44:11.72	333.02	27.67	-36.8	-37.7	23.2	0.00e+00	0	31	0	1109393408	46	6236
2026-01-11 00:44:12.73	333.07	27.49	-36.6	-37.6	23.2	0.00e+00	78	30	0	1111490560	46	6107
2026-01-11 00:44:13.73	333.13	27.32	-36.6	-37.5	23.4	0.00e+00	0	30	0	1113587712	46	6092
2026-01-11 00:44:14.74	333.18	27.15	-35.9	-36.8	23.9	0.00e+00	0	30	0	1115684864	46	5575
2026-01-11 00:44:15.75	333.23	26.98	-36.1	-37.0	23.7	0.00e+00	0	31	0	1117782016	46	5735
2026-01-11 00:44:16.76	333.29	26.81	-36.0	-36.9	23.8	0.00e+00	0	30	0	1118830592	46	5643
2026-01-11 00:44:17.77	333.34	26.64	-36.0	-36.9	23.8	0.00e+00	0	31	0	1120927744	46	5651
2026-01-11 00:44:18.78	333.39	26.47	-36.2	-37.1	23.7	0.00e+00	0	30	0	1123024896	46	5780
2026-01-11 00:44:19.79	333.44	26.31	-36.5	-37.4	23.3	0.00e+00	49	30	0	1125122048	46	6027
2026-01-11 00:44:20.80	333.49	26.14	-36.4	-37.3	23.5	0.00e+00	0	30	0	1127219200	46	5937
2026-01-11 00:44:21.81	333.54	25.98	-36.7	-37.7	23.2	0.00e+00	70	30	0	1128267776	46	6197
2026-01-11 00:44:22.82	333.59	25.81	-36.8	-37.8	23.1	0.00e+00	0	30	0	1130364928	46	6268
2026-01-11 00:44:23.83	333.64	25.65	-37.1	-38.1	22.8	0.00e+00	0	31	0	1132462080	46	6514
2026-01-11 00:44:24.84	333.69	25.49	-36.9	-37.9	23.1	0.00e+00	0	30	0	1134559232	46	6367
2026-01-11 00:44:25.85	333.74	25.33	-36.9	-37.9	23.2	0.00e+00	0	30	0	1136656384	46	6339
2026-01-11 00:44:26.86	333.79	25.17	-36.5	-37.5	23.4	0.00e+00	31	30	0	1137704960	46	6065
2026-01-11 00:44:27.87	333.83	25.01	-36.5	-37.4	23.3	0.00e+00	0	31	0	1139802112	46	6017
2026-01-11 00:44:28.88	333.88	24.85	-36.2	-37.2	23.6	0.00e+00	92	31	0	1141899264	46	5839
2026-01-11 00:44:29.88	333.93	24.70	-35.9	-36.8	23.9	0.00e+00	0	31	0	1143996416	46	5601
2026-01-11 00:44:30.90	333.97	24.54	-35.6	-36.5	24.1	0.00e+00	0	31	0	1146093568	44	6055
2026-01-11 00:44:31.91	334.02	24.39	-35.4	-36.2	24.1	0.00e+00	0	31	0	1147142144	44	5876
2026-01-11 00:44:32.91	334.06	24.23	-35.1	-36.0	24.4	0.00e+00	0	31	0	1149239296	44	5723
2026-01-11 00:44:33.92	334.11	24.08	-35.1	-35.9	24.3	0.00e+00	0	31	0	1151336448	44	5664
2026-01-11 00:44:34.93	334.15	23.93	-35.2	-36.0	24.4	0.00e+00	0	31	0	1153433600	44	5728
2026-01-11 00:44:35.94	334.20	23.78	-35.1	-35.9	24.4	0.00e+00	91	31	0	1155530752	44	5681
2026-01-11 00:44:36.95	334.24	23.63	-35.1	-35.9	24.3	0.00e+00	0	30	0	1157627904	44	5658
2026-01-11 00:44:37.96	334.28	23.48	-35.0	-35.8	24.4	0.00e+00	0	31	0	1158676480	44	5620
2026-01-11 00:44:38.97	334.33	23.33	-35.2	-36.0	24.3	0.00e+00	0	31	0	1160773632	44	5759
2026-01-11 00:44:39.98	334.37	23.18	-35.0	-35.9	24.5	0.00e+00	0	31	0	1162870784	44	5632
2026-01-11 00:44:40.99	334.41	23.03	-35.0	-35.8	24.4	0.00e+00	0	31	0	1164967936	44	5601
2026-01-11 00:44:42.00	334.45	22.89	-35.1	-35.9	24.4	0.00e+00	0	31	0	1167065088	44	5646
2026-01-11 00:44:43.01	334.49	22.74	-35.1	-35.9	24.3	0.00e+00	81	31	0	1168113664	44	5678
2026-01-11 00:44:44.01	334.54	22.60	-35.0	-35.8	24.4	0.00e+00	0	30	0	1170210816	44	5599
2026-01-11 00:44:45.03	334.58	22.45	-34.9	-35.7	24.5	0.00e+00	0	30	0	1172307968	44	5545
2026-01-11 00:44:46.04	334.62	22.31	-35.1	-35.9	24.3	0.00e+00	0	31	0	1174405120	44	5688
2026-01-11 00:44:47.05	334.66	22.17	-35.3	-36.1	24.2	0.00e+00	0	31	0	1176502272	44	5800
2026-01-11 00:44:48.05	334.70	22.03	-35.3	-36.1	24.2	0.00e+00	0	31	0	1177550848	44	5816
2026-01-11 00:44:49.07	334.74	21.88	-35.5	-36.4	24.0	0.00e+00	0	31	0	1179648000	44	5995
2026-01-11 00:44:50.07	334.78	21.74	-35.8	-36.7	23.8	0.00e+00	47	31	0	1181745152	44	6201
2026-01-11 00:44:51.08	334.82	21.61	-35.8	-36.7	23.9	0.00e+00	0	31	0	1183842304	44	6197
2026-01-11 00:44:52.09	334.85	21.47	-35.9	-36.8	23.8	0.00e+00	0	31	0	1185939456	44	6247
2026-01-11 00:44:53.10	334.89	21.33	-36.2	-37.1	23.5	0.00e+00	0	31	0	1186988032	44	6539
2026-01-11 00:44:54.11	334.93	21.19	-35.9	-36.8	23.8	0.00e+00	0	31	0	1189085184	44	6270
2026-01-11 00:44:55.12	334.97	21.06	-35.9	-36.8	23.6	0.00e+00	0	31	0	1191182336	44	6255
2026-01-11 00:44:56.13	335.01	20.92	-35.6	-36.5	24.0	0.00e+00	0	30	0	1193279488	44	6047
2026-01-11 00:44:57.14	335.04	20.79	-35.6	-36.4	24.0	0.00e+00	92	31	0	1195376640	44	6008
2026-01-11 00:44:58.15	335.08	20.65	-35.2	-36.1	24.3	0.00e+00	0	31	0	1196425216	44	5768
2026-01-11 00:44:59.16	335.12	20.52	-35.1	-35.9	24.3	0.00e+00	90	31	0	1198522368	44	5675
2026-01-11 00:45:00.17	335.15	20.39	-34.9	-35.7	24.6	0.00e+00	0	31	0	1200619520	44	5518
