passes_logs/2026/01/11/R4.6S_Anadyr/R4.6S_Anadyr__20260111_000350_NOAA_21_JPSS-2_rec.log

#Pass ID: 20260111_000350_NOAA 21 (JPSS-2)
#Satellite: NOAA 21 (JPSS-2)
#Configuration: NOAA-21
#almurnet v.1.7.20251203
#Start time: 2026-01-11 00:03:53

#Version: 2.2.20231116
#Station: R4.6S_Anadyr
#Location: 177.4865 lon 64.73178 lat
#TLE: 1 54234U 22150A   26009.79679979  .00000100  00000+0  68070-4 0  9993
#TLE: 2 54234  98.7494 310.7596 0000833 322.2782  37.8335 14.19533646164071

#Time	Az	El	Level	Level2	SNR	BER	BlckErr	Temp	State	Recorded	gain1	gain2
2026-01-11 00:03:53.31	152.48	0.19	-48.1	-59.5	3.3	1.54e+00	0	26	0	0	60	32981
2026-01-11 00:03:54.28	152.48	0.25	-48.1	-60.9	3.5	1.52e+00	0	26	104	0	60	38950
2026-01-11 00:03:55.26	152.47	0.31	-48.1	-60.9	3.6	1.52e+00	0	26	104	0	60	39019
2026-01-11 00:03:56.24	152.47	0.37	-48.1	-60.9	3.5	1.52e+00	0	26	104	0	60	38830
2026-01-11 00:03:57.21	152.47	0.43	-48.0	-60.9	3.5	1.52e+00	0	26	104	0	60	38820
2026-01-11 00:03:58.19	152.47	0.49	-48.0	-60.8	3.5	1.52e+00	0	26	104	0	60	38644
2026-01-11 00:03:59.17	152.47	0.55	-47.9	-60.8	3.5	1.52e+00	0	26	104	0	60	38286
2026-01-11 00:04:00.14	152.47	0.61	-47.2	-60.7	3.5	1.52e+00	0	26	104	0	60	38159
2026-01-11 00:04:01.12	152.47	0.67	-47.8	-60.6	3.5	1.52e+00	0	26	104	0	60	37715
2026-01-11 00:04:02.10	152.47	0.73	-47.6	-60.5	3.5	1.52e+00	0	26	104	0	60	37043
2026-01-11 00:04:03.08	152.47	0.79	-47.3	-60.2	3.5	1.52e+00	0	26	104	0	60	35731
2026-01-11 00:04:04.06	152.47	0.85	-46.7	-59.4	3.5	1.52e+00	0	26	104	0	60	32850
2026-01-11 00:04:05.04	152.47	0.91	-46.6	-59.4	3.5	1.52e+00	0	26	104	0	60	32685
2026-01-11 00:04:06.02	152.46	0.97	-46.5	-59.3	3.5	1.52e+00	0	26	104	0	60	32434
2026-01-11 00:04:06.99	152.46	1.03	-46.1	-59.1	3.5	1.52e+00	0	26	104	0	60	31675
2026-01-11 00:04:07.97	152.46	1.09	-46.1	-59.1	3.5	1.52e+00	0	27	104	0	60	31575
2026-01-11 00:04:08.95	152.46	1.15	-46.1	-59.1	3.4	1.51e+00	0	26	104	0	60	31541
2026-01-11 00:04:09.93	152.46	1.21	-46.0	-59.1	3.5	1.52e+00	0	27	104	0	60	31591
2026-01-11 00:04:10.90	152.46	1.28	-46.1	-59.0	3.5	1.51e+00	0	27	104	0	60	31328
2026-01-11 00:04:11.88	152.46	1.34	-46.0	-59.0	3.5	1.52e+00	0	26	104	0	60	31303
2026-01-11 00:04:12.86	152.46	1.40	-46.0	-59.0	3.5	1.52e+00	0	27	104	0	60	31109
2026-01-11 00:04:13.85	152.46	1.46	-46.0	-58.9	3.5	1.52e+00	0	27	104	0	60	30890
2026-01-11 00:04:14.83	152.45	1.52	-46.0	-58.9	3.5	1.52e+00	0	27	104	0	60	30819
2026-01-11 00:04:15.81	152.45	1.59	-46.0	-58.8	3.5	1.51e+00	0	27	104	0	60	30489
2026-01-11 00:04:16.80	152.45	1.65	-46.0	-58.9	3.5	1.51e+00	0	27	104	0	60	30831
2026-01-11 00:04:17.77	152.45	1.71	-46.1	-58.9	3.5	1.52e+00	0	27	104	0	60	31034
2026-01-11 00:04:18.75	152.45	1.77	-46.0	-58.9	3.5	1.52e+00	0	27	104	0	60	31018
2026-01-11 00:04:19.72	152.45	1.83	-46.0	-58.9	3.5	1.52e+00	0	27	104	0	60	30994
2026-01-11 00:04:20.70	152.45	1.90	-46.0	-58.9	3.5	1.52e+00	0	27	104	0	60	31057
2026-01-11 00:04:21.68	152.45	1.96	-46.0	-58.9	3.5	1.52e+00	0	27	104	0	60	31072
2026-01-11 00:04:22.66	152.44	2.02	-46.1	-59.0	3.5	1.51e+00	0	27	104	0	60	31342
2026-01-11 00:04:23.64	152.44	2.09	-46.0	-58.9	3.5	1.52e+00	0	27	104	0	60	31074
2026-01-11 00:04:24.61	152.44	2.15	-46.0	-59.0	3.5	1.52e+00	0	27	104	0	60	31111
2026-01-11 00:04:25.59	152.44	2.21	-46.0	-58.9	3.5	1.52e+00	0	27	104	0	60	31089
2026-01-11 00:04:26.57	152.44	2.28	-46.0	-58.9	3.5	1.52e+00	0	27	104	0	60	30881
2026-01-11 00:04:27.55	152.44	2.34	-46.0	-58.9	3.5	1.52e+00	0	27	104	0	60	30768
2026-01-11 00:04:28.53	152.44	2.40	-46.0	-58.7	3.5	1.52e+00	0	27	104	0	60	30094
2026-01-11 00:04:29.50	152.43	2.47	-46.0	-58.4	3.5	1.52e+00	0	27	104	0	60	29207
2026-01-11 00:04:30.48	152.43	2.53	-46.0	-58.5	3.5	1.51e+00	0	27	104	0	60	29376
2026-01-11 00:04:31.46	152.43	2.59	-46.0	-58.3	3.5	1.52e+00	0	27	104	0	60	28754
2026-01-11 00:04:32.43	152.43	2.66	-46.0	-58.4	3.5	1.52e+00	0	27	104	0	60	29146
2026-01-11 00:04:33.41	152.43	2.72	-46.0	-58.6	3.5	1.52e+00	0	27	104	0	60	30042
2026-01-11 00:04:34.39	152.43	2.79	-46.0	-58.8	3.5	1.52e+00	0	27	104	0	60	30643
2026-01-11 00:04:35.37	152.43	2.85	-46.0	-58.2	3.5	1.52e+00	0	27	104	0	60	28471
2026-01-11 00:04:36.35	152.42	2.92	-45.8	-56.5	4.0	1.51e+00	0	27	104	0	60	23491
2026-01-11 00:04:37.33	152.42	2.98	-45.5	-54.1	5.0	1.21e+00	119	27	104	0	60	17765
2026-01-11 00:04:38.31	152.42	3.05	-44.9	-50.5	7.0	1.82e-01	125	27	0	1048576	60	11729
2026-01-11 00:04:39.29	152.42	3.11	-44.0	-48.1	9.8	3.39e-02	123	27	0	4194304	60	8882
2026-01-11 00:04:40.26	152.42	3.18	-43.3	-46.9	11.4	2.81e-03	123	27	0	7340032	60	7737
2026-01-11 00:04:41.24	152.42	3.24	-42.5	-45.3	12.9	5.41e-05	123	27	0	10485760	58	7273
2026-01-11 00:04:42.22	152.41	3.31	-41.7	-44.1	14.2	7.60e-06	121	27	0	13631488	56	7053
2026-01-11 00:04:43.20	152.41	3.38	-40.9	-43.0	15.2	0.00e+00	121	27	0	16777216	54	7001
2026-01-11 00:04:44.17	152.41	3.44	-40.2	-42.0	16.2	0.00e+00	124	27	0	19922944	54	6257
2026-01-11 00:04:45.15	152.41	3.51	-39.9	-41.7	16.5	0.00e+00	122	27	0	22020096	54	6046
2026-01-11 00:04:46.13	152.41	3.57	-39.7	-41.5	16.8	0.00e+00	122	27	0	25165824	52	6605
2026-01-11 00:04:47.11	152.41	3.64	-39.9	-41.7	16.8	0.00e+00	125	27	0	28311552	52	6731
2026-01-11 00:04:48.08	152.40	3.71	-40.2	-42.0	16.2	0.00e+00	121	27	0	31457280	52	7023
2026-01-11 00:04:49.06	152.40	3.77	-42.3	-45.0	13.1	1.29e-05	121	27	0	34603008	56	7897
2026-01-11 00:04:50.04	152.40	3.84	-38.0	-39.4	18.7	0.00e+00	123	27	0	37748736	48	6540
2026-01-11 00:04:51.02	152.40	3.91	-46.1	-56.9	3.6	1.38e-01	0	27	104	39845888	60	24423
2026-01-11 00:04:52.00	152.40	3.98	-43.4	-47.0	11.2	2.01e-04	123	27	0	39845888	58	8783
2026-01-11 00:04:52.98	152.39	4.04	-45.9	-56.8	3.5	7.00e-01	0	27	104	41943040	60	24178
2026-01-11 00:04:53.96	152.39	4.11	-37.7	-39.1	19.2	6.63e-05	123	27	0	41943040	50	5610
2026-01-11 00:04:54.94	152.39	4.18	-37.8	-39.1	19.2	0.00e+00	122	27	0	45088768	48	6330
2026-01-11 00:04:55.91	152.39	4.25	-37.5	-38.8	19.4	0.00e+00	121	27	0	47185920	48	6113
2026-01-11 00:04:56.89	152.39	4.32	-37.5	-38.7	19.5	0.00e+00	123	27	0	50331648	48	6045
2026-01-11 00:04:57.87	152.38	4.38	-37.4	-38.7	19.6	0.00e+00	121	27	0	53477376	48	6011
2026-01-11 00:04:58.85	152.38	4.45	-37.4	-38.7	19.5	0.00e+00	121	27	0	56623104	48	6025
2026-01-11 00:04:59.83	152.38	4.52	-37.5	-38.8	19.6	0.00e+00	122	27	0	59768832	48	6066
2026-01-11 00:05:00.81	152.38	4.59	-37.3	-38.5	19.7	0.00e+00	123	27	0	62914560	48	5888
2026-01-11 00:05:01.79	152.38	4.66	-37.1	-38.3	19.9	0.00e+00	120	27	0	66060288	48	5763
2026-01-11 00:05:02.77	152.37	4.73	-37.3	-38.5	19.7	0.00e+00	120	27	0	69206016	48	5908
2026-01-11 00:05:03.75	152.37	4.80	-37.3	-38.5	19.8	0.00e+00	124	27	0	72351744	48	5916
2026-01-11 00:05:04.73	152.37	4.87	-36.9	-38.1	20.2	0.00e+00	122	27	0	75497472	48	5626
2026-01-11 00:05:05.70	152.37	4.94	-37.1	-38.3	19.9	0.00e+00	122	27	0	78643200	48	5770
2026-01-11 00:05:06.68	152.36	5.01	-37.1	-38.3	19.9	0.00e+00	124	27	0	81788928	48	5778
2026-01-11 00:05:07.66	152.36	5.08	-37.2	-38.4	19.9	0.00e+00	124	27	0	83886080	48	5856
2026-01-11 00:05:08.64	152.36	5.15	-37.0	-38.2	20.1	0.00e+00	124	27	0	87031808	48	5701
2026-01-11 00:05:09.61	152.36	5.22	-36.8	-38.0	20.2	0.00e+00	121	28	0	90177536	46	6247
2026-01-11 00:05:10.59	152.36	5.29	-36.8	-38.0	20.3	0.00e+00	123	27	0	93323264	46	6242
2026-01-11 00:05:11.57	152.35	5.36	-36.7	-37.9	20.4	0.00e+00	124	27	0	96468992	46	6188
2026-01-11 00:05:12.55	152.35	5.43	-36.9	-38.1	20.2	0.00e+00	121	28	0	99614720	46	6306
2026-01-11 00:05:13.53	152.35	5.51	-36.9	-38.1	20.3	0.00e+00	120	27	0	102760448	46	6284
2026-01-11 00:05:14.51	152.35	5.58	-36.8	-38.0	20.4	0.00e+00	123	27	0	105906176	46	6219
2026-01-11 00:05:15.49	152.34	5.65	-36.6	-37.8	20.5	0.00e+00	123	28	0	109051904	46	6100
2026-01-11 00:05:16.47	152.34	5.72	-36.8	-38.0	20.3	0.00e+00	121	28	0	112197632	46	6262
2026-01-11 00:05:17.45	152.34	5.79	-36.8	-37.9	20.3	0.00e+00	123	27	0	115343360	46	6180
2026-01-11 00:05:18.43	152.34	5.87	-37.0	-38.2	20.1	0.00e+00	124	27	0	118489088	46	6353
2026-01-11 00:05:19.41	152.33	5.94	-36.8	-38.0	20.4	0.00e+00	123	27	0	120586240	46	6251
2026-01-11 00:05:20.39	152.33	6.01	-36.9	-38.1	20.3	0.00e+00	123	28	0	123731968	46	6301
2026-01-11 00:05:21.37	152.33	6.08	-36.8	-38.0	20.4	0.00e+00	122	27	0	126877696	46	6265
2026-01-11 00:05:22.34	152.32	6.16	-36.6	-37.7	20.8	0.00e+00	119	28	0	130023424	46	6048
2026-01-11 00:05:23.31	152.32	6.23	-36.4	-37.6	20.9	0.00e+00	122	28	0	133169152	46	5946
2026-01-11 00:05:24.29	152.32	6.30	-36.5	-37.7	20.8	0.00e+00	122	28	0	136314880	46	6005
2026-01-11 00:05:25.26	152.32	6.38	-36.6	-37.7	20.8	0.00e+00	123	28	0	139460608	46	6034
2026-01-11 00:05:26.24	152.31	6.45	-36.3	-37.4	20.9	0.00e+00	122	28	0	142606336	46	5847
2026-01-11 00:05:27.22	152.31	6.53	-36.4	-37.5	21.0	0.00e+00	121	28	0	145752064	46	5906
2026-01-11 00:05:28.20	152.31	6.60	-36.4	-37.6	20.9	0.00e+00	122	28	0	148897792	46	5931
2026-01-11 00:05:29.17	152.30	6.67	-36.5	-37.6	20.9	0.00e+00	121	28	0	152043520	46	5965
2026-01-11 00:05:30.15	152.30	6.75	-36.4	-37.5	21.0	0.00e+00	121	28	0	154140672	46	5890
2026-01-11 00:05:31.13	152.30	6.82	-36.4	-37.5	21.0	0.00e+00	122	28	0	157286400	46	5892
2026-01-11 00:05:32.11	152.30	6.90	-36.3	-37.4	21.1	0.00e+00	120	28	0	160432128	46	5818
2026-01-11 00:05:33.09	152.29	6.98	-36.3	-37.4	21.1	0.00e+00	125	28	0	163577856	46	5818
2026-01-11 00:05:34.06	152.29	7.05	-36.2	-37.3	21.2	0.00e+00	123	28	0	166723584	46	5760
2026-01-11 00:05:35.04	152.29	7.13	-36.2	-37.3	21.2	0.00e+00	123	28	0	169869312	46	5746
2026-01-11 00:05:36.03	152.28	7.20	-36.2	-37.3	21.1	0.00e+00	122	28	0	173015040	46	5750
2026-01-11 00:05:37.00	152.28	7.28	-36.3	-37.4	21.2	0.00e+00	122	28	0	176160768	46	5803
2026-01-11 00:05:37.98	152.28	7.36	-36.4	-37.5	21.1	0.00e+00	122	28	0	179306496	46	5892
2026-01-11 00:05:38.96	152.27	7.43	-35.9	-36.9	21.5	0.00e+00	122	28	0	182452224	46	5513
2026-01-11 00:05:39.94	152.27	7.51	-36.1	-37.1	21.4	0.00e+00	123	28	0	185597952	46	5649
2026-01-11 00:05:40.92	152.27	7.59	-35.8	-36.9	21.6	0.00e+00	121	28	0	188743680	46	5483
2026-01-11 00:05:41.90	152.26	7.67	-35.7	-36.8	21.7	0.00e+00	122	28	0	190840832	46	5411
2026-01-11 00:05:42.87	152.26	7.74	-35.7	-36.8	21.7	0.00e+00	124	28	0	193986560	44	6107
2026-01-11 00:05:43.86	152.26	7.82	-35.7	-36.7	21.8	0.00e+00	121	28	0	197132288	44	6054
2026-01-11 00:05:44.83	152.25	7.90	-35.6	-36.6	21.9	0.00e+00	123	28	0	200278016	44	5984
2026-01-11 00:05:45.81	152.25	7.98	-35.6	-36.7	21.8	0.00e+00	121	28	0	203423744	44	5995
2026-01-11 00:05:46.79	152.25	8.06	-35.5	-36.5	22.0	0.00e+00	123	28	0	206569472	44	5900
2026-01-11 00:05:47.76	152.24	8.14	-35.7	-36.7	21.8	0.00e+00	123	28	0	209715200	44	6034
2026-01-11 00:05:48.74	152.24	8.22	-35.5	-36.6	22.0	0.00e+00	121	28	0	212860928	44	5941
2026-01-11 00:05:49.73	152.24	8.30	-35.4	-36.4	22.1	0.00e+00	122	28	0	216006656	44	5826
2026-01-11 00:05:50.70	152.23	8.37	-35.4	-36.4	22.1	0.00e+00	125	28	0	219152384	44	5854
2026-01-11 00:05:51.68	152.23	8.46	-35.2	-36.2	22.3	0.00e+00	121	28	0	222298112	44	5711
2026-01-11 00:05:52.66	152.23	8.54	-35.3	-36.3	22.2	0.00e+00	124	28	0	225443840	44	5752
2026-01-11 00:05:53.63	152.22	8.62	-35.1	-36.1	22.3	0.00e+00	123	28	0	228589568	44	5646
2026-01-11 00:05:54.61	152.22	8.70	-35.0	-36.0	22.4	0.00e+00	121	28	0	230686720	44	5581
2026-01-11 00:05:55.59	152.21	8.78	-35.0	-36.0	22.4	0.00e+00	124	28	0	233832448	44	5552
2026-01-11 00:05:56.57	152.21	8.86	-35.0	-36.0	22.5	0.00e+00	121	28	0	236978176	44	5589
2026-01-11 00:05:57.55	152.21	8.94	-35.0	-36.1	22.4	0.00e+00	122	28	0	240123904	44	5595
2026-01-11 00:05:58.52	152.20	9.02	-35.0	-36.0	22.5	0.00e+00	121	28	0	243269632	44	5568
2026-01-11 00:05:59.50	152.20	9.10	-35.1	-36.1	22.4	0.00e+00	122	28	0	246415360	44	5641
2026-01-11 00:06:00.48	152.19	9.19	-35.1	-36.1	22.4	0.00e+00	122	28	0	249561088	44	5607
2026-01-11 00:06:01.46	152.19	9.27	-35.0	-36.0	22.4	0.00e+00	122	28	0	252706816	44	5582
2026-01-11 00:06:02.44	152.19	9.35	-34.8	-35.8	22.7	0.00e+00	122	28	0	255852544	44	5453
2026-01-11 00:06:03.42	152.18	9.44	-34.8	-35.8	22.7	0.00e+00	124	28	0	258998272	44	5442
2026-01-11 00:06:04.40	152.18	9.52	-34.8	-35.8	22.6	0.00e+00	123	28	0	262144000	44	5449
2026-01-11 00:06:05.37	152.17	9.60	-34.9	-35.9	22.6	0.00e+00	123	28	0	265289728	44	5522
2026-01-11 00:06:06.35	152.17	9.69	-34.9	-35.9	22.6	0.00e+00	123	28	0	267386880	44	5510
2026-01-11 00:06:07.33	152.16	9.77	-34.8	-35.8	22.7	0.00e+00	121	28	0	270532608	44	5421
2026-01-11 00:06:08.31	152.16	9.86	-34.9	-35.9	22.6	0.00e+00	124	28	0	273678336	44	5470
2026-01-11 00:06:09.28	152.16	9.94	-34.7	-35.7	22.9	0.00e+00	123	28	0	276824064	42	6004
2026-01-11 00:06:10.26	152.15	10.03	-34.7	-35.7	22.8	0.00e+00	120	28	0	279969792	42	6009
2026-01-11 00:06:11.24	152.15	10.11	-34.6	-35.6	23.0	0.00e+00	123	28	0	283115520	42	5939
2026-01-11 00:06:12.22	152.14	10.20	-34.7	-35.7	22.9	0.00e+00	123	28	0	286261248	42	6003
2026-01-11 00:06:13.20	152.14	10.28	-34.6	-35.5	23.0	0.00e+00	122	28	0	289406976	42	5910
2026-01-11 00:06:14.18	152.13	10.37	-34.5	-35.5	23.1	0.00e+00	124	28	0	292552704	42	5872
2026-01-11 00:06:15.16	152.13	10.46	-34.6	-35.5	23.0	0.00e+00	124	28	0	295698432	42	5905
2026-01-11 00:06:16.13	152.12	10.54	-34.5	-35.5	23.0	0.00e+00	124	28	0	298844160	42	5881
2026-01-11 00:06:17.11	152.12	10.63	-34.7	-35.7	22.9	0.00e+00	124	28	0	300941312	42	6010
2026-01-11 00:06:18.09	152.11	10.72	-34.5	-35.4	23.1	0.00e+00	122	28	0	304087040	42	5855
2026-01-11 00:06:19.07	152.11	10.81	-34.5	-35.4	23.1	0.00e+00	122	28	0	307232768	42	5842
2026-01-11 00:06:20.04	152.10	10.90	-34.6	-35.5	23.1	0.00e+00	121	28	0	310378496	42	5914
2026-01-11 00:06:21.02	152.10	10.98	-34.4	-35.3	23.2	0.00e+00	124	28	0	313524224	42	5786
2026-01-11 00:06:22.00	152.09	11.07	-34.3	-35.3	23.3	0.00e+00	123	28	0	316669952	42	5734
2026-01-11 00:06:22.98	152.09	11.16	-34.3	-35.3	23.2	0.00e+00	121	28	0	319815680	42	5730
2026-01-11 00:06:23.96	152.08	11.25	-34.2	-35.1	23.3	0.00e+00	121	28	0	322961408	42	5657
2026-01-11 00:06:24.94	152.08	11.34	-34.3	-35.2	23.3	0.00e+00	124	28	0	326107136	42	5708
2026-01-11 00:06:25.92	152.07	11.43	-34.1	-35.0	23.4	0.00e+00	122	28	0	329252864	42	5594
2026-01-11 00:06:26.90	152.07	11.52	-34.2	-35.1	23.4	0.00e+00	123	28	0	332398592	42	5648
2026-01-11 00:06:27.87	152.06	11.61	-34.3	-35.2	23.3	0.00e+00	121	28	0	335544320	42	5713
2026-01-11 00:06:28.85	152.06	11.71	-34.1	-35.0	23.5	0.00e+00	125	28	0	337641472	42	5592
2026-01-11 00:06:29.83	152.05	11.80	-34.2	-35.1	23.4	0.00e+00	123	28	0	340787200	42	5640
2026-01-11 00:06:30.81	152.05	11.89	-34.0	-35.0	23.5	0.00e+00	122	28	0	343932928	42	5558
2026-01-11 00:06:31.79	152.04	11.98	-34.0	-35.0	23.5	0.00e+00	121	28	0	347078656	42	5550
2026-01-11 00:06:32.76	152.04	12.07	-33.9	-34.8	23.7	0.00e+00	121	28	0	350224384	42	5446
2026-01-11 00:06:33.74	152.03	12.17	-34.0	-34.9	23.6	0.00e+00	123	28	0	353370112	42	5501
2026-01-11 00:06:34.72	152.02	12.26	-34.0	-34.9	23.6	0.00e+00	122	28	0	356515840	42	5518
2026-01-11 00:06:35.70	152.02	12.35	-33.9	-34.9	23.7	0.00e+00	122	28	0	359661568	42	5472
2026-01-11 00:06:36.68	152.01	12.45	-34.0	-34.9	23.6	0.00e+00	121	28	0	362807296	42	5514
2026-01-11 00:06:37.66	152.01	12.54	-33.9	-34.9	23.6	0.00e+00	124	28	0	365953024	42	5480
2026-01-11 00:06:38.64	152.00	12.64	-33.7	-34.6	23.8	0.00e+00	118	29	0	369098752	40	5993
2026-01-11 00:06:39.62	152.00	12.73	-33.8	-34.7	23.8	0.00e+00	124	28	0	371195904	40	6004
2026-01-11 00:06:40.59	151.99	12.83	-33.8	-34.7	23.8	0.00e+00	121	28	0	374341632	40	6028
2026-01-11 00:06:41.57	151.98	12.92	-33.8	-34.7	23.7	0.00e+00	124	28	0	377487360	40	6039
2026-01-11 00:06:42.54	151.98	13.02	-33.7	-34.6	23.8	0.00e+00	122	28	0	380633088	40	5967
2026-01-11 00:06:43.53	151.97	13.12	-33.6	-34.5	23.9	0.00e+00	120	28	0	383778816	40	5923
2026-01-11 00:06:44.50	151.96	13.21	-33.6	-34.5	23.9	0.00e+00	123	28	0	386924544	40	5910
2026-01-11 00:06:45.48	151.96	13.31	-33.5	-34.5	24.0	0.00e+00	122	28	0	390070272	40	5863
2026-01-11 00:06:46.46	151.95	13.41	-33.5	-34.4	24.0	0.00e+00	120	28	0	393216000	40	5806
2026-01-11 00:06:47.44	151.95	13.51	-33.7	-34.6	24.0	0.00e+00	120	28	0	396361728	40	5977
2026-01-11 00:06:48.42	151.94	13.61	-33.5	-34.4	24.0	0.00e+00	122	28	0	399507456	40	5844
2026-01-11 00:06:49.40	151.93	13.71	-33.4	-34.4	24.0	0.00e+00	122	28	0	402653184	40	5795
2026-01-11 00:06:50.38	151.93	13.81	-33.5	-34.4	24.1	0.00e+00	124	28	0	405798912	40	5815
2026-01-11 00:06:51.35	151.92	13.91	-33.5	-34.4	24.0	0.00e+00	125	28	0	407896064	40	5831
2026-01-11 00:06:52.33	151.91	14.01	-33.4	-34.3	24.1	0.00e+00	120	28	0	411041792	40	5776
2026-01-11 00:06:53.31	151.91	14.11	-33.5	-34.4	24.0	0.00e+00	122	28	0	414187520	40	5803
2026-01-11 00:06:54.29	151.90	14.21	-33.5	-34.4	24.0	0.00e+00	122	28	0	417333248	40	5843
2026-01-11 00:06:55.26	151.89	14.31	-33.6	-34.5	24.0	0.00e+00	121	28	0	420478976	40	5901
2026-01-11 00:06:56.24	151.88	14.41	-33.5	-34.4	24.1	0.00e+00	122	29	0	423624704	40	5827
2026-01-11 00:06:57.22	151.88	14.51	-33.4	-34.3	24.2	0.00e+00	122	29	0	426770432	40	5780
2026-01-11 00:06:58.20	151.87	14.62	-33.4	-34.3	24.2	0.00e+00	123	29	0	429916160	40	5780
2026-01-11 00:06:59.17	151.86	14.72	-33.4	-34.3	24.1	0.00e+00	123	29	0	433061888	40	5770
2026-01-11 00:07:00.15	151.86	14.82	-33.4	-34.3	24.1	0.00e+00	122	29	0	436207616	40	5747
2026-01-11 00:07:01.12	151.85	14.93	-33.3	-34.2	24.2	0.00e+00	122	29	0	439353344	40	5710
2026-01-11 00:07:02.10	151.84	15.03	-33.4	-34.3	24.2	0.00e+00	120	28	0	442499072	40	5752
2026-01-11 00:07:03.08	151.83	15.14	-33.4	-34.3	24.1	0.00e+00	120	29	0	444596224	40	5774
2026-01-11 00:07:04.06	151.83	15.24	-33.4	-34.3	24.1	0.00e+00	123	29	0	447741952	40	5743
2026-01-11 00:07:05.04	151.82	15.35	-33.4	-34.3	24.1	0.00e+00	120	29	0	450887680	40	5755
2026-01-11 00:07:06.02	151.81	15.45	-33.5	-34.4	24.1	0.00e+00	121	29	0	454033408	40	5833
2026-01-11 00:07:06.99	151.80	15.56	-33.5	-34.4	24.1	0.00e+00	125	29	0	457179136	40	5828
2026-01-11 00:07:07.97	151.79	15.67	-33.4	-34.3	24.2	0.00e+00	122	29	0	460324864	40	5744
2026-01-11 00:07:08.95	151.79	15.78	-33.4	-34.3	24.2	0.00e+00	123	29	0	463470592	40	5746
2026-01-11 00:07:09.93	151.78	15.88	-33.5	-34.4	24.1	0.00e+00	122	29	0	466616320	40	5803
2026-01-11 00:07:10.90	151.77	15.99	-33.4	-34.3	24.2	0.00e+00	123	29	0	469762048	40	5755
2026-01-11 00:07:11.88	151.76	16.10	-33.4	-34.3	24.1	0.00e+00	121	29	0	472907776	40	5741
2026-01-11 00:07:12.86	151.75	16.21	-33.4	-34.3	24.1	0.00e+00	123	29	0	476053504	40	5787
2026-01-11 00:07:13.83	151.74	16.32	-33.5	-34.4	24.1	0.00e+00	120	29	0	479199232	40	5799
2026-01-11 00:07:14.81	151.74	16.43	-33.5	-34.5	24.0	0.00e+00	122	29	0	481296384	40	5859
2026-01-11 00:07:15.78	151.73	16.54	-33.5	-34.4	24.1	0.00e+00	123	29	0	484442112	40	5833
2026-01-11 00:07:16.76	151.72	16.65	-33.4	-34.4	24.1	0.00e+00	121	29	0	487587840	40	5795
2026-01-11 00:07:17.74	151.71	16.77	-33.6	-34.5	24.0	0.00e+00	122	29	0	490733568	40	5903
2026-01-11 00:07:18.72	151.70	16.88	-33.7	-34.6	24.0	0.00e+00	123	29	0	493879296	40	5953
2026-01-11 00:07:19.70	151.69	16.99	-33.6	-34.5	24.0	0.00e+00	123	29	0	497025024	40	5901
2026-01-11 00:07:20.68	151.68	17.11	-33.6	-34.6	24.0	0.00e+00	120	29	0	500170752	40	5937
2026-01-11 00:07:21.65	151.67	17.22	-33.8	-34.7	23.8	0.00e+00	123	29	0	503316480	40	6019
2026-01-11 00:07:22.63	151.66	17.34	-33.6	-34.5	24.0	0.00e+00	123	29	0	506462208	40	5871
2026-01-11 00:07:23.61	151.66	17.45	-33.7	-34.7	23.9	0.00e+00	122	29	0	509607936	40	5998
2026-01-11 00:07:24.59	151.65	17.57	-33.7	-34.6	24.0	0.00e+00	122	29	0	512753664	40	5953
2026-01-11 00:07:25.57	151.64	17.68	-33.8	-34.7	23.8	0.00e+00	121	29	0	515899392	40	6056
2026-01-11 00:07:26.54	151.63	17.80	-33.8	-34.7	23.9	0.00e+00	122	29	0	517996544	40	6029
2026-01-11 00:07:27.52	151.62	17.92	-33.8	-34.7	23.8	0.00e+00	121	29	0	521142272	40	6044
2026-01-11 00:07:28.49	151.61	18.04	-34.0	-34.9	23.7	0.00e+00	121	29	0	524288000	40	6187
2026-01-11 00:07:29.47	151.60	18.15	-33.9	-34.8	23.7	0.00e+00	121	29	0	527433728	40	6104
2026-01-11 00:07:30.45	151.59	18.27	-33.8	-34.7	23.8	0.00e+00	125	29	0	530579456	40	6056
2026-01-11 00:07:31.43	151.58	18.39	-33.8	-34.8	23.7	0.00e+00	122	29	0	533725184	40	6095
2026-01-11 00:07:32.41	151.57	18.51	-33.9	-34.9	23.7	0.00e+00	122	29	0	536870912	40	6164
2026-01-11 00:07:33.38	151.56	18.63	-34.0	-35.0	23.7	0.00e+00	118	29	0	540016640	40	6220
2026-01-11 00:07:34.36	151.55	18.76	-33.9	-34.9	23.7	0.00e+00	124	29	0	543162368	40	6152
2026-01-11 00:07:35.34	151.54	18.88	-34.0	-34.9	23.6	0.00e+00	123	29	0	546308096	40	6189
2026-01-11 00:07:36.31	151.52	19.00	-33.8	-34.7	23.8	0.00e+00	122	29	0	548405248	40	6044
2026-01-11 00:07:37.29	151.51	19.12	-33.7	-34.7	23.8	0.00e+00	123	29	0	551550976	40	5999
2026-01-11 00:07:38.27	151.50	19.25	-33.8	-34.7	23.8	0.00e+00	122	29	0	554696704	40	6049
2026-01-11 00:07:39.25	151.49	19.37	-33.8	-34.8	23.7	0.00e+00	122	29	0	557842432	40	6076
2026-01-11 00:07:40.23	151.48	19.50	-33.8	-34.7	23.8	0.00e+00	122	29	0	560988160	40	6039
2026-01-11 00:07:41.21	151.47	19.63	-33.7	-34.7	23.9	0.00e+00	122	29	0	564133888	40	6005
2026-01-11 00:07:42.18	151.46	19.75	-33.7	-34.6	23.9	0.00e+00	121	29	0	567279616	40	5943
2026-01-11 00:07:43.16	151.45	19.88	-33.6	-34.6	24.0	0.00e+00	122	29	0	570425344	40	5928
2026-01-11 00:07:44.14	151.44	20.01	-33.6	-34.5	24.0	0.00e+00	121	29	0	573571072	40	5880
2026-01-11 00:07:45.12	151.42	20.14	-33.5	-34.4	24.1	0.00e+00	120	29	0	576716800	40	5841
2026-01-11 00:07:46.09	151.41	20.26	-33.4	-34.4	24.1	0.00e+00	121	29	0	579862528	40	5817
2026-01-11 00:07:47.08	151.40	20.40	-33.4	-34.4	24.2	0.00e+00	122	29	0	583008256	40	5807
2026-01-11 00:07:48.06	151.39	20.53	-33.3	-34.2	24.3	0.00e+00	120	29	0	585105408	40	5712
2026-01-11 00:07:49.04	151.37	20.66	-33.2	-34.1	24.4	0.00e+00	124	29	0	588251136	40	5636
2026-01-11 00:07:50.01	151.36	20.79	-33.1	-34.0	24.5	0.00e+00	124	29	0	591396864	40	5589
2026-01-11 00:07:50.99	151.35	20.92	-33.1	-34.0	24.5	0.00e+00	122	29	0	594542592	40	5548
2026-01-11 00:07:51.97	151.34	21.06	-33.1	-34.0	24.5	0.00e+00	123	29	0	597688320	40	5586
2026-01-11 00:07:52.94	151.32	21.19	-33.0	-33.8	24.6	0.00e+00	123	29	0	600834048	40	5465
2026-01-11 00:07:53.92	151.31	21.32	-32.8	-33.7	24.7	0.00e+00	123	29	0	603979776	40	5354
2026-01-11 00:07:54.90	151.30	21.46	-33.0	-33.9	24.6	0.00e+00	123	29	0	607125504	40	5473
2026-01-11 00:07:55.88	151.29	21.60	-32.7	-33.5	24.9	0.00e+00	121	29	0	610271232	38	5924
2026-01-11 00:07:56.86	151.27	21.73	-32.7	-33.6	24.7	0.00e+00	123	29	0	613416960	38	5949
2026-01-11 00:07:57.83	151.26	21.87	-32.6	-33.5	24.9	0.00e+00	124	29	0	616562688	38	5874
2026-01-11 00:07:58.81	151.24	22.01	-32.6	-33.5	24.9	0.00e+00	122	29	0	618659840	38	5879
2026-01-11 00:07:59.79	151.23	22.15	-32.6	-33.4	24.9	0.00e+00	121	29	0	621805568	38	5847
2026-01-11 00:08:00.77	151.22	22.29	-32.4	-33.3	25.0	0.00e+00	122	29	0	624951296	38	5751
2026-01-11 00:08:01.75	151.20	22.43	-32.3	-33.2	25.0	0.00e+00	124	29	0	628097024	38	5662
2026-01-11 00:08:02.72	151.19	22.57	-32.3	-33.1	25.0	0.00e+00	122	29	0	631242752	38	5642
2026-01-11 00:08:03.70	151.17	22.71	-32.2	-33.0	25.1	0.00e+00	123	29	0	634388480	38	5589
2026-01-11 00:08:04.68	151.16	22.86	-32.2	-33.1	25.1	0.00e+00	122	29	0	637534208	38	5640
2026-01-11 00:08:05.66	151.14	23.00	-32.1	-32.9	25.2	0.00e+00	122	29	0	640679936	38	5517
2026-01-11 00:08:06.64	151.13	23.14	-32.0	-32.9	25.1	0.00e+00	122	29	0	643825664	38	5508
2026-01-11 00:08:07.62	151.11	23.29	-32.2	-33.0	25.1	0.00e+00	121	29	0	646971392	38	5572
2026-01-11 00:08:08.59	151.10	23.44	-31.9	-32.7	25.2	0.00e+00	122	29	0	650117120	38	5399
2026-01-11 00:08:09.57	151.08	23.58	-31.9	-32.8	25.1	0.00e+00	122	29	0	653262848	38	5424
2026-01-11 00:08:10.55	151.07	23.73	-32.0	-32.8	25.1	0.00e+00	122	29	0	656408576	38	5451
2026-01-11 00:08:11.53	151.05	23.88	-31.9	-32.8	25.1	0.00e+00	121	29	0	658505728	38	5426
2026-01-11 00:08:12.50	151.04	24.03	-31.9	-32.8	25.0	0.00e+00	120	29	0	661651456	38	5429
2026-01-11 00:08:13.48	151.02	24.18	-32.0	-32.9	25.0	0.00e+00	122	29	0	664797184	38	5489
2026-01-11 00:08:14.46	151.00	24.33	-32.1	-32.9	25.0	0.00e+00	122	29	0	667942912	38	5508
2026-01-11 00:08:15.44	150.99	24.48	-32.1	-33.0	25.0	0.00e+00	123	29	0	671088640	38	5532
2026-01-11 00:08:16.41	150.97	24.64	-32.1	-32.9	25.0	0.00e+00	123	29	0	674234368	38	5527
2026-01-11 00:08:17.39	150.95	24.79	-32.1	-33.0	24.9	0.00e+00	121	29	0	677380096	38	5541
2026-01-11 00:08:18.36	150.94	24.94	-32.2	-33.0	24.9	0.00e+00	123	29	0	680525824	38	5588
2026-01-11 00:08:19.34	150.92	25.10	-32.3	-33.2	24.8	0.00e+00	123	29	0	683671552	38	5675
2026-01-11 00:08:20.32	150.90	25.26	-32.3	-33.2	24.8	0.00e+00	122	29	0	686817280	38	5680
2026-01-11 00:08:21.30	150.88	25.42	-32.5	-33.4	24.7	0.00e+00	122	29	0	689963008	38	5796
2026-01-11 00:08:22.28	150.87	25.57	-32.5	-33.4	24.6	0.00e+00	122	29	0	693108736	38	5822
2026-01-11 00:08:23.25	150.85	25.73	-32.5	-33.4	24.7	0.00e+00	123	29	0	695205888	38	5842
2026-01-11 00:08:24.23	150.83	25.89	-32.6	-33.5	24.6	0.00e+00	122	29	0	698351616	38	5887
2026-01-11 00:08:25.21	150.81	26.06	-32.8	-33.7	24.4	0.00e+00	121	29	0	701497344	38	6016
2026-01-11 00:08:26.19	150.79	26.22	-32.8	-33.7	24.4	0.00e+00	123	29	0	704643072	38	6046
2026-01-11 00:08:27.16	150.77	26.38	-33.0	-33.9	24.2	0.00e+00	122	29	0	707788800	38	6150
2026-01-11 00:08:28.14	150.75	26.55	-33.0	-33.9	24.3	0.00e+00	123	29	0	710934528	38	6196
2026-01-11 00:08:29.12	150.73	26.71	-33.1	-34.1	24.2	0.00e+00	123	29	0	714080256	38	6280
2026-01-11 00:08:30.11	150.71	26.88	-33.2	-34.1	24.2	0.00e+00	123	29	0	717225984	38	6328
2026-01-11 00:08:31.08	150.69	27.05	-33.3	-34.2	24.2	0.00e+00	121	29	0	720371712	38	6390
2026-01-11 00:08:32.06	150.67	27.21	-33.4	-34.3	24.2	0.00e+00	123	29	0	723517440	38	6453
2026-01-11 00:08:33.04	150.65	27.38	-33.6	-34.5	24.1	0.00e+00	121	29	0	726663168	38	6598
2026-01-11 00:08:34.02	150.63	27.56	-33.7	-34.6	24.1	0.00e+00	123	29	0	728760320	38	6699
2026-01-11 00:08:35.00	150.61	27.73	-33.7	-34.6	23.9	0.00e+00	123	29	0	731906048	40	5994
2026-01-11 00:08:35.98	150.59	27.90	-33.7	-34.6	24.1	0.00e+00	121	29	0	735051776	40	5983
2026-01-11 00:08:36.95	150.57	28.07	-33.9	-34.8	23.9	0.00e+00	123	29	0	738197504	40	6106
2026-01-11 00:08:37.93	150.55	28.25	-34.0	-34.9	23.9	0.00e+00	124	29	0	741343232	40	6185
2026-01-11 00:08:38.91	150.52	28.43	-33.8	-34.8	24.0	0.00e+00	121	29	0	744488960	40	6090
2026-01-11 00:08:39.89	150.50	28.60	-33.8	-34.7	24.0	0.00e+00	120	29	0	747634688	40	6033
2026-01-11 00:08:40.86	150.48	28.78	-33.8	-34.7	24.0	0.00e+00	120	29	0	750780416	40	6050
2026-01-11 00:08:41.84	150.46	28.96	-33.7	-34.6	24.1	0.00e+00	124	29	0	753926144	40	5954
2026-01-11 00:08:42.82	150.43	29.14	-33.7	-34.6	24.0	0.00e+00	122	29	0	757071872	40	5992
2026-01-11 00:08:43.80	150.41	29.32	-33.3	-34.2	24.5	0.00e+00	123	29	0	760217600	40	5714
2026-01-11 00:08:44.78	150.39	29.51	-33.3	-34.2	24.4	0.00e+00	122	29	0	763363328	40	5696
2026-01-11 00:08:45.75	150.36	29.69	-33.1	-33.9	24.6	0.00e+00	121	29	0	765460480	40	5529
2026-01-11 00:08:46.73	150.34	29.87	-33.0	-33.8	24.7	0.00e+00	122	29	0	768606208	40	5455
2026-01-11 00:08:47.71	150.31	30.06	-32.9	-33.8	24.7	0.00e+00	123	29	0	771751936	40	5434
2026-01-11 00:08:48.69	150.29	30.25	-32.9	-33.8	24.8	0.00e+00	124	29	0	774897664	40	5415
2026-01-11 00:08:49.67	150.26	30.44	-32.9	-33.8	24.7	0.00e+00	122	29	0	778043392	38	6071
2026-01-11 00:08:50.65	150.24	30.63	-32.7	-33.5	24.9	0.00e+00	125	29	0	781189120	38	5903
2026-01-11 00:08:51.63	150.21	30.82	-32.7	-33.6	24.9	0.00e+00	119	29	0	784334848	38	5937
2026-01-11 00:08:52.61	150.18	31.01	-32.7	-33.6	24.9	0.00e+00	121	29	0	787480576	38	5932
2026-01-11 00:08:53.58	150.16	31.21	-32.6	-33.4	25.0	0.00e+00	122	29	0	790626304	38	5833
2026-01-11 00:08:54.56	150.13	31.40	-32.7	-33.5	24.9	0.00e+00	125	29	0	793772032	38	5899
2026-01-11 00:08:55.55	150.10	31.60	-32.7	-33.5	24.9	0.00e+00	123	29	0	796917760	38	5907
2026-01-11 00:08:56.53	150.07	31.80	-32.6	-33.4	25.0	0.00e+00	121	29	0	800063488	38	5843
2026-01-11 00:08:57.50	150.04	32.00	-32.6	-33.5	24.9	0.00e+00	124	29	0	802160640	38	5889
2026-01-11 00:08:58.48	150.02	32.20	-32.7	-33.6	24.9	0.00e+00	125	29	0	805306368	38	5956
2026-01-11 00:08:59.46	149.99	32.40	-32.7	-33.6	24.9	0.00e+00	121	29	0	808452096	38	5969
2026-01-11 00:09:00.44	149.96	32.60	-32.8	-33.7	24.9	0.00e+00	122	29	0	811597824	38	6025
2026-01-11 00:09:01.41	149.93	32.81	-32.9	-33.8	24.8	0.00e+00	122	29	0	814743552	38	6070
2026-01-11 00:09:02.39	149.90	33.01	-33.2	-34.1	24.7	0.00e+00	122	29	0	817889280	38	6296
2026-01-11 00:09:03.36	149.87	33.22	-33.3	-34.1	24.5	0.00e+00	121	29	0	821035008	38	6348
2026-01-11 00:09:04.34	149.83	33.43	-33.5	-34.4	24.5	0.00e+00	121	29	0	824180736	38	6527
2026-01-11 00:09:05.32	149.80	33.64	-33.8	-34.7	24.2	0.00e+00	122	29	0	827326464	38	6760
2026-01-11 00:09:06.30	149.77	33.85	-33.8	-34.7	24.2	0.00e+00	123	29	0	830472192	40	6011
2026-01-11 00:09:07.28	149.74	34.06	-34.0	-34.9	24.0	0.00e+00	122	29	0	833617920	40	6189
2026-01-11 00:09:08.26	149.70	34.28	-33.9	-34.8	24.1	0.00e+00	123	29	0	835715072	40	6111
2026-01-11 00:09:09.24	149.67	34.49	-34.1	-35.0	24.0	0.00e+00	122	29	0	838860800	40	6239
2026-01-11 00:09:10.21	149.64	34.71	-34.2	-35.1	23.9	0.00e+00	123	29	0	842006528	40	6344
2026-01-11 00:09:11.19	149.60	34.93	-34.2	-35.1	23.9	0.00e+00	124	29	0	845152256	40	6309
2026-01-11 00:09:12.17	149.57	35.15	-34.4	-35.3	23.8	0.00e+00	125	29	0	848297984	40	6485
2026-01-11 00:09:13.15	149.53	35.37	-34.5	-35.4	23.7	0.00e+00	119	29	0	851443712	40	6529
2026-01-11 00:09:14.13	149.50	35.60	-34.6	-35.5	23.5	0.00e+00	121	29	0	854589440	40	6640
2026-01-11 00:09:15.10	149.46	35.82	-34.8	-35.7	23.4	0.00e+00	121	29	0	857735168	40	6782
2026-01-11 00:09:16.08	149.42	36.05	-34.7	-35.6	23.5	0.00e+00	122	29	0	860880896	42	5955
2026-01-11 00:09:17.06	149.38	36.28	-34.9	-35.8	23.4	0.00e+00	123	29	0	864026624	42	6107
2026-01-11 00:09:18.04	149.35	36.51	-34.9	-35.9	23.4	0.00e+00	123	29	0	867172352	42	6136
2026-01-11 00:09:19.02	149.31	36.74	-34.8	-35.7	23.5	0.00e+00	121	29	0	870318080	42	6024
2026-01-11 00:09:20.00	149.27	36.97	-34.8	-35.7	23.4	0.00e+00	121	29	0	872415232	42	6056
2026-01-11 00:09:20.97	149.23	37.21	-34.8	-35.8	23.3	0.00e+00	122	29	0	875560960	42	6066
2026-01-11 00:09:21.95	149.19	37.44	-34.9	-35.9	23.3	0.00e+00	120	29	0	878706688	42	6141
2026-01-11 00:09:22.93	149.14	37.68	-35.2	-36.1	23.0	0.00e+00	123	29	0	881852416	42	6349
2026-01-11 00:09:23.91	149.10	37.92	-34.9	-35.8	23.2	0.00e+00	122	29	0	884998144	42	6113
2026-01-11 00:09:24.88	149.06	38.16	-35.1	-36.0	22.9	0.00e+00	124	29	0	888143872	42	6250
2026-01-11 00:09:25.86	149.02	38.40	-35.2	-36.2	22.7	0.00e+00	123	29	0	891289600	42	6388
2026-01-11 00:09:26.83	148.97	38.65	-34.9	-35.9	23.0	0.00e+00	121	29	0	894435328	42	6164
2026-01-11 00:09:27.80	148.93	38.89	-34.8	-35.8	23.1	0.00e+00	122	29	0	897581056	42	6082
2026-01-11 00:09:28.78	148.88	39.14	-35.0	-36.0	22.9	0.00e+00	123	29	0	900726784	42	6215
2026-01-11 00:09:29.76	148.83	39.39	-35.1	-36.1	22.9	0.00e+00	122	29	0	903872512	42	6326
2026-01-11 00:09:30.74	148.79	39.64	-35.1	-36.1	23.0	0.00e+00	123	29	0	907018240	42	6319
2026-01-11 00:09:31.71	148.74	39.90	-35.0	-36.0	23.0	0.00e+00	123	29	0	909115392	42	6241
2026-01-11 00:09:32.69	148.69	40.15	-35.0	-36.0	23.1	0.00e+00	122	29	0	912261120	42	6232
2026-01-11 00:09:33.67	148.64	40.41	-34.9	-35.8	23.3	0.00e+00	120	29	0	915406848	42	6125
2026-01-11 00:09:34.64	148.59	40.67	-34.8	-35.8	23.4	0.00e+00	123	29	0	918552576	42	6083
2026-01-11 00:09:35.62	148.54	40.93	-34.9	-35.8	23.4	0.00e+00	123	29	0	921698304	42	6124
2026-01-11 00:09:36.60	148.49	41.19	-35.0	-35.9	23.1	0.00e+00	121	29	0	924844032	42	6189
2026-01-11 00:09:37.58	148.43	41.46	-35.0	-36.0	23.0	0.00e+00	124	29	0	927989760	42	6233
2026-01-11 00:09:38.55	148.38	41.72	-35.1	-36.0	22.9	0.00e+00	122	29	0	931135488	42	6254
2026-01-11 00:09:39.53	148.32	41.99	-35.3	-36.3	22.6	0.00e+00	122	29	0	934281216	42	6446
2026-01-11 00:09:40.51	148.27	42.26	-35.5	-36.4	22.5	0.00e+00	120	29	0	937426944	42	6566
2026-01-11 00:09:41.48	148.21	42.53	-35.6	-36.6	22.5	0.00e+00	123	29	0	940572672	42	6704
2026-01-11 00:09:42.46	148.15	42.81	-35.7	-36.7	22.6	0.00e+00	122	29	0	942669824	42	6761
2026-01-11 00:09:43.44	148.09	43.09	-35.4	-36.4	22.6	0.00e+00	121	29	0	945815552	42	6545
2026-01-11 00:09:44.41	148.03	43.36	-35.5	-36.5	22.6	0.00e+00	122	29	0	948961280	42	6611
2026-01-11 00:09:45.39	147.97	43.64	-35.7	-36.7	22.5	0.00e+00	122	30	0	952107008	42	6778
2026-01-11 00:09:46.36	147.91	43.92	-35.8	-36.9	22.5	0.00e+00	123	29	0	955252736	44	6135
2026-01-11 00:09:47.34	147.85	44.21	-36.2	-37.3	22.1	0.00e+00	122	29	0	958398464	44	6438
2026-01-11 00:09:48.32	147.78	44.50	-36.2	-37.3	22.1	0.00e+00	122	29	0	961544192	44	6441
2026-01-11 00:09:49.30	147.72	44.79	-36.4	-37.4	22.0	0.00e+00	122	29	0	964689920	44	6552
2026-01-11 00:09:50.28	147.65	45.08	-36.4	-37.5	22.0	0.00e+00	124	30	0	967835648	44	6587
2026-01-11 00:09:51.25	147.58	45.37	-36.4	-37.5	21.9	0.00e+00	123	29	0	970981376	44	6580
2026-01-11 00:09:52.23	147.51	45.66	-36.5	-37.5	21.8	0.00e+00	121	29	0	974127104	44	6617
2026-01-11 00:09:53.21	147.44	45.96	-36.6	-37.7	21.6	0.00e+00	122	29	0	976224256	44	6758
2026-01-11 00:09:54.19	147.37	46.26	-36.6	-37.6	21.6	0.00e+00	124	29	0	979369984	44	6721
2026-01-11 00:09:55.17	147.29	46.56	-36.5	-37.6	21.6	0.00e+00	121	29	0	982515712	44	6702
2026-01-11 00:09:56.15	147.21	46.87	-36.4	-37.5	21.7	0.00e+00	122	30	0	985661440	44	6619
2026-01-11 00:09:57.13	147.14	47.17	-36.3	-37.3	22.0	0.00e+00	125	29	0	988807168	44	6480
2026-01-11 00:09:58.10	147.06	47.48	-35.9	-37.0	22.2	0.00e+00	124	30	0	991952896	44	6234
2026-01-11 00:09:59.08	146.98	47.79	-35.5	-36.5	22.6	0.00e+00	123	30	0	995098624	44	5921
2026-01-11 00:10:00.06	146.90	48.10	-35.5	-36.6	22.7	0.00e+00	121	29	0	998244352	44	5935
2026-01-11 00:10:01.04	146.81	48.42	-35.3	-36.3	22.9	0.00e+00	121	29	0	1001390080	44	5746
2026-01-11 00:10:02.02	146.72	48.73	-35.1	-36.1	23.2	0.00e+00	124	30	0	1004535808	44	5596
2026-01-11 00:10:02.99	146.64	49.05	-35.2	-36.2	23.0	0.00e+00	121	30	0	1007681536	44	5677
2026-01-11 00:10:03.97	146.55	49.37	-35.3	-36.3	22.9	0.00e+00	124	30	0	1010827264	44	5755
2026-01-11 00:10:04.95	146.46	49.70	-35.3	-36.3	22.9	0.00e+00	123	30	0	1012924416	44	5763
2026-01-11 00:10:05.93	146.36	50.02	-35.5	-36.5	22.7	0.00e+00	122	29	0	1016070144	44	5888
2026-01-11 00:10:06.91	146.27	50.35	-35.4	-36.5	22.8	0.00e+00	122	29	0	1019215872	44	5861
2026-01-11 00:10:07.88	146.17	50.68	-35.4	-36.4	22.8	0.00e+00	120	30	0	1022361600	44	5819
2026-01-11 00:10:08.86	146.07	51.01	-35.2	-36.2	22.9	0.00e+00	121	30	0	1025507328	44	5675
2026-01-11 00:10:09.84	145.97	51.35	-35.0	-36.0	23.1	0.00e+00	121	30	0	1028653056	44	5553
2026-01-11 00:10:10.81	145.86	51.68	-35.0	-36.0	23.0	0.00e+00	123	30	0	1031798784	44	5565
2026-01-11 00:10:11.78	145.75	52.02	-35.0	-36.0	23.0	0.00e+00	123	30	0	1034944512	44	5574
2026-01-11 00:10:12.76	145.64	52.36	-34.9	-35.9	23.1	0.00e+00	123	30	0	1038090240	44	5500
2026-01-11 00:10:13.74	145.53	52.70	-34.8	-35.8	23.1	0.00e+00	122	30	0	1041235968	44	5413
2026-01-11 00:10:14.72	145.42	53.05	-34.5	-35.4	23.4	0.00e+00	120	30	0	1044381696	42	5836
2026-01-11 00:10:15.69	145.30	53.39	-34.4	-35.4	23.3	0.00e+00	124	30	0	1046478848	42	5821
2026-01-11 00:10:16.67	145.18	53.75	-34.3	-35.3	23.3	0.00e+00	124	30	0	1049624576	42	5727
2026-01-11 00:10:17.65	145.05	54.10	-34.1	-35.0	23.7	0.00e+00	121	30	0	1052770304	42	5585
2026-01-11 00:10:18.63	144.92	54.45	-34.1	-35.0	23.7	0.00e+00	121	30	0	1055916032	42	5567
2026-01-11 00:10:19.61	144.79	54.81	-34.0	-34.9	23.8	0.00e+00	123	30	0	1059061760	42	5492
2026-01-11 00:10:20.58	144.66	55.17	-33.8	-34.7	24.0	0.00e+00	120	29	0	1062207488	42	5364
2026-01-11 00:10:21.56	144.52	55.53	-33.8	-34.7	24.1	0.00e+00	122	30	0	1065353216	40	6032
2026-01-11 00:10:22.54	144.38	55.90	-33.5	-34.4	24.2	0.00e+00	123	30	0	1068498944	40	5858
2026-01-11 00:10:23.52	144.24	56.26	-33.7	-34.6	23.8	0.00e+00	124	30	0	1071644672	40	5970
2026-01-11 00:10:24.50	144.09	56.63	-33.5	-34.5	24.0	0.00e+00	124	30	0	1074790400	40	5876
2026-01-11 00:10:25.48	143.93	57.00	-33.3	-34.2	24.5	0.00e+00	123	30	0	1077936128	40	5711
2026-01-11 00:10:26.46	143.77	57.38	-33.3	-34.2	24.6	0.00e+00	122	30	0	1081081856	40	5687
2026-01-11 00:10:27.43	143.61	57.75	-32.9	-33.7	24.9	0.00e+00	122	30	0	1084227584	40	5391
2026-01-11 00:10:28.41	143.45	58.13	-32.4	-33.3	25.3	0.00e+00	121	30	0	1086324736	38	5740
2026-01-11 00:10:29.38	143.28	58.50	-32.3	-33.2	25.3	0.00e+00	120	30	0	1089470464	38	5669
2026-01-11 00:10:30.36	143.10	58.89	-32.3	-33.1	25.2	0.00e+00	121	30	0	1092616192	38	5635
2026-01-11 00:10:31.34	142.92	59.27	-32.4	-33.3	25.2	0.00e+00	120	30	0	1095761920	38	5732
2026-01-11 00:10:32.32	142.73	59.66	-32.5	-33.4	24.9	0.00e+00	123	30	0	1098907648	38	5822
2026-01-11 00:10:33.29	142.54	60.04	-32.8	-33.7	24.7	0.00e+00	122	30	0	1102053376	38	6026
2026-01-11 00:10:34.27	142.34	60.43	-32.8	-33.7	24.8	0.00e+00	122	30	0	1105199104	38	6023
2026-01-11 00:10:35.25	142.13	60.83	-32.8	-33.6	24.7	0.00e+00	120	30	0	1108344832	38	5986
2026-01-11 00:10:36.23	141.92	61.22	-32.3	-33.2	24.9	0.00e+00	120	30	0	1111490560	38	5684
2026-01-11 00:10:37.20	141.70	61.62	-32.2	-33.0	25.0	0.00e+00	122	30	0	1114636288	38	5583
2026-01-11 00:10:38.18	141.47	62.01	-32.1	-32.9	25.3	0.00e+00	120	30	0	1117782016	38	5519
2026-01-11 00:10:39.16	141.24	62.42	-31.8	-32.6	25.3	0.00e+00	125	30	0	1119879168	38	5312
2026-01-11 00:10:40.13	141.00	62.81	-31.9	-32.7	25.0	0.00e+00	122	30	0	1123024896	38	5401
2026-01-11 00:10:41.11	140.75	63.22	-32.2	-33.0	25.0	0.00e+00	122	30	0	1126170624	38	5581
2026-01-11 00:10:42.09	140.49	63.63	-32.1	-33.0	25.0	0.00e+00	123	30	0	1129316352	38	5539
2026-01-11 00:10:43.07	140.22	64.03	-31.9	-32.8	25.3	0.00e+00	122	30	0	1132462080	38	5428
2026-01-11 00:10:44.04	139.94	64.44	-31.9	-32.8	25.5	0.00e+00	124	30	0	1135607808	38	5429
2026-01-11 00:10:45.02	139.65	64.85	-31.5	-32.4	25.7	0.00e+00	123	30	0	1138753536	36	5804
2026-01-11 00:10:46.00	139.35	65.27	-31.7	-32.6	25.6	0.00e+00	122	30	0	1141899264	36	5933
2026-01-11 00:10:46.98	139.04	65.68	-31.8	-32.6	25.7	0.00e+00	122	30	0	1145044992	36	5991
2026-01-11 00:10:47.96	138.72	66.10	-31.7	-32.5	25.7	0.00e+00	122	30	0	1148190720	36	5906
2026-01-11 00:10:48.94	138.38	66.51	-31.5	-32.3	25.8	0.00e+00	120	30	0	1151336448	36	5782
2026-01-11 00:10:49.91	138.03	66.93	-31.3	-32.1	26.0	0.00e+00	122	30	0	1153433600	36	5656
2026-01-11 00:10:50.90	137.67	67.35	-30.8	-31.6	24.3	0.00e+00	122	30	0	1156579328	36	5287
2026-01-11 00:10:51.87	137.29	67.77	-30.7	-31.5	26.2	0.00e+00	123	30	0	1159725056	34	5904
2026-01-11 00:10:52.85	136.89	68.19	-31.0	-31.8	26.0	0.00e+00	120	30	0	1162870784	34	6124
2026-01-11 00:10:53.83	136.48	68.62	-31.4	-32.2	25.8	0.00e+00	121	30	0	1166016512	34	6382
2026-01-11 00:10:54.81	136.05	69.04	-31.6	-32.4	25.5	0.00e+00	121	30	0	1169162240	34	6569
2026-01-11 00:10:55.79	135.60	69.47	-31.7	-32.5	25.7	0.00e+00	124	30	0	1172307968	34	6628
2026-01-11 00:10:56.76	135.13	69.89	-31.6	-32.4	25.6	0.00e+00	122	30	0	1175453696	34	6528
2026-01-11 00:10:57.74	134.64	70.32	-31.8	-32.7	25.2	0.00e+00	122	30	0	1178599424	36	6026
2026-01-11 00:10:58.72	134.12	70.74	-32.0	-32.9	25.2	0.00e+00	122	30	0	1181745152	36	6170
2026-01-11 00:10:59.69	133.59	71.17	-31.9	-32.8	25.3	0.00e+00	123	30	0	1184890880	36	6097
2026-01-11 00:11:00.67	133.02	71.60	-31.9	-32.8	25.4	0.00e+00	123	30	0	1186988032	36	6082
2026-01-11 00:11:01.65	132.42	72.02	-31.8	-32.7	25.6	0.00e+00	123	30	0	1190133760	36	6011
2026-01-11 00:11:02.63	131.80	72.45	-31.7	-32.5	25.6	0.00e+00	123	30	0	1193279488	36	5909
2026-01-11 00:11:03.61	131.13	72.88	-31.7	-32.5	25.6	0.00e+00	121	30	0	1196425216	36	5912
2026-01-11 00:11:04.58	130.44	73.30	-31.7	-32.5	25.7	0.00e+00	121	30	0	1199570944	36	5905
2026-01-11 00:11:05.56	129.71	73.72	-31.8	-32.6	25.5	0.00e+00	120	30	0	1202716672	36	5952
2026-01-11 00:11:06.54	128.93	74.15	-31.7	-32.5	25.6	0.00e+00	122	30	0	1205862400	36	5924
2026-01-11 00:11:07.51	128.12	74.56	-32.0	-32.8	25.5	0.00e+00	121	30	0	1209008128	36	6093
2026-01-11 00:11:08.50	127.24	74.99	-32.1	-32.9	25.3	0.00e+00	123	30	0	1212153856	36	6199
2026-01-11 00:11:09.47	126.33	75.40	-32.4	-33.3	24.8	0.00e+00	121	30	0	1215299584	36	6432
2026-01-11 00:11:10.45	125.36	75.82	-31.9	-32.7	25.0	0.00e+00	121	30	0	1218445312	36	6054
2026-01-11 00:11:11.42	124.33	76.23	-32.0	-32.8	25.2	0.00e+00	122	30	0	1221591040	36	6127
2026-01-11 00:11:12.40	123.22	76.64	-32.0	-32.9	25.1	0.00e+00	123	30	0	1223688192	36	6180
2026-01-11 00:11:13.38	122.05	77.04	-32.1	-32.9	25.3	0.00e+00	122	30	0	1226833920	36	6203
2026-01-11 00:11:14.35	120.81	77.44	-32.2	-33.1	24.9	0.00e+00	125	30	0	1229979648	36	6313
2026-01-11 00:11:15.34	119.46	77.84	-32.0	-32.9	25.3	0.00e+00	121	30	0	1233125376	36	6136
2026-01-11 00:11:16.31	118.05	78.22	-32.0	-32.8	25.6	0.00e+00	121	30	0	1236271104	36	6121
2026-01-11 00:11:17.29	116.52	78.60	-31.9	-32.8	25.6	0.00e+00	123	30	0	1239416832	36	6072
2026-01-11 00:11:18.27	114.88	78.98	-32.0	-32.8	25.4	0.00e+00	123	30	0	1242562560	36	6093
2026-01-11 00:11:19.24	113.15	79.34	-32.2	-33.1	25.3	0.00e+00	124	30	0	1245708288	36	6324
2026-01-11 00:11:20.23	111.26	79.70	-32.5	-33.3	25.2	0.00e+00	123	30	0	1248854016	36	6487
2026-01-11 00:11:21.20	109.27	80.04	-32.2	-33.0	25.5	0.00e+00	124	30	0	1251999744	36	6277
2026-01-11 00:11:22.18	107.11	80.37	-31.8	-32.6	25.7	0.00e+00	123	30	0	1255145472	36	5971
2026-01-11 00:11:23.15	104.83	80.69	-31.8	-32.6	25.5	0.00e+00	124	30	0	1258291200	36	5965
2026-01-11 00:11:24.13	102.36	80.99	-32.3	-33.2	25.1	0.00e+00	124	30	0	1260388352	36	6390
2026-01-11 00:11:25.11	99.72	81.28	-32.1	-32.9	25.3	0.00e+00	123	30	0	1263534080	36	6173
2026-01-11 00:11:26.09	96.91	81.55	-32.2	-33.1	25.3	0.00e+00	125	30	0	1266679808	36	6323
2026-01-11 00:11:27.07	93.92	81.79	-32.3	-33.1	25.3	0.00e+00	123	30	0	1269825536	36	6326
2026-01-11 00:11:28.04	90.78	82.01	-32.2	-33.0	25.2	0.00e+00	123	30	0	1272971264	36	6271
2026-01-11 00:11:29.02	87.44	82.21	-32.3	-33.1	25.0	0.00e+00	123	30	0	1276116992	36	6329
2026-01-11 00:11:29.99	83.97	82.38	-32.2	-33.1	25.3	0.00e+00	122	30	0	1279262720	36	6278
2026-01-11 00:11:30.98	80.28	82.52	-32.2	-33.1	25.4	0.00e+00	124	30	0	1282408448	36	6312
2026-01-11 00:11:31.96	76.50	82.63	-32.4	-33.3	25.2	0.00e+00	122	30	0	1285554176	36	6456
2026-01-11 00:11:32.94	72.63	82.71	-32.5	-33.4	25.1	0.00e+00	122	30	0	1288699904	36	6527
2026-01-11 00:11:33.92	68.69	82.75	-32.6	-33.4	25.1	0.00e+00	122	30	0	1291845632	36	6566
2026-01-11 00:11:34.90	64.72	82.76	-32.7	-33.5	25.1	0.00e+00	122	30	0	1294991360	36	6627
2026-01-11 00:11:35.88	60.77	82.73	-32.5	-33.4	25.2	0.00e+00	123	30	0	1298137088	38	5808
2026-01-11 00:11:36.85	56.90	82.67	-32.9	-33.7	25.0	0.00e+00	120	30	0	1300234240	38	6049
2026-01-11 00:11:37.83	53.07	82.58	-32.7	-33.6	24.9	0.00e+00	121	30	0	1303379968	38	5962
2026-01-11 00:11:38.81	49.35	82.46	-32.8	-33.7	25.0	0.00e+00	123	30	0	1306525696	38	6004
2026-01-11 00:11:39.79	45.77	82.30	-32.5	-33.3	25.3	0.00e+00	124	30	0	1309671424	38	5765
2026-01-11 00:11:40.76	42.37	82.12	-32.5	-33.4	24.9	0.00e+00	124	30	0	1312817152	38	5841
2026-01-11 00:11:41.74	39.11	81.91	-32.7	-33.6	25.1	0.00e+00	120	30	0	1315962880	38	5952
2026-01-11 00:11:42.72	36.03	81.68	-32.7	-33.6	25.0	0.00e+00	122	30	0	1319108608	38	5946
2026-01-11 00:11:43.70	33.13	81.42	-32.3	-33.1	25.3	0.00e+00	120	30	0	1322254336	38	5655
2026-01-11 00:11:44.68	30.40	81.14	-31.9	-32.7	25.3	0.00e+00	122	30	0	1325400064	38	5395
2026-01-11 00:11:45.66	27.85	80.85	-32.0	-32.9	24.8	0.00e+00	121	30	0	1328545792	38	5488
2026-01-11 00:11:46.64	25.46	80.54	-32.5	-33.4	25.0	0.00e+00	122	30	0	1331691520	38	5808
2026-01-11 00:11:47.62	23.23	80.21	-32.5	-33.4	25.0	0.00e+00	124	30	0	1333788672	38	5793
2026-01-11 00:11:48.59	21.17	79.88	-33.1	-34.1	24.3	0.00e+00	123	30	0	1336934400	38	6306
2026-01-11 00:11:49.57	19.22	79.53	-33.5	-34.4	24.2	0.00e+00	119	30	0	1340080128	38	6566
2026-01-11 00:11:50.55	17.41	79.17	-32.7	-33.6	24.7	0.00e+00	123	30	0	1343225856	40	5294
2026-01-11 00:11:51.53	15.72	78.80	-32.0	-32.8	25.4	0.00e+00	120	30	0	1346371584	38	5455
2026-01-11 00:11:52.50	14.15	78.42	-31.8	-32.6	25.5	0.00e+00	121	30	0	1349517312	36	5985
2026-01-11 00:11:53.48	12.68	78.04	-32.2	-33.1	25.3	0.00e+00	122	30	0	1352663040	36	6283
2026-01-11 00:11:54.46	11.29	77.65	-32.4	-33.3	25.3	0.00e+00	121	30	0	1355808768	36	6430
2026-01-11 00:11:55.44	10.00	77.25	-32.1	-33.0	25.3	0.00e+00	124	30	0	1358954496	36	6217
2026-01-11 00:11:56.42	8.79	76.85	-32.1	-33.0	24.8	0.00e+00	123	30	0	1362100224	36	6216
2026-01-11 00:11:57.40	7.65	76.44	-31.9	-32.8	25.1	0.00e+00	120	30	0	1365245952	36	6084
2026-01-11 00:11:58.38	6.58	76.03	-31.7	-32.6	25.6	0.00e+00	124	30	0	1368391680	36	5942
2026-01-11 00:11:59.35	5.58	75.62	-31.7	-32.5	25.7	0.00e+00	123	30	0	1370488832	36	5914
2026-01-11 00:12:00.33	4.63	75.20	-32.4	-33.3	25.2	0.00e+00	123	30	0	1373634560	36	6440
2026-01-11 00:12:01.31	3.74	74.78	-32.7	-33.6	24.9	0.00e+00	121	30	0	1376780288	36	6675
2026-01-11 00:12:02.29	2.90	74.36	-32.2	-33.0	25.1	0.00e+00	124	30	0	1379926016	38	5583
2026-01-11 00:12:03.27	2.10	73.94	-31.5	-32.3	25.6	0.00e+00	121	30	0	1383071744	36	5762
2026-01-11 00:12:04.24	1.35	73.52	-30.9	-31.7	26.1	0.00e+00	121	30	0	1386217472	36	5370
2026-01-11 00:12:05.22	0.64	73.10	-31.3	-32.1	25.8	0.00e+00	120	30	0	1389363200	36	5625
2026-01-11 00:12:06.20	359.96	72.67	-32.0	-32.8	25.5	0.00e+00	121	30	0	1392508928	36	6113
2026-01-11 00:12:07.18	359.31	72.25	-32.1	-32.9	25.2	0.00e+00	122	30	0	1395654656	36	6185
2026-01-11 00:12:08.16	358.70	71.82	-32.3	-33.1	24.9	0.00e+00	123	30	0	1398800384	36	6333
2026-01-11 00:12:09.14	358.12	71.39	-31.8	-32.7	24.9	0.00e+00	121	30	0	1401946112	36	6016
2026-01-11 00:12:10.12	357.57	70.97	-31.6	-32.5	24.6	0.00e+00	122	30	0	1404043264	36	5865
2026-01-11 00:12:11.10	357.04	70.54	-30.9	-31.8	25.5	0.00e+00	123	30	0	1407188992	36	5423
2026-01-11 00:12:12.08	356.53	70.11	-31.4	-32.2	25.7	0.00e+00	122	30	0	1410334720	36	5725
2026-01-11 00:12:13.05	356.06	69.69	-32.4	-33.3	25.1	0.00e+00	122	30	0	1413480448	36	6464
2026-01-11 00:12:14.03	355.60	69.27	-33.1	-34.0	24.7	0.00e+00	123	30	0	1416626176	38	6258
2026-01-11 00:12:15.01	355.16	68.84	-33.0	-33.9	24.8	0.00e+00	123	30	0	1419771904	38	6164
2026-01-11 00:12:15.98	354.74	68.42	-32.8	-33.7	24.4	0.00e+00	125	30	0	1422917632	38	6014
2026-01-11 00:12:16.96	354.34	68.00	-32.2	-33.1	24.8	0.00e+00	124	30	0	1426063360	38	5610
2026-01-11 00:12:17.94	353.95	67.58	-31.4	-32.2	25.4	0.00e+00	120	30	0	1429209088	36	5690
2026-01-11 00:12:18.92	353.58	67.16	-31.1	-32.0	26.0	0.00e+00	121	30	0	1432354816	36	5536
2026-01-11 00:12:19.90	353.22	66.74	-31.0	-31.8	26.1	0.00e+00	121	30	0	1435500544	36	5420
2026-01-11 00:12:20.87	352.88	66.33	-31.6	-32.4	25.9	0.00e+00	120	30	0	1438646272	36	5819
2026-01-11 00:12:21.85	352.55	65.91	-32.0	-32.9	25.2	0.00e+00	123	30	0	1440743424	36	6172
2026-01-11 00:12:22.82	352.24	65.50	-32.1	-33.0	24.5	0.00e+00	123	30	0	1443889152	36	6265
2026-01-11 00:12:23.80	351.93	65.09	-31.7	-32.6	24.8	0.00e+00	122	30	0	1447034880	36	5936
2026-01-11 00:12:24.78	351.64	64.68	-31.2	-32.0	25.8	0.00e+00	123	30	0	1450180608	36	5541
2026-01-11 00:12:25.75	351.36	64.27	-30.6	-31.4	26.4	0.00e+00	123	30	0	1453326336	34	5810
2026-01-11 00:12:26.72	351.08	63.87	-30.5	-31.3	26.4	0.00e+00	122	30	0	1456472064	34	5763
2026-01-11 00:12:27.70	350.82	63.46	-31.2	-32.0	26.0	0.00e+00	123	30	0	1459617792	34	6260
2026-01-11 00:12:28.68	350.56	63.05	-31.9	-32.7	25.7	0.00e+00	123	30	0	1462763520	36	6019
2026-01-11 00:12:29.66	350.32	62.65	-32.7	-33.5	25.0	0.00e+00	123	30	0	1465909248	36	6633
2026-01-11 00:12:30.64	350.08	62.25	-33.2	-34.1	24.3	0.00e+00	123	30	0	1469054976	38	6349
2026-01-11 00:12:31.62	349.85	61.85	-32.9	-33.8	23.9	0.00e+00	123	30	0	1472200704	38	6107
2026-01-11 00:12:32.60	349.63	61.45	-32.0	-32.9	24.5	0.00e+00	122	30	0	1474297856	38	5486
2026-01-11 00:12:33.57	349.41	61.06	-31.9	-32.8	24.9	0.00e+00	124	30	0	1477443584	38	5427
2026-01-11 00:12:34.55	349.20	60.67	-31.3	-32.1	25.9	0.00e+00	122	30	0	1480589312	36	5617
2026-01-11 00:12:35.53	349.00	60.28	-31.1	-31.9	26.1	0.00e+00	122	30	0	1483735040	36	5489
2026-01-11 00:12:36.51	348.80	59.89	-31.5	-32.4	25.8	0.00e+00	123	30	0	1486880768	36	5821
2026-01-11 00:12:37.49	348.61	59.50	-32.0	-32.9	25.2	0.00e+00	123	30	0	1490026496	36	6159
2026-01-11 00:12:38.47	348.43	59.12	-32.3	-33.1	25.2	0.00e+00	121	30	0	1493172224	36	6332
2026-01-11 00:12:39.44	348.25	58.74	-32.8	-33.6	24.9	0.00e+00	121	30	0	1496317952	38	5983
2026-01-11 00:12:40.42	348.08	58.36	-33.2	-34.1	24.6	0.00e+00	122	30	0	1499463680	38	6330
2026-01-11 00:12:41.40	347.91	57.98	-33.0	-33.9	24.3	0.00e+00	123	30	0	1502609408	38	6171
2026-01-11 00:12:42.38	347.74	57.61	-33.0	-33.9	24.2	0.00e+00	122	30	0	1505755136	38	6159
2026-01-11 00:12:43.35	347.58	57.24	-32.3	-33.2	24.7	0.00e+00	123	30	0	1508900864	38	5695
2026-01-11 00:12:44.34	347.43	56.86	-32.0	-32.8	25.2	0.00e+00	123	30	0	1512046592	38	5459
2026-01-11 00:12:45.32	347.27	56.49	-32.2	-33.1	25.2	0.00e+00	121	30	0	1514143744	38	5618
2026-01-11 00:12:46.30	347.13	56.12	-32.8	-33.7	24.9	0.00e+00	123	30	0	1517289472	38	6028
2026-01-11 00:12:47.27	346.99	55.76	-33.9	-34.8	24.2	0.00e+00	124	30	0	1520435200	40	6093
2026-01-11 00:12:48.25	346.85	55.40	-34.6	-35.5	23.5	0.00e+00	121	30	0	1523580928	40	6647
2026-01-11 00:12:49.23	346.71	55.04	-34.9	-35.9	23.4	0.00e+00	121	30	0	1526726656	42	6144
2026-01-11 00:12:50.21	346.58	54.68	-35.0	-36.0	23.2	0.00e+00	125	30	0	1529872384	42	6244
2026-01-11 00:12:51.18	346.45	54.33	-34.9	-35.8	23.2	0.00e+00	122	30	0	1533018112	42	6123
2026-01-11 00:12:52.16	346.32	53.98	-34.7	-35.7	23.0	0.00e+00	122	30	0	1536163840	42	6025
2026-01-11 00:12:53.13	346.20	53.63	-34.4	-35.4	22.9	0.00e+00	123	30	0	1539309568	42	5807
2026-01-11 00:12:54.11	346.08	53.28	-34.2	-35.2	22.8	0.00e+00	122	30	0	1542455296	42	5710
2026-01-11 00:12:55.09	345.96	52.93	-33.6	-34.6	23.4	0.00e+00	124	30	0	1545601024	40	5956
2026-01-11 00:12:56.07	345.85	52.59	-33.3	-34.2	24.2	0.00e+00	123	30	0	1547698176	40	5694
2026-01-11 00:12:57.04	345.74	52.25	-33.5	-34.4	24.4	0.00e+00	123	30	0	1550843904	40	5825
2026-01-11 00:12:58.02	345.63	51.91	-34.0	-34.9	23.9	0.00e+00	124	30	0	1553989632	40	6200
2026-01-11 00:12:58.99	345.53	51.58	-34.9	-35.9	23.2	0.00e+00	123	30	0	1557135360	42	6138
2026-01-11 00:12:59.97	345.42	51.24	-35.7	-36.7	22.7	0.00e+00	121	30	0	1560281088	42	6747
2026-01-11 00:13:00.95	345.32	50.91	-35.5	-36.5	22.8	0.00e+00	124	30	0	1563426816	44	5861
2026-01-11 00:13:01.93	345.22	50.58	-35.3	-36.2	22.9	0.00e+00	121	30	0	1566572544	44	5722
2026-01-11 00:13:02.90	345.13	50.25	-35.4	-36.4	22.9	0.00e+00	121	30	0	1569718272	44	5834
2026-01-11 00:13:03.88	345.03	49.93	-35.6	-36.6	22.7	0.00e+00	120	30	0	1572864000	44	5929
2026-01-11 00:13:04.86	344.94	49.60	-35.9	-36.9	22.4	0.00e+00	124	30	0	1576009728	44	6201
2026-01-11 00:13:05.83	344.85	49.28	-35.9	-36.9	22.3	0.00e+00	123	30	0	1579155456	44	6204
2026-01-11 00:13:06.81	344.76	48.96	-36.1	-37.1	22.0	0.00e+00	124	30	0	1581252608	44	6317
2026-01-11 00:13:07.78	344.67	48.65	-35.7	-36.7	22.1	0.00e+00	121	30	0	1584398336	44	6053
2026-01-11 00:13:08.76	344.59	48.33	-35.3	-36.3	22.4	0.00e+00	121	30	0	1587544064	44	5771
2026-01-11 00:13:09.74	344.51	48.02	-34.9	-35.9	22.9	0.00e+00	123	30	0	1590689792	44	5498
2026-01-11 00:13:10.72	344.42	47.71	-34.5	-35.4	23.6	0.00e+00	122	30	0	1593835520	42	5846
2026-01-11 00:13:11.69	344.35	47.40	-34.6	-35.5	23.5	0.00e+00	122	30	0	1596981248	42	5902
2026-01-11 00:13:12.67	344.27	47.10	-35.1	-36.0	23.2	0.00e+00	121	30	0	1600126976	42	6277
2026-01-11 00:13:13.65	344.19	46.79	-35.7	-36.7	22.6	0.00e+00	122	30	0	1603272704	42	6804
2026-01-11 00:13:14.63	344.12	46.49	-35.9	-37.0	22.4	0.00e+00	121	30	0	1606418432	44	6215
2026-01-11 00:13:15.61	344.04	46.19	-36.2	-37.3	22.1	0.00e+00	122	30	0	1609564160	44	6437
2026-01-11 00:13:16.58	343.97	45.90	-36.4	-37.4	21.7	0.00e+00	125	30	0	1612709888	44	6573
2026-01-11 00:13:17.56	343.90	45.60	-36.7	-37.8	21.4	0.00e+00	122	30	0	1614807040	44	6819
2026-01-11 00:13:18.54	343.83	45.31	-36.7	-37.8	21.7	0.00e+00	122	30	0	1617952768	46	6082
2026-01-11 00:13:19.51	343.76	45.02	-36.7	-37.8	21.7	0.00e+00	123	30	0	1621098496	46	6077
2026-01-11 00:13:20.49	343.70	44.73	-36.8	-37.9	21.5	0.00e+00	124	30	0	1624244224	46	6205
2026-01-11 00:13:21.47	343.63	44.44	-37.1	-38.3	21.2	0.00e+00	123	30	0	1627389952	46	6475
2026-01-11 00:13:22.45	343.57	44.16	-37.1	-38.3	21.2	0.00e+00	118	30	0	1630535680	46	6459
2026-01-11 00:13:23.43	343.50	43.87	-36.9	-38.0	21.3	0.00e+00	121	30	0	1633681408	46	6244
2026-01-11 00:13:24.40	343.44	43.60	-36.3	-37.4	21.7	0.00e+00	122	30	0	1636827136	46	5841
2026-01-11 00:13:25.38	343.38	43.32	-35.5	-36.6	22.3	0.00e+00	122	30	0	1639972864	44	5955
2026-01-11 00:13:26.36	343.32	43.04	-35.1	-36.1	22.7	0.00e+00	124	30	0	1643118592	44	5655
2026-01-11 00:13:27.33	343.26	42.77	-34.8	-35.8	22.8	0.00e+00	121	30	0	1646264320	44	5408
2026-01-11 00:13:28.31	343.21	42.49	-34.3	-35.2	23.7	0.00e+00	121	30	0	1648361472	42	5712
2026-01-11 00:13:29.29	343.15	42.22	-34.7	-35.6	23.5	0.00e+00	121	30	0	1651507200	42	5956
2026-01-11 00:13:30.26	343.10	41.95	-35.2	-36.1	23.2	0.00e+00	121	30	0	1654652928	42	6329
2026-01-11 00:13:31.24	343.04	41.69	-35.4	-36.3	22.9	0.00e+00	122	30	0	1657798656	42	6495
2026-01-11 00:13:32.22	342.99	41.42	-36.1	-37.1	22.3	0.00e+00	123	30	0	1660944384	44	6342
2026-01-11 00:13:33.20	342.94	41.16	-36.6	-37.7	21.7	0.00e+00	123	30	0	1664090112	44	6798
2026-01-11 00:13:34.17	342.88	40.90	-36.9	-38.0	21.5	0.00e+00	122	30	0	1667235840	46	6271
2026-01-11 00:13:35.15	342.83	40.64	-37.1	-38.2	21.2	0.00e+00	121	30	0	1670381568	46	6390
2026-01-11 00:13:36.13	342.78	40.38	-36.7	-37.8	21.7	0.00e+00	125	30	0	1673527296	46	6116
2026-01-11 00:13:37.10	342.74	40.13	-36.6	-37.7	21.9	0.00e+00	121	30	0	1676673024	46	6017
2026-01-11 00:13:38.08	342.69	39.87	-35.9	-36.9	22.4	0.00e+00	122	30	0	1679818752	46	5499
2026-01-11 00:13:39.06	342.64	39.62	-35.6	-36.6	22.7	0.00e+00	122	30	0	1682964480	46	5330
2026-01-11 00:13:40.04	342.59	39.37	-35.7	-36.7	22.6	0.00e+00	126	30	0	1686110208	44	6030
2026-01-11 00:13:41.02	342.55	39.12	-35.5	-36.4	22.8	0.00e+00	122	30	0	1688207360	44	5846
2026-01-11 00:13:42.00	342.50	38.87	-35.5	-36.4	22.8	0.00e+00	124	30	0	1691353088	44	5848
2026-01-11 00:13:42.97	342.46	38.63	-35.5	-36.4	22.8	0.00e+00	123	30	0	1694498816	44	5855
2026-01-11 00:13:43.95	342.41	38.38	-35.4	-36.4	22.9	0.00e+00	121	30	0	1697644544	44	5792
2026-01-11 00:13:44.93	342.37	38.14	-35.3	-36.3	22.9	0.00e+00	123	30	0	1700790272	44	5738
2026-01-11 00:13:45.91	342.33	37.90	-35.2	-36.2	23.0	0.00e+00	125	30	0	1703936000	44	5664
2026-01-11 00:13:46.89	342.29	37.66	-34.8	-35.8	23.2	0.00e+00	119	30	0	1707081728	44	5432
2026-01-11 00:13:47.87	342.25	37.43	-34.7	-35.7	23.3	0.00e+00	122	30	0	1710227456	42	6042
2026-01-11 00:13:48.85	342.21	37.19	-34.6	-35.6	23.4	0.00e+00	122	30	0	1713373184	42	5955
2026-01-11 00:13:49.83	342.17	36.96	-34.5	-35.5	23.4	0.00e+00	120	30	0	1716518912	42	5886
2026-01-11 00:13:50.81	342.13	36.73	-34.8	-35.7	23.2	0.00e+00	123	30	0	1719664640	42	6063
2026-01-11 00:13:51.78	342.09	36.50	-34.9	-35.9	23.2	0.00e+00	121	30	0	1722810368	42	6168
2026-01-11 00:13:52.76	342.05	36.27	-34.9	-35.9	23.3	0.00e+00	121	30	0	1724907520	42	6168
2026-01-11 00:13:53.74	342.01	36.04	-34.5	-35.5	23.3	0.00e+00	123	30	0	1728053248	42	5882
2026-01-11 00:13:54.71	341.98	35.82	-34.4	-35.4	23.6	0.00e+00	121	30	0	1731198976	42	5806
2026-01-11 00:13:55.70	341.94	35.59	-34.4	-35.3	23.5	0.00e+00	125	30	0	1734344704	42	5767
2026-01-11 00:13:56.67	341.91	35.37	-34.3	-35.3	23.4	0.00e+00	123	30	0	1737490432	42	5765
2026-01-11 00:13:57.65	341.87	35.15	-34.3	-35.2	23.5	0.00e+00	121	30	0	1740636160	42	5711
2026-01-11 00:13:58.63	341.84	34.93	-34.0	-35.0	23.7	0.00e+00	122	30	0	1743781888	42	5543
2026-01-11 00:13:59.61	341.80	34.71	-34.0	-34.9	23.8	0.00e+00	120	30	0	1746927616	42	5521
2026-01-11 00:14:00.59	341.77	34.50	-34.0	-34.9	23.9	0.00e+00	122	30	0	1750073344	42	5473
2026-01-11 00:14:01.56	341.74	34.28	-33.9	-34.8	23.8	0.00e+00	123	30	0	1753219072	42	5467
2026-01-11 00:14:02.54	341.70	34.07	-33.7	-34.7	23.9	0.00e+00	118	30	0	1756364800	40	6003
2026-01-11 00:14:03.52	341.67	33.86	-33.6	-34.5	24.1	0.00e+00	122	30	0	1759510528	40	5897
2026-01-11 00:14:04.49	341.64	33.65	-33.7	-34.6	24.1	0.00e+00	125	30	0	1761607680	40	5948
2026-01-11 00:14:05.47	341.61	33.44	-33.6	-34.4	24.3	0.00e+00	122	30	0	1764753408	40	5851
2026-01-11 00:14:06.45	341.58	33.23	-33.6	-34.5	24.4	0.00e+00	122	30	0	1767899136	40	5864
2026-01-11 00:14:07.43	341.55	33.02	-33.4	-34.3	24.4	0.00e+00	123	30	0	1771044864	40	5782
2026-01-11 00:14:08.41	341.52	32.82	-33.3	-34.2	24.6	0.00e+00	121	30	0	1774190592	40	5686
2026-01-11 00:14:09.39	341.49	32.62	-33.5	-34.3	24.4	0.00e+00	123	30	0	1777336320	40	5782
2026-01-11 00:14:10.36	341.46	32.42	-33.5	-34.4	24.3	0.00e+00	121	30	0	1780482048	40	5856
2026-01-11 00:14:11.34	341.43	32.22	-33.7	-34.6	24.3	0.00e+00	123	30	0	1783627776	40	5987
2026-01-11 00:14:12.32	341.40	32.02	-33.5	-34.4	24.5	0.00e+00	122	30	0	1786773504	40	5819
2026-01-11 00:14:13.30	341.37	31.82	-33.7	-34.6	24.2	0.00e+00	122	30	0	1789919232	40	5978
2026-01-11 00:14:14.27	341.35	31.62	-33.7	-34.6	24.3	0.00e+00	123	30	0	1793064960	40	5929
2026-01-11 00:14:15.25	341.32	31.43	-33.6	-34.5	24.4	0.00e+00	122	30	0	1795162112	40	5877
2026-01-11 00:14:16.23	341.29	31.23	-33.5	-34.4	24.4	0.00e+00	122	31	0	1798307840	40	5853
2026-01-11 00:14:17.21	341.27	31.04	-33.5	-34.4	24.3	0.00e+00	120	30	0	1801453568	40	5841
2026-01-11 00:14:18.19	341.24	30.85	-33.5	-34.4	24.4	0.00e+00	120	30	0	1804599296	40	5846
2026-01-11 00:14:19.17	341.21	30.66	-33.6	-34.5	24.3	0.00e+00	122	30	0	1807745024	40	5865
2026-01-11 00:14:20.14	341.19	30.47	-33.6	-34.5	24.3	0.00e+00	122	31	0	1810890752	40	5906
2026-01-11 00:14:21.11	341.16	30.28	-33.6	-34.5	24.2	0.00e+00	123	31	0	1814036480	40	5865
2026-01-11 00:14:22.09	341.14	30.10	-33.8	-34.7	24.0	0.00e+00	121	30	0	1817182208	40	6010
2026-01-11 00:14:23.06	341.12	29.91	-33.7	-34.6	24.1	0.00e+00	120	30	0	1820327936	40	5986
2026-01-11 00:14:24.04	341.09	29.73	-33.6	-34.5	24.1	0.00e+00	123	31	0	1823473664	40	5895
2026-01-11 00:14:25.02	341.07	29.54	-33.6	-34.6	24.1	0.00e+00	124	30	0	1826619392	40	5946
2026-01-11 00:14:26.00	341.04	29.36	-33.4	-34.3	24.2	0.00e+00	120	30	0	1828716544	40	5783
2026-01-11 00:14:26.98	341.02	29.18	-33.5	-34.4	24.1	0.00e+00	121	30	0	1831862272	40	5845
2026-01-11 00:14:27.95	341.00	29.00	-33.4	-34.3	24.1	0.00e+00	124	30	0	1835008000	40	5747
2026-01-11 00:14:28.93	340.98	28.82	-33.4	-34.4	24.0	0.00e+00	125	30	0	1838153728	40	5799
2026-01-11 00:14:29.90	340.95	28.65	-33.3	-34.2	23.9	0.00e+00	123	31	0	1841299456	40	5716
2026-01-11 00:14:30.87	340.93	28.47	-33.0	-33.9	24.0	0.00e+00	122	30	0	1844445184	40	5519
2026-01-11 00:14:31.86	340.91	28.30	-32.9	-33.8	24.0	0.00e+00	122	30	0	1847590912	40	5434
2026-01-11 00:14:32.83	340.89	28.12	-33.0	-33.9	23.9	0.00e+00	123	30	0	1850736640	40	5495
2026-01-11 00:14:33.81	340.87	27.95	-32.9	-33.9	23.8	0.00e+00	121	30	0	1853882368	40	5473
2026-01-11 00:14:34.79	340.85	27.78	-33.1	-34.0	23.7	0.00e+00	122	30	0	1857028096	40	5575
2026-01-11 00:14:35.77	340.83	27.61	-33.0	-33.9	23.7	0.00e+00	123	30	0	1859125248	40	5526
2026-01-11 00:14:36.74	340.81	27.44	-32.9	-33.8	23.6	0.00e+00	121	30	0	1862270976	40	5464
2026-01-11 00:14:37.73	340.79	27.27	-33.0	-33.9	23.5	0.00e+00	121	30	0	1865416704	40	5528
2026-01-11 00:14:38.70	340.77	27.10	-32.9	-33.9	23.6	0.00e+00	123	30	0	1868562432	40	5494
2026-01-11 00:14:39.67	340.75	26.94	-33.0	-33.9	23.6	0.00e+00	122	30	0	1871708160	40	5527
2026-01-11 00:14:40.65	340.73	26.77	-33.0	-34.0	23.5	0.00e+00	120	31	0	1874853888	40	5534
2026-01-11 00:14:41.63	340.71	26.61	-33.0	-34.0	23.5	0.00e+00	121	30	0	1877999616	40	5540
2026-01-11 00:14:42.61	340.69	26.44	-33.0	-33.9	23.7	0.00e+00	122	30	0	1881145344	40	5506
2026-01-11 00:14:43.58	340.67	26.28	-33.0	-34.0	23.7	0.00e+00	119	30	0	1884291072	40	5560
2026-01-11 00:14:44.56	340.65	26.12	-33.1	-34.0	23.8	0.00e+00	123	30	0	1887436800	40	5579
2026-01-11 00:14:45.54	340.64	25.96	-32.8	-33.8	24.0	0.00e+00	122	30	0	1890582528	40	5417
2026-01-11 00:14:46.51	340.62	25.80	-32.8	-33.7	24.1	0.00e+00	122	30	0	1893728256	38	6050
2026-01-11 00:14:47.49	340.60	25.64	-32.9	-33.9	24.0	0.00e+00	122	30	0	1896873984	38	6138
2026-01-11 00:14:48.47	340.58	25.48	-32.8	-33.7	24.1	0.00e+00	123	31	0	1898971136	38	6055
2026-01-11 00:14:49.45	340.57	25.33	-32.6	-33.5	24.4	0.00e+00	123	30	0	1902116864	38	5860
