passes_logs/2026/01/11/R4.6S_Anadyr/R4.6S_Anadyr__20260111_011307_AQUA_rec.log

#Pass ID: 20260111_011307_AQUA
#Satellite: AQUA
#Configuration: AQUA
#almurnet v.1.7.20251203
#Start time: 2026-01-11 01:13:09

#Version: 2.2.20231116
#Station: R4.6S_Anadyr
#Location: 177.4865 lon 64.73178 lat
#TLE: 1 27424U 02022A   26009.89520876  .00001045  00000+0  21914-3 0  9996
#TLE: 2 27424  98.4076 336.2372 0002032  84.5955   1.0356 14.61811442260144

#Time	Az	El	Level	Level2	SNR	BER	BlckErr	Temp	State	Recorded	gain1	gain2
2026-01-11 01:13:09.12	137.74	0.09	-47.9	-62.7	3.5	1.51e+00	0	27	0	0	60	49538
2026-01-11 01:13:10.12	137.72	0.15	-48.2	-66.1	3.5	3.02e+01	0	28	104	0	60	78044
2026-01-11 01:13:11.13	137.70	0.21	-48.3	-66.2	3.5	3.02e+01	0	28	104	0	60	78820
2026-01-11 01:13:12.14	137.67	0.27	-48.0	-66.2	3.5	3.02e+01	0	28	104	0	60	78967
2026-01-11 01:13:13.15	137.65	0.34	-48.4	-66.2	3.5	3.02e+01	0	28	104	0	60	78886
2026-01-11 01:13:14.16	137.63	0.40	-48.3	-66.2	3.5	3.02e+01	0	28	104	0	60	78697
2026-01-11 01:13:15.17	137.61	0.46	-48.3	-66.2	3.5	3.02e+01	0	28	104	0	60	78452
2026-01-11 01:13:16.18	137.58	0.52	-48.3	-66.2	3.5	3.02e+01	0	28	104	0	60	78705
2026-01-11 01:13:17.19	137.56	0.59	-48.2	-66.1	3.5	3.02e+01	0	28	104	0	60	77531
2026-01-11 01:13:18.20	137.54	0.65	-47.8	-66.0	3.5	3.02e+01	0	28	104	0	60	76947
2026-01-11 01:13:19.21	137.51	0.71	-48.1	-65.9	3.5	3.02e+01	0	28	104	0	60	75885
2026-01-11 01:13:20.21	137.49	0.78	-48.0	-65.8	3.5	3.02e+01	0	28	104	0	60	74947
2026-01-11 01:13:21.22	137.47	0.84	-47.8	-65.7	3.5	3.02e+01	0	28	104	0	60	74181
2026-01-11 01:13:22.23	137.44	0.90	-47.7	-65.6	3.5	3.02e+01	0	28	104	0	60	73192
2026-01-11 01:13:23.25	137.42	0.97	-47.5	-65.3	3.5	3.02e+01	0	28	104	0	60	71169
2026-01-11 01:13:24.25	137.40	1.03	-47.0	-65.1	3.5	3.02e+01	0	28	104	0	60	69331
2026-01-11 01:13:25.27	137.37	1.10	-46.8	-64.1	3.5	3.02e+01	0	28	104	0	60	61832
2026-01-11 01:13:26.28	137.35	1.16	-46.7	-64.2	3.5	3.02e+01	0	28	104	0	60	62300
2026-01-11 01:13:27.29	137.32	1.22	-46.7	-64.5	3.5	3.02e+01	0	28	104	0	60	64497
2026-01-11 01:13:28.30	137.30	1.29	-46.7	-64.6	3.5	3.02e+01	0	28	104	0	60	65229
2026-01-11 01:13:29.31	137.27	1.35	-46.7	-64.6	3.5	3.02e+01	0	28	104	0	60	65035
2026-01-11 01:13:30.32	137.25	1.42	-46.7	-64.6	3.5	3.02e+01	0	28	104	0	60	65136
2026-01-11 01:13:31.33	137.22	1.48	-46.7	-64.5	3.5	3.02e+01	0	28	104	0	60	64546
2026-01-11 01:13:32.34	137.20	1.55	-46.7	-64.4	3.5	3.02e+01	0	28	104	0	60	63539
2026-01-11 01:13:33.35	137.17	1.61	-46.7	-64.3	3.5	3.02e+01	0	28	104	0	60	63339
2026-01-11 01:13:34.36	137.15	1.68	-46.7	-64.4	3.5	3.02e+01	0	28	104	0	60	63791
2026-01-11 01:13:35.36	137.12	1.74	-46.7	-64.3	3.5	3.02e+01	0	28	104	0	60	63061
2026-01-11 01:13:36.37	137.10	1.81	-46.7	-64.4	3.5	3.02e+01	0	28	104	0	60	63918
2026-01-11 01:13:37.38	137.07	1.88	-46.7	-64.6	3.5	3.02e+01	0	28	104	0	60	65075
2026-01-11 01:13:38.39	137.05	1.94	-46.7	-64.6	3.5	3.02e+01	0	28	104	0	60	65041
2026-01-11 01:13:39.40	137.02	2.01	-46.7	-64.3	3.5	3.02e+01	0	28	104	0	60	62943
2026-01-11 01:13:40.40	137.00	2.07	-46.7	-63.8	3.5	3.02e+01	0	28	104	0	60	59524
2026-01-11 01:13:41.41	136.97	2.14	-46.7	-63.4	3.5	3.02e+01	0	28	104	0	60	57047
2026-01-11 01:13:42.43	136.94	2.21	-46.7	-63.3	3.5	3.02e+01	0	28	104	0	60	56382
2026-01-11 01:13:43.44	136.92	2.27	-46.7	-63.4	3.5	3.02e+01	0	28	104	0	60	56664
2026-01-11 01:13:44.45	136.89	2.34	-46.7	-63.7	3.5	3.02e+01	0	28	104	0	60	59184
2026-01-11 01:13:45.46	136.86	2.41	-46.7	-64.2	3.5	3.02e+01	0	28	104	0	60	62068
2026-01-11 01:13:46.47	136.84	2.48	-46.7	-64.4	3.5	3.02e+01	0	28	104	0	60	64209
2026-01-11 01:13:47.47	136.81	2.54	-46.7	-64.6	3.5	3.02e+01	0	28	104	0	60	65032
2026-01-11 01:13:48.48	136.78	2.61	-46.7	-64.3	3.5	3.02e+01	0	28	104	0	60	63144
2026-01-11 01:13:49.50	136.75	2.68	-46.7	-63.9	3.5	3.02e+01	0	28	104	0	60	60286
2026-01-11 01:13:50.51	136.73	2.75	-46.7	-63.5	3.5	3.02e+01	0	28	104	0	60	57345
2026-01-11 01:13:51.52	136.70	2.82	-46.7	-62.9	3.5	3.02e+01	0	28	104	0	60	53883
2026-01-11 01:13:52.53	136.67	2.88	-46.6	-62.0	3.8	3.02e+01	0	28	104	0	60	48439
2026-01-11 01:13:53.54	136.64	2.95	-46.6	-61.0	4.2	3.02e+01	0	28	104	0	60	43129
2026-01-11 01:13:54.55	136.62	3.02	-46.6	-60.7	3.7	3.02e+01	0	28	104	0	60	41887
2026-01-11 01:13:55.56	136.59	3.09	-46.6	-60.5	4.4	3.02e+01	0	28	104	0	60	40942
2026-01-11 01:13:56.56	136.56	3.16	-46.6	-61.7	4.0	3.02e+01	0	28	104	0	60	46858
2026-01-11 01:13:57.57	136.53	3.23	-46.7	-63.6	3.5	3.02e+01	0	28	104	0	60	58541
2026-01-11 01:13:58.58	136.50	3.30	-46.7	-62.7	3.6	3.02e+01	0	28	104	0	60	52269
2026-01-11 01:13:59.59	136.47	3.37	-46.3	-57.2	7.5	3.02e+01	92	28	0	0	60	28015
2026-01-11 01:14:00.60	136.44	3.44	-45.4	-51.8	12.1	3.02e+01	91	28	0	1572864	60	14979
2026-01-11 01:14:01.61	136.41	3.51	-44.2	-48.5	15.9	3.02e+01	89	28	0	3670016	60	10216
2026-01-11 01:14:02.62	136.38	3.58	-42.7	-45.8	18.3	3.02e+01	91	28	0	5242880	60	7517
2026-01-11 01:14:03.63	136.36	3.65	-41.2	-43.6	20.7	3.02e+01	91	28	0	7340032	58	6539
2026-01-11 01:14:04.64	136.33	3.72	-40.1	-42.2	21.9	3.02e+01	90	28	0	9437184	56	6233
2026-01-11 01:14:05.65	136.30	3.79	-39.7	-41.7	22.5	3.02e+01	89	28	0	11010048	54	6624
2026-01-11 01:14:06.65	136.27	3.86	-39.2	-41.1	22.9	3.02e+01	90	28	0	13107200	54	6142
2026-01-11 01:14:07.66	136.24	3.93	-42.0	-44.7	14.5	3.02e+01	91	28	0	14680064	54	9381
2026-01-11 01:14:08.67	136.20	4.00	-42.2	-45.3	20.6	3.02e+01	91	28	104	15204352	60	7048
2026-01-11 01:14:09.68	136.17	4.08	-43.1	-46.5	15.4	3.02e+01	92	28	0	16252928	52	12945
2026-01-11 01:14:10.69	136.14	4.15	-43.9	-48.3	4.9	3.02e+01	0	28	104	16777216	60	10017
2026-01-11 01:14:11.70	136.11	4.22	-37.2	-39.0	22.6	3.02e+01	92	28	104	16777216	48	6878
2026-01-11 01:14:12.71	136.08	4.29	-37.9	-39.5	24.8	3.02e+01	92	28	0	18350080	54	5109
2026-01-11 01:14:13.72	136.05	4.37	-36.5	-37.9	26.0	3.02e+01	92	28	0	19922944	48	6038
2026-01-11 01:14:14.73	136.02	4.44	-36.6	-38.0	26.0	3.02e+01	92	28	0	22020096	48	6094
2026-01-11 01:14:15.74	135.99	4.51	-36.6	-38.1	26.0	3.02e+01	90	28	0	24117248	48	6152
2026-01-11 01:14:16.75	135.95	4.58	-36.7	-38.2	25.9	3.02e+01	92	28	0	25690112	48	6229
2026-01-11 01:14:17.76	135.92	4.66	-36.5	-37.9	26.1	3.02e+01	90	28	0	27787264	48	6056
2026-01-11 01:14:18.77	135.89	4.73	-36.3	-37.7	26.3	3.02e+01	92	28	0	29360128	48	5909
2026-01-11 01:14:19.78	135.86	4.81	-36.5	-38.0	25.9	3.02e+01	92	28	0	31457280	48	6076
2026-01-11 01:14:20.79	135.82	4.88	-36.1	-37.5	26.6	3.02e+01	92	28	0	33554432	48	5787
2026-01-11 01:14:21.80	135.79	4.95	-35.9	-37.2	26.8	3.02e+01	92	28	0	35127296	46	6266
2026-01-11 01:14:22.81	135.76	5.03	-36.0	-37.4	26.8	3.02e+01	90	28	0	37224448	46	6363
2026-01-11 01:14:23.82	135.72	5.10	-36.1	-37.5	26.6	3.02e+01	92	28	0	39321600	46	6477
2026-01-11 01:14:24.83	135.69	5.18	-35.5	-36.9	27.2	3.02e+01	90	28	0	40894464	46	6002
2026-01-11 01:14:25.84	135.66	5.25	-35.6	-37.0	27.1	3.02e+01	90	28	0	42991616	46	6078
2026-01-11 01:14:26.84	135.62	5.33	-35.3	-36.6	27.4	3.02e+01	92	28	0	44564480	46	5849
2026-01-11 01:14:27.86	135.59	5.40	-35.3	-36.7	27.4	3.02e+01	90	28	0	46661632	46	5869
2026-01-11 01:14:28.86	135.56	5.48	-35.5	-36.8	27.3	3.02e+01	92	28	0	48758784	46	5961
2026-01-11 01:14:29.87	135.52	5.56	-35.6	-36.9	27.2	3.02e+01	92	28	0	50331648	46	6051
2026-01-11 01:14:30.88	135.49	5.63	-35.3	-36.6	27.5	3.02e+01	92	28	0	52428800	46	5799
2026-01-11 01:14:31.89	135.45	5.71	-35.4	-36.7	27.4	3.02e+01	92	28	0	54001664	46	5881
2026-01-11 01:14:32.90	135.42	5.79	-35.3	-36.6	27.5	3.02e+01	92	28	0	56098816	46	5827
2026-01-11 01:14:33.91	135.38	5.86	-35.1	-36.4	27.6	3.02e+01	92	28	0	58195968	46	5720
2026-01-11 01:14:34.92	135.34	5.94	-35.1	-36.4	27.7	3.02e+01	92	28	0	59768832	46	5663
2026-01-11 01:14:35.93	135.31	6.02	-35.2	-36.5	27.7	3.02e+01	87	28	0	61865984	46	5753
2026-01-11 01:14:36.94	135.27	6.10	-35.1	-36.4	27.7	3.02e+01	89	28	0	63963136	46	5699
2026-01-11 01:14:37.95	135.24	6.17	-35.1	-36.4	27.8	3.02e+01	89	28	0	65536000	46	5717
2026-01-11 01:14:38.96	135.20	6.25	-35.3	-36.6	27.6	3.02e+01	89	28	0	67633152	46	5816
2026-01-11 01:14:39.97	135.16	6.33	-35.2	-36.5	27.7	3.02e+01	91	28	0	69206016	46	5745
2026-01-11 01:14:40.98	135.12	6.41	-35.1	-36.4	27.8	3.02e+01	91	28	0	71303168	46	5670
2026-01-11 01:14:41.98	135.09	6.49	-35.1	-36.5	27.7	3.02e+01	90	28	0	73400320	46	5727
2026-01-11 01:14:42.99	135.05	6.57	-35.0	-36.3	27.8	3.02e+01	91	28	0	74973184	44	6325
2026-01-11 01:14:44.01	135.01	6.65	-35.1	-36.4	27.7	3.02e+01	92	28	0	77070336	44	6405
2026-01-11 01:14:45.01	134.97	6.73	-35.0	-36.3	27.9	3.02e+01	91	28	0	78643200	44	6289
2026-01-11 01:14:46.02	134.94	6.81	-35.1	-36.4	27.8	3.02e+01	92	28	0	80740352	44	6378
2026-01-11 01:14:47.04	134.90	6.89	-35.0	-36.3	27.8	3.02e+01	90	28	0	82837504	44	6339
2026-01-11 01:14:48.05	134.86	6.97	-35.0	-36.3	27.9	3.02e+01	92	28	0	84410368	44	6345
2026-01-11 01:14:49.06	134.82	7.05	-34.9	-36.2	28.0	3.02e+01	90	28	0	86507520	44	6250
2026-01-11 01:14:50.06	134.78	7.13	-34.9	-36.2	28.0	3.02e+01	90	28	0	88080384	44	6275
2026-01-11 01:14:51.07	134.74	7.21	-35.0	-36.3	27.9	3.02e+01	91	28	0	90177536	44	6292
2026-01-11 01:14:52.08	134.70	7.29	-35.4	-45.6	3.6	3.02e+01	0	28	104	90701824	44	18328
2026-01-11 01:14:53.09	134.66	7.37	-35.4	-45.6	3.6	3.02e+01	0	28	104	90701824	44	18464
2026-01-11 01:14:54.10	134.62	7.46	-35.3	-45.5	3.4	3.02e+01	0	28	104	90701824	44	18222
2026-01-11 01:14:55.11	134.58	7.54	-36.2	-46.5	3.5	3.02e+01	0	28	104	90701824	46	18258
2026-01-11 01:14:56.11	134.54	7.62	-38.9	-49.4	3.5	3.02e+01	0	28	104	90701824	50	20196
2026-01-11 01:14:57.12	134.50	7.70	-47.2	-64.9	3.5	3.02e+01	0	28	104	90701824	60	67720
2026-01-11 01:14:58.13	134.46	7.79	-47.0	-63.6	3.6	3.02e+01	0	28	104	90701824	60	58136
2026-01-11 01:14:59.14	134.42	7.87	-43.0	-54.8	3.6	3.02e+01	0	28	104	90701824	58	23618
2026-01-11 01:15:00.15	134.37	7.96	-38.2	-48.8	3.4	3.02e+01	0	28	104	90701824	52	16711
2026-01-11 01:15:01.16	134.33	8.04	-36.9	-47.2	3.6	3.02e+01	0	28	104	90701824	50	15685
2026-01-11 01:15:02.17	134.29	8.13	-35.9	-46.1	4.1	3.02e+01	0	28	104	90701824	48	15584
2026-01-11 01:15:03.18	134.25	8.21	-35.8	-46.1	3.6	3.02e+01	0	28	104	90701824	46	17456
2026-01-11 01:15:04.19	134.20	8.30	-35.0	-45.1	3.7	3.02e+01	0	28	104	90701824	46	15584
2026-01-11 01:15:05.20	134.16	8.38	-42.7	-54.1	3.4	3.02e+01	0	28	104	90701824	60	19597
2026-01-11 01:15:06.21	134.12	8.47	-47.2	-64.3	3.5	3.02e+01	0	28	104	90701824	60	62958
2026-01-11 01:15:07.22	134.07	8.55	-41.3	-52.3	4.0	3.02e+01	0	28	104	90701824	60	15809
2026-01-11 01:15:08.23	134.03	8.64	-47.2	-64.6	3.5	3.02e+01	0	28	104	90701824	60	65468
2026-01-11 01:15:09.24	133.98	8.73	-41.4	-52.3	3.6	3.02e+01	0	28	104	90701824	58	17846
2026-01-11 01:15:10.25	133.94	8.81	-41.1	-52.1	3.5	3.02e+01	0	28	104	90701824	56	19451
2026-01-11 01:15:11.25	133.89	8.90	-39.7	-50.4	3.5	3.02e+01	0	28	104	90701824	54	18065
2026-01-11 01:15:12.26	133.85	8.99	-38.5	-49.1	3.5	3.02e+01	0	28	104	90701824	52	17360
2026-01-11 01:15:13.27	133.80	9.08	-44.0	-56.2	3.5	3.02e+01	0	28	104	90701824	60	24870
2026-01-11 01:15:14.28	133.75	9.16	-46.8	-62.3	3.5	3.02e+01	0	28	104	90701824	60	50027
2026-01-11 01:15:15.29	133.71	9.25	-42.0	-53.3	3.5	3.02e+01	0	28	104	90701824	58	20054
2026-01-11 01:15:16.30	133.66	9.34	-35.9	-46.2	3.5	3.02e+01	0	28	104	90701824	46	17667
2026-01-11 01:15:17.31	133.61	9.43	-47.2	-64.6	3.5	3.02e+01	0	28	104	90701824	60	65160
2026-01-11 01:15:18.32	133.57	9.52	-37.0	-47.4	3.5	3.02e+01	0	28	104	90701824	50	16083
2026-01-11 01:15:19.33	133.52	9.61	-35.7	-46.0	3.5	3.02e+01	0	28	104	90701824	46	17201
2026-01-11 01:15:20.34	133.47	9.70	-35.1	-45.3	3.5	3.02e+01	0	28	104	90701824	46	15850
2026-01-11 01:15:21.35	133.42	9.79	-34.7	-44.9	3.5	3.02e+01	0	28	104	90701824	44	17062
2026-01-11 01:15:22.36	133.37	9.88	-39.1	-49.7	3.5	3.02e+01	0	28	104	90701824	52	18656
2026-01-11 01:15:23.37	133.32	9.98	-36.3	-46.6	3.3	3.02e+01	0	28	104	90701824	50	14708
2026-01-11 01:15:24.38	133.27	10.07	-46.7	-61.8	3.5	3.02e+01	0	28	104	90701824	60	47554
2026-01-11 01:15:25.39	133.22	10.16	-43.4	-55.4	3.6	3.02e+01	0	28	104	90701824	60	22658
2026-01-11 01:15:26.40	133.17	10.25	-40.6	-51.5	3.5	3.02e+01	0	28	104	90701824	56	18190
2026-01-11 01:15:27.41	133.12	10.35	-36.4	-46.8	3.5	3.02e+01	0	28	104	90701824	48	16722
2026-01-11 01:15:28.42	133.07	10.44	-35.4	-45.7	3.5	3.02e+01	0	28	104	90701824	46	16560
2026-01-11 01:15:29.43	133.02	10.53	-34.7	-44.9	3.5	3.02e+01	0	28	104	90701824	44	16996
2026-01-11 01:15:30.44	132.97	10.63	-34.5	-44.7	3.5	3.02e+01	0	28	104	90701824	44	16574
2026-01-11 01:15:31.45	132.92	10.72	-34.4	-44.6	3.5	3.02e+01	0	28	104	90701824	44	16359
2026-01-11 01:15:32.46	132.86	10.82	-37.1	-47.5	3.5	3.02e+01	0	28	104	90701824	52	14501
2026-01-11 01:15:33.46	132.81	10.91	-45.9	-59.7	3.5	3.02e+01	0	28	104	90701824	60	37205
2026-01-11 01:15:34.47	132.76	11.01	-35.5	-45.8	3.5	3.02e+01	0	28	104	90701824	48	14979
2026-01-11 01:15:35.48	132.70	11.10	-43.3	-55.0	3.5	3.02e+01	0	28	104	90701824	60	21622
2026-01-11 01:15:36.49	132.65	11.20	-35.7	-46.0	3.5	3.02e+01	0	28	104	90701824	46	17125
2026-01-11 01:15:37.50	132.60	11.30	-35.3	-45.6	3.5	3.02e+01	0	28	104	90701824	46	16341
2026-01-11 01:15:38.51	132.54	11.39	-34.8	-45.1	3.5	3.02e+01	0	28	104	90701824	44	17367
2026-01-11 01:15:39.52	132.48	11.49	-35.0	-45.2	3.5	3.02e+01	0	28	104	90701824	44	17692
2026-01-11 01:15:40.53	132.43	11.59	-36.4	-46.7	3.6	3.02e+01	0	28	104	90701824	50	14772
2026-01-11 01:15:41.54	132.37	11.69	-35.2	-45.5	3.5	3.02e+01	0	28	104	90701824	44	18238
2026-01-11 01:15:42.55	132.32	11.79	-46.6	-61.2	3.5	3.02e+01	0	28	104	90701824	60	44165
2026-01-11 01:15:43.56	132.26	11.89	-39.6	-50.2	3.5	3.02e+01	0	28	104	90701824	60	12482
2026-01-11 01:15:44.57	132.20	11.99	-42.4	-53.6	3.5	3.02e+01	0	28	104	90701824	60	18459
2026-01-11 01:15:45.58	132.14	12.09	-39.7	-50.3	3.5	3.02e+01	0	28	104	90701824	54	17885
2026-01-11 01:15:46.59	132.08	12.19	-37.4	-47.8	3.5	3.02e+01	0	28	104	90701824	50	16804
2026-01-11 01:15:47.59	132.03	12.29	-35.7	-46.0	3.5	3.02e+01	0	28	104	90701824	48	15400
2026-01-11 01:15:48.60	131.97	12.39	-34.2	-44.4	3.5	3.02e+01	0	28	104	90701824	44	15966
2026-01-11 01:15:49.61	131.91	12.49	-34.6	-44.8	3.5	3.02e+01	0	28	104	90701824	44	16861
2026-01-11 01:15:50.62	131.85	12.59	-35.7	-45.9	3.5	3.02e+01	0	28	104	90701824	44	19097
2026-01-11 01:15:51.63	131.79	12.69	-40.8	-51.7	3.3	3.02e+01	0	28	104	90701824	60	14755
2026-01-11 01:15:52.64	131.72	12.80	-38.0	-48.5	3.8	3.02e+01	0	28	104	90701824	44	25625
2026-01-11 01:15:53.65	131.66	12.90	-38.5	-49.0	3.5	3.02e+01	0	28	104	90701824	56	13663
2026-01-11 01:15:54.66	131.60	13.01	-35.1	-45.3	3.5	3.02e+01	0	28	104	90701824	46	15923
2026-01-11 01:15:55.67	131.54	13.11	-34.8	-45.0	3.5	3.02e+01	0	28	104	90701824	44	17218
2026-01-11 01:15:56.68	131.47	13.22	-34.1	-44.3	3.5	3.02e+01	0	28	104	90701824	44	15905
2026-01-11 01:15:57.69	131.41	13.32	-35.9	-46.2	3.5	3.02e+01	0	28	104	90701824	42	22174
2026-01-11 01:15:58.70	131.35	13.43	-39.3	-49.9	3.5	3.02e+01	0	28	104	90701824	50	21342
2026-01-11 01:15:59.71	131.28	13.53	-39.0	-49.6	3.5	3.02e+01	0	28	104	90701824	46	25881
2026-01-11 01:16:00.72	131.22	13.64	-45.9	-59.6	3.4	3.02e+01	0	28	104	90701824	60	36608
2026-01-11 01:16:01.72	131.15	13.75	-34.9	-45.0	3.5	3.02e+01	0	28	104	90701824	46	15403
2026-01-11 01:16:02.73	131.09	13.85	-36.1	-46.4	3.5	3.02e+01	0	28	104	90701824	48	16088
2026-01-11 01:16:03.75	131.02	13.96	-35.3	-45.5	3.5	3.02e+01	0	28	104	90701824	46	16173
2026-01-11 01:16:04.75	130.95	14.07	-34.6	-44.8	3.5	3.02e+01	0	28	104	90701824	44	16736
2026-01-11 01:16:05.76	130.88	14.18	-34.0	-44.1	3.5	3.02e+01	0	28	104	90701824	42	17430
2026-01-11 01:16:06.77	130.81	14.29	-34.9	-45.1	3.5	3.02e+01	0	28	104	90701824	42	19428
2026-01-11 01:16:07.78	130.75	14.40	-37.0	-47.3	3.4	3.02e+01	0	28	104	90701824	46	20068
2026-01-11 01:16:08.79	130.68	14.51	-41.6	-52.6	3.4	3.02e+01	0	28	104	90701824	48	32797
2026-01-11 01:16:09.80	130.61	14.62	-44.7	-57.2	3.5	3.02e+01	0	28	104	90701824	60	27721
2026-01-11 01:16:10.81	130.53	14.74	-42.6	-53.8	3.5	3.02e+01	0	28	104	90701824	52	30000
2026-01-11 01:16:11.82	130.46	14.85	-42.7	-53.9	3.5	3.02e+01	0	28	104	90701824	60	19170
2026-01-11 01:16:12.83	130.39	14.96	-40.3	-51.0	3.5	3.02e+01	0	28	104	90701824	54	19366
2026-01-11 01:16:13.83	130.32	15.07	-39.3	-49.9	3.5	3.02e+01	0	28	104	90701824	52	19058
2026-01-11 01:16:14.84	130.25	15.19	-38.0	-48.5	3.5	3.02e+01	0	28	104	90701824	52	16156
2026-01-11 01:16:15.85	130.17	15.30	-37.4	-47.8	3.5	3.02e+01	0	28	104	90701824	48	18885
2026-01-11 01:16:16.86	130.10	15.42	-46.4	-60.2	3.5	3.02e+01	0	28	104	90701824	60	39239
2026-01-11 01:16:17.87	130.02	15.53	-37.9	-48.3	3.5	3.02e+01	0	28	104	90701824	46	22328
2026-01-11 01:16:18.88	129.95	15.65	-47.2	-64.2	3.5	3.02e+01	0	28	104	90701824	60	62186
2026-01-11 01:16:19.89	129.87	15.77	-34.8	-45.0	3.5	3.02e+01	0	28	104	90701824	42	19352
2026-01-11 01:16:20.90	129.79	15.89	-35.0	-45.2	3.5	3.02e+01	0	28	104	90701824	46	15713
2026-01-11 01:16:21.91	129.71	16.00	-34.8	-45.0	3.5	3.02e+01	0	28	104	90701824	44	17172
2026-01-11 01:16:22.92	129.64	16.12	-34.0	-44.2	3.5	3.02e+01	0	28	104	90701824	44	15634
2026-01-11 01:16:23.93	129.56	16.24	-33.9	-44.1	3.5	3.02e+01	0	28	104	90701824	42	17408
2026-01-11 01:16:24.94	129.48	16.36	-34.0	-44.1	3.5	3.02e+01	0	28	104	90701824	42	17463
2026-01-11 01:16:25.95	129.40	16.48	-37.6	-48.1	3.5	3.02e+01	0	28	104	90701824	46	21809
2026-01-11 01:16:26.96	129.31	16.60	-47.3	-63.8	3.5	3.02e+01	0	28	104	90701824	60	59745
2026-01-11 01:16:27.97	129.23	16.72	-40.7	-51.6	3.5	3.02e+01	0	28	104	90701824	56	18381
2026-01-11 01:16:28.98	129.15	16.85	-45.6	-58.8	3.5	3.02e+01	0	28	104	90701824	58	37473
2026-01-11 01:16:29.98	129.07	16.97	-35.2	-45.5	3.5	3.02e+01	0	28	104	90701824	46	16202
2026-01-11 01:16:30.99	128.98	17.09	-34.8	-45.0	3.5	3.02e+01	0	28	104	90701824	44	17201
2026-01-11 01:16:32.00	128.90	17.22	-34.6	-44.8	3.5	3.02e+01	0	28	104	90701824	44	16870
2026-01-11 01:16:33.01	128.81	17.34	-34.6	-44.8	3.5	3.02e+01	0	28	104	90701824	44	16859
2026-01-11 01:16:34.02	128.72	17.47	-43.1	-54.9	3.6	3.02e+01	0	28	104	90701824	58	24039
2026-01-11 01:16:35.03	128.64	17.59	-38.6	-49.1	3.5	3.02e+01	0	28	104	90701824	48	21878
2026-01-11 01:16:36.04	128.55	17.72	-47.5	-65.7	3.5	3.02e+01	0	28	104	90701824	60	74087
2026-01-11 01:16:37.05	128.46	17.85	-40.9	-51.8	3.5	3.02e+01	0	28	104	90701824	56	18752
2026-01-11 01:16:38.06	128.37	17.97	-47.2	-62.7	3.5	3.02e+01	0	28	104	90701824	60	52674
2026-01-11 01:16:39.07	128.28	18.10	-37.4	-47.7	3.6	3.02e+01	0	28	104	90701824	50	16569
2026-01-11 01:16:40.08	128.19	18.23	-36.7	-47.0	3.5	3.02e+01	0	27	104	90701824	48	17200
2026-01-11 01:16:41.09	128.10	18.36	-36.7	-47.1	3.5	3.02e+01	0	28	104	90701824	48	17340
2026-01-11 01:16:42.10	128.00	18.49	-36.5	-46.8	3.5	3.02e+01	0	28	104	90701824	48	16866
2026-01-11 01:16:43.11	127.91	18.62	-35.6	-45.9	3.5	3.02e+01	0	28	104	90701824	46	16911
2026-01-11 01:16:44.12	127.81	18.76	-47.4	-63.5	3.5	3.02e+01	0	28	104	90701824	60	57653
2026-01-11 01:16:45.13	127.72	18.89	-41.8	-52.8	3.5	3.02e+01	0	27	104	90701824	56	21146
2026-01-11 01:16:46.14	127.62	19.02	-47.6	-64.2	3.5	3.02e+01	0	28	104	90701824	60	62717
2026-01-11 01:16:47.14	127.52	19.16	-37.3	-47.7	3.5	3.02e+01	0	28	104	90701824	48	18615
2026-01-11 01:16:48.15	127.42	19.29	-35.1	-45.3	3.5	3.02e+01	0	28	104	90701824	46	15866
2026-01-11 01:16:49.16	127.32	19.43	-34.7	-45.0	3.5	3.02e+01	0	28	104	90701824	44	17151
2026-01-11 01:16:50.17	127.22	19.56	-34.3	-44.5	3.5	3.02e+01	0	28	104	90701824	44	16280
2026-01-11 01:16:51.18	127.12	19.70	-33.9	-44.1	3.5	3.02e+01	0	28	104	90701824	42	17320
2026-01-11 01:16:52.19	127.02	19.84	-34.6	-44.8	3.5	3.02e+01	0	28	104	90701824	42	18899
2026-01-11 01:16:53.20	126.92	19.98	-40.7	-51.5	3.5	3.02e+01	0	28	104	90701824	58	16139
2026-01-11 01:16:54.21	126.81	20.11	-47.2	-62.4	3.5	3.02e+01	0	28	104	90701824	60	51019
2026-01-11 01:16:55.22	126.71	20.25	-47.8	-65.4	3.5	3.02e+01	0	28	104	90701824	60	71530
2026-01-11 01:16:56.23	126.60	20.40	-38.8	-49.3	3.5	3.02e+01	0	27	104	90701824	50	20051
2026-01-11 01:16:57.24	126.49	20.54	-34.5	-44.7	3.5	3.02e+01	0	27	104	90701824	44	16673
2026-01-11 01:16:58.25	126.38	20.68	-34.2	-44.4	3.6	3.02e+01	0	28	104	90701824	44	16035
2026-01-11 01:16:59.25	126.27	20.82	-34.0	-44.2	3.5	3.02e+01	0	28	104	90701824	44	15766
2026-01-11 01:17:00.26	126.16	20.96	-34.1	-44.2	3.6	3.02e+01	0	27	104	90701824	42	17627
2026-01-11 01:17:01.27	126.05	21.11	-38.6	-49.1	3.5	3.02e+01	0	27	104	90701824	54	15417
2026-01-11 01:17:02.28	125.94	21.25	-37.9	-48.4	3.7	3.02e+01	0	28	104	90701824	52	16013
2026-01-11 01:17:03.29	125.82	21.40	-47.9	-65.8	3.5	3.02e+01	0	28	104	90701824	60	74787
2026-01-11 01:17:04.30	125.71	21.55	-43.7	-55.5	3.5	3.02e+01	0	28	104	90701824	60	22909
2026-01-11 01:17:05.31	125.59	21.70	-47.6	-64.3	3.5	3.02e+01	0	28	104	90701824	60	63109
2026-01-11 01:17:06.32	125.47	21.84	-40.5	-51.2	3.6	3.02e+01	0	28	104	90701824	56	17555
2026-01-11 01:17:07.33	125.35	21.99	-38.9	-49.4	3.5	3.02e+01	0	27	104	90701824	54	16084
2026-01-11 01:17:08.34	125.23	22.14	-37.5	-47.8	3.5	3.02e+01	0	27	104	90701824	50	16849
2026-01-11 01:17:09.35	125.11	22.30	-36.5	-46.8	3.5	3.02e+01	0	28	104	90701824	48	16848
2026-01-11 01:17:10.36	124.99	22.45	-42.0	-53.3	3.5	3.02e+01	0	27	104	90701824	56	22277
2026-01-11 01:17:11.37	124.86	22.60	-44.8	-57.2	3.6	3.02e+01	0	28	104	90701824	60	27987
2026-01-11 01:17:12.38	124.74	22.75	-38.1	-48.5	3.5	3.02e+01	0	28	104	90701824	52	16260
2026-01-11 01:17:13.39	124.61	22.91	-36.8	-47.1	3.6	3.02e+01	0	27	104	90701824	50	15473
2026-01-11 01:17:14.40	124.48	23.06	-46.7	-61.2	3.5	3.02e+01	0	28	104	90701824	60	44363
2026-01-11 01:17:15.41	124.35	23.22	-35.8	-46.2	3.5	3.02e+01	0	28	104	90701824	48	15599
2026-01-11 01:17:16.42	124.22	23.38	-35.3	-45.6	3.5	3.02e+01	0	27	104	90701824	46	16336
2026-01-11 01:17:17.42	124.09	23.53	-34.3	-44.6	3.5	3.02e+01	0	28	104	90701824	44	16390
2026-01-11 01:17:18.43	123.96	23.69	-34.0	-44.2	3.5	3.02e+01	0	27	104	90701824	42	17564
2026-01-11 01:17:19.44	123.82	23.85	-37.4	-47.8	3.6	3.02e+01	0	28	104	90701824	52	15011
2026-01-11 01:17:20.45	123.68	24.01	-35.1	-45.4	3.5	3.02e+01	0	27	104	90701824	48	14256
2026-01-11 01:17:21.46	123.55	24.18	-46.7	-61.4	3.5	3.02e+01	0	27	104	90701824	60	45341
2026-01-11 01:17:22.47	123.41	24.34	-36.6	-47.0	3.5	3.02e+01	0	27	104	90701824	52	13594
2026-01-11 01:17:23.48	123.26	24.50	-41.4	-52.2	3.5	3.02e+01	0	27	104	90701824	60	15685
2026-01-11 01:17:24.49	123.12	24.67	-35.4	-45.6	3.5	3.02e+01	0	27	104	90701824	46	16478
2026-01-11 01:17:25.50	122.98	24.83	-35.0	-45.2	3.5	3.02e+01	0	27	104	90701824	46	15741
2026-01-11 01:17:26.51	122.83	25.00	-34.1	-44.2	3.5	3.02e+01	0	28	104	90701824	44	15761
2026-01-11 01:17:27.52	122.68	25.16	-34.4	-44.5	3.5	3.02e+01	0	28	104	90701824	42	18244
2026-01-11 01:17:28.52	122.53	25.33	-34.6	-44.7	3.5	3.02e+01	0	28	104	90701824	46	14796
2026-01-11 01:17:29.54	122.38	25.50	-34.2	-44.3	3.5	3.02e+01	0	27	104	90701824	42	17809
2026-01-11 01:17:30.54	122.23	25.67	-46.7	-61.2	3.6	3.02e+01	0	28	104	90701824	60	44243
2026-01-11 01:17:31.55	122.07	25.84	-38.0	-48.5	3.5	3.02e+01	0	27	104	90701824	52	16232
2026-01-11 01:17:32.56	121.92	26.01	-45.0	-57.4	3.5	3.02e+01	0	27	104	90701824	60	28390
2026-01-11 01:17:33.57	121.76	26.19	-39.9	-50.6	3.5	3.02e+01	0	27	104	90701824	54	18324
2026-01-11 01:17:34.58	121.60	26.36	-40.6	-51.3	3.5	3.02e+01	0	27	104	90701824	54	19928
2026-01-11 01:17:35.59	121.44	26.53	-40.0	-50.7	3.5	3.02e+01	0	27	104	90701824	54	18535
2026-01-11 01:17:36.60	121.27	26.71	-41.7	-52.6	3.5	3.02e+01	0	27	104	90701824	54	23230
2026-01-11 01:17:37.61	121.11	26.89	-47.1	-62.3	3.5	3.02e+01	0	27	104	90701824	60	49989
2026-01-11 01:17:38.62	120.94	27.06	-35.7	-46.0	3.5	3.02e+01	0	27	104	90701824	50	13588
2026-01-11 01:17:39.63	120.77	27.24	-46.4	-60.3	3.4	3.02e+01	0	27	104	90701824	60	40006
2026-01-11 01:17:40.64	120.60	27.42	-35.4	-45.7	3.2	3.02e+01	0	27	104	90701824	50	13170
2026-01-11 01:17:41.65	120.42	27.60	-36.4	-46.6	3.5	3.02e+01	0	27	104	90701824	48	16484
2026-01-11 01:17:42.66	120.25	27.79	-35.9	-46.1	3.5	3.02e+01	0	27	104	90701824	46	17423
2026-01-11 01:17:43.67	120.07	27.97	-35.3	-45.6	3.5	3.02e+01	0	27	104	90701824	46	16365
2026-01-11 01:17:44.67	119.89	28.15	-34.6	-44.7	3.5	3.02e+01	0	27	104	90701824	44	16638
2026-01-11 01:17:45.68	119.71	28.33	-34.4	-44.6	3.5	3.02e+01	0	27	104	90701824	44	16370
2026-01-11 01:17:46.69	119.52	28.52	-40.1	-50.7	3.5	3.02e+01	0	27	104	90701824	50	23369
2026-01-11 01:17:47.70	119.34	28.71	-37.9	-48.2	3.5	3.02e+01	0	27	104	90701824	44	24815
2026-01-11 01:17:48.71	119.15	28.89	-47.0	-62.1	3.5	3.02e+01	0	27	104	90701824	60	48883
2026-01-11 01:17:49.72	118.96	29.08	-33.3	-43.4	3.5	3.02e+01	0	27	104	90701824	42	16133
2026-01-11 01:17:50.73	118.76	29.27	-34.1	-44.2	3.5	3.02e+01	0	27	104	90701824	44	15671
2026-01-11 01:17:51.74	118.57	29.46	-33.5	-43.7	3.5	3.02e+01	0	27	104	90701824	42	16610
2026-01-11 01:17:52.75	118.37	29.66	-33.4	-43.6	3.5	3.02e+01	0	27	104	90701824	42	16336
2026-01-11 01:17:53.76	118.16	29.85	-33.3	-43.4	3.5	3.02e+01	0	27	104	90701824	42	16087
2026-01-11 01:17:54.77	117.96	30.04	-37.1	-47.4	3.5	3.02e+01	0	27	104	90701824	46	20185
2026-01-11 01:17:55.78	117.75	30.24	-33.9	-44.1	3.5	3.02e+01	0	27	104	90701824	42	17294
2026-01-11 01:17:56.79	117.55	30.43	-42.3	-53.3	3.4	3.02e+01	0	27	104	90701824	48	35413
2026-01-11 01:17:57.79	117.34	30.63	-42.9	-54.4	3.5	3.02e+01	0	27	104	90701824	60	20243
2026-01-11 01:17:58.80	117.12	30.83	-38.7	-49.2	3.5	3.02e+01	0	27	104	90701824	44	27884
2026-01-11 01:17:59.81	116.90	31.02	-38.6	-49.1	3.5	3.02e+01	0	27	104	90701824	54	15424
2026-01-11 01:18:00.82	116.68	31.22	-35.8	-46.1	3.5	3.02e+01	0	27	104	90701824	46	17319
2026-01-11 01:18:01.83	116.46	31.42	-35.9	-46.0	3.5	3.02e+01	0	27	104	90701824	46	17279
2026-01-11 01:18:02.84	116.24	31.63	-35.5	-45.6	3.6	3.02e+01	0	27	104	90701824	46	16481
2026-01-11 01:18:03.85	116.01	31.83	-39.3	-50.0	3.5	3.02e+01	0	27	104	90701824	50	21529
2026-01-11 01:18:04.86	115.78	32.03	-45.4	-57.9	3.5	3.02e+01	0	27	104	90701824	60	30270
2026-01-11 01:18:05.87	115.54	32.24	-40.9	-51.7	3.6	3.02e+01	0	27	104	90701824	50	26314
2026-01-11 01:18:06.88	115.30	32.44	-48.0	-65.4	3.5	3.02e+01	0	27	104	90701824	60	71742
2026-01-11 01:18:07.89	115.06	32.65	-34.3	-44.4	3.5	3.02e+01	0	27	104	90701824	42	18085
2026-01-11 01:18:08.90	114.82	32.86	-34.4	-44.5	3.5	3.02e+01	0	27	104	90701824	44	16270
2026-01-11 01:18:09.91	114.57	33.06	-34.5	-44.7	3.5	3.02e+01	0	27	104	90701824	44	16605
2026-01-11 01:18:10.92	114.32	33.27	-34.1	-44.3	3.5	3.02e+01	0	27	104	90701824	42	17734
2026-01-11 01:18:11.93	114.06	33.48	-34.1	-44.4	3.5	3.02e+01	0	27	104	90701824	42	17945
2026-01-11 01:18:12.94	113.81	33.70	-34.5	-44.6	3.6	3.02e+01	0	27	104	90701824	42	18520
2026-01-11 01:18:13.95	113.55	33.91	-36.4	-46.6	3.5	3.02e+01	0	27	104	90701824	46	18505
2026-01-11 01:18:14.95	113.28	34.12	-47.8	-65.7	3.5	3.02e+01	0	27	104	90701824	60	73972
2026-01-11 01:18:15.96	113.02	34.33	-44.3	-56.2	3.5	3.02e+01	0	27	104	90701824	60	24802
2026-01-11 01:18:16.97	112.74	34.55	-45.3	-57.8	3.5	3.02e+01	0	27	104	90701824	58	33676
2026-01-11 01:18:17.98	112.47	34.76	-35.6	-45.9	3.6	3.02e+01	0	27	104	90701824	46	16986
2026-01-11 01:18:18.99	112.19	34.98	-35.0	-45.3	3.5	3.02e+01	0	27	104	90701824	46	15866
2026-01-11 01:18:20.00	111.91	35.19	-34.5	-44.7	3.6	3.02e+01	0	27	104	90701824	44	16670
2026-01-11 01:18:21.01	111.62	35.41	-34.6	-44.8	3.5	3.02e+01	0	27	104	90701824	44	16743
2026-01-11 01:18:22.02	111.33	35.63	-45.5	-58.1	3.5	3.02e+01	0	27	104	90701824	60	31085
2026-01-11 01:18:23.03	111.03	35.85	-38.2	-48.6	3.5	3.02e+01	0	27	104	90701824	48	20633
2026-01-11 01:18:24.04	110.73	36.07	-47.9	-65.5	3.5	3.02e+01	0	27	104	90701824	60	72883
2026-01-11 01:18:25.05	110.43	36.29	-45.2	-57.8	3.5	3.02e+01	0	27	104	90701824	60	29789
2026-01-11 01:18:26.06	110.12	36.51	-47.3	-62.5	3.5	3.02e+01	0	27	104	90701824	60	51173
2026-01-11 01:18:27.07	109.81	36.74	-38.0	-48.4	3.5	3.02e+01	0	27	104	90701824	50	17984
2026-01-11 01:18:28.08	109.49	36.96	-37.6	-47.9	3.5	3.02e+01	0	27	104	90701824	50	16999
2026-01-11 01:18:29.09	109.17	37.18	-38.1	-48.6	3.5	3.02e+01	0	27	104	90701824	50	18405
2026-01-11 01:18:30.10	108.84	37.41	-37.7	-48.2	3.5	3.02e+01	0	27	104	90701824	50	17528
2026-01-11 01:18:31.10	108.52	37.63	-42.1	-53.1	3.5	3.02e+01	0	27	104	90701824	58	19535
2026-01-11 01:18:32.11	108.18	37.85	-47.7	-64.0	3.5	3.02e+01	0	27	104	90701824	60	61235
2026-01-11 01:18:33.12	107.84	38.08	-45.8	-58.8	3.5	3.02e+01	0	27	104	90701824	60	33711
2026-01-11 01:18:34.13	107.50	38.30	-48.0	-65.9	3.5	3.02e+01	0	27	104	90701824	60	75695
2026-01-11 01:18:35.14	107.15	38.53	-40.1	-50.8	3.6	3.02e+01	0	27	104	90701824	52	21147
2026-01-11 01:18:36.15	106.79	38.76	-37.3	-47.7	3.5	3.02e+01	0	27	104	90701824	50	16577
2026-01-11 01:18:37.16	106.43	38.98	-36.9	-47.1	3.5	3.02e+01	0	27	104	90701824	48	17398
2026-01-11 01:18:38.17	106.07	39.21	-36.8	-47.1	3.5	3.02e+01	0	27	104	90701824	48	17298
2026-01-11 01:18:39.18	105.70	39.44	-36.4	-46.7	3.5	3.02e+01	0	27	104	90701824	48	16621
2026-01-11 01:18:40.19	105.32	39.67	-37.7	-48.1	3.5	3.02e+01	0	27	104	90701824	50	17464
2026-01-11 01:18:41.20	104.94	39.89	-39.4	-50.0	3.5	3.02e+01	0	27	104	90701824	54	17227
2026-01-11 01:18:42.21	104.56	40.12	-48.1	-65.9	3.5	3.02e+01	0	27	104	90701824	60	76256
2026-01-11 01:18:43.22	104.16	40.35	-44.6	-56.6	3.5	3.02e+01	0	27	104	90701824	60	26107
2026-01-11 01:18:44.22	103.77	40.58	-47.3	-62.5	3.5	3.02e+01	0	27	104	90701824	60	51500
2026-01-11 01:18:45.24	103.36	40.81	-38.1	-48.6	3.5	3.02e+01	0	27	104	90701824	52	16343
2026-01-11 01:18:46.24	102.96	41.03	-37.5	-47.9	3.5	3.02e+01	0	27	104	90701824	50	16989
2026-01-11 01:18:47.26	102.54	41.26	-37.5	-48.0	3.5	3.02e+01	0	27	104	90701824	50	17115
2026-01-11 01:18:48.26	102.12	41.49	-36.6	-46.9	3.5	3.02e+01	0	27	104	90701824	48	16942
2026-01-11 01:18:49.27	101.69	41.72	-43.7	-55.7	3.5	3.02e+01	0	27	104	90701824	60	23377
2026-01-11 01:18:50.28	101.26	41.94	-36.7	-47.0	3.6	3.02e+01	0	27	104	90701824	52	13671
2026-01-11 01:18:51.29	100.82	42.17	-48.0	-65.9	3.5	3.02e+01	0	27	104	90701824	60	75992
2026-01-11 01:18:52.30	100.37	42.40	-43.9	-55.6	3.6	3.02e+01	0	27	104	90701824	60	23258
2026-01-11 01:18:53.31	99.92	42.62	-46.7	-61.7	3.5	3.02e+01	0	27	104	90701824	60	46964
2026-01-11 01:18:54.32	99.46	42.85	-37.3	-47.7	3.6	3.02e+01	0	27	104	90701824	50	16529
2026-01-11 01:18:55.33	98.99	43.07	-37.3	-47.5	3.6	3.02e+01	0	27	104	90701824	50	16286
2026-01-11 01:18:56.34	98.52	43.29	-36.5	-46.9	3.5	3.02e+01	0	27	104	90701824	48	17032
2026-01-11 01:18:57.35	98.04	43.52	-36.9	-47.3	3.5	3.02e+01	0	27	104	90701824	48	17715
2026-01-11 01:18:58.36	97.56	43.74	-41.7	-52.7	3.5	3.02e+01	0	27	104	90701824	60	16543
2026-01-11 01:18:59.37	97.06	43.96	-35.9	-46.2	3.5	3.02e+01	0	27	104	90701824	50	13900
2026-01-11 01:19:00.38	96.56	44.18	-47.4	-63.2	3.5	3.02e+01	0	27	104	90701824	60	55738
2026-01-11 01:19:01.39	96.06	44.40	-40.1	-50.8	3.5	3.02e+01	0	27	104	90701824	60	13396
2026-01-11 01:19:02.40	95.54	44.62	-46.3	-59.9	3.5	3.02e+01	0	27	104	90701824	60	38001
2026-01-11 01:19:03.41	95.02	44.83	-37.0	-47.4	3.5	3.02e+01	0	27	104	90701824	50	15972
2026-01-11 01:19:04.42	94.49	45.05	-35.9	-46.2	3.5	3.02e+01	0	27	104	90701824	46	17540
2026-01-11 01:19:05.43	93.96	45.26	-35.8	-46.0	3.5	3.02e+01	0	27	104	90701824	46	17249
2026-01-11 01:19:06.43	93.42	45.47	-35.9	-46.3	3.5	3.02e+01	0	27	104	90701824	46	17700
2026-01-11 01:19:07.44	92.87	45.68	-38.0	-48.5	3.5	3.02e+01	0	27	104	90701824	54	14437
2026-01-11 01:19:08.45	92.31	45.89	-35.4	-45.7	3.5	3.02e+01	0	27	104	90701824	50	13163
2026-01-11 01:19:09.46	91.74	46.09	-47.1	-62.5	3.6	3.02e+01	0	27	104	90701824	60	51587
2026-01-11 01:19:10.47	91.17	46.30	-39.3	-49.9	3.5	3.02e+01	0	27	104	90701824	60	12010
2026-01-11 01:19:11.48	90.59	46.50	-43.6	-55.3	3.5	3.02e+01	0	28	104	90701824	60	22378
2026-01-11 01:19:12.49	90.00	46.70	-37.3	-47.6	3.5	3.02e+01	0	27	104	90701824	48	18481
2026-01-11 01:19:13.50	89.41	46.90	-36.5	-46.8	3.5	3.02e+01	0	27	104	90701824	48	16782
2026-01-11 01:19:14.51	88.80	47.09	-36.3	-46.7	3.5	3.02e+01	0	27	104	90701824	48	16598
2026-01-11 01:19:15.52	88.19	47.28	-37.1	-47.4	3.6	3.02e+01	0	27	104	90701824	46	20277
2026-01-11 01:19:16.53	87.57	47.47	-36.2	-46.5	3.5	3.02e+01	0	27	104	90701824	50	14472
2026-01-11 01:19:17.54	86.95	47.66	-35.4	-45.7	3.5	3.02e+01	0	27	104	90701824	44	18649
2026-01-11 01:19:18.54	86.32	47.84	-46.0	-59.6	3.5	3.02e+01	0	27	104	90701824	60	36843
2026-01-11 01:19:19.55	85.68	48.02	-36.4	-46.7	3.5	3.02e+01	0	27	104	90701824	50	14733
2026-01-11 01:19:20.56	85.03	48.20	-43.4	-54.9	3.5	3.02e+01	0	27	104	90701824	60	21301
2026-01-11 01:19:21.57	84.37	48.38	-37.5	-47.9	3.5	3.02e+01	0	28	104	90701824	50	17086
2026-01-11 01:19:22.58	83.71	48.55	-36.8	-47.2	3.5	3.02e+01	0	27	104	90701824	50	15618
2026-01-11 01:19:23.59	83.03	48.72	-36.0	-46.3	3.5	3.02e+01	0	27	104	90701824	46	17817
2026-01-11 01:19:24.60	82.36	48.88	-37.3	-47.6	3.5	3.02e+01	0	27	104	90701824	46	20753
2026-01-11 01:19:25.61	81.67	49.04	-40.0	-50.9	3.5	3.02e+01	0	27	104	90701824	54	19174
2026-01-11 01:19:26.62	80.98	49.20	-36.6	-46.9	3.5	3.02e+01	0	27	104	90701824	52	13512
2026-01-11 01:19:27.63	80.27	49.35	-46.6	-60.8	3.5	3.02e+01	0	28	104	90701824	60	42088
2026-01-11 01:19:28.64	79.57	49.50	-36.0	-46.3	3.3	3.02e+01	0	28	104	90701824	50	14165
2026-01-11 01:19:29.65	78.85	49.64	-36.9	-47.4	3.4	3.02e+01	0	28	104	90701824	50	16033
2026-01-11 01:19:30.66	78.13	49.78	-36.4	-46.6	3.5	3.02e+01	0	28	104	90701824	48	16418
2026-01-11 01:19:31.67	77.40	49.92	-36.3	-46.5	3.5	3.02e+01	0	28	104	90701824	46	18294
2026-01-11 01:19:32.68	76.67	50.05	-36.1	-46.4	3.5	3.02e+01	0	28	104	90701824	46	18091
2026-01-11 01:19:33.69	75.93	50.18	-37.1	-47.5	3.5	3.02e+01	0	28	104	90701824	46	20467
2026-01-11 01:19:34.70	75.18	50.30	-34.8	-44.9	3.5	3.02e+01	0	28	104	90701824	44	16918
2026-01-11 01:19:35.70	74.44	50.41	-42.6	-53.9	3.4	3.02e+01	0	28	104	90701824	48	38144
2026-01-11 01:19:36.71	73.68	50.53	-45.8	-58.9	3.5	3.02e+01	0	28	104	90701824	60	33954
2026-01-11 01:19:37.72	72.91	50.63	-39.2	-49.6	3.5	3.02e+01	0	28	104	90701824	48	23323
2026-01-11 01:19:38.73	72.14	50.73	-40.3	-51.0	3.5	3.02e+01	0	28	104	90701824	60	13635
2026-01-11 01:19:39.74	71.37	50.83	-36.7	-47.0	3.5	3.02e+01	0	28	104	90701824	48	17203
2026-01-11 01:19:40.75	70.59	50.92	-36.1	-46.5	3.5	3.02e+01	0	28	104	90701824	48	16172
2026-01-11 01:19:41.76	69.80	51.01	-36.0	-46.2	3.5	3.02e+01	0	28	104	90701824	46	17683
2026-01-11 01:19:42.77	69.02	51.09	-43.4	-55.0	3.5	3.02e+01	0	28	104	90701824	56	27327
2026-01-11 01:19:43.78	68.22	51.16	-46.1	-59.2	3.5	3.02e+01	0	28	104	90701824	60	35229
2026-01-11 01:19:44.79	67.43	51.23	-40.5	-51.2	3.3	3.02e+01	0	28	104	90701824	54	19705
2026-01-11 01:19:45.80	66.63	51.30	-47.9	-64.4	3.5	3.02e+01	0	28	104	90701824	60	63641
2026-01-11 01:19:46.81	65.82	51.35	-35.6	-45.8	3.5	3.02e+01	0	28	104	90701824	48	14967
2026-01-11 01:19:47.82	65.02	51.41	-36.4	-46.8	3.5	3.02e+01	0	28	104	90701824	48	16830
2026-01-11 01:19:48.83	64.21	51.45	-37.0	-47.4	3.5	3.02e+01	0	28	104	90701824	48	18022
2026-01-11 01:19:49.84	63.39	51.49	-36.0	-46.2	3.5	3.02e+01	0	28	104	90701824	48	15724
2026-01-11 01:19:50.85	62.58	51.53	-35.8	-46.1	3.5	3.02e+01	0	28	104	90701824	46	17365
2026-01-11 01:19:51.86	61.77	51.56	-37.5	-47.8	3.5	3.02e+01	0	28	104	90701824	48	18922
2026-01-11 01:19:52.86	60.96	51.58	-35.2	-45.5	3.5	3.02e+01	0	28	104	90701824	44	18273
2026-01-11 01:19:53.88	60.13	51.59	-48.1	-66.1	3.5	3.02e+01	0	28	104	90701824	60	77304
2026-01-11 01:19:54.88	59.32	51.60	-46.0	-58.8	3.5	3.02e+01	0	28	104	90701824	60	33655
2026-01-11 01:19:55.89	58.50	51.61	-45.2	-57.8	3.5	3.02e+01	0	28	104	90701824	58	33440
2026-01-11 01:19:56.90	57.68	51.61	-39.0	-49.6	3.5	3.02e+01	0	28	104	90701824	56	14597
2026-01-11 01:19:57.91	56.86	51.60	-36.6	-47.0	3.5	3.02e+01	0	28	104	90701824	48	17180
2026-01-11 01:19:58.92	56.05	51.58	-36.7	-47.0	3.5	3.02e+01	0	28	104	90701824	48	17270
2026-01-11 01:19:59.93	55.23	51.56	-35.7	-45.9	3.5	3.02e+01	0	28	104	90701824	48	15112
2026-01-11 01:20:00.94	54.41	51.54	-40.0	-50.6	3.5	3.02e+01	0	28	104	90701824	52	20587
2026-01-11 01:20:01.95	53.60	51.51	-47.5	-63.1	3.5	3.02e+01	0	28	104	90701824	60	54734
2026-01-11 01:20:02.96	52.79	51.47	-44.9	-57.1	3.5	3.02e+01	0	28	104	90701824	58	30939
2026-01-11 01:20:03.97	51.98	51.43	-47.8	-64.7	3.5	3.02e+01	0	28	104	90701824	60	66171
2026-01-11 01:20:04.98	51.17	51.38	-37.0	-47.3	3.6	3.02e+01	0	28	104	90701824	44	22303
2026-01-11 01:20:05.99	50.37	51.32	-35.6	-46.0	3.5	3.02e+01	0	28	104	90701824	46	17191
2026-01-11 01:20:07.00	49.57	51.26	-35.8	-46.0	3.5	3.02e+01	0	28	104	90701824	46	17137
2026-01-11 01:20:08.01	48.77	51.19	-35.5	-45.8	3.5	3.02e+01	0	28	104	90701824	46	16771
2026-01-11 01:20:09.02	47.97	51.12	-34.8	-45.1	3.5	3.02e+01	0	28	104	90701824	44	17325
2026-01-11 01:20:10.03	47.18	51.04	-40.5	-51.3	3.5	3.02e+01	0	28	104	90701824	52	22385
2026-01-11 01:20:11.04	46.40	50.96	-36.3	-46.6	3.5	3.02e+01	0	28	104	90701824	44	20605
2026-01-11 01:20:12.05	45.62	50.87	-47.7	-64.7	3.5	3.02e+01	0	28	104	90701824	60	66190
2026-01-11 01:20:13.06	44.84	50.77	-46.4	-59.9	3.5	3.02e+01	0	28	104	90701824	60	37886
2026-01-11 01:20:14.07	44.07	50.67	-47.8	-63.8	3.5	3.02e+01	0	28	104	90701824	60	59902
2026-01-11 01:20:15.08	43.31	50.57	-37.5	-47.9	3.5	3.02e+01	0	28	104	90701824	52	15098
2026-01-11 01:20:16.09	42.55	50.46	-37.3	-47.7	3.5	3.02e+01	0	28	104	90701824	48	18692
2026-01-11 01:20:17.10	41.79	50.34	-36.3	-46.5	3.5	3.02e+01	0	28	104	90701824	48	16147
2026-01-11 01:20:18.11	41.04	50.22	-35.4	-45.7	3.5	3.02e+01	0	28	104	90701824	46	16616
2026-01-11 01:20:19.12	40.30	50.10	-42.6	-53.7	3.5	3.02e+01	0	28	104	90701824	58	20806
2026-01-11 01:20:20.13	39.56	49.97	-36.7	-47.1	3.5	3.02e+01	0	28	104	90701824	44	21996
2026-01-11 01:20:21.14	38.83	49.84	-48.0	-65.4	3.5	3.02e+01	0	28	104	90701824	60	71760
2026-01-11 01:20:22.14	38.12	49.70	-45.8	-58.3	3.5	3.02e+01	0	28	104	90701824	60	31534
2026-01-11 01:20:23.15	37.40	49.56	-47.6	-63.8	3.5	3.02e+01	0	28	104	90701824	60	59843
2026-01-11 01:20:24.16	36.69	49.41	-37.0	-47.4	3.5	3.02e+01	0	28	104	90701824	48	17955
2026-01-11 01:20:25.17	35.99	49.26	-36.5	-46.6	3.5	3.02e+01	0	28	104	90701824	48	16502
2026-01-11 01:20:26.18	35.30	49.10	-36.1	-46.5	3.5	3.02e+01	0	28	104	90701824	46	18303
2026-01-11 01:20:27.19	34.61	48.95	-34.6	-44.8	3.5	3.02e+01	0	28	104	90701824	44	16763
2026-01-11 01:20:28.20	33.93	48.78	-39.5	-50.2	3.5	3.02e+01	0	28	104	90701824	56	15739
2026-01-11 01:20:29.21	33.25	48.62	-36.5	-46.9	3.5	3.02e+01	0	28	104	90701824	48	16903
2026-01-11 01:20:30.22	32.59	48.45	-47.9	-65.4	3.5	3.02e+01	0	28	104	90701824	60	71519
2026-01-11 01:20:31.23	31.93	48.27	-45.2	-57.8	3.5	3.02e+01	0	28	104	90701824	60	29729
2026-01-11 01:20:32.24	31.28	48.10	-47.4	-62.9	3.5	3.02e+01	0	28	104	90701824	60	53567
2026-01-11 01:20:33.25	30.63	47.92	-37.1	-47.4	3.5	3.02e+01	0	28	104	90701824	50	15975
2026-01-11 01:20:34.26	30.00	47.74	-36.1	-46.4	3.5	3.02e+01	0	28	104	90701824	48	16004
2026-01-11 01:20:35.27	29.37	47.55	-35.9	-46.2	3.5	3.02e+01	0	28	104	90701824	46	17539
2026-01-11 01:20:36.28	28.75	47.36	-34.6	-45.0	3.5	3.02e+01	0	28	104	90701824	44	17134
2026-01-11 01:20:37.29	28.14	47.17	-38.7	-49.2	3.5	3.02e+01	0	28	104	90701824	54	15591
2026-01-11 01:20:38.30	27.53	46.98	-35.9	-46.1	3.6	3.02e+01	0	28	104	90701824	48	15560
2026-01-11 01:20:39.30	26.94	46.78	-48.0	-65.8	3.5	3.02e+01	0	28	104	90701824	60	74947
2026-01-11 01:20:40.32	26.34	46.58	-44.0	-55.6	3.5	3.02e+01	0	28	104	90701824	60	23158
2026-01-11 01:20:41.33	25.76	46.38	-47.1	-62.1	3.5	3.02e+01	0	28	104	90701824	60	48732
2026-01-11 01:20:42.33	25.19	46.18	-37.4	-47.8	3.5	3.02e+01	0	28	104	90701824	50	16744
2026-01-11 01:20:43.34	24.62	45.98	-35.9	-46.3	3.5	3.02e+01	0	28	104	90701824	48	15885
2026-01-11 01:20:44.35	24.06	45.77	-35.0	-45.0	3.5	3.02e+01	0	28	104	90701824	46	15388
2026-01-11 01:20:45.36	23.51	45.56	-34.8	-45.2	3.5	3.02e+01	0	28	104	90701824	44	17589
2026-01-11 01:20:46.37	22.97	45.35	-36.4	-46.9	3.5	3.02e+01	0	28	104	90701824	50	15062
2026-01-11 01:20:47.38	22.43	45.14	-34.0	-44.0	3.5	3.02e+01	0	28	104	90701824	46	13677
2026-01-11 01:20:48.39	21.90	44.93	-47.7	-64.5	3.6	3.02e+01	0	28	104	90701824	60	64804
2026-01-11 01:20:49.40	21.37	44.71	-40.1	-50.8	3.5	3.02e+01	0	28	104	90701824	60	13374
2026-01-11 01:20:50.41	20.86	44.50	-46.1	-59.3	3.5	3.02e+01	0	28	104	90701824	60	35391
2026-01-11 01:20:51.42	20.35	44.28	-37.8	-48.2	3.5	3.02e+01	0	28	104	90701824	50	17616
2026-01-11 01:20:52.43	19.85	44.06	-36.2	-46.4	3.5	3.02e+01	0	28	104	90701824	48	15981
2026-01-11 01:20:53.44	19.35	43.84	-35.3	-45.7	3.5	3.02e+01	0	28	104	90701824	46	16561
2026-01-11 01:20:54.45	18.87	43.62	-34.6	-44.9	3.5	3.02e+01	0	28	104	90701824	44	16998
2026-01-11 01:20:55.46	18.39	43.40	-34.3	-44.4	3.5	3.02e+01	0	28	104	90701824	44	16100
2026-01-11 01:20:56.47	17.91	43.17	-34.3	-44.4	3.5	3.02e+01	0	28	104	90701824	46	14319
2026-01-11 01:20:57.47	17.45	42.95	-47.4	-63.3	3.5	3.02e+01	0	28	104	90701824	60	56525
2026-01-11 01:20:58.48	16.99	42.73	-36.8	-47.1	3.5	3.02e+01	0	28	104	90701824	54	12311
2026-01-11 01:20:59.49	16.53	42.50	-42.5	-53.7	3.6	3.02e+01	0	28	104	90701824	60	18584
2026-01-11 01:21:00.50	16.09	42.28	-36.7	-47.1	3.5	3.02e+01	0	28	104	90701824	48	17373
2026-01-11 01:21:01.51	15.64	42.05	-35.3	-45.7	3.5	3.02e+01	0	28	104	90701824	46	16530
2026-01-11 01:21:02.52	15.21	41.83	-34.7	-45.0	3.5	3.02e+01	0	28	104	90701824	44	17189
2026-01-11 01:21:03.53	14.78	41.60	-35.7	-45.8	3.5	3.02e+01	0	28	104	90701824	44	18839
2026-01-11 01:21:04.54	14.36	41.37	-37.3	-47.7	3.5	3.02e+01	0	28	104	90701824	52	14756
2026-01-11 01:21:05.55	13.94	41.15	-35.9	-46.1	3.5	3.02e+01	0	28	104	90701824	44	19493
2026-01-11 01:21:06.56	13.53	40.92	-46.4	-60.4	3.5	3.02e+01	0	28	104	90701824	60	40209
2026-01-11 01:21:07.57	13.12	40.69	-37.6	-48.2	3.5	3.02e+01	0	28	104	90701824	52	15613
2026-01-11 01:21:08.58	12.73	40.47	-44.7	-56.9	3.5	3.02e+01	0	28	104	90701824	60	26905
2026-01-11 01:21:09.59	12.33	40.24	-38.6	-48.9	3.5	3.02e+01	0	28	104	90701824	52	16971
2026-01-11 01:21:10.60	11.94	40.01	-37.2	-47.6	3.5	3.02e+01	0	28	104	90701824	50	16501
2026-01-11 01:21:11.61	11.56	39.78	-37.0	-47.9	3.5	3.02e+01	0	28	104	90701824	48	18985
2026-01-11 01:21:12.62	11.19	39.56	-36.0	-46.4	3.5	3.02e+01	0	28	104	90701824	48	15986
2026-01-11 01:21:13.62	10.82	39.33	-35.5	-45.5	3.5	3.02e+01	0	28	104	90701824	46	16279
2026-01-11 01:21:14.63	10.45	39.11	-42.5	-53.9	3.6	3.02e+01	0	28	104	90701824	50	34029
2026-01-11 01:21:15.64	10.09	38.88	-45.7	-58.5	3.5	3.02e+01	0	28	104	90701824	60	32464
2026-01-11 01:21:16.65	9.73	38.65	-40.1	-50.8	3.6	3.02e+01	0	28	104	90701824	52	21139
2026-01-11 01:21:17.66	9.38	38.43	-43.2	-55.0	3.5	3.02e+01	0	28	104	90701824	60	21716
2026-01-11 01:21:18.67	9.04	38.20	-39.6	-50.3	3.5	3.02e+01	0	28	104	90701824	54	17707
2026-01-11 01:21:19.68	8.70	37.98	-38.4	-48.5	3.5	3.02e+01	0	28	104	90701824	52	16253
2026-01-11 01:21:20.69	8.36	37.75	-37.8	-48.2	3.4	3.02e+01	0	28	104	90701824	52	15692
2026-01-11 01:21:21.70	8.03	37.53	-39.7	-50.7	3.6	3.02e+01	0	28	104	90701824	50	23513
2026-01-11 01:21:22.71	7.70	37.31	-35.5	-45.7	3.6	3.02e+01	0	28	104	90701824	48	14855
2026-01-11 01:21:23.72	7.38	37.08	-44.3	-48.2	13.4	3.02e+01	58	28	104	90701824	50	17575
2026-01-11 01:21:24.73	7.06	36.86	-43.1	-46.0	18.9	3.02e+01	59	28	104	90701824	60	7688
2026-01-11 01:21:25.74	6.75	36.64	-38.3	-39.9	22.6	3.02e+01	55	28	0	91750400	46	8533
2026-01-11 01:21:26.75	6.44	36.42	-38.8	-40.4	25.5	3.02e+01	44	28	0	93847552	56	5066
2026-01-11 01:21:27.76	6.14	36.20	-35.7	-37.0	28.0	3.02e+01	56	28	0	95944704	46	6084
2026-01-11 01:21:28.77	5.84	35.98	-35.9	-37.2	28.0	3.02e+01	60	28	0	97517568	46	6263
2026-01-11 01:21:29.78	5.54	35.76	-35.1	-36.4	28.5	3.02e+01	58	28	0	99614720	46	5666
2026-01-11 01:21:30.79	5.25	35.54	-34.7	-35.9	28.9	3.02e+01	61	28	0	101711872	44	6011
2026-01-11 01:21:31.80	4.96	35.32	-34.7	-35.9	28.9	3.02e+01	58	28	0	103284736	44	6016
2026-01-11 01:21:32.81	4.68	35.11	-35.3	-36.6	28.3	3.02e+01	62	28	0	105381888	44	6507
2026-01-11 01:21:33.81	4.40	34.89	-35.1	-36.4	28.3	3.02e+01	58	28	0	106954752	44	6375
2026-01-11 01:21:34.82	4.12	34.68	-34.5	-35.7	28.9	3.02e+01	46	28	0	109051904	44	5907
2026-01-11 01:21:35.83	3.85	34.47	-34.8	-36.0	28.9	3.02e+01	62	28	0	111149056	44	6069
2026-01-11 01:21:36.84	3.58	34.25	-35.0	-36.3	28.6	3.02e+01	52	28	0	112721920	44	6314
2026-01-11 01:21:37.85	3.32	34.04	-35.4	-36.7	28.4	3.02e+01	59	28	0	114819072	44	6593
2026-01-11 01:21:38.86	3.05	33.83	-34.7	-35.9	28.9	3.02e+01	60	28	0	116391936	44	6022
2026-01-11 01:21:39.87	2.80	33.62	-33.8	-35.0	29.7	3.02e+01	49	28	0	118489088	42	6103
2026-01-11 01:21:40.88	2.54	33.41	-33.8	-35.0	29.7	3.02e+01	59	28	0	120061952	42	6126
2026-01-11 01:21:41.89	2.29	33.20	-33.9	-35.1	29.6	3.02e+01	58	28	0	122159104	42	6179
2026-01-11 01:21:42.90	2.04	32.99	-33.9	-35.1	29.7	3.02e+01	60	28	0	124256256	42	6153
2026-01-11 01:21:43.91	1.80	32.78	-34.0	-35.2	29.5	3.02e+01	60	28	0	125829120	42	6228
2026-01-11 01:21:44.92	1.56	32.58	-33.8	-35.0	29.8	3.02e+01	45	28	0	127926272	42	6071
2026-01-11 01:21:45.93	1.32	32.37	-33.8	-35.0	29.7	3.02e+01	59	28	0	130023424	42	6127
2026-01-11 01:21:46.94	1.08	32.17	-33.8	-35.0	29.7	3.02e+01	59	28	0	131596288	42	6128
2026-01-11 01:21:47.95	0.85	31.96	-33.6	-34.8	29.8	3.02e+01	45	28	0	133693440	42	5939
2026-01-11 01:21:48.95	0.62	31.76	-33.5	-34.7	29.9	3.02e+01	57	28	0	135266304	42	5872
2026-01-11 01:21:49.96	0.40	31.56	-33.6	-34.8	29.9	3.02e+01	60	28	0	137363456	42	5967
2026-01-11 01:21:50.97	0.17	31.36	-33.8	-35.0	29.7	3.02e+01	59	28	0	139460608	42	6122
2026-01-11 01:21:51.98	359.95	31.16	-34.1	-35.3	29.4	3.02e+01	60	28	0	141033472	42	6312
2026-01-11 01:21:52.99	359.73	30.97	-33.9	-35.1	29.4	3.02e+01	53	28	0	143130624	42	6160
2026-01-11 01:21:54.00	359.52	30.77	-33.7	-34.9	29.7	3.02e+01	58	29	0	144703488	42	5995
2026-01-11 01:21:55.01	359.31	30.57	-33.1	-34.2	30.3	3.02e+01	58	28	0	146800640	42	5576
2026-01-11 01:21:56.02	359.10	30.38	-33.3	-34.5	30.1	3.02e+01	47	28	0	148897792	42	5747
2026-01-11 01:21:57.03	358.89	30.18	-33.5	-34.7	29.9	3.02e+01	58	28	0	150470656	42	5902
2026-01-11 01:21:58.04	358.69	29.99	-33.5	-34.7	29.9	3.02e+01	62	28	0	152567808	42	5863
2026-01-11 01:21:59.05	358.49	29.80	-33.4	-34.6	30.0	3.02e+01	53	28	0	154664960	42	5796
2026-01-11 01:22:00.06	358.29	29.60	-33.3	-34.5	30.0	3.02e+01	60	28	0	156237824	42	5762
2026-01-11 01:22:01.07	358.09	29.41	-33.2	-34.4	30.2	3.02e+01	59	28	0	158334976	42	5686
2026-01-11 01:22:02.08	357.89	29.22	-33.4	-34.6	30.1	3.02e+01	56	28	0	159907840	42	5804
2026-01-11 01:22:03.08	357.70	29.04	-33.5	-34.7	29.9	3.02e+01	59	28	0	162004992	42	5866
2026-01-11 01:22:04.09	357.52	28.85	-33.3	-34.5	30.0	3.02e+01	47	28	0	164102144	42	5733
2026-01-11 01:22:05.10	357.33	28.66	-33.2	-34.3	30.1	3.02e+01	62	28	0	165675008	42	5642
2026-01-11 01:22:06.11	357.14	28.48	-33.1	-34.3	30.3	3.02e+01	62	29	0	167772160	42	5604
2026-01-11 01:22:07.12	356.96	28.29	-33.3	-34.5	30.1	3.02e+01	57	29	0	169345024	42	5751
2026-01-11 01:22:08.13	356.78	28.11	-33.9	-35.2	29.5	3.02e+01	60	28	0	171442176	42	6220
2026-01-11 01:22:09.14	356.60	27.93	-34.0	-35.3	29.4	3.02e+01	51	28	0	173539328	42	6283
2026-01-11 01:22:10.15	356.42	27.75	-33.7	-34.9	29.7	3.02e+01	59	29	0	175112192	42	6037
2026-01-11 01:22:11.16	356.25	27.57	-33.5	-34.7	29.8	3.02e+01	56	29	0	177209344	42	5892
2026-01-11 01:22:12.17	356.08	27.39	-33.5	-34.7	29.9	3.02e+01	50	28	0	178782208	42	5903
2026-01-11 01:22:13.18	355.91	27.21	-33.5	-34.7	29.9	3.02e+01	61	28	0	180879360	42	5886
2026-01-11 01:22:14.19	355.74	27.03	-33.7	-34.9	29.7	3.02e+01	57	29	0	182976512	42	6044
2026-01-11 01:22:15.20	355.57	26.85	-33.6	-34.8	29.9	3.02e+01	59	28	0	184549376	42	5939
2026-01-11 01:22:16.21	355.41	26.68	-33.6	-34.8	29.8	3.02e+01	56	29	0	186646528	42	5979
2026-01-11 01:22:17.22	355.25	26.50	-33.7	-34.9	29.8	3.02e+01	52	29	0	188219392	42	6011
2026-01-11 01:22:18.23	355.09	26.33	-33.8	-35.0	29.7	3.02e+01	48	29	0	190316544	42	6095
2026-01-11 01:22:19.24	354.93	26.16	-33.9	-35.1	29.5	3.02e+01	59	29	0	192413696	42	6171
2026-01-11 01:22:20.25	354.77	25.99	-33.9	-35.1	29.4	3.02e+01	60	28	0	193986560	42	6161
2026-01-11 01:22:21.26	354.62	25.82	-33.9	-35.1	29.4	3.02e+01	54	29	0	196083712	42	6149
2026-01-11 01:22:22.27	354.46	25.65	-33.7	-34.9	29.7	3.02e+01	45	29	0	198180864	42	6011
2026-01-11 01:22:23.28	354.31	25.48	-33.7	-34.9	29.7	3.02e+01	56	29	0	199753728	42	6001
2026-01-11 01:22:24.29	354.16	25.31	-33.6	-34.8	29.8	3.02e+01	58	29	0	201850880	42	5948
2026-01-11 01:22:25.30	354.02	25.14	-33.8	-35.0	29.7	3.02e+01	43	29	0	203423744	42	6067
2026-01-11 01:22:26.30	353.87	24.98	-33.9	-35.1	29.5	3.02e+01	60	28	0	205520896	42	6191
2026-01-11 01:22:27.32	353.72	24.81	-34.1	-35.3	29.4	3.02e+01	59	29	0	207618048	42	6302
2026-01-11 01:22:28.33	353.58	24.65	-34.2	-35.4	29.3	3.02e+01	57	29	0	209190912	42	6422
2026-01-11 01:22:29.33	353.44	24.49	-34.3	-35.5	29.1	3.02e+01	62	29	0	211288064	42	6469
2026-01-11 01:22:30.34	353.30	24.32	-34.1	-35.3	29.3	3.02e+01	56	29	0	212860928	42	6313
2026-01-11 01:22:31.36	353.16	24.16	-34.1	-35.3	29.4	3.02e+01	60	29	0	214958080	42	6304
2026-01-11 01:22:32.36	353.03	24.00	-34.1	-35.3	29.3	3.02e+01	56	29	0	217055232	42	6282
2026-01-11 01:22:33.37	352.89	23.84	-33.6	-34.8	29.7	3.02e+01	52	28	0	218628096	42	5973
2026-01-11 01:22:34.38	352.76	23.68	-33.8	-35.0	29.6	3.02e+01	60	29	0	220725248	42	6071
2026-01-11 01:22:35.39	352.62	23.52	-33.9	-35.1	29.6	3.02e+01	61	29	0	222822400	42	6148
2026-01-11 01:22:36.40	352.49	23.37	-33.8	-35.0	29.6	3.02e+01	61	29	0	224395264	42	6066
2026-01-11 01:22:37.41	352.36	23.21	-33.9	-35.1	29.5	3.02e+01	61	29	0	226492416	42	6162
2026-01-11 01:22:38.42	352.23	23.06	-33.9	-35.1	29.5	3.02e+01	45	29	0	228065280	42	6197
2026-01-11 01:22:39.43	352.11	22.90	-34.0	-35.2	29.4	3.02e+01	60	29	0	230162432	42	6229
2026-01-11 01:22:40.44	351.98	22.75	-33.9	-35.1	29.6	3.02e+01	58	29	0	232259584	42	6155
2026-01-11 01:22:41.45	351.86	22.60	-34.0	-35.2	29.4	3.02e+01	46	29	0	233832448	42	6254
2026-01-11 01:22:42.46	351.73	22.44	-34.2	-35.4	29.3	3.02e+01	58	29	0	235929600	42	6387
2026-01-11 01:22:43.47	351.61	22.29	-34.2	-35.4	29.2	3.02e+01	57	29	0	237502464	42	6418
2026-01-11 01:22:44.48	351.49	22.14	-34.2	-35.5	29.2	3.02e+01	59	29	0	239599616	42	6430
2026-01-11 01:22:45.49	351.37	21.99	-34.3	-35.5	29.1	3.02e+01	60	29	0	241696768	42	6489
2026-01-11 01:22:46.50	351.25	21.84	-34.2	-35.5	29.1	3.02e+01	51	29	0	243269632	42	6428
2026-01-11 01:22:47.51	351.14	21.70	-34.1	-35.3	29.3	3.02e+01	56	29	0	245366784	42	6323
2026-01-11 01:22:48.52	351.02	21.55	-34.0	-35.2	29.4	3.02e+01	57	29	0	246939648	42	6257
2026-01-11 01:22:49.53	350.91	21.40	-34.1	-35.3	29.3	3.02e+01	54	29	0	249036800	42	6299
2026-01-11 01:22:50.54	350.79	21.26	-34.0	-35.2	29.4	3.02e+01	58	29	0	251133952	42	6244
2026-01-11 01:22:51.55	350.68	21.11	-34.0	-35.2	29.4	3.02e+01	53	29	0	252706816	42	6250
2026-01-11 01:22:52.56	350.57	20.97	-33.9	-35.1	29.5	3.02e+01	59	29	0	254803968	42	6198
2026-01-11 01:22:53.57	350.46	20.83	-34.1	-35.3	29.4	3.02e+01	56	29	0	256376832	42	6293
2026-01-11 01:22:54.58	350.35	20.69	-33.9	-35.1	29.4	3.02e+01	51	29	0	258473984	42	6198
2026-01-11 01:22:55.58	350.25	20.55	-33.9	-35.1	29.5	3.02e+01	61	29	0	260571136	42	6166
2026-01-11 01:22:56.59	350.14	20.40	-33.9	-35.1	29.5	3.02e+01	60	29	0	262144000	42	6179
2026-01-11 01:22:57.60	350.03	20.26	-33.9	-35.1	29.4	3.02e+01	57	29	0	264241152	42	6192
2026-01-11 01:22:58.61	349.93	20.13	-33.9	-35.1	29.5	3.02e+01	61	29	0	266338304	42	6170
2026-01-11 01:22:59.62	349.83	19.99	-34.0	-35.2	29.3	3.02e+01	46	29	0	267911168	42	6273
2026-01-11 01:23:00.63	349.72	19.85	-33.8	-35.0	29.6	3.02e+01	61	29	0	270008320	42	6117
2026-01-11 01:23:01.64	349.62	19.71	-33.8	-35.0	29.5	3.02e+01	59	29	0	271581184	42	6120
2026-01-11 01:23:02.65	349.52	19.58	-33.8	-35.0	29.5	3.02e+01	46	29	0	273678336	42	6103
2026-01-11 01:23:03.66	349.42	19.44	-33.9	-35.1	29.5	3.02e+01	62	29	0	275775488	42	6142
2026-01-11 01:23:04.67	349.32	19.31	-33.9	-35.1	29.5	3.02e+01	59	29	0	277348352	42	6154
2026-01-11 01:23:05.68	349.23	19.17	-33.9	-35.1	29.4	3.02e+01	59	29	0	279445504	42	6162
2026-01-11 01:23:06.69	349.13	19.04	-34.0	-35.2	29.4	3.02e+01	59	29	0	281018368	42	6261
2026-01-11 01:23:07.70	349.03	18.91	-33.9	-35.1	29.5	3.02e+01	56	29	0	283115520	42	6189
2026-01-11 01:23:08.71	348.94	18.77	-34.0	-35.2	29.4	3.02e+01	59	29	0	285212672	42	6239
2026-01-11 01:23:09.71	348.85	18.64	-34.0	-35.2	29.3	3.02e+01	59	29	0	286785536	42	6223
2026-01-11 01:23:10.72	348.75	18.51	-33.9	-35.2	29.4	3.02e+01	47	29	0	288882688	42	6208
2026-01-11 01:23:11.73	348.66	18.38	-34.0	-35.2	29.4	3.02e+01	61	29	0	290979840	42	6212
2026-01-11 01:23:12.74	348.57	18.26	-34.0	-35.2	29.4	3.02e+01	56	29	0	292552704	42	6228
2026-01-11 01:23:13.75	348.48	18.13	-33.9	-35.1	29.5	3.02e+01	59	29	0	294649856	42	6155
2026-01-11 01:23:14.76	348.39	18.00	-33.9	-35.2	29.4	3.02e+01	59	29	0	296222720	42	6216
2026-01-11 01:23:15.77	348.30	17.87	-33.9	-35.1	29.3	3.02e+01	44	29	0	298319872	42	6181
2026-01-11 01:23:16.78	348.21	17.74	-33.8	-35.0	29.5	3.02e+01	61	29	0	300417024	42	6079
2026-01-11 01:23:17.79	348.13	17.62	-33.9	-35.1	29.5	3.02e+01	58	29	0	301989888	42	6151
2026-01-11 01:23:18.80	348.04	17.49	-33.8	-35.0	29.4	3.02e+01	45	29	0	304087040	42	6122
2026-01-11 01:23:19.81	347.95	17.37	-33.7	-34.9	29.5	3.02e+01	59	29	0	305659904	42	6056
2026-01-11 01:23:20.82	347.87	17.24	-33.8	-35.0	29.5	3.02e+01	59	29	0	307757056	42	6067
2026-01-11 01:23:21.83	347.78	17.12	-33.9	-35.1	29.4	3.02e+01	55	29	0	309329920	42	6160
2026-01-11 01:23:22.84	347.70	17.00	-33.8	-35.0	29.5	3.02e+01	59	29	0	311427072	42	6076
2026-01-11 01:23:23.84	347.62	16.88	-33.8	-35.1	29.4	3.02e+01	61	29	0	313524224	42	6136
2026-01-11 01:23:24.85	347.54	16.76	-33.9	-35.1	29.3	3.02e+01	61	29	0	315097088	42	6170
2026-01-11 01:23:25.86	347.46	16.64	-34.1	-35.3	29.1	3.02e+01	61	29	0	317194240	42	6289
2026-01-11 01:23:26.87	347.38	16.51	-34.1	-35.3	29.2	3.02e+01	45	29	0	319291392	42	6336
2026-01-11 01:23:27.88	347.30	16.40	-33.8	-35.0	29.4	3.02e+01	59	29	0	320864256	42	6125
2026-01-11 01:23:28.89	347.22	16.28	-33.7	-34.9	29.5	3.02e+01	45	29	0	322961408	42	6046
2026-01-11 01:23:29.90	347.14	16.16	-33.7	-34.8	29.6	3.02e+01	56	29	0	324534272	42	5994
2026-01-11 01:23:30.91	347.06	16.04	-33.8	-35.0	29.4	3.02e+01	63	29	0	326631424	42	6121
2026-01-11 01:23:31.92	346.99	15.92	-33.8	-35.0	29.4	3.02e+01	44	29	0	328728576	42	6105
2026-01-11 01:23:32.93	346.91	15.81	-33.9	-35.1	29.4	3.02e+01	57	29	0	330301440	42	6142
2026-01-11 01:23:33.94	346.83	15.69	-33.9	-35.1	29.4	3.02e+01	58	29	0	332398592	42	6148
2026-01-11 01:23:34.95	346.76	15.57	-33.9	-35.1	29.3	3.02e+01	57	29	0	334495744	42	6175
2026-01-11 01:23:35.96	346.68	15.46	-33.9	-35.1	29.3	3.02e+01	55	29	0	336068608	42	6173
2026-01-11 01:23:36.97	346.61	15.34	-33.9	-35.1	29.4	3.02e+01	50	29	0	338165760	42	6176
2026-01-11 01:23:37.98	346.54	15.23	-34.0	-35.2	29.3	3.02e+01	54	29	0	339738624	42	6263
2026-01-11 01:23:38.99	346.47	15.12	-34.1	-35.3	29.1	3.02e+01	57	29	0	341835776	42	6348
2026-01-11 01:23:40.00	346.39	15.00	-34.1	-35.3	29.1	3.02e+01	47	29	0	343932928	42	6306
2026-01-11 01:23:41.01	346.32	14.89	-34.1	-35.4	29.1	3.02e+01	57	29	0	345505792	42	6366
2026-01-11 01:23:42.02	346.25	14.78	-34.0	-35.3	29.1	3.02e+01	61	29	0	347602944	42	6290
2026-01-11 01:23:43.03	346.18	14.67	-34.1	-35.3	29.0	3.02e+01	60	29	0	349175808	42	6343
2026-01-11 01:23:44.03	346.11	14.56	-33.9	-35.1	29.3	3.02e+01	60	29	0	351272960	42	6158
2026-01-11 01:23:45.04	346.04	14.45	-34.0	-35.2	29.1	3.02e+01	54	29	0	353370112	42	6277
2026-01-11 01:23:46.05	345.98	14.34	-34.0	-35.3	29.0	3.02e+01	59	29	0	354942976	42	6284
2026-01-11 01:23:47.07	345.91	14.23	-34.0	-35.2	29.1	3.02e+01	58	29	0	357040128	42	6269
2026-01-11 01:23:48.08	345.84	14.12	-33.8	-35.0	29.3	3.02e+01	52	29	0	358612992	42	6126
2026-01-11 01:23:49.08	345.77	14.01	-33.9	-35.1	29.2	3.02e+01	60	29	0	360710144	42	6195
2026-01-11 01:23:50.09	345.71	13.90	-33.9	-35.1	29.2	3.02e+01	62	29	0	362807296	42	6172
2026-01-11 01:23:51.10	345.64	13.80	-33.9	-35.1	29.3	3.02e+01	62	29	0	364380160	42	6152
2026-01-11 01:23:52.11	345.58	13.69	-33.9	-35.2	29.2	3.02e+01	60	29	0	366477312	42	6210
2026-01-11 01:23:53.12	345.51	13.58	-34.0	-35.2	29.1	3.02e+01	52	29	0	368050176	42	6273
2026-01-11 01:23:54.13	345.45	13.48	-34.0	-35.2	29.2	3.02e+01	60	29	0	370147328	42	6265
2026-01-11 01:23:55.14	345.39	13.37	-34.0	-35.2	29.2	3.02e+01	59	29	0	372244480	42	6227
2026-01-11 01:23:56.15	345.32	13.27	-34.1	-35.4	29.1	3.02e+01	49	29	0	373817344	42	6369
2026-01-11 01:23:57.16	345.26	13.16	-34.1	-35.4	29.0	3.02e+01	57	29	0	375914496	42	6378
2026-01-11 01:23:58.17	345.20	13.06	-34.0	-35.2	29.1	3.02e+01	61	29	0	377487360	42	6275
2026-01-11 01:23:59.18	345.14	12.95	-34.0	-35.3	29.1	3.02e+01	58	29	0	379584512	42	6285
2026-01-11 01:24:00.19	345.08	12.85	-33.9	-35.1	29.2	3.02e+01	56	29	0	381681664	42	6202
2026-01-11 01:24:01.20	345.02	12.75	-34.0	-35.2	29.2	3.02e+01	54	29	0	383254528	42	6274
2026-01-11 01:24:02.21	344.96	12.65	-34.0	-35.2	29.1	3.02e+01	59	29	0	385351680	42	6225
2026-01-11 01:24:03.22	344.90	12.54	-34.0	-35.2	29.1	3.02e+01	61	29	0	387448832	42	6214
2026-01-11 01:24:04.22	344.84	12.44	-34.1	-35.3	29.1	3.02e+01	58	29	0	389021696	42	6293
2026-01-11 01:24:05.23	344.78	12.34	-34.1	-35.3	29.1	3.02e+01	58	29	0	391118848	42	6298
2026-01-11 01:24:06.24	344.72	12.24	-34.0	-35.2	29.1	3.02e+01	44	29	0	392691712	42	6238
2026-01-11 01:24:07.25	344.67	12.14	-34.2	-35.5	29.0	3.02e+01	58	29	0	394788864	42	6437
2026-01-11 01:24:08.26	344.61	12.04	-34.2	-35.4	29.0	3.02e+01	58	29	0	396886016	42	6418
2026-01-11 01:24:09.27	344.55	11.94	-34.1	-35.3	29.0	3.02e+01	52	29	0	398458880	42	6345
2026-01-11 01:24:10.28	344.50	11.84	-34.2	-35.4	29.0	3.02e+01	59	29	0	400556032	42	6366
2026-01-11 01:24:11.29	344.44	11.75	-34.2	-35.4	29.0	3.02e+01	59	29	0	402653184	42	6384
2026-01-11 01:24:12.30	344.38	11.65	-34.3	-35.6	28.8	3.02e+01	56	29	0	404226048	42	6530
2026-01-11 01:24:13.31	344.33	11.55	-34.3	-35.5	28.9	3.02e+01	61	29	0	406323200	42	6477
2026-01-11 01:24:14.32	344.27	11.45	-34.5	-35.8	28.7	3.02e+01	58	29	0	407896064	42	6661
2026-01-11 01:24:15.33	344.22	11.36	-34.7	-36.0	28.5	3.02e+01	56	29	0	409993216	42	6806
2026-01-11 01:24:16.34	344.17	11.26	-34.5	-35.8	28.6	3.02e+01	58	29	0	412090368	42	6679
2026-01-11 01:24:17.35	344.11	11.16	-34.6	-35.8	28.6	3.02e+01	53	29	0	413663232	42	6711
2026-01-11 01:24:18.36	344.06	11.07	-34.6	-35.8	28.5	3.02e+01	66	29	0	415760384	42	6709
2026-01-11 01:24:19.37	344.01	10.97	-34.6	-35.9	28.6	3.02e+01	61	29	0	417333248	42	6727
2026-01-11 01:24:20.37	343.96	10.88	-34.5	-35.7	28.7	3.02e+01	59	29	0	419430400	42	6641
2026-01-11 01:24:21.38	343.91	10.78	-34.6	-35.8	28.5	3.02e+01	60	29	0	421527552	42	6712
2026-01-11 01:24:22.39	343.85	10.69	-34.7	-36.0	28.4	3.02e+01	47	29	0	423100416	42	6861
2026-01-11 01:24:23.40	343.80	10.60	-34.6	-35.8	28.5	3.02e+01	58	29	0	425197568	42	6720
2026-01-11 01:24:24.41	343.75	10.50	-34.6	-35.9	28.5	3.02e+01	60	29	0	426770432	42	6757
2026-01-11 01:24:25.42	343.70	10.41	-34.8	-36.1	28.3	3.02e+01	55	29	0	428867584	42	6902
2026-01-11 01:24:26.43	343.65	10.32	-34.6	-35.9	28.4	3.02e+01	60	29	0	430964736	42	6737
2026-01-11 01:24:27.44	343.60	10.23	-34.6	-35.8	28.5	3.02e+01	58	29	0	432537600	42	6699
2026-01-11 01:24:28.45	343.55	10.13	-34.6	-35.8	28.5	3.02e+01	60	29	0	434634752	42	6724
2026-01-11 01:24:29.46	343.50	10.04	-34.6	-35.8	28.5	3.02e+01	59	29	0	436207616	42	6723
2026-01-11 01:24:30.47	343.46	9.95	-34.7	-35.9	28.4	3.02e+01	52	29	0	438304768	42	6796
2026-01-11 01:24:31.48	343.41	9.86	-34.7	-35.9	28.4	3.02e+01	60	29	0	440401920	42	6785
2026-01-11 01:24:32.49	343.36	9.77	-34.6	-35.9	28.4	3.02e+01	60	29	0	441974784	42	6746
2026-01-11 01:24:33.50	343.31	9.68	-34.8	-36.1	28.3	3.02e+01	48	29	0	444071936	42	6928
2026-01-11 01:24:34.50	343.27	9.59	-34.7	-36.0	28.4	3.02e+01	64	29	0	445644800	42	6823
2026-01-11 01:24:35.51	343.22	9.50	-34.7	-36.0	28.3	3.02e+01	55	29	0	447741952	42	6835
2026-01-11 01:24:36.52	343.17	9.41	-34.6	-35.9	28.4	3.02e+01	58	29	0	449839104	42	6766
2026-01-11 01:24:37.53	343.13	9.32	-34.9	-36.2	28.3	3.02e+01	58	29	0	451411968	42	6968
2026-01-11 01:24:38.54	343.08	9.24	-34.8	-36.1	28.3	3.02e+01	50	29	0	453509120	42	6898
2026-01-11 01:24:39.55	343.04	9.15	-34.8	-36.1	28.2	3.02e+01	57	29	0	455606272	44	6152
