passes_logs/2026/01/11/R4.6S_Anadyr/R4.6S_Anadyr__20260111_141921_SUOMI_NPP_rec.log

#Pass ID: 20260111_141921_SUOMI NPP
#Satellite: SUOMI NPP
#Configuration: NPP
#almurnet v.1.7.20251203
#Start time: 2026-01-11 14:19:22

#Version: 2.2.20231116
#Station: R4.6S_Anadyr
#Location: 177.4865 lon 64.73178 lat
#TLE: 1 37849U 11061A   26010.94533966  .00000106  00000+0  71276-4 0  9997
#TLE: 2 37849  98.7807 313.0290 0002520  70.6146 289.5303 14.19524339736134

#Time	Az	El	Level	Level2	SNR	BER	BlckErr	Temp	State	Recorded	gain1	gain2
2026-01-11 14:19:22.63	19.72	0.08	-48.1	-60.6	3.5	1.52e+00	0	25	0	0	60	37655
2026-01-11 14:19:23.64	19.74	0.14	-48.1	-63.4	3.6	1.51e+00	0	26	104	0	60	53254
2026-01-11 14:19:24.65	19.76	0.20	-48.1	-63.3	3.6	1.51e+00	0	26	104	0	60	53144
2026-01-11 14:19:25.66	19.78	0.26	-48.0	-63.3	3.6	1.51e+00	0	26	104	0	60	53112
2026-01-11 14:19:26.67	19.80	0.32	-48.1	-63.4	3.6	1.51e+00	0	26	104	0	60	53226
2026-01-11 14:19:27.68	19.82	0.38	-48.2	-63.3	3.6	1.51e+00	0	26	104	0	60	52984
2026-01-11 14:19:28.69	19.84	0.44	-48.2	-63.3	3.6	1.51e+00	0	27	104	0	60	53146
2026-01-11 14:19:29.70	19.85	0.50	-48.1	-63.3	3.6	1.51e+00	0	27	104	0	60	53106
2026-01-11 14:19:30.71	19.87	0.56	-48.0	-63.3	3.6	1.51e+00	0	27	104	0	60	52803
2026-01-11 14:19:31.72	19.89	0.62	-48.0	-63.2	3.6	1.51e+00	0	27	104	0	60	52516
2026-01-11 14:19:32.73	19.91	0.68	-47.9	-63.1	3.6	1.51e+00	0	27	104	0	60	51905
2026-01-11 14:19:33.74	19.93	0.74	-47.8	-63.0	3.6	1.51e+00	0	27	104	0	60	51013
2026-01-11 14:19:34.75	19.95	0.80	-47.7	-62.8	3.6	1.51e+00	0	27	104	0	60	50052
2026-01-11 14:19:35.75	19.97	0.86	-47.3	-62.6	3.5	1.51e+00	0	27	104	0	60	48870
2026-01-11 14:19:36.76	19.99	0.92	-47.3	-62.4	3.6	1.51e+00	0	27	104	0	60	47780
2026-01-11 14:19:37.77	20.01	0.99	-47.0	-62.2	3.6	1.51e+00	0	27	104	0	60	46400
2026-01-11 14:19:38.78	20.03	1.05	-46.6	-61.8	3.6	1.51e+00	0	27	104	0	60	44505
2026-01-11 14:19:39.79	20.05	1.11	-46.6	-61.7	3.6	1.51e+00	0	27	104	0	60	43928
2026-01-11 14:19:40.80	20.07	1.17	-46.6	-61.6	3.6	1.51e+00	0	27	104	0	60	43410
2026-01-11 14:19:41.81	20.09	1.23	-46.6	-61.7	3.6	1.51e+00	0	27	104	0	60	43853
2026-01-11 14:19:42.82	20.11	1.29	-46.6	-61.7	3.6	1.51e+00	0	27	104	0	60	43747
2026-01-11 14:19:43.83	20.13	1.36	-46.6	-61.6	3.6	1.51e+00	0	27	104	0	60	43667
2026-01-11 14:19:44.84	20.15	1.42	-46.6	-61.7	3.6	1.51e+00	0	27	104	0	60	43730
2026-01-11 14:19:45.85	20.17	1.48	-46.6	-61.7	3.6	1.51e+00	0	27	104	0	60	43839
2026-01-11 14:19:46.86	20.19	1.54	-46.6	-61.7	3.6	1.51e+00	0	27	104	0	60	43935
2026-01-11 14:19:47.87	20.21	1.61	-46.6	-61.7	3.6	1.51e+00	0	27	104	0	60	44117
2026-01-11 14:19:48.88	20.23	1.67	-46.6	-61.7	3.6	1.51e+00	0	27	104	0	60	43771
2026-01-11 14:19:49.89	20.25	1.73	-46.6	-61.7	3.6	1.51e+00	0	27	104	0	60	44177
2026-01-11 14:19:50.90	20.27	1.80	-46.6	-61.7	3.6	1.51e+00	0	27	104	0	60	44135
2026-01-11 14:19:51.91	20.29	1.86	-46.6	-61.7	3.6	1.51e+00	0	27	104	0	60	43831
2026-01-11 14:19:52.92	20.31	1.92	-46.5	-61.7	3.6	1.51e+00	0	27	104	0	60	43789
2026-01-11 14:19:53.93	20.33	1.99	-46.5	-61.8	3.6	1.51e+00	0	27	104	0	60	44283
2026-01-11 14:19:54.94	20.35	2.05	-46.5	-61.7	3.6	1.51e+00	0	27	104	0	60	43949
2026-01-11 14:19:55.94	20.37	2.11	-46.5	-61.5	3.6	1.51e+00	0	27	104	0	60	43179
2026-01-11 14:19:56.95	20.39	2.18	-46.5	-61.1	3.6	1.51e+00	0	27	104	0	60	41230
2026-01-11 14:19:57.96	20.41	2.24	-46.5	-60.6	3.6	1.51e+00	0	27	104	0	60	38517
2026-01-11 14:19:58.97	20.43	2.31	-46.5	-59.9	3.6	1.51e+00	0	27	104	0	60	35642
2026-01-11 14:19:59.98	20.45	2.37	-46.4	-59.4	3.7	1.50e+00	0	27	104	0	60	33635
2026-01-11 14:20:00.99	20.47	2.44	-46.4	-59.4	3.7	1.49e+00	0	27	104	0	60	33541
2026-01-11 14:20:02.00	20.50	2.50	-46.4	-59.2	3.8	1.49e+00	0	27	104	0	60	32962
2026-01-11 14:20:03.01	20.52	2.56	-46.4	-59.4	3.6	1.49e+00	0	27	104	0	60	33728
2026-01-11 14:20:04.02	20.54	2.63	-46.4	-58.7	3.7	1.49e+00	0	27	104	0	60	31298
2026-01-11 14:20:05.03	20.56	2.70	-46.2	-56.5	4.6	1.07e+00	0	27	104	0	60	24181
2026-01-11 14:20:06.04	20.58	2.76	-45.9	-53.4	6.5	4.56e-01	0	27	0	1048576	60	16823
2026-01-11 14:20:07.05	20.60	2.83	-45.3	-50.9	9.3	7.86e-02	0	27	0	3145728	60	12647
2026-01-11 14:20:08.06	20.62	2.89	-44.4	-48.6	11.8	1.20e-03	0	27	0	5242880	60	9781
2026-01-11 14:20:09.07	20.65	2.96	-43.6	-46.8	13.8	5.18e-05	0	27	0	7340032	60	7943
2026-01-11 14:20:10.08	20.67	3.02	-42.8	-45.5	15.3	7.00e-07	0	27	0	8388608	60	6791
2026-01-11 14:20:11.09	20.69	3.09	-41.7	-43.9	16.7	0.00e+00	0	27	0	10485760	58	6336
2026-01-11 14:20:12.10	20.71	3.16	-41.7	-43.9	16.9	0.00e+00	0	27	0	12582912	56	7091
2026-01-11 14:20:13.11	20.73	3.22	-40.9	-42.8	17.9	0.00e+00	0	27	0	14680064	56	6274
2026-01-11 14:20:14.12	20.75	3.29	-40.8	-42.6	17.9	0.00e+00	0	27	0	16777216	54	6869
2026-01-11 14:20:15.13	20.78	3.36	-40.9	-42.8	17.7	0.00e+00	0	27	0	18874368	54	7021
2026-01-11 14:20:16.14	20.80	3.42	-41.1	-43.0	17.4	0.00e+00	0	27	0	19922944	54	7230
2026-01-11 14:20:17.15	20.82	3.49	-41.4	-43.5	17.0	0.00e+00	0	27	0	22020096	54	7607
2026-01-11 14:20:18.16	20.84	3.56	-42.2	-44.5	16.1	0.00e+00	0	27	0	24117248	56	7642
2026-01-11 14:20:19.17	20.87	3.62	-43.0	-45.9	14.5	7.00e-07	0	27	0	26214400	58	8013
2026-01-11 14:20:20.18	20.89	3.69	-44.1	-47.9	13.0	4.50e-06	0	27	0	28311552	60	8948
2026-01-11 14:20:21.19	20.91	3.76	-40.9	-42.7	17.6	0.00e+00	0	28	0	29360128	56	6190
2026-01-11 14:20:22.20	20.93	3.83	-45.3	-51.0	10.1	6.70e-03	0	28	0	31457280	60	12889
2026-01-11 14:20:23.21	20.96	3.90	-46.5	-58.8	3.8	6.06e-02	0	28	104	33554432	60	31477
2026-01-11 14:20:24.22	20.98	3.96	-43.0	-45.7	15.4	2.99e-03	0	27	0	33554432	60	6995
2026-01-11 14:20:25.23	21.00	4.03	-46.5	-60.6	3.6	1.36e+00	0	27	104	33554432	60	38747
2026-01-11 14:20:26.24	21.02	4.10	-44.2	-48.1	12.3	1.42e+00	0	28	104	33554432	60	9230
2026-01-11 14:20:27.25	21.05	4.17	-44.8	-49.2	11.5	3.42e-04	0	27	0	34603008	60	10447
2026-01-11 14:20:28.25	21.07	4.24	-44.4	-48.4	12.0	3.58e-04	0	28	0	35651584	60	9498
2026-01-11 14:20:29.27	21.09	4.31	-44.2	-47.8	13.1	3.51e-04	0	28	0	37748736	60	8923
2026-01-11 14:20:30.27	21.12	4.38	-43.0	-45.8	15.2	8.30e-06	0	28	0	39845888	60	7011
2026-01-11 14:20:31.28	21.14	4.44	-42.2	-44.5	16.3	0.00e+00	0	28	0	41943040	58	6840
2026-01-11 14:20:32.29	21.16	4.51	-42.1	-44.4	16.6	0.00e+00	0	28	0	44040192	58	6701
2026-01-11 14:20:33.30	21.19	4.58	-41.8	-43.9	16.7	0.00e+00	0	28	0	45088768	58	6390
2026-01-11 14:20:34.31	21.21	4.65	-41.8	-43.8	17.5	0.00e+00	0	28	0	47185920	56	7067
2026-01-11 14:20:35.32	21.23	4.72	-41.5	-43.4	17.6	0.00e+00	0	28	0	49283072	56	6724
2026-01-11 14:20:36.33	21.26	4.79	-40.2	-41.8	19.0	0.00e+00	0	28	0	51380224	54	6285
2026-01-11 14:20:37.34	21.28	4.87	-40.3	-41.9	18.9	0.00e+00	0	28	0	53477376	54	6339
2026-01-11 14:20:38.35	21.31	4.94	-39.8	-41.3	19.5	0.00e+00	0	28	0	54525952	52	6645
2026-01-11 14:20:39.36	21.33	5.01	-39.9	-41.4	19.5	0.00e+00	0	28	0	56623104	52	6724
2026-01-11 14:20:40.37	21.35	5.08	-39.9	-41.4	19.4	0.00e+00	0	28	0	58720256	52	6732
2026-01-11 14:20:41.38	21.38	5.15	-39.8	-41.2	19.5	0.00e+00	0	28	0	60817408	52	6576
2026-01-11 14:20:42.39	21.40	5.22	-39.6	-41.0	19.7	0.00e+00	0	28	0	62914560	52	6448
2026-01-11 14:20:43.40	21.43	5.29	-38.9	-40.2	20.5	0.00e+00	0	28	0	65011712	52	5846
2026-01-11 14:20:44.41	21.45	5.36	-39.1	-40.4	20.3	0.00e+00	0	28	0	66060288	52	6001
2026-01-11 14:20:45.42	21.48	5.44	-39.2	-40.6	20.2	0.00e+00	0	28	0	68157440	52	6116
2026-01-11 14:20:46.43	21.50	5.51	-39.0	-40.3	20.4	0.00e+00	0	28	0	70254592	52	5943
2026-01-11 14:20:47.43	21.53	5.58	-39.0	-40.3	20.5	0.00e+00	0	28	0	72351744	52	5915
2026-01-11 14:20:48.44	21.55	5.65	-39.0	-40.2	20.5	0.00e+00	0	28	0	73400320	52	5876
2026-01-11 14:20:49.45	21.58	5.73	-39.0	-40.3	20.5	0.00e+00	0	28	0	75497472	52	5946
2026-01-11 14:20:50.46	21.60	5.80	-39.0	-40.3	20.4	0.00e+00	0	28	0	77594624	52	5935
2026-01-11 14:20:51.47	21.63	5.87	-39.1	-40.4	20.4	0.00e+00	0	28	0	79691776	52	6018
2026-01-11 14:20:52.48	21.65	5.94	-38.9	-40.2	20.6	0.00e+00	0	28	0	81788928	52	5853
2026-01-11 14:20:53.49	21.68	6.02	-39.0	-40.3	20.5	0.00e+00	0	28	0	82837504	52	5899
2026-01-11 14:20:54.50	21.70	6.09	-39.0	-40.2	20.6	0.00e+00	0	28	0	84934656	52	5874
2026-01-11 14:20:55.51	21.73	6.17	-38.8	-40.1	20.7	0.00e+00	0	28	0	87031808	52	5781
2026-01-11 14:20:56.52	21.75	6.24	-38.8	-40.1	20.8	0.00e+00	0	28	0	89128960	50	6477
2026-01-11 14:20:57.53	21.78	6.31	-38.9	-40.2	20.6	0.00e+00	0	28	0	91226112	50	6551
2026-01-11 14:20:58.54	21.81	6.39	-38.9	-40.2	20.7	0.00e+00	0	28	0	93323264	50	6543
2026-01-11 14:20:59.55	21.83	6.46	-38.7	-40.0	20.7	0.00e+00	0	28	0	94371840	50	6395
2026-01-11 14:21:00.56	21.86	6.54	-39.0	-40.2	20.6	0.00e+00	0	28	0	96468992	50	6610
2026-01-11 14:21:01.57	21.89	6.61	-38.8	-40.0	20.7	0.00e+00	0	28	0	98566144	50	6462
2026-01-11 14:21:02.58	21.91	6.69	-38.7	-39.9	20.9	0.00e+00	0	28	0	100663296	50	6372
2026-01-11 14:21:03.59	21.94	6.77	-38.7	-39.9	20.9	0.00e+00	0	28	0	102760448	50	6380
2026-01-11 14:21:04.60	21.97	6.84	-38.8	-40.0	20.9	0.00e+00	0	28	0	103809024	50	6412
2026-01-11 14:21:05.61	21.99	6.92	-38.7	-39.9	20.8	0.00e+00	0	28	0	105906176	50	6327
2026-01-11 14:21:06.62	22.02	6.99	-38.5	-39.6	21.1	0.00e+00	0	28	0	108003328	50	6164
2026-01-11 14:21:07.63	22.05	7.07	-38.6	-39.8	20.9	0.00e+00	0	28	0	110100480	50	6276
2026-01-11 14:21:08.64	22.07	7.15	-38.6	-39.8	21.0	0.00e+00	0	28	0	112197632	50	6259
2026-01-11 14:21:09.65	22.10	7.22	-38.6	-39.7	21.1	0.00e+00	0	28	0	113246208	50	6233
2026-01-11 14:21:10.66	22.13	7.30	-38.6	-39.8	21.0	0.00e+00	0	28	0	115343360	50	6298
2026-01-11 14:21:11.67	22.16	7.38	-38.5	-39.6	21.1	0.00e+00	0	28	0	117440512	50	6172
2026-01-11 14:21:12.68	22.18	7.46	-38.3	-39.5	21.2	0.00e+00	0	28	0	119537664	50	6050
2026-01-11 14:21:13.69	22.21	7.54	-38.7	-39.9	21.0	0.00e+00	0	28	0	121634816	50	6323
2026-01-11 14:21:14.70	22.24	7.61	-38.6	-39.7	21.2	0.00e+00	0	28	0	122683392	50	6224
2026-01-11 14:21:15.71	22.27	7.69	-38.7	-39.9	21.0	0.00e+00	0	28	0	124780544	50	6386
2026-01-11 14:21:16.72	22.30	7.77	-38.5	-39.7	21.1	0.00e+00	0	28	0	126877696	50	6208
2026-01-11 14:21:17.73	22.32	7.85	-38.4	-39.6	21.2	0.00e+00	0	28	0	128974848	50	6134
2026-01-11 14:21:18.74	22.35	7.93	-38.5	-39.7	21.1	0.00e+00	0	28	0	131072000	50	6197
2026-01-11 14:21:19.75	22.38	8.01	-38.4	-39.6	21.3	0.00e+00	0	28	0	133169152	50	6133
2026-01-11 14:21:20.76	22.41	8.09	-38.4	-39.6	21.2	0.00e+00	0	28	0	134217728	50	6128
2026-01-11 14:21:21.77	22.44	8.17	-38.5	-39.7	21.2	0.00e+00	0	28	0	136314880	50	6215
2026-01-11 14:21:22.78	22.47	8.25	-38.4	-39.5	21.3	0.00e+00	0	28	0	138412032	50	6084
2026-01-11 14:21:23.79	22.50	8.33	-38.5	-39.7	21.2	0.00e+00	0	28	0	140509184	50	6180
2026-01-11 14:21:24.80	22.53	8.41	-38.4	-39.6	21.3	0.00e+00	0	28	0	142606336	50	6131
2026-01-11 14:21:25.81	22.55	8.49	-38.0	-39.1	21.7	0.00e+00	0	28	0	143654912	50	5793
2026-01-11 14:21:26.82	22.58	8.57	-38.1	-39.2	21.8	0.00e+00	0	28	0	145752064	50	5840
2026-01-11 14:21:27.83	22.61	8.65	-38.0	-39.1	21.7	0.00e+00	0	28	0	147849216	50	5795
2026-01-11 14:21:28.84	22.64	8.73	-38.0	-39.1	21.7	0.00e+00	0	28	0	149946368	50	5812
2026-01-11 14:21:29.85	22.67	8.82	-38.1	-39.3	21.6	0.00e+00	0	28	0	152043520	50	5897
2026-01-11 14:21:30.86	22.70	8.90	-37.9	-39.0	21.8	0.00e+00	0	28	0	153092096	50	5704
2026-01-11 14:21:31.87	22.73	8.98	-37.9	-39.0	21.8	0.00e+00	0	28	0	155189248	50	5732
2026-01-11 14:21:32.88	22.76	9.06	-37.9	-39.0	21.9	0.00e+00	0	28	0	157286400	50	5728
2026-01-11 14:21:33.89	22.79	9.15	-37.9	-39.0	21.9	0.00e+00	0	28	0	159383552	50	5699
2026-01-11 14:21:34.90	22.83	9.23	-37.9	-38.9	21.9	0.00e+00	0	28	0	161480704	50	5688
2026-01-11 14:21:35.91	22.86	9.31	-37.8	-38.9	22.0	0.00e+00	0	28	0	162529280	50	5650
2026-01-11 14:21:36.92	22.89	9.40	-37.8	-38.8	21.9	0.00e+00	0	28	0	164626432	48	6291
2026-01-11 14:21:37.93	22.92	9.48	-37.9	-39.0	21.8	0.00e+00	0	28	0	166723584	48	6440
2026-01-11 14:21:38.94	22.95	9.57	-37.9	-39.0	21.9	0.00e+00	0	28	0	168820736	48	6409
2026-01-11 14:21:39.95	22.98	9.65	-37.8	-38.8	22.0	0.00e+00	0	28	0	170917888	48	6293
2026-01-11 14:21:40.96	23.01	9.74	-37.8	-38.9	22.0	0.00e+00	0	28	0	171966464	48	6351
2026-01-11 14:21:41.97	23.04	9.82	-37.7	-38.8	22.0	0.00e+00	0	28	0	174063616	48	6261
2026-01-11 14:21:42.98	23.08	9.91	-37.7	-38.8	22.0	0.00e+00	0	28	0	176160768	48	6279
2026-01-11 14:21:43.99	23.11	9.99	-38.0	-39.0	21.9	0.00e+00	0	28	0	178257920	48	6459
2026-01-11 14:21:45.00	23.14	10.08	-37.6	-38.7	22.3	0.00e+00	0	28	0	180355072	48	6191
2026-01-11 14:21:46.01	23.17	10.17	-37.7	-38.8	22.1	0.00e+00	0	28	0	181403648	48	6270
2026-01-11 14:21:47.02	23.21	10.25	-37.6	-38.6	22.2	0.00e+00	0	28	0	183500800	48	6126
2026-01-11 14:21:48.03	23.24	10.34	-37.6	-38.7	22.1	0.00e+00	0	28	0	185597952	48	6185
2026-01-11 14:21:49.04	23.27	10.43	-37.6	-38.6	22.2	0.00e+00	0	28	0	187695104	48	6168
2026-01-11 14:21:50.05	23.30	10.51	-37.5	-38.6	22.2	0.00e+00	0	28	0	189792256	48	6122
2026-01-11 14:21:51.06	23.34	10.60	-37.6	-38.6	22.1	0.00e+00	0	28	0	190840832	48	6143
2026-01-11 14:21:52.07	23.37	10.69	-37.5	-38.6	22.3	0.00e+00	0	28	0	192937984	48	6109
2026-01-11 14:21:53.08	23.40	10.78	-37.5	-38.5	22.2	0.00e+00	0	28	0	195035136	48	6051
2026-01-11 14:21:54.09	23.44	10.87	-37.5	-38.6	22.3	0.00e+00	0	28	0	197132288	48	6104
2026-01-11 14:21:55.10	23.47	10.96	-37.4	-38.4	22.3	0.00e+00	0	28	0	199229440	48	6023
2026-01-11 14:21:56.11	23.51	11.05	-37.4	-38.4	22.3	0.00e+00	0	28	0	201326592	48	6004
2026-01-11 14:21:57.11	23.54	11.14	-37.5	-38.5	22.4	0.00e+00	0	28	0	202375168	48	6055
2026-01-11 14:21:58.12	23.57	11.23	-37.5	-38.6	22.3	0.00e+00	0	28	0	204472320	48	6110
2026-01-11 14:21:59.13	23.61	11.32	-37.3	-38.3	22.5	0.00e+00	0	28	0	206569472	48	5952
2026-01-11 14:22:00.14	23.64	11.41	-37.4	-38.4	22.4	0.00e+00	0	28	0	208666624	48	6023
2026-01-11 14:22:01.15	23.68	11.50	-37.3	-38.3	22.5	0.00e+00	0	28	0	210763776	48	5949
2026-01-11 14:22:02.16	23.71	11.59	-37.4	-38.4	22.4	0.00e+00	0	28	0	211812352	48	5981
2026-01-11 14:22:03.17	23.75	11.68	-37.2	-38.2	22.6	0.00e+00	0	28	0	213909504	48	5878
2026-01-11 14:22:04.18	23.78	11.77	-37.2	-38.2	22.6	0.00e+00	0	28	0	216006656	48	5884
2026-01-11 14:22:05.19	23.82	11.87	-37.3	-38.3	22.4	0.00e+00	0	28	0	218103808	48	5959
2026-01-11 14:22:06.20	23.86	11.96	-37.2	-38.2	22.6	0.00e+00	0	29	0	220200960	48	5866
2026-01-11 14:22:07.21	23.89	12.05	-37.2	-38.2	22.6	0.00e+00	0	29	0	221249536	48	5832
2026-01-11 14:22:08.22	23.93	12.15	-37.2	-38.2	22.6	0.00e+00	0	29	0	223346688	48	5866
2026-01-11 14:22:09.23	23.97	12.24	-37.1	-38.1	22.7	0.00e+00	0	29	0	225443840	48	5794
2026-01-11 14:22:10.24	24.00	12.33	-37.2	-38.2	22.7	0.00e+00	0	28	0	227540992	48	5836
2026-01-11 14:22:11.25	24.04	12.43	-37.1	-38.1	22.6	0.00e+00	0	29	0	229638144	48	5794
2026-01-11 14:22:12.25	24.08	12.52	-37.3	-38.3	22.6	0.00e+00	0	29	0	230686720	48	5923
2026-01-11 14:22:13.26	24.11	12.62	-37.5	-38.5	22.1	0.00e+00	0	29	0	232783872	48	6102
2026-01-11 14:22:14.27	24.15	12.71	-37.7	-38.8	22.0	0.00e+00	0	29	0	234881024	48	6267
2026-01-11 14:22:15.28	24.19	12.81	-37.2	-38.2	22.2	0.00e+00	0	29	0	236978176	48	5880
2026-01-11 14:22:16.29	24.23	12.91	-37.3	-38.3	22.2	0.00e+00	0	29	0	239075328	48	5934
2026-01-11 14:22:17.30	24.27	13.00	-37.3	-38.3	22.5	0.00e+00	0	29	0	240123904	48	5919
2026-01-11 14:22:18.31	24.30	13.10	-37.2	-38.2	22.2	0.00e+00	0	28	0	242221056	48	5840
2026-01-11 14:22:19.32	24.34	13.20	-37.3	-38.3	22.6	0.00e+00	0	29	0	244318208	48	5912
2026-01-11 14:22:20.33	24.38	13.30	-37.4	-38.4	22.2	0.00e+00	0	29	0	246415360	48	5987
2026-01-11 14:22:21.34	24.42	13.39	-37.2	-38.2	22.4	0.00e+00	0	29	0	248512512	48	5833
2026-01-11 14:22:22.35	24.46	13.49	-37.2	-38.2	22.5	0.00e+00	0	29	0	249561088	48	5895
2026-01-11 14:22:23.36	24.50	13.59	-37.2	-38.2	22.6	0.00e+00	0	29	0	251658240	48	5855
2026-01-11 14:22:24.37	24.54	13.69	-37.2	-38.2	22.7	0.00e+00	0	29	0	253755392	48	5895
2026-01-11 14:22:25.38	24.58	13.79	-37.4	-38.4	22.6	0.00e+00	0	29	0	255852544	48	6007
2026-01-11 14:22:26.39	24.62	13.89	-37.2	-38.2	22.6	0.00e+00	0	29	0	257949696	48	5896
2026-01-11 14:22:27.40	24.66	13.99	-37.2	-38.1	22.7	0.00e+00	0	29	0	258998272	48	5826
2026-01-11 14:22:28.41	24.70	14.09	-37.1	-38.1	22.6	0.00e+00	0	29	0	261095424	48	5795
2026-01-11 14:22:29.42	24.74	14.20	-37.2	-38.1	22.8	0.00e+00	0	29	0	263192576	48	5815
2026-01-11 14:22:30.43	24.78	14.30	-37.2	-38.1	22.7	0.00e+00	0	29	0	265289728	48	5824
2026-01-11 14:22:31.44	24.83	14.40	-37.1	-38.1	22.9	0.00e+00	0	29	0	267386880	48	5769
2026-01-11 14:22:32.45	24.87	14.50	-37.3	-38.3	22.7	0.00e+00	0	29	0	269484032	48	5900
2026-01-11 14:22:33.45	24.91	14.61	-37.1	-38.1	22.8	0.00e+00	0	29	0	270532608	48	5791
2026-01-11 14:22:34.46	24.95	14.71	-37.3	-38.3	22.7	0.00e+00	0	29	0	272629760	48	5899
2026-01-11 14:22:35.47	24.99	14.81	-37.0	-38.0	22.8	0.00e+00	0	29	0	274726912	48	5703
2026-01-11 14:22:36.49	25.04	14.92	-37.1	-38.0	22.8	0.00e+00	0	29	0	276824064	48	5753
2026-01-11 14:22:37.49	25.08	15.02	-37.1	-38.0	22.8	0.00e+00	0	29	0	277872640	48	5754
2026-01-11 14:22:38.50	25.12	15.13	-37.7	-38.7	22.4	0.00e+00	0	29	0	279969792	48	6225
2026-01-11 14:22:39.51	25.17	15.23	-37.4	-38.4	22.6	0.00e+00	0	29	0	282066944	48	6017
2026-01-11 14:22:40.52	25.21	15.34	-37.4	-38.4	22.6	0.00e+00	0	29	0	284164096	48	6019
2026-01-11 14:22:41.53	25.26	15.45	-37.4	-38.4	22.6	0.00e+00	0	29	0	286261248	48	5977
2026-01-11 14:22:42.54	25.30	15.55	-37.3	-38.3	22.6	0.00e+00	0	29	0	287309824	48	5947
2026-01-11 14:22:43.55	25.35	15.66	-36.9	-37.9	23.1	0.00e+00	0	29	0	289406976	48	5640
2026-01-11 14:22:44.56	25.39	15.77	-37.1	-38.0	23.0	0.00e+00	0	29	0	291504128	48	5760
2026-01-11 14:22:45.57	25.44	15.88	-36.9	-37.8	23.0	0.00e+00	0	29	0	293601280	48	5620
2026-01-11 14:22:46.58	25.48	15.99	-37.0	-37.9	23.0	0.00e+00	0	29	0	295698432	48	5675
2026-01-11 14:22:47.59	25.53	16.10	-37.2	-38.2	22.7	0.00e+00	0	29	0	297795584	48	5856
2026-01-11 14:22:48.60	25.57	16.21	-37.0	-37.9	23.1	0.00e+00	0	29	0	298844160	48	5681
2026-01-11 14:22:49.60	25.62	16.32	-37.1	-38.1	23.0	0.00e+00	0	29	0	300941312	48	5763
2026-01-11 14:22:50.61	25.67	16.43	-37.0	-38.0	23.0	0.00e+00	0	29	0	303038464	48	5716
2026-01-11 14:22:51.62	25.72	16.54	-37.4	-38.4	22.6	0.00e+00	0	29	0	305135616	48	5998
2026-01-11 14:22:52.63	25.76	16.65	-37.3	-38.3	22.7	0.00e+00	0	29	0	307232768	48	5900
2026-01-11 14:22:53.64	25.81	16.76	-37.1	-38.1	22.9	0.00e+00	0	29	0	308281344	48	5795
2026-01-11 14:22:54.65	25.86	16.88	-37.1	-38.0	22.8	0.00e+00	0	29	0	310378496	48	5746
2026-01-11 14:22:55.66	25.91	16.99	-37.2	-38.2	22.8	0.00e+00	0	29	0	312475648	48	5861
2026-01-11 14:22:56.67	25.96	17.10	-37.1	-38.0	23.0	0.00e+00	0	29	0	314572800	48	5738
2026-01-11 14:22:57.68	26.01	17.22	-37.2	-38.1	23.0	0.00e+00	0	29	0	316669952	48	5811
2026-01-11 14:22:58.69	26.06	17.33	-36.9	-37.9	23.1	0.00e+00	0	29	0	317718528	48	5656
2026-01-11 14:22:59.70	26.11	17.45	-37.0	-38.0	23.0	0.00e+00	0	29	0	319815680	48	5696
2026-01-11 14:23:00.71	26.16	17.57	-37.0	-38.0	23.1	0.00e+00	0	29	0	321912832	48	5707
2026-01-11 14:23:01.72	26.21	17.68	-36.9	-37.8	23.1	0.00e+00	0	29	0	324009984	48	5596
2026-01-11 14:23:02.73	26.26	17.80	-37.0	-38.0	23.0	0.00e+00	0	29	0	326107136	48	5725
2026-01-11 14:23:03.74	26.31	17.92	-37.3	-38.2	22.9	0.00e+00	0	29	0	327155712	48	5874
2026-01-11 14:23:04.75	26.36	18.04	-37.1	-38.1	22.9	0.00e+00	0	29	0	329252864	48	5794
2026-01-11 14:23:05.76	26.41	18.15	-37.3	-38.2	22.9	0.00e+00	0	29	0	331350016	48	5896
2026-01-11 14:23:06.77	26.47	18.27	-37.1	-38.0	23.0	0.00e+00	0	29	0	333447168	48	5747
2026-01-11 14:23:07.78	26.52	18.39	-37.1	-38.1	23.0	0.00e+00	0	29	0	335544320	48	5779
2026-01-11 14:23:08.79	26.57	18.51	-37.0	-38.0	23.1	0.00e+00	0	29	0	336592896	48	5699
2026-01-11 14:23:09.80	26.63	18.64	-37.1	-38.1	22.9	0.00e+00	0	29	0	338690048	48	5782
2026-01-11 14:23:10.81	26.68	18.76	-37.3	-38.2	22.8	0.00e+00	0	29	0	340787200	48	5870
2026-01-11 14:23:11.82	26.73	18.88	-37.1	-38.0	23.1	0.00e+00	0	29	0	342884352	48	5723
2026-01-11 14:23:12.84	26.79	19.00	-37.2	-38.2	22.9	0.00e+00	0	29	0	344981504	48	5835
2026-01-11 14:23:13.85	26.84	19.13	-37.3	-38.3	22.7	0.00e+00	0	29	0	346030080	48	5915
2026-01-11 14:23:14.86	26.90	19.25	-37.6	-38.6	22.4	0.00e+00	0	29	0	348127232	48	6124
2026-01-11 14:23:15.86	26.96	19.38	-37.4	-38.3	22.5	0.00e+00	0	29	0	350224384	48	5959
2026-01-11 14:23:16.88	27.01	19.50	-37.2	-38.2	22.8	0.00e+00	0	29	0	352321536	48	5844
2026-01-11 14:23:17.89	27.07	19.63	-37.1	-38.1	23.0	0.00e+00	0	29	0	354418688	48	5768
2026-01-11 14:23:18.90	27.13	19.75	-37.2	-38.2	22.9	0.00e+00	0	29	0	355467264	48	5856
2026-01-11 14:23:19.91	27.19	19.88	-37.1	-38.0	23.0	0.00e+00	0	29	0	357564416	48	5745
2026-01-11 14:23:20.92	27.24	20.01	-37.1	-38.0	22.9	0.00e+00	0	29	0	359661568	48	5747
2026-01-11 14:23:21.92	27.30	20.14	-36.9	-37.8	23.1	0.00e+00	0	29	0	361758720	48	5620
2026-01-11 14:23:22.93	27.36	20.27	-37.2	-38.2	22.8	0.00e+00	0	29	0	363855872	48	5871
2026-01-11 14:23:23.94	27.42	20.40	-37.3	-38.3	22.8	0.00e+00	0	29	0	365953024	48	5908
2026-01-11 14:23:24.95	27.48	20.53	-37.3	-38.3	22.8	0.00e+00	0	29	0	367001600	48	5929
2026-01-11 14:23:25.96	27.54	20.66	-37.3	-38.3	22.9	0.00e+00	0	29	0	369098752	48	5899
2026-01-11 14:23:26.97	27.60	20.79	-37.4	-38.4	22.7	0.00e+00	0	29	0	371195904	48	5973
2026-01-11 14:23:27.98	27.66	20.92	-37.5	-38.5	22.6	0.00e+00	0	29	0	373293056	48	6074
2026-01-11 14:23:28.99	27.73	21.05	-37.6	-38.6	22.6	0.00e+00	0	29	0	375390208	48	6123
2026-01-11 14:23:30.00	27.79	21.19	-37.7	-38.8	22.5	0.00e+00	0	29	0	376438784	48	6250
2026-01-11 14:23:31.01	27.85	21.32	-37.5	-38.5	22.5	0.00e+00	0	29	0	378535936	48	6099
2026-01-11 14:23:32.02	27.92	21.46	-37.6	-38.6	22.5	0.00e+00	0	29	0	380633088	48	6158
2026-01-11 14:23:33.03	27.98	21.59	-37.6	-38.6	22.6	0.00e+00	0	29	0	382730240	48	6129
2026-01-11 14:23:34.04	28.04	21.73	-37.5	-38.5	22.7	0.00e+00	0	29	0	384827392	48	6041
2026-01-11 14:23:35.05	28.11	21.87	-37.3	-38.3	22.7	0.00e+00	0	29	0	385875968	48	5921
2026-01-11 14:23:36.06	28.17	22.00	-37.3	-38.3	23.0	0.00e+00	0	29	0	387973120	48	5932
2026-01-11 14:23:37.07	28.24	22.14	-37.3	-38.3	23.0	0.00e+00	0	29	0	390070272	48	5897
2026-01-11 14:23:38.08	28.31	22.28	-36.8	-37.7	23.2	0.00e+00	0	29	0	392167424	48	5535
2026-01-11 14:23:39.09	28.38	22.42	-36.5	-37.4	23.5	0.00e+00	0	29	0	394264576	46	6019
2026-01-11 14:23:40.10	28.44	22.56	-36.6	-37.5	23.5	0.00e+00	0	29	0	395313152	46	6041
2026-01-11 14:23:41.11	28.51	22.70	-36.7	-37.6	23.4	0.00e+00	0	29	0	397410304	46	6116
2026-01-11 14:23:42.12	28.58	22.85	-36.3	-37.2	23.7	0.00e+00	0	29	0	399507456	46	5864
2026-01-11 14:23:43.13	28.65	22.99	-36.2	-37.1	23.8	0.00e+00	0	29	0	401604608	46	5804
2026-01-11 14:23:44.14	28.72	23.13	-35.9	-36.7	24.0	0.00e+00	0	29	0	403701760	46	5536
2026-01-11 14:23:45.15	28.79	23.28	-35.8	-36.6	24.1	0.00e+00	0	29	0	405798912	46	5487
2026-01-11 14:23:46.16	28.86	23.42	-35.8	-36.6	24.1	0.00e+00	0	29	0	406847488	46	5471
2026-01-11 14:23:47.17	28.94	23.57	-35.6	-36.4	24.3	0.00e+00	0	29	0	408944640	44	6028
2026-01-11 14:23:48.18	29.01	23.72	-35.5	-36.4	24.1	0.00e+00	0	29	0	411041792	44	5977
2026-01-11 14:23:49.19	29.08	23.86	-35.2	-36.0	24.5	0.00e+00	0	29	0	413138944	44	5744
2026-01-11 14:23:50.20	29.16	24.01	-35.1	-35.9	24.6	0.00e+00	0	29	0	415236096	44	5636
2026-01-11 14:23:51.21	29.23	24.16	-35.4	-36.1	24.4	0.00e+00	0	29	0	416284672	44	5828
2026-01-11 14:23:52.22	29.31	24.31	-35.5	-36.3	24.4	0.00e+00	0	29	0	418381824	44	5911
2026-01-11 14:23:53.23	29.38	24.46	-35.1	-35.9	24.7	0.00e+00	0	29	0	420478976	44	5646
2026-01-11 14:23:54.24	29.46	24.61	-34.9	-35.6	24.8	0.00e+00	0	29	0	422576128	44	5501
2026-01-11 14:23:55.25	29.54	24.77	-35.0	-35.8	24.6	0.00e+00	0	29	0	424673280	44	5614
2026-01-11 14:23:56.26	29.61	24.92	-35.0	-35.8	24.7	0.00e+00	0	29	0	425721856	44	5567
2026-01-11 14:23:57.27	29.69	25.07	-35.2	-36.0	24.5	0.00e+00	0	29	0	427819008	44	5720
2026-01-11 14:23:58.28	29.77	25.23	-35.0	-35.8	24.6	0.00e+00	0	29	0	429916160	44	5616
2026-01-11 14:23:59.29	29.85	25.39	-35.0	-35.8	24.7	0.00e+00	0	29	0	432013312	44	5593
2026-01-11 14:24:00.30	29.93	25.54	-35.1	-35.9	24.6	0.00e+00	0	29	0	434110464	44	5640
2026-01-11 14:24:01.31	30.02	25.70	-35.1	-35.9	24.7	0.00e+00	0	29	0	435159040	44	5672
2026-01-11 14:24:02.32	30.10	25.86	-35.0	-35.8	24.7	0.00e+00	0	29	0	437256192	44	5602
2026-01-11 14:24:03.33	30.18	26.02	-35.0	-35.8	24.7	0.00e+00	0	29	0	439353344	44	5622
2026-01-11 14:24:04.34	30.27	26.18	-35.1	-35.9	24.6	0.00e+00	0	29	0	441450496	44	5685
2026-01-11 14:24:05.35	30.35	26.34	-35.3	-36.1	24.7	0.00e+00	0	29	0	443547648	44	5785
2026-01-11 14:24:06.36	30.44	26.50	-35.3	-36.1	24.5	0.00e+00	0	29	0	444596224	44	5805
2026-01-11 14:24:07.37	30.53	26.67	-35.5	-36.4	24.4	0.00e+00	0	29	0	446693376	44	5979
2026-01-11 14:24:08.38	30.61	26.83	-35.5	-36.3	24.2	0.00e+00	0	29	0	448790528	44	5944
2026-01-11 14:24:09.39	30.70	27.00	-35.8	-36.7	24.1	0.00e+00	0	29	0	450887680	44	6222
2026-01-11 14:24:10.40	30.79	27.16	-35.8	-36.7	24.2	0.00e+00	0	29	0	452984832	44	6178
2026-01-11 14:24:11.41	30.88	27.33	-35.5	-36.4	24.3	0.00e+00	0	29	0	454033408	44	5981
2026-01-11 14:24:12.42	30.97	27.50	-35.6	-36.4	24.3	0.00e+00	0	29	0	456130560	44	6014
2026-01-11 14:24:13.43	31.06	27.67	-35.4	-36.3	24.5	0.00e+00	0	29	0	458227712	44	5897
2026-01-11 14:24:14.44	31.16	27.84	-35.6	-36.5	24.3	0.00e+00	0	29	0	460324864	44	6054
2026-01-11 14:24:15.45	31.25	28.01	-35.6	-36.5	24.3	0.00e+00	0	29	0	462422016	44	6044
2026-01-11 14:24:16.46	31.35	28.18	-35.5	-36.4	24.3	0.00e+00	0	29	0	463470592	44	5980
2026-01-11 14:24:17.47	31.44	28.35	-35.5	-36.4	24.4	0.00e+00	0	29	0	465567744	44	5965
2026-01-11 14:24:18.48	31.54	28.52	-35.6	-36.4	24.3	0.00e+00	0	29	0	467664896	44	6002
2026-01-11 14:24:19.49	31.64	28.70	-35.7	-36.5	24.3	0.00e+00	0	29	0	469762048	44	6071
2026-01-11 14:24:20.49	31.74	28.87	-35.7	-36.6	24.2	0.00e+00	0	29	0	471859200	44	6120
2026-01-11 14:24:21.50	31.84	29.05	-36.2	-37.0	24.0	0.00e+00	0	29	0	473956352	44	6444
2026-01-11 14:24:22.51	31.94	29.23	-35.8	-36.6	24.1	0.00e+00	0	29	0	475004928	44	6150
2026-01-11 14:24:23.52	32.04	29.41	-35.7	-36.6	24.1	0.00e+00	0	29	0	477102080	44	6112
2026-01-11 14:24:24.53	32.14	29.59	-36.3	-37.1	23.5	0.00e+00	0	29	0	479199232	44	6536
2026-01-11 14:24:25.53	32.25	29.77	-36.1	-37.0	23.8	0.00e+00	0	29	0	481296384	44	6414
2026-01-11 14:24:26.54	32.35	29.95	-36.5	-37.4	23.5	0.00e+00	0	29	0	482344960	44	6712
2026-01-11 14:24:27.55	32.46	30.13	-36.7	-37.6	23.5	0.00e+00	0	29	0	484442112	46	6156
2026-01-11 14:24:28.56	32.56	30.32	-36.9	-37.8	23.3	0.00e+00	0	29	0	486539264	46	6252
2026-01-11 14:24:29.57	32.67	30.50	-37.0	-37.9	23.2	0.00e+00	0	29	0	488636416	46	6348
2026-01-11 14:24:30.58	32.78	30.69	-37.5	-38.5	22.6	0.00e+00	0	29	0	490733568	46	6815
2026-01-11 14:24:31.59	32.90	30.88	-37.5	-38.5	22.8	0.00e+00	0	29	0	491782144	48	6072
2026-01-11 14:24:32.60	33.01	31.06	-38.0	-39.0	22.4	0.00e+00	0	29	0	493879296	48	6425
2026-01-11 14:24:33.61	33.12	31.25	-37.7	-38.7	22.6	0.00e+00	0	29	0	495976448	48	6236
2026-01-11 14:24:34.62	33.24	31.44	-37.7	-38.7	22.6	0.00e+00	0	29	0	498073600	48	6212
2026-01-11 14:24:35.63	33.35	31.64	-38.1	-39.1	22.4	0.00e+00	0	29	0	500170752	48	6506
2026-01-11 14:24:36.63	33.47	31.83	-38.4	-39.4	22.0	0.00e+00	0	29	0	502267904	48	6755
2026-01-11 14:24:37.64	33.59	32.02	-38.4	-39.5	22.0	0.00e+00	0	29	0	503316480	48	6772
2026-01-11 14:24:38.65	33.71	32.22	-39.0	-40.1	21.5	0.00e+00	0	29	0	505413632	50	6495
2026-01-11 14:24:39.66	33.83	32.41	-39.3	-40.5	21.1	0.00e+00	0	29	0	507510784	50	6835
2026-01-11 14:24:40.67	33.96	32.61	-39.3	-40.5	21.2	0.00e+00	0	29	0	509607936	50	6808
2026-01-11 14:24:41.68	34.08	32.81	-39.8	-41.1	20.7	0.00e+00	0	29	0	511705088	50	7287
2026-01-11 14:24:42.69	34.21	33.01	-39.6	-40.9	20.7	0.00e+00	0	29	0	512753664	52	6330
2026-01-11 14:24:43.70	34.34	33.21	-39.5	-40.7	20.9	0.00e+00	0	29	0	514850816	52	6231
2026-01-11 14:24:44.71	34.46	33.42	-39.7	-41.0	20.7	0.00e+00	0	29	0	516947968	52	6452
2026-01-11 14:24:45.72	34.60	33.62	-40.4	-41.8	20.2	0.00e+00	0	29	0	519045120	52	7026
2026-01-11 14:24:46.73	34.73	33.82	-40.1	-41.4	20.4	0.00e+00	0	29	0	521142272	52	6742
2026-01-11 14:24:47.74	34.86	34.03	-39.5	-40.7	20.7	0.00e+00	0	29	0	522190848	52	6217
2026-01-11 14:24:48.75	35.00	34.24	-39.5	-40.7	21.0	0.00e+00	0	30	0	524288000	52	6209
2026-01-11 14:24:49.76	35.14	34.45	-39.3	-40.5	21.2	0.00e+00	0	30	0	526385152	52	6059
2026-01-11 14:24:50.77	35.28	34.66	-39.2	-40.3	21.3	0.00e+00	0	29	0	528482304	52	5937
2026-01-11 14:24:51.78	35.42	34.87	-38.7	-39.8	21.8	0.00e+00	0	29	0	530579456	50	6257
2026-01-11 14:24:52.79	35.56	35.08	-38.6	-39.7	22.0	0.00e+00	0	29	0	531628032	50	6183
2026-01-11 14:24:53.80	35.70	35.29	-38.8	-39.8	21.7	0.00e+00	0	30	0	533725184	50	6313
2026-01-11 14:24:54.80	35.85	35.51	-38.5	-39.5	21.9	0.00e+00	0	30	0	535822336	50	6074
2026-01-11 14:24:55.81	36.00	35.72	-38.6	-39.6	21.8	0.00e+00	0	30	0	537919488	50	6155
2026-01-11 14:24:56.82	36.15	35.94	-38.4	-39.4	21.9	0.00e+00	0	29	0	540016640	50	6015
2026-01-11 14:24:57.83	36.30	36.16	-38.5	-39.6	21.9	0.00e+00	0	30	0	541065216	50	6107
2026-01-11 14:24:58.84	36.46	36.38	-38.2	-39.3	22.1	0.00e+00	0	29	0	543162368	50	5925
2026-01-11 14:24:59.85	36.61	36.60	-38.9	-40.1	21.3	0.00e+00	0	29	0	545259520	50	6494
2026-01-11 14:25:00.86	36.77	36.82	-39.6	-40.9	20.8	0.00e+00	0	29	0	547356672	50	7131
2026-01-11 14:25:01.87	36.93	37.05	-39.5	-40.8	20.8	0.00e+00	0	30	0	549453824	50	7051
2026-01-11 14:25:02.88	37.09	37.27	-40.0	-41.4	20.3	0.00e+00	0	30	0	550502400	52	6715
2026-01-11 14:25:03.89	37.26	37.50	-40.4	-41.7	20.2	0.00e+00	0	29	0	552599552	52	7005
2026-01-11 14:25:04.90	37.43	37.73	-40.2	-41.5	20.2	0.00e+00	0	30	0	554696704	54	6095
2026-01-11 14:25:05.91	37.60	37.95	-40.1	-41.4	20.3	0.00e+00	0	29	0	556793856	54	6025
2026-01-11 14:25:06.92	37.77	38.18	-40.2	-41.5	20.4	0.00e+00	0	29	0	558891008	54	6066
2026-01-11 14:25:07.93	37.94	38.42	-40.2	-41.6	20.1	0.00e+00	0	30	0	559939584	52	6880
2026-01-11 14:25:08.94	38.12	38.65	-40.2	-41.6	20.3	0.00e+00	0	29	0	562036736	52	6865
2026-01-11 14:25:09.95	38.30	38.88	-40.7	-42.2	19.8	0.00e+00	0	30	0	564133888	54	6566
2026-01-11 14:25:10.96	38.48	39.12	-41.3	-43.1	18.7	0.00e+00	0	30	0	566231040	54	7261
2026-01-11 14:25:11.96	38.66	39.35	-41.4	-43.1	18.8	0.00e+00	0	30	0	568328192	54	7332
2026-01-11 14:25:12.98	38.85	39.59	-41.5	-43.3	18.6	0.00e+00	0	30	0	570425344	54	7483
2026-01-11 14:25:13.99	39.04	39.83	-41.1	-42.7	19.3	0.00e+00	0	30	0	571473920	54	6935
2026-01-11 14:25:15.00	39.23	40.07	-40.6	-42.0	19.9	0.00e+00	0	30	0	573571072	54	6462
2026-01-11 14:25:16.01	39.43	40.32	-39.7	-41.0	20.7	0.00e+00	0	30	0	575668224	54	5740
2026-01-11 14:25:17.02	39.63	40.56	-39.8	-41.1	20.7	0.00e+00	0	30	0	577765376	52	6509
2026-01-11 14:25:18.03	39.83	40.80	-39.3	-40.6	21.3	0.00e+00	0	30	0	579862528	52	6129
2026-01-11 14:25:19.04	40.03	41.05	-39.1	-40.2	21.6	0.00e+00	0	30	0	580911104	52	5880
2026-01-11 14:25:20.05	40.24	41.30	-38.9	-40.0	21.3	0.00e+00	0	30	0	583008256	50	6447
2026-01-11 14:25:21.06	40.45	41.55	-38.6	-39.7	22.2	0.00e+00	0	30	0	585105408	50	6218
2026-01-11 14:25:22.06	40.66	41.79	-38.6	-39.8	21.8	0.00e+00	0	29	0	587202560	50	6274
2026-01-11 14:25:23.07	40.88	42.04	-38.2	-39.2	22.0	0.00e+00	0	29	0	589299712	50	5894
2026-01-11 14:25:24.08	41.10	42.30	-38.5	-39.6	21.9	0.00e+00	0	30	0	590348288	50	6162
2026-01-11 14:25:25.09	41.32	42.55	-38.3	-39.4	21.7	0.00e+00	0	30	0	592445440	50	6015
2026-01-11 14:25:26.10	41.55	42.81	-38.5	-39.7	21.7	0.00e+00	0	30	0	594542592	50	6200
2026-01-11 14:25:27.11	41.78	43.06	-38.4	-39.5	22.0	0.00e+00	0	30	0	596639744	50	6077
2026-01-11 14:25:28.12	42.01	43.32	-38.5	-39.7	21.9	0.00e+00	0	30	0	598736896	50	6193
2026-01-11 14:25:29.13	42.25	43.58	-38.4	-39.5	22.0	0.00e+00	0	30	0	599785472	50	6090
2026-01-11 14:25:30.14	42.49	43.84	-38.3	-39.4	22.1	0.00e+00	0	29	0	601882624	50	5982
2026-01-11 14:25:31.15	42.74	44.10	-38.6	-39.6	21.9	0.00e+00	0	29	0	603979776	50	6166
2026-01-11 14:25:32.16	42.99	44.36	-38.6	-39.8	21.7	0.00e+00	0	30	0	606076928	50	6278
2026-01-11 14:25:33.17	43.24	44.62	-38.3	-39.4	21.9	0.00e+00	0	30	0	608174080	50	6032
2026-01-11 14:25:34.18	43.50	44.89	-38.6	-39.7	22.0	0.00e+00	0	29	0	609222656	50	6229
2026-01-11 14:25:35.19	43.76	45.16	-38.6	-39.7	21.9	0.00e+00	0	30	0	611319808	50	6224
2026-01-11 14:25:36.20	44.03	45.42	-38.3	-39.4	22.2	0.00e+00	0	30	0	613416960	50	6028
2026-01-11 14:25:37.21	44.30	45.69	-38.1	-39.2	22.3	0.00e+00	0	29	0	615514112	50	5871
2026-01-11 14:25:38.22	44.57	45.96	-37.7	-38.7	22.7	0.00e+00	0	30	0	617611264	48	6190
2026-01-11 14:25:39.23	44.85	46.23	-37.5	-38.5	22.8	0.00e+00	0	30	0	618659840	48	6066
2026-01-11 14:25:40.24	45.14	46.50	-37.6	-38.5	22.8	0.00e+00	0	30	0	620756992	48	6088
2026-01-11 14:25:41.25	45.43	46.77	-37.5	-38.5	22.8	0.00e+00	0	30	0	622854144	48	6079
2026-01-11 14:25:42.26	45.73	47.05	-37.2	-38.1	23.1	0.00e+00	0	30	0	624951296	48	5827
2026-01-11 14:25:43.27	46.03	47.32	-36.3	-37.2	23.8	0.00e+00	0	30	0	627048448	46	5852
2026-01-11 14:25:44.28	46.33	47.60	-36.4	-37.3	23.7	0.00e+00	0	30	0	628097024	46	5934
2026-01-11 14:25:45.29	46.64	47.87	-36.1	-37.0	23.9	0.00e+00	0	29	0	630194176	46	5724
2026-01-11 14:25:46.30	46.96	48.15	-36.0	-36.8	24.0	0.00e+00	0	29	0	632291328	46	5612
2026-01-11 14:25:47.31	47.28	48.43	-36.6	-37.5	23.6	0.00e+00	0	30	0	634388480	46	6064
2026-01-11 14:25:48.32	47.61	48.71	-36.9	-37.8	23.2	0.00e+00	0	29	0	636485632	46	6279
2026-01-11 14:25:49.33	47.94	48.99	-37.1	-38.2	23.0	0.00e+00	0	29	0	638582784	46	6540
2026-01-11 14:25:50.34	48.28	49.27	-37.8	-38.9	22.5	0.00e+00	0	30	0	639631360	46	7162
2026-01-11 14:25:51.35	48.63	49.55	-37.7	-38.7	22.8	0.00e+00	0	30	0	641728512	48	6209
2026-01-11 14:25:52.36	48.98	49.83	-37.2	-38.2	22.9	0.00e+00	0	30	0	643825664	48	5837
2026-01-11 14:25:53.37	49.34	50.11	-36.8	-37.8	23.2	0.00e+00	0	29	0	645922816	46	6265
2026-01-11 14:25:54.38	49.70	50.39	-36.8	-37.7	23.3	0.00e+00	0	30	0	648019968	46	6233
2026-01-11 14:25:55.39	50.08	50.68	-37.0	-37.9	23.3	0.00e+00	0	30	0	649068544	46	6373
2026-01-11 14:25:56.40	50.45	50.96	-37.0	-37.9	23.3	0.00e+00	0	30	0	651165696	46	6377
2026-01-11 14:25:57.41	50.84	51.25	-37.0	-38.0	23.3	0.00e+00	0	30	0	653262848	46	6434
2026-01-11 14:25:58.42	51.24	51.53	-36.1	-37.0	23.9	0.00e+00	0	30	0	655360000	46	5756
2026-01-11 14:25:59.43	51.64	51.81	-35.7	-36.5	24.3	0.00e+00	0	30	0	657457152	46	5433
2026-01-11 14:26:00.44	52.05	52.10	-34.7	-35.5	25.0	0.00e+00	0	30	0	658505728	42	6102
2026-01-11 14:26:01.45	52.46	52.39	-35.0	-35.8	24.8	0.00e+00	0	30	0	660602880	42	6291
2026-01-11 14:26:02.46	52.89	52.67	-35.4	-36.3	24.4	0.00e+00	0	30	0	662700032	42	6659
2026-01-11 14:26:03.47	53.32	52.96	-35.4	-36.3	24.4	0.00e+00	0	30	0	664797184	42	6659
2026-01-11 14:26:04.48	53.76	53.24	-35.2	-36.0	24.7	0.00e+00	0	30	0	666894336	42	6444
2026-01-11 14:26:05.49	54.21	53.53	-35.1	-36.0	24.8	0.00e+00	0	30	0	667942912	42	6391
2026-01-11 14:26:06.49	54.67	53.81	-34.8	-35.6	24.9	0.00e+00	0	30	0	670040064	42	6137
2026-01-11 14:26:07.50	55.14	54.10	-34.1	-34.9	25.3	0.00e+00	0	30	0	672137216	42	5648
2026-01-11 14:26:08.51	55.61	54.38	-33.8	-34.6	25.4	0.00e+00	0	30	0	674234368	40	6148
2026-01-11 14:26:09.52	56.10	54.66	-34.8	-35.6	24.8	0.00e+00	0	30	0	676331520	40	6914
2026-01-11 14:26:10.53	56.60	54.95	-35.6	-36.5	24.2	0.00e+00	0	30	0	677380096	42	6807
2026-01-11 14:26:11.54	57.10	55.23	-36.2	-37.2	23.7	0.00e+00	0	30	0	679477248	44	6559
2026-01-11 14:26:12.55	57.62	55.51	-36.0	-36.9	24.0	0.00e+00	0	30	0	681574400	44	6343
2026-01-11 14:26:13.56	58.15	55.80	-35.4	-36.2	24.4	0.00e+00	0	30	0	683671552	44	5870
2026-01-11 14:26:14.57	58.68	56.08	-34.9	-35.7	24.6	0.00e+00	0	30	0	685768704	44	5532
2026-01-11 14:26:15.58	59.23	56.36	-35.1	-35.8	25.0	0.00e+00	0	30	0	686817280	42	6317
2026-01-11 14:26:16.59	59.79	56.63	-34.7	-35.5	24.9	0.00e+00	0	30	0	688914432	42	6052
2026-01-11 14:26:17.60	60.36	56.91	-34.9	-35.7	24.8	0.00e+00	0	30	0	691011584	42	6175
2026-01-11 14:26:18.61	60.95	57.19	-35.4	-36.2	24.7	0.00e+00	0	30	0	693108736	42	6580
2026-01-11 14:26:19.62	61.54	57.46	-35.3	-36.0	24.8	0.00e+00	0	30	0	695205888	42	6464
2026-01-11 14:26:20.63	62.15	57.74	-35.3	-36.1	24.5	0.00e+00	0	30	0	696254464	44	5827
2026-01-11 14:26:21.64	62.77	58.01	-36.5	-37.3	23.6	0.00e+00	0	30	0	698351616	44	6689
2026-01-11 14:26:22.65	63.40	58.28	-38.0	-39.1	22.4	0.00e+00	0	30	0	700448768	48	6506
2026-01-11 14:26:23.66	64.04	58.54	-38.9	-40.1	21.5	0.00e+00	0	30	0	702545920	48	7303
2026-01-11 14:26:24.67	64.70	58.81	-38.9	-40.1	21.5	0.00e+00	0	30	0	704643072	50	6507
2026-01-11 14:26:25.68	65.37	59.07	-37.9	-38.9	22.5	0.00e+00	0	30	0	706740224	50	5658
2026-01-11 14:26:26.69	66.05	59.33	-36.8	-37.7	23.5	0.00e+00	0	30	0	707788800	48	5519
2026-01-11 14:26:27.70	66.75	59.59	-36.6	-37.6	23.5	0.00e+00	0	30	0	709885952	46	6109
2026-01-11 14:26:28.71	67.46	59.84	-36.7	-37.6	23.5	0.00e+00	0	30	0	711983104	46	6135
2026-01-11 14:26:29.72	68.18	60.10	-37.1	-38.0	23.2	0.00e+00	0	30	0	714080256	46	6439
2026-01-11 14:26:30.73	68.92	60.34	-37.2	-38.1	23.1	0.00e+00	0	30	0	716177408	46	6519
2026-01-11 14:26:31.74	69.67	60.59	-37.8	-38.8	22.7	0.00e+00	0	30	0	717225984	46	7085
2026-01-11 14:26:32.75	70.44	60.83	-37.8	-38.8	22.5	0.00e+00	0	30	0	719323136	48	6311
2026-01-11 14:26:33.76	71.23	61.07	-36.7	-37.6	23.4	0.00e+00	0	30	0	721420288	46	6128
2026-01-11 14:26:34.77	72.02	61.30	-36.3	-37.1	24.0	0.00e+00	0	30	0	723517440	46	5795
2026-01-11 14:26:35.78	72.84	61.53	-36.1	-36.9	24.1	0.00e+00	0	30	0	725614592	46	5673
2026-01-11 14:26:36.79	73.66	61.76	-36.2	-37.0	23.9	0.00e+00	0	30	0	726663168	46	5760
2026-01-11 14:26:37.80	74.50	61.98	-35.5	-36.4	24.4	0.00e+00	0	30	0	728760320	44	5974
2026-01-11 14:26:38.81	75.36	62.20	-35.9	-36.8	23.7	0.00e+00	0	30	0	730857472	44	6284
2026-01-11 14:26:39.82	76.24	62.41	-35.7	-36.5	24.2	0.00e+00	0	30	0	732954624	44	6092
2026-01-11 14:26:40.83	77.12	62.62	-34.9	-35.7	24.9	0.00e+00	0	30	0	735051776	44	5518
2026-01-11 14:26:41.83	78.02	62.82	-34.3	-35.1	25.3	0.00e+00	0	30	0	736100352	42	5809
2026-01-11 14:26:42.84	78.94	63.02	-34.6	-35.4	25.2	0.00e+00	0	30	0	738197504	42	5993
2026-01-11 14:26:43.85	79.87	63.21	-34.4	-35.1	25.1	0.00e+00	0	30	0	740294656	42	5808
2026-01-11 14:26:44.86	80.82	63.39	-34.6	-35.4	25.0	0.00e+00	0	30	0	742391808	42	5983
2026-01-11 14:26:45.87	81.78	63.57	-35.4	-36.2	24.3	0.00e+00	0	30	0	744488960	42	6569
2026-01-11 14:26:46.88	82.76	63.75	-36.1	-37.0	24.3	0.00e+00	0	30	0	745537536	44	6403
2026-01-11 14:26:47.89	83.75	63.91	-35.5	-36.3	24.6	0.00e+00	0	30	0	747634688	44	5953
2026-01-11 14:26:48.90	84.75	64.07	-35.0	-35.8	24.8	0.00e+00	0	30	0	749731840	42	6250
2026-01-11 14:26:49.91	85.77	64.23	-36.4	-37.3	23.7	0.00e+00	0	30	0	751828992	44	6631
2026-01-11 14:26:50.92	86.81	64.37	-37.8	-38.9	22.5	0.00e+00	0	30	0	753926144	48	6340
2026-01-11 14:26:51.93	87.85	64.51	-37.6	-38.6	22.7	0.00e+00	0	30	0	754974720	48	6130
2026-01-11 14:26:52.94	88.91	64.64	-37.0	-37.9	23.4	0.00e+00	0	30	0	757071872	48	5658
2026-01-11 14:26:53.96	89.99	64.77	-36.9	-37.8	23.5	0.00e+00	0	30	0	759169024	46	6259
2026-01-11 14:26:54.97	91.07	64.88	-36.8	-37.8	23.2	0.00e+00	0	30	0	761266176	46	6253
2026-01-11 14:26:55.97	92.15	64.99	-37.3	-38.3	23.0	0.00e+00	0	30	0	763363328	46	6642
2026-01-11 14:26:56.98	93.26	65.09	-36.9	-37.8	23.4	0.00e+00	0	30	0	764411904	46	6303
2026-01-11 14:26:57.99	94.37	65.18	-37.6	-38.7	22.5	0.00e+00	0	30	0	766509056	46	6941
2026-01-11 14:26:59.00	95.49	65.27	-38.1	-39.2	22.4	0.00e+00	0	30	0	768606208	48	6569
2026-01-11 14:27:00.01	96.62	65.34	-37.7	-38.7	22.7	0.00e+00	0	30	0	770703360	48	6200
2026-01-11 14:27:01.02	97.75	65.41	-36.6	-37.5	23.7	0.00e+00	0	30	0	772800512	46	6047
2026-01-11 14:27:02.03	98.89	65.47	-36.5	-37.4	23.7	0.00e+00	0	30	0	773849088	46	5969
2026-01-11 14:27:03.04	100.04	65.52	-36.2	-37.1	23.9	0.00e+00	0	30	0	775946240	46	5784
2026-01-11 14:27:04.05	101.20	65.56	-35.5	-36.3	24.4	0.00e+00	0	30	0	778043392	44	5963
2026-01-11 14:27:05.06	102.35	65.59	-35.3	-36.1	24.6	0.00e+00	0	30	0	780140544	44	5806
2026-01-11 14:27:06.07	103.51	65.62	-36.1	-37.0	23.9	0.00e+00	0	30	0	782237696	44	6399
2026-01-11 14:27:07.08	104.67	65.63	-37.3	-38.3	23.1	0.00e+00	0	30	0	784334848	46	6639
2026-01-11 14:27:08.09	105.84	65.64	-36.8	-37.7	23.5	0.00e+00	0	30	0	785383424	46	6229
2026-01-11 14:27:09.10	107.00	65.63	-35.0	-35.8	24.7	0.00e+00	0	30	0	787480576	44	5597
2026-01-11 14:27:10.10	108.15	65.62	-35.6	-36.4	24.2	0.00e+00	0	30	0	789577728	44	6021
2026-01-11 14:27:11.12	109.32	65.60	-37.0	-38.0	23.1	0.00e+00	0	30	0	791674880	46	6445
2026-01-11 14:27:12.12	110.47	65.57	-36.9	-37.9	23.4	0.00e+00	0	30	0	793772032	46	6360
2026-01-11 14:27:13.13	111.62	65.53	-35.9	-36.7	24.2	0.00e+00	0	30	0	794820608	46	5551
2026-01-11 14:27:14.14	112.77	65.48	-35.7	-36.6	24.3	0.00e+00	0	30	0	796917760	44	6118
2026-01-11 14:27:15.15	113.91	65.42	-35.2	-36.0	24.5	0.00e+00	0	30	0	799014912	44	5751
2026-01-11 14:27:16.16	115.05	65.36	-34.5	-35.3	25.2	0.00e+00	0	30	0	801112064	42	5898
2026-01-11 14:27:17.17	116.18	65.28	-33.6	-34.3	25.6	0.00e+00	0	30	0	803209216	40	5921
2026-01-11 14:27:18.18	117.30	65.20	-33.9	-34.6	25.3	0.00e+00	0	30	0	804257792	40	6134
2026-01-11 14:27:19.19	118.42	65.11	-34.9	-35.6	25.0	0.00e+00	0	30	0	806354944	40	6905
2026-01-11 14:27:20.20	119.52	65.01	-35.3	-36.1	24.6	0.00e+00	0	30	0	808452096	42	6519
2026-01-11 14:27:21.21	120.61	64.90	-35.0	-35.9	24.8	0.00e+00	0	30	0	810549248	42	6319
2026-01-11 14:27:22.22	121.70	64.79	-35.6	-36.5	24.5	0.00e+00	0	30	0	812646400	42	6773
2026-01-11 14:27:23.23	122.77	64.66	-36.2	-37.1	23.6	0.00e+00	0	30	0	813694976	44	6495
2026-01-11 14:27:24.24	123.83	64.53	-36.4	-37.3	23.8	0.00e+00	0	30	0	815792128	44	6647
2026-01-11 14:27:25.25	124.88	64.39	-36.0	-36.9	24.1	0.00e+00	0	30	0	817889280	44	6357
2026-01-11 14:27:26.26	125.92	64.25	-35.8	-36.7	24.1	0.00e+00	0	30	0	819986432	44	6178
2026-01-11 14:27:27.27	126.94	64.10	-34.6	-36.2	20.9	2.13e-03	0	30	0	822083584	42	6551
2026-01-11 14:27:28.28	127.95	63.94	-34.2	-35.5	21.8	4.95e-03	0	30	0	823132160	42	6071
2026-01-11 14:27:29.29	128.94	63.77	-34.7	-36.2	20.9	1.02e-02	0	30	0	825229312	42	6600
2026-01-11 14:27:30.30	129.92	63.60	-35.2	-36.9	21.0	1.60e-02	0	30	0	827326464	42	7156
2026-01-11 14:27:31.31	130.89	63.42	-35.7	-37.4	20.0	1.28e-02	0	30	0	829423616	44	6760
2026-01-11 14:27:32.32	131.84	63.24	-35.7	-37.5	21.2	9.92e-03	0	30	0	831520768	44	6835
2026-01-11 14:27:33.33	132.77	63.05	-35.1	-37.0	19.5	1.94e-02	0	30	0	832569344	44	6420
2026-01-11 14:27:34.34	133.70	62.85	-34.3	-36.3	20.6	7.41e-03	0	30	0	834666496	42	6690
2026-01-11 14:27:35.35	134.60	62.65	-33.5	-35.9	19.5	1.33e-02	0	30	0	836763648	40	7091
2026-01-11 14:27:36.36	135.49	62.44	-32.9	-35.6	18.2	6.77e-03	0	30	0	838860800	40	6900
2026-01-11 14:27:37.37	136.37	62.23	-33.6	-35.4	22.0	1.10e-02	0	30	0	840957952	38	7553
2026-01-11 14:27:38.38	137.23	62.01	-33.8	-35.4	21.5	5.85e-03	0	30	0	842006528	38	7549
2026-01-11 14:27:39.39	138.08	61.79	-32.9	-34.2	21.9	1.47e-02	0	30	0	844103680	40	5889
2026-01-11 14:27:40.40	138.91	61.56	-32.8	-33.4	26.5	1.06e-02	0	30	0	846200832	38	6012
2026-01-11 14:27:41.41	139.72	61.33	-33.7	-34.4	25.7	0.00e+00	0	30	0	848297984	38	6703
2026-01-11 14:27:42.42	140.52	61.10	-35.4	-36.2	24.5	0.00e+00	0	30	0	850395136	42	6567
2026-01-11 14:27:43.43	141.31	60.86	-34.9	-35.7	25.0	0.00e+00	0	30	0	852492288	42	6193
2026-01-11 14:27:44.44	142.08	60.62	-33.5	-34.2	25.9	0.00e+00	0	30	0	853540864	40	5864
2026-01-11 14:27:45.45	142.84	60.37	-33.3	-34.0	25.9	0.00e+00	0	30	0	855638016	40	5729
2026-01-11 14:27:46.46	143.58	60.12	-33.8	-34.6	25.4	0.00e+00	0	30	0	857735168	40	6134
2026-01-11 14:27:47.47	144.31	59.87	-33.8	-34.6	25.5	0.00e+00	0	30	0	859832320	40	6133
2026-01-11 14:27:48.48	145.02	59.62	-33.7	-34.5	25.5	0.00e+00	0	30	0	861929472	40	6034
2026-01-11 14:27:49.49	145.72	59.36	-34.0	-34.8	25.4	0.00e+00	0	30	0	862978048	40	6261
2026-01-11 14:27:50.50	146.40	59.10	-34.1	-34.8	25.4	0.00e+00	0	30	0	865075200	40	6317
2026-01-11 14:27:51.51	147.08	58.84	-33.9	-34.7	25.5	0.00e+00	0	30	0	867172352	40	6177
2026-01-11 14:27:52.52	147.74	58.57	-33.5	-34.2	25.6	0.00e+00	0	30	0	869269504	40	5879
2026-01-11 14:27:53.53	148.38	58.30	-33.7	-34.5	25.6	0.00e+00	0	30	0	871366656	40	6055
2026-01-11 14:27:54.54	149.02	58.03	-33.6	-34.3	25.5	0.00e+00	0	30	0	872415232	40	5963
2026-01-11 14:27:55.55	149.64	57.76	-32.8	-33.6	26.2	0.00e+00	0	30	0	874512384	40	5441
2026-01-11 14:27:56.56	150.25	57.49	-32.7	-33.4	26.1	0.00e+00	0	30	0	876609536	38	5976
2026-01-11 14:27:57.57	150.84	57.21	-33.4	-34.1	25.9	0.00e+00	0	30	0	878706688	38	6519
2026-01-11 14:27:58.57	151.42	56.94	-33.1	-33.9	25.9	0.00e+00	0	30	0	880803840	38	6335
2026-01-11 14:27:59.58	152.00	56.66	-33.0	-33.7	26.0	0.00e+00	0	30	0	881852416	38	6226
2026-01-11 14:28:00.59	152.56	56.38	-33.1	-33.8	26.1	0.00e+00	0	30	0	883949568	38	6293
2026-01-11 14:28:01.60	153.11	56.10	-33.4	-34.1	25.6	0.00e+00	0	30	0	886046720	38	6524
2026-01-11 14:28:02.61	153.65	55.82	-33.7	-34.4	25.8	0.00e+00	0	30	0	888143872	38	6754
2026-01-11 14:28:03.62	154.18	55.54	-34.0	-34.7	25.3	0.00e+00	0	30	0	890241024	40	6227
2026-01-11 14:28:04.63	154.70	55.26	-34.1	-34.9	25.4	0.00e+00	0	30	0	891289600	40	6322
2026-01-11 14:28:05.64	155.21	54.97	-33.8	-34.6	25.6	0.00e+00	0	30	0	893386752	40	6135
2026-01-11 14:28:06.65	155.70	54.69	-33.7	-34.5	25.6	0.00e+00	0	30	0	895483904	40	6073
2026-01-11 14:28:07.66	156.19	54.40	-34.5	-35.3	25.0	0.00e+00	0	30	0	897581056	40	6678
2026-01-11 14:28:08.67	156.67	54.12	-34.8	-35.6	24.9	0.00e+00	0	30	0	899678208	42	6120
2026-01-11 14:28:09.68	157.14	53.83	-35.3	-36.2	24.6	0.00e+00	0	30	0	900726784	42	6547
2026-01-11 14:28:10.69	157.60	53.54	-35.7	-36.5	24.1	0.00e+00	0	30	0	902823936	42	6837
2026-01-11 14:28:11.70	158.06	53.26	-37.5	-38.5	22.9	0.00e+00	0	30	0	904921088	46	6805
2026-01-11 14:28:12.71	158.50	52.97	-37.0	-37.9	23.4	0.00e+00	0	30	0	907018240	48	5649
2026-01-11 14:28:13.72	158.93	52.69	-36.0	-36.8	24.1	0.00e+00	0	30	0	909115392	46	5619
2026-01-11 14:28:14.73	159.36	52.40	-36.5	-37.4	23.7	0.00e+00	0	30	0	910163968	46	5970
2026-01-11 14:28:15.74	159.78	52.11	-38.0	-39.1	22.2	0.00e+00	0	30	0	912261120	48	6524
2026-01-11 14:28:16.75	160.19	51.83	-38.9	-40.1	21.4	0.00e+00	0	30	0	914358272	50	6504
2026-01-11 14:28:17.76	160.59	51.54	-38.3	-39.4	22.2	0.00e+00	0	30	0	916455424	50	6012
2026-01-11 14:28:18.77	160.99	51.25	-37.0	-37.9	23.4	0.00e+00	0	30	0	918552576	48	5691
2026-01-11 14:28:19.78	161.38	50.97	-37.5	-38.5	22.7	0.00e+00	0	30	0	920649728	48	6055
2026-01-11 14:28:20.79	161.76	50.68	-38.7	-39.9	21.6	0.00e+00	0	30	0	921698304	50	6322
2026-01-11 14:28:21.80	162.13	50.40	-39.4	-40.7	20.9	0.00e+00	0	30	0	923795456	52	6191
2026-01-11 14:28:22.80	162.49	50.12	-39.1	-40.4	21.5	0.00e+00	0	30	0	925892608	52	5992
2026-01-11 14:28:23.82	162.86	49.83	-38.2	-39.4	22.0	0.00e+00	0	30	0	927989760	50	5976
2026-01-11 14:28:24.83	163.21	49.55	-37.6	-38.6	22.6	0.00e+00	0	30	0	930086912	48	6141
2026-01-11 14:28:25.83	163.55	49.27	-36.8	-37.7	23.4	0.00e+00	0	30	0	931135488	48	5560
2026-01-11 14:28:26.84	163.89	48.99	-36.7	-37.6	23.6	0.00e+00	0	30	0	933232640	46	6139
2026-01-11 14:28:27.85	164.23	48.71	-37.6	-38.6	22.8	0.00e+00	0	30	0	935329792	46	6872
2026-01-11 14:28:28.87	164.56	48.43	-38.3	-39.5	22.0	0.00e+00	0	30	0	937426944	48	6775
2026-01-11 14:28:29.87	164.88	48.15	-37.4	-38.4	22.8	0.00e+00	0	30	0	939524096	48	5997
2026-01-11 14:28:30.88	165.20	47.87	-36.6	-37.5	23.6	0.00e+00	0	30	0	940572672	46	6077
2026-01-11 14:28:31.89	165.51	47.60	-35.7	-36.5	24.3	0.00e+00	0	30	0	942669824	46	5393
2026-01-11 14:28:32.90	165.82	47.32	-35.0	-35.7	24.8	0.00e+00	0	30	0	944766976	44	5555
2026-01-11 14:28:33.91	166.12	47.04	-36.1	-36.9	23.9	0.00e+00	0	30	0	946864128	44	6383
2026-01-11 14:28:34.92	166.41	46.77	-38.0	-39.1	22.2	0.00e+00	0	30	0	948961280	46	7330
2026-01-11 14:28:35.93	166.70	46.50	-38.8	-40.1	21.7	0.00e+00	0	30	0	950009856	50	6474
2026-01-11 14:28:36.94	166.99	46.22	-37.4	-38.4	22.9	0.00e+00	0	30	0	952107008	48	5991
2026-01-11 14:28:37.95	167.27	45.95	-36.3	-37.1	23.9	0.00e+00	0	30	0	954204160	46	5818
2026-01-11 14:28:38.96	167.55	45.68	-34.7	-35.4	24.7	0.00e+00	0	30	0	956301312	42	6029
2026-01-11 14:28:39.97	167.82	45.41	-34.5	-35.2	25.2	0.00e+00	0	30	0	958398464	42	5886
2026-01-11 14:28:40.98	168.09	45.14	-35.3	-36.1	24.6	0.00e+00	0	30	0	959447040	42	6495
2026-01-11 14:28:41.98	168.35	44.88	-36.7	-37.6	23.3	0.00e+00	0	30	0	961544192	46	6159
2026-01-11 14:28:42.99	168.61	44.61	-39.3	-40.6	21.0	0.00e+00	0	30	0	963641344	50	6911
2026-01-11 14:28:44.00	168.86	44.35	-40.8	-42.4	19.4	0.00e+00	0	30	0	965738496	52	7592
2026-01-11 14:28:45.01	169.11	44.09	-39.9	-41.4	20.4	0.00e+00	0	30	0	967835648	54	6002
2026-01-11 14:28:46.03	169.36	43.82	-37.5	-38.6	23.0	0.00e+00	0	30	0	968884224	50	5446
2026-01-11 14:28:47.04	169.60	43.56	-35.7	-36.6	24.3	0.00e+00	0	30	0	970981376	46	5445
2026-01-11 14:28:48.05	169.84	43.30	-35.0	-35.8	24.8	0.00e+00	0	30	0	973078528	44	5585
2026-01-11 14:28:49.05	170.07	43.04	-35.3	-36.1	24.7	0.00e+00	0	30	0	975175680	44	5780
2026-01-11 14:28:50.06	170.30	42.79	-36.6	-37.4	23.6	0.00e+00	0	30	0	977272832	44	6765
2026-01-11 14:28:51.07	170.53	42.53	-37.8	-38.8	22.6	0.00e+00	0	30	0	978321408	46	7039
2026-01-11 14:28:52.08	170.76	42.28	-37.8	-38.8	22.6	0.00e+00	0	30	0	980418560	48	6300
2026-01-11 14:28:53.09	170.98	42.02	-36.5	-37.4	23.5	0.00e+00	0	30	0	982515712	48	5346
2026-01-11 14:28:54.10	171.19	41.77	-35.6	-36.5	24.4	0.00e+00	0	30	0	984612864	44	6048
2026-01-11 14:28:55.11	171.41	41.52	-34.1	-34.8	25.5	0.00e+00	0	29	0	986710016	42	5600
2026-01-11 14:28:56.12	171.62	41.27	-33.8	-34.5	25.6	0.00e+00	0	30	0	988807168	40	6084
2026-01-11 14:28:57.13	171.83	41.02	-34.5	-35.3	25.1	0.00e+00	0	30	0	989855744	40	6619
2026-01-11 14:28:58.14	172.03	40.78	-36.0	-36.8	24.1	0.00e+00	0	30	0	991952896	42	7067
2026-01-11 14:28:59.15	172.23	40.53	-38.1	-39.2	22.2	0.00e+00	0	30	0	994050048	46	7416
2026-01-11 14:29:00.16	172.43	40.28	-39.5	-40.9	20.8	0.00e+00	0	30	0	996147200	50	7110
2026-01-11 14:29:01.17	172.63	40.04	-40.6	-42.4	19.4	0.00e+00	0	30	0	998244352	52	7520
2026-01-11 14:29:02.18	172.82	39.80	-40.7	-42.5	19.3	0.00e+00	0	30	0	999292928	54	6803
2026-01-11 14:29:03.19	173.01	39.56	-39.3	-40.8	21.0	0.00e+00	0	30	0	1001390080	52	6286
2026-01-11 14:29:04.20	173.20	39.32	-38.5	-39.7	21.8	0.00e+00	0	30	0	1003487232	50	6240
2026-01-11 14:29:05.21	173.38	39.08	-36.8	-37.7	23.5	0.00e+00	0	30	0	1005584384	48	5553
2026-01-11 14:29:06.22	173.56	38.85	-35.5	-36.3	24.4	0.00e+00	0	29	0	1007681536	44	5939
2026-01-11 14:29:07.23	173.74	38.61	-35.3	-36.1	24.5	0.00e+00	0	30	0	1008730112	44	5792
2026-01-11 14:29:08.24	173.92	38.38	-35.2	-36.0	24.7	0.00e+00	0	30	0	1010827264	44	5707
2026-01-11 14:29:09.25	174.09	38.14	-35.9	-36.7	24.1	0.00e+00	0	29	0	1012924416	44	6205
2026-01-11 14:29:10.26	174.27	37.91	-37.2	-38.2	23.0	0.00e+00	0	29	0	1015021568	46	6550
2026-01-11 14:29:11.27	174.44	37.68	-38.5	-39.7	21.7	0.00e+00	0	29	0	1017118720	48	6958
2026-01-11 14:29:12.28	174.60	37.45	-39.1	-40.3	21.4	0.00e+00	0	29	0	1018167296	50	6672
2026-01-11 14:29:13.29	174.77	37.23	-39.0	-40.2	21.5	0.00e+00	0	29	0	1020264448	50	6559
2026-01-11 14:29:14.30	174.93	37.00	-37.9	-39.0	22.6	0.00e+00	0	29	0	1022361600	50	5709
2026-01-11 14:29:15.31	175.09	36.78	-37.1	-38.0	23.2	0.00e+00	0	29	0	1024458752	48	5729
2026-01-11 14:29:16.32	175.25	36.55	-36.4	-37.2	23.7	0.00e+00	0	29	0	1026555904	46	5885
2026-01-11 14:29:17.33	175.41	36.33	-35.7	-36.5	24.4	0.00e+00	0	29	0	1027604480	44	6055
2026-01-11 14:29:18.34	175.56	36.11	-35.5	-36.3	24.5	0.00e+00	0	29	0	1029701632	44	5948
2026-01-11 14:29:19.35	175.71	35.89	-35.1	-35.8	24.8	0.00e+00	0	29	0	1031798784	44	5621
2026-01-11 14:29:20.36	175.87	35.67	-35.1	-35.9	24.8	0.00e+00	0	29	0	1033895936	44	5644
2026-01-11 14:29:21.37	176.01	35.45	-34.8	-35.6	25.0	0.00e+00	0	29	0	1035993088	44	5444
2026-01-11 14:29:22.38	176.16	35.24	-35.1	-35.9	24.6	0.00e+00	0	29	0	1037041664	44	5654
2026-01-11 14:29:23.39	176.31	35.02	-35.4	-36.2	24.5	0.00e+00	0	29	0	1039138816	44	5885
2026-01-11 14:29:24.40	176.45	34.81	-35.5	-36.4	24.4	0.00e+00	0	29	0	1041235968	44	5984
2026-01-11 14:29:25.41	176.59	34.60	-36.3	-37.3	23.8	0.00e+00	0	29	0	1043333120	44	6629
2026-01-11 14:29:26.42	176.73	34.39	-36.5	-37.4	23.5	0.00e+00	0	29	0	1045430272	46	6015
2026-01-11 14:29:27.43	176.87	34.18	-37.2	-38.2	23.1	0.00e+00	0	29	0	1046478848	46	6563
2026-01-11 14:29:28.44	177.00	33.97	-38.3	-39.4	22.1	0.00e+00	0	29	0	1048576000	48	6754
2026-01-11 14:29:29.45	177.14	33.76	-38.7	-39.9	21.7	0.00e+00	0	29	0	1050673152	48	7116
2026-01-11 14:29:30.46	177.27	33.56	-39.2	-40.4	21.3	0.00e+00	0	29	0	1052770304	50	6766
2026-01-11 14:29:31.46	177.40	33.35	-39.6	-40.8	20.5	0.00e+00	0	29	0	1054867456	52	6298
2026-01-11 14:29:32.47	177.53	33.15	-40.3	-41.7	20.2	0.00e+00	0	29	0	1056964608	52	6977
2026-01-11 14:29:33.48	177.66	32.95	-39.9	-41.2	20.6	0.00e+00	0	29	0	1058013184	52	6560
2026-01-11 14:29:34.49	177.78	32.75	-39.3	-40.5	21.3	0.00e+00	0	29	0	1060110336	52	6042
2026-01-11 14:29:35.50	177.91	32.55	-39.1	-40.3	21.4	0.00e+00	0	29	0	1062207488	52	5913
2026-01-11 14:29:36.51	178.03	32.35	-37.4	-38.4	23.0	0.00e+00	0	29	0	1064304640	48	5967
2026-01-11 14:29:37.52	178.15	32.15	-37.2	-38.1	23.2	0.00e+00	0	29	0	1066401792	48	5775
2026-01-11 14:29:38.53	178.27	31.96	-36.6	-37.5	23.6	0.00e+00	0	29	0	1067450368	48	5421
2026-01-11 14:29:39.54	178.39	31.76	-36.9	-37.8	23.4	0.00e+00	0	29	0	1069547520	46	6264
2026-01-11 14:29:40.55	178.51	31.57	-37.2	-38.2	23.2	0.00e+00	0	29	0	1071644672	46	6549
2026-01-11 14:29:41.56	178.63	31.37	-37.3	-38.2	23.1	0.00e+00	0	29	0	1073741824	46	6551
2026-01-11 14:29:42.57	178.74	31.18	-37.8	-38.8	22.6	0.00e+00	0	29	0	1075838976	48	6282
2026-01-11 14:29:43.58	178.86	30.99	-38.1	-39.1	22.0	0.00e+00	0	29	0	1076887552	48	6503
2026-01-11 14:29:44.59	178.97	30.80	-38.6	-39.7	21.8	0.00e+00	0	29	0	1078984704	48	6978
2026-01-11 14:29:45.60	179.08	30.61	-38.7	-39.8	21.8	0.00e+00	0	29	0	1081081856	48	7024
2026-01-11 14:29:46.61	179.19	30.43	-39.0	-40.2	21.4	0.00e+00	0	29	0	1083179008	50	6575
2026-01-11 14:29:47.62	179.30	30.24	-38.7	-39.8	21.7	0.00e+00	0	29	0	1085276160	50	6306
2026-01-11 14:29:48.63	179.41	30.06	-38.5	-39.6	22.1	0.00e+00	0	29	0	1086324736	50	6139
2026-01-11 14:29:49.64	179.51	29.87	-38.6	-39.7	21.8	0.00e+00	0	29	0	1088421888	50	6237
2026-01-11 14:29:50.65	179.62	29.69	-38.4	-39.4	22.1	0.00e+00	0	29	0	1090519040	50	6009
2026-01-11 14:29:51.66	179.72	29.51	-38.3	-39.3	22.0	0.00e+00	0	29	0	1092616192	50	5951
2026-01-11 14:29:52.67	179.83	29.33	-38.0	-39.0	22.5	0.00e+00	0	29	0	1094713344	50	5713
2026-01-11 14:29:53.68	179.93	29.15	-37.9	-38.9	22.5	0.00e+00	0	29	0	1095761920	50	5663
2026-01-11 14:29:54.69	180.03	28.97	-38.2	-39.2	22.2	0.00e+00	0	29	0	1097859072	50	5877
2026-01-11 14:29:55.70	180.13	28.79	-38.1	-39.1	22.3	0.00e+00	0	29	0	1099956224	50	5812
2026-01-11 14:29:56.71	180.23	28.61	-37.9	-38.9	22.4	0.00e+00	0	29	0	1102053376	50	5682
2026-01-11 14:29:57.72	180.33	28.44	-37.6	-38.5	22.7	0.00e+00	0	29	0	1104150528	48	6085
2026-01-11 14:29:58.73	180.42	28.26	-37.4	-38.4	22.9	0.00e+00	0	29	0	1105199104	48	5974
2026-01-11 14:29:59.74	180.52	28.09	-36.6	-37.4	23.6	0.00e+00	0	29	0	1107296256	46	6027
2026-01-11 14:30:00.75	180.61	27.92	-36.4	-37.3	23.8	0.00e+00	0	29	0	1109393408	46	5939
2026-01-11 14:30:01.76	180.71	27.75	-36.0	-36.8	23.9	0.00e+00	0	29	0	1111490560	46	5621
2026-01-11 14:30:02.77	180.80	27.58	-35.6	-36.5	24.3	0.00e+00	0	29	0	1113587712	44	6041
2026-01-11 14:30:03.78	180.89	27.41	-35.7	-36.5	24.4	0.00e+00	0	29	0	1114636288	44	6067
2026-01-11 14:30:04.79	180.98	27.24	-35.8	-36.7	24.2	0.00e+00	0	29	0	1116733440	44	6180
2026-01-11 14:30:05.80	181.07	27.07	-35.7	-36.5	24.3	0.00e+00	0	29	0	1118830592	44	6093
2026-01-11 14:30:06.81	181.16	26.90	-35.6	-36.5	24.3	0.00e+00	0	29	0	1120927744	44	6037
2026-01-11 14:30:07.82	181.25	26.74	-35.4	-36.3	24.4	0.00e+00	0	29	0	1123024896	44	5914
2026-01-11 14:30:08.83	181.34	26.57	-35.7	-36.5	24.3	0.00e+00	0	29	0	1125122048	44	6074
2026-01-11 14:30:09.84	181.42	26.41	-35.5	-36.4	24.3	0.00e+00	0	29	0	1126170624	44	5985
2026-01-11 14:30:10.85	181.51	26.25	-35.2	-36.0	24.6	0.00e+00	0	29	0	1128267776	44	5715
2026-01-11 14:30:11.85	181.59	26.09	-35.4	-36.3	24.3	0.00e+00	0	29	0	1130364928	44	5904
2026-01-11 14:30:12.86	181.68	25.92	-35.3	-36.1	24.5	0.00e+00	0	29	0	1132462080	44	5795
2026-01-11 14:30:13.87	181.76	25.76	-35.3	-36.1	24.5	0.00e+00	0	29	0	1134559232	44	5811
2026-01-11 14:30:14.88	181.84	25.60	-35.6	-36.4	24.3	0.00e+00	0	29	0	1135607808	44	6019
2026-01-11 14:30:15.89	181.92	25.45	-35.6	-36.5	24.3	0.00e+00	0	29	0	1137704960	44	6044
2026-01-11 14:30:16.90	182.01	25.29	-36.1	-37.0	24.0	0.00e+00	0	29	0	1139802112	44	6411
2026-01-11 14:30:17.91	182.09	25.13	-36.2	-37.1	23.8	0.00e+00	0	29	0	1141899264	44	6488
2026-01-11 14:30:18.92	182.16	24.98	-36.3	-37.2	23.8	0.00e+00	0	29	0	1143996416	44	6556
2026-01-11 14:30:19.93	182.24	24.82	-36.5	-37.4	23.5	0.00e+00	0	29	0	1145044992	44	6760
2026-01-11 14:30:20.94	182.32	24.67	-36.4	-37.3	23.6	0.00e+00	0	29	0	1147142144	44	6650
2026-01-11 14:30:21.95	182.40	24.51	-36.4	-37.3	23.7	0.00e+00	0	29	0	1149239296	44	6655
2026-01-11 14:30:22.96	182.47	24.36	-36.1	-37.0	23.9	0.00e+00	0	29	0	1151336448	44	6412
2026-01-11 14:30:23.97	182.55	24.21	-36.2	-37.1	23.9	0.00e+00	0	29	0	1153433600	44	6523
2026-01-11 14:30:24.98	182.63	24.06	-36.0	-36.9	24.2	0.00e+00	0	29	0	1154482176	44	6326
2026-01-11 14:30:25.99	182.70	23.91	-35.5	-36.3	24.4	0.00e+00	0	29	0	1156579328	44	5957
2026-01-11 14:30:27.00	182.77	23.76	-35.6	-36.5	24.3	0.00e+00	0	29	0	1158676480	44	6051
2026-01-11 14:30:28.01	182.85	23.61	-35.6	-36.4	24.2	0.00e+00	0	29	0	1160773632	44	6023
2026-01-11 14:30:29.01	182.92	23.47	-35.6	-36.4	24.3	0.00e+00	0	29	0	1162870784	44	6000
2026-01-11 14:30:30.02	182.99	23.32	-35.6	-36.5	24.3	0.00e+00	0	29	0	1163919360	44	6059
2026-01-11 14:30:31.03	183.06	23.17	-35.7	-36.6	24.2	0.00e+00	0	29	0	1166016512	44	6127
2026-01-11 14:30:32.04	183.13	23.03	-35.8	-36.6	24.1	0.00e+00	0	29	0	1168113664	44	6140
2026-01-11 14:30:33.05	183.20	22.88	-35.8	-36.6	24.2	0.00e+00	0	29	0	1170210816	44	6131
2026-01-11 14:30:34.06	183.27	22.74	-35.3	-36.1	24.5	0.00e+00	0	29	0	1172307968	44	5806
2026-01-11 14:30:35.07	183.34	22.60	-35.3	-36.1	24.5	0.00e+00	0	29	0	1173356544	44	5785
2026-01-11 14:30:36.08	183.41	22.46	-35.1	-35.9	24.7	0.00e+00	0	29	0	1175453696	44	5693
2026-01-11 14:30:37.09	183.48	22.31	-35.1	-35.9	24.6	0.00e+00	0	29	0	1177550848	44	5680
2026-01-11 14:30:38.10	183.54	22.17	-35.1	-35.9	24.6	0.00e+00	0	29	0	1179648000	44	5648
2026-01-11 14:30:39.11	183.61	22.03	-35.3	-36.1	24.4	0.00e+00	0	29	0	1181745152	44	5808
2026-01-11 14:30:40.12	183.68	21.90	-35.4	-36.2	24.5	0.00e+00	0	29	0	1182793728	44	5839
2026-01-11 14:30:41.13	183.74	21.76	-35.2	-36.0	24.5	0.00e+00	0	29	0	1184890880	44	5716
2026-01-11 14:30:42.14	183.81	21.62	-35.4	-36.3	24.3	0.00e+00	0	29	0	1186988032	44	5913
2026-01-11 14:30:43.15	183.87	21.48	-35.5	-36.3	24.4	0.00e+00	0	29	0	1189085184	44	5918
2026-01-11 14:30:44.16	183.93	21.35	-35.7	-36.5	24.2	0.00e+00	0	29	0	1191182336	44	6082
2026-01-11 14:30:45.17	184.00	21.21	-36.0	-36.9	23.8	0.00e+00	0	29	0	1193279488	44	6367
2026-01-11 14:30:46.18	184.06	21.08	-36.1	-37.0	23.9	0.00e+00	0	29	0	1194328064	44	6400
2026-01-11 14:30:47.19	184.12	20.94	-36.2	-37.1	23.7	0.00e+00	0	29	0	1196425216	44	6514
2026-01-11 14:30:48.20	184.18	20.81	-36.5	-37.4	23.6	0.00e+00	0	29	0	1198522368	44	6734
2026-01-11 14:30:49.21	184.24	20.68	-36.4	-37.4	23.5	0.00e+00	0	29	0	1200619520	44	6707
2026-01-11 14:30:50.22	184.30	20.54	-36.4	-37.4	23.7	0.00e+00	0	29	0	1202716672	44	6712
2026-01-11 14:30:51.23	184.37	20.41	-36.1	-37.0	23.9	0.00e+00	0	29	0	1203765248	44	6417
2026-01-11 14:30:52.24	184.42	20.28	-36.1	-37.0	23.8	0.00e+00	0	29	0	1205862400	44	6441
2026-01-11 14:30:53.25	184.48	20.15	-36.1	-37.0	23.8	0.00e+00	0	29	0	1207959552	44	6418
2026-01-11 14:30:54.26	184.54	20.02	-35.7	-36.5	24.2	0.00e+00	0	29	0	1210056704	44	6085
2026-01-11 14:30:55.26	184.60	19.89	-35.5	-36.4	24.1	0.00e+00	0	29	0	1212153856	44	5978
2026-01-11 14:30:56.27	184.66	19.77	-35.2	-36.0	24.5	0.00e+00	0	29	0	1213202432	44	5726
2026-01-11 14:30:57.28	184.72	19.64	-35.1	-35.9	24.7	0.00e+00	0	29	0	1215299584	44	5657
2026-01-11 14:30:58.29	184.77	19.51	-35.0	-35.8	24.7	0.00e+00	0	29	0	1217396736	44	5595
2026-01-11 14:30:59.30	184.83	19.38	-34.8	-35.6	24.9	0.00e+00	0	29	0	1219493888	42	6144
2026-01-11 14:31:00.31	184.89	19.26	-34.7	-35.6	24.8	0.00e+00	0	29	0	1221591040	42	6107
2026-01-11 14:31:01.32	184.94	19.13	-34.8	-35.6	24.8	0.00e+00	0	29	0	1222639616	42	6173
