passes_logs/2026/01/11/R4.6S_Anadyr/R4.6S_Anadyr__20260111_220607_NOAA_21_JPSS-2_rec.log

#Pass ID: 20260111_220607_NOAA 21 (JPSS-2)
#Satellite: NOAA 21 (JPSS-2)
#Configuration: NOAA-21
#almurnet v.1.7.20251203
#Start time: 2026-01-11 22:06:09

#Version: 2.2.20231116
#Station: R4.6S_Anadyr
#Location: 177.4865 lon 64.73178 lat
#TLE: 1 54234U 22150A   26011.55893233  .00000075  00000+0  56634-4 0  9995
#TLE: 2 54234  98.7494 312.5004 0000755 313.1908  46.9205 14.19534095164321

#Time	Az	El	Level	Level2	SNR	BER	BlckErr	Temp	State	Recorded	gain1	gain2
2026-01-11 22:06:09.56	105.36	0.12	-48.2	-63.1	3.6	1.51e+00	0	25	0	0	60	51565
2026-01-11 22:06:10.57	105.31	0.17	-48.5	-61.3	3.5	1.52e+00	0	26	104	0	60	40832
2026-01-11 22:06:11.57	105.26	0.23	-48.4	-61.2	3.5	1.52e+00	0	26	104	0	60	40473
2026-01-11 22:06:12.58	105.21	0.28	-48.3	-61.2	3.5	1.52e+00	0	26	104	0	60	40412
2026-01-11 22:06:13.59	105.16	0.34	-48.4	-61.3	3.5	1.51e+00	0	26	104	0	60	40560
2026-01-11 22:06:14.60	105.11	0.40	-48.3	-61.2	3.5	1.52e+00	0	26	104	0	60	40289
2026-01-11 22:06:15.61	105.06	0.45	-48.3	-61.2	3.5	1.51e+00	0	27	104	0	60	40333
2026-01-11 22:06:16.62	105.00	0.51	-48.4	-61.2	3.5	1.52e+00	0	27	104	0	60	40311
2026-01-11 22:06:17.63	104.95	0.57	-48.3	-61.2	3.5	1.52e+00	0	27	104	0	60	40376
2026-01-11 22:06:18.64	104.90	0.62	-48.3	-61.1	3.5	1.52e+00	0	27	104	0	60	40025
2026-01-11 22:06:19.65	104.85	0.68	-48.3	-61.1	3.5	1.51e+00	0	27	104	0	60	39828
2026-01-11 22:06:20.66	104.80	0.74	-48.2	-61.1	3.5	1.52e+00	0	27	104	0	60	39676
2026-01-11 22:06:21.67	104.75	0.79	-48.1	-61.0	3.5	1.52e+00	0	27	104	0	60	39470
2026-01-11 22:06:22.68	104.69	0.85	-48.1	-60.9	3.5	1.52e+00	0	27	104	0	60	38786
2026-01-11 22:06:23.69	104.64	0.91	-47.8	-60.8	3.5	1.51e+00	0	27	104	0	60	38393
2026-01-11 22:06:24.70	104.59	0.97	-47.1	-60.5	3.5	1.52e+00	0	27	104	0	60	37264
2026-01-11 22:06:25.71	104.54	1.02	-44.9	-60.1	3.5	1.52e+00	0	27	104	0	60	35645
2026-01-11 22:06:26.72	104.48	1.08	-46.5	-59.2	3.5	1.52e+00	0	27	104	0	60	32097
2026-01-11 22:06:27.73	104.43	1.14	-46.5	-59.1	3.5	1.52e+00	0	27	104	0	60	31824
2026-01-11 22:06:28.74	104.38	1.20	-46.5	-59.2	3.5	1.52e+00	0	27	104	0	60	31937
2026-01-11 22:06:29.75	104.32	1.26	-46.5	-59.1	3.5	1.52e+00	0	27	104	0	60	31779
2026-01-11 22:06:30.76	104.27	1.31	-46.5	-59.2	3.5	1.52e+00	0	27	104	0	60	32112
2026-01-11 22:06:31.77	104.21	1.37	-46.5	-59.1	3.5	1.52e+00	0	27	104	0	60	31784
2026-01-11 22:06:32.78	104.16	1.43	-46.5	-59.2	3.5	1.51e+00	0	27	104	0	60	32038
2026-01-11 22:06:33.78	104.10	1.49	-46.5	-59.2	3.5	1.52e+00	0	27	104	0	60	32120
2026-01-11 22:06:34.79	104.05	1.55	-46.5	-59.3	3.5	1.52e+00	0	27	104	0	60	32287
2026-01-11 22:06:35.80	103.99	1.60	-46.5	-59.3	3.5	1.52e+00	0	27	104	0	60	32205
2026-01-11 22:06:36.81	103.94	1.66	-46.5	-59.2	3.5	1.51e+00	0	27	104	0	60	32083
2026-01-11 22:06:37.82	103.88	1.72	-46.5	-59.2	3.5	1.52e+00	0	27	104	0	60	32088
2026-01-11 22:06:38.83	103.83	1.78	-46.5	-59.3	3.5	1.52e+00	0	27	104	0	60	32251
2026-01-11 22:06:39.84	103.77	1.84	-46.5	-59.2	3.5	1.52e+00	0	27	104	0	60	32168
2026-01-11 22:06:40.85	103.71	1.90	-46.5	-59.2	3.5	1.52e+00	0	27	104	0	60	32127
2026-01-11 22:06:41.86	103.66	1.96	-46.4	-59.2	3.5	1.52e+00	0	27	104	0	60	32031
2026-01-11 22:06:42.87	103.60	2.01	-46.5	-59.1	3.5	1.52e+00	0	27	104	0	60	31510
2026-01-11 22:06:43.88	103.54	2.07	-46.5	-59.0	3.5	1.52e+00	0	27	104	0	60	31273
2026-01-11 22:06:44.89	103.49	2.13	-46.4	-59.0	3.5	1.52e+00	0	27	104	0	60	31194
2026-01-11 22:06:45.89	103.43	2.19	-46.4	-59.0	3.5	1.52e+00	0	27	104	0	60	31294
2026-01-11 22:06:46.91	103.37	2.25	-46.4	-59.1	3.5	1.52e+00	0	27	104	0	60	31526
2026-01-11 22:06:47.91	103.31	2.31	-46.4	-59.1	3.5	1.52e+00	0	27	104	0	60	31731
2026-01-11 22:06:48.92	103.26	2.37	-46.5	-59.3	3.5	1.52e+00	0	27	104	0	60	32226
2026-01-11 22:06:49.93	103.20	2.43	-46.5	-59.2	3.5	1.52e+00	0	27	104	0	60	32098
2026-01-11 22:06:50.94	103.14	2.49	-46.5	-59.3	3.5	1.52e+00	0	27	104	0	60	32213
2026-01-11 22:06:51.95	103.08	2.55	-46.5	-59.2	3.5	1.52e+00	0	27	104	0	60	32176
2026-01-11 22:06:52.96	103.02	2.61	-46.4	-59.3	3.5	1.52e+00	0	27	104	0	60	32251
2026-01-11 22:06:53.97	102.96	2.67	-46.5	-59.3	3.5	1.51e+00	0	27	104	0	60	32220
2026-01-11 22:06:54.98	102.90	2.73	-46.4	-59.2	3.5	1.52e+00	0	27	104	0	60	31893
2026-01-11 22:06:55.99	102.84	2.79	-46.4	-58.9	3.5	1.52e+00	0	27	104	0	60	31091
2026-01-11 22:06:57.00	102.78	2.85	-46.4	-58.7	3.5	1.52e+00	0	27	104	0	60	30049
2026-01-11 22:06:58.01	102.72	2.91	-46.4	-58.5	3.5	1.52e+00	0	27	104	0	60	29468
2026-01-11 22:06:59.02	102.66	2.97	-46.4	-58.6	3.5	1.51e+00	0	27	104	0	60	29811
2026-01-11 22:07:00.03	102.60	3.03	-46.4	-58.8	3.5	1.52e+00	0	27	104	0	60	30432
2026-01-11 22:07:01.03	102.54	3.09	-46.3	-57.9	3.5	1.52e+00	0	27	104	0	60	27535
2026-01-11 22:07:02.04	102.48	3.15	-45.9	-54.8	4.8	1.50e+00	122	27	104	0	60	19290
2026-01-11 22:07:03.06	102.41	3.22	-45.1	-50.4	7.7	1.82e-01	120	27	0	1048576	60	11559
2026-01-11 22:07:04.07	102.35	3.28	-44.2	-48.0	10.1	1.07e-02	123	27	0	4194304	60	8791
2026-01-11 22:07:05.08	102.29	3.34	-42.3	-44.8	13.6	1.01e-04	123	27	0	7340032	58	6858
2026-01-11 22:07:06.09	102.23	3.40	-41.8	-44.2	14.3	4.50e-06	120	27	0	10485760	58	6375
2026-01-11 22:07:07.10	102.16	3.46	-40.7	-42.6	15.8	0.00e+00	123	27	0	13631488	56	5962
2026-01-11 22:07:08.11	102.10	3.52	-44.9	-51.3	6.5	1.56e-02	120	27	0	16777216	60	12912
2026-01-11 22:07:09.12	102.04	3.58	-45.2	-56.5	4.1	1.50e+00	0	27	104	17825792	60	23484
2026-01-11 22:07:10.12	101.97	3.64	-43.1	-47.0	11.7	1.98e-05	120	27	0	18874368	58	8827
2026-01-11 22:07:11.13	101.91	3.71	-38.2	-39.8	19.0	0.00e+00	123	27	0	22020096	50	6101
2026-01-11 22:07:12.14	101.84	3.77	-45.9	-57.0	3.5	1.51e+00	0	27	104	24117248	60	24744
2026-01-11 22:07:13.15	101.78	3.83	-38.4	-40.2	17.9	3.17e-01	123	27	104	24117248	50	6368
2026-01-11 22:07:14.16	101.72	3.89	-38.5	-40.0	18.4	0.00e+00	120	27	0	25165824	50	6272
2026-01-11 22:07:15.17	101.65	3.96	-38.3	-39.8	18.7	0.00e+00	122	27	0	28311552	50	6090
2026-01-11 22:07:16.18	101.58	4.02	-37.5	-38.9	19.6	0.00e+00	122	27	0	31457280	48	6150
2026-01-11 22:07:17.19	101.52	4.08	-37.2	-38.5	19.9	0.00e+00	122	27	0	34603008	48	5866
2026-01-11 22:07:18.20	101.45	4.14	-37.5	-38.9	19.8	0.00e+00	120	27	0	37748736	48	6154
2026-01-11 22:07:19.21	101.39	4.21	-37.2	-38.5	20.0	0.00e+00	122	27	0	40894464	48	5903
2026-01-11 22:07:20.22	101.32	4.27	-37.1	-38.4	20.3	0.00e+00	120	27	0	44040192	48	5844
2026-01-11 22:07:21.23	101.25	4.33	-36.9	-38.1	20.6	0.00e+00	123	27	0	47185920	48	5647
2026-01-11 22:07:22.24	101.19	4.39	-36.8	-38.1	20.5	0.00e+00	123	27	0	50331648	46	6324
2026-01-11 22:07:23.25	101.12	4.46	-37.3	-38.7	20.1	0.00e+00	123	27	0	53477376	46	6766
2026-01-11 22:07:24.25	101.05	4.52	-36.7	-38.1	20.8	0.00e+00	122	27	0	56623104	46	6288
2026-01-11 22:07:25.27	100.98	4.58	-36.3	-37.6	21.0	0.00e+00	123	27	0	59768832	46	5978
2026-01-11 22:07:26.28	100.91	4.65	-37.1	-38.5	20.2	0.00e+00	123	27	0	62914560	46	6613
2026-01-11 22:07:27.29	100.84	4.71	-36.9	-38.2	20.5	0.00e+00	123	27	0	66060288	46	6377
2026-01-11 22:07:28.29	100.78	4.77	-36.9	-38.1	20.6	0.00e+00	123	27	0	69206016	46	6344
2026-01-11 22:07:29.30	100.71	4.84	-36.7	-37.8	20.8	0.00e+00	122	27	0	72351744	46	6109
2026-01-11 22:07:30.31	100.64	4.90	-36.7	-37.8	20.9	0.00e+00	123	27	0	75497472	46	6099
2026-01-11 22:07:31.32	100.57	4.97	-37.6	-38.8	20.0	0.00e+00	123	27	0	78643200	46	6831
2026-01-11 22:07:32.33	100.50	5.03	-36.8	-37.9	20.5	0.00e+00	123	27	0	81788928	46	6170
2026-01-11 22:07:33.34	100.43	5.09	-37.2	-38.4	20.3	0.00e+00	123	27	0	84934656	46	6556
2026-01-11 22:07:34.35	100.35	5.16	-36.7	-37.8	20.6	0.00e+00	122	27	0	88080384	46	6113
2026-01-11 22:07:35.36	100.28	5.22	-36.4	-37.6	20.8	0.00e+00	122	27	0	91226112	46	5963
2026-01-11 22:07:36.37	100.21	5.29	-36.4	-37.6	21.0	0.00e+00	123	27	0	94371840	46	5937
2026-01-11 22:07:37.38	100.14	5.35	-37.3	-38.5	20.1	0.00e+00	123	27	0	97517568	46	6633
2026-01-11 22:07:38.39	100.07	5.42	-37.1	-38.3	20.3	0.00e+00	123	27	0	100663296	46	6474
2026-01-11 22:07:39.40	99.99	5.48	-37.2	-38.4	20.4	0.00e+00	123	27	0	103809024	46	6547
2026-01-11 22:07:40.41	99.92	5.55	-36.7	-37.9	20.7	0.00e+00	121	27	0	106954752	46	6161
2026-01-11 22:07:41.41	99.85	5.61	-36.7	-38.0	20.7	0.00e+00	121	27	0	110100480	46	6216
2026-01-11 22:07:42.42	99.77	5.68	-36.8	-38.2	20.5	0.00e+00	120	27	0	113246208	46	6356
2026-01-11 22:07:43.43	99.70	5.74	-36.7	-38.2	20.4	0.00e+00	123	27	0	116391936	46	6385
2026-01-11 22:07:44.44	99.63	5.81	-36.5	-37.9	20.8	0.00e+00	123	27	0	119537664	46	6145
2026-01-11 22:07:45.45	99.55	5.87	-36.5	-37.8	20.9	0.00e+00	123	27	0	122683392	46	6093
2026-01-11 22:07:46.46	99.48	5.94	-36.7	-38.0	20.8	0.00e+00	122	27	0	125829120	46	6242
2026-01-11 22:07:47.47	99.40	6.01	-37.0	-38.4	20.5	0.00e+00	120	27	0	128974848	46	6499
2026-01-11 22:07:48.48	99.33	6.07	-36.7	-38.0	20.8	0.00e+00	123	27	0	132120576	46	6269
2026-01-11 22:07:49.49	99.25	6.14	-36.5	-37.8	21.0	0.00e+00	120	27	0	135266304	46	6103
2026-01-11 22:07:50.50	99.17	6.20	-36.2	-37.6	21.2	0.00e+00	122	27	0	138412032	46	5954
2026-01-11 22:07:51.50	99.10	6.27	-36.3	-37.7	21.1	0.00e+00	121	27	0	141557760	46	6064
2026-01-11 22:07:52.51	99.02	6.34	-35.9	-37.4	21.4	0.00e+00	123	27	0	144703488	46	5824
2026-01-11 22:07:53.52	98.94	6.40	-35.9	-37.3	21.5	0.00e+00	123	27	0	147849216	46	5771
2026-01-11 22:07:54.53	98.86	6.47	-35.8	-37.2	21.6	0.00e+00	123	27	0	150994944	44	6399
2026-01-11 22:07:55.54	98.79	6.54	-36.1	-37.5	21.3	0.00e+00	123	27	0	154140672	44	6616
2026-01-11 22:07:56.55	98.71	6.60	-35.8	-37.2	21.5	0.00e+00	123	27	0	157286400	44	6402
2026-01-11 22:07:57.56	98.63	6.67	-36.1	-37.6	21.3	0.00e+00	123	27	0	160432128	44	6662
2026-01-11 22:07:58.57	98.55	6.74	-36.0	-37.4	21.5	0.00e+00	122	27	0	163577856	44	6554
2026-01-11 22:07:59.58	98.47	6.80	-35.7	-37.1	21.9	0.00e+00	123	27	0	167772160	44	6294
2026-01-11 22:08:00.59	98.39	6.87	-36.1	-37.5	21.4	0.00e+00	122	27	0	170917888	44	6618
2026-01-11 22:08:01.60	98.31	6.94	-35.7	-37.0	21.9	0.00e+00	120	27	0	173015040	44	6216
2026-01-11 22:08:02.61	98.23	7.01	-35.9	-37.1	21.7	0.00e+00	123	27	0	176160768	44	6336
2026-01-11 22:08:03.62	98.14	7.07	-36.1	-37.3	21.6	0.00e+00	122	27	0	179306496	44	6479
2026-01-11 22:08:04.63	98.06	7.14	-36.1	-37.2	21.7	0.00e+00	122	27	0	183500800	44	6386
2026-01-11 22:08:05.63	97.98	7.21	-36.0	-37.1	21.7	0.00e+00	122	27	0	186646528	44	6334
2026-01-11 22:08:06.64	97.90	7.28	-36.1	-37.1	21.7	0.00e+00	123	27	0	189792256	44	6342
2026-01-11 22:08:07.65	97.82	7.35	-36.1	-37.2	21.6	0.00e+00	123	27	0	192937984	44	6410
2026-01-11 22:08:08.66	97.73	7.42	-36.1	-37.1	21.7	0.00e+00	121	27	0	196083712	44	6349
2026-01-11 22:08:09.67	97.65	7.48	-36.2	-37.4	21.5	0.00e+00	122	27	0	198180864	44	6505
2026-01-11 22:08:10.68	97.56	7.55	-36.1	-37.2	21.6	0.00e+00	123	27	0	202375168	44	6392
2026-01-11 22:08:11.69	97.48	7.62	-36.0	-37.1	21.9	0.00e+00	123	27	0	205520896	44	6317
2026-01-11 22:08:12.70	97.39	7.69	-36.1	-37.2	21.7	0.00e+00	123	27	0	208666624	44	6405
2026-01-11 22:08:13.71	97.31	7.76	-36.2	-37.3	21.6	0.00e+00	123	27	0	211812352	44	6483
2026-01-11 22:08:14.71	97.22	7.83	-35.8	-36.9	22.1	0.00e+00	123	27	0	214958080	44	6150
2026-01-11 22:08:15.72	97.14	7.90	-35.8	-36.9	22.0	0.00e+00	123	27	0	218103808	44	6138
2026-01-11 22:08:16.73	97.05	7.97	-35.8	-36.9	22.0	0.00e+00	123	27	0	221249536	44	6166
2026-01-11 22:08:17.74	96.96	8.04	-35.9	-36.9	21.9	0.00e+00	122	27	0	224395264	44	6201
2026-01-11 22:08:18.75	96.88	8.11	-36.0	-37.0	21.9	0.00e+00	123	27	0	227540992	44	6271
2026-01-11 22:08:19.75	96.79	8.17	-35.5	-36.6	22.3	0.00e+00	122	27	0	230686720	44	5952
2026-01-11 22:08:20.76	96.70	8.24	-35.7	-36.8	22.1	0.00e+00	122	28	0	233832448	44	6068
2026-01-11 22:08:21.77	96.61	8.31	-35.6	-36.7	22.2	0.00e+00	123	27	0	236978176	44	6043
2026-01-11 22:08:22.78	96.52	8.38	-35.5	-36.6	22.3	0.00e+00	123	27	0	240123904	44	5944
2026-01-11 22:08:23.79	96.43	8.46	-35.5	-36.6	22.2	0.00e+00	123	27	0	243269632	44	5965
2026-01-11 22:08:24.80	96.34	8.53	-35.5	-36.6	22.3	0.00e+00	123	28	0	246415360	44	5932
2026-01-11 22:08:25.81	96.25	8.60	-35.6	-36.6	22.3	0.00e+00	123	27	0	249561088	44	5975
2026-01-11 22:08:26.82	96.16	8.67	-35.8	-36.8	22.2	0.00e+00	123	27	0	252706816	44	6088
2026-01-11 22:08:27.83	96.07	8.74	-35.5	-36.5	22.4	0.00e+00	120	27	0	255852544	44	5893
2026-01-11 22:08:28.84	95.98	8.81	-35.6	-36.6	22.3	0.00e+00	122	27	0	258998272	44	5948
2026-01-11 22:08:29.85	95.88	8.88	-35.4	-36.4	22.4	0.00e+00	123	28	0	262144000	44	5816
2026-01-11 22:08:30.86	95.79	8.95	-35.7	-36.7	22.3	0.00e+00	123	27	0	265289728	44	6031
2026-01-11 22:08:31.87	95.70	9.02	-35.3	-36.4	22.6	0.00e+00	122	28	0	268435456	44	5800
2026-01-11 22:08:32.88	95.60	9.09	-35.3	-36.3	22.6	0.00e+00	123	28	0	271581184	44	5746
2026-01-11 22:08:33.89	95.51	9.17	-35.1	-36.1	22.8	0.00e+00	123	27	0	274726912	44	5630
2026-01-11 22:08:34.90	95.42	9.24	-35.0	-36.0	22.8	0.00e+00	122	27	0	277872640	44	5562
2026-01-11 22:08:35.91	95.32	9.31	-35.1	-36.1	22.7	0.00e+00	123	27	0	281018368	44	5640
2026-01-11 22:08:36.92	95.22	9.38	-35.0	-36.0	22.8	0.00e+00	121	27	0	284164096	44	5571
2026-01-11 22:08:37.93	95.13	9.45	-35.1	-36.2	22.7	0.00e+00	123	27	0	287309824	44	5664
2026-01-11 22:08:38.94	95.03	9.53	-34.9	-35.9	23.0	0.00e+00	120	27	0	290455552	44	5510
2026-01-11 22:08:39.95	94.93	9.60	-35.0	-36.0	22.8	0.00e+00	123	27	0	293601280	44	5560
2026-01-11 22:08:40.96	94.84	9.67	-35.0	-36.0	22.9	0.00e+00	123	27	0	296747008	44	5572
2026-01-11 22:08:41.97	94.74	9.74	-34.8	-35.8	23.0	0.00e+00	123	27	0	299892736	44	5466
2026-01-11 22:08:42.98	94.64	9.82	-34.9	-35.8	23.0	0.00e+00	123	27	0	303038464	44	5456
2026-01-11 22:08:43.99	94.54	9.89	-34.8	-35.8	23.1	0.00e+00	123	27	0	306184192	44	5414
2026-01-11 22:08:45.00	94.44	9.96	-34.9	-35.9	23.0	0.00e+00	123	27	0	309329920	44	5491
2026-01-11 22:08:46.01	94.34	10.03	-34.8	-35.8	23.0	0.00e+00	123	27	0	312475648	42	6089
2026-01-11 22:08:47.01	94.24	10.11	-34.9	-36.0	22.9	0.00e+00	123	28	0	315621376	42	6206
2026-01-11 22:08:48.02	94.14	10.18	-34.7	-35.7	23.1	0.00e+00	123	28	0	318767104	42	6001
2026-01-11 22:08:49.04	94.04	10.26	-34.6	-35.6	23.2	0.00e+00	123	27	0	321912832	42	5942
2026-01-11 22:08:50.05	93.93	10.33	-34.6	-35.6	23.2	0.00e+00	123	27	0	325058560	42	5927
2026-01-11 22:08:51.06	93.83	10.40	-34.5	-35.5	23.3	0.00e+00	123	27	0	328204288	42	5866
2026-01-11 22:08:52.07	93.73	10.48	-34.4	-35.4	23.3	0.00e+00	122	27	0	331350016	42	5835
2026-01-11 22:08:53.08	93.62	10.55	-34.4	-35.4	23.3	0.00e+00	122	27	0	334495744	42	5805
2026-01-11 22:08:54.09	93.52	10.62	-34.6	-35.6	23.3	0.00e+00	122	27	0	337641472	42	5938
2026-01-11 22:08:55.10	93.41	10.70	-34.5	-35.5	23.4	0.00e+00	122	27	0	340787200	42	5866
2026-01-11 22:08:56.11	93.31	10.77	-34.5	-35.5	23.4	0.00e+00	123	27	0	343932928	42	5895
2026-01-11 22:08:57.12	93.20	10.85	-34.4	-35.4	23.5	0.00e+00	123	27	0	347078656	42	5822
2026-01-11 22:08:58.13	93.09	10.92	-34.5	-35.4	23.4	0.00e+00	122	27	0	350224384	42	5848
2026-01-11 22:08:59.14	92.99	11.00	-34.4	-35.4	23.5	0.00e+00	122	27	0	353370112	42	5794
2026-01-11 22:09:00.14	92.88	11.07	-34.4	-35.4	23.5	0.00e+00	122	27	0	356515840	42	5821
2026-01-11 22:09:01.16	92.77	11.15	-34.5	-35.4	23.5	0.00e+00	123	28	0	359661568	42	5827
2026-01-11 22:09:02.17	92.66	11.22	-34.3	-35.2	23.6	0.00e+00	123	27	0	362807296	42	5708
2026-01-11 22:09:03.18	92.55	11.30	-34.3	-35.2	23.6	0.00e+00	122	27	0	365953024	42	5713
2026-01-11 22:09:04.19	92.44	11.37	-34.1	-35.1	23.8	0.00e+00	122	27	0	369098752	42	5630
2026-01-11 22:09:05.20	92.33	11.45	-34.0	-35.0	23.8	0.00e+00	123	28	0	372244480	42	5563
2026-01-11 22:09:06.21	92.22	11.53	-33.9	-34.9	23.8	0.00e+00	122	27	0	375390208	42	5527
2026-01-11 22:09:07.22	92.11	11.60	-34.0	-35.0	23.8	0.00e+00	123	27	0	378535936	42	5568
2026-01-11 22:09:08.23	91.99	11.68	-34.1	-35.0	23.8	0.00e+00	122	27	0	381681664	42	5587
2026-01-11 22:09:09.24	91.88	11.75	-33.8	-34.7	24.1	0.00e+00	123	27	0	384827392	42	5404
2026-01-11 22:09:10.25	91.77	11.83	-33.9	-34.9	24.0	0.00e+00	122	27	0	387973120	42	5468
2026-01-11 22:09:11.26	91.65	11.91	-33.8	-34.8	24.0	0.00e+00	123	27	0	391118848	42	5410
2026-01-11 22:09:12.27	91.54	11.98	-33.9	-34.9	24.0	0.00e+00	123	27	0	394264576	42	5474
2026-01-11 22:09:13.28	91.42	12.06	-33.9	-34.8	23.9	0.00e+00	122	27	0	397410304	42	5433
2026-01-11 22:09:14.29	91.31	12.14	-33.9	-34.9	23.8	0.00e+00	123	28	0	400556032	42	5491
2026-01-11 22:09:15.30	91.19	12.21	-33.9	-34.8	24.0	0.00e+00	122	28	0	403701760	42	5447
2026-01-11 22:09:16.31	91.07	12.29	-34.0	-35.0	23.8	0.00e+00	122	27	0	406847488	42	5543
2026-01-11 22:09:17.32	90.95	12.37	-33.9	-34.8	24.0	0.00e+00	123	27	0	409993216	42	5436
2026-01-11 22:09:18.33	90.84	12.44	-33.9	-34.8	23.9	0.00e+00	123	27	0	413138944	42	5467
2026-01-11 22:09:19.34	90.72	12.52	-34.1	-35.0	23.9	0.00e+00	123	27	0	416284672	42	5564
2026-01-11 22:09:20.35	90.60	12.60	-33.9	-34.8	24.0	0.00e+00	122	27	0	419430400	42	5417
2026-01-11 22:09:21.36	90.48	12.68	-34.0	-34.9	24.0	0.00e+00	123	27	0	422576128	42	5480
2026-01-11 22:09:22.37	90.35	12.75	-34.0	-34.9	23.9	0.00e+00	123	27	0	425721856	42	5481
2026-01-11 22:09:23.38	90.23	12.83	-34.0	-34.9	23.9	0.00e+00	123	27	0	428867584	42	5473
2026-01-11 22:09:24.39	90.11	12.91	-33.9	-34.9	24.0	0.00e+00	121	27	0	432013312	42	5478
2026-01-11 22:09:25.40	89.99	12.99	-33.9	-34.8	23.9	0.00e+00	122	27	0	435159040	42	5445
2026-01-11 22:09:26.41	89.86	13.07	-33.9	-34.9	23.9	0.00e+00	123	27	0	438304768	42	5487
2026-01-11 22:09:27.42	89.74	13.14	-33.9	-34.9	24.0	0.00e+00	123	27	0	441450496	42	5501
2026-01-11 22:09:28.43	89.61	13.22	-33.9	-34.9	23.9	0.00e+00	120	27	0	444596224	42	5503
2026-01-11 22:09:29.44	89.49	13.30	-34.0	-35.0	23.9	0.00e+00	122	27	0	447741952	42	5546
2026-01-11 22:09:30.45	89.36	13.38	-34.1	-35.1	23.8	0.00e+00	123	27	0	450887680	42	5621
2026-01-11 22:09:31.46	89.23	13.46	-34.1	-35.1	23.8	0.00e+00	122	27	0	454033408	42	5623
2026-01-11 22:09:32.46	89.11	13.54	-34.0	-34.9	23.9	0.00e+00	123	27	0	457179136	42	5495
2026-01-11 22:09:33.47	88.98	13.62	-34.0	-34.9	23.9	0.00e+00	123	27	0	460324864	42	5511
2026-01-11 22:09:34.48	88.85	13.69	-34.0	-35.0	24.0	0.00e+00	122	27	0	463470592	42	5536
2026-01-11 22:09:35.49	88.72	13.77	-33.9	-34.8	24.0	0.00e+00	123	28	0	466616320	42	5450
2026-01-11 22:09:36.50	88.59	13.85	-34.0	-34.9	24.0	0.00e+00	123	28	0	469762048	42	5512
2026-01-11 22:09:37.51	88.46	13.93	-33.9	-34.9	24.0	0.00e+00	122	27	0	472907776	42	5479
2026-01-11 22:09:38.52	88.32	14.01	-34.0	-35.0	23.9	0.00e+00	122	27	0	476053504	42	5535
2026-01-11 22:09:39.53	88.19	14.09	-33.9	-34.8	24.0	0.00e+00	122	28	0	479199232	42	5467
2026-01-11 22:09:40.54	88.06	14.17	-33.9	-34.8	24.0	0.00e+00	122	27	0	482344960	42	5465
2026-01-11 22:09:41.55	87.92	14.25	-33.9	-34.8	24.0	0.00e+00	123	28	0	485490688	42	5458
2026-01-11 22:09:42.56	87.79	14.33	-34.0	-35.0	23.9	0.00e+00	123	28	0	488636416	42	5548
2026-01-11 22:09:43.57	87.65	14.41	-33.9	-34.9	23.9	0.00e+00	123	27	0	491782144	42	5484
2026-01-11 22:09:44.58	87.52	14.49	-34.0	-35.0	23.8	0.00e+00	123	28	0	494927872	42	5567
2026-01-11 22:09:45.59	87.38	14.57	-34.1	-35.0	23.8	0.00e+00	120	27	0	498073600	42	5588
2026-01-11 22:09:46.60	87.24	14.65	-34.2	-35.2	23.8	0.00e+00	123	28	0	501219328	42	5699
2026-01-11 22:09:47.61	87.10	14.73	-34.3	-35.3	23.7	0.00e+00	122	28	0	504365056	42	5735
2026-01-11 22:09:48.62	86.96	14.81	-34.3	-35.2	23.7	0.00e+00	122	28	0	507510784	42	5709
2026-01-11 22:09:49.63	86.82	14.89	-34.2	-35.1	23.9	0.00e+00	122	28	0	511705088	42	5659
2026-01-11 22:09:50.64	86.68	14.97	-34.2	-35.1	23.8	0.00e+00	123	28	0	513802240	42	5654
2026-01-11 22:09:51.65	86.54	15.05	-34.1	-35.0	24.0	0.00e+00	120	27	0	516947968	42	5585
2026-01-11 22:09:52.66	86.40	15.14	-34.1	-35.0	23.9	0.00e+00	120	28	0	520093696	42	5588
2026-01-11 22:09:53.67	86.25	15.22	-34.2	-35.1	23.9	0.00e+00	122	27	0	523239424	42	5641
2026-01-11 22:09:54.68	86.11	15.30	-33.9	-34.9	24.0	0.00e+00	122	27	0	527433728	42	5498
2026-01-11 22:09:55.68	85.96	15.38	-33.9	-34.9	23.9	0.00e+00	121	28	0	530579456	42	5515
2026-01-11 22:09:56.69	85.82	15.46	-33.9	-34.9	23.9	0.00e+00	123	27	0	533725184	42	5502
2026-01-11 22:09:57.70	85.67	15.54	-33.9	-35.0	23.9	0.00e+00	123	27	0	535822336	42	5541
2026-01-11 22:09:58.71	85.52	15.62	-34.0	-35.1	23.8	0.00e+00	122	27	0	538968064	42	5616
2026-01-11 22:09:59.72	85.37	15.70	-34.1	-35.2	23.8	0.00e+00	123	27	0	542113792	42	5689
2026-01-11 22:10:00.73	85.23	15.78	-34.1	-35.1	23.9	0.00e+00	121	27	0	546308096	42	5621
2026-01-11 22:10:01.74	85.08	15.87	-34.2	-35.2	23.8	0.00e+00	122	28	0	549453824	42	5669
2026-01-11 22:10:02.75	84.92	15.95	-34.3	-35.3	23.7	0.00e+00	123	27	0	552599552	42	5772
2026-01-11 22:10:03.76	84.77	16.03	-34.3	-35.3	23.8	0.00e+00	123	28	0	555745280	42	5744
2026-01-11 22:10:04.77	84.62	16.11	-34.3	-35.3	23.8	0.00e+00	123	27	0	558891008	42	5737
2026-01-11 22:10:05.78	84.47	16.19	-34.2	-35.2	23.8	0.00e+00	120	27	0	562036736	42	5715
2026-01-11 22:10:06.79	84.31	16.28	-34.2	-35.2	23.8	0.00e+00	125	28	0	565182464	42	5700
2026-01-11 22:10:07.80	84.16	16.36	-34.3	-35.4	23.7	0.00e+00	120	28	0	568328192	42	5792
2026-01-11 22:10:08.81	84.00	16.44	-34.2	-35.1	23.7	0.00e+00	122	27	0	571473920	42	5654
2026-01-11 22:10:09.82	83.84	16.52	-34.3	-35.2	23.7	0.00e+00	123	27	0	574619648	42	5717
2026-01-11 22:10:10.83	83.69	16.60	-34.3	-35.3	23.5	0.00e+00	123	27	0	577765376	42	5755
2026-01-11 22:10:11.84	83.53	16.69	-34.5	-35.5	23.5	0.00e+00	122	27	0	580911104	42	5863
2026-01-11 22:10:12.84	83.37	16.77	-34.5	-35.4	23.5	0.00e+00	123	27	0	584056832	42	5858
2026-01-11 22:10:13.85	83.21	16.85	-34.6	-35.5	23.4	0.00e+00	122	28	0	587202560	42	5926
2026-01-11 22:10:14.86	83.05	16.93	-34.5	-35.4	23.5	0.00e+00	122	28	0	590348288	42	5850
2026-01-11 22:10:15.87	82.89	17.01	-34.5	-35.4	23.6	0.00e+00	123	28	0	593494016	42	5850
2026-01-11 22:10:16.88	82.72	17.10	-34.4	-35.4	23.7	0.00e+00	122	28	0	596639744	42	5797
2026-01-11 22:10:17.89	82.56	17.18	-34.4	-35.3	23.7	0.00e+00	122	27	0	599785472	42	5784
2026-01-11 22:10:18.90	82.40	17.26	-34.3	-35.3	23.8	0.00e+00	122	27	0	602931200	42	5763
2026-01-11 22:10:19.91	82.23	17.34	-34.4	-35.4	23.7	0.00e+00	122	27	0	606076928	42	5839
2026-01-11 22:10:20.92	82.06	17.43	-34.3	-35.2	23.8	0.00e+00	123	27	0	609222656	42	5700
2026-01-11 22:10:21.93	81.90	17.51	-34.4	-35.4	23.6	0.00e+00	123	27	0	612368384	42	5813
2026-01-11 22:10:22.94	81.73	17.59	-34.4	-35.3	23.7	0.00e+00	123	27	0	615514112	42	5758
2026-01-11 22:10:23.95	81.56	17.67	-34.3	-35.3	23.8	0.00e+00	122	27	0	618659840	42	5726
2026-01-11 22:10:24.96	81.39	17.76	-34.1	-35.0	24.0	0.00e+00	123	28	0	621805568	42	5571
2026-01-11 22:10:25.96	81.22	17.84	-34.2	-35.1	23.9	0.00e+00	120	27	0	624951296	42	5626
2026-01-11 22:10:26.97	81.04	17.92	-34.1	-35.0	24.0	0.00e+00	123	27	0	628097024	42	5554
2026-01-11 22:10:27.98	80.87	18.00	-33.9	-34.9	24.1	0.00e+00	123	27	0	631242752	42	5472
2026-01-11 22:10:28.99	80.70	18.09	-34.0	-34.9	24.0	0.00e+00	122	27	0	634388480	42	5529
2026-01-11 22:10:30.00	80.52	18.17	-34.0	-35.0	24.0	0.00e+00	121	27	0	637534208	42	5551
2026-01-11 22:10:31.01	80.35	18.25	-34.0	-34.9	24.0	0.00e+00	122	28	0	640679936	42	5530
2026-01-11 22:10:32.02	80.17	18.33	-34.1	-35.0	24.0	0.00e+00	123	28	0	643825664	42	5553
2026-01-11 22:10:33.03	79.99	18.42	-34.1	-35.0	24.0	0.00e+00	123	28	0	646971392	42	5550
2026-01-11 22:10:34.04	79.81	18.50	-34.0	-34.9	24.0	0.00e+00	123	27	0	650117120	42	5516
2026-01-11 22:10:35.05	79.63	18.58	-34.1	-35.0	24.0	0.00e+00	123	27	0	653262848	42	5582
2026-01-11 22:10:36.06	79.45	18.66	-33.8	-34.7	24.2	0.00e+00	123	28	0	656408576	42	5394
2026-01-11 22:10:37.07	79.27	18.75	-33.9	-34.8	24.0	0.00e+00	123	27	0	659554304	40	6089
2026-01-11 22:10:38.08	79.09	18.83	-33.7	-34.7	24.2	0.00e+00	123	27	0	662700032	40	5995
2026-01-11 22:10:39.09	78.90	18.91	-33.8	-34.7	24.2	0.00e+00	122	27	0	665845760	40	6035
2026-01-11 22:10:40.10	78.72	18.99	-33.7	-34.6	24.3	0.00e+00	120	27	0	668991488	40	5968
2026-01-11 22:10:41.10	78.53	19.08	-33.8	-34.7	24.2	0.00e+00	122	27	0	672137216	40	6040
2026-01-11 22:10:42.11	78.35	19.16	-33.6	-34.5	24.3	0.00e+00	122	27	0	675282944	40	5910
2026-01-11 22:10:43.12	78.16	19.24	-33.5	-34.4	24.5	0.00e+00	123	27	0	678428672	40	5813
2026-01-11 22:10:44.13	77.97	19.32	-33.5	-34.4	24.3	0.00e+00	123	27	0	681574400	40	5851
2026-01-11 22:10:45.14	77.78	19.41	-33.5	-34.4	24.5	0.00e+00	123	27	0	684720128	40	5796
2026-01-11 22:10:46.15	77.59	19.49	-33.6	-34.5	24.4	0.00e+00	122	27	0	687865856	40	5859
2026-01-11 22:10:47.16	77.39	19.57	-33.4	-34.3	24.5	0.00e+00	123	27	0	691011584	40	5768
2026-01-11 22:10:48.17	77.20	19.65	-33.3	-34.2	24.6	0.00e+00	123	27	0	694157312	40	5688
2026-01-11 22:10:49.18	77.01	19.73	-33.3	-34.2	24.7	0.00e+00	123	27	0	697303040	40	5690
2026-01-11 22:10:50.19	76.81	19.82	-33.1	-34.0	24.8	0.00e+00	123	27	0	700448768	40	5541
2026-01-11 22:10:51.20	76.61	19.90	-33.2	-34.1	24.7	0.00e+00	123	27	0	703594496	40	5645
2026-01-11 22:10:52.21	76.42	19.98	-33.3	-34.2	24.5	0.00e+00	123	27	0	706740224	40	5694
2026-01-11 22:10:53.22	76.22	20.06	-33.4	-34.3	24.4	0.00e+00	122	28	0	709885952	40	5737
2026-01-11 22:10:54.23	76.02	20.14	-33.6	-34.5	24.3	0.00e+00	123	27	0	713031680	40	5876
2026-01-11 22:10:55.24	75.82	20.22	-33.5	-34.4	24.4	0.00e+00	122	27	0	716177408	40	5804
2026-01-11 22:10:56.25	75.62	20.30	-33.5	-34.4	24.4	0.00e+00	123	27	0	719323136	40	5845
2026-01-11 22:10:57.26	75.41	20.39	-33.4	-34.3	24.5	0.00e+00	123	27	0	722468864	40	5789
2026-01-11 22:10:58.27	75.21	20.47	-33.5	-34.4	24.4	0.00e+00	120	27	0	725614592	40	5806
2026-01-11 22:10:59.27	75.01	20.55	-33.5	-34.4	24.5	0.00e+00	123	28	0	728760320	40	5818
2026-01-11 22:11:00.28	74.80	20.63	-33.4	-34.3	24.6	0.00e+00	122	27	0	731906048	40	5760
2026-01-11 22:11:01.29	74.59	20.71	-33.3	-34.2	24.6	0.00e+00	123	27	0	735051776	40	5710
2026-01-11 22:11:02.30	74.39	20.79	-33.2	-34.1	24.6	0.00e+00	123	27	0	738197504	40	5650
2026-01-11 22:11:03.31	74.18	20.87	-33.4	-34.3	24.5	0.00e+00	123	27	0	741343232	40	5741
2026-01-11 22:11:04.32	73.97	20.95	-33.4	-34.3	24.5	0.00e+00	123	27	0	744488960	40	5766
2026-01-11 22:11:05.33	73.75	21.03	-33.3	-34.2	24.6	0.00e+00	123	27	0	747634688	40	5701
2026-01-11 22:11:06.34	73.54	21.11	-33.3	-34.2	24.7	0.00e+00	122	27	0	750780416	40	5720
2026-01-11 22:11:07.34	73.33	21.19	-33.1	-34.0	24.8	0.00e+00	123	27	0	753926144	40	5537
2026-01-11 22:11:08.35	73.11	21.27	-33.1	-34.0	24.9	0.00e+00	123	27	0	757071872	40	5560
2026-01-11 22:11:09.36	72.90	21.35	-33.0	-33.9	24.9	0.00e+00	123	27	0	760217600	40	5486
2026-01-11 22:11:10.37	72.68	21.43	-32.9	-33.7	25.0	0.00e+00	121	27	0	763363328	40	5400
2026-01-11 22:11:11.38	72.46	21.50	-32.9	-33.8	24.9	0.00e+00	122	27	0	766509056	40	5406
2026-01-11 22:11:12.39	72.24	21.58	-32.9	-33.8	24.9	0.00e+00	123	27	0	769654784	40	5452
2026-01-11 22:11:13.40	72.02	21.66	-33.0	-33.9	24.8	0.00e+00	123	27	0	772800512	40	5528
2026-01-11 22:11:14.41	71.80	21.74	-33.1	-34.0	24.8	0.00e+00	122	27	0	775946240	40	5538
2026-01-11 22:11:15.42	71.58	21.82	-33.0	-33.9	24.9	0.00e+00	122	27	0	779091968	40	5519
2026-01-11 22:11:16.43	71.36	21.90	-32.9	-33.8	24.9	0.00e+00	122	27	0	782237696	40	5421
2026-01-11 22:11:17.43	71.13	21.97	-33.0	-33.9	24.9	0.00e+00	122	27	0	785383424	40	5482
2026-01-11 22:11:18.45	70.90	22.05	-32.9	-33.8	24.9	0.00e+00	123	27	0	788529152	40	5453
2026-01-11 22:11:19.45	70.68	22.13	-33.0	-33.9	24.9	0.00e+00	122	27	0	791674880	40	5480
2026-01-11 22:11:20.46	70.45	22.20	-33.1	-34.0	24.8	0.00e+00	122	27	0	794820608	40	5563
2026-01-11 22:11:21.47	70.22	22.28	-33.2	-34.1	24.7	0.00e+00	121	27	0	797966336	40	5629
2026-01-11 22:11:22.48	69.99	22.36	-33.2	-34.1	24.7	0.00e+00	123	27	0	801112064	40	5628
2026-01-11 22:11:23.49	69.76	22.43	-33.2	-34.1	24.8	0.00e+00	123	27	0	804257792	40	5653
2026-01-11 22:11:24.50	69.53	22.51	-33.1	-34.0	24.8	0.00e+00	123	27	0	807403520	40	5579
2026-01-11 22:11:25.51	69.29	22.58	-33.1	-34.0	24.8	0.00e+00	123	27	0	810549248	40	5551
2026-01-11 22:11:26.52	69.06	22.66	-33.2	-34.1	24.7	0.00e+00	122	27	0	813694976	40	5653
2026-01-11 22:11:27.53	68.82	22.73	-33.1	-34.0	24.7	0.00e+00	123	27	0	816840704	40	5564
2026-01-11 22:11:28.54	68.58	22.81	-33.2	-34.1	24.7	0.00e+00	123	27	0	819986432	40	5630
2026-01-11 22:11:29.55	68.34	22.88	-33.1	-33.9	24.9	0.00e+00	123	27	0	823132160	40	5524
2026-01-11 22:11:30.56	68.10	22.96	-33.2	-34.1	24.8	0.00e+00	123	27	0	826277888	40	5643
2026-01-11 22:11:31.56	67.86	23.03	-33.1	-34.0	24.8	0.00e+00	120	27	0	829423616	40	5580
2026-01-11 22:11:32.58	67.62	23.10	-33.3	-34.2	24.7	0.00e+00	122	27	0	832569344	40	5677
2026-01-11 22:11:33.58	67.38	23.18	-33.4	-34.3	24.7	0.00e+00	122	27	0	835715072	40	5742
2026-01-11 22:11:34.59	67.14	23.25	-33.4	-34.3	24.6	0.00e+00	122	27	0	838860800	40	5731
2026-01-11 22:11:35.60	66.89	23.32	-33.4	-34.3	24.6	0.00e+00	123	28	0	842006528	40	5732
2026-01-11 22:11:36.61	66.64	23.39	-33.4	-34.3	24.7	0.00e+00	122	27	0	845152256	40	5741
2026-01-11 22:11:37.62	66.40	23.46	-33.3	-34.2	24.7	0.00e+00	122	27	0	848297984	40	5697
2026-01-11 22:11:38.63	66.15	23.54	-33.4	-34.3	24.6	0.00e+00	122	27	0	851443712	40	5749
2026-01-11 22:11:39.64	65.90	23.61	-33.4	-34.3	24.6	0.00e+00	123	27	0	854589440	40	5781
2026-01-11 22:11:40.65	65.64	23.68	-33.6	-34.5	24.4	0.00e+00	123	27	0	857735168	40	5892
2026-01-11 22:11:41.66	65.39	23.75	-33.6	-34.5	24.5	0.00e+00	123	27	0	860880896	40	5864
2026-01-11 22:11:42.67	65.14	23.82	-33.6	-34.5	24.5	0.00e+00	122	28	0	864026624	40	5916
2026-01-11 22:11:43.68	64.88	23.89	-33.7	-34.6	24.4	0.00e+00	122	27	0	867172352	40	5956
2026-01-11 22:11:44.69	64.63	23.95	-33.7	-34.6	24.4	0.00e+00	122	27	0	870318080	40	5961
2026-01-11 22:11:45.70	64.37	24.02	-33.8	-34.7	24.4	0.00e+00	122	27	0	873463808	40	6009
2026-01-11 22:11:46.70	64.12	24.09	-33.9	-34.7	24.3	0.00e+00	123	27	0	876609536	40	6064
2026-01-11 22:11:47.71	63.86	24.16	-33.7	-34.6	24.5	0.00e+00	122	27	0	879755264	40	5946
2026-01-11 22:11:48.72	63.60	24.22	-33.6	-34.5	24.6	0.00e+00	123	27	0	882900992	40	5864
2026-01-11 22:11:49.73	63.34	24.29	-33.6	-34.4	24.5	0.00e+00	123	27	0	886046720	40	5857
2026-01-11 22:11:50.74	63.07	24.35	-33.4	-34.3	24.6	0.00e+00	120	27	0	889192448	40	5733
2026-01-11 22:11:51.75	62.81	24.42	-33.4	-34.3	24.6	0.00e+00	122	27	0	892338176	40	5746
2026-01-11 22:11:52.76	62.55	24.49	-33.4	-34.2	24.6	0.00e+00	120	27	0	895483904	40	5718
2026-01-11 22:11:53.77	62.28	24.55	-33.4	-34.3	24.5	0.00e+00	122	27	0	898629632	40	5750
2026-01-11 22:11:54.77	62.02	24.61	-33.4	-34.2	24.7	0.00e+00	123	27	0	901775360	40	5722
2026-01-11 22:11:55.78	61.75	24.68	-33.4	-34.3	24.7	0.00e+00	123	28	0	904921088	40	5727
2026-01-11 22:11:56.79	61.48	24.74	-33.3	-34.2	24.6	0.00e+00	122	27	0	908066816	40	5694
2026-01-11 22:11:57.80	61.21	24.80	-33.4	-34.3	24.7	0.00e+00	120	27	0	911212544	40	5729
2026-01-11 22:11:58.81	60.94	24.86	-33.4	-34.3	24.6	0.00e+00	123	27	0	914358272	40	5753
2026-01-11 22:11:59.82	60.67	24.92	-33.5	-34.4	24.5	0.00e+00	123	27	0	917504000	40	5840
2026-01-11 22:12:00.81	60.40	24.98	-33.6	-34.5	24.5	0.00e+00	123	27	0	920649728	40	5878
2026-01-11 22:12:01.82	60.12	25.04	-33.7	-34.6	24.4	0.00e+00	123	27	0	923795456	40	5935
2026-01-11 22:12:02.83	59.85	25.10	-33.8	-34.7	24.3	0.00e+00	123	27	0	926941184	40	6050
2026-01-11 22:12:03.84	59.57	25.16	-33.7	-34.6	24.4	0.00e+00	123	27	0	930086912	40	5968
2026-01-11 22:12:04.85	59.29	25.22	-33.7	-34.6	24.4	0.00e+00	123	27	0	933232640	40	5986
2026-01-11 22:12:05.86	59.02	25.28	-33.6	-34.5	24.5	0.00e+00	121	27	0	936378368	40	5917
2026-01-11 22:12:06.87	58.74	25.33	-33.6	-34.5	24.6	0.00e+00	123	28	0	939524096	40	5864
2026-01-11 22:12:07.88	58.46	25.39	-33.6	-34.5	24.5	0.00e+00	122	27	0	943718400	40	5900
2026-01-11 22:12:08.89	58.17	25.44	-33.4	-34.3	24.7	0.00e+00	123	28	0	946864128	40	5753
2026-01-11 22:12:09.90	57.89	25.50	-33.4	-34.3	24.7	0.00e+00	122	27	0	948961280	40	5750
2026-01-11 22:12:10.90	57.61	25.55	-33.4	-34.3	24.7	0.00e+00	120	27	0	952107008	40	5759
2026-01-11 22:12:11.91	57.33	25.61	-33.3	-34.2	24.8	0.00e+00	123	27	0	955252736	40	5697
2026-01-11 22:12:12.92	57.04	25.66	-33.2	-34.0	24.9	0.00e+00	122	27	0	958398464	40	5593
2026-01-11 22:12:13.93	56.76	25.71	-32.9	-33.8	25.0	0.00e+00	123	27	0	962592768	40	5421
2026-01-11 22:12:14.94	56.47	25.76	-32.8	-33.7	25.1	0.00e+00	122	27	0	965738496	40	5365
2026-01-11 22:12:15.95	56.18	25.82	-32.8	-33.6	25.1	0.00e+00	123	27	0	968884224	38	5994
2026-01-11 22:12:16.96	55.89	25.87	-32.8	-33.7	25.1	0.00e+00	120	27	0	972029952	38	6009
2026-01-11 22:12:17.97	55.60	25.92	-33.0	-33.9	25.0	0.00e+00	123	27	0	974127104	38	6144
2026-01-11 22:12:18.98	55.31	25.96	-33.0	-33.9	25.0	0.00e+00	122	27	0	978321408	38	6142
2026-01-11 22:12:19.99	55.02	26.01	-33.2	-34.1	24.9	0.00e+00	123	27	0	981467136	38	6307
2026-01-11 22:12:21.00	54.73	26.06	-33.1	-34.0	25.0	0.00e+00	120	27	0	984612864	38	6245
2026-01-11 22:12:22.01	54.43	26.11	-33.2	-34.1	24.9	0.00e+00	123	27	0	987758592	38	6285
2026-01-11 22:12:23.02	54.14	26.15	-33.1	-34.0	24.9	0.00e+00	123	27	0	990904320	38	6214
2026-01-11 22:12:24.03	53.84	26.20	-33.1	-34.0	24.9	0.00e+00	123	27	0	994050048	38	6261
2026-01-11 22:12:25.04	53.55	26.24	-33.1	-33.9	25.0	0.00e+00	122	27	0	997195776	38	6204
2026-01-11 22:12:26.05	53.25	26.28	-33.0	-33.8	25.1	0.00e+00	123	27	0	1000341504	38	6117
2026-01-11 22:12:27.06	52.95	26.33	-32.9	-33.8	25.1	0.00e+00	123	27	0	1003487232	38	6093
2026-01-11 22:12:28.07	52.65	26.37	-33.0	-33.8	25.1	0.00e+00	123	27	0	1006632960	38	6113
2026-01-11 22:12:29.08	52.36	26.41	-32.8	-33.7	25.1	0.00e+00	122	27	0	1009778688	38	6023
2026-01-11 22:12:30.09	52.06	26.45	-32.8	-33.7	25.1	0.00e+00	122	27	0	1012924416	38	6023
2026-01-11 22:12:31.10	51.76	26.49	-32.9	-33.8	25.0	0.00e+00	122	27	0	1016070144	38	6081
2026-01-11 22:12:32.11	51.45	26.53	-33.0	-33.9	25.0	0.00e+00	120	27	0	1019215872	38	6151
2026-01-11 22:12:33.12	51.15	26.57	-33.0	-33.9	24.9	0.00e+00	123	27	0	1022361600	38	6177
2026-01-11 22:12:34.13	50.85	26.60	-33.0	-33.9	25.0	0.00e+00	123	27	0	1025507328	38	6180
2026-01-11 22:12:35.14	50.54	26.64	-33.1	-33.9	24.9	0.00e+00	122	27	0	1028653056	38	6204
2026-01-11 22:12:36.15	50.24	26.68	-32.9	-33.8	25.1	0.00e+00	123	27	0	1031798784	38	6116
2026-01-11 22:12:37.16	49.94	26.71	-33.1	-33.9	24.9	0.00e+00	123	27	0	1034944512	38	6204
2026-01-11 22:12:38.16	49.63	26.74	-33.2	-34.1	24.8	0.00e+00	122	27	0	1038090240	38	6296
2026-01-11 22:12:39.17	49.33	26.78	-33.3	-34.1	24.8	0.00e+00	123	27	0	1041235968	38	6347
2026-01-11 22:12:40.18	49.02	26.81	-33.2	-34.1	24.8	0.00e+00	123	27	0	1044381696	38	6330
2026-01-11 22:12:41.19	48.71	26.84	-33.2	-34.1	24.8	0.00e+00	123	27	0	1047527424	38	6327
2026-01-11 22:12:42.19	48.41	26.87	-33.4	-34.3	24.8	0.00e+00	122	27	0	1050673152	38	6459
2026-01-11 22:12:43.20	48.10	26.90	-33.2	-34.1	24.7	0.00e+00	122	27	0	1053818880	38	6322
2026-01-11 22:12:44.21	47.79	26.93	-33.2	-34.1	24.7	0.00e+00	123	27	0	1056964608	38	6329
2026-01-11 22:12:45.22	47.48	26.96	-33.3	-34.2	24.6	0.00e+00	122	27	0	1060110336	38	6399
2026-01-11 22:12:46.23	47.17	26.98	-33.4	-34.3	24.6	0.00e+00	122	27	0	1063256064	38	6466
2026-01-11 22:12:47.24	46.86	27.01	-33.3	-34.1	24.8	0.00e+00	123	27	0	1066401792	38	6336
2026-01-11 22:12:48.25	46.55	27.03	-33.2	-34.0	24.9	0.00e+00	123	27	0	1069547520	38	6264
2026-01-11 22:12:49.26	46.24	27.06	-33.1	-33.9	24.9	0.00e+00	123	27	0	1072693248	38	6199
2026-01-11 22:12:50.27	45.92	27.08	-33.1	-34.0	24.9	0.00e+00	122	27	0	1075838976	38	6242
2026-01-11 22:12:51.28	45.61	27.10	-33.0	-33.9	24.9	0.00e+00	121	27	0	1078984704	38	6169
2026-01-11 22:12:52.29	45.30	27.12	-33.3	-34.1	24.8	0.00e+00	122	27	0	1082130432	38	6340
2026-01-11 22:12:53.30	44.98	27.14	-33.4	-34.4	24.6	0.00e+00	123	27	0	1085276160	38	6502
2026-01-11 22:12:54.31	44.67	27.16	-33.6	-34.5	24.5	0.00e+00	122	27	0	1088421888	38	6629
2026-01-11 22:12:55.32	44.36	27.18	-33.7	-34.6	24.5	0.00e+00	122	27	0	1091567616	38	6705
2026-01-11 22:12:56.33	44.04	27.20	-33.6	-34.6	24.5	0.00e+00	122	27	0	1094713344	40	5938
2026-01-11 22:12:57.34	43.73	27.21	-33.5	-34.4	24.6	0.00e+00	122	27	0	1097859072	40	5820
2026-01-11 22:12:58.35	43.41	27.23	-33.5	-34.4	24.4	0.00e+00	123	27	0	1101004800	40	5855
2026-01-11 22:12:59.36	43.10	27.24	-33.5	-34.4	24.5	0.00e+00	123	27	0	1104150528	40	5835
2026-01-11 22:13:00.37	42.78	27.26	-33.4	-34.3	24.6	0.00e+00	122	27	0	1107296256	40	5767
2026-01-11 22:13:01.38	42.46	27.27	-33.4	-34.3	24.7	0.00e+00	123	27	0	1110441984	40	5730
2026-01-11 22:13:02.39	42.15	27.28	-33.3	-34.2	24.8	0.00e+00	120	27	0	1113587712	40	5680
2026-01-11 22:13:03.40	41.83	27.29	-33.3	-34.2	24.7	0.00e+00	123	27	0	1116733440	40	5680
2026-01-11 22:13:04.41	41.51	27.30	-33.2	-34.1	24.7	0.00e+00	123	27	0	1119879168	40	5607
2026-01-11 22:13:05.42	41.20	27.31	-33.3	-34.2	24.7	0.00e+00	123	27	0	1123024896	40	5719
2026-01-11 22:13:06.43	40.88	27.32	-33.2	-34.1	24.7	0.00e+00	122	27	0	1126170624	40	5613
2026-01-11 22:13:07.44	40.56	27.33	-33.1	-34.0	24.8	0.00e+00	123	27	0	1129316352	40	5569
2026-01-11 22:13:08.45	40.25	27.33	-33.2	-34.1	24.8	0.00e+00	122	27	0	1132462080	40	5602
2026-01-11 22:13:09.46	39.93	27.34	-33.0	-33.8	24.9	0.00e+00	120	27	0	1135607808	40	5445
2026-01-11 22:13:10.47	39.61	27.34	-33.1	-34.0	24.8	0.00e+00	123	27	0	1138753536	40	5533
2026-01-11 22:13:11.48	39.29	27.34	-33.1	-34.0	24.7	0.00e+00	122	27	0	1141899264	40	5549
2026-01-11 22:13:12.49	38.98	27.35	-33.1	-34.0	24.7	0.00e+00	123	27	0	1145044992	40	5570
2026-01-11 22:13:13.50	38.66	27.35	-33.2	-34.1	24.7	0.00e+00	123	27	0	1148190720	40	5650
2026-01-11 22:13:14.51	38.34	27.35	-33.3	-34.2	24.6	0.00e+00	123	27	0	1151336448	40	5684
2026-01-11 22:13:15.52	38.02	27.35	-33.3	-34.2	24.6	0.00e+00	123	27	0	1154482176	40	5671
2026-01-11 22:13:16.53	37.71	27.34	-33.3	-34.2	24.7	0.00e+00	123	27	0	1157627904	40	5689
2026-01-11 22:13:17.53	37.39	27.34	-33.2	-34.0	24.8	0.00e+00	122	27	0	1160773632	40	5586
2026-01-11 22:13:18.54	37.07	27.34	-33.1	-34.0	24.7	0.00e+00	123	27	0	1163919360	40	5583
2026-01-11 22:13:19.55	36.76	27.33	-33.0	-33.8	24.8	0.00e+00	123	27	0	1167065088	40	5459
2026-01-11 22:13:20.56	36.44	27.33	-33.0	-33.9	24.9	0.00e+00	122	27	0	1170210816	40	5479
2026-01-11 22:13:21.57	36.12	27.32	-33.1	-34.0	24.9	0.00e+00	123	27	0	1173356544	40	5549
2026-01-11 22:13:22.58	35.81	27.31	-33.1	-34.0	24.9	0.00e+00	122	27	0	1176502272	40	5580
2026-01-11 22:13:23.59	35.49	27.30	-33.2	-34.1	24.9	0.00e+00	123	27	0	1179648000	40	5606
2026-01-11 22:13:24.60	35.17	27.29	-33.4	-34.3	24.7	0.00e+00	120	27	0	1182793728	40	5744
2026-01-11 22:13:25.61	34.86	27.28	-33.4	-34.3	24.7	0.00e+00	123	27	0	1185939456	40	5741
2026-01-11 22:13:26.62	34.54	27.27	-33.3	-34.2	24.7	0.00e+00	121	27	0	1189085184	40	5722
2026-01-11 22:13:27.63	34.22	27.26	-33.3	-34.2	24.7	0.00e+00	120	27	0	1192230912	40	5696
2026-01-11 22:13:28.64	33.91	27.25	-33.3	-34.2	24.7	0.00e+00	122	27	0	1195376640	40	5678
2026-01-11 22:13:29.65	33.59	27.23	-33.4	-34.3	24.7	0.00e+00	123	27	0	1198522368	40	5739
2026-01-11 22:13:30.66	33.28	27.22	-33.4	-34.3	24.7	0.00e+00	123	27	0	1201668096	40	5771
2026-01-11 22:13:31.67	32.96	27.20	-33.5	-34.4	24.6	0.00e+00	122	27	0	1204813824	40	5808
2026-01-11 22:13:32.68	32.65	27.18	-33.6	-34.5	24.5	0.00e+00	122	27	0	1207959552	40	5884
2026-01-11 22:13:33.69	32.33	27.16	-33.7	-34.6	24.5	0.00e+00	123	27	0	1211105280	40	5969
2026-01-11 22:13:34.70	32.02	27.14	-33.7	-34.6	24.5	0.00e+00	122	27	0	1214251008	40	5959
2026-01-11 22:13:35.71	31.71	27.12	-33.6	-34.5	24.6	0.00e+00	123	27	0	1217396736	40	5898
2026-01-11 22:13:36.72	31.39	27.10	-33.5	-34.4	24.6	0.00e+00	122	27	0	1220542464	40	5839
2026-01-11 22:13:37.73	31.08	27.08	-33.5	-34.4	24.7	0.00e+00	123	27	0	1223688192	40	5793
2026-01-11 22:13:38.74	30.77	27.06	-33.2	-34.1	24.8	0.00e+00	122	27	0	1226833920	40	5612
2026-01-11 22:13:39.75	30.46	27.03	-33.2	-34.1	24.8	0.00e+00	123	27	0	1229979648	40	5610
2026-01-11 22:13:40.76	30.15	27.01	-33.4	-34.3	24.7	0.00e+00	123	27	0	1233125376	40	5746
2026-01-11 22:13:41.77	29.84	26.98	-33.4	-34.3	24.7	0.00e+00	123	27	0	1236271104	40	5748
2026-01-11 22:13:42.78	29.53	26.96	-33.4	-34.3	24.7	0.00e+00	120	27	0	1239416832	40	5759
2026-01-11 22:13:43.79	29.22	26.93	-33.4	-34.3	24.7	0.00e+00	122	27	0	1242562560	40	5734
2026-01-11 22:13:44.80	28.91	26.90	-33.3	-34.2	24.7	0.00e+00	120	27	0	1245708288	40	5688
2026-01-11 22:13:45.81	28.60	26.87	-33.3	-34.2	24.7	0.00e+00	123	27	0	1248854016	40	5717
2026-01-11 22:13:46.82	28.29	26.84	-33.4	-34.3	24.6	0.00e+00	122	27	0	1251999744	40	5764
2026-01-11 22:13:47.82	27.99	26.81	-33.5	-34.4	24.6	0.00e+00	123	27	0	1255145472	40	5837
2026-01-11 22:13:48.83	27.68	26.78	-33.6	-34.5	24.5	0.00e+00	123	27	0	1258291200	40	5893
2026-01-11 22:13:49.84	27.38	26.75	-33.6	-34.5	24.6	0.00e+00	121	27	0	1261436928	40	5899
2026-01-11 22:13:50.85	27.07	26.71	-33.3	-34.2	24.8	0.00e+00	123	27	0	1264582656	40	5716
2026-01-11 22:13:51.86	26.77	26.68	-33.2	-34.1	24.9	0.00e+00	120	27	0	1267728384	40	5652
2026-01-11 22:13:52.87	26.46	26.64	-33.3	-34.2	24.7	0.00e+00	123	27	0	1270874112	40	5684
2026-01-11 22:13:53.88	26.16	26.61	-33.1	-34.0	24.9	0.00e+00	123	27	0	1274019840	40	5533
2026-01-11 22:13:54.89	25.86	26.57	-33.1	-33.9	24.9	0.00e+00	123	27	0	1277165568	40	5514
2026-01-11 22:13:55.90	25.55	26.53	-33.1	-34.0	24.9	0.00e+00	120	27	0	1280311296	40	5549
2026-01-11 22:13:56.91	25.25	26.49	-33.1	-34.0	24.9	0.00e+00	122	27	0	1283457024	40	5566
2026-01-11 22:13:57.92	24.95	26.45	-33.3	-34.1	24.8	0.00e+00	120	27	0	1286602752	40	5656
2026-01-11 22:13:58.93	24.65	26.41	-33.4	-34.3	24.7	0.00e+00	123	27	0	1289748480	40	5752
2026-01-11 22:13:59.94	24.35	26.37	-33.4	-34.3	24.7	0.00e+00	120	27	0	1292894208	40	5779
2026-01-11 22:14:00.95	24.06	26.33	-33.3	-34.1	24.7	0.00e+00	120	27	0	1296039936	40	5649
2026-01-11 22:14:01.96	23.76	26.29	-33.2	-34.1	24.8	0.00e+00	123	27	0	1299185664	40	5628
2026-01-11 22:14:02.96	23.47	26.24	-33.2	-34.1	24.8	0.00e+00	123	27	0	1302331392	40	5624
2026-01-11 22:14:03.97	23.17	26.20	-33.3	-34.2	24.7	0.00e+00	123	27	0	1306525696	40	5663
2026-01-11 22:14:04.98	22.87	26.16	-33.5	-34.3	24.6	0.00e+00	120	27	0	1309671424	40	5784
2026-01-11 22:14:05.99	22.58	26.11	-33.3	-34.1	24.8	0.00e+00	120	27	0	1311768576	40	5652
2026-01-11 22:14:07.00	22.29	26.06	-33.3	-34.2	24.7	0.00e+00	122	27	0	1314914304	40	5687
2026-01-11 22:14:08.01	22.00	26.02	-33.4	-34.2	24.8	0.00e+00	120	27	0	1318060032	40	5714
2026-01-11 22:14:09.02	21.70	25.97	-33.3	-34.2	24.7	0.00e+00	123	27	0	1321205760	40	5678
2026-01-11 22:14:10.03	21.41	25.92	-33.3	-34.1	24.8	0.00e+00	120	27	0	1325400064	40	5649
2026-01-11 22:14:11.03	21.13	25.87	-33.3	-34.2	24.8	0.00e+00	122	27	0	1328545792	40	5664
2026-01-11 22:14:12.04	20.84	25.82	-33.3	-34.2	24.8	0.00e+00	122	27	0	1331691520	40	5664
2026-01-11 22:14:13.06	20.55	25.77	-33.3	-34.1	24.7	0.00e+00	123	27	0	1334837248	40	5654
2026-01-11 22:14:14.06	20.26	25.72	-33.4	-34.3	24.6	0.00e+00	121	27	0	1336934400	40	5732
2026-01-11 22:14:15.07	19.98	25.67	-33.4	-34.3	24.7	0.00e+00	123	27	0	1341128704	40	5753
2026-01-11 22:14:16.08	19.69	25.61	-33.5	-34.4	24.7	0.00e+00	122	27	0	1344274432	40	5793
2026-01-11 22:14:17.09	19.41	25.56	-33.2	-34.1	24.8	0.00e+00	120	27	0	1347420160	40	5600
2026-01-11 22:14:18.10	19.13	25.51	-33.2	-34.1	24.8	0.00e+00	122	27	0	1350565888	40	5611
2026-01-11 22:14:19.11	18.85	25.45	-33.1	-34.0	24.9	0.00e+00	123	27	0	1353711616	40	5545
2026-01-11 22:14:20.12	18.56	25.40	-32.9	-33.7	25.1	0.00e+00	123	27	0	1356857344	40	5404
2026-01-11 22:14:21.13	18.28	25.34	-32.8	-33.7	25.1	0.00e+00	123	27	0	1360003072	40	5364
2026-01-11 22:14:22.14	18.01	25.28	-33.0	-33.8	25.0	0.00e+00	123	27	0	1363148800	40	5465
2026-01-11 22:14:23.15	17.73	25.23	-33.2	-34.1	24.8	0.00e+00	123	27	0	1366294528	40	5612
2026-01-11 22:14:24.16	17.45	25.17	-33.3	-34.2	24.7	0.00e+00	122	27	0	1369440256	40	5710
2026-01-11 22:14:25.17	17.18	25.11	-33.3	-34.2	24.7	0.00e+00	122	27	0	1372585984	40	5694
2026-01-11 22:14:26.18	16.90	25.05	-33.0	-33.9	25.0	0.00e+00	122	27	0	1375731712	40	5491
2026-01-11 22:14:27.19	16.63	24.99	-33.1	-34.0	24.9	0.00e+00	123	27	0	1378877440	40	5534
2026-01-11 22:14:28.19	16.36	24.93	-32.8	-33.6	25.1	0.00e+00	123	27	0	1382023168	40	5342
2026-01-11 22:14:29.20	16.09	24.87	-32.8	-33.7	25.1	0.00e+00	122	27	0	1385168896	40	5364
2026-01-11 22:14:30.22	15.81	24.81	-32.9	-33.8	25.1	0.00e+00	120	27	0	1388314624	40	5445
2026-01-11 22:14:31.22	15.55	24.75	-33.0	-33.9	24.9	0.00e+00	123	27	0	1391460352	40	5506
2026-01-11 22:14:32.23	15.28	24.68	-33.3	-34.1	24.8	0.00e+00	123	27	0	1394606080	40	5654
2026-01-11 22:14:33.24	15.01	24.62	-33.5	-34.4	24.6	0.00e+00	123	27	0	1397751808	40	5809
2026-01-11 22:14:34.25	14.74	24.56	-33.5	-34.5	24.5	0.00e+00	123	27	0	1400897536	40	5861
2026-01-11 22:14:35.26	14.48	24.49	-33.4	-34.4	24.5	0.00e+00	122	27	0	1404043264	40	5799
2026-01-11 22:14:36.27	14.21	24.43	-33.2	-34.1	24.6	0.00e+00	122	27	0	1407188992	40	5646
2026-01-11 22:14:37.28	13.95	24.36	-33.2	-34.1	24.7	0.00e+00	123	27	0	1410334720	40	5605
2026-01-11 22:14:38.29	13.69	24.30	-33.2	-34.1	24.8	0.00e+00	123	27	0	1413480448	40	5642
2026-01-11 22:14:39.30	13.43	24.23	-32.7	-33.5	25.2	0.00e+00	123	27	0	1416626176	38	5902
2026-01-11 22:14:40.30	13.17	24.17	-32.5	-33.4	25.3	0.00e+00	123	27	0	1419771904	38	5814
2026-01-11 22:14:41.31	12.91	24.10	-32.5	-33.4	25.4	0.00e+00	120	27	0	1422917632	38	5811
2026-01-11 22:14:42.32	12.66	24.03	-32.6	-33.5	25.3	0.00e+00	122	27	0	1426063360	38	5892
2026-01-11 22:14:43.33	12.40	23.96	-32.8	-33.6	25.2	0.00e+00	123	27	0	1429209088	38	5983
2026-01-11 22:14:44.34	12.14	23.89	-32.8	-33.7	25.0	0.00e+00	123	27	0	1432354816	38	6025
2026-01-11 22:14:45.35	11.89	23.83	-32.9	-33.8	25.0	0.00e+00	122	27	0	1435500544	38	6113
2026-01-11 22:14:46.36	11.64	23.76	-33.0	-33.8	24.9	0.00e+00	122	27	0	1438646272	38	6129
2026-01-11 22:14:47.37	11.39	23.69	-32.9	-33.7	24.9	0.00e+00	122	27	0	1441792000	38	6063
2026-01-11 22:14:48.38	11.14	23.62	-33.0	-33.9	24.9	0.00e+00	123	27	0	1444937728	38	6169
2026-01-11 22:14:49.39	10.89	23.55	-33.1	-34.0	24.9	0.00e+00	123	27	0	1448083456	38	6255
2026-01-11 22:14:50.40	10.64	23.48	-33.2	-34.1	24.9	0.00e+00	122	27	0	1451229184	38	6286
2026-01-11 22:14:51.41	10.39	23.40	-33.3	-34.2	24.8	0.00e+00	122	27	0	1454374912	38	6355
2026-01-11 22:14:52.42	10.14	23.33	-33.4	-34.3	24.6	0.00e+00	122	27	0	1457520640	38	6440
2026-01-11 22:14:53.43	9.90	23.26	-33.3	-34.2	24.7	0.00e+00	123	27	0	1460666368	38	6390
2026-01-11 22:14:54.44	9.66	23.19	-33.2	-34.1	24.8	0.00e+00	123	27	0	1463812096	38	6290
2026-01-11 22:14:55.45	9.41	23.12	-33.3	-34.2	24.8	0.00e+00	123	27	0	1466957824	38	6390
2026-01-11 22:14:56.46	9.17	23.04	-33.0	-33.9	24.9	0.00e+00	123	27	0	1470103552	38	6152
2026-01-11 22:14:57.47	8.93	22.97	-33.1	-34.0	24.9	0.00e+00	123	27	0	1473249280	38	6254
2026-01-11 22:14:58.48	8.69	22.90	-33.0	-33.9	25.0	0.00e+00	122	27	0	1476395008	38	6169
2026-01-11 22:14:59.48	8.46	22.82	-33.0	-33.9	24.9	0.00e+00	123	27	0	1479540736	38	6182
2026-01-11 22:15:00.49	8.22	22.75	-33.3	-34.2	24.7	0.00e+00	123	27	0	1482686464	38	6358
2026-01-11 22:15:01.50	7.98	22.67	-33.4	-34.3	24.7	0.00e+00	123	27	0	1485832192	38	6452
2026-01-11 22:15:02.51	7.75	22.60	-33.7	-34.6	24.3	0.00e+00	120	27	0	1488977920	38	6725
2026-01-11 22:15:03.52	7.52	22.52	-33.8	-34.7	24.2	0.00e+00	123	27	0	1492123648	40	6060
2026-01-11 22:15:04.52	7.29	22.45	-33.9	-34.9	24.2	0.00e+00	120	27	0	1495269376	40	6146
2026-01-11 22:15:05.53	7.05	22.37	-33.8	-34.7	24.3	0.00e+00	123	27	0	1498415104	40	6016
2026-01-11 22:15:06.54	6.82	22.30	-33.8	-34.7	24.4	0.00e+00	123	27	0	1501560832	40	6032
2026-01-11 22:15:07.55	6.60	22.22	-33.5	-34.4	24.5	0.00e+00	123	27	0	1504706560	40	5817
2026-01-11 22:15:08.56	6.37	22.14	-33.5	-34.4	24.6	0.00e+00	123	27	0	1507852288	40	5815
2026-01-11 22:15:09.57	6.14	22.07	-33.5	-34.4	24.6	0.00e+00	123	27	0	1510998016	40	5810
2026-01-11 22:15:10.58	5.92	21.99	-33.4	-34.3	24.7	0.00e+00	123	27	0	1514143744	40	5747
2026-01-11 22:15:11.58	5.69	21.91	-33.4	-34.3	24.6	0.00e+00	123	27	0	1517289472	40	5761
2026-01-11 22:15:12.59	5.47	21.83	-33.5	-34.4	24.6	0.00e+00	123	27	0	1520435200	40	5829
2026-01-11 22:15:13.60	5.25	21.76	-33.5	-34.5	24.6	0.00e+00	122	27	0	1523580928	40	5869
2026-01-11 22:15:14.61	5.03	21.68	-33.3	-34.3	24.7	0.00e+00	123	27	0	1526726656	40	5726
2026-01-11 22:15:15.62	4.81	21.60	-33.3	-34.2	24.6	0.00e+00	128	27	0	1529872384	40	5725
2026-01-11 22:15:16.63	4.59	21.52	-33.4	-34.3	24.7	0.00e+00	123	27	0	1533018112	40	5788
2026-01-11 22:15:17.64	4.37	21.44	-33.2	-34.1	24.8	0.00e+00	123	27	0	1536163840	40	5605
2026-01-11 22:15:18.65	4.15	21.36	-33.0	-33.9	25.0	0.00e+00	120	27	0	1539309568	40	5470
2026-01-11 22:15:19.66	3.94	21.29	-33.1	-34.0	24.9	0.00e+00	123	27	0	1542455296	40	5542
2026-01-11 22:15:20.66	3.73	21.21	-33.2	-34.0	24.8	0.00e+00	123	27	0	1545601024	40	5591
2026-01-11 22:15:21.68	3.51	21.13	-33.3	-34.2	24.7	0.00e+00	123	27	0	1548746752	40	5705
2026-01-11 22:15:22.69	3.30	21.05	-33.4	-34.3	24.5	0.00e+00	120	27	0	1551892480	40	5770
2026-01-11 22:15:23.70	3.09	20.97	-33.6	-34.5	24.4	0.00e+00	123	27	0	1555038208	40	5872
2026-01-11 22:15:24.71	2.88	20.89	-33.7	-34.6	24.3	0.00e+00	120	27	0	1558183936	40	5947
2026-01-11 22:15:25.72	2.67	20.81	-33.6	-34.5	24.4	0.00e+00	123	27	0	1561329664	40	5863
2026-01-11 22:15:26.72	2.46	20.73	-33.5	-34.4	24.5	0.00e+00	123	27	0	1564475392	40	5808
2026-01-11 22:15:27.73	2.26	20.65	-33.4	-34.2	24.6	0.00e+00	123	27	0	1567621120	40	5725
2026-01-11 22:15:28.74	2.05	20.57	-33.3	-34.2	24.8	0.00e+00	123	27	0	1570766848	40	5666
2026-01-11 22:15:29.75	1.85	20.49	-33.2	-34.1	24.8	0.00e+00	123	27	0	1573912576	40	5602
2026-01-11 22:15:30.76	1.64	20.41	-33.3	-34.2	24.7	0.00e+00	123	27	0	1577058304	40	5697
2026-01-11 22:15:31.77	1.44	20.32	-33.3	-34.2	24.7	0.00e+00	123	27	0	1580204032	40	5692
2026-01-11 22:15:32.78	1.24	20.24	-33.3	-34.2	24.6	0.00e+00	120	27	0	1583349760	40	5687
2026-01-11 22:15:33.79	1.04	20.16	-33.5	-34.4	24.6	0.00e+00	122	27	0	1586495488	40	5806
2026-01-11 22:15:34.80	0.84	20.08	-33.6	-34.5	24.4	0.00e+00	120	27	0	1589641216	40	5872
2026-01-11 22:15:35.81	0.64	20.00	-33.6	-34.5	24.4	0.00e+00	123	27	0	1592786944	40	5918
2026-01-11 22:15:36.81	0.45	19.92	-33.8	-34.7	24.2	0.00e+00	123	27	0	1595932672	40	6061
2026-01-11 22:15:37.82	0.25	19.84	-33.7	-34.6	24.4	0.00e+00	122	27	0	1599078400	40	5949
2026-01-11 22:15:38.83	0.06	19.76	-33.5	-34.4	24.5	0.00e+00	123	27	0	1602224128	40	5837
2026-01-11 22:15:39.84	359.87	19.67	-33.5	-34.4	24.5	0.00e+00	121	27	0	1605369856	40	5803
2026-01-11 22:15:40.85	359.67	19.59	-33.4	-34.3	24.6	0.00e+00	123	27	0	1608515584	40	5768
2026-01-11 22:15:41.86	359.48	19.51	-33.4	-34.3	24.5	0.00e+00	123	27	0	1611661312	40	5772
2026-01-11 22:15:42.87	359.29	19.43	-33.4	-34.3	24.6	0.00e+00	122	27	0	1614807040	40	5761
2026-01-11 22:15:43.88	359.10	19.35	-33.4	-34.4	24.5	0.00e+00	123	27	0	1617952768	40	5793
2026-01-11 22:15:44.89	358.91	19.27	-33.4	-34.3	24.5	0.00e+00	123	27	0	1621098496	40	5767
2026-01-11 22:15:45.90	358.73	19.18	-33.4	-34.3	24.4	0.00e+00	123	27	0	1624244224	40	5768
2026-01-11 22:15:46.91	358.54	19.10	-33.3	-34.2	24.5	0.00e+00	123	27	0	1627389952	40	5709
2026-01-11 22:15:47.92	358.35	19.02	-33.4	-34.3	24.4	0.00e+00	120	27	0	1630535680	40	5778
2026-01-11 22:15:48.92	358.17	18.94	-33.4	-34.2	24.5	0.00e+00	123	27	0	1633681408	40	5721
2026-01-11 22:15:49.93	357.99	18.86	-33.4	-34.3	24.4	0.00e+00	120	27	0	1636827136	40	5745
2026-01-11 22:15:50.94	357.81	18.77	-33.4	-34.2	24.5	0.00e+00	123	27	0	1639972864	40	5725
2026-01-11 22:15:51.95	357.62	18.69	-33.3	-34.2	24.6	0.00e+00	120	27	0	1643118592	40	5662
2026-01-11 22:15:52.96	357.44	18.61	-33.3	-34.2	24.5	0.00e+00	122	27	0	1646264320	40	5725
2026-01-11 22:15:53.97	357.26	18.53	-33.3	-34.2	24.6	0.00e+00	122	27	0	1649410048	40	5667
2026-01-11 22:15:54.97	357.09	18.44	-33.4	-34.3	24.5	0.00e+00	123	27	0	1652555776	40	5789
2026-01-11 22:15:55.98	356.91	18.36	-33.4	-34.3	24.5	0.00e+00	122	27	0	1655701504	40	5733
2026-01-11 22:15:56.99	356.73	18.28	-33.5	-34.4	24.5	0.00e+00	122	27	0	1658847232	40	5806
2026-01-11 22:15:58.00	356.56	18.20	-33.5	-34.4	24.5	0.00e+00	120	27	0	1661992960	40	5816
2026-01-11 22:15:59.01	356.38	18.12	-33.5	-34.4	24.4	0.00e+00	122	27	0	1665138688	40	5819
2026-01-11 22:16:00.02	356.21	18.03	-33.4	-34.3	24.6	0.00e+00	122	27	0	1668284416	40	5741
2026-01-11 22:16:01.03	356.04	17.95	-33.5	-34.4	24.5	0.00e+00	122	27	0	1671430144	40	5802
2026-01-11 22:16:02.04	355.87	17.87	-33.5	-34.4	24.5	0.00e+00	122	27	0	1674575872	40	5858
2026-01-11 22:16:03.05	355.70	17.79	-33.7	-34.6	24.4	0.00e+00	123	27	0	1677721600	40	5931
2026-01-11 22:16:04.06	355.53	17.70	-33.8	-34.7	24.2	0.00e+00	120	27	0	1680867328	40	6023
2026-01-11 22:16:05.07	355.36	17.62	-33.8	-34.8	24.2	0.00e+00	123	27	0	1684013056	40	6066
2026-01-11 22:16:06.07	355.19	17.54	-33.9	-34.8	24.2	0.00e+00	123	27	0	1687158784	40	6111
2026-01-11 22:16:07.08	355.02	17.46	-33.9	-34.8	24.2	0.00e+00	123	27	0	1690304512	40	6112
2026-01-11 22:16:08.09	354.86	17.38	-33.9	-34.8	24.2	0.00e+00	123	27	0	1693450240	40	6098
2026-01-11 22:16:09.10	354.69	17.29	-33.7	-34.6	24.2	0.00e+00	121	27	0	1696595968	40	5972
2026-01-11 22:16:10.11	354.53	17.21	-33.5	-34.4	24.4	0.00e+00	123	27	0	1699741696	40	5844
2026-01-11 22:16:11.12	354.36	17.13	-33.5	-34.4	24.5	0.00e+00	120	27	0	1702887424	40	5853
2026-01-11 22:16:12.13	354.20	17.05	-33.6	-34.5	24.4	0.00e+00	123	27	0	1706033152	40	5876
2026-01-11 22:16:13.14	354.04	16.96	-33.5	-34.4	24.4	0.00e+00	122	27	0	1709178880	40	5844
2026-01-11 22:16:14.15	353.88	16.88	-33.6	-34.5	24.5	0.00e+00	123	27	0	1712324608	40	5898
2026-01-11 22:16:15.16	353.72	16.80	-33.6	-34.5	24.4	0.00e+00	123	27	0	1715470336	40	5890
2026-01-11 22:16:16.17	353.56	16.72	-33.7	-34.6	24.3	0.00e+00	122	27	0	1718616064	40	5960
2026-01-11 22:16:17.18	353.40	16.64	-33.8	-34.7	24.2	0.00e+00	122	27	0	1721761792	40	6009
2026-01-11 22:16:18.19	353.25	16.55	-33.9	-34.8	24.1	0.00e+00	122	27	0	1724907520	40	6120
2026-01-11 22:16:19.20	353.09	16.47	-34.0	-34.9	24.1	0.00e+00	123	27	0	1728053248	40	6183
2026-01-11 22:16:20.21	352.94	16.39	-34.1	-35.0	24.0	0.00e+00	123	27	0	1731198976	40	6252
2026-01-11 22:16:21.22	352.78	16.31	-34.1	-35.1	24.0	0.00e+00	122	27	0	1734344704	40	6299
2026-01-11 22:16:22.22	352.63	16.23	-34.1	-35.1	23.9	0.00e+00	122	27	0	1738539008	40	6300
2026-01-11 22:16:23.24	352.47	16.15	-34.0	-34.9	24.0	0.00e+00	123	27	0	1741684736	40	6199
2026-01-11 22:16:24.24	352.32	16.07	-33.9	-34.8	24.1	0.00e+00	122	27	0	1744830464	40	6097
2026-01-11 22:16:25.25	352.17	15.98	-33.7	-34.6	24.3	0.00e+00	123	27	0	1746927616	40	5939
2026-01-11 22:16:26.26	352.02	15.90	-33.6	-34.5	24.3	0.00e+00	123	27	0	1750073344	40	5914
2026-01-11 22:16:27.27	351.87	15.82	-33.5	-34.3	24.4	0.00e+00	123	27	0	1753219072	40	5788
2026-01-11 22:16:28.28	351.72	15.74	-33.6	-34.5	24.4	0.00e+00	123	27	0	1757413376	40	5863
2026-01-11 22:16:29.29	351.58	15.66	-33.7	-34.6	24.3	0.00e+00	121	27	0	1760559104	40	5960
2026-01-11 22:16:30.30	351.43	15.58	-33.9	-34.8	24.2	0.00e+00	122	27	0	1763704832	40	6083
2026-01-11 22:16:31.31	351.28	15.50	-34.0	-34.9	24.1	0.00e+00	120	27	0	1766850560	40	6187
2026-01-11 22:16:32.32	351.14	15.42	-34.2	-35.1	24.0	0.00e+00	123	27	0	1768947712	40	6301
2026-01-11 22:16:33.33	350.99	15.33	-34.3	-35.3	23.8	0.00e+00	120	27	0	1773142016	40	6436
2026-01-11 22:16:34.33	350.85	15.25	-34.4	-35.4	23.7	0.00e+00	122	27	0	1776287744	40	6528
2026-01-11 22:16:35.34	350.71	15.17	-34.5	-35.4	23.6	0.00e+00	123	27	0	1779433472	40	6532
2026-01-11 22:16:36.35	350.57	15.09	-34.4	-35.4	23.7	0.00e+00	120	27	0	1782579200	40	6531
2026-01-11 22:16:37.36	350.43	15.01	-34.3	-35.3	23.7	0.00e+00	120	27	0	1785724928	40	6443
2026-01-11 22:16:38.37	350.28	14.93	-34.2	-35.1	23.7	0.00e+00	123	27	0	1788870656	40	6342
2026-01-11 22:16:39.38	350.14	14.85	-34.3	-35.2	23.7	0.00e+00	120	27	0	1792016384	40	6402
2026-01-11 22:16:40.39	350.01	14.77	-34.0	-34.9	23.9	0.00e+00	123	27	0	1795162112	40	6199
2026-01-11 22:16:41.40	349.87	14.69	-34.0	-34.9	23.9	0.00e+00	123	27	0	1798307840	40	6203
2026-01-11 22:16:42.41	349.73	14.61	-33.8	-34.7	24.1	0.00e+00	123	27	0	1801453568	40	6052
2026-01-11 22:16:43.42	349.59	14.53	-33.9	-34.8	24.1	0.00e+00	123	27	0	1804599296	40	6079
2026-01-11 22:16:44.42	349.46	14.45	-33.7	-34.6	24.2	0.00e+00	122	27	0	1807745024	40	5992
2026-01-11 22:16:45.43	349.32	14.37	-33.9	-34.7	24.2	0.00e+00	123	27	0	1810890752	40	6062
2026-01-11 22:16:46.44	349.19	14.29	-33.9	-34.8	24.1	0.00e+00	123	28	0	1814036480	40	6099
2026-01-11 22:16:47.45	349.05	14.21	-34.0	-34.9	24.1	0.00e+00	122	27	0	1817182208	40	6142
2026-01-11 22:16:48.46	348.92	14.13	-34.2	-35.1	23.9	0.00e+00	123	27	0	1820327936	40	6293
2026-01-11 22:16:49.47	348.79	14.05	-34.2	-35.1	23.9	0.00e+00	123	27	0	1823473664	40	6317
2026-01-11 22:16:50.48	348.66	13.98	-34.4	-35.3	23.7	0.00e+00	122	27	0	1826619392	40	6477
2026-01-11 22:16:51.48	348.53	13.90	-34.4	-35.4	23.6	0.00e+00	120	27	0	1829765120	40	6525
2026-01-11 22:16:52.49	348.40	13.82	-34.5	-35.4	23.5	0.00e+00	123	28	0	1832910848	40	6554
2026-01-11 22:16:53.50	348.27	13.74	-34.5	-35.4	23.5	0.00e+00	122	28	0	1836056576	40	6550
2026-01-11 22:16:54.51	348.14	13.66	-34.3	-35.2	23.6	0.00e+00	127	28	0	1839202304	40	6417
2026-01-11 22:16:55.52	348.01	13.58	-34.2	-35.2	23.7	0.00e+00	120	28	0	1842348032	40	6388
2026-01-11 22:16:56.53	347.88	13.50	-34.1	-35.0	23.7	0.00e+00	122	28	0	1845493760	40	6252
2026-01-11 22:16:57.54	347.76	13.42	-34.1	-35.0	23.8	0.00e+00	123	28	0	1848639488	40	6257
2026-01-11 22:16:58.55	347.63	13.35	-33.8	-34.7	24.0	0.00e+00	123	27	0	1851785216	40	6023
2026-01-11 22:16:59.56	347.51	13.27	-33.8	-34.7	24.0	0.00e+00	122	28	0	1854930944	40	6039
2026-01-11 22:17:00.57	347.38	13.19	-33.7	-34.6	24.1	0.00e+00	123	28	0	1858076672	40	5975
2026-01-11 22:17:01.58	347.26	13.11	-33.8	-34.7	24.2	0.00e+00	123	28	0	1861222400	40	5997
2026-01-11 22:17:02.59	347.13	13.03	-33.6	-34.5	24.3	0.00e+00	122	28	0	1864368128	40	5896
2026-01-11 22:17:03.59	347.01	12.96	-33.7	-34.6	24.2	0.00e+00	123	28	0	1867513856	40	5968
2026-01-11 22:17:04.60	346.89	12.88	-33.9	-34.8	24.1	0.00e+00	123	28	0	1870659584	40	6101
2026-01-11 22:17:05.61	346.77	12.80	-33.9	-34.8	24.0	0.00e+00	122	27	0	1873805312	40	6120
2026-01-11 22:17:06.62	346.65	12.72	-34.1	-35.1	23.8	0.00e+00	122	28	0	1876951040	40	6294
2026-01-11 22:17:07.63	346.53	12.65	-34.4	-35.3	23.7	0.00e+00	123	27	0	1880096768	40	6487
2026-01-11 22:17:08.64	346.41	12.57	-34.5	-35.5	23.5	0.00e+00	122	28	0	1883242496	40	6580
2026-01-11 22:17:09.65	346.29	12.49	-34.7	-35.7	23.4	0.00e+00	122	28	0	1886388224	42	6040
2026-01-11 22:17:10.66	346.17	12.42	-34.8	-35.8	23.2	0.00e+00	122	28	0	1889533952	42	6129
2026-01-11 22:17:11.67	346.06	12.34	-34.9	-35.9	23.1	0.00e+00	122	28	0	1892679680	42	6199
2026-01-11 22:17:12.68	345.94	12.26	-34.9	-36.0	23.2	0.00e+00	123	28	0	1895825408	42	6211
2026-01-11 22:17:13.69	345.82	12.18	-34.9	-35.9	23.0	0.00e+00	122	28	0	1898971136	42	6195
2026-01-11 22:17:14.70	345.71	12.11	-34.8	-35.8	23.1	0.00e+00	123	28	0	1902116864	42	6093
2026-01-11 22:17:15.71	345.59	12.03	-34.8	-35.8	23.2	0.00e+00	122	28	0	1905262592	42	6102
2026-01-11 22:17:16.72	345.48	11.96	-34.5	-35.5	23.3	0.00e+00	123	28	0	1908408320	42	5888
2026-01-11 22:17:17.73	345.36	11.88	-34.5	-35.5	23.3	0.00e+00	123	28	0	1911554048	42	5902
2026-01-11 22:17:18.74	345.25	11.80	-34.2	-35.1	23.7	0.00e+00	123	28	0	1914699776	42	5652
2026-01-11 22:17:19.75	345.14	11.73	-34.2	-35.1	23.7	0.00e+00	123	28	0	1917845504	42	5644
2026-01-11 22:17:20.76	345.03	11.65	-34.1	-35.1	23.7	0.00e+00	123	28	0	1920991232	42	5607
2026-01-11 22:17:21.77	344.92	11.58	-34.1	-35.1	23.7	0.00e+00	123	28	0	1924136960	42	5604
2026-01-11 22:17:22.78	344.80	11.50	-34.1	-35.0	23.8	0.00e+00	123	28	0	1927282688	42	5593
2026-01-11 22:17:23.79	344.69	11.43	-34.2	-35.1	23.8	0.00e+00	122	28	0	1930428416	42	5651
2026-01-11 22:17:24.80	344.59	11.35	-34.2	-35.2	23.7	0.00e+00	122	28	0	1933574144	42	5706
2026-01-11 22:17:25.81	344.48	11.27	-34.5	-35.4	23.5	0.00e+00	122	28	0	1936719872	42	5844
2026-01-11 22:17:26.82	344.37	11.20	-34.7	-35.6	23.2	0.00e+00	123	28	0	1939865600	42	5985
2026-01-11 22:17:27.82	344.26	11.13	-34.9	-35.9	23.1	0.00e+00	120	28	0	1943011328	42	6159
2026-01-11 22:17:28.83	344.15	11.05	-35.1	-36.1	23.0	0.00e+00	122	28	0	1946157056	42	6322
2026-01-11 22:17:29.85	344.05	10.98	-35.4	-36.4	22.8	0.00e+00	123	28	0	1949302784	42	6544
2026-01-11 22:17:30.85	343.94	10.90	-35.4	-36.4	22.7	0.00e+00	123	28	0	1952448512	42	6569
2026-01-11 22:17:31.86	343.84	10.83	-35.5	-36.5	22.6	0.00e+00	120	28	0	1955594240	42	6615
2026-01-11 22:17:32.87	343.73	10.75	-35.5	-36.5	22.6	0.00e+00	123	28	0	1958739968	42	6615
