passes_logs/2026/01/11/R4.6S_Anadyr/R4.6S_Anadyr__20260111_120917_NOAA_21_JPSS-2_rec.log

#Pass ID: 20260111_120917_NOAA 21 (JPSS-2)
#Satellite: NOAA 21 (JPSS-2)
#Configuration: NOAA-21
#almurnet v.1.7.20251203
#Start time: 2026-01-11 12:09:19

#Version: 2.2.20231116
#Station: R4.6S_Anadyr
#Location: 177.4865 lon 64.73178 lat
#TLE: 1 54234U 22150A   26010.92456470  .00000095  00000+0  65865-4 0  9991
#TLE: 2 54234  98.7494 311.8737 0000784 316.5119  43.5995 14.19533975164234

#Time	Az	El	Level	Level2	SNR	BER	BlckErr	Temp	State	Recorded	gain1	gain2
2026-01-11 12:09:19.75	19.40	0.11	-47.9	-59.5	3.5	8.46e-01	0	24	0	0	60	34216
2026-01-11 12:09:20.76	19.48	0.15	-48.2	-61.1	3.5	1.52e+00	0	26	104	0	60	39798
2026-01-11 12:09:21.77	19.56	0.20	-48.1	-60.9	3.5	1.52e+00	0	26	104	0	60	38892
2026-01-11 12:09:22.78	19.64	0.25	-48.1	-61.0	3.5	1.52e+00	0	26	104	0	60	39166
2026-01-11 12:09:23.79	19.72	0.30	-48.1	-60.9	3.5	1.52e+00	0	26	104	0	60	39087
2026-01-11 12:09:24.80	19.80	0.34	-48.2	-61.0	3.5	1.52e+00	0	26	104	0	60	39328
2026-01-11 12:09:25.81	19.89	0.39	-48.2	-61.0	3.5	1.51e+00	0	26	104	0	60	39545
2026-01-11 12:09:26.82	19.97	0.44	-48.2	-61.0	3.5	1.52e+00	0	26	104	0	60	39158
2026-01-11 12:09:27.83	20.05	0.49	-48.1	-61.0	3.5	1.52e+00	0	26	104	0	60	39185
2026-01-11 12:09:28.84	20.13	0.53	-48.1	-60.9	3.5	1.52e+00	0	26	104	0	60	38862
2026-01-11 12:09:29.85	20.22	0.58	-48.0	-60.8	3.5	1.52e+00	0	26	104	0	60	38315
2026-01-11 12:09:30.86	20.30	0.63	-47.8	-60.7	3.5	1.51e+00	0	26	104	0	60	37938
2026-01-11 12:09:31.87	20.38	0.68	-47.7	-60.5	3.5	1.52e+00	0	26	104	0	60	37320
2026-01-11 12:09:32.88	20.47	0.72	-47.6	-60.4	3.5	1.52e+00	0	26	104	0	60	36798
2026-01-11 12:09:33.89	20.55	0.77	-47.4	-60.2	3.5	1.52e+00	0	26	104	0	60	36070
2026-01-11 12:09:34.90	20.64	0.82	-47.1	-59.9	3.5	1.52e+00	0	26	104	0	60	34665
2026-01-11 12:09:35.91	20.72	0.87	-46.6	-59.4	3.5	1.52e+00	0	26	104	0	60	32773
2026-01-11 12:09:36.92	20.80	0.91	-46.5	-59.3	3.5	1.52e+00	0	26	104	0	60	32211
2026-01-11 12:09:37.93	20.89	0.96	-46.4	-59.3	3.5	1.52e+00	0	26	104	0	60	32204
2026-01-11 12:09:38.94	20.97	1.01	-46.4	-59.2	3.5	1.52e+00	0	26	104	0	60	32150
2026-01-11 12:09:39.95	21.06	1.06	-46.4	-59.2	3.5	1.52e+00	0	26	104	0	60	32104
2026-01-11 12:09:40.96	21.15	1.10	-46.4	-59.3	3.5	1.52e+00	0	26	104	0	60	32371
2026-01-11 12:09:41.97	21.23	1.15	-46.4	-59.3	3.5	1.52e+00	0	26	104	0	60	32222
2026-01-11 12:09:42.98	21.32	1.20	-46.4	-59.2	3.5	1.52e+00	0	26	104	0	60	32181
2026-01-11 12:09:43.99	21.40	1.25	-46.8	-59.6	3.5	1.52e+00	0	26	104	0	60	33661
2026-01-11 12:09:45.00	21.49	1.29	-46.7	-59.5	3.5	1.52e+00	0	26	104	0	60	33113
2026-01-11 12:09:46.01	21.58	1.34	-46.5	-59.3	3.5	1.51e+00	0	26	104	0	60	32391
2026-01-11 12:09:47.02	21.67	1.39	-46.5	-59.3	3.5	1.52e+00	0	26	104	0	60	32284
2026-01-11 12:09:48.03	21.75	1.44	-46.4	-59.2	3.5	1.52e+00	0	26	104	0	60	31862
2026-01-11 12:09:49.04	21.84	1.49	-46.5	-59.3	3.5	1.52e+00	0	26	104	0	60	32293
2026-01-11 12:09:50.05	21.93	1.53	-46.5	-59.2	3.5	1.52e+00	0	26	104	0	60	32086
2026-01-11 12:09:51.06	22.02	1.58	-46.4	-59.2	3.5	1.52e+00	0	26	104	0	60	32174
2026-01-11 12:09:52.07	22.11	1.63	-46.5	-59.3	3.5	1.52e+00	0	26	104	0	60	32310
2026-01-11 12:09:53.08	22.19	1.68	-46.5	-59.4	3.5	1.51e+00	0	26	104	0	60	32609
2026-01-11 12:09:54.09	22.28	1.73	-46.5	-59.3	3.5	1.52e+00	0	26	104	0	60	32500
2026-01-11 12:09:55.10	22.37	1.77	-46.5	-59.3	3.5	1.52e+00	0	26	104	0	60	32327
2026-01-11 12:09:56.11	22.46	1.82	-46.5	-59.4	3.5	1.52e+00	0	26	104	0	60	32573
2026-01-11 12:09:57.11	22.55	1.87	-46.4	-59.2	3.5	1.52e+00	0	26	104	0	60	32115
2026-01-11 12:09:58.12	22.64	1.92	-46.4	-59.1	3.5	1.52e+00	0	26	104	0	60	31517
2026-01-11 12:09:59.13	22.73	1.97	-46.4	-59.1	3.5	1.51e+00	0	26	104	0	60	31502
2026-01-11 12:10:00.14	22.82	2.02	-46.4	-59.1	3.5	1.52e+00	0	26	104	0	60	31663
2026-01-11 12:10:01.13	22.91	2.06	-46.4	-59.2	3.5	1.51e+00	0	26	104	0	60	31954
2026-01-11 12:10:02.15	23.00	2.11	-46.4	-59.1	3.5	1.52e+00	0	26	104	0	60	31497
2026-01-11 12:10:03.15	23.10	2.16	-46.4	-59.1	3.5	1.52e+00	0	26	104	0	60	31563
2026-01-11 12:10:04.16	23.19	2.21	-46.4	-59.1	3.5	1.52e+00	0	26	104	0	60	31790
2026-01-11 12:10:05.18	23.28	2.26	-46.4	-59.2	3.5	1.52e+00	0	26	104	0	60	31955
2026-01-11 12:10:06.18	23.37	2.30	-46.3	-58.8	3.5	1.51e+00	0	26	104	0	60	30744
2026-01-11 12:10:07.19	23.46	2.35	-46.3	-58.3	3.5	1.51e+00	0	26	104	0	60	28915
2026-01-11 12:10:08.20	23.56	2.40	-46.2	-57.7	3.5	1.51e+00	0	27	104	0	60	26858
2026-01-11 12:10:09.22	23.65	2.45	-46.2	-57.8	3.6	1.51e+00	0	27	104	0	60	27377
2026-01-11 12:10:10.23	23.75	2.50	-46.2	-57.7	3.5	1.51e+00	0	26	104	0	60	26919
2026-01-11 12:10:11.24	23.84	2.55	-45.9	-54.9	4.8	1.46e+00	2	26	104	0	60	19469
2026-01-11 12:10:12.25	23.93	2.60	-44.7	-49.3	8.9	1.42e-01	0	26	0	0	60	10198
2026-01-11 12:10:13.26	24.03	2.64	-42.8	-45.7	12.8	4.73e-04	0	26	0	3145728	60	6780
2026-01-11 12:10:14.27	24.12	2.69	-41.1	-43.2	15.3	1.50e-06	0	26	0	6291456	56	6365
2026-01-11 12:10:15.27	24.22	2.74	-39.5	-41.2	17.2	0.00e+00	0	26	0	10485760	52	6351
2026-01-11 12:10:16.28	24.31	2.79	-38.4	-39.8	18.7	0.00e+00	0	26	0	13631488	50	6124
2026-01-11 12:10:17.29	24.41	2.84	-38.5	-39.9	18.3	0.00e+00	0	26	0	16777216	50	6167
2026-01-11 12:10:18.30	24.50	2.89	-38.9	-40.4	17.9	0.00e+00	0	26	0	19922944	50	6556
2026-01-11 12:10:19.31	24.60	2.94	-40.0	-41.8	16.4	0.00e+00	0	27	0	22020096	52	6824
2026-01-11 12:10:20.32	24.70	2.99	-41.7	-44.1	14.1	0.00e+00	0	26	0	26214400	54	7937
2026-01-11 12:10:21.33	24.79	3.03	-40.1	-41.8	17.3	1.43e-04	0	26	0	29360128	58	4866
2026-01-11 12:10:22.34	24.89	3.08	-40.0	-41.6	17.5	1.29e-05	0	27	0	32505856	54	5982
2026-01-11 12:10:23.35	24.99	3.13	-39.4	-41.0	16.9	0.00e+00	0	26	0	35651584	48	7843
2026-01-11 12:10:24.36	25.09	3.18	-46.3	-59.0	3.5	1.51e+00	0	27	104	35651584	60	31112
2026-01-11 12:10:25.37	25.18	3.23	-42.6	-45.7	16.1	1.12e-01	0	27	104	35651584	60	6770
2026-01-11 12:10:26.38	25.28	3.28	-41.1	-43.0	16.3	5.30e-06	0	27	0	37748736	56	6259
2026-01-11 12:10:27.39	25.38	3.33	-38.2	-39.5	18.9	0.00e+00	0	27	0	40894464	50	5920
2026-01-11 12:10:28.40	25.48	3.38	-38.0	-39.3	19.3	0.00e+00	0	27	0	44040192	50	5755
2026-01-11 12:10:29.41	25.58	3.42	-37.9	-39.1	19.5	0.00e+00	0	27	0	47185920	50	5656
2026-01-11 12:10:30.42	25.68	3.47	-37.5	-38.8	19.7	0.00e+00	0	27	0	50331648	48	6098
2026-01-11 12:10:31.43	25.78	3.52	-37.9	-39.2	19.3	0.00e+00	0	27	0	53477376	48	6405
2026-01-11 12:10:32.44	25.88	3.57	-37.8	-39.0	19.4	0.00e+00	0	27	0	56623104	48	6260
2026-01-11 12:10:33.45	25.98	3.62	-38.1	-39.4	19.3	0.00e+00	0	27	0	59768832	48	6528
2026-01-11 12:10:34.46	26.08	3.67	-37.7	-39.0	19.3	0.00e+00	0	27	0	62914560	48	6233
2026-01-11 12:10:35.47	26.18	3.72	-37.7	-39.0	19.7	0.00e+00	0	26	0	66060288	48	6221
2026-01-11 12:10:36.47	26.28	3.77	-37.2	-38.4	20.1	0.00e+00	0	27	0	69206016	48	5850
2026-01-11 12:10:37.48	26.38	3.82	-37.3	-38.5	20.0	0.00e+00	0	27	0	72351744	48	5896
2026-01-11 12:10:38.49	26.49	3.87	-37.2	-38.4	20.0	0.00e+00	0	27	0	75497472	48	5848
2026-01-11 12:10:39.50	26.59	3.91	-37.1	-38.3	20.1	0.00e+00	0	27	0	78643200	48	5783
2026-01-11 12:10:40.51	26.69	3.96	-37.2	-38.4	20.1	0.00e+00	0	26	0	81788928	48	5849
2026-01-11 12:10:41.52	26.80	4.01	-37.3	-38.5	20.0	0.00e+00	0	27	0	84934656	48	5905
2026-01-11 12:10:42.53	26.90	4.06	-37.3	-38.6	20.0	0.00e+00	0	27	0	88080384	48	5935
2026-01-11 12:10:43.55	27.00	4.11	-37.3	-38.6	20.0	0.00e+00	0	27	0	91226112	48	5939
2026-01-11 12:10:44.55	27.11	4.16	-37.8	-39.1	19.5	0.00e+00	0	27	0	94371840	48	6287
2026-01-11 12:10:45.56	27.21	4.21	-37.4	-38.6	20.0	0.00e+00	0	27	0	97517568	48	5953
2026-01-11 12:10:46.58	27.32	4.26	-37.2	-38.4	20.1	0.00e+00	0	27	0	100663296	48	5844
2026-01-11 12:10:47.59	27.42	4.31	-37.1	-38.3	20.3	0.00e+00	0	27	0	103809024	48	5726
2026-01-11 12:10:48.59	27.53	4.36	-37.1	-38.3	20.2	0.00e+00	0	27	0	106954752	48	5775
2026-01-11 12:10:49.61	27.63	4.41	-37.1	-38.3	20.3	0.00e+00	0	27	0	110100480	48	5730
2026-01-11 12:10:50.61	27.74	4.46	-37.4	-38.5	20.1	0.00e+00	0	26	0	113246208	48	5921
2026-01-11 12:10:51.63	27.85	4.51	-37.1	-38.3	20.3	0.00e+00	0	27	0	116391936	48	5765
2026-01-11 12:10:52.64	27.95	4.56	-37.1	-38.3	20.3	0.00e+00	0	26	0	119537664	48	5741
2026-01-11 12:10:53.64	28.06	4.60	-36.9	-38.1	20.5	0.00e+00	0	26	0	122683392	48	5643
2026-01-11 12:10:54.65	28.17	4.65	-36.9	-38.1	20.5	0.00e+00	0	27	0	125829120	48	5598
2026-01-11 12:10:55.66	28.28	4.70	-37.0	-38.1	20.5	0.00e+00	0	27	0	128974848	48	5650
2026-01-11 12:10:56.67	28.38	4.75	-37.0	-38.2	20.4	0.00e+00	0	27	0	132120576	48	5687
2026-01-11 12:10:57.68	28.49	4.80	-37.4	-38.6	20.0	0.00e+00	0	27	0	135266304	48	5949
2026-01-11 12:10:58.69	28.60	4.85	-37.0	-38.2	20.5	0.00e+00	0	26	0	138412032	48	5667
2026-01-11 12:10:59.71	28.71	4.90	-37.1	-38.2	20.3	0.00e+00	0	26	0	141557760	48	5724
2026-01-11 12:11:00.72	28.82	4.95	-37.0	-38.2	20.4	0.00e+00	0	27	0	144703488	48	5662
2026-01-11 12:11:01.73	28.93	5.00	-36.9	-38.0	20.7	0.00e+00	0	26	0	147849216	48	5582
2026-01-11 12:11:02.74	29.04	5.05	-36.9	-38.1	20.6	0.00e+00	0	27	0	150994944	48	5630
2026-01-11 12:11:03.75	29.15	5.10	-37.0	-38.1	20.5	0.00e+00	0	26	0	154140672	48	5642
2026-01-11 12:11:04.76	29.26	5.15	-36.9	-38.1	20.5	0.00e+00	0	26	0	157286400	48	5599
2026-01-11 12:11:05.77	29.38	5.20	-36.9	-38.0	20.7	0.00e+00	0	26	0	160432128	48	5562
2026-01-11 12:11:06.78	29.49	5.25	-37.0	-38.2	20.7	0.00e+00	0	27	0	163577856	48	5660
2026-01-11 12:11:07.79	29.60	5.30	-36.9	-38.1	20.6	0.00e+00	0	27	0	166723584	48	5598
2026-01-11 12:11:08.80	29.71	5.35	-36.6	-37.8	20.9	0.00e+00	0	27	0	169869312	48	5421
2026-01-11 12:11:09.81	29.82	5.40	-36.5	-37.6	21.0	0.00e+00	0	27	0	173015040	46	5965
2026-01-11 12:11:10.81	29.94	5.44	-36.5	-37.6	21.1	0.00e+00	0	27	0	176160768	46	5955
2026-01-11 12:11:11.82	30.05	5.49	-36.5	-37.6	21.2	0.00e+00	0	27	0	179306496	46	5955
2026-01-11 12:11:12.83	30.16	5.54	-36.4	-37.5	21.2	0.00e+00	0	27	0	182452224	46	5861
2026-01-11 12:11:13.84	30.28	5.59	-36.5	-37.6	21.1	0.00e+00	0	27	0	185597952	46	5938
2026-01-11 12:11:14.85	30.39	5.64	-36.5	-37.6	21.1	0.00e+00	0	27	0	188743680	46	5948
2026-01-11 12:11:15.86	30.51	5.69	-36.7	-37.9	20.9	0.00e+00	0	27	0	191889408	46	6147
2026-01-11 12:11:16.87	30.62	5.74	-36.7	-37.8	20.8	0.00e+00	0	27	0	195035136	46	6133
2026-01-11 12:11:17.88	30.74	5.79	-36.8	-37.9	20.9	0.00e+00	0	27	0	198180864	46	6170
2026-01-11 12:11:18.89	30.86	5.84	-36.5	-37.6	21.2	0.00e+00	0	27	0	201326592	46	5933
2026-01-11 12:11:19.90	30.97	5.89	-36.3	-37.4	21.3	0.00e+00	0	27	0	204472320	46	5809
2026-01-11 12:11:20.91	31.09	5.94	-36.4	-37.5	21.2	0.00e+00	0	27	0	207618048	46	5864
2026-01-11 12:11:21.92	31.21	5.99	-36.3	-37.4	21.4	0.00e+00	0	27	0	211812352	46	5794
2026-01-11 12:11:22.93	31.33	6.04	-36.2	-37.2	21.5	0.00e+00	0	27	0	214958080	46	5720
2026-01-11 12:11:23.94	31.44	6.09	-36.1	-37.2	21.6	0.00e+00	0	27	0	217055232	46	5662
2026-01-11 12:11:24.95	31.56	6.14	-36.1	-37.2	21.5	0.00e+00	0	27	0	220200960	46	5671
2026-01-11 12:11:25.96	31.68	6.19	-36.2	-37.3	21.6	0.00e+00	0	27	0	223346688	46	5738
2026-01-11 12:11:26.97	31.80	6.24	-35.9	-37.0	21.8	0.00e+00	0	27	0	227540992	46	5554
2026-01-11 12:11:27.98	31.92	6.28	-35.8	-36.9	21.8	0.00e+00	0	27	0	230686720	46	5482
2026-01-11 12:11:28.99	32.04	6.33	-35.9	-36.9	21.8	0.00e+00	0	27	0	233832448	46	5525
2026-01-11 12:11:30.00	32.16	6.38	-35.7	-36.7	21.9	0.00e+00	0	27	0	236978176	44	6060
2026-01-11 12:11:31.01	32.28	6.43	-35.7	-36.8	21.9	0.00e+00	0	27	0	239075328	44	6084
2026-01-11 12:11:32.02	32.40	6.48	-35.9	-37.0	21.7	0.00e+00	0	27	0	242221056	44	6225
2026-01-11 12:11:33.02	32.52	6.53	-35.8	-36.9	21.8	0.00e+00	0	27	0	246415360	44	6167
2026-01-11 12:11:34.03	32.64	6.58	-35.9	-36.9	21.7	0.00e+00	0	27	0	249561088	44	6199
2026-01-11 12:11:35.04	32.77	6.63	-36.1	-37.1	21.6	0.00e+00	0	27	0	252706816	44	6325
2026-01-11 12:11:36.05	32.89	6.68	-35.9	-37.0	21.7	0.00e+00	0	27	0	255852544	44	6251
2026-01-11 12:11:37.06	33.01	6.73	-36.1	-37.1	21.6	0.00e+00	0	27	0	258998272	44	6342
2026-01-11 12:11:38.07	33.14	6.78	-36.1	-37.1	21.6	0.00e+00	0	27	0	262144000	44	6333
2026-01-11 12:11:39.08	33.26	6.83	-35.9	-37.0	21.7	0.00e+00	0	27	0	265289728	44	6206
2026-01-11 12:11:40.09	33.39	6.88	-36.0	-37.1	21.7	0.00e+00	0	27	0	268435456	44	6298
2026-01-11 12:11:41.10	33.51	6.93	-36.1	-37.1	21.5	0.00e+00	0	27	0	271581184	44	6326
2026-01-11 12:11:42.11	33.64	6.97	-36.0	-37.0	21.7	0.00e+00	0	27	0	274726912	44	6262
2026-01-11 12:11:43.12	33.76	7.02	-36.0	-37.1	21.6	0.00e+00	0	27	0	277872640	44	6313
2026-01-11 12:11:44.13	33.89	7.07	-36.0	-37.1	21.7	0.00e+00	0	27	0	281018368	44	6306
2026-01-11 12:11:45.14	34.01	7.12	-36.0	-37.1	21.8	0.00e+00	0	27	0	284164096	44	6304
2026-01-11 12:11:46.16	34.14	7.17	-36.0	-37.1	21.7	0.00e+00	0	27	0	287309824	44	6324
2026-01-11 12:11:47.16	34.27	7.22	-36.1	-37.1	21.6	0.00e+00	0	27	0	290455552	44	6341
2026-01-11 12:11:48.17	34.40	7.27	-35.9	-37.0	21.8	0.00e+00	0	27	0	293601280	44	6227
2026-01-11 12:11:49.18	34.52	7.32	-36.1	-37.1	21.7	0.00e+00	0	27	0	296747008	44	6339
2026-01-11 12:11:50.19	34.65	7.37	-35.8	-36.8	22.0	0.00e+00	0	27	0	299892736	44	6121
2026-01-11 12:11:51.20	34.78	7.42	-35.8	-36.8	21.9	0.00e+00	0	27	0	303038464	44	6127
2026-01-11 12:11:52.21	34.91	7.47	-35.8	-36.9	21.9	0.00e+00	0	27	0	306184192	44	6146
2026-01-11 12:11:53.22	35.04	7.51	-35.7	-36.7	22.0	0.00e+00	0	27	0	309329920	44	6046
2026-01-11 12:11:54.23	35.17	7.56	-35.8	-36.8	22.0	0.00e+00	0	27	0	312475648	44	6130
2026-01-11 12:11:55.24	35.30	7.61	-35.7	-36.8	22.1	0.00e+00	0	27	0	315621376	44	6065
2026-01-11 12:11:56.25	35.43	7.66	-35.7	-36.8	22.1	0.00e+00	0	27	0	318767104	44	6073
2026-01-11 12:11:57.26	35.56	7.71	-35.7	-36.8	22.1	0.00e+00	0	27	0	321912832	44	6067
2026-01-11 12:11:58.27	35.70	7.76	-35.5	-36.5	22.3	0.00e+00	0	27	0	325058560	44	5899
2026-01-11 12:11:59.28	35.83	7.81	-35.5	-36.6	22.2	0.00e+00	0	27	0	328204288	44	5932
2026-01-11 12:12:00.29	35.96	7.86	-35.4	-36.4	22.4	0.00e+00	0	27	0	331350016	44	5802
2026-01-11 12:12:01.29	36.09	7.90	-35.5	-36.5	22.2	0.00e+00	0	27	0	334495744	44	5924
2026-01-11 12:12:02.31	36.23	7.95	-35.5	-36.5	22.3	0.00e+00	0	27	0	337641472	44	5901
2026-01-11 12:12:03.32	36.36	8.00	-35.4	-36.4	22.4	0.00e+00	0	27	0	340787200	44	5823
2026-01-11 12:12:04.33	36.50	8.05	-35.3	-36.3	22.4	0.00e+00	0	27	0	343932928	44	5784
2026-01-11 12:12:05.33	36.63	8.10	-35.4	-36.4	22.4	0.00e+00	0	27	0	347078656	44	5827
2026-01-11 12:12:06.34	36.76	8.15	-35.4	-36.4	22.3	0.00e+00	0	27	0	350224384	44	5818
2026-01-11 12:12:07.35	36.90	8.20	-35.3	-36.3	22.5	0.00e+00	0	27	0	353370112	44	5752
2026-01-11 12:12:08.36	37.04	8.24	-35.3	-36.4	22.3	0.00e+00	0	27	0	356515840	44	5805
2026-01-11 12:12:09.37	37.17	8.29	-35.3	-36.4	22.4	0.00e+00	0	27	0	359661568	44	5799
2026-01-11 12:12:10.38	37.31	8.34	-35.2	-36.2	22.5	0.00e+00	0	27	0	362807296	44	5682
2026-01-11 12:12:11.39	37.45	8.39	-35.2	-36.2	22.4	0.00e+00	0	27	0	365953024	44	5701
2026-01-11 12:12:12.40	37.59	8.44	-35.2	-36.2	22.6	0.00e+00	0	27	0	369098752	44	5674
2026-01-11 12:12:13.41	37.72	8.49	-35.1	-36.2	22.5	0.00e+00	0	27	0	372244480	44	5663
2026-01-11 12:12:14.42	37.86	8.53	-35.2	-36.3	22.4	0.00e+00	0	27	0	375390208	44	5726
2026-01-11 12:12:15.43	38.00	8.58	-35.3	-36.3	22.5	0.00e+00	0	27	0	378535936	44	5755
2026-01-11 12:12:16.44	38.14	8.63	-35.3	-36.3	22.5	0.00e+00	0	27	0	381681664	44	5770
2026-01-11 12:12:17.45	38.28	8.68	-35.4	-36.4	22.4	0.00e+00	0	27	0	384827392	44	5828
2026-01-11 12:12:18.46	38.42	8.73	-35.2	-36.3	22.5	0.00e+00	0	27	0	387973120	44	5736
2026-01-11 12:12:19.47	38.56	8.77	-35.2	-36.2	22.5	0.00e+00	0	27	0	391118848	44	5694
2026-01-11 12:12:20.48	38.71	8.82	-35.4	-36.4	22.4	0.00e+00	0	27	0	394264576	44	5820
2026-01-11 12:12:21.49	38.85	8.87	-35.3	-36.3	22.6	0.00e+00	0	27	0	397410304	44	5741
2026-01-11 12:12:22.50	38.99	8.92	-35.4	-36.4	22.5	0.00e+00	0	27	0	400556032	44	5819
2026-01-11 12:12:23.51	39.13	8.97	-35.1	-36.1	22.7	0.00e+00	0	27	0	403701760	44	5616
2026-01-11 12:12:24.52	39.28	9.01	-35.2	-36.2	22.6	0.00e+00	0	27	0	406847488	44	5678
2026-01-11 12:12:25.53	39.42	9.06	-35.2	-36.1	22.7	0.00e+00	0	27	0	409993216	44	5654
2026-01-11 12:12:26.54	39.56	9.11	-35.2	-36.2	22.6	0.00e+00	0	27	0	413138944	44	5660
2026-01-11 12:12:27.54	39.71	9.15	-35.0	-36.0	22.7	0.00e+00	0	27	0	416284672	44	5567
2026-01-11 12:12:28.55	39.85	9.20	-35.0	-36.0	22.8	0.00e+00	0	27	0	419430400	44	5548
2026-01-11 12:12:29.56	40.00	9.25	-35.0	-36.0	22.8	0.00e+00	0	27	0	422576128	44	5548
2026-01-11 12:12:30.57	40.14	9.30	-34.9	-35.9	22.9	0.00e+00	0	27	0	425721856	44	5476
2026-01-11 12:12:31.58	40.29	9.34	-34.8	-35.8	22.9	0.00e+00	0	27	0	428867584	44	5411
2026-01-11 12:12:32.59	40.44	9.39	-34.8	-35.8	23.0	0.00e+00	0	27	0	432013312	44	5432
2026-01-11 12:12:33.60	40.58	9.44	-34.8	-35.8	23.0	0.00e+00	0	27	0	435159040	44	5424
2026-01-11 12:12:34.61	40.73	9.48	-34.8	-35.8	23.0	0.00e+00	0	27	0	438304768	42	6085
2026-01-11 12:12:35.62	40.88	9.53	-34.9	-35.9	22.9	0.00e+00	0	27	0	441450496	42	6139
2026-01-11 12:12:36.63	41.03	9.58	-34.9	-35.9	22.9	0.00e+00	0	27	0	444596224	42	6177
2026-01-11 12:12:37.64	41.18	9.63	-34.9	-35.9	22.9	0.00e+00	0	27	0	447741952	42	6145
2026-01-11 12:12:38.65	41.33	9.67	-35.0	-36.0	22.8	0.00e+00	0	27	0	450887680	42	6227
2026-01-11 12:12:39.66	41.48	9.72	-35.0	-35.9	22.9	0.00e+00	0	27	0	454033408	42	6192
2026-01-11 12:12:40.67	41.63	9.76	-35.0	-36.0	22.8	0.00e+00	0	27	0	457179136	42	6242
2026-01-11 12:12:41.68	41.78	9.81	-34.9	-35.8	22.9	0.00e+00	0	27	0	460324864	42	6133
2026-01-11 12:12:42.69	41.93	9.86	-35.0	-35.9	22.9	0.00e+00	0	27	0	463470592	42	6192
2026-01-11 12:12:43.70	42.08	9.90	-34.9	-35.9	22.9	0.00e+00	0	28	0	466616320	42	6172
2026-01-11 12:12:44.71	42.24	9.95	-35.0	-36.0	22.8	0.00e+00	0	28	0	469762048	42	6243
2026-01-11 12:12:45.72	42.39	10.00	-35.0	-36.0	22.8	0.00e+00	0	28	0	472907776	42	6243
2026-01-11 12:12:46.73	42.54	10.04	-34.9	-35.9	22.9	0.00e+00	0	27	0	476053504	42	6174
2026-01-11 12:12:47.74	42.70	10.09	-34.9	-35.9	22.9	0.00e+00	0	27	0	479199232	42	6158
2026-01-11 12:12:48.76	42.85	10.13	-35.0	-35.9	22.9	0.00e+00	0	27	0	482344960	42	6194
2026-01-11 12:12:49.77	43.01	10.18	-34.8	-35.8	23.0	0.00e+00	0	27	0	485490688	42	6107
2026-01-11 12:12:50.78	43.16	10.22	-34.9	-35.8	23.0	0.00e+00	0	27	0	488636416	42	6119
2026-01-11 12:12:51.79	43.32	10.27	-34.8	-35.8	23.1	0.00e+00	0	28	0	491782144	42	6079
2026-01-11 12:12:52.80	43.47	10.32	-34.8	-35.7	23.1	0.00e+00	0	27	0	494927872	42	6064
2026-01-11 12:12:53.81	43.63	10.36	-34.8	-35.8	23.0	0.00e+00	0	27	0	498073600	42	6076
2026-01-11 12:12:54.82	43.79	10.41	-34.9	-35.9	23.0	0.00e+00	0	28	0	501219328	42	6177
2026-01-11 12:12:55.83	43.95	10.45	-34.9	-35.9	23.0	0.00e+00	0	28	0	504365056	42	6161
2026-01-11 12:12:56.84	44.10	10.50	-34.8	-35.8	23.0	0.00e+00	0	28	0	507510784	42	6119
2026-01-11 12:12:57.85	44.26	10.54	-34.8	-35.8	23.0	0.00e+00	0	28	0	510656512	42	6091
2026-01-11 12:12:58.86	44.42	10.59	-35.0	-36.0	22.8	0.00e+00	0	28	0	513802240	42	6217
2026-01-11 12:12:59.87	44.58	10.63	-35.0	-36.0	22.9	0.00e+00	0	28	0	516947968	42	6206
2026-01-11 12:13:00.88	44.74	10.67	-35.0	-36.0	22.9	0.00e+00	0	28	0	520093696	42	6217
2026-01-11 12:13:01.89	44.90	10.72	-35.0	-35.9	22.9	0.00e+00	0	28	0	523239424	42	6198
2026-01-11 12:13:02.90	45.06	10.76	-35.2	-36.2	22.6	0.00e+00	0	28	0	526385152	42	6394
2026-01-11 12:13:03.91	45.22	10.81	-35.3	-36.4	22.6	0.00e+00	0	28	0	529530880	42	6504
2026-01-11 12:13:04.92	45.39	10.85	-35.3	-36.3	22.8	0.00e+00	0	28	0	532676608	42	6450
2026-01-11 12:13:05.93	45.55	10.90	-35.1	-36.1	22.9	0.00e+00	0	28	0	535822336	42	6297
2026-01-11 12:13:06.94	45.71	10.94	-35.2	-36.1	22.9	0.00e+00	0	28	0	538968064	42	6348
2026-01-11 12:13:07.95	45.87	10.98	-35.0	-36.0	22.9	0.00e+00	0	28	0	542113792	42	6234
2026-01-11 12:13:08.96	46.04	11.03	-35.2	-36.2	22.8	0.00e+00	0	28	0	545259520	42	6390
2026-01-11 12:13:09.97	46.20	11.07	-35.1	-36.0	23.1	0.00e+00	0	28	0	549453824	42	6275
2026-01-11 12:13:10.98	46.37	11.11	-35.1	-36.0	23.0	0.00e+00	0	28	0	552599552	42	6264
2026-01-11 12:13:11.99	46.53	11.16	-35.1	-36.1	23.0	0.00e+00	0	28	0	554696704	42	6327
2026-01-11 12:13:13.00	46.70	11.20	-34.8	-35.8	23.1	0.00e+00	0	28	0	557842432	42	6081
2026-01-11 12:13:14.01	46.86	11.24	-34.8	-35.7	23.1	0.00e+00	0	28	0	560988160	42	6059
2026-01-11 12:13:15.02	47.03	11.28	-34.7	-35.6	23.2	0.00e+00	0	28	0	565182464	42	5992
2026-01-11 12:13:16.03	47.20	11.33	-34.8	-35.7	23.3	0.00e+00	0	28	0	568328192	42	6025
2026-01-11 12:13:17.04	47.36	11.37	-34.8	-35.7	23.1	0.00e+00	0	28	0	571473920	42	6036
2026-01-11 12:13:18.05	47.53	11.41	-34.9	-35.9	23.1	0.00e+00	0	28	0	574619648	42	6138
2026-01-11 12:13:19.06	47.70	11.45	-34.9	-35.8	23.1	0.00e+00	0	28	0	577765376	42	6118
2026-01-11 12:13:20.07	47.87	11.50	-34.8	-35.8	23.2	0.00e+00	0	28	0	580911104	42	6095
2026-01-11 12:13:21.09	48.04	11.54	-35.0	-35.9	23.1	0.00e+00	0	28	0	584056832	42	6199
2026-01-11 12:13:22.10	48.21	11.58	-34.9	-35.9	23.0	0.00e+00	0	28	0	587202560	42	6164
2026-01-11 12:13:23.10	48.38	11.62	-34.8	-35.7	23.2	0.00e+00	0	28	0	590348288	42	6053
2026-01-11 12:13:24.12	48.55	11.66	-34.8	-35.7	23.2	0.00e+00	0	28	0	593494016	42	6051
2026-01-11 12:13:25.13	48.72	11.70	-34.9	-35.8	23.1	0.00e+00	0	28	0	596639744	42	6128
2026-01-11 12:13:26.13	48.89	11.74	-34.9	-35.9	23.0	0.00e+00	0	28	0	599785472	42	6193
2026-01-11 12:13:27.14	49.07	11.79	-35.1	-36.0	22.9	0.00e+00	0	28	0	602931200	42	6274
2026-01-11 12:13:28.16	49.24	11.83	-35.2	-36.2	22.9	0.00e+00	0	28	0	606076928	42	6352
2026-01-11 12:13:29.17	49.41	11.87	-35.3	-36.3	22.7	0.00e+00	0	28	0	609222656	42	6476
2026-01-11 12:13:30.17	49.58	11.91	-35.0	-36.0	23.0	0.00e+00	0	28	0	612368384	42	6254
2026-01-11 12:13:31.18	49.76	11.95	-35.0	-36.0	23.0	0.00e+00	0	28	0	615514112	42	6243
2026-01-11 12:13:32.19	49.93	11.99	-34.9	-35.9	23.0	0.00e+00	0	28	0	618659840	42	6159
2026-01-11 12:13:33.20	50.11	12.03	-34.8	-35.8	23.1	0.00e+00	0	28	0	621805568	42	6105
2026-01-11 12:13:34.21	50.28	12.07	-34.9	-35.9	23.1	0.00e+00	0	28	0	624951296	42	6175
2026-01-11 12:13:35.22	50.46	12.11	-34.9	-35.8	23.1	0.00e+00	0	28	0	628097024	42	6131
2026-01-11 12:13:36.23	50.64	12.15	-34.8	-35.8	23.1	0.00e+00	0	28	0	631242752	42	6112
2026-01-11 12:13:37.24	50.81	12.19	-34.8	-35.8	23.1	0.00e+00	0	28	0	634388480	42	6093
2026-01-11 12:13:38.25	50.99	12.22	-35.0	-35.9	23.0	0.00e+00	0	28	0	637534208	42	6195
2026-01-11 12:13:39.26	51.17	12.26	-34.9	-35.8	23.1	0.00e+00	0	28	0	640679936	42	6131
2026-01-11 12:13:40.27	51.35	12.30	-34.9	-35.8	23.2	0.00e+00	0	28	0	643825664	42	6113
2026-01-11 12:13:41.28	51.52	12.34	-34.9	-35.9	23.1	0.00e+00	0	28	0	646971392	42	6152
2026-01-11 12:13:42.30	51.71	12.38	-34.9	-35.9	23.0	0.00e+00	0	28	0	650117120	42	6141
2026-01-11 12:13:43.31	51.89	12.42	-34.8	-35.8	23.2	0.00e+00	0	28	0	653262848	42	6079
2026-01-11 12:13:44.32	52.07	12.46	-34.7	-35.6	23.2	0.00e+00	0	28	0	656408576	42	5970
2026-01-11 12:13:45.33	52.25	12.49	-34.8	-35.7	23.2	0.00e+00	0	28	0	659554304	42	6064
2026-01-11 12:13:46.34	52.43	12.53	-34.5	-35.5	23.3	0.00e+00	0	28	0	662700032	42	5866
2026-01-11 12:13:47.35	52.61	12.57	-34.5	-35.4	23.4	0.00e+00	0	28	0	665845760	42	5844
2026-01-11 12:13:48.36	52.79	12.60	-34.5	-35.5	23.3	0.00e+00	0	28	0	668991488	42	5905
2026-01-11 12:13:49.37	52.97	12.64	-34.6	-35.6	23.2	0.00e+00	0	28	0	672137216	42	5963
2026-01-11 12:13:50.38	53.16	12.68	-34.6	-35.5	23.3	0.00e+00	0	28	0	675282944	42	5901
2026-01-11 12:13:51.39	53.34	12.71	-34.6	-35.6	23.2	0.00e+00	0	28	0	678428672	42	5963
2026-01-11 12:13:52.40	53.52	12.75	-34.7	-35.7	23.1	0.00e+00	0	28	0	681574400	42	6031
2026-01-11 12:13:53.41	53.71	12.79	-34.7	-35.7	23.2	0.00e+00	0	28	0	684720128	42	6027
2026-01-11 12:13:54.42	53.89	12.82	-34.6	-35.6	23.3	0.00e+00	0	28	0	687865856	42	5941
2026-01-11 12:13:55.43	54.08	12.86	-34.6	-35.6	23.4	0.00e+00	0	28	0	691011584	42	5931
2026-01-11 12:13:56.44	54.26	12.89	-34.6	-35.6	23.3	0.00e+00	0	28	0	694157312	42	5935
2026-01-11 12:13:57.45	54.45	12.93	-34.6	-35.5	23.4	0.00e+00	0	28	0	697303040	42	5912
2026-01-11 12:13:58.46	54.63	12.96	-34.6	-35.5	23.4	0.00e+00	0	28	0	700448768	42	5920
2026-01-11 12:13:59.47	54.82	13.00	-34.7	-35.7	23.3	0.00e+00	0	28	0	703594496	42	5997
2026-01-11 12:14:00.48	55.01	13.03	-34.6	-35.5	23.3	0.00e+00	0	28	0	706740224	42	5898
2026-01-11 12:14:01.49	55.19	13.07	-34.6	-35.6	23.3	0.00e+00	0	28	0	709885952	42	5956
2026-01-11 12:14:02.50	55.38	13.10	-34.9	-35.8	23.1	0.00e+00	0	28	0	713031680	42	6120
2026-01-11 12:14:03.51	55.57	13.14	-34.7	-35.7	23.3	0.00e+00	0	28	0	716177408	42	6031
2026-01-11 12:14:04.52	55.76	13.17	-35.0	-36.0	23.1	0.00e+00	0	28	0	719323136	42	6235
2026-01-11 12:14:05.53	55.95	13.20	-34.9	-35.8	23.2	0.00e+00	0	28	0	722468864	42	6129
2026-01-11 12:14:06.54	56.14	13.24	-34.7	-35.7	23.4	0.00e+00	0	28	0	725614592	42	6000
2026-01-11 12:14:07.54	56.33	13.27	-34.5	-35.4	23.5	0.00e+00	0	28	0	728760320	42	5854
2026-01-11 12:14:08.55	56.52	13.30	-34.4	-35.4	23.6	0.00e+00	0	28	0	731906048	42	5809
2026-01-11 12:14:09.56	56.71	13.33	-34.5	-35.5	23.4	0.00e+00	0	28	0	735051776	42	5864
2026-01-11 12:14:10.57	56.90	13.37	-34.6	-35.5	23.4	0.00e+00	0	28	0	738197504	42	5892
2026-01-11 12:14:11.58	57.09	13.40	-34.7	-35.7	23.3	0.00e+00	0	28	0	741343232	42	6029
2026-01-11 12:14:12.59	57.28	13.43	-34.5	-35.4	23.4	0.00e+00	0	28	0	744488960	42	5840
2026-01-11 12:14:13.60	57.47	13.46	-34.6	-35.6	23.3	0.00e+00	0	28	0	747634688	42	5944
2026-01-11 12:14:14.61	57.67	13.49	-34.5	-35.4	23.4	0.00e+00	0	28	0	750780416	42	5843
2026-01-11 12:14:15.62	57.86	13.52	-34.6	-35.5	23.4	0.00e+00	0	28	0	753926144	42	5913
2026-01-11 12:14:16.63	58.05	13.55	-34.6	-35.5	23.4	0.00e+00	0	28	0	757071872	42	5914
2026-01-11 12:14:17.64	58.25	13.58	-34.4	-35.3	23.6	0.00e+00	0	28	0	760217600	42	5783
2026-01-11 12:14:18.65	58.44	13.61	-34.4	-35.3	23.5	0.00e+00	0	28	0	763363328	42	5778
2026-01-11 12:14:19.66	58.64	13.64	-34.4	-35.3	23.6	0.00e+00	0	28	0	766509056	42	5777
2026-01-11 12:14:20.67	58.83	13.67	-34.2	-35.2	23.7	0.00e+00	0	28	0	769654784	42	5660
2026-01-11 12:14:21.68	59.03	13.70	-34.4	-35.3	23.6	0.00e+00	0	28	0	772800512	42	5766
2026-01-11 12:14:22.69	59.22	13.73	-34.3	-35.2	23.6	0.00e+00	0	28	0	775946240	42	5694
2026-01-11 12:14:23.70	59.42	13.76	-34.3	-35.2	23.6	0.00e+00	0	28	0	779091968	42	5690
2026-01-11 12:14:24.71	59.62	13.79	-34.2	-35.2	23.6	0.00e+00	0	28	0	782237696	42	5664
2026-01-11 12:14:25.72	59.81	13.82	-34.3	-35.2	23.5	0.00e+00	0	28	0	785383424	42	5696
2026-01-11 12:14:26.73	60.01	13.84	-34.5	-35.5	23.4	0.00e+00	0	28	0	788529152	42	5877
2026-01-11 12:14:27.74	60.21	13.87	-34.4	-35.3	23.5	0.00e+00	0	28	0	791674880	42	5791
2026-01-11 12:14:28.75	60.41	13.90	-34.5	-35.4	23.5	0.00e+00	0	28	0	794820608	42	5826
2026-01-11 12:14:29.76	60.61	13.93	-34.5	-35.5	23.5	0.00e+00	0	28	0	797966336	42	5862
2026-01-11 12:14:30.77	60.81	13.95	-34.4	-35.3	23.6	0.00e+00	0	28	0	801112064	42	5756
2026-01-11 12:14:31.78	61.00	13.98	-34.2	-35.1	23.8	0.00e+00	0	28	0	804257792	42	5640
2026-01-11 12:14:32.79	61.20	14.01	-34.2	-35.1	23.7	0.00e+00	0	28	0	807403520	42	5605
2026-01-11 12:14:33.80	61.40	14.03	-34.2	-35.2	23.7	0.00e+00	0	28	0	810549248	42	5668
2026-01-11 12:14:34.81	61.60	14.06	-34.3	-35.2	23.6	0.00e+00	0	28	0	813694976	42	5690
2026-01-11 12:14:35.82	61.80	14.08	-34.1	-35.0	23.7	0.00e+00	0	28	0	816840704	42	5588
2026-01-11 12:14:36.82	62.00	14.11	-34.1	-35.1	23.6	0.00e+00	0	28	0	819986432	42	5618
2026-01-11 12:14:37.83	62.21	14.13	-34.2	-35.1	23.7	0.00e+00	0	28	0	823132160	42	5637
2026-01-11 12:14:38.84	62.41	14.16	-34.2	-35.1	23.7	0.00e+00	0	28	0	826277888	42	5652
2026-01-11 12:14:39.85	62.61	14.18	-34.2	-35.1	23.7	0.00e+00	0	28	0	829423616	42	5625
2026-01-11 12:14:40.86	62.81	14.21	-34.2	-35.1	23.7	0.00e+00	0	28	0	832569344	42	5645
2026-01-11 12:14:41.87	63.01	14.23	-34.1	-35.1	23.8	0.00e+00	0	28	0	835715072	42	5606
2026-01-11 12:14:42.88	63.22	14.25	-34.0	-34.9	23.9	0.00e+00	0	28	0	838860800	42	5527
2026-01-11 12:14:43.89	63.42	14.28	-34.0	-35.0	23.9	0.00e+00	0	28	0	842006528	42	5531
2026-01-11 12:14:44.90	63.62	14.30	-34.0	-34.9	23.8	0.00e+00	0	29	0	845152256	42	5523
2026-01-11 12:14:45.90	63.82	14.32	-34.1	-35.0	23.8	0.00e+00	0	28	0	848297984	42	5587
2026-01-11 12:14:46.91	64.03	14.34	-34.3	-35.2	23.7	0.00e+00	0	29	0	851443712	42	5698
2026-01-11 12:14:47.92	64.23	14.36	-34.3	-35.2	23.6	0.00e+00	0	29	0	854589440	42	5719
2026-01-11 12:14:48.93	64.44	14.39	-34.3	-35.3	23.6	0.00e+00	0	29	0	857735168	42	5737
2026-01-11 12:14:49.94	64.64	14.41	-34.5	-35.4	23.5	0.00e+00	0	28	0	860880896	42	5831
2026-01-11 12:14:50.95	64.85	14.43	-34.4	-35.3	23.6	0.00e+00	0	28	0	864026624	42	5775
2026-01-11 12:14:51.96	65.05	14.45	-34.1	-35.0	23.7	0.00e+00	0	29	0	867172352	42	5591
2026-01-11 12:14:52.97	65.26	14.47	-34.0	-35.0	23.8	0.00e+00	0	28	0	871366656	42	5544
2026-01-11 12:14:53.98	65.47	14.49	-34.0	-34.9	23.8	0.00e+00	0	28	0	873463808	42	5482
2026-01-11 12:14:54.99	65.67	14.51	-33.9	-34.9	23.8	0.00e+00	0	29	0	876609536	42	5483
2026-01-11 12:14:56.00	65.88	14.53	-34.1	-35.0	23.7	0.00e+00	0	28	0	879755264	42	5555
2026-01-11 12:14:57.01	66.09	14.54	-34.0	-34.9	23.7	0.00e+00	0	29	0	882900992	42	5516
2026-01-11 12:14:58.02	66.29	14.56	-34.0	-35.0	23.7	0.00e+00	0	29	0	887095296	42	5551
2026-01-11 12:14:59.03	66.50	14.58	-34.0	-34.9	23.8	0.00e+00	0	29	0	890241024	42	5512
2026-01-11 12:15:00.04	66.71	14.60	-34.0	-34.9	23.8	0.00e+00	0	29	0	893386752	42	5519
2026-01-11 12:15:01.05	66.92	14.62	-34.0	-35.0	23.7	0.00e+00	0	29	0	895483904	42	5545
2026-01-11 12:15:02.06	67.12	14.63	-34.0	-34.9	23.8	0.00e+00	0	29	0	898629632	42	5529
2026-01-11 12:15:03.07	67.33	14.65	-34.0	-34.9	23.8	0.00e+00	0	29	0	902823936	42	5502
2026-01-11 12:15:04.08	67.54	14.67	-34.2	-35.1	23.5	0.00e+00	0	28	0	905969664	42	5631
2026-01-11 12:15:05.09	67.75	14.68	-34.2	-35.2	23.5	0.00e+00	0	29	0	909115392	42	5682
2026-01-11 12:15:06.10	67.96	14.70	-34.0	-35.0	23.8	0.00e+00	0	29	0	912261120	42	5545
2026-01-11 12:15:07.11	68.17	14.71	-34.0	-35.0	23.8	0.00e+00	0	29	0	915406848	42	5557
2026-01-11 12:15:08.12	68.38	14.73	-34.1	-35.0	23.8	0.00e+00	0	29	0	918552576	42	5588
2026-01-11 12:15:09.13	68.59	14.74	-34.1	-35.1	23.7	0.00e+00	0	29	0	921698304	42	5618
2026-01-11 12:15:10.14	68.80	14.76	-34.1	-35.1	23.7	0.00e+00	0	29	0	924844032	42	5624
2026-01-11 12:15:11.15	69.01	14.77	-34.2	-35.2	23.7	0.00e+00	0	29	0	927989760	42	5691
2026-01-11 12:15:12.16	69.22	14.79	-34.1	-35.1	23.8	0.00e+00	0	29	0	931135488	42	5608
2026-01-11 12:15:13.17	69.43	14.80	-34.1	-35.0	23.7	0.00e+00	0	29	0	934281216	42	5569
2026-01-11 12:15:14.18	69.64	14.81	-34.3	-35.2	23.6	0.00e+00	0	29	0	937426944	42	5711
2026-01-11 12:15:15.19	69.85	14.82	-34.4	-35.3	23.5	0.00e+00	0	29	0	940572672	42	5784
2026-01-11 12:15:16.20	70.06	14.84	-34.4	-35.4	23.4	0.00e+00	0	29	0	943718400	42	5845
2026-01-11 12:15:17.21	70.27	14.85	-34.4	-35.4	23.4	0.00e+00	0	29	0	946864128	42	5800
2026-01-11 12:15:18.22	70.48	14.86	-34.4	-35.3	23.4	0.00e+00	0	29	0	950009856	42	5788
2026-01-11 12:15:19.23	70.69	14.87	-34.4	-35.4	23.4	0.00e+00	0	29	0	953155584	42	5806
2026-01-11 12:15:20.24	70.91	14.88	-34.3	-35.3	23.6	0.00e+00	0	29	0	956301312	42	5729
2026-01-11 12:15:21.25	71.12	14.89	-34.1	-35.0	23.7	0.00e+00	0	29	0	959447040	42	5591
2026-01-11 12:15:22.26	71.33	14.90	-34.0	-35.0	23.8	0.00e+00	0	29	0	962592768	42	5533
2026-01-11 12:15:23.27	71.54	14.91	-34.2	-35.1	23.6	0.00e+00	0	29	0	965738496	42	5632
2026-01-11 12:15:24.28	71.75	14.92	-34.2	-35.2	23.5	0.00e+00	0	29	0	968884224	42	5682
2026-01-11 12:15:25.28	71.96	14.93	-34.2	-35.1	23.6	0.00e+00	0	29	0	972029952	42	5654
2026-01-11 12:15:26.30	72.18	14.94	-34.3	-35.2	23.5	0.00e+00	0	29	0	975175680	42	5705
2026-01-11 12:15:27.31	72.39	14.95	-34.2	-35.1	23.6	0.00e+00	0	29	0	978321408	42	5657
2026-01-11 12:15:28.32	72.60	14.96	-34.4	-35.3	23.5	0.00e+00	0	29	0	981467136	42	5765
2026-01-11 12:15:29.32	72.81	14.96	-34.4	-35.3	23.6	0.00e+00	0	29	0	984612864	42	5784
2026-01-11 12:15:30.33	73.03	14.97	-34.5	-35.4	23.4	0.00e+00	0	29	0	987758592	42	5831
2026-01-11 12:15:31.34	73.24	14.98	-34.3	-35.3	23.6	0.00e+00	0	29	0	990904320	42	5738
2026-01-11 12:15:32.35	73.45	14.98	-34.3	-35.2	23.6	0.00e+00	0	29	0	994050048	42	5689
2026-01-11 12:15:33.36	73.67	14.99	-34.4	-35.3	23.5	0.00e+00	0	29	0	997195776	42	5769
2026-01-11 12:15:34.37	73.88	15.00	-34.4	-35.3	23.5	0.00e+00	0	29	0	1000341504	42	5787
2026-01-11 12:15:35.38	74.09	15.00	-34.2	-35.2	23.6	0.00e+00	0	29	0	1003487232	42	5682
2026-01-11 12:15:36.39	74.31	15.01	-34.3	-35.2	23.6	0.00e+00	0	29	0	1006632960	42	5717
2026-01-11 12:15:37.40	74.52	15.01	-34.2	-35.2	23.6	0.00e+00	0	29	0	1009778688	42	5666
2026-01-11 12:15:38.41	74.73	15.02	-34.4	-35.3	23.5	0.00e+00	0	29	0	1012924416	42	5777
2026-01-11 12:15:39.42	74.95	15.02	-34.2	-35.1	23.7	0.00e+00	0	29	0	1016070144	42	5630
2026-01-11 12:15:40.43	75.16	15.02	-34.3	-35.2	23.6	0.00e+00	0	29	0	1019215872	42	5716
2026-01-11 12:15:41.45	75.38	15.03	-34.3	-35.2	23.6	0.00e+00	0	29	0	1022361600	42	5706
2026-01-11 12:15:42.46	75.59	15.03	-34.3	-35.3	23.5	0.00e+00	0	29	0	1025507328	42	5755
2026-01-11 12:15:43.46	75.80	15.03	-34.2	-35.1	23.7	0.00e+00	0	29	0	1028653056	42	5657
2026-01-11 12:15:44.48	76.02	15.03	-34.3	-35.3	23.5	0.00e+00	0	29	0	1031798784	42	5749
2026-01-11 12:15:45.49	76.23	15.04	-34.2	-35.2	23.6	0.00e+00	0	29	0	1034944512	42	5694
2026-01-11 12:15:46.49	76.44	15.04	-34.2	-35.1	23.7	0.00e+00	0	29	0	1038090240	42	5631
2026-01-11 12:15:47.51	76.66	15.04	-34.2	-35.1	23.7	0.00e+00	0	29	0	1041235968	42	5625
2026-01-11 12:15:48.52	76.87	15.04	-34.2	-35.1	23.7	0.00e+00	0	29	0	1044381696	42	5630
2026-01-11 12:15:49.53	77.09	15.04	-34.0	-34.9	23.9	0.00e+00	0	29	0	1047527424	42	5510
2026-01-11 12:15:50.54	77.30	15.04	-34.0	-35.0	23.7	0.00e+00	0	29	0	1050673152	42	5553
2026-01-11 12:15:51.54	77.51	15.04	-33.9	-34.8	23.9	0.00e+00	0	29	0	1053818880	42	5443
2026-01-11 12:15:52.55	77.73	15.04	-34.0	-34.9	23.9	0.00e+00	0	29	0	1056964608	42	5506
2026-01-11 12:15:53.56	77.94	15.04	-33.9	-34.8	23.9	0.00e+00	0	29	0	1060110336	42	5467
2026-01-11 12:15:54.57	78.16	15.03	-34.0	-34.9	23.9	0.00e+00	0	29	0	1063256064	42	5525
2026-01-11 12:15:55.58	78.37	15.03	-34.0	-35.0	23.9	0.00e+00	0	29	0	1066401792	42	5542
2026-01-11 12:15:56.59	78.58	15.03	-34.2	-35.1	23.7	0.00e+00	0	29	0	1069547520	42	5622
2026-01-11 12:15:57.60	78.80	15.03	-34.1	-35.1	23.8	0.00e+00	0	29	0	1072693248	42	5608
2026-01-11 12:15:58.61	79.01	15.02	-34.1	-35.0	23.8	0.00e+00	0	29	0	1075838976	42	5556
2026-01-11 12:15:59.62	79.23	15.02	-34.0	-35.0	23.9	0.00e+00	0	29	0	1078984704	42	5545
2026-01-11 12:16:00.63	79.44	15.02	-34.1	-35.1	23.8	0.00e+00	0	29	0	1082130432	42	5603
2026-01-11 12:16:01.64	79.65	15.01	-34.1	-35.1	23.7	0.00e+00	0	29	0	1085276160	42	5624
2026-01-11 12:16:02.65	79.87	15.01	-34.2	-35.1	23.7	0.00e+00	0	29	0	1088421888	42	5636
2026-01-11 12:16:03.66	80.08	15.00	-34.1	-35.0	23.7	0.00e+00	0	29	0	1091567616	42	5577
2026-01-11 12:16:04.67	80.29	15.00	-34.3	-35.3	23.6	0.00e+00	0	29	0	1094713344	42	5736
2026-01-11 12:16:05.68	80.51	14.99	-34.1	-35.1	23.6	0.00e+00	0	29	0	1097859072	42	5606
2026-01-11 12:16:06.69	80.72	14.98	-34.2	-35.2	23.6	0.00e+00	0	29	0	1101004800	42	5706
2026-01-11 12:16:07.70	80.93	14.98	-34.3	-35.3	23.5	0.00e+00	0	29	0	1104150528	42	5730
2026-01-11 12:16:08.71	81.15	14.97	-34.3	-35.2	23.6	0.00e+00	0	29	0	1107296256	42	5703
2026-01-11 12:16:09.72	81.36	14.96	-34.2	-35.2	23.6	0.00e+00	0	29	0	1110441984	42	5702
2026-01-11 12:16:10.73	81.57	14.96	-34.1	-35.1	23.6	0.00e+00	0	29	0	1113587712	42	5613
2026-01-11 12:16:11.74	81.79	14.95	-34.2	-35.2	23.6	0.00e+00	0	29	0	1116733440	42	5710
2026-01-11 12:16:12.75	82.00	14.94	-34.2	-35.2	23.6	0.00e+00	0	29	0	1119879168	42	5713
2026-01-11 12:16:13.76	82.21	14.93	-34.2	-35.1	23.6	0.00e+00	0	29	0	1123024896	42	5656
2026-01-11 12:16:14.77	82.43	14.92	-34.4	-35.3	23.4	0.00e+00	0	29	0	1126170624	42	5774
2026-01-11 12:16:15.78	82.64	14.91	-34.5	-35.4	23.4	0.00e+00	0	29	0	1129316352	42	5841
2026-01-11 12:16:16.79	82.85	14.90	-34.4	-35.4	23.2	0.00e+00	0	29	0	1132462080	42	5841
2026-01-11 12:16:17.80	83.06	14.89	-34.7	-35.7	23.2	0.00e+00	0	29	0	1135607808	42	6004
2026-01-11 12:16:18.82	83.28	14.88	-34.7	-35.7	23.1	0.00e+00	0	29	0	1138753536	42	6001
2026-01-11 12:16:19.82	83.49	14.87	-34.4	-35.4	23.5	0.00e+00	0	29	0	1141899264	42	5803
2026-01-11 12:16:20.83	83.70	14.86	-34.5	-35.4	23.5	0.00e+00	0	29	0	1145044992	42	5825
2026-01-11 12:16:21.84	83.91	14.85	-34.4	-35.3	23.5	0.00e+00	0	29	0	1148190720	42	5771
2026-01-11 12:16:22.85	84.12	14.84	-34.3	-35.2	23.7	0.00e+00	0	29	0	1151336448	42	5673
2026-01-11 12:16:23.86	84.33	14.82	-34.3	-35.2	23.8	0.00e+00	0	29	0	1154482176	42	5714
2026-01-11 12:16:24.87	84.54	14.81	-34.2	-35.1	23.7	0.00e+00	0	29	0	1157627904	42	5630
2026-01-11 12:16:25.88	84.75	14.80	-34.3	-35.2	23.6	0.00e+00	0	29	0	1160773632	42	5713
2026-01-11 12:16:26.89	84.96	14.79	-34.2	-35.2	23.6	0.00e+00	0	29	0	1163919360	42	5678
2026-01-11 12:16:27.90	85.18	14.77	-34.2	-35.2	23.7	0.00e+00	0	29	0	1167065088	42	5674
2026-01-11 12:16:28.92	85.39	14.76	-34.0	-35.0	23.8	0.00e+00	0	29	0	1170210816	42	5557
2026-01-11 12:16:29.93	85.60	14.74	-34.2	-35.2	23.6	0.00e+00	0	29	0	1173356544	42	5665
2026-01-11 12:16:30.94	85.81	14.73	-34.1	-35.1	23.7	0.00e+00	0	29	0	1176502272	42	5621
2026-01-11 12:16:31.95	86.02	14.71	-34.4	-35.3	23.6	0.00e+00	0	29	0	1179648000	42	5773
2026-01-11 12:16:32.96	86.23	14.70	-34.3	-35.3	23.5	0.00e+00	0	29	0	1182793728	42	5752
2026-01-11 12:16:33.97	86.44	14.68	-34.2	-35.2	23.7	0.00e+00	0	29	0	1186988032	42	5664
2026-01-11 12:16:34.98	86.65	14.67	-34.2	-35.2	23.7	0.00e+00	0	29	0	1189085184	42	5665
2026-01-11 12:16:35.99	86.86	14.65	-34.3	-35.2	23.7	0.00e+00	0	29	0	1192230912	42	5724
2026-01-11 12:16:37.00	87.06	14.63	-34.3	-35.3	23.6	0.00e+00	0	29	0	1195376640	42	5743
2026-01-11 12:16:38.01	87.27	14.62	-34.1	-35.1	23.8	0.00e+00	0	29	0	1198522368	42	5602
2026-01-11 12:16:39.02	87.48	14.60	-34.2	-35.1	23.7	0.00e+00	0	29	0	1202716672	42	5640
2026-01-11 12:16:40.03	87.69	14.58	-34.1	-35.0	23.9	0.00e+00	0	29	0	1205862400	42	5580
2026-01-11 12:16:41.04	87.90	14.56	-34.1	-35.0	23.8	0.00e+00	0	29	0	1209008128	42	5592
2026-01-11 12:16:42.05	88.10	14.54	-34.2	-35.1	23.8	0.00e+00	0	29	0	1212153856	42	5617
2026-01-11 12:16:43.06	88.31	14.53	-34.3	-35.2	23.7	0.00e+00	0	29	0	1214251008	42	5685
2026-01-11 12:16:44.07	88.52	14.51	-34.2	-35.2	23.7	0.00e+00	0	29	0	1217396736	42	5692
2026-01-11 12:16:45.08	88.73	14.49	-34.1	-35.1	23.8	0.00e+00	0	29	0	1221591040	42	5619
2026-01-11 12:16:46.09	88.93	14.47	-34.3	-35.3	23.6	0.00e+00	0	29	0	1224736768	42	5756
2026-01-11 12:16:47.10	89.14	14.45	-34.2	-35.1	23.8	0.00e+00	0	29	0	1227882496	42	5626
2026-01-11 12:16:48.11	89.34	14.43	-34.3	-35.2	23.6	0.00e+00	0	29	0	1231028224	42	5715
2026-01-11 12:16:49.12	89.55	14.41	-34.2	-35.1	23.7	0.00e+00	0	29	0	1234173952	42	5644
2026-01-11 12:16:50.13	89.76	14.38	-34.1	-35.1	23.7	0.00e+00	0	29	0	1237319680	42	5609
2026-01-11 12:16:51.14	89.96	14.36	-34.1	-35.1	23.8	0.00e+00	0	29	0	1240465408	42	5623
2026-01-11 12:16:52.15	90.17	14.34	-34.1	-35.1	23.8	0.00e+00	0	29	0	1243611136	42	5609
2026-01-11 12:16:53.15	90.37	14.32	-34.3	-35.2	23.7	0.00e+00	0	29	0	1246756864	42	5722
2026-01-11 12:16:54.16	90.57	14.30	-34.0	-34.9	23.9	0.00e+00	0	29	0	1249902592	42	5527
2026-01-11 12:16:55.17	90.78	14.27	-34.0	-34.9	23.8	0.00e+00	0	29	0	1253048320	42	5518
2026-01-11 12:16:56.18	90.98	14.25	-34.0	-34.9	23.9	0.00e+00	0	29	0	1256194048	42	5502
2026-01-11 12:16:57.19	91.18	14.23	-34.1	-35.1	23.7	0.00e+00	0	29	0	1259339776	42	5622
2026-01-11 12:16:58.20	91.39	14.20	-34.0	-34.9	23.8	0.00e+00	0	29	0	1262485504	42	5527
2026-01-11 12:16:59.21	91.59	14.18	-34.1	-35.1	23.7	0.00e+00	0	29	0	1265631232	42	5630
2026-01-11 12:17:00.22	91.79	14.16	-34.1	-35.0	23.7	0.00e+00	0	29	0	1268776960	42	5589
2026-01-11 12:17:01.23	91.99	14.13	-34.0	-35.0	23.7	0.00e+00	0	29	0	1271922688	42	5534
2026-01-11 12:17:02.24	92.20	14.11	-34.1	-35.0	23.8	0.00e+00	0	29	0	1275068416	42	5588
2026-01-11 12:17:03.25	92.40	14.08	-34.1	-35.0	23.8	0.00e+00	0	29	0	1278214144	42	5574
2026-01-11 12:17:04.26	92.60	14.06	-34.1	-35.1	23.7	0.00e+00	0	29	0	1281359872	42	5609
2026-01-11 12:17:05.27	92.80	14.03	-34.2	-35.1	23.6	0.00e+00	0	29	0	1284505600	42	5653
2026-01-11 12:17:06.28	93.00	14.00	-34.1	-35.1	23.7	0.00e+00	0	29	0	1287651328	42	5620
2026-01-11 12:17:07.29	93.20	13.98	-34.4	-35.4	23.6	0.00e+00	0	29	0	1290797056	42	5800
2026-01-11 12:17:08.30	93.40	13.95	-34.3	-35.3	23.6	0.00e+00	0	29	0	1293942784	42	5727
2026-01-11 12:17:09.31	93.60	13.92	-34.4	-35.4	23.6	0.00e+00	0	29	0	1297088512	42	5792
2026-01-11 12:17:10.32	93.80	13.90	-34.2	-35.1	23.7	0.00e+00	0	29	0	1300234240	42	5642
2026-01-11 12:17:11.33	94.00	13.87	-34.3	-35.2	23.6	0.00e+00	0	29	0	1303379968	42	5706
2026-01-11 12:17:12.34	94.19	13.84	-34.2	-35.1	23.6	0.00e+00	0	29	0	1306525696	42	5659
2026-01-11 12:17:13.34	94.39	13.81	-34.3	-35.2	23.7	0.00e+00	0	29	0	1309671424	42	5723
2026-01-11 12:17:14.35	94.59	13.79	-34.2	-35.2	23.6	0.00e+00	0	29	0	1312817152	42	5685
2026-01-11 12:17:15.36	94.79	13.76	-34.3	-35.3	23.5	0.00e+00	0	29	0	1315962880	42	5758
2026-01-11 12:17:16.37	94.98	13.73	-34.3	-35.3	23.5	0.00e+00	0	29	0	1319108608	42	5751
2026-01-11 12:17:17.38	95.18	13.70	-34.3	-35.3	23.6	0.00e+00	0	29	0	1322254336	42	5735
2026-01-11 12:17:18.39	95.38	13.67	-34.4	-35.3	23.5	0.00e+00	0	29	0	1325400064	42	5780
2026-01-11 12:17:19.40	95.57	13.64	-34.3	-35.2	23.5	0.00e+00	0	29	0	1328545792	42	5704
2026-01-11 12:17:20.41	95.77	13.61	-34.4	-35.4	23.4	0.00e+00	0	29	0	1331691520	42	5825
2026-01-11 12:17:21.42	95.96	13.58	-34.0	-35.0	23.8	0.00e+00	0	29	0	1334837248	42	5531
2026-01-11 12:17:22.43	96.16	13.55	-34.1	-35.0	23.7	0.00e+00	0	29	0	1337982976	42	5580
2026-01-11 12:17:23.44	96.35	13.52	-34.0	-34.9	23.8	0.00e+00	0	29	0	1341128704	42	5530
2026-01-11 12:17:24.45	96.54	13.49	-34.1	-35.0	23.7	0.00e+00	0	30	0	1344274432	42	5581
2026-01-11 12:17:25.46	96.74	13.46	-34.1	-35.0	23.8	0.00e+00	0	29	0	1347420160	42	5564
2026-01-11 12:17:26.47	96.93	13.42	-34.1	-35.0	23.8	0.00e+00	0	29	0	1350565888	42	5546
2026-01-11 12:17:27.48	97.12	13.39	-34.1	-35.1	23.7	0.00e+00	0	29	0	1353711616	42	5603
2026-01-11 12:17:28.49	97.32	13.36	-34.0	-35.0	23.8	0.00e+00	0	29	0	1356857344	42	5544
2026-01-11 12:17:29.50	97.51	13.33	-34.2	-35.2	23.6	0.00e+00	0	29	0	1360003072	42	5673
2026-01-11 12:17:30.51	97.70	13.29	-34.1	-35.1	23.7	0.00e+00	0	29	0	1363148800	42	5614
2026-01-11 12:17:31.52	97.89	13.26	-34.1	-35.1	23.7	0.00e+00	0	29	0	1366294528	42	5598
2026-01-11 12:17:32.53	98.08	13.23	-34.0	-35.0	23.7	0.00e+00	0	29	0	1369440256	42	5542
2026-01-11 12:17:33.54	98.27	13.20	-34.0	-35.0	23.7	0.00e+00	0	29	0	1372585984	42	5541
2026-01-11 12:17:34.55	98.46	13.16	-33.9	-34.8	23.8	0.00e+00	0	29	0	1375731712	42	5432
2026-01-11 12:17:35.56	98.65	13.13	-34.1	-35.0	23.6	0.00e+00	0	30	0	1378877440	42	5560
2026-01-11 12:17:36.57	98.84	13.09	-33.9	-34.8	23.8	0.00e+00	0	29	0	1382023168	42	5457
2026-01-11 12:17:37.58	99.03	13.06	-34.0	-34.9	23.7	0.00e+00	0	30	0	1385168896	42	5528
2026-01-11 12:17:38.59	99.22	13.03	-33.9	-34.8	23.8	0.00e+00	0	29	0	1388314624	42	5458
2026-01-11 12:17:39.60	99.40	12.99	-34.1	-35.1	23.7	0.00e+00	0	30	0	1391460352	42	5600
2026-01-11 12:17:40.61	99.59	12.96	-34.0	-34.9	23.8	0.00e+00	0	29	0	1394606080	42	5506
2026-01-11 12:17:41.62	99.78	12.92	-34.2	-35.1	23.6	0.00e+00	0	30	0	1397751808	42	5656
2026-01-11 12:17:42.63	99.97	12.88	-34.1	-35.1	23.7	0.00e+00	0	30	0	1400897536	42	5599
2026-01-11 12:17:43.64	100.15	12.85	-34.2	-35.1	23.6	0.00e+00	0	30	0	1404043264	42	5605
2026-01-11 12:17:44.65	100.34	12.81	-34.2	-35.1	23.6	0.00e+00	0	30	0	1407188992	42	5624
2026-01-11 12:17:45.66	100.52	12.78	-34.2	-35.1	23.6	0.00e+00	0	30	0	1410334720	42	5618
2026-01-11 12:17:46.67	100.71	12.74	-34.2	-35.2	23.5	0.00e+00	0	30	0	1413480448	42	5683
2026-01-11 12:17:47.68	100.89	12.70	-34.2	-35.1	23.5	0.00e+00	0	30	0	1416626176	42	5634
2026-01-11 12:17:48.69	101.07	12.67	-34.1	-35.1	23.5	0.00e+00	0	30	0	1419771904	42	5610
2026-01-11 12:17:49.70	101.26	12.63	-34.1	-35.0	23.6	0.00e+00	0	30	0	1422917632	42	5581
2026-01-11 12:17:50.71	101.44	12.59	-34.2	-35.1	23.5	0.00e+00	0	30	0	1426063360	42	5623
2026-01-11 12:17:51.72	101.62	12.56	-34.1	-35.1	23.6	0.00e+00	0	30	0	1429209088	42	5598
2026-01-11 12:17:52.73	101.81	12.52	-34.1	-35.0	23.7	0.00e+00	0	30	0	1432354816	42	5582
2026-01-11 12:17:53.74	101.99	12.48	-34.1	-35.1	23.7	0.00e+00	0	30	0	1435500544	42	5608
2026-01-11 12:17:54.75	102.17	12.44	-34.2	-35.1	23.6	0.00e+00	0	30	0	1438646272	42	5646
2026-01-11 12:17:55.75	102.35	12.41	-34.2	-35.2	23.6	0.00e+00	0	30	0	1441792000	42	5678
2026-01-11 12:17:56.76	102.53	12.37	-34.3	-35.2	23.5	0.00e+00	0	30	0	1444937728	42	5710
2026-01-11 12:17:57.77	102.71	12.33	-34.4	-35.4	23.4	0.00e+00	0	30	0	1448083456	42	5803
2026-01-11 12:17:58.78	102.89	12.29	-34.5	-35.5	23.3	0.00e+00	0	30	0	1451229184	42	5926
2026-01-11 12:17:59.79	103.07	12.25	-34.4	-35.5	23.3	0.00e+00	0	30	0	1454374912	42	5874
2026-01-11 12:18:00.80	103.24	12.21	-34.6	-35.6	23.2	0.00e+00	0	30	0	1457520640	42	5986
2026-01-11 12:18:01.81	103.42	12.17	-34.5	-35.5	23.3	0.00e+00	0	30	0	1460666368	42	5922
2026-01-11 12:18:02.82	103.60	12.13	-34.5	-35.5	23.3	0.00e+00	0	30	0	1463812096	42	5901
2026-01-11 12:18:03.83	103.78	12.09	-34.6	-35.6	23.3	0.00e+00	0	30	0	1466957824	42	5961
2026-01-11 12:18:04.84	103.95	12.05	-34.7	-35.6	23.2	0.00e+00	0	29	0	1470103552	42	5983
2026-01-11 12:18:05.85	104.13	12.01	-34.4	-35.4	23.3	0.00e+00	0	30	0	1473249280	42	5815
2026-01-11 12:18:06.86	104.31	11.97	-34.5	-35.4	23.3	0.00e+00	0	30	0	1476395008	42	5845
2026-01-11 12:18:07.86	104.48	11.93	-34.4	-35.4	23.3	0.00e+00	0	30	0	1479540736	42	5809
2026-01-11 12:18:08.87	104.65	11.89	-34.6	-35.5	23.3	0.00e+00	0	30	0	1482686464	42	5922
2026-01-11 12:18:09.88	104.83	11.85	-34.5	-35.4	23.3	0.00e+00	0	30	0	1485832192	42	5829
2026-01-11 12:18:10.89	105.00	11.81	-34.6	-35.5	23.3	0.00e+00	0	30	0	1488977920	42	5919
2026-01-11 12:18:11.90	105.17	11.77	-34.5	-35.4	23.4	0.00e+00	0	30	0	1492123648	42	5849
2026-01-11 12:18:12.91	105.35	11.73	-34.5	-35.5	23.3	0.00e+00	0	30	0	1495269376	42	5893
2026-01-11 12:18:13.92	105.52	11.69	-34.7	-35.7	23.1	0.00e+00	0	30	0	1498415104	42	6041
2026-01-11 12:18:14.93	105.69	11.65	-34.8	-35.7	23.1	0.00e+00	0	30	0	1501560832	42	6037
2026-01-11 12:18:15.94	105.86	11.60	-34.9	-35.8	22.9	0.00e+00	0	30	0	1504706560	42	6124
2026-01-11 12:18:16.95	106.03	11.56	-34.7	-35.7	23.1	0.00e+00	0	30	0	1507852288	42	6023
2026-01-11 12:18:17.96	106.21	11.52	-34.7	-35.6	23.1	0.00e+00	0	30	0	1510998016	42	5994
2026-01-11 12:18:18.97	106.38	11.48	-34.8	-35.8	22.9	0.00e+00	0	30	0	1514143744	42	6090
2026-01-11 12:18:19.98	106.54	11.44	-34.7	-35.7	22.9	0.00e+00	0	30	0	1517289472	42	6029
2026-01-11 12:18:20.99	106.71	11.39	-34.8	-35.8	23.0	0.00e+00	0	30	0	1520435200	42	6081
2026-01-11 12:18:22.00	106.88	11.35	-34.8	-35.8	22.9	0.00e+00	0	30	0	1523580928	42	6106
2026-01-11 12:18:23.02	107.05	11.31	-34.8	-35.8	22.8	0.00e+00	0	30	0	1526726656	42	6089
2026-01-11 12:18:24.02	107.22	11.26	-34.9	-35.9	22.8	0.00e+00	0	30	0	1529872384	42	6154
2026-01-11 12:18:25.04	107.39	11.22	-35.0	-35.9	22.8	0.00e+00	0	30	0	1533018112	42	6204
2026-01-11 12:18:26.05	107.55	11.18	-34.8	-35.8	22.9	0.00e+00	0	30	0	1536163840	42	6129
2026-01-11 12:18:27.06	107.72	11.13	-34.9	-35.9	22.8	0.00e+00	0	30	0	1539309568	42	6203
2026-01-11 12:18:28.07	107.89	11.09	-34.9	-35.9	22.8	0.00e+00	0	30	0	1542455296	42	6171
2026-01-11 12:18:29.07	108.05	11.05	-34.9	-35.9	22.9	0.00e+00	0	30	0	1546649600	42	6170
2026-01-11 12:18:30.08	108.21	11.00	-35.1	-36.1	22.8	0.00e+00	0	30	0	1549795328	42	6294
2026-01-11 12:18:31.09	108.38	10.96	-34.9	-35.9	22.9	0.00e+00	0	30	0	1551892480	42	6177
2026-01-11 12:18:32.10	108.54	10.92	-35.0	-36.0	22.8	0.00e+00	0	30	0	1555038208	42	6238
2026-01-11 12:18:33.11	108.71	10.87	-35.0	-36.0	22.8	0.00e+00	0	30	0	1558183936	42	6264
2026-01-11 12:18:34.12	108.87	10.83	-35.2	-36.2	22.6	0.00e+00	0	30	0	1562378240	42	6367
2026-01-11 12:18:35.13	109.03	10.78	-35.3	-36.3	22.5	0.00e+00	0	30	0	1565523968	42	6487
2026-01-11 12:18:36.14	109.19	10.74	-35.2	-36.2	22.6	0.00e+00	0	30	0	1568669696	42	6376
2026-01-11 12:18:37.15	109.36	10.69	-35.3	-36.4	22.5	0.00e+00	0	30	0	1571815424	42	6518
2026-01-11 12:18:38.16	109.52	10.65	-35.5	-36.6	22.3	0.00e+00	0	30	0	1573912576	42	6659
2026-01-11 12:18:39.17	109.68	10.60	-35.5	-36.6	22.2	0.00e+00	0	30	0	1578106880	42	6665
2026-01-11 12:18:40.18	109.84	10.56	-35.2	-36.2	22.6	0.00e+00	0	30	0	1581252608	42	6422
2026-01-11 12:18:41.19	110.00	10.51	-35.4	-36.4	22.4	0.00e+00	0	30	0	1584398336	42	6547
2026-01-11 12:18:42.20	110.16	10.47	-35.1	-36.1	22.7	0.00e+00	0	30	0	1587544064	42	6296
2026-01-11 12:18:43.21	110.32	10.42	-35.1	-36.1	22.7	0.00e+00	0	30	0	1590689792	42	6310
2026-01-11 12:18:44.22	110.47	10.38	-35.1	-36.2	22.6	0.00e+00	0	30	0	1593835520	42	6400
2026-01-11 12:18:45.23	110.63	10.33	-35.2	-36.3	22.6	0.00e+00	0	30	0	1596981248	42	6433
2026-01-11 12:18:46.24	110.79	10.29	-35.1	-36.1	22.7	0.00e+00	0	30	0	1600126976	42	6330
2026-01-11 12:18:47.25	110.95	10.24	-35.1	-36.1	22.7	0.00e+00	0	30	0	1603272704	42	6307
2026-01-11 12:18:48.26	111.10	10.20	-35.1	-36.1	22.7	0.00e+00	0	30	0	1606418432	42	6291
2026-01-11 12:18:49.27	111.26	10.15	-35.2	-36.3	22.7	0.00e+00	0	30	0	1609564160	42	6432
2026-01-11 12:18:50.28	111.41	10.10	-35.4	-36.4	22.5	0.00e+00	0	30	0	1612709888	42	6556
2026-01-11 12:18:51.29	111.57	10.06	-35.1	-36.2	22.6	0.00e+00	0	30	0	1615855616	42	6402
2026-01-11 12:18:52.30	111.72	10.01	-35.2	-36.3	22.5	0.00e+00	0	30	0	1619001344	42	6452
2026-01-11 12:18:53.31	111.88	9.97	-35.3	-36.4	22.5	0.00e+00	0	30	0	1622147072	42	6523
2026-01-11 12:18:54.32	112.03	9.92	-35.5	-36.5	22.4	0.00e+00	0	30	0	1625292800	42	6608
2026-01-11 12:18:55.33	112.18	9.87	-35.4	-36.4	22.5	0.00e+00	0	30	0	1628438528	42	6547
2026-01-11 12:18:56.34	112.34	9.83	-35.4	-36.4	22.5	0.00e+00	0	30	0	1631584256	42	6503
2026-01-11 12:18:57.35	112.49	9.78	-35.4	-36.4	22.5	0.00e+00	0	30	0	1634729984	42	6517
2026-01-11 12:18:58.36	112.64	9.73	-35.5	-36.5	22.3	0.00e+00	0	30	0	1637875712	42	6601
2026-01-11 12:18:59.37	112.79	9.69	-35.4	-36.5	22.4	0.00e+00	0	30	0	1641021440	42	6608
2026-01-11 12:19:00.38	112.94	9.64	-35.5	-36.6	22.4	0.00e+00	0	30	0	1644167168	42	6668
2026-01-11 12:19:01.39	113.09	9.59	-35.6	-36.6	22.3	0.00e+00	0	30	0	1647312896	42	6701
2026-01-11 12:19:02.40	113.24	9.54	-35.7	-36.8	22.1	0.00e+00	0	30	0	1650458624	42	6828
2026-01-11 12:19:03.41	113.39	9.50	-35.5	-36.6	22.3	0.00e+00	0	30	0	1653604352	44	5957
2026-01-11 12:19:04.42	113.54	9.45	-35.5	-36.5	22.3	0.00e+00	0	30	0	1656750080	44	5925
2026-01-11 12:19:05.43	113.69	9.40	-35.5	-36.6	22.3	0.00e+00	0	30	0	1659895808	44	5965
2026-01-11 12:19:06.44	113.84	9.35	-35.5	-36.6	22.2	0.00e+00	0	30	0	1663041536	44	5936
2026-01-11 12:19:07.44	113.98	9.31	-35.5	-36.5	22.3	0.00e+00	0	30	0	1666187264	44	5898
2026-01-11 12:19:08.45	114.13	9.26	-35.4	-36.4	22.4	0.00e+00	0	30	0	1669332992	44	5826
2026-01-11 12:19:09.47	114.28	9.21	-35.4	-36.5	22.3	0.00e+00	0	30	0	1672478720	44	5886
2026-01-11 12:19:10.48	114.42	9.16	-35.5	-36.5	22.3	0.00e+00	0	30	0	1675624448	44	5902
2026-01-11 12:19:11.48	114.57	9.12	-35.4	-36.4	22.4	0.00e+00	0	30	0	1678770176	44	5844
2026-01-11 12:19:12.49	114.71	9.07	-35.5	-36.5	22.3	0.00e+00	0	30	0	1681915904	44	5926
2026-01-11 12:19:13.51	114.86	9.02	-35.5	-36.6	22.2	0.00e+00	0	30	0	1685061632	44	5934
2026-01-11 12:19:14.51	115.00	8.97	-35.6	-36.7	22.1	0.00e+00	0	30	0	1688207360	44	6024
2026-01-11 12:19:15.52	115.14	8.93	-35.8	-36.8	22.1	0.00e+00	0	30	0	1691353088	44	6098
2026-01-11 12:19:16.54	115.29	8.88	-35.4	-36.4	22.3	0.00e+00	0	30	0	1694498816	44	5833
2026-01-11 12:19:17.55	115.43	8.83	-35.5	-36.5	22.2	0.00e+00	0	30	0	1697644544	44	5894
2026-01-11 12:19:18.55	115.57	8.78	-35.4	-36.5	22.2	0.00e+00	0	30	0	1700790272	44	5887
2026-01-11 12:19:19.57	115.72	8.73	-35.4	-36.5	22.2	0.00e+00	0	30	0	1703936000	44	5886
2026-01-11 12:19:20.58	115.86	8.68	-35.4	-36.5	22.2	0.00e+00	0	30	0	1707081728	44	5873
2026-01-11 12:19:21.59	116.00	8.64	-35.3	-36.4	22.3	0.00e+00	0	30	0	1710227456	44	5818
2026-01-11 12:19:22.60	116.14	8.59	-35.3	-36.4	22.4	0.00e+00	0	30	0	1713373184	44	5802
2026-01-11 12:19:23.61	116.28	8.54	-35.5	-36.5	22.3	0.00e+00	0	30	0	1716518912	44	5909
2026-01-11 12:19:24.62	116.42	8.49	-35.4	-36.4	22.3	0.00e+00	0	30	0	1719664640	44	5856
2026-01-11 12:19:25.63	116.56	8.44	-35.5	-36.5	22.3	0.00e+00	0	30	0	1722810368	44	5899
2026-01-11 12:19:26.64	116.70	8.39	-35.4	-36.4	22.3	0.00e+00	0	30	0	1725956096	44	5851
2026-01-11 12:19:27.65	116.84	8.34	-35.5	-36.5	22.2	0.00e+00	0	30	0	1729101824	44	5907
2026-01-11 12:19:28.66	116.97	8.30	-35.5	-36.5	22.2	0.00e+00	0	30	0	1732247552	44	5919
2026-01-11 12:19:29.67	117.11	8.25	-35.4	-36.4	22.4	0.00e+00	0	30	0	1735393280	44	5849
2026-01-11 12:19:30.68	117.25	8.20	-35.4	-36.4	22.4	0.00e+00	0	30	0	1738539008	44	5813
2026-01-11 12:19:31.69	117.39	8.15	-35.4	-36.4	22.3	0.00e+00	0	30	0	1741684736	44	5855
2026-01-11 12:19:32.70	117.52	8.10	-35.6	-36.6	22.2	0.00e+00	0	30	0	1744830464	44	5969
2026-01-11 12:19:33.71	117.66	8.05	-35.4	-36.4	22.3	0.00e+00	0	30	0	1747976192	44	5843
2026-01-11 12:19:34.72	117.79	8.00	-35.5	-36.5	22.3	0.00e+00	0	30	0	1751121920	44	5887
2026-01-11 12:19:35.73	117.93	7.95	-35.4	-36.5	22.2	0.00e+00	0	30	0	1754267648	44	5883
2026-01-11 12:19:36.74	118.06	7.90	-35.7	-36.7	22.0	0.00e+00	0	30	0	1757413376	44	6033
2026-01-11 12:19:37.75	118.20	7.85	-35.5	-36.6	22.2	0.00e+00	0	30	0	1760559104	44	5933
2026-01-11 12:19:38.76	118.33	7.80	-35.7	-36.7	22.0	0.00e+00	0	30	0	1763704832	44	6056
2026-01-11 12:19:39.77	118.46	7.76	-35.8	-36.8	21.9	0.00e+00	0	30	0	1766850560	44	6090
2026-01-11 12:19:40.78	118.60	7.71	-35.5	-36.5	22.2	0.00e+00	0	30	0	1769996288	44	5901
2026-01-11 12:19:41.79	118.73	7.66	-35.6	-36.6	22.1	0.00e+00	0	30	0	1773142016	44	5957
2026-01-11 12:19:42.80	118.86	7.61	-36.1	-37.1	21.6	0.00e+00	0	30	0	1776287744	44	6334
2026-01-11 12:19:43.81	118.99	7.56	-35.8	-36.9	21.8	0.00e+00	0	30	0	1779433472	44	6135
2026-01-11 12:19:44.82	119.12	7.51	-35.9	-36.9	21.8	0.00e+00	0	30	0	1782579200	44	6171
2026-01-11 12:19:45.83	119.25	7.46	-35.9	-37.0	21.8	0.00e+00	0	30	0	1785724928	44	6238
2026-01-11 12:19:46.84	119.38	7.41	-36.1	-37.2	21.5	0.00e+00	0	30	0	1788870656	44	6414
2026-01-11 12:19:47.85	119.51	7.36	-36.0	-37.0	21.7	0.00e+00	0	30	0	1792016384	44	6251
2026-01-11 12:19:48.86	119.64	7.31	-36.0	-37.1	21.7	0.00e+00	0	30	0	1795162112	44	6300
2026-01-11 12:19:49.87	119.77	7.26	-35.9	-36.9	21.8	0.00e+00	0	30	0	1798307840	44	6204
2026-01-11 12:19:50.88	119.90	7.21	-36.0	-37.0	21.7	0.00e+00	0	30	0	1801453568	44	6259
2026-01-11 12:19:51.89	120.03	7.16	-36.2	-37.3	21.4	0.00e+00	0	30	0	1804599296	44	6456
2026-01-11 12:19:52.90	120.15	7.11	-36.3	-37.4	21.3	0.00e+00	0	30	0	1807745024	44	6550
2026-01-11 12:19:53.91	120.28	7.06	-36.6	-37.7	21.1	0.00e+00	0	30	0	1810890752	44	6750
2026-01-11 12:19:54.93	120.41	7.01	-36.2	-37.3	21.5	0.00e+00	0	30	0	1814036480	44	6450
2026-01-11 12:19:55.93	120.53	6.96	-36.2	-37.4	21.4	0.00e+00	0	30	0	1817182208	44	6502
2026-01-11 12:19:56.94	120.66	6.91	-36.3	-37.4	21.3	0.00e+00	0	30	0	1820327936	44	6511
2026-01-11 12:19:57.96	120.79	6.86	-36.3	-37.4	21.3	0.00e+00	0	30	0	1823473664	44	6543
2026-01-11 12:19:58.96	120.91	6.82	-36.4	-37.5	21.3	0.00e+00	0	30	0	1826619392	44	6579
2026-01-11 12:19:59.98	121.04	6.76	-36.3	-37.4	21.3	0.00e+00	0	30	0	1829765120	44	6515
2026-01-11 12:20:00.98	121.16	6.72	-36.4	-37.5	21.3	0.00e+00	0	30	0	1832910848	44	6595
2026-01-11 12:20:01.99	121.28	6.67	-36.5	-37.6	21.1	0.00e+00	0	30	0	1836056576	44	6670
2026-01-11 12:20:03.00	121.41	6.62	-36.4	-37.5	21.1	0.00e+00	0	30	0	1839202304	44	6621
2026-01-11 12:20:04.01	121.53	6.57	-36.3	-37.4	21.2	0.00e+00	0	30	0	1842348032	44	6523
2026-01-11 12:20:05.02	121.65	6.52	-36.3	-37.4	21.2	0.00e+00	0	30	0	1845493760	44	6543
2026-01-11 12:20:06.03	121.78	6.47	-36.4	-37.5	21.2	0.00e+00	0	30	0	1848639488	44	6618
2026-01-11 12:20:07.04	121.90	6.42	-36.2	-37.3	21.4	0.00e+00	0	30	0	1851785216	44	6426
2026-01-11 12:20:08.05	122.02	6.37	-36.4	-37.5	21.2	0.00e+00	0	30	0	1854930944	44	6624
2026-01-11 12:20:09.06	122.14	6.32	-36.4	-37.5	21.1	0.00e+00	0	30	0	1858076672	44	6642
2026-01-11 12:20:10.07	122.26	6.27	-36.3	-37.4	21.2	0.00e+00	0	30	0	1862270976	44	6519
2026-01-11 12:20:11.08	122.38	6.22	-36.4	-37.5	21.1	0.00e+00	0	30	0	1865416704	44	6625
2026-01-11 12:20:12.09	122.50	6.17	-36.4	-37.6	21.0	0.00e+00	0	30	0	1867513856	44	6670
2026-01-11 12:20:13.10	122.62	6.12	-36.1	-37.2	21.4	0.00e+00	0	30	0	1870659584	44	6352
2026-01-11 12:20:14.11	122.74	6.07	-36.2	-37.3	21.3	0.00e+00	0	30	0	1873805312	44	6433
2026-01-11 12:20:15.12	122.86	6.02	-36.4	-37.6	21.1	0.00e+00	0	30	0	1877999616	44	6670
2026-01-11 12:20:16.13	122.98	5.97	-36.4	-37.5	21.1	0.00e+00	0	30	0	1881145344	44	6622
2026-01-11 12:20:17.15	123.10	5.92	-36.2	-37.4	21.2	0.00e+00	0	30	0	1884291072	44	6503
2026-01-11 12:20:18.15	123.21	5.87	-36.3	-37.5	21.1	0.00e+00	0	30	0	1887436800	44	6620
2026-01-11 12:20:19.16	123.33	5.82	-36.4	-37.6	21.0	0.00e+00	0	30	0	1889533952	44	6679
2026-01-11 12:20:20.17	123.45	5.77	-36.7	-37.9	20.8	0.00e+00	0	30	0	1893728256	44	6919
2026-01-11 12:20:21.18	123.56	5.72	-36.8	-38.0	20.6	0.00e+00	0	30	0	1896873984	44	7030
2026-01-11 12:20:22.19	123.68	5.67	-36.9	-38.1	20.6	0.00e+00	0	30	0	1900019712	46	6303
2026-01-11 12:20:23.20	123.79	5.62	-36.6	-37.8	20.9	0.00e+00	0	30	0	1903165440	46	6110
2026-01-11 12:20:24.21	123.91	5.57	-37.0	-38.2	20.5	0.00e+00	0	30	0	1906311168	46	6401
2026-01-11 12:20:25.23	124.03	5.52	-36.5	-37.7	20.9	0.00e+00	0	30	0	1909456896	46	6014
2026-01-11 12:20:26.24	124.14	5.47	-36.6	-37.7	20.9	0.00e+00	0	30	0	1912602624	46	6062
2026-01-11 12:20:27.24	124.25	5.42	-36.5	-37.7	21.0	0.00e+00	0	30	0	1915748352	46	6004
2026-01-11 12:20:28.25	124.37	5.37	-36.6	-37.8	20.8	0.00e+00	0	30	0	1918894080	46	6094
2026-01-11 12:20:29.26	124.48	5.32	-36.7	-37.8	20.8	0.00e+00	0	30	0	1922039808	46	6102
2026-01-11 12:20:30.27	124.59	5.27	-36.5	-37.6	21.0	0.00e+00	0	30	0	1925185536	46	5959
2026-01-11 12:20:31.28	124.71	5.22	-36.7	-37.8	20.8	0.00e+00	0	30	0	1928331264	46	6117
2026-01-11 12:20:32.30	124.82	5.17	-36.9	-38.0	20.6	0.00e+00	0	30	0	1931476992	46	6260
2026-01-11 12:20:33.31	124.93	5.12	-36.7	-37.8	20.7	0.00e+00	0	30	0	1934622720	46	6133
2026-01-11 12:20:34.32	125.04	5.07	-36.9	-38.1	20.5	0.00e+00	0	30	0	1937768448	46	6327
2026-01-11 12:20:35.33	125.15	5.02	-37.0	-38.1	20.4	0.00e+00	0	30	0	1940914176	46	6325
2026-01-11 12:20:36.34	125.26	4.97	-37.1	-38.3	20.4	0.00e+00	0	30	0	1944059904	46	6448
2026-01-11 12:20:37.35	125.37	4.92	-37.0	-38.1	20.4	0.00e+00	0	30	0	1947205632	46	6332
2026-01-11 12:20:38.36	125.49	4.87	-37.3	-38.5	20.3	0.00e+00	0	30	0	1950351360	46	6581
2026-01-11 12:20:39.37	125.59	4.82	-37.2	-38.5	20.2	0.00e+00	0	30	0	1953497088	46	6579
2026-01-11 12:20:40.37	125.70	4.77	-36.6	-37.8	20.8	0.00e+00	0	30	0	1956642816	46	6076
2026-01-11 12:20:41.39	125.81	4.72	-36.5	-37.6	20.9	0.00e+00	0	30	0	1959788544	46	5993
2026-01-11 12:20:42.39	125.92	4.67	-36.7	-37.9	20.7	0.00e+00	0	30	0	1962934272	46	6153
2026-01-11 12:20:43.40	126.03	4.62	-36.9	-38.1	20.5	0.00e+00	0	30	0	1966080000	46	6305
2026-01-11 12:20:44.41	126.14	4.57	-36.5	-37.7	20.8	0.00e+00	0	30	0	1969225728	46	6015
2026-01-11 12:20:45.42	126.24	4.52	-36.7	-37.8	20.7	0.00e+00	0	30	0	1972371456	46	6134
2026-01-11 12:20:46.43	126.35	4.47	-36.8	-38.0	20.5	0.00e+00	0	30	0	1975517184	46	6230
2026-01-11 12:20:47.44	126.46	4.42	-37.1	-38.3	20.2	0.00e+00	0	31	0	1978662912	46	6458
2026-01-11 12:20:48.46	126.57	4.37	-37.1	-38.3	20.2	0.00e+00	0	30	0	1981808640	46	6458
2026-01-11 12:20:49.46	126.67	4.32	-37.5	-38.7	19.8	0.00e+00	0	30	0	1984954368	46	6803
2026-01-11 12:20:50.47	126.78	4.27	-37.6	-38.8	19.7	0.00e+00	0	30	0	1988100096	46	6860
2026-01-11 12:20:51.48	126.88	4.22	-37.0	-38.3	20.2	0.00e+00	0	30	0	1991245824	46	6430
2026-01-11 12:20:52.50	126.99	4.17	-36.5	-37.7	20.6	0.00e+00	0	30	0	1994391552	46	6037
2026-01-11 12:20:53.51	127.09	4.12	-37.3	-38.5	19.9	0.00e+00	0	30	0	1997537280	46	6619
2026-01-11 12:20:54.52	127.20	4.07	-37.3	-38.6	19.9	0.00e+00	0	30	0	2000683008	46	6679
2026-01-11 12:20:55.53	127.30	4.02	-36.9	-38.1	20.3	0.00e+00	0	30	0	2003828736	46	6327
2026-01-11 12:20:56.53	127.41	3.97	-37.2	-38.5	20.0	0.00e+00	0	30	0	2006974464	46	6574
2026-01-11 12:20:57.55	127.51	3.92	-37.6	-38.9	19.6	0.00e+00	0	30	0	2010120192	46	6922
2026-01-11 12:20:58.55	127.61	3.87	-37.8	-39.2	19.3	0.00e+00	0	30	0	2013265920	48	6360
2026-01-11 12:20:59.57	127.72	3.82	-37.3	-38.6	19.9	0.00e+00	0	30	0	2016411648	48	5952
