passes_logs/2026/01/11/R4.6S_Anadyr/R4.6S_Anadyr__20260111_021514_SUOMI_NPP_rec.log

#Pass ID: 20260111_021514_SUOMI NPP
#Satellite: SUOMI NPP
#Configuration: NPP
#almurnet v.1.7.20251203
#Start time: 2026-01-11 02:15:15

#Version: 2.2.20231116
#Station: R4.6S_Anadyr
#Location: 177.4865 lon 64.73178 lat
#TLE: 1 37849U 11061A   26009.81756760  .00000113  00000+0  74747-4 0  9994
#TLE: 2 37849  98.7806 311.9110 0002525  72.5604 287.5848 14.19524046735974

#Time	Az	El	Level	Level2	SNR	BER	BlckErr	Temp	State	Recorded	gain1	gain2
2026-01-11 02:15:15.20	207.19	0.03	-47.9	-59.4	3.5	8.45e-01	0	27	0	0	60	33696
2026-01-11 02:15:16.20	207.25	0.09	-47.9	-63.0	3.6	1.51e+00	0	28	104	0	60	51251
2026-01-11 02:15:17.21	207.31	0.14	-48.0	-63.3	3.6	1.51e+00	0	28	104	0	60	53034
2026-01-11 02:15:18.22	207.37	0.19	-48.2	-63.4	3.6	1.51e+00	0	28	104	0	60	53462
2026-01-11 02:15:19.23	207.44	0.25	-47.9	-63.2	3.6	1.51e+00	0	28	104	0	60	52184
2026-01-11 02:15:20.24	207.50	0.30	-48.0	-63.3	3.6	1.51e+00	0	28	104	0	60	52623
2026-01-11 02:15:21.26	207.57	0.35	-48.1	-63.3	3.6	1.51e+00	0	28	104	0	60	52703
2026-01-11 02:15:22.27	207.63	0.41	-48.2	-63.4	3.6	1.51e+00	0	28	104	0	60	53280
2026-01-11 02:15:23.28	207.69	0.46	-48.0	-63.2	3.5	1.51e+00	0	29	104	0	60	52463
2026-01-11 02:15:24.29	207.76	0.52	-48.0	-63.2	3.6	1.51e+00	0	28	104	0	60	52105
2026-01-11 02:15:25.29	207.82	0.57	-47.9	-63.2	3.6	1.51e+00	0	28	104	0	60	52150
2026-01-11 02:15:26.30	207.89	0.62	-47.8	-63.1	3.6	1.51e+00	0	28	104	0	60	51893
2026-01-11 02:15:27.31	207.95	0.68	-47.8	-63.0	3.6	1.51e+00	0	28	104	0	60	51070
2026-01-11 02:15:28.32	208.02	0.73	-47.5	-62.9	3.6	1.51e+00	0	29	104	0	60	50321
2026-01-11 02:15:29.33	208.08	0.78	-47.6	-62.8	3.6	1.51e+00	0	28	104	0	60	49612
2026-01-11 02:15:30.34	208.15	0.84	-47.4	-62.6	3.6	1.51e+00	0	29	104	0	60	48651
2026-01-11 02:15:31.35	208.21	0.89	-46.9	-62.2	3.6	1.51e+00	0	29	104	0	60	46487
2026-01-11 02:15:32.36	208.28	0.95	-46.5	-61.6	3.6	1.51e+00	0	29	104	0	60	43495
2026-01-11 02:15:33.37	208.35	1.00	-46.5	-61.6	3.6	1.51e+00	0	29	104	0	60	43682
2026-01-11 02:15:34.38	208.41	1.06	-46.5	-61.6	3.6	1.51e+00	0	29	104	0	60	43332
2026-01-11 02:15:35.39	208.48	1.11	-46.4	-61.5	3.6	1.51e+00	0	29	104	0	60	43129
2026-01-11 02:15:36.40	208.55	1.17	-46.5	-61.5	3.6	1.51e+00	0	29	104	0	60	43193
2026-01-11 02:15:37.41	208.61	1.22	-46.5	-61.5	3.6	1.51e+00	0	29	104	0	60	42849
2026-01-11 02:15:38.42	208.68	1.28	-46.5	-61.5	3.6	1.51e+00	0	29	104	0	60	43189
2026-01-11 02:15:39.43	208.75	1.33	-46.5	-61.6	3.6	1.51e+00	0	29	104	0	60	43381
2026-01-11 02:15:40.44	208.82	1.39	-46.6	-61.7	3.6	1.51e+00	0	29	104	0	60	43790
2026-01-11 02:15:41.45	208.88	1.44	-46.5	-61.6	3.6	1.51e+00	0	29	104	0	60	43685
2026-01-11 02:15:42.46	208.95	1.50	-46.5	-61.6	3.6	1.51e+00	0	29	104	0	60	43486
2026-01-11 02:15:43.47	209.02	1.55	-46.5	-61.6	3.6	1.51e+00	0	29	104	0	60	43434
2026-01-11 02:15:44.48	209.09	1.61	-46.4	-61.6	3.6	1.51e+00	0	29	104	0	60	43213
2026-01-11 02:15:45.49	209.16	1.66	-46.4	-61.5	3.6	1.51e+00	0	29	104	0	60	43067
2026-01-11 02:15:46.50	209.23	1.72	-46.6	-61.7	3.6	1.51e+00	0	29	104	0	60	43811
2026-01-11 02:15:47.51	209.30	1.77	-46.5	-61.5	3.6	1.51e+00	0	29	104	0	60	43144
2026-01-11 02:15:48.52	209.37	1.83	-46.5	-61.5	3.6	1.51e+00	0	29	104	0	60	42764
2026-01-11 02:15:49.53	209.44	1.88	-46.4	-61.4	3.6	1.51e+00	0	29	104	0	60	42705
2026-01-11 02:15:50.54	209.51	1.94	-46.4	-61.4	3.6	1.51e+00	0	29	104	0	60	42526
2026-01-11 02:15:51.55	209.58	2.00	-46.4	-61.4	3.6	1.51e+00	0	29	104	0	60	42599
2026-01-11 02:15:52.56	209.65	2.05	-46.4	-61.5	3.6	1.51e+00	0	29	104	0	60	42935
2026-01-11 02:15:53.57	209.72	2.11	-46.4	-61.4	3.6	1.51e+00	0	29	104	0	60	42699
2026-01-11 02:15:54.58	209.79	2.16	-46.5	-61.4	3.6	1.51e+00	0	29	104	0	60	42408
2026-01-11 02:15:55.59	209.87	2.22	-46.5	-61.4	3.6	1.51e+00	0	29	104	0	60	42601
2026-01-11 02:15:56.60	209.94	2.28	-46.5	-61.5	3.6	1.51e+00	0	29	104	0	60	42930
2026-01-11 02:15:57.61	210.01	2.33	-46.5	-61.6	3.6	1.51e+00	0	29	104	0	60	43455
2026-01-11 02:15:58.62	210.08	2.39	-46.6	-61.5	3.6	1.51e+00	0	29	104	0	60	42989
2026-01-11 02:15:59.63	210.15	2.45	-46.5	-60.9	3.6	1.51e+00	0	29	104	0	60	39963
2026-01-11 02:16:00.64	210.23	2.50	-46.4	-60.3	3.6	1.51e+00	0	29	104	0	60	37417
2026-01-11 02:16:01.65	210.30	2.56	-46.4	-60.1	3.6	1.51e+00	0	29	104	0	60	36587
2026-01-11 02:16:02.66	210.37	2.62	-46.5	-60.4	3.6	1.51e+00	0	29	104	0	60	37743
2026-01-11 02:16:03.66	210.45	2.67	-46.4	-60.0	3.6	1.51e+00	0	29	104	0	60	36149
2026-01-11 02:16:04.67	210.52	2.73	-46.2	-56.6	4.1	1.50e+00	0	29	104	0	60	24309
2026-01-11 02:16:05.68	210.60	2.79	-45.8	-53.5	7.1	4.03e-01	90	29	0	0	60	17063
2026-01-11 02:16:06.69	210.67	2.84	-44.7	-49.2	11.1	5.15e-02	92	29	0	1048576	60	10448
2026-01-11 02:16:07.70	210.75	2.90	-43.8	-47.3	13.2	1.63e-04	0	29	0	3145728	60	8373
2026-01-11 02:16:08.71	210.82	2.96	-42.9	-45.7	14.8	1.50e-06	65	29	0	5242880	60	6995
2026-01-11 02:16:09.72	210.90	3.01	-42.1	-44.5	15.8	0.00e+00	0	29	0	7340032	58	6843
2026-01-11 02:16:10.73	210.97	3.07	-41.8	-44.0	16.4	0.00e+00	90	29	0	9437184	56	7238
2026-01-11 02:16:11.74	211.05	3.13	-42.1	-44.4	16.3	0.00e+00	46	29	0	10485760	56	7543
2026-01-11 02:16:12.74	211.12	3.19	-42.2	-44.6	15.8	0.00e+00	90	29	0	12582912	56	7702
2026-01-11 02:16:13.75	211.20	3.24	-42.1	-44.5	15.5	0.00e+00	92	29	0	14680064	56	7653
2026-01-11 02:16:14.76	211.28	3.30	-42.7	-45.4	15.3	0.00e+00	0	29	0	16777216	58	7558
2026-01-11 02:16:15.77	211.35	3.36	-45.6	-52.6	5.8	0.00e+00	48	29	0	18874368	60	15434
2026-01-11 02:16:16.78	211.43	3.42	-46.3	-60.0	3.6	1.51e+00	0	29	104	18874368	60	36259
2026-01-11 02:16:17.79	211.51	3.47	-39.9	-41.4	6.1	1.30e+00	47	29	104	18874368	52	6724
2026-01-11 02:16:18.80	211.59	3.53	-39.8	-41.3	19.1	0.00e+00	0	29	0	18874368	54	5937
2026-01-11 02:16:19.81	211.66	3.59	-39.8	-41.3	19.4	0.00e+00	92	29	0	20971520	52	6664
2026-01-11 02:16:20.82	211.74	3.65	-39.9	-41.4	19.2	0.00e+00	90	29	0	22020096	52	6757
2026-01-11 02:16:21.83	211.82	3.71	-39.7	-41.1	19.3	0.00e+00	0	29	0	24117248	52	6519
2026-01-11 02:16:22.84	211.90	3.76	-39.7	-41.1	19.6	0.00e+00	81	29	0	26214400	52	6498
2026-01-11 02:16:23.85	211.98	3.82	-39.7	-41.1	19.7	0.00e+00	0	29	0	28311552	52	6466
2026-01-11 02:16:24.86	212.06	3.88	-39.9	-41.3	19.4	0.00e+00	92	29	0	30408704	52	6673
2026-01-11 02:16:25.87	212.14	3.94	-39.6	-41.0	19.4	0.00e+00	0	29	0	31457280	52	6401
2026-01-11 02:16:26.88	212.22	4.00	-39.7	-41.1	19.5	0.00e+00	92	29	0	33554432	52	6524
2026-01-11 02:16:27.89	212.30	4.06	-39.3	-40.7	19.8	0.00e+00	92	29	0	35651584	52	6208
2026-01-11 02:16:28.90	212.38	4.12	-39.2	-40.6	19.9	0.00e+00	0	29	0	37748736	52	6121
2026-01-11 02:16:29.91	212.46	4.17	-39.4	-40.7	19.9	0.00e+00	77	29	0	38797312	52	6241
2026-01-11 02:16:30.92	212.55	4.23	-39.1	-40.5	20.1	0.00e+00	0	29	0	40894464	52	6043
2026-01-11 02:16:31.93	212.63	4.29	-39.5	-40.8	19.9	0.00e+00	86	29	0	42991616	52	6313
2026-01-11 02:16:32.93	212.71	4.35	-39.4	-40.8	19.9	0.00e+00	0	29	0	45088768	52	6248
2026-01-11 02:16:33.94	212.79	4.41	-39.7	-41.1	19.7	0.00e+00	92	29	0	47185920	52	6528
2026-01-11 02:16:34.95	212.87	4.47	-39.3	-40.7	19.9	0.00e+00	50	29	0	49283072	52	6221
2026-01-11 02:16:35.96	212.96	4.53	-39.5	-40.9	19.8	0.00e+00	0	29	0	50331648	52	6364
2026-01-11 02:16:36.97	213.04	4.59	-39.5	-40.9	19.8	0.00e+00	92	29	0	52428800	52	6371
2026-01-11 02:16:37.98	213.13	4.65	-39.5	-40.9	19.9	0.00e+00	0	29	0	54525952	52	6335
2026-01-11 02:16:38.99	213.21	4.71	-39.5	-40.8	19.8	0.00e+00	92	29	0	56623104	52	6309
2026-01-11 02:16:40.00	213.29	4.77	-39.5	-40.9	19.8	0.00e+00	0	29	0	58720256	52	6355
2026-01-11 02:16:41.01	213.38	4.83	-39.5	-40.8	19.9	0.00e+00	92	29	0	59768832	52	6302
2026-01-11 02:16:42.02	213.46	4.89	-39.4	-40.7	19.9	0.00e+00	18	29	0	61865984	52	6236
2026-01-11 02:16:43.03	213.55	4.95	-39.6	-40.9	20.0	0.00e+00	43	29	0	63963136	52	6372
2026-01-11 02:16:44.04	213.64	5.01	-39.6	-41.0	20.0	0.00e+00	92	29	0	66060288	52	6403
2026-01-11 02:16:45.05	213.72	5.07	-39.3	-40.6	20.2	0.00e+00	0	29	0	68157440	52	6143
2026-01-11 02:16:46.06	213.81	5.13	-39.4	-40.7	20.3	0.00e+00	20	29	0	69206016	52	6224
2026-01-11 02:16:47.07	213.89	5.19	-39.4	-40.7	20.1	0.00e+00	0	29	0	71303168	52	6200
2026-01-11 02:16:48.08	213.98	5.25	-39.0	-40.3	20.5	0.00e+00	61	29	0	73400320	52	5907
2026-01-11 02:16:49.09	214.07	5.31	-39.2	-40.5	20.4	0.00e+00	0	29	0	75497472	52	6039
2026-01-11 02:16:50.10	214.16	5.37	-39.2	-40.5	20.3	0.00e+00	60	29	0	77594624	52	6047
2026-01-11 02:16:51.11	214.25	5.43	-38.9	-40.2	20.6	0.00e+00	92	29	0	78643200	52	5835
2026-01-11 02:16:52.12	214.33	5.49	-39.1	-40.3	20.5	0.00e+00	0	29	0	80740352	52	5963
2026-01-11 02:16:53.13	214.42	5.55	-39.3	-40.6	20.2	0.00e+00	92	29	0	82837504	52	6140
2026-01-11 02:16:54.14	214.51	5.61	-39.1	-40.3	20.5	0.00e+00	0	29	0	84934656	52	5955
2026-01-11 02:16:55.15	214.60	5.67	-38.8	-40.0	20.8	0.00e+00	90	29	0	87031808	50	6406
2026-01-11 02:16:56.16	214.69	5.73	-38.9	-40.1	20.8	0.00e+00	0	29	0	88080384	50	6507
2026-01-11 02:16:57.16	214.78	5.79	-38.8	-40.0	20.9	0.00e+00	87	29	0	90177536	50	6411
2026-01-11 02:16:58.17	214.87	5.85	-38.7	-39.9	20.9	0.00e+00	90	29	0	92274688	50	6360
2026-01-11 02:16:59.18	214.96	5.92	-38.5	-39.7	21.1	0.00e+00	0	29	0	94371840	50	6215
2026-01-11 02:17:00.20	215.06	5.98	-38.5	-39.7	21.1	0.00e+00	50	29	0	96468992	50	6184
2026-01-11 02:17:01.20	215.15	6.04	-38.4	-39.6	21.2	0.00e+00	0	30	0	97517568	50	6145
2026-01-11 02:17:02.21	215.24	6.10	-38.5	-39.7	21.1	0.00e+00	91	29	0	99614720	50	6230
2026-01-11 02:17:03.22	215.33	6.16	-38.3	-39.4	21.4	0.00e+00	33	30	0	101711872	50	6026
2026-01-11 02:17:04.23	215.42	6.22	-38.3	-39.4	21.3	0.00e+00	92	29	0	103809024	50	5994
2026-01-11 02:17:05.24	215.52	6.29	-38.4	-39.6	21.2	0.00e+00	92	29	0	105906176	50	6124
2026-01-11 02:17:06.25	215.61	6.35	-38.4	-39.5	21.4	0.00e+00	0	30	0	106954752	50	6100
2026-01-11 02:17:07.26	215.71	6.41	-38.5	-39.7	21.1	0.00e+00	92	29	0	109051904	50	6185
2026-01-11 02:17:08.27	215.80	6.47	-38.6	-39.8	21.2	0.00e+00	0	29	0	111149056	50	6262
2026-01-11 02:17:09.28	215.90	6.53	-38.4	-39.5	21.3	0.00e+00	92	30	0	113246208	50	6091
2026-01-11 02:17:10.29	215.99	6.60	-38.2	-39.4	21.5	0.00e+00	0	30	0	115343360	50	6003
2026-01-11 02:17:11.30	216.09	6.66	-38.3	-39.5	21.5	0.00e+00	90	29	0	117440512	50	6043
2026-01-11 02:17:12.31	216.18	6.72	-38.2	-39.3	21.4	0.00e+00	42	29	0	118489088	50	5960
2026-01-11 02:17:13.33	216.28	6.78	-38.0	-39.1	21.6	0.00e+00	0	29	0	120586240	50	5784
2026-01-11 02:17:14.34	216.38	6.85	-38.1	-39.2	21.7	0.00e+00	91	29	0	122683392	50	5840
2026-01-11 02:17:15.35	216.47	6.91	-38.1	-39.2	21.5	0.00e+00	0	30	0	124780544	50	5884
2026-01-11 02:17:16.36	216.57	6.97	-38.2	-39.2	21.7	0.00e+00	70	29	0	126877696	50	5888
2026-01-11 02:17:17.37	216.67	7.03	-38.2	-39.2	21.7	0.00e+00	0	30	0	127926272	50	5895
2026-01-11 02:17:18.38	216.77	7.10	-38.3	-39.4	21.7	0.00e+00	92	30	0	130023424	50	5966
2026-01-11 02:17:19.39	216.87	7.16	-38.0	-39.1	21.9	0.00e+00	30	29	0	132120576	50	5766
2026-01-11 02:17:20.40	216.97	7.22	-37.9	-39.0	21.9	0.00e+00	92	30	0	134217728	50	5706
2026-01-11 02:17:21.41	217.07	7.29	-38.0	-39.1	21.7	0.00e+00	92	29	0	136314880	50	5797
2026-01-11 02:17:22.42	217.17	7.35	-38.0	-39.1	21.7	0.00e+00	0	30	0	137363456	50	5804
2026-01-11 02:17:23.42	217.26	7.41	-38.0	-39.1	21.5	0.00e+00	64	30	0	139460608	50	5812
2026-01-11 02:17:24.43	217.37	7.48	-37.9	-39.0	21.8	0.00e+00	0	30	0	141557760	50	5717
2026-01-11 02:17:25.44	217.47	7.54	-38.0	-39.1	21.6	0.00e+00	92	30	0	143654912	50	5811
2026-01-11 02:17:26.45	217.57	7.60	-38.1	-39.1	21.7	0.00e+00	0	30	0	145752064	50	5812
2026-01-11 02:17:27.46	217.67	7.67	-38.3	-39.4	21.6	0.00e+00	92	29	0	146800640	50	5974
2026-01-11 02:17:28.47	217.77	7.73	-38.6	-39.8	21.2	0.00e+00	90	30	0	148897792	50	6284
2026-01-11 02:17:29.48	217.88	7.79	-38.5	-39.7	21.2	0.00e+00	0	30	0	150994944	50	6196
2026-01-11 02:17:30.49	217.98	7.86	-38.7	-39.8	21.2	0.00e+00	70	29	0	153092096	50	6300
2026-01-11 02:17:31.50	218.08	7.92	-38.8	-40.0	21.2	0.00e+00	0	30	0	155189248	50	6399
2026-01-11 02:17:32.51	218.19	7.99	-38.6	-39.8	21.3	0.00e+00	90	30	0	157286400	50	6263
2026-01-11 02:17:33.52	218.29	8.05	-38.8	-39.9	21.2	0.00e+00	9	29	0	158334976	50	6378
2026-01-11 02:17:34.53	218.40	8.11	-38.6	-39.8	21.3	0.00e+00	92	30	0	160432128	50	6253
2026-01-11 02:17:35.54	218.50	8.18	-38.6	-39.7	21.3	0.00e+00	90	30	0	162529280	50	6233
2026-01-11 02:17:36.55	218.61	8.24	-38.7	-39.8	21.2	0.00e+00	18	30	0	164626432	50	6302
2026-01-11 02:17:37.56	218.72	8.31	-38.5	-39.7	21.3	0.00e+00	92	30	0	165675008	50	6196
2026-01-11 02:17:38.57	218.82	8.37	-38.7	-39.9	21.3	0.00e+00	0	30	0	167772160	50	6320
2026-01-11 02:17:39.58	218.93	8.44	-38.8	-40.0	20.9	0.00e+00	90	30	0	169869312	50	6445
2026-01-11 02:17:40.59	219.04	8.50	-38.8	-39.9	21.1	0.00e+00	0	30	0	171966464	50	6383
2026-01-11 02:17:41.60	219.15	8.57	-38.4	-39.5	21.5	0.00e+00	92	30	0	174063616	50	6041
2026-01-11 02:17:42.61	219.26	8.63	-38.2	-39.3	21.6	0.00e+00	92	30	0	175112192	50	5952
2026-01-11 02:17:43.62	219.37	8.70	-38.1	-39.2	21.7	0.00e+00	76	30	0	177209344	50	5883
2026-01-11 02:17:44.63	219.48	8.76	-37.8	-38.9	22.0	0.00e+00	92	30	0	179306496	50	5648
2026-01-11 02:17:45.64	219.59	8.83	-38.0	-39.1	21.9	0.00e+00	0	30	0	181403648	50	5783
2026-01-11 02:17:46.65	219.70	8.89	-38.1	-39.1	21.8	0.00e+00	90	30	0	183500800	50	5813
2026-01-11 02:17:47.65	219.81	8.96	-38.1	-39.1	22.0	0.00e+00	0	30	0	185597952	50	5820
2026-01-11 02:17:48.66	219.92	9.02	-37.7	-38.7	22.2	0.00e+00	92	30	0	186646528	48	6218
2026-01-11 02:17:49.67	220.03	9.09	-37.8	-38.8	22.0	0.00e+00	47	30	0	188743680	48	6308
2026-01-11 02:17:50.68	220.14	9.15	-37.7	-38.7	22.1	0.00e+00	92	30	0	190840832	48	6244
2026-01-11 02:17:51.69	220.26	9.22	-37.7	-38.7	22.2	0.00e+00	90	30	0	192937984	48	6238
2026-01-11 02:17:52.70	220.37	9.28	-37.8	-38.8	22.1	0.00e+00	0	30	0	195035136	48	6265
2026-01-11 02:17:53.71	220.48	9.35	-37.9	-38.9	22.2	0.00e+00	92	30	0	196083712	48	6363
2026-01-11 02:17:54.72	220.60	9.42	-37.7	-38.7	22.1	0.00e+00	0	30	0	198180864	48	6223
2026-01-11 02:17:55.73	220.71	9.48	-37.8	-38.8	22.0	0.00e+00	92	30	0	200278016	48	6291
2026-01-11 02:17:56.74	220.83	9.55	-37.8	-38.8	22.0	0.00e+00	49	30	0	202375168	48	6283
2026-01-11 02:17:57.75	220.95	9.61	-37.9	-39.0	21.9	0.00e+00	90	30	0	204472320	48	6411
2026-01-11 02:17:58.76	221.06	9.68	-38.3	-39.3	21.8	0.00e+00	91	30	0	205520896	48	6678
2026-01-11 02:17:59.77	221.18	9.75	-38.1	-39.2	21.8	0.00e+00	0	30	0	207618048	48	6555
2026-01-11 02:18:00.78	221.30	9.81	-38.2	-39.3	21.7	0.00e+00	63	30	0	209715200	48	6622
2026-01-11 02:18:01.79	221.42	9.88	-38.3	-39.4	21.4	0.00e+00	0	30	0	211812352	48	6758
2026-01-11 02:18:02.80	221.53	9.94	-38.4	-39.5	21.6	0.00e+00	92	30	0	213909504	48	6843
2026-01-11 02:18:03.81	221.65	10.01	-38.4	-39.6	21.1	0.00e+00	0	30	0	214958080	48	6860
2026-01-11 02:18:04.82	221.77	10.08	-38.7	-39.8	21.4	0.00e+00	92	30	0	217055232	50	6281
2026-01-11 02:18:05.83	221.89	10.14	-38.3	-39.4	21.7	0.00e+00	91	30	0	219152384	50	5972
2026-01-11 02:18:06.84	222.01	10.21	-38.3	-39.4	21.8	0.00e+00	0	30	0	221249536	50	5981
2026-01-11 02:18:07.85	222.14	10.28	-38.2	-39.3	21.8	0.00e+00	54	30	0	223346688	50	5914
2026-01-11 02:18:08.85	222.26	10.34	-38.0	-39.1	21.8	0.00e+00	0	30	0	224395264	50	5799
2026-01-11 02:18:09.86	222.38	10.41	-38.3	-39.3	21.8	0.00e+00	91	30	0	226492416	50	5952
2026-01-11 02:18:10.87	222.50	10.48	-38.3	-39.4	21.7	0.00e+00	0	30	0	228589568	50	5968
2026-01-11 02:18:11.88	222.63	10.54	-38.4	-39.4	21.7	0.00e+00	92	30	0	230686720	50	6031
2026-01-11 02:18:12.89	222.75	10.61	-38.7	-39.9	21.3	0.00e+00	90	30	0	232783872	50	6326
2026-01-11 02:18:13.90	222.87	10.68	-38.7	-39.9	21.3	0.00e+00	10	30	0	233832448	50	6332
2026-01-11 02:18:14.91	223.00	10.75	-38.4	-39.5	21.4	0.00e+00	90	30	0	235929600	50	6076
2026-01-11 02:18:15.92	223.13	10.81	-38.4	-39.5	21.5	0.00e+00	0	30	0	238026752	50	6098
2026-01-11 02:18:16.93	223.25	10.88	-38.5	-39.6	21.5	0.00e+00	90	30	0	240123904	50	6135
2026-01-11 02:18:17.94	223.38	10.95	-38.5	-39.6	21.6	0.00e+00	0	30	0	242221056	50	6136
2026-01-11 02:18:18.95	223.51	11.02	-38.6	-39.7	21.4	0.00e+00	92	30	0	243269632	50	6243
2026-01-11 02:18:19.96	223.63	11.08	-38.3	-39.4	21.6	0.00e+00	92	30	0	245366784	50	6016
2026-01-11 02:18:20.97	223.76	11.15	-38.2	-39.3	21.7	0.00e+00	0	30	0	247463936	50	5907
2026-01-11 02:18:21.98	223.89	11.22	-38.0	-39.1	21.9	0.00e+00	93	30	0	249561088	50	5805
2026-01-11 02:18:22.99	224.02	11.29	-38.0	-39.0	22.0	0.00e+00	0	30	0	251658240	50	5740
2026-01-11 02:18:24.00	224.15	11.35	-37.9	-39.0	22.0	0.00e+00	90	30	0	253755392	50	5715
2026-01-11 02:18:25.01	224.28	11.42	-37.8	-38.8	22.2	0.00e+00	0	30	0	254803968	48	6273
2026-01-11 02:18:26.02	224.41	11.49	-37.7	-38.7	22.3	0.00e+00	89	30	0	256901120	48	6197
2026-01-11 02:18:27.03	224.55	11.56	-37.7	-38.7	22.2	0.00e+00	0	30	0	258998272	48	6244
2026-01-11 02:18:28.04	224.68	11.63	-37.6	-38.6	22.4	0.00e+00	92	30	0	261095424	48	6118
2026-01-11 02:18:29.05	224.81	11.69	-37.6	-38.6	22.3	0.00e+00	92	30	0	263192576	48	6139
2026-01-11 02:18:30.06	224.95	11.76	-37.4	-38.4	22.6	0.00e+00	0	30	0	264241152	48	6010
2026-01-11 02:18:31.07	225.08	11.83	-37.4	-38.3	22.5	0.00e+00	36	30	0	266338304	48	5962
2026-01-11 02:18:32.08	225.21	11.90	-37.3	-38.2	22.6	0.00e+00	0	30	0	268435456	48	5887
2026-01-11 02:18:33.09	225.35	11.97	-37.2	-38.1	22.8	0.00e+00	92	30	0	270532608	48	5803
2026-01-11 02:18:34.10	225.49	12.04	-37.2	-38.2	22.7	0.00e+00	0	30	0	272629760	48	5835
2026-01-11 02:18:35.11	225.62	12.10	-37.1	-38.0	22.8	0.00e+00	92	30	0	273678336	48	5748
2026-01-11 02:18:36.12	225.76	12.17	-37.2	-38.1	22.7	0.00e+00	92	30	0	275775488	48	5826
2026-01-11 02:18:37.13	225.90	12.24	-37.1	-38.1	22.9	0.00e+00	0	30	0	277872640	48	5771
2026-01-11 02:18:38.14	226.04	12.31	-37.2	-38.2	22.7	0.00e+00	90	30	0	279969792	48	5841
2026-01-11 02:18:39.15	226.18	12.38	-37.1	-38.0	22.8	0.00e+00	0	30	0	282066944	48	5752
2026-01-11 02:18:40.16	226.32	12.45	-37.1	-38.0	22.9	0.00e+00	92	30	0	283115520	48	5734
2026-01-11 02:18:41.17	226.46	12.52	-37.4	-38.4	22.6	0.00e+00	0	30	0	285212672	48	5990
2026-01-11 02:18:42.18	226.60	12.58	-37.1	-38.1	22.7	0.00e+00	92	30	0	287309824	48	5775
2026-01-11 02:18:43.19	226.74	12.65	-37.1	-38.1	22.8	0.00e+00	90	30	0	289406976	48	5768
2026-01-11 02:18:44.20	226.88	12.72	-37.5	-38.5	22.6	0.00e+00	0	30	0	291504128	48	6053
2026-01-11 02:18:45.21	227.03	12.79	-37.2	-38.2	22.7	0.00e+00	90	30	0	293601280	48	5874
2026-01-11 02:18:46.22	227.17	12.86	-37.4	-38.4	22.6	0.00e+00	0	30	0	294649856	48	5980
2026-01-11 02:18:47.23	227.31	12.93	-37.3	-38.3	22.7	0.00e+00	90	30	0	296747008	48	5928
2026-01-11 02:18:48.24	227.46	13.00	-37.4	-38.4	22.6	0.00e+00	0	30	0	298844160	48	6020
2026-01-11 02:18:49.25	227.60	13.07	-37.4	-38.4	22.6	0.00e+00	92	30	0	300941312	48	6003
2026-01-11 02:18:50.26	227.75	13.13	-37.5	-38.5	22.5	0.00e+00	91	30	0	301989888	48	6043
2026-01-11 02:18:51.27	227.90	13.20	-37.8	-38.8	22.2	0.00e+00	0	30	0	304087040	48	6266
2026-01-11 02:18:52.28	228.05	13.27	-37.9	-38.9	22.2	0.00e+00	91	30	0	306184192	48	6352
2026-01-11 02:18:53.29	228.19	13.34	-37.7	-38.8	22.1	0.00e+00	0	30	0	308281344	48	6256
2026-01-11 02:18:54.30	228.34	13.41	-37.6	-38.7	22.2	0.00e+00	90	30	0	310378496	48	6189
2026-01-11 02:18:55.31	228.49	13.48	-37.7	-38.7	21.8	0.00e+00	0	30	0	311427072	48	6232
2026-01-11 02:18:56.32	228.64	13.55	-37.8	-38.8	22.2	0.00e+00	92	30	0	313524224	48	6290
2026-01-11 02:18:57.33	228.79	13.62	-37.9	-38.9	22.2	0.00e+00	51	30	0	315621376	48	6341
2026-01-11 02:18:58.34	228.95	13.69	-37.7	-38.7	22.3	0.00e+00	0	30	0	317718528	48	6193
2026-01-11 02:18:59.35	229.10	13.76	-37.1	-38.1	22.8	0.00e+00	92	30	0	319815680	48	5778
2026-01-11 02:19:00.36	229.25	13.82	-37.2	-38.2	22.7	0.00e+00	0	30	0	321912832	48	5838
2026-01-11 02:19:01.37	229.41	13.89	-37.1	-38.0	22.8	0.00e+00	70	30	0	322961408	48	5756
2026-01-11 02:19:02.38	229.56	13.96	-37.0	-37.9	23.1	0.00e+00	0	30	0	325058560	48	5680
2026-01-11 02:19:03.39	229.71	14.03	-36.9	-37.8	23.1	0.00e+00	92	30	0	327155712	48	5604
2026-01-11 02:19:04.40	229.87	14.10	-36.9	-37.8	23.0	0.00e+00	76	30	0	329252864	48	5592
2026-01-11 02:19:05.41	230.03	14.17	-36.6	-37.6	23.2	0.00e+00	92	30	0	331350016	46	6111
2026-01-11 02:19:06.42	230.18	14.24	-36.6	-37.5	23.3	0.00e+00	91	30	0	332398592	46	6075
2026-01-11 02:19:07.43	230.34	14.31	-36.9	-37.8	22.9	0.00e+00	0	30	0	334495744	46	6310
2026-01-11 02:19:08.44	230.50	14.38	-36.7	-37.6	23.2	0.00e+00	92	30	0	336592896	46	6155
2026-01-11 02:19:09.45	230.66	14.45	-36.7	-37.6	23.2	0.00e+00	0	30	0	338690048	46	6131
2026-01-11 02:19:10.46	230.82	14.52	-36.8	-37.7	23.0	0.00e+00	92	30	0	340787200	46	6227
2026-01-11 02:19:11.47	230.98	14.59	-36.8	-37.8	23.3	0.00e+00	9	30	0	341835776	46	6248
2026-01-11 02:19:12.48	231.14	14.65	-36.5	-37.4	23.4	0.00e+00	53	30	0	343932928	46	6012
2026-01-11 02:19:13.49	231.31	14.72	-36.6	-37.5	23.3	0.00e+00	91	30	0	346030080	46	6049
2026-01-11 02:19:14.50	231.47	14.79	-36.6	-37.6	23.4	0.00e+00	0	30	0	348127232	46	6111
2026-01-11 02:19:15.51	231.63	14.86	-36.4	-37.3	23.4	0.00e+00	91	30	0	350224384	46	5923
2026-01-11 02:19:16.52	231.80	14.93	-36.6	-37.5	23.2	0.00e+00	0	30	0	351272960	46	6068
2026-01-11 02:19:17.52	231.96	15.00	-36.7	-37.6	23.3	0.00e+00	91	30	0	353370112	46	6119
2026-01-11 02:19:18.53	232.13	15.07	-36.9	-37.8	23.2	0.00e+00	0	30	0	355467264	46	6278
2026-01-11 02:19:19.54	232.29	15.14	-36.9	-37.8	23.0	0.00e+00	91	30	0	357564416	46	6316
2026-01-11 02:19:20.55	232.46	15.21	-37.1	-38.1	22.9	0.00e+00	92	30	0	359661568	46	6473
2026-01-11 02:19:21.56	232.63	15.28	-37.3	-38.2	22.8	0.00e+00	0	30	0	361758720	46	6597
2026-01-11 02:19:22.57	232.80	15.34	-36.9	-37.8	23.0	0.00e+00	90	30	0	362807296	46	6317
2026-01-11 02:19:23.58	232.97	15.41	-37.0	-37.9	23.0	0.00e+00	0	30	0	364904448	46	6367
2026-01-11 02:19:24.59	233.14	15.48	-36.8	-37.7	23.0	0.00e+00	92	30	0	367001600	46	6211
2026-01-11 02:19:25.60	233.31	15.55	-37.1	-38.0	23.0	0.00e+00	0	30	0	369098752	46	6424
2026-01-11 02:19:26.61	233.48	15.62	-36.9	-37.8	23.0	0.00e+00	92	30	0	371195904	46	6280
2026-01-11 02:19:27.62	233.66	15.69	-36.6	-37.5	23.1	0.00e+00	90	30	0	372244480	46	6056
2026-01-11 02:19:28.63	233.83	15.76	-36.7	-37.6	23.3	0.00e+00	0	30	0	374341632	46	6142
2026-01-11 02:19:29.64	234.00	15.82	-36.6	-37.5	23.3	0.00e+00	50	30	0	376438784	46	6070
2026-01-11 02:19:30.65	234.18	15.89	-36.7	-37.6	23.1	0.00e+00	0	30	0	378535936	46	6168
2026-01-11 02:19:31.66	234.35	15.96	-36.5	-37.4	23.4	0.00e+00	71	30	0	380633088	46	5998
2026-01-11 02:19:32.67	234.53	16.03	-36.4	-37.3	23.5	0.00e+00	0	30	0	381681664	46	5910
2026-01-11 02:19:33.68	234.71	16.10	-36.5	-37.4	23.4	0.00e+00	92	30	0	383778816	46	6019
2026-01-11 02:19:34.69	234.89	16.17	-36.5	-37.4	23.5	0.00e+00	49	30	0	385875968	46	5980
2026-01-11 02:19:35.70	235.07	16.23	-36.2	-37.1	23.6	0.00e+00	0	30	0	387973120	46	5803
2026-01-11 02:19:36.71	235.25	16.30	-36.3	-37.2	23.5	0.00e+00	61	30	0	390070272	46	5831
2026-01-11 02:19:37.72	235.43	16.37	-36.3	-37.2	23.5	0.00e+00	0	30	0	391118848	46	5839
2026-01-11 02:19:38.73	235.61	16.44	-36.0	-36.9	23.8	0.00e+00	91	30	0	393216000	46	5661
2026-01-11 02:19:39.74	235.79	16.51	-36.0	-36.9	23.9	0.00e+00	0	30	0	395313152	46	5652
2026-01-11 02:19:40.75	235.97	16.57	-36.0	-36.8	23.8	0.00e+00	91	30	0	397410304	46	5610
2026-01-11 02:19:41.76	236.16	16.64	-35.9	-36.7	24.0	0.00e+00	50	30	0	399507456	46	5561
2026-01-11 02:19:42.77	236.34	16.71	-35.8	-36.7	24.0	0.00e+00	20	30	0	400556032	44	6175
2026-01-11 02:19:43.78	236.53	16.78	-35.9	-36.7	23.9	0.00e+00	92	30	0	402653184	44	6216
2026-01-11 02:19:44.79	236.71	16.84	-35.9	-36.8	23.9	0.00e+00	0	30	0	404750336	44	6246
2026-01-11 02:19:45.80	236.90	16.91	-35.8	-36.7	23.9	0.00e+00	92	30	0	406847488	44	6207
2026-01-11 02:19:46.81	237.09	16.98	-35.9	-36.7	24.0	0.00e+00	0	30	0	408944640	44	6237
2026-01-11 02:19:47.82	237.28	17.05	-35.9	-36.8	23.8	0.00e+00	92	30	0	409993216	44	6277
2026-01-11 02:19:48.83	237.47	17.11	-36.0	-36.9	23.7	0.00e+00	53	30	0	412090368	44	6349
2026-01-11 02:19:49.84	237.66	17.18	-36.1	-37.0	23.7	0.00e+00	92	30	0	414187520	44	6451
2026-01-11 02:19:50.85	237.85	17.25	-36.1	-36.9	23.8	0.00e+00	92	30	0	416284672	44	6382
2026-01-11 02:19:51.86	238.04	17.31	-36.2	-37.0	23.3	0.00e+00	0	30	0	418381824	44	6453
2026-01-11 02:19:52.87	238.23	17.38	-36.1	-37.0	23.7	0.00e+00	92	30	0	419430400	44	6429
2026-01-11 02:19:53.88	238.43	17.45	-36.2	-37.1	23.6	0.00e+00	0	30	0	421527552	44	6481
2026-01-11 02:19:54.89	238.62	17.51	-36.1	-37.0	23.7	0.00e+00	87	30	0	423624704	44	6417
2026-01-11 02:19:55.90	238.82	17.58	-36.0	-36.9	23.8	0.00e+00	0	30	0	425721856	44	6355
2026-01-11 02:19:56.91	239.01	17.64	-36.1	-37.0	23.7	0.00e+00	92	30	0	427819008	44	6420
2026-01-11 02:19:57.92	239.21	17.71	-36.2	-37.1	23.9	0.00e+00	92	30	0	429916160	44	6468
2026-01-11 02:19:58.93	239.41	17.78	-36.2	-37.1	23.6	0.00e+00	0	30	0	430964736	44	6496
2026-01-11 02:19:59.93	239.60	17.84	-36.4	-37.3	23.5	0.00e+00	49	30	0	433061888	44	6645
2026-01-11 02:20:00.94	239.80	17.91	-36.4	-37.3	23.5	0.00e+00	0	30	0	435159040	44	6627
2026-01-11 02:20:01.95	240.00	17.97	-36.5	-37.4	23.4	0.00e+00	92	30	0	437256192	44	6703
2026-01-11 02:20:02.96	240.20	18.04	-36.4	-37.3	23.6	0.00e+00	0	30	0	438304768	44	6652
2026-01-11 02:20:03.97	240.41	18.10	-36.3	-37.1	23.5	0.00e+00	92	30	0	440401920	44	6536
2026-01-11 02:20:04.98	240.61	18.17	-36.3	-37.2	23.5	0.00e+00	90	30	0	442499072	44	6606
2026-01-11 02:20:05.98	240.81	18.23	-36.5	-37.4	23.3	0.00e+00	0	30	0	444596224	44	6757
2026-01-11 02:20:06.99	241.02	18.29	-36.4	-37.3	23.4	0.00e+00	92	30	0	446693376	44	6629
2026-01-11 02:20:08.01	241.22	18.36	-36.5	-37.4	23.3	0.00e+00	0	30	0	447741952	44	6721
2026-01-11 02:20:09.01	241.43	18.42	-36.5	-37.4	23.4	0.00e+00	58	30	0	449839104	44	6733
2026-01-11 02:20:10.02	241.63	18.49	-36.4	-37.3	23.5	0.00e+00	0	30	0	451936256	44	6618
2026-01-11 02:20:11.04	241.84	18.55	-36.3	-37.1	23.5	0.00e+00	92	30	0	454033408	44	6527
2026-01-11 02:20:12.05	242.05	18.61	-36.3	-37.1	23.5	0.00e+00	0	30	0	456130560	44	6538
2026-01-11 02:20:13.05	242.26	18.68	-36.1	-37.0	23.7	0.00e+00	41	30	0	458227712	44	6421
2026-01-11 02:20:14.06	242.47	18.74	-36.2	-37.1	23.6	0.00e+00	90	30	0	459276288	44	6523
2026-01-11 02:20:15.07	242.68	18.80	-36.2	-37.1	23.6	0.00e+00	0	30	0	461373440	44	6498
2026-01-11 02:20:16.08	242.89	18.86	-36.4	-37.3	23.4	0.00e+00	92	30	0	463470592	44	6666
2026-01-11 02:20:17.09	243.11	18.93	-36.7	-37.7	23.3	0.00e+00	0	30	0	465567744	46	6184
2026-01-11 02:20:18.10	243.32	18.99	-37.0	-37.9	23.1	0.00e+00	74	30	0	467664896	46	6358
2026-01-11 02:20:19.11	243.53	19.05	-37.1	-38.0	23.0	0.00e+00	13	30	0	468713472	46	6432
2026-01-11 02:20:20.12	243.75	19.11	-37.0	-38.0	23.1	0.00e+00	87	30	0	470810624	46	6409
2026-01-11 02:20:21.13	243.97	19.17	-37.0	-37.9	23.1	0.00e+00	92	30	0	472907776	46	6372
2026-01-11 02:20:22.14	244.18	19.23	-36.6	-37.5	23.2	0.00e+00	0	30	0	475004928	46	6095
2026-01-11 02:20:23.15	244.40	19.29	-36.6	-37.5	23.3	0.00e+00	92	30	0	477102080	46	6087
2026-01-11 02:20:24.16	244.62	19.35	-36.7	-37.6	23.3	0.00e+00	0	30	0	478150656	46	6163
2026-01-11 02:20:25.17	244.84	19.41	-37.1	-38.0	22.9	0.00e+00	92	30	0	480247808	46	6444
2026-01-11 02:20:26.18	245.06	19.47	-37.3	-38.2	22.8	0.00e+00	0	30	0	482344960	46	6614
2026-01-11 02:20:27.19	245.28	19.53	-37.7	-38.7	22.5	0.00e+00	92	30	0	484442112	46	6995
2026-01-11 02:20:28.20	245.50	19.59	-37.8	-38.9	22.2	0.00e+00	92	30	0	486539264	48	6331
2026-01-11 02:20:29.21	245.73	19.65	-37.5	-38.5	22.5	0.00e+00	0	30	0	487587840	48	6050
2026-01-11 02:20:30.22	245.95	19.71	-37.5	-38.4	22.8	0.00e+00	51	30	0	489684992	48	6033
2026-01-11 02:20:31.23	246.18	19.77	-37.1	-38.0	23.0	0.00e+00	0	30	0	491782144	48	5744
2026-01-11 02:20:32.24	246.40	19.83	-37.0	-37.9	23.1	0.00e+00	90	30	0	493879296	48	5677
2026-01-11 02:20:33.25	246.63	19.89	-37.2	-38.2	22.8	0.00e+00	0	30	0	495976448	48	5855
2026-01-11 02:20:34.26	246.85	19.94	-37.4	-38.5	22.7	0.00e+00	92	30	0	497025024	48	6036
2026-01-11 02:20:35.27	247.08	20.00	-37.7	-38.7	22.4	0.00e+00	92	30	0	499122176	48	6228
2026-01-11 02:20:36.28	247.31	20.06	-38.1	-39.2	21.9	0.00e+00	0	30	0	501219328	48	6556
2026-01-11 02:20:37.29	247.54	20.12	-38.2	-39.3	21.9	0.00e+00	91	30	0	503316480	48	6654
2026-01-11 02:20:38.30	247.77	20.17	-37.8	-38.8	22.4	0.00e+00	0	30	0	505413632	48	6255
2026-01-11 02:20:39.30	248.00	20.23	-37.4	-38.4	22.7	0.00e+00	92	30	0	506462208	48	5975
2026-01-11 02:20:40.31	248.23	20.28	-37.4	-38.4	22.7	0.00e+00	0	30	0	508559360	48	5981
2026-01-11 02:20:41.32	248.47	20.34	-37.3	-38.2	22.8	0.00e+00	90	30	0	510656512	48	5861
2026-01-11 02:20:42.33	248.70	20.39	-37.5	-38.4	22.6	0.00e+00	91	30	0	512753664	48	6015
2026-01-11 02:20:43.34	248.93	20.45	-37.3	-38.2	22.8	0.00e+00	90	30	0	514850816	48	5892
2026-01-11 02:20:44.35	249.17	20.50	-37.5	-38.5	22.6	0.00e+00	90	30	0	515899392	48	6072
2026-01-11 02:20:45.36	249.41	20.56	-37.7	-38.7	22.5	0.00e+00	0	30	0	517996544	48	6187
2026-01-11 02:20:46.37	249.64	20.61	-37.2	-38.2	22.9	0.00e+00	76	30	0	520093696	48	5853
2026-01-11 02:20:47.38	249.88	20.66	-37.3	-38.3	22.5	0.00e+00	0	30	0	522190848	48	5897
2026-01-11 02:20:48.39	250.12	20.72	-37.1	-38.1	22.8	0.00e+00	91	30	0	524288000	48	5778
2026-01-11 02:20:49.40	250.36	20.77	-37.5	-38.4	22.7	0.00e+00	91	30	0	526385152	48	6019
2026-01-11 02:20:50.40	250.60	20.82	-37.9	-38.9	22.3	0.00e+00	90	30	0	527433728	48	6372
2026-01-11 02:20:51.41	250.84	20.87	-38.0	-39.0	22.3	0.00e+00	92	30	0	529530880	48	6437
2026-01-11 02:20:52.42	251.08	20.92	-38.0	-39.0	22.1	0.00e+00	0	30	0	531628032	48	6463
2026-01-11 02:20:53.44	251.32	20.97	-37.8	-38.8	22.4	0.00e+00	90	30	0	533725184	48	6257
2026-01-11 02:20:54.44	251.56	21.02	-37.1	-38.1	23.0	0.00e+00	0	30	0	535822336	48	5769
2026-01-11 02:20:55.45	251.81	21.07	-36.9	-37.8	23.1	0.00e+00	91	30	0	536870912	48	5579
2026-01-11 02:20:56.46	252.05	21.12	-36.4	-37.3	23.5	0.00e+00	50	30	0	538968064	46	5914
2026-01-11 02:20:57.47	252.30	21.17	-36.4	-37.3	23.6	0.00e+00	91	30	0	541065216	46	5904
2026-01-11 02:20:58.48	252.55	21.22	-36.3	-37.2	23.5	0.00e+00	91	30	0	543162368	46	5881
2026-01-11 02:20:59.49	252.79	21.27	-36.3	-37.1	23.4	0.00e+00	0	30	0	545259520	46	5810
2026-01-11 02:21:00.50	253.04	21.32	-36.4	-37.3	23.6	0.00e+00	76	30	0	546308096	46	5933
2026-01-11 02:21:01.51	253.29	21.37	-36.5	-37.4	23.4	0.00e+00	0	30	0	548405248	46	6003
2026-01-11 02:21:02.52	253.54	21.41	-37.0	-37.9	23.0	0.00e+00	92	30	0	550502400	46	6360
2026-01-11 02:21:03.53	253.79	21.46	-37.3	-38.2	22.7	0.00e+00	0	30	0	552599552	46	6611
2026-01-11 02:21:04.54	254.04	21.51	-37.8	-38.8	22.4	0.00e+00	92	30	0	554696704	48	6250
2026-01-11 02:21:05.55	254.29	21.55	-38.0	-39.1	22.0	0.00e+00	90	30	0	555745280	48	6487
2026-01-11 02:21:06.56	254.54	21.60	-38.0	-39.0	22.2	0.00e+00	0	30	0	557842432	48	6435
2026-01-11 02:21:07.57	254.80	21.64	-37.6	-38.5	22.5	0.00e+00	92	30	0	559939584	48	6100
2026-01-11 02:21:08.58	255.05	21.68	-37.1	-38.0	23.0	0.00e+00	0	30	0	562036736	48	5737
2026-01-11 02:21:09.59	255.30	21.73	-36.7	-37.6	23.2	0.00e+00	92	30	0	564133888	48	5456
2026-01-11 02:21:10.60	255.56	21.77	-36.7	-37.6	22.6	0.00e+00	0	30	0	565182464	46	6151
2026-01-11 02:21:11.61	255.81	21.81	-36.7	-37.6	23.2	0.00e+00	92	30	0	567279616	46	6164
2026-01-11 02:21:12.62	256.07	21.86	-37.1	-38.0	22.8	0.00e+00	92	30	0	569376768	46	6452
2026-01-11 02:21:13.63	256.33	21.90	-37.4	-38.4	22.7	0.00e+00	0	30	0	571473920	46	6744
2026-01-11 02:21:14.64	256.59	21.94	-37.4	-38.4	22.7	0.00e+00	90	30	0	573571072	46	6702
2026-01-11 02:21:15.64	256.84	21.98	-37.2	-38.1	23.0	0.00e+00	0	30	0	574619648	46	6503
2026-01-11 02:21:16.66	257.10	22.02	-37.1	-38.0	23.0	0.00e+00	92	30	0	576716800	46	6422
2026-01-11 02:21:17.66	257.36	22.06	-37.3	-38.3	22.8	0.00e+00	0	30	0	578813952	46	6628
2026-01-11 02:21:18.67	257.62	22.10	-37.3	-38.2	22.8	0.00e+00	92	30	0	580911104	46	6576
2026-01-11 02:21:19.68	257.88	22.14	-37.6	-38.6	22.5	0.00e+00	51	30	0	583008256	46	6927
2026-01-11 02:21:20.69	258.14	22.17	-37.6	-38.6	22.5	0.00e+00	8	30	0	584056832	48	6146
2026-01-11 02:21:21.70	258.41	22.21	-37.6	-38.6	22.5	0.00e+00	92	30	0	586153984	48	6148
2026-01-11 02:21:22.70	258.67	22.25	-37.1	-38.1	23.0	0.00e+00	0	30	0	588251136	48	5787
2026-01-11 02:21:23.71	258.93	22.29	-36.9	-37.7	23.3	0.00e+00	92	30	0	590348288	48	5566
2026-01-11 02:21:24.72	259.19	22.32	-36.6	-37.5	23.5	0.00e+00	0	30	0	592445440	46	6059
2026-01-11 02:21:25.73	259.46	22.36	-36.9	-37.9	23.1	0.00e+00	92	30	0	594542592	46	6331
2026-01-11 02:21:26.74	259.72	22.39	-37.2	-38.1	22.8	0.00e+00	52	30	0	595591168	46	6502
2026-01-11 02:21:27.75	259.99	22.42	-37.6	-38.6	22.5	0.00e+00	92	30	0	597688320	46	6863
2026-01-11 02:21:28.76	260.26	22.46	-37.7	-38.7	22.5	0.00e+00	92	30	0	599785472	48	6198
2026-01-11 02:21:29.77	260.52	22.49	-37.6	-38.5	22.6	0.00e+00	0	30	0	601882624	48	6102
2026-01-11 02:21:30.78	260.79	22.52	-37.7	-38.6	22.5	0.00e+00	90	30	0	603979776	48	6172
2026-01-11 02:21:31.79	261.06	22.56	-37.4	-38.3	22.7	0.00e+00	0	30	0	605028352	48	5947
2026-01-11 02:21:32.80	261.33	22.59	-37.2	-38.1	22.8	0.00e+00	91	30	0	607125504	48	5804
2026-01-11 02:21:33.81	261.59	22.62	-37.0	-37.9	23.2	0.00e+00	53	30	0	609222656	48	5656
2026-01-11 02:21:34.82	261.86	22.65	-37.1	-38.0	22.9	0.00e+00	91	30	0	611319808	48	5738
2026-01-11 02:21:35.83	262.13	22.68	-37.1	-38.1	22.9	0.00e+00	92	30	0	613416960	48	5766
2026-01-11 02:21:36.84	262.40	22.70	-37.2	-38.2	22.9	0.00e+00	0	30	0	614465536	48	5861
2026-01-11 02:21:37.85	262.68	22.73	-37.4	-38.4	22.7	0.00e+00	91	30	0	616562688	48	6008
2026-01-11 02:21:38.86	262.95	22.76	-37.4	-38.4	22.7	0.00e+00	0	30	0	618659840	48	5980
2026-01-11 02:21:39.87	263.22	22.79	-37.6	-38.6	22.4	0.00e+00	90	30	0	620756992	48	6134
2026-01-11 02:21:40.88	263.49	22.81	-37.8	-38.8	22.4	0.00e+00	0	30	0	622854144	48	6289
2026-01-11 02:21:41.89	263.76	22.84	-37.5	-38.5	22.5	0.00e+00	90	30	0	623902720	48	6054
2026-01-11 02:21:42.90	264.04	22.86	-37.7	-38.7	22.5	0.00e+00	92	30	0	625999872	48	6174
2026-01-11 02:21:43.91	264.31	22.89	-37.7	-38.8	22.3	0.00e+00	0	30	0	628097024	48	6251
2026-01-11 02:21:44.92	264.58	22.91	-38.1	-39.1	22.1	0.00e+00	64	30	0	630194176	48	6522
2026-01-11 02:21:45.93	264.86	22.93	-38.2	-39.3	21.9	0.00e+00	0	30	0	632291328	48	6636
2026-01-11 02:21:46.94	265.13	22.96	-38.3	-39.4	21.9	0.00e+00	92	30	0	633339904	48	6699
2026-01-11 02:21:47.95	265.41	22.98	-38.3	-39.3	21.9	0.00e+00	0	30	0	635437056	48	6691
2026-01-11 02:21:48.96	265.68	23.00	-38.0	-39.1	22.2	0.00e+00	92	30	0	637534208	48	6477
2026-01-11 02:21:49.97	265.96	23.02	-37.5	-38.4	22.7	0.00e+00	51	30	0	639631360	48	6015
2026-01-11 02:21:50.98	266.24	23.04	-37.6	-38.6	22.6	0.00e+00	0	30	0	641728512	48	6135
2026-01-11 02:21:51.99	266.51	23.06	-37.6	-38.6	22.5	0.00e+00	92	30	0	642777088	48	6117
2026-01-11 02:21:53.00	266.79	23.08	-37.4	-38.4	22.5	0.00e+00	0	30	0	644874240	48	5995
2026-01-11 02:21:54.01	267.07	23.09	-37.4	-38.3	22.8	0.00e+00	90	30	0	646971392	48	5938
2026-01-11 02:21:55.02	267.34	23.11	-36.8	-37.7	23.2	0.00e+00	0	30	0	649068544	48	5545
2026-01-11 02:21:56.03	267.62	23.13	-36.2	-37.1	23.6	0.00e+00	92	30	0	651165696	46	5775
2026-01-11 02:21:57.04	267.90	23.14	-36.2	-37.0	23.8	0.00e+00	59	30	0	652214272	46	5743
2026-01-11 02:21:58.05	268.18	23.16	-36.3	-37.2	23.6	0.00e+00	92	30	0	654311424	46	5871
2026-01-11 02:21:59.06	268.46	23.17	-36.7	-37.7	23.2	0.00e+00	92	30	0	656408576	46	6179
2026-01-11 02:22:00.06	268.73	23.19	-37.4	-38.4	22.7	0.00e+00	0	30	0	658505728	46	6710
2026-01-11 02:22:01.07	269.01	23.20	-37.6	-38.6	22.6	0.00e+00	19	30	0	660602880	46	6913
2026-01-11 02:22:02.08	269.29	23.21	-37.4	-38.4	22.7	0.00e+00	0	30	0	662700032	46	6703
2026-01-11 02:22:03.09	269.57	23.22	-37.0	-38.0	23.1	0.00e+00	71	30	0	663748608	46	6405
2026-01-11 02:22:04.10	269.85	23.23	-36.4	-37.3	23.5	0.00e+00	21	30	0	665845760	46	5933
2026-01-11 02:22:05.11	270.13	23.24	-36.4	-37.3	23.6	0.00e+00	90	30	0	667942912	46	5937
2026-01-11 02:22:06.12	270.41	23.25	-36.7	-37.6	23.2	0.00e+00	92	30	0	670040064	46	6153
2026-01-11 02:22:07.13	270.69	23.26	-37.2	-38.2	22.9	0.00e+00	0	30	0	672137216	46	6563
2026-01-11 02:22:08.14	270.97	23.27	-37.4	-38.3	22.8	0.00e+00	90	30	0	673185792	46	6684
2026-01-11 02:22:09.14	271.25	23.28	-37.0	-38.0	23.1	0.00e+00	0	30	0	675282944	46	6395
2026-01-11 02:22:10.15	271.53	23.29	-36.8	-37.7	23.3	0.00e+00	91	30	0	677380096	46	6193
2026-01-11 02:22:11.16	271.81	23.29	-36.6	-37.5	23.5	0.00e+00	41	30	0	679477248	46	6047
2026-01-11 02:22:12.17	272.09	23.30	-36.9	-37.8	23.1	0.00e+00	90	30	0	681574400	46	6277
2026-01-11 02:22:13.18	272.37	23.30	-37.1	-38.1	22.8	0.00e+00	92	30	0	682622976	46	6486
2026-01-11 02:22:14.19	272.65	23.31	-37.4	-38.3	22.8	0.00e+00	0	30	0	684720128	46	6684
2026-01-11 02:22:15.20	272.93	23.31	-37.4	-38.4	22.8	0.00e+00	51	30	0	686817280	46	6693
2026-01-11 02:22:16.21	273.21	23.31	-37.0	-37.9	23.2	0.00e+00	0	30	0	688914432	46	6387
2026-01-11 02:22:17.22	273.49	23.31	-36.6	-37.5	23.3	0.00e+00	92	30	0	691011584	46	6085
2026-01-11 02:22:18.23	273.78	23.31	-36.6	-37.5	23.4	0.00e+00	41	30	0	692060160	46	6034
2026-01-11 02:22:19.24	274.06	23.32	-36.8	-37.7	23.3	0.00e+00	92	30	0	694157312	46	6193
2026-01-11 02:22:20.25	274.34	23.31	-37.0	-37.9	23.1	0.00e+00	92	30	0	696254464	46	6357
2026-01-11 02:22:21.26	274.62	23.31	-37.1	-38.0	22.9	0.00e+00	0	30	0	698351616	46	6425
2026-01-11 02:22:22.27	274.90	23.31	-37.0	-38.0	23.0	0.00e+00	85	30	0	700448768	46	6411
2026-01-11 02:22:23.28	275.18	23.31	-37.0	-37.9	23.0	0.00e+00	0	30	0	701497344	46	6354
2026-01-11 02:22:24.29	275.46	23.31	-36.8	-37.7	23.1	0.00e+00	86	30	0	703594496	46	6226
2026-01-11 02:22:25.30	275.74	23.30	-36.9	-37.8	23.0	0.00e+00	0	30	0	705691648	46	6306
2026-01-11 02:22:26.30	276.02	23.30	-36.9	-37.8	23.2	0.00e+00	92	30	0	707788800	46	6315
2026-01-11 02:22:27.31	276.30	23.29	-36.9	-37.8	23.2	0.00e+00	92	30	0	709885952	46	6259
2026-01-11 02:22:28.32	276.58	23.29	-36.7	-37.6	23.3	0.00e+00	0	30	0	710934528	46	6118
2026-01-11 02:22:29.33	276.86	23.28	-36.7	-37.5	23.3	0.00e+00	92	30	0	713031680	46	6099
2026-01-11 02:22:30.35	277.14	23.27	-36.7	-37.6	23.4	0.00e+00	0	30	0	715128832	46	6110
2026-01-11 02:22:31.36	277.42	23.27	-36.5	-37.4	23.5	0.00e+00	92	30	0	717225984	46	5981
2026-01-11 02:22:32.37	277.70	23.26	-36.6	-37.5	23.1	0.00e+00	0	30	0	719323136	46	6057
2026-01-11 02:22:33.38	277.98	23.25	-36.7	-37.5	23.4	0.00e+00	92	30	0	720371712	46	6101
2026-01-11 02:22:34.39	278.26	23.24	-36.8	-37.7	23.2	0.00e+00	54	30	0	722468864	46	6187
2026-01-11 02:22:35.40	278.54	23.23	-36.7	-37.7	23.1	0.00e+00	0	30	0	724566016	46	6174
2026-01-11 02:22:36.41	278.82	23.22	-36.7	-37.5	23.4	0.00e+00	92	30	0	726663168	46	6098
2026-01-11 02:22:37.42	279.10	23.20	-36.4	-37.3	23.6	0.00e+00	0	30	0	728760320	46	5914
2026-01-11 02:22:38.43	279.38	23.19	-36.2	-37.0	23.7	0.00e+00	90	30	0	730857472	46	5759
2026-01-11 02:22:39.43	279.66	23.18	-36.1	-36.9	23.9	0.00e+00	0	30	0	731906048	46	5661
2026-01-11 02:22:40.44	279.93	23.16	-36.0	-36.9	23.8	0.00e+00	92	30	0	734003200	46	5649
2026-01-11 02:22:41.45	280.21	23.15	-36.0	-36.8	24.0	0.00e+00	0	30	0	736100352	46	5587
2026-01-11 02:22:42.46	280.49	23.13	-36.0	-36.8	23.9	0.00e+00	0	30	0	738197504	46	5588
2026-01-11 02:22:43.47	280.77	23.12	-35.9	-36.7	24.0	0.00e+00	75	30	0	740294656	44	6223
2026-01-11 02:22:44.48	281.05	23.10	-35.8	-36.7	24.0	0.00e+00	0	30	0	741343232	44	6183
2026-01-11 02:22:45.50	281.33	23.08	-36.1	-36.9	23.8	0.00e+00	92	30	0	743440384	44	6347
2026-01-11 02:22:46.51	281.60	23.06	-36.3	-37.2	23.7	0.00e+00	0	30	0	745537536	44	6540
2026-01-11 02:22:47.52	281.88	23.05	-36.2	-37.1	23.6	0.00e+00	92	30	0	747634688	44	6467
2026-01-11 02:22:48.53	282.15	23.03	-36.3	-37.1	23.7	0.00e+00	0	30	0	749731840	44	6524
2026-01-11 02:22:49.53	282.43	23.01	-36.3	-37.2	23.7	0.00e+00	25	30	0	750780416	44	6573
2026-01-11 02:22:50.55	282.70	22.99	-36.3	-37.2	23.7	0.00e+00	92	30	0	752877568	44	6548
2026-01-11 02:22:51.55	282.98	22.96	-36.5	-37.4	23.5	0.00e+00	0	30	0	754974720	44	6714
2026-01-11 02:22:52.56	283.25	22.94	-36.5	-37.4	23.5	0.00e+00	92	30	0	757071872	44	6701
2026-01-11 02:22:53.57	283.53	22.92	-36.6	-37.5	23.3	0.00e+00	0	30	0	759169024	44	6812
2026-01-11 02:22:54.58	283.80	22.90	-37.0	-37.9	23.3	0.00e+00	92	31	0	760217600	46	6336
2026-01-11 02:22:55.59	284.07	22.87	-36.8	-37.6	23.3	0.00e+00	0	30	0	762314752	46	6165
2026-01-11 02:22:56.60	284.35	22.85	-36.5	-37.4	23.4	0.00e+00	81	30	0	764411904	46	6014
2026-01-11 02:22:57.61	284.62	22.82	-36.5	-37.3	23.5	0.00e+00	90	30	0	766509056	46	5954
2026-01-11 02:22:58.62	284.89	22.80	-36.4	-37.3	23.5	0.00e+00	0	30	0	768606208	46	5916
2026-01-11 02:22:59.63	285.16	22.77	-36.7	-37.6	23.3	0.00e+00	80	30	0	769654784	46	6154
2026-01-11 02:23:00.64	285.43	22.74	-36.7	-37.6	23.3	0.00e+00	0	30	0	771751936	46	6135
2026-01-11 02:23:01.65	285.70	22.71	-36.9	-37.8	23.1	0.00e+00	90	30	0	773849088	46	6317
2026-01-11 02:23:02.66	285.97	22.69	-36.9	-37.9	23.1	0.00e+00	0	30	0	775946240	46	6328
2026-01-11 02:23:03.67	286.24	22.66	-37.1	-38.0	22.8	0.00e+00	87	30	0	778043392	46	6414
2026-01-11 02:23:04.68	286.51	22.63	-36.9	-37.8	23.3	0.00e+00	47	30	0	779091968	46	6295
2026-01-11 02:23:05.68	286.78	22.60	-36.2	-37.0	23.8	0.00e+00	0	30	0	781189120	46	5744
2026-01-11 02:23:06.70	287.05	22.57	-35.8	-36.6	24.0	0.00e+00	77	31	0	783286272	46	5494
2026-01-11 02:23:07.70	287.31	22.53	-35.6	-36.4	24.2	0.00e+00	0	30	0	785383424	44	5981
2026-01-11 02:23:08.71	287.58	22.50	-35.6	-36.5	24.2	0.00e+00	83	31	0	787480576	44	6042
2026-01-11 02:23:09.72	287.85	22.47	-35.5	-36.3	24.3	0.00e+00	0	30	0	788529152	44	5945
2026-01-11 02:23:10.74	288.12	22.44	-35.5	-36.4	24.2	0.00e+00	89	30	0	790626304	44	5974
2026-01-11 02:23:11.74	288.38	22.40	-35.5	-36.3	24.3	0.00e+00	56	30	0	792723456	44	5906
2026-01-11 02:23:12.75	288.64	22.37	-35.2	-36.0	24.5	0.00e+00	0	31	0	794820608	44	5742
2026-01-11 02:23:13.76	288.91	22.33	-35.1	-35.9	24.5	0.00e+00	54	30	0	796917760	44	5659
2026-01-11 02:23:14.77	289.17	22.30	-35.1	-35.9	24.4	0.00e+00	0	30	0	799014912	44	5675
2026-01-11 02:23:15.78	289.43	22.26	-35.2	-36.0	24.5	0.00e+00	92	31	0	800063488	44	5706
2026-01-11 02:23:16.79	289.70	22.23	-35.5	-36.3	24.3	0.00e+00	0	30	0	802160640	44	5922
2026-01-11 02:23:17.80	289.96	22.19	-35.4	-36.2	24.3	0.00e+00	91	31	0	804257792	44	5843
2026-01-11 02:23:18.81	290.22	22.15	-35.3	-36.1	24.3	0.00e+00	46	30	0	806354944	44	5827
2026-01-11 02:23:19.82	290.48	22.11	-35.5	-36.3	24.3	0.00e+00	0	31	0	808452096	44	5920
2026-01-11 02:23:20.83	290.74	22.07	-35.6	-36.4	24.1	0.00e+00	64	30	0	809500672	44	6016
2026-01-11 02:23:21.83	291.00	22.04	-35.8	-36.6	24.1	0.00e+00	0	31	0	811597824	44	6142
2026-01-11 02:23:22.84	291.25	22.00	-35.6	-36.5	24.1	0.00e+00	80	31	0	813694976	44	6039
2026-01-11 02:23:23.85	291.51	21.96	-35.5	-36.4	24.3	0.00e+00	0	31	0	815792128	44	5974
2026-01-11 02:23:24.86	291.77	21.91	-35.5	-36.3	24.3	0.00e+00	92	31	0	817889280	44	5948
2026-01-11 02:23:25.87	292.03	21.87	-35.5	-36.3	24.2	0.00e+00	53	31	0	818937856	44	5943
2026-01-11 02:23:26.88	292.28	21.83	-35.7	-36.5	24.0	0.00e+00	0	30	0	821035008	44	6103
2026-01-11 02:23:27.89	292.54	21.79	-35.7	-36.5	24.1	0.00e+00	92	31	0	823132160	44	6062
2026-01-11 02:23:28.90	292.79	21.75	-35.5	-36.3	24.3	0.00e+00	0	31	0	825229312	44	5944
2026-01-11 02:23:29.91	293.05	21.70	-35.4	-36.2	24.4	0.00e+00	52	31	0	827326464	44	5859
2026-01-11 02:23:30.92	293.30	21.66	-35.4	-36.2	24.4	0.00e+00	0	30	0	828375040	44	5843
2026-01-11 02:23:31.93	293.55	21.61	-35.3	-36.1	24.3	0.00e+00	92	31	0	830472192	44	5807
2026-01-11 02:23:32.94	293.80	21.57	-35.3	-36.1	24.4	0.00e+00	0	31	0	832569344	44	5807
2026-01-11 02:23:33.95	294.05	21.52	-35.1	-35.9	24.5	0.00e+00	0	31	0	834666496	44	5680
2026-01-11 02:23:34.96	294.30	21.48	-35.0	-35.8	24.6	0.00e+00	92	31	0	836763648	44	5599
2026-01-11 02:23:35.97	294.55	21.43	-34.8	-35.6	24.8	0.00e+00	0	31	0	837812224	44	5482
2026-01-11 02:23:36.98	294.80	21.39	-34.8	-35.6	24.8	0.00e+00	52	30	0	839909376	42	6168
2026-01-11 02:23:37.98	295.05	21.34	-34.7	-35.5	24.9	0.00e+00	0	30	0	842006528	42	6043
2026-01-11 02:23:38.99	295.30	21.29	-34.9	-35.7	24.7	0.00e+00	90	31	0	844103680	42	6204
2026-01-11 02:23:40.01	295.54	21.24	-34.9	-35.7	24.7	0.00e+00	0	30	0	846200832	42	6245
2026-01-11 02:23:41.02	295.79	21.20	-35.0	-35.8	24.7	0.00e+00	0	31	0	847249408	42	6270
2026-01-11 02:23:42.02	296.03	21.15	-35.3	-36.1	24.4	0.00e+00	92	31	0	849346560	42	6522
2026-01-11 02:23:43.03	296.28	21.10	-35.4	-36.2	24.5	0.00e+00	0	31	0	851443712	42	6615
2026-01-11 02:23:44.04	296.52	21.05	-35.5	-36.4	24.3	0.00e+00	11	31	0	853540864	42	6708
2026-01-11 02:23:45.06	296.77	21.00	-35.5	-36.4	24.3	0.00e+00	0	31	0	855638016	42	6705
2026-01-11 02:23:46.06	297.01	20.95	-35.5	-36.3	24.2	0.00e+00	90	31	0	856686592	42	6684
2026-01-11 02:23:47.07	297.25	20.90	-35.5	-36.3	24.2	0.00e+00	0	31	0	858783744	42	6680
2026-01-11 02:23:48.08	297.49	20.85	-35.4	-36.3	24.1	0.00e+00	45	30	0	860880896	42	6617
2026-01-11 02:23:49.09	297.73	20.79	-35.4	-36.2	24.3	0.00e+00	90	31	0	862978048	42	6591
2026-01-11 02:23:50.11	297.97	20.74	-35.8	-36.7	24.0	0.00e+00	0	31	0	865075200	42	6951
2026-01-11 02:23:51.12	298.21	20.69	-35.7	-36.5	24.1	0.00e+00	49	31	0	867172352	44	6079
2026-01-11 02:23:52.13	298.44	20.64	-35.9	-36.8	23.8	0.00e+00	0	30	0	868220928	44	6253
2026-01-11 02:23:53.13	298.68	20.58	-36.0	-36.9	23.8	0.00e+00	92	30	0	870318080	44	6352
2026-01-11 02:23:54.14	298.91	20.53	-36.1	-36.9	23.8	0.00e+00	0	31	0	872415232	44	6381
2026-01-11 02:23:55.15	299.15	20.48	-36.0	-36.8	23.8	0.00e+00	92	31	0	874512384	44	6293
2026-01-11 02:23:56.16	299.38	20.42	-35.5	-36.3	24.2	0.00e+00	48	31	0	875560960	44	5924
2026-01-11 02:23:57.17	299.61	20.37	-35.6	-36.5	24.1	0.00e+00	33	30	0	877658112	44	6037
2026-01-11 02:23:58.18	299.85	20.31	-35.7	-36.5	24.1	0.00e+00	91	31	0	879755264	44	6060
2026-01-11 02:23:59.19	300.08	20.26	-35.2	-36.0	24.4	0.00e+00	0	30	0	881852416	44	5722
2026-01-11 02:24:00.20	300.31	20.20	-35.4	-36.2	24.3	0.00e+00	82	30	0	883949568	44	5873
2026-01-11 02:24:01.21	300.54	20.15	-35.6	-36.4	23.8	0.00e+00	0	31	0	884998144	44	5994
2026-01-11 02:24:02.21	300.77	20.09	-36.0	-36.8	24.0	0.00e+00	92	31	0	887095296	44	6304
2026-01-11 02:24:03.22	300.99	20.03	-36.1	-37.0	23.7	0.00e+00	49	31	0	889192448	44	6391
2026-01-11 02:24:04.24	301.22	19.98	-36.7	-37.6	22.9	0.00e+00	0	31	0	891289600	44	6865
2026-01-11 02:24:05.24	301.45	19.92	-37.3	-38.2	22.7	0.00e+00	90	31	0	893386752	46	6602
2026-01-11 02:24:06.26	301.68	19.86	-37.4	-38.4	22.6	0.00e+00	0	31	0	895483904	46	6750
2026-01-11 02:24:07.27	301.90	19.80	-37.7	-38.7	22.5	0.00e+00	50	31	0	896532480	46	6934
2026-01-11 02:24:08.28	302.13	19.75	-37.2	-38.1	22.8	0.00e+00	0	30	0	898629632	48	5823
2026-01-11 02:24:09.28	302.35	19.69	-37.2	-38.2	22.7	0.00e+00	92	31	0	900726784	48	5857
2026-01-11 02:24:10.30	302.57	19.63	-37.0	-38.0	23.0	0.00e+00	0	31	0	902823936	48	5706
2026-01-11 02:24:11.31	302.79	19.57	-36.9	-37.8	23.0	0.00e+00	0	31	0	904921088	48	5625
2026-01-11 02:24:12.32	303.01	19.51	-37.0	-37.9	23.0	0.00e+00	92	30	0	905969664	46	6372
2026-01-11 02:24:13.33	303.23	19.45	-36.9	-37.9	23.1	0.00e+00	0	31	0	908066816	46	6321
2026-01-11 02:24:14.34	303.45	19.39	-36.6	-37.5	23.3	0.00e+00	51	31	0	910163968	46	6101
2026-01-11 02:24:15.34	303.67	19.33	-36.5	-37.4	23.5	0.00e+00	0	30	0	912261120	46	6008
2026-01-11 02:24:16.36	303.89	19.27	-36.5	-37.4	23.4	0.00e+00	91	31	0	914358272	46	6010
2026-01-11 02:24:17.37	304.11	19.21	-36.5	-37.3	23.6	0.00e+00	0	31	0	915406848	46	5958
2026-01-11 02:24:18.38	304.32	19.15	-36.5	-37.4	23.4	0.00e+00	0	30	0	917504000	46	6005
2026-01-11 02:24:19.39	304.54	19.09	-36.6	-37.5	23.3	0.00e+00	92	31	0	919601152	46	6103
2026-01-11 02:24:20.40	304.75	19.03	-36.8	-37.7	23.2	0.00e+00	0	31	0	921698304	46	6211
2026-01-11 02:24:21.41	304.96	18.97	-36.5	-37.4	23.3	0.00e+00	61	31	0	923795456	46	6002
2026-01-11 02:24:22.42	305.18	18.90	-36.7	-37.6	23.3	0.00e+00	0	31	0	924844032	46	6143
2026-01-11 02:24:23.43	305.39	18.84	-36.6	-37.5	23.2	0.00e+00	92	31	0	926941184	46	6093
2026-01-11 02:24:24.44	305.60	18.78	-36.7	-37.6	23.3	0.00e+00	0	31	0	929038336	46	6143
2026-01-11 02:24:25.45	305.81	18.72	-36.6	-37.5	23.3	0.00e+00	92	31	0	931135488	46	6065
2026-01-11 02:24:26.46	306.02	18.65	-36.9	-37.9	23.0	0.00e+00	13	31	0	933232640	46	6319
2026-01-11 02:24:27.47	306.22	18.59	-37.3	-38.3	22.7	0.00e+00	0	31	0	935329792	46	6647
2026-01-11 02:24:28.48	306.43	18.53	-37.7	-38.7	22.3	0.00e+00	35	31	0	936378368	48	6201
2026-01-11 02:24:29.49	306.64	18.47	-38.2	-39.3	21.9	0.00e+00	0	31	0	938475520	48	6673
2026-01-11 02:24:30.50	306.84	18.40	-38.6	-39.7	21.5	0.00e+00	64	31	0	940572672	48	6971
2026-01-11 02:24:31.51	307.05	18.34	-38.4	-39.5	21.7	0.00e+00	0	31	0	942669824	48	6835
2026-01-11 02:24:32.52	307.25	18.27	-38.2	-39.2	21.9	0.00e+00	41	31	0	944766976	48	6599
2026-01-11 02:24:33.53	307.46	18.21	-37.8	-38.8	22.3	0.00e+00	0	31	0	945815552	48	6270
2026-01-11 02:24:34.54	307.66	18.15	-37.5	-38.5	22.5	0.00e+00	0	31	0	947912704	48	6079
2026-01-11 02:24:35.55	307.86	18.08	-37.3	-38.3	22.6	0.00e+00	88	31	0	950009856	48	5950
2026-01-11 02:24:36.56	308.06	18.02	-37.3	-38.3	22.7	0.00e+00	0	31	0	952107008	48	5950
2026-01-11 02:24:37.57	308.26	17.95	-37.2	-38.2	22.7	0.00e+00	92	31	0	954204160	48	5840
2026-01-11 02:24:38.58	308.46	17.89	-37.6	-38.6	22.5	0.00e+00	0	31	0	955252736	48	6113
2026-01-11 02:24:39.59	308.66	17.82	-37.7	-38.7	22.4	0.00e+00	92	31	0	957349888	48	6244
2026-01-11 02:24:40.60	308.85	17.76	-37.7	-38.7	22.4	0.00e+00	17	31	0	959447040	48	6200
2026-01-11 02:24:41.61	309.05	17.69	-37.6	-38.6	22.4	0.00e+00	0	31	0	961544192	48	6148
2026-01-11 02:24:42.62	309.25	17.63	-37.4	-38.4	22.7	0.00e+00	92	31	0	963641344	48	5968
2026-01-11 02:24:43.63	309.44	17.56	-37.1	-38.0	22.7	0.00e+00	0	31	0	964689920	48	5756
2026-01-11 02:24:44.64	309.64	17.50	-37.0	-37.9	22.9	0.00e+00	71	31	0	966787072	48	5683
2026-01-11 02:24:45.65	309.83	17.43	-36.9	-37.9	23.0	0.00e+00	0	31	0	968884224	48	5653
2026-01-11 02:24:46.66	310.02	17.36	-37.0	-38.0	22.8	0.00e+00	91	31	0	970981376	48	5716
2026-01-11 02:24:47.67	310.21	17.30	-36.9	-37.9	22.8	0.00e+00	9	31	0	973078528	46	6343
2026-01-11 02:24:48.68	310.40	17.23	-37.1	-38.1	22.7	0.00e+00	0	31	0	974127104	46	6510
2026-01-11 02:24:49.68	310.59	17.17	-37.1	-38.1	22.8	0.00e+00	92	31	0	976224256	46	6485
2026-01-11 02:24:50.70	310.78	17.10	-37.1	-38.1	22.8	0.00e+00	0	31	0	978321408	46	6512
2026-01-11 02:24:51.71	310.97	17.03	-36.9	-37.8	22.9	0.00e+00	92	30	0	980418560	46	6274
2026-01-11 02:24:52.72	311.16	16.97	-36.7	-37.7	23.0	0.00e+00	0	30	0	982515712	46	6203
2026-01-11 02:24:53.73	311.34	16.90	-36.9	-37.9	22.9	0.00e+00	92	30	0	983564288	46	6349
2026-01-11 02:24:54.74	311.53	16.83	-36.9	-37.8	23.0	0.00e+00	0	30	0	985661440	46	6315
2026-01-11 02:24:55.75	311.72	16.77	-36.9	-37.9	22.9	0.00e+00	1	30	0	987758592	46	6339
2026-01-11 02:24:56.75	311.90	16.70	-37.2	-38.2	22.6	0.00e+00	66	30	0	989855744	46	6566
2026-01-11 02:24:57.76	312.08	16.63	-37.4	-38.4	22.5	0.00e+00	0	30	0	991952896	46	6712
2026-01-11 02:24:58.77	312.26	16.57	-37.8	-38.9	22.1	0.00e+00	91	30	0	993001472	46	7137
2026-01-11 02:24:59.78	312.45	16.50	-37.8	-38.9	22.0	0.00e+00	0	30	0	995098624	48	6345
2026-01-11 02:25:00.79	312.63	16.43	-37.7	-38.7	22.3	0.00e+00	91	30	0	997195776	48	6208
2026-01-11 02:25:01.80	312.81	16.36	-37.2	-38.2	22.6	0.00e+00	0	30	0	999292928	48	5881
2026-01-11 02:25:02.81	312.99	16.30	-37.1	-38.1	22.7	0.00e+00	0	30	0	1001390080	48	5771
2026-01-11 02:25:03.82	313.17	16.23	-36.7	-37.6	23.0	0.00e+00	50	30	0	1002438656	46	6147
2026-01-11 02:25:04.83	313.34	16.16	-36.4	-37.3	23.3	0.00e+00	0	31	0	1004535808	46	5919
2026-01-11 02:25:05.84	313.52	16.09	-36.3	-37.2	23.4	0.00e+00	11	30	0	1006632960	46	5860
2026-01-11 02:25:06.85	313.70	16.03	-36.3	-37.2	23.4	0.00e+00	0	30	0	1008730112	46	5860
2026-01-11 02:25:07.86	313.87	15.96	-36.6	-37.5	23.1	0.00e+00	80	30	0	1010827264	46	6065
2026-01-11 02:25:08.87	314.05	15.89	-36.9	-37.8	22.9	0.00e+00	0	30	0	1012924416	46	6289
2026-01-11 02:25:09.88	314.22	15.82	-36.9	-37.9	22.9	0.00e+00	53	30	0	1013972992	46	6336
2026-01-11 02:25:10.89	314.39	15.75	-37.1	-38.1	22.7	0.00e+00	64	30	0	1016070144	46	6501
2026-01-11 02:25:11.90	314.57	15.69	-37.2	-38.2	22.8	0.00e+00	0	30	0	1018167296	46	6562
2026-01-11 02:25:12.91	314.74	15.62	-37.1	-38.1	22.6	0.00e+00	23	31	0	1020264448	46	6487
2026-01-11 02:25:13.92	314.91	15.55	-37.1	-38.1	22.7	0.00e+00	0	30	0	1022361600	46	6512
2026-01-11 02:25:14.93	315.08	15.48	-36.9	-37.8	22.9	0.00e+00	69	30	0	1023410176	46	6301
2026-01-11 02:25:15.94	315.25	15.41	-37.0	-38.0	22.8	0.00e+00	0	30	0	1025507328	46	6410
2026-01-11 02:25:16.95	315.42	15.34	-37.2	-38.2	22.6	0.00e+00	79	30	0	1027604480	46	6587
2026-01-11 02:25:17.96	315.59	15.28	-37.3	-38.3	22.5	0.00e+00	49	30	0	1029701632	46	6681
2026-01-11 02:25:18.97	315.75	15.21	-37.6	-38.7	22.0	0.00e+00	0	30	0	1031798784	46	6933
2026-01-11 02:25:19.98	315.92	15.14	-37.8	-38.9	22.0	0.00e+00	42	30	0	1032847360	48	6356
2026-01-11 02:25:20.98	316.08	15.07	-37.7	-38.8	22.1	0.00e+00	0	30	0	1034944512	48	6271
2026-01-11 02:25:21.99	316.25	15.00	-37.8	-38.9	22.1	0.00e+00	92	30	0	1037041664	48	6360
2026-01-11 02:25:23.01	316.42	14.93	-37.4	-38.4	22.4	0.00e+00	0	30	0	1039138816	48	5995
2026-01-11 02:25:24.01	316.58	14.87	-37.0	-38.0	22.7	0.00e+00	55	30	0	1041235968	48	5753
2026-01-11 02:25:25.03	316.74	14.80	-36.7	-37.7	22.9	0.00e+00	21	30	0	1042284544	46	6207
2026-01-11 02:25:26.04	316.90	14.73	-36.4	-37.3	23.2	0.00e+00	0	30	0	1044381696	46	5923
2026-01-11 02:25:27.05	317.06	14.66	-36.3	-37.3	23.4	0.00e+00	71	30	0	1046478848	46	5914
2026-01-11 02:25:28.06	317.23	14.59	-36.4	-37.3	23.3	0.00e+00	0	30	0	1048576000	46	5907
2026-01-11 02:25:29.06	317.38	14.52	-36.4	-37.3	23.3	0.00e+00	91	30	0	1050673152	46	5936
2026-01-11 02:25:30.08	317.54	14.45	-36.6	-37.5	23.2	0.00e+00	0	30	0	1051721728	46	6057
2026-01-11 02:25:31.08	317.70	14.39	-36.6	-37.6	23.1	0.00e+00	52	30	0	1053818880	46	6111
2026-01-11 02:25:32.09	317.86	14.32	-36.5	-37.4	23.2	0.00e+00	0	30	0	1055916032	46	6007
2026-01-11 02:25:33.10	318.02	14.25	-36.3	-37.2	23.4	0.00e+00	0	30	0	1058013184	46	5881
2026-01-11 02:25:34.11	318.17	14.18	-36.2	-37.0	23.5	0.00e+00	92	30	0	1060110336	46	5755
2026-01-11 02:25:35.12	318.33	14.11	-35.9	-36.7	23.7	0.00e+00	0	30	0	1061158912	46	5542
2026-01-11 02:25:36.13	318.48	14.04	-36.0	-36.9	23.6	0.00e+00	80	30	0	1063256064	46	5651
2026-01-11 02:25:37.14	318.64	13.97	-35.9	-36.8	23.7	0.00e+00	33	30	0	1065353216	46	5600
2026-01-11 02:25:38.15	318.79	13.91	-35.5	-36.3	23.9	0.00e+00	92	30	0	1067450368	44	5936
2026-01-11 02:25:39.17	318.95	13.84	-35.7	-36.5	23.7	0.00e+00	0	30	0	1069547520	44	6063
2026-01-11 02:25:40.17	319.10	13.77	-35.8	-36.7	23.7	0.00e+00	0	30	0	1070596096	44	6205
2026-01-11 02:25:41.18	319.25	13.70	-36.2	-37.1	23.3	0.00e+00	45	30	0	1072693248	44	6521
2026-01-11 02:25:42.20	319.40	13.63	-36.6	-37.5	23.0	0.00e+00	0	30	0	1074790400	44	6799
2026-01-11 02:25:43.21	319.55	13.56	-36.9	-37.9	23.0	0.00e+00	92	30	0	1076887552	46	6332
2026-01-11 02:25:44.22	319.70	13.49	-37.2	-38.2	22.5	0.00e+00	0	30	0	1078984704	46	6612
2026-01-11 02:25:45.22	319.85	13.43	-37.1	-38.1	22.6	0.00e+00	0	30	0	1081081856	46	6531
2026-01-11 02:25:46.23	320.00	13.36	-37.3	-38.3	22.3	0.00e+00	0	30	0	1082130432	46	6691
2026-01-11 02:25:47.25	320.15	13.29	-37.3	-38.3	22.5	0.00e+00	33	30	0	1084227584	46	6631
2026-01-11 02:25:48.25	320.29	13.22	-37.1	-38.1	22.6	0.00e+00	46	30	0	1086324736	46	6509
2026-01-11 02:25:49.26	320.44	13.15	-37.1	-38.1	22.7	0.00e+00	0	30	0	1088421888	46	6491
2026-01-11 02:25:50.27	320.58	13.08	-37.3	-38.3	22.5	0.00e+00	91	30	0	1090519040	46	6627
2026-01-11 02:25:51.28	320.73	13.02	-37.4	-38.4	22.4	0.00e+00	0	30	0	1091567616	46	6700
2026-01-11 02:25:52.29	320.87	12.95	-37.6	-38.7	22.2	0.00e+00	0	30	0	1093664768	46	6951
2026-01-11 02:25:53.30	321.02	12.88	-37.7	-38.7	22.1	0.00e+00	0	30	0	1095761920	46	6980
2026-01-11 02:25:54.31	321.16	12.81	-37.9	-39.0	21.9	0.00e+00	0	30	0	1097859072	48	6437
2026-01-11 02:25:55.32	321.30	12.74	-38.0	-39.1	21.7	0.00e+00	0	30	0	1099956224	48	6477
2026-01-11 02:25:56.32	321.44	12.68	-37.8	-38.9	21.9	0.00e+00	0	30	0	1101004800	48	6343
2026-01-11 02:25:57.33	321.58	12.61	-37.6	-38.7	22.1	0.00e+00	74	30	0	1103101952	48	6188
2026-01-11 02:25:58.34	321.72	12.54	-37.5	-38.6	22.3	0.00e+00	0	30	0	1105199104	48	6126
2026-01-11 02:25:59.35	321.86	12.47	-37.1	-38.1	22.6	0.00e+00	34	30	0	1107296256	48	5813
2026-01-11 02:26:00.36	322.00	12.40	-37.0	-38.0	22.7	0.00e+00	0	30	0	1109393408	48	5720
2026-01-11 02:26:01.37	322.14	12.34	-36.8	-37.7	22.9	0.00e+00	0	30	0	1110441984	46	6214
2026-01-11 02:26:02.38	322.28	12.27	-36.7	-37.7	22.7	0.00e+00	17	30	0	1112539136	46	6191
2026-01-11 02:26:03.39	322.42	12.20	-36.7	-37.6	22.6	0.00e+00	0	30	0	1114636288	46	6131
2026-01-11 02:26:04.40	322.55	12.13	-36.6	-37.5	22.9	0.00e+00	49	30	0	1116733440	46	6102
2026-01-11 02:26:05.41	322.69	12.06	-36.7	-37.6	22.9	0.00e+00	0	30	0	1118830592	46	6144
2026-01-11 02:26:06.42	322.82	12.00	-36.9	-37.9	22.7	0.00e+00	92	30	0	1119879168	46	6345
2026-01-11 02:26:07.43	322.96	11.93	-37.1	-38.1	22.5	0.00e+00	0	30	0	1121976320	46	6488
2026-01-11 02:26:08.44	323.09	11.86	-37.2	-38.1	22.4	0.00e+00	0	30	0	1124073472	46	6531
2026-01-11 02:26:09.45	323.23	11.79	-37.2	-38.2	22.1	0.00e+00	0	30	0	1126170624	46	6564
2026-01-11 02:26:10.45	323.36	11.73	-37.2	-38.2	21.9	0.00e+00	0	30	0	1128267776	46	6587
2026-01-11 02:26:11.47	323.49	11.66	-37.2	-38.2	22.5	0.00e+00	42	30	0	1129316352	46	6590
2026-01-11 02:26:12.47	323.62	11.59	-37.3	-38.3	22.3	0.00e+00	0	30	0	1131413504	46	6683
2026-01-11 02:26:13.49	323.76	11.52	-37.3	-38.4	22.3	0.00e+00	92	30	0	1133510656	46	6702
2026-01-11 02:26:14.50	323.89	11.46	-37.3	-38.4	22.3	0.00e+00	0	30	0	1135607808	46	6695
2026-01-11 02:26:15.51	324.02	11.39	-37.7	-38.7	22.0	0.00e+00	0	30	0	1137704960	46	6970
2026-01-11 02:26:16.51	324.15	11.32	-37.9	-38.9	21.8	0.00e+00	0	30	0	1138753536	46	7169
2026-01-11 02:26:17.52	324.28	11.26	-38.0	-39.1	21.5	0.00e+00	0	30	0	1140850688	48	6530
2026-01-11 02:26:18.53	324.40	11.19	-38.4	-39.5	21.3	0.00e+00	41	30	0	1142947840	48	6820
2026-01-11 02:26:19.54	324.53	11.12	-38.6	-39.8	21.0	0.00e+00	0	30	0	1145044992	48	7048
2026-01-11 02:26:20.55	324.66	11.05	-38.9	-40.1	20.8	0.00e+00	92	30	0	1147142144	50	6507
2026-01-11 02:26:21.56	324.79	10.99	-38.6	-39.8	21.1	0.00e+00	0	30	0	1149239296	50	6310
2026-01-11 02:26:22.57	324.91	10.92	-38.5	-39.7	21.3	0.00e+00	0	30	0	1150287872	50	6174
2026-01-11 02:26:23.58	325.04	10.85	-38.3	-39.5	21.4	0.00e+00	0	30	0	1152385024	50	6040
2026-01-11 02:26:24.59	325.16	10.79	-38.1	-39.3	21.6	0.00e+00	0	30	0	1154482176	50	5910
2026-01-11 02:26:25.60	325.29	10.72	-37.9	-39.0	21.8	0.00e+00	41	30	0	1156579328	50	5737
2026-01-11 02:26:26.61	325.41	10.65	-37.5	-38.6	22.2	0.00e+00	0	30	0	1158676480	48	6117
2026-01-11 02:26:27.62	325.54	10.59	-37.1	-38.1	22.4	0.00e+00	92	30	0	1159725056	48	5782
2026-01-11 02:26:28.63	325.66	10.52	-37.0	-38.0	22.6	0.00e+00	0	30	0	1161822208	48	5749
2026-01-11 02:26:29.64	325.78	10.45	-36.8	-37.8	22.7	0.00e+00	41	30	0	1163919360	48	5594
2026-01-11 02:26:30.65	325.90	10.39	-36.6	-37.6	22.9	0.00e+00	0	30	0	1166016512	46	6126
2026-01-11 02:26:31.66	326.02	10.32	-36.6	-37.6	22.8	0.00e+00	0	30	0	1167065088	46	6124
2026-01-11 02:26:32.67	326.15	10.26	-36.8	-37.7	22.8	0.00e+00	30	30	0	1169162240	46	6235
2026-01-11 02:26:33.68	326.27	10.19	-36.7	-37.7	22.8	0.00e+00	0	30	0	1171259392	46	6176
2026-01-11 02:26:34.68	326.38	10.12	-37.0	-38.0	22.6	0.00e+00	92	30	0	1173356544	46	6404
2026-01-11 02:26:35.69	326.50	10.06	-37.1	-38.1	22.5	0.00e+00	0	30	0	1175453696	46	6487
2026-01-11 02:26:36.70	326.62	9.99	-37.2	-38.2	22.3	0.00e+00	50	30	0	1177550848	46	6603
2026-01-11 02:26:37.71	326.74	9.93	-37.6	-38.6	22.0	0.00e+00	0	30	0	1178599424	46	6918
2026-01-11 02:26:38.73	326.86	9.86	-37.8	-38.9	21.7	0.00e+00	0	30	0	1180696576	46	7143
2026-01-11 02:26:39.73	326.98	9.80	-37.8	-38.9	21.7	0.00e+00	44	30	0	1182793728	48	6364
2026-01-11 02:26:40.74	327.09	9.73	-37.8	-38.9	21.7	0.00e+00	0	30	0	1184890880	48	6364
2026-01-11 02:26:41.75	327.21	9.66	-37.8	-38.9	21.7	0.00e+00	43	30	0	1186988032	48	6333
2026-01-11 02:26:42.76	327.33	9.60	-37.9	-39.0	21.7	0.00e+00	0	30	0	1188036608	48	6451
2026-01-11 02:26:43.77	327.44	9.53	-38.0	-39.2	21.6	0.00e+00	90	30	0	1190133760	48	6540
2026-01-11 02:26:44.78	327.56	9.47	-38.2	-39.3	21.5	0.00e+00	0	30	0	1192230912	48	6664
2026-01-11 02:26:45.79	327.67	9.40	-38.3	-39.5	21.3	0.00e+00	0	30	0	1194328064	48	6776
