passes_logs/2026/01/11/R4.6S_Anadyr/R4.6S_Anadyr__20260111_211712_NOAA_20_JPSS-1_rec.log

#Pass ID: 20260111_211712_NOAA 20 (JPSS-1)
#Satellite: NOAA 20 (JPSS-1)
#Configuration: NOAA 20
#almurnet v.1.7.20251203
#Start time: 2026-01-11 21:17:13

#Version: 2.2.20231116
#Station: R4.6S_Anadyr
#Location: 177.4865 lon 64.73178 lat
#TLE: 1 43013U 17073A   26011.59429536  .00000082  00000+0  59704-4 0  9990
#TLE: 2 43013  98.7632 312.5697 0001637  44.2118 315.9188 14.19535307422256

#Time	Az	El	Level	Level2	SNR	BER	BlckErr	Temp	State	Recorded	gain1	gain2
2026-01-11 21:17:13.67	87.21	0.06	-48.2	-63.1	3.5	1.51e+00	0	24	0	0	60	51799
2026-01-11 21:17:14.67	87.15	0.11	-48.4	-63.6	3.6	1.51e+00	0	25	104	0	60	54432
2026-01-11 21:17:15.68	87.08	0.17	-48.3	-63.5	3.6	1.51e+00	0	25	104	0	60	54163
2026-01-11 21:17:16.69	87.02	0.22	-48.3	-63.5	3.6	1.51e+00	0	25	104	0	60	53990
2026-01-11 21:17:17.70	86.96	0.27	-48.3	-63.5	3.6	1.51e+00	0	25	104	0	60	54268
2026-01-11 21:17:18.71	86.89	0.33	-48.3	-63.4	3.6	1.51e+00	0	25	104	0	60	53393
2026-01-11 21:17:19.72	86.83	0.38	-48.2	-63.4	3.6	1.51e+00	0	26	104	0	60	53486
2026-01-11 21:17:20.73	86.76	0.43	-48.2	-63.4	3.6	1.51e+00	0	25	104	0	60	53713
2026-01-11 21:17:21.74	86.70	0.49	-48.2	-63.5	3.6	1.51e+00	0	26	104	0	60	53987
2026-01-11 21:17:22.75	86.63	0.54	-48.3	-63.5	3.6	1.51e+00	0	26	104	0	60	53780
2026-01-11 21:17:23.76	86.56	0.59	-48.2	-63.4	3.5	1.51e+00	0	26	104	0	60	53652
2026-01-11 21:17:24.77	86.50	0.65	-47.9	-63.4	3.6	1.51e+00	0	26	104	0	60	53499
2026-01-11 21:17:25.78	86.43	0.70	-48.2	-63.4	3.6	1.51e+00	0	26	104	0	60	53405
2026-01-11 21:17:26.79	86.37	0.75	-48.0	-63.2	3.6	1.51e+00	0	26	104	0	60	52521
2026-01-11 21:17:27.80	86.30	0.81	-47.6	-63.1	3.5	1.51e+00	0	26	104	0	60	51809
2026-01-11 21:17:28.81	86.23	0.86	-47.2	-63.0	3.5	1.51e+00	0	26	104	0	60	50874
2026-01-11 21:17:29.82	86.16	0.91	-45.3	-62.6	3.6	1.51e+00	0	26	104	0	60	48554
2026-01-11 21:17:30.83	86.10	0.97	-46.2	-61.8	3.6	1.51e+00	0	26	104	0	60	44662
2026-01-11 21:17:31.84	86.03	1.02	-45.9	-61.8	3.6	1.51e+00	0	26	104	0	60	44385
2026-01-11 21:17:32.85	85.96	1.08	-45.9	-61.7	3.6	1.51e+00	0	26	104	0	60	44199
2026-01-11 21:17:33.86	85.89	1.13	-45.8	-61.7	3.6	1.51e+00	0	26	104	0	60	44169
2026-01-11 21:17:34.87	85.82	1.18	-45.8	-61.7	3.6	1.51e+00	0	26	104	0	60	43865
2026-01-11 21:17:35.88	85.76	1.24	-45.8	-61.7	3.6	1.51e+00	0	26	104	0	60	44179
2026-01-11 21:17:36.89	85.69	1.29	-45.8	-61.7	3.6	1.51e+00	0	26	104	0	60	44163
2026-01-11 21:17:37.90	85.62	1.35	-45.7	-61.7	3.6	1.51e+00	0	26	104	0	60	44141
2026-01-11 21:17:38.91	85.55	1.40	-45.7	-61.7	3.6	1.51e+00	0	26	104	0	60	43741
2026-01-11 21:17:39.92	85.48	1.46	-45.7	-61.7	3.6	1.51e+00	0	26	104	0	60	44030
2026-01-11 21:17:40.93	85.41	1.51	-45.7	-61.7	3.6	1.51e+00	0	26	104	0	60	44132
2026-01-11 21:17:41.94	85.34	1.56	-45.7	-61.7	3.6	1.51e+00	0	26	104	0	60	44065
2026-01-11 21:17:42.95	85.27	1.62	-45.7	-61.7	3.6	1.51e+00	0	26	104	0	60	44072
2026-01-11 21:17:43.96	85.20	1.67	-45.7	-61.7	3.6	1.51e+00	0	26	104	0	60	44150
2026-01-11 21:17:44.97	85.12	1.73	-45.8	-61.8	3.6	1.51e+00	0	26	104	0	60	44379
2026-01-11 21:17:45.98	85.05	1.78	-45.8	-61.8	3.6	1.51e+00	0	26	104	0	60	44244
2026-01-11 21:17:46.99	84.98	1.84	-45.8	-61.7	3.6	1.51e+00	0	26	104	0	60	43879
2026-01-11 21:17:48.00	84.91	1.89	-45.7	-61.6	3.6	1.51e+00	0	26	104	0	60	43502
2026-01-11 21:17:49.01	84.84	1.95	-45.7	-61.6	3.6	1.51e+00	0	26	104	0	60	43448
2026-01-11 21:17:50.02	84.76	2.00	-45.7	-61.5	3.6	1.51e+00	0	26	104	0	60	43118
2026-01-11 21:17:51.03	84.69	2.06	-45.7	-61.5	3.6	1.51e+00	0	26	104	0	60	42778
2026-01-11 21:17:52.04	84.62	2.11	-45.7	-61.4	3.6	1.51e+00	0	26	104	0	60	42370
2026-01-11 21:17:53.05	84.54	2.17	-45.6	-61.5	3.6	1.51e+00	0	26	104	0	60	42974
2026-01-11 21:17:54.06	84.47	2.22	-45.6	-61.6	3.6	1.51e+00	0	26	104	0	60	43384
2026-01-11 21:17:55.07	84.40	2.28	-45.6	-61.7	3.6	1.51e+00	0	26	104	0	60	43854
2026-01-11 21:17:56.08	84.32	2.33	-45.7	-61.7	3.6	1.51e+00	0	26	104	0	60	43959
2026-01-11 21:17:57.09	84.25	2.39	-45.7	-61.6	3.6	1.51e+00	0	26	104	0	60	43580
2026-01-11 21:17:58.10	84.17	2.45	-45.6	-61.6	3.6	1.51e+00	0	26	104	0	60	43513
2026-01-11 21:17:59.11	84.10	2.50	-45.6	-61.7	3.6	1.51e+00	0	26	104	0	60	44091
2026-01-11 21:18:00.12	84.02	2.56	-45.6	-61.7	3.6	1.51e+00	0	26	104	0	60	43859
2026-01-11 21:18:01.13	83.95	2.61	-45.6	-61.5	3.6	1.51e+00	0	26	104	0	60	43128
2026-01-11 21:18:02.14	83.87	2.67	-45.6	-61.0	3.6	1.51e+00	0	26	104	0	60	40706
2026-01-11 21:18:03.15	83.79	2.72	-45.6	-60.7	3.6	1.51e+00	0	26	104	0	60	39102
2026-01-11 21:18:04.16	83.72	2.78	-45.7	-61.1	3.6	1.51e+00	0	26	104	0	60	40909
2026-01-11 21:18:05.17	83.64	2.84	-45.7	-61.4	3.6	1.51e+00	0	26	104	0	60	42652
2026-01-11 21:18:06.18	83.56	2.89	-45.6	-60.6	3.6	1.51e+00	0	26	104	0	60	38863
2026-01-11 21:18:07.19	83.48	2.95	-45.5	-57.4	4.3	1.50e+00	84	26	104	0	60	26713
2026-01-11 21:18:08.20	83.41	3.00	-45.0	-52.6	7.3	6.03e-01	0	26	0	0	60	15365
2026-01-11 21:18:09.21	83.33	3.06	-44.3	-49.9	10.3	1.53e-02	0	26	0	2097152	60	11333
2026-01-11 21:18:10.22	83.25	3.12	-43.9	-48.6	11.9	1.32e-03	0	26	0	4194304	60	9717
2026-01-11 21:18:11.23	83.17	3.17	-43.7	-48.1	12.4	2.79e-04	0	26	0	5242880	60	9236
2026-01-11 21:18:12.24	83.09	3.23	-45.0	-50.5	9.4	6.72e-03	0	26	0	7340032	60	12141
2026-01-11 21:18:13.25	83.01	3.29	-46.2	-56.9	4.2	1.28e+00	0	26	104	8388608	60	25327
2026-01-11 21:18:14.26	82.93	3.34	-43.8	-49.0	12.0	1.56e-04	0	26	0	8388608	60	10149
2026-01-11 21:18:15.27	82.85	3.40	-41.8	-43.9	17.2	7.00e-07	0	26	0	10485760	56	7095
2026-01-11 21:18:16.28	82.77	3.46	-45.0	-60.5	3.6	1.45e+00	0	26	104	11534336	60	38151
2026-01-11 21:18:17.29	82.69	3.51	-41.5	-43.6	16.8	1.15e+00	0	26	104	11534336	56	6871
2026-01-11 21:18:18.29	82.61	3.57	-41.2	-43.1	17.4	0.00e+00	0	26	0	12582912	56	6505
2026-01-11 21:18:19.30	82.53	3.63	-41.9	-44.1	16.6	0.00e+00	0	26	0	13631488	56	7261
2026-01-11 21:18:20.31	82.45	3.68	-41.4	-43.3	17.5	0.00e+00	0	26	0	15728640	56	6673
2026-01-11 21:18:21.32	82.37	3.74	-41.7	-43.8	17.0	0.00e+00	0	26	0	17825792	56	7016
2026-01-11 21:18:22.33	82.28	3.80	-41.3	-43.2	17.6	0.00e+00	0	26	0	19922944	56	6576
2026-01-11 21:18:23.34	82.20	3.85	-41.2	-43.0	17.9	0.00e+00	0	26	0	22020096	56	6427
2026-01-11 21:18:24.35	82.12	3.91	-41.2	-43.0	17.8	0.00e+00	0	26	0	23068672	56	6443
2026-01-11 21:18:25.36	82.03	3.97	-41.3	-43.1	17.7	0.00e+00	0	26	0	25165824	56	6518
2026-01-11 21:18:26.36	81.95	4.02	-41.1	-42.9	18.1	0.00e+00	0	26	0	27262976	56	6336
2026-01-11 21:18:27.37	81.87	4.08	-41.2	-43.1	17.9	0.00e+00	0	26	0	29360128	56	6476
2026-01-11 21:18:28.38	81.78	4.14	-40.6	-42.3	18.6	0.00e+00	0	27	0	31457280	56	5936
2026-01-11 21:18:29.39	81.70	4.20	-40.9	-42.7	18.1	0.00e+00	0	26	0	32505856	54	6947
2026-01-11 21:18:30.40	81.61	4.25	-40.9	-42.7	18.1	0.00e+00	0	26	0	34603008	54	6979
2026-01-11 21:18:31.41	81.53	4.31	-41.3	-43.2	17.7	0.00e+00	0	26	0	36700160	54	7371
2026-01-11 21:18:32.42	81.44	4.37	-41.0	-42.8	18.0	0.00e+00	0	26	0	38797312	54	7046
2026-01-11 21:18:33.43	81.36	4.43	-41.0	-42.8	18.0	0.00e+00	0	26	0	40894464	54	7049
2026-01-11 21:18:34.44	81.27	4.49	-40.6	-42.3	18.7	0.00e+00	0	26	0	41943040	54	6635
2026-01-11 21:18:35.45	81.18	4.54	-40.8	-42.5	18.4	0.00e+00	0	26	0	44040192	54	6787
2026-01-11 21:18:36.46	81.09	4.60	-41.0	-42.8	18.0	0.00e+00	0	26	0	46137344	54	7061
2026-01-11 21:18:37.46	81.01	4.66	-41.3	-43.2	17.8	0.00e+00	0	27	0	48234496	54	7354
2026-01-11 21:18:38.47	80.92	4.72	-40.7	-42.4	18.6	0.00e+00	0	27	0	50331648	54	6694
2026-01-11 21:18:39.48	80.83	4.77	-40.4	-42.0	19.0	0.00e+00	0	27	0	51380224	54	6420
2026-01-11 21:18:40.49	80.74	4.83	-40.5	-42.2	18.7	0.00e+00	0	27	0	53477376	54	6567
2026-01-11 21:18:41.50	80.65	4.89	-40.7	-42.3	18.5	0.00e+00	0	27	0	55574528	54	6689
2026-01-11 21:18:42.51	80.56	4.95	-40.7	-42.4	18.6	0.00e+00	0	27	0	57671680	54	6752
2026-01-11 21:18:43.52	80.47	5.01	-40.7	-42.3	18.6	0.00e+00	0	26	0	59768832	54	6679
2026-01-11 21:18:44.53	80.38	5.07	-40.7	-42.3	18.5	0.00e+00	0	27	0	60817408	54	6674
2026-01-11 21:18:45.54	80.29	5.12	-40.8	-42.5	18.5	0.00e+00	0	27	0	62914560	54	6808
2026-01-11 21:18:46.55	80.20	5.18	-40.6	-42.3	18.8	0.00e+00	0	27	0	65011712	54	6622
2026-01-11 21:18:47.56	80.11	5.24	-40.7	-42.3	18.6	0.00e+00	0	27	0	67108864	54	6667
2026-01-11 21:18:48.57	80.02	5.30	-40.8	-42.4	18.7	0.00e+00	0	27	0	69206016	54	6745
2026-01-11 21:18:49.58	79.93	5.36	-40.7	-42.3	18.8	0.00e+00	0	27	0	70254592	54	6627
2026-01-11 21:18:50.58	79.84	5.42	-40.6	-42.2	18.9	0.00e+00	0	27	0	72351744	54	6568
2026-01-11 21:18:51.59	79.74	5.48	-40.5	-42.1	19.0	0.00e+00	0	27	0	74448896	54	6471
2026-01-11 21:18:52.60	79.65	5.54	-40.5	-42.1	18.9	0.00e+00	0	27	0	76546048	54	6527
2026-01-11 21:18:53.61	79.56	5.59	-40.5	-42.2	18.8	0.00e+00	0	27	0	78643200	54	6549
2026-01-11 21:18:54.62	79.46	5.65	-40.8	-42.5	18.7	0.00e+00	0	27	0	79691776	54	6779
2026-01-11 21:18:55.63	79.37	5.71	-40.8	-42.5	18.5	0.00e+00	0	27	0	81788928	54	6802
2026-01-11 21:18:56.64	79.27	5.77	-40.5	-42.2	18.9	0.00e+00	0	27	0	83886080	54	6545
2026-01-11 21:18:57.65	79.18	5.83	-40.4	-42.0	19.1	0.00e+00	0	27	0	85983232	54	6415
2026-01-11 21:18:58.66	79.08	5.89	-40.4	-42.0	19.0	0.00e+00	0	27	0	88080384	54	6397
2026-01-11 21:18:59.67	78.99	5.95	-40.9	-42.6	18.8	0.00e+00	0	27	0	89128960	54	6853
2026-01-11 21:19:00.68	78.89	6.01	-40.6	-42.2	18.7	0.00e+00	0	27	0	91226112	54	6573
2026-01-11 21:19:01.69	78.79	6.07	-40.6	-42.2	18.9	0.00e+00	0	27	0	93323264	54	6550
2026-01-11 21:19:02.70	78.70	6.13	-40.9	-42.6	18.5	0.00e+00	0	27	0	95420416	54	6925
2026-01-11 21:19:03.71	78.60	6.19	-40.6	-42.2	18.8	0.00e+00	0	27	0	97517568	54	6596
2026-01-11 21:19:04.72	78.50	6.25	-40.7	-42.3	18.8	0.00e+00	0	27	0	99614720	54	6666
2026-01-11 21:19:05.72	78.40	6.31	-40.8	-42.4	18.7	0.00e+00	0	27	0	100663296	54	6748
2026-01-11 21:19:06.73	78.31	6.37	-40.8	-42.4	18.7	0.00e+00	0	27	0	102760448	54	6747
2026-01-11 21:19:07.74	78.21	6.43	-40.9	-42.5	18.5	0.00e+00	0	27	0	104857600	54	6836
2026-01-11 21:19:08.75	78.11	6.49	-40.4	-42.0	19.1	0.00e+00	0	27	0	106954752	54	6412
2026-01-11 21:19:09.76	78.01	6.55	-40.7	-42.3	18.9	0.00e+00	0	27	0	109051904	54	6629
2026-01-11 21:19:10.77	77.91	6.61	-40.8	-42.4	18.9	0.00e+00	0	27	0	110100480	54	6696
2026-01-11 21:19:11.77	77.81	6.66	-40.7	-42.2	19.0	0.00e+00	0	27	0	112197632	54	6586
2026-01-11 21:19:12.78	77.70	6.72	-40.7	-42.2	18.9	0.00e+00	0	27	0	114294784	54	6584
2026-01-11 21:19:13.79	77.60	6.78	-40.7	-42.3	18.9	0.00e+00	0	27	0	116391936	54	6637
2026-01-11 21:19:14.80	77.50	6.84	-40.7	-42.3	18.9	0.00e+00	0	27	0	118489088	54	6647
2026-01-11 21:19:15.81	77.40	6.91	-40.7	-42.2	19.0	0.00e+00	0	27	0	119537664	54	6599
2026-01-11 21:19:16.82	77.29	6.97	-40.8	-42.4	18.8	0.00e+00	0	27	0	121634816	54	6742
2026-01-11 21:19:17.83	77.19	7.03	-40.6	-42.1	19.1	0.00e+00	0	27	0	123731968	54	6530
2026-01-11 21:19:18.84	77.09	7.09	-40.5	-42.1	19.2	0.00e+00	0	27	0	125829120	54	6485
2026-01-11 21:19:19.85	76.98	7.15	-40.7	-42.2	19.1	0.00e+00	0	27	0	127926272	54	6602
2026-01-11 21:19:20.85	76.88	7.21	-40.4	-41.9	19.4	0.00e+00	0	27	0	128974848	54	6330
2026-01-11 21:19:21.86	76.77	7.27	-40.4	-41.9	19.5	0.00e+00	0	27	0	131072000	54	6329
2026-01-11 21:19:22.87	76.67	7.33	-40.5	-42.0	19.3	0.00e+00	0	27	0	133169152	54	6400
2026-01-11 21:19:23.88	76.56	7.39	-40.7	-42.3	19.2	0.00e+00	0	27	0	135266304	54	6634
2026-01-11 21:19:24.89	76.46	7.45	-40.5	-42.0	19.3	0.00e+00	0	27	0	137363456	54	6421
2026-01-11 21:19:25.90	76.35	7.51	-40.7	-42.2	19.1	0.00e+00	0	27	0	138412032	54	6573
2026-01-11 21:19:26.90	76.24	7.57	-40.6	-42.1	19.1	0.00e+00	0	27	0	140509184	54	6514
2026-01-11 21:19:27.91	76.13	7.63	-40.4	-41.9	19.5	0.00e+00	0	27	0	142606336	54	6335
2026-01-11 21:19:28.92	76.02	7.69	-40.5	-42.1	19.3	0.00e+00	0	27	0	144703488	54	6476
2026-01-11 21:19:29.93	75.92	7.75	-40.5	-42.0	19.4	0.00e+00	0	27	0	146800640	54	6421
2026-01-11 21:19:30.94	75.81	7.81	-40.5	-42.0	19.3	0.00e+00	0	27	0	147849216	54	6441
2026-01-11 21:19:31.95	75.70	7.87	-40.5	-42.0	19.4	0.00e+00	0	27	0	149946368	54	6402
2026-01-11 21:19:32.96	75.59	7.94	-40.4	-41.8	19.5	0.00e+00	0	27	0	152043520	54	6305
2026-01-11 21:19:33.97	75.48	8.00	-40.5	-42.0	19.5	0.00e+00	0	27	0	154140672	54	6429
2026-01-11 21:19:34.98	75.36	8.06	-40.3	-41.7	19.6	0.00e+00	0	27	0	156237824	54	6193
2026-01-11 21:19:35.99	75.25	8.12	-40.4	-41.9	19.5	0.00e+00	0	27	0	157286400	54	6355
2026-01-11 21:19:37.00	75.14	8.18	-40.7	-42.3	18.9	0.00e+00	0	27	0	159383552	54	6641
2026-01-11 21:19:38.01	75.03	8.24	-40.4	-41.8	19.6	0.00e+00	0	27	0	161480704	54	6287
2026-01-11 21:19:39.02	74.91	8.30	-40.4	-41.8	19.5	0.00e+00	0	27	0	163577856	54	6288
2026-01-11 21:19:40.03	74.80	8.36	-40.4	-41.8	19.5	0.00e+00	0	27	0	165675008	54	6299
2026-01-11 21:19:41.03	74.69	8.43	-40.3	-41.8	19.6	0.00e+00	0	27	0	167772160	54	6270
2026-01-11 21:19:42.04	74.57	8.49	-40.2	-41.7	19.7	0.00e+00	0	27	0	168820736	54	6175
2026-01-11 21:19:43.05	74.46	8.55	-40.5	-42.0	19.4	0.00e+00	0	27	0	170917888	54	6405
2026-01-11 21:19:44.06	74.34	8.61	-40.4	-41.8	19.6	0.00e+00	0	27	0	173015040	54	6281
2026-01-11 21:19:45.07	74.23	8.67	-40.3	-41.8	19.7	0.00e+00	0	27	0	175112192	54	6287
2026-01-11 21:19:46.08	74.11	8.73	-40.4	-41.8	19.7	0.00e+00	0	27	0	176160768	54	6282
2026-01-11 21:19:47.09	73.99	8.79	-40.0	-41.4	20.1	0.00e+00	0	27	0	178257920	54	5979
2026-01-11 21:19:48.10	73.87	8.86	-39.8	-41.1	20.2	0.00e+00	0	27	0	180355072	54	5799
2026-01-11 21:19:49.11	73.76	8.92	-39.8	-41.1	20.3	0.00e+00	0	27	0	182452224	52	6515
2026-01-11 21:19:50.12	73.64	8.98	-39.7	-41.1	20.4	0.00e+00	0	27	0	184549376	52	6472
2026-01-11 21:19:51.13	73.52	9.04	-39.9	-41.2	20.3	0.00e+00	0	27	0	185597952	52	6575
2026-01-11 21:19:52.14	73.40	9.10	-39.8	-41.1	20.3	0.00e+00	0	27	0	187695104	52	6522
2026-01-11 21:19:53.15	73.28	9.16	-39.5	-40.8	20.7	0.00e+00	0	27	0	189792256	52	6252
2026-01-11 21:19:54.16	73.16	9.23	-39.6	-40.8	20.7	0.00e+00	0	27	0	191889408	52	6290
2026-01-11 21:19:55.16	73.04	9.29	-39.5	-40.7	20.8	0.00e+00	0	27	0	193986560	52	6236
2026-01-11 21:19:56.18	72.91	9.35	-39.6	-40.8	20.6	0.00e+00	0	27	0	196083712	52	6299
2026-01-11 21:19:57.18	72.79	9.41	-39.6	-40.9	20.6	0.00e+00	0	27	0	197132288	52	6327
2026-01-11 21:19:58.19	72.67	9.47	-39.6	-40.9	20.5	0.00e+00	0	28	0	199229440	52	6356
2026-01-11 21:19:59.20	72.55	9.54	-39.3	-40.6	20.9	0.00e+00	0	27	0	201326592	52	6110
2026-01-11 21:20:00.21	72.42	9.60	-39.4	-40.6	20.8	0.00e+00	0	27	0	203423744	52	6153
2026-01-11 21:20:01.22	72.30	9.66	-39.4	-40.6	20.9	0.00e+00	0	27	0	205520896	52	6151
2026-01-11 21:20:02.23	72.17	9.72	-39.4	-40.6	20.8	0.00e+00	0	27	0	206569472	52	6145
2026-01-11 21:20:03.24	72.05	9.78	-39.4	-40.7	20.4	0.00e+00	0	27	0	208666624	52	6193
2026-01-11 21:20:04.25	71.92	9.85	-39.4	-40.7	20.8	0.00e+00	0	27	0	210763776	52	6183
2026-01-11 21:20:05.26	71.79	9.91	-39.4	-40.6	21.0	0.00e+00	0	27	0	212860928	52	6124
2026-01-11 21:20:06.27	71.67	9.97	-39.4	-40.6	20.9	0.00e+00	0	28	0	214958080	52	6128
2026-01-11 21:20:07.28	71.54	10.03	-39.2	-40.4	21.1	0.00e+00	0	27	0	216006656	52	5965
2026-01-11 21:20:08.29	71.41	10.09	-39.1	-40.3	21.2	0.00e+00	0	27	0	218103808	52	5922
2026-01-11 21:20:09.29	71.28	10.16	-39.2	-40.3	21.1	0.00e+00	0	27	0	220200960	52	5955
2026-01-11 21:20:10.30	71.15	10.22	-39.2	-40.3	21.2	0.00e+00	0	27	0	222298112	52	5958
2026-01-11 21:20:11.31	71.02	10.28	-39.2	-40.4	21.2	0.00e+00	0	28	0	224395264	52	5984
2026-01-11 21:20:12.32	70.89	10.34	-39.1	-40.3	21.2	0.00e+00	0	28	0	225443840	52	5917
2026-01-11 21:20:13.33	70.76	10.41	-39.0	-40.2	21.3	0.00e+00	0	27	0	227540992	52	5836
2026-01-11 21:20:14.34	70.63	10.47	-39.1	-40.2	21.3	0.00e+00	0	28	0	229638144	52	5875
2026-01-11 21:20:15.35	70.50	10.53	-39.3	-40.6	21.1	0.00e+00	0	27	0	231735296	52	6110
2026-01-11 21:20:16.36	70.36	10.59	-39.1	-40.2	21.3	0.00e+00	0	27	0	233832448	52	5875
2026-01-11 21:20:17.37	70.23	10.65	-39.3	-40.4	21.1	0.00e+00	0	28	0	234881024	52	6032
2026-01-11 21:20:18.38	70.10	10.72	-39.3	-40.5	21.0	0.00e+00	0	27	0	236978176	52	6089
2026-01-11 21:20:19.38	69.96	10.78	-39.3	-40.6	21.0	0.00e+00	0	28	0	239075328	52	6105
2026-01-11 21:20:20.39	69.83	10.84	-39.4	-40.6	21.0	0.00e+00	0	28	0	241172480	52	6146
2026-01-11 21:20:21.40	69.69	10.90	-39.5	-40.7	20.9	0.00e+00	0	28	0	243269632	52	6194
2026-01-11 21:20:22.41	69.55	10.97	-39.3	-40.5	21.1	0.00e+00	0	28	0	244318208	52	6039
2026-01-11 21:20:23.42	69.42	11.03	-39.4	-40.6	21.0	0.00e+00	0	28	0	246415360	52	6132
2026-01-11 21:20:24.43	69.28	11.09	-39.4	-40.6	21.1	0.00e+00	0	28	0	248512512	52	6118
2026-01-11 21:20:25.44	69.14	11.15	-39.3	-40.5	21.1	0.00e+00	0	28	0	250609664	52	6086
2026-01-11 21:20:26.45	69.00	11.21	-39.2	-40.5	21.2	0.00e+00	0	28	0	252706816	52	6039
2026-01-11 21:20:27.46	68.86	11.28	-39.2	-40.4	21.2	0.00e+00	0	28	0	253755392	52	5986
2026-01-11 21:20:28.47	68.72	11.34	-39.1	-40.3	21.3	0.00e+00	0	28	0	255852544	52	5946
2026-01-11 21:20:29.48	68.58	11.40	-39.1	-40.3	21.2	0.00e+00	0	28	0	257949696	52	5929
2026-01-11 21:20:30.49	68.44	11.46	-39.1	-40.3	21.3	0.00e+00	0	28	0	260046848	52	5913
2026-01-11 21:20:31.50	68.30	11.53	-39.1	-40.3	21.3	0.00e+00	0	28	0	262144000	52	5897
2026-01-11 21:20:32.51	68.16	11.59	-39.1	-40.3	21.2	0.00e+00	0	28	0	264241152	52	5964
2026-01-11 21:20:33.51	68.02	11.65	-39.0	-40.2	21.3	0.00e+00	0	28	0	265289728	52	5851
2026-01-11 21:20:34.52	67.87	11.71	-39.1	-40.3	21.2	0.00e+00	0	28	0	267386880	52	5933
2026-01-11 21:20:35.53	67.73	11.77	-39.2	-40.4	21.2	0.00e+00	0	28	0	269484032	52	6027
2026-01-11 21:20:36.54	67.58	11.84	-39.1	-40.3	21.2	0.00e+00	0	28	0	271581184	52	5949
2026-01-11 21:20:37.55	67.44	11.90	-39.3	-40.5	21.1	0.00e+00	0	28	0	273678336	52	6066
2026-01-11 21:20:38.56	67.29	11.96	-39.3	-40.4	21.2	0.00e+00	0	28	0	274726912	52	6018
2026-01-11 21:20:39.57	67.14	12.02	-39.4	-40.6	21.0	0.00e+00	0	28	0	276824064	52	6134
2026-01-11 21:20:40.58	67.00	12.08	-39.2	-40.4	21.2	0.00e+00	0	28	0	278921216	52	6000
2026-01-11 21:20:41.59	66.85	12.15	-39.2	-40.3	21.3	0.00e+00	0	28	0	281018368	52	5951
2026-01-11 21:20:42.60	66.70	12.21	-39.1	-40.3	21.3	0.00e+00	0	28	0	283115520	52	5922
2026-01-11 21:20:43.61	66.55	12.27	-39.2	-40.4	21.3	0.00e+00	0	28	0	284164096	52	5979
2026-01-11 21:20:44.62	66.40	12.33	-39.2	-40.4	21.2	0.00e+00	0	28	0	286261248	52	6029
2026-01-11 21:20:45.63	66.25	12.39	-39.3	-40.5	21.1	0.00e+00	0	28	0	288358400	52	6089
2026-01-11 21:20:46.64	66.10	12.46	-39.4	-40.6	21.0	0.00e+00	0	28	0	290455552	52	6173
2026-01-11 21:20:47.65	65.95	12.52	-39.4	-40.6	21.1	0.00e+00	0	28	0	292552704	52	6157
2026-01-11 21:20:48.65	65.80	12.58	-39.4	-40.6	21.1	0.00e+00	0	28	0	293601280	52	6156
2026-01-11 21:20:49.66	65.64	12.64	-39.3	-40.5	21.2	0.00e+00	0	28	0	295698432	52	6091
2026-01-11 21:20:50.67	65.49	12.70	-39.5	-40.7	21.0	0.00e+00	0	28	0	297795584	52	6194
2026-01-11 21:20:51.68	65.33	12.76	-39.6	-40.8	20.8	0.00e+00	0	28	0	299892736	52	6299
2026-01-11 21:20:52.68	65.18	12.83	-39.6	-40.8	20.9	0.00e+00	0	28	0	301989888	52	6291
2026-01-11 21:20:53.69	65.02	12.89	-39.7	-41.0	20.7	0.00e+00	0	28	0	303038464	52	6396
2026-01-11 21:20:54.70	64.87	12.95	-39.7	-40.9	20.8	0.00e+00	0	28	0	305135616	52	6356
2026-01-11 21:20:55.71	64.71	13.01	-39.6	-40.8	20.8	0.00e+00	0	28	0	307232768	52	6304
2026-01-11 21:20:56.72	64.55	13.07	-39.5	-40.7	21.1	0.00e+00	0	28	0	309329920	52	6193
2026-01-11 21:20:57.73	64.40	13.13	-39.4	-40.7	21.0	0.00e+00	0	28	0	311427072	52	6177
2026-01-11 21:20:58.74	64.24	13.19	-39.3	-40.5	21.2	0.00e+00	0	28	0	312475648	52	6075
2026-01-11 21:20:59.75	64.08	13.25	-39.3	-40.4	21.2	0.00e+00	0	28	0	314572800	52	6007
2026-01-11 21:21:00.76	63.92	13.32	-39.2	-40.4	21.3	0.00e+00	0	28	0	316669952	52	5970
2026-01-11 21:21:01.77	63.75	13.38	-39.2	-40.3	21.4	0.00e+00	0	28	0	318767104	52	5937
2026-01-11 21:21:02.78	63.59	13.44	-39.2	-40.4	21.4	0.00e+00	0	28	0	320864256	52	5983
2026-01-11 21:21:03.78	63.43	13.50	-39.2	-40.3	21.3	0.00e+00	0	28	0	321912832	52	5959
2026-01-11 21:21:04.79	63.27	13.56	-39.2	-40.4	21.3	0.00e+00	0	28	0	324009984	52	6001
2026-01-11 21:21:05.80	63.10	13.62	-39.3	-40.5	21.2	0.00e+00	0	28	0	326107136	52	6059
2026-01-11 21:21:06.81	62.94	13.68	-39.1	-40.3	21.2	0.00e+00	0	28	0	328204288	52	5926
2026-01-11 21:21:07.82	62.77	13.74	-39.1	-40.3	21.4	0.00e+00	0	28	0	330301440	52	5918
2026-01-11 21:21:08.83	62.61	13.80	-39.1	-40.3	21.5	0.00e+00	0	28	0	331350016	52	5902
2026-01-11 21:21:09.84	62.44	13.86	-39.1	-40.3	21.5	0.00e+00	0	28	0	333447168	52	5905
2026-01-11 21:21:10.85	62.28	13.92	-39.0	-40.1	21.6	0.00e+00	0	28	0	335544320	52	5800
2026-01-11 21:21:11.86	62.11	13.98	-38.9	-40.0	21.7	0.00e+00	0	28	0	337641472	52	5711
2026-01-11 21:21:12.87	61.94	14.04	-39.0	-40.1	21.7	0.00e+00	0	28	0	339738624	52	5769
2026-01-11 21:21:13.88	61.77	14.10	-38.8	-39.9	21.8	0.00e+00	0	28	0	340787200	52	5633
2026-01-11 21:21:14.89	61.60	14.16	-38.7	-39.8	21.9	0.00e+00	0	28	0	342884352	50	6272
2026-01-11 21:21:15.90	61.43	14.22	-38.8	-39.8	21.9	0.00e+00	0	28	0	344981504	50	6306
2026-01-11 21:21:16.91	61.26	14.28	-38.6	-39.7	22.0	0.00e+00	0	28	0	347078656	50	6194
2026-01-11 21:21:17.91	61.09	14.34	-38.4	-39.5	22.2	0.00e+00	0	28	0	349175808	50	6047
2026-01-11 21:21:18.92	60.91	14.40	-38.4	-39.4	22.2	0.00e+00	0	28	0	350224384	50	6029
2026-01-11 21:21:19.93	60.74	14.46	-38.4	-39.4	22.2	0.00e+00	0	28	0	352321536	50	6001
2026-01-11 21:21:20.94	60.57	14.52	-38.3	-39.4	22.3	0.00e+00	0	28	0	354418688	50	5980
2026-01-11 21:21:21.95	60.39	14.58	-38.2	-39.2	22.4	0.00e+00	0	28	0	356515840	50	5892
2026-01-11 21:21:22.96	60.22	14.63	-38.2	-39.2	22.5	0.00e+00	0	28	0	358612992	50	5882
2026-01-11 21:21:23.96	60.04	14.69	-38.2	-39.2	22.5	0.00e+00	0	28	0	360710144	50	5853
2026-01-11 21:21:24.97	59.86	14.75	-38.3	-39.3	22.4	0.00e+00	0	28	0	361758720	50	5931
2026-01-11 21:21:25.98	59.69	14.81	-38.2	-39.3	22.5	0.00e+00	0	28	0	363855872	50	5901
2026-01-11 21:21:26.99	59.51	14.87	-38.1	-39.1	22.6	0.00e+00	0	28	0	365953024	50	5770
2026-01-11 21:21:28.00	59.33	14.93	-38.2	-39.2	22.4	0.00e+00	0	28	0	368050176	50	5878
2026-01-11 21:21:29.01	59.15	14.98	-38.0	-38.9	22.7	0.00e+00	0	28	0	370147328	50	5689
2026-01-11 21:21:30.01	58.97	15.04	-37.8	-38.8	22.8	0.00e+00	0	28	0	371195904	50	5600
2026-01-11 21:21:31.02	58.79	15.10	-37.8	-38.7	22.8	0.00e+00	0	28	0	373293056	50	5553
2026-01-11 21:21:32.03	58.61	15.16	-37.6	-38.5	23.1	0.00e+00	0	28	0	375390208	48	6086
2026-01-11 21:21:33.04	58.42	15.22	-37.6	-38.6	23.1	0.00e+00	0	28	0	377487360	48	6138
2026-01-11 21:21:34.05	58.24	15.27	-37.5	-38.5	23.2	0.00e+00	0	28	0	379584512	48	6040
2026-01-11 21:21:35.06	58.06	15.33	-37.3	-38.2	23.4	0.00e+00	0	28	0	380633088	48	5852
2026-01-11 21:21:36.07	57.87	15.39	-37.3	-38.3	23.4	0.00e+00	0	28	0	382730240	48	5900
2026-01-11 21:21:37.08	57.69	15.44	-37.2	-38.2	23.4	0.00e+00	0	28	0	384827392	48	5846
2026-01-11 21:21:38.09	57.50	15.50	-37.3	-38.2	23.3	0.00e+00	0	28	0	386924544	48	5885
2026-01-11 21:21:39.10	57.31	15.56	-37.4	-38.3	23.3	0.00e+00	0	28	0	389021696	48	5943
2026-01-11 21:21:40.11	57.13	15.61	-37.2	-38.1	23.5	0.00e+00	0	28	0	390070272	48	5788
2026-01-11 21:21:41.12	56.94	15.67	-37.2	-38.1	23.5	0.00e+00	0	28	0	392167424	48	5797
2026-01-11 21:21:42.13	56.75	15.72	-37.1	-38.0	23.6	0.00e+00	0	28	0	394264576	48	5707
2026-01-11 21:21:43.14	56.56	15.78	-36.9	-37.8	23.7	0.00e+00	0	28	0	396361728	48	5603
2026-01-11 21:21:44.15	56.37	15.84	-36.9	-37.7	23.7	0.00e+00	0	28	0	398458880	48	5562
2026-01-11 21:21:45.16	56.18	15.89	-36.7	-37.6	23.9	0.00e+00	0	28	0	399507456	46	6113
2026-01-11 21:21:46.17	55.98	15.95	-36.7	-37.5	24.0	0.00e+00	0	28	0	401604608	46	6096
2026-01-11 21:21:47.17	55.79	16.00	-36.6	-37.5	24.0	0.00e+00	0	28	0	403701760	46	6036
2026-01-11 21:21:48.18	55.60	16.06	-36.7	-37.5	24.0	0.00e+00	0	28	0	405798912	46	6087
2026-01-11 21:21:49.19	55.41	16.11	-36.7	-37.5	24.0	0.00e+00	0	28	0	407896064	46	6102
2026-01-11 21:21:50.20	55.21	16.16	-36.7	-37.5	24.0	0.00e+00	0	28	0	408944640	46	6103
2026-01-11 21:21:51.21	55.02	16.22	-36.7	-37.5	24.0	0.00e+00	0	28	0	411041792	46	6086
2026-01-11 21:21:52.22	54.82	16.27	-36.7	-37.6	23.9	0.00e+00	0	28	0	413138944	46	6123
2026-01-11 21:21:53.23	54.62	16.33	-36.7	-37.6	24.0	0.00e+00	0	28	0	415236096	46	6104
2026-01-11 21:21:54.24	54.42	16.38	-36.6	-37.4	24.1	0.00e+00	0	28	0	417333248	46	6012
2026-01-11 21:21:55.25	54.23	16.43	-36.6	-37.4	24.0	0.00e+00	0	28	0	418381824	46	6033
2026-01-11 21:21:56.26	54.03	16.48	-36.6	-37.5	24.1	0.00e+00	0	28	0	420478976	46	6052
2026-01-11 21:21:57.26	53.83	16.54	-36.7	-37.6	24.0	0.00e+00	0	28	0	422576128	46	6114
2026-01-11 21:21:58.27	53.63	16.59	-36.6	-37.5	24.1	0.00e+00	0	28	0	424673280	46	6047
2026-01-11 21:21:59.28	53.43	16.64	-36.8	-37.7	23.9	0.00e+00	0	28	0	426770432	46	6195
2026-01-11 21:22:00.29	53.23	16.69	-36.7	-37.6	24.0	0.00e+00	0	28	0	428867584	46	6150
2026-01-11 21:22:01.30	53.02	16.75	-36.8	-37.7	23.9	0.00e+00	0	28	0	429916160	46	6188
2026-01-11 21:22:02.31	52.82	16.80	-36.9	-37.7	23.8	0.00e+00	0	28	0	432013312	46	6235
2026-01-11 21:22:03.32	52.62	16.85	-36.9	-37.8	23.8	0.00e+00	0	28	0	434110464	46	6290
2026-01-11 21:22:04.32	52.41	16.90	-37.0	-37.9	23.7	0.00e+00	0	28	0	436207616	46	6357
2026-01-11 21:22:05.33	52.21	16.95	-37.1	-38.0	23.7	0.00e+00	0	28	0	438304768	46	6420
2026-01-11 21:22:06.34	52.00	17.00	-37.2	-38.1	23.5	0.00e+00	0	28	0	439353344	46	6479
2026-01-11 21:22:07.35	51.79	17.05	-37.1	-38.1	23.5	0.00e+00	0	28	0	441450496	46	6468
2026-01-11 21:22:08.35	51.59	17.10	-37.2	-38.1	23.5	0.00e+00	0	28	0	443547648	46	6507
2026-01-11 21:22:09.36	51.38	17.15	-37.1	-38.0	23.7	0.00e+00	0	28	0	445644800	46	6426
2026-01-11 21:22:10.37	51.17	17.20	-37.1	-38.1	23.6	0.00e+00	0	28	0	446693376	46	6465
2026-01-11 21:22:11.38	50.96	17.25	-37.1	-38.0	23.7	0.00e+00	0	28	0	448790528	46	6451
2026-01-11 21:22:12.39	50.75	17.29	-37.1	-38.0	23.6	0.00e+00	0	28	0	450887680	46	6407
2026-01-11 21:22:13.40	50.54	17.34	-37.1	-38.0	23.7	0.00e+00	0	29	0	452984832	46	6417
2026-01-11 21:22:14.41	50.33	17.39	-37.1	-38.0	23.6	0.00e+00	0	28	0	455081984	46	6416
2026-01-11 21:22:15.42	50.12	17.44	-37.1	-38.0	23.7	0.00e+00	0	29	0	457179136	46	6452
2026-01-11 21:22:16.43	49.91	17.49	-37.0	-37.9	23.7	0.00e+00	0	29	0	458227712	46	6371
2026-01-11 21:22:17.44	49.69	17.53	-36.8	-37.7	23.9	0.00e+00	0	29	0	460324864	46	6195
2026-01-11 21:22:18.45	49.48	17.58	-36.7	-37.6	24.0	0.00e+00	0	29	0	462422016	46	6119
2026-01-11 21:22:19.46	49.26	17.63	-36.9	-37.7	23.9	0.00e+00	0	29	0	464519168	46	6233
2026-01-11 21:22:20.46	49.05	17.67	-36.6	-37.4	23.8	0.00e+00	0	29	0	466616320	46	6014
2026-01-11 21:22:21.48	48.83	17.72	-36.4	-37.2	24.3	0.00e+00	0	29	0	467664896	46	5869
2026-01-11 21:22:22.49	48.61	17.76	-36.5	-37.3	24.2	0.00e+00	0	28	0	469762048	46	5946
2026-01-11 21:22:23.50	48.40	17.81	-36.4	-37.3	24.3	0.00e+00	0	29	0	471859200	46	5924
2026-01-11 21:22:24.50	48.18	17.85	-36.2	-37.0	24.5	0.00e+00	0	29	0	473956352	46	5757
2026-01-11 21:22:25.51	47.96	17.90	-36.2	-37.0	24.5	0.00e+00	0	29	0	476053504	46	5757
2026-01-11 21:22:26.52	47.74	17.94	-36.3	-37.1	24.4	0.00e+00	0	29	0	477102080	46	5806
2026-01-11 21:22:27.53	47.52	17.98	-36.2	-37.0	24.5	0.00e+00	0	29	0	479199232	46	5732
2026-01-11 21:22:28.54	47.30	18.03	-36.3	-37.1	24.4	0.00e+00	0	29	0	481296384	46	5814
2026-01-11 21:22:29.54	47.08	18.07	-36.3	-37.2	24.3	0.00e+00	0	29	0	483393536	46	5844
2026-01-11 21:22:30.55	46.86	18.11	-36.3	-37.1	24.4	0.00e+00	0	28	0	485490688	46	5791
2026-01-11 21:22:31.56	46.64	18.16	-36.3	-37.1	24.3	0.00e+00	0	29	0	486539264	46	5794
2026-01-11 21:22:32.57	46.41	18.20	-36.3	-37.1	24.4	0.00e+00	0	28	0	488636416	46	5815
2026-01-11 21:22:33.58	46.19	18.24	-36.3	-37.2	24.3	0.00e+00	0	29	0	490733568	46	5851
2026-01-11 21:22:34.59	45.97	18.28	-36.5	-37.3	24.2	0.00e+00	0	29	0	492830720	46	5956
2026-01-11 21:22:35.60	45.74	18.32	-36.3	-37.1	24.4	0.00e+00	0	29	0	494927872	46	5827
2026-01-11 21:22:36.61	45.51	18.36	-36.3	-37.2	24.3	0.00e+00	0	29	0	495976448	46	5847
2026-01-11 21:22:37.62	45.29	18.40	-36.3	-37.1	24.4	0.00e+00	0	29	0	498073600	46	5791
2026-01-11 21:22:38.63	45.06	18.44	-36.0	-36.8	24.6	0.00e+00	0	29	0	500170752	46	5617
2026-01-11 21:22:39.64	44.83	18.48	-35.9	-36.7	24.8	0.00e+00	0	29	0	502267904	46	5554
2026-01-11 21:22:40.64	44.61	18.52	-35.9	-36.7	24.7	0.00e+00	0	29	0	504365056	46	5549
2026-01-11 21:22:41.65	44.38	18.56	-35.9	-36.8	24.7	0.00e+00	0	29	0	505413632	46	5567
2026-01-11 21:22:42.66	44.15	18.59	-35.9	-36.7	24.7	0.00e+00	0	29	0	507510784	46	5534
2026-01-11 21:22:43.67	43.92	18.63	-36.1	-36.9	24.6	0.00e+00	0	29	0	509607936	46	5668
2026-01-11 21:22:44.68	43.69	18.67	-36.1	-36.9	24.7	0.00e+00	0	29	0	511705088	46	5653
2026-01-11 21:22:45.69	43.46	18.70	-36.2	-37.0	24.5	0.00e+00	0	29	0	513802240	46	5733
2026-01-11 21:22:46.70	43.23	18.74	-36.3	-37.2	24.3	0.00e+00	0	29	0	514850816	46	5855
2026-01-11 21:22:47.71	43.00	18.78	-36.4	-37.2	24.3	0.00e+00	0	29	0	516947968	46	5894
2026-01-11 21:22:48.72	42.76	18.81	-36.5	-37.4	24.2	0.00e+00	0	29	0	519045120	46	5968
2026-01-11 21:22:49.73	42.53	18.85	-36.5	-37.3	24.2	0.00e+00	0	29	0	521142272	46	5944
2026-01-11 21:22:50.74	42.30	18.88	-36.5	-37.4	24.2	0.00e+00	0	29	0	523239424	46	5965
2026-01-11 21:22:51.74	42.06	18.91	-36.6	-37.5	24.1	0.00e+00	0	29	0	525336576	46	6044
2026-01-11 21:22:52.75	41.83	18.95	-36.6	-37.5	24.0	0.00e+00	0	29	0	526385152	46	6076
2026-01-11 21:22:53.76	41.59	18.98	-36.7	-37.6	24.0	0.00e+00	0	29	0	528482304	46	6122
2026-01-11 21:22:54.77	41.36	19.01	-36.7	-37.6	24.0	0.00e+00	0	29	0	530579456	46	6115
2026-01-11 21:22:55.78	41.12	19.05	-36.8	-37.6	23.5	0.00e+00	0	29	0	532676608	46	6146
2026-01-11 21:22:56.79	40.89	19.08	-37.0	-37.9	23.7	0.00e+00	0	29	0	534773760	46	6383
2026-01-11 21:22:57.80	40.65	19.11	-36.7	-37.6	24.1	0.00e+00	0	29	0	535822336	46	6140
2026-01-11 21:22:58.81	40.41	19.14	-36.8	-37.7	23.9	0.00e+00	0	29	0	537919488	46	6234
2026-01-11 21:22:59.82	40.17	19.17	-36.7	-37.6	24.1	0.00e+00	0	29	0	540016640	46	6119
2026-01-11 21:23:00.83	39.93	19.20	-36.8	-37.7	24.0	0.00e+00	0	29	0	542113792	46	6183
2026-01-11 21:23:01.84	39.69	19.23	-36.8	-37.7	24.0	0.00e+00	0	29	0	544210944	46	6182
2026-01-11 21:23:02.85	39.46	19.26	-36.9	-37.8	23.9	0.00e+00	0	29	0	545259520	46	6301
2026-01-11 21:23:03.86	39.22	19.28	-37.2	-38.1	23.7	0.00e+00	0	29	0	547356672	46	6475
2026-01-11 21:23:04.87	38.97	19.31	-37.4	-38.3	23.5	0.00e+00	0	29	0	549453824	46	6638
2026-01-11 21:23:05.88	38.73	19.34	-37.3	-38.2	23.5	0.00e+00	0	29	0	551550976	46	6609
2026-01-11 21:23:06.88	38.50	19.37	-37.2	-38.1	23.5	0.00e+00	0	29	0	553648128	46	6499
2026-01-11 21:23:07.89	38.25	19.39	-37.2	-38.2	23.6	0.00e+00	0	29	0	554696704	46	6542
2026-01-11 21:23:08.90	38.01	19.42	-37.3	-38.2	23.5	0.00e+00	0	29	0	556793856	46	6569
2026-01-11 21:23:09.91	37.77	19.44	-37.3	-38.2	23.5	0.00e+00	0	29	0	558891008	46	6612
2026-01-11 21:23:10.92	37.53	19.47	-37.5	-38.4	23.4	0.00e+00	0	29	0	560988160	46	6732
2026-01-11 21:23:11.93	37.28	19.49	-37.5	-38.4	23.4	0.00e+00	0	29	0	563085312	46	6711
2026-01-11 21:23:12.94	37.04	19.52	-37.5	-38.5	23.3	0.00e+00	0	29	0	564133888	46	6772
2026-01-11 21:23:13.95	36.79	19.54	-37.5	-38.4	23.2	0.00e+00	0	29	0	566231040	46	6751
2026-01-11 21:23:14.96	36.55	19.56	-37.7	-38.7	23.1	0.00e+00	0	29	0	568328192	46	6961
2026-01-11 21:23:15.97	36.31	19.58	-37.7	-38.7	23.0	0.00e+00	0	29	0	570425344	48	6201
2026-01-11 21:23:16.98	36.06	19.61	-37.6	-38.6	23.1	0.00e+00	0	29	0	572522496	48	6108
2026-01-11 21:23:17.99	35.81	19.63	-37.7	-38.7	23.0	0.00e+00	0	29	0	573571072	48	6191
2026-01-11 21:23:19.00	35.57	19.65	-37.6	-38.5	23.2	0.00e+00	0	29	0	575668224	48	6081
2026-01-11 21:23:20.01	35.32	19.67	-37.6	-38.5	23.3	0.00e+00	0	29	0	577765376	48	6054
2026-01-11 21:23:21.01	35.08	19.69	-37.6	-38.6	23.2	0.00e+00	0	29	0	579862528	48	6126
2026-01-11 21:23:22.02	34.83	19.70	-37.8	-38.8	22.9	0.00e+00	0	29	0	581959680	48	6263
2026-01-11 21:23:23.03	34.59	19.72	-38.0	-39.0	22.8	0.00e+00	0	29	0	583008256	48	6425
2026-01-11 21:23:24.05	34.34	19.74	-38.2	-39.2	22.6	0.00e+00	0	29	0	585105408	48	6568
2026-01-11 21:23:25.05	34.09	19.76	-38.2	-39.2	22.6	0.00e+00	0	29	0	587202560	48	6580
2026-01-11 21:23:26.06	33.84	19.77	-38.2	-39.2	22.5	0.00e+00	0	29	0	589299712	48	6572
2026-01-11 21:23:27.07	33.59	19.79	-38.3	-39.4	22.5	0.00e+00	0	29	0	591396864	48	6712
2026-01-11 21:23:28.08	33.35	19.81	-38.2	-39.2	22.4	0.00e+00	0	29	0	592445440	48	6601
2026-01-11 21:23:29.09	33.10	19.82	-38.0	-39.0	22.8	0.00e+00	0	29	0	594542592	48	6460
2026-01-11 21:23:30.10	32.85	19.84	-38.0	-39.0	22.8	0.00e+00	0	29	0	596639744	48	6443
2026-01-11 21:23:31.11	32.60	19.85	-37.9	-38.8	23.0	0.00e+00	0	29	0	598736896	48	6299
2026-01-11 21:23:32.12	32.35	19.86	-37.7	-38.6	23.1	0.00e+00	0	29	0	600834048	48	6161
2026-01-11 21:23:33.13	32.10	19.88	-37.7	-38.7	23.1	0.00e+00	0	29	0	601882624	48	6200
2026-01-11 21:23:34.13	31.85	19.89	-37.8	-38.8	22.9	0.00e+00	0	29	0	603979776	48	6291
2026-01-11 21:23:35.14	31.60	19.90	-37.9	-38.9	22.8	0.00e+00	0	29	0	606076928	48	6371
2026-01-11 21:23:36.15	31.35	19.91	-38.0	-39.0	22.8	0.00e+00	0	29	0	608174080	48	6432
2026-01-11 21:23:37.16	31.10	19.92	-38.0	-39.0	22.7	0.00e+00	0	29	0	610271232	48	6448
2026-01-11 21:23:38.17	30.85	19.93	-38.1	-39.1	22.8	0.00e+00	0	29	0	611319808	48	6478
2026-01-11 21:23:39.18	30.60	19.94	-37.9	-38.9	22.9	0.00e+00	0	29	0	613416960	48	6336
2026-01-11 21:23:40.19	30.35	19.95	-38.0	-39.0	22.8	0.00e+00	0	29	0	615514112	48	6410
2026-01-11 21:23:41.20	30.10	19.96	-37.9	-38.9	22.9	0.00e+00	0	29	0	617611264	48	6340
2026-01-11 21:23:42.21	29.85	19.97	-38.1	-39.1	22.8	0.00e+00	0	29	0	619708416	48	6498
2026-01-11 21:23:43.22	29.60	19.97	-38.0	-39.0	22.8	0.00e+00	0	29	0	621805568	48	6442
2026-01-11 21:23:44.23	29.35	19.98	-38.1	-39.1	22.8	0.00e+00	0	29	0	622854144	48	6476
2026-01-11 21:23:45.24	29.09	19.99	-38.0	-39.0	22.8	0.00e+00	0	29	0	624951296	48	6444
2026-01-11 21:23:46.24	28.84	19.99	-37.9	-38.9	22.9	0.00e+00	0	29	0	627048448	48	6336
2026-01-11 21:23:47.25	28.59	20.00	-37.9	-38.9	22.9	0.00e+00	0	29	0	629145600	48	6341
2026-01-11 21:23:48.26	28.34	20.00	-37.7	-38.6	23.1	0.00e+00	0	29	0	631242752	48	6165
2026-01-11 21:23:49.27	28.09	20.00	-37.7	-38.7	23.0	0.00e+00	0	29	0	632291328	48	6208
2026-01-11 21:23:50.28	27.84	20.01	-37.8	-38.8	23.0	0.00e+00	0	29	0	634388480	48	6255
2026-01-11 21:23:51.29	27.59	20.01	-38.0	-38.9	22.9	0.00e+00	0	29	0	636485632	48	6374
2026-01-11 21:23:52.30	27.33	20.01	-38.0	-38.9	22.8	0.00e+00	0	29	0	638582784	48	6383
2026-01-11 21:23:53.31	27.08	20.01	-37.9	-38.9	22.9	0.00e+00	0	29	0	640679936	48	6333
2026-01-11 21:23:54.32	26.83	20.01	-37.8	-38.8	23.0	0.00e+00	0	29	0	641728512	48	6272
2026-01-11 21:23:55.33	26.58	20.01	-37.6	-38.6	23.2	0.00e+00	0	29	0	643825664	48	6112
2026-01-11 21:23:56.34	26.33	20.01	-37.4	-38.4	23.3	0.00e+00	0	29	0	645922816	48	5980
2026-01-11 21:23:57.35	26.08	20.01	-37.4	-38.3	23.4	0.00e+00	0	29	0	648019968	48	5939
2026-01-11 21:23:58.35	25.83	20.01	-37.3	-38.2	23.4	0.00e+00	0	29	0	650117120	48	5838
2026-01-11 21:23:59.36	25.57	20.01	-37.3	-38.2	23.6	0.00e+00	0	29	0	651165696	48	5856
2026-01-11 21:24:00.37	25.32	20.00	-37.2	-38.1	23.6	0.00e+00	0	29	0	653262848	48	5766
2026-01-11 21:24:01.38	25.07	20.00	-37.0	-37.9	23.8	0.00e+00	0	29	0	655360000	48	5671
2026-01-11 21:24:02.39	24.82	20.00	-36.9	-37.8	23.8	0.00e+00	0	29	0	657457152	48	5612
2026-01-11 21:24:03.40	24.57	19.99	-37.0	-37.9	23.8	0.00e+00	0	29	0	659554304	48	5676
2026-01-11 21:24:04.41	24.32	19.99	-37.0	-37.9	23.7	0.00e+00	0	29	0	660602880	48	5675
2026-01-11 21:24:05.42	24.06	19.98	-37.1	-38.0	23.6	0.00e+00	0	29	0	662700032	48	5760
2026-01-11 21:24:06.43	23.81	19.98	-37.2	-38.1	23.6	0.00e+00	0	29	0	664797184	48	5827
2026-01-11 21:24:07.44	23.56	19.97	-37.0	-37.9	23.8	0.00e+00	0	29	0	666894336	48	5650
2026-01-11 21:24:08.45	23.31	19.96	-37.0	-37.8	23.8	0.00e+00	0	29	0	668991488	48	5624
2026-01-11 21:24:09.46	23.06	19.95	-36.8	-37.6	24.0	0.00e+00	0	29	0	670040064	48	5496
2026-01-11 21:24:10.47	22.81	19.95	-36.9	-37.8	23.9	0.00e+00	0	29	0	672137216	48	5599
2026-01-11 21:24:11.48	22.56	19.94	-36.6	-37.5	24.2	0.00e+00	0	29	0	674234368	46	6057
2026-01-11 21:24:12.48	22.31	19.93	-36.5	-37.3	24.3	0.00e+00	0	29	0	676331520	46	5956
2026-01-11 21:24:13.49	22.06	19.92	-36.6	-37.5	24.1	0.00e+00	0	29	0	678428672	46	6076
2026-01-11 21:24:14.50	21.81	19.91	-36.5	-37.4	24.3	0.00e+00	0	29	0	679477248	46	5972
2026-01-11 21:24:15.51	21.56	19.89	-36.5	-37.4	24.2	0.00e+00	0	29	0	681574400	46	5986
2026-01-11 21:24:16.52	21.31	19.88	-36.5	-37.3	24.3	0.00e+00	0	29	0	683671552	46	5947
2026-01-11 21:24:17.53	21.06	19.87	-36.3	-37.2	24.4	0.00e+00	0	29	0	685768704	46	5856
2026-01-11 21:24:18.54	20.81	19.86	-36.4	-37.2	24.4	0.00e+00	0	29	0	687865856	46	5876
2026-01-11 21:24:19.54	20.56	19.84	-36.0	-36.8	24.6	0.00e+00	0	29	0	689963008	46	5625
2026-01-11 21:24:20.55	20.32	19.83	-36.2	-37.0	24.5	0.00e+00	0	29	0	691011584	46	5734
2026-01-11 21:24:21.56	20.07	19.81	-36.1	-36.9	24.5	0.00e+00	0	29	0	693108736	46	5678
2026-01-11 21:24:22.57	19.82	19.80	-36.2	-37.0	24.6	0.00e+00	0	29	0	695205888	46	5734
2026-01-11 21:24:23.57	19.57	19.78	-36.3	-37.1	24.5	0.00e+00	0	29	0	697303040	46	5792
2026-01-11 21:24:24.58	19.33	19.77	-36.1	-36.9	24.6	0.00e+00	0	29	0	699400192	46	5656
2026-01-11 21:24:25.60	19.08	19.75	-36.0	-36.8	24.7	0.00e+00	0	29	0	700448768	46	5615
2026-01-11 21:24:26.60	18.83	19.73	-35.9	-36.7	24.9	0.00e+00	0	29	0	702545920	46	5524
2026-01-11 21:24:27.61	18.58	19.71	-35.8	-36.6	24.9	0.00e+00	0	29	0	704643072	46	5498
2026-01-11 21:24:28.62	18.34	19.70	-35.6	-36.4	25.0	0.00e+00	0	29	0	706740224	44	6001
2026-01-11 21:24:29.63	18.09	19.68	-35.7	-36.5	24.9	0.00e+00	0	29	0	707788800	44	6050
2026-01-11 21:24:30.64	17.84	19.66	-35.8	-36.6	24.8	0.00e+00	0	29	0	709885952	44	6144
2026-01-11 21:24:31.65	17.60	19.64	-35.6	-36.4	25.0	0.00e+00	0	29	0	711983104	44	5995
2026-01-11 21:24:32.66	17.35	19.62	-35.8	-36.6	24.8	0.00e+00	0	29	0	714080256	44	6144
2026-01-11 21:24:33.67	17.11	19.59	-35.9	-36.7	24.7	0.00e+00	0	29	0	716177408	44	6243
2026-01-11 21:24:34.68	16.86	19.57	-36.1	-36.9	24.7	0.00e+00	0	29	0	718274560	44	6343
2026-01-11 21:24:35.69	16.62	19.55	-36.1	-36.9	24.6	0.00e+00	0	29	0	719323136	44	6360
2026-01-11 21:24:36.69	16.38	19.53	-36.2	-37.0	24.5	0.00e+00	0	29	0	721420288	44	6430
2026-01-11 21:24:37.70	16.13	19.50	-36.0	-36.8	24.7	0.00e+00	0	29	0	723517440	44	6291
2026-01-11 21:24:38.71	15.89	19.48	-35.8	-36.6	24.8	0.00e+00	0	29	0	725614592	44	6142
2026-01-11 21:24:39.72	15.65	19.46	-35.9	-36.7	24.7	0.00e+00	0	29	0	727711744	44	6236
2026-01-11 21:24:40.73	15.40	19.43	-35.8	-36.7	24.7	0.00e+00	0	29	0	728760320	44	6178
2026-01-11 21:24:41.74	15.16	19.41	-35.9	-36.7	24.7	0.00e+00	0	29	0	730857472	44	6219
2026-01-11 21:24:42.75	14.92	19.38	-36.0	-36.8	24.6	0.00e+00	0	29	0	732954624	44	6282
2026-01-11 21:24:43.76	14.68	19.35	-36.2	-37.0	24.4	0.00e+00	0	29	0	735051776	44	6454
2026-01-11 21:24:44.77	14.44	19.33	-36.4	-37.2	24.3	0.00e+00	0	29	0	737148928	44	6596
2026-01-11 21:24:45.78	14.20	19.30	-36.4	-37.3	24.3	0.00e+00	0	29	0	738197504	44	6629
2026-01-11 21:24:46.79	13.96	19.27	-36.4	-37.3	24.3	0.00e+00	0	29	0	740294656	44	6635
2026-01-11 21:24:47.79	13.72	19.24	-36.5	-37.4	24.1	0.00e+00	0	29	0	742391808	44	6705
2026-01-11 21:24:48.80	13.48	19.21	-36.5	-37.3	24.2	0.00e+00	0	29	0	744488960	44	6684
2026-01-11 21:24:49.81	13.24	19.18	-36.6	-37.5	24.1	0.00e+00	0	29	0	746586112	44	6785
2026-01-11 21:24:50.82	13.01	19.15	-36.6	-37.5	24.1	0.00e+00	0	29	0	747634688	44	6813
2026-01-11 21:24:51.83	12.77	19.12	-36.8	-37.6	23.9	0.00e+00	0	29	0	749731840	46	6168
2026-01-11 21:24:52.84	12.53	19.09	-36.9	-37.8	23.8	0.00e+00	0	29	0	751828992	46	6286
2026-01-11 21:24:53.85	12.29	19.06	-37.0	-37.8	23.8	0.00e+00	0	29	0	753926144	46	6310
2026-01-11 21:24:54.86	12.06	19.03	-37.0	-38.0	23.7	0.00e+00	0	29	0	756023296	46	6391
2026-01-11 21:24:55.87	11.82	19.00	-37.0	-37.9	23.8	0.00e+00	0	29	0	757071872	46	6373
2026-01-11 21:24:56.88	11.59	18.96	-37.0	-37.9	23.7	0.00e+00	0	29	0	759169024	46	6380
2026-01-11 21:24:57.89	11.35	18.93	-37.1	-37.9	23.7	0.00e+00	0	30	0	761266176	46	6387
2026-01-11 21:24:58.89	11.12	18.90	-37.2	-38.2	23.6	0.00e+00	0	29	0	763363328	46	6551
2026-01-11 21:24:59.90	10.89	18.86	-37.3	-38.2	23.5	0.00e+00	0	29	0	765460480	46	6600
2026-01-11 21:25:00.91	10.65	18.83	-37.4	-38.3	23.3	0.00e+00	0	29	0	766509056	46	6687
2026-01-11 21:25:01.92	10.42	18.79	-37.6	-38.5	23.1	0.00e+00	0	29	0	768606208	46	6830
2026-01-11 21:25:02.93	10.19	18.76	-37.5	-38.5	23.3	0.00e+00	0	29	0	770703360	46	6777
2026-01-11 21:25:03.94	9.96	18.72	-37.4	-38.4	23.3	0.00e+00	0	29	0	772800512	46	6712
2026-01-11 21:25:04.95	9.73	18.69	-37.4	-38.3	23.4	0.00e+00	0	29	0	774897664	46	6684
2026-01-11 21:25:05.96	9.50	18.65	-37.4	-38.3	23.4	0.00e+00	0	29	0	775946240	46	6643
2026-01-11 21:25:06.97	9.27	18.61	-37.4	-38.4	23.4	0.00e+00	0	30	0	778043392	46	6695
2026-01-11 21:25:07.98	9.04	18.58	-37.3	-38.2	23.4	0.00e+00	0	30	0	780140544	46	6588
2026-01-11 21:25:08.99	8.81	18.54	-37.4	-38.4	23.4	0.00e+00	0	29	0	782237696	46	6697
2026-01-11 21:25:10.00	8.58	18.50	-37.2	-38.2	23.5	0.00e+00	0	30	0	784334848	46	6542
2026-01-11 21:25:11.01	8.35	18.46	-37.2	-38.1	23.5	0.00e+00	0	30	0	786432000	46	6527
2026-01-11 21:25:12.02	8.13	18.42	-37.4	-38.3	23.4	0.00e+00	0	29	0	787480576	46	6627
2026-01-11 21:25:13.03	7.90	18.38	-37.4	-38.4	23.4	0.00e+00	0	29	0	789577728	46	6718
2026-01-11 21:25:14.04	7.68	18.34	-37.5	-38.4	23.3	0.00e+00	0	30	0	791674880	46	6721
2026-01-11 21:25:15.04	7.45	18.30	-37.6	-38.5	22.9	0.00e+00	0	30	0	793772032	46	6829
2026-01-11 21:25:16.05	7.23	18.26	-37.4	-38.3	23.4	0.00e+00	0	29	0	795869184	46	6655
2026-01-11 21:25:17.06	7.01	18.22	-37.5	-38.5	23.1	0.00e+00	0	30	0	796917760	46	6804
2026-01-11 21:25:18.07	6.78	18.18	-37.4	-38.4	23.3	0.00e+00	0	29	0	799014912	46	6740
2026-01-11 21:25:19.08	6.56	18.14	-37.4	-38.4	23.2	0.00e+00	0	29	0	801112064	46	6719
2026-01-11 21:25:20.09	6.34	18.09	-37.5	-38.4	23.3	0.00e+00	0	30	0	803209216	46	6748
2026-01-11 21:25:21.10	6.12	18.05	-37.4	-38.3	23.3	0.00e+00	0	30	0	805306368	46	6674
2026-01-11 21:25:22.11	5.90	18.01	-37.4	-38.3	23.4	0.00e+00	0	29	0	806354944	46	6651
2026-01-11 21:25:23.12	5.68	17.96	-37.2	-38.1	23.6	0.00e+00	0	29	0	808452096	46	6482
2026-01-11 21:25:24.13	5.46	17.92	-37.2	-38.1	23.5	0.00e+00	0	30	0	810549248	46	6516
2026-01-11 21:25:25.14	5.24	17.88	-37.1	-38.0	23.6	0.00e+00	0	29	0	812646400	46	6443
2026-01-11 21:25:26.15	5.02	17.83	-37.2	-38.1	23.6	0.00e+00	0	30	0	814743552	46	6524
2026-01-11 21:25:27.16	4.80	17.79	-37.4	-38.3	23.4	0.00e+00	0	30	0	815792128	46	6653
2026-01-11 21:25:28.17	4.59	17.74	-37.5	-38.5	23.2	0.00e+00	0	29	0	817889280	46	6783
2026-01-11 21:25:29.18	4.37	17.70	-37.7	-38.6	23.0	0.00e+00	0	29	0	819986432	46	6914
2026-01-11 21:25:30.19	4.15	17.65	-37.7	-38.7	22.9	0.00e+00	0	30	0	822083584	48	6183
2026-01-11 21:25:31.20	3.94	17.60	-37.7	-38.7	23.0	0.00e+00	0	30	0	824180736	48	6196
2026-01-11 21:25:32.21	3.72	17.56	-37.8	-38.8	22.9	0.00e+00	0	30	0	825229312	48	6268
2026-01-11 21:25:33.22	3.51	17.51	-38.0	-39.0	22.9	0.00e+00	0	30	0	827326464	48	6421
2026-01-11 21:25:34.23	3.30	17.46	-37.9	-38.9	22.9	0.00e+00	0	29	0	829423616	48	6337
2026-01-11 21:25:35.23	3.09	17.42	-37.9	-38.9	22.9	0.00e+00	0	30	0	831520768	48	6382
2026-01-11 21:25:36.24	2.88	17.37	-38.0	-39.0	22.9	0.00e+00	0	30	0	833617920	48	6397
2026-01-11 21:25:37.25	2.67	17.32	-37.8	-38.7	23.1	0.00e+00	0	30	0	834666496	48	6245
2026-01-11 21:25:38.26	2.46	17.27	-37.7	-38.7	23.1	0.00e+00	0	30	0	836763648	48	6183
2026-01-11 21:25:39.27	2.25	17.22	-37.8	-38.7	23.0	0.00e+00	0	30	0	838860800	48	6243
2026-01-11 21:25:40.28	2.04	17.18	-37.9	-38.9	22.9	0.00e+00	0	30	0	840957952	48	6348
2026-01-11 21:25:41.28	1.83	17.13	-38.0	-39.0	22.7	0.00e+00	0	30	0	843055104	48	6417
2026-01-11 21:25:42.29	1.62	17.08	-38.0	-39.1	22.7	0.00e+00	0	30	0	844103680	48	6468
2026-01-11 21:25:43.30	1.42	17.03	-38.0	-39.0	22.8	0.00e+00	0	30	0	846200832	48	6410
2026-01-11 21:25:44.31	1.21	16.98	-37.9	-38.9	22.8	0.00e+00	0	30	0	848297984	48	6384
2026-01-11 21:25:45.32	1.01	16.93	-37.8	-38.7	23.0	0.00e+00	0	30	0	850395136	48	6244
2026-01-11 21:25:46.33	0.80	16.88	-37.7	-38.7	23.0	0.00e+00	0	30	0	852492288	48	6184
2026-01-11 21:25:47.34	0.60	16.83	-37.7	-38.7	22.9	0.00e+00	0	30	0	854589440	48	6218
2026-01-11 21:25:48.35	0.40	16.77	-37.8	-38.7	23.0	0.00e+00	0	30	0	855638016	48	6234
2026-01-11 21:25:49.36	0.19	16.72	-37.8	-38.8	23.0	0.00e+00	0	30	0	857735168	48	6271
2026-01-11 21:25:50.37	359.99	16.67	-37.7	-38.7	23.0	0.00e+00	0	30	0	859832320	48	6186
2026-01-11 21:25:51.38	359.79	16.62	-37.8	-38.7	23.0	0.00e+00	0	30	0	861929472	48	6220
2026-01-11 21:25:52.39	359.59	16.57	-37.7	-38.6	23.1	0.00e+00	0	30	0	864026624	48	6150
2026-01-11 21:25:53.40	359.39	16.51	-37.7	-38.7	23.0	0.00e+00	0	30	0	865075200	48	6186
2026-01-11 21:25:54.40	359.19	16.46	-37.8	-38.8	22.9	0.00e+00	0	30	0	867172352	48	6256
2026-01-11 21:25:55.41	359.00	16.41	-37.9	-38.9	22.8	0.00e+00	0	30	0	869269504	48	6373
2026-01-11 21:25:56.42	358.80	16.36	-38.0	-39.0	22.6	0.00e+00	0	30	0	871366656	48	6430
2026-01-11 21:25:57.43	358.60	16.30	-38.0	-39.0	22.7	0.00e+00	0	30	0	872415232	48	6416
2026-01-11 21:25:58.43	358.41	16.25	-38.0	-39.0	22.7	0.00e+00	0	30	0	874512384	48	6413
2026-01-11 21:25:59.44	358.21	16.20	-38.1	-39.1	22.6	0.00e+00	0	30	0	876609536	48	6502
2026-01-11 21:26:00.45	358.02	16.14	-38.0	-39.1	22.6	0.00e+00	0	30	0	878706688	48	6469
2026-01-11 21:26:01.46	357.82	16.09	-38.0	-39.0	22.7	0.00e+00	0	30	0	880803840	48	6440
2026-01-11 21:26:02.47	357.63	16.03	-37.9	-38.9	22.8	0.00e+00	0	30	0	882900992	48	6378
2026-01-11 21:26:03.48	357.44	15.98	-37.7	-38.7	22.9	0.00e+00	0	30	0	883949568	48	6205
2026-01-11 21:26:04.49	357.25	15.92	-37.5	-38.5	23.1	0.00e+00	0	30	0	886046720	48	6065
2026-01-11 21:26:05.50	357.05	15.87	-37.5	-38.4	23.2	0.00e+00	0	30	0	888143872	48	5994
2026-01-11 21:26:06.51	356.86	15.81	-37.5	-38.5	23.2	0.00e+00	0	30	0	890241024	48	6037
2026-01-11 21:26:07.52	356.67	15.76	-37.5	-38.5	22.9	0.00e+00	0	30	0	892338176	48	6042
2026-01-11 21:26:08.53	356.49	15.70	-37.6	-38.6	23.0	0.00e+00	0	30	0	893386752	48	6130
2026-01-11 21:26:09.54	356.30	15.65	-37.8	-38.7	22.9	0.00e+00	0	30	0	895483904	48	6234
2026-01-11 21:26:10.54	356.11	15.59	-37.9	-38.9	22.7	0.00e+00	0	30	0	897581056	48	6346
2026-01-11 21:26:11.55	355.92	15.53	-38.0	-39.0	22.6	0.00e+00	0	30	0	899678208	48	6460
2026-01-11 21:26:12.57	355.74	15.48	-38.1	-39.1	22.5	0.00e+00	0	30	0	901775360	48	6491
2026-01-11 21:26:13.57	355.55	15.42	-38.1	-39.1	22.6	0.00e+00	0	30	0	902823936	48	6511
2026-01-11 21:26:14.58	355.37	15.36	-38.3	-39.3	22.4	0.00e+00	0	30	0	904921088	48	6672
2026-01-11 21:26:15.59	355.18	15.31	-38.2	-39.3	22.3	0.00e+00	0	30	0	907018240	48	6653
2026-01-11 21:26:16.60	355.00	15.25	-38.3	-39.3	22.3	0.00e+00	0	30	0	909115392	48	6681
2026-01-11 21:26:17.61	354.82	15.19	-38.5	-39.6	22.1	0.00e+00	0	30	0	911212544	48	6870
2026-01-11 21:26:18.62	354.64	15.14	-38.5	-39.6	22.1	0.00e+00	0	30	0	912261120	48	6909
2026-01-11 21:26:19.63	354.46	15.08	-38.6	-39.7	22.0	0.00e+00	0	30	0	914358272	48	6946
2026-01-11 21:26:20.64	354.28	15.02	-38.7	-39.7	22.1	0.00e+00	0	30	0	916455424	50	6243
2026-01-11 21:26:21.65	354.10	14.96	-38.7	-39.7	22.0	0.00e+00	0	30	0	918552576	50	6229
2026-01-11 21:26:22.66	353.92	14.90	-38.5	-39.6	22.1	0.00e+00	0	30	0	920649728	50	6112
2026-01-11 21:26:23.66	353.74	14.85	-38.5	-39.5	22.2	0.00e+00	0	30	0	921698304	50	6084
2026-01-11 21:26:24.67	353.56	14.79	-38.5	-39.5	22.2	0.00e+00	0	30	0	923795456	50	6082
2026-01-11 21:26:25.68	353.39	14.73	-38.4	-39.5	22.3	0.00e+00	0	30	0	925892608	50	6064
2026-01-11 21:26:26.69	353.21	14.67	-38.5	-39.6	21.9	0.00e+00	0	30	0	927989760	50	6143
2026-01-11 21:26:27.70	353.03	14.61	-38.6	-39.7	22.0	0.00e+00	0	30	0	930086912	50	6189
2026-01-11 21:26:28.71	352.86	14.55	-38.6	-39.7	22.0	0.00e+00	0	30	0	931135488	50	6232
2026-01-11 21:26:29.72	352.69	14.50	-38.7	-39.8	21.9	0.00e+00	0	30	0	933232640	50	6309
2026-01-11 21:26:30.73	352.51	14.44	-38.7	-39.8	22.0	0.00e+00	0	30	0	935329792	50	6267
2026-01-11 21:26:31.74	352.34	14.38	-38.8	-39.9	21.9	0.00e+00	0	30	0	937426944	50	6340
2026-01-11 21:26:32.75	352.17	14.32	-38.7	-39.8	22.0	0.00e+00	0	30	0	939524096	50	6264
2026-01-11 21:26:33.76	352.00	14.26	-38.7	-39.8	21.9	0.00e+00	0	30	0	940572672	50	6279
2026-01-11 21:26:34.77	351.83	14.20	-38.7	-39.8	22.0	0.00e+00	0	30	0	942669824	50	6273
2026-01-11 21:26:35.78	351.66	14.14	-38.6	-39.6	22.1	0.00e+00	0	30	0	944766976	50	6162
2026-01-11 21:26:36.79	351.49	14.08	-38.3	-39.3	22.4	0.00e+00	0	30	0	946864128	50	5954
2026-01-11 21:26:37.79	351.32	14.02	-38.2	-39.2	22.5	0.00e+00	0	30	0	948961280	50	5855
2026-01-11 21:26:38.80	351.15	13.96	-38.1	-39.1	22.5	0.00e+00	0	30	0	951058432	50	5815
2026-01-11 21:26:39.81	350.99	13.90	-38.0	-39.0	22.7	0.00e+00	0	30	0	952107008	50	5698
2026-01-11 21:26:40.82	350.82	13.84	-37.9	-38.9	22.8	0.00e+00	0	30	0	954204160	50	5640
2026-01-11 21:26:41.83	350.65	13.78	-38.0	-39.0	22.6	0.00e+00	0	30	0	956301312	50	5734
2026-01-11 21:26:42.84	350.49	13.72	-38.0	-39.0	22.7	0.00e+00	0	30	0	958398464	50	5701
2026-01-11 21:26:43.84	350.33	13.66	-37.9	-38.9	22.7	0.00e+00	0	30	0	960495616	50	5653
2026-01-11 21:26:44.85	350.16	13.60	-37.8	-38.8	22.7	0.00e+00	0	30	0	961544192	50	5621
2026-01-11 21:26:45.86	350.00	13.54	-37.9	-38.8	22.8	0.00e+00	0	30	0	963641344	50	5630
2026-01-11 21:26:46.87	349.84	13.48	-38.0	-39.0	22.7	0.00e+00	0	30	0	965738496	50	5740
2026-01-11 21:26:47.88	349.67	13.42	-37.7	-38.7	23.0	0.00e+00	0	30	0	967835648	50	5504
2026-01-11 21:26:48.89	349.51	13.36	-37.7	-38.7	22.9	0.00e+00	0	30	0	969932800	48	6200
2026-01-11 21:26:49.90	349.35	13.30	-37.7	-38.6	23.0	0.00e+00	0	30	0	970981376	48	6173
2026-01-11 21:26:50.91	349.19	13.23	-37.6	-38.6	22.9	0.00e+00	0	30	0	973078528	48	6150
2026-01-11 21:26:51.92	349.04	13.17	-37.6	-38.7	22.9	0.00e+00	0	30	0	975175680	48	6181
2026-01-11 21:26:52.93	348.88	13.11	-37.6	-38.6	23.0	0.00e+00	0	30	0	977272832	48	6135
2026-01-11 21:26:53.94	348.72	13.05	-37.7	-38.7	22.9	0.00e+00	0	30	0	979369984	48	6222
2026-01-11 21:26:54.95	348.56	12.99	-37.4	-38.4	23.1	0.00e+00	0	30	0	980418560	48	6025
2026-01-11 21:26:55.95	348.41	12.93	-37.6	-38.6	23.0	0.00e+00	0	30	0	982515712	48	6118
2026-01-11 21:26:56.96	348.25	12.87	-37.4	-38.3	23.2	0.00e+00	0	30	0	984612864	48	5951
2026-01-11 21:26:57.97	348.10	12.81	-37.4	-38.3	23.2	0.00e+00	0	30	0	986710016	48	5936
2026-01-11 21:26:58.98	347.94	12.75	-37.3	-38.2	23.3	0.00e+00	0	30	0	988807168	48	5883
2026-01-11 21:26:59.99	347.79	12.68	-37.3	-38.3	23.2	0.00e+00	0	30	0	989855744	48	5906
2026-01-11 21:27:01.00	347.64	12.62	-37.3	-38.3	23.3	0.00e+00	0	30	0	991952896	48	5903
2026-01-11 21:27:02.01	347.48	12.56	-37.1	-38.0	23.5	0.00e+00	0	30	0	994050048	48	5731
2026-01-11 21:27:03.02	347.33	12.50	-37.1	-38.0	23.4	0.00e+00	0	30	0	996147200	48	5737
2026-01-11 21:27:04.02	347.18	12.44	-37.0	-38.0	23.5	0.00e+00	0	30	0	998244352	48	5705
2026-01-11 21:27:05.03	347.03	12.38	-37.2	-38.1	23.3	0.00e+00	0	30	0	999292928	48	5822
2026-01-11 21:27:06.04	346.88	12.31	-37.0	-37.9	23.5	0.00e+00	0	30	0	1001390080	48	5683
2026-01-11 21:27:07.05	346.73	12.25	-37.0	-37.9	23.5	0.00e+00	0	30	0	1003487232	48	5655
2026-01-11 21:27:08.06	346.58	12.19	-37.0	-37.9	23.5	0.00e+00	0	30	0	1005584384	48	5666
2026-01-11 21:27:09.07	346.44	12.13	-37.0	-37.9	23.5	0.00e+00	0	30	0	1007681536	48	5694
2026-01-11 21:27:10.08	346.29	12.07	-36.9	-37.9	23.6	0.00e+00	0	30	0	1008730112	48	5644
2026-01-11 21:27:11.09	346.14	12.01	-37.0	-38.0	23.5	0.00e+00	0	30	0	1010827264	48	5698
2026-01-11 21:27:12.10	346.00	11.94	-36.9	-37.9	23.6	0.00e+00	0	30	0	1012924416	48	5639
2026-01-11 21:27:13.11	345.85	11.88	-36.9	-37.9	23.6	0.00e+00	0	30	0	1015021568	48	5657
2026-01-11 21:27:14.12	345.71	11.82	-36.9	-37.9	23.5	0.00e+00	0	30	0	1017118720	48	5656
2026-01-11 21:27:15.12	345.56	11.76	-37.2	-38.1	23.3	0.00e+00	0	30	0	1018167296	48	5812
2026-01-11 21:27:16.13	345.42	11.70	-37.0	-38.0	23.5	0.00e+00	0	30	0	1020264448	48	5708
2026-01-11 21:27:17.14	345.28	11.63	-36.8	-37.8	23.7	0.00e+00	0	30	0	1022361600	48	5594
2026-01-11 21:27:18.15	345.14	11.57	-37.0	-38.0	23.4	0.00e+00	0	30	0	1024458752	46	6394
2026-01-11 21:27:19.16	344.99	11.51	-37.0	-38.0	23.3	0.00e+00	0	30	0	1026555904	46	6402
2026-01-11 21:27:20.17	344.85	11.45	-37.0	-38.0	23.4	0.00e+00	0	30	0	1027604480	46	6417
2026-01-11 21:27:21.17	344.71	11.39	-37.0	-37.9	23.5	0.00e+00	0	30	0	1029701632	46	6390
2026-01-11 21:27:22.18	344.57	11.32	-37.0	-38.0	23.3	0.00e+00	0	30	0	1031798784	46	6403
2026-01-11 21:27:23.19	344.44	11.26	-37.1	-38.1	22.9	0.00e+00	0	30	0	1033895936	46	6484
2026-01-11 21:27:24.20	344.30	11.20	-37.1	-38.1	22.9	0.00e+00	0	30	0	1035993088	46	6492
2026-01-11 21:27:25.21	344.16	11.14	-37.1	-38.1	23.2	0.00e+00	0	30	0	1037041664	46	6482
2026-01-11 21:27:26.22	344.02	11.08	-37.1	-38.1	23.3	0.00e+00	0	30	0	1039138816	46	6507
2026-01-11 21:27:27.23	343.89	11.01	-37.2	-38.1	23.3	0.00e+00	0	30	0	1041235968	46	6511
2026-01-11 21:27:28.24	343.75	10.95	-37.2	-38.2	23.2	0.00e+00	0	30	0	1043333120	46	6599
2026-01-11 21:27:29.24	343.61	10.89	-37.3	-38.3	23.1	0.00e+00	0	30	0	1045430272	46	6630
2026-01-11 21:27:30.25	343.48	10.83	-37.4	-38.4	23.1	0.00e+00	0	30	0	1047527424	46	6724
2026-01-11 21:27:31.26	343.35	10.77	-37.5	-38.5	23.1	0.00e+00	0	30	0	1048576000	46	6807
2026-01-11 21:27:32.27	343.21	10.70	-37.5	-38.5	23.0	0.00e+00	0	30	0	1050673152	46	6835
2026-01-11 21:27:33.28	343.08	10.64	-37.6	-38.6	22.9	0.00e+00	0	30	0	1052770304	46	6917
2026-01-11 21:27:34.29	342.95	10.58	-37.6	-38.7	22.9	0.00e+00	0	30	0	1054867456	46	6942
2026-01-11 21:27:35.30	342.81	10.52	-37.6	-38.6	22.9	0.00e+00	0	30	0	1056964608	46	6920
2026-01-11 21:27:36.31	342.68	10.45	-37.6	-38.6	22.9	0.00e+00	0	30	0	1058013184	46	6903
2026-01-11 21:27:37.32	342.55	10.39	-37.6	-38.6	22.9	0.00e+00	0	30	0	1060110336	46	6873
2026-01-11 21:27:38.32	342.42	10.33	-37.6	-38.6	22.9	0.00e+00	0	30	0	1062207488	46	6914
2026-01-11 21:27:39.33	342.29	10.27	-37.7	-38.7	22.8	0.00e+00	0	30	0	1064304640	46	6959
2026-01-11 21:27:40.34	342.16	10.21	-37.7	-38.7	22.8	0.00e+00	0	30	0	1066401792	46	6994
2026-01-11 21:27:41.35	342.03	10.15	-37.5	-38.5	22.9	0.00e+00	0	30	0	1067450368	46	6816
2026-01-11 21:27:42.36	341.91	10.08	-37.4	-38.4	23.1	0.00e+00	0	30	0	1069547520	46	6747
2026-01-11 21:27:43.37	341.78	10.02	-37.6	-38.6	22.8	0.00e+00	0	30	0	1071644672	46	6875
2026-01-11 21:27:44.37	341.65	9.96	-37.4	-38.4	23.0	0.00e+00	0	30	0	1073741824	46	6721
2026-01-11 21:27:45.38	341.53	9.90	-37.4	-38.4	23.0	0.00e+00	0	30	0	1075838976	46	6748
2026-01-11 21:27:46.39	341.40	9.84	-37.5	-38.5	23.0	0.00e+00	0	30	0	1076887552	46	6790
2026-01-11 21:27:47.40	341.27	9.77	-37.6	-38.6	22.9	0.00e+00	0	30	0	1078984704	46	6876
2026-01-11 21:27:48.41	341.15	9.71	-37.5	-38.6	22.8	0.00e+00	0	30	0	1081081856	46	6859
2026-01-11 21:27:49.42	341.03	9.65	-37.7	-38.7	22.8	0.00e+00	0	30	0	1083179008	46	6950
2026-01-11 21:27:50.43	340.90	9.59	-37.8	-38.8	22.7	0.00e+00	0	30	0	1085276160	48	6275
2026-01-11 21:27:51.44	340.78	9.53	-37.8	-38.9	22.5	0.00e+00	0	30	0	1086324736	48	6350
2026-01-11 21:27:52.45	340.66	9.46	-37.9	-39.0	22.5	0.00e+00	0	30	0	1088421888	48	6405
2026-01-11 21:27:53.46	340.53	9.40	-38.0	-39.1	22.3	0.00e+00	0	30	0	1090519040	48	6498
2026-01-11 21:27:54.47	340.41	9.34	-38.0	-39.1	22.3	0.00e+00	0	30	0	1092616192	48	6514
2026-01-11 21:27:55.48	340.29	9.28	-38.1	-39.2	22.2	0.00e+00	0	30	0	1094713344	48	6602
2026-01-11 21:27:56.49	340.17	9.22	-38.3	-39.4	22.0	0.00e+00	0	30	0	1095761920	48	6767
2026-01-11 21:27:57.50	340.05	9.16	-38.2	-39.3	22.2	0.00e+00	0	30	0	1097859072	48	6626
2026-01-11 21:27:58.50	339.93	9.09	-38.3	-39.4	22.1	0.00e+00	0	30	0	1099956224	48	6722
2026-01-11 21:27:59.51	339.81	9.03	-38.4	-39.5	21.9	0.00e+00	0	30	0	1102053376	48	6815
2026-01-11 21:28:00.52	339.69	8.97	-38.3	-39.4	22.0	0.00e+00	0	30	0	1104150528	48	6758
2026-01-11 21:28:01.53	339.58	8.91	-38.4	-39.5	21.8	0.00e+00	0	30	0	1105199104	48	6824
2026-01-11 21:28:02.54	339.46	8.85	-38.5	-39.6	21.8	0.00e+00	0	30	0	1107296256	48	6864
2026-01-11 21:28:03.55	339.34	8.79	-38.5	-39.6	21.9	0.00e+00	0	30	0	1109393408	48	6864
2026-01-11 21:28:04.55	339.23	8.73	-38.5	-39.7	21.8	0.00e+00	0	30	0	1111490560	48	6952
2026-01-11 21:28:05.56	339.11	8.66	-38.6	-39.7	21.8	0.00e+00	0	30	0	1113587712	48	6969
2026-01-11 21:28:06.57	339.00	8.60	-38.6	-39.7	21.6	0.00e+00	0	30	0	1114636288	48	7001
2026-01-11 21:28:07.58	338.88	8.54	-38.7	-39.8	21.6	0.00e+00	0	30	0	1116733440	48	7055
2026-01-11 21:28:08.59	338.77	8.48	-38.7	-39.8	21.5	0.00e+00	0	30	0	1118830592	48	7047
2026-01-11 21:28:09.60	338.65	8.42	-38.7	-39.9	21.5	0.00e+00	0	30	0	1120927744	50	6338
2026-01-11 21:28:10.61	338.54	8.36	-38.9	-40.1	21.4	0.00e+00	0	30	0	1123024896	50	6471
2026-01-11 21:28:11.62	338.43	8.30	-38.9	-40.0	21.4	0.00e+00	0	30	0	1124073472	50	6449
2026-01-11 21:28:12.62	338.31	8.24	-38.8	-39.9	21.5	0.00e+00	0	30	0	1126170624	50	6372
2026-01-11 21:28:13.63	338.20	8.17	-38.9	-40.1	21.2	0.00e+00	0	30	0	1128267776	50	6486
2026-01-11 21:28:14.64	338.09	8.11	-39.1	-40.3	21.1	0.00e+00	0	30	0	1130364928	50	6619
2026-01-11 21:28:15.65	337.98	8.05	-39.1	-40.3	21.1	0.00e+00	0	30	0	1132462080	50	6666
2026-01-11 21:28:16.66	337.87	7.99	-39.3	-40.5	20.9	0.00e+00	0	30	0	1133510656	50	6807
2026-01-11 21:28:17.67	337.76	7.93	-39.2	-40.4	21.0	0.00e+00	0	30	0	1135607808	50	6745
2026-01-11 21:28:18.68	337.65	7.87	-39.1	-40.3	21.1	0.00e+00	0	30	0	1137704960	50	6645
2026-01-11 21:28:19.69	337.54	7.81	-39.2	-40.5	20.9	0.00e+00	0	30	0	1139802112	50	6770
2026-01-11 21:28:20.70	337.43	7.75	-39.3	-40.5	20.9	0.00e+00	0	30	0	1141899264	50	6816
2026-01-11 21:28:21.71	337.32	7.69	-39.3	-40.6	20.8	0.00e+00	0	30	0	1143996416	50	6879
2026-01-11 21:28:22.72	337.22	7.63	-39.5	-40.8	20.7	0.00e+00	0	30	0	1145044992	50	7033
2026-01-11 21:28:23.73	337.11	7.57	-39.4	-40.7	20.7	0.00e+00	0	30	0	1147142144	50	6928
2026-01-11 21:28:24.73	337.00	7.51	-39.4	-40.6	20.7	0.00e+00	0	30	0	1149239296	50	6924
2026-01-11 21:28:25.74	336.90	7.44	-39.4	-40.7	20.6	0.00e+00	0	30	0	1151336448	50	6975
2026-01-11 21:28:26.75	336.79	7.38	-39.5	-40.8	20.5	0.00e+00	0	30	0	1153433600	50	7042
2026-01-11 21:28:27.76	336.69	7.32	-39.5	-40.8	20.5	0.00e+00	0	30	0	1154482176	50	7066
2026-01-11 21:28:28.77	336.58	7.26	-39.7	-41.0	20.3	0.00e+00	0	30	0	1156579328	50	7197
2026-01-11 21:28:29.78	336.48	7.20	-39.6	-40.9	20.5	0.00e+00	0	30	0	1158676480	52	6330
2026-01-11 21:28:30.79	336.37	7.14	-39.3	-40.6	20.7	0.00e+00	0	30	0	1160773632	52	6118
2026-01-11 21:28:31.80	336.27	7.08	-39.4	-40.6	20.7	0.00e+00	0	30	0	1162870784	52	6156
2026-01-11 21:28:32.81	336.16	7.02	-39.4	-40.7	20.6	0.00e+00	0	30	0	1163919360	52	6202
2026-01-11 21:28:33.82	336.06	6.96	-39.5	-40.7	20.6	0.00e+00	0	30	0	1166016512	52	6221
2026-01-11 21:28:34.83	335.96	6.90	-39.4	-40.7	20.6	0.00e+00	0	30	0	1168113664	52	6196
2026-01-11 21:28:35.84	335.86	6.84	-39.5	-40.8	20.6	0.00e+00	0	30	0	1170210816	52	6256
2026-01-11 21:28:36.84	335.76	6.78	-39.5	-40.8	20.4	0.00e+00	0	30	0	1172307968	52	6292
2026-01-11 21:28:37.85	335.66	6.72	-39.6	-40.9	20.5	0.00e+00	0	30	0	1173356544	52	6331
2026-01-11 21:28:38.86	335.56	6.66	-39.6	-40.9	20.3	0.00e+00	0	30	0	1175453696	52	6348
2026-01-11 21:28:39.87	335.46	6.60	-39.6	-40.9	20.2	0.00e+00	0	30	0	1177550848	52	6385
2026-01-11 21:28:40.88	335.36	6.54	-39.9	-41.3	20.0	0.00e+00	0	30	0	1179648000	52	6634
2026-01-11 21:28:41.89	335.26	6.48	-39.9	-41.4	19.7	0.00e+00	0	30	0	1181745152	52	6694
2026-01-11 21:28:42.90	335.16	6.42	-40.0	-41.4	19.7	0.00e+00	0	30	0	1182793728	52	6719
2026-01-11 21:28:43.91	335.06	6.36	-40.0	-41.4	19.5	0.00e+00	0	30	0	1184890880	52	6758
2026-01-11 21:28:44.92	334.96	6.30	-40.2	-41.7	19.4	0.00e+00	0	30	0	1186988032	52	6995
2026-01-11 21:28:45.92	334.86	6.25	-40.4	-41.9	19.0	0.00e+00	0	30	0	1189085184	52	7137
2026-01-11 21:28:46.93	334.77	6.19	-40.3	-41.8	19.0	0.00e+00	0	30	0	1191182336	52	7076
2026-01-11 21:28:47.94	334.67	6.13	-40.4	-42.0	18.8	0.00e+00	0	30	0	1192230912	52	7215
2026-01-11 21:28:48.95	334.57	6.07	-40.6	-42.3	18.4	0.00e+00	0	30	0	1194328064	52	7489
2026-01-11 21:28:49.96	334.48	6.01	-40.9	-42.7	18.1	0.00e+00	0	30	0	1196425216	54	6955
2026-01-11 21:28:50.96	334.38	5.95	-41.0	-42.8	17.7	0.00e+00	0	30	0	1198522368	54	7077
2026-01-11 21:28:51.97	334.29	5.89	-41.0	-42.9	17.6	0.00e+00	0	30	0	1200619520	54	7159
2026-01-11 21:28:52.98	334.19	5.83	-41.1	-43.0	17.3	0.00e+00	0	30	0	1201668096	54	7207
2026-01-11 21:28:53.99	334.10	5.77	-41.3	-43.4	16.9	0.00e+00	0	30	0	1203765248	54	7541
2026-01-11 21:28:55.00	334.00	5.71	-41.3	-43.4	16.8	0.00e+00	0	30	0	1205862400	54	7578
