passes_logs/2026/01/11/R4.6S_Anadyr/R4.6S_Anadyr__20260111_031351_FENGYUN_3D_rec.log

#Pass ID: 20260111_031351_FENGYUN 3D
#Satellite: FENGYUN 3D
#Configuration: FENGYUN 3D
#almurnet v.1.7.20251203
#Start time: 2026-01-11 03:13:52

#Version: 2.2.20231116
#Station: R4.6S_Anadyr
#Location: 177.4865 lon 64.73178 lat
#TLE: 1 43010U 17072A   26009.92921666 -.00000228  00000+0 -86059-4 0  9998
#TLE: 2 43010  98.9936 341.6668 0002176 116.7510 243.3888 14.19693142422537

#Time	Az	El	Level	Level2	SNR	BER	BlckErr	Temp	State	Recorded	gain1	gain2
2026-01-11 03:13:52.75	180.91	0.06	-48.2	-65.9	3.5	3.02e+01	0	28	0	0	60	76038
2026-01-11 03:13:53.76	180.94	0.12	-47.9	-60.0	3.6	8.46e-01	0	29	104	0	60	36093
2026-01-11 03:13:54.77	180.97	0.18	-48.0	-60.1	3.6	8.47e-01	0	29	104	0	60	36761
2026-01-11 03:13:55.78	181.01	0.24	-47.9	-60.2	3.6	8.47e-01	0	29	104	0	60	36927
2026-01-11 03:13:56.79	181.04	0.30	-48.0	-60.1	3.6	8.45e-01	0	29	104	0	60	36424
2026-01-11 03:13:57.80	181.08	0.36	-47.8	-60.1	3.6	8.45e-01	0	29	104	0	60	36774
2026-01-11 03:13:58.81	181.11	0.42	-47.7	-60.1	3.6	8.45e-01	0	29	104	0	60	36399
2026-01-11 03:13:59.82	181.14	0.48	-48.0	-60.1	3.6	8.44e-01	0	29	104	0	60	36602
2026-01-11 03:14:00.83	181.18	0.54	-48.1	-60.3	3.6	8.45e-01	0	29	104	0	60	37319
2026-01-11 03:14:01.84	181.21	0.60	-48.2	-60.3	3.6	8.45e-01	0	29	104	0	60	37544
2026-01-11 03:14:02.85	181.25	0.66	-47.9	-60.1	3.6	8.45e-01	0	29	104	0	60	36682
2026-01-11 03:14:03.86	181.28	0.72	-48.0	-60.2	3.6	8.45e-01	0	29	104	0	60	36859
2026-01-11 03:14:04.86	181.32	0.78	-47.8	-59.9	3.6	8.45e-01	0	30	104	0	60	35905
2026-01-11 03:14:05.87	181.35	0.84	-47.5	-59.7	3.6	8.46e-01	0	30	104	0	60	34777
2026-01-11 03:14:06.89	181.39	0.90	-47.4	-59.5	3.6	8.44e-01	0	29	104	0	60	33936
2026-01-11 03:14:07.89	181.42	0.96	-47.1	-59.1	3.6	8.46e-01	0	30	104	0	60	32433
2026-01-11 03:14:08.90	181.46	1.02	-46.5	-58.7	3.6	8.45e-01	0	30	104	0	60	31199
2026-01-11 03:14:09.91	181.49	1.08	-46.4	-58.5	3.6	8.45e-01	0	29	104	0	60	30380
2026-01-11 03:14:10.93	181.53	1.14	-46.5	-58.6	3.6	8.46e-01	0	30	104	0	60	30788
2026-01-11 03:14:11.93	181.56	1.20	-46.4	-58.6	3.6	8.45e-01	0	30	104	0	60	30720
2026-01-11 03:14:12.94	181.60	1.26	-46.4	-58.6	3.6	8.45e-01	0	30	104	0	60	30661
2026-01-11 03:14:13.95	181.64	1.32	-46.4	-58.5	3.6	8.44e-01	0	30	104	0	60	30536
2026-01-11 03:14:14.96	181.67	1.38	-46.4	-58.5	3.6	8.44e-01	0	30	104	0	60	30452
2026-01-11 03:14:15.97	181.71	1.44	-46.4	-58.5	3.6	8.45e-01	0	30	104	0	60	30389
2026-01-11 03:14:16.98	181.74	1.51	-46.4	-58.4	3.6	8.46e-01	0	30	104	0	60	30209
2026-01-11 03:14:18.00	181.78	1.57	-46.4	-58.4	3.6	8.45e-01	0	30	104	0	60	29928
2026-01-11 03:14:19.00	181.82	1.63	-46.4	-58.4	3.6	8.44e-01	0	30	104	0	60	29932
2026-01-11 03:14:20.01	181.85	1.69	-46.4	-58.3	3.5	8.46e-01	0	30	104	0	60	29759
2026-01-11 03:14:21.02	181.89	1.75	-46.5	-58.4	3.6	8.44e-01	0	30	104	0	60	30077
2026-01-11 03:14:22.04	181.93	1.82	-46.4	-58.4	3.6	8.45e-01	0	30	104	0	60	30131
2026-01-11 03:14:23.05	181.97	1.88	-46.4	-58.5	3.6	8.46e-01	0	30	104	0	60	30378
2026-01-11 03:14:24.06	182.00	1.94	-46.5	-58.6	3.6	8.45e-01	0	30	104	0	60	30639
2026-01-11 03:14:25.07	182.04	2.00	-46.5	-58.6	3.6	8.47e-01	0	30	104	0	60	30590
2026-01-11 03:14:26.08	182.08	2.07	-46.4	-58.4	3.6	8.46e-01	0	30	104	0	60	30081
2026-01-11 03:14:27.09	182.12	2.13	-46.4	-58.4	3.6	8.45e-01	0	30	104	0	60	30147
2026-01-11 03:14:28.09	182.15	2.19	-46.4	-58.5	3.6	8.46e-01	0	30	104	0	60	30337
2026-01-11 03:14:29.10	182.19	2.25	-46.4	-58.6	3.6	8.46e-01	0	30	104	0	60	30647
2026-01-11 03:14:30.11	182.23	2.32	-46.4	-58.4	3.6	8.45e-01	0	30	104	0	60	30209
2026-01-11 03:14:31.12	182.27	2.38	-46.3	-57.6	3.6	8.46e-01	0	30	104	0	60	27326
2026-01-11 03:14:32.13	182.31	2.44	-46.3	-56.9	3.6	8.45e-01	0	30	104	0	60	25272
2026-01-11 03:14:33.14	182.35	2.51	-46.2	-55.9	3.8	8.43e-01	0	30	104	0	60	22518
2026-01-11 03:14:34.15	182.39	2.57	-46.1	-55.0	4.0	8.41e-01	0	30	104	0	60	20383
2026-01-11 03:14:35.16	182.42	2.63	-46.1	-55.3	3.9	8.43e-01	0	30	104	0	60	21073
2026-01-11 03:14:36.17	182.46	2.70	-46.2	-56.5	3.6	8.42e-01	0	30	104	0	60	24190
2026-01-11 03:14:37.18	182.50	2.76	-46.4	-57.9	3.5	8.44e-01	0	30	104	0	60	28353
2026-01-11 03:14:38.19	182.54	2.83	-46.0	-54.8	4.3	8.45e-01	0	30	104	0	60	19907
2026-01-11 03:14:39.20	182.58	2.89	-44.9	-49.1	7.6	2.08e-01	0	30	0	2097152	60	10338
2026-01-11 03:14:40.21	182.62	2.96	-43.2	-46.0	11.3	5.59e-03	0	30	0	8388608	60	7194
2026-01-11 03:14:41.22	182.66	3.02	-40.9	-42.5	15.2	1.10e-06	0	30	0	13631488	56	6093
2026-01-11 03:14:42.23	182.70	3.08	-39.5	-40.8	17.0	0.00e+00	0	30	0	19922944	52	6310
2026-01-11 03:14:43.24	182.74	3.15	-38.0	-39.1	18.4	0.00e+00	0	30	0	25165824	50	5791
2026-01-11 03:14:44.25	182.78	3.21	-36.4	-37.3	20.3	0.00e+00	0	30	0	30408704	46	5963
2026-01-11 03:14:45.26	182.82	3.28	-35.7	-36.5	21.0	0.00e+00	0	30	0	36700160	44	6097
2026-01-11 03:14:46.27	182.86	3.34	-35.0	-35.9	21.6	0.00e+00	0	30	0	41943040	44	5634
2026-01-11 03:14:47.28	182.90	3.41	-35.0	-35.8	21.6	0.00e+00	0	30	0	48234496	44	5588
2026-01-11 03:14:48.29	182.95	3.48	-35.5	-36.4	21.1	0.00e+00	0	30	0	53477376	44	5974
2026-01-11 03:14:49.30	182.99	3.54	-36.0	-36.9	20.6	0.00e+00	0	30	0	58720256	44	6353
2026-01-11 03:14:50.31	183.03	3.61	-36.0	-36.9	21.1	0.00e+00	0	30	0	65011712	44	6355
2026-01-11 03:14:51.32	183.07	3.67	-35.3	-36.2	21.3	0.00e+00	0	30	0	70254592	42	6570
2026-01-11 03:14:52.33	183.11	3.74	-34.8	-35.6	22.0	0.00e+00	0	30	0	76546048	44	5462
2026-01-11 03:14:53.34	183.15	3.81	-46.3	-56.8	3.7	8.45e-01	0	30	104	78643200	60	24925
2026-01-11 03:14:54.34	183.20	3.87	-41.5	-43.4	15.9	3.08e-01	0	30	104	78643200	60	5342
2026-01-11 03:14:55.35	183.24	3.94	-38.5	-39.7	18.3	0.00e+00	0	30	0	81788928	50	6197
2026-01-11 03:14:56.36	183.28	4.01	-37.1	-38.0	19.6	0.00e+00	0	30	0	87031808	48	5752
2026-01-11 03:14:57.37	183.32	4.07	-36.2	-37.1	20.4	0.00e+00	0	30	0	93323264	46	5778
2026-01-11 03:14:58.38	183.37	4.14	-36.4	-37.3	20.2	0.00e+00	0	30	0	98566144	46	5930
2026-01-11 03:14:59.39	183.41	4.21	-35.7	-36.5	21.1	0.00e+00	0	30	0	103809024	44	6056
2026-01-11 03:15:00.40	183.45	4.27	-35.4	-36.2	21.3	0.00e+00	0	30	0	110100480	44	5868
2026-01-11 03:15:01.41	183.50	4.34	-35.4	-36.2	21.3	0.00e+00	0	30	0	115343360	44	5885
2026-01-11 03:15:02.42	183.54	4.41	-36.0	-36.8	20.8	0.00e+00	0	30	0	121634816	44	6305
2026-01-11 03:15:03.43	183.58	4.48	-35.5	-36.4	21.3	0.00e+00	0	30	0	126877696	44	5990
2026-01-11 03:15:04.44	183.63	4.55	-34.9	-35.8	21.9	0.00e+00	0	30	0	132120576	44	5571
2026-01-11 03:15:05.45	183.67	4.61	-35.0	-35.8	21.9	0.00e+00	0	30	0	138412032	44	5583
2026-01-11 03:15:06.46	183.72	4.68	-34.3	-35.0	22.7	0.00e+00	0	30	0	143654912	42	5735
2026-01-11 03:15:07.47	183.76	4.75	-34.1	-34.8	22.8	0.00e+00	0	30	0	149946368	42	5599
2026-01-11 03:15:08.49	183.81	4.82	-34.0	-34.8	22.9	0.00e+00	0	30	0	155189248	42	5580
2026-01-11 03:15:09.50	183.85	4.89	-34.0	-34.8	22.9	0.00e+00	0	30	0	161480704	42	5584
2026-01-11 03:15:10.51	183.90	4.96	-34.0	-34.8	22.9	0.00e+00	0	30	0	166723584	42	5597
2026-01-11 03:15:11.52	183.94	5.03	-34.0	-34.8	23.0	0.00e+00	0	30	0	173015040	42	5573
2026-01-11 03:15:12.53	183.99	5.10	-34.0	-34.8	23.0	0.00e+00	0	30	0	178257920	42	5570
2026-01-11 03:15:13.54	184.03	5.17	-34.1	-34.9	22.8	0.00e+00	0	30	0	183500800	42	5637
2026-01-11 03:15:14.55	184.08	5.24	-33.8	-34.5	23.2	0.00e+00	0	30	0	189792256	42	5420
2026-01-11 03:15:15.56	184.12	5.31	-33.7	-34.4	23.2	0.00e+00	0	30	0	195035136	40	6020
2026-01-11 03:15:16.57	184.17	5.38	-33.7	-34.5	23.2	0.00e+00	0	30	0	200278016	40	6064
2026-01-11 03:15:17.58	184.22	5.45	-33.8	-34.5	23.1	0.00e+00	0	30	0	206569472	40	6081
2026-01-11 03:15:18.58	184.26	5.52	-33.6	-34.4	23.3	0.00e+00	0	30	0	211812352	40	5967
2026-01-11 03:15:19.59	184.31	5.59	-33.5	-34.3	23.4	0.00e+00	0	30	0	218103808	40	5911
2026-01-11 03:15:20.60	184.36	5.66	-33.6	-34.4	23.3	0.00e+00	0	30	0	223346688	40	5968
2026-01-11 03:15:21.61	184.41	5.73	-33.7	-34.4	23.3	0.00e+00	0	30	0	228589568	40	6022
2026-01-11 03:15:22.62	184.45	5.80	-33.8	-34.6	23.1	0.00e+00	0	30	0	234881024	40	6107
2026-01-11 03:15:23.64	184.50	5.87	-33.6	-34.4	23.3	0.00e+00	0	30	0	240123904	40	5969
2026-01-11 03:15:24.65	184.55	5.94	-33.4	-34.1	23.6	0.00e+00	0	30	0	246415360	40	5802
2026-01-11 03:15:25.66	184.60	6.01	-33.5	-34.2	23.5	0.00e+00	0	30	0	251658240	40	5845
2026-01-11 03:15:26.67	184.65	6.09	-33.6	-34.3	23.4	0.00e+00	0	30	0	257949696	40	5941
2026-01-11 03:15:27.68	184.69	6.16	-33.5	-34.3	23.3	0.00e+00	0	30	0	263192576	40	5922
2026-01-11 03:15:28.69	184.74	6.23	-33.6	-34.3	23.4	0.00e+00	0	30	0	269484032	40	5959
2026-01-11 03:15:29.70	184.79	6.30	-33.6	-34.3	23.5	0.00e+00	0	30	0	274726912	40	5956
2026-01-11 03:15:30.71	184.84	6.38	-33.4	-34.1	23.7	0.00e+00	0	30	0	279969792	40	5819
2026-01-11 03:15:31.72	184.89	6.45	-33.3	-34.1	23.7	0.00e+00	0	30	0	286261248	40	5768
2026-01-11 03:15:32.72	184.94	6.52	-33.4	-34.2	23.6	0.00e+00	0	30	0	291504128	40	5835
2026-01-11 03:15:33.73	184.99	6.59	-33.5	-34.2	23.6	0.00e+00	0	30	0	297795584	40	5866
2026-01-11 03:15:34.74	185.04	6.67	-33.6	-34.3	23.4	0.00e+00	0	30	0	303038464	40	5919
2026-01-11 03:15:35.75	185.09	6.74	-33.4	-34.1	23.7	0.00e+00	0	30	0	308281344	40	5813
2026-01-11 03:15:36.76	185.14	6.81	-33.6	-34.3	23.6	0.00e+00	0	30	0	314572800	40	5953
2026-01-11 03:15:37.77	185.19	6.89	-33.4	-34.1	23.7	0.00e+00	0	30	0	319815680	40	5816
2026-01-11 03:15:38.78	185.24	6.96	-33.4	-34.1	23.7	0.00e+00	0	30	0	326107136	40	5789
2026-01-11 03:15:39.80	185.30	7.04	-33.1	-33.9	24.0	0.00e+00	0	30	0	331350016	40	5649
2026-01-11 03:15:40.80	185.35	7.11	-33.2	-33.9	23.9	0.00e+00	0	30	0	336592896	40	5691
2026-01-11 03:15:41.81	185.40	7.19	-33.0	-33.7	24.1	0.00e+00	0	30	0	342884352	40	5531
2026-01-11 03:15:42.82	185.45	7.26	-33.0	-33.7	24.1	0.00e+00	0	30	0	348127232	40	5558
2026-01-11 03:15:43.83	185.50	7.34	-33.1	-33.8	24.2	0.00e+00	0	30	0	354418688	40	5588
2026-01-11 03:15:44.84	185.56	7.41	-33.0	-33.7	24.2	0.00e+00	0	30	0	359661568	40	5538
2026-01-11 03:15:45.85	185.61	7.49	-32.9	-33.6	24.3	0.00e+00	0	30	0	365953024	40	5459
2026-01-11 03:15:46.86	185.66	7.56	-33.0	-33.7	24.2	0.00e+00	0	30	0	371195904	40	5536
2026-01-11 03:15:47.87	185.72	7.64	-32.8	-33.5	24.4	0.00e+00	0	30	0	377487360	40	5382
2026-01-11 03:15:48.88	185.77	7.71	-32.8	-33.4	24.5	0.00e+00	0	30	0	382730240	38	6031
2026-01-11 03:15:49.89	185.83	7.79	-32.7	-33.4	24.5	0.00e+00	0	30	0	387973120	38	6005
2026-01-11 03:15:50.90	185.88	7.87	-32.8	-33.4	24.5	0.00e+00	0	30	0	394264576	38	6024
2026-01-11 03:15:51.91	185.93	7.94	-32.7	-33.4	24.5	0.00e+00	0	30	0	399507456	38	5999
2026-01-11 03:15:52.92	185.99	8.02	-32.8	-33.4	24.4	0.00e+00	0	30	0	405798912	38	6026
2026-01-11 03:15:53.93	186.04	8.10	-32.7	-33.4	24.5	0.00e+00	0	30	0	411041792	38	5985
2026-01-11 03:15:54.94	186.10	8.18	-32.7	-33.4	24.5	0.00e+00	0	30	0	416284672	38	5997
2026-01-11 03:15:55.95	186.16	8.25	-32.6	-33.3	24.6	0.00e+00	0	30	0	422576128	38	5947
2026-01-11 03:15:56.96	186.21	8.33	-32.5	-33.2	24.7	0.00e+00	0	30	0	427819008	38	5849
2026-01-11 03:15:57.97	186.27	8.41	-32.6	-33.3	24.6	0.00e+00	0	30	0	433061888	38	5905
2026-01-11 03:15:58.98	186.32	8.49	-32.6	-33.3	24.6	0.00e+00	0	30	0	439353344	38	5932
2026-01-11 03:15:59.99	186.38	8.57	-32.6	-33.3	24.6	0.00e+00	0	30	0	444596224	38	5918
2026-01-11 03:16:00.99	186.44	8.64	-32.6	-33.2	24.7	0.00e+00	0	30	0	450887680	38	5891
2026-01-11 03:16:02.00	186.49	8.72	-32.6	-33.2	24.6	0.00e+00	0	30	0	456130560	38	5880
2026-01-11 03:16:03.01	186.55	8.80	-32.5	-33.2	24.7	0.00e+00	0	30	0	462422016	38	5860
2026-01-11 03:16:04.02	186.61	8.88	-32.6	-33.2	24.7	0.00e+00	0	30	0	467664896	38	5894
2026-01-11 03:16:05.03	186.67	8.96	-32.4	-33.1	24.8	0.00e+00	0	30	0	473956352	38	5804
2026-01-11 03:16:06.04	186.73	9.04	-32.6	-33.2	24.6	0.00e+00	0	30	0	479199232	38	5876
2026-01-11 03:16:07.05	186.79	9.12	-32.5	-33.2	24.7	0.00e+00	0	30	0	484442112	38	5835
2026-01-11 03:16:08.06	186.85	9.20	-32.5	-33.2	24.7	0.00e+00	0	30	0	490733568	38	5832
2026-01-11 03:16:09.07	186.90	9.28	-32.5	-33.2	24.8	0.00e+00	0	30	0	495976448	38	5831
2026-01-11 03:16:10.08	186.96	9.36	-32.4	-33.1	24.8	0.00e+00	0	30	0	502267904	38	5794
2026-01-11 03:16:11.09	187.02	9.44	-32.4	-33.1	24.9	0.00e+00	0	30	0	507510784	38	5764
2026-01-11 03:16:12.10	187.09	9.53	-32.5	-33.1	24.8	0.00e+00	0	30	0	512753664	38	5826
2026-01-11 03:16:13.11	187.15	9.61	-32.4	-33.1	24.8	0.00e+00	0	30	0	519045120	38	5801
2026-01-11 03:16:14.12	187.21	9.69	-32.4	-33.1	24.8	0.00e+00	0	30	0	524288000	38	5780
2026-01-11 03:16:15.13	187.27	9.77	-32.4	-33.0	24.9	0.00e+00	0	30	0	530579456	38	5749
2026-01-11 03:16:16.14	187.33	9.85	-32.4	-33.1	24.8	0.00e+00	0	30	0	535822336	38	5803
2026-01-11 03:16:17.15	187.39	9.94	-32.4	-33.1	24.8	0.00e+00	0	30	0	541065216	38	5815
2026-01-11 03:16:18.16	187.45	10.02	-32.4	-33.1	24.9	0.00e+00	0	30	0	547356672	38	5818
2026-01-11 03:16:19.17	187.52	10.10	-32.4	-33.1	25.0	0.00e+00	0	30	0	552599552	38	5770
2026-01-11 03:16:20.18	187.58	10.18	-32.2	-32.9	25.0	0.00e+00	0	30	0	558891008	38	5652
2026-01-11 03:16:21.19	187.64	10.27	-32.2	-32.9	25.1	0.00e+00	0	30	0	564133888	38	5652
2026-01-11 03:16:22.20	187.71	10.35	-32.4	-33.1	24.9	0.00e+00	0	30	0	570425344	38	5771
2026-01-11 03:16:23.21	187.77	10.44	-32.1	-32.8	25.2	0.00e+00	0	30	0	575668224	38	5583
2026-01-11 03:16:24.22	187.84	10.52	-32.2	-32.9	25.1	0.00e+00	0	30	0	581959680	38	5639
2026-01-11 03:16:25.23	187.90	10.60	-32.2	-32.9	25.2	0.00e+00	0	30	0	587202560	38	5688
2026-01-11 03:16:26.24	187.97	10.69	-32.0	-32.6	25.3	0.00e+00	0	30	0	592445440	38	5496
2026-01-11 03:16:27.25	188.03	10.77	-32.0	-32.7	25.2	0.00e+00	0	30	0	598736896	38	5526
2026-01-11 03:16:28.26	188.10	10.86	-31.9	-32.6	25.4	0.00e+00	0	30	0	603979776	38	5465
2026-01-11 03:16:29.26	188.16	10.94	-32.0	-32.7	25.3	0.00e+00	0	30	0	609222656	38	5503
2026-01-11 03:16:30.28	188.23	11.03	-31.9	-32.5	25.4	0.00e+00	0	30	0	615514112	38	5423
2026-01-11 03:16:31.29	188.30	11.12	-32.0	-32.6	25.4	0.00e+00	0	30	0	620756992	38	5494
2026-01-11 03:16:32.30	188.36	11.20	-31.8	-32.5	25.5	0.00e+00	0	30	0	627048448	38	5385
2026-01-11 03:16:33.31	188.43	11.29	-31.8	-32.4	25.5	0.00e+00	0	30	0	632291328	38	5377
2026-01-11 03:16:34.32	188.50	11.38	-31.8	-32.4	25.5	0.00e+00	0	30	0	638582784	38	5365
2026-01-11 03:16:35.33	188.57	11.46	-31.8	-32.5	25.5	0.00e+00	0	30	0	643825664	36	6066
2026-01-11 03:16:36.34	188.64	11.55	-31.8	-32.4	25.5	0.00e+00	0	30	0	649068544	36	6016
2026-01-11 03:16:37.34	188.71	11.64	-31.7	-32.4	25.5	0.00e+00	0	30	0	655360000	36	5988
2026-01-11 03:16:38.35	188.77	11.73	-31.8	-32.4	25.5	0.00e+00	0	30	0	660602880	36	6018
2026-01-11 03:16:39.36	188.84	11.82	-31.8	-32.4	25.6	0.00e+00	0	30	0	666894336	36	5998
2026-01-11 03:16:40.37	188.92	11.90	-31.8	-32.5	25.4	0.00e+00	0	30	0	672137216	36	6067
2026-01-11 03:16:41.38	188.99	11.99	-31.8	-32.4	25.6	0.00e+00	0	30	0	678428672	36	6028
2026-01-11 03:16:42.39	189.06	12.08	-31.7	-32.4	25.6	0.00e+00	0	30	0	683671552	36	5996
2026-01-11 03:16:43.40	189.13	12.17	-31.8	-32.4	25.5	0.00e+00	0	30	0	688914432	36	6030
2026-01-11 03:16:44.41	189.20	12.26	-32.1	-32.7	25.4	0.00e+00	0	30	0	695205888	36	6230
2026-01-11 03:16:45.42	189.27	12.35	-31.7	-32.3	25.7	0.00e+00	0	30	0	700448768	36	5945
2026-01-11 03:16:46.43	189.35	12.44	-31.6	-32.3	25.7	0.00e+00	0	30	0	706740224	36	5912
2026-01-11 03:16:47.44	189.42	12.53	-31.6	-32.2	25.8	0.00e+00	0	30	0	711983104	36	5884
2026-01-11 03:16:48.45	189.49	12.62	-31.6	-32.3	25.6	0.00e+00	0	30	0	717225984	36	5913
2026-01-11 03:16:49.45	189.57	12.71	-31.5	-32.1	25.8	0.00e+00	0	30	0	723517440	36	5827
2026-01-11 03:16:50.46	189.64	12.81	-31.5	-32.1	25.8	0.00e+00	0	30	0	728760320	36	5827
2026-01-11 03:16:51.47	189.72	12.90	-31.5	-32.1	25.8	0.00e+00	0	30	0	735051776	36	5785
2026-01-11 03:16:52.48	189.79	12.99	-31.5	-32.1	25.8	0.00e+00	0	30	0	740294656	36	5816
2026-01-11 03:16:53.49	189.87	13.08	-31.6	-32.2	25.7	0.00e+00	0	30	0	745537536	36	5879
2026-01-11 03:16:54.50	189.94	13.18	-31.7	-32.3	25.6	0.00e+00	0	30	0	751828992	36	5958
2026-01-11 03:16:55.51	190.02	13.27	-31.5	-32.1	25.7	0.00e+00	0	30	0	757071872	36	5823
2026-01-11 03:16:56.52	190.10	13.36	-31.7	-32.3	25.6	0.00e+00	0	30	0	763363328	36	5964
2026-01-11 03:16:57.53	190.18	13.46	-31.7	-32.3	25.7	0.00e+00	0	30	0	768606208	36	5955
2026-01-11 03:16:58.54	190.25	13.55	-31.6	-32.2	25.7	0.00e+00	0	30	0	774897664	36	5883
2026-01-11 03:16:59.55	190.33	13.64	-31.7	-32.4	25.7	0.00e+00	0	30	0	780140544	36	5969
2026-01-11 03:17:00.56	190.41	13.74	-31.6	-32.2	25.7	0.00e+00	0	30	0	785383424	36	5891
2026-01-11 03:17:01.57	190.49	13.83	-31.6	-32.2	25.8	0.00e+00	0	30	0	791674880	36	5877
2026-01-11 03:17:02.58	190.57	13.93	-31.4	-32.0	25.9	0.00e+00	0	30	0	796917760	36	5744
2026-01-11 03:17:03.59	190.65	14.02	-31.4	-32.1	25.9	0.00e+00	0	30	0	803209216	36	5780
2026-01-11 03:17:04.60	190.73	14.12	-31.4	-32.1	25.9	0.00e+00	0	30	0	808452096	36	5800
2026-01-11 03:17:05.61	190.82	14.22	-31.0	-31.7	26.2	0.00e+00	0	30	0	813694976	36	5540
2026-01-11 03:17:06.62	190.90	14.31	-31.2	-31.8	26.1	0.00e+00	0	30	0	819986432	36	5595
2026-01-11 03:17:07.63	190.98	14.41	-31.0	-31.6	26.3	0.00e+00	0	30	0	825229312	36	5496
2026-01-11 03:17:08.64	191.06	14.51	-31.1	-31.7	26.2	0.00e+00	0	30	0	831520768	36	5557
2026-01-11 03:17:09.65	191.15	14.61	-31.1	-31.7	26.2	0.00e+00	0	30	0	836763648	36	5564
2026-01-11 03:17:10.66	191.23	14.70	-31.0	-31.6	26.4	0.00e+00	0	30	0	842006528	36	5465
2026-01-11 03:17:11.67	191.32	14.80	-31.1	-31.7	26.3	0.00e+00	0	30	0	848297984	36	5550
2026-01-11 03:17:12.68	191.40	14.90	-31.0	-31.6	26.3	0.00e+00	0	30	0	853540864	36	5495
2026-01-11 03:17:13.69	191.49	15.00	-31.1	-31.8	26.3	0.00e+00	0	30	0	859832320	36	5574
2026-01-11 03:17:14.70	191.57	15.10	-30.8	-31.4	26.5	0.00e+00	0	30	0	865075200	36	5351
2026-01-11 03:17:15.71	191.66	15.20	-30.7	-31.4	26.5	0.00e+00	0	30	0	871366656	36	5326
2026-01-11 03:17:16.72	191.75	15.30	-30.7	-31.4	26.6	0.00e+00	0	30	0	876609536	34	5978
2026-01-11 03:17:17.72	191.84	15.40	-30.8	-31.4	26.5	0.00e+00	0	30	0	882900992	34	6027
2026-01-11 03:17:18.73	191.92	15.50	-30.7	-31.3	26.6	0.00e+00	0	30	0	888143872	34	5914
2026-01-11 03:17:19.74	192.01	15.60	-30.7	-31.3	26.5	0.00e+00	0	30	0	893386752	34	5953
2026-01-11 03:17:20.75	192.10	15.70	-30.7	-31.4	26.5	0.00e+00	0	30	0	899678208	34	5976
2026-01-11 03:17:21.76	192.19	15.80	-30.6	-31.2	26.6	0.00e+00	0	30	0	904921088	34	5890
2026-01-11 03:17:22.78	192.29	15.91	-30.6	-31.2	26.8	0.00e+00	0	30	0	911212544	34	5851
2026-01-11 03:17:23.78	192.38	16.01	-30.5	-31.2	26.7	0.00e+00	0	30	0	916455424	34	5832
2026-01-11 03:17:24.79	192.47	16.11	-30.4	-31.0	26.9	0.00e+00	0	30	0	921698304	34	5736
2026-01-11 03:17:25.80	192.56	16.22	-30.4	-31.0	26.8	0.00e+00	0	30	0	927989760	34	5752
2026-01-11 03:17:26.81	192.65	16.32	-30.4	-31.1	26.9	0.00e+00	0	30	0	933232640	34	5771
2026-01-11 03:17:27.82	192.75	16.42	-30.3	-30.9	26.9	0.00e+00	0	30	0	939524096	34	5683
2026-01-11 03:17:28.83	192.84	16.53	-30.6	-31.2	26.8	0.00e+00	0	30	0	944766976	34	5843
2026-01-11 03:17:29.84	192.94	16.63	-30.6	-31.2	26.9	0.00e+00	0	30	0	950009856	34	5853
2026-01-11 03:17:30.85	193.03	16.74	-30.5	-31.1	26.8	0.00e+00	0	30	0	956301312	34	5790
2026-01-11 03:17:31.86	193.13	16.84	-30.5	-31.1	26.8	0.00e+00	0	30	0	961544192	34	5823
2026-01-11 03:17:32.87	193.23	16.95	-30.6	-31.2	26.7	0.00e+00	0	30	0	967835648	34	5874
2026-01-11 03:17:33.88	193.33	17.06	-30.4	-31.0	26.9	0.00e+00	0	30	0	973078528	34	5731
2026-01-11 03:17:34.89	193.42	17.16	-30.3	-30.9	26.9	0.00e+00	0	30	0	979369984	34	5681
2026-01-11 03:17:35.90	193.52	17.27	-30.4	-31.0	26.9	0.00e+00	0	30	0	984612864	34	5718
2026-01-11 03:17:36.91	193.62	17.38	-30.3	-30.9	26.9	0.00e+00	0	30	0	989855744	34	5682
2026-01-11 03:17:37.92	193.72	17.48	-30.1	-30.7	27.2	0.00e+00	0	30	0	996147200	34	5519
2026-01-11 03:17:38.93	193.83	17.59	-30.1	-30.7	27.2	0.00e+00	0	30	0	1001390080	34	5511
2026-01-11 03:17:39.94	193.93	17.70	-30.0	-30.6	27.1	0.00e+00	0	30	0	1007681536	34	5473
2026-01-11 03:17:40.95	194.03	17.81	-30.0	-30.6	27.3	0.00e+00	0	30	0	1012924416	34	5480
2026-01-11 03:17:41.95	194.13	17.92	-30.0	-30.6	27.2	0.00e+00	0	30	0	1018167296	34	5491
2026-01-11 03:17:42.96	194.24	18.03	-30.1	-30.7	27.2	0.00e+00	0	30	0	1024458752	34	5521
2026-01-11 03:17:43.97	194.34	18.14	-30.2	-30.8	27.1	0.00e+00	0	30	0	1029701632	34	5611
2026-01-11 03:17:44.98	194.45	18.25	-30.1	-30.7	27.1	0.00e+00	0	30	0	1035993088	34	5547
2026-01-11 03:17:45.99	194.55	18.36	-30.2	-30.9	27.1	0.00e+00	0	29	0	1041235968	34	5636
2026-01-11 03:17:47.00	194.66	18.47	-30.3	-30.9	27.0	0.00e+00	0	29	0	1046478848	34	5682
2026-01-11 03:17:48.01	194.77	18.59	-30.1	-30.7	27.2	0.00e+00	0	30	0	1052770304	34	5526
2026-01-11 03:17:49.02	194.88	18.70	-29.9	-30.6	27.3	0.00e+00	0	30	0	1058013184	34	5443
2026-01-11 03:17:50.03	194.99	18.81	-29.9	-30.5	27.3	0.00e+00	0	30	0	1064304640	34	5402
2026-01-11 03:17:51.04	195.10	18.92	-29.9	-30.5	27.3	0.00e+00	0	30	0	1069547520	34	5414
2026-01-11 03:17:52.05	195.21	19.04	-29.9	-30.5	27.2	0.00e+00	0	30	0	1075838976	34	5423
2026-01-11 03:17:53.06	195.32	19.15	-29.8	-30.4	27.4	0.00e+00	0	30	0	1081081856	34	5350
2026-01-11 03:17:54.07	195.43	19.27	-29.8	-30.4	27.4	0.00e+00	0	29	0	1087373312	32	6006
2026-01-11 03:17:55.08	195.54	19.38	-29.8	-30.4	27.5	0.00e+00	0	29	0	1092616192	32	6026
2026-01-11 03:17:56.09	195.66	19.50	-29.9	-30.5	27.4	0.00e+00	0	29	0	1097859072	32	6036
2026-01-11 03:17:57.10	195.77	19.61	-29.8	-30.4	27.4	0.00e+00	0	29	0	1104150528	32	6020
2026-01-11 03:17:58.11	195.89	19.73	-29.9	-30.4	27.3	0.00e+00	0	29	0	1109393408	32	6016
2026-01-11 03:17:59.11	196.00	19.84	-29.8	-30.4	27.4	0.00e+00	0	29	0	1114636288	32	6015
2026-01-11 03:18:00.12	196.12	19.96	-29.9	-30.6	27.2	0.00e+00	0	29	0	1120927744	32	6110
2026-01-11 03:18:01.13	196.24	20.08	-29.9	-30.5	27.3	0.00e+00	0	29	0	1126170624	32	6077
2026-01-11 03:18:02.14	196.36	20.20	-29.9	-30.5	27.3	0.00e+00	0	29	0	1132462080	32	6084
2026-01-11 03:18:03.15	196.48	20.31	-29.7	-30.3	27.5	0.00e+00	0	30	0	1137704960	32	5947
2026-01-11 03:18:04.16	196.60	20.43	-29.7	-30.3	27.5	0.00e+00	0	29	0	1142947840	32	5957
2026-01-11 03:18:05.17	196.72	20.55	-29.6	-30.2	27.6	0.00e+00	0	29	0	1149239296	32	5855
2026-01-11 03:18:06.18	196.85	20.67	-29.7	-30.3	27.6	0.00e+00	0	29	0	1154482176	32	5908
2026-01-11 03:18:07.19	196.97	20.79	-29.6	-30.2	27.5	0.00e+00	0	29	0	1160773632	32	5893
2026-01-11 03:18:08.20	197.09	20.91	-29.6	-30.2	27.6	0.00e+00	0	29	0	1166016512	32	5839
2026-01-11 03:18:09.21	197.22	21.03	-29.7	-30.3	27.4	0.00e+00	0	30	0	1172307968	32	5957
2026-01-11 03:18:10.22	197.35	21.16	-29.5	-30.0	27.7	0.00e+00	0	29	0	1177550848	32	5757
2026-01-11 03:18:11.23	197.47	21.28	-29.6	-30.2	27.6	0.00e+00	0	29	0	1183842304	32	5856
2026-01-11 03:18:12.24	197.60	21.40	-29.7	-30.3	27.5	0.00e+00	0	29	0	1189085184	32	5925
2026-01-11 03:18:13.25	197.73	21.52	-29.7	-30.3	27.4	0.00e+00	0	29	0	1194328064	32	5963
2026-01-11 03:18:14.26	197.86	21.65	-29.6	-30.2	27.6	0.00e+00	0	29	0	1200619520	32	5848
2026-01-11 03:18:15.27	197.99	21.77	-29.6	-30.2	27.6	0.00e+00	0	29	0	1205862400	32	5885
2026-01-11 03:18:16.28	198.13	21.89	-29.5	-30.1	27.7	0.00e+00	0	29	0	1212153856	32	5817
2026-01-11 03:18:17.29	198.26	22.02	-29.5	-30.2	27.6	0.00e+00	0	29	0	1217396736	32	5837
2026-01-11 03:18:18.30	198.40	22.14	-29.6	-30.2	27.7	0.00e+00	0	29	0	1222639616	32	5838
2026-01-11 03:18:19.31	198.53	22.27	-29.3	-29.9	27.9	0.00e+00	0	29	0	1228931072	32	5663
2026-01-11 03:18:20.32	198.67	22.40	-29.3	-29.9	27.9	0.00e+00	0	29	0	1234173952	32	5667
2026-01-11 03:18:21.33	198.81	22.52	-29.4	-30.0	27.8	0.00e+00	0	29	0	1240465408	32	5744
2026-01-11 03:18:22.34	198.94	22.65	-29.3	-29.9	27.9	0.00e+00	0	29	0	1245708288	32	5672
2026-01-11 03:18:23.35	199.08	22.78	-29.3	-29.9	27.9	0.00e+00	0	29	0	1250951168	32	5681
2026-01-11 03:18:24.36	199.23	22.90	-29.2	-29.8	27.9	0.00e+00	0	29	0	1257242624	32	5592
2026-01-11 03:18:25.37	199.37	23.03	-29.3	-29.9	27.9	0.00e+00	0	29	0	1262485504	32	5684
2026-01-11 03:18:26.38	199.51	23.16	-29.1	-29.7	28.0	0.00e+00	0	29	0	1268776960	32	5536
2026-01-11 03:18:27.39	199.66	23.29	-29.1	-29.7	28.1	0.00e+00	0	29	0	1274019840	32	5536
2026-01-11 03:18:28.40	199.80	23.42	-29.1	-29.7	28.0	0.00e+00	0	29	0	1280311296	32	5529
2026-01-11 03:18:29.41	199.95	23.55	-29.1	-29.6	28.2	0.00e+00	0	29	0	1285554176	32	5494
2026-01-11 03:18:30.41	200.10	23.68	-29.0	-29.6	28.1	0.00e+00	0	29	0	1290797056	32	5459
2026-01-11 03:18:31.42	200.25	23.81	-29.1	-29.7	28.1	0.00e+00	0	29	0	1297088512	32	5524
2026-01-11 03:18:32.44	200.40	23.94	-29.1	-29.7	28.0	0.00e+00	0	29	0	1302331392	32	5545
2026-01-11 03:18:33.45	200.55	24.08	-29.1	-29.7	28.1	0.00e+00	0	29	0	1308622848	32	5528
2026-01-11 03:18:34.46	200.70	24.21	-29.1	-29.7	28.2	0.00e+00	0	29	0	1313865728	32	5537
2026-01-11 03:18:35.47	200.86	24.34	-29.0	-29.6	28.1	0.00e+00	0	29	0	1319108608	32	5501
2026-01-11 03:18:36.48	201.01	24.48	-28.8	-29.3	28.3	0.00e+00	0	29	0	1325400064	32	5311
2026-01-11 03:18:37.49	201.17	24.61	-28.9	-29.5	28.2	0.00e+00	0	29	0	1330642944	32	5387
2026-01-11 03:18:38.50	201.33	24.74	-28.8	-29.4	28.3	0.00e+00	0	29	0	1336934400	30	6007
2026-01-11 03:18:39.51	201.49	24.88	-29.0	-29.6	28.2	0.00e+00	0	29	0	1342177280	30	6144
2026-01-11 03:18:40.51	201.65	25.01	-28.8	-29.4	28.3	0.00e+00	0	29	0	1347420160	30	5975
2026-01-11 03:18:41.52	201.81	25.15	-28.5	-29.1	28.4	0.00e+00	0	29	0	1353711616	30	5785
2026-01-11 03:18:42.53	201.97	25.28	-28.6	-29.2	28.4	0.00e+00	0	29	0	1358954496	30	5885
2026-01-11 03:18:43.54	202.14	25.42	-28.7	-29.3	28.3	0.00e+00	0	29	0	1365245952	30	5931
2026-01-11 03:18:44.55	202.30	25.56	-28.8	-29.4	28.3	0.00e+00	0	29	0	1370488832	30	5991
2026-01-11 03:18:45.56	202.47	25.70	-29.0	-29.6	28.3	0.00e+00	0	29	0	1376780288	30	6133
2026-01-11 03:18:46.57	202.64	25.83	-29.0	-29.5	28.3	0.00e+00	0	29	0	1382023168	30	6086
2026-01-11 03:18:47.58	202.81	25.97	-28.9	-29.5	28.3	0.00e+00	0	29	0	1388314624	30	6079
2026-01-11 03:18:48.59	202.98	26.11	-29.1	-29.7	28.2	0.00e+00	0	29	0	1393557504	30	6175
2026-01-11 03:18:49.60	203.16	26.25	-28.9	-29.5	28.3	0.00e+00	0	29	0	1398800384	30	6102
2026-01-11 03:18:50.61	203.33	26.39	-29.0	-29.6	28.2	0.00e+00	0	29	0	1405091840	30	6145
2026-01-11 03:18:51.62	203.51	26.53	-29.2	-29.8	28.0	0.00e+00	0	29	0	1410334720	30	6308
2026-01-11 03:18:52.64	203.69	26.67	-28.9	-29.5	28.2	0.00e+00	0	29	0	1416626176	30	6078
2026-01-11 03:18:53.65	203.87	26.82	-28.9	-29.5	28.2	0.00e+00	0	29	0	1421869056	30	6087
2026-01-11 03:18:54.66	204.05	26.96	-28.8	-29.4	28.2	0.00e+00	0	29	0	1427111936	30	5981
2026-01-11 03:18:55.67	204.23	27.10	-28.7	-29.3	28.4	0.00e+00	0	29	0	1433403392	30	5911
2026-01-11 03:18:56.68	204.41	27.24	-28.8	-29.4	28.4	0.00e+00	0	29	0	1438646272	30	6009
2026-01-11 03:18:57.69	204.60	27.39	-28.5	-29.1	28.6	0.00e+00	0	29	0	1444937728	30	5802
2026-01-11 03:18:58.69	204.79	27.53	-28.5	-29.1	28.5	0.00e+00	0	29	0	1450180608	30	5772
2026-01-11 03:18:59.70	204.98	27.67	-28.6	-29.1	28.5	0.00e+00	0	29	0	1455423488	30	5826
2026-01-11 03:19:00.71	205.17	27.82	-28.5	-29.1	28.5	0.00e+00	0	29	0	1461714944	30	5807
2026-01-11 03:19:01.72	205.36	27.96	-28.6	-29.2	28.4	0.00e+00	0	29	0	1466957824	30	5883
2026-01-11 03:19:02.73	205.55	28.11	-28.6	-29.2	28.5	0.00e+00	0	29	0	1473249280	30	5860
2026-01-11 03:19:03.74	205.75	28.25	-28.6	-29.3	28.4	0.00e+00	0	29	0	1478492160	30	5904
2026-01-11 03:19:04.75	205.95	28.40	-28.6	-29.2	28.4	0.00e+00	0	29	0	1484783616	30	5874
2026-01-11 03:19:05.76	206.15	28.54	-28.7	-29.3	28.4	0.00e+00	0	29	0	1490026496	30	5962
2026-01-11 03:19:06.77	206.35	28.69	-28.9	-29.5	28.2	0.00e+00	0	29	0	1496317952	30	6036
2026-01-11 03:19:07.78	206.55	28.84	-28.6	-29.2	28.5	0.00e+00	0	29	0	1501560832	30	5833
2026-01-11 03:19:08.79	206.76	28.99	-28.7	-29.3	28.4	0.00e+00	0	29	0	1506803712	30	5953
2026-01-11 03:19:09.80	206.96	29.13	-28.9	-29.5	28.4	0.00e+00	0	29	0	1513095168	30	6045
2026-01-11 03:19:10.81	207.17	29.28	-28.8	-29.4	28.4	0.00e+00	0	29	0	1518338048	30	5994
2026-01-11 03:19:11.82	207.38	29.43	-28.6	-29.2	28.4	0.00e+00	0	29	0	1524629504	30	5880
2026-01-11 03:19:12.83	207.59	29.58	-28.7	-29.3	28.4	0.00e+00	0	29	0	1529872384	30	5901
2026-01-11 03:19:13.84	207.81	29.73	-28.5	-29.2	28.5	0.00e+00	0	29	0	1535115264	30	5848
2026-01-11 03:19:14.85	208.03	29.88	-28.6	-29.2	28.4	0.00e+00	0	29	0	1541406720	30	5878
2026-01-11 03:19:15.86	208.24	30.03	-28.7	-29.3	28.4	0.00e+00	0	29	0	1546649600	30	5899
2026-01-11 03:19:16.87	208.46	30.18	-28.6	-29.2	28.4	0.00e+00	0	29	0	1552941056	30	5879
2026-01-11 03:19:17.88	208.69	30.33	-28.6	-29.2	28.4	0.00e+00	0	29	0	1558183936	30	5834
2026-01-11 03:19:18.89	208.91	30.48	-28.8	-29.4	28.5	0.00e+00	0	29	0	1563426816	30	5975
2026-01-11 03:19:19.90	209.14	30.63	-28.8	-29.4	28.5	0.00e+00	0	29	0	1569718272	30	6013
2026-01-11 03:19:20.91	209.37	30.79	-28.7	-29.3	28.6	0.00e+00	0	29	0	1574961152	30	5931
2026-01-11 03:19:21.92	209.60	30.94	-28.6	-29.2	28.5	0.00e+00	0	29	0	1581252608	30	5851
2026-01-11 03:19:22.93	209.83	31.09	-28.5	-29.0	28.7	0.00e+00	0	29	0	1586495488	30	5737
2026-01-11 03:19:23.94	210.06	31.24	-28.3	-28.9	28.8	0.00e+00	0	29	0	1592786944	30	5642
2026-01-11 03:19:24.95	210.30	31.40	-28.4	-29.0	28.7	0.00e+00	0	29	0	1598029824	30	5716
2026-01-11 03:19:25.97	210.54	31.55	-28.6	-29.2	28.6	0.00e+00	0	29	0	1603272704	30	5834
2026-01-11 03:19:26.98	210.78	31.70	-28.7	-29.3	28.5	0.00e+00	0	29	0	1609564160	30	5951
2026-01-11 03:19:27.99	211.03	31.86	-28.6	-29.2	28.5	0.00e+00	0	29	0	1614807040	30	5879
2026-01-11 03:19:29.00	211.27	32.01	-28.5	-29.1	28.6	0.00e+00	0	29	0	1621098496	30	5801
2026-01-11 03:19:30.01	211.52	32.17	-28.7	-29.3	28.4	0.00e+00	0	29	0	1626341376	30	5949
2026-01-11 03:19:31.02	211.77	32.32	-28.9	-29.5	28.3	0.00e+00	0	29	0	1632632832	30	6083
2026-01-11 03:19:32.03	212.03	32.48	-28.9	-29.5	28.3	0.00e+00	0	29	0	1637875712	30	6072
2026-01-11 03:19:33.04	212.28	32.63	-28.5	-29.1	28.5	0.00e+00	0	29	0	1643118592	30	5814
2026-01-11 03:19:34.05	212.54	32.79	-28.6	-29.1	28.5	0.00e+00	0	29	0	1649410048	30	5828
2026-01-11 03:19:35.06	212.80	32.94	-28.5	-29.1	28.7	0.00e+00	0	29	0	1654652928	30	5789
2026-01-11 03:19:36.07	213.06	33.10	-28.3	-28.9	28.8	0.00e+00	0	29	0	1659895808	30	5660
2026-01-11 03:19:37.07	213.32	33.25	-28.2	-28.8	28.8	0.00e+00	0	29	0	1666187264	30	5624
2026-01-11 03:19:38.09	213.59	33.41	-28.3	-28.9	28.7	0.00e+00	0	29	0	1671430144	30	5673
2026-01-11 03:19:39.10	213.87	33.56	-28.4	-29.0	28.7	0.00e+00	0	29	0	1677721600	30	5700
2026-01-11 03:19:40.11	214.14	33.72	-28.6	-29.2	28.5	0.00e+00	0	29	0	1682964480	30	5844
2026-01-11 03:19:41.12	214.41	33.87	-28.7	-29.3	28.5	0.00e+00	0	29	0	1689255936	30	5904
2026-01-11 03:19:42.13	214.69	34.03	-28.6	-29.3	28.5	0.00e+00	0	29	0	1694498816	30	5906
2026-01-11 03:19:43.14	214.97	34.19	-28.7	-29.3	28.4	0.00e+00	0	29	0	1700790272	30	5950
2026-01-11 03:19:44.15	215.25	34.34	-28.7	-29.3	28.5	0.00e+00	0	29	0	1706033152	30	5954
2026-01-11 03:19:45.16	215.54	34.50	-28.7	-29.3	28.4	0.00e+00	0	29	0	1711276032	30	5951
2026-01-11 03:19:46.17	215.83	34.65	-28.8	-29.4	28.3	0.00e+00	0	29	0	1717567488	30	6023
2026-01-11 03:19:47.18	216.12	34.81	-28.5	-29.1	28.6	0.00e+00	0	29	0	1722810368	30	5768
2026-01-11 03:19:48.19	216.41	34.97	-28.3	-28.9	28.8	0.00e+00	0	29	0	1729101824	30	5644
2026-01-11 03:19:49.20	216.71	35.12	-28.7	-29.3	28.5	0.00e+00	0	29	0	1734344704	30	5932
2026-01-11 03:19:50.21	217.01	35.28	-28.5	-29.0	28.6	0.00e+00	0	29	0	1739587584	30	5761
2026-01-11 03:19:51.22	217.31	35.43	-28.4	-29.0	28.6	0.00e+00	0	29	0	1745879040	30	5727
2026-01-11 03:19:52.23	217.62	35.59	-28.4	-29.0	28.7	0.00e+00	0	29	0	1751121920	30	5727
2026-01-11 03:19:53.24	217.93	35.75	-28.5	-29.1	28.7	0.00e+00	0	29	0	1757413376	30	5823
2026-01-11 03:19:54.25	218.24	35.90	-28.5	-29.1	28.7	0.00e+00	0	29	0	1762656256	30	5792
2026-01-11 03:19:55.26	218.55	36.06	-28.7	-29.3	28.4	0.00e+00	0	29	0	1767899136	30	5949
2026-01-11 03:19:56.27	218.87	36.21	-28.7	-29.3	28.5	0.00e+00	0	29	0	1774190592	30	5961
2026-01-11 03:19:57.28	219.19	36.37	-28.8	-29.5	28.3	0.00e+00	0	29	0	1779433472	30	6045
2026-01-11 03:19:58.29	219.51	36.52	-28.9	-29.4	28.3	0.00e+00	0	29	0	1785724928	30	6033
2026-01-11 03:19:59.30	219.84	36.67	-29.0	-29.6	28.2	0.00e+00	0	29	0	1790967808	30	6173
2026-01-11 03:20:00.30	220.16	36.83	-29.1	-29.7	28.3	0.00e+00	0	29	0	1797259264	30	6236
2026-01-11 03:20:01.31	220.49	36.98	-29.0	-29.6	28.2	0.00e+00	0	29	0	1802502144	30	6144
2026-01-11 03:20:02.32	220.83	37.13	-28.3	-28.9	28.8	0.00e+00	0	29	0	1808793600	30	5665
2026-01-11 03:20:03.34	221.17	37.29	-28.1	-28.6	28.9	0.00e+00	0	29	0	1814036480	30	5490
2026-01-11 03:20:04.35	221.51	37.44	-28.1	-28.7	28.8	0.00e+00	0	29	0	1819279360	30	5505
2026-01-11 03:20:05.36	221.86	37.59	-28.0	-28.6	28.9	0.00e+00	0	29	0	1825570816	30	5444
2026-01-11 03:20:06.37	222.20	37.74	-28.0	-28.6	28.9	0.00e+00	0	29	0	1830813696	30	5472
2026-01-11 03:20:07.38	222.56	37.89	-28.2	-28.7	28.9	0.00e+00	0	29	0	1837105152	30	5547
2026-01-11 03:20:08.39	222.91	38.05	-28.3	-28.9	28.6	0.00e+00	0	29	0	1842348032	30	5674
2026-01-11 03:20:09.39	223.26	38.19	-28.7	-29.3	28.3	0.00e+00	0	29	0	1847590912	30	5911
2026-01-11 03:20:10.40	223.62	38.34	-28.7	-29.3	28.5	0.00e+00	0	29	0	1853882368	30	5934
2026-01-11 03:20:11.41	223.99	38.49	-28.3	-28.9	28.6	0.00e+00	0	29	0	1859125248	30	5639
2026-01-11 03:20:12.42	224.35	38.64	-28.4	-29.0	28.7	0.00e+00	0	29	0	1865416704	30	5718
2026-01-11 03:20:13.44	224.73	38.79	-28.3	-28.9	28.7	0.00e+00	0	29	0	1870659584	30	5687
2026-01-11 03:20:14.45	225.10	38.94	-28.6	-29.2	28.7	0.00e+00	0	29	0	1875902464	30	5861
2026-01-11 03:20:15.46	225.48	39.08	-28.5	-29.1	28.5	0.00e+00	0	29	0	1882193920	30	5792
2026-01-11 03:20:16.46	225.86	39.23	-28.7	-29.3	28.5	0.00e+00	0	29	0	1887436800	30	5923
2026-01-11 03:20:17.47	226.24	39.37	-28.5	-29.1	28.6	0.00e+00	0	29	0	1893728256	30	5799
2026-01-11 03:20:18.49	226.63	39.52	-28.5	-29.0	28.6	0.00e+00	0	29	0	1898971136	30	5760
2026-01-11 03:20:19.50	227.02	39.66	-28.4	-29.1	28.5	0.00e+00	0	29	0	1905262592	30	5764
2026-01-11 03:20:20.50	227.41	39.80	-28.4	-29.0	28.6	0.00e+00	0	29	0	1910505472	30	5753
2026-01-11 03:20:21.51	227.81	39.94	-28.4	-29.0	28.6	0.00e+00	0	29	0	1915748352	30	5739
2026-01-11 03:20:22.52	228.21	40.08	-28.3	-28.9	28.7	0.00e+00	0	28	0	1922039808	30	5644
2026-01-11 03:20:23.53	228.61	40.22	-28.1	-28.7	28.8	0.00e+00	0	28	0	1927282688	30	5546
2026-01-11 03:20:24.54	229.02	40.36	-28.3	-28.9	28.9	0.00e+00	0	28	0	1933574144	30	5661
2026-01-11 03:20:25.55	229.43	40.50	-28.1	-28.7	28.8	0.00e+00	0	29	0	1938817024	30	5561
2026-01-11 03:20:26.56	229.84	40.63	-28.1	-28.7	28.9	0.00e+00	0	28	0	1944059904	30	5553
2026-01-11 03:20:27.57	230.26	40.77	-28.3	-28.9	28.7	0.00e+00	0	29	0	1950351360	30	5653
2026-01-11 03:20:28.58	230.68	40.90	-28.2	-28.8	28.8	0.00e+00	0	29	0	1955594240	30	5576
2026-01-11 03:20:29.58	231.10	41.03	-28.2	-28.8	28.6	0.00e+00	0	29	0	1961885696	30	5571
2026-01-11 03:20:30.60	231.54	41.16	-28.4	-29.0	28.5	0.00e+00	0	28	0	1967128576	30	5708
2026-01-11 03:20:31.61	231.97	41.29	-28.4	-29.0	28.7	0.00e+00	0	29	0	1972371456	30	5758
2026-01-11 03:20:32.62	232.40	41.42	-28.4	-28.9	28.7	0.00e+00	0	29	0	1978662912	30	5678
2026-01-11 03:20:33.63	232.84	41.55	-28.6	-29.2	28.6	0.00e+00	0	28	0	1983905792	30	5856
2026-01-11 03:20:34.64	233.28	41.67	-28.7	-29.3	28.6	0.00e+00	0	28	0	1990197248	30	5956
2026-01-11 03:20:35.65	233.73	41.80	-28.7	-29.3	28.5	0.00e+00	0	28	0	1995440128	30	5922
2026-01-11 03:20:36.65	234.17	41.92	-28.3	-28.9	28.7	0.00e+00	0	28	0	2001731584	30	5642
2026-01-11 03:20:37.66	234.62	42.04	-28.2	-28.8	28.8	0.00e+00	0	28	0	2006974464	30	5597
2026-01-11 03:20:38.67	235.08	42.16	-28.3	-28.9	28.8	0.00e+00	0	28	0	2013265920	30	5673
2026-01-11 03:20:39.68	235.54	42.28	-28.8	-29.4	28.5	0.00e+00	0	28	0	2018508800	30	6012
2026-01-11 03:20:40.69	236.00	42.40	-28.6	-29.2	28.7	0.00e+00	0	28	0	2023751680	30	5857
2026-01-11 03:20:41.70	236.46	42.51	-28.5	-29.1	28.8	0.00e+00	0	28	0	2030043136	30	5805
2026-01-11 03:20:42.71	236.93	42.62	-28.7	-29.4	28.5	0.00e+00	0	28	0	2035286016	30	5973
2026-01-11 03:20:43.72	237.40	42.73	-29.0	-29.6	28.3	0.00e+00	0	28	0	2041577472	30	6134
2026-01-11 03:20:44.73	237.88	42.84	-28.8	-29.4	28.5	0.00e+00	0	28	0	2046820352	30	5997
2026-01-11 03:20:45.74	238.35	42.95	-28.7	-29.3	28.4	0.00e+00	0	29	0	2052063232	30	5932
2026-01-11 03:20:46.75	238.83	43.06	-28.6	-29.2	28.6	0.00e+00	0	28	0	2058354688	30	5884
2026-01-11 03:20:47.76	239.32	43.16	-28.5	-29.1	28.6	0.00e+00	0	28	0	2063597568	30	5793
2026-01-11 03:20:48.77	239.81	43.26	-28.6	-29.2	28.8	0.00e+00	0	28	0	2069889024	30	5883
2026-01-11 03:20:49.78	240.30	43.36	-28.3	-28.9	28.8	0.00e+00	0	28	0	2075131904	30	5660
2026-01-11 03:20:50.79	240.79	43.46	-28.3	-28.8	28.8	0.00e+00	0	28	0	2080374784	30	5597
2026-01-11 03:20:51.80	241.29	43.56	-28.7	-29.3	28.6	0.00e+00	0	28	0	2086666240	30	5908
2026-01-11 03:20:52.81	241.78	43.65	-28.8	-29.4	28.4	0.00e+00	0	28	0	2091909120	30	6018
2026-01-11 03:20:53.82	242.29	43.74	-29.0	-29.6	28.3	0.00e+00	0	28	0	2098200576	30	6130
2026-01-11 03:20:54.83	242.79	43.83	-29.1	-29.7	28.1	0.00e+00	0	28	0	2103443456	30	6206
2026-01-11 03:20:55.84	243.30	43.92	-28.8	-29.4	28.3	0.00e+00	0	28	0	2109734912	30	5997
2026-01-11 03:20:56.85	243.81	44.00	-28.9	-29.4	28.2	0.00e+00	0	28	0	2114977792	30	6017
2026-01-11 03:20:57.86	244.32	44.08	-28.8	-29.4	28.3	0.00e+00	0	28	0	2120220672	30	5980
2026-01-11 03:20:58.87	244.84	44.16	-29.1	-29.6	28.3	0.00e+00	0	28	0	2126512128	30	6170
2026-01-11 03:20:59.88	245.35	44.24	-29.3	-29.9	28.3	0.00e+00	0	28	0	2131755008	30	6373
2026-01-11 03:21:00.89	245.87	44.32	-28.8	-29.4	28.5	0.00e+00	0	28	0	2138046464	30	6030
2026-01-11 03:21:01.90	246.40	44.39	-28.9	-29.5	28.4	0.00e+00	0	28	0	2143289344	30	6058
2026-01-11 03:21:02.91	246.92	44.46	-28.8	-29.4	28.5	0.00e+00	0	28	0	2148532224	30	6012
2026-01-11 03:21:03.92	247.45	44.53	-28.7	-29.3	28.6	0.00e+00	0	28	0	2154823680	30	5934
2026-01-11 03:21:04.93	247.98	44.59	-28.3	-28.9	28.7	0.00e+00	0	28	0	2160066560	30	5658
2026-01-11 03:21:05.94	248.51	44.66	-28.4	-29.0	28.7	0.00e+00	0	28	0	2166358016	30	5719
2026-01-11 03:21:06.95	249.04	44.72	-28.5	-29.1	28.6	0.00e+00	0	28	0	2171600896	30	5811
2026-01-11 03:21:07.96	249.58	44.77	-28.5	-29.1	28.6	0.00e+00	0	28	0	2176843776	30	5825
2026-01-11 03:21:08.97	250.12	44.83	-28.6	-29.2	28.3	0.00e+00	0	28	0	2183135232	30	5875
2026-01-11 03:21:09.98	250.65	44.88	-28.8	-29.4	28.4	0.00e+00	0	28	0	2188378112	30	6005
2026-01-11 03:21:10.99	251.19	44.93	-29.1	-29.7	28.2	0.00e+00	0	28	0	2194669568	30	6191
2026-01-11 03:21:12.01	251.74	44.98	-29.0	-29.7	28.2	0.00e+00	0	28	0	2199912448	30	6178
2026-01-11 03:21:13.02	252.29	45.02	-29.2	-29.8	27.9	0.00e+00	0	28	0	2206203904	30	6307
2026-01-11 03:21:14.02	252.83	45.06	-29.0	-29.6	28.0	0.00e+00	0	28	0	2211446784	30	6167
2026-01-11 03:21:15.03	253.37	45.10	-29.0	-29.6	28.2	0.00e+00	0	28	0	2217738240	30	6149
2026-01-11 03:21:16.04	253.92	45.14	-28.9	-29.5	28.3	0.00e+00	0	28	0	2222981120	30	6082
2026-01-11 03:21:17.05	254.47	45.17	-28.5	-29.0	28.6	0.00e+00	0	28	0	2228224000	30	5734
2026-01-11 03:21:18.06	255.02	45.20	-28.5	-29.1	28.4	0.00e+00	0	28	0	2234515456	30	5812
2026-01-11 03:21:19.07	255.57	45.23	-29.0	-29.6	28.2	0.00e+00	0	28	0	2239758336	30	6118
2026-01-11 03:21:20.08	256.12	45.25	-29.0	-29.6	28.5	0.00e+00	0	28	0	2246049792	30	6148
2026-01-11 03:21:21.09	256.68	45.27	-28.9	-29.6	28.4	0.00e+00	0	28	0	2251292672	30	6107
2026-01-11 03:21:22.11	257.24	45.29	-28.9	-29.5	28.3	0.00e+00	0	28	0	2256535552	30	6098
2026-01-11 03:21:23.11	257.78	45.31	-29.0	-29.6	28.2	0.00e+00	0	28	0	2262827008	30	6122
2026-01-11 03:21:24.12	258.34	45.32	-28.9	-29.6	28.1	0.00e+00	0	28	0	2268069888	30	6130
2026-01-11 03:21:25.13	258.89	45.33	-28.8	-29.4	28.4	0.00e+00	0	28	0	2274361344	30	5971
2026-01-11 03:21:26.15	259.45	45.34	-28.4	-28.9	28.6	0.00e+00	0	28	0	2279604224	30	5680
2026-01-11 03:21:27.16	260.01	45.34	-28.4	-29.1	28.6	0.00e+00	0	28	0	2284847104	30	5775
2026-01-11 03:21:28.17	260.57	45.34	-28.6	-29.3	28.4	0.00e+00	0	28	0	2291138560	30	5914
2026-01-11 03:21:29.18	261.12	45.34	-28.9	-29.5	28.3	0.00e+00	0	28	0	2296381440	30	6101
2026-01-11 03:21:30.19	261.68	45.34	-28.6	-29.2	28.4	0.00e+00	0	28	0	2302672896	30	5882
2026-01-11 03:21:31.20	262.23	45.33	-28.6	-29.3	28.5	0.00e+00	0	28	0	2307915776	30	5908
2026-01-11 03:21:32.21	262.79	45.32	-29.0	-29.6	28.3	0.00e+00	0	28	0	2314207232	30	6109
2026-01-11 03:21:33.22	263.34	45.31	-29.3	-29.9	28.0	0.00e+00	0	28	0	2319450112	30	6368
2026-01-11 03:21:34.23	263.89	45.29	-29.2	-29.8	27.9	0.00e+00	0	28	0	2325741568	30	6308
2026-01-11 03:21:35.24	264.45	45.27	-29.1	-29.7	28.0	0.00e+00	0	28	0	2330984448	30	6186
2026-01-11 03:21:36.25	265.00	45.25	-29.4	-30.0	28.2	0.00e+00	0	28	0	2336227328	30	6405
2026-01-11 03:21:37.26	265.55	45.23	-29.0	-29.7	28.2	0.00e+00	0	28	0	2342518784	30	6174
2026-01-11 03:21:38.27	266.10	45.20	-28.7	-29.4	28.2	0.00e+00	0	28	0	2347761664	30	5968
2026-01-11 03:21:39.28	266.65	45.17	-28.7	-29.3	28.4	0.00e+00	0	28	0	2354053120	30	5910
2026-01-11 03:21:40.29	267.20	45.13	-28.7	-29.2	28.5	0.00e+00	0	28	0	2359296000	30	5888
2026-01-11 03:21:41.30	267.75	45.10	-28.7	-29.3	28.3	0.00e+00	0	28	0	2364538880	30	5939
2026-01-11 03:21:42.31	268.30	45.06	-29.1	-29.7	28.2	0.00e+00	0	28	0	2370830336	30	6233
2026-01-11 03:21:43.32	268.84	45.02	-29.2	-29.8	28.1	0.00e+00	0	28	0	2376073216	30	6301
2026-01-11 03:21:44.33	269.38	44.97	-29.1	-29.6	28.1	0.00e+00	0	28	0	2382364672	30	6170
2026-01-11 03:21:45.34	269.93	44.93	-28.7	-29.3	28.4	0.00e+00	0	28	0	2387607552	30	5949
2026-01-11 03:21:46.35	270.47	44.88	-28.7	-29.3	28.5	0.00e+00	0	28	0	2392850432	30	5936
2026-01-11 03:21:47.36	271.00	44.82	-29.1	-29.8	28.2	0.00e+00	0	28	0	2399141888	30	6248
2026-01-11 03:21:48.36	271.54	44.77	-29.1	-29.7	28.3	0.00e+00	0	28	0	2404384768	30	6189
2026-01-11 03:21:49.37	272.07	44.71	-29.1	-29.7	28.2	0.00e+00	0	28	0	2410676224	30	6225
2026-01-11 03:21:50.38	272.60	44.65	-28.7	-29.3	28.5	0.00e+00	0	28	0	2415919104	30	5923
2026-01-11 03:21:51.39	273.13	44.59	-28.5	-29.1	28.6	0.00e+00	0	28	0	2422210560	30	5783
2026-01-11 03:21:52.40	273.66	44.52	-28.9	-29.5	28.4	0.00e+00	0	28	0	2427453440	30	6063
2026-01-11 03:21:53.41	274.19	44.46	-29.0	-29.5	28.3	0.00e+00	0	28	0	2432696320	30	6101
2026-01-11 03:21:54.42	274.71	44.38	-28.9	-29.4	28.3	0.00e+00	0	28	0	2438987776	30	6019
2026-01-11 03:21:55.43	275.23	44.31	-28.8	-29.4	28.4	0.00e+00	0	28	0	2444230656	30	5996
2026-01-11 03:21:56.44	275.75	44.24	-28.8	-29.5	28.4	0.00e+00	0	28	0	2450522112	30	6036
2026-01-11 03:21:57.45	276.27	44.16	-28.9	-29.4	28.3	0.00e+00	0	28	0	2455764992	30	6033
2026-01-11 03:21:58.46	276.78	44.08	-28.8	-29.4	28.3	0.00e+00	0	28	0	2461007872	30	5976
2026-01-11 03:21:59.47	277.30	44.00	-28.5	-29.1	28.5	0.00e+00	0	28	0	2467299328	30	5777
2026-01-11 03:22:00.48	277.81	43.91	-28.7	-29.3	28.3	0.00e+00	0	28	0	2472542208	30	5931
2026-01-11 03:22:01.49	278.31	43.82	-28.7	-29.4	28.2	0.00e+00	0	28	0	2478833664	30	6011
2026-01-11 03:22:02.49	278.81	43.74	-28.7	-29.2	28.4	0.00e+00	0	28	0	2484076544	30	5871
2026-01-11 03:22:03.50	279.31	43.65	-28.4	-29.0	28.6	0.00e+00	0	28	0	2489319424	30	5717
2026-01-11 03:22:04.51	279.81	43.55	-28.4	-29.0	28.6	0.00e+00	0	28	0	2495610880	30	5759
2026-01-11 03:22:05.52	280.30	43.46	-28.5	-29.0	28.7	0.00e+00	0	28	0	2500853760	30	5731
2026-01-11 03:22:06.53	280.80	43.36	-28.4	-29.1	28.6	0.00e+00	0	28	0	2507145216	30	5780
2026-01-11 03:22:07.54	281.29	43.26	-28.5	-29.2	28.5	0.00e+00	0	28	0	2512388096	30	5836
2026-01-11 03:22:08.55	281.77	43.16	-28.5	-29.0	28.4	0.00e+00	0	28	0	2518679552	30	5746
2026-01-11 03:22:09.56	282.25	43.05	-29.0	-29.6	28.2	0.00e+00	0	28	0	2523922432	30	6166
2026-01-11 03:22:10.57	282.73	42.95	-29.1	-29.6	28.1	0.00e+00	0	28	0	2530213888	30	6171
2026-01-11 03:22:11.58	283.21	42.84	-29.3	-29.9	28.2	0.00e+00	0	28	0	2535456768	30	6354
2026-01-11 03:22:12.59	283.68	42.73	-29.0	-29.6	28.4	0.00e+00	0	28	0	2540699648	30	6139
2026-01-11 03:22:13.60	284.16	42.62	-28.8	-29.4	28.3	0.00e+00	0	28	0	2546991104	30	5971
2026-01-11 03:22:14.61	284.62	42.51	-28.9	-29.5	28.3	0.00e+00	0	28	0	2552233984	30	6066
2026-01-11 03:22:15.61	285.08	42.39	-29.0	-29.6	28.2	0.00e+00	0	28	0	2557476864	30	6134
2026-01-11 03:22:16.62	285.54	42.28	-28.8	-29.4	28.4	0.00e+00	0	28	0	2563768320	30	6030
2026-01-11 03:22:17.63	286.00	42.16	-28.6	-29.3	28.4	0.00e+00	0	28	0	2569011200	30	5898
2026-01-11 03:22:18.64	286.45	42.04	-28.6	-29.1	28.5	0.00e+00	0	28	0	2575302656	30	5804
2026-01-11 03:22:19.65	286.90	41.92	-28.7	-29.4	28.3	0.00e+00	0	28	0	2580545536	30	5986
2026-01-11 03:22:20.66	287.35	41.80	-28.7	-29.2	28.4	0.00e+00	0	28	0	2585788416	30	5868
2026-01-11 03:22:21.67	287.79	41.67	-28.6	-29.1	28.4	0.00e+00	0	28	0	2592079872	30	5807
2026-01-11 03:22:22.68	288.24	41.55	-28.4	-29.0	28.5	0.00e+00	0	28	0	2597322752	30	5758
2026-01-11 03:22:23.69	288.67	41.42	-28.7	-29.3	28.6	0.00e+00	0	28	0	2603614208	30	5949
2026-01-11 03:22:24.70	289.11	41.29	-28.5	-29.1	28.7	0.00e+00	0	28	0	2608857088	30	5804
2026-01-11 03:22:25.72	289.54	41.16	-28.5	-29.1	28.6	0.00e+00	0	28	0	2615148544	30	5802
2026-01-11 03:22:26.73	289.97	41.03	-28.2	-28.8	28.8	0.00e+00	0	28	0	2620391424	30	5585
2026-01-11 03:22:27.74	290.39	40.90	-28.3	-28.8	28.6	0.00e+00	0	28	0	2626682880	30	5630
2026-01-11 03:22:28.75	290.81	40.77	-28.4	-29.1	28.5	0.00e+00	0	28	0	2631925760	30	5779
2026-01-11 03:22:29.76	291.23	40.63	-28.4	-29.0	28.6	0.00e+00	0	28	0	2637168640	30	5744
2026-01-11 03:22:30.77	291.64	40.50	-28.2	-28.7	28.6	0.00e+00	0	28	0	2643460096	30	5527
2026-01-11 03:22:31.78	292.05	40.36	-28.2	-28.8	28.8	0.00e+00	0	28	0	2648702976	30	5616
2026-01-11 03:22:32.79	292.46	40.22	-28.4	-28.9	28.8	0.00e+00	0	28	0	2654994432	30	5686
2026-01-11 03:22:33.80	292.86	40.08	-28.6	-29.3	28.5	0.00e+00	0	28	0	2660237312	30	5918
2026-01-11 03:22:34.81	293.26	39.94	-28.6	-29.3	28.4	0.00e+00	0	28	0	2665480192	30	5924
2026-01-11 03:22:35.82	293.65	39.80	-28.6	-29.1	28.4	0.00e+00	0	28	0	2671771648	30	5817
2026-01-11 03:22:36.83	294.05	39.66	-28.4	-29.0	28.5	0.00e+00	0	28	0	2677014528	30	5739
2026-01-11 03:22:37.84	294.44	39.52	-28.4	-28.9	28.6	0.00e+00	0	28	0	2683305984	30	5674
2026-01-11 03:22:38.85	294.82	39.38	-28.2	-28.7	28.7	0.00e+00	0	28	0	2688548864	30	5552
2026-01-11 03:22:39.86	295.21	39.23	-28.3	-29.0	28.6	0.00e+00	0	28	0	2693791744	30	5702
2026-01-11 03:22:40.87	295.58	39.09	-28.4	-28.9	28.7	0.00e+00	0	28	0	2700083200	30	5676
2026-01-11 03:22:41.88	295.96	38.94	-28.4	-29.0	28.4	0.00e+00	0	28	0	2705326080	30	5712
2026-01-11 03:22:42.89	296.33	38.80	-28.5	-29.1	28.4	0.00e+00	0	28	0	2711617536	30	5813
2026-01-11 03:22:43.91	296.71	38.65	-28.0	-28.5	28.7	0.00e+00	0	28	0	2716860416	30	5415
2026-01-11 03:22:44.92	297.07	38.50	-28.3	-28.8	28.8	0.00e+00	0	28	0	2722103296	30	5603
2026-01-11 03:22:45.93	297.43	38.35	-28.2	-28.8	28.7	0.00e+00	0	28	0	2728394752	30	5570
2026-01-11 03:22:46.94	297.79	38.20	-28.3	-28.9	28.7	0.00e+00	0	28	0	2733637632	30	5673
2026-01-11 03:22:47.95	298.15	38.05	-28.2	-28.9	28.6	0.00e+00	0	28	0	2739929088	30	5643
2026-01-11 03:22:48.96	298.50	37.90	-28.3	-28.9	28.8	0.00e+00	0	28	0	2745171968	30	5689
2026-01-11 03:22:49.97	298.85	37.75	-28.1	-28.7	28.6	0.00e+00	0	28	0	2751463424	30	5560
2026-01-11 03:22:50.98	299.20	37.60	-28.1	-28.6	28.6	0.00e+00	0	28	0	2756706304	30	5497
2026-01-11 03:22:51.99	299.54	37.45	-28.3	-28.8	28.6	0.00e+00	0	28	0	2762997760	30	5614
2026-01-11 03:22:52.99	299.88	37.30	-28.3	-28.9	28.5	0.00e+00	0	28	0	2768240640	30	5670
2026-01-11 03:22:54.01	300.22	37.15	-28.1	-28.6	28.7	0.00e+00	0	28	0	2773483520	30	5465
2026-01-11 03:22:55.01	300.55	36.99	-28.0	-28.7	28.8	0.00e+00	0	28	0	2779774976	30	5508
2026-01-11 03:22:56.02	300.88	36.84	-28.0	-28.6	28.8	0.00e+00	0	28	0	2785017856	30	5444
2026-01-11 03:22:57.03	301.21	36.69	-28.1	-28.7	28.7	0.00e+00	0	28	0	2791309312	30	5519
2026-01-11 03:22:58.05	301.54	36.53	-28.1	-28.7	28.5	0.00e+00	0	27	0	2796552192	30	5507
2026-01-11 03:22:59.06	301.86	36.38	-28.2	-28.8	28.6	0.00e+00	0	28	0	2801795072	30	5624
2026-01-11 03:23:00.07	302.18	36.23	-28.4	-28.9	28.6	0.00e+00	0	28	0	2808086528	30	5662
2026-01-11 03:23:01.08	302.50	36.07	-28.3	-29.0	28.8	0.00e+00	0	28	0	2813329408	30	5716
2026-01-11 03:23:02.09	302.81	35.92	-28.2	-28.9	28.7	0.00e+00	0	28	0	2819620864	30	5659
2026-01-11 03:23:03.10	303.12	35.76	-28.3	-29.0	28.6	0.00e+00	0	28	0	2824863744	30	5734
2026-01-11 03:23:04.11	303.43	35.61	-28.6	-29.1	28.1	0.00e+00	0	28	0	2830106624	30	5800
2026-01-11 03:23:05.12	303.73	35.45	-28.6	-29.2	28.2	0.00e+00	0	28	0	2836398080	30	5835
2026-01-11 03:23:06.13	304.03	35.30	-28.6	-29.2	28.2	0.00e+00	0	28	0	2841640960	30	5885
2026-01-11 03:23:07.14	304.33	35.14	-28.4	-29.0	28.4	0.00e+00	0	28	0	2847932416	30	5727
2026-01-11 03:23:08.15	304.63	34.99	-28.3	-28.9	28.2	0.00e+00	0	28	0	2853175296	30	5688
2026-01-11 03:23:09.16	304.92	34.83	-28.2	-28.7	28.3	0.00e+00	0	28	0	2859466752	30	5553
2026-01-11 03:23:10.17	305.21	34.68	-28.2	-28.8	28.4	0.00e+00	0	28	0	2864709632	30	5625
2026-01-11 03:23:11.18	305.50	34.52	-28.2	-28.7	28.5	0.00e+00	0	28	0	2871001088	30	5560
2026-01-11 03:23:12.19	305.78	34.37	-28.3	-29.0	28.2	0.00e+00	0	28	0	2876243968	30	5727
2026-01-11 03:23:13.20	306.07	34.21	-28.4	-29.0	28.4	0.00e+00	0	28	0	2881486848	30	5756
2026-01-11 03:23:14.21	306.34	34.06	-28.3	-28.8	28.3	0.00e+00	0	28	0	2887778304	30	5591
2026-01-11 03:23:15.22	306.62	33.90	-28.2	-28.7	28.4	0.00e+00	0	28	0	2893021184	30	5553
2026-01-11 03:23:16.23	306.90	33.75	-28.2	-28.9	28.6	0.00e+00	0	27	0	2899312640	30	5645
2026-01-11 03:23:17.24	307.17	33.59	-28.1	-28.6	28.7	0.00e+00	0	28	0	2904555520	30	5472
2026-01-11 03:23:18.25	307.44	33.44	-28.2	-28.8	28.6	0.00e+00	0	28	0	2909798400	30	5630
2026-01-11 03:23:19.26	307.70	33.28	-28.4	-28.9	28.5	0.00e+00	0	28	0	2916089856	30	5672
2026-01-11 03:23:20.27	307.97	33.13	-28.4	-28.9	28.5	0.00e+00	0	27	0	2921332736	30	5693
2026-01-11 03:23:21.28	308.23	32.97	-28.5	-29.2	28.4	0.00e+00	0	28	0	2927624192	30	5849
2026-01-11 03:23:22.29	308.49	32.82	-28.6	-29.1	28.3	0.00e+00	0	28	0	2932867072	30	5815
2026-01-11 03:23:23.30	308.75	32.66	-28.5	-29.1	28.4	0.00e+00	0	28	0	2938109952	30	5773
2026-01-11 03:23:24.31	309.00	32.51	-28.3	-29.0	28.5	0.00e+00	0	28	0	2944401408	30	5730
2026-01-11 03:23:25.32	309.26	32.35	-28.3	-28.9	28.6	0.00e+00	0	27	0	2949644288	30	5677
2026-01-11 03:23:26.33	309.51	32.20	-28.3	-28.9	28.6	0.00e+00	0	27	0	2955935744	30	5683
2026-01-11 03:23:27.34	309.75	32.05	-28.5	-29.1	28.5	0.00e+00	0	28	0	2961178624	30	5788
2026-01-11 03:23:28.35	310.00	31.89	-28.5	-29.2	28.4	0.00e+00	0	28	0	2967470080	30	5838
2026-01-11 03:23:29.35	310.24	31.74	-28.6	-29.3	28.4	0.00e+00	0	27	0	2972712960	30	5923
2026-01-11 03:23:30.36	310.48	31.59	-28.8	-29.3	28.3	0.00e+00	0	28	0	2977955840	30	5935
2026-01-11 03:23:31.37	310.72	31.44	-28.8	-29.4	28.3	0.00e+00	0	27	0	2984247296	30	5988
2026-01-11 03:23:32.38	310.96	31.29	-28.9	-29.5	28.1	0.00e+00	0	28	0	2989490176	30	6074
2026-01-11 03:23:33.39	311.19	31.13	-28.8	-29.5	28.2	0.00e+00	0	28	0	2995781632	30	6049
2026-01-11 03:23:34.40	311.42	30.98	-28.8	-29.3	28.3	0.00e+00	0	28	0	3001024512	30	5948
2026-01-11 03:23:35.41	311.65	30.83	-28.6	-29.2	28.3	0.00e+00	0	28	0	3006267392	30	5869
2026-01-11 03:23:36.42	311.88	30.68	-28.5	-29.2	28.4	0.00e+00	0	28	0	3012558848	30	5848
2026-01-11 03:23:37.43	312.11	30.53	-28.6	-29.3	28.3	0.00e+00	0	28	0	3017801728	30	5918
2026-01-11 03:23:38.44	312.33	30.38	-28.9	-29.4	28.2	0.00e+00	0	28	0	3024093184	30	5972
2026-01-11 03:23:39.45	312.55	30.23	-28.8	-29.3	28.3	0.00e+00	0	28	0	3029336064	30	5912
2026-01-11 03:23:40.46	312.77	30.08	-28.9	-29.4	28.3	0.00e+00	0	28	0	3034578944	30	5994
2026-01-11 03:23:41.47	312.99	29.93	-29.0	-29.5	28.2	0.00e+00	0	27	0	3040870400	30	6051
2026-01-11 03:23:42.48	313.21	29.78	-28.9	-29.6	28.1	0.00e+00	0	28	0	3046113280	30	6111
2026-01-11 03:23:43.49	313.42	29.63	-28.8	-29.5	28.2	0.00e+00	0	28	0	3052404736	30	6073
2026-01-11 03:23:44.50	313.63	29.48	-28.8	-29.5	28.3	0.00e+00	0	27	0	3057647616	30	6072
2026-01-11 03:23:45.51	313.84	29.33	-28.6	-29.2	28.3	0.00e+00	0	28	0	3063939072	30	5851
2026-01-11 03:23:46.52	314.05	29.19	-28.6	-29.1	28.3	0.00e+00	0	28	0	3069181952	30	5817
2026-01-11 03:23:47.53	314.26	29.04	-28.5	-29.2	28.3	0.00e+00	0	28	0	3075473408	30	5843
2026-01-11 03:23:48.54	314.46	28.89	-28.4	-28.9	28.4	0.00e+00	0	27	0	3080716288	30	5656
2026-01-11 03:23:49.55	314.66	28.75	-28.3	-29.0	28.5	0.00e+00	0	28	0	3085959168	30	5713
2026-01-11 03:23:50.56	314.87	28.60	-28.3	-29.0	28.5	0.00e+00	0	27	0	3092250624	30	5707
2026-01-11 03:23:51.57	315.06	28.45	-28.5	-29.0	28.5	0.00e+00	0	27	0	3097493504	30	5701
2026-01-11 03:23:52.58	315.26	28.31	-28.4	-29.1	28.4	0.00e+00	0	28	0	3103784960	30	5787
2026-01-11 03:23:53.59	315.46	28.16	-28.6	-29.3	28.3	0.00e+00	0	28	0	3109027840	30	5932
2026-01-11 03:23:54.60	315.65	28.02	-28.6	-29.1	28.3	0.00e+00	0	28	0	3114270720	30	5820
2026-01-11 03:23:55.61	315.84	27.88	-28.7	-29.2	28.3	0.00e+00	0	28	0	3120562176	30	5883
2026-01-11 03:23:56.62	316.03	27.73	-28.8	-29.5	28.2	0.00e+00	0	28	0	3125805056	30	6068
2026-01-11 03:23:57.63	316.22	27.59	-28.9	-29.6	28.1	0.00e+00	0	28	0	3132096512	30	6115
2026-01-11 03:23:58.64	316.41	27.45	-28.8	-29.5	28.2	0.00e+00	0	28	0	3137339392	30	6040
2026-01-11 03:23:59.65	316.60	27.30	-28.7	-29.4	28.3	0.00e+00	0	28	0	3142582272	30	5999
2026-01-11 03:24:00.66	316.78	27.16	-28.7	-29.3	28.2	0.00e+00	0	28	0	3148873728	30	5911
2026-01-11 03:24:01.67	316.96	27.02	-28.7	-29.4	28.2	0.00e+00	0	28	0	3154116608	30	6010
2026-01-11 03:24:02.68	317.14	26.88	-28.8	-29.5	28.1	0.00e+00	0	28	0	3160408064	30	6069
2026-01-11 03:24:03.69	317.32	26.74	-28.9	-29.6	28.0	0.00e+00	0	28	0	3165650944	30	6107
2026-01-11 03:24:04.70	317.50	26.60	-29.1	-29.8	28.1	0.00e+00	0	28	0	3171942400	30	6297
2026-01-11 03:24:05.71	317.68	26.46	-29.1	-29.6	28.0	0.00e+00	0	28	0	3177185280	30	6154
2026-01-11 03:24:06.72	317.85	26.32	-29.0	-29.6	28.0	0.00e+00	0	28	0	3183476736	30	6135
2026-01-11 03:24:07.73	318.03	26.18	-29.0	-29.6	28.0	0.00e+00	0	28	0	3188719616	30	6107
2026-01-11 03:24:08.74	318.20	26.04	-29.0	-29.6	28.0	0.00e+00	0	28	0	3193962496	30	6170
2026-01-11 03:24:09.75	318.37	25.91	-29.0	-29.7	28.0	0.00e+00	0	28	0	3200253952	30	6178
2026-01-11 03:24:10.76	318.54	25.77	-29.1	-29.6	27.9	0.00e+00	0	28	0	3205496832	30	6160
2026-01-11 03:24:11.77	318.70	25.63	-29.0	-29.6	28.0	0.00e+00	0	28	0	3211788288	30	6124
2026-01-11 03:24:12.78	318.87	25.49	-29.2	-29.7	27.9	0.00e+00	0	28	0	3217031168	30	6241
2026-01-11 03:24:13.79	319.04	25.36	-29.0	-29.6	28.0	0.00e+00	0	28	0	3222274048	30	6106
2026-01-11 03:24:14.80	319.20	25.22	-28.9	-29.4	28.1	0.00e+00	0	28	0	3228565504	30	6027
2026-01-11 03:24:15.81	319.36	25.09	-28.9	-29.6	28.0	0.00e+00	0	28	0	3233808384	30	6120
2026-01-11 03:24:16.82	319.52	24.95	-29.1	-29.6	27.8	0.00e+00	0	28	0	3240099840	30	6119
2026-01-11 03:24:17.83	319.68	24.82	-29.0	-29.6	28.0	0.00e+00	0	28	0	3245342720	30	6164
2026-01-11 03:24:18.84	319.84	24.69	-29.1	-29.8	27.9	0.00e+00	0	28	0	3250585600	30	6293
2026-01-11 03:24:19.85	320.00	24.55	-29.2	-29.7	27.9	0.00e+00	0	28	0	3256877056	30	6220
2026-01-11 03:24:20.86	320.15	24.42	-29.3	-29.9	27.8	0.00e+00	0	28	0	3262119936	30	6336
2026-01-11 03:24:21.86	320.30	24.29	-29.3	-30.0	27.8	0.00e+00	0	28	0	3268411392	30	6439
2026-01-11 03:24:22.87	320.46	24.16	-29.5	-30.1	27.6	0.00e+00	0	28	0	3273654272	30	6535
2026-01-11 03:24:23.88	320.61	24.02	-29.7	-30.2	27.5	0.00e+00	0	28	0	3279945728	30	6600
2026-01-11 03:24:24.89	320.76	23.89	-29.6	-30.2	27.5	0.00e+00	0	28	0	3285188608	30	6549
2026-01-11 03:24:25.90	320.91	23.76	-29.6	-30.1	27.6	0.00e+00	0	28	0	3290431488	30	6527
2026-01-11 03:24:26.91	321.06	23.63	-29.6	-30.1	27.6	0.00e+00	0	28	0	3296722944	30	6534
2026-01-11 03:24:27.92	321.20	23.50	-29.5	-30.0	27.7	0.00e+00	0	28	0	3301965824	30	6432
2026-01-11 03:24:28.93	321.35	23.37	-29.5	-30.2	27.6	0.00e+00	0	28	0	3308257280	30	6561
2026-01-11 03:24:29.93	321.49	23.25	-29.3	-30.0	27.7	0.00e+00	0	28	0	3313500160	30	6426
2026-01-11 03:24:30.94	321.64	23.12	-29.3	-29.8	27.8	0.00e+00	0	28	0	3318743040	30	6302
2026-01-11 03:24:31.96	321.78	22.99	-29.2	-29.9	27.8	0.00e+00	0	28	0	3325034496	30	6351
2026-01-11 03:24:32.97	321.92	22.86	-29.4	-29.9	27.7	0.00e+00	0	28	0	3330277376	30	6353
2026-01-11 03:24:33.97	322.06	22.74	-29.3	-29.9	27.8	0.00e+00	0	28	0	3336568832	30	6358
2026-01-11 03:24:34.98	322.20	22.61	-29.2	-29.9	27.8	0.00e+00	0	28	0	3341811712	30	6334
2026-01-11 03:24:35.99	322.34	22.49	-29.3	-29.9	27.7	0.00e+00	0	28	0	3347054592	30	6387
2026-01-11 03:24:37.00	322.47	22.36	-29.4	-29.9	27.7	0.00e+00	0	28	0	3353346048	30	6352
2026-01-11 03:24:38.01	322.61	22.23	-29.6	-30.1	27.6	0.00e+00	0	28	0	3358588928	30	6491
2026-01-11 03:24:39.02	322.74	22.11	-29.7	-30.2	27.4	0.00e+00	0	28	0	3364880384	30	6587
2026-01-11 03:24:40.03	322.88	21.99	-29.8	-30.4	27.3	0.00e+00	0	28	0	3370123264	32	5990
2026-01-11 03:24:41.04	323.01	21.86	-29.8	-30.5	27.3	0.00e+00	0	28	0	3376414720	32	6093
2026-01-11 03:24:42.05	323.14	21.74	-30.0	-30.7	27.1	0.00e+00	0	28	0	3381657600	32	6237
2026-01-11 03:24:43.06	323.27	21.62	-30.2	-30.7	27.1	0.00e+00	0	28	0	3386900480	32	6219
2026-01-11 03:24:44.07	323.40	21.49	-29.9	-30.5	27.3	0.00e+00	0	28	0	3393191936	32	6061
2026-01-11 03:24:45.08	323.53	21.37	-29.9	-30.5	27.3	0.00e+00	0	28	0	3398434816	32	6042
2026-01-11 03:24:46.09	323.66	21.25	-29.9	-30.4	27.3	0.00e+00	0	28	0	3404726272	32	6032
2026-01-11 03:24:47.10	323.79	21.13	-29.9	-30.5	27.3	0.00e+00	0	28	0	3409969152	32	6050
2026-01-11 03:24:48.11	323.91	21.01	-29.8	-30.3	27.3	0.00e+00	0	28	0	3415212032	32	5940
2026-01-11 03:24:49.12	324.04	20.89	-30.0	-30.5	27.1	0.00e+00	0	28	0	3421503488	32	6088
2026-01-11 03:24:50.13	324.16	20.77	-29.9	-30.5	27.3	0.00e+00	0	28	0	3426746368	32	6052
2026-01-11 03:24:51.14	324.28	20.65	-30.0	-30.7	27.2	0.00e+00	0	28	0	3433037824	32	6185
2026-01-11 03:24:52.15	324.41	20.53	-30.1	-30.6	27.1	0.00e+00	0	28	0	3438280704	32	6171
2026-01-11 03:24:53.16	324.53	20.41	-30.2	-30.9	26.9	0.00e+00	0	28	0	3443523584	32	6382
2026-01-11 03:24:54.17	324.65	20.30	-30.3	-31.1	26.9	0.00e+00	0	28	0	3449815040	32	6465
2026-01-11 03:24:55.18	324.77	20.18	-30.3	-30.9	26.9	0.00e+00	0	28	0	3455057920	32	6356
2026-01-11 03:24:56.19	324.89	20.06	-30.5	-31.0	26.8	0.00e+00	0	28	0	3461349376	32	6450
2026-01-11 03:24:57.20	325.00	19.95	-30.4	-31.0	26.8	0.00e+00	0	28	0	3466592256	32	6453
2026-01-11 03:24:58.21	325.12	19.83	-30.4	-31.1	26.8	0.00e+00	0	28	0	3472883712	32	6475
2026-01-11 03:24:59.22	325.24	19.71	-30.2	-30.7	27.0	0.00e+00	0	28	0	3478126592	32	6221
2026-01-11 03:25:00.23	325.35	19.60	-30.4	-31.1	26.9	0.00e+00	0	28	0	3484418048	32	6472
2026-01-11 03:25:01.24	325.47	19.48	-30.3	-31.0	26.8	0.00e+00	0	28	0	3489660928	32	6423
2026-01-11 03:25:02.25	325.58	19.37	-30.1	-30.8	27.1	0.00e+00	0	28	0	3494903808	32	6248
2026-01-11 03:25:03.26	325.69	19.26	-30.3	-30.9	27.0	0.00e+00	0	28	0	3501195264	32	6383
2026-01-11 03:25:04.27	325.80	19.14	-30.1	-30.7	27.1	0.00e+00	0	28	0	3506438144	32	6228
2026-01-11 03:25:05.28	325.92	19.03	-30.2	-30.9	26.9	0.00e+00	0	28	0	3512729600	32	6364
2026-01-11 03:25:06.29	326.03	18.92	-30.1	-30.8	27.0	0.00e+00	0	28	0	3517972480	32	6304
2026-01-11 03:25:07.30	326.14	18.80	-30.3	-31.0	26.9	0.00e+00	0	28	0	3523215360	32	6400
2026-01-11 03:25:08.31	326.24	18.69	-30.3	-31.0	26.8	0.00e+00	0	28	0	3529506816	32	6421
2026-01-11 03:25:09.32	326.35	18.58	-30.4	-31.1	26.7	0.00e+00	0	28	0	3534749696	32	6498
2026-01-11 03:25:10.33	326.46	18.47	-30.5	-31.2	26.7	0.00e+00	0	28	0	3541041152	32	6545
2026-01-11 03:25:11.34	326.57	18.36	-30.7	-31.4	26.5	0.00e+00	0	28	0	3546284032	32	6767
2026-01-11 03:25:12.35	326.67	18.25	-30.7	-31.4	26.5	0.00e+00	0	28	0	3551526912	32	6739
2026-01-11 03:25:13.36	326.78	18.14	-30.7	-31.4	26.5	0.00e+00	0	28	0	3557818368	34	6020
2026-01-11 03:25:14.37	326.88	18.03	-30.7	-31.3	26.5	0.00e+00	0	28	0	3563061248	34	5929
2026-01-11 03:25:15.38	326.99	17.92	-30.8	-31.3	26.5	0.00e+00	0	28	0	3569352704	34	5948
2026-01-11 03:25:16.39	327.09	17.81	-30.8	-31.3	26.5	0.00e+00	0	28	0	3574595584	34	5959
2026-01-11 03:25:17.40	327.19	17.70	-30.8	-31.4	26.4	0.00e+00	0	28	0	3580887040	34	5968
2026-01-11 03:25:18.41	327.29	17.60	-30.9	-31.5	26.4	0.00e+00	0	28	0	3586129920	34	6035
2026-01-11 03:25:19.42	327.39	17.49	-30.8	-31.4	26.4	0.00e+00	0	28	0	3591372800	34	5971
2026-01-11 03:25:20.43	327.49	17.38	-30.8	-31.5	26.4	0.00e+00	0	28	0	3597664256	34	6040
2026-01-11 03:25:21.44	327.59	17.28	-30.8	-31.5	26.5	0.00e+00	0	28	0	3602907136	34	6042
2026-01-11 03:25:22.45	327.69	17.17	-30.8	-31.3	26.5	0.00e+00	0	28	0	3609198592	34	5953
