passes_logs/2026/01/11/R4.6S_Anadyr/R4.6S_Anadyr__20260111_134941_NOAA_21_JPSS-2_rec.log

#Pass ID: 20260111_134941_NOAA 21 (JPSS-2)
#Satellite: NOAA 21 (JPSS-2)
#Configuration: NOAA-21
#almurnet v.1.7.20251203
#Start time: 2026-01-11 13:49:42

#Version: 2.2.20231116
#Station: R4.6S_Anadyr
#Location: 177.4865 lon 64.73178 lat
#TLE: 1 54234U 22150A   26010.92456470  .00000095  00000+0  65865-4 0  9991
#TLE: 2 54234  98.7494 311.8737 0000784 316.5119  43.5995 14.19533975164234

#Time	Az	El	Level	Level2	SNR	BER	BlckErr	Temp	State	Recorded	gain1	gain2
2026-01-11 13:49:42.52	19.12	0.07	-48.1	-63.0	3.5	1.51e+00	0	24	0	0	60	51081
2026-01-11 13:49:43.52	19.15	0.12	-48.2	-61.0	3.5	1.52e+00	0	26	104	0	60	39591
2026-01-11 13:49:44.53	19.18	0.18	-48.1	-61.0	3.5	1.52e+00	0	26	104	0	60	39210
2026-01-11 13:49:45.54	19.22	0.24	-48.2	-61.0	3.5	1.51e+00	0	26	104	0	60	39373
2026-01-11 13:49:46.55	19.25	0.30	-48.1	-61.0	3.5	1.52e+00	0	26	104	0	60	39398
2026-01-11 13:49:47.56	19.28	0.36	-48.2	-61.0	3.5	1.52e+00	0	26	104	0	60	39552
2026-01-11 13:49:48.57	19.31	0.42	-48.2	-61.0	3.5	1.52e+00	0	26	104	0	60	39491
2026-01-11 13:49:49.58	19.34	0.48	-48.1	-61.0	3.5	1.52e+00	0	26	104	0	60	39335
2026-01-11 13:49:50.59	19.37	0.54	-48.2	-61.0	3.5	1.52e+00	0	26	104	0	60	39317
2026-01-11 13:49:51.60	19.41	0.60	-48.1	-60.9	3.5	1.52e+00	0	26	104	0	60	39064
2026-01-11 13:49:52.61	19.44	0.66	-48.0	-60.9	3.5	1.51e+00	0	26	104	0	60	38752
2026-01-11 13:49:53.62	19.47	0.72	-47.9	-60.7	3.5	1.52e+00	0	26	104	0	60	38008
2026-01-11 13:49:54.63	19.50	0.78	-47.7	-60.6	3.5	1.52e+00	0	26	104	0	60	37507
2026-01-11 13:49:55.64	19.53	0.84	-47.5	-60.4	3.5	1.52e+00	0	26	104	0	60	36720
2026-01-11 13:49:56.65	19.57	0.90	-47.4	-60.2	3.5	1.52e+00	0	26	104	0	60	35904
2026-01-11 13:49:57.66	19.60	0.96	-47.1	-59.9	3.5	1.52e+00	0	26	104	0	60	34771
2026-01-11 13:49:58.67	19.63	1.02	-46.7	-59.5	3.5	1.52e+00	0	26	104	0	60	33248
2026-01-11 13:49:59.68	19.66	1.08	-46.6	-59.5	3.5	1.51e+00	0	26	104	0	60	32947
2026-01-11 13:50:00.69	19.70	1.14	-46.6	-59.4	3.5	1.52e+00	0	26	104	0	60	32908
2026-01-11 13:50:01.70	19.73	1.20	-46.6	-59.4	3.5	1.52e+00	0	26	104	0	60	32909
2026-01-11 13:50:02.71	19.76	1.26	-46.6	-59.5	3.5	1.52e+00	0	26	104	0	60	32996
2026-01-11 13:50:03.72	19.80	1.32	-46.6	-59.4	3.5	1.51e+00	0	26	104	0	60	32723
2026-01-11 13:50:04.73	19.83	1.38	-46.6	-59.4	3.5	1.52e+00	0	26	104	0	60	32574
2026-01-11 13:50:05.74	19.86	1.44	-46.6	-59.3	3.5	1.52e+00	0	26	104	0	60	32196
2026-01-11 13:50:06.75	19.90	1.50	-46.6	-59.3	3.5	1.52e+00	0	26	104	0	60	32537
2026-01-11 13:50:07.75	19.93	1.56	-46.6	-59.4	3.5	1.52e+00	0	26	104	0	60	32613
2026-01-11 13:50:08.76	19.96	1.62	-46.6	-59.3	3.5	1.52e+00	0	26	104	0	60	32511
2026-01-11 13:50:09.77	20.00	1.69	-46.6	-59.3	3.5	1.52e+00	0	27	104	0	60	32501
2026-01-11 13:50:10.78	20.03	1.75	-46.6	-59.4	3.5	1.52e+00	0	26	104	0	60	32628
2026-01-11 13:50:11.79	20.07	1.81	-46.5	-59.3	3.5	1.52e+00	0	26	104	0	60	32500
2026-01-11 13:50:12.80	20.10	1.87	-46.5	-59.3	3.5	1.52e+00	0	26	104	0	60	32363
2026-01-11 13:50:13.81	20.13	1.93	-46.5	-59.3	3.5	1.52e+00	0	26	104	0	60	32420
2026-01-11 13:50:14.82	20.17	2.00	-46.5	-59.4	3.5	1.52e+00	0	26	104	0	60	32703
2026-01-11 13:50:15.83	20.20	2.06	-46.5	-59.4	3.5	1.52e+00	0	27	104	0	60	32582
2026-01-11 13:50:16.84	20.24	2.12	-46.5	-59.2	3.5	1.52e+00	0	26	104	0	60	32094
2026-01-11 13:50:17.85	20.27	2.18	-46.5	-58.9	3.5	1.52e+00	0	27	104	0	60	30914
2026-01-11 13:50:18.86	20.31	2.25	-46.4	-58.3	3.5	1.52e+00	0	26	104	0	60	28762
2026-01-11 13:50:19.88	20.34	2.31	-46.4	-57.8	3.5	1.51e+00	0	27	104	0	60	27314
2026-01-11 13:50:20.88	20.38	2.37	-46.4	-57.8	3.6	1.51e+00	0	27	104	0	60	27359
2026-01-11 13:50:21.89	20.41	2.44	-46.4	-57.9	3.6	1.51e+00	0	27	104	0	60	27476
2026-01-11 13:50:22.90	20.45	2.50	-46.5	-58.5	3.5	1.51e+00	0	27	104	0	60	29435
2026-01-11 13:50:23.91	20.49	2.56	-46.5	-58.7	3.5	1.52e+00	0	27	104	0	60	30298
2026-01-11 13:50:24.92	20.52	2.63	-46.3	-56.6	3.9	1.51e+00	0	26	104	0	60	23631
2026-01-11 13:50:25.93	20.56	2.69	-45.6	-52.8	6.2	4.87e-01	121	26	104	0	60	15347
2026-01-11 13:50:26.94	20.59	2.75	-44.5	-48.7	9.6	4.53e-02	123	27	0	2097152	60	9516
2026-01-11 13:50:27.95	20.63	2.82	-43.1	-46.0	12.5	3.24e-04	123	27	0	5242880	60	7007
2026-01-11 13:50:28.96	20.67	2.88	-41.7	-43.9	14.8	2.20e-06	123	27	0	8388608	58	6152
2026-01-11 13:50:29.97	20.70	2.95	-40.5	-42.3	16.3	0.00e+00	121	27	0	11534336	56	5789
2026-01-11 13:50:30.98	20.74	3.01	-39.2	-40.7	17.9	0.00e+00	122	27	0	14680064	52	6050
2026-01-11 13:50:32.00	20.78	3.08	-38.5	-39.9	18.7	0.00e+00	123	27	0	17825792	50	6152
2026-01-11 13:50:33.00	20.81	3.14	-38.2	-39.5	19.0	0.00e+00	122	27	0	20971520	50	5894
2026-01-11 13:50:34.01	20.85	3.20	-37.7	-39.0	19.5	0.00e+00	123	27	0	24117248	48	6227
2026-01-11 13:50:35.02	20.89	3.27	-37.3	-38.6	19.7	0.00e+00	120	27	0	27262976	48	5939
2026-01-11 13:50:36.04	20.92	3.33	-38.2	-39.5	18.9	0.00e+00	122	27	0	30408704	48	6646
2026-01-11 13:50:37.04	20.96	3.40	-38.9	-40.4	18.1	0.00e+00	123	27	0	33554432	48	7295
2026-01-11 13:50:38.06	21.00	3.47	-39.8	-41.5	17.1	0.00e+00	123	27	0	36700160	50	7398
2026-01-11 13:50:39.07	21.04	3.53	-41.4	-43.5	15.0	0.00e+00	123	27	0	39845888	54	7412
2026-01-11 13:50:40.08	21.08	3.60	-42.6	-45.2	13.0	6.80e-06	122	27	0	42991616	56	8032
2026-01-11 13:50:41.09	21.11	3.66	-38.9	-40.3	18.3	0.00e+00	122	27	0	46137344	52	5772
2026-01-11 13:50:42.10	21.15	3.73	-37.7	-39.0	19.6	0.00e+00	123	27	0	49283072	48	6248
2026-01-11 13:50:43.10	21.19	3.79	-46.4	-58.3	3.5	1.52e+00	0	27	104	51380224	60	28977
2026-01-11 13:50:44.12	21.23	3.86	-44.1	-48.4	10.8	1.46e+00	122	27	104	51380224	60	9231
2026-01-11 13:50:45.13	21.27	3.93	-45.6	-51.4	6.9	1.02e-03	120	27	0	52428800	60	13035
2026-01-11 13:50:46.14	21.31	3.99	-41.8	-44.0	14.6	2.20e-06	122	27	0	55574528	58	6257
2026-01-11 13:50:47.15	21.34	4.06	-42.2	-44.6	14.5	0.00e+00	123	27	0	58720256	56	7504
2026-01-11 13:50:48.16	21.38	4.13	-41.9	-44.1	14.2	1.50e-06	123	27	0	61865984	56	7044
2026-01-11 13:50:49.17	21.42	4.19	-41.8	-43.9	14.9	7.00e-07	120	27	0	65011712	56	6945
2026-01-11 13:50:50.18	21.46	4.26	-42.2	-44.6	14.2	7.00e-07	122	27	0	68157440	56	7465
2026-01-11 13:50:51.19	21.50	4.33	-41.3	-43.2	15.7	7.00e-07	122	27	0	71303168	56	6385
2026-01-11 13:50:52.20	21.54	4.40	-39.7	-41.3	17.4	0.00e+00	120	27	0	74448896	54	5777
2026-01-11 13:50:53.21	21.58	4.46	-38.7	-40.1	18.8	0.00e+00	123	27	0	77594624	52	5645
2026-01-11 13:50:54.21	21.62	4.53	-38.0	-39.2	19.5	0.00e+00	123	27	0	80740352	50	5724
2026-01-11 13:50:55.22	21.66	4.60	-37.5	-38.8	19.9	0.00e+00	122	27	0	83886080	48	6085
2026-01-11 13:50:56.24	21.70	4.67	-37.3	-38.5	20.1	0.00e+00	123	27	0	87031808	48	5901
2026-01-11 13:50:57.25	21.74	4.74	-37.4	-38.6	20.1	0.00e+00	123	27	0	90177536	48	5936
2026-01-11 13:50:58.26	21.78	4.81	-37.4	-38.6	20.0	0.00e+00	120	27	0	93323264	48	5950
2026-01-11 13:50:59.27	21.83	4.87	-37.1	-38.3	20.3	0.00e+00	122	27	0	96468992	48	5758
2026-01-11 13:51:00.28	21.87	4.94	-36.9	-38.0	20.6	0.00e+00	122	27	0	99614720	48	5568
2026-01-11 13:51:01.28	21.91	5.01	-36.9	-38.1	20.5	0.00e+00	122	27	0	102760448	48	5623
2026-01-11 13:51:02.29	21.95	5.08	-36.9	-38.1	20.6	0.00e+00	120	27	0	105906176	48	5603
2026-01-11 13:51:03.30	21.99	5.15	-37.0	-38.2	20.4	0.00e+00	122	27	0	109051904	48	5675
2026-01-11 13:51:04.31	22.03	5.22	-36.6	-37.7	20.9	0.00e+00	122	27	0	112197632	46	6051
2026-01-11 13:51:05.32	22.07	5.29	-36.7	-37.8	20.8	0.00e+00	123	27	0	115343360	46	6088
2026-01-11 13:51:06.33	22.12	5.36	-36.8	-38.0	20.7	0.00e+00	123	27	0	118489088	46	6207
2026-01-11 13:51:07.34	22.16	5.43	-36.8	-37.9	20.7	0.00e+00	120	27	0	121634816	46	6204
2026-01-11 13:51:08.35	22.20	5.50	-37.0	-38.2	20.6	0.00e+00	122	27	0	124780544	46	6378
2026-01-11 13:51:09.36	22.24	5.57	-37.2	-38.4	20.5	0.00e+00	123	27	0	127926272	46	6526
2026-01-11 13:51:10.37	22.29	5.64	-36.8	-37.9	20.8	0.00e+00	121	27	0	131072000	46	6163
2026-01-11 13:51:11.38	22.33	5.71	-36.5	-37.6	21.0	0.00e+00	123	27	0	134217728	46	5993
2026-01-11 13:51:12.39	22.37	5.78	-36.6	-37.7	21.0	0.00e+00	120	27	0	137363456	46	6025
2026-01-11 13:51:13.40	22.42	5.85	-36.5	-37.6	21.1	0.00e+00	122	27	0	140509184	46	5969
2026-01-11 13:51:14.41	22.46	5.92	-36.4	-37.5	21.1	0.00e+00	120	27	0	143654912	46	5923
2026-01-11 13:51:15.42	22.50	6.00	-36.4	-37.5	21.2	0.00e+00	123	27	0	146800640	46	5898
2026-01-11 13:51:16.43	22.55	6.07	-36.4	-37.6	21.1	0.00e+00	123	27	0	149946368	46	5940
2026-01-11 13:51:17.44	22.59	6.14	-36.4	-37.5	21.2	0.00e+00	122	27	0	153092096	46	5875
2026-01-11 13:51:18.45	22.64	6.21	-36.5	-37.6	21.1	0.00e+00	121	27	0	156237824	46	5984
2026-01-11 13:51:19.46	22.68	6.28	-36.4	-37.5	21.3	0.00e+00	123	27	0	159383552	46	5867
2026-01-11 13:51:20.47	22.73	6.36	-36.3	-37.4	21.3	0.00e+00	120	27	0	162529280	46	5826
2026-01-11 13:51:21.48	22.77	6.43	-36.5	-37.6	21.2	0.00e+00	121	27	0	165675008	46	5947
2026-01-11 13:51:22.49	22.82	6.50	-36.2	-37.3	21.4	0.00e+00	120	27	0	168820736	46	5767
2026-01-11 13:51:23.50	22.86	6.57	-36.3	-37.4	21.3	0.00e+00	123	27	0	171966464	46	5854
2026-01-11 13:51:24.51	22.91	6.65	-36.2	-37.3	21.4	0.00e+00	122	27	0	175112192	46	5741
2026-01-11 13:51:25.52	22.95	6.72	-36.2	-37.3	21.4	0.00e+00	123	27	0	178257920	46	5760
2026-01-11 13:51:26.53	23.00	6.79	-36.2	-37.3	21.5	0.00e+00	123	27	0	181403648	46	5759
2026-01-11 13:51:27.54	23.04	6.87	-36.2	-37.3	21.5	0.00e+00	122	27	0	184549376	46	5740
2026-01-11 13:51:28.55	23.09	6.94	-36.2	-37.3	21.5	0.00e+00	123	27	0	187695104	46	5764
2026-01-11 13:51:29.56	23.14	7.02	-36.1	-37.2	21.6	0.00e+00	120	27	0	190840832	46	5700
2026-01-11 13:51:30.57	23.18	7.09	-36.0	-37.1	21.7	0.00e+00	123	27	0	193986560	46	5620
2026-01-11 13:51:31.58	23.23	7.17	-36.1	-37.2	21.6	0.00e+00	123	27	0	197132288	46	5669
2026-01-11 13:51:32.59	23.28	7.24	-36.1	-37.2	21.6	0.00e+00	123	27	0	200278016	46	5678
2026-01-11 13:51:33.60	23.33	7.32	-36.0	-37.1	21.8	0.00e+00	121	27	0	203423744	46	5620
2026-01-11 13:51:34.61	23.37	7.39	-36.0	-37.1	21.8	0.00e+00	123	27	0	206569472	46	5604
2026-01-11 13:51:35.62	23.42	7.47	-35.9	-36.9	21.8	0.00e+00	123	27	0	209715200	46	5526
2026-01-11 13:51:36.63	23.47	7.54	-35.9	-37.0	21.8	0.00e+00	123	27	0	213909504	46	5554
2026-01-11 13:51:37.64	23.52	7.62	-36.0	-37.0	21.8	0.00e+00	123	27	0	217055232	46	5579
2026-01-11 13:51:38.65	23.57	7.69	-35.8	-36.9	21.8	0.00e+00	122	27	0	220200960	46	5499
2026-01-11 13:51:39.66	23.62	7.77	-35.9	-37.0	21.8	0.00e+00	120	27	0	223346688	46	5540
2026-01-11 13:51:40.67	23.67	7.85	-35.8	-36.8	22.0	0.00e+00	123	27	0	225443840	46	5427
2026-01-11 13:51:41.68	23.71	7.92	-35.9	-36.9	21.9	0.00e+00	122	27	0	229638144	44	6182
2026-01-11 13:51:42.69	23.76	8.00	-35.6	-36.7	22.1	0.00e+00	123	27	0	232783872	44	5999
2026-01-11 13:51:43.70	23.81	8.08	-35.6	-36.7	22.1	0.00e+00	122	27	0	235929600	44	6009
2026-01-11 13:51:44.71	23.86	8.15	-35.7	-36.7	22.1	0.00e+00	122	27	0	239075328	44	6042
2026-01-11 13:51:45.72	23.91	8.23	-35.6	-36.7	22.1	0.00e+00	120	27	0	242221056	44	6014
2026-01-11 13:51:46.73	23.97	8.31	-35.5	-36.5	22.2	0.00e+00	123	27	0	245366784	44	5894
2026-01-11 13:51:47.74	24.02	8.39	-35.7	-36.7	22.1	0.00e+00	124	27	0	248512512	44	6021
2026-01-11 13:51:48.75	24.07	8.47	-35.6	-36.6	22.2	0.00e+00	122	27	0	251658240	44	5948
2026-01-11 13:51:49.76	24.12	8.54	-35.5	-36.5	22.2	0.00e+00	122	27	0	254803968	44	5918
2026-01-11 13:51:50.77	24.17	8.62	-35.4	-36.4	22.3	0.00e+00	123	27	0	257949696	44	5840
2026-01-11 13:51:51.78	24.22	8.70	-35.3	-36.3	22.4	0.00e+00	122	27	0	261095424	44	5778
2026-01-11 13:51:52.79	24.27	8.78	-35.3	-36.3	22.5	0.00e+00	123	27	0	264241152	44	5788
2026-01-11 13:51:53.80	24.33	8.86	-35.3	-36.3	22.4	0.00e+00	123	27	0	267386880	44	5789
2026-01-11 13:51:54.81	24.38	8.94	-35.2	-36.2	22.5	0.00e+00	122	27	0	270532608	44	5722
2026-01-11 13:51:55.82	24.43	9.02	-35.2	-36.2	22.6	0.00e+00	122	27	0	273678336	44	5701
2026-01-11 13:51:56.83	24.48	9.10	-35.2	-36.2	22.6	0.00e+00	123	27	0	276824064	44	5720
2026-01-11 13:51:57.84	24.54	9.18	-35.1	-36.1	22.7	0.00e+00	122	27	0	279969792	44	5599
2026-01-11 13:51:58.85	24.59	9.26	-35.2	-36.2	22.6	0.00e+00	123	27	0	283115520	44	5674
2026-01-11 13:51:59.86	24.64	9.34	-35.2	-36.2	22.6	0.00e+00	120	27	0	286261248	44	5671
2026-01-11 13:52:00.87	24.70	9.42	-35.1	-36.1	22.6	0.00e+00	123	27	0	289406976	44	5653
2026-01-11 13:52:01.88	24.75	9.50	-35.1	-36.0	22.7	0.00e+00	123	27	0	292552704	44	5593
2026-01-11 13:52:02.89	24.81	9.59	-35.0	-36.0	22.7	0.00e+00	120	27	0	295698432	44	5561
2026-01-11 13:52:03.90	24.86	9.67	-35.1	-36.1	22.8	0.00e+00	123	27	0	298844160	44	5597
2026-01-11 13:52:04.91	24.92	9.75	-34.9	-35.9	22.8	0.00e+00	123	27	0	301989888	44	5493
2026-01-11 13:52:05.92	24.97	9.83	-34.9	-35.9	22.9	0.00e+00	123	27	0	305135616	44	5470
2026-01-11 13:52:06.93	25.03	9.91	-35.1	-36.1	22.8	0.00e+00	123	27	0	308281344	44	5640
2026-01-11 13:52:07.94	25.09	10.00	-34.9	-35.9	22.9	0.00e+00	123	27	0	311427072	44	5497
2026-01-11 13:52:08.95	25.14	10.08	-35.1	-36.1	22.8	0.00e+00	122	27	0	314572800	44	5613
2026-01-11 13:52:09.96	25.20	10.16	-35.0	-36.0	22.8	0.00e+00	122	27	0	317718528	44	5557
2026-01-11 13:52:10.97	25.26	10.25	-35.1	-36.1	22.7	0.00e+00	123	27	0	320864256	44	5620
2026-01-11 13:52:11.98	25.31	10.33	-34.8	-35.7	23.1	0.00e+00	123	27	0	324009984	44	5397
2026-01-11 13:52:12.99	25.37	10.41	-34.8	-35.7	23.0	0.00e+00	123	27	0	327155712	42	6054
2026-01-11 13:52:14.00	25.43	10.50	-34.8	-35.7	23.1	0.00e+00	123	27	0	330301440	42	6061
2026-01-11 13:52:15.01	25.49	10.58	-34.6	-35.5	23.3	0.00e+00	123	27	0	333447168	42	5920
2026-01-11 13:52:16.02	25.55	10.67	-34.6	-35.5	23.2	0.00e+00	123	27	0	336592896	42	5914
2026-01-11 13:52:17.03	25.60	10.75	-34.7	-35.7	23.2	0.00e+00	123	27	0	339738624	42	6001
2026-01-11 13:52:18.04	25.66	10.84	-34.6	-35.6	23.2	0.00e+00	123	27	0	342884352	42	5947
2026-01-11 13:52:19.05	25.72	10.92	-34.7	-35.6	23.1	0.00e+00	123	27	0	346030080	42	5994
2026-01-11 13:52:20.06	25.78	11.01	-34.7	-35.7	23.1	0.00e+00	123	27	0	349175808	42	6025
2026-01-11 13:52:21.07	25.84	11.10	-34.7	-35.7	23.1	0.00e+00	123	27	0	352321536	42	6020
2026-01-11 13:52:22.09	25.90	11.18	-34.4	-35.4	23.4	0.00e+00	123	27	0	355467264	42	5835
2026-01-11 13:52:23.10	25.96	11.27	-34.6	-35.6	23.2	0.00e+00	122	27	0	358612992	42	5937
2026-01-11 13:52:24.11	26.03	11.36	-34.5	-35.4	23.3	0.00e+00	123	27	0	361758720	42	5831
2026-01-11 13:52:25.12	26.09	11.45	-34.5	-35.5	23.3	0.00e+00	120	27	0	364904448	42	5891
2026-01-11 13:52:26.13	26.15	11.53	-34.5	-35.5	23.3	0.00e+00	122	27	0	368050176	42	5897
2026-01-11 13:52:27.14	26.21	11.62	-34.3	-35.3	23.5	0.00e+00	120	27	0	371195904	42	5735
2026-01-11 13:52:28.15	26.27	11.71	-34.4	-35.3	23.4	0.00e+00	123	27	0	374341632	42	5780
2026-01-11 13:52:29.16	26.34	11.80	-34.2	-35.2	23.6	0.00e+00	121	27	0	377487360	42	5681
2026-01-11 13:52:30.17	26.40	11.89	-34.4	-35.3	23.5	0.00e+00	122	27	0	380633088	42	5754
2026-01-11 13:52:31.18	26.46	11.98	-34.4	-35.3	23.4	0.00e+00	123	27	0	383778816	42	5788
2026-01-11 13:52:32.19	26.53	12.07	-34.3	-35.2	23.5	0.00e+00	122	27	0	386924544	42	5698
2026-01-11 13:52:33.20	26.59	12.16	-34.4	-35.4	23.5	0.00e+00	120	27	0	390070272	42	5796
2026-01-11 13:52:34.21	26.66	12.25	-34.4	-35.3	23.5	0.00e+00	123	27	0	393216000	42	5766
2026-01-11 13:52:35.22	26.72	12.34	-34.1	-35.1	23.6	0.00e+00	123	27	0	396361728	42	5602
2026-01-11 13:52:36.23	26.79	12.43	-34.3	-35.2	23.6	0.00e+00	122	27	0	399507456	42	5709
2026-01-11 13:52:37.24	26.85	12.52	-34.1	-35.0	23.7	0.00e+00	122	27	0	402653184	42	5562
2026-01-11 13:52:38.25	26.92	12.61	-34.2	-35.2	23.7	0.00e+00	122	27	0	405798912	42	5669
2026-01-11 13:52:39.26	26.98	12.70	-34.0	-35.0	23.7	0.00e+00	123	27	0	408944640	42	5539
2026-01-11 13:52:40.27	27.05	12.79	-34.1	-35.0	23.7	0.00e+00	123	27	0	412090368	42	5588
2026-01-11 13:52:41.28	27.12	12.88	-34.1	-35.1	23.7	0.00e+00	122	27	0	415236096	42	5606
2026-01-11 13:52:42.29	27.19	12.98	-34.1	-35.0	23.7	0.00e+00	123	27	0	418381824	42	5592
2026-01-11 13:52:43.30	27.25	13.07	-34.1	-35.0	23.7	0.00e+00	120	27	0	421527552	42	5566
2026-01-11 13:52:44.31	27.32	13.16	-34.1	-35.0	23.8	0.00e+00	123	27	0	424673280	42	5572
2026-01-11 13:52:45.32	27.39	13.26	-34.0	-35.0	23.8	0.00e+00	122	27	0	427819008	42	5538
2026-01-11 13:52:46.33	27.46	13.35	-34.1	-35.1	23.7	0.00e+00	122	27	0	430964736	42	5596
2026-01-11 13:52:47.34	27.53	13.44	-34.3	-35.2	23.6	0.00e+00	123	27	0	434110464	42	5723
2026-01-11 13:52:48.35	27.60	13.54	-34.1	-35.0	23.8	0.00e+00	123	27	0	437256192	42	5588
2026-01-11 13:52:49.36	27.67	13.63	-34.1	-35.0	23.8	0.00e+00	122	27	0	440401920	42	5559
2026-01-11 13:52:50.37	27.74	13.73	-34.1	-35.0	23.8	0.00e+00	122	27	0	443547648	42	5565
2026-01-11 13:52:51.38	27.81	13.82	-34.2	-35.1	23.6	0.00e+00	120	27	0	446693376	42	5621
2026-01-11 13:52:52.39	27.89	13.92	-34.0	-35.0	23.8	0.00e+00	123	27	0	449839104	42	5542
2026-01-11 13:52:53.40	27.96	14.02	-34.0	-35.0	23.8	0.00e+00	122	27	0	452984832	42	5544
2026-01-11 13:52:54.41	28.03	14.11	-34.1	-35.0	23.8	0.00e+00	123	27	0	456130560	42	5560
2026-01-11 13:52:55.42	28.10	14.21	-34.0	-35.0	23.8	0.00e+00	123	27	0	459276288	42	5556
2026-01-11 13:52:56.43	28.18	14.31	-34.0	-34.9	23.9	0.00e+00	123	27	0	462422016	42	5499
2026-01-11 13:52:57.45	28.25	14.41	-34.0	-35.0	23.9	0.00e+00	123	27	0	465567744	42	5532
2026-01-11 13:52:58.46	28.33	14.50	-34.0	-34.9	23.9	0.00e+00	123	27	0	468713472	42	5506
2026-01-11 13:52:59.47	28.40	14.60	-34.0	-34.9	23.9	0.00e+00	123	27	0	471859200	42	5515
2026-01-11 13:53:00.48	28.48	14.70	-33.9	-34.9	23.9	0.00e+00	123	27	0	475004928	42	5476
2026-01-11 13:53:01.48	28.55	14.80	-33.9	-34.9	23.9	0.00e+00	123	27	0	478150656	42	5472
2026-01-11 13:53:02.49	28.63	14.90	-34.0	-34.9	23.9	0.00e+00	123	27	0	481296384	42	5522
2026-01-11 13:53:03.51	28.71	15.00	-34.0	-35.0	23.8	0.00e+00	120	27	0	484442112	42	5538
2026-01-11 13:53:04.52	28.78	15.10	-34.0	-35.0	23.9	0.00e+00	123	27	0	487587840	42	5533
2026-01-11 13:53:05.53	28.86	15.20	-34.1	-35.1	23.8	0.00e+00	120	27	0	490733568	42	5611
2026-01-11 13:53:06.54	28.94	15.30	-34.1	-35.0	23.8	0.00e+00	120	27	0	493879296	42	5564
2026-01-11 13:53:07.55	29.02	15.40	-34.1	-35.0	23.8	0.00e+00	123	27	0	497025024	42	5577
2026-01-11 13:53:08.56	29.10	15.50	-34.0	-35.0	23.8	0.00e+00	123	27	0	500170752	42	5532
2026-01-11 13:53:09.57	29.18	15.61	-34.2	-35.1	23.8	0.00e+00	122	27	0	503316480	42	5622
2026-01-11 13:53:10.58	29.26	15.71	-34.1	-35.1	23.8	0.00e+00	123	27	0	507510784	42	5607
2026-01-11 13:53:11.59	29.34	15.81	-34.2	-35.2	23.8	0.00e+00	120	27	0	510656512	42	5665
2026-01-11 13:53:12.60	29.42	15.91	-34.1	-35.0	23.8	0.00e+00	121	27	0	513802240	42	5568
2026-01-11 13:53:13.61	29.50	16.02	-34.1	-35.1	23.8	0.00e+00	123	27	0	516947968	42	5600
2026-01-11 13:53:14.62	29.58	16.12	-34.1	-35.0	23.8	0.00e+00	123	27	0	519045120	42	5578
2026-01-11 13:53:15.63	29.67	16.23	-34.2	-35.1	23.8	0.00e+00	122	27	0	522190848	42	5637
2026-01-11 13:53:16.64	29.75	16.33	-34.3	-35.3	23.6	0.00e+00	123	27	0	526385152	42	5728
2026-01-11 13:53:17.65	29.84	16.43	-34.3	-35.2	23.7	0.00e+00	120	27	0	529530880	42	5719
2026-01-11 13:53:18.66	29.92	16.54	-34.4	-35.3	23.6	0.00e+00	123	27	0	532676608	42	5787
2026-01-11 13:53:19.67	30.00	16.65	-34.4	-35.3	23.6	0.00e+00	123	27	0	535822336	42	5753
2026-01-11 13:53:20.68	30.09	16.75	-34.4	-35.3	23.7	0.00e+00	123	27	0	538968064	42	5756
2026-01-11 13:53:21.69	30.18	16.86	-34.3	-35.3	23.6	0.00e+00	122	27	0	542113792	42	5748
2026-01-11 13:53:22.70	30.26	16.97	-34.3	-35.3	23.6	0.00e+00	123	27	0	545259520	42	5743
2026-01-11 13:53:23.71	30.35	17.07	-34.3	-35.2	23.7	0.00e+00	123	27	0	548405248	42	5691
2026-01-11 13:53:24.72	30.44	17.18	-34.4	-35.4	23.6	0.00e+00	123	27	0	551550976	42	5811
2026-01-11 13:53:25.73	30.53	17.29	-34.2	-35.2	23.7	0.00e+00	123	27	0	554696704	42	5675
2026-01-11 13:53:26.74	30.62	17.40	-34.4	-35.3	23.7	0.00e+00	123	28	0	557842432	42	5746
2026-01-11 13:53:27.75	30.71	17.51	-34.4	-35.3	23.6	0.00e+00	123	28	0	560988160	42	5749
2026-01-11 13:53:28.76	30.80	17.62	-34.4	-35.3	23.7	0.00e+00	122	28	0	564133888	42	5761
2026-01-11 13:53:29.77	30.89	17.73	-34.3	-35.3	23.7	0.00e+00	120	28	0	567279616	42	5750
2026-01-11 13:53:30.78	30.98	17.84	-34.3	-35.2	23.7	0.00e+00	122	28	0	570425344	42	5717
2026-01-11 13:53:31.79	31.07	17.95	-34.4	-35.3	23.6	0.00e+00	118	28	0	573571072	42	5783
2026-01-11 13:53:32.80	31.17	18.06	-34.4	-35.4	23.6	0.00e+00	122	28	0	576716800	42	5798
2026-01-11 13:53:33.81	31.26	18.17	-34.2	-35.1	23.8	0.00e+00	123	28	0	579862528	42	5657
2026-01-11 13:53:34.82	31.36	18.28	-34.3	-35.2	23.8	0.00e+00	120	28	0	583008256	42	5688
2026-01-11 13:53:35.83	31.45	18.40	-34.3	-35.2	23.8	0.00e+00	123	28	0	586153984	42	5693
2026-01-11 13:53:36.84	31.55	18.51	-34.1	-35.1	23.8	0.00e+00	122	28	0	589299712	42	5599
2026-01-11 13:53:37.85	31.64	18.62	-34.1	-35.0	23.9	0.00e+00	123	28	0	592445440	42	5559
2026-01-11 13:53:38.86	31.74	18.74	-34.2	-35.1	23.8	0.00e+00	123	28	0	595591168	42	5654
2026-01-11 13:53:39.87	31.84	18.85	-34.0	-34.9	24.0	0.00e+00	121	28	0	598736896	42	5481
2026-01-11 13:53:40.88	31.94	18.97	-34.1	-35.0	23.8	0.00e+00	124	28	0	601882624	42	5556
2026-01-11 13:53:41.89	32.04	19.08	-34.0	-34.9	24.0	0.00e+00	123	28	0	605028352	42	5524
2026-01-11 13:53:42.90	32.14	19.20	-33.7	-34.6	24.1	0.00e+00	122	28	0	608174080	42	5343
2026-01-11 13:53:43.91	32.24	19.31	-33.7	-34.7	24.2	0.00e+00	123	28	0	611319808	40	6004
2026-01-11 13:53:44.92	32.34	19.43	-33.7	-34.7	24.1	0.00e+00	123	28	0	614465536	40	5995
2026-01-11 13:53:45.93	32.44	19.55	-33.7	-34.6	24.1	0.00e+00	120	28	0	617611264	40	5971
2026-01-11 13:53:46.94	32.54	19.67	-33.7	-34.6	24.2	0.00e+00	123	28	0	620756992	40	5962
2026-01-11 13:53:47.95	32.65	19.78	-33.6	-34.6	24.2	0.00e+00	123	28	0	623902720	40	5937
2026-01-11 13:53:48.96	32.75	19.90	-33.6	-34.5	24.2	0.00e+00	122	28	0	627048448	40	5918
2026-01-11 13:53:49.97	32.86	20.02	-33.7	-34.7	24.0	0.00e+00	123	28	0	630194176	40	6005
2026-01-11 13:53:50.98	32.96	20.14	-33.4	-34.3	24.3	0.00e+00	122	28	0	633339904	40	5784
2026-01-11 13:53:51.99	33.07	20.26	-33.4	-34.3	24.3	0.00e+00	120	28	0	636485632	40	5771
2026-01-11 13:53:53.00	33.18	20.38	-33.4	-34.4	24.3	0.00e+00	122	28	0	639631360	40	5804
2026-01-11 13:53:54.01	33.28	20.50	-33.3	-34.1	24.4	0.00e+00	120	28	0	642777088	40	5659
2026-01-11 13:53:55.02	33.39	20.63	-33.4	-34.3	24.4	0.00e+00	122	28	0	645922816	40	5727
2026-01-11 13:53:56.03	33.50	20.75	-33.2	-34.1	24.5	0.00e+00	120	28	0	649068544	40	5649
2026-01-11 13:53:57.04	33.61	20.87	-33.1	-34.0	24.5	0.00e+00	123	28	0	652214272	40	5591
2026-01-11 13:53:58.05	33.73	20.99	-33.0	-33.9	24.6	0.00e+00	120	28	0	655360000	40	5523
2026-01-11 13:53:59.06	33.84	21.12	-33.1	-34.0	24.5	0.00e+00	123	28	0	658505728	40	5558
2026-01-11 13:54:00.07	33.95	21.24	-33.1	-34.0	24.6	0.00e+00	120	28	0	661651456	40	5540
2026-01-11 13:54:01.08	34.07	21.37	-33.0	-33.9	24.7	0.00e+00	122	28	0	664797184	40	5473
2026-01-11 13:54:02.09	34.18	21.49	-33.1	-34.0	24.6	0.00e+00	120	28	0	667942912	40	5534
2026-01-11 13:54:03.10	34.30	21.62	-33.1	-34.0	24.5	0.00e+00	122	28	0	671088640	40	5547
2026-01-11 13:54:04.11	34.42	21.74	-33.1	-34.0	24.5	0.00e+00	120	28	0	674234368	40	5551
2026-01-11 13:54:05.12	34.53	21.87	-32.9	-33.7	24.7	0.00e+00	122	28	0	677380096	40	5404
2026-01-11 13:54:06.13	34.65	22.00	-32.9	-33.8	24.6	0.00e+00	123	28	0	680525824	40	5421
2026-01-11 13:54:07.14	34.77	22.12	-32.8	-33.7	24.7	0.00e+00	123	28	0	683671552	40	5393
2026-01-11 13:54:08.15	34.89	22.25	-33.0	-33.9	24.6	0.00e+00	122	28	0	686817280	40	5498
2026-01-11 13:54:09.16	35.01	22.38	-32.7	-33.6	24.8	0.00e+00	120	28	0	689963008	38	5970
2026-01-11 13:54:10.17	35.14	22.51	-32.8	-33.7	24.8	0.00e+00	122	28	0	693108736	38	6011
2026-01-11 13:54:11.18	35.26	22.64	-32.7	-33.6	24.9	0.00e+00	122	28	0	696254464	38	5973
2026-01-11 13:54:12.19	35.39	22.77	-32.7	-33.6	24.9	0.00e+00	123	28	0	699400192	38	5968
2026-01-11 13:54:13.20	35.51	22.90	-32.9	-33.8	24.7	0.00e+00	122	28	0	702545920	38	6121
2026-01-11 13:54:14.21	35.64	23.03	-33.0	-33.9	24.7	0.00e+00	123	28	0	705691648	38	6172
2026-01-11 13:54:15.22	35.77	23.16	-32.8	-33.6	24.9	0.00e+00	123	28	0	708837376	38	5976
2026-01-11 13:54:16.23	35.89	23.30	-32.9	-33.8	24.7	0.00e+00	122	28	0	711983104	38	6074
2026-01-11 13:54:17.24	36.02	23.43	-32.7	-33.6	24.8	0.00e+00	123	28	0	715128832	38	5936
2026-01-11 13:54:18.25	36.16	23.56	-32.9	-33.8	24.8	0.00e+00	120	28	0	718274560	38	6087
2026-01-11 13:54:19.26	36.29	23.70	-33.1	-34.0	24.6	0.00e+00	122	28	0	721420288	38	6227
2026-01-11 13:54:20.27	36.42	23.83	-33.1	-34.0	24.7	0.00e+00	122	28	0	724566016	38	6243
2026-01-11 13:54:21.28	36.56	23.97	-32.9	-33.7	24.9	0.00e+00	123	28	0	727711744	38	6064
2026-01-11 13:54:22.29	36.69	24.10	-33.1	-33.9	24.7	0.00e+00	120	28	0	730857472	38	6203
2026-01-11 13:54:23.30	36.83	24.24	-33.5	-34.4	24.4	0.00e+00	123	28	0	734003200	38	6513
2026-01-11 13:54:24.31	36.96	24.38	-33.2	-34.1	24.7	0.00e+00	123	28	0	737148928	38	6304
2026-01-11 13:54:25.32	37.10	24.51	-32.7	-33.5	25.0	0.00e+00	122	28	0	740294656	38	5926
2026-01-11 13:54:26.33	37.24	24.65	-32.7	-33.6	25.0	0.00e+00	122	28	0	743440384	38	5969
2026-01-11 13:54:27.34	37.38	24.79	-32.8	-33.7	24.9	0.00e+00	123	28	0	746586112	38	6002
2026-01-11 13:54:28.35	37.53	24.93	-32.6	-33.5	25.1	0.00e+00	123	28	0	749731840	38	5902
2026-01-11 13:54:29.36	37.67	25.07	-32.7	-33.6	25.0	0.00e+00	120	28	0	752877568	38	5954
2026-01-11 13:54:30.37	37.82	25.21	-32.8	-33.7	25.0	0.00e+00	123	28	0	756023296	38	6036
2026-01-11 13:54:31.38	37.96	25.35	-32.9	-33.8	24.9	0.00e+00	123	28	0	759169024	38	6103
2026-01-11 13:54:32.39	38.11	25.49	-32.9	-33.8	24.9	0.00e+00	122	28	0	762314752	38	6111
2026-01-11 13:54:33.40	38.26	25.63	-33.0	-33.8	24.8	0.00e+00	122	28	0	765460480	38	6131
2026-01-11 13:54:34.41	38.41	25.77	-32.9	-33.8	24.9	0.00e+00	122	28	0	768606208	38	6117
2026-01-11 13:54:35.42	38.56	25.92	-33.1	-34.0	24.8	0.00e+00	120	28	0	771751936	38	6217
2026-01-11 13:54:36.43	38.71	26.06	-33.1	-34.0	24.8	0.00e+00	122	28	0	774897664	38	6230
2026-01-11 13:54:37.44	38.87	26.20	-33.2	-34.1	24.8	0.00e+00	120	28	0	778043392	38	6288
2026-01-11 13:54:38.45	39.02	26.35	-33.2	-34.1	24.7	0.00e+00	123	28	0	781189120	38	6298
2026-01-11 13:54:39.46	39.18	26.49	-33.3	-34.2	24.6	0.00e+00	122	28	0	784334848	38	6384
2026-01-11 13:54:40.47	39.34	26.64	-33.2	-34.1	24.8	0.00e+00	123	28	0	787480576	38	6291
2026-01-11 13:54:41.48	39.50	26.79	-33.3	-34.2	24.6	0.00e+00	123	28	0	790626304	38	6398
2026-01-11 13:54:42.49	39.66	26.93	-33.4	-34.2	24.6	0.00e+00	122	28	0	793772032	38	6414
2026-01-11 13:54:43.50	39.82	27.08	-33.4	-34.3	24.6	0.00e+00	122	28	0	796917760	38	6443
2026-01-11 13:54:44.51	39.98	27.23	-33.5	-34.4	24.5	0.00e+00	123	28	0	800063488	38	6553
2026-01-11 13:54:45.52	40.15	27.38	-33.7	-34.6	24.4	0.00e+00	120	28	0	803209216	38	6669
2026-01-11 13:54:46.53	40.31	27.53	-33.5	-34.4	24.5	0.00e+00	122	28	0	806354944	38	6499
2026-01-11 13:54:47.54	40.48	27.68	-33.6	-34.5	24.3	0.00e+00	122	28	0	809500672	38	6603
2026-01-11 13:54:48.55	40.65	27.83	-33.6	-34.5	24.2	0.00e+00	122	28	0	812646400	38	6646
2026-01-11 13:54:49.56	40.82	27.98	-33.8	-34.7	24.1	0.00e+00	123	28	0	815792128	38	6753
2026-01-11 13:54:50.57	41.00	28.13	-33.5	-34.4	24.2	0.00e+00	120	28	0	818937856	40	5847
2026-01-11 13:54:51.58	41.17	28.28	-33.6	-34.5	24.2	0.00e+00	123	28	0	823132160	40	5896
2026-01-11 13:54:52.59	41.35	28.43	-33.8	-34.7	24.1	0.00e+00	122	28	0	826277888	40	6051
2026-01-11 13:54:53.60	41.53	28.59	-33.8	-34.7	24.1	0.00e+00	122	28	0	829423616	40	6035
2026-01-11 13:54:54.61	41.71	28.74	-33.9	-34.8	23.9	0.00e+00	123	28	0	832569344	40	6129
2026-01-11 13:54:55.63	41.89	28.90	-33.7	-34.7	24.1	0.00e+00	123	28	0	834666496	40	5999
2026-01-11 13:54:56.64	42.07	29.05	-33.9	-34.8	23.9	0.00e+00	120	28	0	838860800	40	6131
2026-01-11 13:54:57.65	42.26	29.21	-33.6	-34.5	24.3	0.00e+00	122	28	0	842006528	40	5922
2026-01-11 13:54:58.66	42.44	29.36	-33.5	-34.4	24.3	0.00e+00	123	28	0	845152256	40	5793
2026-01-11 13:54:59.66	42.63	29.52	-33.4	-34.3	24.4	0.00e+00	120	28	0	848297984	40	5782
2026-01-11 13:55:00.68	42.82	29.68	-33.7	-34.6	24.2	0.00e+00	120	28	0	851443712	40	5942
2026-01-11 13:55:01.69	43.01	29.83	-33.7	-34.6	24.3	0.00e+00	123	28	0	854589440	40	5930
2026-01-11 13:55:02.69	43.21	29.99	-33.6	-34.5	24.2	0.00e+00	123	28	0	857735168	40	5916
2026-01-11 13:55:03.70	43.40	30.15	-33.7	-34.6	24.3	0.00e+00	123	28	0	860880896	40	5954
2026-01-11 13:55:04.72	43.60	30.31	-33.4	-34.3	24.5	0.00e+00	123	28	0	864026624	40	5768
2026-01-11 13:55:05.73	43.80	30.47	-33.3	-34.2	24.4	0.00e+00	120	28	0	867172352	40	5716
2026-01-11 13:55:06.74	44.00	30.63	-33.2	-34.1	24.5	0.00e+00	123	28	0	870318080	40	5623
2026-01-11 13:55:07.75	44.20	30.79	-33.1	-34.0	24.6	0.00e+00	123	28	0	873463808	40	5560
2026-01-11 13:55:08.75	44.41	30.95	-33.0	-33.8	24.7	0.00e+00	123	28	0	876609536	40	5463
2026-01-11 13:55:09.77	44.62	31.11	-33.0	-33.9	24.8	0.00e+00	122	28	0	879755264	40	5518
2026-01-11 13:55:10.78	44.83	31.27	-33.1	-34.0	24.8	0.00e+00	123	28	0	882900992	40	5532
2026-01-11 13:55:11.79	45.04	31.44	-33.2	-34.1	24.8	0.00e+00	122	28	0	886046720	40	5627
2026-01-11 13:55:12.80	45.25	31.60	-33.2	-34.0	24.8	0.00e+00	120	28	0	889192448	40	5585
2026-01-11 13:55:13.81	45.47	31.76	-33.0	-33.9	24.8	0.00e+00	122	28	0	892338176	40	5509
2026-01-11 13:55:14.82	45.68	31.93	-33.1	-34.0	24.7	0.00e+00	123	28	0	895483904	40	5575
2026-01-11 13:55:15.83	45.90	32.09	-33.2	-34.1	24.7	0.00e+00	123	28	0	898629632	40	5632
2026-01-11 13:55:16.84	46.13	32.26	-33.1	-34.0	24.7	0.00e+00	122	28	0	901775360	40	5566
2026-01-11 13:55:17.85	46.35	32.42	-33.2	-34.0	24.8	0.00e+00	121	28	0	904921088	40	5584
2026-01-11 13:55:18.86	46.58	32.59	-33.1	-34.0	24.8	0.00e+00	123	28	0	908066816	40	5564
2026-01-11 13:55:19.87	46.81	32.76	-33.2	-34.1	24.7	0.00e+00	120	28	0	911212544	40	5612
2026-01-11 13:55:20.88	47.04	32.92	-33.3	-34.2	24.7	0.00e+00	123	28	0	914358272	40	5660
2026-01-11 13:55:21.89	47.27	33.09	-33.5	-34.4	24.6	0.00e+00	120	28	0	917504000	40	5840
2026-01-11 13:55:22.91	47.51	33.26	-33.6	-34.5	24.4	0.00e+00	121	28	0	920649728	40	5875
2026-01-11 13:55:23.92	47.75	33.43	-33.8	-34.7	24.2	0.00e+00	123	28	0	923795456	40	6035
2026-01-11 13:55:24.93	47.99	33.60	-34.0	-35.0	24.0	0.00e+00	123	29	0	926941184	40	6218
2026-01-11 13:55:25.94	48.23	33.76	-34.3	-35.2	23.9	0.00e+00	122	28	0	930086912	40	6396
2026-01-11 13:55:26.95	48.48	33.93	-34.1	-35.1	24.0	0.00e+00	120	28	0	933232640	40	6281
2026-01-11 13:55:27.96	48.73	34.10	-34.3	-35.2	24.0	0.00e+00	122	28	0	936378368	40	6383
2026-01-11 13:55:28.96	48.97	34.27	-34.3	-35.2	23.9	0.00e+00	120	28	0	939524096	40	6397
2026-01-11 13:55:29.98	49.23	34.44	-34.4	-35.3	23.9	0.00e+00	122	28	0	942669824	40	6489
2026-01-11 13:55:30.99	49.49	34.61	-34.5	-35.4	23.8	0.00e+00	122	28	0	945815552	40	6509
2026-01-11 13:55:32.00	49.74	34.78	-34.5	-35.5	23.8	0.00e+00	123	29	0	948961280	40	6593
2026-01-11 13:55:33.01	50.00	34.96	-34.5	-35.5	23.7	0.00e+00	120	28	0	952107008	40	6574
2026-01-11 13:55:34.02	50.27	35.13	-34.5	-35.4	23.8	0.00e+00	122	28	0	955252736	40	6566
2026-01-11 13:55:35.03	50.54	35.30	-34.6	-35.5	23.6	0.00e+00	120	28	0	958398464	40	6626
2026-01-11 13:55:36.04	50.81	35.47	-34.5	-35.4	23.7	0.00e+00	123	28	0	961544192	40	6562
2026-01-11 13:55:37.05	51.08	35.64	-34.6	-35.6	23.7	0.00e+00	123	28	0	964689920	40	6655
2026-01-11 13:55:38.06	51.35	35.82	-34.9	-35.8	23.5	0.00e+00	122	29	0	967835648	42	6124
2026-01-11 13:55:39.07	51.63	35.99	-35.1	-36.1	23.2	0.00e+00	122	28	0	970981376	42	6314
2026-01-11 13:55:40.08	51.91	36.16	-35.4	-36.3	23.0	0.00e+00	123	29	0	974127104	42	6489
2026-01-11 13:55:41.09	52.20	36.33	-35.3	-36.3	23.1	0.00e+00	123	29	0	977272832	42	6482
2026-01-11 13:55:42.10	52.48	36.51	-35.2	-36.2	23.2	0.00e+00	123	28	0	980418560	42	6351
2026-01-11 13:55:43.11	52.77	36.68	-35.4	-36.3	23.1	0.00e+00	123	29	0	983564288	42	6466
2026-01-11 13:55:44.12	53.07	36.85	-35.3	-36.3	23.1	0.00e+00	122	29	0	986710016	42	6455
2026-01-11 13:55:45.13	53.36	37.03	-35.3	-36.3	23.1	0.00e+00	120	29	0	989855744	42	6435
2026-01-11 13:55:46.14	53.66	37.20	-35.4	-36.3	23.1	0.00e+00	123	29	0	993001472	42	6495
2026-01-11 13:55:47.15	53.96	37.38	-35.3	-36.2	23.1	0.00e+00	120	29	0	996147200	42	6406
2026-01-11 13:55:48.16	54.27	37.55	-35.4	-36.4	23.0	0.00e+00	123	29	0	999292928	42	6501
2026-01-11 13:55:49.17	54.58	37.72	-35.5	-36.5	23.0	0.00e+00	123	29	0	1002438656	42	6592
2026-01-11 13:55:50.18	54.89	37.90	-35.5	-36.4	23.0	0.00e+00	122	29	0	1005584384	42	6553
2026-01-11 13:55:51.19	55.20	38.07	-35.6	-36.6	22.9	0.00e+00	123	29	0	1008730112	42	6675
2026-01-11 13:55:52.20	55.52	38.24	-35.7	-36.7	22.7	0.00e+00	123	29	0	1011875840	42	6753
2026-01-11 13:55:53.21	55.84	38.42	-35.5	-36.5	22.7	0.00e+00	120	29	0	1015021568	42	6603
2026-01-11 13:55:54.22	56.17	38.59	-35.7	-36.7	22.6	0.00e+00	123	29	0	1018167296	42	6776
2026-01-11 13:55:55.23	56.50	38.76	-35.5	-36.5	22.8	0.00e+00	123	29	0	1021313024	42	6620
2026-01-11 13:55:56.24	56.83	38.94	-35.6	-36.6	22.8	0.00e+00	120	29	0	1024458752	42	6682
2026-01-11 13:55:57.25	57.17	39.11	-35.6	-36.6	22.8	0.00e+00	123	29	0	1027604480	42	6708
2026-01-11 13:55:58.26	57.51	39.28	-35.8	-36.8	22.6	0.00e+00	123	29	0	1030750208	44	6129
2026-01-11 13:55:59.27	57.85	39.46	-35.7	-36.7	22.6	0.00e+00	123	29	0	1033895936	44	6057
2026-01-11 13:56:00.28	58.20	39.63	-35.7	-36.7	22.7	0.00e+00	122	29	0	1037041664	44	6031
2026-01-11 13:56:01.29	58.55	39.80	-35.8	-36.8	22.6	0.00e+00	123	29	0	1040187392	44	6074
2026-01-11 13:56:02.30	58.90	39.97	-35.8	-36.8	22.6	0.00e+00	123	29	0	1043333120	44	6104
2026-01-11 13:56:03.31	59.26	40.14	-36.0	-37.0	22.3	0.00e+00	122	29	0	1046478848	44	6237
2026-01-11 13:56:04.32	59.62	40.31	-36.0	-37.1	22.3	0.00e+00	120	29	0	1049624576	44	6283
2026-01-11 13:56:05.33	59.98	40.48	-36.1	-37.2	22.3	0.00e+00	122	29	0	1052770304	44	6363
2026-01-11 13:56:06.34	60.35	40.65	-36.0	-37.0	22.4	0.00e+00	120	29	0	1055916032	44	6272
2026-01-11 13:56:07.35	60.73	40.82	-35.8	-36.8	22.7	0.00e+00	122	29	0	1059061760	44	6123
2026-01-11 13:56:08.36	61.10	40.99	-36.0	-37.0	22.6	0.00e+00	122	29	0	1062207488	44	6219
2026-01-11 13:56:09.37	61.48	41.16	-36.0	-37.0	22.6	0.00e+00	122	29	0	1065353216	44	6226
2026-01-11 13:56:10.38	61.87	41.33	-36.2	-37.2	22.4	0.00e+00	122	29	0	1068498944	44	6399
2026-01-11 13:56:11.39	62.26	41.49	-35.9	-36.9	22.6	0.00e+00	123	29	0	1071644672	44	6190
2026-01-11 13:56:12.40	62.65	41.66	-36.1	-37.1	22.5	0.00e+00	122	29	0	1074790400	44	6301
2026-01-11 13:56:13.41	63.04	41.83	-36.2	-37.2	22.4	0.00e+00	123	29	0	1077936128	44	6361
2026-01-11 13:56:14.42	63.44	41.99	-36.1	-37.1	22.4	0.00e+00	122	29	0	1081081856	44	6339
2026-01-11 13:56:15.43	63.85	42.16	-36.4	-37.5	22.2	0.00e+00	122	29	0	1084227584	44	6579
2026-01-11 13:56:16.44	64.26	42.32	-36.4	-37.4	22.1	0.00e+00	123	29	0	1087373312	44	6551
2026-01-11 13:56:17.45	64.67	42.48	-36.2	-37.3	22.3	0.00e+00	123	29	0	1090519040	44	6425
2026-01-11 13:56:18.46	65.09	42.64	-36.3	-37.4	22.1	0.00e+00	120	29	0	1093664768	44	6544
2026-01-11 13:56:19.47	65.51	42.80	-36.6	-37.6	21.8	0.00e+00	123	29	0	1096810496	44	6715
2026-01-11 13:56:20.48	65.93	42.96	-36.7	-37.8	21.8	0.00e+00	120	29	0	1099956224	46	6084
2026-01-11 13:56:21.49	66.36	43.12	-36.6	-37.7	22.0	0.00e+00	123	29	0	1103101952	46	6021
2026-01-11 13:56:22.49	66.79	43.28	-36.4	-37.4	22.2	0.00e+00	122	29	0	1106247680	46	5844
2026-01-11 13:56:23.50	67.23	43.43	-36.2	-37.2	22.3	0.00e+00	123	29	0	1109393408	46	5721
2026-01-11 13:56:24.51	67.67	43.59	-36.1	-37.1	22.4	0.00e+00	120	29	0	1112539136	46	5658
2026-01-11 13:56:25.53	68.12	43.74	-36.1	-37.1	22.3	0.00e+00	123	29	0	1115684864	46	5633
2026-01-11 13:56:26.53	68.57	43.89	-36.3	-37.3	22.1	0.00e+00	122	29	0	1119879168	46	5772
2026-01-11 13:56:27.54	69.02	44.04	-36.3	-37.4	22.1	0.00e+00	122	29	0	1123024896	46	5809
2026-01-11 13:56:28.56	69.49	44.19	-36.4	-37.5	22.1	0.00e+00	123	29	0	1126170624	46	5896
2026-01-11 13:56:29.57	69.95	44.34	-35.8	-36.7	22.7	0.00e+00	120	29	0	1128267776	46	5392
2026-01-11 13:56:30.58	70.42	44.49	-35.5	-36.5	22.7	0.00e+00	123	29	0	1131413504	44	5893
2026-01-11 13:56:31.59	70.89	44.63	-35.5	-36.5	22.6	0.00e+00	123	29	0	1135607808	44	5889
2026-01-11 13:56:32.60	71.36	44.78	-35.5	-36.6	22.5	0.00e+00	123	29	0	1138753536	44	5927
2026-01-11 13:56:33.61	71.84	44.92	-35.7	-36.7	22.6	0.00e+00	123	29	0	1141899264	44	6008
2026-01-11 13:56:34.62	72.33	45.06	-35.8	-36.8	22.5	0.00e+00	123	29	0	1145044992	44	6125
2026-01-11 13:56:35.63	72.82	45.20	-35.8	-36.8	22.6	0.00e+00	122	29	0	1148190720	44	6067
2026-01-11 13:56:36.64	73.31	45.34	-35.8	-36.9	22.6	0.00e+00	123	29	0	1151336448	44	6141
2026-01-11 13:56:37.64	73.80	45.47	-35.4	-36.4	22.9	0.00e+00	123	29	0	1154482176	44	5839
2026-01-11 13:56:38.65	74.30	45.60	-35.5	-36.5	22.7	0.00e+00	123	29	0	1157627904	44	5883
2026-01-11 13:56:39.66	74.81	45.73	-35.8	-36.8	22.4	0.00e+00	118	29	0	1160773632	44	6123
2026-01-11 13:56:40.67	75.32	45.86	-36.0	-37.1	22.3	0.00e+00	122	29	0	1163919360	44	6291
2026-01-11 13:56:41.68	75.83	45.99	-36.0	-37.0	22.5	0.00e+00	122	29	0	1167065088	44	6208
2026-01-11 13:56:42.69	76.35	46.11	-35.9	-36.9	22.6	0.00e+00	123	29	0	1170210816	44	6154
2026-01-11 13:56:43.70	76.87	46.24	-36.0	-37.0	22.5	0.00e+00	122	29	0	1173356544	44	6215
2026-01-11 13:56:44.71	77.40	46.36	-36.2	-37.2	22.3	0.00e+00	122	29	0	1176502272	44	6391
2026-01-11 13:56:45.72	77.93	46.48	-36.4	-37.4	22.1	0.00e+00	123	29	0	1179648000	44	6547
2026-01-11 13:56:46.73	78.46	46.59	-36.4	-37.5	22.0	0.00e+00	123	29	0	1182793728	44	6574
2026-01-11 13:56:47.74	79.00	46.70	-36.4	-37.4	22.2	0.00e+00	122	29	0	1185939456	44	6552
2026-01-11 13:56:48.75	79.54	46.82	-36.4	-37.4	22.1	0.00e+00	123	29	0	1189085184	44	6523
2026-01-11 13:56:49.76	80.09	46.92	-36.3	-37.3	22.3	0.00e+00	123	29	0	1192230912	44	6497
2026-01-11 13:56:50.77	80.64	47.03	-35.9	-36.9	22.6	0.00e+00	122	29	0	1195376640	44	6197
2026-01-11 13:56:51.78	81.19	47.13	-35.4	-36.4	23.0	0.00e+00	122	29	0	1198522368	44	5816
2026-01-11 13:56:52.79	81.75	47.24	-35.6	-36.5	23.0	0.00e+00	123	29	0	1201668096	44	5919
2026-01-11 13:56:53.80	82.31	47.33	-35.7	-36.7	22.8	0.00e+00	123	29	0	1204813824	44	6039
2026-01-11 13:56:54.81	82.87	47.43	-36.0	-37.0	22.5	0.00e+00	122	29	0	1207959552	44	6239
2026-01-11 13:56:55.82	83.44	47.52	-36.0	-37.1	22.3	0.00e+00	120	29	0	1211105280	44	6285
2026-01-11 13:56:56.83	84.01	47.61	-35.7	-36.6	22.7	0.00e+00	120	29	0	1214251008	44	5993
2026-01-11 13:56:57.84	84.58	47.70	-35.2	-36.1	23.2	0.00e+00	123	29	0	1217396736	44	5632
2026-01-11 13:56:58.85	85.16	47.78	-35.0	-36.0	23.3	0.00e+00	120	29	0	1220542464	44	5549
2026-01-11 13:56:59.86	85.74	47.87	-35.3	-36.3	22.9	0.00e+00	123	29	0	1223688192	44	5781
2026-01-11 13:57:00.87	86.32	47.94	-35.5	-36.5	22.8	0.00e+00	122	29	0	1226833920	44	5875
2026-01-11 13:57:01.88	86.90	48.02	-35.4	-36.4	23.0	0.00e+00	122	29	0	1229979648	44	5832
2026-01-11 13:57:02.89	87.49	48.09	-35.5	-36.5	22.9	0.00e+00	120	29	0	1233125376	44	5893
2026-01-11 13:57:03.90	88.08	48.16	-35.6	-36.6	22.7	0.00e+00	122	29	0	1236271104	44	5927
2026-01-11 13:57:04.91	88.68	48.23	-35.7	-36.7	22.4	0.00e+00	120	29	0	1239416832	44	6044
2026-01-11 13:57:05.92	89.27	48.29	-35.5	-36.5	22.8	0.00e+00	123	29	0	1242562560	44	5859
2026-01-11 13:57:06.93	89.87	48.35	-35.4	-36.4	22.9	0.00e+00	120	29	0	1245708288	44	5835
2026-01-11 13:57:07.94	90.47	48.41	-35.5	-36.4	22.9	0.00e+00	123	29	0	1248854016	44	5832
2026-01-11 13:57:08.95	91.08	48.46	-35.6	-36.6	22.8	0.00e+00	122	29	0	1251999744	44	5937
2026-01-11 13:57:09.96	91.68	48.51	-36.3	-37.3	22.2	0.00e+00	123	29	0	1255145472	44	6497
2026-01-11 13:57:10.97	92.29	48.56	-36.2	-37.2	22.3	0.00e+00	123	29	0	1258291200	44	6408
2026-01-11 13:57:11.98	92.90	48.60	-35.8	-36.8	22.7	0.00e+00	123	29	0	1261436928	44	6092
2026-01-11 13:57:12.99	93.51	48.64	-35.9	-36.9	22.7	0.00e+00	123	29	0	1264582656	44	6157
2026-01-11 13:57:14.00	94.12	48.68	-35.9	-36.9	22.7	0.00e+00	121	29	0	1267728384	44	6169
2026-01-11 13:57:15.01	94.73	48.71	-35.7	-36.7	22.8	0.00e+00	123	29	0	1270874112	44	6013
2026-01-11 13:57:16.02	95.35	48.74	-35.7	-36.6	22.8	0.00e+00	123	29	0	1274019840	44	5994
2026-01-11 13:57:17.03	95.96	48.76	-35.7	-36.7	22.8	0.00e+00	123	29	0	1277165568	44	6003
2026-01-11 13:57:18.04	96.58	48.79	-35.8	-36.7	22.6	0.00e+00	123	29	0	1280311296	44	6034
2026-01-11 13:57:19.05	97.20	48.81	-36.1	-37.1	22.5	0.00e+00	123	29	0	1283457024	44	6347
2026-01-11 13:57:20.06	97.81	48.82	-35.6	-36.6	22.8	0.00e+00	123	29	0	1286602752	44	5978
2026-01-11 13:57:21.07	98.43	48.83	-35.6	-36.6	22.8	0.00e+00	123	29	0	1289748480	44	5957
2026-01-11 13:57:22.08	99.05	48.84	-35.7	-36.6	22.7	0.00e+00	123	29	0	1292894208	44	5981
2026-01-11 13:57:23.09	99.67	48.85	-35.5	-36.5	22.9	0.00e+00	124	29	0	1296039936	44	5901
2026-01-11 13:57:24.10	100.29	48.85	-35.5	-36.4	23.0	0.00e+00	123	29	0	1299185664	44	5835
2026-01-11 13:57:25.11	100.91	48.85	-35.2	-36.2	23.2	0.00e+00	123	29	0	1302331392	44	5661
2026-01-11 13:57:26.12	101.53	48.84	-35.3	-36.3	23.1	0.00e+00	123	29	0	1305477120	44	5755
2026-01-11 13:57:27.13	102.15	48.83	-35.7	-36.7	22.8	0.00e+00	120	29	0	1308622848	44	6012
2026-01-11 13:57:28.15	102.77	48.82	-35.9	-36.9	22.5	0.00e+00	122	29	0	1311768576	44	6189
2026-01-11 13:57:29.15	103.38	48.81	-35.7	-36.7	22.5	0.00e+00	122	29	0	1314914304	44	6060
2026-01-11 13:57:30.17	104.01	48.79	-35.7	-36.7	22.7	0.00e+00	122	29	0	1318060032	44	6041
2026-01-11 13:57:31.18	104.62	48.76	-35.6	-36.6	22.9	0.00e+00	123	29	0	1321205760	44	5945
2026-01-11 13:57:32.19	105.24	48.74	-35.5	-36.5	22.9	0.00e+00	122	29	0	1324351488	44	5886
2026-01-11 13:57:33.20	105.85	48.71	-36.0	-37.0	22.4	0.00e+00	123	29	0	1327497216	44	6231
2026-01-11 13:57:34.21	106.47	48.67	-36.2	-37.3	22.2	0.00e+00	122	29	0	1330642944	44	6450
2026-01-11 13:57:35.22	107.08	48.64	-35.8	-36.8	22.5	0.00e+00	122	29	0	1333788672	44	6120
2026-01-11 13:57:36.23	107.69	48.60	-35.9	-36.9	22.5	0.00e+00	122	29	0	1336934400	44	6168
2026-01-11 13:57:37.24	108.30	48.55	-35.8	-36.8	22.7	0.00e+00	120	29	0	1340080128	44	6098
2026-01-11 13:57:38.25	108.91	48.51	-35.7	-36.8	22.7	0.00e+00	120	29	0	1343225856	44	6102
2026-01-11 13:57:39.26	109.51	48.46	-35.9	-37.0	22.5	0.00e+00	123	29	0	1346371584	44	6218
2026-01-11 13:57:40.27	110.11	48.40	-36.2	-37.2	22.3	0.00e+00	120	29	0	1349517312	44	6401
2026-01-11 13:57:41.28	110.72	48.34	-36.8	-37.9	21.7	0.00e+00	123	29	0	1352663040	44	6955
2026-01-11 13:57:42.29	111.31	48.28	-37.1	-38.4	21.3	0.00e+00	122	29	0	1355808768	46	6502
2026-01-11 13:57:43.30	111.91	48.22	-37.1	-38.2	21.5	0.00e+00	120	29	0	1358954496	46	6390
2026-01-11 13:57:44.31	112.51	48.15	-36.8	-37.9	21.8	0.00e+00	123	29	0	1362100224	46	6160
2026-01-11 13:57:45.32	113.10	48.09	-36.1	-37.1	22.5	0.00e+00	123	29	0	1365245952	46	5652
2026-01-11 13:57:46.33	113.69	48.01	-35.6	-36.5	22.8	0.00e+00	122	29	0	1368391680	44	5920
2026-01-11 13:57:47.34	114.27	47.94	-35.5	-36.5	22.9	0.00e+00	120	29	0	1371537408	44	5915
2026-01-11 13:57:48.35	114.85	47.86	-35.9	-37.0	22.5	0.00e+00	123	29	0	1374683136	44	6247
2026-01-11 13:57:49.36	115.43	47.78	-35.6	-36.6	22.8	0.00e+00	122	30	0	1377828864	44	5949
2026-01-11 13:57:50.37	116.01	47.69	-35.5	-36.6	22.4	0.00e+00	123	30	0	1380974592	44	5942
2026-01-11 13:57:51.38	116.59	47.60	-35.6	-36.6	22.7	0.00e+00	121	30	0	1384120320	44	5992
2026-01-11 13:57:52.39	117.16	47.51	-34.8	-35.8	23.5	0.00e+00	123	30	0	1387266048	44	5424
2026-01-11 13:57:53.40	117.72	47.42	-34.9	-35.8	23.4	0.00e+00	120	29	0	1390411776	42	6116
2026-01-11 13:57:54.41	118.29	47.32	-35.1	-36.1	23.1	0.00e+00	123	29	0	1393557504	42	6289
2026-01-11 13:57:55.42	118.85	47.23	-35.5	-36.5	22.9	0.00e+00	122	29	0	1396703232	42	6614
2026-01-11 13:57:56.43	119.41	47.12	-35.7	-36.6	22.8	0.00e+00	122	29	0	1399848960	42	6720
2026-01-11 13:57:57.44	119.96	47.02	-35.7	-36.8	22.7	0.00e+00	122	29	0	1402994688	42	6805
2026-01-11 13:57:58.45	120.51	46.91	-35.7	-36.7	22.6	0.00e+00	123	30	0	1406140416	44	6035
2026-01-11 13:57:59.46	121.05	46.80	-35.6	-36.6	22.9	0.00e+00	123	29	0	1409286144	44	5945
2026-01-11 13:58:00.47	121.60	46.69	-35.3	-36.3	23.1	0.00e+00	120	29	0	1412431872	44	5745
2026-01-11 13:58:01.48	122.14	46.58	-35.2	-36.1	23.3	0.00e+00	123	29	0	1415577600	44	5614
2026-01-11 13:58:02.49	122.67	46.46	-35.3	-36.2	23.2	0.00e+00	123	29	0	1418723328	44	5721
2026-01-11 13:58:03.50	123.20	46.34	-35.4	-36.4	23.1	0.00e+00	122	29	0	1421869056	44	5812
2026-01-11 13:58:04.51	123.73	46.22	-35.6	-36.6	22.8	0.00e+00	120	29	0	1425014784	44	5957
2026-01-11 13:58:05.52	124.25	46.10	-35.4	-36.4	22.9	0.00e+00	123	30	0	1428160512	44	5800
2026-01-11 13:58:06.53	124.77	45.97	-35.3	-36.2	23.0	0.00e+00	122	29	0	1431306240	44	5710
2026-01-11 13:58:07.54	125.28	45.85	-35.4	-36.3	23.0	0.00e+00	122	29	0	1435500544	44	5760
2026-01-11 13:58:08.55	125.79	45.72	-35.4	-36.3	23.1	0.00e+00	122	29	0	1438646272	44	5768
2026-01-11 13:58:09.56	126.30	45.58	-35.3	-36.2	23.1	0.00e+00	120	29	0	1441792000	44	5724
2026-01-11 13:58:10.57	126.80	45.45	-35.5	-36.5	23.0	0.00e+00	122	30	0	1443889152	44	5863
2026-01-11 13:58:11.58	127.30	45.32	-35.6	-36.6	22.9	0.00e+00	123	29	0	1448083456	44	5978
2026-01-11 13:58:12.59	127.79	45.18	-35.7	-36.6	22.8	0.00e+00	122	29	0	1451229184	44	5987
2026-01-11 13:58:13.60	128.28	45.04	-35.7	-36.7	22.6	0.00e+00	123	29	0	1454374912	44	6008
2026-01-11 13:58:14.61	128.77	44.90	-35.4	-36.4	22.8	0.00e+00	120	29	0	1457520640	44	5829
2026-01-11 13:58:15.62	129.25	44.76	-35.1	-36.1	23.2	0.00e+00	122	30	0	1460666368	44	5605
2026-01-11 13:58:16.63	129.72	44.61	-35.1	-36.0	23.3	0.00e+00	123	29	0	1463812096	44	5563
2026-01-11 13:58:17.64	130.20	44.47	-35.4	-36.4	23.1	0.00e+00	123	30	0	1466957824	44	5799
2026-01-11 13:58:18.65	130.66	44.32	-35.8	-36.8	22.6	0.00e+00	120	29	0	1470103552	44	6109
2026-01-11 13:58:19.66	131.13	44.17	-36.3	-37.3	22.2	0.00e+00	123	29	0	1473249280	44	6444
2026-01-11 13:58:20.67	131.59	44.02	-36.4	-37.5	22.0	0.00e+00	120	29	0	1476395008	44	6600
2026-01-11 13:58:21.68	132.04	43.87	-36.6	-37.7	21.9	0.00e+00	123	29	0	1479540736	44	6766
2026-01-11 13:58:22.69	132.49	43.71	-36.6	-37.6	22.1	0.00e+00	122	30	0	1482686464	44	6726
2026-01-11 13:58:23.70	132.94	43.56	-36.7	-37.7	21.9	0.00e+00	120	30	0	1485832192	44	6779
2026-01-11 13:58:24.71	133.38	43.40	-36.9	-38.0	21.7	0.00e+00	123	30	0	1488977920	46	6254
2026-01-11 13:58:25.72	133.82	43.25	-36.7	-37.7	22.0	0.00e+00	120	30	0	1492123648	46	6029
2026-01-11 13:58:26.73	134.26	43.09	-36.7	-37.8	21.8	0.00e+00	122	30	0	1495269376	46	6091
2026-01-11 13:58:27.74	134.68	42.93	-36.9	-37.9	21.8	0.00e+00	122	30	0	1498415104	46	6190
2026-01-11 13:58:28.75	135.11	42.77	-36.7	-37.7	21.9	0.00e+00	123	29	0	1501560832	46	6023
2026-01-11 13:58:29.76	135.53	42.61	-36.3	-37.4	22.3	0.00e+00	122	30	0	1504706560	46	5802
2026-01-11 13:58:30.77	135.95	42.45	-36.1	-37.1	22.5	0.00e+00	122	30	0	1507852288	46	5622
2026-01-11 13:58:31.77	136.36	42.29	-36.0	-37.0	22.7	0.00e+00	122	30	0	1510998016	46	5536
2026-01-11 13:58:32.79	136.77	42.12	-35.9	-36.9	22.6	0.00e+00	122	30	0	1514143744	44	6148
2026-01-11 13:58:33.80	137.18	41.96	-35.5	-36.5	23.0	0.00e+00	123	30	0	1517289472	44	5892
2026-01-11 13:58:34.81	137.58	41.79	-35.5	-36.4	23.0	0.00e+00	123	30	0	1520435200	44	5852
2026-01-11 13:58:35.82	137.97	41.62	-35.5	-36.5	22.8	0.00e+00	120	30	0	1523580928	44	5881
2026-01-11 13:58:36.83	138.37	41.46	-35.4	-36.4	23.0	0.00e+00	120	30	0	1526726656	44	5797
2026-01-11 13:58:37.84	138.76	41.29	-35.1	-36.0	23.2	0.00e+00	123	30	0	1529872384	44	5593
2026-01-11 13:58:38.84	139.14	41.12	-35.1	-36.0	23.2	0.00e+00	123	30	0	1533018112	44	5581
2026-01-11 13:58:39.86	139.52	40.95	-35.2	-36.1	23.2	0.00e+00	123	30	0	1536163840	44	5651
2026-01-11 13:58:40.86	139.89	40.78	-35.3	-36.2	23.1	0.00e+00	123	30	0	1539309568	44	5709
2026-01-11 13:58:41.87	140.27	40.61	-35.5	-36.5	22.8	0.00e+00	123	30	0	1542455296	44	5872
2026-01-11 13:58:42.88	140.64	40.44	-35.8	-36.9	22.5	0.00e+00	123	30	0	1545601024	44	6137
2026-01-11 13:58:43.89	141.00	40.27	-36.1	-37.1	22.5	0.00e+00	122	30	0	1548746752	44	6282
2026-01-11 13:58:44.90	141.36	40.10	-36.2	-37.2	22.3	0.00e+00	123	30	0	1551892480	44	6384
2026-01-11 13:58:45.91	141.72	39.93	-36.5	-37.5	22.1	0.00e+00	122	30	0	1555038208	44	6591
2026-01-11 13:58:46.92	142.08	39.75	-36.7	-37.7	21.8	0.00e+00	122	30	0	1558183936	44	6797
2026-01-11 13:58:47.93	142.43	39.58	-36.8	-37.9	21.9	0.00e+00	123	30	0	1561329664	46	6150
2026-01-11 13:58:48.94	142.77	39.41	-36.5	-37.5	22.1	0.00e+00	122	30	0	1564475392	46	5895
2026-01-11 13:58:49.95	143.12	39.24	-36.0	-37.0	22.5	0.00e+00	123	30	0	1567621120	46	5533
2026-01-11 13:58:50.96	143.46	39.06	-35.7	-36.7	22.6	0.00e+00	123	30	0	1570766848	44	6008
2026-01-11 13:58:51.97	143.79	38.89	-35.6	-36.6	22.7	0.00e+00	123	30	0	1573912576	44	5981
2026-01-11 13:58:52.98	144.13	38.71	-35.9	-36.9	22.5	0.00e+00	123	30	0	1577058304	44	6170
2026-01-11 13:58:53.99	144.46	38.54	-36.0	-37.0	22.5	0.00e+00	122	30	0	1580204032	44	6251
2026-01-11 13:58:55.00	144.78	38.37	-35.6	-36.6	22.7	0.00e+00	122	30	0	1583349760	44	5944
2026-01-11 13:58:56.01	145.10	38.19	-35.6	-36.6	22.9	0.00e+00	123	30	0	1586495488	44	5974
2026-01-11 13:58:57.02	145.42	38.02	-35.7	-36.7	22.8	0.00e+00	123	30	0	1589641216	44	6036
2026-01-11 13:58:58.03	145.74	37.84	-35.4	-36.4	23.0	0.00e+00	123	30	0	1592786944	44	5800
2026-01-11 13:58:59.04	146.05	37.67	-35.6	-36.6	22.8	0.00e+00	123	30	0	1595932672	44	5967
2026-01-11 13:59:00.05	146.36	37.49	-35.1	-36.1	23.2	0.00e+00	123	30	0	1599078400	44	5634
2026-01-11 13:59:01.06	146.67	37.32	-35.0	-35.9	23.4	0.00e+00	123	30	0	1602224128	44	5514
2026-01-11 13:59:02.07	146.97	37.14	-34.9	-35.9	23.4	0.00e+00	123	30	0	1605369856	44	5487
2026-01-11 13:59:03.08	147.27	36.97	-34.8	-35.7	23.5	0.00e+00	121	30	0	1608515584	44	5370
2026-01-11 13:59:04.10	147.57	36.79	-35.0	-35.9	23.5	0.00e+00	123	30	0	1611661312	42	6171
2026-01-11 13:59:05.10	147.86	36.62	-35.2	-36.2	23.1	0.00e+00	123	30	0	1614807040	42	6392
2026-01-11 13:59:06.11	148.15	36.45	-35.6	-36.6	23.0	0.00e+00	123	30	0	1617952768	42	6689
2026-01-11 13:59:07.12	148.43	36.27	-35.6	-36.6	23.0	0.00e+00	123	30	0	1621098496	42	6655
2026-01-11 13:59:08.13	148.72	36.10	-35.6	-36.6	23.0	0.00e+00	122	30	0	1624244224	42	6664
2026-01-11 13:59:09.14	149.00	35.92	-35.4	-36.4	23.0	0.00e+00	122	30	0	1627389952	42	6515
2026-01-11 13:59:10.15	149.28	35.75	-35.2	-36.1	23.2	0.00e+00	122	30	0	1630535680	42	6347
2026-01-11 13:59:11.16	149.55	35.58	-35.1	-36.0	23.3	0.00e+00	120	30	0	1633681408	42	6263
2026-01-11 13:59:12.17	149.83	35.40	-34.6	-35.6	23.6	0.00e+00	123	30	0	1636827136	42	5939
2026-01-11 13:59:13.18	150.10	35.23	-34.5	-35.5	23.4	0.00e+00	123	30	0	1639972864	42	5886
2026-01-11 13:59:14.19	150.36	35.06	-34.8	-35.8	23.2	0.00e+00	123	30	0	1643118592	42	6120
2026-01-11 13:59:15.20	150.63	34.89	-35.1	-36.1	23.2	0.00e+00	123	30	0	1646264320	42	6330
2026-01-11 13:59:16.21	150.89	34.72	-35.1	-36.0	23.3	0.00e+00	123	30	0	1649410048	42	6261
2026-01-11 13:59:17.22	151.15	34.54	-35.1	-36.0	23.3	0.00e+00	120	30	0	1652555776	42	6272
2026-01-11 13:59:18.23	151.40	34.37	-35.1	-36.0	23.3	0.00e+00	123	30	0	1655701504	42	6267
2026-01-11 13:59:19.24	151.66	34.20	-35.0	-35.9	23.4	0.00e+00	122	30	0	1658847232	42	6199
2026-01-11 13:59:20.25	151.91	34.03	-35.1	-36.0	23.4	0.00e+00	123	30	0	1661992960	42	6244
2026-01-11 13:59:21.26	152.16	33.86	-34.8	-35.8	23.6	0.00e+00	123	30	0	1665138688	42	6090
2026-01-11 13:59:22.27	152.40	33.69	-34.9	-35.8	23.6	0.00e+00	122	30	0	1668284416	42	6094
2026-01-11 13:59:23.28	152.64	33.52	-35.1	-36.1	23.3	0.00e+00	123	30	0	1671430144	42	6280
2026-01-11 13:59:24.29	152.89	33.35	-35.2	-36.2	23.3	0.00e+00	122	30	0	1674575872	42	6360
2026-01-11 13:59:25.30	153.12	33.18	-34.7	-35.6	23.7	0.00e+00	120	30	0	1677721600	42	5993
2026-01-11 13:59:26.31	153.36	33.01	-34.8	-35.7	23.6	0.00e+00	122	30	0	1680867328	42	6026
2026-01-11 13:59:27.32	153.59	32.85	-34.5	-35.4	23.7	0.00e+00	122	30	0	1684013056	42	5811
2026-01-11 13:59:28.33	153.82	32.68	-34.3	-35.2	23.9	0.00e+00	123	30	0	1687158784	42	5687
2026-01-11 13:59:29.34	154.05	32.51	-34.3	-35.2	23.8	0.00e+00	120	30	0	1690304512	42	5686
2026-01-11 13:59:30.35	154.28	32.34	-34.0	-35.0	23.8	0.00e+00	123	30	0	1693450240	42	5536
2026-01-11 13:59:31.36	154.50	32.18	-34.0	-35.0	23.7	0.00e+00	120	30	0	1696595968	42	5549
2026-01-11 13:59:32.37	154.73	32.01	-34.1	-35.0	23.8	0.00e+00	122	30	0	1699741696	42	5563
2026-01-11 13:59:33.38	154.95	31.85	-34.2	-35.1	23.9	0.00e+00	120	30	0	1702887424	42	5622
2026-01-11 13:59:34.39	155.16	31.68	-33.8	-34.8	24.3	0.00e+00	120	30	0	1706033152	42	5410
2026-01-11 13:59:35.40	155.38	31.52	-33.5	-34.4	24.4	0.00e+00	122	30	0	1709178880	40	5798
2026-01-11 13:59:36.41	155.59	31.35	-33.3	-34.2	24.5	0.00e+00	121	30	0	1712324608	40	5679
2026-01-11 13:59:37.42	155.81	31.19	-33.2	-34.1	24.7	0.00e+00	123	30	0	1715470336	40	5618
2026-01-11 13:59:38.42	156.01	31.03	-33.1	-34.0	24.7	0.00e+00	122	30	0	1718616064	40	5545
2026-01-11 13:59:39.43	156.22	30.87	-33.2	-34.1	24.6	0.00e+00	126	30	0	1721761792	40	5595
2026-01-11 13:59:40.44	156.43	30.70	-33.1	-34.0	24.7	0.00e+00	120	30	0	1724907520	40	5575
2026-01-11 13:59:41.45	156.63	30.54	-33.3	-34.2	24.6	0.00e+00	120	30	0	1728053248	40	5675
2026-01-11 13:59:42.46	156.83	30.38	-33.4	-34.3	24.6	0.00e+00	123	30	0	1731198976	40	5744
2026-01-11 13:59:43.47	157.03	30.22	-33.3	-34.2	24.6	0.00e+00	123	30	0	1734344704	40	5694
2026-01-11 13:59:44.48	157.23	30.06	-33.3	-34.2	24.6	0.00e+00	122	30	0	1737490432	40	5662
2026-01-11 13:59:45.49	157.42	29.90	-33.2	-34.1	24.7	0.00e+00	121	30	0	1740636160	40	5631
2026-01-11 13:59:46.50	157.62	29.74	-33.2	-34.1	24.7	0.00e+00	122	30	0	1743781888	40	5650
2026-01-11 13:59:47.50	157.81	29.59	-33.2	-34.1	24.8	0.00e+00	123	30	0	1746927616	40	5629
2026-01-11 13:59:48.51	158.00	29.43	-33.3	-34.1	24.8	0.00e+00	123	30	0	1750073344	40	5658
2026-01-11 13:59:49.53	158.19	29.27	-33.2	-34.0	24.7	0.00e+00	123	30	0	1753219072	40	5594
2026-01-11 13:59:50.54	158.37	29.11	-33.2	-34.0	24.8	0.00e+00	120	30	0	1757413376	40	5586
2026-01-11 13:59:51.55	158.56	28.96	-33.2	-34.1	24.8	0.00e+00	123	30	0	1759510528	40	5611
2026-01-11 13:59:52.55	158.74	28.80	-33.3	-34.2	24.6	0.00e+00	122	30	0	1762656256	40	5692
2026-01-11 13:59:53.56	158.92	28.65	-33.3	-34.2	24.7	0.00e+00	122	30	0	1765801984	40	5665
2026-01-11 13:59:54.58	159.10	28.49	-33.5	-34.3	24.5	0.00e+00	123	30	0	1768947712	40	5791
2026-01-11 13:59:55.59	159.28	28.34	-33.5	-34.4	24.6	0.00e+00	123	30	0	1773142016	40	5795
2026-01-11 13:59:56.60	159.46	28.18	-33.6	-34.5	24.4	0.00e+00	120	30	0	1776287744	40	5864
2026-01-11 13:59:57.61	159.63	28.03	-33.6	-34.6	24.4	0.00e+00	123	30	0	1779433472	40	5929
2026-01-11 13:59:58.62	159.80	27.88	-33.4	-34.3	24.6	0.00e+00	123	30	0	1781530624	40	5775
2026-01-11 13:59:59.63	159.97	27.73	-33.2	-34.1	24.7	0.00e+00	123	30	0	1785724928	40	5612
2026-01-11 14:00:00.64	160.14	27.58	-33.2	-34.1	24.7	0.00e+00	123	30	0	1788870656	40	5644
2026-01-11 14:00:01.65	160.31	27.43	-33.1	-33.9	24.9	0.00e+00	120	30	0	1792016384	40	5505
2026-01-11 14:00:02.66	160.48	27.28	-33.1	-34.0	24.7	0.00e+00	122	30	0	1795162112	40	5546
2026-01-11 14:00:03.67	160.64	27.13	-33.1	-33.9	24.8	0.00e+00	122	30	0	1798307840	40	5529
2026-01-11 14:00:04.68	160.81	26.98	-33.1	-34.0	24.8	0.00e+00	122	30	0	1801453568	40	5551
2026-01-11 14:00:05.69	160.97	26.83	-33.3	-34.2	24.7	0.00e+00	123	30	0	1804599296	40	5666
2026-01-11 14:00:06.70	161.13	26.68	-33.2	-34.0	24.7	0.00e+00	122	30	0	1807745024	40	5582
2026-01-11 14:00:07.71	161.29	26.54	-33.0	-33.9	24.9	0.00e+00	123	30	0	1810890752	40	5476
2026-01-11 14:00:08.73	161.45	26.39	-32.9	-33.8	24.9	0.00e+00	122	30	0	1814036480	40	5445
2026-01-11 14:00:09.73	161.61	26.24	-32.8	-33.7	25.0	0.00e+00	123	30	0	1817182208	40	5344
2026-01-11 14:00:10.74	161.76	26.10	-32.8	-33.6	25.1	0.00e+00	123	30	0	1820327936	38	5986
2026-01-11 14:00:11.75	161.91	25.95	-33.0	-33.8	24.9	0.00e+00	123	30	0	1823473664	38	6114
2026-01-11 14:00:12.76	162.07	25.81	-32.9	-33.7	24.9	0.00e+00	122	30	0	1826619392	38	6037
2026-01-11 14:00:13.77	162.22	25.66	-32.7	-33.6	25.0	0.00e+00	122	30	0	1829765120	38	5948
2026-01-11 14:00:14.78	162.37	25.52	-32.8	-33.7	25.0	0.00e+00	123	30	0	1832910848	38	6014
2026-01-11 14:00:15.78	162.51	25.38	-33.0	-33.8	24.8	0.00e+00	122	30	0	1836056576	38	6117
2026-01-11 14:00:16.79	162.66	25.24	-32.9	-33.8	24.9	0.00e+00	122	30	0	1839202304	38	6107
2026-01-11 14:00:17.80	162.81	25.10	-33.0	-33.9	24.9	0.00e+00	123	30	0	1842348032	38	6137
2026-01-11 14:00:18.81	162.95	24.96	-32.9	-33.8	24.9	0.00e+00	123	30	0	1845493760	38	6102
2026-01-11 14:00:19.82	163.10	24.82	-33.0	-33.9	24.9	0.00e+00	122	30	0	1848639488	38	6157
2026-01-11 14:00:20.83	163.24	24.68	-33.1	-34.0	24.8	0.00e+00	123	30	0	1851785216	38	6221
2026-01-11 14:00:21.84	163.38	24.54	-33.0	-33.9	24.8	0.00e+00	123	30	0	1854930944	38	6161
2026-01-11 14:00:22.85	163.52	24.40	-33.1	-34.0	24.8	0.00e+00	123	30	0	1858076672	38	6214
2026-01-11 14:00:23.85	163.66	24.26	-33.1	-34.0	24.8	0.00e+00	120	30	0	1861222400	38	6222
2026-01-11 14:00:24.86	163.79	24.12	-33.2	-34.1	24.7	0.00e+00	122	30	0	1864368128	38	6321
2026-01-11 14:00:25.87	163.93	23.99	-33.2	-34.1	24.7	0.00e+00	120	30	0	1867513856	38	6284
2026-01-11 14:00:26.88	164.07	23.85	-33.3	-34.2	24.6	0.00e+00	123	30	0	1870659584	38	6384
2026-01-11 14:00:27.89	164.20	23.72	-33.4	-34.3	24.5	0.00e+00	122	30	0	1873805312	38	6483
2026-01-11 14:00:28.90	164.33	23.58	-33.6	-34.5	24.2	0.00e+00	123	30	0	1876951040	38	6622
2026-01-11 14:00:29.91	164.46	23.45	-33.5	-34.4	24.3	0.00e+00	123	30	0	1880096768	38	6553
2026-01-11 14:00:30.92	164.59	23.31	-33.6	-34.5	24.2	0.00e+00	123	30	0	1883242496	38	6591
2026-01-11 14:00:31.93	164.72	23.18	-33.6	-34.6	24.2	0.00e+00	122	30	0	1886388224	38	6668
2026-01-11 14:00:32.94	164.85	23.04	-33.6	-34.5	24.2	0.00e+00	122	30	0	1889533952	38	6645
2026-01-11 14:00:33.95	164.98	22.91	-33.5	-34.5	24.3	0.00e+00	123	30	0	1892679680	38	6579
2026-01-11 14:00:34.96	165.11	22.78	-33.6	-34.5	24.3	0.00e+00	123	30	0	1895825408	38	6615
2026-01-11 14:00:35.97	165.23	22.65	-33.4	-34.4	24.4	0.00e+00	122	30	0	1898971136	38	6505
2026-01-11 14:00:36.98	165.36	22.52	-33.4	-34.3	24.5	0.00e+00	123	30	0	1902116864	38	6479
2026-01-11 14:00:37.99	165.48	22.39	-33.4	-34.3	24.4	0.00e+00	122	30	0	1905262592	38	6486
2026-01-11 14:00:39.00	165.60	22.26	-33.3	-34.2	24.5	0.00e+00	122	30	0	1908408320	38	6365
2026-01-11 14:00:40.01	165.72	22.13	-33.3	-34.2	24.5	0.00e+00	123	30	0	1911554048	38	6366
2026-01-11 14:00:41.02	165.85	22.00	-33.3	-34.2	24.5	0.00e+00	122	30	0	1914699776	38	6399
2026-01-11 14:00:42.03	165.96	21.87	-33.3	-34.2	24.5	0.00e+00	123	30	0	1917845504	38	6373
2026-01-11 14:00:43.04	166.08	21.74	-33.2	-34.0	24.5	0.00e+00	123	30	0	1920991232	38	6276
2026-01-11 14:00:44.05	166.20	21.62	-33.3	-34.2	24.4	0.00e+00	122	30	0	1924136960	38	6363
2026-01-11 14:00:45.06	166.32	21.49	-33.3	-34.2	24.4	0.00e+00	123	30	0	1927282688	38	6422
2026-01-11 14:00:46.07	166.43	21.36	-33.4	-34.3	24.5	0.00e+00	122	30	0	1930428416	38	6429
2026-01-11 14:00:47.08	166.55	21.24	-33.5	-34.4	24.3	0.00e+00	123	30	0	1933574144	38	6550
2026-01-11 14:00:48.09	166.66	21.11	-33.7	-34.6	24.3	0.00e+00	123	30	0	1936719872	38	6671
2026-01-11 14:00:49.10	166.78	20.99	-33.5	-34.4	24.5	0.00e+00	123	30	0	1939865600	38	6527
2026-01-11 14:00:50.11	166.89	20.86	-33.5	-34.4	24.5	0.00e+00	123	30	0	1943011328	38	6507
2026-01-11 14:00:51.12	167.00	20.74	-33.6	-34.5	24.4	0.00e+00	122	30	0	1946157056	38	6579
2026-01-11 14:00:52.13	167.11	20.62	-33.5	-34.4	24.4	0.00e+00	123	30	0	1949302784	38	6524
2026-01-11 14:00:53.14	167.22	20.50	-33.6	-34.5	24.4	0.00e+00	123	30	0	1952448512	38	6606
2026-01-11 14:00:54.16	167.33	20.37	-33.5	-34.3	24.5	0.00e+00	123	30	0	1955594240	38	6498
2026-01-11 14:00:55.16	167.44	20.25	-33.5	-34.4	24.4	0.00e+00	122	30	0	1958739968	38	6511
2026-01-11 14:00:56.18	167.55	20.13	-33.6	-34.5	24.4	0.00e+00	120	30	0	1961885696	38	6607
2026-01-11 14:00:57.18	167.65	20.01	-33.7	-34.6	24.3	0.00e+00	123	30	0	1965031424	38	6683
2026-01-11 14:00:58.19	167.76	19.89	-33.6	-34.5	24.3	0.00e+00	122	30	0	1968177152	40	5921
2026-01-11 14:00:59.20	167.86	19.77	-33.7	-34.6	24.2	0.00e+00	123	30	0	1971322880	40	5990
2026-01-11 14:01:00.22	167.97	19.65	-33.8	-34.7	24.1	0.00e+00	123	30	0	1974468608	40	6037
2026-01-11 14:01:01.22	168.07	19.53	-33.7	-34.7	24.2	0.00e+00	123	30	0	1977614336	40	6002
2026-01-11 14:01:02.24	168.17	19.41	-33.7	-34.6	24.2	0.00e+00	122	30	0	1980760064	40	5955
2026-01-11 14:01:03.25	168.27	19.29	-33.6	-34.5	24.2	0.00e+00	122	30	0	1983905792	40	5906
2026-01-11 14:01:04.26	168.38	19.18	-33.4	-34.3	24.3	0.00e+00	123	30	0	1987051520	40	5754
