passes_logs/2026/01/11/R4.6S_Anadyr/R4.6S_Anadyr__20260111_125938_NOAA_20_JPSS-1_rec.log

#Pass ID: 20260111_125938_NOAA 20 (JPSS-1)
#Satellite: NOAA 20 (JPSS-1)
#Configuration: NOAA 20
#almurnet v.1.7.20251203
#Start time: 2026-01-11 12:59:41

#Version: 2.2.20231116
#Station: R4.6S_Anadyr
#Location: 177.4865 lon 64.73178 lat
#TLE: 1 43013U 17073A   26010.88944318  .00000078  00000+0  57801-4 0  9992
#TLE: 2 43013  98.7631 311.8723 0001655  45.1140 315.0170 14.19535117422152

#Time	Az	El	Level	Level2	SNR	BER	BlckErr	Temp	State	Recorded	gain1	gain2
2026-01-11 12:59:41.02	18.87	0.16	-48.2	-62.0	3.3	1.54e+00	0	26	0	0	60	45555
2026-01-11 12:59:42.03	18.92	0.22	-48.2	-63.4	3.6	1.51e+00	0	26	104	0	60	53325
2026-01-11 12:59:43.04	18.98	0.27	-48.2	-63.3	3.6	1.51e+00	0	26	104	0	60	53091
2026-01-11 12:59:44.05	19.04	0.33	-48.2	-63.4	3.6	1.51e+00	0	26	104	0	60	53347
2026-01-11 12:59:45.06	19.09	0.38	-48.2	-63.4	3.6	1.51e+00	0	26	104	0	60	53249
2026-01-11 12:59:46.06	19.15	0.44	-48.0	-63.3	3.6	1.51e+00	0	26	104	0	60	53080
2026-01-11 12:59:47.07	19.21	0.49	-48.1	-63.3	3.6	1.51e+00	0	26	104	0	60	52713
2026-01-11 12:59:48.08	19.27	0.54	-47.9	-63.2	3.6	1.51e+00	0	26	104	0	60	52070
2026-01-11 12:59:49.09	19.32	0.60	-47.9	-63.1	3.6	1.51e+00	0	26	104	0	60	51697
2026-01-11 12:59:50.10	19.38	0.65	-47.7	-62.9	3.6	1.51e+00	0	26	104	0	60	50326
2026-01-11 12:59:51.11	19.44	0.71	-47.5	-62.7	3.6	1.51e+00	0	26	104	0	60	49178
2026-01-11 12:59:52.12	19.50	0.77	-47.3	-62.5	3.6	1.51e+00	0	26	104	0	60	48022
2026-01-11 12:59:53.13	19.56	0.82	-46.9	-62.2	3.6	1.51e+00	0	26	104	0	60	46470
2026-01-11 12:59:54.14	19.62	0.88	-46.5	-61.7	3.6	1.51e+00	0	26	104	0	60	43724
2026-01-11 12:59:55.15	19.68	0.93	-46.5	-61.5	3.6	1.51e+00	0	26	104	0	60	43100
2026-01-11 12:59:56.16	19.74	0.99	-46.5	-61.6	3.6	1.51e+00	0	26	104	0	60	43296
2026-01-11 12:59:57.17	19.79	1.04	-46.5	-61.6	3.6	1.51e+00	0	26	104	0	60	43651
2026-01-11 12:59:58.18	19.85	1.10	-46.5	-61.7	3.6	1.51e+00	0	26	104	0	60	43726
2026-01-11 12:59:59.19	19.91	1.15	-46.5	-61.7	3.6	1.51e+00	0	26	104	0	60	43924
2026-01-11 13:00:00.20	19.97	1.21	-46.5	-61.6	3.6	1.51e+00	0	26	104	0	60	43605
2026-01-11 13:00:01.21	20.04	1.27	-46.5	-61.7	3.6	1.51e+00	0	26	104	0	60	43920
2026-01-11 13:00:02.22	20.10	1.32	-46.5	-61.7	3.6	1.51e+00	0	26	104	0	60	43889
2026-01-11 13:00:03.23	20.16	1.38	-46.5	-61.6	3.6	1.51e+00	0	26	104	0	60	43647
2026-01-11 13:00:04.24	20.22	1.43	-46.5	-61.7	3.6	1.51e+00	0	26	104	0	60	43730
2026-01-11 13:00:05.26	20.28	1.49	-46.5	-61.6	3.6	1.51e+00	0	26	104	0	60	43561
2026-01-11 13:00:06.26	20.34	1.55	-46.5	-61.6	3.6	1.51e+00	0	26	104	0	60	43476
2026-01-11 13:00:07.27	20.40	1.60	-46.5	-61.6	3.6	1.51e+00	0	26	104	0	60	43336
2026-01-11 13:00:08.28	20.46	1.66	-46.4	-61.6	3.6	1.51e+00	0	26	104	0	60	43245
2026-01-11 13:00:09.29	20.53	1.72	-46.4	-61.5	3.6	1.51e+00	0	26	104	0	60	42970
2026-01-11 13:00:10.30	20.59	1.77	-46.4	-61.5	3.6	1.51e+00	0	26	104	0	60	43046
2026-01-11 13:00:11.31	20.65	1.83	-46.4	-61.5	3.6	1.51e+00	0	26	104	0	60	42837
2026-01-11 13:00:12.32	20.71	1.89	-46.4	-61.5	3.6	1.51e+00	0	26	104	0	60	43171
2026-01-11 13:00:13.33	20.78	1.94	-46.4	-61.5	3.6	1.51e+00	0	26	104	0	60	43194
2026-01-11 13:00:14.34	20.84	2.00	-46.4	-61.6	3.6	1.51e+00	0	26	104	0	60	43351
2026-01-11 13:00:15.35	20.90	2.06	-46.4	-61.5	3.6	1.51e+00	0	26	104	0	60	43165
2026-01-11 13:00:16.36	20.97	2.12	-46.4	-61.6	3.6	1.51e+00	0	26	104	0	60	43298
2026-01-11 13:00:17.37	21.03	2.17	-46.4	-61.5	3.6	1.51e+00	0	26	104	0	60	42730
2026-01-11 13:00:18.38	21.10	2.23	-46.4	-60.9	3.6	1.51e+00	0	26	104	0	60	39876
2026-01-11 13:00:19.39	21.16	2.29	-46.4	-60.3	3.6	1.51e+00	0	26	104	0	60	37613
2026-01-11 13:00:20.40	21.22	2.35	-46.4	-60.2	3.6	1.51e+00	0	26	104	0	60	36862
2026-01-11 13:00:21.41	21.29	2.40	-46.4	-60.5	3.6	1.51e+00	0	26	104	0	60	38206
2026-01-11 13:00:22.42	21.35	2.46	-46.4	-60.8	3.6	1.51e+00	0	26	104	0	60	39672
2026-01-11 13:00:23.43	21.42	2.52	-46.3	-59.0	3.6	1.51e+00	0	26	104	0	60	32223
2026-01-11 13:00:24.44	21.49	2.58	-45.9	-55.0	5.8	9.32e-01	75	26	104	0	60	20323
2026-01-11 13:00:25.45	21.55	2.64	-45.0	-50.3	9.8	7.91e-02	78	26	0	1048576	60	11877
2026-01-11 13:00:26.46	21.62	2.69	-44.2	-48.1	12.4	3.47e-03	91	26	0	3145728	60	9208
2026-01-11 13:00:27.47	21.68	2.75	-42.8	-45.6	15.1	1.50e-06	0	26	0	4194304	60	6859
2026-01-11 13:00:28.48	21.75	2.81	-41.8	-44.0	16.6	0.00e+00	92	26	0	6291456	58	6435
2026-01-11 13:00:29.49	21.82	2.87	-40.9	-42.7	18.0	0.00e+00	0	26	0	8388608	56	6223
2026-01-11 13:00:30.50	21.88	2.93	-40.3	-42.0	18.5	0.00e+00	0	26	0	10485760	54	6411
2026-01-11 13:00:31.51	21.95	2.99	-40.1	-41.7	18.7	0.00e+00	0	26	0	12582912	54	6236
2026-01-11 13:00:32.52	22.02	3.05	-40.5	-42.2	18.3	0.00e+00	0	26	0	14680064	54	6588
2026-01-11 13:00:33.53	22.09	3.10	-41.1	-43.0	17.5	0.00e+00	2	26	0	15728640	54	7212
2026-01-11 13:00:34.54	22.15	3.16	-42.1	-44.5	16.0	0.00e+00	2	26	0	17825792	56	7648
2026-01-11 13:00:35.55	22.22	3.22	-43.4	-46.8	13.6	0.00e+00	92	26	0	19922944	58	8851
2026-01-11 13:00:36.56	22.29	3.28	-44.0	-47.8	12.7	1.24e-04	3	26	0	22020096	60	8903
2026-01-11 13:00:37.57	22.36	3.34	-41.3	-43.3	17.3	0.00e+00	5	26	0	24117248	56	6676
2026-01-11 13:00:38.58	22.43	3.40	-40.0	-41.5	18.1	0.00e+00	2	26	0	25165824	52	6847
2026-01-11 13:00:39.59	22.50	3.46	-46.4	-61.1	3.5	1.51e+00	0	26	104	26214400	60	41198
2026-01-11 13:00:40.60	22.57	3.52	-43.8	-47.0	15.1	5.35e-01	0	26	0	27262976	60	8134
2026-01-11 13:00:41.60	22.64	3.58	-44.3	-48.2	13.2	7.18e-04	0	26	0	28311552	60	9287
2026-01-11 13:00:42.61	22.71	3.64	-41.4	-43.3	17.4	0.00e+00	92	27	0	30408704	56	6670
2026-01-11 13:00:43.62	22.78	3.70	-41.7	-43.8	16.9	0.00e+00	2	26	0	32505856	56	7013
2026-01-11 13:00:44.63	22.85	3.76	-41.6	-43.7	17.3	0.00e+00	92	26	0	34603008	56	6943
2026-01-11 13:00:45.64	22.92	3.82	-41.5	-43.4	17.9	0.00e+00	0	26	0	36700160	56	6748
2026-01-11 13:00:46.65	22.99	3.88	-41.3	-43.1	17.5	0.00e+00	0	26	0	37748736	56	6532
2026-01-11 13:00:47.66	23.06	3.94	-41.1	-42.9	18.0	0.00e+00	78	26	0	39845888	56	6375
2026-01-11 13:00:48.67	23.13	4.00	-40.4	-42.0	18.8	0.00e+00	0	26	0	41943040	54	6413
2026-01-11 13:00:49.68	23.20	4.06	-40.2	-41.8	19.1	0.00e+00	92	26	0	44040192	54	6281
2026-01-11 13:00:50.69	23.28	4.12	-39.9	-41.4	19.2	0.00e+00	0	26	0	46137344	54	5998
2026-01-11 13:00:51.70	23.35	4.18	-39.6	-41.1	19.5	0.00e+00	62	26	0	47185920	52	6473
2026-01-11 13:00:52.71	23.42	4.24	-39.4	-40.8	19.9	0.00e+00	5	26	0	49283072	52	6258
2026-01-11 13:00:53.72	23.50	4.30	-39.3	-40.7	20.0	0.00e+00	5	26	0	51380224	52	6192
2026-01-11 13:00:54.73	23.57	4.36	-39.4	-40.7	20.1	0.00e+00	0	26	0	53477376	52	6220
2026-01-11 13:00:55.73	23.64	4.42	-39.4	-40.8	20.1	0.00e+00	2	26	0	55574528	52	6253
2026-01-11 13:00:56.74	23.72	4.48	-39.4	-40.8	20.0	0.00e+00	26	27	0	57671680	52	6261
2026-01-11 13:00:57.75	23.79	4.54	-39.4	-40.8	20.1	0.00e+00	6	26	0	58720256	52	6270
2026-01-11 13:00:58.76	23.86	4.61	-39.4	-40.7	20.1	0.00e+00	92	26	0	60817408	52	6245
2026-01-11 13:00:59.77	23.94	4.67	-39.5	-40.9	20.0	0.00e+00	6	26	0	62914560	52	6331
2026-01-11 13:01:00.78	24.01	4.73	-39.5	-40.9	20.0	0.00e+00	68	26	0	65011712	52	6319
2026-01-11 13:01:01.79	24.09	4.79	-39.3	-40.6	20.3	0.00e+00	81	26	0	67108864	52	6117
2026-01-11 13:01:02.80	24.17	4.85	-39.3	-40.6	20.3	0.00e+00	83	26	0	68157440	52	6156
2026-01-11 13:01:03.81	24.24	4.91	-39.3	-40.6	20.3	0.00e+00	0	26	0	70254592	52	6152
2026-01-11 13:01:04.82	24.32	4.98	-39.2	-40.5	20.4	0.00e+00	83	26	0	72351744	52	6092
2026-01-11 13:01:05.83	24.39	5.04	-39.3	-40.7	20.2	0.00e+00	92	26	0	74448896	52	6179
2026-01-11 13:01:06.84	24.47	5.10	-39.3	-40.7	20.3	0.00e+00	0	26	0	76546048	52	6174
2026-01-11 13:01:07.85	24.55	5.16	-39.3	-40.6	20.4	0.00e+00	92	26	0	77594624	52	6159
2026-01-11 13:01:08.86	24.63	5.23	-39.1	-40.4	20.5	0.00e+00	82	26	0	79691776	52	5997
2026-01-11 13:01:09.87	24.70	5.29	-39.3	-40.6	20.4	0.00e+00	0	26	0	81788928	52	6170
2026-01-11 13:01:10.88	24.78	5.35	-39.3	-40.7	20.3	0.00e+00	0	26	0	83886080	52	6176
2026-01-11 13:01:11.89	24.86	5.41	-39.5	-40.8	20.1	0.00e+00	6	26	0	85983232	52	6315
2026-01-11 13:01:12.90	24.94	5.48	-39.6	-41.0	20.0	0.00e+00	80	26	0	87031808	52	6420
2026-01-11 13:01:13.91	25.02	5.54	-39.5	-40.8	20.2	0.00e+00	8	26	0	89128960	52	6272
2026-01-11 13:01:14.92	25.10	5.60	-39.4	-40.7	20.3	0.00e+00	92	26	0	91226112	52	6222
2026-01-11 13:01:15.92	25.18	5.66	-39.6	-41.0	20.1	0.00e+00	1	26	0	93323264	52	6391
2026-01-11 13:01:16.93	25.26	5.73	-39.4	-40.8	20.3	0.00e+00	29	26	0	95420416	52	6258
2026-01-11 13:01:17.94	25.34	5.79	-39.5	-40.8	20.3	0.00e+00	6	26	0	96468992	52	6312
2026-01-11 13:01:18.96	25.42	5.85	-39.4	-40.8	20.2	0.00e+00	4	26	0	98566144	52	6251
2026-01-11 13:01:19.96	25.50	5.92	-39.2	-40.5	20.5	0.00e+00	11	26	0	100663296	52	6066
2026-01-11 13:01:20.97	25.58	5.98	-39.2	-40.5	20.6	0.00e+00	5	26	0	102760448	52	6073
2026-01-11 13:01:21.99	25.66	6.05	-39.2	-40.5	20.6	0.00e+00	92	26	0	104857600	52	6064
2026-01-11 13:01:22.99	25.74	6.11	-39.2	-40.5	20.7	0.00e+00	81	27	0	105906176	52	6076
2026-01-11 13:01:24.00	25.83	6.17	-39.2	-40.5	20.6	0.00e+00	56	26	0	108003328	52	6057
2026-01-11 13:01:25.01	25.91	6.24	-39.3	-40.6	20.4	0.00e+00	5	27	0	110100480	52	6109
2026-01-11 13:01:26.02	25.99	6.30	-39.0	-40.3	20.8	0.00e+00	76	26	0	112197632	52	5905
2026-01-11 13:01:27.03	26.08	6.37	-39.1	-40.3	20.8	0.00e+00	0	27	0	114294784	52	5932
2026-01-11 13:01:28.04	26.16	6.43	-39.1	-40.3	20.7	0.00e+00	0	27	0	115343360	52	5961
2026-01-11 13:01:29.05	26.24	6.50	-39.0	-40.2	20.9	0.00e+00	90	27	0	117440512	52	5850
2026-01-11 13:01:30.06	26.33	6.56	-38.8	-40.0	21.0	0.00e+00	0	26	0	119537664	52	5756
2026-01-11 13:01:31.07	26.41	6.62	-38.9	-40.1	21.0	0.00e+00	92	27	0	121634816	52	5768
2026-01-11 13:01:32.08	26.50	6.69	-38.7	-39.9	21.1	0.00e+00	82	27	0	123731968	50	6362
2026-01-11 13:01:33.09	26.58	6.75	-38.7	-39.9	21.2	0.00e+00	0	26	0	125829120	50	6372
2026-01-11 13:01:34.10	26.67	6.82	-38.7	-39.8	21.2	0.00e+00	0	26	0	126877696	50	6315
2026-01-11 13:01:35.11	26.76	6.88	-38.8	-39.9	21.2	0.00e+00	0	26	0	128974848	50	6376
2026-01-11 13:01:36.12	26.84	6.95	-38.6	-39.7	21.4	0.00e+00	77	26	0	131072000	50	6228
2026-01-11 13:01:37.13	26.93	7.02	-38.7	-39.8	21.2	0.00e+00	0	26	0	133169152	50	6300
2026-01-11 13:01:38.14	27.02	7.08	-38.6	-39.7	21.4	0.00e+00	92	26	0	135266304	50	6223
2026-01-11 13:01:39.15	27.10	7.15	-38.7	-39.8	21.4	0.00e+00	1	26	0	136314880	50	6306
2026-01-11 13:01:40.15	27.19	7.21	-38.4	-39.6	21.5	0.00e+00	17	26	0	138412032	50	6114
2026-01-11 13:01:41.16	27.28	7.28	-38.6	-39.7	21.4	0.00e+00	0	26	0	140509184	50	6225
2026-01-11 13:01:42.17	27.37	7.34	-38.5	-39.6	21.5	0.00e+00	0	26	0	142606336	50	6160
2026-01-11 13:01:43.19	27.46	7.41	-38.6	-39.7	21.4	0.00e+00	4	26	0	144703488	50	6226
2026-01-11 13:01:44.20	27.55	7.48	-38.5	-39.6	21.5	0.00e+00	75	26	0	145752064	50	6136
2026-01-11 13:01:45.21	27.64	7.54	-38.5	-39.7	21.5	0.00e+00	92	27	0	147849216	50	6184
2026-01-11 13:01:46.22	27.73	7.61	-38.4	-39.6	21.6	0.00e+00	1	27	0	149946368	50	6110
2026-01-11 13:01:47.22	27.82	7.68	-38.4	-39.5	21.7	0.00e+00	92	26	0	152043520	50	6045
2026-01-11 13:01:48.23	27.91	7.74	-38.5	-39.6	21.6	0.00e+00	6	26	0	154140672	50	6164
2026-01-11 13:01:49.24	28.00	7.81	-38.5	-39.6	21.4	0.00e+00	76	26	0	155189248	50	6144
2026-01-11 13:01:50.25	28.09	7.88	-38.3	-39.3	21.7	0.00e+00	77	27	0	157286400	50	5961
2026-01-11 13:01:51.26	28.19	7.94	-38.4	-39.5	21.5	0.00e+00	76	27	0	159383552	50	6037
2026-01-11 13:01:52.27	28.28	8.01	-38.3	-39.3	21.9	0.00e+00	92	27	0	161480704	50	5964
2026-01-11 13:01:53.28	28.37	8.08	-38.3	-39.4	21.7	0.00e+00	0	26	0	163577856	50	5988
2026-01-11 13:01:54.29	28.47	8.15	-38.4	-39.5	21.7	0.00e+00	92	26	0	164626432	50	6083
2026-01-11 13:01:55.30	28.56	8.21	-38.5	-39.6	21.5	0.00e+00	0	26	0	166723584	50	6127
2026-01-11 13:01:56.31	28.65	8.28	-38.4	-39.5	21.7	0.00e+00	0	27	0	168820736	50	6071
2026-01-11 13:01:57.32	28.75	8.35	-38.4	-39.6	21.8	0.00e+00	0	26	0	170917888	50	6117
2026-01-11 13:01:58.33	28.84	8.42	-38.5	-39.6	21.6	0.00e+00	0	27	0	173015040	50	6172
2026-01-11 13:01:59.34	28.94	8.49	-38.6	-39.8	21.5	0.00e+00	88	26	0	174063616	50	6247
2026-01-11 13:02:00.35	29.04	8.55	-38.4	-39.6	21.7	0.00e+00	2	27	0	176160768	50	6118
2026-01-11 13:02:01.36	29.13	8.62	-38.4	-39.5	21.8	0.00e+00	91	26	0	178257920	50	6046
2026-01-11 13:02:02.37	29.23	8.69	-38.4	-39.6	21.7	0.00e+00	2	27	0	180355072	50	6104
2026-01-11 13:02:03.38	29.33	8.76	-38.6	-39.8	21.5	0.00e+00	0	26	0	182452224	50	6246
2026-01-11 13:02:04.39	29.42	8.83	-38.4	-39.5	21.7	0.00e+00	76	27	0	183500800	50	6065
2026-01-11 13:02:05.40	29.52	8.90	-38.5	-39.6	21.7	0.00e+00	7	27	0	185597952	50	6144
2026-01-11 13:02:06.41	29.62	8.97	-38.6	-39.7	21.5	0.00e+00	0	27	0	187695104	50	6222
2026-01-11 13:02:07.42	29.72	9.03	-38.4	-39.4	21.8	0.00e+00	75	27	0	189792256	50	6029
2026-01-11 13:02:08.43	29.82	9.10	-38.2	-39.3	21.9	0.00e+00	90	27	0	191889408	50	5941
2026-01-11 13:02:09.44	29.92	9.17	-38.3	-39.3	22.0	0.00e+00	82	27	0	193986560	50	5949
2026-01-11 13:02:10.45	30.02	9.24	-38.1	-39.2	22.0	0.00e+00	43	26	0	195035136	50	5863
2026-01-11 13:02:11.46	30.12	9.31	-38.2	-39.2	22.0	0.00e+00	0	27	0	197132288	50	5887
2026-01-11 13:02:12.47	30.22	9.38	-38.3	-39.4	22.0	0.00e+00	75	26	0	199229440	50	6013
2026-01-11 13:02:13.48	30.32	9.45	-38.0	-39.1	22.2	0.00e+00	0	27	0	201326592	50	5781
2026-01-11 13:02:14.49	30.43	9.52	-38.0	-39.0	22.2	0.00e+00	0	27	0	203423744	50	5756
2026-01-11 13:02:15.50	30.53	9.59	-37.9	-39.0	22.3	0.00e+00	92	26	0	204472320	50	5705
2026-01-11 13:02:16.51	30.63	9.66	-37.8	-38.8	22.5	0.00e+00	0	27	0	206569472	50	5603
2026-01-11 13:02:17.52	30.74	9.73	-37.8	-38.8	22.4	0.00e+00	92	26	0	208666624	50	5628
2026-01-11 13:02:18.53	30.84	9.80	-37.8	-38.8	22.5	0.00e+00	0	27	0	210763776	50	5601
2026-01-11 13:02:19.54	30.95	9.87	-37.6	-38.6	22.6	0.00e+00	0	26	0	212860928	48	6130
2026-01-11 13:02:20.55	31.05	9.94	-37.7	-38.7	22.6	0.00e+00	0	27	0	213909504	48	6209
2026-01-11 13:02:21.56	31.16	10.01	-37.8	-38.8	22.4	0.00e+00	0	27	0	216006656	48	6262
2026-01-11 13:02:22.57	31.26	10.08	-37.9	-38.9	22.4	0.00e+00	92	27	0	218103808	48	6336
2026-01-11 13:02:23.57	31.37	10.15	-37.7	-38.7	22.5	0.00e+00	5	27	0	220200960	48	6223
2026-01-11 13:02:24.58	31.48	10.23	-37.7	-38.7	22.5	0.00e+00	92	27	0	222298112	48	6229
2026-01-11 13:02:25.59	31.58	10.30	-37.8	-38.8	22.5	0.00e+00	0	27	0	223346688	48	6273
2026-01-11 13:02:26.60	31.69	10.37	-37.6	-38.6	22.7	0.00e+00	0	26	0	225443840	48	6153
2026-01-11 13:02:27.61	31.80	10.44	-37.8	-38.8	22.5	0.00e+00	0	27	0	227540992	48	6265
2026-01-11 13:02:28.62	31.91	10.51	-37.8	-38.8	22.5	0.00e+00	7	27	0	229638144	48	6278
2026-01-11 13:02:29.63	32.02	10.58	-37.6	-38.6	22.6	0.00e+00	3	27	0	231735296	48	6155
2026-01-11 13:02:30.64	32.13	10.65	-37.7	-38.7	22.5	0.00e+00	76	27	0	232783872	48	6215
2026-01-11 13:02:31.65	32.24	10.73	-37.7	-38.7	22.6	0.00e+00	92	27	0	234881024	48	6244
2026-01-11 13:02:32.66	32.35	10.80	-37.7	-38.7	22.5	0.00e+00	0	27	0	236978176	48	6189
2026-01-11 13:02:33.67	32.46	10.87	-37.7	-38.7	22.6	0.00e+00	92	26	0	239075328	48	6204
2026-01-11 13:02:34.68	32.57	10.94	-37.6	-38.6	22.6	0.00e+00	0	27	0	241172480	48	6164
2026-01-11 13:02:35.69	32.69	11.02	-37.7	-38.7	22.6	0.00e+00	5	27	0	242221056	48	6175
2026-01-11 13:02:36.70	32.80	11.09	-37.7	-38.7	22.6	0.00e+00	0	27	0	244318208	48	6190
2026-01-11 13:02:37.71	32.91	11.16	-37.7	-38.7	22.6	0.00e+00	0	27	0	246415360	48	6219
2026-01-11 13:02:38.72	33.03	11.23	-37.8	-38.8	22.5	0.00e+00	90	27	0	248512512	48	6260
2026-01-11 13:02:39.73	33.14	11.31	-37.9	-38.9	22.4	0.00e+00	0	27	0	250609664	48	6360
2026-01-11 13:02:40.74	33.26	11.38	-37.9	-38.9	22.5	0.00e+00	90	27	0	251658240	48	6368
2026-01-11 13:02:41.75	33.38	11.45	-38.0	-39.1	22.4	0.00e+00	5	27	0	253755392	48	6476
2026-01-11 13:02:42.76	33.49	11.53	-38.2	-39.2	22.2	0.00e+00	0	27	0	255852544	48	6582
2026-01-11 13:02:43.77	33.61	11.60	-38.4	-39.5	22.0	0.00e+00	0	27	0	257949696	48	6771
2026-01-11 13:02:44.78	33.73	11.67	-38.0	-39.0	22.3	0.00e+00	5	27	0	260046848	48	6421
2026-01-11 13:02:45.79	33.85	11.75	-38.0	-39.1	22.3	0.00e+00	61	27	0	262144000	48	6468
2026-01-11 13:02:46.80	33.96	11.82	-38.0	-39.0	22.4	0.00e+00	81	27	0	263192576	48	6440
2026-01-11 13:02:47.81	34.08	11.89	-37.9	-38.9	22.5	0.00e+00	92	27	0	265289728	48	6322
2026-01-11 13:02:48.82	34.20	11.97	-37.8	-38.8	22.6	0.00e+00	6	27	0	267386880	48	6307
2026-01-11 13:02:49.82	34.32	12.04	-37.7	-38.7	22.7	0.00e+00	6	27	0	269484032	48	6210
2026-01-11 13:02:50.83	34.44	12.11	-37.6	-38.6	22.8	0.00e+00	0	27	0	270532608	48	6117
2026-01-11 13:02:51.84	34.57	12.19	-37.5	-38.5	22.9	0.00e+00	86	27	0	272629760	48	6068
2026-01-11 13:02:52.85	34.69	12.26	-37.6	-38.6	22.7	0.00e+00	74	27	0	274726912	48	6124
2026-01-11 13:02:53.86	34.81	12.34	-37.7	-38.6	22.7	0.00e+00	0	27	0	276824064	48	6171
2026-01-11 13:02:54.87	34.94	12.41	-37.7	-38.7	22.6	0.00e+00	92	27	0	278921216	48	6211
2026-01-11 13:02:55.88	35.06	12.49	-37.5	-38.5	22.8	0.00e+00	0	27	0	279969792	48	6082
2026-01-11 13:02:56.89	35.18	12.56	-37.7	-38.7	22.8	0.00e+00	66	27	0	282066944	48	6197
2026-01-11 13:02:57.90	35.31	12.64	-37.6	-38.6	22.8	0.00e+00	8	27	0	284164096	48	6138
2026-01-11 13:02:58.91	35.44	12.71	-37.5	-38.5	22.9	0.00e+00	0	27	0	286261248	48	6075
2026-01-11 13:02:59.92	35.56	12.79	-37.6	-38.5	22.8	0.00e+00	0	27	0	288358400	48	6087
2026-01-11 13:03:00.93	35.69	12.86	-37.5	-38.5	22.9	0.00e+00	8	27	0	290455552	48	6075
2026-01-11 13:03:01.94	35.82	12.94	-37.6	-38.6	22.8	0.00e+00	92	27	0	291504128	48	6122
2026-01-11 13:03:02.95	35.95	13.01	-37.5	-38.5	22.8	0.00e+00	7	27	0	293601280	48	6077
2026-01-11 13:03:03.96	36.07	13.09	-37.4	-38.4	23.0	0.00e+00	92	27	0	295698432	48	5986
2026-01-11 13:03:04.97	36.20	13.16	-37.3	-38.3	23.1	0.00e+00	6	27	0	297795584	48	5925
2026-01-11 13:03:05.97	36.33	13.24	-37.2	-38.2	23.1	0.00e+00	8	27	0	299892736	48	5852
2026-01-11 13:03:06.98	36.46	13.31	-37.4	-38.3	23.0	0.00e+00	7	27	0	300941312	48	5964
2026-01-11 13:03:07.99	36.60	13.39	-37.4	-38.3	23.1	0.00e+00	74	27	0	303038464	48	5941
2026-01-11 13:03:09.00	36.73	13.47	-37.3	-38.2	23.2	0.00e+00	91	27	0	305135616	48	5889
2026-01-11 13:03:10.01	36.86	13.54	-37.4	-38.4	23.1	0.00e+00	8	27	0	307232768	48	5975
2026-01-11 13:03:11.02	37.00	13.62	-37.4	-38.4	23.0	0.00e+00	92	27	0	309329920	48	5999
2026-01-11 13:03:12.03	37.13	13.70	-37.4	-38.4	23.0	0.00e+00	75	27	0	310378496	48	5991
2026-01-11 13:03:13.04	37.26	13.77	-37.6	-38.6	22.9	0.00e+00	0	27	0	312475648	48	6139
2026-01-11 13:03:14.05	37.40	13.85	-37.5	-38.5	23.0	0.00e+00	0	27	0	314572800	48	6046
2026-01-11 13:03:15.06	37.54	13.93	-37.5	-38.5	23.0	0.00e+00	73	27	0	316669952	48	6048
2026-01-11 13:03:16.07	37.67	14.00	-37.6	-38.6	22.8	0.00e+00	77	27	0	318767104	48	6149
2026-01-11 13:03:17.08	37.81	14.08	-37.4	-38.4	23.0	0.00e+00	73	27	0	319815680	48	6000
2026-01-11 13:03:18.09	37.95	14.16	-37.4	-38.3	23.1	0.00e+00	91	27	0	321912832	48	5935
2026-01-11 13:03:19.10	38.09	14.23	-37.4	-38.4	23.1	0.00e+00	0	27	0	324009984	48	5967
2026-01-11 13:03:20.11	38.23	14.31	-37.3	-38.2	23.2	0.00e+00	74	27	0	326107136	48	5873
2026-01-11 13:03:21.12	38.37	14.39	-37.4	-38.4	23.1	0.00e+00	0	27	0	328204288	48	6002
2026-01-11 13:03:22.13	38.51	14.47	-37.3	-38.3	23.1	0.00e+00	0	27	0	329252864	48	5913
2026-01-11 13:03:23.14	38.65	14.54	-37.2	-38.1	23.3	0.00e+00	0	27	0	331350016	48	5800
2026-01-11 13:03:24.15	38.79	14.62	-37.1	-38.0	23.3	0.00e+00	7	27	0	333447168	48	5756
2026-01-11 13:03:25.16	38.94	14.70	-37.3	-38.2	23.2	0.00e+00	92	27	0	335544320	48	5863
2026-01-11 13:03:26.17	39.08	14.78	-37.2	-38.1	23.3	0.00e+00	0	27	0	337641472	48	5792
2026-01-11 13:03:27.18	39.23	14.85	-37.2	-38.1	23.2	0.00e+00	92	27	0	338690048	48	5827
2026-01-11 13:03:28.19	39.37	14.93	-37.1	-38.0	23.3	0.00e+00	74	27	0	340787200	48	5761
2026-01-11 13:03:29.19	39.52	15.01	-37.1	-38.0	23.2	0.00e+00	6	27	0	342884352	48	5743
2026-01-11 13:03:30.20	39.66	15.09	-37.1	-38.0	23.0	0.00e+00	74	27	0	344981504	48	5729
2026-01-11 13:03:31.21	39.81	15.16	-37.0	-37.9	22.3	0.00e+00	4	27	0	347078656	48	5640
2026-01-11 13:03:32.22	39.96	15.24	-37.1	-38.0	23.4	0.00e+00	10	27	0	348127232	48	5746
2026-01-11 13:03:33.23	40.11	15.32	-37.0	-37.9	23.4	0.00e+00	7	27	0	350224384	48	5658
2026-01-11 13:03:34.24	40.26	15.40	-37.1	-38.0	23.4	0.00e+00	92	27	0	352321536	48	5748
2026-01-11 13:03:35.25	40.41	15.48	-37.0	-37.9	23.5	0.00e+00	74	27	0	354418688	48	5667
2026-01-11 13:03:36.26	40.56	15.56	-37.2	-38.1	23.4	0.00e+00	45	27	0	356515840	48	5795
2026-01-11 13:03:37.27	40.71	15.63	-37.0	-37.9	23.6	0.00e+00	0	27	0	358612992	48	5646
2026-01-11 13:03:38.28	40.87	15.71	-37.0	-37.9	23.6	0.00e+00	2	27	0	359661568	48	5648
2026-01-11 13:03:39.29	41.02	15.79	-36.9	-37.9	23.6	0.00e+00	0	27	0	361758720	48	5634
2026-01-11 13:03:40.30	41.18	15.87	-36.9	-37.8	23.7	0.00e+00	0	27	0	363855872	48	5590
2026-01-11 13:03:41.31	41.33	15.95	-36.7	-37.6	23.8	0.00e+00	90	27	0	365953024	46	6155
2026-01-11 13:03:42.32	41.49	16.03	-36.7	-37.6	23.7	0.00e+00	0	27	0	368050176	46	6162
2026-01-11 13:03:43.33	41.65	16.11	-36.7	-37.5	23.9	0.00e+00	70	27	0	369098752	46	6101
2026-01-11 13:03:44.34	41.80	16.19	-36.7	-37.6	23.8	0.00e+00	0	27	0	371195904	46	6114
2026-01-11 13:03:45.35	41.96	16.27	-36.7	-37.6	23.7	0.00e+00	0	27	0	373293056	46	6132
2026-01-11 13:03:46.36	42.12	16.34	-36.7	-37.6	23.8	0.00e+00	0	27	0	375390208	46	6112
2026-01-11 13:03:47.37	42.28	16.42	-36.4	-37.3	24.1	0.00e+00	0	27	0	377487360	46	5919
2026-01-11 13:03:48.38	42.44	16.50	-36.5	-37.4	24.0	0.00e+00	85	27	0	378535936	46	5973
2026-01-11 13:03:49.39	42.60	16.58	-36.6	-37.5	24.0	0.00e+00	79	27	0	380633088	46	6036
2026-01-11 13:03:50.40	42.77	16.66	-36.5	-37.3	24.1	0.00e+00	92	27	0	382730240	46	5946
2026-01-11 13:03:51.41	42.93	16.74	-36.6	-37.4	24.0	0.00e+00	78	27	0	384827392	46	6024
2026-01-11 13:03:52.42	43.10	16.82	-36.7	-37.6	23.9	0.00e+00	78	27	0	386924544	46	6123
2026-01-11 13:03:53.43	43.26	16.90	-36.6	-37.4	24.0	0.00e+00	4	27	0	387973120	46	6031
2026-01-11 13:03:54.44	43.43	16.98	-36.7	-37.6	23.9	0.00e+00	0	27	0	390070272	46	6126
2026-01-11 13:03:55.45	43.59	17.06	-36.4	-37.3	24.1	0.00e+00	90	27	0	392167424	46	5926
2026-01-11 13:03:56.46	43.76	17.14	-36.5	-37.4	24.0	0.00e+00	73	27	0	394264576	46	6005
2026-01-11 13:03:57.47	43.93	17.22	-36.6	-37.5	23.9	0.00e+00	90	27	0	396361728	46	6040
2026-01-11 13:03:58.48	44.10	17.30	-36.6	-37.4	24.0	0.00e+00	0	27	0	397410304	46	6013
2026-01-11 13:03:59.49	44.27	17.38	-36.6	-37.5	23.9	0.00e+00	38	27	0	399507456	46	6084
2026-01-11 13:04:00.50	44.44	17.46	-36.6	-37.5	23.9	0.00e+00	0	27	0	401604608	46	6053
2026-01-11 13:04:01.51	44.61	17.54	-36.8	-37.7	23.8	0.00e+00	0	27	0	403701760	46	6222
2026-01-11 13:04:02.51	44.79	17.61	-36.9	-37.8	23.5	0.00e+00	0	27	0	405798912	46	6284
2026-01-11 13:04:03.52	44.96	17.69	-37.0	-37.9	23.6	0.00e+00	0	27	0	406847488	46	6355
2026-01-11 13:04:04.53	45.13	17.77	-37.0	-37.9	23.6	0.00e+00	92	27	0	408944640	46	6328
2026-01-11 13:04:05.54	45.31	17.85	-36.9	-37.8	23.7	0.00e+00	2	27	0	411041792	46	6277
2026-01-11 13:04:06.55	45.49	17.93	-36.9	-37.8	23.6	0.00e+00	93	27	0	413138944	46	6285
2026-01-11 13:04:07.56	45.66	18.01	-37.0	-37.9	23.5	0.00e+00	2	27	0	415236096	46	6375
2026-01-11 13:04:08.57	45.84	18.09	-36.9	-37.8	23.7	0.00e+00	0	27	0	416284672	46	6304
2026-01-11 13:04:09.58	46.02	18.17	-36.9	-37.8	23.7	0.00e+00	2	28	0	418381824	46	6299
2026-01-11 13:04:10.59	46.20	18.25	-36.9	-37.8	23.7	0.00e+00	2	28	0	420478976	46	6270
2026-01-11 13:04:11.60	46.38	18.33	-37.0	-37.9	23.5	0.00e+00	92	28	0	422576128	46	6351
2026-01-11 13:04:12.61	46.57	18.41	-36.9	-37.8	23.7	0.00e+00	75	28	0	424673280	46	6312
2026-01-11 13:04:13.62	46.75	18.49	-37.0	-37.9	23.6	0.00e+00	90	27	0	426770432	46	6348
2026-01-11 13:04:14.63	46.93	18.57	-36.9	-37.8	23.7	0.00e+00	74	28	0	427819008	46	6279
2026-01-11 13:04:15.64	47.12	18.65	-36.6	-37.5	24.0	0.00e+00	74	28	0	429916160	46	6070
2026-01-11 13:04:16.65	47.30	18.73	-36.4	-37.2	24.1	0.00e+00	74	28	0	432013312	46	5896
2026-01-11 13:04:17.66	47.49	18.81	-36.3	-37.1	24.3	0.00e+00	80	27	0	434110464	46	5823
2026-01-11 13:04:18.67	47.68	18.89	-36.3	-37.1	24.3	0.00e+00	45	28	0	436207616	46	5815
2026-01-11 13:04:19.68	47.87	18.97	-36.3	-37.2	24.2	0.00e+00	0	28	0	437256192	46	5864
2026-01-11 13:04:20.68	48.05	19.05	-36.1	-37.0	24.4	0.00e+00	91	28	0	439353344	46	5724
2026-01-11 13:04:21.69	48.25	19.13	-36.2	-37.0	24.4	0.00e+00	0	28	0	441450496	46	5736
2026-01-11 13:04:22.70	48.44	19.20	-36.0	-36.8	24.6	0.00e+00	92	28	0	443547648	46	5611
2026-01-11 13:04:23.71	48.63	19.28	-36.0	-36.9	24.5	0.00e+00	5	28	0	445644800	46	5640
2026-01-11 13:04:24.72	48.82	19.36	-35.9	-36.7	24.6	0.00e+00	0	28	0	446693376	46	5548
2026-01-11 13:04:25.73	49.02	19.44	-36.0	-36.8	24.6	0.00e+00	0	28	0	448790528	46	5593
2026-01-11 13:04:26.74	49.21	19.52	-35.9	-36.8	24.6	0.00e+00	8	28	0	450887680	46	5567
2026-01-11 13:04:27.75	49.41	19.60	-36.0	-36.8	24.6	0.00e+00	92	28	0	452984832	46	5596
2026-01-11 13:04:28.76	49.61	19.68	-35.8	-36.6	24.8	0.00e+00	6	28	0	455081984	46	5456
2026-01-11 13:04:29.77	49.81	19.76	-35.7	-36.5	24.8	0.00e+00	92	28	0	456130560	44	6087
2026-01-11 13:04:30.78	50.01	19.84	-35.4	-36.2	24.9	0.00e+00	6	28	0	458227712	44	5880
2026-01-11 13:04:31.79	50.21	19.91	-35.3	-36.1	25.1	0.00e+00	77	28	0	460324864	44	5801
2026-01-11 13:04:32.80	50.41	19.99	-35.4	-36.2	25.0	0.00e+00	0	28	0	462422016	44	5853
2026-01-11 13:04:33.81	50.61	20.07	-35.3	-36.1	25.1	0.00e+00	6	28	0	464519168	44	5804
2026-01-11 13:04:34.82	50.81	20.15	-35.4	-36.2	25.1	0.00e+00	92	28	0	465567744	44	5864
2026-01-11 13:04:35.83	51.02	20.23	-35.5	-36.3	25.0	0.00e+00	80	28	0	467664896	44	5938
2026-01-11 13:04:36.84	51.22	20.31	-35.3	-36.1	25.1	0.00e+00	92	28	0	469762048	44	5800
2026-01-11 13:04:37.85	51.43	20.38	-35.4	-36.3	25.0	0.00e+00	0	28	0	471859200	44	5900
2026-01-11 13:04:38.86	51.64	20.46	-35.2	-36.0	25.2	0.00e+00	0	28	0	473956352	44	5748
2026-01-11 13:04:39.87	51.85	20.54	-35.3	-36.1	25.2	0.00e+00	0	28	0	475004928	44	5775
2026-01-11 13:04:40.88	52.06	20.62	-35.2	-36.0	25.2	0.00e+00	0	28	0	477102080	44	5749
2026-01-11 13:04:41.89	52.27	20.69	-35.3	-36.1	25.1	0.00e+00	5	28	0	479199232	44	5793
2026-01-11 13:04:42.90	52.48	20.77	-35.4	-36.2	25.1	0.00e+00	6	28	0	481296384	44	5843
2026-01-11 13:04:43.91	52.69	20.85	-35.5	-36.3	24.9	0.00e+00	90	28	0	483393536	44	5953
2026-01-11 13:04:44.92	52.91	20.93	-35.6	-36.4	24.8	0.00e+00	0	28	0	484442112	44	6029
2026-01-11 13:04:45.93	53.12	21.00	-35.6	-36.5	24.8	0.00e+00	90	28	0	486539264	44	6038
2026-01-11 13:04:46.94	53.34	21.08	-35.6	-36.4	24.8	0.00e+00	6	28	0	488636416	44	6008
2026-01-11 13:04:47.95	53.55	21.16	-35.8	-36.6	24.8	0.00e+00	7	28	0	490733568	44	6115
2026-01-11 13:04:48.96	53.77	21.23	-35.4	-36.2	25.1	0.00e+00	0	28	0	492830720	44	5870
2026-01-11 13:04:49.97	53.99	21.31	-35.5	-36.3	25.0	0.00e+00	8	28	0	494927872	44	5936
2026-01-11 13:04:50.98	54.21	21.38	-35.6	-36.4	24.9	0.00e+00	92	28	0	495976448	44	6004
2026-01-11 13:04:51.99	54.43	21.46	-35.5	-36.3	25.0	0.00e+00	79	28	0	498073600	44	5915
2026-01-11 13:04:53.00	54.65	21.54	-35.6	-36.4	24.8	0.00e+00	92	28	0	500170752	44	6031
2026-01-11 13:04:54.01	54.88	21.61	-35.6	-36.4	24.9	0.00e+00	4	28	0	502267904	44	6021
2026-01-11 13:04:55.02	55.10	21.69	-35.8	-36.6	24.8	0.00e+00	4	28	0	504365056	44	6139
2026-01-11 13:04:56.03	55.33	21.76	-35.7	-36.5	24.8	0.00e+00	73	28	0	505413632	44	6077
2026-01-11 13:04:57.04	55.55	21.84	-35.8	-36.6	24.7	0.00e+00	72	28	0	507510784	44	6157
2026-01-11 13:04:58.05	55.78	21.91	-35.8	-36.6	24.7	0.00e+00	92	28	0	509607936	44	6170
2026-01-11 13:04:59.06	56.01	21.98	-35.8	-36.7	24.7	0.00e+00	0	28	0	511705088	44	6186
2026-01-11 13:05:00.06	56.24	22.06	-35.9	-36.8	24.6	0.00e+00	92	28	0	513802240	44	6277
2026-01-11 13:05:01.07	56.47	22.13	-36.0	-36.9	24.5	0.00e+00	70	28	0	514850816	44	6389
2026-01-11 13:05:02.08	56.70	22.20	-36.1	-37.1	24.4	0.00e+00	0	28	0	516947968	44	6496
2026-01-11 13:05:03.09	56.93	22.28	-36.2	-37.2	24.3	0.00e+00	0	28	0	519045120	44	6558
2026-01-11 13:05:04.10	57.17	22.35	-36.3	-37.3	24.2	0.00e+00	0	28	0	521142272	44	6621
2026-01-11 13:05:05.11	57.40	22.42	-36.4	-37.4	24.1	0.00e+00	74	28	0	523239424	44	6733
2026-01-11 13:05:06.12	57.64	22.50	-36.6	-37.6	24.0	0.00e+00	0	28	0	524288000	44	6851
2026-01-11 13:05:07.13	57.88	22.57	-36.6	-37.5	24.0	0.00e+00	90	28	0	526385152	44	6777
2026-01-11 13:05:08.14	58.11	22.64	-36.7	-37.6	23.9	0.00e+00	0	28	0	528482304	44	6884
2026-01-11 13:05:09.15	58.35	22.71	-36.4	-37.3	24.2	0.00e+00	11	28	0	530579456	44	6629
2026-01-11 13:05:10.16	58.59	22.78	-36.2	-37.1	24.3	0.00e+00	0	28	0	532676608	44	6490
2026-01-11 13:05:11.17	58.84	22.85	-36.3	-37.1	24.2	0.00e+00	0	28	0	533725184	44	6532
2026-01-11 13:05:12.18	59.08	22.92	-36.2	-37.0	24.3	0.00e+00	0	28	0	535822336	44	6444
2026-01-11 13:05:13.19	59.32	22.99	-36.2	-37.1	24.3	0.00e+00	9	28	0	537919488	44	6489
2026-01-11 13:05:14.20	59.57	23.06	-36.4	-37.2	24.2	0.00e+00	92	28	0	540016640	44	6596
2026-01-11 13:05:15.21	59.81	23.13	-36.4	-37.3	24.2	0.00e+00	0	28	0	542113792	44	6649
2026-01-11 13:05:16.21	60.06	23.20	-36.3	-37.2	24.2	0.00e+00	92	28	0	543162368	44	6588
2026-01-11 13:05:17.22	60.31	23.27	-36.4	-37.3	24.2	0.00e+00	9	28	0	545259520	44	6631
2026-01-11 13:05:18.23	60.55	23.34	-36.4	-37.2	24.4	0.00e+00	0	28	0	547356672	44	6581
2026-01-11 13:05:19.24	60.80	23.41	-36.3	-37.1	24.4	0.00e+00	78	28	0	549453824	44	6536
2026-01-11 13:05:20.25	61.06	23.48	-36.3	-37.2	24.3	0.00e+00	0	28	0	551550976	44	6553
2026-01-11 13:05:21.26	61.31	23.54	-36.5	-37.3	24.1	0.00e+00	92	28	0	552599552	44	6678
2026-01-11 13:05:22.27	61.56	23.61	-36.7	-37.5	24.0	0.00e+00	0	28	0	554696704	46	6094
2026-01-11 13:05:23.28	61.82	23.68	-36.8	-37.7	23.9	0.00e+00	90	28	0	556793856	46	6189
2026-01-11 13:05:24.29	62.07	23.74	-36.8	-37.7	23.8	0.00e+00	0	28	0	558891008	46	6227
2026-01-11 13:05:25.30	62.33	23.81	-37.1	-38.0	23.6	0.00e+00	48	28	0	560988160	46	6427
2026-01-11 13:05:26.31	62.59	23.87	-37.2	-38.2	23.4	0.00e+00	0	28	0	563085312	46	6548
2026-01-11 13:05:27.32	62.84	23.94	-37.5	-38.4	23.3	0.00e+00	0	28	0	564133888	46	6724
2026-01-11 13:05:28.33	63.10	24.00	-37.5	-38.4	23.2	0.00e+00	8	28	0	566231040	46	6761
2026-01-11 13:05:29.34	63.36	24.07	-37.7	-38.6	23.0	0.00e+00	2	28	0	568328192	46	6899
2026-01-11 13:05:30.35	63.63	24.13	-37.6	-38.6	23.1	0.00e+00	92	28	0	570425344	46	6868
2026-01-11 13:05:31.36	63.89	24.19	-37.7	-38.6	23.1	0.00e+00	0	28	0	572522496	46	6901
2026-01-11 13:05:32.36	64.15	24.26	-37.6	-38.6	23.1	0.00e+00	91	28	0	573571072	48	6143
2026-01-11 13:05:33.37	64.42	24.32	-37.6	-38.6	23.0	0.00e+00	10	28	0	575668224	48	6120
2026-01-11 13:05:34.38	64.68	24.38	-37.8	-38.7	23.0	0.00e+00	0	28	0	577765376	48	6215
2026-01-11 13:05:35.39	64.95	24.44	-37.8	-38.8	22.8	0.00e+00	0	28	0	579862528	48	6301
2026-01-11 13:05:36.40	65.22	24.50	-37.9	-38.9	22.8	0.00e+00	9	28	0	581959680	48	6337
2026-01-11 13:05:37.41	65.49	24.56	-38.1	-39.1	22.6	0.00e+00	92	28	0	583008256	48	6479
2026-01-11 13:05:38.42	65.76	24.62	-38.3	-39.3	22.4	0.00e+00	0	28	0	585105408	48	6662
2026-01-11 13:05:39.43	66.03	24.68	-38.4	-39.5	22.2	0.00e+00	92	28	0	587202560	48	6808
2026-01-11 13:05:40.44	66.30	24.74	-38.6	-39.6	22.1	0.00e+00	0	28	0	589299712	48	6906
2026-01-11 13:05:41.45	66.57	24.80	-38.6	-39.7	22.1	0.00e+00	0	28	0	591396864	48	6944
2026-01-11 13:05:42.46	66.85	24.85	-38.6	-39.7	22.0	0.00e+00	0	28	0	592445440	48	6985
2026-01-11 13:05:43.47	67.12	24.91	-38.5	-39.6	22.2	0.00e+00	72	28	0	594542592	48	6859
2026-01-11 13:05:44.48	67.40	24.97	-38.5	-39.6	22.2	0.00e+00	91	28	0	596639744	48	6896
2026-01-11 13:05:45.49	67.67	25.02	-38.2	-39.2	22.1	0.00e+00	0	28	0	598736896	48	6591
2026-01-11 13:05:46.50	67.95	25.08	-38.3	-39.3	22.4	0.00e+00	92	28	0	600834048	48	6687
2026-01-11 13:05:47.51	68.23	25.13	-38.3	-39.3	22.4	0.00e+00	0	28	0	601882624	48	6666
2026-01-11 13:05:48.52	68.51	25.19	-38.5	-39.6	22.2	0.00e+00	83	28	0	603979776	48	6858
2026-01-11 13:05:49.53	68.79	25.24	-38.8	-40.0	21.9	0.00e+00	0	28	0	606076928	48	7174
2026-01-11 13:05:50.54	69.07	25.29	-39.4	-40.6	21.2	0.00e+00	4	28	0	608174080	50	6849
2026-01-11 13:05:51.55	69.35	25.35	-39.7	-41.0	20.8	0.00e+00	0	28	0	610271232	50	7198
2026-01-11 13:05:52.56	69.64	25.40	-40.0	-41.3	20.6	0.00e+00	2	28	0	611319808	52	6681
2026-01-11 13:05:53.57	69.92	25.45	-40.1	-41.4	20.6	0.00e+00	92	28	0	613416960	52	6699
2026-01-11 13:05:54.58	70.21	25.50	-40.0	-41.3	20.6	0.00e+00	0	28	0	615514112	52	6656
2026-01-11 13:05:55.59	70.49	25.55	-40.0	-41.3	20.6	0.00e+00	0	28	0	617611264	52	6654
2026-01-11 13:05:56.60	70.78	25.60	-39.5	-40.8	21.2	0.00e+00	8	28	0	619708416	52	6248
2026-01-11 13:05:57.61	71.07	25.65	-39.2	-40.3	21.6	0.00e+00	9	28	0	620756992	52	5940
2026-01-11 13:05:58.62	71.36	25.70	-39.0	-40.1	21.7	0.00e+00	0	28	0	622854144	52	5821
2026-01-11 13:05:59.63	71.65	25.74	-39.2	-40.3	21.6	0.00e+00	9	28	0	624951296	52	5926
2026-01-11 13:06:00.64	71.94	25.79	-38.9	-39.9	21.9	0.00e+00	92	28	0	627048448	52	5688
2026-01-11 13:06:01.65	72.23	25.83	-39.0	-40.1	21.8	0.00e+00	74	28	0	629145600	52	5779
2026-01-11 13:06:02.66	72.52	25.88	-39.2	-40.3	21.5	0.00e+00	92	28	0	631242752	52	5927
2026-01-11 13:06:03.67	72.81	25.92	-39.3	-40.5	21.4	0.00e+00	0	28	0	632291328	52	6066
2026-01-11 13:06:04.68	73.11	25.97	-39.4	-40.6	21.3	0.00e+00	73	28	0	634388480	52	6111
2026-01-11 13:06:05.69	73.40	26.01	-39.5	-40.7	21.1	0.00e+00	0	28	0	636485632	52	6212
2026-01-11 13:06:06.70	73.70	26.05	-39.3	-40.4	21.5	0.00e+00	0	28	0	638582784	52	6008
2026-01-11 13:06:07.71	73.99	26.09	-39.1	-40.3	21.6	0.00e+00	80	28	0	640679936	52	5899
2026-01-11 13:06:08.72	74.29	26.14	-39.1	-40.3	21.6	0.00e+00	0	28	0	641728512	52	5915
2026-01-11 13:06:09.73	74.59	26.18	-38.9	-40.1	21.7	0.00e+00	90	28	0	643825664	52	5779
2026-01-11 13:06:10.74	74.89	26.21	-39.1	-40.2	21.7	0.00e+00	7	28	0	645922816	52	5879
2026-01-11 13:06:11.75	75.19	26.25	-39.1	-40.3	21.6	0.00e+00	5	28	0	648019968	52	5911
2026-01-11 13:06:12.76	75.49	26.29	-38.8	-39.9	21.7	0.00e+00	7	28	0	650117120	52	5692
2026-01-11 13:06:13.77	75.79	26.33	-38.8	-39.9	21.9	0.00e+00	6	28	0	651165696	52	5683
2026-01-11 13:06:14.78	76.09	26.36	-38.7	-39.8	22.0	0.00e+00	13	29	0	653262848	50	6295
2026-01-11 13:06:15.79	76.39	26.40	-38.5	-39.6	22.2	0.00e+00	80	28	0	655360000	50	6114
2026-01-11 13:06:16.79	76.69	26.43	-38.6	-39.6	22.2	0.00e+00	91	28	0	657457152	50	6144
2026-01-11 13:06:17.80	76.99	26.47	-38.0	-39.0	22.8	0.00e+00	4	28	0	659554304	50	5720
2026-01-11 13:06:18.81	77.30	26.50	-37.9	-39.0	22.8	0.00e+00	3	28	0	660602880	50	5708
2026-01-11 13:06:19.82	77.60	26.53	-37.7	-38.7	23.0	0.00e+00	82	28	0	662700032	48	6218
2026-01-11 13:06:20.83	77.91	26.56	-37.7	-38.7	23.0	0.00e+00	1	28	0	664797184	48	6221
2026-01-11 13:06:21.84	78.21	26.59	-37.9	-38.9	22.9	0.00e+00	19	28	0	666894336	48	6329
2026-01-11 13:06:22.85	78.52	26.62	-38.1	-39.1	22.6	0.00e+00	0	28	0	668991488	48	6520
2026-01-11 13:06:23.86	78.83	26.65	-38.2	-39.2	22.5	0.00e+00	90	28	0	670040064	48	6591
2026-01-11 13:06:24.87	79.13	26.68	-38.4	-39.4	22.3	0.00e+00	0	29	0	672137216	48	6754
2026-01-11 13:06:25.88	79.44	26.71	-38.2	-39.2	22.5	0.00e+00	90	28	0	674234368	48	6609
2026-01-11 13:06:26.89	79.75	26.74	-38.4	-39.5	22.3	0.00e+00	0	29	0	676331520	48	6785
2026-01-11 13:06:27.90	80.06	26.76	-38.5	-39.5	22.4	0.00e+00	0	29	0	678428672	48	6828
2026-01-11 13:06:28.91	80.37	26.79	-38.6	-39.6	22.3	0.00e+00	0	28	0	679477248	48	6917
2026-01-11 13:06:29.92	80.68	26.81	-38.7	-39.8	22.0	0.00e+00	7	28	0	681574400	48	7008
2026-01-11 13:06:30.92	80.98	26.83	-38.7	-39.8	21.9	0.00e+00	63	29	0	683671552	48	7051
2026-01-11 13:06:31.93	81.30	26.85	-38.6	-39.7	22.0	0.00e+00	9	28	0	685768704	50	6225
2026-01-11 13:06:32.94	81.61	26.88	-38.7	-39.8	22.1	0.00e+00	90	28	0	687865856	50	6303
2026-01-11 13:06:33.96	81.92	26.90	-38.5	-39.6	22.2	0.00e+00	9	28	0	688914432	50	6106
2026-01-11 13:06:34.97	82.23	26.92	-38.3	-39.3	22.5	0.00e+00	6	28	0	691011584	50	5957
2026-01-11 13:06:35.97	82.54	26.93	-38.0	-39.0	22.7	0.00e+00	7	29	0	693108736	50	5697
2026-01-11 13:06:36.98	82.86	26.95	-38.1	-39.1	22.6	0.00e+00	72	29	0	695205888	50	5775
2026-01-11 13:06:38.00	83.17	26.97	-38.2	-39.1	22.6	0.00e+00	15	29	0	697303040	50	5824
2026-01-11 13:06:39.01	83.48	26.99	-37.9	-38.9	22.9	0.00e+00	9	29	0	699400192	50	5657
2026-01-11 13:06:40.01	83.80	27.00	-38.1	-39.1	22.6	0.00e+00	92	29	0	700448768	50	5775
2026-01-11 13:06:41.02	84.11	27.01	-37.7	-38.7	23.1	0.00e+00	72	29	0	702545920	48	6176
2026-01-11 13:06:42.03	84.42	27.03	-37.3	-38.3	23.3	0.00e+00	37	29	0	704643072	48	5915
2026-01-11 13:06:43.05	84.74	27.04	-37.4	-38.3	23.3	0.00e+00	72	29	0	706740224	48	5953
2026-01-11 13:06:44.06	85.06	27.05	-37.4	-38.4	23.2	0.00e+00	0	29	0	708837376	48	5983
2026-01-11 13:06:45.07	85.37	27.06	-37.6	-38.6	23.1	0.00e+00	0	29	0	709885952	48	6112
2026-01-11 13:06:46.08	85.69	27.07	-37.6	-38.5	23.1	0.00e+00	72	29	0	711983104	48	6094
2026-01-11 13:06:47.09	86.00	27.08	-37.6	-38.6	23.1	0.00e+00	92	29	0	714080256	48	6131
2026-01-11 13:06:48.10	86.32	27.09	-37.7	-38.7	23.1	0.00e+00	0	29	0	716177408	48	6186
2026-01-11 13:06:49.11	86.63	27.10	-37.7	-38.6	23.0	0.00e+00	92	29	0	718274560	48	6156
2026-01-11 13:06:50.12	86.95	27.10	-37.5	-38.4	23.2	0.00e+00	0	29	0	719323136	48	6007
2026-01-11 13:06:51.13	87.26	27.11	-37.1	-38.0	23.6	0.00e+00	0	29	0	721420288	48	5732
2026-01-11 13:06:52.14	87.58	27.11	-36.7	-37.6	23.8	0.00e+00	0	29	0	723517440	48	5477
2026-01-11 13:06:53.15	87.90	27.11	-36.7	-37.6	23.9	0.00e+00	4	29	0	725614592	46	6126
2026-01-11 13:06:54.16	88.21	27.12	-36.7	-37.6	23.9	0.00e+00	92	29	0	727711744	46	6140
2026-01-11 13:06:55.17	88.53	27.12	-37.0	-37.9	23.7	0.00e+00	4	29	0	728760320	46	6364
2026-01-11 13:06:56.18	88.85	27.12	-37.2	-38.2	23.4	0.00e+00	90	29	0	730857472	46	6584
2026-01-11 13:06:57.19	89.16	27.12	-37.5	-38.4	23.2	0.00e+00	7	29	0	732954624	46	6767
2026-01-11 13:06:58.19	89.47	27.12	-37.5	-38.5	23.2	0.00e+00	74	29	0	735051776	46	6806
2026-01-11 13:06:59.20	89.79	27.12	-37.7	-38.7	23.1	0.00e+00	0	29	0	737148928	46	6953
2026-01-11 13:07:00.21	90.11	27.11	-37.3	-38.2	23.3	0.00e+00	73	29	0	738197504	46	6590
2026-01-11 13:07:01.22	90.42	27.11	-37.4	-38.3	22.7	0.00e+00	0	29	0	740294656	46	6680
2026-01-11 13:07:02.23	90.74	27.10	-37.3	-38.3	23.3	0.00e+00	9	29	0	742391808	46	6628
2026-01-11 13:07:03.24	91.06	27.10	-37.1	-38.1	23.5	0.00e+00	92	29	0	744488960	46	6493
2026-01-11 13:07:04.25	91.37	27.09	-37.4	-38.4	23.2	0.00e+00	76	29	0	746586112	46	6725
2026-01-11 13:07:05.26	91.69	27.08	-37.7	-38.7	22.9	0.00e+00	92	29	0	747634688	46	6969
2026-01-11 13:07:06.27	92.00	27.07	-38.1	-39.1	22.6	0.00e+00	73	29	0	749731840	48	6509
2026-01-11 13:07:07.28	92.32	27.06	-38.3	-39.4	22.4	0.00e+00	0	29	0	751828992	48	6697
2026-01-11 13:07:08.29	92.63	27.05	-38.5	-39.5	22.2	0.00e+00	0	29	0	753926144	48	6835
2026-01-11 13:07:09.30	92.95	27.04	-38.4	-39.5	22.3	0.00e+00	0	29	0	756023296	48	6798
2026-01-11 13:07:10.31	93.26	27.03	-38.5	-39.5	22.3	0.00e+00	92	29	0	757071872	48	6827
2026-01-11 13:07:11.32	93.58	27.02	-38.2	-39.3	22.4	0.00e+00	0	29	0	759169024	48	6631
2026-01-11 13:07:12.32	93.89	27.00	-38.0	-39.0	22.7	0.00e+00	92	29	0	761266176	48	6412
2026-01-11 13:07:13.33	94.20	26.99	-37.8	-38.8	22.8	0.00e+00	0	29	0	763363328	48	6311
2026-01-11 13:07:14.34	94.52	26.97	-37.3	-38.3	23.3	0.00e+00	0	29	0	765460480	48	5934
2026-01-11 13:07:15.35	94.83	26.96	-37.2	-38.2	23.5	0.00e+00	0	29	0	767557632	48	5871
2026-01-11 13:07:16.36	95.14	26.94	-37.2	-38.2	23.4	0.00e+00	0	29	0	768606208	48	5878
2026-01-11 13:07:17.37	95.45	26.92	-37.5	-38.5	23.2	0.00e+00	90	29	0	770703360	48	6059
2026-01-11 13:07:18.38	95.77	26.90	-37.7	-38.7	23.0	0.00e+00	0	29	0	772800512	48	6211
2026-01-11 13:07:19.39	96.08	26.88	-37.9	-38.9	22.9	0.00e+00	90	29	0	774897664	48	6337
2026-01-11 13:07:20.40	96.39	26.86	-38.1	-39.0	22.8	0.00e+00	5	29	0	776994816	48	6457
2026-01-11 13:07:21.41	96.70	26.84	-38.0	-38.9	22.8	0.00e+00	59	29	0	778043392	48	6388
2026-01-11 13:07:22.41	97.01	26.81	-37.8	-38.7	23.0	0.00e+00	2	29	0	780140544	48	6226
2026-01-11 13:07:23.42	97.32	26.79	-37.8	-38.7	23.1	0.00e+00	0	29	0	782237696	48	6225
2026-01-11 13:07:24.44	97.63	26.77	-37.6	-38.6	23.2	0.00e+00	72	29	0	784334848	48	6132
2026-01-11 13:07:25.44	97.94	26.74	-37.5	-38.4	23.2	0.00e+00	0	29	0	786432000	48	6032
2026-01-11 13:07:26.45	98.25	26.71	-37.6	-38.5	23.1	0.00e+00	92	29	0	787480576	48	6097
2026-01-11 13:07:27.46	98.56	26.69	-37.4	-38.3	23.3	0.00e+00	0	29	0	789577728	48	5961
2026-01-11 13:07:28.47	98.86	26.66	-37.5	-38.5	23.2	0.00e+00	93	29	0	791674880	48	6048
2026-01-11 13:07:29.48	99.17	26.63	-37.5	-38.5	23.1	0.00e+00	73	29	0	793772032	48	6065
2026-01-11 13:07:30.49	99.48	26.60	-37.6	-38.6	23.1	0.00e+00	2	29	0	795869184	48	6118
2026-01-11 13:07:31.50	99.78	26.57	-37.7	-38.7	22.9	0.00e+00	0	29	0	796917760	48	6204
2026-01-11 13:07:32.51	100.09	26.54	-37.5	-38.5	23.2	0.00e+00	0	29	0	799014912	48	6065
2026-01-11 13:07:33.52	100.40	26.51	-37.5	-38.4	23.3	0.00e+00	92	29	0	801112064	48	6007
2026-01-11 13:07:34.53	100.70	26.47	-37.4	-38.3	23.3	0.00e+00	0	29	0	803209216	48	5932
2026-01-11 13:07:35.54	101.00	26.44	-37.4	-38.3	23.2	0.00e+00	92	29	0	805306368	48	5964
2026-01-11 13:07:36.55	101.31	26.41	-37.2	-38.1	23.4	0.00e+00	8	29	0	806354944	48	5820
2026-01-11 13:07:37.56	101.61	26.37	-37.1	-38.0	23.6	0.00e+00	7	29	0	808452096	48	5761
2026-01-11 13:07:38.56	101.91	26.33	-37.0	-37.9	23.4	0.00e+00	0	29	0	810549248	48	5658
2026-01-11 13:07:39.58	102.21	26.30	-37.1	-37.9	23.6	0.00e+00	2	29	0	812646400	48	5691
2026-01-11 13:07:40.59	102.51	26.26	-37.0	-37.9	23.7	0.00e+00	59	29	0	814743552	48	5656
2026-01-11 13:07:41.59	102.81	26.22	-36.7	-37.6	24.0	0.00e+00	8	29	0	815792128	46	6136
2026-01-11 13:07:42.60	103.11	26.18	-36.6	-37.5	24.1	0.00e+00	91	29	0	817889280	46	6066
2026-01-11 13:07:43.62	103.41	26.14	-36.4	-37.2	24.2	0.00e+00	7	29	0	819986432	46	5890
2026-01-11 13:07:44.62	103.71	26.10	-36.4	-37.3	24.2	0.00e+00	72	29	0	822083584	46	5955
2026-01-11 13:07:45.63	104.00	26.06	-36.3	-37.2	24.3	0.00e+00	75	29	0	824180736	46	5864
2026-01-11 13:07:46.64	104.30	26.02	-36.5	-37.3	24.2	0.00e+00	0	29	0	825229312	46	5948
2026-01-11 13:07:47.65	104.59	25.97	-36.3	-37.2	24.3	0.00e+00	0	29	0	827326464	46	5841
2026-01-11 13:07:48.66	104.89	25.93	-36.2	-37.1	24.4	0.00e+00	0	29	0	829423616	46	5765
2026-01-11 13:07:49.67	105.18	25.89	-36.0	-36.9	24.6	0.00e+00	92	29	0	831520768	46	5659
2026-01-11 13:07:50.68	105.48	25.84	-36.0	-36.9	24.5	0.00e+00	5	29	0	833617920	46	5643
2026-01-11 13:07:51.69	105.77	25.80	-36.1	-37.0	24.5	0.00e+00	90	29	0	835715072	46	5697
2026-01-11 13:07:52.70	106.06	25.75	-36.3	-37.2	24.3	0.00e+00	6	29	0	836763648	46	5880
2026-01-11 13:07:53.71	106.35	25.70	-36.3	-37.2	24.3	0.00e+00	4	29	0	838860800	46	5884
2026-01-11 13:07:54.72	106.64	25.65	-36.2	-37.1	24.4	0.00e+00	6	29	0	840957952	46	5785
2026-01-11 13:07:55.74	106.93	25.61	-36.2	-37.1	24.4	0.00e+00	7	29	0	843055104	46	5824
2026-01-11 13:07:56.74	107.22	25.56	-36.0	-36.8	24.6	0.00e+00	90	29	0	845152256	46	5619
2026-01-11 13:07:57.76	107.51	25.51	-35.8	-36.6	24.8	0.00e+00	7	29	0	846200832	46	5484
2026-01-11 13:07:58.76	107.79	25.46	-35.9	-36.8	24.7	0.00e+00	90	29	0	848297984	44	6250
2026-01-11 13:07:59.78	108.08	25.40	-36.2	-37.1	24.3	0.00e+00	7	29	0	850395136	44	6491
2026-01-11 13:08:00.78	108.36	25.35	-36.5	-37.3	24.1	0.00e+00	5	29	0	852492288	44	6688
2026-01-11 13:08:01.79	108.64	25.30	-36.7	-37.6	24.0	0.00e+00	6	29	0	854589440	44	6865
2026-01-11 13:08:02.80	108.93	25.25	-36.4	-37.3	24.1	0.00e+00	7	29	0	855638016	44	6661
2026-01-11 13:08:03.82	109.21	25.19	-36.3	-37.1	24.3	0.00e+00	91	29	0	857735168	44	6535
2026-01-11 13:08:04.83	109.49	25.14	-36.1	-37.0	24.5	0.00e+00	7	29	0	859832320	44	6429
2026-01-11 13:08:05.83	109.77	25.09	-36.1	-36.9	24.4	0.00e+00	91	29	0	861929472	44	6390
2026-01-11 13:08:06.84	110.05	25.03	-35.9	-36.8	24.6	0.00e+00	0	29	0	864026624	44	6272
2026-01-11 13:08:07.85	110.32	24.97	-35.9	-36.8	24.6	0.00e+00	91	29	0	865075200	44	6264
2026-01-11 13:08:08.86	110.60	24.92	-35.9	-36.7	24.6	0.00e+00	0	29	0	867172352	44	6224
2026-01-11 13:08:09.88	110.88	24.86	-36.1	-36.9	24.4	0.00e+00	0	29	0	869269504	44	6376
2026-01-11 13:08:10.88	111.15	24.80	-36.2	-37.0	24.3	0.00e+00	84	29	0	871366656	44	6448
2026-01-11 13:08:11.89	111.43	24.74	-36.4	-37.3	24.1	0.00e+00	0	29	0	873463808	44	6638
2026-01-11 13:08:12.90	111.70	24.69	-36.6	-37.5	24.0	0.00e+00	92	29	0	874512384	44	6778
2026-01-11 13:08:13.91	111.97	24.63	-36.7	-37.6	23.9	0.00e+00	0	29	0	876609536	44	6875
2026-01-11 13:08:14.92	112.24	24.57	-36.9	-37.7	23.8	0.00e+00	90	29	0	878706688	46	6238
2026-01-11 13:08:15.93	112.51	24.51	-37.1	-38.0	23.7	0.00e+00	0	29	0	880803840	46	6407
2026-01-11 13:08:16.94	112.78	24.45	-37.0	-37.9	23.7	0.00e+00	6	29	0	882900992	46	6326
2026-01-11 13:08:17.95	113.05	24.38	-36.9	-37.8	23.7	0.00e+00	0	29	0	883949568	46	6276
2026-01-11 13:08:18.96	113.32	24.32	-36.8	-37.7	23.8	0.00e+00	2	29	0	886046720	46	6197
2026-01-11 13:08:19.97	113.58	24.26	-36.6	-37.5	24.0	0.00e+00	92	29	0	888143872	46	6040
2026-01-11 13:08:20.98	113.85	24.20	-36.5	-37.3	24.1	0.00e+00	6	29	0	890241024	46	5962
2026-01-11 13:08:21.99	114.11	24.13	-36.5	-37.4	24.1	0.00e+00	92	29	0	892338176	46	5979
2026-01-11 13:08:23.00	114.37	24.07	-36.8	-37.7	23.9	0.00e+00	2	29	0	893386752	46	6184
2026-01-11 13:08:24.01	114.63	24.01	-36.7	-37.6	23.9	0.00e+00	2	29	0	895483904	46	6138
2026-01-11 13:08:25.02	114.90	23.94	-36.9	-37.8	23.8	0.00e+00	78	29	0	897581056	46	6286
2026-01-11 13:08:26.03	115.15	23.88	-36.8	-37.7	23.9	0.00e+00	2	29	0	899678208	46	6225
2026-01-11 13:08:27.04	115.41	23.81	-36.9	-37.8	23.7	0.00e+00	92	29	0	901775360	46	6302
2026-01-11 13:08:28.05	115.67	23.74	-37.0	-37.9	23.7	0.00e+00	0	29	0	903872512	46	6357
2026-01-11 13:08:29.06	115.93	23.68	-37.0	-37.9	23.6	0.00e+00	92	29	0	904921088	46	6360
2026-01-11 13:08:30.07	116.18	23.61	-37.1	-38.0	23.5	0.00e+00	0	29	0	907018240	46	6436
2026-01-11 13:08:31.08	116.44	23.54	-36.8	-37.7	23.8	0.00e+00	92	29	0	909115392	46	6234
2026-01-11 13:08:32.09	116.69	23.48	-36.7	-37.6	24.0	0.00e+00	0	29	0	911212544	46	6131
2026-01-11 13:08:33.10	116.94	23.41	-36.4	-37.3	24.2	0.00e+00	0	29	0	913309696	46	5912
2026-01-11 13:08:34.11	117.19	23.34	-36.4	-37.3	24.2	0.00e+00	5	29	0	914358272	46	5945
2026-01-11 13:08:35.12	117.44	23.27	-36.4	-37.3	24.2	0.00e+00	0	29	0	916455424	46	5934
2026-01-11 13:08:36.13	117.69	23.20	-36.5	-37.4	24.0	0.00e+00	91	29	0	918552576	46	6021
2026-01-11 13:08:37.14	117.94	23.13	-36.4	-37.4	24.0	0.00e+00	7	29	0	920649728	46	5976
2026-01-11 13:08:38.15	118.19	23.06	-36.5	-37.6	23.9	0.00e+00	91	29	0	922746880	46	6110
2026-01-11 13:08:39.15	118.43	22.99	-36.5	-37.5	23.9	0.00e+00	0	29	0	923795456	46	6091
2026-01-11 13:08:40.16	118.68	22.92	-36.6	-37.6	23.9	0.00e+00	2	29	0	925892608	46	6144
2026-01-11 13:08:41.17	118.92	22.85	-36.6	-37.5	24.0	0.00e+00	0	29	0	927989760	46	6099
2026-01-11 13:08:42.19	119.16	22.78	-36.6	-37.5	23.9	0.00e+00	78	29	0	930086912	46	6079
2026-01-11 13:08:43.20	119.41	22.71	-36.9	-37.8	23.7	0.00e+00	92	29	0	932184064	46	6295
2026-01-11 13:08:44.21	119.65	22.63	-37.0	-37.9	23.7	0.00e+00	5	29	0	933232640	46	6328
2026-01-11 13:08:45.21	119.88	22.56	-37.1	-38.0	23.5	0.00e+00	92	29	0	935329792	46	6435
2026-01-11 13:08:46.22	120.12	22.49	-36.8	-37.6	23.9	0.00e+00	7	29	0	937426944	46	6170
2026-01-11 13:08:47.23	120.36	22.42	-36.6	-37.4	24.1	0.00e+00	92	29	0	939524096	46	6025
2026-01-11 13:08:48.24	120.59	22.35	-36.3	-37.1	24.3	0.00e+00	77	29	0	941621248	46	5782
2026-01-11 13:08:49.25	120.83	22.27	-36.5	-37.3	24.2	0.00e+00	82	29	0	942669824	46	5949
2026-01-11 13:08:50.26	121.06	22.20	-36.9	-37.8	23.6	0.00e+00	92	29	0	944766976	46	6270
2026-01-11 13:08:51.27	121.30	22.12	-37.1	-38.0	23.5	0.00e+00	0	29	0	946864128	46	6442
2026-01-11 13:08:52.28	121.53	22.05	-37.1	-38.1	23.5	0.00e+00	92	29	0	948961280	46	6474
2026-01-11 13:08:53.29	121.76	21.98	-37.0	-37.9	23.7	0.00e+00	0	29	0	951058432	46	6356
2026-01-11 13:08:54.30	121.99	21.90	-36.7	-37.6	23.7	0.00e+00	75	29	0	952107008	46	6157
2026-01-11 13:08:55.31	122.22	21.83	-36.7	-37.6	23.7	0.00e+00	0	29	0	954204160	46	6161
2026-01-11 13:08:56.32	122.44	21.75	-36.7	-37.6	23.8	0.00e+00	0	29	0	956301312	46	6142
2026-01-11 13:08:57.33	122.67	21.68	-37.0	-37.9	23.6	0.00e+00	0	29	0	958398464	46	6323
2026-01-11 13:08:58.34	122.90	21.60	-37.4	-38.4	22.9	0.00e+00	0	30	0	960495616	46	6704
2026-01-11 13:08:59.35	123.12	21.52	-37.9	-38.9	22.6	0.00e+00	92	29	0	961544192	48	6365
2026-01-11 13:09:00.35	123.34	21.45	-38.2	-39.3	22.3	0.00e+00	0	30	0	963641344	48	6691
2026-01-11 13:09:01.36	123.56	21.37	-38.2	-39.4	22.2	0.00e+00	92	29	0	965738496	48	6763
2026-01-11 13:09:02.38	123.79	21.30	-38.1	-39.3	22.3	0.00e+00	8	29	0	967835648	48	6691
2026-01-11 13:09:03.38	124.00	21.22	-37.7	-38.9	22.9	0.00e+00	75	29	0	969932800	48	6351
2026-01-11 13:09:04.40	124.22	21.14	-37.4	-38.5	23.1	0.00e+00	0	29	0	972029952	48	6039
2026-01-11 13:09:05.40	124.44	21.07	-37.3	-38.3	23.3	0.00e+00	75	29	0	973078528	48	5914
2026-01-11 13:09:06.41	124.66	20.99	-37.5	-38.5	23.0	0.00e+00	90	29	0	975175680	48	6089
2026-01-11 13:09:07.42	124.87	20.91	-37.9	-38.9	22.7	0.00e+00	0	29	0	977272832	48	6346
2026-01-11 13:09:08.44	125.09	20.83	-38.3	-39.3	22.4	0.00e+00	92	29	0	979369984	48	6653
2026-01-11 13:09:09.44	125.30	20.76	-38.4	-39.4	22.3	0.00e+00	0	29	0	981467136	48	6744
2026-01-11 13:09:10.45	125.51	20.68	-38.1	-39.1	22.5	0.00e+00	12	30	0	982515712	48	6484
2026-01-11 13:09:11.46	125.73	20.60	-37.9	-38.9	22.7	0.00e+00	74	29	0	984612864	48	6346
2026-01-11 13:09:12.47	125.94	20.52	-37.7	-38.6	22.9	0.00e+00	0	29	0	986710016	48	6154
2026-01-11 13:09:13.48	126.15	20.45	-37.2	-38.1	23.4	0.00e+00	63	29	0	988807168	48	5782
2026-01-11 13:09:14.49	126.35	20.37	-37.2	-38.1	23.4	0.00e+00	0	29	0	990904320	48	5775
2026-01-11 13:09:15.50	126.56	20.29	-37.5	-38.4	23.1	0.00e+00	92	29	0	991952896	48	6019
2026-01-11 13:09:16.51	126.77	20.21	-37.8	-38.7	22.9	0.00e+00	0	29	0	994050048	48	6237
2026-01-11 13:09:17.52	126.97	20.13	-37.9	-38.9	22.7	0.00e+00	92	29	0	996147200	48	6376
2026-01-11 13:09:18.53	127.18	20.05	-37.7	-38.6	23.0	0.00e+00	0	29	0	998244352	48	6171
2026-01-11 13:09:19.54	127.38	19.97	-37.4	-38.4	23.1	0.00e+00	0	29	0	1000341504	48	5967
2026-01-11 13:09:20.55	127.58	19.89	-37.2	-38.2	23.3	0.00e+00	0	30	0	1001390080	48	5847
2026-01-11 13:09:21.56	127.78	19.82	-37.0	-37.9	23.6	0.00e+00	0	29	0	1003487232	48	5648
2026-01-11 13:09:22.57	127.98	19.74	-37.2	-38.1	23.4	0.00e+00	92	29	0	1005584384	48	5805
2026-01-11 13:09:23.57	128.18	19.66	-37.6	-38.5	22.9	0.00e+00	0	30	0	1007681536	48	6072
2026-01-11 13:09:24.59	128.38	19.58	-38.1	-39.1	22.5	0.00e+00	92	30	0	1009778688	48	6495
2026-01-11 13:09:25.59	128.58	19.50	-38.3	-39.3	22.3	0.00e+00	0	29	0	1010827264	48	6688
2026-01-11 13:09:26.60	128.77	19.42	-38.6	-39.7	22.0	0.00e+00	4	29	0	1012924416	48	6972
2026-01-11 13:09:27.61	128.97	19.34	-38.4	-39.5	22.1	0.00e+00	75	29	0	1015021568	48	6812
2026-01-11 13:09:28.62	129.16	19.26	-37.9	-38.9	22.8	0.00e+00	76	29	0	1017118720	48	6327
2026-01-11 13:09:29.63	129.36	19.18	-37.5	-38.5	23.1	0.00e+00	92	29	0	1019215872	48	6045
2026-01-11 13:09:30.64	129.55	19.10	-37.4	-38.3	23.1	0.00e+00	0	29	0	1020264448	48	5948
2026-01-11 13:09:31.65	129.74	19.02	-37.2	-38.1	23.3	0.00e+00	90	30	0	1022361600	48	5791
2026-01-11 13:09:32.66	129.93	18.94	-37.2	-38.2	23.4	0.00e+00	77	30	0	1024458752	48	5843
2026-01-11 13:09:33.67	130.12	18.86	-37.6	-38.6	22.9	0.00e+00	0	30	0	1026555904	48	6147
2026-01-11 13:09:34.68	130.31	18.78	-38.0	-39.1	22.5	0.00e+00	0	29	0	1028653056	48	6477
2026-01-11 13:09:35.69	130.50	18.70	-38.4	-39.6	22.0	0.00e+00	6	30	0	1029701632	48	6853
2026-01-11 13:09:36.70	130.68	18.62	-38.5	-39.7	22.0	0.00e+00	73	30	0	1031798784	48	6946
2026-01-11 13:09:37.71	130.87	18.54	-38.3	-39.5	22.1	0.00e+00	3	30	0	1033895936	48	6828
2026-01-11 13:09:38.72	131.05	18.46	-38.2	-39.3	22.3	0.00e+00	92	30	0	1035993088	48	6669
2026-01-11 13:09:39.73	131.24	18.38	-37.9	-39.0	22.6	0.00e+00	6	30	0	1038090240	48	6392
2026-01-11 13:09:40.74	131.42	18.30	-37.7	-38.7	22.9	0.00e+00	92	30	0	1040187392	48	6212
2026-01-11 13:09:41.75	131.60	18.22	-37.4	-38.3	23.2	0.00e+00	7	30	0	1041235968	48	5951
2026-01-11 13:09:42.76	131.78	18.14	-37.5	-38.5	23.1	0.00e+00	6	30	0	1043333120	48	6039
2026-01-11 13:09:43.77	131.96	18.06	-37.5	-38.5	22.9	0.00e+00	2	30	0	1045430272	48	6082
2026-01-11 13:09:44.78	132.14	17.98	-37.4	-38.5	23.0	0.00e+00	5	29	0	1047527424	48	6053
2026-01-11 13:09:45.79	132.32	17.90	-37.5	-38.5	23.0	0.00e+00	90	29	0	1049624576	48	6082
2026-01-11 13:09:46.80	132.50	17.82	-37.5	-38.5	23.0	0.00e+00	4	30	0	1050673152	48	6077
2026-01-11 13:09:47.81	132.67	17.74	-37.5	-38.5	23.0	0.00e+00	56	30	0	1052770304	48	6076
2026-01-11 13:09:48.82	132.85	17.66	-37.2	-38.2	23.3	0.00e+00	87	30	0	1054867456	48	5859
2026-01-11 13:09:49.83	133.02	17.58	-36.9	-37.9	23.5	0.00e+00	0	30	0	1056964608	48	5669
2026-01-11 13:09:50.84	133.20	17.50	-37.0	-37.9	23.5	0.00e+00	5	30	0	1059061760	48	5693
2026-01-11 13:09:51.85	133.37	17.42	-37.2	-38.1	23.3	0.00e+00	87	30	0	1060110336	48	5799
2026-01-11 13:09:52.86	133.54	17.34	-37.3	-38.2	23.2	0.00e+00	92	30	0	1062207488	48	5878
2026-01-11 13:09:53.87	133.71	17.26	-37.4	-38.4	23.1	0.00e+00	0	30	0	1064304640	48	5996
2026-01-11 13:09:54.88	133.88	17.18	-37.6	-38.6	22.9	0.00e+00	92	30	0	1066401792	48	6109
2026-01-11 13:09:55.89	134.05	17.10	-37.5	-38.4	23.1	0.00e+00	7	30	0	1068498944	48	6023
2026-01-11 13:09:56.90	134.22	17.02	-37.4	-38.4	23.1	0.00e+00	7	30	0	1069547520	48	5976
2026-01-11 13:09:57.90	134.39	16.94	-37.6	-38.5	22.8	0.00e+00	0	30	0	1071644672	48	6085
2026-01-11 13:09:58.91	134.55	16.86	-37.1	-38.0	23.1	0.00e+00	0	30	0	1073741824	48	5723
2026-01-11 13:09:59.92	134.72	16.78	-36.8	-37.7	23.7	0.00e+00	90	30	0	1075838976	48	5548
2026-01-11 13:10:00.93	134.88	16.70	-36.9	-37.7	23.6	0.00e+00	5	30	0	1077936128	48	5564
2026-01-11 13:10:01.94	135.05	16.62	-36.9	-37.8	23.6	0.00e+00	90	30	0	1078984704	48	5587
2026-01-11 13:10:02.95	135.21	16.54	-36.9	-37.8	23.6	0.00e+00	5	30	0	1081081856	48	5604
2026-01-11 13:10:03.96	135.37	16.46	-36.9	-37.8	23.6	0.00e+00	4	30	0	1083179008	48	5592
2026-01-11 13:10:04.97	135.54	16.38	-36.9	-37.8	23.6	0.00e+00	4	30	0	1085276160	48	5610
2026-01-11 13:10:05.98	135.70	16.30	-37.0	-37.9	23.5	0.00e+00	5	30	0	1087373312	48	5644
2026-01-11 13:10:06.99	135.86	16.22	-37.0	-37.9	23.4	0.00e+00	0	30	0	1088421888	48	5692
2026-01-11 13:10:08.00	136.02	16.14	-36.9	-37.8	23.6	0.00e+00	78	30	0	1090519040	48	5584
2026-01-11 13:10:09.01	136.17	16.06	-37.0	-37.9	23.4	0.00e+00	92	30	0	1092616192	48	5651
2026-01-11 13:10:10.02	136.33	15.98	-36.9	-37.8	23.5	0.00e+00	78	30	0	1094713344	48	5611
2026-01-11 13:10:11.03	136.49	15.90	-37.0	-38.0	23.5	0.00e+00	92	30	0	1096810496	48	5711
2026-01-11 13:10:12.04	136.64	15.82	-37.0	-38.0	23.4	0.00e+00	0	30	0	1097859072	48	5717
2026-01-11 13:10:13.05	136.80	15.74	-36.7	-37.7	23.7	0.00e+00	77	30	0	1099956224	48	5506
2026-01-11 13:10:14.06	136.95	15.66	-36.7	-37.6	23.8	0.00e+00	0	30	0	1102053376	46	6144
2026-01-11 13:10:15.07	137.11	15.58	-36.8	-37.7	23.7	0.00e+00	77	30	0	1104150528	46	6202
2026-01-11 13:10:16.08	137.26	15.50	-36.7	-37.6	23.7	0.00e+00	92	30	0	1106247680	46	6160
2026-01-11 13:10:17.09	137.41	15.43	-36.7	-37.7	23.7	0.00e+00	0	30	0	1108344832	46	6184
2026-01-11 13:10:18.10	137.56	15.35	-36.9	-37.8	23.5	0.00e+00	92	30	0	1109393408	46	6282
2026-01-11 13:10:19.10	137.71	15.27	-37.0	-37.9	23.5	0.00e+00	0	30	0	1111490560	46	6365
2026-01-11 13:10:20.12	137.86	15.19	-37.2	-38.1	23.2	0.00e+00	2	30	0	1113587712	46	6526
2026-01-11 13:10:21.13	138.01	15.11	-37.2	-38.2	23.2	0.00e+00	0	30	0	1115684864	46	6570
2026-01-11 13:10:22.13	138.16	15.03	-37.4	-38.4	23.0	0.00e+00	0	30	0	1117782016	46	6696
2026-01-11 13:10:23.14	138.30	14.95	-37.5	-38.5	23.0	0.00e+00	78	30	0	1118830592	46	6771
2026-01-11 13:10:24.15	138.45	14.88	-37.5	-38.4	23.0	0.00e+00	0	30	0	1120927744	46	6767
2026-01-11 13:10:25.16	138.60	14.80	-37.5	-38.5	22.9	0.00e+00	92	30	0	1123024896	46	6804
2026-01-11 13:10:26.18	138.74	14.72	-37.4	-38.4	23.0	0.00e+00	0	30	0	1125122048	46	6729
2026-01-11 13:10:27.18	138.89	14.64	-37.4	-38.4	23.0	0.00e+00	92	30	0	1126170624	46	6740
2026-01-11 13:10:28.19	139.03	14.56	-37.5	-38.5	22.9	0.00e+00	79	30	0	1128267776	46	6777
2026-01-11 13:10:29.20	139.17	14.48	-37.3	-38.3	23.1	0.00e+00	3	30	0	1130364928	46	6658
2026-01-11 13:10:30.21	139.32	14.41	-37.1	-38.0	23.4	0.00e+00	0	30	0	1132462080	46	6439
2026-01-11 13:10:31.22	139.46	14.33	-37.2	-38.1	23.3	0.00e+00	79	30	0	1134559232	46	6502
2026-01-11 13:10:32.23	139.60	14.25	-37.2	-38.2	23.2	0.00e+00	92	30	0	1136656384	46	6541
2026-01-11 13:10:33.24	139.74	14.17	-37.3	-38.3	23.1	0.00e+00	80	30	0	1137704960	46	6637
2026-01-11 13:10:34.25	139.88	14.09	-37.4	-38.3	23.0	0.00e+00	92	30	0	1139802112	46	6657
2026-01-11 13:10:35.26	140.02	14.02	-37.4	-38.4	23.0	0.00e+00	0	30	0	1141899264	46	6736
2026-01-11 13:10:36.27	140.15	13.94	-37.5	-38.5	22.9	0.00e+00	0	30	0	1143996416	46	6801
2026-01-11 13:10:37.28	140.29	13.86	-37.5	-38.5	22.7	0.00e+00	79	30	0	1146093568	46	6848
2026-01-11 13:10:38.29	140.43	13.78	-37.5	-38.4	22.8	0.00e+00	0	30	0	1147142144	46	6755
2026-01-11 13:10:39.29	140.56	13.71	-37.6	-38.6	22.6	0.00e+00	92	30	0	1149239296	46	6883
2026-01-11 13:10:40.30	140.70	13.63	-37.8	-38.8	22.4	0.00e+00	0	30	0	1151336448	48	6316
2026-01-11 13:10:41.31	140.83	13.55	-38.0	-39.1	22.1	0.00e+00	92	30	0	1153433600	48	6477
2026-01-11 13:10:42.32	140.97	13.48	-38.2	-39.3	21.8	0.00e+00	0	30	0	1155530752	48	6669
2026-01-11 13:10:43.33	141.10	13.40	-38.5	-39.6	21.5	0.00e+00	0	30	0	1156579328	48	6877
2026-01-11 13:10:44.34	141.23	13.32	-38.6	-39.8	21.3	0.00e+00	0	30	0	1158676480	48	7050
2026-01-11 13:10:45.35	141.36	13.25	-39.1	-40.3	20.8	0.00e+00	4	30	0	1160773632	50	6643
2026-01-11 13:10:46.36	141.49	13.17	-39.1	-40.3	20.7	0.00e+00	47	30	0	1162870784	50	6670
2026-01-11 13:10:47.37	141.63	13.09	-39.2	-40.6	20.5	0.00e+00	0	30	0	1164967936	50	6850
2026-01-11 13:10:48.38	141.75	13.02	-39.4	-40.8	20.3	0.00e+00	92	30	0	1166016512	50	7020
2026-01-11 13:10:49.39	141.88	12.94	-39.5	-40.9	20.3	0.00e+00	0	30	0	1168113664	50	7090
2026-01-11 13:10:50.40	142.01	12.87	-39.6	-40.9	20.2	0.00e+00	92	30	0	1170210816	50	7151
2026-01-11 13:10:51.41	142.14	12.79	-39.6	-40.9	20.2	0.00e+00	0	30	0	1172307968	50	7159
2026-01-11 13:10:52.42	142.27	12.71	-39.5	-40.8	20.3	0.00e+00	0	30	0	1174405120	50	7062
2026-01-11 13:10:53.43	142.39	12.64	-39.5	-40.8	20.4	0.00e+00	0	30	0	1175453696	50	7050
2026-01-11 13:10:54.44	142.52	12.56	-39.6	-40.9	20.2	0.00e+00	81	30	0	1177550848	50	7146
2026-01-11 13:10:55.45	142.65	12.49	-39.3	-40.6	20.5	0.00e+00	92	30	0	1179648000	50	6895
2026-01-11 13:10:56.46	142.77	12.41	-39.3	-40.6	20.6	0.00e+00	0	30	0	1181745152	50	6876
2026-01-11 13:10:57.47	142.90	12.34	-39.4	-40.7	20.5	0.00e+00	91	30	0	1183842304	50	6940
2026-01-11 13:10:58.48	143.02	12.26	-39.4	-40.7	20.5	0.00e+00	0	30	0	1184890880	50	6979
2026-01-11 13:10:59.49	143.14	12.19	-39.0	-40.3	20.9	0.00e+00	0	30	0	1186988032	50	6631
2026-01-11 13:11:00.49	143.26	12.11	-39.1	-40.4	20.8	0.00e+00	0	30	0	1189085184	50	6712
2026-01-11 13:11:01.49	143.38	12.04	-39.2	-40.4	20.8	0.00e+00	2	30	0	1191182336	50	6751
2026-01-11 13:11:02.50	143.51	11.96	-39.2	-40.5	20.6	0.00e+00	66	30	0	1193279488	50	6796
2026-01-11 13:11:03.51	143.63	11.89	-39.2	-40.5	20.7	0.00e+00	2	30	0	1194328064	50	6797
2026-01-11 13:11:04.52	143.75	11.81	-39.2	-40.5	20.7	0.00e+00	90	30	0	1196425216	50	6799
2026-01-11 13:11:05.53	143.87	11.74	-39.2	-40.4	20.7	0.00e+00	0	30	0	1198522368	50	6764
2026-01-11 13:11:06.54	143.98	11.67	-39.3	-40.5	20.7	0.00e+00	0	30	0	1200619520	50	6834
2026-01-11 13:11:07.55	144.10	11.59	-39.1	-40.4	20.7	0.00e+00	0	30	0	1202716672	50	6713
2026-01-11 13:11:08.55	144.22	11.52	-39.2	-40.4	20.7	0.00e+00	2	30	0	1204813824	50	6747
2026-01-11 13:11:09.56	144.34	11.44	-39.2	-40.4	20.7	0.00e+00	14	30	0	1205862400	50	6748
2026-01-11 13:11:10.57	144.45	11.37	-39.2	-40.5	20.8	0.00e+00	0	30	0	1207959552	50	6783
2026-01-11 13:11:11.58	144.57	11.30	-39.1	-40.3	20.9	0.00e+00	92	30	0	1210056704	50	6660
2026-01-11 13:11:12.59	144.68	11.22	-39.1	-40.3	21.0	0.00e+00	80	30	0	1212153856	50	6649
2026-01-11 13:11:13.60	144.80	11.15	-38.8	-40.0	21.2	0.00e+00	92	30	0	1214251008	50	6432
2026-01-11 13:11:14.61	144.91	11.08	-39.0	-40.2	21.0	0.00e+00	1	30	0	1215299584	50	6576
2026-01-11 13:11:15.62	145.03	11.00	-38.8	-39.9	21.3	0.00e+00	0	30	0	1217396736	50	6368
2026-01-11 13:11:16.63	145.14	10.93	-38.8	-39.9	21.3	0.00e+00	0	30	0	1219493888	50	6372
