passes_logs/2026/01/11/R4.6S_Anadyr/R4.6S_Anadyr__20260111_193905_NOAA_20_JPSS-1_rec.log

#Pass ID: 20260111_193905_NOAA 20 (JPSS-1)
#Satellite: NOAA 20 (JPSS-1)
#Configuration: NOAA 20
#almurnet v.1.7.20251203
#Start time: 2026-01-11 19:39:07

#Version: 2.2.20231116
#Station: R4.6S_Anadyr
#Location: 177.4865 lon 64.73178 lat
#TLE: 1 43013U 17073A   26010.88944318  .00000078  00000+0  57801-4 0  9992
#TLE: 2 43013  98.7631 311.8723 0001655  45.1140 315.0170 14.19535117422152

#Time	Az	El	Level	Level2	SNR	BER	BlckErr	Temp	State	Recorded	gain1	gain2
2026-01-11 19:39:07.43	56.44	0.09	-48.1	-63.0	3.5	1.51e+00	0	27	0	0	60	51165
2026-01-11 19:39:08.43	56.37	0.14	-48.2	-63.3	3.6	1.51e+00	0	28	104	0	60	53075
2026-01-11 19:39:09.44	56.29	0.19	-48.2	-63.4	3.6	1.51e+00	0	28	104	0	60	53675
2026-01-11 19:39:10.45	56.21	0.24	-48.2	-63.4	3.6	1.51e+00	0	28	104	0	60	53301
2026-01-11 19:39:11.47	56.13	0.29	-48.2	-63.4	3.6	1.51e+00	0	28	104	0	60	53695
2026-01-11 19:39:12.47	56.06	0.33	-48.2	-63.4	3.6	1.51e+00	0	29	104	0	60	53748
2026-01-11 19:39:13.48	55.98	0.38	-48.1	-63.4	3.6	1.51e+00	0	29	104	0	60	53545
2026-01-11 19:39:14.49	55.90	0.43	-48.2	-63.4	3.6	1.51e+00	0	29	104	0	60	53404
2026-01-11 19:39:15.50	55.82	0.48	-48.2	-63.4	3.6	1.51e+00	0	29	104	0	60	53161
2026-01-11 19:39:16.51	55.74	0.53	-48.1	-63.3	3.6	1.51e+00	0	29	104	0	60	53140
2026-01-11 19:39:17.52	55.67	0.58	-48.0	-63.3	3.6	1.51e+00	0	29	104	0	60	52908
2026-01-11 19:39:18.53	55.59	0.63	-48.1	-63.3	3.6	1.51e+00	0	29	104	0	60	52870
2026-01-11 19:39:19.54	55.51	0.68	-48.0	-63.1	3.6	1.51e+00	0	29	104	0	60	51879
2026-01-11 19:39:20.55	55.43	0.73	-47.9	-63.1	3.6	1.51e+00	0	29	104	0	60	51440
2026-01-11 19:39:21.56	55.35	0.78	-47.7	-62.9	3.6	1.51e+00	0	29	104	0	60	50458
2026-01-11 19:39:22.57	55.27	0.83	-47.4	-62.6	3.6	1.51e+00	0	29	104	0	60	48745
2026-01-11 19:39:23.58	55.19	0.88	-46.8	-62.0	3.6	1.51e+00	0	29	104	0	60	45369
2026-01-11 19:39:24.59	55.11	0.93	-46.5	-61.7	3.6	1.51e+00	0	29	104	0	60	44001
2026-01-11 19:39:25.60	55.03	0.97	-46.5	-61.7	3.6	1.51e+00	0	29	104	0	60	44047
2026-01-11 19:39:26.61	54.94	1.02	-46.5	-61.7	3.6	1.51e+00	0	29	104	0	60	43756
2026-01-11 19:39:27.62	54.86	1.07	-46.5	-61.7	3.6	1.51e+00	0	29	104	0	60	43940
2026-01-11 19:39:28.63	54.78	1.12	-46.5	-61.7	3.6	1.51e+00	0	29	104	0	60	43784
2026-01-11 19:39:29.64	54.70	1.17	-46.5	-61.7	3.6	1.51e+00	0	29	104	0	60	43861
2026-01-11 19:39:30.65	54.62	1.22	-46.5	-61.7	3.6	1.51e+00	0	29	104	0	60	43859
2026-01-11 19:39:31.66	54.53	1.27	-46.5	-61.6	3.6	1.51e+00	0	29	104	0	60	43645
2026-01-11 19:39:32.67	54.45	1.32	-46.5	-61.7	3.6	1.51e+00	0	29	104	0	60	43987
2026-01-11 19:39:33.68	54.37	1.37	-46.5	-61.7	3.6	1.51e+00	0	29	104	0	60	44055
2026-01-11 19:39:34.69	54.28	1.42	-46.5	-61.6	3.6	1.51e+00	0	29	104	0	60	43645
2026-01-11 19:39:35.70	54.20	1.47	-46.5	-61.7	3.6	1.51e+00	0	29	104	0	60	43782
2026-01-11 19:39:36.71	54.12	1.52	-46.5	-61.7	3.6	1.51e+00	0	29	104	0	60	43929
2026-01-11 19:39:37.72	54.03	1.57	-46.5	-61.6	3.6	1.51e+00	0	29	104	0	60	43589
2026-01-11 19:39:38.73	53.95	1.62	-46.5	-61.6	3.6	1.51e+00	0	29	104	0	60	43669
2026-01-11 19:39:39.74	53.86	1.67	-46.5	-61.6	3.6	1.51e+00	0	29	104	0	60	43597
2026-01-11 19:39:40.75	53.78	1.72	-46.5	-61.7	3.6	1.51e+00	0	29	104	0	60	43818
2026-01-11 19:39:41.76	53.69	1.77	-46.5	-61.6	3.6	1.51e+00	0	29	104	0	60	43667
2026-01-11 19:39:42.77	53.61	1.82	-46.5	-61.6	3.6	1.51e+00	0	29	104	0	60	43572
2026-01-11 19:39:43.78	53.52	1.87	-46.5	-61.6	3.6	1.51e+00	0	29	104	0	60	43508
2026-01-11 19:39:44.78	53.43	1.92	-46.5	-61.6	3.6	1.51e+00	0	29	104	0	60	43508
2026-01-11 19:39:45.79	53.35	1.97	-46.5	-61.6	3.6	1.51e+00	0	29	104	0	60	43211
2026-01-11 19:39:46.80	53.26	2.02	-46.5	-61.6	3.6	1.51e+00	0	29	104	0	60	43247
2026-01-11 19:39:47.81	53.17	2.07	-46.5	-61.5	3.6	1.51e+00	0	29	104	0	60	42929
2026-01-11 19:39:48.82	53.08	2.12	-46.5	-61.4	3.6	1.51e+00	0	29	104	0	60	42245
2026-01-11 19:39:49.83	53.00	2.17	-46.5	-61.3	3.6	1.51e+00	0	29	104	0	60	42218
2026-01-11 19:39:50.84	52.91	2.22	-46.5	-61.5	3.6	1.51e+00	0	29	104	0	60	42893
2026-01-11 19:39:51.85	52.82	2.27	-46.5	-61.6	3.6	1.51e+00	0	29	104	0	60	43237
2026-01-11 19:39:52.86	52.73	2.32	-46.5	-61.6	3.6	1.51e+00	0	29	104	0	60	43615
2026-01-11 19:39:53.87	52.64	2.37	-46.5	-61.6	3.6	1.51e+00	0	29	104	0	60	43341
2026-01-11 19:39:54.88	52.55	2.42	-46.5	-61.6	3.6	1.51e+00	0	29	104	0	60	43346
2026-01-11 19:39:55.89	52.46	2.47	-46.6	-61.6	3.6	1.51e+00	0	29	104	0	60	43431
2026-01-11 19:39:56.90	52.37	2.52	-46.5	-61.7	3.6	1.51e+00	0	29	104	0	60	43835
2026-01-11 19:39:57.92	52.28	2.57	-46.5	-61.6	3.6	1.51e+00	0	29	104	0	60	43478
2026-01-11 19:39:58.92	52.19	2.62	-46.5	-61.2	3.6	1.51e+00	0	29	104	0	60	41451
2026-01-11 19:39:59.93	52.10	2.67	-46.5	-60.7	3.6	1.51e+00	0	29	104	0	60	39174
2026-01-11 19:40:00.94	52.01	2.72	-46.4	-60.8	3.6	1.51e+00	0	29	104	0	60	39636
2026-01-11 19:40:01.95	51.91	2.77	-46.5	-61.3	3.6	1.51e+00	0	29	104	0	60	42073
2026-01-11 19:40:02.96	51.82	2.82	-46.4	-60.8	3.6	1.51e+00	0	29	104	0	60	39613
2026-01-11 19:40:03.97	51.73	2.87	-46.3	-58.3	3.7	1.51e+00	0	30	104	0	60	29784
2026-01-11 19:40:04.98	51.64	2.92	-45.9	-53.5	6.4	8.99e-01	0	29	0	0	60	17109
2026-01-11 19:40:05.99	51.54	2.97	-45.2	-50.8	9.4	4.29e-02	0	30	0	2097152	60	12504
2026-01-11 19:40:07.00	51.45	3.03	-44.8	-49.6	10.9	5.07e-03	0	29	0	4194304	60	10858
2026-01-11 19:40:08.01	51.36	3.08	-45.6	-51.8	7.8	7.56e-04	0	30	0	5242880	60	14060
2026-01-11 19:40:09.02	51.26	3.13	-46.5	-57.6	3.6	4.95e-01	23	29	104	7340032	60	27561
2026-01-11 19:40:10.03	51.17	3.18	-44.9	-50.0	5.4	1.49e+00	0	30	104	7340032	60	11483
2026-01-11 19:40:11.04	51.07	3.23	-42.3	-44.6	16.0	2.16e-02	0	29	0	7340032	58	6896
2026-01-11 19:40:12.05	50.98	3.28	-46.4	-60.8	3.6	5.15e-01	0	29	104	8388608	60	39616
2026-01-11 19:40:13.06	50.88	3.33	-43.3	-46.4	5.9	1.50e+00	24	29	104	8388608	60	7550
2026-01-11 19:40:14.07	50.79	3.38	-42.7	-45.2	15.4	0.00e+00	0	29	0	8388608	58	7393
2026-01-11 19:40:15.07	50.69	3.43	-42.8	-45.4	15.5	0.00e+00	0	29	0	10485760	58	7572
2026-01-11 19:40:16.08	50.59	3.48	-42.0	-44.2	16.6	0.00e+00	0	29	0	11534336	58	6570
2026-01-11 19:40:17.09	50.50	3.53	-42.2	-44.4	16.4	0.00e+00	0	30	0	13631488	56	7589
2026-01-11 19:40:18.10	50.40	3.58	-42.0	-44.1	16.8	0.00e+00	0	30	0	15728640	56	7308
2026-01-11 19:40:19.11	50.30	3.63	-41.9	-44.0	16.8	0.00e+00	0	30	0	17825792	56	7212
2026-01-11 19:40:20.12	50.21	3.68	-41.8	-43.9	17.1	0.00e+00	0	30	0	19922944	56	7118
2026-01-11 19:40:21.13	50.11	3.73	-41.7	-43.7	17.3	0.00e+00	0	29	0	22020096	56	6939
2026-01-11 19:40:22.14	50.01	3.78	-41.6	-43.6	17.3	0.00e+00	0	29	0	23068672	56	6850
2026-01-11 19:40:23.15	49.91	3.84	-41.7	-43.7	17.3	0.00e+00	0	30	0	25165824	56	6976
2026-01-11 19:40:24.16	49.81	3.89	-41.6	-43.6	17.4	0.00e+00	0	30	0	27262976	56	6896
2026-01-11 19:40:25.17	49.71	3.94	-41.6	-43.5	17.5	0.00e+00	0	30	0	29360128	56	6790
2026-01-11 19:40:26.18	49.61	3.99	-41.7	-43.7	17.2	0.00e+00	0	30	0	31457280	56	6977
2026-01-11 19:40:27.19	49.51	4.04	-41.6	-43.6	17.4	0.00e+00	0	30	0	32505856	56	6892
2026-01-11 19:40:28.19	49.41	4.09	-41.5	-43.4	17.6	0.00e+00	0	29	0	34603008	56	6766
2026-01-11 19:40:29.20	49.31	4.14	-41.4	-43.3	17.8	0.00e+00	0	30	0	36700160	56	6653
2026-01-11 19:40:30.21	49.21	4.19	-41.3	-43.1	18.0	0.00e+00	0	30	0	38797312	56	6504
2026-01-11 19:40:31.22	49.11	4.24	-41.3	-43.2	17.9	0.00e+00	0	30	0	40894464	56	6562
2026-01-11 19:40:32.23	49.00	4.29	-41.2	-43.1	18.0	0.00e+00	0	30	0	41943040	56	6468
2026-01-11 19:40:33.24	48.90	4.34	-41.3	-43.1	17.9	0.00e+00	0	30	0	44040192	56	6535
2026-01-11 19:40:34.25	48.80	4.39	-41.2	-43.0	18.1	0.00e+00	0	30	0	46137344	56	6420
2026-01-11 19:40:35.26	48.69	4.45	-41.0	-42.8	18.3	0.00e+00	0	30	0	48234496	56	6251
2026-01-11 19:40:36.27	48.59	4.50	-41.0	-42.8	18.3	0.00e+00	0	30	0	50331648	56	6252
2026-01-11 19:40:37.27	48.49	4.55	-40.9	-42.6	18.5	0.00e+00	0	30	0	51380224	56	6146
2026-01-11 19:40:38.28	48.38	4.60	-41.0	-42.7	18.4	0.00e+00	0	30	0	53477376	56	6240
2026-01-11 19:40:39.29	48.28	4.65	-41.0	-42.8	18.3	0.00e+00	0	30	0	55574528	56	6253
2026-01-11 19:40:40.30	48.17	4.70	-40.9	-42.5	18.6	0.00e+00	0	30	0	57671680	56	6081
2026-01-11 19:40:41.31	48.07	4.75	-40.9	-42.6	18.5	0.00e+00	0	30	0	59768832	56	6160
2026-01-11 19:40:42.32	47.96	4.80	-41.0	-42.7	18.4	0.00e+00	0	30	0	60817408	56	6236
2026-01-11 19:40:43.33	47.86	4.85	-41.0	-42.7	18.4	0.00e+00	0	30	0	62914560	56	6228
2026-01-11 19:40:44.34	47.75	4.90	-41.0	-42.6	18.5	0.00e+00	0	30	0	65011712	56	6172
2026-01-11 19:40:45.35	47.64	4.96	-40.9	-42.5	18.5	0.00e+00	0	30	0	67108864	54	6838
2026-01-11 19:40:46.36	47.53	5.01	-40.9	-42.6	18.5	0.00e+00	0	30	0	69206016	54	6883
2026-01-11 19:40:47.37	47.43	5.06	-40.8	-42.4	18.7	0.00e+00	0	30	0	70254592	54	6716
2026-01-11 19:40:48.38	47.32	5.11	-40.8	-42.4	18.7	0.00e+00	0	30	0	72351744	54	6713
2026-01-11 19:40:49.38	47.21	5.16	-40.7	-42.3	18.7	0.00e+00	0	30	0	74448896	54	6647
2026-01-11 19:40:50.39	47.10	5.21	-40.7	-42.3	18.6	0.00e+00	0	30	0	76546048	54	6683
2026-01-11 19:40:51.40	46.99	5.26	-40.8	-42.5	18.6	0.00e+00	0	30	0	78643200	54	6781
2026-01-11 19:40:52.41	46.88	5.31	-40.9	-42.6	18.6	0.00e+00	0	30	0	79691776	54	6871
2026-01-11 19:40:53.42	46.77	5.36	-40.7	-42.3	18.9	0.00e+00	0	30	0	81788928	54	6643
2026-01-11 19:40:54.43	46.66	5.41	-40.7	-42.2	18.9	0.00e+00	0	30	0	83886080	54	6612
2026-01-11 19:40:55.44	46.55	5.46	-40.5	-42.1	19.1	0.00e+00	0	30	0	85983232	54	6466
2026-01-11 19:40:56.45	46.44	5.52	-40.4	-41.9	19.2	0.00e+00	0	30	0	88080384	54	6368
2026-01-11 19:40:57.46	46.33	5.57	-40.3	-41.7	19.4	0.00e+00	0	30	0	90177536	54	6235
2026-01-11 19:40:58.47	46.21	5.62	-40.4	-41.9	19.2	0.00e+00	0	30	0	91226112	54	6384
2026-01-11 19:40:59.48	46.10	5.67	-40.4	-41.9	19.3	0.00e+00	0	30	0	93323264	54	6349
2026-01-11 19:41:00.49	45.99	5.72	-40.4	-41.9	19.3	0.00e+00	0	30	0	95420416	54	6335
2026-01-11 19:41:01.50	45.88	5.77	-40.3	-41.8	19.3	0.00e+00	0	30	0	97517568	54	6284
2026-01-11 19:41:02.51	45.76	5.82	-40.2	-41.6	19.6	0.00e+00	0	30	0	99614720	54	6151
2026-01-11 19:41:03.52	45.65	5.87	-40.5	-42.0	19.2	0.00e+00	0	30	0	100663296	54	6412
2026-01-11 19:41:04.53	45.53	5.92	-40.4	-42.0	19.2	0.00e+00	0	30	0	102760448	54	6399
2026-01-11 19:41:05.54	45.42	5.97	-40.4	-41.9	19.3	0.00e+00	0	30	0	104857600	54	6319
2026-01-11 19:41:06.55	45.30	6.03	-40.4	-42.0	19.3	0.00e+00	0	30	0	106954752	54	6394
2026-01-11 19:41:07.56	45.19	6.08	-40.3	-41.7	19.5	0.00e+00	0	30	0	109051904	54	6245
2026-01-11 19:41:08.57	45.07	6.13	-40.3	-41.8	19.4	0.00e+00	0	30	0	110100480	54	6255
2026-01-11 19:41:09.58	44.95	6.18	-40.5	-42.0	19.2	0.00e+00	0	30	0	112197632	54	6441
2026-01-11 19:41:10.59	44.84	6.23	-40.3	-41.8	19.3	0.00e+00	0	30	0	114294784	54	6301
2026-01-11 19:41:11.60	44.72	6.28	-40.5	-42.0	19.3	0.00e+00	0	30	0	116391936	54	6408
2026-01-11 19:41:12.60	44.60	6.33	-40.4	-41.9	19.3	0.00e+00	0	30	0	118489088	54	6367
2026-01-11 19:41:13.62	44.48	6.38	-40.4	-41.9	19.4	0.00e+00	0	30	0	119537664	54	6318
2026-01-11 19:41:14.62	44.36	6.43	-40.4	-41.9	19.4	0.00e+00	0	30	0	121634816	54	6359
2026-01-11 19:41:15.63	44.24	6.48	-40.5	-42.0	19.4	0.00e+00	0	30	0	123731968	54	6396
2026-01-11 19:41:16.64	44.13	6.53	-40.5	-42.1	19.2	0.00e+00	0	30	0	125829120	54	6472
2026-01-11 19:41:17.65	44.00	6.58	-40.4	-41.9	19.5	0.00e+00	0	30	0	127926272	54	6319
2026-01-11 19:41:18.66	43.88	6.64	-40.4	-41.9	19.4	0.00e+00	0	30	0	128974848	54	6324
2026-01-11 19:41:19.67	43.76	6.69	-40.4	-41.9	19.3	0.00e+00	0	30	0	131072000	54	6325
2026-01-11 19:41:20.68	43.64	6.74	-40.3	-41.7	19.6	0.00e+00	0	30	0	133169152	54	6218
2026-01-11 19:41:21.69	43.52	6.79	-40.2	-41.6	19.7	0.00e+00	0	30	0	135266304	54	6171
2026-01-11 19:41:22.70	43.40	6.84	-40.2	-41.6	19.7	0.00e+00	0	30	0	137363456	54	6116
2026-01-11 19:41:23.71	43.28	6.89	-40.1	-41.5	19.7	0.00e+00	0	30	0	138412032	54	6100
2026-01-11 19:41:24.71	43.15	6.94	-40.2	-41.6	19.7	0.00e+00	0	30	0	140509184	54	6121
2026-01-11 19:41:25.72	43.03	6.99	-40.3	-41.7	19.7	0.00e+00	0	30	0	142606336	54	6197
2026-01-11 19:41:26.73	42.91	7.04	-40.1	-41.6	19.8	0.00e+00	0	30	0	144703488	54	6110
2026-01-11 19:41:27.74	42.78	7.09	-40.3	-41.7	19.7	0.00e+00	0	30	0	146800640	54	6193
2026-01-11 19:41:28.75	42.66	7.14	-40.2	-41.7	19.7	0.00e+00	0	30	0	147849216	54	6186
2026-01-11 19:41:29.76	42.53	7.19	-40.1	-41.5	19.7	0.00e+00	0	30	0	149946368	54	6090
2026-01-11 19:41:30.77	42.40	7.24	-40.4	-41.8	19.5	0.00e+00	0	30	0	152043520	54	6289
2026-01-11 19:41:31.78	42.28	7.29	-40.5	-41.9	19.4	0.00e+00	0	30	0	154140672	54	6368
2026-01-11 19:41:32.79	42.15	7.34	-40.5	-41.9	19.5	0.00e+00	0	30	0	156237824	54	6389
2026-01-11 19:41:33.80	42.02	7.39	-40.1	-41.4	19.9	0.00e+00	0	30	0	158334976	54	6033
2026-01-11 19:41:34.81	41.90	7.44	-40.1	-41.4	19.9	0.00e+00	0	30	0	159383552	54	6021
2026-01-11 19:41:35.81	41.77	7.49	-40.0	-41.4	19.9	0.00e+00	0	30	0	161480704	54	6004
2026-01-11 19:41:36.82	41.64	7.54	-40.0	-41.3	19.9	0.00e+00	0	30	0	163577856	54	5961
2026-01-11 19:41:37.83	41.51	7.59	-39.9	-41.2	20.2	0.00e+00	0	30	0	165675008	54	5872
2026-01-11 19:41:38.84	41.38	7.64	-39.9	-41.2	20.2	0.00e+00	0	30	0	167772160	54	5889
2026-01-11 19:41:39.85	41.25	7.69	-40.0	-41.4	20.2	0.00e+00	0	30	0	168820736	54	5979
2026-01-11 19:41:40.86	41.12	7.74	-39.9	-41.3	20.1	0.00e+00	0	30	0	170917888	54	5926
2026-01-11 19:41:41.87	40.99	7.79	-40.1	-41.5	20.0	0.00e+00	0	30	0	173015040	54	6035
2026-01-11 19:41:42.87	40.86	7.84	-40.1	-41.5	19.8	0.00e+00	0	30	0	175112192	54	6068
2026-01-11 19:41:43.88	40.73	7.89	-39.9	-41.3	20.1	0.00e+00	0	30	0	176160768	54	5931
2026-01-11 19:41:44.89	40.60	7.94	-40.0	-41.3	20.1	0.00e+00	0	30	0	178257920	54	5955
2026-01-11 19:41:45.90	40.47	7.99	-39.9	-41.3	20.1	0.00e+00	0	30	0	180355072	54	5904
2026-01-11 19:41:46.91	40.33	8.04	-39.8	-41.1	20.3	0.00e+00	0	30	0	182452224	54	5793
2026-01-11 19:41:47.92	40.20	8.09	-39.7	-41.0	20.4	0.00e+00	0	30	0	184549376	52	6398
2026-01-11 19:41:48.93	40.07	8.14	-39.5	-40.8	20.6	0.00e+00	0	30	0	186646528	52	6258
2026-01-11 19:41:49.94	39.93	8.19	-39.7	-41.0	20.5	0.00e+00	0	30	0	187695104	52	6423
2026-01-11 19:41:50.95	39.80	8.24	-39.6	-40.9	20.5	0.00e+00	0	30	0	189792256	52	6341
2026-01-11 19:41:51.96	39.66	8.29	-39.6	-40.9	20.6	0.00e+00	0	30	0	191889408	52	6350
2026-01-11 19:41:52.97	39.52	8.34	-39.8	-41.1	20.4	0.00e+00	0	30	0	193986560	52	6482
2026-01-11 19:41:53.98	39.39	8.39	-39.7	-41.0	20.6	0.00e+00	0	30	0	196083712	52	6417
2026-01-11 19:41:54.99	39.25	8.44	-39.6	-40.9	20.6	0.00e+00	0	30	0	197132288	52	6345
2026-01-11 19:41:56.00	39.11	8.49	-39.7	-41.0	20.4	0.00e+00	0	30	0	199229440	52	6460
2026-01-11 19:41:57.01	38.98	8.54	-39.6	-40.9	20.6	0.00e+00	0	30	0	201326592	52	6355
2026-01-11 19:41:58.02	38.84	8.59	-39.7	-40.9	20.6	0.00e+00	0	30	0	203423744	52	6383
2026-01-11 19:41:59.03	38.70	8.64	-39.5	-40.7	20.7	0.00e+00	0	30	0	205520896	52	6230
2026-01-11 19:42:00.03	38.56	8.69	-39.5	-40.8	20.7	0.00e+00	0	30	0	206569472	52	6273
2026-01-11 19:42:01.04	38.42	8.73	-39.5	-40.8	20.7	0.00e+00	0	30	0	208666624	52	6276
2026-01-11 19:42:02.05	38.28	8.78	-39.5	-40.7	20.8	0.00e+00	0	30	0	210763776	52	6202
2026-01-11 19:42:03.06	38.14	8.83	-39.6	-40.9	20.6	0.00e+00	0	30	0	212860928	52	6322
2026-01-11 19:42:04.07	38.00	8.88	-39.5	-40.8	20.7	0.00e+00	0	30	0	214958080	52	6279
2026-01-11 19:42:05.08	37.86	8.93	-39.6	-40.9	20.5	0.00e+00	0	30	0	216006656	52	6358
2026-01-11 19:42:06.09	37.72	8.98	-39.7	-41.0	20.5	0.00e+00	0	30	0	218103808	52	6431
2026-01-11 19:42:07.10	37.57	9.03	-39.6	-40.8	20.6	0.00e+00	0	30	0	220200960	52	6315
2026-01-11 19:42:08.11	37.43	9.08	-39.5	-40.8	20.7	0.00e+00	0	30	0	222298112	52	6267
2026-01-11 19:42:09.12	37.29	9.12	-39.6	-40.9	20.6	0.00e+00	0	30	0	224395264	52	6323
2026-01-11 19:42:10.13	37.14	9.17	-39.5	-40.7	20.8	0.00e+00	0	30	0	225443840	52	6210
2026-01-11 19:42:11.14	37.00	9.22	-39.5	-40.8	20.7	0.00e+00	0	30	0	227540992	52	6268
2026-01-11 19:42:12.15	36.85	9.27	-39.5	-40.8	20.7	0.00e+00	0	30	0	229638144	52	6265
2026-01-11 19:42:13.16	36.71	9.32	-39.5	-40.7	20.8	0.00e+00	0	30	0	231735296	52	6241
2026-01-11 19:42:14.16	36.56	9.36	-39.5	-40.7	20.8	0.00e+00	0	30	0	233832448	52	6241
2026-01-11 19:42:15.17	36.42	9.41	-39.4	-40.7	20.9	0.00e+00	0	30	0	234881024	52	6183
2026-01-11 19:42:16.18	36.27	9.46	-39.3	-40.6	20.9	0.00e+00	0	30	0	236978176	52	6114
2026-01-11 19:42:17.19	36.12	9.51	-39.3	-40.5	21.0	0.00e+00	0	30	0	239075328	52	6067
2026-01-11 19:42:18.20	35.97	9.55	-39.2	-40.3	21.2	0.00e+00	0	30	0	241172480	52	5953
2026-01-11 19:42:19.21	35.83	9.60	-38.9	-40.0	21.4	0.00e+00	0	30	0	243269632	52	5751
2026-01-11 19:42:20.22	35.68	9.65	-39.1	-40.3	21.2	0.00e+00	0	30	0	244318208	52	5897
2026-01-11 19:42:21.23	35.53	9.70	-38.9	-40.1	21.4	0.00e+00	0	30	0	246415360	52	5763
2026-01-11 19:42:22.24	35.38	9.74	-39.1	-40.3	21.3	0.00e+00	0	30	0	248512512	52	5929
2026-01-11 19:42:23.25	35.23	9.79	-38.8	-39.9	21.5	0.00e+00	0	30	0	250609664	52	5660
2026-01-11 19:42:24.26	35.08	9.84	-38.8	-39.9	21.4	0.00e+00	0	30	0	252706816	52	5673
2026-01-11 19:42:25.27	34.92	9.89	-38.6	-39.7	21.7	0.00e+00	0	30	0	254803968	50	6233
2026-01-11 19:42:26.28	34.77	9.93	-38.6	-39.7	21.8	0.00e+00	0	30	0	255852544	50	6205
2026-01-11 19:42:27.29	34.62	9.98	-38.5	-39.6	21.8	0.00e+00	0	30	0	257949696	50	6104
2026-01-11 19:42:28.30	34.47	10.03	-38.5	-39.5	21.9	0.00e+00	0	30	0	260046848	50	6098
2026-01-11 19:42:29.31	34.31	10.07	-38.4	-39.4	22.0	0.00e+00	0	30	0	262144000	50	6031
2026-01-11 19:42:30.32	34.16	10.12	-38.3	-39.4	22.1	0.00e+00	0	30	0	264241152	50	5968
2026-01-11 19:42:31.33	34.01	10.16	-38.2	-39.2	22.2	0.00e+00	0	30	0	265289728	50	5893
2026-01-11 19:42:32.34	33.85	10.21	-38.1	-39.1	22.3	0.00e+00	0	30	0	267386880	50	5805
2026-01-11 19:42:33.35	33.69	10.26	-38.0	-39.0	22.3	0.00e+00	0	29	0	269484032	50	5735
2026-01-11 19:42:34.35	33.54	10.30	-38.0	-39.0	22.4	0.00e+00	0	30	0	271581184	50	5736
2026-01-11 19:42:35.37	33.38	10.35	-38.0	-39.0	22.4	0.00e+00	0	30	0	273678336	50	5727
2026-01-11 19:42:36.37	33.23	10.39	-37.9	-38.9	22.4	0.00e+00	0	30	0	274726912	50	5694
2026-01-11 19:42:37.38	33.07	10.44	-38.0	-39.0	22.4	0.00e+00	0	30	0	276824064	50	5756
2026-01-11 19:42:38.39	32.91	10.49	-38.0	-39.0	22.5	0.00e+00	0	30	0	278921216	50	5711
2026-01-11 19:42:39.40	32.75	10.53	-38.1	-39.1	22.4	0.00e+00	0	30	0	281018368	50	5828
2026-01-11 19:42:40.41	32.59	10.58	-37.9	-38.9	22.5	0.00e+00	0	30	0	283115520	50	5647
2026-01-11 19:42:41.42	32.44	10.62	-37.8	-38.8	22.5	0.00e+00	0	30	0	284164096	50	5624
2026-01-11 19:42:42.43	32.28	10.67	-37.8	-38.8	22.5	0.00e+00	0	29	0	286261248	50	5593
2026-01-11 19:42:43.44	32.12	10.71	-37.8	-38.8	22.6	0.00e+00	0	30	0	288358400	50	5623
2026-01-11 19:42:44.45	31.95	10.75	-37.8	-38.8	22.6	0.00e+00	0	30	0	290455552	50	5586
2026-01-11 19:42:45.46	31.79	10.80	-37.8	-38.8	22.7	0.00e+00	0	29	0	292552704	48	6249
2026-01-11 19:42:46.46	31.63	10.84	-37.7	-38.7	22.7	0.00e+00	0	30	0	293601280	48	6212
2026-01-11 19:42:47.47	31.47	10.89	-37.7	-38.7	22.7	0.00e+00	0	30	0	295698432	48	6192
2026-01-11 19:42:48.48	31.31	10.93	-37.5	-38.5	23.0	0.00e+00	0	30	0	297795584	48	6049
2026-01-11 19:42:49.49	31.14	10.98	-37.7	-38.7	22.7	0.00e+00	0	30	0	299892736	48	6184
2026-01-11 19:42:50.50	30.98	11.02	-37.8	-38.8	22.6	0.00e+00	0	30	0	301989888	48	6280
2026-01-11 19:42:51.51	30.82	11.06	-37.9	-39.0	22.4	0.00e+00	0	30	0	303038464	48	6391
2026-01-11 19:42:52.52	30.65	11.11	-37.7	-38.7	22.7	0.00e+00	0	30	0	305135616	48	6207
2026-01-11 19:42:53.53	30.49	11.15	-37.7	-38.7	22.8	0.00e+00	0	30	0	307232768	48	6184
2026-01-11 19:42:54.54	30.32	11.19	-37.4	-38.4	23.0	0.00e+00	0	30	0	309329920	48	5984
2026-01-11 19:42:55.55	30.15	11.24	-37.4	-38.3	23.0	0.00e+00	0	30	0	311427072	48	5958
2026-01-11 19:42:56.56	29.99	11.28	-37.3	-38.3	23.1	0.00e+00	0	30	0	312475648	48	5928
2026-01-11 19:42:57.57	29.82	11.32	-37.2	-38.1	23.2	0.00e+00	0	30	0	314572800	48	5821
2026-01-11 19:42:58.58	29.65	11.36	-37.2	-38.2	23.0	0.00e+00	0	29	0	316669952	48	5829
2026-01-11 19:42:59.59	29.48	11.41	-37.2	-38.1	23.2	0.00e+00	0	30	0	318767104	48	5786
2026-01-11 19:43:00.60	29.31	11.45	-37.1	-38.0	23.2	0.00e+00	0	30	0	320864256	48	5758
2026-01-11 19:43:01.60	29.15	11.49	-37.0	-38.0	23.3	0.00e+00	0	30	0	322961408	48	5710
2026-01-11 19:43:02.61	28.98	11.53	-37.1	-38.0	23.5	0.00e+00	0	30	0	324009984	48	5723
2026-01-11 19:43:03.63	28.81	11.57	-37.1	-38.0	23.3	0.00e+00	0	30	0	326107136	48	5714
2026-01-11 19:43:04.63	28.64	11.61	-37.0	-38.0	23.3	0.00e+00	0	30	0	328204288	48	5706
2026-01-11 19:43:05.64	28.46	11.66	-37.2	-38.1	23.3	0.00e+00	0	29	0	330301440	48	5789
2026-01-11 19:43:06.65	28.29	11.70	-37.3	-38.2	23.2	0.00e+00	0	30	0	332398592	48	5862
2026-01-11 19:43:07.66	28.12	11.74	-37.2	-38.1	23.2	0.00e+00	0	29	0	333447168	48	5801
2026-01-11 19:43:08.67	27.95	11.78	-37.3	-38.2	23.2	0.00e+00	0	30	0	335544320	48	5883
2026-01-11 19:43:09.68	27.77	11.82	-37.3	-38.3	23.1	0.00e+00	0	29	0	337641472	48	5907
2026-01-11 19:43:10.69	27.60	11.86	-37.3	-38.3	23.0	0.00e+00	0	29	0	339738624	48	5926
2026-01-11 19:43:11.70	27.43	11.90	-37.5	-38.4	22.9	0.00e+00	0	29	0	341835776	48	6029
2026-01-11 19:43:12.71	27.25	11.94	-37.5	-38.5	22.9	0.00e+00	0	29	0	342884352	48	6059
2026-01-11 19:43:13.72	27.08	11.98	-37.5	-38.5	22.9	0.00e+00	0	29	0	344981504	48	6035
2026-01-11 19:43:14.73	26.90	12.02	-37.4	-38.3	22.9	0.00e+00	0	29	0	347078656	48	5959
2026-01-11 19:43:15.74	26.73	12.06	-37.5	-38.4	23.0	0.00e+00	0	30	0	349175808	48	6009
2026-01-11 19:43:16.75	26.55	12.10	-37.5	-38.5	22.9	0.00e+00	0	29	0	351272960	48	6034
2026-01-11 19:43:17.75	26.37	12.14	-37.5	-38.4	22.9	0.00e+00	0	30	0	352321536	48	6000
2026-01-11 19:43:18.76	26.20	12.18	-37.6	-38.6	22.7	0.00e+00	0	29	0	354418688	48	6154
2026-01-11 19:43:19.77	26.02	12.21	-37.6	-38.5	22.9	0.00e+00	0	29	0	356515840	48	6096
2026-01-11 19:43:20.78	25.84	12.25	-37.7	-38.7	22.6	0.00e+00	0	29	0	358612992	48	6198
2026-01-11 19:43:21.79	25.66	12.29	-37.7	-38.7	22.7	0.00e+00	0	29	0	360710144	48	6223
2026-01-11 19:43:22.80	25.48	12.33	-37.7	-38.7	22.7	0.00e+00	0	29	0	361758720	48	6200
2026-01-11 19:43:23.81	25.30	12.37	-37.6	-38.6	22.8	0.00e+00	0	29	0	363855872	48	6120
2026-01-11 19:43:24.82	25.12	12.40	-37.7	-38.7	22.8	0.00e+00	0	29	0	365953024	48	6193
2026-01-11 19:43:25.83	24.94	12.44	-37.6	-38.6	22.9	0.00e+00	0	29	0	368050176	48	6149
2026-01-11 19:43:26.84	24.76	12.48	-37.6	-38.5	23.0	0.00e+00	0	29	0	370147328	48	6082
2026-01-11 19:43:27.85	24.58	12.51	-37.6	-38.6	22.8	0.00e+00	0	29	0	371195904	48	6148
2026-01-11 19:43:28.85	24.40	12.55	-37.4	-38.3	23.1	0.00e+00	0	29	0	373293056	48	5935
2026-01-11 19:43:29.86	24.21	12.59	-37.3	-38.3	23.1	0.00e+00	0	29	0	375390208	48	5915
2026-01-11 19:43:30.87	24.03	12.62	-37.4	-38.3	23.0	0.00e+00	0	29	0	377487360	48	5953
2026-01-11 19:43:31.88	23.85	12.66	-37.5	-38.4	23.0	0.00e+00	0	29	0	379584512	48	6026
2026-01-11 19:43:32.89	23.66	12.69	-37.7	-38.7	22.8	0.00e+00	0	29	0	380633088	48	6199
2026-01-11 19:43:33.90	23.48	12.73	-37.5	-38.5	22.9	0.00e+00	0	29	0	382730240	48	6050
2026-01-11 19:43:34.91	23.29	12.76	-37.6	-38.6	22.9	0.00e+00	0	29	0	384827392	48	6105
2026-01-11 19:43:35.92	23.11	12.80	-37.6	-38.6	22.9	0.00e+00	0	29	0	386924544	48	6113
2026-01-11 19:43:36.93	22.92	12.83	-37.4	-38.3	23.0	0.00e+00	0	29	0	389021696	48	5936
2026-01-11 19:43:37.94	22.74	12.87	-37.4	-38.3	23.1	0.00e+00	0	29	0	390070272	48	5957
2026-01-11 19:43:38.95	22.55	12.90	-37.3	-38.3	23.1	0.00e+00	0	29	0	392167424	48	5920
2026-01-11 19:43:39.96	22.36	12.94	-37.4	-38.3	23.1	0.00e+00	0	29	0	394264576	48	5952
2026-01-11 19:43:40.97	22.18	12.97	-37.3	-38.3	23.1	0.00e+00	0	29	0	396361728	48	5905
2026-01-11 19:43:41.98	21.99	13.00	-37.4	-38.4	23.0	0.00e+00	0	29	0	398458880	48	5985
2026-01-11 19:43:42.99	21.80	13.04	-37.5	-38.5	23.0	0.00e+00	0	29	0	399507456	48	6058
2026-01-11 19:43:44.00	21.61	13.07	-37.4	-38.3	23.1	0.00e+00	0	29	0	401604608	48	5947
2026-01-11 19:43:45.00	21.42	13.10	-37.3	-38.2	22.8	0.00e+00	0	29	0	403701760	48	5859
2026-01-11 19:43:46.02	21.23	13.13	-37.4	-38.3	23.1	0.00e+00	0	29	0	405798912	48	5937
2026-01-11 19:43:47.03	21.04	13.17	-37.3	-38.2	23.1	0.00e+00	0	29	0	407896064	48	5865
2026-01-11 19:43:48.03	20.85	13.20	-37.4	-38.3	23.1	0.00e+00	0	29	0	408944640	48	5952
2026-01-11 19:43:49.04	20.66	13.23	-37.4	-38.4	23.1	0.00e+00	0	29	0	411041792	48	5974
2026-01-11 19:43:50.05	20.47	13.26	-37.5	-38.5	23.1	0.00e+00	0	29	0	413138944	48	6080
2026-01-11 19:43:51.06	20.28	13.29	-37.3	-38.2	23.2	0.00e+00	0	29	0	415236096	48	5855
2026-01-11 19:43:52.07	20.09	13.32	-37.3	-38.2	23.3	0.00e+00	0	29	0	417333248	48	5882
2026-01-11 19:43:53.08	19.89	13.35	-37.1	-38.0	23.3	0.00e+00	0	29	0	419430400	48	5750
2026-01-11 19:43:54.09	19.70	13.38	-37.1	-38.1	23.3	0.00e+00	0	29	0	420478976	48	5775
2026-01-11 19:43:55.10	19.51	13.41	-37.3	-38.2	23.2	0.00e+00	0	29	0	422576128	48	5863
2026-01-11 19:43:56.10	19.32	13.44	-37.3	-38.2	23.2	0.00e+00	0	29	0	424673280	48	5876
2026-01-11 19:43:57.11	19.12	13.47	-37.2	-38.1	23.4	0.00e+00	0	29	0	426770432	48	5806
2026-01-11 19:43:58.12	18.93	13.50	-37.0	-37.9	23.4	0.00e+00	0	29	0	428867584	48	5687
2026-01-11 19:43:59.13	18.73	13.53	-37.0	-37.9	23.5	0.00e+00	0	29	0	429916160	48	5652
2026-01-11 19:44:00.14	18.54	13.56	-37.0	-38.0	23.4	0.00e+00	0	29	0	432013312	48	5704
2026-01-11 19:44:01.15	18.34	13.59	-37.1	-38.0	23.3	0.00e+00	0	29	0	434110464	48	5743
2026-01-11 19:44:02.16	18.15	13.61	-37.2	-38.2	23.2	0.00e+00	0	29	0	436207616	48	5852
2026-01-11 19:44:03.17	17.95	13.64	-37.2	-38.2	23.3	0.00e+00	0	29	0	438304768	48	5844
2026-01-11 19:44:04.18	17.75	13.67	-37.3	-38.2	23.2	0.00e+00	0	29	0	439353344	48	5877
2026-01-11 19:44:05.19	17.56	13.69	-37.1	-38.0	23.4	0.00e+00	0	29	0	441450496	48	5734
2026-01-11 19:44:06.20	17.36	13.72	-37.0	-38.0	23.5	0.00e+00	0	29	0	443547648	48	5696
2026-01-11 19:44:07.20	17.16	13.75	-37.1	-38.1	23.3	0.00e+00	0	29	0	445644800	48	5771
2026-01-11 19:44:08.21	16.96	13.77	-37.0	-37.9	23.5	0.00e+00	0	29	0	447741952	48	5690
2026-01-11 19:44:09.23	16.76	13.80	-37.2	-38.2	23.3	0.00e+00	0	29	0	448790528	48	5834
2026-01-11 19:44:10.24	16.57	13.82	-37.3	-38.2	23.1	0.00e+00	0	29	0	450887680	48	5865
2026-01-11 19:44:11.25	16.37	13.85	-37.4	-38.3	22.6	0.00e+00	0	29	0	452984832	48	5952
2026-01-11 19:44:12.26	16.17	13.87	-37.2	-38.2	23.2	0.00e+00	0	29	0	455081984	48	5830
2026-01-11 19:44:13.27	15.97	13.90	-37.3	-38.3	23.2	0.00e+00	0	29	0	457179136	48	5897
2026-01-11 19:44:14.28	15.77	13.92	-37.4	-38.3	23.1	0.00e+00	0	29	0	458227712	48	5941
2026-01-11 19:44:15.29	15.57	13.95	-37.4	-38.3	23.1	0.00e+00	0	29	0	460324864	48	5924
2026-01-11 19:44:16.30	15.37	13.97	-37.5	-38.5	22.9	0.00e+00	0	29	0	462422016	48	6060
2026-01-11 19:44:17.31	15.16	13.99	-37.6	-38.6	22.9	0.00e+00	0	29	0	464519168	48	6118
2026-01-11 19:44:18.32	14.96	14.02	-37.7	-38.7	22.9	0.00e+00	0	29	0	466616320	48	6200
2026-01-11 19:44:19.33	14.76	14.04	-37.6	-38.5	22.9	0.00e+00	0	29	0	467664896	48	6080
2026-01-11 19:44:20.33	14.56	14.06	-37.5	-38.5	23.1	0.00e+00	0	29	0	469762048	48	6046
2026-01-11 19:44:21.34	14.36	14.08	-37.6	-38.6	22.9	0.00e+00	0	29	0	471859200	48	6107
2026-01-11 19:44:22.35	14.16	14.10	-37.6	-38.6	22.9	0.00e+00	0	29	0	473956352	48	6109
2026-01-11 19:44:23.36	13.95	14.12	-37.7	-38.7	22.8	0.00e+00	0	29	0	476053504	48	6188
2026-01-11 19:44:24.37	13.75	14.14	-37.9	-38.9	22.6	0.00e+00	0	29	0	477102080	48	6373
2026-01-11 19:44:25.38	13.55	14.16	-38.0	-39.0	22.5	0.00e+00	0	29	0	479199232	48	6463
2026-01-11 19:44:26.39	13.34	14.18	-38.0	-39.1	22.5	0.00e+00	0	29	0	481296384	48	6473
2026-01-11 19:44:27.40	13.14	14.20	-38.1	-39.2	22.4	0.00e+00	0	29	0	483393536	48	6553
2026-01-11 19:44:28.41	12.93	14.22	-37.9	-38.9	22.6	0.00e+00	0	29	0	485490688	48	6362
2026-01-11 19:44:29.42	12.73	14.24	-37.9	-38.9	22.6	0.00e+00	0	29	0	487587840	48	6372
2026-01-11 19:44:30.43	12.52	14.26	-37.9	-38.9	22.7	0.00e+00	0	29	0	488636416	48	6320
2026-01-11 19:44:31.44	12.32	14.28	-38.0	-39.0	22.6	0.00e+00	0	29	0	490733568	48	6402
2026-01-11 19:44:32.45	12.11	14.30	-37.8	-38.8	22.6	0.00e+00	0	29	0	492830720	48	6257
2026-01-11 19:44:33.46	11.91	14.31	-37.8	-38.8	22.7	0.00e+00	0	29	0	494927872	48	6296
2026-01-11 19:44:34.46	11.70	14.33	-37.9	-38.9	22.7	0.00e+00	0	29	0	497025024	48	6331
2026-01-11 19:44:35.47	11.50	14.35	-37.8	-38.7	22.8	0.00e+00	0	29	0	498073600	48	6238
2026-01-11 19:44:36.48	11.29	14.36	-37.4	-38.4	22.9	0.00e+00	0	29	0	500170752	48	5983
2026-01-11 19:44:37.49	11.08	14.38	-37.3	-38.3	23.2	0.00e+00	0	29	0	502267904	48	5903
2026-01-11 19:44:38.50	10.88	14.40	-37.3	-38.3	23.2	0.00e+00	0	29	0	504365056	48	5922
2026-01-11 19:44:39.51	10.67	14.41	-37.5	-38.4	23.1	0.00e+00	0	29	0	506462208	48	6003
2026-01-11 19:44:40.51	10.47	14.43	-37.6	-38.5	23.0	0.00e+00	0	29	0	507510784	48	6092
2026-01-11 19:44:41.53	10.26	14.44	-37.5	-38.5	23.0	0.00e+00	0	29	0	509607936	48	6059
2026-01-11 19:44:42.54	10.05	14.46	-37.6	-38.6	22.9	0.00e+00	0	29	0	511705088	48	6146
2026-01-11 19:44:43.54	9.84	14.47	-37.5	-38.4	23.1	0.00e+00	0	29	0	513802240	48	6008
2026-01-11 19:44:44.55	9.63	14.48	-37.3	-38.3	23.2	0.00e+00	0	29	0	515899392	48	5916
2026-01-11 19:44:45.56	9.43	14.50	-37.3	-38.2	23.2	0.00e+00	0	29	0	516947968	48	5884
2026-01-11 19:44:46.57	9.22	14.51	-37.3	-38.2	23.2	0.00e+00	0	29	0	519045120	48	5869
2026-01-11 19:44:47.58	9.01	14.52	-37.5	-38.4	23.0	0.00e+00	0	29	0	521142272	48	6025
2026-01-11 19:44:48.59	8.80	14.53	-37.6	-38.6	22.9	0.00e+00	0	29	0	523239424	48	6127
2026-01-11 19:44:49.60	8.59	14.55	-37.6	-38.6	22.8	0.00e+00	0	29	0	525336576	48	6140
2026-01-11 19:44:50.61	8.38	14.56	-37.8	-38.8	22.8	0.00e+00	0	29	0	526385152	48	6300
2026-01-11 19:44:51.62	8.17	14.57	-37.4	-38.4	23.1	0.00e+00	0	29	0	528482304	48	6009
2026-01-11 19:44:52.63	7.96	14.58	-37.5	-38.4	23.1	0.00e+00	0	29	0	530579456	48	6014
2026-01-11 19:44:53.64	7.75	14.59	-37.5	-38.5	23.0	0.00e+00	0	29	0	532676608	48	6060
2026-01-11 19:44:54.65	7.54	14.60	-37.4	-38.4	23.1	0.00e+00	0	29	0	534773760	48	5990
2026-01-11 19:44:55.66	7.33	14.61	-37.5	-38.5	23.0	0.00e+00	0	29	0	535822336	48	6067
2026-01-11 19:44:56.67	7.12	14.62	-37.6	-38.5	23.0	0.00e+00	0	29	0	537919488	48	6090
2026-01-11 19:44:57.68	6.91	14.62	-37.6	-38.5	23.0	0.00e+00	0	29	0	540016640	48	6085
2026-01-11 19:44:58.69	6.70	14.63	-37.7	-38.7	22.9	0.00e+00	0	29	0	542113792	48	6175
2026-01-11 19:44:59.70	6.49	14.64	-37.5	-38.5	23.1	0.00e+00	0	29	0	544210944	48	6081
2026-01-11 19:45:00.71	6.28	14.65	-37.4	-38.4	23.1	0.00e+00	0	29	0	545259520	48	6000
2026-01-11 19:45:01.72	6.07	14.66	-37.4	-38.4	23.1	0.00e+00	0	29	0	547356672	48	5998
2026-01-11 19:45:02.73	5.86	14.66	-37.4	-38.4	23.1	0.00e+00	0	29	0	549453824	48	5991
2026-01-11 19:45:03.73	5.65	14.67	-37.3	-38.3	23.2	0.00e+00	0	29	0	551550976	48	5918
2026-01-11 19:45:04.74	5.44	14.67	-37.4	-38.4	23.2	0.00e+00	0	29	0	553648128	48	5984
2026-01-11 19:45:05.75	5.23	14.68	-37.4	-38.3	23.1	0.00e+00	0	29	0	555745280	48	5939
2026-01-11 19:45:06.76	5.02	14.69	-37.5	-38.5	23.0	0.00e+00	0	29	0	556793856	48	6037
2026-01-11 19:45:07.77	4.81	14.69	-37.4	-38.4	23.2	0.00e+00	0	29	0	558891008	48	5975
2026-01-11 19:45:08.78	4.60	14.69	-37.3	-38.3	23.2	0.00e+00	0	29	0	560988160	48	5910
2026-01-11 19:45:09.79	4.39	14.70	-37.3	-38.2	23.2	0.00e+00	0	29	0	563085312	48	5893
2026-01-11 19:45:10.80	4.18	14.70	-37.2	-38.2	23.3	0.00e+00	0	29	0	565182464	48	5853
2026-01-11 19:45:11.81	3.96	14.71	-37.3	-38.3	23.2	0.00e+00	0	29	0	566231040	48	5943
2026-01-11 19:45:12.82	3.75	14.71	-37.4	-38.3	23.0	0.00e+00	0	29	0	568328192	48	5954
2026-01-11 19:45:13.83	3.54	14.71	-37.4	-38.4	23.1	0.00e+00	0	29	0	570425344	48	5977
2026-01-11 19:45:14.84	3.33	14.71	-37.6	-38.6	23.1	0.00e+00	0	29	0	572522496	48	6139
2026-01-11 19:45:15.85	3.12	14.71	-37.5	-38.6	23.0	0.00e+00	0	29	0	574619648	48	6104
2026-01-11 19:45:16.86	2.91	14.72	-37.6	-38.6	23.0	0.00e+00	0	29	0	575668224	48	6112
2026-01-11 19:45:17.87	2.70	14.72	-37.7	-38.7	22.9	0.00e+00	0	29	0	577765376	48	6175
2026-01-11 19:45:18.88	2.48	14.72	-37.6	-38.5	22.9	0.00e+00	0	29	0	579862528	48	6099
2026-01-11 19:45:19.88	2.28	14.72	-37.7	-38.7	22.9	0.00e+00	0	29	0	581959680	48	6175
2026-01-11 19:45:20.90	2.06	14.72	-37.3	-38.2	23.3	0.00e+00	0	29	0	584056832	48	5887
2026-01-11 19:45:21.91	1.85	14.72	-37.3	-38.3	23.2	0.00e+00	0	29	0	585105408	48	5926
2026-01-11 19:45:22.91	1.64	14.71	-37.2	-38.1	23.4	0.00e+00	0	29	0	587202560	48	5826
2026-01-11 19:45:23.92	1.43	14.71	-37.3	-38.2	23.2	0.00e+00	0	29	0	589299712	48	5852
2026-01-11 19:45:24.93	1.22	14.71	-37.3	-38.3	22.5	0.00e+00	0	29	0	591396864	48	5902
2026-01-11 19:45:25.94	1.01	14.71	-37.3	-38.3	23.2	0.00e+00	0	29	0	593494016	48	5902
2026-01-11 19:45:26.95	0.80	14.71	-37.2	-38.2	23.3	0.00e+00	0	29	0	594542592	48	5834
2026-01-11 19:45:27.96	0.58	14.70	-37.2	-38.2	23.3	0.00e+00	0	29	0	596639744	48	5842
2026-01-11 19:45:28.97	0.37	14.70	-37.2	-38.2	23.3	0.00e+00	0	29	0	598736896	48	5847
2026-01-11 19:45:29.98	0.16	14.70	-37.3	-38.2	23.2	0.00e+00	0	29	0	600834048	48	5861
2026-01-11 19:45:30.99	359.95	14.69	-37.3	-38.2	23.3	0.00e+00	0	29	0	602931200	48	5864
2026-01-11 19:45:32.00	359.74	14.69	-37.3	-38.2	23.2	0.00e+00	0	29	0	603979776	48	5863
2026-01-11 19:45:33.01	359.53	14.68	-37.4	-38.3	23.2	0.00e+00	0	29	0	606076928	48	5922
2026-01-11 19:45:34.02	359.32	14.68	-37.4	-38.3	23.2	0.00e+00	0	29	0	608174080	48	5962
2026-01-11 19:45:35.03	359.11	14.67	-37.6	-38.6	23.0	0.00e+00	0	29	0	610271232	48	6105
2026-01-11 19:45:36.03	358.90	14.67	-37.7	-38.7	22.8	0.00e+00	0	29	0	612368384	48	6217
2026-01-11 19:45:37.04	358.69	14.66	-37.8	-38.8	22.7	0.00e+00	0	29	0	613416960	48	6271
2026-01-11 19:45:38.05	358.48	14.65	-37.9	-38.9	22.6	0.00e+00	0	29	0	615514112	48	6348
2026-01-11 19:45:39.06	358.27	14.64	-37.9	-38.9	22.7	0.00e+00	0	29	0	617611264	48	6363
2026-01-11 19:45:40.06	358.06	14.64	-37.9	-38.9	22.7	0.00e+00	0	29	0	619708416	48	6354
2026-01-11 19:45:41.07	357.85	14.63	-37.7	-38.7	22.8	0.00e+00	0	29	0	621805568	48	6242
2026-01-11 19:45:42.08	357.64	14.62	-37.8	-38.8	22.7	0.00e+00	0	29	0	622854144	48	6275
2026-01-11 19:45:43.09	357.43	14.61	-37.5	-38.5	23.0	0.00e+00	0	29	0	624951296	48	6088
2026-01-11 19:45:44.10	357.22	14.60	-37.5	-38.5	23.0	0.00e+00	0	29	0	627048448	48	6035
2026-01-11 19:45:45.10	357.01	14.59	-37.5	-38.5	23.0	0.00e+00	0	29	0	629145600	48	6054
2026-01-11 19:45:46.11	356.80	14.58	-37.5	-38.5	23.0	0.00e+00	0	29	0	631242752	48	6068
2026-01-11 19:45:47.12	356.59	14.57	-37.7	-38.6	22.9	0.00e+00	0	29	0	632291328	48	6173
2026-01-11 19:45:48.13	356.38	14.56	-37.7	-38.7	22.8	0.00e+00	0	29	0	634388480	48	6203
2026-01-11 19:45:49.14	356.17	14.55	-37.9	-38.9	22.7	0.00e+00	0	29	0	636485632	48	6336
2026-01-11 19:45:50.15	355.96	14.54	-37.9	-38.9	22.6	0.00e+00	0	29	0	638582784	48	6388
2026-01-11 19:45:51.16	355.75	14.53	-37.9	-39.0	22.6	0.00e+00	0	29	0	640679936	48	6411
2026-01-11 19:45:52.17	355.55	14.52	-37.9	-39.0	22.5	0.00e+00	0	29	0	641728512	48	6408
2026-01-11 19:45:53.18	355.34	14.50	-37.9	-39.0	22.6	0.00e+00	0	29	0	643825664	48	6408
2026-01-11 19:45:54.19	355.13	14.49	-37.6	-38.7	22.9	0.00e+00	0	29	0	645922816	48	6177
2026-01-11 19:45:55.20	354.92	14.48	-37.5	-38.5	23.0	0.00e+00	0	29	0	648019968	48	6099
2026-01-11 19:45:56.21	354.71	14.46	-37.7	-38.7	22.8	0.00e+00	0	29	0	650117120	48	6209
2026-01-11 19:45:57.22	354.51	14.45	-37.6	-38.6	22.9	0.00e+00	0	29	0	652214272	48	6153
2026-01-11 19:45:58.23	354.30	14.43	-37.5	-38.5	23.0	0.00e+00	0	29	0	653262848	48	6040
2026-01-11 19:45:59.23	354.09	14.42	-37.3	-38.3	23.2	0.00e+00	0	29	0	655360000	48	5908
2026-01-11 19:46:00.25	353.88	14.40	-37.6	-38.5	23.0	0.00e+00	0	29	0	657457152	48	6089
2026-01-11 19:46:01.25	353.68	14.39	-37.6	-38.6	22.7	0.00e+00	0	29	0	659554304	48	6155
2026-01-11 19:46:02.26	353.47	14.37	-37.6	-38.6	22.8	0.00e+00	0	29	0	661651456	48	6154
2026-01-11 19:46:03.27	353.27	14.36	-37.7	-38.7	22.8	0.00e+00	0	29	0	662700032	48	6222
2026-01-11 19:46:04.28	353.06	14.34	-37.8	-38.9	22.6	0.00e+00	0	29	0	664797184	48	6338
2026-01-11 19:46:05.29	352.85	14.32	-37.8	-38.8	22.7	0.00e+00	0	29	0	666894336	48	6309
2026-01-11 19:46:06.30	352.65	14.31	-37.8	-38.8	22.8	0.00e+00	0	29	0	668991488	48	6287
2026-01-11 19:46:07.31	352.44	14.29	-37.5	-38.4	23.1	0.00e+00	0	29	0	671088640	48	6020
2026-01-11 19:46:08.32	352.24	14.27	-37.3	-38.2	23.3	0.00e+00	0	29	0	672137216	48	5867
2026-01-11 19:46:09.33	352.03	14.25	-37.3	-38.3	23.3	0.00e+00	0	29	0	674234368	48	5910
2026-01-11 19:46:10.34	351.83	14.23	-37.3	-38.2	23.3	0.00e+00	0	29	0	676331520	48	5877
2026-01-11 19:46:11.35	351.62	14.21	-37.2	-38.2	23.3	0.00e+00	0	28	0	678428672	48	5836
2026-01-11 19:46:12.35	351.42	14.19	-37.3	-38.2	23.3	0.00e+00	0	29	0	680525824	48	5848
2026-01-11 19:46:13.36	351.22	14.17	-37.2	-38.2	23.3	0.00e+00	0	29	0	681574400	48	5832
2026-01-11 19:46:14.37	351.01	14.15	-37.3	-38.2	23.3	0.00e+00	0	29	0	683671552	48	5856
2026-01-11 19:46:15.38	350.81	14.13	-37.3	-38.2	23.2	0.00e+00	0	29	0	685768704	48	5857
2026-01-11 19:46:16.39	350.61	14.11	-37.3	-38.2	23.3	0.00e+00	0	29	0	687865856	48	5867
2026-01-11 19:46:17.40	350.40	14.09	-37.3	-38.2	23.2	0.00e+00	0	28	0	689963008	48	5888
2026-01-11 19:46:18.41	350.20	14.07	-37.5	-38.5	23.0	0.00e+00	0	28	0	691011584	48	6063
2026-01-11 19:46:19.42	350.00	14.05	-37.5	-38.5	23.0	0.00e+00	0	28	0	693108736	48	6039
2026-01-11 19:46:20.43	349.80	14.03	-37.5	-38.4	23.1	0.00e+00	0	29	0	695205888	48	6009
2026-01-11 19:46:21.44	349.60	14.00	-37.5	-38.5	23.0	0.00e+00	0	28	0	697303040	48	6035
2026-01-11 19:46:22.45	349.39	13.98	-37.5	-38.4	23.1	0.00e+00	0	28	0	699400192	48	6025
2026-01-11 19:46:23.46	349.19	13.96	-37.5	-38.5	23.0	0.00e+00	0	29	0	700448768	48	6061
2026-01-11 19:46:24.47	348.99	13.93	-37.5	-38.5	23.0	0.00e+00	0	29	0	702545920	48	6085
2026-01-11 19:46:25.48	348.79	13.91	-37.5	-38.5	23.0	0.00e+00	0	29	0	704643072	48	6082
2026-01-11 19:46:26.49	348.59	13.89	-37.5	-38.5	23.0	0.00e+00	0	28	0	706740224	48	6070
2026-01-11 19:46:27.50	348.39	13.86	-37.6	-38.6	22.9	0.00e+00	0	28	0	708837376	48	6156
2026-01-11 19:46:28.52	348.19	13.84	-37.6	-38.6	22.9	0.00e+00	0	28	0	709885952	48	6149
2026-01-11 19:46:29.53	347.99	13.81	-37.5	-38.5	23.0	0.00e+00	0	28	0	711983104	48	6077
2026-01-11 19:46:30.54	347.79	13.79	-37.7	-38.7	22.7	0.00e+00	0	28	0	714080256	48	6216
2026-01-11 19:46:31.55	347.60	13.76	-37.6	-38.6	22.9	0.00e+00	0	28	0	716177408	48	6108
2026-01-11 19:46:32.56	347.40	13.73	-37.6	-38.7	22.7	0.00e+00	0	28	0	718274560	48	6180
2026-01-11 19:46:33.57	347.20	13.71	-37.7	-38.7	22.8	0.00e+00	0	29	0	720371712	48	6208
2026-01-11 19:46:34.58	347.00	13.68	-37.8	-38.8	22.8	0.00e+00	0	28	0	721420288	48	6291
2026-01-11 19:46:35.59	346.81	13.65	-37.5	-38.6	22.9	0.00e+00	0	29	0	723517440	48	6105
2026-01-11 19:46:36.59	346.61	13.63	-37.7	-38.7	22.8	0.00e+00	0	28	0	725614592	48	6195
2026-01-11 19:46:37.60	346.42	13.60	-37.7	-38.7	22.7	0.00e+00	0	28	0	727711744	48	6200
2026-01-11 19:46:38.61	346.22	13.57	-37.6	-38.6	22.8	0.00e+00	0	29	0	729808896	48	6146
2026-01-11 19:46:39.62	346.02	13.54	-37.6	-38.6	22.9	0.00e+00	0	29	0	730857472	48	6140
2026-01-11 19:46:40.63	345.83	13.51	-37.6	-38.7	22.8	0.00e+00	0	28	0	732954624	48	6205
2026-01-11 19:46:41.64	345.64	13.49	-37.6	-38.7	22.8	0.00e+00	0	29	0	735051776	48	6220
2026-01-11 19:46:42.65	345.44	13.46	-37.9	-39.0	22.6	0.00e+00	0	28	0	737148928	48	6392
2026-01-11 19:46:43.66	345.25	13.43	-37.7	-38.8	22.7	0.00e+00	0	28	0	739246080	48	6299
2026-01-11 19:46:44.67	345.05	13.40	-37.8	-38.8	22.7	0.00e+00	0	29	0	740294656	48	6304
2026-01-11 19:46:45.68	344.86	13.37	-37.5	-38.6	22.9	0.00e+00	0	29	0	742391808	48	6140
2026-01-11 19:46:46.68	344.67	13.34	-37.6	-38.7	22.8	0.00e+00	0	28	0	744488960	48	6195
2026-01-11 19:46:47.69	344.48	13.31	-37.4	-38.5	23.0	0.00e+00	0	28	0	746586112	48	6072
2026-01-11 19:46:48.70	344.29	13.28	-37.4	-38.5	23.0	0.00e+00	0	28	0	748683264	48	6092
2026-01-11 19:46:49.71	344.09	13.24	-37.3	-38.3	23.1	0.00e+00	0	29	0	749731840	48	5958
2026-01-11 19:46:50.72	343.90	13.21	-37.2	-38.3	23.1	0.00e+00	0	29	0	751828992	48	5934
2026-01-11 19:46:51.73	343.71	13.18	-37.2	-38.2	23.2	0.00e+00	0	29	0	753926144	48	5877
2026-01-11 19:46:52.74	343.52	13.15	-37.3	-38.3	23.1	0.00e+00	0	29	0	756023296	48	5934
2026-01-11 19:46:53.75	343.33	13.12	-37.2	-38.2	23.2	0.00e+00	0	28	0	758120448	48	5880
2026-01-11 19:46:54.76	343.14	13.09	-37.1	-38.2	23.2	0.00e+00	0	29	0	759169024	48	5879
2026-01-11 19:46:55.77	342.95	13.05	-37.3	-38.4	23.1	0.00e+00	0	29	0	761266176	48	6001
2026-01-11 19:46:56.78	342.77	13.02	-37.3	-38.4	22.7	0.00e+00	0	28	0	763363328	48	6004
2026-01-11 19:46:57.79	342.58	12.99	-37.3	-38.4	23.0	0.00e+00	0	28	0	765460480	48	5999
2026-01-11 19:46:58.80	342.39	12.95	-37.4	-38.5	23.0	0.00e+00	0	28	0	767557632	48	6047
2026-01-11 19:46:59.81	342.20	12.92	-37.3	-38.3	23.1	0.00e+00	0	28	0	768606208	48	5953
2026-01-11 19:47:00.82	342.02	12.89	-37.3	-38.4	23.0	0.00e+00	0	28	0	770703360	48	5983
2026-01-11 19:47:01.83	341.83	12.85	-37.2	-38.3	23.2	0.00e+00	0	28	0	772800512	48	5903
2026-01-11 19:47:02.84	341.64	12.82	-37.2	-38.2	23.3	0.00e+00	0	28	0	774897664	48	5864
2026-01-11 19:47:03.84	341.46	12.78	-37.2	-38.2	23.3	0.00e+00	0	28	0	776994816	48	5877
2026-01-11 19:47:04.85	341.28	12.75	-37.3	-38.3	23.1	0.00e+00	0	28	0	778043392	48	5931
2026-01-11 19:47:05.87	341.09	12.71	-37.4	-38.5	23.0	0.00e+00	0	28	0	780140544	48	6042
2026-01-11 19:47:06.87	340.91	12.68	-37.3	-38.4	22.9	0.00e+00	0	28	0	782237696	48	5982
2026-01-11 19:47:07.88	340.72	12.64	-37.3	-38.4	23.1	0.00e+00	0	28	0	784334848	48	5969
2026-01-11 19:47:08.89	340.54	12.60	-37.3	-38.3	23.1	0.00e+00	0	28	0	786432000	48	5945
2026-01-11 19:47:09.90	340.36	12.57	-37.3	-38.3	23.0	0.00e+00	0	28	0	788529152	48	5956
2026-01-11 19:47:10.91	340.18	12.53	-37.3	-38.3	22.9	0.00e+00	0	28	0	789577728	48	5922
2026-01-11 19:47:11.92	339.99	12.50	-37.2	-38.2	23.1	0.00e+00	0	28	0	791674880	48	5861
2026-01-11 19:47:12.93	339.81	12.46	-37.2	-38.3	23.2	0.00e+00	0	28	0	793772032	48	5899
2026-01-11 19:47:13.94	339.63	12.42	-37.2	-38.3	23.2	0.00e+00	0	28	0	795869184	48	5920
2026-01-11 19:47:14.95	339.45	12.38	-37.3	-38.3	23.2	0.00e+00	0	28	0	797966336	48	5919
2026-01-11 19:47:15.96	339.27	12.35	-37.3	-38.3	23.1	0.00e+00	0	28	0	799014912	48	5926
2026-01-11 19:47:16.97	339.09	12.31	-37.2	-38.3	23.1	0.00e+00	0	28	0	801112064	48	5901
2026-01-11 19:47:17.98	338.91	12.27	-37.3	-38.3	23.0	0.00e+00	0	28	0	803209216	48	5926
2026-01-11 19:47:18.99	338.73	12.23	-37.4	-38.4	23.1	0.00e+00	0	28	0	805306368	48	6007
2026-01-11 19:47:20.00	338.56	12.19	-37.4	-38.5	23.0	0.00e+00	0	28	0	807403520	48	6039
2026-01-11 19:47:21.00	338.38	12.16	-37.4	-38.4	23.0	0.00e+00	0	28	0	808452096	48	6012
2026-01-11 19:47:22.01	338.20	12.12	-37.5	-38.5	23.0	0.00e+00	0	28	0	810549248	48	6052
2026-01-11 19:47:23.02	338.03	12.08	-37.4	-38.5	22.9	0.00e+00	0	28	0	812646400	48	6041
2026-01-11 19:47:24.03	337.85	12.04	-37.4	-38.4	23.0	0.00e+00	0	28	0	814743552	48	5982
2026-01-11 19:47:25.04	337.67	12.00	-37.4	-38.4	23.0	0.00e+00	0	28	0	816840704	48	5974
2026-01-11 19:47:26.05	337.50	11.96	-37.5	-38.6	22.9	0.00e+00	0	28	0	817889280	48	6112
2026-01-11 19:47:27.06	337.32	11.92	-37.6	-38.7	22.7	0.00e+00	0	28	0	819986432	48	6192
2026-01-11 19:47:28.07	337.15	11.88	-37.7	-38.8	22.7	0.00e+00	0	28	0	822083584	48	6267
2026-01-11 19:47:29.08	336.98	11.84	-37.8	-38.8	22.5	0.00e+00	0	28	0	824180736	48	6313
2026-01-11 19:47:30.09	336.80	11.80	-37.9	-39.0	22.5	0.00e+00	0	28	0	826277888	48	6415
2026-01-11 19:47:31.10	336.63	11.76	-37.9	-39.0	22.4	0.00e+00	0	28	0	827326464	48	6411
2026-01-11 19:47:32.11	336.46	11.72	-38.0	-39.1	22.4	0.00e+00	0	28	0	829423616	48	6512
2026-01-11 19:47:33.12	336.29	11.68	-38.1	-39.2	22.3	0.00e+00	0	28	0	831520768	48	6559
2026-01-11 19:47:34.13	336.11	11.63	-38.2	-39.2	22.2	0.00e+00	0	28	0	833617920	48	6597
2026-01-11 19:47:35.14	335.94	11.59	-38.2	-39.3	22.1	0.00e+00	0	28	0	835715072	48	6653
2026-01-11 19:47:36.15	335.77	11.55	-38.3	-39.3	22.1	0.00e+00	0	28	0	836763648	48	6686
2026-01-11 19:47:37.15	335.60	11.51	-38.3	-39.4	22.1	0.00e+00	0	28	0	838860800	48	6746
2026-01-11 19:47:38.16	335.44	11.47	-38.4	-39.5	22.0	0.00e+00	0	28	0	840957952	48	6775
2026-01-11 19:47:39.17	335.27	11.43	-38.6	-39.8	21.8	0.00e+00	0	28	0	843055104	48	7014
2026-01-11 19:47:40.18	335.10	11.38	-38.5	-39.5	21.9	0.00e+00	0	28	0	845152256	48	6829
2026-01-11 19:47:41.19	334.93	11.34	-38.5	-39.6	21.8	0.00e+00	0	28	0	846200832	48	6915
2026-01-11 19:47:42.20	334.76	11.30	-38.6	-39.7	21.6	0.00e+00	0	28	0	848297984	48	6986
2026-01-11 19:47:43.21	334.60	11.26	-38.6	-39.8	21.7	0.00e+00	0	28	0	850395136	48	7010
2026-01-11 19:47:44.22	334.43	11.21	-38.8	-39.9	21.7	0.00e+00	0	28	0	852492288	50	6338
2026-01-11 19:47:45.23	334.26	11.17	-38.9	-40.0	21.5	0.00e+00	0	28	0	854589440	50	6445
2026-01-11 19:47:46.24	334.10	11.13	-38.9	-40.1	21.4	0.00e+00	0	28	0	855638016	50	6491
2026-01-11 19:47:47.25	333.93	11.08	-39.0	-40.1	21.4	0.00e+00	0	28	0	857735168	50	6531
2026-01-11 19:47:48.25	333.77	11.04	-39.2	-40.3	21.3	0.00e+00	0	28	0	859832320	50	6667
2026-01-11 19:47:49.26	333.61	11.00	-39.2	-40.4	21.1	0.00e+00	0	28	0	861929472	50	6741
2026-01-11 19:47:50.27	333.44	10.95	-39.2	-40.4	21.2	0.00e+00	0	28	0	864026624	50	6710
2026-01-11 19:47:51.28	333.28	10.91	-39.3	-40.5	21.1	0.00e+00	0	28	0	865075200	50	6783
2026-01-11 19:47:52.29	333.12	10.87	-39.5	-40.7	21.0	0.00e+00	0	28	0	867172352	50	6946
2026-01-11 19:47:53.30	332.95	10.82	-39.5	-40.7	20.9	0.00e+00	0	28	0	869269504	50	6977
2026-01-11 19:47:54.31	332.79	10.78	-39.5	-40.7	20.8	0.00e+00	0	28	0	871366656	50	6999
2026-01-11 19:47:55.32	332.63	10.73	-39.5	-40.7	20.8	0.00e+00	0	28	0	873463808	50	6988
2026-01-11 19:47:56.33	332.47	10.69	-39.5	-40.7	20.9	0.00e+00	0	28	0	874512384	50	6983
2026-01-11 19:47:57.34	332.31	10.64	-39.5	-40.7	20.9	0.00e+00	0	28	0	876609536	50	6963
2026-01-11 19:47:58.35	332.15	10.60	-39.6	-40.8	20.8	0.00e+00	0	28	0	878706688	50	7057
2026-01-11 19:47:59.36	331.99	10.55	-39.7	-41.0	20.5	0.00e+00	0	28	0	880803840	50	7181
2026-01-11 19:48:00.37	331.83	10.51	-39.8	-41.0	20.6	0.00e+00	0	28	0	882900992	52	6453
2026-01-11 19:48:01.38	331.68	10.46	-39.9	-41.2	20.4	0.00e+00	0	28	0	884998144	52	6570
2026-01-11 19:48:02.39	331.52	10.42	-40.1	-41.4	20.2	0.00e+00	0	28	0	886046720	52	6732
2026-01-11 19:48:03.40	331.36	10.37	-40.2	-41.5	20.0	0.00e+00	0	28	0	888143872	52	6820
2026-01-11 19:48:04.40	331.21	10.33	-40.3	-41.7	19.9	0.00e+00	0	28	0	890241024	52	6987
2026-01-11 19:48:05.41	331.05	10.28	-40.2	-41.6	20.1	0.00e+00	0	28	0	892338176	52	6897
2026-01-11 19:48:06.42	330.90	10.23	-40.2	-41.6	20.0	0.00e+00	0	28	0	894435328	52	6877
2026-01-11 19:48:07.43	330.74	10.19	-40.2	-41.6	20.1	0.00e+00	0	28	0	895483904	52	6852
2026-01-11 19:48:08.44	330.59	10.14	-40.3	-41.7	19.9	0.00e+00	0	28	0	897581056	52	6975
2026-01-11 19:48:09.45	330.43	10.10	-40.2	-41.5	20.0	0.00e+00	0	28	0	899678208	52	6841
2026-01-11 19:48:10.46	330.28	10.05	-40.3	-41.7	19.8	0.00e+00	0	28	0	901775360	52	6969
2026-01-11 19:48:11.47	330.13	10.00	-40.2	-41.6	20.0	0.00e+00	0	28	0	903872512	52	6862
2026-01-11 19:48:12.48	329.97	9.96	-40.3	-41.6	20.0	0.00e+00	0	28	0	904921088	52	6910
2026-01-11 19:48:13.49	329.82	9.91	-40.4	-41.7	19.8	0.00e+00	0	28	0	907018240	52	7007
2026-01-11 19:48:14.49	329.67	9.86	-40.4	-41.8	19.7	0.00e+00	0	28	0	909115392	52	7049
2026-01-11 19:48:15.50	329.52	9.82	-40.5	-42.0	19.7	0.00e+00	0	28	0	911212544	52	7174
2026-01-11 19:48:16.51	329.37	9.77	-40.6	-42.0	19.6	0.00e+00	0	28	0	913309696	52	7244
2026-01-11 19:48:17.52	329.22	9.72	-40.6	-42.1	19.5	0.00e+00	0	28	0	914358272	52	7289
2026-01-11 19:48:18.53	329.07	9.67	-40.7	-42.2	19.4	0.00e+00	0	28	0	916455424	54	6597
2026-01-11 19:48:19.54	328.92	9.63	-40.6	-42.1	19.4	0.00e+00	0	28	0	918552576	54	6483
2026-01-11 19:48:20.55	328.77	9.58	-40.6	-42.1	19.5	0.00e+00	0	28	0	920649728	54	6476
2026-01-11 19:48:21.56	328.62	9.53	-40.6	-42.0	19.5	0.00e+00	0	28	0	922746880	54	6462
2026-01-11 19:48:22.57	328.48	9.48	-40.5	-41.9	19.7	0.00e+00	0	28	0	923795456	54	6387
2026-01-11 19:48:23.58	328.33	9.44	-40.5	-42.0	19.5	0.00e+00	0	28	0	925892608	54	6405
2026-01-11 19:48:24.59	328.18	9.39	-40.5	-42.0	19.6	0.00e+00	0	28	0	927989760	54	6399
2026-01-11 19:48:25.60	328.04	9.34	-40.4	-41.8	19.8	0.00e+00	0	28	0	930086912	54	6259
2026-01-11 19:48:26.61	327.89	9.29	-40.3	-41.7	19.8	0.00e+00	0	28	0	932184064	54	6224
2026-01-11 19:48:27.61	327.75	9.25	-40.4	-41.8	19.8	0.00e+00	0	28	0	933232640	54	6270
2026-01-11 19:48:28.62	327.60	9.20	-40.4	-41.8	19.7	0.00e+00	0	28	0	935329792	54	6295
2026-01-11 19:48:29.63	327.46	9.15	-40.6	-42.1	19.5	0.00e+00	0	28	0	937426944	54	6485
2026-01-11 19:48:30.64	327.31	9.10	-40.5	-42.0	19.5	0.00e+00	0	28	0	939524096	54	6428
2026-01-11 19:48:31.65	327.17	9.05	-40.5	-42.0	19.6	0.00e+00	0	28	0	941621248	54	6400
2026-01-11 19:48:32.66	327.03	9.00	-40.6	-42.0	19.5	0.00e+00	0	28	0	942669824	54	6447
2026-01-11 19:48:33.67	326.89	8.96	-40.5	-41.9	19.6	0.00e+00	0	28	0	944766976	54	6384
2026-01-11 19:48:34.68	326.74	8.91	-40.4	-41.8	19.7	0.00e+00	0	28	0	946864128	54	6292
2026-01-11 19:48:35.69	326.60	8.86	-40.3	-41.7	19.9	0.00e+00	0	28	0	948961280	54	6211
2026-01-11 19:48:36.70	326.46	8.81	-40.2	-41.5	20.0	0.00e+00	0	28	0	951058432	54	6099
2026-01-11 19:48:37.71	326.32	8.76	-40.0	-41.3	20.1	0.00e+00	0	28	0	953155584	54	5955
2026-01-11 19:48:38.72	326.18	8.71	-40.0	-41.4	20.2	0.00e+00	0	28	0	954204160	54	5969
2026-01-11 19:48:39.73	326.04	8.66	-40.0	-41.4	20.1	0.00e+00	0	28	0	956301312	54	5970
2026-01-11 19:48:40.74	325.90	8.61	-40.0	-41.3	20.1	0.00e+00	0	28	0	958398464	54	5956
2026-01-11 19:48:41.75	325.77	8.56	-40.1	-41.4	20.1	0.00e+00	0	28	0	960495616	54	6006
2026-01-11 19:48:42.76	325.63	8.51	-40.1	-41.4	20.0	0.00e+00	0	28	0	962592768	54	6032
2026-01-11 19:48:43.77	325.49	8.47	-40.0	-41.3	20.2	0.00e+00	0	28	0	963641344	54	5920
2026-01-11 19:48:44.78	325.35	8.42	-40.0	-41.4	20.0	0.00e+00	0	28	0	965738496	54	5979
2026-01-11 19:48:45.78	325.22	8.37	-40.1	-41.5	20.2	0.00e+00	0	28	0	967835648	54	6036
2026-01-11 19:48:46.79	325.08	8.32	-40.0	-41.4	20.1	0.00e+00	0	28	0	969932800	54	5992
2026-01-11 19:48:47.80	324.95	8.27	-39.9	-41.2	20.2	0.00e+00	0	28	0	972029952	54	5873
2026-01-11 19:48:48.81	324.81	8.22	-39.7	-41.0	20.4	0.00e+00	0	28	0	973078528	54	5727
2026-01-11 19:48:49.82	324.68	8.17	-39.7	-41.0	20.4	0.00e+00	0	28	0	975175680	52	6431
2026-01-11 19:48:50.83	324.54	8.12	-39.8	-41.0	20.4	0.00e+00	0	28	0	977272832	52	6456
2026-01-11 19:48:51.84	324.41	8.07	-39.7	-41.0	20.5	0.00e+00	0	28	0	979369984	52	6446
2026-01-11 19:48:52.85	324.28	8.02	-39.6	-40.9	20.5	0.00e+00	0	28	0	981467136	52	6373
2026-01-11 19:48:53.86	324.14	7.97	-39.6	-40.8	20.6	0.00e+00	0	28	0	982515712	52	6317
2026-01-11 19:48:54.87	324.01	7.92	-39.5	-40.7	20.7	0.00e+00	0	28	0	984612864	52	6242
2026-01-11 19:48:55.88	323.88	7.87	-39.4	-40.7	20.8	0.00e+00	0	28	0	986710016	52	6191
2026-01-11 19:48:56.89	323.75	7.82	-39.3	-40.5	20.9	0.00e+00	0	28	0	988807168	52	6074
2026-01-11 19:48:57.89	323.62	7.77	-39.2	-40.4	21.0	0.00e+00	0	28	0	990904320	52	6009
2026-01-11 19:48:58.90	323.49	7.72	-39.2	-40.4	21.1	0.00e+00	0	28	0	991952896	52	6001
2026-01-11 19:48:59.92	323.36	7.67	-39.2	-40.3	21.0	0.00e+00	0	28	0	994050048	52	5959
2026-01-11 19:49:00.93	323.23	7.62	-39.0	-40.1	21.3	0.00e+00	0	28	0	996147200	52	5814
2026-01-11 19:49:01.93	323.10	7.57	-39.0	-40.2	21.3	0.00e+00	0	28	0	998244352	52	5830
2026-01-11 19:49:02.94	322.97	7.52	-38.9	-40.1	21.3	0.00e+00	0	28	0	1000341504	52	5763
2026-01-11 19:49:03.95	322.84	7.47	-39.2	-40.3	21.1	0.00e+00	0	28	0	1001390080	52	5964
2026-01-11 19:49:04.96	322.71	7.42	-38.9	-40.0	21.4	0.00e+00	0	28	0	1003487232	52	5739
2026-01-11 19:49:05.96	322.59	7.37	-38.8	-40.0	21.4	0.00e+00	0	28	0	1005584384	52	5723
2026-01-11 19:49:06.97	322.46	7.32	-38.9	-40.0	21.3	0.00e+00	0	28	0	1007681536	50	6453
2026-01-11 19:49:07.98	322.34	7.27	-38.7	-39.8	21.5	0.00e+00	0	28	0	1009778688	50	6315
2026-01-11 19:49:08.99	322.21	7.22	-38.8	-39.9	21.5	0.00e+00	0	28	0	1010827264	50	6343
2026-01-11 19:49:09.99	322.09	7.17	-38.6	-39.7	21.6	0.00e+00	0	28	0	1012924416	50	6191
2026-01-11 19:49:11.00	321.96	7.12	-38.5	-39.6	21.6	0.00e+00	0	28	0	1015021568	50	6168
2026-01-11 19:49:12.01	321.84	7.07	-38.5	-39.6	21.7	0.00e+00	0	28	0	1017118720	50	6119
2026-01-11 19:49:13.02	321.71	7.02	-38.7	-39.8	21.5	0.00e+00	0	28	0	1019215872	50	6284
2026-01-11 19:49:14.03	321.59	6.97	-38.5	-39.6	21.7	0.00e+00	0	28	0	1020264448	50	6131
2026-01-11 19:49:15.04	321.46	6.92	-38.6	-39.7	21.4	0.00e+00	0	28	0	1022361600	50	6212
2026-01-11 19:49:16.05	321.34	6.87	-38.5	-39.6	21.7	0.00e+00	0	28	0	1024458752	50	6135
2026-01-11 19:49:17.06	321.22	6.82	-38.6	-39.8	21.5	0.00e+00	0	28	0	1026555904	50	6256
2026-01-11 19:49:18.07	321.10	6.76	-38.6	-39.7	21.6	0.00e+00	0	28	0	1028653056	50	6190
2026-01-11 19:49:19.08	320.98	6.71	-38.9	-40.1	21.1	0.00e+00	0	28	0	1029701632	50	6511
2026-01-11 19:49:20.09	320.85	6.66	-38.5	-39.6	21.7	0.00e+00	0	28	0	1031798784	50	6145
2026-01-11 19:49:21.10	320.73	6.61	-38.4	-39.5	21.7	0.00e+00	0	28	0	1033895936	50	6095
2026-01-11 19:49:22.11	320.61	6.56	-38.5	-39.6	21.6	0.00e+00	0	28	0	1035993088	50	6136
2026-01-11 19:49:23.12	320.49	6.51	-38.6	-39.8	21.3	0.00e+00	0	28	0	1038090240	50	6258
2026-01-11 19:49:24.13	320.37	6.46	-38.8	-40.0	21.0	0.00e+00	0	28	0	1039138816	50	6433
2026-01-11 19:49:25.14	320.26	6.41	-38.6	-39.7	21.6	0.00e+00	0	28	0	1041235968	50	6222
2026-01-11 19:49:26.15	320.14	6.36	-38.6	-39.7	21.6	0.00e+00	0	28	0	1043333120	50	6212
2026-01-11 19:49:27.16	320.02	6.31	-38.5	-39.7	21.6	0.00e+00	0	28	0	1045430272	50	6179
2026-01-11 19:49:28.17	319.90	6.26	-38.3	-39.4	21.7	0.00e+00	0	28	0	1047527424	50	6018
2026-01-11 19:49:29.18	319.78	6.21	-38.5	-39.6	21.5	0.00e+00	0	28	0	1049624576	50	6134
2026-01-11 19:49:30.19	319.67	6.16	-38.6	-39.7	21.5	0.00e+00	0	28	0	1050673152	50	6196
2026-01-11 19:49:31.20	319.55	6.10	-38.7	-39.9	21.3	0.00e+00	0	28	0	1052770304	50	6351
2026-01-11 19:49:32.20	319.44	6.05	-38.8	-39.9	21.3	0.00e+00	0	28	0	1054867456	50	6360
2026-01-11 19:49:33.21	319.32	6.00	-38.5	-39.7	21.5	0.00e+00	0	28	0	1056964608	50	6178
2026-01-11 19:49:34.22	319.20	5.95	-38.5	-39.6	21.6	0.00e+00	0	28	0	1059061760	50	6159
2026-01-11 19:49:35.23	319.09	5.90	-38.6	-39.7	21.5	0.00e+00	0	28	0	1060110336	50	6207
2026-01-11 19:49:36.24	318.98	5.85	-38.7	-39.8	21.3	0.00e+00	0	28	0	1062207488	50	6313
2026-01-11 19:49:37.25	318.86	5.80	-38.6	-39.7	21.4	0.00e+00	0	28	0	1064304640	50	6240
2026-01-11 19:49:38.26	318.75	5.75	-38.8	-39.9	21.3	0.00e+00	0	28	0	1066401792	50	6362
2026-01-11 19:49:39.27	318.64	5.70	-38.5	-39.6	21.5	0.00e+00	0	28	0	1068498944	50	6168
2026-01-11 19:49:40.28	318.52	5.65	-38.5	-39.6	21.5	0.00e+00	0	28	0	1069547520	50	6164
2026-01-11 19:49:41.29	318.41	5.60	-38.7	-39.9	21.3	0.00e+00	0	28	0	1071644672	50	6347
2026-01-11 19:49:42.29	318.30	5.55	-38.8	-39.9	21.3	0.00e+00	0	28	0	1073741824	50	6370
2026-01-11 19:49:43.30	318.19	5.49	-38.4	-39.5	21.5	0.00e+00	0	28	0	1075838976	50	6091
2026-01-11 19:49:44.31	318.08	5.44	-38.8	-39.9	21.3	0.00e+00	0	28	0	1077936128	50	6379
2026-01-11 19:49:45.32	317.97	5.39	-38.7	-39.9	21.3	0.00e+00	0	28	0	1078984704	50	6333
2026-01-11 19:49:46.33	317.86	5.34	-38.9	-40.1	21.0	0.00e+00	0	28	0	1081081856	50	6523
2026-01-11 19:49:47.34	317.75	5.29	-39.0	-40.2	20.9	0.00e+00	0	28	0	1083179008	50	6609
2026-01-11 19:49:48.35	317.64	5.24	-38.8	-40.0	21.1	0.00e+00	0	28	0	1085276160	50	6402
2026-01-11 19:49:49.36	317.53	5.19	-38.7	-39.9	21.1	0.00e+00	0	28	0	1087373312	50	6338
2026-01-11 19:49:50.37	317.42	5.14	-38.8	-40.0	21.1	0.00e+00	0	28	0	1088421888	50	6426
2026-01-11 19:49:51.38	317.31	5.09	-39.1	-40.3	20.8	0.00e+00	0	28	0	1090519040	50	6692
2026-01-11 19:49:52.39	317.20	5.04	-39.0	-40.3	20.8	0.00e+00	0	28	0	1092616192	50	6627
2026-01-11 19:49:53.40	317.09	4.98	-38.9	-40.1	21.1	0.00e+00	0	28	0	1094713344	50	6498
2026-01-11 19:49:54.41	316.99	4.93	-38.8	-40.0	21.1	0.00e+00	0	28	0	1096810496	50	6419
2026-01-11 19:49:55.42	316.88	4.88	-38.9	-40.1	20.9	0.00e+00	0	28	0	1097859072	50	6524
2026-01-11 19:49:56.43	316.77	4.83	-39.0	-40.2	20.9	0.00e+00	0	28	0	1099956224	50	6560
2026-01-11 19:49:57.44	316.67	4.78	-38.9	-40.1	21.0	0.00e+00	0	28	0	1102053376	50	6530
2026-01-11 19:49:58.45	316.56	4.73	-38.8	-40.0	21.1	0.00e+00	0	28	0	1104150528	50	6442
2026-01-11 19:49:59.46	316.46	4.68	-39.0	-40.2	20.9	0.00e+00	0	28	0	1106247680	50	6564
2026-01-11 19:50:00.47	316.35	4.63	-39.0	-40.3	20.8	0.00e+00	0	28	0	1107296256	50	6621
2026-01-11 19:50:01.47	316.25	4.58	-39.1	-40.3	20.8	0.00e+00	0	28	0	1109393408	50	6646
2026-01-11 19:50:02.48	316.14	4.53	-39.1	-40.4	20.7	0.00e+00	0	28	0	1111490560	50	6728
2026-01-11 19:50:03.49	316.04	4.48	-39.2	-40.4	20.6	0.00e+00	0	28	0	1113587712	50	6758
2026-01-11 19:50:04.50	315.94	4.42	-38.9	-40.1	20.9	0.00e+00	0	28	0	1115684864	50	6519
2026-01-11 19:50:05.51	315.83	4.37	-39.3	-40.6	20.5	0.00e+00	0	28	0	1117782016	50	6874
2026-01-11 19:50:06.52	315.73	4.32	-39.5	-40.8	20.2	0.00e+00	0	28	0	1118830592	50	7066
2026-01-11 19:50:07.53	315.63	4.27	-39.3	-40.6	20.3	0.00e+00	0	28	0	1120927744	50	6921
2026-01-11 19:50:08.54	315.53	4.22	-39.5	-40.9	20.0	0.00e+00	0	28	0	1123024896	50	7090
2026-01-11 19:50:09.54	315.43	4.17	-39.5	-40.9	20.0	0.00e+00	0	28	0	1125122048	50	7093
2026-01-11 19:50:10.55	315.33	4.12	-39.5	-40.8	20.1	0.00e+00	0	28	0	1127219200	50	7022
2026-01-11 19:50:11.56	315.22	4.07	-39.9	-41.3	19.8	0.00e+00	0	28	0	1128267776	52	6625
2026-01-11 19:50:12.57	315.12	4.02	-39.7	-41.1	19.9	0.00e+00	0	28	0	1130364928	52	6502
2026-01-11 19:50:13.58	315.02	3.97	-39.8	-41.2	19.6	0.00e+00	0	28	0	1132462080	52	6605
2026-01-11 19:50:14.59	314.92	3.92	-39.8	-41.2	19.8	0.00e+00	0	28	0	1134559232	52	6599
2026-01-11 19:50:15.60	314.82	3.87	-39.7	-41.1	20.0	0.00e+00	0	28	0	1136656384	52	6478
2026-01-11 19:50:16.61	314.73	3.81	-39.9	-41.3	19.7	0.00e+00	0	28	0	1137704960	52	6652
2026-01-11 19:50:17.62	314.63	3.76	-40.0	-41.5	19.4	0.00e+00	0	28	0	1139802112	52	6807
2026-01-11 19:50:18.62	314.53	3.71	-40.1	-41.6	19.4	0.00e+00	0	28	0	1141899264	52	6905
2026-01-11 19:50:19.63	314.43	3.66	-40.2	-41.7	19.3	0.00e+00	0	28	0	1143996416	52	6980
2026-01-11 19:50:20.64	314.33	3.61	-39.9	-41.3	19.6	0.00e+00	0	28	0	1146093568	52	6691
2026-01-11 19:50:21.65	314.24	3.56	-39.9	-41.3	19.7	0.00e+00	0	28	0	1147142144	52	6650
2026-01-11 19:50:22.66	314.14	3.51	-40.4	-42.0	19.0	0.00e+00	0	28	0	1149239296	52	7177
2026-01-11 19:50:23.66	314.04	3.46	-40.0	-41.4	19.4	0.00e+00	0	28	0	1151336448	52	6766
2026-01-11 19:50:24.67	313.95	3.41	-40.2	-41.7	19.1	0.00e+00	0	28	0	1153433600	52	6979
2026-01-11 19:50:25.68	313.85	3.36	-40.3	-41.8	19.1	0.00e+00	0	28	0	1155530752	54	6304
2026-01-11 19:50:26.69	313.76	3.31	-40.4	-42.0	18.8	0.00e+00	0	28	0	1156579328	54	6408
2026-01-11 19:50:27.70	313.66	3.26	-40.5	-42.1	18.9	0.00e+00	0	28	0	1158676480	54	6466
2026-01-11 19:50:28.71	313.57	3.21	-40.9	-42.6	18.3	0.00e+00	0	28	0	1160773632	54	6913
2026-01-11 19:50:29.72	313.47	3.16	-41.2	-43.0	18.0	0.00e+00	0	28	0	1162870784	54	7206
2026-01-11 19:50:30.73	313.38	3.11	-40.2	-41.8	18.9	0.00e+00	0	28	0	1164967936	54	6266
2026-01-11 19:50:31.74	313.28	3.06	-40.7	-42.3	18.6	0.00e+00	0	28	0	1166016512	54	6686
2026-01-11 19:50:32.75	313.19	3.01	-46.9	-60.6	3.6	1.52e-02	0	28	104	1168113664	60	38660
2026-01-11 19:50:33.76	313.10	2.96	-47.6	-62.7	3.6	1.51e+00	0	28	104	1168113664	60	49179
2026-01-11 19:50:34.77	313.00	2.90	-47.9	-63.1	3.5	1.51e+00	0	28	104	1168113664	60	51477
2026-01-11 19:50:35.78	312.91	2.85	-48.1	-63.3	3.6	1.51e+00	0	28	104	1168113664	60	52591
2026-01-11 19:50:36.79	312.82	2.80	-48.2	-63.4	3.6	1.51e+00	0	28	104	1168113664	60	53267
2026-01-11 19:50:37.80	312.73	2.75	-48.3	-63.4	3.6	1.51e+00	0	28	104	1168113664	60	53618
2026-01-11 19:50:38.81	312.64	2.70	-48.3	-63.4	3.6	1.51e+00	0	28	104	1168113664	60	53700
2026-01-11 19:50:39.82	312.54	2.65	-48.3	-63.5	3.6	1.51e+00	0	28	104	1168113664	60	54134
2026-01-11 19:50:40.83	312.45	2.60	-48.3	-63.5	3.6	1.51e+00	0	28	104	1168113664	60	54003
2026-01-11 19:50:41.84	312.36	2.55	-48.3	-63.5	3.6	1.51e+00	0	28	104	1168113664	60	54129
2026-01-11 19:50:42.85	312.27	2.50	-47.7	-63.4	3.6	1.51e+00	0	28	104	1168113664	60	53648
2026-01-11 19:50:43.86	312.18	2.45	-47.9	-63.4	3.6	1.51e+00	0	28	104	1168113664	60	53183
2026-01-11 19:50:44.86	312.09	2.40	-48.0	-63.4	3.6	1.51e+00	0	28	104	1168113664	60	53306
2026-01-11 19:50:45.87	312.00	2.35	-48.0	-63.3	3.6	1.51e+00	0	28	104	1168113664	60	52891
2026-01-11 19:50:46.89	311.91	2.30	-48.1	-63.3	3.6	1.51e+00	0	28	104	1168113664	60	52766
2026-01-11 19:50:47.90	311.83	2.25	-48.2	-63.3	3.6	1.51e+00	0	28	104	1168113664	60	52746
2026-01-11 19:50:48.91	311.74	2.20	-48.3	-63.5	3.6	1.51e+00	0	28	104	1168113664	60	54337
