passes_logs/2026/01/11/R4.6S_Anadyr/R4.6S_Anadyr__20260111_043033_AQUA_rec.log

#Pass ID: 20260111_043033_AQUA
#Satellite: AQUA
#Configuration: AQUA
#almurnet v.1.7.20251203
#Start time: 2026-01-11 04:30:33

#Version: 2.2.20231116
#Station: R4.6S_Anadyr
#Location: 177.4865 lon 64.73178 lat
#TLE: 1 27424U 02022A   26009.89520876  .00001045  00000+0  21914-3 0  9996
#TLE: 2 27424  98.4076 336.2372 0002032  84.5955   1.0356 14.61811442260144

#Time	Az	El	Level	Level2	SNR	BER	BlckErr	Temp	State	Recorded	gain1	gain2
2026-01-11 04:30:33.95	228.12	0.05	-48.1	-59.8	3.5	8.46e-01	0	27	0	0	60	35137
2026-01-11 04:30:34.96	228.21	0.09	-47.8	-66.4	3.5	3.02e+01	0	28	104	0	60	80687
2026-01-11 04:30:35.97	228.31	0.14	-48.3	-66.3	3.5	3.02e+01	0	28	104	0	60	79157
2026-01-11 04:30:36.98	228.40	0.19	-48.1	-66.2	3.5	3.02e+01	0	29	104	0	60	78387
2026-01-11 04:30:37.99	228.50	0.24	-47.9	-66.2	3.5	3.02e+01	0	29	104	0	60	78682
2026-01-11 04:30:39.00	228.59	0.28	-47.7	-66.3	3.5	3.02e+01	0	29	104	0	60	79141
2026-01-11 04:30:40.01	228.69	0.33	-48.1	-66.3	3.5	3.02e+01	0	29	104	0	60	79066
2026-01-11 04:30:41.02	228.78	0.38	-48.3	-66.2	3.5	3.02e+01	0	29	104	0	60	78640
2026-01-11 04:30:42.03	228.88	0.43	-48.3	-66.2	3.5	3.02e+01	0	29	104	0	60	78383
2026-01-11 04:30:43.04	228.98	0.48	-48.3	-66.2	3.5	3.02e+01	0	29	104	0	60	78726
2026-01-11 04:30:44.05	229.07	0.52	-48.4	-66.2	3.5	3.02e+01	0	29	104	0	60	78734
2026-01-11 04:30:45.06	229.17	0.57	-48.3	-66.2	3.5	3.02e+01	0	29	104	0	60	78298
2026-01-11 04:30:46.07	229.27	0.62	-48.3	-66.2	3.5	3.02e+01	0	29	104	0	60	78355
2026-01-11 04:30:47.08	229.37	0.67	-48.2	-66.0	3.5	3.02e+01	0	29	104	0	60	77081
2026-01-11 04:30:48.09	229.46	0.71	-48.0	-65.8	3.5	3.02e+01	0	29	104	0	60	75189
2026-01-11 04:30:49.10	229.56	0.76	-47.6	-65.5	3.5	3.02e+01	0	29	104	0	60	72276
2026-01-11 04:30:50.11	229.66	0.81	-46.5	-64.6	3.5	3.02e+01	0	29	104	0	60	65095
2026-01-11 04:30:51.12	229.76	0.86	-45.6	-63.8	3.5	3.02e+01	0	29	104	0	60	59336
2026-01-11 04:30:52.13	229.86	0.91	-45.6	-63.7	3.5	3.02e+01	0	29	104	0	60	58847
2026-01-11 04:30:53.14	229.96	0.95	-45.6	-63.7	3.5	3.02e+01	0	29	104	0	60	59179
2026-01-11 04:30:54.15	230.06	1.00	-45.5	-63.7	3.5	3.02e+01	0	29	104	0	60	59054
2026-01-11 04:30:55.15	230.16	1.05	-45.5	-63.7	3.5	3.02e+01	0	29	104	0	60	59213
2026-01-11 04:30:56.16	230.26	1.10	-45.6	-63.7	3.5	3.02e+01	0	29	104	0	60	59054
2026-01-11 04:30:57.17	230.36	1.15	-45.5	-63.7	3.5	3.02e+01	0	29	104	0	60	59072
2026-01-11 04:30:58.18	230.46	1.19	-45.6	-63.7	3.5	3.02e+01	0	29	104	0	60	59059
2026-01-11 04:30:59.19	230.57	1.24	-45.5	-63.7	3.5	3.02e+01	0	29	104	0	60	59171
2026-01-11 04:31:00.20	230.67	1.29	-45.5	-63.7	3.5	3.02e+01	0	29	104	0	60	59192
2026-01-11 04:31:01.21	230.77	1.34	-45.5	-63.7	3.5	3.02e+01	0	29	104	0	60	59115
2026-01-11 04:31:02.22	230.87	1.39	-45.6	-63.7	3.5	3.02e+01	0	29	104	0	60	58791
2026-01-11 04:31:03.23	230.98	1.43	-45.6	-63.7	3.5	3.02e+01	0	29	104	0	60	58857
2026-01-11 04:31:04.24	231.08	1.48	-45.6	-63.7	3.5	3.02e+01	0	29	104	0	60	59137
2026-01-11 04:31:05.25	231.18	1.53	-45.5	-63.7	3.5	3.02e+01	0	29	104	0	60	58770
2026-01-11 04:31:06.26	231.29	1.58	-45.6	-63.6	3.5	3.02e+01	0	29	104	0	60	58547
2026-01-11 04:31:07.27	231.39	1.63	-45.5	-63.7	3.5	3.02e+01	0	29	104	0	60	58715
2026-01-11 04:31:08.28	231.50	1.68	-45.5	-63.7	3.5	3.02e+01	0	29	104	0	60	58835
2026-01-11 04:31:09.29	231.60	1.72	-45.5	-63.7	3.5	3.02e+01	0	29	104	0	60	58907
2026-01-11 04:31:10.30	231.71	1.77	-45.5	-63.7	3.5	3.02e+01	0	29	104	0	60	58800
2026-01-11 04:31:11.31	231.82	1.82	-45.5	-63.7	3.5	3.02e+01	0	29	104	0	60	58714
2026-01-11 04:31:12.32	231.92	1.87	-45.5	-63.7	3.5	3.02e+01	0	29	104	0	60	58960
2026-01-11 04:31:13.33	232.03	1.92	-45.5	-63.7	3.5	3.02e+01	0	29	104	0	60	58768
2026-01-11 04:31:14.34	232.14	1.97	-45.5	-63.7	3.5	3.02e+01	0	29	104	0	60	58616
2026-01-11 04:31:15.35	232.25	2.01	-45.5	-63.6	3.5	3.02e+01	0	29	104	0	60	58577
2026-01-11 04:31:16.36	232.35	2.06	-45.5	-63.6	3.5	3.02e+01	0	29	104	0	60	58551
2026-01-11 04:31:17.37	232.46	2.11	-45.5	-63.7	3.5	3.02e+01	0	29	104	0	60	58938
2026-01-11 04:31:18.38	232.57	2.16	-45.5	-63.7	3.5	3.02e+01	0	29	104	0	60	58743
2026-01-11 04:31:19.39	232.68	2.21	-45.5	-63.7	3.5	3.02e+01	0	29	104	0	60	58745
2026-01-11 04:31:20.40	232.79	2.26	-45.5	-63.7	3.5	3.02e+01	0	29	104	0	60	58656
2026-01-11 04:31:21.41	232.90	2.30	-45.6	-63.7	3.5	3.02e+01	0	29	104	0	60	58610
2026-01-11 04:31:22.42	233.01	2.35	-45.5	-63.7	3.5	3.02e+01	0	29	104	0	60	58690
2026-01-11 04:31:23.43	233.12	2.40	-45.5	-63.7	3.5	3.02e+01	0	29	104	0	60	58781
2026-01-11 04:31:24.44	233.23	2.45	-45.5	-63.6	3.5	3.02e+01	0	29	104	0	60	58350
2026-01-11 04:31:25.45	233.34	2.50	-45.5	-63.7	3.5	3.02e+01	0	29	104	0	60	58851
2026-01-11 04:31:26.46	233.45	2.55	-45.5	-63.7	3.5	3.02e+01	0	29	104	0	60	58896
2026-01-11 04:31:27.47	233.57	2.60	-45.5	-63.7	3.5	3.02e+01	0	29	104	0	60	58608
2026-01-11 04:31:28.48	233.68	2.64	-45.5	-63.6	3.5	3.02e+01	0	29	104	0	60	58031
2026-01-11 04:31:29.49	233.79	2.69	-45.5	-63.6	3.5	3.02e+01	0	29	104	0	60	58193
2026-01-11 04:31:30.50	233.91	2.74	-45.5	-63.6	3.5	3.02e+01	0	29	104	0	60	58233
2026-01-11 04:31:31.51	234.02	2.79	-45.5	-63.6	3.5	3.02e+01	0	29	104	0	60	58122
2026-01-11 04:31:32.52	234.13	2.84	-45.5	-63.4	3.5	3.02e+01	0	29	104	0	60	56915
2026-01-11 04:31:33.52	234.25	2.89	-45.5	-63.3	3.5	3.02e+01	0	29	104	0	60	56110
2026-01-11 04:31:34.53	234.36	2.94	-45.5	-63.2	3.5	3.02e+01	0	29	104	0	60	55809
2026-01-11 04:31:35.54	234.48	2.98	-45.5	-63.2	3.5	3.02e+01	0	29	104	0	60	55870
2026-01-11 04:31:36.55	234.59	3.03	-45.5	-63.4	3.5	3.02e+01	0	29	104	0	60	56652
2026-01-11 04:31:37.56	234.71	3.08	-44.4	-63.1	3.5	3.02e+01	0	29	104	0	60	54854
2026-01-11 04:31:38.57	234.83	3.13	-45.2	-63.1	3.5	3.02e+01	0	29	104	0	60	55033
2026-01-11 04:31:39.58	234.94	3.18	-44.6	-63.0	3.5	3.02e+01	0	29	104	0	60	54575
2026-01-11 04:31:40.59	235.06	3.23	-44.6	-62.6	3.5	3.02e+01	0	29	104	0	60	51943
2026-01-11 04:31:41.60	235.18	3.28	-44.5	-63.5	3.5	3.02e+01	0	29	104	0	60	57535
2026-01-11 04:31:42.61	235.30	3.32	-44.6	-63.0	3.5	3.02e+01	0	30	104	0	60	54382
2026-01-11 04:31:43.62	235.42	3.37	-44.8	-62.9	3.5	3.02e+01	0	30	104	0	60	53812
2026-01-11 04:31:44.63	235.53	3.42	-45.1	-62.9	3.5	3.02e+01	0	30	104	0	60	53959
2026-01-11 04:31:45.64	235.65	3.47	-45.4	-62.3	3.5	3.02e+01	0	29	104	0	60	50134
2026-01-11 04:31:46.65	235.77	3.52	-45.6	-62.1	3.7	3.02e+01	0	30	104	0	60	48753
2026-01-11 04:31:47.66	235.89	3.57	-45.8	-63.4	3.5	3.02e+01	0	30	104	0	60	56703
2026-01-11 04:31:48.67	236.01	3.62	-46.0	-63.3	3.5	3.02e+01	0	30	104	0	60	56434
2026-01-11 04:31:49.68	236.14	3.66	-46.0	-63.2	3.5	3.02e+01	0	30	104	0	60	55867
2026-01-11 04:31:50.68	236.26	3.71	-46.1	-62.5	3.5	3.02e+01	0	30	104	0	60	51500
2026-01-11 04:31:51.70	236.38	3.76	-46.0	-62.0	3.5	3.02e+01	0	30	104	0	60	48604
2026-01-11 04:31:52.70	236.50	3.81	-46.0	-61.6	3.9	3.02e+01	0	30	104	0	60	46204
2026-01-11 04:31:53.71	236.62	3.86	-45.9	-61.7	3.6	3.02e+01	0	30	104	0	60	46609
2026-01-11 04:31:54.72	236.75	3.91	-45.8	-62.5	3.6	3.02e+01	0	30	104	0	60	51535
2026-01-11 04:31:55.73	236.87	3.96	-46.2	-60.9	4.1	3.02e+01	0	30	104	0	60	42629
2026-01-11 04:31:56.74	236.99	4.00	-45.5	-63.0	3.5	3.02e+01	0	30	104	0	60	54519
2026-01-11 04:31:57.75	237.12	4.05	-45.7	-62.2	3.6	3.02e+01	0	30	104	0	60	49686
2026-01-11 04:31:58.76	237.24	4.10	-46.1	-63.1	3.5	3.02e+01	0	30	104	0	60	54779
2026-01-11 04:31:59.77	237.37	4.15	-45.8	-61.1	4.2	3.02e+01	0	30	104	0	60	43571
2026-01-11 04:32:00.78	237.50	4.20	-45.6	-60.2	4.6	3.02e+01	0	30	104	0	60	39441
2026-01-11 04:32:01.79	237.62	4.25	-45.7	-60.0	4.6	3.02e+01	0	30	104	0	60	38496
2026-01-11 04:32:02.80	237.75	4.30	-45.9	-59.6	4.9	3.02e+01	0	30	104	0	60	36896
2026-01-11 04:32:03.81	237.88	4.35	-46.0	-59.3	4.9	3.02e+01	0	30	104	0	60	35451
2026-01-11 04:32:04.82	238.00	4.39	-46.0	-58.8	5.1	3.02e+01	0	30	104	0	60	33696
2026-01-11 04:32:05.83	238.13	4.44	-45.6	-57.5	5.8	3.02e+01	83	30	0	0	60	28950
2026-01-11 04:32:06.84	238.26	4.49	-45.1	-56.3	6.6	3.02e+01	92	30	0	2097152	60	25131
2026-01-11 04:32:07.85	238.39	4.54	-45.0	-55.8	7.1	3.02e+01	90	30	0	3670016	60	23738
2026-01-11 04:32:08.86	238.52	4.59	-45.1	-55.4	7.5	3.02e+01	92	30	0	5767168	60	22786
2026-01-11 04:32:09.87	238.65	4.64	-45.5	-55.1	7.9	3.02e+01	92	30	0	7864320	60	21769
2026-01-11 04:32:10.88	238.78	4.68	-45.5	-54.7	8.3	3.02e+01	92	30	0	9437184	60	20978
2026-01-11 04:32:11.89	238.91	4.73	-45.6	-54.3	8.9	3.02e+01	92	30	0	11534336	60	19949
2026-01-11 04:32:12.90	239.04	4.78	-45.6	-54.0	9.4	3.02e+01	90	30	0	13107200	60	19321
2026-01-11 04:32:13.90	239.17	4.83	-45.2	-53.4	10.1	3.02e+01	90	30	0	15204352	60	18100
2026-01-11 04:32:14.91	239.30	4.88	-44.6	-53.0	10.6	3.02e+01	90	30	0	16777216	60	17151
2026-01-11 04:32:15.92	239.44	4.93	-44.4	-52.7	10.9	3.02e+01	90	30	0	18874368	60	16582
2026-01-11 04:32:16.93	239.57	4.97	-44.4	-52.3	11.4	3.02e+01	91	30	0	20971520	60	15839
2026-01-11 04:32:17.94	239.70	5.02	-44.8	-51.7	12.1	3.02e+01	90	30	0	22544384	60	14817
2026-01-11 04:32:18.95	239.84	5.07	-45.0	-51.2	12.7	3.02e+01	91	30	0	24641536	60	13903
2026-01-11 04:32:19.96	239.97	5.12	-44.7	-50.8	13.2	3.02e+01	90	30	0	26738688	60	13321
2026-01-11 04:32:20.97	240.11	5.17	-44.3	-50.2	13.8	3.02e+01	92	30	0	28311552	60	12436
2026-01-11 04:32:21.98	240.24	5.22	-44.1	-49.7	14.3	3.02e+01	91	30	0	30408704	60	11808
2026-01-11 04:32:22.99	240.38	5.26	-43.9	-49.4	14.6	3.02e+01	87	30	0	31981568	60	11418
2026-01-11 04:32:24.00	240.51	5.31	-43.8	-49.1	15.0	3.02e+01	91	30	0	34078720	60	10957
2026-01-11 04:32:25.01	240.65	5.36	-43.8	-48.8	15.2	3.02e+01	91	30	0	36175872	60	10623
2026-01-11 04:32:26.02	240.79	5.41	-43.9	-48.4	15.8	3.02e+01	91	30	0	37748736	60	10069
2026-01-11 04:32:27.03	240.93	5.46	-43.9	-48.0	16.2	3.02e+01	89	30	0	39845888	60	9709
2026-01-11 04:32:28.04	241.07	5.50	-43.8	-47.8	16.4	3.02e+01	91	30	0	41943040	60	9395
2026-01-11 04:32:29.05	241.20	5.55	-43.0	-46.9	17.3	3.02e+01	91	30	0	43515904	60	8480
2026-01-11 04:32:30.06	241.34	5.60	-42.8	-46.6	17.6	3.02e+01	90	30	0	45613056	60	8268
2026-01-11 04:32:31.07	241.48	5.65	-42.8	-46.3	17.8	3.02e+01	90	30	0	47185920	60	7986
2026-01-11 04:32:32.07	241.62	5.70	-42.8	-45.9	18.4	3.02e+01	91	30	0	49283072	60	7626
2026-01-11 04:32:33.08	241.76	5.74	-42.7	-45.7	18.6	3.02e+01	90	30	0	51380224	60	7419
2026-01-11 04:32:34.09	241.90	5.79	-42.5	-45.4	19.0	3.02e+01	90	30	0	52953088	60	7153
2026-01-11 04:32:35.10	242.05	5.84	-42.4	-45.4	19.0	3.02e+01	91	30	0	55050240	60	7177
2026-01-11 04:32:36.11	242.19	5.89	-42.1	-44.9	19.5	3.02e+01	91	30	0	56623104	60	6797
2026-01-11 04:32:37.12	242.33	5.94	-41.8	-44.5	19.9	3.02e+01	91	30	0	58720256	58	7267
2026-01-11 04:32:38.13	242.47	5.98	-41.6	-44.1	20.3	3.02e+01	91	30	0	60817408	58	6949
2026-01-11 04:32:39.13	242.62	6.03	-41.4	-43.9	20.5	3.02e+01	92	30	0	62390272	58	6772
2026-01-11 04:32:40.15	242.76	6.08	-41.4	-43.9	20.5	3.02e+01	91	30	0	64487424	58	6767
2026-01-11 04:32:41.15	242.90	6.13	-41.4	-43.9	20.5	3.02e+01	91	30	0	66060288	58	6747
2026-01-11 04:32:42.16	243.05	6.17	-41.2	-43.5	21.0	3.02e+01	91	30	0	68157440	58	6458
2026-01-11 04:32:43.17	243.20	6.22	-40.6	-42.7	21.7	3.02e+01	92	30	0	70254592	56	6641
2026-01-11 04:32:44.18	243.34	6.27	-40.3	-42.4	22.1	3.02e+01	91	30	0	71827456	56	6362
2026-01-11 04:32:45.19	243.49	6.31	-40.3	-42.3	22.1	3.02e+01	87	30	0	73924608	56	6302
2026-01-11 04:32:46.20	243.64	6.36	-40.1	-42.1	22.4	3.02e+01	91	30	0	75497472	56	6172
2026-01-11 04:32:47.21	243.78	6.41	-40.2	-42.2	22.2	3.02e+01	91	30	0	77594624	56	6228
2026-01-11 04:32:48.22	243.93	6.46	-40.1	-42.1	22.4	3.02e+01	92	30	0	79691776	56	6185
2026-01-11 04:32:49.23	244.08	6.50	-40.1	-42.0	22.4	3.02e+01	90	30	0	81264640	56	6132
2026-01-11 04:32:50.24	244.23	6.55	-39.6	-41.4	23.0	3.02e+01	92	30	0	83361792	54	6380
2026-01-11 04:32:51.25	244.38	6.60	-39.6	-41.4	23.0	3.02e+01	92	30	0	84934656	54	6399
2026-01-11 04:32:52.26	244.53	6.64	-39.4	-41.3	23.2	3.02e+01	92	30	0	87031808	54	6310
2026-01-11 04:32:53.27	244.68	6.69	-38.9	-40.7	23.8	3.02e+01	90	30	0	89128960	52	6581
2026-01-11 04:32:54.28	244.83	6.74	-38.6	-40.3	24.2	3.02e+01	92	30	0	90701824	52	6304
2026-01-11 04:32:55.29	244.98	6.79	-38.5	-40.2	24.3	3.02e+01	90	30	0	92798976	52	6220
2026-01-11 04:32:56.31	245.14	6.83	-38.4	-40.0	24.5	3.02e+01	92	30	0	94896128	52	6098
2026-01-11 04:32:57.31	245.29	6.88	-38.3	-40.0	24.6	3.02e+01	92	30	0	96468992	52	6065
2026-01-11 04:32:58.32	245.44	6.93	-38.4	-40.0	24.4	3.02e+01	92	30	0	98566144	52	6097
2026-01-11 04:32:59.34	245.60	6.97	-38.1	-39.7	24.8	3.02e+01	90	30	0	100139008	52	5889
2026-01-11 04:33:00.35	245.75	7.02	-38.1	-39.7	24.8	3.02e+01	92	30	0	102236160	52	5889
2026-01-11 04:33:01.35	245.90	7.06	-37.9	-39.5	25.1	3.02e+01	90	30	0	104333312	52	5746
2026-01-11 04:33:02.36	246.06	7.11	-37.6	-39.1	25.4	3.02e+01	92	30	0	105906176	50	6157
2026-01-11 04:33:03.37	246.21	7.16	-37.4	-38.9	25.6	3.02e+01	89	30	0	108003328	50	6017
2026-01-11 04:33:04.38	246.37	7.20	-37.5	-38.9	25.6	3.02e+01	88	30	0	110100480	50	6050
2026-01-11 04:33:05.39	246.53	7.25	-37.3	-38.7	25.8	3.02e+01	90	30	0	111673344	50	5911
2026-01-11 04:33:06.40	246.69	7.29	-37.3	-38.7	25.8	3.02e+01	92	30	0	113770496	50	5907
2026-01-11 04:33:07.42	246.84	7.34	-37.1	-38.6	25.9	3.02e+01	92	30	0	115343360	50	5804
2026-01-11 04:33:08.43	247.00	7.39	-37.0	-38.5	26.0	3.02e+01	91	30	0	117440512	50	5730
2026-01-11 04:33:09.44	247.16	7.43	-36.9	-38.4	26.2	3.02e+01	92	30	0	119537664	50	5674
2026-01-11 04:33:10.45	247.32	7.48	-36.8	-38.2	26.4	3.02e+01	90	30	0	121110528	48	6251
2026-01-11 04:33:11.45	247.48	7.52	-36.8	-38.2	26.4	3.02e+01	92	30	0	123207680	48	6226
2026-01-11 04:33:12.47	247.64	7.57	-36.6	-38.0	26.5	3.02e+01	92	30	0	124780544	48	6123
2026-01-11 04:33:13.48	247.80	7.61	-36.7	-38.2	26.4	3.02e+01	92	30	0	126877696	48	6216
2026-01-11 04:33:14.49	247.96	7.66	-36.4	-37.8	26.7	3.02e+01	92	30	0	128974848	48	5977
2026-01-11 04:33:15.50	248.13	7.71	-36.4	-37.8	26.7	3.02e+01	92	30	0	130547712	48	5970
2026-01-11 04:33:16.50	248.29	7.75	-36.4	-37.8	26.8	3.02e+01	92	30	0	132644864	48	5934
2026-01-11 04:33:17.51	248.45	7.79	-36.2	-37.5	27.0	3.02e+01	92	30	0	134217728	48	5780
2026-01-11 04:33:18.52	248.61	7.84	-36.1	-37.4	27.1	3.02e+01	89	30	0	136314880	48	5703
2026-01-11 04:33:19.53	248.78	7.88	-36.1	-37.4	27.1	3.02e+01	92	30	0	138412032	48	5697
2026-01-11 04:33:20.53	248.94	7.93	-36.0	-37.3	27.2	3.02e+01	92	30	0	139984896	48	5640
2026-01-11 04:33:21.54	249.11	7.97	-36.0	-37.4	27.2	3.02e+01	91	30	0	142082048	46	6354
2026-01-11 04:33:22.55	249.27	8.02	-36.2	-37.6	27.1	3.02e+01	92	30	0	143654912	46	6499
2026-01-11 04:33:23.56	249.44	8.06	-36.2	-37.5	27.1	3.02e+01	85	30	0	145752064	46	6462
2026-01-11 04:33:24.57	249.61	8.11	-36.1	-37.4	27.2	3.02e+01	91	30	0	147849216	46	6405
2026-01-11 04:33:25.58	249.77	8.15	-36.2	-37.5	27.1	3.02e+01	91	30	0	149422080	46	6454
2026-01-11 04:33:26.59	249.94	8.19	-35.8	-37.1	27.5	3.02e+01	92	30	0	151519232	46	6156
2026-01-11 04:33:27.60	250.11	8.24	-36.0	-37.3	27.4	3.02e+01	92	30	0	153092096	46	6298
2026-01-11 04:33:28.61	250.28	8.28	-36.1	-37.4	27.1	3.02e+01	90	30	0	155189248	46	6423
2026-01-11 04:33:29.62	250.45	8.33	-35.9	-37.2	27.4	3.02e+01	91	30	0	157286400	46	6261
2026-01-11 04:33:30.63	250.62	8.37	-36.0	-37.4	27.3	3.02e+01	92	30	0	158859264	46	6364
2026-01-11 04:33:31.64	250.79	8.41	-35.9	-37.2	27.3	3.02e+01	92	30	0	160956416	46	6275
2026-01-11 04:33:32.65	250.96	8.46	-35.8	-37.1	27.5	3.02e+01	92	30	0	163053568	46	6182
2026-01-11 04:33:33.66	251.13	8.50	-35.8	-37.1	27.4	3.02e+01	92	30	0	164626432	46	6173
2026-01-11 04:33:34.67	251.30	8.54	-35.8	-37.1	27.5	3.02e+01	92	30	0	166723584	46	6170
2026-01-11 04:33:35.68	251.48	8.59	-35.5	-37.3	26.9	3.02e+01	92	30	0	168296448	46	6291
2026-01-11 04:33:36.68	251.65	8.63	-35.4	-37.0	27.2	3.02e+01	92	30	0	170393600	46	6131
2026-01-11 04:33:37.69	251.82	8.67	-35.4	-37.1	26.9	3.02e+01	92	30	0	172490752	46	6141
2026-01-11 04:33:38.70	252.00	8.71	-35.5	-37.3	26.9	3.02e+01	92	30	0	174063616	46	6306
2026-01-11 04:33:39.71	252.17	8.76	-35.2	-37.0	26.5	3.02e+01	91	30	0	176160768	46	6110
2026-01-11 04:33:40.72	252.35	8.80	-34.9	-37.0	26.4	3.02e+01	92	30	0	178257920	44	6807
2026-01-11 04:33:41.73	252.52	8.84	-35.7	-37.0	21.5	3.02e+01	90	30	0	179830784	44	6822
2026-01-11 04:33:42.74	252.70	8.88	-33.5	-37.0	21.3	3.02e+01	92	30	0	181927936	42	7710
2026-01-11 04:33:43.75	252.88	8.92	-32.9	-37.1	20.1	3.02e+01	92	30	0	183500800	40	8700
2026-01-11 04:33:44.75	253.05	8.96	-32.4	-36.9	19.1	3.02e+01	91	30	0	185597952	40	8489
2026-01-11 04:33:45.76	253.23	9.01	-32.2	-36.9	18.4	3.02e+01	92	30	0	187170816	40	8536
2026-01-11 04:33:46.77	253.41	9.05	-31.9	-37.0	19.1	3.02e+01	92	30	0	189267968	38	9631
2026-01-11 04:33:47.77	253.59	9.09	-31.9	-36.9	19.2	3.02e+01	90	30	0	191365120	38	9599
2026-01-11 04:33:48.79	253.77	9.13	-34.2	-36.9	23.7	3.02e+01	92	30	0	192937984	46	6013
2026-01-11 04:33:49.80	253.95	9.17	-34.4	-37.1	24.6	3.02e+01	92	30	0	195035136	42	7739
2026-01-11 04:33:50.81	254.13	9.21	-34.5	-36.9	25.1	3.02e+01	92	30	0	196608000	42	7580
2026-01-11 04:33:51.82	254.31	9.25	-34.7	-37.0	25.4	3.02e+01	90	30	0	198705152	42	7722
2026-01-11 04:33:52.83	254.49	9.29	-34.8	-36.9	26.0	3.02e+01	92	30	0	200802304	42	7599
2026-01-11 04:33:53.84	254.67	9.33	-35.0	-37.0	26.0	3.02e+01	92	30	0	202375168	44	6815
2026-01-11 04:33:54.85	254.86	9.37	-35.3	-37.2	25.8	3.02e+01	92	30	0	204472320	44	7042
2026-01-11 04:33:55.86	255.04	9.41	-35.8	-37.1	27.5	3.02e+01	92	30	0	206569472	44	6906
2026-01-11 04:33:56.87	255.22	9.45	-35.6	-36.9	27.7	3.02e+01	91	30	0	208142336	44	6731
2026-01-11 04:33:57.87	255.41	9.49	-35.4	-36.7	27.8	3.02e+01	89	30	0	210239488	44	6634
2026-01-11 04:33:58.88	255.59	9.53	-35.5	-36.8	27.8	3.02e+01	92	30	0	211812352	44	6684
2026-01-11 04:33:59.89	255.78	9.57	-35.3	-36.6	28.0	3.02e+01	92	30	0	213909504	44	6534
2026-01-11 04:34:00.90	255.96	9.61	-35.4	-36.7	27.9	3.02e+01	92	30	0	216006656	44	6592
2026-01-11 04:34:01.91	256.15	9.65	-35.4	-36.7	27.9	3.02e+01	91	30	0	217579520	44	6601
2026-01-11 04:34:02.92	256.34	9.69	-35.4	-36.7	27.8	3.02e+01	92	30	0	219676672	44	6615
2026-01-11 04:34:03.93	256.52	9.72	-35.3	-36.6	28.0	3.02e+01	91	30	0	221249536	44	6507
2026-01-11 04:34:04.94	256.71	9.76	-35.4	-36.6	27.9	3.02e+01	88	30	0	223346688	44	6562
2026-01-11 04:34:05.95	256.90	9.80	-35.4	-36.6	28.0	3.02e+01	92	30	0	225443840	44	6562
2026-01-11 04:34:06.96	257.09	9.84	-35.3	-36.6	27.9	3.02e+01	91	30	0	227016704	44	6540
2026-01-11 04:34:07.97	257.28	9.88	-35.5	-36.7	27.9	3.02e+01	92	30	0	229113856	44	6642
2026-01-11 04:34:08.98	257.47	9.91	-35.4	-36.7	27.9	3.02e+01	92	30	0	231211008	44	6621
2026-01-11 04:34:09.99	257.66	9.95	-35.5	-36.8	27.8	3.02e+01	92	30	0	232783872	44	6684
2026-01-11 04:34:11.00	257.85	9.99	-35.3	-36.6	28.0	3.02e+01	92	30	0	234881024	44	6556
2026-01-11 04:34:12.00	258.04	10.03	-35.3	-36.6	28.0	3.02e+01	92	30	0	236453888	44	6561
2026-01-11 04:34:13.01	258.23	10.06	-35.3	-36.6	28.0	3.02e+01	92	30	0	238551040	44	6532
2026-01-11 04:34:14.02	258.42	10.10	-35.5	-36.8	27.9	3.02e+01	91	30	0	240648192	44	6660
2026-01-11 04:34:15.03	258.62	10.13	-35.4	-36.7	28.0	3.02e+01	92	30	0	242221056	44	6582
2026-01-11 04:34:16.04	258.81	10.17	-35.5	-36.8	27.8	3.02e+01	92	30	0	244318208	44	6662
2026-01-11 04:34:17.05	259.00	10.21	-35.1	-36.4	28.2	3.02e+01	91	30	0	245891072	44	6384
2026-01-11 04:34:18.06	259.20	10.24	-35.1	-36.4	28.2	3.02e+01	90	30	0	247988224	44	6379
2026-01-11 04:34:19.06	259.39	10.28	-34.9	-36.2	28.4	3.02e+01	92	30	0	249561088	44	6219
2026-01-11 04:34:20.07	259.59	10.31	-35.1	-36.4	28.2	3.02e+01	92	30	0	251658240	44	6353
2026-01-11 04:34:21.08	259.78	10.35	-35.3	-36.6	28.0	3.02e+01	90	30	0	253755392	44	6531
2026-01-11 04:34:22.09	259.98	10.38	-35.4	-36.7	28.0	3.02e+01	91	30	0	255328256	44	6586
2026-01-11 04:34:23.10	260.18	10.42	-35.0	-36.3	28.3	3.02e+01	92	30	0	257425408	44	6320
2026-01-11 04:34:24.11	260.37	10.45	-35.1	-36.3	28.2	3.02e+01	85	30	0	259522560	44	6350
2026-01-11 04:34:25.12	260.57	10.49	-35.1	-36.4	28.2	3.02e+01	91	30	0	261095424	44	6389
2026-01-11 04:34:26.13	260.77	10.52	-35.2	-36.5	28.1	3.02e+01	91	30	0	263192576	44	6461
2026-01-11 04:34:27.14	260.97	10.55	-35.1	-36.4	28.1	3.02e+01	91	30	0	264765440	44	6389
2026-01-11 04:34:28.15	261.17	10.59	-35.0	-36.2	28.3	3.02e+01	92	30	0	266862592	44	6252
2026-01-11 04:34:29.16	261.37	10.62	-35.1	-36.3	28.3	3.02e+01	91	30	0	268959744	44	6347
2026-01-11 04:34:30.17	261.57	10.65	-35.1	-36.4	28.3	3.02e+01	90	30	0	270532608	44	6355
2026-01-11 04:34:31.18	261.77	10.68	-35.1	-36.3	28.2	3.02e+01	92	30	0	272629760	44	6348
2026-01-11 04:34:32.19	261.97	10.72	-35.1	-36.3	28.2	3.02e+01	92	30	0	274726912	44	6347
2026-01-11 04:34:33.20	262.17	10.75	-35.1	-36.3	28.2	3.02e+01	91	30	0	276299776	44	6322
2026-01-11 04:34:34.21	262.38	10.78	-35.1	-36.4	28.2	3.02e+01	92	30	0	278396928	44	6354
2026-01-11 04:34:35.22	262.58	10.81	-35.0	-36.3	28.4	3.02e+01	92	30	0	279969792	44	6278
2026-01-11 04:34:36.23	262.78	10.84	-35.2	-36.4	28.1	3.02e+01	90	30	0	282066944	44	6414
2026-01-11 04:34:37.24	262.99	10.88	-35.2	-36.5	28.3	3.02e+01	92	30	0	284164096	44	6468
2026-01-11 04:34:38.24	263.19	10.91	-35.1	-36.4	28.1	3.02e+01	92	30	0	285736960	44	6381
2026-01-11 04:34:39.25	263.39	10.94	-34.8	-36.1	28.5	3.02e+01	92	30	0	287834112	44	6159
2026-01-11 04:34:40.26	263.60	10.97	-35.0	-36.2	28.4	3.02e+01	92	30	0	289406976	44	6277
2026-01-11 04:34:41.27	263.80	11.00	-35.0	-36.3	28.3	3.02e+01	90	30	0	291504128	44	6299
2026-01-11 04:34:42.28	264.01	11.03	-35.1	-36.4	28.3	3.02e+01	92	30	0	293601280	44	6359
2026-01-11 04:34:43.29	264.21	11.06	-34.9	-36.2	28.4	3.02e+01	92	30	0	295174144	44	6240
2026-01-11 04:34:44.30	264.42	11.08	-34.9	-36.2	28.4	3.02e+01	92	30	0	297271296	44	6237
2026-01-11 04:34:45.31	264.63	11.11	-35.3	-36.6	27.2	3.02e+01	95	30	0	298844160	46	5831
2026-01-11 04:34:46.32	264.83	11.14	-34.9	-36.2	28.4	3.02e+01	89	30	0	300941312	44	6231
2026-01-11 04:34:47.33	265.04	11.17	-35.2	-36.5	28.3	3.02e+01	90	30	0	303038464	44	6455
2026-01-11 04:34:48.34	265.25	11.20	-35.0	-36.2	28.4	3.02e+01	92	30	0	304611328	44	6251
2026-01-11 04:34:49.35	265.46	11.23	-35.2	-36.4	28.3	3.02e+01	92	30	0	306708480	44	6402
2026-01-11 04:34:50.36	265.67	11.25	-35.0	-36.3	28.3	3.02e+01	91	30	0	308281344	44	6284
2026-01-11 04:34:51.37	265.88	11.28	-35.0	-36.3	28.3	3.02e+01	92	30	0	310378496	44	6282
2026-01-11 04:34:52.37	266.09	11.31	-34.9	-36.2	28.3	3.02e+01	91	30	0	312475648	44	6244
2026-01-11 04:34:53.38	266.30	11.33	-35.0	-36.3	28.4	3.02e+01	90	30	0	314048512	44	6295
2026-01-11 04:34:54.39	266.51	11.36	-35.1	-36.3	28.4	3.02e+01	92	30	0	316145664	44	6348
2026-01-11 04:34:55.40	266.72	11.39	-35.1	-36.3	28.3	3.02e+01	91	30	0	317718528	44	6350
2026-01-11 04:34:56.41	266.93	11.41	-35.2	-36.5	28.2	3.02e+01	91	30	0	319815680	44	6426
2026-01-11 04:34:57.42	267.14	11.44	-35.0	-36.3	28.3	3.02e+01	92	30	0	321912832	44	6321
2026-01-11 04:34:58.43	267.35	11.46	-35.0	-36.2	28.5	3.02e+01	92	30	0	323485696	44	6273
2026-01-11 04:34:59.44	267.57	11.49	-34.8	-36.1	28.6	3.02e+01	90	30	0	325582848	44	6138
2026-01-11 04:35:00.45	267.78	11.51	-34.9	-36.1	28.5	3.02e+01	91	30	0	327680000	44	6196
2026-01-11 04:35:01.46	267.99	11.54	-35.0	-36.3	28.4	3.02e+01	92	30	0	329252864	44	6293
2026-01-11 04:35:02.47	268.21	11.56	-34.8	-36.0	28.6	3.02e+01	92	30	0	331350016	44	6130
2026-01-11 04:35:03.48	268.42	11.58	-34.8	-36.0	28.6	3.02e+01	92	30	0	332922880	44	6121
2026-01-11 04:35:04.48	268.63	11.61	-34.8	-36.1	28.5	3.02e+01	92	30	0	335020032	44	6150
2026-01-11 04:35:05.49	268.85	11.63	-35.0	-36.3	28.4	3.02e+01	86	30	0	337117184	44	6279
2026-01-11 04:35:06.50	269.06	11.65	-34.8	-36.1	28.5	3.02e+01	92	30	0	338690048	44	6144
2026-01-11 04:35:07.51	269.28	11.68	-34.8	-36.0	28.6	3.02e+01	90	30	0	340787200	44	6108
2026-01-11 04:35:08.52	269.49	11.70	-34.7	-35.9	28.7	3.02e+01	92	30	0	342884352	44	6060
2026-01-11 04:35:09.53	269.71	11.72	-34.8	-36.1	28.6	3.02e+01	92	30	0	344457216	44	6148
2026-01-11 04:35:10.54	269.93	11.74	-34.7	-36.0	28.7	3.02e+01	92	30	0	346554368	44	6077
2026-01-11 04:35:11.55	270.14	11.76	-34.7	-35.9	28.6	3.02e+01	92	30	0	348127232	44	6049
2026-01-11 04:35:12.56	270.36	11.78	-34.7	-35.9	28.7	3.02e+01	92	30	0	350224384	44	6035
2026-01-11 04:35:13.57	270.58	11.80	-34.8	-36.1	28.4	3.02e+01	92	30	0	352321536	44	6166
2026-01-11 04:35:14.57	270.79	11.82	-34.7	-36.0	28.6	3.02e+01	92	30	0	353894400	44	6073
2026-01-11 04:35:15.58	271.01	11.84	-34.7	-35.9	28.6	3.02e+01	91	30	0	355991552	44	6045
2026-01-11 04:35:16.59	271.23	11.86	-34.6	-35.9	28.6	3.02e+01	91	30	0	357564416	44	6014
2026-01-11 04:35:17.60	271.45	11.88	-34.6	-35.8	28.8	3.02e+01	92	30	0	359661568	44	5945
2026-01-11 04:35:18.61	271.67	11.90	-34.7	-35.9	28.7	3.02e+01	92	30	0	361234432	44	6046
2026-01-11 04:35:19.62	271.89	11.92	-34.7	-36.0	28.6	3.02e+01	92	30	0	363331584	44	6095
2026-01-11 04:35:20.63	272.11	11.93	-34.7	-35.9	28.6	3.02e+01	91	30	0	365428736	44	6028
2026-01-11 04:35:21.64	272.33	11.95	-34.5	-35.8	28.8	3.02e+01	92	30	0	367001600	44	5930
2026-01-11 04:35:22.65	272.55	11.97	-34.7	-36.0	28.6	3.02e+01	92	30	0	369098752	44	6073
2026-01-11 04:35:23.66	272.77	11.99	-34.6	-35.8	28.8	3.02e+01	92	30	0	371195904	44	5973
2026-01-11 04:35:24.66	272.99	12.00	-34.8	-36.0	28.5	3.02e+01	92	30	0	372768768	44	6108
2026-01-11 04:35:25.68	273.21	12.02	-34.7	-36.0	28.5	3.02e+01	92	30	0	374865920	44	6081
2026-01-11 04:35:26.69	273.43	12.04	-34.7	-36.0	28.6	3.02e+01	92	30	0	376438784	44	6090
2026-01-11 04:35:27.69	273.65	12.05	-34.5	-35.7	28.8	3.02e+01	86	30	0	378535936	44	5921
2026-01-11 04:35:28.70	273.87	12.07	-34.5	-35.7	28.9	3.02e+01	92	30	0	380633088	44	5904
2026-01-11 04:35:29.71	274.09	12.08	-34.6	-35.9	28.7	3.02e+01	92	30	0	382205952	44	6004
2026-01-11 04:35:30.72	274.31	12.09	-34.6	-35.9	28.7	3.02e+01	92	30	0	384303104	44	6027
2026-01-11 04:35:31.73	274.54	12.11	-34.8	-36.0	28.6	3.02e+01	91	30	0	385875968	44	6117
2026-01-11 04:35:32.74	274.76	12.12	-34.6	-35.9	28.7	3.02e+01	90	30	0	387973120	44	5995
2026-01-11 04:35:33.75	274.98	12.14	-34.6	-35.8	28.8	3.02e+01	92	30	0	390070272	44	5954
2026-01-11 04:35:34.76	275.20	12.15	-34.7	-35.9	28.6	3.02e+01	90	30	0	391643136	44	6045
2026-01-11 04:35:35.77	275.43	12.16	-34.6	-35.8	28.8	3.02e+01	92	30	0	393740288	44	5978
2026-01-11 04:35:36.78	275.65	12.17	-34.6	-35.8	28.7	3.02e+01	91	30	0	395837440	44	5953
2026-01-11 04:35:37.79	275.87	12.19	-34.5	-35.8	28.7	3.02e+01	91	30	0	397410304	44	5960
2026-01-11 04:35:38.80	276.10	12.20	-34.7	-36.0	28.6	3.02e+01	92	30	0	399507456	44	6088
2026-01-11 04:35:39.81	276.32	12.21	-34.5	-35.7	28.8	3.02e+01	92	30	0	401080320	44	5884
2026-01-11 04:35:40.80	276.54	12.22	-34.5	-35.8	28.8	3.02e+01	92	30	0	403177472	44	5934
2026-01-11 04:35:41.80	276.76	12.23	-34.6	-35.8	28.7	3.02e+01	92	30	0	405274624	44	5975
2026-01-11 04:35:42.81	276.99	12.24	-34.6	-35.8	28.7	3.02e+01	92	30	0	406847488	44	5970
2026-01-11 04:35:43.82	277.21	12.25	-34.7	-36.0	28.6	3.02e+01	90	30	0	408944640	44	6081
2026-01-11 04:35:44.83	277.44	12.26	-34.4	-35.7	28.8	3.02e+01	92	30	0	410517504	44	5873
2026-01-11 04:35:45.84	277.66	12.27	-34.4	-35.6	28.9	3.02e+01	90	30	0	412614656	44	5847
2026-01-11 04:35:46.85	277.88	12.28	-34.5	-35.7	28.8	3.02e+01	91	30	0	414711808	44	5891
2026-01-11 04:35:47.86	278.11	12.28	-34.5	-35.8	28.7	3.02e+01	90	30	0	416284672	44	5940
2026-01-11 04:35:48.87	278.33	12.29	-34.5	-35.8	28.8	3.02e+01	92	30	0	418381824	44	5945
2026-01-11 04:35:49.88	278.56	12.30	-34.7	-35.9	28.7	3.02e+01	90	30	0	419954688	44	6056
2026-01-11 04:35:50.89	278.79	12.31	-34.4	-35.6	28.8	3.02e+01	91	30	0	422051840	44	5858
2026-01-11 04:35:51.90	279.01	12.31	-34.3	-35.6	29.0	3.02e+01	92	30	0	424148992	44	5801
2026-01-11 04:35:52.91	279.24	12.32	-34.5	-35.7	28.8	3.02e+01	92	30	0	425721856	44	5898
2026-01-11 04:35:53.92	279.46	12.33	-34.5	-35.8	28.7	3.02e+01	92	30	0	427819008	44	5939
2026-01-11 04:35:54.92	279.69	12.33	-34.5	-35.8	28.7	3.02e+01	92	30	0	429391872	44	5942
2026-01-11 04:35:55.94	279.91	12.34	-34.5	-35.7	28.8	3.02e+01	92	30	0	431489024	44	5908
2026-01-11 04:35:56.95	280.14	12.34	-34.4	-35.7	28.9	3.02e+01	92	30	0	433586176	44	5864
2026-01-11 04:35:57.96	280.37	12.35	-34.5	-35.7	28.8	3.02e+01	92	30	0	435159040	44	5916
2026-01-11 04:35:58.97	280.59	12.35	-34.5	-35.7	28.8	3.02e+01	92	30	0	437256192	44	5915
2026-01-11 04:35:59.97	280.81	12.35	-34.5	-35.7	28.8	3.02e+01	92	30	0	439353344	44	5905
2026-01-11 04:36:00.98	281.04	12.36	-34.4	-35.6	28.9	3.02e+01	92	30	0	440926208	44	5848
2026-01-11 04:36:01.99	281.27	12.36	-34.5	-35.7	28.8	3.02e+01	90	30	0	443023360	44	5897
2026-01-11 04:36:03.00	281.49	12.36	-34.5	-35.7	28.8	3.02e+01	92	30	0	444596224	44	5885
2026-01-11 04:36:04.01	281.72	12.36	-34.4	-35.6	28.9	3.02e+01	92	30	0	446693376	44	5822
2026-01-11 04:36:05.02	281.95	12.37	-34.5	-35.7	28.8	3.02e+01	91	30	0	448790528	44	5905
2026-01-11 04:36:06.03	282.17	12.37	-34.4	-35.7	28.8	3.02e+01	92	30	0	450363392	44	5867
2026-01-11 04:36:07.04	282.40	12.37	-34.6	-35.8	28.7	3.02e+01	92	30	0	452460544	44	5962
2026-01-11 04:36:08.05	282.62	12.37	-34.5	-35.8	28.7	3.02e+01	91	30	0	454033408	44	5949
2026-01-11 04:36:09.06	282.85	12.37	-34.7	-35.9	28.7	3.02e+01	92	30	0	456130560	44	6024
2026-01-11 04:36:10.07	283.08	12.37	-34.6	-35.8	28.7	3.02e+01	90	30	0	458227712	44	5985
2026-01-11 04:36:11.08	283.30	12.37	-34.5	-35.7	28.7	3.02e+01	91	30	0	459800576	44	5876
2026-01-11 04:36:12.09	283.53	12.37	-34.3	-35.6	28.9	3.02e+01	91	30	0	461897728	44	5798
2026-01-11 04:36:13.10	283.76	12.36	-34.6	-35.8	28.7	3.02e+01	92	30	0	463994880	44	5984
2026-01-11 04:36:14.10	283.98	12.36	-34.6	-35.8	28.7	3.02e+01	92	30	0	465567744	44	5983
2026-01-11 04:36:15.11	284.21	12.36	-34.9	-36.1	28.4	3.02e+01	90	30	0	467664896	44	6198
2026-01-11 04:36:16.13	284.43	12.36	-34.5	-35.7	28.8	3.02e+01	92	30	0	469237760	44	5888
2026-01-11 04:36:17.13	284.66	12.36	-34.5	-35.8	28.7	3.02e+01	92	30	0	471334912	44	5945
2026-01-11 04:36:18.14	284.88	12.35	-34.5	-35.7	28.8	3.02e+01	92	30	0	472907776	44	5886
2026-01-11 04:36:19.15	285.11	12.35	-34.6	-35.8	28.7	3.02e+01	91	30	0	475004928	44	5984
2026-01-11 04:36:20.16	285.34	12.34	-34.4	-35.7	28.8	3.02e+01	91	30	0	477102080	44	5870
2026-01-11 04:36:21.17	285.56	12.34	-34.5	-35.7	28.8	3.02e+01	91	30	0	478674944	44	5893
2026-01-11 04:36:22.18	285.79	12.34	-34.5	-35.7	28.8	3.02e+01	92	30	0	480772096	44	5898
2026-01-11 04:36:23.19	286.01	12.33	-34.5	-35.8	28.7	3.02e+01	90	30	0	482869248	44	5927
2026-01-11 04:36:24.20	286.24	12.32	-34.5	-35.8	28.7	3.02e+01	92	30	0	484442112	44	5934
2026-01-11 04:36:25.21	286.46	12.32	-34.6	-35.8	28.7	3.02e+01	92	30	0	486539264	44	5962
2026-01-11 04:36:26.22	286.69	12.31	-34.7	-35.9	28.7	3.02e+01	92	30	0	488112128	44	6052
2026-01-11 04:36:27.23	286.91	12.31	-34.6	-35.8	28.7	3.02e+01	92	30	0	490209280	44	5977
2026-01-11 04:36:28.24	287.14	12.30	-34.4	-35.6	28.8	3.02e+01	86	30	0	492306432	44	5842
2026-01-11 04:36:29.25	287.36	12.29	-34.3	-35.6	28.9	3.02e+01	92	30	0	493879296	44	5803
2026-01-11 04:36:30.26	287.59	12.28	-34.4	-35.6	28.9	3.02e+01	92	30	0	495976448	44	5819
2026-01-11 04:36:31.27	287.81	12.28	-34.6	-35.8	28.7	3.02e+01	92	30	0	497549312	44	5970
2026-01-11 04:36:32.28	288.04	12.27	-34.6	-35.8	28.6	3.02e+01	92	31	0	499646464	44	5979
2026-01-11 04:36:33.29	288.26	12.26	-34.6	-35.8	28.7	3.02e+01	92	30	0	501743616	44	5963
2026-01-11 04:36:34.30	288.49	12.25	-34.5	-35.7	28.8	3.02e+01	92	30	0	503316480	44	5896
2026-01-11 04:36:35.31	288.71	12.24	-34.5	-35.8	28.8	3.02e+01	92	30	0	505413632	44	5949
2026-01-11 04:36:36.32	288.94	12.23	-34.6	-35.8	28.7	3.02e+01	92	30	0	507510784	44	5970
2026-01-11 04:36:37.32	289.16	12.22	-34.3	-35.5	29.0	3.02e+01	92	30	0	509083648	44	5759
2026-01-11 04:36:38.33	289.38	12.21	-34.4	-35.6	28.9	3.02e+01	90	30	0	511180800	44	5835
2026-01-11 04:36:39.34	289.60	12.20	-34.3	-35.5	28.9	3.02e+01	92	30	0	512753664	44	5781
2026-01-11 04:36:40.35	289.83	12.18	-34.5	-35.7	28.8	3.02e+01	92	30	0	514850816	44	5895
2026-01-11 04:36:41.36	290.05	12.17	-34.6	-35.8	28.7	3.02e+01	92	30	0	516947968	44	5981
2026-01-11 04:36:42.37	290.27	12.16	-34.6	-35.8	28.7	3.02e+01	92	30	0	518520832	44	5985
2026-01-11 04:36:43.38	290.50	12.15	-34.5	-35.7	28.8	3.02e+01	92	30	0	520617984	44	5891
2026-01-11 04:36:44.39	290.72	12.13	-34.5	-35.7	28.8	3.02e+01	90	31	0	522190848	44	5880
2026-01-11 04:36:45.40	290.94	12.12	-34.4	-35.7	28.8	3.02e+01	91	30	0	524288000	44	5867
2026-01-11 04:36:46.40	291.16	12.11	-34.4	-35.6	28.9	3.02e+01	92	30	0	526385152	44	5840
2026-01-11 04:36:47.42	291.38	12.09	-34.6	-35.8	28.7	3.02e+01	86	31	0	527958016	44	5958
2026-01-11 04:36:48.43	291.61	12.08	-34.5	-35.7	28.8	3.02e+01	89	30	0	530055168	44	5901
2026-01-11 04:36:49.44	291.83	12.06	-34.5	-35.7	28.9	3.02e+01	92	31	0	531628032	44	5874
2026-01-11 04:36:50.44	292.05	12.05	-34.5	-35.7	28.8	3.02e+01	92	31	0	533725184	44	5897
2026-01-11 04:36:51.46	292.27	12.03	-34.6	-35.8	28.8	3.02e+01	92	30	0	535822336	44	5952
2026-01-11 04:36:52.47	292.49	12.02	-34.4	-35.6	28.9	3.02e+01	92	31	0	537395200	44	5835
2026-01-11 04:36:53.48	292.71	12.00	-34.4	-35.6	28.8	3.02e+01	92	31	0	539492352	44	5855
2026-01-11 04:36:54.49	292.93	11.98	-34.3	-35.6	28.9	3.02e+01	90	30	0	541065216	44	5794
2026-01-11 04:36:55.50	293.15	11.97	-34.3	-35.5	29.0	3.02e+01	92	30	0	543162368	44	5771
2026-01-11 04:36:56.50	293.37	11.95	-34.4	-35.6	28.9	3.02e+01	92	30	0	545259520	44	5834
2026-01-11 04:36:57.51	293.59	11.93	-34.4	-35.6	28.8	3.02e+01	90	30	0	546832384	44	5839
2026-01-11 04:36:58.52	293.81	11.92	-34.5	-35.8	28.7	3.02e+01	92	30	0	548929536	44	5945
2026-01-11 04:36:59.53	294.02	11.90	-34.6	-35.8	28.7	3.02e+01	48	30	0	550502400	44	5967
2026-01-11 04:37:00.54	294.24	11.88	-34.6	-35.8	28.8	3.02e+01	59	30	0	552599552	44	5972
2026-01-11 04:37:01.56	294.46	11.86	-34.7	-35.9	28.6	3.02e+01	61	31	0	554696704	44	6032
2026-01-11 04:37:02.56	294.68	11.84	-34.3	-35.6	28.8	3.02e+01	48	30	0	556269568	44	5805
2026-01-11 04:37:03.57	294.90	11.82	-34.4	-35.7	28.8	3.02e+01	60	31	0	558366720	44	5878
2026-01-11 04:37:04.58	295.11	11.80	-34.6	-35.9	28.6	3.02e+01	61	30	0	560463872	44	5995
2026-01-11 04:37:05.59	295.33	11.78	-34.5	-35.8	28.8	3.02e+01	56	30	0	562036736	44	5928
2026-01-11 04:37:06.59	295.54	11.76	-34.5	-35.7	28.8	3.02e+01	58	30	0	564133888	44	5926
2026-01-11 04:37:07.60	295.76	11.74	-34.5	-35.7	28.8	3.02e+01	60	30	0	565706752	44	5890
2026-01-11 04:37:08.61	295.98	11.72	-34.5	-35.7	28.8	3.02e+01	57	30	0	567803904	44	5917
2026-01-11 04:37:09.62	296.19	11.70	-34.4	-35.6	28.9	3.02e+01	61	30	0	569901056	44	5842
2026-01-11 04:37:10.63	296.41	11.67	-34.4	-35.7	28.8	3.02e+01	49	30	0	571473920	44	5868
2026-01-11 04:37:11.64	296.62	11.65	-34.5	-35.7	28.8	3.02e+01	56	30	0	573571072	44	5905
2026-01-11 04:37:12.65	296.84	11.63	-34.4	-35.7	28.8	3.02e+01	59	30	0	575668224	44	5884
2026-01-11 04:37:13.66	297.05	11.61	-34.5	-35.7	28.9	3.02e+01	62	30	0	577241088	44	5909
2026-01-11 04:37:14.67	297.26	11.58	-34.4	-35.6	28.9	3.02e+01	57	30	0	579338240	44	5839
2026-01-11 04:37:15.68	297.48	11.56	-34.4	-35.7	28.8	3.02e+01	55	30	0	580911104	44	5863
2026-01-11 04:37:16.69	297.69	11.54	-34.5	-35.7	28.8	3.02e+01	60	30	0	583008256	44	5908
2026-01-11 04:37:17.70	297.90	11.51	-34.5	-35.8	28.8	3.02e+01	58	30	0	585105408	44	5945
2026-01-11 04:37:18.71	298.12	11.49	-34.5	-35.8	28.7	3.02e+01	47	31	0	586678272	44	5932
2026-01-11 04:37:19.72	298.33	11.46	-34.6	-35.9	28.7	3.02e+01	61	31	0	588775424	44	6007
2026-01-11 04:37:20.73	298.54	11.44	-34.7	-35.9	28.5	3.02e+01	58	30	0	590348288	44	6061
2026-01-11 04:37:21.74	298.75	11.41	-34.8	-36.1	28.6	3.02e+01	59	30	0	592445440	44	6138
2026-01-11 04:37:22.75	298.96	11.39	-34.5	-35.7	28.8	3.02e+01	64	30	0	594542592	44	5904
2026-01-11 04:37:23.76	299.17	11.36	-34.6	-35.9	28.6	3.02e+01	58	30	0	596115456	44	6007
2026-01-11 04:37:24.77	299.38	11.33	-34.5	-35.7	28.7	3.02e+01	58	31	0	598212608	44	5924
2026-01-11 04:37:25.78	299.59	11.31	-34.5	-35.7	28.7	3.02e+01	60	30	0	599785472	44	5882
2026-01-11 04:37:26.79	299.80	11.28	-34.5	-35.8	28.7	3.02e+01	47	30	0	601882624	44	5939
2026-01-11 04:37:27.80	300.01	11.25	-34.5	-35.7	28.7	3.02e+01	60	30	0	603979776	44	5894
2026-01-11 04:37:28.81	300.22	11.23	-34.5	-35.7	28.7	3.02e+01	52	30	0	605552640	44	5922
2026-01-11 04:37:29.82	300.43	11.20	-34.6	-35.8	28.6	3.02e+01	58	31	0	607649792	44	5987
2026-01-11 04:37:30.83	300.63	11.17	-34.6	-35.9	28.6	3.02e+01	56	30	0	609222656	44	6016
2026-01-11 04:37:31.83	300.84	11.14	-34.5	-35.8	28.7	3.02e+01	55	31	0	611319808	44	5945
2026-01-11 04:37:32.84	301.05	11.11	-34.4	-35.6	28.8	3.02e+01	59	30	0	613416960	44	5852
2026-01-11 04:37:33.85	301.25	11.09	-34.5	-35.7	28.8	3.02e+01	59	30	0	614989824	44	5904
2026-01-11 04:37:34.86	301.46	11.06	-34.5	-35.7	28.7	3.02e+01	59	31	0	617086976	44	5918
2026-01-11 04:37:35.87	301.66	11.03	-34.6	-35.8	28.7	3.02e+01	57	30	0	618659840	44	5975
2026-01-11 04:37:36.88	301.87	11.00	-34.6	-35.9	28.6	3.02e+01	51	30	0	620756992	44	6022
2026-01-11 04:37:37.89	302.07	10.97	-34.7	-36.0	28.5	3.02e+01	62	30	0	622854144	44	6067
2026-01-11 04:37:38.90	302.28	10.94	-34.7	-35.9	28.6	3.02e+01	58	31	0	624427008	44	6040
2026-01-11 04:37:39.91	302.48	10.91	-34.6	-35.9	28.6	3.02e+01	50	31	0	626524160	44	6021
2026-01-11 04:37:40.92	302.68	10.88	-34.6	-35.9	28.6	3.02e+01	61	31	0	628621312	44	6003
2026-01-11 04:37:41.93	302.89	10.85	-34.5	-35.8	28.7	3.02e+01	59	30	0	630194176	44	5933
2026-01-11 04:37:42.94	303.09	10.81	-34.6	-35.9	28.5	3.02e+01	56	31	0	632291328	44	6030
2026-01-11 04:37:43.95	303.29	10.78	-34.5	-35.8	28.7	3.02e+01	61	30	0	633864192	44	5962
2026-01-11 04:37:44.96	303.49	10.75	-34.6	-35.9	28.5	3.02e+01	55	31	0	635961344	44	6041
2026-01-11 04:37:45.96	303.69	10.72	-34.5	-35.8	28.7	3.02e+01	59	31	0	638058496	44	5960
2026-01-11 04:37:46.98	303.89	10.69	-34.5	-35.7	28.8	3.02e+01	59	31	0	639631360	44	5921
2026-01-11 04:37:47.99	304.09	10.65	-34.5	-35.8	28.7	3.02e+01	47	30	0	641728512	44	5951
2026-01-11 04:37:49.00	304.29	10.62	-34.6	-35.9	28.7	3.02e+01	60	31	0	643825664	44	6012
2026-01-11 04:37:50.00	304.49	10.59	-34.8	-36.1	28.4	3.02e+01	58	30	0	645398528	44	6183
2026-01-11 04:37:51.01	304.69	10.56	-34.7	-36.0	28.5	3.02e+01	61	31	0	647495680	44	6098
2026-01-11 04:37:52.02	304.89	10.52	-34.9	-36.2	28.4	3.02e+01	61	30	0	649068544	44	6212
2026-01-11 04:37:53.03	305.08	10.49	-34.8	-36.1	28.4	3.02e+01	53	31	0	651165696	44	6174
2026-01-11 04:37:54.04	305.28	10.45	-34.7	-36.0	28.5	3.02e+01	62	30	0	652738560	44	6085
2026-01-11 04:37:55.05	305.48	10.42	-34.8	-36.0	28.5	3.02e+01	58	31	0	654835712	44	6131
2026-01-11 04:37:56.06	305.67	10.39	-34.6	-35.9	28.6	3.02e+01	45	30	0	656932864	44	5999
2026-01-11 04:37:57.07	305.87	10.35	-34.7	-35.9	28.6	3.02e+01	60	31	0	658505728	44	6064
2026-01-11 04:37:58.08	306.06	10.32	-34.7	-36.0	28.5	3.02e+01	61	31	0	660602880	44	6095
2026-01-11 04:37:59.09	306.26	10.28	-34.7	-36.0	28.6	3.02e+01	60	31	0	662175744	44	6071
2026-01-11 04:38:00.10	306.45	10.25	-34.7	-36.0	28.5	3.02e+01	57	30	0	664272896	44	6087
2026-01-11 04:38:01.11	306.65	10.21	-34.7	-36.0	28.4	3.02e+01	51	30	0	666370048	44	6107
2026-01-11 04:38:02.11	306.84	10.18	-34.7	-36.0	28.5	3.02e+01	59	31	0	667942912	44	6071
2026-01-11 04:38:03.12	307.03	10.14	-34.8	-36.1	28.4	3.02e+01	57	31	0	670040064	44	6165
2026-01-11 04:38:04.13	307.22	10.10	-34.7	-36.0	28.5	3.02e+01	59	31	0	672137216	44	6123
2026-01-11 04:38:05.14	307.41	10.07	-34.7	-36.0	28.5	3.02e+01	59	31	0	673710080	44	6101
2026-01-11 04:38:06.15	307.61	10.03	-34.7	-36.0	28.4	3.02e+01	46	31	0	675807232	44	6087
2026-01-11 04:38:07.16	307.80	9.99	-34.8	-36.1	28.4	3.02e+01	55	31	0	677380096	44	6143
2026-01-11 04:38:08.16	307.98	9.96	-34.9	-36.2	28.3	3.02e+01	59	31	0	679477248	44	6262
2026-01-11 04:38:09.17	308.17	9.92	-34.7	-35.9	28.5	3.02e+01	45	31	0	681574400	44	6038
2026-01-11 04:38:10.18	308.36	9.88	-34.7	-35.9	28.5	3.02e+01	59	30	0	683147264	44	6056
2026-01-11 04:38:11.19	308.55	9.85	-34.7	-36.0	28.5	3.02e+01	60	31	0	685244416	44	6087
2026-01-11 04:38:12.20	308.74	9.81	-34.7	-36.0	28.5	3.02e+01	59	31	0	686817280	44	6084
2026-01-11 04:38:13.21	308.93	9.77	-34.8	-36.0	28.5	3.02e+01	59	31	0	688914432	44	6116
2026-01-11 04:38:14.22	309.12	9.73	-34.9	-36.1	28.4	3.02e+01	60	31	0	691011584	44	6205
2026-01-11 04:38:15.23	309.30	9.69	-34.9	-36.2	28.3	3.02e+01	59	31	0	692584448	44	6220
2026-01-11 04:38:16.24	309.49	9.66	-34.9	-36.2	28.3	3.02e+01	57	31	0	694681600	44	6212
2026-01-11 04:38:17.24	309.67	9.62	-34.9	-36.1	28.4	3.02e+01	44	31	0	696778752	44	6188
2026-01-11 04:38:18.25	309.86	9.58	-34.8	-36.1	28.3	3.02e+01	62	31	0	698351616	44	6166
2026-01-11 04:38:19.26	310.04	9.54	-34.8	-36.1	28.3	3.02e+01	59	31	0	700448768	44	6179
2026-01-11 04:38:20.27	310.23	9.50	-34.9	-36.2	28.2	3.02e+01	60	30	0	702021632	44	6231
2026-01-11 04:38:21.28	310.41	9.46	-34.9	-36.2	28.2	3.02e+01	60	31	0	704118784	44	6216
2026-01-11 04:38:22.29	310.59	9.42	-34.8	-36.1	28.3	3.02e+01	60	31	0	705691648	44	6175
2026-01-11 04:38:23.30	310.77	9.38	-35.0	-36.2	28.1	3.02e+01	61	31	0	707788800	44	6275
2026-01-11 04:38:24.31	310.96	9.34	-34.9	-36.2	28.2	3.02e+01	57	31	0	709885952	44	6210
2026-01-11 04:38:25.32	311.14	9.30	-34.8	-36.1	28.3	3.02e+01	45	31	0	711458816	44	6145
2026-01-11 04:38:26.33	311.32	9.26	-34.8	-36.0	28.4	3.02e+01	62	31	0	713555968	44	6124
2026-01-11 04:38:27.34	311.50	9.22	-34.9	-36.2	28.2	3.02e+01	59	31	0	715128832	44	6228
2026-01-11 04:38:28.35	311.68	9.18	-35.0	-36.3	28.1	3.02e+01	63	31	0	717225984	44	6294
2026-01-11 04:38:29.36	311.86	9.14	-35.1	-36.3	28.0	3.02e+01	59	31	0	719323136	44	6350
2026-01-11 04:38:30.37	312.04	9.10	-35.1	-36.4	28.0	3.02e+01	47	31	0	720896000	44	6397
2026-01-11 04:38:31.38	312.21	9.06	-35.0	-36.3	28.1	3.02e+01	61	31	0	722993152	44	6287
2026-01-11 04:38:32.38	312.39	9.02	-34.9	-36.2	28.1	3.02e+01	58	30	0	725090304	44	6236
2026-01-11 04:38:33.39	312.57	8.98	-34.9	-36.2	28.2	3.02e+01	48	31	0	726663168	44	6229
2026-01-11 04:38:34.40	312.74	8.94	-34.9	-36.2	28.2	3.02e+01	62	31	0	728760320	44	6239
2026-01-11 04:38:35.41	312.92	8.90	-35.1	-36.3	28.1	3.02e+01	63	31	0	730333184	44	6345
2026-01-11 04:38:36.42	313.10	8.85	-35.0	-36.3	28.2	3.02e+01	60	31	0	732430336	44	6307
2026-01-11 04:38:37.44	313.27	8.81	-35.2	-36.5	28.0	3.02e+01	59	30	0	734527488	44	6425
2026-01-11 04:38:38.45	313.45	8.77	-35.1	-36.4	28.0	3.02e+01	48	31	0	736100352	44	6363
2026-01-11 04:38:39.45	313.62	8.73	-34.9	-36.2	28.2	3.02e+01	60	31	0	738197504	44	6247
2026-01-11 04:38:40.46	313.79	8.69	-35.0	-36.2	28.2	3.02e+01	60	31	0	739770368	44	6267
2026-01-11 04:38:41.47	313.97	8.64	-35.1	-36.4	28.0	3.02e+01	55	31	0	741867520	44	6396
2026-01-11 04:38:42.48	314.14	8.60	-35.1	-36.3	28.1	3.02e+01	62	31	0	743964672	44	6344
2026-01-11 04:38:43.49	314.31	8.56	-35.2	-36.5	28.0	3.02e+01	45	31	0	745537536	44	6424
2026-01-11 04:38:44.50	314.48	8.52	-35.3	-36.6	27.9	3.02e+01	62	31	0	747634688	44	6557
2026-01-11 04:38:45.51	314.65	8.47	-35.2	-36.6	28.0	3.02e+01	54	31	0	749731840	44	6504
2026-01-11 04:38:46.52	314.82	8.43	-35.2	-36.5	27.9	3.02e+01	46	31	0	751304704	44	6447
2026-01-11 04:38:47.53	314.99	8.39	-35.1	-36.4	28.0	3.02e+01	61	31	0	753401856	44	6359
2026-01-11 04:38:48.54	315.16	8.34	-35.1	-36.4	28.0	3.02e+01	53	31	0	754974720	44	6378
2026-01-11 04:38:49.55	315.33	8.30	-35.0	-36.3	28.1	3.02e+01	56	31	0	757071872	44	6302
2026-01-11 04:38:50.56	315.50	8.26	-35.0	-36.3	28.1	3.02e+01	60	30	0	759169024	44	6328
2026-01-11 04:38:51.57	315.67	8.21	-35.1	-36.3	28.0	3.02e+01	60	31	0	760741888	44	6342
2026-01-11 04:38:52.58	315.83	8.17	-35.1	-36.3	28.1	3.02e+01	61	31	0	762839040	44	6341
2026-01-11 04:38:53.59	316.00	8.13	-35.3	-36.6	27.9	3.02e+01	61	30	0	764411904	44	6507
2026-01-11 04:38:54.60	316.17	8.08	-35.4	-36.8	27.8	3.02e+01	49	31	0	766509056	44	6652
2026-01-11 04:38:55.60	316.33	8.04	-35.4	-36.7	27.7	3.02e+01	55	31	0	768606208	44	6615
2026-01-11 04:38:56.61	316.50	7.99	-35.5	-36.8	27.6	3.02e+01	60	31	0	770179072	44	6682
2026-01-11 04:38:57.62	316.66	7.95	-35.5	-36.8	27.6	3.02e+01	58	31	0	772276224	44	6695
2026-01-11 04:38:58.63	316.82	7.91	-35.4	-36.7	27.6	3.02e+01	55	31	0	773849088	44	6633
2026-01-11 04:38:59.64	316.99	7.86	-35.4	-36.8	27.7	3.02e+01	55	31	0	775946240	44	6650
2026-01-11 04:39:00.65	317.15	7.82	-35.5	-36.8	27.6	3.02e+01	58	31	0	778043392	44	6708
2026-01-11 04:39:01.66	317.31	7.77	-35.3	-36.6	27.8	3.02e+01	57	31	0	779616256	44	6533
2026-01-11 04:39:02.67	317.47	7.73	-35.4	-36.7	27.7	3.02e+01	44	31	0	781713408	44	6619
2026-01-11 04:39:03.68	317.64	7.68	-35.2	-36.5	27.9	3.02e+01	58	31	0	783286272	44	6475
2026-01-11 04:39:04.69	317.80	7.64	-35.3	-36.6	27.7	3.02e+01	60	31	0	785383424	44	6528
2026-01-11 04:39:05.69	317.95	7.59	-35.3	-36.6	27.8	3.02e+01	57	31	0	787480576	44	6571
2026-01-11 04:39:06.70	318.11	7.55	-35.3	-36.7	27.6	3.02e+01	57	31	0	789053440	44	6581
2026-01-11 04:39:07.71	318.27	7.50	-35.4	-36.7	27.7	3.02e+01	56	31	0	791150592	44	6606
2026-01-11 04:39:08.72	318.43	7.46	-35.4	-36.8	27.6	3.02e+01	60	31	0	793247744	44	6660
2026-01-11 04:39:09.73	318.59	7.41	-35.5	-36.9	27.6	3.02e+01	55	31	0	794820608	44	6732
2026-01-11 04:39:10.74	318.75	7.37	-35.5	-36.8	27.5	3.02e+01	38	31	0	796917760	44	6714
2026-01-11 04:39:11.75	318.91	7.32	-35.6	-36.9	27.4	3.02e+01	60	31	0	798490624	44	6780
2026-01-11 04:39:12.76	319.06	7.28	-35.5	-36.9	27.5	3.02e+01	58	31	0	800587776	44	6747
2026-01-11 04:39:13.77	319.22	7.23	-35.5	-36.8	27.6	3.02e+01	58	31	0	802684928	44	6682
2026-01-11 04:39:14.78	319.37	7.19	-35.6	-36.9	27.5	3.02e+01	59	31	0	804257792	44	6757
2026-01-11 04:39:15.79	319.53	7.14	-35.6	-36.9	27.4	3.02e+01	52	31	0	806354944	44	6796
2026-01-11 04:39:16.80	319.68	7.09	-35.6	-36.9	27.4	3.02e+01	57	31	0	807927808	44	6778
2026-01-11 04:39:17.81	319.84	7.05	-35.7	-37.0	27.4	3.02e+01	61	31	0	810024960	44	6865
2026-01-11 04:39:18.82	319.99	7.00	-35.4	-36.8	27.6	3.02e+01	61	31	0	812122112	44	6662
2026-01-11 04:39:19.83	320.14	6.96	-35.6	-36.9	27.5	3.02e+01	57	31	0	813694976	44	6748
2026-01-11 04:39:20.84	320.30	6.91	-35.7	-37.0	27.2	3.02e+01	44	31	0	815792128	44	6867
2026-01-11 04:39:21.85	320.45	6.86	-35.8	-37.2	27.2	3.02e+01	59	31	0	817889280	44	6975
2026-01-11 04:39:22.86	320.60	6.82	-35.9	-37.2	27.2	3.02e+01	59	31	0	819462144	46	6263
2026-01-11 04:39:23.87	320.75	6.77	-35.6	-36.9	27.4	3.02e+01	46	31	0	821559296	46	6029
2026-01-11 04:39:24.88	320.90	6.72	-35.7	-37.0	27.3	3.02e+01	59	31	0	823132160	46	6090
2026-01-11 04:39:25.89	321.05	6.68	-35.5	-36.9	27.4	3.02e+01	56	31	0	825229312	46	6004
2026-01-11 04:39:26.90	321.20	6.63	-35.6	-36.9	27.4	3.02e+01	56	31	0	827326464	46	6050
2026-01-11 04:39:27.90	321.35	6.59	-35.7	-37.0	27.3	3.02e+01	58	31	0	828899328	46	6119
2026-01-11 04:39:28.91	321.50	6.54	-35.7	-37.0	27.3	3.02e+01	54	31	0	830996480	46	6108
2026-01-11 04:39:29.92	321.65	6.49	-35.8	-37.2	27.2	3.02e+01	55	31	0	832569344	46	6207
2026-01-11 04:39:30.93	321.79	6.45	-35.8	-37.1	27.2	3.02e+01	62	31	0	834666496	46	6195
2026-01-11 04:39:31.94	321.94	6.40	-35.8	-37.2	27.1	3.02e+01	49	31	0	836763648	46	6221
2026-01-11 04:39:32.95	322.09	6.35	-35.9	-37.2	27.1	3.02e+01	58	31	0	838336512	46	6268
2026-01-11 04:39:33.96	322.23	6.30	-36.0	-37.3	27.0	3.02e+01	59	31	0	840433664	46	6328
2026-01-11 04:39:34.97	322.38	6.26	-35.9	-37.3	27.0	3.02e+01	59	31	0	842006528	46	6307
2026-01-11 04:39:35.98	322.52	6.21	-35.8	-37.2	27.1	3.02e+01	59	31	0	844103680	46	6208
2026-01-11 04:39:36.99	322.67	6.16	-35.8	-37.1	27.1	3.02e+01	52	31	0	846200832	46	6186
2026-01-11 04:39:38.00	322.81	6.12	-35.9	-37.2	27.0	3.02e+01	59	31	0	847773696	46	6271
2026-01-11 04:39:39.01	322.96	6.07	-35.9	-37.3	27.1	3.02e+01	61	31	0	849870848	46	6279
2026-01-11 04:39:40.02	323.10	6.02	-35.8	-37.2	27.1	3.02e+01	44	31	0	851443712	46	6206
2026-01-11 04:39:41.03	323.24	5.98	-35.9	-37.2	27.1	3.02e+01	61	31	0	853540864	46	6240
2026-01-11 04:39:42.04	323.38	5.93	-35.9	-37.2	27.0	3.02e+01	60	31	0	855638016	46	6263
2026-01-11 04:39:43.04	323.52	5.88	-35.8	-37.2	27.1	3.02e+01	58	31	0	857210880	46	6215
2026-01-11 04:39:44.05	323.66	5.83	-35.9	-37.3	27.0	3.02e+01	57	31	0	859308032	46	6293
2026-01-11 04:39:45.06	323.81	5.79	-35.9	-37.2	27.1	3.02e+01	51	31	0	861405184	46	6252
2026-01-11 04:39:46.07	323.95	5.74	-36.0	-37.4	26.9	3.02e+01	61	31	0	862978048	46	6378
2026-01-11 04:39:47.09	324.09	5.69	-36.1	-37.4	26.8	3.02e+01	58	31	0	865075200	46	6416
2026-01-11 04:39:48.10	324.23	5.64	-36.2	-37.6	26.7	3.02e+01	49	31	0	866648064	46	6559
2026-01-11 04:39:49.10	324.36	5.60	-36.2	-37.6	26.7	3.02e+01	59	31	0	868745216	46	6523
2026-01-11 04:39:50.11	324.50	5.55	-36.1	-37.5	26.7	3.02e+01	46	31	0	870842368	46	6488
2026-01-11 04:39:51.13	324.64	5.50	-36.3	-37.7	26.5	3.02e+01	62	31	0	872415232	46	6633
2026-01-11 04:39:52.14	324.78	5.45	-36.4	-37.8	26.5	3.02e+01	59	31	0	874512384	46	6677
2026-01-11 04:39:53.15	324.91	5.41	-36.4	-37.8	26.5	3.02e+01	52	31	0	876085248	46	6708
2026-01-11 04:39:54.15	325.05	5.36	-36.4	-37.8	26.4	3.02e+01	59	31	0	878182400	46	6677
2026-01-11 04:39:55.16	325.19	5.31	-36.2	-37.6	26.6	3.02e+01	63	31	0	880279552	46	6541
2026-01-11 04:39:56.18	325.32	5.26	-36.4	-37.8	26.5	3.02e+01	56	31	0	881852416	46	6659
2026-01-11 04:39:57.18	325.46	5.21	-36.1	-37.5	26.7	3.02e+01	59	31	0	883949568	46	6443
2026-01-11 04:39:58.19	325.59	5.17	-36.2	-37.6	26.6	3.02e+01	55	31	0	886046720	46	6517
2026-01-11 04:39:59.20	325.72	5.12	-36.2	-37.6	26.6	3.02e+01	55	31	0	887619584	46	6541
2026-01-11 04:40:00.21	325.86	5.07	-36.1	-37.4	26.7	3.02e+01	59	31	0	889716736	46	6423
2026-01-11 04:40:01.22	325.99	5.02	-36.0	-37.4	26.7	3.02e+01	45	31	0	891289600	46	6370
2026-01-11 04:40:02.24	326.12	4.98	-36.1	-37.5	26.6	3.02e+01	60	31	0	893386752	46	6462
2026-01-11 04:40:03.24	326.26	4.93	-36.2	-37.6	26.5	3.02e+01	58	31	0	895483904	46	6552
2026-01-11 04:40:04.25	326.39	4.88	-36.4	-37.8	26.3	3.02e+01	59	31	0	897056768	46	6702
2026-01-11 04:40:05.26	326.52	4.83	-37.0	-47.1	3.4	3.02e+01	30	31	104	899153920	46	19603
2026-01-11 04:40:06.27	326.65	4.78	-37.2	-47.6	3.5	3.02e+01	0	31	104	899153920	48	18374
2026-01-11 04:40:07.28	326.78	4.74	-36.8	-47.2	3.4	3.02e+01	0	31	104	899153920	48	17527
2026-01-11 04:40:08.29	326.91	4.69	-36.8	-47.1	3.6	3.02e+01	0	31	104	899153920	48	17461
2026-01-11 04:40:09.30	327.04	4.64	-37.4	-47.7	3.6	3.02e+01	0	31	104	899153920	50	16640
2026-01-11 04:40:10.31	327.17	4.59	-37.4	-47.8	3.6	3.02e+01	0	31	104	899153920	52	14955
2026-01-11 04:40:11.32	327.30	4.54	-46.5	-62.9	3.5	3.02e+01	0	31	104	899153920	60	53651
2026-01-11 04:40:12.32	327.42	4.50	-41.1	-52.2	3.5	3.02e+01	0	31	104	899153920	60	15601
2026-01-11 04:40:13.34	327.55	4.45	-41.6	-52.8	3.6	3.02e+01	0	31	104	899153920	58	18779
2026-01-11 04:40:14.35	327.68	4.40	-38.6	-49.1	3.6	3.02e+01	0	31	104	899153920	52	17348
2026-01-11 04:40:15.36	327.81	4.35	-38.0	-48.4	3.6	3.02e+01	0	31	104	899153920	52	16040
2026-01-11 04:40:16.36	327.93	4.30	-37.5	-47.9	3.6	3.02e+01	0	31	104	899153920	50	16939
2026-01-11 04:40:17.37	328.06	4.26	-36.9	-47.2	3.4	3.02e+01	0	31	104	899153920	50	15704
2026-01-11 04:40:18.38	328.18	4.21	-38.5	-49.1	3.6	3.02e+01	0	31	104	899153920	50	19475
2026-01-11 04:40:19.39	328.31	4.16	-37.2	-47.5	3.6	3.02e+01	0	31	104	899153920	50	16196
2026-01-11 04:40:20.40	328.43	4.11	-45.6	-60.1	3.5	3.02e+01	0	31	104	899153920	60	39074
2026-01-11 04:40:21.41	328.56	4.06	-37.5	-47.9	3.6	3.02e+01	0	31	104	899153920	52	15182
2026-01-11 04:40:22.42	328.68	4.02	-39.6	-50.3	3.3	3.02e+01	0	31	104	899153920	56	15861
2026-01-11 04:40:23.43	328.80	3.97	-37.1	-47.5	3.4	3.02e+01	0	31	104	899153920	50	16162
2026-01-11 04:40:24.44	328.93	3.92	-37.3	-47.6	4.1	3.02e+01	0	31	104	899153920	50	16490
2026-01-11 04:40:25.45	329.05	3.87	-37.2	-47.5	3.9	3.02e+01	0	31	104	899153920	50	16260
2026-01-11 04:40:26.46	329.17	3.82	-38.0	-48.4	4.0	3.02e+01	0	31	104	899153920	50	18028
2026-01-11 04:40:27.47	329.29	3.77	-40.4	-51.2	4.0	3.02e+01	0	31	104	899153920	54	19806
2026-01-11 04:40:28.48	329.42	3.73	-37.8	-48.4	3.5	3.02e+01	0	31	104	899153920	50	17908
2026-01-11 04:40:29.49	329.54	3.68	-45.2	-61.3	3.5	3.02e+01	0	31	104	899153920	60	44468
2026-01-11 04:40:30.50	329.66	3.63	-38.6	-49.2	3.5	3.02e+01	0	31	104	899153920	54	15631
2026-01-11 04:40:31.50	329.78	3.58	-41.4	-52.7	3.5	3.02e+01	0	31	104	899153920	58	18595
2026-01-11 04:40:32.52	329.90	3.53	-39.7	-50.5	3.5	3.02e+01	0	31	104	899153920	54	18286
2026-01-11 04:40:33.52	330.01	3.49	-39.7	-50.6	3.5	3.02e+01	0	31	104	899153920	54	18358
2026-01-11 04:40:34.53	330.13	3.44	-39.5	-50.4	3.5	3.02e+01	0	31	104	899153920	54	17906
2026-01-11 04:40:35.54	330.25	3.39	-38.9	-49.7	3.5	3.02e+01	0	31	104	899153920	54	16566
2026-01-11 04:40:36.55	330.37	3.34	-40.5	-51.8	3.7	3.02e+01	0	31	104	899153920	52	23610
2026-01-11 04:40:37.56	330.49	3.29	-39.9	-51.2	3.5	3.02e+01	0	31	104	899153920	54	19654
2026-01-11 04:40:38.57	330.60	3.24	-42.8	-57.3	3.5	3.02e+01	0	31	104	899153920	58	31795
2026-01-11 04:40:39.58	330.72	3.20	-40.5	-52.2	3.5	3.02e+01	0	31	104	899153920	58	17559
2026-01-11 04:40:40.59	330.84	3.15	-41.1	-52.7	3.5	3.02e+01	0	31	104	899153920	58	18605
2026-01-11 04:40:41.60	330.95	3.10	-40.9	-52.6	3.5	3.02e+01	0	31	104	899153920	56	20692
2026-01-11 04:40:42.61	331.07	3.05	-41.4	-53.6	3.5	3.02e+01	0	31	104	899153920	56	23094
2026-01-11 04:40:43.62	331.18	3.00	-46.5	-64.4	3.5	3.02e+01	0	31	104	899153920	60	64118
2026-01-11 04:40:44.63	331.30	2.96	-47.4	-65.3	3.5	3.02e+01	0	31	104	899153920	60	70913
2026-01-11 04:40:45.64	331.41	2.91	-47.6	-65.6	3.5	3.02e+01	0	31	104	899153920	60	73463
2026-01-11 04:40:46.65	331.53	2.86	-48.0	-65.9	3.5	3.02e+01	0	31	104	899153920	60	75527
2026-01-11 04:40:47.65	331.64	2.81	-47.9	-66.0	3.5	3.02e+01	0	31	104	899153920	60	76629
2026-01-11 04:40:48.66	331.75	2.76	-48.0	-66.1	3.5	3.02e+01	0	31	104	899153920	60	77978
2026-01-11 04:40:49.67	331.87	2.72	-48.2	-66.2	3.5	3.02e+01	0	31	104	899153920	60	78395
2026-01-11 04:40:50.68	331.98	2.67	-48.3	-66.2	3.5	3.02e+01	0	31	104	899153920	60	78225
2026-01-11 04:40:51.69	332.09	2.62	-48.2	-66.2	3.5	3.02e+01	0	31	104	899153920	60	78715
2026-01-11 04:40:52.70	332.20	2.57	-47.9	-66.2	3.5	3.02e+01	0	31	104	899153920	60	78413
2026-01-11 04:40:53.71	332.31	2.52	-48.2	-66.2	3.5	3.02e+01	0	31	104	899153920	60	78392
2026-01-11 04:40:54.72	332.42	2.48	-48.1	-66.1	3.5	3.02e+01	0	31	104	899153920	60	78067
2026-01-11 04:40:55.73	332.53	2.43	-48.0	-66.1	3.5	3.02e+01	0	31	104	899153920	60	77569
2026-01-11 04:40:56.74	332.64	2.38	-47.8	-66.1	3.5	3.02e+01	0	31	104	899153920	60	77516
2026-01-11 04:40:57.75	332.75	2.33	-48.2	-66.0	3.5	3.02e+01	0	31	104	899153920	60	76980
2026-01-11 04:40:58.76	332.86	2.28	-47.6	-66.1	3.5	3.02e+01	0	31	104	899153920	60	77817
2026-01-11 04:40:59.77	332.97	2.24	-48.3	-66.1	3.5	3.02e+01	0	31	104	899153920	60	77745
2026-01-11 04:41:00.78	333.08	2.19	-48.2	-66.1	3.5	3.02e+01	0	31	104	899153920	60	77824
2026-01-11 04:41:01.79	333.19	2.14	-48.2	-66.1	3.5	3.02e+01	0	31	104	899153920	60	77908
2026-01-11 04:41:02.80	333.30	2.09	-48.2	-66.1	3.5	3.02e+01	0	31	104	899153920	60	77885
2026-01-11 04:41:03.81	333.41	2.04	-48.2	-66.1	3.5	3.02e+01	0	31	104	899153920	60	78104
2026-01-11 04:41:04.82	333.51	2.00	-48.2	-66.1	3.5	3.02e+01	0	31	104	899153920	60	77537
2026-01-11 04:41:05.83	333.62	1.95	-48.2	-66.1	3.5	3.02e+01	0	31	104	899153920	60	77663
2026-01-11 04:41:06.84	333.73	1.90	-48.2	-66.1	3.5	3.02e+01	0	31	104	899153920	60	77614
2026-01-11 04:41:07.84	333.83	1.85	-48.2	-66.1	3.5	3.02e+01	0	31	104	899153920	60	77924
2026-01-11 04:41:08.85	333.94	1.81	-48.3	-66.2	3.5	3.02e+01	0	31	104	899153920	60	78927
2026-01-11 04:41:09.86	334.04	1.76	-48.2	-66.2	3.5	3.02e+01	0	31	104	899153920	60	78689
2026-01-11 04:41:10.87	334.15	1.71	-48.3	-66.2	3.5	3.02e+01	0	31	104	899153920	60	78465
2026-01-11 04:41:11.88	334.25	1.66	-48.3	-66.3	3.5	3.02e+01	0	31	104	899153920	60	79250
2026-01-11 04:41:12.89	334.36	1.61	-48.2	-66.1	3.5	3.02e+01	0	31	104	899153920	60	78071
2026-01-11 04:41:13.90	334.46	1.57	-48.2	-66.1	3.5	3.02e+01	0	31	104	899153920	60	77867
2026-01-11 04:41:14.91	334.56	1.52	-48.2	-66.2	3.5	3.02e+01	0	31	104	899153920	60	78146
2026-01-11 04:41:15.92	334.67	1.47	-48.3	-66.2	3.5	3.02e+01	0	31	104	899153920	60	79024
2026-01-11 04:41:16.93	334.77	1.42	-48.2	-66.1	3.5	3.02e+01	0	31	104	899153920	60	77530
2026-01-11 04:41:17.94	334.87	1.38	-48.1	-66.0	3.5	3.02e+01	0	31	104	899153920	60	76959
2026-01-11 04:41:18.95	334.98	1.33	-48.2	-66.1	3.5	3.02e+01	0	31	104	899153920	60	77458
2026-01-11 04:41:19.96	335.08	1.28	-48.2	-66.1	3.5	3.02e+01	0	31	104	899153920	60	78063
2026-01-11 04:41:20.97	335.18	1.23	-48.2	-66.1	3.5	3.02e+01	0	31	104	899153920	60	77940
2026-01-11 04:41:21.98	335.28	1.19	-48.2	-66.1	3.5	3.02e+01	0	31	104	899153920	60	77829
2026-01-11 04:41:22.99	335.38	1.14	-48.2	-66.2	3.5	3.02e+01	0	31	104	899153920	60	78304
2026-01-11 04:41:24.00	335.48	1.09	-48.2	-66.1	3.5	3.02e+01	0	31	104	899153920	60	77410
2026-01-11 04:41:25.01	335.58	1.04	-48.1	-66.0	3.5	3.02e+01	0	31	104	899153920	60	77142
2026-01-11 04:41:26.02	335.68	1.00	-48.1	-66.0	3.5	3.02e+01	0	31	104	899153920	60	77040
2026-01-11 04:41:27.03	335.78	0.95	-48.1	-66.0	3.5	3.02e+01	0	31	104	899153920	60	76643
2026-01-11 04:41:28.04	335.88	0.90	-48.1	-66.0	3.5	3.02e+01	0	31	104	899153920	60	76913
2026-01-11 04:41:29.05	335.98	0.85	-48.1	-66.0	3.5	3.02e+01	0	31	104	899153920	60	77134
2026-01-11 04:41:30.06	336.08	0.81	-48.1	-66.0	3.5	3.02e+01	0	31	104	899153920	60	76984
2026-01-11 04:41:31.07	336.18	0.76	-48.1	-66.0	3.5	3.02e+01	0	31	104	899153920	60	76823
2026-01-11 04:41:32.08	336.27	0.71	-48.1	-66.0	3.5	3.02e+01	0	31	104	899153920	60	77140
2026-01-11 04:41:33.09	336.37	0.66	-48.2	-66.1	3.5	3.02e+01	0	31	104	899153920	60	77964
2026-01-11 04:41:34.10	336.47	0.62	-48.1	-66.1	3.5	3.02e+01	0	31	104	899153920	60	77545
2026-01-11 04:41:35.11	336.57	0.57	-48.2	-66.1	3.5	3.02e+01	0	31	104	899153920	60	77242
2026-01-11 04:41:36.12	336.66	0.52	-48.1	-66.1	3.5	3.02e+01	0	31	104	899153920	60	77307
2026-01-11 04:41:37.13	336.76	0.47	-48.1	-66.0	3.5	3.02e+01	0	31	104	899153920	60	76884
2026-01-11 04:41:38.13	336.85	0.43	-48.1	-66.1	3.5	3.02e+01	0	31	104	899153920	60	77394
2026-01-11 04:41:39.14	336.95	0.38	-48.2	-66.1	3.5	3.02e+01	0	31	104	899153920	60	77598
2026-01-11 04:41:40.15	337.05	0.33	-48.2	-66.2	3.5	3.02e+01	0	31	104	899153920	60	78240
2026-01-11 04:41:41.16	337.14	0.29	-48.1	-66.0	3.5	3.02e+01	0	31	104	899153920	60	76978
2026-01-11 04:41:42.17	337.24	0.24	-48.2	-66.2	3.5	3.02e+01	0	31	104	899153920	60	78134
2026-01-11 04:41:43.18	337.33	0.19	-48.1	-66.0	3.5	3.02e+01	0	31	104	899153920	60	76424
2026-01-11 04:41:44.19	337.42	0.14	-48.0	-66.0	3.5	3.02e+01	0	31	104	899153920	60	76529
2026-01-11 04:41:45.20	337.52	0.10	-48.1	-66.0	3.5	3.02e+01	0	31	104	899153920	60	76804
2026-01-11 04:41:46.21	337.61	0.05	-48.1	-66.1	3.5	3.02e+01	0	31	104	899153920	60	77342
2026-01-11 04:41:47.22	337.70	0.00	-48.2	-66.1	3.5	3.02e+01	0	31	104	899153920	60	77726
2026-01-11 04:41:48.23	337.80	-0.04	-48.2	-66.1	3.5	3.02e+01	0	31	104	899153920	60	77669
2026-01-11 04:41:49.24	337.89	-0.09	-48.1	-66.0	3.5	3.02e+01	0	31	104	899153920	60	77096

#Closed at: 2026-01-11 04:41:49
#Recorded file [899 MB]: D:/lorett/data/35029_260111_163033.dat