passes_logs/2026/01/11/R4.6S_Anadyr/R4.6S_Anadyr__20260111_201915_FENGYUN_3D_rec.log

#Pass ID: 20260111_201915_FENGYUN 3D
#Satellite: FENGYUN 3D
#Configuration: FENGYUN 3D
#almurnet v.1.7.20251203
#Start time: 2026-01-11 20:19:16

#Version: 2.2.20231116
#Station: R4.6S_Anadyr
#Location: 177.4865 lon 64.73178 lat
#TLE: 1 43010U 17072A   26011.62066612  .00000104  00000+0  70810-4 0  9998
#TLE: 2 43010  98.9935 343.3846 0002223 114.2890 245.8518 14.19694405422776

#Time	Az	El	Level	Level2	SNR	BER	BlckErr	Temp	State	Recorded	gain1	gain2
2026-01-11 20:19:16.70	39.48	0.05	-48.1	-63.1	3.5	1.51e+00	0	25	0	0	60	51394
2026-01-11 20:19:17.70	39.41	0.10	-48.3	-60.4	3.6	8.44e-01	0	26	104	0	60	38002
2026-01-11 20:19:18.71	39.34	0.15	-48.1	-60.4	3.6	8.46e-01	0	26	104	0	60	37842
2026-01-11 20:19:19.72	39.27	0.20	-48.3	-60.4	3.6	8.44e-01	0	26	104	0	60	37882
2026-01-11 20:19:20.73	39.20	0.25	-48.3	-60.4	3.6	8.45e-01	0	26	104	0	60	37860
2026-01-11 20:19:21.74	39.13	0.30	-48.3	-60.3	3.6	8.45e-01	0	26	104	0	60	37585
2026-01-11 20:19:22.75	39.06	0.36	-48.3	-60.4	3.6	8.45e-01	0	26	104	0	60	37736
2026-01-11 20:19:23.76	38.99	0.41	-48.2	-60.4	3.6	8.45e-01	0	26	104	0	60	37635
2026-01-11 20:19:24.77	38.92	0.46	-48.1	-60.3	3.6	8.46e-01	0	26	104	0	60	37212
2026-01-11 20:19:25.78	38.85	0.51	-48.0	-60.2	3.6	8.46e-01	0	26	104	0	60	36942
2026-01-11 20:19:26.79	38.78	0.56	-48.0	-60.2	3.6	8.44e-01	0	26	104	0	60	36858
2026-01-11 20:19:27.80	38.71	0.61	-47.9	-60.1	3.6	8.44e-01	0	26	104	0	60	36512
2026-01-11 20:19:28.81	38.64	0.66	-47.8	-60.0	3.6	8.45e-01	0	26	104	0	60	35948
2026-01-11 20:19:29.82	38.57	0.72	-47.7	-59.8	3.6	8.45e-01	0	26	104	0	60	35394
2026-01-11 20:19:30.83	38.49	0.77	-47.4	-59.5	3.6	8.45e-01	0	26	104	0	60	34222
2026-01-11 20:19:31.84	38.42	0.82	-47.1	-59.2	3.6	8.43e-01	0	26	104	0	60	32878
2026-01-11 20:19:32.85	38.35	0.87	-46.5	-58.6	3.6	8.45e-01	0	26	104	0	60	30690
2026-01-11 20:19:33.86	38.28	0.92	-46.4	-58.5	3.6	8.45e-01	0	26	104	0	60	30545
2026-01-11 20:19:34.87	38.20	0.98	-46.5	-58.6	3.6	8.45e-01	0	26	104	0	60	30665
2026-01-11 20:19:35.88	38.13	1.03	-46.5	-58.5	3.6	8.46e-01	0	26	104	0	60	30546
2026-01-11 20:19:36.89	38.05	1.08	-46.4	-58.5	3.5	8.44e-01	0	26	104	0	60	30417
2026-01-11 20:19:37.90	37.98	1.13	-46.4	-58.5	3.6	8.45e-01	0	26	104	0	60	30425
2026-01-11 20:19:38.91	37.91	1.18	-46.4	-58.5	3.6	8.44e-01	0	26	104	0	60	30407
2026-01-11 20:19:39.92	37.83	1.24	-46.4	-58.5	3.6	8.45e-01	0	26	104	0	60	30339
2026-01-11 20:19:40.93	37.76	1.29	-46.4	-58.5	3.6	8.45e-01	0	26	104	0	60	30447
2026-01-11 20:19:41.94	37.68	1.34	-46.4	-58.5	3.6	8.46e-01	0	26	104	0	60	30398
2026-01-11 20:19:42.95	37.61	1.39	-46.4	-58.5	3.6	8.45e-01	0	26	104	0	60	30410
2026-01-11 20:19:43.96	37.53	1.45	-46.4	-58.4	3.6	8.46e-01	0	26	104	0	60	30064
2026-01-11 20:19:44.97	37.45	1.50	-46.4	-58.4	3.6	8.46e-01	0	26	104	0	60	30059
2026-01-11 20:19:45.98	37.38	1.55	-46.4	-58.4	3.6	8.46e-01	0	26	104	0	60	30175
2026-01-11 20:19:46.99	37.30	1.60	-46.4	-58.4	3.6	8.46e-01	0	26	104	0	60	30013
2026-01-11 20:19:48.00	37.22	1.66	-46.4	-58.5	3.6	8.45e-01	0	26	104	0	60	30269
2026-01-11 20:19:49.01	37.15	1.71	-46.4	-58.5	3.6	8.45e-01	0	26	104	0	60	30376
2026-01-11 20:19:50.02	37.07	1.76	-46.4	-58.5	3.6	8.46e-01	0	26	104	0	60	30283
2026-01-11 20:19:51.03	36.99	1.81	-46.4	-58.4	3.6	8.46e-01	0	26	104	0	60	30167
2026-01-11 20:19:52.03	36.91	1.87	-46.4	-58.4	3.6	8.46e-01	0	26	104	0	60	29956
2026-01-11 20:19:53.04	36.84	1.92	-46.3	-58.1	3.6	8.45e-01	0	26	104	0	60	29212
2026-01-11 20:19:54.05	36.76	1.97	-46.3	-58.0	3.6	8.46e-01	0	26	104	0	60	28692
2026-01-11 20:19:55.06	36.68	2.02	-46.3	-57.9	3.6	8.44e-01	0	26	104	0	60	28225
2026-01-11 20:19:56.07	36.60	2.08	-46.3	-57.7	3.6	8.44e-01	0	26	104	0	60	27603
2026-01-11 20:19:57.08	36.52	2.13	-46.3	-57.8	3.6	8.44e-01	0	26	104	0	60	28198
2026-01-11 20:19:58.09	36.44	2.18	-46.3	-58.3	3.6	8.46e-01	0	26	104	0	60	29615
2026-01-11 20:19:59.10	36.36	2.24	-46.4	-58.5	3.6	8.44e-01	0	27	104	0	60	30255
2026-01-11 20:20:00.11	36.28	2.29	-46.4	-58.4	3.6	8.45e-01	0	26	104	0	60	29981
2026-01-11 20:20:01.12	36.20	2.34	-46.3	-58.3	3.6	8.45e-01	0	27	104	0	60	29608
2026-01-11 20:20:02.13	36.12	2.40	-46.3	-58.3	3.6	8.45e-01	0	26	104	0	60	29579
2026-01-11 20:20:03.14	36.04	2.45	-46.3	-58.4	3.6	8.45e-01	0	26	104	0	60	30234
2026-01-11 20:20:04.15	35.95	2.50	-46.3	-58.4	3.6	8.45e-01	0	26	104	0	60	29984
2026-01-11 20:20:05.17	35.87	2.56	-46.3	-57.7	3.6	8.46e-01	0	26	104	0	60	27675
2026-01-11 20:20:06.18	35.79	2.61	-46.2	-56.7	3.6	8.46e-01	0	26	104	0	60	24646
2026-01-11 20:20:07.19	35.71	2.66	-46.2	-56.3	3.6	8.44e-01	0	26	104	0	60	23664
2026-01-11 20:20:08.20	35.62	2.72	-46.3	-57.3	3.6	8.45e-01	0	26	104	0	60	26500
2026-01-11 20:20:09.21	35.54	2.77	-46.3	-58.0	3.6	8.45e-01	0	26	104	0	60	28691
2026-01-11 20:20:10.22	35.46	2.82	-46.0	-55.0	3.7	8.45e-01	0	26	104	0	60	20309
2026-01-11 20:20:11.23	35.37	2.88	-45.1	-50.6	6.7	3.80e-01	0	26	104	0	60	12230
2026-01-11 20:20:12.23	35.29	2.93	-43.9	-47.2	9.8	4.60e-02	0	26	0	4194304	60	8294
2026-01-11 20:20:13.25	35.21	2.98	-42.9	-45.5	11.9	1.18e-03	0	27	0	9437184	60	6846
2026-01-11 20:20:14.26	35.12	3.04	-41.8	-43.8	13.4	1.60e-05	0	27	0	15728640	56	7082
2026-01-11 20:20:15.27	35.04	3.09	-41.9	-43.9	13.6	4.50e-06	0	27	0	20971520	54	8025
2026-01-11 20:20:16.28	34.95	3.15	-38.2	-39.4	18.4	0.00e+00	0	26	0	27262976	50	5971
2026-01-11 20:20:17.28	34.86	3.20	-46.2	-57.5	3.6	8.83e-01	0	26	104	30408704	60	27176
2026-01-11 20:20:18.30	34.78	3.25	-46.0	-53.7	4.9	8.32e-01	0	26	104	30408704	60	17439
2026-01-11 20:20:19.30	34.69	3.31	-39.7	-41.1	16.4	0.00e+00	0	26	0	32505856	50	7298
2026-01-11 20:20:20.31	34.61	3.36	-37.2	-38.2	19.2	0.00e+00	0	26	0	37748736	48	5867
2026-01-11 20:20:21.32	34.52	3.42	-37.4	-38.5	19.0	0.00e+00	0	26	0	44040192	48	6048
2026-01-11 20:20:22.33	34.43	3.47	-36.6	-37.5	20.3	0.00e+00	0	26	0	49283072	46	6076
2026-01-11 20:20:23.34	34.34	3.52	-35.8	-36.7	20.9	0.00e+00	0	26	0	55574528	44	6228
2026-01-11 20:20:24.35	34.25	3.58	-35.7	-36.5	21.1	0.00e+00	0	26	0	60817408	44	6103
2026-01-11 20:20:25.36	34.17	3.63	-35.7	-36.6	21.1	0.00e+00	0	26	0	67108864	44	6138
2026-01-11 20:20:26.37	34.08	3.69	-35.5	-36.3	21.3	0.00e+00	0	27	0	72351744	44	5954
2026-01-11 20:20:27.38	33.99	3.74	-35.6	-36.5	21.2	0.00e+00	0	27	0	77594624	44	6076
2026-01-11 20:20:28.39	33.90	3.79	-35.5	-36.3	21.4	0.00e+00	0	26	0	83886080	44	5942
2026-01-11 20:20:29.40	33.81	3.85	-35.1	-35.9	21.8	0.00e+00	0	26	0	89128960	44	5672
2026-01-11 20:20:30.41	33.72	3.90	-35.4	-36.2	21.5	0.00e+00	0	26	0	94371840	44	5871
2026-01-11 20:20:31.42	33.63	3.96	-35.6	-36.4	21.3	0.00e+00	0	26	0	100663296	44	6024
2026-01-11 20:20:32.43	33.54	4.01	-35.4	-36.3	21.5	0.00e+00	0	26	0	105906176	44	5919
2026-01-11 20:20:33.44	33.45	4.07	-35.4	-36.2	21.5	0.00e+00	0	27	0	112197632	44	5882
2026-01-11 20:20:34.45	33.35	4.12	-35.2	-36.1	21.7	0.00e+00	0	27	0	117440512	44	5767
2026-01-11 20:20:35.46	33.26	4.18	-35.4	-36.2	21.5	0.00e+00	0	26	0	122683392	44	5855
2026-01-11 20:20:36.47	33.17	4.23	-35.5	-36.4	21.5	0.00e+00	0	27	0	128974848	44	5986
2026-01-11 20:20:37.48	33.08	4.29	-35.3	-36.1	21.7	0.00e+00	0	27	0	134217728	44	5823
2026-01-11 20:20:38.49	32.98	4.34	-35.2	-36.0	21.7	0.00e+00	0	26	0	140509184	44	5754
2026-01-11 20:20:39.50	32.89	4.40	-35.2	-36.0	21.7	0.00e+00	0	27	0	145752064	44	5746
2026-01-11 20:20:40.51	32.80	4.45	-35.2	-36.0	21.7	0.00e+00	0	27	0	152043520	44	5744
2026-01-11 20:20:41.52	32.70	4.51	-35.2	-36.0	21.7	0.00e+00	0	27	0	157286400	44	5726
2026-01-11 20:20:42.53	32.61	4.56	-35.2	-36.0	21.8	0.00e+00	0	27	0	163577856	44	5728
2026-01-11 20:20:43.54	32.51	4.62	-35.1	-35.9	21.9	0.00e+00	0	27	0	168820736	44	5687
2026-01-11 20:20:44.55	32.42	4.67	-34.9	-35.7	22.1	0.00e+00	0	27	0	174063616	44	5549
2026-01-11 20:20:45.56	32.32	4.73	-35.0	-35.8	22.0	0.00e+00	0	27	0	180355072	44	5581
2026-01-11 20:20:46.57	32.23	4.78	-35.0	-35.8	22.0	0.00e+00	0	27	0	185597952	44	5612
2026-01-11 20:20:47.58	32.13	4.84	-34.9	-35.7	22.1	0.00e+00	0	27	0	191889408	44	5539
2026-01-11 20:20:48.59	32.03	4.89	-35.0	-35.9	22.0	0.00e+00	0	26	0	197132288	44	5640
2026-01-11 20:20:49.60	31.94	4.95	-34.9	-35.7	22.1	0.00e+00	0	26	0	202375168	44	5515
2026-01-11 20:20:50.60	31.84	5.00	-34.9	-35.7	22.2	0.00e+00	0	27	0	208666624	44	5554
2026-01-11 20:20:51.61	31.74	5.06	-35.1	-35.9	22.1	0.00e+00	0	27	0	213909504	42	6335
2026-01-11 20:20:52.62	31.64	5.11	-34.8	-35.6	22.3	0.00e+00	0	27	0	220200960	42	6167
2026-01-11 20:20:53.63	31.55	5.17	-34.9	-35.7	22.3	0.00e+00	0	27	0	225443840	42	6196
2026-01-11 20:20:54.64	31.45	5.22	-34.9	-35.7	22.2	0.00e+00	0	27	0	230686720	42	6199
2026-01-11 20:20:55.65	31.35	5.28	-35.1	-35.8	22.1	0.00e+00	0	27	0	236978176	42	6311
2026-01-11 20:20:56.66	31.25	5.33	-34.9	-35.7	22.2	0.00e+00	0	26	0	242221056	42	6219
2026-01-11 20:20:57.67	31.15	5.39	-34.9	-35.7	22.2	0.00e+00	0	27	0	248512512	42	6220
2026-01-11 20:20:58.68	31.05	5.44	-35.0	-35.8	22.2	0.00e+00	0	27	0	253755392	42	6262
2026-01-11 20:20:59.69	30.95	5.50	-35.0	-35.8	22.1	0.00e+00	0	26	0	260046848	42	6306
2026-01-11 20:21:00.70	30.84	5.55	-35.0	-35.7	22.2	0.00e+00	0	27	0	265289728	42	6229
2026-01-11 20:21:01.71	30.74	5.61	-35.2	-36.1	22.1	0.00e+00	0	27	0	271581184	42	6467
2026-01-11 20:21:02.72	30.64	5.67	-35.1	-35.9	22.2	0.00e+00	0	27	0	276824064	42	6356
2026-01-11 20:21:03.73	30.54	5.72	-35.1	-35.9	22.0	0.00e+00	0	27	0	282066944	42	6387
2026-01-11 20:21:04.74	30.43	5.78	-35.0	-35.8	22.1	0.00e+00	0	26	0	288358400	42	6279
2026-01-11 20:21:05.75	30.33	5.83	-35.2	-36.0	21.9	0.00e+00	0	26	0	293601280	42	6463
2026-01-11 20:21:06.76	30.23	5.89	-34.6	-35.4	22.6	0.00e+00	0	26	0	298844160	42	5991
2026-01-11 20:21:07.76	30.12	5.94	-34.7	-35.4	22.5	0.00e+00	0	26	0	305135616	42	6032
2026-01-11 20:21:08.78	30.02	6.00	-34.6	-35.4	22.6	0.00e+00	0	26	0	310378496	42	5994
2026-01-11 20:21:09.79	29.91	6.06	-34.7	-35.5	22.5	0.00e+00	0	26	0	316669952	42	6083
2026-01-11 20:21:10.80	29.81	6.11	-34.5	-35.2	22.8	0.00e+00	0	27	0	321912832	42	5888
2026-01-11 20:21:11.80	29.70	6.17	-34.6	-35.3	22.8	0.00e+00	0	27	0	327155712	42	5954
2026-01-11 20:21:12.81	29.60	6.22	-34.4	-35.2	22.8	0.00e+00	0	27	0	333447168	42	5835
2026-01-11 20:21:13.82	29.49	6.28	-34.5	-35.3	22.8	0.00e+00	0	26	0	338690048	42	5906
2026-01-11 20:21:14.83	29.38	6.34	-34.4	-35.2	22.9	0.00e+00	0	27	0	344981504	42	5863
2026-01-11 20:21:15.84	29.28	6.39	-34.4	-35.1	22.8	0.00e+00	0	27	0	350224384	42	5818
2026-01-11 20:21:16.85	29.17	6.45	-34.2	-35.0	23.1	0.00e+00	0	27	0	356515840	42	5703
2026-01-11 20:21:17.86	29.06	6.50	-34.2	-34.9	23.1	0.00e+00	0	27	0	361758720	42	5691
2026-01-11 20:21:18.87	28.95	6.56	-34.2	-34.9	23.1	0.00e+00	0	27	0	368050176	42	5659
2026-01-11 20:21:19.88	28.84	6.62	-34.1	-34.9	23.2	0.00e+00	0	27	0	373293056	42	5663
2026-01-11 20:21:20.89	28.73	6.67	-34.1	-34.8	23.2	0.00e+00	0	27	0	378535936	42	5584
2026-01-11 20:21:21.90	28.62	6.73	-34.1	-34.8	23.2	0.00e+00	0	27	0	384827392	42	5611
2026-01-11 20:21:22.92	28.51	6.78	-34.1	-34.9	23.3	0.00e+00	0	26	0	390070272	42	5632
2026-01-11 20:21:23.93	28.40	6.84	-34.2	-34.9	23.3	0.00e+00	0	27	0	396361728	42	5691
2026-01-11 20:21:24.94	28.29	6.90	-34.1	-34.8	23.3	0.00e+00	0	27	0	401604608	42	5600
2026-01-11 20:21:25.95	28.17	6.95	-34.0	-34.7	23.4	0.00e+00	0	27	0	406847488	42	5537
2026-01-11 20:21:26.96	28.06	7.01	-33.9	-34.6	23.4	0.00e+00	0	27	0	413138944	42	5478
2026-01-11 20:21:27.97	27.95	7.07	-34.0	-34.7	23.4	0.00e+00	0	27	0	418381824	42	5515
2026-01-11 20:21:28.97	27.84	7.12	-34.1	-34.8	23.2	0.00e+00	0	27	0	424673280	42	5604
2026-01-11 20:21:29.98	27.72	7.18	-34.2	-35.0	23.2	0.00e+00	0	27	0	429916160	42	5706
2026-01-11 20:21:30.99	27.61	7.23	-34.1	-34.8	23.4	0.00e+00	0	27	0	435159040	42	5606
2026-01-11 20:21:32.00	27.49	7.29	-34.0	-34.7	23.4	0.00e+00	0	27	0	441450496	42	5563
2026-01-11 20:21:33.01	27.38	7.35	-34.1	-34.9	23.2	0.00e+00	0	27	0	446693376	42	5658
2026-01-11 20:21:34.02	27.26	7.40	-34.1	-34.9	23.3	0.00e+00	0	27	0	452984832	42	5631
2026-01-11 20:21:35.03	27.15	7.46	-34.0	-34.8	23.4	0.00e+00	0	27	0	458227712	42	5600
2026-01-11 20:21:36.04	27.03	7.52	-34.2	-35.0	23.2	0.00e+00	0	27	0	464519168	42	5711
2026-01-11 20:21:37.05	26.91	7.57	-34.0	-34.7	23.5	0.00e+00	0	27	0	469762048	42	5521
2026-01-11 20:21:38.06	26.80	7.63	-33.8	-34.6	23.5	0.00e+00	0	27	0	475004928	42	5474
2026-01-11 20:21:39.07	26.68	7.68	-33.9	-34.6	23.5	0.00e+00	0	27	0	481296384	42	5493
2026-01-11 20:21:40.07	26.56	7.74	-33.9	-34.6	23.5	0.00e+00	0	27	0	486539264	42	5479
2026-01-11 20:21:41.08	26.44	7.80	-33.9	-34.6	23.5	0.00e+00	0	27	0	492830720	42	5487
2026-01-11 20:21:42.09	26.32	7.85	-33.9	-34.6	23.5	0.00e+00	0	27	0	498073600	42	5481
2026-01-11 20:21:43.10	26.20	7.91	-33.8	-34.6	23.6	0.00e+00	0	27	0	503316480	42	5461
2026-01-11 20:21:44.11	26.08	7.97	-33.8	-34.5	23.6	0.00e+00	0	27	0	509607936	40	6075
2026-01-11 20:21:45.12	25.96	8.02	-33.8	-34.5	23.6	0.00e+00	0	27	0	514850816	40	6096
2026-01-11 20:21:46.13	25.84	8.08	-33.8	-34.6	23.6	0.00e+00	0	27	0	521142272	40	6119
2026-01-11 20:21:47.14	25.72	8.14	-33.8	-34.5	23.6	0.00e+00	0	27	0	526385152	40	6102
2026-01-11 20:21:48.15	25.60	8.19	-33.9	-34.7	23.6	0.00e+00	0	27	0	531628032	40	6212
2026-01-11 20:21:49.16	25.47	8.25	-33.8	-34.5	23.6	0.00e+00	0	27	0	537919488	40	6085
2026-01-11 20:21:50.17	25.35	8.30	-33.8	-34.6	23.6	0.00e+00	0	27	0	543162368	40	6129
2026-01-11 20:21:51.18	25.23	8.36	-34.0	-34.7	23.4	0.00e+00	0	27	0	549453824	40	6227
2026-01-11 20:21:52.19	25.10	8.42	-33.8	-34.6	23.6	0.00e+00	0	27	0	554696704	40	6129
2026-01-11 20:21:53.20	24.98	8.47	-33.8	-34.6	23.6	0.00e+00	0	27	0	560988160	40	6123
2026-01-11 20:21:54.21	24.85	8.53	-33.6	-34.3	23.8	0.00e+00	0	27	0	566231040	40	5915
2026-01-11 20:21:55.22	24.73	8.59	-33.6	-34.3	23.9	0.00e+00	0	27	0	572522496	40	5937
2026-01-11 20:21:56.23	24.60	8.64	-33.3	-34.0	24.2	0.00e+00	0	27	0	577765376	40	5728
2026-01-11 20:21:57.24	24.48	8.70	-33.3	-34.0	24.1	0.00e+00	0	27	0	583008256	40	5742
2026-01-11 20:21:58.25	24.35	8.76	-33.3	-34.0	24.2	0.00e+00	0	27	0	589299712	40	5736
2026-01-11 20:21:59.26	24.22	8.81	-33.2	-33.9	24.2	0.00e+00	0	27	0	594542592	40	5694
2026-01-11 20:22:00.27	24.09	8.87	-33.3	-34.0	24.2	0.00e+00	0	27	0	600834048	40	5732
2026-01-11 20:22:01.27	23.97	8.92	-33.2	-33.9	24.2	0.00e+00	0	27	0	606076928	40	5665
2026-01-11 20:22:02.28	23.84	8.98	-33.1	-33.8	24.4	0.00e+00	0	27	0	611319808	40	5609
2026-01-11 20:22:03.29	23.71	9.04	-33.2	-33.9	24.3	0.00e+00	0	27	0	617611264	40	5667
2026-01-11 20:22:04.30	23.58	9.09	-33.2	-33.9	24.3	0.00e+00	0	27	0	622854144	40	5667
2026-01-11 20:22:05.31	23.45	9.15	-33.1	-33.8	24.4	0.00e+00	0	27	0	628097024	40	5580
2026-01-11 20:22:06.32	23.31	9.21	-33.0	-33.7	24.4	0.00e+00	0	27	0	634388480	40	5559
2026-01-11 20:22:07.33	23.18	9.26	-33.0	-33.7	24.3	0.00e+00	0	27	0	639631360	40	5538
2026-01-11 20:22:08.34	23.05	9.32	-33.0	-33.7	24.4	0.00e+00	0	27	0	645922816	40	5543
2026-01-11 20:22:09.35	22.92	9.38	-33.1	-33.8	24.3	0.00e+00	0	27	0	651165696	40	5597
2026-01-11 20:22:10.36	22.78	9.43	-33.1	-33.8	24.4	0.00e+00	0	27	0	657457152	40	5574
2026-01-11 20:22:11.37	22.65	9.49	-33.1	-33.8	24.3	0.00e+00	0	27	0	662700032	40	5594
2026-01-11 20:22:12.38	22.52	9.54	-33.2	-33.9	24.3	0.00e+00	0	27	0	668991488	40	5665
2026-01-11 20:22:13.39	22.38	9.60	-33.3	-34.0	24.1	0.00e+00	0	27	0	674234368	40	5718
2026-01-11 20:22:14.40	22.24	9.66	-33.3	-34.0	24.2	0.00e+00	0	27	0	679477248	40	5724
2026-01-11 20:22:15.41	22.11	9.71	-33.3	-34.1	24.2	0.00e+00	0	27	0	685768704	40	5772
2026-01-11 20:22:16.42	21.97	9.77	-33.3	-34.0	24.3	0.00e+00	0	27	0	691011584	40	5719
2026-01-11 20:22:17.43	21.84	9.82	-33.2	-33.9	24.3	0.00e+00	0	27	0	697303040	40	5665
2026-01-11 20:22:18.44	21.70	9.88	-33.3	-34.0	24.2	0.00e+00	0	27	0	702545920	40	5753
2026-01-11 20:22:19.45	21.56	9.94	-33.4	-34.1	24.1	0.00e+00	0	27	0	707788800	40	5807
2026-01-11 20:22:20.46	21.42	9.99	-33.3	-34.1	24.2	0.00e+00	0	27	0	714080256	40	5773
2026-01-11 20:22:21.47	21.28	10.05	-33.4	-34.1	24.1	0.00e+00	0	27	0	719323136	40	5783
2026-01-11 20:22:22.48	21.14	10.10	-33.3	-34.0	24.2	0.00e+00	0	27	0	725614592	40	5730
2026-01-11 20:22:23.49	21.00	10.16	-33.4	-34.2	24.1	0.00e+00	0	27	0	730857472	40	5832
2026-01-11 20:22:24.50	20.86	10.22	-33.1	-33.8	24.4	0.00e+00	0	27	0	736100352	40	5618
2026-01-11 20:22:25.51	20.72	10.27	-33.1	-33.8	24.5	0.00e+00	0	27	0	742391808	40	5588
2026-01-11 20:22:26.52	20.58	10.33	-33.2	-33.9	24.4	0.00e+00	0	27	0	747634688	40	5631
2026-01-11 20:22:27.53	20.43	10.38	-33.0	-33.7	24.5	0.00e+00	0	27	0	753926144	40	5539
2026-01-11 20:22:28.54	20.29	10.44	-33.1	-33.8	24.5	0.00e+00	0	27	0	759169024	40	5590
2026-01-11 20:22:29.55	20.15	10.49	-33.1	-33.8	24.4	0.00e+00	0	27	0	765460480	40	5603
2026-01-11 20:22:30.56	20.00	10.55	-33.1	-33.9	24.3	0.00e+00	0	27	0	770703360	40	5658
2026-01-11 20:22:31.57	19.86	10.60	-33.1	-33.8	24.4	0.00e+00	0	27	0	776994816	40	5601
2026-01-11 20:22:32.58	19.71	10.66	-33.0	-33.8	24.5	0.00e+00	0	27	0	782237696	40	5575
2026-01-11 20:22:33.58	19.57	10.71	-32.9	-33.6	24.4	0.00e+00	0	27	0	787480576	40	5488
2026-01-11 20:22:34.60	19.42	10.77	-32.9	-33.6	24.5	0.00e+00	0	26	0	793772032	40	5475
2026-01-11 20:22:35.61	19.27	10.83	-33.0	-33.7	24.5	0.00e+00	0	27	0	799014912	40	5534
2026-01-11 20:22:36.62	19.13	10.88	-32.7	-33.5	24.8	0.00e+00	0	27	0	805306368	38	6035
2026-01-11 20:22:37.62	18.98	10.93	-32.8	-33.5	24.8	0.00e+00	0	27	0	810549248	38	6078
2026-01-11 20:22:38.63	18.83	10.99	-32.9	-33.6	24.6	0.00e+00	0	27	0	815792128	38	6139
2026-01-11 20:22:39.64	18.68	11.04	-33.0	-33.7	24.7	0.00e+00	0	27	0	822083584	38	6208
2026-01-11 20:22:40.65	18.53	11.10	-32.8	-33.5	24.7	0.00e+00	0	27	0	827326464	38	6103
2026-01-11 20:22:41.66	18.38	11.15	-33.0	-33.7	24.7	0.00e+00	0	27	0	832569344	38	6196
2026-01-11 20:22:42.67	18.23	11.21	-32.7	-33.4	24.9	0.00e+00	0	27	0	838860800	38	6029
2026-01-11 20:22:43.67	18.08	11.26	-32.8	-33.5	24.7	0.00e+00	0	27	0	844103680	38	6092
2026-01-11 20:22:44.68	17.93	11.32	-32.7	-33.3	24.9	0.00e+00	0	27	0	850395136	38	5955
2026-01-11 20:22:45.69	17.78	11.37	-32.6	-33.3	25.0	0.00e+00	0	27	0	855638016	38	5907
2026-01-11 20:22:46.70	17.62	11.43	-32.6	-33.3	25.0	0.00e+00	0	27	0	861929472	38	5903
2026-01-11 20:22:47.71	17.47	11.48	-32.6	-33.3	24.9	0.00e+00	0	27	0	867172352	38	5958
2026-01-11 20:22:48.73	17.31	11.54	-32.7	-33.4	24.8	0.00e+00	0	27	0	873463808	38	6021
2026-01-11 20:22:49.74	17.16	11.59	-32.7	-33.4	24.8	0.00e+00	0	27	0	878706688	38	5988
2026-01-11 20:22:50.74	17.00	11.64	-32.9	-33.6	24.6	0.00e+00	0	27	0	883949568	38	6128
2026-01-11 20:22:51.75	16.85	11.70	-33.0	-33.7	24.6	0.00e+00	0	27	0	890241024	38	6244
2026-01-11 20:22:52.76	16.69	11.75	-33.0	-33.7	24.5	0.00e+00	0	27	0	895483904	38	6230
2026-01-11 20:22:53.77	16.53	11.81	-33.1	-33.8	24.5	0.00e+00	0	27	0	901775360	38	6283
2026-01-11 20:22:54.78	16.37	11.86	-32.8	-33.5	24.6	0.00e+00	0	27	0	907018240	38	6076
2026-01-11 20:22:55.79	16.22	11.91	-32.9	-33.6	24.8	0.00e+00	0	27	0	912261120	38	6136
2026-01-11 20:22:56.80	16.06	11.97	-32.6	-33.3	24.9	0.00e+00	0	27	0	918552576	38	5925
2026-01-11 20:22:57.82	15.90	12.02	-32.5	-33.2	25.2	0.00e+00	0	27	0	923795456	38	5849
2026-01-11 20:22:58.82	15.74	12.07	-32.5	-33.3	25.1	0.00e+00	0	27	0	930086912	38	5905
2026-01-11 20:22:59.84	15.57	12.13	-32.5	-33.2	25.2	0.00e+00	0	27	0	935329792	38	5842
2026-01-11 20:23:00.85	15.41	12.18	-32.7	-33.4	25.0	0.00e+00	0	27	0	940572672	38	5977
2026-01-11 20:23:01.86	15.25	12.23	-32.5	-33.2	25.0	0.00e+00	0	27	0	946864128	38	5889
2026-01-11 20:23:02.87	15.09	12.29	-32.6	-33.2	25.0	0.00e+00	0	27	0	952107008	38	5896
2026-01-11 20:23:03.88	14.92	12.34	-32.6	-33.3	25.0	0.00e+00	0	27	0	958398464	38	5917
2026-01-11 20:23:04.89	14.76	12.39	-32.6	-33.3	25.0	0.00e+00	0	27	0	963641344	38	5927
2026-01-11 20:23:05.90	14.60	12.44	-32.6	-33.2	25.1	0.00e+00	0	27	0	969932800	38	5892
2026-01-11 20:23:06.91	14.43	12.50	-32.3	-33.0	25.3	0.00e+00	0	27	0	975175680	38	5705
2026-01-11 20:23:07.92	14.26	12.55	-32.4	-33.1	25.3	0.00e+00	0	27	0	981467136	38	5791
2026-01-11 20:23:08.93	14.10	12.60	-32.2	-32.9	25.5	0.00e+00	0	27	0	986710016	38	5649
2026-01-11 20:23:09.94	13.93	12.65	-32.1	-32.8	25.4	0.00e+00	0	27	0	991952896	38	5603
2026-01-11 20:23:10.95	13.76	12.70	-32.2	-32.8	25.4	0.00e+00	0	27	0	998244352	38	5621
2026-01-11 20:23:11.96	13.60	12.76	-32.1	-32.8	25.4	0.00e+00	0	27	0	1003487232	38	5597
2026-01-11 20:23:12.97	13.43	12.81	-32.2	-32.9	25.5	0.00e+00	0	27	0	1009778688	38	5656
2026-01-11 20:23:13.98	13.26	12.86	-32.0	-32.6	25.6	0.00e+00	0	27	0	1015021568	38	5488
2026-01-11 20:23:14.99	13.09	12.91	-32.0	-32.6	25.6	0.00e+00	0	27	0	1020264448	38	5499
2026-01-11 20:23:15.99	12.92	12.96	-32.0	-32.6	25.6	0.00e+00	0	27	0	1026555904	38	5500
2026-01-11 20:23:17.00	12.75	13.01	-32.0	-32.6	25.6	0.00e+00	0	27	0	1031798784	38	5499
2026-01-11 20:23:18.01	12.58	13.06	-31.9	-32.6	25.7	0.00e+00	0	27	0	1038090240	38	5456
2026-01-11 20:23:19.02	12.40	13.11	-32.0	-32.7	25.5	0.00e+00	0	27	0	1043333120	38	5516
2026-01-11 20:23:20.03	12.23	13.16	-32.0	-32.7	25.6	0.00e+00	0	27	0	1048576000	38	5531
2026-01-11 20:23:21.04	12.06	13.21	-32.1	-32.8	25.5	0.00e+00	0	27	0	1054867456	38	5598
2026-01-11 20:23:22.05	11.88	13.26	-32.1	-32.8	25.5	0.00e+00	0	27	0	1060110336	38	5611
2026-01-11 20:23:23.06	11.71	13.31	-32.2	-32.8	25.5	0.00e+00	0	27	0	1066401792	38	5619
2026-01-11 20:23:24.07	11.53	13.36	-32.3	-32.9	25.4	0.00e+00	0	27	0	1071644672	38	5692
2026-01-11 20:23:25.08	11.36	13.41	-32.1	-32.8	25.6	0.00e+00	0	27	0	1077936128	38	5568
2026-01-11 20:23:26.09	11.18	13.46	-32.2	-32.8	25.5	0.00e+00	0	27	0	1083179008	38	5616
2026-01-11 20:23:27.09	11.00	13.51	-32.3	-32.9	25.4	0.00e+00	0	27	0	1088421888	38	5671
2026-01-11 20:23:28.11	10.83	13.56	-32.0	-32.7	25.7	0.00e+00	0	27	0	1094713344	38	5506
2026-01-11 20:23:29.11	10.65	13.61	-31.9	-32.5	25.7	0.00e+00	0	27	0	1099956224	38	5425
2026-01-11 20:23:30.12	10.47	13.66	-31.9	-32.5	25.7	0.00e+00	0	27	0	1106247680	38	5416
2026-01-11 20:23:31.13	10.29	13.71	-31.7	-32.4	25.8	0.00e+00	0	27	0	1111490560	36	5976
2026-01-11 20:23:32.14	10.11	13.76	-31.8	-32.5	25.7	0.00e+00	0	27	0	1116733440	36	6035
2026-01-11 20:23:33.15	9.93	13.81	-31.9	-32.5	25.5	0.00e+00	0	27	0	1123024896	36	6091
2026-01-11 20:23:34.16	9.75	13.85	-32.1	-32.7	25.5	0.00e+00	0	27	0	1128267776	36	6236
2026-01-11 20:23:35.17	9.57	13.90	-32.1	-32.8	25.5	0.00e+00	0	27	0	1134559232	36	6285
2026-01-11 20:23:36.18	9.38	13.95	-32.2	-32.9	25.3	0.00e+00	0	27	0	1139802112	36	6335
2026-01-11 20:23:37.19	9.20	14.00	-32.2	-32.8	25.4	0.00e+00	0	27	0	1145044992	36	6309
2026-01-11 20:23:38.20	9.02	14.05	-32.2	-33.0	25.4	0.00e+00	0	27	0	1151336448	36	6405
2026-01-11 20:23:39.21	8.83	14.09	-32.0	-32.7	25.6	0.00e+00	0	27	0	1156579328	36	6202
2026-01-11 20:23:40.22	8.65	14.14	-32.0	-32.7	25.7	0.00e+00	0	27	0	1162870784	36	6174
2026-01-11 20:23:41.23	8.46	14.19	-31.9	-32.5	25.7	0.00e+00	0	27	0	1168113664	36	6099
2026-01-11 20:23:42.24	8.27	14.23	-31.8	-32.4	25.8	0.00e+00	0	27	0	1174405120	36	6029
2026-01-11 20:23:43.25	8.09	14.28	-31.9	-32.5	25.7	0.00e+00	0	27	0	1179648000	36	6098
2026-01-11 20:23:44.25	7.90	14.32	-31.7	-32.4	25.8	0.00e+00	0	27	0	1184890880	36	5986
2026-01-11 20:23:45.26	7.71	14.37	-31.9	-32.5	25.8	0.00e+00	0	27	0	1191182336	36	6103
2026-01-11 20:23:46.27	7.53	14.42	-31.9	-32.5	25.7	0.00e+00	0	27	0	1196425216	36	6101
2026-01-11 20:23:47.28	7.34	14.46	-32.0	-32.7	25.7	0.00e+00	0	27	0	1202716672	36	6187
2026-01-11 20:23:48.29	7.15	14.51	-32.0	-32.7	25.6	0.00e+00	0	27	0	1207959552	36	6230
2026-01-11 20:23:49.30	6.96	14.55	-32.1	-32.8	25.5	0.00e+00	0	27	0	1213202432	36	6291
2026-01-11 20:23:50.31	6.77	14.60	-32.3	-33.0	25.5	0.00e+00	0	27	0	1219493888	36	6406
2026-01-11 20:23:51.32	6.57	14.64	-31.9	-32.6	25.7	0.00e+00	0	27	0	1224736768	36	6116
2026-01-11 20:23:52.33	6.38	14.69	-31.8	-32.5	25.8	0.00e+00	0	27	0	1231028224	36	6100
2026-01-11 20:23:53.34	6.19	14.73	-31.9	-32.6	25.7	0.00e+00	0	27	0	1236271104	36	6148
2026-01-11 20:23:54.35	6.00	14.77	-31.9	-32.5	25.8	0.00e+00	0	27	0	1241513984	36	6082
2026-01-11 20:23:55.36	5.80	14.82	-32.0	-32.6	25.7	0.00e+00	0	27	0	1247805440	36	6167
2026-01-11 20:23:56.37	5.61	14.86	-31.7	-32.3	26.0	0.00e+00	0	27	0	1253048320	36	5955
2026-01-11 20:23:57.38	5.41	14.90	-31.9	-32.5	25.9	0.00e+00	0	27	0	1259339776	36	6093
2026-01-11 20:23:58.39	5.22	14.95	-31.7	-32.3	26.0	0.00e+00	0	27	0	1264582656	36	5958
2026-01-11 20:23:59.40	5.02	14.99	-31.7	-32.3	26.0	0.00e+00	0	27	0	1270874112	36	5954
2026-01-11 20:24:00.40	4.83	15.03	-31.5	-32.2	26.1	0.00e+00	0	27	0	1276116992	36	5842
2026-01-11 20:24:01.41	4.63	15.07	-31.5	-32.2	26.1	0.00e+00	0	27	0	1282408448	36	5864
2026-01-11 20:24:02.42	4.43	15.11	-31.4	-32.1	26.2	0.00e+00	0	27	0	1287651328	36	5785
2026-01-11 20:24:03.43	4.23	15.16	-31.3	-32.0	26.2	0.00e+00	0	27	0	1292894208	36	5733
2026-01-11 20:24:04.44	4.04	15.20	-31.3	-32.0	26.3	0.00e+00	0	27	0	1299185664	36	5713
2026-01-11 20:24:05.45	3.84	15.24	-31.3	-31.9	26.3	0.00e+00	0	27	0	1304428544	36	5693
2026-01-11 20:24:06.46	3.64	15.28	-31.3	-31.9	26.3	0.00e+00	0	28	0	1310720000	36	5657
2026-01-11 20:24:07.47	3.44	15.32	-31.5	-32.1	26.1	0.00e+00	0	28	0	1315962880	36	5828
2026-01-11 20:24:08.48	3.23	15.36	-31.3	-31.9	26.3	0.00e+00	0	27	0	1321205760	36	5690
2026-01-11 20:24:09.49	3.03	15.40	-31.3	-31.9	26.4	0.00e+00	0	27	0	1327497216	36	5679
2026-01-11 20:24:10.50	2.83	15.44	-31.3	-32.0	26.3	0.00e+00	0	27	0	1332740096	36	5756
2026-01-11 20:24:11.51	2.63	15.48	-31.2	-31.8	26.5	0.00e+00	0	27	0	1337982976	36	5620
2026-01-11 20:24:12.52	2.42	15.52	-31.1	-31.7	26.6	0.00e+00	0	28	0	1344274432	36	5535
2026-01-11 20:24:13.52	2.22	15.55	-31.1	-31.7	26.5	0.00e+00	0	27	0	1349517312	36	5562
2026-01-11 20:24:14.53	2.02	15.59	-31.2	-31.8	26.4	0.00e+00	0	27	0	1355808768	36	5608
2026-01-11 20:24:15.54	1.81	15.63	-31.2	-31.8	26.4	0.00e+00	0	28	0	1361051648	36	5607
2026-01-11 20:24:16.56	1.61	15.67	-31.0	-31.7	26.5	0.00e+00	0	27	0	1367343104	36	5542
2026-01-11 20:24:17.56	1.40	15.70	-30.9	-31.5	26.7	0.00e+00	0	27	0	1372585984	36	5422
2026-01-11 20:24:18.57	1.20	15.74	-30.9	-31.6	26.6	0.00e+00	0	27	0	1378877440	36	5453
2026-01-11 20:24:19.58	0.99	15.78	-30.9	-31.5	26.7	0.00e+00	0	28	0	1384120320	36	5408
2026-01-11 20:24:20.59	0.78	15.81	-30.9	-31.6	26.6	0.00e+00	0	28	0	1389363200	36	5444
2026-01-11 20:24:21.60	0.57	15.85	-30.9	-31.6	26.7	0.00e+00	0	27	0	1395654656	36	5479
2026-01-11 20:24:22.61	0.37	15.89	-31.0	-31.7	26.6	0.00e+00	0	28	0	1400897536	36	5503
2026-01-11 20:24:23.62	0.16	15.92	-31.0	-31.6	26.6	0.00e+00	0	28	0	1407188992	36	5489
2026-01-11 20:24:24.63	359.95	15.96	-30.8	-31.5	26.7	0.00e+00	0	28	0	1412431872	36	5407
2026-01-11 20:24:25.64	359.74	15.99	-31.0	-31.6	26.6	0.00e+00	0	27	0	1417674752	36	5486
2026-01-11 20:24:26.65	359.53	16.03	-30.9	-31.5	26.7	0.00e+00	0	28	0	1423966208	36	5411
2026-01-11 20:24:27.65	359.32	16.06	-30.6	-31.2	26.9	0.00e+00	0	28	0	1429209088	34	5860
2026-01-11 20:24:28.66	359.11	16.09	-30.6	-31.2	26.8	0.00e+00	0	28	0	1435500544	34	5880
2026-01-11 20:24:29.67	358.89	16.13	-30.6	-31.2	26.9	0.00e+00	0	28	0	1440743424	34	5835
2026-01-11 20:24:30.68	358.68	16.16	-30.7	-31.3	26.9	0.00e+00	0	28	0	1445986304	34	5942
2026-01-11 20:24:31.69	358.47	16.19	-30.7	-31.3	26.8	0.00e+00	0	28	0	1452277760	34	5952
2026-01-11 20:24:32.70	358.26	16.22	-30.7	-31.3	26.8	0.00e+00	0	28	0	1457520640	34	5944
2026-01-11 20:24:33.71	358.04	16.26	-30.9	-31.6	26.6	0.00e+00	0	27	0	1463812096	34	6157
2026-01-11 20:24:34.72	357.83	16.29	-30.9	-31.5	26.6	0.00e+00	0	28	0	1469054976	34	6083
2026-01-11 20:24:35.73	357.61	16.32	-31.0	-31.7	26.5	0.00e+00	0	28	0	1475346432	34	6192
2026-01-11 20:24:36.74	357.40	16.35	-31.1	-31.8	26.4	0.00e+00	0	28	0	1480589312	34	6300
2026-01-11 20:24:37.75	357.18	16.38	-31.2	-31.9	26.3	0.00e+00	0	28	0	1485832192	34	6354
2026-01-11 20:24:38.76	356.97	16.41	-31.3	-31.9	26.3	0.00e+00	0	28	0	1492123648	34	6336
2026-01-11 20:24:39.77	356.75	16.44	-31.2	-31.9	26.3	0.00e+00	0	28	0	1497366528	34	6363
2026-01-11 20:24:40.77	356.53	16.47	-31.2	-31.8	26.4	0.00e+00	0	28	0	1503657984	34	6311
2026-01-11 20:24:41.78	356.32	16.50	-31.3	-31.9	26.3	0.00e+00	0	28	0	1508900864	34	6368
2026-01-11 20:24:42.79	356.10	16.52	-31.2	-31.8	26.4	0.00e+00	0	28	0	1514143744	34	6312
2026-01-11 20:24:43.80	355.88	16.55	-31.1	-31.7	26.5	0.00e+00	0	28	0	1520435200	34	6222
2026-01-11 20:24:44.81	355.66	16.58	-31.0	-31.6	26.6	0.00e+00	0	28	0	1525678080	34	6163
2026-01-11 20:24:45.82	355.44	16.61	-31.0	-31.7	26.6	0.00e+00	0	28	0	1531969536	34	6182
2026-01-11 20:24:46.83	355.22	16.63	-31.1	-31.7	26.5	0.00e+00	0	28	0	1537212416	34	6231
2026-01-11 20:24:47.84	355.01	16.66	-31.1	-31.8	26.5	0.00e+00	0	28	0	1542455296	34	6259
2026-01-11 20:24:48.85	354.78	16.69	-31.2	-31.9	26.4	0.00e+00	0	28	0	1548746752	34	6324
2026-01-11 20:24:49.86	354.56	16.71	-31.2	-31.8	26.4	0.00e+00	0	28	0	1553989632	34	6290
2026-01-11 20:24:50.87	354.34	16.74	-31.2	-31.8	26.4	0.00e+00	0	28	0	1560281088	34	6298
2026-01-11 20:24:51.88	354.12	16.76	-31.3	-32.0	26.3	0.00e+00	0	28	0	1565523968	34	6397
2026-01-11 20:24:52.89	353.90	16.79	-31.2	-31.9	26.4	0.00e+00	0	28	0	1571815424	34	6333
2026-01-11 20:24:53.90	353.68	16.81	-31.2	-31.9	26.4	0.00e+00	0	28	0	1577058304	34	6341
2026-01-11 20:24:54.91	353.46	16.83	-31.2	-31.8	26.4	0.00e+00	0	28	0	1582301184	34	6264
2026-01-11 20:24:55.91	353.24	16.86	-31.3	-31.9	26.3	0.00e+00	0	28	0	1588592640	34	6367
2026-01-11 20:24:56.92	353.01	16.88	-31.1	-31.7	26.6	0.00e+00	0	28	0	1593835520	34	6209
2026-01-11 20:24:57.93	352.79	16.90	-31.0	-31.6	26.6	0.00e+00	0	28	0	1600126976	34	6147
2026-01-11 20:24:58.94	352.57	16.92	-31.0	-31.6	26.6	0.00e+00	0	28	0	1605369856	34	6124
2026-01-11 20:24:59.95	352.34	16.95	-30.9	-31.5	26.7	0.00e+00	0	28	0	1610612736	34	6099
2026-01-11 20:25:00.96	352.12	16.97	-30.9	-31.5	26.7	0.00e+00	0	28	0	1616904192	34	6067
2026-01-11 20:25:01.97	351.89	16.99	-30.9	-31.5	26.7	0.00e+00	0	28	0	1622147072	34	6100
2026-01-11 20:25:02.98	351.67	17.01	-31.0	-31.7	26.5	0.00e+00	0	28	0	1628438528	34	6184
2026-01-11 20:25:03.99	351.44	17.03	-31.1	-31.7	26.5	0.00e+00	0	28	0	1633681408	34	6244
2026-01-11 20:25:05.00	351.22	17.05	-30.9	-31.6	26.6	0.00e+00	0	28	0	1638924288	34	6128
2026-01-11 20:25:06.01	350.99	17.07	-30.9	-31.6	26.6	0.00e+00	0	28	0	1645215744	34	6144
2026-01-11 20:25:07.02	350.76	17.08	-30.9	-31.5	26.7	0.00e+00	0	28	0	1650458624	34	6080
2026-01-11 20:25:08.03	350.54	17.10	-30.9	-31.5	26.7	0.00e+00	0	28	0	1656750080	34	6094
2026-01-11 20:25:09.04	350.31	17.12	-30.8	-31.5	26.8	0.00e+00	0	28	0	1661992960	34	6043
2026-01-11 20:25:10.05	350.08	17.14	-30.9	-31.5	26.7	0.00e+00	0	28	0	1668284416	34	6073
2026-01-11 20:25:11.06	349.86	17.15	-31.0	-31.7	26.6	0.00e+00	0	28	0	1673527296	34	6178
2026-01-11 20:25:12.07	349.63	17.17	-30.9	-31.6	26.5	0.00e+00	0	28	0	1679818752	34	6119
2026-01-11 20:25:13.08	349.40	17.19	-30.9	-31.6	26.7	0.00e+00	0	28	0	1685061632	34	6107
2026-01-11 20:25:14.09	349.17	17.20	-30.7	-31.3	26.8	0.00e+00	0	28	0	1690304512	34	5940
2026-01-11 20:25:15.10	348.95	17.22	-30.7	-31.3	26.8	0.00e+00	0	28	0	1696595968	34	5905
2026-01-11 20:25:16.11	348.72	17.23	-30.5	-31.1	27.0	0.00e+00	0	28	0	1701838848	34	5824
2026-01-11 20:25:17.12	348.49	17.24	-30.5	-31.1	27.0	0.00e+00	0	28	0	1708130304	34	5794
2026-01-11 20:25:18.13	348.26	17.26	-30.6	-31.2	26.9	0.00e+00	0	28	0	1713373184	34	5844
2026-01-11 20:25:19.13	348.03	17.27	-30.6	-31.2	26.9	0.00e+00	0	28	0	1718616064	34	5852
2026-01-11 20:25:20.14	347.80	17.28	-30.7	-31.3	26.9	0.00e+00	0	28	0	1724907520	34	5951
2026-01-11 20:25:21.15	347.57	17.29	-30.8	-31.4	26.6	0.00e+00	0	28	0	1730150400	34	6031
2026-01-11 20:25:22.16	347.34	17.31	-30.8	-31.4	26.7	0.00e+00	0	28	0	1736441856	34	5984
2026-01-11 20:25:23.17	347.11	17.32	-30.7	-31.4	26.7	0.00e+00	0	28	0	1741684736	34	5987
2026-01-11 20:25:24.18	346.88	17.33	-30.7	-31.4	26.9	0.00e+00	0	28	0	1746927616	34	5984
2026-01-11 20:25:25.19	346.65	17.34	-30.8	-31.4	26.9	0.00e+00	0	28	0	1753219072	34	6008
2026-01-11 20:25:26.20	346.42	17.35	-30.8	-31.5	26.7	0.00e+00	0	28	0	1758461952	34	6052
2026-01-11 20:25:27.21	346.19	17.36	-31.0	-31.6	26.6	0.00e+00	0	28	0	1764753408	34	6156
2026-01-11 20:25:28.22	345.96	17.37	-31.0	-31.7	26.6	0.00e+00	0	28	0	1769996288	34	6178
2026-01-11 20:25:29.23	345.73	17.37	-31.1	-31.8	26.6	0.00e+00	0	28	0	1776287744	34	6260
2026-01-11 20:25:30.24	345.50	17.38	-30.8	-31.5	26.7	0.00e+00	0	28	0	1781530624	34	6070
2026-01-11 20:25:31.25	345.27	17.39	-30.8	-31.5	26.8	0.00e+00	0	28	0	1786773504	34	6056
2026-01-11 20:25:32.26	345.04	17.40	-30.6	-31.2	26.9	0.00e+00	0	28	0	1793064960	34	5885
2026-01-11 20:25:33.27	344.81	17.40	-30.5	-31.2	27.0	0.00e+00	0	28	0	1798307840	34	5888
2026-01-11 20:25:34.27	344.58	17.41	-30.7	-31.3	26.9	0.00e+00	0	28	0	1804599296	34	5913
2026-01-11 20:25:35.28	344.35	17.41	-30.5	-31.2	27.0	0.00e+00	0	28	0	1809842176	34	5854
2026-01-11 20:25:36.29	344.12	17.42	-30.6	-31.2	26.9	0.00e+00	0	28	0	1815085056	34	5884
2026-01-11 20:25:37.30	343.88	17.42	-30.5	-31.1	27.0	0.00e+00	0	28	0	1821376512	34	5810
2026-01-11 20:25:38.31	343.65	17.43	-30.4	-31.1	27.1	0.00e+00	0	28	0	1826619392	34	5783
2026-01-11 20:25:39.32	343.42	17.43	-30.4	-31.1	27.1	0.00e+00	0	28	0	1832910848	34	5762
2026-01-11 20:25:40.33	343.19	17.43	-30.4	-31.0	27.1	0.00e+00	0	28	0	1838153728	34	5749
2026-01-11 20:25:41.34	342.96	17.44	-30.2	-30.9	27.2	0.00e+00	0	28	0	1843396608	34	5656
2026-01-11 20:25:42.35	342.73	17.44	-30.3	-30.9	27.2	0.00e+00	0	28	0	1849688064	34	5643
2026-01-11 20:25:43.36	342.49	17.44	-30.3	-30.9	27.2	0.00e+00	0	28	0	1854930944	34	5665
2026-01-11 20:25:44.37	342.26	17.44	-30.4	-31.1	27.1	0.00e+00	0	28	0	1861222400	34	5767
2026-01-11 20:25:45.38	342.03	17.44	-30.4	-31.1	27.0	0.00e+00	0	28	0	1866465280	34	5762
2026-01-11 20:25:46.39	341.80	17.44	-30.6	-31.2	26.9	0.00e+00	0	28	0	1872756736	34	5835
2026-01-11 20:25:47.40	341.57	17.44	-30.6	-31.2	26.9	0.00e+00	0	28	0	1877999616	34	5871
2026-01-11 20:25:48.41	341.33	17.44	-30.7	-31.3	26.8	0.00e+00	0	28	0	1883242496	34	5962
2026-01-11 20:25:49.42	341.10	17.44	-30.8	-31.4	26.7	0.00e+00	0	28	0	1889533952	34	6011
2026-01-11 20:25:50.43	340.87	17.44	-30.8	-31.5	26.7	0.00e+00	0	28	0	1894776832	34	6048
2026-01-11 20:25:51.44	340.64	17.44	-30.9	-31.6	26.7	0.00e+00	0	28	0	1901068288	34	6116
2026-01-11 20:25:52.44	340.41	17.43	-30.8	-31.5	26.7	0.00e+00	0	28	0	1906311168	34	6078
2026-01-11 20:25:53.45	340.18	17.43	-31.0	-31.6	26.6	0.00e+00	0	28	0	1911554048	34	6144
2026-01-11 20:25:54.46	339.95	17.43	-31.0	-31.7	26.5	0.00e+00	0	28	0	1917845504	34	6194
2026-01-11 20:25:55.47	339.71	17.42	-31.1	-31.7	26.4	0.00e+00	0	28	0	1923088384	34	6245
2026-01-11 20:25:56.48	339.48	17.42	-31.1	-31.7	26.4	0.00e+00	0	28	0	1929379840	34	6224
2026-01-11 20:25:57.49	339.25	17.41	-31.1	-31.8	26.5	0.00e+00	0	28	0	1934622720	34	6276
2026-01-11 20:25:58.50	339.02	17.41	-31.0	-31.7	26.5	0.00e+00	0	28	0	1939865600	34	6209
2026-01-11 20:25:59.51	338.79	17.40	-31.0	-31.7	26.4	0.00e+00	0	28	0	1946157056	34	6210
2026-01-11 20:26:00.52	338.56	17.39	-31.1	-31.8	26.4	0.00e+00	0	28	0	1951399936	34	6273
2026-01-11 20:26:01.53	338.33	17.39	-31.1	-31.7	26.3	0.00e+00	0	28	0	1957691392	34	6245
2026-01-11 20:26:02.53	338.10	17.38	-31.1	-31.7	26.4	0.00e+00	0	28	0	1962934272	34	6236
2026-01-11 20:26:03.54	337.87	17.37	-30.8	-31.5	26.4	0.00e+00	0	28	0	1969225728	34	6049
2026-01-11 20:26:04.55	337.64	17.36	-30.7	-31.4	26.7	0.00e+00	0	28	0	1974468608	34	5992
2026-01-11 20:26:05.56	337.41	17.35	-30.5	-31.1	26.8	0.00e+00	0	28	0	1980760064	34	5824
2026-01-11 20:26:06.57	337.17	17.34	-30.6	-31.3	26.8	0.00e+00	0	28	0	1986002944	34	5933
2026-01-11 20:26:07.58	336.94	17.33	-30.7	-31.4	26.7	0.00e+00	0	28	0	1991245824	34	6007
2026-01-11 20:26:08.59	336.71	17.32	-30.9	-31.6	26.6	0.00e+00	0	28	0	1997537280	34	6172
2026-01-11 20:26:09.60	336.48	17.31	-30.8	-31.4	26.8	0.00e+00	0	28	0	2002780160	34	6033
2026-01-11 20:26:10.61	336.25	17.30	-30.8	-31.5	26.8	0.00e+00	0	28	0	2009071616	34	6035
2026-01-11 20:26:11.62	336.02	17.29	-30.7	-31.3	26.8	0.00e+00	0	28	0	2014314496	34	5953
2026-01-11 20:26:12.63	335.80	17.28	-30.6	-31.2	27.0	0.00e+00	0	28	0	2019557376	34	5869
2026-01-11 20:26:13.64	335.57	17.27	-30.6	-31.2	26.9	0.00e+00	0	28	0	2025848832	34	5857
2026-01-11 20:26:14.65	335.34	17.25	-30.7	-31.3	26.8	0.00e+00	0	28	0	2031091712	34	5952
2026-01-11 20:26:15.66	335.11	17.24	-30.7	-31.4	26.9	0.00e+00	0	28	0	2037383168	34	6002
2026-01-11 20:26:16.67	334.88	17.22	-30.7	-31.3	26.8	0.00e+00	0	28	0	2042626048	34	5962
2026-01-11 20:26:17.68	334.65	17.21	-30.9	-31.5	26.7	0.00e+00	0	28	0	2047868928	34	6076
2026-01-11 20:26:18.69	334.42	17.19	-30.9	-31.6	26.7	0.00e+00	0	28	0	2054160384	34	6110
2026-01-11 20:26:19.70	334.19	17.18	-31.0	-31.6	26.7	0.00e+00	0	28	0	2059403264	34	6134
2026-01-11 20:26:20.71	333.97	17.16	-31.1	-31.7	26.5	0.00e+00	0	28	0	2065694720	34	6235
2026-01-11 20:26:21.72	333.74	17.15	-31.1	-31.7	26.6	0.00e+00	0	28	0	2070937600	34	6238
2026-01-11 20:26:22.73	333.51	17.13	-31.1	-31.8	26.5	0.00e+00	0	28	0	2077229056	34	6248
2026-01-11 20:26:23.73	333.29	17.11	-31.3	-32.0	26.4	0.00e+00	0	28	0	2082471936	34	6409
2026-01-11 20:26:24.74	333.06	17.10	-31.1	-31.7	26.6	0.00e+00	0	28	0	2087714816	34	6211
2026-01-11 20:26:25.75	332.83	17.08	-31.0	-31.6	26.6	0.00e+00	0	28	0	2094006272	34	6150
2026-01-11 20:26:26.76	332.61	17.06	-31.0	-31.7	26.7	0.00e+00	0	28	0	2099249152	34	6195
2026-01-11 20:26:27.77	332.38	17.04	-30.9	-31.6	26.7	0.00e+00	0	28	0	2105540608	34	6129
2026-01-11 20:26:28.78	332.16	17.02	-31.0	-31.7	26.6	0.00e+00	0	28	0	2110783488	34	6228
2026-01-11 20:26:29.79	331.93	17.00	-30.9	-31.6	26.7	0.00e+00	0	28	0	2116026368	34	6141
2026-01-11 20:26:30.80	331.71	16.98	-31.0	-31.6	26.6	0.00e+00	0	28	0	2122317824	34	6135
2026-01-11 20:26:31.81	331.48	16.96	-31.2	-31.8	26.5	0.00e+00	0	28	0	2127560704	34	6310
2026-01-11 20:26:32.82	331.26	16.94	-31.2	-31.8	26.4	0.00e+00	0	28	0	2133852160	34	6289
2026-01-11 20:26:33.83	331.03	16.92	-31.3	-31.9	26.4	0.00e+00	0	28	0	2139095040	34	6389
2026-01-11 20:26:34.84	330.81	16.89	-31.3	-32.0	26.4	0.00e+00	0	29	0	2144337920	34	6408
2026-01-11 20:26:35.85	330.59	16.87	-31.3	-31.9	26.4	0.00e+00	0	28	0	2150629376	34	6390
2026-01-11 20:26:36.86	330.36	16.85	-31.2	-31.8	26.5	0.00e+00	0	28	0	2155872256	34	6296
2026-01-11 20:26:37.87	330.14	16.83	-31.1	-31.8	26.6	0.00e+00	0	28	0	2162163712	34	6282
2026-01-11 20:26:38.88	329.92	16.80	-31.1	-31.9	26.5	0.00e+00	0	29	0	2167406592	34	6331
2026-01-11 20:26:39.88	329.70	16.78	-31.2	-31.9	26.5	0.00e+00	0	28	0	2173698048	34	6351
2026-01-11 20:26:40.90	329.47	16.75	-31.1	-31.7	26.5	0.00e+00	0	29	0	2178940928	34	6221
2026-01-11 20:26:41.91	329.25	16.73	-31.1	-31.7	26.5	0.00e+00	0	29	0	2184183808	34	6215
2026-01-11 20:26:42.91	329.03	16.70	-31.2	-31.8	26.4	0.00e+00	0	28	0	2190475264	34	6285
2026-01-11 20:26:43.92	328.81	16.68	-31.2	-31.9	26.4	0.00e+00	0	28	0	2195718144	34	6334
2026-01-11 20:26:44.93	328.59	16.65	-31.2	-31.8	26.5	0.00e+00	0	28	0	2202009600	34	6272
2026-01-11 20:26:45.94	328.37	16.62	-31.2	-31.9	26.5	0.00e+00	0	28	0	2207252480	34	6374
2026-01-11 20:26:46.95	328.15	16.60	-31.3	-31.9	26.3	0.00e+00	0	29	0	2212495360	34	6365
2026-01-11 20:26:47.96	327.93	16.57	-31.3	-31.9	26.4	0.00e+00	0	29	0	2218786816	34	6336
2026-01-11 20:26:48.97	327.72	16.54	-31.3	-32.0	26.4	0.00e+00	0	28	0	2224029696	34	6441
2026-01-11 20:26:49.98	327.50	16.51	-31.3	-32.0	26.5	0.00e+00	0	29	0	2230321152	34	6426
2026-01-11 20:26:50.99	327.28	16.48	-31.3	-31.9	26.5	0.00e+00	0	29	0	2235564032	34	6327
2026-01-11 20:26:52.00	327.06	16.46	-31.2	-31.9	26.5	0.00e+00	0	29	0	2240806912	34	6339
2026-01-11 20:26:53.01	326.85	16.43	-31.2	-31.7	26.5	0.00e+00	0	29	0	2247098368	34	6231
2026-01-11 20:26:54.02	326.63	16.40	-31.1	-31.7	26.5	0.00e+00	0	29	0	2252341248	34	6231
2026-01-11 20:26:55.02	326.42	16.37	-31.1	-31.7	26.5	0.00e+00	0	29	0	2258632704	34	6219
2026-01-11 20:26:56.03	326.20	16.34	-31.1	-31.7	26.5	0.00e+00	0	28	0	2263875584	34	6200
2026-01-11 20:26:57.04	325.98	16.30	-31.2	-31.8	26.4	0.00e+00	0	29	0	2270167040	34	6276
2026-01-11 20:26:58.05	325.77	16.27	-31.1	-31.7	26.5	0.00e+00	0	29	0	2275409920	34	6226
2026-01-11 20:26:59.06	325.56	16.24	-31.1	-31.8	26.6	0.00e+00	0	29	0	2281701376	34	6261
2026-01-11 20:27:00.07	325.34	16.21	-31.2	-31.7	26.4	0.00e+00	0	29	0	2286944256	34	6236
2026-01-11 20:27:01.08	325.13	16.18	-31.3	-32.0	26.3	0.00e+00	0	29	0	2292187136	34	6428
2026-01-11 20:27:02.09	324.92	16.14	-31.4	-32.0	26.3	0.00e+00	0	29	0	2298478592	34	6408
2026-01-11 20:27:03.10	324.70	16.11	-31.4	-32.0	26.3	0.00e+00	0	29	0	2303721472	34	6445
2026-01-11 20:27:04.10	324.49	16.08	-31.4	-32.0	26.3	0.00e+00	0	29	0	2308964352	34	6430
2026-01-11 20:27:05.11	324.28	16.04	-31.4	-32.0	26.3	0.00e+00	0	29	0	2315255808	34	6440
2026-01-11 20:27:06.12	324.07	16.01	-31.3	-31.9	26.4	0.00e+00	0	29	0	2320498688	34	6360
2026-01-11 20:27:07.13	323.86	15.98	-31.4	-32.0	26.2	0.00e+00	0	29	0	2326790144	34	6437
2026-01-11 20:27:08.14	323.65	15.94	-31.4	-32.2	26.2	0.00e+00	0	29	0	2332033024	34	6550
2026-01-11 20:27:09.15	323.44	15.91	-31.4	-32.1	26.3	0.00e+00	0	29	0	2337275904	34	6473
2026-01-11 20:27:10.16	323.23	15.87	-31.4	-32.0	26.3	0.00e+00	0	29	0	2343567360	34	6419
2026-01-11 20:27:11.17	323.02	15.84	-31.1	-31.7	26.5	0.00e+00	0	29	0	2348810240	34	6235
2026-01-11 20:27:12.18	322.81	15.80	-31.0	-31.7	26.6	0.00e+00	0	29	0	2355101696	34	6201
2026-01-11 20:27:13.19	322.61	15.76	-31.1	-31.8	26.6	0.00e+00	0	29	0	2360344576	34	6260
2026-01-11 20:27:14.20	322.40	15.73	-31.1	-31.7	26.5	0.00e+00	0	29	0	2366636032	34	6236
2026-01-11 20:27:15.21	322.19	15.69	-31.2	-31.8	26.5	0.00e+00	0	29	0	2371878912	34	6296
2026-01-11 20:27:16.22	321.99	15.65	-31.3	-31.9	26.3	0.00e+00	0	29	0	2378170368	34	6373
2026-01-11 20:27:17.23	321.78	15.61	-31.4	-32.1	26.3	0.00e+00	0	29	0	2383413248	34	6480
2026-01-11 20:27:18.23	321.58	15.58	-31.4	-32.0	26.3	0.00e+00	0	29	0	2388656128	34	6428
2026-01-11 20:27:19.24	321.38	15.54	-31.4	-32.0	26.2	0.00e+00	0	29	0	2394947584	34	6450
2026-01-11 20:27:20.25	321.17	15.50	-31.5	-32.1	26.2	0.00e+00	0	29	0	2400190464	34	6539
2026-01-11 20:27:21.26	320.97	15.46	-31.5	-32.1	26.2	0.00e+00	0	29	0	2406481920	34	6509
2026-01-11 20:27:22.27	320.77	15.42	-31.6	-32.2	26.2	0.00e+00	0	29	0	2411724800	34	6593
2026-01-11 20:27:23.28	320.56	15.38	-31.6	-32.2	26.1	0.00e+00	0	29	0	2416967680	34	6589
2026-01-11 20:27:24.28	320.36	15.34	-31.6	-32.4	26.1	0.00e+00	0	29	0	2423259136	34	6700
2026-01-11 20:27:25.30	320.16	15.30	-31.6	-32.3	26.1	0.00e+00	0	29	0	2428502016	34	6651
2026-01-11 20:27:26.31	319.96	15.26	-31.7	-32.3	26.1	0.00e+00	0	29	0	2433744896	34	6624
2026-01-11 20:27:27.31	319.76	15.22	-31.7	-32.3	26.1	0.00e+00	0	29	0	2440036352	34	6662
2026-01-11 20:27:28.32	319.56	15.18	-31.7	-32.3	26.1	0.00e+00	0	29	0	2445279232	34	6660
2026-01-11 20:27:29.33	319.36	15.14	-31.8	-32.5	26.1	0.00e+00	0	29	0	2451570688	36	6047
2026-01-11 20:27:30.34	319.16	15.10	-31.7	-32.4	26.0	0.00e+00	0	29	0	2456813568	36	6017
2026-01-11 20:27:31.35	318.97	15.05	-31.7	-32.3	26.0	0.00e+00	0	29	0	2463105024	36	5963
2026-01-11 20:27:32.36	318.77	15.01	-31.7	-32.3	26.2	0.00e+00	0	29	0	2468347904	36	5921
2026-01-11 20:27:33.37	318.57	14.97	-31.8	-32.5	25.9	0.00e+00	0	29	0	2474639360	36	6044
2026-01-11 20:27:34.38	318.38	14.93	-31.7	-32.4	26.0	0.00e+00	0	29	0	2479882240	36	5978
2026-01-11 20:27:35.39	318.18	14.88	-31.7	-32.4	26.0	0.00e+00	0	29	0	2485125120	36	6028
2026-01-11 20:27:36.40	317.99	14.84	-31.8	-32.5	25.9	0.00e+00	0	29	0	2491416576	36	6047
2026-01-11 20:27:37.41	317.79	14.80	-31.8	-32.4	26.0	0.00e+00	0	29	0	2496659456	36	5984
2026-01-11 20:27:38.42	317.60	14.75	-31.7	-32.4	26.1	0.00e+00	0	29	0	2502950912	36	5979
2026-01-11 20:27:39.43	317.40	14.71	-31.7	-32.3	26.1	0.00e+00	0	29	0	2508193792	36	5910
2026-01-11 20:27:40.44	317.21	14.67	-31.7	-32.3	26.1	0.00e+00	0	29	0	2513436672	36	5930
2026-01-11 20:27:41.45	317.02	14.62	-31.8	-32.4	25.9	0.00e+00	0	29	0	2519728128	36	5991
2026-01-11 20:27:42.46	316.83	14.58	-31.8	-32.4	26.1	0.00e+00	0	29	0	2524971008	36	6001
2026-01-11 20:27:43.46	316.64	14.53	-31.8	-32.6	25.9	0.00e+00	0	29	0	2531262464	36	6111
2026-01-11 20:27:44.47	316.45	14.49	-31.7	-32.4	26.0	0.00e+00	0	29	0	2536505344	36	6017
2026-01-11 20:27:45.48	316.26	14.44	-31.7	-32.3	26.1	0.00e+00	0	29	0	2541748224	36	5906
2026-01-11 20:27:46.49	316.07	14.40	-31.7	-32.4	26.0	0.00e+00	0	29	0	2548039680	36	6003
2026-01-11 20:27:47.50	315.88	14.35	-31.8	-32.4	25.9	0.00e+00	0	29	0	2553282560	36	6000
2026-01-11 20:27:48.51	315.69	14.30	-31.9	-32.7	25.9	0.00e+00	0	29	0	2559574016	36	6194
2026-01-11 20:27:49.52	315.51	14.26	-32.0	-32.7	25.8	0.00e+00	0	29	0	2564816896	36	6192
2026-01-11 20:27:50.53	315.32	14.21	-32.0	-32.7	25.8	0.00e+00	0	29	0	2571108352	36	6223
2026-01-11 20:27:51.54	315.13	14.16	-32.0	-32.7	25.7	0.00e+00	0	29	0	2576351232	36	6182
2026-01-11 20:27:52.55	314.95	14.12	-32.1	-32.8	25.7	0.00e+00	0	29	0	2581594112	36	6313
2026-01-11 20:27:53.56	314.76	14.07	-32.0	-32.7	25.7	0.00e+00	0	29	0	2587885568	36	6188
2026-01-11 20:27:54.57	314.58	14.02	-31.9	-32.5	25.9	0.00e+00	0	29	0	2593128448	36	6073
2026-01-11 20:27:55.58	314.39	13.98	-32.0	-32.6	25.7	0.00e+00	0	29	0	2599419904	36	6113
2026-01-11 20:27:56.59	314.21	13.93	-31.9	-32.5	25.8	0.00e+00	0	29	0	2604662784	36	6083
2026-01-11 20:27:57.60	314.03	13.88	-32.1	-32.7	25.6	0.00e+00	0	29	0	2609905664	36	6214
2026-01-11 20:27:58.61	313.85	13.83	-32.2	-32.8	25.6	0.00e+00	0	29	0	2616197120	36	6278
2026-01-11 20:27:59.62	313.66	13.78	-32.2	-32.8	25.5	0.00e+00	0	29	0	2621440000	36	6287
2026-01-11 20:28:00.63	313.48	13.73	-32.1	-32.8	25.6	0.00e+00	0	29	0	2627731456	36	6303
2026-01-11 20:28:01.64	313.30	13.69	-32.1	-32.8	25.7	0.00e+00	0	29	0	2632974336	36	6250
2026-01-11 20:28:02.64	313.12	13.64	-32.1	-32.8	25.7	0.00e+00	0	29	0	2638217216	36	6290
2026-01-11 20:28:03.65	312.95	13.59	-32.0	-32.8	25.7	0.00e+00	0	29	0	2644508672	36	6251
2026-01-11 20:28:04.66	312.77	13.54	-32.1	-32.7	25.6	0.00e+00	0	29	0	2649751552	36	6219
2026-01-11 20:28:05.68	312.59	13.49	-32.1	-32.8	25.6	0.00e+00	0	29	0	2656043008	36	6258
2026-01-11 20:28:06.69	312.41	13.44	-32.1	-32.9	25.6	0.00e+00	0	29	0	2661285888	36	6349
2026-01-11 20:28:07.69	312.24	13.39	-32.2	-32.9	25.6	0.00e+00	0	29	0	2667577344	36	6344
2026-01-11 20:28:08.71	312.06	13.34	-32.2	-32.8	25.6	0.00e+00	0	29	0	2672820224	36	6300
2026-01-11 20:28:09.71	311.88	13.29	-32.2	-32.8	25.6	0.00e+00	0	29	0	2679111680	36	6288
2026-01-11 20:28:10.72	311.71	13.24	-32.3	-33.0	25.4	0.00e+00	0	29	0	2684354560	36	6436
2026-01-11 20:28:11.73	311.53	13.19	-32.6	-33.2	25.2	0.00e+00	0	29	0	2689597440	36	6612
2026-01-11 20:28:12.74	311.36	13.14	-32.6	-33.4	25.2	0.00e+00	0	29	0	2695888896	36	6700
2026-01-11 20:28:13.75	311.19	13.09	-32.9	-33.6	24.9	0.00e+00	0	29	0	2701131776	38	6171
2026-01-11 20:28:14.77	311.01	13.04	-32.6	-33.2	25.2	0.00e+00	0	29	0	2707423232	38	5859
2026-01-11 20:28:15.78	310.84	12.99	-32.5	-33.2	25.3	0.00e+00	0	29	0	2712666112	38	5890
2026-01-11 20:28:16.78	310.67	12.94	-32.4	-33.1	25.4	0.00e+00	0	29	0	2717908992	38	5794
2026-01-11 20:28:17.79	310.50	12.88	-32.4	-33.0	25.4	0.00e+00	0	29	0	2724200448	38	5703
2026-01-11 20:28:18.80	310.33	12.83	-32.5	-33.2	25.3	0.00e+00	0	29	0	2729443328	38	5856
2026-01-11 20:28:19.81	310.16	12.78	-32.3	-33.0	25.5	0.00e+00	0	29	0	2735734784	38	5704
2026-01-11 20:28:20.82	309.99	12.73	-32.4	-33.0	25.4	0.00e+00	0	29	0	2740977664	38	5719
2026-01-11 20:28:21.83	309.82	12.68	-32.5	-33.2	25.3	0.00e+00	0	29	0	2746220544	38	5832
2026-01-11 20:28:22.84	309.66	12.63	-32.3	-32.9	25.5	0.00e+00	0	29	0	2752512000	38	5660
2026-01-11 20:28:23.85	309.49	12.57	-32.3	-32.9	25.4	0.00e+00	0	29	0	2757754880	38	5668
2026-01-11 20:28:24.86	309.32	12.52	-32.2	-32.8	25.5	0.00e+00	0	29	0	2764046336	38	5584
2026-01-11 20:28:25.87	309.16	12.47	-32.0	-32.8	25.6	0.00e+00	0	29	0	2769289216	38	5573
2026-01-11 20:28:26.88	308.99	12.42	-32.1	-32.9	25.6	0.00e+00	0	29	0	2775580672	38	5634
2026-01-11 20:28:27.89	308.83	12.36	-32.1	-32.7	25.6	0.00e+00	0	29	0	2780823552	38	5516
2026-01-11 20:28:28.90	308.66	12.31	-32.1	-32.7	25.5	0.00e+00	0	29	0	2786066432	38	5558
2026-01-11 20:28:29.91	308.50	12.26	-32.2	-32.8	25.5	0.00e+00	0	29	0	2792357888	38	5588
2026-01-11 20:28:30.92	308.34	12.20	-32.3	-33.1	25.3	0.00e+00	0	29	0	2797600768	38	5767
2026-01-11 20:28:31.93	308.18	12.15	-32.4	-33.1	25.3	0.00e+00	0	29	0	2803892224	38	5821
2026-01-11 20:28:32.94	308.01	12.10	-32.3	-33.1	25.3	0.00e+00	0	29	0	2809135104	38	5767
2026-01-11 20:28:33.95	307.85	12.04	-32.3	-32.9	25.2	0.00e+00	0	29	0	2814377984	38	5686
2026-01-11 20:28:34.96	307.69	11.99	-32.2	-33.0	25.3	0.00e+00	0	29	0	2820669440	38	5718
2026-01-11 20:28:35.96	307.53	11.94	-32.1	-32.8	25.5	0.00e+00	0	29	0	2825912320	38	5591
2026-01-11 20:28:36.97	307.37	11.88	-32.2	-32.8	25.3	0.00e+00	0	29	0	2832203776	38	5609
2026-01-11 20:28:37.98	307.22	11.83	-32.2	-32.8	25.4	0.00e+00	0	29	0	2837446656	38	5615
2026-01-11 20:28:38.99	307.06	11.78	-32.4	-33.2	25.1	0.00e+00	0	29	0	2842689536	38	5846
2026-01-11 20:28:39.99	306.90	11.72	-32.6	-33.3	25.0	0.00e+00	0	29	0	2848980992	38	5944
2026-01-11 20:28:41.00	306.74	11.67	-32.6	-33.3	24.9	0.00e+00	0	29	0	2854223872	38	5955
2026-01-11 20:28:42.01	306.59	11.62	-32.7	-33.4	24.8	0.00e+00	0	29	0	2860515328	38	6019
2026-01-11 20:28:43.02	306.43	11.56	-32.8	-33.4	24.6	0.00e+00	0	29	0	2865758208	38	6003
2026-01-11 20:28:44.03	306.28	11.51	-32.8	-33.5	24.7	0.00e+00	0	29	0	2871001088	38	6076
2026-01-11 20:28:45.04	306.12	11.45	-32.8	-33.4	24.6	0.00e+00	0	29	0	2877292544	38	6000
2026-01-11 20:28:46.05	305.97	11.40	-32.9	-33.6	24.7	0.00e+00	0	29	0	2882535424	38	6146
2026-01-11 20:28:47.06	305.81	11.34	-33.2	-33.9	24.4	0.00e+00	0	29	0	2888826880	38	6382
2026-01-11 20:28:48.07	305.66	11.29	-33.0	-33.7	24.7	0.00e+00	0	29	0	2894069760	38	6227
2026-01-11 20:28:49.08	305.51	11.23	-33.1	-33.7	24.6	0.00e+00	0	29	0	2900361216	38	6217
2026-01-11 20:28:50.09	305.36	11.18	-33.2	-33.8	24.5	0.00e+00	0	29	0	2905604096	38	6274
2026-01-11 20:28:51.09	305.21	11.13	-33.1	-33.8	24.6	0.00e+00	0	29	0	2910846976	38	6260
2026-01-11 20:28:52.10	305.06	11.07	-33.1	-33.9	24.7	0.00e+00	0	29	0	2917138432	38	6351
2026-01-11 20:28:53.11	304.91	11.02	-33.0	-33.8	24.7	0.00e+00	0	29	0	2922381312	38	6260
2026-01-11 20:28:54.12	304.76	10.96	-33.0	-33.8	24.7	0.00e+00	0	29	0	2928672768	38	6266
2026-01-11 20:28:55.13	304.61	10.91	-33.1	-33.8	24.7	0.00e+00	0	29	0	2933915648	38	6251
2026-01-11 20:28:56.14	304.46	10.85	-33.1	-33.8	24.6	0.00e+00	0	29	0	2939158528	38	6269
2026-01-11 20:28:57.15	304.31	10.80	-33.2	-33.8	24.6	0.00e+00	0	29	0	2945449984	38	6285
2026-01-11 20:28:58.16	304.17	10.74	-33.2	-34.0	24.5	0.00e+00	0	29	0	2950692864	38	6406
2026-01-11 20:28:59.17	304.02	10.68	-33.2	-33.9	24.5	0.00e+00	0	29	0	2956984320	38	6362
2026-01-11 20:29:00.18	303.87	10.63	-33.2	-33.9	24.6	0.00e+00	0	29	0	2962227200	38	6359
2026-01-11 20:29:01.18	303.73	10.57	-33.2	-33.9	24.6	0.00e+00	0	29	0	2967470080	38	6323
2026-01-11 20:29:02.19	303.58	10.52	-33.2	-33.8	24.6	0.00e+00	0	29	0	2973761536	38	6261
2026-01-11 20:29:03.20	303.44	10.46	-33.1	-33.9	24.6	0.00e+00	0	29	0	2979004416	38	6339
2026-01-11 20:29:04.21	303.30	10.41	-33.1	-33.8	24.7	0.00e+00	0	29	0	2985295872	38	6308
2026-01-11 20:29:05.22	303.15	10.35	-33.1	-33.8	24.6	0.00e+00	0	29	0	2990538752	38	6289
2026-01-11 20:29:06.23	303.01	10.30	-33.2	-33.9	24.5	0.00e+00	0	29	0	2996830208	38	6324
2026-01-11 20:29:07.24	302.87	10.24	-33.3	-34.0	24.4	0.00e+00	0	29	0	3002073088	38	6459
2026-01-11 20:29:08.25	302.73	10.18	-33.5	-34.3	24.2	0.00e+00	0	29	0	3007315968	38	6627
2026-01-11 20:29:09.26	302.59	10.13	-33.8	-34.4	24.0	0.00e+00	0	30	0	3013607424	40	6003
2026-01-11 20:29:10.27	302.44	10.07	-33.5	-34.1	24.2	0.00e+00	0	29	0	3018850304	40	5807
2026-01-11 20:29:11.28	302.30	10.02	-33.5	-34.1	24.2	0.00e+00	0	30	0	3025141760	40	5807
2026-01-11 20:29:12.29	302.17	9.96	-33.4	-34.2	24.2	0.00e+00	0	30	0	3030384640	40	5850
2026-01-11 20:29:13.30	302.03	9.90	-33.4	-34.1	24.3	0.00e+00	0	29	0	3035627520	40	5819
2026-01-11 20:29:14.31	301.89	9.85	-33.4	-34.1	24.3	0.00e+00	0	29	0	3041918976	40	5815
2026-01-11 20:29:15.32	301.75	9.79	-33.4	-34.2	24.2	0.00e+00	0	30	0	3047161856	40	5854
2026-01-11 20:29:16.33	301.61	9.74	-33.4	-34.2	24.2	0.00e+00	0	29	0	3053453312	40	5860
2026-01-11 20:29:17.34	301.48	9.68	-33.7	-34.4	23.9	0.00e+00	0	29	0	3058696192	40	5997
2026-01-11 20:29:18.35	301.34	9.62	-33.7	-34.3	24.0	0.00e+00	0	29	0	3063939072	40	5945
2026-01-11 20:29:19.36	301.20	9.57	-33.6	-34.4	23.9	0.00e+00	0	29	0	3070230528	40	6024
2026-01-11 20:29:20.37	301.07	9.51	-33.6	-34.3	23.9	0.00e+00	0	30	0	3075473408	40	5902
2026-01-11 20:29:21.38	300.94	9.46	-33.5	-34.2	24.1	0.00e+00	0	30	0	3081764864	40	5849
2026-01-11 20:29:22.39	300.80	9.40	-33.5	-34.3	24.1	0.00e+00	0	30	0	3087007744	40	5921
2026-01-11 20:29:23.40	300.67	9.34	-33.5	-34.3	24.1	0.00e+00	0	30	0	3093299200	40	5918
2026-01-11 20:29:24.41	300.53	9.29	-33.6	-34.3	24.0	0.00e+00	0	29	0	3098542080	40	5930
2026-01-11 20:29:25.42	300.40	9.23	-33.3	-34.1	24.2	0.00e+00	0	30	0	3104833536	40	5794
2026-01-11 20:29:26.43	300.27	9.17	-33.5	-34.1	24.2	0.00e+00	0	29	0	3110076416	40	5811
2026-01-11 20:29:27.44	300.14	9.12	-33.5	-34.2	24.2	0.00e+00	0	29	0	3115319296	40	5840
2026-01-11 20:29:28.45	300.01	9.06	-33.4	-34.0	24.3	0.00e+00	0	29	0	3121610752	40	5731
2026-01-11 20:29:29.46	299.88	9.00	-33.6	-34.3	24.1	0.00e+00	0	30	0	3126853632	40	5947
2026-01-11 20:29:30.47	299.75	8.95	-33.7	-34.5	23.9	0.00e+00	0	29	0	3133145088	40	6043
2026-01-11 20:29:31.48	299.62	8.89	-33.5	-34.2	24.0	0.00e+00	0	30	0	3138387968	40	5854
2026-01-11 20:29:32.49	299.49	8.84	-33.5	-34.2	24.0	0.00e+00	0	29	0	3143630848	40	5852
2026-01-11 20:29:33.50	299.36	8.78	-33.6	-34.2	23.9	0.00e+00	0	30	0	3149922304	40	5873
2026-01-11 20:29:34.51	299.23	8.72	-33.6	-34.4	23.9	0.00e+00	0	30	0	3155165184	40	5990
2026-01-11 20:29:35.52	299.11	8.67	-33.5	-34.3	24.1	0.00e+00	0	29	0	3161456640	40	5925
2026-01-11 20:29:36.53	298.98	8.61	-33.5	-34.1	24.1	0.00e+00	0	30	0	3166699520	40	5803
2026-01-11 20:29:37.54	298.85	8.55	-33.6	-34.2	24.0	0.00e+00	0	30	0	3171942400	40	5893
2026-01-11 20:29:38.55	298.73	8.50	-33.7	-34.5	23.9	0.00e+00	0	30	0	3178233856	40	6087
2026-01-11 20:29:39.56	298.60	8.44	-33.7	-34.5	23.8	0.00e+00	0	30	0	3183476736	40	6052
2026-01-11 20:29:40.57	298.48	8.38	-33.8	-34.4	23.7	0.00e+00	0	30	0	3189768192	40	6023
2026-01-11 20:29:41.58	298.35	8.33	-33.8	-34.4	23.8	0.00e+00	0	30	0	3195011072	40	6017
2026-01-11 20:29:42.59	298.23	8.27	-33.7	-34.4	23.8	0.00e+00	0	30	0	3201302528	40	6018
2026-01-11 20:29:43.60	298.10	8.21	-33.8	-34.6	23.8	0.00e+00	0	30	0	3206545408	40	6123
2026-01-11 20:29:44.61	297.98	8.16	-34.0	-34.8	23.6	0.00e+00	0	30	0	3212836864	40	6281
2026-01-11 20:29:45.62	297.86	8.10	-33.8	-34.5	23.7	0.00e+00	0	30	0	3218079744	40	6040
2026-01-11 20:29:46.63	297.74	8.04	-33.9	-34.6	23.7	0.00e+00	0	29	0	3223322624	40	6143
2026-01-11 20:29:47.64	297.62	7.99	-34.0	-34.7	23.6	0.00e+00	0	30	0	3229614080	40	6211
2026-01-11 20:29:48.65	297.50	7.93	-34.0	-34.8	23.5	0.00e+00	0	29	0	3234856960	40	6267
2026-01-11 20:29:49.66	297.37	7.87	-34.1	-34.7	23.5	0.00e+00	0	29	0	3240099840	40	6240
2026-01-11 20:29:50.67	297.25	7.82	-34.2	-35.0	23.3	0.00e+00	0	30	0	3246391296	40	6448
2026-01-11 20:29:51.68	297.14	7.76	-34.2	-35.0	23.3	0.00e+00	0	30	0	3251634176	40	6444
2026-01-11 20:29:52.69	297.02	7.71	-34.2	-35.0	23.4	0.00e+00	0	30	0	3257925632	40	6401
2026-01-11 20:29:53.70	296.90	7.65	-34.2	-35.0	23.3	0.00e+00	0	30	0	3263168512	40	6394
2026-01-11 20:29:54.71	296.78	7.59	-34.2	-35.0	23.3	0.00e+00	0	29	0	3268411392	40	6454
2026-01-11 20:29:55.72	296.66	7.54	-34.3	-35.0	23.3	0.00e+00	0	30	0	3274702848	40	6411
2026-01-11 20:29:56.73	296.54	7.48	-34.3	-35.0	23.1	0.00e+00	0	29	0	3279945728	40	6431
2026-01-11 20:29:57.73	296.43	7.42	-34.2	-35.0	23.2	0.00e+00	0	29	0	3286237184	40	6432
2026-01-11 20:29:58.74	296.31	7.37	-34.3	-35.1	23.2	0.00e+00	0	30	0	3291480064	40	6529
2026-01-11 20:29:59.76	296.20	7.31	-34.2	-35.0	23.2	0.00e+00	0	30	0	3297771520	40	6461
2026-01-11 20:30:00.76	296.08	7.25	-34.2	-34.9	23.3	0.00e+00	0	29	0	3303014400	40	6363
2026-01-11 20:30:01.77	295.97	7.20	-34.2	-35.0	23.3	0.00e+00	0	30	0	3309305856	40	6442
2026-01-11 20:30:02.78	295.85	7.14	-34.3	-35.0	23.1	0.00e+00	0	30	0	3314548736	40	6423
2026-01-11 20:30:03.79	295.74	7.09	-34.2	-35.0	23.3	0.00e+00	0	30	0	3319791616	40	6451
2026-01-11 20:30:04.80	295.63	7.03	-34.2	-34.9	23.3	0.00e+00	0	30	0	3326083072	40	6324
2026-01-11 20:30:05.81	295.51	6.97	-34.4	-35.1	23.0	0.00e+00	0	30	0	3331325952	40	6508
2026-01-11 20:30:06.82	295.40	6.92	-34.2	-35.0	23.4	0.00e+00	0	30	0	3337617408	40	6400
2026-01-11 20:30:07.83	295.29	6.86	-34.2	-35.0	23.2	0.00e+00	0	30	0	3342860288	40	6461
2026-01-11 20:30:08.84	295.18	6.80	-34.2	-34.8	23.3	0.00e+00	0	30	0	3348103168	40	6313
2026-01-11 20:30:09.85	295.06	6.75	-34.4	-35.1	23.0	0.00e+00	0	30	0	3354394624	40	6504
2026-01-11 20:30:10.86	294.95	6.69	-34.6	-35.3	22.9	0.00e+00	0	30	0	3359637504	40	6682
2026-01-11 20:30:11.87	294.84	6.64	-34.2	-34.9	23.3	0.00e+00	0	30	0	3365928960	40	6382
2026-01-11 20:30:12.88	294.73	6.58	-34.4	-35.1	23.0	0.00e+00	0	29	0	3371171840	40	6474
2026-01-11 20:30:13.89	294.62	6.52	-34.4	-35.1	23.1	0.00e+00	0	30	0	3376414720	40	6517
2026-01-11 20:30:14.90	294.51	6.47	-34.4	-35.3	23.1	0.00e+00	0	30	0	3382706176	40	6623
2026-01-11 20:30:15.91	294.41	6.41	-34.4	-35.3	23.0	0.00e+00	0	30	0	3387949056	40	6626
2026-01-11 20:30:16.91	294.30	6.35	-34.4	-35.1	23.0	0.00e+00	0	30	0	3394240512	40	6514
2026-01-11 20:30:17.93	294.19	6.30	-34.6	-35.3	22.9	0.00e+00	0	30	0	3399483392	40	6629
2026-01-11 20:30:18.93	294.08	6.24	-34.7	-35.5	22.8	0.00e+00	0	30	0	3405774848	42	6074
2026-01-11 20:30:19.94	293.98	6.19	-34.5	-35.3	22.9	0.00e+00	0	30	0	3411017728	42	5945
2026-01-11 20:30:20.95	293.87	6.13	-34.6	-35.4	22.8	0.00e+00	0	30	0	3416260608	42	5977
2026-01-11 20:30:21.96	293.76	6.07	-34.6	-35.3	22.8	0.00e+00	0	30	0	3422552064	42	5962
2026-01-11 20:30:22.97	293.66	6.02	-34.8	-35.6	22.5	0.00e+00	0	30	0	3427794944	42	6134
2026-01-11 20:30:23.98	293.55	5.96	-34.8	-35.5	22.6	0.00e+00	0	30	0	3434086400	42	6049
2026-01-11 20:30:24.99	293.45	5.91	-34.8	-35.5	22.6	0.00e+00	0	30	0	3439329280	42	6097
2026-01-11 20:30:26.00	293.34	5.85	-34.7	-35.5	22.8	0.00e+00	0	30	0	3444572160	42	6075
2026-01-11 20:30:27.01	293.24	5.80	-35.0	-35.8	22.3	0.00e+00	0	30	0	3450863616	42	6296
2026-01-11 20:30:28.02	293.14	5.74	-34.8	-35.6	22.5	0.00e+00	0	30	0	3456106496	42	6127
2026-01-11 20:30:29.03	293.03	5.68	-34.9	-35.8	22.5	0.00e+00	0	30	0	3462397952	42	6274
2026-01-11 20:30:30.04	292.93	5.63	-35.0	-35.8	22.5	0.00e+00	0	30	0	3467640832	42	6286
2026-01-11 20:30:31.05	292.83	5.57	-34.7	-35.6	22.5	0.00e+00	0	30	0	3472883712	42	6104
2026-01-11 20:30:32.06	292.73	5.52	-34.8	-35.5	22.5	0.00e+00	0	30	0	3479175168	42	6094
2026-01-11 20:30:33.07	292.62	5.46	-34.7	-35.5	22.7	0.00e+00	0	30	0	3484418048	42	6040
2026-01-11 20:30:34.08	292.52	5.41	-35.1	-35.8	22.3	0.00e+00	0	30	0	3490709504	42	6285
2026-01-11 20:30:35.09	292.42	5.35	-35.0	-35.9	22.3	0.00e+00	0	30	0	3495952384	42	6335
2026-01-11 20:30:36.09	292.32	5.29	-35.1	-36.0	22.3	0.00e+00	0	30	0	3502243840	42	6421
2026-01-11 20:30:37.10	292.22	5.24	-35.2	-36.0	22.2	0.00e+00	0	30	0	3507486720	42	6406
2026-01-11 20:30:38.11	292.12	5.18	-35.0	-35.8	22.3	0.00e+00	0	30	0	3513778176	42	6317
2026-01-11 20:30:39.12	292.02	5.13	-35.0	-35.7	22.3	0.00e+00	0	30	0	3519021056	42	6236
2026-01-11 20:30:40.13	291.92	5.07	-35.1	-36.0	22.2	0.00e+00	0	30	0	3524263936	42	6426
2026-01-11 20:30:41.15	291.82	5.02	-35.2	-35.9	22.0	0.00e+00	0	30	0	3530555392	42	6359
2026-01-11 20:30:42.15	291.73	4.96	-35.2	-36.0	22.1	0.00e+00	0	30	0	3535798272	42	6418
2026-01-11 20:30:43.16	291.63	4.91	-35.2	-36.1	22.1	0.00e+00	0	30	0	3542089728	42	6472
2026-01-11 20:30:44.17	291.53	4.85	-35.0	-35.8	22.1	0.00e+00	0	30	0	3547332608	42	6256
2026-01-11 20:30:45.18	291.44	4.80	-34.9	-35.8	22.3	0.00e+00	0	30	0	3552575488	42	6246
2026-01-11 20:30:46.19	291.34	4.74	-35.1	-35.8	22.2	0.00e+00	0	30	0	3558866944	42	6266
2026-01-11 20:30:47.20	291.24	4.69	-35.0	-35.9	22.2	0.00e+00	0	30	0	3564109824	42	6335
2026-01-11 20:30:48.21	291.15	4.63	-35.2	-36.1	22.1	0.00e+00	0	30	0	3569352704	42	6474
2026-01-11 20:30:49.22	291.05	4.58	-35.2	-35.9	22.1	0.00e+00	0	30	0	3575644160	42	6370
2026-01-11 20:30:50.23	290.96	4.52	-35.0	-35.8	22.1	0.00e+00	0	30	0	3580887040	42	6248
2026-01-11 20:30:51.23	290.86	4.47	-35.3	-36.1	21.8	0.00e+00	0	30	0	3587178496	42	6465
2026-01-11 20:30:52.24	290.77	4.41	-35.3	-36.0	21.8	0.00e+00	0	30	0	3592421376	42	6432
