passes_logs/2026/01/11/R4.6S_Anadyr/R4.6S_Anadyr__20260111_005419_NOAA_20_JPSS-1_rec.log

#Pass ID: 20260111_005419_NOAA 20 (JPSS-1)
#Satellite: NOAA 20 (JPSS-1)
#Configuration: NOAA 20
#almurnet v.1.7.20251203
#Start time: 2026-01-11 00:54:21

#Version: 2.2.20231116
#Station: R4.6S_Anadyr
#Location: 177.4865 lon 64.73178 lat
#TLE: 1 43013U 17073A   26009.69119415  .00000109  00000+0  72598-4 0  9996
#TLE: 2 43013  98.7631 310.6868 0001678  46.7442 313.3874 14.19534878421981

#Time	Az	El	Level	Level2	SNR	BER	BlckErr	Temp	State	Recorded	gain1	gain2
2026-01-11 00:54:21.75	173.61	0.15	-47.8	-62.8	3.5	1.51e+00	0	25	0	0	60	49800
2026-01-11 00:54:22.75	173.63	0.21	-47.9	-63.1	3.6	1.51e+00	0	26	104	0	60	51446
2026-01-11 00:54:23.76	173.66	0.27	-47.9	-63.1	3.6	1.51e+00	0	26	104	0	60	51461
2026-01-11 00:54:24.78	173.68	0.33	-48.0	-63.2	3.6	1.51e+00	0	26	104	0	60	51988
2026-01-11 00:54:25.78	173.71	0.39	-48.0	-63.2	3.6	1.51e+00	0	26	104	0	60	52038
2026-01-11 00:54:26.79	173.73	0.45	-47.8	-63.2	3.6	1.51e+00	0	26	104	0	60	52352
2026-01-11 00:54:27.80	173.76	0.51	-48.0	-63.1	3.6	1.51e+00	0	26	104	0	60	51900
2026-01-11 00:54:28.81	173.78	0.57	-47.9	-63.2	3.6	1.51e+00	0	26	104	0	60	52053
2026-01-11 00:54:29.82	173.81	0.63	-47.8	-63.1	3.6	1.51e+00	0	26	104	0	60	51718
2026-01-11 00:54:30.83	173.83	0.69	-47.9	-63.1	3.6	1.51e+00	0	26	104	0	60	51810
2026-01-11 00:54:31.84	173.86	0.75	-48.0	-63.2	3.6	1.51e+00	0	26	104	0	60	51991
2026-01-11 00:54:32.85	173.88	0.82	-48.0	-63.2	3.6	1.51e+00	0	26	104	0	60	52192
2026-01-11 00:54:33.86	173.91	0.88	-47.9	-63.2	3.6	1.51e+00	0	26	104	0	60	52154
2026-01-11 00:54:34.87	173.93	0.94	-47.9	-63.1	3.6	1.51e+00	0	26	104	0	60	51560
2026-01-11 00:54:35.88	173.96	1.00	-47.8	-63.0	3.6	1.51e+00	0	26	104	0	60	51240
2026-01-11 00:54:36.88	173.98	1.06	-47.8	-62.9	3.6	1.51e+00	0	26	104	0	60	50602
2026-01-11 00:54:37.90	174.01	1.12	-47.7	-62.9	3.6	1.51e+00	0	26	104	0	60	50270
2026-01-11 00:54:38.91	174.03	1.18	-47.5	-62.7	3.6	1.51e+00	0	26	104	0	60	49399
2026-01-11 00:54:39.92	174.06	1.25	-47.3	-62.5	3.6	1.51e+00	0	26	104	0	60	48099
2026-01-11 00:54:40.93	174.09	1.31	-46.9	-62.1	3.6	1.51e+00	0	26	104	0	60	45802
2026-01-11 00:54:41.94	174.11	1.37	-46.4	-61.3	3.6	1.51e+00	0	27	104	0	60	41959
2026-01-11 00:54:42.95	174.14	1.43	-46.4	-61.3	3.6	1.51e+00	0	27	104	0	60	41936
2026-01-11 00:54:43.96	174.16	1.50	-46.4	-61.1	3.6	1.51e+00	0	27	104	0	60	40876
2026-01-11 00:54:44.97	174.19	1.56	-46.3	-61.0	3.5	1.51e+00	0	27	104	0	60	40646
2026-01-11 00:54:45.98	174.22	1.62	-46.3	-60.8	3.6	1.51e+00	0	27	104	0	60	39693
2026-01-11 00:54:46.99	174.24	1.69	-46.3	-60.9	3.6	1.51e+00	0	27	104	0	60	40049
2026-01-11 00:54:48.00	174.27	1.75	-46.4	-61.1	3.6	1.51e+00	0	27	104	0	60	40816
2026-01-11 00:54:49.01	174.30	1.81	-46.3	-61.1	3.6	1.51e+00	0	27	104	0	60	41197
2026-01-11 00:54:50.01	174.32	1.87	-46.3	-61.2	3.6	1.51e+00	0	27	104	0	60	41695
2026-01-11 00:54:51.02	174.35	1.94	-46.4	-61.3	3.6	1.51e+00	0	27	104	0	60	42153
2026-01-11 00:54:52.03	174.38	2.00	-46.4	-61.4	3.6	1.51e+00	0	27	104	0	60	42376
2026-01-11 00:54:53.04	174.40	2.07	-46.4	-61.4	3.6	1.51e+00	0	27	104	0	60	42466
2026-01-11 00:54:54.05	174.43	2.13	-46.4	-61.4	3.6	1.51e+00	0	27	104	0	60	42470
2026-01-11 00:54:55.06	174.46	2.19	-46.4	-61.4	3.6	1.51e+00	0	27	104	0	60	42637
2026-01-11 00:54:56.07	174.49	2.26	-46.4	-61.5	3.6	1.51e+00	0	27	104	0	60	42971
2026-01-11 00:54:57.08	174.51	2.32	-46.4	-61.5	3.6	1.51e+00	0	27	104	0	60	42975
2026-01-11 00:54:58.09	174.54	2.39	-46.4	-61.4	3.6	1.51e+00	0	27	104	0	60	42304
2026-01-11 00:54:59.10	174.57	2.45	-46.4	-61.2	3.6	1.51e+00	0	27	104	0	60	41275
2026-01-11 00:55:00.11	174.60	2.52	-46.3	-60.7	3.6	1.51e+00	0	27	104	0	60	39151
2026-01-11 00:55:01.12	174.62	2.58	-46.3	-60.1	3.6	1.51e+00	0	27	104	0	60	36722
2026-01-11 00:55:02.13	174.65	2.65	-46.3	-59.8	3.6	1.51e+00	0	27	104	0	60	35427
2026-01-11 00:55:03.14	174.68	2.71	-46.3	-60.0	3.6	1.51e+00	0	27	104	0	60	36145
2026-01-11 00:55:04.15	174.71	2.78	-46.3	-60.5	3.6	1.51e+00	0	27	104	0	60	38264
2026-01-11 00:55:05.16	174.74	2.84	-46.3	-61.4	3.6	1.51e+00	0	27	104	0	60	42256
2026-01-11 00:55:06.17	174.77	2.91	-46.3	-60.4	3.6	1.51e+00	0	27	104	0	60	37868
2026-01-11 00:55:07.18	174.79	2.97	-46.1	-57.3	3.9	1.50e+00	0	27	104	0	60	26590
2026-01-11 00:55:08.19	174.82	3.04	-45.8	-53.6	6.3	6.60e-01	92	27	0	0	60	17376
2026-01-11 00:55:09.20	174.85	3.11	-44.8	-49.7	10.4	2.13e-02	92	27	0	2097152	60	11077
2026-01-11 00:55:10.21	174.88	3.17	-43.9	-47.5	12.9	4.94e-04	0	27	0	3145728	60	8593
2026-01-11 00:55:11.22	174.91	3.24	-42.4	-45.0	15.4	6.10e-06	90	27	0	5242880	58	7232
2026-01-11 00:55:12.22	174.94	3.30	-41.4	-43.5	17.1	0.00e+00	92	27	0	7340032	56	6787
2026-01-11 00:55:13.23	174.97	3.37	-40.7	-42.5	18.1	0.00e+00	92	27	0	9437184	56	6090
2026-01-11 00:55:14.24	175.00	3.44	-39.7	-41.2	19.1	0.00e+00	92	27	0	11534336	54	5885
2026-01-11 00:55:15.25	175.03	3.50	-39.6	-41.0	19.4	0.00e+00	80	27	0	13631488	52	6445
2026-01-11 00:55:16.26	175.06	3.57	-39.0	-40.4	20.1	0.00e+00	92	27	0	14680064	52	5968
2026-01-11 00:55:17.27	175.09	3.64	-39.4	-40.8	19.6	0.00e+00	59	27	0	16777216	52	6282
2026-01-11 00:55:18.28	175.12	3.71	-39.8	-41.3	19.2	0.00e+00	90	27	0	18874368	52	6636
2026-01-11 00:55:19.29	175.15	3.77	-40.0	-41.6	19.1	0.00e+00	45	27	0	20971520	52	6889
2026-01-11 00:55:20.30	175.18	3.84	-39.5	-40.9	19.4	0.00e+00	92	27	0	23068672	52	6356
2026-01-11 00:55:21.31	175.21	3.91	-41.4	-43.4	18.6	0.00e+00	92	27	0	24117248	56	6725
2026-01-11 00:55:22.32	175.24	3.98	-46.3	-59.2	3.8	1.29e+00	0	27	104	25165824	60	33152
2026-01-11 00:55:23.33	175.27	4.05	-42.9	-45.8	15.1	1.39e+00	92	27	104	25165824	60	7024
2026-01-11 00:55:24.34	175.30	4.12	-44.9	-49.2	12.1	3.96e-05	0	27	0	25165824	60	10434
2026-01-11 00:55:25.35	175.33	4.18	-41.6	-43.5	17.5	0.00e+00	92	27	0	27262976	56	6831
2026-01-11 00:55:26.36	175.36	4.25	-41.5	-43.5	17.2	0.00e+00	0	27	0	29360128	56	6784
2026-01-11 00:55:27.37	175.39	4.32	-40.5	-42.2	18.6	0.00e+00	90	27	0	31457280	54	6567
2026-01-11 00:55:28.38	175.42	4.39	-39.8	-41.3	19.3	0.00e+00	90	27	0	33554432	54	5954
2026-01-11 00:55:29.39	175.45	4.46	-39.4	-40.8	19.8	0.00e+00	92	27	0	34603008	52	6284
2026-01-11 00:55:30.40	175.48	4.53	-39.3	-40.7	20.0	0.00e+00	90	27	0	36700160	52	6177
2026-01-11 00:55:31.40	175.52	4.60	-39.3	-40.7	20.0	0.00e+00	0	27	0	38797312	52	6199
2026-01-11 00:55:32.41	175.55	4.67	-39.0	-40.3	20.4	0.00e+00	92	27	0	40894464	52	5900
2026-01-11 00:55:33.42	175.58	4.74	-38.7	-40.0	20.7	0.00e+00	45	27	0	42991616	50	6404
2026-01-11 00:55:34.43	175.61	4.81	-38.7	-40.0	20.6	0.00e+00	92	27	0	44040192	50	6423
2026-01-11 00:55:35.44	175.64	4.88	-38.7	-39.9	20.8	0.00e+00	90	27	0	46137344	50	6362
2026-01-11 00:55:36.45	175.67	4.95	-38.7	-39.9	20.6	0.00e+00	90	27	0	48234496	50	6373
2026-01-11 00:55:37.46	175.71	5.02	-38.7	-39.9	20.8	0.00e+00	92	27	0	50331648	50	6379
2026-01-11 00:55:38.47	175.74	5.09	-38.7	-40.0	20.8	0.00e+00	5	27	0	52428800	50	6423
2026-01-11 00:55:39.48	175.77	5.16	-38.7	-40.0	20.7	0.00e+00	92	27	0	53477376	50	6427
2026-01-11 00:55:40.49	175.81	5.23	-38.5	-39.8	20.9	0.00e+00	6	27	0	55574528	50	6263
2026-01-11 00:55:41.50	175.84	5.31	-38.6	-39.9	20.9	0.00e+00	92	27	0	57671680	50	6323
2026-01-11 00:55:42.51	175.87	5.38	-38.7	-39.9	20.8	0.00e+00	55	27	0	59768832	50	6390
2026-01-11 00:55:43.52	175.90	5.45	-38.7	-39.9	21.0	0.00e+00	91	27	0	61865984	50	6367
2026-01-11 00:55:44.53	175.94	5.52	-38.5	-39.7	21.0	0.00e+00	90	28	0	62914560	50	6245
2026-01-11 00:55:45.54	175.97	5.59	-38.4	-39.6	21.1	0.00e+00	92	27	0	65011712	50	6140
2026-01-11 00:55:46.55	176.01	5.67	-38.5	-39.7	21.1	0.00e+00	91	27	0	67108864	50	6180
2026-01-11 00:55:47.56	176.04	5.74	-38.5	-39.7	21.0	0.00e+00	0	27	0	69206016	50	6224
2026-01-11 00:55:48.56	176.07	5.81	-38.4	-39.6	21.1	0.00e+00	90	28	0	71303168	50	6104
2026-01-11 00:55:49.57	176.11	5.89	-38.6	-39.8	21.1	0.00e+00	13	27	0	73400320	50	6279
2026-01-11 00:55:50.59	176.14	5.96	-38.4	-39.6	21.2	0.00e+00	91	28	0	74448896	50	6110
2026-01-11 00:55:51.59	176.18	6.03	-38.2	-39.4	21.3	0.00e+00	92	27	0	76546048	50	6001
2026-01-11 00:55:52.60	176.21	6.11	-38.3	-39.5	21.3	0.00e+00	90	28	0	78643200	50	6036
2026-01-11 00:55:53.61	176.25	6.18	-38.4	-39.6	21.2	0.00e+00	92	27	0	80740352	50	6106
2026-01-11 00:55:54.62	176.28	6.25	-38.3	-39.4	21.4	0.00e+00	58	28	0	82837504	50	6019
2026-01-11 00:55:55.63	176.32	6.33	-38.4	-39.6	21.3	0.00e+00	92	28	0	83886080	50	6107
2026-01-11 00:55:56.64	176.35	6.40	-38.3	-39.4	21.4	0.00e+00	35	28	0	85983232	50	6028
2026-01-11 00:55:57.65	176.39	6.48	-38.3	-39.4	21.4	0.00e+00	92	28	0	88080384	50	6012
2026-01-11 00:55:58.66	176.42	6.55	-38.2	-39.3	21.5	0.00e+00	92	28	0	90177536	50	5925
2026-01-11 00:55:59.67	176.46	6.63	-38.2	-39.3	21.4	0.00e+00	92	28	0	92274688	50	5940
2026-01-11 00:56:00.68	176.49	6.70	-38.2	-39.3	21.5	0.00e+00	92	28	0	93323264	50	5922
2026-01-11 00:56:01.69	176.53	6.78	-38.2	-39.4	21.5	0.00e+00	92	27	0	95420416	50	5970
2026-01-11 00:56:02.69	176.57	6.85	-38.2	-39.3	21.5	0.00e+00	90	27	0	97517568	50	5951
2026-01-11 00:56:03.70	176.60	6.93	-38.1	-39.2	21.7	0.00e+00	20	28	0	99614720	50	5840
2026-01-11 00:56:04.71	176.64	7.01	-38.1	-39.3	21.6	0.00e+00	90	28	0	101711872	50	5925
2026-01-11 00:56:05.72	176.67	7.08	-38.1	-39.3	21.6	0.00e+00	88	28	0	102760448	50	5914
2026-01-11 00:56:06.73	176.71	7.16	-38.1	-39.2	21.6	0.00e+00	92	28	0	104857600	50	5873
2026-01-11 00:56:07.74	176.75	7.23	-38.0	-39.2	21.8	0.00e+00	92	28	0	106954752	50	5832
2026-01-11 00:56:08.75	176.79	7.31	-38.0	-39.1	21.7	0.00e+00	92	28	0	109051904	50	5820
2026-01-11 00:56:09.76	176.82	7.39	-37.9	-39.0	21.8	0.00e+00	92	28	0	111149056	50	5720
2026-01-11 00:56:10.77	176.86	7.47	-37.9	-39.0	21.9	0.00e+00	66	28	0	112197632	50	5722
2026-01-11 00:56:11.78	176.90	7.54	-37.8	-38.9	22.0	0.00e+00	90	28	0	114294784	50	5657
2026-01-11 00:56:12.78	176.94	7.62	-37.8	-38.9	22.0	0.00e+00	0	28	0	116391936	50	5658
2026-01-11 00:56:13.79	176.98	7.70	-37.8	-38.9	22.0	0.00e+00	90	28	0	118489088	50	5639
2026-01-11 00:56:14.80	177.01	7.78	-37.7	-38.8	22.1	0.00e+00	91	28	0	120586240	48	6261
2026-01-11 00:56:15.81	177.05	7.86	-37.7	-38.7	22.1	0.00e+00	92	28	0	121634816	48	6240
2026-01-11 00:56:16.82	177.09	7.94	-37.8	-38.8	22.0	0.00e+00	92	28	0	123731968	48	6313
2026-01-11 00:56:17.83	177.13	8.02	-37.9	-39.0	21.9	0.00e+00	91	28	0	125829120	48	6431
2026-01-11 00:56:18.84	177.17	8.09	-37.7	-38.7	22.2	0.00e+00	91	28	0	127926272	48	6197
2026-01-11 00:56:19.85	177.21	8.17	-37.7	-38.7	22.1	0.00e+00	60	28	0	130023424	48	6225
2026-01-11 00:56:20.86	177.25	8.25	-37.6	-38.7	22.2	0.00e+00	90	28	0	131072000	48	6197
2026-01-11 00:56:21.87	177.29	8.33	-37.8	-38.8	22.0	0.00e+00	92	28	0	133169152	48	6301
2026-01-11 00:56:22.88	177.33	8.41	-37.5	-38.5	22.3	0.00e+00	92	28	0	135266304	48	6096
2026-01-11 00:56:23.89	177.37	8.50	-37.5	-38.5	22.3	0.00e+00	92	28	0	137363456	48	6087
2026-01-11 00:56:24.90	177.41	8.58	-37.6	-38.6	22.4	0.00e+00	92	28	0	139460608	48	6119
2026-01-11 00:56:25.91	177.45	8.66	-37.5	-38.5	22.4	0.00e+00	92	28	0	140509184	48	6065
2026-01-11 00:56:26.92	177.49	8.74	-37.5	-38.5	22.4	0.00e+00	0	28	0	142606336	48	6099
2026-01-11 00:56:27.92	177.53	8.82	-37.4	-38.4	22.5	0.00e+00	92	28	0	144703488	48	6012
2026-01-11 00:56:28.93	177.57	8.90	-37.5	-38.6	22.4	0.00e+00	35	28	0	146800640	48	6113
2026-01-11 00:56:29.94	177.61	8.98	-37.5	-38.5	22.4	0.00e+00	91	28	0	148897792	48	6035
2026-01-11 00:56:30.95	177.65	9.07	-37.6	-38.6	22.3	0.00e+00	92	28	0	149946368	48	6119
2026-01-11 00:56:31.96	177.70	9.15	-37.4	-38.5	22.5	0.00e+00	92	28	0	152043520	48	6034
2026-01-11 00:56:32.97	177.74	9.23	-37.4	-38.4	22.5	0.00e+00	92	28	0	154140672	48	6029
2026-01-11 00:56:33.98	177.78	9.31	-37.4	-38.4	22.6	0.00e+00	61	28	0	156237824	48	5972
2026-01-11 00:56:34.99	177.82	9.40	-37.6	-38.7	22.3	0.00e+00	92	28	0	158334976	48	6175
2026-01-11 00:56:36.00	177.87	9.48	-37.4	-38.4	22.6	0.00e+00	0	28	0	159383552	48	5987
2026-01-11 00:56:37.01	177.91	9.57	-37.4	-38.4	22.5	0.00e+00	90	28	0	161480704	48	5993
2026-01-11 00:56:38.02	177.95	9.65	-37.4	-38.4	22.6	0.00e+00	91	28	0	163577856	48	5982
2026-01-11 00:56:39.03	178.00	9.73	-37.4	-38.4	22.6	0.00e+00	91	28	0	165675008	48	6002
2026-01-11 00:56:40.04	178.04	9.82	-37.3	-38.3	22.7	0.00e+00	91	28	0	167772160	48	5907
2026-01-11 00:56:41.05	178.08	9.90	-37.3	-38.3	22.7	0.00e+00	92	28	0	169869312	48	5932
2026-01-11 00:56:42.06	178.13	9.99	-37.3	-38.3	22.7	0.00e+00	92	28	0	170917888	48	5916
2026-01-11 00:56:43.08	178.17	10.08	-37.4	-38.4	22.6	0.00e+00	0	28	0	173015040	48	6033
2026-01-11 00:56:44.08	178.22	10.16	-37.4	-38.4	22.5	0.00e+00	92	28	0	175112192	48	6033
2026-01-11 00:56:45.09	178.26	10.25	-37.2	-38.2	22.7	0.00e+00	92	28	0	177209344	48	5868
2026-01-11 00:56:46.10	178.31	10.33	-37.3	-38.4	22.6	0.00e+00	92	28	0	179306496	48	5967
2026-01-11 00:56:47.11	178.35	10.42	-37.2	-38.1	22.8	0.00e+00	92	28	0	180355072	48	5820
2026-01-11 00:56:48.12	178.40	10.51	-37.1	-38.1	22.9	0.00e+00	92	28	0	182452224	48	5767
2026-01-11 00:56:49.13	178.44	10.60	-37.0	-38.0	23.0	0.00e+00	92	28	0	184549376	48	5736
2026-01-11 00:56:50.14	178.49	10.68	-37.0	-38.0	23.0	0.00e+00	7	28	0	186646528	48	5705
2026-01-11 00:56:51.15	178.54	10.77	-37.0	-38.0	23.0	0.00e+00	91	28	0	188743680	48	5702
2026-01-11 00:56:52.16	178.58	10.86	-36.9	-37.9	23.1	0.00e+00	39	28	0	189792256	48	5635
2026-01-11 00:56:53.17	178.63	10.95	-37.0	-37.9	23.0	0.00e+00	92	28	0	191889408	48	5677
2026-01-11 00:56:54.18	178.68	11.04	-36.9	-37.9	23.1	0.00e+00	92	28	0	193986560	48	5653
2026-01-11 00:56:55.19	178.72	11.13	-36.9	-37.8	23.2	0.00e+00	92	28	0	196083712	48	5608
2026-01-11 00:56:56.20	178.77	11.22	-36.8	-37.7	23.2	0.00e+00	92	28	0	198180864	48	5566
2026-01-11 00:56:57.21	178.82	11.31	-36.8	-37.8	23.2	0.00e+00	63	28	0	199229440	46	6254
2026-01-11 00:56:58.22	178.87	11.40	-36.8	-37.7	23.3	0.00e+00	92	28	0	201326592	46	6214
2026-01-11 00:56:59.23	178.92	11.49	-36.7	-37.6	23.4	0.00e+00	7	28	0	203423744	46	6170
2026-01-11 00:57:00.24	178.96	11.58	-36.8	-37.7	23.2	0.00e+00	90	28	0	205520896	46	6232
2026-01-11 00:57:01.25	179.01	11.67	-36.7	-37.6	23.4	0.00e+00	92	28	0	207618048	46	6148
2026-01-11 00:57:02.26	179.06	11.76	-36.7	-37.6	23.3	0.00e+00	91	28	0	208666624	46	6146
2026-01-11 00:57:03.27	179.11	11.85	-36.6	-37.5	23.5	0.00e+00	92	28	0	210763776	46	6069
2026-01-11 00:57:04.28	179.16	11.94	-36.7	-37.6	23.4	0.00e+00	91	28	0	212860928	46	6139
2026-01-11 00:57:05.28	179.21	12.04	-36.9	-37.8	23.2	0.00e+00	92	28	0	214958080	46	6315
2026-01-11 00:57:06.29	179.26	12.13	-36.8	-37.7	23.4	0.00e+00	0	28	0	217055232	46	6195
2026-01-11 00:57:07.30	179.31	12.22	-36.7	-37.6	23.4	0.00e+00	92	28	0	218103808	46	6153
2026-01-11 00:57:08.31	179.36	12.31	-36.6	-37.6	23.4	0.00e+00	90	28	0	220200960	46	6107
2026-01-11 00:57:09.32	179.42	12.41	-36.7	-37.7	23.4	0.00e+00	91	28	0	222298112	46	6188
2026-01-11 00:57:10.33	179.47	12.50	-36.6	-37.6	23.4	0.00e+00	90	28	0	224395264	46	6116
2026-01-11 00:57:11.34	179.52	12.60	-36.8	-37.7	23.4	0.00e+00	91	28	0	226492416	46	6204
2026-01-11 00:57:12.35	179.57	12.69	-36.8	-37.8	23.3	0.00e+00	90	28	0	227540992	46	6248
2026-01-11 00:57:13.36	179.62	12.79	-36.8	-37.8	23.4	0.00e+00	48	28	0	229638144	46	6246
2026-01-11 00:57:14.37	179.68	12.88	-36.8	-37.7	23.3	0.00e+00	92	28	0	231735296	46	6237
2026-01-11 00:57:15.38	179.73	12.98	-36.9	-37.8	23.3	0.00e+00	25	28	0	233832448	46	6278
2026-01-11 00:57:16.39	179.78	13.07	-36.8	-37.7	23.4	0.00e+00	92	28	0	235929600	46	6241
2026-01-11 00:57:17.40	179.84	13.17	-36.8	-37.8	23.4	0.00e+00	91	28	0	238026752	46	6252
2026-01-11 00:57:18.41	179.89	13.27	-36.9	-37.8	23.2	0.00e+00	92	28	0	239075328	46	6294
2026-01-11 00:57:19.42	179.95	13.37	-36.8	-37.7	23.4	0.00e+00	92	28	0	241172480	46	6238
2026-01-11 00:57:20.43	180.00	13.46	-36.8	-37.8	23.3	0.00e+00	90	28	0	243269632	46	6263
2026-01-11 00:57:21.43	180.06	13.56	-36.8	-37.8	23.3	0.00e+00	92	28	0	245366784	46	6262
2026-01-11 00:57:22.45	180.11	13.66	-36.7	-37.7	23.4	0.00e+00	9	28	0	247463936	46	6188
2026-01-11 00:57:23.46	180.17	13.76	-36.8	-37.8	23.3	0.00e+00	90	28	0	248512512	46	6261
2026-01-11 00:57:24.46	180.22	13.86	-36.8	-37.7	23.3	0.00e+00	92	28	0	250609664	46	6232
2026-01-11 00:57:25.47	180.28	13.96	-36.7	-37.7	23.4	0.00e+00	92	28	0	252706816	46	6190
2026-01-11 00:57:26.48	180.34	14.06	-36.6	-37.5	23.5	0.00e+00	90	28	0	254803968	46	6079
2026-01-11 00:57:27.49	180.39	14.16	-36.6	-37.5	23.6	0.00e+00	92	28	0	256901120	46	6085
2026-01-11 00:57:28.50	180.45	14.26	-36.7	-37.6	23.5	0.00e+00	92	28	0	257949696	46	6132
2026-01-11 00:57:29.51	180.51	14.36	-36.6	-37.5	23.7	0.00e+00	27	28	0	260046848	46	6057
2026-01-11 00:57:30.52	180.57	14.46	-36.5	-37.4	23.7	0.00e+00	90	28	0	262144000	46	5991
2026-01-11 00:57:31.53	180.63	14.56	-36.5	-37.4	23.8	0.00e+00	92	28	0	264241152	46	5986
2026-01-11 00:57:32.54	180.69	14.66	-36.4	-37.4	23.7	0.00e+00	90	28	0	266338304	46	5972
2026-01-11 00:57:33.55	180.75	14.77	-36.6	-37.6	23.6	0.00e+00	92	28	0	267386880	46	6106
2026-01-11 00:57:34.56	180.81	14.87	-36.4	-37.3	23.8	0.00e+00	90	28	0	269484032	46	5926
2026-01-11 00:57:35.56	180.87	14.97	-36.5	-37.4	23.7	0.00e+00	92	28	0	271581184	46	6015
2026-01-11 00:57:36.57	180.93	15.08	-36.5	-37.4	23.8	0.00e+00	12	28	0	273678336	46	5984
2026-01-11 00:57:37.58	180.99	15.18	-36.4	-37.3	23.8	0.00e+00	92	29	0	275775488	46	5924
2026-01-11 00:57:38.60	181.05	15.29	-36.5	-37.4	23.7	0.00e+00	6	28	0	276824064	46	5971
2026-01-11 00:57:39.60	181.11	15.39	-36.7	-37.6	23.6	0.00e+00	92	28	0	278921216	46	6127
2026-01-11 00:57:40.61	181.17	15.50	-36.5	-37.4	23.7	0.00e+00	92	28	0	281018368	46	5999
2026-01-11 00:57:41.62	181.24	15.60	-36.6	-37.6	23.6	0.00e+00	91	28	0	283115520	46	6105
2026-01-11 00:57:42.63	181.30	15.71	-36.6	-37.5	23.6	0.00e+00	92	28	0	285212672	46	6075
2026-01-11 00:57:43.64	181.36	15.82	-36.7	-37.6	23.6	0.00e+00	92	28	0	286261248	46	6144
2026-01-11 00:57:44.65	181.43	15.92	-36.7	-37.6	23.6	0.00e+00	92	28	0	288358400	46	6138
2026-01-11 00:57:45.66	181.49	16.03	-36.6	-37.6	23.6	0.00e+00	5	28	0	290455552	46	6108
2026-01-11 00:57:46.67	181.56	16.14	-36.7	-37.7	23.5	0.00e+00	92	28	0	292552704	46	6188
2026-01-11 00:57:47.68	181.62	16.25	-36.8	-37.8	23.4	0.00e+00	90	28	0	294649856	46	6255
2026-01-11 00:57:48.68	181.69	16.36	-36.7	-37.6	23.6	0.00e+00	92	28	0	295698432	46	6123
2026-01-11 00:57:49.70	181.75	16.47	-36.8	-37.7	23.5	0.00e+00	90	28	0	297795584	46	6189
2026-01-11 00:57:50.71	181.82	16.58	-36.7	-37.6	23.5	0.00e+00	92	29	0	299892736	46	6158
2026-01-11 00:57:51.72	181.89	16.69	-36.8	-37.7	23.5	0.00e+00	92	29	0	301989888	46	6231
2026-01-11 00:57:52.73	181.96	16.80	-36.7	-37.6	23.6	0.00e+00	11	29	0	304087040	46	6115
2026-01-11 00:57:53.74	182.02	16.91	-36.8	-37.7	23.5	0.00e+00	92	29	0	306184192	46	6184
2026-01-11 00:57:54.75	182.09	17.02	-36.6	-37.5	23.7	0.00e+00	91	29	0	307232768	46	6067
2026-01-11 00:57:55.75	182.16	17.13	-36.8	-37.7	23.5	0.00e+00	92	28	0	309329920	46	6206
2026-01-11 00:57:56.76	182.23	17.25	-36.5	-37.4	23.7	0.00e+00	92	28	0	311427072	46	6016
2026-01-11 00:57:57.77	182.30	17.36	-36.6	-37.5	23.7	0.00e+00	90	29	0	313524224	46	6043
2026-01-11 00:57:58.78	182.37	17.47	-36.5	-37.4	23.8	0.00e+00	92	29	0	315621376	46	5970
2026-01-11 00:57:59.79	182.44	17.59	-36.4	-37.2	23.9	0.00e+00	64	29	0	316669952	46	5892
2026-01-11 00:58:00.80	182.51	17.70	-36.4	-37.2	23.9	0.00e+00	92	29	0	318767104	46	5893
2026-01-11 00:58:01.81	182.59	17.82	-36.5	-37.4	23.9	0.00e+00	92	29	0	320864256	46	5973
2026-01-11 00:58:02.82	182.66	17.94	-36.4	-37.2	23.9	0.00e+00	92	29	0	322961408	46	5883
2026-01-11 00:58:03.83	182.73	18.05	-36.4	-37.3	23.8	0.00e+00	92	29	0	325058560	46	5939
2026-01-11 00:58:04.84	182.81	18.17	-36.3	-37.2	24.0	0.00e+00	92	29	0	326107136	46	5870
2026-01-11 00:58:05.85	182.88	18.29	-36.4	-37.2	23.9	0.00e+00	92	29	0	328204288	46	5892
2026-01-11 00:58:06.86	182.96	18.40	-36.4	-37.3	23.9	0.00e+00	32	29	0	330301440	46	5930
2026-01-11 00:58:07.87	183.03	18.52	-36.4	-37.3	23.9	0.00e+00	92	29	0	332398592	46	5948
2026-01-11 00:58:08.88	183.11	18.64	-36.4	-37.3	23.9	0.00e+00	27	29	0	334495744	46	5919
2026-01-11 00:58:09.89	183.18	18.76	-36.5	-37.4	23.8	0.00e+00	92	29	0	335544320	46	5972
2026-01-11 00:58:10.90	183.26	18.88	-36.5	-37.4	23.7	0.00e+00	92	29	0	337641472	46	6003
2026-01-11 00:58:11.91	183.34	19.00	-36.7	-37.6	23.6	0.00e+00	92	29	0	339738624	46	6153
2026-01-11 00:58:12.92	183.42	19.12	-36.5	-37.4	23.8	0.00e+00	92	29	0	341835776	46	5973
2026-01-11 00:58:13.93	183.49	19.25	-36.5	-37.4	23.9	0.00e+00	90	29	0	343932928	46	5966
2026-01-11 00:58:14.93	183.57	19.37	-36.4	-37.3	23.9	0.00e+00	92	29	0	344981504	46	5904
2026-01-11 00:58:15.94	183.65	19.49	-36.4	-37.2	24.0	0.00e+00	2	29	0	347078656	46	5893
2026-01-11 00:58:16.95	183.73	19.61	-36.3	-37.2	23.9	0.00e+00	93	29	0	349175808	46	5853
2026-01-11 00:58:17.96	183.82	19.74	-36.2	-37.1	24.1	0.00e+00	91	29	0	351272960	46	5787
2026-01-11 00:58:18.97	183.90	19.86	-36.2	-37.0	24.1	0.00e+00	92	29	0	353370112	46	5745
2026-01-11 00:58:19.98	183.98	19.99	-36.2	-37.1	24.1	0.00e+00	90	29	0	354418688	46	5783
2026-01-11 00:58:20.99	184.06	20.11	-36.0	-36.9	24.2	0.00e+00	92	29	0	356515840	46	5657
2026-01-11 00:58:22.00	184.15	20.24	-36.1	-36.9	24.2	0.00e+00	91	29	0	358612992	46	5686
2026-01-11 00:58:23.01	184.23	20.36	-36.1	-36.9	24.2	0.00e+00	70	29	0	360710144	46	5694
2026-01-11 00:58:24.02	184.32	20.49	-35.6	-36.5	24.6	0.00e+00	91	29	0	362807296	44	6053
2026-01-11 00:58:25.03	184.40	20.62	-35.6	-36.5	24.6	0.00e+00	0	29	0	363855872	44	6039
2026-01-11 00:58:26.04	184.49	20.75	-35.5	-36.3	24.7	0.00e+00	92	29	0	365953024	44	5953
2026-01-11 00:58:27.05	184.58	20.88	-35.3	-36.1	24.9	0.00e+00	92	29	0	368050176	44	5781
2026-01-11 00:58:28.06	184.66	21.01	-35.3	-36.1	24.9	0.00e+00	92	29	0	370147328	44	5801
2026-01-11 00:58:29.07	184.75	21.14	-35.2	-36.0	24.9	0.00e+00	91	29	0	372244480	44	5726
2026-01-11 00:58:30.08	184.84	21.27	-35.2	-36.1	25.0	0.00e+00	3	29	0	374341632	44	5767
2026-01-11 00:58:31.09	184.93	21.40	-35.0	-35.8	25.1	0.00e+00	92	29	0	375390208	44	5588
2026-01-11 00:58:32.10	185.02	21.53	-35.2	-36.0	25.1	0.00e+00	23	29	0	377487360	44	5705
2026-01-11 00:58:33.11	185.11	21.67	-34.9	-35.7	25.2	0.00e+00	92	29	0	379584512	44	5520
2026-01-11 00:58:34.12	185.21	21.80	-34.8	-35.6	25.3	0.00e+00	92	29	0	381681664	44	5481
2026-01-11 00:58:35.14	185.30	21.94	-35.0	-35.8	25.2	0.00e+00	91	29	0	383778816	44	5569
2026-01-11 00:58:36.15	185.39	22.07	-34.8	-35.6	25.3	0.00e+00	92	29	0	384827392	44	5475
2026-01-11 00:58:37.15	185.49	22.20	-34.9	-35.7	25.0	0.00e+00	92	29	0	386924544	44	5516
2026-01-11 00:58:38.16	185.58	22.34	-34.9	-35.6	25.3	0.00e+00	90	29	0	389021696	44	5497
2026-01-11 00:58:39.17	185.68	22.48	-34.8	-35.6	25.4	0.00e+00	0	29	0	391118848	44	5440
2026-01-11 00:58:40.18	185.78	22.61	-34.8	-35.6	25.4	0.00e+00	92	29	0	393216000	42	6124
2026-01-11 00:58:41.19	185.87	22.75	-34.9	-35.7	25.3	0.00e+00	92	29	0	394264576	42	6209
2026-01-11 00:58:42.20	185.97	22.89	-34.9	-35.7	25.3	0.00e+00	90	29	0	396361728	42	6219
2026-01-11 00:58:43.21	186.07	23.03	-34.8	-35.6	25.5	0.00e+00	92	29	0	398458880	42	6141
2026-01-11 00:58:44.22	186.17	23.17	-34.9	-35.7	25.3	0.00e+00	65	29	0	400556032	42	6179
2026-01-11 00:58:45.23	186.27	23.31	-34.8	-35.6	25.4	0.00e+00	92	29	0	402653184	42	6155
2026-01-11 00:58:46.24	186.38	23.45	-34.9	-35.7	25.3	0.00e+00	16	29	0	403701760	42	6196
2026-01-11 00:58:47.25	186.48	23.59	-35.1	-35.9	25.2	0.00e+00	92	29	0	405798912	42	6358
2026-01-11 00:58:48.26	186.58	23.74	-34.9	-35.7	25.3	0.00e+00	0	29	0	407896064	42	6236
2026-01-11 00:58:49.27	186.69	23.88	-35.0	-35.8	25.2	0.00e+00	92	29	0	409993216	42	6306
2026-01-11 00:58:50.28	186.79	24.03	-34.9	-35.8	25.3	0.00e+00	92	29	0	412090368	42	6251
2026-01-11 00:58:51.28	186.90	24.17	-35.2	-36.0	25.1	0.00e+00	7	29	0	413138944	42	6437
2026-01-11 00:58:52.30	187.01	24.32	-34.8	-35.6	25.4	0.00e+00	92	29	0	415236096	42	6136
2026-01-11 00:58:53.31	187.12	24.46	-35.0	-35.8	25.3	0.00e+00	23	29	0	417333248	42	6282
2026-01-11 00:58:54.32	187.23	24.61	-34.8	-35.7	25.3	0.00e+00	92	29	0	419430400	42	6174
2026-01-11 00:58:55.33	187.34	24.76	-34.8	-35.6	25.4	0.00e+00	0	29	0	421527552	42	6172
2026-01-11 00:58:56.34	187.45	24.91	-34.8	-35.7	25.3	0.00e+00	91	29	0	422576128	42	6180
2026-01-11 00:58:57.35	187.56	25.05	-34.8	-35.6	25.4	0.00e+00	92	29	0	424673280	42	6167
2026-01-11 00:58:58.36	187.67	25.20	-34.9	-35.7	25.4	0.00e+00	92	29	0	426770432	42	6204
2026-01-11 00:58:59.37	187.79	25.36	-35.0	-35.8	25.2	0.00e+00	91	29	0	428867584	42	6273
2026-01-11 00:59:00.38	187.91	25.51	-35.3	-36.1	25.1	0.00e+00	0	29	0	430964736	42	6479
2026-01-11 00:59:01.39	188.02	25.66	-35.2	-36.0	25.1	0.00e+00	91	29	0	432013312	42	6418
2026-01-11 00:59:02.40	188.14	25.81	-35.1	-35.9	25.2	0.00e+00	0	29	0	434110464	42	6343
2026-01-11 00:59:03.41	188.26	25.97	-35.1	-35.9	25.1	0.00e+00	92	29	0	436207616	42	6380
2026-01-11 00:59:04.42	188.38	26.12	-35.3	-36.1	25.0	0.00e+00	92	29	0	438304768	42	6534
2026-01-11 00:59:05.43	188.50	26.28	-35.2	-36.0	25.0	0.00e+00	91	29	0	440401920	42	6447
2026-01-11 00:59:06.44	188.62	26.43	-35.3	-36.1	25.0	0.00e+00	92	29	0	442499072	42	6491
2026-01-11 00:59:07.45	188.75	26.59	-35.4	-36.2	24.9	0.00e+00	0	29	0	443547648	42	6606
2026-01-11 00:59:08.46	188.87	26.75	-35.3	-36.1	25.0	0.00e+00	92	29	0	445644800	42	6508
2026-01-11 00:59:09.47	189.00	26.90	-35.3	-36.1	25.0	0.00e+00	11	29	0	447741952	42	6531
2026-01-11 00:59:10.48	189.12	27.06	-35.3	-36.1	25.0	0.00e+00	92	29	0	449839104	42	6507
2026-01-11 00:59:11.49	189.25	27.22	-35.4	-36.2	24.9	0.00e+00	67	29	0	451936256	42	6610
2026-01-11 00:59:12.49	189.38	27.38	-35.2	-36.0	25.0	0.00e+00	92	29	0	452984832	42	6460
2026-01-11 00:59:13.51	189.51	27.55	-35.4	-36.2	25.0	0.00e+00	92	29	0	455081984	42	6563
2026-01-11 00:59:14.51	189.64	27.71	-35.4	-36.2	24.9	0.00e+00	0	29	0	457179136	42	6548
2026-01-11 00:59:15.52	189.78	27.87	-35.5	-36.3	24.8	0.00e+00	92	29	0	459276288	42	6627
2026-01-11 00:59:16.53	189.91	28.03	-35.7	-36.5	24.7	0.00e+00	0	29	0	461373440	42	6778
2026-01-11 00:59:17.54	190.05	28.20	-35.8	-36.7	24.5	0.00e+00	90	29	0	462422016	44	6175
2026-01-11 00:59:18.54	190.19	28.36	-36.1	-36.9	24.3	0.00e+00	6	29	0	464519168	44	6349
2026-01-11 00:59:19.56	190.33	28.53	-36.3	-37.1	24.2	0.00e+00	92	29	0	466616320	44	6504
2026-01-11 00:59:20.56	190.46	28.69	-36.4	-37.3	24.0	0.00e+00	92	29	0	468713472	44	6649
2026-01-11 00:59:21.58	190.61	28.86	-36.5	-37.4	23.9	0.00e+00	90	29	0	470810624	44	6732
2026-01-11 00:59:22.59	190.75	29.03	-36.8	-37.7	23.7	0.00e+00	92	29	0	471859200	44	6943
2026-01-11 00:59:23.60	190.90	29.20	-36.9	-37.9	23.5	0.00e+00	0	29	0	473956352	46	6324
2026-01-11 00:59:24.61	191.04	29.37	-37.1	-38.1	23.4	0.00e+00	92	29	0	476053504	46	6475
2026-01-11 00:59:25.61	191.19	29.54	-37.3	-38.3	22.9	0.00e+00	70	29	0	478150656	46	6632
2026-01-11 00:59:26.62	191.34	29.71	-37.4	-38.4	23.0	0.00e+00	92	29	0	480247808	46	6749
2026-01-11 00:59:27.63	191.49	29.89	-37.7	-38.7	22.8	0.00e+00	71	29	0	481296384	46	6992
2026-01-11 00:59:28.64	191.64	30.06	-37.8	-38.8	22.6	0.00e+00	92	29	0	483393536	46	7075
2026-01-11 00:59:29.65	191.79	30.24	-37.9	-39.1	22.5	0.00e+00	92	29	0	485490688	48	6473
2026-01-11 00:59:30.66	191.95	30.41	-38.1	-39.3	22.4	0.00e+00	7	29	0	487587840	48	6625
2026-01-11 00:59:31.67	192.11	30.59	-38.2	-39.4	22.1	0.00e+00	90	29	0	489684992	48	6766
2026-01-11 00:59:32.68	192.27	30.77	-38.4	-39.6	22.1	0.00e+00	15	29	0	490733568	48	6921
2026-01-11 00:59:33.69	192.43	30.94	-38.6	-39.8	21.8	0.00e+00	92	29	0	492830720	48	7078
2026-01-11 00:59:34.70	192.59	31.12	-38.8	-40.0	21.6	0.00e+00	62	29	0	494927872	50	6463
2026-01-11 00:59:35.71	192.75	31.30	-38.8	-40.1	21.6	0.00e+00	92	29	0	497025024	50	6490
2026-01-11 00:59:36.72	192.92	31.48	-39.0	-40.2	21.5	0.00e+00	92	29	0	499122176	50	6580
2026-01-11 00:59:37.73	193.09	31.66	-38.9	-40.1	21.6	0.00e+00	92	29	0	500170752	50	6501
2026-01-11 00:59:38.74	193.26	31.85	-39.2	-40.4	21.3	0.00e+00	92	29	0	502267904	50	6700
2026-01-11 00:59:39.74	193.43	32.03	-39.0	-40.1	21.6	0.00e+00	0	29	0	504365056	50	6534
2026-01-11 00:59:40.75	193.60	32.21	-39.1	-40.2	21.4	0.00e+00	92	29	0	506462208	50	6590
2026-01-11 00:59:41.76	193.77	32.40	-39.0	-40.1	21.5	0.00e+00	0	29	0	508559360	50	6535
2026-01-11 00:59:42.77	193.95	32.58	-38.9	-40.0	21.6	0.00e+00	92	29	0	510656512	50	6447
2026-01-11 00:59:43.78	194.13	32.77	-38.7	-39.9	21.8	0.00e+00	90	29	0	511705088	50	6330
2026-01-11 00:59:44.79	194.31	32.96	-38.6	-39.7	22.0	0.00e+00	92	29	0	513802240	50	6239
2026-01-11 00:59:45.80	194.50	33.15	-38.6	-39.7	21.9	0.00e+00	90	29	0	515899392	50	6212
2026-01-11 00:59:46.81	194.68	33.33	-38.4	-39.5	22.0	0.00e+00	83	29	0	517996544	50	6096
2026-01-11 00:59:47.82	194.87	33.52	-38.3	-39.4	22.3	0.00e+00	92	29	0	520093696	50	6032
2026-01-11 00:59:48.83	195.06	33.72	-38.0	-39.0	22.5	0.00e+00	20	29	0	521142272	50	5755
2026-01-11 00:59:49.84	195.25	33.91	-38.0	-39.1	22.5	0.00e+00	92	29	0	523239424	50	5783
2026-01-11 00:59:50.85	195.44	34.10	-38.0	-39.1	22.5	0.00e+00	91	29	0	525336576	50	5777
2026-01-11 00:59:51.85	195.64	34.29	-38.3	-39.3	22.4	0.00e+00	91	29	0	527433728	50	5953
2026-01-11 00:59:52.86	195.84	34.49	-38.2	-39.2	22.4	0.00e+00	91	29	0	529530880	50	5854
2026-01-11 00:59:53.87	196.04	34.68	-38.4	-39.4	22.2	0.00e+00	90	29	0	530579456	50	6010
2026-01-11 00:59:54.88	196.24	34.88	-38.5	-39.6	22.1	0.00e+00	91	29	0	532676608	50	6123
2026-01-11 00:59:55.89	196.45	35.07	-38.0	-39.1	22.5	0.00e+00	2	29	0	534773760	50	5762
2026-01-11 00:59:56.90	196.65	35.27	-38.2	-39.2	22.4	0.00e+00	92	29	0	536870912	50	5850
2026-01-11 00:59:57.91	196.87	35.47	-37.8	-38.8	22.7	0.00e+00	36	29	0	538968064	50	5611
2026-01-11 00:59:58.92	197.08	35.67	-37.4	-38.4	23.1	0.00e+00	91	29	0	540016640	48	5994
2026-01-11 00:59:59.93	197.29	35.87	-37.5	-38.4	23.1	0.00e+00	92	29	0	542113792	48	6032
2026-01-11 01:00:00.94	197.51	36.07	-37.3	-38.3	23.2	0.00e+00	92	29	0	544210944	48	5920
2026-01-11 01:00:01.95	197.73	36.27	-37.5	-38.5	23.0	0.00e+00	92	29	0	546308096	48	6078
2026-01-11 01:00:02.96	197.96	36.47	-37.2	-38.2	23.3	0.00e+00	3	29	0	548405248	48	5841
2026-01-11 01:00:03.97	198.18	36.68	-37.4	-38.4	23.0	0.00e+00	91	29	0	549453824	48	6014
2026-01-11 01:00:04.98	198.41	36.88	-37.6	-38.6	23.0	0.00e+00	0	29	0	551550976	48	6159
2026-01-11 01:00:05.99	198.64	37.09	-37.2	-38.2	23.3	0.00e+00	92	29	0	553648128	48	5840
2026-01-11 01:00:06.99	198.88	37.29	-37.1	-38.0	23.4	0.00e+00	92	29	0	555745280	48	5741
2026-01-11 01:00:08.00	199.11	37.50	-37.1	-38.1	23.4	0.00e+00	92	29	0	557842432	48	5765
2026-01-11 01:00:09.01	199.36	37.70	-37.1	-38.0	23.4	0.00e+00	92	29	0	558891008	48	5739
2026-01-11 01:00:10.02	199.60	37.91	-37.2	-38.2	23.3	0.00e+00	92	29	0	560988160	48	5852
2026-01-11 01:00:11.03	199.85	38.12	-37.2	-38.2	23.3	0.00e+00	92	29	0	563085312	48	5860
2026-01-11 01:00:12.04	200.10	38.33	-37.4	-38.4	23.2	0.00e+00	21	29	0	565182464	48	5967
2026-01-11 01:00:13.05	200.35	38.54	-37.3	-38.3	23.2	0.00e+00	92	29	0	567279616	48	5930
2026-01-11 01:00:14.06	200.60	38.75	-37.0	-38.0	23.5	0.00e+00	0	29	0	568328192	48	5734
2026-01-11 01:00:15.07	200.86	38.96	-36.9	-37.9	23.5	0.00e+00	92	29	0	570425344	48	5667
2026-01-11 01:00:16.08	201.13	39.17	-36.7	-37.7	23.8	0.00e+00	92	29	0	572522496	48	5531
2026-01-11 01:00:17.08	201.39	39.38	-36.6	-37.5	23.9	0.00e+00	92	29	0	574619648	46	6054
2026-01-11 01:00:18.09	201.66	39.59	-36.6	-37.5	24.0	0.00e+00	92	29	0	576716800	46	6059
2026-01-11 01:00:19.10	201.93	39.81	-36.5	-37.4	24.1	0.00e+00	7	29	0	577765376	46	5975
2026-01-11 01:00:20.11	202.21	40.02	-36.5	-37.4	24.0	0.00e+00	90	29	0	579862528	46	6015
2026-01-11 01:00:21.12	202.49	40.24	-36.3	-37.2	24.3	0.00e+00	31	29	0	581959680	46	5847
2026-01-11 01:00:22.13	202.78	40.45	-36.3	-37.2	24.3	0.00e+00	90	29	0	584056832	46	5846
2026-01-11 01:00:23.14	203.06	40.67	-36.1	-36.9	24.5	0.00e+00	92	29	0	586153984	46	5677
2026-01-11 01:00:24.15	203.35	40.89	-36.0	-36.8	24.6	0.00e+00	92	29	0	587202560	46	5581
2026-01-11 01:00:25.16	203.65	41.10	-36.3	-37.1	24.3	0.00e+00	92	29	0	589299712	46	5818
2026-01-11 01:00:26.17	203.95	41.32	-36.5	-37.3	24.0	0.00e+00	48	29	0	591396864	46	5963
2026-01-11 01:00:27.18	204.25	41.54	-36.8	-37.8	23.8	0.00e+00	92	29	0	593494016	46	6246
2026-01-11 01:00:28.19	204.56	41.76	-37.0	-37.9	23.8	0.00e+00	0	29	0	595591168	46	6378
2026-01-11 01:00:29.20	204.87	41.97	-36.5	-37.5	24.0	0.00e+00	92	29	0	596639744	46	6040
2026-01-11 01:00:30.21	205.19	42.19	-36.4	-37.3	24.1	0.00e+00	92	29	0	598736896	46	5955
2026-01-11 01:00:31.22	205.51	42.41	-36.5	-37.4	24.1	0.00e+00	92	29	0	600834048	46	6016
2026-01-11 01:00:32.23	205.83	42.63	-36.4	-37.3	24.1	0.00e+00	92	29	0	602931200	46	5917
2026-01-11 01:00:33.24	206.16	42.85	-36.7	-37.6	23.8	0.00e+00	90	29	0	605028352	46	6142
2026-01-11 01:00:34.25	206.49	43.07	-36.9	-37.8	23.7	0.00e+00	92	29	0	607125504	46	6270
2026-01-11 01:00:35.26	206.83	43.29	-37.2	-38.1	23.4	0.00e+00	2	29	0	608174080	46	6506
2026-01-11 01:00:36.27	207.17	43.51	-37.2	-38.1	23.4	0.00e+00	92	29	0	610271232	46	6529
2026-01-11 01:00:37.28	207.52	43.73	-37.2	-38.1	23.4	0.00e+00	56	29	0	612368384	46	6529
2026-01-11 01:00:38.29	207.87	43.96	-37.2	-38.2	23.4	0.00e+00	92	29	0	614465536	46	6547
2026-01-11 01:00:39.29	208.23	44.17	-37.6	-38.5	23.1	0.00e+00	92	29	0	616562688	46	6814
2026-01-11 01:00:40.30	208.59	44.40	-37.8	-38.7	22.9	0.00e+00	92	29	0	617611264	46	6989
2026-01-11 01:00:41.31	208.95	44.62	-38.0	-39.0	22.6	0.00e+00	92	29	0	619708416	48	6445
2026-01-11 01:00:42.32	209.33	44.84	-37.8	-38.8	22.7	0.00e+00	0	29	0	621805568	48	6260
2026-01-11 01:00:43.33	209.70	45.06	-37.7	-38.7	22.9	0.00e+00	90	29	0	623902720	48	6214
2026-01-11 01:00:44.34	210.08	45.28	-37.7	-38.7	22.9	0.00e+00	7	29	0	625999872	48	6243
2026-01-11 01:00:45.35	210.47	45.50	-37.7	-38.8	22.9	0.00e+00	92	29	0	627048448	48	6268
2026-01-11 01:00:46.36	210.86	45.72	-38.2	-39.2	22.4	0.00e+00	92	29	0	629145600	48	6607
2026-01-11 01:00:47.37	211.26	45.94	-38.8	-40.0	21.7	0.00e+00	90	29	0	631242752	50	6438
2026-01-11 01:00:48.38	211.66	46.16	-39.2	-40.5	21.3	0.00e+00	92	29	0	633339904	50	6780
2026-01-11 01:00:49.39	212.07	46.38	-39.5	-40.7	21.1	0.00e+00	92	29	0	635437056	50	7006
2026-01-11 01:00:50.40	212.49	46.60	-39.3	-40.5	21.3	0.00e+00	92	29	0	636485632	50	6843
2026-01-11 01:00:51.41	212.91	46.82	-39.3	-40.5	21.3	0.00e+00	6	29	0	638582784	50	6811
2026-01-11 01:00:52.42	213.33	47.03	-39.5	-40.7	21.0	0.00e+00	90	29	0	640679936	50	6946
2026-01-11 01:00:53.43	213.77	47.25	-39.7	-40.9	20.8	0.00e+00	92	29	0	642777088	50	7128
2026-01-11 01:00:54.44	214.20	47.47	-40.2	-41.6	20.3	0.00e+00	90	29	0	644874240	52	6857
2026-01-11 01:00:55.44	214.64	47.68	-40.5	-42.0	19.8	0.00e+00	92	29	0	645922816	52	7179
2026-01-11 01:00:56.45	215.09	47.90	-40.6	-42.1	19.7	0.00e+00	92	29	0	648019968	54	6533
2026-01-11 01:00:57.46	215.55	48.11	-40.6	-42.1	19.9	0.00e+00	92	29	0	650117120	54	6496
2026-01-11 01:00:58.47	216.01	48.32	-40.4	-41.9	20.0	0.00e+00	0	29	0	652214272	54	6366
2026-01-11 01:00:59.48	216.48	48.54	-40.0	-41.4	20.3	0.00e+00	90	30	0	654311424	54	6000
2026-01-11 01:01:00.49	216.96	48.75	-40.1	-41.5	20.4	0.00e+00	58	29	0	655360000	54	6066
2026-01-11 01:01:01.50	217.44	48.96	-39.6	-40.9	20.9	0.00e+00	92	30	0	657457152	52	6370
2026-01-11 01:01:02.51	217.93	49.17	-39.6	-40.9	20.9	0.00e+00	92	29	0	659554304	52	6365
2026-01-11 01:01:03.52	218.42	49.38	-39.6	-40.9	21.0	0.00e+00	92	29	0	661651456	52	6318
2026-01-11 01:01:04.52	218.92	49.58	-39.7	-41.0	20.7	0.00e+00	92	29	0	663748608	52	6437
2026-01-11 01:01:05.53	219.43	49.79	-39.6	-40.9	21.0	0.00e+00	7	29	0	664797184	52	6338
2026-01-11 01:01:06.54	219.94	49.99	-39.0	-40.1	21.7	0.00e+00	92	29	0	666894336	52	5820
2026-01-11 01:01:07.55	220.47	50.19	-38.7	-39.8	22.0	0.00e+00	7	29	0	668991488	50	6263
2026-01-11 01:01:08.56	221.00	50.39	-38.0	-39.0	22.7	0.00e+00	92	29	0	671088640	50	5714
2026-01-11 01:01:09.56	221.53	50.59	-37.7	-38.7	22.9	0.00e+00	92	29	0	673185792	48	6186
2026-01-11 01:01:10.57	222.07	50.79	-37.8	-38.8	22.8	0.00e+00	92	29	0	675282944	48	6251
2026-01-11 01:01:11.58	222.62	50.98	-37.6	-38.6	22.9	0.00e+00	92	30	0	676331520	48	6141
2026-01-11 01:01:12.59	223.18	51.18	-37.6	-38.5	23.2	0.00e+00	33	29	0	678428672	48	6098
2026-01-11 01:01:13.60	223.74	51.37	-37.2	-38.1	23.5	0.00e+00	90	29	0	680525824	48	5791
2026-01-11 01:01:14.61	224.31	51.56	-36.7	-37.6	23.9	0.00e+00	23	29	0	682622976	46	6147
2026-01-11 01:01:15.62	224.89	51.74	-36.5	-37.5	24.1	0.00e+00	92	29	0	684720128	46	6034
2026-01-11 01:01:16.63	225.48	51.93	-36.2	-37.1	24.4	0.00e+00	92	30	0	685768704	46	5788
2026-01-11 01:01:17.64	226.07	52.11	-35.9	-36.7	24.6	0.00e+00	92	30	0	687865856	46	5556
2026-01-11 01:01:18.65	226.67	52.29	-35.8	-36.6	24.5	0.00e+00	92	29	0	689963008	44	6140
2026-01-11 01:01:19.66	227.28	52.47	-35.8	-36.6	24.7	0.00e+00	92	29	0	692060160	44	6135
2026-01-11 01:01:20.67	227.89	52.64	-35.5	-36.3	25.0	0.00e+00	92	29	0	694157312	44	5921
2026-01-11 01:01:21.68	228.51	52.82	-35.4	-36.2	25.1	0.00e+00	0	29	0	695205888	44	5863
2026-01-11 01:01:22.69	229.14	52.98	-35.5	-36.3	24.9	0.00e+00	92	29	0	697303040	44	5959
2026-01-11 01:01:23.70	229.78	53.15	-35.6	-36.4	24.8	0.00e+00	57	29	0	699400192	44	6026
2026-01-11 01:01:24.71	230.42	53.31	-35.6	-36.4	24.8	0.00e+00	92	30	0	701497344	44	5998
2026-01-11 01:01:25.71	231.07	53.47	-35.8	-36.6	24.7	0.00e+00	90	29	0	703594496	44	6127
2026-01-11 01:01:26.72	231.72	53.63	-35.8	-36.7	24.6	0.00e+00	92	29	0	704643072	44	6174
2026-01-11 01:01:27.73	232.39	53.78	-36.1	-36.9	24.5	0.00e+00	92	29	0	706740224	44	6354
2026-01-11 01:01:28.74	233.06	53.93	-36.1	-36.9	24.5	0.00e+00	56	29	0	708837376	44	6356
2026-01-11 01:01:29.75	233.74	54.08	-35.8	-36.6	24.7	0.00e+00	92	29	0	710934528	44	6163
2026-01-11 01:01:30.76	234.42	54.22	-35.7	-36.5	24.8	0.00e+00	5	29	0	713031680	44	6048
2026-01-11 01:01:31.77	235.11	54.36	-36.0	-36.8	24.6	0.00e+00	92	29	0	714080256	44	6264
2026-01-11 01:01:32.78	235.81	54.50	-36.0	-36.9	24.4	0.00e+00	90	30	0	716177408	44	6334
2026-01-11 01:01:33.79	236.52	54.63	-35.8	-36.7	24.6	0.00e+00	92	30	0	718274560	44	6186
2026-01-11 01:01:34.80	237.23	54.76	-35.6	-36.4	24.8	0.00e+00	92	29	0	720371712	44	5989
2026-01-11 01:01:35.81	237.95	54.88	-35.3	-36.1	25.0	0.00e+00	92	29	0	722468864	44	5805
2026-01-11 01:01:36.82	238.67	55.00	-35.5	-36.3	25.0	0.00e+00	92	29	0	723517440	44	5902
2026-01-11 01:01:37.83	239.40	55.11	-35.7	-36.5	24.8	0.00e+00	8	30	0	725614592	44	6080
2026-01-11 01:01:38.84	240.13	55.22	-36.0	-36.8	24.4	0.00e+00	92	30	0	727711744	44	6287
2026-01-11 01:01:39.85	240.87	55.33	-36.1	-36.9	24.3	0.00e+00	90	30	0	729808896	44	6371
2026-01-11 01:01:40.86	241.62	55.43	-36.4	-37.3	24.1	0.00e+00	92	30	0	731906048	44	6653
2026-01-11 01:01:41.87	242.37	55.53	-36.5	-37.4	24.0	0.00e+00	92	30	0	732954624	44	6722
2026-01-11 01:01:42.88	243.13	55.62	-36.7	-37.5	23.8	0.00e+00	92	29	0	735051776	44	6844
2026-01-11 01:01:43.89	243.89	55.71	-36.9	-37.8	23.6	0.00e+00	92	30	0	737148928	46	6306
2026-01-11 01:01:44.90	244.66	55.79	-36.8	-37.7	23.8	0.00e+00	7	30	0	739246080	46	6188
2026-01-11 01:01:45.91	245.43	55.87	-37.1	-38.0	23.6	0.00e+00	92	30	0	741343232	46	6391
2026-01-11 01:01:46.92	246.20	55.95	-37.7	-38.6	22.9	0.00e+00	90	30	0	743440384	46	6917
2026-01-11 01:01:47.93	246.98	56.01	-38.1	-39.1	22.4	0.00e+00	92	30	0	744488960	48	6480
2026-01-11 01:01:48.94	247.76	56.08	-38.7	-39.8	21.8	0.00e+00	92	30	0	746586112	48	7051
2026-01-11 01:01:49.95	248.55	56.14	-38.8	-39.9	21.8	0.00e+00	90	30	0	748683264	48	7154
2026-01-11 01:01:50.96	249.34	56.19	-38.8	-39.9	21.7	0.00e+00	92	30	0	750780416	50	6347
2026-01-11 01:01:51.97	250.13	56.24	-38.2	-39.2	22.5	0.00e+00	0	30	0	752877568	50	5855
2026-01-11 01:01:52.98	250.92	56.28	-38.3	-39.4	22.1	0.00e+00	92	30	0	753926144	50	5969
2026-01-11 01:01:53.99	251.72	56.32	-39.5	-40.7	21.0	0.00e+00	0	30	0	756023296	50	7007
2026-01-11 01:01:54.99	252.51	56.35	-40.3	-41.6	20.3	0.00e+00	92	30	0	758120448	52	6919
2026-01-11 01:01:56.00	253.31	56.38	-39.8	-41.1	20.7	0.00e+00	92	30	0	760217600	52	6485
2026-01-11 01:01:57.01	254.11	56.40	-39.1	-40.2	21.6	0.00e+00	92	30	0	762314752	52	5871
2026-01-11 01:01:58.02	254.91	56.42	-38.4	-39.4	22.2	0.00e+00	92	29	0	763363328	50	6029
2026-01-11 01:01:59.03	255.71	56.43	-38.0	-39.0	22.6	0.00e+00	21	30	0	765460480	50	5749
2026-01-11 01:02:00.04	256.52	56.43	-37.7	-38.7	22.8	0.00e+00	92	30	0	767557632	48	6187
2026-01-11 01:02:01.05	257.32	56.43	-37.9	-38.9	22.6	0.00e+00	66	30	0	769654784	48	6371
2026-01-11 01:02:02.06	258.13	56.43	-37.6	-38.5	23.1	0.00e+00	92	30	0	771751936	48	6081
2026-01-11 01:02:03.07	258.93	56.42	-36.7	-37.6	23.8	0.00e+00	92	30	0	772800512	48	5456
2026-01-11 01:02:04.08	259.73	56.40	-37.2	-38.1	23.4	0.00e+00	92	29	0	774897664	46	6507
2026-01-11 01:02:05.09	260.53	56.38	-37.4	-38.3	23.3	0.00e+00	92	30	0	776994816	46	6661
2026-01-11 01:02:06.10	261.33	56.36	-37.1	-38.0	23.4	0.00e+00	7	30	0	779091968	46	6459
2026-01-11 01:02:07.11	262.13	56.32	-36.7	-37.6	23.9	0.00e+00	90	30	0	781189120	46	6109
2026-01-11 01:02:08.12	262.93	56.29	-36.4	-37.2	24.1	0.00e+00	2	30	0	782237696	46	5882
2026-01-11 01:02:09.13	263.72	56.24	-36.8	-37.7	23.6	0.00e+00	90	30	0	784334848	46	6220
2026-01-11 01:02:10.14	264.51	56.20	-37.0	-37.9	23.5	0.00e+00	52	30	0	786432000	46	6390
2026-01-11 01:02:11.15	265.30	56.14	-36.8	-37.7	23.7	0.00e+00	92	30	0	788529152	46	6211
2026-01-11 01:02:12.16	266.09	56.09	-36.9	-37.8	23.6	0.00e+00	92	30	0	790626304	46	6270
2026-01-11 01:02:13.17	266.87	56.02	-37.3	-38.2	23.2	0.00e+00	93	30	0	791674880	46	6567
2026-01-11 01:02:14.18	267.65	55.96	-37.7	-38.7	22.9	0.00e+00	90	30	0	793772032	46	6944
2026-01-11 01:02:15.19	268.42	55.88	-38.2	-39.2	22.3	0.00e+00	0	30	0	795869184	48	6587
2026-01-11 01:02:16.19	269.18	55.81	-37.7	-38.6	23.0	0.00e+00	90	30	0	797966336	48	6158
2026-01-11 01:02:17.20	269.95	55.72	-37.1	-38.0	23.5	0.00e+00	0	30	0	800063488	48	5752
2026-01-11 01:02:18.21	270.71	55.64	-37.5	-38.4	23.0	0.00e+00	91	30	0	801112064	48	6024
2026-01-11 01:02:19.22	271.47	55.54	-38.5	-39.6	22.1	0.00e+00	91	30	0	803209216	48	6874
2026-01-11 01:02:20.23	272.22	55.45	-37.9	-38.8	22.6	0.00e+00	81	30	0	805306368	48	6308
2026-01-11 01:02:21.24	272.97	55.35	-37.6	-38.6	23.0	0.00e+00	92	30	0	807403520	48	6117
2026-01-11 01:02:22.25	273.71	55.24	-37.2	-38.1	23.5	0.00e+00	9	30	0	809500672	48	5784
2026-01-11 01:02:23.26	274.44	55.13	-37.1	-38.0	23.3	0.00e+00	91	30	0	810549248	48	5756
2026-01-11 01:02:24.27	275.17	55.02	-37.4	-38.3	23.3	0.00e+00	7	30	0	812646400	48	5964
2026-01-11 01:02:25.28	275.90	54.90	-37.2	-38.1	23.4	0.00e+00	92	30	0	814743552	48	5807
2026-01-11 01:02:26.29	276.61	54.78	-37.0	-37.9	23.5	0.00e+00	92	30	0	816840704	48	5689
2026-01-11 01:02:27.30	277.32	54.65	-36.6	-37.5	24.0	0.00e+00	92	30	0	818937856	46	6097
2026-01-11 01:02:28.31	278.03	54.52	-36.6	-37.4	24.0	0.00e+00	91	30	0	819986432	46	6028
2026-01-11 01:02:29.32	278.73	54.38	-36.8	-37.7	23.8	0.00e+00	83	30	0	822083584	46	6180
2026-01-11 01:02:30.33	279.42	54.25	-36.0	-36.8	24.5	0.00e+00	92	30	0	824180736	46	5605
2026-01-11 01:02:31.34	280.10	54.10	-35.1	-35.8	25.4	0.00e+00	0	30	0	826277888	44	5616
2026-01-11 01:02:32.35	280.78	53.96	-34.8	-35.5	25.5	0.00e+00	92	30	0	828375040	44	5418
2026-01-11 01:02:33.36	281.45	53.81	-34.2	-34.9	25.9	0.00e+00	12	30	0	829423616	42	5665
2026-01-11 01:02:34.37	282.12	53.66	-34.1	-34.9	26.0	0.00e+00	90	30	0	831520768	42	5645
2026-01-11 01:02:35.38	282.78	53.50	-33.8	-34.5	26.4	0.00e+00	92	30	0	833617920	42	5415
2026-01-11 01:02:36.39	283.43	53.34	-33.4	-34.1	26.7	0.00e+00	0	30	0	835715072	40	5799
2026-01-11 01:02:37.40	284.07	53.18	-33.3	-34.0	26.7	0.00e+00	92	30	0	837812224	40	5720
2026-01-11 01:02:38.41	284.71	53.01	-33.2	-33.9	26.7	0.00e+00	64	30	0	839909376	40	5658
2026-01-11 01:02:39.42	285.33	52.85	-33.9	-34.6	26.2	0.00e+00	92	30	0	840957952	40	6135
2026-01-11 01:02:40.43	285.96	52.67	-34.1	-34.8	26.2	0.00e+00	0	30	0	843055104	40	6301
2026-01-11 01:02:41.44	286.57	52.50	-33.7	-34.4	26.5	0.00e+00	92	30	0	845152256	40	5998
2026-01-11 01:02:42.45	287.18	52.32	-33.7	-34.5	26.4	0.00e+00	92	30	0	847249408	40	6034
2026-01-11 01:02:43.46	287.78	52.15	-34.1	-34.8	26.1	0.00e+00	6	30	0	849346560	40	6310
2026-01-11 01:02:44.47	288.37	51.96	-35.1	-35.9	25.1	0.00e+00	90	30	0	850395136	42	6355
2026-01-11 01:02:45.48	288.96	51.78	-36.2	-37.1	24.0	0.00e+00	6	30	0	852492288	44	6504
2026-01-11 01:02:46.49	289.54	51.59	-35.9	-36.8	24.6	0.00e+00	92	30	0	854589440	44	6274
2026-01-11 01:02:47.50	290.11	51.41	-35.7	-36.5	24.7	0.00e+00	11	30	0	856686592	44	6042
2026-01-11 01:02:48.51	290.67	51.21	-35.9	-36.7	24.6	0.00e+00	92	30	0	858783744	44	6230
2026-01-11 01:02:49.52	291.23	51.02	-37.6	-38.6	22.9	0.00e+00	92	30	0	859832320	46	6853
2026-01-11 01:02:50.53	291.78	50.83	-40.2	-41.6	20.1	0.00e+00	0	30	0	861929472	52	6878
2026-01-11 01:02:51.53	292.32	50.63	-40.8	-42.3	19.5	0.00e+00	92	30	0	864026624	54	6645
2026-01-11 01:02:52.54	292.85	50.44	-40.0	-41.3	20.4	0.00e+00	0	30	0	866123776	54	5906
2026-01-11 01:02:53.55	293.38	50.24	-39.2	-40.3	21.5	0.00e+00	92	30	0	868220928	52	5931
2026-01-11 01:02:54.56	293.90	50.03	-39.1	-40.2	21.5	0.00e+00	72	30	0	869269504	52	5887
2026-01-11 01:02:55.57	294.42	49.83	-40.9	-42.4	19.3	0.00e+00	92	30	0	871366656	52	7510
2026-01-11 01:02:56.58	294.93	49.63	-43.1	-45.4	16.4	0.00e+00	12	30	0	873463808	58	7571
2026-01-11 01:02:57.59	295.43	49.42	-43.0	-45.1	16.8	0.00e+00	92	30	0	875560960	58	7327
2026-01-11 01:02:58.60	295.92	49.21	-41.5	-43.1	19.0	0.00e+00	92	30	0	877658112	56	6503
2026-01-11 01:02:59.61	296.41	49.01	-41.3	-42.8	19.1	0.00e+00	70	30	0	878706688	56	6279
2026-01-11 01:03:00.62	296.89	48.80	-41.4	-43.0	18.9	0.00e+00	92	30	0	880803840	56	6446
2026-01-11 01:03:01.63	297.37	48.59	-43.1	-45.4	16.2	0.00e+00	66	30	0	882900992	58	7587
2026-01-11 01:03:02.64	297.84	48.37	-44.2	-47.2	14.7	7.00e-07	92	30	0	884998144	60	8326
2026-01-11 01:03:03.65	298.30	48.16	-41.6	-43.3	18.8	0.00e+00	54	30	0	887095296	58	5944
2026-01-11 01:03:04.66	298.76	47.95	-39.1	-40.3	21.5	0.00e+00	92	30	0	888143872	52	5906
2026-01-11 01:03:05.67	299.21	47.73	-38.7	-39.8	21.7	0.00e+00	92	30	0	890241024	50	6280
2026-01-11 01:03:06.67	299.65	47.52	-39.5	-40.7	21.0	0.00e+00	14	30	0	892338176	50	6963
2026-01-11 01:03:07.68	300.08	47.31	-41.0	-42.5	19.2	0.00e+00	92	30	0	894435328	52	7619
2026-01-11 01:03:08.69	300.52	47.09	-42.7	-44.8	17.0	0.00e+00	16	30	0	896532480	56	7948
2026-01-11 01:03:09.71	300.95	46.87	-41.7	-43.4	18.6	0.00e+00	92	30	0	897581056	58	6032
2026-01-11 01:03:10.71	301.36	46.65	-38.2	-39.3	22.4	0.00e+00	5	30	0	899678208	50	5905
2026-01-11 01:03:11.72	301.78	46.44	-37.0	-37.9	23.6	0.00e+00	90	30	0	901775360	48	5688
2026-01-11 01:03:12.73	302.19	46.22	-36.7	-37.5	23.9	0.00e+00	92	30	0	903872512	46	6102
2026-01-11 01:03:13.74	302.59	46.00	-37.5	-38.4	23.2	0.00e+00	8	30	0	905969664	46	6709
2026-01-11 01:03:14.75	302.99	45.78	-39.2	-40.4	21.3	0.00e+00	90	30	0	908066816	50	6695
2026-01-11 01:03:15.76	303.38	45.56	-40.6	-42.0	19.8	0.00e+00	7	30	0	909115392	52	7240
2026-01-11 01:03:16.77	303.77	45.34	-38.9	-40.0	21.8	0.00e+00	92	30	0	911212544	52	5761
2026-01-11 01:03:17.78	304.15	45.12	-37.7	-38.7	23.0	0.00e+00	0	30	0	913309696	50	5503
2026-01-11 01:03:18.79	304.53	44.90	-37.5	-38.4	23.1	0.00e+00	92	30	0	915406848	48	6023
2026-01-11 01:03:19.80	304.90	44.68	-37.2	-38.1	23.4	0.00e+00	7	30	0	917504000	48	5820
2026-01-11 01:03:20.81	305.26	44.46	-38.2	-39.3	22.4	0.00e+00	72	30	0	918552576	48	6626
2026-01-11 01:03:21.81	305.62	44.24	-39.5	-40.8	20.6	0.00e+00	91	30	0	920649728	50	7008
2026-01-11 01:03:22.82	305.98	44.02	-40.7	-42.2	19.6	0.00e+00	10	30	0	922746880	54	6566
2026-01-11 01:03:23.83	306.33	43.80	-40.4	-41.8	20.1	0.00e+00	92	30	0	924844032	54	6264
2026-01-11 01:03:24.84	306.68	43.58	-39.8	-41.0	20.8	0.00e+00	71	30	0	926941184	54	5739
2026-01-11 01:03:25.85	307.02	43.37	-39.9	-41.1	20.8	0.00e+00	92	30	0	927989760	52	6496
2026-01-11 01:03:26.86	307.36	43.15	-40.0	-41.2	20.6	0.00e+00	0	30	0	930086912	52	6577
2026-01-11 01:03:27.87	307.69	42.93	-40.7	-42.1	19.8	0.00e+00	91	30	0	932184064	52	7282
2026-01-11 01:03:28.88	308.02	42.71	-42.2	-44.1	17.8	0.00e+00	90	30	0	934281216	56	7316
2026-01-11 01:03:29.89	308.34	42.49	-42.8	-45.0	16.9	0.00e+00	11	30	0	936378368	58	7186
2026-01-11 01:03:30.90	308.66	42.27	-42.2	-44.1	17.8	0.00e+00	92	30	0	937426944	58	6526
2026-01-11 01:03:31.91	308.98	42.05	-41.4	-43.1	18.9	0.00e+00	13	30	0	939524096	56	6508
2026-01-11 01:03:32.92	309.29	41.83	-41.0	-42.5	19.5	0.00e+00	92	30	0	941621248	56	6101
2026-01-11 01:03:33.93	309.60	41.62	-40.2	-41.5	20.3	0.00e+00	0	30	0	943718400	54	6077
2026-01-11 01:03:34.94	309.90	41.40	-39.6	-40.8	20.9	0.00e+00	92	30	0	945815552	52	6302
2026-01-11 01:03:35.95	310.20	41.18	-39.7	-41.0	20.8	0.00e+00	92	30	0	946864128	52	6398
2026-01-11 01:03:36.96	310.50	40.97	-40.8	-42.3	19.5	0.00e+00	0	30	0	948961280	52	7430
2026-01-11 01:03:37.97	310.79	40.75	-41.6	-43.2	18.6	0.00e+00	92	30	0	951058432	54	7420
2026-01-11 01:03:38.98	311.08	40.54	-41.0	-42.6	19.1	0.00e+00	3	30	0	953155584	54	6860
2026-01-11 01:03:39.99	311.36	40.32	-39.6	-40.9	20.9	0.00e+00	92	30	0	955252736	54	5639
2026-01-11 01:03:41.00	311.64	40.11	-39.2	-40.3	21.4	0.00e+00	69	30	0	956301312	52	5916
2026-01-11 01:03:42.01	311.92	39.90	-39.0	-40.1	21.6	0.00e+00	92	30	0	958398464	52	5777
2026-01-11 01:03:43.02	312.19	39.68	-39.6	-40.8	20.9	0.00e+00	0	30	0	960495616	52	6268
2026-01-11 01:03:44.02	312.46	39.47	-40.0	-41.2	20.6	0.00e+00	11	30	0	962592768	52	6612
2026-01-11 01:03:45.03	312.73	39.26	-40.2	-41.5	20.3	0.00e+00	92	30	0	964689920	52	6780
2026-01-11 01:03:46.04	312.99	39.05	-40.3	-41.6	20.1	0.00e+00	11	30	0	965738496	52	6886
2026-01-11 01:03:47.05	313.25	38.84	-40.7	-42.1	19.7	0.00e+00	92	30	0	967835648	54	6475
2026-01-11 01:03:48.06	313.51	38.63	-41.2	-42.7	19.1	0.00e+00	10	30	0	969932800	54	6987
2026-01-11 01:03:49.07	313.76	38.42	-40.5	-41.9	20.0	0.00e+00	90	30	0	972029952	54	6356
2026-01-11 01:03:50.08	314.01	38.21	-39.2	-40.3	21.4	0.00e+00	11	30	0	974127104	52	5956
2026-01-11 01:03:51.09	314.26	38.01	-38.4	-39.5	21.9	0.00e+00	5	30	0	976224256	50	6035
2026-01-11 01:03:52.10	314.50	37.80	-38.2	-39.2	22.4	0.00e+00	91	30	0	977272832	50	5852
2026-01-11 01:03:53.11	314.74	37.59	-38.5	-39.5	22.0	0.00e+00	13	30	0	979369984	50	6073
2026-01-11 01:03:54.12	314.98	37.39	-39.3	-40.5	21.2	0.00e+00	92	30	0	981467136	50	6810
2026-01-11 01:03:55.13	315.21	37.18	-40.3	-41.7	20.0	0.00e+00	0	30	0	983564288	52	6957
2026-01-11 01:03:56.14	315.45	36.98	-40.1	-41.4	20.4	0.00e+00	92	30	0	985661440	52	6768
2026-01-11 01:03:57.14	315.67	36.78	-39.3	-40.5	21.3	0.00e+00	2	30	0	986710016	52	6039
2026-01-11 01:03:58.15	315.90	36.57	-38.7	-39.8	22.0	0.00e+00	90	30	0	988807168	52	5596
2026-01-11 01:03:59.16	316.12	36.37	-38.2	-39.2	22.4	0.00e+00	92	30	0	990904320	50	5851
2026-01-11 01:04:00.17	316.35	36.17	-37.9	-38.9	22.6	0.00e+00	0	30	0	993001472	50	5683
2026-01-11 01:04:01.18	316.56	35.97	-37.9	-38.9	22.7	0.00e+00	92	30	0	995098624	50	5639
2026-01-11 01:04:02.19	316.78	35.77	-38.3	-39.3	22.5	0.00e+00	0	30	0	996147200	50	5912
2026-01-11 01:04:03.20	316.99	35.57	-38.4	-39.4	22.1	0.00e+00	92	30	0	998244352	50	6011
2026-01-11 01:04:04.21	317.20	35.38	-38.8	-39.9	21.7	0.00e+00	0	30	0	1000341504	50	6354
2026-01-11 01:04:05.22	317.41	35.18	-39.6	-40.9	20.9	0.00e+00	92	30	0	1002438656	50	7135
2026-01-11 01:04:06.23	317.62	34.98	-39.3	-40.5	21.3	0.00e+00	0	30	0	1004535808	50	6785
2026-01-11 01:04:07.24	317.82	34.79	-38.9	-40.1	21.6	0.00e+00	12	30	0	1005584384	50	6508
2026-01-11 01:04:08.24	318.02	34.60	-38.3	-39.3	22.3	0.00e+00	90	30	0	1007681536	50	5957
2026-01-11 01:04:09.25	318.22	34.40	-38.2	-39.3	22.3	0.00e+00	12	30	0	1009778688	50	5906
2026-01-11 01:04:10.26	318.42	34.21	-37.8	-38.8	22.8	0.00e+00	91	30	0	1011875840	50	5590
2026-01-11 01:04:11.27	318.61	34.02	-37.1	-38.0	23.6	0.00e+00	0	30	0	1013972992	48	5729
2026-01-11 01:04:12.28	318.80	33.83	-37.2	-38.2	23.3	0.00e+00	90	30	0	1015021568	48	5829
2026-01-11 01:04:13.29	318.99	33.64	-37.7	-38.6	22.9	0.00e+00	11	30	0	1017118720	48	6168
2026-01-11 01:04:14.30	319.18	33.45	-38.9	-40.1	21.5	0.00e+00	0	30	0	1019215872	50	6496
2026-01-11 01:04:15.31	319.37	33.26	-39.8	-41.1	20.6	0.00e+00	91	30	0	1021313024	50	7319
2026-01-11 01:04:16.32	319.55	33.07	-40.3	-41.7	20.0	0.00e+00	0	30	0	1023410176	52	6938
2026-01-11 01:04:17.33	319.73	32.89	-40.2	-41.6	20.3	0.00e+00	92	30	0	1024458752	52	6868
2026-01-11 01:04:18.34	319.91	32.70	-39.4	-40.7	20.9	0.00e+00	0	30	0	1026555904	52	6213
2026-01-11 01:04:19.35	320.09	32.52	-39.2	-40.4	21.4	0.00e+00	92	30	0	1028653056	52	5992
2026-01-11 01:04:20.36	320.26	32.33	-38.1	-39.1	22.5	0.00e+00	0	30	0	1030750208	50	5784
2026-01-11 01:04:21.37	320.44	32.15	-37.5	-38.4	23.1	0.00e+00	92	30	0	1032847360	48	6004
2026-01-11 01:04:22.38	320.61	31.97	-37.5	-38.4	23.0	0.00e+00	90	30	0	1033895936	48	6008
2026-01-11 01:04:23.38	320.78	31.79	-37.6	-38.6	23.0	0.00e+00	0	30	0	1035993088	48	6105
2026-01-11 01:04:24.39	320.94	31.60	-37.9	-38.9	22.6	0.00e+00	92	30	0	1038090240	48	6337
2026-01-11 01:04:25.40	321.11	31.43	-38.1	-39.1	22.4	0.00e+00	66	30	0	1040187392	48	6532
2026-01-11 01:04:26.41	321.27	31.25	-38.9	-40.0	21.6	0.00e+00	92	30	0	1042284544	50	6427
2026-01-11 01:04:27.42	321.44	31.07	-39.2	-40.4	21.3	0.00e+00	0	30	0	1044381696	50	6758
2026-01-11 01:04:28.43	321.60	30.89	-39.6	-40.8	20.8	0.00e+00	92	30	0	1045430272	50	7087
2026-01-11 01:04:29.44	321.76	30.71	-39.6	-40.9	20.8	0.00e+00	51	30	0	1047527424	50	7117
2026-01-11 01:04:30.45	321.92	30.54	-39.6	-40.9	20.8	0.00e+00	14	30	0	1049624576	50	7095
2026-01-11 01:04:31.46	322.07	30.36	-39.1	-40.3	21.3	0.00e+00	92	30	0	1051721728	50	6639
2026-01-11 01:04:32.47	322.23	30.19	-38.8	-39.9	21.7	0.00e+00	6	30	0	1053818880	50	6367
2026-01-11 01:04:33.48	322.38	30.02	-38.5	-39.6	22.0	0.00e+00	92	30	0	1054867456	50	6126
2026-01-11 01:04:34.49	322.53	29.84	-38.3	-39.3	22.2	0.00e+00	6	30	0	1056964608	50	5939
2026-01-11 01:04:35.50	322.68	29.67	-38.3	-39.4	22.2	0.00e+00	92	30	0	1059061760	50	5974
2026-01-11 01:04:36.51	322.83	29.50	-37.9	-38.9	22.6	0.00e+00	7	30	0	1061158912	50	5648
2026-01-11 01:04:37.52	322.97	29.33	-37.9	-38.9	22.6	0.00e+00	65	30	0	1063256064	50	5679
2026-01-11 01:04:38.53	323.12	29.16	-37.8	-38.7	22.7	0.00e+00	91	30	0	1064304640	50	5563
2026-01-11 01:04:39.53	323.26	29.00	-37.8	-38.8	22.6	0.00e+00	0	30	0	1066401792	48	6280
2026-01-11 01:04:40.54	323.40	28.83	-37.5	-38.5	23.0	0.00e+00	91	30	0	1068498944	48	6062
2026-01-11 01:04:41.55	323.54	28.66	-37.2	-38.1	23.3	0.00e+00	0	30	0	1070596096	48	5826
2026-01-11 01:04:42.56	323.68	28.50	-37.4	-38.4	23.1	0.00e+00	92	30	0	1072693248	48	5966
2026-01-11 01:04:43.57	323.82	28.33	-37.7	-38.7	22.8	0.00e+00	65	30	0	1073741824	48	6174
2026-01-11 01:04:44.58	323.96	28.17	-37.9	-38.9	22.5	0.00e+00	92	30	0	1075838976	48	6375
2026-01-11 01:04:45.59	324.09	28.01	-38.3	-39.4	22.2	0.00e+00	8	30	0	1077936128	48	6722
2026-01-11 01:04:46.60	324.23	27.84	-38.7	-39.8	21.7	0.00e+00	0	30	0	1080033280	48	7060
2026-01-11 01:04:47.61	324.36	27.68	-39.1	-40.3	21.3	0.00e+00	92	30	0	1082130432	50	6630
2026-01-11 01:04:48.62	324.49	27.52	-38.9	-40.0	21.6	0.00e+00	66	30	0	1083179008	50	6445
2026-01-11 01:04:49.63	324.62	27.36	-38.7	-39.9	21.6	0.00e+00	92	30	0	1085276160	50	6342
2026-01-11 01:04:50.64	324.75	27.20	-38.7	-39.8	21.8	0.00e+00	19	30	0	1087373312	50	6278
2026-01-11 01:04:51.65	324.88	27.04	-38.1	-39.2	22.4	0.00e+00	63	30	0	1089470464	50	5846
2026-01-11 01:04:52.66	325.00	26.88	-38.0	-39.0	22.5	0.00e+00	52	30	0	1091567616	50	5715
2026-01-11 01:04:53.67	325.13	26.73	-37.5	-38.5	23.0	0.00e+00	19	30	0	1092616192	48	6056
2026-01-11 01:04:54.68	325.25	26.57	-37.4	-38.3	23.1	0.00e+00	92	30	0	1094713344	48	5945
2026-01-11 01:04:55.69	325.37	26.42	-37.3	-38.3	23.1	0.00e+00	19	30	0	1096810496	48	5916
2026-01-11 01:04:56.70	325.50	26.26	-37.1	-38.0	23.4	0.00e+00	92	30	0	1098907648	48	5742
2026-01-11 01:04:57.71	325.62	26.11	-37.3	-38.3	23.0	0.00e+00	0	30	0	1101004800	48	5913
2026-01-11 01:04:58.72	325.74	25.95	-37.6	-38.6	22.8	0.00e+00	92	30	0	1102053376	48	6157
2026-01-11 01:04:59.73	325.85	25.80	-37.8	-38.8	22.7	0.00e+00	6	30	0	1104150528	48	6287
2026-01-11 01:05:00.74	325.97	25.65	-38.2	-39.3	22.2	0.00e+00	0	30	0	1106247680	48	6630
2026-01-11 01:05:01.75	326.09	25.50	-38.3	-39.4	22.2	0.00e+00	89	30	0	1108344832	48	6720
2026-01-11 01:05:02.76	326.20	25.35	-38.3	-39.4	22.1	0.00e+00	6	30	0	1110441984	48	6748
2026-01-11 01:05:03.77	326.32	25.20	-38.2	-39.3	22.2	0.00e+00	92	30	0	1112539136	48	6631
2026-01-11 01:05:04.77	326.43	25.05	-38.2	-39.2	22.3	0.00e+00	0	30	0	1113587712	48	6609
2026-01-11 01:05:05.79	326.54	24.90	-38.2	-39.2	22.3	0.00e+00	90	30	0	1115684864	48	6595
2026-01-11 01:05:06.79	326.65	24.76	-37.9	-38.9	22.5	0.00e+00	67	30	0	1117782016	48	6385
2026-01-11 01:05:07.80	326.76	24.61	-38.0	-39.0	22.5	0.00e+00	66	30	0	1119879168	48	6431
2026-01-11 01:05:08.81	326.87	24.47	-38.1	-39.1	22.4	0.00e+00	6	30	0	1120927744	48	6524
2026-01-11 01:05:09.82	326.98	24.32	-37.9	-38.9	22.6	0.00e+00	14	30	0	1123024896	48	6359
2026-01-11 01:05:10.83	327.09	24.18	-38.0	-39.0	22.4	0.00e+00	91	30	0	1125122048	48	6451
2026-01-11 01:05:11.84	327.19	24.03	-37.8	-38.8	22.7	0.00e+00	66	30	0	1127219200	48	6272
2026-01-11 01:05:12.85	327.30	23.89	-37.7	-38.6	22.9	0.00e+00	90	30	0	1129316352	48	6162
2026-01-11 01:05:13.86	327.40	23.75	-37.4	-38.3	23.1	0.00e+00	15	30	0	1130364928	48	5920
2026-01-11 01:05:14.87	327.51	23.61	-37.4	-38.4	23.0	0.00e+00	16	30	0	1132462080	48	5997
2026-01-11 01:05:15.88	327.61	23.46	-37.5	-38.4	23.0	0.00e+00	48	30	0	1134559232	48	6023
2026-01-11 01:05:16.89	327.71	23.32	-37.4	-38.3	23.1	0.00e+00	15	30	0	1136656384	48	5927
2026-01-11 01:05:17.90	327.81	23.18	-37.5	-38.4	23.0	0.00e+00	92	30	0	1138753536	48	5992
2026-01-11 01:05:18.91	327.91	23.05	-37.4	-38.4	23.0	0.00e+00	2	30	0	1140850688	48	5984
2026-01-11 01:05:19.92	328.01	22.91	-37.3	-38.3	23.2	0.00e+00	92	30	0	1141899264	48	5908
2026-01-11 01:05:20.93	328.11	22.77	-37.5	-38.4	23.0	0.00e+00	0	30	0	1143996416	48	6027
2026-01-11 01:05:21.94	328.21	22.63	-37.5	-38.5	23.0	0.00e+00	0	30	0	1146093568	48	6060
2026-01-11 01:05:22.94	328.30	22.50	-37.6	-38.6	22.8	0.00e+00	2	30	0	1148190720	48	6160
2026-01-11 01:05:23.95	328.40	22.36	-37.8	-38.8	22.6	0.00e+00	0	30	0	1150287872	48	6307
2026-01-11 01:05:24.96	328.49	22.23	-38.0	-39.0	22.4	0.00e+00	92	30	0	1151336448	48	6446
2026-01-11 01:05:25.97	328.59	22.09	-38.1	-39.1	22.4	0.00e+00	0	30	0	1153433600	48	6510
2026-01-11 01:05:26.98	328.68	21.96	-38.0	-39.1	22.4	0.00e+00	92	30	0	1155530752	48	6475
2026-01-11 01:05:27.99	328.77	21.83	-38.0	-39.0	22.4	0.00e+00	65	30	0	1157627904	48	6428
2026-01-11 01:05:29.00	328.87	21.69	-37.9	-39.0	22.5	0.00e+00	66	30	0	1159725056	48	6403
2026-01-11 01:05:30.01	328.96	21.56	-37.8	-38.8	22.6	0.00e+00	66	30	0	1160773632	48	6308
2026-01-11 01:05:31.02	329.05	21.43	-37.5	-38.5	22.8	0.00e+00	0	30	0	1162870784	48	6076
2026-01-11 01:05:32.03	329.14	21.30	-37.3	-38.2	23.1	0.00e+00	89	30	0	1164967936	48	5864
2026-01-11 01:05:33.04	329.23	21.17	-37.4	-38.4	22.9	0.00e+00	66	30	0	1167065088	48	5973
2026-01-11 01:05:34.05	329.31	21.04	-37.0	-37.9	23.4	0.00e+00	91	30	0	1169162240	48	5661
2026-01-11 01:05:35.06	329.40	20.91	-36.8	-37.7	23.6	0.00e+00	15	30	0	1170210816	48	5523
2026-01-11 01:05:36.07	329.49	20.78	-36.7	-37.6	23.7	0.00e+00	91	30	0	1172307968	46	6122
2026-01-11 01:05:37.08	329.58	20.66	-36.9	-37.7	23.6	0.00e+00	0	30	0	1174405120	46	6243
2026-01-11 01:05:38.09	329.66	20.53	-36.7	-37.6	23.7	0.00e+00	16	30	0	1176502272	46	6148
2026-01-11 01:05:39.10	329.75	20.40	-36.7	-37.6	23.7	0.00e+00	0	30	0	1178599424	46	6158
2026-01-11 01:05:40.11	329.83	20.28	-36.9	-37.7	23.6	0.00e+00	2	30	0	1179648000	46	6237
2026-01-11 01:05:41.12	329.91	20.15	-36.9	-37.9	23.4	0.00e+00	92	30	0	1181745152	46	6320
2026-01-11 01:05:42.13	330.00	20.03	-37.1	-38.0	23.3	0.00e+00	0	30	0	1183842304	46	6444
2026-01-11 01:05:43.14	330.08	19.90	-37.3	-38.2	23.2	0.00e+00	92	30	0	1185939456	46	6584
2026-01-11 01:05:44.15	330.16	19.78	-37.4	-38.4	23.0	0.00e+00	0	30	0	1188036608	46	6711
2026-01-11 01:05:45.16	330.24	19.66	-37.6	-38.5	22.9	0.00e+00	2	30	0	1189085184	46	6841
2026-01-11 01:05:46.16	330.32	19.54	-37.7	-38.7	22.7	0.00e+00	0	30	0	1191182336	46	6992
2026-01-11 01:05:47.17	330.40	19.41	-37.7	-38.7	22.7	0.00e+00	0	30	0	1193279488	48	6193
2026-01-11 01:05:48.18	330.48	19.29	-37.9	-38.9	22.5	0.00e+00	92	30	0	1195376640	48	6364
2026-01-11 01:05:49.19	330.56	19.17	-38.0	-39.0	22.3	0.00e+00	65	30	0	1197473792	48	6456
