passes_logs/2026/01/11/R4.6S_Anadyr/R4.6S_Anadyr__20260111_013323_FENGYUN_3D_rec.log

#Pass ID: 20260111_013323_FENGYUN 3D
#Satellite: FENGYUN 3D
#Configuration: FENGYUN 3D
#almurnet v.1.7.20251203
#Start time: 2026-01-11 01:33:25

#Version: 2.2.20231116
#Station: R4.6S_Anadyr
#Location: 177.4865 lon 64.73178 lat
#TLE: 1 43010U 17072A   26009.92921666 -.00000228  00000+0 -86059-4 0  9998
#TLE: 2 43010  98.9936 341.6668 0002176 116.7510 243.3888 14.19693142422537

#Time	Az	El	Level	Level2	SNR	BER	BlckErr	Temp	State	Recorded	gain1	gain2
2026-01-11 01:33:25.87	139.02	0.12	-48.2	-65.9	3.5	3.02e+01	0	28	0	0	60	75765
2026-01-11 01:33:26.88	139.01	0.18	-48.0	-60.2	3.6	8.45e-01	0	29	104	0	60	36888
2026-01-11 01:33:27.89	138.99	0.24	-48.1	-60.2	3.5	8.45e-01	0	29	104	0	60	36958
2026-01-11 01:33:28.90	138.97	0.30	-48.1	-60.2	3.6	8.46e-01	0	29	104	0	60	36776
2026-01-11 01:33:29.90	138.96	0.36	-48.1	-60.1	3.6	8.44e-01	0	29	104	0	60	36730
2026-01-11 01:33:30.91	138.94	0.42	-47.7	-60.1	3.6	8.45e-01	0	29	104	0	60	36673
2026-01-11 01:33:31.92	138.93	0.48	-48.0	-60.1	3.6	8.46e-01	0	29	104	0	60	36466
2026-01-11 01:33:32.93	138.91	0.54	-47.9	-60.1	3.6	8.46e-01	0	29	104	0	60	36477
2026-01-11 01:33:33.94	138.90	0.61	-47.9	-60.0	3.6	8.45e-01	0	29	104	0	60	36204
2026-01-11 01:33:34.95	138.88	0.67	-47.7	-59.9	3.6	8.45e-01	0	29	104	0	60	35704
2026-01-11 01:33:35.96	138.86	0.73	-47.7	-59.8	3.6	8.45e-01	0	29	104	0	60	35443
2026-01-11 01:33:36.97	138.85	0.79	-47.5	-59.7	3.6	8.46e-01	0	30	104	0	60	34996
2026-01-11 01:33:37.98	138.83	0.85	-47.5	-59.6	3.6	8.46e-01	0	30	104	0	60	34456
2026-01-11 01:33:38.99	138.81	0.91	-47.1	-59.2	3.6	8.46e-01	0	30	104	0	60	33117
2026-01-11 01:33:40.00	138.80	0.98	-46.9	-59.2	3.6	8.45e-01	0	30	104	0	60	32941
2026-01-11 01:33:41.01	138.78	1.04	-46.8	-58.9	3.6	8.45e-01	0	30	104	0	60	31777
2026-01-11 01:33:42.02	138.76	1.10	-46.1	-58.3	3.6	8.45e-01	0	30	104	0	60	29665
2026-01-11 01:33:43.03	138.75	1.16	-45.9	-58.3	3.6	8.46e-01	0	30	104	0	60	29852
2026-01-11 01:33:44.04	138.73	1.23	-45.9	-58.4	3.6	8.44e-01	0	30	104	0	60	30048
2026-01-11 01:33:45.05	138.71	1.29	-45.9	-58.3	3.6	8.45e-01	0	30	104	0	60	29858
2026-01-11 01:33:46.06	138.70	1.35	-45.9	-58.3	3.6	8.45e-01	0	30	104	0	60	29793
2026-01-11 01:33:47.07	138.68	1.41	-45.9	-58.3	3.6	8.45e-01	0	30	104	0	60	29756
2026-01-11 01:33:48.08	138.66	1.48	-45.9	-58.3	3.6	8.45e-01	0	30	104	0	60	29844
2026-01-11 01:33:49.09	138.64	1.54	-45.9	-58.4	3.6	8.46e-01	0	30	104	0	60	29920
2026-01-11 01:33:50.10	138.63	1.60	-45.9	-58.3	3.6	8.46e-01	0	30	104	0	60	29845
2026-01-11 01:33:51.11	138.61	1.67	-45.9	-58.4	3.6	8.44e-01	0	30	104	0	60	29929
2026-01-11 01:33:52.12	138.59	1.73	-45.9	-58.2	3.6	8.46e-01	0	30	104	0	60	29547
2026-01-11 01:33:53.13	138.57	1.80	-45.9	-58.1	3.6	8.46e-01	0	30	104	0	60	29097
2026-01-11 01:33:54.14	138.56	1.86	-45.9	-58.0	3.6	8.45e-01	0	30	104	0	60	28743
2026-01-11 01:33:55.15	138.54	1.92	-45.9	-58.0	3.6	8.46e-01	0	30	104	0	60	28597
2026-01-11 01:33:56.16	138.52	1.99	-45.9	-58.0	3.6	8.45e-01	0	30	104	0	60	28564
2026-01-11 01:33:57.17	138.50	2.05	-45.9	-58.1	3.6	8.45e-01	0	30	104	0	60	28922
2026-01-11 01:33:58.18	138.49	2.12	-45.9	-58.2	3.6	8.46e-01	0	30	104	0	60	29448
2026-01-11 01:33:59.19	138.47	2.18	-45.9	-58.3	3.6	8.46e-01	0	30	104	0	60	29785
2026-01-11 01:34:00.19	138.45	2.25	-45.9	-58.3	3.6	8.45e-01	0	30	104	0	60	29739
2026-01-11 01:34:01.20	138.43	2.31	-45.9	-58.3	3.6	8.46e-01	0	30	104	0	60	29847
2026-01-11 01:34:02.21	138.41	2.38	-45.9	-58.3	3.6	8.45e-01	0	30	104	0	60	29580
2026-01-11 01:34:03.23	138.39	2.44	-45.9	-58.1	3.6	8.45e-01	0	30	104	0	60	29180
2026-01-11 01:34:04.23	138.37	2.51	-45.9	-58.1	3.6	8.45e-01	0	30	104	0	60	28930
2026-01-11 01:34:05.24	138.36	2.57	-45.9	-57.9	3.6	8.45e-01	0	30	104	0	60	28528
2026-01-11 01:34:06.25	138.34	2.64	-45.8	-57.7	3.6	8.46e-01	0	30	104	0	60	27625
2026-01-11 01:34:07.26	138.32	2.70	-45.8	-57.3	3.6	8.45e-01	0	30	104	0	60	26622
2026-01-11 01:34:08.27	138.30	2.77	-45.8	-57.2	3.6	8.44e-01	0	30	104	0	60	26142
2026-01-11 01:34:09.28	138.28	2.84	-45.8	-56.9	3.6	8.45e-01	0	30	104	0	60	25392
2026-01-11 01:34:10.29	138.26	2.90	-45.8	-57.1	3.6	8.45e-01	0	30	104	0	60	25790
2026-01-11 01:34:11.30	138.24	2.97	-45.8	-57.5	3.6	8.44e-01	0	30	104	0	60	27046
2026-01-11 01:34:12.31	138.22	3.03	-45.9	-57.9	3.6	8.44e-01	0	30	104	0	60	28261
2026-01-11 01:34:13.32	138.20	3.10	-45.8	-57.3	3.6	8.45e-01	0	30	104	0	60	26548
2026-01-11 01:34:14.33	138.18	3.17	-45.5	-54.3	4.2	8.43e-01	0	30	104	0	60	18683
2026-01-11 01:34:15.34	138.16	3.24	-44.9	-50.4	6.1	6.09e-01	0	30	0	1048576	60	12036
2026-01-11 01:34:16.35	138.14	3.30	-44.0	-48.0	8.9	1.21e-02	0	30	0	6291456	60	9046
2026-01-11 01:34:17.36	138.12	3.37	-42.5	-45.2	12.0	2.81e-03	0	30	0	12582912	58	7342
2026-01-11 01:34:18.37	138.10	3.44	-41.5	-43.7	13.6	6.17e-05	0	30	0	17825792	56	6930
2026-01-11 01:34:19.38	138.08	3.51	-40.5	-42.3	15.2	1.10e-06	0	30	0	24117248	54	6653
2026-01-11 01:34:20.39	138.06	3.57	-39.4	-40.9	16.5	0.00e+00	0	30	0	29360128	52	6348
2026-01-11 01:34:21.40	138.04	3.64	-38.8	-40.2	17.2	0.00e+00	0	30	0	35651584	52	5830
2026-01-11 01:34:22.41	138.02	3.71	-38.3	-39.6	17.7	0.00e+00	0	30	0	40894464	50	6119
2026-01-11 01:34:23.42	138.00	3.78	-38.3	-39.5	17.8	0.00e+00	0	30	0	46137344	50	6062
2026-01-11 01:34:24.43	137.98	3.85	-38.9	-40.3	16.0	0.00e+00	0	30	0	52428800	50	6664
2026-01-11 01:34:25.44	137.96	3.92	-44.7	-49.5	5.4	8.44e-01	0	30	104	53477376	60	10805
2026-01-11 01:34:26.45	137.94	3.98	-35.4	-36.3	19.0	1.30e-01	0	30	104	53477376	44	5960
2026-01-11 01:34:27.46	137.92	4.05	-44.5	-49.3	9.4	7.80e-01	0	30	104	53477376	60	10585
2026-01-11 01:34:28.47	137.90	4.12	-37.6	-38.6	19.7	4.41e-02	0	30	0	55574528	54	4351
2026-01-11 01:34:29.48	137.88	4.19	-41.3	-43.3	14.4	5.95e-03	0	30	0	60817408	58	5937
2026-01-11 01:34:30.49	137.85	4.26	-36.0	-37.0	20.6	0.00e+00	0	30	0	67108864	46	5711
2026-01-11 01:34:31.50	137.83	4.33	-35.4	-36.3	21.1	0.00e+00	0	30	0	72351744	44	5948
2026-01-11 01:34:32.51	137.81	4.40	-35.8	-36.7	20.9	0.00e+00	0	30	0	78643200	44	6185
2026-01-11 01:34:33.52	137.79	4.47	-35.2	-36.1	21.3	0.00e+00	0	30	0	83886080	44	5767
2026-01-11 01:34:34.53	137.77	4.54	-34.9	-35.7	21.7	0.00e+00	0	30	0	90177536	44	5545
2026-01-11 01:34:35.54	137.75	4.61	-35.1	-35.9	21.5	0.00e+00	0	30	0	95420416	44	5664
2026-01-11 01:34:36.55	137.72	4.68	-35.1	-36.0	21.5	0.00e+00	0	30	0	101711872	44	5715
2026-01-11 01:34:37.56	137.70	4.75	-34.8	-35.7	21.4	0.00e+00	0	30	0	106954752	44	5509
2026-01-11 01:34:38.57	137.68	4.83	-34.6	-35.4	22.0	0.00e+00	0	30	0	112197632	42	6031
2026-01-11 01:34:39.58	137.66	4.90	-34.5	-35.4	22.1	0.00e+00	0	30	0	118489088	42	5971
2026-01-11 01:34:40.59	137.63	4.97	-34.6	-35.5	22.0	0.00e+00	0	30	0	123731968	42	6038
2026-01-11 01:34:41.60	137.61	5.04	-34.5	-35.4	22.1	0.00e+00	0	30	0	130023424	42	5968
2026-01-11 01:34:42.61	137.59	5.11	-34.7	-35.5	21.9	0.00e+00	0	30	0	135266304	42	6086
2026-01-11 01:34:43.62	137.57	5.18	-34.7	-35.6	21.9	0.00e+00	0	30	0	140509184	42	6150
2026-01-11 01:34:44.63	137.54	5.26	-34.5	-35.3	22.3	0.00e+00	0	30	0	146800640	42	5923
2026-01-11 01:34:45.64	137.52	5.33	-34.5	-35.3	22.2	0.00e+00	0	30	0	152043520	42	5948
2026-01-11 01:34:46.65	137.50	5.40	-34.4	-35.2	22.3	0.00e+00	0	30	0	158334976	42	5835
2026-01-11 01:34:47.66	137.47	5.47	-34.5	-35.3	22.3	0.00e+00	0	30	0	163577856	42	5907
2026-01-11 01:34:48.67	137.45	5.55	-34.2	-35.0	22.4	0.00e+00	0	30	0	168820736	42	5759
2026-01-11 01:34:49.68	137.42	5.62	-34.2	-35.0	22.6	0.00e+00	0	30	0	175112192	42	5735
2026-01-11 01:34:50.69	137.40	5.69	-34.3	-35.1	22.5	0.00e+00	0	30	0	180355072	42	5813
2026-01-11 01:34:51.70	137.38	5.77	-34.5	-35.3	22.3	0.00e+00	0	30	0	186646528	42	5940
2026-01-11 01:34:52.71	137.35	5.84	-34.4	-35.2	22.5	0.00e+00	0	30	0	191889408	42	5871
2026-01-11 01:34:53.72	137.33	5.91	-34.3	-35.1	22.5	0.00e+00	0	30	0	198180864	42	5771
2026-01-11 01:34:54.73	137.30	5.99	-34.4	-35.2	22.4	0.00e+00	0	30	0	203423744	42	5845
2026-01-11 01:34:55.74	137.28	6.06	-34.4	-35.2	22.5	0.00e+00	0	30	0	209715200	42	5887
2026-01-11 01:34:56.75	137.25	6.14	-34.3	-35.1	22.6	0.00e+00	0	30	0	214958080	42	5782
2026-01-11 01:34:57.76	137.23	6.21	-34.1	-34.8	22.8	0.00e+00	0	30	0	220200960	42	5619
2026-01-11 01:34:58.77	137.20	6.29	-34.1	-34.9	22.8	0.00e+00	0	30	0	226492416	42	5658
2026-01-11 01:34:59.78	137.18	6.36	-34.0	-34.8	22.9	0.00e+00	0	30	0	231735296	42	5610
2026-01-11 01:35:00.78	137.15	6.44	-34.1	-34.8	22.8	0.00e+00	0	30	0	238026752	42	5630
2026-01-11 01:35:01.80	137.13	6.51	-33.9	-34.7	23.0	0.00e+00	0	30	0	243269632	42	5515
2026-01-11 01:35:02.81	137.10	6.59	-33.9	-34.7	22.9	0.00e+00	0	30	0	248512512	42	5530
2026-01-11 01:35:03.82	137.08	6.67	-34.0	-34.7	23.0	0.00e+00	0	30	0	254803968	42	5559
2026-01-11 01:35:04.83	137.05	6.74	-34.0	-34.8	22.9	0.00e+00	0	30	0	260046848	42	5589
2026-01-11 01:35:05.83	137.03	6.82	-34.1	-34.9	22.9	0.00e+00	0	30	0	265289728	42	5637
2026-01-11 01:35:06.84	137.00	6.89	-33.9	-34.7	23.1	0.00e+00	0	30	0	271581184	42	5515
2026-01-11 01:35:07.85	136.97	6.97	-34.0	-34.8	23.0	0.00e+00	0	30	0	276824064	42	5577
2026-01-11 01:35:08.86	136.95	7.05	-33.9	-34.7	23.0	0.00e+00	0	30	0	283115520	42	5508
2026-01-11 01:35:09.87	136.92	7.13	-34.0	-34.8	22.9	0.00e+00	0	30	0	288358400	42	5577
2026-01-11 01:35:10.88	136.89	7.20	-33.9	-34.7	23.1	0.00e+00	0	30	0	294649856	42	5506
2026-01-11 01:35:11.89	136.87	7.28	-33.7	-34.5	23.3	0.00e+00	0	30	0	299892736	42	5407
2026-01-11 01:35:12.90	136.84	7.36	-33.7	-34.5	23.3	0.00e+00	0	30	0	306184192	40	6037
2026-01-11 01:35:13.91	136.81	7.44	-33.8	-34.5	23.2	0.00e+00	0	30	0	311427072	40	6102
2026-01-11 01:35:14.92	136.78	7.52	-33.7	-34.5	23.2	0.00e+00	0	30	0	316669952	40	6067
2026-01-11 01:35:15.93	136.76	7.60	-33.7	-34.5	23.3	0.00e+00	0	30	0	322961408	40	6082
2026-01-11 01:35:16.94	136.73	7.67	-33.6	-34.3	23.4	0.00e+00	0	30	0	328204288	40	5957
2026-01-11 01:35:17.95	136.70	7.75	-33.7	-34.4	23.3	0.00e+00	0	30	0	334495744	40	6019
2026-01-11 01:35:18.96	136.67	7.83	-33.8	-34.6	23.3	0.00e+00	0	30	0	339738624	40	6104
2026-01-11 01:35:19.97	136.64	7.91	-33.5	-34.3	23.5	0.00e+00	0	30	0	344981504	40	5912
2026-01-11 01:35:20.98	136.62	7.99	-33.7	-34.5	23.2	0.00e+00	0	30	0	351272960	40	6060
2026-01-11 01:35:21.99	136.59	8.07	-33.5	-34.3	23.6	0.00e+00	0	30	0	356515840	40	5927
2026-01-11 01:35:23.00	136.56	8.15	-33.5	-34.2	23.6	0.00e+00	0	30	0	362807296	40	5868
2026-01-11 01:35:24.01	136.53	8.23	-33.7	-34.4	23.3	0.00e+00	0	30	0	368050176	40	6022
2026-01-11 01:35:25.02	136.50	8.32	-33.7	-34.4	23.3	0.00e+00	0	30	0	373293056	40	6024
2026-01-11 01:35:26.03	136.47	8.40	-33.4	-34.1	23.7	0.00e+00	0	30	0	379584512	40	5807
2026-01-11 01:35:27.04	136.44	8.48	-33.3	-34.0	23.8	0.00e+00	0	30	0	384827392	40	5731
2026-01-11 01:35:28.05	136.41	8.56	-33.2	-33.9	24.0	0.00e+00	0	30	0	391118848	40	5656
2026-01-11 01:35:29.06	136.38	8.64	-33.2	-34.0	23.8	0.00e+00	0	30	0	396361728	40	5714
2026-01-11 01:35:30.07	136.35	8.72	-33.3	-34.0	23.8	0.00e+00	0	30	0	402653184	40	5744
2026-01-11 01:35:31.08	136.32	8.81	-33.1	-33.8	23.9	0.00e+00	0	30	0	407896064	40	5624
2026-01-11 01:35:32.09	136.29	8.89	-33.2	-33.9	23.8	0.00e+00	0	30	0	414187520	40	5686
2026-01-11 01:35:33.10	136.26	8.97	-33.3	-34.1	23.8	0.00e+00	0	30	0	419430400	40	5772
2026-01-11 01:35:34.11	136.23	9.06	-33.2	-33.9	23.8	0.00e+00	0	30	0	424673280	40	5681
2026-01-11 01:35:35.12	136.20	9.14	-33.0	-33.7	24.1	0.00e+00	0	30	0	430964736	40	5522
2026-01-11 01:35:36.13	136.17	9.22	-33.0	-33.7	24.1	0.00e+00	0	30	0	436207616	40	5543
2026-01-11 01:35:37.14	136.13	9.31	-32.9	-33.7	24.1	0.00e+00	0	30	0	442499072	40	5523
2026-01-11 01:35:38.15	136.10	9.39	-33.0	-33.7	24.1	0.00e+00	0	30	0	447741952	40	5521
2026-01-11 01:35:39.16	136.07	9.48	-33.0	-33.7	24.2	0.00e+00	0	30	0	452984832	40	5535
2026-01-11 01:35:40.09	136.04	9.56	-32.9	-33.6	24.2	0.00e+00	0	30	0	459276288	40	5454
2026-01-11 01:35:41.10	136.01	9.64	-32.8	-33.5	24.3	0.00e+00	0	30	0	464519168	38	6064
2026-01-11 01:35:42.11	135.98	9.73	-32.8	-33.5	24.4	0.00e+00	0	30	0	470810624	38	6052
2026-01-11 01:35:43.12	135.94	9.81	-32.8	-33.5	24.4	0.00e+00	0	30	0	476053504	38	6048
2026-01-11 01:35:44.13	135.91	9.90	-32.7	-33.4	24.4	0.00e+00	0	30	0	481296384	38	6024
2026-01-11 01:35:45.14	135.88	9.98	-32.8	-33.5	24.3	0.00e+00	0	30	0	487587840	38	6100
2026-01-11 01:35:46.15	135.84	10.07	-32.7	-33.4	24.5	0.00e+00	0	30	0	492830720	38	5996
2026-01-11 01:35:47.16	135.81	10.16	-32.8	-33.5	24.4	0.00e+00	0	30	0	499122176	38	6083
2026-01-11 01:35:48.17	135.78	10.25	-32.9	-33.6	24.2	0.00e+00	0	30	0	504365056	38	6163
2026-01-11 01:35:49.18	135.74	10.33	-32.8	-33.6	24.4	0.00e+00	0	30	0	510656512	38	6108
2026-01-11 01:35:50.19	135.71	10.42	-32.6	-33.3	24.5	0.00e+00	0	30	0	515899392	38	5953
2026-01-11 01:35:51.20	135.67	10.51	-32.8	-33.5	24.3	0.00e+00	0	30	0	521142272	38	6076
2026-01-11 01:35:52.21	135.64	10.60	-32.6	-33.3	24.6	0.00e+00	0	30	0	527433728	38	5923
2026-01-11 01:35:53.22	135.61	10.69	-32.7	-33.4	24.6	0.00e+00	0	30	0	532676608	38	5995
2026-01-11 01:35:54.23	135.57	10.78	-32.5	-33.2	24.6	0.00e+00	0	30	0	538968064	38	5893
2026-01-11 01:35:55.24	135.53	10.87	-32.6	-33.4	24.5	0.00e+00	0	30	0	544210944	38	5966
2026-01-11 01:35:56.25	135.50	10.96	-32.6	-33.3	24.6	0.00e+00	0	30	0	549453824	38	5915
2026-01-11 01:35:57.26	135.46	11.05	-32.7	-33.4	24.5	0.00e+00	0	30	0	555745280	38	5975
2026-01-11 01:35:58.26	135.43	11.13	-32.6	-33.3	24.7	0.00e+00	0	30	0	560988160	38	5929
2026-01-11 01:35:59.27	135.39	11.23	-32.7	-33.4	24.5	0.00e+00	0	30	0	567279616	38	5990
2026-01-11 01:36:00.28	135.35	11.32	-32.5	-33.3	24.7	0.00e+00	0	30	0	572522496	38	5898
2026-01-11 01:36:01.29	135.32	11.41	-32.7	-33.4	24.5	0.00e+00	0	30	0	577765376	38	5984
2026-01-11 01:36:02.30	135.28	11.50	-32.5	-33.2	24.7	0.00e+00	0	30	0	584056832	38	5853
2026-01-11 01:36:03.31	135.24	11.59	-32.6	-33.3	24.6	0.00e+00	0	30	0	589299712	38	5930
2026-01-11 01:36:04.32	135.21	11.68	-32.5	-33.2	24.7	0.00e+00	0	30	0	595591168	38	5863
2026-01-11 01:36:05.33	135.17	11.78	-32.5	-33.2	24.7	0.00e+00	0	30	0	600834048	38	5882
2026-01-11 01:36:06.34	135.13	11.87	-32.4	-33.1	24.8	0.00e+00	0	30	0	607125504	38	5800
2026-01-11 01:36:07.35	135.09	11.96	-32.5	-33.2	24.7	0.00e+00	0	30	0	612368384	38	5884
2026-01-11 01:36:08.36	135.05	12.06	-32.4	-33.1	24.8	0.00e+00	0	29	0	618659840	38	5790
2026-01-11 01:36:09.37	135.01	12.15	-32.5	-33.2	24.8	0.00e+00	0	30	0	623902720	38	5847
2026-01-11 01:36:10.38	134.98	12.25	-32.5	-33.2	24.8	0.00e+00	0	30	0	629145600	38	5853
2026-01-11 01:36:11.39	134.94	12.34	-32.4	-33.0	24.9	0.00e+00	0	30	0	635437056	38	5744
2026-01-11 01:36:12.40	134.90	12.44	-32.3	-33.0	24.9	0.00e+00	0	29	0	640679936	38	5747
2026-01-11 01:36:13.41	134.86	12.53	-32.2	-32.9	25.0	0.00e+00	0	30	0	646971392	38	5674
2026-01-11 01:36:14.42	134.82	12.63	-32.2	-32.9	25.1	0.00e+00	0	30	0	652214272	38	5655
2026-01-11 01:36:15.43	134.78	12.72	-32.2	-32.9	24.9	0.00e+00	0	30	0	657457152	38	5675
2026-01-11 01:36:16.44	134.74	12.82	-32.3	-33.0	25.0	0.00e+00	0	30	0	663748608	38	5699
2026-01-11 01:36:17.45	134.69	12.92	-32.1	-32.8	25.1	0.00e+00	0	30	0	668991488	38	5595
2026-01-11 01:36:18.46	134.65	13.01	-32.1	-32.8	25.2	0.00e+00	0	30	0	675282944	38	5623
2026-01-11 01:36:19.47	134.61	13.11	-32.0	-32.7	25.3	0.00e+00	0	30	0	680525824	38	5562
2026-01-11 01:36:20.48	134.57	13.21	-32.0	-32.7	25.2	0.00e+00	0	30	0	685768704	38	5519
2026-01-11 01:36:21.49	134.53	13.31	-32.0	-32.7	25.2	0.00e+00	0	30	0	692060160	38	5539
2026-01-11 01:36:22.50	134.48	13.41	-32.0	-32.7	25.2	0.00e+00	0	30	0	697303040	38	5541
2026-01-11 01:36:23.51	134.44	13.51	-32.1	-32.8	25.2	0.00e+00	0	30	0	703594496	38	5579
2026-01-11 01:36:24.52	134.40	13.61	-31.9	-32.5	25.4	0.00e+00	0	29	0	708837376	38	5424
2026-01-11 01:36:25.53	134.35	13.71	-31.9	-32.6	25.3	0.00e+00	0	30	0	715128832	38	5486
2026-01-11 01:36:26.54	134.31	13.81	-31.9	-32.5	25.4	0.00e+00	0	30	0	720371712	38	5410
2026-01-11 01:36:27.55	134.27	13.91	-31.8	-32.5	25.5	0.00e+00	0	30	0	725614592	38	5402
2026-01-11 01:36:28.56	134.22	14.01	-31.7	-32.3	25.6	0.00e+00	0	29	0	731906048	36	5940
2026-01-11 01:36:29.56	134.18	14.11	-31.7	-32.4	25.5	0.00e+00	0	30	0	737148928	36	5986
2026-01-11 01:36:30.58	134.13	14.21	-31.7	-32.4	25.6	0.00e+00	0	30	0	743440384	36	6015
2026-01-11 01:36:31.59	134.09	14.31	-31.6	-32.3	25.6	0.00e+00	0	30	0	748683264	36	5946
2026-01-11 01:36:32.59	134.04	14.42	-31.5	-32.2	25.8	0.00e+00	0	29	0	753926144	36	5862
2026-01-11 01:36:33.60	134.00	14.52	-31.6	-32.3	25.6	0.00e+00	0	29	0	760217600	36	5916
2026-01-11 01:36:34.61	133.95	14.62	-31.6	-32.2	25.7	0.00e+00	0	29	0	765460480	36	5896
2026-01-11 01:36:35.62	133.90	14.73	-31.5	-32.2	25.8	0.00e+00	0	29	0	771751936	36	5871
2026-01-11 01:36:36.63	133.86	14.83	-31.6	-32.3	25.5	0.00e+00	0	29	0	776994816	36	5922
2026-01-11 01:36:37.64	133.81	14.94	-31.4	-32.1	25.8	0.00e+00	0	30	0	782237696	36	5780
2026-01-11 01:36:38.65	133.76	15.04	-31.4	-32.1	25.9	0.00e+00	0	29	0	788529152	36	5766
2026-01-11 01:36:39.66	133.71	15.15	-31.5	-32.1	25.7	0.00e+00	0	30	0	793772032	36	5826
2026-01-11 01:36:40.67	133.66	15.25	-31.6	-32.3	25.7	0.00e+00	0	29	0	800063488	36	5905
2026-01-11 01:36:41.68	133.61	15.36	-31.5	-32.2	25.7	0.00e+00	0	29	0	805306368	36	5871
2026-01-11 01:36:42.69	133.56	15.47	-31.4	-32.0	25.9	0.00e+00	0	29	0	811597824	36	5758
2026-01-11 01:36:43.70	133.51	15.58	-31.3	-32.0	26.0	0.00e+00	0	29	0	816840704	36	5726
2026-01-11 01:36:44.71	133.46	15.68	-31.4	-32.0	25.9	0.00e+00	0	29	0	823132160	36	5722
2026-01-11 01:36:45.72	133.41	15.79	-31.4	-32.1	26.0	0.00e+00	0	29	0	828375040	36	5773
2026-01-11 01:36:46.73	133.36	15.90	-31.0	-31.6	26.3	0.00e+00	0	29	0	833617920	36	5493
2026-01-11 01:36:47.74	133.31	16.01	-31.0	-31.7	26.2	0.00e+00	0	29	0	839909376	36	5508
2026-01-11 01:36:48.75	133.26	16.12	-31.0	-31.6	26.3	0.00e+00	0	29	0	845152256	36	5501
2026-01-11 01:36:49.76	133.21	16.23	-31.0	-31.6	26.3	0.00e+00	0	29	0	851443712	36	5499
2026-01-11 01:36:50.77	133.16	16.34	-30.9	-31.5	26.4	0.00e+00	0	29	0	856686592	36	5422
2026-01-11 01:36:51.78	133.10	16.45	-30.7	-31.3	26.5	0.00e+00	0	29	0	861929472	34	5951
2026-01-11 01:36:52.79	133.05	16.57	-30.6	-31.3	26.6	0.00e+00	0	29	0	868220928	34	5929
2026-01-11 01:36:53.80	133.00	16.68	-30.6	-31.3	26.5	0.00e+00	0	29	0	873463808	34	5916
2026-01-11 01:36:54.81	132.94	16.79	-30.6	-31.2	26.6	0.00e+00	0	29	0	879755264	34	5849
2026-01-11 01:36:55.82	132.89	16.90	-30.6	-31.3	26.6	0.00e+00	0	29	0	884998144	34	5904
2026-01-11 01:36:56.83	132.83	17.02	-30.6	-31.3	26.5	0.00e+00	0	29	0	890241024	34	5899
2026-01-11 01:36:57.85	132.78	17.13	-30.6	-31.2	26.7	0.00e+00	0	29	0	896532480	34	5850
2026-01-11 01:36:58.86	132.72	17.25	-30.5	-31.1	26.7	0.00e+00	0	29	0	901775360	34	5814
2026-01-11 01:36:59.87	132.66	17.36	-30.5	-31.1	26.7	0.00e+00	0	29	0	908066816	34	5806
2026-01-11 01:37:00.87	132.61	17.48	-30.5	-31.1	26.7	0.00e+00	0	29	0	913309696	34	5810
2026-01-11 01:37:01.88	132.55	17.59	-30.4	-31.1	26.7	0.00e+00	0	29	0	919601152	34	5784
2026-01-11 01:37:02.89	132.49	17.71	-30.4	-31.1	26.8	0.00e+00	0	29	0	924844032	34	5776
2026-01-11 01:37:03.91	132.43	17.83	-30.3	-31.0	26.8	0.00e+00	0	29	0	931135488	34	5706
2026-01-11 01:37:04.92	132.38	17.95	-30.5	-31.1	26.7	0.00e+00	0	29	0	936378368	34	5787
2026-01-11 01:37:05.93	132.32	18.07	-30.3	-31.0	26.7	0.00e+00	0	29	0	941621248	34	5697
2026-01-11 01:37:06.94	132.26	18.18	-30.3	-30.9	26.8	0.00e+00	0	29	0	947912704	34	5689
2026-01-11 01:37:07.95	132.20	18.30	-30.3	-31.0	26.9	0.00e+00	0	29	0	953155584	34	5712
2026-01-11 01:37:08.96	132.14	18.42	-30.3	-30.9	26.9	0.00e+00	0	29	0	959447040	34	5683
2026-01-11 01:37:09.97	132.07	18.55	-30.3	-30.9	26.9	0.00e+00	0	29	0	964689920	34	5680
2026-01-11 01:37:10.98	132.01	18.67	-30.4	-31.1	26.7	0.00e+00	0	29	0	969932800	34	5769
2026-01-11 01:37:11.99	131.95	18.79	-30.3	-30.9	26.9	0.00e+00	0	29	0	976224256	34	5655
2026-01-11 01:37:13.00	131.89	18.91	-30.3	-30.9	26.9	0.00e+00	0	29	0	981467136	34	5680
2026-01-11 01:37:14.01	131.82	19.03	-30.2	-30.8	27.0	0.00e+00	0	29	0	987758592	34	5605
2026-01-11 01:37:15.02	131.76	19.16	-30.3	-30.9	27.0	0.00e+00	0	29	0	993001472	34	5686
2026-01-11 01:37:16.03	131.70	19.28	-30.2	-30.9	27.0	0.00e+00	0	29	0	998244352	34	5631
2026-01-11 01:37:17.04	131.63	19.41	-30.3	-30.9	26.9	0.00e+00	0	29	0	1004535808	34	5644
2026-01-11 01:37:18.05	131.57	19.53	-30.2	-30.9	26.9	0.00e+00	0	29	0	1009778688	34	5644
2026-01-11 01:37:19.07	131.50	19.66	-30.2	-30.8	27.0	0.00e+00	0	29	0	1016070144	34	5609
2026-01-11 01:37:20.08	131.43	19.78	-30.2	-30.8	27.0	0.00e+00	0	29	0	1021313024	34	5624
2026-01-11 01:37:21.09	131.37	19.91	-30.2	-30.8	26.9	0.00e+00	0	29	0	1027604480	34	5574
2026-01-11 01:37:22.10	131.30	20.04	-30.3	-30.9	26.9	0.00e+00	0	29	0	1032847360	34	5669
2026-01-11 01:37:23.11	131.23	20.17	-30.1	-30.8	27.0	0.00e+00	0	29	0	1039138816	34	5584
2026-01-11 01:37:24.11	131.16	20.30	-30.2	-30.9	27.0	0.00e+00	0	29	0	1044381696	34	5636
2026-01-11 01:37:25.12	131.09	20.42	-30.2	-30.8	27.0	0.00e+00	0	29	0	1049624576	34	5619
2026-01-11 01:37:26.13	131.02	20.55	-30.2	-30.8	27.1	0.00e+00	0	29	0	1055916032	34	5587
2026-01-11 01:37:27.14	130.95	20.69	-30.2	-30.8	27.1	0.00e+00	0	29	0	1061158912	34	5588
2026-01-11 01:37:28.15	130.88	20.82	-30.2	-30.9	27.0	0.00e+00	0	29	0	1067450368	34	5632
2026-01-11 01:37:29.16	130.81	20.95	-30.0	-30.6	27.1	0.00e+00	0	29	0	1072693248	34	5473
2026-01-11 01:37:30.17	130.74	21.08	-29.9	-30.6	27.2	0.00e+00	0	29	0	1077936128	34	5460
2026-01-11 01:37:31.18	130.66	21.21	-29.9	-30.5	27.2	0.00e+00	0	29	0	1084227584	34	5435
2026-01-11 01:37:32.19	130.59	21.35	-29.8	-30.5	27.3	0.00e+00	0	29	0	1089470464	34	5392
2026-01-11 01:37:33.19	130.51	21.48	-29.8	-30.5	27.2	0.00e+00	0	29	0	1094713344	34	5390
2026-01-11 01:37:34.20	130.44	21.62	-29.8	-30.4	27.3	0.00e+00	0	29	0	1101004800	34	5360
2026-01-11 01:37:35.22	130.36	21.75	-29.8	-30.4	27.4	0.00e+00	0	29	0	1106247680	32	6005
2026-01-11 01:37:36.22	130.29	21.89	-29.9	-30.6	27.2	0.00e+00	0	29	0	1112539136	32	6124
2026-01-11 01:37:37.23	130.21	22.03	-29.6	-30.3	27.4	0.00e+00	0	29	0	1117782016	32	5921
2026-01-11 01:37:38.24	130.13	22.17	-29.9	-30.5	27.4	0.00e+00	0	29	0	1124073472	32	6061
2026-01-11 01:37:39.25	130.05	22.30	-29.7	-30.3	27.4	0.00e+00	0	29	0	1129316352	32	5954
2026-01-11 01:37:40.26	129.97	22.44	-29.6	-30.2	27.6	0.00e+00	0	29	0	1135607808	32	5850
2026-01-11 01:37:41.27	129.89	22.58	-29.6	-30.2	27.5	0.00e+00	0	29	0	1140850688	32	5876
2026-01-11 01:37:42.28	129.81	22.72	-29.6	-30.3	27.4	0.00e+00	0	29	0	1146093568	32	5902
2026-01-11 01:37:43.29	129.73	22.87	-29.5	-30.1	27.6	0.00e+00	0	29	0	1152385024	32	5820
2026-01-11 01:37:44.30	129.65	23.01	-29.6	-30.3	27.4	0.00e+00	0	29	0	1157627904	32	5897
2026-01-11 01:37:45.31	129.56	23.15	-29.4	-30.1	27.7	0.00e+00	0	29	0	1163919360	32	5765
2026-01-11 01:37:46.32	129.48	23.29	-29.4	-30.1	27.6	0.00e+00	0	29	0	1169162240	32	5777
2026-01-11 01:37:47.33	129.39	23.44	-29.4	-30.0	27.7	0.00e+00	0	29	0	1174405120	32	5747
2026-01-11 01:37:48.34	129.31	23.58	-29.4	-30.0	27.7	0.00e+00	0	29	0	1180696576	32	5735
2026-01-11 01:37:49.35	129.22	23.73	-29.2	-29.8	27.8	0.00e+00	0	29	0	1185939456	32	5624
2026-01-11 01:37:50.36	129.13	23.88	-29.3	-29.9	27.8	0.00e+00	0	29	0	1192230912	32	5650
2026-01-11 01:37:51.37	129.04	24.02	-29.2	-29.8	27.9	0.00e+00	0	29	0	1197473792	32	5607
2026-01-11 01:37:52.38	128.96	24.17	-29.1	-29.7	27.9	0.00e+00	0	29	0	1202716672	32	5532
2026-01-11 01:37:53.39	128.87	24.32	-29.1	-29.7	27.9	0.00e+00	0	29	0	1209008128	32	5507
2026-01-11 01:37:54.40	128.77	24.47	-29.1	-29.7	28.0	0.00e+00	0	29	0	1214251008	32	5551
2026-01-11 01:37:55.41	128.68	24.62	-28.9	-29.5	28.1	0.00e+00	0	29	0	1220542464	32	5398
2026-01-11 01:37:56.42	128.59	24.77	-28.9	-29.6	28.0	0.00e+00	0	29	0	1225785344	32	5445
2026-01-11 01:37:57.43	128.50	24.92	-28.9	-29.5	28.1	0.00e+00	0	29	0	1232076800	32	5407
2026-01-11 01:37:58.44	128.40	25.08	-28.9	-29.5	28.0	0.00e+00	0	29	0	1237319680	32	5413
2026-01-11 01:37:59.45	128.31	25.23	-28.9	-29.5	28.1	0.00e+00	0	29	0	1243611136	32	5432
2026-01-11 01:38:00.46	128.21	25.39	-28.8	-29.5	28.0	0.00e+00	0	29	0	1248854016	32	5388
2026-01-11 01:38:01.47	128.11	25.54	-28.9	-29.5	28.1	0.00e+00	0	29	0	1254096896	32	5419
2026-01-11 01:38:02.48	128.01	25.70	-29.0	-29.7	27.9	0.00e+00	0	29	0	1260388352	32	5512
2026-01-11 01:38:03.49	127.91	25.85	-28.9	-29.6	28.0	0.00e+00	0	29	0	1265631232	32	5444
2026-01-11 01:38:04.50	127.81	26.01	-28.9	-29.5	28.0	0.00e+00	0	29	0	1270874112	32	5397
2026-01-11 01:38:05.51	127.71	26.17	-29.0	-29.7	28.0	0.00e+00	0	29	0	1277165568	32	5504
2026-01-11 01:38:06.52	127.61	26.33	-28.9	-29.5	28.1	0.00e+00	0	29	0	1282408448	32	5438
2026-01-11 01:38:07.53	127.50	26.49	-29.0	-29.6	28.0	0.00e+00	0	29	0	1288699904	32	5466
2026-01-11 01:38:08.54	127.40	26.65	-28.9	-29.5	28.1	0.00e+00	0	29	0	1293942784	32	5408
2026-01-11 01:38:09.55	127.29	26.81	-29.0	-29.6	28.0	0.00e+00	0	29	0	1299185664	32	5462
2026-01-11 01:38:10.55	127.19	26.97	-28.9	-29.5	28.1	0.00e+00	0	29	0	1305477120	32	5415
2026-01-11 01:38:11.57	127.08	27.14	-28.9	-29.6	28.1	0.00e+00	0	29	0	1310720000	32	5445
2026-01-11 01:38:12.58	126.97	27.30	-28.8	-29.4	28.2	0.00e+00	0	29	0	1317011456	32	5348
2026-01-11 01:38:13.59	126.86	27.47	-29.0	-29.6	28.1	0.00e+00	0	29	0	1322254336	32	5459
2026-01-11 01:38:14.59	126.75	27.63	-28.9	-29.5	28.1	0.00e+00	0	29	0	1328545792	32	5402
2026-01-11 01:38:15.61	126.63	27.80	-28.9	-29.5	28.2	0.00e+00	0	29	0	1333788672	32	5414
2026-01-11 01:38:16.62	126.52	27.97	-28.8	-29.5	28.2	0.00e+00	0	29	0	1340080128	32	5380
2026-01-11 01:38:17.62	126.41	28.14	-28.9	-29.5	28.2	0.00e+00	0	29	0	1345323008	32	5380
2026-01-11 01:38:18.64	126.29	28.31	-28.9	-29.5	28.1	0.00e+00	0	29	0	1350565888	32	5379
2026-01-11 01:38:19.65	126.17	28.48	-28.9	-29.5	28.2	0.00e+00	0	29	0	1356857344	32	5379
2026-01-11 01:38:20.65	126.05	28.65	-28.8	-29.4	28.2	0.00e+00	0	29	0	1362100224	32	5352
2026-01-11 01:38:21.66	125.93	28.82	-28.9	-29.5	28.1	0.00e+00	0	29	0	1368391680	32	5423
2026-01-11 01:38:22.67	125.81	29.00	-28.8	-29.4	28.2	0.00e+00	0	29	0	1373634560	32	5359
2026-01-11 01:38:23.68	125.69	29.17	-28.8	-29.3	28.2	0.00e+00	0	29	0	1378877440	32	5315
2026-01-11 01:38:24.69	125.56	29.35	-28.7	-29.3	28.3	0.00e+00	0	29	0	1385168896	30	5960
2026-01-11 01:38:25.70	125.44	29.52	-28.8	-29.4	28.3	0.00e+00	0	29	0	1390411776	30	5968
2026-01-11 01:38:26.71	125.31	29.70	-28.8	-29.4	28.3	0.00e+00	0	29	0	1396703232	30	5988
2026-01-11 01:38:27.72	125.18	29.88	-28.7	-29.3	28.3	0.00e+00	0	29	0	1401946112	30	5928
2026-01-11 01:38:28.73	125.05	30.06	-28.6	-29.2	28.4	0.00e+00	0	29	0	1407188992	30	5863
2026-01-11 01:38:29.74	124.92	30.24	-28.6	-29.2	28.5	0.00e+00	0	29	0	1413480448	30	5847
2026-01-11 01:38:30.75	124.79	30.42	-28.5	-29.1	28.5	0.00e+00	0	29	0	1418723328	30	5801
2026-01-11 01:38:31.76	124.65	30.60	-28.5	-29.1	28.4	0.00e+00	0	29	0	1425014784	30	5820
2026-01-11 01:38:32.77	124.51	30.78	-28.4	-29.0	28.5	0.00e+00	0	29	0	1430257664	30	5727
2026-01-11 01:38:33.78	124.38	30.97	-28.5	-29.1	28.5	0.00e+00	0	29	0	1436549120	30	5800
2026-01-11 01:38:34.79	124.24	31.15	-28.5	-29.1	28.5	0.00e+00	0	29	0	1441792000	30	5788
2026-01-11 01:38:35.80	124.10	31.34	-28.5	-29.1	28.5	0.00e+00	0	29	0	1447034880	30	5812
2026-01-11 01:38:36.81	123.95	31.52	-28.6	-29.2	28.5	0.00e+00	0	29	0	1453326336	30	5835
2026-01-11 01:38:37.82	123.81	31.71	-28.4	-29.0	28.6	0.00e+00	0	29	0	1458569216	30	5700
2026-01-11 01:38:38.83	123.66	31.90	-28.5	-29.1	28.4	0.00e+00	0	29	0	1464860672	30	5785
2026-01-11 01:38:39.84	123.51	32.09	-28.5	-29.1	28.5	0.00e+00	0	28	0	1470103552	30	5764
2026-01-11 01:38:40.85	123.36	32.28	-28.4	-28.9	28.6	0.00e+00	0	29	0	1475346432	30	5691
2026-01-11 01:38:41.85	123.21	32.47	-28.5	-29.1	28.5	0.00e+00	0	28	0	1481637888	30	5792
2026-01-11 01:38:42.86	123.06	32.66	-28.4	-29.1	28.6	0.00e+00	0	29	0	1486880768	30	5767
2026-01-11 01:38:43.87	122.91	32.86	-28.2	-28.8	28.7	0.00e+00	0	28	0	1493172224	30	5602
2026-01-11 01:38:44.88	122.75	33.05	-28.2	-28.8	28.7	0.00e+00	0	28	0	1498415104	30	5603
2026-01-11 01:38:45.89	122.59	33.25	-28.3	-28.9	28.6	0.00e+00	0	29	0	1503657984	30	5674
2026-01-11 01:38:46.90	122.43	33.44	-28.3	-28.9	28.6	0.00e+00	0	29	0	1509949440	30	5668
2026-01-11 01:38:47.91	122.27	33.64	-28.3	-28.9	28.6	0.00e+00	0	29	0	1515192320	30	5667
2026-01-11 01:38:48.92	122.10	33.84	-28.3	-28.8	28.6	0.00e+00	0	29	0	1521483776	30	5627
2026-01-11 01:38:49.93	121.93	34.04	-28.2	-28.8	28.7	0.00e+00	0	29	0	1526726656	30	5608
2026-01-11 01:38:50.94	121.76	34.24	-28.2	-28.8	28.6	0.00e+00	0	28	0	1533018112	30	5618
2026-01-11 01:38:51.95	121.59	34.44	-28.3	-28.9	28.6	0.00e+00	0	28	0	1538260992	30	5692
2026-01-11 01:38:52.97	121.42	34.65	-28.4	-29.0	28.5	0.00e+00	0	28	0	1544552448	30	5715
2026-01-11 01:38:53.97	121.24	34.85	-28.3	-28.9	28.6	0.00e+00	0	29	0	1549795328	30	5679
2026-01-11 01:38:54.99	121.06	35.06	-28.1	-28.7	28.8	0.00e+00	0	28	0	1555038208	30	5523
2026-01-11 01:38:56.00	120.88	35.26	-28.1	-28.7	28.7	0.00e+00	0	29	0	1561329664	30	5545
2026-01-11 01:38:57.01	120.70	35.47	-28.0	-28.6	28.8	0.00e+00	0	28	0	1566572544	30	5475
2026-01-11 01:38:58.02	120.52	35.68	-28.1	-28.7	28.6	0.00e+00	0	28	0	1572864000	30	5545
2026-01-11 01:38:59.03	120.33	35.89	-28.2	-28.8	28.7	0.00e+00	0	28	0	1578106880	30	5619
2026-01-11 01:39:00.04	120.14	36.10	-28.2	-28.8	28.7	0.00e+00	0	28	0	1583349760	30	5606
2026-01-11 01:39:01.05	119.95	36.31	-28.2	-28.8	28.6	0.00e+00	0	28	0	1589641216	30	5594
2026-01-11 01:39:02.06	119.75	36.52	-28.3	-28.9	28.5	0.00e+00	0	28	0	1594884096	30	5643
2026-01-11 01:39:03.07	119.55	36.73	-28.4	-29.0	28.6	0.00e+00	0	28	0	1601175552	30	5724
2026-01-11 01:39:04.08	119.35	36.95	-28.3	-28.9	28.6	0.00e+00	0	28	0	1606418432	30	5660
2026-01-11 01:39:05.09	119.15	37.16	-28.3	-28.9	28.6	0.00e+00	0	28	0	1611661312	30	5656
2026-01-11 01:39:06.10	118.94	37.38	-28.3	-28.9	28.7	0.00e+00	0	28	0	1617952768	30	5659
2026-01-11 01:39:07.11	118.74	37.59	-28.4	-29.0	28.6	0.00e+00	0	28	0	1623195648	30	5730
2026-01-11 01:39:08.11	118.53	37.81	-28.4	-29.0	28.6	0.00e+00	0	28	0	1629487104	30	5729
2026-01-11 01:39:09.12	118.31	38.03	-28.2	-28.8	28.7	0.00e+00	0	28	0	1634729984	30	5582
2026-01-11 01:39:10.13	118.10	38.25	-28.3	-28.9	28.6	0.00e+00	0	28	0	1641021440	30	5656
2026-01-11 01:39:11.14	117.88	38.47	-28.0	-28.6	28.9	0.00e+00	0	28	0	1646264320	30	5475
2026-01-11 01:39:12.15	117.65	38.69	-28.1	-28.7	28.8	0.00e+00	0	28	0	1651507200	30	5544
2026-01-11 01:39:13.16	117.43	38.91	-28.4	-29.0	28.6	0.00e+00	0	28	0	1657798656	30	5699
2026-01-11 01:39:14.17	117.20	39.14	-28.6	-29.2	28.4	0.00e+00	0	28	0	1663041536	30	5863
2026-01-11 01:39:15.18	116.96	39.36	-28.6	-29.2	28.4	0.00e+00	0	28	0	1669332992	30	5870
2026-01-11 01:39:16.19	116.73	39.59	-28.6	-29.2	28.4	0.00e+00	0	28	0	1674575872	30	5871
2026-01-11 01:39:17.19	116.49	39.81	-28.7	-29.3	28.5	0.00e+00	0	28	0	1679818752	30	5906
2026-01-11 01:39:18.20	116.25	40.04	-28.5	-29.1	28.4	0.00e+00	0	28	0	1686110208	30	5791
2026-01-11 01:39:19.22	116.00	40.27	-28.6	-29.2	28.4	0.00e+00	0	28	0	1691353088	30	5871
2026-01-11 01:39:20.22	115.75	40.49	-28.6	-29.2	28.4	0.00e+00	0	28	0	1697644544	30	5889
2026-01-11 01:39:21.23	115.50	40.72	-28.6	-29.2	28.4	0.00e+00	0	28	0	1702887424	30	5859
2026-01-11 01:39:22.25	115.24	40.96	-28.8	-29.4	28.3	0.00e+00	0	28	0	1708130304	30	5988
2026-01-11 01:39:23.25	114.98	41.18	-28.8	-29.4	28.2	0.00e+00	0	28	0	1714421760	30	5978
2026-01-11 01:39:24.26	114.72	41.42	-28.9	-29.5	28.2	0.00e+00	0	28	0	1719664640	30	6096
2026-01-11 01:39:25.27	114.45	41.65	-28.7	-29.3	28.3	0.00e+00	0	28	0	1725956096	30	5960
2026-01-11 01:39:26.29	114.18	41.89	-28.7	-29.2	28.4	0.00e+00	0	28	0	1731198976	30	5895
2026-01-11 01:39:27.29	113.90	42.12	-28.6	-29.2	28.4	0.00e+00	0	28	0	1737490432	30	5878
2026-01-11 01:39:28.30	113.62	42.35	-28.7	-29.3	28.3	0.00e+00	0	28	0	1742733312	30	5946
2026-01-11 01:39:29.31	113.34	42.59	-28.9	-29.5	28.2	0.00e+00	0	28	0	1749024768	30	6099
2026-01-11 01:39:30.32	113.05	42.82	-28.8	-29.4	28.2	0.00e+00	0	28	0	1754267648	30	6023
2026-01-11 01:39:31.33	112.76	43.06	-28.7	-29.3	28.4	0.00e+00	0	28	0	1759510528	30	5936
2026-01-11 01:39:32.34	112.46	43.30	-28.8	-29.4	28.3	0.00e+00	0	28	0	1765801984	30	5997
2026-01-11 01:39:33.35	112.16	43.54	-28.7	-29.4	28.3	0.00e+00	0	28	0	1771044864	30	5971
2026-01-11 01:39:34.36	111.85	43.78	-28.8	-29.4	28.3	0.00e+00	0	28	0	1777336320	30	6019
2026-01-11 01:39:35.37	111.54	44.02	-28.9	-29.5	28.2	0.00e+00	0	28	0	1782579200	30	6052
2026-01-11 01:39:36.38	111.23	44.26	-28.7	-29.3	28.4	0.00e+00	0	28	0	1787822080	30	5929
2026-01-11 01:39:37.39	110.91	44.50	-28.5	-29.1	28.5	0.00e+00	0	28	0	1794113536	30	5811
2026-01-11 01:39:38.40	110.58	44.74	-28.5	-29.1	28.4	0.00e+00	0	28	0	1799356416	30	5811
2026-01-11 01:39:39.41	110.25	44.98	-28.4	-29.0	28.6	0.00e+00	0	28	0	1805647872	30	5723
2026-01-11 01:39:40.42	109.91	45.22	-28.5	-29.1	28.5	0.00e+00	0	28	0	1810890752	30	5807
2026-01-11 01:39:41.43	109.57	45.46	-28.6	-29.2	28.4	0.00e+00	0	28	0	1816133632	30	5845
2026-01-11 01:39:42.43	109.23	45.70	-28.8	-29.4	28.2	0.00e+00	0	28	0	1822425088	30	6022
2026-01-11 01:39:43.44	108.88	45.94	-28.7	-29.3	28.3	0.00e+00	0	28	0	1827667968	30	5916
2026-01-11 01:39:44.45	108.52	46.19	-28.7	-29.3	28.3	0.00e+00	0	28	0	1833959424	30	5947
2026-01-11 01:39:45.46	108.16	46.43	-28.6	-29.2	28.5	0.00e+00	0	28	0	1839202304	30	5845
2026-01-11 01:39:46.47	107.79	46.67	-28.9	-29.5	28.2	0.00e+00	0	28	0	1845493760	30	6050
2026-01-11 01:39:47.48	107.42	46.92	-28.9	-29.5	28.2	0.00e+00	0	28	0	1850736640	30	6085
2026-01-11 01:39:48.49	107.04	47.16	-29.1	-29.7	28.0	0.00e+00	0	28	0	1855979520	30	6177
2026-01-11 01:39:49.50	106.65	47.40	-29.0	-29.6	28.0	0.00e+00	0	28	0	1862270976	30	6164
2026-01-11 01:39:50.51	106.26	47.65	-29.2	-29.8	28.0	0.00e+00	0	28	0	1867513856	30	6298
2026-01-11 01:39:51.52	105.86	47.89	-29.2	-29.8	27.9	0.00e+00	0	28	0	1873805312	30	6317
2026-01-11 01:39:52.53	105.46	48.13	-29.3	-29.9	27.9	0.00e+00	0	28	0	1879048192	30	6375
2026-01-11 01:39:53.54	105.05	48.37	-29.2	-29.7	28.0	0.00e+00	0	28	0	1884291072	30	6243
2026-01-11 01:39:54.55	104.63	48.62	-29.3	-29.9	27.9	0.00e+00	0	28	0	1890582528	30	6389
2026-01-11 01:39:55.56	104.20	48.86	-29.5	-30.2	27.7	0.00e+00	0	28	0	1895825408	30	6544
2026-01-11 01:39:56.57	103.77	49.10	-29.5	-30.1	27.6	0.00e+00	0	28	0	1902116864	30	6473
2026-01-11 01:39:57.58	103.34	49.34	-29.3	-29.9	27.6	0.00e+00	0	28	0	1907359744	30	6386
2026-01-11 01:39:58.59	102.89	49.58	-29.5	-30.1	27.6	0.00e+00	0	28	0	1912602624	30	6475
2026-01-11 01:39:59.60	102.44	49.82	-29.8	-30.4	27.4	0.00e+00	0	28	0	1918894080	32	6032
2026-01-11 01:40:00.61	101.98	50.06	-30.3	-30.9	27.0	0.00e+00	0	28	0	1924136960	32	6351
2026-01-11 01:40:01.62	101.51	50.30	-30.3	-31.0	27.1	0.00e+00	0	28	0	1930428416	32	6415
2026-01-11 01:40:02.63	101.04	50.54	-30.1	-30.7	27.2	0.00e+00	0	28	0	1935671296	32	6238
2026-01-11 01:40:03.63	100.56	50.77	-29.8	-30.4	27.5	0.00e+00	0	28	0	1941962752	32	5970
2026-01-11 01:40:04.64	100.07	51.01	-29.7	-30.3	27.6	0.00e+00	0	28	0	1947205632	32	5928
2026-01-11 01:40:05.65	99.58	51.24	-29.8	-30.5	27.5	0.00e+00	0	28	0	1953497088	32	6038
2026-01-11 01:40:06.66	99.07	51.47	-29.8	-30.4	27.5	0.00e+00	0	28	0	1958739968	32	5997
2026-01-11 01:40:07.67	98.56	51.71	-29.5	-30.1	27.7	0.00e+00	0	28	0	1963982848	32	5778
2026-01-11 01:40:08.68	98.04	51.94	-29.4	-29.9	27.8	0.00e+00	0	28	0	1970274304	32	5690
2026-01-11 01:40:09.69	97.51	52.17	-29.3	-30.0	27.9	0.00e+00	0	28	0	1975517184	32	5706
2026-01-11 01:40:10.70	96.97	52.40	-29.6	-30.2	27.6	0.00e+00	0	28	0	1980760064	32	5876
2026-01-11 01:40:11.71	96.43	52.62	-29.9	-30.5	27.4	0.00e+00	0	28	0	1987051520	32	6083
2026-01-11 01:40:12.72	95.88	52.85	-29.9	-30.5	27.4	0.00e+00	0	28	0	1992294400	32	6062
2026-01-11 01:40:13.73	95.31	53.07	-29.3	-29.9	27.9	0.00e+00	0	28	0	1998585856	32	5648
2026-01-11 01:40:14.74	94.74	53.29	-29.3	-30.0	27.8	0.00e+00	0	28	0	2003828736	32	5708
2026-01-11 01:40:15.75	94.16	53.51	-29.5	-30.1	27.7	0.00e+00	0	28	0	2009071616	32	5822
2026-01-11 01:40:16.76	93.57	53.73	-29.7	-30.4	27.5	0.00e+00	0	28	0	2015363072	32	5965
2026-01-11 01:40:17.77	92.98	53.94	-29.7	-30.3	27.5	0.00e+00	0	28	0	2020605952	32	5908
2026-01-11 01:40:18.78	92.37	54.16	-29.5	-30.1	27.8	0.00e+00	0	28	0	2026897408	32	5794
2026-01-11 01:40:19.78	91.76	54.36	-29.3	-29.9	27.8	0.00e+00	0	28	0	2032140288	32	5691
2026-01-11 01:40:20.80	91.13	54.57	-29.2	-29.8	27.9	0.00e+00	0	28	0	2038431744	32	5595
2026-01-11 01:40:21.81	90.50	54.78	-29.4	-30.1	27.8	0.00e+00	0	28	0	2043674624	32	5774
2026-01-11 01:40:22.81	89.86	54.98	-29.6	-30.2	27.5	0.00e+00	0	28	0	2049966080	32	5845
2026-01-11 01:40:23.82	89.21	55.18	-29.7	-30.3	27.5	0.00e+00	0	28	0	2055208960	32	5915
2026-01-11 01:40:24.83	88.55	55.37	-29.2	-29.8	27.9	0.00e+00	0	28	0	2060451840	32	5576
2026-01-11 01:40:25.84	87.88	55.57	-29.0	-29.6	28.1	0.00e+00	0	28	0	2066743296	32	5479
2026-01-11 01:40:26.85	87.20	55.76	-29.3	-29.9	27.8	0.00e+00	0	28	0	2071986176	32	5634
2026-01-11 01:40:27.86	86.51	55.94	-29.4	-30.0	27.8	0.00e+00	0	28	0	2078277632	32	5714
2026-01-11 01:40:28.87	85.81	56.13	-29.3	-29.9	27.8	0.00e+00	0	28	0	2083520512	32	5688
2026-01-11 01:40:29.88	85.10	56.31	-29.1	-29.7	28.0	0.00e+00	0	28	0	2088763392	32	5546
2026-01-11 01:40:30.89	84.39	56.48	-29.3	-29.8	27.9	0.00e+00	0	28	0	2095054848	32	5629
2026-01-11 01:40:31.90	83.66	56.65	-29.3	-29.9	27.8	0.00e+00	0	28	0	2100297728	32	5658
2026-01-11 01:40:32.90	82.94	56.82	-29.3	-29.9	27.9	0.00e+00	0	28	0	2106589184	32	5691
2026-01-11 01:40:33.91	82.19	56.98	-29.3	-29.9	27.9	0.00e+00	0	28	0	2111832064	32	5636
2026-01-11 01:40:34.93	81.43	57.14	-28.9	-29.5	28.1	0.00e+00	0	28	0	2117074944	32	5439
2026-01-11 01:40:35.93	80.68	57.30	-29.3	-30.0	27.8	0.00e+00	0	28	0	2123366400	32	5711
2026-01-11 01:40:36.94	79.91	57.45	-29.4	-30.0	27.7	0.00e+00	0	28	0	2128609280	32	5737
2026-01-11 01:40:37.95	79.13	57.59	-29.3	-29.9	27.8	0.00e+00	0	28	0	2134900736	32	5642
2026-01-11 01:40:38.96	78.35	57.73	-29.3	-29.9	27.8	0.00e+00	0	28	0	2140143616	32	5681
2026-01-11 01:40:39.97	77.55	57.87	-29.8	-30.4	27.5	0.00e+00	0	28	0	2146435072	32	6023
2026-01-11 01:40:40.98	76.75	58.00	-29.7	-30.3	27.6	0.00e+00	0	28	0	2151677952	32	5900
2026-01-11 01:40:41.99	75.94	58.13	-29.3	-29.9	27.9	0.00e+00	0	28	0	2156920832	32	5695
2026-01-11 01:40:43.00	75.12	58.25	-29.0	-29.6	28.1	0.00e+00	0	28	0	2163212288	32	5469
2026-01-11 01:40:44.01	74.30	58.37	-29.2	-29.8	27.9	0.00e+00	0	28	0	2168455168	32	5620
2026-01-11 01:40:45.02	73.47	58.48	-29.2	-29.9	27.9	0.00e+00	0	28	0	2174746624	32	5637
2026-01-11 01:40:46.03	72.63	58.58	-29.0	-29.5	28.1	0.00e+00	0	28	0	2179989504	32	5430
2026-01-11 01:40:47.04	71.78	58.68	-29.3	-29.9	28.0	0.00e+00	0	28	0	2185232384	32	5659
2026-01-11 01:40:48.05	70.93	58.78	-29.4	-30.1	27.8	0.00e+00	0	28	0	2191523840	32	5791
2026-01-11 01:40:49.06	70.08	58.86	-29.4	-30.1	27.8	0.00e+00	0	28	0	2196766720	32	5796
2026-01-11 01:40:50.07	69.21	58.95	-29.4	-29.9	27.8	0.00e+00	0	28	0	2203058176	32	5692
2026-01-11 01:40:51.08	68.35	59.02	-29.5	-30.1	27.8	0.00e+00	0	28	0	2208301056	32	5812
2026-01-11 01:40:52.09	67.47	59.09	-29.6	-30.3	27.5	0.00e+00	0	28	0	2213543936	32	5909
2026-01-11 01:40:53.10	66.60	59.16	-29.5	-30.2	27.6	0.00e+00	0	28	0	2219835392	32	5830
2026-01-11 01:40:54.11	65.71	59.22	-29.3	-29.9	27.9	0.00e+00	0	28	0	2225078272	32	5658
2026-01-11 01:40:55.12	64.83	59.27	-29.2	-29.8	28.0	0.00e+00	0	28	0	2231369728	32	5586
2026-01-11 01:40:56.13	63.94	59.31	-29.2	-29.8	27.8	0.00e+00	0	28	0	2236612608	32	5616
2026-01-11 01:40:57.14	63.05	59.35	-28.8	-29.4	28.2	0.00e+00	0	28	0	2242904064	32	5339
2026-01-11 01:40:58.15	62.16	59.39	-28.7	-29.4	28.2	0.00e+00	0	28	0	2248146944	30	5976
2026-01-11 01:40:59.16	61.26	59.41	-28.8	-29.4	28.2	0.00e+00	0	28	0	2254438400	30	6033
2026-01-11 01:41:00.17	60.36	59.43	-29.2	-29.7	28.1	0.00e+00	0	28	0	2259681280	30	6234
2026-01-11 01:41:01.18	59.46	59.45	-29.3	-29.9	27.9	0.00e+00	0	28	0	2264924160	30	6347
2026-01-11 01:41:02.19	58.57	59.45	-29.3	-29.9	27.9	0.00e+00	0	28	0	2271215616	30	6374
2026-01-11 01:41:03.20	57.67	59.45	-29.1	-29.7	28.1	0.00e+00	0	28	0	2276458496	30	6187
2026-01-11 01:41:04.21	56.77	59.45	-28.7	-29.3	28.3	0.00e+00	0	28	0	2282749952	30	5936
2026-01-11 01:41:05.22	55.87	59.44	-28.8	-29.4	28.2	0.00e+00	0	28	0	2287992832	30	6016
2026-01-11 01:41:06.23	54.97	59.42	-29.1	-29.7	28.0	0.00e+00	0	28	0	2293235712	30	6203
2026-01-11 01:41:07.24	54.07	59.39	-29.0	-29.6	28.1	0.00e+00	0	28	0	2299527168	30	6120
2026-01-11 01:41:08.25	53.18	59.36	-29.3	-29.9	27.9	0.00e+00	0	28	0	2304770048	30	6381
2026-01-11 01:41:09.26	52.29	59.32	-29.0	-29.7	27.9	0.00e+00	0	28	0	2311061504	30	6195
2026-01-11 01:41:10.27	51.40	59.28	-28.3	-28.9	28.4	0.00e+00	0	28	0	2316304384	30	5693
2026-01-11 01:41:11.28	50.51	59.23	-28.4	-29.0	28.4	0.00e+00	0	28	0	2321547264	30	5728
2026-01-11 01:41:12.29	49.63	59.17	-28.9	-29.5	28.1	0.00e+00	0	28	0	2327838720	30	6066
2026-01-11 01:41:13.30	48.75	59.11	-29.0	-29.6	28.0	0.00e+00	0	28	0	2333081600	30	6138
2026-01-11 01:41:14.31	47.88	59.04	-29.0	-29.6	28.2	0.00e+00	0	28	0	2339373056	30	6123
2026-01-11 01:41:15.32	47.01	58.97	-29.1	-29.7	28.0	0.00e+00	0	28	0	2344615936	30	6189
2026-01-11 01:41:16.33	46.15	58.89	-29.1	-29.7	28.0	0.00e+00	0	28	0	2350907392	30	6228
2026-01-11 01:41:17.34	45.29	58.80	-29.2	-29.8	28.1	0.00e+00	0	28	0	2356150272	30	6290
2026-01-11 01:41:18.35	44.44	58.71	-29.2	-29.8	28.0	0.00e+00	0	28	0	2361393152	30	6292
2026-01-11 01:41:19.36	43.59	58.61	-29.0	-29.6	28.1	0.00e+00	0	28	0	2367684608	30	6117
2026-01-11 01:41:20.37	42.75	58.51	-28.8	-29.4	28.3	0.00e+00	0	28	0	2372927488	30	6026
2026-01-11 01:41:21.37	41.93	58.40	-28.8	-29.5	28.3	0.00e+00	0	28	0	2379218944	30	6034
2026-01-11 01:41:22.38	41.10	58.28	-28.7	-29.2	28.4	0.00e+00	0	28	0	2384461824	30	5891
2026-01-11 01:41:23.39	40.28	58.16	-28.7	-29.3	28.2	0.00e+00	0	28	0	2389704704	30	5956
2026-01-11 01:41:24.40	39.47	58.04	-28.9	-29.5	28.2	0.00e+00	0	28	0	2395996160	30	6056
2026-01-11 01:41:25.41	38.67	57.91	-29.0	-29.6	28.1	0.00e+00	0	28	0	2401239040	30	6137
2026-01-11 01:41:26.41	37.88	57.78	-28.9	-29.5	28.3	0.00e+00	0	28	0	2407530496	30	6084
2026-01-11 01:41:27.42	37.09	57.64	-28.4	-29.1	28.5	0.00e+00	0	28	0	2412773376	30	5774
2026-01-11 01:41:28.43	36.31	57.49	-28.6	-29.3	28.3	0.00e+00	0	28	0	2418016256	30	5903
2026-01-11 01:41:29.44	35.54	57.34	-29.0	-29.6	28.1	0.00e+00	0	28	0	2424307712	30	6108
2026-01-11 01:41:30.45	34.78	57.19	-29.0	-29.6	28.0	0.00e+00	0	28	0	2429550592	30	6121
2026-01-11 01:41:31.46	34.03	57.03	-28.5	-29.1	28.4	0.00e+00	0	28	0	2435842048	30	5769
2026-01-11 01:41:32.47	33.28	56.87	-28.6	-29.2	28.4	0.00e+00	0	28	0	2441084928	30	5842
2026-01-11 01:41:33.48	32.54	56.70	-28.7	-29.4	28.2	0.00e+00	0	28	0	2447376384	30	5966
2026-01-11 01:41:34.49	31.82	56.53	-28.7	-29.4	28.3	0.00e+00	0	28	0	2452619264	30	5980
2026-01-11 01:41:35.50	31.10	56.36	-28.9	-29.4	28.2	0.00e+00	0	28	0	2458910720	30	6027
2026-01-11 01:41:36.51	30.39	56.18	-29.0	-29.7	28.0	0.00e+00	0	28	0	2464153600	30	6193
2026-01-11 01:41:37.52	29.69	56.00	-28.9	-29.4	28.1	0.00e+00	0	28	0	2469396480	30	6011
2026-01-11 01:41:38.53	29.00	55.81	-28.7	-29.4	28.2	0.00e+00	0	28	0	2475687936	30	5991
2026-01-11 01:41:39.54	28.32	55.62	-28.5	-29.2	28.4	0.00e+00	0	28	0	2480930816	30	5868
2026-01-11 01:41:40.55	27.65	55.43	-28.7	-29.3	28.4	0.00e+00	0	28	0	2487222272	30	5964
2026-01-11 01:41:41.56	26.98	55.24	-28.8	-29.3	28.3	0.00e+00	0	28	0	2492465152	30	5935
2026-01-11 01:41:42.57	26.33	55.04	-28.8	-29.4	28.2	0.00e+00	0	28	0	2497708032	30	5965
2026-01-11 01:41:43.58	25.69	54.84	-28.9	-29.5	28.1	0.00e+00	0	28	0	2503999488	30	6102
2026-01-11 01:41:44.59	25.05	54.63	-28.8	-29.4	28.3	0.00e+00	0	28	0	2509242368	30	5971
2026-01-11 01:41:45.60	24.43	54.43	-28.7	-29.4	28.4	0.00e+00	0	28	0	2514485248	30	5965
2026-01-11 01:41:46.61	23.81	54.22	-28.8	-29.4	28.1	0.00e+00	0	28	0	2520776704	30	6020
2026-01-11 01:41:47.62	23.20	54.01	-28.9	-29.5	28.1	0.00e+00	0	28	0	2526019584	30	6044
2026-01-11 01:41:48.63	22.60	53.79	-28.8	-29.4	28.2	0.00e+00	0	28	0	2532311040	30	5975
2026-01-11 01:41:49.64	22.01	53.58	-28.7	-29.4	28.2	0.00e+00	0	28	0	2537553920	30	5968
2026-01-11 01:41:50.65	21.43	53.36	-28.8	-29.3	28.2	0.00e+00	0	28	0	2543845376	30	5953
2026-01-11 01:41:51.66	20.86	53.14	-28.8	-29.5	28.2	0.00e+00	0	28	0	2549088256	30	6053
2026-01-11 01:41:52.67	20.29	52.92	-28.9	-29.6	28.1	0.00e+00	0	28	0	2555379712	30	6151
2026-01-11 01:41:53.68	19.74	52.69	-29.0	-29.7	28.1	0.00e+00	0	28	0	2560622592	30	6177
2026-01-11 01:41:54.69	19.19	52.47	-29.0	-29.6	28.0	0.00e+00	0	28	0	2565865472	30	6148
2026-01-11 01:41:55.70	18.65	52.24	-29.1	-29.7	27.9	0.00e+00	0	28	0	2572156928	30	6241
2026-01-11 01:41:56.71	18.12	52.01	-28.9	-29.6	28.1	0.00e+00	0	28	0	2577399808	30	6119
2026-01-11 01:41:57.72	17.60	51.78	-29.0	-29.5	28.1	0.00e+00	0	28	0	2583691264	30	6075
2026-01-11 01:41:58.73	17.09	51.55	-28.8	-29.5	28.2	0.00e+00	0	28	0	2588934144	30	6065
2026-01-11 01:41:59.74	16.58	51.32	-28.8	-29.5	28.2	0.00e+00	0	28	0	2594177024	30	6069
2026-01-11 01:42:00.75	16.08	51.08	-28.4	-29.1	28.5	0.00e+00	0	28	0	2600468480	30	5763
2026-01-11 01:42:01.76	15.59	50.85	-28.4	-29.0	28.5	0.00e+00	0	28	0	2605711360	30	5696
2026-01-11 01:42:02.77	15.11	50.61	-28.6	-29.2	28.3	0.00e+00	0	28	0	2612002816	30	5876
2026-01-11 01:42:03.78	14.64	50.38	-28.8	-29.5	28.2	0.00e+00	0	28	0	2617245696	30	6062
2026-01-11 01:42:04.79	14.17	50.14	-28.8	-29.4	28.2	0.00e+00	0	28	0	2622488576	30	6024
2026-01-11 01:42:05.79	13.71	49.90	-28.5	-29.1	28.3	0.00e+00	0	28	0	2628780032	30	5775
2026-01-11 01:42:06.80	13.26	49.66	-28.5	-29.1	28.4	0.00e+00	0	28	0	2634022912	30	5825
2026-01-11 01:42:07.81	12.81	49.42	-28.7	-29.4	28.2	0.00e+00	0	28	0	2640314368	30	5967
2026-01-11 01:42:08.82	12.37	49.18	-28.6	-29.1	28.3	0.00e+00	0	28	0	2645557248	30	5809
2026-01-11 01:42:09.83	11.94	48.94	-28.6	-29.2	28.3	0.00e+00	0	28	0	2651848704	30	5861
2026-01-11 01:42:10.84	11.52	48.70	-28.5	-29.0	28.4	0.00e+00	0	28	0	2657091584	30	5728
2026-01-11 01:42:11.85	11.10	48.46	-28.4	-29.0	28.4	0.00e+00	0	28	0	2662334464	30	5707
2026-01-11 01:42:12.86	10.69	48.22	-28.4	-29.0	28.4	0.00e+00	0	28	0	2668625920	30	5759
2026-01-11 01:42:13.87	10.28	47.98	-28.4	-29.1	28.5	0.00e+00	0	28	0	2673868800	30	5769
2026-01-11 01:42:14.88	9.88	47.73	-28.3	-28.8	28.6	0.00e+00	0	28	0	2680160256	30	5596
2026-01-11 01:42:15.89	9.49	47.49	-28.3	-29.0	28.6	0.00e+00	0	28	0	2685403136	30	5700
2026-01-11 01:42:16.90	9.10	47.25	-28.1	-28.8	28.6	0.00e+00	0	28	0	2690646016	30	5600
2026-01-11 01:42:17.91	8.72	47.01	-28.1	-28.7	28.6	0.00e+00	0	28	0	2696937472	30	5546
2026-01-11 01:42:18.92	8.35	46.76	-27.9	-28.5	28.9	0.00e+00	0	28	0	2702180352	30	5390
2026-01-11 01:42:19.93	7.98	46.52	-27.8	-28.4	28.9	0.00e+00	0	27	0	2708471808	30	5327
2026-01-11 01:42:20.94	7.61	46.28	-28.0	-28.7	28.6	0.00e+00	0	28	0	2713714688	30	5517
2026-01-11 01:42:21.94	7.26	46.04	-28.1	-28.8	28.6	0.00e+00	0	28	0	2718957568	30	5579
2026-01-11 01:42:22.95	6.91	45.80	-28.4	-29.0	28.3	0.00e+00	0	28	0	2725249024	30	5728
2026-01-11 01:42:23.97	6.56	45.55	-28.3	-28.9	28.4	0.00e+00	0	28	0	2730491904	30	5644
2026-01-11 01:42:24.97	6.22	45.31	-28.0	-28.6	28.6	0.00e+00	0	27	0	2736783360	30	5440
2026-01-11 01:42:25.98	5.88	45.07	-28.1	-28.8	28.3	0.00e+00	0	27	0	2742026240	30	5584
2026-01-11 01:42:26.99	5.55	44.83	-28.0	-28.5	28.3	0.00e+00	0	28	0	2748317696	30	5399
2026-01-11 01:42:28.01	5.22	44.59	-27.8	-28.5	28.4	0.00e+00	0	28	0	2753560576	30	5398
2026-01-11 01:42:29.01	4.90	44.35	-27.7	-28.2	28.7	0.00e+00	0	28	0	2759852032	30	5248
2026-01-11 01:42:30.02	4.59	44.11	-27.8	-28.3	28.8	0.00e+00	0	28	0	2765094912	28	5925
2026-01-11 01:42:31.03	4.28	43.87	-27.6	-28.3	28.8	0.00e+00	0	27	0	2770337792	28	5905
2026-01-11 01:42:32.04	3.97	43.64	-27.6	-28.2	29.0	0.00e+00	0	27	0	2776629248	28	5836
2026-01-11 01:42:33.05	3.67	43.40	-27.5	-28.1	29.1	0.00e+00	0	28	0	2781872128	28	5827
2026-01-11 01:42:34.06	3.37	43.16	-27.7	-28.2	28.8	0.00e+00	0	28	0	2788163584	28	5892
2026-01-11 01:42:35.07	3.07	42.92	-27.8	-28.5	28.9	0.00e+00	0	27	0	2793406464	28	6043
2026-01-11 01:42:36.08	2.79	42.69	-28.0	-28.7	28.7	0.00e+00	0	28	0	2798649344	28	6207
2026-01-11 01:42:37.09	2.50	42.45	-28.1	-28.6	28.7	0.00e+00	0	28	0	2804940800	28	6153
2026-01-11 01:42:38.09	2.22	42.22	-28.2	-28.8	28.6	0.00e+00	0	28	0	2810183680	28	6300
2026-01-11 01:42:39.10	1.95	41.99	-28.1	-28.8	28.6	0.00e+00	0	27	0	2815426560	28	6294
2026-01-11 01:42:40.11	1.67	41.75	-27.9	-28.4	28.8	0.00e+00	0	28	0	2821718016	28	5982
2026-01-11 01:42:41.12	1.40	41.52	-27.8	-28.4	28.9	0.00e+00	0	28	0	2826960896	28	5991
2026-01-11 01:42:42.13	1.14	41.29	-27.7	-28.2	28.9	0.00e+00	0	28	0	2833252352	28	5852
2026-01-11 01:42:43.14	0.88	41.06	-27.9	-28.4	28.7	0.00e+00	0	28	0	2838495232	28	6014
2026-01-11 01:42:44.15	0.62	40.83	-27.9	-28.6	28.8	0.00e+00	0	28	0	2844786688	28	6128
2026-01-11 01:42:45.17	0.37	40.60	-27.9	-28.4	28.8	0.00e+00	0	28	0	2850029568	28	6011
2026-01-11 01:42:46.17	0.12	40.37	-28.1	-28.7	28.7	0.00e+00	0	27	0	2856321024	28	6242
2026-01-11 01:42:47.18	359.87	40.14	-28.2	-28.7	28.6	0.00e+00	0	27	0	2861563904	28	6239
2026-01-11 01:42:48.19	359.63	39.92	-27.9	-28.5	28.8	0.00e+00	0	28	0	2866806784	28	6049
2026-01-11 01:42:49.20	359.39	39.69	-27.9	-28.4	28.8	0.00e+00	0	27	0	2873098240	28	5986
2026-01-11 01:42:50.21	359.15	39.47	-27.8	-28.5	28.8	0.00e+00	0	27	0	2878341120	28	6059
2026-01-11 01:42:51.22	358.92	39.24	-27.9	-28.5	28.8	0.00e+00	0	27	0	2884632576	28	6085
2026-01-11 01:42:52.23	358.69	39.02	-27.9	-28.4	28.8	0.00e+00	0	27	0	2889875456	28	6026
2026-01-11 01:42:53.24	358.46	38.80	-28.0	-28.5	28.7	0.00e+00	0	28	0	2895118336	28	6093
2026-01-11 01:42:54.25	358.24	38.58	-28.2	-28.7	28.6	0.00e+00	0	27	0	2901409792	28	6214
2026-01-11 01:42:55.26	358.02	38.36	-28.1	-28.8	28.6	0.00e+00	0	27	0	2906652672	28	6257
2026-01-11 01:42:56.27	357.80	38.14	-27.8	-28.4	28.8	0.00e+00	0	28	0	2912944128	28	5971
2026-01-11 01:42:57.27	357.59	37.92	-27.7	-28.2	29.0	0.00e+00	0	27	0	2918187008	28	5874
2026-01-11 01:42:58.28	357.38	37.70	-27.8	-28.3	28.8	0.00e+00	0	27	0	2923429888	28	5921
2026-01-11 01:42:59.29	357.17	37.49	-27.7	-28.3	28.8	0.00e+00	0	28	0	2929721344	28	5901
2026-01-11 01:43:00.30	356.96	37.27	-27.6	-28.2	28.9	0.00e+00	0	27	0	2934964224	28	5841
2026-01-11 01:43:01.31	356.76	37.06	-27.6	-28.1	28.9	0.00e+00	0	28	0	2941255680	28	5823
2026-01-11 01:43:02.32	356.56	36.84	-27.7	-28.2	28.9	0.00e+00	0	27	0	2946498560	28	5881
2026-01-11 01:43:03.33	356.36	36.63	-27.6	-28.3	28.9	0.00e+00	0	28	0	2952790016	28	5910
2026-01-11 01:43:04.34	356.17	36.42	-27.8	-28.3	28.7	0.00e+00	0	27	0	2958032896	28	5938
2026-01-11 01:43:05.35	355.98	36.21	-27.7	-28.3	28.9	0.00e+00	0	28	0	2963275776	28	5899
2026-01-11 01:43:06.36	355.79	36.00	-27.8	-28.4	28.8	0.00e+00	0	28	0	2969567232	28	5972
2026-01-11 01:43:07.37	355.60	35.79	-27.8	-28.4	28.8	0.00e+00	0	27	0	2974810112	28	5977
2026-01-11 01:43:08.38	355.41	35.58	-28.0	-28.5	28.6	0.00e+00	0	27	0	2981101568	28	6101
2026-01-11 01:43:09.39	355.23	35.38	-27.9	-28.4	28.8	0.00e+00	0	27	0	2986344448	28	6012
2026-01-11 01:43:10.40	355.05	35.17	-27.9	-28.5	28.7	0.00e+00	0	27	0	2991587328	28	6043
2026-01-11 01:43:11.41	354.87	34.97	-27.8	-28.3	28.9	0.00e+00	0	28	0	2997878784	28	5919
2026-01-11 01:43:12.42	354.69	34.76	-27.9	-28.4	28.8	0.00e+00	0	28	0	3003121664	28	6033
2026-01-11 01:43:13.43	354.52	34.56	-27.8	-28.3	28.8	0.00e+00	0	28	0	3009413120	28	5929
2026-01-11 01:43:14.43	354.35	34.36	-27.8	-28.4	28.8	0.00e+00	0	28	0	3014656000	28	5975
2026-01-11 01:43:15.44	354.18	34.16	-27.8	-28.3	28.9	0.00e+00	0	27	0	3019898880	28	5916
2026-01-11 01:43:16.45	354.01	33.96	-27.7	-28.2	28.9	0.00e+00	0	28	0	3026190336	28	5891
2026-01-11 01:43:17.46	353.85	33.76	-27.7	-28.2	28.8	0.00e+00	0	27	0	3031433216	28	5886
2026-01-11 01:43:18.48	353.68	33.56	-27.6	-28.1	29.1	0.00e+00	0	27	0	3037724672	28	5775
2026-01-11 01:43:19.49	353.52	33.37	-27.5	-28.2	28.9	0.00e+00	0	28	0	3042967552	28	5830
2026-01-11 01:43:20.50	353.36	33.17	-27.7	-28.2	28.9	0.00e+00	0	27	0	3048210432	28	5859
2026-01-11 01:43:21.50	353.21	32.98	-27.8	-28.4	28.8	0.00e+00	0	27	0	3054501888	28	6033
2026-01-11 01:43:22.52	353.05	32.78	-27.8	-28.5	28.8	0.00e+00	0	28	0	3059744768	28	6053
2026-01-11 01:43:23.53	352.90	32.59	-27.9	-28.6	28.7	0.00e+00	0	27	0	3066036224	28	6138
2026-01-11 01:43:24.53	352.75	32.40	-28.0	-28.7	28.7	0.00e+00	0	27	0	3071279104	28	6183
2026-01-11 01:43:25.54	352.60	32.21	-28.0	-28.7	28.7	0.00e+00	0	28	0	3077570560	28	6183
2026-01-11 01:43:26.55	352.45	32.02	-28.0	-28.5	28.7	0.00e+00	0	27	0	3082813440	28	6064
2026-01-11 01:43:27.56	352.30	31.83	-28.0	-28.5	28.7	0.00e+00	0	27	0	3089104896	28	6093
2026-01-11 01:43:28.57	352.16	31.64	-27.8	-28.3	28.9	0.00e+00	0	27	0	3094347776	28	5935
2026-01-11 01:43:29.58	352.02	31.46	-27.9	-28.4	28.7	0.00e+00	0	27	0	3099590656	28	5998
2026-01-11 01:43:30.59	351.87	31.27	-27.8	-28.4	28.8	0.00e+00	0	27	0	3105882112	28	5966
2026-01-11 01:43:31.60	351.74	31.09	-27.9	-28.4	28.8	0.00e+00	0	27	0	3111124992	28	5982
2026-01-11 01:43:32.61	351.60	30.90	-27.9	-28.4	28.8	0.00e+00	0	27	0	3117416448	28	6019
2026-01-11 01:43:33.62	351.46	30.72	-28.0	-28.6	28.6	0.00e+00	0	27	0	3122659328	28	6122
2026-01-11 01:43:34.63	351.33	30.54	-28.0	-28.5	28.6	0.00e+00	0	28	0	3127902208	28	6066
2026-01-11 01:43:35.64	351.19	30.36	-28.1	-28.6	28.6	0.00e+00	0	27	0	3134193664	28	6156
2026-01-11 01:43:36.65	351.06	30.18	-28.1	-28.6	28.6	0.00e+00	0	27	0	3139436544	28	6156
2026-01-11 01:43:37.66	350.93	30.00	-28.2	-28.7	28.4	0.00e+00	0	28	0	3145728000	28	6243
2026-01-11 01:43:38.67	350.80	29.82	-28.3	-28.9	28.5	0.00e+00	0	27	0	3150970880	28	6319
2026-01-11 01:43:39.68	350.68	29.65	-28.4	-28.9	28.5	0.00e+00	0	28	0	3156213760	28	6390
2026-01-11 01:43:40.69	350.55	29.47	-28.4	-29.0	28.4	0.00e+00	0	27	0	3162505216	28	6400
2026-01-11 01:43:41.70	350.43	29.29	-28.4	-28.9	28.4	0.00e+00	0	28	0	3167748096	28	6369
2026-01-11 01:43:42.71	350.30	29.12	-28.4	-29.1	28.3	0.00e+00	0	28	0	3174039552	28	6523
2026-01-11 01:43:43.72	350.18	28.95	-28.4	-29.0	28.3	0.00e+00	0	28	0	3179282432	28	6460
2026-01-11 01:43:44.73	350.06	28.77	-28.6	-29.1	28.3	0.00e+00	0	28	0	3185573888	28	6511
2026-01-11 01:43:45.74	349.94	28.60	-28.4	-29.0	28.4	0.00e+00	0	27	0	3190816768	28	6402
2026-01-11 01:43:46.75	349.82	28.43	-28.5	-29.1	28.3	0.00e+00	0	27	0	3196059648	28	6466
2026-01-11 01:43:47.76	349.71	28.26	-28.5	-29.2	28.2	0.00e+00	0	27	0	3202351104	28	6565
2026-01-11 01:43:48.77	349.59	28.09	-28.4	-28.9	28.4	0.00e+00	0	28	0	3207593984	28	6380
2026-01-11 01:43:49.78	349.48	27.93	-28.4	-28.9	28.4	0.00e+00	0	28	0	3213885440	28	6350
2026-01-11 01:43:50.79	349.36	27.76	-28.4	-28.9	28.4	0.00e+00	0	27	0	3219128320	28	6351
2026-01-11 01:43:51.80	349.25	27.59	-28.4	-29.0	28.4	0.00e+00	0	27	0	3224371200	28	6397
2026-01-11 01:43:52.81	349.14	27.43	-28.4	-28.9	28.4	0.00e+00	0	28	0	3230662656	28	6368
2026-01-11 01:43:53.82	349.03	27.26	-28.5	-29.0	28.3	0.00e+00	0	27	0	3235905536	28	6421
2026-01-11 01:43:54.83	348.93	27.10	-28.3	-29.0	28.4	0.00e+00	0	28	0	3242196992	28	6407
2026-01-11 01:43:55.84	348.82	26.94	-28.3	-29.0	28.4	0.00e+00	0	27	0	3247439872	28	6406
2026-01-11 01:43:56.84	348.71	26.78	-28.3	-29.0	28.5	0.00e+00	0	28	0	3252682752	28	6414
2026-01-11 01:43:57.86	348.61	26.62	-28.3	-28.8	28.5	0.00e+00	0	28	0	3258974208	28	6280
2026-01-11 01:43:58.86	348.51	26.46	-28.3	-28.8	28.5	0.00e+00	0	28	0	3264217088	28	6295
2026-01-11 01:43:59.87	348.40	26.30	-28.4	-28.9	28.5	0.00e+00	0	28	0	3270508544	28	6354
2026-01-11 01:44:00.88	348.30	26.14	-28.4	-28.9	28.4	0.00e+00	0	28	0	3275751424	28	6364
2026-01-11 01:44:01.89	348.20	25.98	-28.4	-29.1	28.3	0.00e+00	0	28	0	3282042880	28	6508
2026-01-11 01:44:02.90	348.10	25.83	-28.5	-29.2	28.2	0.00e+00	0	28	0	3287285760	28	6564
2026-01-11 01:44:03.92	348.00	25.67	-28.5	-29.2	28.4	0.00e+00	0	27	0	3293577216	28	6549
2026-01-11 01:44:04.92	347.91	25.51	-28.5	-29.1	28.2	0.00e+00	0	28	0	3298820096	28	6487
2026-01-11 01:44:05.93	347.81	25.36	-28.6	-29.1	28.2	0.00e+00	0	28	0	3304062976	28	6531
2026-01-11 01:44:06.94	347.71	25.21	-28.5	-29.0	28.3	0.00e+00	0	28	0	3310354432	28	6459
2026-01-11 01:44:07.95	347.62	25.05	-28.5	-29.0	28.3	0.00e+00	0	28	0	3315597312	28	6424
2026-01-11 01:44:08.96	347.53	24.90	-28.4	-28.9	28.3	0.00e+00	0	28	0	3321888768	28	6390
2026-01-11 01:44:09.97	347.43	24.75	-28.5	-29.0	28.3	0.00e+00	0	28	0	3327131648	28	6434
2026-01-11 01:44:10.98	347.34	24.60	-28.5	-29.1	28.3	0.00e+00	0	28	0	3332374528	28	6474
2026-01-11 01:44:11.99	347.25	24.45	-28.5	-29.0	28.3	0.00e+00	0	28	0	3338665984	28	6454
2026-01-11 01:44:13.00	347.16	24.30	-28.5	-29.1	28.3	0.00e+00	0	28	0	3343908864	28	6476
2026-01-11 01:44:14.01	347.07	24.15	-28.6	-29.1	28.2	0.00e+00	0	28	0	3350200320	28	6514
2026-01-11 01:44:15.02	346.98	24.01	-28.7	-29.3	28.2	0.00e+00	0	28	0	3355443200	28	6679
2026-01-11 01:44:16.03	346.90	23.86	-28.7	-29.4	28.1	0.00e+00	0	28	0	3360686080	28	6700
2026-01-11 01:44:17.04	346.81	23.72	-28.8	-29.5	28.1	0.00e+00	0	28	0	3366977536	30	6045
2026-01-11 01:44:18.06	346.72	23.57	-28.7	-29.4	28.0	0.00e+00	0	27	0	3372220416	30	6007
2026-01-11 01:44:19.07	346.64	23.42	-28.9	-29.5	28.0	0.00e+00	0	28	0	3378511872	30	6091
2026-01-11 01:44:20.07	346.56	23.28	-28.9	-29.4	28.0	0.00e+00	0	28	0	3383754752	30	6022
2026-01-11 01:44:21.09	346.47	23.14	-28.8	-29.4	28.1	0.00e+00	0	28	0	3390046208	30	5970
2026-01-11 01:44:22.10	346.39	23.00	-28.8	-29.3	28.0	0.00e+00	0	28	0	3395289088	30	5958
2026-01-11 01:44:23.11	346.31	22.85	-28.8	-29.4	28.0	0.00e+00	0	28	0	3401580544	30	5990
2026-01-11 01:44:24.12	346.23	22.71	-29.0	-29.7	27.9	0.00e+00	0	28	0	3406823424	30	6213
2026-01-11 01:44:25.13	346.15	22.57	-28.9	-29.4	28.0	0.00e+00	0	28	0	3412066304	30	6001
2026-01-11 01:44:26.14	346.07	22.43	-28.9	-29.6	28.0	0.00e+00	0	28	0	3418357760	30	6129
2026-01-11 01:44:27.15	345.99	22.30	-29.2	-29.8	27.8	0.00e+00	0	28	0	3423600640	30	6311
2026-01-11 01:44:28.16	345.91	22.16	-29.0	-29.6	27.9	0.00e+00	0	28	0	3429892096	30	6167
2026-01-11 01:44:29.17	345.83	22.02	-29.0	-29.7	27.9	0.00e+00	0	28	0	3435134976	30	6206
2026-01-11 01:44:30.18	345.76	21.88	-29.1	-29.6	27.8	0.00e+00	0	28	0	3440377856	30	6129
2026-01-11 01:44:31.19	345.68	21.75	-29.2	-29.7	27.8	0.00e+00	0	28	0	3446669312	30	6188
2026-01-11 01:44:32.19	345.61	21.62	-29.0	-29.5	28.0	0.00e+00	0	28	0	3451912192	30	6097
2026-01-11 01:44:33.20	345.53	21.48	-29.2	-29.7	27.7	0.00e+00	0	28	0	3457155072	30	6208
2026-01-11 01:44:34.21	345.46	21.35	-29.2	-29.7	27.8	0.00e+00	0	28	0	3463446528	30	6219
2026-01-11 01:44:35.22	345.39	21.21	-29.2	-29.8	27.8	0.00e+00	0	28	0	3468689408	30	6256
2026-01-11 01:44:36.23	345.32	21.08	-29.4	-30.1	27.6	0.00e+00	0	28	0	3474980864	30	6466
2026-01-11 01:44:37.24	345.24	20.95	-29.4	-30.1	27.5	0.00e+00	0	28	0	3480223744	30	6480
2026-01-11 01:44:38.25	345.17	20.82	-29.5	-30.1	27.5	0.00e+00	0	28	0	3486515200	30	6531
2026-01-11 01:44:39.26	345.10	20.69	-29.5	-30.2	27.4	0.00e+00	0	28	0	3491758080	30	6588
2026-01-11 01:44:40.27	345.03	20.56	-29.7	-30.4	27.4	0.00e+00	0	28	0	3498049536	30	6723
2026-01-11 01:44:41.28	344.96	20.43	-29.6	-30.3	27.4	0.00e+00	0	28	0	3503292416	30	6661
2026-01-11 01:44:42.29	344.89	20.30	-29.7	-30.4	27.2	0.00e+00	0	28	0	3508535296	30	6764
2026-01-11 01:44:43.30	344.83	20.17	-29.7	-30.2	27.3	0.00e+00	0	28	0	3514826752	32	5879
2026-01-11 01:44:44.31	344.76	20.04	-29.7	-30.3	27.3	0.00e+00	0	28	0	3520069632	32	5900
2026-01-11 01:44:45.32	344.69	19.92	-29.7	-30.3	27.3	0.00e+00	0	28	0	3526361088	32	5913
2026-01-11 01:44:46.33	344.63	19.79	-29.7	-30.4	27.3	0.00e+00	0	28	0	3531603968	32	6014
2026-01-11 01:44:47.34	344.56	19.66	-29.7	-30.4	27.2	0.00e+00	0	28	0	3536846848	32	6007
2026-01-11 01:44:48.35	344.50	19.54	-29.8	-30.4	27.2	0.00e+00	0	28	0	3543138304	32	6001
2026-01-11 01:44:49.36	344.43	19.42	-29.7	-30.4	27.3	0.00e+00	0	28	0	3548381184	32	5990
2026-01-11 01:44:50.37	344.37	19.29	-29.5	-30.3	27.4	0.00e+00	0	28	0	3554672640	32	5899
2026-01-11 01:44:51.38	344.30	19.17	-29.6	-30.4	27.3	0.00e+00	0	28	0	3559915520	32	5967
2026-01-11 01:44:52.39	344.24	19.04	-29.4	-30.0	27.4	0.00e+00	0	28	0	3565158400	32	5728
2026-01-11 01:44:53.40	344.18	18.92	-29.4	-30.0	27.5	0.00e+00	0	28	0	3571449856	32	5701
2026-01-11 01:44:54.41	344.12	18.80	-29.5	-30.0	27.4	0.00e+00	0	28	0	3576692736	32	5742
2026-01-11 01:44:55.42	344.06	18.68	-29.5	-30.1	27.5	0.00e+00	0	28	0	3582984192	32	5779
2026-01-11 01:44:56.43	343.99	18.56	-29.4	-30.1	27.5	0.00e+00	0	28	0	3588227072	32	5787
2026-01-11 01:44:57.43	343.93	18.44	-29.5	-30.1	27.4	0.00e+00	0	28	0	3594518528	32	5779
