passes_logs/2026/01/25/R3.2S_Murmansk/R3.2S_Murmansk__20260125_003302_AQUA_rec.log

#Pass ID: 20260125_003302_AQUA
#Satellite: AQUA
#Configuration: AQUA
#almurnet v.1.7.20251203
#Start time: 2026-01-25 00:33:03

#Version: 2.2.20231116
#Station: R3.2S_Murmansk
#Location: 33.079688 lon 68.888172 lat
#TLE: 1 27424U 02022A   26024.53919639  .00001970  00000+0  40397-3 0  9996
#TLE: 2 27424  98.4098 351.1277 0001915  66.8561 358.4840 14.61855303262281

#Time	Az	El	Level	Level2	SNR	BER	BlckErr	Temp	State	Recorded	gain1	gain2
2026-01-25 00:33:03.68	21.06	2.06	-54.7	-72.6	3.8	7.43e-01	0	41	0	0	80	29106
2026-01-25 00:33:04.69	21.13	2.12	-55.0	-72.9	3.8	7.48e-01	0	41	104	0	80	30225
2026-01-25 00:33:05.70	21.19	2.18	-55.1	-73.0	3.8	7.44e-01	0	41	104	0	80	30432
2026-01-25 00:33:06.71	21.26	2.24	-55.2	-73.0	3.8	7.45e-01	0	42	104	0	80	30606
2026-01-25 00:33:07.72	21.33	2.30	-55.3	-73.1	3.8	7.44e-01	0	41	104	0	81	29138
2026-01-25 00:33:08.73	21.40	2.36	-55.3	-73.1	3.8	7.42e-01	0	41	104	0	81	29270
2026-01-25 00:33:09.74	21.46	2.42	-55.3	-73.2	3.8	7.44e-01	0	41	104	0	81	29382
2026-01-25 00:33:10.74	21.53	2.48	-55.3	-73.2	3.8	7.48e-01	0	41	104	0	81	29431
2026-01-25 00:33:11.75	21.60	2.54	-55.4	-73.2	3.8	7.48e-01	0	42	104	0	81	29467
2026-01-25 00:33:12.76	21.67	2.60	-55.3	-73.2	3.8	7.46e-01	0	42	104	0	81	29389
2026-01-25 00:33:13.76	21.74	2.67	-55.3	-73.2	3.8	7.46e-01	0	42	104	0	81	29356
2026-01-25 00:33:14.77	21.81	2.73	-55.3	-73.2	3.8	7.42e-01	0	42	104	0	81	29440
2026-01-25 00:33:15.78	21.88	2.79	-55.3	-73.1	3.8	7.46e-01	0	42	104	0	81	29228
2026-01-25 00:33:16.79	21.95	2.85	-55.3	-73.1	3.8	7.49e-01	0	42	104	0	81	29115
2026-01-25 00:33:17.79	22.02	2.91	-55.2	-73.0	3.8	7.44e-01	0	42	104	0	81	28986
2026-01-25 00:33:18.80	22.09	2.97	-55.1	-73.0	3.8	7.47e-01	0	42	104	0	81	28780
2026-01-25 00:33:19.81	22.16	3.04	-55.1	-72.9	3.8	7.46e-01	0	42	104	0	81	28502
2026-01-25 00:33:20.82	22.23	3.10	-55.0	-72.8	3.8	7.47e-01	0	42	104	0	81	28141
2026-01-25 00:33:21.82	22.30	3.16	-54.8	-72.4	3.8	7.47e-01	0	42	104	0	81	27015
2026-01-25 00:33:22.83	22.37	3.22	-54.6	-72.4	3.8	7.46e-01	0	42	104	0	81	26960
2026-01-25 00:33:23.84	22.44	3.29	-54.4	-71.6	3.8	7.47e-01	0	42	104	0	80	26151
2026-01-25 00:33:24.84	22.51	3.35	-54.0	-71.4	3.8	7.46e-01	0	42	104	0	79	26977
2026-01-25 00:33:25.85	22.59	3.41	-53.7	-71.5	3.8	7.46e-01	0	42	104	0	79	27388
2026-01-25 00:33:26.85	22.66	3.47	-53.7	-71.5	3.8	7.45e-01	0	42	104	0	79	27200
2026-01-25 00:33:27.86	22.73	3.54	-53.7	-71.4	3.8	7.46e-01	0	42	104	0	79	27074
2026-01-25 00:33:28.87	22.81	3.60	-53.7	-71.4	3.8	7.48e-01	0	42	104	0	79	26915
2026-01-25 00:33:29.88	22.88	3.66	-53.7	-71.4	3.8	7.46e-01	0	42	104	0	79	26853
2026-01-25 00:33:30.89	22.95	3.73	-53.7	-71.3	3.8	7.47e-01	0	42	104	0	79	26587
2026-01-25 00:33:31.90	23.03	3.79	-53.6	-71.2	3.8	7.48e-01	0	42	104	0	79	26284
2026-01-25 00:33:32.90	23.10	3.85	-53.6	-71.0	3.8	7.44e-01	0	42	104	0	79	25648
2026-01-25 00:33:33.91	23.18	3.92	-53.5	-70.7	3.8	7.46e-01	0	42	104	0	79	24811
2026-01-25 00:33:34.92	23.25	3.98	-53.5	-70.6	3.8	7.42e-01	0	42	104	0	79	24527
2026-01-25 00:33:35.93	23.33	4.05	-53.5	-70.6	3.8	7.46e-01	0	42	104	0	79	24580
2026-01-25 00:33:36.93	23.40	4.11	-53.5	-70.1	3.8	7.46e-01	0	42	104	0	78	24568
2026-01-25 00:33:37.94	23.48	4.18	-53.3	-69.9	3.8	7.44e-01	0	42	104	0	78	23964
2026-01-25 00:33:38.95	23.56	4.24	-53.0	-68.7	3.8	7.44e-01	0	42	104	0	78	20812
2026-01-25 00:33:39.96	23.64	4.30	-52.3	-66.7	3.8	7.44e-01	0	42	104	0	76	18678
2026-01-25 00:33:40.97	23.71	4.37	-51.4	-64.6	3.8	7.46e-01	0	42	104	0	74	16397
2026-01-25 00:33:41.97	23.79	4.43	-50.6	-63.3	3.8	7.44e-01	0	42	104	0	73	14936
2026-01-25 00:33:42.98	23.87	4.50	-49.6	-61.7	3.8	7.44e-01	0	42	104	0	71	13992
2026-01-25 00:33:43.99	23.95	4.56	-48.8	-60.6	3.8	7.42e-01	0	42	104	0	69	13742
2026-01-25 00:33:45.00	24.03	4.63	-48.4	-60.0	3.8	7.47e-01	0	42	104	0	68	13649
2026-01-25 00:33:46.00	24.11	4.70	-48.1	-59.6	3.8	7.44e-01	0	42	104	0	68	13065
2026-01-25 00:33:47.01	24.19	4.76	-48.1	-59.6	3.9	7.45e-01	0	42	104	0	68	13109
2026-01-25 00:33:48.02	24.27	4.83	-48.5	-60.1	3.8	7.42e-01	0	42	104	0	68	13882
2026-01-25 00:33:49.03	24.35	4.89	-49.1	-60.9	3.8	7.43e-01	0	42	104	0	68	15133
2026-01-25 00:33:50.03	24.43	4.96	-50.0	-62.2	3.8	7.47e-01	0	42	104	0	70	15669
2026-01-25 00:33:51.04	24.51	5.02	-50.8	-63.6	3.8	7.46e-01	0	42	104	0	72	16465
2026-01-25 00:33:52.05	24.59	5.09	-50.8	-63.6	3.8	7.45e-01	0	42	104	0	72	16341
2026-01-25 00:33:53.06	24.67	5.16	-48.0	-59.4	3.8	7.43e-01	0	42	104	0	67	13538
2026-01-25 00:33:54.06	24.75	5.22	-53.6	-71.4	3.8	7.46e-01	0	42	104	0	77	30257
2026-01-25 00:33:55.07	24.84	5.29	-53.1	-69.1	3.8	7.45e-01	0	42	104	0	77	23108
2026-01-25 00:33:56.08	24.92	5.36	-47.2	-58.4	3.8	7.46e-01	0	42	104	0	65	13470
2026-01-25 00:33:57.09	25.00	5.43	-47.0	-58.2	3.8	7.46e-01	0	42	104	0	65	13228
2026-01-25 00:33:58.09	25.09	5.49	-46.6	-57.7	3.8	7.42e-01	0	42	104	0	65	12480
2026-01-25 00:33:59.10	25.17	5.56	-46.8	-58.0	3.8	7.46e-01	0	42	104	0	65	12846
2026-01-25 00:34:00.11	25.26	5.63	-47.2	-58.5	3.8	7.45e-01	0	42	104	0	65	13614
2026-01-25 00:34:01.12	25.34	5.69	-47.9	-59.4	3.8	7.47e-01	0	42	104	0	66	14271
2026-01-25 00:34:02.13	25.43	5.76	-53.7	-71.5	3.8	7.48e-01	0	42	104	0	77	30674
2026-01-25 00:34:03.13	25.51	5.83	-53.1	-68.7	3.8	7.40e-01	0	42	104	0	77	22173
2026-01-25 00:34:04.14	25.60	5.90	-47.5	-58.7	3.8	7.45e-01	0	42	104	0	65	13969
2026-01-25 00:34:05.15	25.69	5.97	-46.8	-57.9	3.8	7.45e-01	0	42	104	0	65	12722
2026-01-25 00:34:06.15	25.77	6.03	-46.7	-57.8	3.8	7.43e-01	0	42	104	0	65	12618
2026-01-25 00:34:07.16	25.86	6.10	-46.6	-57.7	3.8	7.47e-01	0	42	104	0	65	12385
2026-01-25 00:34:08.17	25.95	6.17	-46.6	-57.6	3.9	7.45e-01	0	43	104	0	65	12348
2026-01-25 00:34:09.18	26.04	6.24	-48.2	-59.7	3.8	7.45e-01	0	42	104	0	66	14709
2026-01-25 00:34:10.18	26.12	6.31	-53.3	-70.7	3.8	7.45e-01	0	42	104	0	77	27827
2026-01-25 00:34:11.19	26.21	6.38	-47.1	-58.3	3.9	7.44e-01	0	42	104	0	65	13349
2026-01-25 00:34:12.20	26.30	6.45	-52.7	-67.8	3.9	7.42e-01	0	43	104	0	76	21091
2026-01-25 00:34:13.20	26.39	6.52	-47.1	-58.4	3.8	7.46e-01	0	43	104	0	66	12667
2026-01-25 00:34:14.21	26.48	6.59	-47.1	-58.3	3.8	7.46e-01	0	43	104	0	65	13381
2026-01-25 00:34:15.22	26.58	6.66	-46.7	-57.9	3.8	7.46e-01	0	43	104	0	65	12680
2026-01-25 00:34:16.23	26.67	6.73	-49.7	-61.8	3.9	7.44e-01	0	43	104	0	71	14115
2026-01-25 00:34:17.23	26.76	6.80	-48.1	-59.5	3.8	7.47e-01	0	43	104	0	66	14477
2026-01-25 00:34:18.24	26.85	6.87	-53.6	-70.7	3.8	7.47e-01	0	43	104	0	77	27725
2026-01-25 00:34:19.25	26.94	6.94	-46.8	-57.9	3.8	7.43e-01	0	42	104	0	64	13515
2026-01-25 00:34:20.26	27.04	7.01	-52.9	-67.8	3.8	7.38e-01	0	43	104	0	77	20056
2026-01-25 00:34:21.26	27.13	7.08	-46.9	-58.0	3.8	7.42e-01	0	43	104	0	65	12823
2026-01-25 00:34:22.27	27.22	7.15	-46.8	-58.0	3.9	7.44e-01	0	43	104	0	65	12895
2026-01-25 00:34:23.28	27.32	7.22	-46.8	-58.0	3.9	7.45e-01	0	43	104	0	65	12890
2026-01-25 00:34:24.28	27.41	7.29	-48.8	-60.3	3.8	7.45e-01	0	43	104	0	69	13359
2026-01-25 00:34:25.29	27.51	7.36	-48.1	-59.5	3.8	7.46e-01	0	43	104	0	66	14407
2026-01-25 00:34:26.30	27.61	7.43	-53.4	-69.4	3.8	7.41e-01	0	43	104	0	78	22646
2026-01-25 00:34:27.31	27.70	7.51	-46.1	-57.1	3.8	7.45e-01	0	43	104	0	64	12303
2026-01-25 00:34:28.32	27.80	7.58	-52.5	-67.0	3.9	7.44e-01	0	43	104	0	77	18235
2026-01-25 00:34:29.32	27.90	7.65	-46.7	-57.8	3.8	7.43e-01	0	43	104	0	65	12650
2026-01-25 00:34:30.33	28.00	7.72	-46.5	-57.6	3.8	7.47e-01	0	43	104	0	65	12270
2026-01-25 00:34:31.34	28.09	7.79	-46.1	-57.1	3.9	7.40e-01	0	43	104	0	64	12331
2026-01-25 00:34:32.34	28.19	7.87	-48.1	-59.6	3.9	7.42e-01	0	43	104	0	68	13030
2026-01-25 00:34:33.35	28.29	7.94	-47.9	-59.2	3.9	7.43e-01	0	43	104	0	66	13999
2026-01-25 00:34:34.36	28.39	8.01	-53.1	-68.6	3.9	7.41e-01	0	43	104	0	78	20594
2026-01-25 00:34:35.37	28.49	8.09	-46.2	-57.2	3.9	7.44e-01	0	43	104	0	64	12454
2026-01-25 00:34:36.37	28.59	8.16	-52.2	-66.1	3.9	7.42e-01	0	43	104	0	76	17383
2026-01-25 00:34:37.38	28.70	8.23	-46.5	-57.6	3.8	7.43e-01	0	43	104	0	64	12990
2026-01-25 00:34:38.39	28.80	8.31	-46.6	-57.7	3.8	7.45e-01	0	43	104	0	64	13119
2026-01-25 00:34:39.40	28.90	8.38	-46.0	-57.0	3.8	7.42e-01	0	43	104	0	64	12119
2026-01-25 00:34:40.40	29.01	8.45	-46.4	-57.4	3.8	7.46e-01	0	43	104	0	64	12726
2026-01-25 00:34:41.41	29.11	8.53	-48.4	-59.9	3.8	7.46e-01	0	43	104	0	67	14340
2026-01-25 00:34:42.42	29.21	8.60	-51.8	-65.0	3.9	7.42e-01	0	43	104	0	75	16255
2026-01-25 00:34:43.43	29.32	8.68	-46.3	-57.3	3.8	7.44e-01	0	43	104	0	63	13268
2026-01-25 00:34:44.44	29.42	8.75	-50.5	-63.0	3.9	7.43e-01	0	43	104	0	73	14500
2026-01-25 00:34:45.44	29.53	8.82	-45.8	-56.7	3.8	7.43e-01	0	43	104	0	63	12423
2026-01-25 00:34:46.45	29.64	8.90	-45.8	-56.8	3.8	7.43e-01	0	42	104	0	63	12568
2026-01-25 00:34:47.46	29.74	8.97	-46.3	-57.3	3.8	7.46e-01	0	43	104	0	63	13290
2026-01-25 00:34:48.47	29.85	9.05	-49.1	-60.9	3.8	7.46e-01	0	43	104	0	70	13452
2026-01-25 00:34:49.48	29.96	9.13	-48.3	-59.6	3.8	7.44e-01	0	43	104	0	66	14591
2026-01-25 00:34:50.48	30.07	9.20	-53.1	-68.0	3.9	7.44e-01	0	43	104	0	78	19312
2026-01-25 00:34:51.49	30.18	9.28	-47.4	-58.8	3.8	7.44e-01	0	43	104	0	67	12535
2026-01-25 00:34:52.50	30.29	9.35	-46.3	-57.3	3.8	7.45e-01	0	43	104	0	64	12627
2026-01-25 00:34:53.50	30.40	9.43	-46.2	-57.1	3.8	7.46e-01	0	43	104	0	63	13076
2026-01-25 00:34:54.51	30.51	9.50	-45.9	-56.8	3.8	7.43e-01	0	43	104	0	63	12606
2026-01-25 00:34:55.52	30.62	9.58	-46.0	-56.9	3.8	7.47e-01	0	42	104	0	63	12771
2026-01-25 00:34:56.53	30.74	9.66	-46.5	-57.5	3.8	7.40e-01	0	43	104	0	63	13641
2026-01-25 00:34:57.54	30.85	9.73	-49.2	-60.8	3.8	7.46e-01	0	43	104	0	68	14968
2026-01-25 00:34:58.54	30.96	9.81	-53.4	-68.8	3.9	7.41e-01	0	43	104	0	78	21133
2026-01-25 00:34:59.54	31.08	9.89	-47.6	-58.9	3.9	7.48e-01	0	43	104	0	67	12707
2026-01-25 00:35:00.55	31.19	9.96	-46.0	-56.9	3.8	7.47e-01	0	43	104	0	63	12798
2026-01-25 00:35:01.56	31.31	10.04	-45.6	-56.5	3.8	7.43e-01	0	43	104	0	63	12202
2026-01-25 00:35:02.56	31.42	10.12	-45.8	-56.8	3.8	7.42e-01	0	43	104	0	63	12523
2026-01-25 00:35:03.57	31.54	10.20	-45.4	-56.3	3.8	7.46e-01	0	43	104	0	62	12607
2026-01-25 00:35:04.58	31.66	10.28	-46.0	-57.0	3.8	7.48e-01	0	43	104	0	62	13583
2026-01-25 00:35:05.59	31.78	10.35	-51.5	-64.4	3.8	7.48e-01	0	43	104	0	73	16962
2026-01-25 00:35:06.59	31.89	10.43	-47.5	-58.8	3.9	7.44e-01	0	43	104	0	67	12590
2026-01-25 00:35:07.60	32.01	10.51	-49.1	-60.7	3.8	7.46e-01	0	43	104	0	68	14795
2026-01-25 00:35:08.61	32.13	10.59	-47.0	-58.2	3.8	7.45e-01	0	43	104	0	66	12398
2026-01-25 00:35:09.62	32.26	10.67	-45.6	-56.5	3.8	7.44e-01	0	43	104	0	63	12150
2026-01-25 00:35:10.62	32.38	10.75	-45.4	-56.3	3.8	7.43e-01	0	43	104	0	62	12571
2026-01-25 00:35:11.63	32.50	10.83	-48.0	-59.3	3.8	7.44e-01	0	43	104	0	66	14199
2026-01-25 00:35:12.64	32.62	10.91	-46.4	-57.6	3.8	7.43e-01	0	43	104	0	65	12285
2026-01-25 00:35:13.65	32.75	10.99	-50.8	-63.4	3.8	7.50e-01	0	43	104	0	72	16086
2026-01-25 00:35:14.65	32.87	11.06	-53.1	-67.8	3.9	7.46e-01	0	43	104	0	78	18876
2026-01-25 00:35:15.66	32.99	11.14	-45.7	-56.6	3.9	7.44e-01	0	43	104	0	63	12316
2026-01-25 00:35:16.67	33.12	11.22	-45.5	-56.4	3.9	7.43e-01	0	43	104	0	62	12748
2026-01-25 00:35:17.68	33.25	11.31	-45.4	-56.3	3.8	7.46e-01	0	43	104	0	62	12601
2026-01-25 00:35:18.68	33.37	11.39	-45.4	-56.2	3.8	7.42e-01	0	43	104	0	62	12473
2026-01-25 00:35:19.69	33.50	11.47	-45.4	-56.3	3.8	7.45e-01	0	43	104	0	62	12660
2026-01-25 00:35:20.70	33.63	11.55	-46.1	-57.0	3.9	7.45e-01	0	43	104	0	62	13720
2026-01-25 00:35:21.70	33.76	11.63	-52.9	-67.2	3.8	7.47e-01	0	43	104	0	76	19689
2026-01-25 00:35:22.71	33.89	11.71	-46.1	-57.1	3.8	7.42e-01	0	43	104	0	64	12342
2026-01-25 00:35:23.72	34.02	11.79	-51.0	-63.4	3.8	7.45e-01	0	43	104	0	72	16063
2026-01-25 00:35:24.73	34.15	11.87	-46.7	-57.7	3.9	7.44e-01	0	43	104	0	65	12498
2026-01-25 00:35:25.74	34.29	11.95	-45.9	-56.8	3.8	7.42e-01	0	43	104	0	63	12630
2026-01-25 00:35:26.74	34.42	12.04	-45.7	-56.6	3.8	7.44e-01	0	43	104	0	63	12282
2026-01-25 00:35:27.75	34.55	12.12	-46.7	-57.7	3.8	7.46e-01	0	43	104	0	63	13947
2026-01-25 00:35:28.76	34.69	12.20	-45.8	-56.7	3.8	7.44e-01	0	43	104	0	62	13154
2026-01-25 00:35:29.76	34.82	12.28	-52.9	-67.1	3.8	7.48e-01	0	43	104	0	76	19475
2026-01-25 00:35:30.77	34.96	12.36	-46.0	-56.9	3.8	7.44e-01	0	43	104	0	64	12069
2026-01-25 00:35:31.78	35.10	12.45	-52.1	-65.3	3.8	7.49e-01	0	43	104	0	74	17881
2026-01-25 00:35:32.79	35.23	12.53	-45.4	-56.3	3.8	7.44e-01	0	43	104	0	62	12542
2026-01-25 00:35:33.79	35.37	12.61	-45.0	-55.9	3.8	7.42e-01	0	43	104	0	62	12005
2026-01-25 00:35:34.80	35.51	12.70	-45.0	-55.9	3.8	7.45e-01	0	43	104	0	61	12715
2026-01-25 00:35:35.81	35.65	12.78	-49.3	-61.1	3.8	7.40e-01	0	43	104	0	69	14672
2026-01-25 00:35:36.82	35.79	12.86	-46.4	-57.4	3.8	7.46e-01	0	43	104	0	64	12768
2026-01-25 00:35:37.83	35.93	12.95	-53.4	-68.3	3.8	7.45e-01	0	43	104	0	77	21225
2026-01-25 00:35:38.83	36.08	13.03	-53.3	-67.8	3.8	7.46e-01	0	43	104	0	78	18907
2026-01-25 00:35:39.84	36.22	13.12	-45.2	-55.9	3.8	7.46e-01	0	43	104	0	61	12787
2026-01-25 00:35:40.85	36.37	13.20	-45.2	-56.1	3.8	7.46e-01	0	43	104	0	62	12301
2026-01-25 00:35:41.86	36.51	13.29	-45.0	-55.8	3.8	7.42e-01	0	43	104	0	61	12521
2026-01-25 00:35:42.86	36.66	13.37	-45.0	-55.8	3.9	7.41e-01	0	43	104	0	61	12639
2026-01-25 00:35:43.87	36.80	13.45	-45.6	-56.4	3.8	7.47e-01	0	43	104	0	61	13553
2026-01-25 00:35:44.88	36.95	13.54	-46.4	-57.4	3.8	7.40e-01	0	43	104	0	63	13428
2026-01-25 00:35:45.89	37.10	13.63	-54.0	-70.2	3.8	7.44e-01	0	43	104	0	78	24821
2026-01-25 00:35:46.90	37.25	13.71	-45.3	-56.1	3.8	7.48e-01	0	43	104	0	62	12357
2026-01-25 00:35:47.90	37.40	13.80	-52.8	-67.1	3.8	7.46e-01	0	43	104	0	76	19608
2026-01-25 00:35:48.91	37.55	13.88	-45.5	-56.4	3.9	7.43e-01	0	43	104	0	63	12067
2026-01-25 00:35:49.92	37.71	13.97	-45.1	-55.9	3.8	7.46e-01	0	43	104	0	62	12033
2026-01-25 00:35:50.93	37.86	14.05	-45.2	-56.0	3.8	7.42e-01	0	43	104	0	61	12950
2026-01-25 00:35:51.94	38.01	14.14	-47.3	-58.4	3.8	7.45e-01	0	43	104	0	65	13555
2026-01-25 00:35:52.94	38.17	14.23	-46.2	-57.1	3.8	7.43e-01	0	43	104	0	64	12300
2026-01-25 00:35:53.95	38.32	14.31	-53.8	-69.6	3.8	7.45e-01	0	43	104	0	78	23253
2026-01-25 00:35:54.96	38.48	14.40	-53.3	-67.9	3.8	7.49e-01	0	43	104	0	77	20217
2026-01-25 00:35:55.97	38.64	14.49	-45.2	-56.1	3.8	7.45e-01	0	43	104	0	61	12993
2026-01-25 00:35:56.97	38.80	14.57	-44.9	-55.8	3.8	7.43e-01	0	43	104	0	61	12601
2026-01-25 00:35:57.98	38.96	14.66	-45.0	-55.8	3.8	7.43e-01	0	43	104	0	61	12586
2026-01-25 00:35:58.99	39.12	14.75	-45.0	-55.8	3.9	7.48e-01	0	43	104	0	61	12660
2026-01-25 00:36:00.00	39.28	14.84	-44.8	-55.5	3.8	7.44e-01	0	43	104	0	61	12212
2026-01-25 00:36:01.01	39.44	14.92	-46.4	-57.4	3.9	7.43e-01	0	43	104	0	63	13562
2026-01-25 00:36:02.01	39.61	15.01	-54.1	-70.3	3.8	7.49e-01	0	43	104	0	78	25178
2026-01-25 00:36:03.02	39.77	15.10	-45.1	-55.9	3.8	7.43e-01	0	43	104	0	62	11994
2026-01-25 00:36:04.03	39.94	15.19	-53.5	-68.4	3.8	7.45e-01	0	43	104	0	77	21364
2026-01-25 00:36:05.04	40.11	15.27	-45.0	-55.8	3.8	7.47e-01	0	43	104	0	62	11904
2026-01-25 00:36:06.04	40.27	15.36	-44.7	-55.5	3.8	7.43e-01	0	43	104	0	61	12189
2026-01-25 00:36:07.05	40.44	15.45	-44.6	-55.4	3.8	7.43e-01	0	43	104	0	61	12074
2026-01-25 00:36:08.06	40.61	15.54	-49.1	-60.7	3.8	7.45e-01	0	43	104	0	68	14805
2026-01-25 00:36:09.07	40.78	15.63	-46.1	-57.0	3.8	7.43e-01	0	43	104	0	64	12230
2026-01-25 00:36:10.07	40.96	15.72	-54.1	-70.4	3.7	7.46e-01	0	43	104	0	78	25551
2026-01-25 00:36:11.08	41.13	15.81	-53.2	-67.7	3.8	7.43e-01	0	43	104	0	77	19702
2026-01-25 00:36:12.09	41.30	15.89	-45.4	-56.3	3.8	7.45e-01	0	43	104	0	61	13267
2026-01-25 00:36:13.10	41.48	15.98	-44.6	-55.4	3.8	7.41e-01	0	43	104	0	61	12026
2026-01-25 00:36:14.11	41.66	16.07	-44.7	-55.5	3.8	7.44e-01	0	43	104	0	61	12206
2026-01-25 00:36:15.11	41.83	16.16	-44.7	-55.5	3.8	7.47e-01	0	43	104	0	61	12109
2026-01-25 00:36:16.12	42.01	16.25	-44.7	-55.5	3.8	7.46e-01	0	43	104	0	61	12120
2026-01-25 00:36:17.13	42.19	16.34	-46.0	-57.0	3.8	7.43e-01	0	43	104	0	62	13598
2026-01-25 00:36:18.14	42.37	16.43	-54.0	-69.9	3.8	7.46e-01	0	43	104	0	78	24102
2026-01-25 00:36:19.14	42.55	16.52	-44.8	-55.6	3.8	7.46e-01	0	43	104	0	61	12263
2026-01-25 00:36:20.15	42.74	16.61	-53.3	-68.1	3.8	7.42e-01	0	43	104	0	77	20564
2026-01-25 00:36:21.16	42.92	16.70	-44.8	-55.6	3.8	7.46e-01	0	43	104	0	61	12270
2026-01-25 00:36:22.16	43.11	16.79	-44.7	-55.4	3.8	7.46e-01	0	43	104	0	61	12072
2026-01-25 00:36:23.17	43.29	16.88	-44.6	-55.3	3.8	7.46e-01	0	43	104	0	61	11922
2026-01-25 00:36:24.18	43.48	16.97	-47.4	-58.5	3.9	7.43e-01	0	43	104	0	66	12944
2026-01-25 00:36:25.19	43.67	17.06	-46.1	-57.0	3.8	7.44e-01	0	43	104	0	63	12959
2026-01-25 00:36:26.20	43.86	17.15	-53.8	-69.3	3.8	7.46e-01	0	43	104	0	78	22346
2026-01-25 00:36:27.21	44.05	17.25	-44.7	-55.4	3.8	7.44e-01	0	43	104	0	61	12084
2026-01-25 00:36:28.22	44.24	17.34	-52.5	-66.3	3.9	7.42e-01	0	43	104	0	77	16713
2026-01-25 00:36:29.22	44.44	17.43	-44.6	-55.3	3.8	7.44e-01	0	43	104	0	61	11922
2026-01-25 00:36:30.23	44.63	17.52	-44.3	-55.1	3.8	7.45e-01	0	43	104	0	60	12337
2026-01-25 00:36:31.24	44.83	17.61	-44.4	-55.2	3.9	7.44e-01	0	43	104	0	60	12431
2026-01-25 00:36:32.25	45.03	17.70	-50.2	-62.1	3.8	7.43e-01	0	43	104	0	71	14598
2026-01-25 00:36:33.26	45.23	17.79	-45.9	-56.7	3.8	7.45e-01	0	43	104	0	63	12457
2026-01-25 00:36:34.26	45.42	17.88	-53.9	-69.6	3.9	7.46e-01	0	43	104	0	78	23100
2026-01-25 00:36:35.27	45.62	17.97	-52.3	-65.5	3.9	7.38e-01	0	43	104	0	76	16204
2026-01-25 00:36:36.28	45.83	18.06	-45.2	-56.1	3.8	7.43e-01	0	43	104	0	61	12997
2026-01-25 00:36:37.29	46.03	18.16	-44.6	-55.3	3.8	7.46e-01	0	43	104	0	61	11939
2026-01-25 00:36:38.29	46.23	18.25	-44.3	-55.1	3.8	7.45e-01	0	43	104	0	60	12243
2026-01-25 00:36:39.30	46.44	18.34	-44.5	-55.2	3.8	7.45e-01	0	43	104	0	60	12449
2026-01-25 00:36:40.31	46.65	18.43	-45.2	-56.1	3.8	7.42e-01	0	43	104	0	61	12987
2026-01-25 00:36:41.32	46.86	18.52	-46.0	-56.9	3.8	7.45e-01	0	43	104	0	63	12784
2026-01-25 00:36:42.32	47.07	18.61	-53.7	-69.0	3.8	7.45e-01	0	43	104	0	79	20436
2026-01-25 00:36:43.32	47.28	18.70	-51.3	-63.7	3.9	7.44e-01	0	43	104	0	74	14724
2026-01-25 00:36:44.33	47.49	18.79	-45.3	-56.1	3.8	7.45e-01	0	43	104	0	61	13023
2026-01-25 00:36:45.33	47.70	18.89	-44.7	-55.5	3.8	7.44e-01	0	43	104	0	61	12188
2026-01-25 00:36:46.34	47.92	18.98	-44.7	-55.5	3.9	7.45e-01	0	43	104	0	61	12106
2026-01-25 00:36:47.35	48.13	19.07	-44.7	-55.5	3.8	7.43e-01	0	43	104	0	61	12199
2026-01-25 00:36:48.36	48.35	19.16	-45.0	-55.8	3.8	7.42e-01	0	43	104	0	61	12624
2026-01-25 00:36:49.37	48.57	19.25	-45.7	-56.6	3.8	7.47e-01	0	43	104	0	62	13012
2026-01-25 00:36:50.37	48.79	19.34	-52.7	-66.4	3.9	7.42e-01	0	43	104	0	77	16891
2026-01-25 00:36:51.38	49.01	19.43	-45.0	-55.7	3.8	7.44e-01	0	43	104	0	61	12466
2026-01-25 00:36:52.39	49.24	19.53	-49.5	-61.3	3.9	7.42e-01	0	43	104	0	71	13296
2026-01-25 00:36:53.40	49.46	19.62	-44.6	-55.4	3.9	7.42e-01	0	43	104	0	61	11999
2026-01-25 00:36:54.41	49.69	19.71	-44.5	-55.3	3.8	7.44e-01	0	43	104	0	60	12590
2026-01-25 00:36:55.42	49.92	19.80	-45.2	-56.0	3.8	7.48e-01	0	43	104	0	60	13680
2026-01-25 00:36:56.42	50.14	19.89	-47.9	-59.2	3.8	7.45e-01	0	43	104	0	67	13129
2026-01-25 00:36:57.43	50.37	19.98	-46.5	-57.4	3.8	7.49e-01	0	43	104	0	63	13503
2026-01-25 00:36:58.44	50.61	20.07	-53.2	-67.5	3.8	7.44e-01	0	43	104	0	78	18175
2026-01-25 00:36:59.44	50.84	20.16	-48.6	-60.0	3.9	7.45e-01	0	43	104	0	69	12836
2026-01-25 00:37:00.45	51.07	20.25	-45.2	-56.0	3.8	7.45e-01	0	43	104	0	61	12926
2026-01-25 00:37:01.46	51.31	20.35	-44.8	-55.6	3.8	7.43e-01	0	43	104	0	61	12349
2026-01-25 00:37:02.47	51.55	20.44	-44.6	-55.4	3.8	7.43e-01	0	43	104	0	61	11976
2026-01-25 00:37:03.47	51.79	20.53	-44.4	-55.1	3.8	7.43e-01	0	43	104	0	60	12371
2026-01-25 00:37:04.48	52.03	20.62	-44.7	-55.4	3.8	7.44e-01	0	43	104	0	60	12779
2026-01-25 00:37:05.49	52.27	20.71	-47.6	-58.8	3.8	7.44e-01	0	43	104	0	65	14060
2026-01-25 00:37:06.50	52.51	20.80	-47.9	-59.2	3.8	7.44e-01	0	43	104	0	68	12448
2026-01-25 00:37:07.50	52.75	20.89	-46.0	-56.8	3.8	7.44e-01	0	43	104	0	62	13401
2026-01-25 00:37:08.51	53.00	20.98	-47.6	-58.8	3.8	7.46e-01	0	43	104	0	67	12595
2026-01-25 00:37:09.52	53.25	21.07	-44.8	-55.6	3.8	7.46e-01	0	43	104	0	61	12332
2026-01-25 00:37:10.53	53.50	21.16	-44.7	-55.4	3.8	7.45e-01	0	43	104	0	61	12092
2026-01-25 00:37:11.54	53.75	21.25	-46.8	-57.7	3.8	7.44e-01	0	43	104	0	63	13915
2026-01-25 00:37:12.54	54.00	21.33	-47.8	-59.0	3.9	7.48e-01	0	43	104	0	67	12936
2026-01-25 00:37:13.55	54.26	21.42	-47.6	-58.6	3.8	7.43e-01	0	43	104	0	65	13851
2026-01-25 00:37:14.56	54.51	21.51	-52.8	-66.3	3.8	7.45e-01	0	43	104	0	77	16789
2026-01-25 00:37:15.57	54.77	21.60	-46.1	-57.0	3.8	7.39e-01	0	43	104	0	64	12174
2026-01-25 00:37:16.57	55.02	21.69	-45.3	-56.1	3.8	7.46e-01	0	43	104	0	62	12349
2026-01-25 00:37:17.58	55.28	21.78	-45.0	-55.8	3.8	7.42e-01	0	43	104	0	61	12596
2026-01-25 00:37:18.59	55.55	21.87	-44.9	-55.7	3.8	7.43e-01	0	43	104	0	61	12394
2026-01-25 00:37:19.60	55.81	21.95	-44.8	-55.6	3.8	7.46e-01	0	43	104	0	61	12370
2026-01-25 00:37:20.60	56.07	22.04	-45.4	-56.3	3.8	7.42e-01	0	43	104	0	61	13283
2026-01-25 00:37:21.61	56.34	22.13	-50.3	-62.0	3.8	7.43e-01	0	43	104	0	70	15287
2026-01-25 00:37:22.62	56.61	22.21	-46.5	-57.5	3.9	7.43e-01	0	43	104	0	65	12128
2026-01-25 00:37:23.63	56.88	22.30	-47.6	-58.7	3.8	7.46e-01	0	43	104	0	65	13952
2026-01-25 00:37:24.64	57.15	22.39	-46.1	-57.1	3.8	7.44e-01	0	43	104	0	64	12257
2026-01-25 00:37:25.64	57.42	22.47	-45.0	-55.8	3.8	7.42e-01	0	43	104	0	62	11861
2026-01-25 00:37:26.65	57.69	22.56	-45.0	-55.8	3.8	7.44e-01	0	43	104	0	61	12604
2026-01-25 00:37:27.66	57.97	22.64	-50.3	-62.1	3.8	7.46e-01	0	43	104	0	70	15412
2026-01-25 00:37:28.67	58.24	22.73	-48.4	-59.6	3.8	7.43e-01	0	43	104	0	68	13050
2026-01-25 00:37:29.67	58.52	22.81	-49.3	-60.7	3.8	7.47e-01	0	43	104	0	68	14741
2026-01-25 00:37:30.68	58.80	22.90	-53.2	-67.2	3.8	7.47e-01	0	43	104	0	77	18668
2026-01-25 00:37:31.69	59.08	22.98	-44.8	-55.6	3.8	7.46e-01	0	43	104	0	61	12345
2026-01-25 00:37:32.70	59.37	23.07	-45.3	-56.1	3.8	7.46e-01	0	43	104	0	62	12295
2026-01-25 00:37:33.70	59.65	23.15	-45.2	-55.9	3.8	7.44e-01	0	43	104	0	62	12078
2026-01-25 00:37:34.71	59.94	23.23	-44.9	-55.7	3.8	7.45e-01	0	43	104	0	61	12436
2026-01-25 00:37:35.72	60.22	23.31	-45.2	-56.1	3.8	7.43e-01	0	43	104	0	61	12965
2026-01-25 00:37:36.73	60.51	23.40	-45.6	-56.4	3.8	7.47e-01	0	43	104	0	61	13501
2026-01-25 00:37:37.74	60.81	23.48	-52.2	-65.0	3.8	7.46e-01	0	43	104	0	74	17115
2026-01-25 00:37:38.75	61.10	23.56	-46.1	-56.9	3.8	7.41e-01	0	43	104	0	64	12084
2026-01-25 00:37:39.75	61.39	23.64	-49.2	-60.6	3.8	7.46e-01	0	43	104	0	68	14654
2026-01-25 00:37:40.76	61.69	23.72	-45.4	-56.2	3.8	7.45e-01	0	43	104	0	62	12419
2026-01-25 00:37:41.77	61.98	23.80	-45.2	-56.0	3.8	7.47e-01	0	43	104	0	62	12103
2026-01-25 00:37:42.77	62.28	23.88	-45.1	-55.8	3.8	7.44e-01	0	43	104	0	62	11879
2026-01-25 00:37:43.78	62.58	23.96	-52.5	-65.8	3.8	7.45e-01	0	43	104	0	75	17786
2026-01-25 00:37:44.79	62.88	24.03	-47.8	-59.1	3.7	7.46e-01	0	43	104	0	67	12963
2026-01-25 00:37:45.80	63.19	24.11	-52.0	-55.8	16.7	6.02e-01	0	43	0	524288	74	5962
2026-01-25 00:37:46.80	63.49	24.19	-53.2	-58.8	13.2	6.02e-01	0	43	0	2097152	76	7459
2026-01-25 00:37:47.81	63.80	24.26	-45.0	-46.2	25.4	5.99e-01	0	43	0	4194304	61	4184
2026-01-25 00:37:48.82	64.10	24.34	-44.9	-46.1	25.5	6.03e-01	0	43	0	5767168	61	4110
2026-01-25 00:37:49.82	64.41	24.41	-44.8	-46.0	25.6	6.02e-01	0	43	0	7864320	61	4090
2026-01-25 00:37:50.83	64.72	24.49	-44.7	-45.9	25.7	6.01e-01	0	43	0	9961472	61	4012
2026-01-25 00:37:51.84	65.03	24.56	-44.7	-45.9	25.7	5.99e-01	0	44	0	11534336	61	4009
2026-01-25 00:37:52.85	65.35	24.64	-44.8	-46.0	25.6	5.99e-01	0	43	0	13631488	61	4068
2026-01-25 00:37:53.86	65.67	24.71	-44.7	-45.9	25.7	6.02e-01	0	43	0	15204352	61	4030
2026-01-25 00:37:54.86	65.98	24.78	-44.7	-45.9	25.7	6.02e-01	0	43	0	17301504	61	4025
2026-01-25 00:37:55.87	66.30	24.85	-44.7	-46.0	25.6	6.02e-01	0	43	0	18874368	61	4054
2026-01-25 00:37:56.88	66.62	24.92	-44.6	-45.8	25.8	6.03e-01	0	43	0	20971520	61	3968
2026-01-25 00:37:57.89	66.94	24.99	-44.6	-45.8	25.8	6.02e-01	0	43	0	23068672	61	3972
2026-01-25 00:37:58.89	67.26	25.06	-44.6	-45.8	25.8	6.01e-01	0	43	0	25165824	61	3982
2026-01-25 00:37:59.90	67.59	25.13	-44.7	-45.9	25.7	6.02e-01	0	43	0	26738688	61	4025
2026-01-25 00:38:00.91	67.91	25.20	-44.7	-45.9	25.7	6.03e-01	0	43	0	28835840	61	4023
2026-01-25 00:38:01.92	68.24	25.27	-44.7	-45.9	25.9	6.02e-01	0	43	0	30408704	61	4008
2026-01-25 00:38:02.92	68.57	25.33	-44.8	-46.0	25.6	6.04e-01	0	43	0	32505856	61	4094
2026-01-25 00:38:03.93	68.90	25.40	-44.8	-46.0	25.6	5.99e-01	0	43	0	34078720	61	4082
2026-01-25 00:38:04.94	69.23	25.46	-44.9	-46.1	25.6	6.02e-01	0	43	0	36175872	61	4144
2026-01-25 00:38:05.95	69.56	25.53	-44.8	-46.0	25.7	6.00e-01	0	43	0	38273024	61	4083
2026-01-25 00:38:06.96	69.90	25.59	-44.6	-45.8	25.9	6.02e-01	0	43	0	39845888	61	3966
2026-01-25 00:38:07.97	70.23	25.65	-44.6	-45.8	25.8	6.01e-01	0	43	0	41943040	61	3972
2026-01-25 00:38:08.97	70.57	25.71	-44.7	-45.9	25.7	5.99e-01	0	43	0	43515904	61	4046
2026-01-25 00:38:09.98	70.91	25.78	-44.6	-45.8	25.8	6.00e-01	0	43	0	45613056	61	3991
2026-01-25 00:38:10.99	71.25	25.83	-44.5	-45.7	25.9	6.00e-01	0	43	0	47710208	61	3942
2026-01-25 00:38:12.00	71.59	25.89	-44.7	-45.9	25.8	6.01e-01	0	43	0	49283072	61	4037
2026-01-25 00:38:13.00	71.93	25.95	-44.7	-45.9	25.8	6.02e-01	0	43	0	51380224	61	4018
2026-01-25 00:38:14.01	72.27	26.01	-44.6	-45.8	25.0	6.01e-01	0	43	0	53477376	61	3989
2026-01-25 00:38:15.02	72.62	26.07	-44.6	-45.8	25.9	6.01e-01	0	43	0	55050240	61	3999
2026-01-25 00:38:16.03	72.96	26.12	-44.5	-45.7	26.0	6.02e-01	0	43	0	57147392	60	4159
2026-01-25 00:38:17.04	73.31	26.17	-44.4	-45.6	26.0	6.04e-01	0	43	0	58720256	60	4116
2026-01-25 00:38:18.04	73.66	26.23	-44.5	-45.6	26.1	6.01e-01	0	43	0	60817408	60	4140
2026-01-25 00:38:19.05	74.01	26.28	-44.5	-45.7	26.0	6.00e-01	0	43	0	62390272	60	4178
2026-01-25 00:38:20.06	74.36	26.33	-44.6	-45.7	26.0	6.00e-01	0	43	0	64487424	60	4192
2026-01-25 00:38:21.07	74.71	26.38	-44.4	-45.5	26.1	6.03e-01	0	43	0	66584576	60	4090
2026-01-25 00:38:22.07	75.06	26.43	-44.5	-45.6	26.1	6.00e-01	0	43	0	68157440	60	4142
2026-01-25 00:38:23.08	75.41	26.48	-44.4	-45.6	26.1	6.01e-01	0	43	0	70254592	60	4115
2026-01-25 00:38:24.09	75.77	26.53	-44.6	-45.8	26.0	6.02e-01	0	43	0	72351744	60	4204
2026-01-25 00:38:25.10	76.13	26.57	-44.4	-45.6	26.2	6.00e-01	0	43	0	73924608	60	4127
2026-01-25 00:38:26.10	76.48	26.62	-44.4	-45.5	26.2	6.02e-01	0	43	0	76021760	60	4096
2026-01-25 00:38:27.11	76.84	26.66	-44.4	-45.6	26.1	6.01e-01	0	43	0	77594624	60	4108
2026-01-25 00:38:28.12	77.20	26.71	-44.4	-45.5	26.2	6.00e-01	0	43	0	79691776	60	4091
2026-01-25 00:38:29.13	77.56	26.75	-44.4	-45.5	26.1	6.00e-01	0	43	0	81788928	60	4090
2026-01-25 00:38:30.14	77.92	26.79	-44.4	-45.6	26.0	6.00e-01	0	43	0	83361792	60	4137
2026-01-25 00:38:31.14	78.28	26.83	-44.3	-45.5	26.1	6.02e-01	0	43	0	85458944	60	4081
2026-01-25 00:38:32.15	78.65	26.87	-44.3	-45.5	26.2	6.00e-01	0	43	0	87031808	60	4085
2026-01-25 00:38:33.16	79.01	26.91	-44.3	-45.5	26.2	6.00e-01	0	43	0	89128960	60	4078
2026-01-25 00:38:34.17	79.38	26.94	-44.4	-45.6	26.1	5.99e-01	0	43	0	90701824	60	4127
2026-01-25 00:38:35.17	79.74	26.98	-44.5	-45.7	26.0	6.01e-01	0	43	0	92798976	60	4181
2026-01-25 00:38:36.18	80.11	27.01	-44.3	-45.5	26.2	6.03e-01	0	44	0	94896128	60	4069
2026-01-25 00:38:37.19	80.48	27.05	-44.2	-45.3	26.3	6.00e-01	0	43	0	96993280	60	3995
2026-01-25 00:38:38.20	80.85	27.08	-44.2	-45.3	26.3	6.01e-01	0	43	0	98566144	60	3993
2026-01-25 00:38:39.20	81.21	27.11	-44.4	-45.6	26.2	6.01e-01	0	44	0	100663296	60	4100
2026-01-25 00:38:40.21	81.58	27.14	-44.4	-45.5	26.2	6.01e-01	0	43	0	102236160	60	4093
2026-01-25 00:38:41.22	81.95	27.17	-44.3	-45.5	26.2	6.01e-01	0	43	0	104333312	60	4057
2026-01-25 00:38:42.23	82.33	27.19	-44.2	-45.4	26.3	6.01e-01	0	44	0	105906176	60	4014
2026-01-25 00:38:43.24	82.70	27.22	-44.3	-45.5	26.2	6.01e-01	0	43	0	108003328	60	4065
2026-01-25 00:38:44.24	83.07	27.24	-44.1	-45.2	26.4	6.01e-01	0	43	0	110100480	60	3942
2026-01-25 00:38:45.25	83.44	27.27	-44.1	-45.2	26.3	6.00e-01	0	43	0	111673344	60	3954
2026-01-25 00:38:46.26	83.82	27.29	-44.1	-45.2	26.4	5.99e-01	0	43	0	113770496	60	3946
2026-01-25 00:38:47.27	84.19	27.31	-44.1	-45.3	26.4	5.99e-01	0	43	0	115343360	60	3966
2026-01-25 00:38:48.27	84.56	27.33	-44.2	-45.4	26.3	6.04e-01	0	43	0	117440512	60	4031
2026-01-25 00:38:49.28	84.94	27.35	-44.2	-45.4	26.4	6.02e-01	0	43	0	119537664	60	4009
2026-01-25 00:38:50.29	85.31	27.37	-44.3	-45.5	26.2	6.03e-01	0	43	0	121110528	60	4070
2026-01-25 00:38:51.30	85.69	27.38	-44.0	-45.2	26.4	6.00e-01	0	43	0	123207680	60	3930
2026-01-25 00:38:52.30	86.06	27.40	-44.1	-45.2	26.3	6.01e-01	0	43	0	125304832	59	4192
2026-01-25 00:38:53.31	86.44	27.41	-44.1	-45.2	26.1	6.04e-01	0	43	0	126877696	59	4177
2026-01-25 00:38:54.32	86.82	27.42	-44.3	-45.5	26.1	6.02e-01	0	43	0	128974848	59	4312
2026-01-25 00:38:55.32	87.19	27.43	-44.2	-45.4	26.2	6.03e-01	0	43	0	130547712	59	4262
2026-01-25 00:38:56.33	87.57	27.44	-44.2	-45.4	26.2	6.02e-01	0	43	0	132644864	59	4255
2026-01-25 00:38:57.34	87.95	27.45	-44.2	-45.4	26.1	6.01e-01	0	43	0	134217728	59	4266
2026-01-25 00:38:58.35	88.33	27.46	-44.1	-45.2	26.3	6.02e-01	0	43	0	136314880	59	4184
2026-01-25 00:38:59.35	88.70	27.47	-44.0	-45.1	26.3	6.01e-01	0	43	0	138412032	59	4133
2026-01-25 00:39:00.36	89.08	27.47	-44.1	-45.3	26.1	6.02e-01	0	44	0	139984896	59	4208
2026-01-25 00:39:01.37	89.46	27.47	-43.9	-45.0	26.4	6.00e-01	0	43	0	142082048	59	4079
2026-01-25 00:39:02.38	89.84	27.48	-44.0	-45.1	26.5	6.00e-01	0	43	0	143654912	59	4121
2026-01-25 00:39:03.38	90.22	27.48	-43.9	-45.0	26.5	6.03e-01	0	43	0	145752064	59	4072
2026-01-25 00:39:04.39	90.59	27.48	-44.0	-45.1	26.3	6.01e-01	0	43	0	147849216	59	4143
2026-01-25 00:39:05.40	90.97	27.47	-44.1	-45.2	26.3	6.00e-01	0	43	0	149422080	59	4174
2026-01-25 00:39:06.41	91.35	27.47	-44.1	-45.2	26.2	6.01e-01	0	43	0	151519232	59	4177
2026-01-25 00:39:07.41	91.73	27.47	-44.1	-45.3	26.0	6.03e-01	0	43	0	153616384	59	4219
2026-01-25 00:39:08.42	92.11	27.46	-44.0	-45.2	26.3	6.02e-01	0	43	0	155189248	59	4160
2026-01-25 00:39:09.43	92.49	27.45	-44.1	-45.3	26.2	6.03e-01	0	43	0	157286400	59	4221
2026-01-25 00:39:10.44	92.86	27.45	-44.0	-45.1	26.4	6.01e-01	0	43	0	158859264	59	4121
2026-01-25 00:39:11.45	93.24	27.44	-43.9	-45.0	26.4	6.00e-01	0	43	0	160956416	59	4096
2026-01-25 00:39:12.46	93.62	27.43	-43.9	-45.0	26.4	6.02e-01	0	43	0	162529280	59	4075
2026-01-25 00:39:13.46	93.99	27.41	-43.8	-44.9	26.5	6.00e-01	0	43	0	164626432	59	4036
2026-01-25 00:39:14.47	94.37	27.40	-43.9	-45.1	26.4	6.02e-01	0	43	0	166723584	59	4116
2026-01-25 00:39:15.48	94.75	27.39	-43.9	-45.0	26.4	5.99e-01	0	43	0	168820736	59	4074
2026-01-25 00:39:16.49	95.13	27.37	-43.9	-45.0	26.5	6.03e-01	0	44	0	170393600	59	4069
2026-01-25 00:39:17.49	95.50	27.35	-43.8	-44.9	26.6	6.04e-01	0	43	0	172490752	59	4039
2026-01-25 00:39:18.50	95.88	27.33	-43.8	-45.0	26.5	6.01e-01	0	43	0	174063616	59	4057
2026-01-25 00:39:19.51	96.25	27.31	-44.0	-45.2	26.3	6.00e-01	0	43	0	176160768	59	4170
2026-01-25 00:39:20.52	96.63	27.29	-44.1	-45.2	26.3	6.02e-01	0	43	0	177733632	59	4172
2026-01-25 00:39:21.53	97.00	27.27	-43.9	-45.1	26.3	6.00e-01	0	44	0	179830784	59	4112
2026-01-25 00:39:22.53	97.37	27.25	-43.8	-44.9	26.5	6.03e-01	0	43	0	181927936	59	4034
2026-01-25 00:39:23.54	97.74	27.22	-43.8	-44.9	26.5	6.00e-01	0	43	0	183500800	59	4044
2026-01-25 00:39:24.55	98.12	27.20	-43.9	-45.1	26.4	6.02e-01	0	43	0	185597952	59	4102
2026-01-25 00:39:25.56	98.49	27.17	-43.9	-45.1	26.3	6.00e-01	0	43	0	187170816	59	4107
2026-01-25 00:39:26.57	98.86	27.14	-43.7	-44.8	26.6	6.01e-01	0	43	0	189267968	59	3983
2026-01-25 00:39:27.57	99.23	27.11	-43.7	-44.8	26.5	5.99e-01	0	43	0	190840832	59	3984
2026-01-25 00:39:28.58	99.60	27.08	-43.7	-44.8	26.5	6.01e-01	0	43	0	192937984	59	3995
2026-01-25 00:39:29.59	99.97	27.05	-43.8	-44.9	26.5	5.98e-01	0	43	0	195035136	59	4043
2026-01-25 00:39:30.60	100.34	27.02	-43.8	-44.9	26.5	6.02e-01	0	43	0	197132288	59	4038
2026-01-25 00:39:31.61	100.71	26.98	-43.9	-45.0	26.5	6.01e-01	0	44	0	198705152	59	4072
2026-01-25 00:39:32.61	101.07	26.95	-43.8	-44.9	26.6	6.03e-01	0	43	0	200802304	59	4030
2026-01-25 00:39:33.62	101.44	26.91	-43.8	-44.9	26.5	6.00e-01	0	43	0	202375168	59	4015
2026-01-25 00:39:34.63	101.80	26.87	-43.7	-44.8	26.6	6.01e-01	0	43	0	204472320	59	3981
2026-01-25 00:39:35.64	102.17	26.84	-43.8	-45.0	26.5	6.01e-01	0	43	0	206045184	59	4064
2026-01-25 00:39:36.64	102.53	26.80	-43.7	-44.8	26.6	5.99e-01	0	43	0	208142336	59	3987
2026-01-25 00:39:37.65	102.89	26.76	-43.7	-44.9	26.6	6.02e-01	0	43	0	210239488	59	4011
2026-01-25 00:39:38.66	103.25	26.71	-43.9	-45.0	26.4	6.01e-01	0	43	0	211812352	59	4082
2026-01-25 00:39:39.67	103.61	26.67	-43.8	-45.0	26.5	6.01e-01	0	43	0	213909504	59	4053
2026-01-25 00:39:40.68	103.97	26.63	-43.7	-44.8	26.6	6.00e-01	0	43	0	215482368	59	3974
2026-01-25 00:39:41.68	104.33	26.58	-43.8	-44.9	26.5	6.03e-01	0	43	0	217579520	59	4034
2026-01-25 00:39:42.69	104.68	26.53	-43.8	-45.0	26.5	6.01e-01	0	43	0	219676672	59	4057
2026-01-25 00:39:43.69	105.04	26.49	-43.8	-44.9	26.5	6.01e-01	0	43	0	221249536	59	4034
2026-01-25 00:39:44.70	105.39	26.44	-43.8	-45.0	26.5	6.01e-01	0	43	0	223346688	59	4058
2026-01-25 00:39:45.71	105.75	26.39	-43.9	-45.0	26.4	6.00e-01	0	43	0	225443840	59	4091
2026-01-25 00:39:46.72	106.10	26.34	-43.9	-45.0	26.3	6.01e-01	0	43	0	227016704	59	4069
2026-01-25 00:39:47.73	106.45	26.29	-43.6	-44.8	26.6	6.02e-01	0	44	0	229113856	59	3961
2026-01-25 00:39:48.73	106.80	26.24	-43.8	-44.9	26.5	6.00e-01	0	43	0	230686720	59	4019
2026-01-25 00:39:49.74	107.15	26.18	-43.8	-44.9	26.4	6.03e-01	0	43	0	232783872	59	4051
2026-01-25 00:39:50.75	107.50	26.13	-43.9	-45.0	26.4	6.00e-01	0	43	0	234356736	59	4069
2026-01-25 00:39:51.76	107.85	26.07	-43.9	-45.0	26.4	5.98e-01	0	43	0	236453888	59	4093
2026-01-25 00:39:52.77	108.19	26.02	-43.9	-45.1	26.4	6.02e-01	0	43	0	238551040	59	4108
2026-01-25 00:39:53.78	108.54	25.96	-44.0	-45.1	26.2	6.01e-01	0	43	0	240123904	59	4136
2026-01-25 00:39:54.78	108.88	25.90	-43.7	-44.8	26.6	5.99e-01	0	43	0	242221056	59	3990
2026-01-25 00:39:55.79	109.22	25.84	-43.7	-44.8	26.6	6.02e-01	0	43	0	244318208	59	3981
2026-01-25 00:39:56.80	109.56	25.78	-43.7	-44.9	26.6	5.99e-01	0	43	0	245891072	59	4015
2026-01-25 00:39:57.81	109.90	25.72	-43.9	-45.0	26.4	5.99e-01	0	43	0	247988224	59	4090
2026-01-25 00:39:58.82	110.24	25.66	-43.8	-44.9	26.4	6.00e-01	0	43	0	249561088	59	4033
2026-01-25 00:39:59.82	110.57	25.60	-43.8	-44.9	26.4	6.03e-01	0	43	0	251658240	59	4042
2026-01-25 00:40:00.83	110.91	25.53	-44.0	-45.2	26.4	6.02e-01	0	43	0	253755392	59	4152
2026-01-25 00:40:01.84	111.24	25.47	-43.8	-44.9	26.5	6.00e-01	0	43	0	255328256	59	4035
2026-01-25 00:40:02.84	111.57	25.41	-43.7	-44.8	26.6	6.00e-01	0	44	0	257425408	59	3984
2026-01-25 00:40:03.85	111.91	25.34	-43.8	-44.9	26.5	6.02e-01	0	43	0	258998272	59	4018
2026-01-25 00:40:04.86	112.24	25.27	-43.8	-44.9	26.4	6.00e-01	0	43	0	261095424	59	4035
2026-01-25 00:40:05.87	112.57	25.21	-43.9	-45.0	26.3	6.04e-01	0	43	0	262668288	59	4091
2026-01-25 00:40:06.88	112.89	25.14	-43.9	-45.0	26.3	6.00e-01	0	43	0	264765440	59	4069
2026-01-25 00:40:07.88	113.22	25.07	-43.8	-44.9	26.5	6.01e-01	0	43	0	266862592	59	4027
2026-01-25 00:40:08.89	113.54	25.00	-43.9	-45.0	26.4	6.00e-01	0	43	0	268435456	59	4086
2026-01-25 00:40:09.90	113.86	24.93	-44.0	-45.1	26.3	6.02e-01	0	43	0	270532608	59	4129
2026-01-25 00:40:10.90	114.18	24.86	-43.9	-45.0	26.3	6.01e-01	0	43	0	272629760	59	4096
2026-01-25 00:40:11.91	114.50	24.79	-43.9	-45.0	26.4	6.01e-01	0	43	0	274202624	59	4075
2026-01-25 00:40:12.92	114.82	24.72	-43.9	-45.0	26.4	6.01e-01	0	43	0	276299776	59	4085
2026-01-25 00:40:13.93	115.14	24.64	-43.9	-45.0	26.3	6.01e-01	0	43	0	277872640	59	4093
2026-01-25 00:40:14.94	115.45	24.57	-43.8	-45.0	26.4	6.03e-01	0	43	0	279969792	59	4056
2026-01-25 00:40:15.94	115.76	24.50	-43.9	-45.1	26.3	6.02e-01	0	43	0	282066944	59	4103
2026-01-25 00:40:16.95	116.08	24.42	-43.9	-45.0	26.4	6.01e-01	0	43	0	283639808	59	4093
2026-01-25 00:40:17.96	116.39	24.34	-43.9	-45.1	26.4	6.01e-01	0	43	0	285736960	59	4103
2026-01-25 00:40:18.97	116.70	24.27	-43.9	-45.0	26.4	6.01e-01	0	43	0	287309824	59	4074
2026-01-25 00:40:19.97	117.00	24.19	-44.0	-45.1	26.3	6.01e-01	0	43	0	289406976	59	4131
2026-01-25 00:40:20.98	117.31	24.12	-43.9	-45.1	26.3	6.00e-01	0	43	0	291504128	59	4102
2026-01-25 00:40:21.99	117.61	24.04	-43.9	-45.0	26.3	6.00e-01	0	43	0	293076992	59	4070
2026-01-25 00:40:23.00	117.92	23.96	-44.0	-45.1	26.2	5.99e-01	0	43	0	295174144	59	4134
2026-01-25 00:40:24.00	118.22	23.88	-44.0	-45.1	26.2	6.01e-01	0	43	0	296747008	59	4132
2026-01-25 00:40:25.01	118.52	23.80	-43.9	-45.1	26.3	6.02e-01	0	43	0	298844160	59	4108
2026-01-25 00:40:26.02	118.81	23.72	-43.9	-45.0	26.4	6.03e-01	0	43	0	300941312	59	4088
2026-01-25 00:40:27.03	119.11	23.64	-43.8	-45.0	26.4	6.02e-01	0	43	0	302514176	59	4053
2026-01-25 00:40:28.04	119.41	23.56	-43.8	-44.9	26.5	6.02e-01	0	43	0	304611328	59	4038
2026-01-25 00:40:29.04	119.70	23.48	-43.8	-45.0	26.4	6.03e-01	0	43	0	306184192	59	4064
2026-01-25 00:40:30.05	119.99	23.40	-43.9	-45.1	26.3	6.04e-01	0	43	0	308281344	59	4106
2026-01-25 00:40:31.06	120.28	23.31	-43.9	-45.1	26.3	6.02e-01	0	43	0	310378496	59	4099
2026-01-25 00:40:32.07	120.57	23.23	-43.9	-45.1	26.3	6.02e-01	0	43	0	311951360	59	4113
2026-01-25 00:40:33.08	120.86	23.15	-44.0	-45.1	26.2	6.00e-01	0	43	0	314048512	59	4138
2026-01-25 00:40:34.08	121.14	23.07	-43.8	-45.0	26.3	5.99e-01	0	43	0	316145664	59	4059
2026-01-25 00:40:35.09	121.43	22.98	-43.9	-45.0	26.3	6.03e-01	0	43	0	317718528	59	4071
2026-01-25 00:40:36.10	121.71	22.90	-43.8	-45.0	26.4	6.00e-01	0	43	0	319815680	59	4055
2026-01-25 00:40:37.10	121.99	22.81	-43.7	-44.9	26.5	5.98e-01	0	43	0	321388544	59	4008
2026-01-25 00:40:38.11	122.27	22.73	-43.8	-45.0	26.4	6.02e-01	0	43	0	323485696	59	4054
2026-01-25 00:40:39.12	122.55	22.64	-44.0	-45.1	26.3	6.01e-01	0	43	0	325058560	59	4126
2026-01-25 00:40:40.13	122.82	22.56	-44.0	-45.2	26.2	6.01e-01	0	43	0	327155712	59	4170
2026-01-25 00:40:41.13	123.10	22.47	-44.0	-45.2	26.2	6.02e-01	0	43	0	329252864	59	4164
2026-01-25 00:40:42.14	123.37	22.38	-43.9	-45.1	26.2	6.04e-01	0	43	0	330825728	59	4119
2026-01-25 00:40:43.15	123.64	22.30	-43.9	-45.0	26.2	6.02e-01	0	43	0	332922880	59	4094
2026-01-25 00:40:44.16	123.91	22.21	-43.7	-44.9	26.4	6.03e-01	0	43	0	334495744	59	4016
2026-01-25 00:40:45.17	124.18	22.12	-43.7	-44.8	26.6	6.02e-01	0	43	0	336592896	59	3978
2026-01-25 00:40:46.17	124.45	22.04	-43.8	-44.9	26.4	6.02e-01	0	43	0	338690048	59	4045
2026-01-25 00:40:47.18	124.71	21.95	-43.8	-45.0	26.4	5.99e-01	0	43	0	340262912	59	4060
2026-01-25 00:40:48.19	124.98	21.86	-43.7	-44.8	26.5	6.01e-01	0	43	0	342360064	59	3989
2026-01-25 00:40:49.20	125.24	21.77	-43.7	-44.9	26.5	5.99e-01	0	43	0	344457216	59	4009
2026-01-25 00:40:50.20	125.50	21.68	-43.7	-44.9	26.5	6.04e-01	0	43	0	346030080	59	4008
2026-01-25 00:40:51.21	125.76	21.59	-43.9	-45.0	26.3	6.02e-01	0	43	0	348127232	59	4079
2026-01-25 00:40:52.22	126.02	21.51	-43.9	-45.1	26.3	6.01e-01	0	43	0	349700096	59	4101
2026-01-25 00:40:53.23	126.27	21.42	-44.0	-45.1	26.1	6.00e-01	0	43	0	351797248	59	4132
2026-01-25 00:40:54.24	126.53	21.33	-43.7	-44.8	26.3	6.00e-01	0	43	0	353370112	59	3993
2026-01-25 00:40:55.24	126.78	21.24	-43.7	-44.9	26.4	6.01e-01	0	43	0	355467264	59	4012
2026-01-25 00:40:56.25	127.03	21.15	-43.7	-44.8	26.5	6.03e-01	0	43	0	357564416	59	3992
2026-01-25 00:40:57.26	127.28	21.06	-43.7	-44.8	26.4	5.98e-01	0	43	0	359137280	59	3997
2026-01-25 00:40:58.27	127.53	20.97	-43.6	-44.8	26.5	6.03e-01	0	43	0	361234432	59	3967
2026-01-25 00:40:59.28	127.78	20.88	-43.6	-44.8	26.5	6.02e-01	0	43	0	362807296	59	3968
2026-01-25 00:41:00.28	128.03	20.79	-43.8	-44.9	26.3	6.03e-01	0	43	0	364904448	59	4044
2026-01-25 00:41:01.29	128.27	20.70	-43.8	-44.9	26.3	6.00e-01	0	43	0	367001600	59	4032
2026-01-25 00:41:02.29	128.51	20.61	-43.7	-44.9	26.4	5.97e-01	0	43	0	368574464	59	4023
2026-01-25 00:41:03.30	128.75	20.51	-43.7	-44.8	26.4	6.03e-01	0	43	0	370671616	59	4003
2026-01-25 00:41:04.30	128.99	20.42	-43.6	-44.7	26.5	6.00e-01	0	43	0	372768768	59	3943
2026-01-25 00:41:05.31	129.23	20.33	-43.6	-44.7	26.4	5.99e-01	0	43	0	374341632	59	3943
2026-01-25 00:41:06.32	129.47	20.24	-43.5	-44.6	26.5	6.00e-01	0	43	0	376438784	59	3912
2026-01-25 00:41:07.33	129.70	20.15	-43.6	-44.7	26.4	6.01e-01	0	43	0	378011648	59	3944
2026-01-25 00:41:08.34	129.94	20.06	-43.6	-44.8	26.4	6.01e-01	0	43	0	380108800	59	3963
2026-01-25 00:41:09.34	130.17	19.97	-43.7	-44.8	26.4	6.01e-01	0	43	0	381681664	59	3987
2026-01-25 00:41:10.35	130.40	19.88	-43.6	-44.7	26.4	6.01e-01	0	43	0	383778816	59	3952
2026-01-25 00:41:11.36	130.63	19.78	-43.6	-44.8	26.5	6.03e-01	0	43	0	385875968	59	3974
2026-01-25 00:41:12.37	130.86	19.69	-43.6	-44.7	26.4	5.98e-01	0	43	0	387448832	59	3958
2026-01-25 00:41:13.37	131.09	19.60	-43.6	-44.7	26.5	6.02e-01	0	43	0	389545984	59	3944
2026-01-25 00:41:14.38	131.31	19.51	-43.6	-44.7	26.5	6.02e-01	0	43	0	391643136	59	3945
2026-01-25 00:41:15.39	131.54	19.42	-43.6	-44.8	26.4	6.02e-01	0	43	0	393216000	59	3962
2026-01-25 00:41:16.39	131.76	19.32	-43.6	-44.7	26.5	6.01e-01	0	43	0	395313152	59	3944
2026-01-25 00:41:17.40	131.98	19.23	-43.7	-44.8	26.4	6.02e-01	0	43	0	396886016	59	3982
2026-01-25 00:41:18.41	132.20	19.14	-43.5	-44.7	26.5	6.01e-01	0	43	0	398983168	59	3917
2026-01-25 00:41:19.42	132.42	19.05	-43.7	-44.8	26.4	6.00e-01	0	43	0	401080320	59	3977
2026-01-25 00:41:20.43	132.64	18.96	-43.6	-44.7	26.4	6.01e-01	0	43	0	402653184	59	3949
2026-01-25 00:41:21.43	132.85	18.86	-43.6	-44.8	26.4	6.00e-01	0	43	0	404750336	59	3959
2026-01-25 00:41:22.44	133.07	18.77	-43.6	-44.7	26.4	6.01e-01	0	43	0	406323200	59	3938
2026-01-25 00:41:23.44	133.28	18.68	-43.6	-44.7	26.5	6.03e-01	0	43	0	408420352	59	3952
2026-01-25 00:41:24.45	133.49	18.59	-43.6	-44.7	26.5	6.00e-01	0	43	0	409993216	59	3940
2026-01-25 00:41:25.46	133.70	18.50	-43.5	-44.7	26.5	6.03e-01	0	43	0	412090368	59	3923
2026-01-25 00:41:26.47	133.91	18.40	-43.5	-44.7	26.4	6.00e-01	0	43	0	414187520	59	3927
2026-01-25 00:41:27.47	134.12	18.31	-43.5	-44.6	26.5	6.00e-01	0	43	0	415760384	58	4117
2026-01-25 00:41:28.48	134.33	18.22	-43.5	-44.6	26.5	5.99e-01	0	43	0	417857536	58	4134
2026-01-25 00:41:29.49	134.53	18.13	-43.4	-44.6	26.6	6.00e-01	0	43	0	419954688	58	4105
2026-01-25 00:41:30.50	134.74	18.04	-43.5	-44.6	26.5	6.01e-01	0	43	0	421527552	58	4113
2026-01-25 00:41:31.51	134.94	17.94	-43.6	-44.7	26.3	6.04e-01	0	43	0	423624704	58	4189
2026-01-25 00:41:32.51	135.14	17.85	-43.5	-44.6	26.4	6.01e-01	0	43	0	425197568	58	4130
2026-01-25 00:41:33.52	135.34	17.76	-43.5	-44.6	26.5	6.04e-01	0	43	0	427294720	58	4122
2026-01-25 00:41:34.53	135.54	17.67	-43.6	-44.7	26.3	6.01e-01	0	43	0	429391872	58	4178
2026-01-25 00:41:35.53	135.74	17.58	-43.5	-44.7	26.4	6.00e-01	0	43	0	430964736	58	4168
2026-01-25 00:41:36.54	135.93	17.49	-43.5	-44.7	26.4	6.00e-01	0	43	0	433061888	58	4162
2026-01-25 00:41:37.55	136.13	17.40	-43.5	-44.7	26.4	5.97e-01	0	43	0	434634752	58	4154
2026-01-25 00:41:38.56	136.32	17.30	-43.6	-44.7	26.3	6.00e-01	0	43	0	436731904	58	4181
2026-01-25 00:41:39.57	136.52	17.21	-43.5	-44.6	26.5	6.03e-01	0	43	0	438304768	58	4129
2026-01-25 00:41:40.57	136.71	17.12	-43.5	-44.6	26.5	6.01e-01	0	43	0	440401920	58	4118
2026-01-25 00:41:41.58	136.90	17.03	-43.5	-44.7	26.4	6.01e-01	0	43	0	442499072	58	4158
2026-01-25 00:41:42.59	137.09	16.94	-43.4	-44.6	26.5	6.01e-01	0	43	0	444596224	58	4110
2026-01-25 00:41:43.59	137.28	16.85	-43.5	-44.7	26.4	5.99e-01	0	43	0	446169088	58	4150
2026-01-25 00:41:44.60	137.46	16.76	-43.4	-44.5	26.5	6.00e-01	0	43	0	448266240	58	4082
2026-01-25 00:41:45.61	137.65	16.67	-43.5	-44.6	26.4	6.01e-01	0	43	0	449839104	58	4113
2026-01-25 00:41:46.62	137.84	16.58	-43.5	-44.6	26.4	6.02e-01	0	43	0	451936256	58	4133
2026-01-25 00:41:47.63	138.02	16.49	-43.5	-44.6	26.4	6.01e-01	0	43	0	453509120	58	4130
2026-01-25 00:41:48.63	138.20	16.40	-43.5	-44.7	26.3	6.02e-01	0	43	0	455606272	58	4159
2026-01-25 00:41:49.64	138.38	16.31	-43.4	-44.6	26.4	6.03e-01	0	43	0	457703424	58	4101
2026-01-25 00:41:50.65	138.56	16.21	-43.5	-44.6	26.4	6.02e-01	0	43	0	459276288	58	4144
2026-01-25 00:41:51.66	138.74	16.12	-43.6	-44.8	26.3	6.03e-01	0	43	0	461373440	58	4194
2026-01-25 00:41:52.67	138.92	16.03	-43.7	-44.9	26.2	6.03e-01	0	43	0	462946304	58	4247
2026-01-25 00:41:53.67	139.10	15.94	-43.7	-44.9	26.1	6.01e-01	0	43	0	465043456	58	4247
2026-01-25 00:41:54.68	139.27	15.85	-43.5	-44.7	26.3	6.02e-01	0	43	0	467140608	58	4146
2026-01-25 00:41:55.69	139.45	15.77	-43.6	-44.7	26.3	6.03e-01	0	43	0	468713472	58	4166
2026-01-25 00:41:56.70	139.62	15.68	-43.5	-44.6	26.4	5.98e-01	0	43	0	470810624	58	4141
2026-01-25 00:41:57.70	139.79	15.59	-43.5	-44.6	26.4	5.99e-01	0	43	0	472907776	58	4138
2026-01-25 00:41:58.71	139.97	15.50	-43.4	-44.5	26.5	6.02e-01	0	43	0	474480640	58	4086
2026-01-25 00:41:59.72	140.14	15.41	-43.4	-44.5	26.5	6.01e-01	0	43	0	476577792	58	4088
2026-01-25 00:42:00.73	140.31	15.32	-43.4	-44.5	26.4	6.01e-01	0	43	0	478150656	58	4096
2026-01-25 00:42:01.73	140.47	15.23	-43.5	-44.7	26.3	6.02e-01	0	43	0	480247808	58	4158
2026-01-25 00:42:02.74	140.64	15.14	-43.5	-44.7	26.3	6.01e-01	0	43	0	481820672	58	4149
2026-01-25 00:42:03.75	140.81	15.05	-43.6	-44.8	26.2	6.02e-01	0	43	0	483917824	58	4197
2026-01-25 00:42:04.76	140.98	14.96	-43.6	-44.8	26.2	6.00e-01	0	43	0	486014976	58	4204
2026-01-25 00:42:05.76	141.14	14.88	-43.6	-44.8	26.2	6.01e-01	0	43	0	487587840	58	4210
2026-01-25 00:42:06.77	141.30	14.79	-43.6	-44.8	26.1	6.03e-01	0	43	0	489684992	58	4221
2026-01-25 00:42:07.78	141.46	14.70	-43.7	-44.8	26.1	6.02e-01	0	44	0	491782144	58	4227
2026-01-25 00:42:08.79	141.63	14.61	-43.7	-44.8	26.1	6.00e-01	0	43	0	493355008	58	4231
2026-01-25 00:42:09.80	141.79	14.52	-43.5	-44.7	26.2	6.01e-01	0	43	0	495452160	58	4164
2026-01-25 00:42:10.80	141.95	14.44	-43.5	-44.6	26.3	6.01e-01	0	43	0	497025024	58	4134
2026-01-25 00:42:11.81	142.10	14.35	-43.5	-44.6	26.3	6.00e-01	0	43	0	499122176	58	4135
2026-01-25 00:42:12.81	142.26	14.26	-43.5	-44.6	26.3	6.01e-01	0	43	0	501219328	58	4139
2026-01-25 00:42:13.82	142.42	14.18	-43.5	-44.7	26.3	6.02e-01	0	43	0	502792192	58	4152
2026-01-25 00:42:14.83	142.57	14.09	-43.6	-44.7	26.2	6.01e-01	0	44	0	504889344	58	4184
2026-01-25 00:42:15.84	142.73	14.00	-43.5	-44.7	26.2	6.02e-01	0	43	0	506462208	58	4162
2026-01-25 00:42:16.85	142.88	13.92	-43.7	-44.8	26.2	5.99e-01	0	43	0	508559360	58	4222
2026-01-25 00:42:17.86	143.04	13.83	-43.7	-44.9	26.1	6.00e-01	0	43	0	510132224	58	4247
2026-01-25 00:42:18.86	143.19	13.74	-43.7	-44.9	26.1	6.01e-01	0	43	0	512229376	58	4247
2026-01-25 00:42:19.87	143.34	13.66	-43.7	-44.9	26.1	6.04e-01	0	43	0	514326528	58	4257
2026-01-25 00:42:20.88	143.49	13.57	-43.9	-45.1	26.0	6.00e-01	0	43	0	516423680	58	4352
2026-01-25 00:42:21.88	143.64	13.49	-44.0	-45.1	25.8	6.04e-01	0	43	0	517996544	58	4391
2026-01-25 00:42:22.89	143.78	13.40	-44.0	-45.1	25.8	6.03e-01	0	43	0	520093696	58	4389
2026-01-25 00:42:23.90	143.93	13.31	-43.9	-45.1	25.8	6.02e-01	0	43	0	521666560	58	4362
2026-01-25 00:42:24.90	144.08	13.23	-43.9	-45.0	25.9	6.02e-01	0	43	0	523763712	58	4335
2026-01-25 00:42:25.91	144.22	13.14	-43.8	-44.9	25.9	6.00e-01	0	43	0	525336576	58	4285
2026-01-25 00:42:26.91	144.37	13.06	-43.8	-45.0	25.8	6.01e-01	0	43	0	527433728	58	4332
2026-01-25 00:42:27.92	144.51	12.98	-43.8	-44.9	26.0	6.03e-01	0	43	0	529530880	58	4287
2026-01-25 00:42:28.93	144.66	12.89	-43.7	-44.9	25.9	6.03e-01	0	43	0	531103744	58	4261
2026-01-25 00:42:29.94	144.80	12.81	-43.8	-45.0	25.9	6.02e-01	0	43	0	533200896	58	4306
2026-01-25 00:42:30.95	144.94	12.72	-43.7	-44.8	26.0	6.00e-01	0	43	0	534773760	58	4241
2026-01-25 00:42:31.96	145.08	12.64	-43.7	-44.8	26.0	6.01e-01	0	43	0	536870912	58	4227
2026-01-25 00:42:32.96	145.22	12.55	-43.7	-44.8	26.0	6.01e-01	0	43	0	538443776	58	4240
2026-01-25 00:42:33.97	145.36	12.47	-43.7	-44.9	26.0	6.02e-01	0	43	0	540540928	58	4250
2026-01-25 00:42:34.98	145.50	12.39	-43.8	-44.9	25.9	6.00e-01	0	43	0	542638080	58	4274
2026-01-25 00:42:35.98	145.63	12.30	-43.8	-44.9	25.9	6.01e-01	0	43	0	544735232	58	4281
2026-01-25 00:42:36.99	145.77	12.22	-43.9	-45.0	25.8	6.01e-01	0	43	0	546308096	58	4333
2026-01-25 00:42:38.00	145.91	12.14	-43.9	-45.0	25.9	6.00e-01	0	43	0	548405248	58	4336
2026-01-25 00:42:39.01	146.04	12.05	-44.0	-45.2	25.7	6.00e-01	0	43	0	549978112	58	4414
2026-01-25 00:42:40.01	146.17	11.97	-44.0	-45.2	25.7	6.00e-01	0	43	0	552075264	58	4434
2026-01-25 00:42:41.02	146.31	11.89	-44.0	-45.2	25.7	6.00e-01	0	43	0	553648128	58	4424
2026-01-25 00:42:42.03	146.44	11.81	-44.1	-45.3	25.6	6.01e-01	0	43	0	555745280	58	4462
2026-01-25 00:42:43.03	146.57	11.73	-44.1	-45.3	25.5	6.01e-01	0	43	0	557842432	58	4493
2026-01-25 00:42:44.04	146.70	11.64	-44.1	-45.3	25.6	6.01e-01	0	43	0	559415296	58	4464
2026-01-25 00:42:45.05	146.83	11.56	-44.1	-45.3	25.5	6.03e-01	0	43	0	561512448	58	4485
2026-01-25 00:42:46.06	146.96	11.48	-44.2	-45.4	25.5	6.00e-01	0	43	0	563085312	58	4509
2026-01-25 00:42:47.07	147.09	11.40	-44.3	-45.6	25.4	6.00e-01	0	43	0	565182464	59	4356
2026-01-25 00:42:48.08	147.22	11.32	-44.2	-45.4	25.5	6.02e-01	0	43	0	566755328	59	4251
2026-01-25 00:42:49.08	147.35	11.24	-44.0	-45.2	25.7	6.00e-01	0	43	0	568852480	59	4192
2026-01-25 00:42:50.09	147.47	11.16	-44.2	-45.4	25.5	6.02e-01	0	43	0	570949632	59	4252
2026-01-25 00:42:51.10	147.60	11.08	-44.0	-45.2	25.6	6.03e-01	0	43	0	573046784	59	4164
2026-01-25 00:42:52.11	147.73	10.99	-44.1	-45.2	25.6	6.01e-01	0	43	0	574619648	59	4191
2026-01-25 00:42:53.12	147.85	10.91	-44.1	-45.3	25.6	6.02e-01	0	43	0	576716800	59	4207
2026-01-25 00:42:54.12	147.97	10.83	-44.2	-45.4	25.4	6.04e-01	0	43	0	578289664	59	4281
2026-01-25 00:42:55.13	148.10	10.75	-44.1	-45.3	25.6	6.00e-01	0	43	0	580386816	59	4214
2026-01-25 00:42:56.14	148.22	10.67	-44.1	-45.3	25.6	6.03e-01	0	43	0	581959680	59	4223
2026-01-25 00:42:57.15	148.34	10.59	-44.2	-45.5	25.4	6.01e-01	0	44	0	584056832	59	4299
2026-01-25 00:42:58.15	148.46	10.52	-44.2	-45.4	25.4	6.02e-01	0	43	0	586153984	59	4276
2026-01-25 00:42:59.16	148.58	10.44	-44.2	-45.5	25.4	6.00e-01	0	43	0	587726848	59	4296
2026-01-25 00:43:00.17	148.70	10.36	-44.3	-45.5	25.4	6.02e-01	0	43	0	589824000	59	4304
2026-01-25 00:43:01.18	148.82	10.28	-44.3	-45.5	25.4	6.01e-01	0	43	0	591396864	59	4337
2026-01-25 00:43:02.18	148.94	10.20	-44.4	-45.7	25.2	6.03e-01	0	43	0	593494016	59	4414
2026-01-25 00:43:03.19	149.06	10.12	-44.4	-45.7	25.2	6.01e-01	0	43	0	595591168	59	4395
2026-01-25 00:43:04.20	149.17	10.04	-44.5	-45.8	25.1	5.98e-01	0	43	0	597164032	59	4451
2026-01-25 00:43:05.20	149.29	9.97	-44.4	-45.6	25.2	6.01e-01	0	43	0	599261184	59	4379
2026-01-25 00:43:06.21	149.40	9.89	-44.5	-45.7	25.1	6.00e-01	0	43	0	601358336	59	4426
2026-01-25 00:43:07.22	149.52	9.81	-44.5	-45.8	25.1	6.00e-01	0	43	0	602931200	59	4444
2026-01-25 00:43:08.23	149.63	9.73	-44.5	-45.8	25.1	6.00e-01	0	43	0	605028352	59	4444
2026-01-25 00:43:09.23	149.75	9.66	-44.5	-45.7	25.1	6.02e-01	0	43	0	606601216	59	4434
2026-01-25 00:43:10.24	149.86	9.58	-44.5	-45.7	25.2	6.02e-01	0	43	0	608698368	59	4430
2026-01-25 00:43:11.25	149.97	9.50	-44.4	-45.7	25.1	6.00e-01	0	43	0	610271232	59	4400
2026-01-25 00:43:12.26	150.09	9.42	-44.5	-45.8	25.0	6.03e-01	0	43	0	612368384	59	4478
2026-01-25 00:43:13.26	150.20	9.35	-44.5	-45.8	25.0	5.99e-01	0	43	0	614465536	59	4470
2026-01-25 00:43:14.28	150.31	9.27	-44.6	-45.9	24.9	5.98e-01	0	43	0	616038400	59	4528
2026-01-25 00:43:15.28	150.42	9.19	-44.6	-45.9	24.9	5.99e-01	0	43	0	618135552	59	4504
2026-01-25 00:43:16.29	150.53	9.12	-44.7	-46.0	24.8	6.01e-01	0	43	0	620232704	59	4570
2026-01-25 00:43:17.30	150.64	9.04	-44.8	-46.1	24.8	6.02e-01	0	43	0	621805568	60	4347
2026-01-25 00:43:18.31	150.75	8.97	-44.6	-45.9	25.0	5.99e-01	0	43	0	623902720	60	4254
2026-01-25 00:43:19.31	150.85	8.89	-44.6	-45.9	24.9	6.00e-01	0	43	0	625475584	60	4290
2026-01-25 00:43:20.32	150.96	8.81	-44.7	-46.0	24.9	6.01e-01	0	43	0	627572736	60	4297
2026-01-25 00:43:21.33	151.07	8.74	-44.7	-46.0	24.9	6.02e-01	0	43	0	629669888	60	4314
2026-01-25 00:43:22.33	151.17	8.66	-44.7	-46.0	24.8	6.00e-01	0	43	0	631242752	60	4322
2026-01-25 00:43:23.34	151.28	8.59	-44.7	-46.0	24.8	6.01e-01	0	43	0	633339904	60	4338
2026-01-25 00:43:24.35	151.38	8.51	-44.7	-46.0	24.8	6.01e-01	0	43	0	634912768	60	4339
2026-01-25 00:43:25.36	151.49	8.44	-44.7	-46.0	24.8	6.03e-01	0	43	0	637009920	60	4299
2026-01-25 00:43:26.36	151.59	8.37	-44.8	-46.1	24.7	6.02e-01	0	43	0	638582784	60	4368
2026-01-25 00:43:27.37	151.69	8.29	-44.8	-46.1	24.7	6.03e-01	0	43	0	640679936	60	4366
2026-01-25 00:43:28.38	151.80	8.22	-44.9	-46.3	24.5	6.02e-01	0	43	0	642777088	60	4446
2026-01-25 00:43:29.39	151.90	8.14	-44.8	-46.1	24.7	5.98e-01	0	43	0	644874240	60	4355
2026-01-25 00:43:30.39	152.00	8.07	-44.7	-46.1	24.7	6.00e-01	0	43	0	646447104	60	4342
2026-01-25 00:43:31.40	152.10	8.00	-44.8	-46.1	24.6	6.03e-01	0	43	0	648544256	60	4376
2026-01-25 00:43:32.41	152.20	7.92	-44.7	-46.0	24.7	6.00e-01	0	43	0	650117120	60	4304
2026-01-25 00:43:33.42	152.30	7.85	-44.8	-46.1	24.7	6.04e-01	0	43	0	652214272	60	4356
2026-01-25 00:43:34.43	152.40	7.78	-44.8	-46.2	24.6	6.00e-01	0	43	0	653787136	60	4403
2026-01-25 00:43:35.43	152.50	7.70	-44.7	-46.0	24.7	5.98e-01	0	43	0	655884288	60	4322
2026-01-25 00:43:36.44	152.60	7.63	-44.8	-46.1	24.6	6.00e-01	0	43	0	657981440	60	4357
2026-01-25 00:43:37.45	152.70	7.56	-44.9	-46.3	24.4	6.00e-01	0	43	0	659554304	60	4449
2026-01-25 00:43:38.46	152.79	7.49	-44.9	-46.2	24.5	6.05e-01	0	43	0	661651456	60	4428
2026-01-25 00:43:39.47	152.89	7.41	-45.0	-46.3	24.4	6.01e-01	0	43	0	663224320	60	4487
2026-01-25 00:43:40.48	152.99	7.34	-44.9	-46.3	24.5	6.01e-01	0	43	0	665321472	60	4453
2026-01-25 00:43:41.48	153.08	7.27	-45.0	-46.3	24.4	6.00e-01	0	43	0	667418624	60	4473
2026-01-25 00:43:42.49	153.18	7.20	-45.1	-46.4	24.3	6.03e-01	0	43	0	668991488	60	4539
2026-01-25 00:43:43.50	153.27	7.13	-45.0	-46.3	24.4	6.02e-01	0	43	0	671088640	60	4485
2026-01-25 00:43:44.51	153.37	7.05	-44.9	-46.3	24.4	6.04e-01	0	43	0	673185792	60	4463
2026-01-25 00:43:45.52	153.46	6.98	-45.0	-46.3	24.4	6.00e-01	0	43	0	674758656	60	4474
2026-01-25 00:43:46.52	153.56	6.91	-44.9	-46.3	24.4	6.03e-01	0	43	0	676855808	60	4462
2026-01-25 00:43:47.53	153.65	6.84	-45.0	-46.4	24.3	6.01e-01	0	43	0	678428672	60	4521
2026-01-25 00:43:48.54	153.74	6.77	-45.2	-46.6	24.1	6.01e-01	0	43	0	680525824	60	4631
2026-01-25 00:43:49.55	153.84	6.70	-45.4	-46.8	23.9	6.03e-01	0	43	0	682098688	61	4469
2026-01-25 00:43:50.55	153.93	6.63	-45.2	-46.6	24.1	6.03e-01	0	43	0	684195840	61	4372
2026-01-25 00:43:51.56	154.02	6.56	-45.2	-46.5	24.1	6.01e-01	0	43	0	686292992	61	4336
2026-01-25 00:43:52.57	154.11	6.49	-45.1	-46.5	24.2	6.00e-01	0	43	0	687865856	61	4307
2026-01-25 00:43:53.57	154.20	6.42	-45.3	-46.7	23.9	6.02e-01	0	43	0	689963008	61	4407
2026-01-25 00:43:54.58	154.29	6.35	-45.3	-46.7	24.0	6.04e-01	0	43	0	692060160	61	4398
2026-01-25 00:43:55.59	154.38	6.28	-45.2	-46.6	24.1	6.02e-01	0	43	0	693633024	61	4341
2026-01-25 00:43:56.59	154.47	6.21	-45.2	-46.6	24.0	6.05e-01	0	43	0	695730176	61	4380
2026-01-25 00:43:57.60	154.56	6.14	-45.2	-46.7	24.0	6.03e-01	0	43	0	697303040	61	4395
2026-01-25 00:43:58.61	154.64	6.07	-45.5	-46.9	23.7	6.01e-01	0	43	0	699400192	61	4521
2026-01-25 00:43:59.62	154.73	6.00	-45.5	-47.0	23.6	6.01e-01	0	43	0	701497344	61	4567
2026-01-25 00:44:00.62	154.82	5.93	-45.4	-46.9	23.7	6.02e-01	0	43	0	703070208	61	4497
2026-01-25 00:44:01.63	154.90	5.86	-45.4	-46.9	23.7	6.01e-01	0	43	0	705167360	61	4525
2026-01-25 00:44:02.64	154.99	5.80	-45.5	-47.0	23.6	6.06e-01	0	43	0	706740224	61	4578
2026-01-25 00:44:03.65	155.08	5.73	-45.5	-47.0	23.6	6.02e-01	0	43	0	708837376	61	4578
2026-01-25 00:44:04.66	155.16	5.66	-45.7	-47.2	23.4	6.01e-01	0	43	0	710410240	61	4682
2026-01-25 00:44:05.66	155.25	5.59	-45.6	-47.1	23.4	6.01e-01	0	43	0	712507392	61	4629
2026-01-25 00:44:06.67	155.33	5.52	-45.7	-47.2	23.4	6.02e-01	0	43	0	714604544	62	4412
2026-01-25 00:44:07.68	155.42	5.45	-45.6	-47.1	23.5	6.01e-01	0	43	0	716177408	62	4361
2026-01-25 00:44:08.69	155.50	5.39	-45.6	-47.1	23.4	6.02e-01	0	43	0	718274560	62	4352
2026-01-25 00:44:09.69	155.58	5.32	-45.7	-47.2	23.3	6.06e-01	0	43	0	720371712	62	4441
2026-01-25 00:44:10.70	155.67	5.25	-45.6	-47.2	23.3	6.03e-01	0	43	0	721944576	62	4398
2026-01-25 00:44:11.71	155.75	5.19	-45.9	-47.4	23.1	5.99e-01	0	43	0	724041728	62	4520
2026-01-25 00:44:12.72	155.83	5.12	-45.8	-47.3	23.1	6.01e-01	0	43	0	725614592	62	4479
2026-01-25 00:44:13.73	155.92	5.05	-45.5	-47.0	23.4	6.02e-01	0	43	0	727711744	62	4334
2026-01-25 00:44:14.74	156.00	4.98	-52.1	-58.0	14.8	6.03e-01	0	43	0	729808896	74	7632
2026-01-25 00:44:15.74	156.08	4.92	-54.1	-72.0	3.8	7.44e-01	0	43	104	729808896	78	30399
2026-01-25 00:44:16.75	156.16	4.85	-54.5	-72.3	3.8	7.45e-01	0	43	104	729808896	79	29844
2026-01-25 00:44:17.76	156.24	4.78	-54.7	-72.5	3.8	7.46e-01	0	44	104	729808896	79	30588
2026-01-25 00:44:18.77	156.32	4.72	-54.8	-72.6	3.8	7.45e-01	0	43	104	729808896	80	29113
2026-01-25 00:44:19.78	156.40	4.65	-54.9	-72.7	3.8	7.40e-01	0	44	104	729808896	80	29501
2026-01-25 00:44:20.79	156.48	4.59	-55.0	-72.8	3.8	7.44e-01	0	44	104	729808896	80	29862
2026-01-25 00:44:21.80	156.56	4.52	-55.1	-72.9	3.8	7.43e-01	0	43	104	729808896	80	30133
2026-01-25 00:44:22.80	156.64	4.45	-55.2	-73.0	3.8	7.44e-01	0	44	104	729808896	80	30394
2026-01-25 00:44:23.81	156.71	4.39	-55.3	-73.1	3.8	7.43e-01	0	43	104	729808896	81	29051
2026-01-25 00:44:24.82	156.79	4.32	-55.3	-73.1	3.8	7.45e-01	0	43	104	729808896	81	29261
2026-01-25 00:44:25.83	156.87	4.26	-55.3	-73.1	3.8	7.47e-01	0	43	104	729808896	81	29347
2026-01-25 00:44:26.83	156.95	4.19	-55.4	-73.2	3.8	7.45e-01	0	43	104	729808896	81	29553
2026-01-25 00:44:27.84	157.02	4.13	-55.4	-73.3	3.8	7.46e-01	0	44	104	729808896	81	29717
2026-01-25 00:44:28.85	157.10	4.06	-55.5	-73.3	3.8	7.43e-01	0	44	104	729808896	81	30022
2026-01-25 00:44:29.86	157.18	4.00	-55.5	-73.3	3.8	7.46e-01	0	43	104	729808896	81	30020
2026-01-25 00:44:30.87	157.25	3.93	-55.5	-73.3	3.8	7.47e-01	0	44	104	729808896	81	30030
2026-01-25 00:44:31.88	157.33	3.87	-55.5	-73.4	3.8	7.43e-01	0	43	104	729808896	81	30058
2026-01-25 00:44:32.88	157.40	3.80	-55.5	-73.3	3.8	7.43e-01	0	43	104	729808896	81	29978
2026-01-25 00:44:33.89	157.48	3.74	-55.5	-73.3	3.8	7.45e-01	0	43	104	729808896	81	29843
2026-01-25 00:44:34.90	157.55	3.68	-55.4	-73.3	3.8	7.48e-01	0	44	104	729808896	81	29825
2026-01-25 00:44:35.90	157.62	3.61	-55.5	-73.3	3.8	7.46e-01	0	43	104	729808896	81	29822
2026-01-25 00:44:36.91	157.70	3.55	-55.4	-73.3	3.8	7.43e-01	0	43	104	729808896	81	29746
2026-01-25 00:44:37.92	157.77	3.48	-55.4	-73.2	3.8	7.44e-01	0	43	104	729808896	81	29573
2026-01-25 00:44:38.93	157.84	3.42	-55.4	-73.2	3.8	7.44e-01	0	44	104	729808896	81	29664
2026-01-25 00:44:39.94	157.92	3.36	-55.4	-73.2	3.8	7.44e-01	0	43	104	729808896	81	29582
2026-01-25 00:44:40.94	157.99	3.29	-55.4	-73.2	3.8	7.47e-01	0	44	104	729808896	81	29534
2026-01-25 00:44:41.95	158.06	3.23	-55.4	-73.2	3.8	7.43e-01	0	43	104	729808896	81	29502
2026-01-25 00:44:42.96	158.13	3.17	-55.3	-73.2	3.8	7.45e-01	0	43	104	729808896	81	29439
2026-01-25 00:44:43.97	158.21	3.10	-55.3	-73.2	3.8	7.44e-01	0	44	104	729808896	81	29463
2026-01-25 00:44:44.98	158.28	3.04	-55.3	-73.2	3.8	7.45e-01	0	44	104	729808896	81	29428
2026-01-25 00:44:45.98	158.35	2.98	-55.3	-73.2	3.8	7.46e-01	0	44	104	729808896	81	29398
2026-01-25 00:44:46.99	158.42	2.92	-55.3	-73.1	3.8	7.46e-01	0	44	104	729808896	81	29322
2026-01-25 00:44:48.00	158.49	2.85	-55.3	-73.2	3.8	7.44e-01	0	44	104	729808896	81	29349
2026-01-25 00:44:49.01	158.56	2.79	-55.3	-73.1	3.8	7.43e-01	0	44	104	729808896	81	29322
2026-01-25 00:44:50.02	158.63	2.73	-55.3	-73.2	3.8	7.48e-01	0	43	104	729808896	81	29377
2026-01-25 00:44:51.02	158.70	2.67	-55.3	-73.1	3.8	7.45e-01	0	44	104	729808896	81	29346
2026-01-25 00:44:52.03	158.76	2.61	-55.3	-73.1	3.8	7.48e-01	0	44	104	729808896	81	29298
2026-01-25 00:44:53.04	158.83	2.54	-55.3	-73.1	3.8	7.48e-01	0	44	104	729808896	81	29328
2026-01-25 00:44:54.05	158.90	2.48	-55.3	-73.1	3.8	7.45e-01	0	44	104	729808896	81	29272
2026-01-25 00:44:55.06	158.97	2.42	-55.3	-73.1	3.8	7.46e-01	0	44	104	729808896	81	29302
2026-01-25 00:44:56.06	159.04	2.36	-55.3	-73.1	3.8	7.44e-01	0	43	104	729808896	81	29292
2026-01-25 00:44:57.07	159.11	2.30	-55.3	-73.1	3.8	7.46e-01	0	44	104	729808896	81	29279
2026-01-25 00:44:58.08	159.17	2.24	-55.3	-73.1	3.8	7.44e-01	0	44	104	729808896	81	29238
