passes_logs/2026/01/25/R3.2S_Murmansk/R3.2S_Murmansk__20260125_052517_AQUA_rec.log

#Pass ID: 20260125_052517_AQUA
#Satellite: AQUA
#Configuration: AQUA
#almurnet v.1.7.20251203
#Start time: 2026-01-25 05:25:19

#Version: 2.2.20231116
#Station: R3.2S_Murmansk
#Location: 33.079688 lon 68.888172 lat
#TLE: 1 27424U 02022A   26024.53919639  .00001970  00000+0  40397-3 0  9996
#TLE: 2 27424  98.4098 351.1277 0001915  66.8561 358.4840 14.61855303262281

#Time	Az	El	Level	Level2	SNR	BER	BlckErr	Temp	State	Recorded	gain1	gain2
2026-01-25 05:25:19.30	40.22	2.13	-53.7	-71.5	3.8	7.46e-01	0	42	0	0	79	27125
2026-01-25 05:25:20.31	40.15	2.19	-53.6	-71.1	3.8	7.47e-01	0	42	104	0	77	29317
2026-01-25 05:25:21.31	40.08	2.25	-53.6	-71.0	3.8	7.46e-01	0	42	104	0	77	28941
2026-01-25 05:25:22.32	40.00	2.31	-53.6	-71.1	3.8	7.45e-01	0	42	104	0	77	29051
2026-01-25 05:25:23.33	39.93	2.37	-53.7	-71.1	3.8	7.44e-01	0	42	104	0	77	29059
2026-01-25 05:25:24.34	39.86	2.43	-53.6	-71.0	3.8	7.43e-01	0	42	104	0	77	28758
2026-01-25 05:25:25.35	39.78	2.49	-53.6	-71.1	3.8	7.45e-01	0	42	104	0	77	29061
2026-01-25 05:25:26.36	39.71	2.55	-53.6	-71.2	3.8	7.44e-01	0	42	104	0	77	29528
2026-01-25 05:25:27.37	39.63	2.61	-53.7	-71.2	3.8	7.44e-01	0	42	104	0	77	29646
2026-01-25 05:25:28.37	39.56	2.67	-53.7	-71.3	3.8	7.49e-01	0	42	104	0	77	29742
2026-01-25 05:25:29.38	39.48	2.73	-53.6	-71.1	3.8	7.47e-01	0	42	104	0	77	29345
2026-01-25 05:25:30.39	39.41	2.79	-53.6	-71.1	3.8	7.43e-01	0	42	104	0	77	29019
2026-01-25 05:25:31.40	39.33	2.85	-53.6	-70.9	3.8	7.46e-01	0	42	104	0	77	28628
2026-01-25 05:25:32.41	39.25	2.91	-53.6	-70.9	3.8	7.44e-01	0	42	104	0	77	28420
2026-01-25 05:25:33.41	39.18	2.97	-53.6	-70.8	3.8	7.46e-01	0	42	104	0	77	28232
2026-01-25 05:25:34.42	39.10	3.03	-53.6	-70.7	3.8	7.43e-01	0	42	104	0	77	27875
2026-01-25 05:25:35.43	39.02	3.09	-53.6	-70.8	3.8	7.47e-01	0	42	104	0	77	28044
2026-01-25 05:25:36.44	38.94	3.15	-53.6	-70.8	3.8	7.47e-01	0	43	104	0	77	28109
2026-01-25 05:25:37.45	38.86	3.21	-53.6	-70.9	3.8	7.42e-01	0	42	104	0	77	28461
2026-01-25 05:25:38.45	38.79	3.27	-53.6	-71.1	3.8	7.47e-01	0	42	104	0	77	29241
2026-01-25 05:25:39.46	38.71	3.33	-53.7	-71.1	3.8	7.44e-01	0	43	104	0	77	29313
2026-01-25 05:25:40.47	38.63	3.40	-53.6	-71.0	3.8	7.45e-01	0	43	104	0	77	28955
2026-01-25 05:25:41.48	38.55	3.46	-53.6	-70.9	3.8	7.46e-01	0	43	104	0	77	28445
2026-01-25 05:25:42.49	38.47	3.52	-53.6	-70.5	3.8	7.42e-01	0	43	104	0	77	27277
2026-01-25 05:25:43.49	38.39	3.58	-53.6	-70.5	3.8	7.45e-01	0	43	104	0	77	27354
2026-01-25 05:25:44.50	38.30	3.64	-53.6	-70.5	3.8	7.45e-01	0	43	104	0	77	27247
2026-01-25 05:25:45.51	38.22	3.70	-53.6	-70.7	3.8	7.41e-01	0	43	104	0	77	27948
2026-01-25 05:25:46.52	38.14	3.77	-53.6	-70.8	3.8	7.44e-01	0	43	104	0	77	28271
2026-01-25 05:25:47.53	38.06	3.83	-53.6	-70.9	3.8	7.43e-01	0	43	104	0	77	28427
2026-01-25 05:25:48.53	37.98	3.89	-53.6	-70.8	3.8	7.44e-01	0	43	104	0	77	28215
2026-01-25 05:25:49.54	37.89	3.95	-53.6	-70.9	3.8	7.44e-01	0	43	104	0	77	28433
2026-01-25 05:25:50.55	37.81	4.01	-53.6	-71.0	3.8	7.47e-01	0	43	104	0	77	28786
2026-01-25 05:25:51.56	37.73	4.08	-53.6	-71.1	3.8	7.47e-01	0	43	104	0	77	29270
2026-01-25 05:25:52.57	37.64	4.14	-53.6	-71.0	3.8	7.45e-01	0	43	104	0	77	28885
2026-01-25 05:25:53.58	37.56	4.20	-53.6	-69.6	3.9	7.47e-01	0	43	104	0	77	24636
2026-01-25 05:25:54.59	37.47	4.26	-53.5	-67.6	4.2	7.32e-01	0	43	104	0	77	19608
2026-01-25 05:25:55.59	37.39	4.33	-53.4	-65.7	5.1	7.07e-01	3	43	0	0	77	15640
2026-01-25 05:25:56.60	37.30	4.39	-53.3	-64.5	5.9	6.89e-01	118	43	0	524288	77	13685
2026-01-25 05:25:57.61	37.21	4.45	-53.3	-63.8	6.5	6.75e-01	183	43	0	2621440	77	12531
2026-01-25 05:25:58.62	37.13	4.52	-53.3	-64.0	6.3	6.75e-01	182	43	0	4194304	77	12905
2026-01-25 05:25:59.63	37.04	4.58	-53.3	-63.8	6.4	6.74e-01	183	43	0	6291456	77	12610
2026-01-25 05:26:00.64	36.95	4.64	-53.3	-64.3	6.0	6.82e-01	107	43	0	7864320	77	13389
2026-01-25 05:26:01.65	36.86	4.71	-53.3	-64.0	6.2	6.78e-01	183	43	0	9437184	77	12869
2026-01-25 05:26:02.65	36.77	4.77	-53.1	-62.4	7.6	6.54e-01	181	43	0	11534336	77	10765
2026-01-25 05:26:03.66	36.69	4.83	-52.7	-60.0	10.1	6.19e-01	0	43	0	13107200	77	8121
2026-01-25 05:26:04.67	36.60	4.90	-52.3	-58.6	11.7	6.10e-01	0	43	0	15204352	76	7289
2026-01-25 05:26:05.68	36.51	4.96	-51.8	-57.1	13.0	6.05e-01	0	43	0	16777216	75	6522
2026-01-25 05:26:06.69	36.42	5.03	-51.6	-56.5	13.6	6.04e-01	0	43	0	18874368	75	6097
2026-01-25 05:26:07.70	36.32	5.09	-51.5	-56.2	13.9	6.03e-01	0	43	0	20971520	75	5896
2026-01-25 05:26:08.71	36.23	5.16	-47.2	-49.0	21.1	6.01e-01	0	43	0	23068672	66	4318
2026-01-25 05:26:09.72	36.14	5.22	-53.5	-67.5	4.5	7.32e-01	51	43	0	24641536	77	19318
2026-01-25 05:26:10.73	36.05	5.28	-50.6	-54.0	15.8	6.01e-01	0	43	0	24641536	73	5146
2026-01-25 05:26:11.73	35.96	5.35	-46.8	-48.4	22.1	6.02e-01	0	43	0	26738688	65	4285
2026-01-25 05:26:12.74	35.86	5.41	-46.8	-48.5	22.0	6.02e-01	0	43	0	28835840	65	4311
2026-01-25 05:26:13.75	35.77	5.48	-46.4	-48.0	22.6	6.01e-01	0	43	0	30408704	64	4299
2026-01-25 05:26:14.76	35.68	5.54	-46.0	-47.5	23.2	6.02e-01	0	43	0	32505856	63	4307
2026-01-25 05:26:15.77	35.58	5.61	-46.1	-47.6	23.1	6.01e-01	0	43	0	34078720	63	4372
2026-01-25 05:26:16.78	35.49	5.67	-45.6	-47.0	23.7	6.01e-01	0	43	0	36175872	63	4097
2026-01-25 05:26:17.79	35.39	5.74	-45.7	-47.1	23.7	6.01e-01	0	43	0	37748736	63	4127
2026-01-25 05:26:18.79	35.29	5.80	-45.8	-47.2	23.6	6.03e-01	0	43	0	39845888	63	4184
2026-01-25 05:26:19.80	35.20	5.87	-45.8	-47.2	23.6	6.03e-01	0	43	0	41943040	63	4189
2026-01-25 05:26:20.81	35.10	5.93	-45.7	-47.1	23.7	6.04e-01	0	43	0	43515904	63	4134
2026-01-25 05:26:21.82	35.00	6.00	-45.5	-46.9	23.9	6.04e-01	0	43	0	45613056	62	4277
2026-01-25 05:26:22.83	34.91	6.07	-45.5	-46.9	23.9	6.03e-01	0	43	0	47710208	62	4278
2026-01-25 05:26:23.84	34.81	6.13	-45.6	-47.0	23.8	6.03e-01	0	43	0	49283072	62	4310
2026-01-25 05:26:24.85	34.71	6.20	-45.6	-47.1	23.7	6.01e-01	0	43	0	51380224	62	4348
2026-01-25 05:26:25.85	34.61	6.26	-45.6	-47.0	23.8	6.03e-01	0	43	0	52953088	62	4322
2026-01-25 05:26:26.86	34.51	6.33	-45.4	-46.8	24.0	6.02e-01	0	43	0	55050240	62	4242
2026-01-25 05:26:27.87	34.41	6.40	-45.6	-47.0	23.9	6.02e-01	0	43	0	57147392	62	4307
2026-01-25 05:26:28.88	34.31	6.46	-45.5	-47.0	23.9	5.99e-01	0	43	0	58720256	62	4294
2026-01-25 05:26:29.89	34.21	6.53	-45.7	-47.1	23.8	6.03e-01	0	43	0	60817408	62	4362
2026-01-25 05:26:30.89	34.10	6.60	-45.5	-46.9	23.9	6.03e-01	0	43	0	62390272	62	4284
2026-01-25 05:26:31.90	34.00	6.66	-45.3	-46.7	24.2	6.02e-01	0	43	0	64487424	62	4172
2026-01-25 05:26:32.91	33.90	6.73	-45.3	-46.7	24.2	6.01e-01	0	43	0	66584576	62	4165
2026-01-25 05:26:33.92	33.79	6.80	-45.4	-46.8	24.1	6.04e-01	0	43	0	68157440	62	4237
2026-01-25 05:26:34.93	33.69	6.86	-45.3	-46.7	24.2	6.00e-01	0	43	0	70254592	62	4162
2026-01-25 05:26:35.94	33.59	6.93	-45.6	-47.0	24.0	6.02e-01	0	43	0	71827456	62	4302
2026-01-25 05:26:36.95	33.48	7.00	-45.2	-46.6	24.3	6.01e-01	0	43	0	73924608	62	4104
2026-01-25 05:26:37.96	33.37	7.07	-45.0	-46.3	24.5	6.02e-01	0	43	0	76021760	62	3988
2026-01-25 05:26:38.97	33.27	7.13	-45.3	-46.6	24.3	6.04e-01	0	43	0	77594624	62	4144
2026-01-25 05:26:39.97	33.16	7.20	-45.3	-46.6	24.3	6.03e-01	0	43	0	79691776	62	4127
2026-01-25 05:26:40.98	33.05	7.27	-45.3	-46.7	24.3	6.02e-01	0	43	0	81264640	62	4156
2026-01-25 05:26:41.99	32.95	7.34	-45.2	-46.6	24.4	6.03e-01	0	43	0	83361792	62	4108
2026-01-25 05:26:43.00	32.84	7.41	-45.0	-46.3	24.6	6.04e-01	0	43	0	85458944	62	4002
2026-01-25 05:26:44.01	32.73	7.47	-45.1	-46.4	24.6	6.01e-01	0	43	0	87031808	62	4038
2026-01-25 05:26:45.02	32.62	7.54	-45.1	-46.5	24.6	6.02e-01	0	43	0	89128960	62	4056
2026-01-25 05:26:46.03	32.51	7.61	-45.0	-46.3	24.7	6.02e-01	0	43	0	91226112	62	4002
2026-01-25 05:26:47.04	32.40	7.68	-44.9	-46.2	24.8	6.01e-01	0	43	0	92798976	61	4149
2026-01-25 05:26:48.05	32.28	7.75	-44.8	-46.1	24.9	6.01e-01	0	44	0	94896128	61	4108
2026-01-25 05:26:49.05	32.17	7.82	-45.0	-46.3	24.8	6.03e-01	0	43	0	96468992	61	4205
2026-01-25 05:26:50.06	32.06	7.88	-45.1	-46.4	24.6	6.03e-01	0	43	0	98566144	61	4277
2026-01-25 05:26:51.07	31.95	7.95	-45.1	-46.4	24.6	6.03e-01	0	43	0	100139008	61	4259
2026-01-25 05:26:52.08	31.83	8.02	-44.9	-46.2	24.8	6.02e-01	0	43	0	102236160	61	4174
2026-01-25 05:26:53.09	31.72	8.09	-44.8	-46.1	24.9	6.02e-01	0	43	0	104333312	61	4136
2026-01-25 05:26:54.10	31.60	8.16	-44.9	-46.2	24.9	6.01e-01	0	43	0	105906176	61	4151
2026-01-25 05:26:55.11	31.49	8.23	-45.1	-46.4	24.6	6.04e-01	0	44	0	108003328	61	4282
2026-01-25 05:26:56.11	31.37	8.30	-45.0	-46.4	24.7	6.02e-01	0	43	0	110100480	61	4247
2026-01-25 05:26:57.12	31.25	8.37	-45.2	-46.5	24.5	6.03e-01	0	44	0	111673344	61	4337
2026-01-25 05:26:58.13	31.14	8.44	-44.9	-46.2	24.7	6.03e-01	0	43	0	113770496	61	4191
2026-01-25 05:26:59.14	31.02	8.51	-45.0	-46.3	24.7	6.00e-01	0	44	0	115343360	61	4240
2026-01-25 05:27:00.15	30.90	8.58	-45.0	-46.3	24.8	6.01e-01	0	43	0	117440512	61	4202
2026-01-25 05:27:01.16	30.78	8.65	-44.8	-46.1	24.9	6.02e-01	0	44	0	119537664	61	4136
2026-01-25 05:27:02.17	30.66	8.72	-44.9	-46.2	24.8	6.03e-01	0	43	0	121110528	61	4181
2026-01-25 05:27:03.18	30.54	8.79	-45.0	-46.3	24.9	6.02e-01	0	44	0	123207680	61	4202
2026-01-25 05:27:04.18	30.42	8.86	-44.9	-46.2	25.0	6.02e-01	0	43	0	124780544	61	4146
2026-01-25 05:27:05.19	30.29	8.93	-44.9	-46.2	24.8	6.01e-01	0	44	0	126877696	61	4185
2026-01-25 05:27:06.20	30.17	9.00	-45.0	-46.3	24.9	6.01e-01	0	44	0	128450560	61	4204
2026-01-25 05:27:07.21	30.05	9.07	-44.8	-46.1	25.0	6.02e-01	0	44	0	130547712	61	4126
2026-01-25 05:27:08.21	29.92	9.14	-44.8	-46.1	25.0	6.01e-01	0	43	0	132644864	61	4124
2026-01-25 05:27:09.22	29.80	9.21	-44.9	-46.2	24.8	6.01e-01	0	44	0	134742016	61	4173
2026-01-25 05:27:10.23	29.67	9.28	-44.9	-46.1	25.0	6.01e-01	0	44	0	136314880	61	4140
2026-01-25 05:27:11.24	29.55	9.35	-44.8	-46.1	25.0	6.04e-01	0	44	0	138412032	61	4103
2026-01-25 05:27:12.25	29.42	9.42	-44.7	-45.9	25.1	6.00e-01	0	43	0	139984896	61	4041
2026-01-25 05:27:13.25	29.29	9.49	-44.6	-45.9	25.1	6.02e-01	0	44	0	142082048	61	4013
2026-01-25 05:27:14.26	29.17	9.57	-44.7	-46.0	25.1	6.03e-01	0	43	0	143654912	61	4066
2026-01-25 05:27:15.27	29.04	9.64	-44.8	-46.0	25.1	6.03e-01	0	44	0	145752064	61	4082
2026-01-25 05:27:16.28	28.91	9.71	-44.7	-46.0	25.1	6.00e-01	0	44	0	147849216	61	4068
2026-01-25 05:27:17.29	28.78	9.78	-44.5	-45.8	25.2	6.02e-01	0	43	0	149422080	61	3977
2026-01-25 05:27:18.30	28.65	9.85	-44.5	-45.7	25.3	6.02e-01	0	43	0	151519232	60	4175
2026-01-25 05:27:19.31	28.51	9.92	-44.4	-45.7	25.3	6.01e-01	0	44	0	153616384	60	4148
2026-01-25 05:27:20.31	28.38	9.99	-44.4	-45.6	25.5	6.02e-01	0	44	0	155189248	60	4111
2026-01-25 05:27:21.32	28.25	10.07	-44.4	-45.6	25.5	6.01e-01	0	44	0	157286400	60	4117
2026-01-25 05:27:22.33	28.12	10.14	-44.4	-45.6	25.5	6.03e-01	0	43	0	158859264	60	4118
2026-01-25 05:27:23.34	27.98	10.21	-44.3	-45.6	25.5	6.03e-01	0	44	0	160956416	60	4100
2026-01-25 05:27:24.35	27.84	10.28	-44.4	-45.7	25.4	6.03e-01	0	44	0	163053568	60	4159
2026-01-25 05:27:25.36	27.71	10.36	-44.3	-45.6	25.5	6.03e-01	0	44	0	164626432	60	4106
2026-01-25 05:27:26.37	27.57	10.43	-44.2	-45.4	25.6	6.03e-01	0	44	0	166723584	60	4042
2026-01-25 05:27:27.38	27.43	10.50	-44.3	-45.5	25.7	6.02e-01	0	44	0	168296448	60	4057
2026-01-25 05:27:28.39	27.30	10.57	-44.2	-45.4	25.7	6.03e-01	0	43	0	170393600	60	4024
2026-01-25 05:27:29.39	27.16	10.64	-44.2	-45.4	25.7	6.01e-01	0	44	0	171966464	60	4026
2026-01-25 05:27:30.40	27.02	10.72	-44.3	-45.5	25.6	6.03e-01	0	44	0	174063616	60	4059
2026-01-25 05:27:31.41	26.88	10.79	-44.2	-45.4	25.8	6.01e-01	0	44	0	176160768	60	4007
2026-01-25 05:27:32.42	26.73	10.86	-44.2	-45.4	25.6	6.02e-01	0	44	0	178257920	60	4018
2026-01-25 05:27:33.43	26.59	10.94	-44.3	-45.5	25.6	6.02e-01	0	44	0	179830784	60	4063
2026-01-25 05:27:34.44	26.45	11.01	-44.1	-45.3	25.8	6.00e-01	0	44	0	181927936	60	3983
2026-01-25 05:27:35.45	26.31	11.08	-44.3	-45.5	25.7	6.04e-01	0	44	0	183500800	60	4060
2026-01-25 05:27:36.46	26.16	11.16	-44.3	-45.5	25.7	6.04e-01	0	44	0	185597952	60	4052
2026-01-25 05:27:37.47	26.02	11.23	-44.2	-45.4	25.7	6.02e-01	0	44	0	187170816	60	4045
2026-01-25 05:27:38.48	25.87	11.30	-44.3	-45.5	25.6	6.02e-01	0	44	0	189267968	60	4076
2026-01-25 05:27:39.49	25.72	11.38	-44.2	-45.4	25.7	6.03e-01	0	44	0	191365120	60	4040
2026-01-25 05:27:40.49	25.58	11.45	-44.3	-45.5	25.6	6.05e-01	0	44	0	192937984	60	4056
2026-01-25 05:27:41.50	25.43	11.52	-44.2	-45.4	25.7	6.02e-01	0	44	0	195035136	60	4033
2026-01-25 05:27:42.51	25.28	11.60	-44.1	-45.3	25.9	6.02e-01	0	44	0	197132288	60	3973
2026-01-25 05:27:43.52	25.13	11.67	-44.1	-45.3	25.8	6.01e-01	0	44	0	198705152	60	3985
2026-01-25 05:27:44.53	24.98	11.74	-44.1	-45.3	25.8	6.03e-01	0	44	0	200802304	60	3995
2026-01-25 05:27:45.54	24.82	11.82	-44.0	-45.2	26.0	6.01e-01	0	44	0	202375168	60	3934
2026-01-25 05:27:46.55	24.67	11.89	-44.1	-45.3	25.8	6.03e-01	0	44	0	204472320	59	4222
2026-01-25 05:27:47.56	24.52	11.96	-44.1	-45.2	25.9	6.02e-01	0	44	0	206569472	59	4185
2026-01-25 05:27:48.57	24.36	12.04	-44.1	-45.3	25.8	6.02e-01	0	44	0	208142336	59	4201
2026-01-25 05:27:49.58	24.21	12.11	-44.1	-45.3	25.8	6.03e-01	0	44	0	210239488	59	4198
2026-01-25 05:27:50.59	24.05	12.19	-44.0	-45.2	25.9	6.02e-01	0	44	0	211812352	59	4174
2026-01-25 05:27:51.59	23.89	12.26	-44.2	-45.4	25.8	6.03e-01	0	44	0	213909504	59	4250
2026-01-25 05:27:52.60	23.74	12.33	-44.1	-45.2	25.8	6.02e-01	0	44	0	215482368	59	4193
2026-01-25 05:27:53.61	23.58	12.41	-44.0	-45.1	25.9	6.03e-01	0	44	0	217579520	59	4140
2026-01-25 05:27:54.62	23.42	12.48	-43.9	-45.1	25.9	6.02e-01	0	44	0	219676672	59	4118
2026-01-25 05:27:55.63	23.26	12.56	-44.0	-45.2	26.0	6.02e-01	0	44	0	221773824	59	4149
2026-01-25 05:27:56.64	23.10	12.63	-44.0	-45.2	25.9	6.02e-01	0	44	0	223346688	59	4170
2026-01-25 05:27:57.65	22.93	12.70	-44.1	-45.2	25.9	6.02e-01	0	44	0	225443840	59	4188
2026-01-25 05:27:58.66	22.77	12.78	-44.1	-45.3	25.9	6.00e-01	0	44	0	227016704	59	4207
2026-01-25 05:27:59.67	22.60	12.85	-44.1	-45.3	25.8	6.02e-01	0	44	0	229113856	59	4231
2026-01-25 05:28:00.67	22.44	12.93	-44.1	-45.3	25.8	6.00e-01	0	44	0	230686720	59	4219
2026-01-25 05:28:01.68	22.28	13.00	-44.2	-45.4	25.8	6.00e-01	0	44	0	232783872	59	4253
2026-01-25 05:28:02.69	22.11	13.08	-44.1	-45.3	25.8	6.02e-01	0	44	0	234881024	59	4219
2026-01-25 05:28:03.70	21.94	13.15	-43.9	-45.0	26.2	6.03e-01	0	44	0	236453888	59	4095
2026-01-25 05:28:04.71	21.77	13.23	-44.0	-45.2	26.0	6.03e-01	0	44	0	238551040	59	4148
2026-01-25 05:28:05.71	21.60	13.30	-43.9	-45.1	26.1	6.03e-01	0	44	0	240648192	59	4122
2026-01-25 05:28:06.72	21.43	13.37	-43.9	-45.1	26.1	6.01e-01	0	44	0	242221056	59	4117
2026-01-25 05:28:07.73	21.26	13.45	-44.0	-45.2	26.0	6.01e-01	0	44	0	244318208	59	4154
2026-01-25 05:28:08.74	21.09	13.52	-44.2	-45.4	25.8	6.00e-01	0	44	0	245891072	59	4244
2026-01-25 05:28:09.75	20.91	13.60	-44.3	-45.5	25.7	6.00e-01	0	44	0	247988224	59	4298
2026-01-25 05:28:10.75	20.74	13.67	-44.2	-45.4	25.8	6.00e-01	0	44	0	250085376	59	4263
2026-01-25 05:28:11.76	20.57	13.75	-44.2	-45.4	25.8	6.00e-01	0	44	0	251658240	59	4270
2026-01-25 05:28:12.77	20.39	13.82	-44.3	-45.4	25.8	6.00e-01	0	44	0	253755392	59	4285
2026-01-25 05:28:13.78	20.21	13.89	-44.2	-45.4	25.8	6.02e-01	0	44	0	255328256	59	4260
2026-01-25 05:28:14.79	20.03	13.97	-44.2	-45.4	25.8	6.02e-01	0	44	0	257425408	59	4254
2026-01-25 05:28:15.79	19.86	14.04	-44.0	-45.2	26.0	6.04e-01	0	44	0	258998272	59	4174
2026-01-25 05:28:16.80	19.68	14.12	-44.0	-45.1	26.0	6.02e-01	0	43	0	261095424	59	4122
2026-01-25 05:28:17.81	19.49	14.19	-44.0	-45.2	26.0	6.02e-01	0	44	0	263192576	59	4152
2026-01-25 05:28:18.82	19.31	14.27	-44.0	-45.2	26.0	6.01e-01	0	44	0	264765440	59	4159
2026-01-25 05:28:19.82	19.13	14.34	-44.0	-45.2	26.0	6.03e-01	0	44	0	266862592	59	4158
2026-01-25 05:28:20.83	18.95	14.41	-44.0	-45.1	26.1	6.03e-01	0	44	0	268959744	59	4139
2026-01-25 05:28:21.84	18.76	14.49	-43.8	-44.9	26.2	6.01e-01	0	44	0	270532608	59	4033
2026-01-25 05:28:22.85	18.58	14.56	-43.7	-44.9	26.3	6.04e-01	0	44	0	272629760	59	4016
2026-01-25 05:28:23.86	18.39	14.64	-43.7	-44.9	26.3	6.03e-01	0	44	0	274202624	59	4010
2026-01-25 05:28:24.87	18.20	14.71	-43.7	-44.9	26.3	6.02e-01	0	44	0	276299776	59	4012
2026-01-25 05:28:25.88	18.01	14.79	-43.8	-45.0	26.2	6.02e-01	0	44	0	278396928	59	4058
2026-01-25 05:28:26.89	17.82	14.86	-43.9	-45.0	26.2	6.00e-01	0	44	0	279969792	59	4079
2026-01-25 05:28:27.89	17.63	14.93	-43.9	-45.1	26.2	6.01e-01	0	44	0	282066944	59	4114
2026-01-25 05:28:28.90	17.44	15.01	-43.9	-45.0	26.2	6.02e-01	0	44	0	283639808	59	4094
2026-01-25 05:28:29.91	17.24	15.08	-43.9	-45.1	26.3	6.05e-01	0	44	0	285736960	59	4105
2026-01-25 05:28:30.92	17.05	15.16	-43.7	-44.9	26.4	6.02e-01	0	44	0	287834112	59	4007
2026-01-25 05:28:31.92	16.86	15.23	-43.8	-44.9	26.3	6.03e-01	0	44	0	289406976	59	4030
2026-01-25 05:28:32.93	16.66	15.30	-43.9	-45.0	26.2	6.01e-01	0	44	0	291504128	59	4092
2026-01-25 05:28:33.94	16.46	15.38	-43.9	-45.0	26.3	6.02e-01	0	44	0	293076992	59	4075
2026-01-25 05:28:34.95	16.26	15.45	-43.9	-45.1	26.2	6.01e-01	0	44	0	295174144	59	4109
2026-01-25 05:28:35.96	16.06	15.52	-43.9	-45.1	26.2	6.02e-01	0	44	0	297271296	59	4120
2026-01-25 05:28:36.97	15.86	15.60	-44.0	-45.2	26.1	6.01e-01	0	44	0	298844160	59	4174
2026-01-25 05:28:37.98	15.66	15.67	-44.1	-45.2	26.1	6.04e-01	0	44	0	300941312	59	4183
2026-01-25 05:28:38.99	15.46	15.74	-44.0	-45.1	26.1	6.03e-01	0	44	0	302514176	59	4138
2026-01-25 05:28:39.99	15.26	15.82	-43.9	-45.1	26.2	6.03e-01	0	44	0	304611328	59	4115
2026-01-25 05:28:41.00	15.05	15.89	-44.0	-45.2	26.1	6.03e-01	0	44	0	306708480	59	4155
2026-01-25 05:28:42.01	14.84	15.96	-43.9	-45.1	26.2	6.01e-01	0	44	0	308281344	59	4118
2026-01-25 05:28:43.02	14.64	16.03	-43.8	-44.9	26.3	6.03e-01	0	44	0	310378496	59	4034
2026-01-25 05:28:44.03	14.43	16.11	-43.9	-45.0	26.3	6.03e-01	0	44	0	312475648	59	4078
2026-01-25 05:28:45.04	14.22	16.18	-43.8	-45.0	26.3	6.03e-01	0	44	0	314048512	59	4057
2026-01-25 05:28:46.05	14.01	16.25	-43.8	-44.9	26.3	6.02e-01	0	44	0	316145664	59	4049
2026-01-25 05:28:47.05	13.80	16.32	-43.8	-45.0	26.3	6.03e-01	0	44	0	317718528	59	4058
2026-01-25 05:28:48.06	13.59	16.40	-43.9	-45.0	26.3	6.02e-01	0	44	0	319815680	59	4084
2026-01-25 05:28:49.07	13.37	16.47	-44.0	-45.1	26.2	6.02e-01	0	44	0	321388544	59	4135
2026-01-25 05:28:50.08	13.16	16.54	-43.9	-45.1	26.2	6.02e-01	0	44	0	323485696	59	4117
2026-01-25 05:28:51.09	12.94	16.61	-43.9	-45.1	26.2	6.00e-01	0	44	0	325582848	59	4107
2026-01-25 05:28:52.09	12.73	16.68	-43.9	-45.0	26.2	6.01e-01	0	44	0	327155712	59	4079
2026-01-25 05:28:53.10	12.51	16.75	-43.9	-45.1	26.2	6.02e-01	0	44	0	329252864	59	4107
2026-01-25 05:28:54.11	12.29	16.82	-43.9	-45.0	26.3	6.01e-01	0	44	0	331350016	59	4076
2026-01-25 05:28:55.12	12.07	16.89	-43.8	-44.9	26.3	6.02e-01	0	44	0	332922880	59	4034
2026-01-25 05:28:56.13	11.85	16.97	-43.8	-44.9	26.4	6.02e-01	0	44	0	335020032	59	4041
2026-01-25 05:28:57.14	11.62	17.04	-43.9	-45.1	26.2	6.00e-01	0	44	0	336592896	59	4110
2026-01-25 05:28:58.15	11.40	17.11	-43.9	-45.1	26.3	6.03e-01	0	44	0	338690048	59	4117
2026-01-25 05:28:59.16	11.17	17.18	-44.0	-45.1	26.2	6.01e-01	0	44	0	340787200	59	4140
2026-01-25 05:29:00.17	10.95	17.25	-44.0	-45.2	26.2	6.01e-01	0	44	0	342360064	59	4153
2026-01-25 05:29:01.17	10.72	17.32	-43.9	-45.0	26.3	6.02e-01	0	44	0	344457216	59	4072
2026-01-25 05:29:02.18	10.49	17.38	-43.9	-45.1	26.3	5.99e-01	0	44	0	346030080	59	4100
2026-01-25 05:29:03.19	10.27	17.45	-44.0	-45.1	26.2	6.04e-01	0	44	0	348127232	59	4125
2026-01-25 05:29:04.20	10.03	17.52	-44.0	-45.1	26.2	6.00e-01	0	44	0	350224384	59	4141
2026-01-25 05:29:05.21	9.80	17.59	-43.9	-45.0	26.3	6.00e-01	0	44	0	351797248	59	4075
2026-01-25 05:29:06.21	9.57	17.66	-43.9	-45.0	26.3	6.03e-01	0	44	0	353894400	59	4083
2026-01-25 05:29:07.22	9.34	17.73	-43.9	-45.1	26.3	6.04e-01	0	44	0	355991552	59	4114
2026-01-25 05:29:08.23	9.10	17.80	-43.9	-45.1	26.2	6.01e-01	0	44	0	357564416	59	4119
2026-01-25 05:29:09.24	8.87	17.86	-44.0	-45.1	26.2	6.02e-01	0	44	0	359661568	59	4137
2026-01-25 05:29:10.25	8.63	17.93	-44.0	-45.1	26.2	6.01e-01	0	44	0	361234432	59	4131
2026-01-25 05:29:11.26	8.39	18.00	-43.9	-45.0	26.3	6.03e-01	0	44	0	363331584	59	4087
2026-01-25 05:29:12.27	8.15	18.06	-43.9	-45.1	26.3	6.01e-01	0	44	0	364904448	59	4102
2026-01-25 05:29:13.28	7.91	18.13	-43.9	-45.0	26.3	6.02e-01	0	44	0	367001600	59	4075
2026-01-25 05:29:14.29	7.67	18.20	-44.0	-45.1	26.2	6.02e-01	0	44	0	369098752	59	4142
2026-01-25 05:29:15.29	7.43	18.26	-43.9	-45.0	26.2	6.01e-01	0	44	0	370671616	59	4085
2026-01-25 05:29:16.30	7.18	18.33	-44.0	-45.1	26.2	6.02e-01	0	44	0	372768768	59	4139
2026-01-25 05:29:17.31	6.94	18.39	-44.0	-45.2	26.2	6.04e-01	0	44	0	374865920	59	4155
2026-01-25 05:29:18.32	6.69	18.46	-44.1	-45.3	26.1	6.03e-01	0	44	0	376438784	59	4222
2026-01-25 05:29:19.33	6.44	18.52	-44.1	-45.3	26.1	6.01e-01	0	44	0	378535936	59	4214
2026-01-25 05:29:20.33	6.20	18.59	-44.0	-45.2	26.2	6.02e-01	0	44	0	380108800	59	4153
2026-01-25 05:29:21.34	5.95	18.65	-44.0	-45.1	26.2	6.00e-01	0	44	0	382205952	59	4136
2026-01-25 05:29:22.35	5.70	18.71	-44.0	-45.1	26.3	6.03e-01	0	44	0	384303104	59	4120
2026-01-25 05:29:23.36	5.44	18.78	-44.0	-45.2	26.2	6.00e-01	0	44	0	385875968	59	4151
2026-01-25 05:29:24.37	5.19	18.84	-44.1	-45.2	26.1	6.03e-01	0	44	0	387973120	59	4176
2026-01-25 05:29:25.38	4.94	18.90	-44.2	-45.4	25.8	6.01e-01	0	44	0	389545984	59	4262
2026-01-25 05:29:26.39	4.68	18.96	-44.1	-45.2	26.1	6.02e-01	0	44	0	391643136	59	4193
2026-01-25 05:29:27.40	4.43	19.03	-44.1	-45.3	26.1	6.01e-01	0	44	0	393216000	59	4198
2026-01-25 05:29:28.41	4.17	19.09	-44.1	-45.2	26.1	6.01e-01	0	44	0	395313152	59	4178
2026-01-25 05:29:29.41	3.91	19.15	-44.1	-45.2	26.1	6.02e-01	0	44	0	397410304	59	4181
2026-01-25 05:29:30.42	3.65	19.21	-44.2	-45.4	26.0	6.02e-01	0	44	0	399507456	59	4255
2026-01-25 05:29:31.43	3.39	19.27	-44.1	-45.3	26.1	6.01e-01	0	44	0	401080320	59	4202
2026-01-25 05:29:32.44	3.13	19.33	-44.2	-45.4	26.1	6.02e-01	0	44	0	403177472	59	4259
2026-01-25 05:29:33.45	2.87	19.39	-44.2	-45.4	26.0	6.00e-01	0	44	0	404750336	59	4264
2026-01-25 05:29:34.45	2.60	19.44	-44.2	-45.4	26.0	6.04e-01	0	44	0	406847488	59	4273
2026-01-25 05:29:35.46	2.34	19.50	-44.1	-45.2	26.1	6.01e-01	0	44	0	408420352	59	4188
2026-01-25 05:29:36.47	2.07	19.56	-44.1	-45.3	26.1	6.03e-01	0	44	0	410517504	59	4199
2026-01-25 05:29:37.48	1.81	19.62	-44.2	-45.3	26.1	6.03e-01	0	44	0	412614656	59	4234
2026-01-25 05:29:38.49	1.54	19.67	-44.1	-45.3	26.1	6.03e-01	0	44	0	414187520	59	4203
2026-01-25 05:29:39.49	1.27	19.73	-44.2	-45.3	26.0	6.03e-01	0	44	0	416284672	59	4236
2026-01-25 05:29:40.50	1.00	19.78	-44.2	-45.4	26.0	6.02e-01	0	44	0	417857536	59	4265
2026-01-25 05:29:41.51	0.73	19.84	-44.2	-45.3	26.0	6.02e-01	0	44	0	419954688	59	4232
2026-01-25 05:29:42.52	0.46	19.89	-44.2	-45.3	26.1	6.06e-01	0	44	0	422051840	59	4233
2026-01-25 05:29:43.53	0.18	19.95	-44.2	-45.4	25.9	6.03e-01	0	44	0	423624704	59	4259
2026-01-25 05:29:44.53	359.91	20.00	-44.2	-45.4	25.9	6.03e-01	0	44	0	425721856	59	4268
2026-01-25 05:29:45.54	359.63	20.05	-44.3	-45.5	25.9	6.01e-01	0	44	0	427819008	59	4306
2026-01-25 05:29:46.55	359.36	20.11	-44.3	-45.4	26.0	6.01e-01	0	44	0	429391872	59	4284
2026-01-25 05:29:47.56	359.08	20.16	-44.2	-45.4	26.0	6.02e-01	0	44	0	431489024	59	4259
2026-01-25 05:29:48.56	358.80	20.21	-44.3	-45.5	25.9	6.03e-01	0	44	0	433061888	59	4301
2026-01-25 05:29:49.57	358.52	20.26	-44.3	-45.5	25.9	6.01e-01	0	44	0	435159040	59	4296
2026-01-25 05:29:50.58	358.24	20.31	-44.4	-45.6	25.9	6.03e-01	0	44	0	436731904	59	4343
2026-01-25 05:29:51.59	357.96	20.36	-44.3	-45.4	26.0	6.03e-01	0	44	0	438829056	59	4290
2026-01-25 05:29:52.60	357.68	20.41	-44.3	-45.5	25.9	6.02e-01	0	44	0	440926208	59	4297
2026-01-25 05:29:53.60	357.40	20.46	-44.2	-45.4	25.9	6.02e-01	0	44	0	442499072	59	4268
2026-01-25 05:29:54.61	357.11	20.50	-44.3	-45.5	25.8	6.02e-01	0	44	0	444596224	59	4309
2026-01-25 05:29:55.62	356.83	20.55	-44.3	-45.5	25.9	6.03e-01	0	44	0	446693376	59	4326
2026-01-25 05:29:56.63	356.54	20.60	-44.3	-45.5	25.9	6.01e-01	0	44	0	448266240	59	4310
2026-01-25 05:29:57.64	356.26	20.64	-44.4	-45.5	25.8	6.01e-01	0	44	0	450363392	59	4334
2026-01-25 05:29:58.65	355.97	20.69	-44.3	-45.5	25.9	6.03e-01	0	44	0	451936256	59	4305
2026-01-25 05:29:59.65	355.68	20.73	-44.4	-45.5	25.8	6.01e-01	0	44	0	454033408	59	4330
2026-01-25 05:30:00.66	355.39	20.78	-44.4	-45.5	25.8	6.02e-01	0	44	0	456130560	59	4332
2026-01-25 05:30:01.67	355.10	20.82	-44.4	-45.6	25.7	6.02e-01	0	44	0	457703424	59	4363
2026-01-25 05:30:02.68	354.81	20.86	-44.4	-45.6	25.7	6.02e-01	0	44	0	459800576	59	4361
2026-01-25 05:30:03.69	354.52	20.91	-44.3	-45.5	25.8	6.02e-01	0	44	0	461373440	59	4313
2026-01-25 05:30:04.69	354.23	20.95	-44.3	-45.4	25.9	6.01e-01	0	44	0	463470592	59	4286
2026-01-25 05:30:05.70	353.93	20.99	-44.4	-45.5	25.9	5.99e-01	0	44	0	465043456	59	4337
2026-01-25 05:30:06.71	353.64	21.03	-44.4	-45.6	25.8	6.01e-01	0	44	0	467140608	59	4355
2026-01-25 05:30:07.72	353.34	21.07	-44.5	-45.7	25.7	6.03e-01	0	44	0	469237760	59	4409
2026-01-25 05:30:08.73	353.04	21.11	-44.5	-45.7	25.7	6.02e-01	0	44	0	471334912	59	4401
2026-01-25 05:30:09.74	352.75	21.14	-44.4	-45.5	25.9	6.01e-01	0	44	0	472907776	59	4330
2026-01-25 05:30:10.75	352.45	21.18	-44.3	-45.5	25.9	6.04e-01	0	44	0	475004928	59	4321
2026-01-25 05:30:11.76	352.15	21.22	-44.4	-45.5	25.8	6.02e-01	0	44	0	476577792	59	4338
2026-01-25 05:30:12.77	351.85	21.25	-44.4	-45.6	25.9	6.00e-01	0	44	0	478674944	59	4350
2026-01-25 05:30:13.78	351.55	21.29	-44.5	-45.7	25.8	6.03e-01	0	44	0	480247808	59	4398
2026-01-25 05:30:14.79	351.25	21.32	-44.4	-45.6	25.8	6.01e-01	0	44	0	482344960	59	4383
2026-01-25 05:30:15.80	350.95	21.35	-44.5	-45.6	25.9	6.03e-01	0	44	0	484442112	59	4384
2026-01-25 05:30:16.80	350.65	21.39	-44.4	-45.6	25.9	6.02e-01	0	44	0	486014976	59	4349
2026-01-25 05:30:17.81	350.34	21.42	-44.4	-45.6	25.8	6.01e-01	0	44	0	488112128	59	4367
2026-01-25 05:30:18.82	350.04	21.45	-44.5	-45.6	25.8	6.01e-01	0	44	0	490209280	59	4389
2026-01-25 05:30:19.83	349.74	21.48	-44.6	-45.8	25.7	6.03e-01	0	44	0	491782144	59	4467
2026-01-25 05:30:20.83	349.43	21.51	-44.6	-45.8	25.7	6.03e-01	0	44	0	493879296	59	4493
2026-01-25 05:30:21.84	349.13	21.54	-44.5	-45.7	25.9	6.02e-01	0	44	0	495452160	60	4185
2026-01-25 05:30:22.85	348.82	21.56	-44.4	-45.6	26.0	6.01e-01	0	44	0	497549312	60	4133
2026-01-25 05:30:23.86	348.52	21.59	-44.4	-45.6	26.0	6.02e-01	0	44	0	499646464	60	4133
2026-01-25 05:30:24.87	348.21	21.62	-44.3	-45.5	26.0	6.00e-01	0	44	0	501219328	60	4080
2026-01-25 05:30:25.88	347.90	21.64	-44.4	-45.6	25.9	6.03e-01	0	44	0	503316480	60	4124
2026-01-25 05:30:26.89	347.59	21.67	-44.5	-45.7	25.7	6.01e-01	0	44	0	504889344	60	4169
2026-01-25 05:30:27.89	347.29	21.69	-44.5	-45.7	25.8	6.03e-01	0	44	0	506986496	60	4170
2026-01-25 05:30:28.90	346.98	21.71	-44.5	-45.7	25.8	6.02e-01	0	44	0	508559360	60	4163
2026-01-25 05:30:29.91	346.67	21.74	-44.5	-45.6	25.9	6.03e-01	0	44	0	510656512	60	4139
2026-01-25 05:30:30.92	346.36	21.76	-44.5	-45.7	25.8	6.04e-01	0	44	0	512753664	60	4149
2026-01-25 05:30:31.93	346.05	21.78	-44.5	-45.7	25.7	6.02e-01	0	44	0	514850816	60	4188
2026-01-25 05:30:32.94	345.73	21.80	-44.5	-45.7	25.8	6.00e-01	0	44	0	516423680	60	4168
2026-01-25 05:30:33.95	345.42	21.82	-44.5	-45.6	25.8	6.05e-01	0	44	0	518520832	60	4137
2026-01-25 05:30:34.95	345.11	21.83	-44.4	-45.5	25.9	6.01e-01	0	44	0	520093696	60	4093
2026-01-25 05:30:35.96	344.80	21.85	-44.4	-45.6	25.9	6.00e-01	0	44	0	522190848	60	4104
2026-01-25 05:30:36.97	344.49	21.87	-44.5	-45.7	25.8	6.02e-01	0	44	0	523763712	60	4165
2026-01-25 05:30:37.98	344.18	21.88	-44.6	-45.8	25.8	6.02e-01	0	44	0	525860864	60	4217
2026-01-25 05:30:38.99	343.86	21.90	-44.5	-45.7	25.9	6.05e-01	0	44	0	527958016	60	4164
2026-01-25 05:30:39.99	343.55	21.91	-44.6	-45.7	25.8	6.00e-01	0	44	0	529530880	60	4193
2026-01-25 05:30:41.00	343.24	21.92	-44.5	-45.6	25.9	6.01e-01	0	44	0	531628032	60	4141
2026-01-25 05:30:42.01	342.92	21.94	-44.5	-45.6	25.9	6.01e-01	0	44	0	533725184	60	4145
2026-01-25 05:30:43.02	342.61	21.95	-44.6	-45.8	25.8	6.01e-01	0	44	0	535298048	60	4195
2026-01-25 05:30:44.02	342.30	21.96	-44.6	-45.8	25.8	6.01e-01	0	44	0	537395200	60	4238
2026-01-25 05:30:45.03	341.98	21.97	-44.6	-45.7	25.8	6.02e-01	0	44	0	538968064	60	4193
2026-01-25 05:30:46.04	341.67	21.97	-44.5	-45.6	26.0	6.03e-01	0	44	0	541065216	60	4144
2026-01-25 05:30:47.05	341.35	21.98	-44.5	-45.7	25.9	6.02e-01	0	44	0	543162368	60	4166
2026-01-25 05:30:48.06	341.04	21.99	-44.6	-45.8	25.8	6.02e-01	0	44	0	544735232	60	4219
2026-01-25 05:30:49.07	340.72	21.99	-44.6	-45.8	25.8	6.01e-01	0	44	0	546832384	60	4222
2026-01-25 05:30:50.07	340.41	22.00	-44.6	-45.8	25.8	6.02e-01	0	44	0	548405248	60	4236
2026-01-25 05:30:51.08	340.09	22.00	-44.6	-45.8	25.7	6.01e-01	0	44	0	550502400	60	4206
2026-01-25 05:30:52.09	339.78	22.01	-44.6	-45.7	25.8	6.01e-01	0	44	0	552075264	60	4192
2026-01-25 05:30:53.10	339.46	22.01	-44.5	-45.7	25.9	6.02e-01	0	44	0	554172416	60	4158
2026-01-25 05:30:54.11	339.14	22.01	-44.6	-45.8	25.8	6.03e-01	0	44	0	556269568	60	4223
2026-01-25 05:30:55.11	338.83	22.01	-44.7	-45.9	25.7	6.01e-01	0	44	0	557842432	60	4254
2026-01-25 05:30:56.12	338.52	22.01	-44.5	-45.7	25.9	6.03e-01	0	44	0	559939584	60	4159
2026-01-25 05:30:57.13	338.20	22.01	-44.6	-45.8	25.8	6.02e-01	0	44	0	562036736	60	4210
2026-01-25 05:30:58.14	337.88	22.00	-44.6	-45.8	25.7	6.06e-01	0	44	0	563609600	60	4223
2026-01-25 05:30:59.15	337.57	22.00	-44.6	-45.8	25.8	6.00e-01	0	44	0	565706752	60	4229
2026-01-25 05:31:00.16	337.25	22.00	-44.6	-45.8	25.8	6.02e-01	0	44	0	567279616	60	4229
2026-01-25 05:31:01.17	336.94	21.99	-44.6	-45.8	25.8	6.02e-01	0	44	0	569376768	60	4227
2026-01-25 05:31:02.18	336.62	21.99	-44.6	-45.8	25.8	6.00e-01	0	44	0	571473920	60	4232
2026-01-25 05:31:03.18	336.31	21.98	-44.8	-46.0	25.7	6.03e-01	0	44	0	573046784	60	4295
2026-01-25 05:31:04.19	335.99	21.97	-44.6	-45.8	25.8	6.02e-01	0	44	0	575143936	60	4240
2026-01-25 05:31:05.20	335.68	21.96	-44.7	-45.9	25.7	6.04e-01	0	44	0	576716800	60	4280
2026-01-25 05:31:06.21	335.36	21.95	-44.8	-46.0	25.6	6.05e-01	0	44	0	578813952	60	4311
2026-01-25 05:31:07.21	335.05	21.94	-44.8	-46.0	25.7	6.02e-01	0	44	0	580911104	60	4314
2026-01-25 05:31:08.22	334.74	21.93	-44.9	-46.2	25.5	6.02e-01	0	44	0	582483968	60	4394
2026-01-25 05:31:09.23	334.42	21.92	-44.7	-45.9	25.8	6.02e-01	0	44	0	584581120	60	4255
2026-01-25 05:31:10.24	334.11	21.91	-44.6	-45.8	25.9	6.01e-01	0	44	0	586153984	60	4201
2026-01-25 05:31:11.24	333.80	21.89	-44.7	-45.9	25.8	6.01e-01	0	44	0	588251136	60	4245
2026-01-25 05:31:12.25	333.48	21.88	-44.7	-45.9	25.7	6.02e-01	0	44	0	590348288	60	4281
2026-01-25 05:31:13.26	333.17	21.86	-44.7	-45.9	25.8	6.02e-01	0	44	0	591921152	60	4245
2026-01-25 05:31:14.27	332.86	21.85	-44.7	-45.9	25.7	6.01e-01	0	44	0	594018304	60	4251
2026-01-25 05:31:15.28	332.55	21.83	-44.8	-46.0	25.7	6.02e-01	0	44	0	595591168	60	4315
2026-01-25 05:31:16.29	332.23	21.81	-44.7	-45.9	25.8	6.01e-01	0	44	0	597688320	60	4252
2026-01-25 05:31:17.30	331.92	21.79	-44.8	-45.9	25.7	6.02e-01	0	44	0	599785472	60	4290
2026-01-25 05:31:18.31	331.61	21.77	-44.8	-46.0	25.6	6.01e-01	0	44	0	601358336	60	4340
2026-01-25 05:31:19.31	331.30	21.75	-44.8	-46.0	25.7	6.01e-01	0	44	0	603455488	60	4309
2026-01-25 05:31:20.32	330.99	21.73	-44.7	-45.9	25.8	6.03e-01	0	44	0	605552640	60	4246
2026-01-25 05:31:21.33	330.68	21.71	-44.7	-45.9	25.7	5.99e-01	0	44	0	607125504	60	4262
2026-01-25 05:31:22.34	330.37	21.68	-44.8	-46.0	25.7	6.03e-01	0	44	0	609222656	60	4305
2026-01-25 05:31:23.35	330.06	21.66	-44.8	-46.0	25.7	6.04e-01	0	44	0	610795520	60	4292
2026-01-25 05:31:24.36	329.76	21.63	-44.9	-46.1	25.6	6.03e-01	0	44	0	612892672	60	4377
2026-01-25 05:31:25.37	329.45	21.61	-44.8	-46.0	25.7	6.03e-01	0	44	0	614465536	60	4295
2026-01-25 05:31:26.37	329.14	21.58	-44.5	-45.7	25.9	6.03e-01	0	44	0	616562688	60	4165
2026-01-25 05:31:27.38	328.84	21.56	-44.7	-45.9	25.8	6.04e-01	0	44	0	618659840	60	4246
2026-01-25 05:31:28.39	328.53	21.53	-44.7	-45.9	25.8	5.99e-01	0	44	0	620232704	60	4266
2026-01-25 05:31:29.40	328.23	21.50	-44.7	-45.9	25.7	6.03e-01	0	44	0	622329856	60	4277
2026-01-25 05:31:30.41	327.92	21.47	-44.7	-45.9	25.8	6.03e-01	0	44	0	624427008	60	4269
2026-01-25 05:31:31.41	327.62	21.44	-44.7	-45.9	25.8	6.06e-01	0	44	0	625999872	60	4250
2026-01-25 05:31:32.42	327.32	21.41	-44.6	-45.7	26.0	6.00e-01	0	44	0	628097024	60	4189
2026-01-25 05:31:33.43	327.01	21.38	-44.6	-45.8	25.9	6.02e-01	0	44	0	629669888	60	4217
2026-01-25 05:31:34.44	326.71	21.34	-44.6	-45.8	25.9	6.01e-01	0	44	0	631767040	60	4239
2026-01-25 05:31:35.45	326.41	21.31	-44.6	-45.8	25.9	6.01e-01	0	44	0	633864192	60	4233
2026-01-25 05:31:36.46	326.11	21.27	-44.6	-45.8	25.9	6.03e-01	0	44	0	635437056	60	4219
2026-01-25 05:31:37.47	325.81	21.24	-44.8	-46.0	25.6	6.02e-01	0	44	0	637534208	60	4306
2026-01-25 05:31:38.48	325.51	21.20	-44.8	-46.0	25.6	6.01e-01	0	44	0	639107072	60	4329
2026-01-25 05:31:39.48	325.21	21.17	-44.7	-45.9	25.8	6.04e-01	0	44	0	641204224	60	4282
2026-01-25 05:31:40.49	324.91	21.13	-44.6	-45.8	25.9	6.03e-01	0	44	0	642777088	60	4221
2026-01-25 05:31:41.50	324.62	21.09	-44.9	-46.1	25.6	6.02e-01	0	44	0	644874240	60	4357
2026-01-25 05:31:42.51	324.32	21.05	-45.2	-46.5	25.3	6.02e-01	0	44	0	646971392	61	4303
2026-01-25 05:31:43.52	324.02	21.01	-45.0	-46.2	25.5	6.03e-01	0	44	0	649068544	61	4189
2026-01-25 05:31:44.53	323.73	20.97	-44.8	-45.9	25.8	6.03e-01	0	44	0	650641408	61	4048
2026-01-25 05:31:45.53	323.44	20.93	-45.1	-46.3	25.3	6.02e-01	0	44	0	652738560	61	4210
2026-01-25 05:31:46.54	323.15	20.89	-45.7	-47.0	24.8	6.02e-01	0	44	0	654311424	61	4582
2026-01-25 05:31:47.55	322.85	20.85	-44.5	-45.6	26.0	6.02e-01	0	44	0	656408576	60	4144
2026-01-25 05:31:48.56	322.56	20.81	-44.8	-46.0	25.6	6.00e-01	0	44	0	657981440	61	4061
2026-01-25 05:31:49.57	322.27	20.76	-45.6	-46.9	25.0	6.02e-01	0	44	0	660078592	61	4512
2026-01-25 05:31:50.58	321.98	20.72	-44.7	-45.8	25.8	6.01e-01	0	44	0	662175744	60	4238
2026-01-25 05:31:51.59	321.69	20.67	-44.4	-45.5	25.9	6.00e-01	0	44	0	663748608	60	4091
2026-01-25 05:31:52.60	321.40	20.63	-45.4	-46.7	24.8	6.01e-01	0	44	0	665845760	61	4430
2026-01-25 05:31:53.61	321.12	20.58	-45.2	-46.5	25.2	6.02e-01	0	44	0	667942912	60	4555
2026-01-25 05:31:54.61	320.83	20.54	-44.3	-45.4	26.3	6.02e-01	0	44	0	669515776	60	4022
2026-01-25 05:31:55.62	320.55	20.49	-44.4	-45.9	25.0	6.02e-01	0	44	0	671612928	61	4027
2026-01-25 05:31:56.63	320.26	20.44	-46.2	-47.7	24.2	6.01e-01	0	44	0	673185792	62	4666
2026-01-25 05:31:57.64	319.98	20.39	-44.6	-45.8	25.8	5.99e-01	0	44	0	675282944	60	4217
2026-01-25 05:31:58.65	319.70	20.34	-44.3	-45.4	25.9	6.03e-01	0	44	0	677380096	60	4048
2026-01-25 05:31:59.65	319.42	20.29	-45.6	-47.0	24.7	6.01e-01	0	44	0	678952960	61	4556
2026-01-25 05:32:00.66	319.14	20.24	-45.3	-46.5	25.2	6.02e-01	0	44	0	681050112	61	4339
2026-01-25 05:32:01.67	318.86	20.19	-45.1	-46.4	25.0	6.01e-01	0	44	0	682622976	62	4007
2026-01-25 05:32:02.68	318.58	20.14	-46.0	-47.4	24.3	6.04e-01	0	44	0	684720128	62	4521
2026-01-25 05:32:03.69	318.30	20.09	-44.9	-46.1	25.5	6.03e-01	0	44	0	686292992	61	4132
2026-01-25 05:32:04.69	318.03	20.04	-45.0	-46.2	25.3	6.02e-01	0	44	0	688390144	62	3921
2026-01-25 05:32:05.70	317.75	19.98	-45.6	-47.0	24.7	6.03e-01	0	44	0	690487296	62	4298
2026-01-25 05:32:06.71	317.48	19.93	-44.9	-46.0	25.6	6.00e-01	0	44	0	692584448	61	4097
2026-01-25 05:32:07.72	317.20	19.87	-44.8	-46.0	25.5	6.04e-01	0	44	0	694157312	61	4060
2026-01-25 05:32:08.73	316.93	19.82	-45.3	-46.6	25.1	6.03e-01	0	44	0	696254464	61	4363
2026-01-25 05:32:09.73	316.66	19.76	-44.3	-45.4	26.1	6.03e-01	0	44	0	697827328	60	4045
2026-01-25 05:32:10.74	316.39	19.71	-44.4	-45.5	25.8	6.00e-01	0	44	0	699924480	60	4089
2026-01-25 05:32:11.75	316.12	19.65	-45.0	-46.3	25.3	6.02e-01	0	44	0	701497344	60	4452
2026-01-25 05:32:12.76	315.86	19.59	-44.7	-45.9	25.7	6.02e-01	0	44	0	703594496	60	4274
2026-01-25 05:32:13.76	315.59	19.54	-44.7	-45.9	25.7	6.03e-01	0	44	0	705691648	60	4268
2026-01-25 05:32:14.77	315.32	19.48	-44.4	-45.5	26.2	6.02e-01	0	44	0	707264512	60	4069
2026-01-25 05:32:15.78	315.06	19.42	-44.7	-45.9	25.4	6.01e-01	0	44	0	709361664	60	4281
2026-01-25 05:32:16.79	314.79	19.36	-44.8	-46.1	25.6	6.02e-01	0	44	0	710934528	60	4348
2026-01-25 05:32:17.80	314.53	19.30	-44.6	-45.7	26.0	6.01e-01	0	44	0	713031680	60	4176
2026-01-25 05:32:18.81	314.27	19.24	-44.9	-46.1	25.5	6.02e-01	0	44	0	715128832	60	4373
2026-01-25 05:32:19.81	314.01	19.18	-44.6	-45.8	25.9	6.03e-01	0	44	0	716701696	60	4201
2026-01-25 05:32:20.82	313.75	19.12	-44.4	-45.5	26.1	6.01e-01	0	44	0	718798848	60	4085
2026-01-25 05:32:21.83	313.49	19.06	-44.6	-45.8	25.8	6.04e-01	0	44	0	720896000	60	4227
2026-01-25 05:32:22.84	313.24	19.00	-44.7	-45.9	25.8	6.04e-01	0	44	0	722468864	60	4260
2026-01-25 05:32:23.85	312.98	18.94	-44.4	-45.6	26.1	6.04e-01	0	44	0	724566016	60	4100
2026-01-25 05:32:24.86	312.72	18.88	-44.3	-45.4	26.2	6.05e-01	0	44	0	726138880	60	4050
2026-01-25 05:32:25.86	312.47	18.82	-44.6	-45.8	25.8	6.01e-01	0	44	0	728236032	60	4229
2026-01-25 05:32:26.87	312.22	18.75	-44.9	-46.1	25.6	6.01e-01	0	44	0	729808896	60	4374
2026-01-25 05:32:27.88	311.97	18.69	-44.3	-45.4	26.2	6.01e-01	0	44	0	731906048	60	4023
2026-01-25 05:32:28.89	311.72	18.63	-44.7	-46.0	25.5	6.03e-01	0	44	0	734003200	60	4301
2026-01-25 05:32:29.89	311.47	18.56	-44.3	-45.5	26.0	6.03e-01	0	44	0	735576064	59	4302
2026-01-25 05:32:30.90	311.22	18.50	-44.1	-45.2	26.2	5.98e-01	0	44	0	737673216	60	3932
2026-01-25 05:32:31.91	310.97	18.43	-44.8	-46.0	25.6	6.04e-01	0	44	0	739770368	60	4326
2026-01-25 05:32:32.92	310.73	18.37	-44.7	-45.9	25.6	6.02e-01	0	44	0	741343232	60	4279
2026-01-25 05:32:33.93	310.48	18.30	-44.4	-45.6	25.9	6.02e-01	0	44	0	743440384	60	4119
2026-01-25 05:32:34.93	310.24	18.24	-45.0	-46.2	25.4	6.02e-01	0	44	0	745013248	60	4416
2026-01-25 05:32:35.94	310.00	18.17	-44.5	-45.7	25.9	6.03e-01	0	44	0	747110400	60	4166
2026-01-25 05:32:36.95	309.75	18.11	-44.5	-45.6	25.5	6.03e-01	0	44	0	749207552	60	4145
2026-01-25 05:32:37.96	309.51	18.04	-45.0	-46.2	25.3	6.03e-01	0	44	0	750780416	60	4437
2026-01-25 05:32:38.97	309.27	17.97	-44.4	-45.6	26.0	6.00e-01	0	44	0	752877568	60	4108
2026-01-25 05:32:39.97	309.04	17.91	-45.6	-47.0	24.6	6.01e-01	0	44	0	754450432	61	4573
2026-01-25 05:32:40.98	308.80	17.84	-45.2	-46.5	25.2	6.01e-01	0	44	0	756547584	61	4297
2026-01-25 05:32:41.99	308.56	17.77	-45.7	-47.0	24.5	6.01e-01	0	44	0	758120448	62	4297
2026-01-25 05:32:43.00	308.33	17.70	-46.4	-47.9	23.8	6.04e-01	0	44	0	760217600	63	4501
2026-01-25 05:32:44.01	308.10	17.63	-46.2	-47.6	24.3	6.01e-01	0	44	0	762314752	63	4354
2026-01-25 05:32:45.01	307.87	17.57	-46.5	-48.0	23.7	6.03e-01	0	44	0	764411904	64	4307
2026-01-25 05:32:46.02	307.63	17.50	-45.3	-46.5	25.2	6.01e-01	0	44	0	765984768	62	4074
2026-01-25 05:32:47.03	307.40	17.43	-45.2	-46.5	25.1	6.03e-01	0	44	0	768081920	62	4052
2026-01-25 05:32:48.04	307.17	17.36	-45.0	-46.2	25.4	6.04e-01	0	44	0	769654784	61	4190
2026-01-25 05:32:49.05	306.95	17.29	-44.4	-45.6	26.0	6.01e-01	0	44	0	771751936	60	4108
2026-01-25 05:32:50.05	306.72	17.22	-45.2	-46.5	25.2	6.04e-01	0	44	0	773324800	60	4567
2026-01-25 05:32:51.06	306.49	17.15	-44.4	-45.6	26.0	6.01e-01	0	44	0	775421952	60	4108
2026-01-25 05:32:52.07	306.27	17.08	-45.4	-46.7	24.8	6.03e-01	0	44	0	777519104	61	4408
2026-01-25 05:32:53.08	306.05	17.01	-45.0	-46.2	25.4	6.04e-01	0	44	0	779091968	61	4159
2026-01-25 05:32:54.09	305.82	16.94	-45.2	-46.5	24.9	6.01e-01	0	44	0	781189120	61	4300
2026-01-25 05:32:55.09	305.60	16.87	-44.4	-45.5	26.0	6.02e-01	0	44	0	782761984	60	4084
2026-01-25 05:32:56.10	305.38	16.80	-44.8	-46.0	25.4	6.02e-01	0	44	0	784859136	60	4330
2026-01-25 05:32:57.11	305.16	16.73	-44.4	-45.6	26.0	6.03e-01	0	44	0	786956288	60	4115
2026-01-25 05:32:58.12	304.94	16.65	-44.6	-45.8	25.8	6.02e-01	0	44	0	788529152	60	4239
2026-01-25 05:32:59.13	304.73	16.58	-44.7	-45.9	25.8	6.01e-01	0	44	0	790626304	60	4255
2026-01-25 05:33:00.13	304.51	16.51	-44.8	-46.0	25.7	6.02e-01	0	44	0	792723456	60	4326
2026-01-25 05:33:01.14	304.30	16.44	-45.1	-46.3	25.4	6.00e-01	0	44	0	794296320	60	4482
2026-01-25 05:33:02.15	304.08	16.37	-44.7	-45.9	25.7	6.03e-01	0	44	0	796393472	60	4248
2026-01-25 05:33:03.16	303.87	16.30	-45.0	-46.3	25.4	6.03e-01	0	44	0	797966336	60	4446
2026-01-25 05:33:04.17	303.66	16.22	-44.4	-45.6	25.9	6.00e-01	0	44	0	800063488	60	4119
2026-01-25 05:33:05.17	303.45	16.15	-44.5	-45.7	25.9	6.01e-01	0	44	0	801636352	60	4147
2026-01-25 05:33:06.18	303.24	16.08	-44.6	-45.8	25.8	6.02e-01	0	44	0	803733504	60	4199
2026-01-25 05:33:07.19	303.03	16.01	-44.6	-45.8	25.7	6.03e-01	0	44	0	805830656	60	4232
2026-01-25 05:33:08.20	302.83	15.93	-44.3	-45.4	26.0	6.03e-01	0	44	0	807403520	60	4044
2026-01-25 05:33:09.20	302.62	15.86	-44.5	-45.7	25.8	6.01e-01	0	44	0	809500672	60	4164
2026-01-25 05:33:10.21	302.42	15.79	-44.4	-45.5	25.9	6.02e-01	0	44	0	811597824	60	4084
2026-01-25 05:33:11.22	302.21	15.71	-44.4	-45.5	25.9	6.01e-01	0	44	0	813170688	60	4098
2026-01-25 05:33:12.23	302.01	15.64	-44.9	-46.2	25.3	6.03e-01	0	44	0	815267840	60	4401
2026-01-25 05:33:13.24	301.81	15.57	-44.5	-45.7	25.8	6.01e-01	0	44	0	816840704	60	4151
2026-01-25 05:33:14.25	301.61	15.49	-45.0	-46.2	25.4	6.02e-01	0	44	0	818937856	60	4424
2026-01-25 05:33:15.25	301.41	15.42	-45.0	-46.2	25.3	6.03e-01	0	44	0	821035008	60	4420
2026-01-25 05:33:16.26	301.21	15.35	-45.2	-46.4	25.2	6.03e-01	0	44	0	822607872	60	4530
2026-01-25 05:33:17.27	301.01	15.27	-45.4	-46.7	24.9	6.04e-01	0	44	0	824705024	61	4419
2026-01-25 05:33:18.28	300.82	15.20	-45.3	-46.6	24.8	6.02e-01	0	44	0	826277888	61	4372
2026-01-25 05:33:19.28	300.62	15.13	-45.2	-46.4	25.0	6.05e-01	0	44	0	828375040	61	4287
2026-01-25 05:33:20.29	300.43	15.05	-45.6	-46.9	24.7	6.04e-01	0	44	0	829947904	61	4515
2026-01-25 05:33:21.30	300.24	14.98	-45.4	-46.7	24.8	6.01e-01	0	44	0	832045056	61	4425
2026-01-25 05:33:22.31	300.04	14.90	-45.6	-46.9	24.7	6.00e-01	0	44	0	834142208	61	4506
2026-01-25 05:33:23.32	299.85	14.83	-45.2	-46.5	25.0	6.03e-01	0	44	0	835715072	61	4318
2026-01-25 05:33:24.33	299.66	14.76	-45.0	-46.2	25.3	6.03e-01	0	44	0	837812224	61	4182
2026-01-25 05:33:25.33	299.47	14.68	-45.2	-46.5	24.9	6.03e-01	0	44	0	839909376	61	4312
2026-01-25 05:33:26.34	299.29	14.61	-45.1	-46.3	23.0	6.03e-01	0	44	0	841482240	61	4218
2026-01-25 05:33:27.35	299.10	14.53	-45.5	-46.8	24.8	6.04e-01	0	44	0	843579392	61	4491
2026-01-25 05:33:28.36	298.91	14.46	-45.9	-47.3	24.3	6.04e-01	0	44	0	845152256	62	4465
2026-01-25 05:33:29.36	298.73	14.38	-44.6	-45.8	25.6	6.02e-01	0	44	0	847249408	61	3987
2026-01-25 05:33:30.37	298.54	14.31	-44.7	-45.9	25.6	6.01e-01	0	44	0	849346560	60	4254
2026-01-25 05:33:31.38	298.36	14.24	-44.9	-46.2	25.4	6.03e-01	0	44	0	850919424	60	4395
2026-01-25 05:33:32.39	298.18	14.16	-44.5	-45.7	25.7	6.03e-01	0	44	0	853016576	60	4174
2026-01-25 05:33:33.39	298.00	14.09	-44.8	-46.0	25.5	6.01e-01	0	44	0	854589440	60	4292
2026-01-25 05:33:34.40	297.82	14.01	-45.4	-46.7	24.9	6.04e-01	0	44	0	856686592	61	4437
2026-01-25 05:33:35.41	297.64	13.94	-44.8	-46.0	25.4	6.03e-01	0	44	0	858783744	61	4094
2026-01-25 05:33:36.42	297.46	13.86	-44.9	-46.1	25.4	6.00e-01	0	44	0	860356608	61	4129
2026-01-25 05:33:37.43	297.28	13.79	-45.0	-46.2	25.3	6.01e-01	0	44	0	862453760	61	4180
2026-01-25 05:33:38.44	297.11	13.71	-44.3	-45.4	26.0	6.03e-01	0	44	0	864026624	60	4048
2026-01-25 05:33:39.45	296.93	13.64	-44.5	-45.6	25.8	6.00e-01	0	44	0	866123776	60	4142
2026-01-25 05:33:40.45	296.76	13.57	-45.1	-46.4	25.2	6.01e-01	0	44	0	868220928	60	4505
2026-01-25 05:33:41.46	296.58	13.49	-44.5	-45.7	25.6	6.03e-01	0	44	0	869793792	60	4164
2026-01-25 05:33:42.47	296.41	13.42	-44.5	-45.7	25.7	6.00e-01	0	44	0	871890944	60	4157
2026-01-25 05:33:43.48	296.24	13.34	-45.4	-46.8	24.9	6.04e-01	0	44	0	873463808	61	4442
2026-01-25 05:33:44.49	296.07	13.27	-45.2	-46.5	24.6	6.01e-01	0	44	0	875560960	61	4308
2026-01-25 05:33:45.49	295.90	13.19	-45.1	-46.3	25.2	6.01e-01	0	44	0	877658112	61	4206
2026-01-25 05:33:46.50	295.73	13.12	-45.2	-46.5	25.0	6.02e-01	0	44	0	879230976	61	4318
2026-01-25 05:33:47.51	295.56	13.04	-45.0	-46.3	25.2	6.02e-01	0	44	0	881328128	61	4204
2026-01-25 05:33:48.51	295.40	12.97	-44.5	-45.6	25.8	6.03e-01	0	44	0	883425280	61	3902
2026-01-25 05:33:49.52	295.23	12.90	-44.6	-45.8	25.6	6.04e-01	0	44	0	884998144	60	4206
2026-01-25 05:33:50.53	295.07	12.82	-45.3	-46.6	25.0	6.01e-01	0	44	0	887095296	61	4359
2026-01-25 05:33:51.54	294.90	12.75	-45.2	-46.5	24.9	6.04e-01	0	44	0	888668160	61	4318
2026-01-25 05:33:52.55	294.74	12.67	-45.1	-46.3	25.3	6.01e-01	0	44	0	890765312	61	4226
2026-01-25 05:33:53.55	294.58	12.60	-45.6	-46.9	24.5	6.00e-01	0	44	0	892338176	61	4534
2026-01-25 05:33:54.56	294.42	12.52	-45.9	-47.3	24.2	6.04e-01	0	44	0	894435328	62	4452
2026-01-25 05:33:55.57	294.26	12.45	-45.6	-46.9	24.3	6.01e-01	0	44	0	896532480	62	4283
2026-01-25 05:33:56.58	294.10	12.38	-45.4	-46.6	24.9	6.01e-01	0	44	0	898105344	62	4145
2026-01-25 05:33:57.59	293.94	12.30	-45.6	-46.9	24.5	6.04e-01	0	44	0	900202496	62	4291
2026-01-25 05:33:58.59	293.78	12.23	-45.9	-47.4	24.3	6.03e-01	0	44	0	901775360	62	4512
2026-01-25 05:33:59.60	293.62	12.15	-45.2	-46.5	24.7	6.02e-01	0	44	0	903872512	62	4054
2026-01-25 05:34:00.61	293.47	12.08	-44.4	-45.5	25.9	6.02e-01	0	44	0	905969664	60	4078
2026-01-25 05:34:01.62	293.31	12.01	-45.0	-46.2	25.0	6.03e-01	0	44	0	907542528	60	4413
2026-01-25 05:34:02.63	293.16	11.93	-45.6	-47.0	24.6	6.01e-01	0	44	0	909639680	61	4551
2026-01-25 05:34:03.63	293.00	11.86	-45.3	-46.6	24.6	6.03e-01	0	44	0	911736832	61	4361
2026-01-25 05:34:04.64	292.85	11.78	-45.2	-46.4	25.0	6.03e-01	0	44	0	913309696	61	4281
2026-01-25 05:34:05.65	292.70	11.71	-45.7	-47.0	24.5	6.02e-01	0	44	0	915406848	61	4562
2026-01-25 05:34:06.66	292.55	11.64	-46.0	-47.5	24.1	6.03e-01	0	44	0	916979712	62	4550
2026-01-25 05:34:07.67	292.40	11.56	-45.5	-46.9	24.4	6.03e-01	0	44	0	919076864	62	4269
2026-01-25 05:34:08.67	292.25	11.49	-44.8	-46.0	25.1	6.01e-01	0	44	0	920649728	61	4098
2026-01-25 05:34:09.68	292.10	11.42	-44.7	-45.9	25.5	6.02e-01	0	44	0	922746880	61	4010
2026-01-25 05:34:10.69	291.95	11.34	-45.0	-46.2	25.0	6.02e-01	0	44	0	924844032	61	4168
2026-01-25 05:34:11.70	291.80	11.27	-45.4	-46.7	24.6	6.03e-01	0	44	0	926416896	61	4441
2026-01-25 05:34:12.71	291.66	11.20	-45.5	-46.8	24.4	6.03e-01	0	44	0	928514048	61	4465
2026-01-25 05:34:13.72	291.51	11.12	-45.4	-46.7	24.4	6.03e-01	0	44	0	930611200	61	4431
2026-01-25 05:34:14.73	291.37	11.05	-45.4	-46.7	24.4	6.02e-01	0	44	0	932184064	61	4424
2026-01-25 05:34:15.73	291.23	10.98	-45.4	-46.7	24.5	6.02e-01	0	44	0	934281216	61	4398
2026-01-25 05:34:16.74	291.08	10.90	-45.6	-47.0	24.3	6.03e-01	0	44	0	935854080	61	4565
2026-01-25 05:34:17.75	290.94	10.83	-45.4	-46.8	24.4	6.01e-01	0	44	0	937951232	61	4442
2026-01-25 05:34:18.76	290.80	10.76	-45.2	-46.5	24.7	6.03e-01	0	44	0	940048384	61	4311
2026-01-25 05:34:19.77	290.66	10.68	-45.3	-46.6	24.8	6.00e-01	0	44	0	941621248	61	4364
2026-01-25 05:34:20.78	290.52	10.61	-45.2	-46.5	24.8	6.00e-01	0	44	0	943718400	61	4324
2026-01-25 05:34:21.79	290.38	10.54	-45.5	-46.8	24.4	6.00e-01	0	44	0	945291264	61	4492
2026-01-25 05:34:22.79	290.24	10.47	-45.6	-47.0	24.2	6.04e-01	0	44	0	947388416	61	4571
2026-01-25 05:34:23.80	290.10	10.39	-45.3	-46.6	24.6	6.03e-01	0	44	0	948961280	61	4369
2026-01-25 05:34:24.81	289.97	10.32	-45.2	-46.5	24.6	6.03e-01	0	44	0	951058432	61	4308
2026-01-25 05:34:25.82	289.83	10.25	-45.2	-46.5	24.7	6.01e-01	0	44	0	953155584	61	4316
2026-01-25 05:34:26.83	289.69	10.18	-45.2	-46.5	24.8	6.00e-01	0	44	0	955252736	61	4316
2026-01-25 05:34:27.83	289.56	10.11	-45.4	-46.8	24.6	6.03e-01	0	44	0	956825600	61	4450
2026-01-25 05:34:28.84	289.43	10.03	-45.6	-47.0	24.4	6.05e-01	0	44	0	958922752	61	4570
2026-01-25 05:34:29.85	289.29	9.96	-45.4	-46.8	24.4	6.01e-01	0	44	0	960495616	61	4453
2026-01-25 05:34:30.85	289.16	9.89	-45.4	-46.7	24.4	6.01e-01	0	44	0	962592768	61	4413
2026-01-25 05:34:31.86	289.03	9.82	-45.2	-46.5	24.6	6.01e-01	0	44	0	964165632	61	4304
2026-01-25 05:34:32.87	288.90	9.75	-45.2	-46.5	24.6	6.00e-01	0	44	0	966262784	61	4307
2026-01-25 05:34:33.88	288.77	9.68	-45.4	-46.7	24.5	6.02e-01	0	44	0	968359936	61	4429
2026-01-25 05:34:34.89	288.64	9.60	-45.8	-47.2	24.1	6.01e-01	0	44	0	969932800	62	4423
2026-01-25 05:34:35.90	288.51	9.53	-45.9	-47.3	24.0	6.01e-01	0	44	0	972029952	62	4472
2026-01-25 05:34:36.91	288.38	9.46	-45.8	-47.2	23.9	6.05e-01	0	44	0	974127104	62	4435
2026-01-25 05:34:37.91	288.25	9.39	-45.9	-47.2	23.9	6.01e-01	0	44	0	975699968	62	4435
2026-01-25 05:34:38.92	288.13	9.32	-45.7	-47.0	24.2	6.04e-01	0	44	0	977797120	62	4323
2026-01-25 05:34:39.93	288.00	9.25	-45.5	-46.8	24.5	5.99e-01	0	44	0	979369984	62	4205
2026-01-25 05:34:40.94	287.87	9.18	-45.7	-47.0	24.2	6.02e-01	0	44	0	981467136	62	4339
2026-01-25 05:34:41.95	287.75	9.11	-45.8	-47.2	24.0	6.02e-01	0	44	0	983564288	62	4406
2026-01-25 05:34:42.95	287.62	9.04	-45.9	-47.3	23.9	6.01e-01	0	44	0	985137152	62	4478
2026-01-25 05:34:43.96	287.50	8.97	-45.8	-47.2	23.9	6.01e-01	0	44	0	987234304	62	4420
2026-01-25 05:34:44.97	287.38	8.90	-45.9	-47.3	23.9	6.01e-01	0	44	0	988807168	62	4461
2026-01-25 05:34:45.98	287.26	8.83	-45.9	-47.3	23.9	6.03e-01	0	44	0	990904320	62	4470
2026-01-25 05:34:46.99	287.13	8.75	-45.9	-47.3	23.9	6.00e-01	0	44	0	992477184	62	4459
2026-01-25 05:34:47.99	287.01	8.69	-45.9	-47.2	24.0	6.01e-01	0	44	0	994574336	62	4440
2026-01-25 05:34:49.00	286.89	8.61	-45.9	-47.3	23.9	6.03e-01	0	44	0	996671488	62	4447
2026-01-25 05:34:50.01	286.77	8.54	-45.8	-47.2	24.0	6.02e-01	0	44	0	998768640	62	4418
2026-01-25 05:34:51.02	286.65	8.47	-45.8	-47.2	24.0	6.03e-01	0	44	0	1000341504	62	4414
2026-01-25 05:34:52.03	286.54	8.41	-45.8	-47.2	24.0	6.02e-01	0	44	0	1002438656	62	4408
2026-01-25 05:34:53.03	286.42	8.34	-45.8	-47.1	24.0	6.01e-01	0	44	0	1004011520	62	4390
2026-01-25 05:34:54.04	286.30	8.27	-45.8	-47.2	24.0	6.02e-01	0	44	0	1006108672	62	4405
2026-01-25 05:34:55.05	286.19	8.20	-45.6	-47.0	24.1	6.04e-01	0	44	0	1007681536	62	4297
2026-01-25 05:34:56.06	286.07	8.13	-45.8	-47.1	24.0	6.01e-01	0	44	0	1009778688	62	4385
2026-01-25 05:34:57.07	285.95	8.06	-45.8	-47.2	23.7	6.03e-01	0	44	0	1011875840	62	4413
2026-01-25 05:34:58.08	285.84	7.99	-45.8	-47.2	23.8	6.01e-01	0	44	0	1013448704	62	4421
2026-01-25 05:34:59.09	285.72	7.92	-45.8	-47.2	23.9	6.02e-01	0	44	0	1015545856	62	4415
2026-01-25 05:35:00.09	285.61	7.85	-46.0	-47.5	23.7	6.02e-01	0	44	0	1017118720	62	4551
2026-01-25 05:35:01.10	285.50	7.78	-45.8	-47.2	24.1	6.02e-01	0	44	0	1019215872	62	4413
2026-01-25 05:35:02.11	285.39	7.71	-46.1	-47.5	23.8	6.05e-01	0	44	0	1021313024	62	4570
2026-01-25 05:35:03.12	285.27	7.65	-46.2	-47.6	23.7	6.01e-01	0	44	0	1022885888	62	4631
2026-01-25 05:35:04.13	285.16	7.58	-46.3	-47.7	23.6	6.03e-01	0	44	0	1024983040	63	4441
2026-01-25 05:35:05.13	285.05	7.51	-46.1	-47.6	23.7	6.03e-01	0	44	0	1027080192	63	4362
2026-01-25 05:35:06.14	284.94	7.44	-46.1	-47.6	23.6	6.00e-01	0	44	0	1028653056	63	4357
2026-01-25 05:35:07.15	284.83	7.37	-46.1	-47.5	23.8	5.99e-01	0	44	0	1030750208	63	4328
2026-01-25 05:35:08.16	284.73	7.30	-46.1	-47.5	23.7	6.02e-01	0	44	0	1032323072	63	4337
2026-01-25 05:35:09.17	284.62	7.24	-46.1	-47.5	23.8	6.02e-01	0	44	0	1034420224	63	4319
2026-01-25 05:35:10.18	284.51	7.17	-46.2	-47.7	23.6	6.02e-01	0	44	0	1035993088	63	4400
2026-01-25 05:35:11.19	284.40	7.10	-46.0	-47.4	23.9	6.04e-01	0	44	0	1038090240	63	4271
2026-01-25 05:35:12.19	284.30	7.03	-46.1	-47.5	23.7	6.02e-01	0	44	0	1040187392	63	4310
2026-01-25 05:35:13.20	284.19	6.97	-46.0	-47.5	23.8	6.03e-01	0	44	0	1041760256	63	4302
2026-01-25 05:35:14.21	284.08	6.90	-46.2	-47.7	23.6	6.01e-01	0	44	0	1043857408	63	4416
2026-01-25 05:35:15.22	283.98	6.83	-46.3	-47.8	23.4	6.02e-01	0	44	0	1045954560	63	4475
2026-01-25 05:35:16.23	283.87	6.76	-46.4	-48.0	23.3	6.03e-01	0	44	0	1047527424	63	4558
2026-01-25 05:35:17.23	283.77	6.70	-46.5	-48.0	23.2	6.03e-01	0	44	0	1049624576	63	4591
2026-01-25 05:35:18.24	283.67	6.63	-46.5	-48.1	23.1	6.00e-01	0	44	0	1051197440	63	4613
2026-01-25 05:35:19.25	283.57	6.56	-46.5	-48.1	23.1	6.01e-01	0	44	0	1053294592	63	4601
2026-01-25 05:35:20.26	283.46	6.50	-46.5	-48.0	23.2	6.03e-01	0	44	0	1055391744	63	4577
2026-01-25 05:35:21.27	283.36	6.43	-46.6	-48.1	23.0	6.03e-01	0	44	0	1056964608	63	4642
2026-01-25 05:35:22.28	283.26	6.36	-46.4	-47.9	23.3	6.04e-01	0	44	0	1059061760	63	4536
2026-01-25 05:35:23.29	283.16	6.30	-46.4	-47.9	23.3	6.04e-01	0	44	0	1060634624	63	4500
2026-01-25 05:35:24.29	283.06	6.23	-46.3	-47.8	23.4	6.02e-01	0	44	0	1062731776	63	4455
2026-01-25 05:35:25.30	282.96	6.16	-46.3	-47.8	23.4	6.02e-01	0	44	0	1064304640	63	4451
2026-01-25 05:35:26.31	282.86	6.10	-46.4	-47.9	23.2	6.03e-01	0	44	0	1066401792	63	4533
2026-01-25 05:35:27.32	282.76	6.03	-46.4	-47.9	23.2	6.02e-01	0	44	0	1068498944	63	4514
2026-01-25 05:35:28.33	282.66	5.97	-46.7	-48.3	22.9	6.05e-01	0	44	0	1070071808	63	4718
2026-01-25 05:35:29.33	282.57	5.90	-46.5	-48.1	23.0	6.03e-01	0	44	0	1072168960	64	4365
2026-01-25 05:35:30.34	282.47	5.84	-46.7	-48.4	22.7	6.02e-01	0	44	0	1074266112	64	4495
2026-01-25 05:35:31.35	282.37	5.77	-46.6	-48.2	22.8	6.02e-01	0	44	0	1075838976	64	4413
2026-01-25 05:35:32.36	282.28	5.70	-46.5	-48.1	22.9	6.03e-01	0	44	0	1077936128	64	4362
2026-01-25 05:35:33.37	282.18	5.64	-46.6	-48.2	22.8	6.02e-01	0	44	0	1079508992	64	4435
2026-01-25 05:35:34.37	282.09	5.57	-46.3	-47.8	23.1	6.04e-01	0	44	0	1081606144	64	4242
2026-01-25 05:35:35.38	281.99	5.51	-46.6	-48.2	22.8	6.04e-01	0	44	0	1083703296	64	4414
2026-01-25 05:35:36.39	281.90	5.44	-46.5	-48.1	22.9	6.02e-01	0	44	0	1085276160	64	4359
2026-01-25 05:35:37.40	281.80	5.38	-46.4	-47.9	23.0	6.01e-01	0	45	0	1087373312	64	4263
2026-01-25 05:35:38.41	281.71	5.31	-46.6	-48.2	22.8	6.02e-01	0	44	0	1089470464	64	4399
2026-01-25 05:35:39.41	281.62	5.25	-46.7	-48.3	22.6	6.02e-01	0	44	0	1091043328	64	4475
2026-01-25 05:35:40.42	281.52	5.19	-46.8	-48.5	22.5	6.04e-01	0	44	0	1093140480	64	4551
2026-01-25 05:35:41.43	281.43	5.12	-46.6	-48.2	22.7	6.02e-01	0	44	0	1094713344	64	4410
2026-01-25 05:35:42.44	281.34	5.06	-46.8	-48.5	22.4	6.03e-01	0	44	0	1096810496	64	4578
2026-01-25 05:35:43.45	281.25	4.99	-47.0	-48.7	22.3	6.02e-01	0	44	0	1098383360	64	4700
2026-01-25 05:35:44.45	281.16	4.93	-54.3	-71.2	3.9	7.43e-01	0	44	104	1099956224	79	26354
2026-01-25 05:35:45.46	281.07	4.86	-54.7	-72.4	3.8	7.48e-01	0	44	104	1099956224	79	30248
2026-01-25 05:35:46.47	280.98	4.80	-54.8	-72.5	3.8	7.48e-01	0	44	104	1099956224	80	28949
2026-01-25 05:35:47.48	280.89	4.74	-54.9	-72.7	3.8	7.47e-01	0	44	104	1099956224	80	29509
2026-01-25 05:35:48.49	280.80	4.67	-55.1	-72.9	3.8	7.42e-01	0	45	104	1099956224	80	30235
2026-01-25 05:35:49.49	280.71	4.61	-55.2	-73.0	3.8	7.42e-01	0	44	104	1099956224	80	30581
2026-01-25 05:35:50.50	280.63	4.55	-55.3	-73.1	3.8	7.46e-01	0	44	104	1099956224	81	29210
2026-01-25 05:35:51.51	280.54	4.48	-55.4	-73.2	3.8	7.44e-01	0	44	104	1099956224	81	29579
2026-01-25 05:35:52.52	280.45	4.42	-55.5	-73.3	3.8	7.47e-01	0	44	104	1099956224	81	29889
2026-01-25 05:35:53.53	280.36	4.36	-55.5	-73.4	3.8	7.43e-01	0	44	104	1099956224	81	30148
2026-01-25 05:35:54.53	280.28	4.29	-55.6	-73.4	3.8	7.46e-01	0	45	104	1099956224	81	30274
2026-01-25 05:35:55.54	280.19	4.23	-55.7	-73.5	3.8	7.44e-01	0	44	104	1099956224	81	30481
2026-01-25 05:35:56.55	280.11	4.17	-55.7	-73.5	3.8	7.45e-01	0	45	104	1099956224	81	30596
2026-01-25 05:35:57.56	280.02	4.10	-55.8	-73.6	3.8	7.44e-01	0	44	104	1099956224	82	29142
2026-01-25 05:35:58.57	279.94	4.04	-55.8	-73.6	3.8	7.46e-01	0	44	104	1099956224	82	29158
2026-01-25 05:35:59.57	279.85	3.98	-55.8	-73.6	3.8	7.46e-01	0	45	104	1099956224	82	29295
2026-01-25 05:36:00.58	279.77	3.92	-55.8	-73.6	3.8	7.46e-01	0	44	104	1099956224	82	29250
2026-01-25 05:36:01.59	279.69	3.86	-55.8	-73.6	3.8	7.44e-01	0	44	104	1099956224	82	29208
2026-01-25 05:36:02.60	279.60	3.79	-55.8	-73.6	3.8	7.46e-01	0	44	104	1099956224	82	29128
2026-01-25 05:36:03.60	279.52	3.73	-55.7	-73.6	3.8	7.47e-01	0	45	104	1099956224	82	29059
2026-01-25 05:36:04.61	279.44	3.67	-55.7	-73.6	3.8	7.44e-01	0	45	104	1099956224	82	29099
2026-01-25 05:36:05.62	279.36	3.61	-55.7	-73.5	3.8	7.46e-01	0	44	104	1099956224	82	29007
2026-01-25 05:36:06.63	279.28	3.55	-55.7	-73.5	3.8	7.45e-01	0	45	104	1099956224	82	28915
2026-01-25 05:36:07.64	279.19	3.48	-55.7	-73.5	3.8	7.46e-01	0	45	104	1099956224	82	28740
2026-01-25 05:36:08.65	279.11	3.42	-55.6	-73.5	3.8	7.45e-01	0	45	104	1099956224	82	28745
2026-01-25 05:36:09.65	279.03	3.36	-55.6	-73.4	3.8	7.43e-01	0	45	104	1099956224	82	28666
2026-01-25 05:36:10.66	278.95	3.30	-55.6	-73.4	3.8	7.49e-01	0	45	104	1099956224	82	28518
2026-01-25 05:36:11.67	278.87	3.24	-55.6	-73.4	3.8	7.47e-01	0	45	104	1099956224	82	28540
2026-01-25 05:36:12.68	278.80	3.18	-55.5	-73.4	3.8	7.45e-01	0	44	104	1099956224	82	28396
2026-01-25 05:36:13.69	278.72	3.12	-55.5	-73.3	3.8	7.46e-01	0	45	104	1099956224	82	28276
2026-01-25 05:36:14.69	278.64	3.06	-55.5	-73.3	3.8	7.45e-01	0	45	104	1099956224	82	28248
2026-01-25 05:36:15.70	278.56	2.99	-55.5	-73.3	3.8	7.42e-01	0	45	104	1099956224	82	28231
2026-01-25 05:36:16.71	278.48	2.93	-55.5	-73.3	3.8	7.45e-01	0	45	104	1099956224	82	28173
2026-01-25 05:36:17.72	278.41	2.87	-55.4	-73.3	3.8	7.44e-01	0	44	104	1099956224	82	28157
2026-01-25 05:36:18.73	278.33	2.81	-55.4	-73.3	3.8	7.47e-01	0	45	104	1099956224	82	28144
2026-01-25 05:36:19.73	278.25	2.75	-55.4	-73.3	3.8	7.45e-01	0	44	104	1099956224	82	28116
2026-01-25 05:36:20.74	278.18	2.69	-55.4	-73.3	3.8	7.48e-01	0	44	104	1099956224	82	28103
2026-01-25 05:36:21.75	278.10	2.63	-55.4	-73.3	3.8	7.40e-01	0	45	104	1099956224	82	28068
2026-01-25 05:36:22.76	278.03	2.57	-55.4	-73.3	3.8	7.43e-01	0	45	104	1099956224	82	28137
2026-01-25 05:36:23.77	277.95	2.51	-55.4	-73.3	3.8	7.49e-01	0	45	104	1099956224	82	28112
2026-01-25 05:36:24.77	277.88	2.45	-55.4	-73.3	3.8	7.51e-01	0	44	104	1099956224	82	28052
2026-01-25 05:36:25.78	277.80	2.39	-55.4	-73.3	3.8	7.43e-01	0	45	104	1099956224	82	28049
2026-01-25 05:36:26.79	277.73	2.33	-55.4	-73.2	3.8	7.43e-01	0	45	104	1099956224	82	28000
2026-01-25 05:36:27.80	277.65	2.27	-55.4	-73.2	3.8	7.44e-01	0	45	104	1099956224	82	27961
2026-01-25 05:36:28.81	277.58	2.21	-55.4	-73.2	3.8	7.41e-01	0	45	104	1099956224	82	27998
2026-01-25 05:36:29.81	277.51	2.15	-55.4	-73.2	3.8	7.43e-01	0	44	104	1099956224	82	27956
2026-01-25 05:36:30.82	277.43	2.09	-55.4	-73.2	3.8	7.46e-01	0	45	104	1099956224	82	27938
2026-01-25 05:36:31.83	277.36	2.03	-55.4	-73.2	3.8	7.44e-01	0	45	104	1099956224	82	27909
2026-01-25 05:36:32.84	277.29	1.98	-55.4	-73.2	3.8	7.44e-01	0	45	104	1099956224	82	27926

#Closed at: 2026-01-25 05:36:33
#Recorded file [1099 MB]: D:/lorett/data/31041_260125_082519.dat