passes_logs/2026/01/25/R3.2S_Murmansk/R3.2S_Murmansk__20260125_234534_NOAA_20_JPSS-1_rec.log

#Pass ID: 20260125_234534_NOAA 20 (JPSS-1)
#Satellite: NOAA 20 (JPSS-1)
#Configuration: NOAA 20
#almurnet v.1.7.20251203
#Start time: 2026-01-25 23:45:35

#Version: 2.2.20231116
#Station: R3.2S_Murmansk
#Location: 33.079688 lon 68.888172 lat
#TLE: 1 43013U 17073A   26025.47986292  .00000161  00000+0  97249-4 0  9993
#TLE: 2 43013  98.7646 326.3091 0001052  24.2709 335.8516 14.19540188424225

#Time	Az	El	Level	Level2	SNR	BER	BlckErr	Temp	State	Recorded	gain1	gain2
2026-01-25 23:45:35.21	21.54	2.06	-53.8	-68.8	3.8	1.49e+00	0	41	0	0	78	21160
2026-01-25 23:45:36.20	21.57	2.12	-53.8	-68.9	3.8	1.49e+00	0	41	104	0	78	21282
2026-01-25 23:45:37.21	21.60	2.18	-53.8	-68.8	3.8	1.49e+00	0	41	104	0	78	21235
2026-01-25 23:45:38.22	21.63	2.25	-53.9	-68.8	3.8	1.49e+00	0	41	104	0	78	21219
2026-01-25 23:45:39.23	21.66	2.31	-54.0	-69.0	3.8	1.49e+00	0	41	104	0	78	21516
2026-01-25 23:45:40.24	21.69	2.37	-54.0	-69.0	3.8	1.49e+00	0	42	104	0	78	21604
2026-01-25 23:45:41.25	21.72	2.44	-54.0	-69.0	3.8	1.49e+00	0	42	104	0	78	21677
2026-01-25 23:45:42.26	21.75	2.50	-54.0	-69.0	3.8	1.49e+00	0	42	104	0	78	21636
2026-01-25 23:45:43.26	21.78	2.57	-54.0	-69.0	3.8	1.49e+00	0	42	104	0	78	21697
2026-01-25 23:45:44.27	21.81	2.63	-54.0	-69.0	3.8	1.49e+00	0	42	104	0	78	21629
2026-01-25 23:45:45.28	21.84	2.69	-54.0	-69.0	3.8	1.49e+00	0	42	104	0	78	21652
2026-01-25 23:45:46.29	21.88	2.76	-54.0	-69.0	3.8	1.49e+00	0	42	104	0	78	21582
2026-01-25 23:45:47.30	21.91	2.82	-53.9	-68.9	3.8	1.49e+00	0	42	104	0	78	21448
2026-01-25 23:45:48.31	21.94	2.89	-53.9	-68.9	3.8	1.49e+00	0	42	104	0	78	21319
2026-01-25 23:45:49.31	21.97	2.95	-53.9	-68.9	3.8	1.49e+00	0	42	104	0	78	21343
2026-01-25 23:45:50.32	22.00	3.02	-53.9	-68.9	3.8	1.49e+00	0	42	104	0	78	21338
2026-01-25 23:45:51.33	22.03	3.08	-53.9	-68.8	3.8	1.49e+00	0	42	104	0	78	21201
2026-01-25 23:45:52.34	22.06	3.15	-53.8	-68.8	3.8	1.49e+00	0	42	104	0	78	21087
2026-01-25 23:45:53.35	22.09	3.21	-53.7	-68.7	3.8	1.49e+00	0	42	104	0	78	20970
2026-01-25 23:45:54.36	22.13	3.28	-53.7	-68.6	3.8	1.49e+00	0	42	104	0	78	20713
2026-01-25 23:45:55.37	22.16	3.34	-53.6	-68.5	3.8	1.49e+00	0	42	104	0	78	20506
2026-01-25 23:45:56.38	22.19	3.41	-53.4	-68.4	3.8	1.49e+00	0	42	104	0	78	20148
2026-01-25 23:45:57.39	22.22	3.48	-53.3	-68.3	3.8	1.49e+00	0	42	104	0	78	19960
2026-01-25 23:45:58.39	22.26	3.54	-53.2	-68.1	3.8	1.49e+00	0	42	104	0	78	19554
2026-01-25 23:45:59.40	22.29	3.61	-52.9	-67.9	3.8	1.49e+00	0	42	104	0	77	20146
2026-01-25 23:46:00.41	22.32	3.67	-52.6	-67.4	3.8	1.49e+00	0	42	104	0	77	19090
2026-01-25 23:46:01.41	22.35	3.74	-52.0	-64.2	3.9	1.49e+00	0	42	104	0	76	14008
2026-01-25 23:46:02.42	22.39	3.81	-51.5	-59.7	6.2	8.39e-01	0	42	0	0	74	9329
2026-01-25 23:46:03.42	22.42	3.87	-51.2	-58.4	7.3	1.58e-01	0	42	0	2097152	74	8071
2026-01-25 23:46:04.43	22.45	3.94	-50.5	-55.8	9.9	2.47e-02	0	42	0	4194304	73	6340
2026-01-25 23:46:05.44	22.48	4.01	-50.1	-54.6	11.4	2.17e-03	0	42	0	6291456	71	6167
2026-01-25 23:46:06.45	22.52	4.08	-49.8	-53.9	12.0	3.40e-04	0	42	0	7340032	71	5694
2026-01-25 23:46:07.46	22.55	4.14	-49.1	-52.4	13.5	2.13e-05	0	42	0	9437184	70	5077
2026-01-25 23:46:08.47	22.59	4.21	-48.7	-51.8	14.2	3.00e-06	0	42	0	11534336	69	5005
2026-01-25 23:46:09.48	22.62	4.28	-48.3	-51.1	14.9	0.00e+00	0	42	0	13631488	68	4879
2026-01-25 23:46:10.49	22.65	4.35	-48.5	-51.3	14.7	0.00e+00	0	42	0	15728640	68	5031
2026-01-25 23:46:11.49	22.69	4.42	-47.6	-49.9	16.0	0.00e+00	0	42	0	16777216	67	4520
2026-01-25 23:46:12.50	22.72	4.48	-47.6	-50.0	16.0	0.00e+00	0	42	0	18874368	66	4850
2026-01-25 23:46:13.51	22.76	4.55	-47.3	-49.5	16.5	0.00e+00	0	42	0	20971520	66	4562
2026-01-25 23:46:14.51	22.79	4.62	-47.6	-50.0	16.0	0.00e+00	0	42	0	23068672	66	4837
2026-01-25 23:46:15.52	22.82	4.69	-47.9	-50.5	15.5	0.00e+00	0	42	0	25165824	66	5112
2026-01-25 23:46:16.53	22.86	4.76	-48.3	-51.1	14.8	0.00e+00	0	42	0	27262976	67	5189
2026-01-25 23:46:17.54	22.89	4.83	-48.9	-52.0	13.9	7.00e-07	0	42	0	28311552	68	5451
2026-01-25 23:46:18.55	22.93	4.90	-49.2	-52.7	13.3	9.10e-06	0	42	0	30408704	69	5563
2026-01-25 23:46:19.55	22.96	4.97	-49.9	-54.1	11.9	2.04e-04	0	42	0	32505856	70	6192
2026-01-25 23:46:20.56	23.00	5.04	-50.4	-55.5	10.4	3.01e-03	0	42	0	34603008	71	6842
2026-01-25 23:46:21.57	23.03	5.11	-48.2	-50.7	15.1	1.81e-02	0	42	0	35651584	68	4699
2026-01-25 23:46:22.57	23.07	5.18	-47.4	-49.5	16.5	0.00e+00	0	42	0	37748736	66	4586
2026-01-25 23:46:23.58	23.11	5.25	-50.8	-56.8	9.8	2.20e-06	0	43	0	39845888	72	7470
2026-01-25 23:46:24.59	23.14	5.32	-51.2	-58.4	4.8	1.49e+00	0	43	104	39845888	74	8066
2026-01-25 23:46:25.59	23.18	5.39	-47.2	-49.3	16.7	2.17e-04	0	42	0	40894464	66	4485
2026-01-25 23:46:26.61	23.21	5.46	-48.1	-50.6	15.5	3.80e-06	0	42	0	41943040	68	4646
2026-01-25 23:46:27.61	23.25	5.53	-47.5	-49.8	16.4	0.00e+00	0	42	0	44040192	66	4720
2026-01-25 23:46:28.62	23.29	5.60	-47.4	-49.5	16.6	0.00e+00	0	42	0	46137344	66	4583
2026-01-25 23:46:29.63	23.32	5.67	-47.4	-49.6	16.6	0.00e+00	0	42	0	48234496	66	4609
2026-01-25 23:46:30.63	23.36	5.74	-47.2	-49.3	16.9	0.00e+00	0	43	0	50331648	66	4461
2026-01-25 23:46:31.64	23.40	5.82	-47.2	-49.3	16.9	0.00e+00	0	43	0	52428800	66	4472
2026-01-25 23:46:32.65	23.43	5.89	-47.4	-49.6	16.6	0.00e+00	0	43	0	53477376	66	4607
2026-01-25 23:46:33.65	23.47	5.96	-47.2	-49.3	16.8	0.00e+00	0	43	0	55574528	66	4491
2026-01-25 23:46:34.66	23.51	6.03	-47.2	-49.3	16.9	0.00e+00	0	43	0	57671680	66	4490
2026-01-25 23:46:35.67	23.55	6.10	-47.4	-49.6	16.6	0.00e+00	0	43	0	59768832	66	4607
2026-01-25 23:46:36.67	23.58	6.18	-46.9	-48.8	17.4	0.00e+00	0	43	0	60817408	65	4472
2026-01-25 23:46:37.68	23.62	6.25	-47.1	-49.1	17.1	0.00e+00	0	43	0	62914560	65	4616
2026-01-25 23:46:38.68	23.66	6.32	-47.1	-49.2	17.0	0.00e+00	0	43	0	65011712	65	4676
2026-01-25 23:46:39.69	23.70	6.40	-47.0	-49.1	17.2	0.00e+00	0	43	0	67108864	65	4601
2026-01-25 23:46:40.69	23.74	6.47	-46.9	-48.8	17.4	0.00e+00	0	43	0	69206016	65	4485
2026-01-25 23:46:41.70	23.77	6.54	-46.8	-48.7	17.5	0.00e+00	0	43	0	70254592	65	4437
2026-01-25 23:46:42.70	23.81	6.62	-46.7	-48.6	17.6	0.00e+00	0	43	0	72351744	65	4378
2026-01-25 23:46:43.71	23.85	6.69	-46.8	-48.8	17.5	0.00e+00	0	43	0	74448896	65	4445
2026-01-25 23:46:44.72	23.89	6.76	-47.1	-49.1	17.2	0.00e+00	0	43	0	76546048	65	4608
2026-01-25 23:46:45.73	23.93	6.84	-47.0	-49.0	17.3	0.00e+00	0	43	0	78643200	65	4555
2026-01-25 23:46:46.73	23.97	6.91	-46.9	-48.9	17.4	0.00e+00	0	43	0	80740352	65	4495
2026-01-25 23:46:47.74	24.01	6.99	-46.8	-48.7	17.6	0.00e+00	0	43	0	81788928	65	4415
2026-01-25 23:46:48.74	24.05	7.06	-46.9	-48.9	17.4	0.00e+00	0	43	0	83886080	65	4519
2026-01-25 23:46:49.75	24.09	7.14	-46.6	-48.4	17.9	0.00e+00	0	43	0	85983232	65	4245
2026-01-25 23:46:50.75	24.13	7.21	-46.8	-48.6	17.7	0.00e+00	0	43	0	88080384	65	4389
2026-01-25 23:46:51.76	24.17	7.29	-46.8	-48.7	17.6	0.00e+00	0	43	0	89128960	65	4408
2026-01-25 23:46:52.77	24.21	7.36	-46.8	-48.7	17.6	0.00e+00	0	43	0	91226112	65	4437
2026-01-25 23:46:53.77	24.25	7.44	-47.0	-49.0	17.3	0.00e+00	0	43	0	93323264	65	4585
2026-01-25 23:46:54.78	24.29	7.52	-46.8	-48.7	17.6	0.00e+00	0	43	0	95420416	65	4414
2026-01-25 23:46:55.79	24.33	7.59	-46.7	-48.5	17.9	0.00e+00	0	43	0	97517568	65	4306
2026-01-25 23:46:56.79	24.37	7.67	-46.5	-48.3	18.1	0.00e+00	0	43	0	98566144	65	4196
2026-01-25 23:46:57.80	24.41	7.75	-46.6	-48.4	18.0	0.00e+00	0	43	0	100663296	65	4265
2026-01-25 23:46:58.81	24.46	7.82	-46.7	-48.5	17.9	0.00e+00	0	43	0	102760448	65	4306
2026-01-25 23:46:59.81	24.50	7.90	-46.8	-48.7	17.7	0.00e+00	0	43	0	104857600	65	4415
2026-01-25 23:47:00.82	24.54	7.98	-46.7	-48.6	17.8	0.00e+00	0	43	0	106954752	65	4353
2026-01-25 23:47:01.82	24.58	8.06	-46.6	-48.3	18.0	0.00e+00	0	43	0	109051904	65	4237
2026-01-25 23:47:02.83	24.62	8.13	-46.5	-48.3	18.1	0.00e+00	0	43	0	110100480	65	4206
2026-01-25 23:47:03.84	24.67	8.21	-46.5	-48.3	18.1	0.00e+00	0	43	0	112197632	65	4211
2026-01-25 23:47:04.85	24.71	8.29	-46.5	-48.3	18.1	0.00e+00	0	43	0	114294784	64	4475
2026-01-25 23:47:05.85	24.75	8.37	-46.4	-48.1	18.3	0.00e+00	0	43	0	116391936	64	4388
2026-01-25 23:47:06.86	24.80	8.45	-46.4	-48.1	18.3	0.00e+00	0	43	0	117440512	64	4391
2026-01-25 23:47:07.86	24.84	8.53	-46.6	-48.4	18.0	0.00e+00	0	43	0	119537664	64	4509
2026-01-25 23:47:08.87	24.88	8.61	-46.6	-48.4	18.0	0.00e+00	0	43	0	121634816	64	4526
2026-01-25 23:47:09.88	24.93	8.69	-46.5	-48.3	18.2	0.00e+00	0	43	0	123731968	64	4448
2026-01-25 23:47:10.88	24.97	8.77	-46.4	-48.1	18.3	0.00e+00	0	43	0	125829120	64	4371
2026-01-25 23:47:11.89	25.02	8.85	-46.2	-47.9	18.5	0.00e+00	0	43	0	126877696	64	4254
2026-01-25 23:47:12.89	25.06	8.93	-46.4	-48.1	18.4	0.00e+00	0	43	0	128974848	64	4352
2026-01-25 23:47:13.90	25.11	9.01	-46.3	-48.0	18.5	0.00e+00	0	43	0	131072000	64	4301
2026-01-25 23:47:14.91	25.15	9.09	-46.2	-47.8	18.7	0.00e+00	0	43	0	133169152	64	4224
2026-01-25 23:47:15.92	25.20	9.17	-46.4	-48.1	18.4	0.00e+00	0	43	0	135266304	64	4351
2026-01-25 23:47:16.93	25.24	9.25	-46.4	-48.1	18.4	0.00e+00	0	43	0	137363456	64	4348
2026-01-25 23:47:17.93	25.29	9.33	-46.2	-47.9	18.6	0.00e+00	0	43	0	138412032	64	4245
2026-01-25 23:47:18.94	25.33	9.42	-46.2	-47.9	18.7	0.00e+00	0	43	0	140509184	64	4255
2026-01-25 23:47:19.95	25.38	9.50	-46.2	-47.8	18.7	0.00e+00	0	43	0	142606336	64	4231
2026-01-25 23:47:20.95	25.42	9.58	-46.1	-47.6	18.9	0.00e+00	0	43	0	144703488	64	4145
2026-01-25 23:47:21.96	25.47	9.66	-46.1	-47.8	18.8	0.00e+00	0	43	0	146800640	64	4199
2026-01-25 23:47:22.96	25.52	9.75	-46.1	-47.7	18.8	0.00e+00	0	43	0	147849216	64	4183
2026-01-25 23:47:23.96	25.56	9.83	-46.1	-47.7	18.9	0.00e+00	0	43	0	149946368	64	4158
2026-01-25 23:47:24.97	25.61	9.91	-46.2	-47.8	18.7	0.00e+00	0	43	0	152043520	64	4213
2026-01-25 23:47:25.98	25.66	10.00	-46.1	-47.7	18.8	0.00e+00	0	43	0	154140672	64	4181
2026-01-25 23:47:26.98	25.71	10.08	-46.2	-47.8	18.7	0.00e+00	0	43	0	155189248	64	4229
2026-01-25 23:47:27.98	25.76	10.17	-46.1	-47.7	18.8	0.00e+00	0	43	0	157286400	64	4192
2026-01-25 23:47:28.99	25.80	10.25	-46.1	-47.6	18.9	0.00e+00	0	43	0	159383552	64	4139
2026-01-25 23:47:30.00	25.85	10.34	-46.0	-47.5	19.0	0.00e+00	0	43	0	161480704	64	4093
2026-01-25 23:47:31.01	25.90	10.42	-46.0	-47.6	19.1	0.00e+00	0	43	0	163577856	63	4368
2026-01-25 23:47:32.01	25.95	10.51	-46.0	-47.6	19.1	0.00e+00	0	43	0	165675008	63	4349
2026-01-25 23:47:33.02	26.00	10.59	-46.0	-47.5	19.1	0.00e+00	0	43	0	166723584	63	4335
2026-01-25 23:47:34.02	26.05	10.68	-46.0	-47.6	19.1	0.00e+00	0	43	0	168820736	63	4361
2026-01-25 23:47:35.03	26.10	10.76	-46.0	-47.6	19.1	0.00e+00	0	43	0	170917888	63	4354
2026-01-25 23:47:36.04	26.15	10.85	-46.1	-47.6	19.0	0.00e+00	0	43	0	173015040	63	4385
2026-01-25 23:47:37.05	26.20	10.94	-46.1	-47.7	19.0	0.00e+00	0	43	0	175112192	63	4401
2026-01-25 23:47:38.05	26.25	11.02	-46.1	-47.7	19.0	0.00e+00	0	43	0	176160768	63	4400
2026-01-25 23:47:39.05	26.30	11.11	-46.0	-47.5	19.1	0.00e+00	0	43	0	178257920	63	4328
2026-01-25 23:47:40.06	26.35	11.20	-45.9	-47.5	19.2	0.00e+00	0	43	0	180355072	63	4299
2026-01-25 23:47:41.06	26.40	11.29	-46.0	-47.5	19.2	0.00e+00	0	43	0	182452224	63	4332
2026-01-25 23:47:42.07	26.46	11.38	-46.0	-47.5	19.1	0.00e+00	0	43	0	183500800	63	4323
2026-01-25 23:47:43.07	26.51	11.46	-46.0	-47.5	19.2	0.00e+00	0	43	0	185597952	63	4320
2026-01-25 23:47:44.08	26.56	11.55	-46.1	-47.7	19.0	0.00e+00	0	43	0	187695104	63	4410
2026-01-25 23:47:45.09	26.61	11.64	-46.1	-47.6	19.1	0.00e+00	0	43	0	189792256	63	4373
2026-01-25 23:47:46.09	26.66	11.73	-46.2	-47.8	18.9	0.00e+00	0	43	0	191889408	63	4466
2026-01-25 23:47:47.10	26.72	11.82	-45.9	-47.5	19.2	0.00e+00	0	43	0	192937984	63	4302
2026-01-25 23:47:48.10	26.77	11.91	-45.8	-47.3	19.4	0.00e+00	0	43	0	195035136	63	4227
2026-01-25 23:47:49.11	26.83	12.00	-45.8	-47.3	19.4	0.00e+00	0	43	0	197132288	63	4216
2026-01-25 23:47:50.12	26.88	12.09	-45.6	-47.0	19.7	0.00e+00	0	43	0	199229440	63	4068
2026-01-25 23:47:51.12	26.93	12.18	-45.7	-47.1	19.6	0.00e+00	0	43	0	201326592	63	4128
2026-01-25 23:47:52.13	26.99	12.28	-45.6	-47.0	19.7	0.00e+00	0	43	0	203423744	63	4098
2026-01-25 23:47:53.14	27.04	12.37	-45.6	-47.0	19.7	0.00e+00	0	43	0	204472320	63	4097
2026-01-25 23:47:54.14	27.10	12.46	-45.7	-47.1	19.6	0.00e+00	0	43	0	206569472	63	4120
2026-01-25 23:47:55.15	27.15	12.55	-45.5	-46.9	19.9	0.00e+00	0	43	0	208666624	62	4246
2026-01-25 23:47:56.15	27.21	12.64	-45.3	-46.7	20.0	0.00e+00	0	43	0	210763776	62	4151
2026-01-25 23:47:57.16	27.27	12.74	-45.4	-46.8	19.9	0.00e+00	0	43	0	211812352	62	4216
2026-01-25 23:47:58.16	27.32	12.83	-45.4	-46.7	20.0	0.00e+00	0	43	0	213909504	62	4182
2026-01-25 23:47:59.17	27.38	12.92	-45.3	-46.7	20.1	0.00e+00	0	43	0	216006656	62	4161
2026-01-25 23:48:00.18	27.44	13.02	-45.5	-46.9	19.9	0.00e+00	0	43	0	218103808	62	4270
2026-01-25 23:48:01.18	27.50	13.11	-45.6	-47.0	19.8	0.00e+00	0	43	0	220200960	62	4300
2026-01-25 23:48:02.19	27.55	13.21	-45.4	-46.8	20.0	0.00e+00	0	43	0	221249536	62	4199
2026-01-25 23:48:03.20	27.61	13.30	-45.4	-46.7	20.0	0.00e+00	0	43	0	223346688	62	4193
2026-01-25 23:48:04.20	27.67	13.40	-45.3	-46.6	20.2	0.00e+00	0	43	0	225443840	62	4130
2026-01-25 23:48:05.21	27.73	13.49	-45.3	-46.6	20.2	0.00e+00	0	43	0	227540992	62	4131
2026-01-25 23:48:06.21	27.79	13.59	-45.2	-46.6	20.2	0.00e+00	0	43	0	229638144	62	4110
2026-01-25 23:48:07.22	27.85	13.69	-45.2	-46.6	20.2	0.00e+00	0	43	0	231735296	62	4124
2026-01-25 23:48:08.23	27.91	13.78	-45.3	-46.7	20.2	0.00e+00	0	43	0	232783872	62	4149
2026-01-25 23:48:09.23	27.97	13.88	-45.1	-46.5	20.3	0.00e+00	0	43	0	234881024	62	4061
2026-01-25 23:48:10.24	28.03	13.98	-45.1	-46.4	20.4	0.00e+00	0	43	0	236978176	62	4024
2026-01-25 23:48:11.25	28.09	14.08	-45.1	-46.4	20.4	0.00e+00	0	43	0	239075328	62	4042
2026-01-25 23:48:12.26	28.15	14.18	-45.0	-46.3	20.5	0.00e+00	0	43	0	240123904	62	3965
2026-01-25 23:48:13.26	28.21	14.27	-45.1	-46.4	20.4	0.00e+00	0	43	0	242221056	62	4029
2026-01-25 23:48:14.27	28.28	14.37	-45.1	-46.5	20.4	0.00e+00	0	43	0	244318208	62	4052
2026-01-25 23:48:15.27	28.34	14.47	-45.0	-46.3	20.5	0.00e+00	0	43	0	246415360	62	3988
2026-01-25 23:48:16.28	28.40	14.57	-44.9	-46.2	20.6	0.00e+00	0	43	0	248512512	61	4174
2026-01-25 23:48:17.29	28.47	14.67	-44.9	-46.1	20.7	0.00e+00	0	43	0	249561088	61	4134
2026-01-25 23:48:18.29	28.53	14.77	-44.9	-46.2	20.7	0.00e+00	0	43	0	251658240	61	4163
2026-01-25 23:48:19.30	28.59	14.88	-44.9	-46.2	20.6	0.00e+00	0	43	0	253755392	61	4175
2026-01-25 23:48:20.30	28.66	14.98	-45.0	-46.3	20.6	0.00e+00	0	43	0	255852544	61	4200
2026-01-25 23:48:21.31	28.72	15.08	-44.9	-46.2	20.6	0.00e+00	0	43	0	257949696	61	4157
2026-01-25 23:48:22.32	28.79	15.18	-44.7	-45.9	20.9	0.00e+00	0	43	0	260046848	61	4025
2026-01-25 23:48:23.32	28.86	15.28	-44.7	-45.9	21.0	0.00e+00	0	43	0	261095424	61	4022
2026-01-25 23:48:24.33	28.92	15.39	-44.7	-46.0	20.9	0.00e+00	0	43	0	263192576	61	4064
2026-01-25 23:48:25.34	28.99	15.49	-44.7	-45.9	20.9	0.00e+00	0	43	0	265289728	61	4026
2026-01-25 23:48:26.34	29.06	15.59	-44.6	-45.8	21.0	0.00e+00	0	43	0	267386880	61	3993
2026-01-25 23:48:27.35	29.12	15.70	-44.7	-45.9	20.9	0.00e+00	0	43	0	268435456	61	4033
2026-01-25 23:48:28.36	29.19	15.80	-44.7	-46.0	20.8	0.00e+00	0	43	0	270532608	61	4058
2026-01-25 23:48:29.37	29.26	15.91	-44.7	-45.9	20.9	0.00e+00	0	43	0	272629760	61	4033
2026-01-25 23:48:30.37	29.33	16.01	-44.7	-45.9	20.9	0.00e+00	0	43	0	274726912	61	4041
2026-01-25 23:48:31.38	29.40	16.12	-44.6	-45.8	21.0	0.00e+00	0	43	0	276824064	61	3992
2026-01-25 23:48:32.38	29.47	16.23	-44.5	-45.7	21.1	0.00e+00	0	43	0	277872640	61	3951
2026-01-25 23:48:33.39	29.54	16.33	-44.6	-45.8	21.1	0.00e+00	0	43	0	279969792	61	3969
2026-01-25 23:48:34.39	29.61	16.44	-44.5	-45.7	21.1	0.00e+00	0	43	0	282066944	61	3954
2026-01-25 23:48:35.40	29.68	16.55	-44.6	-45.8	21.1	0.00e+00	0	43	0	284164096	61	3960
2026-01-25 23:48:36.41	29.75	16.66	-44.6	-45.8	21.1	0.00e+00	0	43	0	286261248	61	3968
2026-01-25 23:48:37.42	29.83	16.76	-44.4	-45.6	21.2	0.00e+00	0	43	0	288358400	60	4129
2026-01-25 23:48:38.43	29.90	16.87	-44.4	-45.6	21.3	0.00e+00	0	43	0	289406976	60	4114
2026-01-25 23:48:39.43	29.97	16.98	-44.5	-45.6	21.2	0.00e+00	0	43	0	291504128	60	4136
2026-01-25 23:48:40.44	30.05	17.09	-44.2	-45.4	21.5	0.00e+00	0	43	0	293601280	60	4020
2026-01-25 23:48:41.45	30.12	17.20	-44.3	-45.5	21.4	0.00e+00	0	43	0	295698432	60	4062
2026-01-25 23:48:42.45	30.20	17.31	-44.2	-45.3	21.5	0.00e+00	0	43	0	296747008	60	4001
2026-01-25 23:48:43.46	30.27	17.43	-44.2	-45.4	21.5	0.00e+00	0	43	0	298844160	60	4022
2026-01-25 23:48:44.46	30.35	17.54	-44.3	-45.4	21.4	0.00e+00	0	43	0	300941312	60	4036
2026-01-25 23:48:45.47	30.42	17.65	-44.1	-45.2	21.6	0.00e+00	0	43	0	303038464	60	3951
2026-01-25 23:48:46.48	30.50	17.76	-44.2	-45.3	21.6	0.00e+00	0	43	0	305135616	60	3982
2026-01-25 23:48:47.49	30.58	17.88	-44.2	-45.3	21.6	0.00e+00	0	43	0	306184192	60	3978
2026-01-25 23:48:48.49	30.66	17.99	-44.1	-45.3	21.6	0.00e+00	0	43	0	308281344	60	3969
2026-01-25 23:48:49.50	30.73	18.10	-44.2	-45.3	21.6	0.00e+00	0	43	0	310378496	60	3979
2026-01-25 23:48:50.51	30.81	18.22	-44.0	-45.1	21.7	0.00e+00	0	43	0	312475648	60	3897
2026-01-25 23:48:51.51	30.89	18.33	-44.4	-45.5	21.7	0.00e+00	0	43	0	314572800	59	4322
2026-01-25 23:48:52.52	30.97	18.45	-44.4	-45.6	21.6	0.00e+00	0	43	0	316669952	59	4364
2026-01-25 23:48:53.53	31.05	18.57	-44.3	-45.5	21.8	0.00e+00	0	43	0	317718528	59	4298
2026-01-25 23:48:54.54	31.14	18.68	-44.4	-45.6	21.6	0.00e+00	0	43	0	319815680	59	4357
2026-01-25 23:48:55.54	31.22	18.80	-44.4	-45.5	21.7	0.00e+00	0	43	0	321912832	59	4322
2026-01-25 23:48:56.55	31.30	18.92	-44.5	-45.6	21.6	0.00e+00	0	43	0	324009984	59	4384
2026-01-25 23:48:57.55	31.38	19.03	-44.5	-45.7	21.6	0.00e+00	0	43	0	325058560	59	4400
2026-01-25 23:48:58.56	31.47	19.15	-44.5	-45.7	21.5	0.00e+00	0	43	0	327155712	59	4415
2026-01-25 23:48:59.57	31.55	19.27	-44.4	-45.6	21.7	0.00e+00	0	43	0	329252864	59	4346
2026-01-25 23:49:00.58	31.64	19.39	-44.5	-45.7	21.6	0.00e+00	0	43	0	331350016	59	4400
2026-01-25 23:49:01.58	31.72	19.51	-44.7	-45.8	21.4	0.00e+00	0	43	0	333447168	59	4491
2026-01-25 23:49:02.59	31.81	19.63	-44.6	-45.8	21.5	0.00e+00	0	43	0	334495744	59	4444
2026-01-25 23:49:03.60	31.90	19.75	-44.3	-45.4	21.5	0.00e+00	0	43	0	336592896	60	4047
2026-01-25 23:49:04.60	31.98	19.88	-44.2	-45.3	21.6	0.00e+00	0	43	0	338690048	60	3993
2026-01-25 23:49:05.61	32.07	20.00	-44.3	-45.5	21.5	0.00e+00	0	43	0	340787200	60	4060
2026-01-25 23:49:06.62	32.16	20.12	-44.3	-45.4	21.5	0.00e+00	0	43	0	342884352	60	4023
2026-01-25 23:49:07.63	32.25	20.25	-44.3	-45.4	21.5	0.00e+00	0	44	0	344981504	60	4050
2026-01-25 23:49:08.63	32.34	20.37	-44.2	-45.4	21.6	0.00e+00	0	43	0	346030080	60	4012
2026-01-25 23:49:09.63	32.43	20.49	-44.2	-45.4	21.6	0.00e+00	0	43	0	348127232	60	4015
2026-01-25 23:49:10.64	32.52	20.62	-44.2	-45.3	21.6	0.00e+00	0	43	0	350224384	60	3984
2026-01-25 23:49:11.65	32.62	20.74	-44.2	-45.4	21.6	0.00e+00	0	43	0	352321536	60	4011
2026-01-25 23:49:12.66	32.71	20.87	-44.4	-45.5	21.4	0.00e+00	0	43	0	353370112	60	4081
2026-01-25 23:49:13.66	32.80	21.00	-44.3	-45.4	21.5	0.00e+00	0	43	0	355467264	60	4042
2026-01-25 23:49:14.67	32.90	21.12	-44.1	-45.2	21.7	0.00e+00	0	43	0	357564416	60	3958
2026-01-25 23:49:15.67	32.99	21.25	-44.1	-45.3	21.7	0.00e+00	0	44	0	359661568	60	3970
2026-01-25 23:49:16.68	33.09	21.38	-44.3	-45.4	21.5	0.00e+00	0	43	0	361758720	60	4051
2026-01-25 23:49:17.68	33.19	21.51	-44.0	-45.1	21.8	0.00e+00	0	44	0	362807296	60	3889
2026-01-25 23:49:18.69	33.28	21.64	-44.4	-45.5	21.8	0.00e+00	0	43	0	364904448	59	4313
2026-01-25 23:49:19.70	33.38	21.77	-44.3	-45.4	21.9	0.00e+00	0	43	0	367001600	59	4262
2026-01-25 23:49:20.71	33.48	21.90	-44.2	-45.3	22.0	0.00e+00	0	43	0	369098752	59	4205
2026-01-25 23:49:21.71	33.58	22.03	-44.2	-45.3	21.9	0.00e+00	0	43	0	371195904	59	4238
2026-01-25 23:49:22.72	33.68	22.16	-44.2	-45.3	22.0	0.00e+00	0	43	0	373293056	59	4206
2026-01-25 23:49:23.73	33.79	22.30	-44.2	-45.3	22.0	0.00e+00	0	43	0	374341632	59	4214
2026-01-25 23:49:24.74	33.89	22.43	-44.2	-45.3	22.0	0.00e+00	0	43	0	376438784	59	4195
2026-01-25 23:49:25.75	33.99	22.56	-44.3	-45.4	21.9	0.00e+00	0	43	0	378535936	59	4270
2026-01-25 23:49:26.75	34.10	22.70	-44.3	-45.5	21.8	0.00e+00	0	43	0	380633088	59	4294
2026-01-25 23:49:27.76	34.20	22.83	-44.5	-45.7	21.6	0.00e+00	0	44	0	381681664	59	4416
2026-01-25 23:49:28.77	34.31	22.97	-44.4	-45.5	21.8	0.00e+00	0	43	0	383778816	59	4316
2026-01-25 23:49:29.78	34.41	23.11	-44.5	-45.6	21.7	0.00e+00	0	43	0	385875968	59	4381
2026-01-25 23:49:30.79	34.52	23.24	-44.4	-45.5	21.9	0.00e+00	0	43	0	387973120	59	4308
2026-01-25 23:49:31.79	34.63	23.38	-44.4	-45.5	21.8	0.00e+00	0	43	0	390070272	59	4324
2026-01-25 23:49:32.80	34.74	23.52	-44.3	-45.4	21.9	0.00e+00	0	43	0	391118848	59	4279
2026-01-25 23:49:33.81	34.85	23.66	-44.2	-45.3	22.0	0.00e+00	0	43	0	393216000	59	4222
2026-01-25 23:49:34.82	34.96	23.80	-44.2	-45.4	22.0	0.00e+00	0	43	0	395313152	59	4246
2026-01-25 23:49:35.82	35.08	23.94	-44.1	-45.2	22.1	0.00e+00	0	44	0	397410304	59	4177
2026-01-25 23:49:36.83	35.19	24.08	-44.2	-45.3	22.0	0.00e+00	0	43	0	399507456	59	4200
2026-01-25 23:49:37.83	35.30	24.22	-44.2	-45.3	22.0	0.00e+00	0	43	0	401604608	59	4202
2026-01-25 23:49:38.84	35.42	24.36	-44.3	-45.4	21.9	0.00e+00	0	43	0	402653184	59	4274
2026-01-25 23:49:39.85	35.54	24.50	-44.4	-45.5	21.8	0.00e+00	0	43	0	404750336	59	4335
2026-01-25 23:49:40.85	35.65	24.65	-44.6	-45.7	21.6	0.00e+00	0	43	0	406847488	59	4434
2026-01-25 23:49:41.86	35.77	24.79	-44.7	-45.8	21.5	0.00e+00	0	44	0	408944640	59	4488
2026-01-25 23:49:42.87	35.89	24.94	-44.4	-45.6	21.4	0.00e+00	0	43	0	409993216	60	4116
2026-01-25 23:49:43.88	36.01	25.08	-44.6	-45.8	21.3	0.00e+00	0	43	0	412090368	60	4216
2026-01-25 23:49:44.88	36.13	25.23	-44.7	-45.9	21.2	0.00e+00	0	43	0	414187520	60	4274
2026-01-25 23:49:45.89	36.26	25.37	-44.8	-46.0	21.1	0.00e+00	0	43	0	416284672	60	4326
2026-01-25 23:49:46.90	36.38	25.52	-44.8	-46.0	21.0	0.00e+00	0	44	0	418381824	60	4339
2026-01-25 23:49:47.91	36.51	25.67	-44.9	-46.1	21.0	0.00e+00	0	43	0	419430400	60	4370
2026-01-25 23:49:48.91	36.63	25.82	-44.9	-46.1	21.0	0.00e+00	0	43	0	421527552	60	4381
2026-01-25 23:49:49.92	36.76	25.97	-44.9	-46.2	20.9	0.00e+00	0	43	0	423624704	60	4399
2026-01-25 23:49:50.93	36.89	26.12	-45.1	-46.3	20.8	0.00e+00	0	43	0	425721856	60	4472
2026-01-25 23:49:51.94	37.02	26.27	-45.0	-46.3	20.8	0.00e+00	0	44	0	427819008	60	4457
2026-01-25 23:49:52.94	37.15	26.42	-45.1	-46.4	20.8	0.00e+00	0	43	0	429916160	60	4497
2026-01-25 23:49:53.95	37.28	26.57	-45.2	-46.4	20.7	0.00e+00	0	43	0	430964736	60	4538
2026-01-25 23:49:54.96	37.41	26.73	-45.2	-46.4	20.7	0.00e+00	0	43	0	433061888	61	4276
2026-01-25 23:49:55.97	37.55	26.88	-45.1	-46.4	20.7	0.00e+00	0	43	0	435159040	61	4260
2026-01-25 23:49:56.98	37.68	27.04	-45.2	-46.5	20.6	0.00e+00	0	43	0	437256192	61	4312
2026-01-25 23:49:57.99	37.82	27.19	-45.2	-46.5	20.7	0.00e+00	0	43	0	438304768	61	4307
2026-01-25 23:49:59.00	37.96	27.35	-45.3	-46.6	20.5	0.00e+00	0	43	0	440401920	61	4369
2026-01-25 23:50:00.00	38.10	27.51	-45.3	-46.6	20.5	0.00e+00	0	43	0	442499072	61	4369
2026-01-25 23:50:01.01	38.24	27.66	-45.3	-46.6	20.5	0.00e+00	0	43	0	444596224	61	4368
2026-01-25 23:50:02.01	38.38	27.82	-45.4	-46.7	20.5	0.00e+00	0	43	0	446693376	61	4432
2026-01-25 23:50:03.02	38.53	27.98	-45.4	-46.7	20.4	0.00e+00	0	43	0	448790528	61	4422
2026-01-25 23:50:04.03	38.67	28.14	-45.4	-46.7	20.4	0.00e+00	0	43	0	449839104	61	4439
2026-01-25 23:50:05.04	38.82	28.30	-45.4	-46.7	20.5	0.00e+00	0	43	0	451936256	61	4429
2026-01-25 23:50:06.04	38.97	28.46	-45.5	-46.8	20.4	0.00e+00	0	43	0	454033408	61	4465
2026-01-25 23:50:07.05	39.12	28.62	-45.5	-46.9	20.3	0.00e+00	0	43	0	456130560	61	4498
2026-01-25 23:50:08.06	39.27	28.79	-45.7	-47.1	20.2	0.00e+00	0	44	0	458227712	62	4349
2026-01-25 23:50:09.07	39.42	28.95	-45.9	-47.2	20.0	0.00e+00	0	43	0	459276288	62	4428
2026-01-25 23:50:10.08	39.57	29.11	-46.1	-47.6	19.6	0.00e+00	0	43	0	461373440	62	4609
2026-01-25 23:50:11.09	39.73	29.28	-46.3	-47.8	19.5	0.00e+00	0	44	0	463470592	63	4446
2026-01-25 23:50:12.10	39.89	29.45	-46.5	-48.1	19.2	0.00e+00	0	43	0	465567744	63	4603
2026-01-25 23:50:13.10	40.05	29.61	-46.6	-48.2	19.0	0.00e+00	0	43	0	466616320	64	4420
2026-01-25 23:50:14.11	40.21	29.78	-46.7	-48.2	19.0	0.00e+00	0	43	0	468713472	64	4435
2026-01-25 23:50:15.12	40.37	29.95	-46.8	-48.4	18.7	0.00e+00	0	43	0	470810624	64	4544
2026-01-25 23:50:16.13	40.53	30.12	-46.8	-48.4	18.8	0.00e+00	0	43	0	472907776	64	4520
2026-01-25 23:50:17.13	40.70	30.28	-46.9	-48.6	18.6	0.00e+00	0	43	0	475004928	64	4626
2026-01-25 23:50:18.14	40.86	30.46	-47.0	-48.6	18.6	0.00e+00	0	44	0	477102080	64	4637
2026-01-25 23:50:19.14	41.03	30.63	-47.1	-48.8	18.4	0.00e+00	0	43	0	478150656	64	4750
2026-01-25 23:50:20.15	41.20	30.80	-47.1	-48.7	18.5	0.00e+00	0	44	0	480247808	64	4700
2026-01-25 23:50:21.15	41.37	30.97	-47.1	-48.8	18.4	0.00e+00	0	43	0	482344960	64	4709
2026-01-25 23:50:22.16	41.55	31.14	-47.1	-48.7	18.5	0.00e+00	0	44	0	484442112	64	4691
2026-01-25 23:50:23.17	41.72	31.32	-47.1	-48.7	18.5	0.00e+00	0	43	0	486539264	64	4692
2026-01-25 23:50:24.17	41.90	31.49	-46.9	-48.5	18.7	0.00e+00	0	43	0	487587840	64	4572
2026-01-25 23:50:25.18	42.08	31.67	-46.9	-48.5	18.7	0.00e+00	0	43	0	489684992	64	4583
2026-01-25 23:50:26.19	42.26	31.84	-47.0	-48.7	18.6	0.00e+00	0	43	0	491782144	64	4663
2026-01-25 23:50:27.19	42.44	32.02	-47.0	-48.7	18.6	0.00e+00	0	44	0	493879296	64	4679
2026-01-25 23:50:28.20	42.63	32.20	-47.1	-48.8	18.4	0.00e+00	0	43	0	494927872	64	4748
2026-01-25 23:50:29.21	42.82	32.38	-47.2	-49.0	18.3	0.00e+00	0	44	0	497025024	65	4549
2026-01-25 23:50:30.22	43.01	32.56	-47.3	-49.0	18.2	0.00e+00	0	43	0	499122176	65	4594
2026-01-25 23:50:31.23	43.20	32.74	-47.3	-49.0	18.2	0.00e+00	0	43	0	501219328	65	4578
2026-01-25 23:50:32.23	43.39	32.91	-47.1	-48.7	18.5	0.00e+00	0	44	0	503316480	65	4427
2026-01-25 23:50:33.24	43.59	33.10	-47.0	-48.6	18.6	0.00e+00	0	43	0	505413632	65	4370
2026-01-25 23:50:34.25	43.78	33.28	-46.9	-48.6	18.7	0.00e+00	0	44	0	506462208	65	4342
2026-01-25 23:50:35.25	43.98	33.46	-46.4	-47.9	19.3	0.00e+00	0	44	0	508559360	64	4280
2026-01-25 23:50:36.25	44.18	33.64	-46.3	-47.8	19.5	0.00e+00	0	43	0	510656512	64	4229
2026-01-25 23:50:37.26	44.39	33.83	-46.2	-47.6	19.6	0.00e+00	0	44	0	512753664	64	4127
2026-01-25 23:50:38.27	44.59	34.01	-46.0	-47.4	19.9	0.00e+00	0	44	0	514850816	63	4288
2026-01-25 23:50:39.28	44.80	34.20	-46.3	-47.7	19.7	0.00e+00	0	43	0	515899392	63	4411
2026-01-25 23:50:40.28	45.01	34.39	-46.3	-47.8	19.6	0.00e+00	0	44	0	517996544	63	4447
2026-01-25 23:50:41.29	45.23	34.57	-46.3	-47.8	19.6	0.00e+00	0	44	0	520093696	63	4466
2026-01-25 23:50:42.30	45.44	34.76	-46.2	-47.7	19.7	0.00e+00	0	44	0	522190848	63	4399
2026-01-25 23:50:43.31	45.66	34.95	-46.1	-47.6	19.8	0.00e+00	0	44	0	523239424	63	4357
2026-01-25 23:50:44.31	45.88	35.14	-45.7	-47.3	20.1	0.00e+00	0	43	0	525336576	63	4196
2026-01-25 23:50:45.32	46.11	35.33	-45.1	-47.1	20.2	0.00e+00	0	44	0	527433728	62	4359
2026-01-25 23:50:46.32	46.33	35.52	-45.1	-46.9	20.4	0.00e+00	0	44	0	529530880	62	4266
2026-01-25 23:50:47.33	46.56	35.71	-45.1	-46.7	20.6	0.00e+00	0	44	0	531628032	62	4147
2026-01-25 23:50:48.34	46.79	35.90	-45.4	-46.7	20.6	0.00e+00	0	43	0	533725184	62	4193
2026-01-25 23:50:49.35	47.03	36.09	-45.5	-46.8	20.5	0.00e+00	0	43	0	534773760	62	4230
2026-01-25 23:50:50.35	47.26	36.29	-45.4	-46.7	20.6	0.00e+00	0	43	0	536870912	62	4172
2026-01-25 23:50:51.36	47.50	36.48	-45.5	-46.8	20.6	0.00e+00	0	43	0	538968064	62	4197
2026-01-25 23:50:52.37	47.74	36.68	-45.7	-47.0	20.4	0.00e+00	0	43	0	541065216	62	4308
2026-01-25 23:50:53.38	47.99	36.87	-45.3	-46.6	20.8	0.00e+00	0	43	0	543162368	62	4106
2026-01-25 23:50:54.38	48.24	37.07	-45.1	-46.3	21.0	0.00e+00	0	44	0	544210944	62	4004
2026-01-25 23:50:55.39	48.49	37.26	-45.0	-46.2	21.1	0.00e+00	0	43	0	546308096	62	3952
2026-01-25 23:50:56.40	48.74	37.46	-45.1	-46.3	21.1	0.00e+00	0	43	0	548405248	62	3969
2026-01-25 23:50:57.40	49.00	37.66	-44.9	-46.1	21.2	0.00e+00	0	43	0	550502400	61	4141
2026-01-25 23:50:58.40	49.26	37.85	-44.9	-46.1	21.2	0.00e+00	0	43	0	551550976	61	4134
2026-01-25 23:50:59.40	49.52	38.05	-44.9	-46.1	21.2	0.00e+00	0	43	0	553648128	61	4113
2026-01-25 23:51:00.41	49.78	38.25	-44.8	-45.9	21.3	0.00e+00	0	43	0	555745280	61	4047
2026-01-25 23:51:01.41	50.05	38.45	-44.7	-45.9	21.5	0.00e+00	0	43	0	557842432	61	4010
2026-01-25 23:51:02.42	50.33	38.65	-44.6	-45.7	21.6	0.00e+00	0	44	0	559939584	61	3935
2026-01-25 23:51:03.43	50.60	38.85	-44.3	-45.4	21.9	0.00e+00	0	44	0	562036736	60	4015
2026-01-25 23:51:04.43	50.88	39.05	-44.3	-45.4	21.9	0.00e+00	0	44	0	563085312	60	4007
2026-01-25 23:51:05.44	51.16	39.25	-44.3	-45.4	22.2	0.00e+00	0	43	0	565182464	59	4256
2026-01-25 23:51:06.44	51.45	39.45	-44.4	-45.5	22.1	0.00e+00	0	44	0	567279616	59	4313
2026-01-25 23:51:07.45	51.74	39.65	-44.5	-45.6	21.9	0.00e+00	0	44	0	569376768	59	4383
2026-01-25 23:51:08.46	52.03	39.85	-44.4	-45.6	21.7	0.00e+00	0	44	0	571473920	60	4106
2026-01-25 23:51:09.46	52.33	40.06	-44.7	-45.9	21.5	0.00e+00	0	43	0	572522496	60	4246
2026-01-25 23:51:10.46	52.63	40.26	-44.8	-46.0	21.4	0.00e+00	0	43	0	574619648	60	4293
2026-01-25 23:51:11.47	52.93	40.46	-44.6	-45.7	21.6	0.00e+00	0	44	0	576716800	60	4184
2026-01-25 23:51:12.48	53.24	40.67	-44.5	-45.7	21.6	0.00e+00	0	44	0	578813952	60	4149
2026-01-25 23:51:13.49	53.55	40.87	-44.4	-45.5	21.8	0.00e+00	0	44	0	579862528	60	4058
2026-01-25 23:51:14.49	53.87	41.07	-44.4	-45.5	21.8	0.00e+00	0	43	0	581959680	60	4071
2026-01-25 23:51:15.50	54.19	41.28	-44.4	-45.5	21.8	0.00e+00	0	43	0	584056832	60	4063
2026-01-25 23:51:16.51	54.51	41.48	-44.5	-45.6	21.7	0.00e+00	0	43	0	586153984	60	4108
2026-01-25 23:51:17.52	54.84	41.69	-44.6	-45.7	21.6	0.00e+00	0	44	0	588251136	60	4174
2026-01-25 23:51:18.52	55.17	41.89	-44.9	-46.1	21.3	0.00e+00	0	43	0	590348288	60	4351
2026-01-25 23:51:19.53	55.51	42.10	-45.0	-46.2	21.2	0.00e+00	0	44	0	591396864	60	4403
2026-01-25 23:51:20.54	55.85	42.30	-45.0	-46.2	21.1	0.00e+00	0	43	0	593494016	60	4430
2026-01-25 23:51:21.55	56.19	42.51	-45.1	-46.3	21.1	0.00e+00	0	44	0	595591168	60	4454
2026-01-25 23:51:22.55	56.54	42.71	-45.0	-46.2	21.1	0.00e+00	0	44	0	597688320	60	4431
2026-01-25 23:51:23.56	56.90	42.92	-45.0	-46.3	21.1	0.00e+00	0	43	0	599785472	60	4445
2026-01-25 23:51:24.57	57.25	43.12	-45.3	-46.5	20.9	0.00e+00	0	43	0	600834048	61	4308
2026-01-25 23:51:25.58	57.62	43.33	-45.4	-46.6	20.8	0.00e+00	0	44	0	602931200	61	4369
2026-01-25 23:51:26.58	57.98	43.53	-45.7	-47.0	20.4	0.00e+00	0	43	0	605028352	61	4556
2026-01-25 23:51:27.59	58.36	43.73	-45.7	-47.1	20.4	0.00e+00	0	44	0	607125504	62	4348
2026-01-25 23:51:28.60	58.73	43.94	-45.7	-47.0	20.4	0.00e+00	0	44	0	608174080	62	4318
2026-01-25 23:51:29.61	59.12	44.14	-45.5	-46.7	20.7	0.00e+00	0	44	0	610271232	62	4189
2026-01-25 23:51:30.61	59.50	44.34	-45.4	-46.7	20.7	0.00e+00	0	43	0	612368384	62	4179
2026-01-25 23:51:31.62	59.89	44.55	-45.6	-46.9	20.5	0.00e+00	0	44	0	614465536	62	4282
2026-01-25 23:51:32.63	60.29	44.75	-46.1	-47.5	20.0	0.00e+00	0	43	0	616562688	62	4563
2026-01-25 23:51:33.64	60.69	44.95	-46.6	-48.1	19.4	0.00e+00	0	43	0	618659840	63	4643
2026-01-25 23:51:34.64	61.09	45.15	-46.9	-48.5	18.9	0.00e+00	0	43	0	619708416	64	4565
2026-01-25 23:51:35.65	61.51	45.36	-47.0	-48.6	18.8	0.00e+00	0	44	0	621805568	64	4644
2026-01-25 23:51:36.66	61.92	45.56	-46.9	-48.5	18.9	0.00e+00	0	43	0	623902720	64	4556
2026-01-25 23:51:37.67	62.35	45.76	-46.9	-48.5	18.9	0.00e+00	0	44	0	625999872	64	4547
2026-01-25 23:51:38.67	62.77	45.96	-46.7	-48.2	19.1	0.00e+00	0	43	0	628097024	64	4441
2026-01-25 23:51:39.68	63.20	46.15	-47.0	-48.7	18.7	0.00e+00	0	43	0	629145600	64	4663
2026-01-25 23:51:40.69	63.64	46.35	-47.5	-49.2	18.2	0.00e+00	0	43	0	631242752	65	4669
2026-01-25 23:51:41.69	64.08	46.55	-47.5	-49.2	18.2	0.00e+00	0	44	0	633339904	65	4698
2026-01-25 23:51:42.70	64.53	46.74	-47.4	-49.2	18.4	0.00e+00	0	43	0	635437056	65	4669
2026-01-25 23:51:43.71	64.99	46.94	-46.9	-48.5	18.9	0.00e+00	0	43	0	636485632	65	4328
2026-01-25 23:51:44.72	65.45	47.13	-46.4	-47.9	19.5	0.00e+00	0	43	0	638582784	64	4267
2026-01-25 23:51:45.73	65.92	47.33	-46.1	-47.5	19.9	0.00e+00	0	43	0	640679936	64	4071
2026-01-25 23:51:46.73	66.39	47.52	-46.0	-47.4	20.1	0.00e+00	0	44	0	642777088	63	4251
2026-01-25 23:51:47.74	66.86	47.71	-46.2	-47.6	19.8	0.00e+00	0	43	0	644874240	63	4386
2026-01-25 23:51:48.75	67.35	47.90	-46.6	-48.0	19.5	0.00e+00	0	44	0	646971392	63	4598
2026-01-25 23:51:49.76	67.84	48.09	-46.7	-48.2	19.2	0.00e+00	0	44	0	648019968	64	4423
2026-01-25 23:51:50.76	68.33	48.27	-46.6	-48.1	19.3	0.00e+00	0	43	0	650117120	64	4375
2026-01-25 23:51:51.77	68.83	48.46	-46.3	-47.8	19.7	0.00e+00	0	44	0	652214272	64	4197
2026-01-25 23:51:52.78	69.34	48.64	-46.0	-47.4	20.0	0.00e+00	0	44	0	654311424	64	4032
2026-01-25 23:51:53.78	69.85	48.82	-45.8	-47.1	20.4	0.00e+00	0	43	0	656408576	63	4138
2026-01-25 23:51:54.78	70.36	49.00	-45.7	-47.0	20.5	0.00e+00	0	43	0	657457152	63	4085
2026-01-25 23:51:55.79	70.89	49.18	-45.7	-47.0	20.5	0.00e+00	0	43	0	659554304	63	4076
2026-01-25 23:51:56.79	71.42	49.35	-45.8	-47.1	20.5	0.00e+00	0	44	0	661651456	63	4103
2026-01-25 23:51:57.80	71.96	49.53	-45.8	-47.1	20.4	0.00e+00	0	43	0	663748608	63	4141
2026-01-25 23:51:58.81	72.50	49.70	-45.8	-47.1	20.4	0.00e+00	0	43	0	664797184	63	4121
2026-01-25 23:51:59.82	73.05	49.87	-45.8	-47.2	20.4	0.00e+00	0	43	0	666894336	63	4163
2026-01-25 23:52:00.82	73.60	50.04	-45.6	-46.9	20.6	0.00e+00	0	43	0	668991488	63	4009
2026-01-25 23:52:01.83	74.16	50.21	-45.5	-46.8	20.7	0.00e+00	0	43	0	671088640	62	4214
2026-01-25 23:52:02.84	74.73	50.37	-45.2	-46.5	20.9	0.00e+00	0	44	0	673185792	62	4053
2026-01-25 23:52:03.85	75.31	50.53	-45.1	-46.2	21.2	0.00e+00	0	43	0	675282944	62	3952
2026-01-25 23:52:04.85	75.88	50.69	-44.6	-45.7	21.7	0.00e+00	0	44	0	676331520	61	3951
2026-01-25 23:52:05.86	76.47	50.85	-44.2	-45.3	22.1	0.00e+00	0	43	0	678428672	60	3960
2026-01-25 23:52:06.87	77.06	51.00	-44.4	-45.5	21.9	0.00e+00	0	43	0	680525824	60	4089
2026-01-25 23:52:07.88	77.66	51.15	-44.9	-46.1	21.4	0.00e+00	0	43	0	682622976	60	4343
2026-01-25 23:52:08.89	78.27	51.30	-45.1	-46.3	21.1	0.00e+00	0	44	0	684720128	60	4490
2026-01-25 23:52:09.89	78.87	51.45	-44.7	-45.9	21.6	0.00e+00	0	43	0	685768704	60	4246
2026-01-25 23:52:10.90	79.49	51.59	-44.5	-45.6	21.8	0.00e+00	0	43	0	687865856	60	4102
2026-01-25 23:52:11.90	80.11	51.73	-44.1	-45.2	22.2	0.00e+00	0	44	0	689963008	60	3918
2026-01-25 23:52:12.91	80.74	51.87	-44.3	-45.4	22.3	0.00e+00	0	44	0	692060160	59	4255
2026-01-25 23:52:13.92	81.37	52.00	-44.4	-45.4	22.0	0.00e+00	0	43	0	694157312	59	4278
2026-01-25 23:52:14.92	82.00	52.13	-44.5	-45.6	21.8	0.00e+00	0	43	0	695205888	60	4121
2026-01-25 23:52:15.93	82.65	52.26	-45.0	-46.2	21.3	0.00e+00	0	43	0	697303040	60	4433
2026-01-25 23:52:16.93	83.29	52.38	-44.9	-46.0	21.4	0.00e+00	0	43	0	699400192	60	4333
2026-01-25 23:52:17.94	83.95	52.50	-44.5	-45.7	21.7	0.00e+00	0	43	0	701497344	60	4148
2026-01-25 23:52:18.95	84.61	52.62	-44.5	-45.6	21.7	0.00e+00	0	43	0	703594496	60	4143
2026-01-25 23:52:19.96	85.28	52.73	-44.3	-45.3	22.3	0.00e+00	0	43	0	704643072	59	4235
2026-01-25 23:52:20.96	85.94	52.84	-44.2	-45.3	22.3	0.00e+00	0	43	0	706740224	59	4216
2026-01-25 23:52:21.97	86.62	52.95	-44.2	-45.3	22.4	0.00e+00	0	43	0	708837376	59	4195
2026-01-25 23:52:22.98	87.30	53.05	-44.7	-45.8	21.9	0.00e+00	0	43	0	710934528	59	4456
2026-01-25 23:52:23.99	87.99	53.15	-44.8	-46.0	21.5	0.00e+00	0	43	0	713031680	60	4300
2026-01-25 23:52:24.99	88.67	53.24	-44.8	-46.0	21.4	0.00e+00	0	44	0	714080256	60	4315
2026-01-25 23:52:26.00	89.37	53.33	-44.8	-45.9	21.5	0.00e+00	0	44	0	716177408	60	4279
2026-01-25 23:52:27.00	90.06	53.42	-44.8	-45.9	21.5	0.00e+00	0	44	0	718274560	60	4291
2026-01-25 23:52:28.00	90.76	53.50	-44.3	-45.4	22.0	0.00e+00	0	44	0	720371712	60	4027
2026-01-25 23:52:29.01	91.46	53.58	-44.3	-45.4	22.0	0.00e+00	0	43	0	722468864	60	4028
2026-01-25 23:52:30.02	92.17	53.65	-44.6	-45.7	21.7	0.00e+00	0	44	0	723517440	60	4185
2026-01-25 23:52:31.03	92.89	53.72	-45.2	-46.4	21.1	0.00e+00	0	44	0	725614592	60	4529
2026-01-25 23:52:32.03	93.60	53.79	-45.2	-46.4	21.0	0.00e+00	0	43	0	727711744	61	4263
2026-01-25 23:52:33.04	94.32	53.85	-44.9	-46.1	21.4	0.00e+00	0	43	0	729808896	61	4109
2026-01-25 23:52:34.05	95.04	53.90	-44.6	-45.7	21.7	0.00e+00	0	44	0	731906048	61	3951
2026-01-25 23:52:35.05	95.76	53.95	-44.4	-45.5	21.9	0.00e+00	0	44	0	732954624	60	4070
2026-01-25 23:52:36.06	96.49	54.00	-44.4	-45.5	21.9	0.00e+00	0	43	0	735051776	60	4054
2026-01-25 23:52:37.07	97.22	54.04	-44.2	-45.2	22.5	0.00e+00	0	43	0	737148928	59	4189
2026-01-25 23:52:38.07	97.95	54.08	-44.1	-45.1	22.6	0.00e+00	0	44	0	739246080	59	4119
2026-01-25 23:52:39.08	98.68	54.12	-43.9	-45.0	22.7	0.00e+00	0	43	0	741343232	59	4058
2026-01-25 23:52:40.09	99.42	54.14	-44.3	-45.4	22.3	0.00e+00	0	43	0	742391808	59	4253
2026-01-25 23:52:41.10	100.16	54.17	-44.8	-46.0	21.4	0.00e+00	0	43	0	744488960	60	4295
2026-01-25 23:52:42.10	100.89	54.19	-45.2	-46.5	21.0	0.00e+00	0	44	0	746586112	61	4297
2026-01-25 23:52:43.11	101.63	54.20	-45.1	-46.3	21.2	0.00e+00	0	43	0	748683264	61	4201
2026-01-25 23:52:44.12	102.37	54.21	-44.6	-45.7	21.7	0.00e+00	0	44	0	750780416	61	3933
2026-01-25 23:52:45.13	103.11	54.22	-44.4	-45.5	21.8	0.00e+00	0	43	0	751828992	60	4096
2026-01-25 23:52:46.13	103.85	54.22	-44.7	-45.8	21.6	0.00e+00	0	44	0	753926144	60	4221
2026-01-25 23:52:47.14	104.59	54.22	-44.6	-45.7	21.7	0.00e+00	0	43	0	756023296	60	4173
2026-01-25 23:52:48.15	105.33	54.21	-44.6	-45.7	21.7	0.00e+00	0	44	0	758120448	60	4173
2026-01-25 23:52:49.15	106.06	54.19	-44.3	-45.4	22.0	0.00e+00	0	44	0	760217600	60	4033
2026-01-25 23:52:50.15	106.80	54.18	-44.4	-45.5	21.9	0.00e+00	0	43	0	761266176	60	4054
2026-01-25 23:52:51.16	107.53	54.15	-44.2	-45.3	22.0	0.00e+00	0	43	0	763363328	60	3999
2026-01-25 23:52:52.17	108.27	54.13	-44.3	-45.4	21.9	0.00e+00	0	44	0	765460480	60	4048
2026-01-25 23:52:53.18	109.01	54.09	-44.0	-45.0	22.3	0.00e+00	0	43	0	767557632	60	3867
2026-01-25 23:52:54.18	109.74	54.06	-44.3	-45.4	22.3	0.00e+00	0	43	0	769654784	59	4254
2026-01-25 23:52:55.19	110.47	54.02	-43.8	-44.8	22.9	0.00e+00	0	43	0	770703360	59	3968
2026-01-25 23:52:56.20	111.20	53.97	-43.4	-44.4	23.1	0.00e+00	0	44	0	772800512	58	4028
2026-01-25 23:52:57.21	111.93	53.92	-43.2	-44.1	23.5	0.00e+00	0	44	0	774897664	58	3889
2026-01-25 23:52:58.22	112.65	53.87	-43.1	-44.1	23.4	0.00e+00	0	43	0	776994816	58	3873
2026-01-25 23:52:59.23	113.37	53.81	-43.5	-44.5	23.1	0.00e+00	0	44	0	779091968	58	4081
2026-01-25 23:53:00.23	114.08	53.74	-43.9	-44.9	22.7	0.00e+00	0	44	0	780140544	58	4255
2026-01-25 23:53:01.24	114.80	53.67	-44.1	-45.2	22.5	0.00e+00	0	44	0	782237696	58	4412
2026-01-25 23:53:02.25	115.51	53.60	-44.5	-45.6	21.8	0.00e+00	0	43	0	784334848	60	4127
2026-01-25 23:53:03.25	116.22	53.53	-44.8	-46.0	21.5	0.00e+00	0	43	0	786432000	60	4306
2026-01-25 23:53:04.26	116.92	53.45	-44.6	-45.7	21.6	0.00e+00	0	43	0	788529152	60	4179
2026-01-25 23:53:05.26	117.62	53.36	-44.5	-45.6	21.7	0.00e+00	0	43	0	789577728	60	4143
2026-01-25 23:53:06.27	118.31	53.27	-44.3	-45.4	21.9	0.00e+00	0	43	0	791674880	60	4042
2026-01-25 23:53:07.28	119.01	53.18	-44.1	-45.2	22.1	0.00e+00	0	43	0	793772032	60	3914
2026-01-25 23:53:08.29	119.69	53.08	-44.3	-45.4	22.2	0.00e+00	0	43	0	795869184	59	4270
2026-01-25 23:53:09.29	120.37	52.98	-43.9	-44.9	22.7	0.00e+00	0	43	0	797966336	59	4019
2026-01-25 23:53:10.30	121.05	52.88	-44.0	-45.1	22.6	0.00e+00	0	43	0	799014912	59	4104
2026-01-25 23:53:11.31	121.72	52.77	-44.5	-45.5	22.2	0.00e+00	0	44	0	801112064	59	4337
2026-01-25 23:53:12.32	122.39	52.66	-44.6	-45.7	22.0	0.00e+00	0	43	0	803209216	59	4433
2026-01-25 23:53:13.32	123.05	52.54	-44.6	-45.7	22.0	0.00e+00	0	44	0	805306368	59	4421
2026-01-25 23:53:14.33	123.71	52.42	-44.5	-45.6	22.0	0.00e+00	0	43	0	807403520	59	4364
2026-01-25 23:53:15.34	124.36	52.30	-44.5	-45.6	22.1	0.00e+00	0	43	0	808452096	59	4385
2026-01-25 23:53:16.35	125.01	52.17	-44.4	-45.4	22.3	0.00e+00	0	44	0	810549248	59	4289
2026-01-25 23:53:17.36	125.65	52.04	-44.4	-45.5	22.2	0.00e+00	0	44	0	812646400	59	4302
2026-01-25 23:53:18.37	126.29	51.91	-44.5	-45.6	22.0	0.00e+00	0	43	0	814743552	59	4387
2026-01-25 23:53:19.37	126.92	51.77	-44.4	-45.5	22.2	0.00e+00	0	43	0	816840704	59	4311
2026-01-25 23:53:20.38	127.54	51.63	-44.4	-45.5	22.2	0.00e+00	0	44	0	817889280	59	4293
2026-01-25 23:53:21.39	128.16	51.49	-44.3	-45.3	22.3	0.00e+00	0	44	0	819986432	59	4232
2026-01-25 23:53:22.39	128.77	51.35	-44.4	-45.4	22.2	0.00e+00	0	43	0	822083584	59	4279
2026-01-25 23:53:23.40	129.38	51.20	-44.7	-45.8	21.6	0.00e+00	0	43	0	824180736	60	4207
2026-01-25 23:53:24.40	129.97	51.05	-44.9	-46.0	21.3	0.00e+00	0	44	0	826277888	60	4339
2026-01-25 23:53:25.41	130.57	50.89	-44.7	-45.8	21.6	0.00e+00	0	43	0	827326464	60	4235
2026-01-25 23:53:26.42	131.16	50.74	-45.1	-46.3	21.1	0.00e+00	0	44	0	829423616	60	4466
2026-01-25 23:53:27.43	131.74	50.58	-46.2	-47.6	19.9	0.00e+00	0	44	0	831520768	62	4613
2026-01-25 23:53:28.43	132.31	50.42	-47.3	-49.0	18.4	0.00e+00	0	44	0	833617920	65	4570
2026-01-25 23:53:29.44	132.89	50.25	-47.7	-49.6	17.9	0.00e+00	0	44	0	835715072	66	4601
2026-01-25 23:53:30.44	133.45	50.09	-47.3	-49.0	18.4	0.00e+00	0	44	0	836763648	66	4319
2026-01-25 23:53:31.45	134.00	49.92	-47.3	-49.0	18.4	0.00e+00	0	44	0	838860800	66	4334
2026-01-25 23:53:32.45	134.55	49.75	-48.9	-51.1	16.4	0.00e+00	0	44	0	840957952	68	4914
2026-01-25 23:53:33.46	135.10	49.58	-50.6	-54.0	13.5	4.50e-06	0	44	0	843055104	71	5781
2026-01-25 23:53:34.46	135.64	49.41	-50.8	-54.5	12.9	1.46e-04	0	43	0	845152256	72	5768
2026-01-25 23:53:35.47	136.17	49.23	-49.5	-52.1	15.4	7.00e-07	0	43	0	846200832	71	4630
2026-01-25 23:53:36.48	136.70	49.05	-48.8	-51.1	16.5	0.00e+00	0	43	0	848297984	69	4600
2026-01-25 23:53:37.48	137.22	48.87	-48.9	-51.1	16.3	0.00e+00	0	44	0	850395136	69	4648
2026-01-25 23:53:38.49	137.73	48.69	-49.7	-52.3	15.1	0.00e+00	0	44	0	852492288	69	5322
2026-01-25 23:53:39.49	138.24	48.51	-50.7	-54.2	13.4	0.00e+00	0	44	0	854589440	71	5887
2026-01-25 23:53:40.50	138.74	48.32	-50.3	-53.6	13.8	1.22e-05	0	43	0	855638016	72	5188
2026-01-25 23:53:41.51	139.24	48.14	-48.7	-50.9	16.5	0.00e+00	0	44	0	857735168	69	4522
2026-01-25 23:53:42.51	139.73	47.95	-47.4	-49.1	18.3	0.00e+00	0	44	0	859832320	66	4347
2026-01-25 23:53:43.52	140.22	47.76	-47.5	-49.3	18.2	0.00e+00	0	44	0	861929472	66	4444
2026-01-25 23:53:44.52	140.69	47.57	-48.5	-50.6	16.8	0.00e+00	0	44	0	864026624	67	4910
2026-01-25 23:53:45.53	141.17	47.38	-49.8	-52.6	15.0	0.00e+00	0	43	0	865075200	70	5199
2026-01-25 23:53:46.53	141.64	47.19	-48.8	-51.0	16.4	0.00e+00	0	43	0	867172352	69	4587
2026-01-25 23:53:47.54	142.10	46.99	-47.1	-48.8	18.6	0.00e+00	0	44	0	869269504	66	4195
2026-01-25 23:53:48.55	142.56	46.80	-46.4	-47.9	19.5	0.00e+00	0	43	0	871366656	64	4255
2026-01-25 23:53:49.55	143.01	46.60	-46.7	-48.2	19.3	0.00e+00	0	44	0	873463808	64	4415
2026-01-25 23:53:50.56	143.45	46.40	-48.0	-49.9	17.6	0.00e+00	0	43	0	874512384	66	4797
2026-01-25 23:53:51.57	143.89	46.20	-49.6	-52.3	15.2	0.00e+00	0	44	0	876609536	69	5293
2026-01-25 23:53:52.58	144.33	46.01	-49.1	-51.6	15.9	0.00e+00	0	44	0	878706688	70	4614
2026-01-25 23:53:53.58	144.76	45.81	-47.0	-48.6	18.7	0.00e+00	0	44	0	880803840	66	4134
2026-01-25 23:53:54.59	145.18	45.61	-45.4	-46.6	20.7	0.00e+00	0	44	0	882900992	62	4126
2026-01-25 23:53:55.60	145.60	45.40	-45.4	-46.7	20.8	0.00e+00	0	44	0	883949568	62	4146
2026-01-25 23:53:56.61	146.02	45.20	-46.5	-47.9	19.6	0.00e+00	0	44	0	886046720	63	4543
2026-01-25 23:53:57.61	146.42	45.00	-47.9	-49.8	17.6	0.00e+00	0	44	0	888143872	66	4748
2026-01-25 23:53:58.62	146.83	44.80	-48.2	-50.2	17.2	0.00e+00	0	43	0	890241024	67	4683
2026-01-25 23:53:59.62	147.22	44.60	-47.3	-49.1	18.3	0.00e+00	0	44	0	892338176	66	4347
2026-01-25 23:54:00.63	147.62	44.39	-46.2	-47.6	19.7	0.00e+00	0	44	0	893386752	64	4133
2026-01-25 23:54:01.64	148.01	44.19	-45.7	-46.9	20.4	0.00e+00	0	43	0	895483904	63	4043
2026-01-25 23:54:02.65	148.39	43.98	-45.5	-46.8	20.6	0.00e+00	0	44	0	897581056	62	4209
2026-01-25 23:54:03.65	148.77	43.78	-46.3	-47.7	19.7	0.00e+00	0	43	0	899678208	63	4410
2026-01-25 23:54:04.66	149.14	43.57	-47.4	-49.1	18.3	0.00e+00	0	44	0	901775360	65	4634
2026-01-25 23:54:05.67	149.51	43.37	-48.5	-50.7	16.7	0.00e+00	0	44	0	902823936	67	4968
2026-01-25 23:54:06.67	149.88	43.17	-48.1	-50.2	17.2	0.00e+00	0	44	0	904921088	67	4652
2026-01-25 23:54:07.68	150.24	42.96	-46.8	-48.3	19.0	0.00e+00	0	44	0	907018240	65	4226
2026-01-25 23:54:08.69	150.59	42.75	-46.3	-47.8	19.5	0.00e+00	0	44	0	909115392	64	4199
2026-01-25 23:54:09.70	150.94	42.55	-46.9	-48.5	18.9	0.00e+00	0	44	0	911212544	64	4568
2026-01-25 23:54:10.71	151.29	42.34	-48.4	-50.5	17.0	0.00e+00	0	43	0	912261120	67	4815
2026-01-25 23:54:11.71	151.63	42.14	-50.1	-53.1	14.3	0.00e+00	0	44	0	914358272	70	5514
2026-01-25 23:54:12.72	151.97	41.93	-51.0	-55.1	12.3	9.99e-05	0	44	0	916455424	72	6147
2026-01-25 23:54:13.73	152.31	41.72	-50.3	-53.7	13.6	6.02e-05	0	43	0	918552576	72	5263
2026-01-25 23:54:14.74	152.64	41.52	-49.6	-52.3	15.1	0.00e+00	0	44	0	920649728	71	4751
2026-01-25 23:54:15.75	152.96	41.31	-49.1	-51.5	16.0	0.00e+00	0	44	0	921698304	70	4582
2026-01-25 23:54:16.75	153.28	41.11	-49.0	-51.3	16.1	0.00e+00	0	44	0	923795456	70	4477
2026-01-25 23:54:17.76	153.60	40.90	-49.0	-51.3	16.2	0.00e+00	0	44	0	925892608	69	4742
2026-01-25 23:54:18.76	153.91	40.70	-49.9	-52.8	14.7	0.00e+00	0	44	0	927989760	70	5285
2026-01-25 23:54:19.77	154.22	40.50	-50.8	-54.6	12.8	2.74e-05	0	44	0	930086912	72	5795
2026-01-25 23:54:20.78	154.53	40.29	-49.9	-52.8	14.6	6.80e-06	0	43	0	931135488	71	5029
2026-01-25 23:54:21.79	154.83	40.09	-48.5	-50.6	16.8	0.00e+00	0	43	0	933232640	69	4353
2026-01-25 23:54:22.79	155.13	39.88	-47.4	-49.0	18.2	0.00e+00	0	43	0	935329792	66	4340
2026-01-25 23:54:23.80	155.43	39.68	-47.3	-49.0	18.3	0.00e+00	0	44	0	937426944	66	4314
2026-01-25 23:54:24.81	155.72	39.48	-47.7	-49.5	17.9	0.00e+00	0	44	0	939524096	66	4565
2026-01-25 23:54:25.81	156.00	39.28	-48.0	-49.9	17.5	0.00e+00	0	43	0	941621248	66	4776
2026-01-25 23:54:26.82	156.29	39.07	-48.1	-50.1	17.3	0.00e+00	0	44	0	942669824	67	4604
2026-01-25 23:54:27.83	156.57	38.87	-48.2	-50.2	17.2	0.00e+00	0	43	0	944766976	67	4657
2026-01-25 23:54:28.83	156.85	38.67	-48.5	-50.7	16.7	0.00e+00	0	43	0	946864128	67	4953
2026-01-25 23:54:29.83	157.12	38.47	-48.6	-50.8	16.6	0.00e+00	0	44	0	948961280	67	4987
2026-01-25 23:54:30.84	157.39	38.27	-48.2	-50.3	17.0	0.00e+00	0	43	0	950009856	67	4718
2026-01-25 23:54:31.85	157.66	38.07	-47.4	-49.1	18.1	0.00e+00	0	44	0	952107008	66	4391
2026-01-25 23:54:32.85	157.92	37.87	-47.0	-48.6	18.7	0.00e+00	0	44	0	954204160	65	4368
2026-01-25 23:54:33.86	158.18	37.67	-46.9	-48.4	18.8	0.00e+00	0	44	0	956301312	65	4285
2026-01-25 23:54:34.86	158.44	37.48	-47.4	-49.1	18.2	0.00e+00	0	44	0	958398464	65	4644
2026-01-25 23:54:35.87	158.69	37.28	-48.3	-50.5	16.9	0.00e+00	0	44	0	959447040	67	4821
2026-01-25 23:54:36.88	158.95	37.08	-48.6	-50.9	16.4	0.00e+00	0	43	0	961544192	67	5058
2026-01-25 23:54:37.89	159.20	36.88	-47.8	-49.8	17.5	0.00e+00	0	44	0	963641344	67	4446
2026-01-25 23:54:38.89	159.44	36.69	-46.6	-48.2	19.1	0.00e+00	0	44	0	965738496	65	4166
2026-01-25 23:54:39.89	159.68	36.49	-45.9	-47.2	20.1	0.00e+00	0	44	0	967835648	63	4191
2026-01-25 23:54:40.90	159.92	36.30	-45.7	-47.0	20.3	0.00e+00	0	44	0	968884224	63	4058
2026-01-25 23:54:41.91	160.16	36.10	-45.5	-46.7	20.5	0.00e+00	0	44	0	970981376	62	4192
2026-01-25 23:54:42.91	160.40	35.91	-45.9	-47.2	20.0	0.00e+00	0	44	0	973078528	62	4431
2026-01-25 23:54:43.92	160.63	35.72	-46.7	-48.3	19.1	0.00e+00	0	44	0	975175680	63	4718
2026-01-25 23:54:44.92	160.86	35.53	-47.5	-49.4	17.9	0.00e+00	0	44	0	977272832	65	4778
2026-01-25 23:54:45.93	161.09	35.34	-47.9	-49.8	17.4	0.00e+00	0	44	0	978321408	66	4758
2026-01-25 23:54:46.94	161.31	35.14	-47.5	-49.3	17.9	0.00e+00	0	44	0	980418560	66	4470
2026-01-25 23:54:47.94	161.53	34.96	-46.8	-48.4	18.8	0.00e+00	0	44	0	982515712	65	4280
2026-01-25 23:54:48.95	161.75	34.77	-46.1	-47.5	19.6	0.00e+00	0	44	0	984612864	64	4088
2026-01-25 23:54:49.95	161.97	34.58	-45.9	-47.3	20.0	0.00e+00	0	43	0	986710016	63	4221
2026-01-25 23:54:50.96	162.18	34.39	-45.6	-46.9	20.4	0.00e+00	0	44	0	987758592	63	4027
2026-01-25 23:54:51.97	162.39	34.20	-45.6	-46.8	20.5	0.00e+00	0	44	0	989855744	62	4239
2026-01-25 23:54:52.98	162.60	34.01	-45.9	-47.3	20.0	0.00e+00	0	43	0	991952896	62	4448
2026-01-25 23:54:53.98	162.81	33.83	-47.0	-48.7	18.6	0.00e+00	0	44	0	994050048	64	4652
2026-01-25 23:54:54.99	163.02	33.64	-47.9	-49.9	17.4	0.00e+00	0	44	0	996147200	66	4773
2026-01-25 23:54:55.99	163.22	33.46	-47.9	-49.9	17.3	0.00e+00	0	44	0	997195776	66	4808
2026-01-25 23:54:57.00	163.42	33.28	-47.8	-49.8	17.4	0.00e+00	0	44	0	999292928	66	4729
2026-01-25 23:54:58.01	163.62	33.09	-47.3	-49.1	18.1	0.00e+00	0	43	0	1001390080	66	4356
2026-01-25 23:54:59.01	163.81	32.91	-47.0	-48.7	18.5	0.00e+00	0	44	0	1003487232	66	4175
2026-01-25 23:55:00.02	164.01	32.73	-46.4	-47.8	19.3	0.00e+00	0	44	0	1005584384	64	4237
2026-01-25 23:55:01.02	164.20	32.55	-45.9	-47.2	20.0	0.00e+00	0	44	0	1006632960	63	4170
2026-01-25 23:55:02.03	164.39	32.37	-45.8	-47.1	20.1	0.00e+00	0	43	0	1008730112	63	4144
2026-01-25 23:55:03.04	164.58	32.19	-46.0	-47.4	19.8	0.00e+00	0	44	0	1010827264	63	4268
2026-01-25 23:55:04.04	164.76	32.01	-46.5	-48.0	19.3	0.00e+00	0	44	0	1012924416	63	4565
2026-01-25 23:55:05.05	164.95	31.83	-46.7	-48.3	18.9	0.00e+00	0	44	0	1015021568	64	4467
2026-01-25 23:55:06.05	165.13	31.66	-47.3	-49.0	18.1	0.00e+00	0	44	0	1016070144	65	4598
2026-01-25 23:55:07.06	165.31	31.48	-47.7	-49.6	17.6	0.00e+00	0	44	0	1018167296	66	4625
2026-01-25 23:55:08.06	165.48	31.31	-47.8	-49.8	17.4	0.00e+00	0	44	0	1020264448	66	4714
2026-01-25 23:55:09.07	165.66	31.13	-48.1	-50.1	17.1	0.00e+00	0	43	0	1022361600	66	4906
2026-01-25 23:55:10.07	165.83	30.96	-47.8	-49.8	17.4	0.00e+00	0	44	0	1024458752	66	4711
2026-01-25 23:55:11.08	166.01	30.79	-47.8	-49.7	17.5	0.00e+00	0	44	0	1025507328	66	4695
2026-01-25 23:55:12.08	166.18	30.61	-47.7	-49.6	17.6	0.00e+00	0	44	0	1027604480	66	4641
2026-01-25 23:55:13.09	166.35	30.44	-47.5	-49.4	17.8	0.00e+00	0	44	0	1029701632	66	4497
2026-01-25 23:55:14.10	166.51	30.27	-47.4	-49.2	18.0	0.00e+00	0	44	0	1031798784	66	4394
2026-01-25 23:55:15.10	166.68	30.10	-47.2	-48.9	18.3	0.00e+00	0	44	0	1032847360	66	4271
2026-01-25 23:55:16.11	166.84	29.93	-46.9	-48.6	18.5	0.00e+00	0	44	0	1034944512	65	4363
2026-01-25 23:55:17.12	167.01	29.76	-46.9	-48.6	18.6	0.00e+00	0	43	0	1037041664	65	4356
2026-01-25 23:55:18.12	167.17	29.59	-46.8	-48.4	18.7	0.00e+00	0	44	0	1039138816	65	4267
2026-01-25 23:55:19.13	167.32	29.43	-46.7	-48.3	18.8	0.00e+00	0	44	0	1041235968	65	4206
2026-01-25 23:55:20.13	167.48	29.26	-46.3	-47.8	19.3	0.00e+00	0	43	0	1043333120	64	4195
2026-01-25 23:55:21.14	167.64	29.10	-46.5	-48.0	19.1	0.00e+00	0	44	0	1044381696	64	4330
2026-01-25 23:55:22.14	167.79	28.93	-46.4	-47.9	19.2	0.00e+00	0	44	0	1046478848	64	4282
2026-01-25 23:55:23.15	167.94	28.77	-46.5	-48.1	19.0	0.00e+00	0	44	0	1048576000	64	4345
2026-01-25 23:55:24.15	168.09	28.60	-46.7	-48.3	18.8	0.00e+00	0	44	0	1050673152	64	4462
2026-01-25 23:55:25.16	168.24	28.44	-46.7	-48.4	18.7	0.00e+00	0	44	0	1052770304	64	4503
2026-01-25 23:55:26.17	168.39	28.28	-46.9	-48.6	18.5	0.00e+00	0	44	0	1053818880	64	4634
2026-01-25 23:55:27.17	168.54	28.12	-46.7	-48.3	18.7	0.00e+00	0	44	0	1055916032	64	4492
2026-01-25 23:55:28.18	168.69	27.96	-46.7	-48.3	18.8	0.00e+00	0	44	0	1058013184	64	4458
2026-01-25 23:55:29.19	168.83	27.80	-46.4	-48.0	19.1	0.00e+00	0	44	0	1060110336	64	4294
2026-01-25 23:55:30.20	168.97	27.64	-46.3	-47.8	19.3	0.00e+00	0	44	0	1061158912	64	4217
2026-01-25 23:55:31.21	169.11	27.48	-46.0	-47.4	19.7	0.00e+00	0	43	0	1063256064	63	4254
2026-01-25 23:55:32.22	169.26	27.32	-46.0	-47.4	19.8	0.00e+00	0	44	0	1065353216	63	4261
2026-01-25 23:55:33.22	169.39	27.16	-46.1	-47.6	19.6	0.00e+00	0	43	0	1067450368	63	4347
2026-01-25 23:55:34.23	169.53	27.01	-46.2	-47.7	19.4	0.00e+00	0	43	0	1069547520	63	4411
2026-01-25 23:55:35.24	169.67	26.85	-46.5	-48.0	19.1	0.00e+00	0	44	0	1071644672	63	4578
2026-01-25 23:55:36.24	169.80	26.70	-46.8	-48.4	18.7	0.00e+00	0	43	0	1072693248	64	4520
2026-01-25 23:55:37.25	169.94	26.54	-46.8	-48.5	18.6	0.00e+00	0	43	0	1074790400	64	4573
2026-01-25 23:55:38.26	170.07	26.39	-47.2	-49.0	18.1	0.00e+00	0	43	0	1076887552	64	4838
2026-01-25 23:55:39.26	170.20	26.24	-47.0	-48.8	18.3	0.00e+00	0	43	0	1078984704	65	4475
2026-01-25 23:55:40.27	170.33	26.09	-47.1	-48.9	18.2	0.00e+00	0	44	0	1081081856	65	4500
2026-01-25 23:55:41.28	170.46	25.94	-47.1	-48.8	18.3	0.00e+00	0	44	0	1082130432	65	4471
2026-01-25 23:55:42.28	170.58	25.79	-47.1	-48.9	18.2	0.00e+00	0	43	0	1084227584	65	4498
2026-01-25 23:55:43.29	170.71	25.64	-47.0	-48.7	18.4	0.00e+00	0	44	0	1086324736	65	4413
2026-01-25 23:55:44.29	170.84	25.49	-46.8	-48.5	18.6	0.00e+00	0	44	0	1088421888	65	4328
2026-01-25 23:55:45.30	170.96	25.34	-46.7	-48.3	18.7	0.00e+00	0	44	0	1089470464	65	4237
2026-01-25 23:55:46.31	171.08	25.19	-46.6	-48.2	18.8	0.00e+00	0	44	0	1091567616	65	4189
2026-01-25 23:55:47.31	171.20	25.04	-46.5	-48.1	18.9	0.00e+00	0	44	0	1093664768	64	4347
2026-01-25 23:55:48.32	171.33	24.90	-46.2	-47.7	19.3	0.00e+00	0	44	0	1095761920	64	4182
2026-01-25 23:55:49.33	171.45	24.75	-46.0	-47.4	19.6	0.00e+00	0	44	0	1097859072	63	4289
2026-01-25 23:55:50.33	171.56	24.61	-45.9	-47.3	19.7	0.00e+00	0	43	0	1099956224	63	4227
2026-01-25 23:55:51.34	171.68	24.46	-45.9	-47.3	19.8	0.00e+00	0	44	0	1101004800	63	4198
2026-01-25 23:55:52.35	171.80	24.32	-46.0	-47.4	19.7	0.00e+00	0	44	0	1103101952	63	4270
2026-01-25 23:55:53.35	171.91	24.18	-46.1	-47.5	19.6	0.00e+00	0	44	0	1105199104	63	4321
2026-01-25 23:55:54.36	172.03	24.03	-45.7	-47.1	20.0	0.00e+00	0	44	0	1107296256	63	4126
2026-01-25 23:55:55.37	172.14	23.89	-45.8	-47.2	19.9	0.00e+00	0	44	0	1109393408	63	4180
2026-01-25 23:55:56.37	172.25	23.75	-46.0	-47.5	19.6	0.00e+00	0	44	0	1110441984	63	4306
2026-01-25 23:55:57.38	172.37	23.61	-46.3	-47.8	19.3	0.00e+00	0	43	0	1112539136	63	4458
2026-01-25 23:55:58.39	172.48	23.47	-46.3	-47.9	19.2	0.00e+00	0	44	0	1114636288	63	4495
2026-01-25 23:55:59.39	172.59	23.33	-46.4	-48.0	19.1	0.00e+00	0	44	0	1116733440	63	4583
2026-01-25 23:56:00.39	172.69	23.20	-46.6	-48.2	18.9	0.00e+00	0	44	0	1117782016	63	4678
2026-01-25 23:56:01.40	172.80	23.06	-46.5	-48.2	18.9	0.00e+00	0	43	0	1119879168	63	4655
2026-01-25 23:56:02.41	172.91	22.92	-46.6	-48.2	18.9	0.00e+00	0	44	0	1121976320	63	4665
2026-01-25 23:56:03.41	173.02	22.79	-46.5	-48.1	18.9	0.00e+00	0	44	0	1124073472	63	4636
2026-01-25 23:56:04.42	173.12	22.65	-46.3	-47.9	19.2	0.00e+00	0	44	0	1126170624	63	4499
2026-01-25 23:56:05.42	173.22	22.52	-46.4	-48.0	19.1	0.00e+00	0	43	0	1128267776	63	4571
2026-01-25 23:56:06.43	173.33	22.38	-45.9	-47.3	19.7	0.00e+00	0	44	0	1129316352	63	4229
2026-01-25 23:56:07.43	173.43	22.25	-45.4	-46.7	20.3	0.00e+00	0	44	0	1131413504	62	4167
2026-01-25 23:56:08.44	173.53	22.11	-45.3	-46.6	20.4	0.00e+00	0	44	0	1133510656	62	4105
2026-01-25 23:56:09.45	173.63	21.98	-45.3	-46.5	20.4	0.00e+00	0	44	0	1135607808	62	4093
2026-01-25 23:56:10.45	173.73	21.85	-45.2	-46.5	20.5	0.00e+00	0	44	0	1137704960	62	4075
2026-01-25 23:56:11.46	173.83	21.72	-45.2	-46.5	20.5	0.00e+00	0	44	0	1138753536	62	4055
2026-01-25 23:56:12.47	173.93	21.59	-45.0	-46.3	20.7	0.00e+00	0	44	0	1140850688	62	3979
2026-01-25 23:56:13.48	174.03	21.46	-45.2	-46.4	20.6	0.00e+00	0	44	0	1142947840	62	4042
2026-01-25 23:56:14.49	174.13	21.33	-45.2	-46.5	20.5	0.00e+00	0	44	0	1145044992	62	4062
2026-01-25 23:56:15.49	174.22	21.20	-45.3	-46.6	20.3	0.00e+00	0	43	0	1146093568	62	4131
2026-01-25 23:56:16.50	174.32	21.07	-45.4	-46.7	20.3	0.00e+00	0	44	0	1148190720	62	4161
2026-01-25 23:56:17.51	174.41	20.94	-45.4	-46.8	20.2	0.00e+00	0	44	0	1150287872	62	4197
2026-01-25 23:56:18.51	174.51	20.81	-45.3	-46.6	20.4	0.00e+00	0	44	0	1152385024	62	4113
2026-01-25 23:56:19.52	174.60	20.69	-45.3	-46.6	20.3	0.00e+00	0	44	0	1154482176	62	4119
2026-01-25 23:56:20.53	174.69	20.56	-45.3	-46.6	20.3	0.00e+00	0	44	0	1156579328	62	4143
2026-01-25 23:56:21.53	174.78	20.43	-45.3	-46.6	20.3	0.00e+00	0	44	0	1157627904	62	4141
2026-01-25 23:56:22.54	174.88	20.31	-45.3	-46.6	20.3	0.00e+00	0	44	0	1159725056	62	4130
2026-01-25 23:56:23.54	174.97	20.18	-45.1	-46.3	20.6	0.00e+00	0	44	0	1161822208	62	4001
2026-01-25 23:56:24.55	175.06	20.06	-45.0	-46.2	20.7	0.00e+00	0	43	0	1163919360	61	4186
2026-01-25 23:56:25.55	175.14	19.94	-44.9	-46.2	20.7	0.00e+00	0	44	0	1166016512	61	4163
2026-01-25 23:56:26.56	175.23	19.81	-44.8	-46.0	20.9	0.00e+00	0	44	0	1167065088	61	4069
2026-01-25 23:56:27.57	175.32	19.69	-44.7	-46.0	20.9	0.00e+00	0	43	0	1169162240	61	4062
2026-01-25 23:56:28.57	175.41	19.57	-44.7	-45.9	21.0	0.00e+00	0	44	0	1171259392	61	4017
2026-01-25 23:56:29.58	175.49	19.45	-44.6	-45.8	21.0	0.00e+00	0	44	0	1173356544	61	3996
2026-01-25 23:56:30.58	175.58	19.33	-44.6	-45.8	21.0	0.00e+00	0	44	0	1174405120	61	3993
2026-01-25 23:56:31.59	175.66	19.21	-44.5	-45.7	21.2	0.00e+00	0	43	0	1176502272	60	4161
2026-01-25 23:56:32.60	175.75	19.09	-44.3	-45.5	21.4	0.00e+00	0	44	0	1178599424	60	4061
2026-01-25 23:56:33.61	175.83	18.97	-44.4	-45.5	21.3	0.00e+00	0	43	0	1180696576	60	4095
2026-01-25 23:56:34.61	175.91	18.85	-44.5	-45.7	21.2	0.00e+00	0	43	0	1182793728	60	4150
2026-01-25 23:56:35.62	176.00	18.73	-44.4	-45.5	21.3	0.00e+00	0	43	0	1184890880	60	4098
2026-01-25 23:56:36.63	176.08	18.61	-44.4	-45.5	21.3	0.00e+00	0	43	0	1185939456	60	4090
2026-01-25 23:56:37.64	176.16	18.50	-44.5	-45.7	21.2	0.00e+00	0	44	0	1188036608	60	4150
2026-01-25 23:56:38.64	176.24	18.38	-44.4	-45.6	21.2	0.00e+00	0	44	0	1190133760	60	4119
2026-01-25 23:56:39.65	176.32	18.26	-44.5	-45.6	21.2	0.00e+00	0	43	0	1192230912	60	4144
2026-01-25 23:56:40.66	176.40	18.15	-44.5	-45.7	21.1	0.00e+00	0	43	0	1194328064	60	4179
2026-01-25 23:56:41.67	176.48	18.03	-44.6	-45.9	21.0	0.00e+00	0	43	0	1195376640	60	4251
2026-01-25 23:56:42.68	176.56	17.92	-44.7	-46.0	20.9	0.00e+00	0	44	0	1197473792	60	4300
2026-01-25 23:56:43.69	176.64	17.80	-44.8	-46.0	20.8	0.00e+00	0	44	0	1199570944	60	4326
2026-01-25 23:56:44.69	176.71	17.69	-44.9	-46.1	20.7	0.00e+00	0	43	0	1201668096	60	4372
2026-01-25 23:56:45.70	176.79	17.58	-44.9	-46.2	20.6	0.00e+00	0	44	0	1202716672	60	4410
2026-01-25 23:56:46.70	176.87	17.46	-44.9	-46.2	20.6	0.00e+00	0	43	0	1204813824	60	4406
2026-01-25 23:56:47.71	176.94	17.35	-45.1	-46.4	20.5	0.00e+00	0	43	0	1206910976	60	4501
2026-01-25 23:56:48.72	177.02	17.24	-45.2	-46.5	20.3	0.00e+00	0	44	0	1209008128	60	4580
2026-01-25 23:56:49.72	177.09	17.13	-45.1	-46.4	20.4	0.00e+00	0	43	0	1211105280	60	4527
2026-01-25 23:56:50.73	177.17	17.02	-45.1	-46.4	20.4	0.00e+00	0	43	0	1213202432	60	4528
2026-01-25 23:56:51.74	177.24	16.91	-45.1	-46.4	20.4	0.00e+00	0	44	0	1214251008	60	4514
2026-01-25 23:56:52.74	177.31	16.80	-45.0	-46.3	20.6	0.00e+00	0	44	0	1216348160	60	4443
2026-01-25 23:56:53.75	177.39	16.69	-44.9	-46.2	20.6	0.00e+00	0	44	0	1218445312	60	4434
2026-01-25 23:56:54.75	177.46	16.58	-44.9	-46.2	20.6	0.00e+00	0	44	0	1220542464	60	4428
2026-01-25 23:56:55.76	177.53	16.47	-45.0	-46.3	20.5	0.00e+00	0	43	0	1222639616	60	4456
2026-01-25 23:56:56.76	177.60	16.36	-44.8	-46.1	20.7	0.00e+00	0	44	0	1223688192	60	4350
2026-01-25 23:56:57.77	177.67	16.25	-44.7	-45.9	20.8	0.00e+00	0	44	0	1225785344	60	4291
2026-01-25 23:56:58.77	177.74	16.15	-44.7	-45.9	20.8	0.00e+00	0	43	0	1227882496	60	4282
2026-01-25 23:56:59.78	177.81	16.04	-44.7	-45.9	20.8	0.00e+00	0	43	0	1229979648	60	4282
2026-01-25 23:57:00.79	177.88	15.93	-44.6	-45.8	21.0	0.00e+00	0	43	0	1231028224	60	4211
2026-01-25 23:57:01.79	177.95	15.83	-44.5	-45.7	21.0	0.00e+00	0	44	0	1233125376	60	4180
2026-01-25 23:57:02.80	178.02	15.72	-44.6	-45.8	21.0	0.00e+00	0	44	0	1235222528	60	4199
2026-01-25 23:57:03.80	178.08	15.62	-44.6	-45.8	21.0	0.00e+00	0	44	0	1237319680	60	4219
2026-01-25 23:57:04.81	178.15	15.51	-44.5	-45.7	21.0	0.00e+00	0	43	0	1239416832	60	4158
2026-01-25 23:57:05.82	178.22	15.41	-44.5	-45.7	21.0	0.00e+00	0	43	0	1241513984	60	4186
2026-01-25 23:57:06.83	178.29	15.30	-44.6	-45.8	20.9	0.00e+00	0	43	0	1242562560	60	4232
2026-01-25 23:57:07.83	178.35	15.20	-44.6	-45.9	20.9	0.00e+00	0	44	0	1244659712	60	4246
2026-01-25 23:57:08.84	178.42	15.10	-44.7	-46.0	20.7	0.00e+00	0	44	0	1246756864	60	4314
2026-01-25 23:57:09.85	178.48	14.99	-44.8	-46.0	20.6	0.00e+00	0	44	0	1248854016	60	4312
