passes_logs/2026/01/25/R3.2S_Murmansk/R3.2S_Murmansk__20260125_040150_FENGYUN_3D_rec.log

#Pass ID: 20260125_040150_FENGYUN 3D
#Satellite: FENGYUN 3D
#Configuration: FENGYUN 3D
#almurnet v.1.7.20251203
#Start time: 2026-01-25 04:01:50

#Version: 2.2.20231116
#Station: R3.2S_Murmansk
#Location: 33.079688 lon 68.888172 lat
#TLE: 1 43010U 17072A   26024.51794477  .00000040  00000+0  40682-4 0  9990
#TLE: 2 43010  98.9961 356.4820 0002494  91.2631 268.8830 14.19699550424601

#Time	Az	El	Level	Level2	SNR	BER	BlckErr	Temp	State	Recorded	gain1	gain2
2026-01-25 04:01:50.16	30.99	1.98	-52.2	-64.1	3.8	8.45e-01	0	45	0	0	76	13786
2026-01-25 04:01:51.16	30.97	2.05	-52.1	-64.1	3.8	8.47e-01	0	45	104	0	74	15439
2026-01-25 04:01:52.17	30.94	2.11	-52.1	-64.1	3.8	8.45e-01	0	45	104	0	74	15434
2026-01-25 04:01:53.17	30.92	2.17	-52.1	-64.0	3.8	8.46e-01	0	45	104	0	74	15382
2026-01-25 04:01:54.18	30.89	2.24	-52.1	-64.0	3.8	8.45e-01	0	45	104	0	74	15383
2026-01-25 04:01:55.19	30.86	2.30	-52.1	-64.0	3.8	8.46e-01	0	45	104	0	74	15373
2026-01-25 04:01:56.20	30.84	2.37	-52.1	-64.0	3.8	8.46e-01	0	45	104	0	74	15352
2026-01-25 04:01:57.21	30.81	2.43	-52.1	-64.0	3.8	8.45e-01	0	45	104	0	74	15310
2026-01-25 04:01:58.22	30.78	2.49	-52.1	-64.0	3.8	8.46e-01	0	45	104	0	74	15278
2026-01-25 04:01:59.23	30.75	2.56	-52.1	-64.0	3.8	8.47e-01	0	45	104	0	74	15307
2026-01-25 04:02:00.24	30.73	2.62	-52.1	-64.0	3.8	8.46e-01	0	45	104	0	74	15227
2026-01-25 04:02:01.25	30.70	2.69	-52.1	-63.9	3.8	8.46e-01	0	45	104	0	74	15097
2026-01-25 04:02:02.25	30.67	2.75	-52.1	-63.8	3.8	8.46e-01	0	45	104	0	74	14964
2026-01-25 04:02:03.26	30.64	2.82	-52.1	-63.8	3.8	8.47e-01	0	45	104	0	74	14962
2026-01-25 04:02:04.27	30.62	2.88	-52.1	-63.7	3.8	8.45e-01	0	45	104	0	74	14802
2026-01-25 04:02:05.28	30.59	2.95	-52.1	-63.6	3.8	8.46e-01	0	45	104	0	74	14702
2026-01-25 04:02:06.29	30.56	3.01	-52.1	-63.6	3.8	8.47e-01	0	45	104	0	74	14696
2026-01-25 04:02:07.30	30.53	3.08	-52.1	-63.7	3.8	8.45e-01	0	45	104	0	74	14852
2026-01-25 04:02:08.31	30.50	3.14	-52.1	-63.8	3.8	8.47e-01	0	45	104	0	74	14886
2026-01-25 04:02:09.32	30.48	3.21	-52.1	-63.7	3.8	8.47e-01	0	45	104	0	74	14851
2026-01-25 04:02:10.33	30.45	3.28	-52.1	-63.9	3.8	8.46e-01	0	45	104	0	74	15084
2026-01-25 04:02:11.33	30.42	3.34	-52.1	-63.9	3.8	8.45e-01	0	45	104	0	74	15117
2026-01-25 04:02:12.34	30.39	3.41	-52.1	-64.0	3.8	8.47e-01	0	45	104	0	74	15308
2026-01-25 04:02:13.35	30.36	3.48	-52.1	-64.0	3.8	8.47e-01	0	45	104	0	74	15300
2026-01-25 04:02:14.36	30.33	3.54	-52.1	-63.8	3.8	8.46e-01	0	45	104	0	74	14969
2026-01-25 04:02:15.37	30.30	3.61	-52.0	-63.2	3.8	8.45e-01	0	45	104	0	74	14007
2026-01-25 04:02:16.37	30.27	3.68	-52.0	-62.5	3.8	8.45e-01	0	45	104	0	74	12896
2026-01-25 04:02:17.38	30.24	3.74	-51.9	-61.6	4.0	8.45e-01	0	45	104	0	74	11557
2026-01-25 04:02:18.39	30.21	3.81	-51.8	-60.8	4.1	8.42e-01	0	45	0	0	74	10652
2026-01-25 04:02:19.40	30.18	3.88	-51.7	-60.2	4.3	8.36e-01	0	45	0	0	74	9885
2026-01-25 04:02:20.41	30.15	3.94	-51.5	-59.1	4.7	8.17e-01	0	45	0	0	74	8733
2026-01-25 04:02:21.42	30.12	4.01	-51.5	-59.1	4.7	7.96e-01	0	45	0	0	74	8715
2026-01-25 04:02:22.43	30.09	4.08	-51.2	-57.8	5.4	7.40e-01	0	45	0	0	74	7541
2026-01-25 04:02:23.44	30.06	4.15	-50.9	-56.4	6.4	3.70e-01	0	45	0	4194304	73	6769
2026-01-25 04:02:24.45	30.03	4.22	-50.6	-55.8	7.0	1.88e-01	0	45	0	9437184	73	6289
2026-01-25 04:02:25.45	30.00	4.28	-50.0	-54.0	8.8	7.53e-02	0	45	0	14680064	71	5780
2026-01-25 04:02:26.47	29.97	4.35	-49.8	-53.6	9.3	2.11e-02	0	45	0	20971520	71	5494
2026-01-25 04:02:27.47	29.93	4.42	-49.1	-52.2	10.7	9.71e-03	0	45	0	27262976	70	4957
2026-01-25 04:02:28.48	29.90	4.49	-48.1	-50.5	12.5	2.60e-04	0	45	0	32505856	68	4564
2026-01-25 04:02:29.49	29.87	4.56	-47.8	-50.2	12.7	2.18e-04	0	45	0	37748736	67	4664
2026-01-25 04:02:30.50	29.84	4.63	-46.9	-48.8	14.2	9.10e-06	0	45	0	44040192	65	4469
2026-01-25 04:02:31.51	29.81	4.70	-46.5	-48.4	14.6	1.10e-06	0	45	0	49283072	65	4250
2026-01-25 04:02:32.51	29.78	4.77	-45.9	-47.5	15.6	0.00e+00	0	45	0	54525952	63	4317
2026-01-25 04:02:33.52	29.74	4.84	-46.0	-47.7	15.4	0.00e+00	0	45	0	60817408	63	4400
2026-01-25 04:02:34.53	29.71	4.91	-46.1	-47.7	15.4	0.00e+00	0	45	0	66060288	63	4440
2026-01-25 04:02:35.54	29.68	4.98	-45.9	-47.5	15.5	0.00e+00	0	45	0	72351744	63	4333
2026-01-25 04:02:36.55	29.64	5.05	-45.5	-46.9	16.3	0.00e+00	0	45	0	77594624	62	4287
2026-01-25 04:02:37.56	29.61	5.12	-48.0	-50.3	12.8	5.03e-05	0	45	0	83886080	66	5025
2026-01-25 04:02:38.57	29.58	5.19	-47.0	-49.0	14.1	1.10e-06	0	45	0	89128960	64	4849
2026-01-25 04:02:39.57	29.54	5.26	-43.6	-44.6	18.8	1.10e-02	0	45	0	95420416	59	3899
2026-01-25 04:02:40.58	29.51	5.33	-47.6	-49.8	13.5	0.00e+00	0	45	0	100663296	65	5037
2026-01-25 04:02:41.59	29.48	5.40	-45.4	-46.8	16.1	2.31e-01	0	45	0	103809024	63	4001
2026-01-25 04:02:42.60	29.44	5.47	-43.7	-44.9	18.7	0.00e+00	0	45	0	109051904	59	4008
2026-01-25 04:02:43.61	29.41	5.54	-43.6	-44.7	18.9	0.00e+00	0	45	0	115343360	59	3924
2026-01-25 04:02:44.62	29.37	5.62	-43.0	-44.1	19.5	0.00e+00	0	45	0	120586240	58	3872
2026-01-25 04:02:45.63	29.34	5.69	-43.1	-44.2	19.4	0.00e+00	0	45	0	125829120	58	3935
2026-01-25 04:02:46.63	29.31	5.76	-43.2	-44.2	19.4	0.00e+00	0	45	0	132120576	58	3942
2026-01-25 04:02:47.64	29.27	5.83	-42.7	-43.7	19.9	0.00e+00	0	45	0	137363456	57	3955
2026-01-25 04:02:48.65	29.24	5.90	-43.0	-44.0	19.6	0.00e+00	0	45	0	142606336	57	4073
2026-01-25 04:02:49.66	29.20	5.98	-42.8	-43.8	19.8	0.00e+00	0	45	0	148897792	57	3999
2026-01-25 04:02:50.67	29.16	6.05	-42.7	-43.7	20.0	0.00e+00	0	46	0	155189248	57	3930
2026-01-25 04:02:51.67	29.13	6.12	-42.6	-43.6	20.1	0.00e+00	0	45	0	160432128	57	3871
2026-01-25 04:02:52.68	29.09	6.19	-42.8	-43.8	19.8	0.00e+00	0	45	0	165675008	57	3982
2026-01-25 04:02:53.69	29.06	6.27	-42.7	-43.7	19.9	0.00e+00	0	45	0	171966464	57	3937
2026-01-25 04:02:54.70	29.02	6.34	-42.8	-43.8	19.8	0.00e+00	0	45	0	177209344	57	3990
2026-01-25 04:02:55.71	28.98	6.41	-42.6	-43.6	20.1	0.00e+00	0	45	0	183500800	57	3880
2026-01-25 04:02:56.72	28.95	6.49	-42.9	-43.9	19.8	0.00e+00	0	45	0	188743680	57	4027
2026-01-25 04:02:57.73	28.91	6.56	-42.8	-43.8	19.9	0.00e+00	0	45	0	193986560	57	3974
2026-01-25 04:02:58.74	28.87	6.64	-42.7	-43.7	20.0	0.00e+00	0	45	0	200278016	57	3939
2026-01-25 04:02:59.75	28.83	6.71	-42.8	-43.8	19.9	0.00e+00	0	45	0	205520896	57	3990
2026-01-25 04:03:00.74	28.80	6.79	-42.4	-43.3	20.3	0.00e+00	0	45	0	210763776	56	3997
2026-01-25 04:03:01.74	28.76	6.86	-42.4	-43.4	20.3	0.00e+00	0	45	0	217055232	56	4014
2026-01-25 04:03:02.75	28.72	6.93	-42.5	-43.5	20.2	0.00e+00	0	45	0	222298112	56	4055
2026-01-25 04:03:03.76	28.68	7.01	-42.4	-43.3	20.4	0.00e+00	0	45	0	228589568	56	3997
2026-01-25 04:03:04.77	28.65	7.09	-42.3	-43.2	20.5	0.00e+00	0	45	0	233832448	56	3947
2026-01-25 04:03:05.78	28.61	7.16	-42.3	-43.2	20.5	0.00e+00	0	45	0	240123904	56	3950
2026-01-25 04:03:06.79	28.57	7.24	-42.5	-43.5	20.2	0.00e+00	0	45	0	245366784	56	4075
2026-01-25 04:03:07.79	28.53	7.31	-42.5	-43.5	20.2	0.00e+00	0	46	0	250609664	56	4089
2026-01-25 04:03:08.80	28.49	7.39	-42.4	-43.4	20.3	0.00e+00	0	45	0	256901120	56	4034
2026-01-25 04:03:09.81	28.45	7.47	-42.4	-43.3	20.4	0.00e+00	0	45	0	262144000	56	4001
2026-01-25 04:03:10.82	28.41	7.54	-42.2	-43.1	20.6	0.00e+00	0	45	0	268435456	56	3913
2026-01-25 04:03:11.83	28.37	7.62	-42.2	-43.2	20.6	0.00e+00	0	45	0	273678336	56	3925
2026-01-25 04:03:12.84	28.33	7.70	-42.2	-43.1	20.7	0.00e+00	0	45	0	278921216	56	3891
2026-01-25 04:03:13.85	28.29	7.78	-42.2	-43.1	20.6	0.00e+00	0	46	0	285212672	56	3903
2026-01-25 04:03:14.86	28.25	7.85	-42.2	-43.2	20.6	0.00e+00	0	45	0	291504128	56	3915
2026-01-25 04:03:15.87	28.21	7.93	-42.5	-43.5	20.4	0.00e+00	0	45	0	296747008	56	4055
2026-01-25 04:03:16.87	28.17	8.01	-42.2	-43.1	20.7	0.00e+00	0	45	0	301989888	56	3905
2026-01-25 04:03:17.88	28.12	8.09	-42.3	-43.2	20.6	0.00e+00	0	45	0	308281344	56	3949
2026-01-25 04:03:18.89	28.08	8.17	-42.3	-43.3	20.5	0.00e+00	0	45	0	313524224	56	3976
2026-01-25 04:03:19.90	28.04	8.24	-42.3	-43.3	20.6	0.00e+00	0	45	0	318767104	56	3973
2026-01-25 04:03:20.91	28.00	8.32	-42.4	-43.4	20.5	0.00e+00	0	45	0	325058560	56	4023
2026-01-25 04:03:21.91	27.96	8.40	-42.7	-43.7	20.2	0.00e+00	0	45	0	330301440	56	4148
2026-01-25 04:03:22.92	27.91	8.48	-42.6	-43.5	20.3	0.00e+00	0	45	0	335544320	56	4094
2026-01-25 04:03:23.93	27.87	8.56	-42.5	-43.4	20.4	0.00e+00	0	45	0	341835776	56	4037
2026-01-25 04:03:24.94	27.83	8.64	-42.3	-43.2	20.6	0.00e+00	0	45	0	347078656	56	3949
2026-01-25 04:03:25.95	27.78	8.72	-42.2	-43.2	20.7	0.00e+00	0	45	0	353370112	56	3923
2026-01-25 04:03:26.96	27.74	8.80	-42.0	-42.9	20.9	0.00e+00	0	45	0	358612992	56	3819
2026-01-25 04:03:27.97	27.69	8.88	-42.2	-43.2	20.7	0.00e+00	0	45	0	364904448	56	3923
2026-01-25 04:03:28.98	27.65	8.96	-42.3	-43.2	20.6	0.00e+00	0	45	0	370147328	56	3957
2026-01-25 04:03:29.99	27.61	9.05	-42.4	-43.4	20.5	0.00e+00	0	45	0	376438784	56	4027
2026-01-25 04:03:30.99	27.56	9.13	-42.4	-43.4	20.5	0.00e+00	0	45	0	381681664	56	4013
2026-01-25 04:03:32.00	27.52	9.21	-42.4	-43.4	20.6	0.00e+00	0	45	0	386924544	56	4010
2026-01-25 04:03:33.01	27.47	9.29	-42.4	-43.4	20.5	0.00e+00	0	45	0	393216000	56	4022
2026-01-25 04:03:34.02	27.42	9.37	-42.2	-43.2	20.8	0.00e+00	0	45	0	398458880	56	3917
2026-01-25 04:03:35.03	27.38	9.46	-42.3	-43.3	20.7	0.00e+00	0	45	0	403701760	56	3961
2026-01-25 04:03:36.04	27.33	9.54	-42.2	-43.1	20.8	0.00e+00	0	45	0	409993216	56	3896
2026-01-25 04:03:37.05	27.29	9.62	-42.1	-43.1	20.9	0.00e+00	0	45	0	415236096	56	3870
2026-01-25 04:03:38.05	27.24	9.70	-42.2	-43.1	20.9	0.00e+00	0	45	0	420478976	56	3891
2026-01-25 04:03:39.06	27.19	9.79	-41.9	-42.8	21.1	0.00e+00	0	45	0	426770432	55	3977
2026-01-25 04:03:40.07	27.14	9.87	-42.0	-42.9	21.0	0.00e+00	0	46	0	433061888	55	4028
2026-01-25 04:03:41.08	27.10	9.96	-41.9	-42.8	21.0	0.00e+00	0	45	0	438304768	55	3997
2026-01-25 04:03:42.08	27.05	10.04	-42.2	-43.1	20.7	0.00e+00	0	45	0	443547648	55	4133
2026-01-25 04:03:43.09	27.00	10.12	-42.2	-43.2	20.7	0.00e+00	0	45	0	449839104	55	4162
2026-01-25 04:03:44.10	26.95	10.21	-42.2	-43.1	20.8	0.00e+00	0	45	0	455081984	55	4124
2026-01-25 04:03:45.11	26.90	10.29	-42.0	-42.9	21.0	0.00e+00	0	45	0	461373440	55	4016
2026-01-25 04:03:46.12	26.85	10.38	-41.9	-42.9	21.0	0.00e+00	0	45	0	466616320	55	4006
2026-01-25 04:03:47.13	26.80	10.46	-41.6	-42.5	21.3	0.00e+00	0	45	0	471859200	55	3868
2026-01-25 04:03:48.13	26.75	10.55	-41.7	-42.6	21.3	0.00e+00	0	45	0	478150656	55	3892
2026-01-25 04:03:49.14	26.70	10.64	-41.4	-42.3	21.6	0.00e+00	0	45	0	483393536	54	3987
2026-01-25 04:03:50.15	26.65	10.72	-41.6	-42.5	21.4	0.00e+00	0	45	0	488636416	54	4074
2026-01-25 04:03:51.16	26.60	10.81	-41.7	-42.6	21.4	0.00e+00	0	45	0	494927872	54	4107
2026-01-25 04:03:52.17	26.55	10.90	-41.5	-42.4	21.6	0.00e+00	0	45	0	501219328	54	4007
2026-01-25 04:03:53.18	26.50	10.98	-41.5	-42.4	21.5	0.00e+00	0	45	0	506462208	54	4037
2026-01-25 04:03:54.19	26.45	11.07	-41.6	-42.5	21.4	0.00e+00	0	45	0	511705088	54	4077
2026-01-25 04:03:55.19	26.40	11.16	-41.5	-42.3	21.6	0.00e+00	0	45	0	517996544	54	3993
2026-01-25 04:03:56.20	26.34	11.25	-41.5	-42.4	21.5	0.00e+00	0	45	0	523239424	54	4023
2026-01-25 04:03:57.21	26.29	11.34	-41.4	-42.2	21.7	0.00e+00	0	45	0	528482304	54	3957
2026-01-25 04:03:58.22	26.24	11.42	-41.3	-42.1	21.8	0.00e+00	0	45	0	534773760	54	3894
2026-01-25 04:03:59.23	26.18	11.51	-41.3	-42.2	21.7	0.00e+00	0	45	0	540016640	54	3938
2026-01-25 04:04:00.24	26.13	11.60	-41.2	-42.1	21.8	0.00e+00	0	45	0	546308096	54	3896
2026-01-25 04:04:01.25	26.08	11.69	-41.1	-41.9	22.0	0.00e+00	0	45	0	551550976	54	3813
2026-01-25 04:04:02.26	26.02	11.78	-41.1	-41.9	22.0	0.00e+00	0	45	0	557842432	54	3809
2026-01-25 04:04:03.27	25.97	11.87	-41.0	-41.8	22.1	0.00e+00	0	45	0	563085312	54	3777
2026-01-25 04:04:04.28	25.91	11.96	-41.0	-41.8	22.1	0.00e+00	0	45	0	569376768	53	4000
2026-01-25 04:04:05.29	25.85	12.05	-41.0	-41.8	22.1	0.00e+00	0	45	0	574619648	53	3997
2026-01-25 04:04:06.30	25.80	12.15	-41.0	-41.8	22.1	0.00e+00	0	45	0	579862528	53	4003
2026-01-25 04:04:07.31	25.74	12.24	-41.1	-41.9	22.0	0.00e+00	0	45	0	586153984	53	4025
2026-01-25 04:04:08.32	25.69	12.33	-41.0	-41.8	22.1	0.00e+00	0	45	0	591396864	53	3993
2026-01-25 04:04:09.32	25.63	12.42	-41.0	-41.8	22.1	0.00e+00	0	45	0	596639744	53	3986
2026-01-25 04:04:10.33	25.57	12.51	-41.0	-41.9	22.1	0.00e+00	0	45	0	602931200	53	4012
2026-01-25 04:04:11.34	25.51	12.61	-40.9	-41.7	22.2	0.00e+00	0	45	0	608174080	53	3930
2026-01-25 04:04:12.35	25.45	12.70	-40.8	-41.6	22.4	0.00e+00	0	45	0	613416960	53	3890
2026-01-25 04:04:13.36	25.40	12.79	-40.9	-41.7	22.3	0.00e+00	0	45	0	619708416	53	3946
2026-01-25 04:04:14.37	25.34	12.89	-40.7	-41.6	22.4	0.00e+00	0	45	0	625999872	53	3875
2026-01-25 04:04:15.38	25.28	12.98	-40.8	-41.7	22.3	0.00e+00	0	45	0	631242752	53	3914
2026-01-25 04:04:16.39	25.22	13.08	-40.8	-41.6	22.3	0.00e+00	0	45	0	636485632	53	3909
2026-01-25 04:04:17.40	25.16	13.17	-40.8	-41.7	22.3	0.00e+00	0	45	0	642777088	53	3924
2026-01-25 04:04:18.41	25.10	13.27	-41.0	-41.8	22.1	0.00e+00	0	45	0	648019968	53	3989
2026-01-25 04:04:19.42	25.03	13.36	-40.9	-41.7	22.3	0.00e+00	0	45	0	654311424	53	3934
2026-01-25 04:04:20.43	24.97	13.46	-40.9	-41.8	22.2	0.00e+00	0	45	0	659554304	53	3959
2026-01-25 04:04:21.43	24.91	13.55	-40.9	-41.7	22.3	0.00e+00	0	45	0	664797184	53	3951
2026-01-25 04:04:22.44	24.85	13.65	-40.8	-41.6	22.4	0.00e+00	0	45	0	671088640	53	3900
2026-01-25 04:04:23.45	24.79	13.75	-40.8	-41.6	22.4	0.00e+00	0	45	0	676331520	53	3899
2026-01-25 04:04:24.46	24.72	13.84	-40.8	-41.7	22.3	0.00e+00	0	45	0	681574400	53	3923
2026-01-25 04:04:25.47	24.66	13.94	-40.7	-41.5	22.5	0.00e+00	0	45	0	687865856	53	3855
2026-01-25 04:04:26.47	24.59	14.04	-40.8	-41.6	22.4	0.00e+00	0	45	0	694157312	53	3895
2026-01-25 04:04:27.48	24.53	14.14	-40.8	-41.7	22.4	0.00e+00	0	45	0	699400192	53	3919
2026-01-25 04:04:28.49	24.46	14.23	-40.8	-41.6	22.4	0.00e+00	0	45	0	704643072	53	3912
2026-01-25 04:04:29.50	24.40	14.33	-40.8	-41.6	22.4	0.00e+00	0	45	0	710934528	53	3891
2026-01-25 04:04:30.51	24.33	14.43	-40.7	-41.5	22.5	0.00e+00	0	45	0	716177408	53	3851
2026-01-25 04:04:31.52	24.27	14.53	-40.7	-41.5	22.5	0.00e+00	0	45	0	721420288	53	3845
2026-01-25 04:04:32.53	24.20	14.63	-40.7	-41.5	22.5	0.00e+00	0	45	0	727711744	53	3855
2026-01-25 04:04:33.53	24.13	14.73	-40.5	-41.3	22.7	0.00e+00	0	45	0	732954624	53	3774
2026-01-25 04:04:34.54	24.06	14.83	-40.6	-41.4	22.6	0.00e+00	0	45	0	739246080	53	3791
2026-01-25 04:04:35.55	23.99	14.93	-40.4	-41.2	22.8	0.00e+00	0	45	0	744488960	52	3933
2026-01-25 04:04:36.56	23.93	15.04	-40.5	-41.3	22.7	0.00e+00	0	45	0	750780416	52	3981
2026-01-25 04:04:37.57	23.86	15.14	-40.5	-41.3	22.7	0.00e+00	0	45	0	756023296	52	3984
2026-01-25 04:04:38.58	23.79	15.24	-40.4	-41.2	22.8	0.00e+00	0	45	0	762314752	52	3921
2026-01-25 04:04:39.59	23.72	15.34	-40.2	-41.0	23.0	0.00e+00	0	45	0	767557632	52	3844
2026-01-25 04:04:40.60	23.64	15.45	-40.3	-41.0	23.0	0.00e+00	0	45	0	772800512	52	3861
2026-01-25 04:04:41.61	23.57	15.55	-40.2	-41.0	23.0	0.00e+00	0	45	0	779091968	52	3860
2026-01-25 04:04:42.61	23.50	15.65	-40.3	-41.1	22.9	0.00e+00	0	45	0	784334848	52	3871
2026-01-25 04:04:43.62	23.43	15.76	-40.1	-40.9	23.1	0.00e+00	0	45	0	789577728	52	3790
2026-01-25 04:04:44.63	23.36	15.86	-40.1	-40.9	23.1	0.00e+00	0	45	0	795869184	52	3806
2026-01-25 04:04:45.64	23.28	15.97	-40.2	-41.0	23.0	0.00e+00	0	45	0	801112064	52	3846
2026-01-25 04:04:46.65	23.21	16.07	-40.1	-40.9	23.1	0.00e+00	0	45	0	807403520	52	3821
2026-01-25 04:04:47.66	23.13	16.18	-40.1	-40.9	23.1	0.00e+00	0	45	0	812646400	52	3804
2026-01-25 04:04:48.67	23.06	16.28	-40.2	-40.9	23.1	0.00e+00	0	45	0	818937856	52	3819
2026-01-25 04:04:49.68	22.98	16.39	-40.0	-40.8	23.3	0.00e+00	0	45	0	824180736	52	3749
2026-01-25 04:04:50.69	22.90	16.50	-40.1	-40.9	23.2	0.00e+00	0	45	0	829423616	51	4018
2026-01-25 04:04:51.69	22.83	16.61	-40.2	-41.0	23.1	0.00e+00	0	45	0	835715072	51	4074
2026-01-25 04:04:52.70	22.75	16.71	-40.1	-40.9	23.2	0.00e+00	0	45	0	840957952	51	4041
2026-01-25 04:04:53.71	22.67	16.82	-40.1	-40.9	23.2	0.00e+00	0	45	0	847249408	51	4034
2026-01-25 04:04:54.72	22.59	16.93	-39.9	-40.7	23.5	0.00e+00	0	45	0	852492288	51	3923
2026-01-25 04:04:55.73	22.51	17.04	-40.0	-40.8	23.4	0.00e+00	0	45	0	857735168	51	3986
2026-01-25 04:04:56.74	22.43	17.15	-40.1	-40.9	23.3	0.00e+00	0	45	0	864026624	51	4024
2026-01-25 04:04:57.75	22.35	17.26	-39.9	-40.6	23.5	0.00e+00	0	45	0	869269504	51	3899
2026-01-25 04:04:58.76	22.27	17.37	-39.8	-40.5	23.6	0.00e+00	0	45	0	875560960	51	3868
2026-01-25 04:04:59.77	22.19	17.48	-39.8	-40.5	23.6	0.00e+00	0	45	0	880803840	51	3854
2026-01-25 04:05:00.78	22.11	17.59	-39.7	-40.4	23.7	0.00e+00	0	45	0	887095296	51	3807
2026-01-25 04:05:01.79	22.02	17.71	-39.6	-40.4	23.8	0.00e+00	0	45	0	892338176	51	3793
2026-01-25 04:05:02.80	21.94	17.82	-39.5	-40.3	23.9	0.00e+00	0	45	0	897581056	51	3744
2026-01-25 04:05:03.81	21.86	17.93	-39.6	-40.3	23.8	0.00e+00	0	45	0	903872512	51	3760
2026-01-25 04:05:04.81	21.77	18.04	-39.7	-40.4	23.7	0.00e+00	0	45	0	909115392	51	3816
2026-01-25 04:05:05.82	21.69	18.16	-39.5	-40.3	23.9	0.00e+00	0	45	0	915406848	51	3752
2026-01-25 04:05:06.83	21.60	18.27	-39.6	-40.3	23.8	0.00e+00	0	45	0	920649728	51	3768
2026-01-25 04:05:07.84	21.51	18.38	-39.5	-40.2	23.9	0.00e+00	0	45	0	925892608	51	3720
2026-01-25 04:05:08.85	21.42	18.50	-39.4	-40.1	24.0	0.00e+00	0	45	0	932184064	50	3904
2026-01-25 04:05:09.85	21.34	18.61	-39.4	-40.2	24.0	0.00e+00	0	45	0	937426944	50	3930
2026-01-25 04:05:10.86	21.25	18.73	-39.4	-40.1	24.0	0.00e+00	0	45	0	943718400	50	3907
2026-01-25 04:05:11.87	21.16	18.85	-39.4	-40.2	24.0	0.00e+00	0	45	0	948961280	50	3925
2026-01-25 04:05:12.88	21.07	18.96	-39.4	-40.2	24.0	0.00e+00	0	45	0	955252736	50	3915
2026-01-25 04:05:13.89	20.97	19.08	-39.4	-40.2	24.0	0.00e+00	0	45	0	960495616	50	3924
2026-01-25 04:05:14.90	20.88	19.20	-39.6	-40.3	23.9	0.00e+00	0	45	0	965738496	50	3987
2026-01-25 04:05:15.91	20.79	19.32	-39.6	-40.3	23.8	0.00e+00	0	45	0	972029952	50	4000
2026-01-25 04:05:16.92	20.70	19.44	-39.5	-40.2	24.0	0.00e+00	0	45	0	977272832	50	3939
2026-01-25 04:05:17.93	20.60	19.56	-39.5	-40.2	24.0	0.00e+00	0	45	0	982515712	50	3944
2026-01-25 04:05:18.94	20.51	19.68	-39.4	-40.2	24.0	0.00e+00	0	45	0	988807168	50	3919
2026-01-25 04:05:19.95	20.41	19.80	-39.3	-40.0	24.2	0.00e+00	0	45	0	994050048	50	3850
2026-01-25 04:05:20.95	20.31	19.92	-39.3	-40.1	24.1	0.00e+00	0	45	0	1000341504	50	3874
2026-01-25 04:05:21.96	20.22	20.04	-39.2	-40.0	24.2	0.00e+00	0	45	0	1005584384	50	3826
2026-01-25 04:05:22.97	20.12	20.16	-39.1	-39.8	24.4	0.00e+00	0	45	0	1011875840	50	3748
2026-01-25 04:05:23.98	20.02	20.28	-39.1	-39.8	24.3	0.00e+00	0	45	0	1017118720	50	3774
2026-01-25 04:05:24.99	19.92	20.40	-39.1	-39.8	24.3	0.00e+00	0	45	0	1023410176	50	3765
2026-01-25 04:05:25.99	19.82	20.53	-38.9	-39.7	24.5	0.00e+00	0	45	0	1028653056	49	3915
2026-01-25 04:05:27.00	19.72	20.65	-38.9	-39.6	24.5	0.00e+00	0	45	0	1033895936	49	3889
2026-01-25 04:05:28.01	19.62	20.78	-39.0	-39.7	24.4	0.00e+00	0	45	0	1040187392	49	3945
2026-01-25 04:05:29.02	19.51	20.90	-39.0	-39.7	24.4	0.00e+00	0	45	0	1045430272	49	3949
2026-01-25 04:05:30.03	19.41	21.03	-38.9	-39.7	24.5	0.00e+00	0	45	0	1050673152	49	3920
2026-01-25 04:05:31.04	19.30	21.15	-39.1	-39.8	24.4	0.00e+00	0	45	0	1056964608	49	3979
2026-01-25 04:05:32.05	19.20	21.28	-39.0	-39.7	24.4	0.00e+00	0	45	0	1062207488	49	3950
2026-01-25 04:05:33.06	19.09	21.41	-39.0	-39.8	24.4	0.00e+00	0	45	0	1068498944	49	3962
2026-01-25 04:05:34.07	18.98	21.53	-39.0	-39.8	24.4	0.00e+00	0	45	0	1073741824	49	3976
2026-01-25 04:05:35.08	18.87	21.66	-38.9	-39.7	24.5	0.00e+00	0	45	0	1080033280	49	3915
2026-01-25 04:05:36.09	18.76	21.79	-38.9	-39.6	24.5	0.00e+00	0	45	0	1085276160	49	3903
2026-01-25 04:05:37.09	18.65	21.92	-38.8	-39.5	24.6	0.00e+00	0	45	0	1090519040	49	3860
2026-01-25 04:05:38.10	18.54	22.05	-38.8	-39.5	24.7	0.00e+00	0	45	0	1096810496	49	3833
2026-01-25 04:05:39.11	18.43	22.18	-38.6	-39.3	24.9	0.00e+00	0	45	0	1102053376	49	3744
2026-01-25 04:05:40.12	18.32	22.31	-38.5	-39.2	24.9	0.00e+00	0	45	0	1108344832	49	3708
2026-01-25 04:05:41.13	18.20	22.44	-38.6	-39.3	24.8	0.00e+00	0	45	0	1113587712	49	3751
2026-01-25 04:05:42.14	18.09	22.57	-38.6	-39.3	24.8	0.00e+00	0	45	0	1118830592	49	3754
2026-01-25 04:05:43.15	17.97	22.70	-38.5	-39.2	25.0	0.00e+00	0	45	0	1125122048	48	3918
2026-01-25 04:05:44.15	17.85	22.84	-38.6	-39.3	24.9	0.00e+00	0	45	0	1130364928	48	3975
2026-01-25 04:05:45.16	17.73	22.97	-38.6	-39.3	24.8	0.00e+00	0	45	0	1136656384	48	3984
2026-01-25 04:05:46.18	17.61	23.10	-38.6	-39.3	24.8	0.00e+00	0	45	0	1141899264	48	3981
2026-01-25 04:05:47.18	17.49	23.24	-38.5	-39.3	24.9	0.00e+00	0	45	0	1148190720	48	3963
2026-01-25 04:05:48.19	17.37	23.37	-38.5	-39.2	24.9	0.00e+00	0	45	0	1153433600	48	3958
2026-01-25 04:05:49.20	17.25	23.51	-38.6	-39.3	24.8	0.00e+00	0	45	0	1158676480	48	4001
2026-01-25 04:05:50.21	17.12	23.65	-38.6	-39.3	24.8	0.00e+00	0	45	0	1164967936	48	3991
2026-01-25 04:05:51.22	17.00	23.78	-38.6	-39.3	24.9	0.00e+00	0	45	0	1170210816	48	3974
2026-01-25 04:05:52.23	16.87	23.92	-38.5	-39.2	24.9	0.00e+00	0	45	0	1175453696	48	3945
2026-01-25 04:05:53.24	16.74	24.06	-38.5	-39.2	25.0	0.00e+00	0	45	0	1181745152	48	3932
2026-01-25 04:05:54.25	16.62	24.20	-38.5	-39.3	24.9	0.00e+00	0	45	0	1186988032	48	3960
2026-01-25 04:05:55.25	16.49	24.33	-38.3	-39.0	25.1	0.00e+00	0	45	0	1193279488	48	3837
2026-01-25 04:05:56.26	16.36	24.47	-38.2	-38.9	25.2	0.00e+00	0	45	0	1198522368	48	3793
2026-01-25 04:05:57.27	16.22	24.61	-38.2	-38.9	25.2	0.00e+00	0	45	0	1204813824	48	3822
2026-01-25 04:05:58.28	16.09	24.76	-38.3	-39.0	25.2	0.00e+00	0	45	0	1210056704	48	3825
2026-01-25 04:05:59.29	15.96	24.90	-38.2	-38.9	25.3	0.00e+00	0	45	0	1216348160	48	3786
2026-01-25 04:06:00.30	15.82	25.04	-38.4	-39.1	25.0	0.00e+00	0	45	0	1221591040	48	3908
2026-01-25 04:06:01.31	15.68	25.18	-38.3	-39.0	25.2	0.00e+00	0	45	0	1226833920	48	3844
2026-01-25 04:06:02.32	15.55	25.33	-38.3	-39.0	25.2	0.00e+00	0	45	0	1233125376	48	3844
2026-01-25 04:06:03.33	15.41	25.47	-38.4	-39.1	25.1	0.00e+00	0	45	0	1238368256	48	3899
2026-01-25 04:06:04.34	15.26	25.61	-38.4	-39.1	25.1	0.00e+00	0	45	0	1243611136	48	3904
2026-01-25 04:06:05.35	15.12	25.76	-38.4	-39.1	25.1	0.00e+00	0	45	0	1249902592	48	3880
2026-01-25 04:06:06.35	14.98	25.90	-38.5	-39.2	25.0	0.00e+00	0	45	0	1255145472	48	3950
2026-01-25 04:06:07.36	14.83	26.05	-38.4	-39.1	25.1	0.00e+00	0	45	0	1261436928	48	3892
2026-01-25 04:06:08.37	14.69	26.20	-38.3	-39.0	25.2	0.00e+00	0	45	0	1266679808	48	3837
2026-01-25 04:06:09.38	14.54	26.34	-38.1	-38.8	25.4	0.00e+00	0	45	0	1272971264	48	3751
2026-01-25 04:06:10.39	14.39	26.49	-38.2	-38.9	25.3	0.00e+00	0	45	0	1278214144	48	3784
2026-01-25 04:06:11.40	14.24	26.64	-37.7	-38.4	25.2	0.00e+00	0	45	0	1283457024	47	3797
2026-01-25 04:06:12.41	14.09	26.79	-37.8	-38.5	25.2	0.00e+00	0	45	0	1289748480	47	3838
2026-01-25 04:06:13.42	13.93	26.94	-37.7	-38.4	25.2	0.00e+00	0	45	0	1294991360	47	3797
2026-01-25 04:06:14.43	13.78	27.09	-37.5	-38.2	25.4	0.00e+00	0	45	0	1301282816	47	3725
2026-01-25 04:06:15.44	13.62	27.24	-37.6	-38.3	25.3	0.00e+00	0	45	0	1306525696	47	3767
2026-01-25 04:06:16.45	13.47	27.39	-37.7	-38.4	25.3	0.00e+00	0	45	0	1311768576	47	3795
2026-01-25 04:06:17.46	13.31	27.54	-37.7	-38.5	25.2	0.00e+00	0	45	0	1318060032	47	3828
2026-01-25 04:06:18.47	13.14	27.70	-37.9	-38.6	25.1	0.00e+00	0	45	0	1324351488	47	3890
2026-01-25 04:06:19.48	12.98	27.85	-37.9	-38.6	25.1	0.00e+00	0	45	0	1329594368	47	3889
2026-01-25 04:06:20.48	12.82	28.00	-37.8	-38.5	25.1	0.00e+00	0	45	0	1334837248	47	3851
2026-01-25 04:06:21.49	12.65	28.16	-37.8	-38.5	25.2	0.00e+00	0	45	0	1341128704	47	3862
2026-01-25 04:06:22.50	12.48	28.31	-37.8	-38.5	25.2	0.00e+00	0	45	0	1346371584	47	3853
2026-01-25 04:06:23.51	12.32	28.47	-37.8	-38.5	25.2	0.00e+00	0	45	0	1351614464	47	3836
2026-01-25 04:06:24.52	12.14	28.63	-37.9	-38.6	25.1	0.00e+00	0	45	0	1357905920	47	3890
2026-01-25 04:06:25.53	11.97	28.78	-37.6	-38.3	25.4	0.00e+00	0	45	0	1363148800	47	3751
2026-01-25 04:06:26.53	11.80	28.94	-37.5	-38.2	25.5	0.00e+00	0	45	0	1368391680	47	3710
2026-01-25 04:06:27.54	11.62	29.10	-37.5	-38.2	25.4	0.00e+00	0	45	0	1374683136	46	3931
2026-01-25 04:06:28.55	11.44	29.26	-37.5	-38.2	25.4	0.00e+00	0	45	0	1379926016	46	3947
2026-01-25 04:06:29.56	11.27	29.41	-37.5	-38.2	25.4	0.00e+00	0	45	0	1386217472	46	3957
2026-01-25 04:06:30.57	11.08	29.57	-37.5	-38.2	25.5	0.00e+00	0	45	0	1391460352	46	3934
2026-01-25 04:06:31.58	10.90	29.73	-37.5	-38.2	25.4	0.00e+00	0	45	0	1397751808	46	3952
2026-01-25 04:06:32.59	10.71	29.90	-37.6	-38.4	25.3	0.00e+00	0	45	0	1402994688	46	4007
2026-01-25 04:06:33.59	10.53	30.06	-37.7	-38.4	25.3	0.00e+00	0	45	0	1408237568	46	4044
2026-01-25 04:06:34.60	10.34	30.22	-37.8	-38.5	25.2	0.00e+00	0	45	0	1414529024	46	4065
2026-01-25 04:06:35.61	10.15	30.38	-37.8	-38.5	25.2	0.00e+00	0	45	0	1419771904	46	4086
2026-01-25 04:06:36.62	9.96	30.54	-37.8	-38.5	25.2	0.00e+00	0	45	0	1426063360	46	4076
2026-01-25 04:06:37.63	9.76	30.71	-37.8	-38.5	25.2	0.00e+00	0	45	0	1431306240	46	4090
2026-01-25 04:06:38.64	9.56	30.87	-37.8	-38.5	25.2	0.00e+00	0	45	0	1436549120	46	4091
2026-01-25 04:06:39.65	9.36	31.04	-37.6	-38.3	25.4	0.00e+00	0	45	0	1442840576	46	3986
2026-01-25 04:06:40.66	9.16	31.20	-37.5	-38.2	25.5	0.00e+00	0	45	0	1449132032	46	3941
2026-01-25 04:06:41.67	8.96	31.37	-37.5	-38.2	25.5	0.00e+00	0	45	0	1454374912	46	3946
2026-01-25 04:06:42.67	8.76	31.53	-37.4	-38.1	25.6	0.00e+00	0	45	0	1459617792	46	3904
2026-01-25 04:06:43.68	8.55	31.70	-37.5	-38.2	25.5	0.00e+00	0	45	0	1465909248	46	3936
2026-01-25 04:06:44.69	8.34	31.87	-37.4	-38.1	25.6	0.00e+00	0	45	0	1471152128	46	3899
2026-01-25 04:06:45.70	8.13	32.04	-37.4	-38.1	25.6	0.00e+00	0	45	0	1476395008	46	3887
2026-01-25 04:06:46.71	7.91	32.20	-37.5	-38.2	25.5	0.00e+00	0	45	0	1482686464	46	3940
2026-01-25 04:06:47.72	7.70	32.37	-37.4	-38.1	25.6	0.00e+00	0	45	0	1487929344	46	3911
2026-01-25 04:06:48.73	7.48	32.54	-37.4	-38.1	25.6	0.00e+00	0	45	0	1494220800	46	3886
2026-01-25 04:06:49.74	7.26	32.71	-37.5	-38.2	25.5	0.00e+00	0	45	0	1499463680	46	3928
2026-01-25 04:06:50.75	7.03	32.88	-37.4	-38.1	25.6	0.00e+00	0	45	0	1504706560	46	3879
2026-01-25 04:06:51.76	6.81	33.05	-37.1	-37.8	25.8	0.00e+00	0	45	0	1510998016	46	3768
2026-01-25 04:06:52.77	6.58	33.23	-37.1	-37.8	25.9	0.00e+00	0	45	0	1517289472	46	3750
2026-01-25 04:06:53.77	6.35	33.40	-37.1	-37.8	25.8	0.00e+00	0	45	0	1522532352	46	3776
2026-01-25 04:06:54.78	6.12	33.57	-37.1	-37.8	25.9	0.00e+00	0	45	0	1527775232	46	3749
2026-01-25 04:06:55.79	5.88	33.74	-37.2	-37.9	25.8	0.00e+00	0	45	0	1534066688	46	3791
2026-01-25 04:06:56.80	5.64	33.91	-37.1	-37.8	25.8	0.00e+00	0	45	0	1539309568	46	3771
2026-01-25 04:06:57.81	5.40	34.09	-37.2	-37.9	25.8	0.00e+00	0	45	0	1544552448	46	3813
2026-01-25 04:06:58.82	5.16	34.26	-37.2	-37.9	25.8	0.00e+00	0	45	0	1550843904	46	3796
2026-01-25 04:06:59.83	4.91	34.43	-37.3	-37.9	25.8	0.00e+00	0	45	0	1556086784	46	3823
2026-01-25 04:07:00.84	4.66	34.61	-37.3	-37.9	25.7	0.00e+00	0	45	0	1561329664	46	3817
2026-01-25 04:07:01.85	4.41	34.78	-37.6	-38.3	25.5	0.00e+00	0	45	0	1567621120	46	3968
2026-01-25 04:07:02.86	4.16	34.96	-37.8	-38.5	25.3	0.00e+00	0	45	0	1573912576	46	4074
2026-01-25 04:07:03.87	3.90	35.13	-37.8	-38.5	25.3	0.00e+00	0	45	0	1579155456	46	4077
2026-01-25 04:07:04.88	3.64	35.31	-37.7	-38.4	25.4	0.00e+00	0	45	0	1584398336	46	4015
2026-01-25 04:07:05.89	3.38	35.49	-37.6	-38.3	25.5	0.00e+00	0	45	0	1590689792	46	3970
2026-01-25 04:07:06.89	3.11	35.66	-37.5	-38.2	25.6	0.00e+00	0	45	0	1595932672	46	3922
2026-01-25 04:07:07.90	2.85	35.84	-37.4	-38.1	25.7	0.00e+00	0	45	0	1602224128	46	3894
2026-01-25 04:07:08.91	2.57	36.02	-37.3	-38.0	25.8	0.00e+00	0	45	0	1607467008	46	3834
2026-01-25 04:07:09.92	2.30	36.19	-37.3	-38.0	25.8	0.00e+00	0	45	0	1612709888	46	3844
2026-01-25 04:07:10.92	2.02	36.37	-37.3	-38.0	25.8	0.00e+00	0	45	0	1619001344	46	3829
2026-01-25 04:07:11.93	1.74	36.55	-37.2	-37.9	25.8	0.00e+00	0	45	0	1624244224	46	3817
2026-01-25 04:07:12.94	1.46	36.72	-37.4	-38.1	25.7	0.00e+00	0	45	0	1629487104	46	3875
2026-01-25 04:07:13.95	1.17	36.90	-37.5	-38.2	25.6	0.00e+00	0	45	0	1635778560	46	3921
2026-01-25 04:07:14.96	0.88	37.08	-37.5	-38.2	25.6	0.00e+00	0	45	0	1642070016	46	3932
2026-01-25 04:07:15.97	0.59	37.26	-37.4	-38.1	25.7	0.00e+00	0	45	0	1647312896	46	3891
2026-01-25 04:07:16.97	0.30	37.43	-37.4	-38.1	25.7	0.00e+00	0	45	0	1652555776	46	3893
2026-01-25 04:07:17.98	360.00	37.61	-37.4	-38.1	25.7	0.00e+00	0	45	0	1658847232	46	3897
2026-01-25 04:07:18.99	359.69	37.79	-37.4	-38.1	25.7	0.00e+00	0	45	0	1664090112	46	3897
2026-01-25 04:07:20.00	359.39	37.97	-37.4	-38.1	25.7	0.00e+00	0	45	0	1669332992	46	3879
2026-01-25 04:07:21.01	359.08	38.15	-37.3	-38.0	25.8	0.00e+00	0	45	0	1675624448	46	3851
2026-01-25 04:07:22.01	358.77	38.32	-37.3	-37.9	25.9	0.00e+00	0	45	0	1680867328	46	3821
2026-01-25 04:07:23.02	358.45	38.50	-37.2	-37.8	25.9	0.00e+00	0	45	0	1687158784	46	3774
2026-01-25 04:07:24.03	358.13	38.68	-37.2	-37.9	25.9	0.00e+00	0	45	0	1692401664	46	3798
2026-01-25 04:07:25.04	357.81	38.86	-37.2	-37.9	25.9	0.00e+00	0	45	0	1697644544	46	3807
2026-01-25 04:07:26.05	357.48	39.04	-37.2	-37.9	25.9	0.00e+00	0	45	0	1703936000	46	3798
2026-01-25 04:07:27.06	357.15	39.21	-37.2	-37.9	25.9	0.00e+00	0	45	0	1710227456	46	3800
2026-01-25 04:07:28.07	356.81	39.39	-37.3	-38.0	25.8	0.00e+00	0	45	0	1715470336	46	3856
2026-01-25 04:07:29.08	356.47	39.57	-37.5	-38.2	25.6	0.00e+00	0	45	0	1720713216	46	3941
2026-01-25 04:07:30.09	356.13	39.75	-37.5	-38.2	25.6	0.00e+00	0	45	0	1727004672	46	3944
2026-01-25 04:07:31.10	355.78	39.92	-37.6	-38.3	25.6	0.00e+00	0	45	0	1732247552	46	3969
2026-01-25 04:07:32.11	355.43	40.10	-37.5	-38.2	25.6	0.00e+00	0	45	0	1737490432	46	3940
2026-01-25 04:07:33.12	355.08	40.28	-37.5	-38.2	25.7	0.00e+00	0	45	0	1743781888	46	3933
2026-01-25 04:07:34.13	354.72	40.45	-37.5	-38.2	25.7	0.00e+00	0	45	0	1749024768	46	3918
2026-01-25 04:07:35.14	354.36	40.63	-37.3	-38.0	25.8	0.00e+00	0	45	0	1754267648	46	3862
2026-01-25 04:07:36.15	354.00	40.80	-37.5	-38.2	25.7	0.00e+00	0	45	0	1760559104	46	3916
2026-01-25 04:07:37.15	353.63	40.97	-37.5	-38.2	25.7	0.00e+00	0	45	0	1765801984	46	3932
2026-01-25 04:07:38.16	353.26	41.15	-37.7	-38.4	25.5	0.00e+00	0	45	0	1772093440	46	4014
2026-01-25 04:07:39.17	352.88	41.32	-37.8	-38.5	25.4	0.00e+00	0	45	0	1777336320	46	4066
2026-01-25 04:07:40.18	352.50	41.49	-37.9	-38.6	25.3	0.00e+00	0	45	0	1783627776	46	4113
2026-01-25 04:07:41.19	352.11	41.67	-37.8	-38.6	25.4	0.00e+00	0	45	0	1788870656	46	4102
2026-01-25 04:07:42.20	351.72	41.84	-37.7	-38.5	25.4	0.00e+00	0	45	0	1795162112	46	4052
2026-01-25 04:07:43.21	351.33	42.01	-37.6	-38.2	25.6	0.00e+00	0	45	0	1800404992	46	3953
2026-01-25 04:07:44.22	350.93	42.18	-37.5	-38.2	25.7	0.00e+00	0	45	0	1805647872	46	3940
2026-01-25 04:07:45.23	350.52	42.35	-37.3	-38.0	25.9	0.00e+00	0	45	0	1811939328	46	3840
2026-01-25 04:07:46.24	350.12	42.52	-37.4	-38.1	25.8	0.00e+00	0	45	0	1817182208	46	3908
2026-01-25 04:07:47.25	349.71	42.68	-37.6	-38.3	25.7	0.00e+00	0	45	0	1822425088	46	3969
2026-01-25 04:07:48.25	349.29	42.85	-37.7	-38.4	25.6	0.00e+00	0	45	0	1828716544	46	4009
2026-01-25 04:07:49.26	348.87	43.01	-37.6	-38.3	25.6	0.00e+00	0	45	0	1835008000	46	3997
2026-01-25 04:07:50.28	348.45	43.18	-37.6	-38.3	25.6	0.00e+00	0	45	0	1840250880	46	3974
2026-01-25 04:07:51.28	348.02	43.34	-37.6	-38.3	25.6	0.00e+00	0	45	0	1845493760	46	3982
2026-01-25 04:07:52.29	347.59	43.50	-37.7	-38.4	25.5	0.00e+00	0	45	0	1851785216	46	4039
2026-01-25 04:07:53.30	347.15	43.66	-37.8	-38.5	25.5	0.00e+00	0	45	0	1857028096	46	4085
2026-01-25 04:07:54.31	346.71	43.82	-37.9	-38.6	25.4	0.00e+00	0	45	0	1862270976	46	4117
2026-01-25 04:07:55.32	346.26	43.98	-37.6	-38.3	25.6	0.00e+00	0	45	0	1868562432	46	4000
2026-01-25 04:07:56.33	345.81	44.14	-37.5	-38.2	25.7	0.00e+00	0	45	0	1873805312	46	3924
2026-01-25 04:07:57.34	345.36	44.30	-37.5	-38.2	25.8	0.00e+00	0	45	0	1880096768	46	3923
2026-01-25 04:07:58.35	344.90	44.45	-37.5	-38.2	25.7	0.00e+00	0	45	0	1885339648	46	3920
2026-01-25 04:07:59.36	344.43	44.60	-37.7	-38.4	25.6	0.00e+00	0	45	0	1891631104	46	4040
2026-01-25 04:08:00.37	343.96	44.75	-37.6	-38.3	25.6	0.00e+00	0	45	0	1896873984	46	3992
2026-01-25 04:08:01.38	343.49	44.90	-37.4	-38.1	25.8	0.00e+00	0	45	0	1903165440	46	3903
2026-01-25 04:08:02.39	343.01	45.05	-37.4	-38.1	25.9	0.00e+00	0	45	0	1908408320	46	3890
2026-01-25 04:08:03.40	342.53	45.20	-37.4	-38.1	25.9	0.00e+00	0	45	0	1913651200	46	3870
2026-01-25 04:08:04.41	342.04	45.34	-37.4	-38.1	25.9	0.00e+00	0	45	0	1919942656	46	3885
2026-01-25 04:08:05.41	341.55	45.48	-37.6	-38.3	25.7	0.00e+00	0	45	0	1925185536	46	3993
2026-01-25 04:08:06.42	341.06	45.63	-37.4	-38.1	25.8	0.00e+00	0	45	0	1930428416	46	3913
2026-01-25 04:08:07.43	340.56	45.76	-37.3	-38.0	26.0	0.00e+00	0	45	0	1936719872	46	3839
2026-01-25 04:08:08.44	340.05	45.90	-37.4	-38.1	25.9	0.00e+00	0	45	0	1941962752	46	3886
2026-01-25 04:08:09.45	339.54	46.04	-37.7	-38.4	25.6	0.00e+00	0	45	0	1947205632	46	4024
2026-01-25 04:08:10.45	339.04	46.17	-38.0	-38.7	25.3	0.00e+00	0	45	0	1953497088	46	4172
2026-01-25 04:08:11.46	338.52	46.30	-38.1	-38.9	25.2	0.00e+00	0	45	0	1959788544	46	4248
2026-01-25 04:08:12.48	337.99	46.43	-38.0	-38.8	25.3	0.00e+00	0	45	0	1965031424	46	4196
2026-01-25 04:08:13.48	337.47	46.55	-37.8	-38.5	25.5	0.00e+00	0	45	0	1970274304	46	4078
2026-01-25 04:08:14.49	336.94	46.68	-37.8	-38.4	25.6	0.00e+00	0	45	0	1976565760	46	4049
2026-01-25 04:08:15.50	336.40	46.80	-38.1	-38.9	25.2	0.00e+00	0	45	0	1981808640	46	4243
2026-01-25 04:08:16.51	335.87	46.92	-38.4	-39.1	25.0	0.00e+00	0	45	0	1988100096	47	4127
2026-01-25 04:08:17.52	335.32	47.04	-38.3	-39.0	25.1	0.00e+00	0	45	0	1993342976	47	4085
2026-01-25 04:08:18.53	334.78	47.15	-38.3	-39.1	25.0	0.00e+00	0	45	0	1998585856	47	4103
2026-01-25 04:08:19.53	334.23	47.26	-38.4	-39.1	25.0	0.00e+00	0	45	0	2004877312	47	4125
2026-01-25 04:08:20.54	333.67	47.37	-38.4	-39.2	25.0	0.00e+00	0	45	0	2010120192	47	4149
2026-01-25 04:08:21.55	333.12	47.48	-38.5	-39.3	24.9	0.00e+00	0	45	0	2015363072	47	4208
2026-01-25 04:08:22.56	332.55	47.58	-38.5	-39.2	24.9	0.00e+00	0	45	0	2021654528	47	4188
2026-01-25 04:08:23.57	331.99	47.68	-38.3	-39.0	25.1	0.00e+00	0	45	0	2027945984	47	4079
2026-01-25 04:08:24.58	331.42	47.78	-38.3	-39.1	25.1	0.00e+00	0	45	0	2033188864	47	4099
2026-01-25 04:08:25.59	330.84	47.87	-38.4	-39.1	25.1	0.00e+00	0	45	0	2038431744	47	4118
2026-01-25 04:08:26.60	330.26	47.97	-38.5	-39.2	24.9	0.00e+00	0	45	0	2044723200	47	4181
2026-01-25 04:08:27.61	329.68	48.06	-38.6	-39.4	24.8	0.00e+00	0	45	0	2049966080	47	4247
2026-01-25 04:08:28.62	329.10	48.14	-38.6	-39.4	24.8	0.00e+00	0	45	0	2055208960	47	4243
2026-01-25 04:08:29.63	328.51	48.23	-38.6	-39.3	24.9	0.00e+00	0	45	0	2061500416	47	4222
2026-01-25 04:08:30.63	327.93	48.30	-38.7	-39.4	24.8	0.00e+00	0	45	0	2066743296	47	4265
2026-01-25 04:08:31.64	327.34	48.38	-38.6	-39.4	24.8	0.00e+00	0	45	0	2073034752	47	4247
2026-01-25 04:08:32.65	326.74	48.45	-38.6	-39.3	24.8	0.00e+00	0	45	0	2078277632	47	4221
2026-01-25 04:08:33.66	326.14	48.53	-38.5	-39.2	24.9	0.00e+00	0	45	0	2084569088	47	4170
2026-01-25 04:08:34.67	325.54	48.59	-38.4	-39.1	25.0	0.00e+00	0	45	0	2089811968	47	4135
2026-01-25 04:08:35.68	324.93	48.66	-38.4	-39.1	25.0	0.00e+00	0	45	0	2096103424	47	4143
2026-01-25 04:08:36.69	324.33	48.72	-38.3	-39.0	25.1	0.00e+00	0	45	0	2101346304	47	4084
2026-01-25 04:08:37.70	323.72	48.77	-38.2	-38.9	25.2	0.00e+00	0	45	0	2106589184	47	4011
2026-01-25 04:08:38.71	323.11	48.83	-38.2	-38.9	25.2	0.00e+00	0	45	0	2112880640	47	4029
2026-01-25 04:08:39.72	322.49	48.88	-38.3	-39.0	25.1	0.00e+00	0	45	0	2118123520	47	4078
2026-01-25 04:08:40.73	321.88	48.92	-38.2	-39.0	25.2	0.00e+00	0	45	0	2123366400	47	4052
2026-01-25 04:08:41.73	321.27	48.97	-38.0	-38.7	25.3	0.00e+00	0	45	0	2129657856	47	3950
2026-01-25 04:08:42.74	320.65	49.00	-38.2	-38.9	25.2	0.00e+00	0	45	0	2134900736	47	4031
2026-01-25 04:08:43.75	320.03	49.04	-38.5	-39.2	25.0	0.00e+00	0	45	0	2140143616	47	4170
2026-01-25 04:08:44.76	319.41	49.07	-38.5	-39.3	24.8	0.00e+00	0	45	0	2146435072	47	4218
2026-01-25 04:08:45.77	318.78	49.10	-38.3	-39.0	25.1	0.00e+00	0	45	0	2152726528	47	4062
2026-01-25 04:08:46.78	318.16	49.13	-38.2	-38.9	25.2	0.00e+00	0	45	0	2157969408	47	4014
2026-01-25 04:08:47.78	317.54	49.15	-38.2	-39.0	25.1	0.00e+00	0	45	0	2163212288	47	4060
2026-01-25 04:08:48.79	316.91	49.17	-38.3	-39.0	25.1	0.00e+00	0	45	0	2169503744	47	4092
2026-01-25 04:08:49.80	316.29	49.18	-38.3	-39.0	25.1	0.00e+00	0	45	0	2174746624	47	4074
2026-01-25 04:08:50.81	315.66	49.19	-38.2	-38.9	25.1	0.00e+00	0	45	0	2181038080	47	4051
2026-01-25 04:08:51.82	315.03	49.20	-38.4	-39.1	25.0	0.00e+00	0	45	0	2186280960	47	4109
2026-01-25 04:08:52.83	314.40	49.20	-38.5	-39.3	24.9	0.00e+00	0	45	0	2191523840	47	4194
2026-01-25 04:08:53.83	313.78	49.20	-38.4	-39.2	24.9	0.00e+00	0	45	0	2197815296	47	4164
2026-01-25 04:08:54.84	313.16	49.19	-38.2	-38.9	25.1	0.00e+00	0	45	0	2203058176	47	4047
2026-01-25 04:08:55.85	312.53	49.19	-37.9	-38.6	25.4	0.00e+00	0	45	0	2208301056	47	3881
2026-01-25 04:08:56.86	311.90	49.17	-38.0	-38.7	25.4	0.00e+00	0	45	0	2214592512	47	3923
2026-01-25 04:08:57.87	311.27	49.16	-38.2	-38.9	25.1	0.00e+00	0	45	0	2220883968	47	4041
2026-01-25 04:08:58.88	310.65	49.14	-38.3	-39.0	25.1	0.00e+00	0	45	0	2226126848	47	4090
2026-01-25 04:08:59.89	310.02	49.12	-38.3	-39.0	25.0	0.00e+00	0	45	0	2231369728	47	4094
2026-01-25 04:09:00.90	309.40	49.09	-38.4	-39.2	25.0	0.00e+00	0	45	0	2237661184	47	4148
2026-01-25 04:09:01.91	308.78	49.06	-38.4	-39.1	25.0	0.00e+00	0	45	0	2242904064	47	4109
2026-01-25 04:09:02.92	308.16	49.03	-38.3	-39.0	25.1	0.00e+00	0	45	0	2248146944	47	4078
2026-01-25 04:09:03.93	307.54	48.99	-38.6	-39.3	24.8	0.00e+00	0	45	0	2254438400	47	4221
2026-01-25 04:09:04.94	306.92	48.95	-38.6	-39.4	24.8	0.00e+00	0	45	0	2259681280	47	4257
2026-01-25 04:09:05.95	306.30	48.90	-38.6	-39.3	24.8	0.00e+00	0	45	0	2265972736	47	4211
2026-01-25 04:09:06.96	305.69	48.86	-38.6	-39.3	24.8	0.00e+00	0	45	0	2271215616	47	4221
2026-01-25 04:09:07.97	305.07	48.81	-38.4	-39.2	25.0	0.00e+00	0	45	0	2277507072	47	4152
2026-01-25 04:09:08.97	304.47	48.75	-38.1	-38.8	25.3	0.00e+00	0	45	0	2282749952	47	3981
2026-01-25 04:09:09.98	303.86	48.69	-38.0	-38.7	25.4	0.00e+00	0	45	0	2289041408	47	3920
2026-01-25 04:09:10.99	303.25	48.63	-37.9	-38.6	25.5	0.00e+00	0	45	0	2294284288	47	3887
2026-01-25 04:09:12.00	302.65	48.57	-38.0	-38.7	25.4	0.00e+00	0	45	0	2299527168	47	3933
2026-01-25 04:09:13.01	302.05	48.50	-38.1	-38.8	25.3	0.00e+00	0	45	0	2305818624	47	3964
2026-01-25 04:09:14.01	301.46	48.43	-38.1	-38.8	25.3	0.00e+00	0	45	0	2311061504	47	3971
2026-01-25 04:09:15.02	300.86	48.35	-38.1	-38.8	25.3	0.00e+00	0	45	0	2316304384	47	3982
2026-01-25 04:09:16.03	300.27	48.27	-38.0	-38.8	25.3	0.00e+00	0	45	0	2322595840	47	3960
2026-01-25 04:09:17.04	299.68	48.19	-38.2	-38.9	25.2	0.00e+00	0	45	0	2327838720	47	4044
2026-01-25 04:09:18.05	299.09	48.11	-38.3	-39.1	25.0	0.00e+00	0	45	0	2333081600	47	4103
2026-01-25 04:09:19.06	298.51	48.02	-38.2	-39.0	25.1	0.00e+00	0	45	0	2339373056	47	4063
2026-01-25 04:09:20.07	297.93	47.93	-38.1	-38.8	25.2	0.00e+00	0	45	0	2345664512	47	3993
2026-01-25 04:09:21.08	297.35	47.84	-38.2	-38.9	25.2	0.00e+00	0	45	0	2350907392	47	4011
2026-01-25 04:09:22.09	296.78	47.74	-37.8	-38.5	25.5	0.00e+00	0	45	0	2356150272	47	3829
2026-01-25 04:09:23.09	296.22	47.64	-37.7	-38.4	25.6	0.00e+00	0	45	0	2362441728	47	3801
2026-01-25 04:09:24.10	295.65	47.54	-37.9	-38.6	25.4	0.00e+00	0	45	0	2367684608	47	3907
2026-01-25 04:09:25.11	295.09	47.44	-37.9	-38.6	25.4	0.00e+00	0	45	0	2373976064	47	3883
2026-01-25 04:09:26.12	294.53	47.33	-37.8	-38.5	25.5	0.00e+00	0	45	0	2379218944	47	3853
2026-01-25 04:09:27.13	293.98	47.22	-37.8	-38.5	25.5	0.00e+00	0	45	0	2384461824	47	3863
2026-01-25 04:09:28.13	293.43	47.11	-38.2	-38.9	25.2	0.00e+00	0	45	0	2390753280	47	4018
2026-01-25 04:09:29.14	292.89	46.99	-38.3	-39.0	25.1	0.00e+00	0	45	0	2395996160	47	4070
2026-01-25 04:09:30.15	292.34	46.87	-38.2	-38.9	25.1	0.00e+00	0	45	0	2401239040	47	4035
2026-01-25 04:09:31.16	291.81	46.75	-38.3	-39.0	25.1	0.00e+00	0	45	0	2407530496	47	4058
2026-01-25 04:09:32.17	291.27	46.63	-38.0	-38.8	25.3	0.00e+00	0	45	0	2413821952	47	3964
2026-01-25 04:09:33.18	290.74	46.50	-37.9	-38.7	25.3	0.00e+00	0	45	0	2419064832	47	3919
2026-01-25 04:09:34.19	290.22	46.38	-37.9	-38.6	25.4	0.00e+00	0	45	0	2424307712	47	3880
2026-01-25 04:09:35.20	289.70	46.25	-37.7	-38.4	25.6	0.00e+00	0	45	0	2430599168	47	3811
2026-01-25 04:09:36.21	289.18	46.11	-37.7	-38.4	25.6	0.00e+00	0	45	0	2435842048	47	3801
2026-01-25 04:09:37.21	288.67	45.98	-37.7	-38.3	25.6	0.00e+00	0	45	0	2441084928	47	3774
2026-01-25 04:09:38.22	288.16	45.85	-37.7	-38.4	25.6	0.00e+00	0	45	0	2447376384	47	3819
2026-01-25 04:09:39.23	287.66	45.71	-37.8	-38.5	25.5	0.00e+00	0	45	0	2452619264	47	3866
2026-01-25 04:09:40.24	287.16	45.57	-37.8	-38.5	25.5	0.00e+00	0	45	0	2458910720	47	3856
2026-01-25 04:09:41.25	286.67	45.43	-37.8	-38.5	25.5	0.00e+00	0	45	0	2464153600	47	3828
2026-01-25 04:09:42.26	286.18	45.28	-37.6	-38.3	25.6	0.00e+00	0	45	0	2470445056	47	3765
2026-01-25 04:09:43.27	285.69	45.14	-37.7	-38.3	25.6	0.00e+00	0	45	0	2475687936	47	3779
2026-01-25 04:09:44.27	285.21	44.99	-37.6	-38.4	25.6	0.00e+00	0	45	0	2481979392	47	3781
2026-01-25 04:09:45.28	284.74	44.84	-37.7	-38.4	25.6	0.00e+00	0	45	0	2487222272	47	3786
2026-01-25 04:09:46.29	284.26	44.69	-37.3	-38.0	26.0	0.00e+00	0	45	0	2492465152	46	3830
2026-01-25 04:09:47.30	283.80	44.54	-37.3	-38.0	25.9	0.00e+00	0	45	0	2498756608	46	3853
2026-01-25 04:09:48.31	283.33	44.39	-37.4	-38.1	25.8	0.00e+00	0	45	0	2503999488	46	3876
2026-01-25 04:09:49.32	282.87	44.23	-37.6	-38.3	25.7	0.00e+00	0	45	0	2509242368	46	3961
2026-01-25 04:09:50.33	282.42	44.07	-37.5	-38.2	25.8	0.00e+00	0	45	0	2515533824	46	3915
2026-01-25 04:09:51.33	281.97	43.92	-37.4	-38.1	25.8	0.00e+00	0	45	0	2520776704	46	3886
2026-01-25 04:09:52.34	281.53	43.76	-37.4	-38.1	25.8	0.00e+00	0	45	0	2526019584	46	3899
2026-01-25 04:09:53.35	281.09	43.60	-37.3	-38.0	25.9	0.00e+00	0	45	0	2532311040	46	3847
2026-01-25 04:09:54.36	280.65	43.44	-37.4	-38.1	25.8	0.00e+00	0	45	0	2538602496	46	3887
2026-01-25 04:09:55.37	280.22	43.27	-37.5	-38.2	25.8	0.00e+00	0	45	0	2543845376	46	3929
2026-01-25 04:09:56.37	279.79	43.11	-37.3	-38.0	25.9	0.00e+00	0	45	0	2549088256	46	3857
2026-01-25 04:09:57.38	279.37	42.95	-37.3	-38.0	25.9	0.00e+00	0	45	0	2555379712	46	3825
2026-01-25 04:09:58.39	278.95	42.78	-37.1	-37.8	26.1	0.00e+00	0	45	0	2560622592	46	3756
2026-01-25 04:09:59.40	278.54	42.61	-37.2	-37.8	26.1	0.00e+00	0	45	0	2566914048	46	3777
2026-01-25 04:10:00.41	278.13	42.44	-37.3	-38.0	25.9	0.00e+00	0	45	0	2572156928	46	3832
2026-01-25 04:10:01.42	277.72	42.28	-37.3	-38.0	25.9	0.00e+00	0	45	0	2577399808	46	3844
2026-01-25 04:10:02.43	277.32	42.11	-37.3	-38.1	25.8	0.00e+00	0	45	0	2583691264	46	3871
2026-01-25 04:10:03.43	276.93	41.94	-37.5	-38.2	25.7	0.00e+00	0	45	0	2588934144	46	3955
2026-01-25 04:10:04.44	276.53	41.77	-37.4	-38.1	25.8	0.00e+00	0	45	0	2594177024	46	3886
2026-01-25 04:10:05.45	276.14	41.59	-37.4	-38.0	25.8	0.00e+00	0	45	0	2600468480	46	3868
2026-01-25 04:10:06.46	275.76	41.42	-37.6	-38.3	25.6	0.00e+00	0	45	0	2606759936	46	3978
2026-01-25 04:10:07.47	275.38	41.25	-37.8	-38.5	25.4	0.00e+00	0	45	0	2612002816	46	4079
2026-01-25 04:10:08.47	275.00	41.07	-37.7	-38.5	25.5	0.00e+00	0	45	0	2617245696	46	4057
2026-01-25 04:10:09.48	274.63	40.90	-37.8	-38.5	25.4	0.00e+00	0	45	0	2623537152	46	4058
2026-01-25 04:10:10.49	274.26	40.73	-37.5	-38.2	25.7	0.00e+00	0	45	0	2628780032	46	3916
2026-01-25 04:10:11.50	273.90	40.55	-37.4	-38.1	25.8	0.00e+00	0	45	0	2634022912	46	3879
2026-01-25 04:10:12.51	273.54	40.37	-37.5	-38.2	25.7	0.00e+00	0	45	0	2640314368	46	3937
2026-01-25 04:10:13.51	273.18	40.20	-37.6	-38.3	25.6	0.00e+00	0	45	0	2645557248	46	3991
2026-01-25 04:10:14.52	272.83	40.02	-37.7	-38.5	25.5	0.00e+00	0	45	0	2651848704	46	4053
2026-01-25 04:10:15.53	272.48	39.85	-37.7	-38.3	25.5	0.00e+00	0	45	0	2657091584	46	4004
2026-01-25 04:10:16.54	272.13	39.67	-37.6	-38.3	25.6	0.00e+00	0	45	0	2662334464	46	3989
2026-01-25 04:10:17.55	271.79	39.49	-37.6	-38.3	25.6	0.00e+00	0	45	0	2668625920	46	3993
2026-01-25 04:10:18.55	271.46	39.31	-37.6	-38.3	25.5	0.00e+00	0	45	0	2673868800	46	4000
2026-01-25 04:10:19.56	271.12	39.14	-37.8	-38.5	25.4	0.00e+00	0	45	0	2680160256	46	4058
2026-01-25 04:10:20.57	270.79	38.96	-37.8	-38.5	25.4	0.00e+00	0	45	0	2685403136	46	4064
2026-01-25 04:10:21.58	270.47	38.78	-37.7	-38.4	25.5	0.00e+00	0	45	0	2691694592	46	4028
2026-01-25 04:10:22.59	270.14	38.60	-37.7	-38.4	25.5	0.00e+00	0	45	0	2696937472	46	4011
2026-01-25 04:10:23.60	269.82	38.42	-37.4	-38.1	25.7	0.00e+00	0	45	0	2702180352	46	3885
2026-01-25 04:10:24.61	269.51	38.24	-37.1	-37.8	26.0	0.00e+00	0	45	0	2708471808	46	3757
2026-01-25 04:10:25.62	269.19	38.06	-37.1	-37.7	26.0	0.00e+00	0	45	0	2713714688	46	3736
2026-01-25 04:10:26.63	268.89	37.89	-37.1	-37.8	26.0	0.00e+00	0	45	0	2718957568	46	3756
2026-01-25 04:10:27.64	268.58	37.71	-37.1	-37.8	26.0	0.00e+00	0	45	0	2725249024	46	3771
2026-01-25 04:10:28.65	268.28	37.53	-37.2	-37.9	26.0	0.00e+00	0	45	0	2730491904	46	3786
2026-01-25 04:10:29.65	267.98	37.35	-37.1	-37.8	26.0	0.00e+00	0	45	0	2736783360	46	3772
2026-01-25 04:10:30.66	267.68	37.17	-37.1	-37.8	26.0	0.00e+00	0	45	0	2742026240	46	3773
2026-01-25 04:10:31.67	267.39	36.99	-37.2	-37.9	25.9	0.00e+00	0	45	0	2748317696	46	3789
2026-01-25 04:10:32.68	267.10	36.82	-37.1	-37.8	26.0	0.00e+00	0	45	0	2753560576	46	3765
2026-01-25 04:10:33.69	266.82	36.64	-37.2	-37.9	25.9	0.00e+00	0	45	0	2759852032	46	3790
2026-01-25 04:10:34.70	266.53	36.46	-37.1	-37.8	26.0	0.00e+00	0	45	0	2765094912	46	3750
2026-01-25 04:10:35.71	266.25	36.28	-37.2	-37.9	25.9	0.00e+00	0	45	0	2770337792	46	3799
2026-01-25 04:10:36.72	265.98	36.10	-37.2	-37.9	25.9	0.00e+00	0	45	0	2776629248	46	3808
2026-01-25 04:10:37.73	265.70	35.93	-37.3	-38.0	25.8	0.00e+00	0	45	0	2781872128	46	3866
2026-01-25 04:10:38.73	265.43	35.75	-37.2	-38.0	25.8	0.00e+00	0	45	0	2787115008	46	3825
2026-01-25 04:10:39.74	265.16	35.57	-37.2	-37.9	25.9	0.00e+00	0	45	0	2793406464	46	3821
2026-01-25 04:10:40.75	264.90	35.40	-37.2	-37.9	25.9	0.00e+00	0	45	0	2798649344	46	3807
2026-01-25 04:10:41.76	264.64	35.22	-37.3	-37.9	25.9	0.00e+00	0	45	0	2803892224	46	3822
2026-01-25 04:10:42.77	264.38	35.04	-37.2	-37.9	25.9	0.00e+00	0	45	0	2810183680	46	3795
2026-01-25 04:10:43.77	264.12	34.87	-37.2	-37.9	25.9	0.00e+00	0	45	0	2816475136	46	3804
2026-01-25 04:10:44.78	263.87	34.69	-37.2	-37.8	25.9	0.00e+00	0	45	0	2821718016	46	3774
2026-01-25 04:10:45.79	263.62	34.52	-37.3	-38.0	25.8	0.00e+00	0	45	0	2826960896	46	3842
2026-01-25 04:10:46.80	263.37	34.34	-37.2	-37.9	25.9	0.00e+00	0	45	0	2833252352	46	3821
2026-01-25 04:10:47.81	263.12	34.17	-37.2	-37.9	25.9	0.00e+00	0	45	0	2838495232	46	3796
2026-01-25 04:10:48.82	262.88	34.00	-37.1	-37.8	26.0	0.00e+00	0	45	0	2844786688	46	3756
2026-01-25 04:10:49.83	262.64	33.82	-37.2	-37.8	25.9	0.00e+00	0	45	0	2850029568	46	3777
2026-01-25 04:10:50.83	262.41	33.65	-37.1	-37.8	25.9	0.00e+00	0	45	0	2855272448	46	3762
2026-01-25 04:10:51.84	262.17	33.48	-37.3	-38.0	25.8	0.00e+00	0	45	0	2861563904	46	3837
2026-01-25 04:10:52.85	261.94	33.30	-37.3	-38.0	25.7	0.00e+00	0	45	0	2866806784	46	3862
2026-01-25 04:10:53.86	261.71	33.13	-37.4	-38.1	25.7	0.00e+00	0	45	0	2873098240	46	3871
2026-01-25 04:10:54.87	261.48	32.96	-37.5	-38.2	25.6	0.00e+00	0	45	0	2878341120	46	3947
2026-01-25 04:10:55.87	261.26	32.79	-37.6	-38.3	25.5	0.00e+00	0	45	0	2884632576	46	3979
2026-01-25 04:10:56.88	261.03	32.62	-37.7	-38.4	25.4	0.00e+00	0	45	0	2889875456	46	4013
2026-01-25 04:10:57.89	260.81	32.45	-37.6	-38.3	25.5	0.00e+00	0	45	0	2895118336	46	3977
2026-01-25 04:10:58.90	260.59	32.28	-37.5	-38.2	25.6	0.00e+00	0	45	0	2901409792	46	3916
2026-01-25 04:10:59.91	260.38	32.11	-37.4	-38.0	25.7	0.00e+00	0	45	0	2906652672	46	3862
2026-01-25 04:11:00.92	260.16	31.94	-37.4	-38.1	25.7	0.00e+00	0	45	0	2911895552	46	3876
2026-01-25 04:11:01.93	259.95	31.77	-37.6	-38.3	25.5	0.00e+00	0	45	0	2918187008	46	3984
2026-01-25 04:11:02.93	259.74	31.61	-37.6	-38.3	25.5	0.00e+00	0	45	0	2923429888	46	3976
2026-01-25 04:11:03.94	259.54	31.44	-37.6	-38.3	25.4	0.00e+00	0	45	0	2929721344	46	4000
2026-01-25 04:11:04.95	259.33	31.27	-37.7	-38.4	25.4	0.00e+00	0	45	0	2934964224	46	4019
2026-01-25 04:11:05.96	259.13	31.11	-37.7	-38.4	25.4	0.00e+00	0	45	0	2940207104	46	4027
2026-01-25 04:11:06.97	258.93	30.94	-37.7	-38.4	25.4	0.00e+00	0	45	0	2946498560	46	4017
2026-01-25 04:11:07.97	258.73	30.78	-37.7	-38.5	25.4	0.00e+00	0	45	0	2952790016	46	4052
2026-01-25 04:11:08.98	258.53	30.61	-37.8	-38.5	25.3	0.00e+00	0	45	0	2958032896	46	4066
2026-01-25 04:11:09.99	258.34	30.45	-37.9	-38.6	25.2	0.00e+00	0	45	0	2963275776	46	4138
2026-01-25 04:11:11.00	258.15	30.29	-37.9	-38.6	25.2	0.00e+00	0	45	0	2969567232	46	4117
2026-01-25 04:11:12.01	257.95	30.12	-37.8	-38.5	25.2	0.00e+00	0	45	0	2974810112	46	4096
2026-01-25 04:11:13.02	257.77	29.96	-37.8	-38.5	25.3	0.00e+00	0	45	0	2980052992	46	4084
2026-01-25 04:11:14.03	257.58	29.80	-37.7	-38.4	25.3	0.00e+00	0	45	0	2986344448	46	4028
2026-01-25 04:11:15.04	257.39	29.64	-37.6	-38.3	25.5	0.00e+00	0	45	0	2991587328	46	3983
2026-01-25 04:11:16.05	257.21	29.48	-37.7	-38.4	25.4	0.00e+00	0	45	0	2996830208	46	4008
2026-01-25 04:11:17.05	257.03	29.32	-37.7	-38.5	25.3	0.00e+00	0	45	0	3003121664	46	4055
2026-01-25 04:11:18.06	256.85	29.16	-37.8	-38.5	25.2	0.00e+00	0	45	0	3009413120	46	4087
2026-01-25 04:11:19.07	256.67	29.00	-37.8	-38.6	25.2	0.00e+00	0	45	0	3014656000	46	4099
2026-01-25 04:11:20.08	256.50	28.84	-37.8	-38.5	25.2	0.00e+00	0	45	0	3019898880	46	4066
2026-01-25 04:11:21.09	256.32	28.68	-37.6	-38.3	25.4	0.00e+00	0	45	0	3026190336	46	4003
2026-01-25 04:11:22.10	256.15	28.53	-37.6	-38.3	25.4	0.00e+00	0	45	0	3031433216	46	4002
2026-01-25 04:11:23.11	255.98	28.37	-37.6	-38.3	25.4	0.00e+00	0	45	0	3037724672	46	3992
2026-01-25 04:11:24.12	255.81	28.22	-37.7	-38.4	25.4	0.00e+00	0	45	0	3042967552	46	4017
2026-01-25 04:11:25.13	255.64	28.06	-37.7	-38.4	25.3	0.00e+00	0	45	0	3048210432	46	4032
2026-01-25 04:11:26.14	255.48	27.91	-37.7	-38.5	25.3	0.00e+00	0	45	0	3054501888	46	4057
2026-01-25 04:11:27.15	255.31	27.75	-37.9	-38.6	25.2	0.00e+00	0	45	0	3059744768	46	4122
2026-01-25 04:11:28.16	255.15	27.60	-37.9	-38.7	25.1	0.00e+00	0	45	0	3064987648	46	4153
2026-01-25 04:11:29.16	254.99	27.45	-37.9	-38.6	25.1	0.00e+00	0	45	0	3071279104	46	4124
2026-01-25 04:11:30.17	254.83	27.29	-38.0	-38.8	25.0	0.00e+00	0	45	0	3077570560	46	4199
2026-01-25 04:11:31.18	254.67	27.14	-38.0	-38.8	25.0	0.00e+00	0	45	0	3082813440	46	4204
2026-01-25 04:11:32.19	254.52	26.99	-38.0	-38.7	25.0	0.00e+00	0	45	0	3088056320	46	4187
2026-01-25 04:11:33.20	254.36	26.84	-38.0	-38.7	25.0	0.00e+00	0	45	0	3094347776	46	4192
2026-01-25 04:11:34.21	254.21	26.69	-38.0	-38.7	25.0	0.00e+00	0	45	0	3099590656	46	4167
2026-01-25 04:11:35.22	254.06	26.54	-38.0	-38.7	25.0	0.00e+00	0	45	0	3104833536	46	4180
2026-01-25 04:11:36.23	253.90	26.39	-37.9	-38.6	25.1	0.00e+00	0	45	0	3111124992	46	4144
2026-01-25 04:11:37.23	253.76	26.24	-37.8	-38.5	25.2	0.00e+00	0	45	0	3116367872	46	4080
2026-01-25 04:11:38.24	253.61	26.10	-37.8	-38.5	25.2	0.00e+00	0	45	0	3122659328	46	4095
2026-01-25 04:11:39.25	253.46	25.95	-37.7	-38.4	25.3	0.00e+00	0	45	0	3127902208	46	4050
2026-01-25 04:11:40.26	253.32	25.80	-37.8	-38.5	25.2	0.00e+00	0	45	0	3134193664	46	4095
2026-01-25 04:11:41.27	253.17	25.66	-37.8	-38.5	25.2	0.00e+00	0	45	0	3139436544	46	4064
2026-01-25 04:11:42.28	253.03	25.51	-37.8	-38.5	25.2	0.00e+00	0	45	0	3145728000	46	4087
2026-01-25 04:11:43.29	252.89	25.37	-37.8	-38.5	25.2	0.00e+00	0	45	0	3150970880	46	4087
2026-01-25 04:11:44.29	252.75	25.23	-37.8	-38.5	25.2	0.00e+00	0	45	0	3156213760	46	4085
2026-01-25 04:11:45.30	252.61	25.08	-37.8	-38.5	25.2	0.00e+00	0	45	0	3162505216	46	4079
2026-01-25 04:11:46.31	252.48	24.94	-37.8	-38.5	25.2	0.00e+00	0	45	0	3167748096	46	4068
2026-01-25 04:11:47.32	252.34	24.80	-37.8	-38.5	25.2	0.00e+00	0	45	0	3172990976	46	4068
2026-01-25 04:11:48.33	252.21	24.65	-37.7	-38.4	25.3	0.00e+00	0	45	0	3179282432	46	4021
2026-01-25 04:11:49.33	252.07	24.52	-37.7	-38.4	25.2	0.00e+00	0	45	0	3184525312	46	4046
2026-01-25 04:11:50.34	251.94	24.37	-37.8	-38.5	25.2	0.00e+00	0	45	0	3189768192	46	4067
2026-01-25 04:11:51.35	251.81	24.23	-37.9	-38.6	25.1	0.00e+00	0	45	0	3196059648	46	4127
2026-01-25 04:11:52.36	251.68	24.10	-37.9	-38.6	25.1	0.00e+00	0	45	0	3202351104	46	4111
2026-01-25 04:11:53.37	251.55	23.96	-37.9	-38.6	25.1	0.00e+00	0	45	0	3207593984	46	4124
2026-01-25 04:11:54.38	251.42	23.82	-37.9	-38.6	25.1	0.00e+00	0	45	0	3212836864	46	4136
2026-01-25 04:11:55.39	251.30	23.68	-37.9	-38.6	25.0	0.00e+00	0	45	0	3219128320	46	4140
2026-01-25 04:11:56.40	251.17	23.54	-38.1	-38.8	24.9	0.00e+00	0	45	0	3224371200	46	4214
2026-01-25 04:11:57.41	251.05	23.41	-38.0	-38.7	25.0	0.00e+00	0	45	0	3230662656	46	4171
2026-01-25 04:11:58.42	250.93	23.27	-38.0	-38.7	25.0	0.00e+00	0	45	0	3235905536	46	4167
2026-01-25 04:11:59.43	250.80	23.14	-38.1	-38.9	24.8	0.00e+00	0	45	0	3241148416	46	4244
2026-01-25 04:12:00.44	250.68	23.00	-38.0	-38.8	24.9	0.00e+00	0	45	0	3247439872	46	4197
2026-01-25 04:12:01.45	250.56	22.87	-38.1	-38.8	24.9	0.00e+00	0	45	0	3252682752	46	4211
2026-01-25 04:12:02.45	250.45	22.73	-38.2	-39.0	24.6	0.00e+00	0	45	0	3257925632	47	4065
2026-01-25 04:12:03.46	250.33	22.60	-38.2	-38.9	24.8	0.00e+00	0	45	0	3264217088	47	4041
2026-01-25 04:12:04.47	250.21	22.47	-38.2	-38.9	24.8	0.00e+00	0	45	0	3270508544	47	4046
2026-01-25 04:12:05.48	250.10	22.34	-38.3	-39.1	24.6	0.00e+00	0	45	0	3275751424	47	4102
2026-01-25 04:12:06.49	249.98	22.21	-38.3	-39.1	24.6	0.00e+00	0	45	0	3280994304	47	4115
2026-01-25 04:12:07.50	249.87	22.07	-38.4	-39.1	24.6	0.00e+00	0	45	0	3287285760	47	4128
2026-01-25 04:12:08.51	249.75	21.94	-38.3	-39.1	24.6	0.00e+00	0	45	0	3292528640	47	4107
2026-01-25 04:12:09.51	249.64	21.82	-38.3	-39.1	24.6	0.00e+00	0	45	0	3297771520	47	4108
2026-01-25 04:12:10.52	249.53	21.69	-38.4	-39.1	24.6	0.00e+00	0	45	0	3304062976	47	4131
2026-01-25 04:12:11.54	249.42	21.56	-38.5	-39.2	24.5	0.00e+00	0	45	0	3309305856	47	4184
2026-01-25 04:12:12.55	249.31	21.43	-38.5	-39.2	24.5	0.00e+00	0	45	0	3315597312	47	4192
2026-01-25 04:12:13.55	249.21	21.30	-38.4	-39.1	24.6	0.00e+00	0	45	0	3320840192	47	4123
2026-01-25 04:12:14.57	249.10	21.17	-38.4	-39.1	24.6	0.00e+00	0	45	0	3327131648	47	4130
2026-01-25 04:12:15.57	248.99	21.05	-38.4	-39.1	24.6	0.00e+00	0	45	0	3332374528	47	4117
2026-01-25 04:12:16.58	248.89	20.92	-38.3	-39.0	24.6	0.00e+00	0	45	0	3338665984	47	4089
2026-01-25 04:12:17.59	248.78	20.80	-38.3	-39.0	24.7	0.00e+00	0	45	0	3343908864	47	4069
2026-01-25 04:12:18.60	248.68	20.67	-38.3	-39.0	24.7	0.00e+00	0	45	0	3349151744	47	4068
2026-01-25 04:12:19.61	248.58	20.55	-38.3	-39.0	24.6	0.00e+00	0	45	0	3355443200	47	4092
2026-01-25 04:12:20.62	248.48	20.42	-38.3	-39.1	24.6	0.00e+00	0	45	0	3360686080	47	4114
2026-01-25 04:12:21.63	248.37	20.30	-38.4	-39.2	24.5	0.00e+00	0	45	0	3365928960	47	4146
2026-01-25 04:12:22.63	248.28	20.18	-38.4	-39.1	24.5	0.00e+00	0	45	0	3372220416	47	4138
2026-01-25 04:12:23.64	248.18	20.05	-38.5	-39.3	24.4	0.00e+00	0	45	0	3377463296	47	4207
2026-01-25 04:12:24.65	248.08	19.93	-38.6	-39.3	24.4	0.00e+00	0	45	0	3382706176	47	4217
2026-01-25 04:12:25.66	247.98	19.81	-39.0	-39.8	24.5	0.00e+00	0	45	0	3388997632	48	4201
2026-01-25 04:12:26.67	247.88	19.69	-39.0	-39.8	24.4	0.00e+00	0	45	0	3395289088	48	4211
2026-01-25 04:12:27.68	247.79	19.57	-39.0	-39.8	24.5	0.00e+00	0	45	0	3400531968	48	4197
2026-01-25 04:12:28.69	247.69	19.45	-39.1	-39.9	24.3	0.00e+00	0	45	0	3405774848	48	4249
2026-01-25 04:12:29.70	247.60	19.33	-39.2	-39.9	24.3	0.00e+00	0	45	0	3412066304	48	4259
2026-01-25 04:12:30.71	247.50	19.21	-39.2	-39.9	24.3	0.00e+00	0	45	0	3417309184	48	4288
2026-01-25 04:12:31.72	247.41	19.09	-39.3	-40.0	24.2	0.00e+00	0	45	0	3423600640	49	4098
2026-01-25 04:12:32.73	247.32	18.97	-39.3	-40.0	24.2	0.00e+00	0	45	0	3428843520	49	4098
2026-01-25 04:12:33.73	247.23	18.86	-39.4	-40.1	24.1	0.00e+00	0	45	0	3434086400	49	4143
2026-01-25 04:12:34.74	247.14	18.74	-39.5	-40.2	24.0	0.00e+00	0	45	0	3440377856	49	4175
2026-01-25 04:12:35.75	247.05	18.62	-39.5	-40.3	24.0	0.00e+00	0	45	0	3445620736	49	4202
2026-01-25 04:12:36.76	246.96	18.51	-39.6	-40.4	23.9	0.00e+00	0	45	0	3451912192	49	4251
2026-01-25 04:12:37.77	246.87	18.39	-39.7	-40.5	23.8	0.00e+00	0	45	0	3457155072	49	4317
2026-01-25 04:12:38.78	246.78	18.28	-39.7	-40.5	23.8	0.00e+00	0	45	0	3463446528	50	4071
2026-01-25 04:12:39.79	246.69	18.16	-39.8	-40.5	23.7	0.00e+00	0	45	0	3468689408	50	4097
2026-01-25 04:12:40.80	246.61	18.05	-39.8	-40.5	23.7	0.00e+00	0	45	0	3473932288	50	4090
2026-01-25 04:12:41.81	246.52	17.94	-39.8	-40.6	23.7	0.00e+00	0	45	0	3480223744	50	4120
2026-01-25 04:12:42.82	246.43	17.82	-39.7	-40.5	23.8	0.00e+00	0	45	0	3485466624	50	4082
2026-01-25 04:12:43.83	246.35	17.71	-39.7	-40.5	23.8	0.00e+00	0	45	0	3490709504	50	4078
2026-01-25 04:12:44.84	246.26	17.60	-39.7	-40.4	23.8	0.00e+00	0	45	0	3497000960	50	4048
2026-01-25 04:12:45.85	246.18	17.48	-39.6	-40.3	23.9	0.00e+00	0	45	0	3502243840	50	3994
2026-01-25 04:12:46.85	246.10	17.37	-39.6	-40.3	23.9	0.00e+00	0	45	0	3508535296	50	4001
2026-01-25 04:12:47.86	246.02	17.26	-39.6	-40.3	23.9	0.00e+00	0	45	0	3513778176	50	3994
2026-01-25 04:12:48.87	245.94	17.15	-39.6	-40.3	23.9	0.00e+00	0	45	0	3520069632	50	3990
2026-01-25 04:12:49.88	245.85	17.04	-39.7	-40.4	23.8	0.00e+00	0	45	0	3525312512	50	4051
2026-01-25 04:12:50.88	245.78	16.93	-39.7	-40.4	23.8	0.00e+00	0	45	0	3530555392	50	4040
2026-01-25 04:12:51.89	245.70	16.82	-39.7	-40.4	23.8	0.00e+00	0	45	0	3536846848	50	4044
2026-01-25 04:12:52.90	245.62	16.71	-39.8	-40.5	23.7	0.00e+00	0	45	0	3542089728	50	4076
2026-01-25 04:12:53.91	245.54	16.61	-39.8	-40.5	23.7	0.00e+00	0	45	0	3548381184	50	4087
2026-01-25 04:12:54.92	245.46	16.50	-39.9	-40.6	23.6	0.00e+00	0	45	0	3553624064	50	4133
2026-01-25 04:12:55.93	245.38	16.39	-40.0	-40.7	23.5	0.00e+00	0	45	0	3558866944	50	4189
2026-01-25 04:12:56.94	245.31	16.28	-39.9	-40.7	23.5	0.00e+00	0	45	0	3565158400	50	4169
2026-01-25 04:12:57.95	245.23	16.18	-39.9	-40.7	23.5	0.00e+00	0	45	0	3570401280	50	4167
2026-01-25 04:12:58.96	245.15	16.07	-40.0	-40.8	23.5	0.00e+00	0	45	0	3576692736	50	4197
2026-01-25 04:12:59.97	245.08	15.96	-39.9	-40.6	23.6	0.00e+00	0	45	0	3581935616	50	4141
2026-01-25 04:13:00.97	245.01	15.86	-40.0	-40.7	23.5	0.00e+00	0	45	0	3588227072	50	4176
2026-01-25 04:13:01.98	244.93	15.75	-40.1	-40.8	23.4	0.00e+00	0	45	0	3593469952	50	4235
2026-01-25 04:13:02.99	244.86	15.65	-40.0	-40.8	23.5	0.00e+00	0	45	0	3598712832	50	4205
2026-01-25 04:13:03.99	244.79	15.55	-40.1	-40.8	23.4	0.00e+00	0	45	0	3605004288	50	4236
2026-01-25 04:13:05.00	244.71	15.44	-40.0	-40.8	23.4	0.00e+00	0	45	0	3610247168	50	4204
2026-01-25 04:13:06.01	244.64	15.34	-40.1	-40.8	23.4	0.00e+00	0	45	0	3616538624	50	4224
2026-01-25 04:13:07.01	244.57	15.24	-40.1	-40.8	23.4	0.00e+00	0	45	0	3621781504	50	4231
2026-01-25 04:13:08.02	244.50	15.13	-40.2	-41.0	23.2	0.00e+00	0	45	0	3627024384	50	4302
2026-01-25 04:13:09.03	244.43	15.03	-40.3	-41.1	23.2	0.00e+00	0	45	0	3633315840	51	4115
2026-01-25 04:13:10.04	244.36	14.93	-40.4	-41.1	23.1	0.00e+00	0	45	0	3638558720	51	4142
2026-01-25 04:13:11.05	244.29	14.83	-40.3	-41.1	23.2	0.00e+00	0	45	0	3643801600	51	4099
2026-01-25 04:13:12.06	244.22	14.73	-40.4	-41.2	23.0	0.00e+00	0	45	0	3650093056	51	4170
2026-01-25 04:13:13.07	244.15	14.62	-40.5	-41.3	22.9	0.00e+00	0	45	0	3656384512	51	4222
2026-01-25 04:13:14.08	244.08	14.52	-40.5	-41.3	22.9	0.00e+00	0	45	0	3661627392	51	4235
2026-01-25 04:13:15.09	244.02	14.42	-40.5	-41.3	22.9	0.00e+00	0	45	0	3666870272	51	4237
2026-01-25 04:13:16.10	243.95	14.32	-40.7	-41.5	22.8	0.00e+00	0	45	0	3673161728	51	4302
2026-01-25 04:13:17.11	243.88	14.22	-40.7	-41.5	22.7	0.00e+00	0	45	0	3678404608	51	4331
2026-01-25 04:13:18.12	243.82	14.13	-40.8	-41.6	22.6	0.00e+00	0	45	0	3683647488	52	4128
2026-01-25 04:13:19.13	243.75	14.03	-40.8	-41.6	22.5	0.00e+00	0	45	0	3689938944	52	4141
2026-01-25 04:13:20.13	243.69	13.93	-40.7	-41.6	22.6	0.00e+00	0	45	0	3695181824	52	4117
2026-01-25 04:13:21.14	243.62	13.83	-40.8	-41.6	22.6	0.00e+00	0	45	0	3701473280	52	4138
2026-01-25 04:13:22.15	243.56	13.73	-40.9	-41.7	22.5	0.00e+00	0	45	0	3706716160	52	4172
