passes_logs/2026/01/25/R3.2S_Murmansk/R3.2S_Murmansk__20260125_005429_NOAA_21_JPSS-2_rec.log

#Pass ID: 20260125_005429_NOAA 21 (JPSS-2)
#Satellite: NOAA 21 (JPSS-2)
#Configuration: NOAA-21
#almurnet v.1.7.20251203
#Start time: 2026-01-25 00:54:30

#Version: 2.2.20231116
#Station: R3.2S_Murmansk
#Location: 33.079688 lon 68.888172 lat
#TLE: 1 54234U 22150A   26024.45772595  .00000201  00000+0  11607-3 0  9996
#TLE: 2 54234  98.7508 325.2435 0000728 220.7365 139.3757 14.19538765166156

#Time	Az	El	Level	Level2	SNR	BER	BlckErr	Temp	State	Recorded	gain1	gain2
2026-01-25 00:54:30.27	25.35	2.03	-52.1	-64.8	3.8	1.49e+00	0	41	0	0	76	14903
2026-01-25 00:54:31.27	25.35	2.09	-52.1	-64.8	3.8	1.49e+00	0	41	104	0	74	16750
2026-01-25 00:54:32.27	25.35	2.16	-52.0	-64.8	3.8	1.49e+00	0	41	104	0	74	16701
2026-01-25 00:54:33.28	25.35	2.22	-52.0	-64.8	3.8	1.49e+00	0	41	104	0	74	16722
2026-01-25 00:54:34.29	25.34	2.29	-52.0	-64.8	3.8	1.49e+00	0	41	104	0	74	16707
2026-01-25 00:54:35.30	25.34	2.35	-52.0	-64.8	3.8	1.49e+00	0	41	104	0	74	16739
2026-01-25 00:54:36.31	25.34	2.42	-52.0	-64.7	3.8	1.49e+00	0	41	104	0	74	16692
2026-01-25 00:54:37.31	25.34	2.48	-52.0	-64.8	3.8	1.49e+00	0	41	104	0	74	16734
2026-01-25 00:54:38.32	25.33	2.55	-52.0	-64.8	3.8	1.49e+00	0	41	104	0	74	16698
2026-01-25 00:54:39.33	25.33	2.61	-52.0	-64.7	3.8	1.49e+00	0	41	104	0	74	16657
2026-01-25 00:54:40.34	25.33	2.68	-52.0	-64.7	3.8	1.49e+00	0	41	104	0	74	16629
2026-01-25 00:54:41.35	25.33	2.75	-52.0	-64.7	3.8	1.49e+00	0	41	104	0	74	16547
2026-01-25 00:54:42.36	25.32	2.81	-52.0	-64.6	3.8	1.49e+00	0	41	104	0	74	16463
2026-01-25 00:54:43.37	25.32	2.88	-52.0	-64.6	3.8	1.49e+00	0	41	104	0	74	16409
2026-01-25 00:54:44.37	25.32	2.94	-52.0	-64.5	3.8	1.49e+00	0	41	104	0	74	16241
2026-01-25 00:54:45.38	25.32	3.01	-52.0	-64.4	3.8	1.49e+00	0	41	104	0	74	16090
2026-01-25 00:54:46.39	25.31	3.08	-52.0	-64.4	3.8	1.49e+00	0	42	104	0	74	16121
2026-01-25 00:54:47.40	25.31	3.15	-52.0	-64.4	3.8	1.49e+00	0	41	104	0	74	15983
2026-01-25 00:54:48.41	25.31	3.21	-52.0	-64.2	3.8	1.49e+00	0	41	104	0	74	15592
2026-01-25 00:54:49.41	25.31	3.28	-52.0	-64.0	3.8	1.49e+00	0	42	104	0	74	15339
2026-01-25 00:54:50.42	25.30	3.35	-51.9	-63.4	3.8	1.49e+00	0	41	104	0	74	14336
2026-01-25 00:54:51.43	25.30	3.41	-51.9	-63.5	3.8	1.49e+00	0	42	104	0	74	14383
2026-01-25 00:54:52.44	25.30	3.48	-51.8	-62.0	4.0	1.48e+00	0	42	104	0	74	12103
2026-01-25 00:54:53.45	25.30	3.55	-51.7	-61.1	4.2	1.47e+00	0	42	104	0	74	10981
2026-01-25 00:54:54.45	25.29	3.62	-51.4	-58.9	5.1	1.09e+00	0	42	104	0	74	8561
2026-01-25 00:54:55.46	25.29	3.69	-51.0	-57.3	6.3	3.62e-01	0	42	0	2097152	74	7068
2026-01-25 00:54:56.47	25.29	3.75	-50.6	-55.8	7.7	1.25e-01	0	42	0	5242880	73	6290
2026-01-25 00:54:57.48	25.28	3.82	-50.1	-54.4	9.1	2.52e-02	0	42	0	8388608	72	5695
2026-01-25 00:54:58.49	25.28	3.89	-49.6	-53.3	10.3	8.03e-03	0	42	0	11534336	71	5306
2026-01-25 00:54:59.49	25.28	3.96	-48.8	-51.7	11.9	4.70e-04	0	42	0	14680064	69	4965
2026-01-25 00:55:00.50	25.27	4.03	-47.8	-50.1	13.5	6.10e-05	0	42	0	17825792	67	4627
2026-01-25 00:55:01.51	25.27	4.10	-47.4	-49.6	14.0	3.80e-06	0	42	0	20971520	66	4613
2026-01-25 00:55:02.52	25.27	4.17	-46.3	-48.1	15.5	0.00e+00	0	42	0	24117248	64	4352
2026-01-25 00:55:03.52	25.26	4.24	-46.4	-48.2	15.5	0.00e+00	0	42	0	27262976	64	4406
2026-01-25 00:55:04.52	25.26	4.31	-46.1	-47.8	15.9	0.00e+00	0	42	0	30408704	63	4462
2026-01-25 00:55:05.52	25.26	4.38	-45.8	-47.4	16.3	0.00e+00	0	42	0	33554432	63	4254
2026-01-25 00:55:06.53	25.25	4.45	-45.7	-47.2	16.5	0.00e+00	0	42	0	36700160	63	4175
2026-01-25 00:55:07.54	25.25	4.52	-45.8	-47.4	16.4	0.00e+00	0	42	0	39845888	63	4245
2026-01-25 00:55:08.54	25.25	4.59	-45.6	-47.1	16.6	0.00e+00	0	42	0	42991616	63	4132
2026-01-25 00:55:09.55	25.24	4.66	-45.7	-47.3	16.4	0.00e+00	0	42	0	46137344	63	4201
2026-01-25 00:55:10.55	25.24	4.73	-46.1	-47.7	16.0	0.00e+00	0	42	0	49283072	63	4429
2026-01-25 00:55:11.55	25.24	4.80	-46.8	-48.8	14.8	0.00e+00	0	42	0	52428800	64	4733
2026-01-25 00:55:12.56	25.23	4.87	-47.0	-49.1	14.6	7.00e-07	0	42	0	55574528	64	4886
2026-01-25 00:55:13.56	25.23	4.94	-47.7	-50.1	13.6	1.50e-06	0	42	0	58720256	65	5180
2026-01-25 00:55:14.57	25.23	5.01	-48.2	-50.9	12.8	3.35e-05	0	42	0	61865984	66	5353
2026-01-25 00:55:15.58	25.22	5.08	-49.4	-52.9	10.8	8.09e-04	0	42	0	65011712	69	5696
2026-01-25 00:55:16.58	25.22	5.15	-48.2	-50.7	13.0	1.53e-03	0	42	0	68157440	68	4673
2026-01-25 00:55:17.59	25.22	5.23	-49.3	-52.7	11.3	7.40e-05	0	42	0	71303168	69	5542
2026-01-25 00:55:18.59	25.21	5.30	-46.0	-47.6	16.0	1.34e-03	0	42	0	74448896	64	4117
2026-01-25 00:55:19.60	25.21	5.37	-50.0	-54.1	10.0	0.00e+00	0	42	0	77594624	70	6186
2026-01-25 00:55:20.60	25.20	5.44	-46.8	-49.3	5.2	1.47e+00	0	42	104	78643200	65	4754
2026-01-25 00:55:21.61	25.20	5.52	-44.8	-46.1	17.7	0.00e+00	0	42	0	79691776	61	4118
2026-01-25 00:55:22.62	25.20	5.59	-44.6	-45.9	18.0	0.00e+00	0	42	0	82837504	61	4005
2026-01-25 00:55:23.62	25.19	5.66	-44.6	-45.9	18.0	0.00e+00	0	42	0	85983232	61	4027
2026-01-25 00:55:24.62	25.19	5.74	-44.9	-46.2	17.7	0.00e+00	0	42	0	89128960	61	4174
2026-01-25 00:55:25.62	25.18	5.81	-44.9	-46.2	17.7	0.00e+00	0	42	0	92274688	61	4174
2026-01-25 00:55:26.63	25.18	5.88	-44.8	-46.1	17.9	0.00e+00	0	42	0	95420416	61	4102
2026-01-25 00:55:27.63	25.18	5.96	-44.8	-46.1	17.9	0.00e+00	0	42	0	98566144	61	4116
2026-01-25 00:55:28.64	25.17	6.03	-44.6	-45.8	18.1	0.00e+00	0	42	0	101711872	61	3984
2026-01-25 00:55:29.65	25.17	6.11	-44.4	-45.6	18.3	0.00e+00	0	42	0	104857600	60	4144
2026-01-25 00:55:30.65	25.16	6.18	-44.5	-45.7	18.2	0.00e+00	0	42	0	108003328	60	4182
2026-01-25 00:55:31.65	25.16	6.25	-44.6	-45.8	18.2	0.00e+00	0	42	0	111149056	60	4214
2026-01-25 00:55:32.66	25.15	6.33	-44.7	-46.0	18.0	0.00e+00	0	42	0	114294784	60	4294
2026-01-25 00:55:33.65	25.15	6.40	-44.5	-45.7	18.3	0.00e+00	0	42	0	117440512	60	4172
2026-01-25 00:55:34.66	25.14	6.48	-44.6	-45.8	18.2	0.00e+00	0	42	0	120586240	60	4221
2026-01-25 00:55:35.67	25.14	6.56	-44.5	-45.7	18.3	0.00e+00	0	42	0	123731968	60	4174
2026-01-25 00:55:36.67	25.14	6.63	-44.5	-45.7	18.3	0.00e+00	0	42	0	126877696	60	4169
2026-01-25 00:55:37.68	25.13	6.71	-44.5	-45.7	18.3	0.00e+00	0	42	0	130023424	60	4193
2026-01-25 00:55:38.68	25.13	6.78	-44.2	-45.3	18.6	0.00e+00	0	42	0	133169152	60	4003
2026-01-25 00:55:39.69	25.12	6.86	-44.3	-45.4	18.6	0.00e+00	0	42	0	136314880	60	4046
2026-01-25 00:55:40.70	25.12	6.94	-44.3	-45.5	18.5	0.00e+00	0	42	0	139460608	60	4075
2026-01-25 00:55:41.70	25.11	7.02	-44.1	-45.2	18.8	0.00e+00	0	42	0	142606336	60	3931
2026-01-25 00:55:42.71	25.11	7.09	-44.5	-45.7	18.4	0.00e+00	0	42	0	145752064	60	4174
2026-01-25 00:55:43.71	25.10	7.17	-44.6	-45.8	18.3	0.00e+00	0	42	0	148897792	60	4217
2026-01-25 00:55:44.72	25.10	7.25	-44.5	-45.7	18.3	0.00e+00	0	42	0	152043520	60	4178
2026-01-25 00:55:45.72	25.09	7.33	-44.7	-45.9	18.2	0.00e+00	0	42	0	155189248	60	4259
2026-01-25 00:55:46.72	25.09	7.40	-44.6	-45.8	18.3	0.00e+00	0	42	0	158334976	60	4199
2026-01-25 00:55:47.73	25.08	7.48	-44.5	-45.7	18.4	0.00e+00	0	42	0	161480704	60	4148
2026-01-25 00:55:48.73	25.08	7.56	-44.2	-45.3	18.8	0.00e+00	0	42	0	164626432	60	3992
2026-01-25 00:55:49.73	25.07	7.64	-44.1	-45.2	18.9	0.00e+00	0	42	0	167772160	60	3945
2026-01-25 00:55:50.74	25.07	7.72	-44.2	-45.3	18.8	0.00e+00	0	42	0	170917888	60	3981
2026-01-25 00:55:51.74	25.06	7.80	-44.4	-45.5	18.9	0.00e+00	0	42	0	174063616	59	4324
2026-01-25 00:55:52.74	25.06	7.88	-44.4	-45.6	18.9	0.00e+00	0	42	0	177209344	59	4348
2026-01-25 00:55:53.75	25.05	7.96	-44.2	-45.3	19.2	0.00e+00	0	42	0	180355072	59	4209
2026-01-25 00:55:54.75	25.04	8.04	-44.3	-45.5	19.0	0.00e+00	0	42	0	183500800	59	4292
2026-01-25 00:55:55.76	25.04	8.12	-44.4	-45.6	18.9	0.00e+00	0	42	0	186646528	59	4360
2026-01-25 00:55:56.76	25.03	8.20	-44.3	-45.5	19.0	0.00e+00	0	42	0	189792256	59	4309
2026-01-25 00:55:57.77	25.03	8.28	-44.2	-45.3	19.2	0.00e+00	0	42	0	192937984	59	4235
2026-01-25 00:55:58.77	25.02	8.36	-44.2	-45.3	19.2	0.00e+00	0	42	0	196083712	59	4225
2026-01-25 00:55:59.78	25.02	8.44	-44.1	-45.2	19.2	0.00e+00	0	42	0	199229440	59	4193
2026-01-25 00:56:00.78	25.01	8.52	-44.1	-45.2	19.3	0.00e+00	0	42	0	202375168	59	4193
2026-01-25 00:56:01.78	25.01	8.61	-44.2	-45.3	19.2	0.00e+00	0	43	0	205520896	59	4201
2026-01-25 00:56:02.78	25.00	8.69	-44.1	-45.2	19.3	0.00e+00	0	43	0	208666624	59	4155
2026-01-25 00:56:03.78	24.99	8.77	-44.1	-45.2	19.3	0.00e+00	0	43	0	211812352	59	4160
2026-01-25 00:56:04.79	24.99	8.85	-44.0	-45.1	19.4	0.00e+00	0	42	0	214958080	59	4133
2026-01-25 00:56:05.79	24.98	8.94	-44.0	-45.1	19.4	0.00e+00	0	43	0	218103808	59	4127
2026-01-25 00:56:06.80	24.97	9.02	-44.0	-45.1	19.5	0.00e+00	0	42	0	221249536	59	4112
2026-01-25 00:56:07.80	24.97	9.10	-44.0	-45.1	19.4	0.00e+00	0	42	0	224395264	59	4123
2026-01-25 00:56:08.81	24.96	9.19	-44.0	-45.0	19.5	0.00e+00	0	43	0	227540992	59	4096
2026-01-25 00:56:09.81	24.96	9.27	-43.8	-44.9	19.7	0.00e+00	0	42	0	230686720	59	4008
2026-01-25 00:56:10.82	24.95	9.36	-44.0	-45.1	19.5	0.00e+00	0	42	0	233832448	59	4105
2026-01-25 00:56:11.82	24.94	9.44	-43.9	-44.9	19.6	0.00e+00	0	43	0	236978176	59	4039
2026-01-25 00:56:12.83	24.94	9.53	-43.9	-44.9	19.7	0.00e+00	0	43	0	240123904	59	4036
2026-01-25 00:56:13.83	24.93	9.61	-43.9	-44.9	19.6	0.00e+00	0	42	0	243269632	59	4044
2026-01-25 00:56:14.84	24.92	9.70	-43.7	-44.8	19.8	0.00e+00	0	43	0	246415360	59	3974
2026-01-25 00:56:15.84	24.92	9.78	-43.7	-44.7	19.9	0.00e+00	0	42	0	249561088	59	3938
2026-01-25 00:56:16.85	24.91	9.87	-43.7	-44.7	19.8	0.00e+00	0	42	0	252706816	59	3956
2026-01-25 00:56:17.85	24.90	9.95	-43.8	-44.8	19.8	0.00e+00	0	42	0	255852544	59	3985
2026-01-25 00:56:18.86	24.90	10.04	-43.8	-44.9	19.7	0.00e+00	0	43	0	258998272	59	4005
2026-01-25 00:56:19.87	24.89	10.13	-44.0	-45.1	19.5	0.00e+00	0	43	0	262144000	59	4104
2026-01-25 00:56:20.87	24.88	10.22	-44.0	-45.1	19.6	0.00e+00	0	43	0	265289728	59	4112
2026-01-25 00:56:21.88	24.87	10.30	-43.9	-45.0	19.6	0.00e+00	0	43	0	268435456	59	4074
2026-01-25 00:56:22.89	24.87	10.39	-44.1	-45.1	19.5	0.00e+00	0	43	0	271581184	59	4134
2026-01-25 00:56:23.89	24.86	10.48	-43.7	-44.8	19.9	0.00e+00	0	43	0	274726912	59	3966
2026-01-25 00:56:24.90	24.85	10.57	-43.6	-44.6	20.0	0.00e+00	0	43	0	277872640	59	3875
2026-01-25 00:56:25.90	24.85	10.66	-43.4	-44.4	20.2	0.00e+00	0	43	0	281018368	58	4042
2026-01-25 00:56:26.91	24.84	10.75	-43.5	-44.5	20.1	0.00e+00	0	43	0	284164096	58	4086
2026-01-25 00:56:27.92	24.83	10.84	-43.4	-44.4	20.2	0.00e+00	0	43	0	287309824	58	4037
2026-01-25 00:56:28.92	24.82	10.93	-43.4	-44.4	20.2	0.00e+00	0	43	0	290455552	58	4027
2026-01-25 00:56:29.93	24.81	11.02	-43.5	-44.5	20.1	0.00e+00	0	43	0	293601280	58	4058
2026-01-25 00:56:30.93	24.81	11.11	-43.4	-44.3	20.3	0.00e+00	0	43	0	296747008	58	3994
2026-01-25 00:56:31.94	24.80	11.20	-43.3	-44.3	20.3	0.00e+00	0	43	0	299892736	58	3977
2026-01-25 00:56:32.94	24.79	11.29	-43.2	-44.2	20.5	0.00e+00	0	43	0	303038464	58	3914
2026-01-25 00:56:33.94	24.78	11.38	-43.2	-44.1	20.5	0.00e+00	0	42	0	306184192	58	3904
2026-01-25 00:56:34.95	24.78	11.48	-43.1	-44.0	20.6	0.00e+00	0	43	0	309329920	58	3861
2026-01-25 00:56:35.95	24.77	11.57	-43.2	-44.1	20.5	0.00e+00	0	43	0	312475648	58	3904
2026-01-25 00:56:36.96	24.76	11.66	-43.3	-44.2	20.4	0.00e+00	0	43	0	315621376	58	3943
2026-01-25 00:56:37.96	24.75	11.75	-43.1	-44.1	20.6	0.00e+00	0	43	0	318767104	58	3872
2026-01-25 00:56:38.97	24.74	11.85	-43.1	-44.0	20.6	0.00e+00	0	43	0	321912832	58	3859
2026-01-25 00:56:39.97	24.73	11.94	-43.2	-44.1	20.5	0.00e+00	0	43	0	325058560	58	3901
2026-01-25 00:56:40.98	24.73	12.03	-43.1	-44.0	20.6	0.00e+00	0	43	0	328204288	58	3852
2026-01-25 00:56:41.98	24.72	12.13	-43.1	-44.0	20.6	0.00e+00	0	43	0	331350016	58	3845
2026-01-25 00:56:42.99	24.71	12.22	-43.1	-44.0	20.6	0.00e+00	0	42	0	334495744	58	3849
2026-01-25 00:56:43.99	24.70	12.32	-43.0	-43.9	20.7	0.00e+00	0	43	0	337641472	57	4037
2026-01-25 00:56:45.00	24.69	12.42	-43.0	-43.9	20.7	0.00e+00	0	43	0	340787200	57	4026
2026-01-25 00:56:46.00	24.68	12.51	-42.9	-43.8	20.8	0.00e+00	0	43	0	343932928	57	3978
2026-01-25 00:56:47.01	24.67	12.61	-43.0	-43.9	20.7	0.00e+00	0	43	0	347078656	57	4033
2026-01-25 00:56:48.02	24.66	12.70	-42.8	-43.7	20.9	0.00e+00	0	43	0	350224384	57	3957
2026-01-25 00:56:49.02	24.65	12.80	-42.8	-43.7	20.9	0.00e+00	0	43	0	353370112	57	3924
2026-01-25 00:56:50.03	24.64	12.90	-42.8	-43.7	20.9	0.00e+00	0	43	0	356515840	57	3946
2026-01-25 00:56:51.03	24.63	13.00	-42.8	-43.7	20.9	0.00e+00	0	43	0	359661568	57	3942
2026-01-25 00:56:52.04	24.63	13.10	-42.7	-43.6	21.0	0.00e+00	0	42	0	362807296	57	3904
2026-01-25 00:56:53.05	24.62	13.19	-42.7	-43.6	21.0	0.00e+00	0	43	0	365953024	57	3869
2026-01-25 00:56:54.05	24.61	13.29	-42.7	-43.6	21.0	0.00e+00	0	43	0	369098752	57	3888
2026-01-25 00:56:55.06	24.60	13.39	-42.7	-43.6	21.0	0.00e+00	0	43	0	372244480	57	3886
2026-01-25 00:56:56.07	24.59	13.49	-42.7	-43.6	21.0	0.00e+00	0	43	0	375390208	57	3899
2026-01-25 00:56:57.08	24.58	13.59	-42.7	-43.6	21.0	0.00e+00	0	43	0	378535936	57	3884
2026-01-25 00:56:58.08	24.57	13.70	-42.7	-43.6	21.0	0.00e+00	0	43	0	381681664	57	3909
2026-01-25 00:56:59.09	24.56	13.80	-42.6	-43.5	21.1	0.00e+00	0	43	0	384827392	57	3859
2026-01-25 00:57:00.10	24.55	13.90	-42.6	-43.5	21.1	0.00e+00	0	43	0	387973120	57	3851
2026-01-25 00:57:01.11	24.54	14.00	-42.5	-43.4	21.2	0.00e+00	0	43	0	391118848	57	3808
2026-01-25 00:57:02.12	24.52	14.10	-42.6	-43.5	21.1	0.00e+00	0	43	0	394264576	57	3839
2026-01-25 00:57:03.12	24.51	14.21	-42.7	-43.6	21.0	0.00e+00	0	43	0	397410304	57	3905
2026-01-25 00:57:04.13	24.50	14.31	-42.6	-43.4	21.2	0.00e+00	0	43	0	400556032	57	3817
2026-01-25 00:57:05.13	24.49	14.41	-42.7	-43.6	21.1	0.00e+00	0	43	0	403701760	57	3876
2026-01-25 00:57:06.14	24.48	14.52	-42.7	-43.6	21.1	0.00e+00	0	43	0	406847488	57	3877
2026-01-25 00:57:07.15	24.47	14.62	-42.6	-43.4	21.2	0.00e+00	0	43	0	409993216	57	3817
2026-01-25 00:57:08.15	24.46	14.73	-42.6	-43.5	21.2	0.00e+00	0	43	0	413138944	57	3840
2026-01-25 00:57:09.16	24.45	14.83	-42.6	-43.5	21.2	0.00e+00	0	43	0	416284672	57	3834
2026-01-25 00:57:10.16	24.44	14.94	-42.6	-43.5	21.2	0.00e+00	0	43	0	419430400	57	3846
2026-01-25 00:57:11.17	24.43	15.05	-42.5	-43.4	21.3	0.00e+00	0	43	0	422576128	57	3802
2026-01-25 00:57:12.18	24.41	15.15	-42.6	-43.4	21.2	0.00e+00	0	43	0	425721856	57	3816
2026-01-25 00:57:13.18	24.40	15.26	-42.6	-43.4	21.2	0.00e+00	0	43	0	428867584	57	3819
2026-01-25 00:57:14.18	24.39	15.37	-42.7	-43.5	21.1	0.00e+00	0	43	0	432013312	57	3865
2026-01-25 00:57:15.19	24.38	15.48	-42.7	-43.6	21.0	0.00e+00	0	43	0	435159040	57	3904
2026-01-25 00:57:16.18	24.37	15.58	-42.7	-43.6	21.1	0.00e+00	0	43	0	438304768	57	3871
2026-01-25 00:57:17.18	24.35	15.69	-42.7	-43.6	21.1	0.00e+00	0	43	0	441450496	57	3869
2026-01-25 00:57:18.19	24.34	15.80	-42.6	-43.5	21.2	0.00e+00	0	43	0	444596224	57	3850
2026-01-25 00:57:19.20	24.33	15.91	-42.7	-43.5	21.1	0.00e+00	0	43	0	447741952	57	3865
2026-01-25 00:57:20.20	24.32	16.03	-42.7	-43.6	21.1	0.00e+00	0	43	0	450887680	57	3906
2026-01-25 00:57:21.20	24.30	16.14	-42.7	-43.6	21.1	0.00e+00	0	43	0	454033408	57	3911
2026-01-25 00:57:22.21	24.29	16.25	-42.7	-43.6	21.1	0.00e+00	0	43	0	457179136	57	3905
2026-01-25 00:57:23.20	24.28	16.36	-42.8	-43.7	21.0	0.00e+00	0	43	0	460324864	57	3947
2026-01-25 00:57:24.20	24.27	16.47	-42.9	-43.8	20.9	0.00e+00	0	43	0	463470592	57	3978
2026-01-25 00:57:25.21	24.25	16.59	-42.7	-43.6	21.1	0.00e+00	0	43	0	466616320	57	3882
2026-01-25 00:57:26.21	24.24	16.70	-42.8	-43.7	21.0	0.00e+00	0	43	0	469762048	57	3952
2026-01-25 00:57:27.20	24.23	16.81	-42.8	-43.7	21.0	0.00e+00	0	43	0	472907776	57	3945
2026-01-25 00:57:28.20	24.21	16.93	-42.9	-43.8	21.0	0.00e+00	0	43	0	476053504	57	3961
2026-01-25 00:57:29.20	24.20	17.04	-42.8	-43.7	21.1	0.00e+00	0	43	0	479199232	57	3920
2026-01-25 00:57:30.21	24.19	17.16	-42.8	-43.7	21.0	0.00e+00	0	43	0	482344960	57	3945
2026-01-25 00:57:31.21	24.17	17.27	-42.9	-43.8	21.0	0.00e+00	0	43	0	485490688	57	3968
2026-01-25 00:57:32.22	24.16	17.39	-42.8	-43.7	21.0	0.00e+00	0	43	0	488636416	57	3943
2026-01-25 00:57:33.23	24.14	17.51	-42.8	-43.7	21.0	0.00e+00	0	43	0	491782144	57	3929
2026-01-25 00:57:34.24	24.13	17.63	-42.9	-43.8	21.0	0.00e+00	0	43	0	494927872	57	3965
2026-01-25 00:57:35.25	24.11	17.75	-42.9	-43.8	20.9	0.00e+00	0	43	0	498073600	57	3988
2026-01-25 00:57:36.25	24.10	17.87	-43.0	-43.9	20.9	0.00e+00	0	43	0	501219328	57	4018
2026-01-25 00:57:37.26	24.09	17.99	-42.9	-43.8	21.0	0.00e+00	0	43	0	504365056	57	3970
2026-01-25 00:57:38.27	24.07	18.11	-42.7	-43.6	21.1	0.00e+00	0	43	0	507510784	57	3895
2026-01-25 00:57:39.28	24.05	18.23	-42.7	-43.6	21.1	0.00e+00	0	43	0	510656512	57	3904
2026-01-25 00:57:40.28	24.04	18.35	-42.7	-43.6	21.1	0.00e+00	0	43	0	513802240	57	3894
2026-01-25 00:57:41.29	24.02	18.47	-42.8	-43.6	21.1	0.00e+00	0	43	0	516947968	57	3907
2026-01-25 00:57:42.30	24.01	18.60	-42.7	-43.6	21.2	0.00e+00	0	43	0	520093696	57	3869
2026-01-25 00:57:43.31	23.99	18.72	-42.7	-43.6	21.1	0.00e+00	0	43	0	523239424	57	3903
2026-01-25 00:57:44.31	23.98	18.85	-42.9	-43.8	21.0	0.00e+00	0	43	0	526385152	57	3960
2026-01-25 00:57:45.32	23.96	18.97	-42.7	-43.6	21.1	0.00e+00	0	43	0	529530880	57	3900
2026-01-25 00:57:46.33	23.94	19.10	-42.7	-43.6	21.2	0.00e+00	0	43	0	532676608	57	3875
2026-01-25 00:57:47.33	23.93	19.22	-42.7	-43.6	21.2	0.00e+00	0	43	0	535822336	57	3870
2026-01-25 00:57:48.34	23.91	19.35	-42.6	-43.4	21.3	0.00e+00	0	43	0	538968064	57	3815
2026-01-25 00:57:49.34	23.89	19.48	-42.6	-43.5	21.3	0.00e+00	0	43	0	542113792	57	3834
2026-01-25 00:57:50.35	23.88	19.61	-42.4	-43.3	21.4	0.00e+00	0	43	0	545259520	56	3973
2026-01-25 00:57:51.35	23.86	19.73	-42.5	-43.3	21.4	0.00e+00	0	43	0	548405248	56	3997
2026-01-25 00:57:52.36	23.84	19.86	-42.4	-43.3	21.4	0.00e+00	0	43	0	551550976	56	3985
2026-01-25 00:57:53.36	23.83	19.99	-42.5	-43.4	21.4	0.00e+00	0	43	0	554696704	56	4014
2026-01-25 00:57:54.37	23.81	20.12	-42.3	-43.2	21.5	0.00e+00	0	43	0	557842432	56	3922
2026-01-25 00:57:55.38	23.79	20.26	-42.5	-43.3	21.4	0.00e+00	0	43	0	560988160	56	3999
2026-01-25 00:57:56.39	23.77	20.39	-42.4	-43.2	21.5	0.00e+00	0	43	0	564133888	56	3946
2026-01-25 00:57:57.39	23.75	20.52	-42.4	-43.3	21.5	0.00e+00	0	43	0	567279616	56	3970
2026-01-25 00:57:58.40	23.74	20.66	-42.3	-43.2	21.5	0.00e+00	0	43	0	570425344	56	3926
2026-01-25 00:57:59.40	23.72	20.79	-42.2	-43.1	21.6	0.00e+00	0	43	0	573571072	56	3883
2026-01-25 00:58:00.41	23.70	20.93	-42.3	-43.2	21.5	0.00e+00	0	43	0	576716800	56	3917
2026-01-25 00:58:01.41	23.68	21.06	-42.1	-43.0	21.7	0.00e+00	0	43	0	579862528	56	3828
2026-01-25 00:58:02.42	23.66	21.20	-42.0	-42.9	21.8	0.00e+00	0	43	0	583008256	56	3781
2026-01-25 00:58:03.42	23.64	21.33	-42.2	-43.0	21.7	0.00e+00	0	43	0	586153984	56	3845
2026-01-25 00:58:04.43	23.62	21.47	-42.0	-42.9	21.8	0.00e+00	0	43	0	589299712	56	3789
2026-01-25 00:58:05.44	23.60	21.61	-41.8	-42.6	21.9	0.00e+00	0	43	0	592445440	55	3897
2026-01-25 00:58:06.44	23.58	21.75	-41.8	-42.6	21.9	0.00e+00	0	43	0	595591168	55	3888
2026-01-25 00:58:07.45	23.56	21.89	-41.7	-42.5	22.1	0.00e+00	0	43	0	598736896	55	3836
2026-01-25 00:58:08.46	23.54	22.03	-41.6	-42.4	22.2	0.00e+00	0	43	0	601882624	55	3790
2026-01-25 00:58:09.47	23.52	22.18	-41.5	-42.3	22.2	0.00e+00	0	43	0	605028352	54	3974
2026-01-25 00:58:10.48	23.50	22.32	-41.5	-42.3	22.2	0.00e+00	0	43	0	608174080	54	3991
2026-01-25 00:58:11.48	23.48	22.46	-41.4	-42.2	22.3	0.00e+00	0	43	0	611319808	54	3956
2026-01-25 00:58:12.49	23.46	22.61	-41.3	-42.1	22.4	0.00e+00	0	43	0	614465536	54	3890
2026-01-25 00:58:13.50	23.43	22.75	-41.3	-42.1	22.4	0.00e+00	0	43	0	617611264	54	3885
2026-01-25 00:58:14.50	23.41	22.90	-41.2	-41.9	22.5	0.00e+00	0	43	0	620756992	54	3820
2026-01-25 00:58:15.50	23.39	23.04	-41.2	-41.9	22.5	0.00e+00	0	43	0	623902720	54	3816
2026-01-25 00:58:16.51	23.37	23.19	-41.1	-41.9	22.6	0.00e+00	0	43	0	627048448	54	3782
2026-01-25 00:58:17.51	23.34	23.34	-41.0	-41.8	22.7	0.00e+00	0	43	0	630194176	54	3756
2026-01-25 00:58:18.52	23.32	23.49	-41.0	-41.8	22.7	0.00e+00	0	43	0	633339904	54	3758
2026-01-25 00:58:19.53	23.30	23.64	-41.1	-41.8	22.6	0.00e+00	0	43	0	636485632	54	3774
2026-01-25 00:58:20.53	23.27	23.79	-41.1	-41.9	22.6	0.00e+00	0	43	0	639631360	54	3792
2026-01-25 00:58:21.53	23.25	23.94	-41.1	-41.9	22.6	0.00e+00	0	43	0	642777088	54	3813
2026-01-25 00:58:22.53	23.23	24.09	-41.2	-42.0	22.6	0.00e+00	0	43	0	645922816	54	3840
2026-01-25 00:58:23.54	23.20	24.25	-41.1	-41.9	22.7	0.00e+00	0	43	0	649068544	54	3782
2026-01-25 00:58:24.54	23.18	24.40	-41.1	-41.8	22.7	0.00e+00	0	43	0	652214272	54	3769
2026-01-25 00:58:25.55	23.15	24.56	-41.1	-41.8	22.7	0.00e+00	0	43	0	654311424	54	3779
2026-01-25 00:58:26.56	23.13	24.71	-41.2	-41.9	22.6	0.00e+00	0	43	0	657457152	54	3820
2026-01-25 00:58:27.56	23.10	24.87	-41.2	-42.0	22.6	0.00e+00	0	43	0	660602880	54	3840
2026-01-25 00:58:28.56	23.08	25.03	-41.2	-42.0	22.6	0.00e+00	0	43	0	663748608	54	3848
2026-01-25 00:58:29.56	23.05	25.19	-41.4	-42.2	22.5	0.00e+00	0	43	0	666894336	54	3942
2026-01-25 00:58:30.57	23.03	25.35	-41.4	-42.1	22.5	0.00e+00	0	43	0	670040064	54	3909
2026-01-25 00:58:31.57	23.00	25.51	-41.3	-42.1	22.6	0.00e+00	0	43	0	674234368	54	3884
2026-01-25 00:58:32.58	22.97	25.67	-41.4	-42.1	22.5	0.00e+00	0	43	0	677380096	54	3913
2026-01-25 00:58:33.58	22.94	25.83	-41.5	-42.3	22.4	0.00e+00	0	43	0	680525824	54	3972
2026-01-25 00:58:34.59	22.92	26.00	-41.5	-42.3	22.5	0.00e+00	0	43	0	683671552	54	3970
2026-01-25 00:58:35.59	22.89	26.16	-41.6	-42.4	22.3	0.00e+00	0	43	0	686817280	54	4035
2026-01-25 00:58:36.60	22.86	26.33	-41.7	-42.5	22.3	0.00e+00	0	43	0	689963008	54	4089
2026-01-25 00:58:37.60	22.83	26.49	-41.8	-42.6	22.2	0.00e+00	0	43	0	693108736	54	4099
2026-01-25 00:58:38.61	22.80	26.66	-41.9	-42.7	22.1	0.00e+00	0	43	0	696254464	54	4175
2026-01-25 00:58:39.62	22.77	26.83	-42.0	-42.8	22.0	0.00e+00	0	43	0	699400192	54	4214
2026-01-25 00:58:40.63	22.74	27.00	-42.0	-42.8	22.0	0.00e+00	0	43	0	701497344	54	4237
2026-01-25 00:58:41.63	22.71	27.17	-42.3	-43.1	21.8	0.00e+00	0	43	0	704643072	55	4117
2026-01-25 00:58:42.64	22.68	27.35	-42.3	-43.1	21.7	0.00e+00	0	43	0	707788800	55	4117
2026-01-25 00:58:43.65	22.65	27.52	-42.3	-43.2	21.6	0.00e+00	0	43	0	710934528	55	4152
2026-01-25 00:58:44.66	22.62	27.70	-42.4	-43.2	21.6	0.00e+00	0	43	0	714080256	55	4180
2026-01-25 00:58:45.67	22.59	27.87	-42.5	-43.3	21.4	0.00e+00	0	43	0	718274560	55	4240
2026-01-25 00:58:46.68	22.56	28.05	-42.5	-43.3	21.5	0.00e+00	0	43	0	721420288	55	4238
2026-01-25 00:58:47.68	22.53	28.23	-42.5	-43.4	21.4	0.00e+00	0	43	0	724566016	55	4249
2026-01-25 00:58:48.69	22.49	28.41	-42.5	-43.3	21.4	0.00e+00	0	43	0	727711744	55	4236
2026-01-25 00:58:49.70	22.46	28.59	-42.6	-43.4	21.4	0.00e+00	0	43	0	730857472	55	4268
2026-01-25 00:58:50.71	22.43	28.77	-42.6	-43.4	21.3	0.00e+00	0	43	0	734003200	55	4270
2026-01-25 00:58:51.72	22.39	28.95	-42.5	-43.4	21.4	0.00e+00	0	43	0	737148928	55	4260
2026-01-25 00:58:52.73	22.36	29.14	-42.6	-43.4	21.4	0.00e+00	0	43	0	740294656	55	4284
2026-01-25 00:58:53.73	22.32	29.32	-42.5	-43.3	21.5	0.00e+00	0	43	0	743440384	55	4221
2026-01-25 00:58:54.74	22.29	29.51	-42.5	-43.3	21.6	0.00e+00	0	43	0	746586112	55	4213
2026-01-25 00:58:55.75	22.25	29.70	-42.6	-43.4	21.5	0.00e+00	0	43	0	748683264	55	4290
2026-01-25 00:58:56.76	22.22	29.89	-42.5	-43.3	21.6	0.00e+00	0	43	0	751828992	55	4215
2026-01-25 00:58:57.77	22.18	30.08	-42.4	-43.2	21.6	0.00e+00	0	43	0	754974720	55	4190
2026-01-25 00:58:58.78	22.14	30.27	-42.4	-43.3	21.7	0.00e+00	0	43	0	759169024	55	4204
2026-01-25 00:58:59.78	22.10	30.46	-42.3	-43.1	21.8	0.00e+00	0	43	0	762314752	55	4137
2026-01-25 00:59:00.79	22.07	30.65	-42.2	-43.0	21.9	0.00e+00	0	43	0	765460480	55	4085
2026-01-25 00:59:01.80	22.03	30.85	-42.1	-42.9	22.0	0.00e+00	0	43	0	768606208	55	4045
2026-01-25 00:59:02.81	21.99	31.05	-42.1	-42.9	22.0	0.00e+00	0	43	0	771751936	55	4036
2026-01-25 00:59:03.82	21.95	31.24	-42.1	-42.9	22.0	0.00e+00	0	43	0	774897664	55	4050
2026-01-25 00:59:04.83	21.91	31.44	-42.1	-42.9	22.0	0.00e+00	0	43	0	778043392	55	4033
2026-01-25 00:59:05.84	21.87	31.65	-42.3	-43.1	21.8	0.00e+00	0	43	0	781189120	55	4133
2026-01-25 00:59:06.85	21.82	31.85	-42.3	-43.2	21.8	0.00e+00	0	43	0	784334848	55	4156
2026-01-25 00:59:07.86	21.78	32.05	-42.3	-43.1	21.8	0.00e+00	0	43	0	787480576	55	4144
2026-01-25 00:59:08.87	21.74	32.26	-42.4	-43.3	21.7	0.00e+00	0	43	0	790626304	55	4200
2026-01-25 00:59:09.88	21.70	32.46	-42.5	-43.4	21.7	0.00e+00	0	43	0	793772032	55	4260
2026-01-25 00:59:10.89	21.65	32.67	-42.6	-43.5	21.6	0.00e+00	0	43	0	796917760	55	4297
2026-01-25 00:59:11.89	21.61	32.88	-42.6	-43.4	21.6	0.00e+00	0	43	0	800063488	55	4271
2026-01-25 00:59:12.90	21.56	33.09	-42.7	-43.5	21.5	0.00e+00	0	43	0	803209216	55	4329
2026-01-25 00:59:13.91	21.52	33.30	-42.9	-43.7	21.4	0.00e+00	0	43	0	806354944	56	4192
2026-01-25 00:59:14.92	21.47	33.52	-43.0	-43.9	21.2	0.00e+00	0	43	0	809500672	56	4274
2026-01-25 00:59:15.93	21.42	33.73	-43.0	-43.9	21.3	0.00e+00	0	43	0	812646400	56	4253
2026-01-25 00:59:16.94	21.38	33.95	-43.2	-44.1	21.1	0.00e+00	0	43	0	815792128	57	4126
2026-01-25 00:59:17.95	21.33	34.17	-43.3	-44.2	21.0	0.00e+00	0	43	0	818937856	57	4188
2026-01-25 00:59:18.95	21.28	34.38	-43.5	-44.4	20.8	0.00e+00	0	43	0	822083584	57	4288
2026-01-25 00:59:19.96	21.23	34.61	-43.7	-44.6	20.7	0.00e+00	0	43	0	825229312	57	4361
2026-01-25 00:59:20.98	21.18	34.83	-43.9	-44.8	20.5	0.00e+00	0	43	0	828375040	58	4242
2026-01-25 00:59:21.98	21.13	35.05	-44.1	-45.1	20.2	0.00e+00	0	43	0	831520768	58	4387
2026-01-25 00:59:22.99	21.07	35.28	-44.3	-45.4	20.0	0.00e+00	0	43	0	834666496	59	4251
2026-01-25 00:59:24.00	21.02	35.51	-44.4	-45.4	20.0	0.00e+00	0	43	0	837812224	59	4268
2026-01-25 00:59:25.01	20.97	35.74	-44.6	-45.6	19.8	0.00e+00	0	43	0	840957952	59	4378
2026-01-25 00:59:26.02	20.91	35.97	-44.4	-45.4	20.0	0.00e+00	0	43	0	844103680	59	4270
2026-01-25 00:59:27.03	20.86	36.20	-44.3	-45.3	20.0	0.00e+00	0	43	0	847249408	59	4242
2026-01-25 00:59:28.04	20.80	36.43	-44.3	-45.3	20.1	0.00e+00	0	43	0	850395136	59	4216
2026-01-25 00:59:29.05	20.74	36.67	-44.4	-45.4	20.0	0.00e+00	0	43	0	853540864	59	4279
2026-01-25 00:59:30.06	20.69	36.91	-44.4	-45.4	20.0	0.00e+00	0	43	0	856686592	59	4262
2026-01-25 00:59:31.07	20.63	37.15	-44.5	-45.5	19.9	0.00e+00	0	43	0	859832320	59	4301
2026-01-25 00:59:32.08	20.57	37.39	-44.2	-45.2	20.2	0.00e+00	0	43	0	862978048	59	4146
2026-01-25 00:59:33.08	20.51	37.63	-44.2	-45.2	20.2	0.00e+00	0	43	0	866123776	59	4154
2026-01-25 00:59:34.09	20.44	37.87	-44.0	-45.0	20.4	0.00e+00	0	43	0	869269504	59	4055
2026-01-25 00:59:35.10	20.38	38.12	-44.0	-45.0	20.4	0.00e+00	0	43	0	872415232	59	4053
2026-01-25 00:59:36.11	20.32	38.37	-43.9	-44.8	20.6	0.00e+00	0	43	0	875560960	59	3968
2026-01-25 00:59:37.12	20.25	38.62	-43.7	-44.6	20.6	0.00e+00	0	43	0	878706688	59	3908
2026-01-25 00:59:38.13	20.19	38.87	-43.9	-44.8	20.5	0.00e+00	0	43	0	881852416	59	3980
2026-01-25 00:59:39.14	20.12	39.12	-44.0	-45.0	20.3	0.00e+00	0	43	0	884998144	59	4065
2026-01-25 00:59:40.15	20.05	39.38	-44.0	-45.0	20.3	0.00e+00	0	43	0	888143872	59	4052
2026-01-25 00:59:41.16	19.98	39.63	-44.2	-45.2	20.1	0.00e+00	0	43	0	891289600	59	4166
2026-01-25 00:59:42.17	19.91	39.89	-44.1	-45.1	20.3	0.00e+00	0	43	0	894435328	59	4106
2026-01-25 00:59:43.18	19.84	40.15	-44.1	-45.1	20.2	0.00e+00	0	43	0	897581056	59	4136
2026-01-25 00:59:44.19	19.77	40.42	-44.0	-44.9	20.4	0.00e+00	0	43	0	900726784	59	4049
2026-01-25 00:59:45.20	19.69	40.68	-44.0	-44.9	20.5	0.00e+00	0	43	0	903872512	59	4042
2026-01-25 00:59:46.21	19.62	40.95	-44.1	-45.0	20.4	0.00e+00	0	43	0	907018240	59	4089
2026-01-25 00:59:47.21	19.54	41.21	-44.3	-45.3	20.1	0.00e+00	0	43	0	910163968	59	4227
2026-01-25 00:59:48.22	19.46	41.48	-44.4	-45.4	20.0	0.00e+00	0	43	0	913309696	59	4265
2026-01-25 00:59:49.23	19.38	41.75	-44.6	-45.6	19.8	0.00e+00	0	43	0	916455424	59	4358
2026-01-25 00:59:50.24	19.30	42.03	-44.7	-45.7	19.6	0.00e+00	0	43	0	919601152	59	4427
2026-01-25 00:59:51.25	19.22	42.30	-44.5	-45.5	19.6	0.00e+00	0	43	0	922746880	60	4075
2026-01-25 00:59:52.26	19.14	42.58	-44.5	-45.6	19.5	0.00e+00	0	43	0	925892608	60	4110
2026-01-25 00:59:53.27	19.05	42.86	-44.6	-45.7	19.5	0.00e+00	0	43	0	929038336	60	4150
2026-01-25 00:59:54.28	18.96	43.15	-44.6	-45.6	19.5	0.00e+00	0	43	0	932184064	60	4121
2026-01-25 00:59:55.29	18.87	43.43	-44.9	-46.0	19.1	0.00e+00	0	43	0	935329792	60	4298
2026-01-25 00:59:56.29	18.78	43.71	-44.9	-46.0	19.1	0.00e+00	0	43	0	938475520	60	4318
2026-01-25 00:59:57.30	18.69	44.00	-45.1	-46.3	18.9	0.00e+00	0	43	0	941621248	60	4454
2026-01-25 00:59:58.31	18.60	44.29	-45.3	-46.4	18.8	0.00e+00	0	43	0	944766976	61	4287
2026-01-25 00:59:59.32	18.50	44.58	-45.2	-46.3	18.9	0.00e+00	0	43	0	947912704	61	4231
2026-01-25 01:00:00.33	18.41	44.88	-45.3	-46.5	18.7	0.00e+00	0	43	0	951058432	61	4293
2026-01-25 01:00:01.33	18.31	45.17	-45.3	-46.4	18.7	0.00e+00	0	43	0	954204160	61	4285
2026-01-25 01:00:02.34	18.21	45.47	-45.2	-46.3	18.8	0.00e+00	0	43	0	957349888	61	4240
2026-01-25 01:00:03.35	18.10	45.77	-45.3	-46.4	18.7	0.00e+00	0	43	0	960495616	61	4283
2026-01-25 01:00:04.36	18.00	46.08	-45.2	-46.3	18.8	0.00e+00	0	43	0	963641344	61	4208
2026-01-25 01:00:05.37	17.89	46.38	-45.2	-46.4	18.9	0.00e+00	0	43	0	966787072	61	4246
2026-01-25 01:00:06.38	17.78	46.69	-44.9	-46.0	19.2	0.00e+00	0	43	0	969932800	61	4062
2026-01-25 01:00:07.39	17.67	47.00	-44.7	-45.8	19.3	0.00e+00	0	43	0	973078528	61	3992
2026-01-25 01:00:08.40	17.55	47.31	-44.7	-45.8	19.5	0.00e+00	0	43	0	976224256	61	3978
2026-01-25 01:00:09.41	17.44	47.62	-44.6	-45.7	19.5	0.00e+00	0	43	0	979369984	61	3919
2026-01-25 01:00:10.41	17.32	47.94	-44.4	-45.4	19.8	0.00e+00	0	43	0	982515712	60	4034
2026-01-25 01:00:11.42	17.20	48.26	-44.5	-45.6	19.7	0.00e+00	0	43	0	985661440	60	4118
2026-01-25 01:00:12.44	17.07	48.58	-44.2	-45.2	20.0	0.00e+00	0	43	0	988807168	60	3934
2026-01-25 01:00:13.44	16.95	48.90	-44.3	-45.3	19.9	0.00e+00	0	43	0	991952896	60	3978
2026-01-25 01:00:14.45	16.82	49.22	-44.2	-45.2	20.0	0.00e+00	0	43	0	995098624	60	3949
2026-01-25 01:00:15.46	16.68	49.55	-44.4	-45.4	19.8	0.00e+00	0	43	0	998244352	60	4022
2026-01-25 01:00:16.47	16.55	49.88	-44.7	-45.8	19.5	0.00e+00	0	43	0	1001390080	60	4240
2026-01-25 01:00:17.48	16.41	50.21	-44.9	-46.1	19.2	0.00e+00	0	43	0	1004535808	60	4346
2026-01-25 01:00:18.49	16.27	50.55	-44.9	-46.0	19.3	0.00e+00	0	43	0	1007681536	60	4317
2026-01-25 01:00:19.50	16.12	50.88	-44.9	-46.0	19.4	0.00e+00	0	43	0	1010827264	60	4300
2026-01-25 01:00:20.51	15.97	51.22	-44.6	-45.6	19.7	0.00e+00	0	43	0	1013972992	60	4126
2026-01-25 01:00:21.51	15.82	51.56	-44.6	-45.6	19.6	0.00e+00	0	43	0	1017118720	60	4138
2026-01-25 01:00:22.52	15.67	51.90	-44.2	-45.2	20.0	0.00e+00	0	43	0	1020264448	60	3926
2026-01-25 01:00:23.53	15.51	52.25	-44.3	-45.3	20.2	0.00e+00	0	43	0	1023410176	59	4229
2026-01-25 01:00:24.54	15.34	52.59	-44.3	-45.3	20.3	0.00e+00	0	43	0	1026555904	59	4210
2026-01-25 01:00:25.55	15.18	52.94	-43.8	-44.7	20.7	0.00e+00	0	43	0	1029701632	59	3954
2026-01-25 01:00:26.56	15.01	53.29	-43.6	-44.5	20.9	0.00e+00	0	43	0	1032847360	59	3868
2026-01-25 01:00:27.57	14.83	53.65	-43.6	-44.5	21.0	0.00e+00	0	43	0	1035993088	59	3856
2026-01-25 01:00:28.58	14.65	54.00	-43.4	-44.3	21.1	0.00e+00	0	43	0	1039138816	58	3970
2026-01-25 01:00:29.59	14.46	54.36	-43.6	-44.5	20.8	0.00e+00	0	43	0	1042284544	58	4064
2026-01-25 01:00:30.60	14.28	54.72	-43.7	-44.6	20.9	0.00e+00	0	43	0	1045430272	58	4119
2026-01-25 01:00:31.60	14.08	55.08	-43.8	-44.7	20.8	0.00e+00	0	43	0	1048576000	58	4173
2026-01-25 01:00:32.61	13.88	55.45	-43.5	-44.4	21.0	0.00e+00	0	43	0	1051721728	58	4009
2026-01-25 01:00:33.62	13.68	55.81	-43.2	-44.1	21.2	0.00e+00	0	43	0	1054867456	58	3905
2026-01-25 01:00:34.63	13.47	56.18	-42.9	-43.8	21.5	0.00e+00	0	43	0	1058013184	57	3963
2026-01-25 01:00:35.64	13.25	56.55	-42.9	-43.8	21.6	0.00e+00	0	43	0	1061158912	57	3963
2026-01-25 01:00:36.65	13.03	56.93	-42.7	-43.6	21.8	0.00e+00	0	43	0	1064304640	57	3871
2026-01-25 01:00:37.65	12.80	57.30	-42.5	-43.3	21.9	0.00e+00	0	43	0	1067450368	57	3774
2026-01-25 01:00:38.66	12.57	57.68	-42.6	-43.4	21.8	0.00e+00	0	43	0	1070596096	57	3816
2026-01-25 01:00:39.67	12.33	58.05	-42.5	-43.3	21.9	0.00e+00	0	43	0	1073741824	56	3992
2026-01-25 01:00:40.68	12.08	58.44	-42.5	-43.3	21.8	0.00e+00	0	43	0	1076887552	56	3992
2026-01-25 01:00:41.69	11.82	58.82	-42.3	-43.1	22.0	0.00e+00	0	43	0	1080033280	56	3911
2026-01-25 01:00:42.70	11.56	59.20	-42.2	-43.0	22.1	0.00e+00	0	43	0	1083179008	56	3856
2026-01-25 01:00:43.71	11.28	59.59	-42.3	-43.1	22.1	0.00e+00	0	43	0	1086324736	56	3905
2026-01-25 01:00:44.72	11.00	59.98	-42.2	-43.1	22.2	0.00e+00	0	43	0	1089470464	56	3869
2026-01-25 01:00:45.73	10.71	60.37	-42.1	-42.9	22.3	0.00e+00	0	43	0	1092616192	56	3795
2026-01-25 01:00:46.74	10.42	60.76	-42.0	-42.8	22.3	0.00e+00	0	43	0	1095761920	56	3749
2026-01-25 01:00:47.75	10.11	61.16	-41.8	-42.6	22.2	0.00e+00	0	43	0	1098907648	55	3884
2026-01-25 01:00:48.75	9.79	61.55	-41.3	-42.1	22.6	0.00e+00	0	43	0	1102053376	54	3893
2026-01-25 01:00:49.76	9.47	61.94	-40.9	-41.6	23.1	0.00e+00	0	43	0	1105199104	53	3881
2026-01-25 01:00:50.77	9.13	62.34	-40.8	-41.4	23.2	0.00e+00	0	43	0	1109393408	53	3824
2026-01-25 01:00:51.78	8.78	62.74	-40.9	-41.7	23.0	0.00e+00	0	43	0	1112539136	53	3918
2026-01-25 01:00:52.79	8.41	63.14	-41.2	-41.9	22.8	0.00e+00	0	43	0	1114636288	53	4043
2026-01-25 01:00:53.80	8.04	63.55	-41.5	-42.3	22.6	0.00e+00	0	43	0	1117782016	53	4205
2026-01-25 01:00:54.81	7.65	63.95	-41.6	-42.4	22.5	0.00e+00	0	43	0	1120927744	53	4249
2026-01-25 01:00:55.82	7.25	64.36	-41.6	-42.3	22.5	0.00e+00	0	43	0	1124073472	53	4237
2026-01-25 01:00:56.83	6.83	64.76	-41.6	-42.4	22.5	0.00e+00	0	43	0	1127219200	53	4262
2026-01-25 01:00:57.83	6.40	65.17	-41.4	-42.2	22.7	0.00e+00	0	43	0	1130364928	53	4162
2026-01-25 01:00:58.84	5.96	65.57	-41.3	-42.1	22.8	0.00e+00	0	43	0	1133510656	53	4125
2026-01-25 01:00:59.85	5.49	65.98	-41.2	-42.0	23.0	0.00e+00	0	43	0	1136656384	53	4071
2026-01-25 01:01:00.84	5.02	66.38	-41.1	-41.9	23.0	0.00e+00	0	43	0	1139802112	53	4020
2026-01-25 01:01:01.85	4.51	66.79	-41.1	-41.8	23.1	0.00e+00	0	43	0	1142947840	53	3993
2026-01-25 01:01:02.86	3.99	67.20	-41.1	-41.8	23.1	0.00e+00	0	43	0	1146093568	53	3983
2026-01-25 01:01:03.87	3.45	67.61	-40.6	-41.3	23.5	0.00e+00	0	43	0	1150287872	53	3748
2026-01-25 01:01:04.88	2.88	68.02	-40.5	-41.2	23.6	0.00e+00	0	43	0	1153433600	52	3925
2026-01-25 01:01:05.89	2.30	68.43	-40.9	-41.6	23.2	0.00e+00	0	43	0	1156579328	52	4137
2026-01-25 01:01:06.90	1.68	68.84	-41.0	-41.7	22.9	0.00e+00	0	43	0	1159725056	52	4167
2026-01-25 01:01:07.90	1.05	69.25	-41.1	-41.9	22.6	0.00e+00	0	43	0	1161822208	52	4243
2026-01-25 01:01:08.91	0.38	69.65	-41.1	-41.8	22.8	0.00e+00	0	43	0	1164967936	52	4225
2026-01-25 01:01:09.92	359.68	70.06	-41.0	-41.8	22.7	0.00e+00	0	43	0	1168113664	52	4217
2026-01-25 01:01:10.93	358.96	70.47	-41.1	-41.8	22.7	0.00e+00	0	43	0	1171259392	52	4229
2026-01-25 01:01:11.94	358.19	70.87	-41.0	-41.8	22.7	0.00e+00	0	43	0	1174405120	52	4201
2026-01-25 01:01:12.95	357.40	71.28	-40.9	-41.6	22.9	0.00e+00	0	43	0	1177550848	52	4126
2026-01-25 01:01:13.95	356.57	71.67	-40.6	-41.4	23.2	0.00e+00	0	43	0	1180696576	52	4013
2026-01-25 01:01:14.96	355.70	72.07	-40.8	-41.6	22.9	0.00e+00	0	43	0	1183842304	52	4110
2026-01-25 01:01:15.97	354.78	72.47	-40.9	-41.6	23.0	0.00e+00	0	43	0	1188036608	52	4132
2026-01-25 01:01:16.98	353.82	72.86	-40.4	-41.1	23.3	0.00e+00	0	43	0	1191182336	52	3911
2026-01-25 01:01:17.99	352.82	73.25	-40.5	-41.2	23.3	0.00e+00	0	43	0	1194328064	52	3928
2026-01-25 01:01:19.00	351.76	73.64	-40.3	-41.0	23.6	0.00e+00	0	43	0	1197473792	52	3837
2026-01-25 01:01:20.01	350.65	74.02	-40.5	-41.2	23.5	0.00e+00	0	43	0	1200619520	52	3929
2026-01-25 01:01:21.02	349.48	74.39	-40.3	-41.0	23.7	0.00e+00	0	43	0	1203765248	52	3852
2026-01-25 01:01:22.03	348.25	74.76	-40.2	-40.9	23.8	0.00e+00	0	43	0	1206910976	52	3792
2026-01-25 01:01:23.04	346.96	75.13	-40.1	-40.8	23.9	0.00e+00	0	43	0	1209008128	52	3743
2026-01-25 01:01:24.05	345.60	75.49	-40.1	-40.7	24.0	0.00e+00	0	43	0	1212153856	51	3947
2026-01-25 01:01:25.05	344.19	75.83	-40.6	-41.3	23.6	0.00e+00	0	43	0	1215299584	51	4242
2026-01-25 01:01:26.06	342.69	76.18	-40.9	-41.6	23.2	0.00e+00	0	43	0	1218445312	52	4121
2026-01-25 01:01:27.07	341.11	76.51	-41.1	-41.8	23.1	0.00e+00	0	43	0	1222639616	52	4233
2026-01-25 01:01:28.08	339.44	76.83	-41.0	-41.8	23.2	0.00e+00	0	43	0	1225785344	52	4195
2026-01-25 01:01:29.09	337.70	77.15	-41.0	-41.7	23.2	0.00e+00	0	43	0	1228931072	52	4177
2026-01-25 01:01:30.09	335.88	77.45	-41.1	-41.8	23.1	0.00e+00	0	43	0	1232076800	52	4231
2026-01-25 01:01:31.10	333.95	77.73	-41.0	-41.8	23.1	0.00e+00	0	43	0	1235222528	52	4205
2026-01-25 01:01:32.11	331.94	78.01	-40.9	-41.6	23.3	0.00e+00	0	43	0	1238368256	52	4130
2026-01-25 01:01:33.12	329.82	78.27	-40.6	-41.3	23.5	0.00e+00	0	43	0	1241513984	52	3999
2026-01-25 01:01:34.13	327.61	78.51	-40.5	-41.2	23.6	0.00e+00	0	43	0	1244659712	52	3922
2026-01-25 01:01:35.14	325.31	78.74	-40.8	-41.6	22.9	0.00e+00	0	43	0	1247805440	52	4111
2026-01-25 01:01:36.15	322.91	78.95	-41.4	-42.2	22.7	0.00e+00	0	43	0	1250951168	53	4164
2026-01-25 01:01:37.16	320.42	79.14	-41.5	-42.3	22.6	0.00e+00	0	43	0	1254096896	53	4228
2026-01-25 01:01:38.17	317.85	79.31	-41.6	-42.4	22.5	0.00e+00	0	43	0	1256194048	53	4280
2026-01-25 01:01:39.17	315.22	79.46	-41.7	-42.6	22.4	0.00e+00	0	43	0	1260388352	53	4343
2026-01-25 01:01:40.18	312.50	79.58	-41.8	-42.7	22.3	0.00e+00	0	43	0	1263534080	54	4153
2026-01-25 01:01:41.19	309.72	79.68	-41.7	-42.5	22.5	0.00e+00	0	43	0	1266679808	54	4073
2026-01-25 01:01:42.20	306.89	79.76	-41.5	-42.3	22.7	0.00e+00	0	43	0	1269825536	54	3997
2026-01-25 01:01:43.21	304.02	79.81	-41.4	-42.2	22.8	0.00e+00	0	43	0	1272971264	54	3948
2026-01-25 01:01:44.21	301.15	79.84	-41.6	-42.5	22.6	0.00e+00	0	43	0	1276116992	54	4056
2026-01-25 01:01:45.22	298.26	79.84	-41.6	-42.5	22.4	0.00e+00	0	43	0	1279262720	54	4053
2026-01-25 01:01:46.23	295.36	79.81	-41.4	-42.2	22.6	0.00e+00	0	43	0	1282408448	54	3946
2026-01-25 01:01:47.24	292.49	79.76	-40.9	-41.6	23.2	0.00e+00	0	43	0	1285554176	53	3906
2026-01-25 01:01:48.25	289.66	79.69	-41.1	-41.8	23.1	0.00e+00	0	43	0	1288699904	53	3980
2026-01-25 01:01:49.25	286.90	79.59	-41.4	-42.1	22.8	0.00e+00	0	43	0	1291845632	53	4131
2026-01-25 01:01:50.26	284.17	79.47	-40.9	-41.7	23.1	0.00e+00	0	43	0	1294991360	53	3917
2026-01-25 01:01:51.27	281.51	79.32	-40.8	-41.5	23.3	0.00e+00	0	43	0	1298137088	53	3855
2026-01-25 01:01:52.28	278.93	79.15	-40.6	-41.4	23.4	0.00e+00	0	43	0	1301282816	53	3787
2026-01-25 01:01:53.29	276.44	78.96	-40.5	-41.2	23.5	0.00e+00	0	43	0	1304428544	52	3921
2026-01-25 01:01:54.29	274.06	78.76	-40.7	-41.4	23.4	0.00e+00	0	43	0	1307574272	52	4016
2026-01-25 01:01:55.30	271.74	78.53	-40.9	-41.7	23.2	0.00e+00	0	43	0	1310720000	52	4150
2026-01-25 01:01:56.31	269.53	78.29	-40.8	-41.5	23.4	0.00e+00	0	43	0	1313865728	52	4085
2026-01-25 01:01:57.32	267.40	78.03	-41.2	-41.9	23.1	0.00e+00	0	43	0	1317011456	52	4290
2026-01-25 01:01:58.32	265.40	77.76	-41.4	-42.1	22.7	0.00e+00	0	43	0	1320157184	53	4138
2026-01-25 01:01:59.33	263.46	77.47	-40.9	-41.6	23.3	0.00e+00	0	43	0	1323302912	53	3897
2026-01-25 01:02:00.34	261.62	77.17	-40.8	-41.5	23.2	0.00e+00	0	43	0	1326448640	53	3851
2026-01-25 01:02:01.35	259.86	76.86	-40.9	-41.6	23.3	0.00e+00	0	43	0	1329594368	53	3886
2026-01-25 01:02:02.36	258.19	76.53	-40.8	-41.6	23.2	0.00e+00	0	43	0	1332740096	53	3878
2026-01-25 01:02:03.37	256.61	76.20	-40.8	-41.6	22.8	0.00e+00	0	43	0	1335885824	53	3870
2026-01-25 01:02:04.38	255.10	75.86	-40.9	-41.7	22.4	0.00e+00	0	43	0	1339031552	53	3917
2026-01-25 01:02:05.39	253.66	75.51	-41.0	-41.8	22.8	0.00e+00	0	43	0	1342177280	53	3985
2026-01-25 01:02:06.40	252.30	75.15	-40.9	-41.6	23.1	0.00e+00	0	43	0	1345323008	53	3886
2026-01-25 01:02:07.41	251.00	74.78	-40.5	-41.2	23.5	0.00e+00	0	43	0	1348468736	53	3722
2026-01-25 01:02:08.42	249.77	74.41	-40.7	-41.4	23.2	0.00e+00	0	43	0	1351614464	53	3798
2026-01-25 01:02:09.43	248.60	74.04	-41.2	-42.0	22.9	0.00e+00	0	43	0	1354760192	53	4052
2026-01-25 01:02:10.44	247.48	73.66	-41.2	-42.0	22.8	0.00e+00	0	43	0	1357905920	53	4061
2026-01-25 01:02:11.45	246.42	73.27	-40.8	-41.6	23.0	0.00e+00	0	43	0	1361051648	53	3870
2026-01-25 01:02:12.45	245.42	72.88	-40.4	-41.1	23.6	0.00e+00	0	43	0	1364197376	52	3892
2026-01-25 01:02:13.46	244.46	72.49	-40.4	-41.1	23.6	0.00e+00	0	43	0	1367343104	52	3906
2026-01-25 01:02:14.47	243.54	72.09	-41.1	-41.9	22.8	0.00e+00	0	43	0	1370488832	52	4243
2026-01-25 01:02:15.48	242.66	71.70	-41.3	-42.0	22.7	0.00e+00	0	43	0	1373634560	53	4085
2026-01-25 01:02:16.49	241.82	71.29	-40.8	-41.6	23.1	0.00e+00	0	43	0	1376780288	53	3873
2026-01-25 01:02:17.49	241.03	70.90	-40.4	-41.1	23.3	0.00e+00	0	43	0	1379926016	52	3908
2026-01-25 01:02:18.50	240.27	70.49	-40.1	-40.8	23.4	0.00e+00	0	43	0	1383071744	52	3738
2026-01-25 01:02:19.51	239.54	70.08	-39.8	-40.5	23.8	0.00e+00	0	43	0	1386217472	51	3853
2026-01-25 01:02:20.51	238.84	69.68	-40.5	-41.2	23.4	0.00e+00	0	43	0	1389363200	51	4172
2026-01-25 01:02:21.52	238.17	69.27	-41.6	-42.4	22.6	0.00e+00	0	43	0	1392508928	53	4243
2026-01-25 01:02:22.53	237.53	68.86	-42.2	-43.1	22.1	0.00e+00	0	43	0	1395654656	55	4128
2026-01-25 01:02:23.54	236.92	68.45	-42.0	-42.8	22.1	0.00e+00	0	43	0	1398800384	55	3998
2026-01-25 01:02:24.55	236.32	68.04	-41.5	-42.3	22.6	0.00e+00	0	43	0	1401946112	55	3760
2026-01-25 01:02:25.56	235.76	67.63	-41.3	-42.1	22.8	0.00e+00	0	43	0	1405091840	54	3883
2026-01-25 01:02:26.57	235.21	67.22	-41.2	-42.0	23.0	0.00e+00	0	43	0	1408237568	54	3827
2026-01-25 01:02:27.58	234.69	66.81	-41.4	-42.2	22.8	0.00e+00	0	43	0	1411383296	54	3934
2026-01-25 01:02:28.58	234.19	66.40	-41.8	-42.6	22.5	0.00e+00	0	43	0	1414529024	54	4136
2026-01-25 01:02:29.59	233.71	65.99	-42.0	-42.8	22.3	0.00e+00	0	43	0	1417674752	54	4241
2026-01-25 01:02:30.60	233.24	65.58	-41.9	-42.8	22.1	0.00e+00	0	43	0	1420820480	54	4200
2026-01-25 01:02:31.60	232.79	65.18	-41.8	-42.6	22.4	0.00e+00	0	43	0	1423966208	54	4105
2026-01-25 01:02:32.61	232.36	64.77	-41.3	-42.1	22.8	0.00e+00	0	43	0	1427111936	54	3873
2026-01-25 01:02:33.62	231.94	64.36	-40.8	-41.6	23.2	0.00e+00	0	43	0	1430257664	53	3873
2026-01-25 01:02:34.63	231.54	63.96	-40.8	-41.5	23.3	0.00e+00	0	43	0	1433403392	53	3851
2026-01-25 01:02:35.64	231.15	63.55	-41.4	-42.1	22.9	0.00e+00	0	43	0	1436549120	53	4126
2026-01-25 01:02:36.65	230.77	63.15	-42.1	-42.9	22.2	0.00e+00	0	43	0	1439694848	54	4291
2026-01-25 01:02:37.66	230.41	62.75	-42.6	-43.5	21.6	0.00e+00	0	43	0	1442840576	55	4298
2026-01-25 01:02:38.67	230.06	62.35	-42.8	-43.7	21.3	0.00e+00	0	43	0	1445986304	56	4185
2026-01-25 01:02:39.68	229.72	61.95	-42.2	-43.0	22.0	0.00e+00	0	43	0	1449132032	56	3858
2026-01-25 01:02:40.69	229.39	61.55	-41.7	-42.5	22.5	0.00e+00	0	43	0	1452277760	55	3828
2026-01-25 01:02:41.69	229.07	61.16	-41.7	-42.4	22.6	0.00e+00	0	43	0	1455423488	55	3803
2026-01-25 01:02:42.70	228.76	60.76	-42.1	-42.9	22.3	0.00e+00	0	43	0	1458569216	55	4009
2026-01-25 01:02:43.71	228.46	60.37	-42.6	-43.5	21.8	0.00e+00	0	43	0	1461714944	55	4294
2026-01-25 01:02:44.72	228.17	59.98	-43.0	-43.8	21.4	0.00e+00	0	43	0	1464860672	56	4242
2026-01-25 01:02:45.73	227.89	59.59	-43.1	-44.0	20.9	0.00e+00	0	43	0	1468006400	56	4325
2026-01-25 01:02:46.74	227.62	59.20	-43.2	-44.2	20.4	0.00e+00	0	43	0	1471152128	57	4152
2026-01-25 01:02:47.75	227.36	58.81	-43.2	-44.1	20.3	0.00e+00	0	43	0	1474297856	57	4144
2026-01-25 01:02:48.76	227.10	58.43	-43.0	-43.9	21.0	0.00e+00	0	43	0	1477443584	57	4038
2026-01-25 01:02:49.76	226.85	58.05	-42.5	-43.4	21.5	0.00e+00	0	43	0	1480589312	57	3784
2026-01-25 01:02:50.77	226.61	57.67	-41.6	-42.3	22.2	0.00e+00	0	43	0	1483735040	55	3775
2026-01-25 01:02:51.78	226.37	57.29	-41.9	-42.7	21.8	0.00e+00	0	43	0	1486880768	54	4154
2026-01-25 01:02:52.79	226.14	56.91	-43.2	-44.1	21.1	0.00e+00	0	43	0	1490026496	56	4354
2026-01-25 01:02:53.80	225.92	56.54	-44.6	-45.7	19.9	0.00e+00	0	43	0	1493172224	59	4401
2026-01-25 01:02:54.81	225.70	56.17	-44.4	-45.4	19.6	0.00e+00	0	43	0	1496317952	60	4040
2026-01-25 01:02:55.82	225.49	55.80	-44.3	-45.3	19.8	0.00e+00	0	43	0	1499463680	59	4209
2026-01-25 01:02:56.83	225.29	55.43	-43.3	-44.2	21.1	0.00e+00	0	43	0	1502609408	58	3917
2026-01-25 01:02:57.84	225.09	55.06	-42.7	-43.5	21.7	0.00e+00	0	43	0	1505755136	57	3853
2026-01-25 01:02:58.85	224.89	54.70	-42.5	-43.3	21.9	0.00e+00	0	43	0	1508900864	57	3767
2026-01-25 01:02:59.86	224.70	54.34	-42.1	-42.8	22.4	0.00e+00	0	43	0	1512046592	56	3762
2026-01-25 01:03:00.87	224.52	53.98	-41.9	-42.6	22.5	0.00e+00	0	43	0	1515192320	55	3897
2026-01-25 01:03:01.88	224.34	53.62	-42.6	-43.4	21.8	0.00e+00	0	43	0	1518338048	55	4253
2026-01-25 01:03:02.88	224.16	53.27	-43.5	-44.4	21.0	0.00e+00	0	43	0	1521483776	57	4290
2026-01-25 01:03:03.89	223.99	52.92	-44.6	-45.7	19.8	0.00e+00	0	43	0	1524629504	59	4416
2026-01-25 01:03:04.90	223.82	52.57	-45.2	-46.4	19.0	0.00e+00	0	43	0	1527775232	60	4499
2026-01-25 01:03:05.91	223.66	52.22	-45.0	-46.1	19.1	0.00e+00	0	43	0	1530920960	60	4363
2026-01-25 01:03:06.92	223.50	51.87	-44.4	-45.4	19.4	0.00e+00	0	43	0	1534066688	60	4030
2026-01-25 01:03:07.93	223.34	51.53	-44.3	-45.3	19.7	0.00e+00	0	43	0	1537212416	59	4228
2026-01-25 01:03:08.94	223.19	51.19	-43.6	-44.5	20.7	0.00e+00	0	43	0	1540358144	59	3829
2026-01-25 01:03:09.95	223.04	50.85	-43.8	-44.7	20.6	0.00e+00	0	43	0	1543503872	59	3940
2026-01-25 01:03:10.95	222.90	50.52	-44.0	-45.0	20.4	0.00e+00	0	43	0	1546649600	59	4055
2026-01-25 01:03:11.96	222.76	50.18	-44.5	-45.5	20.0	0.00e+00	0	43	0	1549795328	59	4337
2026-01-25 01:03:12.97	222.62	49.85	-44.4	-45.4	19.8	0.00e+00	0	43	0	1552941056	60	4050
2026-01-25 01:03:13.98	222.48	49.52	-44.4	-45.4	19.8	0.00e+00	0	43	0	1556086784	60	4020
2026-01-25 01:03:14.99	222.35	49.19	-44.4	-45.4	19.8	0.00e+00	0	43	0	1559232512	60	4022
2026-01-25 01:03:16.00	222.22	48.86	-44.4	-45.4	19.8	0.00e+00	0	43	0	1562378240	60	4040
2026-01-25 01:03:17.01	222.09	48.54	-44.3	-45.3	20.0	0.00e+00	0	43	0	1565523968	60	3968
2026-01-25 01:03:18.02	221.97	48.22	-44.5	-45.5	19.7	0.00e+00	0	43	0	1568669696	60	4087
2026-01-25 01:03:19.03	221.84	47.90	-44.6	-45.6	19.4	0.00e+00	0	43	0	1571815424	60	4132
2026-01-25 01:03:20.04	221.72	47.58	-44.5	-45.5	19.4	0.00e+00	0	43	0	1574961152	60	4066
2026-01-25 01:03:21.04	221.61	47.27	-44.4	-45.4	19.4	0.00e+00	0	43	0	1578106880	60	4023
2026-01-25 01:03:22.05	221.49	46.96	-44.3	-45.3	19.8	0.00e+00	0	43	0	1581252608	59	4213
2026-01-25 01:03:23.06	221.38	46.65	-44.1	-45.0	20.2	0.00e+00	0	43	0	1584398336	59	4087
2026-01-25 01:03:24.07	221.27	46.34	-43.8	-44.7	20.6	0.00e+00	0	43	0	1587544064	59	3937
2026-01-25 01:03:25.08	221.16	46.03	-43.9	-44.8	20.4	0.00e+00	0	43	0	1590689792	59	3980
2026-01-25 01:03:26.09	221.06	45.73	-44.0	-45.0	20.3	0.00e+00	0	43	0	1593835520	59	4055
2026-01-25 01:03:27.09	220.95	45.43	-44.4	-45.4	20.1	0.00e+00	0	43	0	1596981248	59	4243
2026-01-25 01:03:28.10	220.85	45.13	-44.5	-45.5	19.7	0.00e+00	0	43	0	1600126976	60	4078
2026-01-25 01:03:29.11	220.75	44.83	-45.0	-46.2	19.0	0.00e+00	0	43	0	1603272704	60	4400
2026-01-25 01:03:30.12	220.65	44.54	-46.2	-47.1	18.3	0.00e+00	0	43	0	1606418432	62	4347
2026-01-25 01:03:31.13	220.56	44.24	-46.3	-47.7	17.7	0.00e+00	0	43	0	1609564160	63	4419
2026-01-25 01:03:32.14	220.46	43.95	-46.6	-48.1	17.2	0.00e+00	0	43	0	1612709888	63	4613
2026-01-25 01:03:33.14	220.37	43.66	-46.6	-48.1	17.2	0.00e+00	0	43	0	1615855616	63	4608
2026-01-25 01:03:34.15	220.28	43.38	-46.6	-48.1	17.3	0.00e+00	0	43	0	1619001344	63	4608
2026-01-25 01:03:35.16	220.19	43.09	-46.3	-47.7	17.7	0.00e+00	0	43	0	1622147072	63	4403
2026-01-25 01:03:36.17	220.11	42.81	-45.9	-47.2	18.0	0.00e+00	0	43	0	1625292800	63	4183
2026-01-25 01:03:37.18	220.02	42.53	-45.4	-46.6	18.5	0.00e+00	0	43	0	1628438528	62	4108
2026-01-25 01:03:38.19	219.94	42.25	-44.8	-45.8	19.1	0.00e+00	0	43	0	1631584256	61	3998
2026-01-25 01:03:39.19	219.85	41.97	-44.3	-45.2	19.8	0.00e+00	0	43	0	1634729984	59	4187
2026-01-25 01:03:40.20	219.77	41.70	-43.6	-44.5	20.6	0.00e+00	0	43	0	1637875712	59	3835
2026-01-25 01:03:41.21	219.69	41.43	-43.2	-44.1	21.0	0.00e+00	0	43	0	1641021440	58	3892
2026-01-25 01:03:42.22	219.61	41.16	-43.3	-44.2	21.0	0.00e+00	0	43	0	1644167168	58	3930
2026-01-25 01:03:43.23	219.54	40.89	-43.4	-44.3	21.0	0.00e+00	0	43	0	1647312896	58	3964
2026-01-25 01:03:44.24	219.46	40.62	-44.1	-45.0	20.3	0.00e+00	0	43	0	1650458624	58	4336
2026-01-25 01:03:45.25	219.39	40.35	-44.7	-45.7	19.7	0.00e+00	0	43	0	1653604352	59	4434
2026-01-25 01:03:46.25	219.31	40.09	-44.7	-45.8	19.4	0.00e+00	0	43	0	1656750080	60	4209
2026-01-25 01:03:47.26	219.24	39.83	-44.7	-45.8	19.3	0.00e+00	0	43	0	1659895808	60	4215
2026-01-25 01:03:48.27	219.17	39.57	-44.5	-45.6	19.6	0.00e+00	0	43	0	1664090112	60	4112
2026-01-25 01:03:49.28	219.10	39.31	-44.4	-45.4	19.8	0.00e+00	0	43	0	1666187264	60	4017
2026-01-25 01:03:50.29	219.03	39.06	-44.2	-45.2	19.9	0.00e+00	0	43	0	1669332992	60	3942
2026-01-25 01:03:51.30	218.97	38.80	-44.2	-45.2	20.0	0.00e+00	0	43	0	1672478720	60	3922
2026-01-25 01:03:52.31	218.90	38.55	-44.2	-45.2	19.9	0.00e+00	0	43	0	1675624448	60	3931
2026-01-25 01:03:53.32	218.83	38.30	-44.3	-45.4	19.7	0.00e+00	0	43	0	1678770176	60	4021
2026-01-25 01:03:54.33	218.77	38.05	-44.3	-45.4	19.7	0.00e+00	0	43	0	1681915904	60	4015
2026-01-25 01:03:55.34	218.71	37.80	-44.3	-45.3	19.8	0.00e+00	0	43	0	1685061632	60	3974
2026-01-25 01:03:56.35	218.64	37.56	-44.4	-45.5	19.7	0.00e+00	0	43	0	1688207360	60	4062
2026-01-25 01:03:57.35	218.58	37.32	-44.6	-45.6	19.5	0.00e+00	0	43	0	1691353088	60	4145
2026-01-25 01:03:58.36	218.52	37.08	-44.7	-45.8	19.4	0.00e+00	0	43	0	1694498816	60	4200
2026-01-25 01:03:59.37	218.46	36.84	-44.4	-45.5	19.6	0.00e+00	0	43	0	1698693120	60	4060
2026-01-25 01:04:00.38	218.41	36.60	-44.5	-45.6	19.5	0.00e+00	0	43	0	1701838848	60	4106
2026-01-25 01:04:01.39	218.35	36.36	-44.4	-45.4	19.7	0.00e+00	0	43	0	1704984576	60	4039
2026-01-25 01:04:02.40	218.29	36.13	-44.2	-45.2	19.8	0.00e+00	0	43	0	1708130304	60	3955
2026-01-25 01:04:03.41	218.24	35.89	-44.4	-45.4	20.0	0.00e+00	0	43	0	1711276032	59	4275
2026-01-25 01:04:04.42	218.18	35.66	-44.2	-45.2	20.1	0.00e+00	0	43	0	1713373184	59	4179
2026-01-25 01:04:05.43	218.13	35.43	-44.1	-45.1	20.3	0.00e+00	0	43	0	1716518912	59	4103
2026-01-25 01:04:06.44	218.07	35.20	-43.9	-44.8	20.5	0.00e+00	0	43	0	1719664640	59	4001
2026-01-25 01:04:07.45	218.02	34.98	-43.9	-44.9	20.5	0.00e+00	0	43	0	1722810368	59	4011
2026-01-25 01:04:08.45	217.97	34.75	-44.1	-45.1	20.3	0.00e+00	0	43	0	1725956096	59	4127
2026-01-25 01:04:09.46	217.92	34.53	-44.1	-45.1	20.2	0.00e+00	0	43	0	1729101824	59	4137
2026-01-25 01:04:10.47	217.87	34.31	-44.2	-45.2	20.1	0.00e+00	0	43	0	1733296128	59	4186
2026-01-25 01:04:11.48	217.82	34.09	-44.1	-45.2	20.1	0.00e+00	0	43	0	1736441856	59	4156
2026-01-25 01:04:12.49	217.77	33.87	-44.0	-45.0	20.3	0.00e+00	0	43	0	1739587584	59	4073
2026-01-25 01:04:13.49	217.72	33.65	-43.9	-44.9	20.3	0.00e+00	0	43	0	1742733312	59	4034
2026-01-25 01:04:14.50	217.67	33.44	-43.8	-44.8	20.4	0.00e+00	0	43	0	1745879040	59	3977
2026-01-25 01:04:15.51	217.63	33.22	-43.7	-44.7	20.5	0.00e+00	0	43	0	1749024768	59	3925
2026-01-25 01:04:16.52	217.58	33.01	-43.4	-44.3	20.9	0.00e+00	0	43	0	1752170496	58	3965
2026-01-25 01:04:17.53	217.54	32.80	-43.3	-44.2	21.0	0.00e+00	0	43	0	1755316224	58	3924
2026-01-25 01:04:18.53	217.49	32.59	-43.1	-44.0	21.1	0.00e+00	0	43	0	1758461952	58	3843
2026-01-25 01:04:19.54	217.45	32.38	-43.0	-43.9	21.2	0.00e+00	0	43	0	1760559104	58	3800
2026-01-25 01:04:20.55	217.40	32.17	-42.6	-43.5	21.5	0.00e+00	0	43	0	1763704832	57	3837
2026-01-25 01:04:21.56	217.36	31.97	-42.3	-43.1	21.8	0.00e+00	0	43	0	1766850560	56	3904
2026-01-25 01:04:22.57	217.32	31.76	-42.3	-43.1	21.8	0.00e+00	0	43	0	1769996288	56	3907
2026-01-25 01:04:23.58	217.28	31.56	-42.3	-43.1	21.8	0.00e+00	0	43	0	1774190592	56	3905
2026-01-25 01:04:24.58	217.23	31.36	-42.2	-43.0	22.0	0.00e+00	0	43	0	1777336320	56	3829
2026-01-25 01:04:25.59	217.19	31.16	-42.2	-43.0	21.9	0.00e+00	0	43	0	1780482048	56	3863
2026-01-25 01:04:26.60	217.15	30.96	-42.2	-43.0	22.0	0.00e+00	0	43	0	1783627776	56	3828
2026-01-25 01:04:27.61	217.11	30.76	-42.2	-43.0	22.0	0.00e+00	0	43	0	1786773504	56	3838
2026-01-25 01:04:28.61	217.08	30.57	-42.1	-42.9	22.1	0.00e+00	0	43	0	1789919232	56	3811
2026-01-25 01:04:29.62	217.04	30.38	-42.2	-43.0	22.0	0.00e+00	0	43	0	1793064960	56	3837
2026-01-25 01:04:30.63	217.00	30.18	-42.3	-43.1	21.9	0.00e+00	0	43	0	1796210688	56	3899
2026-01-25 01:04:31.64	216.96	29.99	-42.3	-43.1	21.9	0.00e+00	0	43	0	1799356416	56	3872
2026-01-25 01:04:32.65	216.92	29.80	-42.5	-43.3	21.7	0.00e+00	0	43	0	1802502144	56	3983
2026-01-25 01:04:33.65	216.89	29.61	-42.4	-43.2	21.8	0.00e+00	0	43	0	1805647872	56	3954
2026-01-25 01:04:34.66	216.85	29.42	-42.3	-43.1	21.8	0.00e+00	0	43	0	1807745024	56	3903
2026-01-25 01:04:35.67	216.81	29.23	-42.4	-43.2	21.7	0.00e+00	0	43	0	1811939328	56	3954
2026-01-25 01:04:36.68	216.78	29.05	-42.5	-43.4	21.6	0.00e+00	0	43	0	1815085056	56	4012
2026-01-25 01:04:37.69	216.74	28.86	-42.5	-43.4	21.6	0.00e+00	0	43	0	1818230784	56	4021
2026-01-25 01:04:38.69	216.71	28.68	-42.4	-43.2	21.7	0.00e+00	0	43	0	1821376512	56	3951
2026-01-25 01:04:39.70	216.68	28.50	-42.4	-43.2	21.8	0.00e+00	0	43	0	1824522240	56	3941
2026-01-25 01:04:40.71	216.64	28.32	-42.3	-43.1	21.9	0.00e+00	0	43	0	1827667968	56	3891
2026-01-25 01:04:41.72	216.61	28.14	-42.2	-43.0	22.0	0.00e+00	0	43	0	1830813696	56	3837
2026-01-25 01:04:42.72	216.58	27.96	-42.0	-42.8	22.1	0.00e+00	0	43	0	1833959424	56	3766
2026-01-25 01:04:43.73	216.54	27.78	-41.9	-42.6	22.1	0.00e+00	0	43	0	1837105152	55	3909
2026-01-25 01:04:44.74	216.51	27.60	-41.7	-42.5	22.2	0.00e+00	0	43	0	1840250880	55	3835
2026-01-25 01:04:45.75	216.48	27.43	-41.7	-42.5	22.1	0.00e+00	0	43	0	1843396608	55	3843
2026-01-25 01:04:46.76	216.45	27.25	-41.7	-42.5	22.1	0.00e+00	0	43	0	1846542336	55	3849
2026-01-25 01:04:47.76	216.42	27.08	-41.7	-42.5	22.1	0.00e+00	0	43	0	1849688064	55	3842
2026-01-25 01:04:48.77	216.39	26.91	-41.8	-42.6	22.0	0.00e+00	0	43	0	1852833792	55	3895
2026-01-25 01:04:49.78	216.36	26.74	-41.9	-42.7	21.9	0.00e+00	0	43	0	1855979520	55	3920
2026-01-25 01:04:50.79	216.33	26.57	-42.0	-42.8	21.8	0.00e+00	0	43	0	1859125248	55	3976
2026-01-25 01:04:51.80	216.30	26.40	-42.1	-42.9	21.7	0.00e+00	0	43	0	1862270976	55	4028
2026-01-25 01:04:52.81	216.27	26.23	-42.1	-42.9	21.7	0.00e+00	0	43	0	1865416704	55	4039
2026-01-25 01:04:53.81	216.24	26.06	-42.1	-42.9	21.7	0.00e+00	0	43	0	1868562432	55	4027
2026-01-25 01:04:54.82	216.21	25.90	-42.0	-42.8	21.8	0.00e+00	0	43	0	1871708160	55	3989
2026-01-25 01:04:55.83	216.19	25.73	-42.1	-42.9	21.7	0.00e+00	0	43	0	1874853888	55	4030
2026-01-25 01:04:56.84	216.16	25.57	-42.0	-42.8	21.8	0.00e+00	0	43	0	1877999616	55	3971
2026-01-25 01:04:57.85	216.13	25.40	-42.1	-42.9	21.7	0.00e+00	0	43	0	1881145344	55	4040
2026-01-25 01:04:58.85	216.10	25.24	-42.0	-42.8	21.8	0.00e+00	0	43	0	1884291072	55	3987
2026-01-25 01:04:59.86	216.08	25.08	-42.0	-42.8	21.8	0.00e+00	0	43	0	1887436800	55	4000
2026-01-25 01:05:00.87	216.05	24.92	-42.0	-42.8	21.8	0.00e+00	0	43	0	1890582528	55	3976
2026-01-25 01:05:01.88	216.02	24.76	-42.0	-42.8	21.7	0.00e+00	0	43	0	1893728256	55	3988
2026-01-25 01:05:02.88	216.00	24.61	-42.0	-42.8	21.7	0.00e+00	0	43	0	1896873984	55	3981
2026-01-25 01:05:03.89	215.97	24.45	-41.9	-42.7	21.7	0.00e+00	0	43	0	1900019712	55	3934
2026-01-25 01:05:04.90	215.95	24.29	-42.0	-42.8	21.5	0.00e+00	0	43	0	1903165440	55	3996
2026-01-25 01:05:05.91	215.92	24.14	-42.0	-42.9	21.5	0.00e+00	0	43	0	1906311168	55	4006
2026-01-25 01:05:06.92	215.90	23.98	-42.0	-42.9	21.5	0.00e+00	0	43	0	1909456896	55	4012
2026-01-25 01:05:07.92	215.87	23.83	-42.1	-42.9	21.5	0.00e+00	0	43	0	1912602624	55	4031
2026-01-25 01:05:08.93	215.85	23.68	-42.0	-42.9	21.6	0.00e+00	0	43	0	1915748352	55	4014
2026-01-25 01:05:09.94	215.83	23.53	-42.0	-42.9	21.6	0.00e+00	0	43	0	1918894080	55	4013
2026-01-25 01:05:10.95	215.80	23.37	-42.1	-42.9	21.6	0.00e+00	0	43	0	1922039808	55	4048
2026-01-25 01:05:11.96	215.78	23.22	-42.2	-43.0	21.5	0.00e+00	0	43	0	1925185536	55	4081
2026-01-25 01:05:12.97	215.75	23.07	-41.9	-42.8	21.7	0.00e+00	0	43	0	1928331264	55	3967
2026-01-25 01:05:13.98	215.73	22.93	-42.0	-42.8	21.7	0.00e+00	0	43	0	1931476992	55	3989
2026-01-25 01:05:14.99	215.71	22.78	-42.0	-42.9	21.7	0.00e+00	0	43	0	1934622720	55	4013
2026-01-25 01:05:16.00	215.69	22.63	-42.0	-42.8	21.8	0.00e+00	0	43	0	1937768448	55	3986
2026-01-25 01:05:17.01	215.66	22.49	-42.0	-42.8	21.8	0.00e+00	0	43	0	1940914176	55	3990
2026-01-25 01:05:18.01	215.64	22.34	-41.9	-42.7	21.9	0.00e+00	0	43	0	1944059904	55	3925
2026-01-25 01:05:19.02	215.62	22.20	-41.9	-42.7	21.9	0.00e+00	0	43	0	1947205632	55	3920
2026-01-25 01:05:20.03	215.60	22.05	-41.8	-42.6	22.0	0.00e+00	0	43	0	1950351360	55	3893
2026-01-25 01:05:21.04	215.58	21.91	-41.9	-42.7	21.9	0.00e+00	0	43	0	1953497088	55	3928
2026-01-25 01:05:22.05	215.56	21.77	-41.8	-42.6	22.0	0.00e+00	0	43	0	1956642816	55	3877
2026-01-25 01:05:23.06	215.54	21.63	-41.8	-42.7	22.0	0.00e+00	0	43	0	1959788544	55	3914
2026-01-25 01:05:24.07	215.52	21.49	-41.7	-42.5	22.1	0.00e+00	0	43	0	1962934272	55	3850
2026-01-25 01:05:25.08	215.50	21.35	-41.7	-42.5	22.1	0.00e+00	0	43	0	1966080000	55	3850
2026-01-25 01:05:26.09	215.48	21.21	-41.7	-42.6	22.1	0.00e+00	0	43	0	1969225728	55	3871
2026-01-25 01:05:27.09	215.46	21.07	-41.6	-42.4	22.2	0.00e+00	0	43	0	1972371456	55	3817
2026-01-25 01:05:28.10	215.44	20.93	-41.7	-42.5	22.1	0.00e+00	0	43	0	1975517184	55	3840
2026-01-25 01:05:29.11	215.42	20.80	-41.6	-42.4	22.2	0.00e+00	0	43	0	1978662912	55	3789
2026-01-25 01:05:30.12	215.40	20.66	-41.7	-42.5	22.1	0.00e+00	0	43	0	1981808640	55	3842
2026-01-25 01:05:31.13	215.38	20.53	-41.6	-42.4	22.2	0.00e+00	0	43	0	1984954368	55	3803
2026-01-25 01:05:32.14	215.36	20.39	-41.5	-42.3	22.2	0.00e+00	0	43	0	1988100096	55	3779
2026-01-25 01:05:33.15	215.34	20.26	-41.7	-42.5	22.1	0.00e+00	0	43	0	1991245824	55	3863
2026-01-25 01:05:34.16	215.32	20.13	-41.6	-42.4	22.1	0.00e+00	0	43	0	1994391552	55	3824
2026-01-25 01:05:35.17	215.30	19.99	-41.7	-42.5	22.1	0.00e+00	0	43	0	1997537280	55	3847
2026-01-25 01:05:36.18	215.29	19.86	-41.7	-42.5	22.1	0.00e+00	0	43	0	2000683008	55	3861
2026-01-25 01:05:37.19	215.27	19.73	-41.8	-42.6	22.0	0.00e+00	0	43	0	2003828736	55	3889
2026-01-25 01:05:38.20	215.25	19.60	-41.8	-42.7	21.9	0.00e+00	0	43	0	2006974464	55	3915
2026-01-25 01:05:39.21	215.23	19.47	-41.9	-42.7	21.9	0.00e+00	0	43	0	2010120192	55	3926
2026-01-25 01:05:40.21	215.21	19.34	-42.0	-42.8	21.8	0.00e+00	0	43	0	2013265920	55	3983
2026-01-25 01:05:41.22	215.20	19.21	-41.9	-42.8	21.8	0.00e+00	0	43	0	2016411648	55	3966
2026-01-25 01:05:42.23	215.18	19.09	-41.9	-42.8	21.8	0.00e+00	0	43	0	2019557376	55	3960
2026-01-25 01:05:43.24	215.16	18.96	-41.9	-42.7	21.8	0.00e+00	0	43	0	2022703104	55	3958
2026-01-25 01:05:44.24	215.15	18.83	-42.0	-42.9	21.7	0.00e+00	0	43	0	2025848832	55	4006
2026-01-25 01:05:45.25	215.13	18.71	-42.0	-42.8	21.8	0.00e+00	0	43	0	2028994560	55	3999
2026-01-25 01:05:46.26	215.11	18.58	-42.1	-42.9	21.6	0.00e+00	0	43	0	2032140288	55	4048
2026-01-25 01:05:47.27	215.10	18.46	-42.1	-42.9	21.7	0.00e+00	0	43	0	2035286016	55	4023
2026-01-25 01:05:48.28	215.08	18.34	-42.1	-42.9	21.7	0.00e+00	0	43	0	2038431744	55	4037
2026-01-25 01:05:49.28	215.07	18.21	-42.1	-42.9	21.7	0.00e+00	0	43	0	2041577472	55	4034
2026-01-25 01:05:50.29	215.05	18.09	-42.1	-43.0	21.6	0.00e+00	0	43	0	2044723200	55	4074
2026-01-25 01:05:51.30	215.03	17.97	-42.2	-43.0	21.6	0.00e+00	0	43	0	2047868928	55	4076
2026-01-25 01:05:52.31	215.02	17.85	-42.2	-43.0	21.6	0.00e+00	0	43	0	2051014656	55	4076
2026-01-25 01:05:53.32	215.00	17.73	-42.1	-43.0	21.6	0.00e+00	0	43	0	2054160384	55	4069
2026-01-25 01:05:54.33	214.99	17.61	-42.2	-43.1	21.5	0.00e+00	0	43	0	2057306112	55	4108
2026-01-25 01:05:55.33	214.97	17.49	-42.3	-43.1	21.5	0.00e+00	0	43	0	2060451840	55	4145
2026-01-25 01:05:56.34	214.96	17.37	-42.3	-43.1	21.5	0.00e+00	0	43	0	2063597568	55	4128
2026-01-25 01:05:57.35	214.94	17.25	-42.3	-43.2	21.4	0.00e+00	0	43	0	2066743296	55	4146
2026-01-25 01:05:58.36	214.93	17.13	-42.4	-43.2	21.4	0.00e+00	0	43	0	2069889024	55	4176
2026-01-25 01:05:59.37	214.91	17.02	-42.5	-43.3	21.3	0.00e+00	0	43	0	2073034752	55	4231
2026-01-25 01:06:00.38	214.90	16.90	-42.5	-43.4	21.3	0.00e+00	0	43	0	2076180480	55	4246
2026-01-25 01:06:01.39	214.89	16.78	-42.5	-43.4	21.2	0.00e+00	0	43	0	2079326208	55	4269
2026-01-25 01:06:02.40	214.87	16.67	-42.5	-43.4	21.3	0.00e+00	0	43	0	2082471936	55	4246
