passes_logs/2026/01/25/R3.2S_Murmansk/R3.2S_Murmansk__20260125_212622_KANOPUS-V_5_rec.log

#Pass ID: 20260125_212622_KANOPUS-V 5
#Satellite: KANOPUS-V 5
#Configuration: KANOPUS-V_8320
#almurnet v.1.7.20251203
#Start time: 2026-01-25 21:26:22

#Version: 2.2.20231116
#Station: R3.2S_Murmansk
#Location: 33.079688 lon 68.888172 lat
#TLE: 1 43876U 18111A   26025.54826615  .00005329  00000+0  22598-3 0  9999
#TLE: 2 43876  97.3674 293.8720 0001834  89.1965 270.9482 15.23539467393070

#Time	Az	El	Level	Level2	SNR	BER	BlckErr	Temp	State	Recorded	gain1	gain2
2026-01-25 21:26:22.02	21.10	1.95	-53.7	-62.5	3.8	7.45e-01	0	42	0	0	79	9704
2026-01-25 21:26:23.02	21.15	2.02	-53.0	-61.9	3.8	7.46e-01	0	42	104	0	77	10113
2026-01-25 21:26:24.03	21.19	2.09	-53.0	-61.9	3.8	7.46e-01	0	42	104	0	77	10072
2026-01-25 21:26:25.04	21.24	2.16	-53.0	-61.9	3.8	7.46e-01	0	42	104	0	77	10060
2026-01-25 21:26:26.05	21.28	2.23	-53.0	-61.9	3.8	7.46e-01	0	42	104	0	77	10060
2026-01-25 21:26:27.05	21.33	2.30	-53.0	-61.9	3.8	7.45e-01	0	42	104	0	77	10074
2026-01-25 21:26:28.06	21.38	2.37	-53.0	-61.9	3.8	7.45e-01	0	42	104	0	77	10063
2026-01-25 21:26:29.07	21.42	2.44	-53.0	-61.9	3.8	7.45e-01	0	42	104	0	77	10065
2026-01-25 21:26:30.08	21.47	2.51	-53.0	-61.8	3.8	7.45e-01	0	42	104	0	77	10042
2026-01-25 21:26:31.08	21.52	2.57	-53.0	-61.8	3.8	7.46e-01	0	42	104	0	77	10054
2026-01-25 21:26:32.09	21.56	2.64	-53.0	-61.8	3.8	7.44e-01	0	42	104	0	77	10036
2026-01-25 21:26:33.09	21.61	2.71	-53.0	-61.8	3.8	7.45e-01	0	42	104	0	77	10052
2026-01-25 21:26:34.10	21.66	2.79	-53.0	-61.8	3.8	7.46e-01	0	42	104	0	77	10007
2026-01-25 21:26:35.11	21.70	2.86	-53.0	-61.8	3.8	7.44e-01	0	42	104	0	77	10031
2026-01-25 21:26:36.11	21.75	2.93	-53.0	-61.8	3.8	7.44e-01	0	42	104	0	77	10022
2026-01-25 21:26:37.12	21.80	3.00	-53.0	-61.8	3.8	7.44e-01	0	42	104	0	77	10042
2026-01-25 21:26:38.12	21.85	3.07	-53.0	-61.8	3.8	7.45e-01	0	42	104	0	77	10035
2026-01-25 21:26:39.13	21.90	3.14	-53.0	-61.8	3.8	7.44e-01	0	42	104	0	77	10024
2026-01-25 21:26:40.14	21.95	3.21	-53.0	-61.8	3.8	7.44e-01	0	42	104	0	77	10010
2026-01-25 21:26:41.14	22.00	3.28	-53.0	-61.8	3.8	7.47e-01	0	43	104	0	77	10042
2026-01-25 21:26:42.15	22.05	3.36	-53.0	-61.8	3.8	7.43e-01	0	43	104	0	77	10042
2026-01-25 21:26:43.15	22.10	3.43	-53.0	-61.8	3.8	7.44e-01	0	43	104	0	77	10015
2026-01-25 21:26:44.16	22.15	3.50	-53.0	-61.8	3.8	7.45e-01	0	43	104	0	77	10052
2026-01-25 21:26:45.17	22.20	3.57	-53.0	-61.8	3.8	7.45e-01	0	43	104	0	77	10034
2026-01-25 21:26:46.17	22.25	3.65	-53.0	-61.8	3.8	7.46e-01	0	43	104	0	77	10029
2026-01-25 21:26:47.18	22.30	3.72	-53.0	-61.8	3.8	7.45e-01	0	43	104	0	77	10053
2026-01-25 21:26:48.18	22.35	3.79	-53.0	-61.8	3.8	7.46e-01	0	43	104	0	77	10052
2026-01-25 21:26:49.19	22.40	3.87	-53.0	-61.8	3.8	7.46e-01	0	43	104	0	77	9989
2026-01-25 21:26:50.20	22.46	3.94	-53.0	-61.8	3.8	7.46e-01	0	43	104	0	77	10050
2026-01-25 21:26:51.21	22.51	4.02	-53.0	-61.8	3.8	7.45e-01	0	43	104	0	77	10049
2026-01-25 21:26:52.22	22.56	4.09	-53.0	-61.8	3.8	7.44e-01	0	43	104	0	77	10009
2026-01-25 21:26:53.22	22.61	4.17	-53.0	-61.8	3.8	7.45e-01	0	43	104	0	77	10012
2026-01-25 21:26:54.22	22.67	4.24	-53.0	-61.8	3.8	7.46e-01	0	43	104	0	77	9991
2026-01-25 21:26:55.22	22.72	4.32	-53.0	-61.8	3.8	7.45e-01	0	43	104	0	77	10023
2026-01-25 21:26:56.23	22.77	4.39	-53.0	-61.8	3.8	7.46e-01	0	43	104	0	77	10013
2026-01-25 21:26:57.24	22.83	4.47	-53.0	-61.8	3.8	7.46e-01	0	43	104	0	77	10025
2026-01-25 21:26:58.24	22.88	4.55	-53.0	-61.8	3.8	7.46e-01	0	43	104	0	77	10019
2026-01-25 21:26:59.25	22.94	4.62	-53.0	-61.8	3.8	7.44e-01	0	43	104	0	77	10037
2026-01-25 21:27:00.26	22.99	4.70	-53.0	-61.8	3.8	7.47e-01	0	43	104	0	77	10013
2026-01-25 21:27:01.27	23.05	4.78	-53.0	-61.8	3.8	7.45e-01	0	43	104	0	77	10013
2026-01-25 21:27:02.27	23.11	4.85	-53.0	-61.8	3.8	7.45e-01	0	43	104	0	77	10009
2026-01-25 21:27:03.28	23.16	4.93	-53.0	-61.8	3.8	7.47e-01	0	43	104	0	77	9992
2026-01-25 21:27:04.28	23.22	5.01	-53.0	-61.8	3.8	7.45e-01	0	43	104	0	77	9971
2026-01-25 21:27:05.29	23.28	5.09	-53.0	-61.8	3.8	7.45e-01	0	43	104	0	77	10046
2026-01-25 21:27:06.29	23.33	5.17	-53.1	-62.0	3.8	7.46e-01	0	43	104	0	77	10194
2026-01-25 21:27:07.30	23.39	5.25	-52.9	-61.8	3.8	7.45e-01	0	43	104	0	77	9976
2026-01-25 21:27:08.31	23.45	5.33	-53.1	-61.9	3.8	7.44e-01	0	43	104	0	77	10157
2026-01-25 21:27:09.32	23.51	5.41	-53.1	-61.9	3.8	7.45e-01	0	43	104	0	77	10128
2026-01-25 21:27:10.33	23.57	5.49	-53.0	-61.8	3.8	7.46e-01	0	43	104	0	77	9990
2026-01-25 21:27:11.33	23.63	5.57	-53.0	-61.8	3.8	7.44e-01	0	43	104	0	77	10050
2026-01-25 21:27:12.34	23.69	5.65	-53.1	-61.9	3.8	7.46e-01	0	43	104	0	77	10163
2026-01-25 21:27:13.34	23.75	5.73	-53.1	-61.9	3.8	7.43e-01	0	43	104	0	77	10155
2026-01-25 21:27:14.35	23.81	5.81	-53.0	-61.8	3.8	7.45e-01	0	43	104	0	77	10053
2026-01-25 21:27:15.36	23.87	5.89	-53.0	-61.8	3.8	7.45e-01	0	43	104	0	77	10051
2026-01-25 21:27:16.36	23.93	5.97	-53.2	-62.0	3.8	7.45e-01	0	43	104	0	77	10225
2026-01-25 21:27:17.37	23.99	6.05	-53.1	-61.9	3.8	7.44e-01	0	43	104	0	77	10165
2026-01-25 21:27:18.37	24.05	6.13	-53.0	-61.9	3.8	7.46e-01	0	43	104	0	77	10076
2026-01-25 21:27:19.38	24.12	6.22	-53.1	-61.9	3.8	7.45e-01	0	43	104	0	77	10134
2026-01-25 21:27:20.39	24.18	6.30	-53.2	-62.0	3.8	7.45e-01	0	43	104	0	77	10244
2026-01-25 21:27:21.39	24.24	6.38	-53.2	-62.0	3.8	7.44e-01	0	43	104	0	77	10232
2026-01-25 21:27:22.40	24.31	6.47	-53.1	-61.9	3.8	7.46e-01	0	43	104	0	77	10141
2026-01-25 21:27:23.40	24.37	6.55	-53.1	-61.9	3.8	7.45e-01	0	43	104	0	77	10169
2026-01-25 21:27:24.41	24.43	6.64	-53.2	-62.1	3.8	7.45e-01	0	43	104	0	77	10308
2026-01-25 21:27:25.41	24.50	6.72	-53.2	-62.0	3.8	7.45e-01	0	43	104	0	77	10271
2026-01-25 21:27:26.43	24.57	6.81	-53.1	-61.9	3.8	7.43e-01	0	43	104	0	77	10146
2026-01-25 21:27:27.43	24.63	6.89	-53.2	-62.0	3.8	7.45e-01	0	44	104	0	77	10234
2026-01-25 21:27:28.44	24.70	6.98	-53.3	-62.1	3.8	7.45e-01	0	43	104	0	77	10320
2026-01-25 21:27:29.44	24.76	7.06	-53.2	-62.0	3.8	7.45e-01	0	43	104	0	77	10281
2026-01-25 21:27:30.45	24.83	7.15	-53.1	-62.0	3.8	7.45e-01	0	43	104	0	77	10230
2026-01-25 21:27:31.45	24.90	7.24	-53.2	-62.1	3.8	7.46e-01	0	44	104	0	77	10296
2026-01-25 21:27:32.46	24.97	7.32	-53.3	-62.1	3.8	7.46e-01	0	43	104	0	77	10403
2026-01-25 21:27:33.47	25.04	7.41	-53.3	-62.1	3.8	7.46e-01	0	43	104	0	77	10332
2026-01-25 21:27:34.48	25.11	7.50	-53.2	-62.0	3.8	7.46e-01	0	43	104	0	77	10259
2026-01-25 21:27:35.48	25.18	7.59	-53.2	-62.1	3.8	7.46e-01	0	43	104	0	77	10310
2026-01-25 21:27:36.49	25.25	7.68	-53.3	-62.1	3.8	7.45e-01	0	43	104	0	77	10385
2026-01-25 21:27:37.50	25.32	7.77	-53.3	-62.1	3.8	7.46e-01	0	44	104	0	77	10374
2026-01-25 21:27:38.51	25.39	7.86	-53.2	-62.0	3.8	7.44e-01	0	44	104	0	77	10286
2026-01-25 21:27:39.52	25.46	7.95	-53.3	-62.1	3.8	7.46e-01	0	44	104	0	77	10370
2026-01-25 21:27:40.53	25.53	8.04	-53.3	-62.2	3.8	7.45e-01	0	43	104	0	77	10458
2026-01-25 21:27:41.53	25.61	8.13	-53.3	-62.1	3.8	7.45e-01	0	43	104	0	77	10376
2026-01-25 21:27:42.54	25.68	8.22	-53.3	-62.1	3.8	7.45e-01	0	44	104	0	77	10347
2026-01-25 21:27:43.55	25.75	8.31	-53.3	-62.1	3.8	7.44e-01	0	43	104	0	77	10389
2026-01-25 21:27:44.55	25.83	8.40	-53.4	-62.2	3.8	7.46e-01	0	44	104	0	77	10527
2026-01-25 21:27:45.56	25.90	8.50	-53.3	-62.2	3.8	7.45e-01	0	43	104	0	77	10415
2026-01-25 21:27:46.57	25.98	8.59	-53.3	-62.1	3.8	7.44e-01	0	44	104	0	77	10367
2026-01-25 21:27:47.58	26.06	8.68	-53.4	-62.2	3.8	7.45e-01	0	44	104	0	77	10436
2026-01-25 21:27:48.59	26.13	8.78	-53.4	-62.2	3.8	7.45e-01	0	44	104	0	77	10512
2026-01-25 21:27:49.60	26.21	8.87	-53.4	-62.2	3.8	7.46e-01	0	44	104	0	77	10473
2026-01-25 21:27:50.60	26.29	8.97	-53.3	-62.1	3.8	7.43e-01	0	44	104	0	77	10411
2026-01-25 21:27:51.61	26.37	9.06	-53.4	-62.2	3.8	7.46e-01	0	44	104	0	77	10502
2026-01-25 21:27:52.61	26.45	9.16	-53.4	-62.2	3.8	7.46e-01	0	44	104	0	77	10525
2026-01-25 21:27:53.62	26.53	9.25	-53.4	-62.2	3.8	7.47e-01	0	44	104	0	77	10500
2026-01-25 21:27:54.63	26.61	9.35	-53.4	-62.2	3.8	7.44e-01	0	44	104	0	77	10416
2026-01-25 21:27:55.64	26.69	9.45	-53.4	-62.3	3.8	7.44e-01	0	44	104	0	77	10554
2026-01-25 21:27:56.64	26.77	9.55	-53.5	-62.3	3.8	7.46e-01	0	44	104	0	77	10589
2026-01-25 21:27:57.65	26.85	9.64	-53.4	-62.3	3.8	7.44e-01	0	44	104	0	77	10562
2026-01-25 21:27:58.65	26.93	9.74	-53.4	-62.2	3.8	7.45e-01	0	44	104	0	77	10529
2026-01-25 21:27:59.66	27.02	9.84	-53.5	-62.3	3.8	7.44e-01	0	44	104	0	77	10598
2026-01-25 21:28:00.67	27.10	9.94	-53.5	-62.3	3.8	7.45e-01	0	44	104	0	77	10635
2026-01-25 21:28:01.67	27.19	10.04	-53.5	-62.3	3.8	7.44e-01	0	44	104	0	77	10579
2026-01-25 21:28:02.68	27.27	10.14	-53.4	-62.2	3.8	7.45e-01	0	44	104	0	77	10522
2026-01-25 21:28:03.69	27.36	10.24	-53.5	-62.3	3.8	7.44e-01	0	44	104	0	77	10610
2026-01-25 21:28:04.69	27.45	10.34	-53.5	-62.3	3.8	7.45e-01	0	44	104	0	77	10627
2026-01-25 21:28:05.70	27.53	10.44	-53.5	-62.3	3.8	7.46e-01	0	44	104	0	77	10620
2026-01-25 21:28:06.71	27.62	10.55	-53.5	-62.3	3.8	7.45e-01	0	44	104	0	77	10580
2026-01-25 21:28:07.71	27.71	10.65	-53.5	-62.3	3.8	7.46e-01	0	44	104	0	77	10638
2026-01-25 21:28:08.72	27.80	10.75	-53.5	-62.4	3.8	7.45e-01	0	44	104	0	77	10694
2026-01-25 21:28:09.73	27.89	10.86	-53.5	-62.3	3.8	7.45e-01	0	44	104	0	77	10601
2026-01-25 21:28:10.74	27.98	10.96	-53.5	-62.3	3.8	7.44e-01	0	44	104	0	77	10588
2026-01-25 21:28:11.74	28.08	11.07	-53.6	-62.4	3.8	7.45e-01	0	44	104	0	77	10705
2026-01-25 21:28:12.75	28.17	11.17	-53.6	-62.4	3.8	7.45e-01	0	44	104	0	77	10695
2026-01-25 21:28:13.75	28.26	11.28	-53.5	-62.3	3.8	7.44e-01	0	44	104	0	77	10630
2026-01-25 21:28:14.76	28.36	11.39	-53.5	-62.3	3.8	7.46e-01	0	44	104	0	77	10633
2026-01-25 21:28:15.76	28.45	11.49	-53.6	-62.4	3.8	7.45e-01	0	44	104	0	77	10701
2026-01-25 21:28:16.77	28.55	11.60	-53.6	-62.4	3.8	7.44e-01	0	44	104	0	77	10715
2026-01-25 21:28:17.77	28.64	11.71	-53.5	-62.4	3.8	7.45e-01	0	44	104	0	77	10681
2026-01-25 21:28:18.78	28.74	11.82	-53.5	-62.4	3.8	7.45e-01	0	44	104	0	77	10673
2026-01-25 21:28:19.79	28.84	11.93	-53.6	-62.4	3.8	7.46e-01	0	44	104	0	77	10771
2026-01-25 21:28:20.79	28.94	12.04	-53.6	-62.5	3.8	7.46e-01	0	44	104	0	77	10794
2026-01-25 21:28:21.80	29.04	12.15	-53.6	-62.4	3.8	7.46e-01	0	44	104	0	77	10713
2026-01-25 21:28:22.80	29.14	12.26	-53.6	-62.4	3.8	7.46e-01	0	44	104	0	77	10682
2026-01-25 21:28:23.81	29.24	12.37	-53.6	-62.5	3.8	7.45e-01	0	44	104	0	77	10790
2026-01-25 21:28:24.82	29.35	12.49	-53.6	-62.5	3.8	7.45e-01	0	44	104	0	77	10836
2026-01-25 21:28:25.83	29.45	12.60	-53.6	-62.4	3.8	7.46e-01	0	44	104	0	77	10737
2026-01-25 21:28:26.84	29.56	12.71	-53.6	-62.4	3.8	7.47e-01	0	44	104	0	77	10730
2026-01-25 21:28:27.84	29.66	12.83	-53.7	-62.5	3.8	7.46e-01	0	44	104	0	77	10858
2026-01-25 21:28:28.85	29.77	12.94	-53.7	-62.5	3.8	7.45e-01	0	44	104	0	77	10853
2026-01-25 21:28:29.85	29.88	13.06	-53.6	-62.5	3.8	7.46e-01	0	44	104	0	77	10781
2026-01-25 21:28:30.86	29.99	13.17	-53.6	-62.4	3.8	7.44e-01	0	44	104	0	77	10763
2026-01-25 21:28:31.86	30.10	13.29	-53.7	-62.5	3.8	7.46e-01	0	44	104	0	77	10848
2026-01-25 21:28:32.87	30.21	13.41	-53.7	-62.5	3.8	7.44e-01	0	44	104	0	77	10863
2026-01-25 21:28:33.87	30.32	13.53	-53.6	-62.5	3.8	7.44e-01	0	44	104	0	77	10779
2026-01-25 21:28:34.88	30.43	13.65	-53.6	-62.5	3.8	7.46e-01	0	44	104	0	77	10804
2026-01-25 21:28:35.89	30.55	13.77	-53.7	-62.5	3.8	7.46e-01	0	44	104	0	77	10844
2026-01-25 21:28:36.90	30.66	13.89	-53.7	-62.6	3.8	7.44e-01	0	44	104	0	78	10311
2026-01-25 21:28:37.91	30.78	14.01	-53.7	-62.5	3.8	7.44e-01	0	44	104	0	78	10253
2026-01-25 21:28:38.91	30.89	14.13	-53.7	-62.5	3.8	7.46e-01	0	44	104	0	78	10222
2026-01-25 21:28:39.91	31.01	14.25	-53.8	-62.6	3.8	7.44e-01	0	44	104	0	78	10349
2026-01-25 21:28:40.92	31.13	14.38	-53.8	-62.6	3.8	7.45e-01	0	44	104	0	78	10338
2026-01-25 21:28:41.93	31.25	14.50	-53.7	-62.6	3.8	7.46e-01	0	44	104	0	78	10315
2026-01-25 21:28:42.93	31.37	14.63	-53.7	-62.5	3.8	7.44e-01	0	44	104	0	78	10268
2026-01-25 21:28:43.94	31.50	14.75	-53.8	-62.6	3.8	7.43e-01	0	44	104	0	78	10363
2026-01-25 21:28:44.94	31.62	14.88	-53.8	-62.6	3.8	7.46e-01	0	44	104	0	78	10333
2026-01-25 21:28:45.95	31.75	15.01	-53.7	-62.6	3.8	7.45e-01	0	44	104	0	78	10353
2026-01-25 21:28:46.96	31.87	15.13	-53.7	-62.5	3.8	7.46e-01	0	44	104	0	78	10293
2026-01-25 21:28:47.97	32.00	15.26	-53.8	-62.6	3.8	7.46e-01	0	44	104	0	78	10389
2026-01-25 21:28:48.97	32.13	15.39	-53.8	-62.6	3.8	7.46e-01	0	44	104	0	78	10343
2026-01-25 21:28:49.98	32.26	15.52	-53.8	-62.6	3.8	7.46e-01	0	44	104	0	78	10344
2026-01-25 21:28:50.99	32.39	15.65	-53.7	-62.6	3.8	7.45e-01	0	44	104	0	78	10322
2026-01-25 21:28:51.99	32.52	15.79	-53.8	-62.6	3.8	7.43e-01	0	44	104	0	78	10400
2026-01-25 21:28:53.00	32.66	15.92	-53.8	-62.6	3.8	7.46e-01	0	44	104	0	78	10382
2026-01-25 21:28:54.00	32.79	16.05	-53.8	-62.6	3.8	7.45e-01	0	44	104	0	78	10396
2026-01-25 21:28:55.01	32.93	16.19	-53.8	-62.6	3.8	7.44e-01	0	44	104	0	78	10360
2026-01-25 21:28:56.00	33.07	16.32	-53.8	-62.6	3.8	7.44e-01	0	44	104	0	78	10390
2026-01-25 21:28:57.01	33.21	16.46	-53.9	-62.7	3.8	7.45e-01	0	44	104	0	78	10431
2026-01-25 21:28:58.02	33.35	16.59	-53.8	-62.6	3.8	7.45e-01	0	44	104	0	78	10385
2026-01-25 21:28:59.02	33.49	16.73	-53.8	-62.6	3.8	7.45e-01	0	44	104	0	78	10372
2026-01-25 21:29:00.03	33.64	16.87	-53.9	-62.7	3.8	7.44e-01	0	44	104	0	78	10472
2026-01-25 21:29:01.03	33.78	17.01	-53.9	-62.7	3.8	7.44e-01	0	44	104	0	78	10441
2026-01-25 21:29:02.04	33.93	17.15	-53.8	-62.6	3.8	7.46e-01	0	44	104	0	78	10409
2026-01-25 21:29:03.05	34.08	17.29	-53.8	-62.6	3.8	7.46e-01	0	44	104	0	78	10379
2026-01-25 21:29:04.06	34.23	17.43	-53.9	-62.7	3.8	7.45e-01	0	44	104	0	78	10486
2026-01-25 21:29:05.06	34.38	17.58	-53.9	-62.7	3.8	7.45e-01	0	44	104	0	78	10445
2026-01-25 21:29:06.07	34.54	17.72	-53.8	-62.7	3.8	7.46e-01	0	44	104	0	78	10424
2026-01-25 21:29:07.08	34.69	17.87	-53.8	-62.6	3.8	7.45e-01	0	44	104	0	78	10405
2026-01-25 21:29:08.08	34.85	18.01	-53.9	-62.7	3.8	7.44e-01	0	44	104	0	78	10503
2026-01-25 21:29:09.09	35.01	18.16	-53.9	-62.7	3.8	7.45e-01	0	44	104	0	78	10485
2026-01-25 21:29:10.09	35.17	18.30	-53.9	-62.7	3.8	7.45e-01	0	44	104	0	78	10448
2026-01-25 21:29:11.10	35.33	18.45	-53.8	-62.7	3.8	7.46e-01	0	44	104	0	78	10459
2026-01-25 21:29:12.11	35.50	18.60	-53.9	-62.7	3.8	7.45e-01	0	44	104	0	78	10474
2026-01-25 21:29:13.11	35.66	18.75	-53.9	-62.7	3.8	7.44e-01	0	44	104	0	78	10485
2026-01-25 21:29:14.12	35.83	18.91	-53.9	-62.7	3.8	7.47e-01	0	44	104	0	78	10453
2026-01-25 21:29:15.13	36.00	19.06	-53.9	-62.7	3.8	7.45e-01	0	44	104	0	78	10474
2026-01-25 21:29:16.13	36.17	19.21	-53.9	-62.8	3.8	7.46e-01	0	44	104	0	78	10560
2026-01-25 21:29:17.14	36.35	19.37	-53.9	-62.7	3.8	7.44e-01	0	44	104	0	78	10531
2026-01-25 21:29:18.14	36.52	19.52	-53.9	-62.7	3.8	7.44e-01	0	44	104	0	78	10512
2026-01-25 21:29:19.15	36.70	19.68	-53.9	-62.7	3.8	7.45e-01	0	44	104	0	78	10472
2026-01-25 21:29:20.16	36.88	19.84	-54.0	-62.8	3.8	7.47e-01	0	44	104	0	78	10541
2026-01-25 21:29:21.17	37.06	19.99	-53.9	-62.7	3.8	7.45e-01	0	44	104	0	78	10531
2026-01-25 21:29:22.17	37.25	20.15	-53.9	-62.7	3.8	7.46e-01	0	44	104	0	78	10507
2026-01-25 21:29:23.18	37.43	20.31	-53.9	-62.7	3.8	7.47e-01	0	44	104	0	78	10521
2026-01-25 21:29:24.18	37.62	20.48	-54.0	-62.8	3.8	7.45e-01	0	44	104	0	78	10609
2026-01-25 21:29:25.19	37.81	20.64	-54.0	-62.8	3.8	7.46e-01	0	44	104	0	78	10582
2026-01-25 21:29:26.20	38.01	20.80	-53.9	-62.7	3.8	7.46e-01	0	44	104	0	78	10528
2026-01-25 21:29:27.20	38.20	20.97	-53.9	-62.7	3.8	7.45e-01	0	44	104	0	78	10509
2026-01-25 21:29:28.21	38.40	21.13	-54.0	-62.8	3.8	7.45e-01	0	44	104	0	78	10595
2026-01-25 21:29:29.22	38.60	21.30	-54.0	-62.8	3.8	7.43e-01	0	44	104	0	78	10578
2026-01-25 21:29:30.23	38.80	21.47	-53.9	-62.8	3.8	7.44e-01	0	44	104	0	78	10534
2026-01-25 21:29:31.23	39.00	21.64	-53.9	-62.8	3.8	7.45e-01	0	44	104	0	78	10553
2026-01-25 21:29:32.24	39.21	21.81	-54.0	-62.8	3.8	7.45e-01	0	44	104	0	78	10589
2026-01-25 21:29:33.24	39.42	21.98	-54.0	-62.8	3.8	7.45e-01	0	44	104	0	78	10618
2026-01-25 21:29:34.25	39.64	22.15	-54.0	-62.8	3.8	7.46e-01	0	44	104	0	78	10574
2026-01-25 21:29:35.26	39.85	22.33	-53.9	-62.8	3.8	7.44e-01	0	44	104	0	78	10586
2026-01-25 21:29:36.27	40.07	22.50	-54.0	-62.8	3.8	7.45e-01	0	44	104	0	78	10634
2026-01-25 21:29:37.28	40.29	22.68	-54.0	-62.9	3.8	7.44e-01	0	44	104	0	78	10669
2026-01-25 21:29:38.29	40.52	22.86	-54.0	-62.8	3.8	7.47e-01	0	44	104	0	78	10590
2026-01-25 21:29:39.29	40.74	23.03	-54.0	-62.8	3.8	7.46e-01	0	44	104	0	78	10603
2026-01-25 21:29:40.30	40.97	23.21	-54.0	-62.8	3.8	7.46e-01	0	44	104	0	78	10639
2026-01-25 21:29:41.31	41.20	23.39	-54.0	-62.9	3.8	7.46e-01	0	44	104	0	78	10661
2026-01-25 21:29:42.31	41.44	23.57	-54.0	-62.9	3.8	7.46e-01	0	44	104	0	78	10659
2026-01-25 21:29:43.31	41.67	23.76	-54.0	-62.8	3.8	7.44e-01	0	44	104	0	78	10619
2026-01-25 21:29:44.32	41.91	23.94	-54.0	-62.9	3.8	7.44e-01	0	44	104	0	78	10690
2026-01-25 21:29:45.33	42.16	24.13	-54.0	-62.9	3.8	7.44e-01	0	44	104	0	78	10657
2026-01-25 21:29:46.33	42.41	24.31	-54.0	-62.8	3.8	7.45e-01	0	44	104	0	78	10649
2026-01-25 21:29:47.34	42.66	24.50	-54.0	-62.9	3.8	7.46e-01	0	44	104	0	78	10667
2026-01-25 21:29:48.35	42.91	24.69	-54.1	-62.9	3.8	7.46e-01	0	44	104	0	78	10744
2026-01-25 21:29:49.36	43.17	24.88	-54.1	-62.9	3.8	7.47e-01	0	44	104	0	78	10697
2026-01-25 21:29:50.36	43.43	25.07	-54.0	-62.8	3.8	7.45e-01	0	44	104	0	78	10631
2026-01-25 21:29:51.37	43.69	25.26	-47.0	-62.9	3.8	7.46e-01	0	44	104	0	66	21397
2026-01-25 21:29:52.36	43.96	25.45	-48.7	-62.7	3.8	7.45e-01	0	44	104	0	69	17660
2026-01-25 21:29:53.36	44.23	25.64	-39.5	-40.9	18.9	6.09e-01	0	44	0	6291456	50	4279
2026-01-25 21:29:54.36	44.50	25.84	-46.9	-48.9	12.5	6.13e-01	0	44	0	23068672	66	4286
2026-01-25 21:29:55.37	44.78	26.03	-39.7	-41.2	18.8	6.08e-01	0	44	0	37748736	51	4192
2026-01-25 21:29:56.37	45.06	26.23	-39.8	-41.4	18.8	6.08e-01	0	44	0	52428800	51	4243
2026-01-25 21:29:57.37	45.35	26.43	-39.9	-41.6	18.6	6.08e-01	0	44	0	69206016	51	4359
2026-01-25 21:29:58.37	45.63	26.62	-39.9	-41.5	18.7	6.09e-01	0	44	0	83886080	51	4337
2026-01-25 21:29:59.38	45.93	26.83	-39.6	-41.3	18.8	6.08e-01	0	44	0	98566144	51	4199
2026-01-25 21:30:00.39	46.23	27.03	-39.5	-41.1	18.9	6.08e-01	0	44	0	115343360	51	4137
2026-01-25 21:30:01.39	46.53	27.23	-39.5	-41.1	18.9	6.08e-01	0	44	0	130023424	51	4131
2026-01-25 21:30:02.40	46.84	27.43	-39.4	-40.9	19.1	6.08e-01	0	44	0	144703488	50	4270
2026-01-25 21:30:03.40	47.15	27.64	-39.5	-41.0	19.1	6.08e-01	0	44	0	161480704	50	4317
2026-01-25 21:30:04.41	47.46	27.84	-39.6	-41.1	19.0	6.08e-01	0	44	0	176160768	50	4351
2026-01-25 21:30:05.42	47.78	28.05	-39.5	-41.0	19.0	6.09e-01	0	44	0	190840832	50	4337
2026-01-25 21:30:06.42	48.10	28.26	-39.6	-41.1	19.0	6.09e-01	0	44	0	207618048	50	4372
2026-01-25 21:30:07.43	48.43	28.47	-39.7	-41.2	19.0	6.09e-01	0	44	0	224395264	50	4393
2026-01-25 21:30:08.43	48.77	28.67	-39.9	-41.4	18.8	6.09e-01	0	44	0	239075328	50	4497
2026-01-25 21:30:09.44	49.11	28.89	-40.0	-41.6	18.7	6.08e-01	0	44	0	253755392	50	4601
2026-01-25 21:30:10.45	49.45	29.10	-40.1	-41.6	18.7	6.09e-01	0	44	0	270532608	50	4625
2026-01-25 21:30:11.45	49.79	29.31	-39.9	-41.3	18.8	6.09e-01	0	44	0	285212672	50	4490
2026-01-25 21:30:12.46	50.15	29.52	-39.8	-41.2	18.9	6.09e-01	0	44	0	299892736	50	4437
2026-01-25 21:30:13.47	50.51	29.74	-40.0	-41.7	18.7	5.89e-01	0	44	0	316669952	50	4698
2026-01-25 21:30:14.47	50.87	29.95	-40.2	-41.9	18.5	5.89e-01	0	44	0	331350016	50	4808
2026-01-25 21:30:15.47	51.23	30.17	-40.2	-42.1	18.5	5.89e-01	0	44	0	346030080	50	4871
2026-01-25 21:30:16.48	51.61	30.38	-40.2	-42.0	18.6	5.90e-01	0	44	0	362807296	50	4839
2026-01-25 21:30:17.48	51.99	30.60	-40.1	-41.8	18.6	5.89e-01	0	44	0	377487360	50	4755
2026-01-25 21:30:18.49	52.37	30.82	-40.2	-41.9	18.6	5.89e-01	0	44	0	392167424	51	4508
2026-01-25 21:30:19.50	52.76	31.04	-40.1	-41.7	18.8	5.88e-01	0	44	0	408944640	51	4415
2026-01-25 21:30:20.50	53.16	31.25	-40.2	-41.8	18.7	5.89e-01	0	44	0	423624704	51	4450
2026-01-25 21:30:21.51	53.56	31.47	-40.4	-42.0	18.6	5.90e-01	0	44	0	438304768	51	4548
2026-01-25 21:30:22.51	53.96	31.69	-40.3	-41.9	18.6	5.89e-01	0	44	0	455081984	51	4528
2026-01-25 21:30:23.52	54.38	31.91	-40.3	-41.9	18.6	5.90e-01	0	44	0	469762048	51	4523
2026-01-25 21:30:24.52	54.79	32.13	-40.4	-42.0	18.6	5.90e-01	0	44	0	484442112	51	4563
2026-01-25 21:30:25.53	55.22	32.36	-40.2	-41.8	18.7	5.89e-01	0	44	0	501219328	51	4491
2026-01-25 21:30:26.53	55.65	32.58	-40.1	-41.8	18.7	5.89e-01	0	44	0	517996544	51	4453
2026-01-25 21:30:27.54	56.09	32.80	-40.2	-41.9	18.7	5.89e-01	0	44	0	532676608	51	4522
2026-01-25 21:30:28.55	56.54	33.02	-40.1	-41.8	18.7	5.90e-01	0	44	0	547356672	51	4490
2026-01-25 21:30:29.55	56.98	33.24	-40.0	-41.7	18.8	5.89e-01	0	44	0	564133888	51	4428
2026-01-25 21:30:30.56	57.44	33.46	-40.0	-41.7	18.8	5.89e-01	0	44	0	578813952	51	4418
2026-01-25 21:30:31.57	57.91	33.69	-40.1	-41.8	18.7	5.89e-01	0	44	0	593494016	51	4473
2026-01-25 21:30:32.58	58.38	33.91	-40.3	-42.1	18.6	5.89e-01	0	44	0	610271232	51	4600
2026-01-25 21:30:33.59	58.86	34.13	-40.1	-41.9	18.6	5.88e-01	0	44	0	624951296	51	4532
2026-01-25 21:30:34.60	59.35	34.35	-40.1	-41.8	18.7	5.89e-01	0	44	0	639631360	51	4465
2026-01-25 21:30:35.60	59.83	34.57	-40.2	-41.8	18.7	5.89e-01	0	44	0	656408576	51	4475
2026-01-25 21:30:36.61	60.33	34.80	-39.9	-41.7	18.8	5.90e-01	0	44	0	671088640	51	4399
2026-01-25 21:30:37.62	60.84	35.02	-39.5	-41.4	19.0	5.89e-01	0	44	0	685768704	51	4253
2026-01-25 21:30:38.62	61.35	35.24	-39.5	-41.4	18.9	5.89e-01	0	44	0	702545920	50	4532
2026-01-25 21:30:39.63	61.87	35.46	-39.6	-41.5	18.8	5.89e-01	0	44	0	719323136	50	4594
2026-01-25 21:30:40.63	62.40	35.67	-39.6	-41.6	18.8	5.90e-01	0	44	0	734003200	50	4636
2026-01-25 21:30:41.64	62.94	35.89	-39.6	-41.5	18.8	6.06e-01	0	44	0	748683264	50	4560
2026-01-25 21:30:42.65	63.48	36.11	-39.4	-41.3	19.0	6.05e-01	0	44	0	765460480	50	4457
2026-01-25 21:30:43.65	64.03	36.32	-39.4	-41.4	18.9	6.05e-01	0	44	0	780140544	50	4496
2026-01-25 21:30:44.65	64.58	36.53	-39.3	-41.4	18.9	6.02e-01	0	44	0	794820608	50	4521
2026-01-25 21:30:45.66	65.15	36.75	-39.2	-41.3	19.0	6.00e-01	0	44	0	811597824	50	4467
2026-01-25 21:30:46.66	65.72	36.96	-39.1	-41.2	19.0	6.05e-01	0	44	0	826277888	50	4407
2026-01-25 21:30:47.67	66.30	37.17	-38.8	-40.8	19.2	6.05e-01	0	44	0	840957952	49	4476
2026-01-25 21:30:48.68	66.90	37.38	-38.7	-40.7	19.2	6.05e-01	0	44	0	857735168	49	4419
2026-01-25 21:30:49.68	67.49	37.58	-38.5	-40.6	19.4	6.04e-01	0	44	0	872415232	49	4386
2026-01-25 21:30:50.68	68.09	37.79	-38.7	-40.9	19.2	6.06e-01	0	44	0	887095296	49	4508
2026-01-25 21:30:51.69	68.71	37.99	-38.6	-40.7	19.4	6.04e-01	0	44	0	901775360	49	4427
2026-01-25 21:30:52.69	69.32	38.19	-38.6	-40.7	19.3	6.04e-01	0	44	0	918552576	49	4430
2026-01-25 21:30:53.70	69.95	38.39	-38.0	-40.5	19.4	6.04e-01	0	44	0	933232640	48	4564
2026-01-25 21:30:54.71	70.59	38.59	-38.3	-40.5	19.4	6.04e-01	0	44	0	947912704	48	4582
2026-01-25 21:30:55.71	71.24	38.78	-38.2	-40.5	19.4	6.03e-01	0	44	0	964689920	48	4557
2026-01-25 21:30:56.72	71.89	38.97	-38.3	-40.5	19.3	6.04e-01	0	44	0	979369984	48	4592
2026-01-25 21:30:57.73	72.55	39.16	-38.3	-40.5	19.4	6.03e-01	0	44	0	996147200	48	4556
2026-01-25 21:30:58.73	73.22	39.34	-38.0	-40.2	19.6	6.05e-01	0	44	0	1010827264	48	4412
2026-01-25 21:30:59.74	73.90	39.53	-38.0	-40.0	19.7	6.03e-01	0	44	0	1027604480	48	4327
2026-01-25 21:31:00.75	74.59	39.71	-36.9	-38.7	19.4	6.04e-01	0	44	0	1042284544	45	4439
2026-01-25 21:31:01.76	75.28	39.88	-36.9	-38.8	19.4	6.03e-01	0	44	0	1056964608	45	4493
2026-01-25 21:31:02.76	75.98	40.05	-36.7	-38.8	19.4	6.00e-01	0	44	0	1073741824	45	4448
2026-01-25 21:31:03.77	76.69	40.22	-36.8	-39.0	19.3	6.00e-01	0	44	0	1088421888	45	4564
2026-01-25 21:31:04.78	77.41	40.39	-36.9	-39.1	19.3	6.03e-01	0	44	0	1103101952	45	4650
2026-01-25 21:31:05.79	78.14	40.55	-36.9	-39.1	19.3	6.04e-01	0	44	0	1119879168	45	4617
2026-01-25 21:31:06.79	78.86	40.70	-37.0	-39.1	19.3	6.03e-01	0	44	0	1134559232	45	4612
2026-01-25 21:31:07.79	79.60	40.86	-36.8	-38.9	19.4	6.03e-01	0	44	0	1149239296	45	4497
2026-01-25 21:31:08.79	80.34	41.00	-36.7	-38.7	19.5	6.05e-01	0	44	0	1166016512	45	4425
2026-01-25 21:31:09.80	81.09	41.15	-36.5	-38.5	19.7	6.03e-01	0	44	0	1180696576	44	4548
2026-01-25 21:31:10.81	81.86	41.29	-36.5	-38.6	19.5	6.03e-01	0	44	0	1195376640	44	4636
2026-01-25 21:31:11.82	82.62	41.42	-36.5	-38.7	19.5	6.04e-01	0	44	0	1212153856	44	4680
2026-01-25 21:31:12.83	83.40	41.55	-36.6	-38.7	19.5	6.06e-01	0	44	0	1228931072	44	4679
2026-01-25 21:31:13.84	84.18	41.67	-36.6	-38.7	19.5	6.06e-01	0	44	0	1243611136	44	4696
2026-01-25 21:31:14.85	84.97	41.79	-36.6	-38.8	19.4	6.03e-01	0	44	0	1258291200	44	4715
2026-01-25 21:31:15.85	85.76	41.91	-36.6	-38.8	19.5	6.04e-01	0	44	0	1275068416	44	4709
2026-01-25 21:31:16.86	86.56	42.01	-36.5	-38.6	19.6	6.07e-01	0	44	0	1289748480	44	4649
2026-01-25 21:31:17.87	87.36	42.12	-36.4	-38.6	19.5	6.06e-01	0	44	0	1304428544	44	4600
2026-01-25 21:31:18.87	88.16	42.21	-36.4	-38.5	19.6	6.05e-01	0	44	0	1321205760	44	4554
2026-01-25 21:31:19.88	88.98	42.30	-36.2	-38.2	19.8	6.02e-01	0	44	0	1335885824	44	4403
2026-01-25 21:31:20.89	89.80	42.39	-36.1	-38.1	19.8	6.02e-01	0	44	0	1350565888	44	4384
2026-01-25 21:31:21.90	90.62	42.47	-36.0	-38.1	19.8	6.03e-01	0	44	0	1367343104	44	4372
2026-01-25 21:31:22.91	91.45	42.54	-36.1	-38.2	19.8	6.01e-01	0	44	0	1382023168	44	4440
2026-01-25 21:31:23.91	92.27	42.60	-36.1	-38.3	19.7	6.03e-01	0	44	0	1396703232	44	4484
2026-01-25 21:31:24.92	93.11	42.66	-36.2	-38.4	19.7	6.01e-01	0	44	0	1413480448	44	4543
2026-01-25 21:31:25.92	93.94	42.72	-36.2	-38.5	19.6	6.04e-01	0	44	0	1428160512	44	4558
2026-01-25 21:31:26.93	94.78	42.77	-36.3	-38.4	19.7	6.05e-01	0	44	0	1444937728	44	4537
2026-01-25 21:31:27.93	95.62	42.81	-36.2	-38.5	19.7	6.01e-01	0	44	0	1459617792	44	4568
2026-01-25 21:31:28.93	96.45	42.84	-36.1	-38.3	19.7	6.01e-01	0	44	0	1476395008	44	4472
2026-01-25 21:31:29.94	97.30	42.87	-36.1	-38.1	19.8	6.02e-01	0	44	0	1491075072	44	4383
2026-01-25 21:31:30.95	98.15	42.89	-36.2	-38.3	19.7	6.02e-01	0	44	0	1505755136	44	4483
2026-01-25 21:31:31.95	98.99	42.90	-36.1	-38.3	19.7	6.03e-01	0	44	0	1522532352	44	4457
2026-01-25 21:31:32.95	99.83	42.91	-36.1	-38.1	19.8	6.04e-01	0	44	0	1537212416	44	4358
2026-01-25 21:31:33.95	100.68	42.91	-36.2	-38.1	19.8	6.05e-01	0	44	0	1551892480	44	4359
2026-01-25 21:31:34.96	101.53	42.91	-36.1	-38.1	19.8	6.06e-01	0	44	0	1568669696	44	4350
2026-01-25 21:31:35.96	102.37	42.89	-36.3	-38.4	19.7	6.05e-01	0	44	0	1583349760	44	4514
2026-01-25 21:31:36.97	103.22	42.88	-36.2	-38.3	19.8	6.05e-01	0	44	0	1598029824	44	4455
2026-01-25 21:31:37.97	104.06	42.85	-36.5	-38.5	19.6	6.04e-01	0	44	0	1614807040	44	4564
2026-01-25 21:31:38.98	104.91	42.82	-36.2	-38.1	19.8	6.04e-01	0	44	0	1629487104	44	4382
2026-01-25 21:31:39.99	105.75	42.78	-36.1	-38.1	19.8	6.06e-01	0	45	0	1644167168	44	4350
2026-01-25 21:31:40.99	106.58	42.73	-36.1	-38.2	19.7	6.06e-01	0	44	0	1660944384	44	4409
2026-01-25 21:31:42.00	107.42	42.68	-36.3	-38.3	19.8	6.04e-01	0	44	0	1675624448	44	4487
2026-01-25 21:31:43.01	108.26	42.62	-36.3	-38.4	19.6	6.02e-01	0	44	0	1690304512	44	4514
2026-01-25 21:31:44.01	109.09	42.56	-36.3	-38.4	19.7	6.02e-01	0	44	0	1707081728	44	4495
2026-01-25 21:31:45.02	109.92	42.49	-36.2	-38.2	19.8	6.06e-01	0	45	0	1721761792	44	4429
2026-01-25 21:31:46.03	110.74	42.41	-36.1	-38.3	19.7	6.05e-01	0	45	0	1738539008	44	4453
2026-01-25 21:31:47.04	111.57	42.33	-36.3	-38.4	19.7	6.06e-01	0	44	0	1753219072	44	4503
2026-01-25 21:31:48.05	112.38	42.24	-36.5	-38.5	19.6	6.05e-01	0	45	0	1769996288	44	4575
2026-01-25 21:31:49.05	113.19	42.15	-36.4	-38.4	19.6	6.05e-01	0	45	0	1784676352	44	4543
2026-01-25 21:31:50.06	114.00	42.05	-36.2	-38.2	19.8	6.03e-01	0	44	0	1799356416	44	4429
2026-01-25 21:31:51.07	114.80	41.94	-36.2	-38.3	19.7	6.06e-01	0	45	0	1816133632	44	4475
2026-01-25 21:31:52.08	115.60	41.83	-36.3	-38.4	19.6	6.06e-01	0	45	0	1830813696	44	4529
2026-01-25 21:31:53.08	116.38	41.71	-36.3	-38.3	19.7	6.04e-01	0	45	0	1845493760	44	4493
2026-01-25 21:31:54.09	117.16	41.59	-36.3	-38.2	19.8	6.06e-01	0	45	0	1862270976	44	4440
2026-01-25 21:31:55.09	117.94	41.46	-36.2	-38.2	19.8	6.06e-01	0	44	0	1876951040	44	4424
2026-01-25 21:31:56.09	118.70	41.33	-36.2	-38.2	19.8	6.06e-01	0	45	0	1891631104	44	4414
2026-01-25 21:31:57.09	119.46	41.19	-36.3	-38.3	19.8	6.07e-01	0	45	0	1906311168	44	4444
2026-01-25 21:31:58.09	120.21	41.05	-36.4	-38.3	19.7	6.08e-01	0	45	0	1923088384	44	4483
2026-01-25 21:31:59.10	120.96	40.91	-36.5	-38.4	19.6	6.06e-01	0	45	0	1937768448	44	4521
2026-01-25 21:32:00.11	121.71	40.75	-36.6	-38.4	19.6	6.05e-01	0	45	0	1952448512	44	4510
2026-01-25 21:32:01.11	122.44	40.60	-36.3	-38.1	19.8	6.06e-01	0	45	0	1969225728	44	4385
2026-01-25 21:32:02.12	123.17	40.44	-36.4	-38.2	19.7	6.06e-01	0	45	0	1983905792	44	4439
2026-01-25 21:32:03.12	123.88	40.28	-36.5	-38.3	19.7	6.03e-01	0	45	0	1998585856	44	4480
2026-01-25 21:32:04.12	124.59	40.11	-36.5	-38.3	19.7	6.07e-01	0	45	0	2015363072	44	4455
2026-01-25 21:32:05.13	125.30	39.94	-36.6	-38.4	19.6	6.06e-01	0	45	0	2032140288	44	4533
2026-01-25 21:32:06.14	126.00	39.76	-36.7	-38.6	19.5	6.04e-01	0	45	0	2046820352	44	4620
2026-01-25 21:32:07.15	126.69	39.58	-36.7	-38.5	19.6	6.06e-01	0	45	0	2061500416	44	4594
2026-01-25 21:32:08.15	127.37	39.40	-36.8	-38.8	19.4	6.05e-01	0	45	0	2078277632	44	4732
2026-01-25 21:32:09.16	128.05	39.22	-37.0	-39.0	19.2	6.06e-01	0	45	0	2092957696	44	4852
2026-01-25 21:32:10.17	128.71	39.03	-37.2	-39.1	19.2	6.06e-01	0	45	0	2107637760	44	4911
2026-01-25 21:32:11.17	129.37	38.84	-37.1	-39.0	19.2	6.06e-01	0	45	0	2124414976	45	4589
2026-01-25 21:32:12.17	130.01	38.65	-37.2	-39.1	19.2	6.05e-01	0	45	0	2139095040	45	4633
2026-01-25 21:32:13.18	130.66	38.45	-37.1	-39.0	19.3	6.06e-01	0	45	0	2153775104	45	4572
2026-01-25 21:32:14.19	131.29	38.25	-37.1	-38.9	19.4	6.07e-01	0	45	0	2170552320	45	4512
2026-01-25 21:32:15.20	131.92	38.05	-37.1	-39.0	19.3	6.06e-01	0	45	0	2185232384	45	4570
2026-01-25 21:32:16.21	132.54	37.85	-37.2	-39.1	19.2	6.06e-01	0	45	0	2199912448	45	4631
2026-01-25 21:32:17.21	133.15	37.64	-37.4	-39.3	19.1	6.05e-01	0	45	0	2216689664	45	4759
2026-01-25 21:32:18.22	133.75	37.44	-37.6	-39.6	19.0	6.05e-01	0	45	0	2231369728	45	4873
2026-01-25 21:32:19.23	134.35	37.23	-37.8	-39.7	18.9	6.06e-01	0	45	0	2248146944	46	4675
2026-01-25 21:32:20.23	134.93	37.02	-37.8	-39.7	18.9	6.06e-01	0	45	0	2262827008	46	4684
2026-01-25 21:32:21.24	135.51	36.81	-37.9	-39.8	18.8	6.05e-01	0	45	0	2279604224	46	4732
2026-01-25 21:32:22.25	136.08	36.59	-37.9	-39.8	18.8	6.05e-01	0	45	0	2294284288	46	4750
2026-01-25 21:32:23.26	136.64	36.38	-37.9	-39.8	18.8	6.07e-01	0	45	0	2308964352	46	4733
2026-01-25 21:32:24.26	137.19	36.16	-38.1	-40.0	18.7	6.05e-01	0	45	0	2325741568	46	4817
2026-01-25 21:32:25.27	137.74	35.94	-38.1	-40.1	18.6	6.06e-01	0	45	0	2340421632	46	4880
2026-01-25 21:32:26.27	138.28	35.73	-38.2	-40.1	18.6	6.05e-01	0	45	0	2355101696	46	4903
2026-01-25 21:32:27.29	138.82	35.50	-38.1	-40.0	18.7	6.05e-01	0	45	0	2371878912	47	4563
2026-01-25 21:32:28.29	139.34	35.29	-38.2	-40.0	18.7	6.06e-01	0	45	0	2386558976	47	4558
2026-01-25 21:32:29.30	139.86	35.06	-38.0	-39.8	18.8	6.06e-01	0	45	0	2401239040	47	4468
2026-01-25 21:32:30.30	140.36	34.84	-38.1	-39.9	18.7	6.04e-01	0	45	0	2418016256	47	4523
2026-01-25 21:32:31.30	140.86	34.62	-38.3	-40.1	18.6	6.03e-01	0	45	0	2432696320	47	4628
2026-01-25 21:32:32.31	141.36	34.40	-38.4	-40.2	18.6	6.04e-01	0	45	0	2447376384	47	4696
2026-01-25 21:32:33.31	141.84	34.18	-38.3	-40.1	18.6	6.05e-01	0	45	0	2464153600	47	4642
2026-01-25 21:32:34.31	142.32	33.96	-38.3	-40.1	18.6	6.04e-01	0	45	0	2478833664	47	4627
2026-01-25 21:32:35.32	142.80	33.74	-38.3	-40.1	18.6	6.01e-01	0	45	0	2493513728	47	4610
2026-01-25 21:32:36.33	143.27	33.51	-38.3	-40.1	18.6	6.04e-01	0	45	0	2510290944	47	4600
2026-01-25 21:32:37.33	143.73	33.29	-38.5	-40.3	18.5	6.00e-01	0	45	0	2527068160	47	4719
2026-01-25 21:32:38.33	144.18	33.07	-38.5	-40.2	18.5	6.01e-01	0	45	0	2541748224	47	4698
2026-01-25 21:32:39.33	144.62	32.85	-38.6	-40.4	18.4	5.98e-01	0	45	0	2556428288	47	4760
2026-01-25 21:32:40.34	145.06	32.62	-38.6	-40.3	18.4	5.98e-01	0	45	0	2573205504	47	4731
2026-01-25 21:32:41.34	145.50	32.40	-39.8	-41.5	18.8	5.96e-01	0	45	0	2587885568	50	4586
2026-01-25 21:32:42.35	145.93	32.18	-39.7	-41.5	18.8	5.98e-01	0	45	0	2602565632	50	4570
2026-01-25 21:32:43.36	146.35	31.96	-39.8	-41.7	18.7	5.99e-01	0	45	0	2619342848	50	4689
2026-01-25 21:32:44.37	146.77	31.73	-39.8	-41.8	18.7	5.99e-01	0	45	0	2634022912	50	4716
2026-01-25 21:32:45.38	147.18	31.51	-39.9	-41.9	18.6	5.98e-01	0	45	0	2648702976	50	4777
2026-01-25 21:32:46.38	147.58	31.29	-39.9	-41.9	18.5	5.95e-01	0	45	0	2665480192	50	4804
2026-01-25 21:32:47.39	147.98	31.07	-39.9	-41.9	18.5	5.97e-01	0	45	0	2680160256	50	4772
2026-01-25 21:32:48.39	148.37	30.85	-40.0	-42.0	18.5	5.99e-01	0	45	0	2694840320	50	4821
2026-01-25 21:32:49.40	148.76	30.63	-40.0	-41.9	18.4	5.97e-01	0	45	0	2711617536	50	4789
2026-01-25 21:32:50.40	149.14	30.42	-40.1	-42.0	18.3	6.05e-01	0	45	0	2726297600	50	4834
2026-01-25 21:32:51.41	149.52	30.20	-40.0	-41.9	18.5	6.03e-01	0	45	0	2740977664	50	4772
2026-01-25 21:32:52.41	149.89	29.98	-40.0	-41.9	18.5	5.99e-01	0	45	0	2757754880	50	4768
2026-01-25 21:32:53.42	150.25	29.77	-39.9	-41.8	18.5	6.04e-01	0	45	0	2772434944	50	4732
2026-01-25 21:32:54.43	150.62	29.55	-39.8	-41.7	18.6	6.01e-01	0	45	0	2789212160	50	4663
2026-01-25 21:32:55.44	150.97	29.33	-39.9	-41.8	18.5	6.03e-01	0	45	0	2803892224	50	4722
2026-01-25 21:32:56.44	151.32	29.12	-39.9	-41.7	18.6	6.04e-01	0	45	0	2820669440	50	4703
2026-01-25 21:32:57.45	151.67	28.91	-39.8	-41.6	18.7	6.05e-01	0	45	0	2835349504	50	4615
2026-01-25 21:32:58.45	152.01	28.70	-39.9	-41.7	18.6	5.98e-01	0	45	0	2850029568	50	4681
2026-01-25 21:32:59.46	152.34	28.49	-39.9	-41.7	18.6	5.99e-01	0	45	0	2866806784	50	4666
2026-01-25 21:33:00.46	152.67	28.28	-39.9	-41.7	18.6	6.03e-01	0	45	0	2881486848	50	4691
2026-01-25 21:33:01.47	153.00	28.07	-39.8	-41.7	18.7	6.02e-01	0	45	0	2896166912	50	4656
2026-01-25 21:33:02.48	153.32	27.86	-39.7	-41.6	18.7	6.03e-01	0	45	0	2910846976	50	4608
2026-01-25 21:33:03.49	153.64	27.65	-39.8	-41.7	18.5	6.03e-01	0	45	0	2927624192	50	4671
2026-01-25 21:33:04.49	153.95	27.45	-39.8	-41.6	18.6	6.00e-01	0	45	0	2942304256	50	4641
2026-01-25 21:33:05.50	154.26	27.24	-39.7	-41.5	18.7	5.98e-01	0	45	0	2956984320	50	4588
2026-01-25 21:33:06.51	154.57	27.04	-39.6	-41.4	18.7	5.97e-01	0	45	0	2973761536	50	4540
2026-01-25 21:33:07.51	154.87	26.83	-39.6	-41.5	18.7	5.98e-01	0	45	0	2988441600	50	4583
2026-01-25 21:33:08.52	155.16	26.63	-39.7	-41.6	18.6	5.96e-01	0	45	0	3003121664	50	4647
2026-01-25 21:33:09.52	155.45	26.43	-39.6	-41.6	18.7	5.96e-01	0	45	0	3019898880	50	4599
2026-01-25 21:33:10.52	155.74	26.23	-39.7	-41.7	18.6	5.99e-01	0	45	0	3034578944	50	4660
2026-01-25 21:33:11.53	156.02	26.03	-39.7	-41.8	18.6	5.95e-01	0	45	0	3051356160	50	4718
2026-01-25 21:33:12.53	156.30	25.84	-39.6	-41.6	18.6	5.95e-01	0	45	0	3066036224	50	4632
2026-01-25 21:33:13.54	156.58	25.64	-39.6	-41.6	18.6	5.95e-01	0	45	0	3082813440	50	4608
2026-01-25 21:33:14.54	156.85	25.45	-39.5	-41.5	18.7	5.97e-01	0	45	0	3097493504	50	4582
2026-01-25 21:33:15.55	157.12	25.25	-39.6	-41.5	18.7	5.98e-01	0	45	0	3112173568	50	4586
2026-01-25 21:33:16.56	157.39	25.06	-39.4	-41.4	18.8	5.98e-01	0	45	0	3128950784	50	4500
2026-01-25 21:33:17.56	157.65	24.87	-39.4	-41.3	18.8	5.98e-01	0	45	0	3143630848	50	4465
2026-01-25 21:33:18.57	157.91	24.68	-39.5	-41.4	18.7	5.95e-01	0	45	0	3158310912	50	4502
2026-01-25 21:33:19.58	158.17	24.49	-39.4	-41.3	18.8	5.96e-01	0	45	0	3175088128	50	4442
2026-01-25 21:33:20.59	158.42	24.30	-39.4	-41.3	18.8	5.99e-01	0	45	0	3189768192	50	4477
2026-01-25 21:33:21.60	158.67	24.11	-39.5	-41.4	18.7	6.00e-01	0	45	0	3204448256	50	4520
2026-01-25 21:33:22.60	158.91	23.92	-39.4	-41.3	18.8	5.98e-01	0	45	0	3221225472	50	4474
2026-01-25 21:33:23.61	159.16	23.74	-39.5	-41.4	18.7	5.96e-01	0	45	0	3235905536	50	4538
2026-01-25 21:33:24.62	159.40	23.55	-39.6	-41.5	18.7	6.00e-01	0	45	0	3250585600	50	4562
2026-01-25 21:33:25.62	159.63	23.37	-39.5	-41.4	18.7	5.99e-01	0	45	0	3267362816	50	4529
2026-01-25 21:33:26.63	159.87	23.19	-39.7	-41.6	18.7	5.96e-01	0	45	0	3284140032	50	4603
2026-01-25 21:33:27.64	160.10	23.01	-39.6	-41.5	18.7	5.97e-01	0	45	0	3298820096	50	4553
2026-01-25 21:33:28.65	160.32	22.83	-39.7	-41.5	18.6	5.95e-01	0	45	0	3313500160	50	4594
2026-01-25 21:33:29.65	160.55	22.65	-39.7	-41.6	18.6	5.98e-01	0	45	0	3330277376	50	4612
2026-01-25 21:33:30.66	160.77	22.47	-39.5	-41.4	18.7	5.98e-01	0	45	0	3344957440	50	4501
2026-01-25 21:33:31.67	160.99	22.30	-39.6	-41.5	18.6	5.97e-01	0	45	0	3359637504	50	4559
2026-01-25 21:33:32.68	161.21	22.12	-39.7	-41.5	18.5	5.90e-01	0	45	0	3376414720	50	4595
2026-01-25 21:33:33.68	161.42	21.95	-39.6	-41.5	18.6	5.98e-01	0	45	0	3391094784	50	4579
2026-01-25 21:33:34.69	161.63	21.78	-39.7	-41.6	18.5	5.98e-01	0	45	0	3405774848	50	4641
2026-01-25 21:33:35.69	161.84	21.61	-39.7	-41.6	18.5	6.00e-01	0	45	0	3422552064	50	4635
2026-01-25 21:33:36.70	162.05	21.44	-39.7	-41.6	18.6	5.97e-01	0	45	0	3437232128	50	4646
2026-01-25 21:33:37.70	162.25	21.27	-39.7	-41.6	18.5	5.98e-01	0	45	0	3451912192	50	4630
2026-01-25 21:33:38.70	162.45	21.10	-39.7	-41.7	18.6	5.97e-01	0	45	0	3468689408	50	4658
2026-01-25 21:33:39.71	162.65	20.93	-39.7	-41.6	18.5	5.99e-01	0	45	0	3483369472	50	4623
2026-01-25 21:33:40.71	162.84	20.77	-39.6	-41.5	18.6	5.98e-01	0	45	0	3498049536	50	4593
2026-01-25 21:33:41.72	163.04	20.60	-39.6	-41.5	18.6	5.97e-01	0	45	0	3514826752	50	4597
2026-01-25 21:33:42.73	163.23	20.44	-39.6	-41.5	18.6	5.99e-01	0	45	0	3531603968	50	4591
2026-01-25 21:33:43.73	163.42	20.28	-39.8	-41.7	18.5	5.96e-01	0	45	0	3546284032	50	4693
2026-01-25 21:33:44.74	163.60	20.11	-39.8	-41.7	18.4	5.97e-01	0	45	0	3560964096	50	4704
2026-01-25 21:33:45.74	163.79	19.95	-39.8	-41.7	18.5	5.98e-01	0	45	0	3577741312	50	4695
2026-01-25 21:33:46.75	163.97	19.79	-39.9	-41.8	18.3	5.97e-01	0	45	0	3592421376	50	4743
2026-01-25 21:33:47.75	164.15	19.64	-40.1	-42.0	18.2	5.97e-01	0	45	0	3607101440	50	4858
2026-01-25 21:33:48.76	164.33	19.48	-39.9	-41.8	18.3	6.00e-01	0	45	0	3623878656	50	4745
2026-01-25 21:33:49.76	164.51	19.32	-39.9	-41.8	18.4	5.98e-01	0	45	0	3638558720	50	4726
2026-01-25 21:33:50.77	164.68	19.17	-40.1	-42.0	18.3	6.02e-01	0	45	0	3653238784	50	4816
2026-01-25 21:33:51.77	164.85	19.01	-40.1	-41.9	18.2	5.99e-01	0	45	0	3670016000	50	4809
2026-01-25 21:33:52.77	165.02	18.86	-40.0	-41.9	18.2	5.98e-01	0	45	0	3684696064	50	4786
2026-01-25 21:33:53.78	165.19	18.71	-40.1	-42.0	18.2	5.99e-01	0	45	0	3699376128	50	4844
2026-01-25 21:33:54.79	165.36	18.56	-40.1	-42.1	18.2	5.99e-01	0	45	0	3716153344	50	4877
2026-01-25 21:33:55.80	165.52	18.40	-40.2	-42.1	18.1	5.98e-01	0	45	0	3730833408	50	4925
2026-01-25 21:33:56.81	165.69	18.25	-40.3	-42.2	18.1	6.01e-01	0	45	0	3745513472	51	4701
2026-01-25 21:33:57.81	165.85	18.11	-40.3	-42.3	18.0	6.04e-01	0	45	0	3760193536	51	4728
2026-01-25 21:33:58.82	166.01	17.96	-40.3	-42.3	18.0	5.97e-01	0	45	0	3776970752	51	4736
2026-01-25 21:33:59.82	166.17	17.81	-40.4	-42.4	17.9	5.98e-01	0	45	0	3791650816	51	4814
2026-01-25 21:34:00.83	166.32	17.67	-40.5	-42.6	17.8	5.98e-01	0	45	0	3808428032	51	4883
2026-01-25 21:34:01.84	166.48	17.52	-40.6	-42.7	17.8	5.97e-01	0	45	0	3825205248	51	4942
2026-01-25 21:34:02.85	166.63	17.38	-40.5	-42.6	17.8	6.02e-01	0	45	0	3839885312	51	4917
2026-01-25 21:34:03.85	166.78	17.23	-40.6	-42.7	17.7	6.03e-01	0	45	0	3854565376	51	4959
2026-01-25 21:34:04.86	166.93	17.09	-40.7	-42.8	17.7	6.00e-01	0	45	0	3871342592	51	5002
2026-01-25 21:34:05.86	167.08	16.95	-40.7	-42.8	17.6	6.00e-01	0	45	0	3886022656	51	5008
2026-01-25 21:34:06.87	167.23	16.81	-40.7	-42.8	17.5	5.98e-01	0	45	0	3900702720	52	4755
2026-01-25 21:34:07.88	167.37	16.67	-40.7	-42.8	17.5	5.99e-01	0	45	0	3915382784	52	4759
2026-01-25 21:34:08.89	167.51	16.53	-40.8	-42.9	17.5	6.00e-01	0	45	0	3932160000	52	4778
2026-01-25 21:34:09.90	167.66	16.39	-40.8	-42.9	17.5	5.97e-01	0	45	0	3946840064	52	4800
2026-01-25 21:34:10.90	167.80	16.26	-40.9	-43.0	17.5	5.97e-01	0	45	0	3961520128	52	4816
2026-01-25 21:34:11.91	167.94	16.12	-40.9	-43.0	17.4	6.00e-01	0	45	0	3978297344	52	4837
2026-01-25 21:34:12.92	168.07	15.98	-40.9	-42.9	17.4	6.01e-01	0	45	0	3992977408	52	4795
2026-01-25 21:34:13.93	168.21	15.85	-41.0	-43.0	17.3	6.02e-01	0	45	0	4009754624	52	4870
2026-01-25 21:34:14.93	168.34	15.72	-40.9	-43.0	17.5	6.02e-01	0	45	0	4024434688	52	4842
2026-01-25 21:34:15.94	168.48	15.58	-41.1	-43.1	17.3	6.04e-01	0	45	0	4041211904	52	4906
2026-01-25 21:34:16.95	168.61	15.45	-41.1	-43.2	17.3	6.04e-01	0	45	0	4055891968	52	4944
2026-01-25 21:34:17.96	168.74	15.32	-41.1	-43.2	17.2	6.02e-01	0	45	0	4070572032	52	4943
2026-01-25 21:34:18.97	168.87	15.19	-41.3	-43.3	17.2	5.99e-01	0	45	0	4087349248	53	4755
2026-01-25 21:34:19.97	169.00	15.06	-41.2	-43.3	17.2	6.01e-01	0	45	0	4102029312	53	4724
2026-01-25 21:34:20.98	169.13	14.93	-41.3	-43.4	17.2	6.02e-01	0	45	0	4116709376	53	4777
2026-01-25 21:34:21.99	169.25	14.80	-41.4	-43.5	17.0	6.00e-01	0	45	0	4133486592	53	4825
2026-01-25 21:34:22.99	169.38	14.68	-41.5	-43.6	16.9	6.04e-01	0	45	0	4148166656	53	4890
2026-01-25 21:34:24.00	169.50	14.55	-41.5	-43.6	16.9	6.04e-01	0	45	0	4162846720	53	4909
2026-01-25 21:34:25.01	169.62	14.42	-41.5	-43.6	16.9	6.04e-01	0	45	0	4179623936	53	4914
2026-01-25 21:34:26.01	169.74	14.30	-41.5	-43.7	16.8	6.05e-01	0	45	0	4194304000	53	4950
2026-01-25 21:34:27.02	169.86	14.18	-41.6	-43.7	16.9	6.02e-01	0	45	0	4208984064	53	4973
2026-01-25 21:34:28.03	169.98	14.05	-41.7	-43.9	16.7	6.06e-01	0	45	0	4225761280	54	4782
2026-01-25 21:34:29.03	170.10	13.93	-41.8	-44.0	16.6	6.05e-01	0	45	0	4242538496	54	4829
2026-01-25 21:34:30.04	170.21	13.81	-41.8	-44.0	16.6	6.03e-01	0	45	0	4257218560	54	4819
2026-01-25 21:34:31.05	170.33	13.69	-41.8	-44.0	16.6	6.03e-01	0	45	0	4271898624	54	4861
2026-01-25 21:34:32.06	170.44	13.56	-41.9	-44.2	16.5	6.06e-01	0	45	0	4288675840	54	4930
2026-01-25 21:34:33.07	170.56	13.44	-42.1	-44.3	16.3	6.05e-01	0	45	0	4303355904	54	5033
2026-01-25 21:34:34.07	170.67	13.33	-42.1	-44.4	16.3	6.03e-01	0	45	0	4318035968	54	5042
2026-01-25 21:34:35.08	170.78	13.21	-41.9	-44.2	16.5	6.04e-01	0	45	0	4334813184	54	4939
2026-01-25 21:34:36.08	170.89	13.09	-42.1	-44.3	16.3	5.96e-01	0	45	0	4349493248	54	5016
2026-01-25 21:34:37.09	171.00	12.97	-42.0	-44.2	16.4	5.98e-01	0	45	0	4364173312	54	4979
2026-01-25 21:34:38.10	171.11	12.86	-42.0	-44.3	16.4	6.04e-01	0	45	0	4380950528	54	4986
2026-01-25 21:34:39.11	171.21	12.74	-42.1	-44.4	16.3	6.04e-01	0	45	0	4395630592	54	5053
2026-01-25 21:34:40.12	171.32	12.62	-42.1	-44.3	16.3	6.01e-01	0	45	0	4410310656	54	5038
2026-01-25 21:34:41.13	171.43	12.51	-42.1	-44.3	16.3	6.04e-01	0	45	0	4427087872	54	5016
2026-01-25 21:34:42.13	171.53	12.40	-42.2	-44.4	16.3	6.00e-01	0	45	0	4443865088	55	4779
2026-01-25 21:34:43.14	171.63	12.28	-42.3	-44.5	16.2	6.06e-01	0	45	0	4458545152	55	4817
2026-01-25 21:34:44.14	171.73	12.17	-42.3	-44.5	16.2	6.06e-01	0	45	0	4473225216	55	4827
2026-01-25 21:34:45.14	171.83	12.06	-42.2	-44.3	16.3	6.06e-01	0	45	0	4490002432	55	4759
2026-01-25 21:34:46.15	171.94	11.95	-42.4	-44.6	16.1	6.03e-01	0	45	0	4504682496	55	4885
2026-01-25 21:34:47.16	172.04	11.84	-42.4	-44.5	16.1	6.02e-01	0	45	0	4519362560	55	4859
2026-01-25 21:34:48.17	172.13	11.72	-42.5	-44.6	16.0	6.06e-01	0	45	0	4536139776	55	4914
2026-01-25 21:34:49.18	172.23	11.61	-42.5	-44.6	16.0	6.02e-01	0	45	0	4550819840	55	4910
2026-01-25 21:34:50.19	172.33	11.51	-42.5	-44.7	16.0	6.04e-01	0	45	0	4565499904	55	4948
2026-01-25 21:34:51.19	172.43	11.40	-42.5	-44.7	16.0	6.02e-01	0	46	0	4582277120	55	4941
2026-01-25 21:34:52.20	172.52	11.29	-42.5	-44.7	16.0	6.01e-01	0	45	0	4596957184	55	4952
2026-01-25 21:34:53.21	172.62	11.18	-42.6	-44.7	16.0	6.03e-01	0	45	0	4611637248	55	4952
2026-01-25 21:34:54.21	172.71	11.08	-42.6	-44.7	15.8	6.05e-01	0	45	0	4628414464	56	4674
2026-01-25 21:34:55.22	172.80	10.97	-42.5	-44.6	15.9	6.02e-01	0	45	0	4643094528	56	4624
2026-01-25 21:34:56.23	172.89	10.86	-42.6	-44.7	15.8	6.04e-01	0	45	0	4659871744	56	4673
2026-01-25 21:34:57.24	172.99	10.76	-42.6	-44.7	15.8	6.02e-01	0	45	0	4674551808	56	4688
2026-01-25 21:34:58.25	173.08	10.65	-42.7	-44.8	15.7	6.06e-01	0	45	0	4691329024	56	4748
2026-01-25 21:34:59.25	173.17	10.55	-42.8	-44.9	15.6	6.01e-01	0	45	0	4706009088	56	4792
2026-01-25 21:35:00.26	173.26	10.45	-42.8	-45.0	15.6	6.04e-01	0	45	0	4720689152	56	4821
2026-01-25 21:35:01.27	173.34	10.34	-43.0	-45.1	15.4	6.04e-01	0	45	0	4737466368	56	4893
2026-01-25 21:35:02.28	173.43	10.24	-42.9	-45.0	15.5	6.05e-01	0	45	0	4752146432	56	4855
2026-01-25 21:35:03.28	173.52	10.14	-43.0	-45.1	15.4	6.05e-01	0	45	0	4766826496	56	4910
2026-01-25 21:35:04.29	173.60	10.04	-43.1	-45.3	15.3	6.03e-01	0	45	0	4783603712	56	4991
2026-01-25 21:35:05.30	173.69	9.94	-43.2	-45.4	15.2	6.04e-01	0	45	0	4798283776	57	4780
2026-01-25 21:35:06.31	173.78	9.83	-43.1	-45.2	15.3	6.06e-01	0	45	0	4812963840	57	4676
2026-01-25 21:35:07.32	173.86	9.73	-43.2	-45.4	15.2	6.07e-01	0	45	0	4829741056	57	4776
2026-01-25 21:35:08.32	173.94	9.64	-43.2	-45.3	15.2	6.07e-01	0	45	0	4844421120	57	4751
2026-01-25 21:35:09.33	174.03	9.54	-43.4	-45.6	15.0	6.05e-01	0	45	0	4861198336	57	4882
2026-01-25 21:35:10.33	174.11	9.44	-43.4	-45.6	15.0	6.02e-01	0	45	0	4875878400	57	4872
2026-01-25 21:35:11.34	174.19	9.34	-43.4	-45.6	15.0	6.03e-01	0	45	0	4892655616	57	4884
2026-01-25 21:35:12.34	174.27	9.24	-43.4	-45.6	15.0	6.04e-01	0	45	0	4907335680	57	4879
2026-01-25 21:35:13.35	174.35	9.15	-43.5	-45.7	14.8	6.07e-01	0	45	0	4922015744	57	4957
2026-01-25 21:35:14.36	174.43	9.05	-43.3	-45.4	15.1	6.07e-01	0	45	0	4938792960	57	4811
2026-01-25 21:35:15.37	174.51	8.95	-43.6	-45.7	14.8	6.08e-01	0	45	0	4953473024	57	4975
2026-01-25 21:35:16.37	174.59	8.86	-43.7	-45.9	14.7	6.07e-01	0	45	0	4968153088	57	5092
2026-01-25 21:35:17.38	174.67	8.76	-43.7	-46.0	14.6	6.06e-01	0	45	0	4982833152	58	4826
2026-01-25 21:35:18.39	174.74	8.67	-43.6	-45.8	14.7	6.07e-01	0	45	0	4999610368	58	4744
2026-01-25 21:35:19.39	174.82	8.57	-43.7	-45.9	14.7	6.07e-01	0	45	0	5014290432	58	4770
2026-01-25 21:35:20.40	174.89	8.48	-43.7	-45.9	14.6	6.06e-01	0	45	0	5028970496	58	4805
2026-01-25 21:35:21.41	174.97	8.39	-43.8	-46.0	14.6	6.07e-01	0	45	0	5045747712	58	4842
2026-01-25 21:35:22.41	175.05	8.29	-43.9	-46.2	14.4	6.07e-01	0	45	0	5060427776	58	4944
2026-01-25 21:35:23.42	175.12	8.20	-43.9	-46.2	14.4	6.07e-01	0	45	0	5075107840	58	4939
2026-01-25 21:35:24.43	175.19	8.11	-43.9	-46.2	14.4	6.07e-01	0	45	0	5091885056	58	4953
2026-01-25 21:35:25.43	175.27	8.02	-43.8	-46.0	14.5	6.04e-01	0	45	0	5108662272	58	4862
2026-01-25 21:35:26.44	175.34	7.93	-44.0	-46.2	14.3	6.06e-01	0	45	0	5123342336	58	4961
2026-01-25 21:35:27.45	175.41	7.84	-44.0	-46.3	14.3	6.03e-01	0	45	0	5138022400	58	5019
2026-01-25 21:35:28.45	175.48	7.75	-44.3	-46.6	14.0	6.07e-01	0	45	0	5154799616	59	4924
2026-01-25 21:35:29.46	175.55	7.65	-44.0	-46.3	14.2	6.00e-01	0	45	0	5169479680	59	4754
2026-01-25 21:35:30.47	175.62	7.56	-44.1	-46.4	14.1	6.04e-01	0	45	0	5184159744	59	4812
2026-01-25 21:35:31.47	175.69	7.48	-44.1	-46.4	14.1	6.04e-01	0	45	0	5200936960	59	4808
2026-01-25 21:35:32.49	175.76	7.39	-44.1	-46.4	14.2	6.03e-01	0	45	0	5215617024	59	4773
2026-01-25 21:35:33.50	175.83	7.30	-44.2	-46.5	14.0	6.00e-01	0	45	0	5230297088	59	4865
2026-01-25 21:35:34.50	175.90	7.21	-44.1	-46.5	14.1	6.02e-01	0	45	0	5247074304	59	4817
2026-01-25 21:35:35.51	175.97	7.12	-44.2	-46.6	14.0	6.06e-01	0	45	0	5261754368	59	4885
2026-01-25 21:35:36.52	176.04	7.03	-44.3	-46.6	13.9	6.05e-01	0	45	0	5276434432	59	4922
2026-01-25 21:35:37.53	176.11	6.95	-44.3	-46.7	13.8	6.03e-01	0	45	0	5293211648	59	4940
2026-01-25 21:35:38.53	176.17	6.86	-44.5	-46.9	13.7	6.03e-01	0	45	0	5309988864	59	5051
2026-01-25 21:35:39.54	176.24	6.77	-44.5	-46.9	13.6	6.05e-01	0	45	0	5324668928	59	5074
2026-01-25 21:35:40.55	176.30	6.69	-44.6	-47.0	13.5	6.02e-01	0	45	0	5339348992	59	5124
2026-01-25 21:35:41.56	176.37	6.60	-44.6	-47.0	13.5	6.06e-01	0	45	0	5356126208	59	5132
2026-01-25 21:35:42.57	176.43	6.52	-44.7	-47.1	13.5	6.03e-01	0	45	0	5370806272	59	5167
2026-01-25 21:35:43.57	176.50	6.43	-44.5	-46.9	13.6	6.07e-01	0	45	0	5385486336	59	5051
2026-01-25 21:35:44.58	176.56	6.35	-44.7	-47.1	13.4	6.03e-01	0	45	0	5402263552	59	5188
2026-01-25 21:35:45.59	176.63	6.26	-44.4	-46.8	13.7	6.02e-01	0	45	0	5416943616	60	4727
2026-01-25 21:35:46.60	176.69	6.18	-44.6	-47.0	13.5	6.01e-01	0	45	0	5431623680	60	4847
2026-01-25 21:35:47.60	176.75	6.10	-44.4	-46.8	13.6	6.02e-01	0	45	0	5448400896	60	4737
2026-01-25 21:35:48.61	176.81	6.01	-44.7	-47.1	13.3	6.04e-01	0	46	0	5463080960	60	4925
2026-01-25 21:35:49.62	176.88	5.93	-44.6	-47.0	13.4	6.02e-01	0	45	0	5477761024	60	4870
2026-01-25 21:35:50.63	176.94	5.85	-44.7	-47.1	13.3	6.03e-01	0	46	0	5494538240	60	4912
2026-01-25 21:35:51.64	177.00	5.77	-44.8	-47.2	13.2	6.02e-01	0	45	0	5511315456	60	4958
2026-01-25 21:35:52.65	177.06	5.68	-45.1	-47.6	12.9	6.04e-01	0	45	0	5525995520	60	5168
2026-01-25 21:35:53.66	177.12	5.60	-45.1	-47.6	12.8	6.05e-01	0	45	0	5540675584	60	5207
2026-01-25 21:35:54.67	177.18	5.52	-45.2	-47.8	12.6	6.03e-01	0	45	0	5557452800	61	4997
2026-01-25 21:35:55.67	177.24	5.44	-45.3	-47.8	12.6	6.04e-01	0	45	0	5572132864	61	5014
2026-01-25 21:35:56.68	177.30	5.36	-44.8	-47.3	13.1	6.07e-01	0	45	0	5586812928	61	4709
2026-01-25 21:35:57.68	177.36	5.28	-45.1	-47.7	12.8	6.05e-01	0	45	0	5603590144	61	4935
2026-01-25 21:35:58.69	177.41	5.20	-45.0	-47.5	12.9	6.05e-01	0	45	0	5618270208	61	4835
2026-01-25 21:35:59.70	177.47	5.12	-44.9	-47.5	12.9	6.03e-01	0	45	0	5632950272	61	4822
2026-01-25 21:36:00.70	177.53	5.04	-45.1	-47.6	12.7	6.06e-01	0	45	0	5649727488	61	4923
2026-01-25 21:36:01.71	177.59	4.96	-52.4	-59.8	3.9	7.41e-01	0	45	0	5664407552	75	8929
2026-01-25 21:36:02.72	177.64	4.88	-53.5	-62.3	3.8	7.47e-01	0	45	104	5664407552	77	10627
2026-01-25 21:36:03.73	177.70	4.80	-53.8	-62.6	3.8	7.43e-01	0	46	104	5664407552	78	10405
2026-01-25 21:36:04.74	177.76	4.73	-54.0	-62.8	3.8	7.47e-01	0	45	104	5664407552	78	10610
2026-01-25 21:36:05.75	177.81	4.65	-54.1	-63.0	3.8	7.45e-01	0	45	104	5664407552	78	10795
2026-01-25 21:36:06.75	177.87	4.57	-54.2	-63.0	3.8	7.46e-01	0	45	104	5664407552	78	10880
2026-01-25 21:36:07.76	177.92	4.49	-54.3	-63.2	3.8	7.44e-01	0	45	104	5664407552	79	10434
2026-01-25 21:36:08.76	177.98	4.42	-54.4	-63.2	3.8	7.46e-01	0	45	104	5664407552	79	10525
2026-01-25 21:36:09.77	178.03	4.34	-54.5	-63.3	3.8	7.46e-01	0	45	104	5664407552	79	10639
2026-01-25 21:36:10.78	178.08	4.26	-54.6	-63.4	3.8	7.44e-01	0	45	104	5664407552	79	10756
2026-01-25 21:36:11.79	178.14	4.19	-54.7	-63.5	3.8	7.45e-01	0	45	104	5664407552	79	10857
2026-01-25 21:36:12.80	178.19	4.11	-54.7	-63.5	3.8	7.46e-01	0	45	104	5664407552	80	10243
2026-01-25 21:36:13.80	178.24	4.04	-54.7	-63.6	3.8	7.45e-01	0	45	104	5664407552	80	10327
2026-01-25 21:36:14.81	178.30	3.96	-54.8	-63.6	3.8	7.44e-01	0	45	104	5664407552	80	10389
2026-01-25 21:36:15.81	178.35	3.89	-54.8	-63.7	3.8	7.45e-01	0	45	104	5664407552	80	10439
2026-01-25 21:36:16.82	178.40	3.81	-54.9	-63.7	3.8	7.46e-01	0	45	104	5664407552	80	10482
2026-01-25 21:36:17.83	178.45	3.74	-54.9	-63.7	3.8	7.45e-01	0	45	104	5664407552	80	10452
2026-01-25 21:36:18.83	178.50	3.66	-54.9	-63.8	3.8	7.44e-01	0	45	104	5664407552	80	10538
2026-01-25 21:36:19.84	178.55	3.59	-54.9	-63.7	3.8	7.45e-01	0	45	104	5664407552	80	10531
2026-01-25 21:36:20.85	178.61	3.51	-54.9	-63.8	3.8	7.45e-01	0	45	104	5664407552	80	10537
2026-01-25 21:36:21.86	178.66	3.44	-54.9	-63.8	3.8	7.45e-01	0	45	104	5664407552	80	10551
2026-01-25 21:36:22.86	178.71	3.37	-54.9	-63.7	3.8	7.46e-01	0	46	104	5664407552	80	10525
2026-01-25 21:36:23.87	178.76	3.29	-54.9	-63.7	3.8	7.45e-01	0	45	104	5664407552	80	10481
2026-01-25 21:36:24.88	178.81	3.22	-54.9	-63.7	3.8	7.44e-01	0	45	104	5664407552	80	10525
2026-01-25 21:36:25.88	178.85	3.15	-54.9	-63.7	3.8	7.44e-01	0	45	104	5664407552	80	10486
2026-01-25 21:36:26.89	178.90	3.08	-54.9	-63.7	3.8	7.46e-01	0	46	104	5664407552	80	10454
2026-01-25 21:36:27.89	178.95	3.01	-54.8	-63.7	3.8	7.46e-01	0	45	104	5664407552	80	10459
2026-01-25 21:36:28.90	179.00	2.93	-54.8	-63.6	3.8	7.45e-01	0	45	104	5664407552	80	10349
2026-01-25 21:36:29.90	179.05	2.86	-54.7	-63.6	3.8	7.47e-01	0	45	104	5664407552	80	10300
2026-01-25 21:36:30.91	179.10	2.79	-54.7	-63.5	3.8	7.44e-01	0	45	104	5664407552	80	10252
2026-01-25 21:36:31.92	179.14	2.72	-54.6	-63.4	3.8	7.44e-01	0	45	104	5664407552	80	10165
2026-01-25 21:36:32.93	179.19	2.65	-54.5	-63.4	3.8	7.44e-01	0	45	104	5664407552	80	10090
2026-01-25 21:36:33.94	179.24	2.58	-54.5	-63.3	3.8	7.46e-01	0	46	104	5664407552	80	10010
2026-01-25 21:36:34.94	179.29	2.51	-54.4	-63.3	3.8	7.45e-01	0	45	104	5664407552	80	9949
2026-01-25 21:36:35.94	179.33	2.44	-54.3	-63.1	3.8	7.45e-01	0	45	104	5664407552	80	9827
2026-01-25 21:36:36.94	179.38	2.37	-54.2	-63.0	3.8	7.46e-01	0	45	104	5664407552	80	9701
2026-01-25 21:36:37.94	179.42	2.30	-54.0	-62.9	3.8	7.44e-01	0	45	104	5664407552	80	9504
2026-01-25 21:36:38.95	179.47	2.23	-54.0	-62.9	3.8	7.45e-01	0	45	104	5664407552	79	10071
2026-01-25 21:36:39.96	179.51	2.16	-54.0	-62.8	3.8	7.45e-01	0	45	104	5664407552	79	10008
2026-01-25 21:36:40.96	179.56	2.09	-54.0	-62.8	3.8	7.46e-01	0	45	104	5664407552	79	10014
2026-01-25 21:36:41.97	179.60	2.02	-54.0	-62.8	3.8	7.45e-01	0	45	104	5664407552	79	10016
2026-01-25 21:36:42.97	179.65	1.95	-54.0	-62.8	3.8	7.45e-01	0	45	104	5664407552	79	9981
2026-01-25 21:36:43.98	179.69	1.88	-54.0	-62.8	3.8	7.47e-01	0	45	104	5664407552	79	10011

#Closed at: 2026-01-25 21:36:44
#Recorded file [5664 MB]: D:/lorett/data/31041_260126_002621.dat