passes_logs/2026/01/25/R3.2S_Murmansk/R3.2S_Murmansk__20260125_032446_NOAA_20_JPSS-1_rec.log

#Pass ID: 20260125_032446_NOAA 20 (JPSS-1)
#Satellite: NOAA 20 (JPSS-1)
#Configuration: NOAA 20
#almurnet v.1.7.20251203
#Start time: 2026-01-25 03:24:48

#Version: 2.2.20231116
#Station: R3.2S_Murmansk
#Location: 33.079688 lon 68.888172 lat
#TLE: 1 43013U 17073A   26024.42258823  .00000183  00000+0  10747-3 0  9990
#TLE: 2 43013  98.7646 325.2629 0001105  25.8644 334.2587 14.19539754424075

#Time	Az	El	Level	Level2	SNR	BER	BlckErr	Temp	State	Recorded	gain1	gain2
2026-01-25 03:24:48.05	41.12	2.07	-52.1	-67.0	3.8	1.49e+00	0	44	0	0	76	19355
2026-01-25 03:24:49.05	41.07	2.13	-52.1	-67.0	3.8	1.49e+00	0	44	104	0	74	21705
2026-01-25 03:24:50.06	41.02	2.19	-52.1	-67.0	3.8	1.49e+00	0	44	104	0	74	21648
2026-01-25 03:24:51.07	40.96	2.25	-52.1	-67.0	3.8	1.49e+00	0	44	104	0	74	21616
2026-01-25 03:24:52.08	40.91	2.31	-52.1	-67.0	3.8	1.49e+00	0	44	104	0	74	21574
2026-01-25 03:24:53.09	40.85	2.37	-52.1	-67.0	3.8	1.49e+00	0	44	104	0	74	21552
2026-01-25 03:24:54.10	40.80	2.43	-52.1	-67.0	3.8	1.49e+00	0	44	104	0	74	21667
2026-01-25 03:24:55.11	40.75	2.49	-52.1	-67.0	3.8	1.49e+00	0	44	104	0	74	21641
2026-01-25 03:24:56.11	40.69	2.55	-52.1	-67.0	3.8	1.49e+00	0	44	104	0	74	21642
2026-01-25 03:24:57.12	40.64	2.61	-52.1	-67.0	3.8	1.49e+00	0	45	104	0	74	21643
2026-01-25 03:24:58.13	40.58	2.67	-52.1	-67.0	3.8	1.49e+00	0	45	104	0	74	21580
2026-01-25 03:24:59.14	40.52	2.73	-52.1	-67.0	3.8	1.49e+00	0	45	104	0	74	21571
2026-01-25 03:25:00.15	40.47	2.79	-52.1	-66.9	3.8	1.49e+00	0	45	104	0	74	21468
2026-01-25 03:25:01.15	40.41	2.85	-52.1	-66.9	3.8	1.49e+00	0	45	104	0	74	21373
2026-01-25 03:25:02.16	40.36	2.91	-52.1	-66.9	3.8	1.49e+00	0	45	104	0	74	21377
2026-01-25 03:25:03.17	40.30	2.98	-52.1	-66.9	3.8	1.49e+00	0	45	104	0	74	21391
2026-01-25 03:25:04.18	40.24	3.04	-52.1	-67.0	3.8	1.49e+00	0	45	104	0	74	21553
2026-01-25 03:25:05.19	40.19	3.10	-52.1	-67.0	3.8	1.49e+00	0	45	104	0	74	21623
2026-01-25 03:25:06.20	40.13	3.16	-52.0	-67.0	3.8	1.49e+00	0	45	104	0	74	21593
2026-01-25 03:25:07.21	40.07	3.22	-52.0	-67.0	3.8	1.49e+00	0	45	104	0	74	21544
2026-01-25 03:25:08.22	40.01	3.28	-52.0	-66.9	3.8	1.49e+00	0	45	104	0	74	21376
2026-01-25 03:25:09.23	39.95	3.35	-52.0	-66.8	3.8	1.49e+00	0	45	104	0	74	21177
2026-01-25 03:25:10.23	39.90	3.41	-52.0	-66.7	3.8	1.49e+00	0	45	104	0	74	20974
2026-01-25 03:25:11.24	39.84	3.47	-52.0	-66.8	3.8	1.49e+00	0	45	104	0	74	21226
2026-01-25 03:25:12.25	39.78	3.53	-52.1	-66.9	3.8	1.49e+00	0	45	104	0	74	21432
2026-01-25 03:25:13.26	39.72	3.59	-52.1	-67.0	3.8	1.49e+00	0	45	104	0	74	21626
2026-01-25 03:25:14.27	39.66	3.66	-52.0	-66.9	3.8	1.49e+00	0	45	104	0	74	21431
2026-01-25 03:25:15.27	39.60	3.72	-52.0	-66.7	3.8	1.49e+00	0	45	104	0	74	20943
2026-01-25 03:25:16.28	39.54	3.78	-52.0	-66.4	3.8	1.49e+00	0	45	104	0	74	20074
2026-01-25 03:25:17.29	39.48	3.84	-52.0	-65.8	3.8	1.49e+00	0	46	104	0	74	18741
2026-01-25 03:25:18.30	39.42	3.91	-51.9	-64.8	3.9	1.49e+00	0	45	104	0	74	16832
2026-01-25 03:25:19.31	39.36	3.97	-51.9	-64.7	3.8	1.48e+00	0	45	104	0	74	16671
2026-01-25 03:25:20.31	39.30	4.03	-51.9	-64.4	3.8	1.47e+00	0	45	104	0	74	15967
2026-01-25 03:25:21.32	39.24	4.09	-51.9	-64.1	4.0	1.47e+00	0	46	104	0	74	15456
2026-01-25 03:25:22.33	39.18	4.16	-51.9	-64.2	3.9	1.45e+00	0	46	104	0	74	15589
2026-01-25 03:25:23.34	39.11	4.22	-51.9	-63.9	4.1	1.45e+00	0	46	0	0	74	15186
2026-01-25 03:25:24.35	39.05	4.28	-51.9	-63.4	4.2	1.43e+00	0	46	0	0	74	14351
2026-01-25 03:25:25.35	38.99	4.35	-51.7	-61.6	4.9	8.37e-01	0	45	0	1048576	74	11598
2026-01-25 03:25:26.36	38.93	4.41	-51.5	-59.9	6.0	4.64e-01	0	46	0	3145728	74	9590
2026-01-25 03:25:27.37	38.86	4.47	-51.3	-59.0	6.7	2.84e-01	0	46	0	4194304	74	8613
2026-01-25 03:25:28.38	38.80	4.54	-50.9	-57.3	8.4	1.09e-01	0	46	0	6291456	73	7476
2026-01-25 03:25:29.39	38.74	4.60	-50.8	-56.8	8.8	4.09e-02	0	46	0	8388608	73	7116
2026-01-25 03:25:30.39	38.67	4.67	-50.4	-55.4	10.3	8.72e-03	0	46	0	10485760	72	6398
2026-01-25 03:25:31.40	38.61	4.73	-50.4	-55.6	10.2	6.02e-03	0	46	0	12582912	72	6506
2026-01-25 03:25:32.41	38.54	4.80	-50.3	-55.1	10.6	3.93e-03	0	46	0	13631488	72	6191
2026-01-25 03:25:33.42	38.48	4.86	-50.2	-55.1	10.7	1.40e-03	0	46	0	15728640	72	6146
2026-01-25 03:25:34.43	38.41	4.92	-50.1	-54.7	11.1	2.27e-03	0	46	0	17825792	72	5917
2026-01-25 03:25:35.43	38.35	4.99	-50.3	-55.3	10.5	3.15e-03	0	46	0	19922944	72	6289
2026-01-25 03:25:36.44	38.28	5.05	-50.3	-55.2	10.5	9.78e-03	0	46	0	20971520	72	6272
2026-01-25 03:25:37.45	38.22	5.12	-49.1	-52.4	13.6	5.69e-04	0	46	0	23068672	70	5046
2026-01-25 03:25:38.46	38.15	5.18	-50.0	-54.3	12.1	1.50e-06	0	46	0	25165824	70	6295
2026-01-25 03:25:39.47	38.08	5.25	-51.0	-57.3	4.9	1.49e+00	0	46	104	26214400	74	7102
2026-01-25 03:25:40.47	38.02	5.31	-47.8	-50.1	16.0	4.50e-06	0	46	0	26214400	67	4625
2026-01-25 03:25:41.48	37.95	5.38	-49.5	-53.1	12.8	2.30e-03	0	46	0	28311552	71	5199
2026-01-25 03:25:42.49	37.88	5.45	-48.1	-50.7	15.5	0.00e+00	0	46	0	30408704	68	4661
2026-01-25 03:25:43.50	37.81	5.51	-47.6	-50.0	16.1	0.00e+00	0	46	0	32505856	67	4548
2026-01-25 03:25:44.51	37.75	5.58	-47.8	-50.1	16.1	0.00e+00	0	46	0	34603008	67	4641
2026-01-25 03:25:45.52	37.68	5.64	-47.8	-50.2	16.0	0.00e+00	0	46	0	35651584	67	4660
2026-01-25 03:25:46.53	37.61	5.71	-47.6	-49.9	16.3	0.00e+00	0	46	0	37748736	67	4527
2026-01-25 03:25:47.54	37.54	5.78	-47.8	-50.2	16.0	0.00e+00	0	46	0	39845888	67	4660
2026-01-25 03:25:48.55	37.47	5.84	-47.8	-50.1	16.1	0.00e+00	0	46	0	41943040	67	4639
2026-01-25 03:25:49.55	37.40	5.91	-47.8	-50.1	16.1	0.00e+00	0	46	0	44040192	67	4616
2026-01-25 03:25:50.56	37.33	5.97	-47.9	-50.3	16.0	0.00e+00	0	46	0	46137344	67	4707
2026-01-25 03:25:51.57	37.26	6.04	-47.8	-50.1	16.1	0.00e+00	0	46	0	47185920	67	4617
2026-01-25 03:25:52.58	37.19	6.11	-47.7	-50.0	16.2	0.00e+00	0	46	0	49283072	67	4586
2026-01-25 03:25:53.59	37.12	6.18	-47.6	-49.8	16.5	0.00e+00	0	46	0	51380224	67	4486
2026-01-25 03:25:54.59	37.05	6.24	-47.4	-49.5	16.7	0.00e+00	0	46	0	53477376	66	4596
2026-01-25 03:25:55.60	36.97	6.31	-47.5	-49.7	16.6	0.00e+00	0	46	0	54525952	66	4693
2026-01-25 03:25:56.61	36.90	6.38	-47.6	-49.8	16.5	0.00e+00	0	46	0	56623104	66	4735
2026-01-25 03:25:57.62	36.83	6.44	-47.6	-49.8	16.4	0.00e+00	0	46	0	58720256	66	4757
2026-01-25 03:25:58.63	36.76	6.51	-47.6	-49.8	16.6	0.00e+00	0	46	0	60817408	66	4724
2026-01-25 03:25:59.64	36.68	6.58	-47.5	-49.6	16.7	0.00e+00	0	46	0	62914560	66	4640
2026-01-25 03:26:00.65	36.61	6.65	-47.5	-49.6	16.7	0.00e+00	0	46	0	63963136	66	4628
2026-01-25 03:26:01.65	36.53	6.71	-47.5	-49.7	16.6	0.00e+00	0	46	0	66060288	66	4685
2026-01-25 03:26:02.66	36.46	6.78	-47.5	-49.7	16.7	0.00e+00	0	46	0	68157440	66	4656
2026-01-25 03:26:03.67	36.38	6.85	-47.4	-49.5	16.9	0.00e+00	0	46	0	70254592	66	4557
2026-01-25 03:26:04.68	36.31	6.92	-47.4	-49.5	16.8	0.00e+00	0	46	0	72351744	66	4592
2026-01-25 03:26:05.69	36.23	6.99	-47.6	-49.7	16.7	0.00e+00	0	46	0	74448896	66	4689
2026-01-25 03:26:06.69	36.16	7.06	-47.6	-49.8	16.6	0.00e+00	0	46	0	75497472	66	4718
2026-01-25 03:26:07.70	36.08	7.13	-47.4	-49.5	16.9	0.00e+00	0	47	0	77594624	66	4563
2026-01-25 03:26:08.71	36.01	7.19	-47.5	-49.6	16.8	0.00e+00	0	46	0	79691776	66	4612
2026-01-25 03:26:09.72	35.93	7.26	-47.3	-49.4	17.0	0.00e+00	0	47	0	81788928	66	4511
2026-01-25 03:26:10.72	35.85	7.33	-47.4	-49.5	17.0	0.00e+00	0	47	0	82837504	66	4560
2026-01-25 03:26:11.73	35.77	7.40	-47.5	-49.6	16.8	0.00e+00	0	46	0	84934656	66	4618
2026-01-25 03:26:12.74	35.69	7.47	-47.2	-49.2	17.2	0.00e+00	0	46	0	87031808	66	4440
2026-01-25 03:26:13.75	35.62	7.54	-47.3	-49.4	17.1	0.00e+00	0	47	0	89128960	66	4510
2026-01-25 03:26:14.76	35.54	7.61	-47.4	-49.4	17.1	0.00e+00	0	47	0	91226112	66	4517
2026-01-25 03:26:15.77	35.46	7.68	-47.3	-49.2	17.2	0.00e+00	0	47	0	93323264	66	4439
2026-01-25 03:26:16.77	35.38	7.75	-47.2	-49.2	17.3	0.00e+00	0	46	0	94371840	66	4406
2026-01-25 03:26:17.78	35.30	7.82	-47.3	-49.2	17.3	0.00e+00	0	47	0	96468992	66	4431
2026-01-25 03:26:18.79	35.22	7.89	-47.2	-49.1	17.4	0.00e+00	0	47	0	98566144	66	4360
2026-01-25 03:26:19.80	35.14	7.96	-47.1	-49.1	17.4	0.00e+00	0	47	0	100663296	66	4353
2026-01-25 03:26:20.81	35.05	8.03	-47.2	-49.2	17.3	0.00e+00	0	47	0	102760448	66	4403
2026-01-25 03:26:21.81	34.97	8.10	-47.2	-49.1	17.4	0.00e+00	0	46	0	103809024	66	4363
2026-01-25 03:26:22.82	34.89	8.17	-47.2	-49.2	17.4	0.00e+00	0	47	0	105906176	66	4405
2026-01-25 03:26:23.83	34.81	8.24	-47.2	-49.1	17.5	0.00e+00	0	47	0	108003328	66	4358
2026-01-25 03:26:24.84	34.72	8.32	-47.1	-49.0	17.6	0.00e+00	0	47	0	110100480	66	4298
2026-01-25 03:26:25.85	34.64	8.39	-47.1	-48.9	17.6	0.00e+00	0	47	0	111149056	66	4283
2026-01-25 03:26:26.86	34.56	8.46	-47.1	-49.0	17.6	0.00e+00	0	47	0	113246208	66	4297
2026-01-25 03:26:27.86	34.47	8.53	-46.8	-48.6	17.9	0.00e+00	0	47	0	115343360	65	4366
2026-01-25 03:26:28.87	34.39	8.60	-47.0	-48.8	17.7	0.00e+00	0	47	0	117440512	65	4472
2026-01-25 03:26:29.88	34.30	8.67	-47.2	-49.1	17.4	0.00e+00	0	47	0	119537664	65	4632
2026-01-25 03:26:30.89	34.22	8.75	-47.1	-49.0	17.5	0.00e+00	0	46	0	121634816	65	4585
2026-01-25 03:26:31.89	34.13	8.82	-46.9	-48.8	17.8	0.00e+00	0	47	0	122683392	65	4466
2026-01-25 03:26:32.90	34.04	8.89	-46.9	-48.8	17.8	0.00e+00	0	46	0	124780544	65	4469
2026-01-25 03:26:33.91	33.96	8.96	-47.0	-48.9	17.7	0.00e+00	0	47	0	126877696	65	4529
2026-01-25 03:26:34.92	33.87	9.03	-47.1	-49.0	17.6	0.00e+00	0	47	0	128974848	65	4562
2026-01-25 03:26:35.93	33.78	9.11	-47.0	-48.9	17.7	0.00e+00	0	47	0	131072000	65	4501
2026-01-25 03:26:36.93	33.69	9.18	-46.9	-48.8	17.8	0.00e+00	0	47	0	132120576	65	4452
2026-01-25 03:26:37.94	33.61	9.25	-46.9	-48.7	17.9	0.00e+00	0	47	0	134217728	65	4407
2026-01-25 03:26:38.95	33.52	9.33	-46.9	-48.7	17.9	0.00e+00	0	47	0	136314880	65	4439
2026-01-25 03:26:39.96	33.43	9.40	-46.9	-48.8	17.9	0.00e+00	0	47	0	138412032	65	4447
2026-01-25 03:26:40.97	33.34	9.47	-46.9	-48.7	17.9	0.00e+00	0	47	0	140509184	65	4413
2026-01-25 03:26:41.97	33.25	9.55	-46.8	-48.6	18.0	0.00e+00	0	47	0	141557760	65	4368
2026-01-25 03:26:42.98	33.15	9.62	-46.8	-48.6	18.0	0.00e+00	0	47	0	143654912	65	4378
2026-01-25 03:26:43.99	33.06	9.69	-46.7	-48.4	18.2	0.00e+00	0	47	0	145752064	65	4286
2026-01-25 03:26:45.00	32.97	9.77	-46.8	-48.5	18.1	0.00e+00	0	47	0	147849216	65	4328
2026-01-25 03:26:46.01	32.88	9.84	-46.8	-48.6	18.0	0.00e+00	0	47	0	149946368	65	4356
2026-01-25 03:26:47.02	32.78	9.92	-46.9	-48.7	17.9	0.00e+00	0	47	0	150994944	65	4416
2026-01-25 03:26:48.03	32.69	9.99	-46.9	-48.7	18.0	0.00e+00	0	47	0	153092096	65	4413
2026-01-25 03:26:49.03	32.60	10.06	-46.9	-48.7	17.9	0.00e+00	0	47	0	155189248	65	4437
2026-01-25 03:26:50.04	32.50	10.14	-46.8	-48.6	18.1	0.00e+00	0	47	0	157286400	65	4364
2026-01-25 03:26:51.05	32.41	10.21	-46.7	-48.4	18.2	0.00e+00	0	47	0	159383552	65	4287
2026-01-25 03:26:52.06	32.31	10.29	-46.7	-48.4	18.3	0.00e+00	0	47	0	161480704	65	4257
2026-01-25 03:26:53.07	32.21	10.36	-46.8	-48.5	18.2	0.00e+00	0	47	0	162529280	65	4316
2026-01-25 03:26:54.07	32.12	10.44	-46.9	-48.6	18.1	0.00e+00	0	47	0	164626432	65	4377
2026-01-25 03:26:55.08	32.02	10.51	-46.7	-48.5	18.2	0.00e+00	0	47	0	166723584	65	4296
2026-01-25 03:26:56.09	31.92	10.59	-46.6	-48.3	18.4	0.00e+00	0	47	0	168820736	65	4222
2026-01-25 03:26:57.10	31.82	10.67	-46.7	-48.5	18.3	0.00e+00	0	47	0	169869312	65	4292
2026-01-25 03:26:58.11	31.73	10.74	-46.8	-48.6	18.1	0.00e+00	0	47	0	171966464	65	4361
2026-01-25 03:26:59.12	31.63	10.82	-46.9	-48.6	18.1	0.00e+00	0	47	0	174063616	65	4376
2026-01-25 03:27:00.13	31.53	10.89	-46.7	-48.5	18.3	0.00e+00	0	47	0	176160768	65	4302
2026-01-25 03:27:01.14	31.43	10.97	-46.8	-48.5	18.2	0.00e+00	0	47	0	178257920	65	4337
2026-01-25 03:27:02.15	31.32	11.05	-46.7	-48.4	18.3	0.00e+00	0	47	0	179306496	65	4288
2026-01-25 03:27:03.15	31.22	11.12	-46.8	-48.5	18.2	0.00e+00	0	47	0	181403648	65	4329
2026-01-25 03:27:04.16	31.12	11.20	-46.8	-48.5	18.2	0.00e+00	0	47	0	183500800	65	4339
2026-01-25 03:27:05.17	31.02	11.28	-46.8	-48.5	18.3	0.00e+00	0	47	0	185597952	65	4310
2026-01-25 03:27:06.18	30.92	11.36	-46.7	-48.4	18.3	0.00e+00	0	47	0	187695104	65	4276
2026-01-25 03:27:07.19	30.81	11.43	-46.7	-48.4	18.4	0.00e+00	0	47	0	189792256	65	4266
2026-01-25 03:27:08.19	30.71	11.51	-46.9	-48.7	18.1	0.00e+00	0	47	0	190840832	65	4395
2026-01-25 03:27:09.20	30.60	11.59	-46.8	-48.5	18.3	0.00e+00	0	47	0	192937984	65	4321
2026-01-25 03:27:10.21	30.50	11.66	-46.8	-48.6	18.2	0.00e+00	0	47	0	195035136	65	4349
2026-01-25 03:27:11.22	30.39	11.74	-46.8	-48.5	18.3	0.00e+00	0	47	0	197132288	65	4313
2026-01-25 03:27:12.23	30.29	11.82	-46.8	-48.5	18.3	0.00e+00	0	47	0	198180864	65	4311
2026-01-25 03:27:13.24	30.18	11.90	-46.7	-48.5	18.3	0.00e+00	0	47	0	200278016	65	4292
2026-01-25 03:27:14.24	30.07	11.98	-46.7	-48.4	18.4	0.00e+00	0	47	0	202375168	65	4291
2026-01-25 03:27:15.25	29.96	12.06	-46.6	-48.3	18.5	0.00e+00	0	47	0	204472320	65	4210
2026-01-25 03:27:16.26	29.85	12.13	-46.8	-48.5	18.3	0.00e+00	0	47	0	206569472	65	4337
2026-01-25 03:27:17.27	29.74	12.21	-46.8	-48.5	18.3	0.00e+00	0	47	0	208666624	65	4337
2026-01-25 03:27:18.28	29.63	12.29	-46.8	-48.5	18.3	0.00e+00	0	47	0	209715200	65	4335
2026-01-25 03:27:19.29	29.52	12.37	-47.0	-48.8	18.0	0.00e+00	0	47	0	211812352	65	4461
2026-01-25 03:27:20.29	29.41	12.45	-46.8	-48.6	18.2	0.00e+00	0	47	0	213909504	65	4351
2026-01-25 03:27:21.30	29.30	12.53	-46.9	-48.6	18.2	0.00e+00	0	47	0	216006656	65	4372
2026-01-25 03:27:22.31	29.19	12.61	-46.9	-48.6	18.2	0.00e+00	0	47	0	218103808	65	4378
2026-01-25 03:27:23.32	29.07	12.69	-46.7	-48.4	18.4	0.00e+00	0	47	0	219152384	65	4276
2026-01-25 03:27:24.33	28.96	12.77	-46.8	-48.5	18.3	0.00e+00	0	47	0	221249536	65	4309
2026-01-25 03:27:25.34	28.85	12.85	-46.9	-48.6	18.2	0.00e+00	0	47	0	223346688	65	4365
2026-01-25 03:27:26.35	28.73	12.93	-46.9	-48.6	18.2	0.00e+00	0	47	0	225443840	65	4381
2026-01-25 03:27:27.35	28.62	13.01	-46.8	-48.5	18.4	0.00e+00	0	47	0	227540992	65	4298
2026-01-25 03:27:28.36	28.50	13.09	-46.7	-48.4	18.5	0.00e+00	0	47	0	228589568	65	4274
2026-01-25 03:27:29.37	28.38	13.17	-46.7	-48.4	18.4	0.00e+00	0	47	0	230686720	65	4282
2026-01-25 03:27:30.38	28.26	13.25	-46.8	-48.5	18.4	0.00e+00	0	47	0	232783872	65	4330
2026-01-25 03:27:31.39	28.14	13.33	-46.8	-48.5	18.3	0.00e+00	0	47	0	234881024	65	4332
2026-01-25 03:27:32.40	28.03	13.41	-46.8	-48.5	18.4	0.00e+00	0	47	0	236978176	65	4323
2026-01-25 03:27:33.41	27.91	13.49	-46.8	-48.5	18.4	0.00e+00	0	47	0	238026752	65	4309
2026-01-25 03:27:34.42	27.78	13.57	-46.8	-48.5	18.4	0.00e+00	0	47	0	240123904	65	4311
2026-01-25 03:27:35.43	27.66	13.66	-46.7	-48.3	18.5	0.00e+00	0	47	0	242221056	65	4240
2026-01-25 03:27:36.44	27.54	13.74	-46.6	-48.2	18.7	0.00e+00	0	47	0	244318208	65	4180
2026-01-25 03:27:37.45	27.42	13.82	-46.6	-48.2	18.7	0.00e+00	0	47	0	246415360	65	4169
2026-01-25 03:27:38.45	27.30	13.90	-46.5	-48.1	18.8	0.00e+00	0	47	0	247463936	64	4354
2026-01-25 03:27:39.46	27.17	13.98	-46.4	-48.0	18.9	0.00e+00	0	47	0	249561088	64	4300
2026-01-25 03:27:40.47	27.05	14.06	-46.4	-48.0	18.9	0.00e+00	0	47	0	251658240	64	4298
2026-01-25 03:27:41.48	26.92	14.15	-46.5	-48.0	18.9	0.00e+00	0	47	0	253755392	64	4337
2026-01-25 03:27:42.49	26.80	14.23	-46.4	-48.0	18.9	0.00e+00	0	47	0	255852544	64	4296
2026-01-25 03:27:43.49	26.67	14.31	-46.3	-47.9	19.0	0.00e+00	0	47	0	256901120	64	4257
2026-01-25 03:27:44.50	26.54	14.39	-46.3	-47.8	19.1	0.00e+00	0	47	0	258998272	64	4224
2026-01-25 03:27:45.51	26.41	14.48	-46.3	-47.9	19.0	0.00e+00	0	47	0	261095424	64	4258
2026-01-25 03:27:46.52	26.29	14.56	-46.4	-48.0	18.9	0.00e+00	0	47	0	263192576	64	4301
2026-01-25 03:27:47.53	26.16	14.64	-46.4	-47.9	18.9	0.00e+00	0	47	0	265289728	64	4281
2026-01-25 03:27:48.53	26.03	14.73	-46.4	-47.9	19.0	0.00e+00	0	47	0	266338304	64	4286
2026-01-25 03:27:49.54	25.89	14.81	-46.4	-48.0	18.9	0.00e+00	0	47	0	268435456	64	4316
2026-01-25 03:27:50.55	25.76	14.89	-46.5	-48.0	18.9	0.00e+00	0	47	0	270532608	64	4334
2026-01-25 03:27:51.56	25.63	14.98	-46.5	-48.1	18.8	0.00e+00	0	47	0	272629760	64	4388
2026-01-25 03:27:52.57	25.50	15.06	-46.5	-48.1	18.9	0.00e+00	0	47	0	274726912	64	4347
2026-01-25 03:27:53.57	25.36	15.14	-46.5	-48.1	18.8	0.00e+00	0	47	0	275775488	64	4372
2026-01-25 03:27:54.58	25.23	15.23	-46.6	-48.2	18.7	0.00e+00	0	47	0	277872640	64	4423
2026-01-25 03:27:55.59	25.09	15.31	-46.5	-48.1	18.8	0.00e+00	0	47	0	279969792	64	4354
2026-01-25 03:27:56.60	24.96	15.40	-46.4	-47.9	19.0	0.00e+00	0	47	0	282066944	64	4285
2026-01-25 03:27:57.61	24.82	15.48	-46.3	-47.9	19.1	0.00e+00	0	47	0	284164096	64	4254
2026-01-25 03:27:58.62	24.68	15.56	-46.3	-47.9	19.0	0.00e+00	0	47	0	285212672	64	4261
2026-01-25 03:27:59.63	24.54	15.65	-46.4	-47.9	19.0	0.00e+00	0	47	0	287309824	64	4275
2026-01-25 03:28:00.63	24.40	15.73	-46.2	-47.8	19.2	0.00e+00	0	47	0	289406976	64	4202
2026-01-25 03:28:01.64	24.26	15.82	-46.1	-47.6	19.3	0.00e+00	0	47	0	291504128	64	4131
2026-01-25 03:28:02.65	24.12	15.90	-46.0	-47.5	19.5	0.00e+00	0	47	0	293601280	64	4066
2026-01-25 03:28:03.66	23.98	15.99	-46.0	-47.4	19.6	0.00e+00	0	47	0	295698432	63	4288
2026-01-25 03:28:04.67	23.83	16.07	-46.0	-47.5	19.6	0.00e+00	0	47	0	296747008	63	4303
2026-01-25 03:28:05.67	23.69	16.16	-46.0	-47.5	19.6	0.00e+00	0	47	0	298844160	63	4293
2026-01-25 03:28:06.68	23.55	16.24	-46.1	-47.6	19.5	0.00e+00	0	47	0	300941312	63	4347
2026-01-25 03:28:07.69	23.40	16.33	-46.1	-47.5	19.6	0.00e+00	0	47	0	303038464	63	4333
2026-01-25 03:28:08.70	23.25	16.41	-46.1	-47.6	19.5	0.00e+00	0	47	0	304087040	63	4367
2026-01-25 03:28:09.71	23.11	16.50	-46.0	-47.4	19.6	0.00e+00	0	47	0	306184192	63	4275
2026-01-25 03:28:10.71	22.96	16.59	-46.0	-47.4	19.6	0.00e+00	0	47	0	308281344	63	4289
2026-01-25 03:28:11.72	22.81	16.67	-46.0	-47.5	19.6	0.00e+00	0	47	0	310378496	63	4300
2026-01-25 03:28:12.73	22.66	16.76	-46.1	-47.6	19.5	0.00e+00	0	47	0	312475648	63	4351
2026-01-25 03:28:13.74	22.51	16.84	-45.9	-47.4	19.7	0.00e+00	0	47	0	313524224	63	4244
2026-01-25 03:28:14.75	22.36	16.93	-45.9	-47.3	19.8	0.00e+00	0	47	0	315621376	63	4227
2026-01-25 03:28:15.75	22.21	17.02	-45.9	-47.3	19.8	0.00e+00	0	47	0	317718528	63	4212
2026-01-25 03:28:16.76	22.05	17.10	-45.8	-47.2	19.9	0.00e+00	0	47	0	319815680	63	4165
2026-01-25 03:28:17.77	21.90	17.19	-45.8	-47.2	19.8	0.00e+00	0	47	0	321912832	63	4173
2026-01-25 03:28:18.78	21.74	17.27	-45.9	-47.3	19.8	0.00e+00	0	46	0	324009984	63	4199
2026-01-25 03:28:19.79	21.59	17.36	-45.9	-47.3	19.8	0.00e+00	0	47	0	325058560	63	4196
2026-01-25 03:28:20.80	21.43	17.45	-45.8	-47.2	19.9	0.00e+00	0	47	0	327155712	63	4170
2026-01-25 03:28:21.81	21.27	17.54	-45.8	-47.2	19.9	0.00e+00	0	47	0	329252864	63	4170
2026-01-25 03:28:22.82	21.11	17.62	-45.8	-47.2	19.9	0.00e+00	0	46	0	331350016	63	4171
2026-01-25 03:28:23.83	20.95	17.71	-45.9	-47.3	19.9	0.00e+00	0	47	0	332398592	63	4194
2026-01-25 03:28:24.83	20.79	17.80	-45.9	-47.2	19.9	0.00e+00	0	46	0	334495744	63	4188
2026-01-25 03:28:25.84	20.63	17.88	-45.8	-47.1	20.0	0.00e+00	0	47	0	336592896	63	4136
2026-01-25 03:28:26.85	20.47	17.97	-45.8	-47.2	19.9	0.00e+00	0	46	0	338690048	63	4157
2026-01-25 03:28:27.86	20.30	18.06	-45.7	-47.0	20.1	0.00e+00	0	46	0	340787200	63	4096
2026-01-25 03:28:28.87	20.14	18.14	-45.8	-47.1	20.0	0.00e+00	0	47	0	342884352	63	4125
2026-01-25 03:28:29.87	19.98	18.23	-45.8	-47.2	20.0	0.00e+00	0	46	0	343932928	63	4155
2026-01-25 03:28:30.88	19.81	18.32	-45.7	-47.1	20.0	0.00e+00	0	47	0	346030080	63	4120
2026-01-25 03:28:31.89	19.64	18.41	-45.7	-47.1	20.0	0.00e+00	0	47	0	348127232	63	4107
2026-01-25 03:28:32.90	19.47	18.49	-45.7	-47.1	20.1	0.00e+00	0	47	0	350224384	63	4117
2026-01-25 03:28:33.91	19.30	18.58	-45.8	-47.2	20.0	0.00e+00	0	46	0	352321536	63	4167
2026-01-25 03:28:34.92	19.13	18.67	-45.8	-47.1	20.0	0.00e+00	0	46	0	353370112	63	4138
2026-01-25 03:28:35.93	18.96	18.76	-45.8	-47.2	20.0	0.00e+00	0	46	0	355467264	63	4146
2026-01-25 03:28:36.93	18.79	18.84	-45.8	-47.1	20.0	0.00e+00	0	46	0	357564416	63	4135
2026-01-25 03:28:37.94	18.62	18.93	-45.7	-47.1	20.0	0.00e+00	0	46	0	359661568	63	4128
2026-01-25 03:28:38.95	18.44	19.02	-45.8	-47.2	19.9	0.00e+00	0	46	0	360710144	63	4181
2026-01-25 03:28:39.96	18.27	19.11	-45.9	-47.3	19.8	0.00e+00	0	47	0	362807296	63	4231
2026-01-25 03:28:40.97	18.09	19.20	-45.9	-47.3	19.8	0.00e+00	0	46	0	364904448	63	4227
2026-01-25 03:28:41.97	17.91	19.28	-46.1	-47.5	19.7	0.00e+00	0	47	0	367001600	63	4305
2026-01-25 03:28:42.98	17.73	19.37	-46.1	-47.6	19.6	0.00e+00	0	46	0	369098752	63	4345
2026-01-25 03:28:43.99	17.55	19.46	-46.1	-47.5	19.7	0.00e+00	0	46	0	371195904	63	4312
2026-01-25 03:28:45.00	17.37	19.55	-46.1	-47.6	19.6	0.00e+00	0	46	0	372244480	63	4359
2026-01-25 03:28:46.01	17.19	19.63	-46.2	-47.6	19.6	0.00e+00	0	46	0	374341632	63	4365
2026-01-25 03:28:47.01	17.01	19.72	-46.2	-47.6	19.6	0.00e+00	0	47	0	376438784	63	4367
2026-01-25 03:28:48.02	16.83	19.81	-46.1	-47.6	19.6	0.00e+00	0	46	0	378535936	63	4362
2026-01-25 03:28:49.03	16.64	19.90	-46.1	-47.6	19.6	0.00e+00	0	46	0	380633088	63	4351
2026-01-25 03:28:50.04	16.45	19.99	-46.2	-47.7	19.6	0.00e+00	0	46	0	381681664	63	4393
2026-01-25 03:28:51.04	16.27	20.07	-46.2	-47.6	19.6	0.00e+00	0	46	0	383778816	63	4390
2026-01-25 03:28:52.05	16.08	20.16	-46.2	-47.6	19.6	0.00e+00	0	46	0	385875968	63	4382
2026-01-25 03:28:53.06	15.89	20.25	-46.0	-47.5	19.7	0.00e+00	0	47	0	387973120	63	4294
2026-01-25 03:28:54.07	15.70	20.34	-46.1	-47.5	19.7	0.00e+00	0	46	0	390070272	63	4313
2026-01-25 03:28:55.07	15.51	20.42	-46.0	-47.4	19.8	0.00e+00	0	47	0	391118848	63	4264
2026-01-25 03:28:56.08	15.32	20.51	-46.1	-47.5	19.8	0.00e+00	0	46	0	393216000	63	4300
2026-01-25 03:28:57.09	15.12	20.60	-45.9	-47.3	19.9	0.00e+00	0	46	0	395313152	63	4235
2026-01-25 03:28:58.10	14.93	20.69	-46.0	-47.3	19.9	0.00e+00	0	46	0	397410304	63	4242
2026-01-25 03:28:59.11	14.73	20.77	-45.9	-47.3	20.0	0.00e+00	0	46	0	399507456	63	4197
2026-01-25 03:29:00.12	14.53	20.86	-45.8	-47.2	20.0	0.00e+00	0	46	0	400556032	63	4170
2026-01-25 03:29:01.13	14.34	20.95	-45.7	-47.1	20.1	0.00e+00	0	46	0	402653184	63	4110
2026-01-25 03:29:02.13	14.14	21.04	-45.8	-47.2	20.0	0.00e+00	0	46	0	404750336	63	4171
2026-01-25 03:29:03.14	13.94	21.12	-45.8	-47.2	20.1	0.00e+00	0	46	0	406847488	63	4153
2026-01-25 03:29:04.16	13.73	21.21	-45.9	-47.2	20.0	0.00e+00	0	47	0	408944640	63	4176
2026-01-25 03:29:05.16	13.53	21.30	-45.8	-47.2	20.0	0.00e+00	0	46	0	411041792	63	4175
2026-01-25 03:29:06.17	13.33	21.38	-45.8	-47.2	20.1	0.00e+00	0	46	0	412090368	63	4158
2026-01-25 03:29:07.18	13.12	21.47	-45.9	-47.3	20.0	0.00e+00	0	46	0	414187520	63	4195
2026-01-25 03:29:08.19	12.92	21.56	-45.8	-47.2	20.1	0.00e+00	0	46	0	416284672	63	4147
2026-01-25 03:29:09.19	12.71	21.64	-45.8	-47.2	20.1	0.00e+00	0	47	0	418381824	63	4155
2026-01-25 03:29:10.20	12.50	21.73	-45.7	-47.0	20.2	0.00e+00	0	47	0	419430400	63	4067
2026-01-25 03:29:11.21	12.29	21.82	-45.6	-46.9	20.3	0.00e+00	0	46	0	421527552	63	4038
2026-01-25 03:29:12.22	12.08	21.90	-45.6	-47.0	20.3	0.00e+00	0	46	0	423624704	63	4053
2026-01-25 03:29:13.23	11.87	21.99	-45.4	-46.7	20.5	0.00e+00	0	46	0	425721856	62	4170
2026-01-25 03:29:14.23	11.65	22.08	-45.4	-46.7	20.5	0.00e+00	0	46	0	427819008	62	4189
2026-01-25 03:29:15.24	11.44	22.16	-45.4	-46.7	20.5	0.00e+00	0	47	0	428867584	62	4179
2026-01-25 03:29:16.25	11.22	22.25	-45.4	-46.6	20.6	0.00e+00	0	46	0	430964736	62	4142
2026-01-25 03:29:17.26	11.01	22.33	-45.3	-46.6	20.6	0.00e+00	0	46	0	433061888	62	4123
2026-01-25 03:29:18.27	10.79	22.42	-45.2	-46.4	20.7	0.00e+00	0	46	0	435159040	62	4051
2026-01-25 03:29:19.27	10.57	22.51	-45.2	-46.4	20.8	0.00e+00	0	47	0	437256192	62	4041
2026-01-25 03:29:20.28	10.35	22.59	-45.2	-46.5	20.8	0.00e+00	0	46	0	439353344	62	4057
2026-01-25 03:29:21.29	10.13	22.68	-45.2	-46.5	20.7	0.00e+00	0	47	0	440401920	62	4065
2026-01-25 03:29:22.30	9.90	22.76	-45.1	-46.3	20.9	0.00e+00	0	46	0	442499072	62	3972
2026-01-25 03:29:23.30	9.68	22.84	-44.8	-46.0	21.1	0.00e+00	0	46	0	444596224	61	4074
2026-01-25 03:29:24.31	9.45	22.93	-44.8	-45.9	21.2	0.00e+00	0	46	0	446693376	61	4045
2026-01-25 03:29:25.32	9.23	23.01	-44.7	-45.8	21.3	0.00e+00	0	47	0	447741952	61	3999
2026-01-25 03:29:26.33	9.00	23.10	-44.7	-45.9	21.3	0.00e+00	0	46	0	449839104	61	4027
2026-01-25 03:29:27.34	8.77	23.18	-44.8	-46.0	21.2	0.00e+00	0	46	0	451936256	61	4061
2026-01-25 03:29:28.34	8.54	23.26	-44.9	-46.1	21.1	0.00e+00	0	46	0	454033408	61	4112
2026-01-25 03:29:29.35	8.31	23.35	-44.8	-46.0	21.2	0.00e+00	0	46	0	456130560	61	4066
2026-01-25 03:29:30.36	8.07	23.43	-44.9	-46.1	21.1	0.00e+00	0	46	0	458227712	61	4106
2026-01-25 03:29:31.38	7.84	23.51	-44.7	-45.9	21.3	0.00e+00	0	46	0	459276288	61	4037
2026-01-25 03:29:32.38	7.60	23.60	-44.7	-45.8	21.4	0.00e+00	0	46	0	461373440	61	4001
2026-01-25 03:29:33.39	7.37	23.68	-44.6	-45.8	21.4	0.00e+00	0	46	0	463470592	61	3977
2026-01-25 03:29:34.40	7.13	23.76	-44.6	-45.7	21.5	0.00e+00	0	46	0	465567744	61	3940
2026-01-25 03:29:35.41	6.89	23.84	-44.5	-45.7	21.5	0.00e+00	0	47	0	467664896	60	4152
2026-01-25 03:29:36.42	6.65	23.92	-44.6	-45.7	21.5	0.00e+00	0	46	0	468713472	60	4191
2026-01-25 03:29:37.43	6.40	24.01	-44.6	-45.8	21.4	0.00e+00	0	46	0	470810624	60	4201
2026-01-25 03:29:38.43	6.16	24.09	-44.6	-45.7	21.5	0.00e+00	0	46	0	472907776	60	4173
2026-01-25 03:29:39.44	5.92	24.17	-44.4	-45.6	21.6	0.00e+00	0	46	0	475004928	60	4099
2026-01-25 03:29:40.45	5.67	24.25	-44.6	-45.8	21.4	0.00e+00	0	46	0	476053504	60	4200
2026-01-25 03:29:41.46	5.42	24.33	-44.5	-45.7	21.5	0.00e+00	0	46	0	478150656	60	4166
2026-01-25 03:29:42.47	5.18	24.41	-44.7	-45.9	21.3	0.00e+00	0	46	0	480247808	60	4268
2026-01-25 03:29:43.48	4.93	24.49	-44.9	-46.1	21.1	0.00e+00	0	46	0	482344960	60	4389
2026-01-25 03:29:44.48	4.68	24.56	-44.9	-46.1	21.1	0.00e+00	0	46	0	484442112	60	4381
2026-01-25 03:29:45.49	4.43	24.64	-45.1	-46.3	20.9	0.00e+00	0	46	0	486539264	60	4461
2026-01-25 03:29:46.50	4.17	24.72	-44.8	-46.0	21.2	0.00e+00	0	46	0	487587840	60	4336
2026-01-25 03:29:47.51	3.92	24.80	-44.9	-46.1	21.0	0.00e+00	0	46	0	489684992	60	4367
2026-01-25 03:29:48.52	3.66	24.88	-44.9	-46.1	21.1	0.00e+00	0	47	0	491782144	60	4363
2026-01-25 03:29:49.53	3.40	24.95	-44.8	-46.0	21.2	0.00e+00	0	47	0	493879296	60	4331
2026-01-25 03:29:50.54	3.14	25.03	-45.0	-46.2	21.0	0.00e+00	0	46	0	495976448	60	4422
2026-01-25 03:29:51.55	2.88	25.11	-45.0	-46.2	21.1	0.00e+00	0	47	0	497025024	60	4396
2026-01-25 03:29:52.56	2.62	25.18	-44.8	-46.0	21.2	0.00e+00	0	47	0	499122176	60	4319
2026-01-25 03:29:53.57	2.36	25.26	-44.8	-46.0	21.2	0.00e+00	0	46	0	501219328	60	4311
2026-01-25 03:29:54.57	2.10	25.33	-44.9	-46.1	21.2	0.00e+00	0	46	0	503316480	60	4345
2026-01-25 03:29:55.58	1.83	25.41	-45.0	-46.2	21.1	0.00e+00	0	46	0	505413632	60	4402
2026-01-25 03:29:56.59	1.57	25.48	-44.9	-46.1	21.1	0.00e+00	0	46	0	506462208	60	4368
2026-01-25 03:29:57.60	1.30	25.55	-45.0	-46.2	21.1	0.00e+00	0	46	0	508559360	60	4398
2026-01-25 03:29:58.61	1.03	25.63	-45.0	-46.2	21.1	0.00e+00	0	46	0	510656512	60	4441
2026-01-25 03:29:59.62	0.76	25.70	-45.2	-46.4	20.9	0.00e+00	0	46	0	512753664	60	4534
2026-01-25 03:30:00.62	0.49	25.77	-45.2	-46.5	20.8	0.00e+00	0	46	0	514850816	61	4299
2026-01-25 03:30:01.63	0.22	25.84	-45.4	-46.6	20.7	0.00e+00	0	46	0	515899392	61	4388
2026-01-25 03:30:02.64	359.94	25.91	-45.4	-46.6	20.7	0.00e+00	0	47	0	517996544	61	4388
2026-01-25 03:30:03.65	359.67	25.98	-45.4	-46.7	20.6	0.00e+00	0	46	0	520093696	61	4408
2026-01-25 03:30:04.65	359.40	26.05	-45.3	-46.6	20.8	0.00e+00	0	47	0	522190848	61	4344
2026-01-25 03:30:05.66	359.12	26.12	-45.3	-46.6	20.7	0.00e+00	0	46	0	524288000	61	4364
2026-01-25 03:30:06.67	358.84	26.19	-45.2	-46.4	21.0	0.00e+00	0	47	0	525336576	61	4258
2026-01-25 03:30:07.68	358.56	26.26	-45.1	-46.3	21.0	0.00e+00	0	47	0	527433728	61	4239
2026-01-25 03:30:08.69	358.28	26.32	-45.1	-46.3	21.1	0.00e+00	0	46	0	529530880	61	4197
2026-01-25 03:30:09.69	358.00	26.39	-45.1	-46.3	21.1	0.00e+00	0	46	0	531628032	61	4216
2026-01-25 03:30:10.70	357.71	26.46	-45.0	-46.2	21.1	0.00e+00	0	47	0	533725184	61	4168
2026-01-25 03:30:11.71	357.43	26.52	-44.9	-46.1	21.3	0.00e+00	0	46	0	534773760	61	4099
2026-01-25 03:30:12.72	357.14	26.59	-45.0	-46.1	21.2	0.00e+00	0	47	0	536870912	61	4142
2026-01-25 03:30:13.73	356.86	26.65	-44.9	-46.1	21.3	0.00e+00	0	47	0	538968064	61	4115
2026-01-25 03:30:14.73	356.57	26.72	-45.0	-46.2	21.1	0.00e+00	0	47	0	541065216	61	4172
2026-01-25 03:30:15.74	356.28	26.78	-45.1	-46.4	20.9	0.00e+00	0	47	0	543162368	61	4250
2026-01-25 03:30:16.75	355.99	26.84	-45.2	-46.5	20.9	0.00e+00	0	47	0	544210944	61	4310
2026-01-25 03:30:17.76	355.70	26.90	-45.2	-46.5	20.9	0.00e+00	0	47	0	546308096	61	4298
2026-01-25 03:30:18.77	355.41	26.96	-45.2	-46.5	20.8	0.00e+00	0	46	0	548405248	61	4300
2026-01-25 03:30:19.77	355.12	27.02	-45.2	-46.4	20.9	0.00e+00	0	46	0	550502400	61	4290
2026-01-25 03:30:20.78	354.82	27.08	-45.1	-46.3	21.0	0.00e+00	0	47	0	552599552	61	4224
2026-01-25 03:30:21.79	354.52	27.14	-45.2	-46.5	20.8	0.00e+00	0	47	0	553648128	61	4308
2026-01-25 03:30:22.80	354.23	27.20	-45.2	-46.4	20.9	0.00e+00	0	47	0	555745280	61	4282
2026-01-25 03:30:23.81	353.93	27.26	-45.3	-46.5	20.8	0.00e+00	0	47	0	557842432	61	4317
2026-01-25 03:30:24.82	353.63	27.32	-45.2	-46.5	20.9	0.00e+00	0	46	0	559939584	61	4305
2026-01-25 03:30:25.83	353.33	27.37	-45.3	-46.5	20.8	0.00e+00	0	46	0	562036736	61	4337
2026-01-25 03:30:26.84	353.03	27.43	-45.3	-46.6	20.8	0.00e+00	0	47	0	563085312	61	4372
2026-01-25 03:30:27.85	352.72	27.48	-45.4	-46.6	20.7	0.00e+00	0	46	0	565182464	61	4370
2026-01-25 03:30:28.85	352.42	27.53	-45.6	-46.9	20.5	0.00e+00	0	47	0	567279616	61	4499
2026-01-25 03:30:29.86	352.12	27.59	-45.7	-47.0	20.4	0.00e+00	0	47	0	569376768	62	4311
2026-01-25 03:30:30.87	351.81	27.64	-45.7	-47.0	20.4	0.00e+00	0	47	0	571473920	62	4304
2026-01-25 03:30:31.88	351.50	27.69	-45.7	-47.0	20.4	0.00e+00	0	47	0	573571072	62	4335
2026-01-25 03:30:32.89	351.20	27.74	-45.7	-47.0	20.4	0.00e+00	0	47	0	574619648	62	4295
2026-01-25 03:30:33.90	350.89	27.79	-45.7	-47.0	20.4	0.00e+00	0	47	0	576716800	62	4318
2026-01-25 03:30:34.91	350.58	27.84	-45.9	-47.2	20.2	0.00e+00	0	47	0	578813952	62	4411
2026-01-25 03:30:35.91	350.27	27.89	-46.1	-47.5	20.0	0.00e+00	0	47	0	580911104	62	4564
2026-01-25 03:30:36.92	349.96	27.93	-46.3	-47.8	19.7	0.00e+00	0	47	0	581959680	63	4444
2026-01-25 03:30:37.93	349.65	27.98	-46.4	-47.8	19.7	0.00e+00	0	47	0	584056832	63	4479
2026-01-25 03:30:38.94	349.33	28.03	-46.4	-47.8	19.6	0.00e+00	0	47	0	586153984	63	4477
2026-01-25 03:30:39.95	349.02	28.07	-46.2	-47.6	19.8	0.00e+00	0	47	0	588251136	63	4381
2026-01-25 03:30:40.96	348.70	28.11	-46.1	-47.5	19.9	0.00e+00	0	47	0	590348288	63	4333
2026-01-25 03:30:41.97	348.39	28.16	-46.1	-47.5	19.9	0.00e+00	0	46	0	592445440	63	4318
2026-01-25 03:30:42.98	348.07	28.20	-46.1	-47.5	20.0	0.00e+00	0	47	0	593494016	63	4296
2026-01-25 03:30:43.99	347.75	28.24	-46.2	-47.7	19.8	0.00e+00	0	47	0	595591168	63	4396
2026-01-25 03:30:44.99	347.44	28.28	-46.1	-47.5	19.9	0.00e+00	0	47	0	597688320	63	4312
2026-01-25 03:30:46.00	347.12	28.32	-46.1	-47.5	20.0	0.00e+00	0	47	0	599785472	63	4298
2026-01-25 03:30:47.01	346.80	28.35	-46.1	-47.4	20.0	0.00e+00	0	47	0	601882624	63	4278
2026-01-25 03:30:48.02	346.48	28.39	-46.0	-47.4	20.0	0.00e+00	0	47	0	602931200	63	4276
2026-01-25 03:30:49.03	346.16	28.43	-46.2	-47.6	19.9	0.00e+00	0	47	0	605028352	63	4375
2026-01-25 03:30:50.04	345.83	28.46	-46.2	-47.6	19.9	0.00e+00	0	47	0	607125504	63	4367
2026-01-25 03:30:51.05	345.51	28.50	-46.5	-47.9	19.6	0.00e+00	0	47	0	609222656	63	4529
2026-01-25 03:30:52.05	345.19	28.53	-46.5	-47.9	19.6	0.00e+00	0	47	0	611319808	63	4539
2026-01-25 03:30:53.06	344.87	28.56	-46.5	-47.9	19.6	0.00e+00	0	47	0	612368384	63	4526
2026-01-25 03:30:54.07	344.54	28.59	-46.2	-47.6	19.8	0.00e+00	0	47	0	614465536	63	4374
2026-01-25 03:30:55.08	344.22	28.62	-46.2	-47.5	19.9	0.00e+00	0	47	0	616562688	63	4338
2026-01-25 03:30:56.09	343.89	28.65	-46.4	-47.8	19.7	0.00e+00	0	47	0	618659840	63	4462
2026-01-25 03:30:57.09	343.57	28.68	-46.6	-48.0	19.5	0.00e+00	0	47	0	620756992	63	4594
2026-01-25 03:30:58.10	343.24	28.71	-46.7	-48.2	19.3	0.00e+00	0	47	0	621805568	63	4680
2026-01-25 03:30:59.11	342.91	28.73	-46.7	-48.2	19.2	0.00e+00	0	47	0	623902720	64	4430
2026-01-25 03:31:00.12	342.58	28.76	-46.6	-48.1	19.3	0.00e+00	0	47	0	625999872	64	4386
2026-01-25 03:31:01.13	342.25	28.78	-46.6	-48.0	19.4	0.00e+00	0	47	0	628097024	64	4340
2026-01-25 03:31:02.13	341.93	28.81	-46.6	-48.1	19.3	0.00e+00	0	47	0	630194176	64	4368
2026-01-25 03:31:03.14	341.60	28.83	-46.8	-48.4	19.0	0.00e+00	0	47	0	631242752	64	4503
2026-01-25 03:31:04.15	341.27	28.85	-47.1	-48.7	18.8	0.00e+00	0	47	0	633339904	64	4671
2026-01-25 03:31:05.16	340.94	28.87	-47.2	-48.9	18.6	0.00e+00	0	47	0	635437056	65	4503
2026-01-25 03:31:06.17	340.60	28.89	-47.2	-48.8	18.6	0.00e+00	0	47	0	637534208	65	4488
2026-01-25 03:31:07.18	340.27	28.91	-47.0	-48.5	18.9	0.00e+00	0	47	0	639631360	65	4335
2026-01-25 03:31:08.19	339.94	28.92	-47.0	-48.5	18.9	0.00e+00	0	47	0	640679936	65	4336
2026-01-25 03:31:09.19	339.61	28.94	-47.0	-48.6	18.8	0.00e+00	0	47	0	642777088	65	4367
2026-01-25 03:31:10.20	339.28	28.95	-47.1	-48.7	18.8	0.00e+00	0	47	0	644874240	65	4398
2026-01-25 03:31:11.21	338.95	28.97	-47.1	-48.7	18.7	0.00e+00	0	47	0	646971392	65	4412
2026-01-25 03:31:12.22	338.61	28.98	-47.0	-48.5	18.9	0.00e+00	0	47	0	649068544	65	4339
2026-01-25 03:31:13.23	338.28	28.99	-46.7	-48.2	19.2	0.00e+00	0	47	0	650117120	65	4185
2026-01-25 03:31:14.24	337.95	29.00	-46.6	-48.1	19.3	0.00e+00	0	47	0	652214272	65	4131
2026-01-25 03:31:15.25	337.61	29.01	-46.8	-48.4	19.1	0.00e+00	0	47	0	654311424	65	4256
2026-01-25 03:31:16.26	337.28	29.02	-47.0	-48.6	18.8	0.00e+00	0	47	0	656408576	65	4386
2026-01-25 03:31:17.27	336.94	29.03	-47.1	-48.8	18.7	0.00e+00	0	47	0	658505728	65	4450
2026-01-25 03:31:18.27	336.61	29.03	-47.2	-48.8	18.7	0.00e+00	0	47	0	660602880	65	4465
2026-01-25 03:31:19.28	336.28	29.04	-47.1	-48.7	18.8	0.00e+00	0	47	0	661651456	65	4418
2026-01-25 03:31:20.29	335.94	29.04	-46.9	-48.5	19.0	0.00e+00	0	47	0	663748608	65	4320
2026-01-25 03:31:21.30	335.61	29.04	-46.9	-48.5	19.0	0.00e+00	0	47	0	665845760	65	4308
2026-01-25 03:31:22.31	335.27	29.04	-46.8	-48.4	19.1	0.00e+00	0	47	0	667942912	65	4248
2026-01-25 03:31:23.32	334.94	29.05	-47.0	-48.5	19.0	0.00e+00	0	47	0	668991488	65	4329
2026-01-25 03:31:24.33	334.60	29.04	-46.9	-48.4	19.0	0.00e+00	0	47	0	671088640	65	4279
2026-01-25 03:31:25.33	334.27	29.04	-47.1	-48.7	18.8	0.00e+00	0	47	0	673185792	65	4392
2026-01-25 03:31:26.34	333.94	29.04	-47.0	-48.6	18.9	0.00e+00	0	47	0	675282944	65	4389
2026-01-25 03:31:27.35	333.60	29.04	-46.9	-48.5	19.0	0.00e+00	0	47	0	677380096	65	4330
2026-01-25 03:31:28.36	333.27	29.03	-46.9	-48.5	19.0	0.00e+00	0	47	0	679477248	65	4314
2026-01-25 03:31:29.37	332.93	29.03	-46.6	-48.1	19.4	0.00e+00	0	47	0	680525824	65	4117
2026-01-25 03:31:30.37	332.60	29.02	-46.6	-48.1	19.4	0.00e+00	0	47	0	682622976	65	4131
2026-01-25 03:31:31.38	332.27	29.01	-46.5	-47.9	19.5	0.00e+00	0	47	0	684720128	64	4276
2026-01-25 03:31:32.39	331.94	29.00	-46.4	-47.9	19.6	0.00e+00	0	47	0	686817280	64	4253
2026-01-25 03:31:33.40	331.60	28.99	-46.5	-47.9	19.5	0.00e+00	0	47	0	688914432	64	4290
2026-01-25 03:31:34.41	331.27	28.98	-46.7	-48.2	19.4	0.00e+00	0	47	0	689963008	64	4396
2026-01-25 03:31:35.41	330.94	28.97	-46.6	-48.1	19.4	0.00e+00	0	47	0	692060160	64	4353
2026-01-25 03:31:36.42	330.61	28.95	-46.7	-48.2	19.3	0.00e+00	0	47	0	694157312	64	4436
2026-01-25 03:31:37.43	330.27	28.94	-46.6	-48.1	19.3	0.00e+00	0	47	0	696254464	64	4391
2026-01-25 03:31:38.44	329.94	28.92	-46.6	-48.0	19.5	0.00e+00	0	47	0	697303040	64	4330
2026-01-25 03:31:39.45	329.61	28.91	-46.3	-47.7	19.7	0.00e+00	0	47	0	699400192	64	4182
2026-01-25 03:31:40.45	329.28	28.89	-46.1	-47.5	20.0	0.00e+00	0	47	0	701497344	64	4072
2026-01-25 03:31:41.46	328.95	28.87	-46.2	-47.6	19.9	0.00e+00	0	47	0	703594496	64	4118
2026-01-25 03:31:42.47	328.62	28.85	-46.2	-47.6	19.9	0.00e+00	0	47	0	705691648	64	4107
2026-01-25 03:31:43.48	328.29	28.83	-46.0	-47.4	20.2	0.00e+00	0	47	0	707788800	63	4257
2026-01-25 03:31:44.49	327.96	28.81	-46.1	-47.5	20.1	0.00e+00	0	47	0	708837376	63	4309
2026-01-25 03:31:45.50	327.63	28.78	-46.0	-47.4	20.2	0.00e+00	0	47	0	710934528	63	4245
2026-01-25 03:31:46.51	327.30	28.76	-45.9	-47.2	20.4	0.00e+00	0	47	0	713031680	63	4146
2026-01-25 03:31:47.51	326.97	28.73	-45.9	-47.3	20.3	0.00e+00	0	47	0	715128832	63	4204
2026-01-25 03:31:48.52	326.65	28.71	-46.0	-47.3	20.3	0.00e+00	0	47	0	717225984	63	4223
2026-01-25 03:31:49.53	326.32	28.68	-45.9	-47.2	20.4	0.00e+00	0	47	0	718274560	63	4176
2026-01-25 03:31:50.54	325.99	28.65	-45.8	-47.1	20.5	0.00e+00	0	47	0	720371712	63	4110
2026-01-25 03:31:51.55	325.66	28.62	-45.8	-47.1	20.4	0.00e+00	0	47	0	722468864	63	4138
2026-01-25 03:31:52.56	325.34	28.59	-45.8	-47.0	20.5	0.00e+00	0	47	0	724566016	63	4087
2026-01-25 03:31:53.57	325.01	28.56	-45.7	-47.0	20.6	0.00e+00	0	47	0	726663168	63	4064
2026-01-25 03:31:54.57	324.69	28.53	-45.8	-47.0	20.5	0.00e+00	0	47	0	727711744	63	4095
2026-01-25 03:31:55.58	324.37	28.50	-45.8	-47.1	20.5	0.00e+00	0	47	0	729808896	63	4108
2026-01-25 03:31:56.59	324.05	28.46	-45.7	-47.0	20.5	0.00e+00	0	47	0	731906048	63	4089
2026-01-25 03:31:57.60	323.72	28.43	-45.8	-47.1	20.5	0.00e+00	0	47	0	734003200	63	4107
2026-01-25 03:31:58.61	323.40	28.39	-45.6	-46.9	20.6	0.00e+00	0	47	0	736100352	63	4025
2026-01-25 03:31:59.61	323.08	28.35	-45.6	-46.9	20.7	0.00e+00	0	47	0	737148928	63	4018
2026-01-25 03:32:00.62	322.76	28.32	-45.7	-46.9	20.6	0.00e+00	0	47	0	739246080	63	4035
2026-01-25 03:32:01.63	322.44	28.28	-45.6	-46.9	20.7	0.00e+00	0	47	0	741343232	63	4012
2026-01-25 03:32:02.64	322.13	28.24	-45.4	-46.6	20.8	0.00e+00	0	47	0	743440384	62	4143
2026-01-25 03:32:03.64	321.81	28.20	-45.6	-46.8	20.7	0.00e+00	0	47	0	745537536	62	4224
2026-01-25 03:32:04.65	321.49	28.15	-45.7	-47.0	20.5	0.00e+00	0	47	0	746586112	62	4310
2026-01-25 03:32:05.66	321.18	28.11	-45.7	-47.0	20.5	0.00e+00	0	47	0	748683264	62	4316
2026-01-25 03:32:06.67	320.86	28.07	-45.7	-47.0	20.5	0.00e+00	0	47	0	750780416	62	4327
2026-01-25 03:32:07.68	320.55	28.02	-45.8	-47.2	20.4	0.00e+00	0	47	0	752877568	62	4396
2026-01-25 03:32:08.69	320.23	27.98	-45.7	-47.0	20.5	0.00e+00	0	47	0	754974720	62	4333
2026-01-25 03:32:09.70	319.92	27.93	-45.8	-47.1	20.5	0.00e+00	0	47	0	756023296	62	4361
2026-01-25 03:32:10.71	319.61	27.88	-45.9	-47.2	20.4	0.00e+00	0	47	0	758120448	62	4419
2026-01-25 03:32:11.72	319.30	27.84	-46.1	-47.5	20.2	0.00e+00	0	47	0	760217600	62	4553
2026-01-25 03:32:12.73	318.99	27.79	-46.2	-47.6	20.1	0.00e+00	0	47	0	762314752	62	4600
2026-01-25 03:32:13.73	318.68	27.74	-46.2	-47.6	19.9	0.00e+00	0	47	0	764411904	63	4377
2026-01-25 03:32:14.74	318.37	27.69	-46.3	-47.7	19.9	0.00e+00	0	47	0	765460480	63	4422
2026-01-25 03:32:15.75	318.07	27.64	-46.5	-47.9	19.7	0.00e+00	0	47	0	767557632	63	4544
2026-01-25 03:32:16.76	317.76	27.58	-46.5	-47.9	19.6	0.00e+00	0	47	0	769654784	63	4538
2026-01-25 03:32:17.77	317.46	27.53	-46.5	-47.9	19.6	0.00e+00	0	47	0	771751936	63	4525
2026-01-25 03:32:18.78	317.15	27.48	-46.5	-47.9	19.7	0.00e+00	0	47	0	773849088	63	4515
2026-01-25 03:32:19.79	316.85	27.42	-46.4	-47.9	19.7	0.00e+00	0	47	0	774897664	63	4498
2026-01-25 03:32:20.79	316.55	27.37	-46.6	-48.1	19.5	0.00e+00	0	47	0	776994816	63	4611
2026-01-25 03:32:21.80	316.25	27.31	-46.6	-48.1	19.4	0.00e+00	0	47	0	779091968	63	4636
2026-01-25 03:32:22.81	315.95	27.26	-46.7	-48.2	19.3	0.00e+00	0	47	0	781189120	64	4400
2026-01-25 03:32:23.82	315.65	27.20	-46.7	-48.2	19.3	0.00e+00	0	47	0	783286272	64	4405
2026-01-25 03:32:24.83	315.35	27.14	-46.6	-48.1	19.4	0.00e+00	0	47	0	784334848	64	4378
2026-01-25 03:32:25.84	315.06	27.08	-46.6	-48.0	19.4	0.00e+00	0	47	0	786432000	64	4330
2026-01-25 03:32:26.84	314.76	27.02	-46.5	-48.0	19.5	0.00e+00	0	47	0	788529152	64	4316
2026-01-25 03:32:27.85	314.47	26.96	-46.5	-47.9	19.5	0.00e+00	0	47	0	790626304	64	4280
2026-01-25 03:32:28.86	314.18	26.90	-46.6	-48.1	19.4	0.00e+00	0	47	0	792723456	64	4361
2026-01-25 03:32:29.87	313.88	26.84	-46.6	-48.1	19.4	0.00e+00	0	47	0	794820608	64	4361
2026-01-25 03:32:30.87	313.60	26.78	-46.7	-48.3	19.3	0.00e+00	0	47	0	795869184	64	4444
2026-01-25 03:32:31.88	313.31	26.71	-46.9	-48.4	19.1	0.00e+00	0	47	0	797966336	64	4523
2026-01-25 03:32:32.89	313.02	26.65	-46.9	-48.4	19.1	0.00e+00	0	47	0	800063488	64	4519
2026-01-25 03:32:33.90	312.73	26.59	-46.9	-48.4	19.1	0.00e+00	0	47	0	802160640	64	4531
2026-01-25 03:32:34.91	312.44	26.52	-46.9	-48.5	19.0	0.00e+00	0	47	0	803209216	64	4562
2026-01-25 03:32:35.92	312.16	26.45	-46.7	-48.2	19.2	0.00e+00	0	47	0	805306368	64	4409
2026-01-25 03:32:36.93	311.88	26.39	-46.7	-48.2	19.3	0.00e+00	0	47	0	807403520	64	4405
2026-01-25 03:32:37.93	311.60	26.32	-46.6	-48.1	19.3	0.00e+00	0	47	0	809500672	64	4382
2026-01-25 03:32:38.94	311.31	26.25	-46.7	-48.2	19.3	0.00e+00	0	47	0	811597824	64	4397
2026-01-25 03:32:39.95	311.03	26.19	-46.6	-48.1	19.3	0.00e+00	0	47	0	812646400	64	4391
2026-01-25 03:32:40.96	310.76	26.12	-46.8	-48.3	19.2	0.00e+00	0	47	0	814743552	64	4485
2026-01-25 03:32:41.97	310.48	26.05	-46.8	-48.3	19.2	0.00e+00	0	47	0	816840704	64	4467
2026-01-25 03:32:42.98	310.20	25.98	-46.9	-48.4	19.1	0.00e+00	0	47	0	818937856	64	4533
2026-01-25 03:32:43.99	309.93	25.91	-46.6	-48.1	19.4	0.00e+00	0	47	0	821035008	64	4371
2026-01-25 03:32:44.99	309.65	25.84	-46.6	-48.1	19.3	0.00e+00	0	47	0	823132160	64	4382
2026-01-25 03:32:46.00	309.38	25.77	-46.6	-48.1	19.4	0.00e+00	0	47	0	824180736	64	4370
2026-01-25 03:32:47.01	309.11	25.69	-46.5	-48.0	19.5	0.00e+00	0	47	0	826277888	64	4306
2026-01-25 03:32:48.02	308.84	25.62	-46.4	-47.8	19.7	0.00e+00	0	46	0	828375040	64	4217
2026-01-25 03:32:49.03	308.57	25.55	-46.3	-47.7	19.7	0.00e+00	0	47	0	830472192	64	4161
2026-01-25 03:32:50.04	308.30	25.47	-46.3	-47.7	19.8	0.00e+00	0	47	0	831520768	64	4163
2026-01-25 03:32:51.05	308.03	25.40	-46.2	-47.6	19.9	0.00e+00	0	47	0	833617920	64	4115
2026-01-25 03:32:52.05	307.77	25.33	-46.2	-47.6	19.9	0.00e+00	0	47	0	835715072	64	4100
2026-01-25 03:32:53.06	307.51	25.25	-46.3	-47.7	19.8	0.00e+00	0	47	0	837812224	64	4158
2026-01-25 03:32:54.07	307.24	25.18	-46.3	-47.8	19.7	0.00e+00	0	47	0	839909376	64	4212
2026-01-25 03:32:55.08	306.98	25.10	-46.2	-47.6	19.9	0.00e+00	0	47	0	842006528	64	4132
2026-01-25 03:32:56.09	306.72	25.02	-46.0	-47.4	20.0	0.00e+00	0	47	0	843055104	64	4039
2026-01-25 03:32:57.09	306.47	24.95	-46.1	-47.5	19.9	0.00e+00	0	47	0	845152256	64	4095
2026-01-25 03:32:58.10	306.21	24.87	-46.0	-47.4	20.1	0.00e+00	0	47	0	847249408	64	4006
2026-01-25 03:32:59.11	305.95	24.79	-45.9	-47.2	20.4	0.00e+00	0	47	0	849346560	63	4177
2026-01-25 03:33:00.12	305.70	24.72	-45.9	-47.2	20.3	0.00e+00	0	47	0	851443712	63	4181
2026-01-25 03:33:01.13	305.44	24.64	-45.8	-47.1	20.4	0.00e+00	0	47	0	852492288	63	4128
2026-01-25 03:33:02.13	305.19	24.56	-45.9	-47.2	20.2	0.00e+00	0	47	0	854589440	63	4177
2026-01-25 03:33:03.14	304.94	24.48	-45.8	-47.1	20.4	0.00e+00	0	47	0	856686592	63	4112
2026-01-25 03:33:04.15	304.69	24.40	-45.6	-46.9	20.6	0.00e+00	0	47	0	858783744	63	4032
2026-01-25 03:33:05.15	304.44	24.32	-45.5	-46.8	20.7	0.00e+00	0	47	0	860880896	63	3979
2026-01-25 03:33:06.16	304.20	24.24	-45.6	-46.8	20.7	0.00e+00	0	47	0	861929472	63	3993
2026-01-25 03:33:07.17	303.95	24.16	-45.5	-46.7	20.8	0.00e+00	0	47	0	864026624	62	4190
2026-01-25 03:33:08.18	303.70	24.08	-45.5	-46.8	20.7	0.00e+00	0	47	0	866123776	62	4204
2026-01-25 03:33:09.19	303.46	24.00	-45.4	-46.7	20.8	0.00e+00	0	47	0	868220928	62	4157
2026-01-25 03:33:10.20	303.22	23.92	-45.3	-46.6	20.9	0.00e+00	0	47	0	870318080	62	4100
2026-01-25 03:33:11.21	302.98	23.84	-45.2	-46.4	21.0	0.00e+00	0	47	0	871366656	62	4040
2026-01-25 03:33:12.21	302.74	23.76	-45.3	-46.5	21.0	0.00e+00	0	47	0	873463808	62	4056
2026-01-25 03:33:13.22	302.50	23.67	-45.1	-46.3	21.2	0.00e+00	0	47	0	875560960	62	3963
2026-01-25 03:33:14.23	302.26	23.59	-45.0	-46.2	21.2	0.00e+00	0	47	0	877658112	62	3922
2026-01-25 03:33:15.24	302.03	23.51	-45.1	-46.3	21.2	0.00e+00	0	47	0	879755264	62	3980
2026-01-25 03:33:16.25	301.79	23.42	-45.1	-46.4	21.1	0.00e+00	0	47	0	880803840	62	4006
2026-01-25 03:33:17.25	301.56	23.34	-45.0	-46.2	21.2	0.00e+00	0	47	0	882900992	62	3940
2026-01-25 03:33:18.26	301.33	23.26	-45.0	-46.2	21.2	0.00e+00	0	47	0	884998144	62	3947
2026-01-25 03:33:19.27	301.10	23.17	-45.1	-46.3	21.2	0.00e+00	0	47	0	887095296	62	3968
2026-01-25 03:33:20.28	300.87	23.09	-45.1	-46.3	21.2	0.00e+00	0	47	0	889192448	62	3983
2026-01-25 03:33:21.29	300.64	23.01	-45.0	-46.2	21.2	0.00e+00	0	47	0	890241024	62	3952
2026-01-25 03:33:22.30	300.41	22.92	-44.9	-46.1	21.3	0.00e+00	0	47	0	892338176	61	4111
2026-01-25 03:33:23.31	300.18	22.84	-44.9	-46.0	21.4	0.00e+00	0	47	0	894435328	61	4075
2026-01-25 03:33:24.31	299.96	22.75	-44.7	-45.8	21.5	0.00e+00	0	47	0	896532480	61	3994
2026-01-25 03:33:25.32	299.74	22.67	-44.5	-45.6	21.7	0.00e+00	0	47	0	898629632	61	3896
2026-01-25 03:33:26.33	299.51	22.58	-44.5	-45.7	21.7	0.00e+00	0	47	0	899678208	61	3918
2026-01-25 03:33:27.34	299.29	22.50	-44.7	-45.8	21.5	0.00e+00	0	47	0	901775360	61	3999
2026-01-25 03:33:28.35	299.07	22.41	-44.5	-45.7	21.7	0.00e+00	0	47	0	903872512	61	3921
2026-01-25 03:33:29.35	298.86	22.33	-44.4	-45.5	21.8	0.00e+00	0	47	0	905969664	60	4097
2026-01-25 03:33:30.36	298.64	22.24	-44.4	-45.5	21.8	0.00e+00	0	47	0	908066816	60	4071
2026-01-25 03:33:31.37	298.42	22.15	-44.4	-45.5	21.8	0.00e+00	0	47	0	910163968	60	4087
2026-01-25 03:33:32.38	298.21	22.07	-44.2	-45.3	22.0	0.00e+00	0	47	0	911212544	60	3961
2026-01-25 03:33:33.39	297.99	21.98	-44.2	-45.2	22.1	0.00e+00	0	47	0	913309696	60	3952
2026-01-25 03:33:34.39	297.78	21.90	-44.1	-45.2	22.1	0.00e+00	0	47	0	915406848	60	3924
2026-01-25 03:33:35.40	297.57	21.81	-44.1	-45.2	22.1	0.00e+00	0	47	0	917504000	60	3934
2026-01-25 03:33:36.41	297.36	21.72	-44.1	-45.2	22.1	0.00e+00	0	47	0	918552576	60	3921
2026-01-25 03:33:37.42	297.15	21.64	-44.1	-45.2	22.1	0.00e+00	0	47	0	920649728	60	3937
2026-01-25 03:33:38.43	296.94	21.55	-44.0	-45.1	22.2	0.00e+00	0	47	0	922746880	60	3886
2026-01-25 03:33:39.43	296.74	21.46	-44.5	-45.6	22.0	0.00e+00	0	47	0	924844032	59	4357
2026-01-25 03:33:40.44	296.53	21.38	-44.4	-45.5	22.1	0.00e+00	0	47	0	926941184	59	4323
2026-01-25 03:33:41.45	296.33	21.29	-44.3	-45.3	22.2	0.00e+00	0	47	0	927989760	59	4231
2026-01-25 03:33:42.46	296.12	21.20	-44.0	-45.0	22.5	0.00e+00	0	47	0	930086912	59	4095
2026-01-25 03:33:43.47	295.92	21.11	-43.9	-44.9	22.6	0.00e+00	0	47	0	932184064	59	4043
2026-01-25 03:33:44.47	295.72	21.03	-43.9	-44.9	22.6	0.00e+00	0	47	0	934281216	59	4048
2026-01-25 03:33:45.48	295.52	20.94	-43.9	-44.9	22.7	0.00e+00	0	47	0	936378368	59	4018
2026-01-25 03:33:46.49	295.32	20.85	-44.0	-45.0	22.5	0.00e+00	0	47	0	938475520	59	4075
2026-01-25 03:33:47.50	295.12	20.76	-44.0	-45.0	22.5	0.00e+00	0	47	0	939524096	59	4096
2026-01-25 03:33:48.51	294.93	20.68	-44.2	-45.2	22.3	0.00e+00	0	47	0	941621248	59	4180
2026-01-25 03:33:49.51	294.73	20.59	-44.2	-45.2	22.3	0.00e+00	0	47	0	943718400	59	4192
2026-01-25 03:33:50.52	294.54	20.50	-44.2	-45.2	22.4	0.00e+00	0	47	0	945815552	59	4179
2026-01-25 03:33:51.53	294.35	20.41	-44.1	-45.2	22.4	0.00e+00	0	47	0	946864128	59	4157
2026-01-25 03:33:52.54	294.15	20.33	-44.1	-45.2	22.4	0.00e+00	0	47	0	948961280	59	4158
2026-01-25 03:33:53.55	293.96	20.24	-44.0	-45.0	22.6	0.00e+00	0	47	0	951058432	59	4083
2026-01-25 03:33:54.56	293.77	20.15	-43.9	-45.0	22.6	0.00e+00	0	47	0	953155584	59	4076
2026-01-25 03:33:55.57	293.58	20.06	-44.0	-45.0	22.5	0.00e+00	0	47	0	955252736	59	4091
2026-01-25 03:33:56.57	293.40	19.97	-44.0	-45.1	22.5	0.00e+00	0	47	0	957349888	59	4121
2026-01-25 03:33:57.58	293.21	19.89	-44.0	-45.0	22.5	0.00e+00	0	47	0	958398464	59	4088
2026-01-25 03:33:58.59	293.03	19.80	-44.0	-45.1	22.5	0.00e+00	0	47	0	960495616	59	4111
2026-01-25 03:33:59.60	292.84	19.71	-44.1	-45.1	22.4	0.00e+00	0	47	0	962592768	59	4124
2026-01-25 03:34:00.61	292.66	19.62	-44.0	-45.1	22.5	0.00e+00	0	47	0	964689920	59	4108
2026-01-25 03:34:01.62	292.48	19.53	-44.2	-45.2	22.3	0.00e+00	0	47	0	966787072	59	4185
2026-01-25 03:34:02.63	292.29	19.45	-44.2	-45.3	22.3	0.00e+00	0	46	0	967835648	59	4194
2026-01-25 03:34:03.64	292.11	19.36	-44.2	-45.2	22.3	0.00e+00	0	47	0	969932800	59	4181
2026-01-25 03:34:04.64	291.94	19.27	-44.2	-45.3	22.3	0.00e+00	0	47	0	972029952	59	4215
2026-01-25 03:34:05.65	291.76	19.18	-44.3	-45.4	22.2	0.00e+00	0	47	0	974127104	59	4257
2026-01-25 03:34:06.66	291.58	19.09	-44.4	-45.4	22.2	0.00e+00	0	47	0	976224256	59	4287
2026-01-25 03:34:07.67	291.41	19.01	-44.4	-45.4	22.1	0.00e+00	0	47	0	977272832	59	4286
2026-01-25 03:34:08.68	291.23	18.92	-44.4	-45.5	22.1	0.00e+00	0	47	0	979369984	59	4305
2026-01-25 03:34:09.69	291.06	18.83	-44.5	-45.6	21.9	0.00e+00	0	47	0	981467136	59	4389
2026-01-25 03:34:10.70	290.88	18.74	-44.5	-45.6	21.9	0.00e+00	0	47	0	983564288	59	4387
2026-01-25 03:34:11.71	290.71	18.65	-44.6	-45.7	21.9	0.00e+00	0	47	0	985661440	59	4413
2026-01-25 03:34:12.72	290.54	18.57	-44.6	-45.7	21.9	0.00e+00	0	47	0	986710016	59	4398
2026-01-25 03:34:13.73	290.37	18.48	-44.6	-45.7	21.8	0.00e+00	0	47	0	988807168	59	4433
2026-01-25 03:34:14.73	290.20	18.39	-44.6	-45.7	21.8	0.00e+00	0	47	0	990904320	59	4432
2026-01-25 03:34:15.74	290.04	18.30	-44.7	-45.9	21.7	0.00e+00	0	47	0	993001472	59	4494
2026-01-25 03:34:16.75	289.87	18.22	-44.4	-45.5	21.7	0.00e+00	0	46	0	995098624	60	4097
2026-01-25 03:34:17.76	289.70	18.13	-44.6	-45.7	21.5	0.00e+00	0	47	0	996147200	60	4187
2026-01-25 03:34:18.77	289.54	18.04	-44.6	-45.8	21.5	0.00e+00	0	47	0	998244352	60	4217
2026-01-25 03:34:19.78	289.37	17.95	-44.8	-46.0	21.3	0.00e+00	0	46	0	1000341504	60	4307
2026-01-25 03:34:20.79	289.21	17.87	-44.9	-46.1	21.1	0.00e+00	0	47	0	1002438656	60	4365
2026-01-25 03:34:21.80	289.05	17.78	-45.0	-46.2	21.1	0.00e+00	0	47	0	1004535808	60	4392
2026-01-25 03:34:22.81	288.89	17.69	-45.0	-46.2	21.1	0.00e+00	0	46	0	1005584384	60	4427
2026-01-25 03:34:23.82	288.73	17.61	-45.0	-46.3	21.0	0.00e+00	0	47	0	1007681536	60	4449
2026-01-25 03:34:24.83	288.57	17.52	-45.0	-46.2	21.0	0.00e+00	0	47	0	1009778688	60	4417
2026-01-25 03:34:25.84	288.41	17.43	-45.0	-46.2	21.0	0.00e+00	0	47	0	1011875840	60	4433
2026-01-25 03:34:26.85	288.25	17.34	-45.2	-46.5	20.8	0.00e+00	0	47	0	1013972992	61	4305
2026-01-25 03:34:27.85	288.10	17.26	-45.1	-46.4	20.9	0.00e+00	0	47	0	1016070144	61	4259
2026-01-25 03:34:28.86	287.94	17.17	-45.1	-46.3	20.9	0.00e+00	0	47	0	1017118720	61	4225
2026-01-25 03:34:29.87	287.79	17.08	-45.1	-46.4	20.9	0.00e+00	0	47	0	1019215872	61	4253
2026-01-25 03:34:30.88	287.63	17.00	-45.0	-46.2	21.0	0.00e+00	0	47	0	1021313024	61	4175
2026-01-25 03:34:31.89	287.48	16.91	-45.0	-46.2	21.0	0.00e+00	0	47	0	1023410176	61	4163
2026-01-25 03:34:32.90	287.33	16.83	-45.1	-46.3	20.9	0.00e+00	0	47	0	1024458752	61	4229
2026-01-25 03:34:33.91	287.18	16.74	-45.0	-46.2	21.0	0.00e+00	0	47	0	1026555904	61	4155
2026-01-25 03:34:34.91	287.03	16.65	-45.0	-46.2	21.0	0.00e+00	0	47	0	1028653056	61	4184
2026-01-25 03:34:35.92	286.88	16.57	-44.9	-46.1	21.1	0.00e+00	0	47	0	1030750208	61	4137
2026-01-25 03:34:36.93	286.73	16.48	-45.0	-46.2	21.0	0.00e+00	0	47	0	1032847360	61	4162
2026-01-25 03:34:37.94	286.58	16.40	-45.1	-46.3	20.9	0.00e+00	0	46	0	1033895936	61	4211
2026-01-25 03:34:38.95	286.43	16.31	-45.2	-46.4	20.8	0.00e+00	0	47	0	1035993088	61	4267
2026-01-25 03:34:39.96	286.29	16.22	-45.3	-46.5	20.7	0.00e+00	0	47	0	1038090240	61	4336
2026-01-25 03:34:40.97	286.14	16.14	-45.3	-46.5	20.7	0.00e+00	0	47	0	1040187392	61	4329
2026-01-25 03:34:41.97	286.00	16.05	-45.4	-46.7	20.5	0.00e+00	0	47	0	1042284544	61	4400
2026-01-25 03:34:42.98	285.86	15.97	-45.3	-46.6	20.6	0.00e+00	0	47	0	1044381696	61	4363
2026-01-25 03:34:43.99	285.71	15.88	-45.4	-46.7	20.5	0.00e+00	0	47	0	1045430272	61	4417
2026-01-25 03:34:45.00	285.57	15.80	-45.4	-46.7	20.5	0.00e+00	0	47	0	1047527424	61	4425
2026-01-25 03:34:46.01	285.43	15.71	-45.4	-46.7	20.5	0.00e+00	0	47	0	1049624576	61	4433
2026-01-25 03:34:47.01	285.29	15.63	-45.4	-46.7	20.5	0.00e+00	0	47	0	1051721728	61	4407
2026-01-25 03:34:48.02	285.15	15.54	-45.4	-46.7	20.5	0.00e+00	0	47	0	1052770304	61	4441
2026-01-25 03:34:49.03	285.01	15.46	-45.4	-46.7	20.5	0.00e+00	0	46	0	1054867456	61	4412
2026-01-25 03:34:50.04	284.88	15.38	-45.5	-46.8	20.4	0.00e+00	0	47	0	1056964608	61	4473
2026-01-25 03:34:51.05	284.74	15.29	-45.5	-46.8	20.4	0.00e+00	0	47	0	1059061760	61	4460
2026-01-25 03:34:52.05	284.60	15.21	-45.5	-46.8	20.4	0.00e+00	0	47	0	1061158912	61	4452
2026-01-25 03:34:53.06	284.47	15.12	-45.6	-46.9	20.2	0.00e+00	0	47	0	1063256064	61	4522
2026-01-25 03:34:54.07	284.33	15.04	-45.6	-46.9	20.2	0.00e+00	0	47	0	1064304640	61	4533
2026-01-25 03:34:55.08	284.20	14.96	-45.8	-47.2	20.0	0.00e+00	0	47	0	1066401792	62	4401
2026-01-25 03:34:56.09	284.07	14.87	-45.9	-47.2	19.9	0.00e+00	0	47	0	1068498944	62	4431
2026-01-25 03:34:57.10	283.93	14.79	-45.8	-47.1	20.0	0.00e+00	0	47	0	1070596096	62	4386
2026-01-25 03:34:58.11	283.80	14.70	-45.9	-47.3	19.9	0.00e+00	0	47	0	1072693248	62	4442
2026-01-25 03:34:59.12	283.67	14.62	-45.8	-47.2	19.9	0.00e+00	0	47	0	1073741824	62	4430
2026-01-25 03:35:00.13	283.54	14.54	-45.8	-47.2	20.0	0.00e+00	0	47	0	1075838976	62	4406
2026-01-25 03:35:01.13	283.41	14.46	-45.7	-47.1	20.1	0.00e+00	0	47	0	1077936128	62	4341
2026-01-25 03:35:02.14	283.28	14.37	-45.7	-47.1	20.1	0.00e+00	0	47	0	1080033280	62	4344
2026-01-25 03:35:03.15	283.16	14.29	-45.7	-47.1	20.1	0.00e+00	0	47	0	1081081856	62	4349
2026-01-25 03:35:04.16	283.03	14.21	-45.7	-47.1	20.1	0.00e+00	0	47	0	1083179008	62	4347
2026-01-25 03:35:05.17	282.90	14.12	-45.9	-47.2	19.9	0.00e+00	0	46	0	1085276160	62	4438
2026-01-25 03:35:06.18	282.78	14.04	-46.0	-47.4	19.8	0.00e+00	0	46	0	1087373312	62	4516
2026-01-25 03:35:07.19	282.65	13.96	-46.1	-47.6	19.5	0.00e+00	0	47	0	1089470464	62	4630
2026-01-25 03:35:08.20	282.53	13.88	-46.2	-47.7	19.4	0.00e+00	0	47	0	1091567616	62	4664
2026-01-25 03:35:09.21	282.40	13.80	-46.2	-47.7	19.5	0.00e+00	0	47	0	1092616192	63	4392
2026-01-25 03:35:10.21	282.28	13.71	-46.3	-47.8	19.4	0.00e+00	0	47	0	1094713344	63	4447
2026-01-25 03:35:11.22	282.16	13.63	-46.2	-47.7	19.4	0.00e+00	0	46	0	1096810496	63	4418
2026-01-25 03:35:12.23	282.04	13.55	-46.3	-47.8	19.3	0.00e+00	0	47	0	1098907648	63	4493
2026-01-25 03:35:13.24	281.92	13.47	-46.4	-47.9	19.2	0.00e+00	0	47	0	1101004800	63	4529
2026-01-25 03:35:14.24	281.80	13.39	-46.4	-47.9	19.2	0.00e+00	0	47	0	1102053376	63	4507
2026-01-25 03:35:15.25	281.68	13.31	-46.4	-48.0	19.2	0.00e+00	0	47	0	1104150528	63	4551
2026-01-25 03:35:16.26	281.56	13.23	-46.4	-48.0	19.2	0.00e+00	0	47	0	1106247680	63	4556
2026-01-25 03:35:17.27	281.44	13.15	-46.5	-48.1	19.0	0.00e+00	0	47	0	1108344832	63	4602
2026-01-25 03:35:18.28	281.32	13.07	-46.6	-48.2	18.9	0.00e+00	0	47	0	1110441984	63	4687
2026-01-25 03:35:19.29	281.21	12.99	-46.6	-48.2	18.9	0.00e+00	0	47	0	1111490560	63	4656
2026-01-25 03:35:20.29	281.09	12.91	-46.7	-48.3	18.8	0.00e+00	0	47	0	1113587712	63	4755
2026-01-25 03:35:21.30	280.98	12.83	-46.6	-48.3	18.7	0.00e+00	0	47	0	1115684864	64	4442
2026-01-25 03:35:22.31	280.86	12.75	-46.6	-48.3	18.7	0.00e+00	0	46	0	1117782016	64	4459
2026-01-25 03:35:23.32	280.75	12.67	-46.7	-48.3	18.7	0.00e+00	0	47	0	1119879168	64	4481
2026-01-25 03:35:24.33	280.63	12.59	-46.7	-48.3	18.7	0.00e+00	0	47	0	1120927744	64	4483
2026-01-25 03:35:25.33	280.52	12.51	-46.6	-48.3	18.7	0.00e+00	0	47	0	1123024896	64	4444
2026-01-25 03:35:26.34	280.41	12.43	-46.7	-48.4	18.6	0.00e+00	0	47	0	1125122048	64	4494
2026-01-25 03:35:27.35	280.30	12.35	-46.7	-48.3	18.7	0.00e+00	0	47	0	1127219200	64	4471
2026-01-25 03:35:28.36	280.19	12.27	-46.7	-48.4	18.6	0.00e+00	0	47	0	1129316352	64	4515
2026-01-25 03:35:29.37	280.08	12.19	-46.7	-48.3	18.6	0.00e+00	0	46	0	1131413504	64	4489
2026-01-25 03:35:30.37	279.97	12.11	-46.6	-48.2	18.8	0.00e+00	0	47	0	1132462080	64	4414
2026-01-25 03:35:31.38	279.86	12.03	-46.5	-48.1	18.8	0.00e+00	0	46	0	1134559232	64	4367
2026-01-25 03:35:32.39	279.75	11.95	-46.6	-48.2	18.7	0.00e+00	0	47	0	1136656384	64	4441
2026-01-25 03:35:33.40	279.64	11.87	-46.5	-48.1	18.8	0.00e+00	0	47	0	1138753536	64	4367
2026-01-25 03:35:34.41	279.53	11.80	-46.6	-48.2	18.7	0.00e+00	0	47	0	1139802112	64	4423
2026-01-25 03:35:35.41	279.43	11.72	-46.7	-48.3	18.6	0.00e+00	0	47	0	1141899264	64	4462
2026-01-25 03:35:36.42	279.32	11.64	-46.7	-48.3	18.6	0.00e+00	0	47	0	1143996416	64	4491
2026-01-25 03:35:37.43	279.21	11.56	-46.8	-48.5	18.4	0.00e+00	0	47	0	1146093568	64	4578
2026-01-25 03:35:38.44	279.11	11.49	-46.8	-48.5	18.4	0.00e+00	0	47	0	1148190720	64	4560
2026-01-25 03:35:39.45	279.00	11.41	-46.7	-48.4	18.5	0.00e+00	0	47	0	1149239296	64	4511
2026-01-25 03:35:40.46	278.90	11.33	-46.7	-48.4	18.5	0.00e+00	0	47	0	1151336448	64	4527
2026-01-25 03:35:41.47	278.80	11.25	-46.7	-48.3	18.6	0.00e+00	0	47	0	1153433600	64	4484
2026-01-25 03:35:42.47	278.69	11.18	-46.7	-48.4	18.5	0.00e+00	0	47	0	1155530752	64	4501
2026-01-25 03:35:43.48	278.59	11.10	-46.6	-48.3	18.6	0.00e+00	0	47	0	1157627904	64	4457
2026-01-25 03:35:44.49	278.49	11.02	-46.7	-48.3	18.5	0.00e+00	0	47	0	1159725056	64	4472
2026-01-25 03:35:45.50	278.39	10.95	-46.7	-48.3	18.5	0.00e+00	0	47	0	1160773632	64	4484
2026-01-25 03:35:46.51	278.29	10.87	-46.7	-48.3	18.5	0.00e+00	0	47	0	1162870784	64	4491
2026-01-25 03:35:47.52	278.19	10.79	-46.6	-48.2	18.7	0.00e+00	0	47	0	1164967936	64	4421
2026-01-25 03:35:48.53	278.09	10.72	-46.7	-48.4	18.5	0.00e+00	0	47	0	1167065088	64	4505
2026-01-25 03:35:49.53	277.99	10.64	-46.8	-48.5	18.4	0.00e+00	0	47	0	1168113664	64	4565
2026-01-25 03:35:50.54	277.89	10.57	-46.9	-48.7	18.2	0.00e+00	0	47	0	1170210816	64	4654
2026-01-25 03:35:51.55	277.79	10.49	-47.0	-48.7	18.2	0.00e+00	0	47	0	1172307968	64	4676
2026-01-25 03:35:52.56	277.69	10.41	-47.1	-48.9	18.0	0.00e+00	0	46	0	1174405120	64	4766
2026-01-25 03:35:53.57	277.60	10.34	-47.1	-48.8	18.0	0.00e+00	0	46	0	1176502272	64	4756
2026-01-25 03:35:54.57	277.50	10.26	-47.2	-49.0	17.5	0.00e+00	0	47	0	1178599424	65	4596
2026-01-25 03:35:55.58	277.41	10.19	-47.1	-48.9	17.9	0.00e+00	0	46	0	1179648000	65	4539
2026-01-25 03:35:56.59	277.31	10.11	-47.1	-48.9	17.9	0.00e+00	0	47	0	1181745152	65	4532
2026-01-25 03:35:57.60	277.21	10.04	-47.2	-49.0	17.8	0.00e+00	0	47	0	1183842304	65	4561
2026-01-25 03:35:58.61	277.12	9.96	-47.2	-49.0	17.8	0.00e+00	0	47	0	1185939456	65	4568
2026-01-25 03:35:59.62	277.03	9.89	-47.1	-49.0	17.8	0.00e+00	0	46	0	1188036608	65	4557
2026-01-25 03:36:00.63	276.93	9.81	-47.2	-49.1	17.8	0.00e+00	0	47	0	1189085184	65	4599
2026-01-25 03:36:01.64	276.84	9.74	-47.1	-49.0	17.8	0.00e+00	0	47	0	1191182336	65	4554
2026-01-25 03:36:02.65	276.75	9.67	-47.2	-49.0	17.8	0.00e+00	0	46	0	1193279488	65	4563
2026-01-25 03:36:03.65	276.66	9.59	-47.2	-49.1	17.7	0.00e+00	0	46	0	1195376640	65	4620
2026-01-25 03:36:04.66	276.56	9.52	-47.4	-49.3	17.5	0.00e+00	0	47	0	1197473792	65	4717
2026-01-25 03:36:05.67	276.47	9.45	-47.5	-49.4	17.4	0.00e+00	0	47	0	1198522368	65	4791
2026-01-25 03:36:06.68	276.38	9.37	-47.5	-49.4	17.4	0.00e+00	0	47	0	1200619520	65	4814
2026-01-25 03:36:07.69	276.29	9.30	-47.5	-49.5	17.3	0.00e+00	0	47	0	1202716672	65	4855
2026-01-25 03:36:08.69	276.20	9.23	-47.6	-49.6	17.2	0.00e+00	0	47	0	1204813824	65	4915
2026-01-25 03:36:09.70	276.11	9.15	-47.7	-49.7	17.0	0.00e+00	0	46	0	1206910976	65	4960
2026-01-25 03:36:10.71	276.02	9.08	-47.7	-49.8	17.0	0.00e+00	0	47	0	1207959552	66	4726
2026-01-25 03:36:11.72	275.94	9.01	-47.7	-49.7	17.1	0.00e+00	0	47	0	1210056704	66	4697
2026-01-25 03:36:12.72	275.85	8.93	-47.7	-49.7	17.0	0.00e+00	0	47	0	1212153856	66	4694
2026-01-25 03:36:13.73	275.76	8.86	-47.6	-49.6	17.1	0.00e+00	0	47	0	1214251008	66	4629
2026-01-25 03:36:14.74	275.67	8.79	-47.6	-49.7	17.1	0.00e+00	0	47	0	1216348160	66	4661
2026-01-25 03:36:15.75	275.59	8.72	-47.5	-49.5	17.3	0.00e+00	0	47	0	1217396736	66	4555
2026-01-25 03:36:16.76	275.50	8.65	-47.5	-49.5	17.3	0.00e+00	0	47	0	1219493888	66	4546
2026-01-25 03:36:17.77	275.42	8.57	-47.5	-49.5	17.2	0.00e+00	0	47	0	1221591040	66	4573
2026-01-25 03:36:18.77	275.33	8.50	-47.5	-49.4	17.3	0.00e+00	0	46	0	1223688192	66	4535
2026-01-25 03:36:19.78	275.25	8.43	-47.3	-49.3	17.5	0.00e+00	0	47	0	1225785344	66	4448
2026-01-25 03:36:20.79	275.16	8.36	-47.3	-49.2	17.5	0.00e+00	0	47	0	1226833920	66	4440
2026-01-25 03:36:21.80	275.08	8.29	-47.4	-49.3	17.4	0.00e+00	0	46	0	1228931072	66	4484
2026-01-25 03:36:22.81	274.99	8.22	-47.3	-49.3	17.5	0.00e+00	0	47	0	1231028224	66	4446
2026-01-25 03:36:23.82	274.91	8.14	-47.3	-49.2	17.5	0.00e+00	0	47	0	1233125376	66	4421
