passes_logs/2026/01/25/R3.2S_Murmansk/R3.2S_Murmansk__20260125_030421_SUOMI_NPP_rec.log

#Pass ID: 20260125_030421_SUOMI NPP
#Satellite: SUOMI NPP
#Configuration: NPP
#almurnet v.1.7.20251203
#Start time: 2026-01-25 03:04:21

#Version: 2.2.20231116
#Station: R3.2S_Murmansk
#Location: 33.079688 lon 68.888172 lat
#TLE: 1 37849U 11061A   26024.54906732  .00000185  00000+0  10878-3 0  9990
#TLE: 2 37849  98.7821 326.5159 0002200  47.3746 312.7615 14.19529340738061

#Time	Az	El	Level	Level2	SNR	BER	BlckErr	Temp	State	Recorded	gain1	gain2
2026-01-25 03:04:21.59	37.62	2.03	-52.0	-67.0	3.8	1.49e+00	0	42	0	0	76	19206
2026-01-25 03:04:22.59	37.57	2.09	-52.0	-66.9	3.8	1.49e+00	0	42	104	0	74	21463
2026-01-25 03:04:23.60	37.52	2.15	-52.0	-66.9	3.8	1.49e+00	0	41	104	0	74	21448
2026-01-25 03:04:24.61	37.48	2.21	-52.0	-66.9	3.8	1.49e+00	0	42	104	0	74	21431
2026-01-25 03:04:25.61	37.43	2.27	-52.0	-67.0	3.8	1.49e+00	0	42	104	0	74	21539
2026-01-25 03:04:26.62	37.38	2.33	-52.0	-66.9	3.8	1.49e+00	0	42	104	0	74	21463
2026-01-25 03:04:27.63	37.33	2.39	-52.0	-66.9	3.8	1.49e+00	0	42	104	0	74	21470
2026-01-25 03:04:28.64	37.28	2.46	-52.0	-66.9	3.8	1.49e+00	0	42	104	0	74	21479
2026-01-25 03:04:29.65	37.23	2.52	-52.0	-66.9	3.8	1.49e+00	0	42	104	0	74	21466
2026-01-25 03:04:30.65	37.19	2.58	-52.0	-66.9	3.8	1.49e+00	0	42	104	0	74	21383
2026-01-25 03:04:31.66	37.14	2.64	-52.0	-66.9	3.8	1.49e+00	0	42	104	0	74	21318
2026-01-25 03:04:32.67	37.09	2.70	-52.0	-66.8	3.8	1.49e+00	0	42	104	0	74	21238
2026-01-25 03:04:33.67	37.04	2.76	-52.0	-66.8	3.8	1.49e+00	0	42	104	0	74	21253
2026-01-25 03:04:34.68	36.99	2.83	-52.0	-66.9	3.8	1.49e+00	0	42	104	0	74	21348
2026-01-25 03:04:35.70	36.94	2.89	-52.0	-66.9	3.8	1.49e+00	0	42	104	0	74	21423
2026-01-25 03:04:36.70	36.89	2.95	-52.0	-67.0	3.8	1.49e+00	0	42	104	0	74	21510
2026-01-25 03:04:37.71	36.84	3.01	-52.0	-67.0	3.8	1.49e+00	0	42	104	0	74	21525
2026-01-25 03:04:38.72	36.79	3.08	-52.0	-66.9	3.8	1.49e+00	0	42	104	0	74	21352
2026-01-25 03:04:39.73	36.74	3.14	-52.0	-66.8	3.8	1.49e+00	0	42	104	0	74	21243
2026-01-25 03:04:40.74	36.69	3.20	-52.0	-66.8	3.8	1.49e+00	0	42	104	0	74	21104
2026-01-25 03:04:41.74	36.64	3.26	-52.0	-66.8	3.8	1.49e+00	0	42	104	0	74	21144
2026-01-25 03:04:42.75	36.58	3.33	-52.0	-66.8	3.8	1.49e+00	0	42	104	0	74	21173
2026-01-25 03:04:43.76	36.53	3.39	-52.0	-66.9	3.8	1.49e+00	0	42	104	0	74	21321
2026-01-25 03:04:44.77	36.48	3.45	-52.0	-66.9	3.8	1.49e+00	0	43	104	0	74	21438
2026-01-25 03:04:45.78	36.43	3.52	-52.0	-66.9	3.8	1.49e+00	0	42	104	0	74	21360
2026-01-25 03:04:46.78	36.38	3.58	-52.0	-66.8	3.8	1.49e+00	0	42	104	0	74	21208
2026-01-25 03:04:47.79	36.32	3.64	-52.0	-66.6	3.8	1.49e+00	0	43	104	0	74	20578
2026-01-25 03:04:48.80	36.27	3.71	-51.9	-66.1	3.8	1.49e+00	0	42	104	0	74	19419
2026-01-25 03:04:49.81	36.22	3.77	-51.9	-65.6	3.8	1.49e+00	0	42	104	0	74	18371
2026-01-25 03:04:50.82	36.16	3.83	-51.9	-65.3	3.8	1.49e+00	0	42	104	0	74	17821
2026-01-25 03:04:51.83	36.11	3.90	-51.8	-64.6	3.8	1.49e+00	0	43	104	0	74	16491
2026-01-25 03:04:52.83	36.06	3.96	-51.8	-64.2	3.9	1.48e+00	0	43	104	0	74	15600
2026-01-25 03:04:53.84	36.00	4.03	-51.8	-64.5	3.8	1.47e+00	0	43	104	0	74	16159
2026-01-25 03:04:54.85	35.95	4.09	-51.8	-64.0	4.0	1.48e+00	0	43	104	0	74	15391
2026-01-25 03:04:55.86	35.89	4.16	-51.8	-63.6	3.9	1.45e+00	0	43	104	0	74	14564
2026-01-25 03:04:56.87	35.84	4.22	-51.7	-62.6	4.4	1.29e+00	128	43	0	0	74	13029
2026-01-25 03:04:57.87	35.78	4.29	-51.6	-62.0	4.7	1.03e+00	0	43	0	2097152	74	12169
2026-01-25 03:04:58.88	35.73	4.35	-51.5	-60.9	5.2	8.98e-01	0	43	0	4194304	74	10760
2026-01-25 03:04:59.89	35.67	4.42	-51.2	-59.0	6.7	2.34e-01	0	43	0	6291456	74	8594
2026-01-25 03:05:00.90	35.62	4.48	-50.9	-57.6	7.9	1.38e-01	0	43	0	8388608	73	7759
2026-01-25 03:05:01.91	35.56	4.55	-50.7	-56.7	8.9	5.01e-02	0	43	0	9437184	73	6994
2026-01-25 03:05:02.91	35.50	4.61	-50.5	-56.1	9.4	2.17e-02	0	43	0	11534336	73	6555
2026-01-25 03:05:03.92	35.45	4.68	-50.4	-55.8	9.8	7.87e-03	0	43	0	13631488	72	6709
2026-01-25 03:05:04.93	35.39	4.74	-50.2	-55.3	10.4	5.62e-03	0	43	0	15728640	72	6305
2026-01-25 03:05:05.94	35.33	4.81	-50.1	-54.9	10.7	4.12e-03	0	43	0	16777216	72	6051
2026-01-25 03:05:06.95	35.27	4.87	-50.1	-55.1	10.5	2.98e-03	0	43	0	18874368	72	6155
2026-01-25 03:05:07.95	35.22	4.94	-50.2	-55.4	10.2	2.67e-03	0	43	0	20971520	72	6389
2026-01-25 03:05:08.96	35.16	5.01	-50.5	-56.1	9.5	1.53e-02	0	43	0	23068672	72	6914
2026-01-25 03:05:09.97	35.10	5.07	-48.9	-52.2	13.8	1.97e-04	0	43	0	25165824	69	5235
2026-01-25 03:05:10.98	35.04	5.14	-47.7	-50.2	15.7	0.00e+00	0	43	0	26214400	67	4692
2026-01-25 03:05:11.98	34.98	5.21	-51.9	-66.5	3.8	1.92e-03	0	43	104	28311552	74	20368
2026-01-25 03:05:12.99	34.92	5.27	-48.9	-52.0	13.8	7.45e-01	0	43	104	28311552	69	5150
2026-01-25 03:05:14.00	34.86	5.34	-50.8	-56.8	8.9	8.30e-06	0	43	0	29360128	72	7498
2026-01-25 03:05:15.01	34.80	5.41	-48.2	-51.0	15.0	4.58e-03	0	43	0	31457280	68	4820
2026-01-25 03:05:16.02	34.74	5.47	-47.5	-49.9	16.0	0.00e+00	0	43	0	33554432	67	4532
2026-01-25 03:05:17.03	34.68	5.54	-47.6	-50.1	15.9	0.00e+00	0	43	0	35651584	66	4885
2026-01-25 03:05:18.03	34.62	5.61	-48.0	-50.7	15.3	0.00e+00	0	43	0	37748736	66	5234
2026-01-25 03:05:19.04	34.56	5.68	-47.9	-50.6	15.4	0.00e+00	0	43	0	38797312	66	5172
2026-01-25 03:05:20.05	34.50	5.75	-47.7	-50.1	15.8	0.00e+00	0	43	0	40894464	66	4920
2026-01-25 03:05:21.06	34.44	5.81	-47.7	-50.2	15.8	0.00e+00	0	43	0	42991616	66	4929
2026-01-25 03:05:22.06	34.38	5.88	-47.9	-50.5	15.5	0.00e+00	0	43	0	45088768	66	5116
2026-01-25 03:05:23.07	34.31	5.95	-47.4	-49.7	16.3	0.00e+00	0	43	0	46137344	66	4680
2026-01-25 03:05:24.08	34.25	6.02	-47.6	-50.0	16.0	0.00e+00	0	43	0	48234496	66	4843
2026-01-25 03:05:25.09	34.19	6.09	-47.4	-49.7	16.3	0.00e+00	0	43	0	50331648	66	4690
2026-01-25 03:05:26.09	34.13	6.15	-47.4	-49.7	16.3	0.00e+00	0	43	0	52428800	66	4699
2026-01-25 03:05:27.10	34.06	6.22	-47.4	-49.7	16.3	0.00e+00	0	43	0	54525952	66	4686
2026-01-25 03:05:28.11	34.00	6.29	-47.3	-49.6	16.5	0.00e+00	0	43	0	56623104	66	4610
2026-01-25 03:05:29.12	33.93	6.36	-47.4	-49.7	16.4	0.00e+00	0	43	0	57671680	66	4669
2026-01-25 03:05:30.13	33.87	6.43	-47.1	-49.2	16.9	0.00e+00	0	43	0	59768832	66	4416
2026-01-25 03:05:31.14	33.80	6.50	-47.3	-49.5	16.6	0.00e+00	0	43	0	61865984	66	4571
2026-01-25 03:05:32.15	33.74	6.57	-47.3	-49.5	16.7	0.00e+00	0	43	0	63963136	66	4575
2026-01-25 03:05:33.15	33.67	6.64	-47.2	-49.4	16.7	0.00e+00	0	43	0	66060288	66	4498
2026-01-25 03:05:34.16	33.61	6.71	-47.1	-49.3	16.8	0.00e+00	0	43	0	67108864	66	4446
2026-01-25 03:05:35.17	33.54	6.78	-47.2	-49.4	16.7	0.00e+00	0	43	0	69206016	66	4536
2026-01-25 03:05:36.18	33.47	6.85	-47.0	-49.1	17.0	0.00e+00	0	43	0	71303168	65	4629
2026-01-25 03:05:37.19	33.41	6.92	-47.0	-49.0	17.1	0.00e+00	0	43	0	73400320	65	4594
2026-01-25 03:05:38.19	33.34	6.99	-47.0	-49.1	17.1	0.00e+00	0	43	0	75497472	65	4613
2026-01-25 03:05:39.20	33.27	7.06	-47.0	-49.1	17.0	0.00e+00	0	43	0	76546048	65	4643
2026-01-25 03:05:40.21	33.21	7.13	-47.0	-49.0	17.1	0.00e+00	0	43	0	78643200	65	4595
2026-01-25 03:05:41.22	33.14	7.20	-46.9	-49.0	17.2	0.00e+00	0	43	0	80740352	65	4555
2026-01-25 03:05:42.23	33.07	7.27	-47.0	-49.1	17.0	0.00e+00	0	43	0	82837504	65	4645
2026-01-25 03:05:43.23	33.00	7.34	-47.0	-49.1	17.0	0.00e+00	0	43	0	84934656	65	4647
2026-01-25 03:05:44.24	32.93	7.42	-47.0	-49.1	17.1	0.00e+00	0	43	0	85983232	65	4612
2026-01-25 03:05:45.25	32.86	7.49	-47.0	-49.1	17.1	0.00e+00	0	43	0	88080384	65	4629
2026-01-25 03:05:46.26	32.79	7.56	-47.1	-49.2	17.0	0.00e+00	0	43	0	90177536	65	4693
2026-01-25 03:05:47.27	32.72	7.63	-47.0	-49.0	17.2	0.00e+00	0	43	0	92274688	65	4579
2026-01-25 03:05:48.28	32.65	7.70	-47.2	-49.3	16.9	0.00e+00	0	43	0	94371840	65	4725
2026-01-25 03:05:49.29	32.58	7.78	-46.9	-49.0	17.2	0.00e+00	0	43	0	95420416	65	4572
2026-01-25 03:05:50.29	32.51	7.85	-47.1	-49.2	17.0	0.00e+00	0	43	0	97517568	65	4691
2026-01-25 03:05:51.30	32.44	7.92	-47.0	-49.0	17.2	0.00e+00	0	43	0	99614720	65	4585
2026-01-25 03:05:52.31	32.36	7.99	-47.1	-49.2	17.1	0.00e+00	0	43	0	101711872	65	4664
2026-01-25 03:05:53.32	32.29	8.07	-47.0	-49.0	17.2	0.00e+00	0	43	0	103809024	65	4582
2026-01-25 03:05:54.32	32.22	8.14	-46.8	-48.8	17.4	0.00e+00	0	44	0	104857600	65	4479
2026-01-25 03:05:55.33	32.14	8.21	-47.1	-49.2	17.0	0.00e+00	0	43	0	106954752	65	4693
2026-01-25 03:05:56.34	32.07	8.29	-47.1	-49.2	17.0	0.00e+00	0	43	0	109051904	65	4693
2026-01-25 03:05:57.35	32.00	8.36	-46.9	-48.9	17.4	0.00e+00	0	43	0	111149056	65	4503
2026-01-25 03:05:58.36	31.92	8.43	-46.6	-48.5	17.7	0.00e+00	0	44	0	113246208	65	4319
2026-01-25 03:05:59.37	31.85	8.51	-47.0	-49.0	17.3	0.00e+00	0	43	0	114294784	65	4582
2026-01-25 03:06:00.38	31.77	8.58	-46.9	-48.9	17.3	0.00e+00	0	44	0	116391936	65	4544
2026-01-25 03:06:01.39	31.69	8.66	-46.7	-48.7	17.6	0.00e+00	0	43	0	118489088	65	4398
2026-01-25 03:06:02.39	31.62	8.73	-46.7	-48.7	17.6	0.00e+00	0	44	0	120586240	65	4394
2026-01-25 03:06:03.40	31.54	8.80	-46.7	-48.6	17.7	0.00e+00	0	43	0	122683392	65	4363
2026-01-25 03:06:04.41	31.47	8.88	-46.4	-48.2	18.0	0.00e+00	0	43	0	123731968	64	4413
2026-01-25 03:06:05.42	31.39	8.95	-46.5	-48.3	17.9	0.00e+00	0	43	0	125829120	64	4476
2026-01-25 03:06:06.43	31.31	9.03	-46.5	-48.4	17.9	0.00e+00	0	43	0	127926272	64	4506
2026-01-25 03:06:07.44	31.23	9.10	-46.2	-48.0	18.3	0.00e+00	0	43	0	130023424	64	4296
2026-01-25 03:06:08.44	31.15	9.18	-46.5	-48.4	17.9	0.00e+00	0	44	0	132120576	64	4502
2026-01-25 03:06:09.45	31.07	9.26	-46.4	-48.3	18.0	0.00e+00	0	43	0	133169152	64	4462
2026-01-25 03:06:10.46	30.99	9.33	-46.5	-48.3	18.0	0.00e+00	0	44	0	135266304	64	4490
2026-01-25 03:06:11.47	30.91	9.41	-46.2	-47.9	18.3	0.00e+00	0	44	0	137363456	64	4290
2026-01-25 03:06:12.48	30.83	9.48	-46.4	-48.2	18.1	0.00e+00	0	44	0	139460608	64	4410
2026-01-25 03:06:13.49	30.75	9.56	-46.0	-47.7	18.5	0.00e+00	0	44	0	141557760	64	4192
2026-01-25 03:06:14.49	30.67	9.64	-46.2	-47.9	18.4	0.00e+00	0	44	0	143654912	64	4271
2026-01-25 03:06:15.50	30.59	9.71	-46.3	-48.0	18.3	0.00e+00	0	43	0	144703488	64	4332
2026-01-25 03:06:16.51	30.51	9.79	-46.2	-48.0	18.3	0.00e+00	0	44	0	146800640	64	4295
2026-01-25 03:06:17.52	30.43	9.87	-46.2	-47.9	18.4	0.00e+00	0	44	0	148897792	64	4283
2026-01-25 03:06:18.53	30.34	9.94	-46.1	-47.8	18.5	0.00e+00	0	43	0	150994944	64	4211
2026-01-25 03:06:19.53	30.26	10.02	-46.1	-47.8	18.6	0.00e+00	0	43	0	152043520	63	4483
2026-01-25 03:06:20.54	30.17	10.10	-46.1	-47.7	18.7	0.00e+00	0	44	0	154140672	63	4436
2026-01-25 03:06:21.55	30.09	10.18	-46.1	-47.7	18.6	0.00e+00	0	43	0	156237824	63	4436
2026-01-25 03:06:22.56	30.01	10.25	-46.0	-47.7	18.7	0.00e+00	0	44	0	158334976	63	4428
2026-01-25 03:06:23.56	29.92	10.33	-46.2	-47.9	18.5	0.00e+00	0	44	0	160432128	63	4533
2026-01-25 03:06:24.57	29.83	10.41	-46.0	-47.6	18.8	0.00e+00	0	44	0	161480704	63	4390
2026-01-25 03:06:25.58	29.75	10.49	-46.2	-47.9	18.6	0.00e+00	0	43	0	163577856	63	4514
2026-01-25 03:06:26.59	29.66	10.57	-46.1	-47.8	18.6	0.00e+00	0	44	0	165675008	63	4488
2026-01-25 03:06:27.60	29.57	10.65	-46.2	-48.0	18.5	0.00e+00	0	44	0	167772160	63	4549
2026-01-25 03:06:28.61	29.49	10.73	-46.2	-47.8	18.6	0.00e+00	0	44	0	169869312	63	4485
2026-01-25 03:06:29.61	29.40	10.80	-46.2	-47.8	18.6	0.00e+00	0	44	0	171966464	63	4485
2026-01-25 03:06:30.62	29.31	10.88	-46.3	-48.1	18.4	0.00e+00	0	44	0	173015040	63	4606
2026-01-25 03:06:31.63	29.22	10.96	-46.4	-48.1	18.4	0.00e+00	0	44	0	175112192	63	4634
2026-01-25 03:06:32.64	29.13	11.04	-46.3	-47.9	18.6	0.00e+00	0	44	0	177209344	63	4537
2026-01-25 03:06:33.65	29.04	11.12	-46.4	-48.1	18.4	0.00e+00	0	44	0	179306496	63	4614
2026-01-25 03:06:34.66	28.95	11.20	-46.2	-47.9	18.6	0.00e+00	0	44	0	180355072	63	4503
2026-01-25 03:06:35.67	28.86	11.28	-46.3	-48.0	18.5	0.00e+00	0	44	0	182452224	63	4580
2026-01-25 03:06:36.67	28.76	11.36	-46.2	-47.8	18.7	0.00e+00	0	44	0	184549376	63	4481
2026-01-25 03:06:37.68	28.67	11.44	-46.2	-47.8	18.6	0.00e+00	0	44	0	186646528	63	4487
2026-01-25 03:06:38.69	28.58	11.52	-46.3	-48.0	18.6	0.00e+00	0	44	0	188743680	63	4560
2026-01-25 03:06:39.70	28.49	11.61	-46.6	-48.5	18.0	0.00e+00	0	44	0	190840832	63	4826
2026-01-25 03:06:40.71	28.39	11.69	-46.3	-48.0	18.5	0.00e+00	0	44	0	191889408	63	4557
2026-01-25 03:06:41.71	28.30	11.77	-46.2	-47.9	18.6	0.00e+00	0	44	0	193986560	63	4519
2026-01-25 03:06:42.72	28.20	11.85	-46.2	-47.8	18.7	0.00e+00	0	44	0	196083712	63	4468
2026-01-25 03:06:43.73	28.11	11.93	-46.4	-48.2	18.4	0.00e+00	0	44	0	198180864	63	4654
2026-01-25 03:06:44.74	28.01	12.01	-46.4	-48.1	18.4	0.00e+00	0	44	0	200278016	63	4606
2026-01-25 03:06:45.75	27.91	12.10	-46.2	-47.8	18.7	0.00e+00	0	44	0	201326592	63	4479
2026-01-25 03:06:46.75	27.82	12.18	-46.2	-47.9	18.7	0.00e+00	0	44	0	203423744	63	4503
2026-01-25 03:06:47.76	27.72	12.26	-46.2	-47.9	18.7	0.00e+00	0	44	0	205520896	63	4496
2026-01-25 03:06:48.77	27.62	12.34	-45.8	-47.3	19.2	0.00e+00	0	44	0	207618048	63	4240
2026-01-25 03:06:49.78	27.52	12.43	-45.9	-47.5	19.0	0.00e+00	0	44	0	208666624	63	4323
2026-01-25 03:06:50.78	27.42	12.51	-45.8	-47.3	19.2	0.00e+00	0	44	0	210763776	63	4242
2026-01-25 03:06:51.79	27.32	12.59	-45.9	-47.5	19.0	0.00e+00	0	44	0	212860928	63	4330
2026-01-25 03:06:52.80	27.22	12.68	-45.8	-47.4	19.1	0.00e+00	0	44	0	214958080	63	4256
2026-01-25 03:06:53.81	27.12	12.76	-45.8	-47.3	19.2	0.00e+00	0	44	0	217055232	63	4228
2026-01-25 03:06:54.82	27.02	12.84	-46.0	-47.6	19.0	0.00e+00	0	44	0	219152384	63	4355
2026-01-25 03:06:55.83	26.91	12.93	-46.0	-47.5	19.0	0.00e+00	0	44	0	220200960	63	4339
2026-01-25 03:06:56.84	26.81	13.01	-45.8	-47.4	19.2	0.00e+00	0	44	0	222298112	63	4258
2026-01-25 03:06:57.85	26.71	13.10	-45.8	-47.3	19.2	0.00e+00	0	44	0	224395264	63	4241
2026-01-25 03:06:58.85	26.60	13.18	-45.7	-47.3	19.3	0.00e+00	0	44	0	226492416	63	4198
2026-01-25 03:06:59.86	26.50	13.27	-45.7	-47.2	19.4	0.00e+00	0	44	0	228589568	63	4157
2026-01-25 03:07:00.87	26.39	13.35	-45.6	-47.1	19.3	0.00e+00	0	44	0	229638144	63	4101
2026-01-25 03:07:01.88	26.28	13.44	-45.5	-47.0	19.5	0.00e+00	0	44	0	231735296	63	4073
2026-01-25 03:07:02.89	26.18	13.52	-45.6	-47.0	19.5	0.00e+00	0	44	0	233832448	63	4094
2026-01-25 03:07:03.89	26.07	13.61	-45.5	-46.9	19.6	0.00e+00	0	44	0	235929600	63	4046
2026-01-25 03:07:04.90	25.96	13.69	-45.4	-46.8	19.7	0.00e+00	0	44	0	238026752	62	4222
2026-01-25 03:07:05.91	25.85	13.78	-45.4	-46.8	19.8	0.00e+00	0	44	0	239075328	62	4215
2026-01-25 03:07:06.92	25.74	13.87	-45.5	-46.9	19.7	0.00e+00	0	44	0	241172480	62	4262
2026-01-25 03:07:07.93	25.63	13.95	-45.7	-47.2	19.4	0.00e+00	0	44	0	243269632	62	4416
2026-01-25 03:07:08.93	25.52	14.04	-45.7	-47.2	19.4	0.00e+00	0	44	0	245366784	62	4403
2026-01-25 03:07:09.94	25.41	14.13	-45.6	-47.1	19.5	0.00e+00	0	44	0	247463936	62	4346
2026-01-25 03:07:10.95	25.30	14.21	-45.5	-46.9	19.7	0.00e+00	0	44	0	248512512	62	4255
2026-01-25 03:07:11.96	25.19	14.30	-45.6	-47.0	19.6	0.00e+00	0	44	0	250609664	62	4335
2026-01-25 03:07:12.97	25.07	14.39	-45.6	-47.0	19.6	0.00e+00	0	44	0	252706816	62	4327
2026-01-25 03:07:13.97	24.96	14.48	-45.5	-46.9	19.7	0.00e+00	0	44	0	254803968	62	4258
2026-01-25 03:07:14.98	24.84	14.57	-45.5	-46.9	19.7	0.00e+00	0	44	0	256901120	62	4279
2026-01-25 03:07:15.99	24.73	14.65	-45.5	-47.0	19.6	0.00e+00	0	44	0	257949696	62	4309
2026-01-25 03:07:17.00	24.61	14.74	-45.4	-46.8	19.8	0.00e+00	0	44	0	260046848	62	4225
2026-01-25 03:07:18.01	24.49	14.83	-45.5	-46.9	19.7	0.00e+00	0	44	0	262144000	62	4252
2026-01-25 03:07:19.02	24.38	14.92	-45.6	-47.1	19.6	0.00e+00	0	44	0	264241152	62	4342
2026-01-25 03:07:20.03	24.26	15.01	-45.6	-47.0	19.6	0.00e+00	0	44	0	266338304	62	4337
2026-01-25 03:07:21.04	24.14	15.10	-45.8	-47.3	19.3	0.00e+00	0	44	0	267386880	62	4467
2026-01-25 03:07:22.05	24.02	15.19	-45.7	-47.2	19.5	0.00e+00	0	44	0	269484032	62	4398
2026-01-25 03:07:23.05	23.90	15.28	-45.7	-47.2	19.5	0.00e+00	0	44	0	271581184	62	4398
2026-01-25 03:07:24.06	23.78	15.37	-45.7	-47.2	19.5	0.00e+00	0	44	0	273678336	62	4402
2026-01-25 03:07:25.07	23.65	15.46	-45.5	-47.0	19.6	0.00e+00	0	44	0	275775488	62	4317
2026-01-25 03:07:26.08	23.53	15.55	-45.7	-47.1	19.5	0.00e+00	0	44	0	276824064	62	4381
2026-01-25 03:07:27.09	23.41	15.64	-45.7	-47.2	19.4	0.00e+00	0	44	0	278921216	62	4403
2026-01-25 03:07:28.10	23.28	15.73	-45.4	-46.8	19.8	0.00e+00	0	44	0	281018368	62	4219
2026-01-25 03:07:29.10	23.16	15.82	-45.6	-47.1	19.5	0.00e+00	0	44	0	283115520	62	4370
2026-01-25 03:07:30.11	23.03	15.91	-45.7	-47.2	19.4	0.00e+00	0	44	0	285212672	62	4409
2026-01-25 03:07:31.12	22.90	16.00	-45.8	-47.3	19.4	0.00e+00	0	44	0	287309824	62	4442
2026-01-25 03:07:32.13	22.77	16.09	-45.9	-47.4	19.2	0.00e+00	0	44	0	288358400	62	4545
2026-01-25 03:07:33.14	22.65	16.18	-45.8	-47.3	19.4	0.00e+00	0	44	0	290455552	62	4451
2026-01-25 03:07:34.15	22.52	16.27	-45.8	-47.3	19.4	0.00e+00	0	44	0	292552704	62	4447
2026-01-25 03:07:35.16	22.39	16.37	-45.8	-47.3	19.4	0.00e+00	0	44	0	294649856	62	4449
2026-01-25 03:07:36.17	22.26	16.46	-45.6	-47.0	19.7	0.00e+00	0	44	0	295698432	62	4305
2026-01-25 03:07:37.17	22.12	16.55	-45.7	-47.2	19.5	0.00e+00	0	44	0	297795584	62	4413
2026-01-25 03:07:38.18	21.99	16.64	-45.5	-46.9	19.8	0.00e+00	0	44	0	299892736	62	4259
2026-01-25 03:07:39.19	21.86	16.74	-45.6	-47.0	19.7	0.00e+00	0	44	0	301989888	62	4330
2026-01-25 03:07:40.20	21.72	16.83	-45.4	-46.8	19.9	0.00e+00	0	44	0	304087040	62	4233
2026-01-25 03:07:41.21	21.59	16.92	-45.5	-46.9	19.8	0.00e+00	0	44	0	306184192	62	4284
2026-01-25 03:07:42.22	21.45	17.01	-45.5	-46.9	19.8	0.00e+00	0	44	0	307232768	62	4282
2026-01-25 03:07:43.23	21.31	17.11	-45.4	-46.8	19.9	0.00e+00	0	44	0	309329920	62	4236
2026-01-25 03:07:44.23	21.18	17.20	-45.3	-46.6	20.1	0.00e+00	0	44	0	311427072	62	4144
2026-01-25 03:07:45.24	21.04	17.30	-45.4	-46.8	19.9	0.00e+00	0	44	0	313524224	62	4217
2026-01-25 03:07:46.25	20.90	17.39	-45.3	-46.6	20.0	0.00e+00	0	44	0	315621376	62	4144
2026-01-25 03:07:47.26	20.76	17.48	-45.7	-47.1	19.7	0.00e+00	0	44	0	316669952	62	4361
2026-01-25 03:07:48.26	20.62	17.58	-45.8	-47.3	19.4	0.00e+00	0	44	0	318767104	62	4480
2026-01-25 03:07:49.27	20.48	17.67	-46.0	-47.5	19.3	0.00e+00	0	44	0	320864256	62	4558
2026-01-25 03:07:50.28	20.33	17.77	-46.2	-47.8	19.0	0.00e+00	0	44	0	322961408	63	4468
2026-01-25 03:07:51.29	20.19	17.86	-46.4	-48.0	18.8	0.00e+00	0	44	0	324009984	63	4582
2026-01-25 03:07:52.30	20.04	17.96	-46.3	-48.0	18.9	0.00e+00	0	44	0	326107136	63	4550
2026-01-25 03:07:53.31	19.90	18.05	-46.7	-48.4	18.4	0.00e+00	0	44	0	328204288	63	4807
2026-01-25 03:07:54.32	19.75	18.15	-46.7	-48.4	18.4	0.00e+00	0	44	0	330301440	64	4523
2026-01-25 03:07:55.33	19.60	18.24	-46.7	-48.5	18.3	0.00e+00	0	44	0	332398592	64	4550
2026-01-25 03:07:56.33	19.45	18.34	-46.6	-48.3	18.5	0.00e+00	0	44	0	334495744	64	4473
2026-01-25 03:07:57.34	19.30	18.43	-46.3	-47.9	18.8	0.00e+00	0	44	0	335544320	64	4289
2026-01-25 03:07:58.35	19.15	18.53	-46.3	-47.9	18.9	0.00e+00	0	44	0	337641472	64	4277
2026-01-25 03:07:59.36	19.00	18.63	-46.2	-47.8	19.0	0.00e+00	0	44	0	339738624	64	4204
2026-01-25 03:08:00.36	18.85	18.72	-46.0	-47.6	19.2	0.00e+00	0	44	0	341835776	64	4107
2026-01-25 03:08:01.37	18.70	18.82	-46.1	-47.6	19.2	0.00e+00	0	44	0	343932928	63	4377
2026-01-25 03:08:02.38	18.54	18.92	-46.0	-47.6	19.2	0.00e+00	0	44	0	344981504	63	4357
2026-01-25 03:08:03.39	18.39	19.01	-46.0	-47.6	19.2	0.00e+00	0	44	0	347078656	63	4343
2026-01-25 03:08:04.40	18.23	19.11	-45.9	-47.4	19.4	0.00e+00	0	44	0	349175808	63	4270
2026-01-25 03:08:05.41	18.07	19.21	-46.0	-47.5	19.3	0.00e+00	0	44	0	351272960	63	4316
2026-01-25 03:08:06.42	17.91	19.30	-45.7	-47.1	19.7	0.00e+00	0	44	0	353370112	63	4119
2026-01-25 03:08:07.43	17.75	19.40	-45.5	-47.0	19.8	0.00e+00	0	44	0	354418688	63	4052
2026-01-25 03:08:08.44	17.59	19.50	-45.7	-47.1	19.7	0.00e+00	0	44	0	356515840	63	4124
2026-01-25 03:08:09.45	17.43	19.60	-45.8	-47.3	19.5	0.00e+00	0	44	0	358612992	63	4225
2026-01-25 03:08:10.45	17.27	19.69	-46.2	-47.8	19.0	0.00e+00	0	44	0	360710144	63	4487
2026-01-25 03:08:11.46	17.10	19.79	-46.1	-47.7	19.2	0.00e+00	0	44	0	362807296	63	4397
2026-01-25 03:08:12.47	16.94	19.89	-46.2	-47.8	19.1	0.00e+00	0	44	0	363855872	63	4453
2026-01-25 03:08:13.48	16.77	19.99	-46.1	-47.7	19.2	0.00e+00	0	44	0	365953024	63	4397
2026-01-25 03:08:14.49	16.60	20.09	-45.8	-47.3	19.5	0.00e+00	0	44	0	368050176	63	4209
2026-01-25 03:08:15.49	16.44	20.19	-46.0	-47.6	19.4	0.00e+00	0	44	0	370147328	63	4346
2026-01-25 03:08:16.50	16.27	20.28	-45.7	-47.2	19.6	0.00e+00	0	44	0	372244480	63	4168
2026-01-25 03:08:17.51	16.10	20.38	-45.7	-47.1	19.7	0.00e+00	0	44	0	373293056	63	4141
2026-01-25 03:08:18.52	15.92	20.48	-45.7	-47.2	19.7	0.00e+00	0	44	0	375390208	63	4148
2026-01-25 03:08:19.53	15.75	20.58	-45.8	-47.3	19.6	0.00e+00	0	44	0	377487360	63	4202
2026-01-25 03:08:20.53	15.58	20.68	-46.1	-47.6	19.3	0.00e+00	0	44	0	379584512	63	4372
2026-01-25 03:08:21.54	15.40	20.78	-46.2	-47.8	19.2	0.00e+00	0	44	0	381681664	63	4460
2026-01-25 03:08:22.55	15.23	20.88	-46.1	-47.6	19.3	0.00e+00	0	44	0	382730240	63	4373
2026-01-25 03:08:23.56	15.05	20.98	-46.0	-47.5	19.6	0.00e+00	0	44	0	384827392	63	4302
2026-01-25 03:08:24.57	14.87	21.08	-46.0	-47.5	19.4	0.00e+00	0	44	0	386924544	63	4308
2026-01-25 03:08:25.58	14.69	21.18	-45.7	-47.1	19.8	0.00e+00	0	44	0	389021696	63	4121
2026-01-25 03:08:26.58	14.51	21.28	-45.8	-47.3	19.6	0.00e+00	0	44	0	391118848	63	4206
2026-01-25 03:08:27.59	14.33	21.38	-46.0	-47.5	19.4	0.00e+00	0	44	0	392167424	63	4327
2026-01-25 03:08:28.60	14.14	21.48	-46.1	-47.7	19.2	0.00e+00	0	44	0	394264576	63	4396
2026-01-25 03:08:29.61	13.96	21.58	-46.3	-48.0	19.0	0.00e+00	0	44	0	396361728	63	4547
2026-01-25 03:08:30.61	13.78	21.67	-46.3	-47.9	19.0	0.00e+00	0	44	0	398458880	63	4544
2026-01-25 03:08:31.62	13.59	21.77	-46.6	-48.3	18.6	0.00e+00	0	44	0	400556032	63	4728
2026-01-25 03:08:32.63	13.40	21.88	-46.3	-48.0	18.9	0.00e+00	0	44	0	401604608	63	4548
2026-01-25 03:08:33.64	13.21	21.98	-46.1	-47.6	19.2	0.00e+00	0	44	0	403701760	63	4366
2026-01-25 03:08:34.65	13.02	22.08	-45.9	-47.4	19.5	0.00e+00	0	44	0	405798912	63	4263
2026-01-25 03:08:35.65	12.83	22.18	-46.0	-47.6	19.3	0.00e+00	0	44	0	407896064	63	4355
2026-01-25 03:08:36.66	12.64	22.28	-46.1	-47.7	19.2	0.00e+00	0	44	0	409993216	63	4395
2026-01-25 03:08:37.67	12.44	22.38	-46.1	-47.7	19.2	0.00e+00	0	44	0	411041792	63	4405
2026-01-25 03:08:38.68	12.25	22.48	-46.3	-47.9	19.0	0.00e+00	0	44	0	413138944	63	4516
2026-01-25 03:08:39.69	12.05	22.58	-46.2	-47.7	19.2	0.00e+00	0	44	0	415236096	63	4440
2026-01-25 03:08:40.70	11.85	22.68	-46.0	-47.5	19.3	0.00e+00	0	44	0	417333248	63	4320
2026-01-25 03:08:41.71	11.65	22.78	-45.8	-47.3	19.6	0.00e+00	0	44	0	419430400	63	4208
2026-01-25 03:08:42.72	11.45	22.88	-45.6	-47.0	19.9	0.00e+00	0	44	0	421527552	63	4076
2026-01-25 03:08:43.73	11.25	22.98	-45.5	-46.9	20.0	0.00e+00	0	44	0	422576128	62	4255
2026-01-25 03:08:44.74	11.04	23.08	-45.6	-47.0	19.9	0.00e+00	0	44	0	424673280	62	4322
2026-01-25 03:08:45.74	10.84	23.18	-45.7	-47.1	19.8	0.00e+00	0	44	0	426770432	62	4344
2026-01-25 03:08:46.75	10.63	23.28	-45.8	-47.3	19.6	0.00e+00	0	44	0	428867584	62	4445
2026-01-25 03:08:47.76	10.42	23.38	-46.0	-47.6	19.4	0.00e+00	0	44	0	429916160	62	4603
2026-01-25 03:08:48.77	10.21	23.48	-45.8	-47.2	19.7	0.00e+00	0	44	0	432013312	62	4428
2026-01-25 03:08:49.78	10.00	23.58	-45.6	-46.9	20.0	0.00e+00	0	44	0	434110464	62	4275
2026-01-25 03:08:50.79	9.79	23.68	-45.5	-46.9	20.1	0.00e+00	0	44	0	436207616	62	4247
2026-01-25 03:08:51.80	9.58	23.78	-45.4	-46.7	20.2	0.00e+00	0	44	0	438304768	62	4177
2026-01-25 03:08:52.81	9.36	23.88	-45.6	-47.0	19.9	0.00e+00	0	44	0	440401920	62	4314
2026-01-25 03:08:53.81	9.15	23.98	-45.7	-47.0	19.9	0.00e+00	0	44	0	441450496	62	4332
2026-01-25 03:08:54.82	8.93	24.08	-45.9	-47.4	19.6	0.00e+00	0	44	0	443547648	62	4501
2026-01-25 03:08:55.83	8.71	24.18	-46.3	-47.8	19.2	0.00e+00	0	44	0	445644800	63	4482
2026-01-25 03:08:56.84	8.49	24.28	-46.0	-47.5	19.4	0.00e+00	0	44	0	447741952	63	4310
2026-01-25 03:08:57.85	8.27	24.38	-46.0	-47.4	19.5	0.00e+00	0	44	0	449839104	63	4276
2026-01-25 03:08:58.85	8.05	24.48	-45.8	-47.3	19.7	0.00e+00	0	44	0	450887680	63	4204
2026-01-25 03:08:59.86	7.83	24.58	-45.7	-47.1	19.8	0.00e+00	0	44	0	452984832	63	4134
2026-01-25 03:09:00.87	7.60	24.68	-45.9	-47.5	19.5	0.00e+00	0	44	0	455081984	63	4292
2026-01-25 03:09:01.88	7.37	24.78	-46.1	-47.7	19.3	0.00e+00	0	44	0	457179136	63	4422
2026-01-25 03:09:02.89	7.14	24.88	-46.3	-47.9	19.1	0.00e+00	0	44	0	458227712	63	4515
2026-01-25 03:09:03.89	6.91	24.98	-46.0	-47.5	19.4	0.00e+00	0	44	0	460324864	63	4336
2026-01-25 03:09:04.90	6.68	25.08	-46.0	-47.5	19.5	0.00e+00	0	44	0	462422016	63	4306
2026-01-25 03:09:05.91	6.45	25.18	-46.0	-47.6	19.5	0.00e+00	0	44	0	464519168	63	4341
2026-01-25 03:09:06.92	6.21	25.28	-46.0	-47.5	19.5	0.00e+00	0	44	0	466616320	63	4331
2026-01-25 03:09:07.93	5.98	25.38	-46.0	-47.5	19.5	0.00e+00	0	44	0	468713472	63	4337
2026-01-25 03:09:08.93	5.74	25.47	-46.1	-47.6	19.4	0.00e+00	0	44	0	469762048	63	4361
2026-01-25 03:09:09.94	5.50	25.57	-46.3	-47.8	19.2	0.00e+00	0	44	0	471859200	63	4490
2026-01-25 03:09:10.95	5.26	25.67	-46.4	-48.0	19.0	0.00e+00	0	44	0	473956352	63	4586
2026-01-25 03:09:11.96	5.02	25.77	-46.2	-47.8	19.3	0.00e+00	0	44	0	476053504	63	4442
2026-01-25 03:09:12.97	4.78	25.87	-45.8	-47.2	19.8	0.00e+00	0	44	0	478150656	63	4172
2026-01-25 03:09:13.97	4.53	25.96	-45.6	-47.0	20.0	0.00e+00	0	44	0	479199232	63	4073
2026-01-25 03:09:14.98	4.29	26.06	-45.6	-47.0	20.0	0.00e+00	0	44	0	481296384	62	4308
2026-01-25 03:09:15.99	4.04	26.16	-45.6	-46.9	20.0	0.00e+00	0	44	0	483393536	62	4276
2026-01-25 03:09:17.00	3.79	26.26	-45.6	-47.0	20.0	0.00e+00	0	44	0	485490688	62	4311
2026-01-25 03:09:18.01	3.53	26.35	-45.5	-46.8	20.1	0.00e+00	0	44	0	487587840	62	4242
2026-01-25 03:09:19.02	3.28	26.45	-45.0	-46.3	20.5	0.00e+00	0	44	0	488636416	62	3982
2026-01-25 03:09:20.03	3.03	26.54	-44.9	-46.2	20.7	0.00e+00	0	44	0	490733568	61	4160
2026-01-25 03:09:21.04	2.77	26.64	-44.4	-45.6	21.2	0.00e+00	0	44	0	492830720	60	4099
2026-01-25 03:09:22.04	2.52	26.73	-44.4	-45.6	21.1	0.00e+00	0	44	0	494927872	60	4130
2026-01-25 03:09:23.05	2.26	26.83	-44.6	-45.8	21.0	0.00e+00	0	44	0	497025024	60	4232
2026-01-25 03:09:24.06	1.99	26.92	-45.1	-46.4	20.5	0.00e+00	0	44	0	498073600	60	4545
2026-01-25 03:09:25.07	1.73	27.02	-45.1	-46.5	20.4	0.00e+00	0	44	0	500170752	60	4556
2026-01-25 03:09:26.08	1.47	27.11	-45.2	-46.5	20.3	0.00e+00	0	44	0	502267904	60	4594
2026-01-25 03:09:27.09	1.20	27.21	-45.2	-46.6	20.3	0.00e+00	0	44	0	504365056	61	4350
2026-01-25 03:09:28.09	0.94	27.30	-45.2	-46.5	20.4	0.00e+00	0	44	0	506462208	61	4305
2026-01-25 03:09:29.10	0.67	27.39	-45.6	-47.0	20.0	0.00e+00	0	44	0	508559360	61	4571
2026-01-25 03:09:30.11	0.40	27.49	-46.2	-47.8	19.3	0.00e+00	0	44	0	509607936	62	4733
2026-01-25 03:09:31.12	0.13	27.58	-46.6	-48.3	18.8	0.00e+00	0	44	0	511705088	63	4756
2026-01-25 03:09:32.13	359.85	27.67	-47.0	-48.9	18.2	0.00e+00	0	44	0	513802240	64	4778
2026-01-25 03:09:33.13	359.58	27.76	-47.2	-49.1	18.0	0.00e+00	0	44	0	515899392	64	4904
2026-01-25 03:09:34.14	359.30	27.85	-46.8	-48.5	18.5	0.00e+00	0	44	0	516947968	64	4572
2026-01-25 03:09:35.15	359.02	27.94	-46.5	-48.2	18.9	0.00e+00	0	44	0	519045120	64	4395
2026-01-25 03:09:36.16	358.74	28.03	-46.7	-48.4	18.7	0.00e+00	0	44	0	521142272	64	4498
2026-01-25 03:09:37.17	358.46	28.12	-46.6	-48.2	18.8	0.00e+00	0	44	0	523239424	64	4441
2026-01-25 03:09:38.18	358.18	28.21	-46.7	-48.4	18.7	0.00e+00	0	44	0	525336576	64	4516
2026-01-25 03:09:39.19	357.90	28.30	-46.5	-48.1	18.9	0.00e+00	0	44	0	526385152	64	4367
2026-01-25 03:09:40.19	357.61	28.39	-46.0	-47.5	19.5	0.00e+00	0	44	0	528482304	63	4332
2026-01-25 03:09:41.20	357.32	28.47	-45.9	-47.3	19.7	0.00e+00	0	44	0	530579456	63	4219
2026-01-25 03:09:42.21	357.03	28.56	-46.0	-47.4	19.6	0.00e+00	0	44	0	532676608	63	4288
2026-01-25 03:09:43.22	356.74	28.65	-46.2	-47.8	19.2	0.00e+00	0	44	0	534773760	63	4473
2026-01-25 03:09:44.23	356.45	28.73	-46.4	-48.1	19.0	0.00e+00	0	44	0	536870912	63	4600
2026-01-25 03:09:45.24	356.16	28.82	-46.7	-48.5	18.4	0.00e+00	0	44	0	537919488	64	4551
2026-01-25 03:09:46.25	355.86	28.90	-46.5	-48.2	18.7	0.00e+00	0	44	0	540016640	64	4429
2026-01-25 03:09:47.25	355.57	28.99	-46.6	-48.2	18.7	0.00e+00	0	44	0	542113792	64	4439
2026-01-25 03:09:48.26	355.27	29.07	-46.4	-48.1	18.9	0.00e+00	0	44	0	544210944	64	4357
2026-01-25 03:09:49.27	354.97	29.15	-47.0	-48.9	18.1	0.00e+00	0	44	0	545259520	64	4803
2026-01-25 03:09:50.28	354.66	29.24	-47.6	-49.8	17.4	0.00e+00	0	44	0	547356672	65	4989
2026-01-25 03:09:51.29	354.36	29.32	-48.3	-50.7	16.4	0.00e+00	0	44	0	549453824	67	4958
2026-01-25 03:09:52.30	354.06	29.40	-48.8	-51.4	15.9	0.00e+00	0	44	0	551550976	68	5075
2026-01-25 03:09:53.31	353.75	29.48	-48.9	-51.7	15.6	0.00e+00	0	44	0	553648128	68	5221
2026-01-25 03:09:54.32	353.44	29.56	-49.1	-52.0	15.3	0.00e+00	0	44	0	555745280	68	5452
2026-01-25 03:09:55.33	353.13	29.64	-48.7	-51.2	16.0	0.00e+00	0	44	0	556793856	68	4973
2026-01-25 03:09:56.33	352.82	29.71	-48.6	-51.1	16.2	0.00e+00	0	44	0	558891008	68	4879
2026-01-25 03:09:57.34	352.51	29.79	-48.3	-50.7	16.6	0.00e+00	0	44	0	560988160	68	4682
2026-01-25 03:09:58.35	352.19	29.87	-48.2	-50.4	16.8	0.00e+00	0	44	0	563085312	68	4543
2026-01-25 03:09:59.36	351.88	29.94	-47.5	-49.5	17.7	0.00e+00	0	44	0	565182464	67	4293
2026-01-25 03:10:00.36	351.56	30.02	-47.1	-48.9	18.2	0.00e+00	0	44	0	566231040	66	4254
2026-01-25 03:10:01.37	351.25	30.09	-46.6	-48.2	18.8	0.00e+00	0	44	0	568328192	65	4185
2026-01-25 03:10:02.38	350.93	30.17	-46.6	-48.3	18.7	0.00e+00	0	44	0	570425344	65	4199
2026-01-25 03:10:03.38	350.61	30.24	-47.2	-49.0	17.8	0.00e+00	0	44	0	572522496	65	4598
2026-01-25 03:10:04.39	350.28	30.31	-47.4	-49.4	17.6	0.00e+00	0	44	0	573571072	65	4782
2026-01-25 03:10:05.40	349.96	30.38	-47.1	-49.0	18.0	0.00e+00	0	44	0	575668224	65	4565
2026-01-25 03:10:06.41	349.63	30.45	-46.8	-48.6	18.3	0.00e+00	0	44	0	577765376	65	4374
2026-01-25 03:10:07.42	349.31	30.52	-46.8	-48.6	18.5	0.00e+00	0	44	0	579862528	65	4368
2026-01-25 03:10:08.43	348.98	30.59	-46.3	-47.9	19.1	0.00e+00	0	44	0	581959680	64	4281
2026-01-25 03:10:09.43	348.65	30.65	-46.4	-48.1	19.0	0.00e+00	0	44	0	584056832	64	4341
2026-01-25 03:10:10.44	348.32	30.72	-46.9	-48.7	18.3	0.00e+00	0	44	0	585105408	64	4662
2026-01-25 03:10:11.45	347.98	30.79	-47.1	-49.0	18.0	0.00e+00	0	44	0	587202560	64	4851
2026-01-25 03:10:12.46	347.65	30.85	-47.1	-49.1	17.9	0.00e+00	0	44	0	589299712	65	4605
2026-01-25 03:10:13.47	347.31	30.91	-47.0	-48.9	18.1	0.00e+00	0	44	0	591396864	65	4516
2026-01-25 03:10:14.48	346.98	30.98	-46.7	-48.4	18.6	0.00e+00	0	44	0	593494016	65	4278
2026-01-25 03:10:15.49	346.64	31.04	-46.5	-48.2	18.8	0.00e+00	0	44	0	594542592	64	4414
2026-01-25 03:10:16.49	346.30	31.10	-46.9	-48.7	18.4	0.00e+00	0	44	0	596639744	64	4673
2026-01-25 03:10:17.50	345.96	31.16	-47.2	-49.2	17.9	0.00e+00	0	44	0	598736896	65	4668
2026-01-25 03:10:18.51	345.62	31.22	-47.0	-48.8	18.3	0.00e+00	0	44	0	600834048	65	4475
2026-01-25 03:10:19.52	345.28	31.27	-46.8	-48.5	18.5	0.00e+00	0	44	0	602931200	65	4327
2026-01-25 03:10:20.53	344.93	31.33	-46.7	-48.4	18.7	0.00e+00	0	44	0	603979776	65	4246
2026-01-25 03:10:21.54	344.59	31.39	-46.6	-48.2	18.8	0.00e+00	0	44	0	606076928	64	4441
2026-01-25 03:10:22.55	344.24	31.44	-47.1	-49.0	18.1	0.00e+00	0	44	0	608174080	64	4831
2026-01-25 03:10:23.55	343.89	31.49	-47.7	-49.8	17.6	0.00e+00	0	44	0	610271232	66	4712
2026-01-25 03:10:24.56	343.54	31.55	-47.6	-49.7	17.5	0.00e+00	0	44	0	612368384	66	4653
2026-01-25 03:10:25.57	343.19	31.60	-47.2	-49.0	18.2	0.00e+00	0	44	0	613416960	66	4318
2026-01-25 03:10:26.58	342.84	31.65	-46.5	-48.1	18.9	0.00e+00	0	44	0	615514112	65	4132
2026-01-25 03:10:27.59	342.49	31.70	-45.9	-47.3	19.8	0.00e+00	0	44	0	617611264	63	4232
2026-01-25 03:10:28.60	342.14	31.74	-46.0	-47.5	19.7	0.00e+00	0	44	0	619708416	63	4317
2026-01-25 03:10:29.61	341.78	31.79	-46.3	-47.9	19.4	0.00e+00	0	44	0	621805568	63	4499
2026-01-25 03:10:30.61	341.43	31.83	-46.6	-48.3	18.9	0.00e+00	0	44	0	622854144	64	4444
2026-01-25 03:10:31.62	341.07	31.88	-46.5	-48.2	18.9	0.00e+00	0	44	0	624951296	64	4392
2026-01-25 03:10:32.63	340.71	31.92	-46.5	-48.2	19.0	0.00e+00	0	44	0	627048448	64	4400
2026-01-25 03:10:33.64	340.36	31.96	-46.3	-47.9	19.3	0.00e+00	0	44	0	629145600	64	4244
2026-01-25 03:10:34.65	340.00	32.00	-46.2	-47.7	19.5	0.00e+00	0	44	0	631242752	63	4438
2026-01-25 03:10:35.66	339.64	32.04	-46.0	-47.5	19.7	0.00e+00	0	44	0	632291328	63	4292
2026-01-25 03:10:36.67	339.27	32.08	-46.2	-47.8	19.4	0.00e+00	0	44	0	634388480	63	4472
2026-01-25 03:10:37.67	338.92	32.12	-46.2	-47.7	19.5	0.00e+00	0	44	0	636485632	63	4432
2026-01-25 03:10:38.68	338.55	32.15	-46.5	-48.1	19.0	0.00e+00	0	44	0	638582784	64	4383
2026-01-25 03:10:39.69	338.19	32.19	-46.4	-48.1	19.0	0.00e+00	0	44	0	640679936	64	4365
2026-01-25 03:10:40.69	337.83	32.22	-45.5	-46.9	20.2	0.00e+00	0	44	0	642777088	63	4035
2026-01-25 03:10:41.70	337.46	32.25	-45.2	-46.4	20.6	0.00e+00	0	44	0	643825664	62	4049
2026-01-25 03:10:42.71	337.10	32.28	-45.8	-47.2	20.1	0.00e+00	0	44	0	645922816	62	4393
2026-01-25 03:10:43.72	336.73	32.31	-46.4	-48.0	19.2	0.00e+00	0	44	0	648019968	63	4590
2026-01-25 03:10:44.72	336.37	32.34	-47.5	-49.5	17.8	0.00e+00	0	44	0	650117120	65	4859
2026-01-25 03:10:45.73	336.00	32.36	-48.0	-50.1	17.1	0.00e+00	0	44	0	651165696	66	4924
2026-01-25 03:10:46.74	335.63	32.39	-47.4	-49.2	18.0	0.00e+00	0	44	0	653262848	66	4438
2026-01-25 03:10:47.75	335.26	32.41	-46.9	-48.5	18.7	0.00e+00	0	44	0	655360000	65	4332
2026-01-25 03:10:48.76	334.89	32.44	-46.6	-48.2	19.0	0.00e+00	0	44	0	657457152	65	4168
2026-01-25 03:10:49.77	334.52	32.46	-46.6	-48.2	19.0	0.00e+00	0	44	0	659554304	64	4412
2026-01-25 03:10:50.77	334.15	32.48	-46.9	-48.6	18.7	0.00e+00	0	44	0	660602880	65	4353
2026-01-25 03:10:51.78	333.78	32.49	-47.4	-49.3	17.9	0.00e+00	0	44	0	662700032	65	4756
2026-01-25 03:10:52.79	333.41	32.51	-47.4	-49.3	17.9	0.00e+00	0	45	0	664797184	65	4743
2026-01-25 03:10:53.80	333.04	32.53	-47.0	-48.7	18.6	0.00e+00	0	44	0	666894336	65	4415
2026-01-25 03:10:54.81	332.67	32.54	-46.4	-47.9	19.3	0.00e+00	0	44	0	668991488	64	4265
2026-01-25 03:10:55.82	332.30	32.55	-45.9	-47.3	19.9	0.00e+00	0	44	0	671088640	63	4241
2026-01-25 03:10:56.83	331.92	32.57	-45.5	-46.8	20.4	0.00e+00	0	45	0	672137216	63	3984
2026-01-25 03:10:57.83	331.55	32.58	-45.9	-47.3	19.9	0.00e+00	0	44	0	674234368	63	4222
2026-01-25 03:10:58.84	331.18	32.59	-46.5	-48.0	19.2	0.00e+00	0	44	0	676331520	63	4585
2026-01-25 03:10:59.85	330.81	32.59	-46.9	-48.7	18.5	0.00e+00	0	44	0	678428672	64	4654
2026-01-25 03:11:00.86	330.43	32.60	-47.0	-48.7	18.6	0.00e+00	0	44	0	679477248	64	4676
2026-01-25 03:11:01.87	330.06	32.60	-47.0	-48.8	18.5	0.00e+00	0	44	0	681574400	64	4745
2026-01-25 03:11:02.87	329.69	32.61	-47.1	-48.9	18.4	0.00e+00	0	44	0	683671552	65	4509
2026-01-25 03:11:03.88	329.32	32.61	-47.3	-49.2	18.1	0.00e+00	0	44	0	685768704	65	4663
2026-01-25 03:11:04.89	328.94	32.61	-47.9	-49.9	17.4	0.00e+00	0	44	0	687865856	66	4796
2026-01-25 03:11:05.90	328.57	32.61	-48.0	-50.1	17.2	0.00e+00	0	44	0	689963008	66	4896
2026-01-25 03:11:06.91	328.19	32.61	-48.2	-50.5	16.9	0.00e+00	0	44	0	691011584	67	4826
2026-01-25 03:11:07.91	327.82	32.60	-48.0	-50.1	17.2	0.00e+00	0	44	0	693108736	67	4633
2026-01-25 03:11:08.92	327.45	32.60	-47.5	-49.5	17.6	0.00e+00	0	44	0	695205888	67	4310
2026-01-25 03:11:09.93	327.08	32.59	-47.0	-48.8	18.4	0.00e+00	0	44	0	697303040	66	4223
2026-01-25 03:11:10.94	326.70	32.58	-46.5	-48.1	19.0	0.00e+00	0	44	0	699400192	65	4140
2026-01-25 03:11:11.95	326.33	32.58	-46.3	-47.8	19.4	0.00e+00	0	44	0	700448768	64	4208
2026-01-25 03:11:12.95	325.96	32.57	-46.0	-47.4	19.8	0.00e+00	0	44	0	702545920	63	4286
2026-01-25 03:11:13.96	325.59	32.55	-46.1	-47.6	19.7	0.00e+00	0	44	0	704643072	63	4345
2026-01-25 03:11:14.97	325.21	32.54	-46.1	-47.6	19.6	0.00e+00	0	44	0	706740224	63	4367
2026-01-25 03:11:15.98	324.84	32.53	-46.4	-47.9	19.2	0.00e+00	0	44	0	707788800	64	4276
2026-01-25 03:11:16.99	324.47	32.51	-46.5	-48.1	19.1	0.00e+00	0	44	0	709885952	64	4341
2026-01-25 03:11:17.99	324.10	32.49	-47.1	-48.8	18.4	0.00e+00	0	44	0	711983104	64	4759
2026-01-25 03:11:19.00	323.73	32.47	-47.0	-48.8	18.5	0.00e+00	0	44	0	714080256	64	4729
2026-01-25 03:11:20.01	323.36	32.45	-47.3	-49.1	18.2	0.00e+00	0	44	0	716177408	65	4617
2026-01-25 03:11:21.02	322.99	32.43	-46.9	-48.6	18.7	0.00e+00	0	44	0	718274560	65	4370
2026-01-25 03:11:22.03	322.62	32.41	-47.2	-49.0	18.3	0.00e+00	0	44	0	719323136	65	4586
2026-01-25 03:11:23.03	322.26	32.39	-47.4	-49.2	18.1	0.00e+00	0	44	0	721420288	66	4412
2026-01-25 03:11:24.04	321.89	32.36	-47.8	-49.8	17.5	0.00e+00	0	44	0	723517440	66	4740
2026-01-25 03:11:25.05	321.52	32.34	-47.3	-49.2	18.1	0.00e+00	0	44	0	725614592	66	4400
2026-01-25 03:11:26.05	321.16	32.31	-47.1	-48.9	18.3	0.00e+00	0	44	0	727711744	65	4539
2026-01-25 03:11:27.06	320.79	32.28	-46.9	-48.6	18.6	0.00e+00	0	45	0	728760320	65	4375
2026-01-25 03:11:28.07	320.42	32.25	-46.5	-48.1	19.1	0.00e+00	0	44	0	730857472	64	4389
2026-01-25 03:11:29.08	320.06	32.22	-46.3	-47.8	19.4	0.00e+00	0	44	0	732954624	64	4239
2026-01-25 03:11:30.09	319.69	32.18	-46.3	-47.8	19.3	0.00e+00	0	44	0	735051776	64	4232
2026-01-25 03:11:31.09	319.33	32.15	-46.5	-48.1	19.1	0.00e+00	0	44	0	736100352	64	4368
2026-01-25 03:11:32.10	318.97	32.11	-46.9	-48.7	18.6	0.00e+00	0	44	0	738197504	64	4654
2026-01-25 03:11:33.11	318.61	32.08	-46.9	-48.7	18.5	0.00e+00	0	44	0	740294656	64	4669
2026-01-25 03:11:34.12	318.25	32.04	-47.0	-48.7	18.5	0.00e+00	0	44	0	742391808	64	4704
2026-01-25 03:11:35.13	317.88	32.00	-46.7	-48.4	18.8	0.00e+00	0	44	0	744488960	64	4509
2026-01-25 03:11:36.13	317.53	31.96	-46.2	-47.7	19.3	0.00e+00	0	44	0	746586112	64	4186
2026-01-25 03:11:37.14	317.17	31.92	-46.2	-47.7	19.4	0.00e+00	0	44	0	747634688	64	4168
2026-01-25 03:11:38.15	316.81	31.87	-46.1	-47.6	19.5	0.00e+00	0	44	0	749731840	64	4112
2026-01-25 03:11:39.16	316.46	31.83	-46.0	-47.5	19.7	0.00e+00	0	44	0	751828992	63	4314
2026-01-25 03:11:40.17	316.10	31.79	-46.2	-47.7	19.5	0.00e+00	0	44	0	753926144	63	4416
2026-01-25 03:11:41.17	315.75	31.74	-46.7	-48.4	18.8	0.00e+00	0	44	0	756023296	63	4771
2026-01-25 03:11:42.18	315.39	31.69	-47.0	-48.8	18.4	0.00e+00	0	44	0	757071872	64	4726
2026-01-25 03:11:43.19	315.04	31.64	-47.0	-48.8	18.4	0.00e+00	0	44	0	759169024	65	4476
2026-01-25 03:11:44.20	314.69	31.59	-46.7	-48.4	18.9	0.00e+00	0	44	0	761266176	65	4247
2026-01-25 03:11:45.21	314.34	31.54	-46.4	-48.0	19.2	0.00e+00	0	44	0	763363328	64	4293
2026-01-25 03:11:46.21	313.99	31.49	-46.2	-47.8	19.4	0.00e+00	0	44	0	765460480	64	4216
2026-01-25 03:11:47.22	313.64	31.44	-46.5	-48.1	19.0	0.00e+00	0	44	0	766509056	64	4391
2026-01-25 03:11:48.23	313.30	31.38	-46.6	-48.3	18.9	0.00e+00	0	44	0	768606208	64	4483
2026-01-25 03:11:49.24	312.95	31.33	-47.0	-48.8	18.5	0.00e+00	0	44	0	770703360	64	4746
2026-01-25 03:11:50.24	312.61	31.27	-46.7	-48.4	18.8	0.00e+00	0	44	0	772800512	64	4496
2026-01-25 03:11:51.25	312.27	31.21	-46.7	-48.4	18.8	0.00e+00	0	44	0	774897664	64	4498
2026-01-25 03:11:52.26	311.92	31.15	-46.3	-47.9	19.2	0.00e+00	0	44	0	775946240	64	4257
2026-01-25 03:11:53.27	311.58	31.09	-46.4	-48.0	19.1	0.00e+00	0	44	0	778043392	64	4315
2026-01-25 03:11:54.28	311.24	31.03	-46.1	-47.6	19.6	0.00e+00	0	44	0	780140544	63	4361
2026-01-25 03:11:55.29	310.90	30.97	-46.0	-47.5	19.7	0.00e+00	0	44	0	782237696	63	4295
2026-01-25 03:11:56.29	310.57	30.91	-46.1	-47.6	19.6	0.00e+00	0	44	0	784334848	63	4381
2026-01-25 03:11:57.30	310.23	30.85	-46.3	-47.8	19.4	0.00e+00	0	44	0	786432000	63	4469
2026-01-25 03:11:58.31	309.90	30.78	-46.2	-47.8	19.5	0.00e+00	0	44	0	787480576	63	4443
2026-01-25 03:11:59.32	309.57	30.72	-46.3	-47.9	19.3	0.00e+00	0	44	0	789577728	63	4507
2026-01-25 03:12:00.33	309.23	30.65	-46.4	-48.0	19.2	0.00e+00	0	44	0	791674880	64	4315
2026-01-25 03:12:01.33	308.91	30.58	-46.7	-48.4	18.8	0.00e+00	0	44	0	793772032	64	4538
2026-01-25 03:12:02.34	308.58	30.51	-47.1	-48.9	18.3	0.00e+00	0	44	0	794820608	65	4545
2026-01-25 03:12:03.35	308.25	30.44	-47.8	-49.8	17.4	0.00e+00	0	44	0	796917760	66	4741
2026-01-25 03:12:04.36	307.92	30.37	-48.0	-50.0	17.2	0.00e+00	0	44	0	799014912	66	4868
2026-01-25 03:12:05.37	307.60	30.30	-47.6	-49.6	17.7	0.00e+00	0	44	0	801112064	66	4604
2026-01-25 03:12:06.37	307.28	30.23	-47.6	-49.5	17.6	0.00e+00	0	44	0	803209216	66	4595
2026-01-25 03:12:07.38	306.96	30.16	-47.7	-49.7	17.5	0.00e+00	0	44	0	804257792	66	4652
2026-01-25 03:12:08.39	306.64	30.09	-47.7	-49.7	17.5	0.00e+00	0	44	0	806354944	66	4668
2026-01-25 03:12:09.40	306.32	30.01	-47.6	-49.5	17.7	0.00e+00	0	44	0	808452096	66	4591
2026-01-25 03:12:10.40	306.00	29.94	-47.7	-49.7	17.6	0.00e+00	0	44	0	810549248	66	4663
2026-01-25 03:12:11.41	305.69	29.86	-47.6	-49.6	17.7	0.00e+00	0	44	0	812646400	66	4604
2026-01-25 03:12:12.42	305.37	29.78	-47.4	-49.3	17.9	0.00e+00	0	44	0	814743552	66	4457
2026-01-25 03:12:13.43	305.06	29.71	-47.0	-48.8	18.4	0.00e+00	0	44	0	815792128	65	4456
2026-01-25 03:12:14.44	304.75	29.63	-46.9	-48.6	18.5	0.00e+00	0	44	0	817889280	65	4388
2026-01-25 03:12:15.45	304.44	29.55	-47.1	-48.8	18.4	0.00e+00	0	44	0	819986432	65	4475
2026-01-25 03:12:16.45	304.13	29.47	-47.6	-49.7	17.5	0.00e+00	0	44	0	822083584	65	4929
2026-01-25 03:12:17.46	303.82	29.39	-47.6	-49.6	17.5	0.00e+00	0	44	0	823132160	65	4922
2026-01-25 03:12:18.47	303.52	29.31	-47.8	-49.9	17.3	0.00e+00	0	44	0	825229312	66	4804
2026-01-25 03:12:19.48	303.22	29.23	-47.1	-48.9	18.2	0.00e+00	0	44	0	827326464	66	4274
2026-01-25 03:12:20.49	302.91	29.15	-47.0	-48.8	18.3	0.00e+00	0	44	0	829423616	65	4460
2026-01-25 03:12:21.50	302.61	29.06	-46.3	-47.9	19.2	0.00e+00	0	44	0	831520768	64	4265
2026-01-25 03:12:22.51	302.31	28.98	-46.0	-47.5	19.6	0.00e+00	0	44	0	833617920	64	4066
2026-01-25 03:12:23.50	302.02	28.90	-45.6	-46.9	20.1	0.00e+00	0	44	0	834666496	63	4038
2026-01-25 03:12:24.50	301.73	28.81	-45.0	-46.3	20.8	0.00e+00	0	44	0	836763648	61	4213
2026-01-25 03:12:25.50	301.44	28.73	-44.9	-46.2	20.8	0.00e+00	0	44	0	838860800	61	4159
2026-01-25 03:12:26.51	301.14	28.64	-45.1	-46.5	20.5	0.00e+00	0	44	0	840957952	61	4295
2026-01-25 03:12:27.51	300.85	28.56	-44.9	-46.1	20.9	0.00e+00	0	45	0	843055104	61	4123
2026-01-25 03:12:28.52	300.56	28.47	-44.9	-46.1	20.8	0.00e+00	0	44	0	844103680	61	4144
2026-01-25 03:12:29.53	300.28	28.38	-45.3	-46.6	20.4	0.00e+00	0	44	0	846200832	61	4390
2026-01-25 03:12:30.53	299.99	28.29	-45.9	-47.4	19.7	0.00e+00	0	44	0	848297984	62	4514
2026-01-25 03:12:31.54	299.71	28.20	-46.6	-48.2	18.8	0.00e+00	0	45	0	850395136	64	4431
2026-01-25 03:12:32.54	299.43	28.12	-46.9	-48.6	18.5	0.00e+00	0	44	0	851443712	64	4620
2026-01-25 03:12:33.55	299.14	28.03	-46.6	-48.3	18.8	0.00e+00	0	45	0	853540864	64	4445
2026-01-25 03:12:34.56	298.86	27.94	-46.0	-47.4	19.7	0.00e+00	0	44	0	855638016	63	4263
2026-01-25 03:12:35.56	298.59	27.85	-45.3	-46.6	20.4	0.00e+00	0	44	0	857735168	62	4127
2026-01-25 03:12:36.57	298.31	27.76	-45.7	-47.0	20.1	0.00e+00	0	44	0	859832320	62	4328
2026-01-25 03:12:37.57	298.04	27.66	-46.6	-48.3	18.9	0.00e+00	0	44	0	860880896	64	4476
2026-01-25 03:12:38.58	297.76	27.57	-47.6	-49.6	17.7	0.00e+00	0	44	0	862978048	65	4886
2026-01-25 03:12:39.58	297.49	27.48	-48.0	-50.2	17.0	0.00e+00	0	44	0	865075200	66	4973
2026-01-25 03:12:40.58	297.23	27.39	-48.0	-50.1	17.2	0.00e+00	0	44	0	867172352	66	4889
2026-01-25 03:12:41.59	296.96	27.30	-47.9	-50.0	17.2	0.00e+00	0	45	0	869269504	66	4842
2026-01-25 03:12:42.59	296.69	27.20	-47.1	-48.9	18.3	0.00e+00	0	44	0	871366656	66	4265
2026-01-25 03:12:43.60	296.43	27.11	-47.1	-48.9	18.3	0.00e+00	0	44	0	872415232	66	4280
2026-01-25 03:12:44.61	296.16	27.02	-46.8	-48.5	18.7	0.00e+00	0	44	0	874512384	65	4316
2026-01-25 03:12:45.61	295.90	26.92	-46.2	-47.8	19.3	0.00e+00	0	44	0	876609536	64	4203
2026-01-25 03:12:46.62	295.64	26.83	-46.0	-47.4	19.3	0.00e+00	0	44	0	878706688	63	4277
2026-01-25 03:12:47.63	295.38	26.73	-46.1	-47.6	19.6	0.00e+00	0	45	0	879755264	63	4376
2026-01-25 03:12:48.64	295.12	26.64	-46.4	-47.9	19.3	0.00e+00	0	44	0	881852416	63	4536
2026-01-25 03:12:49.65	294.86	26.54	-45.9	-47.3	19.8	0.00e+00	0	44	0	883949568	63	4238
2026-01-25 03:12:50.66	294.61	26.44	-45.3	-46.5	20.5	0.00e+00	0	44	0	886046720	62	4098
2026-01-25 03:12:51.66	294.36	26.35	-45.3	-46.5	20.5	0.00e+00	0	45	0	888143872	62	4088
2026-01-25 03:12:52.67	294.11	26.25	-45.0	-46.2	20.8	0.00e+00	0	45	0	889192448	61	4156
2026-01-25 03:12:53.68	293.86	26.15	-44.8	-45.9	21.1	0.00e+00	0	44	0	891289600	61	4050
2026-01-25 03:12:54.69	293.61	26.06	-44.9	-46.2	20.9	0.00e+00	0	44	0	893386752	61	4147
2026-01-25 03:12:55.70	293.36	25.96	-45.2	-46.4	20.6	0.00e+00	0	44	0	895483904	61	4276
2026-01-25 03:12:56.71	293.11	25.86	-45.1	-46.3	20.7	0.00e+00	0	44	0	897581056	61	4235
2026-01-25 03:12:57.72	292.87	25.76	-45.1	-46.4	20.7	0.00e+00	0	45	0	899678208	61	4279
2026-01-25 03:12:58.73	292.63	25.66	-45.4	-46.7	20.4	0.00e+00	0	44	0	900726784	61	4416
2026-01-25 03:12:59.73	292.39	25.57	-45.4	-46.8	20.3	0.00e+00	0	44	0	902823936	61	4453
2026-01-25 03:13:00.74	292.15	25.47	-45.7	-47.1	20.0	0.00e+00	0	44	0	904921088	62	4351
2026-01-25 03:13:01.75	291.91	25.37	-45.8	-47.3	19.9	0.00e+00	0	45	0	907018240	62	4467
2026-01-25 03:13:02.75	291.67	25.27	-46.0	-47.5	19.6	0.00e+00	0	45	0	908066816	62	4590
2026-01-25 03:13:03.77	291.44	25.17	-46.0	-47.5	19.7	0.00e+00	0	45	0	910163968	62	4566
2026-01-25 03:13:04.77	291.21	25.07	-45.6	-47.0	20.1	0.00e+00	0	44	0	912261120	62	4330
2026-01-25 03:13:05.78	290.97	24.97	-45.5	-46.9	20.2	0.00e+00	0	44	0	914358272	62	4285
2026-01-25 03:13:06.79	290.74	24.87	-45.7	-47.2	20.0	0.00e+00	0	45	0	916455424	62	4392
2026-01-25 03:13:07.80	290.51	24.78	-45.5	-46.9	20.2	0.00e+00	0	44	0	918552576	62	4256
2026-01-25 03:13:08.81	290.28	24.68	-45.4	-46.8	20.3	0.00e+00	0	45	0	919601152	62	4229
2026-01-25 03:13:09.82	290.06	24.58	-45.4	-46.7	20.4	0.00e+00	0	45	0	921698304	62	4188
2026-01-25 03:13:10.83	289.83	24.48	-45.4	-46.8	20.3	0.00e+00	0	44	0	923795456	62	4206
2026-01-25 03:13:11.83	289.61	24.38	-45.3	-46.6	20.5	0.00e+00	0	45	0	925892608	62	4126
2026-01-25 03:13:12.84	289.39	24.28	-45.0	-46.3	20.7	0.00e+00	0	45	0	927989760	62	4001
2026-01-25 03:13:13.85	289.17	24.18	-45.0	-46.3	20.7	0.00e+00	0	45	0	929038336	61	4235
2026-01-25 03:13:14.86	288.95	24.08	-44.6	-45.8	21.2	0.00e+00	0	45	0	931135488	61	3991
2026-01-25 03:13:15.87	288.73	23.97	-44.4	-45.6	21.3	0.00e+00	0	45	0	933232640	60	4115
2026-01-25 03:13:16.87	288.52	23.88	-44.4	-45.5	21.7	0.00e+00	0	44	0	935329792	59	4312
2026-01-25 03:13:17.88	288.30	23.77	-43.8	-44.8	22.2	0.00e+00	0	45	0	936378368	59	3994
2026-01-25 03:13:18.89	288.09	23.67	-43.6	-44.6	22.4	0.00e+00	0	45	0	938475520	59	3899
2026-01-25 03:13:19.90	287.88	23.57	-43.8	-44.9	22.3	0.00e+00	0	44	0	940572672	59	4017
2026-01-25 03:13:20.91	287.66	23.47	-44.2	-45.3	21.8	0.00e+00	0	45	0	942669824	59	4215
2026-01-25 03:13:21.91	287.46	23.37	-44.5	-45.7	21.5	0.00e+00	0	45	0	944766976	59	4422
2026-01-25 03:13:22.92	287.25	23.27	-44.6	-45.8	21.1	0.00e+00	0	45	0	946864128	60	4226
2026-01-25 03:13:23.93	287.04	23.17	-44.7	-46.0	21.0	0.00e+00	0	45	0	947912704	60	4307
2026-01-25 03:13:24.94	286.84	23.07	-44.7	-45.9	21.1	0.00e+00	0	45	0	950009856	60	4271
2026-01-25 03:13:25.94	286.63	22.97	-44.7	-45.9	21.0	0.00e+00	0	44	0	952107008	60	4275
2026-01-25 03:13:26.95	286.43	22.87	-44.4	-45.6	21.3	0.00e+00	0	45	0	954204160	60	4121
2026-01-25 03:13:27.96	286.23	22.77	-44.2	-45.4	21.5	0.00e+00	0	45	0	956301312	60	4005
2026-01-25 03:13:28.97	286.03	22.67	-44.3	-45.5	21.3	0.00e+00	0	45	0	957349888	60	4072
2026-01-25 03:13:29.98	285.83	22.57	-44.5	-45.7	21.2	0.00e+00	0	45	0	959447040	60	4178
2026-01-25 03:13:30.99	285.63	22.47	-44.8	-46.1	20.9	0.00e+00	0	45	0	961544192	60	4347
2026-01-25 03:13:32.00	285.44	22.37	-44.8	-46.0	20.9	0.00e+00	0	45	0	963641344	60	4318
2026-01-25 03:13:33.00	285.24	22.27	-44.8	-46.1	20.9	0.00e+00	0	45	0	965738496	60	4350
2026-01-25 03:13:34.01	285.05	22.17	-44.8	-46.1	20.9	0.00e+00	0	44	0	966787072	60	4342
2026-01-25 03:13:35.02	284.86	22.07	-44.8	-46.0	20.9	0.00e+00	0	45	0	968884224	60	4323
2026-01-25 03:13:36.03	284.66	21.96	-44.9	-46.1	20.8	0.00e+00	0	44	0	970981376	60	4368
2026-01-25 03:13:37.04	284.47	21.86	-45.1	-46.3	20.6	0.00e+00	0	45	0	973078528	60	4491
2026-01-25 03:13:38.05	284.29	21.76	-44.9	-46.2	20.7	0.00e+00	0	45	0	975175680	60	4411
2026-01-25 03:13:39.06	284.10	21.66	-44.7	-46.0	20.9	0.00e+00	0	45	0	976224256	60	4306
2026-01-25 03:13:40.07	283.91	21.56	-44.8	-46.0	20.9	0.00e+00	0	45	0	978321408	60	4311
2026-01-25 03:13:41.07	283.73	21.46	-44.3	-45.4	21.4	0.00e+00	0	44	0	980418560	60	4034
2026-01-25 03:13:42.08	283.54	21.36	-44.1	-45.2	21.6	0.00e+00	0	44	0	982515712	60	3939
2026-01-25 03:13:43.09	283.36	21.26	-44.0	-45.1	21.7	0.00e+00	0	44	0	984612864	60	3895
2026-01-25 03:13:44.10	283.18	21.16	-44.6	-45.8	21.4	0.00e+00	0	45	0	985661440	59	4444
2026-01-25 03:13:45.11	283.00	21.06	-44.5	-45.7	21.5	0.00e+00	0	45	0	987758592	59	4394
2026-01-25 03:13:46.11	282.82	20.96	-44.3	-45.5	21.0	0.00e+00	0	44	0	989855744	60	4069
2026-01-25 03:13:47.12	282.64	20.87	-44.7	-46.0	20.9	0.00e+00	0	45	0	991952896	60	4292
2026-01-25 03:13:48.13	282.47	20.77	-44.9	-46.2	20.7	0.00e+00	0	45	0	994050048	60	4408
2026-01-25 03:13:49.14	282.29	20.67	-45.0	-46.3	20.6	0.00e+00	0	44	0	995098624	60	4472
2026-01-25 03:13:50.15	282.12	20.57	-44.9	-46.2	20.7	0.00e+00	0	45	0	997195776	60	4426
2026-01-25 03:13:51.15	281.95	20.47	-45.0	-46.3	20.6	0.00e+00	0	44	0	999292928	60	4446
2026-01-25 03:13:52.16	281.77	20.37	-44.5	-45.6	21.2	0.00e+00	0	45	0	1001390080	60	4143
2026-01-25 03:13:53.17	281.60	20.27	-44.5	-45.7	21.1	0.00e+00	0	45	0	1003487232	60	4175
2026-01-25 03:13:54.18	281.43	20.17	-44.4	-45.5	21.4	0.00e+00	0	44	0	1004535808	60	4077
2026-01-25 03:13:55.18	281.26	20.07	-44.1	-45.2	21.5	0.00e+00	0	45	0	1006632960	60	3942
2026-01-25 03:13:56.19	281.10	19.97	-44.3	-45.5	21.6	0.00e+00	0	44	0	1008730112	59	4307
2026-01-25 03:13:57.20	280.93	19.88	-44.3	-45.5	21.6	0.00e+00	0	44	0	1010827264	59	4294
2026-01-25 03:13:58.21	280.76	19.78	-44.3	-45.5	21.6	0.00e+00	0	45	0	1012924416	59	4301
2026-01-25 03:13:59.22	280.60	19.68	-44.6	-45.7	21.4	0.00e+00	0	44	0	1013972992	59	4438
2026-01-25 03:14:00.23	280.44	19.58	-44.6	-45.8	21.1	0.00e+00	0	45	0	1016070144	60	4227
2026-01-25 03:14:01.24	280.27	19.48	-44.9	-46.1	20.8	0.00e+00	0	45	0	1018167296	60	4380
2026-01-25 03:14:02.25	280.11	19.39	-45.1	-46.4	20.4	0.00e+00	0	44	0	1020264448	61	4266
2026-01-25 03:14:03.26	279.95	19.29	-45.5	-46.9	20.1	0.00e+00	0	45	0	1022361600	61	4520
2026-01-25 03:14:04.26	279.79	19.19	-45.9	-47.3	19.7	0.00e+00	0	45	0	1023410176	62	4469
2026-01-25 03:14:05.27	279.64	19.09	-46.1	-47.6	19.4	0.00e+00	0	45	0	1025507328	62	4605
2026-01-25 03:14:06.28	279.48	19.00	-46.2	-47.8	19.2	0.00e+00	0	45	0	1027604480	63	4463
2026-01-25 03:14:07.29	279.32	18.90	-46.3	-47.8	19.2	0.00e+00	0	44	0	1029701632	63	4490
2026-01-25 03:14:08.30	279.17	18.80	-45.8	-47.2	19.8	0.00e+00	0	45	0	1031798784	63	4167
2026-01-25 03:14:09.31	279.01	18.71	-45.6	-47.0	20.0	0.00e+00	0	45	0	1033895936	63	4063
2026-01-25 03:14:10.31	278.86	18.61	-45.2	-46.5	20.3	0.00e+00	0	45	0	1034944512	62	4087
2026-01-25 03:14:11.32	278.71	18.51	-45.1	-46.5	20.4	0.00e+00	0	44	0	1037041664	62	4052
2026-01-25 03:14:12.33	278.56	18.42	-44.9	-46.2	20.6	0.00e+00	0	45	0	1039138816	61	4172
2026-01-25 03:14:13.33	278.41	18.32	-45.2	-46.5	20.3	0.00e+00	0	45	0	1041235968	61	4327
2026-01-25 03:14:14.34	278.26	18.23	-45.2	-46.5	20.3	0.00e+00	0	44	0	1042284544	61	4319
2026-01-25 03:14:15.35	278.11	18.13	-45.4	-46.8	20.1	0.00e+00	0	45	0	1044381696	61	4447
2026-01-25 03:14:16.36	277.96	18.03	-45.8	-47.2	19.7	0.00e+00	0	45	0	1046478848	62	4429
2026-01-25 03:14:17.37	277.82	17.94	-46.0	-47.5	19.4	0.00e+00	0	45	0	1048576000	62	4577
2026-01-25 03:14:18.37	277.67	17.84	-45.9	-47.4	19.5	0.00e+00	0	45	0	1050673152	62	4520
2026-01-25 03:14:19.38	277.53	17.75	-45.9	-47.4	19.5	0.00e+00	0	45	0	1051721728	62	4523
2026-01-25 03:14:20.39	277.38	17.65	-45.9	-47.4	19.5	0.00e+00	0	45	0	1053818880	62	4508
2026-01-25 03:14:21.40	277.24	17.56	-45.3	-46.7	20.1	0.00e+00	0	45	0	1055916032	62	4176
2026-01-25 03:14:22.41	277.10	17.47	-45.3	-46.7	20.2	0.00e+00	0	45	0	1058013184	62	4149
2026-01-25 03:14:23.42	276.96	17.37	-45.1	-46.4	20.4	0.00e+00	0	45	0	1060110336	62	4021
2026-01-25 03:14:24.43	276.82	17.28	-44.9	-46.2	20.6	0.00e+00	0	45	0	1062207488	61	4158
2026-01-25 03:14:25.43	276.68	17.18	-44.7	-46.0	20.7	0.00e+00	0	44	0	1063256064	61	4077
2026-01-25 03:14:26.44	276.54	17.09	-44.7	-46.0	20.7	0.00e+00	0	44	0	1065353216	61	4083
2026-01-25 03:14:27.45	276.40	17.00	-44.6	-45.8	20.9	0.00e+00	0	44	0	1067450368	61	3978
2026-01-25 03:14:28.46	276.27	16.90	-44.7	-46.0	20.8	0.00e+00	0	44	0	1069547520	61	4064
2026-01-25 03:14:29.47	276.13	16.81	-45.0	-46.3	20.5	0.00e+00	0	44	0	1070596096	61	4223
2026-01-25 03:14:30.48	276.00	16.72	-44.8	-46.1	20.7	0.00e+00	0	44	0	1072693248	61	4123
2026-01-25 03:14:31.49	275.86	16.62	-45.0	-46.3	20.5	0.00e+00	0	44	0	1074790400	61	4195
2026-01-25 03:14:32.49	275.73	16.53	-45.1	-46.4	20.4	0.00e+00	0	44	0	1076887552	61	4284
2026-01-25 03:14:33.50	275.60	16.44	-45.2	-46.5	20.3	0.00e+00	0	45	0	1078984704	61	4301
2026-01-25 03:14:34.51	275.47	16.35	-45.2	-46.5	20.3	0.00e+00	0	45	0	1081081856	61	4300
2026-01-25 03:14:35.52	275.34	16.25	-45.3	-46.7	20.1	0.00e+00	0	45	0	1082130432	61	4401
2026-01-25 03:14:36.53	275.21	16.16	-45.3	-46.6	20.2	0.00e+00	0	44	0	1084227584	61	4363
2026-01-25 03:14:37.53	275.08	16.07	-45.1	-46.3	20.4	0.00e+00	0	45	0	1086324736	61	4241
2026-01-25 03:14:38.54	274.95	15.98	-44.9	-46.2	20.6	0.00e+00	0	45	0	1088421888	61	4156
2026-01-25 03:14:39.55	274.82	15.89	-44.7	-45.9	20.8	0.00e+00	0	45	0	1090519040	61	4049
2026-01-25 03:14:40.56	274.69	15.80	-44.6	-45.8	20.9	0.00e+00	0	44	0	1091567616	61	3996
2026-01-25 03:14:41.57	274.57	15.71	-44.5	-45.7	21.0	0.00e+00	0	45	0	1093664768	60	4173
2026-01-25 03:14:42.58	274.44	15.62	-44.6	-45.8	20.9	0.00e+00	0	44	0	1095761920	60	4237
2026-01-25 03:14:43.59	274.32	15.53	-44.7	-46.0	20.7	0.00e+00	0	44	0	1097859072	60	4305
2026-01-25 03:14:44.60	274.20	15.43	-45.0	-46.3	20.5	0.00e+00	0	45	0	1099956224	60	4468
2026-01-25 03:14:45.60	274.07	15.35	-45.5	-46.9	19.9	0.00e+00	0	45	0	1101004800	61	4532
2026-01-25 03:14:46.61	273.95	15.26	-45.8	-47.2	19.6	0.00e+00	0	45	0	1103101952	62	4424
2026-01-25 03:14:47.62	273.83	15.17	-46.3	-47.9	18.9	0.00e+00	0	45	0	1105199104	63	4539
2026-01-25 03:14:48.63	273.71	15.08	-46.7	-48.4	18.4	0.00e+00	0	45	0	1107296256	64	4514
2026-01-25 03:14:49.64	273.59	14.99	-46.9	-48.7	18.1	0.00e+00	0	45	0	1109393408	64	4696
2026-01-25 03:14:50.65	273.47	14.90	-47.2	-49.2	17.7	0.00e+00	0	45	0	1110441984	65	4653
2026-01-25 03:14:51.65	273.35	14.81	-46.9	-48.7	18.1	0.00e+00	0	45	0	1112539136	65	4432
2026-01-25 03:14:52.66	273.24	14.72	-46.4	-48.0	18.7	0.00e+00	0	44	0	1114636288	64	4334
2026-01-25 03:14:53.67	273.12	14.63	-46.1	-47.6	19.2	0.00e+00	0	45	0	1116733440	63	4377
2026-01-25 03:14:54.68	273.00	14.54	-45.7	-47.1	19.7	0.00e+00	0	45	0	1118830592	63	4116
2026-01-25 03:14:55.69	272.89	14.46	-45.2	-46.5	20.2	0.00e+00	0	45	0	1119879168	62	4061
2026-01-25 03:14:56.69	272.77	14.37	-44.8	-46.0	20.6	0.00e+00	0	45	0	1121976320	61	4085
2026-01-25 03:14:57.70	272.66	14.28	-44.6	-45.8	20.9	0.00e+00	0	45	0	1124073472	61	3974
2026-01-25 03:14:58.71	272.55	14.19	-44.6	-45.8	20.9	0.00e+00	0	45	0	1126170624	61	3982
2026-01-25 03:14:59.72	272.43	14.11	-44.5	-45.8	20.8	0.00e+00	0	45	0	1128267776	60	4201
2026-01-25 03:15:00.72	272.32	14.02	-44.7	-46.0	20.7	0.00e+00	0	45	0	1129316352	60	4302
2026-01-25 03:15:01.73	272.21	13.93	-45.0	-46.4	20.3	0.00e+00	0	45	0	1131413504	60	4510
2026-01-25 03:15:02.74	272.10	13.85	-45.2	-46.6	20.1	0.00e+00	0	45	0	1133510656	61	4359
2026-01-25 03:15:03.75	271.99	13.76	-45.7	-47.0	19.8	0.00e+00	0	44	0	1135607808	61	4598
2026-01-25 03:15:04.75	271.88	13.67	-46.1	-47.6	19.3	0.00e+00	0	45	0	1137704960	62	4638
2026-01-25 03:15:05.76	271.77	13.59	-46.4	-48.0	18.9	0.00e+00	0	45	0	1138753536	63	4569
2026-01-25 03:15:06.77	271.66	13.50	-46.8	-48.6	18.3	0.00e+00	0	45	0	1140850688	64	4617
2026-01-25 03:15:07.78	271.56	13.42	-47.1	-48.9	18.0	0.00e+00	0	45	0	1142947840	64	4775
2026-01-25 03:15:08.79	271.45	13.33	-47.1	-48.9	17.9	0.00e+00	0	45	0	1145044992	64	4813
2026-01-25 03:15:09.80	271.34	13.24	-47.1	-48.9	18.0	0.00e+00	0	45	0	1147142144	65	4495
2026-01-25 03:15:10.81	271.24	13.16	-47.1	-48.9	17.9	0.00e+00	0	45	0	1149239296	65	4533
2026-01-25 03:15:11.81	271.13	13.07	-47.3	-49.2	17.6	0.00e+00	0	45	0	1150287872	65	4664
2026-01-25 03:15:12.82	271.03	12.99	-47.4	-49.3	17.5	0.00e+00	0	45	0	1152385024	65	4750
2026-01-25 03:15:13.83	270.92	12.91	-47.4	-49.4	17.5	0.00e+00	0	45	0	1154482176	65	4764
2026-01-25 03:15:14.84	270.82	12.82	-47.3	-49.2	17.6	0.00e+00	0	45	0	1156579328	65	4661
2026-01-25 03:15:15.84	270.72	12.74	-47.0	-48.8	18.0	0.00e+00	0	45	0	1157627904	65	4464
2026-01-25 03:15:16.85	270.62	12.65	-47.0	-48.8	18.0	0.00e+00	0	45	0	1159725056	65	4451
2026-01-25 03:15:17.86	270.52	12.57	-47.0	-48.7	18.1	0.00e+00	0	45	0	1161822208	65	4424
2026-01-25 03:15:18.87	270.42	12.49	-46.9	-48.6	18.1	0.00e+00	0	45	0	1163919360	65	4378
2026-01-25 03:15:19.88	270.32	12.40	-47.0	-48.7	18.0	0.00e+00	0	45	0	1166016512	65	4421
2026-01-25 03:15:20.89	270.22	12.32	-46.9	-48.6	18.2	0.00e+00	0	45	0	1167065088	65	4364
2026-01-25 03:15:21.89	270.12	12.24	-46.8	-48.4	18.3	0.00e+00	0	45	0	1169162240	65	4282
2026-01-25 03:15:22.90	270.02	12.15	-46.8	-48.4	18.3	0.00e+00	0	45	0	1171259392	65	4291
2026-01-25 03:15:23.91	269.92	12.07	-46.9	-48.6	18.2	0.00e+00	0	45	0	1173356544	65	4346
2026-01-25 03:15:24.92	269.82	11.99	-46.7	-48.4	18.3	0.00e+00	0	45	0	1175453696	65	4270
2026-01-25 03:15:25.92	269.73	11.91	-47.0	-48.7	18.0	0.00e+00	0	45	0	1177550848	65	4416
2026-01-25 03:15:26.93	269.63	11.83	-47.0	-48.7	18.0	0.00e+00	0	45	0	1178599424	65	4435
2026-01-25 03:15:27.94	269.54	11.74	-47.0	-48.8	17.9	0.00e+00	0	45	0	1180696576	65	4452
2026-01-25 03:15:28.95	269.44	11.66	-47.1	-48.8	17.9	0.00e+00	0	45	0	1182793728	65	4489
2026-01-25 03:15:29.95	269.35	11.58	-47.2	-49.0	17.7	0.00e+00	0	45	0	1184890880	65	4578
2026-01-25 03:15:30.97	269.25	11.50	-47.1	-48.9	17.8	0.00e+00	0	45	0	1185939456	65	4498
2026-01-25 03:15:31.97	269.16	11.42	-47.1	-48.9	17.8	0.00e+00	0	45	0	1188036608	65	4498
2026-01-25 03:15:32.98	269.07	11.34	-47.1	-49.0	17.6	0.00e+00	0	45	0	1190133760	65	4563
2026-01-25 03:15:33.99	268.97	11.26	-46.9	-48.7	17.9	0.00e+00	0	45	0	1192230912	65	4431
2026-01-25 03:15:35.00	268.88	11.18	-46.7	-48.4	18.2	0.00e+00	0	45	0	1194328064	65	4258
2026-01-25 03:15:36.01	268.79	11.10	-46.6	-48.3	18.3	0.00e+00	0	45	0	1196425216	65	4227
2026-01-25 03:15:37.01	268.70	11.02	-46.4	-48.0	18.6	0.00e+00	0	45	0	1197473792	64	4319
2026-01-25 03:15:38.02	268.61	10.94	-46.2	-47.8	18.7	0.00e+00	0	45	0	1199570944	64	4218
2026-01-25 03:15:39.03	268.52	10.86	-46.4	-48.0	18.5	0.00e+00	0	45	0	1201668096	64	4319
2026-01-25 03:15:40.04	268.43	10.78	-46.3	-48.0	18.5	0.00e+00	0	44	0	1203765248	64	4303
2026-01-25 03:15:41.05	268.34	10.70	-46.3	-47.9	18.5	0.00e+00	0	45	0	1205862400	64	4284
2026-01-25 03:15:42.06	268.25	10.62	-46.3	-47.9	18.5	0.00e+00	0	45	0	1206910976	64	4264
2026-01-25 03:15:43.07	268.17	10.54	-46.6	-48.4	18.1	0.00e+00	0	45	0	1209008128	64	4495
2026-01-25 03:15:44.07	268.08	10.46	-46.7	-48.5	17.8	0.00e+00	0	45	0	1211105280	64	4556
2026-01-25 03:15:45.08	267.99	10.38	-46.9	-48.7	17.6	0.00e+00	0	44	0	1213202432	64	4698
2026-01-25 03:15:46.09	267.91	10.30	-47.1	-49.2	17.0	0.00e+00	0	45	0	1214251008	64	4929
2026-01-25 03:15:47.10	267.82	10.23	-47.4	-49.5	16.7	0.00e+00	0	45	0	1216348160	65	4835
2026-01-25 03:15:48.11	267.73	10.15	-47.6	-49.8	16.3	0.00e+00	0	45	0	1218445312	65	5022
2026-01-25 03:15:49.11	267.65	10.07	-47.7	-50.0	16.0	0.00e+00	0	45	0	1220542464	65	5146
2026-01-25 03:15:50.12	267.57	9.99	-47.9	-50.4	15.7	0.00e+00	0	45	0	1222639616	66	5054
2026-01-25 03:15:51.13	267.48	9.92	-48.2	-50.9	15.2	0.00e+00	0	45	0	1224736768	67	5061
2026-01-25 03:15:52.14	267.40	9.84	-48.4	-51.1	15.0	0.00e+00	0	45	0	1225785344	67	5203
2026-01-25 03:15:53.15	267.31	9.76	-48.7	-51.6	14.6	0.00e+00	0	45	0	1227882496	67	5481
2026-01-25 03:15:54.15	267.23	9.69	-48.8	-51.8	14.5	0.00e+00	0	45	0	1229979648	68	5282
2026-01-25 03:15:55.16	267.15	9.61	-49.0	-52.0	14.4	0.00e+00	0	45	0	1232076800	68	5421
2026-01-25 03:15:56.17	267.07	9.53	-49.0	-51.9	14.4	0.00e+00	0	45	0	1234173952	68	5397
2026-01-25 03:15:57.18	266.99	9.46	-49.0	-51.9	14.6	0.00e+00	0	45	0	1235222528	68	5357
