passes_logs/2026/01/25/R3.2S_Murmansk/R3.2S_Murmansk__20260125_214247_JL1KF02B03_rec.log

#Pass ID: 20260125_214247_JL1KF02B03
#Satellite: JL1KF02B03
#Configuration: 01B_900M
#almurnet v.1.7.20251203
#Start time: 2026-01-25 21:42:47

#Version: 2.2.20231116
#Station: R3.2S_Murmansk
#Location: 33.079688 lon 68.888172 lat
#TLE: 1 61190U 24169B   26025.49781411  .00007847  00000+0  49160-3 0  9997
#TLE: 2 61190  97.5617 116.4795 0014988 146.5321 213.6858 15.09541703 74301

#Time	Az	El	Level	Level2	SNR	BER	BlckErr	Temp	State	Recorded	gain1	gain2
2026-01-25 21:42:47.82	210.08	2.05	-54.3	-56.4	6.3	0.00e+00	0	44	0	0	79	19040
2026-01-25 21:42:48.83	210.17	2.11	-54.4	-56.5	6.2	0.00e+00	0	44	104	0	80	18318
2026-01-25 21:42:49.81	210.25	2.17	-54.5	-56.6	6.2	0.00e+00	0	44	104	0	80	18522
2026-01-25 21:42:50.79	210.34	2.22	-54.6	-56.6	6.2	0.00e+00	0	44	104	0	80	18586
2026-01-25 21:42:51.79	210.43	2.28	-54.6	-56.7	6.2	0.00e+00	0	44	104	0	80	18645
2026-01-25 21:42:52.80	210.52	2.35	-54.6	-56.7	6.2	0.00e+00	0	44	104	0	80	18674
2026-01-25 21:42:53.79	210.62	2.41	-54.6	-56.7	6.2	0.00e+00	0	44	104	0	80	18662
2026-01-25 21:42:54.79	210.71	2.47	-54.5	-56.6	6.2	0.00e+00	0	44	104	0	80	18546
2026-01-25 21:42:55.78	210.80	2.53	-54.5	-56.6	6.2	0.00e+00	0	44	104	0	80	18551
2026-01-25 21:42:56.77	210.89	2.59	-54.5	-56.6	6.2	0.00e+00	0	44	104	0	80	18533
2026-01-25 21:42:57.79	210.99	2.65	-54.5	-56.6	6.2	0.00e+00	0	44	104	0	80	18459
2026-01-25 21:42:58.83	211.08	2.71	-54.5	-56.6	6.2	0.00e+00	0	45	104	0	80	18427
2026-01-25 21:42:59.83	211.18	2.77	-54.5	-56.6	6.2	0.00e+00	0	45	104	0	80	18403
2026-01-25 21:43:00.83	211.27	2.83	-54.5	-56.5	6.2	0.00e+00	0	45	104	0	80	18362
2026-01-25 21:43:01.82	211.37	2.90	-54.4	-56.5	6.2	0.00e+00	0	44	104	0	80	18327
2026-01-25 21:43:02.82	211.46	2.96	-54.4	-56.4	6.2	0.00e+00	0	45	104	0	80	18166
2026-01-25 21:43:03.82	211.56	3.02	-54.3	-56.4	6.2	0.00e+00	0	45	104	0	80	18012
2026-01-25 21:43:04.82	211.65	3.08	-54.2	-56.3	6.2	0.00e+00	0	45	104	0	80	17920
2026-01-25 21:43:05.84	211.75	3.14	-54.2	-56.2	6.2	0.00e+00	0	45	104	0	80	17760
2026-01-25 21:43:06.83	211.85	3.21	-54.1	-56.2	6.2	0.00e+00	0	45	104	0	80	17570
2026-01-25 21:43:07.80	211.95	3.27	-54.0	-56.1	6.2	0.00e+00	0	45	104	0	80	17404
2026-01-25 21:43:08.77	212.04	3.33	-53.9	-56.0	6.2	0.00e+00	0	45	104	0	79	18382
2026-01-25 21:43:09.73	212.14	3.39	-53.8	-55.9	6.2	0.00e+00	0	45	104	0	79	18023
2026-01-25 21:43:10.70	212.23	3.45	-53.5	-55.5	6.2	0.00e+00	0	45	104	0	78	18377
2026-01-25 21:43:11.67	212.33	3.51	-53.2	-55.3	6.2	0.00e+00	0	45	104	0	78	17918
2026-01-25 21:43:12.63	212.43	3.57	-53.2	-55.3	6.2	0.00e+00	0	45	104	0	78	17880
2026-01-25 21:43:13.60	212.52	3.63	-53.2	-55.3	6.2	0.00e+00	0	45	104	0	78	17822
2026-01-25 21:43:14.57	212.62	3.69	-53.2	-55.3	6.2	0.00e+00	0	45	104	0	78	17802
2026-01-25 21:43:15.53	212.72	3.75	-53.2	-55.3	6.2	0.00e+00	0	45	104	0	78	17804
2026-01-25 21:43:16.50	212.82	3.81	-53.2	-55.3	6.2	0.00e+00	0	45	104	0	78	17824
2026-01-25 21:43:17.47	212.92	3.87	-53.2	-55.3	6.2	0.00e+00	0	45	104	0	78	17819
2026-01-25 21:43:18.44	213.02	3.93	-53.2	-55.3	6.2	0.00e+00	0	45	104	0	78	17768
2026-01-25 21:43:19.40	213.12	4.00	-53.2	-55.2	6.2	0.00e+00	0	45	104	0	78	17758
2026-01-25 21:43:20.37	213.22	4.06	-53.2	-55.3	6.2	0.00e+00	0	45	104	0	78	17796
2026-01-25 21:43:21.34	213.32	4.12	-53.2	-55.2	6.2	0.00e+00	0	45	104	0	78	17755
2026-01-25 21:43:22.30	213.42	4.18	-53.2	-55.2	6.2	0.00e+00	0	45	104	0	78	17750
2026-01-25 21:43:23.27	213.53	4.24	-53.2	-55.2	6.2	0.00e+00	0	45	104	0	78	17764
2026-01-25 21:43:24.24	213.63	4.31	-53.2	-55.3	6.2	0.00e+00	0	45	104	0	78	17773
2026-01-25 21:43:25.21	213.73	4.37	-53.1	-55.3	6.2	0.00e+00	0	45	104	0	78	17777
2026-01-25 21:43:26.18	213.84	4.43	-53.2	-55.3	6.2	0.00e+00	0	45	104	0	78	17791
2026-01-25 21:43:27.15	213.94	4.49	-53.1	-55.2	6.2	0.00e+00	0	45	104	0	78	17715
2026-01-25 21:43:28.11	214.05	4.56	-53.1	-55.2	6.2	0.00e+00	0	45	104	0	78	17739
2026-01-25 21:43:29.08	214.16	4.62	-53.1	-55.2	6.2	0.00e+00	0	45	104	0	78	17738
2026-01-25 21:43:30.05	214.26	4.68	-53.2	-55.3	6.2	0.00e+00	0	45	104	0	78	17774
2026-01-25 21:43:31.02	214.37	4.74	-53.1	-55.2	6.2	0.00e+00	0	45	104	0	78	17727
2026-01-25 21:43:31.99	214.48	4.81	-53.1	-55.2	6.2	0.00e+00	0	45	104	0	78	17693
2026-01-25 21:43:32.95	214.58	4.87	-53.1	-55.2	6.2	0.00e+00	0	46	104	0	78	17708
2026-01-25 21:43:33.92	214.69	4.93	-53.1	-55.3	6.2	0.00e+00	0	45	104	0	78	17769
2026-01-25 21:43:34.89	214.80	5.00	-53.1	-55.2	6.2	0.00e+00	0	46	104	0	78	17693
2026-01-25 21:43:35.86	214.91	5.06	-53.2	-55.3	6.2	0.00e+00	0	45	104	0	78	17934
2026-01-25 21:43:36.82	215.02	5.12	-53.2	-55.3	6.2	0.00e+00	0	46	104	0	78	17874
2026-01-25 21:43:37.79	215.13	5.19	-53.1	-55.2	6.2	0.00e+00	0	45	104	0	78	17763
2026-01-25 21:43:38.76	215.24	5.25	-53.1	-55.2	6.2	0.00e+00	0	46	104	0	78	17682
2026-01-25 21:43:39.72	215.36	5.32	-53.2	-55.3	6.2	0.00e+00	0	45	104	0	78	17929
2026-01-25 21:43:40.69	215.47	5.38	-53.2	-55.3	6.2	0.00e+00	0	45	104	0	78	17889
2026-01-25 21:43:41.66	215.58	5.44	-53.1	-55.2	6.2	0.00e+00	0	46	104	0	78	17707
2026-01-25 21:43:42.63	215.70	5.51	-53.1	-55.2	6.2	0.00e+00	0	45	104	0	78	17582
2026-01-25 21:43:43.59	215.81	5.57	-53.1	-55.2	6.2	0.00e+00	0	45	104	0	78	17672
2026-01-25 21:43:44.56	215.92	5.64	-53.2	-55.3	6.2	0.00e+00	0	46	104	0	78	17877
2026-01-25 21:43:45.53	216.04	5.70	-53.1	-55.2	6.2	0.00e+00	0	46	104	0	78	17718
2026-01-25 21:43:46.50	216.16	5.77	-53.1	-55.2	6.2	0.00e+00	0	46	104	0	78	17646
2026-01-25 21:43:47.46	216.27	5.83	-53.1	-55.2	6.2	0.00e+00	0	46	104	0	78	17663
2026-01-25 21:43:48.43	216.39	5.90	-53.2	-55.3	6.2	0.00e+00	0	46	104	0	78	17877
2026-01-25 21:43:49.40	216.51	5.96	-53.1	-55.2	6.2	0.00e+00	0	46	104	0	78	17692
2026-01-25 21:43:50.36	216.63	6.03	-53.1	-55.2	6.2	0.00e+00	0	46	104	0	78	17592
2026-01-25 21:43:51.33	216.75	6.09	-53.1	-55.2	6.2	0.00e+00	0	46	104	0	78	17649
2026-01-25 21:43:52.29	216.86	6.16	-53.2	-55.3	6.2	0.00e+00	0	46	104	0	78	17860
2026-01-25 21:43:53.26	216.99	6.23	-53.2	-55.2	6.2	0.00e+00	0	46	104	0	78	17758
2026-01-25 21:43:54.23	217.11	6.29	-53.1	-55.2	6.2	0.00e+00	0	46	104	0	78	17635
2026-01-25 21:43:55.20	217.23	6.36	-53.1	-55.2	6.2	0.00e+00	0	46	104	0	78	17590
2026-01-25 21:43:56.17	217.35	6.42	-53.2	-55.3	6.2	0.00e+00	0	46	104	0	78	17830
2026-01-25 21:43:57.13	217.47	6.49	-53.2	-55.2	6.2	0.00e+00	0	46	104	0	78	17765
2026-01-25 21:43:58.10	217.60	6.56	-53.1	-55.2	6.2	0.00e+00	0	46	104	0	78	17612
2026-01-25 21:43:59.07	217.72	6.62	-53.1	-55.2	6.2	0.00e+00	0	46	104	0	78	17590
2026-01-25 21:44:00.04	217.85	6.69	-53.2	-55.3	6.2	0.00e+00	0	46	104	0	78	17805
2026-01-25 21:44:01.00	217.97	6.76	-53.2	-55.2	6.2	0.00e+00	0	46	104	0	78	17743
2026-01-25 21:44:01.97	218.10	6.82	-53.1	-55.2	6.2	0.00e+00	0	46	104	0	78	17628
2026-01-25 21:44:02.94	218.23	6.89	-53.0	-55.2	6.2	0.00e+00	0	46	104	0	78	17569
2026-01-25 21:44:03.91	218.36	6.96	-53.2	-55.3	6.2	0.00e+00	0	46	104	0	78	17774
2026-01-25 21:44:04.88	218.48	7.02	-53.2	-55.2	6.2	0.00e+00	0	46	104	0	78	17725
2026-01-25 21:44:05.85	218.61	7.09	-53.1	-55.2	6.2	0.00e+00	0	46	104	0	78	17648
2026-01-25 21:44:06.81	218.74	7.16	-53.1	-55.2	6.2	0.00e+00	0	46	104	0	78	17593
2026-01-25 21:44:07.78	218.87	7.23	-53.2	-55.3	6.2	0.00e+00	0	46	104	0	78	17784
2026-01-25 21:44:08.75	219.01	7.30	-53.2	-55.3	6.2	0.00e+00	0	46	104	0	78	17822
2026-01-25 21:44:09.72	219.14	7.36	-53.1	-55.2	6.2	0.00e+00	0	46	104	0	78	17674
2026-01-25 21:44:10.69	219.27	7.43	-53.1	-55.2	6.2	0.00e+00	0	46	104	0	78	17580
2026-01-25 21:44:11.65	219.40	7.50	-53.1	-55.3	6.2	0.00e+00	0	46	104	0	78	17802
2026-01-25 21:44:12.62	219.54	7.57	-53.2	-55.3	6.2	0.00e+00	0	46	104	0	78	17821
2026-01-25 21:44:13.59	219.67	7.64	-53.1	-55.2	6.2	0.00e+00	0	46	104	0	78	17717
2026-01-25 21:44:14.56	219.81	7.70	-53.1	-55.2	6.2	0.00e+00	0	46	104	0	78	17624
2026-01-25 21:44:15.52	219.94	7.77	-53.1	-55.2	6.2	0.00e+00	0	46	104	0	78	17618
2026-01-25 21:44:16.49	220.08	7.84	-53.2	-55.3	6.2	0.00e+00	0	46	104	0	78	17922
2026-01-25 21:44:17.46	220.22	7.91	-53.1	-55.3	6.2	0.00e+00	0	46	104	0	78	17771
2026-01-25 21:44:18.43	220.36	7.98	-53.1	-55.2	6.2	0.00e+00	0	46	104	0	78	17633
2026-01-25 21:44:19.39	220.50	8.05	-53.1	-55.2	6.2	0.00e+00	0	46	104	0	78	17699
2026-01-25 21:44:20.36	220.64	8.12	-53.2	-55.3	6.2	0.00e+00	0	46	104	0	78	17919
2026-01-25 21:44:21.33	220.78	8.19	-53.2	-55.3	6.2	0.00e+00	0	46	104	0	78	17811
2026-01-25 21:44:22.30	220.92	8.26	-53.1	-55.2	6.2	0.00e+00	0	46	104	0	78	17731
2026-01-25 21:44:23.26	221.06	8.33	-53.1	-55.2	6.2	0.00e+00	0	46	104	0	78	17663
2026-01-25 21:44:24.23	221.21	8.40	-53.2	-55.3	6.2	0.00e+00	0	46	104	0	78	17916
2026-01-25 21:44:25.20	221.35	8.46	-53.2	-55.3	6.2	0.00e+00	0	46	104	0	78	17839
2026-01-25 21:44:26.16	221.50	8.53	-53.1	-55.2	6.2	0.00e+00	0	46	104	0	78	17735
2026-01-25 21:44:27.13	221.64	8.60	-53.1	-55.2	6.2	0.00e+00	0	46	104	0	78	17694
2026-01-25 21:44:28.10	221.79	8.67	-53.2	-55.3	6.2	0.00e+00	0	46	104	0	78	17938
2026-01-25 21:44:29.07	221.94	8.74	-53.2	-55.3	6.2	0.00e+00	0	46	104	0	78	17864
2026-01-25 21:44:30.03	222.09	8.81	-53.2	-55.3	6.2	0.00e+00	0	46	104	0	78	17769
2026-01-25 21:44:31.00	222.24	8.89	-53.1	-55.2	6.2	0.00e+00	0	46	104	0	78	17764
2026-01-25 21:44:31.96	222.38	8.96	-53.2	-55.3	6.2	0.00e+00	0	46	104	0	78	17937
2026-01-25 21:44:32.93	222.54	9.03	-53.2	-55.3	6.2	0.00e+00	0	46	104	0	78	17924
2026-01-25 21:44:33.90	222.69	9.10	-53.2	-55.3	6.2	0.00e+00	0	46	104	0	78	17829
2026-01-25 21:44:34.86	222.84	9.17	-53.1	-55.3	6.2	0.00e+00	0	46	104	0	78	17776
2026-01-25 21:44:35.83	222.99	9.24	-53.2	-55.3	6.2	0.00e+00	0	46	104	0	78	17842
2026-01-25 21:44:36.80	223.15	9.31	-53.2	-55.3	6.2	0.00e+00	0	46	104	0	78	17892
2026-01-25 21:44:37.76	223.30	9.38	-36.6	-40.6	6.1	0.00e+00	0	46	104	0	45	21890
2026-01-25 21:44:38.73	223.46	9.45	-42.8	-42.7	11.8	6.03e-03	0	46	0	25165824	55	15678
2026-01-25 21:44:39.69	223.62	9.52	-33.1	-32.9	15.4	9.53e-05	0	46	0	100663296	38	13525
2026-01-25 21:44:40.66	223.77	9.59	-33.6	-33.3	15.3	1.20e-04	0	46	0	209715200	39	13413
2026-01-25 21:44:41.63	223.93	9.67	-33.3	-33.1	15.4	1.03e-04	0	46	0	318767104	38	13888
2026-01-25 21:44:42.60	224.09	9.74	-33.4	-33.2	15.3	9.15e-05	0	46	0	427819008	38	14053
2026-01-25 21:44:43.56	224.25	9.81	-32.9	-32.7	15.5	6.86e-05	0	46	0	536870912	37	13951
2026-01-25 21:44:44.53	224.41	9.88	-32.9	-32.7	15.5	4.76e-05	0	47	0	637534208	37	14075
2026-01-25 21:44:45.50	224.58	9.95	-32.8	-32.6	15.5	6.10e-05	0	46	0	754974720	37	13932
2026-01-25 21:44:46.46	224.74	10.02	-32.8	-32.6	15.5	4.76e-05	0	47	0	864026624	37	13927
2026-01-25 21:44:47.43	224.90	10.10	-32.8	-32.6	15.6	7.43e-05	0	47	0	964689920	37	13845
2026-01-25 21:44:48.40	225.07	10.17	-33.0	-32.8	15.6	5.53e-05	0	46	0	1082130432	37	14118
2026-01-25 21:44:49.36	225.24	10.24	-32.8	-32.6	15.6	3.05e-05	0	47	0	1191182336	37	13847
2026-01-25 21:44:50.33	225.40	10.31	-32.8	-32.6	15.6	5.34e-05	0	47	0	1291845632	37	13940
2026-01-25 21:44:51.30	225.57	10.39	-32.5	-32.3	15.6	5.34e-05	0	47	0	1409286144	37	13421
2026-01-25 21:44:52.27	225.74	10.46	-32.4	-32.2	15.6	3.24e-05	0	47	0	1518338048	36	14056
2026-01-25 21:44:53.23	225.91	10.53	-32.5	-32.3	15.6	5.72e-05	0	47	0	1619001344	36	14120
2026-01-25 21:44:54.20	226.08	10.60	-32.6	-32.4	15.6	3.62e-05	0	47	0	1728053248	36	14331
2026-01-25 21:44:55.17	226.25	10.68	-32.6	-32.4	15.6	4.00e-05	0	47	0	1845493760	36	14311
2026-01-25 21:44:56.14	226.43	10.75	-32.6	-32.4	15.6	3.43e-05	0	47	0	1946157056	36	14310
2026-01-25 21:44:57.10	226.60	10.82	-32.6	-32.4	15.6	5.14e-05	0	47	0	2055208960	36	14278
2026-01-25 21:44:58.07	226.78	10.89	-32.4	-32.2	15.7	6.10e-05	0	47	0	2172649472	36	13969
2026-01-25 21:44:59.04	226.95	10.97	-32.6	-32.4	15.6	4.95e-05	0	47	0	2273312768	36	14306
2026-01-25 21:45:00.00	227.13	11.04	-32.4	-32.2	15.6	4.19e-05	0	47	0	2382364672	36	14104
2026-01-25 21:45:00.97	227.31	11.11	-32.2	-32.0	15.7	2.28e-05	0	47	0	2499805184	36	13697
2026-01-25 21:45:01.94	227.49	11.19	-32.4	-32.2	15.6	3.62e-05	0	47	0	2600468480	36	14065
2026-01-25 21:45:02.90	227.67	11.26	-32.4	-32.1	15.7	4.57e-05	0	47	0	2709520384	36	13940
2026-01-25 21:45:03.87	227.85	11.33	-32.5	-32.3	15.6	4.00e-05	0	47	0	2826960896	36	14147
2026-01-25 21:45:04.84	228.03	11.41	-32.3	-32.1	15.7	3.62e-05	0	47	0	2927624192	36	13932
2026-01-25 21:45:05.81	228.22	11.48	-32.3	-32.1	15.7	3.43e-05	0	47	0	3036676096	36	13803
2026-01-25 21:45:06.77	228.40	11.55	-32.2	-32.0	15.7	2.09e-05	0	47	0	3145728000	36	13739
2026-01-25 21:45:07.74	228.58	11.63	-32.3	-32.1	15.7	2.86e-05	0	47	0	3254779904	36	13870
2026-01-25 21:45:08.71	228.77	11.70	-32.3	-32.1	15.7	2.67e-05	0	47	0	3363831808	36	13820
2026-01-25 21:45:09.67	228.96	11.77	-32.3	-32.1	15.7	3.43e-05	0	47	0	3472883712	36	13814
2026-01-25 21:45:10.64	229.15	11.85	-32.2	-32.0	15.6	4.95e-05	0	47	0	3573547008	36	13728
2026-01-25 21:45:11.61	229.34	11.92	-32.1	-31.9	15.7	2.28e-05	0	47	0	3690987520	36	13498
2026-01-25 21:45:12.58	229.53	11.99	-32.2	-32.0	15.7	2.86e-05	0	47	0	3800039424	36	13642
2026-01-25 21:45:13.55	229.72	12.07	-32.1	-31.9	15.7	3.05e-05	0	47	0	3917479936	36	13620
2026-01-25 21:45:14.51	229.91	12.14	-32.2	-32.0	15.7	3.05e-05	0	47	0	4018143232	36	13712
2026-01-25 21:45:15.48	230.11	12.22	-32.1	-31.9	15.7	3.24e-05	0	47	0	4127195136	36	13573
2026-01-25 21:45:16.45	230.30	12.29	-32.0	-31.8	15.7	3.62e-05	0	47	0	4244635648	36	13471
2026-01-25 21:45:17.42	230.50	12.36	-29.6	-29.5	15.4	8.39e-05	0	47	0	4345298944	31	13634
2026-01-25 21:45:18.38	230.70	12.44	-29.6	-29.4	15.4	6.67e-05	0	47	0	4454350848	31	13603
2026-01-25 21:45:19.35	230.90	12.51	-29.6	-29.4	15.4	5.91e-05	0	47	0	4563402752	31	13564
2026-01-25 21:45:20.32	231.10	12.59	-29.7	-29.5	15.4	7.05e-05	0	47	0	4672454656	31	13757
2026-01-25 21:45:21.29	231.30	12.66	-29.7	-29.5	15.4	7.43e-05	0	47	0	4781506560	31	13653
2026-01-25 21:45:22.25	231.50	12.73	-29.7	-29.5	15.4	7.62e-05	0	47	0	4890558464	31	13718
2026-01-25 21:45:23.22	231.70	12.81	-29.7	-29.5	15.3	9.53e-05	0	47	0	4991221760	31	13722
2026-01-25 21:45:24.19	231.91	12.88	-29.6	-29.4	15.4	7.43e-05	0	47	0	5108662272	31	13503
2026-01-25 21:45:25.15	232.11	12.95	-29.6	-29.4	15.4	8.77e-05	0	47	0	5217714176	31	13487
2026-01-25 21:45:26.12	232.32	13.03	-29.6	-29.4	15.4	6.86e-05	0	47	0	5318377472	31	13517
2026-01-25 21:45:27.09	232.53	13.10	-29.5	-29.3	15.4	9.34e-05	0	47	0	5435817984	31	13447
2026-01-25 21:45:28.05	232.74	13.18	-29.5	-29.3	15.3	6.86e-05	0	47	0	5544869888	30	14269
2026-01-25 21:45:29.02	232.95	13.25	-29.6	-29.4	15.3	1.14e-04	0	47	0	5645533184	30	14416
2026-01-25 21:45:29.99	233.16	13.32	-29.6	-29.4	15.3	8.96e-05	0	47	0	5762973696	30	14329
2026-01-25 21:45:30.96	233.38	13.40	-29.5	-29.3	15.4	9.15e-05	0	47	0	5872025600	30	14143
2026-01-25 21:45:31.93	233.59	13.47	-29.7	-29.5	15.3	9.15e-05	0	47	0	5972688896	30	14466
2026-01-25 21:45:32.89	233.80	13.54	-29.5	-29.3	15.3	8.20e-05	0	47	0	6090129408	30	14222
2026-01-25 21:45:33.86	234.02	13.62	-29.5	-29.3	15.4	8.96e-05	0	47	0	6199181312	30	14168
2026-01-25 21:45:34.83	234.24	13.69	-29.4	-29.2	15.4	5.91e-05	0	47	0	6299844608	30	13979
2026-01-25 21:45:35.80	234.46	13.76	-29.5	-29.3	15.3	7.62e-05	0	47	0	6408896512	30	14204
2026-01-25 21:45:36.76	234.68	13.84	-29.3	-29.1	15.4	7.43e-05	0	47	0	6526337024	30	13925
2026-01-25 21:45:37.73	234.90	13.91	-29.3	-29.1	15.4	1.12e-04	0	47	0	6627000320	30	13854
2026-01-25 21:45:38.70	235.12	13.98	-29.4	-29.2	15.4	9.53e-05	0	47	0	6736052224	30	14084
2026-01-25 21:45:39.67	235.35	14.06	-29.3	-29.1	15.5	6.48e-05	0	47	0	6853492736	30	13807
2026-01-25 21:45:40.63	235.57	14.13	-29.2	-29.0	15.5	7.82e-05	0	47	0	6954156032	30	13747
2026-01-25 21:45:41.60	235.80	14.20	-29.2	-29.0	15.5	6.29e-05	0	47	0	7063207936	30	13757
2026-01-25 21:45:42.57	236.03	14.28	-29.2	-29.0	15.5	5.72e-05	0	47	0	7180648448	30	13664
2026-01-25 21:45:43.54	236.26	14.35	-29.2	-29.0	15.5	6.10e-05	0	47	0	7281311744	30	13692
2026-01-25 21:45:44.51	236.49	14.42	-29.2	-29.0	15.4	6.67e-05	0	47	0	7390363648	30	13754
2026-01-25 21:45:45.48	236.72	14.49	-29.2	-29.0	15.5	4.00e-05	0	47	0	7499415552	30	13683
2026-01-25 21:45:46.44	236.95	14.57	-29.2	-29.0	15.4	4.95e-05	0	47	0	7608467456	30	13731
2026-01-25 21:45:47.41	237.19	14.64	-29.1	-28.9	15.4	7.82e-05	0	47	0	7717519360	30	13579
2026-01-25 21:45:48.37	237.42	14.71	-29.0	-28.8	15.5	6.48e-05	0	47	0	7826571264	30	13444
2026-01-25 21:45:49.34	237.66	14.78	-29.1	-28.9	15.4	5.34e-05	0	47	0	7927234560	30	13622
2026-01-25 21:45:50.31	237.90	14.85	-29.0	-28.9	15.5	7.62e-05	0	47	0	8044675072	30	13477
2026-01-25 21:45:51.27	238.14	14.93	-29.0	-28.8	15.5	4.95e-05	0	47	0	8153726976	30	13364
2026-01-25 21:45:52.24	238.38	15.00	-28.9	-28.7	15.5	4.57e-05	0	47	0	8254390272	29	13978
2026-01-25 21:45:53.21	238.62	15.07	-28.9	-28.7	15.5	6.67e-05	0	47	0	8371830784	29	14093
2026-01-25 21:45:54.17	238.86	15.14	-29.0	-28.8	15.4	6.10e-05	0	47	0	8480882688	29	14157
2026-01-25 21:45:55.14	239.11	15.21	-29.0	-28.8	15.5	5.91e-05	0	47	0	8581545984	29	14160
2026-01-25 21:45:56.11	239.36	15.28	-28.8	-28.6	15.6	3.43e-05	0	47	0	8698986496	29	13825
2026-01-25 21:45:57.08	239.60	15.35	-28.9	-28.8	15.4	5.14e-05	0	47	0	8808038400	29	14132
2026-01-25 21:45:58.04	239.85	15.42	-28.9	-28.7	15.5	4.57e-05	0	47	0	8908701696	29	13991
2026-01-25 21:45:59.01	240.10	15.49	-28.8	-28.6	15.6	2.09e-05	0	47	0	9026142208	29	13896
2026-01-25 21:45:59.98	240.35	15.56	-28.8	-28.6	15.5	5.34e-05	0	47	0	9135194112	29	13908
2026-01-25 21:46:00.94	240.60	15.63	-28.9	-28.7	15.5	6.67e-05	0	47	0	9235857408	29	14079
2026-01-25 21:46:01.91	240.86	15.70	-28.8	-28.6	15.5	4.95e-05	0	47	0	9344909312	29	13912
2026-01-25 21:46:02.88	241.12	15.77	-28.7	-28.5	15.6	3.05e-05	0	47	0	9462349824	29	13661
2026-01-25 21:46:03.84	241.37	15.84	-28.6	-28.4	15.7	3.24e-05	0	47	0	9563013120	29	13508
2026-01-25 21:46:04.81	241.63	15.91	-28.7	-28.5	15.6	3.24e-05	0	47	0	9672065024	29	13708
2026-01-25 21:46:05.78	241.89	15.98	-28.8	-28.6	15.6	5.34e-05	0	47	0	9789505536	29	13817
2026-01-25 21:46:06.74	242.15	16.05	-28.7	-28.5	15.6	5.14e-05	0	47	0	9890168832	29	13741
2026-01-25 21:46:07.71	242.41	16.11	-28.6	-28.4	15.6	4.38e-05	0	47	0	9999220736	29	13543
2026-01-25 21:46:08.68	242.68	16.18	-28.6	-28.4	15.6	3.43e-05	0	47	0	10116661248	29	13622
2026-01-25 21:46:09.64	242.94	16.25	-28.7	-28.5	15.6	4.57e-05	0	47	0	10217324544	29	13751
2026-01-25 21:46:10.61	243.21	16.32	-28.7	-28.5	15.7	3.81e-05	0	47	0	10326376448	29	13681
2026-01-25 21:46:11.58	243.47	16.38	-28.8	-28.6	15.6	3.62e-05	0	47	0	10443816960	29	13862
2026-01-25 21:46:12.54	243.74	16.45	-28.7	-28.5	15.6	4.95e-05	0	47	0	10544480256	29	13731
2026-01-25 21:46:13.51	244.01	16.52	-28.6	-28.4	15.6	3.62e-05	0	47	0	10653532160	29	13531
2026-01-25 21:46:14.48	244.28	16.58	-28.6	-28.4	15.6	3.24e-05	0	47	0	10762584064	29	13603
2026-01-25 21:46:15.45	244.56	16.65	-28.5	-28.3	15.6	4.00e-05	0	47	0	10880024576	29	13427
2026-01-25 21:46:16.42	244.83	16.71	-28.6	-28.4	15.5	4.19e-05	0	47	0	10980687872	29	13603
2026-01-25 21:46:17.39	245.11	16.78	-28.5	-28.3	15.5	4.76e-05	0	47	0	11089739776	29	13466
2026-01-25 21:46:18.35	245.38	16.84	-28.5	-28.3	15.6	4.00e-05	0	47	0	11207180288	28	14126
2026-01-25 21:46:19.32	245.66	16.91	-28.6	-28.4	15.5	2.67e-05	0	47	0	11307843584	28	14306
2026-01-25 21:46:20.29	245.94	16.97	-28.5	-28.3	15.6	5.14e-05	0	47	0	11416895488	28	14190
2026-01-25 21:46:21.25	246.22	17.03	-28.4	-28.2	15.7	3.05e-05	0	47	0	11534336000	28	14104
2026-01-25 21:46:22.22	246.51	17.10	-28.4	-28.2	15.6	1.52e-05	0	47	0	11634999296	28	14001
2026-01-25 21:46:23.19	246.79	17.16	-28.4	-28.2	15.6	4.19e-05	0	47	0	11744051200	28	13986
2026-01-25 21:46:24.15	247.07	17.22	-28.5	-28.3	15.5	5.14e-05	0	47	0	11861491712	28	14175
2026-01-25 21:46:25.12	247.36	17.28	-28.4	-28.2	15.6	5.91e-05	0	47	0	11962155008	28	14004
2026-01-25 21:46:26.09	247.65	17.35	-28.3	-28.1	15.7	4.00e-05	0	47	0	12071206912	28	13916
2026-01-25 21:46:27.05	247.94	17.41	-28.3	-28.1	15.7	2.67e-05	0	47	0	12180258816	28	13881
2026-01-25 21:46:28.02	248.23	17.47	-28.4	-28.2	15.7	2.47e-05	0	47	0	12280922112	28	13990
2026-01-25 21:46:28.98	248.52	17.53	-28.2	-28.0	15.7	1.33e-05	0	47	0	12398362624	28	13784
2026-01-25 21:46:29.95	248.81	17.59	-28.3	-28.1	15.7	2.86e-05	0	47	0	12507414528	28	13927
2026-01-25 21:46:30.92	249.10	17.65	-28.3	-28.1	15.6	1.90e-05	0	47	0	12608077824	28	13882
2026-01-25 21:46:31.88	249.40	17.70	-28.3	-28.1	15.6	4.00e-05	0	47	0	12725518336	28	13937
2026-01-25 21:46:32.85	249.70	17.76	-28.2	-28.0	15.7	1.90e-05	0	47	0	12834570240	28	13733
2026-01-25 21:46:33.82	249.99	17.82	-28.3	-28.1	15.7	2.86e-05	0	47	0	12935233536	28	13900
2026-01-25 21:46:34.78	250.29	17.88	-28.3	-28.1	15.7	3.43e-05	0	47	0	13052674048	28	13868
2026-01-25 21:46:35.75	250.59	17.93	-28.2	-28.0	15.7	2.67e-05	0	47	0	13161725952	28	13755
2026-01-25 21:46:36.72	250.90	17.99	-28.4	-28.2	15.5	3.81e-05	0	47	0	13262389248	28	14019
2026-01-25 21:46:37.69	251.20	18.05	-28.4	-28.2	15.6	3.05e-05	0	47	0	13379829760	28	13982
2026-01-25 21:46:38.65	251.50	18.10	-28.2	-28.0	15.7	2.09e-05	0	47	0	13488881664	28	13775
2026-01-25 21:46:39.62	251.81	18.15	-28.3	-28.1	15.8	3.43e-05	0	47	0	13589544960	28	13813
2026-01-25 21:46:40.58	252.11	18.21	-28.3	-28.1	15.8	2.67e-05	0	47	0	13698596864	28	13894
2026-01-25 21:46:41.55	252.42	18.26	-28.2	-28.0	15.7	1.52e-05	0	47	0	13816037376	28	13719
2026-01-25 21:46:42.52	252.73	18.31	-28.1	-28.0	15.7	1.71e-05	0	47	0	13916700672	28	13636
2026-01-25 21:46:43.49	253.04	18.37	-28.1	-27.9	15.8	2.09e-05	0	47	0	14025752576	28	13577
2026-01-25 21:46:44.45	253.35	18.42	-28.2	-28.0	15.8	1.71e-05	0	47	0	14143193088	28	13677
2026-01-25 21:46:45.42	253.66	18.47	-28.1	-27.9	15.8	2.86e-05	0	47	0	14243856384	28	13536
2026-01-25 21:46:46.39	253.98	18.52	-28.1	-27.9	15.7	1.52e-05	0	47	0	14352908288	28	13562
2026-01-25 21:46:47.36	254.29	18.57	-28.1	-27.9	15.7	9.50e-06	0	47	0	14470348800	28	13533
2026-01-25 21:46:48.33	254.61	18.62	-28.1	-27.9	15.6	2.28e-05	0	47	0	14571012096	28	13599
2026-01-25 21:46:49.30	254.93	18.66	-28.1	-27.9	15.7	2.67e-05	0	47	0	14680064000	28	13581
2026-01-25 21:46:50.27	255.25	18.71	-28.1	-28.0	15.7	2.47e-05	0	47	0	14797504512	28	13633
2026-01-25 21:46:51.24	255.57	18.76	-28.0	-27.8	15.7	1.90e-05	0	47	0	14898167808	28	13421
2026-01-25 21:46:52.21	255.89	18.81	-28.1	-27.9	15.7	1.71e-05	0	47	0	15007219712	27	14436
2026-01-25 21:46:53.18	256.21	18.85	-28.1	-27.9	15.7	2.09e-05	0	47	0	15116271616	27	14397
2026-01-25 21:46:54.14	256.53	18.90	-28.1	-27.9	15.7	2.28e-05	0	47	0	15225323520	27	14295
2026-01-25 21:46:55.11	256.86	18.94	-28.1	-27.9	15.7	2.67e-05	0	47	0	15334375424	27	14384
2026-01-25 21:46:56.08	257.18	18.98	-28.0	-27.8	15.8	1.90e-05	0	47	0	15443427328	27	14145
2026-01-25 21:46:57.05	257.51	19.03	-28.0	-27.8	15.8	3.43e-05	0	47	0	15560867840	27	14253
2026-01-25 21:46:58.02	257.84	19.07	-28.1	-27.9	15.7	2.86e-05	0	48	0	15661531136	27	14337
2026-01-25 21:46:58.99	258.17	19.11	-28.2	-28.0	15.6	2.47e-05	0	47	0	15770583040	27	14479
2026-01-25 21:46:59.96	258.50	19.15	-28.0	-27.8	15.7	2.28e-05	0	47	0	15888023552	27	14234
2026-01-25 21:47:00.93	258.83	19.19	-28.0	-27.8	15.8	2.47e-05	0	47	0	15988686848	27	14223
2026-01-25 21:47:01.90	259.16	19.23	-28.0	-27.8	15.9	9.50e-06	0	47	0	16097738752	27	14122
2026-01-25 21:47:02.86	259.49	19.27	-28.0	-27.8	15.9	1.52e-05	0	47	0	16215179264	27	14212
2026-01-25 21:47:03.83	259.82	19.30	-27.9	-27.7	15.9	1.90e-05	0	47	0	16315842560	27	14047
2026-01-25 21:47:04.80	260.15	19.34	-28.0	-27.8	15.8	1.14e-05	0	47	0	16424894464	27	14183
2026-01-25 21:47:05.77	260.49	19.38	-28.1	-27.9	15.8	2.09e-05	0	48	0	16533946368	27	14404
2026-01-25 21:47:06.74	260.83	19.41	-28.0	-27.8	15.8	1.52e-05	0	47	0	16634609664	27	14153
2026-01-25 21:47:07.71	261.16	19.44	-28.0	-27.8	15.7	2.86e-05	0	47	0	16752050176	27	14274
2026-01-25 21:47:08.67	261.50	19.48	-27.9	-27.7	15.8	1.33e-05	0	47	0	16861102080	27	14061
2026-01-25 21:47:09.64	261.84	19.51	-27.8	-27.6	15.8	2.47e-05	0	47	0	16961765376	27	13935
2026-01-25 21:47:10.61	262.17	19.54	-27.9	-27.7	15.8	1.71e-05	0	47	0	17079205888	27	14016
2026-01-25 21:47:11.58	262.51	19.57	-28.0	-27.8	15.7	2.09e-05	0	47	0	17188257792	27	14188
2026-01-25 21:47:12.55	262.86	19.60	-27.9	-27.7	15.9	2.47e-05	0	47	0	17305698304	27	13987
2026-01-25 21:47:13.52	263.20	19.63	-27.9	-27.7	15.8	1.90e-05	0	47	0	17406361600	27	14060
2026-01-25 21:47:14.49	263.54	19.66	-27.9	-27.7	15.8	1.52e-05	0	47	0	17515413504	27	14111
2026-01-25 21:47:15.46	263.88	19.69	-27.9	-27.7	15.8	3.43e-05	0	47	0	17624465408	27	14062
2026-01-25 21:47:16.43	264.23	19.71	-27.9	-27.7	15.9	3.43e-05	0	47	0	17733517312	27	14025
2026-01-25 21:47:17.40	264.57	19.74	-27.9	-27.7	15.9	2.47e-05	0	47	0	17842569216	27	14108
2026-01-25 21:47:18.37	264.91	19.76	-27.9	-27.7	15.9	9.50e-06	0	47	0	17951621120	27	14057
2026-01-25 21:47:19.34	265.26	19.78	-27.8	-27.6	15.9	1.33e-05	0	47	0	18052284416	27	13939
2026-01-25 21:47:20.31	265.61	19.81	-27.9	-27.7	16.0	2.09e-05	0	48	0	18169724928	27	14039
2026-01-25 21:47:21.28	265.95	19.83	-27.9	-27.7	16.0	1.90e-05	0	47	0	18278776832	27	14046
2026-01-25 21:47:22.24	266.30	19.85	-27.9	-27.7	15.9	1.71e-05	0	47	0	18379440128	27	14109
2026-01-25 21:47:23.22	266.65	19.87	-27.9	-27.7	15.9	1.14e-05	0	48	0	18496880640	27	14007
2026-01-25 21:47:24.19	267.00	19.89	-27.9	-27.7	15.9	1.90e-05	0	48	0	18605932544	27	14077
2026-01-25 21:47:25.16	267.34	19.91	-27.9	-27.7	15.9	5.70e-06	0	47	0	18723373056	27	14102
2026-01-25 21:47:26.13	267.69	19.92	-27.9	-27.7	16.0	2.28e-05	0	47	0	18824036352	27	14057
2026-01-25 21:47:27.09	268.04	19.94	-27.9	-27.7	16.0	1.71e-05	0	47	0	18933088256	27	14080
2026-01-25 21:47:28.06	268.39	19.95	-28.0	-27.8	15.8	1.52e-05	0	47	0	19042140160	27	14193
2026-01-25 21:47:29.03	268.74	19.97	-28.0	-27.8	15.8	2.67e-05	0	47	0	19151192064	27	14170
2026-01-25 21:47:30.00	269.09	19.98	-27.9	-27.7	15.9	1.71e-05	0	48	0	19260243968	27	14098
2026-01-25 21:47:30.97	269.44	19.99	-28.1	-27.9	15.8	1.52e-05	0	48	0	19369295872	27	14303
2026-01-25 21:47:31.93	269.79	20.00	-28.0	-27.8	15.9	9.50e-06	0	48	0	19469959168	27	14200
2026-01-25 21:47:32.90	270.14	20.02	-27.9	-27.7	16.0	2.28e-05	0	48	0	19587399680	27	14028
2026-01-25 21:47:33.87	270.49	20.02	-28.0	-27.9	15.9	1.90e-05	0	48	0	19696451584	27	14284
2026-01-25 21:47:34.84	270.84	20.03	-27.9	-27.7	16.0	9.50e-06	0	48	0	19797114880	27	14031
2026-01-25 21:47:35.81	271.19	20.04	-27.9	-27.7	15.9	2.09e-05	0	47	0	19914555392	27	14093
2026-01-25 21:47:36.78	271.55	20.05	-28.0	-27.8	16.0	1.33e-05	0	47	0	20023607296	27	14201
2026-01-25 21:47:37.75	271.90	20.05	-28.1	-27.9	15.9	1.90e-05	0	47	0	20124270592	27	14293
2026-01-25 21:47:38.71	272.25	20.06	-28.0	-27.8	16.0	1.14e-05	0	48	0	20241711104	27	14169
2026-01-25 21:47:39.68	272.60	20.06	-28.0	-27.8	16.0	9.50e-06	0	47	0	20350763008	27	14225
2026-01-25 21:47:40.65	272.95	20.06	-28.0	-27.8	16.0	1.90e-05	0	47	0	20459814912	27	14165
2026-01-25 21:47:41.62	273.31	20.06	-28.1	-27.9	16.0	2.09e-05	0	48	0	20568866816	27	14276
2026-01-25 21:47:42.59	273.66	20.06	-27.9	-27.7	16.0	1.14e-05	0	47	0	20677918720	27	14097
2026-01-25 21:47:43.56	274.01	20.06	-28.0	-27.8	16.0	1.71e-05	0	47	0	20786970624	27	14141
2026-01-25 21:47:44.53	274.36	20.06	-28.0	-27.8	16.0	2.09e-05	0	48	0	20887633920	27	14137
2026-01-25 21:47:45.50	274.72	20.06	-28.1	-27.9	16.1	1.33e-05	0	47	0	21005074432	27	14290
2026-01-25 21:47:46.47	275.07	20.06	-28.1	-27.9	16.1	1.90e-05	0	47	0	21114126336	27	14278
2026-01-25 21:47:47.44	275.42	20.05	-27.9	-27.7	16.1	9.50e-06	0	48	0	21214789632	27	14065
2026-01-25 21:47:48.41	275.77	20.05	-28.1	-27.9	16.1	1.90e-05	0	48	0	21332230144	27	14301
2026-01-25 21:47:49.38	276.13	20.04	-27.9	-27.7	16.2	7.60e-06	0	47	0	21441282048	27	14031
2026-01-25 21:47:50.35	276.48	20.03	-28.0	-27.8	16.2	9.50e-06	0	48	0	21541945344	27	14140
2026-01-25 21:47:51.31	276.83	20.02	-28.0	-27.8	16.1	7.60e-06	0	47	0	21659385856	27	14161
2026-01-25 21:47:52.29	277.18	20.01	-28.1	-27.9	16.1	5.70e-06	0	47	0	21768437760	27	14294
2026-01-25 21:47:53.25	277.53	20.00	-28.1	-27.9	16.1	7.60e-06	0	47	0	21877489664	27	14340
2026-01-25 21:47:54.23	277.88	19.99	-28.0	-27.8	16.2	1.71e-05	0	47	0	21986541568	27	14138
2026-01-25 21:47:55.20	278.24	19.98	-27.9	-27.7	16.3	9.50e-06	0	47	0	22095593472	27	14088
2026-01-25 21:47:56.16	278.58	19.97	-28.1	-27.9	16.2	1.14e-05	0	47	0	22204645376	27	14379
2026-01-25 21:47:57.13	278.93	19.95	-28.1	-28.0	16.2	3.80e-06	0	47	0	22305308672	27	14444
2026-01-25 21:47:58.10	279.28	19.94	-28.2	-28.0	16.2	1.90e-05	0	47	0	22422749184	27	14594
2026-01-25 21:47:59.07	279.63	19.92	-28.1	-27.9	16.2	1.90e-05	0	48	0	22531801088	27	14440
2026-01-25 21:48:00.04	279.98	19.90	-28.1	-27.9	16.3	1.52e-05	0	47	0	22632464384	27	14382
2026-01-25 21:48:01.01	280.33	19.89	-28.2	-28.0	16.2	1.14e-05	0	47	0	22749904896	27	14566
2026-01-25 21:48:01.99	280.68	19.87	-28.1	-27.9	16.3	1.14e-05	0	48	0	22858956800	27	14416
2026-01-25 21:48:02.96	281.03	19.85	-28.2	-28.0	16.3	1.71e-05	0	48	0	22976397312	27	14493
2026-01-25 21:48:03.93	281.38	19.83	-28.2	-27.9	16.3	7.60e-06	0	48	0	23077060608	27	14436
2026-01-25 21:48:04.90	281.72	19.81	-28.1	-27.9	16.3	1.71e-05	0	48	0	23186112512	27	14426
2026-01-25 21:48:05.87	282.07	19.78	-28.1	-27.9	16.4	9.50e-06	0	48	0	23295164416	27	14421
2026-01-25 21:48:06.84	282.41	19.76	-28.2	-28.0	16.4	7.60e-06	0	47	0	23395827712	27	14572
2026-01-25 21:48:07.81	282.76	19.73	-28.2	-28.0	16.4	7.60e-06	0	48	0	23513268224	27	14500
2026-01-25 21:48:08.78	283.10	19.71	-28.1	-27.9	16.4	1.71e-05	0	48	0	23622320128	27	14406
2026-01-25 21:48:09.75	283.45	19.68	-28.0	-27.8	16.5	7.60e-06	0	48	0	23722983424	27	14227
2026-01-25 21:48:10.72	283.79	19.66	-28.2	-28.0	16.4	7.60e-06	0	47	0	23840423936	27	14447
2026-01-25 21:48:11.69	284.13	19.63	-28.4	-28.2	16.3	9.50e-06	0	47	0	23949475840	27	14813
2026-01-25 21:48:12.66	284.47	19.60	-28.2	-28.0	16.4	1.33e-05	0	47	0	24066916352	27	14521
2026-01-25 21:48:13.63	284.81	19.57	-28.3	-28.1	16.4	1.14e-05	0	47	0	24167579648	27	14670
2026-01-25 21:48:14.60	285.15	19.54	-28.1	-27.9	16.6	7.60e-06	0	47	0	24276631552	27	14382
2026-01-25 21:48:15.57	285.49	19.51	-28.2	-28.0	16.6	5.70e-06	0	47	0	24385683456	27	14453
2026-01-25 21:48:16.54	285.83	19.47	-28.3	-28.1	16.6	3.80e-06	0	47	0	24494735360	27	14645
2026-01-25 21:48:17.52	286.17	19.44	-28.1	-27.9	16.6	9.50e-06	0	47	0	24603787264	27	14416
2026-01-25 21:48:18.48	286.51	19.41	-28.2	-28.0	16.6	9.50e-06	0	47	0	24712839168	27	14483
2026-01-25 21:48:19.45	286.84	19.37	-28.3	-28.1	16.6	5.70e-06	0	47	0	24830279680	27	14644
2026-01-25 21:48:20.43	287.18	19.34	-28.2	-28.0	16.7	5.70e-06	0	47	0	24930942976	27	14581
2026-01-25 21:48:21.40	287.51	19.30	-28.3	-28.1	16.7	3.80e-06	0	47	0	25039994880	27	14690
2026-01-25 21:48:22.37	287.85	19.26	-28.4	-28.2	16.7	1.14e-05	0	47	0	25157435392	27	14844
2026-01-25 21:48:23.34	288.18	19.22	-28.3	-28.1	16.8	1.71e-05	0	47	0	25258098688	27	14644
2026-01-25 21:48:24.31	288.51	19.18	-28.4	-28.2	16.8	7.60e-06	0	47	0	25367150592	27	14838
2026-01-25 21:48:25.28	288.84	19.15	-28.3	-28.1	16.8	1.14e-05	0	47	0	25484591104	27	14634
2026-01-25 21:48:26.25	289.17	19.10	-28.4	-28.2	16.8	1.90e-06	0	47	0	25593643008	27	14903
2026-01-25 21:48:27.22	289.50	19.06	-28.4	-28.2	16.9	7.60e-06	0	47	0	25694306304	27	14797
2026-01-25 21:48:28.19	289.83	19.02	-28.4	-28.2	16.9	7.60e-06	0	48	0	25803358208	27	14927
2026-01-25 21:48:29.16	290.15	18.98	-28.4	-28.2	16.9	5.70e-06	0	48	0	25920798720	27	14832
2026-01-25 21:48:30.13	290.48	18.94	-28.5	-28.3	16.9	0.00e+00	0	47	0	26021462016	27	15027
2026-01-25 21:48:31.10	290.80	18.89	-28.6	-28.4	17.0	5.70e-06	0	47	0	26130513920	27	15192
2026-01-25 21:48:32.07	291.13	18.85	-28.7	-28.5	17.0	1.90e-06	0	47	0	26247954432	27	15307
2026-01-25 21:48:33.05	291.45	18.80	-28.6	-28.4	17.0	7.60e-06	0	47	0	26348617728	27	15122
2026-01-25 21:48:34.02	291.78	18.75	-28.6	-28.4	17.0	0.00e+00	0	47	0	26457669632	27	15250
2026-01-25 21:48:34.99	292.10	18.71	-28.6	-28.4	17.0	3.80e-06	0	47	0	26575110144	28	14373
2026-01-25 21:48:35.96	292.41	18.66	-28.6	-28.4	17.1	1.14e-05	0	47	0	26684162048	28	14363
2026-01-25 21:48:36.93	292.73	18.61	-28.4	-28.2	17.2	1.90e-06	0	47	0	26784825344	28	14072
2026-01-25 21:48:37.90	293.05	18.56	-28.5	-28.3	17.2	5.70e-06	0	48	0	26902265856	28	14194
2026-01-25 21:48:38.87	293.36	18.51	-28.5	-28.3	17.2	9.50e-06	0	48	0	27011317760	28	14244
2026-01-25 21:48:39.84	293.68	18.46	-28.5	-28.4	17.2	5.70e-06	0	48	0	27111981056	28	14277
2026-01-25 21:48:40.81	293.99	18.41	-28.6	-28.4	17.2	3.80e-06	0	47	0	27221032960	28	14408
2026-01-25 21:48:41.78	294.31	18.36	-28.6	-28.4	17.3	0.00e+00	0	48	0	27338473472	28	14375
2026-01-25 21:48:42.75	294.62	18.31	-28.7	-28.5	17.3	1.90e-06	0	48	0	27447525376	28	14474
2026-01-25 21:48:43.72	294.93	18.25	-28.7	-28.5	17.3	3.80e-06	0	47	0	27548188672	28	14530
2026-01-25 21:48:44.69	295.23	18.20	-28.6	-28.4	17.3	0.00e+00	0	47	0	27665629184	28	14403
2026-01-25 21:48:45.66	295.54	18.15	-28.5	-28.4	17.4	7.60e-06	0	48	0	27774681088	28	14284
2026-01-25 21:48:46.63	295.85	18.09	-28.7	-28.5	17.4	3.80e-06	0	47	0	27875344384	28	14455
2026-01-25 21:48:47.60	296.15	18.04	-28.6	-28.4	17.4	1.90e-06	0	48	0	27992784896	28	14430
2026-01-25 21:48:48.57	296.46	17.98	-28.7	-28.5	17.4	5.70e-06	0	47	0	28101836800	28	14556
2026-01-25 21:48:49.54	296.76	17.92	-28.6	-28.4	17.5	3.80e-06	0	48	0	28202500096	28	14388
2026-01-25 21:48:50.51	297.06	17.87	-28.7	-28.5	17.5	1.90e-06	0	48	0	28319940608	28	14534
2026-01-25 21:48:51.48	297.36	17.81	-28.7	-28.5	17.5	1.90e-06	0	47	0	28428992512	28	14455
2026-01-25 21:48:52.45	297.66	17.75	-28.7	-28.5	17.5	1.90e-06	0	48	0	28538044416	28	14563
2026-01-25 21:48:53.42	297.96	17.69	-28.8	-28.6	17.6	0.00e+00	0	47	0	28638707712	28	14646
2026-01-25 21:48:54.39	298.25	17.64	-28.9	-28.7	17.5	1.90e-06	0	48	0	28756148224	28	14901
2026-01-25 21:48:55.36	298.55	17.58	-28.9	-28.7	17.6	0.00e+00	0	47	0	28865200128	28	14930
2026-01-25 21:48:56.33	298.84	17.52	-28.9	-28.7	17.6	1.90e-06	0	47	0	28965863424	28	14803
2026-01-25 21:48:57.30	299.13	17.46	-28.8	-28.6	17.7	0.00e+00	0	48	0	29083303936	28	14686
2026-01-25 21:48:58.27	299.42	17.40	-28.8	-28.6	17.7	0.00e+00	0	47	0	29192355840	28	14648
2026-01-25 21:48:59.23	299.71	17.33	-28.8	-28.6	17.7	5.70e-06	0	48	0	29293019136	28	14689
2026-01-25 21:49:00.20	300.00	17.27	-28.9	-28.7	17.7	0.00e+00	0	48	0	29410459648	28	14899
2026-01-25 21:49:01.18	300.29	17.21	-29.1	-28.9	17.6	1.90e-06	0	48	0	29519511552	28	15140
2026-01-25 21:49:02.15	300.57	17.15	-29.1	-28.9	17.6	0.00e+00	0	48	0	29620174848	28	15290
2026-01-25 21:49:03.12	300.86	17.09	-29.3	-29.1	17.5	1.90e-06	0	48	0	29737615360	29	14718
2026-01-25 21:49:04.09	301.14	17.02	-29.1	-28.9	17.7	3.80e-06	0	48	0	29846667264	29	14369
2026-01-25 21:49:05.06	301.42	16.96	-29.2	-29.0	17.8	0.00e+00	0	48	0	29955719168	29	14479
2026-01-25 21:49:06.03	301.70	16.89	-29.2	-29.0	17.7	1.90e-06	0	47	0	30056382464	29	14532
2026-01-25 21:49:07.00	301.98	16.83	-29.1	-28.9	17.8	0.00e+00	0	47	0	30173822976	29	14427
2026-01-25 21:49:07.98	302.26	16.76	-29.1	-28.9	17.8	0.00e+00	0	47	0	30282874880	29	14429
2026-01-25 21:49:08.94	302.54	16.70	-29.2	-29.0	17.8	0.00e+00	0	47	0	30383538176	29	14576
2026-01-25 21:49:09.91	302.81	16.63	-29.3	-29.1	17.7	0.00e+00	0	47	0	30500978688	29	14734
2026-01-25 21:49:10.88	303.08	16.57	-29.3	-29.1	17.8	1.90e-06	0	47	0	30610030592	29	14746
2026-01-25 21:49:11.85	303.36	16.50	-29.3	-29.1	17.8	0.00e+00	0	48	0	30727471104	29	14664
2026-01-25 21:49:12.82	303.63	16.44	-29.1	-28.9	17.8	3.80e-06	0	48	0	30828134400	29	14415
2026-01-25 21:49:13.79	303.90	16.37	-29.2	-29.0	17.8	0.00e+00	0	47	0	30937186304	29	14534
2026-01-25 21:49:14.76	304.17	16.30	-29.0	-28.8	17.9	0.00e+00	0	48	0	31046238208	29	14192
2026-01-25 21:49:15.73	304.43	16.23	-29.1	-28.9	17.9	0.00e+00	0	47	0	31155290112	29	14414
2026-01-25 21:49:16.71	304.70	16.17	-29.3	-29.1	17.8	1.90e-06	0	47	0	31264342016	29	14677
2026-01-25 21:49:17.68	304.96	16.10	-29.2	-29.0	17.9	3.80e-06	0	47	0	31373393920	29	14449
2026-01-25 21:49:18.65	305.23	16.03	-29.3	-29.1	17.8	1.90e-06	0	48	0	31474057216	29	14746
2026-01-25 21:49:19.61	305.49	15.96	-29.2	-29.0	17.9	0.00e+00	0	48	0	31591497728	29	14604
2026-01-25 21:49:20.58	305.75	15.89	-29.3	-29.1	17.9	5.70e-06	0	48	0	31700549632	29	14719
2026-01-25 21:49:21.55	306.00	15.82	-29.2	-29.0	17.9	3.80e-06	0	48	0	31817990144	29	14538
2026-01-25 21:49:22.52	306.26	15.75	-29.2	-29.0	17.9	0.00e+00	0	48	0	31918653440	29	14567
2026-01-25 21:49:23.49	306.52	15.68	-29.3	-29.1	17.9	0.00e+00	0	48	0	32027705344	29	14649
2026-01-25 21:49:24.46	306.77	15.61	-29.3	-29.1	17.9	1.90e-06	0	48	0	32136757248	29	14769
2026-01-25 21:49:25.43	307.03	15.54	-29.4	-29.2	17.9	1.90e-06	0	48	0	32245809152	29	14897
2026-01-25 21:49:26.40	307.28	15.47	-29.2	-29.0	18.0	3.80e-06	0	48	0	32354861056	29	14577
2026-01-25 21:49:27.37	307.53	15.40	-29.4	-29.3	17.9	1.90e-06	0	48	0	32463912960	29	14964
2026-01-25 21:49:28.34	307.78	15.33	-29.4	-29.2	17.9	0.00e+00	0	47	0	32564576256	29	14835
2026-01-25 21:49:29.31	308.03	15.26	-29.4	-29.2	17.9	3.80e-06	0	48	0	32682016768	29	14810
2026-01-25 21:49:30.28	308.27	15.19	-29.4	-29.2	17.9	0.00e+00	0	48	0	32791068672	29	14872
2026-01-25 21:49:31.25	308.52	15.12	-29.5	-29.3	17.8	1.90e-06	0	48	0	32908509184	29	15069
2026-01-25 21:49:32.22	308.76	15.05	-29.6	-29.4	17.8	1.90e-06	0	48	0	33009172480	29	15196
2026-01-25 21:49:33.19	309.00	14.98	-29.6	-29.4	17.8	5.70e-06	0	48	0	33118224384	29	15246
2026-01-25 21:49:34.16	309.25	14.91	-29.6	-29.4	17.8	3.80e-06	0	48	0	33235664896	29	15139
2026-01-25 21:49:35.13	309.49	14.83	-29.5	-29.3	17.9	1.90e-06	0	48	0	33336328192	29	15071
2026-01-25 21:49:36.10	309.72	14.76	-29.6	-29.4	17.8	3.80e-06	0	48	0	33445380096	29	15289
2026-01-25 21:49:37.07	309.96	14.69	-29.6	-29.4	17.8	5.70e-06	0	47	0	33554432000	29	15231
2026-01-25 21:49:38.04	310.20	14.62	-29.7	-29.5	17.8	3.80e-06	0	48	0	33663483904	29	15377
2026-01-25 21:49:39.01	310.43	14.54	-29.7	-29.6	17.8	0.00e+00	0	48	0	33772535808	30	14619
2026-01-25 21:49:39.98	310.67	14.47	-29.9	-29.7	17.7	5.70e-06	0	48	0	33881587712	30	14901
2026-01-25 21:49:40.95	310.90	14.40	-29.7	-29.5	17.8	0.00e+00	0	47	0	33999028224	30	14543
2026-01-25 21:49:41.92	311.13	14.33	-29.7	-29.5	17.8	0.00e+00	0	47	0	34099691520	30	14523
2026-01-25 21:49:42.89	311.36	14.25	-29.8	-29.6	17.8	1.90e-06	0	47	0	34208743424	30	14658
2026-01-25 21:49:43.86	311.59	14.18	-29.9	-29.7	17.7	1.90e-06	0	48	0	34326183936	30	14807
2026-01-25 21:49:44.83	311.81	14.11	-29.9	-29.7	17.7	0.00e+00	0	48	0	34426847232	30	14904
2026-01-25 21:49:45.81	312.04	14.03	-29.9	-29.7	17.7	1.90e-06	0	48	0	34535899136	30	14915
2026-01-25 21:49:46.77	312.26	13.96	-29.9	-29.7	17.7	1.90e-06	0	48	0	34653339648	30	14903
2026-01-25 21:49:47.74	312.49	13.89	-30.0	-29.8	17.7	5.70e-06	0	48	0	34754002944	30	14979
2026-01-25 21:49:48.71	312.71	13.81	-29.9	-29.7	17.7	5.70e-06	0	48	0	34863054848	30	14817
2026-01-25 21:49:49.68	312.93	13.74	-29.9	-29.8	17.7	7.60e-06	0	48	0	34972106752	30	14962
2026-01-25 21:49:50.65	313.15	13.67	-29.9	-29.7	17.7	0.00e+00	0	47	0	35089547264	30	14881
2026-01-25 21:49:51.62	313.37	13.59	-30.1	-29.9	17.5	1.90e-06	0	48	0	35190210560	30	15168
2026-01-25 21:49:52.59	313.59	13.52	-30.1	-29.9	17.6	1.90e-06	0	47	0	35299262464	30	15143
2026-01-25 21:49:53.56	313.80	13.45	-30.2	-30.0	17.5	3.80e-06	0	48	0	35416702976	30	15325
2026-01-25 21:49:54.54	314.02	13.37	-29.9	-29.8	17.7	5.70e-06	0	47	0	35517366272	30	14952
2026-01-25 21:49:55.51	314.23	13.30	-30.0	-29.8	17.6	1.90e-06	0	47	0	35626418176	30	15074
2026-01-25 21:49:56.48	314.44	13.22	-30.1	-29.9	17.6	1.90e-06	0	47	0	35743858688	30	15269
2026-01-25 21:49:57.45	314.65	13.15	-30.0	-29.8	17.6	1.90e-06	0	47	0	35852910592	30	15033
2026-01-25 21:49:58.42	314.86	13.08	-30.1	-29.9	17.6	3.80e-06	0	48	0	35953573888	30	15180
2026-01-25 21:49:59.39	315.07	13.00	-30.1	-30.0	17.5	1.90e-06	0	47	0	36071014400	30	15297
2026-01-25 21:50:00.36	315.28	12.93	-30.1	-29.9	17.5	1.90e-06	0	48	0	36180066304	30	15288
2026-01-25 21:50:01.33	315.49	12.85	-30.1	-30.0	17.5	7.60e-06	0	48	0	36280729600	30	15306
2026-01-25 21:50:02.30	315.69	12.78	-30.2	-30.0	17.5	3.80e-06	0	48	0	36389781504	31	14547
2026-01-25 21:50:03.27	315.90	12.71	-30.2	-30.0	17.5	5.70e-06	0	48	0	36507222016	31	14526
2026-01-25 21:50:04.24	316.10	12.63	-30.2	-30.0	17.5	3.80e-06	0	48	0	36607885312	31	14486
2026-01-25 21:50:05.22	316.30	12.56	-30.3	-30.1	17.5	1.90e-06	0	48	0	36716937216	31	14665
2026-01-25 21:50:06.18	316.50	12.48	-30.4	-30.2	17.4	1.14e-05	0	48	0	36834377728	31	14875
2026-01-25 21:50:07.15	316.70	12.41	-30.3	-30.1	17.5	9.50e-06	0	48	0	36943429632	31	14634
2026-01-25 21:50:08.12	316.90	12.34	-30.2	-30.0	17.5	1.90e-06	0	47	0	37044092928	31	14536
2026-01-25 21:50:09.09	317.09	12.26	-30.3	-30.1	17.4	7.60e-06	0	48	0	37161533440	31	14769
2026-01-25 21:50:10.06	317.29	12.19	-30.4	-30.2	17.4	0.00e+00	0	47	0	37270585344	31	14823
2026-01-25 21:50:11.03	317.48	12.11	-30.4	-30.2	17.4	1.33e-05	0	47	0	37371248640	31	14947
2026-01-25 21:50:12.00	317.68	12.04	-30.4	-30.2	17.4	5.70e-06	0	48	0	37488689152	31	14886
2026-01-25 21:50:12.97	317.87	11.97	-30.6	-30.4	17.3	1.14e-05	0	48	0	37597741056	31	15208
2026-01-25 21:50:13.94	318.06	11.89	-30.5	-30.3	17.3	3.80e-06	0	48	0	37698404352	31	14993
2026-01-25 21:50:14.91	318.25	11.82	-30.4	-30.2	17.3	0.00e+00	0	48	0	37807456256	31	14866
2026-01-25 21:50:15.88	318.44	11.75	-30.4	-30.2	17.4	7.60e-06	0	48	0	37924896768	31	14888
2026-01-25 21:50:16.86	318.63	11.67	-30.6	-30.4	17.2	1.52e-05	0	48	0	38033948672	31	15178
2026-01-25 21:50:17.83	318.82	11.60	-30.5	-30.3	17.3	7.60e-06	0	48	0	38134611968	31	14992
2026-01-25 21:50:18.80	319.00	11.52	-53.1	-54.9	6.2	0.00e+00	0	47	104	38193332224	76	19243
2026-01-25 21:50:19.77	319.19	11.45	-53.7	-55.9	6.2	0.00e+00	0	47	104	38193332224	77	20180
2026-01-25 21:50:20.73	319.37	11.38	-53.7	-55.8	6.2	0.00e+00	0	47	104	38193332224	77	20100
2026-01-25 21:50:21.71	319.55	11.30	-53.7	-55.8	6.2	0.00e+00	0	47	104	38193332224	77	20072
2026-01-25 21:50:22.68	319.74	11.23	-53.8	-55.9	6.2	0.00e+00	0	47	104	38193332224	78	19217
2026-01-25 21:50:23.65	319.92	11.16	-53.8	-55.9	6.2	0.00e+00	0	47	104	38193332224	78	19175
2026-01-25 21:50:24.62	320.10	11.08	-53.9	-55.9	6.2	0.00e+00	0	47	104	38193332224	78	19255
2026-01-25 21:50:25.59	320.27	11.01	-53.8	-55.9	6.2	0.00e+00	0	47	104	38193332224	78	19156
2026-01-25 21:50:26.56	320.45	10.94	-53.9	-55.9	6.2	0.00e+00	0	47	104	38193332224	78	19247
2026-01-25 21:50:27.53	320.63	10.86	-53.8	-55.9	6.2	0.00e+00	0	47	104	38193332224	78	19144
2026-01-25 21:50:28.50	320.80	10.79	-53.8	-55.9	6.2	0.00e+00	0	47	104	38193332224	78	19052
2026-01-25 21:50:29.48	320.98	10.72	-53.7	-55.8	6.2	0.00e+00	0	47	104	38193332224	78	18995
2026-01-25 21:50:30.45	321.15	10.64	-53.8	-55.9	6.2	0.00e+00	0	47	104	38193332224	78	19086
2026-01-25 21:50:31.42	321.33	10.57	-53.8	-55.9	6.2	0.00e+00	0	47	104	38193332224	78	19038
2026-01-25 21:50:32.39	321.50	10.50	-53.7	-55.8	6.2	0.00e+00	0	47	104	38193332224	78	18956
2026-01-25 21:50:33.36	321.67	10.43	-53.6	-55.7	6.2	0.00e+00	0	47	104	38193332224	78	18783
2026-01-25 21:50:34.33	321.84	10.35	-53.7	-55.8	6.2	0.00e+00	0	47	104	38193332224	78	18863
2026-01-25 21:50:35.30	322.01	10.28	-53.7	-55.8	6.2	0.00e+00	0	47	104	38193332224	78	18875
2026-01-25 21:50:36.27	322.17	10.21	-53.6	-55.7	6.2	0.00e+00	0	47	104	38193332224	78	18772
2026-01-25 21:50:37.24	322.34	10.14	-53.6	-55.7	6.2	0.00e+00	0	47	104	38193332224	78	18695
2026-01-25 21:50:38.21	322.51	10.06	-53.6	-55.6	6.2	0.00e+00	0	47	104	38193332224	78	18596
2026-01-25 21:50:39.18	322.67	9.99	-53.6	-55.7	6.2	0.00e+00	0	47	104	38193332224	78	18799
2026-01-25 21:50:40.15	322.83	9.92	-53.5	-55.6	6.2	0.00e+00	0	47	104	38193332224	78	18558
2026-01-25 21:50:41.12	323.00	9.85	-53.5	-55.6	6.2	0.00e+00	0	47	104	38193332224	78	18571
2026-01-25 21:50:42.09	323.16	9.78	-53.5	-55.6	6.2	0.00e+00	0	47	104	38193332224	78	18551
2026-01-25 21:50:43.06	323.32	9.70	-53.6	-55.7	6.2	0.00e+00	0	47	104	38193332224	78	18724
2026-01-25 21:50:44.03	323.48	9.63	-53.5	-55.6	6.2	0.00e+00	0	47	104	38193332224	78	18491
2026-01-25 21:50:45.00	323.64	9.56	-53.5	-55.6	6.2	0.00e+00	0	47	104	38193332224	78	18415
2026-01-25 21:50:45.97	323.80	9.49	-53.5	-55.6	6.2	0.00e+00	0	47	104	38193332224	78	18476
2026-01-25 21:50:46.94	323.95	9.42	-53.6	-55.7	6.2	0.00e+00	0	47	104	38193332224	78	18624
2026-01-25 21:50:47.91	324.11	9.35	-53.5	-55.6	6.2	0.00e+00	0	47	104	38193332224	78	18497
2026-01-25 21:50:48.88	324.27	9.28	-53.5	-55.6	6.2	0.00e+00	0	47	104	38193332224	78	18475
2026-01-25 21:50:49.85	324.42	9.20	-53.5	-55.5	6.2	0.00e+00	0	47	104	38193332224	78	18377
2026-01-25 21:50:50.82	324.58	9.13	-53.5	-55.6	6.2	0.00e+00	0	47	104	38193332224	78	18520
2026-01-25 21:50:51.80	324.73	9.06	-53.4	-55.5	6.2	0.00e+00	0	47	104	38193332224	78	18316
2026-01-25 21:50:52.77	324.88	8.99	-53.4	-55.5	6.2	0.00e+00	0	47	104	38193332224	78	18281
2026-01-25 21:50:53.74	325.03	8.92	-53.4	-55.5	6.2	0.00e+00	0	47	104	38193332224	78	18318
2026-01-25 21:50:54.71	325.18	8.85	-53.5	-55.6	6.2	0.00e+00	0	47	104	38193332224	78	18431
2026-01-25 21:50:55.68	325.33	8.78	-53.4	-55.5	6.2	0.00e+00	0	47	104	38193332224	78	18286
2026-01-25 21:50:56.65	325.48	8.71	-53.4	-55.4	6.2	0.00e+00	0	47	104	38193332224	78	18159
2026-01-25 21:50:57.62	325.63	8.64	-53.3	-55.4	6.2	0.00e+00	0	47	104	38193332224	78	18135
2026-01-25 21:50:58.59	325.78	8.57	-53.4	-55.5	6.2	0.00e+00	0	47	104	38193332224	78	18225
2026-01-25 21:50:59.56	325.92	8.50	-53.3	-55.4	6.2	0.00e+00	0	47	104	38193332224	78	18116
2026-01-25 21:51:00.53	326.07	8.43	-53.3	-55.4	6.2	0.00e+00	0	47	104	38193332224	78	18116
2026-01-25 21:51:01.50	326.21	8.36	-53.3	-55.3	6.2	0.00e+00	0	47	104	38193332224	78	17965
2026-01-25 21:51:02.48	326.36	8.29	-53.3	-55.4	6.2	0.00e+00	0	47	104	38193332224	78	18125
2026-01-25 21:51:03.45	326.50	8.22	-53.3	-55.4	6.2	0.00e+00	0	47	104	38193332224	78	18064
2026-01-25 21:51:04.42	326.64	8.15	-53.3	-55.4	6.2	0.00e+00	0	47	104	38193332224	78	18045
2026-01-25 21:51:05.39	326.78	8.08	-53.2	-55.3	6.2	0.00e+00	0	47	104	38193332224	78	17873
2026-01-25 21:51:06.36	326.93	8.01	-53.3	-55.3	6.2	0.00e+00	0	47	104	38193332224	78	17950
2026-01-25 21:51:07.33	327.07	7.94	-53.3	-55.4	6.2	0.00e+00	0	47	104	38193332224	78	17996
2026-01-25 21:51:08.30	327.20	7.87	-53.2	-55.3	6.2	0.00e+00	0	47	104	38193332224	78	17908
2026-01-25 21:51:09.28	327.34	7.80	-53.2	-55.3	6.2	0.00e+00	0	47	104	38193332224	78	17853
2026-01-25 21:51:10.24	327.48	7.74	-53.2	-55.3	6.2	0.00e+00	0	47	104	38193332224	78	17813
2026-01-25 21:51:11.21	327.62	7.67	-53.2	-55.4	6.2	0.00e+00	0	47	104	38193332224	78	17988
2026-01-25 21:51:12.18	327.75	7.60	-53.2	-55.3	6.2	0.00e+00	0	47	104	38193332224	78	17824
2026-01-25 21:51:13.16	327.89	7.53	-53.2	-55.3	6.2	0.00e+00	0	47	104	38193332224	78	17778
2026-01-25 21:51:14.12	328.02	7.46	-53.2	-55.2	6.2	0.00e+00	0	47	104	38193332224	78	17758
2026-01-25 21:51:15.09	328.16	7.39	-53.2	-55.3	6.2	0.00e+00	0	47	104	38193332224	78	17945
2026-01-25 21:51:16.06	328.29	7.33	-53.2	-55.2	6.2	0.00e+00	0	47	104	38193332224	78	17691
2026-01-25 21:51:17.04	328.42	7.26	-53.2	-55.3	6.2	0.00e+00	0	47	104	38193332224	78	17779
2026-01-25 21:51:18.00	328.55	7.19	-53.1	-55.2	6.2	0.00e+00	0	47	104	38193332224	78	17673
2026-01-25 21:51:18.98	328.69	7.12	-53.2	-55.3	6.2	0.00e+00	0	47	104	38193332224	78	17911
2026-01-25 21:51:19.95	328.82	7.05	-53.1	-55.2	6.2	0.00e+00	0	47	104	38193332224	78	17716
2026-01-25 21:51:20.92	328.95	6.99	-53.1	-55.2	6.2	0.00e+00	0	47	104	38193332224	78	17726
2026-01-25 21:51:21.88	329.07	6.92	-53.1	-55.2	6.2	0.00e+00	0	47	104	38193332224	78	17594
2026-01-25 21:51:22.86	329.20	6.85	-53.2	-55.3	6.2	0.00e+00	0	47	104	38193332224	78	17838
2026-01-25 21:51:23.83	329.33	6.79	-53.1	-55.2	6.2	0.00e+00	0	47	104	38193332224	78	17674
2026-01-25 21:51:24.80	329.46	6.72	-53.1	-55.2	6.2	0.00e+00	0	47	104	38193332224	78	17634
2026-01-25 21:51:25.77	329.58	6.65	-53.1	-55.1	6.2	0.00e+00	0	47	104	38193332224	78	17543
2026-01-25 21:51:26.73	329.71	6.59	-53.2	-55.2	6.2	0.00e+00	0	47	104	38193332224	78	17730
2026-01-25 21:51:27.70	329.83	6.52	-53.1	-55.2	6.2	0.00e+00	0	47	104	38193332224	78	17629
2026-01-25 21:51:28.67	329.96	6.45	-53.1	-55.2	6.2	0.00e+00	0	47	104	38193332224	78	17628
2026-01-25 21:51:29.64	330.08	6.39	-53.0	-55.1	6.2	0.00e+00	0	47	104	38193332224	78	17413
2026-01-25 21:51:30.61	330.20	6.32	-53.1	-55.2	6.2	0.00e+00	0	47	104	38193332224	78	17597
2026-01-25 21:51:31.58	330.32	6.25	-53.0	-55.1	6.2	0.00e+00	0	47	104	38193332224	78	17541
2026-01-25 21:51:32.55	330.45	6.19	-53.0	-55.1	6.2	0.00e+00	0	47	104	38193332224	78	17520
2026-01-25 21:51:33.51	330.57	6.12	-52.9	-55.0	6.2	0.00e+00	0	47	104	38193332224	77	18370
2026-01-25 21:51:34.49	330.69	6.06	-53.0	-55.1	6.2	0.00e+00	0	47	104	38193332224	77	18486
2026-01-25 21:51:35.45	330.81	5.99	-53.0	-55.1	6.2	0.00e+00	0	47	104	38193332224	77	18512
2026-01-25 21:51:36.42	330.92	5.93	-53.0	-55.1	6.2	0.00e+00	0	47	104	38193332224	77	18441
2026-01-25 21:51:37.39	331.04	5.86	-52.9	-55.0	6.2	0.00e+00	0	47	104	38193332224	77	18305
2026-01-25 21:51:38.37	331.16	5.80	-52.9	-55.0	6.2	0.00e+00	0	47	104	38193332224	77	18352
2026-01-25 21:51:39.34	331.28	5.73	-53.0	-55.1	6.2	0.00e+00	0	47	104	38193332224	77	18475
2026-01-25 21:51:40.31	331.40	5.67	-52.9	-55.0	6.2	0.00e+00	0	47	104	38193332224	77	18216
2026-01-25 21:51:41.28	331.51	5.60	-52.9	-55.0	6.2	0.00e+00	0	47	104	38193332224	77	18265
2026-01-25 21:51:42.25	331.63	5.54	-52.9	-54.9	6.2	0.00e+00	0	47	104	38193332224	77	18154
2026-01-25 21:51:43.22	331.74	5.47	-53.0	-55.0	6.2	0.00e+00	0	47	104	38193332224	77	18369
2026-01-25 21:51:44.19	331.85	5.41	-52.8	-54.9	6.2	0.00e+00	0	47	104	38193332224	77	18134
2026-01-25 21:51:45.16	331.97	5.34	-52.9	-55.0	6.2	0.00e+00	0	47	104	38193332224	77	18226
2026-01-25 21:51:46.13	332.08	5.28	-52.8	-54.9	6.2	0.00e+00	0	47	104	38193332224	77	17985
2026-01-25 21:51:47.10	332.19	5.21	-52.9	-55.0	6.2	0.00e+00	0	47	104	38193332224	77	18341
2026-01-25 21:51:48.07	332.31	5.15	-52.8	-54.9	6.2	0.00e+00	0	47	104	38193332224	77	18105
2026-01-25 21:51:49.04	332.42	5.09	-52.8	-54.9	6.2	0.00e+00	0	47	104	38193332224	77	18116
2026-01-25 21:51:50.01	332.53	5.02	-52.7	-54.8	6.2	0.00e+00	0	47	104	38193332224	77	17811
2026-01-25 21:51:50.97	332.64	4.96	-52.9	-55.0	6.2	0.00e+00	0	47	104	38193332224	77	18262
2026-01-25 21:51:51.94	332.75	4.90	-53.4	-55.5	6.2	0.00e+00	0	47	104	38193332224	77	19268
2026-01-25 21:51:52.91	332.85	4.83	-53.8	-55.9	6.2	0.00e+00	0	47	104	38193332224	78	19080
2026-01-25 21:51:53.88	332.96	4.77	-54.0	-56.0	6.2	0.00e+00	0	47	104	38193332224	78	19477
2026-01-25 21:51:54.85	333.07	4.71	-54.1	-56.2	6.2	0.00e+00	0	47	104	38193332224	78	19781
2026-01-25 21:51:55.83	333.18	4.64	-54.1	-56.2	6.2	0.00e+00	0	47	104	38193332224	78	19793
2026-01-25 21:51:56.80	333.29	4.58	-54.2	-56.3	6.2	0.00e+00	0	47	104	38193332224	78	20041
2026-01-25 21:51:57.77	333.39	4.52	-54.3	-56.4	6.2	0.00e+00	0	47	104	38193332224	79	19076
2026-01-25 21:51:58.74	333.50	4.46	-54.2	-56.3	6.2	0.00e+00	0	47	104	38193332224	79	19028
2026-01-25 21:51:59.71	333.60	4.39	-54.2	-56.3	6.2	0.00e+00	0	47	104	38193332224	79	18911
2026-01-25 21:52:00.69	333.71	4.33	-54.1	-56.2	6.2	0.00e+00	0	47	104	38193332224	79	18756
2026-01-25 21:52:01.66	333.81	4.27	-54.0	-56.1	6.2	0.00e+00	0	47	104	38193332224	79	18495
2026-01-25 21:52:02.63	333.92	4.21	-53.9	-56.0	6.2	0.00e+00	0	47	104	38193332224	79	18259
2026-01-25 21:52:03.60	334.02	4.14	-53.9	-56.0	6.2	0.00e+00	0	47	104	38193332224	79	18354
2026-01-25 21:52:04.57	334.12	4.08	-53.9	-56.1	6.2	0.00e+00	0	47	104	38193332224	79	18413
2026-01-25 21:52:05.54	334.22	4.02	-54.0	-56.0	6.2	0.00e+00	0	47	104	38193332224	79	18378
2026-01-25 21:52:06.51	334.33	3.96	-53.9	-56.1	6.2	0.00e+00	0	47	104	38193332224	79	18391
2026-01-25 21:52:07.48	334.43	3.90	-53.9	-56.0	6.2	0.00e+00	0	47	104	38193332224	79	18325
2026-01-25 21:52:08.45	334.53	3.84	-54.0	-56.0	6.2	0.00e+00	0	47	104	38193332224	79	18341
2026-01-25 21:52:09.42	334.63	3.77	-53.9	-56.0	6.2	0.00e+00	0	47	104	38193332224	79	18383
2026-01-25 21:52:10.39	334.73	3.71	-53.9	-56.0	6.2	0.00e+00	0	47	104	38193332224	79	18281
2026-01-25 21:52:11.36	334.83	3.65	-53.9	-56.0	6.2	0.00e+00	0	47	104	38193332224	79	18237
2026-01-25 21:52:12.34	334.93	3.59	-53.9	-56.0	6.2	0.00e+00	0	47	104	38193332224	79	18222
2026-01-25 21:52:13.31	335.02	3.53	-53.8	-55.9	6.2	0.00e+00	0	47	104	38193332224	79	18063
2026-01-25 21:52:14.28	335.12	3.47	-53.8	-55.9	6.2	0.00e+00	0	47	104	38193332224	79	18002
2026-01-25 21:52:15.26	335.22	3.41	-53.7	-55.8	6.2	0.00e+00	0	47	104	38193332224	79	17934
2026-01-25 21:52:16.23	335.32	3.35	-53.7	-55.8	6.2	0.00e+00	0	47	104	38193332224	79	17935
2026-01-25 21:52:17.19	335.41	3.29	-53.7	-55.8	6.2	0.00e+00	0	47	104	38193332224	79	17900
2026-01-25 21:52:18.17	335.51	3.23	-53.7	-55.8	6.2	0.00e+00	0	47	104	38193332224	79	17849
2026-01-25 21:52:19.13	335.60	3.17	-53.7	-55.8	6.2	0.00e+00	0	47	104	38193332224	79	17860
2026-01-25 21:52:20.10	335.70	3.11	-53.7	-55.8	6.2	0.00e+00	0	47	104	38193332224	79	17881
2026-01-25 21:52:21.07	335.79	3.05	-53.7	-55.8	6.2	0.00e+00	0	47	104	38193332224	79	17854
2026-01-25 21:52:22.04	335.89	2.99	-53.7	-55.8	6.2	0.00e+00	0	47	104	38193332224	79	17850
2026-01-25 21:52:23.01	335.98	2.93	-53.7	-55.7	6.2	0.00e+00	0	47	104	38193332224	79	17716
2026-01-25 21:52:23.98	336.07	2.87	-53.6	-55.8	6.2	0.00e+00	0	47	104	38193332224	79	17777
2026-01-25 21:52:24.95	336.16	2.81	-53.6	-55.7	6.2	0.00e+00	0	47	104	38193332224	79	17729
2026-01-25 21:52:25.93	336.26	2.75	-53.6	-55.8	6.2	0.00e+00	0	47	104	38193332224	79	17773
2026-01-25 21:52:26.90	336.35	2.69	-53.6	-55.7	6.2	0.00e+00	0	47	104	38193332224	79	17693
2026-01-25 21:52:27.87	336.44	2.63	-53.6	-55.7	6.2	0.00e+00	0	47	104	38193332224	79	17698
2026-01-25 21:52:28.84	336.53	2.57	-53.6	-55.7	6.2	0.00e+00	0	47	104	38193332224	79	17654
2026-01-25 21:52:29.81	336.62	2.51	-53.6	-55.7	6.2	0.00e+00	0	47	104	38193332224	79	17692
2026-01-25 21:52:30.79	336.71	2.45	-53.6	-55.7	6.2	0.00e+00	0	47	104	38193332224	79	17660
2026-01-25 21:52:31.76	336.80	2.39	-53.6	-55.7	6.2	0.00e+00	0	47	104	38193332224	79	17660
2026-01-25 21:52:32.73	336.89	2.34	-53.6	-55.7	6.2	0.00e+00	0	47	104	38193332224	79	17694
2026-01-25 21:52:33.70	336.98	2.28	-53.6	-55.7	6.2	0.00e+00	0	47	104	38193332224	79	17614
2026-01-25 21:52:34.67	337.07	2.22	-53.6	-55.6	6.2	0.00e+00	0	47	104	38193332224	79	17562
2026-01-25 21:52:35.64	337.16	2.16	-53.6	-55.7	6.2	0.00e+00	0	47	104	38193332224	79	17596
2026-01-25 21:52:36.61	337.24	2.10	-53.6	-55.7	6.2	0.00e+00	0	47	104	38193332224	79	17586
2026-01-25 21:52:37.58	337.33	2.04	-53.6	-55.7	6.2	0.00e+00	0	47	104	38193332224	79	17569
2026-01-25 21:52:38.55	337.42	1.99	-53.6	-55.7	6.2	0.00e+00	0	47	104	38193332224	79	17578
2026-01-25 21:52:39.52	337.50	1.93	-53.5	-55.6	6.2	0.00e+00	0	47	104	38193332224	79	17485
2026-01-25 21:52:40.49	337.59	1.87	-53.5	-55.6	6.2	0.00e+00	0	47	104	38193332224	79	17483

#Closed at: 2026-01-25 21:52:40
#Recorded file [38193 MB]: D:/lorett/data/31041_260126_004247.dat