passes_logs/2026/01/25/R3.2S_Murmansk/R3.2S_Murmansk__20260125_050406_NOAA_20_JPSS-1_rec.log

#Pass ID: 20260125_050406_NOAA 20 (JPSS-1)
#Satellite: NOAA 20 (JPSS-1)
#Configuration: NOAA 20
#almurnet v.1.7.20251203
#Start time: 2026-01-25 05:04:06

#Version: 2.2.20231116
#Station: R3.2S_Murmansk
#Location: 33.079688 lon 68.888172 lat
#TLE: 1 43013U 17073A   26024.42258823  .00000183  00000+0  10747-3 0  9990
#TLE: 2 43013  98.7646 325.2629 0001105  25.8644 334.2587 14.19539754424075

#Time	Az	El	Level	Level2	SNR	BER	BlckErr	Temp	State	Recorded	gain1	gain2
2026-01-25 05:04:06.89	60.68	2.03	-52.0	-67.0	3.8	1.49e+00	0	42	0	0	76	19281
2026-01-25 05:04:07.89	60.61	2.09	-52.0	-67.0	3.8	1.49e+00	0	42	104	0	74	21632
2026-01-25 05:04:08.90	60.55	2.15	-52.0	-67.0	3.8	1.49e+00	0	42	104	0	74	21586
2026-01-25 05:04:09.91	60.48	2.20	-52.0	-67.0	3.8	1.49e+00	0	42	104	0	74	21630
2026-01-25 05:04:10.92	60.42	2.26	-52.0	-67.0	3.8	1.49e+00	0	42	104	0	74	21591
2026-01-25 05:04:11.93	60.35	2.32	-52.0	-67.0	3.8	1.49e+00	0	42	104	0	74	21527
2026-01-25 05:04:12.93	60.29	2.38	-52.0	-67.0	3.8	1.49e+00	0	42	104	0	74	21513
2026-01-25 05:04:13.94	60.22	2.43	-52.0	-67.0	3.8	1.49e+00	0	42	104	0	74	21583
2026-01-25 05:04:14.95	60.15	2.49	-52.0	-67.0	3.8	1.49e+00	0	42	104	0	74	21576
2026-01-25 05:04:15.96	60.09	2.55	-52.0	-67.0	3.8	1.49e+00	0	42	104	0	74	21518
2026-01-25 05:04:16.97	60.02	2.61	-52.0	-67.0	3.8	1.49e+00	0	42	104	0	74	21630
2026-01-25 05:04:17.97	59.95	2.66	-52.0	-67.0	3.8	1.49e+00	0	42	104	0	74	21612
2026-01-25 05:04:18.98	59.88	2.72	-52.0	-67.0	3.8	1.49e+00	0	42	104	0	74	21555
2026-01-25 05:04:19.99	59.82	2.78	-52.0	-67.0	3.8	1.49e+00	0	42	104	0	74	21556
2026-01-25 05:04:21.00	59.75	2.84	-52.0	-66.9	3.8	1.49e+00	0	42	104	0	74	21502
2026-01-25 05:04:22.00	59.68	2.90	-52.0	-67.0	3.8	1.49e+00	0	42	104	0	74	21518
2026-01-25 05:04:23.01	59.61	2.95	-52.0	-66.9	3.8	1.49e+00	0	42	104	0	74	21492
2026-01-25 05:04:24.02	59.54	3.01	-52.0	-67.0	3.8	1.49e+00	0	42	104	0	74	21531
2026-01-25 05:04:25.03	59.47	3.07	-52.0	-67.0	3.8	1.49e+00	0	42	104	0	74	21533
2026-01-25 05:04:26.04	59.40	3.13	-52.0	-67.0	3.8	1.49e+00	0	43	104	0	74	21536
2026-01-25 05:04:27.05	59.33	3.19	-52.0	-67.0	3.8	1.49e+00	0	42	104	0	74	21555
2026-01-25 05:04:28.06	59.26	3.25	-52.0	-66.9	3.8	1.49e+00	0	42	104	0	74	21494
2026-01-25 05:04:29.07	59.19	3.31	-52.0	-66.9	3.8	1.49e+00	0	42	104	0	74	21445
2026-01-25 05:04:30.08	59.12	3.37	-52.0	-66.9	3.8	1.49e+00	0	43	104	0	74	21374
2026-01-25 05:04:31.09	59.05	3.42	-52.0	-66.9	3.8	1.49e+00	0	43	104	0	74	21322
2026-01-25 05:04:32.10	58.98	3.48	-52.0	-66.9	3.8	1.49e+00	0	43	104	0	74	21407
2026-01-25 05:04:33.10	58.91	3.54	-52.0	-66.9	3.8	1.49e+00	0	43	104	0	74	21467
2026-01-25 05:04:34.11	58.84	3.60	-52.0	-67.0	3.8	1.49e+00	0	43	104	0	74	21550
2026-01-25 05:04:35.12	58.77	3.66	-52.0	-66.9	3.8	1.49e+00	0	43	104	0	74	21504
2026-01-25 05:04:36.13	58.69	3.72	-52.0	-66.9	3.8	1.49e+00	0	43	104	0	74	21429
2026-01-25 05:04:37.14	58.62	3.78	-52.0	-66.9	3.8	1.49e+00	0	43	104	0	74	21370
2026-01-25 05:04:38.15	58.55	3.84	-52.0	-66.9	3.8	1.49e+00	0	43	104	0	74	21358
2026-01-25 05:04:39.16	58.47	3.90	-52.0	-66.9	3.8	1.49e+00	0	43	104	0	74	21467
2026-01-25 05:04:40.17	58.40	3.96	-52.0	-66.9	3.8	1.49e+00	0	43	104	0	74	21471
2026-01-25 05:04:41.18	58.32	4.02	-52.0	-66.9	3.8	1.49e+00	0	43	104	0	74	21483
2026-01-25 05:04:42.18	58.25	4.08	-52.0	-66.8	3.8	1.49e+00	0	43	104	0	74	21205
2026-01-25 05:04:43.19	58.18	4.14	-52.0	-66.4	3.8	1.49e+00	0	43	104	0	74	20172
2026-01-25 05:04:44.20	58.10	4.20	-52.0	-65.7	3.8	1.49e+00	0	43	104	0	74	18665
2026-01-25 05:04:45.21	58.03	4.26	-51.9	-65.2	3.8	1.49e+00	0	43	104	0	74	17587
2026-01-25 05:04:46.21	57.95	4.32	-51.9	-64.6	3.8	1.48e+00	0	43	104	0	74	16458
2026-01-25 05:04:47.22	57.87	4.38	-51.9	-64.5	3.9	1.49e+00	0	43	104	0	74	16142
2026-01-25 05:04:48.23	57.80	4.44	-51.9	-64.5	4.0	1.48e+00	0	43	104	0	74	16131
2026-01-25 05:04:49.24	57.72	4.50	-51.9	-64.4	4.0	1.47e+00	0	43	104	0	74	16096
2026-01-25 05:04:50.25	57.64	4.56	-51.9	-64.1	4.0	1.48e+00	0	43	0	0	74	15522
2026-01-25 05:04:51.26	57.57	4.62	-51.8	-63.2	4.3	1.39e+00	0	43	0	0	74	13916
2026-01-25 05:04:52.27	57.49	4.68	-51.6	-61.3	5.0	8.91e-01	0	43	0	1048576	74	11261
2026-01-25 05:04:53.28	57.41	4.74	-51.4	-59.4	6.4	4.49e-01	0	43	0	3145728	74	9016
2026-01-25 05:04:54.29	57.33	4.81	-51.1	-58.0	7.7	1.51e-01	0	43	0	5242880	74	7633
2026-01-25 05:04:55.30	57.25	4.87	-50.7	-56.4	9.3	3.94e-02	0	43	0	7340032	73	6756
2026-01-25 05:04:56.31	57.17	4.93	-50.3	-55.2	10.5	7.67e-03	0	43	0	8388608	72	6257
2026-01-25 05:04:57.31	57.10	4.99	-50.4	-55.5	10.3	5.40e-03	0	43	0	10485760	72	6447
2026-01-25 05:04:58.32	57.02	5.05	-49.7	-53.6	12.2	2.30e-03	0	43	0	12582912	71	5521
2026-01-25 05:04:59.33	56.94	5.11	-49.5	-53.2	12.9	1.35e-04	0	43	0	14680064	70	5530
2026-01-25 05:05:00.34	56.86	5.17	-48.7	-51.6	14.6	2.20e-06	0	43	0	16777216	69	4897
2026-01-25 05:05:01.35	56.77	5.24	-51.8	-62.9	4.0	1.48e+00	0	43	104	16777216	74	13488
2026-01-25 05:05:02.35	56.69	5.30	-49.8	-53.7	12.0	5.31e-02	0	43	0	16777216	71	5573
2026-01-25 05:05:03.36	56.61	5.36	-48.6	-51.6	14.4	7.00e-07	0	43	0	18874368	68	5164
2026-01-25 05:05:04.37	56.53	5.42	-48.2	-50.8	15.3	0.00e+00	0	43	0	20971520	68	4728
2026-01-25 05:05:05.38	56.45	5.48	-48.2	-50.9	15.2	0.00e+00	0	43	0	22020096	68	4777
2026-01-25 05:05:06.39	56.37	5.54	-47.9	-50.4	15.7	0.00e+00	0	43	0	24117248	67	4775
2026-01-25 05:05:07.40	56.28	5.61	-47.8	-50.2	15.9	0.00e+00	0	43	0	26214400	67	4675
2026-01-25 05:05:08.41	56.20	5.67	-47.9	-50.3	15.8	0.00e+00	0	43	0	28311552	67	4739
2026-01-25 05:05:09.42	56.12	5.73	-48.0	-50.6	15.5	0.00e+00	0	43	0	30408704	67	4879
2026-01-25 05:05:10.43	56.03	5.79	-47.8	-50.3	15.8	0.00e+00	0	43	0	32505856	67	4719
2026-01-25 05:05:11.43	55.95	5.86	-47.7	-50.0	16.1	7.00e-07	0	43	0	33554432	67	4587
2026-01-25 05:05:12.44	55.86	5.92	-47.6	-49.8	16.3	0.00e+00	0	43	0	35651584	67	4491
2026-01-25 05:05:13.45	55.78	5.98	-47.8	-50.2	16.0	0.00e+00	0	43	0	37748736	67	4652
2026-01-25 05:05:14.46	55.69	6.04	-47.8	-50.2	15.9	0.00e+00	0	43	0	39845888	67	4688
2026-01-25 05:05:15.47	55.61	6.11	-48.0	-50.4	15.7	0.00e+00	0	43	0	41943040	67	4804
2026-01-25 05:05:16.48	55.52	6.17	-48.0	-50.5	15.6	0.00e+00	0	43	0	42991616	67	4857
2026-01-25 05:05:17.49	55.43	6.23	-47.7	-50.1	16.1	0.00e+00	0	43	0	45088768	67	4615
2026-01-25 05:05:18.50	55.34	6.30	-47.3	-49.4	16.8	0.00e+00	0	43	0	47185920	66	4535
2026-01-25 05:05:19.50	55.26	6.36	-47.8	-50.1	16.1	0.00e+00	0	43	0	49283072	66	4910
2026-01-25 05:05:20.51	55.17	6.42	-47.7	-49.9	16.3	0.00e+00	0	43	0	51380224	66	4796
2026-01-25 05:05:21.52	55.08	6.49	-48.0	-50.4	15.9	0.00e+00	0	43	0	52428800	66	5045
2026-01-25 05:05:22.53	54.99	6.55	-47.8	-50.1	16.1	0.00e+00	0	43	0	54525952	66	4902
2026-01-25 05:05:23.54	54.90	6.61	-47.7	-49.9	16.3	0.00e+00	0	43	0	56623104	66	4800
2026-01-25 05:05:24.55	54.81	6.68	-47.7	-50.0	16.2	0.00e+00	0	44	0	58720256	66	4861
2026-01-25 05:05:25.55	54.72	6.74	-47.6	-49.9	16.4	0.00e+00	0	43	0	60817408	66	4783
2026-01-25 05:05:26.57	54.63	6.80	-47.7	-49.9	16.4	0.00e+00	0	43	0	61865984	66	4796
2026-01-25 05:05:27.57	54.54	6.87	-47.8	-50.1	16.2	0.00e+00	0	43	0	63963136	66	4911
2026-01-25 05:05:28.58	54.45	6.93	-47.8	-50.1	16.3	0.00e+00	0	44	0	66060288	66	4871
2026-01-25 05:05:29.59	54.36	7.00	-47.7	-49.9	16.4	0.00e+00	0	43	0	68157440	66	4810
2026-01-25 05:05:30.60	54.27	7.06	-47.7	-50.0	16.3	0.00e+00	0	43	0	70254592	66	4854
2026-01-25 05:05:31.60	54.18	7.12	-47.7	-50.0	16.4	0.00e+00	0	43	0	72351744	66	4825
2026-01-25 05:05:32.61	54.08	7.19	-47.8	-50.1	16.3	0.00e+00	0	43	0	73400320	66	4880
2026-01-25 05:05:33.62	53.99	7.25	-47.7	-49.9	16.5	0.00e+00	0	43	0	75497472	66	4781
2026-01-25 05:05:34.63	53.90	7.32	-47.8	-50.1	16.2	0.00e+00	0	44	0	77594624	66	4899
2026-01-25 05:05:35.64	53.80	7.38	-47.8	-50.1	16.2	0.00e+00	0	43	0	79691776	66	4912
2026-01-25 05:05:36.65	53.71	7.45	-47.8	-50.1	16.2	0.00e+00	0	43	0	80740352	66	4918
2026-01-25 05:05:37.66	53.61	7.51	-47.6	-49.8	16.6	0.00e+00	0	43	0	82837504	66	4714
2026-01-25 05:05:38.67	53.52	7.58	-47.6	-49.8	16.5	0.00e+00	0	44	0	84934656	66	4757
2026-01-25 05:05:39.67	53.42	7.64	-47.4	-49.5	16.8	0.00e+00	0	44	0	87031808	66	4598
2026-01-25 05:05:40.68	53.33	7.71	-47.7	-49.9	16.5	0.00e+00	0	43	0	89128960	66	4797
2026-01-25 05:05:41.69	53.23	7.77	-47.5	-49.7	16.7	0.00e+00	0	44	0	91226112	66	4652
2026-01-25 05:05:42.70	53.13	7.84	-47.4	-49.5	16.9	0.00e+00	0	44	0	92274688	66	4577
2026-01-25 05:05:43.71	53.03	7.90	-47.4	-49.5	17.0	0.00e+00	0	44	0	94371840	66	4547
2026-01-25 05:05:44.72	52.93	7.97	-47.5	-49.6	16.9	0.00e+00	0	43	0	96468992	66	4605
2026-01-25 05:05:45.73	52.84	8.03	-47.5	-49.6	16.8	0.00e+00	0	44	0	98566144	66	4650
2026-01-25 05:05:46.74	52.74	8.10	-47.4	-49.5	16.9	0.00e+00	0	44	0	100663296	66	4579
2026-01-25 05:05:47.75	52.64	8.17	-47.2	-49.1	17.3	0.00e+00	0	44	0	101711872	66	4382
2026-01-25 05:05:48.75	52.54	8.23	-47.3	-49.3	17.2	0.00e+00	0	44	0	103809024	66	4473
2026-01-25 05:05:49.76	52.44	8.30	-47.3	-49.4	17.1	0.00e+00	0	44	0	105906176	66	4510
2026-01-25 05:05:50.77	52.34	8.36	-47.3	-49.3	17.2	0.00e+00	0	44	0	108003328	66	4474
2026-01-25 05:05:51.78	52.24	8.43	-47.3	-49.3	17.2	0.00e+00	0	43	0	109051904	66	4443
2026-01-25 05:05:52.79	52.13	8.50	-47.3	-49.3	17.1	0.00e+00	0	43	0	111149056	66	4480
2026-01-25 05:05:53.79	52.03	8.56	-47.1	-49.0	17.5	0.00e+00	0	44	0	113246208	66	4323
2026-01-25 05:05:54.80	51.93	8.63	-47.2	-49.2	17.3	0.00e+00	0	44	0	115343360	66	4396
2026-01-25 05:05:55.81	51.83	8.69	-47.2	-49.1	17.3	0.00e+00	0	44	0	117440512	66	4391
2026-01-25 05:05:56.82	51.72	8.76	-47.1	-49.1	17.4	0.00e+00	0	44	0	119537664	66	4349
2026-01-25 05:05:57.83	51.62	8.83	-47.3	-49.3	17.2	0.00e+00	0	43	0	120586240	66	4486
2026-01-25 05:05:58.84	51.51	8.89	-47.2	-49.2	17.3	0.00e+00	0	44	0	122683392	66	4396
2026-01-25 05:05:59.85	51.41	8.96	-47.2	-49.2	17.4	0.00e+00	0	43	0	124780544	66	4394
2026-01-25 05:06:00.85	51.30	9.03	-47.2	-49.1	17.4	0.00e+00	0	44	0	126877696	66	4385
2026-01-25 05:06:01.86	51.20	9.09	-47.2	-49.1	17.4	0.00e+00	0	43	0	128974848	66	4383
2026-01-25 05:06:02.87	51.09	9.16	-47.1	-49.1	17.5	0.00e+00	0	44	0	130023424	66	4343
2026-01-25 05:06:03.87	50.98	9.23	-47.2	-49.1	17.4	0.00e+00	0	44	0	132120576	66	4385
2026-01-25 05:06:04.88	50.87	9.29	-47.3	-49.3	17.3	0.00e+00	0	44	0	134217728	66	4449
2026-01-25 05:06:05.89	50.77	9.36	-47.2	-49.2	17.4	0.00e+00	0	44	0	136314880	66	4416
2026-01-25 05:06:06.90	50.66	9.43	-47.2	-49.1	17.4	0.00e+00	0	44	0	138412032	66	4379
2026-01-25 05:06:07.91	50.55	9.50	-47.3	-49.3	17.3	0.00e+00	0	44	0	139460608	66	4470
2026-01-25 05:06:08.92	50.44	9.56	-47.3	-49.2	17.3	0.00e+00	0	44	0	141557760	66	4432
2026-01-25 05:06:09.92	50.33	9.63	-47.4	-49.4	17.2	0.00e+00	0	44	0	143654912	66	4518
2026-01-25 05:06:10.93	50.22	9.70	-47.4	-49.4	17.2	0.00e+00	0	44	0	145752064	66	4509
2026-01-25 05:06:11.94	50.11	9.77	-47.4	-49.4	17.1	0.00e+00	0	44	0	147849216	66	4530
2026-01-25 05:06:12.95	49.99	9.83	-47.3	-49.3	17.3	0.00e+00	0	43	0	148897792	66	4453
2026-01-25 05:06:13.96	49.88	9.90	-47.4	-49.4	17.2	0.00e+00	0	44	0	150994944	66	4504
2026-01-25 05:06:14.97	49.77	9.97	-47.5	-49.5	17.1	0.00e+00	0	44	0	153092096	66	4567
2026-01-25 05:06:15.97	49.66	10.04	-47.4	-49.4	17.2	0.00e+00	0	44	0	155189248	66	4530
2026-01-25 05:06:16.98	49.54	10.11	-47.5	-49.5	17.1	0.00e+00	0	44	0	157286400	66	4567
2026-01-25 05:06:17.99	49.43	10.17	-47.4	-49.4	17.2	0.00e+00	0	44	0	158334976	66	4516
2026-01-25 05:06:19.00	49.31	10.24	-47.4	-49.5	17.2	0.00e+00	0	44	0	160432128	66	4547
2026-01-25 05:06:20.01	49.19	10.31	-47.3	-49.3	17.4	0.00e+00	0	44	0	162529280	66	4458
2026-01-25 05:06:21.02	49.08	10.38	-47.4	-49.4	17.2	0.00e+00	0	44	0	164626432	66	4537
2026-01-25 05:06:22.03	48.96	10.45	-47.3	-49.3	17.3	0.00e+00	0	44	0	166723584	66	4475
2026-01-25 05:06:23.04	48.84	10.52	-47.3	-49.3	17.4	0.00e+00	0	44	0	167772160	66	4449
2026-01-25 05:06:24.05	48.73	10.58	-47.3	-49.3	17.4	0.00e+00	0	44	0	169869312	66	4447
2026-01-25 05:06:25.05	48.61	10.65	-47.2	-49.1	17.6	0.00e+00	0	44	0	171966464	66	4353
2026-01-25 05:06:26.06	48.49	10.72	-47.2	-49.1	17.6	0.00e+00	0	44	0	174063616	66	4348
2026-01-25 05:06:27.07	48.37	10.79	-47.1	-49.0	17.7	0.00e+00	0	44	0	176160768	66	4295
2026-01-25 05:06:28.08	48.25	10.86	-47.0	-48.8	17.8	0.00e+00	0	44	0	177209344	66	4236
2026-01-25 05:06:29.09	48.13	10.93	-47.0	-48.8	17.9	0.00e+00	0	44	0	179306496	65	4464
2026-01-25 05:06:30.09	48.01	11.00	-46.9	-48.7	17.9	0.00e+00	0	44	0	181403648	65	4429
2026-01-25 05:06:31.10	47.88	11.07	-47.0	-48.8	17.9	0.00e+00	0	44	0	183500800	65	4455
2026-01-25 05:06:32.11	47.76	11.14	-46.9	-48.7	17.9	0.00e+00	0	44	0	185597952	65	4416
2026-01-25 05:06:33.12	47.64	11.20	-47.0	-48.8	17.9	0.00e+00	0	44	0	186646528	65	4476
2026-01-25 05:06:34.13	47.51	11.27	-47.0	-48.8	17.9	0.00e+00	0	44	0	188743680	65	4448
2026-01-25 05:06:35.13	47.39	11.34	-46.9	-48.7	18.0	0.00e+00	0	44	0	190840832	65	4405
2026-01-25 05:06:36.14	47.27	11.41	-46.7	-48.4	18.3	0.00e+00	0	44	0	192937984	65	4287
2026-01-25 05:06:37.15	47.14	11.48	-46.6	-48.3	18.3	0.00e+00	0	44	0	195035136	65	4239
2026-01-25 05:06:38.16	47.01	11.55	-46.6	-48.2	18.5	0.00e+00	0	44	0	196083712	65	4177
2026-01-25 05:06:39.17	46.89	11.62	-46.6	-48.3	18.4	0.00e+00	0	44	0	198180864	65	4218
2026-01-25 05:06:40.18	46.76	11.69	-46.6	-48.3	18.4	0.00e+00	0	44	0	200278016	65	4206
2026-01-25 05:06:41.19	46.63	11.76	-46.7	-48.4	18.3	0.00e+00	0	44	0	202375168	65	4255
2026-01-25 05:06:42.19	46.50	11.83	-46.7	-48.5	18.3	0.00e+00	0	44	0	204472320	65	4308
2026-01-25 05:06:43.20	46.37	11.90	-46.7	-48.4	18.3	0.00e+00	0	44	0	206569472	65	4253
2026-01-25 05:06:44.21	46.24	11.97	-46.7	-48.4	18.3	0.00e+00	0	44	0	207618048	65	4255
2026-01-25 05:06:45.22	46.11	12.04	-46.6	-48.3	18.4	0.00e+00	0	44	0	209715200	65	4231
2026-01-25 05:06:46.23	45.98	12.11	-46.7	-48.3	18.4	0.00e+00	0	44	0	211812352	65	4241
2026-01-25 05:06:47.24	45.85	12.18	-46.7	-48.4	18.4	0.00e+00	0	44	0	213909504	65	4257
2026-01-25 05:06:48.25	45.72	12.25	-46.6	-48.3	18.5	0.00e+00	0	44	0	214958080	65	4206
2026-01-25 05:06:49.25	45.58	12.32	-46.6	-48.3	18.4	0.00e+00	0	44	0	217055232	65	4230
2026-01-25 05:06:50.26	45.45	12.39	-46.5	-48.2	18.6	0.00e+00	0	44	0	219152384	65	4178
2026-01-25 05:06:51.27	45.32	12.46	-46.5	-48.2	18.5	0.00e+00	0	44	0	221249536	65	4172
2026-01-25 05:06:52.28	45.18	12.53	-46.4	-48.1	18.7	0.00e+00	0	44	0	223346688	64	4355
2026-01-25 05:06:53.29	45.05	12.60	-46.5	-48.2	18.6	0.00e+00	0	44	0	224395264	64	4416
2026-01-25 05:06:54.29	44.91	12.67	-46.3	-47.9	18.8	0.00e+00	0	44	0	226492416	64	4273
2026-01-25 05:06:55.30	44.77	12.74	-46.3	-48.0	18.8	0.00e+00	0	44	0	228589568	64	4295
2026-01-25 05:06:56.31	44.63	12.81	-46.3	-47.9	18.9	0.00e+00	0	44	0	230686720	64	4256
2026-01-25 05:06:57.32	44.50	12.88	-46.3	-47.9	18.8	0.00e+00	0	44	0	232783872	64	4257
2026-01-25 05:06:58.33	44.36	12.95	-46.2	-47.7	19.0	0.00e+00	0	44	0	234881024	64	4190
2026-01-25 05:06:59.34	44.22	13.02	-46.1	-47.7	19.1	0.00e+00	0	44	0	235929600	64	4146
2026-01-25 05:07:00.35	44.08	13.09	-46.1	-47.6	19.2	0.00e+00	0	44	0	238026752	64	4123
2026-01-25 05:07:01.36	43.93	13.16	-46.2	-47.7	19.0	0.00e+00	0	44	0	240123904	64	4187
2026-01-25 05:07:02.36	43.79	13.23	-46.1	-47.6	19.1	0.00e+00	0	44	0	242221056	64	4120
2026-01-25 05:07:03.37	43.65	13.30	-46.1	-47.7	19.1	0.00e+00	0	44	0	243269632	64	4158
2026-01-25 05:07:04.38	43.51	13.37	-46.2	-47.8	19.0	0.00e+00	0	44	0	245366784	64	4196
2026-01-25 05:07:05.39	43.36	13.45	-46.1	-47.6	19.2	0.00e+00	0	44	0	247463936	64	4103
2026-01-25 05:07:06.39	43.22	13.52	-46.1	-47.7	19.2	0.00e+00	0	44	0	249561088	63	4406
2026-01-25 05:07:07.40	43.07	13.59	-46.1	-47.6	19.3	0.00e+00	0	44	0	251658240	63	4388
2026-01-25 05:07:08.41	42.93	13.66	-46.2	-47.7	19.2	0.00e+00	0	44	0	253755392	63	4400
2026-01-25 05:07:09.42	42.78	13.73	-46.1	-47.7	19.2	0.00e+00	0	44	0	254803968	63	4402
2026-01-25 05:07:10.43	42.63	13.80	-46.1	-47.6	19.3	0.00e+00	0	44	0	256901120	63	4377
2026-01-25 05:07:11.44	42.49	13.87	-46.2	-47.7	19.2	0.00e+00	0	44	0	258998272	63	4427
2026-01-25 05:07:12.45	42.34	13.94	-46.3	-47.8	19.1	0.00e+00	0	44	0	261095424	63	4465
2026-01-25 05:07:13.45	42.19	14.01	-46.3	-47.8	19.1	0.00e+00	0	44	0	263192576	63	4473
2026-01-25 05:07:14.46	42.04	14.08	-46.4	-47.9	18.9	0.00e+00	0	44	0	264241152	63	4545
2026-01-25 05:07:15.47	41.89	14.15	-46.3	-47.9	19.0	0.00e+00	0	44	0	266338304	63	4518
2026-01-25 05:07:16.48	41.73	14.22	-46.4	-48.0	18.9	0.00e+00	0	44	0	268435456	63	4572
2026-01-25 05:07:17.49	41.58	14.29	-46.3	-47.9	19.0	0.00e+00	0	44	0	270532608	63	4504
2026-01-25 05:07:18.50	41.43	14.36	-46.4	-48.0	18.9	0.00e+00	0	44	0	272629760	63	4559
2026-01-25 05:07:19.51	41.27	14.44	-46.5	-48.1	18.8	0.00e+00	0	44	0	273678336	63	4619
2026-01-25 05:07:20.51	41.12	14.51	-46.5	-48.1	18.8	0.00e+00	0	44	0	275775488	63	4627
2026-01-25 05:07:21.52	40.96	14.58	-46.5	-48.1	18.8	0.00e+00	0	44	0	277872640	63	4604
2026-01-25 05:07:22.53	40.81	14.65	-46.5	-48.1	18.8	0.00e+00	0	44	0	279969792	63	4602
2026-01-25 05:07:23.54	40.65	14.72	-46.6	-48.2	18.7	0.00e+00	0	44	0	282066944	63	4703
2026-01-25 05:07:24.55	40.49	14.79	-46.6	-48.2	18.8	0.00e+00	0	44	0	283115520	63	4665
2026-01-25 05:07:25.55	40.33	14.86	-46.6	-48.2	18.7	0.00e+00	0	44	0	285212672	63	4703
2026-01-25 05:07:26.57	40.17	14.93	-46.6	-48.3	18.7	0.00e+00	0	44	0	287309824	63	4725
2026-01-25 05:07:27.57	40.01	15.00	-46.7	-48.3	18.6	0.00e+00	0	44	0	289406976	63	4753
2026-01-25 05:07:28.58	39.85	15.07	-46.7	-48.3	18.5	0.00e+00	0	44	0	291504128	64	4487
2026-01-25 05:07:29.59	39.69	15.14	-46.7	-48.4	18.5	0.00e+00	0	44	0	292552704	64	4513
2026-01-25 05:07:30.60	39.53	15.21	-46.7	-48.4	18.5	0.00e+00	0	44	0	294649856	64	4540
2026-01-25 05:07:31.60	39.37	15.28	-46.7	-48.4	18.4	0.00e+00	0	44	0	296747008	64	4529
2026-01-25 05:07:32.61	39.20	15.35	-46.8	-48.5	18.4	0.00e+00	0	44	0	298844160	64	4549
2026-01-25 05:07:33.62	39.04	15.42	-46.7	-48.3	18.5	0.00e+00	0	44	0	300941312	64	4479
2026-01-25 05:07:34.63	38.87	15.49	-46.6	-48.2	18.7	0.00e+00	0	44	0	301989888	64	4427
2026-01-25 05:07:35.64	38.71	15.56	-46.7	-48.3	18.5	0.00e+00	0	44	0	304087040	64	4471
2026-01-25 05:07:36.65	38.54	15.64	-46.7	-48.4	18.5	0.00e+00	0	44	0	306184192	64	4509
2026-01-25 05:07:37.65	38.37	15.70	-46.6	-48.3	18.6	0.00e+00	0	44	0	308281344	64	4449
2026-01-25 05:07:38.66	38.20	15.78	-46.7	-48.4	18.5	0.00e+00	0	44	0	310378496	64	4519
2026-01-25 05:07:39.67	38.03	15.85	-46.6	-48.3	18.6	0.00e+00	0	44	0	311427072	64	4468
2026-01-25 05:07:40.68	37.86	15.92	-46.7	-48.4	18.5	0.00e+00	0	44	0	313524224	64	4514
2026-01-25 05:07:41.69	37.69	15.99	-46.7	-48.4	18.5	0.00e+00	0	44	0	315621376	64	4503
2026-01-25 05:07:42.69	37.52	16.06	-46.8	-48.5	18.4	0.00e+00	0	44	0	317718528	64	4566
2026-01-25 05:07:43.70	37.35	16.13	-46.8	-48.5	18.4	0.00e+00	0	44	0	319815680	64	4577
2026-01-25 05:07:44.71	37.17	16.20	-47.0	-48.7	18.3	0.00e+00	0	44	0	321912832	64	4673
2026-01-25 05:07:45.72	37.00	16.27	-46.9	-48.6	18.3	0.00e+00	0	44	0	322961408	64	4624
2026-01-25 05:07:46.72	36.82	16.33	-46.8	-48.5	18.5	0.00e+00	0	44	0	325058560	64	4552
2026-01-25 05:07:47.73	36.65	16.40	-46.8	-48.5	18.5	0.00e+00	0	44	0	327155712	64	4551
2026-01-25 05:07:48.74	36.47	16.47	-46.8	-48.5	18.4	0.00e+00	0	44	0	329252864	64	4573
2026-01-25 05:07:49.75	36.29	16.54	-46.9	-48.6	18.4	0.00e+00	0	44	0	330301440	64	4604
2026-01-25 05:07:50.76	36.11	16.61	-46.8	-48.5	18.4	0.00e+00	0	44	0	332398592	64	4574
2026-01-25 05:07:51.77	35.93	16.68	-46.8	-48.4	18.5	0.00e+00	0	44	0	334495744	64	4544
2026-01-25 05:07:52.78	35.75	16.75	-46.8	-48.5	18.4	0.00e+00	0	44	0	336592896	64	4571
2026-01-25 05:07:53.79	35.57	16.82	-46.8	-48.4	18.5	0.00e+00	0	44	0	338690048	64	4534
2026-01-25 05:07:54.80	35.39	16.89	-46.7	-48.4	18.4	0.00e+00	0	44	0	340787200	64	4525
2026-01-25 05:07:55.81	35.21	16.96	-46.8	-48.5	18.4	0.00e+00	0	44	0	341835776	64	4585
2026-01-25 05:07:56.81	35.02	17.03	-46.8	-48.5	18.4	0.00e+00	0	44	0	343932928	64	4593
2026-01-25 05:07:57.82	34.84	17.10	-46.8	-48.4	18.5	0.00e+00	0	44	0	346030080	64	4535
2026-01-25 05:07:58.83	34.65	17.16	-46.7	-48.3	18.7	0.00e+00	0	44	0	348127232	64	4479
2026-01-25 05:07:59.84	34.47	17.23	-46.8	-48.4	18.6	0.00e+00	0	44	0	350224384	64	4529
2026-01-25 05:08:00.85	34.28	17.30	-46.8	-48.4	18.5	0.00e+00	0	44	0	351272960	64	4532
2026-01-25 05:08:01.85	34.09	17.37	-46.5	-48.1	18.8	0.00e+00	0	44	0	353370112	64	4386
2026-01-25 05:08:02.86	33.90	17.44	-46.5	-48.1	18.8	0.00e+00	0	44	0	355467264	64	4370
2026-01-25 05:08:03.87	33.71	17.51	-46.4	-48.0	18.9	0.00e+00	0	44	0	357564416	64	4332
2026-01-25 05:08:04.88	33.52	17.57	-46.4	-47.9	19.0	0.00e+00	0	44	0	358612992	64	4270
2026-01-25 05:08:05.89	33.33	17.64	-46.4	-47.9	19.0	0.00e+00	0	44	0	360710144	64	4274
2026-01-25 05:08:06.90	33.14	17.71	-46.3	-47.8	19.1	0.00e+00	0	44	0	362807296	64	4224
2026-01-25 05:08:07.90	32.95	17.78	-46.0	-47.5	19.5	0.00e+00	0	44	0	364904448	64	4059
2026-01-25 05:08:08.91	32.75	17.84	-46.0	-47.5	19.6	0.00e+00	0	44	0	367001600	63	4297
2026-01-25 05:08:09.92	32.56	17.91	-46.0	-47.4	19.6	0.00e+00	0	44	0	369098752	63	4285
2026-01-25 05:08:10.93	32.36	17.98	-45.8	-47.2	19.8	0.00e+00	0	44	0	370147328	63	4189
2026-01-25 05:08:11.94	32.16	18.04	-45.7	-47.0	20.0	0.00e+00	0	44	0	372244480	63	4097
2026-01-25 05:08:12.95	31.97	18.11	-45.6	-46.9	20.1	0.00e+00	0	44	0	374341632	63	4040
2026-01-25 05:08:13.96	31.77	18.18	-45.4	-46.7	20.3	0.00e+00	0	44	0	376438784	62	4177
2026-01-25 05:08:14.97	31.57	18.24	-45.4	-46.8	20.3	0.00e+00	0	44	0	378535936	62	4196
2026-01-25 05:08:15.98	31.37	18.31	-45.2	-46.5	20.5	0.00e+00	0	44	0	379584512	62	4062
2026-01-25 05:08:16.99	31.17	18.37	-45.2	-46.4	20.5	0.00e+00	0	44	0	381681664	62	4046
2026-01-25 05:08:18.00	30.96	18.44	-45.0	-46.3	20.7	0.00e+00	0	44	0	383778816	62	3983
2026-01-25 05:08:19.01	30.76	18.51	-45.1	-46.3	20.7	0.00e+00	0	44	0	385875968	62	3994
2026-01-25 05:08:20.02	30.56	18.57	-45.0	-46.3	20.7	0.00e+00	0	44	0	387973120	62	3972
2026-01-25 05:08:21.03	30.35	18.64	-45.0	-46.2	20.8	0.00e+00	0	44	0	389021696	61	4184
2026-01-25 05:08:22.03	30.15	18.70	-44.9	-46.2	20.8	0.00e+00	0	44	0	391118848	61	4159
2026-01-25 05:08:23.04	29.94	18.77	-44.9	-46.1	20.9	0.00e+00	0	44	0	393216000	61	4122
2026-01-25 05:08:24.05	29.73	18.83	-44.9	-46.2	20.8	0.00e+00	0	44	0	395313152	61	4150
2026-01-25 05:08:25.06	29.53	18.89	-44.9	-46.1	20.9	0.00e+00	0	44	0	397410304	61	4138
2026-01-25 05:08:26.07	29.32	18.96	-44.8	-46.0	21.0	0.00e+00	0	44	0	398458880	61	4084
2026-01-25 05:08:27.08	29.11	19.02	-44.7	-45.9	21.1	0.00e+00	0	44	0	400556032	61	4005
2026-01-25 05:08:28.08	28.90	19.08	-44.6	-45.8	21.2	0.00e+00	0	44	0	402653184	61	3971
2026-01-25 05:08:29.09	28.68	19.15	-44.6	-45.8	21.2	0.00e+00	0	44	0	404750336	61	3990
2026-01-25 05:08:30.10	28.47	19.21	-44.6	-45.8	21.2	0.00e+00	0	44	0	406847488	61	3989
2026-01-25 05:08:31.11	28.26	19.27	-44.6	-45.8	21.2	0.00e+00	0	44	0	407896064	61	3979
2026-01-25 05:08:32.12	28.04	19.34	-44.6	-45.8	21.2	0.00e+00	0	44	0	409993216	61	3959
2026-01-25 05:08:33.13	27.83	19.40	-44.5	-45.7	21.3	0.00e+00	0	44	0	412090368	61	3934
2026-01-25 05:08:34.13	27.61	19.46	-44.5	-45.7	21.3	0.00e+00	0	44	0	414187520	61	3939
2026-01-25 05:08:35.14	27.40	19.52	-44.6	-45.8	21.3	0.00e+00	0	44	0	416284672	61	3968
2026-01-25 05:08:36.15	27.18	19.58	-44.5	-45.6	21.4	0.00e+00	0	44	0	417333248	60	4133
2026-01-25 05:08:37.16	26.96	19.64	-44.5	-45.6	21.3	0.00e+00	0	44	0	419430400	60	4139
2026-01-25 05:08:38.16	26.74	19.70	-44.3	-45.5	21.5	0.00e+00	0	44	0	421527552	60	4058
2026-01-25 05:08:39.17	26.52	19.76	-44.3	-45.4	21.5	0.00e+00	0	44	0	423624704	60	4033
2026-01-25 05:08:40.18	26.30	19.82	-44.3	-45.4	21.5	0.00e+00	0	44	0	425721856	60	4038
2026-01-25 05:08:41.19	26.08	19.88	-44.4	-45.5	21.5	0.00e+00	0	44	0	426770432	60	4093
2026-01-25 05:08:42.20	25.85	19.94	-44.4	-45.5	21.4	0.00e+00	0	44	0	428867584	60	4095
2026-01-25 05:08:43.20	25.63	20.00	-44.4	-45.5	21.5	0.00e+00	0	44	0	430964736	60	4081
2026-01-25 05:08:44.21	25.40	20.06	-44.4	-45.5	21.5	0.00e+00	0	44	0	433061888	60	4086
2026-01-25 05:08:45.22	25.18	20.12	-44.3	-45.5	21.5	0.00e+00	0	44	0	435159040	60	4064
2026-01-25 05:08:46.23	24.95	20.18	-44.4	-45.6	21.4	0.00e+00	0	44	0	436207616	60	4114
2026-01-25 05:08:47.24	24.72	20.24	-44.4	-45.6	21.4	0.00e+00	0	44	0	438304768	60	4125
2026-01-25 05:08:48.24	24.50	20.29	-44.6	-45.7	21.3	0.00e+00	0	44	0	440401920	60	4193
2026-01-25 05:08:49.25	24.27	20.35	-44.6	-45.8	21.2	0.00e+00	0	44	0	442499072	60	4211
2026-01-25 05:08:50.26	24.04	20.41	-44.6	-45.8	21.2	0.00e+00	0	44	0	444596224	60	4207
2026-01-25 05:08:51.27	23.81	20.46	-44.4	-45.6	21.4	0.00e+00	0	44	0	445644800	60	4103
2026-01-25 05:08:52.28	23.57	20.52	-44.5	-45.7	21.3	0.00e+00	0	44	0	447741952	60	4172
2026-01-25 05:08:53.29	23.34	20.58	-44.6	-45.8	21.2	0.00e+00	0	44	0	449839104	60	4220
2026-01-25 05:08:54.29	23.11	20.63	-44.6	-45.8	21.2	0.00e+00	0	44	0	451936256	60	4201
2026-01-25 05:08:55.30	22.87	20.69	-44.6	-45.8	21.1	0.00e+00	0	44	0	454033408	60	4230
2026-01-25 05:08:56.31	22.64	20.74	-44.7	-45.9	21.1	0.00e+00	0	44	0	456130560	60	4263
2026-01-25 05:08:57.32	22.40	20.79	-44.6	-45.8	21.2	0.00e+00	0	44	0	457179136	60	4213
2026-01-25 05:08:58.33	22.16	20.85	-44.6	-45.8	21.3	0.00e+00	0	44	0	459276288	60	4210
2026-01-25 05:08:59.34	21.93	20.90	-44.6	-45.8	21.3	0.00e+00	0	44	0	461373440	60	4209
2026-01-25 05:09:00.35	21.69	20.95	-44.6	-45.8	21.2	0.00e+00	0	44	0	463470592	60	4205
2026-01-25 05:09:01.35	21.45	21.01	-44.6	-45.8	21.3	0.00e+00	0	44	0	464519168	60	4203
2026-01-25 05:09:02.36	21.21	21.06	-44.3	-45.4	21.6	0.00e+00	0	44	0	466616320	60	4048
2026-01-25 05:09:03.37	20.97	21.11	-44.3	-45.4	21.8	0.00e+00	0	44	0	468713472	59	4288
2026-01-25 05:09:04.38	20.73	21.16	-44.3	-45.4	21.9	0.00e+00	0	44	0	470810624	59	4290
2026-01-25 05:09:05.39	20.48	21.21	-44.3	-45.4	22.0	0.00e+00	0	44	0	472907776	59	4267
2026-01-25 05:09:06.40	20.24	21.26	-44.2	-45.3	22.0	0.00e+00	0	44	0	475004928	59	4225
2026-01-25 05:09:07.41	19.99	21.31	-44.2	-45.3	22.0	0.00e+00	0	44	0	476053504	59	4237
2026-01-25 05:09:08.42	19.75	21.36	-44.6	-45.8	21.3	0.00e+00	0	44	0	478150656	60	4216
2026-01-25 05:09:09.43	19.50	21.41	-44.2	-45.3	22.0	0.00e+00	0	44	0	480247808	59	4233
2026-01-25 05:09:10.43	19.26	21.46	-44.3	-45.4	21.9	0.00e+00	0	44	0	482344960	59	4267
2026-01-25 05:09:11.44	19.01	21.51	-44.2	-45.3	21.9	0.00e+00	0	44	0	484442112	59	4236
2026-01-25 05:09:12.45	18.76	21.55	-44.3	-45.4	21.9	0.00e+00	0	44	0	485490688	59	4289
2026-01-25 05:09:13.46	18.51	21.60	-44.2	-45.3	22.0	0.00e+00	0	44	0	487587840	59	4232
2026-01-25 05:09:14.47	18.26	21.65	-44.1	-45.2	22.1	0.00e+00	0	44	0	489684992	59	4180
2026-01-25 05:09:15.48	18.01	21.69	-44.1	-45.2	22.2	0.00e+00	0	44	0	491782144	59	4146
2026-01-25 05:09:16.49	17.76	21.74	-44.0	-45.1	22.2	0.00e+00	0	44	0	492830720	59	4111
2026-01-25 05:09:17.50	17.51	21.78	-44.1	-45.2	22.2	0.00e+00	0	44	0	494927872	59	4149
2026-01-25 05:09:18.51	17.26	21.83	-44.3	-45.4	22.0	0.00e+00	0	44	0	497025024	59	4263
2026-01-25 05:09:19.52	17.00	21.87	-44.4	-45.6	21.8	0.00e+00	0	44	0	499122176	59	4343
2026-01-25 05:09:20.53	16.75	21.92	-44.4	-45.5	21.8	0.00e+00	0	44	0	501219328	59	4332
2026-01-25 05:09:21.53	16.49	21.96	-44.2	-45.3	22.0	0.00e+00	0	44	0	503316480	59	4229
2026-01-25 05:09:22.54	16.24	22.00	-44.1	-45.1	22.2	0.00e+00	0	44	0	504365056	59	4145
2026-01-25 05:09:23.55	15.98	22.04	-44.1	-45.2	22.2	0.00e+00	0	44	0	506462208	59	4160
2026-01-25 05:09:24.56	15.72	22.08	-44.1	-45.2	22.1	0.00e+00	0	44	0	508559360	59	4181
2026-01-25 05:09:25.57	15.47	22.12	-44.3	-45.4	22.0	0.00e+00	0	44	0	510656512	59	4243
2026-01-25 05:09:26.58	15.21	22.17	-44.4	-45.5	21.9	0.00e+00	0	44	0	512753664	59	4327
2026-01-25 05:09:27.59	14.95	22.20	-44.5	-45.6	21.8	0.00e+00	0	44	0	513802240	59	4355
2026-01-25 05:09:28.60	14.69	22.24	-44.5	-45.7	21.7	0.00e+00	0	44	0	515899392	59	4406
2026-01-25 05:09:29.61	14.43	22.28	-44.6	-45.7	21.7	0.00e+00	0	44	0	517996544	59	4419
2026-01-25 05:09:30.61	14.17	22.32	-44.6	-45.7	21.7	0.00e+00	0	44	0	520093696	59	4428
2026-01-25 05:09:31.62	13.91	22.36	-44.5	-45.7	21.7	0.00e+00	0	44	0	522190848	59	4399
2026-01-25 05:09:32.63	13.65	22.39	-44.5	-45.6	21.8	0.00e+00	0	44	0	523239424	59	4371
2026-01-25 05:09:33.64	13.38	22.43	-44.5	-45.6	21.8	0.00e+00	0	44	0	525336576	59	4356
2026-01-25 05:09:34.65	13.12	22.47	-44.5	-45.6	21.7	0.00e+00	0	44	0	527433728	59	4385
2026-01-25 05:09:35.65	12.86	22.50	-44.7	-45.8	21.6	0.00e+00	0	44	0	529530880	59	4477
2026-01-25 05:09:36.66	12.59	22.53	-44.4	-45.5	21.6	0.00e+00	0	44	0	531628032	60	4076
2026-01-25 05:09:37.67	12.33	22.57	-44.6	-45.8	21.3	0.00e+00	0	44	0	532676608	60	4211
2026-01-25 05:09:38.68	12.06	22.60	-44.8	-46.0	21.1	0.00e+00	0	44	0	534773760	60	4322
2026-01-25 05:09:39.69	11.79	22.63	-44.9	-46.1	21.0	0.00e+00	0	44	0	536870912	60	4372
2026-01-25 05:09:40.69	11.53	22.67	-45.1	-46.3	20.8	0.00e+00	0	44	0	538968064	60	4470
2026-01-25 05:09:41.70	11.26	22.70	-45.1	-46.4	20.8	0.00e+00	0	44	0	541065216	60	4500
2026-01-25 05:09:42.71	10.99	22.73	-45.2	-46.4	20.7	0.00e+00	0	44	0	543162368	60	4534
2026-01-25 05:09:43.72	10.72	22.76	-45.2	-46.5	20.7	0.00e+00	0	44	0	544210944	60	4549
2026-01-25 05:09:44.73	10.45	22.79	-45.2	-46.4	20.7	0.00e+00	0	44	0	546308096	61	4289
2026-01-25 05:09:45.73	10.19	22.81	-45.3	-46.5	20.6	0.00e+00	0	44	0	548405248	61	4330
2026-01-25 05:09:46.74	9.92	22.84	-45.3	-46.6	20.6	0.00e+00	0	44	0	550502400	61	4354
2026-01-25 05:09:47.75	9.65	22.87	-45.3	-46.5	20.6	0.00e+00	0	44	0	551550976	61	4328
2026-01-25 05:09:48.76	9.37	22.90	-45.3	-46.6	20.6	0.00e+00	0	44	0	553648128	61	4357
2026-01-25 05:09:49.77	9.10	22.92	-45.4	-46.7	20.5	0.00e+00	0	44	0	555745280	61	4407
2026-01-25 05:09:50.77	8.83	22.95	-45.4	-46.7	20.5	0.00e+00	0	44	0	557842432	61	4419
2026-01-25 05:09:51.78	8.56	22.97	-45.6	-46.9	20.3	0.00e+00	0	44	0	559939584	61	4505
2026-01-25 05:09:52.79	8.29	23.00	-45.6	-46.9	20.3	0.00e+00	0	44	0	560988160	61	4532
2026-01-25 05:09:53.80	8.01	23.02	-45.8	-47.1	20.1	0.00e+00	0	44	0	563085312	62	4386
2026-01-25 05:09:54.81	7.74	23.04	-45.7	-47.1	20.1	0.00e+00	0	44	0	565182464	62	4365
2026-01-25 05:09:55.82	7.47	23.06	-46.0	-47.4	19.8	0.00e+00	0	44	0	567279616	62	4536
2026-01-25 05:09:56.83	7.19	23.09	-46.1	-47.6	19.6	0.00e+00	0	44	0	569376768	62	4621
2026-01-25 05:09:57.84	6.92	23.11	-46.2	-47.7	19.6	0.00e+00	0	44	0	571473920	62	4670
2026-01-25 05:09:58.85	6.64	23.13	-46.2	-47.7	19.5	0.00e+00	0	44	0	572522496	63	4398
2026-01-25 05:09:59.85	6.37	23.14	-46.1	-47.5	19.7	0.00e+00	0	44	0	574619648	63	4339
2026-01-25 05:10:00.86	6.09	23.16	-46.1	-47.5	19.8	0.00e+00	0	44	0	576716800	63	4319
2026-01-25 05:10:01.87	5.81	23.18	-46.1	-47.5	19.7	0.00e+00	0	44	0	578813952	63	4323
2026-01-25 05:10:02.88	5.54	23.20	-46.2	-47.7	19.6	0.00e+00	0	44	0	579862528	63	4408
2026-01-25 05:10:03.89	5.26	23.21	-46.4	-47.8	19.4	0.00e+00	0	44	0	581959680	63	4493
2026-01-25 05:10:04.89	4.99	23.23	-46.2	-47.6	19.7	0.00e+00	0	44	0	584056832	63	4361
2026-01-25 05:10:05.90	4.71	23.24	-46.1	-47.5	19.8	0.00e+00	0	44	0	586153984	63	4319
2026-01-25 05:10:06.91	4.43	23.26	-46.1	-47.5	19.7	0.00e+00	0	44	0	588251136	63	4330
2026-01-25 05:10:07.92	4.15	23.27	-45.9	-47.3	20.0	0.00e+00	0	44	0	590348288	63	4209
2026-01-25 05:10:08.93	3.87	23.28	-45.8	-47.1	20.1	0.00e+00	0	44	0	591396864	63	4117
2026-01-25 05:10:09.94	3.60	23.30	-45.9	-47.2	20.0	0.00e+00	0	44	0	593494016	63	4182
2026-01-25 05:10:10.95	3.32	23.31	-45.9	-47.3	20.0	0.00e+00	0	44	0	595591168	63	4209
2026-01-25 05:10:11.96	3.04	23.32	-46.0	-47.4	19.8	0.00e+00	0	44	0	597688320	63	4274
2026-01-25 05:10:12.97	2.76	23.33	-46.1	-47.5	19.7	0.00e+00	0	44	0	599785472	63	4321
2026-01-25 05:10:13.97	2.48	23.34	-46.0	-47.5	19.8	0.00e+00	0	44	0	600834048	63	4294
2026-01-25 05:10:14.98	2.20	23.35	-45.8	-47.2	20.0	0.00e+00	0	44	0	602931200	63	4153
2026-01-25 05:10:15.99	1.92	23.35	-45.8	-47.1	20.1	0.00e+00	0	44	0	605028352	63	4140
2026-01-25 05:10:17.00	1.64	23.36	-45.9	-47.3	20.0	0.00e+00	0	44	0	607125504	63	4203
2026-01-25 05:10:18.00	1.37	23.37	-45.9	-47.3	19.9	0.00e+00	0	44	0	609222656	63	4232
2026-01-25 05:10:19.01	1.09	23.37	-46.0	-47.4	19.8	0.00e+00	0	44	0	610271232	63	4263
2026-01-25 05:10:20.02	0.81	23.38	-45.9	-47.2	20.0	0.00e+00	0	44	0	612368384	63	4187
2026-01-25 05:10:21.03	0.53	23.38	-45.8	-47.1	20.1	0.00e+00	0	44	0	614465536	63	4140
2026-01-25 05:10:22.04	0.25	23.38	-45.7	-47.0	20.2	0.00e+00	0	44	0	616562688	63	4085
2026-01-25 05:10:23.04	359.97	23.39	-45.7	-47.0	20.2	0.00e+00	0	44	0	618659840	63	4086
2026-01-25 05:10:24.05	359.69	23.39	-45.6	-46.9	20.3	0.00e+00	0	44	0	619708416	63	4048
2026-01-25 05:10:25.06	359.41	23.39	-45.7	-47.1	20.1	0.00e+00	0	44	0	621805568	63	4117
2026-01-25 05:10:26.07	359.13	23.39	-45.7	-47.1	20.2	0.00e+00	0	44	0	623902720	63	4100
2026-01-25 05:10:27.07	358.85	23.39	-45.6	-46.9	20.3	0.00e+00	0	44	0	625999872	63	4032
2026-01-25 05:10:28.08	358.57	23.39	-45.6	-47.0	20.3	0.00e+00	0	44	0	628097024	63	4054
2026-01-25 05:10:29.09	358.29	23.39	-45.5	-46.8	20.5	0.00e+00	0	44	0	629145600	62	4196
2026-01-25 05:10:30.10	358.01	23.38	-45.2	-46.4	20.8	0.00e+00	0	44	0	631242752	62	4036
2026-01-25 05:10:31.11	357.73	23.38	-45.2	-46.4	20.8	0.00e+00	0	44	0	633339904	62	4035
2026-01-25 05:10:32.12	357.45	23.38	-45.1	-46.3	20.9	0.00e+00	0	44	0	635437056	62	3992
2026-01-25 05:10:33.13	357.17	23.37	-45.1	-46.3	20.8	0.00e+00	0	44	0	637534208	62	3995
2026-01-25 05:10:34.13	356.89	23.36	-45.1	-46.4	20.8	0.00e+00	0	44	0	638582784	62	4016
2026-01-25 05:10:35.14	356.61	23.36	-45.0	-46.2	20.9	0.00e+00	0	44	0	640679936	62	3956
2026-01-25 05:10:36.15	356.33	23.35	-45.1	-46.3	20.9	0.00e+00	0	44	0	642777088	62	3975
2026-01-25 05:10:37.16	356.05	23.34	-44.9	-46.1	21.1	0.00e+00	0	44	0	644874240	61	4115
2026-01-25 05:10:38.16	355.78	23.33	-44.8	-45.9	21.2	0.00e+00	0	44	0	646971392	61	4051
2026-01-25 05:10:39.17	355.50	23.33	-44.8	-46.0	21.1	0.00e+00	0	44	0	648019968	61	4072
2026-01-25 05:10:40.18	355.22	23.32	-44.7	-45.9	21.3	0.00e+00	0	44	0	650117120	61	4040
2026-01-25 05:10:41.19	354.94	23.30	-44.6	-45.7	21.4	0.00e+00	0	44	0	652214272	61	3954
2026-01-25 05:10:42.20	354.66	23.29	-44.5	-45.6	21.5	0.00e+00	0	44	0	654311424	61	3910
2026-01-25 05:10:43.21	354.38	23.28	-44.4	-45.5	21.7	0.00e+00	0	44	0	656408576	60	4061
2026-01-25 05:10:44.22	354.10	23.27	-44.3	-45.4	21.7	0.00e+00	0	44	0	657457152	60	4028
2026-01-25 05:10:45.23	353.83	23.25	-44.1	-45.2	21.9	0.00e+00	0	44	0	659554304	60	3945
2026-01-25 05:10:46.24	353.55	23.24	-44.1	-45.2	21.9	0.00e+00	0	44	0	661651456	60	3949
2026-01-25 05:10:47.24	353.27	23.22	-44.0	-45.1	22.0	0.00e+00	0	44	0	663748608	60	3901
2026-01-25 05:10:48.25	353.00	23.21	-44.4	-45.5	22.0	0.00e+00	0	44	0	665845760	59	4312
2026-01-25 05:10:49.26	352.72	23.19	-44.3	-45.4	22.1	0.00e+00	0	44	0	666894336	59	4251
2026-01-25 05:10:50.27	352.44	23.18	-44.0	-45.1	22.3	0.00e+00	0	44	0	668991488	59	4113
2026-01-25 05:10:51.28	352.17	23.16	-44.0	-45.0	22.3	0.00e+00	0	44	0	671088640	59	4083
2026-01-25 05:10:52.29	351.89	23.14	-43.9	-45.0	22.4	0.00e+00	0	44	0	673185792	59	4067
2026-01-25 05:10:53.30	351.62	23.12	-44.0	-45.1	22.3	0.00e+00	0	44	0	675282944	59	4100
2026-01-25 05:10:54.30	351.34	23.10	-43.9	-45.0	22.4	0.00e+00	0	44	0	677380096	59	4069
2026-01-25 05:10:55.31	351.07	23.08	-44.0	-45.1	22.3	0.00e+00	0	44	0	678428672	59	4100
2026-01-25 05:10:56.32	350.79	23.06	-43.8	-44.9	22.5	0.00e+00	0	44	0	680525824	59	4021
2026-01-25 05:10:57.33	350.52	23.03	-43.8	-44.8	22.5	0.00e+00	0	44	0	682622976	59	3999
2026-01-25 05:10:58.34	350.25	23.01	-43.6	-44.6	22.7	0.00e+00	0	44	0	684720128	59	3888
2026-01-25 05:10:59.35	349.97	22.99	-43.5	-44.6	22.8	0.00e+00	0	44	0	685768704	59	3872
2026-01-25 05:11:00.35	349.70	22.96	-43.6	-44.6	22.7	0.00e+00	0	44	0	687865856	59	3901
2026-01-25 05:11:01.36	349.43	22.94	-43.7	-44.7	22.7	0.00e+00	0	44	0	689963008	59	3934
2026-01-25 05:11:02.37	349.16	22.91	-43.8	-44.8	22.6	0.00e+00	0	44	0	692060160	59	3998
2026-01-25 05:11:03.38	348.89	22.89	-43.8	-44.9	22.5	0.00e+00	0	44	0	694157312	59	4008
2026-01-25 05:11:04.39	348.61	22.86	-43.9	-45.0	22.4	0.00e+00	0	44	0	695205888	59	4062
2026-01-25 05:11:05.40	348.34	22.83	-44.1	-45.1	22.2	0.00e+00	0	44	0	697303040	59	4140
2026-01-25 05:11:06.40	348.08	22.81	-44.1	-45.1	22.3	0.00e+00	0	44	0	699400192	59	4135
2026-01-25 05:11:07.41	347.81	22.78	-44.0	-45.1	22.3	0.00e+00	0	44	0	701497344	59	4103
2026-01-25 05:11:08.42	347.54	22.75	-44.0	-45.1	22.3	0.00e+00	0	44	0	703594496	59	4099
2026-01-25 05:11:09.43	347.27	22.72	-43.9	-44.9	22.4	0.00e+00	0	44	0	705691648	59	4049
2026-01-25 05:11:10.44	347.00	22.69	-43.9	-44.9	22.4	0.00e+00	0	44	0	706740224	59	4034
2026-01-25 05:11:11.45	346.73	22.66	-44.0	-45.1	22.3	0.00e+00	0	44	0	708837376	59	4119
2026-01-25 05:11:12.45	346.47	22.62	-44.2	-45.3	22.1	0.00e+00	0	44	0	710934528	59	4225
2026-01-25 05:11:13.46	346.20	22.59	-44.4	-45.5	21.9	0.00e+00	0	44	0	713031680	59	4321
2026-01-25 05:11:14.47	345.94	22.56	-44.4	-45.6	21.9	0.00e+00	0	44	0	714080256	59	4345
2026-01-25 05:11:15.48	345.67	22.52	-44.4	-45.6	21.8	0.00e+00	0	44	0	716177408	59	4347
2026-01-25 05:11:16.49	345.41	22.49	-44.5	-45.6	21.7	0.00e+00	0	44	0	718274560	59	4384
2026-01-25 05:11:17.50	345.14	22.45	-44.5	-45.6	21.7	0.00e+00	0	44	0	720371712	59	4388
2026-01-25 05:11:18.51	344.88	22.42	-44.6	-45.8	21.6	0.00e+00	0	44	0	722468864	59	4463
2026-01-25 05:11:19.52	344.62	22.38	-44.4	-45.5	21.6	0.00e+00	0	44	0	724566016	60	4064
2026-01-25 05:11:20.53	344.35	22.34	-44.5	-45.6	21.5	0.00e+00	0	44	0	725614592	60	4118
2026-01-25 05:11:21.54	344.09	22.31	-44.5	-45.7	21.4	0.00e+00	0	44	0	727711744	60	4170
2026-01-25 05:11:22.55	343.83	22.27	-44.6	-45.8	21.3	0.00e+00	0	44	0	729808896	60	4218
2026-01-25 05:11:23.55	343.57	22.23	-44.7	-45.9	21.2	0.00e+00	0	44	0	731906048	60	4262
2026-01-25 05:11:24.56	343.31	22.19	-44.7	-45.8	21.3	0.00e+00	0	44	0	734003200	60	4231
2026-01-25 05:11:25.57	343.05	22.15	-44.8	-45.9	21.2	0.00e+00	0	44	0	735051776	60	4290
2026-01-25 05:11:26.58	342.80	22.11	-44.8	-46.0	21.2	0.00e+00	0	44	0	737148928	60	4303
2026-01-25 05:11:27.59	342.54	22.07	-44.8	-46.0	21.1	0.00e+00	0	44	0	739246080	60	4335
2026-01-25 05:11:28.60	342.28	22.03	-45.0	-46.2	20.9	0.00e+00	0	44	0	741343232	60	4434
2026-01-25 05:11:29.61	342.02	21.99	-45.1	-46.3	20.8	0.00e+00	0	44	0	743440384	60	4467
2026-01-25 05:11:30.62	341.77	21.94	-45.2	-46.4	20.7	0.00e+00	0	44	0	744488960	60	4522
2026-01-25 05:11:31.63	341.51	21.90	-45.2	-46.5	20.7	0.00e+00	0	44	0	746586112	61	4295
2026-01-25 05:11:32.63	341.26	21.86	-45.2	-46.5	20.7	0.00e+00	0	44	0	748683264	61	4304
2026-01-25 05:11:33.64	341.01	21.81	-45.2	-46.4	20.8	0.00e+00	0	44	0	750780416	61	4280
2026-01-25 05:11:34.65	340.76	21.77	-45.1	-46.4	20.8	0.00e+00	0	44	0	752877568	61	4252
2026-01-25 05:11:35.66	340.50	21.72	-45.2	-46.4	20.7	0.00e+00	0	44	0	753926144	61	4287
2026-01-25 05:11:36.67	340.25	21.68	-45.2	-46.4	20.8	0.00e+00	0	44	0	756023296	61	4276
2026-01-25 05:11:37.68	340.00	21.63	-45.2	-46.5	20.6	0.00e+00	0	44	0	758120448	61	4326
2026-01-25 05:11:38.69	339.75	21.59	-45.4	-46.6	20.6	0.00e+00	0	44	0	760217600	61	4379
2026-01-25 05:11:39.69	339.51	21.54	-45.5	-46.8	20.4	0.00e+00	0	44	0	762314752	61	4460
2026-01-25 05:11:40.70	339.26	21.49	-45.5	-46.8	20.3	0.00e+00	0	44	0	764411904	61	4493
2026-01-25 05:11:41.71	339.01	21.44	-45.7	-47.0	20.2	0.00e+00	0	44	0	765460480	61	4570
2026-01-25 05:11:42.72	338.76	21.39	-45.7	-47.0	20.2	0.00e+00	0	44	0	767557632	61	4578
2026-01-25 05:11:43.73	338.52	21.35	-45.8	-47.2	20.1	0.00e+00	0	44	0	769654784	62	4393
2026-01-25 05:11:44.73	338.28	21.30	-45.8	-47.2	20.1	0.00e+00	0	44	0	771751936	62	4425
2026-01-25 05:11:45.74	338.03	21.25	-45.9	-47.2	20.0	0.00e+00	0	44	0	772800512	62	4435
2026-01-25 05:11:46.75	337.79	21.20	-45.9	-47.3	20.0	0.00e+00	0	44	0	774897664	62	4455
2026-01-25 05:11:47.76	337.55	21.14	-45.8	-47.1	20.1	0.00e+00	0	44	0	776994816	62	4385
2026-01-25 05:11:48.77	337.30	21.09	-45.8	-47.1	20.1	0.00e+00	0	44	0	779091968	62	4384
2026-01-25 05:11:49.78	337.06	21.04	-45.7	-47.1	20.1	0.00e+00	0	44	0	781189120	62	4363
2026-01-25 05:11:50.79	336.82	20.99	-45.4	-46.7	20.5	0.00e+00	0	44	0	782237696	62	4146
2026-01-25 05:11:51.80	336.58	20.94	-45.4	-46.7	20.6	0.00e+00	0	44	0	784334848	62	4151
2026-01-25 05:11:52.80	336.35	20.88	-45.5	-46.8	20.3	0.00e+00	0	44	0	786432000	62	4240
2026-01-25 05:11:53.81	336.11	20.83	-45.7	-47.1	20.2	0.00e+00	0	44	0	788529152	62	4344
2026-01-25 05:11:54.82	335.87	20.78	-45.9	-47.3	19.9	0.00e+00	0	44	0	790626304	62	4453
2026-01-25 05:11:55.83	335.64	20.72	-45.9	-47.3	19.9	0.00e+00	0	44	0	792723456	62	4481
2026-01-25 05:11:56.84	335.40	20.67	-46.0	-47.3	19.9	0.00e+00	0	44	0	793772032	62	4492
2026-01-25 05:11:57.85	335.17	20.61	-45.9	-47.2	20.0	0.00e+00	0	44	0	795869184	62	4438
2026-01-25 05:11:58.85	334.93	20.56	-45.7	-47.0	20.2	0.00e+00	0	44	0	797966336	62	4327
2026-01-25 05:11:59.86	334.70	20.50	-45.7	-47.0	20.2	0.00e+00	0	44	0	800063488	62	4338
2026-01-25 05:12:00.87	334.47	20.45	-45.6	-46.9	20.3	0.00e+00	0	44	0	801112064	62	4259
2026-01-25 05:12:01.88	334.24	20.39	-45.5	-46.8	20.4	0.00e+00	0	44	0	803209216	62	4238
2026-01-25 05:12:02.89	334.01	20.33	-45.5	-46.8	20.3	0.00e+00	0	44	0	805306368	62	4242
2026-01-25 05:12:03.89	333.78	20.28	-45.6	-46.9	20.3	0.00e+00	0	44	0	807403520	62	4257
2026-01-25 05:12:04.90	333.55	20.22	-45.6	-46.9	20.3	0.00e+00	0	44	0	809500672	62	4282
2026-01-25 05:12:05.91	333.33	20.16	-45.6	-46.9	20.3	0.00e+00	0	44	0	811597824	62	4274
2026-01-25 05:12:06.92	333.10	20.10	-45.7	-47.0	20.2	0.00e+00	0	44	0	812646400	62	4334
2026-01-25 05:12:07.93	332.87	20.04	-45.6	-46.9	20.3	0.00e+00	0	44	0	814743552	62	4275
2026-01-25 05:12:08.93	332.65	19.98	-45.5	-46.8	20.4	0.00e+00	0	44	0	816840704	62	4235
2026-01-25 05:12:09.94	332.43	19.93	-45.4	-46.6	20.5	0.00e+00	0	44	0	818937856	62	4137
2026-01-25 05:12:10.95	332.20	19.87	-45.5	-46.8	20.4	0.00e+00	0	44	0	821035008	62	4196
2026-01-25 05:12:11.96	331.98	19.81	-45.3	-46.6	20.6	0.00e+00	0	44	0	822083584	62	4111
2026-01-25 05:12:12.97	331.76	19.75	-45.3	-46.6	20.6	0.00e+00	0	44	0	824180736	62	4116
2026-01-25 05:12:13.98	331.54	19.68	-45.2	-46.5	20.6	0.00e+00	0	44	0	826277888	62	4080
2026-01-25 05:12:14.99	331.32	19.62	-45.3	-46.6	20.6	0.00e+00	0	44	0	828375040	62	4102
2026-01-25 05:12:15.99	331.10	19.56	-45.2	-46.5	20.6	0.00e+00	0	44	0	830472192	62	4077
2026-01-25 05:12:17.00	330.88	19.50	-45.2	-46.4	20.7	0.00e+00	0	44	0	831520768	62	4040
2026-01-25 05:12:18.01	330.67	19.44	-45.2	-46.4	20.7	0.00e+00	0	44	0	833617920	62	4047
2026-01-25 05:12:19.02	330.45	19.38	-45.2	-46.4	20.7	0.00e+00	0	44	0	835715072	62	4041
2026-01-25 05:12:20.03	330.24	19.32	-45.3	-46.6	20.6	0.00e+00	0	44	0	837812224	62	4099
2026-01-25 05:12:21.04	330.02	19.25	-45.3	-46.6	20.5	0.00e+00	0	44	0	839909376	62	4123
2026-01-25 05:12:22.05	329.81	19.19	-45.4	-46.7	20.5	0.00e+00	0	44	0	840957952	62	4157
2026-01-25 05:12:23.05	329.60	19.13	-45.4	-46.7	20.5	0.00e+00	0	44	0	843055104	62	4165
2026-01-25 05:12:24.06	329.39	19.06	-45.3	-46.6	20.5	0.00e+00	0	44	0	845152256	62	4136
2026-01-25 05:12:25.07	329.18	19.00	-45.2	-46.5	20.6	0.00e+00	0	44	0	847249408	62	4074
2026-01-25 05:12:26.08	328.97	18.94	-45.3	-46.5	20.6	0.00e+00	0	44	0	849346560	62	4091
2026-01-25 05:12:27.09	328.76	18.87	-45.3	-46.6	20.6	0.00e+00	0	44	0	850395136	62	4099
2026-01-25 05:12:28.09	328.55	18.81	-45.3	-46.6	20.5	0.00e+00	0	44	0	852492288	62	4124
2026-01-25 05:12:29.10	328.34	18.75	-45.3	-46.6	20.5	0.00e+00	0	44	0	854589440	62	4138
2026-01-25 05:12:30.11	328.14	18.68	-45.3	-46.5	20.7	0.00e+00	0	44	0	856686592	62	4084
2026-01-25 05:12:31.12	327.93	18.62	-45.3	-46.5	20.6	0.00e+00	0	44	0	858783744	62	4086
2026-01-25 05:12:32.13	327.73	18.55	-45.3	-46.6	20.5	0.00e+00	0	44	0	859832320	62	4130
2026-01-25 05:12:33.14	327.52	18.49	-45.4	-46.7	20.4	0.00e+00	0	44	0	861929472	62	4177
2026-01-25 05:12:34.15	327.32	18.42	-45.4	-46.7	20.4	0.00e+00	0	44	0	864026624	62	4186
2026-01-25 05:12:35.16	327.12	18.35	-45.5	-46.8	20.4	0.00e+00	0	44	0	866123776	62	4202
2026-01-25 05:12:36.17	326.92	18.29	-45.4	-46.7	20.4	0.00e+00	0	44	0	868220928	62	4178
2026-01-25 05:12:37.18	326.72	18.22	-45.5	-46.8	20.3	0.00e+00	0	44	0	869269504	62	4215
2026-01-25 05:12:38.19	326.52	18.16	-45.4	-46.8	20.4	0.00e+00	0	44	0	871366656	62	4198
2026-01-25 05:12:39.20	326.32	18.09	-45.5	-46.8	20.3	0.00e+00	0	44	0	873463808	62	4230
2026-01-25 05:12:40.21	326.12	18.02	-45.5	-46.8	20.3	0.00e+00	0	44	0	875560960	62	4242
2026-01-25 05:12:41.22	325.93	17.96	-45.5	-46.8	20.3	0.00e+00	0	44	0	877658112	62	4214
2026-01-25 05:12:42.23	325.73	17.89	-45.5	-46.8	20.3	0.00e+00	0	44	0	878706688	62	4235
2026-01-25 05:12:43.23	325.54	17.82	-45.6	-46.9	20.2	0.00e+00	0	44	0	880803840	62	4268
2026-01-25 05:12:44.24	325.34	17.75	-45.6	-47.0	20.1	0.00e+00	0	44	0	882900992	62	4301
2026-01-25 05:12:45.25	325.15	17.69	-45.6	-46.9	20.2	0.00e+00	0	44	0	884998144	62	4258
2026-01-25 05:12:46.26	324.96	17.62	-45.4	-46.7	20.3	0.00e+00	0	44	0	887095296	62	4189
2026-01-25 05:12:47.27	324.77	17.55	-45.4	-46.7	20.4	0.00e+00	0	44	0	888143872	62	4170
2026-01-25 05:12:48.28	324.58	17.48	-45.5	-46.8	20.3	0.00e+00	0	44	0	890241024	62	4198
2026-01-25 05:12:49.29	324.39	17.42	-45.4	-46.7	20.4	0.00e+00	0	44	0	892338176	62	4174
2026-01-25 05:12:50.30	324.20	17.35	-45.4	-46.7	20.4	0.00e+00	0	44	0	894435328	62	4184
2026-01-25 05:12:51.31	324.01	17.28	-45.5	-46.8	20.3	0.00e+00	0	44	0	896532480	62	4237
2026-01-25 05:12:52.32	323.82	17.21	-45.4	-46.7	20.4	0.00e+00	0	44	0	898629632	62	4178
2026-01-25 05:12:53.33	323.64	17.14	-45.5	-46.8	20.3	0.00e+00	0	44	0	899678208	62	4205
2026-01-25 05:12:54.33	323.45	17.07	-45.4	-46.7	20.3	0.00e+00	0	44	0	901775360	62	4191
2026-01-25 05:12:55.34	323.27	17.01	-45.4	-46.7	20.3	0.00e+00	0	44	0	903872512	62	4187
2026-01-25 05:12:56.35	323.08	16.94	-45.4	-46.7	20.3	0.00e+00	0	44	0	905969664	62	4188
2026-01-25 05:12:57.36	322.90	16.87	-45.5	-46.8	20.2	0.00e+00	0	44	0	907018240	62	4225
2026-01-25 05:12:58.37	322.72	16.80	-45.5	-46.8	20.3	0.00e+00	0	44	0	909115392	62	4211
2026-01-25 05:12:59.37	322.54	16.73	-45.3	-46.6	20.5	0.00e+00	0	44	0	911212544	62	4129
2026-01-25 05:13:00.38	322.36	16.66	-45.3	-46.6	20.5	0.00e+00	0	44	0	913309696	62	4102
2026-01-25 05:13:01.39	322.18	16.59	-45.1	-46.4	20.7	0.00e+00	0	44	0	915406848	62	4016
2026-01-25 05:13:02.40	322.00	16.52	-45.1	-46.3	20.7	0.00e+00	0	44	0	917504000	62	3998
2026-01-25 05:13:03.40	321.83	16.45	-45.1	-46.4	20.6	0.00e+00	0	44	0	918552576	62	4021
2026-01-25 05:13:04.42	321.65	16.38	-45.0	-46.3	20.7	0.00e+00	0	44	0	920649728	62	3962
2026-01-25 05:13:05.43	321.47	16.31	-44.8	-46.0	21.0	0.00e+00	0	44	0	922746880	61	4061
2026-01-25 05:13:06.43	321.30	16.24	-44.7	-45.9	21.1	0.00e+00	0	44	0	924844032	61	4020
2026-01-25 05:13:07.44	321.12	16.17	-44.8	-46.0	20.9	0.00e+00	0	44	0	926941184	61	4089
2026-01-25 05:13:08.45	320.95	16.10	-44.9	-46.1	20.9	0.00e+00	0	44	0	927989760	61	4124
2026-01-25 05:13:09.46	320.78	16.03	-44.8	-46.1	20.9	0.00e+00	0	44	0	930086912	61	4106
2026-01-25 05:13:10.47	320.60	15.96	-45.0	-46.2	20.8	0.00e+00	0	44	0	932184064	61	4180
2026-01-25 05:13:11.48	320.43	15.89	-45.0	-46.2	20.8	0.00e+00	0	44	0	934281216	61	4177
2026-01-25 05:13:12.49	320.26	15.82	-44.9	-46.1	20.8	0.00e+00	0	44	0	935329792	61	4145
2026-01-25 05:13:13.49	320.09	15.75	-44.9	-46.2	20.8	0.00e+00	0	44	0	937426944	61	4151
2026-01-25 05:13:14.50	319.93	15.68	-44.8	-46.1	20.9	0.00e+00	0	44	0	939524096	61	4106
2026-01-25 05:13:15.51	319.76	15.61	-44.9	-46.1	20.8	0.00e+00	0	44	0	941621248	61	4130
2026-01-25 05:13:16.52	319.59	15.54	-44.8	-46.1	20.9	0.00e+00	0	44	0	943718400	61	4115
2026-01-25 05:13:17.53	319.42	15.47	-44.7	-45.9	21.0	0.00e+00	0	44	0	945815552	61	4035
2026-01-25 05:13:18.53	319.26	15.40	-44.5	-45.7	21.3	0.00e+00	0	44	0	946864128	61	3919
2026-01-25 05:13:19.54	319.10	15.33	-44.4	-45.6	21.3	0.00e+00	0	44	0	948961280	60	4105
2026-01-25 05:13:20.55	318.93	15.26	-44.4	-45.6	21.3	0.00e+00	0	44	0	951058432	60	4113
2026-01-25 05:13:21.56	318.77	15.19	-44.4	-45.6	21.3	0.00e+00	0	44	0	953155584	60	4129
2026-01-25 05:13:22.57	318.61	15.12	-44.6	-45.8	21.2	0.00e+00	0	44	0	955252736	60	4198
2026-01-25 05:13:23.58	318.44	15.05	-44.6	-45.8	21.2	0.00e+00	0	44	0	956301312	60	4210
2026-01-25 05:13:24.59	318.28	14.98	-44.7	-45.9	21.0	0.00e+00	0	44	0	958398464	60	4283
2026-01-25 05:13:25.60	318.12	14.91	-44.6	-45.8	21.1	0.00e+00	0	44	0	960495616	60	4200
2026-01-25 05:13:26.61	317.96	14.84	-44.6	-45.8	21.1	0.00e+00	0	44	0	962592768	60	4202
2026-01-25 05:13:27.62	317.81	14.77	-44.6	-45.8	21.1	0.00e+00	0	44	0	964689920	60	4231
2026-01-25 05:13:28.63	317.65	14.70	-44.5	-45.7	21.2	0.00e+00	0	44	0	965738496	60	4164
2026-01-25 05:13:29.63	317.49	14.62	-44.6	-45.8	21.1	0.00e+00	0	44	0	967835648	60	4216
2026-01-25 05:13:30.64	317.34	14.55	-44.5	-45.7	21.1	0.00e+00	0	44	0	969932800	60	4173
2026-01-25 05:13:31.65	317.18	14.48	-44.5	-45.7	21.2	0.00e+00	0	44	0	972029952	60	4190
2026-01-25 05:13:32.66	317.03	14.41	-44.5	-45.7	21.2	0.00e+00	0	44	0	974127104	60	4162
2026-01-25 05:13:33.67	316.87	14.34	-44.5	-45.7	21.1	0.00e+00	0	44	0	975175680	60	4191
2026-01-25 05:13:34.68	316.72	14.27	-44.6	-45.8	21.1	0.00e+00	0	44	0	977272832	60	4220
2026-01-25 05:13:35.69	316.57	14.20	-44.7	-45.9	20.9	0.00e+00	0	44	0	979369984	60	4283
2026-01-25 05:13:36.70	316.41	14.13	-44.7	-45.9	21.0	0.00e+00	0	44	0	981467136	60	4262
2026-01-25 05:13:37.71	316.26	14.06	-44.7	-45.9	21.0	0.00e+00	0	44	0	983564288	60	4249
2026-01-25 05:13:38.72	316.11	13.99	-44.8	-46.0	20.8	0.00e+00	0	44	0	985661440	60	4336
2026-01-25 05:13:39.73	315.96	13.92	-44.7	-45.9	20.9	0.00e+00	0	44	0	986710016	60	4277
2026-01-25 05:13:40.73	315.82	13.85	-44.7	-45.9	20.9	0.00e+00	0	44	0	988807168	60	4287
2026-01-25 05:13:41.74	315.67	13.78	-44.8	-46.1	20.8	0.00e+00	0	44	0	990904320	60	4341
2026-01-25 05:13:42.75	315.52	13.70	-44.9	-46.1	20.8	0.00e+00	0	44	0	993001472	60	4364
2026-01-25 05:13:43.76	315.37	13.63	-44.8	-46.1	20.8	0.00e+00	0	44	0	994050048	60	4369
2026-01-25 05:13:44.77	315.23	13.56	-44.9	-46.2	20.7	0.00e+00	0	44	0	996147200	60	4401
2026-01-25 05:13:45.78	315.08	13.49	-44.9	-46.2	20.7	0.00e+00	0	44	0	998244352	60	4394
2026-01-25 05:13:46.78	314.94	13.42	-44.9	-46.2	20.7	0.00e+00	0	44	0	1000341504	60	4422
2026-01-25 05:13:47.79	314.80	13.35	-45.1	-46.4	20.5	0.00e+00	0	44	0	1002438656	60	4508
2026-01-25 05:13:48.80	314.65	13.28	-45.2	-46.5	20.4	0.00e+00	0	44	0	1004535808	60	4575
2026-01-25 05:13:49.81	314.51	13.21	-45.3	-46.6	20.3	0.00e+00	0	44	0	1005584384	61	4359
2026-01-25 05:13:50.82	314.37	13.14	-45.3	-46.6	20.2	0.00e+00	0	44	0	1007681536	61	4389
2026-01-25 05:13:51.83	314.23	13.07	-45.4	-46.8	20.1	0.00e+00	0	44	0	1009778688	61	4448
2026-01-25 05:13:52.83	314.09	13.00	-45.4	-46.8	20.1	0.00e+00	0	44	0	1011875840	61	4455
2026-01-25 05:13:53.84	313.95	12.93	-45.2	-46.6	20.3	0.00e+00	0	44	0	1013972992	61	4346
2026-01-25 05:13:54.85	313.81	12.86	-45.3	-46.7	20.2	0.00e+00	0	44	0	1015021568	61	4399
2026-01-25 05:13:55.86	313.67	12.79	-45.1	-46.4	20.4	0.00e+00	0	44	0	1017118720	61	4281
2026-01-25 05:13:56.87	313.53	12.72	-45.2	-46.5	20.4	0.00e+00	0	44	0	1019215872	61	4304
2026-01-25 05:13:57.88	313.40	12.65	-45.0	-46.3	20.5	0.00e+00	0	44	0	1021313024	61	4235
2026-01-25 05:13:58.89	313.26	12.58	-45.0	-46.3	20.5	0.00e+00	0	44	0	1022361600	61	4216
2026-01-25 05:13:59.89	313.13	12.51	-45.1	-46.4	20.5	0.00e+00	0	44	0	1024458752	61	4243
2026-01-25 05:14:00.90	312.99	12.44	-45.1	-46.4	20.4	0.00e+00	0	44	0	1026555904	61	4247
2026-01-25 05:14:01.91	312.86	12.37	-45.2	-46.5	20.3	0.00e+00	0	44	0	1028653056	61	4321
2026-01-25 05:14:02.92	312.72	12.30	-45.3	-46.6	20.2	0.00e+00	0	44	0	1030750208	61	4369
2026-01-25 05:14:03.93	312.59	12.23	-45.3	-46.7	20.1	0.00e+00	0	44	0	1032847360	61	4413
2026-01-25 05:14:04.93	312.46	12.16	-45.4	-46.8	20.0	0.00e+00	0	44	0	1033895936	61	4465
2026-01-25 05:14:05.94	312.33	12.09	-45.5	-46.9	19.9	0.00e+00	0	44	0	1035993088	61	4514
2026-01-25 05:14:06.95	312.20	12.02	-45.5	-46.9	19.9	0.00e+00	0	44	0	1038090240	61	4544
2026-01-25 05:14:07.96	312.07	11.95	-45.6	-47.0	19.8	0.00e+00	0	44	0	1040187392	61	4585
2026-01-25 05:14:08.97	311.94	11.88	-45.6	-47.0	19.8	0.00e+00	0	44	0	1042284544	61	4568
2026-01-25 05:14:09.98	311.81	11.81	-45.6	-47.0	19.8	0.00e+00	0	44	0	1043333120	61	4565
2026-01-25 05:14:10.99	311.68	11.74	-45.6	-47.0	19.8	0.00e+00	0	44	0	1045430272	61	4546
2026-01-25 05:14:12.00	311.55	11.67	-45.6	-47.1	19.7	0.00e+00	0	44	0	1047527424	61	4603
2026-01-25 05:14:13.01	311.42	11.60	-45.7	-47.1	19.7	0.00e+00	0	44	0	1049624576	61	4627
2026-01-25 05:14:14.01	311.30	11.53	-45.6	-47.0	19.8	0.00e+00	0	44	0	1051721728	61	4569
2026-01-25 05:14:15.02	311.17	11.46	-45.7	-47.2	19.6	0.00e+00	0	44	0	1052770304	62	4398
2026-01-25 05:14:16.03	311.05	11.39	-45.8	-47.2	19.6	0.00e+00	0	44	0	1054867456	62	4437
2026-01-25 05:14:17.04	310.92	11.32	-45.8	-47.3	19.5	0.00e+00	0	44	0	1056964608	62	4463
2026-01-25 05:14:18.05	310.80	11.25	-45.8	-47.2	19.6	0.00e+00	0	44	0	1059061760	62	4410
2026-01-25 05:14:19.06	310.67	11.18	-45.8	-47.3	19.5	0.00e+00	0	44	0	1061158912	62	4450
2026-01-25 05:14:20.07	310.55	11.11	-45.8	-47.2	19.6	0.00e+00	0	44	0	1062207488	62	4422
2026-01-25 05:14:21.08	310.43	11.04	-45.8	-47.3	19.5	0.00e+00	0	44	0	1064304640	62	4458
2026-01-25 05:14:22.08	310.31	10.98	-45.8	-47.3	19.5	0.00e+00	0	44	0	1066401792	62	4470
2026-01-25 05:14:23.09	310.18	10.91	-45.8	-47.3	19.5	0.00e+00	0	44	0	1068498944	62	4453
2026-01-25 05:14:24.10	310.06	10.84	-45.9	-47.4	19.4	0.00e+00	0	44	0	1070596096	62	4503
2026-01-25 05:14:25.11	309.94	10.77	-45.9	-47.4	19.4	0.00e+00	0	44	0	1071644672	62	4510
2026-01-25 05:14:26.12	309.82	10.70	-45.9	-47.3	19.4	0.00e+00	0	44	0	1073741824	62	4484
2026-01-25 05:14:27.13	309.70	10.63	-45.9	-47.4	19.3	0.00e+00	0	44	0	1075838976	62	4529
2026-01-25 05:14:28.13	309.59	10.56	-46.0	-47.5	19.3	0.00e+00	0	44	0	1077936128	62	4574
2026-01-25 05:14:29.14	309.47	10.49	-46.0	-47.5	19.2	0.00e+00	0	45	0	1080033280	62	4598
2026-01-25 05:14:30.15	309.35	10.43	-46.1	-47.7	19.1	0.00e+00	0	44	0	1081081856	62	4654
2026-01-25 05:14:31.16	309.24	10.36	-46.2	-47.7	19.0	0.00e+00	0	44	0	1083179008	62	4692
2026-01-25 05:14:32.17	309.12	10.29	-46.2	-47.8	19.0	0.00e+00	0	44	0	1085276160	62	4725
2026-01-25 05:14:33.17	309.00	10.22	-46.3	-47.9	18.9	0.00e+00	0	44	0	1087373312	63	4511
2026-01-25 05:14:34.18	308.89	10.15	-46.3	-47.9	18.9	0.00e+00	0	44	0	1089470464	63	4495
2026-01-25 05:14:35.19	308.77	10.09	-46.3	-47.9	18.9	0.00e+00	0	44	0	1090519040	63	4499
2026-01-25 05:14:36.20	308.66	10.02	-46.2	-47.8	18.9	0.00e+00	0	45	0	1092616192	63	4480
2026-01-25 05:14:37.21	308.55	9.95	-46.3	-47.9	18.8	0.00e+00	0	44	0	1094713344	63	4527
2026-01-25 05:14:38.21	308.44	9.88	-46.3	-47.9	18.8	0.00e+00	0	45	0	1096810496	63	4504
2026-01-25 05:14:39.22	308.32	9.81	-46.4	-48.0	18.7	0.00e+00	0	44	0	1098907648	63	4563
2026-01-25 05:14:40.23	308.21	9.75	-46.3	-48.0	18.8	0.00e+00	0	44	0	1099956224	63	4546
2026-01-25 05:14:41.24	308.10	9.68	-46.1	-47.7	19.0	0.00e+00	0	44	0	1102053376	63	4406
2026-01-25 05:14:42.25	307.99	9.61	-46.2	-47.8	18.9	0.00e+00	0	44	0	1104150528	63	4462
2026-01-25 05:14:43.26	307.88	9.54	-46.2	-47.8	18.9	0.00e+00	0	44	0	1106247680	63	4461
2026-01-25 05:14:44.27	307.77	9.48	-46.1	-47.7	19.0	0.00e+00	0	45	0	1108344832	63	4427
2026-01-25 05:14:45.28	307.66	9.41	-46.2	-47.8	18.9	0.00e+00	0	45	0	1109393408	63	4469
2026-01-25 05:14:46.29	307.55	9.34	-46.2	-47.8	18.9	0.00e+00	0	44	0	1111490560	63	4477
2026-01-25 05:14:47.29	307.44	9.27	-46.4	-48.0	18.7	0.00e+00	0	44	0	1113587712	63	4563
2026-01-25 05:14:48.30	307.34	9.21	-46.4	-48.1	18.6	0.00e+00	0	44	0	1115684864	63	4618
2026-01-25 05:14:49.31	307.23	9.14	-46.5	-48.2	18.5	0.00e+00	0	44	0	1117782016	63	4652
2026-01-25 05:14:50.32	307.12	9.07	-46.6	-48.3	18.4	0.00e+00	0	44	0	1119879168	63	4720
2026-01-25 05:14:51.33	307.02	9.01	-46.6	-48.3	18.4	0.00e+00	0	44	0	1120927744	63	4741
2026-01-25 05:14:52.34	306.91	8.94	-46.7	-48.4	18.1	0.00e+00	0	44	0	1123024896	64	4541
2026-01-25 05:14:53.34	306.81	8.87	-46.6	-48.4	18.2	0.00e+00	0	44	0	1125122048	64	4513
2026-01-25 05:14:54.35	306.70	8.81	-46.7	-48.5	18.1	0.00e+00	0	44	0	1127219200	64	4566
2026-01-25 05:14:55.36	306.60	8.74	-46.7	-48.5	18.1	0.00e+00	0	44	0	1128267776	64	4549
2026-01-25 05:14:56.37	306.49	8.67	-46.7	-48.4	18.1	0.00e+00	0	44	0	1130364928	64	4533
2026-01-25 05:14:57.38	306.39	8.61	-46.8	-48.6	17.9	0.00e+00	0	44	0	1132462080	64	4640
2026-01-25 05:14:58.38	306.29	8.54	-46.7	-48.5	18.0	0.00e+00	0	45	0	1134559232	64	4574
2026-01-25 05:14:59.39	306.19	8.48	-46.8	-48.6	18.0	0.00e+00	0	44	0	1136656384	64	4612
2026-01-25 05:15:00.40	306.08	8.41	-46.7	-48.5	18.0	0.00e+00	0	44	0	1138753536	64	4566
2026-01-25 05:15:01.41	305.98	8.34	-46.8	-48.6	18.0	0.00e+00	0	44	0	1139802112	64	4611
2026-01-25 05:15:02.42	305.88	8.28	-46.7	-48.5	18.0	0.00e+00	0	44	0	1141899264	64	4598
2026-01-25 05:15:03.42	305.78	8.21	-46.8	-48.7	17.8	0.00e+00	0	44	0	1143996416	64	4669
2026-01-25 05:15:04.43	305.68	8.15	-46.9	-48.8	17.7	0.00e+00	0	44	0	1146093568	64	4728
2026-01-25 05:15:05.44	305.58	8.08	-47.0	-48.9	17.6	0.00e+00	0	44	0	1148190720	64	4810
2026-01-25 05:15:06.45	305.48	8.01	-47.0	-48.9	17.6	0.00e+00	0	44	0	1149239296	64	4804
2026-01-25 05:15:07.45	305.39	7.95	-47.1	-49.0	17.5	0.00e+00	0	45	0	1151336448	64	4834
2026-01-25 05:15:08.46	305.29	7.88	-47.1	-49.1	17.4	0.00e+00	0	44	0	1153433600	64	4886
2026-01-25 05:15:09.47	305.19	7.82	-47.3	-49.3	17.2	0.00e+00	0	44	0	1155530752	65	4707
2026-01-25 05:15:10.48	305.09	7.75	-47.2	-49.1	17.4	0.00e+00	0	44	0	1156579328	65	4641
2026-01-25 05:15:11.49	305.00	7.69	-47.3	-49.3	17.1	0.00e+00	0	44	0	1158676480	65	4743
2026-01-25 05:15:12.49	304.90	7.62	-47.2	-49.2	17.3	0.00e+00	0	44	0	1160773632	65	4671
2026-01-25 05:15:13.50	304.81	7.56	-47.3	-49.3	17.1	0.00e+00	0	44	0	1162870784	65	4745
2026-01-25 05:15:14.51	304.71	7.49	-47.2	-49.2	17.2	0.00e+00	0	44	0	1164967936	65	4699
2026-01-25 05:15:15.52	304.62	7.43	-47.1	-49.0	17.4	0.00e+00	0	44	0	1167065088	65	4594
2026-01-25 05:15:16.53	304.52	7.36	-47.1	-49.0	17.4	0.00e+00	0	45	0	1168113664	65	4587
2026-01-25 05:15:17.53	304.43	7.30	-47.2	-49.2	17.3	0.00e+00	0	44	0	1170210816	65	4656
2026-01-25 05:15:18.54	304.33	7.24	-47.1	-49.1	17.3	0.00e+00	0	44	0	1172307968	65	4618
2026-01-25 05:15:19.55	304.24	7.17	-47.2	-49.2	17.2	0.00e+00	0	44	0	1174405120	65	4669
2026-01-25 05:15:20.56	304.15	7.11	-47.2	-49.2	17.2	0.00e+00	0	44	0	1176502272	65	4697
2026-01-25 05:15:21.57	304.06	7.04	-47.1	-49.1	17.3	0.00e+00	0	44	0	1177550848	65	4601
2026-01-25 05:15:22.58	303.96	6.98	-47.1	-49.0	17.4	0.00e+00	0	44	0	1179648000	65	4580
2026-01-25 05:15:23.59	303.87	6.91	-47.1	-49.1	17.3	0.00e+00	0	44	0	1181745152	65	4609
2026-01-25 05:15:24.60	303.78	6.85	-47.1	-49.1	17.3	0.00e+00	0	44	0	1183842304	65	4635
2026-01-25 05:15:25.61	303.69	6.79	-47.3	-49.3	17.1	0.00e+00	0	44	0	1185939456	65	4736
2026-01-25 05:15:26.62	303.60	6.72	-47.2	-49.2	17.2	0.00e+00	0	44	0	1186988032	65	4671
2026-01-25 05:15:27.62	303.51	6.66	-47.3	-49.4	16.9	0.00e+00	0	44	0	1189085184	65	4791
2026-01-25 05:15:28.63	303.42	6.60	-47.3	-49.3	17.0	0.00e+00	0	45	0	1191182336	65	4746
2026-01-25 05:15:29.64	303.33	6.53	-47.4	-49.5	16.8	0.00e+00	0	45	0	1193279488	65	4857
2026-01-25 05:15:30.65	303.24	6.47	-47.5	-49.6	16.8	0.00e+00	0	44	0	1195376640	65	4913
2026-01-25 05:15:31.66	303.16	6.41	-47.5	-49.6	16.7	0.00e+00	0	45	0	1196425216	65	4901
2026-01-25 05:15:32.67	303.07	6.34	-47.5	-49.7	16.6	0.00e+00	0	44	0	1198522368	65	4954
2026-01-25 05:15:33.68	302.98	6.28	-47.6	-49.8	16.6	0.00e+00	0	44	0	1200619520	65	4985
2026-01-25 05:15:34.69	302.89	6.22	-47.7	-49.9	16.4	0.00e+00	0	45	0	1202716672	65	5071
2026-01-25 05:15:35.69	302.81	6.15	-47.6	-49.8	16.5	0.00e+00	0	44	0	1204813824	65	5036
2026-01-25 05:15:36.70	302.72	6.09	-47.6	-49.9	16.4	0.00e+00	0	44	0	1206910976	65	5061
2026-01-25 05:15:37.71	302.64	6.03	-47.6	-49.8	16.5	0.00e+00	0	44	0	1207959552	65	5010
2026-01-25 05:15:38.72	302.55	5.96	-47.7	-49.9	16.2	0.00e+00	0	44	0	1210056704	65	5075
2026-01-25 05:15:39.73	302.47	5.90	-47.5	-49.7	16.5	0.00e+00	0	44	0	1212153856	65	4973
2026-01-25 05:15:40.73	302.38	5.84	-47.6	-49.8	16.5	0.00e+00	0	44	0	1214251008	65	4999
2026-01-25 05:15:41.74	302.30	5.78	-47.5	-49.7	16.6	0.00e+00	0	45	0	1215299584	65	4951
2026-01-25 05:15:42.75	302.21	5.71	-47.7	-49.9	16.3	0.00e+00	0	45	0	1217396736	65	5091
2026-01-25 05:15:43.76	302.13	5.65	-47.7	-50.0	16.3	0.00e+00	0	45	0	1219493888	66	4824
2026-01-25 05:15:44.77	302.05	5.59	-47.8	-50.2	16.1	0.00e+00	0	44	0	1221591040	66	4935
