passes_logs/2026/01/25/R3.2S_Murmansk/R3.2S_Murmansk__20260125_064253_NOAA_20_JPSS-1_rec.log

#Pass ID: 20260125_064253_NOAA 20 (JPSS-1)
#Satellite: NOAA 20 (JPSS-1)
#Configuration: NOAA 20
#almurnet v.1.7.20251203
#Start time: 2026-01-25 06:42:53

#Version: 2.2.20231116
#Station: R3.2S_Murmansk
#Location: 33.079688 lon 68.888172 lat
#TLE: 1 43013U 17073A   26024.91598314  .00000178  00000+0  10511-3 0  9999
#TLE: 2 43013  98.7646 325.7511 0001081  25.0859 335.0369 14.19539982424141

#Time	Az	El	Level	Level2	SNR	BER	BlckErr	Temp	State	Recorded	gain1	gain2
2026-01-25 06:42:53.07	89.22	1.96	-52.2	-67.1	3.8	1.49e+00	0	43	0	0	76	19521
2026-01-25 06:42:54.07	89.16	2.02	-52.1	-67.1	3.8	1.49e+00	0	43	104	0	74	21920
2026-01-25 06:42:55.08	89.11	2.08	-52.1	-67.1	3.8	1.49e+00	0	43	104	0	74	21852
2026-01-25 06:42:56.08	89.05	2.14	-52.1	-67.1	3.8	1.49e+00	0	43	104	0	74	21832
2026-01-25 06:42:57.09	89.00	2.20	-52.1	-67.1	3.8	1.49e+00	0	43	104	0	74	21863
2026-01-25 06:42:58.10	88.94	2.26	-52.1	-67.1	3.8	1.49e+00	0	43	104	0	74	21790
2026-01-25 06:42:59.11	88.89	2.32	-52.1	-67.1	3.8	1.49e+00	0	43	104	0	74	21826
2026-01-25 06:43:00.12	88.83	2.38	-52.1	-67.1	3.8	1.49e+00	0	43	104	0	74	21777
2026-01-25 06:43:01.13	88.77	2.44	-52.1	-67.1	3.8	1.49e+00	0	43	104	0	74	21765
2026-01-25 06:43:02.13	88.72	2.50	-52.1	-67.1	3.8	1.49e+00	0	43	104	0	74	21780
2026-01-25 06:43:03.14	88.66	2.56	-52.1	-67.0	3.8	1.49e+00	0	43	104	0	74	21677
2026-01-25 06:43:04.15	88.60	2.62	-52.1	-67.0	3.8	1.49e+00	0	43	104	0	74	21728
2026-01-25 06:43:05.16	88.55	2.68	-52.1	-67.1	3.8	1.49e+00	0	43	104	0	74	21786
2026-01-25 06:43:06.17	88.49	2.74	-52.1	-67.1	3.8	1.49e+00	0	43	104	0	74	21794
2026-01-25 06:43:07.18	88.43	2.80	-52.1	-67.0	3.8	1.49e+00	0	43	104	0	74	21755
2026-01-25 06:43:08.19	88.37	2.86	-52.1	-67.1	3.8	1.49e+00	0	43	104	0	74	21765
2026-01-25 06:43:09.20	88.31	2.92	-52.1	-67.0	3.8	1.49e+00	0	43	104	0	74	21676
2026-01-25 06:43:10.21	88.25	2.98	-52.1	-67.0	3.8	1.49e+00	0	43	104	0	74	21709
2026-01-25 06:43:11.22	88.20	3.05	-52.1	-67.0	3.8	1.49e+00	0	43	104	0	74	21692
2026-01-25 06:43:12.23	88.14	3.11	-52.1	-67.0	3.8	1.49e+00	0	43	104	0	74	21615
2026-01-25 06:43:13.23	88.08	3.17	-52.1	-67.0	3.8	1.49e+00	0	43	104	0	74	21656
2026-01-25 06:43:14.24	88.02	3.23	-52.1	-67.0	3.8	1.49e+00	0	44	104	0	74	21702
2026-01-25 06:43:15.25	87.96	3.29	-52.1	-67.0	3.8	1.49e+00	0	43	104	0	74	21732
2026-01-25 06:43:16.26	87.90	3.35	-52.1	-67.1	3.8	1.49e+00	0	43	104	0	74	21808
2026-01-25 06:43:17.27	87.84	3.41	-52.1	-67.0	3.8	1.49e+00	0	44	104	0	74	21754
2026-01-25 06:43:18.28	87.78	3.48	-52.1	-67.0	3.8	1.49e+00	0	44	104	0	74	21586
2026-01-25 06:43:19.29	87.72	3.54	-52.1	-67.0	3.8	1.49e+00	0	44	104	0	74	21547
2026-01-25 06:43:20.30	87.65	3.60	-52.1	-67.0	3.8	1.49e+00	0	44	104	0	74	21524
2026-01-25 06:43:21.31	87.59	3.66	-52.1	-67.0	3.8	1.49e+00	0	44	104	0	74	21633
2026-01-25 06:43:22.31	87.53	3.72	-52.1	-67.0	3.8	1.49e+00	0	44	104	0	74	21720
2026-01-25 06:43:23.32	87.47	3.79	-52.1	-67.1	3.8	1.49e+00	0	44	104	0	74	21777
2026-01-25 06:43:24.33	87.41	3.85	-52.1	-66.9	3.8	1.49e+00	0	44	104	0	74	21370
2026-01-25 06:43:25.34	87.34	3.91	-52.1	-66.6	3.8	1.49e+00	0	44	104	0	74	20609
2026-01-25 06:43:26.35	87.28	3.97	-52.1	-66.0	3.8	1.49e+00	0	44	104	0	74	19248
2026-01-25 06:43:27.36	87.22	4.04	-52.0	-65.5	3.8	1.49e+00	0	44	104	0	74	18141
2026-01-25 06:43:28.36	87.15	4.10	-52.0	-64.8	3.9	1.48e+00	0	44	104	0	74	16814
2026-01-25 06:43:29.37	87.09	4.16	-52.0	-64.7	3.9	1.48e+00	0	44	104	0	74	16670
2026-01-25 06:43:30.38	87.03	4.22	-52.0	-64.4	4.0	1.47e+00	0	44	104	0	74	16081
2026-01-25 06:43:31.39	86.96	4.29	-52.0	-64.5	3.8	1.48e+00	0	44	104	0	74	16141
2026-01-25 06:43:32.40	86.90	4.35	-52.0	-64.2	4.0	1.48e+00	0	44	104	0	74	15644
2026-01-25 06:43:33.41	86.83	4.42	-52.0	-64.0	4.1	1.45e+00	0	44	0	0	74	15377
2026-01-25 06:43:34.41	86.77	4.48	-51.8	-62.6	4.5	1.32e+00	50	44	0	0	74	13030
2026-01-25 06:43:35.42	86.70	4.54	-51.7	-61.0	5.3	7.30e-01	0	44	0	2097152	74	10859
2026-01-25 06:43:36.43	86.64	4.61	-51.4	-59.1	6.7	3.81e-01	0	44	0	4194304	74	8714
2026-01-25 06:43:37.43	86.57	4.67	-51.0	-57.3	8.4	7.26e-02	0	44	0	5242880	74	7096
2026-01-25 06:43:38.44	86.50	4.73	-50.6	-55.9	9.9	1.92e-02	0	44	0	7340032	73	6390
2026-01-25 06:43:39.45	86.44	4.80	-50.2	-54.9	11.0	3.81e-03	0	44	0	9437184	72	6030
2026-01-25 06:43:40.46	86.37	4.86	-50.0	-54.2	11.8	1.28e-03	0	44	0	11534336	71	5891
2026-01-25 06:43:41.47	86.30	4.93	-49.8	-53.8	12.1	3.78e-04	0	44	0	12582912	71	5649
2026-01-25 06:43:42.47	86.23	4.99	-49.7	-53.6	12.4	7.40e-05	0	44	0	14680064	71	5518
2026-01-25 06:43:43.48	86.17	5.05	-49.9	-53.9	12.1	2.21e-04	0	44	0	16777216	71	5685
2026-01-25 06:43:44.49	86.10	5.12	-50.3	-55.0	11.1	5.29e-04	0	44	0	18874368	71	6421
2026-01-25 06:43:45.50	86.03	5.18	-49.6	-53.2	12.9	1.09e-02	0	44	0	20971520	71	5249
2026-01-25 06:43:46.51	85.96	5.25	-49.1	-52.2	13.5	1.89e-02	0	44	0	23068672	70	4974
2026-01-25 06:43:47.52	85.89	5.31	-49.5	-53.2	13.3	0.00e+00	0	44	0	24117248	69	5874
2026-01-25 06:43:48.53	85.82	5.38	-50.7	-56.2	5.2	1.48e+00	0	44	104	25165824	73	6596
2026-01-25 06:43:49.54	85.75	5.45	-48.3	-50.8	15.4	5.90e-02	0	44	0	25165824	68	4739
2026-01-25 06:43:50.55	85.68	5.51	-47.9	-50.4	15.8	0.00e+00	0	44	0	27262976	67	4760
2026-01-25 06:43:51.55	85.61	5.58	-48.0	-50.5	15.7	0.00e+00	0	44	0	29360128	67	4836
2026-01-25 06:43:52.56	85.54	5.64	-48.0	-50.4	15.8	0.00e+00	0	44	0	31457280	67	4793
2026-01-25 06:43:53.57	85.47	5.71	-47.8	-50.2	16.0	0.00e+00	0	44	0	33554432	67	4686
2026-01-25 06:43:54.58	85.40	5.77	-47.8	-50.2	16.0	0.00e+00	0	44	0	34603008	67	4678
2026-01-25 06:43:55.59	85.32	5.84	-47.7	-50.0	16.3	0.00e+00	0	44	0	36700160	67	4548
2026-01-25 06:43:56.59	85.25	5.90	-47.7	-50.0	16.3	0.00e+00	0	44	0	38797312	67	4558
2026-01-25 06:43:57.60	85.18	5.97	-47.9	-50.2	16.0	0.00e+00	0	44	0	40894464	67	4691
2026-01-25 06:43:58.61	85.11	6.04	-47.7	-50.0	16.3	0.00e+00	0	44	0	42991616	67	4580
2026-01-25 06:43:59.62	85.03	6.10	-47.9	-50.2	16.1	0.00e+00	0	44	0	44040192	67	4699
2026-01-25 06:44:00.63	84.96	6.17	-47.8	-50.1	16.3	0.00e+00	0	44	0	46137344	67	4608
2026-01-25 06:44:01.64	84.89	6.24	-48.0	-50.4	15.9	0.00e+00	0	44	0	48234496	67	4795
2026-01-25 06:44:02.65	84.81	6.30	-48.2	-50.7	15.7	0.00e+00	0	44	0	50331648	67	4940
2026-01-25 06:44:03.65	84.74	6.37	-48.1	-50.5	15.8	0.00e+00	0	44	0	52428800	67	4863
2026-01-25 06:44:04.66	84.66	6.44	-48.3	-50.9	15.4	0.00e+00	0	44	0	53477376	67	5052
2026-01-25 06:44:05.67	84.59	6.51	-48.2	-50.8	15.6	0.00e+00	0	44	0	55574528	67	4992
2026-01-25 06:44:06.68	84.51	6.57	-48.0	-50.5	15.9	0.00e+00	0	44	0	57671680	67	4819
2026-01-25 06:44:07.69	84.43	6.64	-47.6	-49.8	16.5	0.00e+00	0	44	0	59768832	67	4480
2026-01-25 06:44:08.69	84.36	6.71	-47.8	-50.0	16.3	0.00e+00	0	44	0	61865984	67	4588
2026-01-25 06:44:09.70	84.28	6.78	-47.7	-49.9	16.4	0.00e+00	0	44	0	62914560	67	4523
2026-01-25 06:44:10.71	84.20	6.84	-47.7	-49.9	16.4	0.00e+00	0	44	0	65011712	67	4534
2026-01-25 06:44:11.72	84.13	6.91	-47.8	-50.1	16.2	0.00e+00	0	44	0	67108864	67	4638
2026-01-25 06:44:12.73	84.05	6.98	-47.8	-50.1	16.3	0.00e+00	0	44	0	69206016	67	4600
2026-01-25 06:44:13.74	83.97	7.05	-47.9	-50.3	16.1	0.00e+00	0	44	0	71303168	67	4726
2026-01-25 06:44:14.75	83.89	7.12	-48.0	-50.3	16.0	0.00e+00	0	44	0	72351744	67	4745
2026-01-25 06:44:15.75	83.81	7.19	-47.9	-50.1	16.2	0.00e+00	0	44	0	74448896	67	4648
2026-01-25 06:44:16.76	83.73	7.25	-47.6	-49.8	16.6	0.00e+00	0	44	0	76546048	67	4481
2026-01-25 06:44:17.77	83.65	7.32	-47.6	-49.7	16.7	0.00e+00	0	44	0	78643200	67	4415
2026-01-25 06:44:18.78	83.57	7.39	-47.3	-49.3	17.1	0.00e+00	0	44	0	80740352	66	4466
2026-01-25 06:44:19.79	83.49	7.46	-47.3	-49.4	17.1	0.00e+00	0	44	0	81788928	66	4510
2026-01-25 06:44:20.79	83.41	7.53	-47.2	-49.2	17.2	0.00e+00	0	44	0	83886080	66	4407
2026-01-25 06:44:21.80	83.33	7.60	-47.2	-49.2	17.2	0.00e+00	0	44	0	85983232	66	4441
2026-01-25 06:44:22.81	83.25	7.67	-47.2	-49.2	17.2	0.00e+00	0	45	0	88080384	66	4423
2026-01-25 06:44:23.82	83.16	7.74	-47.2	-49.2	17.2	0.00e+00	0	45	0	90177536	66	4422
2026-01-25 06:44:24.83	83.08	7.81	-47.4	-49.5	16.9	0.00e+00	0	45	0	91226112	66	4568
2026-01-25 06:44:25.83	83.00	7.88	-47.4	-49.5	16.9	0.00e+00	0	44	0	93323264	66	4579
2026-01-25 06:44:26.84	82.92	7.95	-47.1	-49.1	17.4	0.00e+00	0	45	0	95420416	66	4351
2026-01-25 06:44:27.85	82.83	8.02	-47.3	-49.3	17.2	0.00e+00	0	45	0	97517568	66	4445
2026-01-25 06:44:28.86	82.75	8.09	-47.2	-49.2	17.3	0.00e+00	0	44	0	99614720	66	4405
2026-01-25 06:44:29.87	82.66	8.16	-47.1	-49.1	17.4	0.00e+00	0	45	0	101711872	66	4352
2026-01-25 06:44:30.88	82.58	8.23	-47.0	-48.9	17.6	0.00e+00	0	44	0	102760448	65	4497
2026-01-25 06:44:31.89	82.49	8.30	-47.1	-49.0	17.5	0.00e+00	0	45	0	104857600	65	4546
2026-01-25 06:44:32.89	82.40	8.37	-47.2	-49.2	17.3	0.00e+00	0	44	0	106954752	65	4665
2026-01-25 06:44:33.90	82.32	8.44	-47.1	-49.0	17.5	0.00e+00	0	45	0	109051904	65	4589
2026-01-25 06:44:34.91	82.23	8.51	-47.1	-49.1	17.4	0.00e+00	0	44	0	110100480	65	4604
2026-01-25 06:44:35.92	82.14	8.58	-47.1	-49.1	17.5	0.00e+00	0	45	0	112197632	65	4619
2026-01-25 06:44:36.93	82.06	8.66	-47.1	-49.0	17.5	0.00e+00	0	45	0	114294784	65	4581
2026-01-25 06:44:37.93	81.97	8.73	-47.0	-48.9	17.6	0.00e+00	0	45	0	116391936	65	4540
2026-01-25 06:44:38.94	81.88	8.80	-47.0	-48.8	17.7	0.00e+00	0	45	0	118489088	65	4475
2026-01-25 06:44:39.95	81.79	8.87	-46.9	-48.8	17.7	0.00e+00	0	44	0	119537664	65	4467
2026-01-25 06:44:40.96	81.70	8.94	-47.2	-49.2	17.3	0.00e+00	0	44	0	121634816	65	4683
2026-01-25 06:44:41.97	81.61	9.01	-47.1	-49.0	17.5	0.00e+00	0	45	0	123731968	65	4588
2026-01-25 06:44:42.97	81.52	9.09	-47.0	-48.9	17.6	0.00e+00	0	44	0	125829120	65	4512
2026-01-25 06:44:43.98	81.43	9.16	-47.1	-49.0	17.4	0.00e+00	0	45	0	127926272	65	4596
2026-01-25 06:44:44.99	81.34	9.23	-47.1	-49.0	17.6	0.00e+00	0	45	0	130023424	65	4557
2026-01-25 06:44:46.00	81.24	9.30	-47.2	-49.2	17.4	0.00e+00	0	45	0	131072000	65	4677
2026-01-25 06:44:47.01	81.15	9.38	-47.3	-49.3	17.2	0.00e+00	0	45	0	133169152	65	4730
2026-01-25 06:44:48.01	81.06	9.45	-47.3	-49.3	17.3	0.00e+00	0	45	0	135266304	65	4743
2026-01-25 06:44:49.02	80.97	9.52	-47.4	-49.4	17.1	0.00e+00	0	45	0	137363456	65	4798
2026-01-25 06:44:50.03	80.87	9.59	-47.2	-49.2	17.4	0.00e+00	0	45	0	138412032	65	4652
2026-01-25 06:44:51.03	80.78	9.67	-47.2	-49.2	17.3	0.00e+00	0	45	0	140509184	65	4677
2026-01-25 06:44:52.04	80.68	9.74	-47.2	-49.1	17.4	0.00e+00	0	45	0	142606336	65	4650
2026-01-25 06:44:53.05	80.59	9.81	-47.4	-49.4	17.2	0.00e+00	0	45	0	144703488	65	4781
2026-01-25 06:44:54.06	80.49	9.89	-47.1	-48.9	17.6	0.00e+00	0	45	0	146800640	65	4534
2026-01-25 06:44:55.07	80.39	9.96	-47.0	-48.8	17.7	0.00e+00	0	45	0	148897792	65	4485
2026-01-25 06:44:56.08	80.30	10.04	-46.9	-48.7	17.8	0.00e+00	0	45	0	149946368	65	4430
2026-01-25 06:44:57.09	80.20	10.11	-47.0	-48.9	17.7	0.00e+00	0	45	0	152043520	65	4515
2026-01-25 06:44:58.09	80.10	10.18	-47.0	-48.8	17.8	0.00e+00	0	45	0	154140672	65	4467
2026-01-25 06:44:59.10	80.00	10.26	-46.9	-48.8	17.8	0.00e+00	0	45	0	156237824	65	4451
2026-01-25 06:45:00.11	79.91	10.33	-46.9	-48.7	17.8	0.00e+00	0	45	0	158334976	65	4429
2026-01-25 06:45:01.12	79.81	10.41	-46.9	-48.8	17.8	0.00e+00	0	45	0	159383552	65	4447
2026-01-25 06:45:02.13	79.71	10.48	-47.1	-49.0	17.7	0.00e+00	0	45	0	161480704	65	4554
2026-01-25 06:45:03.14	79.60	10.56	-46.9	-48.7	17.9	0.00e+00	0	45	0	163577856	65	4436
2026-01-25 06:45:04.15	79.50	10.63	-47.0	-48.8	17.9	0.00e+00	0	45	0	165675008	65	4465
2026-01-25 06:45:05.15	79.40	10.71	-46.9	-48.7	17.9	0.00e+00	0	45	0	166723584	65	4436
2026-01-25 06:45:06.16	79.30	10.78	-46.9	-48.7	18.0	0.00e+00	0	45	0	168820736	65	4399
2026-01-25 06:45:07.17	79.20	10.86	-46.9	-48.7	18.0	0.00e+00	0	45	0	170917888	65	4410
2026-01-25 06:45:08.18	79.09	10.93	-46.9	-48.6	18.0	0.00e+00	0	45	0	173015040	65	4387
2026-01-25 06:45:09.19	78.99	11.01	-46.9	-48.7	17.9	0.00e+00	0	45	0	175112192	65	4425
2026-01-25 06:45:10.19	78.89	11.09	-47.0	-48.8	17.8	0.00e+00	0	45	0	177209344	65	4479
2026-01-25 06:45:11.20	78.78	11.16	-46.9	-48.7	18.0	0.00e+00	0	45	0	178257920	65	4407
2026-01-25 06:45:12.21	78.68	11.24	-46.9	-48.8	17.9	0.00e+00	0	45	0	180355072	65	4447
2026-01-25 06:45:13.22	78.57	11.31	-47.0	-48.8	17.9	0.00e+00	0	45	0	182452224	65	4455
2026-01-25 06:45:14.23	78.46	11.39	-47.0	-48.9	17.8	0.00e+00	0	45	0	184549376	65	4501
2026-01-25 06:45:15.23	78.36	11.47	-46.9	-48.8	17.9	0.00e+00	0	45	0	186646528	65	4444
2026-01-25 06:45:16.24	78.25	11.54	-46.9	-48.8	17.9	0.00e+00	0	45	0	187695104	65	4443
2026-01-25 06:45:17.25	78.14	11.62	-47.0	-48.8	17.9	0.00e+00	0	45	0	189792256	65	4481
2026-01-25 06:45:18.26	78.03	11.70	-47.0	-48.8	17.9	0.00e+00	0	45	0	191889408	65	4485
2026-01-25 06:45:19.27	77.92	11.78	-46.9	-48.7	18.0	0.00e+00	0	45	0	193986560	65	4421
2026-01-25 06:45:20.27	77.81	11.85	-46.8	-48.5	18.1	0.00e+00	0	45	0	196083712	65	4339
2026-01-25 06:45:21.28	77.70	11.93	-46.8	-48.6	18.1	0.00e+00	0	45	0	197132288	65	4354
2026-01-25 06:45:22.29	77.59	12.01	-46.8	-48.6	18.2	0.00e+00	0	45	0	199229440	65	4354
2026-01-25 06:45:23.30	77.48	12.09	-46.9	-48.6	18.1	0.00e+00	0	45	0	201326592	65	4385
2026-01-25 06:45:24.31	77.37	12.16	-46.8	-48.6	18.2	0.00e+00	0	45	0	203423744	65	4342
2026-01-25 06:45:25.32	77.25	12.24	-46.8	-48.6	18.2	0.00e+00	0	45	0	205520896	65	4343
2026-01-25 06:45:26.33	77.14	12.32	-46.8	-48.5	18.3	0.00e+00	0	45	0	206569472	65	4317
2026-01-25 06:45:27.33	77.02	12.40	-46.6	-48.3	18.4	0.00e+00	0	45	0	208666624	65	4239
2026-01-25 06:45:28.34	76.91	12.48	-46.7	-48.5	18.2	0.00e+00	0	45	0	210763776	65	4297
2026-01-25 06:45:29.35	76.79	12.55	-46.7	-48.4	18.3	0.00e+00	0	44	0	212860928	65	4285
2026-01-25 06:45:30.36	76.68	12.63	-46.8	-48.6	18.2	0.00e+00	0	45	0	214958080	65	4351
2026-01-25 06:45:31.37	76.56	12.71	-46.9	-48.6	18.1	0.00e+00	0	45	0	216006656	65	4379
2026-01-25 06:45:32.37	76.44	12.79	-46.9	-48.7	18.1	0.00e+00	0	45	0	218103808	65	4394
2026-01-25 06:45:33.38	76.33	12.87	-46.7	-48.3	18.4	0.00e+00	0	45	0	220200960	65	4231
2026-01-25 06:45:34.39	76.21	12.95	-46.6	-48.3	18.4	0.00e+00	0	45	0	222298112	65	4215
2026-01-25 06:45:35.40	76.09	13.03	-46.6	-48.3	18.4	0.00e+00	0	45	0	224395264	65	4225
2026-01-25 06:45:36.41	75.97	13.11	-46.5	-48.1	18.6	0.00e+00	0	45	0	225443840	65	4132
2026-01-25 06:45:37.41	75.85	13.19	-46.6	-48.3	18.5	0.00e+00	0	45	0	227540992	65	4219
2026-01-25 06:45:38.42	75.73	13.27	-46.7	-48.4	18.3	0.00e+00	0	45	0	229638144	65	4281
2026-01-25 06:45:39.43	75.60	13.35	-46.6	-48.3	18.5	0.00e+00	0	45	0	231735296	65	4204
2026-01-25 06:45:40.44	75.48	13.43	-46.6	-48.2	18.5	0.00e+00	0	45	0	233832448	65	4192
2026-01-25 06:45:41.45	75.36	13.51	-46.6	-48.2	18.5	0.00e+00	0	45	0	234881024	65	4192
2026-01-25 06:45:42.45	75.23	13.59	-46.6	-48.3	18.6	0.00e+00	0	45	0	236978176	65	4194
2026-01-25 06:45:43.46	75.11	13.67	-46.6	-48.3	18.6	0.00e+00	0	45	0	239075328	65	4204
2026-01-25 06:45:44.47	74.98	13.75	-46.6	-48.2	18.6	0.00e+00	0	45	0	241172480	65	4167
2026-01-25 06:45:45.48	74.86	13.83	-46.6	-48.2	18.6	0.00e+00	0	45	0	243269632	65	4184
2026-01-25 06:45:46.49	74.73	13.91	-46.5	-48.2	18.6	0.00e+00	0	45	0	245366784	65	4169
2026-01-25 06:45:47.50	74.60	13.99	-46.5	-48.1	18.7	0.00e+00	0	45	0	246415360	64	4358
2026-01-25 06:45:48.50	74.47	14.07	-46.4	-47.9	18.8	0.00e+00	0	45	0	248512512	64	4289
2026-01-25 06:45:49.51	74.34	14.15	-46.4	-48.0	18.8	0.00e+00	0	45	0	250609664	64	4319
2026-01-25 06:45:50.52	74.21	14.23	-46.4	-48.0	18.8	0.00e+00	0	45	0	252706816	64	4325
2026-01-25 06:45:51.53	74.08	14.32	-46.4	-48.0	18.8	0.00e+00	0	45	0	253755392	64	4327
2026-01-25 06:45:52.53	73.95	14.40	-46.4	-47.9	18.9	0.00e+00	0	45	0	255852544	64	4288
2026-01-25 06:45:53.54	73.82	14.48	-46.2	-47.8	19.1	0.00e+00	0	45	0	257949696	64	4206
2026-01-25 06:45:54.55	73.69	14.56	-46.2	-47.8	19.1	0.00e+00	0	45	0	260046848	64	4197
2026-01-25 06:45:55.56	73.55	14.64	-46.1	-47.7	19.2	0.00e+00	0	45	0	262144000	64	4147
2026-01-25 06:45:56.56	73.42	14.72	-46.2	-47.8	19.1	0.00e+00	0	45	0	263192576	64	4212
2026-01-25 06:45:57.57	73.29	14.81	-46.1	-47.6	19.2	0.00e+00	0	45	0	265289728	64	4125
2026-01-25 06:45:58.58	73.15	14.89	-46.2	-47.8	19.1	0.00e+00	0	45	0	267386880	64	4207
2026-01-25 06:45:59.59	73.01	14.97	-46.1	-47.7	19.1	0.00e+00	0	45	0	269484032	64	4161
2026-01-25 06:46:00.60	72.88	15.05	-46.1	-47.6	19.3	0.00e+00	0	45	0	271581184	64	4127
2026-01-25 06:46:01.60	72.74	15.13	-46.0	-47.5	19.3	0.00e+00	0	45	0	273678336	64	4093
2026-01-25 06:46:02.61	72.60	15.22	-46.1	-47.6	19.2	0.00e+00	0	45	0	274726912	64	4112
2026-01-25 06:46:03.62	72.46	15.30	-46.1	-47.7	19.2	0.00e+00	0	45	0	276824064	64	4157
2026-01-25 06:46:04.63	72.32	15.38	-46.3	-47.8	19.1	0.00e+00	0	45	0	278921216	64	4220
2026-01-25 06:46:05.64	72.18	15.47	-46.0	-47.5	19.3	0.00e+00	0	45	0	281018368	64	4067
2026-01-25 06:46:06.65	72.04	15.55	-46.0	-47.4	19.5	0.00e+00	0	45	0	282066944	63	4274
2026-01-25 06:46:07.65	71.89	15.63	-45.9	-47.4	19.5	0.00e+00	0	45	0	284164096	63	4254
2026-01-25 06:46:08.66	71.75	15.72	-45.9	-47.4	19.6	0.00e+00	0	45	0	286261248	63	4260
2026-01-25 06:46:09.67	71.61	15.80	-45.9	-47.3	19.7	0.00e+00	0	45	0	288358400	63	4222
2026-01-25 06:46:10.68	71.46	15.88	-45.9	-47.3	19.6	0.00e+00	0	45	0	290455552	63	4239
2026-01-25 06:46:11.69	71.31	15.97	-45.9	-47.3	19.6	0.00e+00	0	45	0	292552704	63	4222
2026-01-25 06:46:12.69	71.17	16.05	-45.9	-47.3	19.7	0.00e+00	0	45	0	293601280	63	4212
2026-01-25 06:46:13.70	71.02	16.13	-45.9	-47.4	19.6	0.00e+00	0	45	0	295698432	63	4247
2026-01-25 06:46:14.71	70.87	16.22	-46.0	-47.5	19.5	0.00e+00	0	45	0	297795584	63	4317
2026-01-25 06:46:15.72	70.72	16.30	-46.1	-47.6	19.4	0.00e+00	0	45	0	299892736	63	4342
2026-01-25 06:46:16.73	70.57	16.38	-46.2	-47.7	19.2	0.00e+00	0	45	0	301989888	63	4398
2026-01-25 06:46:17.74	70.42	16.47	-46.1	-47.5	19.4	0.00e+00	0	45	0	303038464	63	4333
2026-01-25 06:46:18.75	70.27	16.55	-46.0	-47.5	19.5	0.00e+00	0	45	0	305135616	63	4309
2026-01-25 06:46:19.75	70.12	16.64	-45.9	-47.4	19.6	0.00e+00	0	45	0	307232768	63	4249
2026-01-25 06:46:20.76	69.96	16.72	-45.9	-47.3	19.7	0.00e+00	0	45	0	309329920	63	4213
2026-01-25 06:46:21.77	69.81	16.81	-46.0	-47.4	19.6	0.00e+00	0	45	0	311427072	63	4267
2026-01-25 06:46:22.78	69.65	16.89	-45.9	-47.4	19.6	0.00e+00	0	45	0	312475648	63	4264
2026-01-25 06:46:23.78	69.50	16.97	-45.9	-47.3	19.7	0.00e+00	0	45	0	314572800	63	4226
2026-01-25 06:46:24.79	69.34	17.06	-46.0	-47.4	19.6	0.00e+00	0	45	0	316669952	63	4275
2026-01-25 06:46:25.80	69.18	17.14	-45.9	-47.3	19.7	0.00e+00	0	45	0	318767104	63	4222
2026-01-25 06:46:26.81	69.02	17.23	-45.9	-47.4	19.6	0.00e+00	0	45	0	320864256	63	4261
2026-01-25 06:46:27.82	68.86	17.31	-46.0	-47.4	19.6	0.00e+00	0	45	0	321912832	63	4280
2026-01-25 06:46:28.83	68.70	17.40	-46.0	-47.5	19.6	0.00e+00	0	45	0	324009984	63	4294
2026-01-25 06:46:29.84	68.54	17.48	-45.9	-47.4	19.6	0.00e+00	0	45	0	326107136	63	4260
2026-01-25 06:46:30.78	68.38	17.56	-46.1	-47.5	19.5	0.00e+00	0	45	0	328204288	63	4329
2026-01-25 06:46:31.79	68.22	17.65	-46.1	-47.6	19.5	0.00e+00	0	45	0	330301440	63	4349
2026-01-25 06:46:32.80	68.06	17.73	-46.1	-47.6	19.4	0.00e+00	0	45	0	331350016	63	4364
2026-01-25 06:46:33.81	67.89	17.82	-46.2	-47.6	19.4	0.00e+00	0	45	0	333447168	63	4386
2026-01-25 06:46:34.82	67.72	17.90	-46.0	-47.5	19.5	0.00e+00	0	45	0	335544320	63	4303
2026-01-25 06:46:35.83	67.55	17.99	-46.0	-47.4	19.6	0.00e+00	0	45	0	337641472	63	4283
2026-01-25 06:46:36.84	67.39	18.07	-46.1	-47.6	19.4	0.00e+00	0	45	0	339738624	63	4367
2026-01-25 06:46:37.84	67.22	18.16	-46.2	-47.7	19.3	0.00e+00	0	45	0	340787200	63	4419
2026-01-25 06:46:38.85	67.05	18.24	-46.2	-47.7	19.4	0.00e+00	0	45	0	342884352	63	4406
2026-01-25 06:46:39.86	66.88	18.33	-46.3	-47.8	19.2	0.00e+00	0	45	0	344981504	63	4486
2026-01-25 06:46:40.87	66.70	18.42	-46.3	-47.8	19.2	0.00e+00	0	45	0	347078656	63	4487
2026-01-25 06:46:41.88	66.53	18.50	-46.3	-47.8	19.2	0.00e+00	0	45	0	349175808	63	4481
2026-01-25 06:46:42.89	66.36	18.59	-46.4	-48.0	19.0	0.00e+00	0	45	0	350224384	63	4569
2026-01-25 06:46:43.89	66.18	18.67	-46.3	-47.9	19.2	0.00e+00	0	45	0	352321536	63	4496
2026-01-25 06:46:44.90	66.00	18.76	-46.3	-47.8	19.2	0.00e+00	0	45	0	354418688	63	4470
2026-01-25 06:46:45.91	65.83	18.84	-46.3	-47.8	19.3	0.00e+00	0	45	0	356515840	63	4473
2026-01-25 06:46:46.92	65.65	18.93	-46.2	-47.7	19.4	0.00e+00	0	45	0	358612992	63	4393
2026-01-25 06:46:47.92	65.47	19.01	-46.3	-47.8	19.2	0.00e+00	0	45	0	359661568	63	4485
2026-01-25 06:46:48.93	65.29	19.10	-46.3	-47.8	19.3	0.00e+00	0	45	0	361758720	63	4450
2026-01-25 06:46:49.94	65.11	19.18	-46.2	-47.7	19.4	0.00e+00	0	45	0	363855872	63	4420
2026-01-25 06:46:50.95	64.93	19.27	-46.1	-47.5	19.6	0.00e+00	0	45	0	365953024	63	4327
2026-01-25 06:46:51.96	64.74	19.36	-46.1	-47.5	19.5	0.00e+00	0	45	0	368050176	63	4329
2026-01-25 06:46:52.96	64.56	19.44	-46.1	-47.5	19.6	0.00e+00	0	45	0	369098752	63	4316
2026-01-25 06:46:53.97	64.37	19.53	-46.1	-47.6	19.5	0.00e+00	0	45	0	371195904	63	4343
2026-01-25 06:46:54.98	64.19	19.61	-46.1	-47.5	19.6	0.00e+00	0	45	0	373293056	63	4320
2026-01-25 06:46:55.98	64.00	19.70	-46.1	-47.6	19.5	0.00e+00	0	45	0	375390208	63	4362
2026-01-25 06:46:56.99	63.81	19.78	-46.1	-47.5	19.6	0.00e+00	0	45	0	377487360	63	4327
2026-01-25 06:46:58.00	63.62	19.87	-46.0	-47.5	19.6	0.00e+00	0	45	0	378535936	63	4310
2026-01-25 06:46:59.01	63.43	19.95	-46.1	-47.6	19.5	0.00e+00	0	45	0	380633088	63	4358
2026-01-25 06:47:00.02	63.24	20.04	-46.1	-47.6	19.5	0.00e+00	0	45	0	382730240	63	4352
2026-01-25 06:47:01.03	63.04	20.12	-46.1	-47.6	19.5	0.00e+00	0	45	0	384827392	63	4349
2026-01-25 06:47:02.03	62.85	20.21	-46.2	-47.7	19.4	0.00e+00	0	45	0	386924544	63	4405
2026-01-25 06:47:03.04	62.66	20.29	-46.0	-47.5	19.6	0.00e+00	0	45	0	387973120	63	4313
2026-01-25 06:47:04.05	62.46	20.38	-46.0	-47.5	19.7	0.00e+00	0	45	0	390070272	63	4301
2026-01-25 06:47:05.06	62.26	20.46	-45.9	-47.3	19.8	0.00e+00	0	45	0	392167424	63	4235
2026-01-25 06:47:06.07	62.06	20.55	-45.9	-47.4	19.8	0.00e+00	0	45	0	394264576	63	4251
2026-01-25 06:47:07.08	61.86	20.63	-45.8	-47.2	19.9	0.00e+00	0	45	0	396361728	63	4168
2026-01-25 06:47:08.09	61.66	20.72	-45.6	-47.0	20.2	0.00e+00	0	45	0	397410304	63	4052
2026-01-25 06:47:09.10	61.46	20.80	-45.6	-47.0	20.1	0.00e+00	0	45	0	399507456	63	4072
2026-01-25 06:47:10.10	61.26	20.88	-45.6	-47.0	20.1	0.00e+00	0	45	0	401604608	63	4060
2026-01-25 06:47:11.11	61.06	20.97	-45.6	-46.9	20.2	0.00e+00	0	45	0	403701760	63	4046
2026-01-25 06:47:12.12	60.85	21.05	-45.6	-47.0	20.1	0.00e+00	0	45	0	405798912	63	4068
2026-01-25 06:47:13.13	60.64	21.14	-45.5	-46.9	20.2	0.00e+00	0	45	0	407896064	62	4252
2026-01-25 06:47:14.14	60.44	21.22	-45.5	-46.8	20.3	0.00e+00	0	45	0	408944640	62	4206
2026-01-25 06:47:15.15	60.23	21.31	-45.3	-46.6	20.5	0.00e+00	0	45	0	411041792	62	4121
2026-01-25 06:47:16.15	60.02	21.39	-45.3	-46.6	20.5	0.00e+00	0	45	0	413138944	62	4118
2026-01-25 06:47:17.16	59.81	21.47	-45.2	-46.5	20.6	0.00e+00	0	45	0	415236096	62	4070
2026-01-25 06:47:18.17	59.59	21.56	-45.1	-46.4	20.7	0.00e+00	0	45	0	416284672	62	4012
2026-01-25 06:47:19.18	59.38	21.64	-45.0	-46.2	20.9	0.00e+00	0	45	0	418381824	62	3931
2026-01-25 06:47:20.19	59.17	21.72	-45.0	-46.2	20.9	0.00e+00	0	45	0	420478976	61	4170
2026-01-25 06:47:21.19	58.95	21.80	-45.0	-46.2	20.9	0.00e+00	0	45	0	422576128	61	4181
2026-01-25 06:47:22.20	58.74	21.89	-44.9	-46.1	20.9	0.00e+00	0	45	0	424673280	61	4141
2026-01-25 06:47:23.21	58.52	21.97	-45.0	-46.2	20.9	0.00e+00	0	45	0	426770432	61	4192
2026-01-25 06:47:24.22	58.30	22.05	-45.0	-46.2	20.9	0.00e+00	0	45	0	427819008	61	4167
2026-01-25 06:47:25.23	58.08	22.14	-44.9	-46.2	20.9	0.00e+00	0	45	0	429916160	61	4147
2026-01-25 06:47:26.24	57.86	22.22	-44.9	-46.1	21.0	0.00e+00	0	45	0	432013312	61	4111
2026-01-25 06:47:27.24	57.64	22.30	-44.8	-46.0	21.1	0.00e+00	0	45	0	434110464	61	4070
2026-01-25 06:47:28.25	57.41	22.38	-44.9	-46.1	21.0	0.00e+00	0	45	0	436207616	61	4139
2026-01-25 06:47:29.26	57.19	22.46	-44.8	-46.0	21.1	0.00e+00	0	45	0	437256192	61	4056
2026-01-25 06:47:30.27	56.96	22.54	-44.8	-46.0	21.1	0.00e+00	0	45	0	439353344	61	4071
2026-01-25 06:47:31.28	56.73	22.62	-44.7	-45.9	21.3	0.00e+00	0	45	0	441450496	61	4012
2026-01-25 06:47:32.29	56.50	22.71	-44.3	-45.5	21.6	0.00e+00	0	45	0	443547648	60	4056
2026-01-25 06:47:33.30	56.27	22.79	-44.4	-45.5	21.6	0.00e+00	0	45	0	444596224	60	4091
2026-01-25 06:47:34.30	56.04	22.87	-44.5	-45.7	21.4	0.00e+00	0	45	0	446693376	60	4152
2026-01-25 06:47:35.31	55.81	22.95	-44.6	-45.7	21.3	0.00e+00	0	45	0	448790528	60	4180
2026-01-25 06:47:36.32	55.58	23.03	-44.5	-45.6	21.4	0.00e+00	0	45	0	450887680	60	4142
2026-01-25 06:47:37.33	55.34	23.10	-44.5	-45.6	21.4	0.00e+00	0	45	0	452984832	60	4145
2026-01-25 06:47:38.34	55.11	23.18	-44.5	-45.6	21.5	0.00e+00	0	45	0	455081984	60	4130
2026-01-25 06:47:39.34	54.87	23.26	-44.6	-45.7	21.4	0.00e+00	0	45	0	456130560	60	4177
2026-01-25 06:47:40.35	54.63	23.34	-44.5	-45.7	21.4	0.00e+00	0	45	0	458227712	60	4171
2026-01-25 06:47:41.36	54.39	23.42	-44.6	-45.7	21.4	0.00e+00	0	45	0	460324864	60	4181
2026-01-25 06:47:42.37	54.15	23.50	-44.6	-45.8	21.3	0.00e+00	0	45	0	462422016	60	4218
2026-01-25 06:47:43.38	53.91	23.58	-44.7	-45.9	21.3	0.00e+00	0	45	0	464519168	60	4247
2026-01-25 06:47:44.38	53.67	23.65	-44.7	-45.8	21.3	0.00e+00	0	45	0	465567744	60	4240
2026-01-25 06:47:45.39	53.43	23.73	-44.9	-46.1	21.1	0.00e+00	0	45	0	467664896	60	4345
2026-01-25 06:47:46.40	53.18	23.81	-44.8	-46.0	21.2	0.00e+00	0	45	0	469762048	60	4295
2026-01-25 06:47:47.41	52.93	23.88	-44.8	-46.0	21.2	0.00e+00	0	45	0	471859200	60	4317
2026-01-25 06:47:48.42	52.68	23.96	-44.6	-45.8	21.4	0.00e+00	0	45	0	473956352	60	4207
2026-01-25 06:47:49.43	52.43	24.03	-44.6	-45.8	21.4	0.00e+00	0	45	0	475004928	60	4202
2026-01-25 06:47:50.44	52.18	24.11	-44.7	-45.8	21.3	0.00e+00	0	45	0	477102080	60	4234
2026-01-25 06:47:51.44	51.93	24.18	-44.6	-45.8	21.4	0.00e+00	0	45	0	479199232	60	4200
2026-01-25 06:47:52.45	51.68	24.26	-44.6	-45.7	21.4	0.00e+00	0	45	0	481296384	60	4189
2026-01-25 06:47:53.46	51.43	24.33	-44.6	-45.7	21.4	0.00e+00	0	45	0	483393536	60	4184
2026-01-25 06:47:54.47	51.17	24.41	-44.6	-45.8	21.3	0.00e+00	0	45	0	484442112	60	4220
2026-01-25 06:47:55.48	50.92	24.48	-44.7	-45.8	21.3	0.00e+00	0	45	0	486539264	60	4226
2026-01-25 06:47:56.48	50.66	24.55	-44.8	-45.9	21.2	0.00e+00	0	45	0	488636416	60	4287
2026-01-25 06:47:57.49	50.40	24.62	-44.8	-46.0	21.2	0.00e+00	0	45	0	490733568	60	4307
2026-01-25 06:47:58.50	50.14	24.70	-44.8	-45.9	21.2	0.00e+00	0	45	0	492830720	60	4289
2026-01-25 06:47:59.51	49.88	24.77	-44.8	-46.0	21.2	0.00e+00	0	45	0	494927872	60	4319
2026-01-25 06:48:00.51	49.62	24.84	-45.0	-46.3	20.9	0.00e+00	0	45	0	495976448	60	4442
2026-01-25 06:48:01.52	49.36	24.91	-45.1	-46.4	20.8	0.00e+00	0	45	0	498073600	60	4500
2026-01-25 06:48:02.53	49.09	24.98	-45.1	-46.3	20.8	0.00e+00	0	45	0	500170752	60	4484
2026-01-25 06:48:03.54	48.82	25.05	-45.0	-46.3	20.9	0.00e+00	0	45	0	502267904	60	4452
2026-01-25 06:48:04.55	48.56	25.12	-45.0	-46.3	20.9	0.00e+00	0	45	0	503316480	60	4442
2026-01-25 06:48:05.56	48.29	25.19	-45.0	-46.2	21.0	0.00e+00	0	45	0	505413632	60	4401
2026-01-25 06:48:06.56	48.02	25.25	-44.9	-46.1	21.1	0.00e+00	0	45	0	507510784	60	4352
2026-01-25 06:48:07.57	47.75	25.32	-44.6	-45.8	21.4	0.00e+00	0	45	0	509607936	60	4197
2026-01-25 06:48:08.58	47.48	25.39	-44.6	-45.7	21.4	0.00e+00	0	45	0	511705088	60	4168
2026-01-25 06:48:09.59	47.21	25.46	-44.5	-45.7	21.5	0.00e+00	0	45	0	512753664	60	4154
2026-01-25 06:48:10.60	46.93	25.52	-44.6	-45.7	21.4	0.00e+00	0	45	0	514850816	60	4184
2026-01-25 06:48:11.60	46.66	25.59	-44.5	-45.6	21.5	0.00e+00	0	45	0	516947968	60	4117
2026-01-25 06:48:12.61	46.38	25.65	-44.5	-45.7	21.5	0.00e+00	0	45	0	519045120	60	4155
2026-01-25 06:48:13.62	46.10	25.72	-44.5	-45.6	21.4	0.00e+00	0	45	0	521142272	60	4138
2026-01-25 06:48:14.63	45.83	25.78	-44.5	-45.6	21.5	0.00e+00	0	45	0	523239424	60	4126
2026-01-25 06:48:15.64	45.55	25.84	-44.5	-45.6	21.5	0.00e+00	0	45	0	524288000	60	4135
2026-01-25 06:48:16.65	45.26	25.91	-44.6	-45.7	21.5	0.00e+00	0	45	0	526385152	60	4168
2026-01-25 06:48:17.66	44.98	25.97	-44.6	-45.8	21.4	0.00e+00	0	45	0	528482304	60	4197
2026-01-25 06:48:18.66	44.70	26.03	-44.5	-45.7	21.5	0.00e+00	0	45	0	530579456	60	4164
2026-01-25 06:48:19.67	44.42	26.09	-44.4	-45.6	21.6	0.00e+00	0	45	0	531628032	60	4102
2026-01-25 06:48:20.68	44.13	26.15	-44.3	-45.4	21.8	0.00e+00	0	45	0	533725184	60	4019
2026-01-25 06:48:21.69	43.84	26.21	-44.4	-45.5	21.6	0.00e+00	0	45	0	535822336	60	4064
2026-01-25 06:48:22.70	43.56	26.27	-44.4	-45.6	21.6	0.00e+00	0	45	0	537919488	60	4106
2026-01-25 06:48:23.70	43.27	26.32	-44.4	-45.5	21.6	0.00e+00	0	45	0	540016640	60	4080
2026-01-25 06:48:24.71	42.98	26.38	-44.3	-45.4	21.7	0.00e+00	0	45	0	542113792	60	4043
2026-01-25 06:48:25.72	42.69	26.44	-44.4	-45.5	21.7	0.00e+00	0	45	0	543162368	60	4091
2026-01-25 06:48:26.73	42.40	26.49	-44.6	-45.7	21.5	0.00e+00	0	45	0	545259520	60	4184
2026-01-25 06:48:27.73	42.11	26.55	-44.7	-45.9	21.3	0.00e+00	0	45	0	547356672	60	4263
2026-01-25 06:48:28.74	41.81	26.60	-44.8	-46.0	21.2	0.00e+00	0	45	0	549453824	60	4302
2026-01-25 06:48:29.75	41.52	26.66	-44.8	-45.9	21.2	0.00e+00	0	45	0	551550976	60	4287
2026-01-25 06:48:30.76	41.22	26.71	-44.8	-46.0	21.2	0.00e+00	0	45	0	552599552	60	4320
2026-01-25 06:48:31.77	40.93	26.76	-44.9	-46.1	21.1	0.00e+00	0	45	0	554696704	60	4368
2026-01-25 06:48:32.78	40.63	26.81	-45.1	-46.3	20.9	0.00e+00	0	45	0	556793856	60	4469
2026-01-25 06:48:33.78	40.33	26.86	-45.2	-46.5	20.7	0.00e+00	0	45	0	558891008	61	4311
2026-01-25 06:48:34.79	40.03	26.91	-45.3	-46.6	20.6	0.00e+00	0	45	0	559939584	61	4365
2026-01-25 06:48:35.80	39.73	26.96	-45.4	-46.7	20.6	0.00e+00	0	45	0	562036736	61	4392
2026-01-25 06:48:36.80	39.43	27.01	-45.4	-46.7	20.6	0.00e+00	0	45	0	564133888	61	4414
2026-01-25 06:48:37.81	39.13	27.06	-45.5	-46.8	20.4	0.00e+00	0	45	0	566231040	61	4483
2026-01-25 06:48:38.82	38.83	27.11	-45.5	-46.8	20.4	0.00e+00	0	45	0	568328192	61	4491
2026-01-25 06:48:39.83	38.52	27.15	-45.4	-46.7	20.4	0.00e+00	0	45	0	570425344	61	4435
2026-01-25 06:48:40.84	38.22	27.20	-45.5	-46.8	20.5	0.00e+00	0	45	0	571473920	61	4447
2026-01-25 06:48:41.84	37.92	27.24	-45.6	-46.9	20.3	0.00e+00	0	45	0	573571072	61	4527
2026-01-25 06:48:42.85	37.61	27.28	-45.6	-46.9	20.4	0.00e+00	0	45	0	575668224	61	4537
2026-01-25 06:48:43.86	37.30	27.33	-45.8	-47.2	20.1	0.00e+00	0	45	0	577765376	62	4395
2026-01-25 06:48:44.87	36.99	27.37	-45.7	-47.0	20.2	0.00e+00	0	45	0	579862528	62	4328
2026-01-25 06:48:45.88	36.68	27.41	-45.7	-47.0	20.2	0.00e+00	0	45	0	580911104	62	4336
2026-01-25 06:48:46.89	36.37	27.45	-45.6	-46.9	20.4	0.00e+00	0	45	0	583008256	62	4251
2026-01-25 06:48:47.90	36.06	27.49	-45.7	-47.0	20.3	0.00e+00	0	45	0	585105408	62	4302
2026-01-25 06:48:48.90	35.75	27.53	-45.8	-47.1	20.2	0.00e+00	0	45	0	587202560	62	4387
2026-01-25 06:48:49.91	35.44	27.56	-45.8	-47.2	20.1	0.00e+00	0	45	0	589299712	62	4414
2026-01-25 06:48:50.92	35.13	27.60	-46.0	-47.4	19.8	0.00e+00	0	45	0	590348288	62	4538
2026-01-25 06:48:51.93	34.81	27.64	-46.0	-47.4	19.9	0.00e+00	0	45	0	592445440	62	4527
2026-01-25 06:48:52.94	34.50	27.67	-46.1	-47.5	19.8	0.00e+00	0	45	0	594542592	62	4562
2026-01-25 06:48:53.94	34.19	27.70	-46.1	-47.5	19.8	0.00e+00	0	45	0	596639744	63	4333
2026-01-25 06:48:54.95	33.87	27.74	-46.1	-47.5	19.8	0.00e+00	0	45	0	598736896	63	4325
2026-01-25 06:48:55.96	33.56	27.77	-46.0	-47.4	19.9	0.00e+00	0	45	0	599785472	63	4276
2026-01-25 06:48:56.97	33.24	27.80	-46.0	-47.4	19.9	0.00e+00	0	45	0	601882624	63	4279
2026-01-25 06:48:57.98	32.92	27.83	-46.2	-47.6	19.7	0.00e+00	0	45	0	603979776	63	4389
2026-01-25 06:48:58.98	32.61	27.86	-46.3	-47.8	19.5	0.00e+00	0	45	0	606076928	63	4465
2026-01-25 06:48:59.99	32.29	27.89	-46.3	-47.7	19.7	0.00e+00	0	45	0	608174080	63	4425
2026-01-25 06:49:01.00	31.97	27.91	-46.2	-47.6	19.8	0.00e+00	0	45	0	609222656	63	4367
2026-01-25 06:49:02.01	31.65	27.94	-46.2	-47.6	19.8	0.00e+00	0	45	0	611319808	63	4365
2026-01-25 06:49:03.02	31.33	27.97	-46.3	-47.7	19.7	0.00e+00	0	45	0	613416960	63	4435
2026-01-25 06:49:04.02	31.01	27.99	-46.5	-48.0	19.4	0.00e+00	0	45	0	615514112	63	4577
2026-01-25 06:49:05.03	30.69	28.01	-46.7	-48.2	19.2	0.00e+00	0	45	0	617611264	63	4702
2026-01-25 06:49:06.04	30.37	28.04	-46.7	-48.2	19.0	0.00e+00	0	45	0	618659840	64	4432
2026-01-25 06:49:07.05	30.04	28.06	-46.5	-48.0	19.3	0.00e+00	0	45	0	620756992	64	4304
2026-01-25 06:49:08.06	29.72	28.08	-46.6	-48.1	19.2	0.00e+00	0	45	0	622854144	64	4376
2026-01-25 06:49:09.06	29.40	28.10	-46.6	-48.1	19.2	0.00e+00	0	45	0	624951296	64	4354
2026-01-25 06:49:10.07	29.08	28.12	-46.5	-48.0	19.3	0.00e+00	0	45	0	627048448	64	4313
2026-01-25 06:49:11.08	28.75	28.13	-46.5	-48.1	19.2	0.00e+00	0	45	0	628097024	64	4343
2026-01-25 06:49:12.09	28.43	28.15	-46.5	-48.0	19.3	0.00e+00	0	45	0	630194176	64	4312
2026-01-25 06:49:13.10	28.10	28.16	-46.4	-47.8	19.4	0.00e+00	0	45	0	632291328	64	4240
2026-01-25 06:49:14.10	27.78	28.18	-46.5	-48.0	19.3	0.00e+00	0	45	0	634388480	64	4334
2026-01-25 06:49:15.11	27.46	28.19	-46.7	-48.3	19.0	0.00e+00	0	45	0	636485632	64	4470
2026-01-25 06:49:16.12	27.13	28.20	-46.9	-48.5	18.8	0.00e+00	0	45	0	637534208	64	4572
2026-01-25 06:49:17.13	26.81	28.22	-46.7	-48.3	19.0	0.00e+00	0	45	0	639631360	64	4460
2026-01-25 06:49:18.14	26.48	28.23	-46.4	-47.9	19.4	0.00e+00	0	45	0	641728512	64	4249
2026-01-25 06:49:19.14	26.16	28.23	-46.3	-47.8	19.5	0.00e+00	0	45	0	643825664	64	4200
2026-01-25 06:49:20.15	25.83	28.24	-46.3	-47.7	19.6	0.00e+00	0	45	0	645922816	64	4170
2026-01-25 06:49:21.16	25.50	28.25	-46.4	-47.9	19.4	0.00e+00	0	45	0	646971392	64	4244
2026-01-25 06:49:22.17	25.18	28.26	-46.6	-48.1	19.2	0.00e+00	0	45	0	649068544	64	4364
2026-01-25 06:49:23.18	24.85	28.26	-46.3	-47.8	19.4	0.00e+00	0	45	0	651165696	64	4224
2026-01-25 06:49:24.19	24.53	28.26	-46.1	-47.5	19.7	0.00e+00	0	45	0	653262848	64	4092
2026-01-25 06:49:25.20	24.20	28.27	-46.2	-47.6	19.6	0.00e+00	0	45	0	655360000	64	4134
2026-01-25 06:49:26.21	23.87	28.27	-46.1	-47.4	19.7	0.00e+00	0	45	0	657457152	64	4047
2026-01-25 06:49:27.22	23.54	28.27	-46.1	-47.5	19.9	0.00e+00	0	45	0	658505728	63	4304
2026-01-25 06:49:28.22	23.22	28.27	-46.1	-47.5	19.7	0.00e+00	0	45	0	660602880	63	4340
2026-01-25 06:49:29.23	22.89	28.27	-46.2	-47.6	19.7	0.00e+00	0	45	0	662700032	63	4381
2026-01-25 06:49:30.24	22.57	28.27	-46.2	-47.6	19.7	0.00e+00	0	45	0	664797184	63	4372
2026-01-25 06:49:31.25	22.24	28.26	-46.2	-47.6	19.7	0.00e+00	0	45	0	665845760	63	4391
2026-01-25 06:49:32.26	21.91	28.26	-46.0	-47.4	19.9	0.00e+00	0	45	0	667942912	63	4268
2026-01-25 06:49:33.26	21.59	28.25	-46.1	-47.5	19.9	0.00e+00	0	45	0	670040064	63	4321
2026-01-25 06:49:34.27	21.26	28.25	-46.0	-47.4	19.9	0.00e+00	0	45	0	672137216	63	4265
2026-01-25 06:49:35.28	20.94	28.24	-46.0	-47.3	20.0	0.00e+00	0	45	0	674234368	63	4239
2026-01-25 06:49:36.28	20.61	28.23	-46.0	-47.4	20.0	0.00e+00	0	45	0	675282944	63	4286
2026-01-25 06:49:37.29	20.29	28.22	-46.1	-47.4	19.9	0.00e+00	0	45	0	677380096	63	4287
2026-01-25 06:49:38.30	19.96	28.21	-45.9	-47.3	20.0	0.00e+00	0	45	0	679477248	63	4222
2026-01-25 06:49:39.31	19.64	28.20	-45.8	-47.2	20.2	0.00e+00	0	45	0	681574400	63	4167
2026-01-25 06:49:40.32	19.31	28.19	-45.8	-47.1	20.2	0.00e+00	0	45	0	683671552	63	4142
2026-01-25 06:49:41.32	18.99	28.17	-45.8	-47.1	20.2	0.00e+00	0	45	0	685768704	63	4117
2026-01-25 06:49:42.33	18.67	28.16	-45.8	-47.1	20.2	0.00e+00	0	45	0	686817280	63	4127
2026-01-25 06:49:43.34	18.34	28.14	-45.7	-47.0	20.3	0.00e+00	0	45	0	688914432	63	4077
2026-01-25 06:49:44.35	18.02	28.13	-45.6	-46.9	20.3	0.00e+00	0	45	0	691011584	63	4038
2026-01-25 06:49:45.36	17.69	28.11	-45.3	-46.5	20.8	0.00e+00	0	45	0	693108736	62	4075
2026-01-25 06:49:46.36	17.37	28.09	-45.2	-46.4	20.9	0.00e+00	0	45	0	694157312	62	4018
2026-01-25 06:49:47.37	17.05	28.07	-45.2	-46.4	20.9	0.00e+00	0	45	0	696254464	62	4046
2026-01-25 06:49:48.38	16.73	28.05	-45.1	-46.4	20.9	0.00e+00	0	45	0	698351616	62	4006
2026-01-25 06:49:49.39	16.41	28.03	-45.1	-46.4	20.9	0.00e+00	0	45	0	700448768	62	4008
2026-01-25 06:49:50.40	16.08	28.01	-45.1	-46.3	21.0	0.00e+00	0	45	0	702545920	62	3972
2026-01-25 06:49:51.41	15.76	27.98	-45.0	-46.2	21.1	0.00e+00	0	45	0	704643072	62	3933
2026-01-25 06:49:52.42	15.44	27.96	-44.9	-46.1	21.2	0.00e+00	0	45	0	705691648	61	4129
2026-01-25 06:49:53.42	15.13	27.93	-44.8	-46.0	21.3	0.00e+00	0	45	0	707788800	61	4052
2026-01-25 06:49:54.43	14.81	27.91	-44.9	-46.1	21.2	0.00e+00	0	45	0	709885952	61	4113
2026-01-25 06:49:55.45	14.48	27.88	-45.0	-46.2	21.1	0.00e+00	0	45	0	711983104	61	4160
2026-01-25 06:49:56.46	14.16	27.85	-44.9	-46.1	21.2	0.00e+00	0	45	0	714080256	61	4122
2026-01-25 06:49:57.46	13.85	27.82	-45.0	-46.2	21.1	0.00e+00	0	45	0	715128832	61	4166
2026-01-25 06:49:58.47	13.53	27.79	-44.9	-46.0	21.2	0.00e+00	0	45	0	717225984	61	4095
2026-01-25 06:49:59.48	13.22	27.76	-44.9	-46.1	21.1	0.00e+00	0	45	0	719323136	61	4117
2026-01-25 06:50:00.49	12.90	27.73	-45.0	-46.2	21.1	0.00e+00	0	45	0	721420288	61	4150
2026-01-25 06:50:01.50	12.58	27.70	-44.9	-46.0	21.2	0.00e+00	0	45	0	722468864	61	4096
2026-01-25 06:50:02.50	12.27	27.66	-45.0	-46.2	21.0	0.00e+00	0	45	0	724566016	61	4175
2026-01-25 06:50:03.51	11.96	27.63	-45.1	-46.3	21.0	0.00e+00	0	45	0	726663168	61	4207
2026-01-25 06:50:04.52	11.64	27.59	-45.1	-46.3	21.0	0.00e+00	0	45	0	728760320	61	4196
2026-01-25 06:50:05.53	11.33	27.55	-45.2	-46.4	20.9	0.00e+00	0	45	0	730857472	61	4280
2026-01-25 06:50:06.54	11.02	27.52	-45.0	-46.2	21.1	0.00e+00	0	45	0	732954624	61	4178
2026-01-25 06:50:07.54	10.71	27.48	-44.9	-46.1	21.2	0.00e+00	0	45	0	734003200	61	4120
2026-01-25 06:50:08.55	10.40	27.44	-45.0	-46.2	21.1	0.00e+00	0	45	0	736100352	61	4192
2026-01-25 06:50:09.56	10.09	27.40	-45.1	-46.3	21.0	0.00e+00	0	45	0	738197504	61	4199
2026-01-25 06:50:10.56	9.79	27.36	-45.2	-46.4	20.9	0.00e+00	0	45	0	740294656	61	4261
2026-01-25 06:50:11.57	9.48	27.32	-45.4	-46.6	20.7	0.00e+00	0	45	0	742391808	61	4383
2026-01-25 06:50:12.58	9.17	27.27	-45.6	-46.9	20.4	0.00e+00	0	45	0	743440384	61	4529
2026-01-25 06:50:13.59	8.86	27.23	-45.8	-47.1	20.3	0.00e+00	0	45	0	745537536	62	4378
2026-01-25 06:50:14.60	8.56	27.19	-45.8	-47.1	20.2	0.00e+00	0	45	0	747634688	62	4383
2026-01-25 06:50:15.61	8.25	27.14	-45.9	-47.2	20.1	0.00e+00	0	45	0	749731840	62	4421
2026-01-25 06:50:16.62	7.95	27.09	-45.8	-47.2	20.2	0.00e+00	0	45	0	751828992	62	4404
2026-01-25 06:50:17.63	7.65	27.05	-45.7	-47.0	20.3	0.00e+00	0	45	0	752877568	62	4331
2026-01-25 06:50:18.63	7.35	27.00	-45.8	-47.1	20.2	0.00e+00	0	45	0	754974720	62	4357
2026-01-25 06:50:19.64	7.05	26.95	-45.9	-47.2	20.2	0.00e+00	0	45	0	757071872	62	4429
2026-01-25 06:50:20.65	6.75	26.90	-46.0	-47.3	20.1	0.00e+00	0	45	0	759169024	62	4474
2026-01-25 06:50:21.66	6.45	26.85	-46.1	-47.5	19.8	0.00e+00	0	45	0	761266176	62	4575
2026-01-25 06:50:22.66	6.15	26.80	-46.2	-47.7	19.7	0.00e+00	0	45	0	762314752	63	4402
2026-01-25 06:50:23.67	5.86	26.75	-46.4	-47.8	19.5	0.00e+00	0	45	0	764411904	63	4487
2026-01-25 06:50:24.68	5.56	26.70	-46.4	-47.9	19.5	0.00e+00	0	45	0	766509056	63	4500
2026-01-25 06:50:25.69	5.26	26.64	-46.4	-47.8	19.5	0.00e+00	0	45	0	768606208	63	4485
2026-01-25 06:50:26.70	4.97	26.59	-46.3	-47.7	19.7	0.00e+00	0	45	0	770703360	63	4411
2026-01-25 06:50:27.70	4.68	26.54	-46.2	-47.7	19.7	0.00e+00	0	45	0	771751936	63	4397
2026-01-25 06:50:28.71	4.39	26.48	-46.3	-47.7	19.7	0.00e+00	0	45	0	773849088	63	4412
2026-01-25 06:50:29.72	4.10	26.42	-46.4	-47.8	19.6	0.00e+00	0	45	0	775946240	63	4473
2026-01-25 06:50:30.73	3.81	26.37	-46.4	-47.9	19.5	0.00e+00	0	45	0	778043392	63	4507
2026-01-25 06:50:31.74	3.52	26.31	-46.5	-48.0	19.4	0.00e+00	0	45	0	780140544	63	4576
2026-01-25 06:50:32.75	3.23	26.25	-46.5	-48.0	19.3	0.00e+00	0	45	0	781189120	63	4570
2026-01-25 06:50:33.76	2.94	26.19	-46.7	-48.2	19.1	0.00e+00	0	45	0	783286272	63	4700
2026-01-25 06:50:34.77	2.66	26.13	-46.7	-48.3	19.0	0.00e+00	0	45	0	785383424	64	4454
2026-01-25 06:50:35.78	2.37	26.07	-46.7	-48.2	19.0	0.00e+00	0	45	0	787480576	64	4437
2026-01-25 06:50:36.79	2.09	26.01	-46.5	-47.9	19.3	0.00e+00	0	45	0	789577728	64	4291
2026-01-25 06:50:37.80	1.80	25.95	-46.4	-47.9	19.4	0.00e+00	0	45	0	790626304	64	4263
2026-01-25 06:50:38.80	1.52	25.89	-46.3	-47.8	19.5	0.00e+00	0	45	0	792723456	64	4204
2026-01-25 06:50:39.81	1.24	25.83	-46.3	-47.8	19.5	0.00e+00	0	45	0	794820608	64	4197
2026-01-25 06:50:40.82	0.97	25.77	-46.4	-47.8	19.5	0.00e+00	0	45	0	796917760	64	4234
2026-01-25 06:50:41.83	0.69	25.70	-46.4	-47.9	19.3	0.00e+00	0	45	0	799014912	64	4271
2026-01-25 06:50:42.84	0.41	25.64	-46.4	-47.9	19.4	0.00e+00	0	45	0	801112064	64	4276
2026-01-25 06:50:43.84	0.14	25.57	-46.3	-47.8	19.4	0.00e+00	0	45	0	802160640	64	4218
2026-01-25 06:50:44.85	359.86	25.51	-46.4	-47.8	19.4	0.00e+00	0	45	0	804257792	64	4239
2026-01-25 06:50:45.86	359.59	25.44	-46.3	-47.8	19.4	0.00e+00	0	45	0	806354944	64	4227
2026-01-25 06:50:46.87	359.32	25.37	-46.2	-47.7	19.6	0.00e+00	0	45	0	808452096	64	4156
2026-01-25 06:50:47.88	359.04	25.31	-46.2	-47.7	19.6	0.00e+00	0	45	0	809500672	64	4153
2026-01-25 06:50:48.89	358.77	25.24	-46.2	-47.6	19.6	0.00e+00	0	45	0	811597824	64	4138
2026-01-25 06:50:49.90	358.51	25.17	-46.1	-47.5	19.7	0.00e+00	0	45	0	813694976	64	4088
2026-01-25 06:50:50.90	358.24	25.10	-46.0	-47.4	19.8	0.00e+00	0	45	0	815792128	63	4287
2026-01-25 06:50:51.91	357.97	25.03	-46.0	-47.4	19.9	0.00e+00	0	45	0	817889280	63	4258
2026-01-25 06:50:52.92	357.71	24.96	-46.0	-47.4	19.9	0.00e+00	0	45	0	819986432	63	4267
2026-01-25 06:50:53.93	357.44	24.89	-46.0	-47.4	19.9	0.00e+00	0	45	0	821035008	63	4253
2026-01-25 06:50:54.94	357.18	24.82	-46.0	-47.3	20.0	0.00e+00	0	45	0	823132160	63	4238
2026-01-25 06:50:55.95	356.92	24.75	-46.0	-47.4	19.9	0.00e+00	0	45	0	825229312	63	4254
2026-01-25 06:50:56.95	356.66	24.68	-45.9	-47.3	20.0	0.00e+00	0	45	0	827326464	63	4207
2026-01-25 06:50:57.96	356.40	24.61	-45.8	-47.1	20.2	0.00e+00	0	45	0	829423616	63	4127
2026-01-25 06:50:58.97	356.14	24.54	-45.7	-47.1	20.2	0.00e+00	0	45	0	830472192	63	4110
2026-01-25 06:50:59.98	355.89	24.46	-45.6	-46.9	20.3	0.00e+00	0	45	0	832569344	63	4045
2026-01-25 06:51:00.99	355.63	24.39	-45.6	-46.9	20.3	0.00e+00	0	45	0	834666496	63	4047
2026-01-25 06:51:02.00	355.38	24.32	-45.5	-46.8	20.4	0.00e+00	0	45	0	836763648	63	4003
2026-01-25 06:51:03.01	355.12	24.24	-45.7	-47.0	20.3	0.00e+00	0	45	0	838860800	63	4072
2026-01-25 06:51:04.02	354.87	24.17	-45.5	-46.9	20.4	0.00e+00	0	45	0	839909376	63	4005
2026-01-25 06:51:05.02	354.62	24.09	-45.4	-46.7	20.5	0.00e+00	0	45	0	842006528	62	4170
2026-01-25 06:51:06.03	354.37	24.02	-45.3	-46.5	20.7	0.00e+00	0	45	0	844103680	62	4092
2026-01-25 06:51:07.04	354.12	23.94	-45.2	-46.4	20.8	0.00e+00	0	45	0	846200832	62	4051
2026-01-25 06:51:08.05	353.88	23.87	-45.2	-46.4	20.8	0.00e+00	0	45	0	848297984	62	4044
2026-01-25 06:51:09.06	353.63	23.79	-45.3	-46.5	20.7	0.00e+00	0	45	0	849346560	62	4077
2026-01-25 06:51:10.07	353.38	23.71	-45.2	-46.4	20.8	0.00e+00	0	45	0	851443712	62	4040
2026-01-25 06:51:11.08	353.14	23.64	-45.2	-46.4	20.8	0.00e+00	0	45	0	853540864	62	4051
2026-01-25 06:51:12.08	352.90	23.56	-45.2	-46.5	20.8	0.00e+00	0	45	0	855638016	62	4064
2026-01-25 06:51:13.09	352.66	23.48	-45.1	-46.3	20.9	0.00e+00	0	45	0	857735168	62	3985
2026-01-25 06:51:14.10	352.42	23.40	-44.9	-46.1	21.1	0.00e+00	0	45	0	858783744	61	4143
2026-01-25 06:51:15.11	352.18	23.33	-45.0	-46.2	21.0	0.00e+00	0	45	0	860880896	61	4165
2026-01-25 06:51:16.11	351.94	23.25	-45.0	-46.2	21.0	0.00e+00	0	45	0	862978048	61	4188
2026-01-25 06:51:17.12	351.71	23.17	-44.9	-46.0	21.1	0.00e+00	0	45	0	865075200	61	4091
2026-01-25 06:51:18.13	351.47	23.09	-44.8	-45.9	21.2	0.00e+00	0	45	0	867172352	61	4043
2026-01-25 06:51:19.14	351.24	23.01	-44.9	-46.1	21.1	0.00e+00	0	45	0	868220928	61	4131
2026-01-25 06:51:20.15	351.01	22.93	-44.9	-46.1	21.1	0.00e+00	0	45	0	870318080	61	4129
2026-01-25 06:51:21.16	350.77	22.85	-44.6	-45.8	21.3	0.00e+00	0	45	0	872415232	61	3986
2026-01-25 06:51:22.17	350.54	22.77	-44.6	-45.8	21.4	0.00e+00	0	45	0	874512384	61	3977
2026-01-25 06:51:23.18	350.31	22.69	-44.7	-45.9	21.3	0.00e+00	0	45	0	876609536	61	4012
2026-01-25 06:51:24.18	350.09	22.61	-44.5	-45.7	21.5	0.00e+00	0	45	0	877658112	61	3926
2026-01-25 06:51:25.19	349.86	22.53	-44.6	-45.8	21.3	0.00e+00	0	45	0	879755264	61	3978
2026-01-25 06:51:26.20	349.64	22.45	-44.6	-45.7	21.4	0.00e+00	0	45	0	881852416	61	3951
2026-01-25 06:51:27.21	349.41	22.37	-44.4	-45.5	21.6	0.00e+00	0	45	0	883949568	60	4070
2026-01-25 06:51:28.22	349.19	22.28	-44.3	-45.4	21.7	0.00e+00	0	45	0	886046720	60	4047
2026-01-25 06:51:29.22	348.97	22.20	-44.2	-45.3	21.8	0.00e+00	0	45	0	887095296	60	3974
2026-01-25 06:51:30.23	348.75	22.12	-44.2	-45.3	21.8	0.00e+00	0	45	0	889192448	60	3989
2026-01-25 06:51:31.24	348.53	22.04	-44.2	-45.3	21.9	0.00e+00	0	45	0	891289600	60	3980
2026-01-25 06:51:32.25	348.31	21.96	-44.0	-45.1	22.0	0.00e+00	0	45	0	893386752	60	3888
2026-01-25 06:51:33.26	348.09	21.87	-44.5	-45.6	21.8	0.00e+00	0	45	0	895483904	59	4363
2026-01-25 06:51:34.26	347.88	21.79	-44.5	-45.6	21.9	0.00e+00	0	45	0	896532480	59	4357
2026-01-25 06:51:35.27	347.66	21.71	-44.5	-45.7	21.8	0.00e+00	0	45	0	898629632	59	4403
2026-01-25 06:51:36.28	347.45	21.63	-44.3	-45.4	22.1	0.00e+00	0	45	0	900726784	59	4263
2026-01-25 06:51:37.29	347.23	21.54	-44.2	-45.2	22.1	0.00e+00	0	45	0	902823936	59	4189
2026-01-25 06:51:38.30	347.02	21.46	-44.0	-45.1	22.3	0.00e+00	0	45	0	904921088	59	4123
2026-01-25 06:51:39.30	346.81	21.38	-44.1	-45.1	22.2	0.00e+00	0	45	0	905969664	59	4139
2026-01-25 06:51:40.31	346.61	21.29	-44.0	-45.0	22.4	0.00e+00	0	45	0	908066816	59	4087
2026-01-25 06:51:41.32	346.40	21.21	-43.9	-45.0	22.4	0.00e+00	0	45	0	910163968	59	4073
2026-01-25 06:51:42.33	346.19	21.12	-44.0	-45.0	22.4	0.00e+00	0	45	0	912261120	59	4080
2026-01-25 06:51:43.34	345.98	21.04	-43.8	-44.9	22.5	0.00e+00	0	45	0	914358272	59	4016
2026-01-25 06:51:44.35	345.78	20.96	-43.8	-44.8	22.5	0.00e+00	0	45	0	915406848	59	3987
2026-01-25 06:51:45.36	345.58	20.87	-43.7	-44.7	22.6	0.00e+00	0	45	0	917504000	59	3936
2026-01-25 06:51:46.37	345.37	20.79	-43.7	-44.7	22.4	0.00e+00	0	45	0	919601152	59	3930
2026-01-25 06:51:47.38	345.17	20.70	-43.7	-44.7	22.6	0.00e+00	0	45	0	921698304	59	3952
2026-01-25 06:51:48.38	344.97	20.62	-43.7	-44.7	22.6	0.00e+00	0	45	0	923795456	59	3958
2026-01-25 06:51:49.39	344.77	20.53	-43.8	-44.8	22.5	0.00e+00	0	45	0	924844032	59	3991
2026-01-25 06:51:50.40	344.58	20.45	-43.8	-44.9	22.5	0.00e+00	0	45	0	926941184	59	4015
2026-01-25 06:51:51.41	344.38	20.37	-43.7	-44.8	22.6	0.00e+00	0	45	0	929038336	59	3975
2026-01-25 06:51:52.42	344.18	20.28	-43.8	-44.8	22.5	0.00e+00	0	45	0	931135488	59	3984
2026-01-25 06:51:53.42	343.99	20.20	-43.8	-44.9	22.5	0.00e+00	0	45	0	933232640	59	4007
2026-01-25 06:51:54.43	343.80	20.11	-43.7	-44.8	22.5	0.00e+00	0	45	0	935329792	59	3970
2026-01-25 06:51:55.44	343.60	20.03	-43.8	-44.8	22.5	0.00e+00	0	45	0	936378368	59	4003
2026-01-25 06:51:56.45	343.41	19.94	-43.8	-44.9	22.5	0.00e+00	0	44	0	938475520	59	4016
2026-01-25 06:51:57.46	343.22	19.86	-43.9	-45.0	22.4	0.00e+00	0	45	0	940572672	59	4059
2026-01-25 06:51:58.47	343.03	19.77	-43.8	-44.8	22.5	0.00e+00	0	45	0	942669824	59	3993
2026-01-25 06:51:59.48	342.85	19.69	-43.7	-44.8	22.5	0.00e+00	0	45	0	943718400	59	3971
2026-01-25 06:52:00.49	342.66	19.60	-43.9	-44.9	22.4	0.00e+00	0	45	0	945815552	59	4046
2026-01-25 06:52:01.50	342.47	19.51	-43.9	-45.0	22.3	0.00e+00	0	45	0	947912704	59	4054
2026-01-25 06:52:02.50	342.29	19.43	-44.0	-45.1	22.2	0.00e+00	0	45	0	950009856	59	4122
2026-01-25 06:52:03.51	342.10	19.34	-43.9	-45.0	22.4	0.00e+00	0	45	0	952107008	59	4059
2026-01-25 06:52:04.52	341.92	19.26	-43.9	-45.0	22.4	0.00e+00	0	45	0	954204160	59	4066
2026-01-25 06:52:05.53	341.74	19.17	-44.0	-45.1	22.2	0.00e+00	0	45	0	955252736	59	4125
2026-01-25 06:52:06.53	341.56	19.09	-44.0	-45.1	22.2	0.00e+00	0	45	0	957349888	59	4104
2026-01-25 06:52:07.54	341.38	19.00	-44.0	-45.0	22.3	0.00e+00	0	45	0	959447040	59	4092
2026-01-25 06:52:08.55	341.20	18.92	-44.1	-45.1	22.2	0.00e+00	0	45	0	961544192	59	4145
2026-01-25 06:52:09.55	341.03	18.83	-44.2	-45.3	22.0	0.00e+00	0	45	0	963641344	59	4214
2026-01-25 06:52:10.56	340.85	18.75	-44.3	-45.4	22.0	0.00e+00	0	45	0	964689920	59	4265
2026-01-25 06:52:11.57	340.67	18.66	-44.3	-45.5	21.9	0.00e+00	0	44	0	966787072	59	4296
2026-01-25 06:52:12.58	340.50	18.58	-44.4	-45.5	21.9	0.00e+00	0	45	0	968884224	59	4310
2026-01-25 06:52:13.59	340.32	18.49	-44.3	-45.4	21.9	0.00e+00	0	45	0	970981376	59	4286
2026-01-25 06:52:14.60	340.15	18.41	-44.3	-45.4	21.9	0.00e+00	0	45	0	972029952	59	4290
2026-01-25 06:52:15.61	339.98	18.32	-44.4	-45.5	21.8	0.00e+00	0	44	0	974127104	59	4326
2026-01-25 06:52:16.61	339.81	18.24	-44.4	-45.5	21.8	0.00e+00	0	45	0	976224256	59	4332
2026-01-25 06:52:17.62	339.64	18.15	-44.5	-45.7	21.7	0.00e+00	0	45	0	978321408	59	4397
2026-01-25 06:52:18.63	339.47	18.07	-44.6	-45.8	21.5	0.00e+00	0	45	0	980418560	59	4468
2026-01-25 06:52:19.64	339.30	17.98	-44.4	-45.6	21.5	0.00e+00	0	45	0	982515712	60	4127
2026-01-25 06:52:20.65	339.14	17.90	-44.6	-45.7	21.3	0.00e+00	0	45	0	983564288	60	4189
2026-01-25 06:52:21.66	338.97	17.81	-44.6	-45.8	21.2	0.00e+00	0	45	0	985661440	60	4232
2026-01-25 06:52:22.66	338.81	17.73	-44.7	-45.9	21.1	0.00e+00	0	45	0	987758592	60	4244
2026-01-25 06:52:23.67	338.64	17.64	-44.8	-46.0	21.0	0.00e+00	0	45	0	989855744	60	4308
2026-01-25 06:52:24.68	338.48	17.56	-44.9	-46.1	21.0	0.00e+00	0	45	0	991952896	60	4353
2026-01-25 06:52:25.69	338.32	17.47	-44.9	-46.2	20.9	0.00e+00	0	45	0	993001472	60	4392
2026-01-25 06:52:26.69	338.16	17.39	-44.9	-46.2	20.9	0.00e+00	0	45	0	995098624	60	4407
2026-01-25 06:52:27.70	338.00	17.30	-44.9	-46.2	20.8	0.00e+00	0	45	0	997195776	60	4410
2026-01-25 06:52:28.71	337.84	17.22	-45.1	-46.4	20.7	0.00e+00	0	45	0	999292928	60	4498
2026-01-25 06:52:29.72	337.68	17.13	-44.9	-46.2	20.8	0.00e+00	0	45	0	1001390080	60	4404
2026-01-25 06:52:30.72	337.52	17.05	-44.9	-46.1	20.9	0.00e+00	0	44	0	1002438656	60	4388
2026-01-25 06:52:31.73	337.36	16.97	-44.9	-46.1	20.9	0.00e+00	0	45	0	1004535808	60	4380
2026-01-25 06:52:32.74	337.21	16.88	-44.9	-46.1	20.9	0.00e+00	0	45	0	1006632960	60	4367
2026-01-25 06:52:33.75	337.05	16.80	-44.8	-46.0	21.1	0.00e+00	0	45	0	1008730112	60	4311
2026-01-25 06:52:34.75	336.90	16.71	-44.8	-46.0	21.0	0.00e+00	0	44	0	1010827264	60	4315
2026-01-25 06:52:35.76	336.75	16.63	-44.8	-46.0	21.0	0.00e+00	0	45	0	1011875840	60	4340
2026-01-25 06:52:36.77	336.60	16.54	-44.9	-46.2	20.9	0.00e+00	0	45	0	1013972992	60	4408
2026-01-25 06:52:37.78	336.44	16.46	-45.1	-46.3	20.7	0.00e+00	0	45	0	1016070144	60	4471
2026-01-25 06:52:38.79	336.29	16.38	-45.1	-46.4	20.7	0.00e+00	0	45	0	1018167296	60	4506
2026-01-25 06:52:39.79	336.14	16.29	-45.1	-46.4	20.6	0.00e+00	0	45	0	1020264448	60	4527
2026-01-25 06:52:40.80	336.00	16.21	-45.1	-46.4	20.6	0.00e+00	0	45	0	1021313024	60	4512
2026-01-25 06:52:41.81	335.85	16.13	-45.1	-46.4	20.6	0.00e+00	0	45	0	1023410176	60	4510
2026-01-25 06:52:42.82	335.70	16.04	-45.1	-46.4	20.6	0.00e+00	0	45	0	1025507328	60	4502
2026-01-25 06:52:43.83	335.55	15.96	-45.2	-46.5	20.5	0.00e+00	0	45	0	1027604480	60	4569
2026-01-25 06:52:44.84	335.41	15.88	-45.2	-46.5	20.5	3.00e-06	0	45	0	1029701632	61	4313
2026-01-25 06:52:45.84	335.26	15.79	-45.2	-46.5	20.5	0.00e+00	0	45	0	1030750208	61	4313
2026-01-25 06:52:46.85	335.12	15.71	-45.2	-46.5	20.5	0.00e+00	0	45	0	1032847360	61	4333
2026-01-25 06:52:47.86	334.98	15.63	-45.3	-46.6	20.4	0.00e+00	0	45	0	1034944512	61	4376
2026-01-25 06:52:48.87	334.83	15.54	-45.4	-46.8	20.3	0.00e+00	0	45	0	1037041664	61	4449
2026-01-25 06:52:49.88	334.69	15.46	-45.3	-46.6	20.4	0.00e+00	0	45	0	1039138816	61	4388
2026-01-25 06:52:50.88	334.55	15.38	-45.3	-46.6	20.4	0.00e+00	0	45	0	1040187392	61	4384
2026-01-25 06:52:51.89	334.41	15.30	-45.5	-46.8	20.2	0.00e+00	0	45	0	1042284544	61	4478
2026-01-25 06:52:52.90	334.27	15.21	-45.4	-46.8	20.3	0.00e+00	0	45	0	1044381696	61	4444
2026-01-25 06:52:53.91	334.14	15.13	-45.3	-46.7	20.3	0.00e+00	0	45	0	1046478848	61	4393
2026-01-25 06:52:54.91	334.00	15.05	-45.5	-46.8	20.2	0.00e+00	0	45	0	1048576000	61	4468
2026-01-25 06:52:55.92	333.86	14.97	-45.5	-46.9	20.2	0.00e+00	0	45	0	1050673152	61	4513
2026-01-25 06:52:56.93	333.73	14.88	-45.5	-46.8	20.2	0.00e+00	0	45	0	1051721728	61	4485
2026-01-25 06:52:57.94	333.59	14.80	-45.6	-46.9	20.1	3.00e-06	0	45	0	1053818880	61	4531
2026-01-25 06:52:58.95	333.46	14.72	-45.7	-47.1	19.9	0.00e+00	0	45	0	1055916032	62	4366
2026-01-25 06:52:59.96	333.32	14.64	-45.6	-46.9	20.1	0.00e+00	0	45	0	1058013184	62	4289
2026-01-25 06:53:00.96	333.19	14.56	-45.6	-47.0	20.0	0.00e+00	0	45	0	1059061760	62	4306
2026-01-25 06:53:01.97	333.06	14.48	-45.6	-46.9	20.0	0.00e+00	0	45	0	1061158912	62	4289
2026-01-25 06:53:02.98	332.93	14.39	-45.7	-47.0	19.9	0.00e+00	0	45	0	1063256064	62	4339
2026-01-25 06:53:03.99	332.80	14.31	-45.6	-47.0	20.0	0.00e+00	0	45	0	1065353216	62	4311
2026-01-25 06:53:04.99	332.67	14.23	-45.7	-47.1	19.8	0.00e+00	0	45	0	1067450368	62	4386
2026-01-25 06:53:06.00	332.54	14.15	-45.8	-47.2	19.8	0.00e+00	0	45	0	1068498944	62	4407
2026-01-25 06:53:07.01	332.41	14.07	-45.8	-47.2	19.8	0.00e+00	0	45	0	1070596096	62	4431
2026-01-25 06:53:08.02	332.28	13.99	-45.8	-47.2	19.8	0.00e+00	0	45	0	1072693248	62	4409
2026-01-25 06:53:09.03	332.15	13.91	-45.8	-47.2	19.8	0.00e+00	0	45	0	1074790400	62	4427
2026-01-25 06:53:10.03	332.03	13.83	-45.9	-47.3	19.7	0.00e+00	0	45	0	1076887552	62	4469
2026-01-25 06:53:11.04	331.90	13.75	-46.0	-47.4	19.5	0.00e+00	0	45	0	1078984704	62	4545
2026-01-25 06:53:12.05	331.78	13.67	-45.9	-47.4	19.6	0.00e+00	0	45	0	1080033280	62	4504
2026-01-25 06:53:13.05	331.65	13.59	-46.1	-47.6	19.4	0.00e+00	0	45	0	1082130432	62	4620
2026-01-25 06:53:14.06	331.53	13.51	-46.2	-47.7	19.2	0.00e+00	0	45	0	1084227584	62	4705
2026-01-25 06:53:15.07	331.41	13.43	-46.2	-47.7	19.2	0.00e+00	0	45	0	1086324736	63	4418
2026-01-25 06:53:16.08	331.29	13.35	-46.3	-47.8	19.1	0.00e+00	0	45	0	1087373312	63	4493
2026-01-25 06:53:17.09	331.16	13.27	-46.3	-47.9	19.1	0.00e+00	0	45	0	1089470464	63	4504
2026-01-25 06:53:18.10	331.04	13.19	-46.5	-48.1	18.9	1.50e-06	0	45	0	1091567616	63	4604
2026-01-25 06:53:19.10	330.92	13.11	-46.5	-48.1	18.9	0.00e+00	0	45	0	1093664768	63	4612
2026-01-25 06:53:20.11	330.80	13.03	-46.5	-48.1	18.8	0.00e+00	0	45	0	1095761920	63	4632
2026-01-25 06:53:21.12	330.68	12.95	-46.4	-47.9	19.0	0.00e+00	0	45	0	1097859072	63	4541
2026-01-25 06:53:22.13	330.57	12.87	-46.4	-48.0	19.0	0.00e+00	0	45	0	1098907648	63	4562
2026-01-25 06:53:23.14	330.45	12.79	-46.3	-47.9	19.1	0.00e+00	0	45	0	1101004800	63	4506
2026-01-25 06:53:24.14	330.33	12.71	-46.2	-47.7	19.2	0.00e+00	0	45	0	1103101952	63	4439
2026-01-25 06:53:25.15	330.22	12.64	-46.3	-47.8	19.1	0.00e+00	0	45	0	1105199104	63	4466
2026-01-25 06:53:26.16	330.10	12.56	-46.4	-47.9	19.0	0.00e+00	0	45	0	1107296256	63	4531
2026-01-25 06:53:27.16	329.99	12.48	-46.3	-47.8	19.1	0.00e+00	0	45	0	1108344832	63	4457
2026-01-25 06:53:28.17	329.87	12.40	-46.4	-48.0	18.9	0.00e+00	0	45	0	1110441984	63	4561
2026-01-25 06:53:29.18	329.76	12.32	-46.5	-48.1	18.9	0.00e+00	0	45	0	1112539136	63	4603
2026-01-25 06:53:30.18	329.65	12.25	-46.5	-48.1	18.8	0.00e+00	0	45	0	1114636288	63	4634
2026-01-25 06:53:31.19	329.53	12.17	-46.4	-48.0	18.9	0.00e+00	0	45	0	1115684864	63	4584
2026-01-25 06:53:32.20	329.42	12.09	-46.5	-48.1	18.8	0.00e+00	0	45	0	1117782016	63	4635
2026-01-25 06:53:33.20	329.31	12.01	-46.5	-48.2	18.8	0.00e+00	0	45	0	1119879168	63	4654
2026-01-25 06:53:34.21	329.20	11.93	-46.6	-48.3	18.6	0.00e+00	0	45	0	1121976320	63	4711
2026-01-25 06:53:35.22	329.09	11.86	-46.6	-48.2	18.7	0.00e+00	0	45	0	1124073472	63	4672
2026-01-25 06:53:36.23	328.98	11.78	-46.7	-48.3	18.5	0.00e+00	0	45	0	1126170624	63	4739
2026-01-25 06:53:37.24	328.87	11.70	-46.6	-48.2	18.6	0.00e+00	0	45	0	1127219200	63	4683
2026-01-25 06:53:38.25	328.76	11.63	-46.6	-48.2	18.7	0.00e+00	0	45	0	1129316352	63	4691
2026-01-25 06:53:39.25	328.65	11.55	-46.5	-48.1	18.8	0.00e+00	0	45	0	1131413504	63	4629
2026-01-25 06:53:40.26	328.55	11.47	-46.6	-48.2	18.7	0.00e+00	0	45	0	1133510656	63	4679
2026-01-25 06:53:41.27	328.44	11.40	-46.5	-48.1	18.8	0.00e+00	0	45	0	1135607808	63	4625
2026-01-25 06:53:42.28	328.33	11.32	-46.4	-48.0	18.9	0.00e+00	0	45	0	1136656384	63	4555
2026-01-25 06:53:43.29	328.23	11.24	-46.4	-48.0	18.8	0.00e+00	0	45	0	1138753536	63	4586
2026-01-25 06:53:44.29	328.12	11.17	-46.5	-48.1	18.7	0.00e+00	0	45	0	1140850688	63	4644
2026-01-25 06:53:45.30	328.02	11.09	-46.6	-48.2	18.7	0.00e+00	0	45	0	1142947840	63	4673
2026-01-25 06:53:46.31	327.92	11.02	-46.7	-48.3	18.5	0.00e+00	0	45	0	1145044992	63	4737
2026-01-25 06:53:47.32	327.81	10.94	-46.5	-48.1	18.6	0.00e+00	0	45	0	1146093568	64	4379
2026-01-25 06:53:48.33	327.71	10.87	-46.5	-48.2	18.5	0.00e+00	0	45	0	1148190720	64	4424
2026-01-25 06:53:49.34	327.61	10.79	-46.6	-48.3	18.4	0.00e+00	0	45	0	1150287872	64	4481
2026-01-25 06:53:50.35	327.51	10.72	-46.7	-48.4	18.4	0.00e+00	0	45	0	1152385024	64	4500
2026-01-25 06:53:51.36	327.40	10.64	-46.7	-48.4	18.3	0.00e+00	0	45	0	1154482176	64	4516
2026-01-25 06:53:52.36	327.31	10.57	-46.8	-48.6	18.1	0.00e+00	0	45	0	1155530752	64	4627
2026-01-25 06:53:53.37	327.20	10.49	-46.8	-48.6	18.1	0.00e+00	0	45	0	1157627904	64	4628
2026-01-25 06:53:54.38	327.11	10.42	-46.9	-48.7	18.0	0.00e+00	0	45	0	1159725056	64	4681
2026-01-25 06:53:55.39	327.01	10.34	-46.8	-48.6	18.1	0.00e+00	0	45	0	1161822208	64	4634
2026-01-25 06:53:56.40	326.91	10.27	-47.0	-48.8	17.9	0.00e+00	0	45	0	1163919360	64	4722
2026-01-25 06:53:57.41	326.81	10.19	-47.0	-48.8	17.9	0.00e+00	0	45	0	1164967936	64	4735
2026-01-25 06:53:58.42	326.71	10.12	-47.0	-48.8	17.9	0.00e+00	0	45	0	1167065088	64	4727
2026-01-25 06:53:59.42	326.62	10.05	-46.9	-48.7	18.0	0.00e+00	0	45	0	1169162240	64	4696
2026-01-25 06:54:00.43	326.52	9.97	-47.1	-49.0	17.7	0.00e+00	0	45	0	1171259392	64	4818
2026-01-25 06:54:01.44	326.42	9.90	-47.1	-49.0	17.7	0.00e+00	0	45	0	1173356544	64	4852
2026-01-25 06:54:02.44	326.33	9.82	-47.2	-49.1	17.6	0.00e+00	0	45	0	1174405120	64	4881
2026-01-25 06:54:03.45	326.23	9.75	-47.3	-49.2	17.4	0.00e+00	0	45	0	1176502272	65	4681
2026-01-25 06:54:04.46	326.14	9.68	-47.4	-49.3	17.3	0.00e+00	0	45	0	1178599424	65	4755
2026-01-25 06:54:05.47	326.05	9.60	-47.3	-49.2	17.4	0.00e+00	0	45	0	1180696576	65	4701
2026-01-25 06:54:06.48	325.95	9.53	-47.3	-49.3	17.3	0.00e+00	0	45	0	1182793728	65	4739
2026-01-25 06:54:07.48	325.86	9.46	-47.5	-49.5	17.2	0.00e+00	0	45	0	1183842304	65	4828
2026-01-25 06:54:08.49	325.77	9.39	-47.3	-49.3	17.3	0.00e+00	0	45	0	1185939456	65	4727
2026-01-25 06:54:09.50	325.67	9.31	-47.2	-49.2	17.5	0.00e+00	0	45	0	1188036608	65	4668
2026-01-25 06:54:10.51	325.58	9.24	-47.2	-49.2	17.4	0.00e+00	0	45	0	1190133760	65	4662
2026-01-25 06:54:11.52	325.49	9.17	-47.2	-49.2	17.4	0.00e+00	0	45	0	1192230912	65	4674
2026-01-25 06:54:12.52	325.40	9.10	-47.2	-49.1	17.4	0.00e+00	0	45	0	1193279488	65	4651
2026-01-25 06:54:13.53	325.31	9.03	-47.2	-49.2	17.4	0.00e+00	0	45	0	1195376640	65	4679
2026-01-25 06:54:14.54	325.22	8.95	-47.2	-49.2	17.4	0.00e+00	0	45	0	1197473792	65	4656
2026-01-25 06:54:15.55	325.13	8.88	-47.1	-49.0	17.6	0.00e+00	0	45	0	1199570944	65	4593
2026-01-25 06:54:16.55	325.04	8.81	-47.0	-48.9	17.7	0.00e+00	0	45	0	1201668096	65	4496
2026-01-25 06:54:17.57	324.96	8.74	-47.1	-49.1	17.5	0.00e+00	0	45	0	1202716672	65	4605
2026-01-25 06:54:18.57	324.87	8.67	-47.0	-48.9	17.7	0.00e+00	0	45	0	1204813824	65	4498
2026-01-25 06:54:19.58	324.78	8.60	-47.1	-49.0	17.5	0.00e+00	0	45	0	1206910976	65	4570
2026-01-25 06:54:20.59	324.69	8.53	-47.2	-49.2	17.3	0.00e+00	0	45	0	1209008128	65	4687
2026-01-25 06:54:21.60	324.61	8.45	-47.3	-49.2	17.3	0.00e+00	0	45	0	1211105280	65	4697
2026-01-25 06:54:22.61	324.52	8.38	-47.4	-49.4	17.1	0.00e+00	0	45	0	1212153856	65	4779
2026-01-25 06:54:23.61	324.44	8.31	-47.5	-49.6	17.0	0.00e+00	0	45	0	1214251008	65	4884
2026-01-25 06:54:24.62	324.35	8.24	-47.3	-49.2	17.3	0.00e+00	0	45	0	1216348160	65	4704
2026-01-25 06:54:25.63	324.27	8.17	-47.3	-49.3	17.2	0.00e+00	0	45	0	1218445312	65	4739
2026-01-25 06:54:26.64	324.18	8.10	-47.3	-49.3	17.2	0.00e+00	0	45	0	1220542464	65	4712
2026-01-25 06:54:27.64	324.10	8.03	-47.1	-49.1	17.4	0.00e+00	0	45	0	1221591040	65	4612
2026-01-25 06:54:28.65	324.01	7.96	-47.3	-49.3	17.2	0.00e+00	0	45	0	1223688192	65	4712
2026-01-25 06:54:29.66	323.93	7.89	-47.3	-49.3	17.2	0.00e+00	0	45	0	1225785344	65	4708
2026-01-25 06:54:30.67	323.85	7.82	-47.4	-49.4	17.0	0.00e+00	0	45	0	1227882496	65	4810
2026-01-25 06:54:31.68	323.77	7.75	-47.3	-49.3	17.1	0.00e+00	0	45	0	1229979648	65	4728
