passes_logs/2026/01/25/R3.2S_Murmansk/R3.2S_Murmansk__20260125_000424_NOAA_20_JPSS-1_rec.log

#Pass ID: 20260125_000424_NOAA 20 (JPSS-1)
#Satellite: NOAA 20 (JPSS-1)
#Configuration: NOAA 20
#almurnet v.1.7.20251203
#Start time: 2026-01-25 00:04:27

#Version: 2.2.20231116
#Station: R3.2S_Murmansk
#Location: 33.079688 lon 68.888172 lat
#TLE: 1 43013U 17073A   26024.42258823  .00000183  00000+0  10747-3 0  9990
#TLE: 2 43013  98.7646 325.2629 0001105  25.8644 334.2587 14.19539754424075

#Time	Az	El	Level	Level2	SNR	BER	BlckErr	Temp	State	Recorded	gain1	gain2
2026-01-25 00:04:27.01	22.46	2.15	-53.3	-68.2	3.8	1.49e+00	0	41	0	0	77	20971
2026-01-25 00:04:28.02	22.48	2.21	-53.2	-68.3	3.8	1.49e+00	0	42	104	0	77	21090
2026-01-25 00:04:29.03	22.50	2.27	-53.3	-68.2	3.8	1.49e+00	0	42	104	0	77	20966
2026-01-25 00:04:30.04	22.52	2.34	-53.3	-68.2	3.8	1.49e+00	0	41	104	0	77	20962
2026-01-25 00:04:31.05	22.55	2.40	-53.3	-68.2	3.8	1.49e+00	0	42	104	0	77	20949
2026-01-25 00:04:32.05	22.57	2.47	-53.3	-68.2	3.8	1.49e+00	0	42	104	0	77	20981
2026-01-25 00:04:33.06	22.59	2.53	-53.3	-68.2	3.8	1.49e+00	0	42	104	0	77	21005
2026-01-25 00:04:34.07	22.61	2.60	-53.3	-68.2	3.8	1.49e+00	0	42	104	0	77	20979
2026-01-25 00:04:35.08	22.63	2.66	-53.3	-68.2	3.8	1.49e+00	0	42	104	0	77	21005
2026-01-25 00:04:36.09	22.65	2.73	-53.3	-68.2	3.8	1.49e+00	0	42	104	0	77	20973
2026-01-25 00:04:37.09	22.67	2.79	-53.3	-68.2	3.8	1.49e+00	0	42	104	0	77	20989
2026-01-25 00:04:38.10	22.69	2.86	-53.3	-68.2	3.8	1.49e+00	0	42	104	0	77	20961
2026-01-25 00:04:39.11	22.72	2.92	-53.3	-68.2	3.8	1.49e+00	0	42	104	0	77	21000
2026-01-25 00:04:40.12	22.74	2.99	-53.3	-68.2	3.8	1.49e+00	0	42	104	0	77	20951
2026-01-25 00:04:41.13	22.76	3.06	-53.3	-68.2	3.8	1.49e+00	0	42	104	0	77	20954
2026-01-25 00:04:42.13	22.78	3.12	-53.3	-68.2	3.8	1.49e+00	0	42	104	0	77	20952
2026-01-25 00:04:43.14	22.80	3.19	-53.3	-68.2	3.8	1.49e+00	0	42	104	0	77	20963
2026-01-25 00:04:44.15	22.83	3.25	-53.3	-68.2	3.8	1.49e+00	0	42	104	0	77	20951
2026-01-25 00:04:45.16	22.85	3.32	-53.3	-68.2	3.8	1.49e+00	0	42	104	0	77	20988
2026-01-25 00:04:46.17	22.87	3.39	-53.3	-68.3	3.8	1.49e+00	0	42	104	0	77	21019
2026-01-25 00:04:47.17	22.89	3.45	-53.3	-68.2	3.8	1.49e+00	0	42	104	0	77	20979
2026-01-25 00:04:48.18	22.92	3.52	-53.3	-68.2	3.8	1.49e+00	0	42	104	0	77	20980
2026-01-25 00:04:49.19	22.94	3.59	-53.3	-68.2	3.8	1.49e+00	0	42	104	0	77	20953
2026-01-25 00:04:50.20	22.96	3.65	-53.3	-68.2	3.8	1.49e+00	0	42	104	0	77	20962
2026-01-25 00:04:51.21	22.98	3.72	-53.3	-68.2	3.8	1.49e+00	0	42	104	0	77	20998
2026-01-25 00:04:52.22	23.01	3.79	-53.3	-68.2	3.8	1.49e+00	0	43	104	0	77	20950
2026-01-25 00:04:53.22	23.03	3.86	-53.3	-68.2	3.8	1.49e+00	0	42	104	0	77	20973
2026-01-25 00:04:54.23	23.05	3.93	-53.3	-68.2	3.8	1.49e+00	0	43	104	0	77	20942
2026-01-25 00:04:55.24	23.07	3.99	-53.3	-68.2	3.8	1.49e+00	0	42	104	0	77	20986
2026-01-25 00:04:56.25	23.10	4.06	-53.3	-68.2	3.8	1.49e+00	0	42	104	0	77	20964
2026-01-25 00:04:57.25	23.12	4.13	-53.3	-68.2	3.8	1.49e+00	0	42	104	0	77	20952
2026-01-25 00:04:58.26	23.14	4.20	-53.2	-68.2	3.8	1.49e+00	0	42	104	0	77	20963
2026-01-25 00:04:59.27	23.17	4.27	-53.3	-68.2	3.8	1.49e+00	0	42	104	0	77	20989
2026-01-25 00:05:00.27	23.19	4.34	-53.3	-68.2	3.8	1.49e+00	0	42	104	0	77	20969
2026-01-25 00:05:01.28	23.21	4.41	-53.3	-68.2	3.8	1.49e+00	0	42	104	0	77	20964
2026-01-25 00:05:02.29	23.24	4.48	-53.3	-68.2	3.8	1.49e+00	0	43	104	0	77	21008
2026-01-25 00:05:03.30	23.26	4.54	-53.3	-68.2	3.8	1.49e+00	0	42	104	0	77	20968
2026-01-25 00:05:04.30	23.29	4.61	-53.3	-68.2	3.8	1.49e+00	0	43	104	0	77	20953
2026-01-25 00:05:05.31	23.31	4.68	-53.3	-68.2	3.8	1.49e+00	0	43	104	0	77	20938
2026-01-25 00:05:06.32	23.33	4.75	-53.3	-68.2	3.8	1.49e+00	0	42	104	0	77	21007
2026-01-25 00:05:07.33	23.36	4.82	-53.3	-68.2	3.8	1.49e+00	0	43	104	0	77	20936
2026-01-25 00:05:08.34	23.38	4.89	-53.2	-68.2	3.8	1.49e+00	0	43	104	0	77	20962
2026-01-25 00:05:09.34	23.41	4.96	-53.3	-68.2	3.8	1.49e+00	0	42	104	0	77	20988
2026-01-25 00:05:10.35	23.43	5.04	-53.2	-68.2	3.8	1.49e+00	0	42	104	0	77	20997
2026-01-25 00:05:11.36	23.45	5.11	-53.3	-68.2	3.8	1.49e+00	0	43	104	0	77	20998
2026-01-25 00:05:12.37	23.48	5.18	-53.3	-68.2	3.8	1.49e+00	0	43	104	0	77	20994
2026-01-25 00:05:13.37	23.50	5.25	-53.3	-68.3	3.8	1.49e+00	0	43	104	0	77	21037
2026-01-25 00:05:14.38	23.53	5.32	-53.3	-68.3	3.8	1.49e+00	0	43	104	0	77	21021
2026-01-25 00:05:15.39	23.55	5.39	-53.3	-68.2	3.8	1.49e+00	0	43	104	0	77	20920
2026-01-25 00:05:16.40	23.58	5.46	-53.3	-68.2	3.8	1.49e+00	0	43	104	0	77	20953
2026-01-25 00:05:17.41	23.60	5.54	-53.3	-68.2	3.8	1.49e+00	0	42	104	0	77	21007
2026-01-25 00:05:18.41	23.63	5.61	-53.3	-68.2	3.8	1.49e+00	0	42	104	0	77	20979
2026-01-25 00:05:19.42	23.65	5.68	-53.3	-68.2	3.8	1.49e+00	0	43	104	0	77	20977
2026-01-25 00:05:20.43	23.68	5.75	-53.2	-68.2	3.8	1.49e+00	0	43	104	0	77	20941
2026-01-25 00:05:21.44	23.70	5.83	-53.3	-68.2	3.8	1.49e+00	0	43	104	0	77	20957
2026-01-25 00:05:22.45	23.73	5.90	-53.3	-68.2	3.8	1.49e+00	0	43	104	0	77	20991
2026-01-25 00:05:23.46	23.76	5.97	-53.3	-68.3	3.8	1.49e+00	0	43	104	0	77	21021
2026-01-25 00:05:24.47	23.78	6.05	-53.3	-68.2	3.8	1.49e+00	0	43	104	0	77	20961
2026-01-25 00:05:25.47	23.81	6.12	-53.3	-68.2	3.8	1.49e+00	0	43	104	0	77	20972
2026-01-25 00:05:26.48	23.83	6.19	-53.3	-68.2	3.8	1.49e+00	0	43	104	0	77	20980
2026-01-25 00:05:27.49	23.86	6.27	-53.3	-68.2	3.8	1.49e+00	0	43	104	0	77	20987
2026-01-25 00:05:28.50	23.89	6.34	-53.2	-68.2	3.8	1.49e+00	0	43	104	0	77	20940
2026-01-25 00:05:29.51	23.91	6.42	-53.3	-68.2	3.8	1.49e+00	0	43	104	0	77	20951
2026-01-25 00:05:30.51	23.94	6.49	-53.3	-68.2	3.8	1.49e+00	0	43	104	0	77	20968
2026-01-25 00:05:31.52	23.96	6.57	-53.3	-68.2	3.8	1.49e+00	0	43	104	0	77	20977
2026-01-25 00:05:32.53	23.99	6.64	-53.3	-68.2	3.8	1.49e+00	0	43	104	0	77	20983
2026-01-25 00:05:33.54	24.02	6.72	-53.3	-68.2	3.8	1.49e+00	0	43	104	0	77	20967
2026-01-25 00:05:34.55	24.05	6.79	-53.3	-68.2	3.8	1.49e+00	0	43	104	0	77	20983
2026-01-25 00:05:35.55	24.07	6.87	-53.3	-68.2	3.8	1.49e+00	0	43	104	0	77	20968
2026-01-25 00:05:36.56	24.10	6.95	-53.3	-68.2	3.8	1.49e+00	0	43	104	0	77	20961
2026-01-25 00:05:37.57	24.13	7.02	-53.3	-68.2	3.8	1.49e+00	0	43	104	0	77	20962
2026-01-25 00:05:38.58	24.15	7.10	-53.3	-68.2	3.8	1.49e+00	0	43	104	0	77	20994
2026-01-25 00:05:39.58	24.18	7.17	-53.3	-68.2	3.8	1.49e+00	0	43	104	0	77	20930
2026-01-25 00:05:40.59	24.21	7.25	-53.3	-68.3	3.8	1.49e+00	0	43	104	0	77	21050
2026-01-25 00:05:41.60	24.24	7.33	-53.3	-68.2	3.8	1.49e+00	0	43	104	0	77	20973
2026-01-25 00:05:42.61	24.26	7.41	-53.3	-68.2	3.8	1.49e+00	0	43	104	0	77	21010
2026-01-25 00:05:43.62	24.29	7.48	-53.3	-68.3	3.8	1.49e+00	0	43	104	0	77	21038
2026-01-25 00:05:44.63	24.32	7.56	-53.3	-68.2	3.8	1.49e+00	0	43	104	0	77	20989
2026-01-25 00:05:45.63	24.35	7.64	-53.3	-68.3	3.8	1.49e+00	0	43	104	0	77	21036
2026-01-25 00:05:46.64	24.38	7.72	-53.3	-68.2	3.8	1.49e+00	0	43	104	0	77	20987
2026-01-25 00:05:47.65	24.41	7.80	-53.3	-68.2	3.8	1.49e+00	0	43	104	0	77	21003
2026-01-25 00:05:48.66	24.43	7.88	-53.3	-68.2	3.8	1.49e+00	0	43	104	0	77	20950
2026-01-25 00:05:49.67	24.46	7.95	-53.3	-68.2	3.8	1.49e+00	0	43	104	0	77	20950
2026-01-25 00:05:50.67	24.49	8.03	-53.3	-68.2	3.8	1.49e+00	0	43	104	0	77	20966
2026-01-25 00:05:51.68	24.52	8.11	-53.3	-68.2	3.8	1.49e+00	0	43	104	0	77	20956
2026-01-25 00:05:52.69	24.55	8.19	-53.3	-68.2	3.8	1.49e+00	0	43	104	0	77	20984
2026-01-25 00:05:53.70	24.58	8.27	-53.3	-68.2	3.8	1.49e+00	0	43	104	0	77	20987
2026-01-25 00:05:54.71	24.61	8.35	-53.3	-68.3	3.8	1.49e+00	0	43	104	0	77	21042
2026-01-25 00:05:55.72	24.64	8.43	-53.3	-68.2	3.8	1.49e+00	0	43	104	0	77	20954
2026-01-25 00:05:56.73	24.67	8.52	-53.3	-68.2	3.8	1.49e+00	0	43	104	0	77	20963
2026-01-25 00:05:57.74	24.70	8.60	-53.3	-68.2	3.8	1.49e+00	0	43	104	0	77	21004
2026-01-25 00:05:58.74	24.73	8.68	-53.3	-68.2	3.8	1.49e+00	0	44	104	0	77	20900
2026-01-25 00:05:59.75	24.76	8.76	-53.3	-68.2	3.8	1.49e+00	0	43	104	0	77	20957
2026-01-25 00:06:00.76	24.79	8.84	-53.3	-68.2	3.8	1.49e+00	0	43	104	0	77	20985
2026-01-25 00:06:01.77	24.82	8.92	-53.3	-68.2	3.8	1.49e+00	0	43	104	0	77	20982
2026-01-25 00:06:02.77	24.85	9.01	-53.3	-68.2	3.8	1.49e+00	0	43	104	0	77	21004
2026-01-25 00:06:03.78	24.88	9.09	-53.3	-68.2	3.8	1.49e+00	0	43	104	0	77	21015
2026-01-25 00:06:04.79	24.91	9.17	-53.3	-68.3	3.8	1.49e+00	0	43	104	0	77	21030
2026-01-25 00:06:05.80	24.94	9.25	-53.3	-68.2	3.8	1.49e+00	0	43	104	0	77	21008
2026-01-25 00:06:06.80	24.97	9.34	-53.3	-68.2	3.8	1.49e+00	0	43	104	0	77	20960
2026-01-25 00:06:07.81	25.00	9.42	-53.3	-68.3	3.8	1.49e+00	0	44	104	0	77	21075
2026-01-25 00:06:08.82	25.03	9.51	-53.3	-68.2	3.8	1.49e+00	0	43	104	0	77	21012
2026-01-25 00:06:09.83	25.07	9.59	-53.3	-68.2	3.8	1.49e+00	0	43	104	0	77	20968
2026-01-25 00:06:10.84	25.10	9.67	-53.3	-68.2	3.8	1.49e+00	0	44	104	0	77	20971
2026-01-25 00:06:11.84	25.13	9.76	-53.3	-68.2	3.8	1.49e+00	0	43	104	0	77	20979
2026-01-25 00:06:12.85	25.16	9.84	-53.3	-68.2	3.8	1.49e+00	0	44	104	0	77	20989
2026-01-25 00:06:13.86	25.19	9.93	-53.3	-68.2	3.8	1.49e+00	0	44	104	0	77	20988
2026-01-25 00:06:14.87	25.23	10.02	-53.3	-68.2	3.8	1.49e+00	0	44	104	0	77	20990
2026-01-25 00:06:15.88	25.26	10.10	-53.3	-68.2	3.8	1.49e+00	0	44	104	0	77	20961
2026-01-25 00:06:16.88	25.29	10.19	-53.3	-68.3	3.8	1.49e+00	0	43	104	0	77	21018
2026-01-25 00:06:17.89	25.32	10.27	-53.3	-68.2	3.8	1.49e+00	0	44	104	0	77	20964
2026-01-25 00:06:18.90	25.36	10.36	-53.3	-68.2	3.8	1.49e+00	0	44	104	0	77	21012
2026-01-25 00:06:19.90	25.39	10.45	-53.3	-68.2	3.8	1.49e+00	0	43	104	0	77	21017
2026-01-25 00:06:20.91	25.42	10.53	-53.3	-68.2	3.8	1.49e+00	0	44	104	0	77	20960
2026-01-25 00:06:21.92	25.46	10.62	-53.3	-68.2	3.8	1.49e+00	0	44	104	0	77	20966
2026-01-25 00:06:22.93	25.49	10.71	-53.3	-68.2	3.8	1.49e+00	0	43	104	0	77	21009
2026-01-25 00:06:23.94	25.52	10.80	-53.3	-68.2	3.8	1.49e+00	0	43	104	0	77	20984
2026-01-25 00:06:24.95	25.56	10.89	-53.3	-68.2	3.8	1.49e+00	0	44	104	0	77	20985
2026-01-25 00:06:25.95	25.59	10.98	-53.3	-68.2	3.8	1.49e+00	0	43	104	0	77	21006
2026-01-25 00:06:26.96	25.63	11.07	-53.3	-68.3	3.8	1.49e+00	0	44	104	0	77	21027
2026-01-25 00:06:27.97	25.66	11.16	-53.3	-68.2	3.8	1.49e+00	0	43	104	0	77	20985
2026-01-25 00:06:28.98	25.70	11.25	-53.3	-68.3	3.8	1.49e+00	0	43	104	0	77	21025
2026-01-25 00:06:29.98	25.73	11.34	-53.3	-68.2	3.8	1.49e+00	0	44	104	0	77	21002
2026-01-25 00:06:30.99	25.77	11.43	-53.3	-68.2	3.8	1.49e+00	0	43	104	0	77	21015
2026-01-25 00:06:32.00	25.80	11.52	-53.3	-68.2	3.8	1.49e+00	0	44	104	0	77	20984
2026-01-25 00:06:33.01	25.84	11.61	-53.3	-68.2	3.8	1.49e+00	0	43	104	0	77	20999
2026-01-25 00:06:34.02	25.87	11.70	-53.3	-68.2	3.8	1.49e+00	0	43	104	0	77	21008
2026-01-25 00:06:35.02	25.91	11.79	-53.3	-68.2	3.8	1.49e+00	0	43	104	0	77	20971
2026-01-25 00:06:36.03	25.95	11.88	-53.3	-68.2	3.8	1.49e+00	0	43	104	0	77	20971
2026-01-25 00:06:37.04	25.98	11.98	-53.3	-68.3	3.8	1.49e+00	0	44	104	0	77	21022
2026-01-25 00:06:38.05	26.02	12.07	-53.3	-68.2	3.8	1.49e+00	0	44	104	0	77	20958
2026-01-25 00:06:39.06	26.06	12.16	-53.3	-68.2	3.8	1.49e+00	0	44	104	0	77	20986
2026-01-25 00:06:40.06	26.09	12.26	-53.3	-68.3	3.8	1.49e+00	0	44	104	0	77	21060
2026-01-25 00:06:41.07	26.13	12.35	-53.3	-68.2	3.8	1.49e+00	0	44	104	0	77	20970
2026-01-25 00:06:42.08	26.17	12.45	-53.3	-68.2	3.8	1.49e+00	0	44	104	0	77	20993
2026-01-25 00:06:43.08	26.20	12.54	-53.3	-68.2	3.8	1.49e+00	0	44	104	0	77	20972
2026-01-25 00:06:44.09	26.24	12.64	-53.3	-68.2	3.8	1.49e+00	0	44	104	0	77	20999
2026-01-25 00:06:45.10	26.28	12.73	-53.3	-68.2	3.8	1.49e+00	0	44	104	0	77	21000
2026-01-25 00:06:46.10	26.32	12.83	-53.3	-68.2	3.8	1.49e+00	0	43	104	0	77	21008
2026-01-25 00:06:47.11	26.36	12.92	-53.3	-68.3	3.8	1.49e+00	0	44	104	0	77	21034
2026-01-25 00:06:48.12	26.39	13.02	-53.3	-68.2	3.8	1.49e+00	0	44	104	0	77	20967
2026-01-25 00:06:49.13	26.43	13.12	-53.3	-68.2	3.8	1.49e+00	0	44	104	0	77	20975
2026-01-25 00:06:50.13	26.47	13.21	-53.3	-68.2	3.8	1.49e+00	0	44	104	0	77	20965
2026-01-25 00:06:51.14	26.51	13.31	-53.3	-68.2	3.8	1.49e+00	0	44	104	0	77	21016
2026-01-25 00:06:52.15	26.55	13.41	-53.3	-68.2	3.8	1.49e+00	0	44	104	0	77	20997
2026-01-25 00:06:53.16	26.59	13.51	-53.3	-68.2	3.8	1.49e+00	0	44	104	0	77	20991
2026-01-25 00:06:54.16	26.63	13.61	-53.3	-68.2	3.8	1.49e+00	0	44	104	0	77	20986
2026-01-25 00:06:55.17	26.67	13.71	-53.3	-68.2	3.8	1.49e+00	0	44	104	0	77	20972
2026-01-25 00:06:56.18	26.71	13.81	-53.3	-68.2	3.8	1.49e+00	0	44	104	0	77	21006
2026-01-25 00:06:57.18	26.75	13.90	-53.3	-68.2	3.8	1.49e+00	0	44	104	0	77	21007
2026-01-25 00:06:58.19	26.79	14.01	-53.3	-68.3	3.8	1.49e+00	0	44	104	0	77	21052
2026-01-25 00:06:59.20	26.84	14.11	-53.3	-68.2	3.8	1.49e+00	0	44	104	0	77	21011
2026-01-25 00:07:00.21	26.88	14.21	-53.3	-68.2	3.8	1.49e+00	0	44	104	0	77	20966
2026-01-25 00:07:01.22	26.92	14.31	-53.3	-68.2	3.8	1.49e+00	0	44	104	0	77	20931
2026-01-25 00:07:02.22	26.96	14.41	-53.3	-68.2	3.8	1.49e+00	0	44	104	0	77	21011
2026-01-25 00:07:03.23	27.00	14.51	-53.3	-68.2	3.8	1.49e+00	0	44	104	0	77	21004
2026-01-25 00:07:04.24	27.04	14.62	-53.3	-68.3	3.8	1.49e+00	0	44	104	0	77	21032
2026-01-25 00:07:05.25	27.09	14.72	-53.3	-68.2	3.8	1.49e+00	0	44	104	0	77	20957
2026-01-25 00:07:06.25	27.13	14.82	-53.3	-68.2	3.8	1.49e+00	0	44	104	0	77	20963
2026-01-25 00:07:07.26	27.17	14.93	-53.3	-68.2	3.8	1.49e+00	0	44	104	0	77	21003
2026-01-25 00:07:08.27	27.22	15.03	-53.3	-68.3	3.8	1.49e+00	0	44	104	0	77	21029
2026-01-25 00:07:09.28	27.26	15.14	-53.3	-68.2	3.8	1.49e+00	0	44	104	0	77	21009
2026-01-25 00:07:10.28	27.31	15.24	-53.3	-68.3	3.8	1.49e+00	0	44	104	0	77	21023
2026-01-25 00:07:11.29	27.35	15.35	-53.3	-68.2	3.8	1.49e+00	0	44	104	0	77	20985
2026-01-25 00:07:12.30	27.39	15.46	-53.3	-68.3	3.8	1.49e+00	0	44	104	0	77	21031
2026-01-25 00:07:13.31	27.44	15.56	-53.3	-68.3	3.8	1.49e+00	0	44	104	0	77	21018
2026-01-25 00:07:14.32	27.49	15.67	-53.3	-68.2	3.8	1.49e+00	0	44	104	0	77	21016
2026-01-25 00:07:15.33	27.53	15.78	-53.3	-68.2	3.8	1.49e+00	0	44	104	0	77	20997
2026-01-25 00:07:16.34	27.58	15.89	-53.3	-68.3	3.8	1.49e+00	0	44	104	0	77	21042
2026-01-25 00:07:17.34	27.62	16.00	-53.3	-68.3	3.8	1.49e+00	0	44	104	0	77	21035
2026-01-25 00:07:18.35	27.67	16.10	-53.3	-68.2	3.8	1.49e+00	0	44	104	0	77	20987
2026-01-25 00:07:19.36	27.72	16.21	-53.3	-68.2	3.8	1.49e+00	0	44	104	0	77	20971
2026-01-25 00:07:20.37	27.76	16.33	-53.3	-68.3	3.8	1.49e+00	0	44	104	0	77	21045
2026-01-25 00:07:21.37	27.81	16.43	-53.3	-68.2	3.8	1.49e+00	0	44	104	0	77	20976
2026-01-25 00:07:22.38	27.86	16.55	-53.3	-68.2	3.8	1.49e+00	0	44	104	0	77	21013
2026-01-25 00:07:23.39	27.91	16.66	-53.3	-68.3	3.8	1.49e+00	0	44	104	0	77	21032
2026-01-25 00:07:24.40	27.95	16.77	-53.3	-68.2	3.8	1.49e+00	0	44	104	0	77	20997
2026-01-25 00:07:25.41	28.00	16.88	-53.3	-68.3	3.8	1.49e+00	0	44	104	0	77	21022
2026-01-25 00:07:26.42	28.05	17.00	-53.3	-68.3	3.8	1.49e+00	0	44	104	0	77	21019
2026-01-25 00:07:27.42	28.10	17.11	-53.3	-68.2	3.8	1.49e+00	0	44	104	0	77	20960
2026-01-25 00:07:28.43	28.15	17.22	-53.3	-68.3	3.8	1.49e+00	0	44	104	0	77	21040
2026-01-25 00:07:29.44	28.20	17.34	-53.3	-68.2	3.8	1.49e+00	0	44	104	0	77	20979
2026-01-25 00:07:30.45	28.25	17.45	-53.3	-68.2	3.8	1.49e+00	0	44	104	0	77	20967
2026-01-25 00:07:31.46	28.30	17.57	-53.3	-68.3	3.8	1.49e+00	0	44	104	0	77	21066
2026-01-25 00:07:32.47	28.35	17.69	-53.3	-68.2	3.8	1.49e+00	0	44	104	0	77	20997
2026-01-25 00:07:33.48	28.41	17.80	-53.3	-68.2	3.8	1.49e+00	0	44	104	0	77	20962
2026-01-25 00:07:34.48	28.46	17.92	-53.3	-68.2	3.8	1.49e+00	0	44	104	0	77	21000
2026-01-25 00:07:35.49	28.51	18.04	-53.3	-68.3	3.8	1.49e+00	0	44	104	0	77	21055
2026-01-25 00:07:36.50	28.56	18.16	-53.3	-68.2	3.8	1.49e+00	0	44	104	0	77	20966
2026-01-25 00:07:37.51	28.62	18.28	-53.3	-68.2	3.8	1.49e+00	0	44	104	0	77	21002
2026-01-25 00:07:38.51	28.67	18.40	-53.3	-68.3	3.8	1.49e+00	0	44	104	0	77	21076
2026-01-25 00:07:39.52	28.72	18.52	-53.3	-68.2	3.8	1.49e+00	0	44	104	0	77	20977
2026-01-25 00:07:40.53	28.78	18.64	-53.3	-68.2	3.8	1.49e+00	0	44	104	0	77	21002
2026-01-25 00:07:41.54	28.83	18.76	-53.3	-68.2	3.8	1.49e+00	0	44	104	0	77	21017
2026-01-25 00:07:42.55	28.89	18.88	-53.3	-68.3	3.8	1.49e+00	0	44	104	0	77	21022
2026-01-25 00:07:43.56	28.94	19.00	-53.3	-68.2	3.8	1.49e+00	0	44	104	0	77	21014
2026-01-25 00:07:44.56	29.00	19.13	-53.3	-68.2	3.8	1.49e+00	0	44	104	0	77	21006
2026-01-25 00:07:45.57	29.05	19.25	-53.3	-68.3	3.8	1.49e+00	0	44	104	0	77	21051
2026-01-25 00:07:46.58	29.11	19.37	-53.3	-68.3	3.8	1.49e+00	0	44	104	0	77	21021
2026-01-25 00:07:47.59	29.17	19.50	-53.3	-68.3	3.8	1.49e+00	0	44	104	0	77	21059
2026-01-25 00:07:48.59	29.22	19.62	-53.3	-68.3	3.8	1.49e+00	0	44	104	0	77	21108
2026-01-25 00:07:49.60	29.28	19.75	-53.3	-68.2	3.8	1.49e+00	0	44	104	0	77	21005
2026-01-25 00:07:50.61	29.34	19.88	-53.3	-68.2	3.8	1.49e+00	0	44	104	0	77	21005
2026-01-25 00:07:51.62	29.40	20.00	-53.3	-68.3	3.8	1.49e+00	0	44	104	0	77	21027
2026-01-25 00:07:52.62	29.46	20.13	-53.3	-68.3	3.8	1.49e+00	0	44	104	0	77	21019
2026-01-25 00:07:53.63	29.52	20.26	-53.3	-68.2	3.8	1.49e+00	0	44	104	0	77	21010
2026-01-25 00:07:54.64	29.58	20.39	-53.3	-68.3	3.8	1.49e+00	0	44	104	0	77	21079
2026-01-25 00:07:55.65	29.64	20.52	-53.3	-68.3	3.8	1.49e+00	0	44	104	0	77	21024
2026-01-25 00:07:56.65	29.70	20.65	-53.3	-68.3	3.8	1.49e+00	0	44	104	0	77	21027
2026-01-25 00:07:57.66	29.76	20.78	-53.3	-68.3	3.8	1.49e+00	0	44	104	0	77	21029
2026-01-25 00:07:58.67	29.82	20.91	-53.3	-68.3	3.8	1.49e+00	0	44	104	0	77	21027
2026-01-25 00:07:59.67	29.88	21.04	-53.3	-68.2	3.8	1.49e+00	0	44	104	0	77	21004
2026-01-25 00:08:00.68	29.95	21.18	-53.3	-68.3	3.8	1.49e+00	0	44	104	0	77	21032
2026-01-25 00:08:01.69	30.01	21.31	-53.3	-68.2	3.8	1.49e+00	0	44	104	0	77	20966
2026-01-25 00:08:02.70	30.08	21.45	-53.3	-68.2	3.8	1.49e+00	0	44	104	0	77	20977
2026-01-25 00:08:03.71	30.14	21.58	-53.3	-68.2	3.8	1.49e+00	0	44	104	0	77	21015
2026-01-25 00:08:04.72	30.21	21.72	-53.3	-68.3	3.8	1.49e+00	0	44	104	0	77	21062
2026-01-25 00:08:05.72	30.27	21.85	-53.3	-68.3	3.8	1.49e+00	0	44	104	0	77	21026
2026-01-25 00:08:06.73	30.34	21.99	-53.3	-68.2	3.8	1.49e+00	0	44	104	0	77	20981
2026-01-25 00:08:07.74	30.40	22.13	-53.3	-68.2	3.8	1.49e+00	0	44	104	0	77	21017
2026-01-25 00:08:08.75	30.47	22.27	-53.3	-68.3	3.8	1.49e+00	0	44	104	0	77	21024
2026-01-25 00:08:09.76	30.54	22.41	-53.3	-68.2	3.8	1.49e+00	0	44	104	0	77	20983
2026-01-25 00:08:10.76	30.61	22.55	-53.3	-68.3	3.8	1.49e+00	0	44	104	0	77	21047
2026-01-25 00:08:11.77	30.68	22.69	-53.3	-68.3	3.8	1.49e+00	0	44	104	0	77	21026
2026-01-25 00:08:12.78	30.75	22.83	-53.3	-68.3	3.8	1.49e+00	0	44	104	0	77	21029
2026-01-25 00:08:13.79	30.82	22.97	-53.3	-68.2	3.8	1.49e+00	0	44	104	0	77	20956
2026-01-25 00:08:14.80	30.89	23.11	-53.3	-68.3	3.8	1.49e+00	0	44	104	0	77	21019
2026-01-25 00:08:15.80	30.96	23.26	-53.3	-68.2	3.8	1.49e+00	0	44	104	0	77	21014
2026-01-25 00:08:16.81	31.03	23.40	-53.3	-68.2	3.8	1.49e+00	0	44	104	0	77	20999
2026-01-25 00:08:17.82	31.10	23.55	-53.3	-68.2	3.8	1.49e+00	0	44	104	0	77	21015
2026-01-25 00:08:18.83	31.18	23.69	-53.3	-68.2	3.8	1.49e+00	0	44	104	0	77	20990
2026-01-25 00:08:19.84	31.25	23.84	-53.3	-68.3	3.8	1.49e+00	0	44	104	0	77	21045
2026-01-25 00:08:20.84	31.32	23.99	-53.3	-68.3	3.8	1.49e+00	0	44	104	0	77	21057
2026-01-25 00:08:21.85	31.40	24.14	-53.3	-68.3	3.8	1.49e+00	0	44	104	0	77	21039
2026-01-25 00:08:22.86	31.48	24.29	-53.3	-68.2	3.8	1.49e+00	0	44	104	0	77	20981
2026-01-25 00:08:23.87	31.55	24.44	-53.3	-68.2	3.8	1.49e+00	0	44	104	0	77	20996
2026-01-25 00:08:24.87	31.63	24.59	-53.3	-68.2	3.8	1.49e+00	0	44	104	0	77	21004
2026-01-25 00:08:25.88	31.71	24.74	-53.3	-68.2	3.8	1.49e+00	0	44	104	0	77	20963
2026-01-25 00:08:26.89	31.79	24.89	-53.3	-68.3	3.8	1.49e+00	0	44	104	0	77	21028
2026-01-25 00:08:27.90	31.87	25.05	-53.3	-68.2	3.8	1.49e+00	0	44	104	0	77	20977
2026-01-25 00:08:28.91	31.95	25.20	-53.3	-68.3	3.8	1.49e+00	0	44	104	0	77	21020
2026-01-25 00:08:29.92	32.03	25.36	-53.3	-68.2	3.8	1.49e+00	0	44	104	0	77	20999
2026-01-25 00:08:30.92	32.11	25.51	-53.3	-68.3	3.8	1.49e+00	0	44	104	0	77	21047
2026-01-25 00:08:31.93	32.19	25.67	-53.3	-68.3	3.8	1.49e+00	0	44	104	0	77	21077
2026-01-25 00:08:32.94	32.27	25.83	-53.3	-68.3	3.8	1.49e+00	0	44	104	0	77	21065
2026-01-25 00:08:33.94	32.36	25.98	-53.3	-68.2	3.8	1.49e+00	0	44	104	0	77	20996
2026-01-25 00:08:34.95	32.44	26.14	-53.3	-68.3	3.8	1.49e+00	0	44	104	0	77	21024
2026-01-25 00:08:35.96	32.53	26.30	-53.3	-68.2	3.8	1.49e+00	0	44	104	0	77	20981
2026-01-25 00:08:36.97	32.61	26.47	-53.3	-68.3	3.8	1.49e+00	0	44	104	0	77	21065
2026-01-25 00:08:37.97	32.70	26.63	-53.3	-68.2	3.8	1.49e+00	0	44	104	0	77	20990
2026-01-25 00:08:38.98	32.79	26.79	-53.3	-68.2	3.8	1.49e+00	0	44	104	0	77	20991
2026-01-25 00:08:39.99	32.88	26.96	-53.3	-68.2	3.8	1.49e+00	0	44	104	0	77	21015
2026-01-25 00:08:41.00	32.97	27.12	-53.3	-68.3	3.8	1.49e+00	0	44	104	0	77	21023
2026-01-25 00:08:42.01	33.06	27.29	-53.3	-68.2	3.8	1.49e+00	0	43	104	0	77	20981
2026-01-25 00:08:43.01	33.15	27.45	-53.3	-68.2	3.8	1.49e+00	0	44	104	0	77	21015
2026-01-25 00:08:44.02	33.24	27.62	-53.3	-68.3	3.8	1.49e+00	0	44	104	0	77	21037
2026-01-25 00:08:45.03	33.34	27.79	-53.3	-68.3	3.8	1.49e+00	0	44	104	0	77	21034
2026-01-25 00:08:46.04	33.43	27.96	-53.3	-68.3	3.8	1.49e+00	0	44	104	0	77	21032
2026-01-25 00:08:47.05	33.53	28.13	-53.3	-68.3	3.8	1.49e+00	0	43	104	0	77	21021
2026-01-25 00:08:48.05	33.62	28.30	-53.3	-68.3	3.8	1.49e+00	0	44	104	0	77	21056
2026-01-25 00:08:49.06	33.72	28.47	-53.3	-68.2	3.8	1.49e+00	0	43	104	0	77	21016
2026-01-25 00:08:50.07	33.82	28.65	-53.3	-68.2	3.8	1.49e+00	0	44	104	0	77	20961
2026-01-25 00:08:51.08	33.92	28.82	-53.3	-68.2	3.8	1.49e+00	0	44	104	0	77	21002
2026-01-25 00:08:52.09	34.02	29.00	-53.3	-68.2	3.8	1.49e+00	0	44	104	0	77	20985
2026-01-25 00:08:53.10	34.12	29.18	-53.3	-68.3	3.8	1.49e+00	0	44	104	0	77	21057
2026-01-25 00:08:54.10	34.22	29.35	-53.3	-68.3	3.8	1.49e+00	0	43	104	0	77	21045
2026-01-25 00:08:55.11	34.33	29.53	-53.3	-68.2	3.8	1.49e+00	0	43	104	0	77	21006
2026-01-25 00:08:56.12	34.43	29.71	-53.3	-68.2	3.8	1.49e+00	0	44	104	0	77	21014
2026-01-25 00:08:57.13	34.54	29.89	-53.3	-68.3	3.8	1.49e+00	0	44	104	0	77	21035
2026-01-25 00:08:58.14	34.64	30.08	-53.3	-68.2	3.8	1.49e+00	0	44	104	0	77	21004
2026-01-25 00:08:59.14	34.75	30.26	-53.3	-68.3	3.8	1.49e+00	0	44	104	0	77	21036
2026-01-25 00:09:00.15	34.86	30.44	-53.3	-68.3	3.8	1.49e+00	0	44	104	0	77	21021
2026-01-25 00:09:01.16	34.97	30.63	-53.3	-68.2	3.8	1.49e+00	0	44	104	0	77	21004
2026-01-25 00:09:02.17	35.08	30.82	-53.3	-68.3	3.8	1.49e+00	0	44	104	0	77	21038
2026-01-25 00:09:03.17	35.20	31.00	-53.3	-68.2	3.8	1.49e+00	0	43	104	0	77	20995
2026-01-25 00:09:04.18	35.31	31.19	-53.3	-68.2	3.8	1.49e+00	0	43	104	0	77	20997
2026-01-25 00:09:05.19	35.43	31.38	-53.3	-68.3	3.8	1.49e+00	0	44	104	0	77	21029
2026-01-25 00:09:06.20	35.54	31.57	-53.3	-68.3	3.8	1.49e+00	0	43	104	0	77	21039
2026-01-25 00:09:07.20	35.66	31.76	-53.3	-68.3	3.8	1.49e+00	0	44	104	0	77	21035
2026-01-25 00:09:08.21	35.78	31.95	-53.3	-68.3	3.8	1.49e+00	0	44	104	0	77	21039
2026-01-25 00:09:09.22	35.90	32.15	-53.3	-68.2	3.8	1.49e+00	0	44	104	0	77	20976
2026-01-25 00:09:10.23	36.02	32.34	-53.3	-68.3	3.8	1.49e+00	0	44	104	0	77	21034
2026-01-25 00:09:11.23	36.15	32.54	-53.3	-68.2	3.8	1.49e+00	0	44	104	0	77	21011
2026-01-25 00:09:12.24	36.27	32.74	-53.3	-68.3	3.8	1.49e+00	0	44	104	0	77	21061
2026-01-25 00:09:13.25	36.40	32.94	-53.3	-68.3	3.8	1.49e+00	0	44	104	0	77	21057
2026-01-25 00:09:14.26	36.53	33.14	-53.3	-68.2	3.8	1.49e+00	0	43	104	0	77	21002
2026-01-25 00:09:15.27	36.66	33.34	-53.3	-68.2	3.8	1.49e+00	0	44	104	0	77	21011
2026-01-25 00:09:16.28	36.79	33.54	-53.3	-68.3	3.8	1.49e+00	0	44	104	0	77	21033
2026-01-25 00:09:17.28	36.92	33.74	-53.3	-68.3	3.8	1.49e+00	0	44	104	0	77	21019
2026-01-25 00:09:18.29	37.06	33.95	-53.3	-68.2	3.8	1.49e+00	0	44	104	0	77	20992
2026-01-25 00:09:19.30	37.19	34.15	-53.3	-68.2	3.8	1.49e+00	0	44	104	0	77	20993
2026-01-25 00:09:20.31	37.33	34.36	-53.3	-68.3	3.8	1.49e+00	0	44	104	0	77	21021
2026-01-25 00:09:21.31	37.47	34.57	-53.3	-68.2	3.8	1.49e+00	0	44	104	0	77	21007
2026-01-25 00:09:22.32	37.61	34.78	-53.3	-68.3	3.8	1.49e+00	0	44	104	0	77	21040
2026-01-25 00:09:23.33	37.76	34.99	-53.3	-68.2	3.8	1.49e+00	0	44	104	0	77	20998
2026-01-25 00:09:24.34	37.90	35.20	-53.3	-68.3	3.8	1.49e+00	0	44	104	0	77	21024
2026-01-25 00:09:25.35	38.05	35.41	-53.3	-68.3	3.8	1.49e+00	0	44	104	0	77	21025
2026-01-25 00:09:26.36	38.20	35.63	-53.3	-68.2	3.8	1.49e+00	0	44	104	0	77	20991
2026-01-25 00:09:27.37	38.35	35.85	-53.3	-68.2	3.8	1.49e+00	0	44	104	0	77	21015
2026-01-25 00:09:28.37	38.50	36.06	-53.3	-68.3	3.8	1.49e+00	0	43	104	0	77	21064
2026-01-25 00:09:29.38	38.65	36.28	-53.3	-68.3	3.8	1.49e+00	0	44	104	0	77	21061
2026-01-25 00:09:30.40	38.81	36.50	-53.3	-68.2	3.8	1.49e+00	0	43	104	0	77	21014
2026-01-25 00:09:31.40	38.97	36.72	-53.3	-68.3	3.8	1.49e+00	0	44	104	0	77	21036
2026-01-25 00:09:32.41	39.13	36.94	-53.3	-68.2	3.8	1.49e+00	0	44	104	0	77	21011
2026-01-25 00:09:33.42	39.29	37.17	-53.3	-68.3	3.8	1.49e+00	0	43	104	0	77	21047
2026-01-25 00:09:34.43	39.46	37.39	-53.3	-68.2	3.8	1.49e+00	0	43	104	0	77	20990
2026-01-25 00:09:35.44	39.63	37.62	-53.3	-68.2	3.8	1.49e+00	0	44	104	0	77	21012
2026-01-25 00:09:36.44	39.80	37.84	-53.3	-68.2	3.8	1.49e+00	0	43	104	0	77	20999
2026-01-25 00:09:37.45	39.97	38.07	-53.3	-68.2	3.8	1.49e+00	0	44	104	0	77	21002
2026-01-25 00:09:38.46	40.14	38.30	-53.3	-68.3	3.8	1.49e+00	0	44	104	0	77	21056
2026-01-25 00:09:39.47	40.32	38.53	-53.3	-68.3	3.8	1.49e+00	0	44	104	0	77	21051
2026-01-25 00:09:40.48	40.50	38.77	-53.3	-68.2	3.8	1.49e+00	0	44	104	0	77	21006
2026-01-25 00:09:41.48	40.68	39.00	-53.3	-68.3	3.8	1.49e+00	0	44	104	0	77	21035
2026-01-25 00:09:42.49	40.86	39.23	-53.3	-68.2	3.8	1.49e+00	0	43	104	0	77	20983
2026-01-25 00:09:43.50	41.05	39.47	-53.3	-68.2	3.8	1.49e+00	0	44	104	0	77	20985
2026-01-25 00:09:44.51	41.24	39.71	-53.3	-68.3	3.8	1.49e+00	0	44	104	0	77	21024
2026-01-25 00:09:45.52	41.43	39.95	-53.3	-68.2	3.8	1.49e+00	0	43	104	0	77	20971
2026-01-25 00:09:46.52	41.63	40.18	-53.3	-68.2	3.8	1.49e+00	0	43	104	0	77	21017
2026-01-25 00:09:47.53	41.83	40.43	-53.3	-68.2	3.8	1.49e+00	0	43	104	0	77	21014
2026-01-25 00:09:48.54	42.03	40.67	-53.3	-68.2	3.8	1.49e+00	0	44	104	0	77	20953
2026-01-25 00:09:49.55	42.23	40.91	-53.3	-68.3	3.8	1.49e+00	0	43	104	0	77	21058
2026-01-25 00:09:50.55	42.44	41.16	-53.3	-68.2	3.8	1.49e+00	0	43	104	0	77	21005
2026-01-25 00:09:51.56	42.65	41.40	-53.3	-68.2	3.8	1.49e+00	0	44	104	0	77	20970
2026-01-25 00:09:52.57	42.86	41.65	-53.3	-68.3	3.8	1.49e+00	0	44	104	0	77	21045
2026-01-25 00:09:53.58	43.08	41.90	-53.3	-68.2	3.8	1.49e+00	0	44	104	0	77	20992
2026-01-25 00:09:54.58	43.29	42.15	-53.3	-68.3	3.8	1.49e+00	0	44	104	0	77	21019
2026-01-25 00:09:55.59	43.52	42.40	-53.3	-68.3	3.8	1.49e+00	0	44	104	0	77	21070
2026-01-25 00:09:56.60	43.74	42.65	-53.3	-68.2	3.8	1.49e+00	0	43	104	0	77	20991
2026-01-25 00:09:57.61	43.97	42.91	-53.3	-68.2	3.8	1.49e+00	0	44	104	0	77	21007
2026-01-25 00:09:58.62	44.21	43.16	-53.3	-68.3	3.8	1.49e+00	0	43	104	0	77	21058
2026-01-25 00:09:59.62	44.44	43.42	-53.3	-68.3	3.8	1.49e+00	0	44	104	0	77	21055
2026-01-25 00:10:00.63	44.69	43.67	-53.3	-68.3	3.8	1.49e+00	0	44	104	0	77	21050
2026-01-25 00:10:01.63	44.93	43.93	-53.3	-68.2	3.8	1.49e+00	0	44	104	0	77	21005
2026-01-25 00:10:02.64	45.18	44.19	-53.3	-68.2	3.8	1.49e+00	0	44	104	0	77	20969
2026-01-25 00:10:03.65	45.43	44.45	-53.3	-68.3	3.8	1.49e+00	0	44	104	0	77	21032
2026-01-25 00:10:04.66	45.69	44.72	-53.3	-68.2	3.8	1.49e+00	0	44	104	0	77	20981
2026-01-25 00:10:05.67	45.95	44.98	-53.3	-68.2	3.8	1.49e+00	0	44	104	0	77	21000
2026-01-25 00:10:06.67	46.21	45.24	-53.3	-68.3	3.8	1.49e+00	0	44	104	0	77	21040
2026-01-25 00:10:07.68	46.48	45.51	-53.3	-68.3	3.8	1.49e+00	0	43	104	0	77	21023
2026-01-25 00:10:08.69	46.76	45.77	-53.3	-68.3	3.8	1.49e+00	0	44	104	0	77	21030
2026-01-25 00:10:09.70	47.04	46.04	-53.3	-68.2	3.8	1.49e+00	0	44	104	0	77	20983
2026-01-25 00:10:10.71	47.32	46.31	-53.3	-68.2	3.8	1.49e+00	0	44	104	0	77	21014
2026-01-25 00:10:11.72	47.61	46.58	-53.3	-68.2	3.8	1.49e+00	0	44	104	0	77	21006
2026-01-25 00:10:12.72	47.90	46.85	-53.3	-68.3	3.8	1.49e+00	0	44	104	0	77	21032
2026-01-25 00:10:13.73	48.20	47.12	-53.3	-68.2	3.8	1.49e+00	0	44	104	0	77	20988
2026-01-25 00:10:14.74	48.50	47.39	-53.3	-68.3	3.8	1.49e+00	0	44	104	0	77	21022
2026-01-25 00:10:15.75	48.81	47.67	-53.3	-68.2	3.8	1.49e+00	0	44	104	0	77	21017
2026-01-25 00:10:16.75	49.13	47.94	-53.3	-68.2	3.8	1.49e+00	0	44	104	0	77	21005
2026-01-25 00:10:17.76	49.45	48.22	-53.3	-68.3	3.8	1.49e+00	0	44	104	0	77	21030
2026-01-25 00:10:18.77	49.77	48.49	-53.3	-68.3	3.8	1.49e+00	0	43	104	0	77	21037
2026-01-25 00:10:19.78	50.10	48.77	-53.3	-68.3	3.8	1.49e+00	0	44	104	0	77	21034
2026-01-25 00:10:20.78	50.44	49.04	-53.3	-68.3	3.8	1.49e+00	0	43	104	0	77	21030
2026-01-25 00:10:21.79	50.78	49.32	-53.3	-68.3	3.8	1.49e+00	0	44	104	0	77	21072
2026-01-25 00:10:22.80	51.13	49.60	-53.3	-68.3	3.8	1.49e+00	0	44	104	0	77	21069
2026-01-25 00:10:23.81	51.49	49.88	-53.3	-68.2	3.8	1.49e+00	0	44	104	0	77	20988
2026-01-25 00:10:24.82	51.85	50.16	-53.3	-68.2	3.8	1.49e+00	0	44	104	0	77	21016
2026-01-25 00:10:25.82	52.22	50.44	-53.3	-68.3	3.8	1.49e+00	0	44	104	0	77	21038
2026-01-25 00:10:26.83	52.59	50.72	-53.3	-68.3	3.8	1.49e+00	0	44	104	0	77	21050
2026-01-25 00:10:27.84	52.98	51.00	-53.3	-68.3	3.8	1.49e+00	0	44	104	0	77	21020
2026-01-25 00:10:28.85	53.37	51.29	-53.3	-68.3	3.8	1.49e+00	0	44	104	0	77	21069
2026-01-25 00:10:29.86	53.77	51.57	-53.3	-68.3	3.8	1.49e+00	0	44	104	0	77	21025
2026-01-25 00:10:30.87	54.17	51.85	-53.3	-68.3	3.8	1.49e+00	0	43	104	0	77	21069
2026-01-25 00:10:31.87	54.58	52.13	-53.3	-68.2	3.8	1.49e+00	0	44	104	0	77	21014
2026-01-25 00:10:32.88	55.00	52.41	-53.3	-68.2	3.8	1.49e+00	0	44	104	0	77	21011
2026-01-25 00:10:33.88	55.43	52.69	-53.3	-68.3	3.8	1.49e+00	0	44	104	0	77	21032
2026-01-25 00:10:34.89	55.87	52.98	-53.3	-68.3	3.8	1.49e+00	0	44	104	0	77	21078
2026-01-25 00:10:35.90	56.31	53.26	-53.3	-68.3	3.8	1.49e+00	0	44	104	0	77	21031
2026-01-25 00:10:36.91	56.77	53.54	-53.3	-68.2	3.8	1.49e+00	0	44	104	0	77	21001
2026-01-25 00:10:37.92	57.23	53.83	-53.3	-68.3	3.8	1.49e+00	0	44	104	0	77	21100
2026-01-25 00:10:38.92	57.70	54.11	-53.3	-68.3	3.8	1.49e+00	0	44	104	0	77	21035
2026-01-25 00:10:39.93	58.18	54.39	-53.3	-68.2	3.8	1.49e+00	0	44	104	0	77	21015
2026-01-25 00:10:40.94	58.67	54.67	-53.3	-68.3	3.8	1.49e+00	0	44	104	0	77	21048
2026-01-25 00:10:41.95	59.17	54.95	-53.3	-68.2	3.8	1.49e+00	0	44	104	0	77	21006
2026-01-25 00:10:42.96	59.68	55.23	-53.3	-68.3	3.8	1.49e+00	0	44	104	0	77	21034
2026-01-25 00:10:43.96	60.20	55.51	-53.3	-68.3	3.8	1.49e+00	0	44	104	0	77	21048
2026-01-25 00:10:44.97	60.73	55.78	-53.3	-68.2	3.8	1.49e+00	0	44	104	0	77	21013
2026-01-25 00:10:45.98	61.27	56.06	-53.3	-68.3	3.8	1.49e+00	0	44	104	0	77	21066
2026-01-25 00:10:46.99	61.82	56.34	-53.3	-68.3	3.8	1.49e+00	0	44	104	0	77	21035
2026-01-25 00:10:48.00	62.39	56.61	-53.3	-68.3	3.8	1.49e+00	0	44	104	0	77	21039
2026-01-25 00:10:49.01	62.96	56.89	-53.3	-68.2	3.8	1.49e+00	0	44	104	0	77	21003
2026-01-25 00:10:50.02	63.55	57.16	-53.3	-68.2	3.8	1.49e+00	0	44	104	0	77	21013
2026-01-25 00:10:51.02	64.14	57.43	-53.3	-68.2	3.8	1.49e+00	0	44	104	0	77	20999
2026-01-25 00:10:52.03	64.75	57.70	-53.3	-68.2	3.8	1.49e+00	0	44	104	0	77	21008
2026-01-25 00:10:53.04	65.37	57.97	-53.3	-68.2	3.8	1.49e+00	0	44	104	0	77	21002
2026-01-25 00:10:54.05	66.00	58.23	-53.3	-68.3	3.8	1.49e+00	0	44	104	0	77	21053
2026-01-25 00:10:55.05	66.64	58.49	-53.3	-68.3	3.8	1.49e+00	0	44	104	0	77	21046
2026-01-25 00:10:56.06	67.30	58.75	-53.3	-68.3	3.8	1.49e+00	0	44	104	0	77	21057
2026-01-25 00:10:57.07	67.98	59.01	-53.3	-68.3	3.8	1.49e+00	0	44	104	0	77	21083
2026-01-25 00:10:58.08	68.66	59.27	-53.3	-68.3	3.8	1.49e+00	0	44	104	0	77	21049
2026-01-25 00:10:59.09	69.36	59.52	-53.3	-68.3	3.8	1.49e+00	0	44	104	0	77	21029
2026-01-25 00:11:00.10	70.07	59.77	-53.3	-68.3	3.8	1.49e+00	0	44	104	0	77	21079
2026-01-25 00:11:01.10	70.79	60.02	-53.3	-68.2	3.8	1.49e+00	0	44	104	0	77	21012
2026-01-25 00:11:02.11	71.53	60.26	-53.3	-68.2	3.8	1.49e+00	0	44	104	0	77	20983
2026-01-25 00:11:03.12	72.29	60.50	-53.3	-68.2	3.8	1.49e+00	0	44	104	0	77	21006
2026-01-25 00:11:04.13	73.06	60.74	-53.3	-68.3	3.8	1.49e+00	0	44	104	0	77	21056
2026-01-25 00:11:05.14	73.84	60.97	-53.3	-68.3	3.8	1.49e+00	0	44	104	0	77	21025
2026-01-25 00:11:06.14	74.63	61.20	-53.3	-68.3	3.8	1.49e+00	0	44	104	0	77	21028
2026-01-25 00:11:07.15	75.44	61.43	-53.3	-68.2	3.8	1.49e+00	0	44	104	0	77	21013
2026-01-25 00:11:08.16	76.27	61.65	-53.3	-68.3	3.8	1.49e+00	0	44	104	0	77	21050
2026-01-25 00:11:09.17	77.11	61.87	-53.3	-68.3	3.8	1.49e+00	0	44	104	0	77	21020
2026-01-25 00:11:10.18	77.97	62.08	-53.3	-68.2	3.8	1.49e+00	0	44	104	0	77	21007
2026-01-25 00:11:11.18	78.83	62.29	-53.3	-68.3	3.8	1.49e+00	0	44	104	0	77	21020
2026-01-25 00:11:12.19	79.71	62.49	-53.3	-68.2	3.8	1.49e+00	0	44	104	0	77	20990
2026-01-25 00:11:13.20	80.62	62.69	-53.3	-68.2	3.8	1.49e+00	0	44	104	0	77	21012
2026-01-25 00:11:14.21	81.53	62.88	-53.3	-68.3	3.8	1.49e+00	0	44	104	0	77	21049
2026-01-25 00:11:15.21	82.45	63.06	-53.3	-68.3	3.8	1.49e+00	0	44	104	0	77	21021
2026-01-25 00:11:16.22	83.39	63.24	-53.3	-68.2	3.8	1.49e+00	0	43	104	0	77	21014
2026-01-25 00:11:17.23	84.35	63.42	-53.3	-68.2	3.8	1.49e+00	0	44	104	0	77	21013
2026-01-25 00:11:18.24	85.33	63.59	-53.3	-68.2	3.8	1.49e+00	0	44	104	0	77	20967
2026-01-25 00:11:19.24	86.30	63.75	-53.3	-68.3	3.8	1.49e+00	0	44	104	0	77	21031
2026-01-25 00:11:20.25	87.30	63.90	-53.3	-68.2	3.8	1.49e+00	0	44	104	0	77	20984
2026-01-25 00:11:21.26	88.31	64.05	-53.3	-68.3	3.8	1.49e+00	0	43	104	0	77	21025
2026-01-25 00:11:22.26	89.33	64.19	-53.3	-68.3	3.8	1.49e+00	0	44	104	0	77	21057
2026-01-25 00:11:23.27	90.37	64.33	-53.3	-68.3	3.8	1.49e+00	0	44	104	0	77	21064
2026-01-25 00:11:24.28	91.42	64.46	-53.3	-68.2	3.8	1.49e+00	0	44	104	0	77	21001
2026-01-25 00:11:25.29	92.48	64.58	-53.3	-68.3	3.8	1.49e+00	0	44	104	0	77	21036
2026-01-25 00:11:26.29	93.54	64.69	-53.3	-68.3	3.8	1.49e+00	0	44	104	0	77	21059
2026-01-25 00:11:27.30	94.62	64.79	-53.3	-68.2	3.8	1.49e+00	0	44	104	0	77	20984
2026-01-25 00:11:28.31	95.71	64.89	-53.3	-68.3	3.8	1.49e+00	0	44	104	0	77	21064
2026-01-25 00:11:29.32	96.81	64.98	-53.3	-68.3	3.8	1.49e+00	0	44	104	0	77	21048
2026-01-25 00:11:30.32	97.91	65.06	-53.3	-68.3	3.8	1.49e+00	0	44	104	0	77	21037
2026-01-25 00:11:31.33	99.03	65.13	-53.3	-68.3	3.8	1.49e+00	0	44	104	0	77	21050
2026-01-25 00:11:32.34	100.15	65.20	-53.3	-68.3	3.8	1.49e+00	0	44	104	0	77	21023
2026-01-25 00:11:33.35	101.28	65.25	-53.3	-68.2	3.8	1.49e+00	0	44	104	0	77	20950
2026-01-25 00:11:34.36	102.41	65.30	-53.3	-68.2	3.8	1.49e+00	0	44	104	0	77	20971
2026-01-25 00:11:35.36	103.54	65.34	-53.3	-68.2	3.8	1.49e+00	0	44	104	0	77	20897
2026-01-25 00:11:36.37	104.68	65.37	-53.3	-68.2	3.8	1.49e+00	0	44	104	0	77	20912
2026-01-25 00:11:37.38	105.83	65.39	-53.3	-68.2	3.8	1.49e+00	0	44	104	0	77	21009
2026-01-25 00:11:38.39	106.97	65.40	-53.3	-68.2	3.8	1.49e+00	0	44	104	0	77	20999
2026-01-25 00:11:39.40	108.12	65.40	-53.3	-68.3	3.8	1.49e+00	0	44	104	0	77	21024
2026-01-25 00:11:40.40	109.26	65.40	-53.3	-68.2	3.8	1.49e+00	0	44	104	0	77	20911
2026-01-25 00:11:41.41	110.40	65.38	-53.3	-68.2	3.8	1.49e+00	0	44	104	0	77	20987
2026-01-25 00:11:42.42	111.55	65.36	-53.3	-68.2	3.8	1.49e+00	0	44	104	0	77	20959
2026-01-25 00:11:43.43	112.69	65.33	-53.3	-68.2	3.8	1.49e+00	0	44	104	0	77	20963
2026-01-25 00:11:44.44	113.83	65.29	-53.3	-68.2	3.8	1.49e+00	0	44	104	0	77	20976
2026-01-25 00:11:45.44	114.95	65.24	-53.3	-68.3	3.8	1.49e+00	0	44	104	0	77	21064
2026-01-25 00:11:46.45	116.08	65.18	-53.3	-68.2	3.8	1.49e+00	0	44	104	0	77	20999
2026-01-25 00:11:47.46	117.20	65.11	-53.3	-68.3	3.8	1.49e+00	0	44	104	0	77	21023
2026-01-25 00:11:48.46	118.30	65.04	-53.3	-68.2	3.8	1.49e+00	0	43	104	0	77	21009
2026-01-25 00:11:49.47	119.41	64.96	-53.3	-68.2	3.8	1.49e+00	0	44	104	0	77	21016
2026-01-25 00:11:50.48	120.51	64.87	-53.3	-68.3	3.8	1.49e+00	0	44	104	0	77	21034
2026-01-25 00:11:51.48	121.59	64.77	-53.3	-68.3	3.8	1.49e+00	0	44	104	0	77	21018
2026-01-25 00:11:52.49	122.67	64.66	-53.3	-68.2	3.8	1.49e+00	0	43	104	0	77	20976
2026-01-25 00:11:53.50	123.74	64.55	-53.2	-68.2	3.8	1.49e+00	0	44	104	0	77	20869
2026-01-25 00:11:54.51	124.80	64.42	-53.3	-68.2	3.8	1.49e+00	0	44	104	0	77	20958
2026-01-25 00:11:55.52	125.84	64.29	-53.2	-68.2	3.8	1.49e+00	0	44	104	0	77	20956
2026-01-25 00:11:56.52	126.87	64.16	-53.3	-68.2	3.8	1.49e+00	0	44	104	0	77	20895
2026-01-25 00:11:57.53	127.89	64.02	-53.3	-68.2	3.8	1.49e+00	0	44	104	0	77	20916
2026-01-25 00:11:58.54	128.90	63.86	-53.3	-68.2	3.8	1.49e+00	0	44	104	0	77	20961
2026-01-25 00:11:59.55	129.90	63.71	-53.2	-68.2	3.8	1.49e+00	0	44	104	0	77	20943
2026-01-25 00:12:00.55	130.87	63.54	-53.3	-68.2	3.8	1.49e+00	0	44	104	0	77	20916
2026-01-25 00:12:01.56	131.84	63.37	-53.3	-68.2	3.8	1.49e+00	0	44	104	0	77	20971
2026-01-25 00:12:02.57	132.80	63.20	-53.3	-68.2	3.8	1.49e+00	0	44	104	0	77	20998
2026-01-25 00:12:03.58	133.74	63.01	-53.3	-68.2	3.8	1.49e+00	0	44	104	0	77	21007
2026-01-25 00:12:04.59	134.66	62.83	-53.3	-68.2	3.8	1.49e+00	0	44	104	0	77	21016
2026-01-25 00:12:05.59	135.57	62.63	-53.3	-68.2	3.8	1.49e+00	0	44	104	0	77	20951
2026-01-25 00:12:06.60	136.47	62.43	-53.2	-68.3	3.8	1.49e+00	0	44	104	0	77	21018
2026-01-25 00:12:07.61	137.35	62.23	-53.3	-68.2	3.8	1.49e+00	0	44	104	0	77	20986
2026-01-25 00:12:08.62	138.22	62.02	-53.3	-68.3	3.8	1.49e+00	0	44	104	0	77	21029
2026-01-25 00:12:09.63	139.07	61.81	-53.3	-68.2	3.8	1.49e+00	0	44	104	0	77	20963
2026-01-25 00:12:10.64	139.91	61.59	-53.3	-68.3	3.8	1.49e+00	0	44	104	0	77	21065
2026-01-25 00:12:11.65	140.73	61.36	-53.3	-68.2	3.8	1.49e+00	0	44	104	0	77	20980
2026-01-25 00:12:12.66	141.54	61.14	-53.3	-68.2	3.8	1.49e+00	0	44	104	0	77	21002
2026-01-25 00:12:13.66	142.33	60.91	-53.3	-68.2	3.8	1.49e+00	0	44	104	0	77	20982
2026-01-25 00:12:14.67	143.11	60.67	-53.3	-68.2	3.8	1.49e+00	0	44	104	0	77	21013
2026-01-25 00:12:15.69	143.88	60.43	-53.3	-68.2	3.8	1.49e+00	0	44	104	0	77	20976
2026-01-25 00:12:16.69	144.62	60.19	-53.3	-68.3	3.8	1.49e+00	0	44	104	0	77	21024
2026-01-25 00:12:17.70	145.36	59.94	-53.3	-68.3	3.8	1.49e+00	0	44	104	0	77	21051
2026-01-25 00:12:18.71	146.08	59.70	-53.3	-68.3	3.8	1.49e+00	0	44	104	0	77	21057
2026-01-25 00:12:19.72	146.79	59.44	-53.3	-68.2	3.8	1.49e+00	0	44	104	0	77	21005
2026-01-25 00:12:20.72	147.48	59.19	-53.3	-68.2	3.8	1.49e+00	0	43	104	0	77	21014
2026-01-25 00:12:21.73	148.17	58.93	-53.3	-68.3	3.8	1.49e+00	0	44	104	0	77	21076
2026-01-25 00:12:22.74	148.84	58.67	-53.3	-68.2	3.8	1.49e+00	0	44	104	0	77	21004
2026-01-25 00:12:23.74	149.49	58.41	-53.3	-68.2	3.8	1.49e+00	0	44	104	0	77	21012
2026-01-25 00:12:24.75	150.13	58.15	-53.3	-68.3	3.8	1.49e+00	0	44	104	0	77	21052
2026-01-25 00:12:25.76	150.76	57.88	-53.3	-68.2	3.8	1.49e+00	0	44	104	0	77	20952
2026-01-25 00:12:26.77	151.38	57.61	-53.3	-68.2	3.8	1.49e+00	0	44	104	0	77	20960
2026-01-25 00:12:27.78	151.99	57.34	-53.3	-68.2	3.8	1.49e+00	0	43	104	0	77	20983
2026-01-25 00:12:28.78	152.58	57.07	-53.3	-68.3	3.8	1.49e+00	0	44	104	0	77	21060
2026-01-25 00:12:29.79	153.16	56.80	-53.3	-68.2	3.8	1.49e+00	0	44	104	0	77	20986
2026-01-25 00:12:30.80	153.73	56.53	-53.3	-68.3	3.8	1.49e+00	0	44	104	0	77	21056
2026-01-25 00:12:31.81	154.29	56.25	-53.3	-68.3	3.8	1.49e+00	0	44	104	0	77	21057
2026-01-25 00:12:32.82	154.84	55.97	-53.3	-68.2	3.8	1.49e+00	0	44	104	0	77	20997
2026-01-25 00:12:33.82	155.38	55.70	-53.3	-68.3	3.8	1.49e+00	0	44	104	0	77	21060
2026-01-25 00:12:34.83	155.91	55.42	-53.3	-68.3	3.8	1.49e+00	0	44	104	0	77	21034
2026-01-25 00:12:35.84	156.43	55.14	-53.3	-68.3	3.8	1.49e+00	0	43	104	0	77	21051
2026-01-25 00:12:36.85	156.93	54.86	-53.3	-68.2	3.8	1.49e+00	0	44	104	0	77	21012
2026-01-25 00:12:37.86	157.43	54.57	-53.3	-68.2	3.8	1.49e+00	0	43	104	0	77	21004
2026-01-25 00:12:38.86	157.92	54.29	-53.3	-68.2	3.8	1.49e+00	0	44	104	0	77	21009
2026-01-25 00:12:39.87	158.40	54.01	-53.3	-68.2	3.8	1.49e+00	0	44	104	0	77	20989
2026-01-25 00:12:40.88	158.87	53.73	-53.3	-68.2	3.8	1.49e+00	0	43	104	0	77	21007
2026-01-25 00:12:41.89	159.33	53.44	-53.3	-68.2	3.8	1.49e+00	0	44	104	0	77	20972
2026-01-25 00:12:42.89	159.78	53.16	-53.3	-68.3	3.8	1.49e+00	0	44	104	0	77	21022
2026-01-25 00:12:43.90	160.22	52.88	-53.3	-68.2	3.8	1.49e+00	0	44	104	0	77	21002
2026-01-25 00:12:44.91	160.66	52.60	-53.3	-68.2	3.8	1.49e+00	0	44	104	0	77	20980
2026-01-25 00:12:45.92	161.08	52.31	-53.3	-68.3	3.8	1.49e+00	0	44	104	0	77	21022
2026-01-25 00:12:46.92	161.50	52.03	-53.3	-68.2	3.8	1.49e+00	0	44	104	0	77	21003
2026-01-25 00:12:47.93	161.91	51.75	-53.3	-68.3	3.8	1.49e+00	0	44	104	0	77	21053
2026-01-25 00:12:48.94	162.32	51.46	-53.3	-68.2	3.8	1.49e+00	0	44	104	0	77	20972
2026-01-25 00:12:49.95	162.71	51.18	-53.3	-68.2	3.8	1.49e+00	0	43	104	0	77	20987
2026-01-25 00:12:50.95	163.10	50.90	-53.3	-68.2	3.8	1.49e+00	0	44	104	0	77	20990
2026-01-25 00:12:51.96	163.48	50.62	-53.3	-68.2	3.8	1.49e+00	0	44	104	0	77	21015
2026-01-25 00:12:52.97	163.85	50.34	-53.3	-68.3	3.8	1.49e+00	0	44	104	0	77	21021
2026-01-25 00:12:53.98	164.22	50.05	-53.3	-68.2	3.8	1.49e+00	0	44	104	0	77	20985
2026-01-25 00:12:54.99	164.58	49.77	-53.3	-68.3	3.8	1.49e+00	0	44	104	0	77	21043
2026-01-25 00:12:55.99	164.94	49.50	-53.3	-68.2	3.8	1.49e+00	0	44	104	0	77	20998
2026-01-25 00:12:57.00	165.28	49.22	-53.3	-68.2	3.8	1.49e+00	0	44	104	0	77	20975
2026-01-25 00:12:58.01	165.63	48.94	-53.3	-68.2	3.8	1.49e+00	0	44	104	0	77	20987
2026-01-25 00:12:59.02	165.96	48.66	-53.3	-68.3	3.8	1.49e+00	0	44	104	0	77	21039
2026-01-25 00:13:00.03	166.29	48.38	-53.3	-68.2	3.8	1.49e+00	0	43	104	0	77	21016
2026-01-25 00:13:01.04	166.62	48.10	-53.3	-68.2	3.8	1.49e+00	0	44	104	0	77	20979
2026-01-25 00:13:02.04	166.93	47.83	-53.3	-68.3	3.8	1.49e+00	0	44	104	0	77	21027
2026-01-25 00:13:03.05	167.25	47.55	-53.3	-68.3	3.8	1.49e+00	0	44	104	0	77	21053
2026-01-25 00:13:04.06	167.56	47.28	-53.3	-68.3	3.8	1.49e+00	0	43	104	0	77	21087
2026-01-25 00:13:05.07	167.86	47.01	-53.3	-68.3	3.8	1.49e+00	0	44	104	0	77	21033
2026-01-25 00:13:06.08	168.16	46.73	-53.3	-68.2	3.8	1.49e+00	0	44	104	0	77	21007
2026-01-25 00:13:07.08	168.45	46.47	-53.3	-68.3	3.8	1.49e+00	0	43	104	0	77	21037
2026-01-25 00:13:08.09	168.73	46.19	-53.3	-68.3	3.8	1.49e+00	0	44	104	0	77	21023
2026-01-25 00:13:09.10	169.02	45.93	-53.3	-68.2	3.8	1.49e+00	0	43	104	0	77	20969
2026-01-25 00:13:10.11	169.29	45.66	-53.3	-68.3	3.8	1.49e+00	0	44	104	0	77	21033
2026-01-25 00:13:11.12	169.57	45.39	-53.3	-68.3	3.8	1.49e+00	0	44	104	0	77	21048
2026-01-25 00:13:12.12	169.83	45.13	-53.3	-68.3	3.8	1.49e+00	0	43	104	0	77	21034
2026-01-25 00:13:13.13	170.10	44.86	-53.3	-68.2	3.8	1.49e+00	0	44	104	0	77	21005
2026-01-25 00:13:14.14	170.36	44.60	-53.3	-68.2	3.8	1.49e+00	0	44	104	0	77	21007
2026-01-25 00:13:15.14	170.61	44.34	-53.3	-68.3	3.8	1.49e+00	0	44	104	0	77	21099
2026-01-25 00:13:16.15	170.87	44.07	-53.3	-68.3	3.8	1.49e+00	0	44	104	0	77	21052
2026-01-25 00:13:17.16	171.11	43.81	-53.3	-68.3	3.8	1.49e+00	0	44	104	0	77	21025
2026-01-25 00:13:18.17	171.36	43.55	-53.3	-68.3	3.8	1.49e+00	0	44	104	0	77	21026
2026-01-25 00:13:19.18	171.60	43.29	-53.3	-68.3	3.8	1.49e+00	0	44	104	0	77	21051
2026-01-25 00:13:20.18	171.83	43.04	-53.3	-68.2	3.8	1.49e+00	0	43	104	0	77	21017
2026-01-25 00:13:21.19	172.07	42.78	-53.3	-68.2	3.8	1.49e+00	0	44	104	0	77	21014
2026-01-25 00:13:22.20	172.30	42.53	-53.3	-68.3	3.8	1.49e+00	0	44	104	0	77	21020
2026-01-25 00:13:23.20	172.52	42.28	-53.3	-68.2	3.8	1.49e+00	0	44	104	0	77	21005
2026-01-25 00:13:24.21	172.74	42.03	-53.3	-68.3	3.8	1.49e+00	0	44	104	0	77	21022
2026-01-25 00:13:25.22	172.96	41.78	-53.3	-68.2	3.8	1.49e+00	0	43	104	0	77	20991
2026-01-25 00:13:26.23	173.18	41.53	-53.3	-68.3	3.8	1.49e+00	0	44	104	0	77	21034
2026-01-25 00:13:27.24	173.39	41.28	-53.3	-68.2	3.8	1.49e+00	0	44	104	0	77	20994
2026-01-25 00:13:28.24	173.60	41.03	-53.3	-68.3	3.8	1.49e+00	0	44	104	0	77	21050
2026-01-25 00:13:29.25	173.80	40.79	-53.3	-68.2	3.8	1.49e+00	0	44	104	0	77	21016
2026-01-25 00:13:30.26	174.01	40.54	-53.3	-68.2	3.8	1.49e+00	0	44	104	0	77	21017
2026-01-25 00:13:31.27	174.21	40.30	-53.3	-68.3	3.8	1.49e+00	0	44	104	0	77	21067
2026-01-25 00:13:32.27	174.40	40.06	-53.3	-68.3	3.8	1.49e+00	0	44	104	0	77	21067
2026-01-25 00:13:33.28	174.60	39.82	-53.3	-68.2	3.8	1.49e+00	0	44	104	0	77	20988
2026-01-25 00:13:34.29	174.79	39.58	-53.3	-68.3	3.8	1.49e+00	0	44	104	0	77	21058
2026-01-25 00:13:35.30	174.98	39.34	-53.3	-68.3	3.8	1.49e+00	0	44	104	0	77	21025
2026-01-25 00:13:36.31	175.16	39.10	-53.3	-68.2	3.8	1.49e+00	0	43	104	0	77	20978
2026-01-25 00:13:37.32	175.35	38.87	-53.3	-68.3	3.8	1.49e+00	0	44	104	0	77	21042
2026-01-25 00:13:38.32	175.53	38.64	-53.3	-68.2	3.8	1.49e+00	0	43	104	0	77	21005
2026-01-25 00:13:39.33	175.71	38.40	-53.3	-68.2	3.8	1.49e+00	0	44	104	0	77	20995
2026-01-25 00:13:40.34	175.88	38.17	-53.3	-68.2	3.8	1.49e+00	0	44	104	0	77	20939
2026-01-25 00:13:41.35	176.06	37.94	-53.3	-68.3	3.8	1.49e+00	0	43	104	0	77	21079
2026-01-25 00:13:42.36	176.23	37.71	-53.3	-68.3	3.8	1.49e+00	0	44	104	0	77	21049
2026-01-25 00:13:43.36	176.40	37.49	-53.3	-68.2	3.8	1.49e+00	0	44	104	0	77	21015
2026-01-25 00:13:44.37	176.56	37.26	-53.3	-68.2	3.8	1.49e+00	0	44	104	0	77	21007
2026-01-25 00:13:45.38	176.73	37.03	-53.3	-68.3	3.8	1.49e+00	0	44	104	0	77	21028
2026-01-25 00:13:46.39	176.89	36.81	-53.3	-68.2	3.8	1.49e+00	0	44	104	0	77	21017
2026-01-25 00:13:47.40	177.05	36.59	-53.3	-68.3	3.8	1.49e+00	0	44	104	0	77	21074
2026-01-25 00:13:48.40	177.21	36.37	-53.3	-68.3	3.8	1.49e+00	0	44	104	0	77	21023
2026-01-25 00:13:49.41	177.36	36.15	-53.3	-68.3	3.8	1.49e+00	0	44	104	0	77	21037
2026-01-25 00:13:50.42	177.52	35.93	-53.3	-68.3	3.8	1.49e+00	0	44	104	0	77	21019
2026-01-25 00:13:51.43	177.67	35.71	-53.3	-68.3	3.8	1.49e+00	0	44	104	0	77	21043
2026-01-25 00:13:52.43	177.82	35.50	-53.3	-68.2	3.8	1.49e+00	0	44	104	0	77	20995
2026-01-25 00:13:53.44	177.97	35.28	-53.3	-68.3	3.8	1.49e+00	0	44	104	0	77	21023
2026-01-25 00:13:54.45	178.11	35.07	-53.3	-68.2	3.8	1.49e+00	0	44	104	0	77	21016
2026-01-25 00:13:55.46	178.26	34.86	-53.3	-68.3	3.8	1.49e+00	0	43	104	0	77	21086
2026-01-25 00:13:56.47	178.40	34.64	-53.3	-68.3	3.8	1.49e+00	0	43	104	0	77	21026
2026-01-25 00:13:57.48	178.54	34.43	-53.3	-68.3	3.8	1.49e+00	0	44	104	0	77	21038
2026-01-25 00:13:58.49	178.68	34.22	-53.3	-68.3	3.8	1.49e+00	0	44	104	0	77	21085
2026-01-25 00:13:59.50	178.82	34.02	-53.3	-68.3	3.8	1.49e+00	0	44	104	0	77	21063
2026-01-25 00:14:00.50	178.95	33.81	-53.3	-68.3	3.8	1.49e+00	0	43	104	0	77	21024
2026-01-25 00:14:01.51	179.09	33.61	-53.3	-68.3	3.8	1.49e+00	0	44	104	0	77	21041
2026-01-25 00:14:02.52	179.22	33.40	-53.3	-68.2	3.8	1.49e+00	0	44	104	0	77	21001
2026-01-25 00:14:03.53	179.35	33.20	-53.3	-68.3	3.8	1.49e+00	0	44	104	0	77	21024
2026-01-25 00:14:04.53	179.48	33.00	-53.3	-68.3	3.8	1.49e+00	0	43	104	0	77	21046
2026-01-25 00:14:05.54	179.61	32.80	-53.3	-68.3	3.8	1.49e+00	0	44	104	0	77	21018
2026-01-25 00:14:06.55	179.73	32.60	-53.3	-68.3	3.8	1.49e+00	0	44	104	0	77	21038
2026-01-25 00:14:07.56	179.86	32.40	-53.3	-68.2	3.8	1.49e+00	0	44	104	0	77	21016
2026-01-25 00:14:08.57	179.98	32.21	-53.3	-68.2	3.8	1.49e+00	0	44	104	0	77	20958
2026-01-25 00:14:09.58	180.10	32.01	-53.3	-68.3	3.8	1.49e+00	0	44	104	0	77	21027
2026-01-25 00:14:10.58	180.22	31.82	-53.3	-68.2	3.8	1.49e+00	0	43	104	0	77	21017
2026-01-25 00:14:11.59	180.34	31.62	-53.3	-68.2	3.8	1.49e+00	0	43	104	0	77	20992
2026-01-25 00:14:12.60	180.46	31.43	-53.3	-68.3	3.8	1.49e+00	0	43	104	0	77	21036
2026-01-25 00:14:13.61	180.58	31.24	-53.3	-68.3	3.8	1.49e+00	0	44	104	0	77	21065
2026-01-25 00:14:14.62	180.69	31.05	-53.3	-68.3	3.8	1.49e+00	0	44	104	0	77	21024
2026-01-25 00:14:15.62	180.81	30.86	-53.3	-68.2	3.8	1.49e+00	0	44	104	0	77	21006
2026-01-25 00:14:16.63	180.92	30.67	-53.3	-68.3	3.8	1.49e+00	0	44	104	0	77	21028
2026-01-25 00:14:17.64	181.03	30.49	-53.3	-68.3	3.8	1.49e+00	0	44	104	0	77	21025
2026-01-25 00:14:18.65	181.14	30.30	-53.3	-68.3	3.8	1.49e+00	0	44	104	0	77	21020
2026-01-25 00:14:19.66	181.25	30.12	-53.3	-68.3	3.8	1.49e+00	0	44	104	0	77	21030
2026-01-25 00:14:20.66	181.36	29.93	-53.3	-68.3	3.8	1.49e+00	0	43	104	0	77	21032
2026-01-25 00:14:21.67	181.46	29.75	-53.3	-68.3	3.8	1.49e+00	0	43	104	0	77	21027
2026-01-25 00:14:22.68	181.57	29.57	-53.3	-68.3	3.8	1.49e+00	0	44	104	0	77	21025
2026-01-25 00:14:23.69	181.67	29.39	-53.3	-68.2	3.8	1.49e+00	0	44	104	0	77	21002
2026-01-25 00:14:24.70	181.78	29.21	-53.3	-68.2	3.8	1.49e+00	0	44	104	0	77	21004
2026-01-25 00:14:25.70	181.88	29.03	-53.3	-68.3	3.8	1.49e+00	0	44	104	0	77	21020
2026-01-25 00:14:26.71	181.98	28.86	-53.3	-68.3	3.8	1.49e+00	0	44	104	0	77	21069
2026-01-25 00:14:27.72	182.08	28.68	-53.3	-68.2	3.8	1.49e+00	0	44	104	0	77	21011
2026-01-25 00:14:28.73	182.18	28.50	-53.3	-68.2	3.8	1.49e+00	0	43	104	0	77	21012
2026-01-25 00:14:29.73	182.27	28.33	-53.3	-68.3	3.8	1.49e+00	0	43	104	0	77	21030
2026-01-25 00:14:30.74	182.37	28.16	-53.3	-68.2	3.8	1.49e+00	0	44	104	0	77	21015
2026-01-25 00:14:31.75	182.47	27.99	-53.3	-68.3	3.8	1.49e+00	0	44	104	0	77	21031
2026-01-25 00:14:32.76	182.56	27.81	-53.3	-68.2	3.8	1.49e+00	0	44	104	0	77	20992
2026-01-25 00:14:33.76	182.66	27.65	-53.3	-68.2	3.8	1.49e+00	0	44	104	0	77	20971
2026-01-25 00:14:34.77	182.75	27.48	-53.3	-68.3	3.8	1.49e+00	0	44	104	0	77	21028
2026-01-25 00:14:35.78	182.84	27.31	-53.3	-68.2	3.8	1.49e+00	0	44	104	0	77	20985
2026-01-25 00:14:36.79	182.93	27.14	-53.3	-68.3	3.8	1.49e+00	0	44	104	0	77	21037
2026-01-25 00:14:37.80	183.02	26.97	-53.3	-68.3	3.8	1.49e+00	0	44	104	0	77	21039
2026-01-25 00:14:38.80	183.11	26.81	-53.3	-68.3	3.8	1.49e+00	0	44	104	0	77	21075
2026-01-25 00:14:39.81	183.20	26.65	-53.3	-68.2	3.8	1.49e+00	0	44	104	0	77	20997
2026-01-25 00:14:40.82	183.29	26.48	-53.3	-68.2	3.8	1.49e+00	0	44	104	0	77	21001
2026-01-25 00:14:41.83	183.37	26.32	-53.3	-68.2	3.8	1.49e+00	0	44	104	0	77	20956
2026-01-25 00:14:42.83	183.46	26.16	-53.3	-68.2	3.8	1.49e+00	0	44	104	0	77	21005
2026-01-25 00:14:43.84	183.54	26.00	-53.3	-68.3	3.8	1.49e+00	0	44	104	0	77	21046
2026-01-25 00:14:44.85	183.63	25.84	-53.3	-68.3	3.8	1.49e+00	0	44	104	0	77	21030
2026-01-25 00:14:45.85	183.71	25.68	-53.3	-68.2	3.8	1.49e+00	0	43	104	0	77	20990
2026-01-25 00:14:46.86	183.79	25.52	-53.3	-68.2	3.8	1.49e+00	0	44	104	0	77	20988
2026-01-25 00:14:47.87	183.88	25.36	-53.3	-68.2	3.8	1.49e+00	0	44	104	0	77	20973
2026-01-25 00:14:48.88	183.96	25.21	-53.3	-68.3	3.8	1.49e+00	0	44	104	0	77	21057
2026-01-25 00:14:49.89	184.04	25.05	-53.3	-68.2	3.8	1.49e+00	0	43	104	0	77	20990
2026-01-25 00:14:50.90	184.12	24.90	-53.3	-68.3	3.8	1.49e+00	0	44	104	0	77	21046
2026-01-25 00:14:51.90	184.20	24.74	-53.3	-68.2	3.8	1.49e+00	0	44	104	0	77	20987
2026-01-25 00:14:52.91	184.27	24.59	-53.3	-68.3	3.8	1.49e+00	0	43	104	0	77	21059
2026-01-25 00:14:53.92	184.35	24.44	-53.3	-68.2	3.8	1.49e+00	0	44	104	0	77	21004
2026-01-25 00:14:54.93	184.43	24.29	-53.3	-68.2	3.8	1.49e+00	0	43	104	0	77	21002
2026-01-25 00:14:55.94	184.51	24.14	-53.3	-68.3	3.8	1.49e+00	0	43	104	0	77	21061
2026-01-25 00:14:56.94	184.58	23.99	-53.3	-68.2	3.8	1.49e+00	0	44	104	0	77	21004
2026-01-25 00:14:57.95	184.66	23.84	-53.3	-68.3	3.8	1.49e+00	0	44	104	0	77	21025
2026-01-25 00:14:58.96	184.73	23.69	-53.3	-68.2	3.8	1.49e+00	0	44	104	0	77	20999
2026-01-25 00:14:59.97	184.80	23.54	-53.3	-68.3	3.8	1.49e+00	0	44	104	0	77	21031
2026-01-25 00:15:00.97	184.87	23.40	-53.3	-68.3	3.8	1.49e+00	0	44	104	0	77	21040
2026-01-25 00:15:01.98	184.95	23.25	-53.3	-68.2	3.8	1.49e+00	0	44	104	0	77	21012
2026-01-25 00:15:02.99	185.02	23.11	-53.3	-68.2	3.8	1.49e+00	0	44	104	0	77	20980
2026-01-25 00:15:04.00	185.09	22.96	-53.3	-68.2	3.8	1.49e+00	0	44	104	0	77	21005
2026-01-25 00:15:05.01	185.16	22.82	-53.3	-68.2	3.8	1.49e+00	0	44	104	0	77	20986
2026-01-25 00:15:06.01	185.23	22.68	-53.3	-68.3	3.8	1.49e+00	0	44	104	0	77	21059
2026-01-25 00:15:07.02	185.30	22.54	-53.3	-68.3	3.8	1.49e+00	0	44	104	0	77	21039
2026-01-25 00:15:08.03	185.37	22.39	-53.3	-68.2	3.8	1.49e+00	0	44	104	0	77	21017
2026-01-25 00:15:09.04	185.43	22.25	-53.3	-68.3	3.8	1.49e+00	0	44	104	0	77	21030
2026-01-25 00:15:10.04	185.50	22.12	-53.3	-68.2	3.8	1.49e+00	0	44	104	0	77	21011
2026-01-25 00:15:11.05	185.57	21.98	-53.3	-68.2	3.8	1.49e+00	0	43	104	0	77	21007
2026-01-25 00:15:12.06	185.63	21.84	-53.3	-68.3	3.8	1.49e+00	0	44	104	0	77	21029
2026-01-25 00:15:13.07	185.70	21.70	-53.3	-68.2	3.8	1.49e+00	0	44	104	0	77	21004
2026-01-25 00:15:14.08	185.77	21.56	-53.3	-68.2	3.8	1.49e+00	0	44	104	0	77	20966
2026-01-25 00:15:15.09	185.83	21.43	-53.3	-68.3	3.8	1.49e+00	0	44	104	0	77	21032
2026-01-25 00:15:16.10	185.89	21.29	-53.3	-68.3	3.8	1.49e+00	0	44	104	0	77	21030
2026-01-25 00:15:17.10	185.96	21.16	-53.3	-68.2	3.8	1.49e+00	0	44	104	0	77	20992
2026-01-25 00:15:18.11	186.02	21.02	-53.3	-68.2	3.8	1.49e+00	0	43	104	0	77	21013
2026-01-25 00:15:19.12	186.08	20.89	-53.3	-68.3	3.8	1.49e+00	0	44	104	0	77	21105
2026-01-25 00:15:20.13	186.15	20.76	-53.3	-68.3	3.8	1.49e+00	0	44	104	0	77	21019
2026-01-25 00:15:21.13	186.21	20.63	-53.3	-68.2	3.8	1.49e+00	0	44	104	0	77	21007
2026-01-25 00:15:22.14	186.27	20.49	-53.3	-68.3	3.8	1.49e+00	0	44	104	0	77	21053
2026-01-25 00:15:23.15	186.33	20.36	-53.3	-68.2	3.8	1.49e+00	0	44	104	0	77	20980
2026-01-25 00:15:24.16	186.39	20.23	-53.3	-68.3	3.8	1.49e+00	0	43	104	0	77	21024
2026-01-25 00:15:25.17	186.45	20.10	-53.3	-68.3	3.8	1.49e+00	0	44	104	0	77	21053
2026-01-25 00:15:26.18	186.51	19.98	-53.3	-68.3	3.8	1.49e+00	0	44	104	0	77	21051
2026-01-25 00:15:27.18	186.57	19.85	-53.3	-68.3	3.8	1.49e+00	0	44	104	0	77	21058
2026-01-25 00:15:28.19	186.62	19.72	-53.3	-68.2	3.8	1.49e+00	0	44	104	0	77	21014
2026-01-25 00:15:29.20	186.68	19.59	-53.3	-68.3	3.8	1.49e+00	0	44	104	0	77	21023
2026-01-25 00:15:30.20	186.74	19.47	-53.3	-68.3	3.8	1.49e+00	0	44	104	0	77	21031
2026-01-25 00:15:31.21	186.80	19.34	-53.3	-68.2	3.8	1.49e+00	0	44	104	0	77	21015
2026-01-25 00:15:32.22	186.85	19.22	-53.3	-68.3	3.8	1.49e+00	0	44	104	0	77	21020
2026-01-25 00:15:33.23	186.91	19.09	-53.3	-68.3	3.8	1.49e+00	0	43	104	0	77	21069
2026-01-25 00:15:34.24	186.96	18.97	-53.3	-68.3	3.8	1.49e+00	0	43	104	0	77	21018
2026-01-25 00:15:35.24	187.02	18.85	-53.3	-68.3	3.8	1.49e+00	0	44	104	0	77	21029
2026-01-25 00:15:36.25	187.07	18.72	-53.3	-68.3	3.8	1.49e+00	0	44	104	0	77	21020
2026-01-25 00:15:37.26	187.13	18.60	-53.3	-68.2	3.8	1.49e+00	0	43	104	0	77	21011
2026-01-25 00:15:38.27	187.18	18.48	-53.3	-68.2	3.8	1.49e+00	0	44	104	0	77	21011
2026-01-25 00:15:39.28	187.24	18.36	-53.3	-68.2	3.8	1.49e+00	0	44	104	0	77	20987
2026-01-25 00:15:40.29	187.29	18.24	-53.3	-68.2	3.8	1.49e+00	0	43	104	0	77	20997
2026-01-25 00:15:41.30	187.34	18.12	-53.3	-68.3	3.8	1.49e+00	0	44	104	0	77	21069
2026-01-25 00:15:42.30	187.39	18.00	-53.3	-68.2	3.8	1.49e+00	0	44	104	0	77	21007
2026-01-25 00:15:43.31	187.45	17.88	-53.3	-68.2	3.8	1.49e+00	0	44	104	0	77	21015
2026-01-25 00:15:44.32	187.50	17.76	-53.3	-68.2	3.8	1.49e+00	0	44	104	0	77	20987
2026-01-25 00:15:45.33	187.55	17.64	-53.3	-68.2	3.8	1.49e+00	0	44	104	0	77	21004
2026-01-25 00:15:46.34	187.60	17.53	-53.3	-68.3	3.8	1.49e+00	0	44	104	0	77	21078
2026-01-25 00:15:47.34	187.65	17.41	-53.3	-68.2	3.8	1.49e+00	0	44	104	0	77	21016
2026-01-25 00:15:48.35	187.70	17.30	-53.3	-68.3	3.8	1.49e+00	0	44	104	0	77	21046
2026-01-25 00:15:49.36	187.75	17.18	-53.3	-68.3	3.8	1.49e+00	0	44	104	0	77	21043
2026-01-25 00:15:50.37	187.80	17.07	-53.3	-68.2	3.8	1.49e+00	0	44	104	0	77	20944
2026-01-25 00:15:51.38	187.85	16.95	-53.3	-68.3	3.8	1.49e+00	0	44	104	0	77	21038
2026-01-25 00:15:52.38	187.90	16.84	-53.3	-68.3	3.8	1.49e+00	0	44	104	0	77	21030
2026-01-25 00:15:53.39	187.95	16.72	-53.3	-68.2	3.8	1.49e+00	0	44	104	0	77	20973
2026-01-25 00:15:54.40	187.99	16.61	-53.3	-68.2	3.8	1.49e+00	0	44	104	0	77	21014
2026-01-25 00:15:55.41	188.04	16.50	-53.3	-68.3	3.8	1.49e+00	0	44	104	0	77	21044
2026-01-25 00:15:56.41	188.09	16.39	-53.3	-68.3	3.8	1.49e+00	0	44	104	0	77	21027
2026-01-25 00:15:57.42	188.14	16.28	-53.3	-68.3	3.8	1.49e+00	0	43	104	0	77	21025
2026-01-25 00:15:58.43	188.18	16.17	-53.3	-68.2	3.8	1.49e+00	0	44	104	0	77	20994
2026-01-25 00:15:59.44	188.23	16.05	-53.3	-68.2	3.8	1.49e+00	0	44	104	0	77	20997
2026-01-25 00:16:00.45	188.28	15.94	-53.3	-68.2	3.8	1.49e+00	0	44	104	0	77	20999
2026-01-25 00:16:01.46	188.32	15.83	-53.3	-68.3	3.8	1.49e+00	0	44	104	0	77	21031
2026-01-25 00:16:02.46	188.37	15.73	-53.3	-68.2	3.8	1.49e+00	0	43	104	0	77	20986
2026-01-25 00:16:03.47	188.41	15.62	-53.3	-68.2	3.8	1.49e+00	0	44	104	0	77	21003
2026-01-25 00:16:04.48	188.46	15.51	-53.3	-68.2	3.8	1.49e+00	0	44	104	0	77	21013
2026-01-25 00:16:05.49	188.50	15.40	-53.3	-68.2	3.8	1.49e+00	0	44	104	0	77	21003
2026-01-25 00:16:06.50	188.55	15.29	-53.3	-68.2	3.8	1.49e+00	0	43	104	0	77	20990
2026-01-25 00:16:07.50	188.59	15.19	-53.3	-68.2	3.8	1.49e+00	0	44	104	0	77	20991
2026-01-25 00:16:08.51	188.63	15.08	-53.3	-68.3	3.8	1.49e+00	0	44	104	0	77	21033
2026-01-25 00:16:09.52	188.68	14.98	-53.3	-68.2	3.8	1.49e+00	0	44	104	0	77	21015
2026-01-25 00:16:10.52	188.72	14.87	-53.3	-68.2	3.8	1.49e+00	0	44	104	0	77	21015
2026-01-25 00:16:11.53	188.76	14.77	-53.3	-68.3	3.8	1.49e+00	0	44	104	0	77	21049
2026-01-25 00:16:12.54	188.81	14.66	-53.3	-68.3	3.8	1.49e+00	0	44	104	0	77	21023
2026-01-25 00:16:13.55	188.85	14.56	-53.3	-68.2	3.8	1.49e+00	0	44	104	0	77	21006
2026-01-25 00:16:14.55	188.89	14.46	-53.3	-68.3	3.8	1.49e+00	0	44	104	0	77	21039
2026-01-25 00:16:15.56	188.93	14.35	-53.3	-68.3	3.8	1.49e+00	0	44	104	0	77	21056
2026-01-25 00:16:16.57	188.98	14.25	-53.3	-68.2	3.8	1.49e+00	0	44	104	0	77	21016
2026-01-25 00:16:17.58	189.02	14.15	-53.3	-68.2	3.8	1.49e+00	0	44	104	0	77	21009
2026-01-25 00:16:18.59	189.06	14.05	-53.3	-68.3	3.8	1.49e+00	0	43	104	0	77	21022
2026-01-25 00:16:19.60	189.10	13.94	-53.3	-68.2	3.8	1.49e+00	0	44	104	0	77	21002
2026-01-25 00:16:20.60	189.14	13.84	-53.3	-68.3	3.8	1.49e+00	0	44	104	0	77	21076
2026-01-25 00:16:21.61	189.18	13.74	-53.3	-68.2	3.8	1.49e+00	0	44	104	0	77	21011
2026-01-25 00:16:22.62	189.22	13.64	-53.3	-68.2	3.8	1.49e+00	0	43	104	0	77	20990
2026-01-25 00:16:23.63	189.26	13.54	-53.3	-68.3	3.8	1.49e+00	0	44	104	0	77	21093
2026-01-25 00:16:24.63	189.30	13.44	-53.3	-68.3	3.8	1.49e+00	0	44	104	0	77	21045
2026-01-25 00:16:25.64	189.34	13.34	-53.3	-68.2	3.8	1.49e+00	0	44	104	0	77	21009
2026-01-25 00:16:26.65	189.38	13.25	-53.3	-68.3	3.8	1.49e+00	0	44	104	0	77	21032
2026-01-25 00:16:27.66	189.42	13.15	-53.3	-68.3	3.8	1.49e+00	0	43	104	0	77	21019
2026-01-25 00:16:28.67	189.46	13.05	-53.3	-68.3	3.8	1.49e+00	0	44	104	0	77	21067
2026-01-25 00:16:29.67	189.49	12.95	-53.3	-68.3	3.8	1.49e+00	0	44	104	0	77	21033
2026-01-25 00:16:30.68	189.53	12.86	-53.3	-68.3	3.8	1.49e+00	0	44	104	0	77	21058
2026-01-25 00:16:31.69	189.57	12.76	-53.3	-68.2	3.8	1.49e+00	0	44	104	0	77	20983
2026-01-25 00:16:32.70	189.61	12.66	-53.3	-68.2	3.8	1.49e+00	0	44	104	0	77	20987
2026-01-25 00:16:33.71	189.65	12.57	-53.3	-68.3	3.8	1.49e+00	0	44	104	0	77	21051
2026-01-25 00:16:34.72	189.68	12.47	-53.3	-68.3	3.8	1.49e+00	0	44	104	0	77	21027
2026-01-25 00:16:35.72	189.72	12.38	-53.3	-68.2	3.8	1.49e+00	0	43	104	0	77	20946
2026-01-25 00:16:36.73	189.76	12.28	-53.3	-68.2	3.8	1.49e+00	0	43	104	0	77	21007
2026-01-25 00:16:37.74	189.79	12.19	-53.3	-68.3	3.8	1.49e+00	0	44	104	0	77	21065
2026-01-25 00:16:38.75	189.83	12.09	-53.3	-68.3	3.8	1.49e+00	0	44	104	0	77	21074
2026-01-25 00:16:39.76	189.87	12.00	-53.3	-68.2	3.8	1.49e+00	0	43	104	0	77	21003
2026-01-25 00:16:40.77	189.90	11.90	-53.3	-68.3	3.8	1.49e+00	0	44	104	0	77	21046
2026-01-25 00:16:41.78	189.94	11.81	-53.3	-68.2	3.8	1.49e+00	0	44	104	0	77	20944
2026-01-25 00:16:42.78	189.97	11.72	-53.3	-68.2	3.8	1.49e+00	0	44	104	0	77	20983
2026-01-25 00:16:43.79	190.01	11.63	-53.3	-68.3	3.8	1.49e+00	0	44	104	0	77	21024
2026-01-25 00:16:44.79	190.04	11.53	-53.3	-68.2	3.8	1.49e+00	0	44	104	0	77	21004
2026-01-25 00:16:45.80	190.08	11.44	-53.3	-68.3	3.8	1.49e+00	0	44	104	0	77	21053
2026-01-25 00:16:46.81	190.11	11.35	-53.3	-68.2	3.8	1.49e+00	0	44	104	0	77	20946
2026-01-25 00:16:47.82	190.15	11.26	-53.3	-68.2	3.8	1.49e+00	0	44	104	0	77	21016
2026-01-25 00:16:48.83	190.18	11.17	-53.3	-68.2	3.8	1.49e+00	0	44	104	0	77	21007
2026-01-25 00:16:49.83	190.22	11.08	-53.3	-68.2	3.8	1.49e+00	0	44	104	0	77	20998
2026-01-25 00:16:50.84	190.25	10.99	-53.3	-68.3	3.8	1.49e+00	0	44	104	0	77	21034
2026-01-25 00:16:51.85	190.29	10.90	-53.3	-68.3	3.8	1.49e+00	0	44	104	0	77	21019
2026-01-25 00:16:52.86	190.32	10.81	-53.3	-68.2	3.8	1.49e+00	0	44	104	0	77	21014
