passes_logs/2026/01/25/R3.2S_Murmansk/R3.2S_Murmansk__20260125_044351_SUOMI_NPP_rec.log

#Pass ID: 20260125_044351_SUOMI NPP
#Satellite: SUOMI NPP
#Configuration: NPP
#almurnet v.1.7.20251203
#Start time: 2026-01-25 04:43:51

#Version: 2.2.20231116
#Station: R3.2S_Murmansk
#Location: 33.079688 lon 68.888172 lat
#TLE: 1 37849U 11061A   26024.54906732  .00000185  00000+0  10878-3 0  9990
#TLE: 2 37849  98.7821 326.5159 0002200  47.3746 312.7615 14.19529340738061

#Time	Az	El	Level	Level2	SNR	BER	BlckErr	Temp	State	Recorded	gain1	gain2
2026-01-25 04:43:51.83	54.96	2.04	-52.1	-67.0	3.8	1.49e+00	0	42	0	0	76	19363
2026-01-25 04:43:52.83	54.90	2.10	-52.0	-67.0	3.8	1.49e+00	0	42	104	0	74	21725
2026-01-25 04:43:53.84	54.84	2.16	-52.0	-67.0	3.8	1.49e+00	0	43	104	0	74	21638
2026-01-25 04:43:54.85	54.77	2.21	-52.0	-67.0	3.8	1.49e+00	0	43	104	0	74	21597
2026-01-25 04:43:55.86	54.71	2.27	-52.0	-67.0	3.8	1.49e+00	0	42	104	0	74	21595
2026-01-25 04:43:56.87	54.64	2.33	-52.1	-67.0	3.8	1.49e+00	0	42	104	0	74	21626
2026-01-25 04:43:57.88	54.58	2.39	-52.0	-67.0	3.8	1.49e+00	0	43	104	0	74	21531
2026-01-25 04:43:58.88	54.51	2.44	-52.0	-67.0	3.8	1.49e+00	0	43	104	0	74	21572
2026-01-25 04:43:59.89	54.45	2.50	-52.0	-66.9	3.8	1.49e+00	0	43	104	0	74	21505
2026-01-25 04:44:00.90	54.38	2.56	-52.0	-67.0	3.8	1.49e+00	0	43	104	0	74	21561
2026-01-25 04:44:01.91	54.32	2.62	-52.0	-67.0	3.8	1.49e+00	0	43	104	0	74	21582
2026-01-25 04:44:02.92	54.25	2.68	-52.0	-67.0	3.8	1.49e+00	0	43	104	0	74	21566
2026-01-25 04:44:03.93	54.18	2.73	-52.0	-67.0	3.8	1.49e+00	0	43	104	0	74	21565
2026-01-25 04:44:04.94	54.12	2.79	-52.0	-67.0	3.8	1.49e+00	0	43	104	0	74	21533
2026-01-25 04:44:05.95	54.05	2.85	-52.0	-66.9	3.8	1.49e+00	0	43	104	0	74	21406
2026-01-25 04:44:06.96	53.98	2.91	-52.0	-66.9	3.8	1.49e+00	0	43	104	0	74	21445
2026-01-25 04:44:07.97	53.91	2.97	-52.0	-66.9	3.8	1.49e+00	0	43	104	0	74	21475
2026-01-25 04:44:08.98	53.84	3.03	-52.0	-67.0	3.8	1.49e+00	0	43	104	0	74	21547
2026-01-25 04:44:09.99	53.78	3.09	-52.0	-67.0	3.8	1.49e+00	0	43	104	0	74	21532
2026-01-25 04:44:10.99	53.71	3.15	-52.0	-67.0	3.8	1.49e+00	0	43	104	0	74	21616
2026-01-25 04:44:12.00	53.64	3.20	-52.0	-67.0	3.8	1.49e+00	0	43	104	0	74	21606
2026-01-25 04:44:13.01	53.57	3.26	-52.0	-67.0	3.8	1.49e+00	0	43	104	0	74	21519
2026-01-25 04:44:14.02	53.50	3.32	-52.0	-66.9	3.8	1.49e+00	0	43	104	0	74	21436
2026-01-25 04:44:15.03	53.43	3.38	-52.0	-66.9	3.8	1.49e+00	0	43	104	0	74	21437
2026-01-25 04:44:16.04	53.36	3.44	-52.0	-66.9	3.8	1.49e+00	0	43	104	0	74	21398
2026-01-25 04:44:17.05	53.29	3.50	-52.0	-66.9	3.8	1.49e+00	0	43	104	0	74	21432
2026-01-25 04:44:18.05	53.22	3.56	-52.0	-67.0	3.8	1.49e+00	0	43	104	0	74	21550
2026-01-25 04:44:19.06	53.15	3.62	-52.0	-67.0	3.8	1.49e+00	0	43	104	0	74	21532
2026-01-25 04:44:20.07	53.08	3.68	-52.0	-67.0	3.8	1.49e+00	0	43	104	0	74	21542
2026-01-25 04:44:21.08	53.01	3.74	-52.0	-66.9	3.8	1.49e+00	0	43	104	0	74	21444
2026-01-25 04:44:22.09	52.93	3.80	-52.0	-66.9	3.8	1.49e+00	0	43	104	0	74	21371
2026-01-25 04:44:23.09	52.86	3.86	-52.0	-66.9	3.8	1.49e+00	0	43	104	0	74	21364
2026-01-25 04:44:24.10	52.79	3.92	-52.0	-66.9	3.8	1.49e+00	0	43	104	0	74	21409
2026-01-25 04:44:25.11	52.72	3.98	-52.0	-66.9	3.8	1.49e+00	0	43	104	0	74	21480
2026-01-25 04:44:26.12	52.64	4.04	-52.0	-66.9	3.8	1.49e+00	0	43	104	0	74	21481
2026-01-25 04:44:27.13	52.57	4.10	-52.0	-66.7	3.8	1.49e+00	0	43	104	0	74	20960
2026-01-25 04:44:28.14	52.50	4.16	-52.0	-66.2	3.8	1.49e+00	0	44	104	0	74	19766
2026-01-25 04:44:29.15	52.42	4.22	-52.0	-65.7	3.8	1.49e+00	0	44	104	0	74	18602
2026-01-25 04:44:30.16	52.35	4.28	-51.9	-64.9	3.8	1.49e+00	0	44	104	0	74	17049
2026-01-25 04:44:31.17	52.27	4.34	-51.9	-64.3	4.0	1.49e+00	0	44	104	0	74	15812
2026-01-25 04:44:32.18	52.20	4.40	-51.9	-64.2	4.0	1.47e+00	0	43	104	0	74	15758
2026-01-25 04:44:33.19	52.12	4.46	-51.9	-64.0	4.1	1.47e+00	0	44	104	0	74	15270
2026-01-25 04:44:34.19	52.05	4.52	-51.9	-64.4	3.8	1.45e+00	0	43	104	0	74	15988
2026-01-25 04:44:35.20	51.97	4.58	-51.9	-64.2	4.0	1.47e+00	0	44	104	0	74	15582
2026-01-25 04:44:36.21	51.89	4.65	-51.8	-63.1	4.3	1.40e+00	0	44	0	0	74	13800
2026-01-25 04:44:37.22	51.82	4.71	-51.7	-61.6	4.9	9.38e-01	0	43	0	1048576	74	11625
2026-01-25 04:44:38.23	51.74	4.77	-51.4	-59.5	6.2	5.10e-01	0	43	0	3145728	74	9129
2026-01-25 04:44:39.24	51.66	4.83	-51.0	-57.9	7.8	1.11e-01	0	44	0	5242880	74	7557
2026-01-25 04:44:40.25	51.59	4.89	-50.7	-56.7	8.9	3.48e-02	0	44	0	7340032	73	6962
2026-01-25 04:44:41.25	51.51	4.95	-50.1	-54.9	10.7	1.21e-02	0	44	0	8388608	72	6046
2026-01-25 04:44:42.26	51.43	5.01	-50.0	-54.5	11.3	1.32e-03	0	44	0	10485760	71	6090
2026-01-25 04:44:43.27	51.35	5.08	-49.8	-54.1	11.7	8.22e-04	0	44	0	12582912	71	5811
2026-01-25 04:44:44.28	51.27	5.14	-50.9	-57.1	8.7	1.88e-02	0	44	0	14680064	72	7749
2026-01-25 04:44:45.29	51.19	5.20	-50.8	-56.6	8.8	1.11e-01	0	44	0	16777216	73	6959
2026-01-25 04:44:46.30	51.11	5.26	-50.0	-54.5	11.1	8.49e-03	0	44	0	17825792	71	6123
2026-01-25 04:44:47.30	51.03	5.32	-47.7	-50.2	15.7	0.00e+00	0	44	0	19922944	67	4675
2026-01-25 04:44:48.31	50.95	5.39	-51.9	-64.4	3.9	6.80e-01	0	44	104	20971520	74	16079
2026-01-25 04:44:49.32	50.87	5.45	-47.5	-50.0	15.8	0.00e+00	0	44	0	20971520	66	4828
2026-01-25 04:44:50.33	50.79	5.51	-47.7	-50.2	15.8	0.00e+00	0	44	0	23068672	66	4951
2026-01-25 04:44:51.34	50.71	5.57	-47.4	-49.8	16.1	0.00e+00	0	44	0	25165824	66	4728
2026-01-25 04:44:52.35	50.63	5.64	-47.6	-50.1	15.9	0.00e+00	0	44	0	26214400	66	4887
2026-01-25 04:44:53.35	50.54	5.70	-47.5	-49.9	16.1	0.00e+00	0	44	0	28311552	66	4799
2026-01-25 04:44:54.36	50.46	5.76	-47.6	-50.0	16.0	0.00e+00	0	44	0	30408704	66	4855
2026-01-25 04:44:55.37	50.38	5.82	-47.7	-50.2	15.8	0.00e+00	0	44	0	32505856	66	4967
2026-01-25 04:44:56.38	50.29	5.89	-47.5	-49.9	16.1	0.00e+00	0	44	0	34603008	66	4791
2026-01-25 04:44:57.39	50.21	5.95	-47.7	-50.1	15.9	0.00e+00	0	44	0	35651584	66	4908
2026-01-25 04:44:58.40	50.13	6.01	-47.6	-50.0	16.0	0.00e+00	0	44	0	37748736	66	4856
2026-01-25 04:44:59.41	50.04	6.08	-47.7	-50.2	15.8	0.00e+00	0	44	0	39845888	66	4944
2026-01-25 04:45:00.41	49.96	6.14	-47.2	-49.4	16.6	0.00e+00	0	44	0	41943040	66	4514
2026-01-25 04:45:01.42	49.87	6.20	-47.6	-49.9	16.1	0.00e+00	0	44	0	44040192	66	4812
2026-01-25 04:45:02.43	49.79	6.27	-47.5	-49.8	16.3	0.00e+00	0	44	0	46137344	66	4716
2026-01-25 04:45:03.44	49.70	6.33	-47.3	-49.6	16.5	0.00e+00	0	44	0	47185920	66	4612
2026-01-25 04:45:04.45	49.61	6.39	-47.4	-49.7	16.4	0.00e+00	0	44	0	49283072	66	4652
2026-01-25 04:45:05.46	49.53	6.46	-47.2	-49.3	16.8	0.00e+00	0	44	0	51380224	66	4473
2026-01-25 04:45:06.47	49.44	6.52	-47.3	-49.5	16.5	0.00e+00	0	44	0	53477376	66	4596
2026-01-25 04:45:07.47	49.35	6.58	-47.2	-49.4	16.7	0.00e+00	0	44	0	54525952	66	4518
2026-01-25 04:45:08.48	49.26	6.65	-47.5	-49.8	16.3	0.00e+00	0	44	0	56623104	66	4716
2026-01-25 04:45:09.49	49.17	6.71	-47.7	-50.1	16.0	0.00e+00	0	44	0	58720256	66	4889
2026-01-25 04:45:10.50	49.09	6.78	-47.3	-49.5	16.6	0.00e+00	0	44	0	60817408	66	4565
2026-01-25 04:45:11.51	49.00	6.84	-47.3	-49.5	16.6	0.00e+00	0	44	0	62914560	66	4562
2026-01-25 04:45:12.51	48.91	6.91	-47.6	-50.0	16.2	0.00e+00	0	44	0	63963136	66	4819
2026-01-25 04:45:13.52	48.82	6.97	-47.7	-50.1	16.1	0.00e+00	0	44	0	66060288	66	4884
2026-01-25 04:45:14.53	48.73	7.03	-47.3	-49.5	16.6	0.00e+00	0	44	0	68157440	66	4588
2026-01-25 04:45:15.54	48.64	7.10	-47.7	-50.1	16.1	0.00e+00	0	44	0	70254592	66	4893
2026-01-25 04:45:16.55	48.54	7.16	-47.5	-49.9	16.2	0.00e+00	0	44	0	72351744	66	4797
2026-01-25 04:45:17.56	48.45	7.23	-47.7	-50.2	16.0	0.00e+00	0	44	0	74448896	66	4934
2026-01-25 04:45:18.57	48.36	7.29	-47.7	-50.1	16.1	0.00e+00	0	44	0	75497472	66	4886
2026-01-25 04:45:19.57	48.27	7.36	-47.7	-50.2	16.0	0.00e+00	0	44	0	77594624	66	4940
2026-01-25 04:45:20.58	48.17	7.42	-47.8	-50.3	15.9	0.00e+00	0	44	0	79691776	66	5004
2026-01-25 04:45:21.59	48.08	7.49	-47.7	-50.2	16.0	0.00e+00	0	44	0	81788928	66	4967
2026-01-25 04:45:22.60	47.99	7.55	-47.6	-50.0	16.3	0.00e+00	0	44	0	82837504	66	4825
2026-01-25 04:45:23.60	47.89	7.62	-47.6	-50.1	16.1	0.00e+00	0	44	0	84934656	66	4876
2026-01-25 04:45:24.61	47.80	7.68	-47.6	-50.0	16.2	0.00e+00	0	44	0	87031808	66	4847
2026-01-25 04:45:25.62	47.70	7.75	-47.5	-49.9	16.3	0.00e+00	0	44	0	89128960	66	4783
2026-01-25 04:45:26.63	47.61	7.82	-47.3	-49.5	16.7	0.00e+00	0	44	0	91226112	66	4573
2026-01-25 04:45:27.64	47.51	7.88	-47.3	-49.5	16.6	0.00e+00	0	44	0	93323264	66	4577
2026-01-25 04:45:28.65	47.41	7.95	-47.3	-49.5	16.8	0.00e+00	0	44	0	94371840	66	4553
2026-01-25 04:45:29.66	47.32	8.01	-47.2	-49.3	16.9	0.00e+00	0	44	0	96468992	66	4478
2026-01-25 04:45:30.67	47.22	8.08	-47.2	-49.4	16.8	0.00e+00	0	44	0	98566144	66	4504
2026-01-25 04:45:31.67	47.12	8.15	-47.1	-49.2	17.0	0.00e+00	0	44	0	100663296	66	4428
2026-01-25 04:45:32.68	47.02	8.21	-47.1	-49.2	17.0	0.00e+00	0	44	0	102760448	65	4667
2026-01-25 04:45:33.69	46.92	8.28	-46.9	-49.0	17.2	0.00e+00	0	44	0	103809024	65	4561
2026-01-25 04:45:34.70	46.82	8.35	-46.9	-48.9	17.4	0.00e+00	0	45	0	105906176	65	4507
2026-01-25 04:45:35.71	46.72	8.41	-46.8	-48.7	17.5	0.00e+00	0	44	0	108003328	65	4436
2026-01-25 04:45:36.72	46.62	8.48	-46.7	-48.7	17.5	0.00e+00	0	44	0	110100480	65	4431
2026-01-25 04:45:37.73	46.52	8.55	-46.7	-48.6	17.6	0.00e+00	0	44	0	111149056	65	4382
2026-01-25 04:45:38.73	46.42	8.61	-46.8	-48.8	17.5	0.00e+00	0	44	0	113246208	65	4443
2026-01-25 04:45:39.74	46.32	8.68	-46.7	-48.7	17.6	0.00e+00	0	44	0	115343360	65	4416
2026-01-25 04:45:40.75	46.22	8.75	-46.6	-48.5	17.8	0.00e+00	0	44	0	117440512	65	4309
2026-01-25 04:45:41.76	46.12	8.81	-46.7	-48.7	17.6	0.00e+00	0	44	0	119537664	65	4406
2026-01-25 04:45:42.77	46.01	8.88	-46.5	-48.3	17.9	0.00e+00	0	44	0	121634816	65	4225
2026-01-25 04:45:43.78	45.91	8.95	-46.6	-48.5	17.7	0.00e+00	0	44	0	122683392	64	4597
2026-01-25 04:45:44.79	45.80	9.01	-46.6	-48.5	17.8	0.00e+00	0	44	0	124780544	64	4557
2026-01-25 04:45:45.79	45.70	9.08	-46.7	-48.7	17.6	0.00e+00	0	44	0	126877696	64	4661
2026-01-25 04:45:46.80	45.59	9.15	-46.5	-48.4	17.9	0.00e+00	0	44	0	128974848	64	4531
2026-01-25 04:45:47.81	45.49	9.22	-46.7	-48.6	17.7	0.00e+00	0	44	0	131072000	64	4623
2026-01-25 04:45:48.82	45.38	9.28	-46.7	-48.6	17.7	0.00e+00	0	44	0	132120576	64	4641
2026-01-25 04:45:49.83	45.28	9.35	-46.7	-48.6	17.7	0.00e+00	0	44	0	134217728	64	4633
2026-01-25 04:45:50.84	45.17	9.42	-46.8	-48.7	17.7	0.00e+00	0	44	0	136314880	64	4671
2026-01-25 04:45:51.85	45.06	9.49	-46.8	-48.8	17.5	0.00e+00	0	44	0	138412032	64	4735
2026-01-25 04:45:52.85	44.95	9.56	-46.8	-48.8	17.5	0.00e+00	0	45	0	140509184	64	4736
2026-01-25 04:45:53.86	44.84	9.62	-46.9	-48.9	17.5	0.00e+00	0	44	0	141557760	64	4760
2026-01-25 04:45:54.87	44.73	9.69	-47.0	-49.0	17.4	0.00e+00	0	45	0	143654912	64	4870
2026-01-25 04:45:55.88	44.62	9.76	-46.8	-48.7	17.6	0.00e+00	0	44	0	145752064	64	4683
2026-01-25 04:45:56.89	44.51	9.83	-46.6	-48.5	17.8	0.00e+00	0	44	0	147849216	64	4570
2026-01-25 04:45:57.89	44.40	9.90	-46.6	-48.4	17.9	0.00e+00	0	44	0	149946368	64	4545
2026-01-25 04:45:58.90	44.29	9.97	-46.7	-48.6	17.8	0.00e+00	0	44	0	150994944	64	4619
2026-01-25 04:45:59.91	44.18	10.03	-46.7	-48.6	17.8	0.00e+00	0	44	0	153092096	64	4607
2026-01-25 04:46:00.92	44.07	10.10	-46.8	-48.7	17.7	0.00e+00	0	44	0	155189248	64	4672
2026-01-25 04:46:01.92	43.96	10.17	-46.9	-48.9	17.6	0.00e+00	0	44	0	157286400	64	4765
2026-01-25 04:46:02.93	43.84	10.24	-46.9	-48.9	17.5	0.00e+00	0	44	0	159383552	64	4770
2026-01-25 04:46:03.94	43.73	10.31	-46.9	-48.9	17.6	0.00e+00	0	45	0	161480704	64	4768
2026-01-25 04:46:04.95	43.61	10.38	-47.0	-49.0	17.5	0.00e+00	0	44	0	162529280	64	4817
2026-01-25 04:46:05.96	43.50	10.45	-46.9	-48.8	17.7	0.00e+00	0	45	0	164626432	64	4739
2026-01-25 04:46:06.97	43.38	10.52	-46.7	-48.6	17.8	0.00e+00	0	45	0	166723584	64	4640
2026-01-25 04:46:07.97	43.27	10.59	-47.0	-48.9	17.5	0.00e+00	0	44	0	168820736	64	4808
2026-01-25 04:46:08.98	43.15	10.65	-47.1	-49.1	17.4	0.00e+00	0	44	0	169869312	64	4891
2026-01-25 04:46:09.99	43.03	10.72	-47.1	-49.1	17.3	0.00e+00	0	44	0	171966464	64	4888
2026-01-25 04:46:11.00	42.91	10.79	-46.8	-48.8	17.6	0.00e+00	0	44	0	174063616	64	4712
2026-01-25 04:46:12.01	42.79	10.86	-46.9	-48.9	17.6	0.00e+00	0	44	0	176160768	64	4769
2026-01-25 04:46:13.01	42.68	10.93	-47.1	-49.1	17.3	0.00e+00	0	44	0	178257920	64	4893
2026-01-25 04:46:14.02	42.56	11.00	-47.1	-49.0	17.5	0.00e+00	0	44	0	179306496	64	4864
2026-01-25 04:46:15.03	42.43	11.07	-46.7	-48.6	17.9	0.00e+00	0	45	0	181403648	64	4618
2026-01-25 04:46:16.04	42.31	11.14	-46.8	-48.6	17.8	0.00e+00	0	45	0	183500800	64	4651
2026-01-25 04:46:17.05	42.19	11.21	-46.8	-48.6	17.8	0.00e+00	0	44	0	185597952	64	4645
2026-01-25 04:46:18.06	42.07	11.28	-46.6	-48.5	18.0	0.00e+00	0	45	0	187695104	64	4546
2026-01-25 04:46:19.07	41.95	11.35	-46.6	-48.5	17.8	0.00e+00	0	44	0	189792256	64	4558
2026-01-25 04:46:20.07	41.82	11.42	-46.5	-48.3	18.1	0.00e+00	0	45	0	190840832	64	4490
2026-01-25 04:46:21.08	41.70	11.49	-46.4	-48.2	18.2	0.00e+00	0	45	0	192937984	64	4435
2026-01-25 04:46:22.09	41.58	11.56	-46.4	-48.1	18.3	0.00e+00	0	44	0	195035136	64	4376
2026-01-25 04:46:23.10	41.45	11.63	-46.3	-48.1	18.4	0.00e+00	0	44	0	197132288	64	4354
2026-01-25 04:46:24.11	41.32	11.70	-46.3	-48.1	18.3	0.00e+00	0	44	0	198180864	64	4370
2026-01-25 04:46:25.12	41.20	11.77	-46.2	-47.9	18.6	0.00e+00	0	45	0	200278016	64	4245
2026-01-25 04:46:26.13	41.07	11.84	-46.1	-47.8	18.7	0.00e+00	0	45	0	202375168	64	4206
2026-01-25 04:46:27.14	40.94	11.92	-46.1	-47.8	18.7	0.00e+00	0	45	0	204472320	64	4215
2026-01-25 04:46:28.15	40.81	11.99	-46.1	-47.8	18.7	0.00e+00	0	45	0	206569472	64	4217
2026-01-25 04:46:29.15	40.69	12.06	-46.2	-47.9	18.6	0.00e+00	0	45	0	208666624	63	4528
2026-01-25 04:46:30.16	40.56	12.13	-46.1	-47.8	18.7	0.00e+00	0	45	0	209715200	63	4464
2026-01-25 04:46:31.17	40.42	12.20	-46.1	-47.8	18.8	0.00e+00	0	45	0	211812352	63	4478
2026-01-25 04:46:32.18	40.29	12.27	-46.1	-47.7	18.9	0.00e+00	0	45	0	213909504	63	4416
2026-01-25 04:46:33.19	40.16	12.34	-46.1	-47.7	18.8	0.00e+00	0	44	0	216006656	63	4423
2026-01-25 04:46:34.19	40.03	12.41	-46.1	-47.7	18.9	0.00e+00	0	44	0	218103808	63	4432
2026-01-25 04:46:35.20	39.90	12.48	-46.1	-47.7	18.8	0.00e+00	0	44	0	219152384	63	4441
2026-01-25 04:46:36.21	39.76	12.55	-46.0	-47.6	19.0	0.00e+00	0	44	0	221249536	63	4374
2026-01-25 04:46:37.22	39.63	12.62	-46.1	-47.7	18.8	0.00e+00	0	45	0	223346688	63	4425
2026-01-25 04:46:38.23	39.49	12.70	-46.0	-47.6	18.9	0.00e+00	0	45	0	225443840	63	4368
2026-01-25 04:46:39.23	39.36	12.77	-45.9	-47.5	19.1	0.00e+00	0	45	0	227540992	63	4305
2026-01-25 04:46:40.24	39.22	12.84	-45.8	-47.4	19.2	0.00e+00	0	45	0	228589568	63	4243
2026-01-25 04:46:41.25	39.09	12.91	-46.0	-47.7	18.9	0.00e+00	0	44	0	230686720	63	4399
2026-01-25 04:46:42.26	38.95	12.98	-46.0	-47.6	19.0	0.00e+00	0	44	0	232783872	63	4350
2026-01-25 04:46:43.27	38.81	13.05	-45.9	-47.4	19.1	0.00e+00	0	45	0	234881024	63	4287
2026-01-25 04:46:44.27	38.67	13.12	-46.1	-47.7	18.9	0.00e+00	0	45	0	236978176	63	4423
2026-01-25 04:46:45.28	38.53	13.19	-45.9	-47.5	19.0	0.00e+00	0	45	0	238026752	63	4322
2026-01-25 04:46:46.29	38.39	13.27	-46.0	-47.6	19.0	0.00e+00	0	45	0	240123904	63	4368
2026-01-25 04:46:47.30	38.25	13.34	-45.9	-47.6	19.0	0.00e+00	0	45	0	242221056	63	4347
2026-01-25 04:46:48.31	38.11	13.41	-45.9	-47.5	19.1	0.00e+00	0	45	0	244318208	63	4304
2026-01-25 04:46:49.32	37.97	13.48	-45.8	-47.4	19.1	0.00e+00	0	45	0	246415360	63	4285
2026-01-25 04:46:50.33	37.82	13.55	-45.8	-47.4	19.2	0.00e+00	0	45	0	247463936	63	4265
2026-01-25 04:46:51.34	37.68	13.62	-45.9	-47.5	19.0	0.00e+00	0	44	0	249561088	63	4325
2026-01-25 04:46:52.35	37.54	13.70	-45.9	-47.5	19.0	0.00e+00	0	45	0	251658240	63	4325
2026-01-25 04:46:53.35	37.39	13.77	-45.9	-47.6	19.0	0.00e+00	0	45	0	253755392	63	4351
2026-01-25 04:46:54.36	37.25	13.84	-45.9	-47.5	19.0	0.00e+00	0	44	0	255852544	63	4333
2026-01-25 04:46:55.37	37.10	13.91	-45.9	-47.6	19.0	0.00e+00	0	45	0	256901120	63	4343
2026-01-25 04:46:56.38	36.95	13.98	-46.0	-47.6	18.9	0.00e+00	0	45	0	258998272	63	4370
2026-01-25 04:46:57.39	36.80	14.05	-46.0	-47.7	18.8	0.00e+00	0	45	0	261095424	63	4424
2026-01-25 04:46:58.39	36.65	14.13	-46.0	-47.7	18.8	0.00e+00	0	45	0	263192576	63	4427
2026-01-25 04:46:59.40	36.50	14.20	-46.2	-47.9	18.7	0.00e+00	0	45	0	265289728	63	4517
2026-01-25 04:47:00.41	36.35	14.27	-46.3	-48.0	18.6	0.00e+00	0	45	0	266338304	63	4572
2026-01-25 04:47:01.42	36.20	14.34	-46.1	-47.7	18.9	0.00e+00	0	45	0	268435456	63	4435
2026-01-25 04:47:02.43	36.05	14.41	-46.4	-48.2	18.4	0.00e+00	0	45	0	270532608	63	4664
2026-01-25 04:47:03.44	35.90	14.49	-46.4	-48.1	18.4	0.00e+00	0	45	0	272629760	63	4651
2026-01-25 04:47:04.45	35.74	14.56	-46.2	-48.0	18.6	0.00e+00	0	45	0	274726912	63	4552
2026-01-25 04:47:05.46	35.59	14.63	-46.4	-48.1	18.5	0.00e+00	0	45	0	275775488	63	4641
2026-01-25 04:47:06.47	35.44	14.70	-46.3	-48.0	18.6	0.00e+00	0	45	0	277872640	63	4581
2026-01-25 04:47:07.47	35.28	14.77	-46.3	-48.0	18.6	0.00e+00	0	45	0	279969792	63	4548
2026-01-25 04:47:08.48	35.12	14.85	-46.3	-48.0	18.7	0.00e+00	0	44	0	282066944	63	4554
2026-01-25 04:47:09.49	34.97	14.92	-46.3	-48.0	18.7	0.00e+00	0	45	0	284164096	63	4550
2026-01-25 04:47:10.50	34.81	14.99	-46.2	-47.9	18.8	0.00e+00	0	45	0	285212672	63	4504
2026-01-25 04:47:11.51	34.65	15.06	-46.2	-47.9	18.7	0.00e+00	0	45	0	287309824	63	4509
2026-01-25 04:47:12.51	34.49	15.13	-46.2	-47.9	18.7	0.00e+00	0	44	0	289406976	63	4500
2026-01-25 04:47:13.52	34.33	15.20	-46.3	-48.0	18.7	0.00e+00	0	44	0	291504128	63	4556
2026-01-25 04:47:14.53	34.17	15.28	-46.4	-48.1	18.6	0.00e+00	0	45	0	293601280	63	4614
2026-01-25 04:47:15.54	34.01	15.35	-46.3	-48.0	18.6	0.00e+00	0	45	0	295698432	63	4572
2026-01-25 04:47:16.55	33.85	15.42	-46.5	-48.3	18.3	0.00e+00	0	44	0	296747008	63	4743
2026-01-25 04:47:17.55	33.68	15.49	-46.6	-48.4	18.1	0.00e+00	0	44	0	298844160	64	4542
2026-01-25 04:47:18.56	33.52	15.56	-46.8	-48.7	17.9	0.00e+00	0	44	0	300941312	64	4669
2026-01-25 04:47:19.57	33.35	15.64	-47.0	-49.1	17.6	0.00e+00	0	45	0	303038464	64	4885
2026-01-25 04:47:20.58	33.19	15.71	-46.7	-48.6	17.9	0.00e+00	0	44	0	304087040	64	4629
2026-01-25 04:47:21.59	33.02	15.78	-46.7	-48.5	18.0	0.00e+00	0	44	0	306184192	64	4576
2026-01-25 04:47:22.59	32.85	15.85	-46.7	-48.5	18.1	0.00e+00	0	45	0	308281344	64	4585
2026-01-25 04:47:23.60	32.69	15.92	-46.5	-48.2	18.3	0.00e+00	0	44	0	310378496	64	4428
2026-01-25 04:47:24.61	32.52	15.99	-46.4	-48.1	18.4	0.00e+00	0	45	0	312475648	64	4361
2026-01-25 04:47:25.62	32.35	16.07	-46.4	-48.2	18.4	0.00e+00	0	45	0	313524224	64	4426
2026-01-25 04:47:26.63	32.18	16.14	-46.5	-48.3	18.2	0.00e+00	0	45	0	315621376	64	4483
2026-01-25 04:47:27.64	32.00	16.21	-46.2	-47.9	18.5	0.00e+00	0	45	0	317718528	64	4271
2026-01-25 04:47:28.65	31.83	16.28	-46.2	-47.9	18.6	0.00e+00	0	44	0	319815680	64	4288
2026-01-25 04:47:29.66	31.66	16.35	-46.2	-47.9	18.7	0.00e+00	0	45	0	321912832	64	4267
2026-01-25 04:47:30.66	31.48	16.42	-46.1	-47.8	18.7	0.00e+00	0	44	0	324009984	64	4227
2026-01-25 04:47:31.67	31.31	16.49	-46.2	-47.9	18.7	0.00e+00	0	45	0	325058560	64	4272
2026-01-25 04:47:32.68	31.13	16.56	-46.4	-48.2	18.4	0.00e+00	0	45	0	327155712	64	4397
2026-01-25 04:47:33.69	30.96	16.63	-46.2	-47.9	18.5	0.00e+00	0	44	0	329252864	64	4274
2026-01-25 04:47:34.70	30.78	16.71	-46.2	-48.0	18.6	0.00e+00	0	44	0	331350016	64	4293
2026-01-25 04:47:35.71	30.60	16.78	-46.0	-47.5	19.1	0.00e+00	0	45	0	332398592	63	4340
2026-01-25 04:47:36.72	30.42	16.85	-46.1	-47.7	19.0	0.00e+00	0	45	0	334495744	63	4405
2026-01-25 04:47:37.73	30.24	16.92	-46.1	-47.7	18.9	0.00e+00	0	45	0	336592896	63	4424
2026-01-25 04:47:38.73	30.06	16.99	-46.3	-48.0	18.7	0.00e+00	0	45	0	338690048	63	4550
2026-01-25 04:47:39.74	29.88	17.06	-46.3	-48.0	18.6	0.00e+00	0	44	0	340787200	63	4596
2026-01-25 04:47:40.75	29.70	17.13	-46.5	-48.3	18.3	0.00e+00	0	45	0	342884352	63	4726
2026-01-25 04:47:41.76	29.51	17.20	-46.4	-48.2	18.5	0.00e+00	0	45	0	343932928	63	4654
2026-01-25 04:47:42.77	29.33	17.27	-46.4	-48.1	18.5	0.00e+00	0	45	0	346030080	63	4633
2026-01-25 04:47:43.77	29.14	17.34	-46.4	-48.2	18.5	0.00e+00	0	44	0	348127232	63	4676
2026-01-25 04:47:44.78	28.96	17.41	-46.6	-48.4	18.3	0.00e+00	0	45	0	350224384	63	4778
2026-01-25 04:47:45.79	28.77	17.48	-46.4	-48.2	18.5	0.00e+00	0	45	0	352321536	63	4663
2026-01-25 04:47:46.80	28.58	17.55	-46.6	-48.4	18.3	0.00e+00	0	45	0	353370112	63	4770
2026-01-25 04:47:47.81	28.39	17.62	-46.5	-48.3	18.4	0.00e+00	0	45	0	355467264	64	4443
2026-01-25 04:47:48.82	28.20	17.69	-46.3	-48.0	18.6	0.00e+00	0	45	0	357564416	64	4313
2026-01-25 04:47:49.83	28.01	17.76	-46.0	-47.6	19.0	0.00e+00	0	45	0	359661568	63	4387
2026-01-25 04:47:50.84	27.82	17.83	-45.8	-47.4	19.3	0.00e+00	0	44	0	361758720	63	4255
2026-01-25 04:47:51.85	27.63	17.90	-45.7	-47.2	19.5	0.00e+00	0	44	0	362807296	63	4167
2026-01-25 04:47:52.85	27.44	17.97	-45.5	-47.0	19.6	0.00e+00	0	45	0	364904448	63	4090
2026-01-25 04:47:53.86	27.24	18.03	-45.5	-46.9	19.7	0.00e+00	0	44	0	367001600	62	4285
2026-01-25 04:47:54.87	27.05	18.10	-45.8	-47.3	19.3	0.00e+00	0	44	0	369098752	62	4490
2026-01-25 04:47:55.88	26.85	18.17	-45.6	-47.2	19.5	0.00e+00	0	44	0	371195904	62	4394
2026-01-25 04:47:56.89	26.65	18.24	-45.7	-47.2	19.5	0.00e+00	0	45	0	372244480	62	4433
2026-01-25 04:47:57.90	26.46	18.31	-45.7	-47.3	19.4	0.00e+00	0	45	0	374341632	62	4447
2026-01-25 04:47:58.91	26.26	18.38	-45.5	-47.0	19.6	0.00e+00	0	45	0	376438784	62	4310
2026-01-25 04:47:59.91	26.06	18.44	-45.5	-47.0	19.6	0.00e+00	0	44	0	378535936	62	4310
2026-01-25 04:48:00.92	25.86	18.51	-45.5	-47.1	19.5	0.00e+00	0	45	0	380633088	62	4360
2026-01-25 04:48:01.93	25.66	18.58	-45.5	-47.1	19.6	0.00e+00	0	44	0	382730240	62	4356
2026-01-25 04:48:02.94	25.46	18.65	-45.3	-46.8	19.8	0.00e+00	0	44	0	383778816	62	4226
2026-01-25 04:48:03.95	25.25	18.71	-45.2	-46.6	19.9	0.00e+00	0	44	0	385875968	62	4135
2026-01-25 04:48:04.96	25.05	18.78	-45.0	-46.4	20.2	0.00e+00	0	45	0	387973120	61	4246
2026-01-25 04:48:05.97	24.84	18.85	-44.8	-46.1	20.4	0.00e+00	0	45	0	390070272	61	4142
2026-01-25 04:48:06.97	24.64	18.91	-44.8	-46.1	20.5	0.00e+00	0	44	0	391118848	61	4124
2026-01-25 04:48:07.98	24.43	18.98	-44.5	-45.8	20.7	0.00e+00	0	45	0	393216000	61	3999
2026-01-25 04:48:08.99	24.22	19.05	-44.8	-46.2	20.4	0.00e+00	0	45	0	395313152	61	4177
2026-01-25 04:48:10.00	24.01	19.11	-44.9	-46.3	20.2	0.00e+00	0	44	0	397410304	61	4208
2026-01-25 04:48:11.01	23.81	19.18	-44.7	-46.1	20.4	0.00e+00	0	44	0	399507456	61	4130
2026-01-25 04:48:12.01	23.60	19.24	-44.7	-46.1	20.5	0.00e+00	0	45	0	400556032	61	4122
2026-01-25 04:48:13.02	23.39	19.31	-44.8	-46.1	20.4	0.00e+00	0	44	0	402653184	61	4143
2026-01-25 04:48:14.03	23.17	19.37	-44.7	-46.0	20.5	0.00e+00	0	44	0	404750336	61	4081
2026-01-25 04:48:15.04	22.96	19.44	-44.6	-46.0	20.6	0.00e+00	0	45	0	406847488	61	4060
2026-01-25 04:48:16.05	22.74	19.50	-44.5	-45.8	20.7	0.00e+00	0	45	0	408944640	61	3997
2026-01-25 04:48:17.06	22.53	19.57	-44.4	-45.7	20.8	0.00e+00	0	45	0	411041792	60	4185
2026-01-25 04:48:18.07	22.31	19.63	-44.4	-45.7	20.8	0.00e+00	0	44	0	412090368	60	4167
2026-01-25 04:48:19.08	22.10	19.69	-44.3	-45.6	20.9	0.00e+00	0	44	0	414187520	60	4122
2026-01-25 04:48:20.08	21.88	19.76	-44.3	-45.6	20.9	0.00e+00	0	44	0	416284672	60	4118
2026-01-25 04:48:21.09	21.66	19.82	-44.3	-45.6	20.9	0.00e+00	0	45	0	418381824	60	4117
2026-01-25 04:48:22.10	21.44	19.88	-44.4	-45.7	20.9	0.00e+00	0	45	0	419430400	60	4147
2026-01-25 04:48:23.11	21.22	19.94	-44.4	-45.6	20.8	0.00e+00	0	45	0	421527552	60	4138
2026-01-25 04:48:24.12	21.00	20.01	-44.4	-45.7	20.8	0.00e+00	0	45	0	423624704	60	4181
2026-01-25 04:48:25.13	20.78	20.07	-44.5	-45.9	20.7	0.00e+00	0	44	0	425721856	60	4245
2026-01-25 04:48:26.13	20.56	20.13	-44.6	-46.0	20.5	0.00e+00	0	45	0	427819008	60	4300
2026-01-25 04:48:27.14	20.33	20.19	-44.7	-46.1	20.4	0.00e+00	0	44	0	429916160	60	4386
2026-01-25 04:48:28.15	20.11	20.25	-44.8	-46.2	20.4	0.00e+00	0	45	0	430964736	60	4413
2026-01-25 04:48:29.16	19.88	20.31	-44.7	-46.0	20.6	0.00e+00	0	44	0	433061888	60	4321
2026-01-25 04:48:30.17	19.65	20.37	-44.3	-45.6	21.0	0.00e+00	0	44	0	435159040	60	4102
2026-01-25 04:48:31.18	19.43	20.43	-44.3	-45.5	21.0	0.00e+00	0	44	0	437256192	60	4089
2026-01-25 04:48:32.19	19.20	20.49	-44.2	-45.5	21.1	0.00e+00	0	44	0	439353344	60	4053
2026-01-25 04:48:33.19	18.97	20.55	-44.2	-45.4	21.1	0.00e+00	0	45	0	440401920	60	4051
2026-01-25 04:48:34.20	18.74	20.61	-44.2	-45.5	21.1	0.00e+00	0	44	0	442499072	60	4083
2026-01-25 04:48:35.21	18.51	20.67	-44.2	-45.4	21.1	0.00e+00	0	45	0	444596224	60	4032
2026-01-25 04:48:36.22	18.27	20.73	-44.3	-45.6	21.3	0.00e+00	0	44	0	446693376	59	4349
2026-01-25 04:48:37.23	18.04	20.79	-44.3	-45.5	21.4	0.00e+00	0	45	0	447741952	59	4322
2026-01-25 04:48:38.24	17.81	20.84	-44.3	-45.6	21.3	0.00e+00	0	44	0	449839104	59	4351
2026-01-25 04:48:39.25	17.57	20.90	-44.4	-45.7	21.2	0.00e+00	0	45	0	451936256	59	4394
2026-01-25 04:48:40.25	17.34	20.96	-44.3	-45.5	21.4	0.00e+00	0	45	0	454033408	59	4303
2026-01-25 04:48:41.26	17.10	21.01	-44.3	-45.5	21.4	0.00e+00	0	45	0	456130560	59	4305
2026-01-25 04:48:42.27	16.86	21.07	-44.0	-45.2	21.6	0.00e+00	0	44	0	458227712	59	4177
2026-01-25 04:48:43.28	16.63	21.13	-44.0	-45.1	21.7	0.00e+00	0	45	0	459276288	59	4138
2026-01-25 04:48:44.29	16.39	21.18	-44.2	-45.3	21.5	0.00e+00	0	44	0	461373440	59	4240
2026-01-25 04:48:45.30	16.15	21.24	-44.1	-45.3	21.5	0.00e+00	0	45	0	463470592	59	4231
2026-01-25 04:48:46.31	15.91	21.29	-44.3	-45.5	21.4	0.00e+00	0	45	0	465567744	59	4300
2026-01-25 04:48:47.31	15.67	21.34	-44.3	-45.5	21.3	0.00e+00	0	44	0	467664896	59	4338
2026-01-25 04:48:48.32	15.42	21.40	-44.2	-45.3	21.5	0.00e+00	0	44	0	468713472	59	4231
2026-01-25 04:48:49.33	15.18	21.45	-44.0	-45.1	21.7	0.00e+00	0	44	0	470810624	59	4140
2026-01-25 04:48:50.34	14.93	21.50	-43.8	-44.9	21.9	0.00e+00	0	45	0	472907776	59	4044
2026-01-25 04:48:51.35	14.69	21.55	-44.1	-45.2	21.6	0.00e+00	0	45	0	475004928	59	4184
2026-01-25 04:48:52.36	14.44	21.61	-44.4	-45.6	21.3	0.00e+00	0	44	0	477102080	59	4363
2026-01-25 04:48:53.37	14.20	21.66	-44.3	-45.5	21.4	0.00e+00	0	45	0	478150656	59	4340
2026-01-25 04:48:54.38	13.95	21.71	-44.4	-45.6	21.4	0.00e+00	0	44	0	480247808	59	4361
2026-01-25 04:48:55.39	13.70	21.76	-44.4	-45.6	21.3	0.00e+00	0	44	0	482344960	59	4358
2026-01-25 04:48:56.39	13.45	21.81	-44.2	-45.4	21.5	0.00e+00	0	45	0	484442112	59	4254
2026-01-25 04:48:57.40	13.20	21.86	-44.3	-45.5	21.5	0.00e+00	0	44	0	486539264	59	4293
2026-01-25 04:48:58.41	12.95	21.91	-44.5	-45.8	21.2	0.00e+00	0	45	0	487587840	59	4451
2026-01-25 04:48:59.42	12.70	21.96	-44.5	-45.8	21.2	0.00e+00	0	45	0	489684992	59	4447
2026-01-25 04:49:00.43	12.45	22.00	-44.5	-45.7	21.2	0.00e+00	0	44	0	491782144	59	4425
2026-01-25 04:49:01.43	12.20	22.05	-44.3	-45.5	21.4	0.00e+00	0	45	0	493879296	59	4293
2026-01-25 04:49:02.44	11.94	22.10	-44.1	-45.3	21.6	0.00e+00	0	45	0	495976448	59	4213
2026-01-25 04:49:03.45	11.69	22.14	-44.2	-45.4	21.5	0.00e+00	0	44	0	497025024	59	4267
2026-01-25 04:49:04.46	11.43	22.19	-44.2	-45.4	21.5	0.00e+00	0	44	0	499122176	59	4287
2026-01-25 04:49:05.46	11.18	22.23	-44.3	-45.6	21.4	0.00e+00	0	44	0	501219328	59	4343
2026-01-25 04:49:06.47	10.92	22.28	-44.4	-45.6	21.3	0.00e+00	0	44	0	503316480	59	4360
2026-01-25 04:49:07.48	10.66	22.32	-44.2	-45.4	21.5	0.00e+00	0	44	0	505413632	59	4259
2026-01-25 04:49:08.49	10.40	22.37	-43.9	-45.1	21.8	0.00e+00	0	44	0	506462208	59	4104
2026-01-25 04:49:09.50	10.14	22.41	-43.8	-45.0	21.9	0.00e+00	0	44	0	508559360	59	4060
2026-01-25 04:49:10.51	9.88	22.45	-43.9	-45.1	21.8	0.00e+00	0	44	0	510656512	59	4113
2026-01-25 04:49:11.51	9.62	22.49	-44.2	-45.4	21.6	0.00e+00	0	44	0	512753664	59	4262
2026-01-25 04:49:12.52	9.36	22.54	-44.3	-45.5	21.5	0.00e+00	0	44	0	514850816	59	4335
2026-01-25 04:49:13.53	9.10	22.58	-44.1	-45.3	21.6	0.00e+00	0	45	0	515899392	59	4204
2026-01-25 04:49:14.54	8.84	22.62	-43.9	-45.1	21.8	0.00e+00	0	44	0	517996544	59	4111
2026-01-25 04:49:15.55	8.57	22.66	-43.7	-44.8	22.0	0.00e+00	0	44	0	520093696	59	3987
2026-01-25 04:49:16.55	8.31	22.69	-43.8	-44.9	22.0	0.00e+00	0	44	0	522190848	59	4026
2026-01-25 04:49:17.56	8.05	22.73	-44.1	-45.3	21.7	0.00e+00	0	45	0	524288000	59	4202
2026-01-25 04:49:18.57	7.78	22.77	-44.5	-45.7	21.3	0.00e+00	0	44	0	525336576	59	4410
2026-01-25 04:49:19.58	7.52	22.81	-44.5	-45.7	21.0	0.00e+00	0	45	0	527433728	60	4192
2026-01-25 04:49:20.59	7.25	22.84	-44.3	-45.5	21.1	0.00e+00	0	44	0	529530880	60	4097
2026-01-25 04:49:21.60	6.98	22.88	-44.4	-45.6	21.1	0.00e+00	0	44	0	531628032	60	4099
2026-01-25 04:49:22.61	6.71	22.92	-44.5	-45.8	20.9	0.00e+00	0	44	0	533725184	60	4204
2026-01-25 04:49:23.62	6.44	22.95	-45.1	-46.4	20.4	0.00e+00	0	44	0	534773760	60	4537
2026-01-25 04:49:24.63	6.17	22.99	-45.6	-47.1	19.8	0.00e+00	0	45	0	536870912	61	4633
2026-01-25 04:49:25.63	5.91	23.02	-46.1	-47.8	19.2	0.00e+00	0	44	0	538968064	62	4718
2026-01-25 04:49:26.64	5.64	23.05	-45.9	-47.5	19.4	0.00e+00	0	44	0	541065216	62	4563
2026-01-25 04:49:27.65	5.37	23.08	-45.7	-47.2	19.7	0.00e+00	0	44	0	543162368	62	4406
2026-01-25 04:49:28.66	5.09	23.11	-45.6	-47.0	19.8	0.00e+00	0	44	0	545259520	62	4323
2026-01-25 04:49:29.67	4.82	23.15	-45.5	-46.9	19.9	0.00e+00	0	44	0	546308096	62	4261
2026-01-25 04:49:30.67	4.55	23.18	-45.4	-46.9	19.9	0.00e+00	0	44	0	548405248	62	4244
2026-01-25 04:49:31.68	4.28	23.21	-45.4	-46.8	20.0	0.00e+00	0	44	0	550502400	62	4227
2026-01-25 04:49:32.69	4.00	23.23	-45.4	-46.8	20.1	0.00e+00	0	44	0	552599552	62	4200
2026-01-25 04:49:33.70	3.73	23.26	-45.1	-46.4	20.4	0.00e+00	0	45	0	553648128	62	4032
2026-01-25 04:49:34.71	3.46	23.29	-44.9	-46.2	20.5	0.00e+00	0	44	0	555745280	61	4184
2026-01-25 04:49:35.71	3.18	23.32	-44.8	-46.1	20.6	0.00e+00	0	44	0	557842432	61	4142
2026-01-25 04:49:36.72	2.91	23.34	-44.9	-46.2	20.5	0.00e+00	0	44	0	559939584	61	4175
2026-01-25 04:49:37.73	2.63	23.37	-45.1	-46.5	20.3	0.00e+00	0	44	0	562036736	61	4292
2026-01-25 04:49:38.74	2.35	23.39	-45.2	-46.6	20.2	0.00e+00	0	44	0	564133888	61	4382
2026-01-25 04:49:39.75	2.08	23.42	-45.2	-46.6	20.2	0.00e+00	0	44	0	565182464	61	4353
2026-01-25 04:49:40.76	1.80	23.44	-45.1	-46.5	20.3	0.00e+00	0	44	0	567279616	61	4298
2026-01-25 04:49:41.77	1.52	23.46	-45.0	-46.4	20.4	0.00e+00	0	45	0	569376768	61	4264
2026-01-25 04:49:42.77	1.25	23.48	-45.3	-46.7	20.1	0.00e+00	0	44	0	571473920	61	4409
2026-01-25 04:49:43.78	0.97	23.51	-45.5	-47.0	19.8	0.00e+00	0	44	0	573571072	61	4575
2026-01-25 04:49:44.79	0.69	23.53	-45.8	-47.3	19.5	0.00e+00	0	44	0	574619648	62	4461
2026-01-25 04:49:45.80	0.41	23.55	-45.9	-47.4	19.4	0.00e+00	0	44	0	576716800	62	4529
2026-01-25 04:49:46.81	0.13	23.57	-45.7	-47.2	19.6	0.00e+00	0	44	0	578813952	62	4405
2026-01-25 04:49:47.82	359.85	23.58	-45.7	-47.2	19.7	0.00e+00	0	44	0	580911104	62	4400
2026-01-25 04:49:48.83	359.57	23.60	-45.7	-47.2	19.6	0.00e+00	0	44	0	581959680	62	4399
2026-01-25 04:49:49.83	359.29	23.62	-45.9	-47.5	19.4	0.00e+00	0	44	0	584056832	62	4554
2026-01-25 04:49:50.84	359.01	23.63	-46.2	-47.9	19.0	0.00e+00	0	44	0	586153984	63	4501
2026-01-25 04:49:51.85	358.73	23.65	-46.4	-48.1	18.8	0.00e+00	0	44	0	588251136	63	4632
2026-01-25 04:49:52.86	358.45	23.66	-46.4	-48.1	18.8	0.00e+00	0	44	0	590348288	63	4643
2026-01-25 04:49:53.87	358.16	23.68	-46.3	-47.9	19.0	0.00e+00	0	44	0	592445440	63	4537
2026-01-25 04:49:54.87	357.89	23.69	-45.8	-47.3	19.5	0.00e+00	0	44	0	593494016	63	4242
2026-01-25 04:49:55.88	357.60	23.70	-45.5	-47.0	19.9	0.00e+00	0	44	0	595591168	63	4063
2026-01-25 04:49:56.89	357.32	23.72	-46.0	-47.5	19.4	0.00e+00	0	44	0	597688320	63	4329
2026-01-25 04:49:57.90	357.04	23.73	-46.2	-47.8	19.1	0.00e+00	0	44	0	599785472	63	4490
2026-01-25 04:49:58.91	356.75	23.74	-46.6	-48.3	18.6	0.00e+00	0	44	0	601882624	63	4749
2026-01-25 04:49:59.92	356.47	23.75	-46.5	-48.3	18.6	0.00e+00	0	44	0	602931200	64	4465
2026-01-25 04:50:00.93	356.19	23.76	-46.7	-48.5	18.3	0.00e+00	0	44	0	605028352	64	4570
2026-01-25 04:50:01.94	355.90	23.76	-46.8	-48.6	18.2	0.00e+00	0	45	0	607125504	64	4637
2026-01-25 04:50:02.95	355.62	23.77	-46.4	-48.1	18.7	0.00e+00	0	44	0	609222656	64	4370
2026-01-25 04:50:03.95	355.34	23.78	-46.5	-48.2	18.6	0.00e+00	0	44	0	611319808	64	4436
2026-01-25 04:50:04.96	355.06	23.78	-46.1	-47.8	19.0	0.00e+00	0	44	0	612368384	64	4201
2026-01-25 04:50:05.97	354.77	23.79	-45.8	-47.4	19.4	0.00e+00	0	44	0	614465536	63	4256
2026-01-25 04:50:06.98	354.49	23.79	-45.6	-47.1	19.6	0.00e+00	0	44	0	616562688	63	4122
2026-01-25 04:50:07.99	354.20	23.79	-45.3	-46.7	20.0	0.00e+00	0	44	0	618659840	62	4152
2026-01-25 04:50:09.00	353.92	23.80	-45.0	-46.4	20.2	0.00e+00	0	44	0	620756992	62	4027
2026-01-25 04:50:10.01	353.64	23.80	-45.0	-46.3	20.4	0.00e+00	0	44	0	621805568	61	4241
2026-01-25 04:50:11.01	353.35	23.80	-45.1	-46.5	20.2	0.00e+00	0	44	0	623902720	61	4320
2026-01-25 04:50:12.02	353.07	23.80	-45.4	-46.9	19.9	0.00e+00	0	44	0	625999872	61	4494
2026-01-25 04:50:13.03	352.79	23.80	-45.5	-47.0	19.8	0.00e+00	0	44	0	628097024	61	4558
2026-01-25 04:50:14.04	352.50	23.80	-45.8	-47.3	19.5	0.00e+00	0	44	0	630194176	62	4484
2026-01-25 04:50:15.05	352.22	23.80	-45.8	-47.4	19.4	0.00e+00	0	44	0	632291328	62	4503
2026-01-25 04:50:16.05	351.94	23.79	-45.6	-47.1	19.7	0.00e+00	0	44	0	633339904	62	4355
2026-01-25 04:50:17.06	351.65	23.79	-45.5	-46.9	19.9	0.00e+00	0	44	0	635437056	62	4282
2026-01-25 04:50:18.07	351.37	23.79	-45.2	-46.6	20.1	0.00e+00	0	44	0	637534208	62	4119
2026-01-25 04:50:19.08	351.08	23.78	-45.0	-46.3	20.4	0.00e+00	0	44	0	639631360	61	4239
2026-01-25 04:50:20.09	350.80	23.78	-45.0	-46.3	20.4	0.00e+00	0	44	0	640679936	61	4242
2026-01-25 04:50:21.10	350.52	23.77	-44.9	-46.2	20.5	0.00e+00	0	44	0	642777088	61	4162
2026-01-25 04:50:22.11	350.23	23.76	-44.9	-46.3	20.4	0.00e+00	0	44	0	644874240	61	4209
2026-01-25 04:50:23.11	349.95	23.75	-44.8	-46.2	20.5	0.00e+00	0	44	0	646971392	61	4158
2026-01-25 04:50:24.12	349.67	23.75	-45.0	-46.3	20.4	0.00e+00	0	44	0	649068544	61	4223
2026-01-25 04:50:25.13	349.39	23.74	-44.9	-46.3	20.4	0.00e+00	0	44	0	651165696	61	4209
2026-01-25 04:50:26.14	349.10	23.73	-44.9	-46.2	20.5	0.00e+00	0	44	0	652214272	61	4190
2026-01-25 04:50:27.15	348.82	23.71	-44.5	-45.8	20.9	0.00e+00	0	44	0	654311424	61	3969
2026-01-25 04:50:28.16	348.54	23.70	-44.2	-45.4	21.3	0.00e+00	0	44	0	656408576	60	4013
2026-01-25 04:50:29.17	348.26	23.69	-44.0	-45.1	21.5	0.00e+00	0	44	0	658505728	60	3907
2026-01-25 04:50:30.18	347.97	23.68	-44.4	-45.6	21.1	0.00e+00	0	44	0	660602880	60	4137
2026-01-25 04:50:31.19	347.69	23.66	-44.7	-46.0	20.7	0.00e+00	0	44	0	661651456	60	4338
2026-01-25 04:50:32.19	347.41	23.65	-44.9	-46.2	20.5	0.00e+00	0	44	0	663748608	60	4438
2026-01-25 04:50:33.20	347.13	23.63	-44.7	-45.9	20.8	0.00e+00	0	44	0	665845760	60	4283
2026-01-25 04:50:34.21	346.85	23.62	-44.5	-45.7	21.1	0.00e+00	0	44	0	667942912	60	4176
2026-01-25 04:50:35.22	346.57	23.60	-44.1	-45.2	21.4	0.00e+00	0	44	0	668991488	60	3952
2026-01-25 04:50:36.23	346.29	23.58	-44.3	-45.5	21.5	0.00e+00	0	44	0	671088640	59	4325
2026-01-25 04:50:37.24	346.01	23.56	-44.3	-45.5	21.5	0.00e+00	0	44	0	673185792	59	4304
2026-01-25 04:50:38.24	345.73	23.54	-44.4	-45.6	21.5	0.00e+00	0	44	0	675282944	59	4353
2026-01-25 04:50:39.25	345.45	23.52	-44.4	-45.5	21.5	0.00e+00	0	44	0	677380096	59	4337
2026-01-25 04:50:40.26	345.17	23.50	-44.2	-45.3	21.7	0.00e+00	0	44	0	679477248	59	4220
2026-01-25 04:50:41.27	344.89	23.48	-44.2	-45.3	21.7	0.00e+00	0	44	0	680525824	59	4220
2026-01-25 04:50:42.28	344.62	23.46	-43.9	-45.0	21.8	0.00e+00	0	44	0	682622976	59	4094
2026-01-25 04:50:43.29	344.34	23.44	-44.2	-45.4	21.6	0.00e+00	0	44	0	684720128	59	4269
2026-01-25 04:50:44.29	344.06	23.41	-44.4	-45.6	21.2	0.00e+00	0	44	0	686817280	59	4354
2026-01-25 04:50:45.30	343.79	23.39	-44.1	-45.2	21.7	0.00e+00	0	44	0	688914432	59	4193
2026-01-25 04:50:46.31	343.51	23.37	-44.0	-45.2	21.8	0.00e+00	0	44	0	689963008	59	4159
2026-01-25 04:50:47.32	343.23	23.34	-43.9	-45.1	21.9	0.00e+00	0	44	0	692060160	59	4105
2026-01-25 04:50:48.33	342.96	23.31	-44.2	-45.3	21.7	0.00e+00	0	44	0	694157312	59	4220
2026-01-25 04:50:49.34	342.68	23.29	-44.3	-45.5	21.6	0.00e+00	0	44	0	696254464	59	4292
2026-01-25 04:50:50.35	342.41	23.26	-44.5	-45.7	21.3	0.00e+00	0	44	0	698351616	59	4424
2026-01-25 04:50:51.36	342.13	23.23	-44.6	-45.8	21.2	0.00e+00	0	44	0	699400192	59	4490
2026-01-25 04:50:52.37	341.86	23.20	-44.4	-45.6	21.2	0.00e+00	0	44	0	701497344	60	4102
2026-01-25 04:50:53.37	341.59	23.17	-44.5	-45.7	21.1	0.00e+00	0	44	0	703594496	60	4171
2026-01-25 04:50:54.38	341.32	23.14	-44.6	-45.9	20.9	0.00e+00	0	44	0	705691648	60	4249
2026-01-25 04:50:55.39	341.04	23.11	-44.6	-45.8	21.0	0.00e+00	0	44	0	707788800	60	4240
2026-01-25 04:50:56.40	340.77	23.08	-44.1	-45.3	21.4	0.00e+00	0	44	0	708837376	60	3973
2026-01-25 04:50:57.41	340.50	23.05	-44.3	-45.5	21.5	0.00e+00	0	44	0	710934528	59	4320
2026-01-25 04:50:58.41	340.23	23.02	-44.3	-45.5	21.5	0.00e+00	0	44	0	713031680	59	4313
2026-01-25 04:50:59.42	339.96	22.98	-44.2	-45.3	21.7	0.00e+00	0	44	0	715128832	59	4239
2026-01-25 04:51:00.43	339.69	22.95	-44.5	-45.7	21.3	0.00e+00	0	44	0	717225984	59	4427
2026-01-25 04:51:01.44	339.43	22.91	-44.5	-45.7	21.0	0.00e+00	0	44	0	718274560	60	4166
2026-01-25 04:51:02.45	339.16	22.88	-44.7	-45.9	20.9	0.00e+00	0	44	0	720371712	60	4263
2026-01-25 04:51:03.45	338.89	22.84	-44.5	-45.7	21.0	0.00e+00	0	44	0	722468864	60	4191
2026-01-25 04:51:04.46	338.63	22.80	-44.5	-45.7	21.1	0.00e+00	0	44	0	724566016	60	4155
2026-01-25 04:51:05.47	338.36	22.77	-44.4	-45.6	21.2	0.00e+00	0	44	0	726663168	60	4105
2026-01-25 04:51:06.48	338.09	22.73	-44.2	-45.4	21.3	0.00e+00	0	44	0	727711744	60	4016
2026-01-25 04:51:07.49	337.83	22.69	-44.5	-45.7	21.0	0.00e+00	0	44	0	729808896	60	4191
2026-01-25 04:51:08.49	337.57	22.65	-44.6	-45.8	21.0	0.00e+00	0	44	0	731906048	60	4216
2026-01-25 04:51:09.50	337.30	22.61	-44.6	-45.8	20.9	0.00e+00	0	44	0	734003200	60	4221
2026-01-25 04:51:10.51	337.04	22.57	-44.5	-45.7	21.1	0.00e+00	0	44	0	736100352	60	4171
2026-01-25 04:51:11.52	336.78	22.53	-44.6	-45.9	20.9	0.00e+00	0	44	0	737148928	60	4255
2026-01-25 04:51:12.53	336.52	22.49	-44.8	-46.1	20.7	0.00e+00	0	44	0	739246080	60	4367
2026-01-25 04:51:13.54	336.26	22.45	-44.8	-46.1	20.7	0.00e+00	0	44	0	741343232	60	4345
2026-01-25 04:51:14.55	336.00	22.40	-45.0	-46.3	20.6	0.00e+00	0	44	0	743440384	60	4450
2026-01-25 04:51:15.56	335.74	22.36	-45.1	-46.5	20.3	0.00e+00	0	44	0	745537536	60	4553
2026-01-25 04:51:16.57	335.48	22.32	-45.5	-46.9	20.0	0.00e+00	0	44	0	746586112	61	4535
2026-01-25 04:51:17.58	335.22	22.27	-45.8	-47.3	19.6	0.00e+00	0	44	0	748683264	62	4486
2026-01-25 04:51:18.59	334.96	22.23	-46.0	-47.6	19.3	0.00e+00	0	44	0	750780416	62	4600
2026-01-25 04:51:19.59	334.71	22.18	-46.0	-47.6	19.3	0.00e+00	0	44	0	752877568	62	4640
2026-01-25 04:51:20.60	334.45	22.14	-45.8	-47.3	19.6	0.00e+00	0	44	0	754974720	62	4474
2026-01-25 04:51:21.61	334.20	22.09	-45.7	-47.2	19.6	0.00e+00	0	44	0	756023296	62	4423
2026-01-25 04:51:22.62	333.94	22.04	-45.8	-47.4	19.5	0.00e+00	0	44	0	758120448	62	4504
2026-01-25 04:51:23.63	333.69	22.00	-45.6	-47.1	19.8	0.00e+00	0	44	0	760217600	62	4348
2026-01-25 04:51:24.64	333.44	21.95	-45.6	-47.0	19.7	0.00e+00	0	44	0	762314752	62	4320
2026-01-25 04:51:25.65	333.19	21.90	-45.4	-46.8	20.0	0.00e+00	0	44	0	764411904	62	4235
2026-01-25 04:51:26.66	332.94	21.85	-45.5	-46.9	20.0	0.00e+00	0	44	0	766509056	62	4270
2026-01-25 04:51:27.67	332.69	21.80	-45.3	-46.7	20.1	0.00e+00	0	44	0	767557632	62	4175
2026-01-25 04:51:28.67	332.44	21.75	-45.3	-46.7	20.0	0.00e+00	0	44	0	769654784	62	4189
2026-01-25 04:51:29.68	332.19	21.70	-45.2	-46.6	20.2	0.00e+00	0	44	0	771751936	62	4123
2026-01-25 04:51:30.69	331.94	21.65	-45.2	-46.6	20.2	0.00e+00	0	44	0	773849088	62	4132
2026-01-25 04:51:31.70	331.70	21.60	-45.1	-46.5	20.3	0.00e+00	0	44	0	774897664	62	4071
2026-01-25 04:51:32.71	331.45	21.55	-45.1	-46.4	20.3	0.00e+00	0	44	0	776994816	62	4035
2026-01-25 04:51:33.72	331.20	21.50	-45.2	-46.5	20.2	0.00e+00	0	44	0	779091968	62	4091
2026-01-25 04:51:34.72	330.96	21.44	-45.2	-46.5	20.2	3.80e-06	0	44	0	781189120	62	4088
2026-01-25 04:51:35.73	330.72	21.39	-45.4	-46.8	20.0	0.00e+00	0	44	0	783286272	62	4207
2026-01-25 04:51:36.74	330.48	21.34	-45.1	-46.5	20.3	0.00e+00	0	44	0	785383424	62	4078
2026-01-25 04:51:37.75	330.23	21.28	-45.0	-46.4	20.4	0.00e+00	0	44	0	786432000	62	4029
2026-01-25 04:51:38.76	329.99	21.23	-45.3	-46.7	20.1	0.00e+00	0	44	0	788529152	62	4178
2026-01-25 04:51:39.77	329.75	21.17	-45.6	-47.1	19.8	0.00e+00	0	44	0	790626304	62	4364
2026-01-25 04:51:40.77	329.52	21.12	-45.9	-47.5	19.4	0.00e+00	0	44	0	792723456	62	4569
2026-01-25 04:51:41.78	329.28	21.06	-46.1	-47.8	19.1	0.00e+00	0	44	0	794820608	62	4707
2026-01-25 04:51:42.79	329.04	21.01	-46.0	-47.6	19.2	0.00e+00	0	44	0	795869184	62	4645
2026-01-25 04:51:43.80	328.80	20.95	-45.9	-47.5	19.3	0.00e+00	0	44	0	797966336	62	4553
2026-01-25 04:51:44.81	328.57	20.89	-45.9	-47.4	19.4	0.00e+00	0	44	0	800063488	62	4528
2026-01-25 04:51:45.81	328.33	20.84	-45.8	-47.4	19.5	0.00e+00	0	44	0	802160640	62	4507
2026-01-25 04:51:46.82	328.10	20.78	-45.8	-47.3	19.5	0.00e+00	0	44	0	803209216	62	4457
2026-01-25 04:51:47.83	327.87	20.72	-45.6	-47.1	19.7	0.00e+00	0	44	0	805306368	62	4361
2026-01-25 04:51:48.84	327.64	20.66	-45.9	-47.5	19.4	0.00e+00	0	44	0	807403520	62	4571
2026-01-25 04:51:49.85	327.40	20.61	-46.2	-48.0	18.9	0.00e+00	0	44	0	809500672	63	4550
2026-01-25 04:51:50.86	327.17	20.55	-46.7	-48.6	18.3	0.00e+00	0	44	0	811597824	63	4882
2026-01-25 04:51:51.87	326.94	20.49	-47.0	-49.0	17.8	0.00e+00	0	44	0	813694976	64	4853
2026-01-25 04:51:52.87	326.72	20.43	-47.3	-49.4	17.4	0.00e+00	0	44	0	814743552	65	4795
2026-01-25 04:51:53.88	326.49	20.37	-47.3	-49.4	17.4	0.00e+00	0	44	0	816840704	65	4788
2026-01-25 04:51:54.89	326.26	20.31	-46.8	-48.7	18.0	0.00e+00	0	44	0	818937856	65	4422
2026-01-25 04:51:55.90	326.04	20.25	-46.2	-47.9	18.9	0.00e+00	0	44	0	821035008	64	4267
2026-01-25 04:51:56.91	325.81	20.19	-46.0	-47.7	19.3	0.00e+00	0	44	0	823132160	63	4412
2026-01-25 04:51:57.92	325.59	20.12	-45.8	-47.4	19.4	0.00e+00	0	44	0	824180736	63	4256
2026-01-25 04:51:58.92	325.37	20.06	-45.4	-46.9	19.9	0.00e+00	0	44	0	826277888	62	4263
2026-01-25 04:51:59.93	325.14	20.00	-45.3	-46.8	20.0	0.00e+00	0	44	0	828375040	62	4203
2026-01-25 04:52:00.94	324.92	19.94	-45.1	-46.5	20.2	0.00e+00	0	44	0	830472192	62	4090
2026-01-25 04:52:01.95	324.70	19.88	-45.1	-46.5	20.2	0.00e+00	0	44	0	832569344	62	4085
2026-01-25 04:52:02.96	324.48	19.81	-44.9	-46.3	20.4	0.00e+00	0	44	0	833617920	61	4199
2026-01-25 04:52:03.97	324.26	19.75	-45.0	-46.4	20.3	0.00e+00	0	44	0	835715072	61	4256
2026-01-25 04:52:04.98	324.05	19.69	-44.6	-46.0	20.6	0.00e+00	0	44	0	837812224	61	4054
2026-01-25 04:52:05.99	323.83	19.62	-44.8	-46.1	20.6	0.00e+00	0	44	0	839909376	61	4122
2026-01-25 04:52:06.99	323.61	19.56	-44.5	-45.8	20.8	0.00e+00	0	44	0	842006528	61	3994
2026-01-25 04:52:08.00	323.40	19.49	-44.4	-45.7	20.9	1.50e-06	0	44	0	843055104	60	4169
2026-01-25 04:52:09.01	323.19	19.43	-44.2	-45.4	21.1	0.00e+00	0	44	0	845152256	60	4032
2026-01-25 04:52:10.02	322.97	19.37	-44.0	-45.2	21.3	0.00e+00	0	44	0	847249408	60	3946
2026-01-25 04:52:11.03	322.76	19.30	-44.3	-45.5	21.3	0.00e+00	0	44	0	849346560	59	4302
2026-01-25 04:52:12.03	322.55	19.24	-44.1	-45.3	21.5	0.00e+00	0	44	0	851443712	59	4224
2026-01-25 04:52:13.04	322.34	19.17	-44.2	-45.4	21.5	0.00e+00	0	44	0	853540864	59	4252
2026-01-25 04:52:14.05	322.13	19.10	-44.4	-45.7	21.2	0.00e+00	0	44	0	854589440	59	4397
2026-01-25 04:52:15.06	321.92	19.04	-44.6	-45.9	21.0	0.00e+00	0	44	0	856686592	59	4518
2026-01-25 04:52:16.07	321.71	18.97	-44.4	-45.7	20.9	0.00e+00	0	44	0	858783744	60	4156
2026-01-25 04:52:17.07	321.51	18.91	-45.1	-46.5	20.1	0.00e+00	0	44	0	860880896	60	4579
2026-01-25 04:52:18.08	321.30	18.84	-45.5	-47.0	19.7	0.00e+00	0	44	0	861929472	61	4594
2026-01-25 04:52:19.09	321.10	18.77	-45.8	-47.4	19.3	0.00e+00	0	44	0	864026624	62	4513
2026-01-25 04:52:20.10	320.89	18.71	-45.9	-47.5	19.2	0.00e+00	0	44	0	866123776	62	4565
2026-01-25 04:52:21.11	320.69	18.64	-46.2	-47.9	18.8	0.00e+00	0	44	0	868220928	63	4533
2026-01-25 04:52:22.12	320.49	18.57	-46.2	-47.9	18.8	0.00e+00	0	44	0	870318080	63	4530
2026-01-25 04:52:23.13	320.29	18.50	-46.0	-47.7	19.0	0.00e+00	0	44	0	871366656	63	4407
2026-01-25 04:52:24.14	320.09	18.44	-45.9	-47.6	19.1	0.00e+00	0	44	0	873463808	63	4360
2026-01-25 04:52:25.15	319.89	18.37	-45.7	-47.2	19.5	0.00e+00	0	44	0	875560960	63	4190
2026-01-25 04:52:26.15	319.69	18.30	-45.5	-47.1	19.6	7.00e-07	0	44	0	877658112	63	4108
2026-01-25 04:52:27.16	319.49	18.23	-45.3	-46.7	19.9	0.00e+00	0	44	0	879755264	62	4192
2026-01-25 04:52:28.17	319.29	18.16	-45.4	-46.9	19.9	0.00e+00	0	44	0	881852416	62	4261
2026-01-25 04:52:29.18	319.10	18.10	-45.1	-46.5	20.1	0.00e+00	0	44	0	882900992	62	4090
2026-01-25 04:52:30.19	318.90	18.03	-44.8	-46.2	20.4	0.00e+00	0	44	0	884998144	61	4149
2026-01-25 04:52:31.20	318.71	17.96	-44.7	-46.0	20.5	0.00e+00	0	44	0	887095296	61	4089
2026-01-25 04:52:32.21	318.52	17.89	-44.6	-45.9	20.6	0.00e+00	0	44	0	889192448	61	4027
2026-01-25 04:52:33.22	318.32	17.82	-44.6	-45.9	20.7	0.00e+00	0	44	0	890241024	60	4251
2026-01-25 04:52:34.23	318.13	17.75	-44.6	-45.9	20.7	0.00e+00	0	44	0	892338176	60	4271
2026-01-25 04:52:35.23	317.94	17.68	-44.8	-46.2	20.4	0.00e+00	0	44	0	894435328	60	4417
2026-01-25 04:52:36.24	317.75	17.61	-45.1	-46.5	20.1	0.00e+00	0	44	0	896532480	60	4579
2026-01-25 04:52:37.25	317.56	17.54	-45.5	-47.0	19.7	0.00e+00	0	44	0	898629632	61	4554
2026-01-25 04:52:38.26	317.38	17.47	-45.6	-47.2	19.5	0.00e+00	0	44	0	900726784	61	4672
2026-01-25 04:52:39.26	317.19	17.40	-45.4	-46.9	19.8	0.00e+00	0	44	0	901775360	61	4505
2026-01-25 04:52:40.27	317.00	17.33	-45.2	-46.6	20.1	0.00e+00	0	44	0	903872512	61	4371
2026-01-25 04:52:41.28	316.82	17.26	-45.1	-46.5	20.2	0.00e+00	0	44	0	905969664	61	4300
2026-01-25 04:52:42.29	316.63	17.19	-44.8	-46.1	20.5	0.00e+00	0	44	0	908066816	61	4119
2026-01-25 04:52:43.30	316.45	17.12	-45.1	-46.5	20.2	0.00e+00	0	44	0	910163968	61	4292
2026-01-25 04:52:44.31	316.27	17.05	-45.3	-46.7	20.0	0.00e+00	0	44	0	911212544	61	4416
2026-01-25 04:52:45.32	316.09	16.98	-45.4	-46.9	19.8	0.00e+00	0	44	0	913309696	61	4512
2026-01-25 04:52:46.33	315.91	16.91	-45.4	-46.9	19.8	0.00e+00	0	44	0	915406848	61	4543
2026-01-25 04:52:47.33	315.73	16.84	-45.4	-46.9	19.8	0.00e+00	0	44	0	917504000	61	4516
2026-01-25 04:52:48.34	315.55	16.77	-45.2	-46.7	20.0	0.00e+00	0	44	0	919601152	61	4404
2026-01-25 04:52:49.35	315.37	16.70	-45.1	-46.5	20.1	0.00e+00	0	44	0	920649728	61	4338
2026-01-25 04:52:50.36	315.19	16.63	-45.0	-46.4	20.3	0.00e+00	0	44	0	922746880	61	4254
2026-01-25 04:52:51.37	315.01	16.56	-44.9	-46.3	20.3	0.00e+00	0	44	0	924844032	61	4221
2026-01-25 04:52:52.38	314.84	16.49	-44.9	-46.3	20.4	0.00e+00	0	44	0	926941184	61	4205
2026-01-25 04:52:53.39	314.66	16.41	-44.7	-46.1	20.5	0.00e+00	0	44	0	929038336	61	4117
2026-01-25 04:52:54.39	314.49	16.34	-44.7	-46.0	20.6	0.00e+00	0	44	0	930086912	61	4080
2026-01-25 04:52:55.40	314.32	16.27	-44.5	-45.8	20.8	0.00e+00	0	44	0	932184064	60	4198
2026-01-25 04:52:56.41	314.14	16.20	-44.3	-45.6	21.0	0.00e+00	0	44	0	934281216	60	4115
2026-01-25 04:52:57.42	313.97	16.13	-44.3	-45.5	21.0	0.00e+00	0	44	0	936378368	60	4074
2026-01-25 04:52:58.43	313.80	16.06	-44.3	-45.5	21.0	0.00e+00	0	45	0	938475520	60	4091
2026-01-25 04:52:59.44	313.63	15.99	-44.4	-45.7	20.9	0.00e+00	0	44	0	939524096	60	4150
2026-01-25 04:53:00.45	313.46	15.91	-44.5	-45.8	20.8	0.00e+00	0	44	0	941621248	60	4212
2026-01-25 04:53:01.45	313.30	15.84	-44.6	-45.8	20.7	0.00e+00	0	44	0	943718400	60	4235
2026-01-25 04:53:02.47	313.13	15.77	-44.4	-45.7	20.9	0.00e+00	0	44	0	945815552	60	4158
2026-01-25 04:53:03.47	312.96	15.70	-44.3	-45.5	21.0	0.00e+00	0	44	0	947912704	60	4097
2026-01-25 04:53:04.48	312.80	15.63	-44.0	-45.2	21.3	0.00e+00	0	44	0	948961280	60	3933
2026-01-25 04:53:05.49	312.63	15.56	-44.1	-45.3	21.5	0.00e+00	0	44	0	951058432	59	4206
2026-01-25 04:53:06.50	312.47	15.48	-44.0	-45.1	21.6	0.00e+00	0	44	0	953155584	59	4133
2026-01-25 04:53:07.51	312.30	15.41	-43.9	-45.0	21.7	0.00e+00	0	44	0	955252736	59	4071
2026-01-25 04:53:08.51	312.14	15.34	-43.9	-45.0	21.7	0.00e+00	0	44	0	957349888	59	4096
2026-01-25 04:53:09.52	311.98	15.27	-44.0	-45.2	21.6	0.00e+00	0	44	0	958398464	59	4161
2026-01-25 04:53:10.53	311.82	15.20	-44.3	-45.5	21.4	0.00e+00	0	44	0	960495616	59	4293
2026-01-25 04:53:11.54	311.66	15.13	-44.2	-45.4	21.3	0.00e+00	0	44	0	962592768	59	4281
2026-01-25 04:53:12.55	311.50	15.05	-44.5	-45.8	21.1	0.00e+00	0	44	0	964689920	59	4459
2026-01-25 04:53:13.56	311.34	14.98	-44.4	-45.6	20.8	0.00e+00	0	44	0	966787072	60	4138
2026-01-25 04:53:14.57	311.18	14.91	-44.3	-45.5	21.0	0.00e+00	0	44	0	967835648	60	4078
2026-01-25 04:53:15.57	311.02	14.84	-44.6	-45.8	20.8	0.00e+00	0	44	0	969932800	60	4223
2026-01-25 04:53:16.58	310.87	14.77	-44.6	-45.9	20.8	0.00e+00	0	44	0	972029952	60	4251
2026-01-25 04:53:17.59	310.71	14.69	-44.6	-45.9	20.7	0.00e+00	0	44	0	974127104	60	4247
2026-01-25 04:53:18.60	310.56	14.62	-44.7	-45.9	20.6	0.00e+00	0	44	0	976224256	60	4287
2026-01-25 04:53:19.60	310.40	14.55	-44.6	-45.9	20.8	0.00e+00	0	44	0	977272832	60	4244
2026-01-25 04:53:20.61	310.25	14.48	-44.4	-45.6	20.9	0.00e+00	0	44	0	979369984	60	4120
2026-01-25 04:53:21.62	310.10	14.41	-44.1	-45.2	21.3	0.00e+00	0	44	0	981467136	60	3958
2026-01-25 04:53:22.63	309.95	14.34	-44.3	-45.5	21.3	0.00e+00	0	44	0	983564288	59	4333
2026-01-25 04:53:23.64	309.80	14.26	-44.2	-45.4	21.4	0.00e+00	0	44	0	985661440	59	4268
2026-01-25 04:53:24.65	309.64	14.19	-44.4	-45.6	21.2	0.00e+00	0	44	0	987758592	59	4355
2026-01-25 04:53:25.66	309.49	14.12	-44.4	-45.6	21.2	0.00e+00	0	44	0	988807168	59	4390
2026-01-25 04:53:26.67	309.35	14.05	-44.4	-45.7	20.9	0.00e+00	0	44	0	990904320	60	4164
2026-01-25 04:53:27.68	309.20	13.98	-44.6	-45.8	20.7	0.00e+00	0	44	0	993001472	60	4234
2026-01-25 04:53:28.69	309.05	13.90	-44.9	-46.3	20.3	0.00e+00	0	44	0	995098624	60	4454
2026-01-25 04:53:29.69	308.90	13.83	-45.1	-46.5	20.1	0.00e+00	0	44	0	996147200	60	4568
2026-01-25 04:53:30.70	308.76	13.76	-45.2	-46.6	20.0	0.00e+00	0	44	0	998244352	61	4372
2026-01-25 04:53:31.71	308.61	13.69	-45.3	-46.7	19.9	0.00e+00	0	44	0	1000341504	61	4426
2026-01-25 04:53:32.72	308.47	13.62	-45.3	-46.7	20.0	0.00e+00	0	44	0	1002438656	61	4405
2026-01-25 04:53:33.73	308.32	13.54	-45.2	-46.6	20.1	0.00e+00	0	44	0	1004535808	61	4342
2026-01-25 04:53:34.73	308.18	13.47	-45.1	-46.5	20.1	0.00e+00	0	44	0	1006632960	61	4325
2026-01-25 04:53:35.74	308.04	13.40	-45.2	-46.6	20.0	0.00e+00	0	44	0	1007681536	61	4374
2026-01-25 04:53:36.75	307.90	13.33	-44.9	-46.3	20.3	0.00e+00	0	44	0	1009778688	61	4196
2026-01-25 04:53:37.76	307.76	13.26	-44.9	-46.2	20.3	0.00e+00	0	44	0	1011875840	61	4183
2026-01-25 04:53:38.77	307.62	13.19	-45.2	-46.6	20.0	0.00e+00	0	44	0	1013972992	61	4363
2026-01-25 04:53:39.78	307.48	13.12	-45.0	-46.3	20.2	0.00e+00	0	44	0	1016070144	61	4239
2026-01-25 04:53:40.78	307.34	13.04	-45.0	-46.4	20.3	0.00e+00	0	44	0	1017118720	61	4253
2026-01-25 04:53:41.79	307.20	12.97	-44.6	-45.8	20.7	0.00e+00	0	44	0	1019215872	61	3996
2026-01-25 04:53:42.80	307.06	12.90	-44.7	-45.9	20.6	0.00e+00	0	44	0	1021313024	61	4050
2026-01-25 04:53:43.81	306.93	12.83	-44.4	-45.6	20.8	0.00e+00	0	44	0	1023410176	60	4139
2026-01-25 04:53:44.82	306.79	12.76	-44.8	-46.1	20.4	0.00e+00	0	44	0	1024458752	60	4358
2026-01-25 04:53:45.83	306.65	12.69	-44.8	-46.1	20.4	0.00e+00	0	44	0	1026555904	60	4366
2026-01-25 04:53:46.83	306.52	12.62	-44.9	-46.2	20.4	0.00e+00	0	44	0	1028653056	60	4410
2026-01-25 04:53:47.84	306.39	12.55	-45.3	-46.7	19.9	0.00e+00	0	44	0	1030750208	61	4417
2026-01-25 04:53:48.85	306.25	12.47	-45.6	-47.1	19.6	0.00e+00	0	44	0	1032847360	61	4607
2026-01-25 04:53:49.86	306.12	12.40	-46.0	-47.5	19.1	0.00e+00	0	44	0	1034944512	62	4597
2026-01-25 04:53:50.87	305.99	12.33	-46.1	-47.7	19.0	0.00e+00	0	44	0	1035993088	62	4665
2026-01-25 04:53:51.87	305.86	12.26	-46.3	-48.0	18.7	0.00e+00	0	44	0	1038090240	63	4565
2026-01-25 04:53:52.88	305.73	12.19	-46.1	-47.7	18.9	0.00e+00	0	44	0	1040187392	63	4426
2026-01-25 04:53:53.89	305.59	12.12	-46.0	-47.6	19.0	0.00e+00	0	44	0	1042284544	63	4349
2026-01-25 04:53:54.90	305.47	12.05	-45.8	-47.3	19.3	0.00e+00	0	44	0	1044381696	63	4229
2026-01-25 04:53:55.91	305.34	11.98	-45.6	-47.2	19.5	0.00e+00	0	44	0	1045430272	63	4146
2026-01-25 04:53:56.91	305.21	11.91	-45.4	-46.9	19.6	0.00e+00	0	44	0	1047527424	62	4268
2026-01-25 04:53:57.92	305.08	11.84	-45.4	-46.8	19.7	0.00e+00	0	44	0	1049624576	62	4219
2026-01-25 04:53:58.93	304.95	11.77	-45.1	-46.5	20.0	0.00e+00	0	44	0	1051721728	62	4068
2026-01-25 04:53:59.94	304.83	11.70	-45.0	-46.4	20.1	0.00e+00	0	44	0	1053818880	62	4022
2026-01-25 04:54:00.95	304.70	11.63	-45.2	-46.6	19.9	0.00e+00	0	44	0	1054867456	61	4366
2026-01-25 04:54:01.96	304.58	11.56	-45.2	-46.6	19.9	0.00e+00	0	44	0	1056964608	61	4375
2026-01-25 04:54:02.97	304.45	11.49	-45.3	-46.7	19.9	0.00e+00	0	44	0	1059061760	61	4398
2026-01-25 04:54:03.97	304.33	11.42	-45.3	-46.8	19.7	0.00e+00	0	44	0	1061158912	61	4458
2026-01-25 04:54:04.98	304.20	11.35	-45.1	-46.5	19.9	0.00e+00	0	44	0	1063256064	61	4332
2026-01-25 04:54:05.99	304.08	11.28	-45.2	-46.6	19.9	0.00e+00	0	44	0	1064304640	61	4360
2026-01-25 04:54:07.00	303.96	11.21	-45.3	-46.6	19.8	0.00e+00	0	45	0	1066401792	61	4384
2026-01-25 04:54:08.01	303.84	11.14	-45.2	-46.6	19.8	0.00e+00	0	44	0	1068498944	61	4379
2026-01-25 04:54:09.01	303.72	11.07	-45.2	-46.6	19.9	0.00e+00	0	44	0	1070596096	61	4359
2026-01-25 04:54:10.02	303.60	11.00	-45.2	-46.6	19.9	0.00e+00	0	44	0	1072693248	61	4344
2026-01-25 04:54:11.03	303.48	10.93	-45.3	-46.7	19.7	0.00e+00	0	44	0	1074790400	61	4441
2026-01-25 04:54:12.04	303.36	10.86	-45.5	-47.0	19.5	0.00e+00	0	44	0	1075838976	61	4562
2026-01-25 04:54:13.05	303.24	10.79	-45.8	-47.4	19.2	0.00e+00	0	44	0	1077936128	62	4505
2026-01-25 04:54:14.06	303.12	10.72	-45.9	-47.5	19.1	0.00e+00	0	44	0	1080033280	62	4554
2026-01-25 04:54:15.06	303.00	10.65	-46.0	-47.6	19.0	0.00e+00	0	44	0	1082130432	62	4601
2026-01-25 04:54:16.07	302.89	10.58	-46.0	-47.6	19.0	0.00e+00	0	44	0	1083179008	63	4343
2026-01-25 04:54:17.08	302.77	10.51	-46.0	-47.7	18.9	0.00e+00	0	44	0	1085276160	63	4396
2026-01-25 04:54:18.09	302.65	10.44	-46.1	-47.7	18.8	0.00e+00	0	44	0	1087373312	63	4436
2026-01-25 04:54:19.10	302.54	10.37	-46.1	-47.7	18.8	0.00e+00	0	44	0	1089470464	63	4436
2026-01-25 04:54:20.11	302.42	10.30	-46.0	-47.6	18.9	0.00e+00	0	44	0	1091567616	63	4365
2026-01-25 04:54:21.11	302.31	10.23	-46.0	-47.6	19.0	0.00e+00	0	44	0	1092616192	63	4356
2026-01-25 04:54:22.12	302.20	10.17	-46.1	-47.8	18.7	0.00e+00	0	44	0	1094713344	63	4466
2026-01-25 04:54:23.13	302.08	10.10	-46.2	-47.9	18.6	0.00e+00	0	44	0	1096810496	63	4500
2026-01-25 04:54:24.14	301.97	10.03	-46.4	-48.1	18.4	0.00e+00	0	44	0	1098907648	63	4630
2026-01-25 04:54:25.15	301.86	9.96	-46.4	-48.1	18.4	0.00e+00	0	44	0	1101004800	63	4645
2026-01-25 04:54:26.15	301.75	9.89	-46.6	-48.4	18.2	0.00e+00	0	44	0	1103101952	63	4775
2026-01-25 04:54:27.16	301.64	9.82	-46.6	-48.5	17.9	0.00e+00	0	44	0	1104150528	64	4572
2026-01-25 04:54:28.17	301.53	9.75	-46.6	-48.4	18.0	0.00e+00	0	44	0	1106247680	64	4529
2026-01-25 04:54:29.18	301.42	9.69	-46.7	-48.6	17.8	0.00e+00	0	44	0	1108344832	64	4646
2026-01-25 04:54:30.19	301.31	9.62	-46.6	-48.5	17.9	0.00e+00	0	44	0	1110441984	64	4575
2026-01-25 04:54:31.20	301.20	9.55	-46.4	-48.2	18.1	0.00e+00	0	44	0	1111490560	64	4432
2026-01-25 04:54:32.21	301.09	9.48	-46.4	-48.2	18.2	0.00e+00	0	44	0	1113587712	64	4416
2026-01-25 04:54:33.22	300.98	9.41	-46.4	-48.1	18.4	0.00e+00	0	44	0	1115684864	64	4354
2026-01-25 04:54:34.23	300.87	9.35	-46.1	-47.7	18.7	0.00e+00	0	45	0	1117782016	64	4179
2026-01-25 04:54:35.24	300.77	9.28	-46.0	-47.5	18.9	0.00e+00	0	44	0	1119879168	63	4331
2026-01-25 04:54:36.25	300.66	9.21	-45.8	-47.4	19.1	0.00e+00	0	44	0	1121976320	63	4260
2026-01-25 04:54:37.26	300.55	9.14	-45.8	-47.3	19.1	0.00e+00	0	44	0	1123024896	63	4230
2026-01-25 04:54:38.26	300.45	9.08	-45.8	-47.4	19.1	0.00e+00	0	44	0	1125122048	63	4244
2026-01-25 04:54:39.27	300.35	9.01	-45.9	-47.4	19.0	0.00e+00	0	44	0	1127219200	63	4284
2026-01-25 04:54:40.28	300.24	8.94	-45.7	-47.3	19.2	0.00e+00	0	44	0	1129316352	63	4200
2026-01-25 04:54:41.29	300.14	8.87	-45.9	-47.5	19.0	0.00e+00	0	44	0	1131413504	63	4294
2026-01-25 04:54:42.29	300.04	8.81	-46.0	-47.6	18.9	0.00e+00	0	44	0	1132462080	63	4351
2026-01-25 04:54:43.30	299.93	8.74	-46.1	-47.7	18.8	0.00e+00	0	44	0	1134559232	63	4414
2026-01-25 04:54:44.31	299.83	8.67	-46.2	-47.8	18.6	0.00e+00	0	44	0	1136656384	63	4483
2026-01-25 04:54:45.32	299.73	8.61	-46.2	-47.9	18.5	0.00e+00	0	44	0	1138753536	63	4523
2026-01-25 04:54:46.33	299.63	8.54	-46.3	-48.0	18.5	0.00e+00	0	44	0	1139802112	63	4559
2026-01-25 04:54:47.33	299.53	8.47	-46.4	-48.2	18.2	0.00e+00	0	44	0	1141899264	63	4669
2026-01-25 04:54:48.34	299.43	8.41	-46.5	-48.2	18.2	0.00e+00	0	44	0	1143996416	63	4699
2026-01-25 04:54:49.35	299.33	8.34	-46.4	-48.2	18.2	0.00e+00	0	44	0	1146093568	63	4659
2026-01-25 04:54:50.36	299.23	8.27	-46.5	-48.3	18.1	0.00e+00	0	44	0	1148190720	63	4723
2026-01-25 04:54:51.37	299.13	8.21	-46.3	-47.9	18.5	0.00e+00	0	44	0	1150287872	63	4540
2026-01-25 04:54:52.37	299.03	8.14	-46.4	-48.1	18.3	0.00e+00	0	44	0	1151336448	63	4608
2026-01-25 04:54:53.38	298.93	8.07	-46.2	-47.9	18.4	0.00e+00	0	44	0	1153433600	63	4515
2026-01-25 04:54:54.39	298.83	8.01	-46.2	-47.9	18.5	0.00e+00	0	44	0	1155530752	63	4507
2026-01-25 04:54:55.40	298.74	7.94	-46.1	-47.8	18.6	0.00e+00	0	44	0	1157627904	63	4443
2026-01-25 04:54:56.40	298.64	7.88	-46.0	-47.6	18.7	0.00e+00	0	44	0	1159725056	63	4368
2026-01-25 04:54:57.41	298.54	7.81	-45.9	-47.5	18.8	0.00e+00	0	44	0	1160773632	63	4332
2026-01-25 04:54:58.42	298.45	7.75	-45.9	-47.5	18.8	0.00e+00	0	44	0	1162870784	63	4327
2026-01-25 04:54:59.43	298.35	7.68	-46.1	-47.7	18.6	0.00e+00	0	44	0	1164967936	63	4438
2026-01-25 04:55:00.44	298.26	7.61	-46.1	-47.8	18.5	0.00e+00	0	44	0	1167065088	63	4475
2026-01-25 04:55:01.45	298.16	7.55	-46.2	-47.9	18.4	0.00e+00	0	44	0	1169162240	63	4537
2026-01-25 04:55:02.45	298.07	7.48	-46.3	-48.0	18.3	0.00e+00	0	44	0	1170210816	63	4567
2026-01-25 04:55:03.46	297.98	7.42	-46.3	-48.0	18.3	0.00e+00	0	44	0	1172307968	63	4592
2026-01-25 04:55:04.47	297.88	7.35	-46.7	-48.6	17.8	0.00e+00	0	44	0	1174405120	63	4897
2026-01-25 04:55:05.48	297.79	7.29	-46.4	-48.3	18.0	0.00e+00	0	44	0	1176502272	64	4448
2026-01-25 04:55:06.49	297.70	7.22	-46.5	-48.3	17.9	0.00e+00	0	44	0	1178599424	64	4471
2026-01-25 04:55:07.49	297.61	7.16	-46.8	-48.7	17.5	0.00e+00	0	44	0	1179648000	64	4695
2026-01-25 04:55:08.50	297.52	7.09	-46.8	-48.8	17.5	0.00e+00	0	44	0	1181745152	64	4718
2026-01-25 04:55:09.51	297.42	7.03	-47.0	-49.0	17.3	0.00e+00	0	44	0	1183842304	64	4839
2026-01-25 04:55:10.52	297.33	6.97	-47.1	-49.1	17.1	0.00e+00	0	44	0	1185939456	64	4919
2026-01-25 04:55:11.53	297.24	6.90	-47.4	-49.5	16.7	0.00e+00	0	44	0	1188036608	65	4868
2026-01-25 04:55:12.53	297.15	6.84	-47.5	-49.7	16.5	0.00e+00	0	44	0	1189085184	65	4964
2026-01-25 04:55:13.54	297.07	6.77	-47.5	-49.7	16.5	0.00e+00	0	44	0	1191182336	65	4968
2026-01-25 04:55:14.55	296.98	6.71	-47.5	-49.7	16.6	0.00e+00	0	44	0	1193279488	65	4943
2026-01-25 04:55:15.56	296.89	6.64	-47.6	-49.9	16.3	0.00e+00	0	44	0	1195376640	65	5093
2026-01-25 04:55:16.56	296.80	6.58	-47.7	-50.0	16.2	0.00e+00	0	44	0	1197473792	66	4847
2026-01-25 04:55:17.57	296.71	6.52	-47.8	-50.1	16.1	0.00e+00	0	44	0	1198522368	66	4904
2026-01-25 04:55:18.58	296.62	6.45	-47.8	-50.2	16.0	0.00e+00	0	44	0	1200619520	66	4958
2026-01-25 04:55:19.59	296.54	6.39	-48.0	-50.5	15.7	0.00e+00	0	44	0	1202716672	66	5116
2026-01-25 04:55:20.60	296.45	6.33	-47.8	-50.2	16.0	0.00e+00	0	44	0	1204813824	66	4939
2026-01-25 04:55:21.61	296.36	6.26	-47.9	-50.3	15.8	0.00e+00	0	44	0	1206910976	66	5035
2026-01-25 04:55:22.61	296.28	6.20	-48.0	-50.4	15.8	0.00e+00	0	44	0	1207959552	66	5100
2026-01-25 04:55:23.62	296.19	6.14	-47.9	-50.4	15.8	0.00e+00	0	44	0	1210056704	66	5057
2026-01-25 04:55:24.63	296.11	6.07	-47.9	-50.4	15.8	0.00e+00	0	44	0	1212153856	66	5050
2026-01-25 04:55:25.64	296.02	6.01	-47.7	-50.0	16.1	0.00e+00	0	44	0	1214251008	66	4844
2026-01-25 04:55:26.64	295.94	5.95	-47.6	-49.9	16.3	0.00e+00	0	44	0	1216348160	66	4762
2026-01-25 04:55:27.65	295.86	5.88	-47.7	-50.0	16.1	0.00e+00	0	44	0	1217396736	66	4869
2026-01-25 04:55:28.66	295.77	5.82	-47.8	-50.1	16.0	0.00e+00	0	44	0	1219493888	66	4919
2026-01-25 04:55:29.67	295.69	5.76	-47.7	-50.0	16.1	0.00e+00	0	44	0	1221591040	66	4870
