passes_logs/2026/01/25/R3.2S_Murmansk/R3.2S_Murmansk__20260125_083840_KANOPUS-V_5_rec.log

#Pass ID: 20260125_083840_KANOPUS-V 5
#Satellite: KANOPUS-V 5
#Configuration: KANOPUS-V_8320
#almurnet v.1.7.20251203
#Start time: 2026-01-25 08:38:42

#Version: 2.2.20231116
#Station: R3.2S_Murmansk
#Location: 33.079688 lon 68.888172 lat
#TLE: 1 43876U 18111A   26024.95715628  .00005617  00000+0  23806-3 0  9997
#TLE: 2 43876  97.3675 293.2916 0001833  88.4697 271.6750 15.23533298392986

#Time	Az	El	Level	Level2	SNR	BER	BlckErr	Temp	State	Recorded	gain1	gain2
2026-01-25 08:38:42.17	184.27	2.11	-53.3	-62.1	3.8	7.45e-01	0	44	0	0	78	9777
2026-01-25 08:38:43.14	184.32	2.17	-53.2	-62.1	3.8	7.45e-01	0	43	104	0	77	10379
2026-01-25 08:38:44.12	184.37	2.24	-53.2	-62.1	3.8	7.45e-01	0	43	104	0	77	10359
2026-01-25 08:38:45.10	184.42	2.31	-53.2	-62.1	3.8	7.45e-01	0	43	104	0	77	10349
2026-01-25 08:38:46.09	184.47	2.38	-53.2	-62.1	3.8	7.46e-01	0	43	104	0	77	10350
2026-01-25 08:38:47.07	184.53	2.44	-53.2	-62.1	3.8	7.44e-01	0	44	104	0	77	10311
2026-01-25 08:38:48.06	184.58	2.51	-53.2	-62.1	3.8	7.44e-01	0	43	104	0	77	10312
2026-01-25 08:38:49.05	184.63	2.58	-53.2	-62.1	3.8	7.44e-01	0	43	104	0	77	10317
2026-01-25 08:38:50.03	184.68	2.65	-53.2	-62.1	3.8	7.45e-01	0	43	104	0	77	10301
2026-01-25 08:38:51.02	184.74	2.72	-53.2	-62.1	3.8	7.45e-01	0	43	104	0	77	10313
2026-01-25 08:38:52.00	184.79	2.79	-53.2	-62.0	3.8	7.44e-01	0	44	104	0	77	10276
2026-01-25 08:38:52.99	184.84	2.86	-53.2	-62.0	3.8	7.45e-01	0	44	104	0	77	10291
2026-01-25 08:38:53.97	184.90	2.92	-53.2	-62.1	3.8	7.46e-01	0	44	104	0	77	10309
2026-01-25 08:38:54.96	184.95	2.99	-53.2	-62.0	3.8	7.45e-01	0	44	104	0	77	10289
2026-01-25 08:38:55.94	185.01	3.06	-53.2	-62.1	3.8	7.44e-01	0	44	104	0	77	10305
2026-01-25 08:38:56.92	185.06	3.13	-53.2	-62.1	3.8	7.46e-01	0	43	104	0	77	10308
2026-01-25 08:38:57.91	185.12	3.20	-53.2	-62.1	3.8	7.47e-01	0	44	104	0	77	10297
2026-01-25 08:38:58.89	185.17	3.27	-53.2	-62.0	3.8	7.45e-01	0	44	104	0	77	10287
2026-01-25 08:38:59.88	185.23	3.34	-53.2	-62.0	3.8	7.46e-01	0	44	104	0	77	10226
2026-01-25 08:39:00.86	185.29	3.42	-53.2	-62.0	3.8	7.45e-01	0	44	104	0	77	10257
2026-01-25 08:39:01.84	185.34	3.49	-53.2	-62.0	3.8	7.46e-01	0	44	104	0	77	10277
2026-01-25 08:39:02.83	185.40	3.56	-53.2	-62.0	3.8	7.45e-01	0	44	104	0	77	10265
2026-01-25 08:39:03.81	185.46	3.63	-53.2	-61.9	3.8	7.44e-01	0	44	104	0	77	10159
2026-01-25 08:39:04.80	185.51	3.70	-53.2	-61.9	3.8	7.43e-01	0	44	104	0	77	10111
2026-01-25 08:39:05.79	185.57	3.77	-53.1	-61.7	3.8	7.46e-01	0	44	104	0	77	9884
2026-01-25 08:39:06.77	185.63	3.85	-53.1	-61.4	3.8	7.45e-01	0	44	104	0	77	9507
2026-01-25 08:39:07.76	185.69	3.92	-53.1	-61.5	3.8	7.45e-01	0	44	104	0	77	9670
2026-01-25 08:39:08.74	185.75	3.99	-53.1	-61.5	3.8	7.46e-01	0	44	104	0	77	9711
2026-01-25 08:39:09.72	185.81	4.06	-53.1	-61.5	3.8	7.45e-01	0	44	104	0	77	9716
2026-01-25 08:39:10.71	185.87	4.14	-53.0	-61.4	3.8	7.45e-01	0	44	104	0	77	9522
2026-01-25 08:39:11.69	185.93	4.21	-52.9	-60.9	3.8	7.44e-01	0	44	104	0	77	8971
2026-01-25 08:39:12.68	185.99	4.28	-52.3	-59.0	4.0	7.38e-01	0	44	104	0	76	7670
2026-01-25 08:39:13.66	186.05	4.36	-51.7	-57.2	4.5	7.21e-01	0	44	0	2097152	75	6586
2026-01-25 08:39:14.64	186.11	4.43	-50.9	-55.5	5.7	6.89e-01	0	44	0	2097152	73	6081
2026-01-25 08:39:15.62	186.17	4.50	-50.0	-54.0	7.0	6.62e-01	0	44	0	2097152	72	5405
2026-01-25 08:39:16.61	186.23	4.58	-49.2	-52.5	8.4	6.41e-01	0	44	0	2097152	70	5150
2026-01-25 08:39:17.59	186.29	4.65	-48.4	-51.6	9.2	6.31e-01	0	44	0	8388608	68	5160
2026-01-25 08:39:18.57	186.35	4.73	-48.2	-51.2	9.8	6.26e-01	0	44	0	23068672	67	5232
2026-01-25 08:39:19.56	186.42	4.81	-48.1	-51.1	9.8	6.26e-01	0	44	0	37748736	67	5189
2026-01-25 08:39:20.54	186.48	4.88	-48.4	-51.7	9.4	5.97e-01	0	44	0	52428800	67	5541
2026-01-25 08:39:21.52	186.54	4.96	-48.2	-51.3	9.7	5.93e-01	0	44	0	67108864	67	5337
2026-01-25 08:39:22.50	186.61	5.03	-49.2	-52.8	8.1	6.08e-01	0	44	0	83886080	68	5979
2026-01-25 08:39:23.48	186.67	5.11	-46.0	-48.6	12.6	5.78e-01	0	44	0	98566144	63	4887
2026-01-25 08:39:24.45	186.74	5.18	-48.3	-51.9	5.2	7.14e-01	0	44	104	102760448	69	5060
2026-01-25 08:39:25.44	186.80	5.26	-51.8	-57.6	4.0	7.39e-01	0	44	104	102760448	75	6943
2026-01-25 08:39:26.42	186.87	5.34	-45.2	-47.6	13.3	5.78e-01	0	44	0	109051904	62	4613
2026-01-25 08:39:27.40	186.93	5.42	-45.3	-47.7	13.2	5.77e-01	0	44	0	123731968	62	4703
2026-01-25 08:39:28.38	187.00	5.49	-48.3	-51.3	9.5	5.97e-01	0	44	0	138412032	68	5029
2026-01-25 08:39:29.37	187.07	5.57	-45.2	-47.6	13.3	5.77e-01	0	44	0	155189248	62	4632
2026-01-25 08:39:30.35	187.13	5.65	-45.2	-47.6	13.4	5.77e-01	0	44	0	167772160	62	4602
2026-01-25 08:39:31.33	187.20	5.73	-45.1	-47.5	13.4	5.77e-01	0	44	0	184549376	62	4586
2026-01-25 08:39:32.32	187.27	5.81	-45.3	-47.7	13.3	5.77e-01	0	44	0	199229440	62	4690
2026-01-25 08:39:33.30	187.34	5.89	-45.0	-47.4	13.6	5.77e-01	0	44	0	213909504	62	4502
2026-01-25 08:39:34.28	187.41	5.97	-45.1	-47.6	13.5	5.76e-01	0	44	0	230686720	62	4604
2026-01-25 08:39:35.26	187.48	6.05	-44.8	-47.2	13.7	5.78e-01	0	44	0	245366784	61	4685
2026-01-25 08:39:36.24	187.55	6.13	-45.0	-47.4	13.6	5.76e-01	0	44	0	260046848	61	4771
2026-01-25 08:39:37.23	187.62	6.21	-45.0	-47.4	13.6	5.76e-01	0	44	0	274726912	61	4790
2026-01-25 08:39:38.21	187.69	6.29	-45.1	-47.6	13.5	5.77e-01	0	44	0	289406976	61	4877
2026-01-25 08:39:39.20	187.76	6.37	-44.9	-47.3	13.7	5.76e-01	0	45	0	304087040	61	4720
2026-01-25 08:39:40.18	187.83	6.45	-44.8	-47.1	13.9	5.76e-01	0	44	0	320864256	61	4643
2026-01-25 08:39:41.16	187.91	6.53	-44.9	-47.2	13.8	5.77e-01	0	44	0	335544320	61	4704
2026-01-25 08:39:42.15	187.98	6.61	-45.0	-47.4	13.7	5.77e-01	0	44	0	350224384	61	4789
2026-01-25 08:39:43.13	188.05	6.70	-44.9	-47.3	13.8	5.76e-01	0	45	0	364904448	61	4737
2026-01-25 08:39:44.11	188.13	6.78	-44.9	-47.2	13.8	5.77e-01	0	45	0	379584512	61	4690
2026-01-25 08:39:45.09	188.20	6.86	-44.8	-47.1	14.0	5.76e-01	0	44	0	396361728	61	4619
2026-01-25 08:39:46.08	188.28	6.95	-44.8	-47.1	13.9	5.76e-01	0	44	0	411041792	61	4630
2026-01-25 08:39:47.06	188.35	7.03	-44.6	-46.9	14.1	5.76e-01	0	44	0	425721856	61	4542
2026-01-25 08:39:48.04	188.43	7.11	-44.6	-46.8	14.2	5.76e-01	0	44	0	440401920	61	4491
2026-01-25 08:39:49.02	188.50	7.20	-44.6	-46.9	14.2	5.76e-01	0	44	0	455081984	61	4498
2026-01-25 08:39:50.01	188.58	7.28	-44.5	-46.7	14.3	5.76e-01	0	45	0	471859200	60	4695
2026-01-25 08:39:50.99	188.66	7.37	-44.5	-46.8	14.3	5.76e-01	0	44	0	486539264	60	4719
2026-01-25 08:39:51.97	188.74	7.45	-44.3	-46.5	14.4	5.96e-01	0	44	0	501219328	60	4568
2026-01-25 08:39:52.96	188.81	7.54	-44.4	-46.7	14.3	6.00e-01	0	44	0	515899392	60	4656
2026-01-25 08:39:53.93	188.89	7.62	-44.3	-46.6	14.4	6.01e-01	0	44	0	530579456	60	4605
2026-01-25 08:39:54.91	188.97	7.71	-44.3	-46.5	14.4	6.03e-01	0	44	0	545259520	60	4560
2026-01-25 08:39:55.89	189.05	7.80	-44.2	-46.4	14.6	6.02e-01	0	44	0	562036736	60	4499
2026-01-25 08:39:56.88	189.13	7.88	-44.3	-46.5	14.5	6.04e-01	0	44	0	576716800	60	4546
2026-01-25 08:39:57.87	189.22	7.97	-44.1	-46.3	14.6	6.00e-01	0	45	0	591396864	60	4472
2026-01-25 08:39:58.85	189.30	8.06	-44.3	-46.5	14.5	6.02e-01	0	44	0	606076928	60	4554
2026-01-25 08:39:59.83	189.38	8.15	-44.2	-46.4	14.6	6.02e-01	0	44	0	620756992	59	4785
2026-01-25 08:40:00.80	189.46	8.23	-44.0	-46.1	14.8	6.02e-01	0	44	0	637534208	59	4644
2026-01-25 08:40:01.78	189.55	8.32	-44.2	-46.3	14.7	6.01e-01	0	44	0	652214272	59	4738
2026-01-25 08:40:02.77	189.63	8.41	-44.2	-46.3	14.6	6.02e-01	0	44	0	666894336	59	4753
2026-01-25 08:40:03.75	189.72	8.50	-44.0	-46.2	14.8	5.98e-01	0	45	0	681574400	59	4656
2026-01-25 08:40:04.73	189.80	8.59	-44.1	-46.2	14.8	5.99e-01	0	44	0	696254464	59	4684
2026-01-25 08:40:05.71	189.89	8.68	-44.0	-46.2	14.8	5.99e-01	0	44	0	713031680	59	4658
2026-01-25 08:40:06.69	189.97	8.77	-44.1	-46.3	14.7	5.99e-01	0	44	0	727711744	59	4715
2026-01-25 08:40:07.67	190.06	8.86	-43.9	-46.0	14.9	6.01e-01	0	45	0	742391808	59	4589
2026-01-25 08:40:08.65	190.15	8.96	-43.9	-46.0	14.9	6.01e-01	0	45	0	757071872	59	4588
2026-01-25 08:40:09.63	190.24	9.05	-43.8	-46.0	15.0	5.99e-01	0	45	0	771751936	59	4552
2026-01-25 08:40:10.61	190.33	9.14	-43.9	-46.0	15.0	5.99e-01	0	45	0	786432000	59	4590
2026-01-25 08:40:11.60	190.42	9.23	-43.9	-46.0	15.0	6.02e-01	0	45	0	803209216	59	4594
2026-01-25 08:40:12.58	190.51	9.33	-44.0	-46.1	14.9	6.01e-01	0	45	0	817889280	59	4648
2026-01-25 08:40:13.56	190.60	9.42	-43.8	-45.9	15.1	5.98e-01	0	45	0	832569344	59	4526
2026-01-25 08:40:14.54	190.69	9.51	-43.6	-45.8	15.2	5.97e-01	0	45	0	847249408	59	4463
2026-01-25 08:40:15.52	190.78	9.61	-43.7	-45.9	15.2	6.02e-01	0	45	0	861929472	59	4517
2026-01-25 08:40:16.50	190.88	9.70	-43.6	-45.8	15.2	5.98e-01	0	44	0	878706688	59	4452
2026-01-25 08:40:17.47	190.97	9.80	-43.5	-45.7	15.3	6.03e-01	0	45	0	893386752	59	4415
2026-01-25 08:40:18.46	191.07	9.89	-43.6	-45.7	15.3	5.99e-01	0	44	0	908066816	59	4435
2026-01-25 08:40:19.44	191.16	9.99	-43.4	-45.6	15.4	5.95e-01	0	45	0	922746880	58	4618
2026-01-25 08:40:20.42	191.26	10.09	-43.6	-45.8	15.2	5.98e-01	0	45	0	937426944	58	4716
2026-01-25 08:40:21.40	191.36	10.18	-43.5	-45.7	15.3	5.98e-01	0	45	0	954204160	58	4659
2026-01-25 08:40:22.38	191.45	10.28	-43.4	-45.6	15.4	5.98e-01	0	45	0	968884224	58	4618
2026-01-25 08:40:23.37	191.55	10.38	-43.4	-45.6	15.4	5.96e-01	0	45	0	983564288	58	4623
2026-01-25 08:40:24.35	191.65	10.48	-43.4	-45.6	15.4	5.97e-01	0	45	0	998244352	58	4603
2026-01-25 08:40:25.34	191.75	10.58	-43.3	-45.5	15.5	5.97e-01	0	45	0	1012924416	58	4579
2026-01-25 08:40:26.32	191.86	10.68	-43.3	-45.5	15.4	5.97e-01	0	45	0	1027604480	58	4588
2026-01-25 08:40:27.30	191.96	10.78	-43.3	-45.5	15.4	6.00e-01	0	45	0	1044381696	58	4591
2026-01-25 08:40:28.29	192.06	10.88	-43.2	-45.4	15.6	5.97e-01	0	45	0	1059061760	58	4538
2026-01-25 08:40:29.27	192.17	10.98	-43.2	-45.4	15.6	5.98e-01	0	45	0	1073741824	58	4520
2026-01-25 08:40:30.25	192.27	11.08	-43.3	-45.4	15.5	5.95e-01	0	44	0	1088421888	58	4540
2026-01-25 08:40:31.24	192.38	11.18	-43.2	-45.4	15.6	5.97e-01	0	45	0	1103101952	58	4494
2026-01-25 08:40:32.22	192.48	11.29	-42.9	-45.1	15.8	5.96e-01	0	44	0	1119879168	57	4603
2026-01-25 08:40:33.20	192.59	11.39	-43.0	-45.1	15.9	5.94e-01	0	44	0	1134559232	57	4616
2026-01-25 08:40:34.19	192.70	11.49	-43.0	-45.1	15.8	5.93e-01	0	45	0	1149239296	57	4651
2026-01-25 08:40:35.18	192.81	11.60	-42.8	-44.9	16.0	5.93e-01	0	45	0	1166016512	57	4499
2026-01-25 08:40:36.16	192.92	11.70	-42.7	-44.7	16.2	5.95e-01	0	45	0	1180696576	57	4430
2026-01-25 08:40:37.15	193.03	11.81	-42.6	-44.7	16.2	5.99e-01	0	44	0	1195376640	57	4421
2026-01-25 08:40:38.13	193.14	11.91	-42.8	-44.8	16.1	5.99e-01	0	45	0	1210056704	57	4486
2026-01-25 08:40:39.12	193.25	12.02	-42.4	-44.4	16.4	5.96e-01	0	45	0	1224736768	56	4544
2026-01-25 08:40:40.10	193.37	12.13	-42.5	-44.5	16.3	5.97e-01	0	44	0	1241513984	56	4591
2026-01-25 08:40:41.08	193.48	12.23	-42.5	-44.5	16.3	5.99e-01	0	45	0	1256194048	56	4594
2026-01-25 08:40:42.07	193.60	12.34	-42.4	-44.4	16.4	6.00e-01	0	45	0	1270874112	56	4515
2026-01-25 08:40:43.06	193.72	12.45	-42.4	-44.4	16.4	5.96e-01	0	45	0	1285554176	56	4543
2026-01-25 08:40:44.04	193.83	12.56	-42.4	-44.4	16.4	5.96e-01	0	44	0	1300234240	56	4542
2026-01-25 08:40:45.03	193.95	12.67	-42.4	-44.4	16.4	5.97e-01	0	44	0	1314914304	56	4545
2026-01-25 08:40:46.02	194.07	12.78	-42.6	-44.6	16.3	5.98e-01	0	45	0	1331691520	56	4614
2026-01-25 08:40:47.00	194.20	12.89	-42.5	-44.6	16.3	5.98e-01	0	45	0	1346371584	56	4599
2026-01-25 08:40:47.99	194.32	13.00	-42.5	-44.6	16.3	6.00e-01	0	45	0	1361051648	56	4619
2026-01-25 08:40:48.97	194.44	13.11	-42.7	-44.8	16.1	5.97e-01	0	45	0	1377828864	56	4708
2026-01-25 08:40:49.96	194.57	13.23	-42.5	-44.6	16.3	5.98e-01	0	45	0	1390411776	56	4607
2026-01-25 08:40:50.94	194.69	13.34	-42.3	-44.4	16.4	5.95e-01	0	45	0	1407188992	56	4507
2026-01-25 08:40:51.93	194.82	13.45	-42.1	-44.1	16.7	5.93e-01	0	45	0	1421869056	56	4389
2026-01-25 08:40:52.91	194.95	13.57	-42.0	-44.1	16.7	5.97e-01	0	45	0	1436549120	56	4378
2026-01-25 08:40:53.89	195.07	13.68	-42.1	-44.1	16.7	5.95e-01	0	45	0	1453326336	56	4387
2026-01-25 08:40:54.87	195.20	13.79	-42.0	-44.1	16.7	5.96e-01	0	45	0	1468006400	56	4372
2026-01-25 08:40:55.86	195.33	13.91	-42.0	-44.2	16.6	5.99e-01	0	45	0	1482686464	56	4404
2026-01-25 08:40:56.84	195.47	14.03	-42.2	-44.3	16.7	5.96e-01	0	45	0	1497366528	55	4758
2026-01-25 08:40:57.82	195.60	14.14	-42.1	-44.2	16.8	5.95e-01	0	45	0	1512046592	55	4695
2026-01-25 08:40:58.80	195.73	14.26	-42.1	-44.3	16.7	5.97e-01	0	45	0	1528823808	55	4738
2026-01-25 08:40:59.79	195.87	14.38	-42.0	-44.2	16.8	5.98e-01	0	45	0	1543503872	55	4675
2026-01-25 08:41:00.77	196.01	14.50	-42.1	-44.2	16.7	5.99e-01	0	44	0	1558183936	55	4694
2026-01-25 08:41:01.76	196.15	14.62	-42.1	-44.3	16.7	5.99e-01	0	45	0	1572864000	55	4722
2026-01-25 08:41:02.74	196.29	14.74	-41.9	-44.0	16.9	5.95e-01	0	45	0	1587544064	55	4592
2026-01-25 08:41:03.73	196.43	14.86	-41.8	-43.9	17.0	5.95e-01	0	45	0	1602224128	55	4544
2026-01-25 08:41:04.71	196.57	14.98	-41.7	-43.8	17.1	5.98e-01	0	45	0	1619001344	55	4493
2026-01-25 08:41:05.70	196.71	15.10	-41.7	-43.8	17.1	5.96e-01	0	45	0	1633681408	55	4466
2026-01-25 08:41:06.68	196.86	15.23	-41.8	-43.8	17.1	5.96e-01	0	45	0	1648361472	55	4492
2026-01-25 08:41:07.67	197.01	15.35	-41.5	-43.6	17.3	5.96e-01	0	45	0	1665138688	55	4366
2026-01-25 08:41:08.65	197.15	15.47	-41.5	-43.5	17.3	5.99e-01	0	45	0	1677721600	55	4337
2026-01-25 08:41:09.63	197.30	15.60	-41.4	-43.4	17.4	6.04e-01	0	45	0	1694498816	54	4512
2026-01-25 08:41:10.62	197.45	15.73	-41.3	-43.4	17.4	5.97e-01	0	45	0	1709178880	54	4494
2026-01-25 08:41:11.60	197.61	15.85	-41.4	-43.4	17.4	5.99e-01	0	45	0	1723858944	54	4528
2026-01-25 08:41:12.59	197.76	15.98	-41.5	-43.5	17.4	5.97e-01	0	44	0	1740636160	54	4571
2026-01-25 08:41:13.57	197.92	16.11	-41.3	-43.4	17.5	5.92e-01	0	45	0	1755316224	54	4497
2026-01-25 08:41:14.56	198.07	16.24	-41.2	-43.2	17.6	5.95e-01	0	45	0	1769996288	54	4397
2026-01-25 08:41:15.54	198.23	16.36	-41.2	-43.2	17.6	5.96e-01	0	45	0	1784676352	54	4417
2026-01-25 08:41:16.52	198.39	16.49	-41.3	-43.3	17.5	5.97e-01	0	45	0	1799356416	54	4447
2026-01-25 08:41:17.51	198.55	16.62	-41.2	-43.2	17.6	5.97e-01	0	45	0	1814036480	54	4426
2026-01-25 08:41:18.49	198.72	16.75	-41.2	-43.2	17.6	5.95e-01	0	45	0	1830813696	54	4408
2026-01-25 08:41:19.47	198.88	16.89	-41.2	-43.1	17.6	5.98e-01	0	45	0	1845493760	54	4378
2026-01-25 08:41:20.45	199.04	17.02	-41.2	-43.1	17.6	5.96e-01	0	45	0	1860173824	54	4386
2026-01-25 08:41:21.44	199.21	17.15	-41.2	-43.2	17.6	5.95e-01	0	45	0	1874853888	54	4413
2026-01-25 08:41:22.42	199.38	17.29	-41.1	-43.1	17.7	5.93e-01	0	45	0	1889533952	54	4346
2026-01-25 08:41:23.41	199.56	17.42	-41.1	-43.0	17.8	5.95e-01	0	45	0	1906311168	54	4324
2026-01-25 08:41:24.39	199.73	17.56	-41.1	-43.0	17.8	5.99e-01	0	45	0	1920991232	54	4308
2026-01-25 08:41:25.38	199.90	17.69	-41.1	-43.0	17.8	5.97e-01	0	45	0	1935671296	54	4305
2026-01-25 08:41:26.37	200.08	17.83	-41.1	-43.0	17.7	5.98e-01	0	44	0	1952448512	54	4338
2026-01-25 08:41:27.35	200.26	17.97	-41.0	-42.9	17.8	5.95e-01	0	45	0	1965031424	54	4289
2026-01-25 08:41:28.34	200.44	18.11	-41.3	-43.2	17.6	5.98e-01	0	45	0	1981808640	54	4426
2026-01-25 08:41:29.32	200.62	18.25	-41.1	-43.0	17.7	5.99e-01	0	44	0	1996488704	54	4320
2026-01-25 08:41:30.30	200.81	18.39	-40.7	-42.6	18.0	5.97e-01	0	45	0	2011168768	53	4390
2026-01-25 08:41:31.28	200.99	18.53	-40.8	-42.7	18.0	5.95e-01	0	45	0	2027945984	53	4415
2026-01-25 08:41:32.26	201.18	18.67	-40.7	-42.6	18.0	5.96e-01	0	45	0	2040528896	53	4354
2026-01-25 08:41:33.24	201.37	18.81	-40.7	-42.6	18.0	5.96e-01	0	45	0	2055208960	53	4351
2026-01-25 08:41:34.22	201.56	18.95	-40.6	-42.5	18.1	5.95e-01	0	45	0	2071986176	53	4334
2026-01-25 08:41:35.21	201.76	19.10	-40.6	-42.5	18.1	5.94e-01	0	45	0	2086666240	53	4321
2026-01-25 08:41:36.19	201.95	19.24	-40.6	-42.5	18.1	5.98e-01	0	45	0	2101346304	53	4308
2026-01-25 08:41:37.18	202.15	19.39	-40.7	-42.6	18.1	5.94e-01	0	45	0	2118123520	53	4352
2026-01-25 08:41:38.16	202.35	19.53	-40.7	-42.6	18.1	5.98e-01	0	45	0	2130706432	53	4365
2026-01-25 08:41:39.14	202.55	19.68	-40.6	-42.5	18.1	5.96e-01	0	45	0	2147483648	53	4292
2026-01-25 08:41:40.12	202.76	19.83	-40.6	-42.5	18.1	5.97e-01	0	45	0	2162163712	53	4292
2026-01-25 08:41:41.11	202.97	19.98	-40.5	-42.4	18.2	5.97e-01	0	45	0	2176843776	53	4260
2026-01-25 08:41:42.09	203.17	20.13	-40.4	-42.3	18.3	5.98e-01	0	45	0	2193620992	52	4457
2026-01-25 08:41:43.07	203.39	20.27	-40.5	-42.4	18.2	5.96e-01	0	45	0	2208301056	52	4500
2026-01-25 08:41:44.05	203.60	20.43	-40.5	-42.4	18.1	5.98e-01	0	45	0	2222981120	52	4521
2026-01-25 08:41:45.04	203.82	20.58	-40.4	-42.3	18.3	5.97e-01	0	45	0	2237661184	52	4471
2026-01-25 08:41:46.03	204.04	20.73	-40.5	-42.4	18.2	6.00e-01	0	45	0	2252341248	52	4526
2026-01-25 08:41:47.01	204.26	20.88	-40.6	-42.5	18.1	5.96e-01	0	45	0	2269118464	52	4590
2026-01-25 08:41:47.99	204.48	21.04	-40.6	-42.5	18.1	5.98e-01	0	45	0	2283798528	52	4574
2026-01-25 08:41:48.97	204.71	21.19	-40.5	-42.5	18.1	5.99e-01	0	45	0	2298478592	52	4557
2026-01-25 08:41:49.95	204.93	21.35	-40.7	-42.6	18.1	5.97e-01	0	45	0	2313158656	52	4633
2026-01-25 08:41:50.94	205.17	21.51	-40.4	-42.3	18.3	5.97e-01	0	45	0	2327838720	52	4468
2026-01-25 08:41:51.92	205.40	21.66	-40.3	-42.2	18.4	5.99e-01	0	45	0	2342518784	52	4392
2026-01-25 08:41:52.90	205.63	21.82	-40.4	-42.2	18.3	5.97e-01	0	45	0	2359296000	52	4407
2026-01-25 08:41:53.88	205.87	21.98	-40.3	-42.1	18.5	5.96e-01	0	45	0	2373976064	52	4378
2026-01-25 08:41:54.86	206.11	22.14	-40.3	-42.1	18.4	5.96e-01	0	45	0	2388656128	52	4363
2026-01-25 08:41:55.84	206.36	22.30	-40.3	-42.1	18.4	5.98e-01	0	45	0	2403336192	52	4375
2026-01-25 08:41:56.82	206.60	22.46	-40.2	-42.1	18.5	5.98e-01	0	45	0	2418016256	52	4341
2026-01-25 08:41:57.80	206.85	22.62	-40.2	-42.0	18.4	5.98e-01	0	45	0	2434793472	52	4337
2026-01-25 08:41:58.79	207.11	22.78	-40.2	-42.0	18.5	5.99e-01	0	45	0	2449473536	52	4334
2026-01-25 08:41:59.77	207.36	22.95	-40.4	-42.2	18.4	5.96e-01	0	45	0	2464153600	52	4418
2026-01-25 08:42:00.76	207.63	23.11	-40.5	-42.3	18.3	5.98e-01	0	45	0	2478833664	52	4490
2026-01-25 08:42:01.74	207.89	23.28	-40.5	-42.4	18.2	5.98e-01	0	45	0	2493513728	52	4516
2026-01-25 08:42:02.72	208.15	23.44	-40.7	-42.6	18.1	5.98e-01	0	45	0	2510290944	52	4606
2026-01-25 08:42:03.71	208.42	23.61	-40.6	-42.5	18.2	5.97e-01	0	45	0	2524971008	52	4572
2026-01-25 08:42:04.69	208.69	23.77	-40.7	-42.6	18.2	5.96e-01	0	45	0	2539651072	52	4614
2026-01-25 08:42:05.68	208.97	23.94	-40.6	-42.3	18.3	5.98e-01	0	45	0	2556428288	52	4487
2026-01-25 08:42:06.67	209.25	24.11	-40.6	-42.3	18.3	5.98e-01	0	45	0	2571108352	52	4477
2026-01-25 08:42:07.65	209.53	24.28	-40.6	-42.3	18.3	5.97e-01	0	45	0	2583691264	52	4462
2026-01-25 08:42:08.63	209.81	24.45	-40.5	-42.2	18.4	5.97e-01	0	45	0	2600468480	52	4425
2026-01-25 08:42:09.61	210.10	24.62	-40.5	-42.2	18.4	5.96e-01	0	45	0	2615148544	52	4407
2026-01-25 08:42:10.59	210.39	24.79	-40.4	-42.1	18.5	5.99e-01	0	45	0	2629828608	52	4344
2026-01-25 08:42:11.57	210.68	24.96	-40.4	-42.0	18.5	5.98e-01	0	45	0	2646605824	52	4340
2026-01-25 08:42:12.56	210.98	25.14	-40.4	-42.1	18.5	5.95e-01	0	45	0	2659188736	52	4349
2026-01-25 08:42:13.54	211.29	25.31	-40.5	-42.2	18.4	5.95e-01	0	45	0	2675965952	52	4417
2026-01-25 08:42:14.52	211.59	25.48	-40.5	-42.3	18.4	5.96e-01	0	45	0	2690646016	52	4451
2026-01-25 08:42:15.50	211.90	25.66	-40.6	-42.4	18.3	5.96e-01	0	45	0	2705326080	52	4511
2026-01-25 08:42:16.48	212.21	25.83	-40.5	-42.3	18.4	5.97e-01	0	45	0	2722103296	52	4443
2026-01-25 08:42:17.47	212.53	26.01	-40.5	-42.2	18.4	5.96e-01	0	45	0	2736783360	52	4437
2026-01-25 08:42:18.45	212.85	26.19	-40.5	-42.2	18.3	5.95e-01	0	45	0	2751463424	52	4424
2026-01-25 08:42:19.43	213.17	26.36	-40.6	-42.3	18.3	5.97e-01	0	45	0	2766143488	52	4454
2026-01-25 08:42:20.42	213.50	26.54	-40.7	-42.4	18.2	5.97e-01	0	45	0	2780823552	52	4539
2026-01-25 08:42:21.41	213.84	26.72	-40.7	-42.4	18.3	5.96e-01	0	45	0	2797600768	52	4517
2026-01-25 08:42:22.39	214.17	26.90	-40.8	-42.4	18.3	5.96e-01	0	45	0	2812280832	52	4522
2026-01-25 08:42:23.37	214.51	27.07	-40.7	-42.4	18.3	5.96e-01	0	45	0	2826960896	52	4499
2026-01-25 08:42:24.35	214.86	27.25	-40.7	-42.4	18.3	5.94e-01	0	45	0	2841640960	52	4497
2026-01-25 08:42:25.33	215.21	27.43	-40.8	-42.6	18.1	5.96e-01	0	45	0	2856321024	52	4631
2026-01-25 08:42:26.32	215.56	27.61	-40.9	-42.9	18.0	5.96e-01	0	45	0	2871001088	52	4770
2026-01-25 08:42:27.30	215.92	27.79	-41.0	-43.0	17.9	5.95e-01	0	45	0	2887778304	52	4818
2026-01-25 08:42:28.28	216.28	27.97	-40.9	-42.9	18.0	5.99e-01	0	45	0	2902458368	52	4766
2026-01-25 08:42:29.27	216.65	28.15	-40.9	-42.8	18.0	5.97e-01	0	45	0	2917138432	52	4755
2026-01-25 08:42:30.25	217.02	28.33	-40.9	-42.7	18.1	6.00e-01	0	45	0	2931818496	52	4669
2026-01-25 08:42:31.23	217.39	28.52	-40.8	-42.6	18.2	5.94e-01	0	45	0	2946498560	52	4614
2026-01-25 08:42:32.22	217.78	28.70	-40.8	-42.5	18.2	5.96e-01	0	45	0	2963275776	52	4597
2026-01-25 08:42:33.20	218.16	28.88	-40.9	-42.7	18.1	5.92e-01	0	45	0	2977955840	52	4670
2026-01-25 08:42:34.19	218.55	29.06	-41.0	-42.8	18.0	5.96e-01	0	45	0	2992635904	52	4758
2026-01-25 08:42:35.17	218.95	29.24	-41.1	-42.8	18.0	5.94e-01	0	45	0	3009413120	52	4755
2026-01-25 08:42:36.15	219.34	29.42	-41.1	-42.8	18.0	5.97e-01	0	45	0	3021996032	52	4745
2026-01-25 08:42:37.13	219.75	29.61	-41.1	-42.9	18.0	5.96e-01	0	45	0	3036676096	52	4771
2026-01-25 08:42:38.11	220.15	29.79	-41.1	-42.8	18.0	5.96e-01	0	45	0	3053453312	52	4724
2026-01-25 08:42:39.10	220.57	29.97	-40.8	-42.5	18.3	5.95e-01	0	45	0	3068133376	52	4566
2026-01-25 08:42:40.08	220.99	30.15	-40.8	-42.6	18.1	5.96e-01	0	45	0	3082813440	52	4618
2026-01-25 08:42:41.07	221.41	30.33	-40.8	-42.7	18.1	6.00e-01	0	45	0	3099590656	52	4665
2026-01-25 08:42:42.05	221.84	30.51	-40.9	-42.8	18.0	5.94e-01	0	45	0	3112173568	52	4736
2026-01-25 08:42:43.03	222.27	30.69	-40.9	-42.9	18.0	5.99e-01	0	45	0	3128950784	52	4779
2026-01-25 08:42:44.02	222.72	30.87	-41.0	-42.9	18.0	5.95e-01	0	45	0	3143630848	52	4787
2026-01-25 08:42:45.00	223.16	31.05	-41.1	-43.0	18.0	5.96e-01	0	45	0	3158310912	52	4816
2026-01-25 08:42:45.99	223.61	31.23	-40.9	-42.7	18.2	5.97e-01	0	45	0	3175088128	52	4660
2026-01-25 08:42:46.97	224.07	31.41	-40.9	-42.6	18.2	6.00e-01	0	45	0	3189768192	52	4628
2026-01-25 08:42:47.95	224.53	31.59	-40.8	-42.6	18.2	5.97e-01	0	45	0	3204448256	52	4643
2026-01-25 08:42:48.93	224.99	31.77	-40.8	-42.7	18.2	5.98e-01	0	45	0	3219128320	52	4671
2026-01-25 08:42:49.91	225.46	31.94	-40.8	-42.7	18.1	5.97e-01	0	45	0	3233808384	52	4672
2026-01-25 08:42:50.90	225.94	32.12	-40.8	-42.7	18.1	5.99e-01	0	45	0	3250585600	52	4653
2026-01-25 08:42:51.88	226.42	32.29	-40.8	-42.7	18.1	5.96e-01	0	45	0	3265265664	52	4685
2026-01-25 08:42:52.86	226.91	32.47	-40.9	-42.7	18.0	5.98e-01	0	45	0	3277848576	52	4703
2026-01-25 08:42:53.84	227.40	32.64	-40.8	-42.7	18.2	6.00e-01	0	45	0	3294625792	52	4653
2026-01-25 08:42:54.82	227.90	32.81	-40.7	-42.7	18.1	5.96e-01	0	45	0	3309305856	52	4670
2026-01-25 08:42:55.80	228.40	32.98	-40.8	-42.8	18.1	5.99e-01	0	45	0	3323985920	52	4721
2026-01-25 08:42:56.78	228.91	33.15	-40.6	-42.7	18.1	5.99e-01	0	45	0	3340763136	52	4652
2026-01-25 08:42:57.76	229.42	33.32	-40.8	-42.7	18.1	5.94e-01	0	45	0	3355443200	52	4686
2026-01-25 08:42:58.75	229.95	33.49	-40.7	-42.6	18.2	5.98e-01	0	45	0	3370123264	52	4600
2026-01-25 08:42:59.73	230.47	33.65	-40.5	-42.3	18.4	5.96e-01	0	45	0	3384803328	52	4460
2026-01-25 08:43:00.71	231.00	33.82	-40.4	-42.3	18.5	5.99e-01	0	45	0	3399483392	52	4442
2026-01-25 08:43:01.70	231.55	33.98	-40.1	-42.2	18.5	5.99e-01	0	45	0	3416260608	52	4393
2026-01-25 08:43:02.68	232.09	34.14	-40.2	-42.3	18.4	6.00e-01	0	45	0	3430940672	52	4460
2026-01-25 08:43:03.66	232.64	34.30	-40.2	-42.2	18.4	5.99e-01	0	45	0	3445620736	52	4437
2026-01-25 08:43:04.65	233.20	34.46	-40.2	-42.2	18.5	6.03e-01	0	45	0	3460300800	52	4400
2026-01-25 08:43:05.63	233.76	34.62	-40.1	-42.0	18.6	5.99e-01	0	45	0	3474980864	52	4333
2026-01-25 08:43:06.61	234.32	34.77	-40.1	-42.1	18.6	6.01e-01	0	45	0	3491758080	51	4641
2026-01-25 08:43:07.60	234.90	34.92	-40.3	-42.3	18.5	6.01e-01	0	45	0	3506438144	51	4712
2026-01-25 08:43:08.59	235.48	35.07	-40.0	-42.0	18.7	6.01e-01	0	45	0	3521118208	51	4560
2026-01-25 08:43:09.57	236.06	35.22	-40.1	-42.1	18.6	6.05e-01	0	45	0	3537895424	51	4623
2026-01-25 08:43:10.56	236.66	35.36	-39.9	-42.0	18.6	6.01e-01	0	45	0	3550478336	51	4583
2026-01-25 08:43:11.54	237.25	35.51	-39.7	-41.9	18.7	6.05e-01	0	45	0	3565158400	51	4517
2026-01-25 08:43:12.52	237.85	35.64	-39.8	-42.0	18.8	6.03e-01	0	45	0	3581935616	51	4549
2026-01-25 08:43:13.50	238.45	35.78	-39.7	-41.9	18.7	6.03e-01	0	45	0	3596615680	51	4520
2026-01-25 08:43:14.48	239.06	35.91	-39.6	-41.8	18.8	6.04e-01	0	45	0	3611295744	51	4469
2026-01-25 08:43:15.46	239.67	36.05	-39.6	-41.6	18.9	6.04e-01	0	45	0	3628072960	51	4382
2026-01-25 08:43:16.45	240.30	36.17	-39.6	-41.6	19.0	6.05e-01	0	45	0	3640655872	51	4343
2026-01-25 08:43:17.43	240.92	36.30	-39.4	-41.4	19.0	6.04e-01	0	45	0	3657433088	50	4500
2026-01-25 08:43:18.41	241.55	36.42	-39.1	-41.1	19.2	6.04e-01	0	45	0	3672113152	50	4390
2026-01-25 08:43:19.39	242.18	36.54	-39.2	-41.3	19.1	6.05e-01	0	45	0	3686793216	50	4475
2026-01-25 08:43:20.38	242.83	36.66	-39.3	-41.4	19.0	6.05e-01	0	45	0	3703570432	50	4529
2026-01-25 08:43:21.36	243.47	36.77	-39.2	-41.5	19.0	6.07e-01	0	45	0	3716153344	50	4561
2026-01-25 08:43:22.34	244.12	36.88	-39.3	-41.6	18.9	6.03e-01	0	45	0	3732930560	50	4609
2026-01-25 08:43:23.33	244.78	36.98	-39.5	-41.7	18.9	5.75e-01	0	45	0	3747610624	50	4703
2026-01-25 08:43:24.31	245.44	37.09	-39.4	-41.6	19.0	5.75e-01	0	45	0	3762290688	50	4624
2026-01-25 08:43:25.29	246.10	37.18	-39.3	-41.5	19.0	5.77e-01	0	45	0	3779067904	50	4581
2026-01-25 08:43:26.28	246.77	37.28	-39.3	-41.5	19.1	5.76e-01	0	45	0	3793747968	50	4576
2026-01-25 08:43:27.26	247.44	37.37	-39.1	-41.3	19.1	5.76e-01	0	45	0	3806330880	50	4467
2026-01-25 08:43:28.24	248.11	37.46	-39.0	-41.3	19.2	5.76e-01	0	45	0	3823108096	50	4460
2026-01-25 08:43:29.22	248.79	37.54	-39.0	-41.2	19.2	5.76e-01	0	45	0	3837788160	49	4697
2026-01-25 08:43:30.20	249.47	37.62	-39.0	-41.2	19.2	5.75e-01	0	45	0	3852468224	49	4685
2026-01-25 08:43:31.19	250.16	37.69	-39.0	-41.3	19.1	5.76e-01	0	45	0	3869245440	49	4754
2026-01-25 08:43:32.17	250.85	37.76	-38.9	-41.2	19.2	5.76e-01	0	45	0	3883925504	49	4662
2026-01-25 08:43:33.15	251.54	37.83	-38.9	-41.1	19.3	5.76e-01	0	45	0	3898605568	49	4626
2026-01-25 08:43:34.13	252.23	37.89	-38.9	-41.1	19.2	5.76e-01	0	45	0	3913285632	49	4631
2026-01-25 08:43:35.12	252.93	37.95	-38.7	-41.0	19.3	5.76e-01	0	45	0	3927965696	49	4565
2026-01-25 08:43:36.11	253.63	38.00	-38.8	-41.1	19.3	5.76e-01	0	45	0	3944742912	49	4613
2026-01-25 08:43:37.09	254.33	38.05	-38.8	-41.2	19.2	5.74e-01	0	45	0	3959422976	49	4654
2026-01-25 08:43:38.07	255.04	38.09	-38.8	-41.0	19.4	5.75e-01	0	45	0	3974103040	49	4565
2026-01-25 08:43:39.05	255.74	38.13	-38.8	-41.0	19.4	5.75e-01	0	45	0	3988783104	49	4565
2026-01-25 08:43:40.04	256.45	38.17	-38.7	-41.0	19.3	5.76e-01	0	45	0	4003463168	49	4567
2026-01-25 08:43:41.01	257.15	38.20	-38.6	-40.9	19.4	5.76e-01	0	45	0	4020240384	49	4520
2026-01-25 08:43:41.99	257.86	38.23	-38.8	-41.0	19.3	5.75e-01	0	45	0	4034920448	49	4560
2026-01-25 08:43:42.98	258.58	38.25	-38.6	-40.7	19.5	5.76e-01	0	45	0	4049600512	49	4413
2026-01-25 08:43:43.96	259.29	38.26	-38.5	-40.6	19.6	5.75e-01	0	45	0	4064280576	49	4372
2026-01-25 08:43:44.94	260.00	38.27	-38.6	-40.7	19.4	5.75e-01	0	45	0	4078960640	49	4435
2026-01-25 08:43:45.93	260.71	38.28	-38.8	-41.1	19.3	5.75e-01	0	45	0	4093640704	49	4599
2026-01-25 08:43:46.91	261.42	38.28	-38.7	-41.0	19.3	6.00e-01	0	45	0	4110417920	49	4572
2026-01-25 08:43:47.89	262.14	38.28	-38.8	-41.1	19.2	6.03e-01	0	45	0	4125097984	49	4608
2026-01-25 08:43:48.87	262.85	38.27	-38.8	-41.1	19.2	6.01e-01	0	45	0	4139778048	49	4610
2026-01-25 08:43:49.86	263.56	38.26	-38.9	-41.1	19.2	6.04e-01	0	45	0	4156555264	49	4644
2026-01-25 08:43:50.84	264.27	38.25	-38.9	-41.1	19.3	6.00e-01	0	45	0	4169138176	49	4604
2026-01-25 08:43:51.83	264.99	38.23	-39.0	-41.1	19.2	5.98e-01	0	45	0	4185915392	49	4631
2026-01-25 08:43:52.81	265.70	38.20	-38.9	-41.0	19.3	6.02e-01	0	45	0	4200595456	49	4597
2026-01-25 08:43:53.79	266.40	38.17	-38.8	-41.0	19.3	5.98e-01	0	45	0	4215275520	49	4577
2026-01-25 08:43:54.77	267.11	38.13	-38.8	-41.0	19.3	5.95e-01	0	45	0	4232052736	49	4592
2026-01-25 08:43:55.75	267.81	38.09	-38.8	-41.0	19.3	6.01e-01	0	45	0	4244635648	49	4572
2026-01-25 08:43:56.73	268.51	38.05	-38.9	-41.1	19.3	5.96e-01	0	45	0	4261412864	49	4601
2026-01-25 08:43:57.70	269.21	38.00	-38.9	-41.2	19.2	5.96e-01	0	45	0	4276092928	49	4667
2026-01-25 08:43:58.69	269.91	37.95	-38.9	-41.2	19.2	5.96e-01	0	45	0	4290772992	49	4676
2026-01-25 08:43:59.67	270.60	37.89	-39.0	-41.2	19.2	6.03e-01	0	45	0	4305453056	49	4674
2026-01-25 08:44:00.65	271.30	37.83	-39.2	-41.3	19.1	6.00e-01	0	45	0	4320133120	49	4739
2026-01-25 08:44:01.63	271.98	37.76	-39.1	-41.3	19.1	6.00e-01	0	45	0	4334813184	49	4748
2026-01-25 08:44:02.61	272.67	37.69	-39.1	-41.3	19.1	5.98e-01	0	45	0	4351590400	49	4739
2026-01-25 08:44:03.59	273.35	37.62	-39.2	-41.4	19.1	5.96e-01	0	45	0	4366270464	49	4780
2026-01-25 08:44:04.57	274.03	37.54	-39.3	-41.5	19.0	6.00e-01	0	45	0	4380950528	49	4851
2026-01-25 08:44:05.56	274.71	37.46	-39.2	-41.5	19.1	5.97e-01	0	45	0	4395630592	49	4847
2026-01-25 08:44:06.54	275.39	37.37	-39.3	-41.5	19.1	5.91e-01	0	45	0	4410310656	49	4849
2026-01-25 08:44:07.52	276.05	37.28	-39.4	-41.5	19.0	5.97e-01	0	45	0	4427087872	49	4839
2026-01-25 08:44:08.50	276.72	37.19	-39.3	-41.4	19.1	5.94e-01	0	45	0	4441767936	49	4787
2026-01-25 08:44:09.48	277.38	37.09	-39.1	-41.2	19.2	5.97e-01	0	45	0	4456448000	49	4694
2026-01-25 08:44:10.47	278.04	36.99	-39.0	-41.2	19.2	5.96e-01	0	45	0	4473225216	49	4668
2026-01-25 08:44:11.45	278.69	36.88	-38.9	-41.1	19.3	5.98e-01	0	45	0	4485808128	49	4615
2026-01-25 08:44:12.43	279.34	36.78	-39.1	-41.2	19.2	5.94e-01	0	44	0	4500488192	49	4677
2026-01-25 08:44:13.41	279.98	36.66	-39.3	-41.5	19.1	6.00e-01	0	45	0	4517265408	49	4818
2026-01-25 08:44:14.40	280.63	36.55	-39.5	-41.6	19.0	5.96e-01	0	45	0	4531945472	49	4922
2026-01-25 08:44:15.38	281.26	36.43	-39.6	-41.8	18.9	5.92e-01	0	45	0	4546625536	49	5035
2026-01-25 08:44:16.36	281.89	36.31	-39.6	-41.9	18.8	5.97e-01	0	45	0	4561305600	49	5074
2026-01-25 08:44:17.34	282.51	36.18	-39.5	-41.8	18.8	6.01e-01	0	45	0	4575985664	49	5014
2026-01-25 08:44:18.33	283.13	36.05	-39.5	-41.9	18.7	5.95e-01	0	45	0	4592762880	49	5042
2026-01-25 08:44:19.30	283.74	35.92	-39.7	-42.0	18.7	5.99e-01	0	45	0	4607442944	49	5103
2026-01-25 08:44:20.28	284.35	35.79	-39.7	-41.9	18.7	5.98e-01	0	45	0	4622123008	50	4799
2026-01-25 08:44:21.26	284.95	35.66	-39.6	-41.8	18.9	5.99e-01	0	45	0	4638900224	50	4738
2026-01-25 08:44:22.24	285.55	35.52	-39.6	-41.8	18.8	5.97e-01	0	45	0	4651483136	50	4750
2026-01-25 08:44:23.23	286.15	35.37	-39.7	-41.8	18.8	5.99e-01	0	45	0	4668260352	50	4756
2026-01-25 08:44:24.21	286.73	35.23	-39.9	-42.0	18.6	5.97e-01	0	45	0	4682940416	50	4859
2026-01-25 08:44:25.19	287.31	35.08	-39.8	-41.8	18.8	5.99e-01	0	45	0	4697620480	50	4756
2026-01-25 08:44:26.17	287.89	34.94	-39.7	-41.7	18.9	5.98e-01	0	45	0	4714397696	50	4674
2026-01-25 08:44:27.15	288.46	34.79	-39.8	-41.8	18.9	5.99e-01	0	45	0	4726980608	50	4714
2026-01-25 08:44:28.14	289.03	34.63	-39.6	-41.6	19.0	5.98e-01	0	45	0	4741660672	50	4613
2026-01-25 08:44:29.12	289.58	34.48	-39.6	-41.6	19.0	5.98e-01	0	45	0	4758437888	50	4615
2026-01-25 08:44:30.10	290.14	34.32	-39.7	-41.6	19.0	5.95e-01	0	45	0	4773117952	50	4615
2026-01-25 08:44:31.08	290.68	34.16	-39.9	-41.8	18.9	5.94e-01	0	45	0	4787798016	50	4716
2026-01-25 08:44:32.06	291.23	34.00	-40.2	-42.1	18.7	5.94e-01	0	45	0	4804575232	50	4904
2026-01-25 08:44:33.05	291.77	33.84	-40.3	-42.3	18.6	5.99e-01	0	45	0	4817158144	51	4740
2026-01-25 08:44:34.03	292.30	33.68	-40.3	-42.3	18.6	5.94e-01	0	45	0	4833935360	51	4733
2026-01-25 08:44:35.01	292.82	33.51	-40.1	-42.1	18.7	5.99e-01	0	45	0	4848615424	51	4617
2026-01-25 08:44:35.99	293.34	33.35	-40.2	-42.0	18.7	5.97e-01	0	45	0	4863295488	51	4580
2026-01-25 08:44:36.98	293.86	33.18	-40.1	-41.9	18.8	6.01e-01	0	45	0	4880072704	51	4504
2026-01-25 08:44:37.96	294.37	33.01	-40.1	-41.9	18.8	6.02e-01	0	45	0	4894752768	51	4505
2026-01-25 08:44:38.95	294.87	32.84	-40.3	-42.0	18.8	6.00e-01	0	45	0	4909432832	51	4576
2026-01-25 08:44:39.93	295.37	32.67	-40.4	-42.3	18.6	5.99e-01	0	45	0	4924112896	51	4711
2026-01-25 08:44:40.91	295.86	32.50	-40.6	-42.5	18.4	6.00e-01	0	45	0	4938792960	51	4855
2026-01-25 08:44:41.89	296.35	32.32	-40.6	-42.6	18.3	6.00e-01	0	45	0	4955570176	52	4641
2026-01-25 08:44:42.87	296.83	32.15	-40.6	-42.7	18.3	5.98e-01	0	45	0	4970250240	52	4652
2026-01-25 08:44:43.85	297.30	31.97	-40.5	-42.6	18.3	5.99e-01	0	45	0	4982833152	52	4609
2026-01-25 08:44:44.83	297.77	31.80	-40.6	-42.6	18.3	5.99e-01	0	45	0	4999610368	52	4605
2026-01-25 08:44:45.82	298.24	31.62	-40.6	-42.5	18.3	5.99e-01	0	45	0	5014290432	52	4597
2026-01-25 08:44:46.80	298.70	31.44	-40.6	-42.6	18.4	5.98e-01	0	45	0	5028970496	52	4607
2026-01-25 08:44:47.78	299.15	31.27	-40.8	-42.7	18.2	5.94e-01	0	45	0	5045747712	52	4686
2026-01-25 08:44:48.76	299.60	31.09	-40.8	-42.7	18.2	5.97e-01	0	45	0	5060427776	52	4696
2026-01-25 08:44:49.74	300.04	30.91	-40.8	-42.7	18.1	5.99e-01	0	45	0	5075107840	52	4703
2026-01-25 08:44:50.72	300.48	30.73	-40.8	-42.6	18.2	5.96e-01	0	45	0	5089787904	52	4651
2026-01-25 08:44:51.70	300.91	30.55	-40.8	-42.5	18.4	5.99e-01	0	45	0	5104467968	52	4598
2026-01-25 08:44:52.69	301.34	30.37	-40.6	-42.4	18.4	5.97e-01	0	45	0	5121245184	52	4540
2026-01-25 08:44:53.67	301.76	30.19	-40.6	-42.5	18.3	5.97e-01	0	45	0	5135925248	52	4563
2026-01-25 08:44:54.65	302.18	30.01	-40.7	-42.6	18.4	5.97e-01	0	45	0	5150605312	52	4629
2026-01-25 08:44:55.63	302.59	29.83	-40.7	-42.6	18.3	5.95e-01	0	45	0	5165285376	52	4629
2026-01-25 08:44:56.62	303.00	29.65	-40.7	-42.5	18.5	6.00e-01	0	45	0	5179965440	52	4578
2026-01-25 08:44:57.60	303.40	29.47	-40.8	-42.7	18.2	5.96e-01	0	45	0	5196742656	52	4652
2026-01-25 08:44:58.59	303.80	29.29	-40.7	-42.5	18.4	5.99e-01	0	45	0	5211422720	52	4573
2026-01-25 08:44:59.57	304.19	29.11	-40.7	-42.5	18.4	5.97e-01	0	45	0	5226102784	52	4549
2026-01-25 08:45:00.55	304.58	28.93	-40.7	-42.6	18.3	5.95e-01	0	45	0	5240782848	52	4599
2026-01-25 08:45:01.54	304.97	28.75	-40.6	-42.4	18.4	5.94e-01	0	45	0	5255462912	52	4531
2026-01-25 08:45:02.52	305.35	28.57	-40.7	-42.6	18.4	5.98e-01	0	45	0	5270142976	52	4610
2026-01-25 08:45:03.50	305.72	28.39	-40.5	-42.4	18.4	5.93e-01	0	45	0	5286920192	52	4532
2026-01-25 08:45:04.49	306.09	28.21	-40.3	-42.3	18.5	5.95e-01	0	45	0	5301600256	52	4443
2026-01-25 08:45:05.47	306.46	28.03	-40.3	-42.3	18.4	5.94e-01	0	45	0	5316280320	52	4446
2026-01-25 08:45:06.45	306.82	27.85	-40.4	-42.3	18.5	5.93e-01	0	45	0	5330960384	52	4458
2026-01-25 08:45:07.43	307.17	27.67	-40.4	-42.2	18.5	5.99e-01	0	45	0	5345640448	52	4414
2026-01-25 08:45:08.41	307.53	27.49	-40.3	-42.1	18.6	5.97e-01	0	45	0	5362417664	52	4383
2026-01-25 08:45:09.40	307.88	27.31	-40.3	-42.1	18.6	5.96e-01	0	45	0	5377097728	52	4342
2026-01-25 08:45:10.38	308.22	27.13	-40.2	-42.0	18.7	5.94e-01	0	45	0	5391777792	52	4302
2026-01-25 08:45:11.37	308.56	26.95	-40.2	-42.0	18.6	5.94e-01	0	45	0	5408555008	52	4327
2026-01-25 08:45:12.35	308.90	26.78	-40.2	-42.1	18.6	5.96e-01	0	45	0	5421137920	52	4347
2026-01-25 08:45:13.32	309.23	26.60	-40.1	-42.0	18.6	5.93e-01	0	45	0	5437915136	52	4294
2026-01-25 08:45:14.30	309.55	26.43	-40.3	-42.1	18.6	5.95e-01	0	45	0	5452595200	52	4372
2026-01-25 08:45:15.29	309.88	26.25	-40.3	-42.2	18.5	5.99e-01	0	45	0	5467275264	52	4417
2026-01-25 08:45:16.27	310.20	26.07	-40.4	-42.3	18.5	5.97e-01	0	45	0	5484052480	52	4461
2026-01-25 08:45:17.25	310.51	25.90	-40.5	-42.3	18.5	6.02e-01	0	45	0	5496635392	52	4485
2026-01-25 08:45:18.23	310.83	25.73	-40.5	-42.3	18.4	6.03e-01	0	45	0	5511315456	52	4473
2026-01-25 08:45:19.21	311.13	25.55	-40.5	-42.3	18.4	6.03e-01	0	45	0	5528092672	52	4491
2026-01-25 08:45:20.19	311.44	25.38	-40.4	-42.2	18.5	6.01e-01	0	45	0	5542772736	52	4428
2026-01-25 08:45:21.18	311.74	25.21	-40.4	-42.3	18.4	6.05e-01	0	45	0	5557452800	52	4449
2026-01-25 08:45:22.17	312.04	25.03	-40.2	-42.1	18.6	6.01e-01	0	45	0	5574230016	52	4353
2026-01-25 08:45:23.15	312.33	24.86	-40.2	-42.0	18.6	6.02e-01	0	45	0	5586812928	52	4335
2026-01-25 08:45:24.13	312.63	24.69	-40.2	-42.1	18.5	6.01e-01	0	45	0	5603590144	52	4349
2026-01-25 08:45:25.11	312.91	24.52	-40.3	-42.2	18.5	6.02e-01	0	45	0	5618270208	52	4392
2026-01-25 08:45:26.09	313.20	24.36	-40.2	-42.1	18.5	6.03e-01	0	45	0	5632950272	52	4377
2026-01-25 08:45:27.07	313.48	24.19	-40.3	-42.2	18.4	6.01e-01	0	45	0	5649727488	52	4433
2026-01-25 08:45:28.05	313.75	24.02	-40.3	-42.3	18.4	6.00e-01	0	45	0	5662310400	52	4454
2026-01-25 08:45:29.03	314.03	23.85	-40.4	-42.3	18.3	6.03e-01	0	45	0	5679087616	52	4480
2026-01-25 08:45:30.01	314.30	23.69	-40.3	-42.3	18.4	6.03e-01	0	45	0	5693767680	52	4484
2026-01-25 08:45:30.99	314.56	23.52	-40.3	-42.4	18.3	6.02e-01	0	45	0	5708447744	52	4495
2026-01-25 08:45:31.97	314.83	23.36	-40.4	-42.4	18.3	6.02e-01	0	45	0	5723127808	52	4541
2026-01-25 08:45:32.95	315.09	23.20	-40.4	-42.4	18.3	5.97e-01	0	45	0	5737807872	52	4525
2026-01-25 08:45:33.93	315.35	23.03	-40.5	-42.5	18.2	6.01e-01	0	45	0	5752487936	52	4552
2026-01-25 08:45:34.91	315.60	22.87	-40.5	-42.6	18.1	5.98e-01	0	45	0	5769265152	52	4608
2026-01-25 08:45:35.89	315.85	22.71	-40.4	-42.4	18.3	6.00e-01	0	45	0	5783945216	52	4521
2026-01-25 08:45:36.88	316.11	22.55	-40.4	-42.4	18.2	5.96e-01	0	45	0	5798625280	52	4533
2026-01-25 08:45:37.86	316.35	22.39	-40.4	-42.4	18.3	6.01e-01	0	45	0	5813305344	52	4517
2026-01-25 08:45:38.84	316.60	22.23	-40.2	-42.2	18.4	6.01e-01	0	45	0	5827985408	52	4427
2026-01-25 08:45:39.82	316.84	22.07	-40.2	-42.1	18.5	5.99e-01	0	45	0	5844762624	52	4371
2026-01-25 08:45:40.80	317.07	21.91	-40.3	-42.2	18.4	6.02e-01	0	45	0	5859442688	52	4408
2026-01-25 08:45:41.78	317.31	21.75	-40.1	-42.0	18.6	6.01e-01	0	45	0	5874122752	52	4292
2026-01-25 08:45:42.76	317.54	21.60	-40.1	-42.0	18.6	6.00e-01	0	45	0	5890899968	52	4305
2026-01-25 08:45:43.75	317.78	21.44	-40.1	-41.9	18.7	5.99e-01	0	45	0	5903482880	52	4266
2026-01-25 08:45:44.73	318.00	21.29	-40.0	-41.9	18.6	6.02e-01	0	45	0	5920260096	52	4250
2026-01-25 08:45:45.71	318.23	21.13	-40.1	-42.0	18.5	6.02e-01	0	45	0	5934940160	51	4556
2026-01-25 08:45:46.69	318.45	20.98	-40.1	-42.0	18.6	5.98e-01	0	45	0	5949620224	51	4556
2026-01-25 08:45:47.67	318.67	20.83	-40.2	-42.0	18.5	6.02e-01	0	44	0	5964300288	51	4579
2026-01-25 08:45:48.65	318.89	20.68	-40.2	-42.1	18.5	6.05e-01	0	45	0	5978980352	51	4609
2026-01-25 08:45:49.64	319.11	20.53	-40.2	-42.1	18.4	6.03e-01	0	45	0	5993660416	51	4644
2026-01-25 08:45:50.62	319.32	20.38	-40.3	-42.2	18.4	6.01e-01	0	45	0	6010437632	51	4690
2026-01-25 08:45:51.61	319.53	20.22	-40.3	-42.3	18.4	6.02e-01	0	45	0	6025117696	51	4712
2026-01-25 08:45:52.59	319.74	20.08	-40.3	-42.3	18.3	6.05e-01	0	45	0	6039797760	51	4734
2026-01-25 08:45:53.58	319.95	19.93	-40.4	-42.4	18.2	6.04e-01	0	45	0	6056574976	51	4791
2026-01-25 08:45:54.55	320.15	19.78	-40.4	-42.5	18.2	6.06e-01	0	45	0	6069157888	51	4827
2026-01-25 08:45:55.53	320.35	19.64	-40.4	-42.5	18.1	6.05e-01	0	45	0	6085935104	51	4819
2026-01-25 08:45:56.51	320.55	19.49	-40.5	-42.6	18.1	6.03e-01	0	45	0	6100615168	51	4887
2026-01-25 08:45:57.50	320.75	19.35	-40.6	-42.7	18.0	6.01e-01	0	45	0	6115295232	51	4951
2026-01-25 08:45:58.49	320.95	19.20	-40.6	-42.6	18.0	6.00e-01	0	45	0	6132072448	52	4636
2026-01-25 08:45:59.47	321.15	19.06	-40.5	-42.6	18.1	5.98e-01	0	45	0	6146752512	52	4620
2026-01-25 08:46:00.45	321.34	18.92	-40.6	-42.6	18.1	5.98e-01	0	45	0	6159335424	52	4641
2026-01-25 08:46:01.44	321.53	18.77	-40.6	-42.6	18.1	5.99e-01	0	45	0	6176112640	52	4603
2026-01-25 08:46:02.42	321.72	18.63	-40.6	-42.6	18.2	6.00e-01	0	45	0	6190792704	52	4632
2026-01-25 08:46:03.40	321.90	18.49	-40.6	-42.6	18.1	5.97e-01	0	45	0	6205472768	52	4626
2026-01-25 08:46:04.38	322.08	18.35	-40.7	-42.6	18.0	5.97e-01	0	45	0	6222249984	52	4651
2026-01-25 08:46:05.37	322.27	18.21	-40.7	-42.6	18.0	6.00e-01	0	45	0	6236930048	52	4641
2026-01-25 08:46:06.35	322.45	18.08	-40.7	-42.7	17.9	6.00e-01	0	45	0	6251610112	52	4698
2026-01-25 08:46:07.33	322.63	17.94	-40.8	-42.8	17.9	6.00e-01	0	45	0	6266290176	52	4727
2026-01-25 08:46:08.32	322.80	17.80	-40.9	-42.9	17.8	5.97e-01	0	45	0	6280970240	52	4787
2026-01-25 08:46:09.30	322.98	17.67	-40.8	-42.8	17.9	6.02e-01	0	45	0	6297747456	52	4739
2026-01-25 08:46:10.29	323.15	17.53	-40.8	-42.8	17.9	6.01e-01	0	45	0	6312427520	52	4718
2026-01-25 08:46:11.27	323.32	17.40	-40.8	-42.8	17.8	5.99e-01	0	45	0	6327107584	52	4721
2026-01-25 08:46:12.25	323.49	17.27	-40.9	-42.8	17.8	5.96e-01	0	45	0	6341787648	52	4758
2026-01-25 08:46:13.24	323.66	17.13	-40.9	-42.9	17.8	5.75e-01	0	45	0	6356467712	52	4792
2026-01-25 08:46:14.22	323.83	17.00	-41.0	-43.0	17.8	5.75e-01	0	45	0	6373244928	52	4827
2026-01-25 08:46:15.21	323.99	16.87	-41.0	-42.9	17.8	5.77e-01	0	45	0	6387924992	52	4806
2026-01-25 08:46:16.19	324.16	16.74	-40.9	-42.8	17.8	5.75e-01	0	45	0	6402605056	52	4759
2026-01-25 08:46:17.17	324.32	16.61	-41.0	-43.0	17.8	5.75e-01	0	45	0	6419382272	52	4820
2026-01-25 08:46:18.15	324.48	16.48	-40.9	-42.9	17.7	5.75e-01	0	45	0	6431965184	52	4807
2026-01-25 08:46:19.14	324.64	16.35	-40.9	-42.9	17.8	5.76e-01	0	45	0	6446645248	52	4803
2026-01-25 08:46:20.12	324.79	16.22	-41.0	-43.0	17.8	5.76e-01	0	45	0	6463422464	52	4843
2026-01-25 08:46:21.10	324.95	16.10	-41.0	-43.0	17.7	5.76e-01	0	45	0	6478102528	52	4854
2026-01-25 08:46:22.09	325.10	15.97	-41.1	-43.1	17.6	5.76e-01	0	45	0	6492782592	52	4917
2026-01-25 08:46:23.07	325.25	15.84	-41.1	-43.1	17.7	5.77e-01	0	44	0	6509559808	52	4885
2026-01-25 08:46:24.05	325.40	15.72	-42.6	-43.4	17.6	5.77e-01	0	45	0	6522142720	55	4251
2026-01-25 08:46:25.04	325.55	15.59	-54.1	-63.1	3.8	7.43e-01	0	45	104	6534725632	78	10909
2026-01-25 08:46:26.02	325.70	15.47	-54.1	-63.0	3.8	7.45e-01	0	45	104	6534725632	78	10827
2026-01-25 08:46:27.00	325.85	15.35	-54.1	-63.0	3.8	7.45e-01	0	45	104	6534725632	78	10792
2026-01-25 08:46:27.99	325.99	15.23	-54.1	-62.9	3.8	7.46e-01	0	45	104	6534725632	78	10771
2026-01-25 08:46:28.98	326.14	15.10	-54.1	-63.0	3.8	7.45e-01	0	45	104	6534725632	78	10791
2026-01-25 08:46:29.97	326.28	14.98	-54.1	-62.9	3.8	7.44e-01	0	45	104	6534725632	78	10745
2026-01-25 08:46:30.94	326.42	14.86	-54.1	-62.9	3.8	7.44e-01	0	45	104	6534725632	78	10767
2026-01-25 08:46:31.93	326.56	14.74	-54.1	-62.9	3.8	7.45e-01	0	45	104	6534725632	78	10765
2026-01-25 08:46:32.91	326.70	14.62	-54.1	-62.9	3.8	7.46e-01	0	45	104	6534725632	78	10763
2026-01-25 08:46:33.90	326.84	14.50	-54.1	-62.9	3.8	7.44e-01	0	45	104	6534725632	78	10712
2026-01-25 08:46:34.87	326.97	14.39	-54.1	-62.9	3.8	7.44e-01	0	45	104	6534725632	78	10753
2026-01-25 08:46:35.86	327.11	14.27	-54.1	-62.9	3.8	7.45e-01	0	45	104	6534725632	78	10734
2026-01-25 08:46:36.84	327.24	14.15	-54.1	-62.9	3.8	7.46e-01	0	45	104	6534725632	78	10708
2026-01-25 08:46:37.83	327.38	14.04	-54.0	-62.9	3.8	7.45e-01	0	45	104	6534725632	78	10680
2026-01-25 08:46:38.81	327.51	13.92	-54.1	-62.9	3.8	7.45e-01	0	45	104	6534725632	78	10702
2026-01-25 08:46:39.79	327.64	13.81	-54.0	-62.9	3.8	7.45e-01	0	45	104	6534725632	78	10682
2026-01-25 08:46:40.78	327.77	13.69	-54.0	-62.9	3.8	7.44e-01	0	45	104	6534725632	78	10680
2026-01-25 08:46:41.76	327.89	13.58	-54.0	-62.8	3.8	7.44e-01	0	45	104	6534725632	78	10639
2026-01-25 08:46:42.75	328.02	13.47	-54.0	-62.9	3.8	7.45e-01	0	45	104	6534725632	78	10673
2026-01-25 08:46:43.73	328.15	13.35	-54.0	-62.8	3.8	7.45e-01	0	44	104	6534725632	78	10615
2026-01-25 08:46:44.71	328.27	13.24	-54.0	-62.8	3.8	7.44e-01	0	45	104	6534725632	78	10605
2026-01-25 08:46:45.70	328.39	13.13	-54.0	-62.8	3.8	7.44e-01	0	45	104	6534725632	78	10586
2026-01-25 08:46:46.68	328.52	13.02	-54.0	-62.8	3.8	7.45e-01	0	45	104	6534725632	78	10618
2026-01-25 08:46:47.66	328.64	12.91	-54.0	-62.8	3.8	7.44e-01	0	45	104	6534725632	78	10614
2026-01-25 08:46:48.65	328.76	12.80	-54.0	-62.8	3.8	7.46e-01	0	45	104	6534725632	78	10571
2026-01-25 08:46:49.63	328.88	12.69	-53.9	-62.8	3.8	7.45e-01	0	45	104	6534725632	78	10538
2026-01-25 08:46:50.62	329.00	12.58	-54.0	-62.8	3.8	7.46e-01	0	45	104	6534725632	78	10548
2026-01-25 08:46:51.60	329.11	12.47	-53.9	-62.8	3.8	7.46e-01	0	44	104	6534725632	78	10559
2026-01-25 08:46:52.58	329.23	12.37	-53.9	-62.8	3.8	7.45e-01	0	45	104	6534725632	78	10546
2026-01-25 08:46:53.57	329.34	12.26	-53.9	-62.7	3.8	7.45e-01	0	45	104	6534725632	78	10506
2026-01-25 08:46:54.55	329.46	12.15	-53.9	-62.7	3.8	7.46e-01	0	44	104	6534725632	78	10530
2026-01-25 08:46:55.53	329.57	12.05	-53.9	-62.7	3.8	7.44e-01	0	44	104	6534725632	78	10521
2026-01-25 08:46:56.52	329.68	11.94	-53.9	-62.7	3.8	7.45e-01	0	44	104	6534725632	78	10520
2026-01-25 08:46:57.49	329.79	11.84	-53.9	-62.7	3.8	7.46e-01	0	45	104	6534725632	78	10434
2026-01-25 08:46:58.47	329.90	11.73	-53.9	-62.7	3.8	7.45e-01	0	45	104	6534725632	78	10496
2026-01-25 08:46:59.45	330.01	11.63	-53.9	-62.7	3.8	7.46e-01	0	45	104	6534725632	78	10459
2026-01-25 08:47:00.43	330.12	11.53	-53.9	-62.7	3.8	7.45e-01	0	45	104	6534725632	78	10442
2026-01-25 08:47:01.42	330.23	11.42	-53.8	-62.7	3.8	7.44e-01	0	45	104	6534725632	78	10446
2026-01-25 08:47:02.40	330.34	11.32	-53.8	-62.7	3.8	7.46e-01	0	45	104	6534725632	78	10417
2026-01-25 08:47:03.39	330.44	11.22	-53.8	-62.7	3.8	7.45e-01	0	45	104	6534725632	78	10437
2026-01-25 08:47:04.38	330.55	11.12	-53.8	-62.7	3.8	7.46e-01	0	45	104	6534725632	78	10414
2026-01-25 08:47:05.36	330.65	11.02	-53.8	-62.6	3.8	7.46e-01	0	45	104	6534725632	78	10387
2026-01-25 08:47:06.35	330.76	10.92	-53.8	-62.6	3.8	7.46e-01	0	45	104	6534725632	78	10354
2026-01-25 08:47:07.33	330.86	10.82	-53.8	-62.7	3.8	7.46e-01	0	45	104	6534725632	78	10441
2026-01-25 08:47:08.31	330.96	10.72	-53.8	-62.6	3.8	7.45e-01	0	45	104	6534725632	78	10367
2026-01-25 08:47:09.29	331.06	10.62	-53.8	-62.6	3.8	7.45e-01	0	45	104	6534725632	78	10375
2026-01-25 08:47:10.27	331.16	10.52	-53.8	-62.6	3.8	7.46e-01	0	45	104	6534725632	78	10298
2026-01-25 08:47:11.25	331.26	10.42	-53.8	-62.6	3.8	7.43e-01	0	45	104	6534725632	78	10351
2026-01-25 08:47:12.24	331.36	10.33	-53.8	-62.6	3.8	7.46e-01	0	45	104	6534725632	78	10328
2026-01-25 08:47:13.22	331.46	10.23	-53.8	-62.6	3.8	7.45e-01	0	45	104	6534725632	78	10308
2026-01-25 08:47:14.21	331.56	10.13	-53.7	-62.6	3.8	7.45e-01	0	45	104	6534725632	78	10310
2026-01-25 08:47:15.19	331.65	10.04	-53.7	-62.6	3.8	7.46e-01	0	45	104	6534725632	78	10331
2026-01-25 08:47:16.17	331.75	9.94	-52.8	-62.5	3.8	7.45e-01	0	45	104	6534725632	77	10863
2026-01-25 08:47:17.15	331.84	9.85	-53.7	-62.5	3.8	7.45e-01	0	45	104	6534725632	77	10876
2026-01-25 08:47:18.13	331.93	9.75	-52.9	-62.5	3.8	7.46e-01	0	45	104	6534725632	77	10856
2026-01-25 08:47:19.11	332.03	9.66	-53.4	-62.5	3.8	7.45e-01	0	45	104	6534725632	77	10870
2026-01-25 08:47:20.09	332.12	9.56	-47.3	-62.5	3.8	7.45e-01	0	45	104	6534725632	66	20475
2026-01-25 08:47:21.06	332.21	9.47	-52.7	-62.4	3.8	7.44e-01	0	45	104	6534725632	76	11403
2026-01-25 08:47:22.05	332.30	9.38	-47.1	-62.5	3.8	7.46e-01	0	45	104	6534725632	66	20380
2026-01-25 08:47:23.03	332.39	9.29	-53.6	-62.5	3.8	7.46e-01	0	45	104	6534725632	77	10845
2026-01-25 08:47:24.01	332.48	9.19	-52.7	-62.4	3.8	7.45e-01	0	45	104	6534725632	77	10756
2026-01-25 08:47:24.99	332.57	9.10	-53.1	-62.5	3.8	7.47e-01	0	45	104	6534725632	76	11428
2026-01-25 08:47:25.97	332.66	9.01	-51.5	-62.3	3.8	7.45e-01	0	44	104	6534725632	73	13322
2026-01-25 08:47:26.96	332.75	8.92	-53.6	-62.5	3.8	7.45e-01	0	45	104	6534725632	77	10820
2026-01-25 08:47:27.94	332.84	8.83	-53.6	-62.4	3.8	7.47e-01	0	45	104	6534725632	77	10736
2026-01-25 08:47:28.92	332.92	8.74	-53.5	-62.5	3.8	7.44e-01	0	45	104	6534725632	77	10793
2026-01-25 08:47:29.90	333.01	8.65	-53.4	-62.4	3.8	7.46e-01	0	45	104	6534725632	77	10678
2026-01-25 08:47:30.89	333.10	8.56	-53.6	-62.4	3.8	7.45e-01	0	45	104	6534725632	77	10764
2026-01-25 08:47:31.87	333.18	8.47	-53.6	-62.4	3.8	7.45e-01	0	45	104	6534725632	77	10695
2026-01-25 08:47:32.85	333.26	8.38	-53.6	-62.4	3.8	7.43e-01	0	45	104	6534725632	77	10764
2026-01-25 08:47:33.83	333.35	8.29	-53.5	-62.4	3.8	7.46e-01	0	45	104	6534725632	77	10681
2026-01-25 08:47:34.81	333.43	8.21	-53.6	-62.4	3.8	7.45e-01	0	45	104	6534725632	77	10762
2026-01-25 08:47:35.79	333.51	8.12	-53.5	-62.4	3.8	7.46e-01	0	45	104	6534725632	77	10658
2026-01-25 08:47:36.77	333.59	8.03	-53.6	-62.3	3.8	7.44e-01	0	45	104	6534725632	77	10654
2026-01-25 08:47:37.75	333.68	7.95	-53.5	-62.4	3.8	7.45e-01	0	45	104	6534725632	77	10656
2026-01-25 08:47:38.73	333.76	7.86	-53.5	-62.4	3.8	7.47e-01	0	45	104	6534725632	77	10662
2026-01-25 08:47:39.71	333.84	7.77	-53.5	-62.3	3.8	7.46e-01	0	45	104	6534725632	77	10595
2026-01-25 08:47:40.69	333.91	7.69	-53.5	-62.4	3.8	7.47e-01	0	45	104	6534725632	77	10661
2026-01-25 08:47:41.67	333.99	7.60	-53.4	-62.3	3.8	7.45e-01	0	45	104	6534725632	77	10543
2026-01-25 08:47:42.65	334.07	7.52	-53.5	-62.4	3.8	7.46e-01	0	45	104	6534725632	77	10665
2026-01-25 08:47:43.63	334.15	7.43	-53.5	-62.3	3.8	7.46e-01	0	45	104	6534725632	77	10572
2026-01-25 08:47:44.61	334.23	7.35	-53.5	-62.3	3.8	7.45e-01	0	45	104	6534725632	77	10622
2026-01-25 08:47:45.59	334.30	7.26	-53.4	-62.3	3.8	7.44e-01	0	45	104	6534725632	77	10541
2026-01-25 08:47:46.58	334.38	7.18	-53.5	-62.3	3.8	7.46e-01	0	45	104	6534725632	77	10612
2026-01-25 08:47:47.56	334.46	7.10	-53.4	-62.2	3.8	7.44e-01	0	45	104	6534725632	77	10517
2026-01-25 08:47:48.55	334.53	7.01	-53.4	-62.3	3.8	7.44e-01	0	45	104	6534725632	77	10558
2026-01-25 08:47:49.53	334.61	6.93	-53.4	-62.2	3.8	7.45e-01	0	45	104	6534725632	77	10504
2026-01-25 08:47:50.51	334.68	6.85	-53.4	-62.3	3.8	7.44e-01	0	45	104	6534725632	77	10564
2026-01-25 08:47:51.49	334.75	6.77	-53.4	-62.2	3.8	7.45e-01	0	45	104	6534725632	77	10527
2026-01-25 08:47:52.47	334.83	6.69	-53.4	-62.3	3.8	7.45e-01	0	45	104	6534725632	77	10557
2026-01-25 08:47:53.45	334.90	6.60	-53.4	-62.2	3.8	7.44e-01	0	45	104	6534725632	77	10456
2026-01-25 08:47:54.43	334.97	6.52	-53.4	-62.2	3.8	7.45e-01	0	45	104	6534725632	77	10472
2026-01-25 08:47:55.42	335.05	6.44	-53.4	-62.2	3.8	7.46e-01	0	45	104	6534725632	77	10473
2026-01-25 08:47:56.40	335.12	6.36	-53.4	-62.2	3.8	7.48e-01	0	45	104	6534725632	77	10460
2026-01-25 08:47:57.38	335.19	6.28	-53.3	-62.2	3.8	7.46e-01	0	45	104	6534725632	77	10472
2026-01-25 08:47:58.37	335.26	6.20	-53.3	-62.2	3.8	7.44e-01	0	45	104	6534725632	77	10414
2026-01-25 08:47:59.35	335.33	6.12	-53.4	-62.2	3.8	7.46e-01	0	45	104	6534725632	77	10474
2026-01-25 08:48:00.34	335.40	6.04	-53.3	-62.1	3.8	7.47e-01	0	45	104	6534725632	77	10356
2026-01-25 08:48:01.32	335.47	5.96	-53.3	-62.2	3.8	7.46e-01	0	45	104	6534725632	77	10425
2026-01-25 08:48:02.30	335.54	5.88	-53.3	-62.1	3.8	7.45e-01	0	45	104	6534725632	77	10345
2026-01-25 08:48:03.29	335.60	5.81	-53.3	-62.1	3.8	7.45e-01	0	45	104	6534725632	77	10387
2026-01-25 08:48:04.27	335.67	5.73	-53.3	-62.1	3.8	7.44e-01	0	45	104	6534725632	77	10296
2026-01-25 08:48:05.25	335.74	5.65	-53.3	-62.1	3.8	7.45e-01	0	44	104	6534725632	77	10375
2026-01-25 08:48:06.24	335.81	5.57	-53.2	-62.0	3.8	7.45e-01	0	45	104	6534725632	77	10251
2026-01-25 08:48:07.22	335.87	5.49	-53.3	-62.1	3.8	7.45e-01	0	45	104	6534725632	77	10341
2026-01-25 08:48:08.20	335.94	5.42	-53.2	-62.0	3.8	7.46e-01	0	45	104	6534725632	77	10247
2026-01-25 08:48:09.18	336.01	5.34	-53.3	-62.1	3.8	7.45e-01	0	44	104	6534725632	77	10318
2026-01-25 08:48:10.16	336.07	5.27	-53.1	-61.9	3.8	7.45e-01	0	45	104	6534725632	77	10148
2026-01-25 08:48:11.14	336.14	5.19	-53.3	-62.1	3.8	7.45e-01	0	45	104	6534725632	77	10321
2026-01-25 08:48:12.13	336.20	5.11	-53.1	-62.0	3.8	7.43e-01	0	45	104	6534725632	77	10183
2026-01-25 08:48:13.11	336.26	5.04	-53.2	-62.0	3.8	7.45e-01	0	45	104	6534725632	77	10286
2026-01-25 08:48:14.10	336.33	4.96	-53.5	-62.3	3.8	7.44e-01	0	45	104	6534725632	77	10556
2026-01-25 08:48:15.08	336.39	4.89	-53.9	-62.7	3.8	7.45e-01	0	45	104	6534725632	78	10457
2026-01-25 08:48:16.06	336.45	4.81	-54.1	-62.9	3.8	7.47e-01	0	44	104	6534725632	78	10716
2026-01-25 08:48:17.04	336.52	4.74	-54.2	-63.1	3.8	7.44e-01	0	45	104	6534725632	79	10310
2026-01-25 08:48:18.02	336.58	4.66	-54.4	-63.2	3.8	7.45e-01	0	45	104	6534725632	79	10465
2026-01-25 08:48:19.00	336.64	4.59	-54.5	-63.3	3.8	7.45e-01	0	45	104	6534725632	79	10590
2026-01-25 08:48:19.98	336.70	4.52	-54.6	-63.4	3.8	7.45e-01	0	45	104	6534725632	79	10712
2026-01-25 08:48:20.97	336.76	4.44	-54.7	-63.5	3.8	7.44e-01	0	45	104	6534725632	79	10872
2026-01-25 08:48:21.95	336.82	4.37	-54.7	-63.5	3.8	7.45e-01	0	45	104	6534725632	80	10275
2026-01-25 08:48:22.93	336.88	4.30	-54.8	-63.6	3.8	7.45e-01	0	45	104	6534725632	80	10382
2026-01-25 08:48:23.91	336.94	4.22	-54.8	-63.7	3.8	7.47e-01	0	45	104	6534725632	80	10458
2026-01-25 08:48:24.89	337.00	4.15	-54.9	-63.8	3.8	7.46e-01	0	45	104	6534725632	80	10539
2026-01-25 08:48:25.87	337.06	4.08	-54.9	-63.7	3.8	7.45e-01	0	45	104	6534725632	80	10482
2026-01-25 08:48:26.85	337.12	4.01	-55.0	-63.8	3.8	7.44e-01	0	45	104	6534725632	80	10604
2026-01-25 08:48:27.83	337.18	3.94	-55.0	-63.7	3.8	7.47e-01	0	45	104	6534725632	80	10497
2026-01-25 08:48:28.81	337.24	3.86	-55.0	-63.8	3.8	7.45e-01	0	45	104	6534725632	80	10626
2026-01-25 08:48:29.79	337.30	3.79	-55.1	-63.9	3.8	7.45e-01	0	45	104	6534725632	80	10683
2026-01-25 08:48:30.77	337.35	3.72	-55.1	-63.9	3.8	7.44e-01	0	45	104	6534725632	80	10713
2026-01-25 08:48:31.76	337.41	3.65	-55.1	-63.9	3.8	7.46e-01	0	45	104	6534725632	80	10729
2026-01-25 08:48:32.74	337.47	3.58	-55.1	-63.9	3.8	7.45e-01	0	45	104	6534725632	80	10683
2026-01-25 08:48:33.72	337.53	3.51	-55.1	-63.9	3.8	7.45e-01	0	45	104	6534725632	80	10731
2026-01-25 08:48:34.70	337.58	3.44	-55.1	-63.9	3.8	7.46e-01	0	45	104	6534725632	80	10729
2026-01-25 08:48:35.68	337.64	3.37	-55.1	-63.9	3.8	7.46e-01	0	45	104	6534725632	80	10679
2026-01-25 08:48:36.66	337.69	3.30	-55.0	-63.9	3.8	7.45e-01	0	45	104	6534725632	80	10661
2026-01-25 08:48:37.65	337.75	3.23	-55.0	-63.8	3.8	7.46e-01	0	45	104	6534725632	80	10616
2026-01-25 08:48:38.62	337.80	3.16	-55.0	-63.8	3.8	7.44e-01	0	45	104	6534725632	80	10646
2026-01-25 08:48:39.61	337.86	3.09	-55.0	-63.8	3.8	7.45e-01	0	45	104	6534725632	80	10592
2026-01-25 08:48:40.59	337.91	3.02	-54.9	-63.8	3.8	7.47e-01	0	45	104	6534725632	80	10570
2026-01-25 08:48:41.57	337.97	2.95	-54.9	-63.7	3.8	7.44e-01	0	45	104	6534725632	80	10521
2026-01-25 08:48:42.55	338.02	2.89	-54.9	-63.7	3.8	7.45e-01	0	45	104	6534725632	80	10499
2026-01-25 08:48:43.53	338.07	2.82	-54.9	-63.7	3.8	7.44e-01	0	45	104	6534725632	80	10515
2026-01-25 08:48:44.51	338.13	2.75	-54.9	-63.7	3.8	7.44e-01	0	45	104	6534725632	80	10492
2026-01-25 08:48:45.50	338.18	2.68	-54.9	-63.7	3.8	7.45e-01	0	45	104	6534725632	80	10489
2026-01-25 08:48:46.49	338.23	2.61	-54.9	-63.7	3.8	7.45e-01	0	45	104	6534725632	80	10434
2026-01-25 08:48:47.48	338.29	2.54	-54.8	-63.7	3.8	7.45e-01	0	45	104	6534725632	80	10454
2026-01-25 08:48:48.46	338.34	2.48	-54.8	-63.6	3.8	7.43e-01	0	45	104	6534725632	80	10396
2026-01-25 08:48:49.45	338.39	2.41	-54.8	-63.6	3.8	7.43e-01	0	44	104	6534725632	80	10337
2026-01-25 08:48:50.43	338.44	2.34	-54.8	-63.6	3.8	7.46e-01	0	45	104	6534725632	80	10304
2026-01-25 08:48:51.41	338.49	2.28	-54.8	-63.6	3.8	7.47e-01	0	45	104	6534725632	80	10362
2026-01-25 08:48:52.39	338.55	2.21	-54.8	-63.6	3.8	7.47e-01	0	45	104	6534725632	80	10397
2026-01-25 08:48:53.38	338.60	2.14	-54.8	-63.6	3.8	7.46e-01	0	45	104	6534725632	80	10371
2026-01-25 08:48:54.36	338.65	2.08	-54.8	-63.6	3.8	7.46e-01	0	45	104	6534725632	80	10381
2026-01-25 08:48:55.34	338.70	2.01	-54.8	-63.6	3.8	7.43e-01	0	45	104	6534725632	80	10330

#Closed at: 2026-01-25 08:48:55
#Recorded file [6534 MB]: D:/lorett/data/31041_260125_113841.dat