passes_logs/2026/01/25/R3.2S_Murmansk/R3.2S_Murmansk__20260125_054143_FENGYUN_3D_rec.log

#Pass ID: 20260125_054143_FENGYUN 3D
#Satellite: FENGYUN 3D
#Configuration: FENGYUN 3D
#almurnet v.1.7.20251203
#Start time: 2026-01-25 05:41:45

#Version: 2.2.20231116
#Station: R3.2S_Murmansk
#Location: 33.079688 lon 68.888172 lat
#TLE: 1 43010U 17072A   26024.51794477  .00000040  00000+0  40682-4 0  9990
#TLE: 2 43010  98.9961 356.4820 0002494  91.2631 268.8830 14.19699550424601

#Time	Az	El	Level	Level2	SNR	BER	BlckErr	Temp	State	Recorded	gain1	gain2
2026-01-25 05:41:45.59	43.54	2.14	-52.1	-64.0	3.8	8.45e-01	0	42	0	0	76	13656
2026-01-25 05:41:46.60	43.49	2.20	-52.1	-64.0	3.8	8.46e-01	0	42	104	0	74	15355
2026-01-25 05:41:47.61	43.43	2.26	-52.1	-64.0	3.8	8.46e-01	0	42	104	0	74	15323
2026-01-25 05:41:48.62	43.38	2.32	-52.1	-64.0	3.8	8.46e-01	0	42	104	0	74	15245
2026-01-25 05:41:49.63	43.32	2.38	-52.1	-64.0	3.8	8.46e-01	0	42	104	0	74	15243
2026-01-25 05:41:50.64	43.26	2.44	-52.1	-64.0	3.8	8.46e-01	0	42	104	0	74	15229
2026-01-25 05:41:51.65	43.21	2.50	-52.1	-64.0	3.8	8.45e-01	0	42	104	0	74	15269
2026-01-25 05:41:52.65	43.15	2.56	-52.1	-64.0	3.8	8.46e-01	0	42	104	0	74	15238
2026-01-25 05:41:53.66	43.10	2.62	-52.1	-64.0	3.8	8.46e-01	0	43	104	0	74	15236
2026-01-25 05:41:54.67	43.04	2.68	-52.1	-64.0	3.8	8.46e-01	0	43	104	0	74	15275
2026-01-25 05:41:55.68	42.98	2.74	-52.0	-63.9	3.8	8.48e-01	0	43	104	0	74	15190
2026-01-25 05:41:56.69	42.92	2.80	-52.1	-63.9	3.8	8.46e-01	0	43	104	0	74	15112
2026-01-25 05:41:57.70	42.87	2.86	-52.0	-63.9	3.8	8.47e-01	0	43	104	0	74	15057
2026-01-25 05:41:58.71	42.81	2.92	-52.1	-63.8	3.8	8.46e-01	0	43	104	0	74	14960
2026-01-25 05:41:59.71	42.75	2.98	-52.1	-63.8	3.8	8.46e-01	0	42	104	0	74	15016
2026-01-25 05:42:00.72	42.69	3.04	-52.1	-63.9	3.8	8.46e-01	0	43	104	0	74	15114
2026-01-25 05:42:01.73	42.63	3.10	-52.1	-63.9	3.8	8.46e-01	0	43	104	0	74	15218
2026-01-25 05:42:02.74	42.57	3.17	-52.1	-64.0	3.8	8.46e-01	0	43	104	0	74	15237
2026-01-25 05:42:03.75	42.52	3.23	-52.1	-64.0	3.8	8.46e-01	0	43	104	0	74	15259
2026-01-25 05:42:04.75	42.46	3.29	-52.1	-63.9	3.8	8.45e-01	0	43	104	0	74	15149
2026-01-25 05:42:05.76	42.40	3.35	-52.0	-63.8	3.8	8.45e-01	0	43	104	0	74	14978
2026-01-25 05:42:06.77	42.34	3.41	-52.0	-63.7	3.8	8.47e-01	0	43	104	0	74	14786
2026-01-25 05:42:07.78	42.28	3.47	-52.0	-63.6	3.8	8.46e-01	0	43	104	0	74	14597
2026-01-25 05:42:08.79	42.22	3.53	-52.0	-63.7	3.8	8.46e-01	0	43	104	0	74	14807
2026-01-25 05:42:09.80	42.15	3.60	-52.1	-63.9	3.8	8.46e-01	0	43	104	0	74	15090
2026-01-25 05:42:10.81	42.09	3.66	-52.1	-63.9	3.8	8.47e-01	0	43	104	0	74	15217
2026-01-25 05:42:11.81	42.03	3.72	-52.0	-63.8	3.8	8.46e-01	0	43	104	0	74	15010
2026-01-25 05:42:12.82	41.97	3.78	-52.0	-63.3	3.8	8.47e-01	0	43	104	0	74	14158
2026-01-25 05:42:13.83	41.91	3.84	-51.9	-62.4	3.8	8.45e-01	0	43	104	0	74	12808
2026-01-25 05:42:14.84	41.85	3.91	-51.8	-61.0	4.0	8.45e-01	0	43	104	0	74	10840
2026-01-25 05:42:15.84	41.79	3.97	-51.7	-60.6	4.1	8.39e-01	0	43	0	0	74	10303
2026-01-25 05:42:16.85	41.72	4.03	-51.6	-59.9	4.4	8.31e-01	0	43	0	0	74	9524
2026-01-25 05:42:17.86	41.66	4.10	-51.6	-59.7	4.4	8.26e-01	0	43	0	0	74	9288
2026-01-25 05:42:18.87	41.60	4.16	-51.6	-59.6	4.4	8.19e-01	0	43	0	0	74	9267
2026-01-25 05:42:19.88	41.53	4.22	-51.6	-59.8	4.4	8.25e-01	0	43	0	0	74	9415
2026-01-25 05:42:20.89	41.47	4.28	-51.5	-59.4	4.5	8.24e-01	0	43	0	0	74	9029
2026-01-25 05:42:21.90	41.40	4.35	-51.3	-58.4	5.0	7.85e-01	0	43	0	0	74	8048
2026-01-25 05:42:22.91	41.34	4.41	-51.1	-57.3	5.7	6.28e-01	0	43	0	0	74	7046
2026-01-25 05:42:23.91	41.28	4.47	-50.5	-55.5	7.2	2.07e-01	0	44	0	5242880	73	6090
2026-01-25 05:42:24.92	41.21	4.54	-49.9	-53.8	9.0	6.18e-02	0	43	0	11534336	71	5596
2026-01-25 05:42:25.93	41.14	4.60	-49.3	-52.7	10.2	1.06e-02	0	43	0	16777216	70	5221
2026-01-25 05:42:26.94	41.08	4.67	-48.6	-51.4	11.5	1.83e-03	0	43	0	22020096	69	4790
2026-01-25 05:42:27.95	41.01	4.73	-48.2	-50.8	12.1	4.95e-04	0	43	0	28311552	68	4721
2026-01-25 05:42:28.96	40.95	4.79	-47.7	-50.1	12.8	1.40e-04	0	43	0	33554432	67	4599
2026-01-25 05:42:29.97	40.88	4.86	-47.6	-49.8	13.1	6.86e-05	0	43	0	39845888	67	4484
2026-01-25 05:42:30.98	40.81	4.92	-47.7	-50.0	12.9	4.46e-05	0	43	0	45088768	67	4584
2026-01-25 05:42:31.98	40.75	4.99	-47.9	-50.3	12.6	1.73e-04	0	43	0	50331648	67	4727
2026-01-25 05:42:32.99	40.68	5.05	-48.3	-51.0	11.8	4.46e-04	0	43	0	56623104	67	5113
2026-01-25 05:42:34.00	40.61	5.12	-48.0	-50.5	12.4	3.22e-04	0	43	0	62914560	67	4855
2026-01-25 05:42:35.01	40.54	5.18	-47.7	-50.0	13.0	2.86e-05	0	43	0	68157440	66	4843
2026-01-25 05:42:36.02	40.47	5.25	-51.4	-59.1	4.7	4.21e-02	0	43	0	72351744	73	9238
2026-01-25 05:42:37.03	40.41	5.31	-43.0	-44.0	19.5	0.00e+00	0	43	0	77594624	58	3860
2026-01-25 05:42:38.03	40.34	5.37	-52.0	-62.9	3.8	3.31e-01	0	43	104	80740352	74	13560
2026-01-25 05:42:39.04	40.27	5.44	-43.1	-44.1	18.8	3.33e-02	0	43	104	80740352	58	3894
2026-01-25 05:42:40.05	40.20	5.51	-42.8	-43.8	19.8	0.00e+00	0	43	0	85983232	57	3966
2026-01-25 05:42:41.05	40.13	5.57	-42.7	-43.7	19.9	0.00e+00	0	43	0	91226112	57	3923
2026-01-25 05:42:42.06	40.06	5.64	-42.6	-43.6	20.0	0.00e+00	0	44	0	97517568	57	3870
2026-01-25 05:42:43.08	39.99	5.70	-42.9	-44.0	19.6	0.00e+00	0	44	0	102760448	57	4067
2026-01-25 05:42:44.09	39.91	5.77	-42.8	-43.8	19.7	0.00e+00	0	43	0	109051904	57	3982
2026-01-25 05:42:45.09	39.84	5.83	-42.7	-43.8	19.8	0.00e+00	0	43	0	114294784	57	3965
2026-01-25 05:42:46.10	39.77	5.90	-42.7	-43.7	19.9	0.00e+00	0	43	0	120586240	57	3955
2026-01-25 05:42:47.11	39.70	5.97	-42.7	-43.7	19.9	0.00e+00	0	44	0	125829120	57	3949
2026-01-25 05:42:48.12	39.63	6.03	-42.8	-43.8	19.8	0.00e+00	0	43	0	132120576	57	3967
2026-01-25 05:42:49.12	39.56	6.10	-42.5	-43.5	20.2	0.00e+00	0	44	0	137363456	57	3827
2026-01-25 05:42:50.13	39.48	6.17	-42.6	-43.6	20.0	0.00e+00	0	43	0	142606336	56	4108
2026-01-25 05:42:51.14	39.41	6.23	-42.8	-43.8	19.8	0.00e+00	0	43	0	148897792	56	4206
2026-01-25 05:42:52.15	39.33	6.30	-42.6	-43.6	20.1	0.00e+00	0	44	0	154140672	56	4132
2026-01-25 05:42:53.16	39.26	6.37	-42.7	-43.6	20.0	0.00e+00	0	44	0	159383552	56	4142
2026-01-25 05:42:54.17	39.19	6.43	-42.7	-43.7	20.0	0.00e+00	0	44	0	165675008	56	4164
2026-01-25 05:42:55.17	39.11	6.50	-42.5	-43.4	20.2	0.00e+00	0	44	0	170917888	56	4051
2026-01-25 05:42:56.18	39.04	6.57	-42.6	-43.5	20.2	0.00e+00	0	44	0	176160768	56	4090
2026-01-25 05:42:57.19	38.96	6.63	-42.7	-43.7	20.0	0.00e+00	0	44	0	182452224	56	4154
2026-01-25 05:42:58.20	38.88	6.70	-42.6	-43.5	20.2	0.00e+00	0	44	0	188743680	56	4093
2026-01-25 05:42:59.21	38.81	6.77	-42.6	-43.6	20.1	0.00e+00	0	44	0	193986560	56	4105
2026-01-25 05:43:00.21	38.73	6.84	-42.4	-43.4	20.3	0.00e+00	0	44	0	199229440	56	4018
2026-01-25 05:43:01.22	38.65	6.91	-42.7	-43.6	20.1	0.00e+00	0	44	0	205520896	56	4141
2026-01-25 05:43:02.23	38.58	6.97	-42.7	-43.7	20.0	0.00e+00	0	44	0	210763776	56	4189
2026-01-25 05:43:03.24	38.50	7.04	-42.5	-43.4	20.3	0.00e+00	0	44	0	217055232	56	4045
2026-01-25 05:43:04.24	38.42	7.11	-42.6	-43.6	20.1	0.00e+00	0	44	0	222298112	56	4124
2026-01-25 05:43:05.25	38.34	7.18	-42.5	-43.5	20.3	0.00e+00	0	44	0	227540992	56	4054
2026-01-25 05:43:06.26	38.26	7.25	-42.5	-43.4	20.3	0.00e+00	0	44	0	233832448	56	4050
2026-01-25 05:43:07.27	38.18	7.32	-42.4	-43.3	20.4	0.00e+00	0	44	0	239075328	56	4003
2026-01-25 05:43:08.28	38.10	7.38	-42.5	-43.5	20.3	0.00e+00	0	44	0	244318208	56	4066
2026-01-25 05:43:09.29	38.02	7.45	-42.6	-43.6	20.2	0.00e+00	0	44	0	250609664	56	4115
2026-01-25 05:43:10.29	37.94	7.52	-42.6	-43.6	20.2	0.00e+00	0	44	0	256901120	56	4102
2026-01-25 05:43:11.30	37.86	7.59	-42.5	-43.4	20.4	0.00e+00	0	44	0	262144000	56	4040
2026-01-25 05:43:12.31	37.78	7.66	-42.5	-43.4	20.4	0.00e+00	0	44	0	267386880	56	4048
2026-01-25 05:43:13.32	37.70	7.73	-42.9	-43.9	19.9	0.00e+00	0	44	0	273678336	56	4275
2026-01-25 05:43:14.33	37.62	7.80	-42.4	-43.3	20.5	0.00e+00	0	44	0	278921216	56	4003
2026-01-25 05:43:15.34	37.53	7.87	-42.5	-43.4	20.4	0.00e+00	0	44	0	284164096	56	4049
2026-01-25 05:43:16.35	37.45	7.94	-42.4	-43.4	20.4	0.00e+00	0	44	0	290455552	56	4028
2026-01-25 05:43:17.36	37.37	8.01	-42.3	-43.3	20.5	0.00e+00	0	44	0	295698432	56	3984
2026-01-25 05:43:18.37	37.28	8.08	-42.7	-43.7	20.2	0.00e+00	0	44	0	301989888	56	4167
2026-01-25 05:43:19.38	37.20	8.15	-42.7	-43.7	20.2	0.00e+00	0	44	0	307232768	56	4164
2026-01-25 05:43:20.39	37.11	8.22	-42.5	-43.5	20.4	0.00e+00	0	44	0	312475648	56	4076
2026-01-25 05:43:21.40	37.03	8.29	-42.4	-43.4	20.5	0.00e+00	0	44	0	318767104	56	4006
2026-01-25 05:43:22.41	36.94	8.36	-42.4	-43.4	20.5	0.00e+00	0	44	0	325058560	56	4015
2026-01-25 05:43:23.41	36.86	8.43	-42.3	-43.2	20.7	0.00e+00	0	44	0	330301440	56	3939
2026-01-25 05:43:24.42	36.77	8.51	-42.4	-43.3	20.6	0.00e+00	0	44	0	335544320	56	4004
2026-01-25 05:43:25.43	36.68	8.58	-42.5	-43.5	20.4	0.00e+00	0	44	0	341835776	56	4058
2026-01-25 05:43:26.44	36.59	8.65	-42.6	-43.6	20.3	0.00e+00	0	44	0	347078656	56	4137
2026-01-25 05:43:27.45	36.51	8.72	-42.4	-43.4	20.5	0.00e+00	0	44	0	352321536	56	4029
2026-01-25 05:43:28.45	36.42	8.79	-42.5	-43.4	20.5	0.00e+00	0	44	0	358612992	56	4038
2026-01-25 05:43:29.46	36.33	8.86	-42.1	-43.1	20.8	0.00e+00	0	44	0	363855872	56	3883
2026-01-25 05:43:30.47	36.24	8.93	-42.0	-42.9	21.0	0.00e+00	0	44	0	369098752	56	3811
2026-01-25 05:43:31.48	36.15	9.01	-41.9	-42.8	21.1	0.00e+00	0	44	0	375390208	55	3974
2026-01-25 05:43:32.49	36.06	9.08	-41.7	-42.6	21.2	0.00e+00	0	44	0	380633088	55	3890
2026-01-25 05:43:33.49	35.97	9.15	-41.9	-42.8	21.0	0.00e+00	0	44	0	386924544	55	3983
2026-01-25 05:43:34.50	35.88	9.22	-41.9	-42.8	21.1	0.00e+00	0	44	0	392167424	55	3968
2026-01-25 05:43:35.51	35.79	9.29	-42.0	-42.9	20.9	0.00e+00	0	44	0	398458880	55	4033
2026-01-25 05:43:36.52	35.70	9.37	-41.9	-42.8	21.0	0.00e+00	0	44	0	403701760	55	3987
2026-01-25 05:43:37.53	35.60	9.44	-41.8	-42.7	21.1	0.00e+00	0	44	0	409993216	55	3958
2026-01-25 05:43:38.54	35.51	9.51	-41.8	-42.7	21.2	0.00e+00	0	44	0	415236096	55	3915
2026-01-25 05:43:39.55	35.42	9.59	-41.6	-42.5	21.3	0.00e+00	0	44	0	420478976	55	3846
2026-01-25 05:43:40.56	35.32	9.66	-41.6	-42.4	21.4	0.00e+00	0	44	0	426770432	55	3824
2026-01-25 05:43:41.57	35.23	9.73	-41.6	-42.4	21.4	0.00e+00	0	44	0	432013312	55	3824
2026-01-25 05:43:42.57	35.13	9.81	-41.7	-42.6	21.3	0.00e+00	0	44	0	437256192	55	3895
2026-01-25 05:43:43.58	35.04	9.88	-41.6	-42.5	21.4	0.00e+00	0	44	0	443547648	55	3843
2026-01-25 05:43:44.59	34.94	9.95	-41.7	-42.6	21.3	0.00e+00	0	44	0	448790528	55	3888
2026-01-25 05:43:45.60	34.85	10.03	-41.7	-42.6	21.3	0.00e+00	0	44	0	455081984	55	3882
2026-01-25 05:43:46.61	34.75	10.10	-41.7	-42.6	21.2	0.00e+00	0	44	0	460324864	55	3899
2026-01-25 05:43:47.62	34.65	10.18	-41.4	-42.3	21.5	0.00e+00	0	44	0	466616320	54	3974
2026-01-25 05:43:48.63	34.55	10.25	-41.5	-42.4	21.5	0.00e+00	0	44	0	471859200	54	4029
2026-01-25 05:43:49.64	34.45	10.33	-41.5	-42.4	21.5	0.00e+00	0	44	0	477102080	54	4023
2026-01-25 05:43:50.65	34.36	10.40	-41.6	-42.5	21.4	0.00e+00	0	44	0	483393536	54	4060
2026-01-25 05:43:51.65	34.26	10.47	-41.4	-42.3	21.6	0.00e+00	0	44	0	488636416	54	3970
2026-01-25 05:43:52.66	34.16	10.55	-41.5	-42.3	21.5	0.00e+00	0	44	0	494927872	54	4000
2026-01-25 05:43:53.67	34.06	10.62	-41.4	-42.3	21.6	0.00e+00	0	44	0	500170752	54	3991
2026-01-25 05:43:54.68	33.95	10.70	-41.4	-42.2	21.7	0.00e+00	0	44	0	505413632	54	3958
2026-01-25 05:43:55.69	33.85	10.78	-41.4	-42.3	21.6	0.00e+00	0	44	0	511705088	54	3966
2026-01-25 05:43:56.69	33.75	10.85	-41.3	-42.2	21.7	0.00e+00	0	44	0	517996544	54	3914
2026-01-25 05:43:57.70	33.65	10.93	-41.4	-42.2	21.7	0.00e+00	0	44	0	523239424	54	3942
2026-01-25 05:43:58.71	33.55	11.00	-41.3	-42.1	21.8	0.00e+00	0	44	0	528482304	54	3892
2026-01-25 05:43:59.72	33.44	11.08	-41.2	-42.1	21.8	0.00e+00	0	44	0	534773760	54	3875
2026-01-25 05:44:00.73	33.34	11.15	-41.2	-42.0	21.9	0.00e+00	0	44	0	540016640	54	3866
2026-01-25 05:44:01.73	33.23	11.23	-41.1	-41.9	22.0	0.00e+00	0	44	0	545259520	54	3821
2026-01-25 05:44:02.74	33.13	11.31	-41.2	-42.0	21.9	0.00e+00	0	44	0	551550976	54	3851
2026-01-25 05:44:03.75	33.02	11.38	-41.3	-42.1	21.8	0.00e+00	0	44	0	556793856	54	3893
2026-01-25 05:44:04.76	32.91	11.46	-41.2	-42.0	21.9	0.00e+00	0	44	0	562036736	54	3853
2026-01-25 05:44:05.77	32.81	11.54	-41.1	-42.0	22.0	0.00e+00	0	44	0	568328192	54	3832
2026-01-25 05:44:06.77	32.70	11.61	-41.1	-41.9	22.0	0.00e+00	0	44	0	573571072	54	3812
2026-01-25 05:44:07.78	32.59	11.69	-41.0	-41.9	22.1	0.00e+00	0	44	0	579862528	53	4017
2026-01-25 05:44:08.79	32.48	11.77	-41.1	-41.9	22.0	0.00e+00	0	44	0	585105408	53	4040
2026-01-25 05:44:09.80	32.37	11.84	-41.0	-41.9	22.1	0.00e+00	0	44	0	591396864	53	4014
2026-01-25 05:44:10.81	32.26	11.92	-41.1	-41.9	22.0	0.00e+00	0	44	0	596639744	53	4037
2026-01-25 05:44:11.81	32.15	12.00	-41.1	-41.9	22.0	0.00e+00	0	44	0	602931200	53	4045
2026-01-25 05:44:12.82	32.04	12.08	-41.1	-41.9	22.0	0.00e+00	0	44	0	608174080	53	4043
2026-01-25 05:44:13.83	31.93	12.15	-41.1	-41.9	22.0	0.00e+00	0	44	0	613416960	53	4031
2026-01-25 05:44:14.84	31.82	12.23	-41.3	-42.2	21.8	0.00e+00	0	44	0	619708416	53	4166
2026-01-25 05:44:15.85	31.70	12.31	-41.2	-42.0	21.9	0.00e+00	0	44	0	624951296	53	4088
2026-01-25 05:44:16.86	31.59	12.39	-41.1	-42.0	22.0	0.00e+00	0	44	0	630194176	53	4056
2026-01-25 05:44:17.86	31.47	12.47	-40.9	-41.8	22.2	0.00e+00	0	44	0	636485632	53	3969
2026-01-25 05:44:18.87	31.36	12.54	-41.1	-42.0	22.0	0.00e+00	0	44	0	641728512	53	4070
2026-01-25 05:44:19.88	31.24	12.62	-41.1	-41.9	22.1	0.00e+00	0	44	0	646971392	53	4026
2026-01-25 05:44:20.89	31.13	12.70	-41.1	-41.9	22.1	0.00e+00	0	44	0	653262848	53	4048
2026-01-25 05:44:21.89	31.01	12.78	-41.1	-41.9	22.1	0.00e+00	0	44	0	659554304	53	4043
2026-01-25 05:44:22.90	30.89	12.86	-40.9	-41.8	22.2	0.00e+00	0	44	0	664797184	53	3966
2026-01-25 05:44:23.91	30.77	12.94	-41.0	-41.8	22.1	0.00e+00	0	44	0	670040064	53	4003
2026-01-25 05:44:24.92	30.65	13.02	-41.0	-41.8	22.1	0.00e+00	0	44	0	676331520	53	3997
2026-01-25 05:44:25.92	30.54	13.10	-41.0	-41.9	22.1	0.00e+00	0	44	0	681574400	53	4008
2026-01-25 05:44:26.93	30.42	13.18	-40.9	-41.7	22.2	0.00e+00	0	44	0	687865856	53	3957
2026-01-25 05:44:27.94	30.29	13.26	-40.8	-41.6	22.4	0.00e+00	0	44	0	693108736	53	3879
2026-01-25 05:44:28.95	30.17	13.34	-40.9	-41.7	22.3	0.00e+00	0	44	0	698351616	53	3934
2026-01-25 05:44:29.96	30.05	13.42	-40.6	-41.5	22.5	0.00e+00	0	44	0	704643072	53	3825
2026-01-25 05:44:30.97	29.93	13.50	-40.7	-41.6	22.4	0.00e+00	0	44	0	709885952	53	3869
2026-01-25 05:44:31.98	29.80	13.58	-40.7	-41.5	22.4	0.00e+00	0	44	0	715128832	53	3864
2026-01-25 05:44:32.99	29.68	13.66	-40.7	-41.5	22.5	0.00e+00	0	44	0	721420288	53	3834
2026-01-25 05:44:33.99	29.55	13.74	-40.6	-41.4	22.5	0.00e+00	0	44	0	727711744	53	3818
2026-01-25 05:44:35.00	29.43	13.82	-40.6	-41.4	22.6	0.00e+00	0	44	0	732954624	53	3817
2026-01-25 05:44:36.01	29.30	13.90	-40.6	-41.4	22.7	0.00e+00	0	44	0	738197504	53	3794
2026-01-25 05:44:37.02	29.17	13.98	-40.6	-41.4	22.6	0.00e+00	0	44	0	744488960	53	3799
2026-01-25 05:44:38.03	29.05	14.06	-40.7	-41.5	22.5	0.00e+00	0	44	0	749731840	53	3849
2026-01-25 05:44:39.04	28.92	14.14	-40.7	-41.5	22.5	0.00e+00	0	44	0	754974720	53	3857
2026-01-25 05:44:40.05	28.79	14.22	-40.6	-41.4	22.6	0.00e+00	0	44	0	761266176	53	3810
2026-01-25 05:44:41.06	28.66	14.31	-40.6	-41.4	22.6	0.00e+00	0	44	0	766509056	53	3820
2026-01-25 05:44:42.07	28.53	14.39	-40.5	-41.4	22.7	0.00e+00	0	44	0	772800512	53	3781
2026-01-25 05:44:43.08	28.40	14.47	-40.5	-41.3	22.7	0.00e+00	0	44	0	778043392	53	3759
2026-01-25 05:44:44.08	28.26	14.55	-40.4	-41.2	22.8	0.00e+00	0	44	0	783286272	52	3953
2026-01-25 05:44:45.10	28.13	14.63	-40.4	-41.1	22.9	0.00e+00	0	44	0	789577728	52	3913
2026-01-25 05:44:46.10	28.00	14.71	-40.3	-41.1	22.9	0.00e+00	0	44	0	795869184	52	3895
2026-01-25 05:44:47.11	27.86	14.80	-40.2	-41.0	23.0	0.00e+00	0	44	0	801112064	52	3844
2026-01-25 05:44:48.12	27.73	14.88	-40.2	-41.0	23.0	0.00e+00	0	44	0	806354944	52	3841
2026-01-25 05:44:49.13	27.59	14.96	-40.3	-41.0	23.0	0.00e+00	0	44	0	812646400	52	3861
2026-01-25 05:44:50.13	27.45	15.04	-40.2	-40.9	23.0	0.00e+00	0	44	0	817889280	52	3824
2026-01-25 05:44:51.14	27.32	15.13	-40.1	-40.9	23.1	0.00e+00	0	44	0	823132160	52	3787
2026-01-25 05:44:52.15	27.18	15.21	-40.1	-40.9	23.1	0.00e+00	0	44	0	829423616	52	3794
2026-01-25 05:44:53.16	27.04	15.29	-40.1	-40.9	23.1	0.00e+00	0	44	0	834666496	52	3798
2026-01-25 05:44:54.17	26.90	15.37	-40.0	-40.8	23.2	0.00e+00	0	44	0	839909376	52	3752
2026-01-25 05:44:55.17	26.76	15.46	-40.1	-40.8	23.3	0.00e+00	0	44	0	846200832	51	3996
2026-01-25 05:44:56.18	26.62	15.54	-40.1	-40.8	23.3	0.00e+00	0	44	0	851443712	51	3994
2026-01-25 05:44:57.19	26.47	15.62	-40.0	-40.7	23.4	0.00e+00	0	44	0	857735168	51	3957
2026-01-25 05:44:58.20	26.33	15.71	-40.2	-40.9	23.2	0.00e+00	0	44	0	862978048	51	4042
2026-01-25 05:44:59.21	26.19	15.79	-39.9	-40.7	23.4	0.00e+00	0	44	0	869269504	51	3929
2026-01-25 05:45:00.21	26.04	15.87	-40.0	-40.7	23.4	0.00e+00	0	44	0	874512384	51	3958
2026-01-25 05:45:01.22	25.90	15.96	-40.1	-40.8	23.3	0.00e+00	0	44	0	880803840	51	4001
2026-01-25 05:45:02.23	25.75	16.04	-40.2	-41.0	23.1	0.00e+00	0	44	0	886046720	51	4059
2026-01-25 05:45:03.24	25.60	16.12	-39.9	-40.6	23.5	0.00e+00	0	44	0	891289600	51	3906
2026-01-25 05:45:04.25	25.45	16.21	-39.8	-40.6	23.5	0.00e+00	0	44	0	897581056	51	3895
2026-01-25 05:45:05.26	25.31	16.29	-39.8	-40.6	23.5	0.00e+00	0	44	0	902823936	51	3901
2026-01-25 05:45:06.27	25.16	16.38	-39.9	-40.7	23.4	0.00e+00	0	44	0	908066816	51	3930
2026-01-25 05:45:07.28	25.00	16.46	-39.9	-40.7	23.5	0.00e+00	0	44	0	914358272	51	3924
2026-01-25 05:45:08.29	24.85	16.54	-39.8	-40.6	23.6	0.00e+00	0	44	0	919601152	51	3875
2026-01-25 05:45:09.29	24.70	16.63	-39.7	-40.5	23.6	0.00e+00	0	44	0	925892608	51	3852
2026-01-25 05:45:10.30	24.55	16.71	-39.7	-40.5	23.6	0.00e+00	0	44	0	931135488	51	3834
2026-01-25 05:45:11.31	24.39	16.80	-39.8	-40.5	23.6	0.00e+00	0	44	0	937426944	51	3855
2026-01-25 05:45:12.32	24.24	16.88	-39.9	-40.6	23.5	0.00e+00	0	44	0	942669824	51	3900
2026-01-25 05:45:13.33	24.08	16.97	-39.9	-40.6	23.5	0.00e+00	0	44	0	947912704	51	3913
2026-01-25 05:45:14.34	23.92	17.05	-39.8	-40.5	23.6	0.00e+00	0	44	0	954204160	51	3863
2026-01-25 05:45:15.35	23.77	17.14	-39.9	-40.6	23.5	0.00e+00	0	44	0	959447040	51	3913
2026-01-25 05:45:16.35	23.61	17.22	-39.8	-40.6	23.5	0.00e+00	0	44	0	965738496	51	3894
2026-01-25 05:45:17.36	23.45	17.31	-39.8	-40.6	23.5	0.00e+00	0	44	0	970981376	51	3887
2026-01-25 05:45:18.37	23.29	17.39	-39.9	-40.6	23.5	0.00e+00	0	44	0	976224256	51	3910
2026-01-25 05:45:19.38	23.13	17.48	-39.8	-40.5	23.6	0.00e+00	0	44	0	982515712	51	3863
2026-01-25 05:45:20.39	22.96	17.56	-39.7	-40.5	23.7	0.00e+00	0	44	0	987758592	51	3834
2026-01-25 05:45:21.40	22.80	17.65	-39.8	-40.6	23.6	0.00e+00	0	44	0	994050048	51	3874
2026-01-25 05:45:22.41	22.64	17.73	-39.5	-40.3	23.9	0.00e+00	0	44	0	999292928	51	3753
2026-01-25 05:45:23.41	22.47	17.82	-39.5	-40.2	23.9	0.00e+00	0	44	0	1005584384	51	3726
2026-01-25 05:45:24.42	22.31	17.90	-39.3	-40.0	24.1	0.00e+00	0	44	0	1010827264	50	3849
2026-01-25 05:45:25.43	22.14	17.99	-39.3	-40.0	24.1	0.00e+00	0	44	0	1016070144	50	3862
2026-01-25 05:45:26.44	21.97	18.07	-39.3	-40.1	24.0	0.00e+00	0	44	0	1022361600	50	3881
2026-01-25 05:45:27.45	21.80	18.16	-39.4	-40.2	24.0	0.00e+00	0	44	0	1027604480	50	3915
2026-01-25 05:45:28.45	21.63	18.24	-39.3	-40.1	24.0	0.00e+00	0	44	0	1032847360	50	3882
2026-01-25 05:45:29.46	21.46	18.33	-39.4	-40.2	24.0	0.00e+00	0	44	0	1039138816	50	3931
2026-01-25 05:45:30.47	21.29	18.41	-39.6	-40.3	23.8	0.00e+00	0	44	0	1044381696	50	3983
2026-01-25 05:45:31.48	21.11	18.50	-39.6	-40.3	23.8	0.00e+00	0	44	0	1050673152	50	4000
2026-01-25 05:45:32.49	20.94	18.58	-39.4	-40.2	23.9	0.00e+00	0	44	0	1055916032	50	3932
2026-01-25 05:45:33.50	20.77	18.67	-39.4	-40.2	23.9	0.00e+00	0	44	0	1062207488	50	3927
2026-01-25 05:45:34.50	20.59	18.75	-39.4	-40.1	24.0	0.00e+00	0	44	0	1067450368	50	3899
2026-01-25 05:45:35.51	20.41	18.84	-39.3	-40.1	24.1	0.00e+00	0	44	0	1073741824	50	3869
2026-01-25 05:45:36.52	20.24	18.93	-39.2	-39.9	24.2	0.00e+00	0	44	0	1078984704	50	3809
2026-01-25 05:45:37.53	20.06	19.01	-39.2	-39.9	24.2	0.00e+00	0	44	0	1084227584	50	3796
2026-01-25 05:45:38.54	19.88	19.10	-39.0	-39.7	24.4	0.00e+00	0	44	0	1090519040	50	3725
2026-01-25 05:45:39.55	19.69	19.18	-39.0	-39.7	24.4	0.00e+00	0	44	0	1095761920	49	3923
2026-01-25 05:45:40.56	19.51	19.27	-38.9	-39.7	24.5	0.00e+00	0	44	0	1101004800	49	3920
2026-01-25 05:45:41.57	19.33	19.35	-39.1	-39.8	24.3	0.00e+00	0	44	0	1107296256	49	3969
2026-01-25 05:45:42.58	19.14	19.44	-39.2	-39.9	24.2	0.00e+00	0	44	0	1112539136	49	4046
2026-01-25 05:45:43.59	18.96	19.53	-39.3	-40.1	24.1	0.00e+00	0	44	0	1117782016	49	4102
2026-01-25 05:45:44.60	18.77	19.61	-39.4	-40.2	24.0	0.00e+00	0	44	0	1124073472	49	4165
2026-01-25 05:45:45.61	18.58	19.70	-39.5	-40.3	23.9	0.00e+00	0	44	0	1130364928	49	4199
2026-01-25 05:45:46.61	18.40	19.78	-39.3	-40.0	24.1	0.00e+00	0	44	0	1135607808	49	4090
2026-01-25 05:45:47.62	18.21	19.87	-39.3	-40.0	24.2	0.00e+00	0	44	0	1140850688	49	4069
2026-01-25 05:45:48.63	18.02	19.95	-39.3	-40.1	24.1	0.00e+00	0	44	0	1147142144	49	4100
2026-01-25 05:45:49.64	17.82	20.04	-39.3	-40.0	24.1	0.00e+00	0	44	0	1152385024	49	4087
2026-01-25 05:45:50.65	17.63	20.12	-39.3	-40.0	24.2	0.00e+00	0	44	0	1158676480	49	4077
2026-01-25 05:45:51.65	17.44	20.21	-39.3	-40.0	24.1	0.00e+00	0	44	0	1163919360	49	4096
2026-01-25 05:45:52.66	17.24	20.29	-39.3	-40.0	24.1	0.00e+00	0	44	0	1169162240	49	4093
2026-01-25 05:45:53.67	17.05	20.38	-39.3	-40.1	24.1	0.00e+00	0	44	0	1175453696	49	4108
2026-01-25 05:45:54.68	16.85	20.46	-39.3	-40.0	24.2	0.00e+00	0	44	0	1180696576	49	4085
2026-01-25 05:45:55.69	16.65	20.55	-39.2	-39.9	24.3	0.00e+00	0	44	0	1185939456	49	4033
2026-01-25 05:45:56.69	16.45	20.63	-39.2	-39.9	24.3	0.00e+00	0	44	0	1192230912	49	4038
2026-01-25 05:45:57.70	16.25	20.72	-39.1	-39.9	24.3	0.00e+00	0	44	0	1198522368	49	4012
2026-01-25 05:45:58.71	16.05	20.80	-39.1	-39.8	24.4	0.00e+00	0	44	0	1203765248	49	3989
2026-01-25 05:45:59.72	15.85	20.89	-39.1	-39.8	24.4	0.00e+00	0	44	0	1209008128	49	3981
2026-01-25 05:46:00.73	15.64	20.97	-39.1	-39.9	24.3	0.00e+00	0	44	0	1215299584	49	4009
2026-01-25 05:46:01.74	15.44	21.06	-39.2	-39.9	24.3	0.00e+00	0	44	0	1220542464	49	4045
2026-01-25 05:46:02.75	15.23	21.14	-39.2	-39.9	24.2	0.00e+00	0	44	0	1225785344	49	4048
2026-01-25 05:46:03.75	15.03	21.22	-38.9	-39.6	24.5	0.00e+00	0	44	0	1232076800	49	3891
2026-01-25 05:46:04.76	14.82	21.31	-38.8	-39.5	24.6	0.00e+00	0	44	0	1237319680	49	3835
2026-01-25 05:46:05.78	14.61	21.39	-38.7	-39.4	24.7	0.00e+00	0	44	0	1243611136	49	3816
2026-01-25 05:46:06.78	14.40	21.47	-38.7	-39.4	24.7	0.00e+00	0	44	0	1248854016	49	3795
2026-01-25 05:46:07.79	14.18	21.56	-38.6	-39.4	24.8	0.00e+00	0	44	0	1254096896	49	3786
2026-01-25 05:46:08.79	13.97	21.64	-38.7	-39.4	24.7	0.00e+00	0	44	0	1260388352	49	3817
2026-01-25 05:46:09.80	13.76	21.72	-38.7	-39.5	24.7	0.00e+00	0	44	0	1266679808	49	3825
2026-01-25 05:46:10.81	13.54	21.81	-38.7	-39.4	24.7	0.00e+00	0	44	0	1271922688	49	3812
2026-01-25 05:46:11.82	13.33	21.89	-38.6	-39.3	24.8	0.00e+00	0	44	0	1277165568	49	3763
2026-01-25 05:46:12.83	13.11	21.97	-38.7	-39.4	24.8	0.00e+00	0	44	0	1283457024	49	3791
2026-01-25 05:46:13.84	12.89	22.06	-38.5	-39.2	25.0	0.00e+00	0	44	0	1288699904	49	3709
2026-01-25 05:46:14.85	12.67	22.14	-38.6	-39.3	24.8	0.00e+00	0	44	0	1293942784	48	3982
2026-01-25 05:46:15.86	12.45	22.22	-38.5	-39.2	24.9	0.00e+00	0	44	0	1300234240	48	3931
2026-01-25 05:46:16.87	12.22	22.30	-38.6	-39.3	24.8	0.00e+00	0	44	0	1305477120	48	3968
2026-01-25 05:46:17.87	12.00	22.38	-38.5	-39.2	24.9	0.00e+00	0	44	0	1310720000	48	3958
2026-01-25 05:46:18.88	11.78	22.47	-38.7	-39.4	24.7	0.00e+00	0	44	0	1317011456	48	4019
2026-01-25 05:46:19.89	11.55	22.55	-38.7	-39.4	24.7	0.00e+00	0	44	0	1323302912	48	4051
2026-01-25 05:46:20.90	11.32	22.63	-38.8	-39.5	24.6	0.00e+00	0	44	0	1328545792	48	4093
2026-01-25 05:46:21.91	11.09	22.71	-38.9	-39.6	24.6	0.00e+00	0	44	0	1333788672	48	4116
2026-01-25 05:46:22.92	10.86	22.79	-38.7	-39.4	24.7	0.00e+00	0	44	0	1340080128	48	4045
2026-01-25 05:46:23.93	10.63	22.87	-38.6	-39.3	24.8	0.00e+00	0	44	0	1345323008	48	4003
2026-01-25 05:46:24.94	10.40	22.95	-38.6	-39.3	24.9	0.00e+00	0	44	0	1351614464	48	3976
2026-01-25 05:46:25.95	10.17	23.03	-38.6	-39.3	24.9	0.00e+00	0	44	0	1356857344	48	3976
2026-01-25 05:46:26.96	9.93	23.11	-38.6	-39.3	24.8	0.00e+00	0	44	0	1362100224	48	4001
2026-01-25 05:46:27.97	9.70	23.19	-38.5	-39.2	24.9	0.00e+00	0	44	0	1368391680	48	3945
2026-01-25 05:46:28.98	9.46	23.27	-38.5	-39.2	24.9	0.00e+00	0	44	0	1373634560	48	3957
2026-01-25 05:46:29.99	9.22	23.35	-38.4	-39.1	25.0	0.00e+00	0	44	0	1378877440	48	3899
2026-01-25 05:46:30.99	8.98	23.43	-38.5	-39.3	24.9	0.00e+00	0	44	0	1385168896	48	3962
2026-01-25 05:46:32.00	8.74	23.51	-38.4	-39.1	25.0	0.00e+00	0	44	0	1391460352	48	3912
2026-01-25 05:46:33.01	8.50	23.58	-38.5	-39.2	24.9	0.00e+00	0	44	0	1396703232	48	3937
2026-01-25 05:46:34.02	8.26	23.66	-38.5	-39.2	25.0	0.00e+00	0	44	0	1401946112	48	3926
2026-01-25 05:46:35.03	8.01	23.74	-38.4	-39.1	25.0	0.00e+00	0	44	0	1408237568	48	3899
2026-01-25 05:46:36.04	7.77	23.82	-38.4	-39.1	25.0	0.00e+00	0	44	0	1413480448	48	3899
2026-01-25 05:46:37.05	7.52	23.89	-38.4	-39.1	25.0	0.00e+00	0	44	0	1418723328	48	3909
2026-01-25 05:46:38.05	7.27	23.97	-38.6	-39.3	24.8	0.00e+00	0	44	0	1425014784	48	3989
2026-01-25 05:46:39.06	7.02	24.04	-38.6	-39.3	24.9	0.00e+00	0	44	0	1430257664	48	3981
2026-01-25 05:46:40.07	6.77	24.12	-38.6	-39.4	24.8	0.00e+00	0	44	0	1436549120	48	4013
2026-01-25 05:46:41.08	6.52	24.19	-38.5	-39.3	24.9	0.00e+00	0	44	0	1441792000	48	3961
2026-01-25 05:46:42.09	6.27	24.27	-38.3	-39.0	25.1	0.00e+00	0	44	0	1447034880	48	3854
2026-01-25 05:46:43.10	6.01	24.34	-38.2	-38.9	25.2	0.00e+00	0	44	0	1453326336	48	3820
2026-01-25 05:46:44.11	5.76	24.42	-38.2	-38.9	25.2	0.00e+00	0	44	0	1459617792	48	3810
2026-01-25 05:46:45.11	5.50	24.49	-38.3	-39.0	25.1	0.00e+00	0	44	0	1464860672	48	3838
2026-01-25 05:46:46.12	5.25	24.56	-38.4	-39.1	25.0	0.00e+00	0	44	0	1470103552	48	3907
2026-01-25 05:46:47.13	4.99	24.64	-38.3	-39.0	25.1	0.00e+00	0	44	0	1476395008	48	3854
2026-01-25 05:46:48.14	4.73	24.71	-38.3	-39.0	25.1	0.00e+00	0	44	0	1481637888	48	3853
2026-01-25 05:46:49.15	4.46	24.78	-38.3	-39.0	25.1	0.00e+00	0	44	0	1486880768	48	3842
2026-01-25 05:46:50.16	4.20	24.85	-38.3	-39.0	25.1	0.00e+00	0	44	0	1493172224	48	3861
2026-01-25 05:46:51.17	3.94	24.92	-38.5	-39.2	24.9	0.00e+00	0	44	0	1498415104	48	3957
2026-01-25 05:46:52.17	3.67	24.99	-38.5	-39.2	25.0	0.00e+00	0	44	0	1503657984	48	3934
2026-01-25 05:46:53.18	3.41	25.06	-38.5	-39.3	24.9	0.00e+00	0	44	0	1509949440	48	3959
2026-01-25 05:46:54.19	3.14	25.13	-38.5	-39.2	25.0	0.00e+00	0	44	0	1515192320	48	3948
2026-01-25 05:46:55.20	2.87	25.20	-38.4	-39.1	25.1	0.00e+00	0	44	0	1521483776	48	3893
2026-01-25 05:46:56.21	2.60	25.27	-38.4	-39.1	25.1	0.00e+00	0	44	0	1526726656	48	3883
2026-01-25 05:46:57.21	2.33	25.34	-38.2	-38.9	25.2	0.00e+00	0	44	0	1533018112	48	3801
2026-01-25 05:46:58.22	2.06	25.40	-38.1	-38.8	25.3	0.00e+00	0	44	0	1538260992	48	3759
2026-01-25 05:46:59.23	1.79	25.47	-37.6	-38.4	25.3	0.00e+00	0	44	0	1544552448	47	3786
2026-01-25 05:47:00.24	1.51	25.54	-37.6	-38.3	25.3	0.00e+00	0	44	0	1549795328	47	3776
2026-01-25 05:47:01.25	1.24	25.60	-37.6	-38.3	25.3	0.00e+00	0	44	0	1555038208	47	3780
2026-01-25 05:47:02.25	0.96	25.67	-37.7	-38.4	25.2	0.00e+00	0	44	0	1561329664	47	3787
2026-01-25 05:47:03.26	0.68	25.73	-37.8	-38.5	25.1	0.00e+00	0	44	0	1566572544	47	3841
2026-01-25 05:47:04.27	0.41	25.79	-37.8	-38.6	25.1	0.00e+00	0	44	0	1571815424	47	3874
2026-01-25 05:47:05.28	0.12	25.86	-37.9	-38.7	25.0	0.00e+00	0	44	0	1578106880	47	3920
2026-01-25 05:47:06.29	359.84	25.92	-38.0	-38.7	24.9	0.00e+00	0	44	0	1584398336	47	3949
2026-01-25 05:47:07.30	359.56	25.98	-38.0	-38.8	24.9	0.00e+00	0	44	0	1589641216	47	3967
2026-01-25 05:47:08.31	359.28	26.04	-38.0	-38.7	25.0	0.00e+00	0	44	0	1594884096	47	3932
2026-01-25 05:47:09.32	358.99	26.10	-38.0	-38.7	24.9	0.00e+00	0	44	0	1601175552	47	3942
2026-01-25 05:47:10.33	358.71	26.17	-37.9	-38.6	25.0	0.00e+00	0	44	0	1606418432	47	3909
2026-01-25 05:47:11.34	358.42	26.22	-37.8	-38.5	25.1	0.00e+00	0	44	0	1611661312	47	3855
2026-01-25 05:47:12.35	358.13	26.28	-37.9	-38.6	25.1	0.00e+00	0	44	0	1617952768	47	3875
2026-01-25 05:47:13.36	357.84	26.34	-37.8	-38.5	25.2	0.00e+00	0	44	0	1623195648	47	3848
2026-01-25 05:47:14.37	357.55	26.40	-37.8	-38.5	25.1	0.00e+00	0	44	0	1629487104	47	3855
2026-01-25 05:47:15.38	357.26	26.46	-37.8	-38.5	25.1	0.00e+00	0	44	0	1634729984	47	3865
2026-01-25 05:47:16.39	356.97	26.51	-37.8	-38.6	25.1	0.00e+00	0	44	0	1639972864	47	3881
2026-01-25 05:47:17.40	356.67	26.57	-37.9	-38.6	25.1	0.00e+00	0	44	0	1646264320	47	3898
2026-01-25 05:47:18.40	356.38	26.62	-37.9	-38.6	25.1	0.00e+00	0	44	0	1652555776	47	3884
2026-01-25 05:47:19.42	356.08	26.68	-37.8	-38.5	25.2	0.00e+00	0	44	0	1657798656	47	3830
2026-01-25 05:47:20.42	355.79	26.73	-37.7	-38.4	25.2	0.00e+00	0	44	0	1663041536	47	3820
2026-01-25 05:47:21.43	355.49	26.78	-37.9	-38.6	25.1	0.00e+00	0	44	0	1669332992	47	3885
2026-01-25 05:47:22.44	355.20	26.83	-37.7	-38.4	25.3	0.00e+00	0	44	0	1674575872	47	3797
2026-01-25 05:47:23.45	354.90	26.88	-37.7	-38.4	25.2	0.00e+00	0	44	0	1679818752	47	3818
2026-01-25 05:47:24.46	354.60	26.93	-37.7	-38.5	25.2	0.00e+00	0	44	0	1686110208	47	3829
2026-01-25 05:47:25.47	354.29	26.98	-37.8	-38.6	25.1	0.00e+00	0	44	0	1691353088	47	3877
2026-01-25 05:47:26.48	353.99	27.03	-37.9	-38.6	25.1	0.00e+00	0	44	0	1696595968	47	3881
2026-01-25 05:47:27.49	353.69	27.08	-37.7	-38.4	25.2	0.00e+00	0	44	0	1702887424	47	3799
2026-01-25 05:47:28.50	353.38	27.13	-37.6	-38.3	25.3	0.00e+00	0	44	0	1709178880	47	3769
2026-01-25 05:47:29.51	353.08	27.17	-37.6	-38.3	25.3	0.00e+00	0	44	0	1714421760	47	3768
2026-01-25 05:47:30.52	352.77	27.22	-37.7	-38.4	25.3	0.00e+00	0	44	0	1719664640	47	3794
2026-01-25 05:47:31.53	352.47	27.26	-37.6	-38.3	25.3	0.00e+00	0	44	0	1725956096	47	3780
2026-01-25 05:47:32.53	352.16	27.31	-37.6	-38.3	25.3	0.00e+00	0	44	0	1731198976	47	3769
2026-01-25 05:47:33.54	351.85	27.35	-37.6	-38.3	25.3	0.00e+00	0	44	0	1737490432	47	3763
2026-01-25 05:47:34.55	351.54	27.39	-37.4	-38.1	25.5	0.00e+00	0	44	0	1742733312	46	3903
2026-01-25 05:47:35.56	351.23	27.43	-37.4	-38.1	25.5	0.00e+00	0	44	0	1747976192	46	3907
2026-01-25 05:47:36.57	350.92	27.47	-37.3	-38.0	25.6	0.00e+00	0	44	0	1754267648	46	3831
2026-01-25 05:47:37.58	350.61	27.51	-37.3	-38.0	25.6	0.00e+00	0	44	0	1759510528	46	3848
2026-01-25 05:47:38.59	350.30	27.55	-37.4	-38.1	25.6	0.00e+00	0	44	0	1764753408	46	3872
2026-01-25 05:47:39.60	349.99	27.59	-37.4	-38.1	25.5	0.00e+00	0	44	0	1771044864	46	3910
2026-01-25 05:47:40.60	349.68	27.62	-37.4	-38.1	25.5	0.00e+00	0	44	0	1777336320	46	3905
2026-01-25 05:47:41.61	349.36	27.66	-37.5	-38.2	25.4	0.00e+00	0	44	0	1782579200	46	3946
2026-01-25 05:47:42.62	349.05	27.69	-37.5	-38.2	25.5	0.00e+00	0	44	0	1787822080	46	3930
2026-01-25 05:47:43.63	348.73	27.73	-37.5	-38.2	25.5	0.00e+00	0	44	0	1794113536	46	3918
2026-01-25 05:47:44.64	348.41	27.76	-37.3	-38.0	25.6	0.00e+00	0	44	0	1799356416	46	3868
2026-01-25 05:47:45.65	348.10	27.79	-37.3	-38.0	25.6	0.00e+00	0	44	0	1804599296	46	3842
2026-01-25 05:47:46.66	347.78	27.82	-37.4	-38.1	25.6	0.00e+00	0	44	0	1810890752	46	3870
2026-01-25 05:47:47.67	347.46	27.85	-37.3	-38.0	25.6	0.00e+00	0	44	0	1816133632	46	3846
2026-01-25 05:47:48.67	347.14	27.88	-37.3	-38.0	25.6	0.00e+00	0	44	0	1822425088	46	3838
2026-01-25 05:47:49.68	346.82	27.91	-37.3	-38.0	25.6	0.00e+00	0	44	0	1827667968	46	3831
2026-01-25 05:47:50.69	346.50	27.94	-37.3	-38.0	25.7	0.00e+00	0	44	0	1832910848	46	3832
2026-01-25 05:47:51.70	346.18	27.96	-37.3	-38.0	25.6	0.00e+00	0	44	0	1839202304	46	3864
2026-01-25 05:47:52.71	345.86	27.99	-37.3	-38.0	25.6	0.00e+00	0	44	0	1845493760	46	3832
2026-01-25 05:47:53.72	345.54	28.01	-37.3	-38.0	25.6	0.00e+00	0	44	0	1850736640	46	3865
2026-01-25 05:47:54.73	345.22	28.04	-37.3	-38.0	25.7	0.00e+00	0	44	0	1855979520	46	3835
2026-01-25 05:47:55.73	344.90	28.06	-37.2	-37.8	25.8	0.00e+00	0	44	0	1862270976	46	3778
2026-01-25 05:47:56.74	344.57	28.08	-37.1	-37.7	25.9	0.00e+00	0	44	0	1867513856	46	3731
2026-01-25 05:47:57.75	344.25	28.10	-37.0	-37.7	25.9	0.00e+00	0	44	0	1872756736	46	3709
2026-01-25 05:47:58.75	343.93	28.12	-37.0	-37.7	25.9	0.00e+00	0	44	0	1879048192	46	3729
2026-01-25 05:47:59.76	343.60	28.14	-37.0	-37.7	25.8	0.00e+00	0	44	0	1884291072	46	3731
2026-01-25 05:48:00.77	343.28	28.16	-37.0	-37.7	25.9	0.00e+00	0	44	0	1889533952	46	3723
2026-01-25 05:48:01.78	342.95	28.17	-36.9	-37.6	26.0	0.00e+00	0	44	0	1895825408	45	3886
2026-01-25 05:48:02.79	342.63	28.19	-36.9	-37.6	25.9	0.00e+00	0	44	0	1901068288	45	3902
2026-01-25 05:48:03.79	342.31	28.20	-36.9	-37.6	26.0	0.00e+00	0	44	0	1907359744	45	3870
2026-01-25 05:48:04.80	341.98	28.22	-36.9	-37.6	26.0	0.00e+00	0	44	0	1912602624	45	3885
2026-01-25 05:48:05.81	341.65	28.23	-37.1	-37.8	25.9	0.00e+00	0	44	0	1918894080	45	3963
2026-01-25 05:48:06.82	341.33	28.24	-37.2	-37.9	25.7	0.00e+00	0	44	0	1924136960	45	4048
2026-01-25 05:48:07.83	341.00	28.25	-37.3	-38.0	25.6	0.00e+00	0	44	0	1930428416	45	4073
2026-01-25 05:48:08.83	340.68	28.26	-37.2	-37.9	25.7	0.00e+00	0	44	0	1935671296	45	4028
2026-01-25 05:48:09.84	340.35	28.27	-37.3	-38.0	25.7	0.00e+00	0	45	0	1940914176	45	4054
2026-01-25 05:48:10.85	340.02	28.27	-37.1	-37.8	25.8	0.00e+00	0	44	0	1947205632	45	3991
2026-01-25 05:48:11.86	339.69	28.28	-37.2	-37.9	25.7	0.00e+00	0	44	0	1952448512	45	4005
2026-01-25 05:48:12.87	339.37	28.28	-37.2	-37.9	25.8	0.00e+00	0	44	0	1957691392	45	4013
2026-01-25 05:48:13.88	339.04	28.29	-37.3	-38.0	25.7	0.00e+00	0	44	0	1963982848	45	4053
2026-01-25 05:48:14.89	338.71	28.29	-37.2	-37.9	25.7	0.00e+00	0	44	0	1969225728	45	4017
2026-01-25 05:48:15.89	338.39	28.29	-37.3	-38.0	25.7	0.00e+00	0	44	0	1975517184	45	4052
2026-01-25 05:48:16.90	338.06	28.29	-37.2	-37.9	25.7	0.00e+00	0	44	0	1980760064	45	4029
2026-01-25 05:48:17.91	337.73	28.29	-37.2	-37.9	25.7	0.00e+00	0	44	0	1987051520	45	4044
2026-01-25 05:48:18.92	337.40	28.29	-37.3	-38.0	25.7	0.00e+00	0	44	0	1992294400	45	4057
2026-01-25 05:48:19.93	337.07	28.29	-37.3	-38.0	25.6	0.00e+00	0	44	0	1997537280	45	4086
2026-01-25 05:48:20.93	336.75	28.29	-37.3	-38.0	25.6	0.00e+00	0	44	0	2003828736	45	4063
2026-01-25 05:48:21.94	336.42	28.28	-37.3	-38.0	25.7	0.00e+00	0	44	0	2009071616	45	4055
2026-01-25 05:48:22.95	336.09	28.28	-37.3	-38.0	25.7	0.00e+00	0	44	0	2015363072	45	4077
2026-01-25 05:48:23.96	335.77	28.27	-37.2	-37.9	25.8	0.00e+00	0	44	0	2020605952	45	4021
2026-01-25 05:48:24.97	335.44	28.26	-37.3	-38.0	25.7	0.00e+00	0	44	0	2025848832	45	4061
2026-01-25 05:48:25.98	335.11	28.25	-37.2	-37.9	25.8	0.00e+00	0	44	0	2032140288	45	4011
2026-01-25 05:48:26.99	334.79	28.24	-37.2	-37.9	25.8	0.00e+00	0	44	0	2037383168	45	4032
2026-01-25 05:48:28.00	334.46	28.23	-37.3	-37.9	25.7	0.00e+00	0	44	0	2043674624	45	4051
2026-01-25 05:48:29.01	334.13	28.22	-37.2	-37.8	25.8	0.00e+00	0	44	0	2048917504	45	3998
2026-01-25 05:48:30.01	333.81	28.21	-37.1	-37.8	25.9	0.00e+00	0	44	0	2055208960	45	3983
2026-01-25 05:48:31.02	333.48	28.20	-37.1	-37.8	25.8	0.00e+00	0	44	0	2060451840	45	3986
2026-01-25 05:48:32.03	333.16	28.18	-37.2	-37.9	25.8	0.00e+00	0	44	0	2065694720	45	4012
2026-01-25 05:48:33.04	332.83	28.17	-37.3	-38.0	25.7	0.00e+00	0	45	0	2071986176	45	4054
2026-01-25 05:48:34.05	332.51	28.15	-37.2	-37.9	25.8	0.00e+00	0	44	0	2077229056	45	4024
2026-01-25 05:48:35.06	332.18	28.13	-37.2	-37.9	25.7	0.00e+00	0	44	0	2082471936	45	4034
2026-01-25 05:48:36.07	331.86	28.11	-37.2	-37.9	25.7	0.00e+00	0	44	0	2088763392	45	4041
2026-01-25 05:48:37.08	331.53	28.09	-37.3	-38.0	25.7	0.00e+00	0	44	0	2094006272	45	4057
2026-01-25 05:48:38.09	331.21	28.07	-37.2	-37.9	25.8	0.00e+00	0	44	0	2100297728	45	4019
2026-01-25 05:48:39.10	330.89	28.05	-37.3	-38.0	25.7	0.00e+00	0	44	0	2105540608	45	4059
2026-01-25 05:48:40.11	330.56	28.03	-37.3	-38.0	25.7	0.00e+00	0	44	0	2111832064	45	4096
2026-01-25 05:48:41.12	330.24	28.00	-37.4	-38.1	25.5	0.00e+00	0	44	0	2117074944	45	4135
2026-01-25 05:48:42.13	329.92	27.98	-37.3	-38.0	25.7	0.00e+00	0	44	0	2123366400	45	4057
2026-01-25 05:48:43.13	329.60	27.95	-37.2	-37.9	25.8	0.00e+00	0	44	0	2128609280	45	4033
2026-01-25 05:48:44.14	329.28	27.93	-37.3	-38.0	25.7	0.00e+00	0	45	0	2133852160	45	4065
2026-01-25 05:48:45.15	328.96	27.90	-37.1	-37.8	25.8	0.00e+00	0	44	0	2140143616	45	3985
2026-01-25 05:48:46.16	328.64	27.87	-37.1	-37.8	25.8	0.00e+00	0	44	0	2145386496	45	3991
2026-01-25 05:48:47.17	328.32	27.84	-37.3	-37.9	25.7	0.00e+00	0	44	0	2150629376	45	4047
2026-01-25 05:48:48.18	328.00	27.81	-37.2	-37.9	25.8	0.00e+00	0	44	0	2156920832	45	4008
2026-01-25 05:48:49.19	327.69	27.78	-37.3	-38.0	25.7	0.00e+00	0	44	0	2162163712	45	4054
2026-01-25 05:48:50.20	327.37	27.74	-37.2	-37.9	25.7	0.00e+00	0	44	0	2168455168	45	4039
2026-01-25 05:48:51.21	327.05	27.71	-37.2	-37.9	25.8	0.00e+00	0	44	0	2173698048	45	4005
2026-01-25 05:48:52.21	326.74	27.68	-37.1	-37.8	25.8	0.00e+00	0	44	0	2179989504	45	3990
2026-01-25 05:48:53.22	326.42	27.64	-37.1	-37.8	25.8	0.00e+00	0	44	0	2185232384	45	3990
2026-01-25 05:48:54.23	326.11	27.61	-37.1	-37.8	25.8	0.00e+00	0	44	0	2190475264	45	3973
2026-01-25 05:48:55.24	325.80	27.57	-37.2	-37.9	25.8	0.00e+00	0	44	0	2196766720	45	4020
2026-01-25 05:48:56.25	325.48	27.53	-37.2	-37.9	25.7	0.00e+00	0	44	0	2202009600	45	4047
2026-01-25 05:48:57.25	325.17	27.49	-37.2	-37.9	25.7	0.00e+00	0	44	0	2208301056	45	4032
2026-01-25 05:48:58.26	324.86	27.45	-37.2	-37.9	25.7	0.00e+00	0	44	0	2213543936	45	4033
2026-01-25 05:48:59.27	324.55	27.41	-37.2	-37.9	25.7	0.00e+00	0	44	0	2218786816	45	4032
2026-01-25 05:49:00.28	324.24	27.37	-37.2	-37.9	25.7	0.00e+00	0	44	0	2225078272	45	4036
2026-01-25 05:49:01.29	323.93	27.33	-37.2	-37.9	25.7	0.00e+00	0	44	0	2230321152	45	4031
2026-01-25 05:49:02.29	323.63	27.28	-37.1	-37.8	25.8	0.00e+00	0	44	0	2236612608	45	3992
2026-01-25 05:49:03.30	323.32	27.24	-37.1	-37.8	25.8	0.00e+00	0	44	0	2241855488	45	3990
2026-01-25 05:49:04.31	323.01	27.20	-37.0	-37.7	25.9	0.00e+00	0	44	0	2248146944	45	3939
2026-01-25 05:49:05.32	322.71	27.15	-37.0	-37.7	25.9	0.00e+00	0	44	0	2253389824	45	3924
2026-01-25 05:49:06.33	322.40	27.10	-37.1	-37.8	25.8	0.00e+00	0	44	0	2258632704	45	3972
2026-01-25 05:49:07.34	322.10	27.06	-37.2	-37.9	25.8	0.00e+00	0	44	0	2264924160	45	4008
2026-01-25 05:49:08.35	321.80	27.01	-37.1	-37.8	25.8	0.00e+00	0	44	0	2270167040	45	3999
2026-01-25 05:49:09.35	321.50	26.96	-37.1	-37.8	25.8	0.00e+00	0	44	0	2275409920	45	3987
2026-01-25 05:49:10.36	321.20	26.91	-37.1	-37.8	25.8	0.00e+00	0	44	0	2281701376	45	3982
2026-01-25 05:49:11.37	320.90	26.86	-37.2	-37.9	25.7	0.00e+00	0	45	0	2286944256	45	4041
2026-01-25 05:49:12.38	320.60	26.81	-37.3	-38.0	25.6	0.00e+00	0	44	0	2293235712	45	4094
2026-01-25 05:49:13.39	320.30	26.76	-37.5	-38.2	25.5	0.00e+00	0	45	0	2298478592	45	4155
2026-01-25 05:49:14.39	320.00	26.70	-37.5	-38.2	25.5	0.00e+00	0	44	0	2304770048	45	4158
2026-01-25 05:49:15.40	319.71	26.65	-37.6	-38.3	25.4	0.00e+00	0	44	0	2310012928	45	4203
2026-01-25 05:49:16.41	319.41	26.60	-37.5	-38.2	25.5	0.00e+00	0	44	0	2316304384	45	4174
2026-01-25 05:49:17.42	319.12	26.54	-37.4	-38.1	25.6	0.00e+00	0	44	0	2321547264	45	4125
2026-01-25 05:49:18.43	318.83	26.48	-37.4	-38.1	25.6	0.00e+00	0	44	0	2326790144	45	4123
2026-01-25 05:49:19.44	318.53	26.43	-37.3	-38.0	25.7	0.00e+00	0	44	0	2333081600	45	4075
2026-01-25 05:49:20.45	318.24	26.37	-37.3	-38.0	25.6	0.00e+00	0	44	0	2338324480	45	4092
2026-01-25 05:49:21.46	317.95	26.31	-37.3	-38.0	25.7	0.00e+00	0	44	0	2343567360	45	4061
2026-01-25 05:49:22.47	317.66	26.25	-37.4	-38.1	25.6	0.00e+00	0	44	0	2349858816	45	4108
2026-01-25 05:49:23.47	317.38	26.20	-37.2	-37.9	25.7	0.00e+00	0	44	0	2355101696	45	4036
2026-01-25 05:49:24.48	317.09	26.14	-37.2	-37.9	25.8	0.00e+00	0	44	0	2360344576	45	4034
2026-01-25 05:49:25.49	316.81	26.08	-37.3	-37.9	25.7	0.00e+00	0	44	0	2366636032	45	4048
2026-01-25 05:49:26.50	316.52	26.01	-37.4	-38.1	25.6	0.00e+00	0	44	0	2372927488	45	4107
2026-01-25 05:49:27.51	316.24	25.95	-37.5	-38.2	25.5	0.00e+00	0	44	0	2378170368	45	4147
2026-01-25 05:49:28.52	315.95	25.89	-37.5	-38.2	25.5	0.00e+00	0	44	0	2383413248	45	4179
2026-01-25 05:49:29.53	315.67	25.83	-37.5	-38.2	25.4	0.00e+00	0	44	0	2389704704	45	4184
2026-01-25 05:49:30.53	315.40	25.76	-37.4	-38.1	25.5	0.00e+00	0	44	0	2394947584	45	4130
2026-01-25 05:49:31.54	315.12	25.70	-37.4	-38.1	25.6	0.00e+00	0	44	0	2401239040	45	4113
2026-01-25 05:49:32.55	314.84	25.63	-37.5	-38.2	25.5	0.00e+00	0	45	0	2406481920	45	4150
2026-01-25 05:49:33.56	314.56	25.57	-37.4	-38.1	25.6	0.00e+00	0	44	0	2411724800	45	4115
2026-01-25 05:49:34.57	314.29	25.50	-37.4	-38.1	25.6	0.00e+00	0	44	0	2418016256	45	4122
2026-01-25 05:49:35.58	314.01	25.44	-37.5	-38.2	25.5	0.00e+00	0	45	0	2423259136	45	4176
2026-01-25 05:49:36.59	313.74	25.37	-37.7	-38.4	25.3	0.00e+00	0	45	0	2428502016	45	4263
2026-01-25 05:49:37.59	313.47	25.30	-37.7	-38.4	25.3	0.00e+00	0	45	0	2434793472	45	4282
2026-01-25 05:49:38.60	313.20	25.23	-37.7	-38.4	25.4	0.00e+00	0	44	0	2441084928	46	4039
2026-01-25 05:49:39.61	312.93	25.17	-37.7	-38.4	25.3	0.00e+00	0	44	0	2446327808	46	4042
2026-01-25 05:49:40.62	312.66	25.10	-37.8	-38.4	25.3	0.00e+00	0	44	0	2451570688	46	4050
2026-01-25 05:49:41.63	312.39	25.03	-37.9	-38.6	25.1	0.00e+00	0	44	0	2457862144	46	4129
2026-01-25 05:49:42.64	312.13	24.96	-38.0	-38.7	25.1	0.00e+00	0	44	0	2463105024	46	4191
2026-01-25 05:49:43.65	311.86	24.89	-38.0	-38.7	25.1	0.00e+00	0	44	0	2468347904	46	4172
2026-01-25 05:49:44.66	311.60	24.81	-38.0	-38.7	25.1	0.00e+00	0	44	0	2474639360	46	4174
2026-01-25 05:49:45.67	311.34	24.74	-38.0	-38.7	25.1	0.00e+00	0	44	0	2479882240	46	4170
2026-01-25 05:49:46.68	311.07	24.67	-37.8	-38.5	25.2	0.00e+00	0	44	0	2486173696	46	4095
2026-01-25 05:49:47.69	310.81	24.60	-37.7	-38.4	25.3	0.00e+00	0	44	0	2491416576	46	4040
2026-01-25 05:49:48.69	310.56	24.53	-37.8	-38.5	25.3	0.00e+00	0	44	0	2497708032	46	4053
2026-01-25 05:49:49.70	310.30	24.45	-37.7	-38.4	25.3	0.00e+00	0	45	0	2502950912	46	4047
2026-01-25 05:49:50.71	310.04	24.38	-37.7	-38.4	25.3	0.00e+00	0	44	0	2509242368	46	4029
2026-01-25 05:49:51.72	309.79	24.30	-37.7	-38.4	25.3	0.00e+00	0	44	0	2514485248	46	4040
2026-01-25 05:49:52.73	309.53	24.23	-37.7	-38.5	25.3	0.00e+00	0	44	0	2519728128	46	4055
2026-01-25 05:49:53.74	309.28	24.16	-37.7	-38.4	25.3	0.00e+00	0	45	0	2526019584	46	4045
2026-01-25 05:49:54.75	309.03	24.08	-37.7	-38.4	25.3	0.00e+00	0	44	0	2531262464	46	4033
2026-01-25 05:49:55.76	308.78	24.00	-37.7	-38.4	25.3	0.00e+00	0	44	0	2536505344	46	4044
2026-01-25 05:49:56.77	308.53	23.93	-37.7	-38.4	25.3	0.00e+00	0	45	0	2542796800	46	4045
2026-01-25 05:49:57.77	308.28	23.85	-37.6	-38.3	25.4	0.00e+00	0	44	0	2548039680	46	4000
2026-01-25 05:49:58.78	308.04	23.77	-37.6	-38.3	25.4	0.00e+00	0	44	0	2553282560	46	3991
2026-01-25 05:49:59.79	307.79	23.70	-37.6	-38.3	25.4	0.00e+00	0	44	0	2559574016	46	3965
2026-01-25 05:50:00.80	307.55	23.62	-37.6	-38.3	25.4	0.00e+00	0	44	0	2565865472	46	4002
2026-01-25 05:50:01.81	307.30	23.54	-37.6	-38.3	25.4	0.00e+00	0	44	0	2571108352	46	3988
2026-01-25 05:50:02.82	307.06	23.46	-37.7	-38.4	25.3	0.00e+00	0	45	0	2576351232	46	4048
2026-01-25 05:50:03.83	306.82	23.39	-37.9	-38.6	25.2	0.00e+00	0	44	0	2582642688	46	4121
2026-01-25 05:50:04.84	306.58	23.31	-38.0	-38.8	25.0	0.00e+00	0	45	0	2587885568	46	4197
2026-01-25 05:50:05.85	306.34	23.23	-38.0	-38.7	25.0	0.00e+00	0	44	0	2594177024	46	4183
2026-01-25 05:50:06.85	306.11	23.15	-38.0	-38.7	25.0	0.00e+00	0	45	0	2599419904	46	4163
2026-01-25 05:50:07.86	305.87	23.07	-38.0	-38.7	25.1	0.00e+00	0	45	0	2604662784	46	4149
2026-01-25 05:50:08.87	305.64	22.99	-37.8	-38.5	25.2	0.00e+00	0	44	0	2610954240	46	4078
2026-01-25 05:50:09.88	305.41	22.91	-37.8	-38.5	25.2	0.00e+00	0	45	0	2616197120	46	4093
2026-01-25 05:50:10.89	305.17	22.83	-38.0	-38.7	25.1	0.00e+00	0	44	0	2622488576	46	4159
2026-01-25 05:50:11.90	304.94	22.75	-38.0	-38.7	25.0	0.00e+00	0	44	0	2627731456	46	4190
2026-01-25 05:50:12.91	304.71	22.67	-38.0	-38.8	25.0	0.00e+00	0	44	0	2634022912	46	4195
2026-01-25 05:50:13.92	304.48	22.58	-37.9	-38.7	25.1	0.00e+00	0	44	0	2639265792	46	4147
2026-01-25 05:50:14.93	304.26	22.50	-38.1	-38.8	24.9	0.00e+00	0	44	0	2644508672	46	4206
2026-01-25 05:50:15.94	304.03	22.42	-38.1	-38.8	24.9	0.00e+00	0	45	0	2650800128	46	4232
2026-01-25 05:50:16.95	303.81	22.34	-38.2	-38.9	24.9	0.00e+00	0	44	0	2656043008	46	4266
2026-01-25 05:50:17.96	303.58	22.26	-38.3	-39.1	24.7	0.00e+00	0	44	0	2661285888	47	4103
2026-01-25 05:50:18.97	303.36	22.18	-38.3	-39.1	24.8	0.00e+00	0	44	0	2667577344	47	4100
2026-01-25 05:50:19.97	303.14	22.09	-38.2	-38.9	24.9	0.00e+00	0	44	0	2672820224	47	4023
2026-01-25 05:50:20.98	302.92	22.01	-38.3	-39.0	24.8	0.00e+00	0	44	0	2679111680	47	4060
2026-01-25 05:50:21.99	302.70	21.93	-38.3	-39.0	24.8	0.00e+00	0	44	0	2684354560	47	4084
2026-01-25 05:50:23.00	302.48	21.84	-38.4	-39.1	24.7	0.00e+00	0	44	0	2690646016	47	4130
2026-01-25 05:50:24.01	302.27	21.76	-38.5	-39.3	24.5	0.00e+00	0	44	0	2695888896	47	4215
2026-01-25 05:50:25.02	302.05	21.68	-38.6	-39.3	24.5	0.00e+00	0	44	0	2702180352	47	4233
2026-01-25 05:50:26.03	301.84	21.59	-38.6	-39.3	24.5	0.00e+00	0	44	0	2707423232	47	4222
2026-01-25 05:50:27.04	301.62	21.51	-38.6	-39.4	24.5	0.00e+00	0	44	0	2712666112	47	4250
2026-01-25 05:50:28.05	301.41	21.43	-38.6	-39.3	24.5	0.00e+00	0	44	0	2718957568	47	4216
2026-01-25 05:50:29.06	301.20	21.34	-38.6	-39.3	24.5	0.00e+00	0	44	0	2724200448	47	4231
2026-01-25 05:50:30.07	300.99	21.26	-38.6	-39.4	24.4	0.00e+00	0	44	0	2729443328	47	4261
2026-01-25 05:50:31.08	300.78	21.17	-39.1	-39.8	24.6	0.00e+00	0	44	0	2735734784	48	4202
2026-01-25 05:50:32.09	300.57	21.09	-39.1	-39.8	24.6	0.00e+00	0	44	0	2740977664	48	4203
2026-01-25 05:50:33.10	300.37	21.01	-39.0	-39.8	24.6	0.00e+00	0	44	0	2747269120	48	4198
2026-01-25 05:50:34.10	300.17	20.92	-38.9	-39.7	24.7	0.00e+00	0	44	0	2752512000	48	4152
2026-01-25 05:50:35.11	299.96	20.84	-39.0	-39.8	24.6	0.00e+00	0	44	0	2758803456	48	4203
2026-01-25 05:50:36.12	299.76	20.75	-39.1	-39.8	24.5	0.00e+00	0	44	0	2764046336	48	4221
2026-01-25 05:50:37.13	299.56	20.67	-39.1	-39.8	24.5	0.00e+00	0	44	0	2769289216	48	4225
2026-01-25 05:50:38.14	299.36	20.58	-39.1	-39.8	24.5	0.00e+00	0	45	0	2775580672	48	4225
2026-01-25 05:50:39.15	299.16	20.50	-39.0	-39.7	24.6	0.00e+00	0	44	0	2780823552	48	4192
2026-01-25 05:50:40.16	298.96	20.41	-38.8	-39.5	24.8	0.00e+00	0	44	0	2787115008	48	4093
2026-01-25 05:50:41.16	298.76	20.33	-38.8	-39.5	24.8	0.00e+00	0	44	0	2792357888	48	4095
2026-01-25 05:50:42.17	298.57	20.24	-38.9	-39.6	24.7	0.00e+00	0	44	0	2797600768	48	4115
2026-01-25 05:50:43.18	298.37	20.16	-39.0	-39.7	24.6	0.00e+00	0	44	0	2803892224	48	4185
2026-01-25 05:50:44.19	298.18	20.07	-39.0	-39.7	24.6	0.00e+00	0	44	0	2809135104	48	4174
2026-01-25 05:50:45.20	297.99	19.99	-39.1	-39.8	24.6	0.00e+00	0	44	0	2815426560	48	4201
2026-01-25 05:50:46.21	297.79	19.90	-39.1	-39.8	24.6	0.00e+00	0	44	0	2820669440	48	4213
2026-01-25 05:50:47.22	297.60	19.81	-39.2	-39.9	24.4	0.00e+00	0	44	0	2826960896	48	4276
2026-01-25 05:50:48.23	297.41	19.73	-39.2	-39.9	24.5	0.00e+00	0	44	0	2832203776	49	4025
2026-01-25 05:50:49.24	297.22	19.64	-39.2	-39.9	24.4	0.00e+00	0	44	0	2837446656	49	4049
2026-01-25 05:50:50.25	297.04	19.56	-39.2	-39.9	24.4	0.00e+00	0	44	0	2843738112	49	4042
2026-01-25 05:50:51.25	296.85	19.47	-39.1	-39.8	24.5	0.00e+00	0	44	0	2848980992	49	4003
2026-01-25 05:50:52.26	296.67	19.39	-39.1	-39.8	24.5	0.00e+00	0	44	0	2854223872	49	3996
2026-01-25 05:50:53.27	296.48	19.30	-39.0	-39.7	24.6	0.00e+00	0	44	0	2860515328	49	3939
2026-01-25 05:50:54.28	296.30	19.22	-39.0	-39.7	24.6	0.00e+00	0	44	0	2865758208	49	3923
2026-01-25 05:50:55.29	296.12	19.13	-38.9	-39.6	24.8	0.00e+00	0	44	0	2872049664	49	3883
2026-01-25 05:50:56.29	295.94	19.04	-38.9	-39.6	24.7	0.00e+00	0	44	0	2877292544	49	3911
2026-01-25 05:50:57.30	295.76	18.96	-38.9	-39.6	24.7	0.00e+00	0	44	0	2883584000	49	3908
2026-01-25 05:50:58.31	295.58	18.87	-39.0	-39.8	24.6	0.00e+00	0	44	0	2888826880	49	3966
2026-01-25 05:50:59.32	295.40	18.79	-39.1	-39.9	24.5	0.00e+00	0	44	0	2895118336	49	4010
2026-01-25 05:51:00.33	295.22	18.70	-39.2	-40.0	24.4	0.00e+00	0	44	0	2900361216	49	4064
2026-01-25 05:51:01.34	295.05	18.62	-39.2	-40.0	24.4	0.00e+00	0	44	0	2905604096	49	4054
2026-01-25 05:51:02.35	294.87	18.53	-39.3	-40.1	24.3	0.00e+00	0	44	0	2911895552	49	4107
2026-01-25 05:51:03.35	294.70	18.45	-39.4	-40.2	24.2	0.00e+00	0	44	0	2917138432	49	4146
2026-01-25 05:51:04.36	294.53	18.36	-39.4	-40.1	24.3	0.00e+00	0	44	0	2922381312	49	4121
2026-01-25 05:51:05.37	294.35	18.27	-39.5	-40.2	24.1	0.00e+00	0	44	0	2928672768	49	4189
2026-01-25 05:51:06.38	294.18	18.19	-39.5	-40.3	24.1	0.00e+00	0	44	0	2933915648	49	4209
2026-01-25 05:51:07.39	294.01	18.10	-39.5	-40.2	24.1	0.00e+00	0	45	0	2939158528	49	4191
2026-01-25 05:51:08.39	293.85	18.02	-39.5	-40.2	24.1	0.00e+00	0	44	0	2945449984	49	4193
2026-01-25 05:51:09.40	293.68	17.93	-39.6	-40.3	24.1	0.00e+00	0	44	0	2951741440	49	4220
2026-01-25 05:51:10.41	293.51	17.85	-39.8	-40.5	23.9	0.00e+00	0	44	0	2956984320	50	4077
2026-01-25 05:51:11.42	293.34	17.76	-39.8	-40.6	23.8	0.00e+00	0	44	0	2962227200	50	4101
2026-01-25 05:51:12.43	293.18	17.68	-39.9	-40.7	23.8	0.00e+00	0	44	0	2968518656	50	4147
2026-01-25 05:51:13.44	293.01	17.59	-39.9	-40.7	23.7	0.00e+00	0	44	0	2973761536	50	4152
2026-01-25 05:51:14.45	292.85	17.51	-40.0	-40.7	23.7	0.00e+00	0	44	0	2980052992	50	4193
2026-01-25 05:51:15.46	292.69	17.42	-40.0	-40.8	23.6	0.00e+00	0	44	0	2985295872	50	4201
2026-01-25 05:51:16.47	292.53	17.33	-40.0	-40.7	23.7	0.00e+00	0	44	0	2990538752	50	4190
2026-01-25 05:51:17.48	292.37	17.25	-40.0	-40.7	23.7	0.00e+00	0	44	0	2996830208	50	4193
2026-01-25 05:51:18.48	292.21	17.17	-39.9	-40.6	23.7	0.00e+00	0	44	0	3002073088	50	4141
2026-01-25 05:51:19.50	292.05	17.08	-39.9	-40.6	23.8	0.00e+00	0	44	0	3008364544	50	4129
2026-01-25 05:51:20.50	291.89	17.00	-40.0	-40.7	23.7	0.00e+00	0	45	0	3013607424	50	4170
2026-01-25 05:51:21.51	291.73	16.91	-40.0	-40.7	23.7	0.00e+00	0	44	0	3019898880	50	4169
2026-01-25 05:51:22.52	291.58	16.83	-39.9	-40.7	23.7	0.00e+00	0	44	0	3025141760	50	4147
2026-01-25 05:51:23.53	291.42	16.74	-40.0	-40.8	23.6	0.00e+00	0	44	0	3030384640	50	4210
2026-01-25 05:51:24.54	291.27	16.66	-40.1	-40.9	23.5	0.00e+00	0	44	0	3036676096	50	4275
2026-01-25 05:51:25.55	291.11	16.57	-39.9	-40.7	23.7	0.00e+00	0	44	0	3041918976	50	4167
2026-01-25 05:51:26.56	290.96	16.49	-40.0	-40.7	23.6	0.00e+00	0	44	0	3047161856	50	4192
2026-01-25 05:51:27.57	290.81	16.40	-40.0	-40.7	23.6	0.00e+00	0	45	0	3053453312	50	4178
2026-01-25 05:51:28.58	290.66	16.32	-40.0	-40.8	23.6	0.00e+00	0	44	0	3058696192	50	4199
2026-01-25 05:51:29.58	290.51	16.24	-40.2	-40.9	23.5	0.00e+00	0	45	0	3064987648	50	4284
2026-01-25 05:51:30.59	290.36	16.15	-40.1	-40.9	23.5	0.00e+00	0	44	0	3070230528	50	4260
2026-01-25 05:51:31.60	290.21	16.07	-40.3	-41.0	23.4	0.00e+00	0	44	0	3076521984	51	4085
2026-01-25 05:51:32.61	290.07	15.98	-40.3	-41.1	23.3	0.00e+00	0	44	0	3081764864	51	4103
2026-01-25 05:51:33.62	289.92	15.90	-40.4	-41.2	23.2	0.00e+00	0	45	0	3088056320	51	4160
2026-01-25 05:51:34.63	289.77	15.82	-40.4	-41.1	23.3	0.00e+00	0	45	0	3093299200	51	4141
2026-01-25 05:51:35.64	289.63	15.73	-40.4	-41.2	23.2	0.00e+00	0	44	0	3098542080	51	4147
2026-01-25 05:51:36.65	289.48	15.65	-40.4	-41.2	23.2	0.00e+00	0	44	0	3104833536	51	4146
2026-01-25 05:51:37.65	289.34	15.57	-40.4	-41.2	23.2	0.00e+00	0	44	0	3110076416	51	4154
2026-01-25 05:51:38.66	289.20	15.48	-40.4	-41.2	23.2	0.00e+00	0	44	0	3115319296	51	4153
2026-01-25 05:51:39.67	289.06	15.40	-40.5	-41.3	23.1	0.00e+00	0	45	0	3121610752	51	4215
2026-01-25 05:51:40.68	288.92	15.32	-40.6	-41.4	23.0	0.00e+00	0	44	0	3126853632	51	4266
2026-01-25 05:51:41.69	288.78	15.23	-40.6	-41.4	23.0	0.00e+00	0	44	0	3133145088	51	4244
2026-01-25 05:51:42.70	288.64	15.15	-40.4	-41.2	23.1	0.00e+00	0	44	0	3138387968	51	4178
2026-01-25 05:51:43.71	288.50	15.07	-40.5	-41.3	23.1	0.00e+00	0	44	0	3144679424	51	4213
2026-01-25 05:51:44.72	288.36	14.98	-40.5	-41.3	23.1	0.00e+00	0	45	0	3149922304	51	4225
2026-01-25 05:51:45.73	288.22	14.90	-40.5	-41.3	23.0	0.00e+00	0	45	0	3155165184	51	4224
2026-01-25 05:51:46.74	288.09	14.82	-40.6	-41.4	23.0	0.00e+00	0	44	0	3161456640	51	4266
2026-01-25 05:51:47.75	287.95	14.74	-40.6	-41.4	22.8	0.00e+00	0	44	0	3166699520	52	4050
2026-01-25 05:51:48.75	287.82	14.66	-40.7	-41.5	22.8	0.00e+00	0	45	0	3172990976	52	4071
2026-01-25 05:51:49.76	287.69	14.57	-40.7	-41.5	22.7	0.00e+00	0	44	0	3178233856	52	4088
2026-01-25 05:51:50.77	287.55	14.49	-40.8	-41.7	22.6	0.00e+00	0	44	0	3183476736	52	4157
2026-01-25 05:51:51.78	287.42	14.41	-40.8	-41.7	22.6	0.00e+00	0	44	0	3189768192	52	4146
2026-01-25 05:51:52.79	287.29	14.33	-40.8	-41.6	22.7	0.00e+00	0	44	0	3195011072	52	4133
2026-01-25 05:51:53.80	287.16	14.25	-40.8	-41.6	22.6	0.00e+00	0	44	0	3201302528	52	4121
2026-01-25 05:51:54.81	287.03	14.16	-40.9	-41.7	22.6	0.00e+00	0	44	0	3206545408	52	4162
2026-01-25 05:51:55.81	286.90	14.08	-40.8	-41.6	22.7	0.00e+00	0	44	0	3212836864	52	4118
2026-01-25 05:51:56.82	286.77	14.00	-40.8	-41.6	22.6	0.00e+00	0	44	0	3218079744	52	4126
2026-01-25 05:51:57.83	286.64	13.92	-40.8	-41.6	22.7	0.00e+00	0	44	0	3223322624	52	4117
2026-01-25 05:51:58.84	286.51	13.84	-40.7	-41.5	22.8	0.00e+00	0	45	0	3229614080	52	4059
2026-01-25 05:51:59.85	286.39	13.76	-40.7	-41.5	22.7	0.00e+00	0	44	0	3234856960	52	4075
2026-01-25 05:52:00.85	286.26	13.68	-40.8	-41.6	22.7	0.00e+00	0	45	0	3240099840	52	4112
2026-01-25 05:52:01.86	286.14	13.60	-40.8	-41.6	22.6	0.00e+00	0	44	0	3246391296	52	4145
2026-01-25 05:52:02.87	286.01	13.52	-40.8	-41.6	22.6	0.00e+00	0	44	0	3251634176	52	4132
2026-01-25 05:52:03.88	285.89	13.44	-40.9	-41.7	22.5	0.00e+00	0	45	0	3257925632	52	4165
2026-01-25 05:52:04.89	285.77	13.36	-40.8	-41.6	22.7	0.00e+00	0	45	0	3263168512	52	4106
2026-01-25 05:52:05.90	285.64	13.28	-40.7	-41.5	22.7	0.00e+00	0	44	0	3269459968	52	4089
2026-01-25 05:52:06.91	285.52	13.20	-40.8	-41.6	22.6	0.00e+00	0	45	0	3274702848	52	4108
2026-01-25 05:52:07.92	285.40	13.12	-40.9	-41.7	22.5	0.00e+00	0	45	0	3280994304	52	4147
2026-01-25 05:52:08.93	285.28	13.04	-40.8	-41.6	22.6	0.00e+00	0	44	0	3286237184	52	4137
2026-01-25 05:52:09.93	285.16	12.96	-40.8	-41.6	22.6	0.00e+00	0	44	0	3291480064	52	4141
2026-01-25 05:52:10.94	285.04	12.88	-40.8	-41.6	22.6	0.00e+00	0	44	0	3297771520	52	4141
2026-01-25 05:52:11.95	284.92	12.80	-40.9	-41.7	22.5	0.00e+00	0	44	0	3303014400	52	4189
2026-01-25 05:52:12.96	284.81	12.72	-41.1	-41.9	22.3	0.00e+00	0	44	0	3308257280	52	4261
2026-01-25 05:52:13.97	284.69	12.64	-41.1	-42.0	22.2	0.00e+00	0	44	0	3314548736	52	4299
2026-01-25 05:52:14.98	284.57	12.56	-41.2	-42.0	22.2	0.00e+00	0	45	0	3319791616	52	4316
2026-01-25 05:52:15.99	284.46	12.48	-41.2	-42.1	22.1	0.00e+00	0	44	0	3325034496	53	4111
2026-01-25 05:52:16.99	284.34	12.41	-41.3	-42.1	22.1	0.00e+00	0	44	0	3331325952	53	4127
2026-01-25 05:52:18.00	284.23	12.33	-41.2	-42.1	22.2	0.00e+00	0	44	0	3337617408	53	4102
2026-01-25 05:52:19.01	284.11	12.25	-41.2	-42.1	22.1	0.00e+00	0	45	0	3342860288	53	4113
2026-01-25 05:52:20.02	284.00	12.17	-41.3	-42.1	22.1	0.00e+00	0	44	0	3348103168	53	4124
2026-01-25 05:52:21.03	283.89	12.09	-41.3	-42.1	22.0	0.00e+00	0	44	0	3354394624	53	4137
2026-01-25 05:52:22.04	283.78	12.01	-41.3	-42.1	22.1	0.00e+00	0	44	0	3359637504	53	4117
2026-01-25 05:52:23.05	283.66	11.94	-41.2	-42.1	22.1	0.00e+00	0	44	0	3365928960	53	4111
2026-01-25 05:52:24.06	283.55	11.86	-41.4	-42.2	22.0	0.00e+00	0	44	0	3371171840	53	4193
2026-01-25 05:52:25.07	283.44	11.78	-41.4	-42.3	21.9	0.00e+00	0	44	0	3376414720	53	4211
2026-01-25 05:52:26.08	283.33	11.70	-41.6	-42.4	21.8	0.00e+00	0	44	0	3382706176	53	4280
2026-01-25 05:52:27.08	283.23	11.63	-41.6	-42.5	21.7	0.00e+00	0	44	0	3387949056	53	4322
2026-01-25 05:52:28.09	283.12	11.55	-41.5	-42.4	21.8	0.00e+00	0	44	0	3394240512	53	4260
2026-01-25 05:52:29.10	283.01	11.47	-41.5	-42.3	21.8	0.00e+00	0	45	0	3399483392	53	4239
2026-01-25 05:52:30.11	282.90	11.40	-41.4	-42.2	21.9	0.00e+00	0	45	0	3405774848	53	4172
2026-01-25 05:52:31.12	282.79	11.32	-41.4	-42.3	21.9	0.00e+00	0	44	0	3411017728	53	4213
2026-01-25 05:52:32.13	282.69	11.24	-41.4	-42.3	21.9	0.00e+00	0	44	0	3416260608	53	4198
2026-01-25 05:52:33.13	282.58	11.17	-41.4	-42.3	21.8	0.00e+00	0	44	0	3422552064	53	4216
2026-01-25 05:52:34.14	282.48	11.09	-41.5	-42.3	21.8	0.00e+00	0	44	0	3427794944	53	4239
2026-01-25 05:52:35.15	282.37	11.02	-41.6	-42.4	21.7	0.00e+00	0	44	0	3433037824	53	4271
2026-01-25 05:52:36.16	282.27	10.94	-41.5	-42.3	21.8	0.00e+00	0	45	0	3439329280	53	4235
2026-01-25 05:52:37.17	282.17	10.86	-41.5	-42.4	21.7	0.00e+00	0	44	0	3444572160	53	4264
2026-01-25 05:52:38.17	282.06	10.79	-41.7	-42.5	21.6	0.00e+00	0	44	0	3450863616	53	4333
2026-01-25 05:52:39.18	281.96	10.71	-41.7	-42.5	21.6	0.00e+00	0	44	0	3456106496	53	4330
2026-01-25 05:52:40.19	281.86	10.64	-41.8	-42.7	21.5	0.00e+00	0	44	0	3461349376	54	4146
2026-01-25 05:52:41.20	281.76	10.56	-41.9	-42.8	21.4	0.00e+00	0	44	0	3467640832	54	4198
2026-01-25 05:52:42.21	281.66	10.49	-41.7	-42.6	21.5	0.00e+00	0	44	0	3473932288	54	4132
2026-01-25 05:52:43.21	281.56	10.41	-41.7	-42.6	21.5	0.00e+00	0	44	0	3479175168	54	4133
2026-01-25 05:52:44.22	281.46	10.34	-41.9	-42.8	21.4	0.00e+00	0	44	0	3484418048	54	4202
2026-01-25 05:52:45.23	281.36	10.26	-41.8	-42.7	21.4	0.00e+00	0	44	0	3490709504	54	4190
2026-01-25 05:52:46.24	281.26	10.19	-41.9	-42.8	21.3	0.00e+00	0	44	0	3495952384	54	4209
2026-01-25 05:52:47.25	281.16	10.11	-42.0	-42.9	21.2	0.00e+00	0	44	0	3501195264	54	4272
2026-01-25 05:52:48.25	281.07	10.04	-41.9	-42.8	21.3	0.00e+00	0	44	0	3507486720	54	4235
2026-01-25 05:52:49.26	280.97	9.97	-41.9	-42.8	21.3	0.00e+00	0	44	0	3512729600	54	4209
2026-01-25 05:52:50.27	280.87	9.89	-41.9	-42.8	21.3	0.00e+00	0	44	0	3517972480	54	4228
2026-01-25 05:52:51.28	280.78	9.82	-42.0	-42.9	21.2	0.00e+00	0	45	0	3524263936	54	4250
2026-01-25 05:52:52.29	280.68	9.74	-41.9	-42.8	21.3	0.00e+00	0	44	0	3529506816	54	4218
2026-01-25 05:52:53.30	280.59	9.67	-42.0	-42.9	21.2	0.00e+00	0	44	0	3535798272	54	4261
2026-01-25 05:52:54.31	280.49	9.60	-42.0	-42.9	21.2	0.00e+00	0	44	0	3541041152	54	4271
2026-01-25 05:52:55.32	280.40	9.52	-41.8	-42.7	21.4	0.00e+00	0	44	0	3547332608	54	4160
2026-01-25 05:52:56.33	280.30	9.45	-41.8	-42.6	21.4	0.00e+00	0	44	0	3552575488	54	4142
2026-01-25 05:52:57.33	280.21	9.38	-41.8	-42.6	21.4	0.00e+00	0	44	0	3558866944	54	4144
2026-01-25 05:52:58.34	280.12	9.31	-41.9	-42.8	21.2	0.00e+00	0	44	0	3564109824	54	4214
2026-01-25 05:52:59.35	280.03	9.23	-41.9	-42.8	21.2	0.00e+00	0	44	0	3569352704	54	4240
2026-01-25 05:53:00.36	279.93	9.16	-42.0	-42.9	21.2	0.00e+00	0	44	0	3575644160	54	4268
2026-01-25 05:53:01.37	279.84	9.09	-42.1	-43.0	21.1	0.00e+00	0	44	0	3580887040	54	4304
2026-01-25 05:53:02.37	279.75	9.02	-42.1	-43.0	21.1	0.00e+00	0	45	0	3586129920	54	4302
2026-01-25 05:53:03.38	279.66	8.94	-42.0	-42.9	21.1	0.00e+00	0	44	0	3592421376	54	4263
2026-01-25 05:53:04.39	279.57	8.87	-42.0	-42.9	21.1	0.00e+00	0	44	0	3598712832	54	4284
2026-01-25 05:53:05.40	279.48	8.80	-42.1	-43.0	21.0	0.00e+00	0	45	0	3603955712	54	4320
2026-01-25 05:53:06.41	279.40	8.73	-42.1	-43.0	21.0	0.00e+00	0	44	0	3609198592	54	4334
2026-01-25 05:53:07.42	279.31	8.66	-41.9	-42.8	21.2	0.00e+00	0	44	0	3615490048	54	4238
2026-01-25 05:53:08.43	279.22	8.59	-42.0	-42.9	21.1	0.00e+00	0	45	0	3620732928	54	4279
2026-01-25 05:53:09.44	279.13	8.51	-41.9	-42.8	21.1	0.00e+00	0	44	0	3625975808	54	4238
2026-01-25 05:53:10.45	279.04	8.44	-41.9	-42.8	21.1	0.00e+00	0	45	0	3632267264	54	4230
2026-01-25 05:53:11.46	278.96	8.37	-42.0	-42.9	21.1	0.00e+00	0	45	0	3637510144	54	4251
2026-01-25 05:53:12.47	278.87	8.30	-42.1	-43.0	20.9	0.00e+00	0	44	0	3643801600	54	4336
2026-01-25 05:53:13.47	278.79	8.23	-42.1	-43.0	20.9	0.00e+00	0	44	0	3649044480	55	4096
2026-01-25 05:53:14.48	278.70	8.16	-42.1	-43.0	21.0	0.00e+00	0	45	0	3654287360	55	4071
2026-01-25 05:53:15.49	278.62	8.09	-42.2	-43.1	20.9	0.00e+00	0	44	0	3660578816	55	4117
2026-01-25 05:53:16.50	278.53	8.02	-42.1	-43.0	21.0	0.00e+00	0	44	0	3666870272	55	4069
2026-01-25 05:53:17.51	278.45	7.95	-42.3	-43.2	20.7	0.00e+00	0	44	0	3672113152	55	4169
