passes_logs/2026/01/25/R3.2S_Murmansk/R3.2S_Murmansk__20260125_094115_SUOMI_NPP_rec.log

#Pass ID: 20260125_094115_SUOMI NPP
#Satellite: SUOMI NPP
#Configuration: NPP
#almurnet v.1.7.20251203
#Start time: 2026-01-25 09:41:17

#Version: 2.2.20231116
#Station: R3.2S_Murmansk
#Location: 33.079688 lon 68.888172 lat
#TLE: 1 37849U 11061A   26024.97198022  .00000188  00000+0  11029-3 0  9994
#TLE: 2 37849  98.7821 326.9352 0002187  46.6646 313.4712 14.19529581738125

#Time	Az	El	Level	Level2	SNR	BER	BlckErr	Temp	State	Recorded	gain1	gain2
2026-01-25 09:41:17.44	153.75	2.12	-52.1	-67.0	3.8	1.49e+00	0	42	0	0	76	19312
2026-01-25 09:41:18.45	153.76	2.18	-52.0	-67.0	3.8	1.49e+00	0	42	104	0	74	21696
2026-01-25 09:41:19.46	153.76	2.25	-52.0	-67.0	3.8	1.49e+00	0	42	104	0	74	21642
2026-01-25 09:41:20.46	153.77	2.31	-52.0	-67.0	3.8	1.49e+00	0	42	104	0	74	21627
2026-01-25 09:41:21.47	153.78	2.38	-52.0	-67.0	3.8	1.49e+00	0	42	104	0	74	21570
2026-01-25 09:41:22.48	153.78	2.44	-52.0	-67.0	3.8	1.49e+00	0	42	104	0	74	21586
2026-01-25 09:41:23.49	153.79	2.51	-52.0	-67.0	3.8	1.49e+00	0	42	104	0	74	21524
2026-01-25 09:41:24.50	153.79	2.58	-52.0	-66.9	3.8	1.49e+00	0	42	104	0	74	21493
2026-01-25 09:41:25.50	153.80	2.64	-52.0	-67.0	3.8	1.49e+00	0	42	104	0	74	21528
2026-01-25 09:41:26.51	153.80	2.71	-52.0	-66.9	3.8	1.49e+00	0	42	104	0	74	21470
2026-01-25 09:41:27.52	153.81	2.77	-52.0	-66.9	3.8	1.49e+00	0	42	104	0	74	21481
2026-01-25 09:41:28.53	153.81	2.84	-52.0	-66.9	3.8	1.49e+00	0	42	104	0	74	21345
2026-01-25 09:41:29.54	153.82	2.91	-52.0	-66.9	3.8	1.49e+00	0	42	104	0	74	21330
2026-01-25 09:41:30.54	153.82	2.97	-52.0	-66.8	3.8	1.49e+00	0	42	104	0	74	21124
2026-01-25 09:41:31.55	153.83	3.04	-52.0	-66.7	3.8	1.49e+00	0	42	104	0	74	20995
2026-01-25 09:41:32.56	153.84	3.11	-52.0	-66.6	3.8	1.49e+00	0	42	104	0	74	20726
2026-01-25 09:41:33.57	153.84	3.18	-52.0	-66.5	3.8	1.49e+00	0	42	104	0	74	20495
2026-01-25 09:41:34.58	153.85	3.24	-52.0	-66.4	3.8	1.49e+00	0	42	104	0	74	20150
2026-01-25 09:41:35.58	153.85	3.31	-52.0	-66.4	3.8	1.49e+00	0	42	104	0	74	20081
2026-01-25 09:41:36.59	153.86	3.38	-52.0	-66.5	3.8	1.49e+00	0	42	104	0	74	20430
2026-01-25 09:41:37.60	153.86	3.45	-52.0	-66.6	3.8	1.49e+00	0	42	104	0	74	20546
2026-01-25 09:41:38.61	153.87	3.52	-52.0	-66.6	3.8	1.49e+00	0	42	104	0	74	20691
2026-01-25 09:41:39.62	153.87	3.58	-52.0	-66.4	3.8	1.49e+00	0	42	104	0	74	20129
2026-01-25 09:41:40.63	153.88	3.65	-52.0	-65.8	3.8	1.49e+00	0	42	104	0	74	18838
2026-01-25 09:41:41.64	153.88	3.72	-51.9	-64.4	4.0	1.48e+00	0	42	104	0	74	15992
2026-01-25 09:41:42.65	153.89	3.79	-51.8	-63.2	4.2	1.40e+00	0	42	0	0	74	13930
2026-01-25 09:41:43.66	153.90	3.86	-51.6	-61.1	5.1	9.50e-01	0	42	0	1048576	74	10996
2026-01-25 09:41:44.67	153.90	3.93	-51.5	-60.2	5.7	5.15e-01	0	42	0	3145728	74	9928
2026-01-25 09:41:45.68	153.91	4.00	-51.1	-58.2	7.4	1.98e-01	0	42	0	5242880	74	7884
2026-01-25 09:41:46.68	153.91	4.07	-50.8	-57.0	8.6	6.74e-02	0	43	0	6291456	73	7254
2026-01-25 09:41:47.69	153.92	4.14	-50.7	-56.5	9.1	2.40e-02	0	42	0	8388608	73	6846
2026-01-25 09:41:48.70	153.92	4.21	-50.3	-55.3	10.3	1.10e-02	0	43	0	10485760	72	6327
2026-01-25 09:41:49.71	153.93	4.28	-49.9	-54.3	11.5	1.45e-03	0	42	0	12582912	71	5979
2026-01-25 09:41:50.72	153.94	4.35	-49.8	-53.9	11.9	5.30e-04	0	43	0	14680064	71	5716
2026-01-25 09:41:51.72	153.94	4.42	-49.5	-53.3	12.6	1.10e-04	0	42	0	15728640	70	5615
2026-01-25 09:41:52.73	153.95	4.49	-49.2	-52.7	13.2	3.05e-05	0	43	0	17825792	70	5262
2026-01-25 09:41:53.74	153.95	4.56	-49.2	-52.7	13.2	2.05e-05	0	43	0	19922944	70	5264
2026-01-25 09:41:54.75	153.96	4.63	-48.9	-52.1	13.8	6.10e-06	0	43	0	22020096	69	5168
2026-01-25 09:41:55.76	153.96	4.70	-49.0	-52.3	13.6	5.30e-06	0	43	0	24117248	69	5315
2026-01-25 09:41:56.77	153.97	4.78	-48.9	-52.2	13.7	1.06e-05	0	43	0	25165824	69	5262
2026-01-25 09:41:57.78	153.98	4.85	-49.3	-52.9	13.0	8.30e-06	0	43	0	27262976	69	5663
2026-01-25 09:41:58.78	153.98	4.92	-49.5	-53.3	12.4	8.23e-05	0	43	0	29360128	69	5989
2026-01-25 09:41:59.79	153.99	4.99	-49.7	-53.8	12.0	2.72e-04	0	43	0	31457280	70	5983
2026-01-25 09:42:00.80	153.99	5.06	-49.9	-54.2	11.7	6.69e-04	0	43	0	33554432	70	6245
2026-01-25 09:42:01.81	154.00	5.14	-49.1	-52.2	13.9	2.51e-05	0	43	0	34603008	70	4967
2026-01-25 09:42:02.82	154.00	5.21	-51.6	-61.9	5.0	4.76e-04	0	43	0	36700160	73	12701
2026-01-25 09:42:03.83	154.01	5.28	-50.6	-56.0	9.7	1.46e+00	1	43	104	36700160	73	6421
2026-01-25 09:42:04.84	154.02	5.36	-49.5	-53.2	13.0	5.56e-05	0	43	0	37748736	70	5560
2026-01-25 09:42:05.85	154.02	5.43	-49.0	-52.1	14.0	2.13e-05	0	43	0	39845888	69	5187
2026-01-25 09:42:06.86	154.03	5.50	-49.2	-52.4	13.7	3.80e-06	0	43	0	41943040	69	5397
2026-01-25 09:42:07.86	154.03	5.58	-48.9	-52.0	14.1	1.50e-06	0	43	0	42991616	69	5101
2026-01-25 09:42:08.87	154.04	5.65	-48.8	-51.7	14.4	7.00e-07	0	43	0	45088768	69	4973
2026-01-25 09:42:09.88	154.05	5.72	-48.8	-51.8	14.4	0.00e+00	0	43	0	47185920	69	4997
2026-01-25 09:42:10.89	154.05	5.80	-48.9	-51.9	14.3	0.00e+00	0	43	0	49283072	69	5074
2026-01-25 09:42:11.90	154.06	5.87	-48.9	-52.0	14.2	0.00e+00	0	43	0	51380224	69	5103
2026-01-25 09:42:12.91	154.06	5.95	-48.9	-51.8	14.4	7.00e-07	0	43	0	52428800	69	5032
2026-01-25 09:42:13.91	154.07	6.02	-48.8	-51.7	14.5	0.00e+00	0	43	0	54525952	69	4982
2026-01-25 09:42:14.92	154.08	6.10	-48.8	-51.8	14.5	7.00e-07	0	43	0	56623104	69	5009
2026-01-25 09:42:15.93	154.08	6.17	-48.6	-51.4	14.9	0.00e+00	0	43	0	58720256	69	4773
2026-01-25 09:42:16.94	154.09	6.25	-48.8	-51.6	14.6	0.00e+00	0	43	0	60817408	69	4916
2026-01-25 09:42:17.95	154.09	6.33	-48.7	-51.5	14.8	0.00e+00	0	43	0	61865984	69	4836
2026-01-25 09:42:18.96	154.10	6.40	-48.8	-51.7	14.6	7.00e-07	0	43	0	63963136	69	4937
2026-01-25 09:42:19.97	154.11	6.48	-48.7	-51.5	14.8	7.00e-07	0	43	0	66060288	69	4835
2026-01-25 09:42:20.98	154.11	6.55	-48.6	-51.2	15.1	0.00e+00	0	43	0	68157440	69	4679
2026-01-25 09:42:21.99	154.12	6.63	-48.7	-51.4	14.9	0.00e+00	0	43	0	70254592	69	4804
2026-01-25 09:42:22.99	154.12	6.71	-48.7	-51.4	15.0	0.00e+00	0	43	0	71303168	69	4786
2026-01-25 09:42:24.00	154.13	6.79	-48.6	-51.2	15.2	0.00e+00	0	43	0	73400320	69	4701
2026-01-25 09:42:25.01	154.14	6.86	-48.7	-51.5	14.8	0.00e+00	0	43	0	75497472	69	4850
2026-01-25 09:42:26.02	154.14	6.94	-48.8	-51.6	14.8	0.00e+00	0	43	0	77594624	69	4915
2026-01-25 09:42:27.03	154.15	7.02	-48.5	-51.1	15.2	0.00e+00	0	43	0	79691776	69	4649
2026-01-25 09:42:28.03	154.15	7.10	-48.7	-51.4	15.0	0.00e+00	0	43	0	80740352	69	4780
2026-01-25 09:42:29.04	154.16	7.17	-48.4	-50.9	15.4	0.00e+00	0	43	0	82837504	68	4795
2026-01-25 09:42:30.05	154.17	7.25	-48.6	-51.2	15.2	0.00e+00	0	43	0	84934656	68	4943
2026-01-25 09:42:31.06	154.17	7.33	-48.5	-51.1	15.3	0.00e+00	0	43	0	87031808	68	4915
2026-01-25 09:42:32.06	154.18	7.41	-48.4	-51.0	15.4	0.00e+00	0	43	0	89128960	68	4845
2026-01-25 09:42:33.07	154.18	7.49	-48.5	-51.1	15.4	0.00e+00	0	43	0	90177536	68	4872
2026-01-25 09:42:34.08	154.19	7.57	-48.5	-51.1	15.3	0.00e+00	0	43	0	92274688	68	4901
2026-01-25 09:42:35.09	154.20	7.65	-48.4	-50.9	15.6	0.00e+00	0	43	0	94371840	68	4764
2026-01-25 09:42:36.10	154.20	7.73	-48.5	-51.1	15.3	0.00e+00	0	43	0	96468992	68	4917
2026-01-25 09:42:37.11	154.21	7.81	-48.3	-50.8	15.7	0.00e+00	0	43	0	98566144	68	4741
2026-01-25 09:42:38.12	154.22	7.89	-48.4	-50.9	15.6	0.00e+00	0	43	0	99614720	68	4780
2026-01-25 09:42:39.12	154.22	7.97	-48.4	-50.8	15.6	0.00e+00	0	43	0	101711872	68	4755
2026-01-25 09:42:40.13	154.23	8.05	-48.4	-50.8	15.6	0.00e+00	0	43	0	103809024	68	4757
2026-01-25 09:42:41.14	154.24	8.14	-48.4	-50.8	15.6	0.00e+00	0	43	0	105906176	68	4751
2026-01-25 09:42:42.15	154.24	8.22	-48.4	-50.9	15.6	0.00e+00	0	43	0	108003328	68	4772
2026-01-25 09:42:43.16	154.25	8.30	-48.2	-50.5	16.0	0.00e+00	0	43	0	109051904	68	4586
2026-01-25 09:42:44.17	154.25	8.38	-48.3	-50.7	15.9	0.00e+00	0	43	0	111149056	68	4658
2026-01-25 09:42:45.18	154.26	8.46	-48.2	-50.6	15.9	0.00e+00	0	43	0	113246208	68	4620
2026-01-25 09:42:46.19	154.27	8.55	-48.3	-50.7	15.8	0.00e+00	0	43	0	115343360	68	4685
2026-01-25 09:42:47.19	154.27	8.63	-48.3	-50.7	15.9	0.00e+00	0	43	0	117440512	68	4656
2026-01-25 09:42:48.20	154.28	8.71	-48.2	-50.6	16.0	0.00e+00	0	43	0	118489088	68	4609
2026-01-25 09:42:49.21	154.29	8.80	-48.3	-50.7	15.9	0.00e+00	0	43	0	120586240	68	4667
2026-01-25 09:42:50.21	154.29	8.88	-48.3	-50.7	15.9	0.00e+00	0	43	0	122683392	68	4654
2026-01-25 09:42:51.22	154.30	8.96	-48.2	-50.6	15.9	0.00e+00	0	43	0	124780544	68	4637
2026-01-25 09:42:52.23	154.31	9.05	-48.2	-50.6	16.0	0.00e+00	0	43	0	126877696	68	4638
2026-01-25 09:42:53.24	154.31	9.13	-48.1	-50.4	16.1	0.00e+00	0	43	0	128974848	68	4540
2026-01-25 09:42:54.25	154.32	9.22	-48.1	-50.5	16.1	0.00e+00	0	43	0	130023424	68	4558
2026-01-25 09:42:55.26	154.33	9.30	-48.0	-50.3	16.3	0.00e+00	0	43	0	132120576	68	4459
2026-01-25 09:42:56.26	154.33	9.39	-48.0	-50.3	16.3	0.00e+00	0	43	0	134217728	68	4465
2026-01-25 09:42:57.27	154.34	9.48	-48.0	-50.3	16.3	0.00e+00	0	43	0	136314880	68	4447
2026-01-25 09:42:58.28	154.35	9.56	-47.8	-50.0	16.5	0.00e+00	0	43	0	137363456	67	4591
2026-01-25 09:42:59.29	154.35	9.65	-47.8	-50.0	16.5	0.00e+00	0	43	0	139460608	67	4577
2026-01-25 09:43:00.30	154.36	9.74	-47.9	-50.1	16.4	0.00e+00	0	43	0	141557760	67	4625
2026-01-25 09:43:01.31	154.37	9.82	-47.8	-49.9	16.6	0.00e+00	0	43	0	143654912	67	4530
2026-01-25 09:43:02.32	154.37	9.91	-47.7	-49.9	16.7	0.00e+00	0	43	0	145752064	67	4504
2026-01-25 09:43:03.33	154.38	10.00	-47.8	-50.0	16.5	0.00e+00	0	43	0	146800640	67	4560
2026-01-25 09:43:04.34	154.39	10.09	-47.8	-49.9	16.6	0.00e+00	0	43	0	148897792	67	4531
2026-01-25 09:43:05.34	154.39	10.17	-47.6	-49.7	16.8	0.00e+00	0	44	0	150994944	67	4433
2026-01-25 09:43:06.35	154.40	10.26	-47.6	-49.7	16.8	0.00e+00	0	43	0	153092096	67	4418
2026-01-25 09:43:07.36	154.41	10.35	-47.7	-49.8	16.8	0.00e+00	0	43	0	155189248	67	4445
2026-01-25 09:43:08.37	154.41	10.44	-47.6	-49.6	16.9	0.00e+00	0	43	0	157286400	67	4386
2026-01-25 09:43:09.38	154.42	10.53	-47.6	-49.7	16.9	0.00e+00	0	43	0	158334976	67	4398
2026-01-25 09:43:10.39	154.43	10.62	-47.6	-49.7	16.9	0.00e+00	0	43	0	160432128	67	4396
2026-01-25 09:43:11.40	154.43	10.71	-47.5	-49.5	17.0	0.00e+00	0	43	0	162529280	66	4570
2026-01-25 09:43:12.40	154.44	10.80	-47.5	-49.5	17.1	0.00e+00	0	43	0	164626432	66	4550
2026-01-25 09:43:13.41	154.45	10.89	-47.4	-49.5	17.1	0.00e+00	0	43	0	165675008	66	4550
2026-01-25 09:43:14.42	154.45	10.98	-47.4	-49.4	17.2	0.00e+00	0	43	0	167772160	66	4512
2026-01-25 09:43:15.43	154.46	11.08	-47.4	-49.4	17.2	0.00e+00	0	44	0	169869312	66	4521
2026-01-25 09:43:16.43	154.47	11.17	-47.5	-49.5	17.1	0.00e+00	0	44	0	171966464	66	4550
2026-01-25 09:43:17.44	154.48	11.26	-47.4	-49.4	17.2	0.00e+00	0	43	0	174063616	66	4528
2026-01-25 09:43:18.45	154.48	11.35	-47.2	-49.2	17.4	0.00e+00	0	43	0	176160768	66	4392
2026-01-25 09:43:19.46	154.49	11.45	-47.2	-49.1	17.4	0.00e+00	0	43	0	177209344	66	4391
2026-01-25 09:43:20.47	154.50	11.54	-47.2	-49.1	17.6	0.00e+00	0	44	0	179306496	66	4345
2026-01-25 09:43:21.48	154.50	11.63	-47.1	-49.0	17.7	0.00e+00	0	43	0	181403648	66	4300
2026-01-25 09:43:22.48	154.51	11.73	-47.1	-49.0	17.6	0.00e+00	0	43	0	183500800	66	4321
2026-01-25 09:43:23.49	154.52	11.82	-47.2	-49.0	17.6	0.00e+00	0	44	0	185597952	66	4339
2026-01-25 09:43:24.50	154.53	11.92	-46.9	-48.7	17.9	0.00e+00	0	43	0	186646528	65	4441
2026-01-25 09:43:25.51	154.53	12.01	-47.0	-48.8	17.8	0.00e+00	0	43	0	188743680	65	4458
2026-01-25 09:43:26.52	154.54	12.11	-46.9	-48.7	18.0	0.00e+00	0	43	0	190840832	65	4408
2026-01-25 09:43:27.53	154.55	12.20	-46.9	-48.7	18.0	0.00e+00	0	43	0	192937984	65	4392
2026-01-25 09:43:28.53	154.55	12.30	-46.9	-48.6	18.0	0.00e+00	0	44	0	195035136	65	4388
2026-01-25 09:43:29.54	154.56	12.40	-46.8	-48.5	18.1	0.00e+00	0	43	0	196083712	65	4328
2026-01-25 09:43:30.55	154.57	12.49	-46.8	-48.5	18.2	0.00e+00	0	44	0	198180864	65	4303
2026-01-25 09:43:31.55	154.58	12.59	-46.5	-48.1	18.5	0.00e+00	0	44	0	200278016	64	4355
2026-01-25 09:43:32.56	154.58	12.69	-46.5	-48.2	18.4	0.00e+00	0	43	0	202375168	64	4411
2026-01-25 09:43:33.57	154.59	12.79	-46.5	-48.1	18.5	0.00e+00	0	44	0	204472320	64	4366
2026-01-25 09:43:34.58	154.60	12.89	-46.4	-48.0	18.6	0.00e+00	0	44	0	205520896	64	4312
2026-01-25 09:43:35.59	154.61	12.98	-46.4	-48.1	18.6	0.00e+00	0	44	0	207618048	64	4341
2026-01-25 09:43:36.59	154.61	13.08	-46.5	-48.2	18.4	0.00e+00	0	43	0	209715200	64	4415
2026-01-25 09:43:37.60	154.62	13.18	-46.4	-48.0	18.7	0.00e+00	0	43	0	211812352	64	4298
2026-01-25 09:43:38.61	154.63	13.28	-46.5	-48.1	18.6	0.00e+00	0	43	0	213909504	64	4368
2026-01-25 09:43:39.62	154.64	13.38	-46.2	-47.8	18.8	0.00e+00	0	43	0	214958080	64	4218
2026-01-25 09:43:40.63	154.64	13.49	-46.4	-48.0	18.7	0.00e+00	0	44	0	217055232	64	4310
2026-01-25 09:43:41.64	154.65	13.59	-46.3	-47.8	18.8	0.00e+00	0	44	0	219152384	64	4233
2026-01-25 09:43:42.65	154.66	13.69	-46.3	-47.8	18.9	0.00e+00	0	43	0	221249536	64	4230
2026-01-25 09:43:43.66	154.67	13.79	-46.3	-47.9	18.8	0.00e+00	0	43	0	223346688	64	4275
2026-01-25 09:43:44.66	154.67	13.89	-46.1	-47.6	19.1	0.00e+00	0	43	0	224395264	64	4109
2026-01-25 09:43:45.67	154.68	14.00	-46.0	-47.5	19.1	0.00e+00	0	43	0	226492416	64	4096
2026-01-25 09:43:46.68	154.69	14.10	-46.2	-47.7	18.9	0.00e+00	0	44	0	228589568	64	4177
2026-01-25 09:43:47.69	154.70	14.21	-46.0	-47.5	19.3	0.00e+00	0	43	0	230686720	63	4295
2026-01-25 09:43:48.69	154.71	14.31	-45.9	-47.4	19.3	0.00e+00	0	44	0	232783872	63	4274
2026-01-25 09:43:49.70	154.71	14.42	-45.9	-47.4	19.3	0.00e+00	0	44	0	233832448	63	4265
2026-01-25 09:43:50.71	154.72	14.52	-45.7	-47.2	19.6	0.00e+00	0	44	0	235929600	63	4154
2026-01-25 09:43:51.72	154.73	14.63	-45.7	-47.1	19.7	0.00e+00	0	43	0	238026752	63	4113
2026-01-25 09:43:52.73	154.74	14.73	-45.6	-47.0	19.7	0.00e+00	0	44	0	240123904	63	4089
2026-01-25 09:43:53.74	154.74	14.84	-45.6	-47.0	19.8	0.00e+00	0	44	0	242221056	63	4052
2026-01-25 09:43:54.74	154.75	14.95	-45.6	-47.1	19.7	0.00e+00	0	44	0	244318208	63	4102
2026-01-25 09:43:55.75	154.76	15.06	-45.5	-46.8	19.9	0.00e+00	0	44	0	245366784	62	4228
2026-01-25 09:43:56.76	154.77	15.16	-45.4	-46.7	20.0	0.00e+00	0	44	0	247463936	62	4183
2026-01-25 09:43:57.77	154.78	15.27	-45.3	-46.6	20.1	0.00e+00	0	44	0	249561088	62	4115
2026-01-25 09:43:58.78	154.79	15.38	-45.3	-46.7	20.0	0.00e+00	0	44	0	251658240	62	4153
2026-01-25 09:43:59.78	154.79	15.49	-45.6	-46.9	19.8	0.00e+00	0	44	0	252706816	62	4285
2026-01-25 09:44:00.79	154.80	15.60	-45.4	-46.7	20.0	0.00e+00	0	44	0	254803968	62	4189
2026-01-25 09:44:01.80	154.81	15.71	-45.3	-46.7	20.1	0.00e+00	0	44	0	256901120	62	4147
2026-01-25 09:44:02.81	154.82	15.82	-45.4	-46.8	20.0	0.00e+00	0	43	0	258998272	62	4196
2026-01-25 09:44:03.82	154.83	15.94	-45.2	-46.4	20.3	0.00e+00	0	44	0	261095424	62	4047
2026-01-25 09:44:04.82	154.83	16.05	-45.2	-46.5	20.2	0.00e+00	0	44	0	262144000	62	4070
2026-01-25 09:44:05.83	154.84	16.16	-45.2	-46.5	20.3	0.00e+00	0	44	0	264241152	62	4056
2026-01-25 09:44:06.84	154.85	16.28	-45.2	-46.4	20.3	0.00e+00	0	44	0	266338304	62	4049
2026-01-25 09:44:07.85	154.86	16.39	-45.3	-46.6	20.2	0.00e+00	0	44	0	268435456	62	4101
2026-01-25 09:44:08.86	154.87	16.50	-45.2	-46.5	20.3	0.00e+00	0	44	0	270532608	62	4079
2026-01-25 09:44:09.86	154.88	16.62	-45.1	-46.4	20.4	0.00e+00	0	44	0	272629760	62	4031
2026-01-25 09:44:10.87	154.89	16.73	-45.1	-46.4	20.3	0.00e+00	0	44	0	273678336	62	4014
2026-01-25 09:44:11.88	154.89	16.85	-45.2	-46.6	20.2	0.00e+00	0	44	0	275775488	62	4100
2026-01-25 09:44:12.89	154.90	16.97	-45.1	-46.4	20.3	0.00e+00	0	44	0	277872640	61	4283
2026-01-25 09:44:13.90	154.91	17.08	-45.0	-46.3	20.5	0.00e+00	0	44	0	279969792	61	4197
2026-01-25 09:44:14.90	154.92	17.20	-44.9	-46.2	20.5	0.00e+00	0	44	0	281018368	61	4165
2026-01-25 09:44:15.91	154.93	17.32	-44.9	-46.1	20.5	0.00e+00	0	44	0	283115520	61	4142
2026-01-25 09:44:16.92	154.94	17.44	-44.8	-46.1	20.6	0.00e+00	0	44	0	285212672	61	4099
2026-01-25 09:44:17.93	154.95	17.56	-44.9	-46.1	20.6	0.00e+00	0	44	0	287309824	61	4120
2026-01-25 09:44:18.94	154.96	17.68	-44.7	-45.9	20.8	0.00e+00	0	44	0	289406976	61	4050
2026-01-25 09:44:19.94	154.96	17.80	-44.8	-46.1	20.7	0.00e+00	0	44	0	291504128	61	4102
2026-01-25 09:44:20.95	154.97	17.92	-44.8	-46.1	20.7	0.00e+00	0	44	0	292552704	61	4103
2026-01-25 09:44:21.96	154.98	18.04	-44.8	-46.0	20.7	0.00e+00	0	44	0	294649856	61	4087
2026-01-25 09:44:22.97	154.99	18.17	-44.6	-45.8	20.9	0.00e+00	0	44	0	296747008	61	3980
2026-01-25 09:44:23.98	155.00	18.29	-44.7	-45.9	20.9	0.00e+00	0	44	0	298844160	61	4037
2026-01-25 09:44:24.98	155.01	18.41	-44.7	-46.0	20.8	0.00e+00	0	44	0	300941312	61	4057
2026-01-25 09:44:25.99	155.02	18.54	-44.6	-45.8	20.9	0.00e+00	0	44	0	301989888	61	3996
2026-01-25 09:44:27.00	155.03	18.66	-44.7	-45.9	20.9	0.00e+00	0	44	0	304087040	61	4020
2026-01-25 09:44:28.01	155.04	18.79	-44.7	-46.0	20.8	0.00e+00	0	44	0	306184192	61	4057
2026-01-25 09:44:29.01	155.05	18.91	-44.7	-45.9	20.8	0.00e+00	0	44	0	308281344	61	4028
2026-01-25 09:44:30.02	155.06	19.04	-44.8	-46.0	20.7	0.00e+00	0	44	0	309329920	61	4085
2026-01-25 09:44:31.03	155.07	19.17	-44.8	-46.1	20.7	0.00e+00	0	44	0	311427072	61	4101
2026-01-25 09:44:32.04	155.08	19.30	-44.8	-46.0	20.8	0.00e+00	0	44	0	313524224	61	4068
2026-01-25 09:44:33.05	155.08	19.42	-45.0	-46.2	20.5	0.00e+00	0	44	0	315621376	61	4187
2026-01-25 09:44:34.06	155.09	19.55	-45.0	-46.2	20.6	0.00e+00	0	44	0	317718528	61	4185
2026-01-25 09:44:35.06	155.10	19.68	-44.9	-46.1	20.7	0.00e+00	0	44	0	319815680	61	4138
2026-01-25 09:44:36.07	155.11	19.81	-44.9	-46.1	20.7	0.00e+00	0	44	0	320864256	61	4123
2026-01-25 09:44:37.08	155.12	19.95	-44.9	-46.1	20.7	0.00e+00	0	44	0	322961408	61	4130
2026-01-25 09:44:38.09	155.13	20.08	-44.8	-46.1	20.7	0.00e+00	0	44	0	325058560	61	4111
2026-01-25 09:44:39.10	155.14	20.21	-44.8	-46.0	20.7	0.00e+00	0	44	0	327155712	61	4096
2026-01-25 09:44:40.10	155.15	20.34	-44.8	-46.0	20.8	0.00e+00	0	44	0	329252864	61	4082
2026-01-25 09:44:41.11	155.16	20.48	-44.9	-46.2	20.6	0.00e+00	0	44	0	330301440	61	4148
2026-01-25 09:44:42.12	155.17	20.62	-44.7	-45.9	20.8	0.00e+00	0	44	0	332398592	61	4033
2026-01-25 09:44:43.13	155.18	20.75	-44.9	-46.1	20.6	0.00e+00	0	44	0	334495744	61	4128
2026-01-25 09:44:44.13	155.19	20.89	-45.0	-46.2	20.6	0.00e+00	0	44	0	336592896	61	4182
2026-01-25 09:44:45.14	155.20	21.02	-45.0	-46.2	20.6	0.00e+00	0	44	0	338690048	61	4187
2026-01-25 09:44:46.15	155.21	21.16	-45.0	-46.3	20.6	0.00e+00	0	43	0	339738624	61	4197
2026-01-25 09:44:47.16	155.22	21.30	-45.1	-46.3	20.5	0.00e+00	0	44	0	341835776	61	4235
2026-01-25 09:44:48.17	155.23	21.44	-45.1	-46.4	20.5	0.00e+00	0	44	0	343932928	61	4251
2026-01-25 09:44:49.18	155.24	21.58	-45.2	-46.5	20.4	0.00e+00	0	44	0	346030080	61	4316
2026-01-25 09:44:50.18	155.26	21.72	-45.2	-46.5	20.4	0.00e+00	0	44	0	348127232	61	4311
2026-01-25 09:44:51.19	155.27	21.86	-45.4	-46.7	20.1	0.00e+00	0	44	0	349175808	61	4433
2026-01-25 09:44:52.20	155.28	22.01	-45.4	-46.7	20.1	0.00e+00	0	43	0	351272960	61	4435
2026-01-25 09:44:53.21	155.29	22.15	-45.2	-46.5	20.4	0.00e+00	0	44	0	353370112	61	4338
2026-01-25 09:44:54.22	155.30	22.30	-45.5	-46.8	20.1	0.00e+00	0	44	0	355467264	61	4488
2026-01-25 09:44:55.23	155.31	22.44	-45.3	-46.7	20.2	0.00e+00	0	44	0	357564416	61	4400
2026-01-25 09:44:56.23	155.32	22.59	-45.4	-46.7	20.2	0.00e+00	0	44	0	358612992	61	4420
2026-01-25 09:44:57.24	155.33	22.73	-45.4	-46.8	20.1	0.00e+00	0	44	0	360710144	61	4466
2026-01-25 09:44:58.25	155.34	22.88	-45.3	-46.6	20.3	0.00e+00	0	44	0	362807296	61	4367
2026-01-25 09:44:59.25	155.35	23.03	-45.3	-46.6	20.3	0.00e+00	0	44	0	364904448	61	4357
2026-01-25 09:45:00.26	155.36	23.18	-45.3	-46.6	20.3	0.00e+00	0	44	0	367001600	61	4370
2026-01-25 09:45:01.27	155.37	23.33	-45.2	-46.5	20.5	0.00e+00	0	44	0	368050176	61	4298
2026-01-25 09:45:02.28	155.39	23.48	-45.3	-46.6	20.3	0.00e+00	0	44	0	370147328	61	4380
2026-01-25 09:45:03.29	155.40	23.63	-45.3	-46.6	20.3	0.00e+00	0	44	0	372244480	61	4361
2026-01-25 09:45:04.30	155.41	23.79	-45.3	-46.6	20.4	0.00e+00	0	44	0	374341632	61	4354
2026-01-25 09:45:05.30	155.42	23.94	-45.4	-46.7	20.2	0.00e+00	0	44	0	376438784	61	4411
2026-01-25 09:45:06.31	155.43	24.10	-45.4	-46.7	20.1	0.00e+00	0	44	0	377487360	61	4436
2026-01-25 09:45:07.32	155.44	24.25	-45.4	-46.7	20.3	0.00e+00	0	44	0	379584512	61	4406
2026-01-25 09:45:08.33	155.46	24.41	-45.5	-46.8	20.2	0.00e+00	0	44	0	381681664	61	4469
2026-01-25 09:45:09.34	155.47	24.57	-45.2	-46.5	20.5	0.00e+00	0	44	0	383778816	61	4300
2026-01-25 09:45:10.34	155.48	24.72	-45.4	-46.7	20.3	0.00e+00	0	44	0	385875968	61	4412
2026-01-25 09:45:11.35	155.49	24.88	-45.3	-46.5	20.4	0.00e+00	0	44	0	386924544	61	4330
2026-01-25 09:45:12.36	155.50	25.04	-45.2	-46.4	20.5	0.00e+00	0	44	0	389021696	61	4265
2026-01-25 09:45:13.37	155.52	25.21	-45.0	-46.3	20.7	0.00e+00	0	44	0	391118848	61	4205
2026-01-25 09:45:14.38	155.53	25.37	-45.1	-46.3	20.7	0.00e+00	0	44	0	393216000	61	4209
2026-01-25 09:45:15.38	155.54	25.53	-45.1	-46.3	20.6	0.00e+00	0	44	0	395313152	61	4214
2026-01-25 09:45:16.39	155.55	25.70	-45.2	-46.4	20.5	0.00e+00	0	44	0	396361728	61	4288
2026-01-25 09:45:17.40	155.56	25.86	-45.1	-46.3	20.7	0.00e+00	0	44	0	398458880	61	4198
2026-01-25 09:45:18.41	155.58	26.03	-45.3	-46.6	20.4	0.00e+00	0	43	0	400556032	61	4351
2026-01-25 09:45:19.42	155.59	26.20	-45.4	-46.6	20.3	0.00e+00	0	44	0	402653184	61	4390
2026-01-25 09:45:20.42	155.60	26.36	-45.3	-46.5	20.5	0.00e+00	0	44	0	404750336	61	4319
2026-01-25 09:45:21.43	155.62	26.53	-45.5	-46.8	20.2	0.00e+00	0	44	0	405798912	61	4469
2026-01-25 09:45:22.44	155.63	26.70	-45.6	-46.9	20.1	0.00e+00	0	44	0	407896064	62	4259
2026-01-25 09:45:23.45	155.64	26.88	-45.5	-46.8	20.2	0.00e+00	0	44	0	409993216	62	4201
2026-01-25 09:45:24.46	155.66	27.05	-45.6	-46.9	20.1	0.00e+00	0	44	0	412090368	62	4269
2026-01-25 09:45:25.46	155.67	27.22	-45.7	-47.0	20.0	0.00e+00	0	44	0	414187520	62	4327
2026-01-25 09:45:26.47	155.68	27.40	-45.4	-46.7	20.4	0.00e+00	0	44	0	415236096	62	4150
2026-01-25 09:45:27.48	155.70	27.58	-45.6	-46.8	20.3	0.00e+00	0	44	0	417333248	62	4236
2026-01-25 09:45:28.49	155.71	27.75	-45.3	-46.6	20.4	0.00e+00	0	44	0	419430400	62	4099
2026-01-25 09:45:29.50	155.72	27.93	-45.5	-46.8	20.3	0.00e+00	0	44	0	421527552	62	4199
2026-01-25 09:45:30.50	155.74	28.11	-45.9	-47.3	19.8	0.00e+00	0	44	0	423624704	62	4443
2026-01-25 09:45:31.51	155.75	28.29	-45.8	-47.1	20.0	0.00e+00	0	44	0	424673280	62	4383
2026-01-25 09:45:32.52	155.76	28.47	-46.3	-47.7	19.4	0.00e+00	0	44	0	426770432	63	4406
2026-01-25 09:45:33.53	155.78	28.66	-46.7	-48.3	18.9	0.00e+00	0	44	0	428867584	64	4443
2026-01-25 09:45:34.53	155.79	28.84	-46.7	-48.3	18.8	0.00e+00	0	44	0	430964736	64	4478
2026-01-25 09:45:35.54	155.81	29.03	-46.7	-48.3	18.8	0.00e+00	0	44	0	433061888	64	4468
2026-01-25 09:45:36.55	155.82	29.21	-47.1	-48.7	18.6	0.00e+00	0	44	0	435159040	65	4434
2026-01-25 09:45:37.56	155.84	29.40	-46.9	-48.6	18.5	0.00e+00	0	44	0	436207616	65	4358
2026-01-25 09:45:38.57	155.85	29.59	-47.1	-48.8	18.3	0.00e+00	0	44	0	438304768	65	4489
2026-01-25 09:45:39.57	155.87	29.78	-46.9	-48.5	18.6	0.00e+00	0	44	0	440401920	65	4337
2026-01-25 09:45:40.58	155.88	29.97	-46.8	-48.5	18.7	0.00e+00	0	44	0	442499072	65	4301
2026-01-25 09:45:41.59	155.90	30.17	-47.0	-48.7	18.4	0.00e+00	0	44	0	444596224	65	4416
2026-01-25 09:45:42.60	155.91	30.36	-47.1	-48.8	18.4	0.00e+00	0	44	0	445644800	65	4457
2026-01-25 09:45:43.61	155.93	30.56	-47.1	-48.8	18.4	0.00e+00	0	44	0	447741952	65	4445
2026-01-25 09:45:44.62	155.94	30.76	-47.1	-48.8	18.4	0.00e+00	0	44	0	449839104	65	4445
2026-01-25 09:45:45.62	155.96	30.95	-47.2	-49.0	18.2	0.00e+00	0	44	0	451936256	65	4559
2026-01-25 09:45:46.63	155.98	31.15	-47.3	-49.1	18.1	0.00e+00	0	44	0	452984832	65	4612
2026-01-25 09:45:47.64	155.99	31.36	-47.3	-49.1	18.1	0.00e+00	0	44	0	455081984	65	4603
2026-01-25 09:45:48.65	156.01	31.56	-47.1	-48.8	18.4	0.00e+00	0	44	0	457179136	65	4456
2026-01-25 09:45:49.66	156.02	31.76	-47.2	-49.0	18.3	0.00e+00	0	44	0	459276288	65	4557
2026-01-25 09:45:50.66	156.04	31.97	-47.1	-48.7	18.5	0.00e+00	0	44	0	461373440	65	4423
2026-01-25 09:45:51.67	156.06	32.18	-47.0	-48.6	18.6	0.00e+00	0	44	0	463470592	65	4373
2026-01-25 09:45:52.68	156.07	32.38	-46.9	-48.6	18.7	0.00e+00	0	44	0	464519168	64	4601
2026-01-25 09:45:53.69	156.09	32.59	-47.1	-48.7	18.5	0.00e+00	0	44	0	466616320	64	4685
2026-01-25 09:45:54.69	156.11	32.80	-46.6	-48.1	19.0	0.00e+00	0	44	0	468713472	65	4142
2026-01-25 09:45:55.70	156.13	33.02	-47.2	-48.9	18.3	0.00e+00	0	44	0	470810624	65	4524
2026-01-25 09:45:56.71	156.14	33.23	-47.6	-49.4	17.9	0.00e+00	0	44	0	472907776	65	4786
2026-01-25 09:45:57.72	156.16	33.45	-47.4	-49.2	18.1	0.00e+00	0	44	0	473956352	65	4655
2026-01-25 09:45:58.73	156.18	33.67	-47.2	-48.8	18.4	0.00e+00	0	44	0	476053504	65	4485
2026-01-25 09:45:59.74	156.20	33.89	-47.1	-48.8	18.4	0.00e+00	0	44	0	478150656	65	4461
2026-01-25 09:46:00.74	156.22	34.11	-46.8	-48.3	18.9	0.00e+00	0	44	0	480247808	65	4225
2026-01-25 09:46:01.75	156.23	34.33	-46.5	-48.0	19.1	0.00e+00	0	44	0	482344960	64	4322
2026-01-25 09:46:02.76	156.25	34.55	-46.0	-47.4	19.7	0.00e+00	0	44	0	483393536	64	4023
2026-01-25 09:46:03.77	156.27	34.78	-46.1	-47.5	19.7	0.00e+00	0	44	0	485490688	63	4322
2026-01-25 09:46:04.78	156.29	35.01	-45.9	-47.2	19.9	0.00e+00	0	44	0	487587840	63	4172
2026-01-25 09:46:05.78	156.31	35.23	-45.8	-47.1	20.0	0.00e+00	0	44	0	489684992	63	4137
2026-01-25 09:46:06.79	156.33	35.46	-45.4	-46.7	20.4	0.00e+00	0	44	0	491782144	62	4170
2026-01-25 09:46:07.80	156.35	35.70	-45.2	-46.4	20.7	0.00e+00	0	44	0	492830720	62	4039
2026-01-25 09:46:08.81	156.37	35.93	-45.0	-46.2	20.9	0.00e+00	0	44	0	494927872	61	4168
2026-01-25 09:46:09.82	156.39	36.17	-44.6	-45.7	21.3	0.00e+00	0	44	0	497025024	61	3929
2026-01-25 09:46:10.82	156.41	36.40	-44.4	-45.5	21.5	0.00e+00	0	44	0	499122176	60	4075
2026-01-25 09:46:11.83	156.43	36.64	-44.2	-45.3	21.7	0.00e+00	0	44	0	501219328	60	3983
2026-01-25 09:46:12.84	156.45	36.88	-44.2	-45.3	22.0	0.00e+00	0	44	0	502267904	59	4214
2026-01-25 09:46:13.85	156.48	37.12	-44.2	-45.3	22.0	0.00e+00	0	44	0	504365056	59	4215
2026-01-25 09:46:14.86	156.50	37.37	-44.3	-45.3	21.9	0.00e+00	0	44	0	506462208	59	4241
2026-01-25 09:46:15.86	156.52	37.61	-44.1	-45.2	22.1	0.00e+00	0	44	0	508559360	59	4161
2026-01-25 09:46:16.87	156.54	37.86	-44.2	-45.2	22.0	0.00e+00	0	44	0	510656512	59	4176
2026-01-25 09:46:17.88	156.56	38.11	-44.0	-45.1	22.2	0.00e+00	0	44	0	511705088	59	4107
2026-01-25 09:46:18.89	156.59	38.36	-44.0	-45.0	22.2	0.00e+00	0	44	0	513802240	59	4095
2026-01-25 09:46:19.90	156.61	38.62	-43.8	-44.7	22.4	0.00e+00	0	44	0	515899392	59	3958
2026-01-25 09:46:20.90	156.63	38.87	-43.8	-44.7	22.4	0.00e+00	0	44	0	517996544	59	3953
2026-01-25 09:46:21.91	156.66	39.13	-43.9	-44.9	22.2	0.00e+00	0	44	0	520093696	59	4048
2026-01-25 09:46:22.92	156.68	39.39	-44.1	-45.1	22.0	0.00e+00	0	44	0	521142272	59	4131
2026-01-25 09:46:23.93	156.70	39.65	-44.6	-45.7	21.6	0.00e+00	0	44	0	523239424	59	4430
2026-01-25 09:46:24.94	156.73	39.91	-44.6	-45.7	21.7	0.00e+00	0	44	0	525336576	59	4417
2026-01-25 09:46:25.94	156.75	40.18	-44.4	-45.6	21.5	0.00e+00	0	44	0	527433728	60	4104
2026-01-25 09:46:26.95	156.78	40.44	-44.5	-45.7	21.4	0.00e+00	0	44	0	529530880	60	4147
2026-01-25 09:46:27.96	156.80	40.71	-44.5	-45.7	21.4	0.00e+00	0	44	0	530579456	60	4154
2026-01-25 09:46:28.97	156.83	40.98	-44.6	-45.7	21.3	0.00e+00	0	44	0	532676608	60	4191
2026-01-25 09:46:29.98	156.86	41.26	-44.8	-46.0	21.1	0.00e+00	0	44	0	534773760	60	4331
2026-01-25 09:46:30.98	156.88	41.53	-45.1	-46.4	20.8	0.00e+00	0	44	0	536870912	60	4520
2026-01-25 09:46:31.99	156.91	41.81	-44.9	-46.1	21.1	0.00e+00	0	44	0	538968064	61	4141
2026-01-25 09:46:33.00	156.94	42.09	-45.3	-46.6	20.6	0.00e+00	0	44	0	540016640	61	4368
2026-01-25 09:46:34.01	156.97	42.37	-45.6	-46.9	20.4	0.00e+00	0	44	0	542113792	61	4508
2026-01-25 09:46:35.02	156.99	42.65	-45.5	-46.8	20.5	0.00e+00	0	44	0	544210944	61	4453
2026-01-25 09:46:36.02	157.02	42.94	-45.5	-46.8	20.5	0.00e+00	0	44	0	546308096	62	4225
2026-01-25 09:46:37.03	157.05	43.23	-45.5	-46.8	20.4	0.00e+00	0	44	0	548405248	62	4217
2026-01-25 09:46:38.04	157.08	43.52	-45.5	-46.8	20.5	0.00e+00	0	44	0	550502400	62	4207
2026-01-25 09:46:39.05	157.11	43.81	-45.2	-46.4	20.8	0.00e+00	0	44	0	551550976	62	4044
2026-01-25 09:46:40.05	157.14	44.10	-45.7	-47.0	20.4	0.00e+00	0	44	0	553648128	62	4297
2026-01-25 09:46:41.06	157.17	44.40	-45.4	-46.6	20.6	0.00e+00	0	44	0	555745280	62	4123
2026-01-25 09:46:42.07	157.21	44.70	-45.7	-47.0	20.2	0.00e+00	0	44	0	557842432	62	4320
2026-01-25 09:46:43.08	157.24	45.00	-46.3	-47.7	19.6	0.00e+00	0	44	0	558891008	63	4408
2026-01-25 09:46:44.09	157.27	45.30	-46.6	-48.1	19.2	0.00e+00	0	44	0	560988160	64	4357
2026-01-25 09:46:45.10	157.30	45.61	-47.0	-48.6	18.7	0.00e+00	0	44	0	563085312	64	4636
2026-01-25 09:46:46.10	157.34	45.92	-47.0	-48.7	18.7	0.00e+00	0	44	0	565182464	65	4413
2026-01-25 09:46:47.11	157.37	46.23	-46.9	-48.5	18.9	0.00e+00	0	44	0	567279616	65	4312
2026-01-25 09:46:48.12	157.41	46.54	-46.8	-48.3	19.0	0.00e+00	0	44	0	568328192	65	4229
2026-01-25 09:46:49.13	157.44	46.86	-47.1	-48.7	18.6	0.00e+00	0	44	0	570425344	65	4432
2026-01-25 09:46:50.14	157.48	47.18	-47.0	-48.6	18.8	0.00e+00	0	44	0	572522496	65	4357
2026-01-25 09:46:51.14	157.52	47.49	-47.5	-49.2	18.2	0.00e+00	0	44	0	574619648	65	4690
2026-01-25 09:46:52.15	157.56	47.82	-47.3	-49.0	18.4	0.00e+00	0	44	0	576716800	65	4550
2026-01-25 09:46:53.16	157.59	48.14	-47.2	-48.8	18.5	0.00e+00	0	44	0	578813952	65	4487
2026-01-25 09:46:54.17	157.63	48.47	-47.1	-48.7	18.6	0.00e+00	0	44	0	579862528	65	4399
2026-01-25 09:46:55.18	157.67	48.80	-47.0	-48.6	18.8	0.00e+00	0	44	0	581959680	65	4345
2026-01-25 09:46:56.18	157.71	49.13	-46.6	-48.0	19.1	0.00e+00	0	44	0	584056832	64	4335
2026-01-25 09:46:57.19	157.76	49.47	-46.8	-48.3	19.1	0.00e+00	0	44	0	586153984	64	4467
2026-01-25 09:46:58.20	157.80	49.80	-46.5	-48.0	19.2	0.00e+00	0	44	0	587202560	64	4302
2026-01-25 09:46:59.21	157.84	50.14	-46.2	-47.6	19.7	0.00e+00	0	44	0	589299712	64	4123
2026-01-25 09:47:00.22	157.89	50.49	-46.0	-47.4	20.0	0.00e+00	0	44	0	591396864	63	4258
2026-01-25 09:47:01.22	157.93	50.83	-45.8	-47.2	20.2	0.00e+00	0	44	0	593494016	63	4149
2026-01-25 09:47:02.23	157.98	51.18	-45.6	-46.9	20.4	0.00e+00	0	44	0	595591168	63	4019
2026-01-25 09:47:03.24	158.02	51.53	-44.7	-45.8	21.3	0.00e+00	0	44	0	597688320	61	3994
2026-01-25 09:47:04.25	158.07	51.88	-44.3	-45.3	21.8	0.00e+00	0	44	0	598736896	60	3998
2026-01-25 09:47:05.26	158.12	52.24	-44.4	-45.4	21.9	0.00e+00	0	44	0	600834048	59	4286
2026-01-25 09:47:06.27	158.17	52.59	-44.2	-45.2	21.9	0.00e+00	0	44	0	602931200	60	3958
2026-01-25 09:47:07.28	158.22	52.96	-44.7	-45.8	21.7	0.00e+00	0	44	0	605028352	59	4466
2026-01-25 09:47:08.29	158.28	53.32	-44.7	-45.8	21.3	0.00e+00	0	44	0	607125504	60	4233
2026-01-25 09:47:09.30	158.33	53.68	-44.9	-46.1	21.1	0.00e+00	0	44	0	608174080	60	4372
2026-01-25 09:47:10.30	158.38	54.05	-45.2	-46.4	20.9	0.00e+00	0	44	0	610271232	61	4260
2026-01-25 09:47:11.31	158.44	54.42	-45.4	-46.6	20.7	0.00e+00	0	44	0	612368384	61	4377
2026-01-25 09:47:12.32	158.50	54.80	-45.3	-46.5	20.8	0.00e+00	0	44	0	614465536	61	4321
2026-01-25 09:47:13.33	158.56	55.17	-45.0	-46.2	21.1	0.00e+00	0	44	0	615514112	61	4157
2026-01-25 09:47:14.34	158.62	55.55	-44.7	-45.8	21.3	0.00e+00	0	44	0	617611264	60	4224
2026-01-25 09:47:15.34	158.68	55.93	-44.3	-45.4	21.7	0.00e+00	0	44	0	619708416	60	4016
2026-01-25 09:47:16.35	158.75	56.31	-44.3	-45.3	22.1	0.00e+00	0	44	0	621805568	59	4226
2026-01-25 09:47:17.36	158.81	56.70	-44.0	-45.0	22.3	0.00e+00	0	44	0	623902720	59	4080
2026-01-25 09:47:18.37	158.88	57.09	-44.3	-45.3	22.1	0.00e+00	0	44	0	625999872	59	4226
2026-01-25 09:47:19.38	158.95	57.48	-44.6	-45.8	21.4	0.00e+00	0	44	0	627048448	60	4217
2026-01-25 09:47:20.38	159.02	57.88	-45.1	-46.4	20.8	0.00e+00	0	44	0	629145600	60	4498
2026-01-25 09:47:21.39	159.09	58.27	-45.0	-46.2	21.1	0.00e+00	0	44	0	631242752	61	4182
2026-01-25 09:47:22.40	159.17	58.67	-45.1	-46.3	20.9	0.00e+00	0	44	0	633339904	61	4242
2026-01-25 09:47:23.41	159.25	59.08	-45.1	-46.3	20.9	0.00e+00	0	44	0	635437056	61	4240
2026-01-25 09:47:24.42	159.33	59.48	-44.9	-46.0	21.3	0.00e+00	0	44	0	636485632	60	4334
2026-01-25 09:47:25.43	159.41	59.89	-44.8	-46.0	21.3	0.00e+00	0	44	0	638582784	60	4300
2026-01-25 09:47:26.44	159.49	60.30	-44.1	-45.2	22.2	0.00e+00	0	44	0	640679936	59	4160
2026-01-25 09:47:27.44	159.58	60.71	-43.8	-44.8	22.5	0.00e+00	0	44	0	642777088	59	3997
2026-01-25 09:47:28.45	159.67	61.13	-43.8	-44.8	22.5	0.00e+00	0	44	0	644874240	59	3982
2026-01-25 09:47:29.46	159.76	61.55	-44.0	-45.0	22.3	0.00e+00	0	44	0	645922816	59	4092
2026-01-25 09:47:30.47	159.86	61.97	-44.0	-45.0	22.2	0.00e+00	0	44	0	648019968	59	4097
2026-01-25 09:47:31.48	159.96	62.39	-43.1	-44.1	23.1	0.00e+00	0	44	0	650117120	58	3882
2026-01-25 09:47:32.49	160.06	62.82	-43.1	-44.0	23.1	0.00e+00	0	44	0	652214272	57	4095
2026-01-25 09:47:33.50	160.17	63.25	-43.4	-44.4	22.9	0.00e+00	0	44	0	654311424	57	4275
2026-01-25 09:47:34.51	160.28	63.68	-43.3	-44.3	22.9	0.00e+00	0	44	0	655360000	57	4215
2026-01-25 09:47:35.52	160.39	64.11	-43.5	-44.5	22.9	0.00e+00	0	44	0	657457152	57	4311
2026-01-25 09:47:36.52	160.51	64.55	-43.0	-43.9	23.2	0.00e+00	0	44	0	659554304	57	4039
2026-01-25 09:47:37.53	160.63	64.99	-43.3	-44.3	23.0	0.00e+00	0	44	0	661651456	57	4209
2026-01-25 09:47:38.54	160.76	65.43	-43.5	-44.5	22.8	0.00e+00	0	44	0	663748608	57	4313
2026-01-25 09:47:39.55	160.89	65.87	-43.5	-44.5	22.8	0.00e+00	0	44	0	665845760	58	4070
2026-01-25 09:47:40.56	161.03	66.32	-43.8	-44.8	22.6	0.00e+00	0	44	0	666894336	58	4216
2026-01-25 09:47:41.56	161.17	66.76	-43.9	-44.9	22.4	0.00e+00	0	44	0	668991488	58	4289
2026-01-25 09:47:42.57	161.32	67.21	-44.1	-45.2	22.2	0.00e+00	0	44	0	671088640	59	4154
2026-01-25 09:47:43.58	161.48	67.67	-44.5	-45.6	21.6	0.00e+00	0	44	0	673185792	60	4106
2026-01-25 09:47:44.59	161.64	68.12	-45.9	-47.2	20.3	0.00e+00	0	44	0	674234368	62	4401
2026-01-25 09:47:45.60	161.81	68.58	-47.9	-49.8	17.8	0.00e+00	0	44	0	676331520	66	4719
2026-01-25 09:47:46.61	161.99	69.04	-48.9	-51.2	16.4	0.00e+00	0	44	0	678428672	68	4939
2026-01-25 09:47:47.62	162.18	69.50	-48.4	-50.4	17.3	0.00e+00	0	44	0	680525824	68	4498
2026-01-25 09:47:48.62	162.37	69.96	-47.8	-49.6	17.9	0.00e+00	0	44	0	682622976	67	4348
2026-01-25 09:47:49.63	162.58	70.42	-47.7	-49.5	18.0	0.00e+00	0	44	0	683671552	66	4562
2026-01-25 09:47:50.64	162.80	70.89	-47.4	-49.0	18.4	0.00e+00	0	44	0	685768704	66	4337
2026-01-25 09:47:51.65	163.02	71.36	-47.3	-49.0	18.5	0.00e+00	0	44	0	687865856	66	4313
2026-01-25 09:47:52.66	163.26	71.83	-47.7	-49.4	17.9	0.00e+00	0	44	0	689963008	66	4525
2026-01-25 09:47:53.67	163.52	72.31	-46.8	-48.4	19.0	0.00e+00	0	44	0	692060160	65	4248
2026-01-25 09:47:54.68	163.79	72.78	-45.3	-46.4	20.8	0.00e+00	0	44	0	694157312	62	4051
2026-01-25 09:47:55.68	164.07	73.25	-44.4	-45.4	21.8	0.00e+00	0	44	0	695205888	60	4041
2026-01-25 09:47:56.69	164.37	73.73	-44.3	-45.3	22.1	0.00e+00	0	44	0	697303040	59	4211
2026-01-25 09:47:57.70	164.69	74.21	-44.6	-45.8	21.4	0.00e+00	0	44	0	699400192	60	4198
2026-01-25 09:47:58.71	165.03	74.69	-45.2	-46.4	21.0	0.00e+00	0	44	0	701497344	60	4499
2026-01-25 09:47:59.72	165.39	75.18	-45.8	-47.2	20.3	0.00e+00	0	44	0	702545920	62	4398
2026-01-25 09:48:00.72	165.77	75.65	-46.7	-48.2	19.2	0.00e+00	0	44	0	704643072	64	4428
2026-01-25 09:48:01.73	166.19	76.14	-47.2	-48.8	18.7	0.00e+00	0	44	0	706740224	65	4451
2026-01-25 09:48:02.74	166.64	76.62	-46.0	-47.4	20.1	0.00e+00	0	44	0	708837376	64	4005
2026-01-25 09:48:03.75	167.12	77.11	-45.3	-46.5	20.8	0.00e+00	0	44	0	710934528	62	4073
2026-01-25 09:48:04.76	167.64	77.60	-45.4	-46.6	20.8	0.00e+00	0	44	0	713031680	61	4384
2026-01-25 09:48:05.76	168.19	78.08	-46.9	-48.4	19.1	0.00e+00	0	44	0	714080256	64	4531
2026-01-25 09:48:06.77	168.80	78.57	-47.7	-49.5	18.0	0.00e+00	0	44	0	716177408	66	4581
2026-01-25 09:48:07.78	169.47	79.06	-47.6	-49.3	18.3	0.00e+00	0	44	0	718274560	66	4475
2026-01-25 09:48:08.79	170.20	79.54	-47.3	-48.9	18.7	0.00e+00	0	44	0	720371712	66	4291
2026-01-25 09:48:09.80	171.00	80.03	-46.2	-47.5	19.8	0.00e+00	0	44	0	722468864	64	4085
2026-01-25 09:48:10.81	171.89	80.52	-46.3	-47.6	19.8	0.00e+00	0	44	0	723517440	63	4387
2026-01-25 09:48:11.82	172.87	81.00	-47.0	-48.6	18.9	0.00e+00	0	44	0	725614592	64	4643
2026-01-25 09:48:12.82	173.95	81.48	-48.0	-49.9	17.7	0.00e+00	0	44	0	727711744	66	4764
2026-01-25 09:48:13.83	175.17	81.96	-49.4	-51.8	15.7	0.00e+00	0	44	0	729808896	69	5034
2026-01-25 09:48:14.84	176.56	82.43	-49.7	-52.5	15.1	0.00e+00	0	44	0	731906048	70	5151
2026-01-25 09:48:15.85	178.12	82.91	-49.4	-51.9	15.8	0.00e+00	0	44	0	732954624	70	4812
2026-01-25 09:48:16.86	179.91	83.38	-47.3	-48.9	18.6	0.00e+00	0	44	0	735051776	66	4262
2026-01-25 09:48:17.86	181.96	83.83	-46.3	-47.7	19.8	0.00e+00	0	44	0	737148928	63	4422
2026-01-25 09:48:18.87	184.35	84.29	-46.4	-47.8	19.5	0.00e+00	0	44	0	739246080	63	4489
2026-01-25 09:48:19.88	187.15	84.73	-45.7	-46.9	20.4	0.00e+00	0	44	0	741343232	63	4048
2026-01-25 09:48:20.89	190.45	85.15	-45.2	-46.3	21.0	0.00e+00	0	44	0	742391808	62	3978
2026-01-25 09:48:21.90	194.38	85.56	-46.0	-47.3	20.1	0.00e+00	0	44	0	744488960	62	4487
2026-01-25 09:48:22.90	199.03	85.94	-46.9	-48.4	19.0	0.00e+00	0	44	0	746586112	64	4537
2026-01-25 09:48:23.91	204.66	86.30	-46.6	-48.0	19.5	0.00e+00	0	44	0	748683264	65	4091
2026-01-25 09:48:24.92	211.40	86.61	-48.2	-50.2	17.4	0.00e+00	0	44	0	750780416	67	4652
2026-01-25 09:48:25.93	219.35	86.86	-47.9	-49.6	18.1	0.00e+00	0	44	0	751828992	67	4391
2026-01-25 09:48:26.93	228.40	87.04	-47.7	-49.4	18.0	0.00e+00	0	44	0	753926144	66	4538
2026-01-25 09:48:27.94	238.46	87.14	-48.2	-50.1	17.4	0.00e+00	0	44	0	756023296	67	4619
2026-01-25 09:48:28.95	248.91	87.15	-47.4	-49.1	18.4	0.00e+00	0	44	0	758120448	66	4343
2026-01-25 09:48:29.96	259.09	87.07	-46.7	-48.2	19.1	0.00e+00	0	44	0	760217600	65	4186
2026-01-25 09:48:30.97	268.42	86.90	-44.9	-46.0	21.3	0.00e+00	0	44	0	761266176	61	4068
2026-01-25 09:48:31.97	276.52	86.66	-45.0	-46.1	21.2	0.00e+00	0	44	0	763363328	61	4140
2026-01-25 09:48:32.98	283.48	86.36	-47.1	-48.8	18.8	0.00e+00	0	44	0	765460480	64	4713
2026-01-25 09:48:33.99	289.31	86.01	-47.1	-48.6	18.9	0.00e+00	0	44	0	767557632	66	4125
2026-01-25 09:48:35.00	294.16	85.63	-46.0	-47.2	20.3	0.00e+00	0	44	0	769654784	63	4189
2026-01-25 09:48:36.00	298.18	85.23	-46.5	-48.0	19.6	0.00e+00	0	44	0	770703360	63	4550
2026-01-25 09:48:37.01	301.59	84.81	-45.7	-47.0	20.5	0.00e+00	0	44	0	772800512	62	4318
2026-01-25 09:48:38.02	304.48	84.37	-45.2	-46.4	21.0	0.00e+00	0	44	0	774897664	62	4040
2026-01-25 09:48:39.03	306.94	83.92	-45.3	-46.6	20.8	0.00e+00	0	44	0	776994816	62	4114
2026-01-25 09:48:40.04	309.06	83.46	-45.5	-46.8	20.8	0.00e+00	0	44	0	779091968	62	4207
2026-01-25 09:48:41.04	310.87	83.00	-45.4	-46.6	20.8	0.00e+00	0	44	0	780140544	61	4362
2026-01-25 09:48:42.05	312.48	82.53	-46.1	-47.4	20.1	0.00e+00	0	44	0	782237696	62	4523
2026-01-25 09:48:43.06	313.89	82.05	-47.0	-48.6	18.9	0.00e+00	0	44	0	784334848	64	4620
2026-01-25 09:48:44.07	315.15	81.57	-48.0	-49.8	17.8	0.00e+00	0	44	0	786432000	66	4751
2026-01-25 09:48:45.08	316.26	81.09	-46.9	-48.4	19.0	0.00e+00	0	44	0	788529152	65	4248
2026-01-25 09:48:46.08	317.25	80.61	-45.6	-46.8	20.5	0.00e+00	0	44	0	789577728	63	3979
2026-01-25 09:48:47.09	318.16	80.12	-45.6	-46.8	20.8	0.00e+00	0	44	0	791674880	62	4204
2026-01-25 09:48:48.10	318.97	79.64	-45.1	-46.3	21.2	0.00e+00	0	44	0	793772032	62	3961
2026-01-25 09:48:49.11	319.71	79.15	-46.0	-47.3	20.4	0.00e+00	0	44	0	795869184	62	4464
2026-01-25 09:48:50.12	320.39	78.66	-48.0	-49.9	17.8	0.00e+00	0	44	0	797966336	66	4809
2026-01-25 09:48:51.12	321.01	78.18	-47.4	-49.0	18.5	0.00e+00	0	44	0	799014912	66	4334
2026-01-25 09:48:52.13	321.58	77.70	-47.2	-48.8	18.7	0.00e+00	0	44	0	801112064	66	4213
2026-01-25 09:48:53.14	322.11	77.21	-48.2	-50.0	17.9	0.00e+00	0	44	0	803209216	67	4591
2026-01-25 09:48:54.14	322.59	76.73	-47.2	-48.7	19.0	0.00e+00	0	44	0	805306368	66	4188
2026-01-25 09:48:55.15	323.04	76.24	-46.1	-47.3	20.3	0.00e+00	0	44	0	807403520	63	4228
2026-01-25 09:48:56.16	323.46	75.76	-46.3	-47.7	20.0	0.00e+00	0	44	0	808452096	63	4415
2026-01-25 09:48:57.17	323.86	75.28	-46.6	-48.0	19.6	0.00e+00	0	44	0	810549248	64	4328
2026-01-25 09:48:58.18	324.22	74.79	-47.3	-48.8	18.6	0.00e+00	0	44	0	812646400	65	4485
2026-01-25 09:48:59.18	324.56	74.32	-48.0	-49.8	18.0	0.00e+00	0	44	0	814743552	66	4708
2026-01-25 09:49:00.19	324.89	73.84	-46.6	-48.0	19.7	0.00e+00	0	44	0	816840704	65	4056
2026-01-25 09:49:01.20	325.19	73.36	-46.4	-47.7	19.8	0.00e+00	0	44	0	817889280	64	4189
2026-01-25 09:49:02.21	325.48	72.88	-47.8	-49.5	18.3	0.00e+00	0	44	0	819986432	66	4596
2026-01-25 09:49:03.22	325.75	72.41	-49.0	-51.2	16.7	0.00e+00	0	44	0	822083584	69	4684
2026-01-25 09:49:04.22	326.00	71.94	-48.7	-50.8	17.1	0.00e+00	0	44	0	824180736	69	4451
2026-01-25 09:49:05.23	326.25	71.47	-48.7	-50.7	17.0	0.00e+00	0	44	0	826277888	68	4688
2026-01-25 09:49:06.24	326.48	71.00	-49.9	-52.6	15.6	0.00e+00	0	44	0	828375040	70	5183
2026-01-25 09:49:07.25	326.69	70.53	-50.0	-52.6	15.3	7.00e-07	0	44	0	829423616	71	4908
2026-01-25 09:49:08.26	326.90	70.07	-49.3	-51.5	16.4	0.00e+00	0	44	0	831520768	70	4580
2026-01-25 09:49:09.26	327.10	69.61	-48.6	-50.6	17.2	0.00e+00	0	44	0	833617920	69	4344
2026-01-25 09:49:10.27	327.29	69.15	-46.2	-47.5	19.9	0.00e+00	0	44	0	835715072	64	4088
2026-01-25 09:49:11.28	327.47	68.69	-46.6	-48.0	19.8	0.00e+00	0	44	0	836763648	63	4553
2026-01-25 09:49:12.29	327.64	68.23	-47.2	-48.7	18.9	0.00e+00	0	44	0	838860800	65	4426
2026-01-25 09:49:13.30	327.80	67.78	-46.6	-48.0	19.5	0.00e+00	0	44	0	840957952	65	4081
2026-01-25 09:49:14.30	327.96	67.33	-46.8	-48.2	19.2	0.00e+00	0	44	0	843055104	65	4174
2026-01-25 09:49:15.31	328.11	66.88	-47.9	-49.8	18.0	0.00e+00	0	44	0	845152256	66	4710
2026-01-25 09:49:16.32	328.26	66.43	-47.3	-48.9	18.6	0.00e+00	0	44	0	846200832	66	4288
2026-01-25 09:49:17.33	328.40	65.98	-46.1	-47.4	20.2	0.00e+00	0	44	0	848297984	63	4260
2026-01-25 09:49:18.33	328.53	65.54	-46.4	-47.9	19.8	0.00e+00	0	44	0	850395136	63	4504
2026-01-25 09:49:19.34	328.66	65.10	-45.3	-46.5	21.0	0.00e+00	0	44	0	852492288	62	4077
2026-01-25 09:49:20.35	328.78	64.67	-44.1	-45.2	22.4	0.00e+00	0	44	0	854589440	59	4155
2026-01-25 09:49:21.36	328.90	64.23	-44.2	-45.3	22.3	0.00e+00	0	44	0	856686592	59	4204
2026-01-25 09:49:22.37	329.02	63.80	-45.2	-46.5	21.1	0.00e+00	0	44	0	857735168	61	4292
2026-01-25 09:49:23.38	329.13	63.36	-45.9	-47.3	20.2	0.00e+00	0	44	0	859832320	63	4202
2026-01-25 09:49:24.38	329.24	62.94	-44.3	-45.4	21.9	0.00e+00	0	44	0	861929472	60	4032
2026-01-25 09:49:25.39	329.34	62.51	-44.2	-45.2	22.4	0.00e+00	0	44	0	864026624	59	4169
2026-01-25 09:49:26.40	329.44	62.09	-43.9	-44.9	22.6	0.00e+00	0	44	0	865075200	59	4007
2026-01-25 09:49:27.41	329.54	61.67	-44.4	-45.4	22.2	0.00e+00	0	44	0	867172352	59	4260
2026-01-25 09:49:28.41	329.63	61.25	-45.1	-46.3	21.2	0.00e+00	0	44	0	869269504	60	4454
2026-01-25 09:49:29.42	329.72	60.84	-47.4	-49.1	18.6	0.00e+00	0	44	0	871366656	65	4615
2026-01-25 09:49:30.43	329.81	60.43	-48.8	-51.0	16.8	0.00e+00	0	44	0	873463808	68	4828
2026-01-25 09:49:31.44	329.89	60.01	-47.0	-48.6	18.9	0.00e+00	0	44	0	875560960	66	4101
2026-01-25 09:49:32.44	329.98	59.61	-45.4	-46.6	20.8	0.00e+00	0	44	0	876609536	62	4117
2026-01-25 09:49:33.45	330.06	59.20	-45.6	-46.9	20.7	0.00e+00	0	44	0	878706688	62	4250
2026-01-25 09:49:34.46	330.14	58.80	-45.9	-47.1	20.4	0.00e+00	0	44	0	880803840	62	4387
2026-01-25 09:49:35.47	330.21	58.40	-45.7	-47.0	20.5	0.00e+00	0	44	0	882900992	62	4296
2026-01-25 09:49:36.48	330.29	58.00	-45.4	-46.6	20.9	0.00e+00	0	44	0	884998144	61	4371
2026-01-25 09:49:37.48	330.36	57.61	-46.8	-48.4	19.2	0.00e+00	0	44	0	886046720	64	4503
2026-01-25 09:49:38.49	330.43	57.22	-46.0	-47.3	20.2	0.00e+00	0	44	0	888143872	63	4234
2026-01-25 09:49:39.50	330.49	56.83	-44.3	-45.4	21.9	0.00e+00	0	44	0	890241024	60	4017
2026-01-25 09:49:40.51	330.56	56.44	-44.7	-45.8	21.9	0.00e+00	0	44	0	892338176	59	4463
2026-01-25 09:49:41.51	330.62	56.06	-46.0	-47.3	20.3	0.00e+00	0	44	0	893386752	62	4480
2026-01-25 09:49:42.52	330.69	55.68	-46.8	-48.3	19.2	0.00e+00	0	44	0	895483904	64	4476
2026-01-25 09:49:43.53	330.75	55.30	-44.9	-46.0	21.3	0.00e+00	0	44	0	897581056	61	4068
2026-01-25 09:49:44.54	330.81	54.93	-44.1	-45.1	22.1	0.00e+00	0	44	0	899678208	60	3908
2026-01-25 09:49:45.55	330.87	54.55	-45.4	-46.6	20.9	0.00e+00	0	44	0	901775360	61	4389
2026-01-25 09:49:46.56	330.92	54.18	-46.6	-48.0	19.6	0.00e+00	0	44	0	903872512	63	4578
2026-01-25 09:49:47.57	330.98	53.81	-46.1	-47.4	20.1	0.00e+00	0	44	0	904921088	63	4270
2026-01-25 09:49:48.58	331.03	53.45	-45.5	-46.7	20.8	0.00e+00	0	44	0	907018240	62	4160
2026-01-25 09:49:49.58	331.09	53.09	-45.3	-46.4	21.1	0.00e+00	0	44	0	909115392	61	4280
2026-01-25 09:49:50.59	331.14	52.73	-46.0	-47.3	20.2	0.00e+00	0	44	0	911212544	62	4476
2026-01-25 09:49:51.60	331.19	52.37	-46.7	-48.1	19.1	0.00e+00	0	44	0	913309696	64	4363
2026-01-25 09:49:52.61	331.24	52.02	-47.1	-48.6	18.9	0.00e+00	0	44	0	914358272	66	4125
2026-01-25 09:49:53.62	331.29	51.66	-47.8	-49.6	17.9	0.00e+00	0	44	0	916455424	66	4642
2026-01-25 09:49:54.62	331.34	51.32	-48.0	-49.9	17.7	0.00e+00	0	44	0	918552576	66	4806
2026-01-25 09:49:55.63	331.38	50.97	-47.5	-49.2	18.4	0.00e+00	0	44	0	920649728	67	4168
2026-01-25 09:49:56.64	331.43	50.62	-47.2	-48.7	18.8	0.00e+00	0	44	0	922746880	66	4187
2026-01-25 09:49:57.65	331.47	50.28	-46.1	-47.4	20.0	0.00e+00	0	44	0	923795456	64	4044
2026-01-25 09:49:58.66	331.52	49.94	-46.3	-47.7	19.8	0.00e+00	0	44	0	925892608	64	4149
2026-01-25 09:49:59.67	331.56	49.60	-46.6	-48.0	19.5	0.00e+00	0	44	0	927989760	64	4317
2026-01-25 09:50:00.68	331.60	49.27	-47.0	-48.6	19.0	0.00e+00	0	44	0	930086912	64	4613
2026-01-25 09:50:01.68	331.64	48.94	-47.4	-49.0	18.4	0.00e+00	0	44	0	932184064	65	4571
2026-01-25 09:50:02.69	331.68	48.61	-49.5	-52.0	15.8	0.00e+00	0	44	0	933232640	69	5143
2026-01-25 09:50:03.70	331.72	48.28	-50.4	-53.5	14.2	0.00e+00	0	44	0	935329792	71	5447
2026-01-25 09:50:04.71	331.76	47.96	-49.4	-52.0	15.7	0.00e+00	0	44	0	937426944	70	4838
2026-01-25 09:50:05.72	331.80	47.63	-47.4	-49.1	18.3	0.00e+00	0	44	0	939524096	67	4130
2026-01-25 09:50:06.73	331.84	47.31	-45.7	-46.9	20.5	0.00e+00	0	44	0	941621248	63	4026
2026-01-25 09:50:07.74	331.87	46.99	-44.1	-45.1	22.0	0.00e+00	0	44	0	943718400	60	3905
2026-01-25 09:50:08.74	331.91	46.68	-44.6	-45.7	21.5	0.00e+00	0	44	0	944766976	60	4192
2026-01-25 09:50:09.75	331.94	46.37	-45.4	-46.7	20.7	0.00e+00	0	44	0	946864128	61	4403
2026-01-25 09:50:10.76	331.98	46.06	-46.0	-47.4	20.1	0.00e+00	0	44	0	948961280	62	4511
2026-01-25 09:50:11.77	332.01	45.75	-46.3	-47.8	19.8	0.00e+00	0	44	0	951058432	63	4453
2026-01-25 09:50:12.78	332.05	45.44	-46.6	-48.1	19.4	0.00e+00	0	44	0	952107008	64	4360
2026-01-25 09:50:13.78	332.08	45.14	-47.1	-48.8	18.8	0.00e+00	0	44	0	954204160	64	4711
2026-01-25 09:50:14.79	332.11	44.84	-46.1	-47.6	20.0	0.00e+00	0	44	0	956301312	63	4358
2026-01-25 09:50:15.80	332.15	44.54	-46.0	-47.5	20.0	0.00e+00	0	44	0	958398464	63	4292
2026-01-25 09:50:16.81	332.18	44.25	-45.3	-46.6	20.8	0.00e+00	0	44	0	960495616	62	4099
2026-01-25 09:50:17.82	332.21	43.95	-45.0	-46.2	21.2	0.00e+00	0	44	0	961544192	62	3926
2026-01-25 09:50:18.83	332.24	43.66	-44.1	-45.1	22.0	0.00e+00	0	44	0	963641344	60	3899
2026-01-25 09:50:19.83	332.27	43.37	-44.3	-45.3	22.1	0.00e+00	0	44	0	965738496	59	4239
2026-01-25 09:50:20.84	332.30	43.08	-44.2	-45.2	22.2	0.00e+00	0	44	0	967835648	59	4159
2026-01-25 09:50:21.85	332.33	42.80	-44.8	-45.9	21.4	0.00e+00	0	44	0	969932800	60	4243
2026-01-25 09:50:22.86	332.36	42.51	-45.8	-47.1	20.3	0.00e+00	0	44	0	972029952	62	4357
2026-01-25 09:50:23.87	332.38	42.23	-47.4	-49.1	18.5	0.00e+00	0	44	0	973078528	65	4610
2026-01-25 09:50:24.88	332.41	41.95	-47.7	-49.6	18.0	0.00e+00	0	44	0	975175680	66	4626
2026-01-25 09:50:25.88	332.44	41.68	-47.8	-49.7	17.8	0.00e+00	0	44	0	977272832	66	4700
2026-01-25 09:50:26.89	332.47	41.40	-47.3	-49.0	18.5	0.00e+00	0	44	0	979369984	66	4318
2026-01-25 09:50:27.90	332.49	41.13	-46.0	-47.3	20.0	0.00e+00	0	44	0	980418560	63	4241
2026-01-25 09:50:28.91	332.52	40.86	-45.9	-47.2	20.3	0.00e+00	0	44	0	982515712	63	4156
2026-01-25 09:50:29.92	332.55	40.59	-46.0	-47.3	20.1	0.00e+00	0	44	0	984612864	63	4223
2026-01-25 09:50:30.93	332.57	40.32	-46.4	-47.8	19.7	0.00e+00	0	44	0	986710016	63	4486
2026-01-25 09:50:31.94	332.60	40.06	-46.3	-47.6	19.8	0.00e+00	0	44	0	988807168	63	4387
2026-01-25 09:50:32.95	332.62	39.79	-46.6	-48.0	19.6	0.00e+00	0	44	0	990904320	63	4562
2026-01-25 09:50:33.96	332.65	39.53	-46.5	-48.0	19.3	0.00e+00	0	44	0	991952896	64	4300
2026-01-25 09:50:34.96	332.67	39.27	-47.2	-48.9	18.6	0.00e+00	0	44	0	994050048	65	4509
2026-01-25 09:50:35.97	332.69	39.02	-48.0	-50.0	17.5	0.00e+00	0	44	0	996147200	66	4830
2026-01-25 09:50:36.98	332.72	38.76	-49.3	-51.9	15.8	0.00e+00	0	44	0	998244352	69	5091
2026-01-25 09:50:37.99	332.74	38.51	-49.8	-52.7	14.8	0.00e+00	0	44	0	1000341504	70	5265
2026-01-25 09:50:39.00	332.76	38.26	-50.1	-53.3	14.5	7.00e-07	0	44	0	1001390080	71	5295
2026-01-25 09:50:40.01	332.79	38.01	-50.5	-53.9	13.5	4.42e-05	0	44	0	1003487232	72	5398
2026-01-25 09:50:41.02	332.81	37.76	-49.4	-52.0	15.4	0.00e+00	0	44	0	1005584384	70	4861
2026-01-25 09:50:42.02	332.83	37.51	-48.7	-51.0	16.6	0.00e+00	0	44	0	1007681536	68	4829
2026-01-25 09:50:43.03	332.85	37.27	-48.2	-50.2	17.2	0.00e+00	0	44	0	1008730112	67	4682
2026-01-25 09:50:44.04	332.87	37.03	-48.1	-50.1	17.2	0.00e+00	0	44	0	1010827264	67	4631
2026-01-25 09:50:45.05	332.90	36.79	-47.8	-49.7	17.7	0.00e+00	0	44	0	1012924416	67	4410
2026-01-25 09:50:46.06	332.92	36.55	-48.5	-50.6	17.0	0.00e+00	0	44	0	1015021568	68	4604
2026-01-25 09:50:47.07	332.94	36.31	-48.4	-50.3	17.2	0.00e+00	0	44	0	1017118720	68	4485
2026-01-25 09:50:48.08	332.96	36.07	-48.1	-50.0	17.5	0.00e+00	0	44	0	1019215872	66	4837
2026-01-25 09:50:49.08	332.98	35.84	-48.0	-49.9	17.6	0.00e+00	0	44	0	1020264448	67	4534
2026-01-25 09:50:50.09	333.00	35.61	-48.1	-50.0	17.5	0.00e+00	0	44	0	1022361600	67	4549
2026-01-25 09:50:51.10	333.02	35.38	-48.2	-50.1	17.4	0.00e+00	0	44	0	1024458752	67	4651
2026-01-25 09:50:52.11	333.04	35.15	-48.7	-50.9	16.6	0.00e+00	0	44	0	1026555904	67	5069
2026-01-25 09:50:53.12	333.06	34.92	-49.1	-51.5	16.1	0.00e+00	0	44	0	1028653056	68	5131
2026-01-25 09:50:54.13	333.08	34.70	-49.9	-52.8	14.8	0.00e+00	0	44	0	1029701632	70	5287
2026-01-25 09:50:55.14	333.10	34.47	-50.5	-54.0	13.7	7.00e-07	0	44	0	1031798784	71	5745
2026-01-25 09:50:56.15	333.12	34.25	-50.7	-54.4	13.1	4.27e-05	0	44	0	1033895936	72	5709
2026-01-25 09:50:57.16	333.13	34.03	-50.5	-54.0	13.4	1.29e-05	0	44	0	1035993088	72	5419
2026-01-25 09:50:58.16	333.15	33.81	-50.3	-53.6	13.9	8.30e-06	0	44	0	1038090240	72	5201
2026-01-25 09:50:59.17	333.17	33.60	-50.1	-53.2	14.1	1.50e-06	0	44	0	1039138816	72	4969
2026-01-25 09:51:00.18	333.19	33.38	-50.1	-53.1	14.4	0.00e+00	0	44	0	1041235968	71	5187
2026-01-25 09:51:01.19	333.21	33.17	-50.0	-52.9	14.6	7.00e-07	0	44	0	1043333120	71	5056
2026-01-25 09:51:02.19	333.23	32.96	-49.8	-52.5	15.1	0.00e+00	0	44	0	1045430272	71	4831
2026-01-25 09:51:03.20	333.24	32.74	-49.7	-52.3	15.2	1.50e-06	0	44	0	1047527424	71	4715
2026-01-25 09:51:04.21	333.26	32.53	-49.0	-51.3	16.2	0.00e+00	0	44	0	1048576000	69	4720
2026-01-25 09:51:05.22	333.28	32.33	-48.3	-50.3	17.1	0.00e+00	0	44	0	1050673152	68	4453
2026-01-25 09:51:06.23	333.29	32.12	-47.3	-48.9	18.3	0.00e+00	0	44	0	1052770304	66	4275
2026-01-25 09:51:07.24	333.31	31.91	-46.9	-48.5	18.8	0.00e+00	0	44	0	1054867456	65	4299
2026-01-25 09:51:08.25	333.33	31.71	-46.5	-47.9	19.2	0.00e+00	0	44	0	1056964608	64	4291
2026-01-25 09:51:09.26	333.35	31.51	-46.2	-47.6	19.7	0.00e+00	0	44	0	1058013184	64	4102
2026-01-25 09:51:10.26	333.36	31.31	-46.1	-47.5	19.7	0.00e+00	0	44	0	1060110336	64	4070
2026-01-25 09:51:11.27	333.38	31.11	-46.3	-47.7	19.6	0.00e+00	0	44	0	1062207488	64	4157
2026-01-25 09:51:12.28	333.39	30.91	-46.8	-48.3	19.0	0.00e+00	0	44	0	1064304640	64	4482
2026-01-25 09:51:13.29	333.41	30.71	-46.9	-48.5	18.7	0.00e+00	0	44	0	1066401792	64	4594
2026-01-25 09:51:14.29	333.43	30.52	-47.8	-49.7	17.7	0.00e+00	0	44	0	1067450368	66	4681
2026-01-25 09:51:15.30	333.44	30.32	-48.6	-50.8	16.7	0.00e+00	0	44	0	1069547520	67	5007
2026-01-25 09:51:16.31	333.46	30.13	-49.1	-51.6	15.9	0.00e+00	0	43	0	1071644672	68	5215
2026-01-25 09:51:17.32	333.47	29.93	-49.7	-52.6	14.9	0.00e+00	0	44	0	1073741824	70	5181
2026-01-25 09:51:18.33	333.49	29.74	-50.0	-53.0	14.6	7.00e-07	0	44	0	1075838976	70	5414
2026-01-25 09:51:19.34	333.50	29.55	-50.0	-53.1	14.4	7.00e-07	0	44	0	1077936128	70	5470
2026-01-25 09:51:20.35	333.52	29.37	-49.7	-52.6	14.8	7.00e-07	0	44	0	1078984704	70	5186
2026-01-25 09:51:21.36	333.53	29.18	-49.2	-51.7	15.7	7.00e-07	0	44	0	1081081856	70	4668
2026-01-25 09:51:22.37	333.55	28.99	-48.4	-50.5	16.8	0.00e+00	0	44	0	1083179008	68	4581
2026-01-25 09:51:23.37	333.56	28.81	-48.2	-50.2	17.2	0.00e+00	0	44	0	1085276160	68	4435
2026-01-25 09:51:24.38	333.58	28.63	-47.7	-49.6	17.8	0.00e+00	0	44	0	1086324736	67	4351
2026-01-25 09:51:25.39	333.59	28.44	-47.2	-48.9	18.4	0.00e+00	0	44	0	1088421888	66	4270
2026-01-25 09:51:26.40	333.61	28.26	-46.9	-48.5	18.7	0.00e+00	0	44	0	1090519040	65	4309
2026-01-25 09:51:27.41	333.62	28.08	-46.7	-48.2	19.0	0.00e+00	0	44	0	1092616192	65	4161
2026-01-25 09:51:28.42	333.63	27.90	-46.1	-47.5	19.6	0.00e+00	0	44	0	1094713344	64	4079
2026-01-25 09:51:29.43	333.65	27.73	-46.1	-47.5	19.7	0.00e+00	0	44	0	1095761920	64	4071
2026-01-25 09:51:30.44	333.66	27.55	-45.9	-47.2	20.0	0.00e+00	0	44	0	1097859072	63	4159
2026-01-25 09:51:31.44	333.68	27.38	-45.6	-46.9	20.3	0.00e+00	0	44	0	1099956224	62	4267
2026-01-25 09:51:32.45	333.69	27.20	-45.5	-46.7	20.4	0.00e+00	0	44	0	1102053376	62	4189
2026-01-25 09:51:33.46	333.70	27.03	-45.5	-46.7	20.3	0.00e+00	0	44	0	1104150528	62	4193
2026-01-25 09:51:34.47	333.72	26.86	-45.6	-46.8	20.3	0.00e+00	0	44	0	1106247680	62	4236
2026-01-25 09:51:35.48	333.73	26.69	-45.5	-46.8	20.4	0.00e+00	0	44	0	1107296256	62	4218
2026-01-25 09:51:36.49	333.74	26.52	-45.3	-46.5	20.6	0.00e+00	0	44	0	1109393408	62	4076
2026-01-25 09:51:37.50	333.76	26.35	-45.3	-46.6	20.4	0.00e+00	0	44	0	1111490560	62	4128
2026-01-25 09:51:38.50	333.77	26.18	-45.2	-46.4	20.6	0.00e+00	0	44	0	1113587712	61	4276
2026-01-25 09:51:39.51	333.78	26.02	-45.0	-46.2	20.8	0.00e+00	0	44	0	1114636288	61	4176
2026-01-25 09:51:40.52	333.80	25.85	-44.6	-45.8	21.2	0.00e+00	0	44	0	1116733440	61	3968
2026-01-25 09:51:41.52	333.81	25.69	-44.4	-45.6	21.4	0.00e+00	0	44	0	1118830592	60	4106
2026-01-25 09:51:42.53	333.82	25.52	-44.4	-45.6	21.4	0.00e+00	0	44	0	1120927744	60	4123
2026-01-25 09:51:43.54	333.83	25.36	-44.4	-45.6	21.2	0.00e+00	0	43	0	1123024896	60	4117
2026-01-25 09:51:44.55	333.85	25.20	-44.5	-45.7	21.2	0.00e+00	0	44	0	1125122048	60	4175
2026-01-25 09:51:45.56	333.86	25.04	-44.7	-45.9	21.1	0.00e+00	0	44	0	1126170624	60	4261
2026-01-25 09:51:46.57	333.87	24.88	-44.9	-46.1	20.9	0.00e+00	0	44	0	1128267776	60	4352
2026-01-25 09:51:47.58	333.88	24.72	-45.0	-46.2	20.7	0.00e+00	0	44	0	1130364928	60	4435
2026-01-25 09:51:48.58	333.90	24.56	-45.1	-46.4	20.6	0.00e+00	0	44	0	1132462080	60	4501
2026-01-25 09:51:49.59	333.91	24.41	-45.3	-46.6	20.5	0.00e+00	0	44	0	1134559232	61	4344
2026-01-25 09:51:50.60	333.92	24.25	-45.3	-46.6	20.5	0.00e+00	0	44	0	1135607808	61	4364
2026-01-25 09:51:51.61	333.93	24.10	-45.1	-46.4	20.5	0.00e+00	0	44	0	1137704960	61	4260
2026-01-25 09:51:52.61	333.94	23.94	-45.1	-46.3	20.7	0.00e+00	0	44	0	1139802112	61	4236
2026-01-25 09:51:53.62	333.96	23.79	-45.1	-46.3	20.7	0.00e+00	0	44	0	1141899264	61	4241
2026-01-25 09:51:54.63	333.97	23.64	-44.9	-46.0	20.9	0.00e+00	0	44	0	1142947840	61	4096
2026-01-25 09:51:55.64	333.98	23.49	-44.5	-45.7	21.2	0.00e+00	0	44	0	1145044992	61	3930
2026-01-25 09:51:56.65	333.99	23.34	-44.5	-45.7	21.2	0.00e+00	0	44	0	1147142144	61	3928
2026-01-25 09:51:57.66	334.00	23.19	-44.4	-45.5	21.4	0.00e+00	0	44	0	1149239296	60	4074
2026-01-25 09:51:58.67	334.01	23.04	-44.1	-45.2	21.6	0.00e+00	0	44	0	1151336448	60	3944
2026-01-25 09:51:59.68	334.03	22.89	-44.5	-45.6	21.5	0.00e+00	0	44	0	1153433600	59	4387
2026-01-25 09:52:00.69	334.04	22.74	-44.4	-45.6	21.6	0.00e+00	0	44	0	1154482176	59	4345
2026-01-25 09:52:01.69	334.05	22.60	-44.4	-45.5	21.6	0.00e+00	0	44	0	1156579328	59	4311
2026-01-25 09:52:02.70	334.06	22.45	-44.4	-45.5	21.7	0.00e+00	0	44	0	1158676480	59	4308
2026-01-25 09:52:03.71	334.07	22.31	-44.4	-45.5	21.7	0.00e+00	0	44	0	1160773632	59	4300
2026-01-25 09:52:04.72	334.08	22.17	-44.3	-45.4	21.7	0.00e+00	0	44	0	1162870784	59	4247
2026-01-25 09:52:05.73	334.09	22.02	-44.5	-45.7	21.4	0.00e+00	0	44	0	1163919360	59	4411
2026-01-25 09:52:06.74	334.10	21.88	-44.6	-45.8	21.4	0.00e+00	0	44	0	1166016512	59	4467
2026-01-25 09:52:07.74	334.11	21.74	-44.2	-45.3	21.6	0.00e+00	0	44	0	1168113664	60	3967
2026-01-25 09:52:08.75	334.13	21.60	-44.3	-45.4	21.4	0.00e+00	0	44	0	1170210816	60	4031
2026-01-25 09:52:09.76	334.14	21.46	-44.3	-45.5	21.5	0.00e+00	0	44	0	1172307968	60	4053
2026-01-25 09:52:10.77	334.15	21.32	-44.4	-45.5	21.3	0.00e+00	0	44	0	1173356544	60	4085
2026-01-25 09:52:11.78	334.16	21.18	-44.5	-45.7	21.2	0.00e+00	0	44	0	1175453696	60	4161
2026-01-25 09:52:12.79	334.17	21.05	-44.7	-45.9	21.0	0.00e+00	0	44	0	1177550848	60	4245
2026-01-25 09:52:13.80	334.18	20.91	-44.6	-45.7	21.1	0.00e+00	0	44	0	1179648000	60	4187
2026-01-25 09:52:14.80	334.19	20.77	-44.8	-46.0	20.9	0.00e+00	0	44	0	1181745152	60	4313
2026-01-25 09:52:15.81	334.20	20.64	-44.7	-45.9	21.0	0.00e+00	0	44	0	1182793728	60	4280
2026-01-25 09:52:16.82	334.21	20.51	-44.9	-46.1	20.7	0.00e+00	0	44	0	1184890880	60	4375
2026-01-25 09:52:17.83	334.22	20.37	-44.8	-46.1	20.8	0.00e+00	0	44	0	1186988032	60	4341
2026-01-25 09:52:18.84	334.23	20.24	-45.0	-46.2	20.7	0.00e+00	0	44	0	1189085184	60	4430
2026-01-25 09:52:19.85	334.24	20.11	-45.1	-46.3	20.6	0.00e+00	0	44	0	1191182336	60	4481
2026-01-25 09:52:20.86	334.25	19.97	-45.2	-46.5	20.4	0.00e+00	0	44	0	1192230912	60	4553
2026-01-25 09:52:21.86	334.26	19.84	-44.9	-46.1	20.8	0.00e+00	0	44	0	1194328064	60	4366
2026-01-25 09:52:22.87	334.27	19.71	-45.0	-46.2	20.7	0.00e+00	0	44	0	1196425216	60	4439
2026-01-25 09:52:23.88	334.28	19.58	-45.0	-46.3	20.6	0.00e+00	0	44	0	1198522368	60	4451
2026-01-25 09:52:24.89	334.29	19.46	-44.9	-46.2	20.7	0.00e+00	0	44	0	1200619520	60	4401
2026-01-25 09:52:25.90	334.30	19.33	-45.0	-46.3	20.6	0.00e+00	0	44	0	1201668096	60	4452
2026-01-25 09:52:26.91	334.31	19.20	-44.9	-46.1	20.7	0.00e+00	0	44	0	1203765248	60	4375
2026-01-25 09:52:27.91	334.32	19.07	-44.9	-46.2	20.7	0.00e+00	0	44	0	1205862400	60	4392
2026-01-25 09:52:28.92	334.33	18.95	-44.8	-46.1	20.8	0.00e+00	0	44	0	1207959552	60	4343
2026-01-25 09:52:29.93	334.34	18.82	-45.0	-46.2	20.6	0.00e+00	0	43	0	1210056704	60	4426
2026-01-25 09:52:30.94	334.35	18.70	-44.7	-45.9	20.9	0.00e+00	0	44	0	1212153856	60	4257
2026-01-25 09:52:31.95	334.36	18.57	-44.6	-45.8	21.0	0.00e+00	0	44	0	1213202432	60	4216
2026-01-25 09:52:32.96	334.37	18.45	-44.6	-45.7	21.0	0.00e+00	0	43	0	1215299584	60	4191
2026-01-25 09:52:33.97	334.38	18.33	-44.8	-46.0	20.8	0.00e+00	0	44	0	1217396736	60	4308
2026-01-25 09:52:34.97	334.39	18.20	-44.8	-46.0	20.8	0.00e+00	0	44	0	1219493888	60	4327
2026-01-25 09:52:35.98	334.40	18.08	-44.6	-45.8	21.0	0.00e+00	0	44	0	1220542464	60	4217
2026-01-25 09:52:36.99	334.41	17.96	-44.8	-46.0	20.8	0.00e+00	0	44	0	1222639616	60	4330
2026-01-25 09:52:38.00	334.42	17.84	-44.8	-46.0	20.8	0.00e+00	0	44	0	1224736768	60	4308
2026-01-25 09:52:39.01	334.43	17.72	-44.8	-46.0	20.8	0.00e+00	0	44	0	1226833920	60	4313
2026-01-25 09:52:40.02	334.44	17.60	-44.8	-46.1	20.7	0.00e+00	0	44	0	1228931072	60	4356
2026-01-25 09:52:41.02	334.45	17.48	-44.8	-46.1	20.7	0.00e+00	0	44	0	1229979648	60	4351
2026-01-25 09:52:42.03	334.45	17.36	-45.0	-46.2	20.5	0.00e+00	0	44	0	1232076800	60	4435
2026-01-25 09:52:43.04	334.46	17.25	-45.1	-46.4	20.4	0.00e+00	0	44	0	1234173952	60	4499
2026-01-25 09:52:44.05	334.47	17.13	-44.9	-46.2	20.5	0.00e+00	0	44	0	1236271104	60	4409
2026-01-25 09:52:45.06	334.48	17.01	-45.1	-46.3	20.4	0.00e+00	0	44	0	1238368256	60	4491
2026-01-25 09:52:46.07	334.49	16.90	-44.9	-46.1	20.6	0.00e+00	0	44	0	1240465408	60	4382
2026-01-25 09:52:47.08	334.50	16.78	-45.0	-46.2	20.5	0.00e+00	0	44	0	1241513984	60	4437
2026-01-25 09:52:48.08	334.51	16.67	-45.2	-46.5	20.3	0.00e+00	0	44	0	1243611136	60	4566
