passes_logs/2026/01/25/R3.2S_Murmansk/R3.2S_Murmansk__20260125_132959_AQUA_rec.log

#Pass ID: 20260125_132959_AQUA
#Satellite: AQUA
#Configuration: AQUA
#almurnet v.1.7.20251203
#Start time: 2026-01-25 13:29:59

#Version: 2.2.20231116
#Station: R3.2S_Murmansk
#Location: 33.079688 lon 68.888172 lat
#TLE: 1 27424U 02022A   26024.95125529  .00001998  00000+0  40952-3 0  9996
#TLE: 2 27424  98.4098 351.5468 0001900  66.2876   6.3059 14.61857159262343

#Time	Az	El	Level	Level2	SNR	BER	BlckErr	Temp	State	Recorded	gain1	gain2
2026-01-25 13:29:59.59	210.50	2.00	-54.3	-72.1	3.8	7.46e-01	0	41	0	0	80	27647
2026-01-25 13:30:00.59	210.58	2.06	-53.9	-71.8	3.8	7.42e-01	0	41	104	0	78	29731
2026-01-25 13:30:01.58	210.66	2.11	-53.9	-71.7	3.8	7.46e-01	0	41	104	0	78	29664
2026-01-25 13:30:02.57	210.74	2.17	-53.9	-71.7	3.8	7.44e-01	0	41	104	0	78	29571
2026-01-25 13:30:03.56	210.81	2.23	-53.9	-71.7	3.8	7.44e-01	0	41	104	0	78	29538
2026-01-25 13:30:04.56	210.89	2.29	-53.9	-71.7	3.8	7.43e-01	0	41	104	0	78	29539
2026-01-25 13:30:05.55	210.97	2.34	-53.9	-71.7	3.8	7.47e-01	0	41	104	0	78	29444
2026-01-25 13:30:06.54	211.05	2.40	-53.9	-71.7	3.8	7.44e-01	0	41	104	0	78	29517
2026-01-25 13:30:07.53	211.13	2.46	-53.9	-71.7	3.8	7.47e-01	0	41	104	0	78	29569
2026-01-25 13:30:08.52	211.21	2.52	-53.9	-71.7	3.8	7.45e-01	0	41	104	0	78	29534
2026-01-25 13:30:09.52	211.29	2.57	-53.9	-71.7	3.8	7.43e-01	0	41	104	0	78	29441
2026-01-25 13:30:10.51	211.37	2.63	-53.9	-71.7	3.8	7.44e-01	0	41	104	0	78	29419
2026-01-25 13:30:11.50	211.45	2.69	-53.9	-71.6	3.8	7.42e-01	0	41	104	0	78	29273
2026-01-25 13:30:12.50	211.53	2.75	-53.9	-71.6	3.8	7.48e-01	0	41	104	0	78	29024
2026-01-25 13:30:13.49	211.61	2.81	-53.9	-71.6	3.8	7.44e-01	0	41	104	0	78	29211
2026-01-25 13:30:14.48	211.70	2.87	-53.9	-71.6	3.8	7.46e-01	0	41	104	0	78	29053
2026-01-25 13:30:15.47	211.78	2.92	-53.9	-71.7	3.8	7.46e-01	0	41	104	0	78	29350
2026-01-25 13:30:16.46	211.86	2.98	-53.9	-71.6	3.8	7.47e-01	0	41	104	0	78	29329
2026-01-25 13:30:17.45	211.94	3.04	-53.9	-71.7	3.8	7.46e-01	0	41	104	0	78	29410
2026-01-25 13:30:18.44	212.03	3.10	-53.9	-71.7	3.8	7.47e-01	0	41	104	0	78	29382
2026-01-25 13:30:19.44	212.11	3.16	-53.9	-71.7	3.8	7.43e-01	0	42	104	0	78	29458
2026-01-25 13:30:20.42	212.19	3.22	-53.9	-71.7	3.8	7.47e-01	0	42	104	0	78	29430
2026-01-25 13:30:21.41	212.28	3.28	-53.9	-71.6	3.8	7.46e-01	0	42	104	0	78	29181
2026-01-25 13:30:22.41	212.36	3.33	-53.8	-71.6	3.8	7.43e-01	0	42	104	0	78	29051
2026-01-25 13:30:23.40	212.45	3.39	-53.8	-71.4	3.8	7.45e-01	0	42	104	0	78	28524
2026-01-25 13:30:24.38	212.53	3.45	-53.8	-71.2	3.8	7.49e-01	0	42	104	0	78	27975
2026-01-25 13:30:25.38	212.62	3.51	-53.8	-71.2	3.8	7.44e-01	0	42	104	0	78	27831
2026-01-25 13:30:26.36	212.70	3.57	-53.8	-71.2	3.8	7.46e-01	0	42	104	0	78	27740
2026-01-25 13:30:27.35	212.79	3.63	-53.8	-71.2	3.8	7.42e-01	0	42	104	0	78	27723
2026-01-25 13:30:28.34	212.88	3.69	-53.8	-71.4	3.8	7.42e-01	0	42	104	0	78	28401
2026-01-25 13:30:29.33	212.96	3.75	-53.8	-71.4	3.8	7.45e-01	0	42	104	0	78	28590
2026-01-25 13:30:30.32	213.05	3.81	-53.8	-71.4	3.8	7.46e-01	0	42	104	0	78	28589
2026-01-25 13:30:31.30	213.14	3.87	-53.8	-71.3	3.8	7.45e-01	0	42	104	0	78	28254
2026-01-25 13:30:32.29	213.22	3.93	-53.8	-71.5	3.8	7.42e-01	0	42	104	0	78	28715
2026-01-25 13:30:33.29	213.31	3.99	-53.8	-71.6	3.8	7.45e-01	0	42	104	0	78	29112
2026-01-25 13:30:34.28	213.40	4.05	-53.8	-71.5	3.8	7.47e-01	0	42	104	0	78	28791
2026-01-25 13:30:35.27	213.49	4.11	-53.8	-70.7	3.8	7.42e-01	0	42	104	0	78	26218
2026-01-25 13:30:36.26	213.58	4.17	-53.7	-68.6	4.1	7.38e-01	0	42	104	0	78	20713
2026-01-25 13:30:37.25	213.67	4.23	-53.7	-66.6	4.7	7.14e-01	0	42	104	0	78	16445
2026-01-25 13:30:38.24	213.76	4.29	-53.6	-65.2	5.5	6.97e-01	34	42	0	0	78	14045
2026-01-25 13:30:39.23	213.85	4.35	-53.5	-64.1	6.4	6.75e-01	183	42	0	1572864	78	12350
2026-01-25 13:30:40.22	213.94	4.41	-53.4	-63.9	6.5	6.74e-01	183	42	0	3145728	78	12025
2026-01-25 13:30:41.22	214.04	4.47	-53.4	-63.2	7.2	6.59e-01	184	42	0	5242880	78	11035
2026-01-25 13:30:42.21	214.13	4.53	-53.3	-62.6	7.7	6.53e-01	185	42	0	7340032	78	10331
2026-01-25 13:30:43.19	214.22	4.59	-52.8	-59.7	10.6	6.18e-01	0	42	0	8912896	77	7872
2026-01-25 13:30:44.19	214.31	4.66	-52.1	-57.3	13.1	6.09e-01	0	42	0	10485760	76	6323
2026-01-25 13:30:45.18	214.41	4.72	-51.2	-55.4	15.2	6.06e-01	0	42	0	12582912	74	5670
2026-01-25 13:30:46.17	214.50	4.78	-50.1	-53.2	17.3	6.08e-01	0	42	0	14680064	72	4978
2026-01-25 13:30:47.15	214.59	4.84	-49.7	-52.4	18.2	6.04e-01	0	42	0	16252928	71	4806
2026-01-25 13:30:48.14	214.69	4.90	-48.9	-51.3	19.3	6.06e-01	0	42	0	18350080	69	4759
2026-01-25 13:30:49.14	214.78	4.96	-48.7	-51.1	19.6	6.08e-01	0	42	0	19922944	69	4614
2026-01-25 13:30:50.14	214.88	5.02	-48.7	-51.1	19.6	6.06e-01	0	42	0	22020096	69	4608
2026-01-25 13:30:51.13	214.97	5.09	-48.6	-50.8	19.9	6.05e-01	0	42	0	23592960	68	4747
2026-01-25 13:30:52.12	215.07	5.15	-50.2	-53.2	17.3	6.06e-01	0	42	0	25690112	71	5271
2026-01-25 13:30:53.11	215.17	5.21	-52.1	-57.5	13.1	6.08e-01	0	42	0	27787264	74	7248
2026-01-25 13:30:54.09	215.26	5.27	-53.3	-63.2	6.7	6.64e-01	183	42	0	29360128	77	11769
2026-01-25 13:30:55.09	215.36	5.33	-46.5	-48.1	22.6	6.06e-01	0	42	0	30932992	64	4352
2026-01-25 13:30:56.08	215.46	5.40	-46.3	-47.9	22.8	6.06e-01	0	42	0	33030144	64	4269
2026-01-25 13:30:57.07	215.56	5.46	-46.4	-47.9	22.8	6.08e-01	0	42	0	35127296	64	4274
2026-01-25 13:30:58.06	215.65	5.52	-46.5	-48.1	22.7	6.06e-01	0	42	0	36700160	64	4389
2026-01-25 13:30:59.04	215.75	5.58	-46.2	-47.7	23.1	6.07e-01	0	42	0	38797312	64	4183
2026-01-25 13:31:00.03	215.85	5.65	-46.6	-48.2	22.6	6.04e-01	0	42	0	40370176	64	4405
2026-01-25 13:31:01.02	215.95	5.71	-46.4	-48.0	22.8	6.08e-01	0	42	0	42467328	64	4322
2026-01-25 13:31:02.01	216.05	5.77	-46.4	-48.0	22.8	6.05e-01	0	42	0	44040192	64	4320
2026-01-25 13:31:03.00	216.15	5.83	-46.3	-47.9	22.9	6.08e-01	0	42	0	46137344	64	4257
2026-01-25 13:31:03.99	216.25	5.90	-46.4	-48.0	22.9	6.08e-01	0	42	0	47710208	64	4309
2026-01-25 13:31:04.98	216.36	5.96	-46.4	-48.0	22.8	6.06e-01	0	42	0	49807360	64	4319
2026-01-25 13:31:05.96	216.46	6.02	-46.5	-48.1	22.8	6.05e-01	0	42	0	51380224	64	4350
2026-01-25 13:31:06.95	216.56	6.09	-46.2	-47.8	23.0	6.04e-01	0	42	0	53477376	64	4202
2026-01-25 13:31:07.94	216.66	6.15	-46.3	-47.9	22.9	6.04e-01	0	43	0	55574528	64	4265
2026-01-25 13:31:08.93	216.77	6.21	-46.3	-47.8	23.0	6.05e-01	0	42	0	57147392	64	4223
2026-01-25 13:31:09.92	216.87	6.28	-46.2	-47.7	23.2	6.06e-01	0	42	0	59244544	63	4413
2026-01-25 13:31:10.91	216.98	6.34	-46.1	-47.6	23.3	6.06e-01	0	42	0	60817408	63	4378
2026-01-25 13:31:11.90	217.08	6.41	-46.3	-47.8	23.2	6.06e-01	0	42	0	62914560	63	4453
2026-01-25 13:31:12.89	217.19	6.47	-46.2	-47.7	23.3	6.08e-01	0	42	0	64487424	63	4418
2026-01-25 13:31:13.88	217.29	6.53	-46.1	-47.5	23.4	6.06e-01	0	42	0	66584576	63	4338
2026-01-25 13:31:14.87	217.40	6.60	-46.2	-47.7	23.4	6.05e-01	0	43	0	68157440	63	4405
2026-01-25 13:31:15.85	217.50	6.66	-46.1	-47.6	23.4	6.06e-01	0	43	0	70254592	63	4372
2026-01-25 13:31:16.84	217.61	6.73	-46.1	-47.6	23.3	6.06e-01	0	42	0	71827456	63	4391
2026-01-25 13:31:17.84	217.72	6.79	-46.2	-47.7	23.3	6.06e-01	0	42	0	73924608	63	4397
2026-01-25 13:31:18.83	217.83	6.85	-45.9	-47.4	23.6	6.05e-01	0	42	0	76021760	63	4250
2026-01-25 13:31:19.82	217.94	6.92	-46.0	-47.4	23.6	6.04e-01	0	42	0	77594624	63	4280
2026-01-25 13:31:20.82	218.05	6.98	-45.7	-47.1	23.9	6.06e-01	0	42	0	79691776	63	4110
2026-01-25 13:31:21.82	218.16	7.05	-46.0	-47.5	23.5	6.07e-01	0	42	0	81264640	63	4303
2026-01-25 13:31:22.81	218.27	7.12	-46.0	-47.4	23.6	6.08e-01	0	42	0	83361792	63	4286
2026-01-25 13:31:23.80	218.38	7.18	-45.8	-47.3	23.8	6.07e-01	0	42	0	84934656	63	4212
2026-01-25 13:31:24.80	218.49	7.25	-45.8	-47.3	23.8	6.05e-01	0	42	0	87031808	63	4203
2026-01-25 13:31:25.79	218.61	7.31	-45.9	-47.4	23.6	6.03e-01	0	42	0	89128960	63	4246
2026-01-25 13:31:26.80	218.72	7.38	-45.8	-47.2	23.9	6.07e-01	0	42	0	90701824	63	4157
2026-01-25 13:31:27.79	218.83	7.44	-45.9	-47.3	23.7	6.07e-01	0	42	0	92274688	63	4233
2026-01-25 13:31:28.78	218.95	7.51	-46.0	-47.5	23.6	6.09e-01	0	43	0	94371840	63	4319
2026-01-25 13:31:29.77	219.06	7.57	-45.9	-47.4	23.6	6.07e-01	0	42	0	95944704	63	4261
2026-01-25 13:31:30.76	219.18	7.64	-45.9	-47.3	23.7	6.08e-01	0	43	0	98041856	63	4223
2026-01-25 13:31:31.76	219.29	7.71	-45.7	-47.1	23.9	6.06e-01	0	42	0	100139008	63	4124
2026-01-25 13:31:32.74	219.41	7.77	-45.8	-47.2	23.8	6.07e-01	0	43	0	101711872	63	4178
2026-01-25 13:31:33.73	219.53	7.84	-45.9	-47.4	23.7	6.05e-01	0	42	0	103809024	63	4257
2026-01-25 13:31:34.72	219.64	7.90	-45.9	-47.4	23.7	6.06e-01	0	42	0	105381888	63	4255
2026-01-25 13:31:35.71	219.76	7.97	-46.0	-47.5	23.6	6.05e-01	0	43	0	107479040	63	4311
2026-01-25 13:31:36.69	219.88	8.04	-45.8	-47.2	23.9	6.08e-01	0	42	0	109576192	63	4158
2026-01-25 13:31:37.69	220.00	8.10	-45.7	-47.1	24.0	6.06e-01	0	42	0	111149056	63	4127
2026-01-25 13:31:38.68	220.12	8.17	-45.7	-47.1	24.0	6.05e-01	0	43	0	112721920	63	4144
2026-01-25 13:31:39.67	220.24	8.24	-45.7	-47.1	24.0	6.05e-01	0	42	0	114819072	63	4104
2026-01-25 13:31:40.66	220.36	8.30	-45.7	-47.0	24.1	6.08e-01	0	42	0	116391936	63	4098
2026-01-25 13:31:41.65	220.48	8.37	-45.5	-46.9	24.2	6.07e-01	0	43	0	118489088	63	4031
2026-01-25 13:31:42.65	220.60	8.44	-45.6	-47.0	24.1	6.07e-01	0	43	0	120586240	63	4065
2026-01-25 13:31:43.64	220.72	8.51	-45.6	-47.0	24.1	6.06e-01	0	42	0	122159104	63	4075
2026-01-25 13:31:44.63	220.84	8.57	-45.6	-47.0	24.1	6.05e-01	0	42	0	124256256	63	4083
2026-01-25 13:31:45.61	220.97	8.64	-45.6	-47.0	24.1	6.06e-01	0	43	0	125829120	63	4060
2026-01-25 13:31:46.60	221.09	8.71	-45.4	-46.8	24.3	6.07e-01	0	43	0	127926272	62	4219
2026-01-25 13:31:47.59	221.21	8.77	-45.5	-46.9	24.2	6.05e-01	0	43	0	130023424	62	4256
2026-01-25 13:31:48.58	221.34	8.84	-45.4	-46.8	24.3	6.06e-01	0	43	0	131596288	62	4205
2026-01-25 13:31:49.57	221.46	8.91	-45.5	-46.8	24.4	6.04e-01	0	43	0	133169152	62	4223
2026-01-25 13:31:50.56	221.59	8.98	-45.4	-46.7	24.5	6.07e-01	0	43	0	135266304	62	4166
2026-01-25 13:31:51.55	221.72	9.04	-45.4	-46.8	24.4	6.08e-01	0	42	0	136839168	62	4198
2026-01-25 13:31:52.54	221.85	9.11	-45.5	-46.9	24.3	6.05e-01	0	43	0	138936320	62	4257
2026-01-25 13:31:53.52	221.97	9.18	-45.5	-46.9	24.3	6.03e-01	0	42	0	141033472	62	4245
2026-01-25 13:31:54.51	222.10	9.25	-45.5	-46.8	24.3	6.05e-01	0	43	0	142606336	62	4224
2026-01-25 13:31:55.51	222.23	9.32	-45.3	-46.6	24.5	6.05e-01	0	43	0	144703488	62	4130
2026-01-25 13:31:56.49	222.36	9.38	-45.3	-46.7	24.5	6.07e-01	0	43	0	146276352	62	4152
2026-01-25 13:31:57.48	222.49	9.45	-45.1	-46.4	24.7	6.06e-01	0	43	0	148373504	62	4040
2026-01-25 13:31:58.47	222.62	9.52	-45.2	-46.5	24.7	6.05e-01	0	43	0	149946368	62	4075
2026-01-25 13:31:59.47	222.76	9.59	-45.4	-46.7	24.5	6.07e-01	0	43	0	152043520	62	4166
2026-01-25 13:32:00.46	222.89	9.66	-45.4	-46.8	24.4	6.02e-01	0	43	0	153616384	62	4207
2026-01-25 13:32:01.45	223.02	9.73	-45.5	-46.9	24.3	6.06e-01	0	43	0	155713536	62	4262
2026-01-25 13:32:02.43	223.15	9.79	-45.6	-47.0	24.2	6.07e-01	0	43	0	157286400	62	4303
2026-01-25 13:32:03.42	223.29	9.86	-45.5	-46.8	24.4	6.06e-01	0	43	0	159383552	62	4229
2026-01-25 13:32:04.41	223.42	9.93	-45.2	-46.5	24.7	6.05e-01	0	43	0	161480704	62	4061
2026-01-25 13:32:05.40	223.56	10.00	-45.3	-46.6	24.6	6.05e-01	0	43	0	163053568	62	4109
2026-01-25 13:32:06.39	223.70	10.07	-45.1	-46.4	24.8	6.04e-01	0	43	0	164626432	62	4013
2026-01-25 13:32:07.38	223.83	10.14	-45.2	-46.5	24.7	6.06e-01	0	43	0	166723584	62	4083
2026-01-25 13:32:08.38	223.97	10.21	-45.2	-46.5	24.6	6.07e-01	0	43	0	168820736	62	4094
2026-01-25 13:32:09.37	224.11	10.28	-45.1	-46.4	24.7	6.06e-01	0	43	0	170393600	62	4045
2026-01-25 13:32:10.36	224.25	10.35	-45.3	-46.7	24.5	6.07e-01	0	43	0	172490752	62	4147
2026-01-25 13:32:11.35	224.39	10.42	-45.1	-46.4	24.8	6.06e-01	0	43	0	174063616	62	4034
2026-01-25 13:32:12.34	224.53	10.49	-45.1	-46.4	24.8	6.05e-01	0	43	0	176160768	62	4019
2026-01-25 13:32:13.33	224.67	10.56	-45.2	-46.5	24.7	6.08e-01	0	43	0	177733632	62	4092
2026-01-25 13:32:14.32	224.81	10.63	-45.1	-46.4	24.8	6.05e-01	0	43	0	179830784	62	4028
2026-01-25 13:32:15.31	224.96	10.70	-45.1	-46.4	24.9	6.06e-01	0	43	0	181927936	61	4244
2026-01-25 13:32:16.30	225.10	10.77	-44.9	-46.2	25.1	6.05e-01	0	43	0	183500800	61	4147
2026-01-25 13:32:17.29	225.24	10.84	-45.0	-46.3	24.9	6.05e-01	0	42	0	185073664	61	4231
2026-01-25 13:32:18.28	225.39	10.91	-45.0	-46.3	24.9	6.05e-01	0	43	0	187170816	61	4224
2026-01-25 13:32:19.27	225.54	10.98	-45.0	-46.3	24.9	6.04e-01	0	43	0	189267968	61	4210
2026-01-25 13:32:20.26	225.68	11.05	-45.0	-46.3	24.9	6.06e-01	0	43	0	190840832	61	4241
2026-01-25 13:32:21.25	225.83	11.12	-45.1	-46.4	24.8	6.05e-01	0	43	0	192937984	61	4261
2026-01-25 13:32:22.24	225.98	11.19	-45.1	-46.4	24.8	6.07e-01	0	43	0	194510848	61	4268
2026-01-25 13:32:23.23	226.12	11.26	-45.0	-46.3	24.9	6.05e-01	0	43	0	196608000	61	4230
2026-01-25 13:32:24.23	226.28	11.33	-44.9	-46.2	25.0	6.06e-01	0	43	0	198180864	61	4155
2026-01-25 13:32:25.21	226.42	11.40	-44.9	-46.2	25.0	6.06e-01	0	43	0	200278016	61	4154
2026-01-25 13:32:26.21	226.58	11.47	-44.9	-46.2	25.1	6.04e-01	0	43	0	202375168	61	4146
2026-01-25 13:32:27.21	226.73	11.54	-44.8	-46.1	25.2	6.06e-01	0	43	0	203948032	61	4117
2026-01-25 13:32:28.20	226.88	11.61	-44.9	-46.2	25.0	6.08e-01	0	43	0	206045184	61	4182
2026-01-25 13:32:29.19	227.04	11.68	-44.9	-46.2	25.0	6.07e-01	0	43	0	207618048	61	4153
2026-01-25 13:32:30.19	227.19	11.75	-45.0	-46.3	25.0	6.04e-01	0	43	0	209715200	61	4203
2026-01-25 13:32:31.18	227.35	11.82	-44.8	-46.0	25.2	6.04e-01	0	42	0	211288064	61	4078
2026-01-25 13:32:32.18	227.50	11.90	-44.7	-45.9	25.3	6.06e-01	0	43	0	213385216	61	4033
2026-01-25 13:32:33.18	227.66	11.97	-44.6	-45.9	25.4	6.06e-01	0	43	0	214958080	61	4005
2026-01-25 13:32:34.17	227.82	12.04	-44.7	-45.9	25.3	6.05e-01	0	43	0	217055232	61	4040
2026-01-25 13:32:35.16	227.97	12.11	-44.7	-45.9	25.3	6.08e-01	0	43	0	218628096	61	4035
2026-01-25 13:32:36.16	228.13	12.18	-44.7	-46.0	25.2	6.05e-01	0	43	0	220725248	61	4059
2026-01-25 13:32:37.16	228.30	12.25	-44.6	-45.8	25.4	6.07e-01	0	43	0	222822400	61	4004
2026-01-25 13:32:38.16	228.46	12.32	-44.6	-45.9	25.4	6.07e-01	0	43	0	224395264	61	4007
2026-01-25 13:32:39.16	228.62	12.40	-44.6	-45.9	25.4	6.05e-01	0	43	0	226492416	61	4005
2026-01-25 13:32:40.15	228.78	12.47	-44.6	-45.9	25.4	6.07e-01	0	43	0	228065280	61	4016
2026-01-25 13:32:41.14	228.94	12.54	-44.6	-45.8	25.5	6.05e-01	0	43	0	230162432	61	3989
2026-01-25 13:32:42.14	229.11	12.61	-44.6	-45.8	25.5	6.06e-01	0	43	0	231735296	61	3976
2026-01-25 13:32:43.13	229.27	12.68	-44.6	-45.8	25.4	6.03e-01	0	43	0	233832448	61	3992
2026-01-25 13:32:44.12	229.44	12.75	-44.7	-46.0	25.3	6.02e-01	0	43	0	235929600	61	4064
2026-01-25 13:32:45.11	229.61	12.82	-44.6	-45.8	25.4	6.05e-01	0	43	0	237502464	61	3978
2026-01-25 13:32:46.10	229.77	12.90	-44.4	-45.6	25.6	6.05e-01	0	43	0	239599616	60	4139
2026-01-25 13:32:47.09	229.94	12.97	-44.4	-45.6	25.6	6.06e-01	0	43	0	241172480	60	4114
2026-01-25 13:32:48.08	230.11	13.04	-44.4	-45.7	25.6	6.06e-01	0	43	0	243269632	60	4150
2026-01-25 13:32:49.07	230.28	13.11	-44.4	-45.6	25.6	6.05e-01	0	43	0	244842496	60	4120
2026-01-25 13:32:50.07	230.45	13.18	-44.4	-45.7	25.5	6.04e-01	0	43	0	246939648	60	4152
2026-01-25 13:32:51.06	230.62	13.25	-44.4	-45.7	25.5	6.06e-01	0	43	0	248512512	60	4150
2026-01-25 13:32:52.06	230.79	13.33	-44.4	-45.6	25.7	6.03e-01	0	43	0	250609664	60	4106
2026-01-25 13:32:53.05	230.97	13.40	-44.4	-45.6	25.7	6.08e-01	0	43	0	252182528	60	4119
2026-01-25 13:32:54.04	231.14	13.47	-44.4	-45.6	25.7	6.05e-01	0	43	0	254279680	60	4101
2026-01-25 13:32:55.03	231.31	13.54	-44.4	-45.6	25.6	6.06e-01	0	43	0	256376832	60	4130
2026-01-25 13:32:56.02	231.49	13.61	-44.5	-45.8	25.5	6.04e-01	0	43	0	257949696	60	4198
2026-01-25 13:32:57.01	231.67	13.68	-44.3	-45.5	25.7	6.06e-01	0	43	0	260046848	60	4091
2026-01-25 13:32:58.01	231.85	13.76	-44.4	-45.6	25.7	6.08e-01	0	43	0	261619712	60	4110
2026-01-25 13:32:59.00	232.02	13.83	-44.3	-45.5	25.7	6.06e-01	0	43	0	263716864	60	4082
2026-01-25 13:32:59.99	232.20	13.90	-44.2	-45.4	25.9	6.03e-01	0	43	0	265289728	60	4029
2026-01-25 13:33:00.98	232.38	13.97	-44.2	-45.4	25.9	6.06e-01	0	43	0	267386880	60	4014
2026-01-25 13:33:01.97	232.56	14.04	-44.3	-45.5	25.8	6.05e-01	0	43	0	268959744	60	4068
2026-01-25 13:33:02.96	232.74	14.11	-44.3	-45.5	25.7	6.07e-01	0	43	0	271056896	60	4097
2026-01-25 13:33:03.95	232.93	14.18	-44.5	-45.7	25.6	6.06e-01	0	43	0	272629760	60	4166
2026-01-25 13:33:04.95	233.11	14.26	-44.4	-45.6	25.7	6.05e-01	0	43	0	274726912	60	4122
2026-01-25 13:33:05.94	233.30	14.33	-44.4	-45.6	25.7	6.06e-01	0	43	0	276824064	60	4128
2026-01-25 13:33:06.93	233.48	14.40	-44.3	-45.5	25.8	6.04e-01	0	43	0	278396928	60	4084
2026-01-25 13:33:07.92	233.67	14.47	-44.4	-45.6	25.7	6.04e-01	0	43	0	280494080	60	4118
2026-01-25 13:33:08.92	233.86	14.54	-44.4	-45.6	25.7	6.04e-01	0	43	0	282066944	60	4100
2026-01-25 13:33:09.91	234.05	14.61	-44.3	-45.5	25.8	6.05e-01	0	43	0	284164096	60	4080
2026-01-25 13:33:10.90	234.24	14.68	-44.2	-45.4	25.8	6.04e-01	0	43	0	285736960	60	4047
2026-01-25 13:33:11.89	234.43	14.75	-44.2	-45.4	25.9	6.05e-01	0	43	0	287834112	60	4012
2026-01-25 13:33:12.88	234.62	14.83	-44.2	-45.3	25.9	6.06e-01	0	43	0	289406976	60	4002
2026-01-25 13:33:13.87	234.81	14.90	-44.1	-45.3	26.0	6.05e-01	0	43	0	291504128	60	3991
2026-01-25 13:33:14.86	235.00	14.97	-44.2	-45.4	25.9	6.06e-01	0	43	0	293076992	60	4031
2026-01-25 13:33:15.86	235.20	15.04	-44.4	-45.6	25.8	6.06e-01	0	43	0	295174144	60	4105
2026-01-25 13:33:16.85	235.39	15.11	-44.2	-45.4	25.9	6.06e-01	0	43	0	297271296	60	4043
2026-01-25 13:33:17.85	235.59	15.18	-44.1	-45.3	26.0	6.06e-01	0	43	0	298844160	60	3966
2026-01-25 13:33:18.84	235.79	15.25	-44.2	-45.3	25.9	6.04e-01	0	43	0	300941312	60	4002
2026-01-25 13:33:19.84	235.99	15.32	-44.1	-45.3	26.0	6.06e-01	0	43	0	302514176	60	3976
2026-01-25 13:33:20.83	236.18	15.39	-44.1	-45.3	25.9	6.05e-01	0	43	0	304611328	60	3997
2026-01-25 13:33:21.83	236.39	15.47	-44.1	-45.3	26.0	6.07e-01	0	43	0	306184192	60	3967
2026-01-25 13:33:22.83	236.59	15.54	-44.1	-45.3	26.0	6.05e-01	0	43	0	308281344	60	3964
2026-01-25 13:33:23.82	236.79	15.61	-44.0	-45.2	26.1	6.05e-01	0	43	0	310378496	60	3935
2026-01-25 13:33:24.82	236.99	15.68	-44.0	-45.2	26.1	6.05e-01	0	43	0	311951360	60	3922
2026-01-25 13:33:25.81	237.20	15.75	-44.0	-45.2	26.1	6.06e-01	0	43	0	314048512	60	3919
2026-01-25 13:33:26.80	237.40	15.82	-44.1	-45.3	26.0	6.05e-01	0	43	0	315621376	60	3978
2026-01-25 13:33:27.79	237.61	15.89	-44.1	-45.3	26.0	6.05e-01	0	43	0	317718528	60	3989
2026-01-25 13:33:28.78	237.81	15.96	-44.1	-45.3	26.0	6.07e-01	0	43	0	319291392	60	3983
2026-01-25 13:33:29.77	238.02	16.03	-44.0	-45.2	26.1	6.06e-01	0	43	0	321388544	60	3921
2026-01-25 13:33:30.77	238.23	16.10	-44.0	-45.2	26.1	6.06e-01	0	43	0	322961408	60	3924
2026-01-25 13:33:31.76	238.44	16.17	-44.1	-45.2	26.1	6.05e-01	0	43	0	325058560	60	3955
2026-01-25 13:33:32.75	238.65	16.24	-44.1	-45.3	26.0	6.04e-01	0	43	0	326631424	60	3979
2026-01-25 13:33:33.73	238.86	16.30	-44.2	-45.4	25.9	6.04e-01	0	43	0	328728576	60	4012
2026-01-25 13:33:34.73	239.08	16.37	-44.1	-45.2	26.0	6.05e-01	0	43	0	330825728	60	3958
2026-01-25 13:33:35.72	239.29	16.44	-44.3	-45.5	25.9	6.02e-01	0	43	0	332398592	60	4065
2026-01-25 13:33:36.71	239.50	16.51	-44.1	-45.3	26.0	6.07e-01	0	43	0	334495744	60	3981
2026-01-25 13:33:37.71	239.72	16.58	-44.1	-45.3	26.0	6.06e-01	0	43	0	336068608	60	3980
2026-01-25 13:33:38.70	239.94	16.65	-44.0	-45.1	26.2	6.05e-01	0	43	0	338165760	60	3912
2026-01-25 13:33:39.69	240.16	16.72	-44.1	-45.2	26.1	6.06e-01	0	43	0	339738624	60	3956
2026-01-25 13:33:40.68	240.38	16.78	-44.1	-45.3	26.0	6.06e-01	0	43	0	341835776	60	3989
2026-01-25 13:33:41.68	240.60	16.85	-44.1	-45.2	26.1	6.09e-01	0	43	0	343408640	60	3948
2026-01-25 13:33:42.66	240.82	16.92	-44.2	-45.3	26.0	6.06e-01	0	43	0	345505792	60	4004
2026-01-25 13:33:43.65	241.04	16.99	-44.0	-45.1	26.2	6.05e-01	0	43	0	347078656	60	3910
2026-01-25 13:33:44.64	241.26	17.06	-44.1	-45.2	26.0	6.07e-01	0	43	0	349175808	59	4189
2026-01-25 13:33:45.63	241.48	17.12	-44.1	-45.2	26.0	6.05e-01	0	43	0	351272960	59	4189
2026-01-25 13:33:46.62	241.71	17.19	-44.1	-45.2	26.1	6.03e-01	0	43	0	352845824	59	4188
2026-01-25 13:33:47.61	241.93	17.26	-44.1	-45.3	26.0	6.04e-01	0	43	0	354942976	59	4215
2026-01-25 13:33:48.60	242.16	17.32	-44.2	-45.4	26.0	6.04e-01	0	43	0	356515840	59	4245
2026-01-25 13:33:49.59	242.39	17.39	-44.1	-45.3	26.0	6.06e-01	0	43	0	358088704	59	4209
2026-01-25 13:33:50.58	242.62	17.45	-44.1	-45.3	26.0	6.06e-01	0	43	0	360185856	59	4212
2026-01-25 13:33:51.58	242.85	17.52	-44.1	-45.3	26.1	6.08e-01	0	43	0	362283008	59	4196
2026-01-25 13:33:52.56	243.08	17.59	-44.1	-45.3	26.0	6.06e-01	0	43	0	363855872	59	4211
2026-01-25 13:33:53.56	243.31	17.65	-44.2	-45.3	26.0	6.04e-01	0	43	0	365953024	59	4230
2026-01-25 13:33:54.54	243.54	17.72	-44.1	-45.3	26.1	6.06e-01	0	43	0	367525888	59	4198
2026-01-25 13:33:55.53	243.78	17.78	-44.2	-45.3	26.0	6.02e-01	0	43	0	369623040	59	4231
2026-01-25 13:33:56.53	244.02	17.85	-44.1	-45.3	26.0	6.04e-01	0	43	0	371720192	59	4216
2026-01-25 13:33:57.52	244.25	17.91	-44.2	-45.4	26.0	6.05e-01	0	43	0	373293056	59	4261
2026-01-25 13:33:58.51	244.49	17.98	-44.4	-45.6	23.9	6.07e-01	0	43	0	375390208	59	4350
2026-01-25 13:33:59.51	244.73	18.04	-44.3	-45.5	25.8	6.06e-01	0	43	0	376963072	59	4322
2026-01-25 13:34:00.50	244.97	18.10	-44.4	-45.6	25.8	6.05e-01	0	43	0	379060224	59	4363
2026-01-25 13:34:01.49	245.21	18.17	-44.3	-45.5	25.9	6.07e-01	0	43	0	380633088	59	4296
2026-01-25 13:34:02.48	245.45	18.23	-44.1	-45.3	26.1	6.05e-01	0	43	0	382730240	59	4214
2026-01-25 13:34:03.48	245.70	18.29	-44.2	-45.4	26.1	6.03e-01	0	43	0	384303104	59	4245
2026-01-25 13:34:04.48	245.94	18.36	-44.1	-45.2	26.1	6.07e-01	0	43	0	386400256	59	4190
2026-01-25 13:34:05.46	246.18	18.42	-44.2	-45.4	26.0	6.05e-01	0	43	0	387973120	59	4259
2026-01-25 13:34:06.46	246.43	18.48	-44.3	-45.5	25.9	6.05e-01	0	43	0	390070272	59	4311
2026-01-25 13:34:07.46	246.68	18.54	-44.3	-45.5	25.9	6.04e-01	0	43	0	391643136	59	4309
2026-01-25 13:34:08.45	246.93	18.60	-44.3	-45.5	25.8	6.07e-01	0	43	0	393740288	59	4316
2026-01-25 13:34:09.44	247.18	18.66	-44.3	-45.5	25.8	6.05e-01	0	43	0	395837440	59	4337
2026-01-25 13:34:10.44	247.43	18.72	-44.3	-45.5	25.9	6.05e-01	0	43	0	397410304	59	4294
2026-01-25 13:34:11.43	247.68	18.78	-44.1	-45.3	26.0	6.04e-01	0	43	0	399507456	59	4226
2026-01-25 13:34:12.42	247.93	18.84	-44.2	-45.3	26.0	6.07e-01	0	43	0	401080320	59	4238
2026-01-25 13:34:13.41	248.18	18.90	-44.2	-45.3	26.0	6.04e-01	0	43	0	403177472	59	4230
2026-01-25 13:34:14.40	248.44	18.96	-44.3	-45.5	25.9	6.05e-01	0	43	0	405274624	59	4296
2026-01-25 13:34:15.39	248.69	19.02	-44.4	-45.6	25.8	6.07e-01	0	43	0	406847488	59	4356
2026-01-25 13:34:16.38	248.95	19.08	-44.3	-45.5	25.9	6.06e-01	0	43	0	408420352	59	4308
2026-01-25 13:34:17.38	249.21	19.14	-44.3	-45.5	25.9	6.05e-01	0	43	0	410517504	59	4295
2026-01-25 13:34:18.37	249.47	19.19	-44.2	-45.4	26.0	6.05e-01	0	43	0	412090368	59	4257
2026-01-25 13:34:19.36	249.72	19.25	-44.2	-45.3	26.0	6.06e-01	0	43	0	414187520	59	4226
2026-01-25 13:34:20.35	249.98	19.31	-44.2	-45.4	26.0	6.07e-01	0	43	0	416284672	59	4248
2026-01-25 13:34:21.34	250.24	19.36	-44.2	-45.3	26.0	6.04e-01	0	43	0	417857536	59	4241
2026-01-25 13:34:22.33	250.51	19.42	-44.2	-45.4	26.0	6.05e-01	0	43	0	419954688	59	4243
2026-01-25 13:34:23.32	250.77	19.48	-44.3	-45.5	25.9	6.05e-01	0	43	0	421527552	59	4317
2026-01-25 13:34:24.30	251.03	19.53	-44.3	-45.4	26.0	6.05e-01	0	43	0	423624704	59	4285
2026-01-25 13:34:25.29	251.29	19.58	-44.2	-45.4	25.9	6.06e-01	0	43	0	425197568	59	4278
2026-01-25 13:34:26.28	251.56	19.64	-44.2	-45.4	26.0	6.07e-01	0	43	0	427294720	59	4246
2026-01-25 13:34:27.27	251.83	19.69	-44.2	-45.4	26.0	6.04e-01	0	43	0	428867584	59	4265
2026-01-25 13:34:28.26	252.09	19.74	-44.3	-45.5	25.9	6.05e-01	0	43	0	430964736	59	4299
2026-01-25 13:34:29.26	252.36	19.80	-44.3	-45.4	25.9	6.06e-01	0	43	0	432537600	59	4291
2026-01-25 13:34:30.25	252.63	19.85	-44.2	-45.4	26.0	6.03e-01	0	43	0	434634752	59	4254
2026-01-25 13:34:31.25	252.91	19.90	-44.3	-45.5	25.9	6.03e-01	0	43	0	436731904	59	4303
2026-01-25 13:34:32.24	253.18	19.95	-44.5	-45.7	25.8	6.06e-01	0	43	0	438304768	59	4401
2026-01-25 13:34:33.24	253.45	20.00	-44.3	-45.5	25.9	6.06e-01	0	43	0	440401920	59	4301
2026-01-25 13:34:34.23	253.73	20.05	-44.3	-45.5	25.9	6.05e-01	0	43	0	441974784	59	4300
2026-01-25 13:34:35.23	254.00	20.10	-44.3	-45.4	25.9	6.05e-01	0	43	0	444071936	59	4291
2026-01-25 13:34:36.21	254.28	20.15	-44.3	-45.5	25.9	6.05e-01	0	43	0	445644800	59	4317
2026-01-25 13:34:37.20	254.55	20.20	-44.5	-45.7	25.8	6.04e-01	0	43	0	447741952	59	4407
2026-01-25 13:34:38.19	254.83	20.25	-44.4	-45.6	25.9	6.05e-01	0	43	0	449839104	59	4358
2026-01-25 13:34:39.18	255.11	20.30	-44.4	-45.6	25.8	6.06e-01	0	43	0	451411968	59	4367
2026-01-25 13:34:40.18	255.39	20.34	-44.4	-45.6	25.8	6.04e-01	0	43	0	452984832	59	4386
2026-01-25 13:34:41.17	255.67	20.39	-44.4	-45.5	25.8	6.04e-01	0	43	0	455081984	59	4332
2026-01-25 13:34:42.16	255.95	20.44	-44.4	-45.6	25.9	6.03e-01	0	43	0	457179136	59	4345
2026-01-25 13:34:43.16	256.23	20.48	-44.4	-45.6	25.8	6.05e-01	0	43	0	458752000	59	4373
2026-01-25 13:34:44.16	256.51	20.53	-44.4	-45.6	25.8	6.04e-01	0	43	0	460849152	59	4363
2026-01-25 13:34:45.15	256.80	20.57	-44.4	-45.6	25.8	6.08e-01	0	43	0	462422016	59	4356
2026-01-25 13:34:46.14	257.08	20.61	-44.4	-45.6	25.7	6.04e-01	0	43	0	464519168	59	4366
2026-01-25 13:34:47.13	257.37	20.66	-44.4	-45.6	25.8	6.05e-01	0	43	0	466092032	59	4362
2026-01-25 13:34:48.12	257.65	20.70	-44.3	-45.5	25.9	6.05e-01	0	43	0	468189184	59	4323
2026-01-25 13:34:49.11	257.94	20.74	-44.4	-45.6	25.7	6.06e-01	0	43	0	470286336	59	4384
2026-01-25 13:34:50.10	258.22	20.78	-44.4	-45.6	25.8	6.07e-01	0	43	0	471859200	59	4354
2026-01-25 13:34:51.10	258.51	20.82	-44.3	-45.5	25.9	6.06e-01	0	43	0	473956352	59	4305
2026-01-25 13:34:52.09	258.80	20.86	-44.4	-45.6	25.8	6.06e-01	0	43	0	475529216	59	4375
2026-01-25 13:34:53.09	259.09	20.90	-44.4	-45.6	25.8	6.04e-01	0	43	0	477626368	59	4368
2026-01-25 13:34:54.08	259.38	20.94	-44.4	-45.6	25.8	6.05e-01	0	43	0	479199232	59	4352
2026-01-25 13:34:55.08	259.68	20.98	-44.5	-45.7	25.8	6.08e-01	0	43	0	481296384	59	4396
2026-01-25 13:34:56.06	259.97	21.02	-44.4	-45.6	25.8	6.06e-01	0	43	0	482869248	59	4368
2026-01-25 13:34:57.05	260.26	21.05	-44.4	-45.6	25.8	6.03e-01	0	43	0	484966400	59	4372
2026-01-25 13:34:58.04	260.55	21.09	-44.5	-45.6	25.7	6.03e-01	0	43	0	486539264	59	4390
2026-01-25 13:34:59.03	260.84	21.12	-44.5	-45.7	25.7	6.04e-01	0	43	0	488636416	59	4396
2026-01-25 13:35:00.02	261.14	21.16	-44.5	-45.7	25.7	6.05e-01	0	43	0	490733568	59	4423
2026-01-25 13:35:01.01	261.43	21.19	-44.5	-45.7	25.7	6.02e-01	0	43	0	492306432	59	4395
2026-01-25 13:35:02.00	261.73	21.23	-44.3	-45.5	25.8	6.06e-01	0	43	0	494403584	59	4321
2026-01-25 13:35:02.98	262.02	21.26	-44.4	-45.6	25.7	6.07e-01	0	43	0	495976448	59	4387
2026-01-25 13:35:03.98	262.32	21.29	-44.4	-45.6	25.8	6.04e-01	0	43	0	498073600	59	4355
2026-01-25 13:35:04.97	262.62	21.32	-44.5	-45.7	25.7	6.05e-01	0	43	0	499646464	59	4407
2026-01-25 13:35:05.96	262.92	21.35	-44.6	-45.9	25.5	6.05e-01	0	43	0	501743616	59	4500
2026-01-25 13:35:06.95	263.21	21.38	-44.6	-45.8	25.7	6.05e-01	0	43	0	503316480	60	4221
2026-01-25 13:35:07.94	263.51	21.41	-44.6	-45.8	25.6	6.06e-01	0	43	0	505413632	60	4240
2026-01-25 13:35:08.93	263.81	21.44	-44.5	-45.7	25.8	6.05e-01	0	43	0	506986496	60	4149
2026-01-25 13:35:09.93	264.12	21.47	-44.4	-45.6	25.9	6.07e-01	0	43	0	509083648	60	4127
2026-01-25 13:35:10.91	264.41	21.49	-44.6	-45.8	25.7	6.07e-01	0	43	0	511180800	60	4205
2026-01-25 13:35:11.91	264.72	21.52	-44.6	-45.8	25.6	6.04e-01	0	43	0	512753664	60	4204
2026-01-25 13:35:12.90	265.02	21.55	-44.7	-45.9	25.6	6.05e-01	0	43	0	514850816	60	4256
2026-01-25 13:35:13.89	265.32	21.57	-44.4	-45.6	25.6	6.04e-01	0	43	0	516423680	60	4127
2026-01-25 13:35:14.88	265.62	21.59	-44.4	-45.5	25.6	6.04e-01	0	43	0	518520832	60	4089
2026-01-25 13:35:15.87	265.93	21.62	-44.3	-45.5	25.4	6.04e-01	0	43	0	520093696	60	4085
2026-01-25 13:35:16.86	266.23	21.64	-44.3	-45.5	25.4	6.05e-01	0	43	0	522190848	60	4072
2026-01-25 13:35:17.85	266.54	21.66	-44.4	-45.6	25.2	6.05e-01	0	43	0	523763712	60	4116
2026-01-25 13:35:18.84	266.84	21.68	-44.5	-45.7	25.0	6.06e-01	0	43	0	525860864	60	4149
2026-01-25 13:35:19.84	267.15	21.70	-44.5	-45.7	24.9	6.05e-01	0	43	0	527433728	60	4184
2026-01-25 13:35:20.83	267.45	21.72	-44.6	-45.7	25.0	6.04e-01	0	43	0	529530880	60	4190
2026-01-25 13:35:21.81	267.76	21.74	-44.5	-45.7	25.2	6.06e-01	0	43	0	531628032	60	4156
2026-01-25 13:35:22.81	268.06	21.76	-44.3	-45.5	25.4	6.04e-01	0	43	0	533200896	60	4074
2026-01-25 13:35:23.80	268.37	21.77	-44.3	-45.5	25.6	6.03e-01	0	43	0	535298048	60	4077
2026-01-25 13:35:24.79	268.68	21.79	-44.3	-45.5	25.8	6.06e-01	0	43	0	536870912	60	4084
2026-01-25 13:35:25.78	268.98	21.81	-44.4	-45.6	25.8	6.05e-01	0	43	0	538968064	60	4130
2026-01-25 13:35:26.78	269.29	21.82	-44.5	-45.7	25.7	6.07e-01	0	43	0	540540928	60	4186
2026-01-25 13:35:27.77	269.60	21.83	-44.5	-45.7	25.8	6.05e-01	0	43	0	542638080	60	4153
2026-01-25 13:35:28.76	269.91	21.85	-44.3	-45.5	26.0	6.05e-01	0	43	0	544210944	60	4074
2026-01-25 13:35:29.74	270.22	21.86	-44.3	-45.5	26.0	6.06e-01	0	43	0	546308096	60	4064
2026-01-25 13:35:30.73	270.52	21.87	-44.4	-45.6	25.8	6.07e-01	0	43	0	547880960	60	4140
2026-01-25 13:35:31.72	270.83	21.88	-44.6	-45.9	25.7	6.07e-01	0	43	0	549978112	60	4249
2026-01-25 13:35:32.71	271.14	21.89	-44.5	-45.7	25.8	6.05e-01	0	43	0	552075264	60	4173
2026-01-25 13:35:33.70	271.45	21.90	-44.3	-45.5	26.0	6.06e-01	0	43	0	553648128	60	4078
2026-01-25 13:35:34.69	271.76	21.91	-44.2	-45.4	26.1	6.04e-01	0	43	0	555745280	60	4026
2026-01-25 13:35:35.69	272.07	21.92	-44.4	-45.6	26.0	6.05e-01	0	43	0	557318144	60	4099
2026-01-25 13:35:36.67	272.38	21.92	-44.4	-45.6	25.9	6.06e-01	0	43	0	558891008	60	4129
2026-01-25 13:35:37.67	272.69	21.93	-44.5	-45.7	25.9	6.05e-01	0	43	0	560988160	60	4154
2026-01-25 13:35:38.65	273.00	21.93	-44.3	-45.5	26.1	6.05e-01	0	43	0	563085312	60	4079
2026-01-25 13:35:39.64	273.31	21.94	-44.4	-45.6	25.9	6.06e-01	0	43	0	564658176	60	4141
2026-01-25 13:35:40.63	273.62	21.94	-44.5	-45.6	25.9	6.04e-01	0	43	0	566755328	60	4142
2026-01-25 13:35:41.62	273.93	21.94	-44.4	-45.5	26.0	6.05e-01	0	43	0	568328192	60	4085
2026-01-25 13:35:42.61	274.24	21.94	-44.4	-45.5	26.0	6.04e-01	0	43	0	570425344	60	4092
2026-01-25 13:35:43.60	274.55	21.95	-44.5	-45.7	25.9	6.06e-01	0	43	0	572522496	60	4184
2026-01-25 13:35:44.59	274.86	21.95	-44.5	-45.7	25.9	6.05e-01	0	43	0	574095360	60	4152
2026-01-25 13:35:45.59	275.17	21.94	-44.3	-45.5	26.1	6.04e-01	0	43	0	575668224	60	4059
2026-01-25 13:35:46.59	275.48	21.94	-44.3	-45.5	26.1	6.05e-01	0	43	0	577765376	60	4070
2026-01-25 13:35:47.58	275.79	21.94	-44.4	-45.5	26.0	6.03e-01	0	43	0	579338240	60	4086
2026-01-25 13:35:48.57	276.10	21.94	-44.4	-45.6	25.9	6.04e-01	0	43	0	581435392	60	4133
2026-01-25 13:35:49.56	276.41	21.93	-44.6	-45.8	25.8	6.07e-01	0	43	0	583532544	60	4204
2026-01-25 13:35:50.55	276.72	21.93	-44.4	-45.6	25.9	6.06e-01	0	43	0	585105408	60	4099
2026-01-25 13:35:51.54	277.03	21.92	-44.3	-45.5	26.0	6.04e-01	0	43	0	587202560	60	4072
2026-01-25 13:35:52.53	277.34	21.92	-44.5	-45.7	25.9	6.05e-01	0	43	0	588775424	60	4164
2026-01-25 13:35:53.53	277.65	21.91	-44.4	-45.6	26.0	6.05e-01	0	43	0	590872576	60	4113
2026-01-25 13:35:54.51	277.96	21.90	-44.4	-45.6	26.0	6.04e-01	0	43	0	592969728	60	4104
2026-01-25 13:35:55.50	278.27	21.89	-44.5	-45.6	25.9	6.03e-01	0	43	0	594542592	60	4142
2026-01-25 13:35:56.49	278.57	21.88	-44.4	-45.5	26.0	6.05e-01	0	43	0	596639744	60	4087
2026-01-25 13:35:57.48	278.88	21.87	-44.4	-45.5	26.0	6.06e-01	0	43	0	598212608	60	4093
2026-01-25 13:35:58.47	279.19	21.86	-44.5	-45.6	25.9	6.06e-01	0	43	0	599785472	60	4141
2026-01-25 13:35:59.47	279.50	21.85	-44.3	-45.4	26.2	6.05e-01	0	43	0	601882624	60	4043
2026-01-25 13:36:00.46	279.81	21.83	-44.3	-45.5	26.1	6.02e-01	0	43	0	603979776	60	4053
2026-01-25 13:36:01.45	280.12	21.82	-44.4	-45.6	26.1	6.07e-01	0	43	0	605552640	60	4109
2026-01-25 13:36:02.44	280.42	21.81	-44.5	-45.7	26.0	6.04e-01	0	43	0	607649792	60	4163
2026-01-25 13:36:03.43	280.73	21.79	-44.4	-45.6	26.0	6.05e-01	0	43	0	609222656	60	4126
2026-01-25 13:36:04.42	281.04	21.78	-44.4	-45.6	26.1	6.06e-01	0	43	0	611319808	60	4117
2026-01-25 13:36:05.40	281.34	21.76	-44.3	-45.5	26.1	6.04e-01	0	43	0	612892672	60	4082
2026-01-25 13:36:06.40	281.65	21.74	-44.3	-45.5	26.2	6.05e-01	0	43	0	614989824	60	4074
2026-01-25 13:36:07.39	281.95	21.72	-44.4	-45.5	26.1	6.05e-01	0	43	0	616562688	60	4092
2026-01-25 13:36:08.38	282.26	21.70	-44.4	-45.6	26.1	6.05e-01	0	43	0	618659840	60	4111
2026-01-25 13:36:09.38	282.57	21.68	-44.2	-45.4	26.3	6.04e-01	0	43	0	620232704	60	4019
2026-01-25 13:36:10.36	282.87	21.66	-44.4	-45.6	26.1	6.06e-01	0	43	0	622329856	60	4105
2026-01-25 13:36:11.36	283.17	21.64	-44.4	-45.6	26.0	6.05e-01	0	43	0	624427008	60	4125
2026-01-25 13:36:12.35	283.48	21.62	-44.3	-45.5	26.1	6.04e-01	0	43	0	625999872	60	4080
2026-01-25 13:36:13.34	283.78	21.60	-44.4	-45.5	26.0	6.06e-01	0	43	0	628097024	60	4098
2026-01-25 13:36:14.33	284.08	21.57	-44.3	-45.4	26.2	6.03e-01	0	43	0	629669888	60	4038
2026-01-25 13:36:15.32	284.38	21.55	-44.3	-45.5	26.1	6.05e-01	0	43	0	631767040	60	4064
2026-01-25 13:36:16.31	284.69	21.52	-44.5	-45.6	26.0	6.06e-01	0	43	0	633339904	60	4139
2026-01-25 13:36:17.30	284.99	21.50	-44.3	-45.5	26.2	6.04e-01	0	43	0	635437056	60	4067
2026-01-25 13:36:18.28	285.28	21.47	-44.4	-45.5	26.2	6.06e-01	0	43	0	637009920	60	4086
2026-01-25 13:36:19.27	285.58	21.44	-44.3	-45.5	26.2	6.07e-01	0	43	0	639107072	60	4066
2026-01-25 13:36:20.25	285.88	21.41	-44.3	-45.4	26.2	6.05e-01	0	43	0	640679936	60	4036
2026-01-25 13:36:21.24	286.18	21.39	-44.3	-45.4	26.2	6.05e-01	0	43	0	642777088	60	4040
2026-01-25 13:36:22.23	286.48	21.36	-44.3	-45.5	26.2	6.03e-01	0	43	0	644874240	60	4083
2026-01-25 13:36:23.22	286.77	21.33	-44.4	-45.6	26.1	6.04e-01	0	43	0	646447104	60	4107
2026-01-25 13:36:24.21	287.07	21.29	-44.4	-45.5	26.2	6.07e-01	0	43	0	648544256	60	4086
2026-01-25 13:36:25.19	287.36	21.26	-44.3	-45.5	26.2	6.06e-01	0	43	0	650117120	60	4078
2026-01-25 13:36:26.18	287.66	21.23	-44.4	-45.5	26.1	6.06e-01	0	43	0	652214272	60	4088
2026-01-25 13:36:27.17	287.95	21.20	-44.1	-45.3	26.3	6.05e-01	0	43	0	653787136	60	3971
2026-01-25 13:36:28.16	288.25	21.16	-44.2	-45.3	26.3	6.06e-01	0	43	0	655884288	60	3990
2026-01-25 13:36:29.15	288.54	21.13	-44.3	-45.4	26.2	6.04e-01	0	43	0	657457152	60	4036
2026-01-25 13:36:30.14	288.83	21.09	-44.5	-45.7	26.0	6.05e-01	0	43	0	659554304	60	4154
2026-01-25 13:36:31.13	289.13	21.06	-44.3	-45.4	26.2	6.07e-01	0	43	0	661127168	60	4037
2026-01-25 13:36:32.12	289.42	21.02	-44.1	-45.2	26.4	6.06e-01	0	43	0	663224320	60	3939
2026-01-25 13:36:33.12	289.71	20.98	-44.2	-45.3	26.4	6.08e-01	0	43	0	665321472	60	4003
2026-01-25 13:36:34.11	290.00	20.95	-44.3	-45.4	26.3	6.03e-01	0	43	0	666894336	60	4043
2026-01-25 13:36:35.10	290.29	20.91	-44.3	-45.4	26.2	6.06e-01	0	43	0	668991488	60	4048
2026-01-25 13:36:36.09	290.58	20.87	-44.3	-45.5	26.2	6.05e-01	0	43	0	670564352	60	4080
2026-01-25 13:36:37.07	290.86	20.83	-44.3	-45.5	26.2	6.05e-01	0	43	0	672137216	60	4078
2026-01-25 13:36:38.06	291.15	20.79	-44.3	-45.5	26.2	6.06e-01	0	43	0	674234368	60	4058
2026-01-25 13:36:39.06	291.44	20.75	-44.4	-45.6	26.2	6.06e-01	0	43	0	676331520	60	4102
2026-01-25 13:36:40.04	291.72	20.71	-44.2	-45.4	26.3	6.03e-01	0	43	0	677904384	60	4033
2026-01-25 13:36:41.04	292.01	20.67	-44.2	-45.3	26.4	6.04e-01	0	43	0	680001536	60	3986
2026-01-25 13:36:42.03	292.29	20.62	-44.2	-45.3	26.4	6.04e-01	0	43	0	681574400	60	4002
2026-01-25 13:36:43.02	292.58	20.58	-44.1	-45.2	26.5	6.06e-01	0	43	0	683671552	60	3952
2026-01-25 13:36:44.01	292.86	20.54	-44.2	-45.3	26.4	6.05e-01	0	43	0	685768704	60	4000
2026-01-25 13:36:45.00	293.14	20.49	-44.2	-45.4	26.3	6.02e-01	0	43	0	687341568	60	4028
2026-01-25 13:36:45.99	293.42	20.45	-44.2	-45.4	26.3	6.01e-01	0	43	0	688914432	60	4029
2026-01-25 13:36:46.99	293.70	20.40	-44.3	-45.4	26.2	6.03e-01	0	43	0	691011584	60	4035
2026-01-25 13:36:47.99	293.98	20.35	-44.2	-45.4	26.3	6.04e-01	0	43	0	692584448	60	4013
2026-01-25 13:36:48.98	294.26	20.31	-44.1	-45.2	26.5	6.03e-01	0	43	0	694681600	60	3949
2026-01-25 13:36:49.97	294.54	20.26	-44.0	-45.2	26.5	6.04e-01	0	43	0	696778752	60	3928
2026-01-25 13:36:50.97	294.82	20.21	-44.1	-45.3	26.4	6.03e-01	0	43	0	698351616	60	3968
2026-01-25 13:36:51.95	295.09	20.16	-44.2	-45.3	26.4	6.02e-01	0	43	0	700448768	60	3998
2026-01-25 13:36:52.95	295.37	20.11	-44.2	-45.3	26.3	6.02e-01	0	43	0	702021632	60	3992
2026-01-25 13:36:53.94	295.64	20.07	-44.1	-45.3	26.4	6.04e-01	0	43	0	704118784	60	3959
2026-01-25 13:36:54.93	295.91	20.02	-44.0	-45.2	26.4	6.04e-01	0	43	0	706215936	60	3926
2026-01-25 13:36:55.93	296.19	19.97	-44.0	-45.2	26.5	6.04e-01	0	43	0	707788800	60	3919
2026-01-25 13:36:56.91	296.45	19.91	-44.1	-45.2	26.4	6.01e-01	0	43	0	709885952	60	3948
2026-01-25 13:36:57.90	296.72	19.86	-44.1	-45.2	26.3	6.02e-01	0	43	0	711458816	59	4169
2026-01-25 13:36:58.89	296.99	19.81	-44.0	-45.1	26.3	6.02e-01	0	43	0	713031680	59	4144
2026-01-25 13:36:59.88	297.26	19.76	-44.0	-45.1	26.4	6.04e-01	0	43	0	715128832	59	4138
2026-01-25 13:37:00.87	297.53	19.71	-44.1	-45.3	26.2	6.02e-01	0	43	0	717225984	59	4203
2026-01-25 13:37:01.85	297.79	19.65	-44.2	-45.3	26.1	6.05e-01	0	43	0	718798848	59	4240
2026-01-25 13:37:02.84	298.05	19.60	-44.0	-45.2	26.2	6.05e-01	0	43	0	720896000	59	4166
2026-01-25 13:37:03.83	298.32	19.55	-44.1	-45.3	26.2	6.00e-01	0	43	0	722468864	59	4197
2026-01-25 13:37:04.82	298.58	19.49	-44.0	-45.1	26.3	6.01e-01	0	43	0	724566016	59	4142
2026-01-25 13:37:05.80	298.84	19.44	-44.1	-45.2	26.2	6.00e-01	0	43	0	726138880	59	4171
2026-01-25 13:37:06.79	299.10	19.38	-44.1	-45.2	26.2	6.02e-01	0	43	0	728236032	59	4176
2026-01-25 13:37:07.78	299.36	19.33	-44.0	-45.1	26.3	6.04e-01	0	43	0	729808896	59	4142
2026-01-25 13:37:08.76	299.62	19.27	-44.1	-45.3	26.2	6.04e-01	0	43	0	731906048	59	4201
2026-01-25 13:37:09.75	299.88	19.21	-43.9	-45.1	26.4	6.03e-01	0	43	0	733478912	59	4099
2026-01-25 13:37:10.74	300.13	19.16	-44.0	-45.1	26.3	6.03e-01	0	43	0	735576064	59	4143
2026-01-25 13:37:11.73	300.39	19.10	-44.1	-45.3	26.3	6.00e-01	0	43	0	737673216	59	4196
2026-01-25 13:37:12.73	300.65	19.04	-44.0	-45.1	26.3	6.01e-01	0	43	0	739246080	59	4125
2026-01-25 13:37:13.71	300.90	18.98	-44.0	-45.2	26.3	6.03e-01	0	43	0	741343232	59	4152
2026-01-25 13:37:14.71	301.15	18.92	-44.0	-45.1	26.4	6.03e-01	0	43	0	742916096	59	4137
2026-01-25 13:37:15.70	301.40	18.87	-44.1	-45.2	26.2	6.03e-01	0	43	0	745013248	59	4175
2026-01-25 13:37:16.68	301.65	18.81	-44.1	-45.3	26.2	6.03e-01	0	43	0	746586112	59	4195
2026-01-25 13:37:17.67	301.90	18.75	-43.9	-45.1	26.3	6.02e-01	0	43	0	748683264	59	4113
2026-01-25 13:37:18.65	302.15	18.69	-44.0	-45.1	26.3	6.04e-01	0	43	0	750256128	59	4126
2026-01-25 13:37:19.64	302.40	18.63	-43.8	-44.9	26.5	6.02e-01	0	43	0	752353280	59	4032
2026-01-25 13:37:20.62	302.64	18.57	-43.8	-45.0	26.5	6.03e-01	0	43	0	753926144	59	4053
2026-01-25 13:37:21.61	302.89	18.51	-43.9	-45.0	26.3	6.04e-01	0	43	0	756023296	59	4098
2026-01-25 13:37:22.59	303.13	18.45	-44.0	-45.2	26.2	6.04e-01	0	43	0	757596160	59	4146
2026-01-25 13:37:23.58	303.37	18.38	-44.1	-45.3	26.2	6.01e-01	0	43	0	759693312	59	4195
2026-01-25 13:37:24.57	303.62	18.32	-44.1	-45.2	26.1	6.04e-01	0	43	0	761266176	59	4186
2026-01-25 13:37:25.56	303.86	18.26	-43.9	-45.1	26.1	6.02e-01	0	43	0	763363328	59	4106
2026-01-25 13:37:26.54	304.10	18.20	-43.9	-45.0	26.0	6.02e-01	0	43	0	765460480	59	4097
2026-01-25 13:37:27.53	304.34	18.14	-43.8	-45.0	26.1	6.02e-01	0	43	0	767033344	59	4052
2026-01-25 13:37:28.52	304.58	18.07	-43.7	-44.9	26.2	6.04e-01	0	43	0	769130496	59	4009
2026-01-25 13:37:29.52	304.82	18.01	-43.8	-44.9	26.1	6.04e-01	0	43	0	770703360	59	4046
2026-01-25 13:37:30.51	305.05	17.95	-43.8	-44.9	26.0	6.01e-01	0	43	0	772800512	59	4039
2026-01-25 13:37:31.50	305.29	17.88	-43.8	-45.0	26.1	6.01e-01	0	43	0	774373376	59	4066
2026-01-25 13:37:32.50	305.52	17.82	-43.9	-45.0	26.0	6.03e-01	0	43	0	776470528	59	4093
2026-01-25 13:37:33.49	305.76	17.75	-43.9	-45.0	26.2	6.02e-01	0	43	0	778043392	59	4073
2026-01-25 13:37:34.49	305.99	17.69	-43.9	-45.1	26.2	6.06e-01	0	43	0	780140544	59	4110
2026-01-25 13:37:35.48	306.22	17.62	-43.8	-45.0	26.4	6.04e-01	0	43	0	781713408	59	4065
2026-01-25 13:37:36.48	306.46	17.56	-43.9	-45.0	26.3	6.02e-01	0	43	0	783810560	59	4083
2026-01-25 13:37:37.48	306.69	17.49	-43.9	-45.0	26.3	6.04e-01	0	43	0	785907712	59	4072
2026-01-25 13:37:38.48	306.92	17.42	-43.8	-44.9	26.4	6.02e-01	0	43	0	787480576	59	4047
2026-01-25 13:37:39.46	307.14	17.36	-43.7	-44.8	26.5	6.05e-01	0	43	0	789577728	59	4000
2026-01-25 13:37:40.46	307.37	17.29	-43.7	-44.9	26.5	6.04e-01	0	43	0	791150592	59	4007
2026-01-25 13:37:41.44	307.60	17.23	-43.8	-44.9	26.4	6.03e-01	0	43	0	793247744	59	4047
2026-01-25 13:37:42.43	307.82	17.16	-43.8	-44.9	26.4	6.04e-01	0	43	0	794820608	59	4041
2026-01-25 13:37:43.42	308.04	17.09	-43.8	-45.0	26.4	6.02e-01	0	43	0	796917760	59	4069
2026-01-25 13:37:44.42	308.27	17.03	-43.8	-45.0	26.3	6.03e-01	0	43	0	799014912	59	4055
2026-01-25 13:37:45.40	308.49	16.96	-43.8	-45.0	26.3	6.03e-01	0	43	0	800587776	59	4052
2026-01-25 13:37:46.40	308.71	16.89	-43.8	-45.0	26.3	6.02e-01	0	43	0	802684928	59	4058
2026-01-25 13:37:47.38	308.93	16.83	-43.9	-45.1	26.2	6.03e-01	0	43	0	804257792	59	4108
2026-01-25 13:37:48.36	309.14	16.76	-43.9	-45.0	26.2	6.03e-01	0	43	0	805830656	59	4094
2026-01-25 13:37:49.35	309.36	16.69	-43.9	-45.1	26.2	6.02e-01	0	43	0	807927808	59	4105
2026-01-25 13:37:50.35	309.58	16.62	-43.9	-45.0	26.2	6.00e-01	0	43	0	810024960	59	4079
2026-01-25 13:37:51.35	309.79	16.55	-43.7	-44.9	26.3	6.02e-01	0	43	0	811597824	59	4018
2026-01-25 13:37:52.34	310.01	16.49	-43.8	-45.0	26.2	6.02e-01	0	43	0	813694976	59	4063
2026-01-25 13:37:53.32	310.22	16.42	-43.8	-44.9	26.3	6.02e-01	0	43	0	815267840	59	4039
2026-01-25 13:37:54.31	310.43	16.35	-43.9	-45.0	26.2	6.03e-01	0	43	0	817364992	59	4077
2026-01-25 13:37:55.30	310.64	16.28	-43.9	-45.0	26.3	6.04e-01	0	43	0	819462144	59	4086
2026-01-25 13:37:56.29	310.85	16.21	-43.9	-45.0	26.3	6.04e-01	0	43	0	821035008	59	4072
2026-01-25 13:37:57.28	311.06	16.14	-43.8	-45.0	26.3	6.04e-01	0	43	0	822607872	59	4057
2026-01-25 13:37:58.27	311.27	16.07	-43.8	-44.9	26.3	6.02e-01	0	43	0	824705024	59	4045
2026-01-25 13:37:59.26	311.48	16.01	-43.8	-45.0	26.3	6.01e-01	0	43	0	826277888	59	4061
2026-01-25 13:38:00.26	311.68	15.94	-43.8	-45.0	26.3	6.02e-01	0	43	0	828375040	59	4064
2026-01-25 13:38:01.25	311.89	15.87	-43.9	-45.0	26.2	6.01e-01	0	43	0	830472192	59	4079
2026-01-25 13:38:02.25	312.10	15.80	-43.8	-45.0	26.2	6.02e-01	0	43	0	832045056	59	4058
2026-01-25 13:38:03.25	312.30	15.73	-43.7	-44.8	26.4	6.01e-01	0	43	0	834142208	59	3974
2026-01-25 13:38:04.24	312.50	15.66	-43.6	-44.8	26.4	6.02e-01	0	43	0	835715072	59	3967
2026-01-25 13:38:05.23	312.70	15.59	-43.7	-44.8	26.3	6.03e-01	0	43	0	837812224	59	4002
2026-01-25 13:38:06.23	312.91	15.52	-43.8	-44.9	26.2	6.04e-01	0	43	0	839385088	59	4045
2026-01-25 13:38:07.22	313.10	15.45	-43.8	-44.9	26.2	6.02e-01	0	43	0	841482240	59	4040
2026-01-25 13:38:08.21	313.30	15.38	-43.8	-45.0	26.2	6.03e-01	0	43	0	843579392	59	4054
2026-01-25 13:38:09.21	313.50	15.31	-43.7	-44.9	26.3	6.03e-01	0	43	0	845152256	59	4020
2026-01-25 13:38:10.20	313.70	15.24	-43.8	-44.9	26.2	6.03e-01	0	43	0	847249408	59	4050
2026-01-25 13:38:11.19	313.89	15.16	-43.7	-44.9	26.2	6.03e-01	0	43	0	848822272	59	4015
2026-01-25 13:38:12.18	314.09	15.09	-43.8	-45.0	26.1	6.01e-01	0	43	0	850919424	59	4060
2026-01-25 13:38:13.17	314.28	15.02	-43.8	-44.9	26.1	6.04e-01	0	43	0	852492288	59	4023
2026-01-25 13:38:14.17	314.48	14.95	-43.7	-44.8	26.1	5.99e-01	0	43	0	854589440	59	4001
2026-01-25 13:38:15.16	314.67	14.88	-43.7	-44.8	26.2	6.03e-01	0	43	0	856162304	59	3980
2026-01-25 13:38:16.14	314.86	14.81	-43.8	-44.9	26.1	6.04e-01	0	43	0	858259456	59	4027
2026-01-25 13:38:17.13	315.04	14.74	-43.7	-44.9	26.1	6.02e-01	0	43	0	859832320	59	4022
2026-01-25 13:38:18.12	315.23	14.67	-43.8	-45.0	26.1	6.03e-01	0	43	0	861929472	59	4055
2026-01-25 13:38:19.12	315.42	14.60	-43.7	-44.9	26.1	6.02e-01	0	43	0	864026624	59	4010
2026-01-25 13:38:20.12	315.61	14.53	-43.8	-44.9	26.0	6.04e-01	0	43	0	865599488	59	4039
2026-01-25 13:38:21.10	315.80	14.46	-43.7	-44.8	26.0	6.02e-01	0	43	0	867696640	59	3992
2026-01-25 13:38:22.10	315.98	14.39	-43.8	-44.9	26.0	6.02e-01	0	43	0	869269504	59	4051
2026-01-25 13:38:23.09	316.17	14.32	-43.8	-44.9	25.9	6.02e-01	0	43	0	871366656	59	4038
2026-01-25 13:38:24.07	316.35	14.25	-43.8	-44.9	26.0	6.03e-01	0	43	0	872939520	59	4048
2026-01-25 13:38:25.06	316.53	14.18	-43.8	-45.0	25.9	6.01e-01	0	43	0	875036672	59	4052
2026-01-25 13:38:26.06	316.71	14.10	-43.8	-45.0	26.0	6.01e-01	0	43	0	876609536	59	4052
2026-01-25 13:38:27.05	316.89	14.03	-43.8	-45.0	25.9	6.04e-01	0	43	0	878706688	59	4055
2026-01-25 13:38:28.03	317.07	13.96	-43.8	-45.0	25.9	6.03e-01	0	43	0	880279552	59	4069
2026-01-25 13:38:29.03	317.25	13.89	-43.8	-45.0	25.9	6.03e-01	0	43	0	882376704	59	4055
2026-01-25 13:38:30.02	317.43	13.82	-43.8	-45.0	26.1	6.04e-01	0	43	0	884473856	59	4052
2026-01-25 13:38:31.01	317.61	13.75	-43.8	-45.0	26.0	6.05e-01	0	43	0	886046720	59	4063
2026-01-25 13:38:32.02	317.79	13.68	-43.8	-45.0	25.9	6.04e-01	0	43	0	888143872	59	4079
2026-01-25 13:38:33.01	317.96	13.61	-43.9	-45.1	25.8	6.01e-01	0	43	0	889716736	59	4100
2026-01-25 13:38:34.01	318.14	13.53	-43.8	-44.9	26.0	6.03e-01	0	43	0	891813888	59	4046
2026-01-25 13:38:35.00	318.31	13.46	-43.9	-45.0	25.7	6.04e-01	0	43	0	893386752	59	4093
2026-01-25 13:38:35.99	318.48	13.39	-43.9	-45.1	25.7	6.05e-01	0	43	0	895483904	59	4122
2026-01-25 13:38:36.98	318.65	13.32	-43.9	-45.0	25.7	6.03e-01	0	43	0	897056768	59	4098
2026-01-25 13:38:37.97	318.82	13.25	-43.7	-44.9	25.9	6.03e-01	0	43	0	899153920	59	4030
2026-01-25 13:38:38.96	318.99	13.18	-43.8	-45.0	25.9	6.02e-01	0	43	0	900726784	59	4066
2026-01-25 13:38:39.95	319.16	13.11	-43.9	-45.1	25.7	6.02e-01	0	43	0	902823936	59	4130
2026-01-25 13:38:40.95	319.33	13.04	-43.9	-45.1	25.6	6.03e-01	0	43	0	904921088	59	4120
2026-01-25 13:38:41.94	319.50	12.97	-44.0	-45.1	25.6	6.04e-01	0	43	0	906493952	59	4133
2026-01-25 13:38:42.94	319.67	12.89	-44.0	-45.1	25.6	6.02e-01	0	43	0	908591104	59	4140
2026-01-25 13:38:43.93	319.83	12.82	-44.0	-45.1	25.6	6.02e-01	0	43	0	910163968	59	4130
2026-01-25 13:38:44.94	320.00	12.75	-44.0	-45.2	25.7	6.03e-01	0	43	0	912261120	59	4172
2026-01-25 13:38:45.93	320.17	12.68	-43.9	-45.1	25.7	6.03e-01	0	43	0	913833984	59	4133
2026-01-25 13:38:46.93	320.33	12.61	-44.0	-45.2	25.6	6.02e-01	0	43	0	915931136	59	4184
2026-01-25 13:38:47.91	320.49	12.54	-44.1	-45.3	25.7	6.04e-01	0	43	0	918028288	59	4211
2026-01-25 13:38:48.91	320.66	12.47	-44.0	-45.2	25.7	6.04e-01	0	43	0	919601152	59	4176
2026-01-25 13:38:49.89	320.81	12.40	-44.1	-45.2	25.6	6.01e-01	0	43	0	921698304	59	4187
2026-01-25 13:38:50.89	320.98	12.33	-44.0	-45.2	25.7	6.04e-01	0	43	0	923271168	59	4175
2026-01-25 13:38:51.88	321.13	12.26	-44.0	-45.2	25.7	6.02e-01	0	43	0	925368320	59	4151
2026-01-25 13:38:52.87	321.29	12.19	-44.1	-45.3	25.7	6.03e-01	0	43	0	926941184	59	4208
2026-01-25 13:38:53.86	321.45	12.12	-44.0	-45.2	25.8	6.03e-01	0	43	0	929038336	59	4171
2026-01-25 13:38:54.85	321.61	12.05	-44.1	-45.3	25.6	6.04e-01	0	43	0	930611200	59	4228
2026-01-25 13:38:55.85	321.77	11.97	-44.1	-45.3	25.6	6.02e-01	0	43	0	932708352	59	4217
2026-01-25 13:38:56.84	321.92	11.90	-44.0	-45.2	25.7	6.03e-01	0	43	0	934281216	59	4181
2026-01-25 13:38:57.83	322.07	11.83	-44.1	-45.3	25.7	6.04e-01	0	43	0	936378368	59	4219
2026-01-25 13:38:58.82	322.23	11.76	-44.1	-45.3	25.6	6.03e-01	0	43	0	938475520	59	4203
2026-01-25 13:38:59.81	322.38	11.69	-44.0	-45.2	25.8	6.02e-01	0	43	0	940048384	59	4156
2026-01-25 13:39:00.81	322.54	11.62	-44.0	-45.2	25.8	6.03e-01	0	43	0	942145536	59	4182
2026-01-25 13:39:01.81	322.69	11.55	-44.2	-45.4	25.8	6.00e-01	0	43	0	943718400	59	4243
2026-01-25 13:39:02.80	322.84	11.48	-44.2	-45.4	25.6	6.02e-01	0	43	0	945815552	59	4276
2026-01-25 13:39:03.79	322.99	11.41	-44.1	-45.3	25.8	6.00e-01	0	43	0	947388416	59	4219
2026-01-25 13:39:04.79	323.14	11.34	-44.1	-45.3	25.8	6.02e-01	0	43	0	949485568	59	4218
2026-01-25 13:39:05.77	323.29	11.27	-44.1	-45.3	25.7	6.06e-01	0	43	0	951058432	59	4238
2026-01-25 13:39:06.77	323.44	11.20	-44.3	-45.5	25.6	6.02e-01	0	43	0	953155584	59	4298
2026-01-25 13:39:07.76	323.58	11.13	-44.3	-45.6	25.5	6.00e-01	0	43	0	954728448	59	4351
2026-01-25 13:39:08.75	323.73	11.06	-44.4	-45.6	25.4	6.02e-01	0	43	0	956825600	59	4374
2026-01-25 13:39:09.74	323.87	10.99	-44.3	-45.5	25.5	6.01e-01	0	43	0	958922752	59	4332
2026-01-25 13:39:10.74	324.02	10.92	-44.4	-45.6	25.4	6.02e-01	0	43	0	960495616	59	4362
2026-01-25 13:39:11.73	324.16	10.85	-44.5	-45.7	25.3	6.02e-01	0	43	0	962592768	59	4441
2026-01-25 13:39:12.73	324.31	10.78	-44.4	-45.7	25.3	6.04e-01	0	43	0	964165632	59	4400
2026-01-25 13:39:13.72	324.45	10.71	-44.2	-45.5	25.4	6.03e-01	0	43	0	966262784	59	4294
2026-01-25 13:39:14.71	324.59	10.64	-44.3	-45.5	25.5	6.04e-01	0	43	0	967835648	59	4310
2026-01-25 13:39:15.70	324.73	10.58	-44.3	-45.5	25.4	6.02e-01	0	43	0	969932800	59	4313
2026-01-25 13:39:16.69	324.88	10.51	-44.3	-45.6	25.3	6.02e-01	0	43	0	971505664	59	4349
2026-01-25 13:39:17.68	325.01	10.44	-44.1	-45.3	25.5	6.05e-01	0	43	0	973602816	59	4242
2026-01-25 13:39:18.68	325.16	10.37	-44.2	-45.5	25.3	6.05e-01	0	43	0	975175680	59	4294
2026-01-25 13:39:19.67	325.29	10.30	-44.3	-45.5	25.3	6.04e-01	0	43	0	977272832	59	4311
2026-01-25 13:39:20.66	325.43	10.23	-44.4	-45.6	25.3	6.02e-01	0	43	0	979369984	59	4383
2026-01-25 13:39:21.66	325.57	10.16	-44.4	-45.6	25.2	6.01e-01	0	43	0	980942848	59	4367
2026-01-25 13:39:22.65	325.71	10.09	-44.4	-45.7	25.2	6.01e-01	0	43	0	983040000	59	4393
2026-01-25 13:39:23.64	325.84	10.02	-44.3	-45.5	25.3	6.02e-01	0	43	0	984612864	59	4328
2026-01-25 13:39:24.63	325.98	9.96	-44.4	-45.7	25.2	6.03e-01	0	43	0	986710016	59	4392
2026-01-25 13:39:25.63	326.11	9.89	-44.3	-45.6	25.3	6.01e-01	0	43	0	988282880	59	4348
2026-01-25 13:39:26.62	326.25	9.82	-44.6	-45.9	25.0	6.02e-01	0	43	0	990380032	59	4504
2026-01-25 13:39:27.61	326.38	9.75	-44.5	-45.8	25.2	6.01e-01	0	43	0	992477184	59	4469
2026-01-25 13:39:28.61	326.51	9.68	-44.5	-45.7	25.2	6.03e-01	0	43	0	994050048	60	4187
2026-01-25 13:39:29.60	326.65	9.61	-44.6	-45.9	25.2	6.04e-01	0	43	0	996147200	60	4261
2026-01-25 13:39:30.59	326.78	9.55	-44.4	-45.7	25.2	6.02e-01	0	43	0	997720064	60	4173
2026-01-25 13:39:31.59	326.91	9.48	-44.5	-45.7	25.2	6.06e-01	0	43	0	999817216	60	4174
2026-01-25 13:39:32.59	327.04	9.41	-44.4	-45.6	25.3	6.01e-01	0	43	0	1001390080	60	4135
2026-01-25 13:39:33.57	327.17	9.34	-44.6	-45.9	25.1	6.05e-01	0	43	0	1003487232	60	4254
2026-01-25 13:39:34.56	327.30	9.27	-44.6	-45.9	25.2	6.04e-01	0	43	0	1005060096	60	4272
2026-01-25 13:39:35.56	327.43	9.21	-44.5	-45.8	25.2	6.03e-01	0	43	0	1007157248	60	4213
2026-01-25 13:39:36.56	327.56	9.14	-44.7	-46.0	25.0	6.03e-01	0	43	0	1008730112	60	4325
2026-01-25 13:39:37.56	327.68	9.07	-44.6	-45.9	25.0	5.99e-01	0	43	0	1010827264	60	4279
2026-01-25 13:39:38.55	327.81	9.00	-44.7	-46.0	24.9	6.02e-01	0	43	0	1012924416	60	4315
2026-01-25 13:39:39.54	327.94	8.94	-44.7	-46.0	24.9	6.03e-01	0	43	0	1014497280	60	4325
2026-01-25 13:39:40.54	328.06	8.87	-44.6	-45.9	25.0	6.01e-01	0	43	0	1016594432	60	4266
2026-01-25 13:39:41.53	328.19	8.80	-44.7	-45.9	24.9	6.04e-01	0	43	0	1018167296	60	4290
2026-01-25 13:39:42.52	328.31	8.73	-44.7	-46.0	24.8	6.03e-01	0	43	0	1020264448	60	4333
2026-01-25 13:39:43.52	328.43	8.67	-44.8	-46.1	24.8	6.02e-01	0	43	0	1021837312	60	4346
2026-01-25 13:39:44.51	328.56	8.60	-44.5	-45.8	25.0	6.06e-01	0	43	0	1023934464	60	4201
2026-01-25 13:39:45.50	328.68	8.53	-44.4	-45.6	25.3	6.02e-01	0	43	0	1026031616	60	4135
2026-01-25 13:39:46.50	328.80	8.47	-44.5	-45.7	25.1	6.01e-01	0	43	0	1027604480	60	4170
2026-01-25 13:39:47.50	328.92	8.40	-44.5	-45.8	25.0	6.04e-01	0	43	0	1029701632	60	4214
2026-01-25 13:39:48.50	329.05	8.33	-44.6	-45.8	25.0	6.01e-01	0	43	0	1031274496	60	4238
2026-01-25 13:39:49.48	329.16	8.27	-44.7	-46.0	24.9	6.02e-01	0	43	0	1033371648	60	4331
2026-01-25 13:39:50.48	329.28	8.20	-44.5	-45.8	25.0	6.04e-01	0	43	0	1034944512	60	4216
2026-01-25 13:39:51.47	329.40	8.13	-44.7	-46.0	24.9	6.02e-01	0	43	0	1037041664	60	4324
2026-01-25 13:39:52.46	329.52	8.07	-44.6	-45.9	25.0	6.02e-01	0	43	0	1038614528	60	4275
2026-01-25 13:39:53.46	329.64	8.00	-44.8	-46.1	24.8	6.03e-01	0	43	0	1040711680	60	4364
2026-01-25 13:39:54.46	329.76	7.94	-44.8	-46.1	24.8	6.02e-01	0	43	0	1042284544	60	4359
2026-01-25 13:39:55.46	329.88	7.87	-44.9	-46.2	24.6	6.02e-01	0	43	0	1044381696	60	4421
2026-01-25 13:39:56.45	329.99	7.80	-44.9	-46.3	24.7	6.04e-01	0	43	0	1046478848	60	4448
2026-01-25 13:39:57.45	330.11	7.74	-44.9	-46.3	24.5	6.04e-01	0	43	0	1048051712	60	4452
2026-01-25 13:39:58.44	330.22	7.67	-44.9	-46.3	24.5	6.05e-01	0	43	0	1050148864	60	4462
2026-01-25 13:39:59.44	330.34	7.61	-45.0	-46.4	24.5	6.02e-01	0	43	0	1051721728	60	4510
2026-01-25 13:40:00.44	330.45	7.54	-45.1	-46.5	24.4	6.04e-01	0	43	0	1053818880	60	4554
2026-01-25 13:40:01.43	330.57	7.48	-44.9	-46.2	24.6	6.04e-01	0	43	0	1055391744	60	4430
2026-01-25 13:40:02.43	330.68	7.41	-45.1	-46.4	24.4	6.04e-01	0	43	0	1057488896	60	4536
2026-01-25 13:40:03.42	330.79	7.34	-45.4	-46.8	24.1	6.05e-01	0	43	0	1059586048	61	4449
2026-01-25 13:40:04.42	330.90	7.28	-45.2	-46.5	24.4	6.01e-01	0	43	0	1061158912	61	4322
2026-01-25 13:40:05.41	331.02	7.21	-45.2	-46.5	24.3	6.02e-01	0	43	0	1063256064	61	4336
2026-01-25 13:40:06.41	331.13	7.15	-45.1	-46.5	24.3	6.03e-01	0	43	0	1064828928	61	4316
2026-01-25 13:40:07.40	331.24	7.09	-45.3	-46.6	24.2	6.01e-01	0	43	0	1066926080	61	4388
2026-01-25 13:40:08.39	331.35	7.02	-45.2	-46.5	24.3	6.01e-01	0	43	0	1068498944	61	4336
2026-01-25 13:40:09.39	331.46	6.96	-45.2	-46.5	24.3	6.02e-01	0	43	0	1070596096	61	4336
2026-01-25 13:40:10.38	331.57	6.89	-45.3	-46.8	24.1	6.04e-01	0	43	0	1072168960	61	4442
2026-01-25 13:40:11.38	331.67	6.83	-45.3	-46.7	24.1	6.03e-01	0	43	0	1074266112	61	4424
2026-01-25 13:40:12.37	331.78	6.76	-45.4	-46.8	23.9	6.03e-01	0	43	0	1075838976	61	4489
2026-01-25 13:40:13.37	331.89	6.70	-45.0	-46.3	24.4	6.03e-01	0	43	0	1077936128	61	4218
2026-01-25 13:40:14.37	332.00	6.63	-45.1	-46.5	24.2	6.02e-01	0	43	0	1080033280	61	4310
2026-01-25 13:40:15.36	332.10	6.57	-45.2	-46.5	24.2	6.04e-01	0	43	0	1081606144	61	4329
2026-01-25 13:40:16.35	332.21	6.51	-45.2	-46.5	24.2	6.02e-01	0	43	0	1083703296	61	4324
2026-01-25 13:40:17.35	332.32	6.44	-45.0	-46.4	24.4	6.02e-01	0	43	0	1085276160	61	4260
2026-01-25 13:40:18.33	332.42	6.38	-45.0	-46.3	24.4	6.02e-01	0	43	0	1087373312	61	4239
2026-01-25 13:40:19.32	332.52	6.32	-45.3	-46.6	24.2	6.03e-01	0	43	0	1088946176	61	4379
2026-01-25 13:40:20.32	332.63	6.25	-45.9	-47.3	23.4	6.02e-01	0	43	0	1091043328	62	4490
2026-01-25 13:40:21.30	332.73	6.19	-45.4	-46.8	23.9	6.03e-01	0	43	0	1093140480	62	4222
2026-01-25 13:40:22.29	332.83	6.13	-45.1	-46.5	24.1	6.03e-01	0	43	0	1094713344	62	4082
2026-01-25 13:40:23.28	332.94	6.07	-45.4	-46.8	23.9	6.04e-01	0	43	0	1096286208	62	4216
2026-01-25 13:40:24.28	333.04	6.00	-45.6	-47.0	23.7	6.05e-01	0	43	0	1098383360	62	4332
2026-01-25 13:40:25.27	333.14	5.94	-45.6	-47.0	23.7	6.03e-01	0	43	0	1100480512	62	4327
2026-01-25 13:40:26.26	333.24	5.88	-45.3	-46.7	23.9	6.03e-01	0	43	0	1102053376	62	4175
2026-01-25 13:40:27.25	333.34	5.81	-45.1	-46.5	24.3	6.01e-01	0	43	0	1104150528	62	4066
2026-01-25 13:40:28.24	333.44	5.75	-45.5	-47.0	23.8	6.01e-01	0	43	0	1105723392	62	4311
2026-01-25 13:40:29.22	333.54	5.69	-45.5	-47.0	23.7	6.02e-01	0	43	0	1107820544	62	4298
2026-01-25 13:40:30.22	333.64	5.63	-46.0	-47.5	23.2	6.04e-01	0	43	0	1109393408	62	4570
2026-01-25 13:40:31.21	333.74	5.57	-45.7	-47.2	23.5	6.03e-01	0	43	0	1111490560	62	4430
2026-01-25 13:40:32.20	333.84	5.50	-45.7	-47.3	23.5	6.03e-01	0	43	0	1113587712	62	4444
2026-01-25 13:40:33.20	333.94	5.44	-45.6	-47.0	23.6	6.04e-01	0	43	0	1115160576	62	4331
2026-01-25 13:40:34.19	334.03	5.38	-45.4	-46.8	23.7	6.01e-01	0	43	0	1117257728	62	4236
2026-01-25 13:40:35.19	334.13	5.32	-45.9	-47.4	23.1	6.02e-01	0	43	0	1118830592	62	4541
2026-01-25 13:40:36.18	334.23	5.26	-45.9	-47.5	22.8	6.02e-01	0	44	0	1120927744	62	4583
2026-01-25 13:40:37.18	334.33	5.19	-45.1	-46.6	23.6	6.03e-01	0	43	0	1122500608	61	4358
2026-01-25 13:40:38.17	334.42	5.13	-45.7	-47.3	22.8	6.04e-01	0	43	0	1124597760	62	4480
2026-01-25 13:40:39.16	334.52	5.07	-46.6	-48.4	21.9	6.03e-01	0	43	0	1126170624	63	4764
2026-01-25 13:40:40.16	334.61	5.01	-47.2	-49.2	20.9	6.04e-01	0	43	0	1128267776	65	4656
2026-01-25 13:40:41.15	334.71	4.95	-54.0	-71.6	3.8	7.47e-01	0	43	104	1129316352	78	29162
2026-01-25 13:40:42.14	334.80	4.89	-54.3	-72.1	3.8	7.47e-01	0	43	104	1129316352	79	29251
2026-01-25 13:40:43.14	334.90	4.83	-54.5	-72.3	3.8	7.44e-01	0	43	104	1129316352	79	29958
2026-01-25 13:40:44.13	334.99	4.77	-54.6	-72.4	3.8	7.46e-01	0	43	104	1129316352	79	30312
2026-01-25 13:40:45.13	335.08	4.70	-54.7	-72.5	3.8	7.46e-01	0	43	104	1129316352	79	30706
2026-01-25 13:40:46.12	335.18	4.64	-54.7	-72.5	3.8	7.45e-01	0	43	104	1129316352	80	28967
2026-01-25 13:40:47.12	335.27	4.58	-54.8	-72.6	3.8	7.45e-01	0	44	104	1129316352	80	29251
2026-01-25 13:40:48.12	335.36	4.52	-54.8	-72.7	3.8	7.46e-01	0	43	104	1129316352	80	29445
2026-01-25 13:40:49.11	335.45	4.46	-54.8	-72.7	3.8	7.46e-01	0	43	104	1129316352	80	29429
2026-01-25 13:40:50.10	335.54	4.40	-54.8	-72.7	3.8	7.45e-01	0	43	104	1129316352	80	29354
2026-01-25 13:40:51.10	335.63	4.34	-54.7	-72.6	3.8	7.42e-01	0	43	104	1129316352	80	29110
2026-01-25 13:40:52.10	335.73	4.28	-54.7	-72.5	3.8	7.48e-01	0	43	104	1129316352	80	28886
2026-01-25 13:40:53.09	335.82	4.22	-54.5	-72.4	3.8	7.45e-01	0	43	104	1129316352	80	28453
2026-01-25 13:40:54.08	335.91	4.16	-54.5	-72.4	3.8	7.48e-01	0	43	104	1129316352	80	28358
2026-01-25 13:40:55.07	335.99	4.10	-54.6	-72.4	3.8	7.46e-01	0	43	104	1129316352	80	28472
2026-01-25 13:40:56.07	336.08	4.04	-54.6	-72.4	3.8	7.46e-01	0	44	104	1129316352	80	28560
2026-01-25 13:40:57.06	336.17	3.98	-54.6	-72.4	3.8	7.48e-01	0	43	104	1129316352	80	28651
2026-01-25 13:40:58.05	336.26	3.92	-54.6	-72.5	3.8	7.47e-01	0	44	104	1129316352	80	28828
2026-01-25 13:40:59.04	336.35	3.86	-54.7	-72.5	3.8	7.45e-01	0	44	104	1129316352	80	28797
2026-01-25 13:41:00.03	336.43	3.80	-54.7	-72.5	3.8	7.46e-01	0	44	104	1129316352	80	28851
2026-01-25 13:41:01.03	336.52	3.74	-54.7	-72.5	3.8	7.47e-01	0	44	104	1129316352	80	28815
2026-01-25 13:41:02.02	336.61	3.69	-54.7	-72.5	3.8	7.46e-01	0	43	104	1129316352	80	28794
2026-01-25 13:41:03.01	336.69	3.63	-54.6	-72.4	3.8	7.50e-01	0	44	104	1129316352	80	28646
2026-01-25 13:41:04.01	336.78	3.57	-54.6	-72.4	3.8	7.44e-01	0	43	104	1129316352	80	28620
2026-01-25 13:41:05.01	336.87	3.51	-54.6	-72.4	3.8	7.43e-01	0	44	104	1129316352	80	28413
2026-01-25 13:41:06.00	336.95	3.45	-54.5	-72.4	3.8	7.45e-01	0	44	104	1129316352	80	28492
2026-01-25 13:41:07.00	337.04	3.39	-54.5	-72.4	3.8	7.47e-01	0	44	104	1129316352	80	28435
2026-01-25 13:41:07.99	337.12	3.33	-54.5	-72.4	3.8	7.47e-01	0	43	104	1129316352	80	28457
2026-01-25 13:41:08.99	337.21	3.27	-54.5	-72.4	3.8	7.44e-01	0	44	104	1129316352	80	28435
2026-01-25 13:41:09.98	337.29	3.21	-54.5	-72.4	3.8	7.45e-01	0	44	104	1129316352	80	28405
2026-01-25 13:41:10.97	337.37	3.16	-54.5	-72.3	3.8	7.47e-01	0	43	104	1129316352	80	28340
2026-01-25 13:41:11.97	337.46	3.10	-54.5	-72.3	3.8	7.43e-01	0	44	104	1129316352	80	28346
2026-01-25 13:41:12.96	337.54	3.04	-54.5	-72.3	3.8	7.47e-01	0	43	104	1129316352	80	28335
2026-01-25 13:41:13.95	337.62	2.98	-54.5	-72.3	3.8	7.43e-01	0	44	104	1129316352	80	28319
2026-01-25 13:41:14.95	337.71	2.92	-54.5	-72.3	3.8	7.46e-01	0	44	104	1129316352	80	28318
2026-01-25 13:41:15.94	337.79	2.87	-54.5	-72.3	3.8	7.44e-01	0	44	104	1129316352	80	28327
2026-01-25 13:41:16.93	337.87	2.81	-54.5	-72.3	3.8	7.45e-01	0	43	104	1129316352	80	28289
2026-01-25 13:41:17.93	337.95	2.75	-54.5	-72.3	3.8	7.47e-01	0	44	104	1129316352	80	28273
2026-01-25 13:41:18.92	338.03	2.69	-54.5	-72.3	3.8	7.46e-01	0	44	104	1129316352	80	28265
2026-01-25 13:41:19.92	338.11	2.63	-54.5	-72.3	3.8	7.46e-01	0	43	104	1129316352	80	28241
2026-01-25 13:41:20.91	338.19	2.58	-54.5	-72.3	3.8	7.44e-01	0	44	104	1129316352	80	28200
