passes_logs/2026/01/25/R3.2S_Murmansk/R3.2S_Murmansk__20260125_021040_AQUA_rec.log

#Pass ID: 20260125_021040_AQUA
#Satellite: AQUA
#Configuration: AQUA
#almurnet v.1.7.20251203
#Start time: 2026-01-25 02:10:42

#Version: 2.2.20231116
#Station: R3.2S_Murmansk
#Location: 33.079688 lon 68.888172 lat
#TLE: 1 27424U 02022A   26024.53919639  .00001970  00000+0  40397-3 0  9996
#TLE: 2 27424  98.4098 351.1277 0001915  66.8561 358.4840 14.61855303262281

#Time	Az	El	Level	Level2	SNR	BER	BlckErr	Temp	State	Recorded	gain1	gain2
2026-01-25 02:10:42.41	23.17	2.11	-53.7	-71.3	3.8	7.46e-01	0	42	0	0	78	28318
2026-01-25 02:10:43.41	23.18	2.18	-53.6	-71.3	3.8	7.46e-01	0	42	104	0	77	29752
2026-01-25 02:10:44.41	23.19	2.24	-53.6	-71.1	3.8	7.46e-01	0	41	104	0	77	29119
2026-01-25 02:10:45.42	23.20	2.31	-53.6	-70.9	3.8	7.45e-01	0	42	104	0	77	28614
2026-01-25 02:10:46.43	23.21	2.38	-53.6	-70.7	3.8	7.46e-01	0	41	104	0	77	27720
2026-01-25 02:10:47.44	23.22	2.45	-53.6	-70.5	3.8	7.44e-01	0	41	104	0	77	27326
2026-01-25 02:10:48.45	23.23	2.51	-53.6	-70.4	3.8	7.44e-01	0	42	104	0	77	26810
2026-01-25 02:10:49.46	23.24	2.58	-53.6	-70.4	3.8	7.43e-01	0	42	104	0	77	26869
2026-01-25 02:10:50.47	23.25	2.65	-53.6	-70.4	3.8	7.47e-01	0	42	104	0	77	26833
2026-01-25 02:10:51.48	23.26	2.72	-53.6	-70.5	3.8	7.48e-01	0	42	104	0	77	27351
2026-01-25 02:10:52.49	23.27	2.79	-53.6	-70.6	3.8	7.45e-01	0	42	104	0	77	27665
2026-01-25 02:10:53.50	23.28	2.86	-53.6	-70.7	3.8	7.44e-01	0	42	104	0	77	28007
2026-01-25 02:10:54.51	23.29	2.93	-53.6	-70.8	3.8	7.44e-01	0	42	104	0	77	28174
2026-01-25 02:10:55.52	23.30	3.00	-53.6	-70.8	3.8	7.43e-01	0	42	104	0	77	28172
2026-01-25 02:10:56.52	23.31	3.06	-53.6	-70.9	3.8	7.43e-01	0	42	104	0	77	28658
2026-01-25 02:10:57.53	23.32	3.13	-53.6	-70.8	3.8	7.45e-01	0	42	104	0	77	28229
2026-01-25 02:10:58.54	23.33	3.20	-53.6	-70.9	3.8	7.46e-01	0	42	104	0	77	28454
2026-01-25 02:10:59.55	23.34	3.27	-53.6	-70.7	3.8	7.43e-01	0	42	104	0	77	27848
2026-01-25 02:11:00.56	23.35	3.34	-53.5	-70.5	3.8	7.46e-01	0	42	104	0	77	27119
2026-01-25 02:11:01.57	23.36	3.41	-53.5	-70.2	3.8	7.45e-01	0	42	104	0	77	26328
2026-01-25 02:11:02.58	23.37	3.48	-53.5	-70.2	3.8	7.47e-01	0	42	104	0	77	26275
2026-01-25 02:11:03.58	23.38	3.55	-53.3	-69.8	3.8	7.46e-01	0	42	104	0	77	25238
2026-01-25 02:11:04.59	23.39	3.63	-53.2	-69.2	3.8	7.43e-01	0	42	104	0	77	23448
2026-01-25 02:11:05.60	23.40	3.70	-52.8	-68.0	3.8	7.43e-01	0	42	104	0	77	20428
2026-01-25 02:11:06.61	23.41	3.77	-52.2	-66.5	3.9	7.41e-01	0	42	104	0	76	18245
2026-01-25 02:11:07.62	23.42	3.84	-51.6	-65.3	3.8	7.43e-01	0	42	104	0	75	16740
2026-01-25 02:11:08.63	23.43	3.91	-51.1	-64.2	3.8	7.42e-01	0	42	104	0	74	15741
2026-01-25 02:11:09.63	23.44	3.98	-49.9	-62.1	3.8	7.45e-01	0	42	104	0	71	14624
2026-01-25 02:11:10.64	23.45	4.05	-49.4	-61.2	3.8	7.46e-01	0	42	104	0	70	13899
2026-01-25 02:11:11.65	23.46	4.13	-48.9	-60.7	3.8	7.45e-01	0	42	104	0	69	14004
2026-01-25 02:11:12.66	23.47	4.20	-47.9	-59.3	3.8	7.43e-01	0	42	104	0	67	13319
2026-01-25 02:11:13.67	23.48	4.27	-48.0	-59.5	3.8	7.46e-01	0	42	104	0	67	13591
2026-01-25 02:11:14.68	23.49	4.35	-46.6	-57.7	3.8	7.45e-01	0	42	104	0	65	12402
2026-01-25 02:11:15.69	23.50	4.42	-46.9	-58.0	3.8	7.43e-01	0	42	104	0	65	12958
2026-01-25 02:11:16.69	23.51	4.49	-47.0	-58.2	3.8	7.45e-01	0	42	104	0	65	13126
2026-01-25 02:11:17.70	23.52	4.57	-46.5	-57.6	3.8	7.46e-01	0	42	104	0	65	12372
2026-01-25 02:11:18.71	23.53	4.64	-46.8	-58.0	3.8	7.46e-01	0	42	104	0	64	13642
2026-01-25 02:11:19.72	23.54	4.71	-47.2	-58.5	3.9	7.45e-01	0	43	104	0	65	13597
2026-01-25 02:11:20.73	23.55	4.79	-47.5	-58.8	3.8	7.48e-01	0	42	104	0	65	14085
2026-01-25 02:11:21.74	23.56	4.86	-48.2	-59.7	3.8	7.40e-01	0	42	104	0	66	14829
2026-01-25 02:11:22.75	23.57	4.94	-48.7	-60.5	3.8	7.40e-01	0	42	104	0	68	14431
2026-01-25 02:11:23.76	23.59	5.01	-49.8	-61.9	3.8	7.45e-01	0	42	104	0	70	15198
2026-01-25 02:11:24.77	23.60	5.09	-46.8	-58.0	3.8	7.45e-01	0	43	104	0	65	12817
2026-01-25 02:11:25.78	23.61	5.16	-46.3	-57.3	3.8	7.45e-01	0	42	104	0	64	12634
2026-01-25 02:11:26.79	23.62	5.24	-53.3	-69.9	3.7	7.49e-01	0	43	104	0	77	25494
2026-01-25 02:11:27.79	23.63	5.32	-47.4	-58.5	3.9	7.45e-01	0	42	104	0	66	12841
2026-01-25 02:11:28.80	23.64	5.39	-48.0	-59.3	3.8	7.45e-01	0	42	104	0	66	14184
2026-01-25 02:11:29.81	23.65	5.47	-46.7	-57.8	3.8	7.43e-01	0	42	104	0	65	12646
2026-01-25 02:11:30.82	23.66	5.55	-46.5	-57.6	3.8	7.45e-01	0	42	104	0	64	13097
2026-01-25 02:11:31.83	23.67	5.62	-46.3	-57.4	3.8	7.43e-01	0	42	104	0	64	12776
2026-01-25 02:11:32.83	23.68	5.70	-48.0	-59.4	3.8	7.45e-01	0	42	104	0	66	14217
2026-01-25 02:11:33.84	23.69	5.78	-46.3	-57.3	3.8	7.47e-01	0	42	104	0	64	12630
2026-01-25 02:11:34.85	23.70	5.85	-53.6	-70.5	3.7	7.47e-01	0	42	104	0	77	27344
2026-01-25 02:11:35.86	23.72	5.93	-48.0	-59.3	3.9	7.43e-01	0	43	104	0	67	13378
2026-01-25 02:11:36.87	23.73	6.01	-49.1	-60.8	3.8	7.46e-01	0	42	104	0	68	15025
2026-01-25 02:11:37.87	23.74	6.09	-46.5	-57.6	3.8	7.43e-01	0	43	104	0	65	12351
2026-01-25 02:11:38.88	23.75	6.17	-46.3	-57.4	3.8	7.43e-01	0	42	104	0	64	12682
2026-01-25 02:11:39.89	23.76	6.25	-46.1	-57.2	3.8	7.44e-01	0	43	104	0	64	12460
2026-01-25 02:11:40.90	23.77	6.33	-46.7	-57.8	3.8	7.45e-01	0	43	104	0	64	13310
2026-01-25 02:11:41.91	23.78	6.41	-46.5	-57.6	3.8	7.42e-01	0	43	104	0	64	13051
2026-01-25 02:11:42.92	23.79	6.49	-53.7	-70.4	3.8	7.45e-01	0	43	104	0	77	27005
2026-01-25 02:11:43.93	23.81	6.57	-47.6	-58.9	3.9	7.44e-01	0	43	104	0	67	12809
2026-01-25 02:11:44.93	23.82	6.65	-49.7	-61.6	3.9	7.47e-01	0	43	104	0	69	15474
2026-01-25 02:11:45.94	23.83	6.73	-46.0	-57.1	3.8	7.44e-01	0	43	104	0	64	12240
2026-01-25 02:11:46.95	23.84	6.81	-46.1	-57.1	3.8	7.42e-01	0	43	104	0	63	12992
2026-01-25 02:11:47.96	23.85	6.89	-46.1	-57.2	3.8	7.46e-01	0	43	104	0	63	13121
2026-01-25 02:11:48.97	23.86	6.97	-48.2	-59.6	3.8	7.43e-01	0	43	104	0	66	14663
2026-01-25 02:11:49.98	23.87	7.05	-46.2	-57.3	3.9	7.45e-01	0	43	104	0	64	12534
2026-01-25 02:11:50.99	23.89	7.14	-53.7	-70.4	3.8	7.43e-01	0	43	104	0	77	26999
2026-01-25 02:11:52.00	23.90	7.22	-47.5	-58.7	3.8	7.42e-01	0	43	104	0	67	12445
2026-01-25 02:11:53.01	23.91	7.30	-49.4	-61.2	3.8	7.45e-01	0	43	104	0	69	14851
2026-01-25 02:11:54.01	23.92	7.38	-46.0	-57.0	3.8	7.45e-01	0	43	104	0	63	12888
2026-01-25 02:11:55.02	23.93	7.47	-46.1	-57.1	3.8	7.47e-01	0	43	104	0	63	13093
2026-01-25 02:11:56.03	23.95	7.55	-46.1	-57.1	3.8	7.49e-01	0	43	104	0	63	12999
2026-01-25 02:11:57.04	23.96	7.63	-46.4	-57.4	3.8	7.45e-01	0	43	104	0	63	13552
2026-01-25 02:11:58.05	23.97	7.72	-46.1	-57.2	3.8	7.46e-01	0	43	104	0	63	13134
2026-01-25 02:11:59.06	23.98	7.80	-53.8	-70.6	3.8	7.41e-01	0	43	104	0	78	26153
2026-01-25 02:12:00.07	23.99	7.89	-47.1	-58.3	3.8	7.47e-01	0	43	104	0	66	12619
2026-01-25 02:12:01.08	24.01	7.97	-49.6	-61.4	3.8	7.44e-01	0	43	104	0	69	15120
2026-01-25 02:12:02.09	24.02	8.06	-46.0	-56.9	3.8	7.43e-01	0	43	104	0	63	12789
2026-01-25 02:12:03.09	24.03	8.14	-45.8	-56.7	3.8	7.44e-01	0	43	104	0	63	12482
2026-01-25 02:12:04.10	24.04	8.23	-45.7	-56.6	3.9	7.43e-01	0	43	104	0	63	12329
2026-01-25 02:12:05.11	24.05	8.32	-48.5	-60.0	3.8	7.44e-01	0	43	104	0	68	13678
2026-01-25 02:12:06.12	24.07	8.40	-45.8	-56.7	3.8	7.45e-01	0	43	104	0	63	12426
2026-01-25 02:12:07.13	24.08	8.49	-53.9	-71.0	3.8	7.44e-01	0	43	104	0	78	27184
2026-01-25 02:12:08.14	24.09	8.58	-46.6	-57.7	3.8	7.47e-01	0	43	104	0	65	12408
2026-01-25 02:12:09.15	24.10	8.67	-49.3	-61.0	3.8	7.40e-01	0	43	104	0	69	14473
2026-01-25 02:12:10.16	24.12	8.76	-45.6	-56.5	3.8	7.42e-01	0	43	104	0	63	12104
2026-01-25 02:12:11.17	24.13	8.84	-45.4	-56.3	3.8	7.44e-01	0	43	104	0	62	12527
2026-01-25 02:12:12.18	24.14	8.93	-45.4	-56.2	3.8	7.43e-01	0	43	104	0	62	12500
2026-01-25 02:12:13.19	24.16	9.02	-47.2	-58.4	3.8	7.45e-01	0	43	104	0	65	13543
2026-01-25 02:12:14.19	24.17	9.11	-45.6	-56.5	3.8	7.45e-01	0	43	104	0	63	12127
2026-01-25 02:12:15.20	24.18	9.20	-54.0	-71.1	3.8	7.45e-01	0	43	104	0	78	27592
2026-01-25 02:12:16.21	24.19	9.29	-46.4	-57.1	3.9	7.44e-01	0	43	104	0	64	12316
2026-01-25 02:12:17.21	24.21	9.38	-48.6	-60.2	3.8	7.44e-01	0	43	104	0	68	13992
2026-01-25 02:12:18.22	24.22	9.47	-45.5	-56.4	3.8	7.43e-01	0	43	104	0	62	12702
2026-01-25 02:12:19.23	24.23	9.56	-45.3	-56.2	3.8	7.47e-01	0	43	104	0	62	12441
2026-01-25 02:12:20.24	24.25	9.66	-45.2	-56.1	3.8	7.45e-01	0	43	104	0	62	12308
2026-01-25 02:12:21.25	24.26	9.75	-47.1	-58.3	3.8	7.45e-01	0	43	104	0	65	13359
2026-01-25 02:12:22.25	24.27	9.84	-45.3	-56.1	3.8	7.44e-01	0	43	104	0	62	12343
2026-01-25 02:12:23.26	24.29	9.93	-53.9	-70.7	3.8	7.47e-01	0	43	104	0	78	26385
2026-01-25 02:12:24.27	24.30	10.03	-46.0	-56.9	3.8	7.45e-01	0	43	104	0	64	12026
2026-01-25 02:12:25.28	24.31	10.12	-48.4	-59.9	3.8	7.43e-01	0	43	104	0	68	13431
2026-01-25 02:12:26.29	24.33	10.22	-45.3	-56.1	3.8	7.43e-01	0	43	104	0	62	12364
2026-01-25 02:12:27.30	24.34	10.31	-45.3	-56.2	3.9	7.42e-01	0	43	104	0	62	12414
2026-01-25 02:12:28.31	24.35	10.41	-45.1	-55.9	3.9	7.45e-01	0	43	104	0	62	12094
2026-01-25 02:12:29.31	24.37	10.50	-45.8	-56.7	3.8	7.45e-01	0	43	104	0	63	12444
2026-01-25 02:12:30.32	24.38	10.60	-45.4	-56.3	3.9	7.44e-01	0	43	104	0	62	12541
2026-01-25 02:12:31.33	24.40	10.69	-53.4	-68.9	3.9	7.42e-01	0	43	104	0	78	21362
2026-01-25 02:12:32.34	24.41	10.79	-45.5	-56.3	3.9	7.40e-01	0	43	104	0	63	11927
2026-01-25 02:12:33.35	24.42	10.89	-47.8	-59.1	3.9	7.43e-01	0	43	104	0	67	13071
2026-01-25 02:12:34.36	24.44	10.98	-45.2	-56.1	3.8	7.45e-01	0	43	104	0	62	12329
2026-01-25 02:12:35.37	24.45	11.08	-45.2	-56.0	3.8	7.47e-01	0	43	104	0	62	12176
2026-01-25 02:12:36.37	24.47	11.18	-45.3	-56.2	3.9	7.47e-01	0	43	104	0	62	12430
2026-01-25 02:12:37.38	24.48	11.28	-46.8	-57.9	3.8	7.45e-01	0	43	104	0	65	12783
2026-01-25 02:12:38.39	24.49	11.38	-45.4	-56.2	3.8	7.44e-01	0	43	104	0	62	12510
2026-01-25 02:12:39.40	24.51	11.48	-53.4	-68.8	3.9	7.41e-01	0	43	104	0	78	21136
2026-01-25 02:12:40.41	24.52	11.58	-45.3	-56.2	3.9	7.43e-01	0	43	104	0	62	12434
2026-01-25 02:12:41.41	24.54	11.68	-47.0	-58.1	3.9	7.45e-01	0	43	104	0	66	12370
2026-01-25 02:12:42.42	24.55	11.78	-45.1	-55.9	3.8	7.42e-01	0	43	104	0	62	12072
2026-01-25 02:12:43.43	24.57	11.88	-44.9	-55.7	3.8	7.44e-01	0	43	104	0	61	12423
2026-01-25 02:12:44.44	24.58	11.98	-44.9	-55.7	3.9	7.44e-01	0	43	104	0	61	12447
2026-01-25 02:12:45.45	24.60	12.08	-45.5	-56.4	3.9	7.42e-01	0	43	104	0	63	12042
2026-01-25 02:12:46.45	24.61	12.19	-46.3	-57.2	3.8	7.46e-01	0	43	104	0	62	13963
2026-01-25 02:12:47.46	24.63	12.29	-51.4	-64.4	3.9	7.41e-01	0	43	104	0	75	15069
2026-01-25 02:12:48.47	24.64	12.39	-44.8	-55.6	3.8	7.45e-01	0	43	104	0	61	12316
2026-01-25 02:12:49.48	24.66	12.50	-47.1	-58.3	3.9	7.42e-01	0	43	104	0	66	12533
2026-01-25 02:12:50.49	24.67	12.60	-44.9	-55.8	3.8	7.43e-01	0	43	104	0	61	12520
2026-01-25 02:12:51.50	24.69	12.71	-44.7	-55.5	3.8	7.44e-01	0	43	104	0	61	12095
2026-01-25 02:12:52.51	24.70	12.82	-45.2	-56.0	3.8	7.45e-01	0	43	104	0	61	12932
2026-01-25 02:12:53.51	24.72	12.92	-45.7	-56.6	3.8	7.45e-01	0	43	104	0	63	12367
2026-01-25 02:12:54.52	24.73	13.03	-48.5	-60.0	3.9	7.49e-01	0	43	104	0	67	14539
2026-01-25 02:12:55.53	24.75	13.14	-48.5	-60.0	3.9	7.43e-01	0	43	104	0	69	12860
2026-01-25 02:12:56.54	24.77	13.24	-44.9	-55.7	3.8	7.44e-01	0	43	104	0	61	12437
2026-01-25 02:12:57.55	24.78	13.35	-46.0	-57.0	3.8	7.45e-01	0	43	104	0	64	12104
2026-01-25 02:12:58.56	24.80	13.46	-44.5	-55.3	3.8	7.40e-01	0	43	104	0	61	11830
2026-01-25 02:12:59.57	24.81	13.57	-44.5	-55.3	3.8	7.45e-01	0	43	104	0	61	11824
2026-01-25 02:13:00.57	24.83	13.68	-44.6	-55.3	3.8	7.45e-01	0	43	104	0	60	12628
2026-01-25 02:13:01.58	24.85	13.79	-44.6	-55.4	3.8	7.45e-01	0	43	104	0	61	11986
2026-01-25 02:13:02.59	24.86	13.90	-48.3	-59.5	3.8	7.48e-01	0	43	104	0	66	14443
2026-01-25 02:13:03.60	24.88	14.01	-48.2	-59.5	3.9	7.43e-01	0	43	104	0	68	12852
2026-01-25 02:13:04.61	24.90	14.13	-45.7	-56.6	3.8	7.43e-01	0	43	104	0	61	13787
2026-01-25 02:13:05.62	24.91	14.24	-45.1	-55.9	3.8	7.46e-01	0	43	104	0	62	12064
2026-01-25 02:13:06.63	24.93	14.35	-44.5	-55.3	3.8	7.42e-01	0	43	104	0	60	12609
2026-01-25 02:13:07.64	24.95	14.47	-44.4	-55.1	3.8	7.45e-01	0	43	104	0	60	12355
2026-01-25 02:13:08.65	24.96	14.58	-45.1	-55.9	3.8	7.45e-01	0	43	104	0	60	13478
2026-01-25 02:13:09.65	24.98	14.70	-44.9	-55.7	3.8	7.41e-01	0	43	104	0	61	12438
2026-01-25 02:13:10.66	25.00	14.81	-51.1	-63.5	3.8	7.44e-01	0	43	104	0	72	16206
2026-01-25 02:13:11.67	25.01	14.93	-46.6	-57.7	3.9	7.45e-01	0	43	104	0	65	12453
2026-01-25 02:13:12.68	25.03	15.05	-45.9	-56.9	3.8	7.47e-01	0	43	104	0	62	13498
2026-01-25 02:13:13.69	25.05	15.17	-45.1	-56.0	3.8	7.41e-01	0	43	104	0	62	12169
2026-01-25 02:13:14.69	25.07	15.28	-44.6	-55.4	3.8	7.45e-01	0	43	104	0	61	12001
2026-01-25 02:13:15.70	25.08	15.40	-44.8	-55.5	3.8	7.42e-01	0	43	104	0	61	12223
2026-01-25 02:13:16.71	25.10	15.52	-47.2	-58.2	3.9	7.45e-01	0	43	104	0	64	14027
2026-01-25 02:13:17.72	25.12	15.64	-45.3	-56.1	3.8	7.49e-01	0	43	104	0	62	12289
2026-01-25 02:13:18.73	25.14	15.76	-53.1	-67.1	3.8	7.45e-01	0	43	104	0	76	19453
2026-01-25 02:13:19.74	25.16	15.89	-46.0	-56.8	3.8	7.48e-01	0	43	104	0	63	12531
2026-01-25 02:13:20.75	25.18	16.01	-46.9	-57.9	3.8	7.44e-01	0	43	104	0	64	13498
2026-01-25 02:13:21.76	25.19	16.13	-44.7	-55.5	3.8	7.46e-01	0	44	104	0	61	12101
2026-01-25 02:13:22.76	25.21	16.26	-44.3	-55.0	3.8	7.42e-01	0	43	104	0	60	12207
2026-01-25 02:13:23.77	25.23	16.38	-44.2	-54.9	3.8	7.43e-01	0	43	104	0	60	12032
2026-01-25 02:13:24.78	25.25	16.51	-45.4	-56.3	3.8	7.43e-01	0	43	104	0	61	13275
2026-01-25 02:13:25.79	25.27	16.63	-44.6	-55.4	3.8	7.40e-01	0	43	104	0	60	12678
2026-01-25 02:13:26.80	25.29	16.76	-53.0	-67.0	3.8	7.50e-01	0	43	104	0	76	19353
2026-01-25 02:13:27.80	25.31	16.88	-45.8	-56.6	3.8	7.45e-01	0	43	104	0	63	12332
2026-01-25 02:13:28.81	25.33	17.01	-47.8	-59.2	3.8	7.44e-01	0	43	104	0	66	14020
2026-01-25 02:13:29.82	25.35	17.14	-44.4	-55.1	3.8	7.46e-01	0	43	104	0	60	12329
2026-01-25 02:13:30.83	25.37	17.27	-44.2	-54.9	3.8	7.45e-01	0	44	104	0	60	12016
2026-01-25 02:13:31.83	25.38	17.40	-44.1	-54.8	3.8	7.47e-01	0	43	104	0	60	11916
2026-01-25 02:13:32.84	25.40	17.53	-46.4	-57.4	3.8	7.49e-01	0	43	104	0	63	13525
2026-01-25 02:13:33.85	25.42	17.66	-45.0	-55.7	3.8	7.45e-01	0	43	104	0	61	12508
2026-01-25 02:13:34.86	25.45	17.80	-54.1	-69.7	3.7	7.45e-01	0	43	104	0	78	23512
2026-01-25 02:13:35.87	25.47	17.93	-46.1	-57.0	3.8	7.48e-01	0	43	104	0	63	12842
2026-01-25 02:13:36.88	25.49	18.06	-48.0	-59.2	3.8	7.44e-01	0	43	104	0	66	13982
2026-01-25 02:13:37.89	25.51	18.20	-44.5	-55.3	3.8	7.44e-01	0	43	104	0	61	11890
2026-01-25 02:13:38.90	25.53	18.34	-44.5	-55.3	3.8	7.44e-01	0	43	104	0	60	12552
2026-01-25 02:13:39.90	25.55	18.47	-44.4	-55.1	3.8	7.43e-01	0	43	104	0	60	12307
2026-01-25 02:13:40.91	25.57	18.61	-46.4	-57.3	3.8	7.42e-01	0	43	104	0	63	13363
2026-01-25 02:13:41.92	25.59	18.75	-45.1	-55.9	3.8	7.45e-01	0	43	104	0	61	12753
2026-01-25 02:13:42.93	25.61	18.89	-54.4	-70.9	3.7	7.45e-01	0	43	104	0	79	25363
2026-01-25 02:13:43.94	25.63	19.03	-46.4	-57.3	3.8	7.40e-01	0	43	104	0	64	12650
2026-01-25 02:13:44.95	25.66	19.17	-48.7	-60.0	3.8	7.46e-01	0	43	104	0	67	14493
2026-01-25 02:13:45.95	25.68	19.31	-44.3	-55.1	3.8	7.45e-01	0	43	104	0	60	12309
2026-01-25 02:13:46.96	25.70	19.45	-44.3	-55.1	3.8	7.47e-01	0	44	104	0	60	12240
2026-01-25 02:13:47.97	25.72	19.60	-44.3	-55.1	3.8	7.43e-01	0	43	104	0	60	12289
2026-01-25 02:13:48.98	25.74	19.74	-47.2	-58.3	3.8	7.46e-01	0	43	104	0	64	14084
2026-01-25 02:13:49.99	25.77	19.89	-45.2	-56.1	3.8	7.46e-01	0	43	104	0	62	12237
2026-01-25 02:13:50.99	25.79	20.03	-54.4	-70.9	3.7	7.46e-01	0	44	104	0	79	25330
2026-01-25 02:13:52.00	25.81	20.18	-46.3	-57.1	3.8	7.46e-01	0	43	104	0	64	12333
2026-01-25 02:13:53.01	25.84	20.33	-48.8	-60.3	3.9	7.46e-01	0	43	104	0	68	14100
2026-01-25 02:13:54.02	25.86	20.48	-44.3	-55.1	3.8	7.43e-01	0	44	104	0	60	12249
2026-01-25 02:13:55.03	25.88	20.63	-44.4	-55.2	3.8	7.45e-01	0	43	104	0	60	12395
2026-01-25 02:13:56.03	25.91	20.78	-44.3	-55.1	3.8	7.42e-01	0	43	104	0	60	12235
2026-01-25 02:13:57.04	25.93	20.93	-46.2	-57.1	3.9	7.40e-01	0	43	104	0	63	13072
2026-01-25 02:13:58.05	25.95	21.08	-45.3	-56.2	3.8	7.46e-01	0	43	104	0	62	12391
2026-01-25 02:13:59.06	25.98	21.24	-54.5	-71.1	3.8	7.43e-01	0	44	104	0	79	26046
2026-01-25 02:14:00.07	26.00	21.39	-47.1	-58.1	3.8	7.40e-01	0	43	104	0	66	12357
2026-01-25 02:14:01.08	26.03	21.55	-49.9	-61.6	3.9	7.43e-01	0	44	104	0	70	14626
2026-01-25 02:14:02.09	26.05	21.71	-45.3	-56.1	3.9	7.41e-01	0	43	104	0	62	12339
2026-01-25 02:14:03.10	26.08	21.87	-45.0	-55.8	3.9	7.43e-01	0	44	104	0	62	11881
2026-01-25 02:14:04.10	26.10	22.02	-44.8	-55.6	3.8	7.41e-01	0	43	104	0	61	12306
2026-01-25 02:14:05.11	26.13	22.19	-48.2	-59.5	3.8	7.45e-01	0	43	104	0	67	13634
2026-01-25 02:14:06.12	26.16	22.35	-45.2	-56.0	3.8	7.44e-01	0	43	104	0	62	12207
2026-01-25 02:14:07.13	26.18	22.51	-54.4	-70.9	3.8	7.45e-01	0	44	104	0	79	25526
2026-01-25 02:14:08.14	26.21	22.68	-46.6	-57.6	3.8	7.44e-01	0	44	104	0	65	12277
2026-01-25 02:14:09.15	26.24	22.84	-49.6	-61.3	3.8	7.39e-01	0	43	104	0	70	14179
2026-01-25 02:14:10.15	26.26	23.01	-44.5	-55.3	3.8	7.46e-01	0	44	104	0	61	11856
2026-01-25 02:14:11.16	26.29	23.17	-45.0	-55.7	3.8	7.43e-01	0	44	104	0	61	12503
2026-01-25 02:14:12.17	26.32	23.34	-44.7	-55.4	3.8	7.44e-01	0	43	104	0	61	12076
2026-01-25 02:14:13.18	26.35	23.51	-46.1	-57.0	3.9	7.44e-01	0	44	104	0	63	12916
2026-01-25 02:14:14.19	26.37	23.68	-45.2	-56.0	3.8	7.45e-01	0	43	104	0	62	12181
2026-01-25 02:14:15.19	26.40	23.85	-54.5	-71.2	3.8	7.42e-01	0	44	104	0	79	26217
2026-01-25 02:14:16.20	26.43	24.03	-46.7	-57.7	3.8	7.44e-01	0	44	104	0	65	12388
2026-01-25 02:14:17.21	26.46	24.20	-49.1	-60.6	3.8	7.41e-01	0	44	104	0	70	13049
2026-01-25 02:14:18.22	26.49	24.38	-45.2	-56.0	3.9	7.45e-01	0	43	104	0	62	12139
2026-01-25 02:14:19.23	26.52	24.56	-44.9	-55.7	3.8	7.43e-01	0	43	104	0	61	12388
2026-01-25 02:14:20.23	26.55	24.73	-44.8	-55.6	3.8	7.44e-01	0	43	104	0	61	12245
2026-01-25 02:14:21.24	26.58	24.92	-46.1	-57.0	3.8	7.43e-01	0	44	104	0	63	12948
2026-01-25 02:14:22.25	26.61	25.10	-45.0	-55.8	3.8	7.47e-01	0	43	104	0	62	11858
2026-01-25 02:14:23.26	26.64	25.28	-54.3	-70.5	3.9	7.44e-01	0	44	104	0	79	24225
2026-01-25 02:14:24.27	26.67	25.46	-46.4	-57.4	3.8	7.42e-01	0	43	104	0	65	12072
2026-01-25 02:14:25.28	26.70	25.65	-49.1	-60.6	3.8	7.46e-01	0	43	104	0	70	13028
2026-01-25 02:14:26.29	26.73	25.84	-45.2	-56.0	3.8	7.46e-01	0	44	104	0	62	12139
2026-01-25 02:14:27.30	26.76	26.03	-45.1	-55.8	3.8	7.43e-01	0	43	104	0	62	11944
2026-01-25 02:14:28.31	26.80	26.22	-44.8	-55.5	3.8	7.48e-01	0	43	104	0	61	12224
2026-01-25 02:14:29.31	26.83	26.41	-45.9	-56.8	3.9	7.43e-01	0	44	104	0	63	12548
2026-01-25 02:14:30.32	26.86	26.60	-45.0	-55.8	3.8	7.43e-01	0	43	104	0	61	12524
2026-01-25 02:14:31.33	26.90	26.79	-52.6	-66.1	4.0	7.42e-01	0	43	104	0	77	16353
2026-01-25 02:14:32.34	26.93	26.99	-45.1	-55.9	3.9	7.41e-01	0	43	104	0	62	11973
2026-01-25 02:14:33.35	26.96	27.19	-47.6	-58.7	3.8	7.46e-01	0	44	104	0	67	12406
2026-01-25 02:14:34.35	27.00	27.38	-44.5	-55.2	3.8	7.43e-01	0	43	104	0	61	11693
2026-01-25 02:14:35.36	27.03	27.58	-44.4	-55.2	3.8	7.44e-01	0	43	104	0	60	12403
2026-01-25 02:14:36.37	27.07	27.79	-44.2	-54.9	3.8	7.43e-01	0	44	104	0	60	12050
2026-01-25 02:14:37.38	27.10	27.99	-44.8	-55.6	3.8	7.44e-01	0	43	104	0	61	12367
2026-01-25 02:14:38.38	27.14	28.19	-44.3	-55.1	3.8	7.47e-01	0	43	104	0	60	12239
2026-01-25 02:14:39.40	27.18	28.40	-52.8	-66.2	4.0	7.42e-01	0	44	104	0	77	16551
2026-01-25 02:14:40.40	27.21	28.61	-45.1	-55.9	3.8	7.45e-01	0	44	104	0	62	11989
2026-01-25 02:14:41.41	27.25	28.82	-46.5	-57.5	3.8	7.44e-01	0	43	104	0	65	12232
2026-01-25 02:14:42.42	27.29	29.03	-44.6	-55.3	3.8	7.45e-01	0	43	104	0	60	12632
2026-01-25 02:14:43.43	27.33	29.25	-44.4	-55.1	3.9	7.44e-01	0	44	104	0	60	12289
2026-01-25 02:14:44.44	27.37	29.46	-44.4	-55.1	3.8	7.46e-01	0	43	104	0	60	12286
2026-01-25 02:14:45.45	27.41	29.68	-45.5	-56.4	3.8	7.42e-01	0	43	104	0	62	12701
2026-01-25 02:14:46.45	27.45	29.90	-45.0	-55.8	3.8	7.47e-01	0	43	104	0	60	13268
2026-01-25 02:14:47.46	27.49	30.12	-50.4	-62.4	3.9	7.42e-01	0	44	104	0	73	13549
2026-01-25 02:14:48.47	27.53	30.34	-44.4	-55.0	3.9	7.44e-01	0	44	104	0	60	12200
2026-01-25 02:14:49.48	27.57	30.56	-46.5	-57.5	3.8	7.45e-01	0	43	104	0	65	12208
2026-01-25 02:14:50.49	27.61	30.79	-44.3	-55.0	3.8	7.42e-01	0	43	104	0	60	12156
2026-01-25 02:14:51.49	27.65	31.02	-44.2	-54.9	3.8	7.44e-01	0	43	104	0	60	12044
2026-01-25 02:14:52.50	27.70	31.25	-45.1	-55.9	3.8	7.43e-01	0	43	104	0	60	13496
2026-01-25 02:14:53.51	27.74	31.48	-45.9	-56.7	3.9	7.46e-01	0	43	104	0	63	12519
2026-01-25 02:14:54.52	27.78	31.71	-47.3	-58.2	3.8	7.45e-01	0	43	104	0	64	14012
2026-01-25 02:14:55.53	27.83	31.95	-47.4	-58.7	3.9	7.45e-01	0	44	104	0	67	12413
2026-01-25 02:14:56.53	27.87	32.18	-44.7	-55.3	3.8	7.47e-01	0	44	104	0	60	12655
2026-01-25 02:14:57.54	27.92	32.43	-45.7	-56.6	3.8	7.46e-01	0	43	104	0	63	12248
2026-01-25 02:14:58.55	27.97	32.67	-44.7	-55.5	3.8	7.50e-01	0	44	104	0	61	12186
2026-01-25 02:14:59.56	28.01	32.91	-44.9	-55.6	3.8	7.48e-01	0	44	104	0	61	12302
2026-01-25 02:15:00.57	28.06	33.16	-45.9	-56.8	3.8	7.45e-01	0	43	104	0	62	13331
2026-01-25 02:15:01.58	28.11	33.41	-45.7	-56.5	3.8	7.48e-01	0	43	104	0	63	12156
2026-01-25 02:15:02.59	28.16	33.66	-47.7	-58.7	3.8	7.45e-01	0	44	104	0	65	13938
2026-01-25 02:15:03.60	28.21	33.91	-48.2	-59.3	3.8	7.45e-01	0	43	104	0	68	12650
2026-01-25 02:15:04.61	28.26	34.17	-45.4	-56.2	3.8	7.44e-01	0	43	104	0	62	12420
2026-01-25 02:15:05.61	28.31	34.42	-45.8	-56.6	3.8	7.45e-01	0	44	104	0	63	12333
2026-01-25 02:15:06.62	28.37	34.68	-45.3	-56.2	3.8	7.42e-01	0	43	104	0	62	12424
2026-01-25 02:15:07.63	28.42	34.94	-45.3	-56.1	3.8	7.46e-01	0	44	104	0	62	12244
2026-01-25 02:15:08.64	28.47	35.21	-46.0	-56.8	3.8	7.45e-01	0	43	104	0	62	13363
2026-01-25 02:15:09.65	28.53	35.47	-46.3	-57.1	3.8	7.48e-01	0	44	104	0	63	13012
2026-01-25 02:15:10.66	28.58	35.74	-50.7	-62.5	3.8	7.43e-01	0	43	104	0	71	15355
2026-01-25 02:15:11.67	28.64	36.01	-48.3	-59.6	3.8	7.44e-01	0	44	104	0	68	12965
2026-01-25 02:15:12.68	28.70	36.29	-47.1	-58.0	3.8	7.45e-01	0	43	104	0	64	13673
2026-01-25 02:15:13.69	28.76	36.56	-46.2	-57.0	3.8	7.43e-01	0	44	104	0	64	12227
2026-01-25 02:15:14.70	28.82	36.84	-46.1	-57.0	3.8	7.44e-01	0	43	104	0	63	12825
2026-01-25 02:15:15.71	28.88	37.12	-46.2	-57.1	3.8	7.44e-01	0	43	104	0	63	13015
2026-01-25 02:15:16.72	28.94	37.41	-48.8	-60.2	3.8	7.48e-01	0	43	104	0	68	13924
2026-01-25 02:15:17.73	29.00	37.69	-47.6	-58.7	3.8	7.45e-01	0	44	104	0	67	12445
2026-01-25 02:15:18.73	29.06	37.98	-53.0	-66.4	3.8	7.47e-01	0	43	104	0	76	17889
2026-01-25 02:15:19.74	29.13	38.27	-48.8	-60.1	3.8	7.46e-01	0	43	104	0	69	13047
2026-01-25 02:15:20.75	29.19	38.57	-49.5	-61.0	3.8	7.43e-01	0	44	104	0	69	14476
2026-01-25 02:15:21.76	29.26	38.86	-46.7	-57.7	3.8	7.47e-01	0	44	104	0	65	12477
2026-01-25 02:15:22.77	29.33	39.16	-46.5	-57.4	3.8	7.42e-01	0	44	104	0	65	12090
2026-01-25 02:15:23.78	29.40	39.47	-46.6	-57.4	3.8	7.47e-01	0	44	104	0	65	12058
2026-01-25 02:15:24.79	29.47	39.77	-48.9	-60.2	3.8	7.46e-01	0	44	104	0	68	13920
2026-01-25 02:15:25.79	29.54	40.08	-47.5	-58.6	3.8	7.47e-01	0	44	104	0	66	13079
2026-01-25 02:15:26.80	29.61	40.39	-53.1	-66.5	3.8	7.49e-01	0	44	104	0	76	18235
2026-01-25 02:15:27.81	29.69	40.70	-49.2	-60.5	3.8	7.44e-01	0	43	104	0	69	13669
2026-01-25 02:15:28.82	29.76	41.02	-50.2	-61.8	3.8	7.44e-01	0	44	104	0	70	14921
2026-01-25 02:15:29.83	29.84	41.34	-45.8	-56.6	3.8	7.48e-01	0	44	104	0	63	12359
2026-01-25 02:15:30.84	29.92	41.66	-45.8	-56.7	3.8	7.48e-01	0	43	104	0	63	12380
2026-01-25 02:15:31.85	30.00	41.98	-45.5	-56.4	3.8	7.44e-01	0	44	104	0	63	11958
2026-01-25 02:15:32.85	30.08	42.31	-48.4	-59.6	3.8	7.45e-01	0	44	104	0	67	13732
2026-01-25 02:15:33.86	30.17	42.64	-46.9	-57.9	3.8	7.48e-01	0	44	104	0	65	12705
2026-01-25 02:15:34.87	30.25	42.97	-53.7	-67.8	3.8	7.48e-01	0	43	104	0	77	19859
2026-01-25 02:15:35.88	30.34	43.31	-47.9	-58.9	3.8	7.45e-01	0	43	104	0	66	13499
2026-01-25 02:15:36.89	30.43	43.65	-49.1	-60.4	3.8	7.44e-01	0	44	104	0	68	14283
2026-01-25 02:15:37.89	30.52	43.99	-44.7	-55.4	3.8	7.43e-01	0	44	104	0	61	12029
2026-01-25 02:15:38.90	30.61	44.34	-44.5	-55.2	3.8	7.43e-01	0	44	104	0	61	11799
2026-01-25 02:15:39.91	30.71	44.69	-44.5	-55.2	3.8	7.47e-01	0	44	104	0	61	11759
2026-01-25 02:15:40.92	30.80	45.04	-47.3	-58.5	3.8	7.46e-01	0	44	104	0	65	13595
2026-01-25 02:15:41.92	30.90	45.39	-46.2	-57.2	3.8	7.45e-01	0	44	104	0	63	13185
2026-01-25 02:15:42.93	31.00	45.75	-54.1	-68.5	3.8	7.48e-01	0	43	104	0	78	20457
2026-01-25 02:15:43.94	31.10	46.12	-48.1	-59.2	3.8	7.44e-01	0	44	104	0	66	14046
2026-01-25 02:15:44.95	31.21	46.48	-50.0	-61.6	3.8	7.43e-01	0	44	104	0	70	14598
2026-01-25 02:15:45.96	31.32	46.85	-44.6	-55.2	3.8	7.45e-01	0	44	104	0	61	11761
2026-01-25 02:15:46.97	31.43	47.23	-44.5	-55.3	3.8	7.44e-01	0	44	104	0	61	11838
2026-01-25 02:15:47.98	31.54	47.60	-44.6	-55.3	3.8	7.48e-01	0	44	104	0	61	11874
2026-01-25 02:15:48.99	31.66	47.98	-47.9	-59.0	3.9	7.42e-01	0	44	104	0	66	13671
2026-01-25 02:15:49.99	31.77	48.36	-46.3	-57.3	3.9	7.45e-01	0	43	104	0	64	12556
2026-01-25 02:15:51.00	31.90	48.75	-54.4	-69.4	3.8	7.45e-01	0	43	104	0	79	21295
2026-01-25 02:15:52.01	32.02	49.14	-48.5	-59.7	3.8	7.44e-01	0	44	104	0	67	13955
2026-01-25 02:15:53.02	32.15	49.53	-49.7	-61.3	3.8	7.42e-01	0	43	104	0	69	14880
2026-01-25 02:15:54.03	32.28	49.93	-44.5	-55.2	3.8	7.43e-01	0	44	104	0	61	11802
2026-01-25 02:15:55.04	32.41	50.33	-44.3	-55.0	3.8	7.44e-01	0	43	104	0	60	12152
2026-01-25 02:15:56.05	32.55	50.73	-44.2	-54.8	3.8	7.44e-01	0	44	104	0	60	11955
2026-01-25 02:15:57.06	32.69	51.14	-48.3	-59.5	3.8	7.46e-01	0	44	104	0	67	13637
2026-01-25 02:15:58.07	32.84	51.55	-45.4	-56.1	3.8	7.44e-01	0	44	104	0	62	12328
2026-01-25 02:15:59.07	32.99	51.96	-54.6	-70.1	3.7	7.44e-01	0	44	104	0	79	23069
2026-01-25 02:16:00.08	33.14	52.38	-48.1	-59.4	3.8	7.44e-01	0	44	104	0	67	13459
2026-01-25 02:16:01.09	33.30	52.80	-49.2	-60.6	3.7	7.45e-01	0	44	104	0	69	13767
2026-01-25 02:16:02.10	33.46	53.23	-43.5	-45.2	5.3	7.05e-01	0	44	104	0	58	4419
2026-01-25 02:16:03.11	33.63	53.66	-43.5	-44.5	25.1	6.02e-01	0	44	0	0	58	4083
2026-01-25 02:16:04.11	33.80	54.09	-43.4	-44.4	27.1	6.02e-01	0	44	0	2097152	58	4032
2026-01-25 02:16:05.12	33.98	54.52	-43.4	-44.5	27.4	6.01e-01	0	44	0	4194304	58	4054
2026-01-25 02:16:06.13	34.16	54.96	-43.6	-44.7	27.2	6.04e-01	0	44	0	5767168	58	4174
2026-01-25 02:16:07.14	34.35	55.40	-44.1	-45.2	26.8	6.02e-01	0	44	0	7864320	58	4405
2026-01-25 02:16:08.15	34.55	55.85	-44.1	-45.2	26.8	6.03e-01	0	44	0	9437184	58	4398
2026-01-25 02:16:09.16	34.75	56.30	-44.2	-45.3	26.7	6.04e-01	0	44	0	11534336	58	4482
2026-01-25 02:16:10.17	34.95	56.75	-44.7	-45.8	26.3	6.03e-01	0	44	0	13107200	60	4229
2026-01-25 02:16:11.17	35.17	57.21	-44.7	-45.8	26.3	6.00e-01	0	44	0	15204352	60	4236
2026-01-25 02:16:12.18	35.39	57.67	-44.9	-46.1	26.1	6.02e-01	0	44	0	17301504	60	4359
2026-01-25 02:16:13.19	35.62	58.13	-44.8	-45.9	26.2	6.02e-01	0	44	0	18874368	60	4286
2026-01-25 02:16:14.20	35.85	58.60	-45.3	-46.5	25.7	6.03e-01	0	44	0	20971520	61	4301
2026-01-25 02:16:15.21	36.10	59.07	-45.3	-46.5	25.7	6.02e-01	0	44	0	22544384	61	4303
2026-01-25 02:16:16.21	36.35	59.54	-45.4	-46.6	25.6	6.01e-01	0	44	0	24641536	61	4379
2026-01-25 02:16:17.22	36.62	60.02	-45.6	-46.8	25.5	6.03e-01	0	44	0	26738688	61	4466
2026-01-25 02:16:18.23	36.89	60.50	-45.8	-47.0	25.3	6.02e-01	0	44	0	28311552	62	4325
2026-01-25 02:16:19.24	37.17	60.98	-45.8	-47.1	25.2	6.01e-01	0	43	0	30408704	62	4347
2026-01-25 02:16:20.25	37.47	61.47	-46.0	-47.3	25.1	6.02e-01	0	44	0	32505856	62	4446
2026-01-25 02:16:21.25	37.77	61.96	-46.3	-47.7	24.7	6.00e-01	0	44	0	34078720	63	4394
2026-01-25 02:16:22.26	38.09	62.45	-46.6	-48.0	24.3	6.01e-01	0	44	0	36175872	63	4581
2026-01-25 02:16:23.27	38.42	62.94	-46.6	-48.0	24.4	6.02e-01	0	44	0	37748736	63	4572
2026-01-25 02:16:24.28	38.77	63.44	-47.2	-48.6	23.7	6.01e-01	0	44	0	39845888	64	4650
2026-01-25 02:16:25.29	39.13	63.95	-47.5	-49.0	23.4	6.02e-01	0	44	0	41418752	65	4554
2026-01-25 02:16:26.29	39.51	64.44	-47.9	-49.5	22.9	6.02e-01	0	44	0	43515904	66	4580
2026-01-25 02:16:27.30	39.90	64.95	-48.1	-49.7	22.7	6.00e-01	0	44	0	45613056	66	4676
2026-01-25 02:16:28.31	40.31	65.46	-48.5	-50.2	22.2	6.01e-01	0	44	0	47185920	67	4678
2026-01-25 02:16:29.32	40.74	65.97	-48.7	-50.5	21.7	6.00e-01	0	44	0	49283072	68	4598
2026-01-25 02:16:30.33	41.20	66.49	-48.5	-50.3	22.0	6.03e-01	0	44	0	51380224	68	4447
2026-01-25 02:16:31.33	41.67	67.00	-48.8	-50.6	21.8	5.99e-01	0	44	0	52953088	68	4624
2026-01-25 02:16:32.34	42.17	67.51	-49.0	-50.8	21.5	6.01e-01	0	44	0	55050240	68	4752
2026-01-25 02:16:33.35	42.69	68.03	-49.2	-51.2	21.1	5.98e-01	0	44	0	56623104	69	4658
2026-01-25 02:16:34.36	43.24	68.55	-48.8	-50.6	21.7	6.04e-01	0	44	0	58720256	69	4367
2026-01-25 02:16:35.37	43.82	69.08	-49.5	-51.6	20.8	6.04e-01	0	44	0	60817408	69	4886
2026-01-25 02:16:36.37	44.43	69.59	-49.2	-51.2	21.1	6.01e-01	0	44	0	62390272	69	4657
2026-01-25 02:16:37.38	45.07	70.12	-48.8	-50.6	21.7	6.00e-01	0	44	0	64487424	69	4368
2026-01-25 02:16:38.39	45.76	70.64	-49.2	-51.1	21.2	6.02e-01	0	44	0	66060288	69	4623
2026-01-25 02:16:39.40	46.48	71.17	-48.8	-50.7	21.6	5.99e-01	0	43	0	68157440	69	4410
2026-01-25 02:16:40.40	47.24	71.69	-48.0	-49.6	22.7	6.00e-01	0	44	0	69730304	67	4376
2026-01-25 02:16:41.41	48.06	72.21	-48.3	-50.0	22.3	6.00e-01	0	44	0	71827456	67	4584
2026-01-25 02:16:42.42	48.93	72.73	-47.9	-49.5	22.8	6.00e-01	0	44	0	73924608	67	4318
2026-01-25 02:16:43.43	49.85	73.25	-47.6	-49.1	23.3	6.03e-01	0	44	0	75497472	66	4356
2026-01-25 02:16:44.44	50.84	73.77	-47.2	-48.6	23.7	6.02e-01	0	44	0	77594624	66	4127
2026-01-25 02:16:45.45	51.90	74.29	-47.4	-49.0	23.3	6.03e-01	0	44	0	79691776	66	4296
2026-01-25 02:16:46.45	53.02	74.80	-47.4	-48.9	23.4	6.02e-01	0	44	0	81264640	65	4525
2026-01-25 02:16:47.46	54.23	75.31	-47.0	-48.4	23.8	6.00e-01	0	44	0	83361792	65	4250
2026-01-25 02:16:48.47	55.53	75.81	-46.7	-48.1	24.1	6.00e-01	0	44	0	84934656	65	4109
2026-01-25 02:16:49.48	56.93	76.31	-47.0	-48.5	23.8	6.01e-01	0	43	0	87031808	65	4304
2026-01-25 02:16:50.48	58.42	76.80	-46.9	-48.3	23.9	6.03e-01	0	44	0	89128960	65	4211
2026-01-25 02:16:51.49	60.04	77.28	-46.7	-48.1	24.1	6.01e-01	0	44	0	90701824	65	4127
2026-01-25 02:16:52.50	61.80	77.76	-46.7	-48.2	24.0	6.03e-01	0	44	0	92798976	65	4152
2026-01-25 02:16:53.51	63.70	78.22	-46.4	-47.8	24.4	6.01e-01	0	44	0	94896128	64	4208
2026-01-25 02:16:54.52	65.76	78.67	-46.2	-47.6	24.6	6.00e-01	0	44	0	96468992	64	4108
2026-01-25 02:16:55.53	67.99	79.11	-46.1	-47.3	24.9	6.05e-01	0	44	0	98566144	63	4242
2026-01-25 02:16:56.53	70.38	79.53	-46.0	-47.3	24.9	6.02e-01	0	44	0	100139008	63	4240
2026-01-25 02:16:57.54	73.00	79.93	-45.6	-46.9	25.4	6.04e-01	0	44	0	102236160	63	4007
2026-01-25 02:16:58.55	75.83	80.32	-44.7	-45.9	26.1	6.05e-01	0	43	0	103809024	61	4014
2026-01-25 02:16:59.55	78.86	80.67	-44.9	-46.1	26.1	6.03e-01	0	44	0	105906176	61	4115
2026-01-25 02:17:00.56	82.16	81.00	-44.6	-45.8	26.3	6.04e-01	0	44	0	108003328	61	3962
2026-01-25 02:17:01.57	85.70	81.30	-44.4	-45.5	26.5	6.01e-01	0	44	0	109576192	60	4069
2026-01-25 02:17:02.58	89.48	81.56	-44.7	-45.9	26.1	6.01e-01	0	44	0	111673344	60	4267
2026-01-25 02:17:03.59	93.48	81.79	-44.9	-46.1	26.0	6.02e-01	0	44	0	113246208	60	4357
2026-01-25 02:17:04.59	97.66	81.97	-45.0	-46.2	25.9	6.04e-01	0	44	0	115343360	60	4432
2026-01-25 02:17:05.60	102.05	82.11	-44.9	-46.1	25.9	6.04e-01	0	43	0	117440512	60	4377
2026-01-25 02:17:06.61	106.57	82.21	-45.1	-46.3	25.8	5.98e-01	0	44	0	119013376	60	4490
2026-01-25 02:17:07.62	111.17	82.25	-45.0	-46.1	25.9	6.02e-01	0	43	0	121110528	60	4383
2026-01-25 02:17:08.63	115.80	82.25	-45.4	-46.6	25.6	6.02e-01	0	44	0	123207680	61	4380
2026-01-25 02:17:09.64	120.40	82.19	-45.1	-46.3	25.8	6.01e-01	0	44	0	124780544	61	4239
2026-01-25 02:17:10.65	124.89	82.09	-45.5	-46.7	25.4	6.00e-01	0	44	0	126877696	61	4433
2026-01-25 02:17:11.65	129.21	81.94	-44.6	-45.8	26.3	5.99e-01	0	44	0	128450560	61	3965
2026-01-25 02:17:12.66	133.38	81.74	-44.9	-46.1	26.0	6.04e-01	0	44	0	130547712	61	4134
2026-01-25 02:17:13.67	137.34	81.51	-44.5	-45.6	26.4	6.01e-01	0	43	0	132120576	61	3898
2026-01-25 02:17:14.68	141.07	81.24	-44.7	-45.9	26.2	6.03e-01	0	44	0	134217728	60	4261
2026-01-25 02:17:15.68	144.52	80.93	-44.7	-45.8	26.3	6.03e-01	0	44	0	136314880	60	4229
2026-01-25 02:17:16.69	147.77	80.60	-45.2	-46.4	25.7	6.01e-01	0	44	0	137887744	60	4532
2026-01-25 02:17:17.70	150.78	80.23	-45.1	-46.3	25.9	6.00e-01	0	43	0	139984896	61	4211
2026-01-25 02:17:18.71	153.57	79.85	-45.6	-46.8	25.3	6.00e-01	0	43	0	142082048	61	4466
2026-01-25 02:17:19.72	156.14	79.44	-45.9	-47.2	25.0	6.03e-01	0	43	0	143654912	62	4400
2026-01-25 02:17:20.73	158.52	79.01	-45.7	-46.9	25.2	6.00e-01	0	44	0	145752064	62	4286
2026-01-25 02:17:21.73	160.69	78.58	-45.7	-46.9	25.3	6.00e-01	0	44	0	147324928	62	4282
2026-01-25 02:17:22.74	162.71	78.12	-46.1	-47.4	24.8	6.02e-01	0	43	0	149422080	63	4248
2026-01-25 02:17:23.75	164.58	77.65	-46.2	-47.5	24.7	6.02e-01	0	43	0	151519232	63	4315
2026-01-25 02:17:24.76	166.31	77.17	-46.1	-47.4	24.8	6.02e-01	0	44	0	153092096	63	4258
2026-01-25 02:17:25.77	167.91	76.69	-46.4	-47.7	24.7	6.01e-01	0	44	0	155189248	63	4415
2026-01-25 02:17:26.78	169.39	76.19	-46.8	-48.2	24.1	6.02e-01	0	44	0	156762112	64	4437
2026-01-25 02:17:27.79	170.76	75.69	-46.8	-48.2	23.9	6.05e-01	0	44	0	158859264	64	4410
2026-01-25 02:17:28.79	172.03	75.19	-46.9	-48.3	24.0	6.00e-01	0	44	0	160432128	64	4444
2026-01-25 02:17:29.80	173.22	74.68	-47.1	-48.6	23.7	6.00e-01	0	44	0	162529280	64	4620
2026-01-25 02:17:30.81	174.34	74.16	-47.0	-48.4	23.9	5.99e-01	0	44	0	164626432	64	4538
2026-01-25 02:17:31.82	175.38	73.65	-47.2	-48.7	23.7	6.02e-01	0	44	0	166723584	64	4658
2026-01-25 02:17:32.83	176.35	73.13	-47.4	-48.9	23.5	6.04e-01	0	44	0	168296448	65	4496
2026-01-25 02:17:33.83	177.25	72.61	-47.3	-48.8	23.5	6.04e-01	0	44	0	170393600	65	4446
2026-01-25 02:17:34.84	178.11	72.09	-47.8	-49.4	23.0	6.00e-01	0	44	0	171966464	66	4510
2026-01-25 02:17:35.85	178.91	71.56	-47.6	-49.1	23.2	6.01e-01	0	44	0	174063616	66	4367
2026-01-25 02:17:36.86	179.67	71.04	-47.2	-48.7	23.5	6.00e-01	0	44	0	175636480	66	4164
2026-01-25 02:17:37.87	180.39	70.51	-47.5	-49.0	23.4	6.03e-01	0	44	0	177733632	66	4295
2026-01-25 02:17:38.88	181.06	69.99	-47.8	-49.4	23.0	6.02e-01	0	44	0	179830784	66	4523
2026-01-25 02:17:39.89	181.70	69.46	-47.6	-49.2	23.2	5.99e-01	0	44	0	181403648	66	4394
2026-01-25 02:17:40.89	182.30	68.94	-47.4	-48.9	23.4	6.01e-01	0	44	0	183500800	66	4279
2026-01-25 02:17:41.90	182.88	68.42	-47.4	-48.9	23.4	6.02e-01	0	44	0	185073664	66	4285
2026-01-25 02:17:42.91	183.42	67.90	-48.5	-50.2	21.9	6.04e-01	0	43	0	187170816	67	4695
2026-01-25 02:17:43.92	183.94	67.38	-47.8	-49.4	22.9	6.04e-01	0	44	0	189267968	67	4264
2026-01-25 02:17:44.92	184.43	66.87	-47.7	-49.3	23.0	6.00e-01	0	44	0	190840832	67	4207
2026-01-25 02:17:45.93	184.90	66.35	-47.3	-48.7	23.6	6.03e-01	0	44	0	192937984	66	4171
2026-01-25 02:17:46.94	185.34	65.84	-48.1	-49.8	22.6	6.01e-01	0	44	0	195035136	66	4727
2026-01-25 02:17:47.95	185.77	65.33	-47.3	-48.8	23.3	6.01e-01	0	44	0	196608000	66	4226
2026-01-25 02:17:48.96	186.18	64.82	-46.6	-47.9	24.2	5.99e-01	0	44	0	198705152	65	4037
2026-01-25 02:17:49.97	186.57	64.31	-46.8	-48.2	24.1	6.01e-01	0	44	0	200278016	64	4399
2026-01-25 02:17:50.97	186.94	63.81	-46.7	-48.1	24.1	6.02e-01	0	44	0	202375168	64	4367
2026-01-25 02:17:51.98	187.30	63.31	-46.0	-47.3	24.8	6.01e-01	0	44	0	203948032	63	4224
2026-01-25 02:17:52.99	187.64	62.81	-46.0	-47.3	25.0	6.02e-01	0	44	0	206045184	63	4203
2026-01-25 02:17:54.00	187.97	62.31	-45.7	-47.0	25.2	6.01e-01	0	44	0	208142336	63	4060
2026-01-25 02:17:55.01	188.29	61.82	-46.1	-47.4	24.9	6.01e-01	0	44	0	210239488	63	4270
2026-01-25 02:17:56.02	188.59	61.33	-45.7	-47.0	25.1	6.02e-01	0	44	0	211812352	63	4056
2026-01-25 02:17:57.03	188.88	60.84	-45.6	-46.9	25.3	6.02e-01	0	44	0	213909504	63	4016
2026-01-25 02:17:58.04	189.17	60.36	-45.4	-46.6	25.6	6.03e-01	0	44	0	215482368	62	4117
2026-01-25 02:17:59.05	189.44	59.87	-44.9	-46.1	25.9	6.01e-01	0	44	0	217579520	61	4117
2026-01-25 02:18:00.05	189.70	59.40	-45.1	-46.3	25.9	6.02e-01	0	44	0	219152384	61	4202
2026-01-25 02:18:01.06	189.95	58.93	-45.3	-46.5	25.7	6.00e-01	0	44	0	221249536	61	4321
2026-01-25 02:18:02.07	190.19	58.46	-44.9	-46.1	25.9	6.03e-01	0	44	0	223346688	61	4123
2026-01-25 02:18:03.08	190.43	57.99	-45.0	-46.2	26.0	6.02e-01	0	44	0	224919552	61	4157
2026-01-25 02:18:04.09	190.65	57.52	-44.9	-46.0	26.1	6.02e-01	0	44	0	227016704	61	4088
2026-01-25 02:18:05.09	190.87	57.07	-45.0	-46.2	25.8	6.01e-01	0	44	0	228589568	61	4182
2026-01-25 02:18:06.10	191.08	56.61	-44.3	-45.4	26.4	6.00e-01	0	44	0	230686720	60	4042
2026-01-25 02:18:07.11	191.29	56.16	-44.0	-45.1	26.9	6.05e-01	0	44	0	232783872	60	3888
2026-01-25 02:18:08.12	191.49	55.71	-43.9	-44.9	26.9	6.00e-01	0	44	0	234356736	59	4044
2026-01-25 02:18:09.13	191.68	55.26	-44.0	-45.2	26.8	6.04e-01	0	44	0	236453888	59	4146
2026-01-25 02:18:10.13	191.87	54.82	-44.0	-45.1	26.7	6.00e-01	0	44	0	238551040	59	4111
2026-01-25 02:18:11.14	192.05	54.38	-43.7	-44.8	26.9	6.00e-01	0	44	0	240123904	59	3981
2026-01-25 02:18:12.15	192.23	53.94	-43.8	-44.9	27.0	6.01e-01	0	44	0	242221056	59	4009
2026-01-25 02:18:13.16	192.40	53.51	-43.7	-44.7	27.1	6.01e-01	0	44	0	243793920	59	3954
2026-01-25 02:18:14.16	192.56	53.09	-43.8	-44.9	27.0	6.01e-01	0	44	0	245891072	59	4034
2026-01-25 02:18:15.17	192.72	52.66	-43.7	-44.8	27.0	6.01e-01	0	44	0	247463936	59	3991
2026-01-25 02:18:16.18	192.88	52.24	-43.8	-44.9	26.9	6.04e-01	0	44	0	249561088	59	4023
2026-01-25 02:18:17.19	193.03	51.82	-43.8	-44.9	26.9	6.03e-01	0	44	0	251658240	59	4010
2026-01-25 02:18:18.20	193.18	51.41	-44.2	-45.3	26.5	6.01e-01	0	43	0	253231104	59	4225
2026-01-25 02:18:19.21	193.33	50.99	-44.6	-45.8	26.2	5.98e-01	0	44	0	255328256	59	4442
2026-01-25 02:18:20.21	193.47	50.59	-44.1	-45.2	26.4	6.01e-01	0	44	0	257425408	59	4193
2026-01-25 02:18:21.22	193.60	50.19	-44.1	-45.3	26.6	6.02e-01	0	44	0	258998272	59	4199
2026-01-25 02:18:22.23	193.74	49.79	-44.6	-45.7	26.1	6.04e-01	0	44	0	261095424	59	4433
2026-01-25 02:18:23.24	193.87	49.39	-44.7	-45.8	26.1	6.02e-01	0	44	0	262668288	59	4491
2026-01-25 02:18:24.25	193.99	49.00	-44.6	-45.7	26.2	6.02e-01	0	44	0	264765440	60	4191
2026-01-25 02:18:25.25	194.12	48.61	-44.6	-45.8	26.2	6.02e-01	0	44	0	266862592	60	4200
2026-01-25 02:18:26.26	194.24	48.22	-44.6	-45.7	26.3	6.01e-01	0	44	0	268435456	60	4174
2026-01-25 02:18:27.27	194.35	47.84	-44.4	-45.5	26.5	6.01e-01	0	44	0	270532608	60	4080
2026-01-25 02:18:28.28	194.47	47.46	-44.4	-45.5	26.5	6.02e-01	0	44	0	272105472	60	4085
2026-01-25 02:18:29.29	194.58	47.08	-44.4	-45.5	26.4	6.01e-01	0	44	0	274202624	60	4074
2026-01-25 02:18:30.29	194.69	46.71	-44.5	-45.7	26.3	5.99e-01	0	44	0	275775488	60	4172
2026-01-25 02:18:31.30	194.80	46.34	-44.7	-45.9	26.1	6.02e-01	0	44	0	277872640	60	4253
2026-01-25 02:18:32.31	194.90	45.98	-44.7	-45.9	26.0	6.01e-01	0	44	0	279969792	60	4287
2026-01-25 02:18:33.32	195.01	45.61	-44.8	-46.0	25.8	5.99e-01	0	44	0	282066944	60	4318
2026-01-25 02:18:34.33	195.11	45.25	-44.8	-46.0	25.8	6.01e-01	0	44	0	283639808	60	4313
2026-01-25 02:18:35.34	195.20	44.90	-44.8	-45.9	25.9	6.03e-01	0	44	0	285736960	60	4287
2026-01-25 02:18:36.34	195.30	44.55	-44.8	-45.9	25.9	6.04e-01	0	44	0	287309824	60	4279
2026-01-25 02:18:37.35	195.39	44.20	-44.6	-45.8	26.1	6.01e-01	0	44	0	289406976	60	4206
2026-01-25 02:18:38.36	195.49	43.85	-44.5	-45.7	26.2	6.04e-01	0	44	0	290979840	60	4156
2026-01-25 02:18:39.37	195.58	43.51	-44.7	-45.8	26.0	6.03e-01	0	44	0	293076992	60	4242
2026-01-25 02:18:40.38	195.66	43.17	-44.7	-45.9	25.9	6.03e-01	0	44	0	295174144	60	4260
2026-01-25 02:18:41.39	195.75	42.83	-44.6	-45.7	26.1	6.03e-01	0	44	0	296747008	60	4180
2026-01-25 02:18:42.39	195.83	42.50	-44.5	-45.6	26.2	6.01e-01	0	43	0	298844160	60	4129
2026-01-25 02:18:43.40	195.92	42.17	-44.6	-45.7	26.2	6.01e-01	0	43	0	300417024	60	4174
2026-01-25 02:18:44.41	196.00	41.84	-44.8	-46.0	25.8	6.04e-01	0	44	0	302514176	60	4329
2026-01-25 02:18:45.42	196.08	41.51	-45.2	-46.5	25.5	6.02e-01	0	43	0	304611328	60	4546
2026-01-25 02:18:46.42	196.16	41.19	-45.3	-46.5	25.4	6.01e-01	0	44	0	306184192	61	4335
2026-01-25 02:18:47.43	196.23	40.87	-45.4	-46.6	25.3	6.03e-01	0	44	0	308281344	61	4389
2026-01-25 02:18:48.44	196.31	40.56	-45.4	-46.6	25.3	6.02e-01	0	44	0	310378496	61	4379
2026-01-25 02:18:49.45	196.38	40.24	-45.3	-46.5	25.4	6.02e-01	0	44	0	311951360	61	4310
2026-01-25 02:18:50.46	196.46	39.93	-45.4	-46.6	25.3	6.04e-01	0	44	0	314048512	61	4358
2026-01-25 02:18:51.47	196.53	39.62	-45.5	-46.8	25.1	6.02e-01	0	44	0	315621376	61	4469
2026-01-25 02:18:52.47	196.60	39.32	-45.8	-47.1	24.8	6.01e-01	0	44	0	317718528	62	4382
2026-01-25 02:18:53.48	196.67	39.02	-45.8	-47.1	24.8	6.01e-01	0	44	0	319291392	62	4370
2026-01-25 02:18:54.49	196.73	38.72	-45.8	-47.1	24.8	6.01e-01	0	44	0	321388544	62	4381
2026-01-25 02:18:55.50	196.80	38.42	-45.6	-46.8	25.0	6.04e-01	0	43	0	323485696	62	4242
2026-01-25 02:18:56.51	196.87	38.13	-45.4	-46.7	25.2	6.02e-01	0	44	0	325058560	62	4164
2026-01-25 02:18:57.52	196.93	37.84	-45.4	-46.7	25.3	6.02e-01	0	44	0	327155712	62	4147
2026-01-25 02:18:58.53	196.99	37.55	-45.2	-46.5	25.4	6.02e-01	0	44	0	329252864	62	4066
2026-01-25 02:18:59.54	197.05	37.26	-45.1	-46.3	25.6	6.00e-01	0	43	0	330825728	62	3997
2026-01-25 02:19:00.55	197.12	36.98	-44.9	-46.1	25.7	6.00e-01	0	44	0	332922880	61	4115
2026-01-25 02:19:01.55	197.18	36.70	-44.9	-46.0	25.7	6.03e-01	0	43	0	334495744	61	4084
2026-01-25 02:19:02.56	197.23	36.42	-44.9	-46.1	25.7	6.00e-01	0	44	0	336592896	61	4134
2026-01-25 02:19:03.57	197.29	36.14	-44.7	-45.9	25.9	6.02e-01	0	44	0	338690048	61	4030
2026-01-25 02:19:04.58	197.35	35.87	-44.7	-45.9	25.9	5.99e-01	0	43	0	340262912	61	4021
2026-01-25 02:19:05.59	197.41	35.60	-44.6	-45.8	26.0	6.00e-01	0	44	0	342360064	61	3979
2026-01-25 02:19:06.59	197.46	35.33	-44.5	-45.7	26.1	6.02e-01	0	44	0	343932928	61	3941
2026-01-25 02:19:07.60	197.52	35.06	-44.5	-45.7	26.2	6.01e-01	0	44	0	346030080	61	3927
2026-01-25 02:19:08.61	197.57	34.80	-44.3	-45.4	26.4	6.01e-01	0	44	0	348127232	60	4039
2026-01-25 02:19:09.62	197.62	34.54	-44.2	-45.3	26.5	6.00e-01	0	44	0	349700096	60	3987
2026-01-25 02:19:10.63	197.67	34.28	-44.0	-45.1	26.7	6.02e-01	0	43	0	351797248	60	3910
2026-01-25 02:19:11.64	197.73	34.02	-44.1	-45.2	26.5	6.01e-01	0	44	0	353370112	59	4176
2026-01-25 02:19:12.65	197.78	33.77	-44.1	-45.2	26.5	6.02e-01	0	44	0	355467264	59	4169
2026-01-25 02:19:13.65	197.83	33.51	-44.1	-45.2	26.4	6.03e-01	0	44	0	357564416	59	4165
2026-01-25 02:19:14.66	197.87	33.26	-43.9	-45.1	26.6	6.04e-01	0	44	0	359137280	59	4101
2026-01-25 02:19:15.67	197.92	33.02	-43.7	-44.8	26.9	6.00e-01	0	44	0	361234432	59	3963
2026-01-25 02:19:16.68	197.97	32.77	-43.6	-44.8	26.8	6.01e-01	0	44	0	362807296	59	3959
2026-01-25 02:19:17.69	198.02	32.52	-43.5	-44.6	26.9	6.05e-01	0	44	0	364904448	59	3899
2026-01-25 02:19:18.69	198.06	32.28	-43.5	-44.6	26.9	6.03e-01	0	44	0	367001600	58	4132
2026-01-25 02:19:19.70	198.11	32.04	-43.4	-44.5	26.9	6.03e-01	0	44	0	368574464	58	4086
2026-01-25 02:19:20.71	198.15	31.81	-43.3	-44.4	27.0	6.01e-01	0	44	0	370671616	58	4009
2026-01-25 02:19:21.72	198.20	31.57	-43.4	-44.5	27.0	6.03e-01	0	44	0	372768768	58	4065
2026-01-25 02:19:22.73	198.24	31.33	-43.4	-44.5	27.0	6.05e-01	0	44	0	374341632	58	4058
2026-01-25 02:19:23.74	198.29	31.10	-43.4	-44.5	27.0	6.01e-01	0	43	0	376438784	58	4085
2026-01-25 02:19:24.75	198.33	30.87	-43.5	-44.6	26.9	6.02e-01	0	43	0	378011648	58	4121
2026-01-25 02:19:25.75	198.37	30.65	-43.7	-44.8	26.7	6.02e-01	0	43	0	380108800	58	4228
2026-01-25 02:19:26.76	198.41	30.42	-43.6	-44.7	26.8	5.99e-01	0	43	0	381681664	58	4157
2026-01-25 02:19:27.77	198.45	30.19	-43.4	-44.5	27.0	6.02e-01	0	43	0	383778816	58	4094
2026-01-25 02:19:28.78	198.49	29.97	-43.5	-44.6	26.9	6.06e-01	0	44	0	385875968	58	4137
2026-01-25 02:19:29.79	198.53	29.75	-43.6	-44.7	26.9	6.02e-01	0	43	0	387448832	58	4153
2026-01-25 02:19:30.80	198.57	29.53	-43.7	-44.8	26.8	6.03e-01	0	44	0	389545984	58	4202
2026-01-25 02:19:31.80	198.61	29.32	-43.8	-44.9	26.6	6.02e-01	0	44	0	391118848	58	4259
2026-01-25 02:19:32.81	198.65	29.10	-43.8	-44.9	26.6	6.02e-01	0	44	0	393216000	58	4264
2026-01-25 02:19:33.82	198.69	28.89	-43.8	-44.9	26.5	6.03e-01	0	44	0	395313152	58	4277
2026-01-25 02:19:34.83	198.73	28.67	-43.9	-45.1	26.4	6.02e-01	0	44	0	396886016	58	4360
2026-01-25 02:19:35.83	198.76	28.47	-43.8	-45.0	26.5	6.04e-01	0	44	0	398983168	58	4293
2026-01-25 02:19:36.84	198.80	28.26	-43.8	-45.0	26.5	5.99e-01	0	44	0	401080320	58	4293
2026-01-25 02:19:37.85	198.84	28.05	-43.8	-44.9	26.5	6.01e-01	0	44	0	402653184	58	4284
2026-01-25 02:19:38.86	198.87	27.84	-43.9	-45.0	26.4	6.03e-01	0	44	0	404750336	58	4318
2026-01-25 02:19:39.87	198.91	27.64	-43.7	-44.8	26.6	6.04e-01	0	44	0	406323200	58	4242
2026-01-25 02:19:40.87	198.94	27.44	-43.8	-44.9	26.5	6.02e-01	0	44	0	408420352	58	4265
2026-01-25 02:19:41.88	198.98	27.24	-43.7	-44.9	26.6	6.01e-01	0	44	0	409993216	58	4244
2026-01-25 02:19:42.89	199.01	27.04	-43.9	-45.0	26.5	5.99e-01	0	44	0	412090368	58	4314
2026-01-25 02:19:43.90	199.05	26.84	-43.8	-44.9	26.5	6.03e-01	0	44	0	414187520	58	4282
2026-01-25 02:19:44.91	199.08	26.65	-43.9	-45.0	26.5	6.01e-01	0	44	0	416284672	58	4307
2026-01-25 02:19:45.92	199.11	26.45	-44.0	-45.1	26.3	6.02e-01	0	44	0	417857536	58	4389
2026-01-25 02:19:46.93	199.14	26.26	-44.0	-45.1	26.3	6.01e-01	0	44	0	419954688	58	4372
2026-01-25 02:19:47.94	199.18	26.07	-44.0	-45.2	26.3	6.03e-01	0	43	0	421527552	58	4392
2026-01-25 02:19:48.95	199.21	25.88	-44.1	-45.3	26.2	6.04e-01	0	44	0	423624704	58	4467
2026-01-25 02:19:49.95	199.24	25.69	-44.2	-45.3	25.3	6.00e-01	0	44	0	425197568	59	4230
2026-01-25 02:19:50.96	199.27	25.50	-44.3	-45.4	26.1	6.01e-01	0	44	0	427294720	59	4288
2026-01-25 02:19:51.97	199.30	25.32	-44.4	-45.5	26.0	6.01e-01	0	44	0	429391872	59	4338
2026-01-25 02:19:52.98	199.33	25.13	-44.5	-45.7	25.9	5.99e-01	0	44	0	430964736	59	4402
2026-01-25 02:19:53.99	199.36	24.95	-44.4	-45.6	25.9	6.02e-01	0	44	0	433061888	59	4368
2026-01-25 02:19:55.00	199.39	24.77	-44.4	-45.6	25.9	6.04e-01	0	44	0	434634752	59	4364
2026-01-25 02:19:56.00	199.42	24.59	-44.6	-45.8	25.7	6.03e-01	0	44	0	436731904	59	4442
2026-01-25 02:19:57.01	199.45	24.41	-44.6	-45.8	25.7	6.05e-01	0	44	0	438829056	59	4477
2026-01-25 02:19:58.02	199.48	24.23	-44.7	-45.9	25.4	6.01e-01	0	44	0	440401920	60	4261
2026-01-25 02:19:59.03	199.51	24.06	-44.7	-45.9	25.7	6.02e-01	0	44	0	442499072	60	4272
2026-01-25 02:20:00.04	199.54	23.88	-44.7	-46.0	25.6	6.03e-01	0	44	0	444596224	60	4299
2026-01-25 02:20:01.05	199.57	23.71	-44.6	-45.9	25.7	6.01e-01	0	44	0	446169088	60	4245
2026-01-25 02:20:02.05	199.59	23.54	-44.6	-45.8	25.8	6.01e-01	0	44	0	448266240	60	4200
2026-01-25 02:20:03.06	199.62	23.36	-44.6	-45.8	25.7	6.01e-01	0	44	0	449839104	60	4233
2026-01-25 02:20:04.07	199.65	23.19	-44.6	-45.8	25.7	6.03e-01	0	44	0	451936256	60	4240
2026-01-25 02:20:05.08	199.68	23.03	-44.5	-45.7	25.8	6.01e-01	0	44	0	453509120	60	4156
2026-01-25 02:20:06.09	199.70	22.86	-44.5	-45.7	24.4	6.02e-01	0	44	0	455606272	60	4154
2026-01-25 02:20:07.10	199.73	22.69	-44.5	-45.7	25.8	6.00e-01	0	44	0	457703424	60	4148
2026-01-25 02:20:08.11	199.76	22.53	-44.4	-45.6	25.9	6.01e-01	0	44	0	459276288	60	4115
2026-01-25 02:20:09.11	199.78	22.36	-44.3	-45.5	26.0	6.02e-01	0	44	0	461373440	60	4064
2026-01-25 02:20:10.12	199.81	22.20	-44.3	-45.4	26.0	6.02e-01	0	44	0	463470592	60	4049
2026-01-25 02:20:11.13	199.83	22.04	-44.1	-45.3	26.1	6.03e-01	0	44	0	465043456	60	3983
2026-01-25 02:20:12.14	199.86	21.88	-44.2	-45.4	26.1	5.97e-01	0	44	0	467140608	60	4023
2026-01-25 02:20:13.15	199.88	21.72	-44.1	-45.3	26.1	6.04e-01	0	44	0	468713472	60	3969
2026-01-25 02:20:14.16	199.91	21.56	-44.1	-45.2	26.2	6.01e-01	0	44	0	470810624	60	3931
2026-01-25 02:20:15.17	199.93	21.40	-44.1	-45.3	26.2	6.01e-01	0	44	0	472907776	60	3960
2026-01-25 02:20:16.17	199.96	21.24	-44.0	-45.1	26.3	6.03e-01	0	44	0	474480640	60	3902
2026-01-25 02:20:17.18	199.98	21.09	-44.1	-45.2	26.2	6.00e-01	0	44	0	476577792	59	4173
2026-01-25 02:20:18.19	200.01	20.93	-44.0	-45.2	26.2	6.05e-01	0	44	0	478150656	59	4156
2026-01-25 02:20:19.20	200.03	20.78	-44.1	-45.2	26.2	6.00e-01	0	44	0	480247808	59	4175
2026-01-25 02:20:20.21	200.05	20.63	-44.1	-45.2	26.2	6.04e-01	0	44	0	482344960	59	4171
2026-01-25 02:20:21.22	200.08	20.48	-44.1	-45.2	26.2	6.02e-01	0	44	0	483917824	59	4182
2026-01-25 02:20:22.23	200.10	20.33	-44.1	-45.2	26.2	6.01e-01	0	44	0	486014976	59	4164
2026-01-25 02:20:23.24	200.12	20.18	-44.1	-45.2	26.1	5.97e-01	0	44	0	488112128	59	4180
2026-01-25 02:20:24.24	200.15	20.03	-44.1	-45.3	26.1	6.02e-01	0	44	0	489684992	59	4203
2026-01-25 02:20:25.25	200.17	19.88	-53.5	-59.9	12.0	6.09e-01	0	44	0	491782144	77	8035
2026-01-25 02:20:26.26	200.19	19.74	-53.2	-59.0	12.7	6.07e-01	0	44	0	493355008	77	7271
2026-01-25 02:20:27.27	200.21	19.59	-53.3	-59.5	12.2	6.09e-01	0	44	0	495452160	77	7633
2026-01-25 02:20:28.28	200.24	19.45	-52.9	-58.0	14.0	6.01e-01	0	44	0	497025024	77	6436
2026-01-25 02:20:29.29	200.26	19.30	-51.3	-54.6	17.1	6.02e-01	0	44	0	499122176	74	5182
2026-01-25 02:20:30.29	200.28	19.16	-50.9	-53.9	17.7	6.01e-01	0	44	0	501219328	73	5055
2026-01-25 02:20:31.30	200.30	19.02	-50.5	-53.3	17.9	6.01e-01	0	44	0	502792192	72	5017
2026-01-25 02:20:32.31	200.32	18.88	-48.8	-50.8	20.7	6.00e-01	0	44	0	504889344	69	4491
2026-01-25 02:20:33.32	200.34	18.74	-47.3	-48.9	22.6	6.03e-01	0	44	0	506986496	66	4287
2026-01-25 02:20:34.33	200.36	18.60	-46.4	-47.8	23.5	6.04e-01	0	44	0	508559360	64	4233
2026-01-25 02:20:35.33	200.38	18.46	-46.4	-47.8	23.8	6.02e-01	0	44	0	510656512	63	4464
2026-01-25 02:20:36.34	200.41	18.32	-45.6	-47.0	24.5	6.00e-01	0	44	0	512229376	63	4059
2026-01-25 02:20:37.35	200.43	18.18	-44.9	-46.2	25.1	6.01e-01	0	43	0	514326528	61	4152
2026-01-25 02:20:38.36	200.45	18.05	-44.6	-45.8	25.6	6.03e-01	0	44	0	516423680	61	3993
2026-01-25 02:20:39.37	200.47	17.91	-44.4	-45.6	25.8	6.03e-01	0	44	0	517996544	60	4139
2026-01-25 02:20:40.37	200.49	17.78	-44.4	-45.6	25.8	6.02e-01	0	43	0	520093696	60	4129
2026-01-25 02:20:41.38	200.51	17.65	-44.2	-45.4	26.0	6.03e-01	0	44	0	521666560	60	4005
2026-01-25 02:20:42.39	200.53	17.51	-44.2	-45.4	26.0	6.03e-01	0	44	0	523763712	60	4025
2026-01-25 02:20:43.40	200.55	17.38	-44.3	-45.5	25.9	6.03e-01	0	44	0	525336576	60	4069
2026-01-25 02:20:44.41	200.57	17.25	-44.3	-45.5	25.9	6.02e-01	0	44	0	527433728	60	4058
2026-01-25 02:20:45.41	200.58	17.12	-44.2	-45.4	26.0	6.03e-01	0	44	0	529530880	60	4031
2026-01-25 02:20:46.42	200.60	16.99	-44.2	-45.4	25.9	6.03e-01	0	44	0	531628032	60	4038
2026-01-25 02:20:47.43	200.62	16.86	-44.2	-45.5	25.9	6.05e-01	0	43	0	533200896	60	4052
2026-01-25 02:20:48.44	200.64	16.73	-44.2	-45.4	26.0	6.01e-01	0	44	0	535298048	60	4032
2026-01-25 02:20:49.45	200.66	16.61	-44.3	-45.5	25.9	6.04e-01	0	44	0	536870912	60	4065
2026-01-25 02:20:50.45	200.68	16.48	-44.3	-45.5	25.9	6.00e-01	0	44	0	538968064	60	4058
2026-01-25 02:20:51.46	200.70	16.35	-44.2	-45.4	25.9	6.01e-01	0	44	0	540540928	60	4042
2026-01-25 02:20:52.47	200.72	16.23	-44.2	-45.4	25.8	6.01e-01	0	44	0	542638080	60	4048
2026-01-25 02:20:53.48	200.73	16.10	-44.2	-45.4	25.9	6.04e-01	0	44	0	544735232	60	4045
2026-01-25 02:20:54.49	200.75	15.98	-44.2	-45.4	25.8	6.03e-01	0	44	0	546308096	60	4043
2026-01-25 02:20:55.50	200.77	15.86	-44.2	-45.4	25.8	6.01e-01	0	44	0	548405248	60	4038
2026-01-25 02:20:56.51	200.79	15.73	-44.3	-45.5	25.8	6.01e-01	0	44	0	550502400	60	4086
2026-01-25 02:20:57.52	200.81	15.61	-44.2	-45.4	25.8	6.01e-01	0	44	0	552075264	60	4049
2026-01-25 02:20:58.53	200.82	15.49	-44.2	-45.4	25.8	6.01e-01	0	44	0	554172416	60	4029
2026-01-25 02:20:59.54	200.84	15.37	-44.2	-45.4	25.7	6.02e-01	0	44	0	555745280	60	4049
2026-01-25 02:21:00.55	200.86	15.25	-44.1	-45.3	25.9	6.02e-01	0	44	0	557842432	60	3976
2026-01-25 02:21:01.55	200.87	15.13	-44.1	-45.3	25.9	6.01e-01	0	44	0	559939584	60	3962
2026-01-25 02:21:02.56	200.89	15.01	-44.2	-45.4	25.8	6.03e-01	0	44	0	561512448	60	4005
2026-01-25 02:21:03.57	200.91	14.90	-44.0	-45.2	26.0	6.03e-01	0	44	0	563609600	60	3947
2026-01-25 02:21:04.58	200.93	14.78	-44.1	-45.2	25.9	6.03e-01	0	44	0	565182464	60	3948
2026-01-25 02:21:05.58	200.94	14.66	-44.1	-45.3	25.9	6.01e-01	0	43	0	567279616	60	3965
2026-01-25 02:21:06.59	200.96	14.55	-44.1	-45.2	25.9	6.03e-01	0	44	0	568852480	59	4188
2026-01-25 02:21:07.60	200.98	14.43	-44.0	-45.2	25.9	6.01e-01	0	44	0	570949632	59	4167
2026-01-25 02:21:08.61	200.99	14.32	-44.1	-45.3	25.8	6.05e-01	0	44	0	573046784	59	4218
2026-01-25 02:21:09.62	201.01	14.20	-44.1	-45.2	25.9	6.05e-01	0	44	0	574619648	59	4179
2026-01-25 02:21:10.62	201.03	14.09	-44.1	-45.3	25.7	6.03e-01	0	44	0	576716800	59	4202
2026-01-25 02:21:11.63	201.04	13.98	-44.0	-45.2	25.8	6.02e-01	0	44	0	578813952	59	4174
2026-01-25 02:21:12.64	201.06	13.86	-44.1	-45.3	25.8	6.01e-01	0	44	0	580386816	59	4209
2026-01-25 02:21:13.65	201.07	13.75	-44.1	-45.3	25.8	6.03e-01	0	44	0	582483968	59	4224
2026-01-25 02:21:14.66	201.09	13.64	-43.9	-45.1	26.0	6.01e-01	0	43	0	584056832	59	4099
2026-01-25 02:21:15.67	201.10	13.53	-43.9	-45.0	26.1	6.01e-01	0	44	0	586153984	59	4092
2026-01-25 02:21:16.68	201.12	13.42	-43.9	-45.1	26.0	6.02e-01	0	44	0	588251136	59	4107
2026-01-25 02:21:17.69	201.14	13.31	-43.9	-45.1	26.0	6.04e-01	0	44	0	589824000	59	4099
2026-01-25 02:21:18.69	201.15	13.20	-44.0	-45.1	25.9	6.03e-01	0	44	0	591921152	59	4138
2026-01-25 02:21:19.70	201.17	13.09	-44.0	-45.2	25.9	6.01e-01	0	44	0	593494016	59	4172
2026-01-25 02:21:20.71	201.18	12.98	-43.9	-45.0	26.1	6.02e-01	0	44	0	595591168	59	4088
2026-01-25 02:21:21.72	201.20	12.88	-44.0	-45.1	26.0	6.01e-01	0	44	0	597688320	59	4130
2026-01-25 02:21:22.73	201.21	12.77	-44.0	-45.2	25.9	5.99e-01	0	44	0	599261184	59	4165
2026-01-25 02:21:23.73	201.23	12.66	-43.8	-45.0	26.1	6.02e-01	0	44	0	601358336	59	4063
2026-01-25 02:21:24.74	201.24	12.56	-44.0	-45.1	26.0	6.03e-01	0	44	0	602931200	59	4134
2026-01-25 02:21:25.75	201.26	12.45	-44.0	-45.1	25.9	6.04e-01	0	44	0	605028352	59	4145
2026-01-25 02:21:26.76	201.27	12.35	-43.9	-45.1	26.0	6.02e-01	0	44	0	607125504	59	4103
2026-01-25 02:21:27.76	201.29	12.24	-44.0	-45.1	26.0	6.00e-01	0	44	0	608698368	59	4141
2026-01-25 02:21:28.77	201.30	12.14	-44.0	-45.2	25.9	6.02e-01	0	44	0	610795520	59	4157
2026-01-25 02:21:29.78	201.32	12.03	-44.1	-45.3	25.8	6.03e-01	0	44	0	612368384	59	4214
2026-01-25 02:21:30.79	201.33	11.93	-44.3	-45.5	25.7	6.03e-01	0	44	0	614465536	59	4302
2026-01-25 02:21:31.79	201.34	11.83	-44.0	-45.2	25.9	6.02e-01	0	44	0	616562688	59	4175
2026-01-25 02:21:32.80	201.36	11.73	-44.2	-45.4	25.7	6.01e-01	0	44	0	618135552	59	4273
2026-01-25 02:21:33.81	201.37	11.63	-44.3	-45.5	25.6	5.98e-01	0	44	0	620232704	59	4297
2026-01-25 02:21:34.82	201.39	11.52	-44.1	-45.3	25.8	6.02e-01	0	44	0	622329856	59	4212
2026-01-25 02:21:35.83	201.40	11.42	-44.1	-45.3	25.7	6.01e-01	0	43	0	623902720	59	4225
2026-01-25 02:21:36.84	201.41	11.32	-44.2	-45.4	25.7	6.02e-01	0	43	0	625999872	59	4271
2026-01-25 02:21:37.85	201.43	11.22	-44.2	-45.4	25.7	6.00e-01	0	44	0	627572736	59	4259
2026-01-25 02:21:38.85	201.44	11.13	-44.2	-45.4	25.6	6.02e-01	0	44	0	629669888	59	4284
2026-01-25 02:21:39.86	201.46	11.03	-44.3	-45.4	25.6	6.00e-01	0	44	0	631242752	59	4287
2026-01-25 02:21:40.87	201.47	10.93	-44.3	-45.5	25.6	6.01e-01	0	44	0	633339904	59	4336
2026-01-25 02:21:41.88	201.48	10.83	-44.3	-45.5	25.6	6.00e-01	0	44	0	635437056	59	4311
2026-01-25 02:21:42.89	201.50	10.73	-44.4	-45.6	25.5	6.01e-01	0	44	0	637009920	59	4354
2026-01-25 02:21:43.90	201.51	10.63	-44.4	-45.6	25.4	6.03e-01	0	44	0	639107072	59	4371
2026-01-25 02:21:44.91	201.52	10.54	-44.4	-45.7	25.4	6.01e-01	0	44	0	641204224	59	4393
2026-01-25 02:21:45.92	201.54	10.44	-44.4	-45.6	25.5	6.02e-01	0	44	0	642777088	59	4359
2026-01-25 02:21:46.93	201.55	10.35	-44.5	-45.7	25.4	6.01e-01	0	44	0	644874240	59	4403
2026-01-25 02:21:47.94	201.56	10.25	-44.5	-45.7	25.3	6.01e-01	0	44	0	646447104	59	4440
2026-01-25 02:21:48.95	201.58	10.15	-44.5	-45.8	25.3	6.03e-01	0	44	0	648544256	59	4460
2026-01-25 02:21:49.95	201.59	10.06	-44.5	-45.8	25.2	6.02e-01	0	44	0	650641408	59	4442
2026-01-25 02:21:50.96	201.60	9.97	-44.5	-45.7	25.3	6.01e-01	0	44	0	652214272	59	4420
2026-01-25 02:21:51.97	201.62	9.87	-44.7	-45.9	25.1	6.01e-01	0	44	0	654311424	59	4543
2026-01-25 02:21:52.98	201.63	9.78	-44.7	-46.0	25.0	6.03e-01	0	44	0	655884288	59	4556
2026-01-25 02:21:53.99	201.64	9.69	-44.6	-45.9	25.1	6.01e-01	0	43	0	657981440	59	4499
2026-01-25 02:21:55.00	201.65	9.59	-44.7	-45.9	25.1	6.02e-01	0	44	0	659554304	59	4526
2026-01-25 02:21:56.01	201.67	9.50	-44.6	-45.8	25.2	6.02e-01	0	44	0	661651456	60	4217
2026-01-25 02:21:57.01	201.68	9.41	-44.6	-45.8	25.2	6.01e-01	0	44	0	663748608	60	4240
2026-01-25 02:21:58.02	201.69	9.32	-44.6	-45.9	25.1	6.03e-01	0	44	0	665845760	60	4247
2026-01-25 02:21:59.03	201.70	9.23	-44.7	-46.0	25.1	6.03e-01	0	44	0	667418624	60	4303
2026-01-25 02:22:00.04	201.72	9.14	-44.8	-46.1	24.9	6.01e-01	0	44	0	669515776	60	4345
2026-01-25 02:22:01.05	201.73	9.05	-44.7	-46.0	25.0	6.02e-01	0	44	0	671088640	60	4314
2026-01-25 02:22:02.06	201.74	8.96	-44.8	-46.0	24.9	6.02e-01	0	44	0	673185792	60	4338
2026-01-25 02:22:03.07	201.75	8.87	-44.7	-45.9	25.1	6.05e-01	0	44	0	674758656	60	4289
2026-01-25 02:22:04.08	201.77	8.78	-44.7	-46.0	25.0	6.02e-01	0	44	0	676855808	60	4306
2026-01-25 02:22:05.09	201.78	8.69	-44.7	-46.0	25.0	6.02e-01	0	44	0	678952960	60	4306
2026-01-25 02:22:06.10	201.79	8.60	-44.8	-46.1	24.9	6.04e-01	0	44	0	680525824	60	4354
2026-01-25 02:22:07.11	201.80	8.51	-44.9	-46.2	24.8	6.00e-01	0	44	0	682622976	60	4399
2026-01-25 02:22:08.11	201.81	8.42	-44.8	-46.1	24.8	5.99e-01	0	44	0	684720128	60	4379
2026-01-25 02:22:09.12	201.83	8.34	-44.9	-46.2	24.8	6.03e-01	0	44	0	686292992	60	4414
2026-01-25 02:22:10.13	201.84	8.25	-45.0	-46.3	24.6	6.03e-01	0	44	0	688390144	60	4492
2026-01-25 02:22:11.14	201.85	8.16	-44.9	-46.2	24.7	6.02e-01	0	44	0	689963008	60	4432
2026-01-25 02:22:12.15	201.86	8.07	-45.0	-46.3	24.7	6.03e-01	0	44	0	692060160	60	4470
2026-01-25 02:22:13.16	201.87	7.99	-44.9	-46.2	24.7	6.04e-01	0	44	0	694157312	60	4416
2026-01-25 02:22:14.17	201.88	7.90	-45.0	-46.3	24.6	6.03e-01	0	44	0	695730176	60	4466
2026-01-25 02:22:15.17	201.90	7.82	-45.0	-46.3	24.6	6.01e-01	0	44	0	697827328	60	4455
2026-01-25 02:22:16.18	201.91	7.73	-45.1	-46.4	24.5	6.02e-01	0	44	0	699400192	60	4520
2026-01-25 02:22:17.19	201.92	7.65	-45.1	-46.4	24.5	6.02e-01	0	44	0	701497344	60	4514
2026-01-25 02:22:18.20	201.93	7.56	-45.2	-46.5	24.4	6.00e-01	0	44	0	703070208	60	4585
2026-01-25 02:22:19.21	201.94	7.48	-45.1	-46.4	24.5	6.03e-01	0	44	0	705167360	60	4516
2026-01-25 02:22:20.22	201.95	7.39	-45.2	-46.6	24.3	6.02e-01	0	44	0	707264512	60	4616
2026-01-25 02:22:21.23	201.96	7.31	-45.2	-46.6	24.3	6.02e-01	0	44	0	709361664	61	4367
2026-01-25 02:22:22.24	201.98	7.23	-45.4	-46.8	24.2	6.03e-01	0	44	0	710934528	61	4444
2026-01-25 02:22:23.24	201.99	7.14	-45.4	-46.8	24.1	6.02e-01	0	44	0	713031680	61	4452
2026-01-25 02:22:24.25	202.00	7.06	-45.3	-46.7	24.2	6.01e-01	0	44	0	714604544	61	4429
2026-01-25 02:22:25.26	202.01	6.98	-45.4	-46.8	24.1	6.01e-01	0	44	0	716701696	61	4455
2026-01-25 02:22:26.27	202.02	6.90	-45.5	-46.9	23.9	6.00e-01	0	44	0	718274560	61	4537
2026-01-25 02:22:27.28	202.03	6.81	-45.4	-46.8	24.1	6.01e-01	0	44	0	720371712	61	4478
2026-01-25 02:22:28.29	202.04	6.73	-45.4	-46.8	24.1	5.98e-01	0	44	0	722468864	61	4469
2026-01-25 02:22:29.29	202.05	6.65	-45.4	-46.8	24.0	6.02e-01	0	43	0	724041728	61	4474
2026-01-25 02:22:30.30	202.06	6.57	-45.5	-46.9	24.0	6.02e-01	0	44	0	726138880	61	4510
2026-01-25 02:22:31.31	202.07	6.49	-45.6	-47.1	23.8	6.00e-01	0	44	0	728236032	61	4614
2026-01-25 02:22:32.32	202.08	6.41	-45.7	-47.2	23.6	6.01e-01	0	44	0	729808896	62	4429
2026-01-25 02:22:33.33	202.10	6.33	-45.7	-47.2	23.7	6.01e-01	0	44	0	731906048	62	4401
2026-01-25 02:22:34.34	202.11	6.25	-45.7	-47.1	23.7	5.99e-01	0	44	0	733478912	62	4376
2026-01-25 02:22:35.35	202.12	6.17	-45.6	-47.0	23.8	6.03e-01	0	44	0	735576064	62	4339
2026-01-25 02:22:36.36	202.13	6.09	-45.8	-47.3	23.6	5.99e-01	0	44	0	737673216	62	4460
2026-01-25 02:22:37.37	202.14	6.01	-45.7	-47.2	23.6	6.03e-01	0	44	0	739246080	62	4401
2026-01-25 02:22:38.37	202.15	5.93	-45.8	-47.3	23.5	6.01e-01	0	44	0	741343232	62	4472
2026-01-25 02:22:39.38	202.16	5.85	-45.7	-47.2	23.6	6.02e-01	0	44	0	742916096	62	4402
2026-01-25 02:22:40.39	202.17	5.77	-45.6	-47.0	23.7	5.99e-01	0	44	0	745013248	62	4326
