passes_logs/2026/01/25/R3.2S_Murmansk/R3.2S_Murmansk__20260125_140059_FENGYUN_3D_rec.log

#Pass ID: 20260125_140059_FENGYUN 3D
#Satellite: FENGYUN 3D
#Configuration: FENGYUN 3D
#almurnet v.1.7.20251203
#Start time: 2026-01-25 14:01:00

#Version: 2.2.20231116
#Station: R3.2S_Murmansk
#Location: 33.079688 lon 68.888172 lat
#TLE: 1 43010U 17072A   26024.94080550 -.00000109  00000+0 -29577-4 0  9995
#TLE: 2 43010  98.9962 356.9116 0002509  91.7481 268.3982 14.19699259424665

#Time	Az	El	Level	Level2	SNR	BER	BlckErr	Temp	State	Recorded	gain1	gain2
2026-01-25 14:01:00.89	213.32	2.10	-53.6	-65.5	3.8	8.46e-01	0	41	0	0	78	14482
2026-01-25 14:01:01.88	213.39	2.16	-54.0	-66.0	3.8	8.46e-01	0	41	104	0	78	15302
2026-01-25 14:01:02.87	213.46	2.21	-54.0	-66.0	3.8	8.48e-01	0	41	104	0	78	15339
2026-01-25 14:01:03.87	213.53	2.27	-54.0	-66.0	3.8	8.46e-01	0	41	104	0	78	15320
2026-01-25 14:01:04.86	213.61	2.32	-54.1	-66.0	3.8	8.45e-01	0	41	104	0	78	15373
2026-01-25 14:01:05.85	213.68	2.37	-54.1	-66.0	3.8	8.47e-01	0	42	104	0	78	15395
2026-01-25 14:01:06.84	213.75	2.43	-54.1	-66.0	3.8	8.46e-01	0	42	104	0	78	15301
2026-01-25 14:01:07.84	213.83	2.48	-54.0	-66.0	3.8	8.46e-01	0	41	104	0	78	15273
2026-01-25 14:01:08.83	213.90	2.54	-54.0	-66.0	3.8	8.47e-01	0	42	104	0	78	15238
2026-01-25 14:01:09.82	213.97	2.59	-54.0	-65.9	3.8	8.47e-01	0	42	104	0	78	15214
2026-01-25 14:01:10.81	214.05	2.65	-54.0	-65.9	3.8	8.47e-01	0	42	104	0	78	15105
2026-01-25 14:01:11.79	214.12	2.70	-53.9	-65.9	3.8	8.47e-01	0	42	104	0	78	15073
2026-01-25 14:01:12.78	214.20	2.76	-53.9	-65.8	3.8	8.47e-01	0	42	104	0	78	14973
2026-01-25 14:01:13.77	214.27	2.81	-53.8	-65.7	3.8	8.46e-01	0	42	104	0	78	14855
2026-01-25 14:01:14.76	214.35	2.87	-53.7	-65.7	3.8	8.46e-01	0	42	104	0	78	14758
2026-01-25 14:01:15.75	214.42	2.92	-53.7	-65.6	3.8	8.46e-01	0	42	104	0	78	14563
2026-01-25 14:01:16.74	214.50	2.98	-53.6	-65.5	3.8	8.46e-01	0	42	104	0	78	14411
2026-01-25 14:01:17.72	214.57	3.03	-53.5	-65.4	3.8	8.47e-01	0	42	104	0	78	14319
2026-01-25 14:01:18.71	214.65	3.09	-53.4	-65.3	3.8	8.45e-01	0	42	104	0	78	14189
2026-01-25 14:01:19.70	214.73	3.15	-53.2	-65.2	3.8	8.46e-01	0	42	104	0	78	13901
2026-01-25 14:01:20.69	214.80	3.20	-53.0	-64.9	3.8	8.45e-01	0	42	104	0	78	13539
2026-01-25 14:01:21.68	214.88	3.26	-52.7	-64.5	3.8	8.45e-01	0	42	104	0	77	13710
2026-01-25 14:01:22.67	214.96	3.31	-52.4	-64.2	3.8	8.45e-01	0	42	104	0	76	13965
2026-01-25 14:01:23.66	215.04	3.37	-52.4	-64.1	3.8	8.47e-01	0	42	104	0	76	13791
2026-01-25 14:01:24.65	215.12	3.42	-52.3	-63.9	3.8	8.47e-01	0	42	104	0	76	13479
2026-01-25 14:01:25.65	215.19	3.48	-52.3	-64.0	3.8	8.46e-01	0	42	104	0	76	13629
2026-01-25 14:01:26.64	215.27	3.54	-52.3	-64.0	3.8	8.46e-01	0	42	104	0	76	13641
2026-01-25 14:01:27.63	215.35	3.59	-52.3	-64.1	3.8	8.46e-01	0	42	104	0	76	13751
2026-01-25 14:01:28.61	215.43	3.65	-52.3	-64.1	3.8	8.45e-01	0	42	104	0	76	13809
2026-01-25 14:01:29.60	215.51	3.71	-52.3	-64.2	3.8	8.48e-01	0	42	104	0	76	13957
2026-01-25 14:01:30.59	215.59	3.76	-52.3	-64.2	3.8	8.46e-01	0	42	104	0	76	13949
2026-01-25 14:01:31.59	215.67	3.82	-52.3	-64.2	3.8	8.45e-01	0	42	104	0	76	13896
2026-01-25 14:01:32.58	215.75	3.88	-52.3	-64.1	3.8	8.46e-01	0	42	104	0	76	13881
2026-01-25 14:01:33.57	215.83	3.93	-52.3	-64.2	3.8	8.46e-01	0	42	104	0	76	13898
2026-01-25 14:01:34.56	215.91	3.99	-52.3	-64.1	3.8	8.46e-01	0	42	104	0	76	13839
2026-01-25 14:01:35.55	216.00	4.05	-52.3	-64.0	3.8	8.46e-01	0	42	104	0	76	13607
2026-01-25 14:01:36.54	216.08	4.10	-52.2	-63.4	3.8	8.46e-01	0	42	104	0	76	12685
2026-01-25 14:01:37.52	216.16	4.16	-52.2	-62.7	3.8	8.45e-01	0	42	104	0	76	11761
2026-01-25 14:01:38.51	216.24	4.22	-52.1	-61.9	3.8	8.47e-01	0	42	104	0	76	10742
2026-01-25 14:01:39.50	216.32	4.27	-52.0	-61.4	3.9	8.43e-01	0	42	104	0	76	10083
2026-01-25 14:01:40.49	216.41	4.33	-52.0	-61.3	4.1	8.40e-01	0	42	0	0	76	9973
2026-01-25 14:01:41.47	216.49	4.39	-52.0	-61.2	4.1	8.43e-01	0	42	104	0	76	9905
2026-01-25 14:01:42.46	216.57	4.44	-52.1	-62.0	3.9	8.45e-01	0	42	104	0	76	10816
2026-01-25 14:01:43.44	216.65	4.50	-51.9	-60.8	4.1	8.42e-01	0	43	104	0	75	10025
2026-01-25 14:01:44.45	216.74	4.56	-51.3	-57.6	5.6	7.39e-01	0	43	0	0	74	7306
2026-01-25 14:01:45.44	216.82	4.62	-50.3	-54.6	8.3	1.11e-01	0	42	0	5242880	72	5791
2026-01-25 14:01:46.42	216.91	4.67	-49.0	-52.0	11.1	9.02e-03	0	42	0	10485760	70	4826
2026-01-25 14:01:47.41	216.99	4.73	-48.0	-50.4	12.7	2.84e-04	0	43	0	16777216	68	4502
2026-01-25 14:01:48.40	217.08	4.79	-46.4	-48.2	14.9	2.20e-06	0	43	0	22020096	64	4410
2026-01-25 14:01:49.39	217.16	4.85	-45.8	-47.3	15.9	0.00e+00	0	43	0	27262976	63	4228
2026-01-25 14:01:50.38	217.25	4.90	-45.2	-46.6	16.6	0.00e+00	0	43	0	32505856	62	4100
2026-01-25 14:01:51.38	217.34	4.96	-44.7	-46.0	17.2	0.00e+00	0	43	0	37748736	61	4088
2026-01-25 14:01:52.37	217.42	5.02	-44.7	-46.0	17.2	0.00e+00	0	43	0	44040192	61	4074
2026-01-25 14:01:53.35	217.51	5.08	-45.1	-46.5	16.7	0.00e+00	0	42	0	49283072	61	4337
2026-01-25 14:01:54.34	217.60	5.14	-46.2	-47.8	15.5	0.00e+00	0	43	0	55574528	62	4755
2026-01-25 14:01:55.34	217.69	5.19	-49.5	-52.9	9.8	6.79e-01	0	43	0	59768832	71	5075
2026-01-25 14:01:56.33	217.77	5.25	-43.3	-44.4	19.3	0.00e+00	0	43	0	65011712	57	4250
2026-01-25 14:01:57.32	217.86	5.31	-43.9	-45.1	18.6	0.00e+00	0	43	0	71303168	59	4103
2026-01-25 14:01:58.31	217.95	5.37	-44.6	-45.8	17.5	0.00e+00	0	43	0	76546048	61	4003
2026-01-25 14:01:59.29	218.04	5.43	-43.1	-44.1	19.5	0.00e+00	0	43	0	81788928	58	3907
2026-01-25 14:02:00.28	218.13	5.49	-43.2	-44.3	19.4	0.00e+00	0	43	0	87031808	58	3972
2026-01-25 14:02:01.26	218.22	5.54	-43.0	-44.0	19.6	0.00e+00	0	43	0	93323264	58	3867
2026-01-25 14:02:02.25	218.31	5.60	-43.1	-44.1	19.5	0.00e+00	0	43	0	98566144	57	4130
2026-01-25 14:02:03.24	218.40	5.66	-43.1	-44.2	19.5	0.00e+00	0	42	0	103809024	57	4165
2026-01-25 14:02:04.22	218.49	5.72	-42.8	-43.8	19.9	0.00e+00	0	43	0	110100480	57	3982
2026-01-25 14:02:05.21	218.58	5.78	-42.9	-44.0	19.7	0.00e+00	0	43	0	115343360	57	4058
2026-01-25 14:02:06.20	218.67	5.84	-42.8	-43.9	19.9	0.00e+00	0	43	0	120586240	57	4007
2026-01-25 14:02:07.19	218.76	5.90	-42.7	-43.7	20.0	0.00e+00	0	43	0	125829120	57	3931
2026-01-25 14:02:08.18	218.85	5.96	-42.8	-43.8	19.9	0.00e+00	0	43	0	132120576	57	3972
2026-01-25 14:02:09.17	218.95	6.02	-42.6	-43.6	20.1	0.00e+00	0	43	0	137363456	57	3903
2026-01-25 14:02:10.16	219.04	6.08	-42.5	-43.4	20.3	0.00e+00	0	43	0	142606336	56	4037
2026-01-25 14:02:11.14	219.13	6.13	-42.5	-43.5	20.2	0.00e+00	0	43	0	148897792	56	4080
2026-01-25 14:02:12.14	219.23	6.19	-42.5	-43.5	20.2	0.00e+00	0	43	0	154140672	56	4088
2026-01-25 14:02:13.12	219.32	6.25	-42.7	-43.7	20.1	0.00e+00	0	42	0	159383552	56	4151
2026-01-25 14:02:14.11	219.41	6.31	-42.4	-43.3	20.4	0.00e+00	0	43	0	165675008	56	4004
2026-01-25 14:02:15.10	219.51	6.37	-42.3	-43.3	20.5	0.00e+00	0	43	0	170917888	56	3960
2026-01-25 14:02:16.09	219.60	6.43	-42.3	-43.3	20.5	0.00e+00	0	43	0	176160768	56	3984
2026-01-25 14:02:17.08	219.70	6.49	-42.5	-43.4	20.3	0.00e+00	0	43	0	181403648	56	4051
2026-01-25 14:02:18.06	219.79	6.55	-42.4	-43.3	20.4	0.00e+00	0	43	0	187695104	56	3992
2026-01-25 14:02:19.05	219.89	6.61	-42.2	-43.2	20.6	0.00e+00	0	43	0	192937984	56	3932
2026-01-25 14:02:20.03	219.98	6.67	-42.4	-43.3	20.5	0.00e+00	0	43	0	198180864	56	3990
2026-01-25 14:02:21.02	220.08	6.73	-42.3	-43.3	20.5	0.00e+00	0	43	0	204472320	56	3974
2026-01-25 14:02:22.02	220.18	6.79	-42.3	-43.2	20.6	0.00e+00	0	43	0	209715200	56	3936
2026-01-25 14:02:23.01	220.28	6.85	-42.3	-43.2	20.6	0.00e+00	0	43	0	216006656	56	3956
2026-01-25 14:02:24.00	220.38	6.91	-42.3	-43.2	20.6	0.00e+00	0	43	0	221249536	56	3958
2026-01-25 14:02:24.98	220.47	6.97	-42.2	-43.2	20.7	0.00e+00	0	43	0	226492416	56	3918
2026-01-25 14:02:25.97	220.57	7.03	-42.2	-43.2	20.6	0.00e+00	0	43	0	231735296	56	3930
2026-01-25 14:02:26.95	220.67	7.09	-42.5	-43.5	20.3	0.00e+00	0	43	0	236978176	56	4081
2026-01-25 14:02:27.94	220.77	7.15	-42.2	-43.2	20.6	0.00e+00	0	43	0	243269632	56	3923
2026-01-25 14:02:28.93	220.87	7.21	-42.3	-43.3	20.5	0.00e+00	0	43	0	248512512	56	3984
2026-01-25 14:02:29.92	220.97	7.27	-42.3	-43.2	20.6	0.00e+00	0	43	0	254803968	56	3949
2026-01-25 14:02:30.90	221.07	7.33	-42.5	-43.4	20.4	0.00e+00	0	43	0	260046848	56	4039
2026-01-25 14:02:31.88	221.17	7.40	-42.5	-43.4	20.4	0.00e+00	0	43	0	265289728	56	4048
2026-01-25 14:02:32.87	221.27	7.46	-42.5	-43.5	20.4	0.00e+00	0	43	0	270532608	56	4059
2026-01-25 14:02:33.86	221.37	7.52	-42.7	-43.7	20.2	0.00e+00	0	43	0	276824064	56	4148
2026-01-25 14:02:34.85	221.48	7.58	-42.5	-43.5	20.4	0.00e+00	0	43	0	282066944	56	4061
2026-01-25 14:02:35.84	221.58	7.64	-42.6	-43.6	20.3	0.00e+00	0	43	0	287309824	56	4100
2026-01-25 14:02:36.83	221.68	7.70	-42.3	-43.3	20.6	0.00e+00	0	43	0	293601280	56	3975
2026-01-25 14:02:37.82	221.79	7.76	-42.5	-43.5	20.4	0.00e+00	0	43	0	298844160	56	4063
2026-01-25 14:02:38.80	221.89	7.82	-42.3	-43.2	20.7	0.00e+00	0	43	0	304087040	56	3940
2026-01-25 14:02:39.79	221.99	7.88	-42.3	-43.3	20.6	0.00e+00	0	43	0	310378496	56	3969
2026-01-25 14:02:40.78	222.10	7.95	-42.3	-43.2	20.7	0.00e+00	0	43	0	315621376	56	3936
2026-01-25 14:02:41.76	222.20	8.01	-42.1	-43.0	20.9	0.00e+00	0	43	0	320864256	56	3851
2026-01-25 14:02:42.74	222.31	8.07	-42.2	-43.1	20.8	0.00e+00	0	43	0	326107136	56	3899
2026-01-25 14:02:43.73	222.41	8.13	-42.3	-43.3	20.6	0.00e+00	0	43	0	332398592	56	3976
2026-01-25 14:02:44.73	222.52	8.19	-42.2	-43.1	20.8	0.00e+00	0	43	0	337641472	56	3886
2026-01-25 14:02:45.72	222.63	8.25	-42.1	-43.0	20.9	0.00e+00	0	43	0	342884352	56	3857
2026-01-25 14:02:46.70	222.73	8.32	-42.2	-43.1	20.8	0.00e+00	0	43	0	349175808	56	3896
2026-01-25 14:02:47.68	222.84	8.38	-42.1	-43.0	21.0	0.00e+00	0	43	0	354418688	56	3829
2026-01-25 14:02:48.67	222.95	8.44	-41.8	-42.7	21.1	0.00e+00	0	43	0	359661568	55	3940
2026-01-25 14:02:49.65	223.06	8.50	-41.9	-42.8	21.0	0.00e+00	0	43	0	364904448	55	3990
2026-01-25 14:02:50.64	223.17	8.56	-41.9	-42.8	21.1	0.00e+00	0	43	0	371195904	55	3976
2026-01-25 14:02:51.63	223.28	8.63	-42.0	-42.9	21.0	0.00e+00	0	43	0	376438784	55	4027
2026-01-25 14:02:52.62	223.39	8.69	-41.9	-42.8	21.1	0.00e+00	0	43	0	381681664	55	3978
2026-01-25 14:02:53.60	223.50	8.75	-42.0	-42.9	21.0	0.00e+00	0	43	0	387973120	55	4039
2026-01-25 14:02:54.59	223.61	8.81	-42.0	-42.9	20.9	0.00e+00	0	43	0	393216000	55	4034
2026-01-25 14:02:55.58	223.72	8.87	-41.9	-42.8	21.1	0.00e+00	0	43	0	398458880	55	3979
2026-01-25 14:02:56.56	223.83	8.94	-41.8	-42.7	21.2	0.00e+00	0	43	0	403701760	55	3928
2026-01-25 14:02:57.55	223.94	9.00	-41.8	-42.7	21.2	0.00e+00	0	43	0	409993216	55	3934
2026-01-25 14:02:58.55	224.06	9.06	-41.5	-42.4	21.5	0.00e+00	0	43	0	415236096	55	3802
2026-01-25 14:02:59.54	224.17	9.13	-41.6	-42.5	21.4	0.00e+00	0	43	0	420478976	55	3857
2026-01-25 14:03:00.53	224.28	9.19	-41.4	-42.3	21.6	0.00e+00	0	43	0	426770432	54	3970
2026-01-25 14:03:01.52	224.40	9.25	-41.5	-42.3	21.5	0.00e+00	0	43	0	432013312	54	3997
2026-01-25 14:03:02.51	224.51	9.31	-41.3	-42.1	21.7	0.00e+00	0	43	0	437256192	54	3901
2026-01-25 14:03:03.50	224.63	9.38	-41.3	-42.2	21.6	0.00e+00	0	43	0	443547648	54	3931
2026-01-25 14:03:04.48	224.74	9.44	-41.5	-42.3	21.5	0.00e+00	0	43	0	448790528	54	4000
2026-01-25 14:03:05.47	224.86	9.50	-41.4	-42.2	21.6	0.00e+00	0	43	0	454033408	54	3956
2026-01-25 14:03:06.46	224.98	9.57	-41.5	-42.4	21.5	0.00e+00	0	43	0	459276288	54	4013
2026-01-25 14:03:07.45	225.09	9.63	-41.5	-42.4	21.5	0.00e+00	0	43	0	465567744	54	4040
2026-01-25 14:03:08.44	225.21	9.69	-41.7	-42.5	21.4	0.00e+00	0	43	0	470810624	54	4093
2026-01-25 14:03:09.42	225.33	9.76	-41.5	-42.4	21.5	0.00e+00	0	43	0	476053504	54	4042
2026-01-25 14:03:10.42	225.45	9.82	-41.3	-42.2	21.7	0.00e+00	0	43	0	482344960	54	3922
2026-01-25 14:03:11.40	225.57	9.88	-41.3	-42.1	21.7	0.00e+00	0	43	0	487587840	54	3909
2026-01-25 14:03:12.39	225.69	9.95	-41.2	-42.1	21.8	0.00e+00	0	43	0	492830720	54	3871
2026-01-25 14:03:13.38	225.81	10.01	-41.2	-42.0	21.9	0.00e+00	0	43	0	498073600	54	3863
2026-01-25 14:03:14.37	225.93	10.07	-41.2	-42.1	21.8	0.00e+00	0	43	0	504365056	54	3871
2026-01-25 14:03:15.36	226.05	10.14	-41.2	-42.0	21.9	0.00e+00	0	43	0	509607936	54	3843
2026-01-25 14:03:16.35	226.17	10.20	-41.2	-42.0	21.9	0.00e+00	0	43	0	514850816	54	3843
2026-01-25 14:03:17.34	226.29	10.27	-41.1	-41.9	22.0	0.00e+00	0	43	0	521142272	54	3797
2026-01-25 14:03:18.33	226.41	10.33	-41.1	-41.9	22.0	0.00e+00	0	43	0	526385152	54	3801
2026-01-25 14:03:19.32	226.54	10.39	-41.0	-41.8	22.1	0.00e+00	0	43	0	532676608	54	3763
2026-01-25 14:03:20.31	226.66	10.46	-41.0	-41.9	22.0	0.00e+00	0	43	0	537919488	53	4017
2026-01-25 14:03:21.29	226.78	10.52	-41.1	-41.9	22.0	0.00e+00	0	43	0	543162368	53	4040
2026-01-25 14:03:22.29	226.91	10.59	-41.0	-41.8	22.1	0.00e+00	0	43	0	548405248	53	3985
2026-01-25 14:03:23.28	227.04	10.65	-41.1	-41.9	22.0	0.00e+00	0	43	0	554696704	53	4033
2026-01-25 14:03:24.26	227.16	10.71	-41.1	-41.9	22.0	0.00e+00	0	43	0	559939584	53	4047
2026-01-25 14:03:25.26	227.29	10.78	-41.1	-41.9	22.0	0.00e+00	0	43	0	565182464	53	4037
2026-01-25 14:03:26.25	227.42	10.84	-41.1	-41.9	22.0	0.00e+00	0	43	0	571473920	53	4039
2026-01-25 14:03:27.24	227.54	10.91	-41.1	-41.9	22.0	0.00e+00	0	43	0	576716800	53	4044
2026-01-25 14:03:28.23	227.67	10.97	-41.1	-42.0	22.0	0.00e+00	0	43	0	581959680	53	4062
2026-01-25 14:03:29.22	227.80	11.04	-41.0	-41.9	22.0	0.00e+00	0	43	0	588251136	53	4015
2026-01-25 14:03:30.21	227.93	11.10	-41.1	-42.0	22.0	0.00e+00	0	43	0	593494016	53	4062
2026-01-25 14:03:31.19	228.06	11.16	-41.3	-42.1	21.8	0.00e+00	0	43	0	598736896	53	4129
2026-01-25 14:03:32.18	228.19	11.23	-41.2	-42.0	22.0	0.00e+00	0	43	0	603979776	53	4085
2026-01-25 14:03:33.17	228.32	11.29	-41.1	-42.0	22.0	0.00e+00	0	43	0	610271232	53	4066
2026-01-25 14:03:34.16	228.45	11.36	-41.1	-42.0	22.0	0.00e+00	0	43	0	615514112	53	4069
2026-01-25 14:03:35.15	228.58	11.42	-41.1	-42.0	22.0	0.00e+00	0	43	0	620756992	53	4057
2026-01-25 14:03:36.14	228.71	11.49	-41.1	-42.0	21.9	0.00e+00	0	43	0	627048448	53	4080
2026-01-25 14:03:37.13	228.85	11.55	-40.9	-41.8	22.2	0.00e+00	0	43	0	632291328	53	3971
2026-01-25 14:03:38.12	228.98	11.62	-40.9	-41.8	22.2	0.00e+00	0	43	0	637534208	53	3960
2026-01-25 14:03:39.12	229.12	11.68	-40.8	-41.6	22.3	0.00e+00	0	43	0	643825664	53	3897
2026-01-25 14:03:40.12	229.25	11.75	-40.8	-41.6	22.4	0.00e+00	0	43	0	649068544	53	3879
2026-01-25 14:03:41.12	229.39	11.81	-40.7	-41.5	22.5	0.00e+00	0	43	0	655360000	53	3835
2026-01-25 14:03:42.12	229.53	11.88	-40.8	-41.7	22.3	0.00e+00	0	43	0	660602880	53	3916
2026-01-25 14:03:43.11	229.66	11.94	-40.7	-41.5	22.5	0.00e+00	0	43	0	665845760	53	3846
2026-01-25 14:03:44.11	229.80	12.01	-40.8	-41.6	22.3	0.00e+00	0	43	0	672137216	53	3903
2026-01-25 14:03:45.11	229.94	12.08	-40.8	-41.6	22.4	0.00e+00	0	43	0	677380096	53	3898
2026-01-25 14:03:46.12	230.08	12.14	-40.9	-41.7	22.3	0.00e+00	0	43	0	682622976	53	3936
2026-01-25 14:03:47.11	230.22	12.21	-40.8	-41.7	22.3	0.00e+00	0	43	0	688914432	53	3914
2026-01-25 14:03:48.11	230.36	12.27	-40.8	-41.6	22.4	0.00e+00	0	43	0	694157312	53	3892
2026-01-25 14:03:49.11	230.50	12.34	-40.8	-41.6	22.4	0.00e+00	0	43	0	699400192	53	3903
2026-01-25 14:03:50.11	230.64	12.40	-40.7	-41.5	22.5	0.00e+00	0	43	0	705691648	53	3836
2026-01-25 14:03:51.11	230.79	12.47	-40.7	-41.5	22.5	0.00e+00	0	43	0	710934528	53	3845
2026-01-25 14:03:52.11	230.93	12.54	-40.7	-41.5	22.4	0.00e+00	0	43	0	717225984	53	3863
2026-01-25 14:03:53.11	231.07	12.60	-40.7	-41.5	22.4	0.00e+00	0	43	0	722468864	53	3866
2026-01-25 14:03:54.11	231.22	12.67	-40.6	-41.5	22.5	0.00e+00	0	43	0	727711744	53	3828
2026-01-25 14:03:55.11	231.36	12.73	-40.4	-41.1	22.8	0.00e+00	0	43	0	734003200	52	3909
2026-01-25 14:03:56.10	231.51	12.80	-40.4	-41.1	22.8	0.00e+00	0	43	0	739246080	52	3908
2026-01-25 14:03:57.10	231.65	12.86	-40.4	-41.2	22.8	0.00e+00	0	43	0	744488960	52	3918
2026-01-25 14:03:58.10	231.80	12.93	-40.2	-41.0	23.0	0.00e+00	0	43	0	750780416	52	3835
2026-01-25 14:03:59.09	231.95	13.00	-40.3	-41.1	22.8	0.00e+00	0	43	0	756023296	52	3905
2026-01-25 14:04:00.09	232.10	13.06	-40.3	-41.1	22.9	0.00e+00	0	43	0	761266176	52	3873
2026-01-25 14:04:01.09	232.24	13.13	-40.3	-41.1	22.9	0.00e+00	0	43	0	767557632	52	3872
2026-01-25 14:04:02.09	232.39	13.19	-40.2	-41.0	23.0	0.00e+00	0	43	0	772800512	52	3836
2026-01-25 14:04:03.09	232.54	13.26	-40.4	-41.2	22.8	0.00e+00	0	43	0	778043392	52	3921
2026-01-25 14:04:04.09	232.70	13.33	-40.3	-41.1	22.8	0.00e+00	0	43	0	783286272	52	3905
2026-01-25 14:04:05.08	232.85	13.39	-40.3	-41.1	22.9	0.00e+00	0	43	0	789577728	52	3892
2026-01-25 14:04:06.08	233.00	13.46	-40.4	-41.1	22.8	0.00e+00	0	43	0	794820608	52	3911
2026-01-25 14:04:07.08	233.15	13.52	-40.3	-41.1	22.9	0.00e+00	0	43	0	800063488	52	3871
2026-01-25 14:04:08.07	233.30	13.59	-40.3	-41.1	22.9	0.00e+00	0	43	0	806354944	52	3888
2026-01-25 14:04:09.07	233.46	13.65	-40.3	-41.1	22.9	0.00e+00	0	43	0	811597824	52	3910
2026-01-25 14:04:10.07	233.61	13.72	-40.4	-41.2	22.8	0.00e+00	0	43	0	817889280	52	3920
2026-01-25 14:04:11.07	233.77	13.79	-40.3	-41.1	22.9	0.00e+00	0	43	0	823132160	52	3895
2026-01-25 14:04:12.07	233.92	13.85	-40.4	-41.2	22.8	0.00e+00	0	43	0	828375040	52	3916
2026-01-25 14:04:13.07	234.08	13.92	-40.3	-41.1	22.9	0.00e+00	0	43	0	834666496	52	3898
2026-01-25 14:04:14.07	234.24	13.98	-40.4	-41.2	22.8	0.00e+00	0	43	0	839909376	52	3938
2026-01-25 14:04:15.06	234.39	14.05	-40.3	-41.1	22.9	0.00e+00	0	43	0	845152256	52	3885
2026-01-25 14:04:16.06	234.55	14.11	-40.2	-41.0	23.0	0.00e+00	0	43	0	851443712	52	3833
2026-01-25 14:04:17.06	234.71	14.18	-40.2	-41.0	23.0	0.00e+00	0	43	0	856686592	52	3843
2026-01-25 14:04:18.05	234.87	14.24	-40.2	-41.0	23.0	0.00e+00	0	43	0	861929472	52	3851
2026-01-25 14:04:19.06	235.03	14.31	-40.2	-41.0	23.0	0.00e+00	0	43	0	868220928	52	3850
2026-01-25 14:04:20.06	235.20	14.38	-40.2	-41.0	23.0	0.00e+00	0	43	0	873463808	52	3847
2026-01-25 14:04:21.05	235.36	14.44	-40.2	-41.0	23.0	0.00e+00	0	43	0	879755264	52	3833
2026-01-25 14:04:22.05	235.52	14.51	-40.1	-40.9	23.1	0.00e+00	0	43	0	884998144	52	3814
2026-01-25 14:04:23.05	235.68	14.57	-40.1	-40.9	23.1	0.00e+00	0	44	0	890241024	52	3786
2026-01-25 14:04:24.05	235.85	14.64	-40.0	-40.8	23.2	0.00e+00	0	43	0	896532480	52	3767
2026-01-25 14:04:25.05	236.01	14.70	-40.1	-40.9	23.1	0.00e+00	0	43	0	901775360	52	3783
2026-01-25 14:04:26.06	236.18	14.77	-40.0	-40.7	23.3	0.00e+00	0	43	0	907018240	51	3953
2026-01-25 14:04:27.06	236.35	14.84	-40.0	-40.7	23.3	0.00e+00	0	43	0	913309696	51	3957
2026-01-25 14:04:28.06	236.51	14.90	-40.0	-40.7	23.3	0.00e+00	0	43	0	918552576	51	3957
2026-01-25 14:04:29.05	236.68	14.97	-40.0	-40.8	23.3	0.00e+00	0	43	0	923795456	51	3965
2026-01-25 14:04:30.05	236.85	15.03	-40.0	-40.8	23.3	0.00e+00	0	43	0	930086912	51	3963
2026-01-25 14:04:31.05	237.02	15.10	-39.9	-40.6	23.4	0.00e+00	0	43	0	935329792	51	3907
2026-01-25 14:04:32.05	237.19	15.16	-40.0	-40.8	23.3	0.00e+00	0	43	0	941621248	51	3974
2026-01-25 14:04:33.04	237.36	15.23	-40.0	-40.8	23.3	0.00e+00	0	43	0	946864128	51	3980
2026-01-25 14:04:34.05	237.53	15.29	-39.9	-40.7	23.4	0.00e+00	0	43	0	952107008	51	3915
2026-01-25 14:04:35.04	237.70	15.36	-39.9	-40.7	23.4	0.00e+00	0	43	0	958398464	51	3938
2026-01-25 14:04:36.05	237.88	15.42	-40.0	-40.8	23.4	0.00e+00	0	43	0	963641344	51	3961
2026-01-25 14:04:37.05	238.05	15.49	-39.9	-40.7	23.4	0.00e+00	0	43	0	968884224	51	3938
2026-01-25 14:04:38.05	238.22	15.55	-40.0	-40.8	23.3	0.00e+00	0	43	0	975175680	51	3987
2026-01-25 14:04:39.04	238.40	15.62	-40.0	-40.7	23.3	0.00e+00	0	43	0	980418560	51	3955
2026-01-25 14:04:40.04	238.57	15.68	-40.0	-40.8	23.3	0.00e+00	0	43	0	986710016	51	3959
2026-01-25 14:04:41.03	238.75	15.74	-40.0	-40.8	23.4	0.00e+00	0	43	0	991952896	51	3963
2026-01-25 14:04:42.03	238.92	15.81	-39.9	-40.6	23.5	0.00e+00	0	43	0	997195776	51	3909
2026-01-25 14:04:43.02	239.10	15.87	-39.8	-40.5	23.6	0.00e+00	0	43	0	1003487232	51	3859
2026-01-25 14:04:44.02	239.28	15.94	-39.8	-40.5	23.5	0.00e+00	0	43	0	1008730112	51	3867
2026-01-25 14:04:45.02	239.46	16.00	-39.8	-40.5	23.6	0.00e+00	0	43	0	1013972992	51	3857
2026-01-25 14:04:46.02	239.64	16.06	-39.8	-40.5	23.6	0.00e+00	0	43	0	1020264448	51	3854
2026-01-25 14:04:47.02	239.82	16.13	-39.9	-40.6	23.5	0.00e+00	0	43	0	1025507328	51	3910
2026-01-25 14:04:48.02	240.00	16.19	-39.9	-40.7	23.4	0.00e+00	0	43	0	1030750208	51	3925
2026-01-25 14:04:49.01	240.18	16.26	-40.0	-40.8	23.3	0.00e+00	0	43	0	1037041664	51	3979
2026-01-25 14:04:50.01	240.37	16.32	-40.0	-40.8	23.4	0.00e+00	0	43	0	1042284544	51	3968
2026-01-25 14:04:51.02	240.55	16.38	-39.9	-40.7	23.5	0.00e+00	0	43	0	1048576000	51	3932
2026-01-25 14:04:52.01	240.74	16.45	-40.1	-40.8	23.4	0.00e+00	0	43	0	1053818880	51	3992
2026-01-25 14:04:53.01	240.92	16.51	-39.9	-40.7	23.5	0.00e+00	0	43	0	1059061760	51	3926
2026-01-25 14:04:54.01	241.11	16.57	-39.8	-40.5	23.6	0.00e+00	0	43	0	1065353216	51	3861
2026-01-25 14:04:55.01	241.29	16.64	-39.5	-40.3	23.9	0.00e+00	0	43	0	1070596096	51	3742
2026-01-25 14:04:56.01	241.48	16.70	-39.6	-40.3	23.8	0.00e+00	0	43	0	1075838976	50	3992
2026-01-25 14:04:57.01	241.67	16.76	-39.6	-40.3	23.8	0.00e+00	0	43	0	1082130432	50	3984
2026-01-25 14:04:58.00	241.86	16.82	-39.5	-40.2	23.9	0.00e+00	0	43	0	1087373312	50	3945
2026-01-25 14:04:59.01	242.05	16.89	-39.4	-40.2	23.9	0.00e+00	0	43	0	1092616192	50	3922
2026-01-25 14:05:00.00	242.24	16.95	-39.3	-40.1	24.0	0.00e+00	0	43	0	1098907648	50	3875
2026-01-25 14:05:01.00	242.43	17.01	-39.4	-40.1	24.0	0.00e+00	0	43	0	1104150528	50	3884
2026-01-25 14:05:02.00	242.62	17.07	-39.4	-40.2	23.9	0.00e+00	0	43	0	1110441984	50	3923
2026-01-25 14:05:03.00	242.82	17.13	-39.5	-40.2	23.9	0.00e+00	0	43	0	1115684864	50	3933
2026-01-25 14:05:04.00	243.01	17.20	-39.5	-40.2	23.9	0.00e+00	0	44	0	1120927744	50	3947
2026-01-25 14:05:05.00	243.21	17.26	-39.5	-40.2	23.9	0.00e+00	0	43	0	1127219200	50	3946
2026-01-25 14:05:05.99	243.40	17.32	-39.5	-40.2	23.9	0.00e+00	0	43	0	1132462080	50	3953
2026-01-25 14:05:07.00	243.60	17.38	-39.7	-40.4	23.7	0.00e+00	0	43	0	1137704960	50	4034
2026-01-25 14:05:07.99	243.79	17.44	-39.6	-40.4	23.7	0.00e+00	0	43	0	1143996416	50	4025
2026-01-25 14:05:09.00	243.99	17.50	-39.7	-40.4	23.7	0.00e+00	0	43	0	1149239296	50	4050
2026-01-25 14:05:10.00	244.19	17.56	-39.6	-40.3	23.8	0.00e+00	0	43	0	1154482176	50	3983
2026-01-25 14:05:10.99	244.39	17.62	-39.7	-40.5	23.7	0.00e+00	0	43	0	1159725056	50	4065
2026-01-25 14:05:11.99	244.59	17.68	-39.6	-40.4	23.8	0.00e+00	0	44	0	1166016512	50	4013
2026-01-25 14:05:12.99	244.79	17.74	-39.7	-40.5	23.7	0.00e+00	0	43	0	1172307968	50	4055
2026-01-25 14:05:13.99	244.99	17.80	-39.7	-40.5	23.7	0.00e+00	0	43	0	1176502272	50	4052
2026-01-25 14:05:14.99	245.19	17.86	-39.5	-40.2	23.9	0.00e+00	0	43	0	1182793728	50	3946
2026-01-25 14:05:15.99	245.40	17.92	-39.3	-40.1	24.0	0.00e+00	0	43	0	1188036608	50	3878
2026-01-25 14:05:16.98	245.60	17.98	-39.3	-40.1	24.0	0.00e+00	0	43	0	1193279488	50	3882
2026-01-25 14:05:17.98	245.80	18.04	-39.3	-40.1	24.1	0.00e+00	0	43	0	1199570944	50	3876
2026-01-25 14:05:18.99	246.01	18.10	-39.2	-40.0	24.2	0.00e+00	0	43	0	1204813824	50	3829
2026-01-25 14:05:19.99	246.22	18.16	-39.2	-40.0	24.2	0.00e+00	0	43	0	1211105280	50	3838
2026-01-25 14:05:20.98	246.42	18.22	-39.3	-40.1	24.1	0.00e+00	0	43	0	1216348160	50	3878
2026-01-25 14:05:21.97	246.63	18.28	-39.3	-40.0	24.1	0.00e+00	0	43	0	1221591040	50	3864
2026-01-25 14:05:22.96	246.84	18.33	-39.4	-40.1	24.0	0.00e+00	0	43	0	1227882496	50	3913
2026-01-25 14:05:23.97	247.05	18.39	-39.3	-40.0	24.1	0.00e+00	0	43	0	1233125376	50	3865
2026-01-25 14:05:24.96	247.26	18.45	-39.3	-40.1	24.1	0.00e+00	0	43	0	1238368256	50	3877
2026-01-25 14:05:25.97	247.47	18.51	-39.3	-40.0	24.1	0.00e+00	0	43	0	1244659712	50	3857
2026-01-25 14:05:26.97	247.68	18.57	-39.2	-40.0	24.2	0.00e+00	0	43	0	1249902592	50	3825
2026-01-25 14:05:27.97	247.89	18.62	-39.2	-39.9	24.2	0.00e+00	0	43	0	1255145472	50	3812
2026-01-25 14:05:28.97	248.11	18.68	-39.2	-39.9	24.2	0.00e+00	0	43	0	1261436928	50	3801
2026-01-25 14:05:29.97	248.32	18.74	-39.1	-39.8	24.3	0.00e+00	0	43	0	1266679808	50	3774
2026-01-25 14:05:30.97	248.54	18.79	-39.2	-39.9	24.2	0.00e+00	0	43	0	1272971264	50	3794
2026-01-25 14:05:31.96	248.75	18.85	-39.3	-40.1	24.1	0.00e+00	0	43	0	1278214144	50	3869
2026-01-25 14:05:32.97	248.97	18.90	-39.3	-40.1	24.0	0.00e+00	0	43	0	1283457024	50	3881
2026-01-25 14:05:33.97	249.19	18.96	-39.3	-40.1	24.1	0.00e+00	0	43	0	1289748480	50	3873
2026-01-25 14:05:34.96	249.40	19.01	-39.4	-40.1	24.0	0.00e+00	0	43	0	1294991360	50	3894
2026-01-25 14:05:35.96	249.62	19.07	-39.4	-40.2	24.0	0.00e+00	0	43	0	1300234240	50	3915
2026-01-25 14:05:36.96	249.84	19.12	-39.1	-39.9	24.2	0.00e+00	0	43	0	1306525696	50	3794
2026-01-25 14:05:37.95	250.06	19.18	-39.2	-39.9	24.2	0.00e+00	0	43	0	1311768576	50	3818
2026-01-25 14:05:38.95	250.28	19.23	-39.1	-39.9	24.2	0.00e+00	0	43	0	1317011456	50	3796
2026-01-25 14:05:39.95	250.50	19.28	-39.0	-39.7	24.4	0.00e+00	0	43	0	1323302912	50	3736
2026-01-25 14:05:40.95	250.72	19.34	-39.1	-39.9	24.3	0.00e+00	0	43	0	1328545792	50	3783
2026-01-25 14:05:41.94	250.94	19.39	-39.2	-39.9	24.2	0.00e+00	0	43	0	1334837248	50	3824
2026-01-25 14:05:42.94	251.17	19.44	-39.1	-39.8	24.3	0.00e+00	0	43	0	1340080128	50	3774
2026-01-25 14:05:43.94	251.39	19.50	-39.1	-39.8	24.3	0.00e+00	0	43	0	1345323008	50	3780
2026-01-25 14:05:44.95	251.62	19.55	-39.1	-39.8	24.3	0.00e+00	0	43	0	1351614464	50	3754
2026-01-25 14:05:45.95	251.85	19.60	-39.1	-39.9	24.3	0.00e+00	0	43	0	1356857344	50	3789
2026-01-25 14:05:46.95	252.07	19.65	-39.1	-39.8	24.4	0.00e+00	0	43	0	1362100224	50	3760
2026-01-25 14:05:47.95	252.30	19.70	-39.0	-39.7	24.4	0.00e+00	0	44	0	1368391680	50	3736
2026-01-25 14:05:48.95	252.53	19.75	-38.9	-39.7	24.4	0.00e+00	0	43	0	1373634560	49	3915
2026-01-25 14:05:49.95	252.76	19.80	-38.9	-39.6	24.5	0.00e+00	0	43	0	1378877440	49	3882
2026-01-25 14:05:50.95	252.99	19.85	-38.9	-39.7	24.4	0.00e+00	0	43	0	1385168896	49	3916
2026-01-25 14:05:51.95	253.22	19.90	-38.7	-39.4	24.7	0.00e+00	0	43	0	1390411776	49	3796
2026-01-25 14:05:52.95	253.45	19.95	-38.6	-39.3	24.7	0.00e+00	0	43	0	1396703232	49	3779
2026-01-25 14:05:53.95	253.68	20.00	-38.6	-39.3	24.7	0.00e+00	0	43	0	1401946112	49	3769
2026-01-25 14:05:54.95	253.92	20.05	-38.7	-39.4	24.7	0.00e+00	0	43	0	1407188992	49	3807
2026-01-25 14:05:55.94	254.15	20.10	-38.7	-39.4	24.6	0.00e+00	0	43	0	1413480448	49	3823
2026-01-25 14:05:56.94	254.38	20.15	-38.9	-39.6	24.5	0.00e+00	0	43	0	1418723328	49	3882
2026-01-25 14:05:57.94	254.62	20.19	-38.8	-39.6	24.5	0.00e+00	0	43	0	1423966208	49	3872
2026-01-25 14:05:58.93	254.85	20.24	-38.9	-39.6	24.5	0.00e+00	0	43	0	1430257664	49	3910
2026-01-25 14:05:59.93	255.09	20.29	-38.8	-39.5	24.6	0.00e+00	0	43	0	1435500544	49	3845
2026-01-25 14:06:00.93	255.32	20.33	-38.8	-39.5	24.6	0.00e+00	0	43	0	1440743424	49	3846
2026-01-25 14:06:01.94	255.56	20.38	-38.8	-39.5	24.6	0.00e+00	0	43	0	1447034880	49	3843
2026-01-25 14:06:02.94	255.80	20.42	-38.8	-39.6	24.5	0.00e+00	0	43	0	1452277760	49	3878
2026-01-25 14:06:03.93	256.04	20.47	-38.6	-39.3	24.7	0.00e+00	0	43	0	1458569216	49	3759
2026-01-25 14:06:04.93	256.28	20.51	-38.6	-39.3	24.7	0.00e+00	0	43	0	1463812096	49	3762
2026-01-25 14:06:05.93	256.52	20.56	-38.6	-39.3	24.7	0.00e+00	0	43	0	1469054976	49	3776
2026-01-25 14:06:06.93	256.76	20.60	-38.8	-39.6	24.5	0.00e+00	0	43	0	1475346432	49	3879
2026-01-25 14:06:07.93	257.00	20.65	-38.9	-39.7	24.4	0.00e+00	0	43	0	1480589312	49	3923
2026-01-25 14:06:08.93	257.24	20.69	-39.0	-39.7	24.3	0.00e+00	0	43	0	1485832192	49	3958
2026-01-25 14:06:09.93	257.49	20.73	-38.9	-39.6	24.5	0.00e+00	0	43	0	1492123648	49	3907
2026-01-25 14:06:10.94	257.73	20.77	-38.8	-39.5	24.6	0.00e+00	0	43	0	1497366528	49	3848
2026-01-25 14:06:11.93	257.98	20.82	-38.8	-39.5	24.6	0.00e+00	0	43	0	1502609408	49	3842
2026-01-25 14:06:12.93	258.22	20.86	-38.8	-39.5	24.6	0.00e+00	0	43	0	1508900864	49	3836
2026-01-25 14:06:13.94	258.47	20.90	-38.7	-39.4	24.6	0.00e+00	0	43	0	1514143744	49	3821
2026-01-25 14:06:14.94	258.72	20.94	-38.7	-39.4	24.6	0.00e+00	0	43	0	1520435200	49	3818
2026-01-25 14:06:15.94	258.96	20.98	-38.7	-39.4	24.7	0.00e+00	0	43	0	1525678080	49	3804
2026-01-25 14:06:16.94	259.21	21.02	-38.8	-39.5	24.6	0.00e+00	0	43	0	1530920960	49	3837
2026-01-25 14:06:17.94	259.46	21.06	-38.7	-39.4	24.7	0.00e+00	0	44	0	1537212416	49	3812
2026-01-25 14:06:18.94	259.71	21.09	-38.8	-39.5	24.5	0.00e+00	0	43	0	1542455296	49	3861
2026-01-25 14:06:19.93	259.95	21.13	-38.8	-39.6	24.5	0.00e+00	0	43	0	1547698176	49	3872
2026-01-25 14:06:20.94	260.21	21.17	-38.9	-39.7	24.4	0.00e+00	0	43	0	1553989632	49	3924
2026-01-25 14:06:21.94	260.46	21.21	-38.9	-39.6	24.5	0.00e+00	0	43	0	1559232512	49	3904
2026-01-25 14:06:22.94	260.71	21.24	-38.6	-39.3	24.7	0.00e+00	0	43	0	1565523968	49	3778
2026-01-25 14:06:23.94	260.96	21.28	-38.5	-39.2	24.9	0.00e+00	0	43	0	1570766848	49	3729
2026-01-25 14:06:24.93	261.21	21.31	-38.6	-39.3	24.8	0.00e+00	0	43	0	1576009728	49	3745
2026-01-25 14:06:25.93	261.46	21.35	-38.5	-39.2	24.8	0.00e+00	0	44	0	1582301184	49	3737
2026-01-25 14:06:26.93	261.72	21.38	-38.2	-38.9	25.1	0.00e+00	0	43	0	1587544064	48	3821
2026-01-25 14:06:27.93	261.97	21.42	-38.4	-39.1	25.0	0.00e+00	0	43	0	1592786944	48	3880
2026-01-25 14:06:28.93	262.22	21.45	-38.4	-39.1	25.0	0.00e+00	0	43	0	1599078400	48	3880
2026-01-25 14:06:29.93	262.48	21.48	-38.4	-39.1	24.9	0.00e+00	0	43	0	1604321280	48	3908
2026-01-25 14:06:30.92	262.73	21.52	-38.4	-39.2	24.9	0.00e+00	0	43	0	1609564160	48	3914
2026-01-25 14:06:31.92	262.99	21.55	-38.5	-39.2	24.8	0.00e+00	0	43	0	1615855616	48	3956
2026-01-25 14:06:32.92	263.25	21.58	-38.5	-39.2	24.9	0.00e+00	0	44	0	1621098496	48	3927
2026-01-25 14:06:33.92	263.50	21.61	-38.5	-39.2	24.9	0.00e+00	0	43	0	1627389952	48	3935
2026-01-25 14:06:34.92	263.76	21.64	-38.5	-39.2	24.9	0.00e+00	0	43	0	1632632832	48	3920
2026-01-25 14:06:35.91	264.02	21.67	-38.6	-39.3	24.7	0.00e+00	0	43	0	1637875712	48	3998
2026-01-25 14:06:36.91	264.27	21.70	-38.6	-39.3	24.8	0.00e+00	0	44	0	1644167168	48	3998
2026-01-25 14:06:37.91	264.53	21.73	-38.6	-39.3	24.7	0.00e+00	0	43	0	1649410048	48	4003
2026-01-25 14:06:38.91	264.79	21.76	-38.6	-39.3	24.7	0.00e+00	0	43	0	1654652928	48	3995
2026-01-25 14:06:39.91	265.05	21.78	-38.6	-39.3	24.8	0.00e+00	0	43	0	1660944384	48	3987
2026-01-25 14:06:40.91	265.31	21.81	-38.6	-39.4	24.7	0.00e+00	0	43	0	1666187264	48	4011
2026-01-25 14:06:41.91	265.57	21.84	-38.8	-39.5	24.6	0.00e+00	0	44	0	1671430144	48	4068
2026-01-25 14:06:42.91	265.83	21.86	-38.8	-39.5	24.6	0.00e+00	0	44	0	1677721600	48	4085
2026-01-25 14:06:43.91	266.10	21.89	-38.7	-39.4	24.7	0.00e+00	0	43	0	1682964480	48	4038
2026-01-25 14:06:44.91	266.36	21.91	-38.7	-39.4	24.7	0.00e+00	0	43	0	1689255936	48	4019
2026-01-25 14:06:45.92	266.62	21.94	-38.6	-39.4	24.7	0.00e+00	0	43	0	1694498816	48	4009
2026-01-25 14:06:46.92	266.89	21.96	-38.6	-39.3	24.8	0.00e+00	0	43	0	1699741696	48	4000
2026-01-25 14:06:47.91	267.15	21.98	-38.5	-39.2	24.9	0.00e+00	0	43	0	1706033152	48	3941
2026-01-25 14:06:48.92	267.41	22.00	-38.6	-39.3	24.8	0.00e+00	0	43	0	1711276032	48	3988
2026-01-25 14:06:49.91	267.67	22.03	-38.5	-39.3	24.8	0.00e+00	0	43	0	1716518912	48	3964
2026-01-25 14:06:50.91	267.94	22.05	-38.5	-39.2	24.9	0.00e+00	0	43	0	1722810368	48	3920
2026-01-25 14:06:51.91	268.20	22.07	-38.2	-38.9	25.1	0.00e+00	0	43	0	1728053248	48	3813
2026-01-25 14:06:52.91	268.47	22.09	-38.2	-38.9	25.2	0.00e+00	0	43	0	1733296128	48	3806
2026-01-25 14:06:53.91	268.73	22.11	-38.2	-38.9	25.1	0.00e+00	0	43	0	1739587584	48	3809
2026-01-25 14:06:54.91	269.00	22.13	-38.3	-38.9	25.1	0.00e+00	0	43	0	1744830464	48	3823
2026-01-25 14:06:55.91	269.26	22.14	-38.4	-39.2	24.9	0.00e+00	0	43	0	1751121920	48	3920
2026-01-25 14:06:56.90	269.53	22.16	-38.4	-39.1	25.0	0.00e+00	0	43	0	1756364800	48	3905
2026-01-25 14:06:57.90	269.79	22.18	-38.4	-39.1	25.0	0.00e+00	0	43	0	1761607680	48	3899
2026-01-25 14:06:58.91	270.06	22.19	-38.4	-39.0	25.0	0.00e+00	0	43	0	1767899136	48	3868
2026-01-25 14:06:59.91	270.33	22.21	-38.2	-38.9	25.1	0.00e+00	0	43	0	1773142016	48	3815
2026-01-25 14:07:00.90	270.60	22.22	-38.2	-38.9	25.2	0.00e+00	0	43	0	1778384896	48	3786
2026-01-25 14:07:01.89	270.86	22.24	-38.2	-38.9	25.1	0.00e+00	0	43	0	1784676352	48	3810
2026-01-25 14:07:02.89	271.13	22.25	-38.3	-39.1	25.0	0.00e+00	0	43	0	1789919232	48	3869
2026-01-25 14:07:03.90	271.40	22.27	-38.5	-39.2	24.9	0.00e+00	0	43	0	1795162112	48	3931
2026-01-25 14:07:04.90	271.67	22.28	-38.6	-39.3	24.9	0.00e+00	0	44	0	1801453568	48	3970
2026-01-25 14:07:05.90	271.93	22.29	-38.6	-39.3	24.8	0.00e+00	0	44	0	1806696448	48	4002
2026-01-25 14:07:06.90	272.20	22.30	-38.5	-39.2	24.9	0.00e+00	0	43	0	1812987904	48	3924
2026-01-25 14:07:07.90	272.47	22.31	-38.4	-39.1	25.0	0.00e+00	0	43	0	1818230784	48	3904
2026-01-25 14:07:08.90	272.74	22.32	-38.4	-39.1	24.9	0.00e+00	0	43	0	1823473664	48	3909
2026-01-25 14:07:09.90	273.01	22.33	-38.3	-38.9	25.1	0.00e+00	0	43	0	1829765120	48	3824
2026-01-25 14:07:10.89	273.28	22.34	-38.3	-39.0	25.1	0.00e+00	0	43	0	1835008000	48	3830
2026-01-25 14:07:11.89	273.55	22.35	-38.4	-39.1	25.0	0.00e+00	0	43	0	1840250880	48	3911
2026-01-25 14:07:12.89	273.82	22.36	-38.5	-39.3	24.9	0.00e+00	0	43	0	1845493760	48	3962
2026-01-25 14:07:13.89	274.08	22.36	-38.6	-39.3	24.9	0.00e+00	0	43	0	1851785216	48	3969
2026-01-25 14:07:14.89	274.35	22.37	-38.4	-39.2	25.0	0.00e+00	0	43	0	1857028096	48	3915
2026-01-25 14:07:15.90	274.63	22.37	-38.4	-39.2	25.0	0.00e+00	0	43	0	1863319552	48	3918
2026-01-25 14:07:16.90	274.90	22.38	-38.4	-39.1	25.0	0.00e+00	0	44	0	1868562432	48	3893
2026-01-25 14:07:17.90	275.17	22.38	-38.5	-39.2	24.9	0.00e+00	0	43	0	1874853888	48	3927
2026-01-25 14:07:18.89	275.43	22.39	-38.5	-39.2	24.9	0.00e+00	0	44	0	1880096768	48	3947
2026-01-25 14:07:19.90	275.71	22.39	-38.4	-39.1	25.0	0.00e+00	0	43	0	1885339648	48	3899
2026-01-25 14:07:20.89	275.97	22.39	-38.4	-39.1	25.0	0.00e+00	0	43	0	1890582528	48	3891
2026-01-25 14:07:21.89	276.24	22.39	-38.5	-39.2	25.0	0.00e+00	0	43	0	1895825408	48	3927
2026-01-25 14:07:22.89	276.51	22.40	-38.5	-39.2	25.0	0.00e+00	0	43	0	1902116864	48	3920
2026-01-25 14:07:23.89	276.78	22.40	-38.4	-39.1	25.0	0.00e+00	0	43	0	1907359744	48	3893
2026-01-25 14:07:24.89	277.05	22.40	-38.4	-39.1	25.0	0.00e+00	0	43	0	1913651200	48	3900
2026-01-25 14:07:25.89	277.32	22.39	-38.6	-39.3	24.9	0.00e+00	0	43	0	1918894080	48	3982
2026-01-25 14:07:26.89	277.59	22.39	-38.6	-39.3	24.9	0.00e+00	0	43	0	1924136960	48	3965
2026-01-25 14:07:27.89	277.86	22.39	-38.4	-39.1	25.1	0.00e+00	0	43	0	1930428416	48	3882
2026-01-25 14:07:28.89	278.13	22.39	-38.3	-39.0	25.2	0.00e+00	0	43	0	1935671296	48	3837
2026-01-25 14:07:29.88	278.40	22.38	-38.4	-39.1	25.1	0.00e+00	0	44	0	1940914176	48	3873
2026-01-25 14:07:30.89	278.67	22.38	-38.4	-39.1	25.0	0.00e+00	0	44	0	1947205632	48	3902
2026-01-25 14:07:31.88	278.94	22.38	-38.5	-39.2	24.9	0.00e+00	0	43	0	1952448512	48	3958
2026-01-25 14:07:32.88	279.21	22.37	-38.5	-39.2	25.0	0.00e+00	0	43	0	1957691392	48	3941
2026-01-25 14:07:33.89	279.48	22.36	-38.4	-39.1	25.1	0.00e+00	0	43	0	1963982848	48	3880
2026-01-25 14:07:34.88	279.75	22.36	-38.4	-39.2	25.0	0.00e+00	0	44	0	1969225728	48	3915
2026-01-25 14:07:35.88	280.02	22.35	-38.5	-39.3	24.9	0.00e+00	0	43	0	1975517184	48	3963
2026-01-25 14:07:36.88	280.29	22.34	-38.5	-39.2	25.0	0.00e+00	0	44	0	1980760064	48	3945
2026-01-25 14:07:37.88	280.56	22.33	-38.5	-39.2	24.9	0.00e+00	0	43	0	1986002944	48	3958
2026-01-25 14:07:38.88	280.83	22.33	-38.5	-39.2	24.9	0.00e+00	0	43	0	1992294400	48	3949
2026-01-25 14:07:39.88	281.10	22.32	-38.5	-39.2	25.0	0.00e+00	0	43	0	1997537280	48	3940
2026-01-25 14:07:40.87	281.36	22.30	-38.5	-39.2	24.9	0.00e+00	0	43	0	2002780160	48	3949
2026-01-25 14:07:41.87	281.63	22.29	-38.6	-39.4	24.8	0.00e+00	0	43	0	2009071616	48	4011
2026-01-25 14:07:42.87	281.90	22.28	-38.7	-39.5	24.7	0.00e+00	0	43	0	2014314496	48	4064
2026-01-25 14:07:43.87	282.17	22.27	-38.5	-39.3	24.9	0.00e+00	0	43	0	2019557376	48	3962
2026-01-25 14:07:44.87	282.43	22.26	-38.4	-39.1	25.0	0.00e+00	0	43	0	2025848832	48	3913
2026-01-25 14:07:45.87	282.70	22.24	-38.4	-39.1	25.0	0.00e+00	0	43	0	2031091712	48	3912
2026-01-25 14:07:46.87	282.97	22.23	-38.3	-39.0	25.1	0.00e+00	0	43	0	2037383168	48	3864
2026-01-25 14:07:47.86	283.23	22.21	-38.3	-39.0	25.1	0.00e+00	0	43	0	2042626048	48	3861
2026-01-25 14:07:48.86	283.50	22.20	-38.4	-39.1	25.1	0.00e+00	0	43	0	2047868928	48	3907
2026-01-25 14:07:49.86	283.77	22.18	-38.4	-39.0	25.1	0.00e+00	0	43	0	2054160384	48	3868
2026-01-25 14:07:50.85	284.03	22.17	-38.4	-39.1	25.0	0.00e+00	0	44	0	2059403264	48	3906
2026-01-25 14:07:51.85	284.30	22.15	-38.5	-39.2	25.0	0.00e+00	0	43	0	2064646144	48	3923
2026-01-25 14:07:52.85	284.56	22.13	-38.6	-39.4	24.8	0.00e+00	0	44	0	2070937600	48	4005
2026-01-25 14:07:53.85	284.83	22.11	-38.6	-39.3	24.9	0.00e+00	0	44	0	2076180480	48	3988
2026-01-25 14:07:54.85	285.09	22.09	-38.5	-39.3	25.0	0.00e+00	0	43	0	2081423360	48	3962
2026-01-25 14:07:55.85	285.36	22.07	-38.6	-39.4	24.8	0.00e+00	0	43	0	2087714816	48	4008
2026-01-25 14:07:56.85	285.62	22.05	-38.7	-39.4	24.8	0.00e+00	0	43	0	2092957696	48	4039
2026-01-25 14:07:57.85	285.89	22.03	-38.7	-39.4	24.8	0.00e+00	0	43	0	2099249152	48	4045
2026-01-25 14:07:58.84	286.15	22.01	-38.7	-39.4	24.8	0.00e+00	0	43	0	2104492032	48	4027
2026-01-25 14:07:59.84	286.41	21.99	-38.7	-39.4	24.9	0.00e+00	0	44	0	2109734912	48	4017
2026-01-25 14:08:00.84	286.67	21.97	-38.7	-39.4	24.8	0.00e+00	0	44	0	2116026368	48	4020
2026-01-25 14:08:01.84	286.94	21.94	-38.7	-39.4	24.8	0.00e+00	0	43	0	2121269248	48	4043
2026-01-25 14:08:02.83	287.20	21.92	-38.7	-39.4	24.9	0.00e+00	0	43	0	2126512128	48	4023
2026-01-25 14:08:03.83	287.46	21.90	-38.7	-39.4	24.8	0.00e+00	0	43	0	2132803584	48	4049
2026-01-25 14:08:04.83	287.72	21.87	-38.7	-39.4	24.8	0.00e+00	0	43	0	2138046464	48	4031
2026-01-25 14:08:05.83	287.98	21.85	-38.7	-39.4	24.8	0.00e+00	0	44	0	2144337920	48	4049
2026-01-25 14:08:06.82	288.24	21.82	-38.7	-39.5	24.8	0.00e+00	0	43	0	2149580800	48	4055
2026-01-25 14:08:07.82	288.50	21.79	-38.8	-39.6	24.7	0.00e+00	0	43	0	2154823680	48	4102
2026-01-25 14:08:08.82	288.76	21.77	-38.9	-39.6	24.7	0.00e+00	0	43	0	2161115136	48	4125
2026-01-25 14:08:09.82	289.02	21.74	-38.9	-39.6	24.6	0.00e+00	0	43	0	2166358016	48	4145
2026-01-25 14:08:10.81	289.27	21.71	-39.0	-39.8	24.5	0.00e+00	0	43	0	2171600896	48	4205
2026-01-25 14:08:11.81	289.53	21.68	-38.9	-39.7	24.6	0.00e+00	0	43	0	2177892352	48	4161
2026-01-25 14:08:12.82	289.79	21.65	-38.9	-39.7	24.7	0.00e+00	0	43	0	2183135232	48	4152
2026-01-25 14:08:13.81	290.05	21.62	-38.8	-39.6	24.7	0.00e+00	0	44	0	2188378112	48	4104
2026-01-25 14:08:14.81	290.30	21.59	-38.9	-39.6	24.7	0.00e+00	0	44	0	2194669568	48	4119
2026-01-25 14:08:15.81	290.56	21.56	-38.9	-39.6	24.7	0.00e+00	0	43	0	2199912448	48	4104
2026-01-25 14:08:16.82	290.82	21.53	-38.9	-39.6	24.7	0.00e+00	0	44	0	2206203904	48	4118
2026-01-25 14:08:17.81	291.07	21.50	-38.8	-39.5	24.7	0.00e+00	0	43	0	2211446784	48	4087
2026-01-25 14:08:18.81	291.32	21.47	-38.8	-39.5	24.8	0.00e+00	0	43	0	2216689664	48	4059
2026-01-25 14:08:19.81	291.58	21.43	-38.8	-39.5	24.8	0.00e+00	0	43	0	2222981120	48	4058
2026-01-25 14:08:20.81	291.83	21.40	-38.8	-39.5	24.8	0.00e+00	0	44	0	2228224000	48	4064
2026-01-25 14:08:21.81	292.09	21.36	-38.9	-39.6	24.7	0.00e+00	0	43	0	2233466880	48	4120
2026-01-25 14:08:22.81	292.34	21.33	-38.9	-39.6	24.7	0.00e+00	0	43	0	2239758336	48	4144
2026-01-25 14:08:23.81	292.59	21.29	-38.9	-39.6	24.7	0.00e+00	0	43	0	2245001216	48	4140
2026-01-25 14:08:24.82	292.84	21.26	-38.8	-39.6	24.7	0.00e+00	0	43	0	2250244096	48	4101
2026-01-25 14:08:25.82	293.09	21.22	-38.7	-39.4	24.9	0.00e+00	0	43	0	2256535552	48	4031
2026-01-25 14:08:26.81	293.34	21.19	-38.7	-39.4	24.9	0.00e+00	0	43	0	2261778432	48	4031
2026-01-25 14:08:27.82	293.59	21.15	-38.7	-39.4	24.8	0.00e+00	0	43	0	2268069888	48	4038
2026-01-25 14:08:28.82	293.84	21.11	-38.8	-39.5	24.8	0.00e+00	0	43	0	2273312768	48	4067
2026-01-25 14:08:29.82	294.09	21.07	-38.8	-39.6	24.7	0.00e+00	0	43	0	2278555648	48	4103
2026-01-25 14:08:30.82	294.34	21.03	-38.9	-39.7	24.6	0.00e+00	0	43	0	2284847104	48	4151
2026-01-25 14:08:31.82	294.59	21.00	-38.9	-39.6	24.7	0.00e+00	0	43	0	2290089984	48	4131
2026-01-25 14:08:32.82	294.83	20.96	-38.9	-39.7	24.6	0.00e+00	0	43	0	2295332864	48	4155
2026-01-25 14:08:33.82	295.08	20.92	-38.9	-39.6	24.7	0.00e+00	0	43	0	2301624320	48	4136
2026-01-25 14:08:34.82	295.33	20.88	-38.9	-39.6	24.7	0.00e+00	0	43	0	2306867200	48	4137
2026-01-25 14:08:35.82	295.57	20.83	-39.1	-39.8	24.5	0.00e+00	0	44	0	2312110080	48	4223
2026-01-25 14:08:36.83	295.82	20.79	-39.2	-39.9	24.4	0.00e+00	0	44	0	2318401536	48	4282
2026-01-25 14:08:37.83	296.06	20.75	-39.3	-40.0	24.3	0.00e+00	0	43	0	2323644416	49	4095
2026-01-25 14:08:38.83	296.30	20.71	-39.3	-40.1	24.3	0.00e+00	0	43	0	2329935872	49	4109
2026-01-25 14:08:39.83	296.55	20.67	-39.3	-40.0	24.3	0.00e+00	0	43	0	2335178752	49	4094
2026-01-25 14:08:40.82	296.78	20.62	-39.3	-40.0	24.3	0.00e+00	0	44	0	2340421632	49	4079
2026-01-25 14:08:41.82	297.03	20.58	-39.1	-39.9	24.4	0.00e+00	0	44	0	2346713088	49	4019
2026-01-25 14:08:42.82	297.27	20.54	-39.1	-39.9	24.4	0.00e+00	0	44	0	2351955968	49	4011
2026-01-25 14:08:43.82	297.50	20.49	-39.3	-40.0	24.3	0.00e+00	0	44	0	2357198848	49	4069
2026-01-25 14:08:44.82	297.74	20.45	-39.2	-39.9	24.4	0.00e+00	0	44	0	2363490304	49	4018
2026-01-25 14:08:45.83	297.98	20.40	-39.1	-39.9	24.4	0.00e+00	0	43	0	2368733184	49	4017
2026-01-25 14:08:46.83	298.22	20.36	-39.3	-40.0	24.3	0.00e+00	0	43	0	2373976064	49	4069
2026-01-25 14:08:47.83	298.46	20.31	-39.2	-39.9	24.4	0.00e+00	0	44	0	2380267520	49	4023
2026-01-25 14:08:48.82	298.69	20.26	-39.2	-39.9	24.4	0.00e+00	0	43	0	2385510400	49	4045
2026-01-25 14:08:49.83	298.93	20.22	-39.3	-40.0	24.3	0.00e+00	0	43	0	2391801856	49	4069
2026-01-25 14:08:50.83	299.16	20.17	-39.3	-40.1	24.3	0.00e+00	0	43	0	2397044736	49	4101
2026-01-25 14:08:51.83	299.40	20.12	-39.4	-40.1	24.2	0.00e+00	0	43	0	2402287616	49	4145
2026-01-25 14:08:52.82	299.63	20.07	-39.3	-40.0	24.3	0.00e+00	0	44	0	2408579072	49	4072
2026-01-25 14:08:53.82	299.86	20.03	-39.4	-40.2	24.1	0.00e+00	0	44	0	2413821952	49	4146
2026-01-25 14:08:54.82	300.09	19.98	-39.4	-40.1	24.2	0.00e+00	0	44	0	2419064832	49	4142
2026-01-25 14:08:55.82	300.32	19.93	-39.4	-40.1	24.1	0.00e+00	0	43	0	2425356288	49	4142
2026-01-25 14:08:56.82	300.55	19.88	-39.3	-40.0	24.2	0.00e+00	0	43	0	2430599168	49	4089
2026-01-25 14:08:57.82	300.78	19.83	-39.3	-40.0	24.2	0.00e+00	0	44	0	2435842048	49	4095
2026-01-25 14:08:58.82	301.01	19.78	-39.2	-40.0	24.3	0.00e+00	0	43	0	2442133504	49	4058
2026-01-25 14:08:59.82	301.24	19.73	-39.2	-40.0	24.3	0.00e+00	0	43	0	2447376384	49	4059
2026-01-25 14:09:00.82	301.47	19.68	-39.2	-39.9	24.3	0.00e+00	0	44	0	2453667840	49	4033
2026-01-25 14:09:01.82	301.70	19.63	-39.3	-40.0	24.2	0.00e+00	0	43	0	2458910720	49	4070
2026-01-25 14:09:02.81	301.92	19.58	-39.2	-40.0	24.3	0.00e+00	0	44	0	2464153600	49	4061
2026-01-25 14:09:03.81	302.14	19.52	-39.3	-40.0	24.2	0.00e+00	0	43	0	2470445056	49	4090
2026-01-25 14:09:04.82	302.37	19.47	-39.4	-40.2	24.1	0.00e+00	0	44	0	2475687936	49	4153
2026-01-25 14:09:05.81	302.59	19.42	-39.4	-40.1	24.1	0.00e+00	0	43	0	2480930816	49	4145
2026-01-25 14:09:06.81	302.82	19.37	-39.4	-40.1	24.1	0.00e+00	0	43	0	2487222272	49	4145
2026-01-25 14:09:07.80	303.04	19.32	-39.4	-40.1	24.1	0.00e+00	0	43	0	2492465152	49	4124
2026-01-25 14:09:08.80	303.26	19.26	-39.5	-40.2	24.0	0.00e+00	0	44	0	2497708032	49	4169
2026-01-25 14:09:09.80	303.48	19.21	-39.3	-40.0	24.2	0.00e+00	0	44	0	2503999488	49	4092
2026-01-25 14:09:10.80	303.70	19.15	-39.3	-40.0	24.2	0.00e+00	0	43	0	2509242368	49	4091
2026-01-25 14:09:11.80	303.92	19.10	-39.3	-40.0	24.2	0.00e+00	0	43	0	2515533824	49	4097
2026-01-25 14:09:12.80	304.13	19.05	-39.4	-40.1	24.1	0.00e+00	0	43	0	2520776704	49	4127
2026-01-25 14:09:13.80	304.35	18.99	-39.4	-40.1	24.1	0.00e+00	0	43	0	2526019584	49	4129
2026-01-25 14:09:14.80	304.57	18.94	-39.4	-40.2	24.0	0.00e+00	0	43	0	2532311040	49	4162
2026-01-25 14:09:15.79	304.78	18.88	-39.3	-40.1	24.1	0.00e+00	0	44	0	2537553920	49	4103
2026-01-25 14:09:16.79	305.00	18.83	-39.4	-40.1	24.1	0.00e+00	0	44	0	2542796800	49	4139
2026-01-25 14:09:17.78	305.21	18.77	-39.5	-40.2	24.0	0.00e+00	0	43	0	2548039680	49	4169
2026-01-25 14:09:18.78	305.42	18.71	-39.4	-40.1	24.0	0.00e+00	0	44	0	2554331136	49	4145
2026-01-25 14:09:19.78	305.64	18.66	-39.3	-40.0	24.1	0.00e+00	0	43	0	2559574016	49	4096
2026-01-25 14:09:20.78	305.85	18.60	-39.4	-40.2	24.0	0.00e+00	0	43	0	2564816896	49	4152
2026-01-25 14:09:21.78	306.06	18.54	-39.6	-40.3	23.9	0.00e+00	0	43	0	2571108352	49	4220
2026-01-25 14:09:22.78	306.27	18.49	-39.7	-40.5	23.7	0.00e+00	0	44	0	2576351232	49	4296
2026-01-25 14:09:23.78	306.48	18.43	-39.8	-40.6	23.6	0.00e+00	0	43	0	2581594112	50	4126
2026-01-25 14:09:24.78	306.69	18.37	-39.8	-40.6	23.6	0.00e+00	0	43	0	2587885568	50	4137
2026-01-25 14:09:25.78	306.90	18.32	-39.7	-40.5	23.7	0.00e+00	0	44	0	2593128448	50	4086
2026-01-25 14:09:26.78	307.11	18.26	-39.8	-40.6	23.6	0.00e+00	0	43	0	2598371328	50	4100
2026-01-25 14:09:27.79	307.32	18.20	-39.8	-40.6	23.6	0.00e+00	0	44	0	2604662784	50	4099
2026-01-25 14:09:28.78	307.52	18.14	-39.7	-40.5	23.7	0.00e+00	0	44	0	2609905664	50	4054
2026-01-25 14:09:29.78	307.73	18.08	-39.7	-40.4	23.8	0.00e+00	0	43	0	2616197120	50	4040
2026-01-25 14:09:30.78	307.93	18.02	-39.6	-40.4	23.8	0.00e+00	0	43	0	2621440000	50	4014
2026-01-25 14:09:31.78	308.13	17.96	-39.6	-40.3	23.9	0.00e+00	0	43	0	2626682880	50	4004
2026-01-25 14:09:32.77	308.33	17.91	-39.6	-40.4	23.8	0.00e+00	0	43	0	2632974336	50	4014
2026-01-25 14:09:33.77	308.54	17.85	-39.7	-40.4	23.8	0.00e+00	0	43	0	2638217216	50	4027
2026-01-25 14:09:34.78	308.74	17.79	-39.6	-40.4	23.8	0.00e+00	0	43	0	2643460096	50	4020
2026-01-25 14:09:35.77	308.94	17.73	-39.6	-40.3	23.8	0.00e+00	0	43	0	2649751552	50	4004
2026-01-25 14:09:36.76	309.14	17.67	-39.6	-40.3	23.9	0.00e+00	0	43	0	2654994432	50	3983
2026-01-25 14:09:37.76	309.34	17.61	-39.6	-40.4	23.8	0.00e+00	0	43	0	2660237312	50	4024
2026-01-25 14:09:38.77	309.54	17.55	-39.7	-40.4	23.8	0.00e+00	0	43	0	2666528768	50	4038
2026-01-25 14:09:39.77	309.73	17.49	-39.7	-40.4	23.8	0.00e+00	0	43	0	2671771648	50	4028
2026-01-25 14:09:40.77	309.93	17.42	-39.7	-40.4	23.7	0.00e+00	0	44	0	2678063104	50	4048
2026-01-25 14:09:41.78	310.13	17.36	-39.7	-40.5	23.7	0.00e+00	0	43	0	2683305984	50	4055
2026-01-25 14:09:42.77	310.32	17.30	-39.9	-40.6	23.5	0.00e+00	0	43	0	2688548864	50	4142
2026-01-25 14:09:43.77	310.52	17.24	-39.8	-40.6	23.6	0.00e+00	0	43	0	2694840320	50	4113
2026-01-25 14:09:44.77	310.71	17.18	-40.0	-40.8	23.4	0.00e+00	0	43	0	2700083200	50	4215
2026-01-25 14:09:45.76	310.90	17.12	-40.1	-40.9	23.3	0.00e+00	0	44	0	2705326080	50	4253
2026-01-25 14:09:46.76	311.09	17.06	-40.0	-40.8	23.4	0.00e+00	0	43	0	2711617536	50	4230
2026-01-25 14:09:47.76	311.28	17.00	-40.1	-40.8	23.3	0.00e+00	0	44	0	2716860416	50	4233
2026-01-25 14:09:48.75	311.47	16.93	-40.1	-40.9	23.3	0.00e+00	0	43	0	2723151872	50	4252
2026-01-25 14:09:49.75	311.66	16.87	-40.2	-41.0	23.2	0.00e+00	0	43	0	2728394752	50	4293
2026-01-25 14:09:50.75	311.85	16.81	-40.3	-41.1	23.1	0.00e+00	0	43	0	2733637632	51	4131
2026-01-25 14:09:51.75	312.04	16.75	-40.3	-41.1	23.1	0.00e+00	0	43	0	2739929088	51	4127
2026-01-25 14:09:52.75	312.23	16.69	-40.4	-41.2	23.1	0.00e+00	0	43	0	2745171968	51	4150
2026-01-25 14:09:53.74	312.41	16.62	-40.5	-41.3	23.0	0.00e+00	0	43	0	2750414848	51	4198
2026-01-25 14:09:54.75	312.60	16.56	-40.4	-41.2	23.0	0.00e+00	0	44	0	2756706304	51	4169
2026-01-25 14:09:55.75	312.79	16.50	-40.2	-41.0	23.2	0.00e+00	0	43	0	2761949184	51	4081
2026-01-25 14:09:56.75	312.97	16.43	-40.2	-41.0	23.1	0.00e+00	0	43	0	2767192064	51	4094
2026-01-25 14:09:57.75	313.15	16.37	-40.3	-41.1	23.1	0.00e+00	0	43	0	2773483520	51	4126
2026-01-25 14:09:58.74	313.34	16.31	-40.2	-41.0	23.2	0.00e+00	0	44	0	2778726400	51	4061
2026-01-25 14:09:59.73	313.52	16.25	-40.0	-40.8	23.3	0.00e+00	0	43	0	2785017856	51	3986
2026-01-25 14:10:00.73	313.70	16.18	-40.1	-40.8	23.3	0.00e+00	0	43	0	2790260736	51	4002
2026-01-25 14:10:01.73	313.88	16.12	-40.1	-40.9	23.3	0.00e+00	0	43	0	2795503616	51	4030
2026-01-25 14:10:02.72	314.06	16.06	-40.1	-40.8	23.3	0.00e+00	0	44	0	2801795072	51	4004
2026-01-25 14:10:03.73	314.24	15.99	-40.1	-40.9	23.3	0.00e+00	0	43	0	2807037952	51	4014
2026-01-25 14:10:04.73	314.42	15.93	-40.0	-40.8	23.4	0.00e+00	0	44	0	2812280832	51	3970
2026-01-25 14:10:05.73	314.59	15.86	-40.1	-40.8	23.3	0.00e+00	0	44	0	2818572288	51	4002
2026-01-25 14:10:06.73	314.77	15.80	-39.9	-40.7	23.4	0.00e+00	0	44	0	2823815168	51	3934
2026-01-25 14:10:07.73	314.95	15.74	-40.0	-40.7	23.4	0.00e+00	0	43	0	2829058048	51	3949
2026-01-25 14:10:08.72	315.12	15.67	-40.0	-40.8	23.3	0.00e+00	0	43	0	2835349504	51	3966
2026-01-25 14:10:09.71	315.29	15.61	-40.1	-40.8	23.3	0.00e+00	0	43	0	2840592384	51	3998
2026-01-25 14:10:10.70	315.47	15.54	-40.1	-40.9	23.2	0.00e+00	0	43	0	2846883840	51	4037
2026-01-25 14:10:11.70	315.64	15.48	-40.2	-40.9	23.2	1.10e-06	0	44	0	2852126720	51	4042
2026-01-25 14:10:12.69	315.81	15.42	-40.2	-41.0	23.1	0.00e+00	0	44	0	2857369600	51	4083
2026-01-25 14:10:13.68	315.98	15.35	-40.2	-41.0	23.1	0.00e+00	0	44	0	2862612480	51	4069
2026-01-25 14:10:14.68	316.15	15.29	-40.1	-40.9	23.2	3.40e-06	0	43	0	2867855360	51	4037
2026-01-25 14:10:15.67	316.32	15.22	-40.2	-41.0	23.1	0.00e+00	0	43	0	2874146816	51	4067
2026-01-25 14:10:16.67	316.49	15.16	-40.2	-40.9	23.1	0.00e+00	0	44	0	2879389696	51	4047
2026-01-25 14:10:17.66	316.66	15.10	-40.3	-41.0	23.0	0.00e+00	0	44	0	2885681152	51	4092
2026-01-25 14:10:18.65	316.83	15.03	-40.3	-41.1	23.0	0.00e+00	0	44	0	2890924032	51	4112
2026-01-25 14:10:19.65	316.99	14.97	-40.3	-41.1	23.0	0.00e+00	0	43	0	2896166912	51	4103
2026-01-25 14:10:20.64	317.16	14.90	-40.4	-41.2	22.9	0.00e+00	0	43	0	2902458368	51	4149
2026-01-25 14:10:21.64	317.33	14.84	-40.3	-41.1	22.9	0.00e+00	0	44	0	2907701248	51	4132
2026-01-25 14:10:22.63	317.49	14.77	-40.3	-41.1	22.9	0.00e+00	0	43	0	2912944128	51	4139
2026-01-25 14:10:23.63	317.65	14.71	-40.4	-41.2	22.9	0.00e+00	0	43	0	2919235584	51	4164
2026-01-25 14:10:24.62	317.82	14.64	-40.5	-41.3	22.8	0.00e+00	0	43	0	2924478464	51	4207
2026-01-25 14:10:25.62	317.98	14.58	-40.6	-41.4	22.6	0.00e+00	0	44	0	2929721344	51	4289
2026-01-25 14:10:26.61	318.14	14.51	-40.7	-41.5	22.6	0.00e+00	0	43	0	2936012800	51	4324
2026-01-25 14:10:27.61	318.30	14.45	-40.5	-41.4	22.6	0.00e+00	0	43	0	2941255680	52	4023
2026-01-25 14:10:28.61	318.47	14.38	-40.7	-41.6	22.4	0.00e+00	0	43	0	2947547136	52	4113
2026-01-25 14:10:29.60	318.63	14.32	-40.6	-41.4	22.6	0.00e+00	0	44	0	2952790016	52	4019
2026-01-25 14:10:30.60	318.79	14.25	-40.5	-41.4	22.6	0.00e+00	0	44	0	2958032896	52	4010
2026-01-25 14:10:31.59	318.94	14.19	-40.4	-41.3	22.7	0.00e+00	0	43	0	2963275776	52	3964
2026-01-25 14:10:32.58	319.10	14.12	-40.4	-41.2	22.8	0.00e+00	0	43	0	2968518656	52	3925
2026-01-25 14:10:33.58	319.26	14.06	-40.3	-41.1	22.8	0.00e+00	0	44	0	2974810112	52	3906
2026-01-25 14:10:34.57	319.41	13.99	-40.3	-41.1	22.9	0.00e+00	0	43	0	2980052992	52	3897
2026-01-25 14:10:35.57	319.57	13.93	-40.4	-41.2	22.9	0.00e+00	0	43	0	2986344448	52	3915
2026-01-25 14:10:36.56	319.73	13.86	-40.4	-41.2	22.8	0.00e+00	0	43	0	2991587328	52	3928
2026-01-25 14:10:37.55	319.88	13.80	-40.5	-41.3	22.7	0.00e+00	0	43	0	2996830208	52	3963
2026-01-25 14:10:38.55	320.03	13.73	-40.5	-41.3	22.7	0.00e+00	0	43	0	3003121664	52	3987
2026-01-25 14:10:39.55	320.19	13.67	-40.5	-41.3	22.7	0.00e+00	0	43	0	3008364544	52	3961
2026-01-25 14:10:40.54	320.34	13.60	-40.5	-41.3	22.7	0.00e+00	0	44	0	3013607424	52	3977
2026-01-25 14:10:41.53	320.49	13.54	-40.5	-41.3	22.6	0.00e+00	0	43	0	3019898880	52	3994
2026-01-25 14:10:42.53	320.64	13.47	-40.5	-41.3	22.7	0.00e+00	0	44	0	3025141760	52	3979
2026-01-25 14:10:43.53	320.80	13.41	-40.7	-41.5	22.5	0.00e+00	0	44	0	3030384640	52	4063
2026-01-25 14:10:44.52	320.95	13.34	-40.5	-41.4	22.6	0.00e+00	0	43	0	3036676096	52	4011
2026-01-25 14:10:45.52	321.10	13.28	-40.6	-41.4	22.6	0.00e+00	0	43	0	3041918976	52	4027
2026-01-25 14:10:46.51	321.24	13.21	-40.6	-41.4	22.5	0.00e+00	0	43	0	3048210432	52	4046
2026-01-25 14:10:47.50	321.39	13.15	-40.8	-41.6	22.4	0.00e+00	0	43	0	3053453312	52	4125
2026-01-25 14:10:48.50	321.54	13.08	-40.6	-41.5	22.5	0.00e+00	0	43	0	3058696192	52	4060
2026-01-25 14:10:49.49	321.69	13.02	-40.5	-41.4	22.6	0.00e+00	0	44	0	3063939072	52	4005
2026-01-25 14:10:50.49	321.83	12.95	-40.5	-41.3	22.7	0.00e+00	0	44	0	3069181952	52	3964
2026-01-25 14:10:51.49	321.98	12.89	-40.5	-41.3	22.6	0.00e+00	0	43	0	3075473408	52	3975
2026-01-25 14:10:52.48	322.12	12.82	-40.6	-41.4	22.5	0.00e+00	0	44	0	3080716288	52	4012
2026-01-25 14:10:53.48	322.27	12.76	-40.4	-41.2	22.7	0.00e+00	0	43	0	3087007744	52	3940
2026-01-25 14:10:54.47	322.41	12.69	-40.5	-41.3	22.6	0.00e+00	0	43	0	3092250624	52	4002
2026-01-25 14:10:55.47	322.56	12.63	-40.6	-41.4	22.5	0.00e+00	0	43	0	3097493504	52	4041
2026-01-25 14:10:56.47	322.70	12.56	-40.8	-41.6	22.3	0.00e+00	0	44	0	3103784960	52	4115
2026-01-25 14:10:57.47	322.84	12.50	-40.8	-41.6	22.3	0.00e+00	0	43	0	3109027840	52	4138
2026-01-25 14:10:58.47	322.98	12.43	-40.9	-41.8	22.2	0.00e+00	0	43	0	3114270720	52	4210
2026-01-25 14:10:59.47	323.13	12.36	-41.0	-41.9	22.1	0.00e+00	0	43	0	3120562176	52	4255
2026-01-25 14:11:00.46	323.27	12.30	-41.1	-41.9	22.0	0.00e+00	0	44	0	3125805056	52	4286
2026-01-25 14:11:01.47	323.41	12.23	-41.0	-41.8	22.1	0.00e+00	0	44	0	3131047936	52	4222
2026-01-25 14:11:02.47	323.55	12.17	-41.0	-41.9	22.1	0.00e+00	0	43	0	3137339392	52	4243
2026-01-25 14:11:03.46	323.68	12.10	-41.0	-41.8	22.1	0.00e+00	0	43	0	3142582272	52	4232
2026-01-25 14:11:04.47	323.82	12.04	-40.9	-41.7	22.2	0.00e+00	0	43	0	3148873728	52	4166
2026-01-25 14:11:05.47	323.96	11.97	-40.8	-41.7	22.2	0.00e+00	0	44	0	3154116608	52	4152
2026-01-25 14:11:06.48	324.10	11.91	-40.8	-41.6	22.3	0.00e+00	0	43	0	3159359488	52	4104
2026-01-25 14:11:07.48	324.24	11.84	-40.9	-41.7	22.2	0.00e+00	0	44	0	3165650944	52	4153
2026-01-25 14:11:08.47	324.37	11.78	-40.7	-41.6	22.3	0.00e+00	0	43	0	3170893824	52	4100
2026-01-25 14:11:09.47	324.51	11.71	-40.8	-41.6	22.3	0.00e+00	0	43	0	3176136704	52	4114
2026-01-25 14:11:10.47	324.64	11.65	-40.8	-41.6	22.2	0.00e+00	0	43	0	3182428160	52	4140
2026-01-25 14:11:11.47	324.78	11.58	-40.9	-41.7	22.1	0.00e+00	0	44	0	3187671040	52	4176
2026-01-25 14:11:12.47	324.91	11.52	-41.0	-41.8	22.1	0.00e+00	0	43	0	3193962496	52	4229
2026-01-25 14:11:13.47	325.05	11.45	-41.0	-41.9	22.0	0.00e+00	0	43	0	3199205376	52	4262
2026-01-25 14:11:14.47	325.18	11.39	-41.1	-41.9	21.9	0.00e+00	0	43	0	3204448256	52	4274
2026-01-25 14:11:15.47	325.31	11.32	-41.1	-42.0	21.9	0.00e+00	0	43	0	3210739712	52	4315
2026-01-25 14:11:16.46	325.44	11.26	-41.3	-42.1	21.7	0.00e+00	0	44	0	3215982592	53	4143
2026-01-25 14:11:17.46	325.57	11.19	-41.3	-42.2	21.7	0.00e+00	0	44	0	3221225472	53	4166
2026-01-25 14:11:18.46	325.70	11.13	-41.3	-42.2	21.6	0.00e+00	0	43	0	3227516928	53	4183
2026-01-25 14:11:19.46	325.83	11.07	-41.3	-42.2	21.7	0.00e+00	0	44	0	3232759808	53	4167
2026-01-25 14:11:20.46	325.96	11.00	-41.4	-42.3	21.6	0.00e+00	0	44	0	3238002688	53	4213
2026-01-25 14:11:21.46	326.09	10.94	-41.4	-42.3	21.6	0.00e+00	0	43	0	3244294144	53	4198
2026-01-25 14:11:22.45	326.22	10.87	-41.4	-42.3	21.5	0.00e+00	0	44	0	3249537024	53	4234
2026-01-25 14:11:23.46	326.35	10.81	-41.4	-42.3	21.6	0.00e+00	0	44	0	3255828480	53	4228
2026-01-25 14:11:24.45	326.47	10.74	-41.3	-42.2	21.6	0.00e+00	0	44	0	3261071360	53	4170
2026-01-25 14:11:25.44	326.60	10.68	-41.5	-42.4	21.5	0.00e+00	0	43	0	3266314240	53	4274
2026-01-25 14:11:26.44	326.72	10.62	-41.4	-42.2	21.6	0.00e+00	0	44	0	3272605696	53	4189
2026-01-25 14:11:27.44	326.85	10.55	-41.4	-42.3	21.6	0.00e+00	0	44	0	3277848576	53	4223
2026-01-25 14:11:28.44	326.97	10.49	-41.5	-42.4	21.5	0.00e+00	0	44	0	3283091456	53	4247
2026-01-25 14:11:29.44	327.10	10.42	-41.4	-42.2	21.6	0.00e+00	0	44	0	3289382912	53	4189
2026-01-25 14:11:30.44	327.22	10.36	-41.5	-42.3	21.5	0.00e+00	0	44	0	3294625792	53	4230
2026-01-25 14:11:31.44	327.35	10.29	-41.5	-42.4	21.4	0.00e+00	0	43	0	3299868672	53	4279
2026-01-25 14:11:32.43	327.47	10.23	-41.6	-42.4	21.3	0.00e+00	0	44	0	3306160128	53	4286
2026-01-25 14:11:33.44	327.59	10.17	-41.5	-42.4	21.4	0.00e+00	0	43	0	3311403008	53	4276
2026-01-25 14:11:34.43	327.71	10.10	-41.6	-42.4	21.4	0.00e+00	0	44	0	3317694464	53	4284
2026-01-25 14:11:35.43	327.84	10.04	-41.6	-42.4	21.3	0.00e+00	0	44	0	3322937344	53	4283
2026-01-25 14:11:36.42	327.95	9.98	-41.8	-42.7	21.2	0.00e+00	0	44	0	3328180224	54	4151
2026-01-25 14:11:37.42	328.08	9.91	-41.6	-42.5	21.3	0.00e+00	0	43	0	3334471680	54	4062
2026-01-25 14:11:38.42	328.20	9.85	-41.7	-42.5	21.2	0.00e+00	0	44	0	3339714560	54	4088
2026-01-25 14:11:39.42	328.31	9.78	-41.6	-42.4	21.3	0.00e+00	0	43	0	3344957440	54	4046
2026-01-25 14:11:40.42	328.43	9.72	-41.5	-42.4	21.3	0.00e+00	0	44	0	3351248896	54	4032
2026-01-25 14:11:41.42	328.55	9.66	-41.5	-42.4	21.4	0.00e+00	0	43	0	3356491776	54	4031
2026-01-25 14:11:42.42	328.67	9.59	-41.6	-42.5	21.3	0.00e+00	0	44	0	3361734656	54	4071
2026-01-25 14:11:43.42	328.79	9.53	-41.3	-42.2	21.6	0.00e+00	0	43	0	3368026112	54	3932
2026-01-25 14:11:44.42	328.91	9.47	-41.5	-42.3	21.4	0.00e+00	0	44	0	3373268992	54	3989
2026-01-25 14:11:45.41	329.02	9.41	-41.4	-42.3	21.4	0.00e+00	0	44	0	3379560448	54	3979
2026-01-25 14:11:46.41	329.14	9.34	-41.6	-42.5	21.3	0.00e+00	0	44	0	3384803328	54	4056
2026-01-25 14:11:47.41	329.25	9.28	-41.5	-42.4	21.3	0.00e+00	0	44	0	3390046208	54	4030
2026-01-25 14:11:48.41	329.37	9.22	-41.5	-42.4	21.3	0.00e+00	0	43	0	3396337664	54	4038
2026-01-25 14:11:49.41	329.48	9.15	-41.6	-42.5	21.3	0.00e+00	0	44	0	3401580544	54	4077
2026-01-25 14:11:50.41	329.60	9.09	-41.8	-42.7	21.1	0.00e+00	0	43	0	3406823424	54	4153
2026-01-25 14:11:51.41	329.71	9.03	-41.7	-42.6	21.1	0.00e+00	0	43	0	3413114880	54	4145
2026-01-25 14:11:52.42	329.82	8.96	-41.9	-42.8	20.9	0.00e+00	0	43	0	3418357760	54	4224
2026-01-25 14:11:53.42	329.94	8.90	-41.8	-42.7	21.0	0.00e+00	0	44	0	3423600640	54	4185
2026-01-25 14:11:54.42	330.05	8.84	-41.9	-42.8	20.9	0.00e+00	0	44	0	3429892096	54	4216
2026-01-25 14:11:55.42	330.16	8.78	-41.9	-42.8	20.9	0.00e+00	0	43	0	3435134976	54	4237
2026-01-25 14:11:56.42	330.27	8.71	-41.9	-42.8	20.9	0.00e+00	0	44	0	3441426432	54	4201
2026-01-25 14:11:57.41	330.38	8.65	-41.8	-42.7	21.0	0.00e+00	0	44	0	3446669312	54	4179
2026-01-25 14:11:58.41	330.49	8.59	-41.8	-42.7	21.0	0.00e+00	0	43	0	3451912192	54	4192
2026-01-25 14:11:59.41	330.60	8.53	-41.8	-42.7	20.9	0.00e+00	0	44	0	3458203648	54	4190
2026-01-25 14:12:00.41	330.71	8.46	-41.8	-42.7	21.0	0.00e+00	0	44	0	3463446528	54	4170
2026-01-25 14:12:01.41	330.82	8.40	-41.7	-42.7	21.0	0.00e+00	0	44	0	3468689408	54	4146
2026-01-25 14:12:02.41	330.93	8.34	-41.8	-42.7	21.0	0.00e+00	0	44	0	3474980864	54	4147
2026-01-25 14:12:03.41	331.04	8.28	-41.6	-42.5	21.1	0.00e+00	0	44	0	3480223744	54	4086
2026-01-25 14:12:04.41	331.15	8.22	-41.6	-42.5	21.2	0.00e+00	0	44	0	3485466624	54	4078
2026-01-25 14:12:05.41	331.25	8.15	-41.7	-42.6	21.1	0.00e+00	0	44	0	3491758080	54	4103
2026-01-25 14:12:06.41	331.36	8.09	-41.8	-42.7	21.0	0.00e+00	0	43	0	3497000960	54	4159
2026-01-25 14:12:07.41	331.47	8.03	-41.7	-42.6	21.1	0.00e+00	0	44	0	3503292416	54	4100
2026-01-25 14:12:08.41	331.57	7.97	-41.7	-42.6	21.0	0.00e+00	0	44	0	3508535296	54	4140
2026-01-25 14:12:09.41	331.68	7.91	-41.7	-42.6	21.0	0.00e+00	0	43	0	3513778176	54	4115
2026-01-25 14:12:10.41	331.78	7.84	-41.8	-42.7	20.9	0.00e+00	0	43	0	3520069632	54	4162
2026-01-25 14:12:11.40	331.89	7.78	-41.7	-42.7	20.9	0.00e+00	0	44	0	3525312512	54	4150
2026-01-25 14:12:12.40	331.99	7.72	-41.8	-42.8	20.9	0.00e+00	0	43	0	3530555392	54	4200
2026-01-25 14:12:13.40	332.10	7.66	-41.8	-42.7	20.9	0.00e+00	0	44	0	3536846848	54	4172
2026-01-25 14:12:14.40	332.20	7.60	-42.0	-42.9	20.7	0.00e+00	0	44	0	3542089728	54	4271
2026-01-25 14:12:15.40	332.30	7.54	-42.2	-43.1	20.5	0.00e+00	0	44	0	3547332608	54	4382
2026-01-25 14:12:16.40	332.41	7.48	-42.3	-43.3	20.3	0.00e+00	0	44	0	3553624064	55	4221
2026-01-25 14:12:17.39	332.51	7.42	-42.0	-42.9	20.7	0.00e+00	0	44	0	3558866944	55	4045
2026-01-25 14:12:18.40	332.61	7.35	-42.3	-43.3	20.3	0.00e+00	0	44	0	3565158400	55	4218
2026-01-25 14:12:19.40	332.71	7.29	-42.7	-43.7	19.9	0.00e+00	0	44	0	3570401280	55	4413
2026-01-25 14:12:20.40	332.81	7.23	-42.7	-43.7	20.0	0.00e+00	0	44	0	3575644160	56	4175
2026-01-25 14:12:21.40	332.91	7.17	-42.5	-43.5	20.2	0.00e+00	0	44	0	3581935616	56	4081
