passes_logs/2026/01/25/R3.2S_Murmansk/R3.2S_Murmansk__20260125_232457_SUOMI_NPP_rec.log

#Pass ID: 20260125_232457_SUOMI NPP
#Satellite: SUOMI NPP
#Configuration: NPP
#almurnet v.1.7.20251203
#Start time: 2026-01-25 23:24:56

#Version: 2.2.20231116
#Station: R3.2S_Murmansk
#Location: 33.079688 lon 68.888172 lat
#TLE: 1 37849U 11061A   26025.53586395  .00000179  00000+0  10601-3 0  9996
#TLE: 2 37849  98.7821 327.4943 0002169  45.6246 314.5108 14.19529815738202

#Time	Az	El	Level	Level2	SNR	BER	BlckErr	Temp	State	Recorded	gain1	gain2
2026-01-25 23:24:56.86	20.51	1.97	-52.8	-67.7	3.8	1.49e+00	0	41	0	0	76	21010
2026-01-25 23:24:57.86	20.56	2.03	-52.8	-67.8	3.8	1.49e+00	0	42	104	0	76	21030
2026-01-25 23:24:58.87	20.60	2.09	-52.8	-67.8	3.8	1.49e+00	0	41	104	0	76	21065
2026-01-25 23:24:59.87	20.64	2.15	-52.8	-67.7	3.8	1.49e+00	0	41	104	0	76	21001
2026-01-25 23:25:00.88	20.68	2.22	-52.8	-67.7	3.8	1.49e+00	0	42	104	0	76	21008
2026-01-25 23:25:01.89	20.72	2.28	-52.8	-67.8	3.8	1.49e+00	0	42	104	0	76	21024
2026-01-25 23:25:02.90	20.77	2.34	-52.8	-67.7	3.8	1.49e+00	0	42	104	0	76	20981
2026-01-25 23:25:03.91	20.81	2.40	-52.8	-67.7	3.8	1.49e+00	0	42	104	0	76	20971
2026-01-25 23:25:04.91	20.85	2.46	-52.8	-67.7	3.8	1.49e+00	0	42	104	0	76	20950
2026-01-25 23:25:05.92	20.90	2.53	-52.8	-67.7	3.8	1.49e+00	0	42	104	0	76	21002
2026-01-25 23:25:06.92	20.94	2.59	-52.8	-67.7	3.8	1.49e+00	0	42	104	0	76	20973
2026-01-25 23:25:07.93	20.98	2.65	-52.8	-67.8	3.8	1.49e+00	0	42	104	0	76	21018
2026-01-25 23:25:08.94	21.03	2.71	-52.8	-67.7	3.8	1.49e+00	0	42	104	0	76	20922
2026-01-25 23:25:09.95	21.07	2.78	-52.8	-67.7	3.8	1.49e+00	0	42	104	0	76	20941
2026-01-25 23:25:10.96	21.11	2.84	-52.8	-67.7	3.8	1.49e+00	0	42	104	0	76	20941
2026-01-25 23:25:11.97	21.16	2.90	-52.8	-67.7	3.8	1.49e+00	0	42	104	0	76	20988
2026-01-25 23:25:12.97	21.20	2.96	-53.0	-68.0	3.8	1.49e+00	0	42	104	0	76	21546
2026-01-25 23:25:13.98	21.25	3.03	-53.2	-68.2	3.8	1.49e+00	0	42	104	0	77	20969
2026-01-25 23:25:14.98	21.29	3.09	-53.4	-68.4	3.8	1.49e+00	0	42	104	0	77	21290
2026-01-25 23:25:15.99	21.34	3.15	-53.5	-68.5	3.8	1.49e+00	0	42	104	0	77	21589
2026-01-25 23:25:17.00	21.38	3.22	-53.6	-68.5	3.8	1.49e+00	0	42	104	0	77	21741
2026-01-25 23:25:18.01	21.43	3.28	-53.6	-68.6	3.8	1.49e+00	0	42	104	0	77	21889
2026-01-25 23:25:19.01	21.47	3.35	-53.7	-68.6	3.8	1.49e+00	0	42	104	0	77	21951
2026-01-25 23:25:20.02	21.52	3.41	-53.6	-68.6	3.8	1.49e+00	0	42	104	0	77	21997
2026-01-25 23:25:21.03	21.56	3.47	-53.6	-68.6	3.8	1.49e+00	0	42	104	0	77	21899
2026-01-25 23:25:22.04	21.61	3.54	-53.6	-68.6	3.8	1.49e+00	0	42	104	0	77	21804
2026-01-25 23:25:23.04	21.65	3.60	-53.6	-68.6	3.8	1.49e+00	0	42	104	0	77	21805
2026-01-25 23:25:24.05	21.70	3.67	-53.7	-68.6	3.8	1.49e+00	0	42	104	0	77	21981
2026-01-25 23:25:25.06	21.75	3.73	-53.7	-68.7	3.8	1.49e+00	0	42	104	0	77	22195
2026-01-25 23:25:26.07	21.79	3.80	-53.8	-68.8	3.8	1.49e+00	0	42	104	0	78	21077
2026-01-25 23:25:27.07	21.84	3.86	-53.8	-68.8	3.8	1.49e+00	0	42	104	0	78	21212
2026-01-25 23:25:28.08	21.89	3.93	-53.9	-68.9	3.8	1.49e+00	0	42	104	0	78	21265
2026-01-25 23:25:29.09	21.93	3.99	-53.9	-68.9	3.8	1.49e+00	0	42	104	0	78	21301
2026-01-25 23:25:30.10	21.98	4.06	-53.9	-68.9	3.8	1.49e+00	0	42	104	0	78	21493
2026-01-25 23:25:31.10	22.03	4.12	-53.9	-68.9	3.8	1.49e+00	0	42	104	0	78	21482
2026-01-25 23:25:32.11	22.07	4.19	-54.0	-68.9	3.8	1.49e+00	0	42	104	0	78	21492
2026-01-25 23:25:33.12	22.12	4.26	-54.0	-69.0	3.8	1.49e+00	0	42	104	0	78	21515
2026-01-25 23:25:34.13	22.17	4.32	-54.0	-69.0	3.8	1.49e+00	0	42	104	0	78	21639
2026-01-25 23:25:35.13	22.22	4.39	-54.0	-69.0	3.8	1.49e+00	0	43	104	0	78	21574
2026-01-25 23:25:36.15	22.27	4.45	-54.0	-69.0	3.8	1.49e+00	0	43	104	0	78	21676
2026-01-25 23:25:37.15	22.32	4.52	-54.0	-69.0	3.8	1.49e+00	0	42	104	0	78	21650
2026-01-25 23:25:38.15	22.36	4.59	-54.0	-69.0	3.8	1.49e+00	0	42	104	0	78	21743
2026-01-25 23:25:39.16	22.41	4.65	-54.0	-69.0	3.8	1.49e+00	0	43	104	0	78	21621
2026-01-25 23:25:40.17	22.46	4.72	-54.0	-69.0	3.8	1.49e+00	0	43	104	0	78	21645
2026-01-25 23:25:41.18	22.51	4.79	-54.0	-69.0	3.8	1.49e+00	0	42	104	0	78	21666
2026-01-25 23:25:42.19	22.56	4.86	-54.0	-69.0	3.8	1.49e+00	0	43	104	0	78	21624
2026-01-25 23:25:43.20	22.61	4.92	-54.0	-69.0	3.8	1.49e+00	0	43	104	0	78	21549
2026-01-25 23:25:44.20	22.66	4.99	-54.0	-69.0	3.8	1.49e+00	0	43	104	0	78	21507
2026-01-25 23:25:45.21	22.71	5.06	-54.0	-68.9	3.8	1.49e+00	0	43	104	0	78	21454
2026-01-25 23:25:46.22	22.76	5.13	-53.9	-68.9	3.8	1.49e+00	0	43	104	0	78	21468
2026-01-25 23:25:47.23	22.81	5.19	-53.9	-68.9	3.8	1.49e+00	0	43	104	0	78	21454
2026-01-25 23:25:48.24	22.86	5.26	-53.9	-68.9	3.8	1.49e+00	0	43	104	0	78	21434
2026-01-25 23:25:49.25	22.92	5.33	-53.9	-68.9	3.8	1.49e+00	0	43	104	0	78	21281
2026-01-25 23:25:50.26	22.97	5.40	-53.9	-68.8	3.8	1.49e+00	0	43	104	0	78	21238
2026-01-25 23:25:51.26	23.02	5.47	-53.9	-68.8	3.8	1.49e+00	0	43	104	0	78	21257
2026-01-25 23:25:52.27	23.07	5.54	-53.8	-68.8	3.8	1.49e+00	0	43	104	0	78	21226
2026-01-25 23:25:53.28	23.12	5.61	-53.9	-68.8	3.8	1.49e+00	0	43	104	0	78	21230
2026-01-25 23:25:54.29	23.17	5.68	-53.9	-68.9	3.8	1.49e+00	0	43	104	0	78	21268
2026-01-25 23:25:55.30	23.23	5.75	-53.9	-68.9	3.8	1.49e+00	0	43	104	0	78	21332
2026-01-25 23:25:56.30	23.28	5.81	-53.9	-68.9	3.8	1.49e+00	0	43	104	0	78	21336
2026-01-25 23:25:57.31	23.33	5.88	-53.9	-68.8	3.8	1.49e+00	0	43	104	0	78	21239
2026-01-25 23:25:58.32	23.39	5.95	-53.9	-68.8	3.8	1.49e+00	0	43	104	0	78	21232
2026-01-25 23:25:59.33	23.44	6.02	-53.8	-68.8	3.8	1.49e+00	0	43	104	0	78	21188
2026-01-25 23:26:00.34	23.49	6.09	-53.8	-68.8	3.8	1.49e+00	0	43	104	0	78	21182
2026-01-25 23:26:01.35	23.55	6.17	-53.8	-68.8	3.8	1.49e+00	0	43	104	0	78	21138
2026-01-25 23:26:02.35	23.60	6.24	-53.8	-68.8	3.8	1.49e+00	0	43	104	0	78	21107
2026-01-25 23:26:03.36	23.65	6.31	-53.8	-68.8	3.8	1.49e+00	0	43	104	0	78	21155
2026-01-25 23:26:04.37	23.71	6.38	-53.8	-68.8	3.8	1.49e+00	0	43	104	0	78	21069
2026-01-25 23:26:05.37	23.76	6.45	-53.8	-68.8	3.8	1.49e+00	0	43	104	0	78	21019
2026-01-25 23:26:06.38	23.82	6.52	-53.8	-68.8	3.8	1.49e+00	0	43	104	0	78	21038
2026-01-25 23:26:07.39	23.87	6.59	-53.8	-68.7	3.8	1.49e+00	0	43	104	0	78	21017
2026-01-25 23:26:08.40	23.93	6.66	-53.8	-68.8	3.8	1.49e+00	0	43	104	0	78	21038
2026-01-25 23:26:09.41	23.99	6.73	-53.7	-68.7	3.8	1.49e+00	0	43	104	0	78	20986
2026-01-25 23:26:10.42	24.04	6.81	-53.7	-68.7	3.8	1.49e+00	0	43	104	0	78	21006
2026-01-25 23:26:11.42	24.10	6.88	-53.7	-68.7	3.8	1.49e+00	0	43	104	0	78	20995
2026-01-25 23:26:12.43	24.15	6.95	-53.7	-68.7	3.8	1.49e+00	0	43	104	0	78	20902
2026-01-25 23:26:13.44	24.21	7.02	-53.7	-68.7	3.8	1.49e+00	0	43	104	0	78	20932
2026-01-25 23:26:14.45	24.27	7.10	-53.7	-68.7	3.8	1.49e+00	0	43	104	0	78	20810
2026-01-25 23:26:15.46	24.33	7.17	-53.7	-68.7	3.8	1.49e+00	0	43	104	0	78	20810
2026-01-25 23:26:16.46	24.38	7.24	-53.7	-68.7	3.8	1.49e+00	0	43	104	0	78	20878
2026-01-25 23:26:17.47	24.44	7.31	-53.8	-68.8	3.8	1.49e+00	0	43	104	0	78	21126
2026-01-25 23:26:18.48	24.50	7.39	-53.9	-68.9	3.8	1.49e+00	0	43	104	0	78	21403
2026-01-25 23:26:19.49	24.56	7.46	-54.0	-68.9	3.8	1.49e+00	0	43	104	0	78	21482
2026-01-25 23:26:20.49	24.62	7.54	-54.0	-68.9	3.8	1.49e+00	0	43	104	0	78	21489
2026-01-25 23:26:21.50	24.67	7.61	-54.0	-69.0	3.8	1.49e+00	0	43	104	0	78	21532
2026-01-25 23:26:22.51	24.73	7.68	-54.0	-68.9	3.8	1.49e+00	0	43	104	0	78	21486
2026-01-25 23:26:23.52	24.79	7.76	-54.0	-68.9	3.8	1.49e+00	0	43	104	0	78	21433
2026-01-25 23:26:24.52	24.85	7.83	-54.0	-68.9	3.8	1.49e+00	0	43	104	0	78	21474
2026-01-25 23:26:25.53	24.91	7.91	-53.9	-68.9	3.8	1.49e+00	0	43	104	0	78	21385
2026-01-25 23:26:26.53	24.97	7.98	-53.9	-68.8	3.8	1.49e+00	0	43	104	0	78	21188
2026-01-25 23:26:27.54	25.03	8.06	-53.9	-68.8	3.8	1.49e+00	0	43	104	0	78	21195
2026-01-25 23:26:28.54	25.09	8.13	-53.9	-68.8	3.8	1.49e+00	0	43	104	0	78	21204
2026-01-25 23:26:29.55	25.16	8.21	-53.8	-68.8	3.8	1.49e+00	0	43	104	0	78	21210
2026-01-25 23:26:30.56	25.22	8.28	-53.8	-68.8	3.8	1.49e+00	0	43	104	0	78	21067
2026-01-25 23:26:31.57	25.28	8.36	-53.7	-68.7	3.8	1.49e+00	0	43	104	0	78	20911
2026-01-25 23:26:32.58	25.34	8.44	-53.7	-68.6	3.8	1.49e+00	0	43	104	0	78	20747
2026-01-25 23:26:33.58	25.40	8.51	-53.6	-68.5	3.8	1.49e+00	0	43	104	0	78	20524
2026-01-25 23:26:34.59	25.47	8.59	-53.5	-68.5	3.8	1.49e+00	0	43	104	0	78	20332
2026-01-25 23:26:35.60	25.53	8.67	-53.3	-68.3	3.8	1.49e+00	0	43	104	0	78	19945
2026-01-25 23:26:36.60	25.59	8.74	-53.2	-68.2	3.8	1.49e+00	0	43	104	0	78	19675
2026-01-25 23:26:37.61	25.66	8.82	-53.1	-67.9	3.8	1.49e+00	0	43	104	0	78	19094
2026-01-25 23:26:38.62	25.72	8.90	-52.8	-67.8	3.8	1.49e+00	0	43	104	0	77	19844
2026-01-25 23:26:39.63	25.78	8.97	-50.3	-54.4	12.0	2.04e-03	0	43	0	0	71	6035
2026-01-25 23:26:40.63	25.85	9.05	-46.8	-48.5	17.6	3.11e-04	0	43	0	2097152	65	4335
2026-01-25 23:26:41.64	25.91	9.13	-49.5	-52.9	14.0	0.00e+00	0	43	0	4194304	69	5679
2026-01-25 23:26:42.65	25.98	9.21	-50.4	-54.6	11.7	7.02e-01	0	43	0	6291456	72	5844
2026-01-25 23:26:43.66	26.04	9.29	-48.2	-50.5	15.8	1.68e-02	0	43	0	7340032	68	4566
2026-01-25 23:26:44.66	26.11	9.37	-52.2	-62.3	5.3	6.10e-06	0	43	0	9437184	74	12639
2026-01-25 23:26:45.67	26.17	9.44	-47.7	-49.8	15.8	1.49e+00	1	43	104	9437184	67	4470
2026-01-25 23:26:46.68	26.24	9.52	-46.5	-48.2	18.1	0.00e+00	0	43	0	10485760	65	4183
2026-01-25 23:26:47.68	26.31	9.60	-46.5	-48.2	18.1	0.00e+00	0	43	0	12582912	64	4432
2026-01-25 23:26:48.69	26.38	9.68	-46.6	-48.4	17.9	0.00e+00	0	43	0	13631488	64	4525
2026-01-25 23:26:49.69	26.44	9.76	-46.7	-48.5	17.9	0.00e+00	0	43	0	15728640	64	4572
2026-01-25 23:26:50.70	26.51	9.84	-46.5	-48.2	18.2	0.00e+00	0	43	0	17825792	64	4397
2026-01-25 23:26:51.71	26.58	9.92	-46.2	-47.9	18.5	0.00e+00	0	43	0	19922944	64	4255
2026-01-25 23:26:52.72	26.65	10.00	-46.2	-47.8	18.6	0.00e+00	0	43	0	22020096	64	4209
2026-01-25 23:26:53.72	26.72	10.08	-46.0	-47.5	18.8	0.00e+00	0	43	0	23068672	64	4093
2026-01-25 23:26:54.73	26.78	10.16	-46.1	-47.6	18.9	0.00e+00	0	43	0	25165824	63	4384
2026-01-25 23:26:55.73	26.85	10.25	-45.9	-47.5	19.0	0.00e+00	0	43	0	27262976	63	4304
2026-01-25 23:26:56.74	26.92	10.33	-46.0	-47.6	18.9	0.00e+00	0	43	0	29360128	63	4372
2026-01-25 23:26:57.74	26.99	10.41	-45.7	-47.2	19.2	0.00e+00	0	43	0	30408704	63	4180
2026-01-25 23:26:58.75	27.06	10.49	-45.9	-47.4	19.1	0.00e+00	0	43	0	32505856	63	4262
2026-01-25 23:26:59.75	27.14	10.57	-45.8	-47.3	19.2	0.00e+00	0	43	0	34603008	63	4212
2026-01-25 23:27:00.73	27.20	10.65	-45.8	-47.3	19.2	0.00e+00	0	43	0	36700160	63	4205
2026-01-25 23:27:01.74	27.28	10.73	-45.6	-47.1	19.4	0.00e+00	0	43	0	38797312	63	4120
2026-01-25 23:27:02.75	27.35	10.82	-45.6	-47.0	19.4	0.00e+00	0	43	0	39845888	63	4086
2026-01-25 23:27:03.75	27.42	10.90	-45.5	-47.0	19.5	0.00e+00	0	43	0	41943040	63	4052
2026-01-25 23:27:04.76	27.49	10.98	-45.7	-47.2	19.3	0.00e+00	0	43	0	44040192	62	4425
2026-01-25 23:27:05.77	27.57	11.07	-45.7	-47.2	19.3	0.00e+00	0	43	0	46137344	62	4406
2026-01-25 23:27:06.77	27.64	11.15	-45.5	-46.9	19.5	0.00e+00	0	43	0	48234496	62	4289
2026-01-25 23:27:07.78	27.71	11.23	-45.5	-46.9	19.5	0.00e+00	0	43	0	50331648	62	4280
2026-01-25 23:27:08.79	27.79	11.32	-45.6	-47.0	19.5	0.00e+00	0	43	0	51380224	62	4322
2026-01-25 23:27:09.79	27.86	11.40	-45.4	-46.8	19.7	0.00e+00	0	43	0	53477376	62	4218
2026-01-25 23:27:10.80	27.94	11.49	-45.4	-46.8	19.7	0.00e+00	0	43	0	55574528	62	4220
2026-01-25 23:27:11.81	28.02	11.57	-45.5	-47.0	19.5	0.00e+00	0	43	0	57671680	62	4295
2026-01-25 23:27:12.81	28.09	11.66	-45.6	-47.0	19.5	0.00e+00	0	43	0	58720256	62	4340
2026-01-25 23:27:13.82	28.17	11.74	-45.4	-46.8	19.6	0.00e+00	0	43	0	60817408	62	4220
2026-01-25 23:27:14.82	28.24	11.83	-45.4	-46.8	19.7	0.00e+00	0	43	0	62914560	62	4237
2026-01-25 23:27:15.83	28.32	11.92	-45.5	-46.9	19.6	0.00e+00	0	43	0	65011712	62	4285
2026-01-25 23:27:16.84	28.40	12.00	-45.6	-47.0	19.5	0.00e+00	0	43	0	67108864	62	4323
2026-01-25 23:27:17.84	28.48	12.09	-45.5	-47.0	19.6	0.00e+00	0	43	0	68157440	62	4296
2026-01-25 23:27:18.85	28.56	12.18	-45.6	-47.0	19.5	0.00e+00	0	44	0	70254592	62	4339
2026-01-25 23:27:19.86	28.64	12.26	-45.5	-46.9	19.6	0.00e+00	0	43	0	72351744	62	4268
2026-01-25 23:27:20.86	28.71	12.35	-45.7	-47.1	19.4	0.00e+00	0	43	0	74448896	62	4383
2026-01-25 23:27:21.87	28.79	12.44	-45.5	-46.9	19.6	0.00e+00	0	43	0	76546048	62	4269
2026-01-25 23:27:22.87	28.87	12.52	-45.3	-46.7	19.8	0.00e+00	0	43	0	78643200	62	4172
2026-01-25 23:27:23.88	28.96	12.61	-45.3	-46.7	19.8	0.00e+00	0	43	0	79691776	62	4156
2026-01-25 23:27:24.89	29.04	12.70	-45.4	-46.8	19.7	0.00e+00	0	43	0	81788928	62	4241
2026-01-25 23:27:25.90	29.12	12.79	-45.4	-46.8	19.8	0.00e+00	0	43	0	83886080	62	4210
2026-01-25 23:27:26.91	29.20	12.88	-45.7	-47.2	19.4	0.00e+00	0	43	0	85983232	62	4420
2026-01-25 23:27:27.91	29.28	12.97	-45.7	-47.2	19.4	0.00e+00	0	44	0	87031808	62	4415
2026-01-25 23:27:28.91	29.37	13.06	-45.6	-47.0	19.5	0.00e+00	0	44	0	89128960	62	4336
2026-01-25 23:27:29.92	29.45	13.15	-45.4	-46.9	19.7	0.00e+00	0	43	0	91226112	62	4245
2026-01-25 23:27:30.93	29.53	13.24	-45.3	-46.6	19.9	0.00e+00	0	43	0	93323264	62	4134
2026-01-25 23:27:31.94	29.62	13.33	-45.6	-47.1	19.5	0.00e+00	0	43	0	95420416	62	4345
2026-01-25 23:27:32.94	29.70	13.42	-45.6	-47.0	19.5	0.00e+00	0	43	0	96468992	62	4331
2026-01-25 23:27:33.94	29.79	13.51	-45.6	-47.1	19.5	0.00e+00	0	43	0	98566144	62	4353
2026-01-25 23:27:34.95	29.87	13.60	-45.8	-47.2	19.4	0.00e+00	0	43	0	100663296	62	4436
2026-01-25 23:27:35.95	29.96	13.69	-45.9	-47.4	19.3	0.00e+00	0	43	0	102760448	62	4495
2026-01-25 23:27:36.96	30.05	13.78	-45.8	-47.3	19.3	0.00e+00	0	43	0	104857600	62	4470
2026-01-25 23:27:37.96	30.14	13.88	-45.5	-46.9	19.6	0.00e+00	0	43	0	105906176	62	4284
2026-01-25 23:27:38.97	30.22	13.97	-46.0	-47.5	19.2	0.00e+00	0	44	0	108003328	62	4553
2026-01-25 23:27:39.98	30.31	14.06	-45.7	-47.2	19.4	0.00e+00	0	43	0	110100480	62	4416
2026-01-25 23:27:40.99	30.40	14.15	-45.5	-46.9	19.6	0.00e+00	0	43	0	112197632	62	4275
2026-01-25 23:27:41.99	30.49	14.25	-45.5	-46.9	19.7	0.00e+00	0	43	0	114294784	62	4253
2026-01-25 23:27:43.00	30.58	14.34	-45.7	-47.1	19.4	0.00e+00	0	44	0	115343360	62	4367
2026-01-25 23:27:44.01	30.67	14.43	-45.7	-47.1	19.5	0.00e+00	0	43	0	117440512	62	4385
2026-01-25 23:27:45.01	30.76	14.53	-45.7	-47.2	19.5	0.00e+00	0	43	0	119537664	62	4405
2026-01-25 23:27:46.02	30.86	14.62	-45.5	-46.9	19.6	0.00e+00	0	43	0	121634816	62	4277
2026-01-25 23:27:47.03	30.95	14.72	-45.7	-47.2	19.4	0.00e+00	0	43	0	123731968	62	4393
2026-01-25 23:27:48.04	31.04	14.81	-45.6	-47.0	19.7	0.00e+00	0	43	0	124780544	62	4304
2026-01-25 23:27:49.04	31.13	14.91	-45.8	-47.2	19.5	0.00e+00	0	43	0	126877696	62	4417
2026-01-25 23:27:50.05	31.23	15.00	-45.9	-47.4	19.3	0.00e+00	0	43	0	128974848	62	4536
2026-01-25 23:27:51.06	31.32	15.10	-45.5	-46.9	19.8	0.00e+00	0	43	0	131072000	62	4245
2026-01-25 23:27:52.07	31.42	15.20	-45.6	-47.0	19.7	0.00e+00	0	43	0	133169152	62	4303
2026-01-25 23:27:53.07	31.51	15.29	-45.6	-47.0	19.6	0.00e+00	0	43	0	135266304	62	4337
2026-01-25 23:27:54.08	31.61	15.39	-45.5	-46.9	19.7	0.00e+00	0	43	0	136314880	62	4277
2026-01-25 23:27:55.09	31.71	15.49	-45.4	-46.8	19.8	0.00e+00	0	43	0	138412032	62	4214
2026-01-25 23:27:56.10	31.81	15.59	-45.5	-47.0	19.7	0.00e+00	0	43	0	140509184	62	4294
2026-01-25 23:27:57.10	31.90	15.68	-45.7	-47.1	19.6	0.00e+00	0	43	0	142606336	62	4364
2026-01-25 23:27:58.11	32.00	15.78	-45.4	-46.8	19.9	0.00e+00	0	43	0	144703488	62	4221
2026-01-25 23:27:59.11	32.10	15.88	-45.4	-46.7	19.9	0.00e+00	0	43	0	145752064	62	4181
2026-01-25 23:28:00.12	32.20	15.98	-45.3	-46.7	20.0	0.00e+00	0	43	0	147849216	62	4171
2026-01-25 23:28:01.13	32.30	16.08	-45.2	-46.6	20.1	0.00e+00	0	43	0	149946368	62	4108
2026-01-25 23:28:02.13	32.40	16.18	-45.2	-46.6	20.1	0.00e+00	0	44	0	152043520	62	4109
2026-01-25 23:28:03.14	32.51	16.28	-45.2	-46.6	20.1	0.00e+00	0	44	0	153092096	62	4101
2026-01-25 23:28:04.14	32.61	16.38	-45.3	-46.6	20.0	0.00e+00	0	43	0	155189248	62	4139
2026-01-25 23:28:05.15	32.71	16.48	-45.3	-46.6	20.0	0.00e+00	0	43	0	157286400	62	4134
2026-01-25 23:28:06.16	32.82	16.58	-45.0	-46.3	20.3	0.00e+00	0	44	0	159383552	61	4201
2026-01-25 23:28:07.16	32.92	16.68	-45.1	-46.4	20.3	0.00e+00	0	43	0	161480704	61	4260
2026-01-25 23:28:08.17	33.03	16.78	-45.3	-46.6	20.1	0.00e+00	0	43	0	163577856	61	4371
2026-01-25 23:28:09.18	33.13	16.88	-45.2	-46.5	20.2	0.00e+00	0	43	0	164626432	61	4307
2026-01-25 23:28:10.18	33.24	16.99	-45.3	-46.7	20.0	0.00e+00	0	43	0	166723584	61	4394
2026-01-25 23:28:11.19	33.35	17.09	-45.7	-47.1	19.6	0.00e+00	0	43	0	168820736	62	4375
2026-01-25 23:28:12.20	33.45	17.19	-45.5	-46.9	19.9	0.00e+00	0	43	0	170917888	62	4249
2026-01-25 23:28:13.20	33.56	17.29	-45.5	-46.9	19.8	0.00e+00	0	43	0	173015040	62	4266
2026-01-25 23:28:14.21	33.67	17.40	-45.7	-47.1	19.6	0.00e+00	0	43	0	174063616	62	4365
2026-01-25 23:28:15.22	33.78	17.50	-45.8	-47.2	19.6	0.00e+00	0	43	0	176160768	62	4398
2026-01-25 23:28:16.23	33.89	17.61	-45.7	-47.1	19.6	0.00e+00	0	43	0	178257920	62	4381
2026-01-25 23:28:17.24	34.01	17.71	-45.7	-47.1	19.6	0.00e+00	0	43	0	180355072	62	4387
2026-01-25 23:28:18.24	34.12	17.82	-45.8	-47.3	19.5	0.00e+00	0	44	0	181403648	62	4456
2026-01-25 23:28:19.25	34.23	17.92	-45.7	-47.1	19.7	0.00e+00	0	43	0	183500800	62	4354
2026-01-25 23:28:20.25	34.35	18.03	-46.0	-47.4	19.4	0.00e+00	0	44	0	185597952	62	4540
2026-01-25 23:28:21.26	34.46	18.13	-45.8	-47.2	19.5	0.00e+00	0	44	0	187695104	62	4428
2026-01-25 23:28:22.26	34.58	18.24	-45.8	-47.3	19.4	0.00e+00	0	44	0	189792256	62	4461
2026-01-25 23:28:23.27	34.69	18.35	-45.9	-47.4	19.3	0.00e+00	0	43	0	191889408	62	4498
2026-01-25 23:28:24.28	34.81	18.45	-46.0	-47.5	19.4	0.00e+00	0	43	0	192937984	62	4548
2026-01-25 23:28:25.29	34.93	18.56	-45.9	-47.4	19.4	0.00e+00	0	43	0	195035136	62	4534
2026-01-25 23:28:26.29	35.05	18.67	-46.2	-47.7	19.2	0.00e+00	0	43	0	197132288	62	4690
2026-01-25 23:28:27.30	35.17	18.78	-45.9	-47.4	19.4	0.00e+00	0	44	0	199229440	62	4529
2026-01-25 23:28:28.30	35.28	18.88	-45.9	-47.4	19.4	0.00e+00	0	44	0	201326592	62	4529
2026-01-25 23:28:29.31	35.41	18.99	-45.9	-47.3	19.4	0.00e+00	0	43	0	202375168	62	4492
2026-01-25 23:28:30.32	35.53	19.10	-46.0	-47.5	19.3	0.00e+00	0	43	0	204472320	63	4300
2026-01-25 23:28:31.33	35.65	19.21	-45.8	-47.3	19.5	0.00e+00	0	43	0	206569472	63	4199
2026-01-25 23:28:32.33	35.77	19.32	-46.1	-47.6	19.3	0.00e+00	0	44	0	208666624	63	4364
2026-01-25 23:28:33.34	35.90	19.43	-45.9	-47.4	19.4	0.00e+00	0	43	0	209715200	63	4267
2026-01-25 23:28:34.35	36.03	19.54	-46.0	-47.5	19.3	0.00e+00	0	43	0	211812352	63	4295
2026-01-25 23:28:35.35	36.15	19.65	-46.1	-47.6	19.2	0.00e+00	0	43	0	213909504	63	4381
2026-01-25 23:28:36.35	36.28	19.76	-46.1	-47.6	19.2	0.00e+00	0	44	0	216006656	63	4389
2026-01-25 23:28:37.36	36.41	19.88	-46.2	-47.7	19.1	0.00e+00	0	43	0	218103808	63	4433
2026-01-25 23:28:38.37	36.53	19.99	-46.5	-48.1	18.8	0.00e+00	0	43	0	220200960	63	4603
2026-01-25 23:28:39.37	36.66	20.10	-46.3	-47.8	19.0	0.00e+00	0	43	0	221249536	63	4489
2026-01-25 23:28:40.38	36.79	20.21	-46.0	-47.4	19.3	0.00e+00	0	44	0	223346688	63	4283
2026-01-25 23:28:41.39	36.93	20.33	-46.1	-47.6	19.2	0.00e+00	0	44	0	225443840	63	4374
2026-01-25 23:28:42.39	37.06	20.44	-46.2	-47.7	19.2	0.00e+00	0	44	0	227540992	63	4419
2026-01-25 23:28:43.40	37.19	20.55	-46.1	-47.6	19.3	0.00e+00	0	43	0	229638144	63	4371
2026-01-25 23:28:44.41	37.33	20.67	-46.3	-47.8	19.0	0.00e+00	0	43	0	230686720	63	4489
2026-01-25 23:28:45.42	37.46	20.78	-46.2	-47.8	19.1	0.00e+00	0	44	0	232783872	63	4458
2026-01-25 23:28:46.42	37.60	20.90	-46.2	-47.8	19.1	0.00e+00	0	43	0	234881024	63	4446
2026-01-25 23:28:47.43	37.74	21.01	-46.2	-47.8	19.1	0.00e+00	0	43	0	236978176	63	4446
2026-01-25 23:28:48.44	37.88	21.13	-46.2	-47.8	19.1	0.00e+00	0	43	0	238026752	63	4470
2026-01-25 23:28:49.44	38.01	21.25	-46.1	-47.6	19.3	0.00e+00	0	44	0	240123904	63	4363
2026-01-25 23:28:50.45	38.16	21.36	-46.3	-47.8	19.0	0.00e+00	0	44	0	242221056	63	4488
2026-01-25 23:28:51.45	38.30	21.48	-46.4	-48.0	19.0	0.00e+00	0	43	0	244318208	63	4547
2026-01-25 23:28:52.46	38.44	21.60	-46.0	-47.5	19.4	0.00e+00	0	44	0	246415360	63	4295
2026-01-25 23:28:53.46	38.58	21.71	-46.2	-47.7	19.2	0.00e+00	0	44	0	247463936	63	4432
2026-01-25 23:28:54.47	38.73	21.83	-46.0	-47.4	19.5	0.00e+00	0	44	0	249561088	63	4285
2026-01-25 23:28:55.48	38.87	21.95	-45.8	-47.2	19.7	0.00e+00	0	43	0	251658240	63	4158
2026-01-25 23:28:56.49	39.02	22.07	-45.6	-47.0	19.8	0.00e+00	0	44	0	253755392	63	4084
2026-01-25 23:28:57.49	39.17	22.19	-45.6	-47.0	19.8	0.00e+00	0	44	0	255852544	63	4066
2026-01-25 23:28:58.50	39.32	22.31	-45.4	-46.7	20.1	0.00e+00	0	44	0	257949696	62	4177
2026-01-25 23:28:59.51	39.47	22.43	-45.2	-46.4	20.3	0.00e+00	0	43	0	258998272	62	4043
2026-01-25 23:29:00.51	39.62	22.55	-45.1	-46.4	20.4	0.00e+00	0	43	0	261095424	62	4019
2026-01-25 23:29:01.52	39.77	22.67	-44.8	-46.0	20.7	0.00e+00	0	43	0	263192576	61	4087
2026-01-25 23:29:02.52	39.92	22.79	-44.8	-46.0	20.7	0.00e+00	0	43	0	265289728	61	4096
2026-01-25 23:29:03.53	40.08	22.91	-44.6	-45.8	20.9	0.00e+00	0	44	0	266338304	61	3993
2026-01-25 23:29:04.53	40.23	23.03	-44.6	-45.8	20.9	0.00e+00	0	43	0	268435456	61	3973
2026-01-25 23:29:05.54	40.39	23.16	-44.6	-45.8	21.0	0.00e+00	0	43	0	270532608	60	4210
2026-01-25 23:29:06.54	40.55	23.28	-44.5	-45.7	21.0	0.00e+00	0	44	0	272629760	60	4165
2026-01-25 23:29:07.55	40.71	23.40	-44.6	-45.8	20.9	0.00e+00	0	44	0	274726912	60	4224
2026-01-25 23:29:08.55	40.87	23.52	-44.9	-46.1	20.6	0.00e+00	0	43	0	275775488	60	4382
2026-01-25 23:29:09.56	41.03	23.65	-45.0	-46.2	20.5	0.00e+00	0	43	0	277872640	60	4438
2026-01-25 23:29:10.57	41.19	23.77	-45.3	-46.7	20.1	0.00e+00	0	43	0	279969792	61	4407
2026-01-25 23:29:11.57	41.36	23.89	-45.4	-46.7	20.1	0.00e+00	0	43	0	282066944	61	4417
2026-01-25 23:29:12.58	41.52	24.02	-45.7	-47.1	19.7	0.00e+00	0	44	0	284164096	62	4346
2026-01-25 23:29:13.58	41.69	24.14	-45.8	-47.2	19.6	0.00e+00	0	44	0	286261248	62	4418
2026-01-25 23:29:14.59	41.86	24.27	-45.6	-47.0	19.8	0.00e+00	0	43	0	287309824	62	4331
2026-01-25 23:29:15.60	42.03	24.40	-45.6	-46.9	20.0	0.00e+00	0	44	0	289406976	62	4270
2026-01-25 23:29:16.61	42.20	24.52	-45.5	-46.9	20.0	0.00e+00	0	44	0	291504128	62	4267
2026-01-25 23:29:17.61	42.37	24.65	-45.3	-46.5	20.2	0.00e+00	0	44	0	293601280	62	4097
2026-01-25 23:29:18.62	42.54	24.77	-45.1	-46.3	20.5	0.00e+00	0	43	0	294649856	62	3992
2026-01-25 23:29:19.63	42.72	24.90	-45.3	-46.6	20.3	0.00e+00	0	43	0	296747008	61	4356
2026-01-25 23:29:20.63	42.89	25.03	-45.1	-46.4	20.5	0.00e+00	0	43	0	298844160	61	4254
2026-01-25 23:29:21.64	43.07	25.16	-45.3	-46.6	20.2	0.00e+00	0	43	0	300941312	61	4383
2026-01-25 23:29:22.64	43.25	25.28	-45.3	-46.6	20.3	0.00e+00	0	44	0	303038464	61	4342
2026-01-25 23:29:23.65	43.43	25.41	-45.5	-46.9	20.0	0.00e+00	0	43	0	304087040	61	4498
2026-01-25 23:29:24.66	43.61	25.54	-45.5	-46.9	20.0	0.00e+00	0	43	0	306184192	61	4503
2026-01-25 23:29:25.67	43.80	25.67	-46.0	-47.5	19.5	0.00e+00	0	43	0	308281344	62	4558
2026-01-25 23:29:26.67	43.98	25.80	-45.9	-47.3	19.6	0.00e+00	0	44	0	310378496	62	4489
2026-01-25 23:29:27.68	44.17	25.93	-46.0	-47.4	19.6	0.00e+00	0	44	0	312475648	62	4518
2026-01-25 23:29:28.68	44.35	26.06	-45.9	-47.3	19.6	0.00e+00	0	43	0	314572800	62	4491
2026-01-25 23:29:29.69	44.54	26.19	-45.6	-47.0	19.9	0.00e+00	0	44	0	315621376	62	4310
2026-01-25 23:29:30.69	44.73	26.32	-45.6	-47.0	19.9	0.00e+00	0	44	0	317718528	62	4294
2026-01-25 23:29:31.69	44.93	26.45	-45.5	-46.9	20.1	0.00e+00	0	44	0	319815680	62	4252
2026-01-25 23:29:32.69	45.12	26.58	-45.4	-46.7	20.1	0.00e+00	0	43	0	321912832	62	4193
2026-01-25 23:29:33.69	45.31	26.71	-45.4	-46.7	20.2	0.00e+00	0	44	0	322961408	62	4159
2026-01-25 23:29:34.69	45.51	26.84	-45.6	-46.9	20.0	0.00e+00	0	43	0	325058560	62	4280
2026-01-25 23:29:35.70	45.71	26.98	-45.8	-47.1	19.8	0.00e+00	0	43	0	327155712	62	4391
2026-01-25 23:29:36.71	45.91	27.11	-46.0	-47.4	19.6	0.00e+00	0	44	0	329252864	62	4502
2026-01-25 23:29:37.72	46.11	27.24	-46.3	-47.9	19.3	0.00e+00	0	44	0	331350016	63	4494
2026-01-25 23:29:38.72	46.31	27.38	-46.4	-48.0	19.0	0.00e+00	0	43	0	332398592	63	4566
2026-01-25 23:29:39.73	46.52	27.51	-46.5	-48.1	18.9	0.00e+00	0	44	0	334495744	63	4634
2026-01-25 23:29:40.74	46.73	27.64	-46.5	-48.1	19.0	0.00e+00	0	44	0	336592896	63	4619
2026-01-25 23:29:41.74	46.93	27.78	-46.5	-48.0	19.0	0.00e+00	0	43	0	338690048	63	4573
2026-01-25 23:29:42.75	47.14	27.91	-46.1	-47.5	19.5	0.00e+00	0	44	0	340787200	63	4302
2026-01-25 23:29:43.76	47.36	28.05	-46.1	-47.5	19.5	0.00e+00	0	43	0	341835776	63	4311
2026-01-25 23:29:44.77	47.57	28.18	-45.8	-47.1	19.9	0.00e+00	0	43	0	343932928	63	4125
2026-01-25 23:29:45.78	47.79	28.32	-45.4	-46.7	20.2	0.00e+00	0	44	0	346030080	62	4165
2026-01-25 23:29:46.78	48.00	28.45	-45.4	-46.7	20.3	0.00e+00	0	43	0	348127232	62	4156
2026-01-25 23:29:47.78	48.22	28.58	-45.7	-47.0	20.0	0.00e+00	0	44	0	350224384	62	4317
2026-01-25 23:29:48.79	48.44	28.72	-45.9	-47.3	19.8	0.00e+00	0	44	0	351272960	62	4442
2026-01-25 23:29:49.80	48.67	28.86	-46.2	-47.6	19.4	0.00e+00	0	44	0	353370112	62	4635
2026-01-25 23:29:50.81	48.89	28.99	-46.4	-47.9	19.1	0.00e+00	0	43	0	355467264	63	4540
2026-01-25 23:29:51.82	49.12	29.13	-46.6	-48.2	18.9	0.00e+00	0	43	0	357564416	63	4685
2026-01-25 23:29:52.82	49.35	29.27	-46.3	-47.8	19.3	0.00e+00	0	43	0	359661568	63	4471
2026-01-25 23:29:53.83	49.58	29.40	-46.0	-47.4	19.6	0.00e+00	0	44	0	360710144	63	4289
2026-01-25 23:29:54.83	49.81	29.54	-46.2	-47.7	19.3	0.00e+00	0	43	0	362807296	63	4404
2026-01-25 23:29:55.84	50.04	29.68	-45.9	-47.3	19.7	0.00e+00	0	43	0	364904448	63	4213
2026-01-25 23:29:56.84	50.28	29.81	-46.0	-47.4	19.6	0.00e+00	0	43	0	367001600	63	4253
2026-01-25 23:29:57.85	50.52	29.95	-45.7	-47.1	19.9	0.00e+00	0	44	0	369098752	63	4115
2026-01-25 23:29:58.86	50.76	30.09	-46.1	-47.6	19.4	0.00e+00	0	43	0	370147328	63	4384
2026-01-25 23:29:59.87	51.00	30.23	-46.4	-47.9	19.2	0.00e+00	0	43	0	372244480	63	4518
2026-01-25 23:30:00.88	51.24	30.36	-46.4	-48.0	19.2	0.00e+00	0	44	0	374341632	63	4553
2026-01-25 23:30:01.88	51.49	30.50	-46.6	-48.2	18.9	0.00e+00	0	44	0	376438784	63	4675
2026-01-25 23:30:02.89	51.74	30.64	-46.4	-47.9	19.2	0.00e+00	0	43	0	378535936	63	4504
2026-01-25 23:30:03.89	51.99	30.77	-46.3	-47.7	19.3	0.00e+00	0	43	0	379584512	63	4439
2026-01-25 23:30:04.90	52.24	30.91	-46.0	-47.5	19.5	0.00e+00	0	43	0	381681664	63	4306
2026-01-25 23:30:05.90	52.49	31.05	-46.2	-47.7	19.4	0.00e+00	0	43	0	383778816	63	4404
2026-01-25 23:30:06.91	52.75	31.19	-46.1	-47.6	19.5	0.00e+00	0	43	0	385875968	63	4358
2026-01-25 23:30:07.92	53.01	31.33	-46.0	-47.4	19.6	0.00e+00	0	43	0	387973120	63	4291
2026-01-25 23:30:08.92	53.27	31.46	-46.2	-47.7	19.5	0.00e+00	0	44	0	389021696	63	4396
2026-01-25 23:30:09.93	53.53	31.60	-46.4	-47.9	19.1	0.00e+00	0	44	0	391118848	63	4528
2026-01-25 23:30:10.93	53.80	31.74	-46.5	-48.1	18.9	0.00e+00	0	44	0	393216000	64	4357
2026-01-25 23:30:11.94	54.07	31.88	-46.7	-48.2	18.9	0.00e+00	0	44	0	395313152	64	4428
2026-01-25 23:30:12.95	54.34	32.02	-47.3	-49.0	18.2	0.00e+00	0	43	0	397410304	65	4589
2026-01-25 23:30:13.96	54.61	32.16	-47.9	-49.9	17.3	0.00e+00	0	44	0	398458880	66	4761
2026-01-25 23:30:14.97	54.88	32.29	-49.0	-51.5	15.7	0.00e+00	0	43	0	400556032	68	5144
2026-01-25 23:30:15.97	55.16	32.43	-49.4	-52.1	15.2	0.00e+00	0	43	0	402653184	69	5163
2026-01-25 23:30:16.98	55.44	32.57	-49.6	-52.5	14.8	7.00e-07	0	43	0	404750336	70	5136
2026-01-25 23:30:17.99	55.72	32.71	-49.6	-52.3	14.9	0.00e+00	0	44	0	406847488	70	5023
2026-01-25 23:30:18.99	56.00	32.84	-49.1	-51.6	15.7	0.00e+00	0	43	0	407896064	69	4896
2026-01-25 23:30:20.00	56.29	32.98	-48.4	-50.6	16.7	0.00e+00	0	43	0	409993216	68	4600
2026-01-25 23:30:21.01	56.58	33.12	-47.8	-49.6	17.5	0.00e+00	0	44	0	412090368	67	4369
2026-01-25 23:30:22.01	56.87	33.26	-47.7	-49.6	17.5	0.00e+00	0	44	0	414187520	67	4363
2026-01-25 23:30:23.01	57.16	33.39	-48.2	-50.3	16.6	0.00e+00	0	44	0	416284672	67	4718
2026-01-25 23:30:24.03	57.46	33.53	-48.6	-50.8	16.5	0.00e+00	0	44	0	417333248	68	4709
2026-01-25 23:30:25.03	57.76	33.67	-48.6	-50.8	16.5	0.00e+00	0	44	0	419430400	68	4709
2026-01-25 23:30:26.04	58.06	33.80	-48.8	-51.0	16.2	0.00e+00	0	44	0	421527552	68	4870
2026-01-25 23:30:27.05	58.36	33.94	-48.4	-50.5	16.8	0.00e+00	0	44	0	423624704	68	4572
2026-01-25 23:30:28.06	58.67	34.07	-48.1	-50.1	17.1	0.00e+00	0	44	0	425721856	68	4383
2026-01-25 23:30:29.07	58.98	34.21	-48.2	-50.2	17.0	0.00e+00	0	43	0	427819008	68	4405
2026-01-25 23:30:30.08	59.29	34.35	-48.5	-50.7	16.4	0.00e+00	0	44	0	428867584	68	4679
2026-01-25 23:30:31.08	59.60	34.48	-48.7	-50.9	16.4	0.00e+00	0	43	0	430964736	68	4799
2026-01-25 23:30:32.09	59.92	34.61	-48.6	-50.9	16.5	0.00e+00	0	44	0	433061888	68	4771
2026-01-25 23:30:33.10	60.24	34.75	-48.3	-50.4	16.9	0.00e+00	0	44	0	435159040	68	4536
2026-01-25 23:30:34.11	60.56	34.88	-48.7	-51.0	16.3	0.00e+00	0	43	0	436207616	68	4852
2026-01-25 23:30:35.12	60.88	35.02	-48.9	-51.2	16.1	0.00e+00	0	43	0	438304768	68	4936
2026-01-25 23:30:36.13	61.21	35.15	-49.0	-51.3	16.0	0.00e+00	0	44	0	440401920	68	5002
2026-01-25 23:30:37.13	61.54	35.28	-49.1	-51.4	15.8	0.00e+00	0	44	0	442499072	69	4811
2026-01-25 23:30:38.14	61.87	35.41	-48.8	-51.0	16.3	0.00e+00	0	43	0	444596224	69	4594
2026-01-25 23:30:39.15	62.21	35.54	-48.5	-50.6	16.6	0.00e+00	0	44	0	445644800	68	4603
2026-01-25 23:30:40.15	62.54	35.67	-48.2	-50.2	17.0	0.00e+00	0	44	0	447741952	68	4430
2026-01-25 23:30:41.16	62.88	35.81	-48.3	-50.3	16.9	0.00e+00	0	44	0	449839104	68	4470
2026-01-25 23:30:42.17	63.22	35.94	-48.3	-50.3	16.9	0.00e+00	0	44	0	451936256	68	4481
2026-01-25 23:30:43.17	63.57	36.06	-48.4	-50.5	17.0	0.00e+00	0	43	0	454033408	68	4569
2026-01-25 23:30:44.18	63.91	36.19	-48.6	-50.8	16.5	0.00e+00	0	44	0	456130560	68	4706
2026-01-25 23:30:45.19	64.27	36.32	-48.8	-51.1	16.2	0.00e+00	0	43	0	457179136	68	4922
2026-01-25 23:30:46.19	64.62	36.45	-48.7	-51.0	16.4	0.00e+00	0	44	0	459276288	68	4830
2026-01-25 23:30:47.21	64.98	36.57	-48.8	-51.1	16.1	0.00e+00	0	44	0	461373440	68	4887
2026-01-25 23:30:48.21	65.33	36.70	-48.4	-50.5	16.9	0.00e+00	0	44	0	463470592	68	4546
2026-01-25 23:30:49.21	65.69	36.82	-47.7	-49.5	17.6	0.00e+00	0	44	0	464519168	67	4310
2026-01-25 23:30:50.22	66.06	36.95	-47.6	-49.4	17.8	0.00e+00	0	44	0	466616320	66	4517
2026-01-25 23:30:51.22	66.42	37.07	-47.2	-48.8	18.4	0.00e+00	0	44	0	468713472	66	4241
2026-01-25 23:30:52.22	66.79	37.19	-47.7	-49.5	17.7	0.00e+00	0	44	0	470810624	66	4555
2026-01-25 23:30:53.23	67.16	37.31	-48.2	-50.2	16.9	0.00e+00	0	44	0	472907776	67	4686
2026-01-25 23:30:54.23	67.53	37.43	-48.2	-50.2	17.0	0.00e+00	0	44	0	473956352	67	4700
2026-01-25 23:30:55.24	67.91	37.55	-48.2	-50.2	16.8	0.00e+00	0	44	0	476053504	67	4705
2026-01-25 23:30:56.24	68.29	37.67	-48.1	-50.1	17.2	0.00e+00	0	44	0	478150656	67	4608
2026-01-25 23:30:57.25	68.67	37.79	-47.5	-49.3	17.9	0.00e+00	0	44	0	480247808	67	4217
2026-01-25 23:30:58.26	69.06	37.91	-47.0	-48.7	18.4	0.00e+00	0	43	0	482344960	66	4152
2026-01-25 23:30:59.26	69.45	38.02	-46.4	-47.9	19.2	0.00e+00	0	43	0	483393536	64	4272
2026-01-25 23:31:00.26	69.83	38.14	-46.8	-48.4	18.8	0.00e+00	0	44	0	485490688	64	4494
2026-01-25 23:31:01.27	70.23	38.25	-47.1	-48.7	18.4	0.00e+00	0	44	0	487587840	65	4441
2026-01-25 23:31:02.28	70.63	38.36	-47.7	-49.5	17.7	0.00e+00	0	44	0	489684992	65	4840
2026-01-25 23:31:03.29	71.03	38.48	-48.0	-49.9	17.3	0.00e+00	0	44	0	491782144	66	4786
2026-01-25 23:31:04.29	71.43	38.59	-47.8	-49.7	17.5	0.00e+00	0	44	0	492830720	66	4685
2026-01-25 23:31:05.30	71.83	38.70	-47.2	-48.9	18.3	0.00e+00	0	44	0	494927872	66	4286
2026-01-25 23:31:06.31	72.24	38.80	-47.3	-49.0	18.2	0.00e+00	0	44	0	497025024	66	4299
2026-01-25 23:31:07.32	72.65	38.91	-46.7	-48.2	18.9	0.00e+00	0	44	0	499122176	65	4189
2026-01-25 23:31:08.32	73.06	39.01	-46.5	-48.0	19.0	0.00e+00	0	44	0	501219328	64	4325
2026-01-25 23:31:09.33	73.48	39.12	-46.5	-48.0	19.2	0.00e+00	0	43	0	502267904	64	4312
2026-01-25 23:31:10.34	73.90	39.22	-47.1	-48.7	18.4	0.00e+00	0	43	0	504365056	64	4694
2026-01-25 23:31:11.35	74.32	39.32	-47.5	-49.4	17.8	0.00e+00	0	44	0	506462208	65	4772
2026-01-25 23:31:12.35	74.74	39.42	-47.7	-49.5	17.8	0.00e+00	0	44	0	508559360	66	4578
2026-01-25 23:31:13.36	75.17	39.52	-47.2	-48.8	18.4	0.00e+00	0	43	0	510656512	66	4235
2026-01-25 23:31:14.37	75.60	39.62	-46.8	-48.4	18.9	0.00e+00	0	44	0	512753664	65	4249
2026-01-25 23:31:15.38	76.03	39.71	-47.1	-48.8	18.3	0.00e+00	0	44	0	513802240	65	4476
2026-01-25 23:31:16.38	76.46	39.81	-47.1	-48.8	18.4	0.00e+00	0	44	0	515899392	65	4450
2026-01-25 23:31:17.39	76.90	39.90	-46.5	-48.1	19.1	0.00e+00	0	44	0	517996544	64	4344
2026-01-25 23:31:18.40	77.34	39.99	-46.4	-47.8	19.2	0.00e+00	0	44	0	520093696	64	4233
2026-01-25 23:31:19.40	77.77	40.08	-46.9	-48.5	18.7	0.00e+00	0	44	0	521142272	64	4555
2026-01-25 23:31:20.40	78.21	40.17	-48.0	-49.9	17.3	0.00e+00	0	44	0	523239424	66	4809
2026-01-25 23:31:21.41	78.66	40.25	-48.7	-50.9	16.5	0.00e+00	0	44	0	525336576	68	4780
2026-01-25 23:31:22.41	79.11	40.34	-48.5	-50.6	16.7	0.00e+00	0	44	0	527433728	68	4644
2026-01-25 23:31:23.42	79.56	40.42	-48.1	-50.1	17.2	0.00e+00	0	44	0	529530880	68	4363
2026-01-25 23:31:24.42	80.01	40.50	-47.7	-49.5	17.7	0.00e+00	0	44	0	530579456	67	4323
2026-01-25 23:31:25.43	80.46	40.58	-47.7	-49.5	17.7	0.00e+00	0	44	0	532676608	67	4334
2026-01-25 23:31:26.43	80.92	40.65	-47.4	-49.1	18.2	0.00e+00	0	44	0	534773760	66	4350
2026-01-25 23:31:27.43	81.37	40.73	-46.8	-48.3	18.8	0.00e+00	0	44	0	536870912	65	4214
2026-01-25 23:31:28.43	81.83	40.80	-46.8	-48.4	18.8	0.00e+00	0	44	0	538968064	65	4269
2026-01-25 23:31:29.44	82.29	40.87	-47.8	-49.6	17.6	0.00e+00	0	44	0	540016640	66	4636
2026-01-25 23:31:30.45	82.76	40.94	-49.0	-51.4	16.1	0.00e+00	0	44	0	542113792	68	5042
2026-01-25 23:31:31.46	83.23	41.01	-49.4	-52.0	15.4	0.00e+00	0	44	0	544210944	70	4822
2026-01-25 23:31:32.46	83.69	41.08	-48.9	-51.2	16.1	0.00e+00	0	43	0	546308096	69	4697
2026-01-25 23:31:33.47	84.16	41.14	-48.3	-50.3	17.0	0.00e+00	0	44	0	548405248	68	4468
2026-01-25 23:31:34.48	84.64	41.20	-48.8	-51.1	16.3	0.00e+00	0	44	0	549453824	68	4895
2026-01-25 23:31:35.49	85.11	41.26	-49.3	-51.8	15.5	0.00e+00	0	44	0	551550976	69	5028
2026-01-25 23:31:36.49	85.59	41.32	-49.3	-51.8	15.6	0.00e+00	0	44	0	553648128	69	5022
2026-01-25 23:31:37.50	86.07	41.37	-49.0	-51.4	16.0	0.00e+00	0	44	0	555745280	69	4772
2026-01-25 23:31:38.51	86.55	41.43	-49.2	-51.7	15.7	0.00e+00	0	44	0	557842432	69	4946
2026-01-25 23:31:39.51	87.02	41.48	-49.6	-52.3	15.2	0.00e+00	0	44	0	558891008	69	5287
2026-01-25 23:31:40.52	87.51	41.53	-50.1	-53.1	14.5	7.00e-07	0	44	0	560988160	70	5515
2026-01-25 23:31:41.53	87.99	41.58	-50.5	-54.0	13.5	7.00e-07	0	44	0	563085312	71	5744
2026-01-25 23:31:42.54	88.48	41.62	-50.5	-53.9	13.5	6.80e-06	0	44	0	565182464	71	5702
2026-01-25 23:31:43.55	88.97	41.66	-50.3	-53.5	13.8	1.50e-06	0	44	0	567279616	71	5416
2026-01-25 23:31:44.55	89.45	41.70	-49.4	-51.9	15.5	0.00e+00	0	44	0	568328192	70	4811
2026-01-25 23:31:45.56	89.94	41.74	-49.3	-51.8	15.6	0.00e+00	0	44	0	570425344	70	4726
2026-01-25 23:31:46.57	90.43	41.78	-49.4	-52.0	15.5	0.00e+00	0	44	0	572522496	70	4846
2026-01-25 23:31:47.58	90.92	41.81	-49.4	-51.9	15.6	0.00e+00	0	44	0	574619648	70	4810
2026-01-25 23:31:48.59	91.42	41.84	-49.7	-52.4	15.0	0.00e+00	0	44	0	576716800	70	5075
2026-01-25 23:31:49.59	91.91	41.87	-50.4	-53.8	13.7	7.00e-07	0	44	0	577765376	71	5600
2026-01-25 23:31:50.60	92.40	41.90	-50.7	-54.3	13.1	9.90e-06	0	44	0	579862528	71	5939
2026-01-25 23:31:51.61	92.90	41.92	-50.8	-54.6	12.6	2.51e-05	0	44	0	581959680	72	5853
2026-01-25 23:31:52.62	93.39	41.94	-50.1	-53.3	14.0	1.29e-05	0	44	0	584056832	72	5021
2026-01-25 23:31:53.62	93.89	41.96	-49.2	-51.6	16.0	0.00e+00	0	44	0	586153984	70	4615
2026-01-25 23:31:54.63	94.38	41.98	-48.5	-50.6	16.7	0.00e+00	0	44	0	587202560	69	4368
2026-01-25 23:31:55.64	94.88	42.00	-48.7	-50.9	16.5	0.00e+00	0	43	0	589299712	68	4805
2026-01-25 23:31:56.65	95.38	42.01	-49.2	-51.6	15.8	0.00e+00	0	44	0	591396864	69	4911
2026-01-25 23:31:57.65	95.88	42.02	-49.7	-52.5	15.0	0.00e+00	0	44	0	593494016	69	5437
2026-01-25 23:31:58.66	96.37	42.03	-49.1	-51.4	16.0	0.00e+00	0	44	0	595591168	69	4814
2026-01-25 23:31:59.67	96.87	42.03	-47.8	-49.7	17.4	0.00e+00	0	44	0	597688320	67	4399
2026-01-25 23:32:00.67	97.37	42.03	-47.6	-49.4	17.9	0.00e+00	0	44	0	598736896	66	4507
2026-01-25 23:32:01.68	97.87	42.04	-47.5	-49.3	17.9	0.00e+00	0	44	0	600834048	66	4478
2026-01-25 23:32:02.69	98.37	42.03	-48.3	-50.3	16.9	0.00e+00	0	44	0	602931200	67	4743
2026-01-25 23:32:03.69	98.86	42.03	-48.9	-51.1	16.2	0.00e+00	0	44	0	605028352	68	4924
2026-01-25 23:32:04.69	99.36	42.02	-48.5	-50.5	16.7	0.00e+00	0	43	0	606076928	68	4597
2026-01-25 23:32:05.69	99.85	42.01	-48.0	-49.9	17.3	0.00e+00	0	44	0	608174080	67	4507
2026-01-25 23:32:06.70	100.35	42.00	-48.2	-50.2	17.0	0.00e+00	0	44	0	610271232	67	4704
2026-01-25 23:32:07.71	100.85	41.99	-48.6	-50.9	16.5	0.00e+00	0	44	0	612368384	67	5051
2026-01-25 23:32:08.72	101.35	41.97	-48.7	-50.9	16.3	0.00e+00	0	44	0	614465536	69	4541
2026-01-25 23:32:09.72	101.84	41.96	-47.6	-49.3	17.9	0.00e+00	0	44	0	615514112	67	4233
2026-01-25 23:32:10.72	102.33	41.94	-46.5	-48.0	19.2	0.00e+00	0	44	0	617611264	65	4057
2026-01-25 23:32:11.73	102.83	41.91	-46.6	-48.1	19.0	0.00e+00	0	44	0	619708416	64	4375
2026-01-25 23:32:12.74	103.33	41.89	-48.4	-50.6	16.7	0.00e+00	0	44	0	621805568	67	4888
2026-01-25 23:32:13.74	103.82	41.86	-50.3	-53.8	13.8	0.00e+00	0	44	0	623902720	71	5598
2026-01-25 23:32:14.75	104.31	41.83	-50.1	-53.2	14.1	3.00e-06	0	44	0	624951296	71	5276
2026-01-25 23:32:15.75	104.80	41.80	-48.4	-50.5	16.7	0.00e+00	0	44	0	627048448	68	4555
2026-01-25 23:32:16.76	105.29	41.76	-47.5	-49.2	18.0	0.00e+00	0	44	0	629145600	66	4439
2026-01-25 23:32:17.77	105.78	41.73	-48.1	-50.1	17.2	0.00e+00	0	44	0	631242752	66	4904
2026-01-25 23:32:18.78	106.27	41.69	-48.7	-50.9	16.5	0.00e+00	0	44	0	633339904	68	4800
2026-01-25 23:32:19.79	106.76	41.65	-47.9	-49.7	17.5	0.00e+00	0	44	0	634388480	67	4433
2026-01-25 23:32:20.80	107.25	41.60	-47.3	-49.0	18.2	0.00e+00	0	44	0	636485632	66	4331
2026-01-25 23:32:21.80	107.73	41.56	-47.3	-49.1	18.2	0.00e+00	0	44	0	638582784	65	4608
2026-01-25 23:32:22.81	108.21	41.51	-47.8	-49.6	17.6	0.00e+00	0	44	0	640679936	66	4632
2026-01-25 23:32:23.81	108.69	41.46	-48.3	-50.3	17.0	0.00e+00	0	44	0	642777088	67	4730
2026-01-25 23:32:24.82	109.18	41.41	-47.9	-49.8	17.5	0.00e+00	0	44	0	643825664	67	4460
2026-01-25 23:32:25.82	109.65	41.36	-47.4	-49.1	18.1	0.00e+00	0	44	0	645922816	66	4387
2026-01-25 23:32:26.83	110.13	41.30	-47.6	-49.4	17.9	0.00e+00	0	44	0	648019968	66	4535
2026-01-25 23:32:27.83	110.60	41.24	-48.1	-50.1	17.2	0.00e+00	0	44	0	650117120	66	4881
2026-01-25 23:32:28.84	111.08	41.18	-49.3	-51.9	15.7	0.00e+00	0	44	0	652214272	69	5075
2026-01-25 23:32:29.85	111.55	41.12	-50.0	-53.0	14.5	0.00e+00	0	44	0	653262848	70	5416
2026-01-25 23:32:30.86	112.02	41.05	-49.1	-51.6	15.8	0.00e+00	0	44	0	655360000	70	4617
2026-01-25 23:32:31.87	112.49	40.99	-48.2	-50.2	17.1	0.00e+00	0	44	0	657457152	68	4403
2026-01-25 23:32:32.87	112.96	40.92	-48.1	-50.2	17.2	0.00e+00	0	44	0	659554304	67	4653
2026-01-25 23:32:33.88	113.42	40.85	-47.2	-48.9	18.2	0.00e+00	0	44	0	661651456	66	4267
2026-01-25 23:32:34.89	113.89	40.78	-46.9	-48.5	18.6	0.00e+00	0	44	0	662700032	65	4334
2026-01-25 23:32:35.90	114.35	40.70	-46.1	-47.6	19.5	0.00e+00	0	44	0	664797184	64	4105
2026-01-25 23:32:36.90	114.80	40.63	-46.0	-47.4	19.8	0.00e+00	0	44	0	666894336	63	4267
2026-01-25 23:32:37.91	115.26	40.55	-46.3	-47.8	19.4	0.00e+00	0	44	0	668991488	63	4460
2026-01-25 23:32:38.92	115.72	40.47	-46.8	-48.4	18.8	0.00e+00	0	44	0	671088640	64	4541
2026-01-25 23:32:39.93	116.17	40.39	-46.6	-48.1	19.0	0.00e+00	0	44	0	672137216	64	4373
2026-01-25 23:32:40.93	116.62	40.30	-47.2	-48.9	18.3	0.00e+00	0	43	0	674234368	64	4791
2026-01-25 23:32:41.94	117.07	40.22	-47.1	-48.9	18.2	0.00e+00	0	44	0	676331520	65	4511
2026-01-25 23:32:42.95	117.51	40.13	-46.8	-48.4	18.8	0.00e+00	0	44	0	678428672	65	4275
2026-01-25 23:32:43.96	117.96	40.04	-45.6	-46.9	20.2	0.00e+00	0	44	0	680525824	63	4044
2026-01-25 23:32:44.96	118.39	39.95	-45.0	-46.2	20.8	0.00e+00	0	44	0	681574400	61	4173
2026-01-25 23:32:45.97	118.83	39.86	-45.4	-46.7	20.4	0.00e+00	0	44	0	683671552	61	4441
2026-01-25 23:32:46.98	119.27	39.77	-45.5	-46.9	20.2	0.00e+00	0	44	0	685768704	61	4503
2026-01-25 23:32:47.98	119.70	39.67	-44.7	-45.9	21.1	0.00e+00	0	44	0	687865856	61	4034
2026-01-25 23:32:48.99	120.13	39.58	-44.1	-45.1	22.0	0.00e+00	0	44	0	689963008	59	4134
2026-01-25 23:32:49.99	120.56	39.48	-43.2	-44.2	22.8	0.00e+00	0	44	0	691011584	58	3923
2026-01-25 23:32:51.00	120.98	39.38	-42.5	-43.4	23.3	0.00e+00	0	44	0	693108736	57	3822
2026-01-25 23:32:52.01	121.41	39.28	-43.0	-43.9	23.0	0.00e+00	0	44	0	695205888	57	4033
2026-01-25 23:32:53.01	121.83	39.18	-43.5	-44.5	22.5	0.00e+00	0	44	0	697303040	57	4299
2026-01-25 23:32:54.02	122.25	39.08	-43.6	-44.6	22.4	0.00e+00	0	43	0	699400192	57	4380
2026-01-25 23:32:55.03	122.66	38.97	-43.6	-44.6	22.5	0.00e+00	0	44	0	700448768	58	4142
2026-01-25 23:32:56.03	123.07	38.87	-43.3	-44.3	22.7	0.00e+00	0	44	0	702545920	58	3995
2026-01-25 23:32:57.04	123.48	38.76	-43.8	-44.8	22.3	0.00e+00	0	44	0	704643072	58	4232
2026-01-25 23:32:58.05	123.89	38.65	-44.0	-45.0	22.0	0.00e+00	0	44	0	706740224	58	4335
2026-01-25 23:32:59.06	124.30	38.54	-44.0	-45.1	22.0	0.00e+00	0	44	0	708837376	58	4385
2026-01-25 23:33:00.06	124.70	38.43	-43.2	-44.2	22.7	0.00e+00	0	43	0	710934528	58	3943
2026-01-25 23:33:01.07	125.10	38.32	-42.5	-43.4	23.5	0.00e+00	0	44	0	711983104	56	4019
2026-01-25 23:33:02.08	125.49	38.20	-42.2	-43.1	23.7	0.00e+00	0	44	0	714080256	56	3889
2026-01-25 23:33:03.09	125.89	38.09	-42.2	-43.1	23.7	0.00e+00	0	44	0	716177408	56	3881
2026-01-25 23:33:04.09	126.28	37.97	-42.1	-43.0	23.7	0.00e+00	0	43	0	718274560	56	3862
2026-01-25 23:33:05.10	126.67	37.85	-42.2	-43.1	23.6	0.00e+00	0	44	0	719323136	56	3909
2026-01-25 23:33:06.11	127.05	37.74	-42.0	-42.9	23.8	0.00e+00	0	44	0	721420288	56	3812
2026-01-25 23:33:07.11	127.43	37.62	-42.2	-43.1	23.6	0.00e+00	0	44	0	723517440	55	4100
2026-01-25 23:33:08.12	127.81	37.50	-42.9	-43.9	23.0	0.00e+00	0	44	0	725614592	56	4266
2026-01-25 23:33:09.12	128.19	37.38	-43.5	-44.5	22.5	0.00e+00	0	43	0	727711744	57	4316
2026-01-25 23:33:10.13	128.56	37.26	-43.5	-44.5	22.5	0.00e+00	0	44	0	728760320	57	4336
2026-01-25 23:33:11.14	128.94	37.13	-43.1	-44.1	22.8	0.00e+00	0	44	0	730857472	57	4143
2026-01-25 23:33:12.15	129.31	37.01	-43.1	-44.1	22.8	0.00e+00	0	44	0	732954624	57	4136
2026-01-25 23:33:13.16	129.67	36.89	-43.0	-44.0	22.9	0.00e+00	0	44	0	735051776	57	4061
2026-01-25 23:33:14.17	130.04	36.76	-43.4	-44.5	22.6	0.00e+00	0	44	0	737148928	57	4299
2026-01-25 23:33:15.17	130.40	36.64	-43.2	-44.2	22.7	0.00e+00	0	44	0	739246080	57	4158
2026-01-25 23:33:16.17	130.75	36.51	-43.3	-44.3	22.7	0.00e+00	0	43	0	740294656	57	4199
2026-01-25 23:33:17.18	131.11	36.38	-43.4	-44.4	22.6	0.00e+00	0	43	0	742391808	57	4263
2026-01-25 23:33:18.19	131.46	36.26	-43.7	-44.7	22.3	0.00e+00	0	44	0	744488960	57	4412
2026-01-25 23:33:19.20	131.81	36.13	-44.2	-45.3	21.7	0.00e+00	0	44	0	746586112	59	4235
2026-01-25 23:33:20.20	132.16	36.00	-44.7	-45.9	21.4	0.00e+00	0	44	0	747634688	59	4508
2026-01-25 23:33:21.21	132.50	35.87	-44.4	-45.6	21.3	0.00e+00	0	43	0	749731840	60	4142
2026-01-25 23:33:22.22	132.85	35.74	-44.6	-45.8	21.1	0.00e+00	0	44	0	751828992	60	4239
2026-01-25 23:33:23.23	133.19	35.61	-44.8	-46.0	21.0	0.00e+00	0	43	0	753926144	60	4305
2026-01-25 23:33:24.23	133.52	35.48	-44.2	-45.4	21.5	0.00e+00	0	43	0	756023296	60	4009
2026-01-25 23:33:25.25	133.86	35.34	-44.3	-45.4	21.5	0.00e+00	0	44	0	757071872	60	4042
2026-01-25 23:33:26.26	134.19	35.21	-44.5	-45.6	21.3	0.00e+00	0	44	0	759169024	60	4125
2026-01-25 23:33:27.26	134.52	35.08	-44.6	-45.8	21.1	0.00e+00	0	44	0	761266176	60	4195
2026-01-25 23:33:28.27	134.84	34.94	-44.3	-45.4	21.7	0.00e+00	0	44	0	763363328	59	4250
2026-01-25 23:33:29.27	135.16	34.81	-43.6	-44.6	22.4	0.00e+00	0	43	0	765460480	59	3882
2026-01-25 23:33:30.28	135.49	34.67	-43.7	-44.7	22.3	0.00e+00	0	44	0	767557632	58	4170
2026-01-25 23:33:31.29	135.81	34.54	-44.4	-45.5	21.3	0.00e+00	0	44	0	768606208	60	4085
2026-01-25 23:33:32.29	136.12	34.41	-45.7	-47.1	20.0	0.00e+00	0	44	0	770703360	61	4604
2026-01-25 23:33:33.30	136.43	34.27	-46.7	-48.3	18.8	0.00e+00	0	43	0	772800512	64	4461
2026-01-25 23:33:34.31	136.74	34.13	-46.0	-47.5	19.5	0.00e+00	0	44	0	774897664	64	4053
2026-01-25 23:33:35.32	137.05	34.00	-45.2	-46.4	20.5	0.00e+00	0	44	0	775946240	62	4038
2026-01-25 23:33:36.33	137.36	33.86	-45.0	-46.2	20.7	0.00e+00	0	44	0	778043392	61	4171
2026-01-25 23:33:37.34	137.66	33.72	-45.4	-46.7	20.3	0.00e+00	0	43	0	780140544	61	4434
2026-01-25 23:33:38.34	137.96	33.59	-47.3	-49.1	18.1	0.00e+00	0	44	0	782237696	65	4607
2026-01-25 23:33:39.35	138.26	33.45	-48.8	-51.3	16.0	0.00e+00	0	44	0	784334848	68	5040
2026-01-25 23:33:40.36	138.56	33.31	-49.1	-51.8	15.4	0.00e+00	0	44	0	785383424	69	5005
2026-01-25 23:33:41.37	138.85	33.17	-48.6	-50.9	16.3	0.00e+00	0	44	0	787480576	69	4507
2026-01-25 23:33:42.37	139.14	33.04	-46.9	-48.6	18.4	0.00e+00	0	44	0	789577728	65	4341
2026-01-25 23:33:43.38	139.43	32.90	-46.2	-47.6	19.4	0.00e+00	0	44	0	791674880	64	4124
2026-01-25 23:33:44.39	139.71	32.76	-46.1	-47.5	19.5	0.00e+00	0	44	0	793772032	63	4305
2026-01-25 23:33:45.39	139.99	32.62	-46.7	-48.3	18.7	0.00e+00	0	44	0	795869184	64	4456
2026-01-25 23:33:46.40	140.28	32.48	-48.6	-50.9	16.3	0.00e+00	0	44	0	796917760	67	5066
2026-01-25 23:33:47.41	140.56	32.35	-49.8	-52.9	14.3	0.00e+00	0	44	0	799014912	70	5388
2026-01-25 23:33:48.41	140.83	32.21	-48.9	-51.4	15.7	0.00e+00	0	44	0	801112064	69	4793
2026-01-25 23:33:49.42	141.11	32.07	-46.9	-48.5	18.3	0.00e+00	0	44	0	803209216	65	4324
2026-01-25 23:33:50.42	141.38	31.93	-45.6	-46.9	20.0	0.00e+00	0	44	0	804257792	63	4012
2026-01-25 23:33:51.43	141.65	31.79	-44.8	-46.0	20.8	0.00e+00	0	44	0	806354944	61	4058
2026-01-25 23:33:52.44	141.91	31.65	-45.3	-46.5	20.4	0.00e+00	0	44	0	808452096	61	4333
2026-01-25 23:33:53.45	142.18	31.51	-46.5	-48.0	19.0	0.00e+00	0	44	0	810549248	63	4588
2026-01-25 23:33:54.46	142.44	31.37	-48.3	-50.6	16.5	0.00e+00	0	44	0	812646400	67	4898
2026-01-25 23:33:55.46	142.70	31.24	-48.8	-51.3	16.0	0.00e+00	0	44	0	814743552	68	4987
2026-01-25 23:33:56.47	142.96	31.10	-47.3	-49.2	17.8	0.00e+00	0	44	0	815792128	66	4393
2026-01-25 23:33:57.48	143.22	30.96	-46.1	-47.6	19.2	0.00e+00	0	44	0	817889280	64	4125
2026-01-25 23:33:58.49	143.47	30.82	-45.2	-46.4	20.4	0.00e+00	0	44	0	819986432	62	4037
2026-01-25 23:33:59.50	143.73	30.68	-44.8	-46.0	20.8	0.00e+00	0	44	0	822083584	61	4076
2026-01-25 23:34:00.51	143.98	30.54	-45.1	-46.3	20.5	0.00e+00	0	44	0	824180736	61	4241
2026-01-25 23:34:01.51	144.22	30.40	-45.9	-47.3	19.6	0.00e+00	0	43	0	825229312	62	4479
2026-01-25 23:34:02.51	144.47	30.27	-47.1	-48.8	18.3	0.00e+00	0	44	0	827326464	64	4740
2026-01-25 23:34:03.52	144.71	30.13	-47.5	-49.4	17.6	0.00e+00	0	44	0	829423616	65	4778
2026-01-25 23:34:04.53	144.95	29.99	-47.0	-48.8	18.1	0.00e+00	0	44	0	831520768	65	4470
2026-01-25 23:34:05.53	145.19	29.85	-46.1	-47.6	19.2	0.00e+00	0	44	0	832569344	64	4143
2026-01-25 23:34:06.53	145.43	29.72	-44.9	-46.1	20.6	0.00e+00	0	44	0	834666496	61	4118
2026-01-25 23:34:07.54	145.66	29.58	-44.5	-45.6	21.5	0.00e+00	0	44	0	836763648	59	4356
2026-01-25 23:34:08.55	145.90	29.44	-44.7	-45.9	20.9	0.00e+00	0	44	0	838860800	60	4274
2026-01-25 23:34:09.56	146.13	29.30	-45.5	-46.8	20.1	0.00e+00	0	44	0	840957952	61	4486
2026-01-25 23:34:10.57	146.36	29.17	-46.6	-48.3	18.7	0.00e+00	0	44	0	843055104	64	4464
2026-01-25 23:34:11.57	146.59	29.03	-47.6	-49.5	17.5	0.00e+00	0	44	0	844103680	65	4860
2026-01-25 23:34:12.58	146.81	28.89	-47.5	-49.5	17.5	0.00e+00	0	44	0	846200832	66	4556
2026-01-25 23:34:13.59	147.04	28.76	-46.5	-48.1	18.7	0.00e+00	0	44	0	848297984	65	4136
2026-01-25 23:34:14.59	147.26	28.62	-45.1	-46.4	20.4	0.00e+00	0	43	0	850395136	62	4027
2026-01-25 23:34:15.60	147.48	28.48	-44.4	-45.5	21.5	0.00e+00	0	44	0	852492288	59	4334
2026-01-25 23:34:16.61	147.70	28.35	-43.9	-44.9	22.0	0.00e+00	0	44	0	853540864	59	4036
2026-01-25 23:34:17.61	147.92	28.21	-44.2	-45.3	21.7	0.00e+00	0	44	0	855638016	59	4198
2026-01-25 23:34:18.62	148.13	28.08	-44.7	-45.9	21.1	0.00e+00	0	44	0	857735168	59	4502
2026-01-25 23:34:19.63	148.35	27.94	-45.2	-46.5	20.3	0.00e+00	0	44	0	859832320	60	4562
2026-01-25 23:34:20.64	148.56	27.81	-45.9	-47.3	19.5	0.00e+00	0	44	0	860880896	62	4471
2026-01-25 23:34:21.65	148.77	27.67	-46.2	-47.7	19.2	0.00e+00	0	44	0	862978048	63	4434
2026-01-25 23:34:22.65	148.98	27.54	-46.1	-47.7	19.2	0.00e+00	0	44	0	865075200	63	4411
2026-01-25 23:34:23.65	149.18	27.40	-45.7	-47.1	19.7	0.00e+00	0	44	0	867172352	63	4135
2026-01-25 23:34:24.66	149.39	27.27	-45.2	-46.6	20.2	0.00e+00	0	44	0	869269504	62	4114
2026-01-25 23:34:25.67	149.59	27.13	-44.8	-46.1	20.7	0.00e+00	0	44	0	871366656	61	4116
2026-01-25 23:34:26.67	149.79	27.00	-44.7	-46.0	20.7	0.00e+00	0	44	0	872415232	61	4060
2026-01-25 23:34:27.68	149.99	26.87	-44.7	-45.9	20.8	0.00e+00	0	44	0	874512384	60	4250
2026-01-25 23:34:28.69	150.19	26.74	-45.2	-46.5	20.3	0.00e+00	0	43	0	876609536	60	4563
2026-01-25 23:34:29.69	150.38	26.60	-45.4	-46.7	20.1	0.00e+00	0	44	0	878706688	61	4432
2026-01-25 23:34:30.70	150.58	26.47	-45.4	-46.8	20.0	0.00e+00	0	43	0	880803840	61	4467
2026-01-25 23:34:31.71	150.77	26.34	-45.7	-47.1	19.7	0.00e+00	0	44	0	881852416	61	4631
2026-01-25 23:34:32.72	150.97	26.21	-45.4	-46.7	20.0	0.00e+00	0	44	0	883949568	62	4187
2026-01-25 23:34:33.73	151.16	26.08	-45.2	-46.6	20.2	0.00e+00	0	44	0	886046720	62	4099
2026-01-25 23:34:34.73	151.35	25.95	-45.0	-46.3	20.4	0.00e+00	0	44	0	888143872	62	3992
2026-01-25 23:34:35.74	151.53	25.81	-44.4	-45.6	21.0	0.00e+00	0	44	0	889192448	60	4128
2026-01-25 23:34:36.75	151.72	25.68	-44.5	-45.7	21.0	0.00e+00	0	44	0	891289600	60	4159
2026-01-25 23:34:37.75	151.90	25.55	-44.3	-45.5	21.1	0.00e+00	0	43	0	893386752	60	4071
2026-01-25 23:34:38.76	152.09	25.42	-44.3	-45.4	21.2	0.00e+00	0	44	0	895483904	60	4033
2026-01-25 23:34:39.77	152.27	25.30	-44.4	-45.5	21.4	0.00e+00	0	44	0	897581056	59	4316
2026-01-25 23:34:40.77	152.45	25.17	-44.7	-45.9	21.2	0.00e+00	0	43	0	899678208	59	4521
2026-01-25 23:34:41.78	152.63	25.04	-44.6	-45.7	21.2	0.00e+00	0	43	0	900726784	59	4438
2026-01-25 23:34:42.79	152.80	24.91	-44.5	-45.7	20.9	0.00e+00	0	44	0	902823936	60	4188
2026-01-25 23:34:43.79	152.98	24.78	-44.8	-46.0	20.7	0.00e+00	0	44	0	904921088	60	4317
2026-01-25 23:34:44.80	153.15	24.65	-44.8	-46.0	20.6	0.00e+00	0	44	0	907018240	60	4336
2026-01-25 23:34:45.81	153.33	24.53	-44.8	-46.1	20.6	0.00e+00	0	44	0	909115392	60	4358
2026-01-25 23:34:46.82	153.50	24.40	-45.0	-46.3	20.3	0.00e+00	0	43	0	910163968	60	4490
2026-01-25 23:34:47.83	153.67	24.27	-44.8	-46.1	20.6	0.00e+00	0	43	0	912261120	60	4346
2026-01-25 23:34:48.83	153.84	24.15	-45.2	-46.5	20.2	0.00e+00	0	44	0	914358272	60	4582
2026-01-25 23:34:49.84	154.01	24.02	-44.7	-46.0	20.7	0.00e+00	0	44	0	916455424	61	4058
2026-01-25 23:34:50.84	154.17	23.90	-44.8	-46.1	20.6	0.00e+00	0	44	0	917504000	61	4099
2026-01-25 23:34:51.85	154.34	23.77	-44.4	-45.6	21.0	0.00e+00	0	43	0	919601152	60	4124
2026-01-25 23:34:52.86	154.50	23.65	-44.2	-45.4	21.2	0.00e+00	0	43	0	921698304	60	4005
2026-01-25 23:34:53.87	154.66	23.52	-44.5	-45.6	21.0	0.00e+00	0	44	0	923795456	60	4143
2026-01-25 23:34:54.88	154.83	23.40	-44.3	-45.5	21.1	0.00e+00	0	44	0	925892608	60	4073
2026-01-25 23:34:55.88	154.99	23.27	-44.5	-45.7	20.9	0.00e+00	0	43	0	927989760	60	4179
2026-01-25 23:34:56.89	155.14	23.15	-45.0	-46.2	20.4	0.00e+00	0	44	0	929038336	60	4440
2026-01-25 23:34:57.90	155.30	23.03	-45.3	-46.6	20.0	0.00e+00	0	44	0	931135488	61	4391
2026-01-25 23:34:58.91	155.46	22.90	-45.8	-47.3	19.5	0.00e+00	0	44	0	933232640	62	4448
2026-01-25 23:34:59.91	155.61	22.78	-46.0	-47.4	19.3	0.00e+00	0	44	0	935329792	62	4544
2026-01-25 23:35:00.92	155.77	22.66	-46.1	-47.6	19.2	0.00e+00	0	44	0	937426944	62	4639
2026-01-25 23:35:01.93	155.92	22.54	-46.2	-47.8	19.0	0.00e+00	0	44	0	938475520	63	4454
2026-01-25 23:35:02.93	156.07	22.42	-45.7	-47.2	19.6	0.00e+00	0	44	0	940572672	63	4153
2026-01-25 23:35:03.94	156.22	22.30	-45.5	-46.9	19.8	0.00e+00	0	44	0	942669824	63	4025
2026-01-25 23:35:04.95	156.37	22.18	-45.4	-46.7	20.0	0.00e+00	0	44	0	944766976	62	4188
2026-01-25 23:35:05.95	156.52	22.06	-45.3	-46.6	20.1	0.00e+00	0	44	0	945815552	62	4139
2026-01-25 23:35:06.96	156.67	21.94	-45.3	-46.6	20.1	0.00e+00	0	44	0	947912704	62	4128
2026-01-25 23:35:07.97	156.82	21.82	-45.3	-46.6	20.1	0.00e+00	0	44	0	950009856	62	4105
2026-01-25 23:35:08.98	156.96	21.70	-45.5	-46.8	19.9	0.00e+00	0	44	0	952107008	62	4228
2026-01-25 23:35:09.98	157.11	21.58	-45.6	-47.0	19.7	0.00e+00	0	44	0	954204160	62	4315
2026-01-25 23:35:10.99	157.25	21.46	-45.9	-47.4	19.3	0.00e+00	0	44	0	956301312	62	4531
2026-01-25 23:35:12.00	157.39	21.35	-45.9	-47.4	19.4	0.00e+00	0	44	0	957349888	63	4255
2026-01-25 23:35:13.00	157.53	21.23	-46.2	-47.7	19.1	0.00e+00	0	43	0	959447040	63	4421
2026-01-25 23:35:14.01	157.67	21.11	-46.3	-47.9	18.9	0.00e+00	0	44	0	961544192	63	4511
2026-01-25 23:35:15.02	157.81	20.99	-46.1	-47.6	19.2	0.00e+00	0	44	0	963641344	63	4343
2026-01-25 23:35:16.03	157.95	20.88	-45.9	-47.3	19.4	0.00e+00	0	44	0	965738496	63	4238
2026-01-25 23:35:17.03	158.08	20.76	-45.6	-47.0	19.7	0.00e+00	0	44	0	966787072	63	4076
2026-01-25 23:35:18.04	158.22	20.65	-45.3	-46.6	20.1	0.00e+00	0	44	0	968884224	62	4111
2026-01-25 23:35:19.05	158.36	20.53	-44.9	-46.1	20.5	0.00e+00	0	44	0	970981376	61	4132
2026-01-25 23:35:20.06	158.49	20.42	-44.4	-45.5	21.0	0.00e+00	0	44	0	973078528	60	4098
2026-01-25 23:35:21.06	158.62	20.30	-44.3	-45.4	21.1	0.00e+00	0	44	0	975175680	60	4040
2026-01-25 23:35:22.07	158.76	20.19	-44.4	-45.5	21.0	0.00e+00	0	44	0	976224256	60	4089
2026-01-25 23:35:23.08	158.89	20.08	-44.2	-45.3	21.2	0.00e+00	0	44	0	978321408	60	3975
2026-01-25 23:35:24.08	159.02	19.96	-44.4	-45.6	20.9	0.00e+00	0	44	0	980418560	60	4127
2026-01-25 23:35:25.09	159.15	19.85	-44.6	-45.8	20.7	0.00e+00	0	44	0	982515712	60	4215
2026-01-25 23:35:26.10	159.27	19.74	-44.7	-46.0	20.6	0.00e+00	0	44	0	984612864	60	4303
2026-01-25 23:35:27.11	159.40	19.62	-45.0	-46.3	20.3	0.00e+00	0	44	0	985661440	60	4468
2026-01-25 23:35:28.11	159.53	19.51	-45.0	-46.3	20.3	0.00e+00	0	44	0	987758592	61	4231
2026-01-25 23:35:29.12	159.65	19.40	-45.5	-46.9	19.8	0.00e+00	0	44	0	989855744	61	4501
2026-01-25 23:35:30.13	159.78	19.29	-45.7	-47.2	19.5	0.00e+00	0	44	0	991952896	62	4397
2026-01-25 23:35:31.13	159.90	19.18	-45.4	-46.9	19.8	0.00e+00	0	44	0	994050048	62	4243
2026-01-25 23:35:32.14	160.03	19.07	-45.6	-47.1	19.6	0.00e+00	0	44	0	995098624	62	4347
2026-01-25 23:35:33.15	160.15	18.96	-45.3	-46.6	20.0	0.00e+00	0	44	0	997195776	62	4128
2026-01-25 23:35:34.16	160.27	18.85	-45.1	-46.5	20.2	0.00e+00	0	44	0	999292928	62	4060
2026-01-25 23:35:35.16	160.39	18.74	-45.2	-46.5	20.1	0.00e+00	0	44	0	1001390080	62	4081
2026-01-25 23:35:36.16	160.51	18.63	-44.8	-46.1	20.4	0.00e+00	0	44	0	1003487232	61	4122
2026-01-25 23:35:37.17	160.63	18.52	-44.8	-46.1	20.5	0.00e+00	0	43	0	1004535808	61	4119
2026-01-25 23:35:38.18	160.75	18.42	-44.7	-46.0	20.6	0.00e+00	0	43	0	1006632960	61	4061
2026-01-25 23:35:39.19	160.86	18.31	-44.2	-45.3	21.1	0.00e+00	0	44	0	1008730112	60	4000
2026-01-25 23:35:40.20	160.98	18.20	-44.5	-45.7	20.8	0.00e+00	0	44	0	1010827264	60	4152
2026-01-25 23:35:41.20	161.10	18.09	-44.5	-45.7	20.8	0.00e+00	0	44	0	1012924416	60	4159
2026-01-25 23:35:42.21	161.21	17.99	-44.5	-45.7	20.7	0.00e+00	0	44	0	1013972992	60	4175
2026-01-25 23:35:43.21	161.32	17.88	-44.8	-46.0	20.5	0.00e+00	0	44	0	1016070144	60	4326
2026-01-25 23:35:44.22	161.44	17.78	-44.5	-45.8	20.7	0.00e+00	0	44	0	1018167296	60	4195
2026-01-25 23:35:45.23	161.55	17.67	-45.1	-46.4	20.2	0.00e+00	0	44	0	1020264448	60	4509
2026-01-25 23:35:46.23	161.66	17.57	-45.2	-46.5	20.1	0.00e+00	0	44	0	1022361600	60	4576
2026-01-25 23:35:47.24	161.77	17.46	-45.0	-46.3	20.2	0.00e+00	0	44	0	1023410176	60	4482
2026-01-25 23:35:48.25	161.88	17.36	-45.2	-46.6	19.9	0.00e+00	0	44	0	1025507328	61	4371
2026-01-25 23:35:49.25	161.99	17.25	-45.3	-46.7	19.9	0.00e+00	0	44	0	1027604480	61	4412
2026-01-25 23:35:50.25	162.10	17.15	-45.4	-46.8	19.8	0.00e+00	0	43	0	1029701632	61	4459
2026-01-25 23:35:51.26	162.21	17.04	-45.7	-47.2	19.5	0.00e+00	0	43	0	1030750208	61	4654
2026-01-25 23:35:52.27	162.32	16.94	-45.4	-46.8	19.7	0.00e+00	0	44	0	1032847360	61	4471
2026-01-25 23:35:53.27	162.42	16.84	-45.8	-47.2	19.4	0.00e+00	0	44	0	1034944512	62	4441
2026-01-25 23:35:54.28	162.53	16.74	-45.9	-47.3	19.3	0.00e+00	0	44	0	1037041664	62	4489
2026-01-25 23:35:55.29	162.64	16.63	-46.1	-47.6	19.0	0.00e+00	0	43	0	1039138816	62	4646
2026-01-25 23:35:56.29	162.74	16.53	-46.4	-48.0	18.7	0.00e+00	0	44	0	1041235968	63	4556
2026-01-25 23:35:57.30	162.84	16.43	-46.5	-48.1	18.5	0.00e+00	0	43	0	1042284544	63	4644
2026-01-25 23:35:58.30	162.95	16.33	-46.7	-48.5	18.1	0.00e+00	0	44	0	1044381696	64	4556
2026-01-25 23:35:59.31	163.05	16.23	-47.1	-48.9	17.6	0.00e+00	0	44	0	1046478848	64	4800
2026-01-25 23:36:00.32	163.15	16.13	-47.0	-48.8	17.8	0.00e+00	0	44	0	1048576000	64	4717
2026-01-25 23:36:01.33	163.25	16.03	-47.4	-49.4	17.3	0.00e+00	0	44	0	1050673152	65	4772
2026-01-25 23:36:02.34	163.36	15.93	-47.4	-49.3	17.3	0.00e+00	0	44	0	1051721728	65	4747
2026-01-25 23:36:03.35	163.46	15.83	-47.4	-49.3	17.3	0.00e+00	0	44	0	1053818880	65	4759
2026-01-25 23:36:04.35	163.55	15.73	-47.7	-49.8	16.8	0.00e+00	0	44	0	1055916032	65	5010
2026-01-25 23:36:05.36	163.65	15.63	-47.4	-49.4	17.2	0.00e+00	0	44	0	1058013184	65	4777
2026-01-25 23:36:06.37	163.75	15.53	-47.4	-49.4	17.2	0.00e+00	0	44	0	1060110336	65	4770
2026-01-25 23:36:07.37	163.85	15.43	-47.3	-49.2	17.3	0.00e+00	0	43	0	1061158912	65	4697
2026-01-25 23:36:08.39	163.95	15.34	-47.1	-48.9	17.6	0.00e+00	0	44	0	1063256064	65	4544
2026-01-25 23:36:09.39	164.04	15.24	-46.9	-48.8	17.8	0.00e+00	0	44	0	1065353216	65	4444
2026-01-25 23:36:10.40	164.14	15.14	-46.8	-48.6	17.9	0.00e+00	0	44	0	1067450368	65	4358
2026-01-25 23:36:11.41	164.24	15.04	-46.6	-48.3	18.2	0.00e+00	0	44	0	1069547520	65	4223
2026-01-25 23:36:12.41	164.33	14.95	-46.4	-48.0	18.5	0.00e+00	0	44	0	1070596096	64	4324
2026-01-25 23:36:13.42	164.42	14.85	-46.0	-47.6	18.9	0.00e+00	0	44	0	1072693248	64	4117
2026-01-25 23:36:14.43	164.52	14.76	-46.1	-47.6	18.9	0.00e+00	0	44	0	1074790400	63	4374
2026-01-25 23:36:15.43	164.61	14.66	-45.8	-47.2	19.3	0.00e+00	0	44	0	1076887552	63	4181
2026-01-25 23:36:16.44	164.70	14.56	-45.7	-47.1	19.4	0.00e+00	0	44	0	1078984704	63	4139
2026-01-25 23:36:17.45	164.79	14.47	-45.3	-46.7	19.8	0.00e+00	0	44	0	1080033280	62	4161
2026-01-25 23:36:18.46	164.89	14.37	-45.0	-46.4	20.1	0.00e+00	0	44	0	1082130432	62	4011
2026-01-25 23:36:19.47	164.98	14.28	-45.0	-46.3	20.0	0.00e+00	0	44	0	1084227584	61	4214
2026-01-25 23:36:20.47	165.07	14.19	-44.9	-46.2	20.1	0.00e+00	0	44	0	1086324736	61	4146
2026-01-25 23:36:21.48	165.16	14.09	-44.7	-45.9	20.4	0.00e+00	0	44	0	1088421888	61	4032
2026-01-25 23:36:22.49	165.25	14.00	-44.9	-46.2	20.2	0.00e+00	0	44	0	1089470464	61	4149
2026-01-25 23:36:23.49	165.33	13.91	-44.9	-46.2	20.2	0.00e+00	0	44	0	1091567616	61	4162
2026-01-25 23:36:24.50	165.42	13.81	-44.8	-46.1	20.2	0.00e+00	0	44	0	1093664768	61	4131
2026-01-25 23:36:25.51	165.51	13.72	-44.8	-46.1	20.3	0.00e+00	0	44	0	1095761920	61	4131
2026-01-25 23:36:26.52	165.60	13.63	-44.8	-46.1	20.3	0.00e+00	0	44	0	1097859072	61	4129
2026-01-25 23:36:27.52	165.68	13.54	-44.9	-46.3	20.1	0.00e+00	0	44	0	1098907648	61	4205
2026-01-25 23:36:28.53	165.77	13.44	-45.0	-46.3	20.1	0.00e+00	0	43	0	1101004800	61	4216
2026-01-25 23:36:29.53	165.85	13.35	-44.8	-46.1	20.3	0.00e+00	0	44	0	1103101952	61	4127
2026-01-25 23:36:30.54	165.94	13.26	-45.1	-46.4	19.9	0.00e+00	0	44	0	1105199104	61	4284
2026-01-25 23:36:31.55	166.02	13.17	-45.2	-46.6	19.8	0.00e+00	0	43	0	1107296256	61	4350
2026-01-25 23:36:32.55	166.11	13.08	-45.2	-46.6	19.8	0.00e+00	0	44	0	1108344832	61	4350
2026-01-25 23:36:33.55	166.19	12.99	-45.4	-46.8	19.6	0.00e+00	0	44	0	1110441984	61	4466
2026-01-25 23:36:34.56	166.27	12.90	-45.5	-47.0	19.4	0.00e+00	0	44	0	1112539136	61	4581
2026-01-25 23:36:35.57	166.36	12.81	-45.8	-47.4	19.1	0.00e+00	0	44	0	1114636288	62	4499
2026-01-25 23:36:36.57	166.44	12.72	-45.9	-47.5	19.0	0.00e+00	0	44	0	1116733440	62	4565
2026-01-25 23:36:37.58	166.52	12.63	-45.8	-47.4	19.1	0.00e+00	0	44	0	1117782016	62	4505
