passes_logs/2026/01/25/R3.2S_Murmansk/R3.2S_Murmansk__20260125_082151_NOAA_20_JPSS-1_rec.log

#Pass ID: 20260125_082151_NOAA 20 (JPSS-1)
#Satellite: NOAA 20 (JPSS-1)
#Configuration: NOAA 20
#almurnet v.1.7.20251203
#Start time: 2026-01-25 08:21:52

#Version: 2.2.20231116
#Station: R3.2S_Murmansk
#Location: 33.079688 lon 68.888172 lat
#TLE: 1 43013U 17073A   26024.91598314  .00000178  00000+0  10511-3 0  9999
#TLE: 2 43013  98.7646 325.7511 0001081  25.0859 335.0369 14.19539982424141

#Time	Az	El	Level	Level2	SNR	BER	BlckErr	Temp	State	Recorded	gain1	gain2
2026-01-25 08:21:52.73	124.45	2.05	-51.9	-66.8	3.8	1.49e+00	0	42	0	0	75	20016
2026-01-25 08:21:53.70	124.43	2.11	-51.9	-66.9	3.8	1.49e+00	0	43	104	0	74	21266
2026-01-25 08:21:54.68	124.40	2.18	-51.9	-66.8	3.8	1.49e+00	0	43	104	0	74	21186
2026-01-25 08:21:55.66	124.38	2.24	-51.9	-66.8	3.8	1.49e+00	0	43	104	0	74	21198
2026-01-25 08:21:56.64	124.35	2.30	-51.9	-66.8	3.8	1.49e+00	0	43	104	0	74	21190
2026-01-25 08:21:57.61	124.33	2.36	-51.9	-66.8	3.8	1.49e+00	0	43	104	0	74	21137
2026-01-25 08:21:58.59	124.30	2.43	-51.9	-66.8	3.8	1.49e+00	0	43	104	0	74	21167
2026-01-25 08:21:59.57	124.27	2.49	-51.9	-66.8	3.8	1.49e+00	0	43	104	0	74	21128
2026-01-25 08:22:00.54	124.25	2.55	-51.9	-66.8	3.8	1.49e+00	0	43	104	0	74	21153
2026-01-25 08:22:01.51	124.22	2.61	-51.9	-66.8	3.8	1.49e+00	0	43	104	0	74	21115
2026-01-25 08:22:02.49	124.20	2.68	-51.9	-66.8	3.8	1.49e+00	0	43	104	0	74	21189
2026-01-25 08:22:03.47	124.17	2.74	-51.9	-66.8	3.8	1.49e+00	0	43	104	0	74	21226
2026-01-25 08:22:04.45	124.14	2.80	-51.9	-66.8	3.8	1.49e+00	0	43	104	0	74	21178
2026-01-25 08:22:05.43	124.12	2.87	-51.9	-66.8	3.8	1.49e+00	0	43	104	0	74	21045
2026-01-25 08:22:06.41	124.09	2.93	-51.9	-66.7	3.8	1.49e+00	0	43	104	0	74	20946
2026-01-25 08:22:07.39	124.06	2.99	-51.9	-66.7	3.8	1.49e+00	0	43	104	0	74	20811
2026-01-25 08:22:08.37	124.03	3.06	-51.9	-66.6	3.8	1.49e+00	0	43	104	0	74	20713
2026-01-25 08:22:09.36	124.01	3.12	-51.9	-66.6	3.8	1.49e+00	0	43	104	0	74	20692
2026-01-25 08:22:10.33	123.98	3.19	-51.9	-66.7	3.8	1.49e+00	0	43	104	0	74	20922
2026-01-25 08:22:11.31	123.95	3.25	-51.9	-66.8	3.8	1.49e+00	0	43	104	0	74	21046
2026-01-25 08:22:12.28	123.92	3.31	-51.9	-66.8	3.8	1.49e+00	0	43	104	0	74	21052
2026-01-25 08:22:13.26	123.90	3.38	-51.9	-66.7	3.8	1.49e+00	0	43	104	0	74	20942
2026-01-25 08:22:14.24	123.87	3.44	-51.8	-66.5	3.8	1.49e+00	0	43	104	0	74	20489
2026-01-25 08:22:15.21	123.84	3.51	-51.8	-66.3	3.8	1.49e+00	0	43	104	0	74	19982
2026-01-25 08:22:16.19	123.81	3.57	-51.8	-66.1	3.8	1.49e+00	0	43	104	0	74	19428
2026-01-25 08:22:17.17	123.78	3.64	-51.8	-66.2	3.8	1.49e+00	0	43	104	0	74	19630
2026-01-25 08:22:18.15	123.75	3.70	-51.8	-66.2	3.8	1.49e+00	0	43	104	0	74	19673
2026-01-25 08:22:19.13	123.73	3.77	-51.8	-66.3	3.8	1.49e+00	0	43	104	0	74	20035
2026-01-25 08:22:20.10	123.70	3.83	-51.9	-66.7	3.8	1.49e+00	0	43	104	0	74	20801
2026-01-25 08:22:21.08	123.67	3.90	-51.9	-66.7	3.8	1.49e+00	0	43	104	0	74	20909
2026-01-25 08:22:22.06	123.64	3.97	-51.8	-65.7	3.8	1.49e+00	0	43	104	0	74	18560
2026-01-25 08:22:23.04	123.61	4.03	-51.7	-63.7	3.9	1.48e+00	0	43	104	0	74	14773
2026-01-25 08:22:24.02	123.58	4.10	-51.5	-61.5	4.8	1.02e+00	0	44	0	0	74	11459
2026-01-25 08:22:24.99	123.55	4.17	-51.2	-59.0	6.6	3.55e-01	0	43	0	2097152	74	8575
2026-01-25 08:22:25.98	123.52	4.23	-50.7	-56.9	8.5	9.40e-02	0	43	0	4194304	73	7175
2026-01-25 08:22:26.95	123.49	4.30	-50.1	-55.1	10.5	1.63e-02	0	44	0	6291456	72	6182
2026-01-25 08:22:27.93	123.46	4.37	-49.7	-53.8	11.9	1.15e-03	0	44	0	8388608	71	5639
2026-01-25 08:22:28.91	123.43	4.43	-49.1	-52.6	13.1	7.24e-05	0	44	0	9437184	70	5188
2026-01-25 08:22:29.89	123.40	4.50	-48.6	-51.7	14.1	3.80e-06	0	44	0	11534336	69	4956
2026-01-25 08:22:30.87	123.37	4.57	-48.1	-50.9	14.9	1.50e-06	0	44	0	13631488	68	4766
2026-01-25 08:22:31.85	123.34	4.63	-47.2	-49.5	16.3	0.00e+00	0	44	0	14680064	66	4548
2026-01-25 08:22:32.83	123.31	4.70	-47.0	-49.3	16.5	0.00e+00	0	44	0	16777216	65	4711
2026-01-25 08:22:33.81	123.28	4.77	-46.7	-48.7	17.0	0.00e+00	0	44	0	18874368	65	4437
2026-01-25 08:22:34.79	123.25	4.84	-46.7	-48.8	16.9	0.00e+00	0	44	0	20971520	65	4478
2026-01-25 08:22:35.76	123.21	4.91	-47.0	-49.1	16.6	0.00e+00	0	44	0	22020096	65	4651
2026-01-25 08:22:36.75	123.18	4.98	-47.0	-49.2	16.6	0.00e+00	0	44	0	24117248	65	4654
2026-01-25 08:22:37.73	123.15	5.04	-47.3	-49.7	16.1	0.00e+00	0	44	0	26214400	65	4936
2026-01-25 08:22:38.71	123.12	5.11	-50.0	-54.8	11.1	0.00e+00	0	44	0	28311552	70	6683
2026-01-25 08:22:39.69	123.09	5.18	-46.8	-48.7	17.2	3.34e-04	0	44	0	29360128	65	4437
2026-01-25 08:22:40.67	123.05	5.25	-48.9	-52.3	14.0	0.00e+00	0	44	0	31457280	68	5609
2026-01-25 08:22:41.65	123.02	5.32	-47.0	-49.0	17.1	3.78e-02	0	44	0	33554432	65	4577
2026-01-25 08:22:42.63	122.99	5.39	-48.4	-51.3	15.1	0.00e+00	0	44	0	35651584	67	5285
2026-01-25 08:22:43.60	122.96	5.46	-48.0	-50.6	15.1	1.69e-02	0	44	0	36700160	68	4617
2026-01-25 08:22:44.58	122.92	5.53	-46.7	-48.7	17.3	0.00e+00	0	44	0	38797312	65	4398
2026-01-25 08:22:45.56	122.89	5.60	-46.8	-48.8	17.2	0.00e+00	0	44	0	40894464	65	4470
2026-01-25 08:22:46.54	122.86	5.67	-46.7	-48.7	17.3	0.00e+00	0	44	0	42991616	65	4409
2026-01-25 08:22:47.53	122.82	5.74	-46.7	-48.6	17.4	0.00e+00	0	44	0	45088768	65	4388
2026-01-25 08:22:48.50	122.79	5.81	-47.0	-49.1	16.9	0.00e+00	0	44	0	46137344	65	4634
2026-01-25 08:22:49.48	122.76	5.88	-46.7	-48.6	17.4	0.00e+00	0	44	0	48234496	65	4374
2026-01-25 08:22:50.46	122.72	5.95	-46.5	-48.4	17.7	0.00e+00	0	44	0	50331648	65	4249
2026-01-25 08:22:51.44	122.69	6.02	-46.6	-48.5	17.6	0.00e+00	0	44	0	52428800	65	4330
2026-01-25 08:22:52.41	122.66	6.09	-46.4	-48.2	17.9	0.00e+00	0	44	0	53477376	64	4429
2026-01-25 08:22:53.39	122.62	6.16	-46.4	-48.2	17.9	0.00e+00	0	44	0	55574528	64	4431
2026-01-25 08:22:54.37	122.59	6.23	-46.4	-48.1	18.0	0.00e+00	0	44	0	57671680	64	4391
2026-01-25 08:22:55.35	122.55	6.31	-46.4	-48.2	18.0	0.00e+00	0	44	0	59768832	64	4399
2026-01-25 08:22:56.33	122.52	6.38	-46.3	-48.1	18.1	0.00e+00	0	44	0	60817408	64	4362
2026-01-25 08:22:57.31	122.48	6.45	-46.3	-48.1	18.1	0.00e+00	0	44	0	62914560	64	4352
2026-01-25 08:22:58.29	122.45	6.52	-46.1	-47.8	18.4	0.00e+00	0	44	0	65011712	64	4223
2026-01-25 08:22:59.27	122.41	6.60	-46.3	-48.0	18.1	0.00e+00	0	44	0	66060288	64	4340
2026-01-25 08:23:00.25	122.37	6.67	-46.2	-47.9	18.3	0.00e+00	0	44	0	68157440	64	4277
2026-01-25 08:23:01.23	122.34	6.74	-46.3	-48.0	18.2	0.00e+00	0	44	0	70254592	64	4314
2026-01-25 08:23:02.20	122.30	6.81	-46.3	-48.0	18.2	0.00e+00	0	44	0	72351744	64	4320
2026-01-25 08:23:03.19	122.27	6.89	-46.3	-48.0	18.2	0.00e+00	0	44	0	73400320	64	4312
2026-01-25 08:23:04.17	122.23	6.96	-46.4	-48.1	18.1	0.00e+00	0	44	0	75497472	64	4373
2026-01-25 08:23:05.15	122.19	7.03	-46.4	-48.1	18.1	0.00e+00	0	44	0	77594624	64	4385
2026-01-25 08:23:06.13	122.16	7.11	-46.2	-47.9	18.4	0.00e+00	0	44	0	79691776	64	4251
2026-01-25 08:23:07.11	122.12	7.18	-46.3	-48.1	18.2	0.00e+00	0	44	0	80740352	64	4364
2026-01-25 08:23:08.08	122.08	7.26	-46.2	-47.9	18.4	0.00e+00	0	44	0	82837504	64	4262
2026-01-25 08:23:09.06	122.04	7.33	-46.3	-48.0	18.2	0.00e+00	0	44	0	84934656	64	4317
2026-01-25 08:23:10.04	122.01	7.41	-46.3	-48.0	18.3	0.00e+00	0	44	0	87031808	64	4307
2026-01-25 08:23:11.02	121.97	7.48	-46.3	-48.0	18.3	0.00e+00	0	44	0	88080384	64	4310
2026-01-25 08:23:12.00	121.93	7.56	-46.2	-47.9	18.4	0.00e+00	0	44	0	90177536	64	4261
2026-01-25 08:23:12.98	121.89	7.63	-46.1	-47.8	18.5	0.00e+00	0	44	0	92274688	64	4207
2026-01-25 08:23:13.95	121.85	7.71	-46.1	-47.8	18.6	0.00e+00	0	44	0	94371840	64	4194
2026-01-25 08:23:14.94	121.81	7.78	-46.1	-47.8	18.5	0.00e+00	0	44	0	96468992	64	4227
2026-01-25 08:23:15.91	121.78	7.86	-46.1	-47.7	18.6	0.00e+00	0	44	0	97517568	64	4185
2026-01-25 08:23:16.89	121.74	7.93	-46.1	-47.7	18.6	0.00e+00	0	44	0	99614720	64	4162
2026-01-25 08:23:17.87	121.70	8.01	-46.2	-47.9	18.5	0.00e+00	0	44	0	101711872	64	4268
2026-01-25 08:23:18.85	121.66	8.09	-46.3	-48.0	18.4	0.00e+00	0	44	0	103809024	64	4309
2026-01-25 08:23:19.84	121.62	8.16	-46.3	-47.9	18.5	0.00e+00	0	44	0	104857600	64	4287
2026-01-25 08:23:20.82	121.58	8.24	-46.2	-47.8	18.6	0.00e+00	0	44	0	106954752	64	4233
2026-01-25 08:23:21.80	121.54	8.32	-46.0	-47.6	18.7	0.00e+00	0	44	0	109051904	64	4142
2026-01-25 08:23:22.78	121.50	8.40	-46.1	-47.7	18.7	0.00e+00	0	44	0	110100480	64	4183
2026-01-25 08:23:23.76	121.45	8.47	-46.1	-47.7	18.7	0.00e+00	0	44	0	112197632	64	4190
2026-01-25 08:23:24.74	121.41	8.55	-46.0	-47.6	18.8	0.00e+00	0	44	0	114294784	64	4134
2026-01-25 08:23:25.73	121.37	8.63	-46.0	-47.7	18.8	0.00e+00	0	44	0	116391936	64	4148
2026-01-25 08:23:26.71	121.33	8.71	-46.1	-47.7	18.8	0.00e+00	0	44	0	117440512	63	4408
2026-01-25 08:23:27.69	121.29	8.79	-46.1	-47.7	18.8	0.00e+00	0	44	0	119537664	63	4430
2026-01-25 08:23:28.67	121.25	8.87	-46.1	-47.6	18.9	0.00e+00	0	44	0	121634816	63	4381
2026-01-25 08:23:29.65	121.20	8.95	-46.1	-47.7	18.9	0.00e+00	0	44	0	123731968	63	4402
2026-01-25 08:23:30.63	121.16	9.02	-46.1	-47.7	18.8	0.00e+00	0	44	0	125829120	63	4418
2026-01-25 08:23:31.61	121.12	9.10	-46.1	-47.7	18.8	0.00e+00	0	44	0	126877696	63	4425
2026-01-25 08:23:32.59	121.07	9.18	-45.9	-47.5	19.1	0.00e+00	0	44	0	128974848	63	4298
2026-01-25 08:23:33.57	121.03	9.26	-46.1	-47.6	18.9	0.00e+00	0	44	0	131072000	63	4389
2026-01-25 08:23:34.55	120.99	9.34	-46.0	-47.6	19.0	0.00e+00	0	44	0	133169152	63	4355
2026-01-25 08:23:35.52	120.94	9.42	-46.0	-47.6	19.1	0.00e+00	0	44	0	134217728	63	4343
2026-01-25 08:23:36.50	120.90	9.51	-46.0	-47.5	19.1	0.00e+00	0	44	0	136314880	63	4333
2026-01-25 08:23:37.48	120.86	9.59	-45.9	-47.5	19.1	0.00e+00	0	44	0	138412032	63	4313
2026-01-25 08:23:38.46	120.81	9.67	-46.0	-47.5	19.1	0.00e+00	0	44	0	140509184	63	4336
2026-01-25 08:23:39.44	120.77	9.75	-45.9	-47.4	19.2	0.00e+00	0	44	0	141557760	63	4282
2026-01-25 08:23:40.42	120.72	9.83	-45.9	-47.5	19.2	0.00e+00	0	44	0	143654912	63	4297
2026-01-25 08:23:41.40	120.68	9.91	-46.0	-47.6	19.1	0.00e+00	0	44	0	145752064	63	4361
2026-01-25 08:23:42.38	120.63	9.99	-45.8	-47.3	19.3	0.00e+00	0	44	0	147849216	63	4233
2026-01-25 08:23:43.36	120.58	10.08	-46.0	-47.5	19.2	0.00e+00	0	44	0	148897792	63	4302
2026-01-25 08:23:44.35	120.54	10.16	-46.0	-47.5	19.2	0.00e+00	0	44	0	150994944	63	4312
2026-01-25 08:23:45.33	120.49	10.24	-46.0	-47.5	19.2	0.00e+00	0	44	0	153092096	63	4327
2026-01-25 08:23:46.31	120.44	10.33	-46.0	-47.5	19.2	0.00e+00	0	44	0	155189248	63	4312
2026-01-25 08:23:47.29	120.40	10.41	-46.1	-47.6	19.1	0.00e+00	0	44	0	156237824	63	4372
2026-01-25 08:23:48.27	120.35	10.49	-45.9	-47.4	19.3	0.00e+00	0	44	0	158334976	63	4260
2026-01-25 08:23:49.25	120.30	10.58	-45.9	-47.3	19.4	0.00e+00	0	44	0	160432128	63	4236
2026-01-25 08:23:50.23	120.25	10.66	-45.8	-47.3	19.4	0.00e+00	0	44	0	162529280	63	4199
2026-01-25 08:23:51.21	120.21	10.75	-45.7	-47.2	19.5	0.00e+00	0	44	0	163577856	63	4160
2026-01-25 08:23:52.19	120.16	10.83	-45.7	-47.1	19.6	0.00e+00	0	44	0	165675008	63	4129
2026-01-25 08:23:53.17	120.11	10.92	-45.8	-47.2	19.5	0.00e+00	0	44	0	167772160	63	4182
2026-01-25 08:23:54.15	120.06	11.00	-45.8	-47.2	19.5	0.00e+00	0	44	0	169869312	63	4171
2026-01-25 08:23:55.13	120.01	11.09	-45.8	-47.2	19.5	0.00e+00	0	44	0	170917888	63	4193
2026-01-25 08:23:56.11	119.96	11.17	-45.8	-47.3	19.5	0.00e+00	0	44	0	173015040	63	4214
2026-01-25 08:23:57.10	119.91	11.26	-45.9	-47.3	19.5	0.00e+00	0	45	0	175112192	63	4223
2026-01-25 08:23:58.08	119.86	11.35	-45.9	-47.3	19.5	0.00e+00	0	44	0	177209344	63	4233
2026-01-25 08:23:59.05	119.81	11.43	-45.8	-47.2	19.6	0.00e+00	0	44	0	178257920	63	4177
2026-01-25 08:24:00.03	119.76	11.52	-45.9	-47.3	19.5	0.00e+00	0	44	0	180355072	63	4224
2026-01-25 08:24:01.01	119.71	11.61	-45.9	-47.3	19.5	0.00e+00	0	44	0	182452224	63	4231
2026-01-25 08:24:01.99	119.65	11.70	-45.7	-47.2	19.7	0.00e+00	0	45	0	184549376	63	4154
2026-01-25 08:24:02.97	119.60	11.78	-45.6	-47.0	19.8	0.00e+00	0	44	0	185597952	63	4077
2026-01-25 08:24:03.96	119.55	11.87	-45.6	-47.0	19.9	0.00e+00	0	44	0	187695104	63	4064
2026-01-25 08:24:04.93	119.50	11.96	-45.6	-47.0	19.8	0.00e+00	0	44	0	189792256	63	4063
2026-01-25 08:24:05.91	119.44	12.05	-45.7	-47.1	19.7	0.00e+00	0	44	0	191889408	63	4136
2026-01-25 08:24:06.90	119.39	12.14	-45.5	-46.9	19.9	0.00e+00	0	44	0	192937984	63	4033
2026-01-25 08:24:07.87	119.34	12.23	-45.5	-46.8	20.0	0.00e+00	0	44	0	195035136	62	4236
2026-01-25 08:24:08.85	119.28	12.32	-45.5	-46.8	20.0	0.00e+00	0	44	0	197132288	62	4224
2026-01-25 08:24:09.83	119.23	12.41	-45.5	-46.9	20.0	0.00e+00	0	44	0	199229440	62	4250
2026-01-25 08:24:10.81	119.17	12.50	-45.6	-47.0	19.9	0.00e+00	0	44	0	200278016	62	4305
2026-01-25 08:24:11.78	119.12	12.59	-45.7	-47.1	19.7	0.00e+00	0	44	0	202375168	62	4382
2026-01-25 08:24:12.76	119.06	12.68	-45.5	-46.9	20.0	0.00e+00	0	44	0	204472320	62	4257
2026-01-25 08:24:13.74	119.01	12.77	-45.5	-46.8	20.0	0.00e+00	0	44	0	206569472	62	4226
2026-01-25 08:24:14.72	118.95	12.86	-45.6	-46.9	20.0	0.00e+00	0	44	0	207618048	62	4277
2026-01-25 08:24:15.69	118.89	12.95	-45.5	-46.8	20.1	0.00e+00	0	44	0	209715200	62	4231
2026-01-25 08:24:16.67	118.84	13.05	-45.4	-46.7	20.2	0.00e+00	0	44	0	211812352	62	4179
2026-01-25 08:24:17.65	118.78	13.14	-45.4	-46.7	20.2	0.00e+00	0	45	0	213909504	62	4184
2026-01-25 08:24:18.63	118.72	13.23	-45.4	-46.8	20.1	0.00e+00	0	44	0	214958080	62	4211
2026-01-25 08:24:19.61	118.66	13.33	-45.4	-46.7	20.2	0.00e+00	0	44	0	217055232	62	4182
2026-01-25 08:24:20.58	118.61	13.42	-45.3	-46.7	20.3	0.00e+00	0	44	0	219152384	62	4148
2026-01-25 08:24:21.56	118.55	13.51	-45.4	-46.7	20.2	0.00e+00	0	44	0	221249536	62	4185
2026-01-25 08:24:22.54	118.49	13.61	-45.3	-46.6	20.3	0.00e+00	0	44	0	222298112	62	4139
2026-01-25 08:24:23.52	118.43	13.70	-45.2	-46.6	20.3	0.00e+00	0	45	0	224395264	62	4104
2026-01-25 08:24:24.50	118.37	13.80	-45.3	-46.6	20.3	0.00e+00	0	45	0	226492416	62	4123
2026-01-25 08:24:25.48	118.31	13.89	-45.2	-46.5	20.4	0.00e+00	0	45	0	228589568	62	4058
2026-01-25 08:24:26.46	118.25	13.99	-45.2	-46.5	20.5	0.00e+00	0	44	0	229638144	62	4056
2026-01-25 08:24:27.44	118.19	14.08	-45.2	-46.5	20.5	0.00e+00	0	44	0	231735296	62	4060
2026-01-25 08:24:28.42	118.12	14.18	-45.2	-46.5	20.5	0.00e+00	0	44	0	233832448	62	4054
2026-01-25 08:24:29.40	118.06	14.27	-45.3	-46.6	20.4	0.00e+00	0	45	0	235929600	62	4114
2026-01-25 08:24:30.38	118.00	14.37	-45.2	-46.4	20.5	0.00e+00	0	44	0	236978176	62	4050
2026-01-25 08:24:31.37	117.94	14.47	-45.3	-46.6	20.4	0.00e+00	0	45	0	239075328	62	4111
2026-01-25 08:24:32.35	117.87	14.57	-45.2	-46.5	20.5	0.00e+00	0	44	0	241172480	62	4086
2026-01-25 08:24:33.32	117.81	14.66	-45.2	-46.4	20.6	0.00e+00	0	45	0	243269632	62	4040
2026-01-25 08:24:34.30	117.74	14.76	-45.1	-46.4	20.6	0.00e+00	0	45	0	244318208	62	4014
2026-01-25 08:24:35.28	117.68	14.86	-45.1	-46.3	20.6	0.00e+00	0	44	0	246415360	62	4004
2026-01-25 08:24:36.27	117.61	14.96	-45.1	-46.3	20.7	0.00e+00	0	45	0	248512512	62	3990
2026-01-25 08:24:37.25	117.55	15.06	-45.1	-46.4	20.6	0.00e+00	0	44	0	250609664	62	4011
2026-01-25 08:24:38.23	117.48	15.16	-45.0	-46.3	20.7	0.00e+00	0	44	0	252706816	62	3963
2026-01-25 08:24:39.21	117.42	15.26	-44.9	-46.2	20.8	0.00e+00	0	45	0	253755392	61	4160
2026-01-25 08:24:40.18	117.35	15.36	-45.0	-46.2	20.8	0.00e+00	0	44	0	255852544	61	4191
2026-01-25 08:24:41.16	117.28	15.46	-44.9	-46.1	20.8	0.00e+00	0	44	0	257949696	61	4141
2026-01-25 08:24:42.14	117.21	15.56	-45.0	-46.3	20.7	0.00e+00	0	45	0	258998272	61	4216
2026-01-25 08:24:43.12	117.14	15.66	-44.9	-46.2	20.8	0.00e+00	0	44	0	261095424	61	4149
2026-01-25 08:24:44.09	117.08	15.77	-45.0	-46.2	20.7	0.00e+00	0	44	0	263192576	61	4190
2026-01-25 08:24:45.07	117.01	15.87	-45.0	-46.2	20.8	0.00e+00	0	44	0	265289728	61	4187
2026-01-25 08:24:46.05	116.94	15.97	-44.9	-46.2	20.8	0.00e+00	0	44	0	266338304	61	4165
2026-01-25 08:24:47.03	116.87	16.07	-45.0	-46.2	20.8	0.00e+00	0	45	0	268435456	61	4183
2026-01-25 08:24:48.01	116.80	16.18	-45.1	-46.3	20.7	0.00e+00	0	44	0	270532608	61	4234
2026-01-25 08:24:48.99	116.72	16.28	-45.0	-46.2	20.8	0.00e+00	0	44	0	272629760	61	4192
2026-01-25 08:24:49.96	116.65	16.38	-45.0	-46.3	20.8	0.00e+00	0	45	0	273678336	61	4208
2026-01-25 08:24:50.94	116.58	16.49	-45.0	-46.2	20.8	0.00e+00	0	44	0	275775488	61	4172
2026-01-25 08:24:51.92	116.51	16.59	-45.0	-46.2	20.8	0.00e+00	0	44	0	277872640	61	4191
2026-01-25 08:24:52.90	116.43	16.70	-45.0	-46.2	20.8	0.00e+00	0	45	0	279969792	61	4183
2026-01-25 08:24:53.89	116.36	16.81	-45.0	-46.3	20.8	0.00e+00	0	45	0	281018368	61	4198
2026-01-25 08:24:54.87	116.28	16.91	-45.1	-46.3	20.8	0.00e+00	0	44	0	283115520	61	4215
2026-01-25 08:24:55.85	116.21	17.02	-45.1	-46.3	20.7	0.00e+00	0	44	0	285212672	61	4234
2026-01-25 08:24:56.83	116.13	17.13	-45.1	-46.4	20.7	0.00e+00	0	44	0	287309824	61	4244
2026-01-25 08:24:57.81	116.06	17.24	-45.1	-46.3	20.8	0.00e+00	0	44	0	288358400	61	4228
2026-01-25 08:24:58.78	115.98	17.34	-45.0	-46.3	20.8	0.00e+00	0	44	0	290455552	61	4204
2026-01-25 08:24:59.76	115.90	17.45	-45.1	-46.3	20.8	0.00e+00	0	45	0	292552704	61	4213
2026-01-25 08:25:00.74	115.82	17.56	-45.0	-46.2	20.8	0.00e+00	0	44	0	294649856	61	4190
2026-01-25 08:25:01.72	115.75	17.67	-45.1	-46.3	20.7	0.00e+00	0	45	0	295698432	61	4222
2026-01-25 08:25:02.70	115.67	17.78	-45.0	-46.2	20.8	0.00e+00	0	45	0	297795584	61	4193
2026-01-25 08:25:03.68	115.59	17.89	-45.0	-46.3	20.8	0.00e+00	0	44	0	299892736	61	4196
2026-01-25 08:25:04.66	115.51	18.00	-45.0	-46.3	20.8	0.00e+00	0	44	0	301989888	61	4198
2026-01-25 08:25:05.64	115.42	18.11	-45.1	-46.4	20.7	0.00e+00	0	44	0	304087040	61	4256
2026-01-25 08:25:06.62	115.34	18.22	-45.2	-46.5	20.6	0.00e+00	0	44	0	305135616	61	4301
2026-01-25 08:25:07.60	115.26	18.33	-45.3	-46.6	20.5	0.00e+00	0	44	0	307232768	61	4379
2026-01-25 08:25:08.58	115.18	18.45	-45.3	-46.6	20.5	0.00e+00	0	44	0	309329920	61	4353
2026-01-25 08:25:09.56	115.09	18.56	-45.4	-46.7	20.4	0.00e+00	0	44	0	310378496	61	4435
2026-01-25 08:25:10.54	115.01	18.67	-45.4	-46.7	20.4	0.00e+00	0	44	0	312475648	61	4403
2026-01-25 08:25:11.52	114.93	18.79	-45.4	-46.7	20.4	0.00e+00	0	44	0	314572800	61	4403
2026-01-25 08:25:12.50	114.84	18.90	-45.3	-46.6	20.5	0.00e+00	0	44	0	316669952	61	4361
2026-01-25 08:25:13.48	114.75	19.02	-45.4	-46.7	20.4	0.00e+00	0	44	0	317718528	61	4414
2026-01-25 08:25:14.46	114.67	19.13	-45.5	-46.8	20.3	0.00e+00	0	44	0	319815680	61	4456
2026-01-25 08:25:15.44	114.58	19.25	-45.5	-46.8	20.3	0.00e+00	0	44	0	321912832	61	4467
2026-01-25 08:25:16.42	114.49	19.36	-45.6	-46.9	20.3	0.00e+00	0	44	0	324009984	61	4512
2026-01-25 08:25:17.40	114.40	19.48	-45.6	-47.0	20.1	0.00e+00	0	44	0	325058560	61	4561
2026-01-25 08:25:18.38	114.31	19.60	-45.7	-47.0	20.1	0.00e+00	0	45	0	327155712	61	4574
2026-01-25 08:25:19.36	114.22	19.71	-45.6	-47.0	20.1	0.00e+00	0	45	0	329252864	61	4566
2026-01-25 08:25:20.34	114.13	19.83	-45.6	-47.0	20.2	0.00e+00	0	45	0	331350016	61	4569
2026-01-25 08:25:21.32	114.04	19.95	-45.7	-47.0	20.1	0.00e+00	0	44	0	332398592	62	4326
2026-01-25 08:25:22.30	113.95	20.07	-45.7	-47.0	20.2	0.00e+00	0	44	0	334495744	62	4329
2026-01-25 08:25:23.28	113.85	20.19	-45.6	-47.0	20.2	0.00e+00	0	45	0	336592896	62	4296
2026-01-25 08:25:24.26	113.76	20.31	-45.7	-47.1	20.1	0.00e+00	0	44	0	338690048	62	4364
2026-01-25 08:25:25.24	113.66	20.43	-45.8	-47.2	20.0	0.00e+00	0	44	0	340787200	62	4405
2026-01-25 08:25:26.22	113.57	20.55	-45.9	-47.3	19.9	0.00e+00	0	45	0	341835776	62	4483
2026-01-25 08:25:27.19	113.47	20.67	-46.0	-47.4	19.8	0.00e+00	0	44	0	343932928	62	4505
2026-01-25 08:25:28.17	113.38	20.79	-45.9	-47.3	19.9	0.00e+00	0	44	0	346030080	62	4490
2026-01-25 08:25:29.15	113.28	20.91	-46.0	-47.5	19.8	0.00e+00	0	44	0	348127232	62	4553
2026-01-25 08:25:30.13	113.18	21.04	-46.1	-47.6	19.6	0.00e+00	0	44	0	349175808	62	4621
2026-01-25 08:25:31.11	113.08	21.16	-46.0	-47.5	19.8	0.00e+00	0	44	0	351272960	62	4547
2026-01-25 08:25:32.08	112.98	21.28	-46.2	-47.6	19.6	0.00e+00	0	44	0	353370112	62	4645
2026-01-25 08:25:33.07	112.88	21.41	-46.1	-47.5	19.7	0.00e+00	0	45	0	355467264	63	4327
2026-01-25 08:25:34.04	112.78	21.53	-46.1	-47.6	19.7	0.00e+00	0	45	0	356515840	63	4354
2026-01-25 08:25:35.02	112.67	21.66	-46.2	-47.6	19.7	0.00e+00	0	45	0	358612992	63	4363
2026-01-25 08:25:36.00	112.57	21.78	-46.1	-47.5	19.7	0.00e+00	0	45	0	360710144	63	4335
2026-01-25 08:25:36.98	112.47	21.91	-46.2	-47.6	19.6	0.00e+00	0	44	0	361758720	63	4380
2026-01-25 08:25:37.96	112.36	22.04	-46.2	-47.7	19.6	0.00e+00	0	44	0	363855872	63	4402
2026-01-25 08:25:38.94	112.25	22.16	-46.2	-47.6	19.6	0.00e+00	0	45	0	365953024	63	4374
2026-01-25 08:25:39.92	112.15	22.29	-46.2	-47.7	19.6	0.00e+00	0	44	0	368050176	63	4412
2026-01-25 08:25:40.90	112.04	22.42	-46.2	-47.6	19.6	0.00e+00	0	44	0	369098752	63	4389
2026-01-25 08:25:41.88	111.93	22.55	-46.1	-47.5	19.8	0.00e+00	0	45	0	371195904	63	4299
2026-01-25 08:25:42.86	111.82	22.68	-46.2	-47.7	19.6	0.00e+00	0	44	0	373293056	63	4397
2026-01-25 08:25:43.85	111.71	22.81	-46.1	-47.5	19.7	0.00e+00	0	44	0	375390208	63	4335
2026-01-25 08:25:44.83	111.59	22.94	-46.1	-47.6	19.7	0.00e+00	0	45	0	377487360	63	4350
2026-01-25 08:25:45.81	111.48	23.07	-46.1	-47.5	19.7	0.00e+00	0	44	0	378535936	63	4321
2026-01-25 08:25:46.78	111.37	23.20	-46.2	-47.6	19.6	0.00e+00	0	44	0	380633088	63	4382
2026-01-25 08:25:47.76	111.25	23.34	-46.2	-47.6	19.6	0.00e+00	0	45	0	382730240	63	4375
2026-01-25 08:25:48.74	111.14	23.47	-46.3	-47.7	19.5	0.00e+00	0	44	0	384827392	63	4426
2026-01-25 08:25:49.72	111.02	23.60	-46.2	-47.7	19.6	0.00e+00	0	44	0	385875968	63	4401
2026-01-25 08:25:50.70	110.90	23.74	-46.4	-47.8	19.4	0.00e+00	0	44	0	387973120	63	4483
2026-01-25 08:25:51.68	110.78	23.87	-46.3	-47.8	19.5	0.00e+00	0	44	0	390070272	63	4461
2026-01-25 08:25:52.66	110.66	24.01	-46.4	-47.9	19.4	0.00e+00	0	45	0	392167424	63	4518
2026-01-25 08:25:53.64	110.54	24.14	-46.3	-47.8	19.4	0.00e+00	0	45	0	393216000	63	4470
2026-01-25 08:25:54.62	110.42	24.28	-46.3	-47.8	19.5	0.00e+00	0	45	0	395313152	63	4459
2026-01-25 08:25:55.61	110.30	24.42	-46.4	-47.9	19.4	0.00e+00	0	44	0	397410304	63	4521
2026-01-25 08:25:56.58	110.17	24.55	-46.3	-47.7	19.5	0.00e+00	0	44	0	399507456	63	4440
2026-01-25 08:25:57.56	110.05	24.69	-46.4	-47.9	19.4	0.00e+00	0	45	0	400556032	63	4507
2026-01-25 08:25:58.54	109.92	24.83	-46.2	-47.7	19.6	0.00e+00	0	45	0	402653184	63	4406
2026-01-25 08:25:59.52	109.79	24.97	-46.3	-47.7	19.6	0.00e+00	0	44	0	404750336	63	4416
2026-01-25 08:26:00.50	109.66	25.11	-46.2	-47.7	19.6	0.00e+00	0	45	0	405798912	63	4409
2026-01-25 08:26:01.48	109.53	25.25	-46.4	-47.8	19.5	0.00e+00	0	45	0	407896064	63	4479
2026-01-25 08:26:02.46	109.40	25.39	-46.5	-48.1	19.3	0.00e+00	0	45	0	409993216	63	4599
2026-01-25 08:26:03.43	109.27	25.53	-46.5	-48.1	19.2	0.00e+00	0	44	0	412090368	63	4608
2026-01-25 08:26:04.41	109.14	25.67	-46.6	-48.1	19.2	0.00e+00	0	44	0	413138944	63	4625
2026-01-25 08:26:05.39	109.00	25.81	-46.6	-48.1	19.2	0.00e+00	0	44	0	415236096	63	4627
2026-01-25 08:26:06.37	108.87	25.96	-46.5	-48.0	19.3	0.00e+00	0	44	0	417333248	63	4575
2026-01-25 08:26:07.35	108.73	26.10	-46.4	-47.8	19.4	0.00e+00	0	44	0	419430400	63	4492
2026-01-25 08:26:08.33	108.59	26.25	-46.3	-47.8	19.5	0.00e+00	0	44	0	421527552	63	4446
2026-01-25 08:26:09.31	108.45	26.39	-46.4	-47.8	19.5	0.00e+00	0	44	0	422576128	63	4488
2026-01-25 08:26:10.29	108.31	26.54	-46.4	-47.8	19.4	0.00e+00	0	44	0	424673280	63	4493
2026-01-25 08:26:11.26	108.17	26.68	-46.4	-47.8	19.4	0.00e+00	0	44	0	426770432	63	4490
2026-01-25 08:26:12.24	108.02	26.83	-46.5	-48.0	19.3	0.00e+00	0	45	0	428867584	63	4557
2026-01-25 08:26:13.22	107.88	26.97	-46.5	-48.0	19.3	0.00e+00	0	45	0	429916160	63	4583
2026-01-25 08:26:14.20	107.73	27.12	-46.5	-48.1	19.3	0.00e+00	0	45	0	432013312	63	4602
2026-01-25 08:26:15.18	107.58	27.27	-46.5	-48.0	19.3	0.00e+00	0	44	0	434110464	63	4582
2026-01-25 08:26:16.15	107.44	27.42	-46.6	-48.1	19.2	0.00e+00	0	45	0	436207616	63	4629
2026-01-25 08:26:17.14	107.28	27.57	-46.6	-48.1	19.2	0.00e+00	0	44	0	437256192	63	4621
2026-01-25 08:26:18.11	107.13	27.72	-46.6	-48.1	19.2	0.00e+00	0	45	0	439353344	63	4623
2026-01-25 08:26:19.09	106.98	27.87	-46.6	-48.1	19.2	0.00e+00	0	45	0	441450496	63	4625
2026-01-25 08:26:20.07	106.82	28.02	-46.4	-47.9	19.4	0.00e+00	0	44	0	443547648	63	4517
2026-01-25 08:26:21.05	106.67	28.17	-46.5	-48.0	19.3	0.00e+00	0	45	0	444596224	63	4584
2026-01-25 08:26:22.03	106.51	28.33	-46.4	-47.9	19.4	0.00e+00	0	44	0	446693376	63	4502
2026-01-25 08:26:23.01	106.35	28.48	-46.4	-47.8	19.5	0.00e+00	0	45	0	448790528	63	4477
2026-01-25 08:26:23.99	106.19	28.63	-46.2	-47.6	19.7	0.00e+00	0	44	0	450887680	63	4355
2026-01-25 08:26:24.97	106.02	28.79	-46.3	-47.7	19.5	0.00e+00	0	44	0	451936256	63	4440
2026-01-25 08:26:25.94	105.86	28.94	-46.1	-47.6	19.7	0.00e+00	0	45	0	454033408	63	4342
2026-01-25 08:26:26.92	105.69	29.10	-46.2	-47.6	19.7	0.00e+00	0	45	0	456130560	63	4349
2026-01-25 08:26:27.89	105.53	29.25	-46.1	-47.5	19.8	0.00e+00	0	44	0	457179136	63	4324
2026-01-25 08:26:28.87	105.36	29.41	-46.1	-47.5	19.7	0.00e+00	0	45	0	459276288	63	4338
2026-01-25 08:26:29.84	105.19	29.56	-46.3	-47.8	19.6	0.00e+00	0	45	0	461373440	63	4462
2026-01-25 08:26:30.82	105.02	29.72	-46.5	-48.0	19.3	0.00e+00	0	44	0	463470592	63	4564
2026-01-25 08:26:31.80	104.84	29.88	-46.7	-48.3	19.1	0.00e+00	0	45	0	464519168	63	4712
2026-01-25 08:26:32.78	104.67	30.04	-46.8	-48.4	18.7	0.00e+00	0	45	0	466616320	64	4530
2026-01-25 08:26:33.76	104.49	30.20	-46.8	-48.4	18.8	0.00e+00	0	44	0	468713472	64	4541
2026-01-25 08:26:34.73	104.31	30.36	-46.7	-48.3	18.9	0.00e+00	0	45	0	470810624	64	4469
2026-01-25 08:26:35.72	104.13	30.52	-46.7	-48.3	18.9	0.00e+00	0	45	0	471859200	64	4478
2026-01-25 08:26:36.69	103.94	30.68	-46.8	-48.4	18.8	0.00e+00	0	44	0	473956352	64	4534
2026-01-25 08:26:37.67	103.76	30.84	-46.9	-48.6	18.7	0.00e+00	0	45	0	476053504	64	4606
2026-01-25 08:26:38.65	103.57	31.00	-47.1	-48.8	18.5	0.00e+00	0	45	0	478150656	64	4732
2026-01-25 08:26:39.63	103.38	31.16	-47.3	-49.0	18.3	0.00e+00	0	45	0	480247808	65	4559
2026-01-25 08:26:40.60	103.19	31.33	-47.1	-48.8	18.4	0.00e+00	0	44	0	481296384	65	4479
2026-01-25 08:26:41.57	103.00	31.49	-47.3	-49.0	18.2	0.00e+00	0	45	0	483393536	65	4595
2026-01-25 08:26:42.54	102.81	31.65	-47.3	-49.0	18.3	0.00e+00	0	45	0	485490688	65	4558
2026-01-25 08:26:43.52	102.61	31.82	-47.1	-48.7	18.6	0.00e+00	0	45	0	486539264	65	4411
2026-01-25 08:26:44.50	102.41	31.98	-47.0	-48.6	18.6	0.00e+00	0	45	0	488636416	65	4386
2026-01-25 08:26:45.48	102.21	32.15	-47.1	-48.8	18.5	0.00e+00	0	45	0	490733568	65	4456
2026-01-25 08:26:46.46	102.01	32.31	-47.2	-48.9	18.4	0.00e+00	0	45	0	492830720	65	4539
2026-01-25 08:26:47.44	101.80	32.48	-47.3	-49.1	18.2	0.00e+00	0	45	0	494927872	65	4618
2026-01-25 08:26:48.41	101.60	32.65	-47.3	-49.0	18.3	0.00e+00	0	45	0	495976448	65	4556
2026-01-25 08:26:49.39	101.39	32.82	-47.3	-49.0	18.3	0.00e+00	0	45	0	498073600	65	4595
2026-01-25 08:26:50.37	101.17	32.98	-47.1	-48.8	18.5	0.00e+00	0	45	0	500170752	65	4463
2026-01-25 08:26:51.35	100.96	33.15	-47.1	-48.8	18.5	0.00e+00	0	45	0	502267904	65	4458
2026-01-25 08:26:52.33	100.74	33.32	-47.3	-49.0	18.3	0.00e+00	0	45	0	503316480	65	4561
2026-01-25 08:26:53.30	100.53	33.49	-47.3	-49.0	18.3	0.00e+00	0	45	0	505413632	65	4597
2026-01-25 08:26:54.28	100.31	33.66	-47.4	-49.1	18.2	0.00e+00	0	45	0	507510784	65	4632
2026-01-25 08:26:55.25	100.08	33.83	-47.3	-49.0	18.3	0.00e+00	0	45	0	508559360	65	4566
2026-01-25 08:26:56.22	99.86	34.00	-47.2	-48.8	18.5	0.00e+00	0	44	0	510656512	65	4479
2026-01-25 08:26:57.20	99.63	34.17	-47.1	-48.7	18.6	0.00e+00	0	45	0	512753664	65	4407
2026-01-25 08:26:58.17	99.40	34.34	-47.0	-48.6	18.7	0.00e+00	0	45	0	514850816	65	4357
2026-01-25 08:26:59.15	99.17	34.52	-47.0	-48.7	18.7	0.00e+00	0	45	0	515899392	65	4396
2026-01-25 08:27:00.13	98.94	34.69	-47.1	-48.8	18.5	0.00e+00	0	45	0	517996544	65	4475
2026-01-25 08:27:01.10	98.70	34.86	-47.0	-48.6	18.7	0.00e+00	0	45	0	520093696	65	4364
2026-01-25 08:27:02.08	98.46	35.03	-47.0	-48.6	18.7	0.00e+00	0	44	0	522190848	65	4356
2026-01-25 08:27:03.06	98.22	35.21	-46.9	-48.5	18.8	0.00e+00	0	45	0	523239424	65	4339
2026-01-25 08:27:04.04	97.97	35.38	-47.1	-48.7	18.6	0.00e+00	0	45	0	525336576	65	4417
2026-01-25 08:27:05.01	97.72	35.56	-47.3	-49.0	18.4	0.00e+00	0	45	0	527433728	65	4556
2026-01-25 08:27:05.99	97.47	35.73	-47.3	-49.0	18.4	0.00e+00	0	45	0	529530880	65	4559
2026-01-25 08:27:06.97	97.22	35.91	-47.1	-48.8	18.6	0.00e+00	0	44	0	530579456	65	4467
2026-01-25 08:27:07.95	96.96	36.08	-47.2	-48.9	18.5	0.00e+00	0	45	0	532676608	65	4501
2026-01-25 08:27:08.92	96.70	36.26	-47.1	-48.7	18.7	0.00e+00	0	45	0	534773760	65	4416
2026-01-25 08:27:09.90	96.44	36.43	-47.1	-48.8	18.6	0.00e+00	0	45	0	536870912	65	4461
2026-01-25 08:27:10.88	96.18	36.61	-47.1	-48.8	18.6	0.00e+00	0	45	0	537919488	65	4442
2026-01-25 08:27:11.86	95.91	36.79	-47.1	-48.7	18.6	0.00e+00	0	45	0	540016640	65	4432
2026-01-25 08:27:12.84	95.64	36.97	-47.1	-48.7	18.7	0.00e+00	0	45	0	542113792	65	4410
2026-01-25 08:27:13.82	95.36	37.14	-47.2	-48.8	18.5	0.00e+00	0	45	0	544210944	65	4488
2026-01-25 08:27:14.80	95.09	37.32	-47.1	-48.7	18.6	0.00e+00	0	45	0	545259520	65	4431
2026-01-25 08:27:15.79	94.80	37.50	-47.2	-48.8	18.6	0.00e+00	0	45	0	547356672	65	4467
2026-01-25 08:27:16.77	94.52	37.68	-47.4	-49.1	18.3	0.00e+00	0	45	0	549453824	65	4611
2026-01-25 08:27:17.75	94.23	37.86	-47.0	-48.7	18.7	0.00e+00	0	45	0	551550976	65	4392
2026-01-25 08:27:18.74	93.94	38.04	-47.1	-48.7	18.6	0.00e+00	0	45	0	553648128	65	4439
2026-01-25 08:27:19.72	93.65	38.21	-47.2	-48.9	18.5	0.00e+00	0	45	0	554696704	65	4514
2026-01-25 08:27:20.70	93.35	38.39	-47.5	-49.3	18.1	0.00e+00	0	45	0	556793856	65	4720
2026-01-25 08:27:21.68	93.05	38.57	-47.4	-49.1	18.2	0.00e+00	0	45	0	558891008	65	4648
2026-01-25 08:27:22.66	92.75	38.75	-47.1	-48.8	18.6	0.00e+00	0	45	0	559939584	65	4442
2026-01-25 08:27:23.64	92.44	38.93	-46.9	-48.5	18.8	0.00e+00	0	45	0	562036736	65	4321
2026-01-25 08:27:24.62	92.13	39.11	-46.9	-48.5	18.9	0.00e+00	0	45	0	564133888	65	4325
2026-01-25 08:27:25.60	91.82	39.28	-46.8	-48.4	19.0	0.00e+00	0	45	0	566231040	65	4251
2026-01-25 08:27:26.58	91.50	39.46	-46.8	-48.4	19.0	0.00e+00	0	45	0	567279616	65	4272
2026-01-25 08:27:27.55	91.19	39.64	-47.0	-48.6	18.8	0.00e+00	0	45	0	569376768	65	4350
2026-01-25 08:27:28.53	90.86	39.82	-46.8	-48.3	19.0	0.00e+00	0	45	0	571473920	65	4237
2026-01-25 08:27:29.51	90.54	39.99	-46.9	-48.5	19.0	0.00e+00	0	45	0	573571072	65	4296
2026-01-25 08:27:30.49	90.20	40.17	-46.9	-48.5	18.9	0.00e+00	0	45	0	574619648	65	4322
2026-01-25 08:27:31.47	89.87	40.35	-47.1	-48.7	18.8	0.00e+00	0	45	0	576716800	65	4401
2026-01-25 08:27:32.45	89.53	40.53	-47.1	-48.8	18.6	0.00e+00	0	45	0	578813952	65	4442
2026-01-25 08:27:33.43	89.19	40.70	-47.3	-49.0	18.5	0.00e+00	0	45	0	580911104	65	4549
2026-01-25 08:27:34.41	88.84	40.88	-47.4	-49.1	18.3	0.00e+00	0	45	0	581959680	65	4613
2026-01-25 08:27:35.39	88.49	41.06	-47.4	-49.1	18.3	0.00e+00	0	45	0	584056832	65	4637
2026-01-25 08:27:36.37	88.14	41.23	-47.5	-49.2	18.2	0.00e+00	0	45	0	586153984	65	4697
2026-01-25 08:27:37.35	87.78	41.41	-47.7	-49.5	17.9	0.00e+00	0	45	0	588251136	65	4834
2026-01-25 08:27:38.33	87.42	41.58	-47.8	-49.6	17.8	0.00e+00	0	45	0	590348288	66	4623
2026-01-25 08:27:39.31	87.06	41.76	-47.9	-49.8	17.6	0.00e+00	0	45	0	591396864	66	4739
2026-01-25 08:27:40.28	86.69	41.93	-48.0	-50.0	17.5	0.00e+00	0	45	0	593494016	66	4823
2026-01-25 08:27:41.26	86.32	42.10	-47.7	-49.5	18.0	0.00e+00	0	45	0	595591168	66	4557
2026-01-25 08:27:42.24	85.94	42.28	-47.5	-49.2	18.3	0.00e+00	0	45	0	597688320	66	4415
2026-01-25 08:27:43.22	85.56	42.45	-47.4	-49.1	18.3	0.00e+00	0	45	0	598736896	66	4367
2026-01-25 08:27:44.20	85.18	42.62	-47.2	-48.9	18.5	0.00e+00	0	45	0	600834048	66	4259
2026-01-25 08:27:45.17	84.79	42.79	-47.2	-48.9	18.6	0.00e+00	0	45	0	602931200	66	4264
2026-01-25 08:27:46.15	84.40	42.96	-47.2	-48.8	18.6	0.00e+00	0	45	0	605028352	66	4240
2026-01-25 08:27:47.12	84.00	43.13	-47.1	-48.7	18.8	0.00e+00	0	45	0	606076928	66	4157
2026-01-25 08:27:48.10	83.60	43.29	-47.1	-48.7	18.8	0.00e+00	0	45	0	608174080	66	4150
2026-01-25 08:27:49.08	83.20	43.46	-47.2	-48.9	18.6	0.00e+00	0	45	0	610271232	66	4252
2026-01-25 08:27:50.06	82.78	43.63	-47.3	-48.9	18.6	0.00e+00	0	45	0	611319808	66	4275
2026-01-25 08:27:51.04	82.37	43.80	-47.2	-48.8	18.6	0.00e+00	0	45	0	613416960	66	4238
2026-01-25 08:27:52.01	81.96	43.96	-47.1	-48.7	18.7	0.00e+00	0	45	0	615514112	66	4160
2026-01-25 08:27:52.99	81.53	44.12	-46.8	-48.4	19.0	0.00e+00	0	45	0	617611264	65	4265
2026-01-25 08:27:53.97	81.10	44.29	-46.7	-48.2	19.2	0.00e+00	0	45	0	618659840	65	4187
2026-01-25 08:27:54.95	80.67	44.45	-46.2	-47.6	19.8	0.00e+00	0	45	0	620756992	64	4141
2026-01-25 08:27:55.93	80.24	44.61	-45.9	-47.2	20.2	0.00e+00	0	45	0	622854144	63	4158
2026-01-25 08:27:56.90	79.80	44.76	-45.7	-47.0	20.4	0.00e+00	0	45	0	624951296	63	4086
2026-01-25 08:27:57.88	79.35	44.92	-45.5	-46.7	20.7	0.00e+00	0	45	0	625999872	62	4186
2026-01-25 08:27:58.85	78.91	45.08	-45.7	-47.0	20.5	0.00e+00	0	45	0	628097024	62	4326
2026-01-25 08:27:59.83	78.45	45.23	-45.7	-47.0	20.5	0.00e+00	0	45	0	630194176	62	4293
2026-01-25 08:28:00.80	78.00	45.38	-45.6	-46.9	20.6	0.00e+00	0	45	0	632291328	62	4245
2026-01-25 08:28:01.78	77.54	45.54	-45.6	-46.9	20.6	0.00e+00	0	45	0	633339904	62	4268
2026-01-25 08:28:02.76	77.07	45.69	-45.6	-46.9	20.6	0.00e+00	0	45	0	635437056	62	4258
2026-01-25 08:28:03.74	76.60	45.84	-45.6	-46.9	20.6	0.00e+00	0	45	0	637534208	62	4258
2026-01-25 08:28:04.71	76.12	45.98	-45.6	-46.9	20.6	0.00e+00	0	45	0	639631360	62	4259
2026-01-25 08:28:05.69	75.64	46.13	-45.7	-47.0	20.5	0.00e+00	0	45	0	640679936	62	4332
2026-01-25 08:28:06.67	75.16	46.27	-45.5	-46.8	20.7	0.00e+00	0	45	0	642777088	62	4200
2026-01-25 08:28:07.65	74.67	46.42	-45.8	-47.1	20.5	0.00e+00	0	45	0	644874240	62	4365
2026-01-25 08:28:08.62	74.18	46.55	-45.9	-47.3	20.3	0.00e+00	0	45	0	646971392	62	4442
2026-01-25 08:28:09.60	73.68	46.69	-46.2	-47.6	20.0	0.00e+00	0	45	0	648019968	62	4601
2026-01-25 08:28:10.57	73.18	46.83	-46.5	-47.9	19.7	0.00e+00	0	45	0	650117120	63	4524
2026-01-25 08:28:11.55	72.67	46.96	-46.6	-48.1	19.5	0.00e+00	0	45	0	652214272	63	4629
2026-01-25 08:28:12.53	72.16	47.10	-46.7	-48.2	19.4	0.00e+00	0	45	0	654311424	63	4667
2026-01-25 08:28:13.51	71.65	47.23	-47.0	-48.6	18.9	0.00e+00	0	45	0	655360000	64	4612
2026-01-25 08:28:14.48	71.13	47.35	-47.3	-49.0	18.5	0.00e+00	0	45	0	657457152	65	4560
2026-01-25 08:28:15.46	70.61	47.48	-47.4	-49.1	18.3	0.00e+00	0	45	0	659554304	65	4642
2026-01-25 08:28:16.44	70.08	47.60	-47.6	-49.4	18.1	0.00e+00	0	45	0	661651456	65	4800
2026-01-25 08:28:17.41	69.55	47.72	-47.8	-49.7	17.8	0.00e+00	0	45	0	662700032	66	4667
2026-01-25 08:28:18.40	69.01	47.84	-48.0	-49.9	17.6	0.00e+00	0	45	0	664797184	66	4812
2026-01-25 08:28:19.37	68.47	47.96	-47.5	-49.3	18.2	0.00e+00	0	45	0	666894336	66	4445
2026-01-25 08:28:20.35	67.92	48.07	-47.9	-49.8	17.8	0.00e+00	0	45	0	668991488	66	4723
2026-01-25 08:28:21.33	67.38	48.18	-48.4	-50.5	17.2	0.00e+00	0	45	0	670040064	67	4832
2026-01-25 08:28:22.31	66.82	48.29	-48.8	-51.0	16.7	0.00e+00	0	45	0	672137216	68	4836
2026-01-25 08:28:23.29	66.26	48.40	-48.6	-50.7	16.9	0.00e+00	0	45	0	674234368	68	4695
2026-01-25 08:28:24.27	65.70	48.50	-48.6	-50.6	16.9	0.00e+00	0	45	0	676331520	68	4644
2026-01-25 08:28:25.25	65.14	48.60	-48.5	-50.5	17.1	0.00e+00	0	45	0	677380096	68	4589
2026-01-25 08:28:26.23	64.57	48.70	-48.5	-50.6	17.1	0.00e+00	0	45	0	679477248	68	4602
2026-01-25 08:28:27.21	64.00	48.80	-48.3	-50.3	17.4	0.00e+00	0	45	0	681574400	68	4444
2026-01-25 08:28:28.19	63.42	48.89	-48.3	-50.2	17.4	0.00e+00	0	45	0	683671552	68	4431
2026-01-25 08:28:29.17	62.84	48.98	-48.3	-50.3	17.4	0.00e+00	0	45	0	684720128	68	4473
2026-01-25 08:28:30.15	62.26	49.06	-48.5	-50.6	17.0	0.00e+00	0	45	0	686817280	68	4610
2026-01-25 08:28:31.12	61.68	49.15	-48.7	-50.8	16.9	0.00e+00	0	45	0	688914432	68	4734
2026-01-25 08:28:32.10	61.09	49.23	-48.4	-50.4	17.3	0.00e+00	0	45	0	691011584	68	4529
2026-01-25 08:28:33.08	60.50	49.30	-48.2	-50.1	17.5	0.00e+00	0	45	0	692060160	68	4374
2026-01-25 08:28:34.06	59.91	49.38	-48.1	-49.9	17.7	0.00e+00	0	45	0	694157312	68	4269
2026-01-25 08:28:35.04	59.31	49.45	-47.3	-48.9	18.6	0.00e+00	0	45	0	696254464	66	4268
2026-01-25 08:28:36.01	58.71	49.52	-46.8	-48.3	19.3	0.00e+00	0	45	0	698351616	65	4195
2026-01-25 08:28:36.99	58.11	49.58	-46.7	-48.1	19.3	0.00e+00	0	45	0	699400192	65	4132
2026-01-25 08:28:37.97	57.51	49.64	-46.8	-48.3	19.3	0.00e+00	0	45	0	701497344	65	4196
2026-01-25 08:28:38.95	56.90	49.70	-46.7	-48.2	19.2	0.00e+00	0	45	0	703594496	65	4179
2026-01-25 08:28:39.93	56.29	49.75	-46.5	-48.0	19.6	0.00e+00	0	45	0	705691648	65	4055
2026-01-25 08:28:40.91	55.68	49.80	-46.5	-48.0	19.5	0.00e+00	0	45	0	706740224	64	4312
2026-01-25 08:28:41.89	55.06	49.85	-46.4	-47.9	19.7	0.00e+00	0	45	0	708837376	64	4249
2026-01-25 08:28:42.86	54.45	49.89	-46.2	-47.6	19.9	0.00e+00	0	45	0	710934528	64	4118
2026-01-25 08:28:43.84	53.84	49.93	-46.1	-47.4	20.2	0.00e+00	0	45	0	713031680	63	4274
2026-01-25 08:28:44.82	53.22	49.97	-46.0	-47.4	20.3	0.00e+00	0	45	0	714080256	63	4248
2026-01-25 08:28:45.79	52.60	50.00	-46.0	-47.3	20.3	0.00e+00	0	45	0	716177408	63	4217
2026-01-25 08:28:46.77	51.98	50.03	-45.9	-47.2	20.5	0.00e+00	0	45	0	718274560	63	4151
2026-01-25 08:28:47.75	51.36	50.06	-45.9	-47.2	20.4	0.00e+00	0	45	0	720371712	63	4153
2026-01-25 08:28:48.72	50.74	50.08	-45.9	-47.3	20.3	0.00e+00	0	45	0	721420288	63	4202
2026-01-25 08:28:49.70	50.12	50.10	-46.1	-47.4	20.3	0.00e+00	0	45	0	723517440	63	4275
2026-01-25 08:28:50.68	49.49	50.12	-46.1	-47.4	20.2	0.00e+00	0	45	0	725614592	63	4276
2026-01-25 08:28:51.65	48.87	50.13	-45.9	-47.2	20.5	0.00e+00	0	45	0	727711744	63	4169
2026-01-25 08:28:52.63	48.25	50.13	-45.5	-46.7	20.8	0.00e+00	0	45	0	728760320	62	4167
2026-01-25 08:28:53.61	47.62	50.14	-45.5	-46.8	20.9	0.00e+00	0	45	0	730857472	62	4197
2026-01-25 08:28:54.59	46.99	50.14	-45.6	-46.9	20.7	0.00e+00	0	45	0	732954624	62	4270
2026-01-25 08:28:55.56	46.37	50.14	-45.9	-47.2	20.4	0.00e+00	0	45	0	735051776	62	4437
2026-01-25 08:28:56.54	45.75	50.13	-46.2	-47.6	20.0	0.00e+00	0	45	0	736100352	63	4359
2026-01-25 08:28:57.52	45.12	50.12	-46.1	-47.5	20.0	0.00e+00	0	45	0	738197504	63	4307
2026-01-25 08:28:58.49	44.50	50.11	-46.0	-47.3	20.3	0.00e+00	0	45	0	740294656	63	4208
2026-01-25 08:28:59.47	43.88	50.09	-45.9	-47.2	20.4	0.00e+00	0	45	0	742391808	63	4169
2026-01-25 08:29:00.45	43.25	50.07	-45.8	-47.1	20.4	0.00e+00	0	45	0	743440384	63	4139
2026-01-25 08:29:01.42	42.64	50.04	-45.8	-47.1	20.5	0.00e+00	0	45	0	745537536	63	4117
2026-01-25 08:29:02.40	42.01	50.02	-45.9	-47.2	20.4	0.00e+00	0	45	0	747634688	63	4155
2026-01-25 08:29:03.37	41.40	49.98	-46.0	-47.3	20.2	0.00e+00	0	45	0	749731840	63	4233
2026-01-25 08:29:04.35	40.78	49.95	-45.9	-47.3	20.4	0.00e+00	0	45	0	750780416	63	4199
2026-01-25 08:29:05.32	40.17	49.91	-45.8	-47.1	20.4	0.00e+00	0	45	0	752877568	63	4143
2026-01-25 08:29:06.30	39.55	49.87	-45.9	-47.2	20.5	0.00e+00	0	45	0	754974720	63	4179
2026-01-25 08:29:07.27	38.95	49.82	-46.0	-47.4	20.3	0.00e+00	0	45	0	757071872	63	4250
2026-01-25 08:29:08.25	38.33	49.77	-46.1	-47.4	20.3	0.00e+00	0	45	0	758120448	63	4270
2026-01-25 08:29:09.23	37.72	49.72	-45.9	-47.2	20.4	0.00e+00	0	45	0	760217600	63	4176
2026-01-25 08:29:10.20	37.12	49.67	-45.6	-46.9	20.8	0.00e+00	0	45	0	762314752	63	4016
2026-01-25 08:29:11.18	36.52	49.61	-45.7	-46.9	20.7	0.00e+00	0	45	0	764411904	63	4025
2026-01-25 08:29:12.16	35.91	49.54	-46.0	-47.4	20.3	0.00e+00	0	45	0	765460480	63	4250
2026-01-25 08:29:13.14	35.31	49.48	-46.3	-47.6	20.0	0.00e+00	0	45	0	767557632	63	4384
2026-01-25 08:29:14.12	34.71	49.41	-46.2	-47.6	20.1	0.00e+00	0	45	0	769654784	63	4346
2026-01-25 08:29:15.09	34.12	49.34	-46.0	-47.4	20.2	0.00e+00	0	45	0	770703360	63	4245
2026-01-25 08:29:16.07	33.53	49.26	-46.2	-47.6	20.0	0.00e+00	0	45	0	772800512	63	4364
2026-01-25 08:29:17.05	32.94	49.18	-46.5	-47.9	19.8	0.00e+00	0	45	0	774897664	63	4506
2026-01-25 08:29:18.02	32.36	49.10	-46.2	-47.6	20.1	0.00e+00	0	45	0	776994816	63	4350
2026-01-25 08:29:19.00	31.78	49.02	-46.3	-47.7	19.9	0.00e+00	0	45	0	778043392	63	4415
2026-01-25 08:29:19.97	31.20	48.93	-46.4	-47.9	19.8	0.00e+00	0	45	0	780140544	63	4496
2026-01-25 08:29:20.94	30.63	48.84	-46.8	-48.3	19.2	0.00e+00	0	45	0	782237696	64	4471
2026-01-25 08:29:21.92	30.06	48.75	-46.9	-48.5	19.1	0.00e+00	0	45	0	784334848	64	4570
2026-01-25 08:29:22.90	29.49	48.65	-47.1	-48.8	18.8	0.00e+00	0	45	0	785383424	65	4445
2026-01-25 08:29:23.87	28.93	48.55	-46.9	-48.4	19.1	0.00e+00	0	45	0	787480576	65	4263
2026-01-25 08:29:24.85	28.37	48.45	-46.8	-48.4	19.2	0.00e+00	0	45	0	789577728	65	4246
2026-01-25 08:29:25.83	27.81	48.34	-47.0	-48.5	19.1	0.00e+00	0	45	0	791674880	65	4318
2026-01-25 08:29:26.81	27.25	48.24	-47.2	-48.8	18.8	0.00e+00	0	45	0	792723456	65	4474
2026-01-25 08:29:27.79	26.70	48.13	-47.3	-49.0	18.6	0.00e+00	0	45	0	794820608	65	4555
2026-01-25 08:29:28.76	26.16	48.01	-47.5	-49.1	18.4	0.00e+00	0	45	0	796917760	65	4650
2026-01-25 08:29:29.74	25.62	47.90	-47.5	-49.2	18.2	0.00e+00	0	45	0	799014912	65	4701
2026-01-25 08:29:30.72	25.08	47.78	-47.8	-49.6	18.0	0.00e+00	0	45	0	800063488	66	4643
2026-01-25 08:29:31.69	24.55	47.66	-47.7	-49.5	18.2	0.00e+00	0	45	0	802160640	66	4571
2026-01-25 08:29:32.66	24.03	47.54	-47.4	-49.1	18.4	0.00e+00	0	45	0	804257792	66	4386
2026-01-25 08:29:33.64	23.50	47.42	-47.6	-49.3	18.3	0.00e+00	0	45	0	806354944	66	4457
2026-01-25 08:29:34.62	22.98	47.29	-47.5	-49.2	18.4	0.00e+00	0	45	0	807403520	66	4428
2026-01-25 08:29:35.60	22.46	47.16	-47.2	-48.8	18.8	0.00e+00	0	45	0	809500672	66	4239
2026-01-25 08:29:36.57	21.95	47.03	-47.2	-48.8	18.8	0.00e+00	0	45	0	811597824	66	4206
2026-01-25 08:29:37.55	21.44	46.90	-47.0	-48.6	18.9	0.00e+00	0	45	0	813694976	65	4343
2026-01-25 08:29:38.53	20.94	46.76	-46.7	-48.3	19.3	0.00e+00	0	45	0	815792128	65	4195
2026-01-25 08:29:39.51	20.44	46.62	-46.5	-48.0	19.6	0.00e+00	0	45	0	816840704	65	4068
2026-01-25 08:29:40.48	19.95	46.49	-46.3	-47.7	19.8	0.00e+00	0	45	0	818937856	64	4168
2026-01-25 08:29:41.46	19.46	46.34	-46.2	-47.6	19.9	0.00e+00	0	45	0	821035008	64	4115
2026-01-25 08:29:42.43	18.98	46.20	-46.1	-47.4	20.1	0.00e+00	0	45	0	822083584	64	4043
2026-01-25 08:29:43.40	18.50	46.06	-46.1	-47.4	20.2	0.00e+00	0	45	0	824180736	63	4268
2026-01-25 08:29:44.38	18.02	45.91	-46.4	-47.8	19.9	0.00e+00	0	45	0	826277888	63	4447
2026-01-25 08:29:45.35	17.55	45.77	-46.5	-48.0	19.6	0.00e+00	0	45	0	828375040	63	4572
2026-01-25 08:29:46.33	17.08	45.62	-46.5	-48.0	19.6	0.00e+00	0	45	0	829423616	63	4576
2026-01-25 08:29:47.30	16.62	45.47	-46.3	-47.7	19.9	0.00e+00	0	45	0	831520768	63	4405
2026-01-25 08:29:48.28	16.16	45.32	-46.3	-47.7	20.0	0.00e+00	0	45	0	833617920	63	4396
2026-01-25 08:29:49.26	15.71	45.16	-46.2	-47.6	20.0	0.00e+00	0	45	0	835715072	63	4372
2026-01-25 08:29:50.23	15.26	45.01	-46.5	-47.9	19.7	0.00e+00	0	45	0	836763648	63	4510
2026-01-25 08:29:51.21	14.81	44.85	-46.6	-48.1	19.6	0.00e+00	0	45	0	838860800	63	4618
2026-01-25 08:29:52.18	14.37	44.69	-46.7	-48.2	19.5	0.00e+00	0	45	0	840957952	63	4669
2026-01-25 08:29:53.16	13.94	44.53	-46.6	-48.0	19.5	0.00e+00	0	45	0	843055104	64	4331
2026-01-25 08:29:54.13	13.51	44.38	-46.3	-47.7	19.8	0.00e+00	0	45	0	844103680	64	4167
2026-01-25 08:29:55.10	13.08	44.21	-46.2	-47.5	20.0	0.00e+00	0	45	0	846200832	64	4098
2026-01-25 08:29:56.08	12.66	44.05	-46.4	-47.8	19.7	0.00e+00	0	45	0	848297984	64	4241
2026-01-25 08:29:57.06	12.24	43.89	-46.8	-48.3	19.3	0.00e+00	0	45	0	850395136	64	4451
2026-01-25 08:29:58.03	11.82	43.72	-46.9	-48.5	19.1	0.00e+00	0	45	0	851443712	64	4570
2026-01-25 08:29:59.01	11.41	43.56	-46.8	-48.3	19.2	0.00e+00	0	45	0	853540864	64	4467
2026-01-25 08:29:59.98	11.01	43.39	-46.6	-48.1	19.4	0.00e+00	0	45	0	855638016	64	4379
2026-01-25 08:30:00.96	10.61	43.23	-46.5	-47.9	19.6	0.00e+00	0	44	0	857735168	64	4275
2026-01-25 08:30:01.94	10.21	43.06	-46.4	-47.8	19.7	0.00e+00	0	45	0	858783744	64	4239
2026-01-25 08:30:02.92	9.81	42.89	-46.2	-47.5	20.0	0.00e+00	0	45	0	860880896	64	4092
2026-01-25 08:30:03.90	9.42	42.72	-45.9	-47.3	20.3	0.00e+00	0	45	0	862978048	63	4203
2026-01-25 08:30:04.87	9.04	42.55	-45.8	-47.1	20.5	0.00e+00	0	45	0	865075200	63	4110
2026-01-25 08:30:05.84	8.66	42.38	-45.7	-46.9	20.6	0.00e+00	0	45	0	866123776	63	4039
2026-01-25 08:30:06.82	8.28	42.21	-45.7	-47.0	20.6	0.00e+00	0	45	0	868220928	63	4068
2026-01-25 08:30:07.79	7.91	42.04	-45.9	-47.3	20.4	0.00e+00	0	45	0	870318080	63	4196
2026-01-25 08:30:08.77	7.54	41.86	-46.1	-47.4	20.1	0.00e+00	0	45	0	871366656	63	4272
2026-01-25 08:30:09.74	7.18	41.69	-46.2	-47.6	20.0	0.00e+00	0	45	0	873463808	63	4345
2026-01-25 08:30:10.71	6.82	41.52	-45.9	-47.2	20.3	0.00e+00	0	45	0	875560960	63	4181
2026-01-25 08:30:11.69	6.46	41.34	-45.9	-47.2	20.3	0.00e+00	0	45	0	877658112	63	4149
2026-01-25 08:30:12.66	6.11	41.17	-46.1	-47.4	20.2	0.00e+00	0	45	0	878706688	63	4276
2026-01-25 08:30:13.64	5.76	40.99	-46.5	-47.9	19.7	0.00e+00	0	45	0	880803840	63	4544
2026-01-25 08:30:14.62	5.41	40.82	-46.7	-48.1	19.3	0.00e+00	0	45	0	882900992	64	4388
2026-01-25 08:30:15.60	5.07	40.64	-46.9	-48.5	19.1	0.00e+00	0	45	0	884998144	64	4546
2026-01-25 08:30:16.57	4.73	40.47	-47.1	-48.8	18.8	0.00e+00	0	45	0	886046720	64	4708
2026-01-25 08:30:17.55	4.40	40.29	-47.2	-48.9	18.7	0.00e+00	0	45	0	888143872	64	4771
2026-01-25 08:30:18.52	4.07	40.12	-47.3	-49.0	18.6	0.00e+00	0	45	0	890241024	65	4582
2026-01-25 08:30:19.50	3.74	39.94	-47.4	-49.1	18.4	0.00e+00	0	45	0	892338176	65	4637
2026-01-25 08:30:20.48	3.41	39.76	-47.6	-49.3	18.2	0.00e+00	0	45	0	893386752	65	4728
2026-01-25 08:30:21.45	3.10	39.59	-48.0	-49.9	17.7	0.00e+00	0	45	0	895483904	66	4760
2026-01-25 08:30:22.43	2.78	39.41	-48.3	-50.3	17.3	0.00e+00	0	45	0	897581056	67	4717
2026-01-25 08:30:23.41	2.46	39.23	-48.0	-49.9	17.7	0.00e+00	0	45	0	899678208	67	4505
2026-01-25 08:30:24.39	2.15	39.05	-47.6	-49.4	18.1	0.00e+00	0	45	0	900726784	67	4265
2026-01-25 08:30:25.37	1.84	38.87	-47.5	-49.2	18.4	0.00e+00	0	45	0	902823936	66	4398
2026-01-25 08:30:26.34	1.54	38.70	-47.7	-49.4	18.1	0.00e+00	0	45	0	904921088	66	4530
2026-01-25 08:30:27.33	1.24	38.52	-48.1	-50.0	17.6	0.00e+00	0	45	0	907018240	66	4846
2026-01-25 08:30:28.30	0.95	38.34	-48.3	-50.3	17.2	0.00e+00	0	45	0	908066816	67	4755
2026-01-25 08:30:29.28	0.65	38.17	-48.3	-50.2	17.4	0.00e+00	0	45	0	910163968	67	4673
2026-01-25 08:30:30.26	0.36	37.99	-48.3	-50.3	17.3	0.00e+00	0	45	0	912261120	67	4740
2026-01-25 08:30:31.23	0.08	37.81	-48.3	-50.3	17.3	0.00e+00	0	45	0	914358272	67	4723
2026-01-25 08:30:32.21	359.79	37.63	-48.2	-50.2	17.4	0.00e+00	0	45	0	915406848	67	4680
2026-01-25 08:30:33.18	359.51	37.46	-48.3	-50.2	17.3	0.00e+00	0	45	0	917504000	67	4695
2026-01-25 08:30:34.16	359.23	37.28	-48.2	-50.2	17.4	0.00e+00	0	45	0	919601152	67	4674
2026-01-25 08:30:35.14	358.96	37.10	-48.4	-50.4	17.1	0.00e+00	0	44	0	921698304	67	4789
2026-01-25 08:30:36.12	358.69	36.93	-48.6	-50.7	16.8	0.00e+00	0	45	0	922746880	67	4974
2026-01-25 08:30:37.10	358.42	36.75	-48.6	-50.7	16.8	0.00e+00	0	45	0	924844032	67	4974
2026-01-25 08:30:38.07	358.15	36.58	-48.5	-50.6	17.0	0.00e+00	0	45	0	926941184	67	4876
2026-01-25 08:30:39.06	357.89	36.40	-48.3	-50.3	17.2	0.00e+00	0	45	0	929038336	67	4725
2026-01-25 08:30:40.03	357.63	36.22	-48.3	-50.3	17.2	0.00e+00	0	45	0	930086912	67	4723
2026-01-25 08:30:41.01	357.37	36.05	-48.3	-50.3	17.2	0.00e+00	0	45	0	932184064	67	4748
2026-01-25 08:30:41.99	357.11	35.87	-48.2	-50.2	17.4	0.00e+00	0	45	0	934281216	67	4660
2026-01-25 08:30:42.96	356.86	35.70	-48.2	-50.1	17.4	0.00e+00	0	45	0	936378368	67	4620
2026-01-25 08:30:43.94	356.61	35.53	-48.1	-50.0	17.6	0.00e+00	0	45	0	937426944	67	4549
2026-01-25 08:30:44.92	356.37	35.35	-48.2	-50.2	17.3	0.00e+00	0	45	0	939524096	67	4682
2026-01-25 08:30:45.90	356.12	35.18	-48.2	-50.2	17.3	0.00e+00	0	45	0	941621248	67	4676
2026-01-25 08:30:46.88	355.88	35.00	-48.1	-50.0	17.5	0.00e+00	0	45	0	943718400	67	4572
2026-01-25 08:30:47.86	355.64	34.83	-47.9	-49.7	17.8	0.00e+00	0	45	0	944766976	67	4436
2026-01-25 08:30:48.83	355.41	34.66	-47.8	-49.6	17.9	0.00e+00	0	45	0	946864128	67	4379
2026-01-25 08:30:49.81	355.17	34.49	-47.5	-49.2	18.3	0.00e+00	0	45	0	948961280	66	4429
2026-01-25 08:30:50.79	354.94	34.32	-47.7	-49.5	18.1	0.00e+00	0	45	0	951058432	66	4552
2026-01-25 08:30:51.76	354.71	34.15	-47.6	-49.4	18.1	0.00e+00	0	45	0	952107008	66	4506
2026-01-25 08:30:52.74	354.49	33.98	-47.7	-49.5	18.0	0.00e+00	0	45	0	954204160	66	4583
2026-01-25 08:30:53.71	354.27	33.81	-47.6	-49.4	18.2	0.00e+00	0	45	0	956301312	66	4500
2026-01-25 08:30:54.70	354.04	33.63	-47.5	-49.2	18.3	0.00e+00	0	45	0	958398464	66	4416
2026-01-25 08:30:55.68	353.82	33.46	-47.4	-49.1	18.4	0.00e+00	0	45	0	959447040	66	4343
2026-01-25 08:30:56.66	353.60	33.30	-47.3	-48.9	18.5	0.00e+00	0	45	0	961544192	66	4276
2026-01-25 08:30:57.64	353.39	33.13	-47.1	-48.6	18.8	0.00e+00	0	45	0	963641344	66	4145
2026-01-25 08:30:58.62	353.18	32.96	-47.0	-48.5	18.9	0.00e+00	0	45	0	965738496	65	4331
2026-01-25 08:30:59.60	352.97	32.79	-47.1	-48.7	18.7	0.00e+00	0	45	0	966787072	65	4416
2026-01-25 08:31:00.58	352.76	32.62	-47.1	-48.6	18.8	0.00e+00	0	45	0	968884224	65	4391
2026-01-25 08:31:01.56	352.55	32.46	-47.1	-48.8	18.7	0.00e+00	0	45	0	970981376	65	4448
2026-01-25 08:31:02.54	352.35	32.29	-47.4	-49.1	18.3	0.00e+00	0	45	0	973078528	65	4645
2026-01-25 08:31:03.52	352.15	32.12	-47.7	-49.5	18.0	0.00e+00	0	45	0	974127104	65	4822
2026-01-25 08:31:04.50	351.95	31.96	-47.7	-49.4	18.1	0.00e+00	0	45	0	976224256	66	4537
2026-01-25 08:31:05.48	351.75	31.79	-47.6	-49.4	18.0	0.00e+00	0	45	0	978321408	66	4499
2026-01-25 08:31:06.45	351.55	31.63	-47.6	-49.3	18.1	0.00e+00	0	45	0	980418560	66	4493
2026-01-25 08:31:07.43	351.36	31.47	-47.6	-49.4	18.2	0.00e+00	0	45	0	981467136	66	4502
2026-01-25 08:31:08.40	351.17	31.30	-47.6	-49.4	18.1	0.00e+00	0	45	0	983564288	66	4495
2026-01-25 08:31:09.38	350.98	31.14	-47.5	-49.2	18.2	0.00e+00	0	45	0	985661440	66	4429
2026-01-25 08:31:10.36	350.79	30.98	-47.6	-49.4	18.0	0.00e+00	0	45	0	987758592	66	4534
2026-01-25 08:31:11.34	350.61	30.82	-47.8	-49.6	17.8	0.00e+00	0	45	0	988807168	66	4649
2026-01-25 08:31:12.32	350.42	30.66	-47.8	-49.6	17.8	0.00e+00	0	45	0	990904320	66	4637
2026-01-25 08:31:13.29	350.24	30.50	-47.8	-49.6	17.9	0.00e+00	0	45	0	993001472	66	4627
2026-01-25 08:31:14.27	350.06	30.34	-47.7	-49.6	17.9	0.00e+00	0	45	0	995098624	66	4603
2026-01-25 08:31:15.25	349.88	30.18	-47.6	-49.4	18.0	0.00e+00	0	45	0	996147200	66	4532
2026-01-25 08:31:16.22	349.71	30.02	-47.6	-49.5	18.0	0.00e+00	0	45	0	998244352	66	4550
2026-01-25 08:31:17.20	349.53	29.86	-47.7	-49.5	18.0	0.00e+00	0	45	0	1000341504	66	4560
2026-01-25 08:31:18.18	349.36	29.71	-47.7	-49.6	17.8	0.00e+00	0	45	0	1002438656	66	4609
2026-01-25 08:31:19.15	349.19	29.55	-47.8	-49.6	17.8	0.00e+00	0	45	0	1003487232	66	4646
2026-01-25 08:31:20.13	349.02	29.39	-47.6	-49.4	18.0	0.00e+00	0	45	0	1005584384	66	4530
2026-01-25 08:31:21.11	348.85	29.24	-47.5	-49.2	18.2	0.00e+00	0	45	0	1007681536	66	4430
2026-01-25 08:31:22.08	348.69	29.08	-47.4	-49.2	18.2	0.00e+00	0	45	0	1009778688	66	4408
2026-01-25 08:31:23.06	348.52	28.93	-47.2	-48.8	18.6	0.00e+00	0	45	0	1010827264	66	4242
2026-01-25 08:31:24.03	348.36	28.78	-47.1	-48.8	18.6	0.00e+00	0	45	0	1012924416	66	4211
2026-01-25 08:31:25.01	348.20	28.62	-46.9	-48.5	18.9	0.00e+00	0	45	0	1015021568	65	4333
2026-01-25 08:31:25.99	348.04	28.47	-46.6	-48.2	19.2	0.00e+00	0	45	0	1017118720	65	4159
2026-01-25 08:31:26.96	347.88	28.32	-46.7	-48.3	19.1	0.00e+00	0	45	0	1018167296	65	4211
2026-01-25 08:31:27.94	347.72	28.17	-46.6	-48.2	19.2	0.00e+00	0	45	0	1020264448	65	4162
2026-01-25 08:31:28.91	347.57	28.02	-46.7	-48.2	19.2	0.00e+00	0	45	0	1022361600	65	4171
2026-01-25 08:31:29.89	347.41	27.87	-46.5	-48.0	19.2	0.00e+00	0	45	0	1024458752	65	4090
2026-01-25 08:31:30.87	347.26	27.72	-46.6	-48.1	19.2	0.00e+00	0	45	0	1025507328	65	4132
2026-01-25 08:31:31.84	347.11	27.57	-46.4	-47.8	19.5	0.00e+00	0	45	0	1027604480	64	4238
2026-01-25 08:31:32.82	346.96	27.42	-46.4	-47.9	19.4	0.00e+00	0	45	0	1029701632	64	4274
2026-01-25 08:31:33.79	346.81	27.27	-46.5	-47.9	19.4	0.00e+00	0	45	0	1030750208	64	4287
2026-01-25 08:31:34.78	346.66	27.12	-46.5	-48.0	19.3	0.00e+00	0	45	0	1032847360	64	4304
2026-01-25 08:31:35.75	346.52	26.98	-46.6	-48.1	19.2	0.00e+00	0	45	0	1034944512	64	4366
2026-01-25 08:31:36.73	346.38	26.83	-46.5	-48.0	19.3	0.00e+00	0	45	0	1037041664	64	4300
2026-01-25 08:31:37.71	346.23	26.68	-46.4	-47.8	19.4	0.00e+00	0	45	0	1038090240	64	4236
2026-01-25 08:31:38.69	346.09	26.54	-46.2	-47.7	19.6	0.00e+00	0	45	0	1040187392	64	4166
2026-01-25 08:31:39.67	345.95	26.39	-46.2	-47.6	19.7	0.00e+00	0	45	0	1042284544	64	4119
2026-01-25 08:31:40.65	345.81	26.25	-46.2	-47.7	19.6	0.00e+00	0	45	0	1044381696	64	4150
2026-01-25 08:31:41.62	345.68	26.11	-46.2	-47.7	19.6	0.00e+00	0	45	0	1045430272	64	4152
2026-01-25 08:31:42.60	345.54	25.96	-46.2	-47.6	19.7	0.00e+00	0	45	0	1047527424	64	4129
2026-01-25 08:31:43.57	345.41	25.82	-46.1	-47.5	19.7	0.00e+00	0	45	0	1049624576	64	4087
2026-01-25 08:31:44.55	345.27	25.68	-46.1	-47.5	19.9	0.00e+00	0	45	0	1051721728	63	4309
2026-01-25 08:31:45.53	345.14	25.54	-46.0	-47.3	20.0	0.00e+00	0	45	0	1053818880	63	4228
2026-01-25 08:31:46.50	345.01	25.40	-46.0	-47.3	19.9	0.00e+00	0	45	0	1054867456	63	4235
2026-01-25 08:31:47.48	344.88	25.26	-45.9	-47.3	20.0	0.00e+00	0	45	0	1056964608	63	4207
2026-01-25 08:31:48.46	344.75	25.12	-45.9	-47.3	20.0	0.00e+00	0	45	0	1059061760	63	4224
2026-01-25 08:31:49.43	344.62	24.98	-45.8	-47.1	20.2	0.00e+00	0	45	0	1061158912	63	4145
2026-01-25 08:31:50.41	344.50	24.84	-45.9	-47.2	20.1	0.00e+00	0	45	0	1062207488	63	4183
2026-01-25 08:31:51.39	344.37	24.71	-46.0	-47.3	20.0	0.00e+00	0	45	0	1064304640	63	4237
2026-01-25 08:31:52.36	344.25	24.57	-45.9	-47.3	20.0	0.00e+00	0	45	0	1066401792	63	4207
2026-01-25 08:31:53.34	344.12	24.43	-46.1	-47.5	19.8	0.00e+00	0	45	0	1068498944	63	4314
2026-01-25 08:31:54.32	344.00	24.30	-46.2	-47.6	19.7	0.00e+00	0	45	0	1069547520	63	4382
2026-01-25 08:31:55.30	343.88	24.16	-46.3	-47.8	19.6	0.00e+00	0	45	0	1071644672	63	4456
2026-01-25 08:31:56.28	343.76	24.03	-46.3	-47.8	19.5	0.00e+00	0	45	0	1073741824	63	4467
2026-01-25 08:31:57.26	343.64	23.89	-46.3	-47.7	19.6	0.00e+00	0	45	0	1075838976	63	4429
2026-01-25 08:31:58.24	343.52	23.76	-46.1	-47.6	19.7	0.00e+00	0	45	0	1076887552	63	4349
2026-01-25 08:31:59.22	343.40	23.62	-46.1	-47.5	19.8	0.00e+00	0	45	0	1078984704	63	4307
2026-01-25 08:32:00.19	343.29	23.49	-46.0	-47.4	19.9	0.00e+00	0	45	0	1081081856	63	4260
2026-01-25 08:32:01.17	343.17	23.36	-46.0	-47.4	19.9	0.00e+00	0	45	0	1082130432	63	4280
2026-01-25 08:32:02.15	343.06	23.23	-45.9	-47.3	19.9	0.00e+00	0	45	0	1084227584	63	4234
2026-01-25 08:32:03.13	342.95	23.10	-45.8	-47.1	20.1	0.00e+00	0	45	0	1086324736	63	4140
2026-01-25 08:32:04.11	342.83	22.97	-45.8	-47.2	20.1	0.00e+00	0	44	0	1088421888	63	4175
2026-01-25 08:32:05.09	342.72	22.84	-45.9	-47.2	20.0	0.00e+00	0	45	0	1089470464	63	4186
2026-01-25 08:32:06.07	342.61	22.71	-45.8	-47.2	20.1	0.00e+00	0	45	0	1091567616	63	4159
2026-01-25 08:32:07.05	342.50	22.58	-45.8	-47.2	20.1	0.00e+00	0	45	0	1093664768	63	4157
2026-01-25 08:32:08.02	342.40	22.45	-45.9	-47.3	19.9	0.00e+00	0	45	0	1095761920	63	4230
2026-01-25 08:32:09.00	342.29	22.32	-45.9	-47.3	19.9	0.00e+00	0	45	0	1096810496	63	4235
2026-01-25 08:32:09.98	342.18	22.19	-46.0	-47.4	19.8	0.00e+00	0	45	0	1098907648	63	4275
2026-01-25 08:32:10.96	342.08	22.07	-45.9	-47.3	19.9	0.00e+00	0	45	0	1101004800	63	4231
2026-01-25 08:32:11.94	341.97	21.94	-45.9	-47.3	19.9	0.00e+00	0	45	0	1103101952	63	4223
2026-01-25 08:32:12.92	341.87	21.82	-46.0	-47.4	19.9	0.00e+00	0	45	0	1104150528	63	4252
2026-01-25 08:32:13.90	341.76	21.69	-45.9	-47.3	19.9	0.00e+00	0	45	0	1106247680	63	4209
2026-01-25 08:32:14.88	341.66	21.57	-45.9	-47.3	20.0	0.00e+00	0	45	0	1108344832	63	4196
2026-01-25 08:32:15.85	341.56	21.44	-45.9	-47.3	20.0	0.00e+00	0	45	0	1110441984	63	4194
2026-01-25 08:32:16.83	341.46	21.32	-45.9	-47.3	19.9	0.00e+00	0	45	0	1112539136	63	4195
2026-01-25 08:32:17.81	341.36	21.19	-45.8	-47.2	20.0	0.00e+00	0	45	0	1113587712	63	4173
2026-01-25 08:32:18.79	341.26	21.07	-45.8	-47.1	20.1	0.00e+00	0	45	0	1115684864	63	4123
2026-01-25 08:32:19.76	341.17	20.95	-45.9	-47.3	19.9	0.00e+00	0	45	0	1117782016	63	4198
2026-01-25 08:32:20.74	341.07	20.83	-45.7	-47.1	20.1	0.00e+00	0	45	0	1119879168	63	4103
2026-01-25 08:32:21.71	340.97	20.71	-45.8	-47.1	20.1	0.00e+00	0	45	0	1120927744	63	4143
2026-01-25 08:32:22.69	340.88	20.59	-45.8	-47.1	20.1	0.00e+00	0	45	0	1123024896	63	4128
2026-01-25 08:32:23.67	340.78	20.47	-45.8	-47.1	20.0	0.00e+00	0	45	0	1125122048	63	4142
2026-01-25 08:32:24.65	340.69	20.35	-45.9	-47.3	19.9	0.00e+00	0	45	0	1127219200	63	4236
2026-01-25 08:32:25.63	340.59	20.23	-46.0	-47.3	19.8	0.00e+00	0	45	0	1128267776	63	4242
2026-01-25 08:32:26.61	340.50	20.11	-46.0	-47.4	19.8	0.00e+00	0	45	0	1130364928	63	4274
2026-01-25 08:32:27.58	340.41	19.99	-46.2	-47.6	19.5	0.00e+00	0	45	0	1132462080	63	4388
2026-01-25 08:32:28.56	340.32	19.87	-46.2	-47.7	19.5	0.00e+00	0	45	0	1133510656	63	4414
2026-01-25 08:32:29.54	340.23	19.76	-46.3	-47.7	19.5	0.00e+00	0	45	0	1135607808	63	4438
2026-01-25 08:32:30.52	340.14	19.64	-46.3	-47.7	19.4	0.00e+00	0	45	0	1137704960	63	4433
2026-01-25 08:32:31.49	340.05	19.52	-46.4	-47.9	19.2	0.00e+00	0	45	0	1139802112	63	4543
2026-01-25 08:32:32.47	339.96	19.41	-46.4	-47.9	19.2	0.00e+00	0	45	0	1140850688	63	4534
2026-01-25 08:32:33.45	339.88	19.29	-46.4	-47.9	19.3	0.00e+00	0	45	0	1142947840	63	4523
2026-01-25 08:32:34.43	339.79	19.18	-46.4	-47.9	19.3	0.00e+00	0	45	0	1145044992	63	4526
2026-01-25 08:32:35.41	339.70	19.06	-46.3	-47.8	19.4	0.00e+00	0	45	0	1147142144	63	4454
2026-01-25 08:32:36.38	339.62	18.95	-46.3	-47.8	19.4	0.00e+00	0	45	0	1148190720	63	4457
2026-01-25 08:32:37.36	339.53	18.84	-46.2	-47.7	19.4	0.00e+00	0	45	0	1150287872	63	4416
2026-01-25 08:32:38.34	339.45	18.72	-46.2	-47.7	19.5	0.00e+00	0	45	0	1152385024	63	4397
2026-01-25 08:32:39.32	339.36	18.61	-46.1	-47.6	19.6	0.00e+00	0	45	0	1154482176	63	4352
2026-01-25 08:32:40.30	339.28	18.50	-46.0	-47.5	19.7	0.00e+00	0	45	0	1155530752	63	4296
2026-01-25 08:32:41.28	339.20	18.38	-46.0	-47.4	19.8	0.00e+00	0	45	0	1157627904	63	4255
2026-01-25 08:32:42.26	339.12	18.27	-45.9	-47.3	19.8	0.00e+00	0	45	0	1159725056	63	4229
2026-01-25 08:32:43.24	339.04	18.16	-45.8	-47.2	19.9	0.00e+00	0	45	0	1161822208	63	4186
2026-01-25 08:32:44.22	338.96	18.05	-45.8	-47.1	20.0	0.00e+00	0	44	0	1162870784	63	4130
2026-01-25 08:32:45.20	338.88	17.94	-45.8	-47.1	20.0	0.00e+00	0	45	0	1164967936	63	4142
2026-01-25 08:32:46.18	338.80	17.83	-45.8	-47.2	19.9	0.00e+00	0	45	0	1167065088	63	4153
2026-01-25 08:32:47.16	338.72	17.72	-45.8	-47.2	19.9	7.00e-07	0	45	0	1169162240	63	4158
2026-01-25 08:32:48.14	338.64	17.61	-45.8	-47.2	19.9	0.00e+00	0	45	0	1171259392	63	4158
2026-01-25 08:32:49.12	338.56	17.50	-45.8	-47.2	19.9	0.00e+00	0	45	0	1172307968	63	4167
2026-01-25 08:32:50.10	338.49	17.40	-46.0	-47.4	19.7	0.00e+00	0	44	0	1174405120	63	4259
2026-01-25 08:32:51.08	338.41	17.29	-45.9	-47.3	19.8	0.00e+00	0	45	0	1176502272	63	4211
2026-01-25 08:32:52.05	338.33	17.18	-45.9	-47.3	19.7	0.00e+00	0	45	0	1178599424	63	4239
2026-01-25 08:32:53.03	338.26	17.08	-46.1	-47.5	19.5	0.00e+00	0	45	0	1179648000	63	4337
2026-01-25 08:32:54.01	338.18	16.97	-46.0	-47.5	19.6	0.00e+00	0	45	0	1181745152	63	4301
2026-01-25 08:32:54.99	338.11	16.86	-46.2	-47.7	19.4	0.00e+00	0	44	0	1183842304	63	4414
2026-01-25 08:32:55.96	338.04	16.76	-46.3	-47.8	19.3	0.00e+00	0	45	0	1184890880	63	4459
2026-01-25 08:32:56.94	337.96	16.65	-46.2	-47.7	19.4	0.00e+00	0	45	0	1186988032	63	4411
2026-01-25 08:32:57.92	337.89	16.55	-46.3	-47.8	19.3	0.00e+00	0	45	0	1189085184	63	4451
2026-01-25 08:32:58.90	337.82	16.44	-46.4	-47.9	19.2	0.00e+00	0	45	0	1191182336	63	4517
2026-01-25 08:32:59.87	337.75	16.34	-46.5	-48.1	19.0	0.00e+00	0	45	0	1192230912	63	4611
2026-01-25 08:33:00.85	337.68	16.24	-46.5	-48.0	19.1	0.00e+00	0	45	0	1194328064	63	4591
2026-01-25 08:33:01.83	337.61	16.13	-46.5	-48.1	18.9	0.00e+00	0	45	0	1196425216	63	4637
2026-01-25 08:33:02.81	337.54	16.03	-46.6	-48.2	18.9	0.00e+00	0	45	0	1198522368	63	4675
2026-01-25 08:33:03.79	337.47	15.93	-46.6	-48.2	18.8	0.00e+00	0	45	0	1199570944	63	4703
2026-01-25 08:33:04.76	337.40	15.83	-46.7	-48.4	18.6	0.00e+00	0	45	0	1201668096	64	4504
2026-01-25 08:33:05.74	337.33	15.73	-46.7	-48.3	18.7	0.00e+00	0	45	0	1203765248	64	4468
2026-01-25 08:33:06.72	337.26	15.62	-46.7	-48.3	18.6	0.00e+00	0	45	0	1205862400	64	4489
