passes_logs/2026/01/25/R3.2S_Murmansk/R3.2S_Murmansk__20260125_105617_TY-42_rec.log

#Pass ID: 20260125_105617_TY-42
#Satellite: TY-42
#Configuration: TY-42_900M
#almurnet v.1.7.20251203
#Start time: 2026-01-25 10:56:18

#Version: 2.2.20231116
#Station: R3.2S_Murmansk
#Location: 33.079688 lon 68.888172 lat
#TLE: 1 64048U 25103A   26024.92006944  .00008009  00000-0  38191-3 0 09993
#TLE: 2 64048 097.4112 100.1510 0001739 092.3265 306.2865 15.19163302 38320

#Time	Az	El	Level	Level2	SNR	BER	BlckErr	Temp	State	Recorded	gain1	gain2
2026-01-25 10:56:18.25	23.09	2.05	-52.5	-54.7	6.2	0.00e+00	0	50	0	0	77	17600
2026-01-25 10:56:19.25	23.03	2.12	-52.5	-54.6	6.2	0.00e+00	0	50	104	0	76	18584
2026-01-25 10:56:20.26	22.97	2.19	-52.5	-54.6	6.2	0.00e+00	0	51	104	0	76	18572
2026-01-25 10:56:21.27	22.90	2.25	-52.5	-54.6	6.2	0.00e+00	0	50	104	0	76	18566
2026-01-25 10:56:22.28	22.84	2.32	-52.5	-54.6	6.2	0.00e+00	0	50	104	0	76	18518
2026-01-25 10:56:23.28	22.78	2.39	-52.5	-54.6	6.2	0.00e+00	0	51	104	0	76	18553
2026-01-25 10:56:24.29	22.72	2.45	-52.5	-54.6	6.2	0.00e+00	0	50	104	0	76	18507
2026-01-25 10:56:25.30	22.66	2.52	-52.5	-54.6	6.2	0.00e+00	0	51	104	0	76	18546
2026-01-25 10:56:26.31	22.59	2.59	-52.5	-54.6	6.2	0.00e+00	0	51	104	0	76	18499
2026-01-25 10:56:27.32	22.53	2.66	-52.5	-54.6	6.2	0.00e+00	0	51	104	0	76	18512
2026-01-25 10:56:28.32	22.47	2.72	-52.5	-54.6	6.2	0.00e+00	0	51	104	0	76	18505
2026-01-25 10:56:29.33	22.40	2.79	-52.5	-54.6	6.2	0.00e+00	0	51	104	0	76	18539
2026-01-25 10:56:30.34	22.34	2.86	-52.5	-54.6	6.2	0.00e+00	0	51	104	0	76	18566
2026-01-25 10:56:31.35	22.27	2.93	-52.5	-54.6	6.2	0.00e+00	0	51	104	0	76	18453
2026-01-25 10:56:32.36	22.21	3.00	-52.5	-54.6	6.2	0.00e+00	0	51	104	0	76	18512
2026-01-25 10:56:33.36	22.14	3.07	-52.5	-54.6	6.2	0.00e+00	0	51	104	0	76	18510
2026-01-25 10:56:34.37	22.07	3.14	-52.5	-54.6	6.2	0.00e+00	0	51	104	0	76	18445
2026-01-25 10:56:35.38	22.01	3.21	-52.5	-54.6	6.2	0.00e+00	0	51	104	0	76	18510
2026-01-25 10:56:36.39	21.94	3.28	-52.5	-54.6	6.2	0.00e+00	0	51	104	0	76	18498
2026-01-25 10:56:37.40	21.87	3.35	-52.4	-54.6	6.2	0.00e+00	0	51	104	0	75	19530
2026-01-25 10:56:38.41	21.80	3.42	-52.4	-54.5	6.2	0.00e+00	0	52	104	0	75	19473
2026-01-25 10:56:39.42	21.73	3.49	-52.4	-54.5	6.2	0.00e+00	0	51	104	0	75	19453
2026-01-25 10:56:40.43	21.67	3.56	-52.4	-54.5	6.2	0.00e+00	0	52	104	0	75	19401
2026-01-25 10:56:41.43	21.60	3.63	-52.4	-54.5	6.2	0.00e+00	0	52	104	0	75	19308
2026-01-25 10:56:42.44	21.53	3.70	-52.3	-54.4	6.2	0.00e+00	0	52	104	0	75	19193
2026-01-25 10:56:43.45	21.46	3.77	-52.3	-54.4	6.2	0.00e+00	0	52	104	0	75	19091
2026-01-25 10:56:44.45	21.39	3.84	-52.3	-54.3	6.2	0.00e+00	0	52	104	0	75	18970
2026-01-25 10:56:45.46	21.31	3.91	-52.2	-54.3	6.2	0.00e+00	0	52	104	0	75	18910
2026-01-25 10:56:46.47	21.24	3.98	-52.2	-54.2	6.2	0.00e+00	0	52	104	0	75	18696
2026-01-25 10:56:47.48	21.17	4.05	-52.2	-54.2	6.2	0.00e+00	0	52	104	0	75	18661
2026-01-25 10:56:48.48	21.10	4.13	-52.1	-54.1	6.2	0.00e+00	0	52	104	0	75	18548
2026-01-25 10:56:49.49	21.02	4.20	-52.2	-54.2	6.2	0.00e+00	0	52	104	0	75	18631
2026-01-25 10:56:50.50	20.95	4.27	-52.2	-54.2	6.2	0.00e+00	0	52	104	0	75	18691
2026-01-25 10:56:51.50	20.88	4.34	-52.2	-54.2	6.2	0.00e+00	0	52	104	0	75	18791
2026-01-25 10:56:52.50	20.80	4.42	-52.3	-54.3	6.2	0.00e+00	0	52	104	0	75	18935
2026-01-25 10:56:53.51	20.73	4.49	-52.3	-54.4	6.2	0.00e+00	0	52	104	0	75	19090
2026-01-25 10:56:54.52	20.65	4.56	-52.3	-54.4	6.2	0.00e+00	0	52	104	0	75	19209
2026-01-25 10:56:55.53	20.58	4.64	-52.4	-54.5	6.2	0.00e+00	0	52	104	0	75	19321
2026-01-25 10:56:56.54	20.50	4.71	-52.4	-54.5	6.2	0.00e+00	0	52	104	0	75	19338
2026-01-25 10:56:57.55	20.42	4.78	-52.4	-54.5	6.2	0.00e+00	0	52	104	0	75	19436
2026-01-25 10:56:58.56	20.34	4.86	-52.4	-54.5	6.2	0.00e+00	0	52	104	0	75	19415
2026-01-25 10:56:59.56	20.27	4.93	-52.4	-54.6	6.2	0.00e+00	0	52	104	0	75	19529
2026-01-25 10:57:00.57	20.19	5.01	-52.4	-54.6	6.2	0.00e+00	0	52	104	0	75	19542
2026-01-25 10:57:01.58	20.11	5.08	-52.5	-54.6	6.2	0.00e+00	0	52	104	0	75	19642
2026-01-25 10:57:02.58	20.03	5.16	-52.5	-54.5	6.2	0.00e+00	0	53	104	0	75	19479
2026-01-25 10:57:03.59	19.95	5.23	-52.5	-54.6	6.2	0.00e+00	0	53	104	0	75	19574
2026-01-25 10:57:04.60	19.87	5.31	-52.5	-54.6	6.2	0.00e+00	0	52	104	0	75	19679
2026-01-25 10:57:05.61	19.79	5.38	-52.5	-54.6	6.2	0.00e+00	0	52	104	0	75	19640
2026-01-25 10:57:06.61	19.70	5.46	-48.5	-49.1	7.3	0.00e+00	0	52	104	0	69	14659
2026-01-25 10:57:07.62	19.62	5.54	-44.4	-44.6	9.6	0.00e+00	10917	55	104	0	59	15549
2026-01-25 10:57:08.63	19.54	5.61	-37.9	-37.8	11.1	0.00e+00	3515	53	104	16777216	48	13393
2026-01-25 10:57:09.64	19.45	5.69	-46.4	-46.9	8.6	0.00e+00	10954	55	0	83886080	62	16966
2026-01-25 10:57:10.64	19.37	5.77	-41.8	-41.7	10.3	0.00e+00	381	53	104	83886080	55	13968
2026-01-25 10:57:11.65	19.29	5.84	-36.4	-36.3	13.7	0.00e+00	0	55	0	109051904	44	14218
2026-01-25 10:57:12.66	19.20	5.92	-36.5	-36.4	13.7	0.00e+00	0	55	0	226492416	44	14381
2026-01-25 10:57:13.67	19.11	6.00	-36.5	-36.4	13.7	6.43e-02	0	55	0	343932928	44	14373
2026-01-25 10:57:14.67	19.03	6.08	-36.7	-36.7	13.6	6.43e-02	0	55	0	452984832	44	14802
2026-01-25 10:57:15.68	18.94	6.16	-37.1	-37.0	13.4	4.64e-02	0	55	0	570425344	44	15444
2026-01-25 10:57:16.69	18.85	6.24	-37.1	-37.1	13.4	4.64e-02	0	55	0	679477248	44	15532
2026-01-25 10:57:17.69	18.76	6.31	-36.8	-36.7	13.7	4.64e-02	0	55	0	796917760	45	14017
2026-01-25 10:57:18.70	18.67	6.39	-36.9	-36.9	13.6	5.14e-02	0	55	0	905969664	45	14321
2026-01-25 10:57:19.71	18.58	6.47	-36.3	-36.3	13.9	5.14e-02	0	55	0	1015021568	44	14150
2026-01-25 10:57:20.72	18.49	6.55	-36.3	-36.3	13.9	5.14e-02	0	55	0	1132462080	44	14131
2026-01-25 10:57:21.72	18.40	6.63	-36.3	-36.2	13.9	3.92e-02	0	55	0	1241513984	44	14092
2026-01-25 10:57:22.73	18.31	6.71	-36.2	-36.1	14.0	3.92e-02	0	56	0	1358954496	44	13886
2026-01-25 10:57:23.74	18.22	6.79	-36.2	-36.1	14.0	3.92e-02	0	56	0	1468006400	44	13881
2026-01-25 10:57:24.75	18.13	6.87	-36.1	-36.1	13.9	3.22e-02	0	56	0	1577058304	44	13851
2026-01-25 10:57:25.75	18.03	6.95	-36.1	-36.0	13.9	3.22e-02	0	55	0	1694498816	44	13735
2026-01-25 10:57:26.76	17.94	7.04	-36.1	-36.0	13.9	3.22e-02	0	56	0	1820327936	44	13771
2026-01-25 10:57:27.77	17.84	7.12	-36.1	-36.1	13.9	2.44e-02	0	55	0	1929379840	44	13863
2026-01-25 10:57:28.78	17.75	7.20	-36.0	-36.0	13.9	2.44e-02	0	56	0	2038431744	43	14519
2026-01-25 10:57:29.79	17.65	7.28	-36.0	-36.0	14.0	2.44e-02	0	55	0	2155872256	43	14507
2026-01-25 10:57:30.80	17.55	7.36	-36.0	-36.0	14.0	2.44e-02	0	56	0	2264924160	43	14442
2026-01-25 10:57:31.81	17.45	7.45	-36.0	-35.9	14.1	2.35e-02	0	56	0	2382364672	43	14342
2026-01-25 10:57:32.81	17.36	7.53	-35.9	-35.8	14.2	2.35e-02	0	56	0	2491416576	43	14234
2026-01-25 10:57:33.82	17.26	7.61	-36.0	-35.9	14.1	2.35e-02	0	56	0	2600468480	43	14432
2026-01-25 10:57:34.83	17.16	7.70	-35.7	-35.6	14.3	2.06e-02	0	56	0	2717908992	43	13892
2026-01-25 10:57:35.84	17.06	7.78	-35.7	-35.6	14.3	2.06e-02	0	56	0	2826960896	43	13878
2026-01-25 10:57:36.84	16.95	7.87	-35.7	-35.6	14.3	2.06e-02	0	56	0	2944401408	43	13903
2026-01-25 10:57:37.85	16.85	7.95	-35.7	-35.6	14.3	1.85e-02	0	56	0	3053453312	43	13898
2026-01-25 10:57:38.86	16.75	8.03	-35.7	-35.6	14.3	1.85e-02	0	56	0	3179282432	43	13942
2026-01-25 10:57:39.87	16.64	8.12	-35.4	-35.4	14.4	1.63e-02	0	56	0	3288334336	42	14308
2026-01-25 10:57:40.88	16.54	8.21	-35.5	-35.4	14.4	1.63e-02	0	56	0	3405774848	42	14426
2026-01-25 10:57:41.88	16.44	8.29	-35.4	-35.4	14.4	1.63e-02	0	56	0	3514826752	42	14278
2026-01-25 10:57:42.89	16.33	8.38	-35.2	-35.2	14.5	1.50e-02	0	56	0	3623878656	42	13973
2026-01-25 10:57:43.90	16.22	8.46	-35.3	-35.3	14.4	1.50e-02	0	57	0	3741319168	42	14152
2026-01-25 10:57:44.91	16.11	8.55	-35.3	-35.3	14.5	1.50e-02	0	56	0	3850371072	42	14123
2026-01-25 10:57:45.91	16.01	8.64	-35.4	-35.3	14.4	1.36e-02	0	57	0	3967811584	42	14177
2026-01-25 10:57:46.92	15.90	8.72	-35.3	-35.3	14.5	1.36e-02	0	57	0	4076863488	42	14113
2026-01-25 10:57:47.93	15.79	8.81	-35.3	-35.2	14.5	1.41e-02	0	57	0	4194304000	42	14097
2026-01-25 10:57:48.93	15.67	8.90	-35.5	-35.4	14.4	1.41e-02	0	57	0	4303355904	42	14361
2026-01-25 10:57:49.94	15.56	8.99	-35.5	-35.4	14.4	1.41e-02	0	57	0	4412407808	42	14392
2026-01-25 10:57:50.95	15.45	9.08	-35.2	-35.1	14.6	1.41e-02	0	57	0	4529848320	42	13907
2026-01-25 10:57:51.96	15.34	9.17	-34.9	-34.8	14.7	1.39e-02	0	57	0	4655677440	41	14214
2026-01-25 10:57:52.96	15.22	9.25	-34.9	-34.8	14.7	1.39e-02	0	57	0	4764729344	41	14253
2026-01-25 10:57:53.97	15.11	9.34	-34.8	-34.8	14.7	9.90e-03	0	57	0	4873781248	41	14112
2026-01-25 10:57:54.98	14.99	9.43	-34.9	-34.8	14.7	9.90e-03	0	57	0	4991221760	41	14230
2026-01-25 10:57:55.98	14.87	9.52	-34.7	-34.6	14.8	9.90e-03	0	57	0	5100273664	41	13935
2026-01-25 10:57:56.99	14.75	9.61	-34.0	-34.3	14.9	8.67e-03	0	57	0	5217714176	40	14119
2026-01-25 10:57:58.00	14.63	9.70	-34.5	-34.5	14.8	8.67e-03	0	57	0	5326766080	40	14476
2026-01-25 10:57:59.00	14.52	9.80	-34.6	-34.5	14.8	7.41e-03	0	57	0	5435817984	40	14524
2026-01-25 10:58:00.01	14.39	9.89	-34.7	-34.6	14.8	7.41e-03	0	57	0	5553258496	40	14727
2026-01-25 10:58:01.02	14.27	9.98	-34.5	-34.4	14.8	7.41e-03	0	57	0	5662310400	40	14373
2026-01-25 10:58:02.02	14.15	10.07	-34.3	-34.2	15.0	8.20e-03	0	57	0	5779750912	40	14044
2026-01-25 10:58:03.03	14.02	10.16	-34.4	-34.3	14.9	8.20e-03	0	57	0	5888802816	40	14192
2026-01-25 10:58:04.04	13.90	10.26	-34.3	-34.2	15.0	6.94e-03	0	57	0	5997854720	40	14089
2026-01-25 10:58:05.05	13.77	10.35	-34.1	-34.1	15.0	6.94e-03	0	57	0	6115295232	40	13824
2026-01-25 10:58:06.05	13.65	10.44	-34.2	-34.1	15.0	6.94e-03	0	57	0	6224347136	40	13945
2026-01-25 10:58:07.06	13.52	10.54	-34.2	-34.1	15.0	5.78e-03	0	57	0	6350176256	40	13878
2026-01-25 10:58:08.07	13.39	10.63	-34.1	-34.0	15.1	5.78e-03	0	57	0	6459228160	40	13680
2026-01-25 10:58:09.08	13.26	10.73	-34.0	-33.9	15.1	5.78e-03	0	57	0	6576668672	39	14378
2026-01-25 10:58:10.08	13.13	10.82	-33.9	-33.8	15.2	5.04e-03	0	57	0	6685720576	39	14224
2026-01-25 10:58:11.09	13.00	10.92	-34.0	-33.9	15.1	5.04e-03	0	57	0	6803161088	39	14400
2026-01-25 10:58:12.09	12.86	11.01	-33.8	-33.7	15.3	5.04e-03	0	57	0	6912212992	39	14046
2026-01-25 10:58:13.10	12.73	11.11	-33.8	-33.7	15.2	4.32e-03	0	57	0	7029653504	39	14046
2026-01-25 10:58:14.11	12.59	11.20	-33.8	-33.7	15.3	4.32e-03	0	57	0	7138705408	39	13987
2026-01-25 10:58:15.12	12.46	11.30	-33.7	-33.6	15.3	4.32e-03	0	58	0	7247757312	39	13844
2026-01-25 10:58:16.12	12.32	11.40	-33.8	-33.8	15.2	3.91e-03	0	58	0	7365197824	39	14140
2026-01-25 10:58:17.13	12.18	11.49	-33.5	-33.5	15.4	3.91e-03	0	58	0	7474249728	39	13633
2026-01-25 10:58:18.14	12.04	11.59	-33.5	-33.5	15.3	3.91e-03	0	58	0	7591690240	39	13639
2026-01-25 10:58:19.15	11.90	11.69	-33.7	-33.6	15.3	3.40e-03	0	58	0	7700742144	39	13934
2026-01-25 10:58:20.15	11.76	11.79	-33.4	-33.3	15.4	3.40e-03	0	57	0	7809794048	38	14154
2026-01-25 10:58:21.16	11.61	11.89	-33.4	-33.3	15.4	3.08e-03	0	58	0	7935623168	38	14167
2026-01-25 10:58:22.17	11.47	11.99	-33.5	-33.4	15.4	3.08e-03	0	58	0	8053063680	38	14301
2026-01-25 10:58:23.17	11.32	12.09	-33.3	-33.3	15.5	2.43e-03	0	57	0	8162115584	38	14140
2026-01-25 10:58:24.18	11.18	12.19	-33.2	-33.1	15.5	2.43e-03	0	58	0	8271167488	38	13927
2026-01-25 10:58:25.18	11.03	12.29	-33.2	-33.1	15.5	2.43e-03	0	58	0	8388608000	38	13924
2026-01-25 10:58:26.19	10.88	12.39	-33.3	-33.2	15.5	1.90e-03	0	58	0	8497659904	38	14011
2026-01-25 10:58:27.20	10.73	12.49	-33.1	-33.0	15.6	1.90e-03	0	58	0	8615100416	38	13678
2026-01-25 10:58:28.21	10.57	12.59	-32.8	-32.7	15.7	1.90e-03	0	58	0	8724152320	37	14099
2026-01-25 10:58:29.21	10.42	12.69	-32.8	-32.7	15.7	1.74e-03	0	58	0	8833204224	37	13964
2026-01-25 10:58:30.22	10.27	12.79	-32.8	-32.7	15.7	1.74e-03	0	58	0	8950644736	37	13960
2026-01-25 10:58:31.23	10.11	12.90	-32.9	-32.8	15.7	1.74e-03	0	58	0	9059696640	37	14233
2026-01-25 10:58:32.24	9.95	13.00	-32.9	-32.8	15.7	1.39e-03	0	58	0	9177137152	37	14160
2026-01-25 10:58:33.24	9.79	13.10	-32.7	-32.6	15.7	1.39e-03	0	58	0	9286189056	37	13894
2026-01-25 10:58:34.25	9.63	13.21	-32.8	-32.7	15.7	1.39e-03	0	58	0	9403629568	37	13993
2026-01-25 10:58:35.26	9.47	13.31	-32.6	-32.5	15.8	1.25e-03	0	58	0	9521070080	37	13666
2026-01-25 10:58:36.27	9.31	13.42	-32.4	-32.3	15.8	1.25e-03	0	58	0	9638510592	36	14259
2026-01-25 10:58:37.27	9.14	13.52	-32.6	-32.5	15.8	9.96e-04	0	58	0	9747562496	36	14452
2026-01-25 10:58:38.28	8.98	13.63	-32.5	-32.4	15.9	9.96e-04	0	58	0	9856614400	36	14402
2026-01-25 10:58:39.28	8.81	13.73	-32.3	-32.2	15.9	8.92e-04	0	58	0	9974054912	36	14105
2026-01-25 10:58:40.29	8.64	13.84	-32.2	-32.1	16.0	8.92e-04	0	58	0	10083106816	36	13820
2026-01-25 10:58:41.29	8.47	13.94	-32.2	-32.1	16.0	8.92e-04	0	58	0	10200547328	36	13792
2026-01-25 10:58:42.30	8.30	14.05	-32.1	-32.0	15.9	7.30e-04	0	58	0	10309599232	36	13787
2026-01-25 10:58:43.30	8.13	14.16	-32.2	-32.1	15.9	7.30e-04	0	58	0	10427039744	36	13810
2026-01-25 10:58:44.31	7.96	14.27	-32.1	-32.0	16.0	7.30e-04	0	58	0	10536091648	36	13785
2026-01-25 10:58:45.32	7.78	14.37	-32.1	-32.0	16.0	5.67e-04	0	58	0	10645143552	36	13733
2026-01-25 10:58:46.32	7.60	14.48	-32.1	-32.0	16.0	5.67e-04	0	58	0	10762584064	36	13689
2026-01-25 10:58:47.33	7.42	14.59	-32.1	-32.0	16.0	5.67e-04	0	58	0	10871635968	36	13665
2026-01-25 10:58:48.33	7.24	14.70	-29.6	-29.5	15.6	5.67e-04	0	58	0	10989076480	31	13698
2026-01-25 10:58:49.34	7.06	14.81	-29.5	-29.4	15.7	9.73e-04	0	58	0	11098128384	31	13590
2026-01-25 10:58:50.35	6.87	14.92	-29.5	-29.4	15.7	9.73e-04	0	58	0	11207180288	30	14320
2026-01-25 10:58:51.36	6.69	15.03	-29.4	-29.3	15.7	9.73e-04	0	58	0	11333009408	30	14228
2026-01-25 10:58:52.36	6.50	15.14	-29.4	-29.3	15.7	1.55e-03	0	58	0	11450449920	30	14232
2026-01-25 10:58:53.37	6.31	15.25	-29.5	-29.4	15.7	1.55e-03	0	58	0	11559501824	30	14357
2026-01-25 10:58:54.38	6.12	15.36	-29.3	-29.2	15.9	1.55e-03	0	58	0	11668553728	30	13965
2026-01-25 10:58:55.39	5.93	15.48	-29.3	-29.2	15.8	1.28e-03	0	58	0	11785994240	30	14094
2026-01-25 10:58:56.39	5.74	15.59	-29.3	-29.2	15.8	1.28e-03	0	58	0	11895046144	30	14072
2026-01-25 10:58:57.40	5.54	15.70	-29.3	-29.2	15.9	1.28e-03	0	58	0	12012486656	30	14071
2026-01-25 10:58:58.41	5.34	15.81	-29.2	-29.1	15.9	1.28e-03	0	59	0	12121538560	30	13906
2026-01-25 10:58:59.42	5.14	15.93	-29.2	-29.1	15.9	1.05e-03	0	59	0	12230590464	30	13943
2026-01-25 10:59:00.42	4.94	16.04	-29.1	-29.0	15.9	1.05e-03	0	58	0	12348030976	30	13781
2026-01-25 10:59:01.43	4.74	16.15	-29.3	-29.2	15.9	1.05e-03	0	59	0	12457082880	30	13961
2026-01-25 10:59:02.44	4.53	16.27	-29.2	-29.1	15.9	9.20e-04	0	58	0	12574523392	30	13838
2026-01-25 10:59:03.45	4.32	16.38	-29.2	-29.1	15.9	9.20e-04	0	58	0	12683575296	30	13836
2026-01-25 10:59:04.45	4.12	16.50	-29.0	-28.9	16.0	9.20e-04	0	58	0	12801015808	30	13503
2026-01-25 10:59:05.46	3.90	16.61	-28.9	-28.8	16.0	9.20e-04	0	59	0	12918456320	29	14257
2026-01-25 10:59:06.47	3.69	16.73	-28.9	-28.8	16.0	9.20e-04	0	58	0	13035896832	29	14245
2026-01-25 10:59:07.47	3.48	16.85	-28.9	-28.8	16.0	9.20e-04	0	59	0	13144948736	29	14188
2026-01-25 10:59:08.48	3.26	16.96	-28.9	-28.8	16.0	5.29e-04	0	58	0	13262389248	29	14156
2026-01-25 10:59:09.49	3.04	17.08	-28.8	-28.7	16.1	5.29e-04	0	58	0	13371441152	29	13989
2026-01-25 10:59:10.50	2.82	17.20	-28.7	-28.6	16.1	5.34e-04	0	59	0	13480493056	29	13925
2026-01-25 10:59:11.50	2.60	17.31	-28.7	-28.6	16.1	5.34e-04	0	58	0	13597933568	29	13871
2026-01-25 10:59:12.51	2.37	17.43	-28.7	-28.6	16.1	5.34e-04	0	59	0	13706985472	29	13840
2026-01-25 10:59:13.52	2.15	17.55	-28.7	-28.6	16.1	5.34e-04	0	59	0	13824425984	29	13865
2026-01-25 10:59:14.53	1.92	17.67	-28.8	-28.7	16.1	5.05e-04	0	59	0	13933477888	29	13961
2026-01-25 10:59:15.53	1.69	17.79	-28.5	-28.4	16.2	5.05e-04	0	59	0	14042529792	29	13614
2026-01-25 10:59:16.54	1.45	17.91	-28.5	-28.4	16.2	5.05e-04	0	58	0	14159970304	29	13536
2026-01-25 10:59:17.55	1.22	18.03	-28.4	-28.3	16.2	4.24e-04	0	58	0	14269022208	28	14145
2026-01-25 10:59:18.56	0.98	18.15	-28.4	-28.3	16.2	4.24e-04	0	59	0	14394851328	28	14242
2026-01-25 10:59:19.56	0.74	18.26	-28.3	-28.2	16.2	2.96e-04	0	58	0	14503903232	28	13978
2026-01-25 10:59:20.57	0.50	18.38	-28.2	-28.1	16.2	2.96e-04	0	59	0	14621343744	28	13917
2026-01-25 10:59:21.58	0.25	18.51	-28.3	-28.2	16.2	2.96e-04	0	58	0	14730395648	28	14010
2026-01-25 10:59:22.59	0.01	18.63	-28.3	-28.2	16.2	2.57e-04	0	59	0	14847836160	28	13960
2026-01-25 10:59:23.59	359.76	18.75	-28.0	-28.0	16.3	2.57e-04	0	59	0	14956888064	28	13639
2026-01-25 10:59:24.60	359.51	18.87	-28.0	-27.9	16.3	2.57e-04	0	59	0	15065939968	27	14409
2026-01-25 10:59:25.60	359.26	18.99	-28.0	-27.9	16.3	2.05e-04	0	58	0	15183380480	27	14337
2026-01-25 10:59:26.61	359.00	19.11	-27.9	-27.8	16.3	2.05e-04	0	58	0	15292432384	27	14242
2026-01-25 10:59:27.62	358.74	19.23	-28.0	-27.9	16.3	2.05e-04	0	59	0	15409872896	27	14296
2026-01-25 10:59:28.62	358.48	19.35	-27.8	-27.6	16.4	1.24e-04	0	59	0	15518924800	27	13940
2026-01-25 10:59:29.63	358.22	19.48	-27.8	-27.7	16.4	1.24e-04	0	59	0	15627976704	27	14005
2026-01-25 10:59:30.64	357.95	19.60	-27.8	-27.7	16.3	1.57e-04	0	58	0	15745417216	27	14055
2026-01-25 10:59:31.64	357.69	19.72	-27.7	-27.6	16.4	1.57e-04	0	59	0	15854469120	27	13875
2026-01-25 10:59:32.65	357.42	19.84	-27.6	-27.5	16.4	1.57e-04	0	59	0	15971909632	27	13773
2026-01-25 10:59:33.66	357.14	19.97	-27.6	-27.5	16.4	9.05e-05	0	59	0	16089350144	27	13702
2026-01-25 10:59:34.66	356.87	20.09	-27.7	-27.6	16.4	9.05e-05	0	59	0	16206790656	27	13799
2026-01-25 10:59:35.67	356.59	20.21	-27.6	-27.5	16.4	9.05e-05	0	59	0	16315842560	27	13725
2026-01-25 10:59:36.68	356.31	20.34	-27.5	-27.4	16.4	1.00e-04	0	58	0	16433283072	26	14308
2026-01-25 10:59:37.69	356.02	20.46	-27.4	-27.3	16.4	1.00e-04	0	59	0	16542334976	26	14213
2026-01-25 10:59:38.69	355.74	20.58	-27.4	-27.3	16.4	1.24e-04	0	59	0	16659775488	26	14128
2026-01-25 10:59:39.70	355.45	20.71	-27.4	-27.3	16.4	1.24e-04	0	59	0	16768827392	26	14125
2026-01-25 10:59:40.71	355.16	20.83	-27.2	-27.1	16.4	1.24e-04	0	59	0	16877879296	26	13911
2026-01-25 10:59:41.72	354.86	20.95	-27.3	-27.2	16.5	1.24e-04	0	59	0	16995319808	26	13978
2026-01-25 10:59:42.72	354.57	21.08	-27.3	-27.2	16.4	5.24e-05	0	58	0	17104371712	26	14046
2026-01-25 10:59:43.73	354.27	21.20	-27.2	-27.1	16.5	5.24e-05	0	58	0	17221812224	26	13884
2026-01-25 10:59:44.74	353.97	21.33	-27.2	-27.1	16.5	5.24e-05	0	59	0	17330864128	26	13846
2026-01-25 10:59:45.75	353.66	21.45	-27.2	-27.1	16.5	5.24e-05	0	59	0	17439916032	26	13809
2026-01-25 10:59:46.76	353.35	21.57	-27.2	-27.1	16.5	1.00e-04	0	59	0	17565745152	26	13819
2026-01-25 10:59:47.76	353.04	21.70	-27.1	-27.0	16.5	1.00e-04	0	58	0	17683185664	26	13634
2026-01-25 10:59:48.77	352.73	21.82	-26.9	-26.8	16.6	5.24e-05	0	58	0	17792237568	25	14119
2026-01-25 10:59:49.78	352.41	21.94	-26.9	-26.7	16.6	5.24e-05	0	58	0	17901289472	25	14092
2026-01-25 10:59:50.79	352.09	22.07	-26.9	-26.7	16.6	5.24e-05	0	58	0	18018729984	25	14108
2026-01-25 10:59:51.79	351.77	22.19	-26.8	-26.7	16.6	2.38e-05	0	59	0	18127781888	25	13989
2026-01-25 10:59:52.80	351.45	22.31	-26.7	-26.6	16.6	2.38e-05	0	59	0	18245222400	25	13890
2026-01-25 10:59:53.81	351.12	22.44	-26.7	-26.5	16.6	2.38e-05	0	59	0	18354274304	25	13790
2026-01-25 10:59:54.82	350.79	22.56	-26.5	-26.4	16.7	5.72e-05	0	59	0	18463326208	25	13587
2026-01-25 10:59:55.83	350.45	22.68	-26.6	-26.5	16.6	5.72e-05	0	59	0	18580766720	25	13755
2026-01-25 10:59:56.83	350.12	22.80	-26.4	-26.3	16.6	5.72e-05	0	59	0	18689818624	24	14190
2026-01-25 10:59:57.84	349.78	22.93	-26.5	-26.4	16.6	2.86e-05	0	58	0	18807259136	24	14389
2026-01-25 10:59:58.84	349.44	23.05	-26.5	-26.4	16.6	2.86e-05	0	59	0	18916311040	24	14374
2026-01-25 10:59:59.85	349.09	23.17	-26.4	-26.3	16.6	2.86e-05	0	59	0	19033751552	24	14167
2026-01-25 11:00:00.85	348.75	23.29	-26.6	-26.4	16.6	1.43e-05	0	59	0	19142803456	24	14405
2026-01-25 11:00:01.86	348.39	23.41	-26.4	-26.3	16.6	1.43e-05	0	59	0	19268632576	24	14156
2026-01-25 11:00:02.87	348.04	23.53	-26.3	-26.2	16.7	1.43e-05	0	58	0	19377684480	24	13986
2026-01-25 11:00:03.88	347.68	23.65	-26.3	-26.2	16.7	4.29e-05	0	59	0	19486736384	24	14049
2026-01-25 11:00:04.88	347.32	23.77	-26.3	-26.2	16.7	4.29e-05	0	59	0	19604176896	24	14086
2026-01-25 11:00:05.89	346.95	23.89	-26.4	-26.3	16.7	4.29e-05	0	59	0	19713228800	24	14112
2026-01-25 11:00:06.90	346.59	24.01	-26.1	-26.0	16.7	2.38e-05	0	59	0	19830669312	24	13736
2026-01-25 11:00:07.90	346.22	24.13	-26.2	-26.1	16.7	2.38e-05	0	59	0	19939721216	24	13817
2026-01-25 11:00:08.91	345.84	24.24	-26.3	-26.1	16.7	2.38e-05	0	59	0	20057161728	24	13946
2026-01-25 11:00:09.92	345.47	24.36	-26.1	-26.0	16.7	2.38e-05	0	59	0	20166213632	24	13703
2026-01-25 11:00:10.92	345.09	24.48	-26.2	-26.1	16.7	2.38e-05	0	59	0	20275265536	24	13792
2026-01-25 11:00:11.93	344.71	24.59	-26.1	-26.0	16.7	1.43e-05	0	59	0	20392706048	24	13720
2026-01-25 11:00:12.94	344.32	24.71	-26.2	-26.1	16.7	1.43e-05	0	59	0	20501757952	24	13797
2026-01-25 11:00:13.95	343.93	24.82	-26.1	-25.9	16.7	2.86e-05	0	59	0	20619198464	24	13623
2026-01-25 11:00:14.96	343.53	24.94	-26.0	-25.9	16.8	2.86e-05	0	59	0	20736638976	24	13573
2026-01-25 11:00:15.96	343.14	25.05	-26.1	-26.0	16.7	2.86e-05	0	59	0	20854079488	24	13660
2026-01-25 11:00:16.97	342.74	25.16	-26.1	-26.0	16.7	2.38e-05	0	59	0	20963131392	24	13683
2026-01-25 11:00:17.98	342.34	25.27	-26.0	-25.9	16.7	2.38e-05	0	59	0	21080571904	24	13590
2026-01-25 11:00:18.99	341.93	25.38	-26.0	-25.9	16.7	2.38e-05	0	59	0	21189623808	24	13608
2026-01-25 11:00:19.99	341.53	25.49	-26.0	-25.8	16.7	2.38e-05	0	59	0	21298675712	23	14263
2026-01-25 11:00:21.00	341.11	25.60	-25.9	-25.8	16.7	2.86e-05	0	59	0	21416116224	23	14152
2026-01-25 11:00:22.01	340.70	25.71	-25.9	-25.8	16.7	2.86e-05	0	59	0	21525168128	23	14223
2026-01-25 11:00:23.02	340.28	25.82	-25.9	-25.7	16.8	3.33e-05	0	59	0	21642608640	23	14087
2026-01-25 11:00:24.02	339.86	25.92	-25.8	-25.7	16.7	3.33e-05	0	59	0	21751660544	23	14041
2026-01-25 11:00:25.02	339.44	26.02	-25.8	-25.7	16.7	3.33e-05	0	59	0	21860712448	23	13972
2026-01-25 11:00:26.03	339.01	26.13	-25.7	-25.6	16.8	3.33e-05	0	59	0	21978152960	23	13822
2026-01-25 11:00:27.04	338.58	26.23	-25.7	-25.6	16.8	9.50e-06	0	59	0	22087204864	23	13869
2026-01-25 11:00:28.05	338.15	26.33	-25.7	-25.6	16.8	9.50e-06	0	59	0	22204645376	23	13907
2026-01-25 11:00:29.06	337.71	26.43	-25.6	-25.5	16.8	9.50e-06	0	59	0	22322085888	23	13658
2026-01-25 11:00:30.06	337.27	26.53	-25.6	-25.5	16.8	9.50e-06	0	59	0	22439526400	23	13684
2026-01-25 11:00:31.07	336.83	26.63	-25.7	-25.6	16.8	9.50e-06	0	59	0	22548578304	23	13820
2026-01-25 11:00:32.08	336.39	26.72	-25.4	-25.3	16.8	4.70e-06	0	59	0	22666018816	22	14178
2026-01-25 11:00:33.08	335.94	26.82	-25.4	-25.3	16.8	4.70e-06	0	59	0	22775070720	22	14239
2026-01-25 11:00:34.09	335.49	26.91	-25.4	-25.3	16.8	4.70e-06	0	59	0	22892511232	22	14207
2026-01-25 11:00:35.09	335.04	27.00	-25.5	-25.4	16.8	9.50e-06	0	59	0	23001563136	22	14336
2026-01-25 11:00:36.10	334.58	27.09	-25.5	-25.4	16.7	9.50e-06	0	59	0	23110615040	22	14383
2026-01-25 11:00:37.11	334.12	27.18	-25.3	-25.2	16.8	9.50e-06	0	59	0	23228055552	22	14013
2026-01-25 11:00:38.11	333.66	27.27	-25.4	-25.3	16.7	4.70e-06	0	59	0	23337107456	22	14139
2026-01-25 11:00:39.12	333.19	27.35	-25.3	-25.1	16.7	4.70e-06	0	59	0	23454547968	22	13935
2026-01-25 11:00:40.12	332.73	27.44	-25.2	-25.1	16.7	4.70e-06	0	59	0	23563599872	22	13826
2026-01-25 11:00:41.12	332.26	27.52	-25.2	-25.1	16.7	1.43e-05	0	59	0	23672651776	22	13922
2026-01-25 11:00:42.13	331.79	27.60	-25.2	-25.1	16.7	1.43e-05	0	59	0	23790092288	22	13833
2026-01-25 11:00:43.14	331.31	27.68	-25.2	-25.1	16.7	1.43e-05	0	59	0	23899144192	22	13886
2026-01-25 11:00:44.15	330.83	27.76	-25.3	-25.2	16.7	4.70e-06	0	59	0	24016584704	22	13972
2026-01-25 11:00:45.15	330.35	27.83	-25.2	-25.1	16.7	4.70e-06	0	59	0	24125636608	22	13892
2026-01-25 11:00:46.16	329.87	27.90	-25.2	-25.0	16.7	4.70e-06	0	59	0	24251465728	22	13784
2026-01-25 11:00:47.16	329.38	27.98	-25.1	-25.0	16.7	4.70e-06	0	59	0	24360517632	22	13702
2026-01-25 11:00:48.17	328.89	28.05	-25.1	-25.0	16.7	4.70e-06	0	59	0	24477958144	22	13744
2026-01-25 11:00:49.18	328.40	28.11	-25.2	-25.1	16.7	4.70e-06	0	59	0	24587010048	22	13821
2026-01-25 11:00:50.19	327.91	28.18	-25.2	-25.1	16.7	4.70e-06	0	59	0	24696061952	22	13804
2026-01-25 11:00:51.20	327.41	28.24	-25.1	-25.0	16.7	4.70e-06	0	59	0	24813502464	22	13654
2026-01-25 11:00:52.20	326.92	28.30	-25.1	-25.0	16.7	4.70e-06	0	59	0	24922554368	22	13737
2026-01-25 11:00:53.21	326.42	28.36	-25.1	-25.0	16.7	4.70e-06	0	59	0	25039994880	22	13711
2026-01-25 11:00:54.22	325.91	28.42	-25.1	-25.0	16.7	9.50e-06	0	59	0	25149046784	22	13683
2026-01-25 11:00:55.22	325.41	28.48	-25.1	-24.9	16.7	9.50e-06	0	59	0	25258098688	22	13631
2026-01-25 11:00:56.23	324.91	28.53	-25.1	-25.0	16.6	9.50e-06	0	59	0	25375539200	22	13714
2026-01-25 11:00:57.23	324.41	28.58	-25.1	-25.0	16.6	0.00e+00	0	59	0	25484591104	22	13766
2026-01-25 11:00:58.24	323.90	28.63	-25.2	-25.1	16.6	0.00e+00	0	59	0	25602031616	22	13833
2026-01-25 11:00:59.25	323.38	28.68	-25.1	-25.0	16.6	0.00e+00	0	59	0	25711083520	22	13708
2026-01-25 11:01:00.26	322.87	28.72	-25.1	-25.0	16.6	4.70e-06	0	59	0	25836912640	22	13706
2026-01-25 11:01:01.26	322.36	28.76	-25.2	-25.1	16.6	4.70e-06	0	59	0	25945964544	22	13840
2026-01-25 11:01:02.27	321.84	28.80	-25.0	-24.9	16.6	4.70e-06	0	59	0	26063405056	22	13594
2026-01-25 11:01:03.28	321.33	28.84	-25.2	-25.1	16.5	2.86e-05	0	59	0	26172456960	22	13882
2026-01-25 11:01:04.29	320.81	28.88	-25.1	-25.0	16.5	2.86e-05	0	59	0	26289897472	22	13704
2026-01-25 11:01:05.29	320.29	28.91	-25.1	-25.0	16.5	2.86e-05	0	59	0	26398949376	22	13652
2026-01-25 11:01:06.30	319.77	28.94	-25.2	-25.1	16.5	1.43e-05	0	59	0	26508001280	22	13811
2026-01-25 11:01:07.31	319.25	28.97	-25.1	-25.0	16.5	1.43e-05	0	58	0	26625441792	22	13743
2026-01-25 11:01:08.32	318.73	28.99	-25.1	-25.0	16.5	9.50e-06	0	59	0	26734493696	22	13673
2026-01-25 11:01:09.32	318.21	29.01	-25.2	-25.1	16.5	9.50e-06	0	59	0	26851934208	22	13805
2026-01-25 11:01:10.33	317.68	29.03	-25.0	-24.9	16.5	1.43e-05	0	59	0	26960986112	22	13517
2026-01-25 11:01:11.34	317.16	29.05	-25.0	-24.9	16.5	1.43e-05	0	59	0	27070038016	22	13537
2026-01-25 11:01:12.34	316.63	29.07	-25.1	-25.0	16.5	1.43e-05	0	59	0	27187478528	22	13710
2026-01-25 11:01:13.35	316.11	29.08	-25.0	-24.9	16.5	1.43e-05	0	59	0	27296530432	22	13544
2026-01-25 11:01:14.36	315.58	29.09	-25.1	-24.9	16.6	1.43e-05	0	59	0	27422359552	22	13627
2026-01-25 11:01:15.36	315.06	29.10	-25.0	-24.9	16.6	4.70e-06	0	59	0	27531411456	22	13499
2026-01-25 11:01:16.37	314.53	29.11	-25.1	-25.0	16.5	4.70e-06	0	59	0	27648851968	22	13684
2026-01-25 11:01:17.38	314.00	29.11	-25.2	-25.1	16.6	4.70e-06	0	59	0	27757903872	22	13862
2026-01-25 11:01:18.39	313.47	29.11	-25.1	-25.0	16.6	4.70e-06	0	59	0	27875344384	22	13645
2026-01-25 11:01:19.40	312.95	29.11	-25.0	-24.9	16.6	4.70e-06	0	59	0	27984396288	21	14292
2026-01-25 11:01:20.40	312.42	29.10	-25.0	-24.9	16.6	9.50e-06	0	59	0	28093448192	21	14286
2026-01-25 11:01:21.41	311.90	29.10	-24.9	-24.8	16.6	9.50e-06	0	59	0	28210888704	21	14237
2026-01-25 11:01:22.41	311.37	29.09	-24.9	-24.8	16.6	9.50e-06	0	59	0	28319940608	21	14185
2026-01-25 11:01:23.42	310.85	29.07	-24.9	-24.8	16.6	1.43e-05	0	59	0	28437381120	21	14233
2026-01-25 11:01:24.43	310.32	29.06	-24.9	-24.8	16.6	1.43e-05	0	59	0	28546433024	21	14252
2026-01-25 11:01:25.44	309.79	29.04	-25.0	-24.8	16.6	9.50e-06	0	58	0	28655484928	21	14271
2026-01-25 11:01:26.45	309.27	29.02	-25.0	-24.9	16.6	9.50e-06	0	59	0	28772925440	21	14338
2026-01-25 11:01:27.46	308.74	29.00	-25.0	-24.9	16.6	9.50e-06	0	58	0	28898754560	21	14311
2026-01-25 11:01:28.46	308.22	28.98	-25.0	-24.9	16.6	9.50e-06	0	59	0	29007806464	21	14384
2026-01-25 11:01:29.47	307.70	28.95	-24.9	-24.8	16.6	9.50e-06	0	58	0	29116858368	21	14236
2026-01-25 11:01:30.48	307.18	28.92	-24.9	-24.8	16.6	9.50e-06	0	59	0	29234298880	21	14270
2026-01-25 11:01:31.49	306.66	28.89	-25.0	-24.9	16.6	9.50e-06	0	58	0	29343350784	21	14334
2026-01-25 11:01:32.50	306.14	28.85	-25.0	-24.9	16.6	1.43e-05	0	58	0	29460791296	21	14396
2026-01-25 11:01:33.51	305.62	28.82	-25.0	-24.9	16.6	1.43e-05	0	59	0	29569843200	21	14319
2026-01-25 11:01:34.51	305.11	28.78	-24.9	-24.8	16.6	1.43e-05	0	59	0	29687283712	21	14265
2026-01-25 11:01:35.52	304.59	28.74	-25.0	-24.9	16.6	0.00e+00	0	59	0	29796335616	21	14301
2026-01-25 11:01:36.53	304.08	28.69	-24.9	-24.8	16.5	0.00e+00	0	58	0	29905387520	21	14272
2026-01-25 11:01:37.54	303.56	28.65	-25.1	-25.0	16.5	0.00e+00	0	59	0	30022828032	21	14486
2026-01-25 11:01:38.54	303.06	28.60	-25.0	-24.9	16.5	0.00e+00	0	59	0	30131879936	21	14353
2026-01-25 11:01:39.55	302.55	28.55	-25.0	-24.9	16.7	0.00e+00	0	58	0	30249320448	21	14382
2026-01-25 11:01:40.56	302.04	28.50	-25.0	-24.9	16.7	0.00e+00	0	59	0	30366760960	21	14341
2026-01-25 11:01:41.56	301.54	28.44	-25.0	-24.9	16.6	4.70e-06	0	59	0	30484201472	21	14409
2026-01-25 11:01:42.57	301.04	28.39	-25.1	-25.0	16.6	4.70e-06	0	59	0	30593253376	21	14498
2026-01-25 11:01:43.57	300.54	28.33	-25.0	-24.9	16.6	4.70e-06	0	59	0	30710693888	21	14362
2026-01-25 11:01:44.58	300.04	28.27	-25.0	-24.9	16.6	9.50e-06	0	59	0	30819745792	21	14427
2026-01-25 11:01:45.58	299.55	28.20	-25.1	-25.0	16.7	9.50e-06	0	59	0	30928797696	21	14475
2026-01-25 11:01:46.58	299.05	28.14	-25.1	-25.0	16.7	9.50e-06	0	58	0	31046238208	21	14563
2026-01-25 11:01:47.59	298.56	28.07	-25.2	-25.1	16.6	4.70e-06	0	59	0	31155290112	21	14754
2026-01-25 11:01:48.59	298.07	28.00	-25.2	-25.1	16.6	4.70e-06	0	59	0	31272730624	21	14761
2026-01-25 11:01:49.60	297.59	27.93	-25.2	-25.1	16.6	4.70e-06	0	58	0	31381782528	21	14762
2026-01-25 11:01:50.60	297.10	27.86	-25.2	-25.0	16.7	4.70e-06	0	59	0	31490834432	21	14606
2026-01-25 11:01:51.61	296.62	27.79	-25.3	-25.2	16.6	4.70e-06	0	59	0	31608274944	21	14815
2026-01-25 11:01:52.62	296.14	27.71	-25.3	-25.2	16.7	4.70e-06	0	59	0	31717326848	21	14836
2026-01-25 11:01:53.63	295.66	27.63	-25.2	-25.1	16.7	1.43e-05	0	59	0	31834767360	21	14709
2026-01-25 11:01:54.63	295.19	27.55	-25.3	-25.1	16.6	1.43e-05	0	58	0	31943819264	21	14776
2026-01-25 11:01:55.64	294.71	27.47	-25.3	-25.2	16.6	1.43e-05	0	58	0	32061259776	21	14820
2026-01-25 11:01:56.65	294.24	27.39	-25.3	-25.2	16.6	1.43e-05	0	58	0	32170311680	21	14872
2026-01-25 11:01:57.66	293.77	27.30	-25.4	-25.3	16.6	1.43e-05	0	59	0	32296140800	21	14978
2026-01-25 11:01:58.66	293.31	27.21	-25.3	-25.2	16.6	1.43e-05	0	58	0	32405192704	21	14848
2026-01-25 11:01:59.67	292.85	27.13	-25.4	-25.3	16.6	4.70e-06	0	58	0	32514244608	21	14974
2026-01-25 11:02:00.68	292.39	27.04	-25.4	-25.3	16.7	4.70e-06	0	58	0	32631685120	21	15066
2026-01-25 11:02:01.69	291.93	26.94	-25.5	-25.4	16.6	4.70e-06	0	58	0	32740737024	21	15187
2026-01-25 11:02:02.69	291.48	26.85	-25.5	-25.4	16.6	4.70e-06	0	58	0	32858177536	21	15185
2026-01-25 11:02:03.70	291.03	26.76	-25.4	-25.3	16.6	1.43e-05	0	59	0	32967229440	21	14948
2026-01-25 11:02:04.71	290.58	26.66	-25.5	-25.4	16.6	1.43e-05	0	58	0	33084669952	21	15178
2026-01-25 11:02:05.72	290.14	26.56	-25.5	-25.4	16.6	1.43e-05	0	58	0	33193721856	21	15160
2026-01-25 11:02:06.73	289.69	26.46	-25.4	-25.3	16.7	9.50e-06	0	58	0	33302773760	21	15088
2026-01-25 11:02:07.74	289.25	26.37	-25.4	-25.3	16.7	9.50e-06	0	59	0	33420214272	21	15063
2026-01-25 11:02:08.74	288.82	26.26	-25.6	-25.5	16.7	9.50e-06	0	59	0	33529266176	21	15303
2026-01-25 11:02:09.75	288.39	26.16	-25.4	-25.3	16.7	1.43e-05	0	59	0	33646706688	21	15027
2026-01-25 11:02:10.76	287.96	26.06	-25.5	-25.4	16.7	1.43e-05	0	58	0	33764147200	21	15203
2026-01-25 11:02:11.76	287.53	25.96	-25.5	-25.4	16.7	9.50e-06	0	59	0	33881587712	21	15263
2026-01-25 11:02:12.77	287.11	25.85	-25.5	-25.4	16.7	9.50e-06	0	59	0	33990639616	21	15224
2026-01-25 11:02:13.78	286.69	25.74	-25.6	-25.5	16.7	9.50e-06	0	58	0	34108080128	21	15339
2026-01-25 11:02:14.79	286.27	25.64	-25.6	-25.5	16.7	4.70e-06	0	59	0	34217132032	21	15353
2026-01-25 11:02:15.80	285.86	25.53	-25.7	-25.6	16.7	4.70e-06	0	58	0	34326183936	21	15525
2026-01-25 11:02:16.80	285.45	25.42	-25.6	-25.5	16.7	4.70e-06	0	58	0	34443624448	21	15432
2026-01-25 11:02:17.81	285.04	25.31	-25.6	-25.5	16.7	4.70e-06	0	58	0	34552676352	21	15437
2026-01-25 11:02:18.82	284.64	25.20	-25.8	-25.7	16.7	3.81e-05	0	58	0	34670116864	22	14806
2026-01-25 11:02:19.82	284.24	25.08	-25.7	-25.6	16.8	3.81e-05	0	58	0	34779168768	22	14657
2026-01-25 11:02:20.83	283.84	24.97	-25.9	-25.8	16.8	3.81e-05	0	59	0	34888220672	22	14954
2026-01-25 11:02:21.84	283.44	24.86	-25.9	-25.8	16.8	0.00e+00	0	58	0	35005661184	22	14980
2026-01-25 11:02:22.85	283.05	24.74	-25.9	-25.7	16.8	0.00e+00	0	58	0	35114713088	22	14946
2026-01-25 11:02:23.86	282.66	24.63	-25.9	-25.8	16.8	0.00e+00	0	58	0	35240542208	22	15019
2026-01-25 11:02:24.86	282.28	24.51	-25.9	-25.8	16.7	0.00e+00	0	58	0	35349594112	22	15051
2026-01-25 11:02:25.87	281.90	24.39	-25.9	-25.8	16.8	1.90e-05	0	58	0	35467034624	22	15071
2026-01-25 11:02:26.88	281.52	24.28	-25.9	-25.8	16.8	1.90e-05	0	58	0	35576086528	22	15091
2026-01-25 11:02:27.89	281.14	24.16	-26.0	-25.9	16.8	1.90e-05	0	58	0	35693527040	22	15186
2026-01-25 11:02:28.90	280.76	24.04	-26.0	-25.9	16.8	9.50e-06	0	58	0	35802578944	22	15232
2026-01-25 11:02:29.90	280.40	23.92	-26.1	-26.0	16.7	9.50e-06	0	58	0	35911630848	22	15362
2026-01-25 11:02:30.91	280.03	23.80	-26.1	-26.0	16.7	9.50e-06	0	58	0	36029071360	22	15397
2026-01-25 11:02:31.92	279.67	23.68	-26.2	-26.1	16.7	0.00e+00	0	59	0	36138123264	22	15498
2026-01-25 11:02:32.93	279.31	23.56	-26.1	-26.0	16.7	0.00e+00	0	58	0	36255563776	22	15387
2026-01-25 11:02:33.93	278.95	23.44	-26.2	-26.1	16.8	0.00e+00	0	58	0	36364615680	23	14708
2026-01-25 11:02:34.94	278.60	23.32	-26.2	-26.1	16.8	5.72e-05	0	58	0	36482056192	23	14734
2026-01-25 11:02:35.95	278.24	23.20	-26.3	-26.2	16.8	5.72e-05	0	59	0	36591108096	23	14814
2026-01-25 11:02:36.96	277.90	23.08	-26.4	-26.3	16.7	5.72e-05	0	58	0	36716937216	23	15078
2026-01-25 11:02:37.96	277.55	22.96	-26.4	-26.3	16.7	2.86e-05	0	58	0	36825989120	23	15075
2026-01-25 11:02:38.97	277.21	22.83	-26.5	-26.4	16.7	2.86e-05	0	58	0	36943429632	23	15166
2026-01-25 11:02:39.98	276.87	22.71	-26.6	-26.5	16.7	2.86e-05	0	59	0	37052481536	23	15360
2026-01-25 11:02:40.99	276.53	22.59	-26.5	-26.4	16.8	1.90e-05	0	58	0	37161533440	23	15251
2026-01-25 11:02:42.00	276.20	22.46	-26.6	-26.5	16.7	1.90e-05	0	58	0	37278973952	23	15336
2026-01-25 11:02:43.00	275.87	22.34	-26.7	-26.6	16.7	1.90e-05	0	58	0	37388025856	23	15505
2026-01-25 11:02:44.01	275.54	22.22	-26.6	-26.6	16.7	2.86e-05	0	59	0	37505466368	23	15474
2026-01-25 11:02:45.02	275.22	22.09	-26.8	-26.7	16.5	2.86e-05	0	59	0	37614518272	24	14809
2026-01-25 11:02:46.02	274.90	21.97	-26.9	-26.8	16.4	5.24e-05	0	59	0	37723570176	24	14948
2026-01-25 11:02:47.03	274.58	21.85	-26.8	-26.7	16.5	5.24e-05	0	59	0	37841010688	24	14841
2026-01-25 11:02:48.04	274.27	21.72	-26.8	-26.7	16.4	5.24e-05	0	59	0	37950062592	24	14942
2026-01-25 11:02:49.05	273.95	21.60	-26.8	-26.7	16.4	5.24e-05	0	59	0	38067503104	24	14922
2026-01-25 11:02:50.06	273.64	21.47	-26.9	-26.8	16.4	7.15e-05	0	59	0	38184943616	24	15054
2026-01-25 11:02:51.06	273.34	21.35	-27.0	-26.9	16.4	7.15e-05	0	59	0	38302384128	24	15153
2026-01-25 11:02:52.07	273.03	21.23	-27.2	-27.1	16.4	7.15e-05	0	59	0	38411436032	24	15497
2026-01-25 11:02:53.08	272.73	21.10	-27.3	-27.2	16.4	6.67e-05	0	59	0	38528876544	25	14880
2026-01-25 11:02:54.08	272.43	20.98	-53.9	-56.1	6.2	6.67e-05	0	58	104	38562430976	78	19700
2026-01-25 11:02:55.09	272.14	20.85	-53.9	-56.1	6.2	6.67e-05	0	57	104	38562430976	78	19482
2026-01-25 11:02:56.10	271.84	20.73	-53.9	-56.0	6.2	6.67e-05	0	57	104	38562430976	78	19431
2026-01-25 11:02:57.11	271.55	20.60	-53.9	-56.0	6.2	6.67e-05	0	57	104	38562430976	78	19454
2026-01-25 11:02:58.12	271.26	20.48	-53.9	-56.0	6.2	6.67e-05	0	57	104	38562430976	78	19394
2026-01-25 11:02:59.12	270.98	20.36	-53.9	-56.0	6.2	6.67e-05	0	57	104	38562430976	78	19381
2026-01-25 11:03:00.13	270.70	20.23	-53.9	-56.0	6.2	6.67e-05	0	57	104	38562430976	78	19356
2026-01-25 11:03:01.14	270.42	20.11	-53.8	-56.0	6.2	6.67e-05	0	57	104	38562430976	78	19335
2026-01-25 11:03:02.15	270.14	19.99	-53.9	-56.0	6.2	6.67e-05	0	57	104	38562430976	78	19316
2026-01-25 11:03:03.16	269.86	19.86	-53.8	-56.0	6.2	6.67e-05	0	57	104	38562430976	78	19331
2026-01-25 11:03:04.16	269.59	19.74	-53.8	-56.0	6.2	6.67e-05	0	57	104	38562430976	78	19306
2026-01-25 11:03:05.17	269.32	19.62	-53.8	-56.0	6.2	6.67e-05	0	57	104	38562430976	78	19333
2026-01-25 11:03:06.18	269.05	19.49	-53.8	-56.0	6.2	1.90e-05	0	57	104	38562430976	78	19276
2026-01-25 11:03:07.18	268.79	19.37	-53.8	-56.0	6.2	1.90e-05	0	57	104	38562430976	78	19291
2026-01-25 11:03:08.19	268.53	19.25	-53.8	-55.9	6.2	1.90e-05	0	57	104	38562430976	78	19220
2026-01-25 11:03:09.20	268.27	19.12	-53.8	-55.9	6.2	1.90e-05	0	57	104	38562430976	78	19244
2026-01-25 11:03:10.21	268.01	19.00	-53.8	-55.9	6.2	1.90e-05	0	57	104	38562430976	78	19218
2026-01-25 11:03:11.22	267.75	18.88	-53.8	-55.9	6.2	1.90e-05	0	57	104	38562430976	78	19211
2026-01-25 11:03:12.22	267.50	18.76	-53.8	-55.9	6.2	1.90e-05	0	57	104	38562430976	78	19234
2026-01-25 11:03:13.23	267.25	18.64	-53.8	-55.9	6.2	1.90e-05	0	57	104	38562430976	78	19229
2026-01-25 11:03:14.24	267.00	18.52	-53.8	-55.9	6.2	1.90e-05	0	57	104	38562430976	78	19192
2026-01-25 11:03:15.24	266.76	18.40	-53.8	-55.9	6.2	1.90e-05	0	57	104	38562430976	78	19192
2026-01-25 11:03:16.25	266.51	18.27	-53.8	-55.9	6.2	1.90e-05	0	57	104	38562430976	78	19139
2026-01-25 11:03:17.26	266.27	18.15	-53.8	-55.9	6.2	1.90e-05	0	56	104	38562430976	78	19109
2026-01-25 11:03:18.27	266.03	18.03	-53.8	-55.9	6.2	1.90e-05	0	57	104	38562430976	78	19105
2026-01-25 11:03:19.27	265.80	17.91	-53.7	-55.9	6.2	1.90e-05	0	56	104	38562430976	78	19064
2026-01-25 11:03:20.28	265.56	17.79	-53.7	-55.9	6.2	1.90e-05	0	57	104	38562430976	78	19046
2026-01-25 11:03:21.29	265.33	17.67	-53.7	-55.9	6.2	1.90e-05	0	56	104	38562430976	78	19094
2026-01-25 11:03:22.30	265.10	17.56	-53.7	-55.9	6.2	1.90e-05	0	56	104	38562430976	78	19047
2026-01-25 11:03:23.30	264.87	17.44	-53.7	-55.8	6.2	1.90e-05	0	56	104	38562430976	78	18996
2026-01-25 11:03:24.31	264.64	17.32	-53.7	-55.8	6.2	0.00e+00	0	56	104	38562430976	78	18972
2026-01-25 11:03:25.32	264.42	17.20	-53.7	-55.8	6.2	0.00e+00	0	56	104	38562430976	78	18968
2026-01-25 11:03:26.32	264.20	17.08	-53.7	-55.8	6.2	0.00e+00	0	56	104	38562430976	78	18973
2026-01-25 11:03:27.33	263.98	16.97	-53.7	-55.8	6.2	0.00e+00	0	56	104	38562430976	78	18924
2026-01-25 11:03:28.34	263.76	16.85	-53.7	-55.8	6.2	0.00e+00	0	56	104	38562430976	78	18956
2026-01-25 11:03:29.35	263.54	16.73	-53.6	-55.8	6.2	0.00e+00	0	56	104	38562430976	78	18945
2026-01-25 11:03:30.36	263.33	16.62	-53.7	-55.8	6.2	0.00e+00	0	56	104	38562430976	78	19003
2026-01-25 11:03:31.36	263.12	16.50	-53.6	-55.8	6.2	0.00e+00	0	56	104	38562430976	78	18901
2026-01-25 11:03:32.37	262.91	16.38	-53.6	-55.8	6.2	0.00e+00	0	56	104	38562430976	78	18891
2026-01-25 11:03:33.38	262.70	16.27	-53.6	-55.8	6.2	0.00e+00	0	56	104	38562430976	78	18826
2026-01-25 11:03:34.38	262.49	16.15	-53.6	-55.8	6.2	0.00e+00	0	56	104	38562430976	78	18857
2026-01-25 11:03:35.39	262.29	16.04	-53.6	-55.8	6.2	0.00e+00	0	56	104	38562430976	78	18840
2026-01-25 11:03:36.40	262.08	15.92	-53.6	-55.8	6.2	0.00e+00	0	56	104	38562430976	78	18834
2026-01-25 11:03:37.41	261.88	15.81	-53.6	-55.8	6.2	0.00e+00	0	56	104	38562430976	78	18826
2026-01-25 11:03:38.41	261.68	15.70	-53.6	-55.7	6.2	0.00e+00	0	56	104	38562430976	78	18798
2026-01-25 11:03:39.42	261.48	15.58	-53.6	-55.7	6.2	0.00e+00	0	56	104	38562430976	78	18765
2026-01-25 11:03:40.43	261.29	15.47	-53.6	-55.7	6.2	0.00e+00	0	56	104	38562430976	78	18767
2026-01-25 11:03:41.43	261.10	15.36	-53.6	-55.7	6.2	0.00e+00	0	56	104	38562430976	78	18746
2026-01-25 11:03:42.44	260.90	15.25	-53.6	-55.7	6.2	0.00e+00	0	56	104	38562430976	78	18787
2026-01-25 11:03:43.45	260.71	15.14	-53.6	-55.7	6.2	0.00e+00	0	56	104	38562430976	78	18773
2026-01-25 11:03:44.45	260.52	15.03	-53.6	-55.7	6.2	0.00e+00	0	56	104	38562430976	78	18708
2026-01-25 11:03:45.46	260.34	14.91	-53.6	-55.7	6.2	0.00e+00	0	56	104	38562430976	78	18720
2026-01-25 11:03:46.47	260.15	14.80	-53.6	-55.7	6.2	0.00e+00	0	56	104	38562430976	78	18763
2026-01-25 11:03:47.48	259.97	14.69	-53.5	-55.7	6.2	0.00e+00	0	56	104	38562430976	78	18669
2026-01-25 11:03:48.48	259.79	14.58	-53.5	-55.7	6.2	0.00e+00	0	56	104	38562430976	78	18675
2026-01-25 11:03:49.48	259.61	14.48	-53.6	-55.7	6.2	0.00e+00	0	56	104	38562430976	78	18698
2026-01-25 11:03:50.49	259.43	14.37	-53.6	-55.7	6.2	0.00e+00	0	56	104	38562430976	78	18741
2026-01-25 11:03:51.49	259.25	14.26	-53.5	-55.7	6.2	0.00e+00	0	56	104	38562430976	78	18650
2026-01-25 11:03:52.50	259.07	14.15	-53.5	-55.7	6.2	0.00e+00	0	56	104	38562430976	78	18621
2026-01-25 11:03:53.50	258.90	14.04	-53.5	-55.6	6.2	0.00e+00	0	56	104	38562430976	78	18599
2026-01-25 11:03:54.51	258.73	13.94	-53.5	-55.7	6.2	0.00e+00	0	56	104	38562430976	78	18621
2026-01-25 11:03:55.52	258.56	13.83	-53.5	-55.6	6.2	0.00e+00	0	56	104	38562430976	78	18565
2026-01-25 11:03:56.53	258.38	13.72	-53.5	-55.6	6.2	0.00e+00	0	56	104	38562430976	78	18558
2026-01-25 11:03:57.53	258.22	13.62	-53.5	-55.7	6.2	0.00e+00	0	56	104	38562430976	78	18613
2026-01-25 11:03:58.54	258.05	13.51	-53.5	-55.6	6.2	0.00e+00	0	56	104	38562430976	78	18570
2026-01-25 11:03:59.55	257.88	13.40	-53.5	-55.6	6.2	0.00e+00	0	56	104	38562430976	78	18474
2026-01-25 11:04:00.56	257.72	13.30	-53.5	-55.6	6.2	0.00e+00	0	56	104	38562430976	78	18526
2026-01-25 11:04:01.57	257.56	13.19	-53.5	-55.6	6.2	0.00e+00	0	56	104	38562430976	78	18553
2026-01-25 11:04:02.58	257.39	13.09	-53.5	-55.6	6.2	0.00e+00	0	56	104	38562430976	78	18536
2026-01-25 11:04:03.58	257.24	12.99	-53.5	-55.6	6.2	0.00e+00	0	56	104	38562430976	78	18567
2026-01-25 11:04:04.59	257.08	12.88	-53.5	-55.6	6.2	0.00e+00	0	56	104	38562430976	78	18470
2026-01-25 11:04:05.60	256.92	12.78	-53.5	-55.6	6.2	0.00e+00	0	56	104	38562430976	78	18474
2026-01-25 11:04:06.60	256.76	12.68	-53.5	-55.6	6.2	0.00e+00	0	56	104	38562430976	78	18546
2026-01-25 11:04:07.61	256.61	12.57	-53.4	-55.5	6.2	0.00e+00	0	55	104	38562430976	78	18381
2026-01-25 11:04:08.62	256.46	12.47	-53.4	-55.6	6.2	0.00e+00	0	56	104	38562430976	78	18464
2026-01-25 11:04:09.62	256.30	12.37	-53.5	-55.6	6.2	0.00e+00	0	56	104	38562430976	78	18468
2026-01-25 11:04:10.63	256.15	12.27	-53.5	-55.6	6.2	0.00e+00	0	56	104	38562430976	78	18446
2026-01-25 11:04:11.64	256.00	12.17	-53.4	-55.6	6.2	0.00e+00	0	56	104	38562430976	78	18408
2026-01-25 11:04:12.65	255.85	12.07	-53.4	-55.6	6.2	0.00e+00	0	55	104	38562430976	78	18418
2026-01-25 11:04:13.65	255.71	11.97	-53.4	-55.6	6.2	0.00e+00	0	56	104	38562430976	78	18436
2026-01-25 11:04:14.66	255.56	11.87	-53.4	-55.6	6.2	0.00e+00	0	55	104	38562430976	78	18401
2026-01-25 11:04:15.67	255.42	11.77	-53.4	-55.5	6.2	0.00e+00	0	56	104	38562430976	78	18377
2026-01-25 11:04:16.67	255.27	11.67	-53.4	-55.5	6.2	0.00e+00	0	55	104	38562430976	78	18286
2026-01-25 11:04:17.68	255.13	11.57	-53.4	-55.6	6.2	0.00e+00	0	55	104	38562430976	78	18403
2026-01-25 11:04:18.69	254.99	11.47	-53.4	-55.5	6.2	0.00e+00	0	56	104	38562430976	78	18365
2026-01-25 11:04:19.70	254.85	11.37	-53.4	-55.5	6.2	0.00e+00	0	56	104	38562430976	78	18280
2026-01-25 11:04:20.71	254.71	11.28	-53.4	-55.5	6.2	0.00e+00	0	55	104	38562430976	78	18242
2026-01-25 11:04:21.71	254.57	11.18	-53.4	-55.5	6.2	0.00e+00	0	55	104	38562430976	78	18282
2026-01-25 11:04:22.72	254.44	11.08	-53.4	-55.5	6.2	0.00e+00	0	55	104	38562430976	78	18309
2026-01-25 11:04:23.73	254.30	10.99	-53.3	-55.4	6.2	0.00e+00	0	55	104	38562430976	78	18173
2026-01-25 11:04:24.73	254.17	10.89	-53.3	-55.4	6.2	0.00e+00	0	56	104	38562430976	78	18172
2026-01-25 11:04:25.74	254.04	10.79	-53.3	-55.5	6.2	0.00e+00	0	55	104	38562430976	78	18206
2026-01-25 11:04:26.75	253.90	10.70	-53.4	-55.4	6.2	0.00e+00	0	56	104	38562430976	78	18164
2026-01-25 11:04:27.76	253.77	10.60	-53.3	-55.4	6.2	0.00e+00	0	55	104	38562430976	78	18148
2026-01-25 11:04:28.76	253.64	10.51	-53.3	-55.4	6.2	0.00e+00	0	55	104	38562430976	78	18162
2026-01-25 11:04:29.77	253.51	10.41	-53.3	-55.4	6.2	0.00e+00	0	55	104	38562430976	78	18159
2026-01-25 11:04:30.78	253.38	10.32	-53.3	-55.5	6.2	0.00e+00	0	55	104	38562430976	78	18184
2026-01-25 11:04:31.78	253.26	10.23	-53.3	-55.4	6.2	0.00e+00	0	55	104	38562430976	78	18105
2026-01-25 11:04:32.79	253.13	10.13	-53.3	-55.4	6.2	0.00e+00	0	55	104	38562430976	78	18073
2026-01-25 11:04:33.80	253.01	10.04	-53.3	-55.4	6.2	0.00e+00	0	55	104	38562430976	78	18108
2026-01-25 11:04:34.81	252.88	9.95	-53.3	-55.4	6.2	0.00e+00	0	55	104	38562430976	78	18176
2026-01-25 11:04:35.82	252.76	9.86	-53.2	-55.4	6.2	0.00e+00	0	55	104	38562430976	78	18042
2026-01-25 11:04:36.82	252.64	9.76	-53.2	-55.4	6.2	0.00e+00	0	55	104	38562430976	78	17985
2026-01-25 11:04:37.83	252.52	9.67	-53.3	-55.4	6.2	0.00e+00	0	55	104	38562430976	78	18076
2026-01-25 11:04:38.84	252.40	9.58	-53.3	-55.4	6.2	0.00e+00	0	55	104	38562430976	78	18101
2026-01-25 11:04:39.85	252.28	9.49	-53.2	-55.4	6.2	0.00e+00	0	55	104	38562430976	78	17997
2026-01-25 11:04:40.86	252.16	9.40	-53.2	-55.4	6.2	0.00e+00	0	55	104	38562430976	78	17979
2026-01-25 11:04:41.86	252.04	9.31	-53.2	-55.4	6.2	0.00e+00	0	55	104	38562430976	78	18062
2026-01-25 11:04:42.87	251.92	9.22	-53.3	-55.4	6.2	0.00e+00	0	55	104	38562430976	78	18001
2026-01-25 11:04:43.88	251.81	9.13	-53.2	-55.3	6.2	0.00e+00	0	55	104	38562430976	78	17919
2026-01-25 11:04:44.89	251.69	9.04	-53.2	-55.3	6.2	0.00e+00	0	55	104	38562430976	78	17951
2026-01-25 11:04:45.89	251.58	8.95	-53.2	-55.4	6.2	0.00e+00	0	55	104	38562430976	78	18001
2026-01-25 11:04:46.90	251.47	8.86	-53.2	-55.4	6.2	0.00e+00	0	55	104	38562430976	78	17996
2026-01-25 11:04:47.90	251.36	8.78	-53.1	-55.3	6.2	0.00e+00	0	55	104	38562430976	78	17870
2026-01-25 11:04:48.91	251.25	8.69	-53.1	-55.3	6.2	0.00e+00	0	55	104	38562430976	78	17876
2026-01-25 11:04:49.92	251.13	8.60	-53.2	-55.3	6.2	0.00e+00	0	55	104	38562430976	78	17893
2026-01-25 11:04:50.93	251.02	8.51	-53.2	-55.3	6.2	0.00e+00	0	55	104	38562430976	78	17948
2026-01-25 11:04:51.93	250.92	8.43	-53.1	-55.3	6.2	0.00e+00	0	55	104	38562430976	78	17773
2026-01-25 11:04:52.94	250.81	8.34	-53.1	-55.2	6.2	0.00e+00	0	55	104	38562430976	78	17750
2026-01-25 11:04:53.94	250.70	8.25	-53.1	-55.3	6.2	0.00e+00	0	55	104	38562430976	78	17828
2026-01-25 11:04:54.95	250.60	8.17	-53.2	-55.3	6.2	0.00e+00	0	55	104	38562430976	78	17842
2026-01-25 11:04:55.96	250.49	8.08	-53.1	-55.2	6.2	0.00e+00	0	55	104	38562430976	78	17690
2026-01-25 11:04:56.97	250.39	8.00	-53.1	-55.2	6.2	0.00e+00	0	55	104	38562430976	78	17692
2026-01-25 11:04:57.97	250.28	7.91	-53.1	-55.3	6.2	0.00e+00	0	55	104	38562430976	78	17833
2026-01-25 11:04:58.98	250.18	7.83	-53.1	-55.3	6.2	0.00e+00	0	55	104	38562430976	78	17799
2026-01-25 11:04:59.99	250.08	7.74	-53.1	-55.2	6.2	0.00e+00	0	55	104	38562430976	78	17681
2026-01-25 11:05:01.00	249.97	7.66	-53.1	-55.2	6.2	0.00e+00	0	55	104	38562430976	78	17629
2026-01-25 11:05:02.00	249.87	7.57	-53.1	-55.2	6.2	0.00e+00	0	55	104	38562430976	78	17711
2026-01-25 11:05:03.01	249.77	7.49	-53.1	-55.2	6.2	0.00e+00	0	55	104	38562430976	78	17742
2026-01-25 11:05:04.02	249.67	7.41	-53.0	-55.1	6.2	0.00e+00	0	55	104	38562430976	78	17562
2026-01-25 11:05:05.03	249.57	7.32	-53.0	-55.2	6.2	0.00e+00	0	55	104	38562430976	78	17585
2026-01-25 11:05:06.04	249.48	7.24	-53.1	-55.2	6.2	0.00e+00	0	55	104	38562430976	78	17671
2026-01-25 11:05:07.04	249.38	7.16	-53.1	-55.2	6.2	0.00e+00	0	55	104	38562430976	78	17635
2026-01-25 11:05:08.05	249.28	7.08	-52.9	-55.1	6.2	0.00e+00	0	55	104	38562430976	77	18422
2026-01-25 11:05:09.06	249.19	6.99	-52.9	-55.1	6.2	0.00e+00	0	55	104	38562430976	77	18418
2026-01-25 11:05:10.07	249.09	6.91	-53.0	-55.1	6.2	0.00e+00	0	55	104	38562430976	77	18554
2026-01-25 11:05:11.08	249.00	6.83	-53.0	-55.2	6.2	0.00e+00	0	55	104	38562430976	77	18605
2026-01-25 11:05:12.08	248.90	6.75	-52.9	-55.0	6.2	0.00e+00	0	55	104	38562430976	77	18382
2026-01-25 11:05:13.09	248.81	6.67	-52.9	-55.0	6.2	0.00e+00	0	55	104	38562430976	77	18357
2026-01-25 11:05:14.10	248.72	6.59	-52.9	-55.1	6.2	0.00e+00	0	55	104	38562430976	77	18452
2026-01-25 11:05:15.10	248.63	6.51	-53.0	-55.1	6.2	0.00e+00	0	55	104	38562430976	77	18538
2026-01-25 11:05:16.11	248.53	6.43	-52.8	-55.0	6.2	0.00e+00	0	55	104	38562430976	77	18222
2026-01-25 11:05:17.12	248.44	6.35	-52.9	-55.0	6.2	0.00e+00	0	55	104	38562430976	77	18242
2026-01-25 11:05:18.13	248.35	6.27	-52.9	-55.1	6.2	0.00e+00	0	55	104	38562430976	77	18432
2026-01-25 11:05:19.14	248.26	6.19	-52.9	-55.0	6.2	0.00e+00	0	55	104	38562430976	77	18346
2026-01-25 11:05:20.14	248.18	6.11	-52.8	-54.9	6.2	0.00e+00	0	55	104	38562430976	77	18033
2026-01-25 11:05:21.15	248.09	6.03	-52.8	-54.9	6.2	0.00e+00	0	55	104	38562430976	77	18098
2026-01-25 11:05:22.16	248.00	5.95	-52.9	-55.0	6.2	0.00e+00	0	55	104	38562430976	77	18211
2026-01-25 11:05:23.17	247.91	5.88	-52.8	-55.0	6.2	0.00e+00	0	55	104	38562430976	77	18202
2026-01-25 11:05:24.17	247.83	5.80	-52.7	-54.8	6.2	0.00e+00	0	55	104	38562430976	77	17966
2026-01-25 11:05:25.18	247.74	5.72	-52.7	-54.9	6.2	0.00e+00	0	55	104	38562430976	77	17979
2026-01-25 11:05:26.19	247.66	5.64	-52.8	-54.9	6.2	0.00e+00	0	55	104	38562430976	77	18113
2026-01-25 11:05:27.20	247.57	5.57	-52.8	-54.9	6.2	0.00e+00	0	55	104	38562430976	77	18144
2026-01-25 11:05:28.21	247.49	5.49	-52.7	-54.8	6.2	0.00e+00	0	55	104	38562430976	77	17957
2026-01-25 11:05:29.22	247.40	5.41	-52.7	-54.8	6.2	0.00e+00	0	55	104	38562430976	77	17921
2026-01-25 11:05:30.22	247.32	5.34	-52.8	-54.9	6.2	0.00e+00	0	55	104	38562430976	77	18091
2026-01-25 11:05:31.23	247.24	5.26	-52.8	-54.9	6.2	0.00e+00	0	55	104	38562430976	77	18080
2026-01-25 11:05:32.24	247.16	5.18	-52.6	-54.7	6.2	0.00e+00	0	55	104	38562430976	77	17676
2026-01-25 11:05:33.24	247.08	5.11	-52.6	-54.8	6.2	0.00e+00	0	55	104	38562430976	77	17854
2026-01-25 11:05:34.25	247.00	5.03	-52.7	-54.9	6.2	0.00e+00	0	55	104	38562430976	77	17978
2026-01-25 11:05:35.26	246.92	4.96	-53.0	-55.2	6.2	0.00e+00	0	55	104	38562430976	77	18651
2026-01-25 11:05:36.27	246.84	4.88	-53.5	-55.6	6.2	0.00e+00	0	55	104	38562430976	77	19559
2026-01-25 11:05:37.27	246.76	4.81	-53.7	-55.8	6.2	0.00e+00	0	55	104	38562430976	77	20020
2026-01-25 11:05:38.29	246.68	4.73	-53.8	-56.0	6.2	0.00e+00	0	55	104	38562430976	78	19307
2026-01-25 11:05:39.29	246.60	4.66	-54.0	-56.1	6.2	0.00e+00	0	55	104	38562430976	78	19651
2026-01-25 11:05:40.30	246.52	4.59	-54.1	-56.2	6.2	0.00e+00	0	55	104	38562430976	78	19919
2026-01-25 11:05:41.31	246.45	4.51	-54.2	-56.3	6.2	0.00e+00	0	55	104	38562430976	78	20153
2026-01-25 11:05:42.32	246.37	4.44	-54.3	-56.4	6.2	0.00e+00	0	55	104	38562430976	79	19246
2026-01-25 11:05:43.33	246.29	4.36	-54.4	-56.5	6.2	0.00e+00	0	55	104	38562430976	79	19431
2026-01-25 11:05:44.33	246.22	4.29	-54.5	-56.6	6.2	0.00e+00	0	55	104	38562430976	79	19581
2026-01-25 11:05:45.34	246.14	4.22	-54.5	-56.6	6.2	0.00e+00	0	55	104	38562430976	79	19704
2026-01-25 11:05:46.35	246.07	4.15	-54.6	-56.7	6.2	0.00e+00	0	55	104	38562430976	79	19787
2026-01-25 11:05:47.36	246.00	4.07	-54.6	-56.7	6.2	0.00e+00	0	55	104	38562430976	79	19918
2026-01-25 11:05:48.36	245.92	4.00	-54.6	-56.8	6.2	0.00e+00	0	55	104	38562430976	79	19981
2026-01-25 11:05:49.37	245.85	3.93	-54.6	-56.8	6.2	0.00e+00	0	55	104	38562430976	79	20020
2026-01-25 11:05:50.38	245.78	3.86	-54.6	-56.8	6.2	0.00e+00	0	55	104	38562430976	79	20022
2026-01-25 11:05:51.39	245.71	3.79	-54.6	-56.8	6.2	0.00e+00	0	55	104	38562430976	79	19979
2026-01-25 11:05:52.40	245.63	3.71	-54.6	-56.7	6.2	0.00e+00	0	55	104	38562430976	79	19921
2026-01-25 11:05:53.41	245.56	3.64	-54.6	-56.7	6.2	0.00e+00	0	55	104	38562430976	79	19930
2026-01-25 11:05:54.42	245.49	3.57	-54.6	-56.7	6.2	0.00e+00	0	55	104	38562430976	79	19891
2026-01-25 11:05:55.42	245.42	3.50	-54.6	-56.7	6.2	0.00e+00	0	55	104	38562430976	79	19871
2026-01-25 11:05:56.43	245.35	3.43	-54.6	-56.7	6.2	0.00e+00	0	55	104	38562430976	79	19933
2026-01-25 11:05:57.43	245.28	3.36	-54.5	-56.7	6.2	0.00e+00	0	55	104	38562430976	79	19829
2026-01-25 11:05:58.44	245.21	3.29	-54.5	-56.7	6.2	0.00e+00	0	55	104	38562430976	79	19706
2026-01-25 11:05:59.45	245.15	3.22	-54.5	-56.7	6.2	0.00e+00	0	55	104	38562430976	79	19726
2026-01-25 11:06:00.46	245.08	3.15	-54.5	-56.6	6.2	0.00e+00	0	55	104	38562430976	79	19630
2026-01-25 11:06:01.46	245.01	3.08	-54.5	-56.6	6.2	0.00e+00	0	55	104	38562430976	79	19559
2026-01-25 11:06:02.47	244.94	3.01	-54.5	-56.6	6.2	0.00e+00	0	55	104	38562430976	79	19577
2026-01-25 11:06:03.48	244.88	2.94	-54.4	-56.6	6.2	0.00e+00	0	55	104	38562430976	79	19493
2026-01-25 11:06:04.48	244.81	2.87	-54.4	-56.6	6.2	0.00e+00	0	55	104	38562430976	79	19548
2026-01-25 11:06:05.49	244.74	2.80	-54.4	-56.6	6.2	0.00e+00	0	55	104	38562430976	79	19556
2026-01-25 11:06:06.50	244.68	2.74	-54.4	-56.5	6.2	0.00e+00	0	55	104	38562430976	79	19463
2026-01-25 11:06:07.51	244.61	2.67	-54.4	-56.5	6.2	0.00e+00	0	55	104	38562430976	79	19449
2026-01-25 11:06:08.51	244.55	2.60	-54.4	-56.5	6.2	0.00e+00	0	55	104	38562430976	79	19454
2026-01-25 11:06:09.52	244.49	2.53	-54.4	-56.5	6.2	0.00e+00	0	55	104	38562430976	79	19424
2026-01-25 11:06:10.53	244.42	2.46	-54.4	-56.5	6.2	0.00e+00	0	55	104	38562430976	79	19464
2026-01-25 11:06:11.54	244.36	2.40	-54.4	-56.5	6.2	0.00e+00	0	55	104	38562430976	79	19407
2026-01-25 11:06:12.55	244.29	2.33	-54.4	-56.5	6.2	0.00e+00	0	55	104	38562430976	79	19349
2026-01-25 11:06:13.56	244.23	2.26	-54.4	-56.5	6.2	0.00e+00	0	55	104	38562430976	79	19288
2026-01-25 11:06:14.57	244.17	2.19	-54.3	-56.5	6.2	0.00e+00	0	55	104	38562430976	79	19295
2026-01-25 11:06:15.58	244.11	2.13	-54.3	-56.5	6.2	0.00e+00	0	55	104	38562430976	79	19282
2026-01-25 11:06:16.58	244.05	2.06	-54.3	-56.5	6.2	0.00e+00	0	55	104	38562430976	79	19284
2026-01-25 11:06:17.59	243.98	1.99	-54.3	-56.4	6.2	0.00e+00	0	55	104	38562430976	79	19181
2026-01-25 11:06:18.60	243.92	1.93	-54.3	-56.4	6.2	0.00e+00	0	55	104	38562430976	79	19190
2026-01-25 11:06:19.60	243.86	1.86	-54.3	-56.5	6.2	0.00e+00	0	55	104	38562430976	79	19267

#Closed at: 2026-01-25 11:06:19
#Recorded file [38562 MB]: D:/lorett/data/31041_260125_135618.dat