passes_logs/2026/01/25/R3.2S_Murmansk/R3.2S_Murmansk__20260125_123511_NOAA_21_JPSS-2_rec.log

#Pass ID: 20260125_123511_NOAA 21 (JPSS-2)
#Satellite: NOAA 21 (JPSS-2)
#Configuration: NOAA-21
#almurnet v.1.7.20251203
#Start time: 2026-01-25 12:35:13

#Version: 2.2.20231116
#Station: R3.2S_Murmansk
#Location: 33.079688 lon 68.888172 lat
#TLE: 1 54234U 22150A   26024.88063640  .00000198  00000+0  11499-3 0  9991
#TLE: 2 54234  98.7509 325.6613 0000743 218.4833 141.6291 14.19538975166219

#Time	Az	El	Level	Level2	SNR	BER	BlckErr	Temp	State	Recorded	gain1	gain2
2026-01-25 12:35:13.99	230.86	2.11	-53.7	-66.5	3.8	1.49e+00	0	40	0	0	78	16181
2026-01-25 12:35:14.97	230.95	2.16	-53.6	-66.4	3.8	1.49e+00	0	39	104	0	77	17047
2026-01-25 12:35:15.96	231.04	2.21	-53.6	-66.4	3.8	1.49e+00	0	39	104	0	77	16955
2026-01-25 12:35:16.95	231.12	2.25	-53.6	-66.4	3.8	1.49e+00	0	40	104	0	77	16932
2026-01-25 12:35:17.93	231.21	2.30	-53.8	-66.6	3.8	1.49e+00	0	40	104	0	78	16403
2026-01-25 12:35:18.91	231.30	2.35	-53.9	-66.7	3.8	1.49e+00	0	40	104	0	78	16597
2026-01-25 12:35:19.90	231.39	2.40	-54.0	-66.8	3.8	1.49e+00	0	40	104	0	78	16711
2026-01-25 12:35:20.89	231.48	2.45	-54.0	-66.8	3.8	1.49e+00	0	40	104	0	78	16807
2026-01-25 12:35:21.88	231.57	2.50	-54.1	-66.9	3.8	1.49e+00	0	40	104	0	78	16900
2026-01-25 12:35:22.86	231.66	2.55	-54.1	-66.9	3.8	1.49e+00	0	40	104	0	78	16908
2026-01-25 12:35:23.85	231.75	2.60	-54.1	-66.8	3.8	1.49e+00	0	40	104	0	78	16831
2026-01-25 12:35:24.83	231.84	2.64	-54.0	-66.8	3.8	1.49e+00	0	40	104	0	78	16705
2026-01-25 12:35:25.82	231.93	2.69	-54.0	-66.7	3.8	1.49e+00	0	40	104	0	78	16663
2026-01-25 12:35:26.81	232.02	2.74	-53.9	-66.7	3.8	1.49e+00	0	40	104	0	78	16570
2026-01-25 12:35:27.80	232.11	2.79	-53.9	-66.7	3.8	1.49e+00	0	40	104	0	78	16519
2026-01-25 12:35:28.79	232.20	2.84	-53.8	-66.6	3.8	1.49e+00	0	40	104	0	78	16445
2026-01-25 12:35:29.78	232.30	2.89	-53.8	-66.5	3.8	1.49e+00	0	40	104	0	78	16314
2026-01-25 12:35:30.77	232.39	2.94	-53.7	-66.4	3.8	1.49e+00	0	40	104	0	78	16118
2026-01-25 12:35:31.76	232.48	2.99	-53.6	-66.4	3.8	1.49e+00	0	40	104	0	78	16055
2026-01-25 12:35:32.75	232.58	3.04	-53.6	-66.3	3.8	1.49e+00	0	40	104	0	78	15869
2026-01-25 12:35:33.74	232.67	3.09	-53.5	-66.2	3.8	1.49e+00	0	40	104	0	78	15705
2026-01-25 12:35:34.74	232.76	3.14	-53.4	-66.1	3.8	1.49e+00	0	40	104	0	78	15579
2026-01-25 12:35:35.73	232.86	3.19	-53.3	-66.1	3.8	1.49e+00	0	40	104	0	78	15407
2026-01-25 12:35:36.72	232.95	3.23	-53.2	-65.9	3.8	1.49e+00	0	40	104	0	78	15219
2026-01-25 12:35:37.71	233.05	3.28	-53.0	-65.8	3.8	1.49e+00	0	40	104	0	78	14899
2026-01-25 12:35:38.71	233.14	3.33	-52.8	-65.5	3.8	1.49e+00	0	40	104	0	77	15361
2026-01-25 12:35:39.71	233.24	3.38	-52.4	-65.0	3.8	1.49e+00	0	40	104	0	76	15352
2026-01-25 12:35:40.70	233.33	3.43	-52.2	-64.9	3.8	1.49e+00	0	40	104	0	76	15136
2026-01-25 12:35:41.69	233.43	3.48	-52.2	-64.9	3.8	1.49e+00	0	40	104	0	76	15109
2026-01-25 12:35:42.68	233.53	3.53	-52.2	-64.9	3.8	1.49e+00	0	40	104	0	76	15117
2026-01-25 12:35:43.67	233.62	3.58	-52.2	-64.9	3.8	1.49e+00	0	40	104	0	76	15088
2026-01-25 12:35:44.66	233.72	3.63	-52.2	-64.8	3.8	1.49e+00	0	40	104	0	76	15036
2026-01-25 12:35:45.65	233.82	3.68	-52.2	-64.8	3.8	1.49e+00	0	40	104	0	76	15015
2026-01-25 12:35:46.64	233.91	3.73	-52.1	-64.8	3.8	1.49e+00	0	40	104	0	76	14923
2026-01-25 12:35:47.62	234.01	3.78	-52.1	-64.7	3.8	1.49e+00	0	41	104	0	76	14834
2026-01-25 12:35:48.61	234.11	3.83	-52.1	-64.7	3.8	1.49e+00	0	41	104	0	76	14789
2026-01-25 12:35:49.60	234.21	3.88	-52.1	-64.7	3.8	1.49e+00	0	41	104	0	76	14776
2026-01-25 12:35:50.59	234.31	3.93	-52.1	-64.7	3.8	1.49e+00	0	41	104	0	76	14863
2026-01-25 12:35:51.59	234.41	3.98	-52.1	-64.8	3.8	1.49e+00	0	41	104	0	76	14961
2026-01-25 12:35:52.58	234.50	4.03	-52.1	-64.8	3.8	1.49e+00	0	40	104	0	76	14983
2026-01-25 12:35:53.58	234.61	4.08	-52.1	-64.8	3.8	1.49e+00	0	41	104	0	76	15034
2026-01-25 12:35:54.57	234.71	4.13	-52.1	-64.8	3.8	1.49e+00	0	40	104	0	76	14995
2026-01-25 12:35:55.56	234.81	4.18	-52.1	-64.8	3.8	1.49e+00	0	40	104	0	76	15045
2026-01-25 12:35:56.56	234.91	4.23	-52.1	-64.8	3.8	1.49e+00	0	41	104	0	76	14880
2026-01-25 12:35:57.55	235.01	4.28	-52.1	-64.5	3.8	1.49e+00	0	40	104	0	76	14409
2026-01-25 12:35:58.54	235.11	4.33	-52.0	-63.9	3.8	1.49e+00	0	41	104	0	76	13491
2026-01-25 12:35:59.54	235.21	4.38	-52.0	-63.3	3.8	1.49e+00	0	41	104	0	76	12565
2026-01-25 12:36:00.52	235.31	4.43	-51.9	-62.6	3.8	1.49e+00	0	41	104	0	75	12365
2026-01-25 12:36:01.52	235.42	4.48	-51.9	-61.8	4.1	1.47e+00	0	41	104	0	75	11169
2026-01-25 12:36:02.51	235.52	4.53	-51.8	-61.6	4.1	1.47e+00	0	41	104	0	75	10932
2026-01-25 12:36:03.50	235.62	4.58	-51.8	-61.5	4.1	1.47e+00	0	41	104	0	75	10889
2026-01-25 12:36:04.48	235.72	4.63	-51.8	-60.9	4.3	1.46e+00	0	41	104	0	75	10140
2026-01-25 12:36:05.47	235.83	4.68	-51.5	-59.1	5.1	1.10e+00	0	41	104	0	75	8266
2026-01-25 12:36:06.46	235.93	4.73	-50.9	-56.5	7.0	2.34e-01	0	41	0	2097152	73	6854
2026-01-25 12:36:07.46	236.04	4.78	-50.2	-54.6	8.9	3.98e-02	0	41	0	5242880	72	5811
2026-01-25 12:36:08.44	236.14	4.83	-49.4	-52.8	10.9	3.43e-03	0	41	0	8388608	70	5290
2026-01-25 12:36:09.44	236.25	4.88	-48.8	-51.7	12.0	4.76e-04	0	41	0	11534336	69	4965
2026-01-25 12:36:10.43	236.35	4.93	-48.3	-50.8	13.0	1.42e-04	0	41	0	14680064	68	4725
2026-01-25 12:36:11.43	236.46	4.98	-48.3	-50.8	12.9	3.20e-05	0	41	0	17825792	68	4756
2026-01-25 12:36:12.41	236.56	5.03	-46.5	-48.3	15.3	6.48e-05	0	41	0	20971520	65	4214
2026-01-25 12:36:13.41	236.67	5.08	-45.9	-47.5	16.5	0.00e+00	0	41	0	24117248	62	4568
2026-01-25 12:36:14.40	236.78	5.13	-48.3	-50.9	13.0	2.86e-04	0	41	0	27262976	68	4766
2026-01-25 12:36:15.39	236.88	5.18	-51.0	-57.3	6.4	1.12e-01	0	41	0	30408704	72	7924
2026-01-25 12:36:16.38	236.99	5.23	-51.3	-58.1	5.5	1.46e+00	2	41	104	30408704	74	7783
2026-01-25 12:36:17.37	237.10	5.28	-44.8	-46.0	17.8	0.00e+00	0	41	0	32505856	61	4095
2026-01-25 12:36:18.36	237.21	5.33	-44.8	-46.1	17.8	0.00e+00	0	41	0	35651584	61	4128
2026-01-25 12:36:19.35	237.32	5.38	-44.9	-46.3	17.6	0.00e+00	0	41	0	38797312	61	4199
2026-01-25 12:36:20.34	237.42	5.43	-44.9	-46.2	17.7	0.00e+00	0	41	0	41943040	61	4188
2026-01-25 12:36:21.32	237.53	5.48	-44.9	-46.3	17.7	0.00e+00	0	41	0	45088768	61	4195
2026-01-25 12:36:22.31	237.64	5.53	-44.7	-46.0	17.9	0.00e+00	0	41	0	48234496	61	4062
2026-01-25 12:36:23.31	237.75	5.58	-44.9	-46.3	17.7	0.00e+00	0	41	0	51380224	61	4202
2026-01-25 12:36:24.30	237.86	5.63	-44.9	-46.2	17.7	0.00e+00	0	41	0	54525952	61	4163
2026-01-25 12:36:25.29	237.97	5.68	-44.7	-46.0	17.9	0.00e+00	0	41	0	57671680	61	4080
2026-01-25 12:36:26.28	238.09	5.73	-44.8	-46.1	17.8	0.00e+00	0	41	0	60817408	61	4119
2026-01-25 12:36:27.27	238.20	5.78	-44.9	-46.2	17.7	0.00e+00	0	41	0	63963136	61	4169
2026-01-25 12:36:28.27	238.31	5.84	-44.7	-46.0	18.0	0.00e+00	0	41	0	67108864	61	4055
2026-01-25 12:36:29.26	238.42	5.89	-44.6	-45.8	18.1	0.00e+00	0	41	0	70254592	61	3999
2026-01-25 12:36:30.26	238.54	5.94	-44.6	-45.9	18.1	0.00e+00	0	41	0	73400320	61	4005
2026-01-25 12:36:31.25	238.65	5.99	-44.5	-45.7	18.3	0.00e+00	0	41	0	76546048	60	4167
2026-01-25 12:36:32.24	238.76	6.04	-44.5	-45.7	18.2	0.00e+00	0	41	0	79691776	60	4190
2026-01-25 12:36:33.23	238.88	6.09	-44.6	-45.9	18.1	0.00e+00	0	41	0	82837504	60	4243
2026-01-25 12:36:34.23	238.99	6.14	-44.6	-45.8	18.2	0.00e+00	0	41	0	85983232	60	4222
2026-01-25 12:36:35.22	239.10	6.19	-44.5	-45.7	18.3	0.00e+00	0	41	0	89128960	60	4185
2026-01-25 12:36:36.21	239.22	6.24	-44.5	-45.7	18.3	0.00e+00	0	41	0	92274688	60	4162
2026-01-25 12:36:37.20	239.33	6.29	-44.6	-45.8	18.2	0.00e+00	0	41	0	95420416	60	4215
2026-01-25 12:36:38.20	239.45	6.34	-44.6	-45.9	18.2	0.00e+00	0	41	0	98566144	60	4243
2026-01-25 12:36:39.18	239.57	6.39	-44.5	-45.7	18.4	0.00e+00	0	41	0	100663296	60	4156
2026-01-25 12:36:40.18	239.68	6.44	-44.5	-45.7	18.3	0.00e+00	0	41	0	103809024	60	4183
2026-01-25 12:36:41.17	239.80	6.49	-44.5	-45.8	18.3	0.00e+00	0	41	0	106954752	60	4199
2026-01-25 12:36:42.17	239.92	6.54	-44.4	-45.6	18.4	0.00e+00	0	41	0	110100480	60	4143
2026-01-25 12:36:43.16	240.04	6.59	-44.5	-45.8	18.3	0.00e+00	0	41	0	113246208	60	4201
2026-01-25 12:36:44.15	240.15	6.64	-44.4	-45.7	18.4	0.00e+00	0	41	0	116391936	60	4151
2026-01-25 12:36:45.14	240.27	6.69	-44.5	-45.7	18.3	0.00e+00	0	41	0	119537664	60	4176
2026-01-25 12:36:46.14	240.39	6.74	-44.4	-45.6	18.4	0.00e+00	0	41	0	122683392	60	4137
2026-01-25 12:36:47.13	240.51	6.79	-44.5	-45.7	18.3	0.00e+00	0	41	0	125829120	60	4188
2026-01-25 12:36:48.13	240.63	6.85	-44.4	-45.6	18.4	0.00e+00	0	41	0	128974848	60	4136
2026-01-25 12:36:49.13	240.75	6.90	-44.7	-45.9	18.2	0.00e+00	0	41	0	132120576	60	4261
2026-01-25 12:36:50.12	240.87	6.95	-44.6	-45.8	18.3	0.00e+00	0	41	0	135266304	60	4216
2026-01-25 12:36:51.12	240.99	7.00	-44.3	-45.5	18.5	0.00e+00	0	41	0	138412032	60	4080
2026-01-25 12:36:52.11	241.11	7.05	-44.3	-45.4	18.6	0.00e+00	0	41	0	141557760	60	4050
2026-01-25 12:36:53.11	241.24	7.10	-44.3	-45.5	18.5	0.00e+00	0	41	0	144703488	60	4082
2026-01-25 12:36:54.10	241.36	7.15	-44.3	-45.5	18.5	0.00e+00	0	41	0	147849216	60	4076
2026-01-25 12:36:55.08	241.48	7.20	-44.0	-45.2	18.9	0.00e+00	0	41	0	150994944	60	3914
2026-01-25 12:36:56.08	241.60	7.25	-44.1	-45.3	18.8	0.00e+00	0	41	0	154140672	60	3966
2026-01-25 12:36:57.07	241.73	7.30	-44.2	-45.4	18.7	0.00e+00	0	41	0	157286400	60	4028
2026-01-25 12:36:58.06	241.85	7.35	-44.0	-45.2	18.9	0.00e+00	0	41	0	160432128	60	3926
2026-01-25 12:36:59.04	241.97	7.40	-44.0	-45.2	18.9	0.00e+00	0	41	0	163577856	60	3914
2026-01-25 12:37:00.04	242.10	7.45	-44.4	-45.6	18.8	0.00e+00	0	41	0	166723584	59	4356
2026-01-25 12:37:01.03	242.22	7.50	-44.5	-45.7	18.7	0.00e+00	0	41	0	169869312	59	4421
2026-01-25 12:37:02.02	242.35	7.55	-44.5	-45.7	18.8	0.00e+00	0	41	0	173015040	59	4395
2026-01-25 12:37:03.01	242.47	7.60	-44.6	-45.7	18.7	0.00e+00	0	41	0	176160768	59	4431
2026-01-25 12:37:04.00	242.60	7.65	-44.5	-45.6	18.8	0.00e+00	0	41	0	178257920	59	4375
2026-01-25 12:37:05.00	242.73	7.70	-44.3	-45.4	19.0	0.00e+00	0	41	0	181403648	59	4287
2026-01-25 12:37:05.99	242.85	7.75	-44.2	-45.4	19.1	0.00e+00	0	41	0	184549376	59	4255
2026-01-25 12:37:06.98	242.98	7.80	-44.3	-45.5	19.0	0.00e+00	0	41	0	187695104	59	4306
2026-01-25 12:37:07.97	243.11	7.85	-44.1	-45.2	19.2	0.00e+00	0	41	0	190840832	59	4186
2026-01-25 12:37:08.95	243.24	7.90	-44.1	-45.2	19.2	0.00e+00	0	41	0	193986560	59	4169
2026-01-25 12:37:09.94	243.36	7.95	-44.3	-45.4	19.1	0.00e+00	0	41	0	197132288	59	4263
2026-01-25 12:37:10.93	243.49	8.00	-44.2	-45.3	19.2	0.00e+00	0	41	0	200278016	59	4216
2026-01-25 12:37:11.93	243.62	8.05	-44.1	-45.2	19.2	0.00e+00	0	41	0	203423744	59	4180
2026-01-25 12:37:12.92	243.75	8.10	-44.0	-45.1	19.4	0.00e+00	0	41	0	206569472	59	4132
2026-01-25 12:37:13.91	243.88	8.15	-44.0	-45.1	19.4	0.00e+00	0	41	0	209715200	59	4139
2026-01-25 12:37:14.90	244.01	8.20	-44.0	-45.1	19.3	0.00e+00	0	41	0	212860928	59	4134
2026-01-25 12:37:15.89	244.14	8.25	-44.0	-45.1	19.4	0.00e+00	0	41	0	216006656	59	4126
2026-01-25 12:37:16.88	244.28	8.30	-44.1	-45.2	19.3	0.00e+00	0	41	0	219152384	59	4148
2026-01-25 12:37:17.87	244.41	8.35	-44.0	-45.1	19.4	0.00e+00	0	41	0	222298112	59	4106
2026-01-25 12:37:18.86	244.54	8.40	-43.9	-45.0	19.5	0.00e+00	0	41	0	225443840	59	4079
2026-01-25 12:37:19.85	244.67	8.45	-43.9	-45.0	19.5	0.00e+00	0	41	0	228589568	59	4074
2026-01-25 12:37:20.84	244.81	8.50	-44.0	-45.1	19.4	0.00e+00	0	41	0	231735296	59	4141
2026-01-25 12:37:21.83	244.94	8.55	-44.1	-45.2	19.3	0.00e+00	0	41	0	234881024	59	4147
2026-01-25 12:37:22.83	245.08	8.60	-43.9	-45.0	19.5	0.00e+00	0	41	0	238026752	59	4061
2026-01-25 12:37:23.82	245.21	8.65	-44.0	-45.1	19.4	0.00e+00	0	41	0	240123904	59	4110
2026-01-25 12:37:24.81	245.34	8.70	-43.8	-44.9	19.6	0.00e+00	0	41	0	243269632	59	4019
2026-01-25 12:37:25.79	245.48	8.75	-43.8	-44.8	19.6	0.00e+00	0	41	0	246415360	59	4004
2026-01-25 12:37:26.78	245.61	8.80	-43.9	-45.0	19.5	0.00e+00	0	41	0	249561088	59	4068
2026-01-25 12:37:27.77	245.75	8.85	-43.9	-45.0	19.5	0.00e+00	0	41	0	252706816	59	4073
2026-01-25 12:37:28.75	245.89	8.90	-44.0	-45.0	19.4	0.00e+00	0	41	0	255852544	59	4098
2026-01-25 12:37:29.74	246.02	8.95	-43.9	-44.9	19.5	0.00e+00	0	42	0	258998272	59	4049
2026-01-25 12:37:30.73	246.16	9.00	-44.0	-45.0	19.4	0.00e+00	0	41	0	262144000	59	4093
2026-01-25 12:37:31.71	246.30	9.04	-44.0	-45.1	19.5	0.00e+00	0	41	0	265289728	59	4107
2026-01-25 12:37:32.70	246.44	9.09	-44.0	-45.0	19.5	0.00e+00	0	42	0	268435456	59	4095
2026-01-25 12:37:33.69	246.57	9.14	-44.0	-45.1	19.4	0.00e+00	0	41	0	271581184	59	4134
2026-01-25 12:37:34.68	246.71	9.19	-44.0	-45.1	19.4	0.00e+00	0	42	0	274726912	59	4114
2026-01-25 12:37:35.67	246.85	9.24	-43.8	-44.9	19.6	0.00e+00	0	42	0	277872640	59	4032
2026-01-25 12:37:36.66	246.99	9.29	-43.9	-45.0	19.6	0.00e+00	0	41	0	281018368	59	4052
2026-01-25 12:37:37.65	247.13	9.34	-43.8	-44.9	19.6	0.00e+00	0	42	0	284164096	59	4028
2026-01-25 12:37:38.64	247.28	9.39	-43.9	-44.9	19.6	0.00e+00	0	41	0	287309824	59	4039
2026-01-25 12:37:39.63	247.42	9.44	-43.8	-44.8	19.7	0.00e+00	0	41	0	290455552	59	4002
2026-01-25 12:37:40.62	247.56	9.49	-43.6	-44.6	19.9	0.00e+00	0	41	0	293601280	59	3902
2026-01-25 12:37:41.61	247.70	9.53	-43.6	-44.6	19.9	0.00e+00	0	42	0	296747008	59	3892
2026-01-25 12:37:42.60	247.85	9.58	-43.6	-44.7	19.8	0.00e+00	0	42	0	299892736	59	3924
2026-01-25 12:37:43.59	247.99	9.63	-43.6	-44.6	19.9	0.00e+00	0	41	0	301989888	59	3883
2026-01-25 12:37:44.58	248.13	9.68	-43.4	-44.4	20.1	0.00e+00	0	41	0	305135616	58	4018
2026-01-25 12:37:45.57	248.28	9.73	-43.4	-44.4	20.1	0.00e+00	0	41	0	308281344	58	4037
2026-01-25 12:37:46.57	248.42	9.78	-43.6	-44.6	19.9	0.00e+00	0	42	0	311427072	58	4141
2026-01-25 12:37:47.55	248.57	9.83	-43.7	-44.7	19.8	0.00e+00	0	42	0	314572800	58	4163
2026-01-25 12:37:48.54	248.71	9.87	-43.6	-44.6	19.9	0.00e+00	0	41	0	317718528	58	4135
2026-01-25 12:37:49.53	248.86	9.92	-43.5	-44.5	19.9	0.00e+00	0	41	0	320864256	58	4096
2026-01-25 12:37:50.52	249.01	9.97	-43.3	-44.3	20.2	0.00e+00	0	42	0	324009984	58	3978
2026-01-25 12:37:51.51	249.15	10.02	-43.4	-44.4	20.1	0.00e+00	0	42	0	327155712	58	4024
2026-01-25 12:37:52.48	249.30	10.07	-43.3	-44.3	20.2	0.00e+00	0	41	0	330301440	58	3965
2026-01-25 12:37:53.47	249.45	10.11	-43.3	-44.2	20.2	0.00e+00	0	41	0	333447168	58	3957
2026-01-25 12:37:54.46	249.59	10.16	-43.4	-44.3	20.1	0.00e+00	0	42	0	336592896	58	4004
2026-01-25 12:37:55.46	249.74	10.21	-43.4	-44.4	20.1	0.00e+00	0	42	0	339738624	58	4016
2026-01-25 12:37:56.45	249.89	10.26	-43.5	-44.5	20.0	0.00e+00	0	42	0	342884352	58	4068
2026-01-25 12:37:57.44	250.04	10.31	-43.5	-44.5	20.0	0.00e+00	0	41	0	346030080	58	4089
2026-01-25 12:37:58.43	250.19	10.35	-43.5	-44.5	20.0	0.00e+00	0	42	0	349175808	58	4092
2026-01-25 12:37:59.42	250.35	10.40	-43.5	-44.5	20.0	0.00e+00	0	42	0	352321536	58	4061
2026-01-25 12:38:00.41	250.50	10.45	-43.5	-44.5	20.0	0.00e+00	0	42	0	355467264	58	4072
2026-01-25 12:38:01.40	250.65	10.50	-43.4	-44.4	20.1	0.00e+00	0	42	0	358612992	58	4048
2026-01-25 12:38:02.38	250.80	10.54	-43.5	-44.5	20.1	0.00e+00	0	42	0	360710144	58	4062
2026-01-25 12:38:03.38	250.95	10.59	-43.3	-44.2	20.3	0.00e+00	0	42	0	363855872	58	3949
2026-01-25 12:38:04.36	251.11	10.64	-43.2	-44.2	20.3	0.00e+00	0	42	0	367001600	58	3937
2026-01-25 12:38:05.35	251.26	10.68	-43.3	-44.3	20.3	0.00e+00	0	42	0	370147328	58	3976
2026-01-25 12:38:06.33	251.41	10.73	-43.3	-44.2	20.4	0.00e+00	0	42	0	373293056	58	3955
2026-01-25 12:38:07.32	251.57	10.78	-43.2	-44.2	20.4	0.00e+00	0	41	0	376438784	58	3922
2026-01-25 12:38:08.32	251.72	10.82	-43.2	-44.1	20.4	0.00e+00	0	42	0	379584512	58	3899
2026-01-25 12:38:09.30	251.88	10.87	-43.1	-44.1	20.5	0.00e+00	0	41	0	382730240	58	3874
2026-01-25 12:38:10.30	252.04	10.92	-43.2	-44.1	20.4	0.00e+00	0	42	0	385875968	58	3900
2026-01-25 12:38:11.29	252.19	10.96	-43.2	-44.1	20.4	0.00e+00	0	42	0	389021696	58	3898
2026-01-25 12:38:12.29	252.35	11.01	-43.1	-44.0	20.5	0.00e+00	0	42	0	392167424	58	3861
2026-01-25 12:38:13.28	252.51	11.06	-43.0	-44.0	20.5	0.00e+00	0	41	0	395313152	58	3837
2026-01-25 12:38:14.26	252.66	11.10	-43.1	-44.1	20.5	0.00e+00	0	42	0	398458880	58	3891
2026-01-25 12:38:15.24	252.82	11.15	-43.0	-43.9	20.5	0.00e+00	0	42	0	401604608	58	3818
2026-01-25 12:38:16.23	252.98	11.19	-43.0	-44.0	20.5	0.00e+00	0	42	0	404750336	57	4059
2026-01-25 12:38:17.22	253.14	11.24	-43.0	-43.9	20.5	0.00e+00	0	41	0	407896064	57	4047
2026-01-25 12:38:18.21	253.30	11.29	-43.0	-44.0	20.5	0.00e+00	0	41	0	411041792	57	4053
2026-01-25 12:38:19.20	253.46	11.33	-43.0	-43.9	20.6	0.00e+00	0	42	0	414187520	57	4050
2026-01-25 12:38:20.18	253.62	11.38	-43.0	-43.9	20.6	0.00e+00	0	41	0	416284672	57	4023
2026-01-25 12:38:21.17	253.78	11.42	-43.1	-44.0	20.5	0.00e+00	0	41	0	419430400	57	4084
2026-01-25 12:38:22.16	253.94	11.47	-43.0	-43.9	20.6	0.00e+00	0	41	0	422576128	57	4023
2026-01-25 12:38:23.15	254.11	11.51	-43.0	-44.0	20.6	0.00e+00	0	41	0	425721856	57	4060
2026-01-25 12:38:24.14	254.27	11.56	-43.1	-44.0	20.5	0.00e+00	0	42	0	428867584	57	4095
2026-01-25 12:38:25.13	254.43	11.60	-43.1	-44.1	20.5	0.00e+00	0	42	0	432013312	57	4109
2026-01-25 12:38:26.12	254.60	11.65	-43.2	-44.2	20.4	0.00e+00	0	41	0	435159040	57	4160
2026-01-25 12:38:27.10	254.76	11.69	-43.1	-44.0	20.5	0.00e+00	0	42	0	438304768	57	4096
2026-01-25 12:38:28.09	254.92	11.74	-43.1	-44.1	20.5	0.00e+00	0	42	0	441450496	57	4103
2026-01-25 12:38:29.08	255.09	11.78	-43.0	-44.0	20.6	0.00e+00	0	42	0	444596224	57	4065
2026-01-25 12:38:30.07	255.25	11.82	-43.0	-43.9	20.6	0.00e+00	0	42	0	447741952	57	4027
2026-01-25 12:38:31.05	255.42	11.87	-43.1	-44.0	20.6	0.00e+00	0	42	0	450887680	57	4081
2026-01-25 12:38:32.04	255.58	11.91	-43.1	-44.0	20.6	0.00e+00	0	42	0	454033408	57	4069
2026-01-25 12:38:33.03	255.75	11.96	-43.1	-44.0	20.5	0.00e+00	0	42	0	457179136	57	4076
2026-01-25 12:38:34.02	255.92	12.00	-43.1	-44.0	20.5	0.00e+00	0	41	0	460324864	57	4083
2026-01-25 12:38:35.01	256.09	12.04	-43.1	-44.1	20.4	0.00e+00	0	42	0	463470592	57	4122
2026-01-25 12:38:36.00	256.26	12.09	-43.2	-44.2	20.3	0.00e+00	0	42	0	466616320	57	4177
2026-01-25 12:38:36.99	256.43	12.13	-43.3	-44.3	20.3	0.00e+00	0	42	0	468713472	57	4213
2026-01-25 12:38:37.98	256.59	12.17	-43.4	-44.4	20.2	0.00e+00	0	42	0	471859200	57	4248
2026-01-25 12:38:38.97	256.76	12.22	-43.4	-44.4	20.2	0.00e+00	0	42	0	475004928	57	4244
2026-01-25 12:38:39.96	256.94	12.26	-43.4	-44.4	20.2	0.00e+00	0	42	0	478150656	57	4262
2026-01-25 12:38:40.95	257.11	12.30	-43.5	-44.5	20.1	0.00e+00	0	41	0	481296384	57	4329
2026-01-25 12:38:41.92	257.27	12.34	-43.5	-44.5	20.1	0.00e+00	0	42	0	484442112	57	4308
2026-01-25 12:38:42.91	257.45	12.38	-43.5	-44.5	20.1	0.00e+00	0	42	0	487587840	57	4302
2026-01-25 12:38:43.90	257.62	12.43	-43.5	-44.5	20.1	0.00e+00	0	42	0	490733568	57	4326
2026-01-25 12:38:44.89	257.79	12.47	-43.5	-44.5	20.2	0.00e+00	0	42	0	493879296	57	4295
2026-01-25 12:38:45.87	257.96	12.51	-43.4	-44.4	20.3	0.00e+00	0	42	0	497025024	57	4258
2026-01-25 12:38:46.86	258.14	12.55	-43.4	-44.4	20.2	0.00e+00	0	42	0	500170752	57	4255
2026-01-25 12:38:47.84	258.31	12.59	-43.3	-44.2	20.4	0.00e+00	0	42	0	503316480	57	4188
2026-01-25 12:38:48.83	258.48	12.63	-43.2	-44.2	20.4	0.00e+00	0	42	0	506462208	57	4175
2026-01-25 12:38:49.82	258.66	12.68	-43.3	-44.3	20.4	0.00e+00	0	42	0	509607936	57	4196
2026-01-25 12:38:50.81	258.83	12.72	-43.1	-44.1	20.6	0.00e+00	0	42	0	512753664	57	4112
2026-01-25 12:38:51.79	259.01	12.76	-43.1	-44.0	20.6	0.00e+00	0	42	0	514850816	57	4069
2026-01-25 12:38:52.78	259.19	12.80	-43.1	-44.1	20.5	0.00e+00	0	42	0	517996544	57	4110
2026-01-25 12:38:53.78	259.36	12.84	-43.2	-44.2	20.4	0.00e+00	0	42	0	521142272	57	4162
2026-01-25 12:38:54.77	259.54	12.88	-43.2	-44.2	20.4	0.00e+00	0	42	0	524288000	57	4154
2026-01-25 12:38:55.76	259.72	12.92	-43.3	-44.2	20.4	0.00e+00	0	42	0	527433728	57	4188
2026-01-25 12:38:56.75	259.90	12.96	-43.3	-44.3	20.3	0.00e+00	0	42	0	530579456	57	4206
2026-01-25 12:38:57.74	260.08	13.00	-43.3	-44.3	20.3	0.00e+00	0	42	0	533725184	57	4213
2026-01-25 12:38:58.73	260.26	13.04	-43.4	-44.4	20.2	0.00e+00	0	42	0	536870912	57	4289
2026-01-25 12:38:59.72	260.44	13.08	-43.4	-44.4	20.3	0.00e+00	0	42	0	540016640	57	4244
2026-01-25 12:39:00.70	260.62	13.12	-43.3	-44.3	20.4	0.00e+00	0	42	0	543162368	57	4221
2026-01-25 12:39:01.69	260.80	13.15	-43.4	-44.4	20.3	0.00e+00	0	42	0	546308096	57	4260
2026-01-25 12:39:02.68	260.98	13.19	-43.4	-44.3	20.3	0.00e+00	0	42	0	549453824	57	4239
2026-01-25 12:39:03.67	261.16	13.23	-43.2	-44.2	20.5	0.00e+00	0	42	0	552599552	57	4156
2026-01-25 12:39:04.66	261.34	13.27	-43.2	-44.1	20.5	0.00e+00	0	42	0	555745280	57	4127
2026-01-25 12:39:05.65	261.52	13.31	-43.3	-44.2	20.5	0.00e+00	0	42	0	558891008	57	4172
2026-01-25 12:39:06.64	261.71	13.35	-43.2	-44.1	20.5	0.00e+00	0	42	0	562036736	57	4126
2026-01-25 12:39:07.63	261.89	13.38	-43.2	-44.2	20.4	0.00e+00	0	42	0	565182464	57	4164
2026-01-25 12:39:08.62	262.08	13.42	-43.3	-44.3	20.4	0.00e+00	0	42	0	568328192	57	4205
2026-01-25 12:39:09.61	262.26	13.46	-43.3	-44.2	20.4	0.00e+00	0	42	0	571473920	57	4191
2026-01-25 12:39:10.61	262.45	13.50	-43.4	-44.4	20.3	0.00e+00	0	42	0	574619648	57	4255
2026-01-25 12:39:11.61	262.63	13.53	-43.4	-44.4	20.3	0.00e+00	0	42	0	577765376	57	4243
2026-01-25 12:39:12.59	262.82	13.57	-43.5	-44.5	20.2	0.00e+00	0	42	0	579862528	57	4293
2026-01-25 12:39:13.58	263.00	13.61	-43.3	-44.3	20.3	0.00e+00	0	42	0	583008256	57	4219
2026-01-25 12:39:14.58	263.19	13.64	-43.3	-44.3	20.4	0.00e+00	0	42	0	586153984	57	4230
2026-01-25 12:39:15.57	263.38	13.68	-43.3	-44.3	20.3	0.00e+00	0	42	0	589299712	57	4228
2026-01-25 12:39:16.57	263.57	13.72	-43.4	-44.3	20.3	0.00e+00	0	42	0	592445440	57	4242
2026-01-25 12:39:17.56	263.76	13.75	-43.2	-44.2	20.5	0.00e+00	0	42	0	595591168	57	4159
2026-01-25 12:39:18.55	263.95	13.79	-43.3	-44.3	20.4	0.00e+00	0	42	0	598736896	57	4204
2026-01-25 12:39:19.54	264.13	13.82	-43.1	-44.1	20.6	0.00e+00	0	42	0	601882624	57	4103
2026-01-25 12:39:20.54	264.33	13.86	-43.0	-43.9	20.7	0.00e+00	0	42	0	605028352	57	4019
2026-01-25 12:39:21.53	264.52	13.89	-43.1	-44.0	20.6	0.00e+00	0	42	0	608174080	57	4092
2026-01-25 12:39:22.52	264.71	13.93	-43.0	-43.9	20.7	0.00e+00	0	42	0	611319808	57	4024
2026-01-25 12:39:23.50	264.89	13.96	-43.0	-43.9	20.7	0.00e+00	0	42	0	614465536	57	4051
2026-01-25 12:39:24.49	265.09	13.99	-43.1	-44.1	20.6	0.00e+00	0	42	0	617611264	57	4103
2026-01-25 12:39:25.49	265.28	14.03	-43.0	-43.9	20.7	0.00e+00	0	42	0	620756992	57	4046
2026-01-25 12:39:26.48	265.47	14.06	-43.1	-44.0	20.6	0.00e+00	0	42	0	623902720	57	4097
2026-01-25 12:39:27.46	265.66	14.09	-43.2	-44.2	20.5	0.00e+00	0	42	0	627048448	57	4153
2026-01-25 12:39:28.46	265.86	14.13	-43.2	-44.2	20.5	0.00e+00	0	42	0	630194176	57	4164
2026-01-25 12:39:29.45	266.05	14.16	-43.2	-44.2	20.5	0.00e+00	0	42	0	633339904	57	4155
2026-01-25 12:39:30.44	266.24	14.19	-43.0	-43.9	20.7	0.00e+00	0	42	0	636485632	57	4035
2026-01-25 12:39:31.43	266.44	14.22	-42.8	-43.8	20.8	0.00e+00	0	42	0	639631360	57	3959
2026-01-25 12:39:32.42	266.63	14.26	-42.8	-43.7	20.9	0.00e+00	0	42	0	642777088	57	3936
2026-01-25 12:39:33.41	266.82	14.29	-42.9	-43.9	20.7	0.00e+00	0	42	0	645922816	57	4007
2026-01-25 12:39:34.40	267.02	14.32	-42.9	-43.8	20.8	0.00e+00	0	42	0	649068544	57	3976
2026-01-25 12:39:35.38	267.21	14.35	-42.9	-43.8	20.7	0.00e+00	0	42	0	651165696	57	3980
2026-01-25 12:39:36.37	267.41	14.38	-42.9	-43.8	20.7	0.00e+00	0	42	0	654311424	57	4002
2026-01-25 12:39:37.35	267.60	14.41	-42.9	-43.9	20.7	0.00e+00	0	42	0	657457152	57	4008
2026-01-25 12:39:38.34	267.80	14.44	-42.9	-43.9	20.7	0.00e+00	0	42	0	660602880	57	4015
2026-01-25 12:39:39.33	268.00	14.47	-42.9	-43.8	20.8	0.00e+00	0	42	0	663748608	57	3978
2026-01-25 12:39:40.31	268.19	14.50	-43.0	-43.9	20.7	0.00e+00	0	42	0	666894336	57	4032
2026-01-25 12:39:41.30	268.39	14.53	-42.8	-43.7	20.9	0.00e+00	0	42	0	670040064	57	3958
2026-01-25 12:39:42.30	268.59	14.56	-42.8	-43.7	20.9	0.00e+00	0	42	0	673185792	57	3932
2026-01-25 12:39:43.29	268.79	14.59	-42.8	-43.8	20.9	0.00e+00	0	42	0	676331520	57	3960
2026-01-25 12:39:44.28	268.99	14.62	-42.7	-43.6	21.0	0.00e+00	0	42	0	679477248	57	3906
2026-01-25 12:39:45.27	269.19	14.64	-42.8	-43.7	20.9	0.00e+00	0	42	0	682622976	57	3918
2026-01-25 12:39:46.25	269.38	14.67	-42.9	-43.8	20.8	0.00e+00	0	42	0	685768704	57	3970
2026-01-25 12:39:47.24	269.58	14.70	-42.8	-43.7	20.9	0.00e+00	0	42	0	688914432	57	3954
2026-01-25 12:39:48.23	269.79	14.73	-42.8	-43.7	20.9	0.00e+00	0	42	0	692060160	57	3956
2026-01-25 12:39:49.22	269.99	14.75	-42.7	-43.6	20.9	0.00e+00	0	42	0	695205888	57	3912
2026-01-25 12:39:50.21	270.19	14.78	-42.7	-43.6	21.0	0.00e+00	0	42	0	698351616	57	3896
2026-01-25 12:39:51.19	270.39	14.81	-42.8	-43.7	20.9	0.00e+00	0	42	0	700448768	57	3930
2026-01-25 12:39:52.18	270.59	14.83	-42.7	-43.6	21.0	0.00e+00	0	42	0	703594496	57	3881
2026-01-25 12:39:53.17	270.79	14.86	-42.7	-43.6	21.0	0.00e+00	0	42	0	706740224	57	3884
2026-01-25 12:39:54.17	270.99	14.88	-42.8	-43.7	20.9	0.00e+00	0	42	0	709885952	57	3932
2026-01-25 12:39:55.15	271.20	14.91	-42.7	-43.6	21.0	0.00e+00	0	42	0	713031680	57	3900
2026-01-25 12:39:56.15	271.40	14.93	-42.8	-43.7	20.9	0.00e+00	0	42	0	716177408	57	3931
2026-01-25 12:39:57.13	271.60	14.96	-42.7	-43.6	21.0	0.00e+00	0	42	0	719323136	57	3910
2026-01-25 12:39:58.12	271.81	14.98	-42.8	-43.7	20.9	0.00e+00	0	42	0	722468864	57	3936
2026-01-25 12:39:59.10	272.01	15.01	-42.8	-43.8	20.8	0.00e+00	0	42	0	725614592	57	3959
2026-01-25 12:40:00.09	272.21	15.03	-42.8	-43.8	20.9	0.00e+00	0	42	0	728760320	57	3966
2026-01-25 12:40:01.08	272.42	15.05	-42.8	-43.7	20.9	0.00e+00	0	42	0	731906048	57	3953
2026-01-25 12:40:02.07	272.62	15.08	-42.8	-43.7	20.9	0.00e+00	0	42	0	735051776	57	3952
2026-01-25 12:40:03.06	272.83	15.10	-42.8	-43.8	20.9	0.00e+00	0	42	0	738197504	57	3960
2026-01-25 12:40:04.05	273.03	15.12	-42.7	-43.6	21.1	0.00e+00	0	42	0	741343232	57	3873
2026-01-25 12:40:05.03	273.24	15.14	-42.8	-43.7	21.0	0.00e+00	0	42	0	744488960	57	3918
2026-01-25 12:40:06.02	273.44	15.17	-42.7	-43.6	21.1	0.00e+00	0	42	0	747634688	57	3870
2026-01-25 12:40:07.00	273.65	15.19	-42.7	-43.6	21.1	0.00e+00	0	42	0	750780416	57	3889
2026-01-25 12:40:07.99	273.85	15.21	-42.7	-43.6	21.0	0.00e+00	0	42	0	753926144	57	3896
2026-01-25 12:40:08.97	274.06	15.23	-42.7	-43.6	21.1	0.00e+00	0	42	0	757071872	57	3886
2026-01-25 12:40:09.96	274.27	15.25	-42.7	-43.6	21.1	0.00e+00	0	42	0	760217600	57	3896
2026-01-25 12:40:10.94	274.47	15.27	-42.6	-43.5	21.2	0.00e+00	0	42	0	762314752	57	3859
2026-01-25 12:40:11.93	274.68	15.29	-42.7	-43.6	21.1	0.00e+00	0	42	0	765460480	57	3881
2026-01-25 12:40:12.92	274.89	15.31	-42.7	-43.6	21.1	0.00e+00	0	42	0	768606208	57	3898
2026-01-25 12:40:13.90	275.09	15.33	-42.7	-43.6	21.1	0.00e+00	0	42	0	771751936	57	3897
2026-01-25 12:40:14.89	275.30	15.35	-42.7	-43.6	21.1	0.00e+00	0	42	0	774897664	57	3893
2026-01-25 12:40:15.88	275.51	15.37	-42.8	-43.7	21.0	0.00e+00	0	42	0	778043392	57	3948
2026-01-25 12:40:16.86	275.72	15.38	-42.9	-43.8	20.9	0.00e+00	0	42	0	781189120	57	3965
2026-01-25 12:40:17.84	275.92	15.40	-43.0	-43.9	20.8	0.00e+00	0	42	0	784334848	57	4035
2026-01-25 12:40:18.83	276.13	15.42	-42.8	-43.7	21.0	0.00e+00	0	42	0	787480576	57	3930
2026-01-25 12:40:19.82	276.34	15.44	-42.7	-43.6	21.1	0.00e+00	0	42	0	790626304	57	3888
2026-01-25 12:40:20.80	276.55	15.45	-42.7	-43.6	21.1	0.00e+00	0	42	0	793772032	57	3894
2026-01-25 12:40:21.79	276.76	15.47	-42.7	-43.6	21.1	0.00e+00	0	42	0	796917760	57	3882
2026-01-25 12:40:22.78	276.97	15.48	-42.8	-43.7	21.1	0.00e+00	0	42	0	800063488	57	3914
2026-01-25 12:40:23.76	277.18	15.50	-42.7	-43.6	21.1	0.00e+00	0	42	0	803209216	57	3905
2026-01-25 12:40:24.75	277.39	15.52	-42.6	-43.5	21.2	0.00e+00	0	42	0	806354944	57	3846
2026-01-25 12:40:25.74	277.60	15.53	-42.6	-43.5	21.2	0.00e+00	0	42	0	809500672	57	3838
2026-01-25 12:40:26.72	277.81	15.55	-42.7	-43.6	21.1	0.00e+00	0	42	0	812646400	57	3897
2026-01-25 12:40:27.72	278.03	15.56	-42.7	-43.6	21.1	0.00e+00	0	42	0	815792128	57	3910
2026-01-25 12:40:28.70	278.24	15.57	-42.9	-43.8	20.9	0.00e+00	0	42	0	818937856	57	3978
2026-01-25 12:40:29.69	278.45	15.59	-42.8	-43.7	21.0	0.00e+00	0	42	0	821035008	57	3954
2026-01-25 12:40:30.68	278.66	15.60	-42.9	-43.8	21.0	0.00e+00	0	42	0	824180736	57	3964
2026-01-25 12:40:31.66	278.87	15.61	-42.7	-43.6	21.1	0.00e+00	0	42	0	827326464	57	3901
2026-01-25 12:40:32.64	279.08	15.63	-42.7	-43.6	21.2	0.00e+00	0	42	0	830472192	57	3893
2026-01-25 12:40:33.63	279.29	15.64	-42.6	-43.5	21.2	0.00e+00	0	42	0	833617920	57	3855
2026-01-25 12:40:34.63	279.51	15.65	-42.7	-43.6	21.1	0.00e+00	0	42	0	836763648	57	3892
2026-01-25 12:40:35.61	279.72	15.66	-42.7	-43.5	21.1	0.00e+00	0	42	0	839909376	57	3866
2026-01-25 12:40:36.60	279.93	15.67	-42.8	-43.7	21.0	0.00e+00	0	42	0	843055104	57	3920
2026-01-25 12:40:37.58	280.14	15.68	-42.8	-43.7	21.0	0.00e+00	0	42	0	846200832	57	3935
2026-01-25 12:40:38.57	280.36	15.69	-42.8	-43.7	21.0	0.00e+00	0	42	0	849346560	57	3956
2026-01-25 12:40:39.56	280.57	15.70	-42.9	-43.8	21.0	0.00e+00	0	42	0	852492288	57	3991
2026-01-25 12:40:40.55	280.78	15.71	-42.8	-43.6	21.1	0.00e+00	0	42	0	855638016	57	3906
2026-01-25 12:40:41.53	280.99	15.72	-42.7	-43.6	21.2	0.00e+00	0	42	0	858783744	57	3884
2026-01-25 12:40:42.52	281.21	15.73	-42.8	-43.7	21.1	0.00e+00	0	42	0	861929472	57	3947
2026-01-25 12:40:43.50	281.42	15.74	-42.8	-43.6	21.2	0.00e+00	0	42	0	865075200	57	3913
2026-01-25 12:40:44.49	281.63	15.75	-42.7	-43.6	21.2	0.00e+00	0	42	0	867172352	57	3885
2026-01-25 12:40:45.48	281.85	15.75	-42.8	-43.7	21.1	0.00e+00	0	42	0	870318080	57	3938
2026-01-25 12:40:46.46	282.06	15.76	-42.9	-43.8	21.0	0.00e+00	0	42	0	873463808	57	3996
2026-01-25 12:40:47.45	282.27	15.77	-43.0	-43.9	20.9	0.00e+00	0	42	0	876609536	57	4023
2026-01-25 12:40:48.44	282.49	15.78	-43.1	-44.0	20.8	0.00e+00	0	42	0	879755264	57	4080
2026-01-25 12:40:49.43	282.70	15.78	-43.1	-44.0	20.9	0.00e+00	0	42	0	882900992	57	4082
2026-01-25 12:40:50.42	282.92	15.79	-43.1	-44.1	20.8	0.00e+00	0	42	0	886046720	57	4104
2026-01-25 12:40:51.41	283.13	15.79	-43.0	-43.9	21.0	0.00e+00	0	42	0	889192448	57	4018
2026-01-25 12:40:52.39	283.35	15.80	-42.9	-43.7	21.1	0.00e+00	0	42	0	892338176	57	3953
2026-01-25 12:40:53.37	283.56	15.80	-42.9	-43.8	21.0	0.00e+00	0	42	0	895483904	57	4003
2026-01-25 12:40:54.36	283.77	15.81	-43.0	-43.9	20.9	0.00e+00	0	42	0	898629632	57	4048
2026-01-25 12:40:55.34	283.99	15.81	-42.9	-43.9	21.0	0.00e+00	0	42	0	901775360	57	4007
2026-01-25 12:40:56.32	284.20	15.81	-43.0	-44.0	20.9	0.00e+00	0	42	0	904921088	57	4055
2026-01-25 12:40:57.31	284.41	15.82	-43.0	-43.9	20.9	0.00e+00	0	42	0	908066816	57	4047
2026-01-25 12:40:58.30	284.63	15.82	-43.1	-44.0	20.8	0.00e+00	0	42	0	911212544	57	4095
2026-01-25 12:40:59.28	284.84	15.82	-43.1	-44.0	20.8	0.00e+00	0	42	0	913309696	57	4090
2026-01-25 12:41:00.27	285.06	15.83	-43.1	-44.0	20.8	0.00e+00	0	42	0	916455424	57	4089
2026-01-25 12:41:01.25	285.27	15.83	-43.1	-44.0	20.8	0.00e+00	0	42	0	919601152	57	4076
2026-01-25 12:41:02.24	285.48	15.83	-43.2	-44.1	20.7	0.00e+00	0	42	0	922746880	57	4121
2026-01-25 12:41:03.22	285.70	15.83	-43.0	-43.9	20.9	0.00e+00	0	42	0	925892608	57	4044
2026-01-25 12:41:04.21	285.91	15.83	-43.0	-43.9	20.9	0.00e+00	0	42	0	929038336	57	4036
2026-01-25 12:41:05.19	286.13	15.83	-43.0	-44.0	20.8	0.00e+00	0	42	0	932184064	57	4056
2026-01-25 12:41:06.18	286.34	15.83	-43.1	-44.0	20.8	0.00e+00	0	42	0	935329792	57	4083
2026-01-25 12:41:07.16	286.55	15.83	-42.9	-43.8	20.9	0.00e+00	0	42	0	938475520	57	4003
2026-01-25 12:41:08.15	286.77	15.83	-43.1	-44.1	20.8	0.00e+00	0	42	0	941621248	57	4104
2026-01-25 12:41:09.13	286.98	15.83	-43.0	-43.9	20.9	0.00e+00	0	42	0	944766976	57	4011
2026-01-25 12:41:10.12	287.20	15.83	-43.0	-43.9	20.9	0.00e+00	0	42	0	947912704	57	4047
2026-01-25 12:41:11.11	287.41	15.82	-43.0	-43.9	20.9	0.00e+00	0	42	0	951058432	57	4041
2026-01-25 12:41:12.09	287.63	15.82	-43.0	-43.9	20.9	0.00e+00	0	42	0	954204160	57	4044
2026-01-25 12:41:13.08	287.84	15.82	-42.9	-43.8	21.0	0.00e+00	0	42	0	957349888	57	3996
2026-01-25 12:41:14.06	288.05	15.82	-42.9	-43.8	21.0	0.00e+00	0	42	0	960495616	57	4004
2026-01-25 12:41:15.05	288.27	15.81	-43.0	-43.9	20.9	0.00e+00	0	42	0	963641344	57	4029
2026-01-25 12:41:16.04	288.48	15.81	-43.2	-44.1	20.8	0.00e+00	0	42	0	966787072	57	4113
2026-01-25 12:41:17.03	288.70	15.80	-42.9	-43.8	21.0	0.00e+00	0	42	0	968884224	57	4002
2026-01-25 12:41:18.01	288.91	15.80	-42.9	-43.9	21.0	0.00e+00	0	42	0	972029952	57	4005
2026-01-25 12:41:19.00	289.13	15.79	-42.9	-43.8	21.0	0.00e+00	0	42	0	975175680	57	4003
2026-01-25 12:41:19.99	289.34	15.79	-42.8	-43.7	21.1	0.00e+00	0	42	0	978321408	57	3949
2026-01-25 12:41:20.97	289.55	15.78	-42.8	-43.6	21.2	0.00e+00	0	42	0	981467136	57	3909
2026-01-25 12:41:21.95	289.76	15.78	-42.7	-43.5	21.3	0.00e+00	0	42	0	984612864	57	3860
2026-01-25 12:41:22.94	289.98	15.77	-42.8	-43.6	21.2	0.00e+00	0	42	0	987758592	57	3907
2026-01-25 12:41:23.92	290.19	15.76	-42.8	-43.6	21.2	0.00e+00	0	42	0	990904320	57	3911
2026-01-25 12:41:24.91	290.41	15.76	-42.7	-43.6	21.3	0.00e+00	0	42	0	994050048	57	3893
2026-01-25 12:41:25.89	290.62	15.75	-42.9	-43.8	21.1	0.00e+00	0	42	0	997195776	57	3965
2026-01-25 12:41:26.87	290.83	15.74	-42.9	-43.8	21.1	0.00e+00	0	42	0	1000341504	57	3969
2026-01-25 12:41:27.86	291.04	15.73	-42.8	-43.7	21.2	0.00e+00	0	42	0	1003487232	57	3938
2026-01-25 12:41:28.85	291.26	15.72	-42.9	-43.8	21.1	0.00e+00	0	42	0	1006632960	57	3981
2026-01-25 12:41:29.83	291.47	15.71	-42.9	-43.8	21.0	0.00e+00	0	42	0	1009778688	57	3990
2026-01-25 12:41:30.82	291.68	15.70	-42.9	-43.8	21.1	0.00e+00	0	42	0	1012924416	57	3983
2026-01-25 12:41:31.81	291.89	15.70	-42.9	-43.8	21.0	0.00e+00	0	42	0	1016070144	57	4002
2026-01-25 12:41:32.80	292.11	15.68	-42.9	-43.8	21.0	0.00e+00	0	42	0	1019215872	57	3984
2026-01-25 12:41:33.78	292.32	15.67	-42.9	-43.8	21.0	0.00e+00	0	42	0	1021313024	57	3983
2026-01-25 12:41:34.78	292.53	15.66	-43.0	-43.9	21.0	0.00e+00	0	42	0	1024458752	57	4014
2026-01-25 12:41:35.76	292.74	15.65	-43.0	-43.9	20.9	0.00e+00	0	42	0	1027604480	57	4045
2026-01-25 12:41:36.74	292.95	15.64	-43.1	-44.0	20.8	0.00e+00	0	42	0	1030750208	57	4078
2026-01-25 12:41:37.73	293.17	15.63	-43.1	-44.0	20.8	0.00e+00	0	42	0	1033895936	57	4083
2026-01-25 12:41:38.72	293.38	15.62	-43.0	-43.9	20.9	0.00e+00	0	42	0	1037041664	57	4042
2026-01-25 12:41:39.71	293.59	15.60	-43.0	-43.9	20.9	0.00e+00	0	42	0	1040187392	57	4049
2026-01-25 12:41:40.70	293.80	15.59	-43.0	-43.9	21.0	0.00e+00	0	42	0	1043333120	57	4015
2026-01-25 12:41:41.69	294.01	15.58	-42.9	-43.8	21.1	0.00e+00	0	42	0	1046478848	57	3966
2026-01-25 12:41:42.67	294.22	15.56	-42.9	-43.7	21.0	0.00e+00	0	42	0	1049624576	57	3958
2026-01-25 12:41:43.66	294.43	15.55	-42.9	-43.9	21.0	0.00e+00	0	42	0	1052770304	57	4007
2026-01-25 12:41:44.65	294.65	15.53	-43.0	-44.0	20.9	0.00e+00	0	42	0	1055916032	57	4052
2026-01-25 12:41:45.64	294.86	15.52	-43.1	-44.0	20.8	0.00e+00	0	42	0	1059061760	57	4085
2026-01-25 12:41:46.62	295.07	15.50	-43.1	-44.1	20.7	0.00e+00	0	42	0	1062207488	57	4116
2026-01-25 12:41:47.60	295.27	15.49	-43.2	-44.1	20.7	0.00e+00	0	42	0	1065353216	57	4145
2026-01-25 12:41:48.59	295.48	15.47	-43.2	-44.1	20.8	0.00e+00	0	42	0	1067450368	57	4116
2026-01-25 12:41:49.57	295.69	15.46	-43.1	-44.0	20.8	0.00e+00	0	42	0	1070596096	57	4082
2026-01-25 12:41:50.56	295.90	15.44	-43.0	-43.9	20.8	0.00e+00	0	42	0	1073741824	57	4048
2026-01-25 12:41:51.55	296.11	15.42	-43.0	-43.9	20.8	0.00e+00	0	42	0	1076887552	57	4043
2026-01-25 12:41:52.53	296.32	15.41	-42.9	-43.8	20.9	0.00e+00	0	42	0	1080033280	57	3994
2026-01-25 12:41:53.52	296.53	15.39	-42.9	-43.8	20.9	0.00e+00	0	42	0	1083179008	57	3995
2026-01-25 12:41:54.50	296.73	15.37	-43.0	-43.9	20.9	0.00e+00	0	42	0	1086324736	57	4034
2026-01-25 12:41:55.49	296.94	15.35	-43.0	-43.9	20.9	0.00e+00	0	42	0	1089470464	57	4044
2026-01-25 12:41:56.48	297.15	15.33	-43.0	-43.9	20.9	0.00e+00	0	42	0	1092616192	57	4045
2026-01-25 12:41:57.47	297.36	15.31	-42.9	-43.8	21.0	0.00e+00	0	42	0	1095761920	57	3997
2026-01-25 12:41:58.45	297.56	15.29	-42.9	-43.8	21.0	0.00e+00	0	42	0	1098907648	57	3993
2026-01-25 12:41:59.44	297.77	15.28	-42.9	-43.8	20.9	0.00e+00	0	42	0	1102053376	57	3997
2026-01-25 12:42:00.42	297.98	15.26	-43.0	-43.9	20.9	0.00e+00	0	42	0	1105199104	57	4020
2026-01-25 12:42:01.41	298.18	15.23	-43.0	-44.0	20.8	0.00e+00	0	42	0	1108344832	57	4062
2026-01-25 12:42:02.40	298.39	15.21	-43.1	-44.0	20.8	0.00e+00	0	42	0	1111490560	57	4081
2026-01-25 12:42:03.39	298.60	15.19	-43.1	-44.0	20.8	0.00e+00	0	42	0	1113587712	57	4076
2026-01-25 12:42:04.37	298.80	15.17	-43.1	-44.1	20.7	0.00e+00	0	42	0	1116733440	57	4107
2026-01-25 12:42:05.36	299.01	15.15	-43.0	-44.0	20.8	0.00e+00	0	42	0	1119879168	57	4062
2026-01-25 12:42:06.34	299.21	15.13	-43.1	-44.1	20.7	0.00e+00	0	42	0	1123024896	57	4113
2026-01-25 12:42:07.33	299.42	15.11	-43.0	-43.9	20.9	0.00e+00	0	42	0	1126170624	57	4035
2026-01-25 12:42:08.31	299.62	15.08	-42.9	-43.9	20.9	0.00e+00	0	42	0	1129316352	57	4012
2026-01-25 12:42:09.29	299.82	15.06	-42.8	-43.7	21.0	0.00e+00	0	42	0	1132462080	57	3954
2026-01-25 12:42:10.28	300.03	15.04	-42.9	-43.9	20.9	0.00e+00	0	42	0	1135607808	57	4010
2026-01-25 12:42:11.27	300.23	15.01	-42.9	-43.8	20.9	0.00e+00	0	42	0	1138753536	57	3991
2026-01-25 12:42:12.26	300.43	14.99	-42.9	-43.8	20.9	0.00e+00	0	42	0	1141899264	57	3980
2026-01-25 12:42:13.24	300.63	14.97	-43.0	-43.9	20.9	0.00e+00	0	42	0	1145044992	57	4046
2026-01-25 12:42:14.22	300.84	14.94	-42.9	-43.8	21.0	0.00e+00	0	42	0	1148190720	57	3995
2026-01-25 12:42:15.21	301.04	14.92	-42.8	-43.8	21.0	0.00e+00	0	42	0	1151336448	57	3959
2026-01-25 12:42:16.19	301.24	14.89	-42.9	-43.8	21.0	0.00e+00	0	42	0	1154482176	57	3963
2026-01-25 12:42:17.17	301.44	14.87	-42.9	-43.8	21.0	0.00e+00	0	42	0	1157627904	57	3978
2026-01-25 12:42:18.16	301.64	14.84	-42.9	-43.8	21.0	0.00e+00	0	42	0	1160773632	57	3984
2026-01-25 12:42:19.14	301.84	14.82	-42.9	-43.8	20.9	0.00e+00	0	42	0	1163919360	57	3994
2026-01-25 12:42:20.12	302.04	14.79	-43.0	-43.9	20.9	0.00e+00	0	42	0	1167065088	57	4035
2026-01-25 12:42:21.11	302.24	14.76	-42.8	-43.8	21.0	0.00e+00	0	42	0	1170210816	57	3965
2026-01-25 12:42:22.10	302.44	14.74	-42.8	-43.7	21.1	0.00e+00	0	42	0	1173356544	57	3952
2026-01-25 12:42:23.08	302.64	14.71	-42.8	-43.7	21.1	0.00e+00	0	42	0	1175453696	57	3945
2026-01-25 12:42:24.06	302.83	14.68	-42.8	-43.7	21.1	0.00e+00	0	42	0	1178599424	57	3921
2026-01-25 12:42:25.05	303.03	14.65	-42.7	-43.6	21.1	0.00e+00	0	42	0	1181745152	57	3896
2026-01-25 12:42:26.05	303.23	14.63	-42.7	-43.6	21.1	0.00e+00	0	42	0	1184890880	57	3907
2026-01-25 12:42:27.03	303.43	14.60	-42.8	-43.7	21.1	0.00e+00	0	42	0	1188036608	57	3939
2026-01-25 12:42:28.02	303.63	14.57	-42.8	-43.7	21.0	0.00e+00	0	42	0	1191182336	57	3946
2026-01-25 12:42:29.01	303.83	14.54	-42.9	-43.8	21.0	0.00e+00	0	42	0	1194328064	57	3970
2026-01-25 12:42:30.00	304.02	14.51	-42.8	-43.7	21.1	0.00e+00	0	42	0	1197473792	57	3929
2026-01-25 12:42:30.99	304.22	14.48	-42.8	-43.7	21.1	0.00e+00	0	42	0	1200619520	57	3922
2026-01-25 12:42:31.97	304.42	14.45	-42.7	-43.7	21.1	0.00e+00	0	42	0	1203765248	57	3915
2026-01-25 12:42:32.96	304.61	14.42	-42.7	-43.6	21.1	0.00e+00	0	42	0	1206910976	57	3904
2026-01-25 12:42:33.95	304.81	14.39	-42.7	-43.7	21.1	0.00e+00	0	42	0	1210056704	57	3914
2026-01-25 12:42:34.94	305.00	14.36	-42.7	-43.6	21.0	0.00e+00	0	42	0	1213202432	57	3908
2026-01-25 12:42:35.92	305.20	14.33	-42.7	-43.6	21.0	0.00e+00	0	42	0	1216348160	57	3899
2026-01-25 12:42:36.91	305.39	14.30	-42.8	-43.7	21.0	0.00e+00	0	42	0	1219493888	57	3917
2026-01-25 12:42:37.89	305.58	14.27	-42.7	-43.6	21.0	0.00e+00	0	42	0	1221591040	57	3911
2026-01-25 12:42:38.88	305.78	14.24	-42.7	-43.6	21.0	0.00e+00	0	42	0	1224736768	57	3908
2026-01-25 12:42:39.87	305.97	14.21	-42.8	-43.7	21.1	0.00e+00	0	42	0	1227882496	57	3929
2026-01-25 12:42:40.86	306.16	14.17	-42.8	-43.7	21.0	0.00e+00	0	42	0	1231028224	57	3957
2026-01-25 12:42:41.85	306.36	14.14	-42.8	-43.8	21.0	0.00e+00	0	42	0	1234173952	57	3961
2026-01-25 12:42:42.83	306.55	14.11	-42.8	-43.7	21.0	0.00e+00	0	42	0	1237319680	57	3952
2026-01-25 12:42:43.82	306.74	14.08	-42.9	-43.8	20.9	0.00e+00	0	42	0	1240465408	57	3992
2026-01-25 12:42:44.80	306.93	14.04	-42.9	-43.8	20.9	0.00e+00	0	42	0	1243611136	57	3996
2026-01-25 12:42:45.79	307.12	14.01	-42.9	-43.8	20.9	0.00e+00	0	42	0	1246756864	57	3984
2026-01-25 12:42:46.77	307.31	13.98	-42.9	-43.8	20.9	0.00e+00	0	42	0	1249902592	57	3978
2026-01-25 12:42:47.76	307.50	13.94	-42.8	-43.7	21.0	0.00e+00	0	42	0	1253048320	57	3945
2026-01-25 12:42:48.74	307.69	13.91	-42.8	-43.7	21.0	0.00e+00	0	42	0	1256194048	57	3914
2026-01-25 12:42:49.73	307.88	13.87	-42.7	-43.6	21.0	0.00e+00	0	42	0	1259339776	57	3880
2026-01-25 12:42:50.72	308.06	13.84	-42.7	-43.6	21.0	0.00e+00	0	42	0	1262485504	57	3901
2026-01-25 12:42:51.70	308.25	13.81	-42.7	-43.6	21.0	0.00e+00	0	42	0	1265631232	57	3884
2026-01-25 12:42:52.69	308.44	13.77	-42.8	-43.7	21.0	0.00e+00	0	42	0	1267728384	57	3916
2026-01-25 12:42:53.67	308.62	13.74	-42.9	-43.8	20.9	0.00e+00	0	42	0	1270874112	57	3969
2026-01-25 12:42:54.66	308.81	13.70	-42.8	-43.7	21.0	0.00e+00	0	42	0	1274019840	57	3934
2026-01-25 12:42:55.65	309.00	13.66	-42.9	-43.8	20.9	0.00e+00	0	42	0	1277165568	57	3972
2026-01-25 12:42:56.63	309.18	13.63	-43.0	-43.9	20.8	0.00e+00	0	42	0	1280311296	57	4020
2026-01-25 12:42:57.62	309.37	13.59	-42.8	-43.7	20.9	0.00e+00	0	42	0	1283457024	57	3958
2026-01-25 12:42:58.61	309.55	13.56	-42.9	-43.9	20.8	0.00e+00	0	42	0	1286602752	57	4008
2026-01-25 12:42:59.59	309.74	13.52	-42.9	-43.8	20.8	0.00e+00	0	42	0	1289748480	57	3999
2026-01-25 12:43:00.58	309.92	13.48	-43.0	-43.9	20.8	0.00e+00	0	42	0	1292894208	57	4017
2026-01-25 12:43:01.58	310.11	13.45	-42.9	-43.9	20.8	0.00e+00	0	42	0	1296039936	57	4008
2026-01-25 12:43:02.57	310.29	13.41	-42.7	-43.6	21.0	0.00e+00	0	42	0	1299185664	57	3906
2026-01-25 12:43:03.56	310.47	13.37	-42.7	-43.6	21.1	0.00e+00	0	42	0	1302331392	57	3872
2026-01-25 12:43:04.54	310.66	13.33	-42.7	-43.6	21.1	0.00e+00	0	42	0	1305477120	57	3874
2026-01-25 12:43:05.53	310.84	13.30	-42.6	-43.5	21.1	0.00e+00	0	42	0	1308622848	57	3837
2026-01-25 12:43:06.52	311.02	13.26	-42.6	-43.5	21.1	0.00e+00	0	42	0	1311768576	57	3845
2026-01-25 12:43:07.51	311.20	13.22	-42.5	-43.4	21.2	0.00e+00	0	42	0	1314914304	57	3804
2026-01-25 12:43:08.49	311.38	13.18	-42.5	-43.4	21.2	0.00e+00	0	42	0	1317011456	57	3793
2026-01-25 12:43:09.48	311.56	13.14	-42.5	-43.4	21.2	0.00e+00	0	42	0	1320157184	57	3790
2026-01-25 12:43:10.47	311.74	13.10	-42.5	-43.4	21.2	0.00e+00	0	42	0	1323302912	56	4017
2026-01-25 12:43:11.45	311.92	13.07	-42.6	-43.4	21.1	0.00e+00	0	42	0	1326448640	56	4048
2026-01-25 12:43:12.44	312.10	13.03	-42.6	-43.5	21.1	0.00e+00	0	43	0	1329594368	56	4072
2026-01-25 12:43:13.43	312.28	12.99	-42.7	-43.6	21.0	0.00e+00	0	42	0	1332740096	56	4122
2026-01-25 12:43:14.42	312.45	12.95	-42.8	-43.6	21.0	0.00e+00	0	42	0	1335885824	56	4145
2026-01-25 12:43:15.41	312.63	12.91	-42.7	-43.6	21.0	0.00e+00	0	42	0	1339031552	56	4143
2026-01-25 12:43:16.40	312.81	12.87	-42.8	-43.7	20.9	0.00e+00	0	42	0	1342177280	56	4158
2026-01-25 12:43:17.39	312.99	12.83	-42.8	-43.7	20.9	0.00e+00	0	42	0	1345323008	56	4166
2026-01-25 12:43:18.38	313.16	12.79	-42.7	-43.6	20.9	0.00e+00	0	42	0	1348468736	56	4119
2026-01-25 12:43:19.36	313.34	12.75	-42.7	-43.6	20.9	0.00e+00	0	42	0	1351614464	56	4140
2026-01-25 12:43:20.35	313.51	12.71	-42.7	-43.6	20.8	0.00e+00	0	42	0	1354760192	56	4130
2026-01-25 12:43:21.34	313.69	12.67	-42.8	-43.6	20.8	0.00e+00	0	42	0	1357905920	56	4144
2026-01-25 12:43:22.33	313.86	12.62	-42.8	-43.7	20.8	0.00e+00	0	42	0	1361051648	56	4178
2026-01-25 12:43:23.31	314.03	12.58	-42.8	-43.8	20.8	0.00e+00	0	42	0	1364197376	56	4198
2026-01-25 12:43:24.31	314.21	12.54	-43.0	-44.0	20.6	0.00e+00	0	42	0	1367343104	56	4298
2026-01-25 12:43:25.29	314.38	12.50	-43.0	-44.0	20.6	0.00e+00	0	42	0	1370488832	56	4310
2026-01-25 12:43:26.28	314.55	12.46	-43.1	-44.0	20.6	0.00e+00	0	42	0	1373634560	56	4314
2026-01-25 12:43:27.27	314.72	12.42	-43.2	-44.1	20.5	0.00e+00	0	42	0	1376780288	56	4375
2026-01-25 12:43:28.25	314.89	12.38	-43.2	-44.2	20.4	0.00e+00	0	42	0	1378877440	57	4172
2026-01-25 12:43:29.23	315.06	12.33	-43.4	-44.4	20.2	0.00e+00	0	42	0	1382023168	57	4260
2026-01-25 12:43:30.22	315.23	12.29	-43.4	-44.4	20.2	0.00e+00	0	42	0	1385168896	57	4267
2026-01-25 12:43:31.21	315.40	12.25	-43.4	-44.4	20.2	0.00e+00	0	42	0	1388314624	57	4258
2026-01-25 12:43:32.20	315.57	12.21	-43.3	-44.3	20.3	0.00e+00	0	42	0	1391460352	57	4230
2026-01-25 12:43:33.19	315.74	12.16	-43.2	-44.2	20.4	0.00e+00	0	42	0	1394606080	57	4175
2026-01-25 12:43:34.17	315.91	12.12	-43.1	-44.1	20.4	0.00e+00	0	42	0	1397751808	57	4103
2026-01-25 12:43:35.15	316.08	12.08	-43.1	-44.1	20.5	0.00e+00	0	42	0	1400897536	57	4110
2026-01-25 12:43:36.14	316.24	12.04	-43.2	-44.2	20.3	0.00e+00	0	42	0	1404043264	57	4160
2026-01-25 12:43:37.12	316.41	11.99	-43.1	-44.0	20.5	0.00e+00	0	42	0	1407188992	57	4093
2026-01-25 12:43:38.11	316.58	11.95	-42.9	-43.9	20.6	0.00e+00	0	42	0	1410334720	57	4018
2026-01-25 12:43:39.10	316.74	11.91	-43.0	-43.9	20.5	0.00e+00	0	42	0	1413480448	57	4042
2026-01-25 12:43:40.08	316.91	11.86	-42.9	-43.9	20.6	0.00e+00	0	42	0	1416626176	57	4014
2026-01-25 12:43:41.07	317.07	11.82	-42.8	-43.8	20.7	0.00e+00	0	42	0	1419771904	57	3959
2026-01-25 12:43:42.05	317.23	11.78	-42.9	-43.9	20.6	0.00e+00	0	42	0	1422917632	57	4012
2026-01-25 12:43:43.03	317.40	11.73	-43.1	-44.0	20.5	0.00e+00	0	42	0	1426063360	57	4072
2026-01-25 12:43:44.01	317.56	11.69	-43.2	-44.2	20.3	0.00e+00	0	42	0	1429209088	57	4160
2026-01-25 12:43:45.00	317.72	11.64	-43.2	-44.1	20.4	0.00e+00	0	42	0	1432354816	57	4142
2026-01-25 12:43:45.99	317.89	11.60	-43.5	-44.5	20.1	0.00e+00	0	42	0	1434451968	57	4300
2026-01-25 12:43:46.97	318.05	11.55	-43.5	-44.5	20.0	0.00e+00	0	42	0	1437597696	57	4334
2026-01-25 12:43:47.97	318.21	11.51	-43.5	-44.5	20.0	0.00e+00	0	42	0	1440743424	57	4310
2026-01-25 12:43:48.95	318.37	11.47	-43.6	-44.6	19.9	0.00e+00	0	42	0	1443889152	57	4362
2026-01-25 12:43:49.94	318.53	11.42	-43.9	-44.9	19.6	0.00e+00	0	42	0	1447034880	58	4281
2026-01-25 12:43:50.93	318.69	11.38	-43.7	-44.7	19.8	0.00e+00	0	42	0	1450180608	58	4187
2026-01-25 12:43:51.91	318.85	11.33	-43.8	-44.8	19.7	0.00e+00	0	42	0	1453326336	58	4228
2026-01-25 12:43:52.89	319.01	11.29	-43.9	-44.9	19.6	0.00e+00	0	42	0	1456472064	58	4279
2026-01-25 12:43:53.88	319.17	11.24	-43.8	-44.8	19.7	0.00e+00	0	42	0	1459617792	58	4234
2026-01-25 12:43:54.86	319.33	11.20	-43.9	-44.9	19.6	0.00e+00	0	42	0	1462763520	58	4286
2026-01-25 12:43:55.85	319.48	11.15	-43.8	-44.8	19.7	0.00e+00	0	42	0	1465909248	58	4237
2026-01-25 12:43:56.84	319.64	11.10	-43.7	-44.7	19.8	0.00e+00	0	42	0	1469054976	58	4180
2026-01-25 12:43:57.82	319.80	11.06	-43.6	-44.7	19.8	0.00e+00	0	42	0	1472200704	58	4157
2026-01-25 12:43:58.81	319.95	11.01	-43.7	-44.7	19.8	0.00e+00	0	42	0	1475346432	58	4166
2026-01-25 12:43:59.79	320.11	10.97	-43.6	-44.6	19.9	0.00e+00	0	42	0	1477443584	58	4112
2026-01-25 12:44:00.78	320.26	10.92	-43.5	-44.6	20.0	0.00e+00	0	42	0	1480589312	58	4099
2026-01-25 12:44:01.77	320.42	10.87	-43.6	-44.6	19.9	0.00e+00	0	42	0	1483735040	58	4124
2026-01-25 12:44:02.76	320.58	10.83	-43.6	-44.6	19.9	0.00e+00	0	42	0	1486880768	58	4130
2026-01-25 12:44:03.75	320.73	10.78	-43.6	-44.6	19.9	0.00e+00	0	42	0	1490026496	58	4112
2026-01-25 12:44:04.74	320.88	10.74	-43.5	-44.6	20.0	0.00e+00	0	42	0	1493172224	58	4099
2026-01-25 12:44:05.72	321.04	10.69	-43.7	-44.7	19.8	0.00e+00	0	42	0	1496317952	58	4192
2026-01-25 12:44:06.71	321.19	10.64	-43.6	-44.7	19.8	0.00e+00	0	42	0	1499463680	58	4157
2026-01-25 12:44:07.69	321.34	10.60	-43.6	-44.7	19.8	0.00e+00	0	42	0	1502609408	58	4157
2026-01-25 12:44:08.68	321.49	10.55	-43.8	-44.8	19.7	0.00e+00	0	42	0	1505755136	58	4218
2026-01-25 12:44:09.66	321.64	10.50	-43.7	-44.7	19.7	0.00e+00	0	42	0	1508900864	58	4190
2026-01-25 12:44:10.65	321.79	10.46	-43.8	-44.8	19.6	0.00e+00	0	42	0	1512046592	58	4233
2026-01-25 12:44:11.63	321.94	10.41	-43.7	-44.7	19.7	0.00e+00	0	42	0	1515192320	58	4182
2026-01-25 12:44:12.62	322.09	10.36	-43.7	-44.7	19.7	0.00e+00	0	42	0	1518338048	58	4184
2026-01-25 12:44:13.60	322.24	10.31	-43.8	-44.9	19.6	0.00e+00	0	42	0	1521483776	58	4243
2026-01-25 12:44:14.60	322.39	10.27	-43.8	-44.9	19.6	0.00e+00	0	42	0	1524629504	58	4267
2026-01-25 12:44:15.58	322.54	10.22	-43.8	-44.9	19.6	0.00e+00	0	42	0	1526726656	58	4271
2026-01-25 12:44:16.58	322.69	10.17	-43.9	-44.9	19.5	0.00e+00	0	42	0	1529872384	58	4285
2026-01-25 12:44:17.57	322.84	10.12	-44.0	-45.1	19.4	0.00e+00	0	42	0	1533018112	58	4365
2026-01-25 12:44:18.56	322.98	10.08	-44.1	-45.2	19.3	0.00e+00	0	42	0	1536163840	58	4420
2026-01-25 12:44:19.55	323.13	10.03	-43.9	-45.0	19.5	0.00e+00	0	42	0	1539309568	58	4302
2026-01-25 12:44:20.53	323.28	9.98	-43.8	-44.9	19.6	0.00e+00	0	42	0	1542455296	58	4250
2026-01-25 12:44:21.53	323.42	9.93	-43.9	-45.0	19.5	0.00e+00	0	42	0	1545601024	58	4300
2026-01-25 12:44:22.52	323.57	9.89	-43.9	-45.0	19.5	0.00e+00	0	42	0	1548746752	58	4306
2026-01-25 12:44:23.51	323.71	9.84	-44.0	-45.1	19.4	0.00e+00	0	42	0	1551892480	58	4359
2026-01-25 12:44:24.49	323.86	9.79	-43.9	-44.9	19.5	0.00e+00	0	42	0	1555038208	58	4286
2026-01-25 12:44:25.47	324.00	9.74	-43.9	-45.0	19.5	0.00e+00	0	42	0	1558183936	58	4296
2026-01-25 12:44:26.46	324.14	9.69	-43.9	-45.0	19.5	0.00e+00	0	42	0	1561329664	58	4296
2026-01-25 12:44:27.45	324.29	9.65	-44.0	-45.0	19.4	0.00e+00	0	42	0	1564475392	58	4330
2026-01-25 12:44:28.43	324.43	9.60	-44.1	-45.2	19.3	0.00e+00	0	43	0	1567621120	58	4419
2026-01-25 12:44:29.43	324.57	9.55	-44.2	-45.3	19.2	0.00e+00	0	42	0	1570766848	59	4215
2026-01-25 12:44:30.41	324.71	9.50	-44.1	-45.3	19.3	0.00e+00	0	42	0	1573912576	59	4195
2026-01-25 12:44:31.40	324.85	9.45	-44.2	-45.3	19.2	0.00e+00	0	42	0	1577058304	59	4224
2026-01-25 12:44:32.38	324.99	9.40	-44.1	-45.2	19.4	0.00e+00	0	42	0	1580204032	59	4153
2026-01-25 12:44:33.37	325.13	9.36	-44.0	-45.0	19.5	0.00e+00	0	42	0	1583349760	59	4092
2026-01-25 12:44:34.35	325.27	9.31	-44.1	-45.1	19.3	0.00e+00	0	42	0	1585446912	59	4145
2026-01-25 12:44:35.34	325.41	9.26	-44.1	-45.2	19.3	0.00e+00	0	42	0	1588592640	59	4162
2026-01-25 12:44:36.32	325.55	9.21	-44.1	-45.2	19.3	0.00e+00	0	42	0	1591738368	59	4158
2026-01-25 12:44:37.30	325.69	9.16	-44.2	-45.3	19.2	0.00e+00	0	42	0	1594884096	59	4215
2026-01-25 12:44:38.29	325.83	9.11	-44.0	-45.1	19.3	0.00e+00	0	42	0	1598029824	59	4132
2026-01-25 12:44:39.28	325.96	9.06	-44.0	-45.1	19.4	0.00e+00	0	42	0	1601175552	59	4123
2026-01-25 12:44:40.26	326.10	9.02	-44.0	-45.1	19.4	0.00e+00	0	42	0	1604321280	59	4118
2026-01-25 12:44:41.25	326.24	8.97	-44.0	-45.1	19.3	0.00e+00	0	42	0	1607467008	59	4134
2026-01-25 12:44:42.24	326.37	8.92	-44.0	-45.1	19.3	0.00e+00	0	43	0	1610612736	59	4140
2026-01-25 12:44:43.23	326.51	8.87	-44.1	-45.3	19.2	0.00e+00	0	42	0	1613758464	59	4198
2026-01-25 12:44:44.22	326.65	8.82	-44.2	-45.3	19.2	0.00e+00	0	43	0	1616904192	59	4212
2026-01-25 12:44:45.21	326.78	8.77	-44.2	-45.3	19.1	0.00e+00	0	42	0	1620049920	59	4227
2026-01-25 12:44:46.20	326.92	8.72	-44.0	-45.2	19.2	0.00e+00	0	42	0	1623195648	59	4151
2026-01-25 12:44:47.18	327.05	8.67	-44.2	-45.4	19.1	0.00e+00	0	42	0	1626341376	59	4255
2026-01-25 12:44:48.17	327.18	8.62	-44.2	-45.3	19.1	0.00e+00	0	42	0	1629487104	59	4235
2026-01-25 12:44:49.15	327.31	8.58	-44.2	-45.3	19.1	0.00e+00	0	42	0	1632632832	59	4216
2026-01-25 12:44:50.15	327.45	8.53	-44.1	-45.3	19.1	0.00e+00	0	42	0	1635778560	59	4196
2026-01-25 12:44:51.14	327.58	8.48	-44.1	-45.3	19.1	0.00e+00	0	42	0	1638924288	59	4195
2026-01-25 12:44:52.13	327.71	8.43	-44.0	-45.1	19.3	0.00e+00	0	43	0	1642070016	59	4110
2026-01-25 12:44:53.12	327.85	8.38	-44.0	-45.1	19.3	0.00e+00	0	42	0	1645215744	59	4106
2026-01-25 12:44:54.11	327.98	8.33	-44.1	-45.3	19.1	0.00e+00	0	42	0	1647312896	59	4197
2026-01-25 12:44:55.10	328.11	8.28	-44.0	-45.1	19.3	0.00e+00	0	42	0	1650458624	59	4120
2026-01-25 12:44:56.08	328.24	8.23	-44.2	-45.4	19.1	0.00e+00	0	42	0	1653604352	59	4245
2026-01-25 12:44:57.07	328.37	8.18	-44.1	-45.2	19.2	0.00e+00	0	42	0	1656750080	59	4186
2026-01-25 12:44:58.06	328.50	8.13	-44.1	-45.2	19.2	0.00e+00	0	43	0	1659895808	59	4171
2026-01-25 12:44:59.04	328.62	8.08	-44.3	-45.4	19.0	0.00e+00	0	42	0	1663041536	59	4266
2026-01-25 12:45:00.02	328.75	8.03	-44.2	-45.3	19.1	0.00e+00	0	42	0	1666187264	59	4239
2026-01-25 12:45:01.01	328.88	7.98	-44.1	-45.3	19.1	0.00e+00	0	42	0	1669332992	59	4199
2026-01-25 12:45:02.00	329.01	7.93	-44.1	-45.3	19.1	0.00e+00	0	43	0	1672478720	59	4200
2026-01-25 12:45:02.99	329.14	7.88	-44.1	-45.3	19.1	0.00e+00	0	43	0	1675624448	59	4202
2026-01-25 12:45:03.97	329.26	7.83	-44.1	-45.2	19.1	0.00e+00	0	42	0	1678770176	59	4171
2026-01-25 12:45:04.96	329.39	7.78	-44.3	-45.4	18.9	0.00e+00	0	42	0	1681915904	59	4276
2026-01-25 12:45:05.94	329.51	7.73	-44.2	-45.4	19.0	0.00e+00	0	43	0	1685061632	59	4258
2026-01-25 12:45:06.93	329.64	7.69	-44.2	-45.3	19.0	0.00e+00	0	43	0	1688207360	59	4215
2026-01-25 12:45:07.91	329.76	7.64	-44.3	-45.4	18.9	0.00e+00	0	42	0	1691353088	59	4290
2026-01-25 12:45:08.89	329.89	7.59	-44.2	-45.4	19.0	0.00e+00	0	42	0	1693450240	59	4243
2026-01-25 12:45:09.88	330.01	7.54	-44.2	-45.4	19.0	0.00e+00	0	42	0	1696595968	59	4245
2026-01-25 12:45:10.86	330.14	7.49	-44.1	-45.3	19.1	0.00e+00	0	42	0	1699741696	59	4205
2026-01-25 12:45:11.85	330.26	7.44	-44.3	-45.5	18.9	0.00e+00	0	43	0	1702887424	59	4306
2026-01-25 12:45:12.84	330.38	7.39	-44.3	-45.4	18.9	0.00e+00	0	42	0	1706033152	59	4288
2026-01-25 12:45:13.83	330.51	7.34	-44.3	-45.5	18.9	0.00e+00	0	42	0	1709178880	59	4295
2026-01-25 12:45:14.82	330.63	7.29	-44.4	-45.5	18.8	0.00e+00	0	43	0	1712324608	59	4325
2026-01-25 12:45:15.80	330.75	7.24	-44.4	-45.6	18.7	0.00e+00	0	42	0	1715470336	59	4361
2026-01-25 12:45:16.79	330.87	7.19	-44.4	-45.6	18.7	0.00e+00	0	43	0	1718616064	59	4374
2026-01-25 12:45:17.78	330.99	7.14	-44.4	-45.5	18.7	0.00e+00	0	42	0	1721761792	59	4335
2026-01-25 12:45:18.76	331.11	7.09	-44.5	-45.7	18.6	0.00e+00	0	42	0	1724907520	59	4392
2026-01-25 12:45:19.75	331.23	7.04	-44.5	-45.6	18.6	0.00e+00	0	42	0	1728053248	59	4384
2026-01-25 12:45:20.73	331.35	6.99	-44.3	-45.5	18.5	0.00e+00	0	43	0	1731198976	60	4056
2026-01-25 12:45:21.72	331.47	6.94	-44.4	-45.6	18.4	0.00e+00	0	43	0	1734344704	60	4124
2026-01-25 12:45:22.71	331.59	6.89	-44.2	-45.3	18.7	0.00e+00	0	43	0	1737490432	60	3992
2026-01-25 12:45:23.70	331.71	6.84	-44.2	-45.4	18.5	0.00e+00	0	42	0	1740636160	60	4023
2026-01-25 12:45:24.68	331.83	6.79	-44.1	-45.3	18.7	0.00e+00	0	43	0	1742733312	60	3963
2026-01-25 12:45:25.67	331.95	6.74	-44.2	-45.4	18.5	0.00e+00	0	42	0	1745879040	60	4029
2026-01-25 12:45:26.66	332.07	6.69	-44.3	-45.5	18.5	0.00e+00	0	43	0	1749024768	60	4075
2026-01-25 12:45:27.64	332.18	6.64	-44.4	-45.6	18.4	0.00e+00	0	43	0	1752170496	60	4108
2026-01-25 12:45:28.63	332.30	6.59	-44.4	-45.6	18.4	0.00e+00	0	42	0	1755316224	60	4104
2026-01-25 12:45:29.62	332.42	6.54	-44.4	-45.6	18.3	0.00e+00	0	43	0	1758461952	60	4141
2026-01-25 12:45:30.61	332.53	6.49	-44.6	-45.9	18.1	0.00e+00	0	43	0	1761607680	60	4247
2026-01-25 12:45:31.60	332.65	6.44	-44.6	-45.9	18.0	0.00e+00	0	43	0	1764753408	60	4268
2026-01-25 12:45:32.59	332.76	6.39	-44.8	-46.0	17.9	0.00e+00	0	42	0	1767899136	60	4334
2026-01-25 12:45:33.58	332.88	6.34	-44.4	-45.6	18.2	0.00e+00	0	43	0	1771044864	60	4138
2026-01-25 12:45:34.57	332.99	6.29	-44.4	-45.7	18.2	0.00e+00	0	42	0	1774190592	60	4151
2026-01-25 12:45:35.56	333.11	6.24	-44.5	-45.8	18.1	0.00e+00	0	43	0	1777336320	60	4201
2026-01-25 12:45:36.55	333.22	6.19	-44.5	-45.7	18.2	0.00e+00	0	43	0	1780482048	60	4165
2026-01-25 12:45:37.54	333.34	6.14	-44.6	-45.9	18.0	0.00e+00	0	43	0	1783627776	60	4271
2026-01-25 12:45:38.53	333.45	6.09	-44.4	-45.7	18.2	0.00e+00	0	43	0	1786773504	60	4163
2026-01-25 12:45:39.51	333.56	6.04	-44.4	-45.6	18.3	0.00e+00	0	42	0	1789919232	60	4113
2026-01-25 12:45:40.50	333.67	5.99	-44.5	-45.7	18.1	0.00e+00	0	43	0	1793064960	60	4172
2026-01-25 12:45:41.49	333.79	5.94	-44.5	-45.8	18.1	0.00e+00	0	42	0	1795162112	60	4214
2026-01-25 12:45:42.47	333.90	5.89	-44.6	-45.8	17.9	0.00e+00	0	43	0	1798307840	60	4234
2026-01-25 12:45:43.46	334.01	5.84	-44.6	-45.9	17.9	0.00e+00	0	43	0	1801453568	60	4244
2026-01-25 12:45:44.45	334.12	5.79	-44.7	-46.0	17.8	0.00e+00	0	42	0	1804599296	60	4312
2026-01-25 12:45:45.44	334.23	5.74	-44.5	-45.7	18.0	0.00e+00	0	42	0	1807745024	60	4186
2026-01-25 12:45:46.42	334.34	5.69	-44.7	-45.9	17.8	0.00e+00	0	42	0	1810890752	60	4291
2026-01-25 12:45:47.41	334.45	5.64	-44.5	-45.8	17.9	0.00e+00	0	42	0	1814036480	60	4232
2026-01-25 12:45:48.40	334.56	5.59	-44.8	-46.1	17.5	0.00e+00	0	42	0	1817182208	60	4386
2026-01-25 12:45:49.39	334.67	5.54	-44.8	-46.1	17.6	0.00e+00	0	42	0	1820327936	60	4375
2026-01-25 12:45:50.38	334.78	5.50	-44.8	-46.2	17.5	0.00e+00	0	43	0	1823473664	60	4412
2026-01-25 12:45:51.37	334.89	5.45	-44.7	-46.0	17.7	0.00e+00	0	42	0	1826619392	60	4329
2026-01-25 12:45:52.36	335.00	5.40	-44.8	-46.1	17.6	0.00e+00	0	42	0	1829765120	60	4357
2026-01-25 12:45:53.35	335.10	5.35	-44.5	-45.7	18.0	0.00e+00	0	42	0	1832910848	60	4176
2026-01-25 12:45:54.34	335.21	5.30	-44.3	-45.6	18.1	0.00e+00	0	42	0	1836056576	60	4106
2026-01-25 12:45:55.32	335.32	5.25	-44.9	-46.3	17.4	0.00e+00	0	42	0	1839202304	60	4467
2026-01-25 12:45:56.31	335.42	5.20	-44.9	-46.3	17.4	0.00e+00	0	43	0	1842348032	60	4461
2026-01-25 12:45:57.30	335.53	5.15	-44.7	-46.0	17.7	0.00e+00	0	43	0	1845493760	60	4310
2026-01-25 12:45:58.29	335.64	5.10	-44.8	-46.1	17.6	0.00e+00	0	42	0	1848639488	60	4361
2026-01-25 12:45:59.27	335.74	5.05	-44.8	-46.2	17.6	0.00e+00	0	42	0	1851785216	60	4401
2026-01-25 12:46:00.26	335.85	5.00	-44.8	-46.1	17.6	0.00e+00	0	42	0	1853882368	60	4380
2026-01-25 12:46:01.25	335.95	4.95	-52.5	-65.2	3.8	1.49e+00	0	43	104	1855979520	75	16640
2026-01-25 12:46:02.24	336.06	4.90	-52.8	-65.6	3.8	1.49e+00	0	43	104	1855979520	76	16346
2026-01-25 12:46:03.22	336.16	4.85	-53.0	-65.8	3.8	1.49e+00	0	43	104	1855979520	76	16833
2026-01-25 12:46:04.20	336.27	4.80	-53.2	-66.0	3.8	1.49e+00	0	43	104	1855979520	77	16196
2026-01-25 12:46:05.20	336.37	4.75	-53.4	-66.1	3.8	1.49e+00	0	43	104	1855979520	77	16494
2026-01-25 12:46:06.18	336.47	4.70	-53.5	-66.2	3.8	1.49e+00	0	43	104	1855979520	77	16612
2026-01-25 12:46:07.17	336.58	4.65	-53.6	-66.4	3.8	1.49e+00	0	42	104	1855979520	77	16897
2026-01-25 12:46:08.15	336.68	4.60	-53.7	-66.4	3.8	1.49e+00	0	43	104	1855979520	77	17067
2026-01-25 12:46:09.14	336.78	4.55	-53.8	-66.5	3.8	1.49e+00	0	43	104	1855979520	78	16296
2026-01-25 12:46:10.13	336.88	4.50	-53.8	-66.6	3.8	1.49e+00	0	43	104	1855979520	78	16385
2026-01-25 12:46:11.12	336.98	4.45	-53.9	-66.7	3.8	1.49e+00	0	42	104	1855979520	78	16521
2026-01-25 12:46:12.11	337.09	4.40	-53.9	-66.7	3.8	1.49e+00	0	43	104	1855979520	78	16606
2026-01-25 12:46:13.10	337.19	4.36	-54.0	-66.8	3.8	1.49e+00	0	43	104	1855979520	78	16710
2026-01-25 12:46:14.09	337.29	4.31	-54.0	-66.8	3.8	1.49e+00	0	43	104	1855979520	78	16749
2026-01-25 12:46:15.08	337.39	4.26	-54.1	-66.8	3.8	1.49e+00	0	43	104	1855979520	78	16825
2026-01-25 12:46:16.07	337.49	4.21	-54.1	-66.8	3.8	1.49e+00	0	43	104	1855979520	78	16878
2026-01-25 12:46:17.06	337.59	4.16	-54.1	-66.8	3.8	1.49e+00	0	43	104	1855979520	78	16840
2026-01-25 12:46:18.05	337.69	4.11	-54.1	-66.9	3.8	1.49e+00	0	43	104	1855979520	78	16923
2026-01-25 12:46:19.04	337.79	4.06	-54.1	-66.9	3.8	1.49e+00	0	43	104	1855979520	78	16901
2026-01-25 12:46:20.02	337.89	4.01	-54.1	-66.9	3.8	1.49e+00	0	43	104	1855979520	78	16890
2026-01-25 12:46:21.01	337.99	3.96	-54.0	-66.8	3.8	1.49e+00	0	43	104	1855979520	78	16828
2026-01-25 12:46:21.99	338.08	3.91	-54.1	-66.8	3.8	1.49e+00	0	43	104	1855979520	78	16796
2026-01-25 12:46:22.98	338.18	3.86	-54.0	-66.8	3.8	1.49e+00	0	43	104	1855979520	78	16794
2026-01-25 12:46:23.97	338.28	3.81	-54.0	-66.8	3.8	1.49e+00	0	43	104	1855979520	78	16695
2026-01-25 12:46:24.96	338.38	3.76	-53.9	-66.7	3.8	1.49e+00	0	43	104	1855979520	78	16634
2026-01-25 12:46:25.95	338.47	3.72	-53.9	-66.7	3.8	1.49e+00	0	43	104	1855979520	78	16595
2026-01-25 12:46:26.94	338.57	3.67	-53.9	-66.7	3.8	1.49e+00	0	43	104	1855979520	78	16591
2026-01-25 12:46:27.93	338.67	3.62	-53.9	-66.7	3.8	1.49e+00	0	43	104	1855979520	78	16587
2026-01-25 12:46:28.92	338.76	3.57	-53.9	-66.7	3.8	1.49e+00	0	43	104	1855979520	78	16531
2026-01-25 12:46:29.90	338.86	3.52	-53.9	-66.6	3.8	1.49e+00	0	43	104	1855979520	78	16458
2026-01-25 12:46:30.95	338.96	3.47	-53.8	-66.6	3.8	1.49e+00	0	43	104	1855979520	78	16402
2026-01-25 12:46:31.85	339.05	3.42	-53.8	-66.6	3.8	1.49e+00	0	43	104	1855979520	78	16390
