passes_logs/2026/01/25/R3.2S_Murmansk/R3.2S_Murmansk__20260125_062243_SUOMI_NPP_rec.log

#Pass ID: 20260125_062243_SUOMI NPP
#Satellite: SUOMI NPP
#Configuration: NPP
#almurnet v.1.7.20251203
#Start time: 2026-01-25 06:22:44

#Version: 2.2.20231116
#Station: R3.2S_Murmansk
#Location: 33.079688 lon 68.888172 lat
#TLE: 1 37849U 11061A   26024.97198022  .00000188  00000+0  11029-3 0  9994
#TLE: 2 37849  98.7821 326.9352 0002187  46.6646 313.4712 14.19529581738125

#Time	Az	El	Level	Level2	SNR	BER	BlckErr	Temp	State	Recorded	gain1	gain2
2026-01-25 06:22:44.23	81.30	2.02	-52.2	-67.1	3.8	1.49e+00	0	42	0	0	76	19577
2026-01-25 06:22:45.23	81.24	2.08	-52.1	-67.1	3.8	1.49e+00	0	42	104	0	74	22003
2026-01-25 06:22:46.24	81.18	2.14	-52.2	-67.1	3.8	1.49e+00	0	42	104	0	74	21983
2026-01-25 06:22:47.25	81.12	2.20	-52.2	-67.1	3.8	1.49e+00	0	42	104	0	74	21908
2026-01-25 06:22:48.26	81.06	2.26	-52.2	-67.1	3.8	1.49e+00	0	43	104	0	74	21903
2026-01-25 06:22:49.27	81.00	2.32	-52.2	-67.1	3.8	1.49e+00	0	42	104	0	74	21878
2026-01-25 06:22:50.28	80.94	2.38	-52.2	-67.1	3.8	1.49e+00	0	42	104	0	74	21877
2026-01-25 06:22:51.29	80.88	2.44	-52.2	-67.1	3.8	1.49e+00	0	43	104	0	74	21829
2026-01-25 06:22:52.30	80.81	2.50	-52.2	-67.1	3.8	1.49e+00	0	43	104	0	74	21853
2026-01-25 06:22:53.31	80.75	2.55	-52.2	-67.1	3.8	1.49e+00	0	42	104	0	74	21920
2026-01-25 06:22:54.31	80.69	2.61	-52.2	-67.1	3.8	1.49e+00	0	43	104	0	74	21884
2026-01-25 06:22:55.32	80.63	2.67	-52.2	-67.1	3.8	1.49e+00	0	43	104	0	74	21906
2026-01-25 06:22:56.33	80.57	2.73	-52.1	-67.1	3.8	1.49e+00	0	43	104	0	74	21772
2026-01-25 06:22:57.34	80.51	2.79	-52.1	-67.1	3.8	1.49e+00	0	43	104	0	74	21831
2026-01-25 06:22:58.35	80.44	2.85	-52.1	-67.1	3.8	1.49e+00	0	43	104	0	74	21901
2026-01-25 06:22:59.36	80.38	2.91	-52.1	-67.1	3.8	1.49e+00	0	43	104	0	74	21911
2026-01-25 06:23:00.37	80.32	2.97	-52.1	-67.1	3.8	1.49e+00	0	43	104	0	74	21862
2026-01-25 06:23:01.38	80.25	3.03	-52.1	-67.1	3.8	1.49e+00	0	43	104	0	74	21842
2026-01-25 06:23:02.39	80.19	3.09	-52.1	-67.1	3.8	1.49e+00	0	43	104	0	74	21831
2026-01-25 06:23:03.40	80.13	3.15	-52.1	-67.0	3.8	1.49e+00	0	43	104	0	74	21740
2026-01-25 06:23:04.40	80.06	3.21	-52.1	-67.0	3.8	1.49e+00	0	43	104	0	74	21739
2026-01-25 06:23:05.41	80.00	3.27	-52.1	-67.0	3.8	1.49e+00	0	43	104	0	74	21679
2026-01-25 06:23:06.42	79.93	3.33	-52.1	-67.1	3.8	1.49e+00	0	43	104	0	74	21840
2026-01-25 06:23:07.43	79.87	3.39	-52.1	-67.1	3.8	1.49e+00	0	43	104	0	74	21829
2026-01-25 06:23:08.44	79.80	3.45	-52.2	-67.1	3.8	1.49e+00	0	43	104	0	74	21909
2026-01-25 06:23:09.45	79.74	3.51	-52.1	-67.1	3.8	1.49e+00	0	43	104	0	74	21852
2026-01-25 06:23:10.45	79.67	3.58	-52.2	-67.1	3.8	1.49e+00	0	43	104	0	74	21790
2026-01-25 06:23:11.46	79.60	3.64	-52.1	-67.0	3.8	1.49e+00	0	43	104	0	74	21711
2026-01-25 06:23:12.47	79.54	3.70	-52.1	-67.0	3.8	1.49e+00	0	43	104	0	74	21586
2026-01-25 06:23:13.48	79.47	3.76	-52.2	-67.0	3.8	1.49e+00	0	43	104	0	74	21667
2026-01-25 06:23:14.49	79.40	3.82	-52.2	-67.1	3.8	1.49e+00	0	43	104	0	74	21802
2026-01-25 06:23:15.49	79.34	3.88	-52.2	-67.1	3.8	1.49e+00	0	43	104	0	74	21868
2026-01-25 06:23:16.50	79.27	3.94	-52.2	-67.0	3.8	1.49e+00	0	43	104	0	74	21706
2026-01-25 06:23:17.51	79.20	4.00	-52.1	-66.8	3.8	1.49e+00	0	43	104	0	74	21183
2026-01-25 06:23:18.52	79.13	4.07	-52.1	-66.4	3.8	1.49e+00	0	43	104	0	74	20162
2026-01-25 06:23:19.53	79.06	4.13	-52.1	-65.8	3.8	1.49e+00	0	43	104	0	74	18842
2026-01-25 06:23:20.54	78.99	4.19	-52.1	-65.2	3.8	1.49e+00	0	43	104	0	74	17543
2026-01-25 06:23:21.55	78.93	4.25	-52.0	-64.6	4.0	1.48e+00	0	43	104	0	74	16397
2026-01-25 06:23:22.56	78.86	4.31	-52.0	-64.6	3.8	1.48e+00	0	43	104	0	74	16459
2026-01-25 06:23:23.57	78.79	4.38	-52.0	-64.1	4.1	1.46e+00	0	43	0	0	74	15491
2026-01-25 06:23:24.57	78.72	4.44	-51.9	-64.0	4.1	1.43e+00	0	44	0	0	74	15244
2026-01-25 06:23:25.58	78.65	4.50	-51.9	-63.3	4.3	1.40e+00	0	44	0	0	74	14152
2026-01-25 06:23:26.59	78.57	4.56	-51.7	-61.5	5.0	8.67e-01	0	44	0	1048576	74	11432
2026-01-25 06:23:27.60	78.50	4.63	-51.6	-60.0	6.0	5.14e-01	0	43	0	3145728	74	9666
2026-01-25 06:23:28.60	78.43	4.69	-51.1	-57.6	8.2	1.03e-01	0	43	0	5242880	74	7348
2026-01-25 06:23:29.61	78.36	4.75	-50.5	-55.7	10.1	1.71e-02	0	44	0	6291456	73	6222
2026-01-25 06:23:30.62	78.29	4.81	-50.2	-54.9	10.9	3.06e-03	0	44	0	8388608	72	6055
2026-01-25 06:23:31.63	78.22	4.88	-49.6	-53.4	12.5	7.98e-04	0	43	0	10485760	71	5392
2026-01-25 06:23:32.64	78.14	4.94	-49.2	-52.5	13.5	3.50e-05	0	43	0	12582912	70	5133
2026-01-25 06:23:33.65	78.07	5.00	-48.8	-52.1	13.8	4.50e-06	0	44	0	14680064	69	5207
2026-01-25 06:23:34.66	78.00	5.07	-49.0	-52.3	13.9	0.00e+00	0	44	0	15728640	69	5298
2026-01-25 06:23:35.67	77.92	5.13	-49.1	-52.3	13.8	7.60e-06	0	44	0	17825792	69	5340
2026-01-25 06:23:36.67	77.85	5.19	-50.3	-55.2	11.2	2.20e-06	0	44	0	19922944	71	6628
2026-01-25 06:23:37.68	77.77	5.26	-50.0	-54.3	11.9	4.79e-01	0	44	0	22020096	71	5939
2026-01-25 06:23:38.69	77.70	5.32	-48.0	-50.6	15.4	3.03e-04	0	43	0	24117248	67	4898
2026-01-25 06:23:39.70	77.63	5.38	-48.2	-50.9	15.1	1.50e-06	0	44	0	25165824	68	4807
2026-01-25 06:23:40.71	77.55	5.45	-47.9	-50.5	15.4	0.00e+00	0	44	0	27262976	67	4839
2026-01-25 06:23:41.71	77.47	5.51	-47.9	-50.6	15.3	0.00e+00	0	44	0	29360128	67	4887
2026-01-25 06:23:42.72	77.40	5.58	-47.7	-50.2	15.8	0.00e+00	0	44	0	31457280	67	4679
2026-01-25 06:23:43.73	77.32	5.64	-47.8	-50.4	15.6	0.00e+00	0	44	0	33554432	67	4767
2026-01-25 06:23:44.74	77.24	5.70	-47.6	-50.0	16.1	0.00e+00	0	44	0	34603008	67	4552
2026-01-25 06:23:45.75	77.17	5.77	-47.6	-50.0	16.1	0.00e+00	0	44	0	36700160	67	4546
2026-01-25 06:23:46.75	77.09	5.83	-47.5	-49.8	16.2	0.00e+00	0	44	0	38797312	66	4749
2026-01-25 06:23:47.76	77.01	5.90	-47.0	-49.1	16.8	0.00e+00	0	44	0	40894464	66	4388
2026-01-25 06:23:48.77	76.93	5.96	-47.1	-49.2	16.8	0.00e+00	0	44	0	42991616	65	4700
2026-01-25 06:23:49.78	76.86	6.03	-47.1	-49.3	16.7	0.00e+00	0	44	0	44040192	65	4755
2026-01-25 06:23:50.79	76.78	6.09	-47.1	-49.3	16.7	0.00e+00	0	44	0	46137344	65	4730
2026-01-25 06:23:51.79	76.70	6.16	-47.1	-49.3	16.8	0.00e+00	0	44	0	48234496	65	4710
2026-01-25 06:23:52.80	76.62	6.22	-47.3	-49.6	16.4	0.00e+00	0	44	0	50331648	65	4898
2026-01-25 06:23:53.81	76.54	6.29	-47.2	-49.5	16.6	0.00e+00	0	44	0	52428800	65	4834
2026-01-25 06:23:54.82	76.46	6.35	-47.3	-49.5	16.5	0.00e+00	0	44	0	53477376	65	4865
2026-01-25 06:23:55.83	76.38	6.42	-47.1	-49.3	16.8	0.00e+00	0	44	0	55574528	65	4710
2026-01-25 06:23:56.83	76.30	6.48	-47.2	-49.5	16.7	0.00e+00	0	44	0	57671680	65	4820
2026-01-25 06:23:57.84	76.21	6.55	-47.3	-49.5	16.6	0.00e+00	0	44	0	59768832	65	4833
2026-01-25 06:23:58.85	76.13	6.62	-47.1	-49.2	16.9	0.00e+00	0	44	0	61865984	65	4700
2026-01-25 06:23:59.86	76.05	6.68	-47.0	-49.1	17.1	0.00e+00	0	44	0	62914560	65	4619
2026-01-25 06:24:00.87	75.97	6.75	-47.2	-49.4	16.7	0.00e+00	0	44	0	65011712	65	4804
2026-01-25 06:24:01.87	75.88	6.81	-47.2	-49.4	16.7	0.00e+00	0	44	0	67108864	65	4813
2026-01-25 06:24:02.88	75.80	6.88	-47.4	-49.6	16.5	0.00e+00	0	44	0	69206016	65	4913
2026-01-25 06:24:03.89	75.72	6.95	-47.0	-49.2	17.0	0.00e+00	0	44	0	71303168	65	4659
2026-01-25 06:24:04.90	75.63	7.01	-47.1	-49.3	16.8	0.00e+00	0	44	0	72351744	65	4717
2026-01-25 06:24:05.91	75.55	7.08	-47.2	-49.3	16.9	0.00e+00	0	44	0	74448896	65	4746
2026-01-25 06:24:06.91	75.46	7.15	-47.1	-49.2	17.0	0.00e+00	0	44	0	76546048	65	4655
2026-01-25 06:24:07.92	75.38	7.21	-47.0	-49.1	17.1	0.00e+00	0	44	0	78643200	65	4601
2026-01-25 06:24:08.93	75.29	7.28	-47.2	-49.3	16.9	0.00e+00	0	44	0	80740352	65	4745
2026-01-25 06:24:09.94	75.21	7.35	-47.1	-49.3	16.9	0.00e+00	0	44	0	82837504	65	4711
2026-01-25 06:24:10.94	75.12	7.41	-47.1	-49.2	16.9	0.00e+00	0	44	0	83886080	65	4702
2026-01-25 06:24:11.95	75.03	7.48	-47.2	-49.3	16.9	0.00e+00	0	44	0	85983232	65	4737
2026-01-25 06:24:12.96	74.94	7.55	-46.9	-49.0	17.2	0.00e+00	0	44	0	88080384	65	4568
2026-01-25 06:24:13.97	74.86	7.62	-47.1	-49.2	17.1	0.00e+00	0	44	0	90177536	65	4672
2026-01-25 06:24:14.97	74.77	7.68	-47.1	-49.2	17.0	0.00e+00	0	44	0	91226112	65	4681
2026-01-25 06:24:15.98	74.68	7.75	-47.1	-49.2	17.1	0.00e+00	0	44	0	93323264	65	4668
2026-01-25 06:24:16.99	74.59	7.82	-47.0	-49.0	17.2	0.00e+00	0	44	0	95420416	65	4585
2026-01-25 06:24:18.00	74.50	7.89	-46.9	-48.9	17.4	0.00e+00	0	44	0	97517568	65	4516
2026-01-25 06:24:19.01	74.41	7.96	-47.0	-49.1	17.2	0.00e+00	0	44	0	99614720	65	4618
2026-01-25 06:24:20.01	74.32	8.02	-47.0	-49.0	17.3	0.00e+00	0	44	0	100663296	65	4582
2026-01-25 06:24:21.02	74.23	8.09	-47.1	-49.1	17.1	0.00e+00	0	44	0	102760448	65	4633
2026-01-25 06:24:22.03	74.14	8.16	-47.5	-49.7	16.6	0.00e+00	0	44	0	104857600	65	4968
2026-01-25 06:24:23.04	74.05	8.23	-47.4	-49.6	16.7	0.00e+00	0	44	0	106954752	65	4906
2026-01-25 06:24:24.05	73.95	8.30	-47.4	-49.7	16.7	0.00e+00	0	44	0	109051904	65	4938
2026-01-25 06:24:25.05	73.86	8.37	-47.5	-49.7	16.6	0.00e+00	0	44	0	111149056	65	4969
2026-01-25 06:24:26.06	73.77	8.44	-47.3	-49.6	16.7	0.00e+00	0	44	0	112197632	65	4872
2026-01-25 06:24:27.07	73.67	8.51	-47.3	-49.6	16.5	0.00e+00	0	44	0	114294784	65	4875
2026-01-25 06:24:28.08	73.58	8.57	-47.4	-49.7	16.6	0.00e+00	0	44	0	116391936	65	4951
2026-01-25 06:24:29.09	73.48	8.64	-47.3	-49.6	16.7	0.00e+00	0	44	0	118489088	65	4878
2026-01-25 06:24:30.09	73.39	8.71	-47.4	-49.7	16.6	0.00e+00	0	44	0	119537664	65	4975
2026-01-25 06:24:31.10	73.29	8.78	-47.3	-49.5	16.8	0.00e+00	0	44	0	121634816	65	4849
2026-01-25 06:24:32.11	73.20	8.85	-47.5	-49.9	16.5	0.00e+00	0	44	0	123731968	65	5042
2026-01-25 06:24:33.12	73.10	8.92	-47.4	-49.6	16.7	0.00e+00	0	44	0	125829120	65	4908
2026-01-25 06:24:34.13	73.00	8.99	-47.4	-49.7	16.7	0.00e+00	0	44	0	127926272	65	4955
2026-01-25 06:24:35.13	72.91	9.06	-47.2	-49.3	17.0	0.00e+00	0	44	0	128974848	65	4752
2026-01-25 06:24:36.14	72.81	9.13	-47.2	-49.3	17.0	0.00e+00	0	44	0	131072000	65	4746
2026-01-25 06:24:37.15	72.71	9.20	-47.0	-49.1	17.1	0.00e+00	0	44	0	133169152	65	4643
2026-01-25 06:24:38.16	72.61	9.27	-46.8	-48.8	17.4	0.00e+00	0	44	0	135266304	65	4483
2026-01-25 06:24:39.17	72.51	9.34	-46.7	-48.7	17.7	0.00e+00	0	44	0	137363456	65	4397
2026-01-25 06:24:40.17	72.41	9.41	-46.6	-48.5	17.8	0.00e+00	0	44	0	139460608	65	4326
2026-01-25 06:24:41.18	72.31	9.48	-46.4	-48.3	18.0	0.00e+00	0	44	0	140509184	64	4453
2026-01-25 06:24:42.19	72.21	9.55	-46.5	-48.3	18.0	0.00e+00	0	44	0	142606336	64	4479
2026-01-25 06:24:43.20	72.11	9.63	-46.7	-48.7	17.6	0.00e+00	0	44	0	144703488	64	4673
2026-01-25 06:24:44.21	72.01	9.70	-46.7	-48.7	17.6	0.00e+00	0	44	0	146800640	64	4676
2026-01-25 06:24:45.21	71.91	9.77	-46.7	-48.7	17.6	0.00e+00	0	44	0	147849216	64	4685
2026-01-25 06:24:46.22	71.80	9.84	-47.0	-49.1	17.3	0.00e+00	0	44	0	149946368	64	4880
2026-01-25 06:24:47.23	71.70	9.91	-46.8	-48.7	17.6	0.00e+00	0	44	0	152043520	64	4691
2026-01-25 06:24:48.24	71.60	9.98	-46.7	-48.6	17.8	0.00e+00	0	44	0	154140672	64	4611
2026-01-25 06:24:49.25	71.49	10.05	-46.4	-48.2	18.1	0.00e+00	0	44	0	156237824	64	4433
2026-01-25 06:24:50.25	71.39	10.12	-46.4	-48.2	18.2	0.00e+00	0	44	0	158334976	64	4424
2026-01-25 06:24:51.26	71.28	10.20	-46.5	-48.4	17.9	0.00e+00	0	44	0	159383552	64	4507
2026-01-25 06:24:52.27	71.17	10.27	-46.5	-48.3	18.0	0.00e+00	0	44	0	161480704	64	4463
2026-01-25 06:24:53.28	71.07	10.34	-46.6	-48.5	17.9	0.00e+00	0	44	0	163577856	64	4595
2026-01-25 06:24:54.29	70.96	10.41	-46.6	-48.5	17.9	0.00e+00	0	44	0	165675008	64	4575
2026-01-25 06:24:55.30	70.85	10.48	-46.7	-48.7	17.7	0.00e+00	0	44	0	167772160	64	4671
2026-01-25 06:24:56.31	70.74	10.56	-46.8	-48.8	17.7	0.00e+00	0	44	0	168820736	64	4714
2026-01-25 06:24:57.31	70.64	10.63	-46.7	-48.6	17.8	0.00e+00	0	44	0	170917888	64	4651
2026-01-25 06:24:58.32	70.53	10.70	-46.7	-48.6	17.9	0.00e+00	0	44	0	173015040	64	4633
2026-01-25 06:24:59.33	70.42	10.77	-46.5	-48.3	18.1	0.00e+00	0	44	0	175112192	64	4461
2026-01-25 06:25:00.34	70.31	10.85	-46.2	-47.9	18.5	0.00e+00	0	44	0	177209344	64	4276
2026-01-25 06:25:01.35	70.19	10.92	-46.4	-48.1	18.3	0.00e+00	0	44	0	178257920	64	4381
2026-01-25 06:25:02.35	70.08	10.99	-46.4	-48.2	18.2	0.00e+00	0	45	0	180355072	64	4435
2026-01-25 06:25:03.36	69.97	11.07	-46.4	-48.1	18.3	0.00e+00	0	45	0	182452224	64	4388
2026-01-25 06:25:04.37	69.86	11.14	-46.5	-48.3	18.2	0.00e+00	0	45	0	184549376	64	4473
2026-01-25 06:25:05.38	69.75	11.21	-46.5	-48.3	18.1	0.00e+00	0	44	0	186646528	64	4465
2026-01-25 06:25:06.38	69.63	11.29	-46.5	-48.4	18.1	0.00e+00	0	45	0	187695104	64	4503
2026-01-25 06:25:07.39	69.52	11.36	-46.6	-48.5	17.9	0.00e+00	0	44	0	189792256	64	4581
2026-01-25 06:25:08.40	69.40	11.43	-46.7	-48.7	17.8	0.00e+00	0	45	0	191889408	64	4661
2026-01-25 06:25:09.41	69.29	11.51	-46.8	-48.7	17.8	0.00e+00	0	44	0	193986560	64	4700
2026-01-25 06:25:10.42	69.17	11.58	-46.8	-48.7	17.8	0.00e+00	0	45	0	196083712	64	4691
2026-01-25 06:25:11.42	69.05	11.65	-46.9	-48.8	17.7	0.00e+00	0	44	0	197132288	64	4756
2026-01-25 06:25:12.43	68.94	11.73	-47.0	-48.9	17.5	0.00e+00	0	45	0	199229440	64	4807
2026-01-25 06:25:13.44	68.82	11.80	-46.8	-48.8	17.8	0.00e+00	0	44	0	201326592	64	4713
2026-01-25 06:25:14.45	68.70	11.88	-47.1	-49.2	17.4	0.00e+00	0	44	0	203423744	64	4929
2026-01-25 06:25:15.46	68.58	11.95	-47.1	-49.1	17.4	0.00e+00	0	45	0	205520896	64	4917
2026-01-25 06:25:16.47	68.46	12.03	-47.1	-49.2	17.4	0.00e+00	0	45	0	206569472	64	4932
2026-01-25 06:25:17.48	68.34	12.10	-47.1	-49.2	17.4	0.00e+00	0	44	0	208666624	64	4936
2026-01-25 06:25:18.49	68.22	12.18	-47.2	-49.2	17.3	0.00e+00	0	45	0	210763776	65	4704
2026-01-25 06:25:19.49	68.10	12.25	-47.1	-49.1	17.5	0.00e+00	0	44	0	212860928	65	4601
2026-01-25 06:25:20.50	67.97	12.32	-47.0	-49.0	17.5	0.00e+00	0	44	0	214958080	65	4590
2026-01-25 06:25:21.51	67.85	12.40	-47.1	-49.1	17.4	0.00e+00	0	45	0	216006656	65	4614
2026-01-25 06:25:22.52	67.73	12.48	-47.0	-49.0	17.5	0.00e+00	0	44	0	218103808	65	4558
2026-01-25 06:25:23.52	67.60	12.55	-47.0	-49.0	17.5	0.00e+00	0	45	0	220200960	65	4574
2026-01-25 06:25:24.53	67.48	12.63	-46.6	-48.5	18.1	0.00e+00	0	45	0	222298112	65	4310
2026-01-25 06:25:25.54	67.35	12.70	-46.5	-48.3	18.2	0.00e+00	0	44	0	224395264	64	4464
2026-01-25 06:25:26.55	67.22	12.78	-46.4	-48.1	18.4	0.00e+00	0	45	0	226492416	64	4367
2026-01-25 06:25:27.56	67.10	12.85	-46.2	-47.9	18.7	0.00e+00	0	45	0	227540992	64	4247
2026-01-25 06:25:28.56	66.97	12.93	-46.1	-47.7	18.8	0.00e+00	0	45	0	229638144	64	4180
2026-01-25 06:25:29.57	66.84	13.00	-46.1	-47.8	18.7	0.00e+00	0	45	0	231735296	64	4211
2026-01-25 06:25:30.58	66.71	13.08	-46.0	-47.6	18.8	0.00e+00	0	45	0	233832448	63	4385
2026-01-25 06:25:31.59	66.58	13.15	-45.8	-47.3	19.2	0.00e+00	0	45	0	234881024	63	4240
2026-01-25 06:25:32.60	66.45	13.23	-45.8	-47.3	19.2	0.00e+00	0	44	0	236978176	63	4239
2026-01-25 06:25:33.61	66.32	13.31	-45.5	-47.0	19.5	0.00e+00	0	45	0	239075328	62	4310
2026-01-25 06:25:34.61	66.19	13.38	-45.5	-46.9	19.6	0.00e+00	0	45	0	241172480	62	4280
2026-01-25 06:25:35.62	66.06	13.46	-45.5	-47.0	19.5	0.00e+00	0	45	0	243269632	62	4310
2026-01-25 06:25:36.63	65.92	13.54	-45.7	-47.3	19.3	0.00e+00	0	44	0	244318208	62	4450
2026-01-25 06:25:37.64	65.79	13.61	-45.8	-47.4	19.2	0.00e+00	0	45	0	246415360	62	4516
2026-01-25 06:25:38.65	65.65	13.69	-45.8	-47.4	19.2	0.00e+00	0	45	0	248512512	62	4519
2026-01-25 06:25:39.65	65.52	13.76	-45.8	-47.4	19.2	0.00e+00	0	45	0	250609664	62	4495
2026-01-25 06:25:40.66	65.38	13.84	-45.8	-47.4	19.2	0.00e+00	0	45	0	252706816	62	4500
2026-01-25 06:25:41.67	65.25	13.92	-45.9	-47.4	19.2	0.00e+00	0	45	0	254803968	62	4540
2026-01-25 06:25:42.68	65.11	14.00	-45.8	-47.4	19.2	0.00e+00	0	45	0	255852544	62	4506
2026-01-25 06:25:43.69	64.97	14.07	-45.9	-47.5	19.0	0.00e+00	0	45	0	257949696	62	4595
2026-01-25 06:25:44.70	64.83	14.15	-45.9	-47.5	19.1	0.00e+00	0	45	0	260046848	62	4579
2026-01-25 06:25:45.71	64.69	14.23	-45.8	-47.4	19.2	0.00e+00	0	45	0	262144000	62	4515
2026-01-25 06:25:46.72	64.55	14.30	-45.7	-47.2	19.3	0.00e+00	0	44	0	263192576	62	4428
2026-01-25 06:25:47.73	64.41	14.38	-45.9	-47.5	19.1	0.00e+00	0	45	0	265289728	62	4597
2026-01-25 06:25:48.74	64.27	14.46	-45.8	-47.4	19.2	0.00e+00	0	45	0	267386880	62	4504
2026-01-25 06:25:49.74	64.13	14.53	-45.6	-47.1	19.6	0.00e+00	0	45	0	269484032	62	4341
2026-01-25 06:25:50.75	63.98	14.61	-45.7	-47.2	19.4	0.00e+00	0	44	0	271581184	62	4423
2026-01-25 06:25:51.76	63.84	14.69	-45.6	-47.1	19.4	0.00e+00	0	44	0	273678336	62	4387
2026-01-25 06:25:52.77	63.69	14.77	-45.6	-47.1	19.5	0.00e+00	0	44	0	274726912	62	4377
2026-01-25 06:25:53.78	63.55	14.85	-45.7	-47.2	19.3	0.00e+00	0	45	0	276824064	62	4440
2026-01-25 06:25:54.79	63.40	14.92	-45.6	-47.2	19.4	0.00e+00	0	45	0	278921216	62	4392
2026-01-25 06:25:55.80	63.25	15.00	-45.7	-47.2	19.4	0.00e+00	0	44	0	281018368	62	4426
2026-01-25 06:25:56.81	63.10	15.08	-45.7	-47.3	19.3	0.00e+00	0	45	0	283115520	62	4473
2026-01-25 06:25:57.81	62.96	15.16	-45.7	-47.2	19.4	0.00e+00	0	45	0	284164096	62	4427
2026-01-25 06:25:58.82	62.81	15.23	-45.9	-47.5	19.2	0.00e+00	0	45	0	286261248	62	4549
2026-01-25 06:25:59.83	62.66	15.31	-45.8	-47.4	19.2	0.00e+00	0	45	0	288358400	62	4496
2026-01-25 06:26:00.84	62.50	15.39	-45.7	-47.3	19.4	0.00e+00	0	44	0	290455552	62	4450
2026-01-25 06:26:01.84	62.35	15.47	-45.6	-47.2	19.4	0.00e+00	0	45	0	292552704	62	4396
2026-01-25 06:26:02.85	62.20	15.55	-45.7	-47.3	19.4	0.00e+00	0	45	0	293601280	62	4449
2026-01-25 06:26:03.86	62.05	15.62	-45.7	-47.3	19.3	0.00e+00	0	45	0	295698432	62	4482
2026-01-25 06:26:04.87	61.89	15.70	-46.0	-47.7	19.0	0.00e+00	0	45	0	297795584	62	4668
2026-01-25 06:26:05.88	61.74	15.78	-46.1	-47.8	18.9	0.00e+00	0	45	0	299892736	62	4727
2026-01-25 06:26:06.89	61.58	15.86	-46.0	-47.7	18.9	0.00e+00	0	45	0	301989888	62	4699
2026-01-25 06:26:07.90	61.42	15.94	-45.9	-47.6	19.0	0.00e+00	0	45	0	303038464	62	4610
2026-01-25 06:26:08.91	61.26	16.01	-46.1	-47.8	18.8	0.00e+00	0	45	0	305135616	62	4722
2026-01-25 06:26:09.91	61.11	16.09	-46.1	-47.8	18.8	0.00e+00	0	45	0	307232768	62	4752
2026-01-25 06:26:10.92	60.95	16.17	-46.3	-48.0	18.7	0.00e+00	0	45	0	309329920	63	4574
2026-01-25 06:26:11.93	60.79	16.25	-46.3	-48.1	18.6	0.00e+00	0	45	0	311427072	63	4615
2026-01-25 06:26:12.94	60.63	16.33	-46.5	-48.3	18.3	0.00e+00	0	45	0	312475648	63	4724
2026-01-25 06:26:13.95	60.46	16.41	-46.5	-48.3	18.4	0.00e+00	0	45	0	314572800	63	4743
2026-01-25 06:26:14.96	60.30	16.48	-46.5	-48.2	18.5	0.00e+00	0	45	0	316669952	63	4704
2026-01-25 06:26:15.97	60.14	16.56	-46.5	-48.3	18.4	0.00e+00	0	45	0	318767104	63	4719
2026-01-25 06:26:16.97	59.97	16.64	-46.4	-48.2	18.5	0.00e+00	0	45	0	320864256	63	4664
2026-01-25 06:26:17.98	59.81	16.72	-46.6	-48.5	18.3	0.00e+00	0	45	0	321912832	63	4823
2026-01-25 06:26:18.99	59.64	16.80	-46.7	-48.5	18.2	0.00e+00	0	45	0	324009984	63	4865
2026-01-25 06:26:20.00	59.47	16.88	-46.4	-48.2	18.5	0.00e+00	0	45	0	326107136	63	4676
2026-01-25 06:26:21.01	59.30	16.95	-46.6	-48.4	18.2	0.00e+00	0	45	0	328204288	64	4524
2026-01-25 06:26:22.02	59.13	17.03	-46.3	-48.1	18.6	0.00e+00	0	45	0	330301440	64	4354
2026-01-25 06:26:23.03	58.96	17.11	-46.4	-48.1	18.5	0.00e+00	0	45	0	331350016	64	4377
2026-01-25 06:26:24.04	58.79	17.19	-46.5	-48.4	18.3	0.00e+00	0	45	0	333447168	64	4509
2026-01-25 06:26:25.05	58.62	17.27	-46.4	-48.1	18.5	0.00e+00	0	45	0	335544320	64	4377
2026-01-25 06:26:26.05	58.45	17.35	-46.4	-48.2	18.4	0.00e+00	0	45	0	337641472	64	4423
2026-01-25 06:26:27.06	58.28	17.42	-46.4	-48.2	18.4	0.00e+00	0	45	0	339738624	64	4425
2026-01-25 06:26:28.07	58.10	17.50	-46.4	-48.2	18.4	0.00e+00	0	45	0	340787200	64	4399
2026-01-25 06:26:29.08	57.93	17.58	-46.2	-47.9	18.7	0.00e+00	0	45	0	342884352	64	4287
2026-01-25 06:26:30.09	57.75	17.66	-46.1	-47.7	18.9	0.00e+00	0	45	0	344981504	64	4191
2026-01-25 06:26:31.10	57.57	17.74	-46.0	-47.6	19.1	0.00e+00	0	45	0	347078656	63	4370
2026-01-25 06:26:32.11	57.39	17.82	-45.9	-47.5	19.1	0.00e+00	0	45	0	349175808	63	4303
2026-01-25 06:26:33.12	57.21	17.89	-46.0	-47.6	19.1	0.00e+00	0	45	0	350224384	63	4371
2026-01-25 06:26:34.13	57.03	17.97	-45.9	-47.5	19.2	0.00e+00	0	45	0	352321536	63	4303
2026-01-25 06:26:35.14	56.85	18.05	-46.0	-47.7	19.0	0.00e+00	0	45	0	354418688	63	4406
2026-01-25 06:26:36.15	56.67	18.13	-46.2	-47.9	18.9	0.00e+00	0	45	0	356515840	63	4505
2026-01-25 06:26:37.15	56.49	18.21	-46.0	-47.6	19.1	0.00e+00	0	45	0	358612992	63	4354
2026-01-25 06:26:38.16	56.30	18.28	-46.1	-47.8	19.0	0.00e+00	0	45	0	360710144	63	4451
2026-01-25 06:26:39.17	56.12	18.36	-46.3	-48.1	18.7	0.00e+00	0	45	0	361758720	63	4600
2026-01-25 06:26:40.18	55.93	18.44	-46.3	-48.1	18.7	0.00e+00	0	45	0	363855872	63	4623
2026-01-25 06:26:41.19	55.75	18.52	-46.4	-48.1	18.7	0.00e+00	0	45	0	365953024	63	4618
2026-01-25 06:26:42.20	55.56	18.60	-46.0	-47.7	19.0	0.00e+00	0	45	0	368050176	63	4395
2026-01-25 06:26:43.21	55.37	18.67	-46.0	-47.6	19.2	0.00e+00	0	45	0	369098752	63	4347
2026-01-25 06:26:44.21	55.18	18.75	-45.8	-47.3	19.4	0.00e+00	0	45	0	371195904	63	4232
2026-01-25 06:26:45.22	54.99	18.83	-45.9	-47.5	19.3	0.00e+00	0	45	0	373293056	63	4308
2026-01-25 06:26:46.23	54.80	18.90	-45.9	-47.5	19.3	0.00e+00	0	45	0	375390208	63	4309
2026-01-25 06:26:47.24	54.60	18.98	-46.0	-47.6	19.2	0.00e+00	0	45	0	377487360	63	4354
2026-01-25 06:26:48.25	54.41	19.06	-46.1	-47.7	19.1	0.00e+00	0	45	0	379584512	63	4415
2026-01-25 06:26:49.26	54.22	19.14	-46.0	-47.7	19.1	0.00e+00	0	45	0	380633088	63	4394
2026-01-25 06:26:50.27	54.02	19.21	-46.2	-47.8	19.0	0.00e+00	0	45	0	382730240	63	4479
2026-01-25 06:26:51.28	53.82	19.29	-46.2	-47.8	18.9	0.00e+00	0	45	0	384827392	63	4488
2026-01-25 06:26:52.29	53.62	19.37	-46.3	-48.0	18.8	0.00e+00	0	45	0	386924544	63	4559
2026-01-25 06:26:53.30	53.43	19.44	-46.3	-48.0	18.8	0.00e+00	0	45	0	389021696	63	4593
2026-01-25 06:26:54.31	53.23	19.52	-46.1	-47.7	19.1	0.00e+00	0	45	0	390070272	63	4427
2026-01-25 06:26:55.31	53.03	19.59	-46.0	-47.6	19.1	0.00e+00	0	45	0	392167424	63	4390
2026-01-25 06:26:56.32	52.82	19.67	-45.9	-47.5	19.3	0.00e+00	0	45	0	394264576	63	4294
2026-01-25 06:26:57.33	52.62	19.75	-45.9	-47.4	19.4	0.00e+00	0	45	0	396361728	63	4274
2026-01-25 06:26:58.34	52.42	19.82	-45.8	-47.3	19.4	0.00e+00	0	45	0	398458880	63	4219
2026-01-25 06:26:59.35	52.21	19.90	-45.6	-47.1	19.6	0.00e+00	0	45	0	399507456	63	4107
2026-01-25 06:27:00.35	52.01	19.97	-45.4	-46.8	19.9	0.00e+00	0	45	0	401604608	62	4226
2026-01-25 06:27:01.36	51.80	20.05	-45.4	-46.8	19.9	0.00e+00	0	45	0	403701760	62	4213
2026-01-25 06:27:02.37	51.59	20.12	-45.2	-46.6	20.0	0.00e+00	0	45	0	405798912	62	4141
2026-01-25 06:27:03.38	51.38	20.20	-45.2	-46.7	20.0	0.00e+00	0	45	0	407896064	62	4155
2026-01-25 06:27:04.39	51.17	20.27	-45.2	-46.6	20.1	0.00e+00	0	45	0	408944640	62	4126
2026-01-25 06:27:05.40	50.96	20.35	-45.1	-46.5	20.1	0.00e+00	0	45	0	411041792	62	4097
2026-01-25 06:27:06.41	50.75	20.42	-45.1	-46.5	20.1	0.00e+00	0	45	0	413138944	61	4313
2026-01-25 06:27:07.41	50.54	20.50	-45.1	-46.5	20.1	0.00e+00	0	45	0	415236096	61	4324
2026-01-25 06:27:08.42	50.33	20.57	-45.0	-46.5	20.2	0.00e+00	0	45	0	417333248	61	4304
2026-01-25 06:27:09.43	50.11	20.64	-45.0	-46.4	20.3	0.00e+00	0	45	0	418381824	61	4271
2026-01-25 06:27:10.44	49.89	20.72	-44.8	-46.2	20.5	0.00e+00	0	45	0	420478976	61	4173
2026-01-25 06:27:11.45	49.68	20.79	-44.7	-46.0	20.6	0.00e+00	0	45	0	422576128	61	4091
2026-01-25 06:27:12.45	49.46	20.86	-44.6	-45.9	20.8	0.00e+00	0	45	0	424673280	61	4012
2026-01-25 06:27:13.46	49.24	20.94	-44.6	-45.9	20.7	0.00e+00	0	45	0	426770432	61	4018
2026-01-25 06:27:14.47	49.02	21.01	-44.3	-45.5	21.0	0.00e+00	0	45	0	427819008	60	4083
2026-01-25 06:27:15.48	48.80	21.08	-44.3	-45.6	20.9	0.00e+00	0	45	0	429916160	60	4106
2026-01-25 06:27:16.49	48.58	21.15	-44.3	-45.5	21.0	0.00e+00	0	45	0	432013312	60	4070
2026-01-25 06:27:17.49	48.35	21.22	-44.4	-45.7	20.9	0.00e+00	0	45	0	434110464	60	4177
2026-01-25 06:27:18.50	48.13	21.30	-44.4	-45.7	20.9	0.00e+00	0	45	0	436207616	60	4167
2026-01-25 06:27:19.51	47.90	21.37	-44.4	-45.7	20.8	0.00e+00	0	45	0	437256192	60	4159
2026-01-25 06:27:20.52	47.68	21.44	-44.4	-45.6	20.9	0.00e+00	0	45	0	439353344	60	4142
2026-01-25 06:27:21.52	47.45	21.51	-44.5	-45.8	20.8	0.00e+00	0	45	0	441450496	60	4218
2026-01-25 06:27:22.53	47.22	21.58	-44.5	-45.8	20.8	0.00e+00	0	45	0	443547648	60	4227
2026-01-25 06:27:23.53	46.99	21.65	-44.5	-45.8	20.8	0.00e+00	0	45	0	445644800	60	4214
2026-01-25 06:27:24.54	46.76	21.72	-44.3	-45.5	21.1	0.00e+00	0	45	0	447741952	60	4083
2026-01-25 06:27:25.55	46.53	21.79	-44.1	-45.3	21.2	0.00e+00	0	45	0	448790528	60	3989
2026-01-25 06:27:26.56	46.30	21.86	-44.1	-45.3	21.2	0.00e+00	0	45	0	450887680	60	3999
2026-01-25 06:27:27.57	46.06	21.93	-43.9	-45.1	21.3	0.00e+00	0	45	0	452984832	60	3898
2026-01-25 06:27:28.58	45.83	22.00	-44.4	-45.6	21.2	0.00e+00	0	45	0	455081984	59	4379
2026-01-25 06:27:29.59	45.59	22.06	-44.3	-45.6	21.3	0.00e+00	0	45	0	456130560	59	4360
2026-01-25 06:27:30.59	45.36	22.13	-44.4	-45.7	21.2	0.00e+00	0	45	0	458227712	59	4410
2026-01-25 06:27:31.60	45.12	22.20	-44.3	-45.5	21.3	0.00e+00	0	45	0	460324864	59	4338
2026-01-25 06:27:32.61	44.88	22.27	-44.4	-45.7	21.2	0.00e+00	0	45	0	462422016	59	4403
2026-01-25 06:27:33.62	44.64	22.33	-44.7	-46.0	21.0	0.00e+00	0	45	0	464519168	59	4554
2026-01-25 06:27:34.63	44.40	22.40	-44.6	-45.9	21.1	0.00e+00	0	45	0	465567744	59	4502
2026-01-25 06:27:35.64	44.16	22.47	-44.6	-45.9	21.1	0.00e+00	0	45	0	467664896	59	4500
2026-01-25 06:27:36.65	43.91	22.53	-44.2	-45.4	21.5	0.00e+00	0	45	0	469762048	59	4255
2026-01-25 06:27:37.65	43.67	22.60	-44.1	-45.3	21.6	0.00e+00	0	45	0	471859200	59	4202
2026-01-25 06:27:38.66	43.42	22.66	-44.1	-45.3	21.6	0.00e+00	0	45	0	473956352	59	4228
2026-01-25 06:27:39.67	43.18	22.73	-44.3	-45.5	21.4	0.00e+00	0	45	0	476053504	59	4297
2026-01-25 06:27:40.68	42.93	22.79	-44.4	-45.6	21.4	0.00e+00	0	45	0	477102080	59	4353
2026-01-25 06:27:41.69	42.68	22.85	-44.4	-45.7	21.3	0.00e+00	0	45	0	479199232	59	4392
2026-01-25 06:27:42.69	42.43	22.92	-44.4	-45.6	21.4	0.00e+00	0	45	0	481296384	59	4353
2026-01-25 06:27:43.70	42.18	22.98	-44.4	-45.6	21.3	0.00e+00	0	45	0	483393536	59	4377
2026-01-25 06:27:44.71	41.93	23.04	-44.5	-45.8	21.3	0.00e+00	0	45	0	484442112	59	4443
2026-01-25 06:27:45.72	41.68	23.10	-44.4	-45.6	21.3	0.00e+00	0	45	0	486539264	59	4376
2026-01-25 06:27:46.73	41.42	23.17	-44.4	-45.7	21.3	0.00e+00	0	45	0	488636416	59	4392
2026-01-25 06:27:47.73	41.17	23.23	-44.2	-45.4	21.5	0.00e+00	0	45	0	490733568	59	4283
2026-01-25 06:27:48.74	40.92	23.29	-44.2	-45.4	21.5	0.00e+00	0	45	0	492830720	59	4268
2026-01-25 06:27:49.75	40.66	23.35	-44.4	-45.6	21.3	0.00e+00	0	45	0	494927872	59	4381
2026-01-25 06:27:50.76	40.40	23.41	-44.4	-45.6	21.4	0.00e+00	0	45	0	495976448	59	4351
2026-01-25 06:27:51.77	40.14	23.47	-44.1	-45.3	21.6	0.00e+00	0	45	0	498073600	59	4211
2026-01-25 06:27:52.77	39.88	23.52	-44.1	-45.3	21.6	0.00e+00	0	45	0	500170752	59	4220
2026-01-25 06:27:53.78	39.62	23.58	-44.2	-45.4	21.5	0.00e+00	0	45	0	502267904	59	4249
2026-01-25 06:27:54.79	39.36	23.64	-44.1	-45.3	21.7	0.00e+00	0	45	0	504365056	59	4203
2026-01-25 06:27:55.80	39.10	23.70	-44.5	-45.7	21.3	0.00e+00	0	45	0	505413632	59	4433
2026-01-25 06:27:56.81	38.84	23.75	-44.6	-45.9	21.2	0.00e+00	0	45	0	507510784	59	4495
2026-01-25 06:27:57.82	38.57	23.81	-44.7	-46.0	21.1	0.00e+00	0	45	0	509607936	59	4555
2026-01-25 06:27:58.83	38.31	23.86	-44.1	-45.3	21.4	0.00e+00	0	45	0	511705088	60	3973
2026-01-25 06:27:59.84	38.04	23.92	-44.3	-45.5	21.5	0.00e+00	0	45	0	513802240	59	4330
2026-01-25 06:28:00.85	37.77	23.97	-44.3	-45.4	21.5	0.00e+00	0	45	0	514850816	59	4289
2026-01-25 06:28:01.86	37.50	24.03	-44.4	-45.6	21.4	0.00e+00	0	45	0	516947968	59	4373
2026-01-25 06:28:02.87	37.23	24.08	-44.5	-45.8	21.2	0.00e+00	0	45	0	519045120	59	4448
2026-01-25 06:28:03.87	36.97	24.13	-44.4	-45.6	21.4	0.00e+00	0	45	0	521142272	59	4375
2026-01-25 06:28:04.88	36.70	24.19	-44.3	-45.5	21.6	0.00e+00	0	45	0	523239424	59	4318
2026-01-25 06:28:05.89	36.42	24.24	-44.0	-45.2	21.8	0.00e+00	0	45	0	524288000	59	4159
2026-01-25 06:28:06.90	36.15	24.29	-44.2	-45.4	21.6	0.00e+00	0	45	0	526385152	59	4259
2026-01-25 06:28:07.91	35.88	24.34	-44.2	-45.3	21.7	0.00e+00	0	45	0	528482304	59	4222
2026-01-25 06:28:08.91	35.60	24.39	-44.3	-45.5	21.5	0.00e+00	0	45	0	530579456	59	4326
2026-01-25 06:28:09.92	35.33	24.44	-44.2	-45.3	21.7	0.00e+00	0	45	0	532676608	59	4234
2026-01-25 06:28:10.93	35.05	24.48	-43.9	-45.0	21.9	0.00e+00	0	45	0	533725184	59	4085
2026-01-25 06:28:11.94	34.78	24.53	-43.9	-45.0	21.9	0.00e+00	0	45	0	535822336	59	4086
2026-01-25 06:28:12.95	34.50	24.58	-43.9	-45.0	21.9	0.00e+00	0	45	0	537919488	59	4066
2026-01-25 06:28:13.96	34.22	24.63	-44.0	-45.2	21.8	0.00e+00	0	45	0	540016640	59	4150
2026-01-25 06:28:14.97	33.94	24.67	-43.9	-45.1	21.9	0.00e+00	0	45	0	542113792	59	4109
2026-01-25 06:28:15.97	33.66	24.72	-43.8	-44.9	22.0	0.00e+00	0	45	0	543162368	59	4037
2026-01-25 06:28:16.98	33.38	24.76	-43.8	-44.9	22.0	0.00e+00	0	45	0	545259520	59	4026
2026-01-25 06:28:17.99	33.10	24.80	-44.1	-45.2	21.8	0.00e+00	0	45	0	547356672	59	4168
2026-01-25 06:28:18.99	32.82	24.85	-44.6	-45.8	21.3	0.00e+00	0	45	0	549453824	59	4448
2026-01-25 06:28:20.00	32.53	24.89	-44.5	-45.7	21.0	0.00e+00	0	45	0	551550976	60	4189
2026-01-25 06:28:21.01	32.25	24.93	-44.5	-45.8	21.0	0.00e+00	0	45	0	552599552	60	4203
2026-01-25 06:28:22.02	31.96	24.97	-44.6	-45.8	20.9	0.00e+00	0	45	0	554696704	60	4228
2026-01-25 06:28:23.03	31.68	25.01	-44.8	-46.1	20.8	0.00e+00	0	45	0	556793856	60	4347
2026-01-25 06:28:24.04	31.39	25.05	-45.2	-46.6	20.3	0.00e+00	0	45	0	558891008	60	4605
2026-01-25 06:28:25.05	31.10	25.09	-45.9	-47.4	19.6	0.00e+00	0	45	0	560988160	62	4502
2026-01-25 06:28:26.05	30.82	25.13	-46.0	-47.6	19.4	0.00e+00	0	45	0	562036736	62	4622
2026-01-25 06:28:27.06	30.53	25.17	-46.0	-47.5	19.4	0.00e+00	0	45	0	564133888	62	4591
2026-01-25 06:28:28.07	30.24	25.20	-45.8	-47.3	19.6	0.00e+00	0	45	0	566231040	62	4468
2026-01-25 06:28:29.08	29.95	25.24	-45.8	-47.3	19.5	0.00e+00	0	45	0	568328192	62	4460
2026-01-25 06:28:30.09	29.66	25.27	-45.5	-46.9	19.9	0.00e+00	0	45	0	570425344	62	4287
2026-01-25 06:28:31.09	29.37	25.31	-45.1	-46.5	20.4	0.00e+00	0	45	0	571473920	62	4059
2026-01-25 06:28:32.10	29.08	25.34	-45.0	-46.3	20.5	0.00e+00	0	45	0	573571072	61	4214
2026-01-25 06:28:33.11	28.79	25.37	-45.1	-46.4	20.5	0.00e+00	0	45	0	575668224	61	4251
2026-01-25 06:28:34.12	28.49	25.41	-45.2	-46.6	20.2	0.00e+00	0	45	0	577765376	61	4370
2026-01-25 06:28:35.13	28.20	25.44	-45.5	-47.0	20.0	0.00e+00	0	45	0	579862528	61	4548
2026-01-25 06:28:36.13	27.91	25.47	-45.6	-47.0	19.9	0.00e+00	0	45	0	580911104	61	4591
2026-01-25 06:28:37.14	27.61	25.50	-45.6	-47.0	19.9	0.00e+00	0	45	0	583008256	61	4593
2026-01-25 06:28:38.15	27.32	25.53	-45.7	-47.1	19.8	0.00e+00	0	45	0	585105408	62	4374
2026-01-25 06:28:39.16	27.02	25.55	-45.6	-47.1	19.7	0.00e+00	0	45	0	587202560	62	4350
2026-01-25 06:28:40.17	26.73	25.58	-45.7	-47.2	19.7	0.00e+00	0	45	0	589299712	62	4412
2026-01-25 06:28:41.18	26.43	25.61	-45.7	-47.2	19.7	0.00e+00	0	45	0	590348288	62	4408
2026-01-25 06:28:42.19	26.13	25.63	-45.6	-47.0	19.7	0.00e+00	0	45	0	592445440	62	4323
2026-01-25 06:28:43.19	25.84	25.66	-45.6	-47.1	19.7	0.00e+00	0	45	0	594542592	62	4368
2026-01-25 06:28:44.20	25.54	25.68	-45.9	-47.5	19.4	0.00e+00	0	45	0	596639744	62	4553
2026-01-25 06:28:45.21	25.24	25.70	-46.1	-47.6	19.3	0.00e+00	0	45	0	598736896	63	4385
2026-01-25 06:28:46.22	24.94	25.73	-46.2	-47.8	19.1	0.00e+00	0	45	0	599785472	63	4485
2026-01-25 06:28:47.23	24.64	25.75	-46.1	-47.7	19.2	0.00e+00	0	45	0	601882624	63	4392
2026-01-25 06:28:48.24	24.34	25.77	-45.7	-47.2	19.6	0.00e+00	0	45	0	603979776	63	4157
2026-01-25 06:28:49.25	24.04	25.79	-45.6	-47.1	19.8	0.00e+00	0	45	0	606076928	63	4100
2026-01-25 06:28:50.26	23.74	25.81	-45.4	-46.8	20.0	0.00e+00	0	45	0	608174080	62	4203
2026-01-25 06:28:51.27	23.44	25.82	-45.5	-46.9	19.9	0.00e+00	0	45	0	610271232	62	4276
2026-01-25 06:28:52.27	23.14	25.84	-45.4	-46.8	20.1	0.00e+00	0	45	0	611319808	62	4235
2026-01-25 06:28:53.28	22.84	25.86	-45.3	-46.6	20.2	0.00e+00	0	45	0	613416960	62	4137
2026-01-25 06:28:54.29	22.53	25.87	-45.2	-46.6	20.2	0.00e+00	0	45	0	615514112	62	4127
2026-01-25 06:28:55.30	22.23	25.89	-45.4	-46.8	20.0	0.00e+00	0	45	0	617611264	62	4220
2026-01-25 06:28:56.31	21.93	25.90	-45.6	-47.1	19.7	0.00e+00	0	45	0	618659840	62	4370
2026-01-25 06:28:57.32	21.63	25.91	-45.9	-47.4	19.5	0.00e+00	0	45	0	620756992	62	4521
2026-01-25 06:28:58.32	21.32	25.93	-46.0	-47.5	19.3	0.00e+00	0	45	0	622854144	63	4330
2026-01-25 06:28:59.33	21.02	25.94	-46.1	-47.7	19.2	0.00e+00	0	45	0	624951296	63	4416
2026-01-25 06:29:00.34	20.72	25.95	-46.2	-47.8	19.2	0.00e+00	0	45	0	627048448	63	4465
2026-01-25 06:29:01.35	20.41	25.96	-46.1	-47.7	19.3	0.00e+00	0	45	0	629145600	63	4395
2026-01-25 06:29:02.35	20.11	25.97	-45.9	-47.4	19.5	0.00e+00	0	45	0	630194176	63	4282
2026-01-25 06:29:03.36	19.81	25.97	-45.6	-47.0	19.9	0.00e+00	0	45	0	632291328	63	4088
2026-01-25 06:29:04.37	19.50	25.98	-45.4	-46.8	20.1	0.00e+00	0	45	0	634388480	62	4234
2026-01-25 06:29:05.38	19.20	25.98	-45.1	-46.4	20.4	0.00e+00	0	45	0	636485632	62	4019
2026-01-25 06:29:06.39	18.90	25.99	-45.1	-46.4	20.5	0.00e+00	0	45	0	638582784	62	4021
2026-01-25 06:29:07.39	18.59	25.99	-45.1	-46.4	20.4	0.00e+00	0	45	0	639631360	61	4265
2026-01-25 06:29:08.40	18.29	26.00	-45.3	-46.7	20.1	0.00e+00	0	45	0	641728512	61	4405
2026-01-25 06:29:09.41	17.98	26.00	-45.6	-47.1	19.8	0.00e+00	0	45	0	643825664	61	4633
2026-01-25 06:29:10.42	17.68	26.00	-46.0	-47.6	19.4	0.00e+00	0	45	0	645922816	62	4600
2026-01-25 06:29:11.43	17.37	26.00	-46.2	-47.9	19.0	0.00e+00	0	45	0	646971392	63	4505
2026-01-25 06:29:12.43	17.07	26.00	-46.2	-47.9	19.1	0.00e+00	0	45	0	649068544	63	4494
2026-01-25 06:29:13.44	16.77	26.00	-46.2	-47.8	19.2	0.00e+00	0	45	0	651165696	63	4463
2026-01-25 06:29:14.45	16.46	26.00	-46.1	-47.8	19.1	0.00e+00	0	45	0	653262848	63	4444
2026-01-25 06:29:15.46	16.16	25.99	-46.1	-47.7	19.3	0.00e+00	0	45	0	655360000	63	4400
2026-01-25 06:29:16.47	15.85	25.99	-45.8	-47.3	19.5	0.00e+00	0	45	0	657457152	63	4241
2026-01-25 06:29:17.48	15.55	25.98	-45.6	-47.1	19.9	0.00e+00	0	45	0	658505728	63	4103
2026-01-25 06:29:18.49	15.25	25.98	-45.3	-46.8	20.1	0.00e+00	0	45	0	660602880	62	4198
2026-01-25 06:29:19.50	14.94	25.97	-45.0	-46.4	20.4	0.00e+00	0	45	0	662700032	62	4021
2026-01-25 06:29:20.50	14.64	25.96	-44.8	-46.1	20.7	0.00e+00	0	45	0	664797184	61	4119
2026-01-25 06:29:21.51	14.34	25.96	-44.6	-45.9	20.9	0.00e+00	0	45	0	666894336	61	4010
2026-01-25 06:29:22.52	14.03	25.95	-44.9	-46.2	20.6	0.00e+00	0	45	0	667942912	61	4170
2026-01-25 06:29:23.53	13.73	25.94	-44.5	-45.7	21.1	0.00e+00	0	45	0	670040064	60	4185
2026-01-25 06:29:24.53	13.43	25.93	-44.4	-45.6	21.2	0.00e+00	0	45	0	672137216	60	4123
2026-01-25 06:29:25.54	13.13	25.91	-44.5	-45.7	21.1	0.00e+00	0	45	0	674234368	60	4160
2026-01-25 06:29:26.55	12.82	25.90	-44.5	-45.8	21.0	0.00e+00	0	45	0	676331520	60	4207
2026-01-25 06:29:27.56	12.52	25.89	-44.5	-45.7	21.0	0.00e+00	0	45	0	677380096	60	4180
2026-01-25 06:29:28.57	12.22	25.87	-44.4	-45.6	21.2	0.00e+00	0	45	0	679477248	60	4101
2026-01-25 06:29:29.58	11.92	25.86	-44.2	-45.4	21.6	0.00e+00	0	45	0	681574400	59	4257
2026-01-25 06:29:30.59	11.61	25.84	-44.1	-45.3	21.7	0.00e+00	0	45	0	683671552	59	4213
2026-01-25 06:29:31.60	11.31	25.82	-43.4	-44.4	22.5	0.00e+00	0	45	0	685768704	58	4050
2026-01-25 06:29:32.61	11.01	25.81	-43.4	-44.4	22.5	0.00e+00	0	45	0	686817280	58	4040
2026-01-25 06:29:33.61	10.71	25.79	-43.5	-44.5	22.3	0.00e+00	0	45	0	688914432	58	4086
2026-01-25 06:29:34.62	10.41	25.77	-43.8	-44.9	22.1	0.00e+00	0	45	0	691011584	58	4262
2026-01-25 06:29:35.63	10.11	25.75	-44.0	-45.1	21.9	0.00e+00	0	45	0	693108736	58	4371
2026-01-25 06:29:36.64	9.81	25.72	-43.8	-44.8	22.1	0.00e+00	0	45	0	695205888	58	4239
2026-01-25 06:29:37.65	9.51	25.70	-43.7	-44.7	22.3	0.00e+00	0	45	0	697303040	58	4169
2026-01-25 06:29:38.66	9.22	25.68	-43.7	-44.8	22.2	0.00e+00	0	45	0	698351616	58	4207
2026-01-25 06:29:39.67	8.92	25.66	-43.9	-45.0	21.9	0.00e+00	0	45	0	700448768	58	4298
2026-01-25 06:29:40.67	8.62	25.63	-44.2	-45.3	21.7	0.00e+00	0	45	0	702545920	58	4482
2026-01-25 06:29:41.68	8.32	25.60	-44.5	-45.7	21.4	0.00e+00	0	45	0	704643072	59	4423
2026-01-25 06:29:42.69	8.03	25.58	-44.5	-45.7	21.5	0.00e+00	0	45	0	705691648	59	4412
2026-01-25 06:29:43.70	7.73	25.55	-44.5	-45.6	21.5	0.00e+00	0	45	0	707788800	59	4372
2026-01-25 06:29:44.71	7.44	25.52	-44.6	-45.8	21.3	0.00e+00	0	45	0	709885952	59	4448
2026-01-25 06:29:45.71	7.14	25.49	-44.6	-45.8	21.4	0.00e+00	0	45	0	711983104	59	4458
2026-01-25 06:29:46.72	6.85	25.46	-44.3	-45.5	21.6	0.00e+00	0	45	0	714080256	59	4311
2026-01-25 06:29:47.73	6.55	25.43	-44.5	-45.7	21.4	0.00e+00	0	45	0	715128832	59	4414
2026-01-25 06:29:48.74	6.26	25.40	-44.3	-45.5	21.3	0.00e+00	0	45	0	717225984	60	4055
2026-01-25 06:29:49.75	5.97	25.37	-44.5	-45.7	21.1	0.00e+00	0	45	0	719323136	60	4187
2026-01-25 06:29:50.75	5.68	25.34	-44.8	-46.0	20.8	0.00e+00	0	45	0	721420288	60	4336
2026-01-25 06:29:51.76	5.39	25.31	-45.0	-46.3	20.6	0.00e+00	0	45	0	723517440	60	4462
2026-01-25 06:29:52.77	5.10	25.27	-44.5	-45.7	21.2	0.00e+00	0	45	0	725614592	60	4181
2026-01-25 06:29:53.78	4.80	25.24	-44.5	-45.7	21.2	0.00e+00	0	45	0	726663168	60	4172
2026-01-25 06:29:54.79	4.51	25.20	-44.8	-46.0	21.0	0.00e+00	0	45	0	728760320	60	4296
2026-01-25 06:29:55.80	4.23	25.16	-45.1	-46.3	20.5	0.00e+00	0	45	0	730857472	60	4487
2026-01-25 06:29:56.81	3.94	25.13	-45.1	-46.4	20.5	0.00e+00	0	45	0	732954624	60	4534
2026-01-25 06:29:57.81	3.65	25.09	-44.9	-46.2	20.7	0.00e+00	0	45	0	734003200	61	4152
2026-01-25 06:29:58.82	3.37	25.05	-44.8	-46.0	20.8	0.00e+00	0	45	0	736100352	61	4089
2026-01-25 06:29:59.83	3.08	25.01	-44.5	-45.7	21.1	0.00e+00	0	45	0	738197504	60	4174
2026-01-25 06:30:00.84	2.79	24.97	-45.0	-46.3	20.6	0.00e+00	0	45	0	740294656	60	4446
2026-01-25 06:30:01.85	2.51	24.93	-44.9	-46.2	20.7	0.00e+00	0	45	0	742391808	60	4424
2026-01-25 06:30:02.85	2.23	24.89	-45.4	-46.7	20.2	0.00e+00	0	45	0	744488960	61	4437
2026-01-25 06:30:03.86	1.94	24.84	-45.2	-46.6	20.4	0.00e+00	0	45	0	745537536	61	4347
2026-01-25 06:30:04.87	1.66	24.80	-45.5	-46.8	20.2	0.00e+00	0	45	0	747634688	61	4481
2026-01-25 06:30:05.88	1.38	24.76	-45.6	-46.9	20.0	0.00e+00	0	45	0	749731840	61	4540
2026-01-25 06:30:06.89	1.10	24.71	-45.4	-46.8	20.2	0.00e+00	0	45	0	751828992	61	4462
2026-01-25 06:30:07.89	0.82	24.67	-45.3	-46.7	20.2	0.00e+00	0	45	0	753926144	61	4413
2026-01-25 06:30:08.90	0.54	24.62	-45.5	-47.0	20.0	0.00e+00	0	45	0	754974720	61	4546
2026-01-25 06:30:09.91	0.26	24.58	-45.6	-47.1	19.9	0.00e+00	0	45	0	757071872	62	4355
2026-01-25 06:30:10.92	359.98	24.53	-46.2	-47.8	19.3	0.00e+00	0	45	0	759169024	62	4723
2026-01-25 06:30:11.92	359.71	24.48	-46.3	-48.0	19.1	0.00e+00	0	45	0	761266176	63	4563
2026-01-25 06:30:12.93	359.43	24.43	-46.5	-48.3	18.8	0.00e+00	0	45	0	762314752	63	4725
2026-01-25 06:30:13.94	359.16	24.38	-46.4	-48.1	18.9	0.00e+00	0	45	0	764411904	64	4348
2026-01-25 06:30:14.95	358.89	24.34	-45.8	-47.3	19.7	0.00e+00	0	45	0	766509056	63	4218
2026-01-25 06:30:15.96	358.61	24.28	-45.7	-47.1	19.8	0.00e+00	0	45	0	768606208	63	4140
2026-01-25 06:30:16.97	358.34	24.23	-45.3	-46.7	20.2	0.00e+00	0	45	0	770703360	62	4163
2026-01-25 06:30:17.97	358.07	24.18	-45.5	-46.9	20.0	0.00e+00	0	45	0	772800512	62	4261
2026-01-25 06:30:18.98	357.80	24.13	-45.6	-47.1	19.8	0.00e+00	0	45	0	773849088	62	4359
2026-01-25 06:30:19.99	357.53	24.08	-46.0	-47.6	19.4	0.00e+00	0	45	0	775946240	62	4613
2026-01-25 06:30:21.00	357.26	24.02	-46.1	-47.7	19.3	0.00e+00	0	45	0	778043392	62	4653
2026-01-25 06:30:22.00	357.00	23.97	-46.3	-47.9	19.1	0.00e+00	0	45	0	780140544	63	4504
2026-01-25 06:30:23.01	356.73	23.92	-46.1	-47.7	19.2	0.00e+00	0	45	0	782237696	63	4397
2026-01-25 06:30:24.02	356.46	23.86	-46.3	-47.9	19.0	0.00e+00	0	45	0	783286272	63	4508
2026-01-25 06:30:25.03	356.20	23.81	-46.0	-47.5	19.4	0.00e+00	0	45	0	785383424	63	4316
2026-01-25 06:30:26.04	355.93	23.75	-46.1	-47.6	19.4	0.00e+00	0	45	0	787480576	63	4365
2026-01-25 06:30:27.05	355.67	23.69	-45.7	-47.2	19.7	0.00e+00	0	45	0	789577728	63	4158
2026-01-25 06:30:28.05	355.41	23.64	-45.7	-47.1	19.8	0.00e+00	0	45	0	791674880	63	4127
2026-01-25 06:30:29.06	355.15	23.58	-45.9	-47.4	19.5	0.00e+00	0	45	0	792723456	63	4280
2026-01-25 06:30:30.07	354.89	23.52	-45.7	-47.2	19.7	0.00e+00	0	45	0	794820608	63	4160
2026-01-25 06:30:31.08	354.63	23.46	-45.8	-47.3	19.6	0.00e+00	0	45	0	796917760	63	4239
2026-01-25 06:30:32.09	354.37	23.40	-46.2	-47.8	19.2	0.00e+00	0	45	0	799014912	63	4462
2026-01-25 06:30:33.09	354.12	23.35	-46.6	-48.3	18.6	0.00e+00	0	45	0	801112064	63	4742
2026-01-25 06:30:34.10	353.86	23.29	-46.6	-48.4	18.5	0.00e+00	0	45	0	802160640	64	4507
2026-01-25 06:30:35.11	353.60	23.22	-46.1	-47.8	19.0	0.00e+00	0	45	0	804257792	64	4211
2026-01-25 06:30:36.12	353.35	23.16	-45.5	-47.0	19.9	0.00e+00	0	45	0	806354944	63	4054
2026-01-25 06:30:37.12	353.10	23.10	-45.6	-47.0	19.8	0.00e+00	0	45	0	808452096	62	4329
2026-01-25 06:30:38.13	352.85	23.04	-45.3	-46.7	20.1	0.00e+00	0	45	0	810549248	62	4171
2026-01-25 06:30:39.14	352.59	22.98	-45.3	-46.7	20.1	0.00e+00	0	45	0	811597824	62	4163
2026-01-25 06:30:40.15	352.34	22.92	-45.6	-47.1	19.8	0.00e+00	0	45	0	813694976	62	4350
2026-01-25 06:30:41.16	352.09	22.85	-46.0	-47.5	19.3	0.00e+00	0	45	0	815792128	62	4598
2026-01-25 06:30:42.16	351.85	22.79	-46.2	-47.9	19.1	0.00e+00	0	45	0	817889280	62	4792
2026-01-25 06:30:43.17	351.60	22.72	-46.4	-48.1	18.8	0.00e+00	0	45	0	819986432	63	4622
2026-01-25 06:30:44.18	351.35	22.66	-46.5	-48.3	18.7	0.00e+00	0	45	0	821035008	63	4723
2026-01-25 06:30:45.19	351.11	22.60	-46.4	-48.2	18.8	0.00e+00	0	45	0	823132160	63	4670
2026-01-25 06:30:46.20	350.87	22.53	-46.3	-48.0	19.0	0.00e+00	0	45	0	825229312	63	4546
2026-01-25 06:30:47.21	350.62	22.46	-45.9	-47.5	19.4	0.00e+00	0	45	0	827326464	63	4321
2026-01-25 06:30:48.21	350.38	22.40	-45.6	-47.0	19.8	0.00e+00	0	45	0	829423616	62	4335
2026-01-25 06:30:49.22	350.14	22.33	-44.9	-46.2	20.5	0.00e+00	0	45	0	830472192	61	4175
2026-01-25 06:30:50.23	349.90	22.27	-44.6	-45.9	20.8	0.00e+00	0	45	0	832569344	61	4031
2026-01-25 06:30:51.24	349.66	22.20	-44.8	-46.1	20.6	0.00e+00	0	45	0	834666496	61	4141
2026-01-25 06:30:52.25	349.42	22.13	-45.0	-46.3	20.4	0.00e+00	0	45	0	836763648	61	4228
2026-01-25 06:30:53.25	349.19	22.06	-45.1	-46.5	20.3	0.00e+00	0	45	0	838860800	61	4295
2026-01-25 06:30:54.26	348.95	22.00	-45.7	-47.2	19.6	0.00e+00	0	45	0	839909376	61	4677
2026-01-25 06:30:55.27	348.72	21.93	-45.9	-47.5	19.4	0.00e+00	0	45	0	842006528	62	4582
2026-01-25 06:30:56.28	348.48	21.86	-45.9	-47.5	19.3	0.00e+00	0	45	0	844103680	62	4575
2026-01-25 06:30:57.29	348.25	21.79	-45.9	-47.5	19.3	0.00e+00	0	45	0	846200832	62	4588
2026-01-25 06:30:58.29	348.02	21.72	-45.4	-46.8	19.9	0.00e+00	0	45	0	848297984	62	4231
2026-01-25 06:30:59.30	347.79	21.65	-45.1	-46.5	20.2	0.00e+00	0	45	0	849346560	62	4090
2026-01-25 06:31:00.31	347.56	21.58	-44.8	-46.1	20.6	0.00e+00	0	45	0	851443712	61	4101
2026-01-25 06:31:01.32	347.33	21.51	-44.3	-45.6	21.1	0.00e+00	0	45	0	853540864	60	4107
2026-01-25 06:31:02.32	347.11	21.44	-44.3	-45.6	21.3	0.00e+00	0	45	0	855638016	59	4342
2026-01-25 06:31:03.33	346.88	21.37	-44.2	-45.3	21.6	0.00e+00	0	45	0	857735168	59	4230
2026-01-25 06:31:04.34	346.66	21.30	-44.0	-45.1	21.8	0.00e+00	0	45	0	859832320	59	4134
2026-01-25 06:31:05.35	346.43	21.22	-44.2	-45.3	21.5	0.00e+00	0	45	0	860880896	59	4242
2026-01-25 06:31:06.36	346.21	21.15	-44.4	-45.6	21.4	0.00e+00	0	45	0	862978048	59	4365
2026-01-25 06:31:07.36	345.99	21.08	-44.7	-46.0	21.0	0.00e+00	0	45	0	865075200	59	4548
2026-01-25 06:31:08.37	345.77	21.01	-44.5	-45.7	20.4	0.00e+00	0	45	0	867172352	60	4183
2026-01-25 06:31:09.38	345.55	20.94	-44.6	-45.9	20.7	0.00e+00	0	45	0	868220928	60	4284
2026-01-25 06:31:10.39	345.33	20.86	-44.4	-45.7	21.0	0.00e+00	0	45	0	870318080	60	4160
2026-01-25 06:31:11.39	345.11	20.79	-44.6	-45.9	20.8	0.00e+00	0	45	0	872415232	60	4249
2026-01-25 06:31:12.40	344.90	20.72	-44.8	-46.1	20.6	0.00e+00	0	45	0	874512384	60	4361
2026-01-25 06:31:13.41	344.68	20.64	-44.8	-46.1	20.6	0.00e+00	0	45	0	876609536	60	4391
2026-01-25 06:31:14.42	344.47	20.57	-44.9	-46.2	20.5	0.00e+00	0	45	0	877658112	60	4424
2026-01-25 06:31:15.43	344.25	20.50	-44.8	-46.1	20.5	0.00e+00	0	45	0	879755264	60	4379
2026-01-25 06:31:16.44	344.04	20.42	-44.6	-45.9	20.7	0.00e+00	0	45	0	881852416	60	4290
2026-01-25 06:31:17.45	343.83	20.35	-44.5	-45.8	20.8	0.00e+00	0	45	0	883949568	60	4201
2026-01-25 06:31:18.45	343.62	20.27	-44.6	-46.0	20.7	0.00e+00	0	45	0	886046720	60	4305
2026-01-25 06:31:19.46	343.41	20.20	-44.7	-46.1	20.6	0.00e+00	0	45	0	888143872	60	4352
2026-01-25 06:31:20.47	343.20	20.13	-44.7	-46.0	20.6	0.00e+00	0	45	0	889192448	60	4334
2026-01-25 06:31:21.48	342.99	20.05	-44.5	-45.8	20.8	0.00e+00	0	45	0	891289600	60	4238
2026-01-25 06:31:22.49	342.79	19.98	-44.4	-45.8	20.8	0.00e+00	0	45	0	893386752	60	4201
2026-01-25 06:31:23.50	342.58	19.90	-44.3	-45.6	21.0	0.00e+00	0	45	0	895483904	60	4125
2026-01-25 06:31:24.50	342.38	19.82	-44.6	-45.9	20.8	0.00e+00	0	45	0	896532480	60	4266
2026-01-25 06:31:25.51	342.17	19.75	-44.8	-46.2	20.5	0.00e+00	0	45	0	898629632	60	4401
2026-01-25 06:31:26.52	341.97	19.67	-44.9	-46.3	20.4	0.00e+00	0	45	0	900726784	60	4475
2026-01-25 06:31:27.52	341.77	19.60	-45.0	-46.4	20.3	0.00e+00	0	45	0	902823936	60	4506
2026-01-25 06:31:28.53	341.57	19.52	-44.9	-46.2	20.4	0.00e+00	0	45	0	904921088	60	4438
2026-01-25 06:31:29.54	341.37	19.45	-44.7	-46.0	20.7	0.00e+00	0	45	0	907018240	60	4309
2026-01-25 06:31:30.55	341.17	19.37	-44.6	-45.9	20.7	0.00e+00	0	45	0	908066816	60	4278
2026-01-25 06:31:31.55	340.98	19.29	-44.4	-45.7	21.0	0.00e+00	0	45	0	910163968	60	4146
2026-01-25 06:31:32.56	340.78	19.22	-44.5	-45.8	20.8	0.00e+00	0	45	0	912261120	60	4215
2026-01-25 06:31:33.57	340.59	19.14	-44.8	-46.1	20.6	0.00e+00	0	45	0	914358272	60	4366
2026-01-25 06:31:34.58	340.39	19.06	-44.8	-46.2	20.5	0.00e+00	0	45	0	916455424	60	4416
2026-01-25 06:31:35.59	340.20	18.99	-45.0	-46.3	20.5	0.00e+00	0	45	0	917504000	60	4480
2026-01-25 06:31:36.59	340.01	18.91	-44.4	-45.7	20.9	0.00e+00	0	45	0	919601152	60	4169
2026-01-25 06:31:37.60	339.82	18.83	-44.1	-45.3	21.3	0.00e+00	0	45	0	921698304	60	3988
2026-01-25 06:31:38.61	339.62	18.76	-44.1	-45.3	21.3	0.00e+00	0	45	0	923795456	60	3988
2026-01-25 06:31:39.62	339.44	18.68	-44.3	-45.5	21.4	0.00e+00	0	45	0	924844032	59	4321
2026-01-25 06:31:40.63	339.25	18.60	-44.3	-45.5	21.4	0.00e+00	0	45	0	926941184	59	4298
2026-01-25 06:31:41.63	339.06	18.52	-44.2	-45.4	21.5	0.00e+00	0	45	0	929038336	59	4262
2026-01-25 06:31:42.64	338.87	18.45	-44.2	-45.4	21.5	0.00e+00	0	45	0	931135488	59	4272
2026-01-25 06:31:43.65	338.69	18.37	-44.1	-45.3	21.6	0.00e+00	0	45	0	933232640	59	4214
2026-01-25 06:31:44.65	338.51	18.29	-44.2	-45.4	21.5	0.00e+00	0	45	0	935329792	59	4261
2026-01-25 06:31:45.66	338.32	18.21	-44.3	-45.5	21.4	0.00e+00	0	45	0	936378368	59	4303
2026-01-25 06:31:46.67	338.14	18.14	-44.3	-45.5	21.5	0.00e+00	0	45	0	938475520	59	4293
2026-01-25 06:31:47.68	337.96	18.06	-44.5	-45.8	21.2	0.00e+00	0	45	0	940572672	59	4455
2026-01-25 06:31:48.69	337.78	17.98	-44.6	-45.8	21.2	0.00e+00	0	45	0	942669824	59	4461
2026-01-25 06:31:49.69	337.60	17.90	-44.4	-45.6	21.1	0.00e+00	0	45	0	944766976	60	4113
2026-01-25 06:31:50.70	337.42	17.82	-44.1	-45.3	21.3	0.00e+00	0	45	0	945815552	60	3992
2026-01-25 06:31:51.71	337.24	17.75	-44.3	-45.5	21.4	0.00e+00	0	45	0	947912704	59	4319
2026-01-25 06:31:52.72	337.06	17.67	-44.0	-45.2	21.7	0.00e+00	0	45	0	950009856	59	4151
2026-01-25 06:31:53.73	336.89	17.59	-43.9	-45.1	21.8	0.00e+00	0	45	0	952107008	59	4109
2026-01-25 06:31:54.73	336.71	17.51	-44.0	-45.1	21.7	0.00e+00	0	45	0	953155584	59	4115
2026-01-25 06:31:55.74	336.54	17.43	-44.0	-45.1	21.7	0.00e+00	0	45	0	955252736	59	4141
2026-01-25 06:31:56.75	336.37	17.36	-44.2	-45.3	21.5	0.00e+00	0	45	0	957349888	59	4229
2026-01-25 06:31:57.76	336.19	17.28	-44.2	-45.4	21.5	0.00e+00	0	45	0	959447040	59	4275
2026-01-25 06:31:58.77	336.02	17.20	-44.4	-45.6	21.3	0.00e+00	0	45	0	961544192	59	4382
2026-01-25 06:31:59.77	335.85	17.12	-44.4	-45.7	21.3	0.00e+00	0	45	0	963641344	59	4393
2026-01-25 06:32:00.78	335.68	17.04	-44.6	-45.8	21.2	0.00e+00	0	45	0	964689920	59	4457
2026-01-25 06:32:01.79	335.51	16.97	-44.7	-45.9	21.1	0.00e+00	0	45	0	966787072	59	4515
2026-01-25 06:32:02.80	335.35	16.89	-44.6	-45.9	20.8	0.00e+00	0	45	0	968884224	60	4255
2026-01-25 06:32:03.81	335.18	16.81	-44.4	-45.6	21.0	0.00e+00	0	45	0	970981376	60	4117
2026-01-25 06:32:04.81	335.01	16.73	-44.5	-45.7	21.0	0.00e+00	0	45	0	973078528	60	4157
2026-01-25 06:32:05.82	334.85	16.65	-44.3	-45.5	21.1	0.00e+00	0	45	0	974127104	60	4065
2026-01-25 06:32:06.83	334.68	16.57	-44.3	-45.5	21.4	0.00e+00	0	45	0	976224256	59	4310
2026-01-25 06:32:07.84	334.52	16.50	-44.3	-45.5	21.4	0.00e+00	0	45	0	978321408	59	4302
2026-01-25 06:32:08.85	334.36	16.42	-44.1	-45.2	21.7	0.00e+00	0	45	0	980418560	59	4160
2026-01-25 06:32:09.85	334.20	16.34	-44.0	-45.1	21.7	0.00e+00	0	45	0	982515712	59	4117
2026-01-25 06:32:10.86	334.04	16.26	-44.2	-45.3	21.5	0.00e+00	0	45	0	983564288	59	4221
2026-01-25 06:32:11.87	333.88	16.18	-44.5	-45.7	21.2	0.00e+00	0	45	0	985661440	59	4419
2026-01-25 06:32:12.88	333.72	16.11	-44.6	-45.8	20.8	0.00e+00	0	45	0	987758592	60	4226
2026-01-25 06:32:13.89	333.56	16.03	-44.9	-46.2	20.5	0.00e+00	0	45	0	989855744	60	4402
2026-01-25 06:32:14.90	333.40	15.95	-45.1	-46.5	20.2	0.00e+00	0	45	0	991952896	60	4549
2026-01-25 06:32:15.91	333.24	15.87	-45.2	-46.5	20.2	0.00e+00	0	45	0	993001472	61	4330
2026-01-25 06:32:16.91	333.09	15.79	-45.3	-46.7	20.0	0.00e+00	0	45	0	995098624	61	4421
2026-01-25 06:32:17.92	332.93	15.72	-45.3	-46.7	20.0	0.00e+00	0	45	0	997195776	61	4399
2026-01-25 06:32:18.93	332.78	15.64	-45.1	-46.5	20.2	0.00e+00	0	45	0	999292928	61	4323
2026-01-25 06:32:19.94	332.62	15.56	-44.8	-46.1	20.6	0.00e+00	0	45	0	1001390080	61	4103
2026-01-25 06:32:20.94	332.47	15.48	-44.6	-45.9	20.7	0.00e+00	0	45	0	1003487232	61	4017
2026-01-25 06:32:21.95	332.32	15.40	-44.5	-45.8	20.9	0.00e+00	0	45	0	1004535808	60	4207
2026-01-25 06:32:22.96	332.17	15.33	-44.6	-45.8	20.8	0.00e+00	0	45	0	1006632960	60	4232
2026-01-25 06:32:23.97	332.02	15.25	-44.4	-45.7	20.9	0.00e+00	0	45	0	1008730112	60	4166
2026-01-25 06:32:24.98	331.87	15.17	-44.6	-45.9	20.7	0.00e+00	0	45	0	1010827264	60	4278
2026-01-25 06:32:25.99	331.72	15.09	-44.7	-46.0	20.6	0.00e+00	0	45	0	1011875840	60	4314
2026-01-25 06:32:27.00	331.57	15.02	-44.6	-45.9	20.7	0.00e+00	0	45	0	1013972992	60	4271
2026-01-25 06:32:28.01	331.43	14.94	-44.9	-46.2	20.5	0.00e+00	0	45	0	1016070144	60	4417
2026-01-25 06:32:29.01	331.28	14.86	-44.9	-46.2	20.4	0.00e+00	0	45	0	1018167296	60	4413
2026-01-25 06:32:30.02	331.14	14.78	-45.1	-46.5	20.2	0.00e+00	0	45	0	1020264448	60	4572
2026-01-25 06:32:31.03	330.99	14.71	-45.3	-46.7	20.0	0.00e+00	0	45	0	1021313024	61	4434
2026-01-25 06:32:32.04	330.85	14.63	-46.0	-47.6	19.2	0.00e+00	0	45	0	1023410176	62	4600
2026-01-25 06:32:33.05	330.70	14.55	-45.9	-47.5	19.3	0.00e+00	0	45	0	1025507328	62	4574
2026-01-25 06:32:34.05	330.56	14.47	-46.0	-47.6	19.2	0.00e+00	0	45	0	1027604480	62	4620
2026-01-25 06:32:35.06	330.42	14.40	-46.1	-47.6	19.1	0.00e+00	0	45	0	1029701632	62	4651
2026-01-25 06:32:36.07	330.28	14.32	-45.9	-47.4	19.3	0.00e+00	0	45	0	1031798784	62	4530
2026-01-25 06:32:37.08	330.14	14.24	-45.6	-47.0	19.7	0.00e+00	0	45	0	1032847360	62	4325
2026-01-25 06:32:38.08	330.00	14.17	-45.2	-46.6	20.1	0.00e+00	0	45	0	1034944512	62	4126
2026-01-25 06:32:39.09	329.86	14.09	-44.9	-46.2	20.5	0.00e+00	0	45	0	1037041664	61	4153
2026-01-25 06:32:40.10	329.72	14.01	-44.6	-45.9	20.7	0.00e+00	0	45	0	1039138816	61	4023
2026-01-25 06:32:41.11	329.59	13.94	-44.9	-46.2	20.4	0.00e+00	0	45	0	1040187392	61	4164
2026-01-25 06:32:42.12	329.45	13.86	-44.8	-46.1	20.5	0.00e+00	0	45	0	1042284544	61	4140
2026-01-25 06:32:43.12	329.32	13.78	-44.9	-46.2	20.4	0.00e+00	0	45	0	1044381696	61	4150
2026-01-25 06:32:44.13	329.18	13.71	-45.0	-46.3	20.3	0.00e+00	0	45	0	1046478848	61	4221
2026-01-25 06:32:45.14	329.05	13.63	-44.8	-46.1	20.5	0.00e+00	0	45	0	1048576000	61	4126
2026-01-25 06:32:46.15	328.91	13.55	-44.9	-46.2	20.4	0.00e+00	0	45	0	1050673152	61	4188
2026-01-25 06:32:47.16	328.78	13.48	-44.9	-46.3	20.3	0.00e+00	0	45	0	1051721728	61	4196
2026-01-25 06:32:48.17	328.65	13.40	-45.1	-46.5	20.1	0.00e+00	0	45	0	1053818880	61	4310
2026-01-25 06:32:49.17	328.52	13.33	-44.9	-46.2	20.4	0.00e+00	0	45	0	1055916032	61	4174
2026-01-25 06:32:50.18	328.38	13.25	-44.8	-46.1	20.5	0.00e+00	0	45	0	1058013184	61	4101
2026-01-25 06:32:51.19	328.25	13.17	-44.9	-46.2	20.4	0.00e+00	0	45	0	1060110336	61	4146
2026-01-25 06:32:52.20	328.13	13.10	-44.9	-46.1	20.4	0.00e+00	0	45	0	1061158912	61	4144
2026-01-25 06:32:53.20	328.00	13.02	-45.0	-46.3	20.3	0.00e+00	0	45	0	1063256064	61	4218
2026-01-25 06:32:54.21	327.87	12.95	-45.0	-46.4	20.1	0.00e+00	0	45	0	1065353216	61	4249
2026-01-25 06:32:55.22	327.74	12.87	-45.1	-46.5	20.1	0.00e+00	0	45	0	1067450368	61	4305
2026-01-25 06:32:56.23	327.61	12.80	-45.0	-46.4	20.2	0.00e+00	0	45	0	1068498944	61	4256
2026-01-25 06:32:57.23	327.49	12.72	-45.2	-46.6	20.0	0.00e+00	0	45	0	1070596096	61	4366
2026-01-25 06:32:58.24	327.36	12.65	-45.2	-46.6	20.0	0.00e+00	0	45	0	1072693248	61	4369
2026-01-25 06:32:59.25	327.24	12.57	-45.3	-46.8	19.9	0.00e+00	0	45	0	1074790400	61	4456
2026-01-25 06:33:00.26	327.11	12.50	-45.3	-46.7	19.9	0.00e+00	0	45	0	1076887552	61	4425
2026-01-25 06:33:01.27	326.99	12.42	-45.3	-46.7	19.9	0.00e+00	0	45	0	1078984704	61	4421
2026-01-25 06:33:02.28	326.87	12.35	-45.5	-47.0	19.7	0.00e+00	0	45	0	1080033280	61	4558
2026-01-25 06:33:03.29	326.75	12.27	-45.4	-46.8	19.7	0.00e+00	0	45	0	1082130432	61	4475
2026-01-25 06:33:04.29	326.62	12.20	-45.6	-47.1	19.5	0.00e+00	0	45	0	1084227584	61	4622
2026-01-25 06:33:05.30	326.50	12.12	-45.5	-46.9	19.6	0.00e+00	0	45	0	1086324736	61	4538
2026-01-25 06:33:06.31	326.38	12.05	-45.8	-47.3	19.3	0.00e+00	0	45	0	1088421888	62	4493
2026-01-25 06:33:07.32	326.26	11.97	-45.9	-47.5	19.1	0.00e+00	0	45	0	1089470464	62	4580
2026-01-25 06:33:08.33	326.14	11.90	-46.0	-47.5	19.1	0.00e+00	0	45	0	1091567616	62	4587
2026-01-25 06:33:09.33	326.03	11.82	-46.3	-48.0	18.7	0.00e+00	0	45	0	1093664768	63	4564
2026-01-25 06:33:10.34	325.91	11.75	-46.4	-48.0	18.6	0.00e+00	0	45	0	1095761920	63	4595
2026-01-25 06:33:11.35	325.79	11.68	-45.9	-47.5	19.1	0.00e+00	0	45	0	1097859072	63	4308
2026-01-25 06:33:12.36	325.67	11.60	-45.9	-47.4	19.2	0.00e+00	0	45	0	1098907648	63	4274
2026-01-25 06:33:13.36	325.56	11.53	-45.7	-47.2	19.3	0.00e+00	0	45	0	1101004800	63	4175
2026-01-25 06:33:14.37	325.44	11.46	-45.6	-47.0	19.6	0.00e+00	0	45	0	1103101952	63	4090
2026-01-25 06:33:15.38	325.33	11.38	-45.7	-47.1	19.5	0.00e+00	0	45	0	1105199104	63	4143
2026-01-25 06:33:16.39	325.21	11.31	-45.7	-47.2	19.4	0.00e+00	0	45	0	1107296256	63	4165
2026-01-25 06:33:17.39	325.10	11.24	-45.6	-47.1	19.5	0.00e+00	0	45	0	1108344832	63	4105
2026-01-25 06:33:18.40	324.99	11.16	-45.5	-46.9	19.7	0.00e+00	0	45	0	1110441984	63	4038
2026-01-25 06:33:19.41	324.88	11.09	-45.6	-47.0	19.5	0.00e+00	0	45	0	1112539136	62	4335
2026-01-25 06:33:20.42	324.76	11.02	-45.9	-47.4	19.2	0.00e+00	0	45	0	1114636288	62	4511
2026-01-25 06:33:21.43	324.65	10.94	-46.0	-47.6	19.0	0.00e+00	0	45	0	1116733440	62	4628
2026-01-25 06:33:22.44	324.54	10.87	-46.2	-47.8	18.8	0.00e+00	0	45	0	1117782016	63	4491
2026-01-25 06:33:23.44	324.43	10.80	-46.4	-48.1	18.6	0.00e+00	0	45	0	1119879168	63	4619
2026-01-25 06:33:24.45	324.32	10.73	-46.6	-48.4	18.3	0.00e+00	0	45	0	1121976320	63	4771
2026-01-25 06:33:25.46	324.21	10.65	-46.9	-48.7	17.8	0.00e+00	0	45	0	1124073472	64	4700
2026-01-25 06:33:26.47	324.10	10.58	-46.6	-48.4	18.2	0.00e+00	0	45	0	1126170624	64	4511
2026-01-25 06:33:27.47	324.00	10.51	-46.4	-48.2	18.3	0.00e+00	0	45	0	1127219200	64	4406
2026-01-25 06:33:28.48	323.89	10.44	-46.4	-48.1	18.4	0.00e+00	0	45	0	1129316352	64	4377
2026-01-25 06:33:29.49	323.78	10.36	-46.3	-48.0	18.5	0.00e+00	0	45	0	1131413504	64	4310
2026-01-25 06:33:30.50	323.68	10.29	-46.1	-47.8	18.7	0.00e+00	0	45	0	1133510656	64	4212
2026-01-25 06:33:31.51	323.57	10.22	-46.0	-47.6	19.0	0.00e+00	0	45	0	1135607808	63	4360
2026-01-25 06:33:32.51	323.47	10.15	-45.9	-47.4	19.1	0.00e+00	0	45	0	1136656384	63	4265
2026-01-25 06:33:33.52	323.36	10.08	-45.6	-47.1	19.5	0.00e+00	0	45	0	1138753536	63	4102
2026-01-25 06:33:34.53	323.26	10.01	-45.7	-47.2	19.4	0.00e+00	0	45	0	1140850688	63	4155
2026-01-25 06:33:35.54	323.15	9.94	-45.7	-47.3	19.2	0.00e+00	0	45	0	1142947840	63	4194
2026-01-25 06:33:36.54	323.05	9.86	-45.8	-47.3	19.2	0.00e+00	0	45	0	1145044992	63	4220
2026-01-25 06:33:37.55	322.95	9.79	-45.8	-47.3	19.2	0.00e+00	0	45	0	1146093568	63	4241
2026-01-25 06:33:38.56	322.85	9.72	-45.8	-47.4	19.1	0.00e+00	0	45	0	1148190720	63	4270
2026-01-25 06:33:39.57	322.74	9.65	-46.0	-47.6	18.9	0.00e+00	0	45	0	1150287872	63	4375
2026-01-25 06:33:40.58	322.64	9.58	-46.2	-47.8	18.7	0.00e+00	0	45	0	1152385024	63	4470
2026-01-25 06:33:41.59	322.54	9.51	-46.4	-48.1	18.5	0.00e+00	0	45	0	1154482176	63	4608
2026-01-25 06:33:42.60	322.44	9.44	-46.3	-48.0	18.5	0.00e+00	0	45	0	1155530752	63	4594
2026-01-25 06:33:43.60	322.34	9.37	-46.4	-48.1	18.5	0.00e+00	0	45	0	1157627904	63	4645
2026-01-25 06:33:44.61	322.24	9.30	-46.8	-48.6	17.9	0.00e+00	0	45	0	1159725056	64	4628
2026-01-25 06:33:45.62	322.14	9.23	-46.6	-48.4	18.0	0.00e+00	0	45	0	1161822208	64	4536
2026-01-25 06:33:46.63	322.05	9.16	-46.8	-48.6	17.9	0.00e+00	0	45	0	1163919360	64	4626
2026-01-25 06:33:47.64	321.95	9.09	-47.0	-49.0	17.5	0.00e+00	0	45	0	1166016512	64	4841
2026-01-25 06:33:48.65	321.85	9.02	-47.0	-48.9	17.5	0.00e+00	0	45	0	1167065088	64	4812
2026-01-25 06:33:49.65	321.76	8.95	-46.9	-48.8	17.7	0.00e+00	0	45	0	1169162240	64	4718
2026-01-25 06:33:50.66	321.66	8.88	-47.1	-49.0	17.4	0.00e+00	0	45	0	1171259392	64	4858
2026-01-25 06:33:51.67	321.56	8.81	-47.1	-49.1	17.3	0.00e+00	0	45	0	1173356544	65	4602
2026-01-25 06:33:52.68	321.47	8.74	-47.2	-49.2	17.3	0.00e+00	0	45	0	1174405120	65	4653
2026-01-25 06:33:53.69	321.37	8.67	-47.1	-49.1	17.3	0.00e+00	0	45	0	1176502272	65	4602
2026-01-25 06:33:54.69	321.28	8.60	-47.1	-49.1	17.4	0.00e+00	0	45	0	1178599424	65	4601
2026-01-25 06:33:55.70	321.18	8.53	-46.9	-48.8	17.6	0.00e+00	0	45	0	1180696576	65	4465
2026-01-25 06:33:56.71	321.09	8.46	-47.0	-48.9	17.6	0.00e+00	0	45	0	1182793728	65	4497
2026-01-25 06:33:57.72	321.00	8.39	-47.0	-48.9	17.5	0.00e+00	0	45	0	1183842304	65	4519
2026-01-25 06:33:58.73	320.91	8.33	-46.7	-48.6	17.8	0.00e+00	0	45	0	1185939456	65	4346
2026-01-25 06:33:59.73	320.81	8.26	-46.8	-48.6	17.7	0.00e+00	0	45	0	1188036608	65	4387
2026-01-25 06:34:00.74	320.72	8.19	-46.8	-48.6	17.8	0.00e+00	0	45	0	1190133760	65	4381
2026-01-25 06:34:01.75	320.63	8.12	-46.9	-48.8	17.5	0.00e+00	0	45	0	1192230912	65	4483
2026-01-25 06:34:02.76	320.54	8.05	-46.9	-48.9	17.5	0.00e+00	0	45	0	1194328064	65	4498
2026-01-25 06:34:03.76	320.45	7.98	-47.0	-49.0	17.4	0.00e+00	0	45	0	1195376640	65	4562
2026-01-25 06:34:04.77	320.36	7.92	-47.1	-49.1	17.3	0.00e+00	0	45	0	1197473792	65	4643
2026-01-25 06:34:05.78	320.27	7.85	-47.2	-49.3	17.0	0.00e+00	0	45	0	1199570944	65	4723
2026-01-25 06:34:06.79	320.18	7.78	-47.4	-49.5	16.9	0.00e+00	0	45	0	1201668096	65	4826
2026-01-25 06:34:07.80	320.09	7.71	-47.5	-49.7	16.7	0.00e+00	0	45	0	1202716672	65	4930
2026-01-25 06:34:08.81	320.01	7.65	-47.6	-49.8	16.6	0.00e+00	0	45	0	1204813824	65	5040
2026-01-25 06:34:09.81	319.92	7.58	-48.0	-50.4	16.0	0.00e+00	0	45	0	1206910976	66	5071
2026-01-25 06:34:10.82	319.83	7.51	-47.9	-50.3	16.2	0.00e+00	0	45	0	1209008128	66	4985
2026-01-25 06:34:11.83	319.74	7.44	-48.0	-50.4	16.0	0.00e+00	0	45	0	1211105280	66	5060
2026-01-25 06:34:12.84	319.66	7.38	-48.1	-50.6	15.8	0.00e+00	0	45	0	1212153856	66	5203
2026-01-25 06:34:13.84	319.57	7.31	-48.1	-50.6	15.8	0.00e+00	0	45	0	1214251008	66	5191
2026-01-25 06:34:14.85	319.49	7.24	-47.8	-50.1	16.2	0.00e+00	0	45	0	1216348160	66	4901
2026-01-25 06:34:15.86	319.40	7.18	-47.9	-50.3	16.0	0.00e+00	0	45	0	1218445312	66	5035
2026-01-25 06:34:16.87	319.32	7.11	-47.8	-50.1	16.3	0.00e+00	0	45	0	1220542464	66	4884
2026-01-25 06:34:17.88	319.23	7.04	-47.6	-49.8	16.5	0.00e+00	0	45	0	1222639616	66	4747
2026-01-25 06:34:18.89	319.15	6.98	-47.2	-49.3	17.1	0.00e+00	0	45	0	1223688192	66	4456
2026-01-25 06:34:19.90	319.06	6.91	-47.1	-49.1	17.2	0.00e+00	0	45	0	1225785344	66	4384
2026-01-25 06:34:20.91	318.98	6.84	-47.0	-49.0	17.4	0.00e+00	0	45	0	1227882496	65	4579
2026-01-25 06:34:21.91	318.90	6.78	-46.7	-48.6	17.7	0.00e+00	0	45	0	1229979648	65	4384
2026-01-25 06:34:22.92	318.82	6.71	-46.5	-48.3	17.9	0.00e+00	0	45	0	1231028224	65	4224
