passes_logs/2026/01/25/R3.2S_Murmansk/R3.2S_Murmansk__20260125_100153_NOAA_20_JPSS-1_rec.log

#Pass ID: 20260125_100153_NOAA 20 (JPSS-1)
#Satellite: NOAA 20 (JPSS-1)
#Configuration: NOAA 20
#almurnet v.1.7.20251203
#Start time: 2026-01-25 10:01:55

#Version: 2.2.20231116
#Station: R3.2S_Murmansk
#Location: 33.079688 lon 68.888172 lat
#TLE: 1 43013U 17073A   26024.91598314  .00000178  00000+0  10511-3 0  9999
#TLE: 2 43013  98.7646 325.7511 0001081  25.0859 335.0369 14.19539982424141

#Time	Az	El	Level	Level2	SNR	BER	BlckErr	Temp	State	Recorded	gain1	gain2
2026-01-25 10:01:55.10	163.92	2.12	-52.2	-67.2	3.8	1.49e+00	0	42	0	0	76	19616
2026-01-25 10:01:56.10	163.93	2.18	-52.1	-67.1	3.8	1.49e+00	0	42	104	0	74	21809
2026-01-25 10:01:57.11	163.95	2.25	-52.1	-67.0	3.8	1.49e+00	0	42	104	0	74	21697
2026-01-25 10:01:58.12	163.97	2.31	-52.1	-67.0	3.8	1.49e+00	0	42	104	0	74	21649
2026-01-25 10:01:59.13	163.99	2.38	-52.1	-67.0	3.8	1.49e+00	0	42	104	0	74	21640
2026-01-25 10:02:00.14	164.00	2.44	-52.1	-67.0	3.8	1.49e+00	0	42	104	0	74	21646
2026-01-25 10:02:01.14	164.02	2.51	-52.1	-67.0	3.8	1.49e+00	0	42	104	0	74	21735
2026-01-25 10:02:02.15	164.04	2.57	-52.1	-67.0	3.8	1.49e+00	0	42	104	0	74	21669
2026-01-25 10:02:03.16	164.06	2.64	-52.1	-67.0	3.8	1.49e+00	0	42	104	0	74	21648
2026-01-25 10:02:04.17	164.07	2.71	-52.1	-67.0	3.8	1.49e+00	0	42	104	0	74	21597
2026-01-25 10:02:05.18	164.09	2.77	-52.1	-67.0	3.8	1.49e+00	0	42	104	0	74	21520
2026-01-25 10:02:06.18	164.11	2.84	-52.1	-66.9	3.8	1.49e+00	0	42	104	0	74	21471
2026-01-25 10:02:07.19	164.13	2.90	-52.1	-66.9	3.8	1.49e+00	0	42	104	0	74	21407
2026-01-25 10:02:08.20	164.14	2.97	-52.1	-66.9	3.8	1.49e+00	0	42	104	0	74	21429
2026-01-25 10:02:09.21	164.16	3.04	-52.1	-66.9	3.8	1.49e+00	0	42	104	0	74	21455
2026-01-25 10:02:10.21	164.18	3.10	-52.1	-67.0	3.8	1.49e+00	0	42	104	0	74	21538
2026-01-25 10:02:11.22	164.20	3.17	-52.1	-67.0	3.8	1.49e+00	0	42	104	0	74	21592
2026-01-25 10:02:12.23	164.21	3.24	-52.1	-67.0	3.8	1.49e+00	0	42	104	0	74	21624
2026-01-25 10:02:13.24	164.23	3.30	-52.1	-67.0	3.8	1.49e+00	0	42	104	0	74	21632
2026-01-25 10:02:14.25	164.25	3.37	-52.1	-66.9	3.8	1.49e+00	0	42	104	0	74	21482
2026-01-25 10:02:15.25	164.27	3.44	-52.1	-66.9	3.8	1.49e+00	0	42	104	0	74	21326
2026-01-25 10:02:16.26	164.29	3.51	-52.1	-66.9	3.8	1.49e+00	0	42	104	0	74	21281
2026-01-25 10:02:17.27	164.31	3.58	-52.1	-66.8	3.8	1.49e+00	0	43	104	0	74	21192
2026-01-25 10:02:18.28	164.32	3.64	-52.1	-66.8	3.8	1.49e+00	0	42	104	0	74	21239
2026-01-25 10:02:19.29	164.34	3.71	-52.1	-66.9	3.8	1.49e+00	0	43	104	0	74	21291
2026-01-25 10:02:20.30	164.36	3.78	-52.1	-66.8	3.8	1.49e+00	0	43	104	0	74	21237
2026-01-25 10:02:21.30	164.38	3.85	-52.1	-66.6	3.8	1.49e+00	0	43	104	0	74	20580
2026-01-25 10:02:22.31	164.40	3.92	-52.0	-65.4	3.8	1.49e+00	0	43	104	0	74	18086
2026-01-25 10:02:23.32	164.42	3.99	-51.9	-63.8	4.1	1.48e+00	0	42	104	0	74	15039
2026-01-25 10:02:24.33	164.44	4.06	-51.7	-61.7	4.9	1.11e+00	0	43	0	1048576	74	11747
2026-01-25 10:02:25.34	164.46	4.12	-51.5	-59.8	6.1	5.98e-01	0	43	0	2097152	74	9419
2026-01-25 10:02:26.35	164.47	4.19	-51.2	-58.1	7.6	1.33e-01	0	42	0	4194304	74	7724
2026-01-25 10:02:27.36	164.49	4.26	-50.7	-56.3	9.5	3.36e-02	0	43	0	6291456	73	6664
2026-01-25 10:02:28.36	164.51	4.33	-50.3	-55.1	10.7	6.24e-03	0	43	0	8388608	72	6185
2026-01-25 10:02:29.37	164.53	4.40	-49.8	-53.8	12.2	7.55e-04	0	43	0	10485760	71	5610
2026-01-25 10:02:30.38	164.55	4.47	-49.2	-52.7	13.3	4.04e-05	0	43	0	11534336	70	5231
2026-01-25 10:02:31.39	164.57	4.54	-48.7	-51.7	14.3	5.30e-06	0	43	0	13631488	69	4957
2026-01-25 10:02:32.40	164.59	4.62	-48.4	-51.2	14.8	0.00e+00	0	43	0	15728640	68	4957
2026-01-25 10:02:33.40	164.61	4.69	-47.8	-50.3	15.7	0.00e+00	0	43	0	17825792	67	4721
2026-01-25 10:02:34.41	164.63	4.76	-47.7	-50.1	15.9	0.00e+00	0	43	0	19922944	67	4615
2026-01-25 10:02:35.42	164.65	4.83	-47.3	-49.6	16.4	0.00e+00	0	43	0	20971520	66	4605
2026-01-25 10:02:36.43	164.67	4.90	-47.4	-49.7	16.3	0.00e+00	0	43	0	23068672	66	4679
2026-01-25 10:02:37.43	164.69	4.97	-47.4	-49.7	16.2	0.00e+00	0	43	0	25165824	66	4705
2026-01-25 10:02:38.44	164.71	5.04	-47.9	-50.4	15.6	0.00e+00	0	43	0	27262976	66	5066
2026-01-25 10:02:39.45	164.73	5.11	-48.3	-50.9	15.1	0.00e+00	0	43	0	29360128	67	5083
2026-01-25 10:02:40.46	164.75	5.19	-47.5	-49.7	16.4	2.05e-05	0	43	0	30408704	67	4403
2026-01-25 10:02:41.46	164.77	5.26	-50.5	-55.6	10.0	4.97e-02	0	43	0	32505856	73	6180
2026-01-25 10:02:42.47	164.79	5.33	-48.1	-50.6	15.3	6.44e-04	0	43	0	34603008	68	4604
2026-01-25 10:02:43.48	164.81	5.40	-47.8	-50.1	16.0	0.00e+00	0	43	0	36700160	66	4905
2026-01-25 10:02:44.49	164.83	5.48	-47.3	-49.4	16.7	0.00e+00	0	43	0	38797312	66	4530
2026-01-25 10:02:45.49	164.85	5.55	-47.3	-49.5	16.7	0.00e+00	0	43	0	39845888	66	4546
2026-01-25 10:02:46.50	164.87	5.62	-47.1	-49.2	16.9	0.00e+00	0	43	0	41943040	66	4418
2026-01-25 10:02:47.51	164.89	5.70	-47.3	-49.5	16.7	0.00e+00	0	43	0	44040192	66	4551
2026-01-25 10:02:48.52	164.91	5.77	-47.2	-49.3	16.9	0.00e+00	0	43	0	46137344	66	4449
2026-01-25 10:02:49.53	164.93	5.84	-47.0	-49.0	17.2	0.00e+00	0	43	0	48234496	66	4317
2026-01-25 10:02:50.54	164.95	5.92	-47.2	-49.2	17.0	0.00e+00	0	43	0	49283072	66	4420
2026-01-25 10:02:51.54	164.97	5.99	-47.2	-49.2	17.0	0.00e+00	0	43	0	51380224	66	4436
2026-01-25 10:02:52.55	165.00	6.07	-47.2	-49.2	17.0	0.00e+00	0	43	0	53477376	66	4432
2026-01-25 10:02:53.56	165.02	6.14	-47.1	-49.1	17.1	0.00e+00	0	43	0	55574528	66	4364
2026-01-25 10:02:54.57	165.04	6.22	-47.0	-49.0	17.3	0.00e+00	0	43	0	57671680	65	4569
2026-01-25 10:02:55.58	165.06	6.29	-47.1	-49.0	17.2	0.00e+00	0	43	0	58720256	65	4596
2026-01-25 10:02:56.58	165.08	6.37	-47.0	-49.0	17.3	0.00e+00	0	43	0	60817408	65	4548
2026-01-25 10:02:57.59	165.10	6.44	-47.0	-49.0	17.3	0.00e+00	0	43	0	62914560	65	4548
2026-01-25 10:02:58.60	165.12	6.52	-47.1	-49.1	17.2	0.00e+00	0	43	0	65011712	65	4601
2026-01-25 10:02:59.61	165.15	6.59	-47.0	-49.0	17.3	0.00e+00	0	43	0	67108864	65	4563
2026-01-25 10:03:00.62	165.17	6.67	-47.1	-49.1	17.2	0.00e+00	0	43	0	68157440	65	4628
2026-01-25 10:03:01.62	165.19	6.75	-47.1	-49.1	17.2	0.00e+00	0	43	0	70254592	65	4632
2026-01-25 10:03:02.63	165.21	6.82	-46.9	-48.8	17.5	0.00e+00	0	43	0	72351744	65	4478
2026-01-25 10:03:03.64	165.23	6.90	-47.0	-48.9	17.5	0.00e+00	0	43	0	74448896	65	4500
2026-01-25 10:03:04.65	165.26	6.98	-46.9	-48.7	17.6	0.00e+00	0	43	0	76546048	65	4440
2026-01-25 10:03:05.66	165.28	7.05	-46.8	-48.7	17.7	0.00e+00	0	43	0	77594624	65	4415
2026-01-25 10:03:06.67	165.30	7.13	-46.9	-48.8	17.6	0.00e+00	0	43	0	79691776	65	4457
2026-01-25 10:03:07.67	165.32	7.21	-46.8	-48.6	17.7	0.00e+00	0	43	0	81788928	65	4389
2026-01-25 10:03:08.68	165.35	7.29	-46.7	-48.5	17.9	0.00e+00	0	43	0	83886080	65	4312
2026-01-25 10:03:09.69	165.37	7.37	-46.9	-48.8	17.6	0.00e+00	0	43	0	85983232	65	4481
2026-01-25 10:03:10.69	165.39	7.44	-46.9	-48.8	17.6	0.00e+00	0	43	0	87031808	65	4457
2026-01-25 10:03:11.70	165.41	7.52	-46.8	-48.6	17.8	0.00e+00	0	43	0	89128960	65	4356
2026-01-25 10:03:12.71	165.44	7.60	-46.5	-48.3	18.1	0.00e+00	0	43	0	91226112	65	4216
2026-01-25 10:03:13.72	165.46	7.68	-46.4	-48.1	18.3	0.00e+00	0	43	0	93323264	64	4384
2026-01-25 10:03:14.73	165.48	7.76	-46.6	-48.3	18.1	0.00e+00	0	43	0	95420416	64	4478
2026-01-25 10:03:15.74	165.51	7.84	-46.4	-48.0	18.4	0.00e+00	0	43	0	96468992	64	4338
2026-01-25 10:03:16.74	165.53	7.92	-46.5	-48.3	18.2	0.00e+00	0	43	0	98566144	64	4458
2026-01-25 10:03:17.75	165.55	8.00	-46.5	-48.2	18.2	0.00e+00	0	43	0	100663296	64	4441
2026-01-25 10:03:18.76	165.58	8.08	-46.6	-48.3	18.1	0.00e+00	0	43	0	102760448	64	4484
2026-01-25 10:03:19.77	165.60	8.16	-46.6	-48.3	18.1	0.00e+00	0	43	0	104857600	64	4492
2026-01-25 10:03:20.78	165.63	8.24	-46.6	-48.3	18.2	0.00e+00	0	43	0	105906176	64	4464
2026-01-25 10:03:21.78	165.65	8.32	-46.6	-48.3	18.2	0.00e+00	0	44	0	108003328	64	4488
2026-01-25 10:03:22.79	165.67	8.40	-46.5	-48.2	18.3	0.00e+00	0	43	0	110100480	64	4404
2026-01-25 10:03:23.80	165.70	8.49	-46.3	-47.9	18.6	0.00e+00	0	43	0	112197632	64	4280
2026-01-25 10:03:24.81	165.72	8.57	-46.3	-48.0	18.5	0.00e+00	0	43	0	114294784	64	4318
2026-01-25 10:03:25.82	165.75	8.65	-46.5	-48.2	18.4	0.00e+00	0	43	0	116391936	64	4403
2026-01-25 10:03:26.83	165.77	8.73	-46.2	-47.9	18.6	0.00e+00	0	43	0	117440512	64	4259
2026-01-25 10:03:27.84	165.80	8.82	-46.2	-47.8	18.6	0.00e+00	0	43	0	119537664	64	4241
2026-01-25 10:03:28.85	165.82	8.90	-46.2	-47.8	18.7	0.00e+00	0	44	0	121634816	64	4227
2026-01-25 10:03:29.85	165.85	8.98	-46.2	-47.9	18.7	0.00e+00	0	44	0	123731968	64	4249
2026-01-25 10:03:30.86	165.87	9.07	-46.1	-47.6	18.9	0.00e+00	0	43	0	124780544	64	4138
2026-01-25 10:03:31.87	165.90	9.15	-46.2	-47.8	18.7	0.00e+00	0	44	0	126877696	64	4225
2026-01-25 10:03:32.88	165.92	9.24	-46.2	-47.8	18.8	0.00e+00	0	43	0	128974848	64	4198
2026-01-25 10:03:33.88	165.95	9.32	-46.2	-47.8	18.8	0.00e+00	0	44	0	131072000	64	4227
2026-01-25 10:03:34.89	165.97	9.40	-46.1	-47.7	18.9	0.00e+00	0	43	0	133169152	64	4161
2026-01-25 10:03:35.90	166.00	9.49	-46.0	-47.6	19.0	0.00e+00	0	43	0	135266304	64	4110
2026-01-25 10:03:36.91	166.02	9.58	-46.2	-47.7	19.0	0.00e+00	0	43	0	136314880	63	4432
2026-01-25 10:03:37.92	166.05	9.66	-46.1	-47.6	19.1	0.00e+00	0	43	0	138412032	63	4380
2026-01-25 10:03:38.92	166.08	9.75	-46.1	-47.6	19.1	0.00e+00	0	43	0	140509184	63	4390
2026-01-25 10:03:39.93	166.10	9.83	-46.0	-47.6	19.2	0.00e+00	0	43	0	142606336	63	4345
2026-01-25 10:03:40.94	166.13	9.92	-46.0	-47.5	19.2	0.00e+00	0	43	0	144703488	63	4316
2026-01-25 10:03:41.95	166.16	10.01	-46.1	-47.7	19.1	0.00e+00	0	44	0	145752064	63	4402
2026-01-25 10:03:42.96	166.18	10.09	-45.9	-47.4	19.3	0.00e+00	0	43	0	147849216	63	4277
2026-01-25 10:03:43.96	166.21	10.18	-46.0	-47.5	19.3	0.00e+00	0	43	0	149946368	63	4303
2026-01-25 10:03:44.97	166.24	10.27	-45.9	-47.4	19.3	0.00e+00	0	43	0	152043520	63	4279
2026-01-25 10:03:45.98	166.26	10.36	-45.9	-47.4	19.4	0.00e+00	0	43	0	153092096	63	4269
2026-01-25 10:03:46.99	166.29	10.45	-46.0	-47.5	19.3	0.00e+00	0	44	0	155189248	63	4304
2026-01-25 10:03:48.00	166.32	10.53	-45.9	-47.3	19.5	0.00e+00	0	43	0	157286400	63	4227
2026-01-25 10:03:49.00	166.35	10.62	-45.8	-47.2	19.5	0.00e+00	0	44	0	159383552	63	4189
2026-01-25 10:03:50.01	166.37	10.71	-45.9	-47.3	19.4	0.00e+00	0	43	0	161480704	63	4240
2026-01-25 10:03:51.02	166.40	10.80	-45.8	-47.3	19.5	0.00e+00	0	44	0	163577856	63	4213
2026-01-25 10:03:52.02	166.43	10.89	-45.8	-47.2	19.6	0.00e+00	0	44	0	164626432	63	4171
2026-01-25 10:03:53.03	166.46	10.98	-45.7	-47.2	19.6	0.00e+00	0	44	0	166723584	63	4163
2026-01-25 10:03:54.04	166.48	11.07	-45.8	-47.2	19.6	0.00e+00	0	43	0	168820736	63	4174
2026-01-25 10:03:55.05	166.51	11.16	-45.8	-47.3	19.5	0.00e+00	0	44	0	170917888	63	4214
2026-01-25 10:03:56.06	166.54	11.25	-45.9	-47.3	19.5	0.00e+00	0	43	0	173015040	63	4230
2026-01-25 10:03:57.07	166.57	11.35	-45.7	-47.2	19.7	0.00e+00	0	44	0	174063616	63	4152
2026-01-25 10:03:58.08	166.60	11.44	-45.8	-47.3	19.5	0.00e+00	0	43	0	176160768	63	4223
2026-01-25 10:03:59.09	166.63	11.53	-45.8	-47.3	19.6	0.00e+00	0	43	0	178257920	63	4195
2026-01-25 10:04:00.10	166.66	11.62	-45.8	-47.3	19.5	0.00e+00	0	43	0	180355072	63	4222
2026-01-25 10:04:01.10	166.69	11.72	-45.8	-47.3	19.5	0.00e+00	0	44	0	182452224	63	4226
2026-01-25 10:04:02.11	166.72	11.81	-45.6	-47.1	19.8	0.00e+00	0	43	0	183500800	63	4101
2026-01-25 10:04:03.12	166.75	11.90	-45.7	-47.1	19.7	0.00e+00	0	44	0	185597952	63	4143
2026-01-25 10:04:04.13	166.78	12.00	-45.6	-47.0	19.9	0.00e+00	0	43	0	187695104	63	4067
2026-01-25 10:04:05.14	166.81	12.09	-45.7	-47.2	19.7	0.00e+00	0	44	0	189792256	63	4150
2026-01-25 10:04:06.14	166.84	12.19	-45.6	-47.0	19.9	0.00e+00	0	43	0	191889408	63	4073
2026-01-25 10:04:07.15	166.87	12.28	-45.6	-47.0	19.9	0.00e+00	0	44	0	192937984	63	4085
2026-01-25 10:04:08.16	166.90	12.38	-45.7	-47.1	19.8	0.00e+00	0	44	0	195035136	63	4116
2026-01-25 10:04:09.17	166.93	12.47	-45.6	-47.1	19.8	0.00e+00	0	43	0	197132288	63	4099
2026-01-25 10:04:10.18	166.96	12.57	-45.5	-46.9	20.0	0.00e+00	0	43	0	199229440	63	4014
2026-01-25 10:04:11.19	166.99	12.67	-45.5	-46.9	20.0	0.00e+00	0	44	0	201326592	63	4042
2026-01-25 10:04:12.20	167.02	12.76	-45.6	-46.9	20.0	0.00e+00	0	43	0	203423744	63	4046
2026-01-25 10:04:13.21	167.05	12.86	-45.4	-46.7	20.1	0.00e+00	0	44	0	204472320	62	4183
2026-01-25 10:04:14.22	167.08	12.96	-45.5	-46.8	20.1	0.00e+00	0	44	0	206569472	62	4227
2026-01-25 10:04:15.22	167.12	13.06	-45.4	-46.7	20.2	0.00e+00	0	44	0	208666624	62	4188
2026-01-25 10:04:16.23	167.15	13.16	-45.3	-46.7	20.2	0.00e+00	0	43	0	210763776	62	4152
2026-01-25 10:04:17.24	167.18	13.25	-45.3	-46.6	20.3	0.00e+00	0	44	0	211812352	62	4127
2026-01-25 10:04:18.25	167.21	13.35	-45.3	-46.6	20.3	0.00e+00	0	43	0	213909504	62	4113
2026-01-25 10:04:19.25	167.25	13.45	-45.3	-46.6	20.3	0.00e+00	0	44	0	216006656	62	4111
2026-01-25 10:04:20.26	167.28	13.55	-45.4	-46.7	20.2	0.00e+00	0	44	0	218103808	62	4181
2026-01-25 10:04:21.27	167.31	13.65	-45.3	-46.6	20.3	0.00e+00	0	44	0	220200960	62	4114
2026-01-25 10:04:22.28	167.34	13.76	-45.2	-46.5	20.5	0.00e+00	0	43	0	221249536	62	4066
2026-01-25 10:04:23.28	167.38	13.86	-45.2	-46.5	20.4	0.00e+00	0	44	0	223346688	62	4066
2026-01-25 10:04:24.29	167.41	13.96	-45.1	-46.4	20.5	0.00e+00	0	43	0	225443840	62	4034
2026-01-25 10:04:25.30	167.45	14.06	-45.2	-46.5	20.5	0.00e+00	0	44	0	227540992	62	4075
2026-01-25 10:04:26.31	167.48	14.16	-45.3	-46.5	20.4	0.00e+00	0	44	0	229638144	62	4097
2026-01-25 10:04:27.32	167.51	14.27	-45.2	-46.5	20.5	0.00e+00	0	44	0	231735296	62	4069
2026-01-25 10:04:28.32	167.55	14.37	-45.1	-46.4	20.5	0.00e+00	0	44	0	232783872	62	4038
2026-01-25 10:04:29.33	167.58	14.47	-45.2	-46.5	20.5	0.00e+00	0	44	0	234881024	62	4066
2026-01-25 10:04:30.34	167.62	14.58	-45.1	-46.4	20.5	0.00e+00	0	43	0	236978176	62	4021
2026-01-25 10:04:31.35	167.65	14.68	-45.1	-46.4	20.6	0.00e+00	0	43	0	239075328	62	4019
2026-01-25 10:04:32.36	167.69	14.79	-45.2	-46.5	20.5	0.00e+00	0	43	0	240123904	62	4065
2026-01-25 10:04:33.36	167.72	14.89	-45.2	-46.4	20.5	0.00e+00	0	44	0	242221056	62	4050
2026-01-25 10:04:34.37	167.76	15.00	-45.2	-46.5	20.4	0.00e+00	0	44	0	244318208	62	4094
2026-01-25 10:04:35.38	167.79	15.11	-45.2	-46.5	20.5	0.00e+00	0	44	0	246415360	62	4066
2026-01-25 10:04:36.39	167.83	15.21	-45.2	-46.5	20.4	0.00e+00	0	44	0	248512512	62	4096
2026-01-25 10:04:37.40	167.87	15.32	-45.3	-46.6	20.3	0.00e+00	0	43	0	250609664	62	4122
2026-01-25 10:04:38.40	167.90	15.43	-45.2	-46.5	20.4	0.00e+00	0	43	0	251658240	62	4086
2026-01-25 10:04:39.41	167.94	15.54	-45.3	-46.6	20.3	0.00e+00	0	44	0	253755392	62	4136
2026-01-25 10:04:40.42	167.98	15.65	-45.3	-46.6	20.3	0.00e+00	0	44	0	255852544	62	4144
2026-01-25 10:04:41.43	168.02	15.76	-45.4	-46.7	20.3	0.00e+00	0	44	0	257949696	62	4161
2026-01-25 10:04:42.44	168.05	15.87	-45.5	-46.8	20.2	0.00e+00	0	44	0	260046848	62	4212
2026-01-25 10:04:43.44	168.09	15.98	-45.5	-46.8	20.1	0.00e+00	0	44	0	261095424	62	4236
2026-01-25 10:04:44.45	168.13	16.09	-45.5	-46.9	20.2	0.00e+00	0	44	0	263192576	62	4248
2026-01-25 10:04:45.46	168.17	16.20	-45.4	-46.7	20.3	0.00e+00	0	43	0	265289728	62	4186
2026-01-25 10:04:46.47	168.21	16.31	-45.4	-46.7	20.3	0.00e+00	0	44	0	267386880	62	4190
2026-01-25 10:04:47.48	168.24	16.42	-45.5	-46.8	20.2	0.00e+00	0	44	0	268435456	62	4214
2026-01-25 10:04:48.48	168.28	16.54	-45.5	-46.9	20.2	0.00e+00	0	44	0	270532608	62	4251
2026-01-25 10:04:49.49	168.32	16.65	-45.6	-47.0	20.0	0.00e+00	0	44	0	272629760	62	4312
2026-01-25 10:04:50.50	168.36	16.76	-45.6	-47.0	20.1	0.00e+00	0	44	0	274726912	62	4302
2026-01-25 10:04:51.51	168.40	16.88	-45.7	-47.1	20.0	0.00e+00	0	44	0	276824064	62	4349
2026-01-25 10:04:52.52	168.44	16.99	-45.7	-47.1	19.9	0.00e+00	0	44	0	278921216	62	4370
2026-01-25 10:04:53.52	168.48	17.11	-45.8	-47.2	19.9	0.00e+00	0	44	0	279969792	62	4409
2026-01-25 10:04:54.53	168.52	17.22	-45.8	-47.1	19.9	0.00e+00	0	44	0	282066944	62	4390
2026-01-25 10:04:55.54	168.57	17.34	-45.8	-47.2	19.8	0.00e+00	0	44	0	284164096	62	4440
2026-01-25 10:04:56.55	168.61	17.46	-45.9	-47.3	19.8	0.00e+00	0	43	0	286261248	62	4469
2026-01-25 10:04:57.56	168.65	17.58	-46.0	-47.4	19.7	0.00e+00	0	44	0	288358400	62	4509
2026-01-25 10:04:58.57	168.69	17.69	-46.0	-47.4	19.7	0.00e+00	0	44	0	289406976	62	4540
2026-01-25 10:04:59.58	168.73	17.81	-46.0	-47.5	19.7	0.00e+00	0	44	0	291504128	62	4554
2026-01-25 10:05:00.58	168.78	17.93	-46.1	-47.5	19.6	0.00e+00	0	44	0	293601280	62	4590
2026-01-25 10:05:01.59	168.82	18.05	-46.0	-47.5	19.6	0.00e+00	0	44	0	295698432	62	4559
2026-01-25 10:05:02.60	168.86	18.17	-46.2	-47.6	19.5	0.00e+00	0	43	0	297795584	62	4648
2026-01-25 10:05:03.61	168.91	18.29	-46.3	-47.8	19.4	0.00e+00	0	44	0	298844160	63	4443
2026-01-25 10:05:04.62	168.95	18.42	-46.3	-47.8	19.4	0.00e+00	0	44	0	300941312	63	4443
2026-01-25 10:05:05.62	168.99	18.54	-46.2	-47.8	19.2	0.00e+00	0	44	0	303038464	63	4451
2026-01-25 10:05:06.63	169.04	18.66	-46.1	-47.7	19.3	0.00e+00	0	44	0	305135616	63	4401
2026-01-25 10:05:07.64	169.08	18.78	-46.2	-47.7	19.2	0.00e+00	0	44	0	307232768	63	4428
2026-01-25 10:05:08.65	169.13	18.91	-46.1	-47.7	19.1	0.00e+00	0	44	0	308281344	63	4441
2026-01-25 10:05:09.66	169.17	19.03	-46.1	-47.7	18.9	0.00e+00	0	44	0	310378496	63	4423
2026-01-25 10:05:10.67	169.22	19.16	-46.2	-47.9	18.9	7.00e-07	0	44	0	312475648	63	4497
2026-01-25 10:05:11.68	169.27	19.29	-46.2	-47.8	19.0	7.00e-07	0	44	0	314572800	63	4471
2026-01-25 10:05:12.68	169.31	19.41	-46.1	-47.8	18.9	0.00e+00	0	44	0	316669952	63	4453
2026-01-25 10:05:13.69	169.36	19.54	-46.3	-47.9	18.4	9.99e-05	0	44	0	317718528	63	4540
2026-01-25 10:05:14.70	169.41	19.67	-46.2	-47.8	18.4	1.29e-03	0	44	0	319815680	63	4474
2026-01-25 10:05:15.71	169.45	19.79	-46.2	-47.7	18.3	2.83e-03	0	44	0	321912832	63	4438
2026-01-25 10:05:16.72	169.50	19.92	-46.2	-47.8	18.4	1.73e-03	0	44	0	324009984	63	4467
2026-01-25 10:05:17.72	169.55	20.05	-46.2	-47.9	18.4	9.63e-04	0	44	0	326107136	63	4512
2026-01-25 10:05:18.73	169.60	20.18	-46.1	-47.8	18.5	1.00e-03	0	44	0	327155712	63	4454
2026-01-25 10:05:19.74	169.65	20.31	-46.2	-47.7	18.4	1.23e-03	0	44	0	329252864	63	4426
2026-01-25 10:05:20.75	169.70	20.45	-46.2	-47.8	18.5	1.64e-03	0	44	0	331350016	63	4448
2026-01-25 10:05:21.76	169.75	20.58	-46.3	-47.9	18.6	1.00e-03	0	44	0	333447168	63	4495
2026-01-25 10:05:22.77	169.80	20.71	-46.2	-47.8	18.8	2.28e-05	0	44	0	335544320	63	4459
2026-01-25 10:05:23.78	169.85	20.85	-46.3	-47.8	19.4	0.00e+00	0	44	0	336592896	63	4462
2026-01-25 10:05:24.78	169.90	20.98	-46.2	-47.7	19.5	0.00e+00	0	44	0	338690048	63	4395
2026-01-25 10:05:25.79	169.95	21.12	-46.3	-47.8	19.3	0.00e+00	0	44	0	340787200	63	4467
2026-01-25 10:05:26.80	170.00	21.25	-46.2	-47.6	19.5	0.00e+00	0	43	0	342884352	63	4390
2026-01-25 10:05:27.81	170.05	21.39	-46.1	-47.6	19.6	0.00e+00	0	44	0	344981504	63	4347
2026-01-25 10:05:28.82	170.11	21.53	-46.1	-47.5	19.6	0.00e+00	0	44	0	347078656	63	4322
2026-01-25 10:05:29.82	170.16	21.66	-46.2	-47.6	19.6	0.00e+00	0	44	0	348127232	63	4367
2026-01-25 10:05:30.83	170.21	21.80	-46.2	-47.6	19.6	0.00e+00	0	44	0	350224384	63	4364
2026-01-25 10:05:31.84	170.27	21.94	-46.1	-47.5	19.7	0.00e+00	0	44	0	352321536	63	4312
2026-01-25 10:05:32.85	170.32	22.08	-46.0	-47.4	19.7	0.00e+00	0	44	0	354418688	63	4287
2026-01-25 10:05:33.86	170.38	22.22	-46.0	-47.5	19.8	0.00e+00	0	44	0	355467264	63	4292
2026-01-25 10:05:34.86	170.43	22.37	-46.0	-47.5	19.7	0.00e+00	0	44	0	357564416	63	4294
2026-01-25 10:05:35.87	170.49	22.51	-45.9	-47.3	19.9	0.00e+00	0	44	0	359661568	63	4226
2026-01-25 10:05:36.88	170.55	22.65	-46.0	-47.4	19.8	0.00e+00	0	44	0	361758720	63	4277
2026-01-25 10:05:37.89	170.60	22.80	-46.0	-47.4	19.8	0.00e+00	0	44	0	363855872	63	4271
2026-01-25 10:05:38.90	170.66	22.94	-45.9	-47.3	19.9	0.00e+00	0	44	0	364904448	63	4214
2026-01-25 10:05:39.90	170.72	23.09	-45.9	-47.3	19.9	0.00e+00	0	44	0	367001600	63	4206
2026-01-25 10:05:40.91	170.78	23.23	-45.9	-47.2	19.9	0.00e+00	0	44	0	369098752	63	4188
2026-01-25 10:05:41.92	170.84	23.38	-45.8	-47.1	20.1	0.00e+00	0	44	0	371195904	63	4133
2026-01-25 10:05:42.93	170.89	23.53	-45.8	-47.1	20.1	0.00e+00	0	44	0	373293056	63	4137
2026-01-25 10:05:43.93	170.95	23.68	-45.8	-47.1	20.1	0.00e+00	0	43	0	375390208	63	4134
2026-01-25 10:05:44.94	171.01	23.83	-45.7	-47.1	20.1	0.00e+00	0	44	0	376438784	63	4120
2026-01-25 10:05:45.95	171.08	23.98	-45.8	-47.1	20.1	0.00e+00	0	44	0	378535936	63	4134
2026-01-25 10:05:46.96	171.14	24.13	-45.8	-47.1	20.1	0.00e+00	0	44	0	380633088	63	4130
2026-01-25 10:05:47.97	171.20	24.28	-45.7	-47.1	20.1	0.00e+00	0	44	0	382730240	63	4112
2026-01-25 10:05:48.98	171.26	24.44	-45.8	-47.2	20.1	0.00e+00	0	44	0	383778816	63	4153
2026-01-25 10:05:49.98	171.33	24.59	-45.7	-47.0	20.2	0.00e+00	0	44	0	385875968	63	4097
2026-01-25 10:05:50.99	171.39	24.74	-45.8	-47.1	20.1	0.00e+00	0	44	0	387973120	63	4129
2026-01-25 10:05:52.00	171.45	24.90	-45.7	-47.0	20.3	0.00e+00	0	44	0	390070272	63	4067
2026-01-25 10:05:53.01	171.52	25.06	-45.6	-46.9	20.3	0.00e+00	0	44	0	392167424	63	4049
2026-01-25 10:05:54.02	171.59	25.21	-45.7	-47.0	20.3	0.00e+00	0	44	0	394264576	63	4071
2026-01-25 10:05:55.02	171.65	25.37	-45.8	-47.1	20.2	0.00e+00	0	44	0	395313152	63	4121
2026-01-25 10:05:56.03	171.72	25.53	-45.7	-47.0	20.3	0.00e+00	0	44	0	397410304	63	4064
2026-01-25 10:05:57.04	171.79	25.69	-45.8	-47.1	20.2	0.00e+00	0	44	0	399507456	63	4120
2026-01-25 10:05:58.05	171.85	25.85	-45.7	-47.1	20.2	0.00e+00	0	44	0	401604608	63	4107
2026-01-25 10:05:59.06	171.92	26.02	-45.8	-47.2	20.2	0.00e+00	0	44	0	403701760	63	4149
2026-01-25 10:06:00.06	171.99	26.18	-45.9	-47.3	20.0	0.00e+00	0	44	0	404750336	63	4200
2026-01-25 10:06:01.07	172.06	26.34	-46.0	-47.3	20.0	0.00e+00	0	44	0	406847488	63	4230
2026-01-25 10:06:02.08	172.13	26.51	-46.0	-47.4	19.9	0.00e+00	0	44	0	408944640	63	4268
2026-01-25 10:06:03.08	172.20	26.67	-46.2	-47.6	19.7	0.00e+00	0	44	0	411041792	63	4378
2026-01-25 10:06:04.09	172.28	26.84	-46.2	-47.6	19.7	0.00e+00	0	44	0	412090368	63	4378
2026-01-25 10:06:05.10	172.35	27.01	-46.3	-47.8	19.6	0.00e+00	0	44	0	414187520	63	4452
2026-01-25 10:06:06.11	172.42	27.18	-46.4	-47.8	19.5	0.00e+00	0	44	0	416284672	63	4492
2026-01-25 10:06:07.12	172.50	27.35	-46.5	-48.0	19.4	0.00e+00	0	44	0	418381824	63	4560
2026-01-25 10:06:08.12	172.57	27.52	-46.4	-47.8	19.5	0.00e+00	0	44	0	420478976	63	4483
2026-01-25 10:06:09.13	172.65	27.69	-46.5	-47.9	19.4	0.00e+00	0	44	0	422576128	63	4536
2026-01-25 10:06:10.14	172.73	27.86	-46.4	-47.9	19.5	0.00e+00	0	44	0	423624704	63	4494
2026-01-25 10:06:11.15	172.80	28.04	-46.4	-47.9	19.4	0.00e+00	0	44	0	425721856	63	4520
2026-01-25 10:06:12.16	172.88	28.21	-46.4	-47.9	19.5	0.00e+00	0	44	0	427819008	63	4497
2026-01-25 10:06:13.16	172.96	28.39	-46.4	-47.9	19.5	0.00e+00	0	44	0	429916160	63	4529
2026-01-25 10:06:14.17	173.04	28.57	-46.4	-47.9	19.5	0.00e+00	0	44	0	432013312	63	4499
2026-01-25 10:06:15.18	173.12	28.75	-46.5	-47.9	19.4	0.00e+00	0	44	0	433061888	63	4545
2026-01-25 10:06:16.19	173.21	28.93	-46.6	-48.1	19.3	0.00e+00	0	44	0	435159040	63	4599
2026-01-25 10:06:17.20	173.29	29.11	-46.6	-48.1	19.2	0.00e+00	0	44	0	437256192	63	4651
2026-01-25 10:06:18.20	173.37	29.29	-46.7	-48.2	19.1	0.00e+00	0	44	0	439353344	64	4434
2026-01-25 10:06:19.21	173.46	29.47	-46.8	-48.3	19.0	0.00e+00	0	44	0	441450496	64	4472
2026-01-25 10:06:20.22	173.54	29.65	-46.8	-48.4	18.9	0.00e+00	0	44	0	442499072	64	4532
2026-01-25 10:06:21.23	173.63	29.84	-46.9	-48.5	18.8	0.00e+00	0	44	0	444596224	64	4584
2026-01-25 10:06:22.24	173.72	30.03	-47.0	-48.5	18.8	0.00e+00	0	44	0	446693376	64	4596
2026-01-25 10:06:23.24	173.80	30.21	-46.9	-48.5	18.8	0.00e+00	0	44	0	448790528	64	4582
2026-01-25 10:06:24.25	173.89	30.40	-46.9	-48.5	18.8	0.00e+00	0	44	0	450887680	64	4588
2026-01-25 10:06:25.26	173.98	30.59	-47.0	-48.6	18.7	0.00e+00	0	44	0	451936256	64	4630
2026-01-25 10:06:26.27	174.07	30.78	-47.0	-48.6	18.7	0.00e+00	0	44	0	454033408	64	4628
2026-01-25 10:06:27.28	174.17	30.97	-47.1	-48.7	18.7	0.00e+00	0	44	0	456130560	64	4677
2026-01-25 10:06:28.28	174.26	31.17	-47.1	-48.7	18.6	0.00e+00	0	44	0	458227712	64	4677
2026-01-25 10:06:29.29	174.35	31.36	-47.1	-48.8	18.6	0.00e+00	0	44	0	460324864	64	4708
2026-01-25 10:06:30.30	174.45	31.56	-47.1	-48.8	18.6	0.00e+00	0	44	0	461373440	64	4719
2026-01-25 10:06:31.31	174.55	31.75	-47.3	-48.9	18.5	0.00e+00	0	44	0	463470592	65	4533
2026-01-25 10:06:32.32	174.64	31.95	-47.3	-49.0	18.4	0.00e+00	0	44	0	465567744	65	4577
2026-01-25 10:06:33.32	174.74	32.15	-47.4	-49.1	18.3	0.00e+00	0	44	0	467664896	65	4609
2026-01-25 10:06:34.33	174.84	32.35	-47.2	-48.8	18.6	0.00e+00	0	44	0	469762048	65	4477
2026-01-25 10:06:35.34	174.94	32.55	-47.1	-48.7	18.7	0.00e+00	0	44	0	470810624	65	4430
2026-01-25 10:06:36.35	175.05	32.76	-47.1	-48.8	18.6	0.00e+00	0	44	0	472907776	65	4450
2026-01-25 10:06:37.36	175.15	32.96	-47.0	-48.6	18.8	0.00e+00	0	44	0	475004928	65	4361
2026-01-25 10:06:38.36	175.25	33.17	-46.7	-48.2	19.2	0.00e+00	0	44	0	477102080	65	4181
2026-01-25 10:06:39.37	175.36	33.37	-46.9	-48.4	19.0	0.00e+00	0	44	0	479199232	65	4275
2026-01-25 10:06:40.38	175.47	33.58	-46.8	-48.3	19.1	0.00e+00	0	44	0	480247808	65	4232
2026-01-25 10:06:41.39	175.58	33.79	-46.9	-48.5	18.9	0.00e+00	0	44	0	482344960	65	4313
2026-01-25 10:06:42.39	175.69	34.00	-46.9	-48.5	18.9	0.00e+00	0	44	0	484442112	65	4300
2026-01-25 10:06:43.40	175.80	34.21	-46.9	-48.5	18.9	0.00e+00	0	44	0	486539264	65	4303
2026-01-25 10:06:44.41	175.91	34.43	-46.9	-48.5	18.9	0.00e+00	0	44	0	488636416	65	4316
2026-01-25 10:06:45.42	176.03	34.64	-46.9	-48.5	18.9	0.00e+00	0	43	0	489684992	65	4330
2026-01-25 10:06:46.43	176.14	34.86	-46.7	-48.2	19.2	0.00e+00	0	44	0	491782144	65	4187
2026-01-25 10:06:47.44	176.26	35.08	-46.8	-48.3	19.1	0.00e+00	0	44	0	493879296	65	4220
2026-01-25 10:06:48.44	176.38	35.30	-46.6	-48.1	19.3	0.00e+00	0	44	0	495976448	65	4131
2026-01-25 10:06:49.45	176.50	35.52	-46.6	-48.1	19.4	0.00e+00	0	44	0	498073600	65	4103
2026-01-25 10:06:50.46	176.62	35.74	-46.5	-48.0	19.5	0.00e+00	0	44	0	499122176	64	4296
2026-01-25 10:06:51.47	176.75	35.96	-46.6	-48.1	19.3	0.00e+00	0	44	0	501219328	64	4346
2026-01-25 10:06:52.47	176.87	36.19	-46.5	-48.0	19.5	0.00e+00	0	44	0	503316480	64	4293
2026-01-25 10:06:53.48	177.00	36.41	-46.7	-48.2	19.2	0.00e+00	0	44	0	505413632	64	4395
2026-01-25 10:06:54.49	177.13	36.64	-46.8	-48.3	19.1	0.00e+00	0	44	0	507510784	64	4477
2026-01-25 10:06:55.50	177.26	36.87	-47.0	-48.5	18.9	0.00e+00	0	44	0	509607936	64	4585
2026-01-25 10:06:56.50	177.39	37.10	-46.9	-48.5	18.9	0.00e+00	0	44	0	510656512	64	4588
2026-01-25 10:06:57.51	177.52	37.33	-47.0	-48.6	18.8	0.00e+00	0	44	0	512753664	64	4642
2026-01-25 10:06:58.52	177.66	37.57	-47.1	-48.7	18.8	0.00e+00	0	44	0	514850816	64	4668
2026-01-25 10:06:59.53	177.80	37.80	-47.0	-48.6	18.8	0.00e+00	0	44	0	516947968	64	4631
2026-01-25 10:07:00.53	177.94	38.04	-47.3	-48.9	18.6	0.00e+00	0	44	0	517996544	65	4521
2026-01-25 10:07:01.54	178.08	38.27	-47.7	-49.5	18.1	0.00e+00	0	44	0	520093696	65	4828
2026-01-25 10:07:02.55	178.22	38.51	-47.7	-49.5	18.0	0.00e+00	0	44	0	522190848	65	4859
2026-01-25 10:07:03.56	178.37	38.75	-48.1	-50.0	17.5	0.00e+00	0	44	0	524288000	66	4865
2026-01-25 10:07:04.56	178.52	39.00	-48.3	-50.3	17.2	0.00e+00	0	44	0	526385152	67	4734
2026-01-25 10:07:05.57	178.67	39.24	-48.4	-50.5	17.0	0.00e+00	0	44	0	527433728	67	4844
2026-01-25 10:07:06.58	178.82	39.49	-48.5	-50.6	16.9	0.00e+00	0	44	0	529530880	67	4892
2026-01-25 10:07:07.59	178.97	39.73	-48.5	-50.5	17.0	0.00e+00	0	44	0	531628032	67	4864
2026-01-25 10:07:08.60	179.13	39.98	-48.3	-50.3	17.2	0.00e+00	0	44	0	533725184	67	4752
2026-01-25 10:07:09.60	179.29	40.23	-48.2	-50.2	17.3	0.00e+00	0	44	0	535822336	67	4679
2026-01-25 10:07:10.61	179.45	40.48	-48.2	-50.1	17.4	0.00e+00	0	44	0	537919488	67	4648
2026-01-25 10:07:11.61	179.61	40.73	-48.3	-50.3	17.3	0.00e+00	0	44	0	538968064	67	4709
2026-01-25 10:07:12.62	179.78	40.99	-48.5	-50.6	17.0	0.00e+00	0	44	0	541065216	67	4886
2026-01-25 10:07:13.63	179.95	41.24	-48.6	-50.8	16.7	0.00e+00	0	44	0	543162368	67	5001
2026-01-25 10:07:14.64	180.12	41.50	-48.7	-50.9	16.7	0.00e+00	0	44	0	545259520	68	4791
2026-01-25 10:07:15.64	180.30	41.76	-48.9	-51.1	16.6	0.00e+00	0	44	0	546308096	68	4897
2026-01-25 10:07:16.65	180.47	42.02	-48.5	-50.6	17.0	0.00e+00	0	44	0	548405248	68	4615
2026-01-25 10:07:17.65	180.65	42.28	-48.7	-50.9	16.8	0.00e+00	0	44	0	550502400	68	4771
2026-01-25 10:07:18.66	180.84	42.55	-48.3	-50.3	17.3	0.00e+00	0	44	0	552599552	68	4469
2026-01-25 10:07:19.67	181.02	42.81	-48.2	-50.1	17.6	0.00e+00	0	44	0	554696704	68	4350
2026-01-25 10:07:20.68	181.21	43.08	-48.1	-50.0	17.7	0.00e+00	0	44	0	555745280	68	4314
2026-01-25 10:07:21.69	181.40	43.35	-47.9	-49.7	17.9	0.00e+00	0	44	0	557842432	67	4413
2026-01-25 10:07:22.70	181.60	43.62	-48.0	-49.8	17.8	0.00e+00	0	44	0	559939584	67	4458
2026-01-25 10:07:23.70	181.80	43.89	-48.1	-49.9	17.7	0.00e+00	0	44	0	562036736	67	4535
2026-01-25 10:07:24.71	182.00	44.16	-48.1	-50.0	17.6	0.00e+00	0	44	0	564133888	67	4572
2026-01-25 10:07:25.72	182.21	44.44	-48.1	-50.1	17.5	0.00e+00	0	44	0	566231040	67	4606
2026-01-25 10:07:26.73	182.42	44.71	-48.2	-50.1	17.5	0.00e+00	0	44	0	567279616	67	4636
2026-01-25 10:07:27.74	182.63	44.99	-48.0	-49.9	17.6	0.00e+00	0	44	0	569376768	67	4530
2026-01-25 10:07:28.75	182.84	45.27	-48.1	-50.0	17.6	0.00e+00	0	44	0	571473920	67	4588
2026-01-25 10:07:29.76	183.07	45.55	-48.5	-50.6	17.0	0.00e+00	0	44	0	573571072	67	4882
2026-01-25 10:07:30.76	183.29	45.83	-48.6	-50.7	16.9	0.00e+00	0	44	0	574619648	67	4928
2026-01-25 10:07:31.77	183.52	46.12	-48.7	-50.8	16.9	0.00e+00	0	44	0	576716800	68	4746
2026-01-25 10:07:32.78	183.75	46.40	-48.4	-50.3	17.3	0.00e+00	0	44	0	578813952	68	4493
2026-01-25 10:07:33.79	183.98	46.69	-48.3	-50.3	17.4	0.00e+00	0	44	0	580911104	68	4470
2026-01-25 10:07:34.80	184.23	46.98	-48.0	-49.9	17.8	0.00e+00	0	44	0	583008256	68	4251
2026-01-25 10:07:35.81	184.47	47.27	-47.6	-49.4	18.2	0.00e+00	0	44	0	585105408	67	4251
2026-01-25 10:07:36.82	184.72	47.56	-47.8	-49.5	18.1	0.00e+00	0	44	0	586153984	67	4320
2026-01-25 10:07:37.82	184.97	47.85	-48.0	-49.8	17.9	0.00e+00	0	44	0	588251136	67	4480
2026-01-25 10:07:38.83	185.23	48.15	-48.2	-50.2	17.4	0.00e+00	0	44	0	590348288	67	4656
2026-01-25 10:07:39.84	185.50	48.44	-48.2	-50.1	17.5	0.00e+00	0	44	0	592445440	67	4629
2026-01-25 10:07:40.85	185.76	48.74	-48.0	-49.9	17.8	0.00e+00	0	44	0	594542592	67	4503
2026-01-25 10:07:41.85	186.04	49.03	-47.7	-49.5	18.1	0.00e+00	0	44	0	595591168	67	4309
2026-01-25 10:07:42.86	186.32	49.33	-47.0	-48.6	18.9	0.00e+00	0	44	0	597688320	66	4105
2026-01-25 10:07:43.87	186.60	49.64	-46.3	-47.7	19.8	0.00e+00	0	44	0	599785472	64	4157
2026-01-25 10:07:44.88	186.89	49.94	-46.1	-47.4	20.1	0.00e+00	0	44	0	601882624	64	4026
2026-01-25 10:07:45.89	187.19	50.24	-45.7	-47.0	20.6	0.00e+00	0	43	0	602931200	63	4065
2026-01-25 10:07:46.90	187.49	50.55	-45.7	-47.0	20.7	0.00e+00	0	44	0	605028352	63	4078
2026-01-25 10:07:47.90	187.79	50.85	-45.4	-46.6	21.0	0.00e+00	0	44	0	607125504	62	4111
2026-01-25 10:07:48.91	188.11	51.16	-44.9	-46.0	21.5	0.00e+00	0	44	0	609222656	61	4076
2026-01-25 10:07:49.92	188.43	51.46	-44.6	-45.7	21.8	0.00e+00	0	44	0	611319808	61	3917
2026-01-25 10:07:50.93	188.76	51.77	-44.2	-45.2	22.2	0.00e+00	0	44	0	613416960	60	3952
2026-01-25 10:07:51.93	189.09	52.08	-44.3	-45.3	22.5	0.00e+00	0	44	0	614465536	59	4230
2026-01-25 10:07:52.94	189.43	52.39	-44.2	-45.3	22.5	0.00e+00	0	44	0	616562688	59	4196
2026-01-25 10:07:53.95	189.78	52.71	-44.0	-45.1	22.7	0.00e+00	0	44	0	618659840	59	4103
2026-01-25 10:07:54.96	190.13	53.02	-43.9	-44.9	22.8	0.00e+00	0	44	0	620756992	59	4016
2026-01-25 10:07:55.97	190.50	53.33	-43.8	-44.8	22.9	0.00e+00	0	44	0	622854144	59	3978
2026-01-25 10:07:56.98	190.87	53.65	-43.3	-44.2	23.5	0.00e+00	0	44	0	623902720	58	3951
2026-01-25 10:07:57.99	191.25	53.96	-43.1	-44.0	23.7	0.00e+00	0	44	0	625999872	58	3831
2026-01-25 10:07:59.00	191.64	54.28	-43.3	-44.2	23.5	0.00e+00	0	44	0	628097024	58	3929
2026-01-25 10:08:00.00	192.03	54.59	-43.5	-44.5	23.2	0.00e+00	0	44	0	630194176	58	4071
2026-01-25 10:08:01.01	192.43	54.91	-43.8	-44.8	22.9	0.00e+00	0	44	0	632291328	58	4242
2026-01-25 10:08:02.02	192.85	55.23	-44.1	-45.2	22.6	0.00e+00	0	44	0	633339904	58	4399
2026-01-25 10:08:03.03	193.27	55.55	-44.3	-45.4	22.4	0.00e+00	0	44	0	635437056	59	4261
2026-01-25 10:08:04.04	193.70	55.87	-44.4	-45.4	22.1	0.00e+00	0	44	0	637534208	60	4041
2026-01-25 10:08:05.05	194.15	56.18	-44.8	-45.9	21.7	0.00e+00	0	44	0	639631360	60	4248
2026-01-25 10:08:06.06	194.60	56.50	-44.9	-46.1	21.4	0.00e+00	0	43	0	641728512	60	4368
2026-01-25 10:08:07.06	195.06	56.82	-45.0	-46.2	21.4	0.00e+00	0	44	0	642777088	60	4410
2026-01-25 10:08:08.07	195.53	57.14	-44.9	-46.0	21.5	0.00e+00	0	44	0	644874240	60	4334
2026-01-25 10:08:09.08	196.02	57.46	-44.9	-46.0	21.6	0.00e+00	0	44	0	646971392	60	4326
2026-01-25 10:08:10.09	196.51	57.78	-45.3	-46.5	21.1	0.00e+00	0	44	0	649068544	61	4322
2026-01-25 10:08:11.10	197.02	58.10	-45.5	-46.8	20.9	0.00e+00	0	44	0	651165696	61	4450
2026-01-25 10:08:12.11	197.54	58.41	-45.5	-46.7	20.9	0.00e+00	0	44	0	653262848	61	4436
2026-01-25 10:08:13.12	198.07	58.73	-45.4	-46.6	21.0	0.00e+00	0	44	0	654311424	61	4364
2026-01-25 10:08:14.13	198.62	59.05	-45.0	-46.2	21.4	0.00e+00	0	44	0	656408576	61	4168
2026-01-25 10:08:15.14	199.18	59.37	-44.6	-45.7	21.8	0.00e+00	0	44	0	658505728	61	3951
2026-01-25 10:08:16.14	199.75	59.68	-44.4	-45.5	22.0	0.00e+00	0	44	0	660602880	60	4083
2026-01-25 10:08:17.15	200.33	59.99	-44.3	-45.3	22.2	0.00e+00	0	44	0	661651456	60	3984
2026-01-25 10:08:18.16	200.93	60.31	-44.1	-45.1	22.5	0.00e+00	0	44	0	663748608	60	3881
2026-01-25 10:08:19.17	201.55	60.62	-44.3	-45.3	22.2	0.00e+00	0	44	0	665845760	60	4004
2026-01-25 10:08:20.18	202.18	60.93	-44.0	-45.1	22.5	0.00e+00	0	44	0	667942912	60	3869
2026-01-25 10:08:21.19	202.82	61.24	-44.0	-45.1	22.4	0.00e+00	0	44	0	670040064	60	3873
2026-01-25 10:08:22.19	203.48	61.54	-44.4	-45.4	22.4	0.00e+00	0	44	0	671088640	59	4269
2026-01-25 10:08:23.20	204.16	61.85	-44.2	-45.2	22.6	0.00e+00	0	44	0	673185792	59	4182
2026-01-25 10:08:24.21	204.85	62.15	-44.2	-45.2	22.6	0.00e+00	0	44	0	675282944	59	4189
2026-01-25 10:08:25.22	205.57	62.45	-44.2	-45.2	22.7	0.00e+00	0	44	0	677380096	59	4160
2026-01-25 10:08:26.23	206.30	62.75	-44.4	-45.5	22.4	0.00e+00	0	44	0	679477248	59	4304
2026-01-25 10:08:27.23	207.04	63.04	-44.6	-45.7	21.9	0.00e+00	0	44	0	681574400	60	4177
2026-01-25 10:08:28.24	207.80	63.34	-45.1	-46.2	21.5	0.00e+00	0	44	0	682622976	60	4418
2026-01-25 10:08:29.25	208.59	63.63	-45.3	-46.5	21.2	0.00e+00	0	44	0	684720128	61	4307
2026-01-25 10:08:30.26	209.40	63.91	-45.5	-46.7	21.0	0.00e+00	0	44	0	686817280	61	4412
2026-01-25 10:08:31.27	210.22	64.19	-45.3	-46.5	21.2	0.00e+00	0	44	0	688914432	61	4340
2026-01-25 10:08:32.28	211.07	64.47	-45.2	-46.4	21.3	0.00e+00	0	44	0	689963008	61	4257
2026-01-25 10:08:33.29	211.93	64.75	-45.2	-46.4	21.3	0.00e+00	0	44	0	692060160	61	4271
2026-01-25 10:08:34.30	212.82	65.02	-45.4	-46.6	21.1	0.00e+00	0	44	0	694157312	61	4391
2026-01-25 10:08:35.30	213.72	65.28	-45.5	-46.8	20.9	0.00e+00	0	44	0	696254464	61	4448
2026-01-25 10:08:36.31	214.65	65.55	-45.8	-47.1	20.6	0.00e+00	0	44	0	698351616	62	4373
2026-01-25 10:08:37.32	215.60	65.80	-45.6	-46.8	20.9	0.00e+00	0	44	0	700448768	62	4213
2026-01-25 10:08:38.32	216.57	66.05	-45.0	-46.2	21.5	0.00e+00	0	44	0	701497344	62	3919
2026-01-25 10:08:39.33	217.56	66.30	-44.6	-45.7	22.0	0.00e+00	0	44	0	703594496	61	3919
2026-01-25 10:08:40.34	218.58	66.54	-44.6	-45.7	22.0	0.00e+00	0	44	0	705691648	60	4165
2026-01-25 10:08:41.35	219.62	66.77	-45.1	-46.3	21.4	0.00e+00	0	44	0	707788800	60	4448
2026-01-25 10:08:42.36	220.69	67.00	-46.0	-47.3	20.5	0.00e+00	0	44	0	709885952	62	4487
2026-01-25 10:08:43.37	221.77	67.22	-46.7	-48.1	19.8	0.00e+00	0	44	0	710934528	63	4619
2026-01-25 10:08:44.37	222.87	67.43	-46.6	-48.0	19.8	0.00e+00	0	44	0	713031680	63	4565
2026-01-25 10:08:45.38	224.00	67.64	-46.1	-47.4	20.4	0.00e+00	0	44	0	715128832	63	4274
2026-01-25 10:08:46.39	225.16	67.83	-46.3	-47.7	20.2	0.00e+00	0	44	0	717225984	63	4396
2026-01-25 10:08:47.40	226.34	68.02	-46.7	-48.1	19.6	0.00e+00	0	44	0	718274560	64	4369
2026-01-25 10:08:48.40	227.52	68.21	-47.0	-48.6	19.3	0.00e+00	0	44	0	720371712	64	4602
2026-01-25 10:08:49.41	228.74	68.38	-47.4	-49.1	18.6	0.00e+00	0	44	0	722468864	65	4632
2026-01-25 10:08:50.42	229.98	68.54	-47.7	-49.4	18.4	0.00e+00	0	44	0	724566016	65	4788
2026-01-25 10:08:51.43	231.24	68.70	-47.3	-48.9	18.8	0.00e+00	0	44	0	726663168	66	4250
2026-01-25 10:08:52.44	232.52	68.85	-47.2	-48.8	18.9	0.00e+00	0	44	0	728760320	66	4198
2026-01-25 10:08:53.44	233.81	68.98	-47.3	-48.9	18.9	0.00e+00	0	44	0	729808896	66	4260
2026-01-25 10:08:54.45	235.12	69.11	-46.9	-48.4	19.3	0.00e+00	0	44	0	731906048	65	4281
2026-01-25 10:08:55.46	236.46	69.23	-46.6	-48.1	19.7	0.00e+00	0	44	0	734003200	65	4113
2026-01-25 10:08:56.47	237.80	69.33	-47.1	-48.7	19.0	0.00e+00	0	44	0	736100352	65	4409
2026-01-25 10:08:57.47	239.15	69.43	-47.2	-48.8	18.9	0.00e+00	0	44	0	738197504	65	4451
2026-01-25 10:08:58.48	240.53	69.51	-46.8	-48.3	19.5	0.00e+00	0	44	0	739246080	65	4210
2026-01-25 10:08:59.49	241.91	69.59	-46.0	-47.3	20.4	0.00e+00	0	44	0	741343232	64	3969
2026-01-25 10:09:00.50	243.31	69.65	-45.4	-46.6	21.2	0.00e+00	0	44	0	743440384	62	4103
2026-01-25 10:09:01.50	244.70	69.70	-45.7	-47.0	20.8	0.00e+00	0	44	0	745537536	62	4307
2026-01-25 10:09:02.51	246.11	69.75	-46.3	-47.6	20.2	0.00e+00	0	44	0	747634688	63	4388
2026-01-25 10:09:03.52	247.53	69.77	-45.8	-47.1	20.7	0.00e+00	0	44	0	748683264	63	4100
2026-01-25 10:09:04.53	248.95	69.79	-45.2	-46.4	21.4	0.00e+00	0	44	0	750780416	62	4015
2026-01-25 10:09:05.54	250.37	69.80	-45.4	-46.6	21.2	0.00e+00	0	44	0	752877568	62	4120
2026-01-25 10:09:06.55	251.80	69.79	-45.6	-46.8	21.0	0.00e+00	0	44	0	754974720	62	4218
2026-01-25 10:09:07.56	253.22	69.78	-44.8	-46.0	21.7	0.00e+00	0	44	0	757071872	61	4053
2026-01-25 10:09:08.57	254.63	69.75	-44.4	-45.5	22.2	0.00e+00	0	44	0	758120448	60	4068
2026-01-25 10:09:09.57	256.03	69.71	-44.6	-45.6	22.1	0.00e+00	0	44	0	760217600	60	4139
2026-01-25 10:09:10.58	257.44	69.66	-45.1	-46.2	21.5	0.00e+00	0	44	0	762314752	60	4435
2026-01-25 10:09:11.59	258.83	69.60	-45.6	-46.8	21.0	0.00e+00	0	44	0	764411904	61	4460
2026-01-25 10:09:12.60	260.22	69.53	-44.9	-46.0	21.7	0.00e+00	0	44	0	766509056	61	4056
2026-01-25 10:09:13.60	261.59	69.44	-44.5	-45.6	22.1	0.00e+00	0	44	0	767557632	61	3887
2026-01-25 10:09:14.61	262.95	69.35	-45.8	-47.1	20.7	0.00e+00	0	44	0	769654784	62	4342
2026-01-25 10:09:15.62	264.30	69.24	-47.2	-48.8	19.0	0.00e+00	0	44	0	771751936	64	4745
2026-01-25 10:09:16.63	265.63	69.13	-47.4	-49.1	18.7	0.00e+00	0	44	0	773849088	65	4608
2026-01-25 10:09:17.64	266.95	69.00	-46.8	-48.2	19.6	0.00e+00	0	44	0	775946240	65	4181
2026-01-25 10:09:18.65	268.25	68.87	-46.9	-48.5	19.3	0.00e+00	0	44	0	776994816	65	4294
2026-01-25 10:09:19.65	269.52	68.72	-48.1	-49.9	17.8	0.00e+00	0	44	0	779091968	66	4808
2026-01-25 10:09:20.66	270.78	68.57	-48.9	-51.1	16.8	0.00e+00	0	44	0	781189120	68	4885
2026-01-25 10:09:21.67	272.02	68.40	-48.0	-49.8	18.0	0.00e+00	0	44	0	783286272	68	4227
2026-01-25 10:09:22.68	273.25	68.23	-47.2	-48.8	19.0	0.00e+00	0	44	0	785383424	66	4199
2026-01-25 10:09:23.69	274.45	68.05	-47.6	-49.3	18.4	0.00e+00	0	44	0	786432000	66	4454
2026-01-25 10:09:24.69	275.61	67.86	-49.2	-51.4	16.6	0.00e+00	0	44	0	788529152	68	5072
2026-01-25 10:09:25.70	276.77	67.67	-48.6	-50.6	17.2	0.00e+00	0	44	0	790626304	69	4385
2026-01-25 10:09:26.71	277.90	67.46	-46.7	-48.1	19.5	0.00e+00	0	44	0	792723456	65	4144
2026-01-25 10:09:27.72	279.02	67.25	-46.1	-47.3	20.4	0.00e+00	0	44	0	794820608	64	3994
2026-01-25 10:09:28.72	280.09	67.03	-46.3	-47.6	20.3	0.00e+00	0	44	0	795869184	63	4348
2026-01-25 10:09:29.73	281.16	66.81	-46.6	-48.0	19.8	0.00e+00	0	44	0	797966336	64	4308
2026-01-25 10:09:30.74	282.21	66.57	-46.0	-47.3	20.4	0.00e+00	0	43	0	800063488	64	3987
2026-01-25 10:09:31.75	283.23	66.34	-45.2	-46.3	21.4	0.00e+00	0	44	0	802160640	62	3988
2026-01-25 10:09:32.76	284.23	66.09	-45.0	-46.1	21.6	0.00e+00	0	44	0	804257792	61	4129
2026-01-25 10:09:33.76	285.19	65.84	-45.7	-46.9	20.9	0.00e+00	0	44	0	805306368	62	4287
2026-01-25 10:09:34.77	286.15	65.59	-45.5	-46.8	21.0	0.00e+00	0	44	0	807403520	62	4195
2026-01-25 10:09:35.78	287.08	65.33	-44.2	-45.2	22.4	0.00e+00	0	44	0	809500672	60	3941
2026-01-25 10:09:36.79	287.99	65.06	-44.1	-45.1	22.8	0.00e+00	0	44	0	811597824	59	4137
2026-01-25 10:09:37.80	288.88	64.79	-44.5	-45.5	22.5	0.00e+00	0	44	0	813694976	59	4309
2026-01-25 10:09:38.80	289.74	64.52	-45.3	-46.5	21.2	0.00e+00	0	44	0	815792128	61	4332
2026-01-25 10:09:39.81	290.58	64.24	-45.3	-46.5	21.2	0.00e+00	0	44	0	816840704	61	4326
2026-01-25 10:09:40.82	291.41	63.96	-44.3	-45.3	22.3	0.00e+00	0	44	0	818937856	60	3997
2026-01-25 10:09:41.83	292.22	63.68	-44.0	-45.0	22.9	0.00e+00	0	44	0	821035008	59	4052
2026-01-25 10:09:42.83	293.00	63.39	-44.3	-45.4	22.6	0.00e+00	0	44	0	823132160	59	4248
2026-01-25 10:09:43.84	293.77	63.10	-44.7	-45.8	21.9	0.00e+00	0	44	0	824180736	60	4205
2026-01-25 10:09:44.85	294.52	62.80	-44.1	-45.1	22.5	0.00e+00	0	44	0	826277888	60	3912
2026-01-25 10:09:45.86	295.25	62.51	-43.8	-44.8	23.1	0.00e+00	0	44	0	828375040	59	3973
2026-01-25 10:09:46.86	295.96	62.21	-44.1	-45.1	22.8	0.00e+00	0	44	0	830472192	59	4113
2026-01-25 10:09:47.87	296.66	61.91	-44.3	-45.4	22.6	0.00e+00	0	44	0	832569344	59	4266
2026-01-25 10:09:48.88	297.34	61.60	-43.8	-44.8	23.1	0.00e+00	0	44	0	833617920	59	3976
2026-01-25 10:09:49.89	298.00	61.30	-43.6	-44.6	23.3	0.00e+00	0	44	0	835715072	59	3880
2026-01-25 10:09:50.90	298.65	60.99	-43.5	-44.5	23.3	0.00e+00	0	44	0	837812224	58	4065
2026-01-25 10:09:51.91	299.28	60.68	-43.7	-44.6	23.2	0.00e+00	0	44	0	839909376	58	4140
2026-01-25 10:09:52.92	299.90	60.37	-44.0	-45.0	23.0	0.00e+00	0	44	0	842006528	58	4317
2026-01-25 10:09:53.92	300.49	60.06	-44.3	-45.4	22.5	0.00e+00	0	44	0	844103680	59	4261
2026-01-25 10:09:54.93	301.08	59.74	-43.8	-44.7	23.2	0.00e+00	0	44	0	845152256	59	3952
2026-01-25 10:09:55.94	301.66	59.43	-43.4	-44.3	23.6	0.00e+00	0	44	0	847249408	58	3990
2026-01-25 10:09:56.95	302.22	59.11	-43.7	-44.6	23.2	0.00e+00	0	44	0	849346560	58	4140
2026-01-25 10:09:57.96	302.76	58.80	-44.8	-46.0	21.7	0.00e+00	0	44	0	851443712	60	4309
2026-01-25 10:09:58.97	303.30	58.48	-45.1	-46.3	21.4	0.00e+00	0	44	0	852492288	61	4208
2026-01-25 10:09:59.97	303.81	58.17	-44.2	-45.2	22.4	0.00e+00	0	44	0	854589440	60	3933
2026-01-25 10:10:00.98	304.32	57.85	-44.3	-45.3	22.6	0.00e+00	0	44	0	856686592	59	4210
2026-01-25 10:10:01.99	304.82	57.53	-44.7	-45.8	21.9	0.00e+00	0	44	0	858783744	60	4194
2026-01-25 10:10:03.00	305.31	57.21	-45.8	-47.1	20.7	0.00e+00	0	44	0	860880896	62	4368
2026-01-25 10:10:04.00	305.78	56.90	-45.9	-47.2	20.6	0.00e+00	0	44	0	862978048	62	4410
2026-01-25 10:10:05.01	306.24	56.58	-44.9	-46.0	21.7	0.00e+00	0	44	0	864026624	61	4074
2026-01-25 10:10:06.02	306.70	56.26	-44.3	-45.4	22.6	0.00e+00	0	44	0	866123776	59	4249
2026-01-25 10:10:07.03	307.14	55.94	-43.7	-44.7	23.1	0.00e+00	0	44	0	868220928	59	3914
2026-01-25 10:10:08.04	307.57	55.63	-43.5	-44.4	23.3	0.00e+00	0	44	0	870318080	58	4034
2026-01-25 10:10:09.05	308.00	55.31	-44.4	-45.4	22.6	0.00e+00	0	44	0	872415232	59	4278
2026-01-25 10:10:10.05	308.41	54.99	-44.7	-45.8	21.8	0.00e+00	0	44	0	873463808	60	4231
2026-01-25 10:10:11.06	308.82	54.68	-44.2	-45.2	22.3	0.00e+00	0	44	0	875560960	60	3957
2026-01-25 10:10:12.07	309.21	54.36	-43.7	-44.6	23.3	0.00e+00	0	44	0	877658112	59	3897
2026-01-25 10:10:13.08	309.60	54.05	-43.1	-44.0	23.8	0.00e+00	0	44	0	879755264	58	3868
2026-01-25 10:10:14.08	309.98	53.73	-43.5	-44.4	23.5	0.00e+00	0	44	0	880803840	58	4041
2026-01-25 10:10:15.09	310.35	53.42	-44.1	-45.2	22.8	0.00e+00	0	44	0	882900992	58	4394
2026-01-25 10:10:16.10	310.72	53.11	-44.4	-45.4	22.5	0.00e+00	0	44	0	884998144	59	4289
2026-01-25 10:10:17.11	311.07	52.79	-44.0	-45.0	22.9	0.00e+00	0	44	0	887095296	59	4069
2026-01-25 10:10:18.11	311.42	52.49	-44.0	-45.1	22.8	0.00e+00	0	44	0	889192448	59	4107
2026-01-25 10:10:19.12	311.76	52.18	-43.9	-44.9	23.0	0.00e+00	0	44	0	891289600	59	4044
2026-01-25 10:10:20.13	312.10	51.87	-43.1	-44.0	23.8	0.00e+00	0	44	0	892338176	58	3844
2026-01-25 10:10:21.14	312.42	51.56	-43.1	-44.0	23.8	0.00e+00	0	44	0	894435328	57	4066
2026-01-25 10:10:22.15	312.75	51.25	-44.2	-45.2	22.7	0.00e+00	0	44	0	896532480	58	4420
2026-01-25 10:10:23.16	313.06	50.94	-45.5	-46.8	21.0	0.00e+00	0	44	0	898629632	61	4456
2026-01-25 10:10:24.17	313.37	50.64	-46.0	-47.4	20.3	0.00e+00	0	44	0	900726784	63	4260
2026-01-25 10:10:25.18	313.67	50.33	-45.1	-46.3	21.4	0.00e+00	0	44	0	901775360	62	3982
2026-01-25 10:10:26.19	313.97	50.03	-44.7	-45.8	21.9	0.00e+00	0	44	0	903872512	61	3982
2026-01-25 10:10:27.19	314.26	49.73	-44.9	-46.0	21.6	0.00e+00	0	44	0	905969664	61	4087
2026-01-25 10:10:28.20	314.55	49.43	-45.7	-46.9	20.8	0.00e+00	0	44	0	908066816	61	4497
2026-01-25 10:10:29.21	314.83	49.13	-46.7	-48.2	19.7	0.00e+00	0	44	0	910163968	63	4653
2026-01-25 10:10:30.22	315.10	48.83	-48.0	-49.9	18.0	0.00e+00	0	44	0	911212544	66	4769
2026-01-25 10:10:31.22	315.37	48.54	-49.6	-52.3	15.7	0.00e+00	0	44	0	913309696	69	5285
2026-01-25 10:10:32.23	315.63	48.25	-50.0	-52.8	15.0	0.00e+00	0	44	0	915406848	70	5333
2026-01-25 10:10:33.24	315.89	47.95	-48.6	-50.7	17.1	0.00e+00	0	43	0	917504000	69	4406
2026-01-25 10:10:34.25	316.15	47.66	-47.4	-49.0	18.6	0.00e+00	0	44	0	919601152	66	4338
2026-01-25 10:10:35.25	316.40	47.37	-47.2	-48.8	18.9	0.00e+00	0	44	0	920649728	66	4216
2026-01-25 10:10:36.26	316.64	47.08	-47.0	-48.5	19.2	0.00e+00	0	44	0	922746880	65	4321
2026-01-25 10:10:37.27	316.88	46.79	-47.6	-49.3	18.4	0.00e+00	0	44	0	924844032	65	4737
2026-01-25 10:10:38.28	317.12	46.51	-48.4	-50.4	17.4	0.00e+00	0	44	0	926941184	67	4766
2026-01-25 10:10:39.29	317.35	46.22	-48.3	-50.3	17.5	0.00e+00	0	44	0	929038336	67	4732
2026-01-25 10:10:40.30	317.58	45.94	-48.4	-50.3	17.4	0.00e+00	0	44	0	931135488	67	4756
2026-01-25 10:10:41.30	317.81	45.66	-47.5	-49.2	18.5	0.00e+00	0	44	0	932184064	67	4187
2026-01-25 10:10:42.31	318.03	45.38	-46.4	-47.8	19.9	0.00e+00	0	43	0	934281216	64	4199
2026-01-25 10:10:43.32	318.24	45.10	-45.4	-46.6	21.1	0.00e+00	0	44	0	936378368	62	4103
2026-01-25 10:10:44.33	318.46	44.82	-44.8	-45.9	21.8	0.00e+00	0	44	0	938475520	61	4005
2026-01-25 10:10:45.34	318.67	44.55	-44.3	-45.3	22.2	0.00e+00	0	44	0	939524096	60	3999
2026-01-25 10:10:46.34	318.87	44.27	-44.2	-45.2	22.4	0.00e+00	0	44	0	941621248	60	3926
2026-01-25 10:10:47.35	319.07	44.00	-44.9	-46.0	21.6	0.00e+00	0	44	0	943718400	60	4334
2026-01-25 10:10:48.36	319.27	43.73	-46.1	-47.4	20.3	0.00e+00	0	44	0	945815552	62	4536
2026-01-25 10:10:49.37	319.47	43.46	-46.9	-48.5	19.2	0.00e+00	0	44	0	947912704	64	4560
2026-01-25 10:10:50.38	319.66	43.19	-46.5	-48.0	19.5	0.00e+00	0	44	0	948961280	64	4318
2026-01-25 10:10:51.38	319.85	42.93	-45.7	-47.0	20.6	0.00e+00	0	44	0	951058432	63	4068
2026-01-25 10:10:52.39	320.04	42.66	-45.0	-46.1	21.5	0.00e+00	0	44	0	953155584	62	3890
2026-01-25 10:10:53.40	320.22	42.40	-44.7	-45.8	21.8	0.00e+00	0	44	0	955252736	61	3982
2026-01-25 10:10:54.41	320.40	42.14	-44.3	-45.3	22.5	0.00e+00	0	44	0	957349888	59	4212
2026-01-25 10:10:55.42	320.58	41.88	-44.3	-45.3	22.5	0.00e+00	0	44	0	959447040	59	4221
2026-01-25 10:10:56.42	320.76	41.62	-44.4	-45.5	22.2	0.00e+00	0	44	0	960495616	60	4052
2026-01-25 10:10:57.43	320.93	41.36	-45.4	-46.6	21.1	0.00e+00	0	44	0	962592768	61	4361
2026-01-25 10:10:58.44	321.10	41.11	-46.6	-48.1	19.6	0.00e+00	0	44	0	964689920	63	4645
2026-01-25 10:10:59.45	321.27	40.85	-47.3	-49.0	18.6	0.00e+00	0	44	0	966787072	65	4581
2026-01-25 10:11:00.46	321.43	40.60	-47.3	-49.1	18.6	0.00e+00	0	44	0	967835648	65	4620
2026-01-25 10:11:01.46	321.59	40.35	-46.7	-48.2	19.4	0.00e+00	0	44	0	969932800	65	4186
2026-01-25 10:11:02.47	321.75	40.10	-45.9	-47.2	20.5	0.00e+00	0	44	0	972029952	63	4189
2026-01-25 10:11:03.48	321.91	39.85	-45.3	-46.5	21.1	0.00e+00	0	44	0	974127104	62	4087
2026-01-25 10:11:04.49	322.07	39.60	-45.5	-46.6	21.0	0.00e+00	0	44	0	976224256	62	4141
2026-01-25 10:11:05.50	322.22	39.36	-44.0	-45.0	22.5	0.00e+00	0	44	0	978321408	60	3828
2026-01-25 10:11:06.51	322.37	39.12	-44.2	-45.2	22.6	0.00e+00	0	44	0	979369984	59	4161
2026-01-25 10:11:07.52	322.52	38.87	-44.9	-46.0	21.6	0.00e+00	0	44	0	981467136	60	4307
2026-01-25 10:11:08.52	322.67	38.63	-46.0	-47.4	20.3	0.00e+00	0	44	0	983564288	62	4504
2026-01-25 10:11:09.53	322.81	38.40	-47.1	-48.7	19.0	0.00e+00	0	44	0	985661440	64	4680
2026-01-25 10:11:10.54	322.95	38.16	-47.7	-49.5	18.2	0.00e+00	0	44	0	987758592	66	4579
2026-01-25 10:11:11.55	323.09	37.92	-47.0	-48.6	19.0	0.00e+00	0	44	0	988807168	66	4129
2026-01-25 10:11:12.56	323.23	37.69	-46.0	-47.3	20.3	0.00e+00	0	44	0	990904320	63	4233
2026-01-25 10:11:13.56	323.37	37.46	-45.2	-46.4	21.3	0.00e+00	0	44	0	993001472	62	4014
2026-01-25 10:11:14.57	323.50	37.22	-44.9	-46.1	21.5	0.00e+00	0	44	0	995098624	61	4109
2026-01-25 10:11:15.58	323.63	36.99	-44.9	-46.0	21.6	0.00e+00	0	44	0	996147200	61	4089
2026-01-25 10:11:16.59	323.77	36.76	-44.5	-45.6	21.9	0.00e+00	0	44	0	998244352	61	3886
2026-01-25 10:11:17.60	323.90	36.54	-44.6	-45.7	21.9	0.00e+00	0	44	0	1000341504	60	4158
2026-01-25 10:11:18.60	324.02	36.31	-44.7	-45.8	21.7	0.00e+00	0	44	0	1002438656	60	4228
2026-01-25 10:11:19.61	324.15	36.09	-44.9	-46.0	21.5	0.00e+00	0	44	0	1004535808	60	4334
2026-01-25 10:11:20.62	324.27	35.87	-44.9	-46.0	21.5	0.00e+00	0	44	0	1006632960	60	4317
2026-01-25 10:11:21.63	324.40	35.64	-45.0	-46.2	21.4	0.00e+00	0	44	0	1007681536	60	4421
2026-01-25 10:11:22.63	324.52	35.43	-45.1	-46.3	21.3	0.00e+00	0	44	0	1009778688	60	4461
2026-01-25 10:11:23.64	324.63	35.21	-45.4	-46.7	20.9	0.00e+00	0	44	0	1011875840	61	4401
2026-01-25 10:11:24.65	324.75	34.99	-45.4	-46.7	20.9	0.00e+00	0	44	0	1013972992	61	4402
2026-01-25 10:11:25.66	324.87	34.77	-45.7	-46.9	20.7	0.00e+00	0	44	0	1016070144	61	4542
2026-01-25 10:11:26.67	324.98	34.56	-45.9	-47.2	20.4	0.00e+00	0	44	0	1017118720	62	4417
2026-01-25 10:11:27.68	325.10	34.34	-45.7	-46.9	20.7	0.00e+00	0	44	0	1019215872	62	4274
2026-01-25 10:11:28.68	325.21	34.13	-45.6	-46.8	20.8	0.00e+00	0	44	0	1021313024	62	4224
2026-01-25 10:11:29.69	325.32	33.92	-45.6	-46.8	20.8	0.00e+00	0	44	0	1023410176	62	4231
2026-01-25 10:11:30.70	325.43	33.71	-45.7	-47.0	20.6	0.00e+00	0	44	0	1025507328	62	4302
2026-01-25 10:11:31.71	325.54	33.50	-45.9	-47.2	20.4	0.00e+00	0	44	0	1026555904	62	4393
2026-01-25 10:11:32.72	325.64	33.30	-46.1	-47.4	20.2	0.00e+00	0	44	0	1028653056	62	4543
2026-01-25 10:11:33.72	325.75	33.09	-46.0	-47.4	20.2	0.00e+00	0	44	0	1030750208	62	4506
2026-01-25 10:11:34.73	325.85	32.89	-46.2	-47.6	20.1	0.00e+00	0	44	0	1032847360	62	4599
2026-01-25 10:11:35.74	325.96	32.69	-46.3	-47.7	19.9	0.00e+00	0	44	0	1034944512	63	4406
2026-01-25 10:11:36.75	326.06	32.48	-46.1	-47.4	20.1	0.00e+00	0	44	0	1035993088	63	4281
2026-01-25 10:11:37.76	326.16	32.28	-46.1	-47.5	20.1	0.00e+00	0	44	0	1038090240	63	4296
2026-01-25 10:11:38.76	326.26	32.09	-46.1	-47.4	20.1	0.00e+00	0	44	0	1040187392	63	4288
2026-01-25 10:11:39.77	326.36	31.89	-46.1	-47.4	20.2	0.00e+00	0	44	0	1042284544	63	4279
2026-01-25 10:11:40.78	326.45	31.69	-46.3	-47.7	19.9	0.00e+00	0	44	0	1044381696	63	4400
2026-01-25 10:11:41.79	326.55	31.50	-46.6	-48.1	19.5	0.00e+00	0	44	0	1045430272	63	4622
2026-01-25 10:11:42.80	326.64	31.30	-46.7	-48.2	19.3	0.00e+00	0	44	0	1047527424	64	4395
2026-01-25 10:11:43.80	326.74	31.11	-46.8	-48.4	19.1	0.00e+00	0	44	0	1049624576	64	4504
2026-01-25 10:11:44.81	326.83	30.92	-47.0	-48.7	18.9	0.00e+00	0	44	0	1051721728	64	4655
2026-01-25 10:11:45.82	326.92	30.73	-47.1	-48.8	18.8	0.00e+00	0	44	0	1053818880	64	4710
2026-01-25 10:11:46.83	327.01	30.54	-47.0	-48.6	18.9	0.00e+00	0	44	0	1054867456	64	4644
2026-01-25 10:11:47.84	327.10	30.35	-46.9	-48.5	19.0	0.00e+00	0	44	0	1056964608	64	4578
2026-01-25 10:11:48.84	327.19	30.16	-46.8	-48.4	19.1	0.00e+00	0	44	0	1059061760	64	4522
2026-01-25 10:11:49.85	327.28	29.98	-46.9	-48.5	19.0	0.00e+00	0	44	0	1061158912	64	4549
2026-01-25 10:11:50.86	327.37	29.79	-46.5	-48.0	19.5	0.00e+00	0	44	0	1063256064	64	4318
2026-01-25 10:11:51.87	327.45	29.61	-46.2	-47.5	19.9	0.00e+00	0	44	0	1064304640	64	4096
2026-01-25 10:11:52.88	327.54	29.43	-45.9	-47.2	20.4	0.00e+00	0	44	0	1066401792	63	4148
2026-01-25 10:11:53.89	327.62	29.24	-45.7	-47.0	20.5	0.00e+00	0	44	0	1068498944	63	4078
2026-01-25 10:11:54.89	327.70	29.07	-45.8	-47.0	20.5	0.00e+00	0	44	0	1070596096	63	4084
2026-01-25 10:11:55.90	327.79	28.89	-45.6	-46.9	20.6	0.00e+00	0	43	0	1072693248	63	4015
2026-01-25 10:11:56.91	327.87	28.71	-45.4	-46.6	20.9	0.00e+00	0	44	0	1073741824	62	4107
2026-01-25 10:11:57.92	327.95	28.53	-45.4	-46.6	20.9	0.00e+00	0	43	0	1075838976	62	4111
2026-01-25 10:11:58.92	328.03	28.36	-45.3	-46.5	21.0	0.00e+00	0	44	0	1077936128	62	4070
2026-01-25 10:11:59.93	328.11	28.18	-45.4	-46.7	20.8	0.00e+00	0	44	0	1080033280	62	4153
2026-01-25 10:12:00.94	328.18	28.01	-45.4	-46.6	20.8	0.00e+00	0	44	0	1082130432	62	4144
2026-01-25 10:12:01.95	328.26	27.83	-45.6	-46.9	20.6	0.00e+00	0	44	0	1083179008	62	4260
2026-01-25 10:12:02.96	328.34	27.66	-45.8	-47.1	20.4	0.00e+00	0	44	0	1085276160	62	4357
2026-01-25 10:12:03.96	328.41	27.49	-45.9	-47.3	20.2	0.00e+00	0	44	0	1087373312	62	4445
2026-01-25 10:12:04.97	328.49	27.32	-46.0	-47.4	20.1	0.00e+00	0	44	0	1089470464	62	4503
2026-01-25 10:12:05.98	328.56	27.15	-45.9	-47.3	20.2	0.00e+00	0	44	0	1091567616	62	4445
2026-01-25 10:12:06.99	328.64	26.99	-46.0	-47.4	20.0	0.00e+00	0	44	0	1092616192	62	4516
2026-01-25 10:12:08.00	328.71	26.82	-45.9	-47.3	20.2	0.00e+00	0	44	0	1094713344	62	4463
2026-01-25 10:12:09.00	328.78	26.65	-45.8	-47.1	20.4	0.00e+00	0	44	0	1096810496	62	4360
2026-01-25 10:12:10.01	328.85	26.49	-45.7	-47.0	20.5	0.00e+00	0	44	0	1098907648	62	4292
2026-01-25 10:12:11.02	328.92	26.33	-45.6	-46.9	20.5	0.00e+00	0	44	0	1101004800	62	4254
2026-01-25 10:12:12.03	328.99	26.16	-45.2	-46.4	21.0	0.00e+00	0	44	0	1102053376	62	4011
2026-01-25 10:12:13.04	329.06	26.00	-44.8	-46.0	21.3	0.00e+00	0	44	0	1104150528	61	4078
2026-01-25 10:12:14.05	329.13	25.84	-44.8	-45.9	21.4	0.00e+00	0	44	0	1106247680	61	4027
2026-01-25 10:12:15.06	329.20	25.68	-44.6	-45.7	21.6	0.00e+00	0	44	0	1108344832	61	3926
2026-01-25 10:12:16.06	329.27	25.52	-44.4	-45.5	21.8	0.00e+00	0	44	0	1110441984	60	4068
2026-01-25 10:12:17.07	329.33	25.36	-44.2	-45.3	22.0	0.00e+00	0	44	0	1111490560	60	3973
2026-01-25 10:12:18.08	329.40	25.20	-44.1	-45.2	22.0	0.00e+00	0	44	0	1113587712	60	3934
2026-01-25 10:12:19.09	329.46	25.05	-44.1	-45.2	22.1	0.00e+00	0	44	0	1115684864	60	3943
2026-01-25 10:12:20.10	329.53	24.89	-44.3	-45.4	22.2	0.00e+00	0	44	0	1117782016	59	4266
2026-01-25 10:12:21.10	329.59	24.74	-44.5	-45.5	22.1	0.00e+00	0	44	0	1119879168	59	4340
2026-01-25 10:12:22.11	329.66	24.58	-44.4	-45.5	22.0	0.00e+00	0	44	0	1121976320	59	4334
2026-01-25 10:12:23.12	329.72	24.43	-44.6	-45.7	21.9	0.00e+00	0	44	0	1123024896	59	4429
2026-01-25 10:12:24.13	329.78	24.28	-44.7	-45.8	21.8	0.00e+00	0	44	0	1125122048	59	4484
2026-01-25 10:12:25.14	329.85	24.13	-44.3	-45.4	21.9	0.00e+00	0	44	0	1127219200	60	4039
2026-01-25 10:12:26.14	329.91	23.98	-44.4	-45.6	21.7	0.00e+00	0	44	0	1129316352	60	4104
2026-01-25 10:12:27.15	329.97	23.83	-44.5	-45.6	21.7	0.00e+00	0	44	0	1130364928	60	4121
2026-01-25 10:12:28.16	330.03	23.68	-44.4	-45.6	21.7	0.00e+00	0	44	0	1132462080	60	4105
2026-01-25 10:12:29.17	330.09	23.53	-44.5	-45.7	21.6	0.00e+00	0	44	0	1134559232	60	4152
2026-01-25 10:12:30.18	330.15	23.38	-44.4	-45.5	21.7	0.00e+00	0	44	0	1136656384	60	4079
2026-01-25 10:12:31.19	330.21	23.24	-44.3	-45.4	21.8	0.00e+00	0	44	0	1138753536	60	4042
2026-01-25 10:12:32.20	330.27	23.09	-44.3	-45.4	21.8	0.00e+00	0	44	0	1140850688	60	4019
2026-01-25 10:12:33.20	330.32	22.95	-44.2	-45.3	21.9	0.00e+00	0	44	0	1141899264	60	3983
2026-01-25 10:12:34.21	330.38	22.80	-44.2	-45.3	21.9	0.00e+00	0	44	0	1143996416	60	3978
2026-01-25 10:12:35.22	330.44	22.66	-44.3	-45.4	21.9	0.00e+00	0	44	0	1146093568	60	4005
2026-01-25 10:12:36.23	330.49	22.52	-44.3	-45.4	21.7	0.00e+00	0	44	0	1148190720	60	4045
2026-01-25 10:12:37.24	330.55	22.38	-44.1	-45.2	22.0	0.00e+00	0	44	0	1150287872	60	3915
2026-01-25 10:12:38.24	330.60	22.24	-44.0	-45.1	22.1	0.00e+00	0	44	0	1151336448	60	3870
2026-01-25 10:12:39.25	330.66	22.10	-44.2	-45.3	22.2	0.00e+00	0	44	0	1153433600	59	4213
2026-01-25 10:12:40.26	330.71	21.96	-44.3	-45.3	22.1	0.00e+00	0	44	0	1155530752	59	4234
2026-01-25 10:12:41.26	330.77	21.82	-44.2	-45.2	22.2	0.00e+00	0	44	0	1157627904	59	4193
2026-01-25 10:12:42.27	330.82	21.68	-44.2	-45.2	22.2	0.00e+00	0	44	0	1158676480	59	4192
2026-01-25 10:12:43.28	330.88	21.54	-44.2	-45.2	22.2	0.00e+00	0	44	0	1160773632	59	4179
2026-01-25 10:12:44.29	330.93	21.41	-44.2	-45.3	22.2	0.00e+00	0	44	0	1162870784	59	4201
2026-01-25 10:12:45.30	330.98	21.27	-44.2	-45.3	22.2	0.00e+00	0	44	0	1164967936	59	4229
2026-01-25 10:12:46.30	331.03	21.14	-44.2	-45.3	22.2	0.00e+00	0	44	0	1167065088	59	4218
2026-01-25 10:12:47.31	331.08	21.00	-44.2	-45.3	22.1	0.00e+00	0	44	0	1169162240	59	4221
2026-01-25 10:12:48.32	331.14	20.87	-44.3	-45.4	22.1	0.00e+00	0	44	0	1170210816	59	4248
2026-01-25 10:12:49.33	331.19	20.74	-44.3	-45.4	22.1	0.00e+00	0	44	0	1172307968	59	4267
2026-01-25 10:12:50.34	331.24	20.60	-44.3	-45.4	22.0	0.00e+00	0	44	0	1174405120	59	4290
2026-01-25 10:12:51.34	331.29	20.47	-44.5	-45.6	21.8	0.00e+00	0	44	0	1176502272	59	4363
2026-01-25 10:12:52.35	331.34	20.34	-44.5	-45.6	21.7	0.00e+00	0	44	0	1178599424	59	4369
2026-01-25 10:12:53.36	331.39	20.21	-44.5	-45.6	21.8	0.00e+00	0	44	0	1179648000	59	4363
2026-01-25 10:12:54.37	331.43	20.08	-44.5	-45.7	21.8	0.00e+00	0	44	0	1181745152	59	4398
2026-01-25 10:12:55.38	331.48	19.95	-44.6	-45.7	21.7	0.00e+00	0	44	0	1183842304	59	4433
2026-01-25 10:12:56.38	331.53	19.83	-44.6	-45.8	21.7	0.00e+00	0	44	0	1185939456	59	4448
2026-01-25 10:12:57.39	331.58	19.70	-44.4	-45.6	21.6	0.00e+00	0	44	0	1186988032	60	4108
2026-01-25 10:12:58.40	331.63	19.57	-44.4	-45.5	21.6	0.00e+00	0	44	0	1189085184	60	4075
2026-01-25 10:12:59.40	331.67	19.45	-44.5	-45.6	21.5	0.00e+00	0	44	0	1191182336	60	4128
2026-01-25 10:13:00.41	331.72	19.32	-44.4	-45.5	21.5	0.00e+00	0	44	0	1193279488	60	4094
2026-01-25 10:13:01.42	331.77	19.19	-44.5	-45.6	21.5	0.00e+00	0	44	0	1195376640	60	4124
2026-01-25 10:13:02.43	331.81	19.07	-44.6	-45.7	21.4	0.00e+00	0	44	0	1197473792	60	4179
2026-01-25 10:13:03.44	331.86	18.95	-44.5	-45.7	21.4	0.00e+00	0	44	0	1198522368	60	4148
2026-01-25 10:13:04.44	331.90	18.82	-44.7	-45.8	21.2	0.00e+00	0	44	0	1200619520	60	4233
2026-01-25 10:13:05.45	331.95	18.70	-44.6	-45.8	21.3	0.00e+00	0	44	0	1202716672	60	4195
2026-01-25 10:13:06.46	331.99	18.58	-44.4	-45.6	21.5	0.00e+00	0	44	0	1204813824	60	4115
2026-01-25 10:13:07.47	332.04	18.46	-44.4	-45.6	21.5	0.00e+00	0	44	0	1206910976	60	4111
2026-01-25 10:13:08.48	332.08	18.34	-44.5	-45.6	21.5	0.00e+00	0	44	0	1207959552	60	4119
2026-01-25 10:13:09.48	332.12	18.22	-44.4	-45.5	21.5	0.00e+00	0	44	0	1210056704	60	4097
2026-01-25 10:13:10.49	332.17	18.10	-44.5	-45.6	21.5	0.00e+00	0	44	0	1212153856	60	4118
2026-01-25 10:13:11.50	332.21	17.98	-44.4	-45.5	21.5	0.00e+00	0	44	0	1214251008	60	4083
2026-01-25 10:13:12.51	332.25	17.86	-44.4	-45.5	21.5	0.00e+00	0	44	0	1216348160	60	4084
2026-01-25 10:13:13.52	332.30	17.74	-44.4	-45.5	21.5	0.00e+00	0	44	0	1217396736	60	4097
2026-01-25 10:13:14.52	332.34	17.62	-44.5	-45.6	21.4	0.00e+00	0	44	0	1219493888	60	4143
2026-01-25 10:13:15.53	332.38	17.51	-44.5	-45.6	21.4	0.00e+00	0	44	0	1221591040	60	4131
2026-01-25 10:13:16.54	332.42	17.39	-44.5	-45.7	21.3	0.00e+00	0	44	0	1223688192	60	4169
2026-01-25 10:13:17.55	332.46	17.27	-44.6	-45.8	21.2	0.00e+00	0	44	0	1225785344	60	4225
2026-01-25 10:13:18.56	332.50	17.16	-44.7	-45.9	21.1	0.00e+00	0	44	0	1226833920	60	4260
2026-01-25 10:13:19.56	332.54	17.04	-44.7	-45.9	21.1	0.00e+00	0	44	0	1228931072	60	4275
2026-01-25 10:13:20.57	332.59	16.93	-44.8	-46.1	20.9	0.00e+00	0	44	0	1231028224	60	4343
2026-01-25 10:13:21.58	332.63	16.82	-44.9	-46.2	20.8	0.00e+00	0	44	0	1233125376	60	4396
2026-01-25 10:13:22.59	332.67	16.70	-45.0	-46.2	20.7	0.00e+00	0	44	0	1235222528	60	4437
2026-01-25 10:13:23.60	332.71	16.59	-44.9	-46.1	20.9	0.00e+00	0	44	0	1236271104	60	4365
2026-01-25 10:13:24.60	332.74	16.48	-45.0	-46.3	20.7	0.00e+00	0	44	0	1238368256	60	4464
2026-01-25 10:13:25.61	332.78	16.37	-45.1	-46.4	20.6	0.00e+00	0	44	0	1240465408	60	4513
