passes_logs/2026/01/25/R3.2S_Murmansk/R3.2S_Murmansk__20260125_080134_SUOMI_NPP_rec.log

#Pass ID: 20260125_080134_SUOMI NPP
#Satellite: SUOMI NPP
#Configuration: NPP
#almurnet v.1.7.20251203
#Start time: 2026-01-25 08:01:34

#Version: 2.2.20231116
#Station: R3.2S_Murmansk
#Location: 33.079688 lon 68.888172 lat
#TLE: 1 37849U 11061A   26024.97198022  .00000188  00000+0  11029-3 0  9994
#TLE: 2 37849  98.7821 326.9352 0002187  46.6646 313.4712 14.19529581738125

#Time	Az	El	Level	Level2	SNR	BER	BlckErr	Temp	State	Recorded	gain1	gain2
2026-01-25 08:01:34.42	115.21	2.01	-52.1	-67.0	3.8	1.49e+00	0	43	0	0	76	19277
2026-01-25 08:01:35.41	115.17	2.07	-52.0	-67.0	3.8	1.49e+00	0	43	104	0	74	21750
2026-01-25 08:01:36.39	115.14	2.13	-52.0	-67.0	3.8	1.49e+00	0	43	104	0	74	21679
2026-01-25 08:01:37.37	115.10	2.20	-52.1	-67.0	3.8	1.49e+00	0	43	104	0	74	21637
2026-01-25 08:01:38.35	115.07	2.26	-52.1	-67.0	3.8	1.49e+00	0	43	104	0	74	21630
2026-01-25 08:01:39.33	115.04	2.32	-52.1	-67.0	3.8	1.49e+00	0	43	104	0	74	21655
2026-01-25 08:01:40.31	115.00	2.38	-52.0	-67.0	3.8	1.49e+00	0	43	104	0	74	21535
2026-01-25 08:01:41.29	114.97	2.44	-52.0	-67.0	3.8	1.49e+00	0	43	104	0	74	21602
2026-01-25 08:01:42.28	114.93	2.50	-52.1	-67.0	3.8	1.49e+00	0	43	104	0	74	21602
2026-01-25 08:01:43.26	114.90	2.57	-52.1	-67.0	3.8	1.49e+00	0	43	104	0	74	21529
2026-01-25 08:01:44.24	114.86	2.63	-52.0	-66.9	3.8	1.49e+00	0	43	104	0	74	21480
2026-01-25 08:01:45.22	114.83	2.69	-52.0	-67.0	3.8	1.49e+00	0	43	104	0	74	21531
2026-01-25 08:01:46.20	114.79	2.75	-52.0	-66.9	3.8	1.49e+00	0	43	104	0	74	21499
2026-01-25 08:01:47.18	114.75	2.82	-52.0	-66.9	3.8	1.49e+00	0	43	104	0	74	21504
2026-01-25 08:01:48.16	114.72	2.88	-52.0	-66.9	3.8	1.49e+00	0	44	104	0	74	21455
2026-01-25 08:01:49.14	114.68	2.94	-52.0	-66.9	3.8	1.49e+00	0	44	104	0	74	21402
2026-01-25 08:01:50.12	114.65	3.00	-52.0	-66.9	3.8	1.49e+00	0	43	104	0	74	21403
2026-01-25 08:01:51.11	114.61	3.07	-52.0	-66.9	3.8	1.49e+00	0	43	104	0	74	21441
2026-01-25 08:01:52.08	114.57	3.13	-52.0	-66.9	3.8	1.49e+00	0	43	104	0	74	21449
2026-01-25 08:01:53.07	114.54	3.19	-52.0	-66.9	3.8	1.49e+00	0	43	104	0	74	21482
2026-01-25 08:01:54.05	114.50	3.26	-52.0	-66.9	3.8	1.49e+00	0	44	104	0	74	21490
2026-01-25 08:01:55.03	114.46	3.32	-52.0	-67.0	3.8	1.49e+00	0	43	104	0	74	21562
2026-01-25 08:01:56.01	114.42	3.38	-52.0	-66.9	3.8	1.49e+00	0	43	104	0	74	21502
2026-01-25 08:01:56.99	114.39	3.45	-52.0	-66.9	3.8	1.49e+00	0	44	104	0	74	21420
2026-01-25 08:01:57.97	114.35	3.51	-52.0	-66.8	3.8	1.49e+00	0	43	104	0	74	21141
2026-01-25 08:01:58.95	114.31	3.58	-52.0	-66.5	3.8	1.49e+00	0	43	104	0	74	20527
2026-01-25 08:01:59.92	114.27	3.64	-52.0	-66.3	3.8	1.49e+00	0	44	104	0	74	19854
2026-01-25 08:02:00.91	114.24	3.70	-52.0	-65.9	3.8	1.49e+00	0	44	104	0	74	19025
2026-01-25 08:02:01.89	114.20	3.77	-52.0	-66.0	3.8	1.49e+00	0	44	104	0	74	19227
2026-01-25 08:02:02.87	114.16	3.83	-52.0	-66.1	3.8	1.49e+00	0	44	104	0	74	19410
2026-01-25 08:02:03.85	114.12	3.90	-52.0	-66.1	3.8	1.49e+00	0	44	104	0	74	19393
2026-01-25 08:02:04.83	114.08	3.96	-52.0	-66.0	3.8	1.49e+00	0	44	104	0	74	19372
2026-01-25 08:02:05.81	114.04	4.03	-52.0	-65.8	3.8	1.49e+00	0	44	104	0	74	18887
2026-01-25 08:02:06.80	114.00	4.09	-51.9	-64.8	3.8	1.49e+00	0	44	104	0	74	16759
2026-01-25 08:02:07.78	113.96	4.16	-51.8	-62.8	4.4	1.48e+00	131	44	104	0	74	13375
2026-01-25 08:02:08.76	113.92	4.23	-51.6	-61.1	5.2	7.21e-01	0	44	0	1048576	74	10959
2026-01-25 08:02:09.75	113.88	4.29	-51.3	-58.7	6.9	3.62e-01	0	44	0	3145728	74	8358
2026-01-25 08:02:10.73	113.84	4.36	-50.8	-56.8	8.8	9.18e-02	0	44	0	5242880	73	7048
2026-01-25 08:02:11.71	113.80	4.42	-50.2	-54.9	10.8	1.60e-02	0	44	0	7340032	72	6030
2026-01-25 08:02:12.69	113.76	4.49	-50.0	-54.4	11.4	1.32e-03	0	44	0	8388608	71	6047
2026-01-25 08:02:13.67	113.72	4.56	-49.6	-53.4	12.5	3.28e-04	0	44	0	10485760	71	5376
2026-01-25 08:02:14.65	113.68	4.62	-48.8	-52.0	13.9	1.14e-05	0	44	0	12582912	69	5118
2026-01-25 08:02:15.62	113.64	4.69	-48.5	-51.4	14.5	7.00e-07	0	44	0	14680064	68	5044
2026-01-25 08:02:16.61	113.60	4.75	-48.2	-51.0	14.9	0.00e+00	0	44	0	15728640	68	4838
2026-01-25 08:02:17.59	113.56	4.82	-47.6	-50.0	15.8	0.00e+00	0	44	0	17825792	67	4574
2026-01-25 08:02:18.57	113.52	4.89	-47.5	-49.8	16.1	0.00e+00	0	44	0	19922944	66	4722
2026-01-25 08:02:19.55	113.47	4.96	-47.7	-50.2	15.7	0.00e+00	0	44	0	22020096	66	4938
2026-01-25 08:02:20.52	113.43	5.02	-47.7	-50.1	15.7	0.00e+00	0	44	0	23068672	66	4909
2026-01-25 08:02:21.50	113.39	5.09	-47.7	-50.1	15.8	0.00e+00	0	44	0	25165824	66	4893
2026-01-25 08:02:22.48	113.35	5.16	-47.5	-49.8	16.3	0.00e+00	0	44	0	27262976	66	4712
2026-01-25 08:02:23.46	113.31	5.22	-48.2	-50.6	15.8	1.50e-06	0	44	0	29360128	68	4637
2026-01-25 08:02:24.44	113.26	5.29	-49.6	-53.2	12.5	1.02e-01	0	44	0	30408704	71	5228
2026-01-25 08:02:25.41	113.22	5.36	-47.8	-50.0	16.2	0.00e+00	0	44	0	32505856	67	4584
2026-01-25 08:02:26.39	113.18	5.43	-50.6	-55.7	10.2	8.29e-02	0	44	0	34603008	73	6225
2026-01-25 08:02:27.37	113.13	5.50	-47.5	-49.7	16.4	0.00e+00	0	44	0	36700160	67	4436
2026-01-25 08:02:28.35	113.09	5.57	-47.5	-49.7	16.4	0.00e+00	0	44	0	37748736	67	4429
2026-01-25 08:02:29.33	113.04	5.63	-47.6	-49.9	16.3	0.00e+00	0	44	0	39845888	67	4504
2026-01-25 08:02:30.31	113.00	5.70	-47.5	-49.7	16.4	0.00e+00	0	44	0	41943040	67	4415
2026-01-25 08:02:31.29	112.96	5.77	-47.3	-49.4	16.7	0.00e+00	0	44	0	44040192	66	4513
2026-01-25 08:02:32.26	112.91	5.84	-47.2	-49.3	16.9	0.00e+00	0	44	0	45088768	66	4475
2026-01-25 08:02:33.24	112.87	5.91	-47.4	-49.5	16.7	0.00e+00	0	44	0	47185920	66	4577
2026-01-25 08:02:34.22	112.82	5.98	-47.1	-49.1	17.0	0.00e+00	0	44	0	49283072	66	4391
2026-01-25 08:02:35.20	112.78	6.05	-47.1	-49.1	17.0	0.00e+00	0	44	0	51380224	66	4388
2026-01-25 08:02:36.18	112.73	6.12	-47.1	-49.1	17.0	0.00e+00	0	44	0	52428800	66	4376
2026-01-25 08:02:37.17	112.69	6.19	-47.1	-49.1	17.1	0.00e+00	0	44	0	54525952	66	4385
2026-01-25 08:02:38.15	112.64	6.26	-47.1	-49.2	17.1	0.00e+00	0	44	0	56623104	66	4396
2026-01-25 08:02:39.13	112.59	6.33	-47.2	-49.2	17.1	0.00e+00	0	44	0	58720256	66	4420
2026-01-25 08:02:40.11	112.55	6.40	-47.1	-49.1	17.2	0.00e+00	0	44	0	59768832	66	4346
2026-01-25 08:02:41.09	112.50	6.47	-47.4	-49.5	16.8	0.00e+00	0	44	0	61865984	66	4568
2026-01-25 08:02:42.06	112.45	6.54	-47.1	-49.1	17.1	0.00e+00	0	44	0	63963136	66	4387
2026-01-25 08:02:43.04	112.41	6.61	-47.0	-49.0	17.3	0.00e+00	0	44	0	66060288	66	4306
2026-01-25 08:02:44.02	112.36	6.68	-47.0	-48.9	17.3	0.00e+00	0	44	0	67108864	66	4291
2026-01-25 08:02:45.00	112.31	6.75	-46.9	-48.8	17.4	0.00e+00	0	44	0	69206016	65	4492
2026-01-25 08:02:45.97	112.26	6.83	-46.8	-48.7	17.6	0.00e+00	0	44	0	71303168	65	4400
2026-01-25 08:02:46.95	112.21	6.90	-46.7	-48.5	17.8	0.00e+00	0	44	0	73400320	65	4300
2026-01-25 08:02:47.93	112.17	6.97	-46.8	-48.7	17.6	0.00e+00	0	44	0	74448896	65	4399
2026-01-25 08:02:48.90	112.12	7.04	-46.8	-48.6	17.7	0.00e+00	0	44	0	76546048	65	4381
2026-01-25 08:02:49.88	112.07	7.11	-46.6	-48.3	17.9	0.00e+00	0	44	0	78643200	65	4241
2026-01-25 08:02:50.86	112.02	7.19	-46.8	-48.7	17.6	0.00e+00	0	44	0	80740352	65	4393
2026-01-25 08:02:51.84	111.97	7.26	-47.0	-48.9	17.4	0.00e+00	0	44	0	81788928	65	4540
2026-01-25 08:02:52.82	111.92	7.33	-46.8	-48.6	17.7	0.00e+00	0	44	0	83886080	65	4382
2026-01-25 08:02:53.80	111.87	7.40	-47.1	-49.0	17.4	0.00e+00	0	44	0	85983232	65	4576
2026-01-25 08:02:54.79	111.82	7.48	-47.2	-49.1	17.2	0.00e+00	0	44	0	88080384	65	4647
2026-01-25 08:02:55.77	111.77	7.55	-47.0	-48.9	17.5	0.00e+00	0	44	0	89128960	65	4512
2026-01-25 08:02:56.75	111.72	7.63	-47.0	-48.9	17.5	0.00e+00	0	44	0	91226112	65	4524
2026-01-25 08:02:57.73	111.67	7.70	-47.0	-48.9	17.5	0.00e+00	0	44	0	93323264	65	4511
2026-01-25 08:02:58.71	111.62	7.77	-46.9	-48.7	17.6	0.00e+00	0	44	0	95420416	65	4440
2026-01-25 08:02:59.69	111.56	7.85	-46.8	-48.6	17.8	0.00e+00	0	44	0	96468992	65	4361
2026-01-25 08:03:00.67	111.51	7.92	-46.7	-48.5	17.9	0.00e+00	0	44	0	98566144	65	4332
2026-01-25 08:03:01.66	111.46	8.00	-46.6	-48.3	18.1	0.00e+00	0	44	0	100663296	65	4206
2026-01-25 08:03:02.64	111.41	8.07	-46.6	-48.4	18.0	0.00e+00	0	44	0	102760448	65	4253
2026-01-25 08:03:03.62	111.35	8.15	-46.7	-48.5	17.9	0.00e+00	0	44	0	103809024	65	4309
2026-01-25 08:03:04.60	111.30	8.22	-46.6	-48.3	18.1	0.00e+00	0	44	0	105906176	65	4212
2026-01-25 08:03:05.57	111.25	8.30	-46.6	-48.3	18.1	0.00e+00	0	44	0	108003328	65	4237
2026-01-25 08:03:06.55	111.19	8.37	-46.9	-48.7	17.8	0.00e+00	0	44	0	110100480	65	4410
2026-01-25 08:03:07.53	111.14	8.45	-46.8	-48.7	17.8	0.00e+00	0	44	0	112197632	65	4395
2026-01-25 08:03:08.51	111.09	8.52	-46.7	-48.5	17.9	0.00e+00	0	44	0	113246208	65	4334
2026-01-25 08:03:09.49	111.03	8.60	-46.8	-48.6	17.8	0.00e+00	0	44	0	115343360	65	4375
2026-01-25 08:03:10.47	110.98	8.68	-46.9	-48.8	17.7	0.00e+00	0	44	0	117440512	65	4445
2026-01-25 08:03:11.44	110.92	8.75	-46.9	-48.7	17.7	0.00e+00	0	44	0	118489088	65	4414
2026-01-25 08:03:12.42	110.87	8.83	-46.8	-48.6	17.9	0.00e+00	0	44	0	120586240	65	4344
2026-01-25 08:03:13.40	110.81	8.91	-46.8	-48.6	17.8	0.00e+00	0	44	0	122683392	65	4373
2026-01-25 08:03:14.37	110.76	8.98	-46.9	-48.7	17.8	0.00e+00	0	44	0	124780544	65	4425
2026-01-25 08:03:15.35	110.70	9.06	-46.8	-48.6	17.8	0.00e+00	0	44	0	125829120	65	4388
2026-01-25 08:03:16.33	110.64	9.14	-46.8	-48.6	17.9	0.00e+00	0	44	0	127926272	65	4367
2026-01-25 08:03:17.31	110.58	9.22	-46.9	-48.8	17.7	0.00e+00	0	44	0	130023424	65	4472
2026-01-25 08:03:18.29	110.53	9.29	-46.7	-48.5	18.0	0.00e+00	0	44	0	132120576	65	4301
2026-01-25 08:03:19.27	110.47	9.37	-46.7	-48.4	18.0	0.00e+00	0	44	0	133169152	65	4290
2026-01-25 08:03:20.25	110.41	9.45	-47.1	-49.0	17.6	0.00e+00	0	44	0	135266304	65	4546
2026-01-25 08:03:21.22	110.35	9.53	-46.8	-48.6	18.0	0.00e+00	0	44	0	137363456	65	4342
2026-01-25 08:03:22.20	110.30	9.61	-46.6	-48.3	18.2	0.00e+00	0	44	0	139460608	65	4223
2026-01-25 08:03:23.17	110.24	9.69	-46.6	-48.4	18.1	0.00e+00	0	44	0	140509184	65	4262
2026-01-25 08:03:24.15	110.18	9.76	-46.6	-48.4	18.1	0.00e+00	0	44	0	142606336	65	4254
2026-01-25 08:03:25.12	110.12	9.84	-46.7	-48.4	18.1	0.00e+00	0	44	0	144703488	64	4527
2026-01-25 08:03:26.10	110.06	9.92	-46.5	-48.2	18.3	0.00e+00	0	44	0	146800640	64	4410
2026-01-25 08:03:27.08	110.00	10.00	-46.3	-48.0	18.5	0.00e+00	0	44	0	147849216	64	4313
2026-01-25 08:03:28.06	109.94	10.08	-46.1	-47.7	18.7	0.00e+00	0	44	0	149946368	64	4180
2026-01-25 08:03:29.04	109.88	10.16	-46.0	-47.5	18.9	0.00e+00	0	44	0	152043520	64	4092
2026-01-25 08:03:30.02	109.81	10.24	-46.0	-47.5	19.0	0.00e+00	0	44	0	154140672	63	4337
2026-01-25 08:03:31.00	109.75	10.33	-46.1	-47.6	18.9	0.00e+00	0	44	0	155189248	63	4380
2026-01-25 08:03:31.98	109.69	10.41	-45.9	-47.4	19.1	0.00e+00	0	44	0	157286400	63	4281
2026-01-25 08:03:32.96	109.63	10.49	-46.2	-47.8	18.8	0.00e+00	0	44	0	159383552	63	4470
2026-01-25 08:03:33.94	109.57	10.57	-46.1	-47.7	18.9	0.00e+00	0	44	0	161480704	63	4400
2026-01-25 08:03:34.91	109.50	10.65	-46.1	-47.6	18.9	0.00e+00	0	44	0	162529280	63	4360
2026-01-25 08:03:35.90	109.44	10.73	-46.3	-47.9	18.7	0.00e+00	0	44	0	164626432	63	4527
2026-01-25 08:03:36.88	109.37	10.82	-46.1	-47.6	18.9	0.00e+00	0	44	0	166723584	63	4375
2026-01-25 08:03:37.86	109.31	10.90	-46.0	-47.5	19.1	0.00e+00	0	44	0	168820736	63	4334
2026-01-25 08:03:38.83	109.25	10.98	-46.1	-47.7	18.9	0.00e+00	0	44	0	169869312	63	4399
2026-01-25 08:03:39.81	109.18	11.06	-46.1	-47.6	19.0	0.00e+00	0	44	0	171966464	63	4381
2026-01-25 08:03:40.78	109.12	11.15	-45.9	-47.4	19.1	0.00e+00	0	44	0	174063616	63	4283
2026-01-25 08:03:41.77	109.05	11.23	-46.0	-47.5	19.1	0.00e+00	0	44	0	176160768	63	4322
2026-01-25 08:03:42.75	108.98	11.31	-45.9	-47.4	19.2	0.00e+00	0	44	0	177209344	63	4249
2026-01-25 08:03:43.73	108.92	11.40	-46.2	-47.7	18.9	0.00e+00	0	44	0	179306496	63	4438
2026-01-25 08:03:44.71	108.85	11.48	-46.1	-47.6	19.1	0.00e+00	0	44	0	181403648	63	4354
2026-01-25 08:03:45.68	108.78	11.57	-46.1	-47.7	18.9	0.00e+00	0	44	0	183500800	63	4403
2026-01-25 08:03:46.66	108.71	11.65	-46.5	-48.1	18.5	0.00e+00	0	44	0	184549376	63	4645
2026-01-25 08:03:47.63	108.65	11.74	-46.5	-48.2	18.5	0.00e+00	0	45	0	186646528	63	4685
2026-01-25 08:03:48.61	108.58	11.82	-46.2	-47.8	18.8	0.00e+00	0	44	0	188743680	63	4471
2026-01-25 08:03:49.59	108.51	11.91	-46.1	-47.7	18.9	0.00e+00	0	44	0	190840832	63	4421
2026-01-25 08:03:50.57	108.44	11.99	-46.1	-47.7	18.9	0.00e+00	0	44	0	191889408	63	4404
2026-01-25 08:03:51.54	108.37	12.08	-46.1	-47.7	19.0	0.00e+00	0	44	0	193986560	63	4393
2026-01-25 08:03:52.52	108.30	12.16	-46.1	-47.6	19.0	0.00e+00	0	44	0	196083712	63	4389
2026-01-25 08:03:53.50	108.23	12.25	-45.9	-47.5	19.2	0.00e+00	0	44	0	198180864	63	4298
2026-01-25 08:03:54.48	108.16	12.34	-46.1	-47.6	19.0	0.00e+00	0	44	0	199229440	63	4384
2026-01-25 08:03:55.45	108.09	12.42	-46.0	-47.5	19.1	0.00e+00	0	44	0	201326592	63	4323
2026-01-25 08:03:56.43	108.01	12.51	-45.8	-47.3	19.4	0.00e+00	0	44	0	203423744	63	4207
2026-01-25 08:03:57.41	107.94	12.60	-45.9	-47.3	19.3	0.00e+00	0	44	0	205520896	63	4239
2026-01-25 08:03:58.38	107.87	12.69	-45.8	-47.3	19.3	0.00e+00	0	44	0	206569472	63	4229
2026-01-25 08:03:59.37	107.80	12.78	-45.8	-47.3	19.4	0.00e+00	0	44	0	208666624	63	4194
2026-01-25 08:04:00.34	107.72	12.86	-45.9	-47.3	19.3	0.00e+00	0	44	0	210763776	63	4238
2026-01-25 08:04:01.32	107.65	12.95	-45.9	-47.4	19.3	0.00e+00	0	44	0	212860928	63	4260
2026-01-25 08:04:02.30	107.57	13.04	-45.9	-47.3	19.3	0.00e+00	0	44	0	213909504	63	4240
2026-01-25 08:04:03.28	107.50	13.13	-45.7	-47.2	19.5	0.00e+00	0	44	0	216006656	63	4162
2026-01-25 08:04:04.26	107.42	13.22	-45.7	-47.1	19.6	0.00e+00	0	44	0	218103808	63	4137
2026-01-25 08:04:05.24	107.34	13.31	-46.0	-47.5	19.2	0.00e+00	0	44	0	220200960	63	4307
2026-01-25 08:04:06.22	107.27	13.40	-45.8	-47.2	19.5	0.00e+00	0	44	0	221249536	63	4173
2026-01-25 08:04:07.20	107.19	13.49	-45.7	-47.2	19.5	0.00e+00	0	44	0	223346688	63	4148
2026-01-25 08:04:08.18	107.11	13.58	-45.9	-47.4	19.3	0.00e+00	0	44	0	225443840	63	4255
2026-01-25 08:04:09.15	107.04	13.67	-45.8	-47.3	19.4	0.00e+00	0	44	0	227540992	63	4203
2026-01-25 08:04:10.13	106.96	13.76	-45.8	-47.2	19.4	0.00e+00	0	44	0	228589568	63	4190
2026-01-25 08:04:11.12	106.88	13.85	-46.1	-47.6	19.1	0.00e+00	0	44	0	230686720	63	4361
2026-01-25 08:04:12.09	106.80	13.95	-46.1	-47.7	19.0	0.00e+00	0	44	0	232783872	63	4417
2026-01-25 08:04:13.07	106.72	14.04	-46.0	-47.5	19.2	0.00e+00	0	44	0	234881024	63	4328
2026-01-25 08:04:14.05	106.64	14.13	-46.1	-47.7	19.0	0.00e+00	0	44	0	235929600	63	4414
2026-01-25 08:04:15.04	106.55	14.22	-46.2	-47.8	18.9	0.00e+00	0	44	0	238026752	63	4462
2026-01-25 08:04:16.01	106.47	14.32	-46.2	-47.8	18.9	0.00e+00	0	44	0	240123904	63	4457
2026-01-25 08:04:17.00	106.39	14.41	-45.8	-47.4	19.2	0.00e+00	0	44	0	242221056	63	4250
2026-01-25 08:04:17.98	106.31	14.50	-45.8	-47.4	19.2	0.00e+00	0	45	0	243269632	63	4247
2026-01-25 08:04:18.96	106.22	14.60	-45.8	-47.3	19.2	0.00e+00	0	44	0	245366784	63	4239
2026-01-25 08:04:19.93	106.14	14.69	-45.7	-47.3	19.3	0.00e+00	0	44	0	247463936	63	4208
2026-01-25 08:04:20.91	106.06	14.79	-45.9	-47.6	19.0	0.00e+00	0	44	0	249561088	63	4345
2026-01-25 08:04:21.90	105.97	14.88	-46.0	-47.7	18.9	0.00e+00	0	44	0	250609664	63	4412
2026-01-25 08:04:22.88	105.88	14.98	-45.9	-47.6	19.0	0.00e+00	0	44	0	252706816	63	4347
2026-01-25 08:04:23.86	105.80	15.07	-45.7	-47.2	19.3	0.00e+00	0	44	0	254803968	63	4185
2026-01-25 08:04:24.83	105.71	15.17	-45.8	-47.4	19.2	0.00e+00	0	45	0	256901120	63	4266
2026-01-25 08:04:25.81	105.62	15.26	-45.7	-47.3	19.3	0.00e+00	0	44	0	257949696	63	4212
2026-01-25 08:04:26.79	105.54	15.36	-45.7	-47.3	19.3	0.00e+00	0	44	0	260046848	62	4449
2026-01-25 08:04:27.77	105.45	15.46	-45.7	-47.2	19.4	0.00e+00	0	44	0	262144000	62	4433
2026-01-25 08:04:28.75	105.36	15.55	-45.6	-47.1	19.4	0.00e+00	0	44	0	264241152	62	4354
2026-01-25 08:04:29.72	105.27	15.65	-45.6	-47.1	19.4	0.00e+00	0	44	0	265289728	62	4388
2026-01-25 08:04:30.71	105.18	15.75	-45.6	-47.1	19.5	0.00e+00	0	44	0	267386880	62	4365
2026-01-25 08:04:31.68	105.09	15.84	-45.3	-46.7	19.8	0.00e+00	0	45	0	269484032	62	4156
2026-01-25 08:04:32.66	105.00	15.94	-45.6	-47.2	19.5	0.00e+00	0	44	0	271581184	62	4393
2026-01-25 08:04:33.64	104.90	16.04	-45.7	-47.3	19.3	0.00e+00	0	44	0	272629760	62	4445
2026-01-25 08:04:34.62	104.81	16.14	-45.7	-47.2	19.4	0.00e+00	0	44	0	274726912	62	4439
2026-01-25 08:04:35.59	104.72	16.24	-45.8	-47.3	19.3	0.00e+00	0	44	0	276824064	62	4472
2026-01-25 08:04:36.57	104.62	16.34	-45.9	-47.5	19.2	0.00e+00	0	45	0	278921216	62	4557
2026-01-25 08:04:37.55	104.53	16.44	-45.8	-47.4	19.2	0.00e+00	0	44	0	279969792	62	4511
2026-01-25 08:04:38.53	104.43	16.54	-45.6	-47.1	19.5	0.00e+00	0	44	0	282066944	62	4351
2026-01-25 08:04:39.51	104.34	16.64	-45.6	-47.1	19.5	0.00e+00	0	44	0	284164096	62	4366
2026-01-25 08:04:40.49	104.24	16.74	-45.6	-47.1	19.6	0.00e+00	0	44	0	286261248	62	4353
2026-01-25 08:04:41.47	104.14	16.84	-45.5	-46.9	19.7	0.00e+00	0	45	0	287309824	62	4283
2026-01-25 08:04:42.44	104.05	16.94	-45.5	-46.9	19.7	0.00e+00	0	44	0	289406976	62	4289
2026-01-25 08:04:43.42	103.95	17.04	-45.7	-47.2	19.4	0.00e+00	0	44	0	291504128	62	4414
2026-01-25 08:04:44.40	103.85	17.14	-45.6	-47.2	19.5	0.00e+00	0	44	0	293601280	62	4394
2026-01-25 08:04:45.38	103.75	17.25	-45.8	-47.4	19.3	0.00e+00	0	45	0	294649856	62	4520
2026-01-25 08:04:46.36	103.65	17.35	-45.8	-47.4	19.2	0.00e+00	0	44	0	296747008	62	4530
2026-01-25 08:04:47.34	103.54	17.45	-45.7	-47.3	19.4	0.00e+00	0	44	0	298844160	62	4449
2026-01-25 08:04:48.31	103.44	17.56	-45.7	-47.2	19.4	0.00e+00	0	44	0	300941312	62	4431
2026-01-25 08:04:49.29	103.34	17.66	-45.6	-47.1	19.5	0.00e+00	0	44	0	301989888	62	4380
2026-01-25 08:04:50.27	103.24	17.76	-45.7	-47.2	19.5	0.00e+00	0	44	0	304087040	62	4405
2026-01-25 08:04:51.25	103.13	17.87	-45.7	-47.2	19.4	0.00e+00	0	44	0	306184192	62	4438
2026-01-25 08:04:52.22	103.03	17.97	-45.7	-47.2	19.5	0.00e+00	0	45	0	308281344	62	4411
2026-01-25 08:04:53.21	102.92	18.08	-45.6	-47.1	19.7	0.00e+00	0	45	0	309329920	62	4342
2026-01-25 08:04:54.18	102.81	18.18	-45.9	-47.4	19.3	0.00e+00	0	44	0	311427072	62	4500
2026-01-25 08:04:55.15	102.71	18.29	-45.7	-47.2	19.4	0.00e+00	0	44	0	313524224	62	4427
2026-01-25 08:04:56.13	102.60	18.39	-45.8	-47.3	19.4	0.00e+00	0	44	0	315621376	62	4480
2026-01-25 08:04:57.11	102.49	18.50	-45.7	-47.2	19.5	0.00e+00	0	44	0	316669952	62	4408
2026-01-25 08:04:58.08	102.38	18.61	-45.9	-47.5	19.2	0.00e+00	0	44	0	318767104	62	4564
2026-01-25 08:04:59.06	102.27	18.71	-45.8	-47.3	19.4	0.00e+00	0	44	0	320864256	62	4446
2026-01-25 08:05:00.04	102.16	18.82	-45.7	-47.2	19.4	0.00e+00	0	44	0	322961408	62	4433
2026-01-25 08:05:01.00	102.05	18.93	-45.6	-47.1	19.6	0.00e+00	0	44	0	324009984	62	4342
2026-01-25 08:05:01.98	101.94	19.04	-45.6	-47.0	19.6	0.00e+00	0	44	0	326107136	62	4333
2026-01-25 08:05:02.96	101.82	19.14	-45.5	-46.9	19.8	0.00e+00	0	45	0	328204288	62	4255
2026-01-25 08:05:03.94	101.71	19.25	-45.5	-46.9	19.7	0.00e+00	0	44	0	330301440	62	4270
2026-01-25 08:05:04.92	101.59	19.36	-45.5	-47.0	19.7	0.00e+00	0	44	0	331350016	62	4293
2026-01-25 08:05:05.90	101.48	19.47	-45.4	-46.8	19.8	0.00e+00	0	44	0	333447168	62	4242
2026-01-25 08:05:06.88	101.36	19.58	-45.6	-47.0	19.7	0.00e+00	0	45	0	335544320	62	4334
2026-01-25 08:05:07.86	101.24	19.69	-45.7	-47.2	19.5	0.00e+00	0	44	0	337641472	62	4396
2026-01-25 08:05:08.84	101.12	19.80	-45.7	-47.2	19.6	0.00e+00	0	44	0	338690048	62	4425
2026-01-25 08:05:09.82	101.00	19.91	-45.5	-46.9	19.8	0.00e+00	0	44	0	340787200	62	4260
2026-01-25 08:05:10.79	100.88	20.03	-45.6	-47.0	19.7	0.00e+00	0	44	0	342884352	62	4330
2026-01-25 08:05:11.77	100.76	20.14	-45.3	-46.7	20.0	0.00e+00	0	44	0	344981504	62	4150
2026-01-25 08:05:12.75	100.64	20.25	-45.4	-46.8	19.9	0.00e+00	0	44	0	346030080	62	4213
2026-01-25 08:05:13.73	100.51	20.36	-45.6	-47.1	19.7	0.00e+00	0	44	0	348127232	62	4342
2026-01-25 08:05:14.71	100.39	20.48	-45.7	-47.2	19.6	0.00e+00	0	44	0	350224384	62	4393
2026-01-25 08:05:15.69	100.26	20.59	-46.0	-47.5	19.2	0.00e+00	0	44	0	352321536	62	4576
2026-01-25 08:05:16.67	100.14	20.70	-46.1	-47.7	19.0	0.00e+00	0	44	0	353370112	62	4667
2026-01-25 08:05:17.65	100.01	20.82	-46.3	-48.0	18.8	0.00e+00	0	44	0	355467264	63	4549
2026-01-25 08:05:18.63	99.88	20.93	-46.4	-48.0	18.7	0.00e+00	0	44	0	357564416	63	4579
2026-01-25 08:05:19.61	99.75	21.05	-46.4	-48.2	18.5	0.00e+00	0	44	0	359661568	63	4654
2026-01-25 08:05:20.59	99.62	21.16	-46.2	-47.9	18.9	0.00e+00	0	45	0	360710144	63	4499
2026-01-25 08:05:21.57	99.49	21.28	-46.2	-47.8	19.0	0.00e+00	0	44	0	362807296	63	4465
2026-01-25 08:05:22.55	99.36	21.39	-46.1	-47.8	19.0	0.00e+00	0	44	0	364904448	63	4447
2026-01-25 08:05:23.53	99.23	21.51	-46.2	-47.9	18.9	0.00e+00	0	44	0	367001600	63	4510
2026-01-25 08:05:24.52	99.09	21.63	-46.1	-47.7	19.0	0.00e+00	0	44	0	368050176	63	4435
2026-01-25 08:05:25.50	98.95	21.74	-46.4	-48.1	18.7	0.00e+00	0	44	0	370147328	63	4611
2026-01-25 08:05:26.48	98.82	21.86	-46.2	-47.8	19.0	0.00e+00	0	44	0	372244480	63	4486
2026-01-25 08:05:27.47	98.68	21.98	-45.8	-47.4	19.3	0.00e+00	0	44	0	374341632	63	4247
2026-01-25 08:05:28.45	98.54	22.10	-45.7	-47.2	19.5	0.00e+00	0	44	0	375390208	62	4435
2026-01-25 08:05:29.43	98.40	22.22	-45.7	-47.2	19.5	0.00e+00	0	44	0	377487360	62	4437
2026-01-25 08:05:30.41	98.26	22.34	-45.3	-46.7	20.0	0.00e+00	0	44	0	379584512	62	4174
2026-01-25 08:05:31.39	98.12	22.45	-45.8	-47.4	19.4	0.00e+00	0	44	0	381681664	62	4501
2026-01-25 08:05:32.37	97.98	22.57	-46.2	-48.0	18.9	0.00e+00	0	44	0	382730240	63	4556
2026-01-25 08:05:33.35	97.83	22.69	-46.3	-48.1	18.7	0.00e+00	0	44	0	384827392	63	4635
2026-01-25 08:05:34.33	97.69	22.81	-46.5	-48.3	18.5	0.00e+00	0	44	0	386924544	63	4728
2026-01-25 08:05:35.31	97.54	22.94	-46.5	-48.3	18.4	0.00e+00	0	44	0	389021696	63	4758
2026-01-25 08:05:36.29	97.39	23.06	-46.3	-48.0	18.8	0.00e+00	0	44	0	390070272	63	4581
2026-01-25 08:05:37.28	97.24	23.18	-46.3	-48.0	18.7	0.00e+00	0	44	0	392167424	63	4598
2026-01-25 08:05:38.26	97.09	23.30	-45.7	-47.3	19.4	0.00e+00	0	44	0	394264576	63	4208
2026-01-25 08:05:39.23	96.94	23.42	-46.2	-47.9	18.9	0.00e+00	0	44	0	396361728	63	4501
2026-01-25 08:05:40.22	96.79	23.55	-46.2	-47.9	18.9	0.00e+00	0	44	0	397410304	63	4522
2026-01-25 08:05:41.20	96.64	23.67	-45.8	-47.4	19.4	0.00e+00	0	44	0	399507456	63	4243
2026-01-25 08:05:42.18	96.48	23.79	-46.2	-47.9	18.9	0.00e+00	0	44	0	401604608	63	4527
2026-01-25 08:05:43.16	96.33	23.91	-45.8	-47.4	19.4	0.00e+00	0	45	0	403701760	63	4252
2026-01-25 08:05:44.14	96.17	24.04	-46.1	-47.7	19.1	0.00e+00	0	44	0	405798912	63	4434
2026-01-25 08:05:45.11	96.01	24.16	-46.1	-47.7	19.2	0.00e+00	0	44	0	406847488	63	4396
2026-01-25 08:05:46.09	95.85	24.29	-46.2	-47.8	19.0	0.00e+00	0	45	0	408944640	63	4462
2026-01-25 08:05:47.07	95.69	24.41	-46.2	-47.8	19.0	0.00e+00	0	44	0	411041792	63	4472
2026-01-25 08:05:48.05	95.53	24.54	-46.1	-47.8	19.0	0.00e+00	0	44	0	413138944	63	4454
2026-01-25 08:05:49.04	95.36	24.66	-45.7	-47.2	19.6	0.00e+00	0	44	0	414187520	63	4152
2026-01-25 08:05:50.02	95.20	24.79	-46.2	-47.9	18.9	0.00e+00	0	45	0	416284672	63	4507
2026-01-25 08:05:51.00	95.03	24.92	-46.0	-47.6	19.2	0.00e+00	0	44	0	418381824	63	4364
2026-01-25 08:05:51.97	94.87	25.04	-46.1	-47.6	19.2	0.00e+00	0	44	0	419430400	63	4391
2026-01-25 08:05:52.95	94.70	25.17	-46.3	-47.9	19.0	0.00e+00	0	44	0	421527552	63	4508
2026-01-25 08:05:53.93	94.53	25.30	-46.1	-47.7	19.1	0.00e+00	0	45	0	423624704	63	4436
2026-01-25 08:05:54.91	94.35	25.42	-46.5	-48.2	18.8	0.00e+00	0	45	0	425721856	63	4653
2026-01-25 08:05:55.89	94.18	25.55	-46.2	-47.8	19.1	0.00e+00	0	44	0	426770432	63	4467
2026-01-25 08:05:56.88	94.00	25.68	-45.6	-47.1	19.6	0.00e+00	0	44	0	428867584	63	4111
2026-01-25 08:05:57.86	93.83	25.81	-45.7	-47.3	19.5	0.00e+00	0	44	0	430964736	62	4445
2026-01-25 08:05:58.84	93.65	25.94	-45.5	-46.9	19.8	0.00e+00	0	44	0	433061888	62	4281
2026-01-25 08:05:59.82	93.47	26.07	-45.0	-46.3	20.4	0.00e+00	0	44	0	434110464	62	3983
2026-01-25 08:06:00.80	93.29	26.20	-45.4	-46.8	20.0	0.00e+00	0	44	0	436207616	61	4479
2026-01-25 08:06:01.78	93.11	26.33	-45.8	-47.3	19.5	0.00e+00	0	44	0	438304768	62	4489
2026-01-25 08:06:02.76	92.93	26.46	-46.4	-48.2	18.7	0.00e+00	0	44	0	440401920	63	4669
2026-01-25 08:06:03.75	92.74	26.59	-46.3	-48.0	18.9	0.00e+00	0	44	0	442499072	63	4558
2026-01-25 08:06:04.73	92.55	26.72	-46.3	-48.0	18.8	0.00e+00	0	45	0	443547648	63	4581
2026-01-25 08:06:05.71	92.36	26.85	-46.4	-48.0	18.8	0.00e+00	0	44	0	445644800	63	4598
2026-01-25 08:06:06.69	92.17	26.98	-46.3	-47.9	18.9	0.00e+00	0	44	0	447741952	63	4533
2026-01-25 08:06:07.68	91.98	27.11	-46.2	-47.8	19.1	0.00e+00	0	44	0	449839104	63	4456
2026-01-25 08:06:08.66	91.79	27.25	-46.5	-48.3	18.5	0.00e+00	0	44	0	450887680	64	4450
2026-01-25 08:06:09.65	91.59	27.38	-46.7	-48.5	18.4	0.00e+00	0	44	0	452984832	64	4567
2026-01-25 08:06:10.63	91.39	27.51	-47.0	-48.9	18.0	0.00e+00	0	44	0	455081984	64	4778
2026-01-25 08:06:11.61	91.20	27.65	-46.9	-48.7	18.1	0.00e+00	0	44	0	457179136	64	4700
2026-01-25 08:06:12.60	91.00	27.78	-46.9	-48.8	18.1	0.00e+00	0	44	0	458227712	64	4725
2026-01-25 08:06:13.58	90.79	27.91	-46.9	-48.9	18.0	0.00e+00	0	44	0	460324864	64	4766
2026-01-25 08:06:14.57	90.59	28.05	-47.0	-48.9	17.9	0.00e+00	0	44	0	462422016	65	4545
2026-01-25 08:06:15.55	90.38	28.18	-47.4	-49.5	17.1	0.00e+00	0	44	0	464519168	65	4817
2026-01-25 08:06:16.53	90.18	28.31	-47.5	-49.6	17.2	0.00e+00	0	44	0	465567744	65	4904
2026-01-25 08:06:17.51	89.97	28.45	-47.7	-50.0	16.9	0.00e+00	0	44	0	467664896	66	4824
2026-01-25 08:06:18.49	89.76	28.58	-47.7	-50.0	17.0	0.00e+00	0	44	0	469762048	66	4848
2026-01-25 08:06:19.47	89.55	28.72	-47.7	-50.0	16.9	0.00e+00	0	45	0	471859200	66	4851
2026-01-25 08:06:20.45	89.33	28.85	-48.1	-50.5	16.4	0.00e+00	0	44	0	472907776	66	5158
2026-01-25 08:06:21.43	89.12	28.99	-48.2	-50.6	16.4	0.00e+00	0	44	0	475004928	67	4887
2026-01-25 08:06:22.41	88.90	29.12	-48.2	-50.7	16.3	0.00e+00	0	44	0	477102080	67	4932
2026-01-25 08:06:23.40	88.68	29.26	-48.1	-50.5	16.5	0.00e+00	0	44	0	479199232	67	4825
2026-01-25 08:06:24.38	88.46	29.39	-48.2	-50.7	16.2	0.00e+00	0	45	0	480247808	67	4980
2026-01-25 08:06:25.37	88.23	29.53	-48.2	-50.6	16.4	0.00e+00	0	45	0	482344960	67	4922
2026-01-25 08:06:26.35	88.01	29.67	-48.2	-50.7	16.3	0.00e+00	0	44	0	484442112	67	4949
2026-01-25 08:06:27.34	87.78	29.80	-48.3	-50.9	16.0	0.00e+00	0	44	0	486539264	67	5079
2026-01-25 08:06:28.32	87.55	29.94	-48.3	-50.9	16.1	0.00e+00	0	44	0	487587840	67	5046
2026-01-25 08:06:29.31	87.32	30.08	-48.4	-51.0	15.8	0.00e+00	0	44	0	489684992	67	5147
2026-01-25 08:06:30.28	87.09	30.21	-48.3	-50.8	16.1	0.00e+00	0	44	0	491782144	67	5022
2026-01-25 08:06:31.27	86.85	30.35	-48.2	-50.7	16.3	0.00e+00	0	44	0	493879296	67	4941
2026-01-25 08:06:32.25	86.61	30.49	-48.0	-50.4	16.6	0.00e+00	0	45	0	495976448	67	4769
2026-01-25 08:06:33.24	86.37	30.63	-47.5	-49.5	17.4	0.00e+00	0	45	0	497025024	67	4340
2026-01-25 08:06:34.21	86.13	30.76	-47.2	-49.1	17.8	0.00e+00	0	45	0	499122176	66	4360
2026-01-25 08:06:35.19	85.89	30.90	-47.0	-48.8	18.1	0.00e+00	0	44	0	501219328	66	4213
2026-01-25 08:06:36.18	85.64	31.04	-47.0	-48.8	18.1	0.00e+00	0	45	0	503316480	65	4480
2026-01-25 08:06:37.16	85.40	31.17	-47.3	-49.2	17.7	0.00e+00	0	44	0	504365056	65	4698
2026-01-25 08:06:38.14	85.15	31.31	-47.1	-49.0	18.0	0.00e+00	0	44	0	506462208	65	4548
2026-01-25 08:06:39.12	84.90	31.45	-47.2	-49.1	17.8	0.00e+00	0	45	0	508559360	65	4649
2026-01-25 08:06:40.11	84.64	31.58	-47.0	-48.9	18.1	0.00e+00	0	44	0	509607936	65	4494
2026-01-25 08:06:41.09	84.39	31.72	-47.3	-49.2	17.7	0.00e+00	0	44	0	511705088	65	4684
2026-01-25 08:06:42.07	84.13	31.86	-47.3	-49.3	17.6	0.00e+00	0	44	0	513802240	65	4719
2026-01-25 08:06:43.05	83.87	31.99	-47.1	-49.0	18.0	0.00e+00	0	45	0	515899392	65	4549
2026-01-25 08:06:44.03	83.61	32.13	-47.5	-49.5	17.5	0.00e+00	0	44	0	517996544	65	4856
2026-01-25 08:06:45.01	83.34	32.27	-47.4	-49.4	17.5	0.00e+00	0	44	0	519045120	65	4786
2026-01-25 08:06:46.00	83.07	32.41	-47.0	-48.9	18.0	0.00e+00	0	44	0	521142272	65	4495
2026-01-25 08:06:46.98	82.80	32.54	-46.9	-48.7	18.2	0.00e+00	0	44	0	523239424	65	4430
2026-01-25 08:06:47.96	82.53	32.68	-47.0	-48.8	18.1	0.00e+00	0	44	0	525336576	65	4491
2026-01-25 08:06:48.95	82.26	32.82	-47.3	-49.4	17.6	0.00e+00	0	44	0	526385152	65	4764
2026-01-25 08:06:49.93	81.98	32.95	-47.4	-49.5	17.3	0.00e+00	0	44	0	528482304	65	4864
2026-01-25 08:06:50.91	81.70	33.09	-47.4	-49.4	17.6	0.00e+00	0	45	0	530579456	65	4784
2026-01-25 08:06:51.89	81.42	33.22	-47.0	-48.9	18.1	0.00e+00	0	44	0	532676608	65	4496
2026-01-25 08:06:52.87	81.14	33.36	-47.3	-49.2	17.8	0.00e+00	0	44	0	533725184	65	4667
2026-01-25 08:06:53.85	80.85	33.50	-47.3	-49.2	17.8	0.00e+00	0	44	0	535822336	65	4692
2026-01-25 08:06:54.84	80.56	33.63	-46.9	-48.8	18.1	0.00e+00	0	44	0	537919488	65	4452
2026-01-25 08:06:55.82	80.27	33.77	-46.9	-48.7	18.2	0.00e+00	0	44	0	540016640	65	4411
2026-01-25 08:06:56.80	79.98	33.90	-46.5	-48.3	18.7	0.00e+00	0	45	0	541065216	65	4199
2026-01-25 08:06:57.78	79.68	34.04	-46.4	-48.1	18.8	0.00e+00	0	44	0	543162368	64	4361
2026-01-25 08:06:58.76	79.39	34.17	-46.6	-48.4	18.5	0.00e+00	0	44	0	545259520	64	4501
2026-01-25 08:06:59.74	79.09	34.30	-46.7	-48.5	18.5	0.00e+00	0	45	0	547356672	64	4568
2026-01-25 08:07:00.73	78.78	34.44	-46.6	-48.4	18.7	0.00e+00	0	44	0	549453824	64	4494
2026-01-25 08:07:01.71	78.48	34.57	-46.5	-48.1	18.8	0.00e+00	0	45	0	550502400	64	4391
2026-01-25 08:07:02.69	78.17	34.71	-46.8	-48.6	18.3	0.00e+00	0	44	0	552599552	64	4602
2026-01-25 08:07:03.67	77.86	34.84	-46.9	-48.7	18.1	0.00e+00	0	44	0	554696704	64	4688
2026-01-25 08:07:04.65	77.55	34.97	-47.2	-49.2	17.7	0.00e+00	0	44	0	555745280	65	4656
2026-01-25 08:07:05.63	77.23	35.10	-47.5	-49.6	17.4	0.00e+00	0	44	0	557842432	65	4872
2026-01-25 08:07:06.61	76.91	35.23	-47.0	-48.9	17.9	0.00e+00	0	45	0	559939584	65	4513
2026-01-25 08:07:07.59	76.59	35.36	-47.4	-49.5	17.4	0.00e+00	0	44	0	562036736	65	4826
2026-01-25 08:07:08.58	76.27	35.49	-47.6	-49.8	17.0	0.00e+00	0	44	0	563085312	66	4757
2026-01-25 08:07:09.56	75.94	35.62	-48.2	-50.8	16.1	0.00e+00	0	44	0	565182464	66	5319
2026-01-25 08:07:10.54	75.61	35.75	-48.3	-50.9	16.0	0.00e+00	0	45	0	567279616	67	5092
2026-01-25 08:07:11.51	75.29	35.88	-48.4	-51.1	15.7	0.00e+00	0	45	0	569376768	67	5173
2026-01-25 08:07:12.49	74.95	36.01	-48.2	-50.7	16.3	0.00e+00	0	45	0	570425344	68	4668
2026-01-25 08:07:13.48	74.61	36.14	-48.1	-50.5	16.5	0.00e+00	0	45	0	572522496	68	4582
2026-01-25 08:07:14.46	74.28	36.26	-48.4	-51.0	15.9	0.00e+00	0	44	0	574619648	67	5148
2026-01-25 08:07:15.44	73.93	36.39	-48.3	-50.9	16.1	0.00e+00	0	44	0	576716800	67	5049
2026-01-25 08:07:16.42	73.59	36.51	-48.0	-50.4	16.5	0.00e+00	0	45	0	577765376	67	4790
2026-01-25 08:07:17.40	73.24	36.64	-47.8	-50.1	16.9	0.00e+00	0	44	0	579862528	67	4608
2026-01-25 08:07:18.38	72.90	36.76	-47.5	-49.6	17.3	0.00e+00	0	44	0	581959680	67	4388
2026-01-25 08:07:19.37	72.54	36.89	-47.2	-49.2	17.7	0.00e+00	0	44	0	584056832	66	4421
2026-01-25 08:07:20.35	72.19	37.01	-47.2	-49.2	17.8	0.00e+00	0	45	0	586153984	65	4657
2026-01-25 08:07:21.33	71.83	37.13	-47.6	-49.8	17.1	0.00e+00	0	44	0	587202560	65	4990
2026-01-25 08:07:22.31	71.47	37.25	-47.8	-50.1	17.0	0.00e+00	0	44	0	589299712	66	4883
2026-01-25 08:07:23.29	71.11	37.37	-47.8	-50.0	16.9	0.00e+00	0	44	0	591396864	66	4864
2026-01-25 08:07:24.27	70.74	37.49	-47.4	-49.4	17.4	0.00e+00	0	44	0	593494016	66	4528
2026-01-25 08:07:25.26	70.37	37.61	-47.2	-49.2	17.7	0.00e+00	0	44	0	594542592	66	4410
2026-01-25 08:07:26.23	70.00	37.73	-46.9	-48.8	18.1	0.00e+00	0	45	0	596639744	65	4474
2026-01-25 08:07:27.21	69.63	37.84	-46.1	-47.8	19.0	0.00e+00	0	45	0	598736896	64	4207
2026-01-25 08:07:28.19	69.25	37.96	-46.2	-47.9	18.9	0.00e+00	0	44	0	600834048	64	4249
2026-01-25 08:07:29.17	68.87	38.07	-46.0	-47.6	19.2	0.00e+00	0	44	0	601882624	63	4387
2026-01-25 08:07:30.15	68.49	38.18	-46.6	-48.5	18.4	0.00e+00	0	44	0	603979776	64	4562
2026-01-25 08:07:31.13	68.11	38.29	-46.9	-48.8	18.1	0.00e+00	0	45	0	606076928	64	4710
2026-01-25 08:07:32.11	67.72	38.41	-47.0	-49.1	17.9	0.00e+00	0	45	0	607125504	64	4877
2026-01-25 08:07:33.09	67.33	38.52	-46.1	-47.7	19.0	0.00e+00	0	44	0	609222656	64	4171
2026-01-25 08:07:34.07	66.94	38.62	-46.1	-47.7	19.0	0.00e+00	0	44	0	611319808	63	4414
2026-01-25 08:07:35.06	66.54	38.73	-45.4	-46.9	19.8	0.00e+00	0	45	0	613416960	62	4263
2026-01-25 08:07:36.04	66.15	38.84	-45.6	-47.2	19.4	0.00e+00	0	45	0	615514112	62	4417
2026-01-25 08:07:37.03	65.74	38.94	-45.7	-47.3	19.5	0.00e+00	0	44	0	616562688	62	4453
2026-01-25 08:07:38.01	65.34	39.05	-45.4	-47.0	19.8	0.00e+00	0	44	0	618659840	62	4300
2026-01-25 08:07:38.98	64.94	39.15	-45.7	-47.3	19.5	0.00e+00	0	44	0	620756992	62	4474
2026-01-25 08:07:39.97	64.53	39.25	-45.6	-47.1	19.6	0.00e+00	0	45	0	622854144	62	4383
2026-01-25 08:07:40.95	64.12	39.35	-45.4	-46.9	19.8	0.00e+00	0	44	0	623902720	62	4272
2026-01-25 08:07:41.92	63.71	39.45	-45.1	-46.5	20.2	0.00e+00	0	44	0	625999872	62	4068
2026-01-25 08:07:42.91	63.29	39.54	-45.3	-46.8	19.9	0.00e+00	0	44	0	628097024	61	4480
2026-01-25 08:07:43.89	62.87	39.64	-45.3	-46.8	19.9	0.00e+00	0	44	0	630194176	61	4481
2026-01-25 08:07:44.87	62.45	39.73	-45.2	-46.6	20.0	0.00e+00	0	44	0	631242752	61	4389
2026-01-25 08:07:45.85	62.03	39.82	-45.4	-47.0	19.8	0.00e+00	0	44	0	633339904	61	4565
2026-01-25 08:07:46.83	61.61	39.91	-45.2	-46.7	20.0	0.00e+00	0	44	0	635437056	61	4424
2026-01-25 08:07:47.81	61.18	40.00	-44.8	-46.3	20.4	0.00e+00	0	44	0	637534208	61	4203
2026-01-25 08:07:48.78	60.76	40.09	-44.4	-45.7	20.9	0.00e+00	0	45	0	638582784	60	4187
2026-01-25 08:07:49.76	60.32	40.18	-44.0	-45.2	21.7	0.00e+00	0	44	0	640679936	59	4151
2026-01-25 08:07:50.74	59.89	40.26	-44.1	-45.3	21.6	0.00e+00	0	44	0	642777088	59	4224
2026-01-25 08:07:51.72	59.46	40.34	-44.4	-45.7	21.3	0.00e+00	0	44	0	644874240	59	4404
2026-01-25 08:07:52.70	59.02	40.42	-44.7	-46.0	21.0	0.00e+00	0	44	0	645922816	59	4589
2026-01-25 08:07:53.69	58.57	40.50	-44.3	-45.5	21.1	0.00e+00	0	45	0	648019968	60	4089
2026-01-25 08:07:54.66	58.13	40.58	-44.1	-45.3	21.6	0.00e+00	0	44	0	650117120	59	4207
2026-01-25 08:07:55.65	57.69	40.66	-44.3	-45.5	21.4	0.00e+00	0	44	0	652214272	59	4339
2026-01-25 08:07:56.63	57.24	40.73	-44.5	-45.8	21.0	0.00e+00	0	44	0	653262848	60	4216
2026-01-25 08:07:57.61	56.79	40.80	-45.0	-46.4	20.4	0.00e+00	0	44	0	655360000	60	4508
2026-01-25 08:07:58.59	56.34	40.87	-45.3	-46.8	20.0	0.00e+00	0	45	0	657457152	61	4471
2026-01-25 08:07:59.57	55.89	40.94	-45.5	-47.0	19.8	0.00e+00	0	45	0	659554304	61	4581
2026-01-25 08:08:00.55	55.43	41.00	-45.6	-47.2	19.8	0.00e+00	0	44	0	660602880	61	4663
2026-01-25 08:08:01.54	54.97	41.07	-45.6	-47.1	19.8	0.00e+00	0	45	0	662700032	62	4376
2026-01-25 08:08:02.52	54.51	41.13	-45.5	-47.0	19.9	0.00e+00	0	44	0	664797184	62	4329
2026-01-25 08:08:03.50	54.05	41.19	-45.5	-47.0	19.9	0.00e+00	0	44	0	666894336	62	4317
2026-01-25 08:08:04.49	53.59	41.25	-45.8	-47.4	19.5	0.00e+00	0	44	0	667942912	62	4536
2026-01-25 08:08:05.47	53.12	41.31	-45.8	-47.3	19.6	0.00e+00	0	45	0	670040064	62	4486
2026-01-25 08:08:06.45	52.66	41.36	-45.8	-47.4	19.6	0.00e+00	0	45	0	672137216	62	4523
2026-01-25 08:08:07.43	52.19	41.41	-45.3	-46.7	20.0	0.00e+00	0	44	0	674234368	62	4185
2026-01-25 08:08:08.41	51.73	41.46	-45.8	-47.3	19.7	0.00e+00	0	44	0	675282944	62	4486
2026-01-25 08:08:09.39	51.26	41.51	-45.6	-47.0	19.9	0.00e+00	0	45	0	677380096	62	4333
2026-01-25 08:08:10.38	50.78	41.56	-45.4	-46.9	20.1	0.00e+00	0	44	0	679477248	62	4262
2026-01-25 08:08:11.36	50.31	41.60	-45.7	-47.2	19.8	0.00e+00	0	44	0	681574400	62	4403
2026-01-25 08:08:12.34	49.84	41.64	-45.8	-47.3	19.7	0.00e+00	0	45	0	683671552	62	4462
2026-01-25 08:08:13.33	49.36	41.68	-45.5	-47.0	20.0	0.00e+00	0	45	0	684720128	62	4311
2026-01-25 08:08:14.31	48.88	41.72	-44.9	-46.2	20.6	0.00e+00	0	45	0	686817280	61	4157
2026-01-25 08:08:15.29	48.41	41.75	-44.3	-45.5	21.3	0.00e+00	0	45	0	688914432	60	4058
2026-01-25 08:08:16.27	47.93	41.79	-44.6	-45.9	21.0	0.00e+00	0	44	0	691011584	60	4253
2026-01-25 08:08:17.25	47.45	41.82	-45.7	-47.2	19.8	0.00e+00	0	44	0	692060160	61	4690
2026-01-25 08:08:18.23	46.97	41.84	-45.8	-47.3	19.8	0.00e+00	0	44	0	694157312	62	4464
2026-01-25 08:08:19.21	46.49	41.87	-46.0	-47.5	19.5	0.00e+00	0	44	0	696254464	62	4568
2026-01-25 08:08:20.20	46.00	41.89	-45.9	-47.5	19.5	0.00e+00	0	45	0	697303040	62	4553
2026-01-25 08:08:21.18	45.52	41.91	-46.3	-48.0	19.1	0.00e+00	0	44	0	699400192	63	4571
2026-01-25 08:08:22.16	45.04	41.93	-46.4	-48.1	18.9	0.00e+00	0	44	0	701497344	63	4636
2026-01-25 08:08:23.14	44.56	41.95	-45.7	-47.2	19.8	0.00e+00	0	44	0	703594496	63	4180
2026-01-25 08:08:24.12	44.08	41.96	-45.7	-47.2	19.9	0.00e+00	0	44	0	704643072	62	4413
2026-01-25 08:08:25.10	43.59	41.98	-46.3	-48.0	19.0	0.00e+00	0	45	0	706740224	63	4557
2026-01-25 08:08:26.08	43.11	41.99	-46.9	-48.9	18.1	0.00e+00	0	44	0	708837376	64	4760
2026-01-25 08:08:27.05	42.63	41.99	-46.7	-48.5	18.4	0.00e+00	0	44	0	710934528	64	4598
2026-01-25 08:08:28.03	42.15	42.00	-46.1	-47.8	19.3	0.00e+00	0	44	0	713031680	63	4452
2026-01-25 08:08:29.01	41.66	42.00	-45.8	-47.3	19.6	0.00e+00	0	44	0	714080256	63	4218
2026-01-25 08:08:29.99	41.18	42.00	-46.1	-47.7	19.3	0.00e+00	0	45	0	716177408	63	4419
2026-01-25 08:08:30.97	40.69	42.00	-46.0	-47.6	19.4	0.00e+00	0	44	0	718274560	63	4370
2026-01-25 08:08:31.95	40.21	42.00	-45.5	-47.0	19.8	0.00e+00	0	45	0	720371712	63	4087
2026-01-25 08:08:32.93	39.73	41.99	-46.0	-47.6	19.4	0.00e+00	0	45	0	721420288	63	4363
2026-01-25 08:08:33.91	39.24	41.98	-46.6	-48.4	18.6	0.00e+00	0	44	0	723517440	63	4794
2026-01-25 08:08:34.90	38.75	41.97	-47.2	-49.3	17.7	0.00e+00	0	45	0	725614592	65	4727
2026-01-25 08:08:35.87	38.27	41.96	-47.8	-50.2	16.6	0.00e+00	0	45	0	727711744	66	4962
2026-01-25 08:08:36.85	37.79	41.94	-48.4	-51.0	16.0	0.00e+00	0	45	0	728760320	67	5139
2026-01-25 08:08:37.83	37.31	41.92	-48.2	-50.7	16.3	0.00e+00	0	44	0	730857472	67	4982
2026-01-25 08:08:38.81	36.83	41.90	-47.9	-50.1	17.0	0.00e+00	0	45	0	732954624	67	4642
2026-01-25 08:08:39.78	36.35	41.88	-47.9	-50.2	16.9	0.00e+00	0	44	0	735051776	67	4668
2026-01-25 08:08:40.76	35.87	41.86	-48.1	-50.5	16.6	0.00e+00	0	45	0	736100352	67	4833
2026-01-25 08:08:41.74	35.39	41.83	-48.3	-50.7	16.3	0.00e+00	0	45	0	738197504	67	4983
2026-01-25 08:08:42.72	34.91	41.80	-47.9	-50.2	16.9	0.00e+00	0	44	0	740294656	67	4686
2026-01-25 08:08:43.70	34.44	41.77	-48.3	-50.7	16.2	0.00e+00	0	45	0	742391808	67	4963
2026-01-25 08:08:44.68	33.96	41.74	-48.6	-51.2	15.8	0.00e+00	0	44	0	743440384	67	5277
2026-01-25 08:08:45.66	33.48	41.70	-48.3	-50.8	16.3	0.00e+00	0	45	0	745537536	68	4729
2026-01-25 08:08:46.63	33.01	41.66	-48.2	-50.7	16.4	0.00e+00	0	45	0	747634688	68	4670
2026-01-25 08:08:47.61	32.54	41.62	-48.4	-51.1	15.8	0.00e+00	0	45	0	748683264	68	4876
2026-01-25 08:08:48.60	32.06	41.58	-49.2	-52.5	14.6	0.00e+00	0	44	0	750780416	69	5436
2026-01-25 08:08:49.57	31.60	41.54	-48.9	-51.8	15.2	0.00e+00	0	45	0	752877568	69	5022
2026-01-25 08:08:50.56	31.12	41.49	-48.5	-51.2	15.9	0.00e+00	0	44	0	754974720	68	4930
2026-01-25 08:08:51.53	30.66	41.44	-48.8	-51.8	15.3	0.00e+00	0	44	0	757071872	68	5296
2026-01-25 08:08:52.51	30.19	41.39	-48.6	-51.5	15.6	0.00e+00	0	44	0	758120448	68	5101
2026-01-25 08:08:53.50	29.72	41.34	-48.4	-51.1	15.7	0.00e+00	0	45	0	760217600	68	4920
2026-01-25 08:08:54.48	29.26	41.28	-48.4	-51.2	15.7	0.00e+00	0	45	0	762314752	68	4967
2026-01-25 08:08:55.45	28.80	41.23	-48.8	-51.9	15.0	0.00e+00	0	44	0	764411904	68	5386
2026-01-25 08:08:56.43	28.34	41.17	-48.6	-51.6	15.5	0.00e+00	0	44	0	765460480	68	5185
2026-01-25 08:08:57.41	27.88	41.11	-48.5	-51.4	15.6	0.00e+00	0	44	0	767557632	68	5074
2026-01-25 08:08:58.40	27.42	41.04	-48.2	-51.0	15.9	0.00e+00	0	45	0	769654784	68	4828
2026-01-25 08:08:59.38	26.97	40.98	-48.6	-51.6	15.3	0.00e+00	0	44	0	771751936	68	5218
2026-01-25 08:09:00.36	26.51	40.91	-47.5	-49.8	17.0	0.00e+00	0	44	0	772800512	67	4491
2026-01-25 08:09:01.34	26.06	40.84	-46.9	-48.8	18.1	0.00e+00	0	44	0	774897664	65	4465
2026-01-25 08:09:02.32	25.61	40.77	-46.0	-47.6	19.3	0.00e+00	0	45	0	776994816	63	4357
2026-01-25 08:09:03.30	25.17	40.70	-46.2	-47.9	19.1	0.00e+00	0	44	0	779091968	63	4526
2026-01-25 08:09:04.28	24.72	40.62	-45.5	-47.0	20.0	0.00e+00	0	45	0	780140544	62	4296
2026-01-25 08:09:05.26	24.28	40.55	-45.3	-46.7	20.2	0.00e+00	0	44	0	782237696	62	4166
2026-01-25 08:09:06.24	23.84	40.47	-45.1	-46.5	20.4	0.00e+00	0	44	0	784334848	61	4306
2026-01-25 08:09:07.22	23.40	40.39	-45.0	-46.4	20.5	0.00e+00	0	45	0	786432000	61	4256
2026-01-25 08:09:08.21	22.96	40.31	-45.2	-46.6	20.2	0.00e+00	0	44	0	787480576	61	4376
2026-01-25 08:09:09.20	22.52	40.23	-45.3	-46.7	20.2	0.00e+00	0	45	0	789577728	61	4432
2026-01-25 08:09:10.18	22.09	40.14	-44.4	-45.7	21.0	0.00e+00	0	44	0	791674880	60	4168
2026-01-25 08:09:11.16	21.66	40.05	-44.5	-45.7	21.0	0.00e+00	0	44	0	793772032	60	4176
2026-01-25 08:09:12.14	21.23	39.97	-44.3	-45.5	21.2	0.00e+00	0	44	0	794820608	60	4072
2026-01-25 08:09:13.12	20.80	39.88	-44.2	-45.4	21.3	0.00e+00	0	45	0	796917760	60	4022
2026-01-25 08:09:14.10	20.38	39.79	-44.3	-45.6	21.1	0.00e+00	0	44	0	799014912	60	4110
2026-01-25 08:09:15.08	19.96	39.69	-44.7	-46.0	20.8	0.00e+00	0	44	0	801112064	60	4325
2026-01-25 08:09:16.06	19.54	39.60	-44.8	-46.1	20.7	0.00e+00	0	44	0	802160640	60	4358
2026-01-25 08:09:17.03	19.13	39.50	-44.4	-45.6	21.4	0.00e+00	0	45	0	804257792	59	4378
2026-01-25 08:09:18.02	18.71	39.41	-44.1	-45.3	21.7	0.00e+00	0	45	0	806354944	59	4218
2026-01-25 08:09:19.00	18.30	39.31	-43.7	-44.9	22.1	0.00e+00	0	45	0	808452096	59	4009
2026-01-25 08:09:19.98	17.89	39.21	-43.4	-44.5	22.3	0.00e+00	0	44	0	809500672	58	4073
2026-01-25 08:09:20.96	17.49	39.11	-43.0	-44.0	22.8	0.00e+00	0	44	0	811597824	58	3844
2026-01-25 08:09:21.94	17.09	39.00	-43.1	-44.1	22.6	0.00e+00	0	45	0	813694976	57	4137
2026-01-25 08:09:22.92	16.69	38.90	-43.7	-44.9	22.1	0.00e+00	0	45	0	815792128	57	4494
2026-01-25 08:09:23.90	16.29	38.80	-44.7	-46.1	21.0	0.00e+00	0	45	0	816840704	59	4601
2026-01-25 08:09:24.88	15.89	38.69	-44.6	-45.9	20.9	0.00e+00	0	45	0	818937856	60	4267
2026-01-25 08:09:25.86	15.50	38.58	-44.6	-45.9	20.9	0.00e+00	0	45	0	821035008	60	4255
2026-01-25 08:09:26.83	15.11	38.47	-44.5	-45.8	21.0	0.00e+00	0	45	0	823132160	60	4197
2026-01-25 08:09:27.81	14.73	38.36	-44.7	-46.0	20.8	0.00e+00	0	44	0	824180736	60	4338
2026-01-25 08:09:28.79	14.34	38.25	-44.1	-45.4	21.4	0.00e+00	0	45	0	826277888	60	4020
2026-01-25 08:09:29.77	13.96	38.14	-43.9	-45.1	21.8	0.00e+00	0	45	0	828375040	59	4111
2026-01-25 08:09:30.75	13.58	38.03	-44.1	-45.2	21.7	0.00e+00	0	45	0	830472192	59	4173
2026-01-25 08:09:31.73	13.20	37.91	-44.5	-45.8	21.0	0.00e+00	0	45	0	832569344	60	4215
2026-01-25 08:09:32.71	12.83	37.80	-44.9	-46.2	20.7	0.00e+00	0	44	0	833617920	60	4439
2026-01-25 08:09:33.69	12.46	37.68	-44.8	-46.1	20.6	0.00e+00	0	44	0	835715072	60	4391
2026-01-25 08:09:34.67	12.09	37.57	-44.2	-45.3	21.7	0.00e+00	0	45	0	837812224	59	4232
2026-01-25 08:09:35.65	11.72	37.45	-43.7	-44.8	22.2	0.00e+00	0	45	0	838860800	58	4203
2026-01-25 08:09:36.64	11.36	37.33	-43.7	-44.7	22.2	0.00e+00	0	45	0	840957952	58	4182
2026-01-25 08:09:37.62	10.99	37.21	-43.8	-44.8	22.2	0.00e+00	0	45	0	843055104	58	4240
2026-01-25 08:09:38.60	10.64	37.09	-43.7	-44.8	22.3	0.00e+00	0	44	0	845152256	58	4224
2026-01-25 08:09:39.58	10.28	36.97	-44.4	-45.6	21.7	0.00e+00	0	45	0	846200832	59	4360
2026-01-25 08:09:40.56	9.93	36.84	-44.9	-46.3	20.8	0.00e+00	0	44	0	848297984	60	4450
2026-01-25 08:09:41.53	9.58	36.72	-46.1	-47.7	19.5	0.00e+00	0	45	0	850395136	62	4661
2026-01-25 08:09:42.51	9.23	36.60	-46.0	-47.5	19.6	0.00e+00	0	44	0	852492288	63	4313
2026-01-25 08:09:43.49	8.89	36.47	-45.4	-46.8	20.2	0.00e+00	0	44	0	853540864	63	3993
2026-01-25 08:09:44.47	8.55	36.35	-44.8	-46.1	20.8	0.00e+00	0	45	0	855638016	61	4112
2026-01-25 08:09:45.45	8.21	36.22	-45.0	-46.4	20.7	0.00e+00	0	45	0	857735168	61	4246
2026-01-25 08:09:46.43	7.87	36.10	-45.6	-47.1	20.1	0.00e+00	0	44	0	859832320	62	4354
2026-01-25 08:09:47.41	7.54	35.97	-45.9	-47.3	19.8	0.00e+00	0	45	0	860880896	62	4487
2026-01-25 08:09:48.39	7.21	35.84	-45.6	-47.0	20.1	0.00e+00	0	45	0	862978048	62	4323
2026-01-25 08:09:49.37	6.88	35.71	-45.0	-46.3	20.7	0.00e+00	0	45	0	865075200	62	3983
2026-01-25 08:09:50.35	6.55	35.58	-45.4	-46.8	20.3	0.00e+00	0	45	0	867172352	62	4202
2026-01-25 08:09:51.33	6.23	35.45	-46.1	-47.6	19.5	0.00e+00	0	45	0	869269504	62	4608
2026-01-25 08:09:52.31	5.91	35.32	-46.5	-48.1	19.0	0.00e+00	0	45	0	870318080	64	4368
2026-01-25 08:09:53.29	5.59	35.19	-46.3	-47.8	19.2	0.00e+00	0	45	0	872415232	64	4222
2026-01-25 08:09:54.27	5.27	35.06	-46.8	-48.6	18.5	0.00e+00	0	44	0	874512384	64	4616
2026-01-25 08:09:55.26	4.96	34.93	-47.2	-49.1	18.0	0.00e+00	0	45	0	876609536	64	4895
2026-01-25 08:09:56.24	4.64	34.80	-47.4	-49.3	17.9	0.00e+00	0	45	0	877658112	65	4722
2026-01-25 08:09:57.22	4.34	34.67	-46.4	-48.0	19.0	0.00e+00	0	45	0	879755264	64	4309
2026-01-25 08:09:58.20	4.03	34.53	-45.9	-47.4	19.8	0.00e+00	0	45	0	881852416	63	4247
2026-01-25 08:09:59.18	3.73	34.40	-45.6	-46.9	20.2	0.00e+00	0	45	0	883949568	63	4049
2026-01-25 08:10:00.16	3.43	34.27	-45.8	-47.2	19.9	0.00e+00	0	45	0	884998144	63	4178
2026-01-25 08:10:01.14	3.13	34.13	-45.1	-46.3	20.7	0.00e+00	0	45	0	887095296	62	3993
2026-01-25 08:10:02.13	2.83	34.00	-44.9	-46.0	21.0	0.00e+00	0	45	0	889192448	61	4093
2026-01-25 08:10:03.10	2.54	33.87	-44.7	-45.9	21.0	0.00e+00	0	45	0	890241024	61	4020
2026-01-25 08:10:04.09	2.24	33.73	-45.3	-46.6	20.4	0.00e+00	0	45	0	892338176	61	4360
2026-01-25 08:10:05.07	1.96	33.60	-46.6	-48.2	19.1	0.00e+00	0	45	0	894435328	63	4662
2026-01-25 08:10:06.05	1.67	33.46	-47.2	-49.0	18.1	0.00e+00	0	45	0	896532480	64	4849
2026-01-25 08:10:07.03	1.39	33.32	-47.3	-49.1	18.0	0.00e+00	0	45	0	898629632	65	4622
2026-01-25 08:10:08.01	1.11	33.19	-46.5	-48.1	18.9	0.00e+00	0	45	0	899678208	64	4371
2026-01-25 08:10:08.99	0.83	33.05	-46.3	-47.8	19.3	0.00e+00	0	45	0	901775360	64	4210
2026-01-25 08:10:09.97	0.55	32.92	-46.3	-47.8	19.2	0.00e+00	0	45	0	903872512	64	4225
2026-01-25 08:10:10.95	0.28	32.78	-46.7	-48.4	18.6	0.00e+00	0	45	0	905969664	64	4522
2026-01-25 08:10:11.93	0.00	32.65	-47.2	-49.1	18.0	0.00e+00	0	45	0	907018240	65	4627
2026-01-25 08:10:12.91	359.73	32.51	-47.9	-50.1	17.0	0.00e+00	0	45	0	909115392	66	4921
2026-01-25 08:10:13.89	359.47	32.37	-48.3	-50.6	16.4	0.00e+00	0	45	0	911212544	67	4912
2026-01-25 08:10:14.87	359.20	32.24	-49.2	-52.1	15.1	0.00e+00	0	45	0	913309696	69	5216
2026-01-25 08:10:15.85	358.94	32.10	-49.9	-53.4	13.9	0.00e+00	0	45	0	914358272	70	5703
2026-01-25 08:10:16.83	358.68	31.97	-49.9	-53.3	13.8	3.80e-06	0	45	0	916455424	70	5632
2026-01-25 08:10:17.81	358.42	31.83	-48.8	-51.3	15.9	0.00e+00	0	45	0	918552576	69	4714
2026-01-25 08:10:18.79	358.16	31.69	-47.7	-49.6	17.4	0.00e+00	0	45	0	920649728	67	4391
2026-01-25 08:10:19.77	357.91	31.56	-46.6	-48.2	18.8	0.00e+00	0	45	0	921698304	65	4186
2026-01-25 08:10:20.75	357.66	31.42	-46.8	-48.5	18.5	0.00e+00	0	45	0	923795456	65	4294
2026-01-25 08:10:21.73	357.41	31.28	-47.3	-49.1	17.9	0.00e+00	0	45	0	925892608	65	4644
2026-01-25 08:10:22.71	357.16	31.15	-47.9	-50.0	17.1	0.00e+00	0	45	0	927989760	66	4834
2026-01-25 08:10:23.69	356.91	31.01	-47.6	-49.7	17.3	0.00e+00	0	45	0	929038336	66	4669
2026-01-25 08:10:24.67	356.67	30.87	-47.4	-49.3	17.7	0.00e+00	0	45	0	931135488	66	4479
2026-01-25 08:10:25.65	356.43	30.74	-47.2	-49.0	18.1	0.00e+00	0	45	0	933232640	66	4294
2026-01-25 08:10:26.63	356.19	30.60	-46.9	-48.7	18.3	0.00e+00	0	45	0	935329792	65	4396
2026-01-25 08:10:27.61	355.95	30.47	-46.7	-48.4	18.6	0.00e+00	0	45	0	936378368	65	4282
2026-01-25 08:10:28.59	355.72	30.33	-46.7	-48.4	18.6	0.00e+00	0	45	0	938475520	65	4284
2026-01-25 08:10:29.57	355.48	30.19	-47.1	-48.9	18.0	0.00e+00	0	45	0	940572672	65	4540
2026-01-25 08:10:30.55	355.25	30.06	-47.3	-49.2	17.9	0.00e+00	0	45	0	942669824	65	4677
2026-01-25 08:10:31.53	355.02	29.92	-47.4	-49.3	17.8	0.00e+00	0	45	0	943718400	65	4745
2026-01-25 08:10:32.50	354.80	29.79	-47.5	-49.4	17.6	0.00e+00	0	45	0	945815552	65	4803
2026-01-25 08:10:33.48	354.57	29.65	-48.0	-50.1	17.1	0.00e+00	0	45	0	947912704	66	4894
2026-01-25 08:10:34.45	354.35	29.52	-47.3	-49.2	17.9	0.00e+00	0	45	0	950009856	66	4418
2026-01-25 08:10:35.43	354.13	29.38	-47.5	-49.5	17.6	0.00e+00	0	45	0	951058432	66	4551
2026-01-25 08:10:36.41	353.91	29.25	-47.2	-49.0	18.0	0.00e+00	0	45	0	953155584	66	4295
2026-01-25 08:10:37.39	353.69	29.11	-46.7	-48.4	18.6	0.00e+00	0	45	0	955252736	64	4519
2026-01-25 08:10:38.37	353.48	28.98	-46.1	-47.7	19.2	0.00e+00	0	45	0	957349888	64	4166
2026-01-25 08:10:39.35	353.26	28.84	-46.1	-47.7	19.2	0.00e+00	0	45	0	958398464	64	4178
2026-01-25 08:10:40.33	353.05	28.71	-46.4	-48.0	19.0	0.00e+00	0	45	0	960495616	64	4305
2026-01-25 08:10:41.31	352.84	28.58	-46.3	-47.9	19.0	0.00e+00	0	45	0	962592768	64	4282
2026-01-25 08:10:42.30	352.63	28.44	-46.1	-47.6	19.4	0.00e+00	0	45	0	964689920	63	4354
2026-01-25 08:10:43.27	352.42	28.31	-45.7	-47.2	19.8	0.00e+00	0	45	0	965738496	63	4151
2026-01-25 08:10:44.25	352.22	28.18	-45.8	-47.3	19.7	0.00e+00	0	45	0	967835648	63	4208
2026-01-25 08:10:45.23	352.01	28.04	-45.2	-46.5	20.4	0.00e+00	0	45	0	969932800	62	4086
2026-01-25 08:10:46.21	351.81	27.91	-45.6	-47.0	19.9	0.00e+00	0	45	0	972029952	62	4323
2026-01-25 08:10:47.20	351.61	27.78	-45.8	-47.2	19.8	0.00e+00	0	45	0	973078528	62	4414
2026-01-25 08:10:48.17	351.41	27.64	-46.0	-47.5	19.5	0.00e+00	0	45	0	975175680	62	4594
2026-01-25 08:10:49.15	351.21	27.51	-46.0	-47.5	19.5	0.00e+00	0	45	0	977272832	63	4322
2026-01-25 08:10:50.13	351.02	27.38	-46.4	-48.1	19.1	0.00e+00	0	45	0	979369984	63	4611
2026-01-25 08:10:51.10	350.83	27.25	-46.3	-48.0	18.9	0.00e+00	0	45	0	980418560	64	4301
2026-01-25 08:10:52.08	350.64	27.12	-46.4	-48.1	18.8	0.00e+00	0	44	0	982515712	64	4353
2026-01-25 08:10:53.06	350.45	26.99	-46.5	-48.1	18.8	0.00e+00	0	45	0	984612864	64	4371
2026-01-25 08:10:54.04	350.26	26.86	-46.3	-48.0	19.0	0.00e+00	0	45	0	986710016	64	4303
2026-01-25 08:10:55.02	350.07	26.73	-46.6	-48.3	18.6	0.00e+00	0	45	0	987758592	64	4458
2026-01-25 08:10:56.00	349.88	26.60	-46.1	-47.6	19.3	0.00e+00	0	45	0	989855744	63	4388
2026-01-25 08:10:56.98	349.70	26.47	-46.1	-47.7	19.3	0.00e+00	0	45	0	991952896	63	4400
2026-01-25 08:10:57.96	349.52	26.34	-45.9	-47.3	19.6	0.00e+00	0	45	0	994050048	63	4237
2026-01-25 08:10:58.94	349.34	26.21	-46.0	-47.5	19.4	0.00e+00	0	45	0	995098624	63	4328
2026-01-25 08:10:59.92	349.16	26.08	-45.6	-47.0	19.8	0.00e+00	0	45	0	997195776	63	4092
2026-01-25 08:11:00.90	348.98	25.95	-45.7	-47.1	20.0	0.00e+00	0	45	0	999292928	62	4349
2026-01-25 08:11:01.88	348.80	25.82	-45.5	-46.9	20.1	0.00e+00	0	45	0	1001390080	62	4248
2026-01-25 08:11:02.86	348.63	25.69	-45.2	-46.5	20.3	0.00e+00	0	45	0	1002438656	62	4088
2026-01-25 08:11:03.84	348.45	25.56	-45.3	-46.6	20.2	0.00e+00	0	45	0	1004535808	62	4123
2026-01-25 08:11:04.82	348.28	25.44	-45.3	-46.6	20.2	0.00e+00	0	45	0	1006632960	62	4139
2026-01-25 08:11:05.80	348.11	25.31	-45.3	-46.6	20.2	0.00e+00	0	45	0	1008730112	62	4141
2026-01-25 08:11:06.78	347.94	25.18	-44.9	-46.2	20.6	0.00e+00	0	45	0	1009778688	61	4160
2026-01-25 08:11:07.76	347.77	25.06	-45.5	-46.9	20.0	0.00e+00	0	45	0	1011875840	61	4517
2026-01-25 08:11:08.74	347.60	24.93	-45.7	-47.2	19.8	0.00e+00	0	45	0	1013972992	62	4394
2026-01-25 08:11:09.72	347.44	24.80	-45.9	-47.4	19.5	0.00e+00	0	45	0	1016070144	62	4514
2026-01-25 08:11:10.70	347.27	24.68	-45.9	-47.3	19.6	0.00e+00	0	45	0	1017118720	62	4483
2026-01-25 08:11:11.67	347.11	24.55	-46.0	-47.5	19.4	0.00e+00	0	45	0	1019215872	62	4589
2026-01-25 08:11:12.65	346.95	24.43	-45.7	-47.1	19.7	0.00e+00	0	45	0	1021313024	62	4360
2026-01-25 08:11:13.63	346.79	24.31	-45.2	-46.5	20.3	0.00e+00	0	45	0	1023410176	62	4073
2026-01-25 08:11:14.61	346.63	24.18	-45.0	-46.3	20.5	0.00e+00	0	45	0	1024458752	61	4223
2026-01-25 08:11:15.59	346.47	24.06	-44.7	-45.9	20.8	0.00e+00	0	45	0	1026555904	61	4042
2026-01-25 08:11:16.56	346.32	23.94	-44.6	-45.9	20.9	0.00e+00	0	45	0	1028653056	61	4017
2026-01-25 08:11:17.55	346.16	23.81	-44.5	-45.7	21.0	0.00e+00	0	45	0	1030750208	60	4164
2026-01-25 08:11:18.52	346.01	23.69	-45.0	-46.3	20.5	0.00e+00	0	45	0	1031798784	60	4479
2026-01-25 08:11:19.50	345.86	23.57	-45.5	-46.9	20.0	0.00e+00	0	45	0	1033895936	61	4525
2026-01-25 08:11:20.48	345.71	23.45	-45.9	-47.4	19.5	0.00e+00	0	45	0	1035993088	62	4537
2026-01-25 08:11:21.46	345.56	23.32	-46.6	-48.3	18.7	0.00e+00	0	45	0	1038090240	63	4719
2026-01-25 08:11:22.44	345.41	23.20	-46.9	-48.7	18.2	0.00e+00	0	45	0	1039138816	64	4689
2026-01-25 08:11:23.42	345.26	23.08	-46.9	-48.8	18.1	0.00e+00	0	45	0	1041235968	64	4709
2026-01-25 08:11:24.40	345.11	22.96	-47.0	-48.8	18.0	0.00e+00	0	45	0	1043333120	64	4728
2026-01-25 08:11:25.38	344.97	22.84	-47.0	-48.8	18.0	0.00e+00	0	45	0	1045430272	64	4752
2026-01-25 08:11:26.36	344.82	22.72	-46.8	-48.5	18.4	0.00e+00	0	45	0	1046478848	64	4575
2026-01-25 08:11:27.33	344.68	22.60	-46.6	-48.3	18.6	0.00e+00	0	45	0	1048576000	64	4455
2026-01-25 08:11:28.31	344.54	22.48	-46.5	-48.2	18.6	0.00e+00	0	45	0	1050673152	64	4434
2026-01-25 08:11:29.29	344.40	22.36	-46.7	-48.4	18.4	0.00e+00	0	45	0	1052770304	64	4544
2026-01-25 08:11:30.27	344.26	22.25	-47.1	-48.9	18.0	0.00e+00	0	45	0	1053818880	64	4795
2026-01-25 08:11:31.24	344.12	22.13	-46.9	-48.7	18.2	0.00e+00	0	45	0	1055916032	64	4662
2026-01-25 08:11:32.22	343.98	22.01	-46.9	-48.7	18.2	0.00e+00	0	45	0	1058013184	64	4694
2026-01-25 08:11:33.20	343.84	21.89	-46.7	-48.4	18.4	0.00e+00	0	45	0	1060110336	64	4515
2026-01-25 08:11:34.18	343.71	21.78	-46.7	-48.4	18.4	0.00e+00	0	45	0	1061158912	64	4538
2026-01-25 08:11:35.16	343.57	21.66	-46.7	-48.4	18.4	0.00e+00	0	45	0	1063256064	64	4519
2026-01-25 08:11:36.14	343.44	21.54	-46.3	-47.9	18.9	0.00e+00	0	45	0	1065353216	64	4277
2026-01-25 08:11:37.12	343.31	21.43	-46.2	-47.8	19.0	0.00e+00	0	45	0	1067450368	64	4214
2026-01-25 08:11:38.10	343.18	21.31	-46.1	-47.7	19.2	0.00e+00	0	45	0	1068498944	63	4395
2026-01-25 08:11:39.08	343.05	21.20	-46.1	-47.6	19.3	0.00e+00	0	45	0	1070596096	63	4361
2026-01-25 08:11:40.06	342.92	21.08	-45.7	-47.2	19.6	0.00e+00	0	45	0	1072693248	63	4156
2026-01-25 08:11:41.03	342.79	20.97	-45.7	-47.1	19.7	0.00e+00	0	45	0	1074790400	63	4134
2026-01-25 08:11:42.01	342.66	20.86	-45.5	-46.9	19.9	0.00e+00	0	45	0	1075838976	62	4255
2026-01-25 08:11:42.99	342.53	20.74	-45.4	-46.8	19.9	0.00e+00	0	45	0	1077936128	62	4224
2026-01-25 08:11:43.97	342.41	20.63	-45.5	-46.9	19.9	0.00e+00	0	45	0	1080033280	62	4274
2026-01-25 08:11:44.95	342.28	20.51	-45.3	-46.7	20.1	0.00e+00	0	45	0	1082130432	62	4179
2026-01-25 08:11:45.93	342.16	20.40	-45.4	-46.8	20.0	0.00e+00	0	45	0	1083179008	62	4206
2026-01-25 08:11:46.90	342.04	20.29	-45.3	-46.7	20.1	0.00e+00	0	45	0	1085276160	62	4171
2026-01-25 08:11:47.88	341.92	20.18	-45.7	-47.2	19.6	0.00e+00	0	45	0	1087373312	62	4403
2026-01-25 08:11:48.86	341.79	20.07	-46.1	-47.7	19.1	0.00e+00	0	45	0	1089470464	62	4656
2026-01-25 08:11:49.84	341.67	19.96	-46.1	-47.7	19.2	0.00e+00	0	45	0	1090519040	63	4406
2026-01-25 08:11:50.82	341.56	19.85	-46.4	-48.0	18.9	0.00e+00	0	45	0	1092616192	63	4585
2026-01-25 08:11:51.79	341.44	19.74	-46.7	-48.4	18.4	0.00e+00	0	45	0	1094713344	64	4512
2026-01-25 08:11:52.77	341.32	19.63	-46.7	-48.4	18.4	0.00e+00	0	45	0	1096810496	64	4531
2026-01-25 08:11:53.74	341.20	19.52	-46.3	-48.0	18.7	0.00e+00	0	45	0	1097859072	64	4308
2026-01-25 08:11:54.72	341.09	19.41	-46.4	-48.0	18.8	0.00e+00	0	45	0	1099956224	64	4330
2026-01-25 08:11:55.70	340.97	19.30	-46.3	-47.9	18.8	0.00e+00	0	45	0	1102053376	64	4278
2026-01-25 08:11:56.67	340.86	19.19	-46.1	-47.7	19.0	0.00e+00	0	45	0	1104150528	64	4180
2026-01-25 08:11:57.64	340.75	19.08	-46.1	-47.6	19.1	0.00e+00	0	45	0	1105199104	64	4124
2026-01-25 08:11:58.62	340.64	18.98	-46.2	-47.8	19.1	0.00e+00	0	45	0	1107296256	63	4449
2026-01-25 08:11:59.60	340.52	18.87	-46.0	-47.6	19.3	0.00e+00	0	45	0	1109393408	63	4348
2026-01-25 08:12:00.58	340.41	18.76	-46.2	-47.7	19.1	0.00e+00	0	45	0	1111490560	63	4425
2026-01-25 08:12:01.56	340.30	18.65	-46.4	-48.0	18.8	0.00e+00	0	45	0	1112539136	63	4564
2026-01-25 08:12:02.53	340.20	18.55	-46.5	-48.1	18.7	0.00e+00	0	45	0	1114636288	63	4648
2026-01-25 08:12:03.51	340.09	18.44	-46.6	-48.3	18.5	0.00e+00	0	45	0	1116733440	63	4755
2026-01-25 08:12:04.49	339.98	18.34	-46.6	-48.3	18.4	0.00e+00	0	45	0	1118830592	64	4484
2026-01-25 08:12:05.47	339.87	18.23	-46.7	-48.5	18.2	0.00e+00	0	45	0	1119879168	64	4580
2026-01-25 08:12:06.44	339.77	18.13	-46.7	-48.5	18.2	0.00e+00	0	45	0	1121976320	64	4583
2026-01-25 08:12:07.42	339.66	18.02	-46.8	-48.5	18.2	0.00e+00	0	45	0	1124073472	64	4595
2026-01-25 08:12:08.40	339.56	17.92	-47.0	-48.9	17.9	0.00e+00	0	45	0	1126170624	64	4770
2026-01-25 08:12:09.38	339.45	17.81	-47.0	-48.9	17.9	0.00e+00	0	45	0	1127219200	64	4770
2026-01-25 08:12:10.35	339.35	17.71	-47.1	-49.0	17.8	0.00e+00	0	45	0	1129316352	65	4575
2026-01-25 08:12:11.33	339.25	17.61	-47.1	-49.0	17.8	0.00e+00	0	45	0	1131413504	65	4569
2026-01-25 08:12:12.31	339.15	17.50	-47.1	-49.0	17.8	0.00e+00	0	45	0	1133510656	65	4558
2026-01-25 08:12:13.29	339.05	17.40	-46.9	-48.7	18.0	0.00e+00	0	45	0	1134559232	65	4438
2026-01-25 08:12:14.27	338.94	17.30	-46.7	-48.5	18.2	0.00e+00	0	45	0	1136656384	65	4330
2026-01-25 08:12:15.24	338.85	17.20	-46.6	-48.3	18.4	0.00e+00	0	45	0	1138753536	65	4230
2026-01-25 08:12:16.22	338.75	17.10	-46.3	-47.9	18.7	0.00e+00	0	45	0	1139802112	64	4286
2026-01-25 08:12:17.20	338.65	16.99	-46.2	-47.8	18.9	0.00e+00	0	45	0	1141899264	64	4210
2026-01-25 08:12:18.17	338.55	16.89	-46.0	-47.5	19.1	0.00e+00	0	45	0	1143996416	63	4327
2026-01-25 08:12:19.15	338.46	16.79	-45.8	-47.3	19.4	0.00e+00	0	45	0	1146093568	63	4219
2026-01-25 08:12:20.12	338.36	16.69	-45.8	-47.2	19.4	0.00e+00	0	45	0	1147142144	63	4188
2026-01-25 08:12:21.10	338.26	16.59	-45.6	-47.1	19.6	0.00e+00	0	45	0	1149239296	63	4105
2026-01-25 08:12:22.07	338.17	16.49	-45.6	-47.0	19.7	0.00e+00	0	45	0	1151336448	62	4308
2026-01-25 08:12:23.05	338.08	16.39	-45.3	-46.7	19.9	0.00e+00	0	45	0	1153433600	62	4182
2026-01-25 08:12:24.03	337.98	16.30	-45.5	-47.0	19.7	0.00e+00	0	45	0	1155530752	62	4293
2026-01-25 08:12:25.01	337.89	16.20	-45.4	-46.9	19.8	0.00e+00	0	45	0	1156579328	62	4250
2026-01-25 08:12:25.99	337.80	16.10	-45.6	-47.1	19.6	0.00e+00	0	45	0	1158676480	62	4355
2026-01-25 08:12:26.97	337.71	16.00	-45.8	-47.4	19.3	0.00e+00	0	45	0	1160773632	62	4494
2026-01-25 08:12:27.94	337.62	15.90	-45.9	-47.4	19.3	0.00e+00	0	45	0	1162870784	62	4524
2026-01-25 08:12:28.92	337.52	15.81	-45.9	-47.5	19.2	0.00e+00	0	45	0	1163919360	62	4560
2026-01-25 08:12:29.89	337.44	15.71	-45.9	-47.5	19.2	0.00e+00	0	45	0	1166016512	62	4571
2026-01-25 08:12:30.87	337.35	15.61	-46.1	-47.7	18.9	0.00e+00	0	45	0	1168113664	62	4655
2026-01-25 08:12:31.85	337.26	15.52	-46.0	-47.6	19.0	0.00e+00	0	45	0	1170210816	63	4371
2026-01-25 08:12:32.82	337.17	15.42	-46.2	-47.9	18.8	0.00e+00	0	45	0	1171259392	63	4506
2026-01-25 08:12:33.80	337.08	15.32	-46.2	-47.8	18.9	0.00e+00	0	45	0	1173356544	63	4457
2026-01-25 08:12:34.78	337.00	15.23	-46.1	-47.7	19.0	0.00e+00	0	45	0	1175453696	63	4415
2026-01-25 08:12:35.76	336.91	15.13	-46.1	-47.6	19.1	0.00e+00	0	45	0	1177550848	63	4386
2026-01-25 08:12:36.74	336.82	15.04	-46.0	-47.5	19.2	0.00e+00	0	45	0	1178599424	63	4330
2026-01-25 08:12:37.72	336.74	14.94	-46.0	-47.6	19.1	0.00e+00	0	45	0	1180696576	63	4371
2026-01-25 08:12:38.69	336.65	14.85	-45.9	-47.5	19.2	0.00e+00	0	45	0	1182793728	63	4302
2026-01-25 08:12:39.67	336.57	14.75	-46.1	-47.6	19.0	0.00e+00	0	45	0	1183842304	63	4387
2026-01-25 08:12:40.65	336.49	14.66	-46.3	-48.0	18.8	0.00e+00	0	45	0	1185939456	63	4553
2026-01-25 08:12:41.63	336.40	14.57	-46.5	-48.2	18.5	0.00e+00	0	45	0	1188036608	63	4673
2026-01-25 08:12:42.61	336.32	14.47	-46.7	-48.5	18.2	0.00e+00	0	45	0	1190133760	63	4855
2026-01-25 08:12:43.58	336.24	14.38	-46.6	-48.4	18.2	0.00e+00	0	45	0	1191182336	64	4521
2026-01-25 08:12:44.56	336.16	14.29	-46.9	-48.8	17.8	0.00e+00	0	45	0	1193279488	64	4728
2026-01-25 08:12:45.54	336.08	14.20	-47.2	-49.2	17.4	0.00e+00	0	45	0	1195376640	65	4690
2026-01-25 08:12:46.51	336.00	14.10	-47.1	-49.1	17.5	0.00e+00	0	45	0	1197473792	65	4634
2026-01-25 08:12:47.49	335.92	14.01	-47.5	-49.6	17.0	0.00e+00	0	45	0	1198522368	65	4891
2026-01-25 08:12:48.46	335.84	13.92	-47.6	-49.8	16.9	0.00e+00	0	45	0	1200619520	66	4708
2026-01-25 08:12:49.44	335.76	13.83	-47.7	-49.9	16.7	0.00e+00	0	45	0	1202716672	66	4781
2026-01-25 08:12:50.42	335.68	13.74	-47.8	-50.1	16.6	0.00e+00	0	45	0	1204813824	66	4882
