passes_logs/2026/01/25/R3.2S_Murmansk/R3.2S_Murmansk__20260125_130558_SUOMI_NPP_rec.log

#Pass ID: 20260125_130558_SUOMI NPP
#Satellite: SUOMI NPP
#Configuration: NPP
#almurnet v.1.7.20251203
#Start time: 2026-01-25 13:06:00

#Version: 2.2.20231116
#Station: R3.2S_Murmansk
#Location: 33.079688 lon 68.888172 lat
#TLE: 1 37849U 11061A   26024.97198022  .00000188  00000+0  11029-3 0  9994
#TLE: 2 37849  98.7821 326.9352 0002187  46.6646 313.4712 14.19529581738125

#Time	Az	El	Level	Level2	SNR	BER	BlckErr	Temp	State	Recorded	gain1	gain2
2026-01-25 13:06:00.61	243.57	2.09	-52.2	-67.2	3.8	1.49e+00	0	41	0	0	76	19712
2026-01-25 13:06:01.61	243.67	2.13	-52.2	-67.2	3.8	1.49e+00	0	41	104	0	75	20883
2026-01-25 13:06:02.60	243.77	2.18	-52.2	-67.2	3.8	1.49e+00	0	41	104	0	75	20813
2026-01-25 13:06:03.58	243.87	2.22	-52.2	-67.2	3.8	1.49e+00	0	41	104	0	75	20813
2026-01-25 13:06:04.57	243.97	2.26	-52.2	-67.2	3.8	1.49e+00	0	41	104	0	75	20850
2026-01-25 13:06:05.55	244.07	2.31	-52.2	-67.2	3.8	1.49e+00	0	41	104	0	75	20869
2026-01-25 13:06:06.54	244.17	2.35	-52.2	-67.2	3.8	1.49e+00	0	41	104	0	75	20797
2026-01-25 13:06:07.53	244.27	2.40	-52.2	-67.2	3.8	1.49e+00	0	41	104	0	75	20807
2026-01-25 13:06:08.51	244.37	2.44	-52.2	-67.1	3.8	1.49e+00	0	41	104	0	75	20763
2026-01-25 13:06:09.50	244.47	2.48	-52.2	-67.2	3.8	1.49e+00	0	41	104	0	75	20783
2026-01-25 13:06:10.49	244.57	2.53	-52.2	-67.2	3.8	1.49e+00	0	41	104	0	75	20796
2026-01-25 13:06:11.48	244.67	2.57	-52.2	-67.2	3.8	1.49e+00	0	41	104	0	75	20780
2026-01-25 13:06:12.46	244.78	2.61	-52.2	-67.2	3.8	1.49e+00	0	41	104	0	75	20796
2026-01-25 13:06:13.45	244.88	2.66	-52.2	-67.2	3.8	1.49e+00	0	41	104	0	75	20808
2026-01-25 13:06:14.44	244.98	2.70	-52.2	-67.2	3.8	1.49e+00	0	41	104	0	75	20782
2026-01-25 13:06:15.42	245.08	2.74	-52.2	-67.1	3.8	1.49e+00	0	41	104	0	75	20770
2026-01-25 13:06:16.41	245.19	2.79	-52.2	-67.1	3.8	1.49e+00	0	41	104	0	75	20751
2026-01-25 13:06:17.40	245.29	2.83	-52.2	-67.1	3.8	1.49e+00	0	41	104	0	75	20723
2026-01-25 13:06:18.39	245.39	2.88	-52.2	-67.1	3.8	1.49e+00	0	42	104	0	75	20722
2026-01-25 13:06:19.37	245.50	2.92	-52.2	-67.1	3.8	1.49e+00	0	41	104	0	75	20740
2026-01-25 13:06:20.35	245.60	2.96	-52.2	-67.2	3.8	1.49e+00	0	41	104	0	75	20857
2026-01-25 13:06:21.34	245.71	3.01	-52.2	-67.2	3.8	1.49e+00	0	42	104	0	75	20828
2026-01-25 13:06:22.32	245.81	3.05	-52.2	-67.2	3.8	1.49e+00	0	41	104	0	75	20790
2026-01-25 13:06:23.31	245.91	3.09	-52.2	-67.2	3.8	1.49e+00	0	42	104	0	75	20803
2026-01-25 13:06:24.29	246.02	3.14	-52.2	-67.2	3.8	1.49e+00	0	42	104	0	75	20845
2026-01-25 13:06:25.28	246.13	3.18	-52.2	-67.2	3.8	1.49e+00	0	42	104	0	75	20816
2026-01-25 13:06:26.26	246.23	3.22	-52.2	-67.2	3.8	1.49e+00	0	42	104	0	75	20841
2026-01-25 13:06:27.25	246.34	3.27	-52.2	-67.2	3.8	1.49e+00	0	42	104	0	75	20802
2026-01-25 13:06:28.23	246.44	3.31	-52.2	-67.2	3.8	1.49e+00	0	41	104	0	75	20823
2026-01-25 13:06:29.22	246.55	3.35	-52.2	-67.2	3.8	1.49e+00	0	42	104	0	75	20818
2026-01-25 13:06:30.20	246.66	3.40	-52.2	-67.2	3.8	1.49e+00	0	42	104	0	75	20793
2026-01-25 13:06:31.19	246.76	3.44	-52.2	-67.2	3.8	1.49e+00	0	42	104	0	75	20790
2026-01-25 13:06:32.18	246.87	3.48	-52.2	-67.1	3.8	1.49e+00	0	42	104	0	75	20764
2026-01-25 13:06:33.16	246.98	3.53	-52.2	-67.1	3.8	1.49e+00	0	42	104	0	75	20693
2026-01-25 13:06:34.16	247.09	3.57	-52.2	-67.1	3.8	1.49e+00	0	42	104	0	75	20724
2026-01-25 13:06:35.14	247.20	3.61	-52.2	-67.1	3.8	1.49e+00	0	42	104	0	75	20596
2026-01-25 13:06:36.14	247.31	3.66	-52.2	-67.1	3.8	1.49e+00	0	42	104	0	75	20615
2026-01-25 13:06:37.12	247.42	3.70	-52.2	-67.1	3.8	1.49e+00	0	42	104	0	75	20646
2026-01-25 13:06:38.11	247.53	3.75	-52.2	-67.1	3.8	1.49e+00	0	42	104	0	75	20757
2026-01-25 13:06:39.10	247.64	3.79	-52.2	-67.1	3.8	1.49e+00	0	42	104	0	75	20644
2026-01-25 13:06:40.09	247.75	3.83	-52.2	-67.1	3.8	1.49e+00	0	42	104	0	75	20772
2026-01-25 13:06:41.07	247.86	3.88	-52.2	-67.1	3.8	1.49e+00	0	42	104	0	75	20708
2026-01-25 13:06:42.06	247.97	3.92	-52.2	-67.1	3.8	1.49e+00	0	42	104	0	75	20605
2026-01-25 13:06:43.05	248.08	3.96	-52.2	-67.1	3.8	1.49e+00	0	42	104	0	75	20664
2026-01-25 13:06:44.04	248.19	4.01	-52.2	-67.0	3.8	1.49e+00	0	42	104	0	75	20505
2026-01-25 13:06:45.03	248.30	4.05	-52.2	-66.9	3.8	1.49e+00	0	42	104	0	75	20208
2026-01-25 13:06:46.02	248.42	4.09	-52.2	-66.9	3.8	1.49e+00	0	42	104	0	75	20216
2026-01-25 13:06:47.01	248.53	4.14	-52.2	-66.9	3.8	1.49e+00	0	42	104	0	75	20229
2026-01-25 13:06:48.00	248.64	4.18	-52.2	-67.0	3.8	1.49e+00	0	42	104	0	75	20527
2026-01-25 13:06:48.99	248.76	4.22	-52.2	-67.1	3.8	1.49e+00	0	42	104	0	75	20672
2026-01-25 13:06:49.97	248.87	4.27	-52.2	-67.1	3.8	1.49e+00	0	42	104	0	75	20745
2026-01-25 13:06:50.96	248.98	4.31	-52.2	-67.2	3.8	1.49e+00	0	42	104	0	75	20811
2026-01-25 13:06:51.95	249.10	4.35	-52.2	-67.1	3.8	1.49e+00	0	42	104	0	75	20761
2026-01-25 13:06:52.94	249.21	4.40	-52.2	-67.1	3.8	1.49e+00	0	42	104	0	75	20761
2026-01-25 13:06:53.93	249.33	4.44	-52.2	-67.1	3.8	1.49e+00	0	42	104	0	75	20543
2026-01-25 13:06:54.92	249.44	4.48	-52.2	-66.7	3.8	1.49e+00	0	42	104	0	75	19779
2026-01-25 13:06:55.90	249.56	4.53	-52.2	-66.3	3.8	1.49e+00	0	42	104	0	75	18819
2026-01-25 13:06:56.89	249.67	4.57	-52.1	-65.5	3.8	1.49e+00	0	42	104	0	75	17157
2026-01-25 13:06:57.87	249.79	4.61	-52.1	-65.3	3.8	1.49e+00	0	42	104	0	75	16773
2026-01-25 13:06:58.86	249.90	4.65	-52.1	-65.3	3.8	1.49e+00	0	42	104	0	75	16746
2026-01-25 13:06:59.85	250.02	4.70	-52.1	-65.3	3.8	1.49e+00	0	42	104	0	75	16768
2026-01-25 13:07:00.83	250.14	4.74	-52.0	-63.6	4.2	1.48e+00	0	42	104	0	75	13819
2026-01-25 13:07:01.81	250.25	4.78	-51.8	-61.1	5.2	9.73e-01	0	42	0	1048576	75	10382
2026-01-25 13:07:02.80	250.37	4.83	-51.1	-57.5	8.3	2.41e-01	0	42	0	3145728	74	7230
2026-01-25 13:07:03.79	250.49	4.87	-50.3	-55.0	10.8	4.56e-03	0	42	0	4194304	72	6120
2026-01-25 13:07:04.78	250.61	4.91	-49.5	-53.0	13.0	1.71e-04	0	42	0	6291456	70	5433
2026-01-25 13:07:05.77	250.73	4.95	-48.5	-51.3	14.8	3.80e-06	0	42	0	8388608	69	4740
2026-01-25 13:07:06.76	250.85	5.00	-48.3	-51.0	15.1	0.00e+00	0	42	0	10485760	68	4860
2026-01-25 13:07:07.75	250.97	5.04	-48.1	-50.7	15.4	0.00e+00	0	42	0	12582912	68	4659
2026-01-25 13:07:08.73	251.09	5.08	-51.4	-59.2	6.9	1.31e-04	0	43	0	13631488	73	9368
2026-01-25 13:07:09.72	251.21	5.13	-47.2	-49.2	16.9	3.14e-01	0	42	0	15728640	66	4410
2026-01-25 13:07:10.71	251.33	5.17	-49.6	-53.2	13.3	0.00e+00	0	42	0	17825792	69	5890
2026-01-25 13:07:11.70	251.45	5.21	-47.2	-49.2	16.9	2.05e-05	0	42	0	18874368	66	4428
2026-01-25 13:07:12.68	251.57	5.25	-47.1	-49.2	16.9	0.00e+00	0	43	0	20971520	66	4420
2026-01-25 13:07:13.67	251.69	5.30	-47.1	-49.2	16.9	0.00e+00	0	42	0	23068672	66	4410
2026-01-25 13:07:14.65	251.81	5.34	-47.2	-49.3	16.7	0.00e+00	0	42	0	25165824	66	4490
2026-01-25 13:07:15.64	251.93	5.38	-47.0	-49.0	17.0	0.00e+00	0	42	0	27262976	65	4582
2026-01-25 13:07:16.63	252.06	5.42	-46.9	-48.8	17.3	0.00e+00	0	42	0	28311552	65	4468
2026-01-25 13:07:17.61	252.18	5.47	-46.5	-48.3	17.7	0.00e+00	0	42	0	30408704	65	4228
2026-01-25 13:07:18.61	252.30	5.51	-46.4	-48.2	17.8	0.00e+00	0	42	0	32505856	64	4419
2026-01-25 13:07:19.59	252.42	5.55	-46.3	-48.1	18.0	0.00e+00	0	42	0	34603008	64	4379
2026-01-25 13:07:20.58	252.55	5.59	-46.5	-48.3	17.8	0.00e+00	0	42	0	35651584	64	4469
2026-01-25 13:07:21.55	252.67	5.63	-46.4	-48.1	18.0	0.00e+00	0	42	0	37748736	64	4379
2026-01-25 13:07:22.54	252.80	5.68	-46.4	-48.1	17.9	0.00e+00	0	42	0	39845888	64	4385
2026-01-25 13:07:23.53	252.92	5.72	-46.3	-48.1	18.0	0.00e+00	0	42	0	41943040	64	4373
2026-01-25 13:07:24.52	253.05	5.76	-46.4	-48.2	17.9	0.00e+00	0	43	0	44040192	64	4425
2026-01-25 13:07:25.50	253.17	5.80	-46.4	-48.2	17.9	0.00e+00	0	43	0	45088768	64	4426
2026-01-25 13:07:26.48	253.30	5.84	-46.6	-48.5	17.6	0.00e+00	0	43	0	47185920	64	4563
2026-01-25 13:07:27.46	253.42	5.89	-46.7	-48.6	17.6	0.00e+00	0	42	0	49283072	64	4600
2026-01-25 13:07:28.45	253.55	5.93	-46.5	-48.4	17.7	0.00e+00	0	43	0	51380224	64	4508
2026-01-25 13:07:29.43	253.67	5.97	-46.5	-48.3	17.9	0.00e+00	0	43	0	52428800	64	4473
2026-01-25 13:07:30.42	253.80	6.01	-46.5	-48.4	17.7	0.00e+00	0	43	0	54525952	64	4505
2026-01-25 13:07:31.40	253.93	6.05	-46.3	-48.1	18.0	0.00e+00	0	42	0	56623104	64	4364
2026-01-25 13:07:32.38	254.05	6.09	-46.2	-47.9	18.2	0.00e+00	0	42	0	57671680	64	4266
2026-01-25 13:07:33.38	254.18	6.14	-46.0	-47.7	18.4	0.00e+00	0	43	0	59768832	64	4178
2026-01-25 13:07:34.37	254.31	6.18	-46.2	-47.9	18.3	0.00e+00	0	43	0	61865984	64	4244
2026-01-25 13:07:35.34	254.44	6.22	-46.2	-47.9	18.2	0.00e+00	0	42	0	63963136	64	4280
2026-01-25 13:07:36.33	254.57	6.26	-46.1	-47.7	18.5	0.00e+00	0	43	0	66060288	63	4431
2026-01-25 13:07:37.32	254.70	6.30	-46.1	-47.8	18.4	0.00e+00	0	43	0	67108864	63	4468
2026-01-25 13:07:38.31	254.83	6.34	-46.4	-48.2	18.1	0.00e+00	0	43	0	69206016	63	4660
2026-01-25 13:07:39.29	254.96	6.38	-46.3	-48.0	18.2	0.00e+00	0	43	0	71303168	63	4570
2026-01-25 13:07:40.28	255.09	6.43	-46.5	-48.3	17.9	0.00e+00	0	42	0	73400320	63	4759
2026-01-25 13:07:41.26	255.22	6.47	-46.7	-48.6	17.6	0.00e+00	0	42	0	74448896	64	4627
2026-01-25 13:07:42.24	255.35	6.51	-46.7	-48.6	17.6	0.00e+00	0	43	0	76546048	64	4615
2026-01-25 13:07:43.22	255.48	6.55	-46.7	-48.5	17.7	0.00e+00	0	42	0	78643200	64	4589
2026-01-25 13:07:44.21	255.61	6.59	-46.6	-48.4	17.7	0.00e+00	0	43	0	80740352	64	4542
2026-01-25 13:07:45.19	255.75	6.63	-46.7	-48.6	17.6	0.00e+00	0	42	0	81788928	64	4614
2026-01-25 13:07:46.18	255.88	6.67	-46.7	-48.5	17.7	0.00e+00	0	43	0	83886080	64	4575
2026-01-25 13:07:47.17	256.01	6.71	-46.4	-48.2	18.1	0.00e+00	0	43	0	85983232	64	4395
2026-01-25 13:07:48.15	256.15	6.75	-46.2	-47.9	18.2	0.00e+00	0	42	0	88080384	64	4286
2026-01-25 13:07:49.14	256.28	6.79	-46.6	-48.4	17.8	0.00e+00	0	43	0	90177536	64	4497
2026-01-25 13:07:50.13	256.41	6.83	-46.3	-48.1	18.1	0.00e+00	0	43	0	91226112	64	4347
2026-01-25 13:07:51.11	256.55	6.87	-46.3	-48.0	18.2	0.00e+00	0	43	0	93323264	64	4324
2026-01-25 13:07:52.10	256.68	6.91	-46.3	-48.1	18.2	0.00e+00	0	43	0	95420416	64	4346
2026-01-25 13:07:53.09	256.82	6.96	-46.5	-48.2	18.0	0.00e+00	0	43	0	97517568	64	4430
2026-01-25 13:07:54.08	256.96	7.00	-46.5	-48.3	18.0	0.00e+00	0	43	0	98566144	64	4470
2026-01-25 13:07:55.07	257.09	7.04	-46.5	-48.2	18.0	0.00e+00	0	43	0	100663296	64	4425
2026-01-25 13:07:56.06	257.23	7.08	-46.5	-48.2	18.0	0.00e+00	0	42	0	102760448	64	4440
2026-01-25 13:07:57.04	257.36	7.12	-46.6	-48.4	17.9	0.00e+00	0	43	0	104857600	64	4510
2026-01-25 13:07:58.02	257.50	7.16	-46.8	-48.6	17.6	0.00e+00	0	43	0	105906176	64	4631
2026-01-25 13:07:59.01	257.64	7.20	-46.7	-48.5	17.8	0.00e+00	0	43	0	108003328	64	4556
2026-01-25 13:08:00.00	257.78	7.24	-46.7	-48.5	17.8	0.00e+00	0	43	0	110100480	64	4570
2026-01-25 13:08:00.98	257.91	7.28	-46.5	-48.3	17.9	0.00e+00	0	43	0	112197632	64	4465
2026-01-25 13:08:01.96	258.05	7.32	-46.3	-48.0	18.2	0.00e+00	0	43	0	113246208	64	4334
2026-01-25 13:08:02.95	258.19	7.36	-46.3	-47.9	18.3	0.00e+00	0	43	0	115343360	64	4280
2026-01-25 13:08:03.93	258.33	7.39	-46.5	-48.2	18.1	0.00e+00	0	43	0	117440512	64	4427
2026-01-25 13:08:04.92	258.47	7.43	-46.3	-48.0	18.2	0.00e+00	0	43	0	119537664	64	4336
2026-01-25 13:08:05.90	258.61	7.47	-46.3	-48.0	18.3	0.00e+00	0	43	0	120586240	64	4303
2026-01-25 13:08:06.89	258.75	7.51	-46.4	-48.2	18.1	0.00e+00	0	43	0	122683392	64	4393
2026-01-25 13:08:07.88	258.89	7.55	-46.3	-48.1	18.2	0.00e+00	0	42	0	124780544	64	4343
2026-01-25 13:08:08.87	259.03	7.59	-46.3	-48.1	18.2	0.00e+00	0	42	0	126877696	64	4351
2026-01-25 13:08:09.86	259.17	7.63	-46.3	-48.0	18.3	0.00e+00	0	43	0	128974848	64	4311
2026-01-25 13:08:10.84	259.31	7.67	-46.5	-48.2	18.0	0.00e+00	0	43	0	130023424	64	4437
2026-01-25 13:08:11.82	259.46	7.71	-46.5	-48.2	17.8	0.00e+00	0	43	0	132120576	64	4412
2026-01-25 13:08:12.80	259.60	7.75	-46.6	-48.4	18.0	0.00e+00	0	43	0	134217728	64	4507
2026-01-25 13:08:13.79	259.74	7.79	-46.3	-48.1	18.2	0.00e+00	0	43	0	136314880	64	4341
2026-01-25 13:08:14.78	259.88	7.82	-46.4	-48.2	18.1	0.00e+00	0	43	0	137363456	64	4412
2026-01-25 13:08:15.76	260.03	7.86	-46.5	-48.2	18.1	0.00e+00	0	43	0	139460608	64	4428
2026-01-25 13:08:16.74	260.17	7.90	-46.4	-48.1	18.2	0.00e+00	0	43	0	141557760	64	4354
2026-01-25 13:08:17.73	260.32	7.94	-46.4	-48.1	18.2	0.00e+00	0	43	0	143654912	64	4349
2026-01-25 13:08:18.71	260.46	7.98	-46.4	-48.1	18.2	0.00e+00	0	43	0	144703488	64	4364
2026-01-25 13:08:19.70	260.60	8.02	-46.6	-48.4	17.9	0.00e+00	0	43	0	146800640	64	4500
2026-01-25 13:08:20.69	260.75	8.05	-46.5	-48.3	18.1	0.00e+00	0	43	0	148897792	64	4445
2026-01-25 13:08:21.67	260.90	8.09	-46.6	-48.3	18.0	0.00e+00	0	43	0	150994944	64	4489
2026-01-25 13:08:22.66	261.04	8.13	-46.7	-48.5	17.8	0.00e+00	0	43	0	152043520	64	4594
2026-01-25 13:08:23.65	261.19	8.17	-46.6	-48.4	17.9	0.00e+00	0	43	0	154140672	64	4521
2026-01-25 13:08:24.63	261.33	8.20	-46.5	-48.3	18.0	0.00e+00	0	43	0	156237824	64	4453
2026-01-25 13:08:25.63	261.48	8.24	-46.6	-48.4	18.0	0.00e+00	0	43	0	158334976	64	4495
2026-01-25 13:08:26.61	261.63	8.28	-46.5	-48.3	18.1	0.00e+00	0	43	0	159383552	64	4444
2026-01-25 13:08:27.60	261.78	8.32	-46.4	-48.2	18.2	0.00e+00	0	43	0	161480704	64	4404
2026-01-25 13:08:28.59	261.93	8.35	-46.5	-48.2	18.1	0.00e+00	0	43	0	163577856	64	4419
2026-01-25 13:08:29.57	262.08	8.39	-46.3	-48.0	18.3	0.00e+00	0	43	0	165675008	64	4334
2026-01-25 13:08:30.56	262.23	8.43	-46.4	-48.1	18.2	0.00e+00	0	43	0	167772160	64	4381
2026-01-25 13:08:31.56	262.38	8.47	-46.4	-48.1	18.3	0.00e+00	0	43	0	168820736	64	4358
2026-01-25 13:08:32.55	262.53	8.50	-46.7	-48.5	17.9	0.00e+00	0	43	0	170917888	64	4576
2026-01-25 13:08:33.54	262.68	8.54	-46.8	-48.7	17.7	0.00e+00	0	43	0	173015040	64	4662
2026-01-25 13:08:34.53	262.83	8.58	-47.0	-48.9	17.4	0.00e+00	0	43	0	175112192	64	4804
2026-01-25 13:08:35.52	262.98	8.61	-47.1	-49.0	17.4	0.00e+00	0	43	0	177209344	64	4865
2026-01-25 13:08:36.51	263.13	8.65	-47.2	-49.2	17.2	0.00e+00	0	43	0	178257920	64	4964
2026-01-25 13:08:37.49	263.28	8.68	-47.1	-49.0	17.4	0.00e+00	0	43	0	180355072	65	4575
2026-01-25 13:08:38.48	263.44	8.72	-47.2	-49.2	17.2	0.00e+00	0	43	0	182452224	65	4661
2026-01-25 13:08:39.47	263.59	8.76	-47.0	-48.9	17.5	0.00e+00	0	43	0	183500800	65	4517
2026-01-25 13:08:40.46	263.74	8.79	-47.0	-48.9	17.5	0.00e+00	0	43	0	185597952	65	4518
2026-01-25 13:08:41.45	263.90	8.83	-47.1	-49.1	17.3	0.00e+00	0	43	0	187695104	65	4603
2026-01-25 13:08:42.44	264.05	8.86	-47.1	-49.0	17.5	0.00e+00	0	43	0	189792256	65	4556
2026-01-25 13:08:43.44	264.20	8.90	-46.7	-48.5	17.8	0.00e+00	0	43	0	191889408	65	4335
2026-01-25 13:08:44.43	264.36	8.94	-46.8	-48.7	17.7	0.00e+00	0	43	0	192937984	65	4404
2026-01-25 13:08:45.42	264.51	8.97	-46.8	-48.6	17.8	0.00e+00	0	43	0	195035136	65	4372
2026-01-25 13:08:46.41	264.67	9.01	-46.8	-48.6	17.8	0.00e+00	0	43	0	197132288	65	4346
2026-01-25 13:08:47.39	264.82	9.04	-46.8	-48.6	17.8	0.00e+00	0	43	0	199229440	65	4347
2026-01-25 13:08:48.38	264.98	9.08	-46.9	-48.8	17.6	0.00e+00	0	43	0	200278016	65	4464
2026-01-25 13:08:49.37	265.14	9.11	-47.2	-49.2	17.3	0.00e+00	0	43	0	202375168	65	4657
2026-01-25 13:08:50.35	265.29	9.14	-47.2	-49.1	17.4	0.00e+00	0	43	0	204472320	65	4632
2026-01-25 13:08:51.34	265.45	9.18	-47.3	-49.3	17.2	0.00e+00	0	43	0	206569472	65	4708
2026-01-25 13:08:52.33	265.61	9.21	-47.0	-48.9	17.5	0.00e+00	0	43	0	208666624	65	4540
2026-01-25 13:08:53.32	265.76	9.25	-47.1	-49.0	17.5	0.00e+00	0	43	0	209715200	65	4584
2026-01-25 13:08:54.31	265.92	9.28	-47.2	-49.1	17.4	0.00e+00	0	43	0	211812352	65	4626
2026-01-25 13:08:55.30	266.08	9.32	-47.2	-49.1	17.3	0.00e+00	0	43	0	213909504	65	4625
2026-01-25 13:08:56.29	266.24	9.35	-47.3	-49.2	17.1	0.00e+00	0	43	0	216006656	65	4702
2026-01-25 13:08:57.28	266.40	9.38	-47.4	-49.4	17.0	0.00e+00	0	43	0	217055232	65	4786
2026-01-25 13:08:58.27	266.56	9.42	-47.7	-49.9	16.5	0.00e+00	0	43	0	219152384	66	4781
2026-01-25 13:08:59.26	266.72	9.45	-47.9	-50.2	16.2	0.00e+00	0	43	0	221249536	66	4961
2026-01-25 13:09:00.24	266.88	9.48	-48.3	-50.9	15.4	0.00e+00	0	43	0	223346688	67	5062
2026-01-25 13:09:01.24	267.04	9.52	-48.6	-51.5	14.6	0.00e+00	0	43	0	224395264	67	5425
2026-01-25 13:09:02.22	267.20	9.55	-48.9	-52.0	14.1	7.00e-07	0	43	0	226492416	68	5429
2026-01-25 13:09:03.20	267.36	9.58	-48.9	-52.1	13.9	2.20e-06	0	43	0	228589568	68	5481
2026-01-25 13:09:04.19	267.52	9.61	-49.0	-52.3	13.5	3.00e-06	0	43	0	230686720	68	5629
2026-01-25 13:09:05.17	267.68	9.65	-49.0	-52.6	13.2	1.22e-05	0	43	0	231735296	68	5790
2026-01-25 13:09:06.16	267.84	9.68	-49.0	-52.5	13.1	1.37e-05	0	43	0	233832448	68	5739
2026-01-25 13:09:07.14	268.01	9.71	-49.0	-52.5	13.1	3.66e-05	0	43	0	235929600	68	5785
2026-01-25 13:09:08.13	268.17	9.74	-49.1	-52.5	13.2	2.67e-05	0	43	0	238026752	68	5773
2026-01-25 13:09:09.11	268.33	9.77	-49.1	-52.6	13.3	1.29e-05	0	43	0	240123904	68	5823
2026-01-25 13:09:10.11	268.50	9.81	-49.0	-52.4	13.5	1.14e-05	0	43	0	241172480	68	5676
2026-01-25 13:09:11.09	268.66	9.84	-48.9	-52.1	13.8	5.30e-06	0	43	0	243269632	68	5516
2026-01-25 13:09:12.09	268.82	9.87	-48.8	-51.8	14.1	1.50e-06	0	43	0	245366784	68	5340
2026-01-25 13:09:13.07	268.99	9.90	-48.7	-51.6	14.4	0.00e+00	0	43	0	247463936	68	5217
2026-01-25 13:09:14.06	269.15	9.93	-48.5	-51.3	14.7	0.00e+00	0	43	0	248512512	68	5008
2026-01-25 13:09:15.04	269.32	9.96	-48.2	-50.9	15.0	0.00e+00	0	43	0	250609664	68	4809
2026-01-25 13:09:16.03	269.48	9.99	-48.1	-50.7	15.2	0.00e+00	0	43	0	252706816	68	4701
2026-01-25 13:09:17.02	269.65	10.02	-48.2	-50.9	15.1	0.00e+00	0	43	0	254803968	68	4768
2026-01-25 13:09:18.00	269.81	10.05	-48.1	-50.7	15.3	0.00e+00	0	43	0	255852544	68	4690
2026-01-25 13:09:18.99	269.98	10.08	-48.2	-50.7	15.4	0.00e+00	0	43	0	257949696	68	4703
2026-01-25 13:09:19.97	270.15	10.11	-48.1	-50.6	15.7	0.00e+00	0	43	0	260046848	68	4618
2026-01-25 13:09:20.96	270.31	10.14	-47.8	-50.1	16.3	0.00e+00	0	43	0	262144000	67	4606
2026-01-25 13:09:21.95	270.48	10.17	-47.5	-49.6	16.8	0.00e+00	0	43	0	263192576	67	4369
2026-01-25 13:09:22.94	270.65	10.20	-47.2	-49.1	17.3	0.00e+00	0	43	0	265289728	66	4360
2026-01-25 13:09:23.93	270.82	10.23	-47.0	-48.9	17.6	0.00e+00	0	43	0	267386880	65	4509
2026-01-25 13:09:24.92	270.99	10.26	-46.6	-48.4	18.1	0.00e+00	0	43	0	269484032	65	4243
2026-01-25 13:09:25.90	271.15	10.29	-46.5	-48.2	18.3	0.00e+00	0	43	0	270532608	65	4178
2026-01-25 13:09:26.89	271.32	10.31	-46.4	-48.0	18.5	0.00e+00	0	43	0	272629760	64	4322
2026-01-25 13:09:27.88	271.49	10.34	-46.4	-48.1	18.4	0.00e+00	0	43	0	274726912	64	4346
2026-01-25 13:09:28.87	271.66	10.37	-46.8	-48.6	18.0	0.00e+00	0	43	0	276824064	64	4607
2026-01-25 13:09:29.86	271.83	10.40	-46.7	-48.5	18.0	0.00e+00	0	43	0	278921216	64	4564
2026-01-25 13:09:30.84	272.00	10.43	-46.9	-48.7	17.8	0.00e+00	0	43	0	279969792	64	4689
2026-01-25 13:09:31.83	272.17	10.46	-46.8	-48.6	17.9	0.00e+00	0	43	0	282066944	64	4635
2026-01-25 13:09:32.81	272.34	10.48	-46.8	-48.6	17.9	0.00e+00	0	43	0	284164096	64	4617
2026-01-25 13:09:33.79	272.51	10.51	-46.6	-48.4	18.1	0.00e+00	0	43	0	286261248	64	4501
2026-01-25 13:09:34.78	272.69	10.54	-46.7	-48.5	18.0	0.00e+00	0	43	0	287309824	64	4555
2026-01-25 13:09:35.76	272.86	10.56	-46.9	-48.7	17.8	0.00e+00	0	43	0	289406976	64	4689
2026-01-25 13:09:36.75	273.03	10.59	-46.8	-48.6	18.0	0.00e+00	0	43	0	291504128	64	4599
2026-01-25 13:09:37.74	273.20	10.62	-46.7	-48.4	18.1	0.00e+00	0	43	0	293601280	64	4532
2026-01-25 13:09:38.72	273.37	10.64	-46.7	-48.5	18.1	0.00e+00	0	43	0	295698432	64	4566
2026-01-25 13:09:39.71	273.55	10.67	-46.8	-48.5	18.0	0.00e+00	0	43	0	296747008	64	4581
2026-01-25 13:09:40.70	273.72	10.69	-46.7	-48.5	18.0	0.00e+00	0	43	0	298844160	64	4572
2026-01-25 13:09:41.68	273.89	10.72	-46.8	-48.6	17.9	0.00e+00	0	43	0	300941312	64	4634
2026-01-25 13:09:42.67	274.07	10.75	-46.9	-48.6	17.9	0.00e+00	0	43	0	301989888	64	4649
2026-01-25 13:09:43.65	274.24	10.77	-46.7	-48.4	18.2	0.00e+00	0	43	0	304087040	64	4513
2026-01-25 13:09:44.64	274.41	10.80	-46.7	-48.5	18.1	0.00e+00	0	43	0	306184192	64	4557
2026-01-25 13:09:45.62	274.59	10.82	-46.4	-48.1	18.4	0.00e+00	0	43	0	308281344	64	4368
2026-01-25 13:09:46.61	274.76	10.84	-46.4	-48.0	18.5	0.00e+00	0	43	0	309329920	64	4334
2026-01-25 13:09:47.59	274.94	10.87	-46.3	-48.0	18.6	0.00e+00	0	43	0	311427072	64	4296
2026-01-25 13:09:48.57	275.11	10.89	-46.4	-48.0	18.5	0.00e+00	0	43	0	313524224	64	4337
2026-01-25 13:09:49.56	275.29	10.92	-46.2	-47.7	18.8	0.00e+00	0	43	0	315621376	64	4188
2026-01-25 13:09:50.55	275.46	10.94	-46.5	-48.1	18.4	0.00e+00	0	43	0	317718528	64	4383
2026-01-25 13:09:51.54	275.64	10.96	-46.6	-48.4	18.2	0.00e+00	0	43	0	318767104	64	4495
2026-01-25 13:09:52.53	275.82	10.99	-46.9	-48.7	17.9	0.00e+00	0	43	0	320864256	64	4677
2026-01-25 13:09:53.51	275.99	11.01	-46.8	-48.6	18.0	0.00e+00	0	43	0	322961408	64	4628
2026-01-25 13:09:54.50	276.17	11.03	-47.1	-48.9	17.7	0.00e+00	0	43	0	325058560	64	4804
2026-01-25 13:09:55.48	276.35	11.06	-47.3	-49.2	17.4	0.00e+00	0	43	0	326107136	65	4704
2026-01-25 13:09:56.46	276.52	11.08	-47.2	-49.1	17.5	0.00e+00	0	43	0	328204288	65	4616
2026-01-25 13:09:57.45	276.70	11.10	-47.1	-49.0	17.6	0.00e+00	0	43	0	330301440	65	4571
2026-01-25 13:09:58.44	276.88	11.12	-46.9	-48.6	18.0	0.00e+00	0	43	0	332398592	65	4388
2026-01-25 13:09:59.42	277.06	11.14	-46.8	-48.5	18.1	0.00e+00	0	43	0	334495744	65	4306
2026-01-25 13:10:00.41	277.24	11.17	-46.5	-48.2	18.4	0.00e+00	0	43	0	335544320	65	4166
2026-01-25 13:10:01.39	277.41	11.19	-46.4	-48.0	18.5	0.00e+00	0	43	0	337641472	64	4333
2026-01-25 13:10:02.38	277.59	11.21	-46.5	-48.2	18.4	0.00e+00	0	43	0	339738624	64	4413
2026-01-25 13:10:03.36	277.77	11.23	-46.4	-48.1	18.5	0.00e+00	0	43	0	341835776	64	4362
2026-01-25 13:10:04.35	277.95	11.25	-46.7	-48.4	18.2	0.00e+00	0	43	0	342884352	64	4538
2026-01-25 13:10:05.34	278.13	11.27	-46.8	-48.5	18.1	0.00e+00	0	43	0	344981504	64	4596
2026-01-25 13:10:06.33	278.31	11.29	-46.7	-48.4	18.2	0.00e+00	0	43	0	347078656	64	4538
2026-01-25 13:10:07.32	278.49	11.31	-46.6	-48.3	18.3	0.00e+00	0	43	0	349175808	64	4465
2026-01-25 13:10:08.32	278.68	11.33	-46.6	-48.2	18.4	0.00e+00	0	43	0	350224384	64	4411
2026-01-25 13:10:09.31	278.86	11.35	-46.2	-47.8	18.7	0.00e+00	0	43	0	352321536	64	4221
2026-01-25 13:10:10.30	279.04	11.37	-46.0	-47.5	19.0	0.00e+00	0	43	0	354418688	64	4082
2026-01-25 13:10:11.30	279.22	11.39	-46.0	-47.5	19.2	0.00e+00	0	43	0	356515840	63	4305
2026-01-25 13:10:12.29	279.41	11.41	-46.0	-47.5	19.2	0.00e+00	0	43	0	357564416	63	4297
2026-01-25 13:10:13.28	279.59	11.43	-46.1	-47.7	19.0	0.00e+00	0	43	0	359661568	63	4401
2026-01-25 13:10:14.28	279.77	11.44	-46.6	-48.2	18.6	0.00e+00	0	43	0	361758720	63	4687
2026-01-25 13:10:15.28	279.96	11.46	-46.7	-48.4	18.2	0.00e+00	0	43	0	363855872	64	4538
2026-01-25 13:10:16.27	280.14	11.48	-46.8	-48.6	18.1	0.00e+00	0	43	0	365953024	64	4611
2026-01-25 13:10:17.26	280.32	11.50	-46.9	-48.6	18.1	0.00e+00	0	43	0	367001600	64	4641
2026-01-25 13:10:18.25	280.51	11.52	-46.7	-48.4	18.2	0.00e+00	0	43	0	369098752	64	4545
2026-01-25 13:10:19.24	280.69	11.53	-46.6	-48.3	18.3	0.00e+00	0	43	0	371195904	64	4452
2026-01-25 13:10:20.23	280.87	11.55	-46.5	-48.1	18.6	0.00e+00	0	43	0	373293056	64	4357
2026-01-25 13:10:21.21	281.06	11.57	-46.7	-48.3	18.3	0.00e+00	0	43	0	374341632	64	4491
2026-01-25 13:10:22.19	281.24	11.58	-47.0	-48.8	17.8	0.00e+00	0	43	0	376438784	64	4743
2026-01-25 13:10:23.19	281.42	11.60	-47.4	-49.3	17.5	0.00e+00	0	43	0	378535936	65	4709
2026-01-25 13:10:24.18	281.61	11.61	-47.9	-50.0	16.9	0.00e+00	0	43	0	380633088	66	4833
2026-01-25 13:10:25.16	281.79	11.63	-48.1	-50.2	16.6	0.00e+00	0	43	0	381681664	66	4983
2026-01-25 13:10:26.15	281.98	11.64	-48.3	-50.5	16.4	0.00e+00	0	43	0	383778816	67	4867
2026-01-25 13:10:27.14	282.16	11.66	-47.8	-49.9	17.0	0.00e+00	0	43	0	385875968	67	4498
2026-01-25 13:10:28.13	282.35	11.67	-47.5	-49.5	17.3	0.00e+00	0	43	0	387973120	67	4307
2026-01-25 13:10:29.12	282.53	11.69	-47.2	-49.0	17.8	0.00e+00	0	43	0	390070272	66	4310
2026-01-25 13:10:30.11	282.72	11.70	-47.0	-48.7	18.1	0.00e+00	0	43	0	391118848	66	4180
2026-01-25 13:10:31.10	282.90	11.72	-46.7	-48.4	18.2	0.00e+00	0	43	0	393216000	65	4276
2026-01-25 13:10:32.10	283.09	11.73	-47.1	-48.9	17.9	0.00e+00	0	43	0	395313152	65	4499
2026-01-25 13:10:33.08	283.28	11.74	-47.2	-49.0	17.9	0.00e+00	0	43	0	397410304	65	4567
2026-01-25 13:10:34.08	283.46	11.76	-47.6	-49.5	17.4	0.00e+00	0	43	0	398458880	65	4858
2026-01-25 13:10:35.07	283.65	11.77	-47.8	-49.8	17.1	0.00e+00	0	43	0	400556032	66	4738
2026-01-25 13:10:36.05	283.83	11.78	-47.8	-49.8	17.1	0.00e+00	0	43	0	402653184	66	4710
2026-01-25 13:10:37.04	284.02	11.79	-47.7	-49.6	17.2	0.00e+00	0	43	0	404750336	66	4645
2026-01-25 13:10:38.03	284.21	11.81	-47.5	-49.4	17.4	0.00e+00	0	43	0	406847488	66	4538
2026-01-25 13:10:39.02	284.40	11.82	-47.5	-49.3	17.6	0.00e+00	0	43	0	407896064	66	4493
2026-01-25 13:10:40.00	284.58	11.83	-47.5	-49.3	17.6	0.00e+00	0	43	0	409993216	66	4479
2026-01-25 13:10:40.99	284.77	11.84	-47.7	-49.7	17.1	0.00e+00	0	43	0	412090368	66	4681
2026-01-25 13:10:41.98	284.96	11.85	-48.0	-50.1	16.8	0.00e+00	0	43	0	414187520	66	4882
2026-01-25 13:10:42.96	285.14	11.86	-48.1	-50.3	16.6	0.00e+00	0	43	0	415236096	66	5019
2026-01-25 13:10:43.96	285.33	11.87	-48.5	-50.9	16.1	0.00e+00	0	43	0	417333248	67	5050
2026-01-25 13:10:44.94	285.52	11.88	-48.7	-51.2	15.8	0.00e+00	0	43	0	419430400	68	4939
2026-01-25 13:10:45.92	285.70	11.89	-48.7	-51.2	15.8	0.00e+00	0	43	0	421527552	68	4927
2026-01-25 13:10:46.92	285.89	11.90	-48.4	-50.6	16.3	0.00e+00	0	43	0	422576128	68	4630
2026-01-25 13:10:47.90	286.08	11.91	-48.4	-50.7	16.2	0.00e+00	0	43	0	424673280	68	4684
2026-01-25 13:10:48.90	286.27	11.92	-47.8	-49.7	17.2	0.00e+00	0	43	0	426770432	67	4437
2026-01-25 13:10:49.89	286.46	11.93	-47.6	-49.5	17.4	0.00e+00	0	43	0	428867584	67	4335
2026-01-25 13:10:50.87	286.64	11.94	-47.3	-49.2	17.7	0.00e+00	0	43	0	429916160	66	4400
2026-01-25 13:10:51.86	286.83	11.95	-47.3	-49.2	17.7	0.00e+00	0	43	0	432013312	66	4395
2026-01-25 13:10:52.85	287.02	11.96	-47.3	-49.2	17.7	0.00e+00	0	43	0	434110464	66	4393
2026-01-25 13:10:53.83	287.21	11.96	-47.4	-49.3	17.7	0.00e+00	0	43	0	436207616	66	4445
2026-01-25 13:10:54.82	287.40	11.97	-47.5	-49.5	17.5	0.00e+00	0	43	0	438304768	66	4555
2026-01-25 13:10:55.80	287.58	11.98	-47.4	-49.2	17.6	0.00e+00	0	43	0	439353344	66	4432
2026-01-25 13:10:56.79	287.77	11.99	-47.3	-49.1	17.8	0.00e+00	0	43	0	441450496	66	4370
2026-01-25 13:10:57.77	287.96	11.99	-47.2	-49.0	17.9	0.00e+00	0	43	0	443547648	66	4322
2026-01-25 13:10:58.76	288.15	12.00	-46.9	-48.6	18.2	0.00e+00	0	43	0	445644800	65	4384
2026-01-25 13:10:59.75	288.34	12.01	-46.8	-48.5	18.4	0.00e+00	0	43	0	446693376	65	4292
2026-01-25 13:11:00.73	288.53	12.01	-46.6	-48.2	18.6	0.00e+00	0	43	0	448790528	65	4149
2026-01-25 13:11:01.72	288.72	12.02	-46.5	-48.1	18.8	0.00e+00	0	43	0	450887680	64	4342
2026-01-25 13:11:02.71	288.91	12.02	-46.5	-48.1	18.7	0.00e+00	0	43	0	452984832	64	4368
2026-01-25 13:11:03.70	289.10	12.03	-46.4	-48.0	18.8	0.00e+00	0	43	0	454033408	64	4327
2026-01-25 13:11:04.68	289.28	12.03	-46.4	-48.0	18.8	0.00e+00	0	43	0	456130560	64	4305
2026-01-25 13:11:05.67	289.47	12.04	-46.3	-47.9	19.0	0.00e+00	0	43	0	458227712	64	4248
2026-01-25 13:11:06.66	289.66	12.04	-46.3	-47.8	19.0	0.00e+00	0	43	0	460324864	64	4231
2026-01-25 13:11:07.65	289.85	12.04	-46.4	-47.9	18.9	0.00e+00	0	43	0	461373440	64	4284
2026-01-25 13:11:08.66	290.05	12.05	-46.1	-47.5	19.3	0.00e+00	0	43	0	463470592	64	4091
2026-01-25 13:11:09.65	290.24	12.05	-46.2	-47.7	19.2	0.00e+00	0	43	0	465567744	64	4175
2026-01-25 13:11:10.65	290.43	12.05	-46.1	-47.6	19.2	0.00e+00	0	43	0	467664896	64	4108
2026-01-25 13:11:11.64	290.62	12.06	-46.3	-47.8	19.0	0.00e+00	0	43	0	469762048	64	4228
2026-01-25 13:11:12.64	290.81	12.06	-46.4	-47.9	18.9	0.00e+00	0	43	0	470810624	64	4280
2026-01-25 13:11:13.63	291.00	12.06	-46.6	-48.2	18.6	0.00e+00	0	43	0	472907776	64	4423
2026-01-25 13:11:14.63	291.19	12.06	-46.5	-48.1	18.7	0.00e+00	0	43	0	475004928	64	4386
2026-01-25 13:11:15.62	291.38	12.07	-46.5	-48.1	18.7	0.00e+00	0	43	0	477102080	64	4374
2026-01-25 13:11:16.62	291.57	12.07	-46.2	-47.8	19.1	0.00e+00	0	43	0	479199232	64	4200
2026-01-25 13:11:17.62	291.77	12.07	-46.1	-47.6	19.2	0.00e+00	0	43	0	480247808	64	4135
2026-01-25 13:11:18.62	291.96	12.07	-46.1	-47.6	19.2	0.00e+00	0	43	0	482344960	64	4102
2026-01-25 13:11:19.62	292.15	12.07	-46.1	-47.6	19.3	0.00e+00	0	43	0	484442112	63	4345
2026-01-25 13:11:20.62	292.34	12.07	-46.2	-47.7	19.2	0.00e+00	0	43	0	486539264	63	4399
2026-01-25 13:11:21.62	292.53	12.07	-46.3	-47.8	19.0	0.00e+00	0	43	0	488636416	63	4492
2026-01-25 13:11:22.62	292.73	12.07	-46.3	-47.9	19.0	0.00e+00	0	43	0	489684992	63	4508
2026-01-25 13:11:23.61	292.92	12.07	-46.3	-47.8	19.1	0.00e+00	0	43	0	491782144	63	4462
2026-01-25 13:11:24.59	293.10	12.07	-46.3	-47.9	19.0	0.00e+00	0	43	0	493879296	63	4496
2026-01-25 13:11:25.58	293.29	12.07	-46.2	-47.7	19.1	0.00e+00	0	43	0	494927872	63	4402
2026-01-25 13:11:26.56	293.48	12.06	-46.2	-47.7	19.1	0.00e+00	0	43	0	497025024	63	4428
2026-01-25 13:11:27.54	293.67	12.06	-46.0	-47.4	19.4	0.00e+00	0	43	0	499122176	63	4269
2026-01-25 13:11:28.53	293.86	12.06	-46.1	-47.7	19.2	0.00e+00	0	43	0	501219328	63	4394
2026-01-25 13:11:29.51	294.05	12.06	-46.1	-47.6	19.3	0.00e+00	0	43	0	502267904	63	4352
2026-01-25 13:11:30.50	294.24	12.06	-46.1	-47.6	19.3	0.00e+00	0	43	0	504365056	63	4344
2026-01-25 13:11:31.48	294.43	12.05	-46.2	-47.8	19.1	0.00e+00	0	43	0	506462208	63	4456
2026-01-25 13:11:32.47	294.62	12.05	-46.1	-47.7	19.2	0.00e+00	0	43	0	508559360	63	4396
2026-01-25 13:11:33.45	294.80	12.05	-46.2	-47.8	19.1	0.00e+00	0	43	0	510656512	63	4453
2026-01-25 13:11:34.44	294.99	12.04	-46.1	-47.6	19.2	0.00e+00	0	43	0	511705088	63	4353
2026-01-25 13:11:35.42	295.18	12.04	-46.1	-47.6	19.3	0.00e+00	0	43	0	513802240	63	4346
2026-01-25 13:11:36.40	295.37	12.03	-45.9	-47.4	19.5	0.00e+00	0	43	0	515899392	63	4248
2026-01-25 13:11:37.39	295.56	12.03	-46.1	-47.6	19.3	0.00e+00	0	43	0	517996544	63	4357
2026-01-25 13:11:38.38	295.75	12.03	-46.0	-47.5	19.3	0.00e+00	0	43	0	519045120	63	4326
2026-01-25 13:11:39.36	295.93	12.02	-46.2	-47.7	19.2	0.00e+00	0	43	0	521142272	63	4411
2026-01-25 13:11:40.34	296.12	12.01	-46.4	-48.0	18.8	0.00e+00	0	43	0	523239424	63	4572
2026-01-25 13:11:41.33	296.31	12.01	-46.5	-48.1	18.8	0.00e+00	0	43	0	525336576	63	4616
2026-01-25 13:11:42.31	296.50	12.00	-46.4	-48.0	18.9	0.00e+00	0	43	0	526385152	63	4548
2026-01-25 13:11:43.29	296.69	12.00	-46.2	-47.8	19.0	0.00e+00	0	43	0	528482304	63	4449
2026-01-25 13:11:44.27	296.87	11.99	-46.0	-47.4	19.3	0.00e+00	0	43	0	530579456	63	4280
2026-01-25 13:11:45.26	297.06	11.98	-46.0	-47.4	19.4	0.00e+00	0	43	0	532676608	63	4276
2026-01-25 13:11:46.24	297.25	11.98	-45.6	-47.0	19.8	0.00e+00	0	43	0	534773760	63	4063
2026-01-25 13:11:47.24	297.44	11.97	-45.5	-46.8	19.9	0.00e+00	0	43	0	535822336	63	3999
2026-01-25 13:11:48.22	297.63	11.96	-45.4	-46.8	19.9	0.00e+00	0	43	0	537919488	62	4205
2026-01-25 13:11:49.21	297.82	11.95	-45.5	-46.9	19.9	0.00e+00	0	43	0	540016640	62	4269
2026-01-25 13:11:50.19	298.00	11.95	-45.4	-46.8	19.9	0.00e+00	0	43	0	541065216	62	4204
2026-01-25 13:11:51.18	298.19	11.94	-45.5	-46.9	19.8	0.00e+00	0	43	0	543162368	62	4282
2026-01-25 13:11:52.17	298.38	11.93	-45.6	-47.0	19.7	0.00e+00	0	43	0	545259520	62	4324
2026-01-25 13:11:53.15	298.56	11.92	-45.7	-47.1	19.6	0.00e+00	0	43	0	547356672	62	4361
2026-01-25 13:11:54.14	298.75	11.91	-45.5	-46.8	19.9	0.00e+00	0	43	0	549453824	62	4242
2026-01-25 13:11:55.12	298.94	11.90	-45.3	-46.7	20.0	0.00e+00	0	43	0	550502400	62	4168
2026-01-25 13:11:56.10	299.12	11.89	-45.3	-46.7	20.0	0.00e+00	0	43	0	552599552	62	4170
2026-01-25 13:11:57.08	299.31	11.88	-45.3	-46.7	20.0	0.00e+00	0	43	0	554696704	62	4159
2026-01-25 13:11:58.07	299.50	11.87	-45.2	-46.5	20.2	0.00e+00	0	43	0	556793856	62	4073
2026-01-25 13:11:59.06	299.69	11.86	-45.3	-46.6	20.1	0.00e+00	0	43	0	557842432	62	4123
2026-01-25 13:12:00.05	299.87	11.85	-45.5	-46.9	19.8	0.00e+00	0	43	0	559939584	62	4262
2026-01-25 13:12:01.03	300.06	11.84	-45.5	-46.9	19.7	0.00e+00	0	43	0	562036736	62	4278
2026-01-25 13:12:02.02	300.25	11.83	-45.7	-47.1	19.6	0.00e+00	0	43	0	564133888	62	4376
2026-01-25 13:12:03.01	300.43	11.82	-45.8	-47.3	19.4	0.00e+00	0	43	0	565182464	62	4471
2026-01-25 13:12:04.00	300.62	11.80	-45.7	-47.1	19.6	0.00e+00	0	43	0	567279616	62	4358
2026-01-25 13:12:04.98	300.80	11.79	-45.6	-47.0	19.7	0.00e+00	0	43	0	569376768	62	4304
2026-01-25 13:12:05.97	300.99	11.78	-45.3	-46.7	20.0	0.00e+00	0	43	0	571473920	62	4164
2026-01-25 13:12:06.95	301.17	11.77	-45.1	-46.4	20.2	0.00e+00	0	43	0	573571072	62	4036
2026-01-25 13:12:07.94	301.36	11.75	-45.1	-46.4	20.2	0.00e+00	0	43	0	574619648	62	4011
2026-01-25 13:12:08.93	301.55	11.74	-45.1	-46.4	20.3	0.00e+00	0	43	0	576716800	62	4019
2026-01-25 13:12:09.91	301.73	11.73	-45.1	-46.4	20.2	0.00e+00	0	43	0	578813952	61	4260
2026-01-25 13:12:10.90	301.92	11.71	-45.2	-46.5	20.1	0.00e+00	0	43	0	579862528	61	4313
2026-01-25 13:12:11.88	302.10	11.70	-45.3	-46.6	20.1	0.00e+00	0	43	0	581959680	61	4365
2026-01-25 13:12:12.87	302.28	11.69	-45.3	-46.7	19.9	0.00e+00	0	43	0	584056832	61	4419
2026-01-25 13:12:13.87	302.47	11.67	-45.4	-46.8	19.9	0.00e+00	0	43	0	586153984	61	4455
2026-01-25 13:12:14.86	302.66	11.66	-45.3	-46.7	20.0	0.00e+00	0	43	0	588251136	61	4396
2026-01-25 13:12:15.85	302.84	11.64	-45.3	-46.7	20.0	0.00e+00	0	43	0	589299712	61	4401
2026-01-25 13:12:16.84	303.03	11.63	-45.1	-46.4	20.2	0.00e+00	0	43	0	591396864	61	4268
2026-01-25 13:12:17.83	303.21	11.61	-45.1	-46.4	20.2	0.00e+00	0	43	0	593494016	61	4282
2026-01-25 13:12:18.82	303.39	11.59	-45.1	-46.4	20.2	0.00e+00	0	43	0	595591168	61	4279
2026-01-25 13:12:19.80	303.58	11.58	-45.1	-46.4	20.2	0.00e+00	0	43	0	596639744	61	4264
2026-01-25 13:12:20.79	303.76	11.56	-45.2	-46.5	20.2	0.00e+00	0	43	0	598736896	61	4308
2026-01-25 13:12:21.78	303.94	11.55	-45.1	-46.4	20.2	0.00e+00	0	43	0	600834048	61	4251
2026-01-25 13:12:22.77	304.13	11.53	-45.2	-46.6	20.1	0.00e+00	0	43	0	602931200	61	4353
2026-01-25 13:12:23.76	304.31	11.51	-45.3	-46.7	19.9	0.00e+00	0	43	0	605028352	61	4407
2026-01-25 13:12:24.74	304.49	11.50	-45.4	-46.8	19.9	0.00e+00	0	43	0	606076928	61	4470
2026-01-25 13:12:25.73	304.67	11.48	-45.4	-46.8	19.8	0.00e+00	0	43	0	608174080	61	4484
2026-01-25 13:12:26.73	304.86	11.46	-45.5	-46.9	19.8	0.00e+00	0	43	0	610271232	61	4521
2026-01-25 13:12:27.72	305.04	11.44	-45.3	-46.7	19.8	0.00e+00	0	43	0	612368384	61	4420
2026-01-25 13:12:28.71	305.22	11.42	-45.4	-46.8	19.8	0.00e+00	0	43	0	613416960	61	4474
2026-01-25 13:12:29.70	305.40	11.40	-45.4	-46.8	19.9	0.00e+00	0	43	0	615514112	61	4442
2026-01-25 13:12:30.69	305.59	11.39	-45.5	-46.9	19.7	0.00e+00	0	43	0	617611264	61	4534
2026-01-25 13:12:31.68	305.77	11.37	-45.6	-47.0	19.6	0.00e+00	0	43	0	619708416	61	4580
2026-01-25 13:12:32.67	305.95	11.35	-45.7	-47.1	19.5	0.00e+00	0	43	0	620756992	61	4647
2026-01-25 13:12:33.66	306.13	11.33	-45.7	-47.2	19.5	0.00e+00	0	43	0	622854144	62	4404
2026-01-25 13:12:34.65	306.31	11.31	-45.7	-47.2	19.4	0.00e+00	0	43	0	624951296	62	4416
2026-01-25 13:12:35.65	306.49	11.29	-45.8	-47.3	19.3	0.00e+00	0	43	0	627048448	62	4487
2026-01-25 13:12:36.62	306.67	11.27	-45.7	-47.2	19.4	0.00e+00	0	43	0	629145600	62	4413
2026-01-25 13:12:37.61	306.85	11.25	-45.7	-47.1	19.4	0.00e+00	0	43	0	630194176	62	4380
2026-01-25 13:12:38.60	307.03	11.23	-45.5	-46.9	19.8	0.00e+00	0	43	0	632291328	62	4250
2026-01-25 13:12:39.58	307.21	11.21	-45.2	-46.6	20.0	0.00e+00	0	43	0	634388480	62	4102
2026-01-25 13:12:40.56	307.38	11.19	-45.0	-46.3	20.3	0.00e+00	0	43	0	636485632	61	4196
2026-01-25 13:12:41.54	307.56	11.17	-44.8	-46.1	20.4	0.00e+00	0	43	0	637534208	61	4134
2026-01-25 13:12:42.53	307.74	11.14	-44.9	-46.1	20.4	0.00e+00	0	43	0	639631360	61	4135
2026-01-25 13:12:43.51	307.92	11.12	-44.8	-46.1	20.4	0.00e+00	0	43	0	641728512	61	4125
2026-01-25 13:12:44.49	308.09	11.10	-44.6	-45.9	20.6	0.00e+00	0	43	0	643825664	61	4015
2026-01-25 13:12:45.48	308.27	11.08	-44.8	-46.1	20.4	0.00e+00	0	43	0	644874240	61	4134
2026-01-25 13:12:46.46	308.45	11.06	-44.8	-46.0	20.5	0.00e+00	0	43	0	646971392	61	4082
2026-01-25 13:12:47.44	308.62	11.03	-44.8	-46.1	20.5	0.00e+00	0	43	0	649068544	61	4114
2026-01-25 13:12:48.42	308.80	11.01	-44.6	-45.9	20.6	0.00e+00	0	43	0	651165696	61	4030
2026-01-25 13:12:49.40	308.97	10.99	-44.6	-45.9	20.6	0.00e+00	0	43	0	652214272	61	4013
2026-01-25 13:12:50.38	309.15	10.96	-44.4	-45.6	20.8	0.00e+00	0	43	0	654311424	60	4124
2026-01-25 13:12:51.37	309.32	10.94	-44.4	-45.6	20.8	0.00e+00	0	43	0	656408576	60	4104
2026-01-25 13:12:52.36	309.50	10.92	-44.5	-45.7	20.7	0.00e+00	0	43	0	658505728	60	4173
2026-01-25 13:12:53.34	309.67	10.89	-44.5	-45.7	20.7	0.00e+00	0	43	0	659554304	60	4160
2026-01-25 13:12:54.32	309.85	10.87	-44.6	-45.9	20.5	0.00e+00	0	43	0	661651456	60	4253
2026-01-25 13:12:55.31	310.02	10.85	-44.9	-46.2	20.4	0.00e+00	0	43	0	663748608	60	4399
2026-01-25 13:12:56.30	310.20	10.82	-45.0	-46.3	20.2	0.00e+00	0	43	0	665845760	60	4451
2026-01-25 13:12:57.29	310.37	10.80	-44.9	-46.2	20.2	0.00e+00	0	43	0	666894336	60	4437
2026-01-25 13:12:58.27	310.54	10.77	-45.0	-46.3	20.1	0.00e+00	0	43	0	668991488	60	4488
2026-01-25 13:12:59.26	310.72	10.75	-45.0	-46.4	20.1	0.00e+00	0	43	0	671088640	60	4501
2026-01-25 13:13:00.25	310.89	10.72	-44.9	-46.2	20.2	0.00e+00	0	43	0	673185792	60	4418
2026-01-25 13:13:01.23	311.06	10.70	-45.0	-46.3	20.3	0.00e+00	0	43	0	675282944	60	4450
2026-01-25 13:13:02.22	311.24	10.67	-44.8	-46.1	20.3	0.00e+00	0	43	0	676331520	60	4382
2026-01-25 13:13:03.20	311.41	10.64	-44.7	-46.0	20.4	0.00e+00	0	43	0	678428672	60	4300
2026-01-25 13:13:04.19	311.58	10.62	-44.7	-46.0	20.5	0.00e+00	0	43	0	680525824	60	4301
2026-01-25 13:13:05.17	311.75	10.59	-44.6	-45.8	20.5	0.00e+00	0	43	0	682622976	60	4239
2026-01-25 13:13:06.15	311.92	10.56	-44.6	-45.8	20.6	0.00e+00	0	43	0	683671552	60	4230
2026-01-25 13:13:07.13	312.09	10.54	-44.6	-45.9	20.5	0.00e+00	0	43	0	685768704	60	4268
2026-01-25 13:13:08.11	312.26	10.51	-44.7	-46.0	20.5	0.00e+00	0	43	0	687865856	60	4313
2026-01-25 13:13:09.10	312.43	10.48	-44.9	-46.2	20.2	0.00e+00	0	43	0	689963008	60	4423
2026-01-25 13:13:10.07	312.60	10.46	-44.9	-46.2	20.2	0.00e+00	0	43	0	691011584	60	4397
2026-01-25 13:13:11.06	312.77	10.43	-44.8	-46.1	20.2	0.00e+00	0	43	0	693108736	60	4366
2026-01-25 13:13:12.04	312.94	10.40	-44.8	-46.1	20.3	0.00e+00	0	43	0	695205888	60	4358
2026-01-25 13:13:13.01	313.10	10.38	-44.7	-45.9	20.4	0.00e+00	0	43	0	697303040	60	4278
2026-01-25 13:13:14.00	313.27	10.35	-44.7	-46.0	20.4	0.00e+00	0	43	0	698351616	60	4310
2026-01-25 13:13:14.99	313.44	10.32	-44.6	-45.9	20.5	0.00e+00	0	43	0	700448768	60	4278
2026-01-25 13:13:15.97	313.61	10.29	-44.7	-46.0	20.4	0.00e+00	0	43	0	702545920	60	4293
2026-01-25 13:13:16.95	313.78	10.26	-44.8	-46.1	20.3	0.00e+00	0	43	0	704643072	60	4371
2026-01-25 13:13:17.93	313.94	10.23	-44.8	-46.1	20.3	0.00e+00	0	43	0	705691648	60	4347
2026-01-25 13:13:18.91	314.11	10.20	-44.7	-46.0	20.4	0.00e+00	0	43	0	707788800	60	4296
2026-01-25 13:13:19.89	314.27	10.18	-44.9	-46.2	20.2	0.00e+00	0	43	0	709885952	60	4407
2026-01-25 13:13:20.87	314.44	10.15	-44.9	-46.2	20.2	0.00e+00	0	43	0	711983104	60	4439
2026-01-25 13:13:21.85	314.61	10.12	-44.7	-46.0	20.3	0.00e+00	0	43	0	713031680	60	4331
2026-01-25 13:13:22.83	314.77	10.09	-44.7	-45.9	20.5	0.00e+00	0	43	0	715128832	60	4291
2026-01-25 13:13:23.81	314.94	10.06	-44.7	-46.0	20.4	0.00e+00	0	43	0	717225984	60	4292
2026-01-25 13:13:24.78	315.10	10.03	-44.9	-46.3	20.2	0.00e+00	0	43	0	719323136	60	4445
2026-01-25 13:13:25.76	315.26	10.00	-45.0	-46.4	20.1	0.00e+00	0	43	0	720371712	60	4494
2026-01-25 13:13:26.74	315.43	9.97	-44.9	-46.3	20.2	0.00e+00	0	43	0	722468864	60	4448
2026-01-25 13:13:27.72	315.59	9.94	-45.0	-46.3	20.1	0.00e+00	0	43	0	724566016	60	4471
2026-01-25 13:13:28.70	315.75	9.91	-45.2	-46.6	19.9	0.00e+00	0	43	0	726663168	61	4345
2026-01-25 13:13:29.68	315.91	9.88	-45.5	-46.9	19.6	0.00e+00	0	43	0	727711744	61	4509
2026-01-25 13:13:30.66	316.08	9.85	-45.7	-47.1	19.3	0.00e+00	0	43	0	729808896	61	4638
2026-01-25 13:13:31.64	316.24	9.82	-45.9	-47.4	19.1	0.00e+00	0	43	0	731906048	62	4517
2026-01-25 13:13:32.62	316.40	9.78	-45.9	-47.4	19.0	0.00e+00	0	43	0	734003200	62	4522
2026-01-25 13:13:33.59	316.56	9.75	-46.1	-47.7	18.8	0.00e+00	0	43	0	735051776	62	4657
2026-01-25 13:13:34.57	316.72	9.72	-46.1	-47.6	18.9	0.00e+00	0	43	0	737148928	62	4638
2026-01-25 13:13:35.55	316.88	9.69	-46.1	-47.7	18.8	0.00e+00	0	43	0	739246080	62	4674
2026-01-25 13:13:36.54	317.04	9.66	-46.0	-47.6	18.9	0.00e+00	0	43	0	741343232	62	4613
2026-01-25 13:13:37.52	317.20	9.63	-46.2	-47.8	18.7	0.00e+00	0	43	0	743440384	63	4449
2026-01-25 13:13:38.50	317.36	9.59	-46.3	-47.9	18.6	0.00e+00	0	43	0	744488960	63	4512
2026-01-25 13:13:39.48	317.52	9.56	-46.3	-48.0	18.5	0.00e+00	0	43	0	746586112	63	4553
2026-01-25 13:13:40.46	317.68	9.53	-46.3	-47.9	18.5	0.00e+00	0	43	0	748683264	63	4544
2026-01-25 13:13:41.44	317.84	9.50	-46.2	-47.8	18.6	0.00e+00	0	43	0	749731840	63	4490
2026-01-25 13:13:42.43	318.00	9.46	-46.3	-48.0	18.5	0.00e+00	0	43	0	751828992	63	4550
2026-01-25 13:13:43.41	318.16	9.43	-46.3	-47.9	18.5	0.00e+00	0	43	0	753926144	63	4542
2026-01-25 13:13:44.40	318.32	9.40	-46.4	-48.0	18.4	0.00e+00	0	43	0	756023296	63	4591
2026-01-25 13:13:45.38	318.47	9.37	-46.3	-47.9	18.5	0.00e+00	0	43	0	757071872	63	4516
2026-01-25 13:13:46.36	318.63	9.33	-46.4	-48.0	18.4	0.00e+00	0	43	0	759169024	63	4592
2026-01-25 13:13:47.35	318.79	9.30	-46.3	-47.9	18.6	0.00e+00	0	43	0	761266176	63	4507
2026-01-25 13:13:48.34	318.95	9.27	-46.3	-48.0	18.5	0.00e+00	0	43	0	763363328	63	4547
2026-01-25 13:13:49.32	319.10	9.23	-46.3	-48.0	18.5	0.00e+00	0	43	0	765460480	63	4562
2026-01-25 13:13:50.31	319.26	9.20	-46.5	-48.2	18.3	0.00e+00	0	43	0	766509056	63	4654
2026-01-25 13:13:51.29	319.41	9.16	-46.5	-48.2	18.2	0.00e+00	0	43	0	768606208	63	4662
2026-01-25 13:13:52.28	319.57	9.13	-46.6	-48.4	18.1	0.00e+00	0	43	0	770703360	63	4764
2026-01-25 13:13:53.26	319.72	9.10	-46.7	-48.5	17.8	0.00e+00	0	43	0	772800512	64	4584
2026-01-25 13:13:54.24	319.88	9.06	-46.7	-48.6	17.8	0.00e+00	0	43	0	773849088	64	4599
2026-01-25 13:13:55.24	320.04	9.03	-46.9	-48.7	17.6	0.00e+00	0	43	0	775946240	64	4704
2026-01-25 13:13:56.22	320.19	8.99	-47.0	-48.9	17.6	0.00e+00	0	43	0	778043392	64	4767
2026-01-25 13:13:57.20	320.34	8.96	-46.9	-48.7	17.6	0.00e+00	0	43	0	780140544	64	4696
2026-01-25 13:13:58.19	320.50	8.92	-46.7	-48.5	17.8	0.00e+00	0	43	0	781189120	64	4596
2026-01-25 13:13:59.18	320.65	8.89	-46.6	-48.4	18.0	0.00e+00	0	43	0	783286272	64	4500
2026-01-25 13:14:00.16	320.80	8.85	-46.6	-48.4	18.0	0.00e+00	0	43	0	785383424	64	4522
2026-01-25 13:14:01.15	320.95	8.82	-46.8	-48.7	17.7	0.00e+00	0	43	0	787480576	64	4664
2026-01-25 13:14:02.13	321.11	8.78	-47.1	-49.0	17.4	0.00e+00	0	43	0	789577728	65	4588
2026-01-25 13:14:03.12	321.26	8.74	-47.4	-49.4	17.0	0.00e+00	0	43	0	790626304	65	4786
2026-01-25 13:14:04.11	321.41	8.71	-47.6	-49.8	16.6	0.00e+00	0	43	0	792723456	65	4990
2026-01-25 13:14:05.10	321.56	8.67	-47.9	-50.2	16.2	0.00e+00	0	43	0	794820608	66	4932
2026-01-25 13:14:06.09	321.71	8.64	-48.1	-50.5	15.9	0.00e+00	0	43	0	795869184	66	5150
2026-01-25 13:14:07.08	321.86	8.60	-48.1	-50.4	16.1	0.00e+00	0	43	0	797966336	67	4790
2026-01-25 13:14:08.06	322.01	8.56	-47.9	-50.1	16.3	0.00e+00	0	43	0	800063488	67	4649
2026-01-25 13:14:09.05	322.16	8.53	-48.0	-50.3	16.2	0.00e+00	0	43	0	802160640	67	4713
2026-01-25 13:14:10.03	322.31	8.49	-47.9	-50.1	16.3	0.00e+00	0	43	0	804257792	67	4636
2026-01-25 13:14:11.03	322.46	8.45	-47.6	-49.7	16.7	0.00e+00	0	43	0	805306368	67	4425
2026-01-25 13:14:12.01	322.61	8.42	-47.5	-49.6	16.8	0.00e+00	0	43	0	807403520	66	4613
2026-01-25 13:14:12.99	322.76	8.38	-47.5	-49.6	16.8	0.00e+00	0	43	0	809500672	66	4648
2026-01-25 13:14:13.97	322.90	8.35	-47.4	-49.5	16.8	0.00e+00	0	43	0	811597824	66	4566
2026-01-25 13:14:14.96	323.05	8.31	-47.4	-49.5	16.8	0.00e+00	0	43	0	812646400	66	4554
2026-01-25 13:14:15.94	323.20	8.27	-47.3	-49.4	17.0	0.00e+00	0	43	0	814743552	66	4512
2026-01-25 13:14:16.93	323.35	8.23	-47.5	-49.6	16.8	0.00e+00	0	43	0	816840704	66	4628
2026-01-25 13:14:17.91	323.49	8.20	-47.4	-49.5	16.9	0.00e+00	0	43	0	818937856	66	4597
2026-01-25 13:14:18.90	323.64	8.16	-47.5	-49.6	16.7	0.00e+00	0	43	0	819986432	66	4600
2026-01-25 13:14:19.88	323.78	8.12	-47.4	-49.5	16.9	0.00e+00	0	43	0	822083584	66	4583
2026-01-25 13:14:20.87	323.93	8.08	-47.6	-49.7	16.6	0.00e+00	0	43	0	824180736	66	4703
2026-01-25 13:14:21.85	324.07	8.05	-47.4	-49.5	16.8	0.00e+00	0	43	0	826277888	66	4594
2026-01-25 13:14:22.84	324.22	8.01	-47.7	-49.9	16.5	0.00e+00	0	43	0	828375040	66	4777
2026-01-25 13:14:23.83	324.36	7.97	-47.7	-49.9	16.4	0.00e+00	0	43	0	829423616	66	4806
2026-01-25 13:14:24.82	324.51	7.93	-47.5	-49.6	16.7	0.00e+00	0	43	0	831520768	66	4645
2026-01-25 13:14:25.80	324.65	7.89	-47.8	-50.1	16.3	0.00e+00	0	43	0	833617920	66	4879
2026-01-25 13:14:26.78	324.79	7.86	-47.7	-50.0	16.3	0.00e+00	0	43	0	834666496	66	4839
2026-01-25 13:14:27.77	324.93	7.82	-47.8	-50.1	16.2	0.00e+00	0	43	0	836763648	66	4881
2026-01-25 13:14:28.76	325.08	7.78	-47.7	-49.9	16.4	0.00e+00	0	43	0	838860800	66	4762
2026-01-25 13:14:29.74	325.22	7.74	-47.8	-50.0	16.2	0.00e+00	0	43	0	840957952	66	4867
2026-01-25 13:14:30.72	325.36	7.70	-47.8	-50.0	16.2	0.00e+00	0	43	0	843055104	66	4862
2026-01-25 13:14:31.69	325.50	7.67	-47.6	-49.8	16.4	0.00e+00	0	43	0	844103680	66	4725
2026-01-25 13:14:32.68	325.64	7.63	-47.7	-49.9	16.5	0.00e+00	0	43	0	846200832	66	4762
2026-01-25 13:14:33.67	325.78	7.59	-47.7	-49.9	16.3	0.00e+00	0	43	0	848297984	66	4811
2026-01-25 13:14:34.65	325.92	7.55	-47.5	-49.6	16.8	0.00e+00	0	43	0	850395136	66	4610
2026-01-25 13:14:35.65	326.06	7.51	-47.6	-49.7	16.7	0.00e+00	0	43	0	851443712	66	4701
2026-01-25 13:14:36.63	326.20	7.47	-47.3	-49.3	16.9	0.00e+00	0	43	0	853540864	66	4493
2026-01-25 13:14:37.62	326.34	7.43	-47.4	-49.6	16.7	0.00e+00	0	43	0	855638016	66	4600
2026-01-25 13:14:38.61	326.48	7.39	-47.3	-49.4	16.9	0.00e+00	0	43	0	857735168	66	4522
2026-01-25 13:14:39.59	326.62	7.35	-47.3	-49.4	16.9	0.00e+00	0	43	0	858783744	66	4494
2026-01-25 13:14:40.58	326.76	7.31	-47.1	-49.2	17.1	0.00e+00	0	44	0	860880896	66	4398
2026-01-25 13:14:41.56	326.89	7.27	-47.0	-48.9	17.3	0.00e+00	0	43	0	862978048	66	4287
2026-01-25 13:14:42.54	327.03	7.23	-46.8	-48.7	17.5	0.00e+00	0	43	0	865075200	65	4392
2026-01-25 13:14:43.52	327.17	7.20	-47.0	-49.0	17.2	0.00e+00	0	43	0	867172352	65	4546
2026-01-25 13:14:44.50	327.30	7.16	-46.9	-48.8	17.4	0.00e+00	0	43	0	868220928	65	4492
2026-01-25 13:14:45.48	327.44	7.12	-46.9	-48.9	17.4	0.00e+00	0	43	0	870318080	65	4498
2026-01-25 13:14:46.45	327.57	7.08	-46.8	-48.7	17.5	0.00e+00	0	43	0	872415232	65	4414
2026-01-25 13:14:47.43	327.71	7.04	-46.7	-48.5	17.6	0.00e+00	0	43	0	874512384	65	4328
2026-01-25 13:14:48.42	327.84	7.00	-46.7	-48.6	17.5	0.00e+00	0	43	0	875560960	65	4372
2026-01-25 13:14:49.40	327.98	6.96	-46.7	-48.6	17.6	0.00e+00	0	43	0	877658112	64	4604
2026-01-25 13:14:50.38	328.11	6.92	-46.5	-48.4	17.8	0.00e+00	0	43	0	879755264	64	4494
2026-01-25 13:14:51.37	328.24	6.88	-46.8	-48.7	17.3	0.00e+00	0	43	0	880803840	64	4705
2026-01-25 13:14:52.35	328.38	6.84	-46.9	-48.9	17.2	0.00e+00	0	43	0	882900992	64	4776
2026-01-25 13:14:53.34	328.51	6.80	-46.9	-48.9	17.2	0.00e+00	0	43	0	884998144	64	4788
2026-01-25 13:14:54.32	328.64	6.76	-46.9	-48.9	17.3	0.00e+00	0	43	0	887095296	64	4770
2026-01-25 13:14:55.30	328.77	6.72	-46.8	-48.8	17.3	0.00e+00	0	43	0	888143872	64	4712
2026-01-25 13:14:56.29	328.91	6.68	-47.1	-49.1	16.9	0.00e+00	0	43	0	890241024	64	4906
2026-01-25 13:14:57.28	329.04	6.64	-47.2	-49.2	17.0	0.00e+00	0	43	0	892338176	65	4680
2026-01-25 13:14:58.26	329.17	6.60	-46.9	-48.9	17.3	0.00e+00	0	43	0	894435328	65	4531
2026-01-25 13:14:59.25	329.30	6.55	-47.0	-49.1	17.0	0.00e+00	0	43	0	896532480	65	4599
2026-01-25 13:15:00.24	329.43	6.51	-47.0	-48.9	17.3	0.00e+00	0	43	0	897581056	65	4534
2026-01-25 13:15:01.22	329.56	6.47	-46.8	-48.8	17.2	0.00e+00	0	43	0	899678208	65	4443
2026-01-25 13:15:02.20	329.69	6.43	-46.9	-48.9	17.1	0.00e+00	0	43	0	901775360	65	4528
2026-01-25 13:15:03.19	329.82	6.39	-47.0	-49.0	17.0	0.00e+00	0	43	0	903872512	65	4546
2026-01-25 13:15:04.17	329.95	6.35	-46.9	-48.8	17.2	0.00e+00	0	43	0	904921088	65	4493
2026-01-25 13:15:05.16	330.08	6.31	-46.8	-48.8	17.3	0.00e+00	0	43	0	907018240	65	4458
2026-01-25 13:15:06.14	330.21	6.27	-46.9	-48.9	17.2	0.00e+00	0	43	0	909115392	65	4540
2026-01-25 13:15:07.12	330.34	6.23	-47.0	-49.0	17.1	0.00e+00	0	43	0	911212544	65	4563
2026-01-25 13:15:08.11	330.47	6.19	-46.8	-48.8	17.3	0.00e+00	0	43	0	912261120	65	4443
2026-01-25 13:15:09.10	330.59	6.15	-46.9	-48.9	17.3	0.00e+00	0	44	0	914358272	65	4502
2026-01-25 13:15:10.08	330.72	6.10	-46.8	-48.7	17.4	0.00e+00	0	43	0	916455424	65	4406
2026-01-25 13:15:11.06	330.85	6.06	-46.6	-48.5	17.5	0.00e+00	0	43	0	918552576	65	4293
2026-01-25 13:15:12.05	330.97	6.02	-46.5	-48.4	17.7	0.00e+00	0	43	0	919601152	65	4249
2026-01-25 13:15:13.03	331.10	5.98	-46.3	-48.1	17.9	0.00e+00	0	43	0	921698304	64	4361
2026-01-25 13:15:14.01	331.23	5.94	-46.4	-48.3	17.8	0.00e+00	0	43	0	923795456	64	4458
2026-01-25 13:15:15.00	331.35	5.90	-46.1	-47.8	18.2	0.00e+00	0	43	0	925892608	64	4212
2026-01-25 13:15:15.98	331.48	5.86	-46.2	-47.9	18.2	0.00e+00	0	43	0	926941184	63	4529
2026-01-25 13:15:16.96	331.60	5.82	-45.9	-47.6	18.4	0.00e+00	0	43	0	929038336	63	4363
2026-01-25 13:15:17.94	331.72	5.77	-46.2	-48.0	18.1	0.00e+00	0	43	0	931135488	63	4560
2026-01-25 13:15:18.92	331.85	5.73	-46.1	-47.8	18.2	0.00e+00	0	43	0	933232640	63	4479
2026-01-25 13:15:19.91	331.97	5.69	-46.2	-48.0	18.1	0.00e+00	0	43	0	934281216	63	4572
2026-01-25 13:15:20.89	332.10	5.65	-46.4	-48.2	17.8	0.00e+00	0	43	0	936378368	63	4667
2026-01-25 13:15:21.87	332.22	5.61	-46.5	-48.3	17.7	0.00e+00	0	43	0	938475520	63	4754
2026-01-25 13:15:22.85	332.34	5.57	-46.4	-48.2	17.8	0.00e+00	0	43	0	940572672	63	4667
2026-01-25 13:15:23.83	332.46	5.52	-46.3	-48.1	17.9	0.00e+00	0	43	0	942669824	63	4647
2026-01-25 13:15:24.82	332.59	5.48	-46.4	-48.2	17.8	0.00e+00	0	43	0	943718400	63	4681
2026-01-25 13:15:25.81	332.71	5.44	-46.3	-48.1	17.9	0.00e+00	0	43	0	945815552	63	4633
2026-01-25 13:15:26.79	332.83	5.40	-46.3	-48.0	18.0	0.00e+00	0	43	0	947912704	63	4597
2026-01-25 13:15:27.77	332.95	5.36	-46.1	-47.8	18.2	0.00e+00	0	43	0	950009856	63	4464
2026-01-25 13:15:28.74	333.07	5.31	-45.9	-47.6	18.3	0.00e+00	0	43	0	951058432	63	4356
2026-01-25 13:15:29.71	333.19	5.27	-45.9	-47.6	18.5	0.00e+00	0	43	0	953155584	63	4351
2026-01-25 13:15:30.70	333.31	5.23	-46.2	-48.0	17.9	0.00e+00	0	43	0	955252736	63	4561
2026-01-25 13:15:31.68	333.43	5.19	-46.3	-48.1	17.8	0.00e+00	0	43	0	957349888	63	4650
2026-01-25 13:15:32.65	333.55	5.15	-46.3	-48.1	17.7	0.00e+00	0	43	0	958398464	63	4615
2026-01-25 13:15:33.65	333.67	5.10	-46.2	-48.0	17.9	0.00e+00	0	43	0	960495616	63	4548
2026-01-25 13:15:34.63	333.78	5.06	-46.3	-48.2	17.5	0.00e+00	0	43	0	962592768	63	4659
2026-01-25 13:15:35.62	333.90	5.02	-46.6	-48.7	16.8	0.00e+00	0	43	0	964689920	63	4954
2026-01-25 13:15:36.59	334.02	4.98	-48.0	-50.7	15.8	0.00e+00	0	43	0	965738496	66	5227
2026-01-25 13:15:37.57	334.14	4.94	-52.5	-67.5	3.8	1.49e+00	0	43	104	966787072	75	21640
2026-01-25 13:15:38.55	334.25	4.89	-52.8	-67.7	3.8	1.49e+00	0	43	104	966787072	76	21011
2026-01-25 13:15:39.52	334.37	4.85	-53.0	-67.9	3.8	1.49e+00	0	43	104	966787072	76	21387
2026-01-25 13:15:40.51	334.49	4.81	-53.1	-67.9	3.8	1.49e+00	0	43	104	966787072	76	21441
2026-01-25 13:15:41.50	334.60	4.77	-53.1	-67.8	3.8	1.49e+00	0	43	104	966787072	76	21222
2026-01-25 13:15:42.48	334.72	4.72	-53.2	-68.2	3.8	1.49e+00	0	43	104	966787072	76	22028
2026-01-25 13:15:43.47	334.84	4.68	-53.3	-68.2	3.8	1.49e+00	0	43	104	966787072	77	20965
2026-01-25 13:15:44.45	334.95	4.64	-53.3	-68.3	3.8	1.49e+00	0	43	104	966787072	77	21038
2026-01-25 13:15:45.43	335.07	4.60	-53.3	-68.2	3.8	1.49e+00	0	43	104	966787072	77	21005
2026-01-25 13:15:46.41	335.18	4.56	-53.2	-68.2	3.8	1.49e+00	0	43	104	966787072	77	20889
2026-01-25 13:15:47.40	335.30	4.51	-53.2	-68.1	3.8	1.49e+00	0	43	104	966787072	77	20720
2026-01-25 13:15:48.39	335.41	4.47	-53.0	-68.0	3.8	1.49e+00	0	43	104	966787072	77	20438
2026-01-25 13:15:49.37	335.52	4.43	-53.0	-67.9	3.8	1.49e+00	0	43	104	966787072	77	20225
2026-01-25 13:15:50.36	335.64	4.38	-53.0	-67.9	3.8	1.49e+00	0	44	104	966787072	77	20303
2026-01-25 13:15:51.35	335.75	4.34	-53.0	-68.0	3.8	1.49e+00	0	44	104	966787072	77	20409
2026-01-25 13:15:52.34	335.87	4.30	-53.1	-68.1	3.8	1.49e+00	0	43	104	966787072	77	20557
2026-01-25 13:15:53.32	335.98	4.26	-53.1	-68.1	3.8	1.49e+00	0	43	104	966787072	77	20551
2026-01-25 13:15:54.30	336.09	4.21	-53.1	-68.1	3.8	1.49e+00	0	44	104	966787072	77	20588
2026-01-25 13:15:55.28	336.20	4.17	-53.1	-68.1	3.8	1.49e+00	0	44	104	966787072	77	20611
2026-01-25 13:15:56.27	336.31	4.13	-53.2	-68.1	3.8	1.49e+00	0	43	104	966787072	77	20696
2026-01-25 13:15:57.25	336.43	4.09	-53.1	-68.1	3.8	1.49e+00	0	43	104	966787072	77	20580
2026-01-25 13:15:58.24	336.54	4.04	-53.1	-68.1	3.8	1.49e+00	0	44	104	966787072	77	20608
2026-01-25 13:15:59.22	336.65	4.00	-53.1	-68.1	3.8	1.49e+00	0	43	104	966787072	77	20544
2026-01-25 13:16:00.20	336.76	3.96	-53.1	-68.1	3.8	1.49e+00	0	44	104	966787072	77	20549
2026-01-25 13:16:01.19	336.87	3.91	-53.1	-68.0	3.8	1.49e+00	0	43	104	966787072	77	20518
2026-01-25 13:16:02.17	336.98	3.87	-53.1	-68.1	3.8	1.49e+00	0	43	104	966787072	77	20564
2026-01-25 13:16:03.15	337.09	3.83	-53.1	-68.0	3.8	1.49e+00	0	43	104	966787072	77	20538
2026-01-25 13:16:04.14	337.20	3.79	-53.1	-68.0	3.8	1.49e+00	0	44	104	966787072	77	20407
2026-01-25 13:16:05.12	337.31	3.74	-53.1	-68.0	3.8	1.49e+00	0	44	104	966787072	77	20445
2026-01-25 13:16:06.11	337.42	3.70	-53.0	-68.0	3.8	1.49e+00	0	44	104	966787072	77	20387
2026-01-25 13:16:07.09	337.52	3.66	-53.0	-68.0	3.8	1.49e+00	0	44	104	966787072	77	20427
2026-01-25 13:16:08.08	337.63	3.61	-53.0	-68.0	3.8	1.49e+00	0	44	104	966787072	77	20441
2026-01-25 13:16:09.06	337.74	3.57	-53.0	-68.0	3.8	1.49e+00	0	44	104	966787072	77	20415
2026-01-25 13:16:10.05	337.85	3.53	-53.0	-68.0	3.8	1.49e+00	0	43	104	966787072	77	20425
2026-01-25 13:16:11.03	337.95	3.48	-53.0	-68.0	3.8	1.49e+00	0	44	104	966787072	77	20405
2026-01-25 13:16:12.02	338.06	3.44	-53.0	-68.0	3.8	1.49e+00	0	44	104	966787072	77	20373
2026-01-25 13:16:13.00	338.17	3.40	-53.0	-68.0	3.8	1.49e+00	0	44	104	966787072	77	20389
2026-01-25 13:16:13.97	338.27	3.36	-53.0	-68.0	3.8	1.49e+00	0	43	104	966787072	77	20386
2026-01-25 13:16:14.96	338.38	3.31	-53.0	-68.0	3.8	1.49e+00	0	44	104	966787072	77	20371
2026-01-25 13:16:15.94	338.48	3.27	-53.0	-68.0	3.8	1.49e+00	0	44	104	966787072	77	20376
2026-01-25 13:16:16.92	338.59	3.23	-53.0	-68.0	3.8	1.49e+00	0	43	104	966787072	77	20407
2026-01-25 13:16:17.90	338.69	3.18	-53.0	-68.0	3.8	1.49e+00	0	43	104	966787072	77	20393
2026-01-25 13:16:18.89	338.80	3.14	-53.0	-68.0	3.8	1.49e+00	0	44	104	966787072	77	20368
2026-01-25 13:16:19.88	338.90	3.10	-53.0	-68.0	3.8	1.49e+00	0	44	104	966787072	77	20327
2026-01-25 13:16:20.86	339.01	3.05	-53.0	-68.0	3.8	1.49e+00	0	44	104	966787072	77	20347
2026-01-25 13:16:21.84	339.11	3.01	-53.0	-67.9	3.8	1.49e+00	0	44	104	966787072	77	20285
2026-01-25 13:16:22.82	339.21	2.97	-53.0	-68.0	3.8	1.49e+00	0	44	104	966787072	77	20337
2026-01-25 13:16:23.80	339.32	2.93	-53.0	-67.9	3.8	1.49e+00	0	44	104	966787072	77	20302
2026-01-25 13:16:24.78	339.42	2.88	-53.0	-67.9	3.8	1.49e+00	0	44	104	966787072	77	20276
2026-01-25 13:16:25.77	339.52	2.84	-53.0	-67.9	3.8	1.49e+00	0	44	104	966787072	77	20226
2026-01-25 13:16:26.75	339.63	2.80	-53.0	-67.9	3.8	1.49e+00	0	44	104	966787072	77	20293
2026-01-25 13:16:27.74	339.73	2.75	-53.0	-67.9	3.8	1.49e+00	0	43	104	966787072	77	20268
2026-01-25 13:16:28.73	339.83	2.71	-53.0	-68.0	3.8	1.49e+00	0	43	104	966787072	77	20325
2026-01-25 13:16:29.71	339.93	2.67	-53.0	-67.9	3.8	1.49e+00	0	43	104	966787072	77	20251
2026-01-25 13:16:30.69	340.03	2.62	-53.0	-67.9	3.8	1.49e+00	0	44	104	966787072	77	20302
2026-01-25 13:16:31.68	340.14	2.58	-53.0	-67.9	3.8	1.49e+00	0	43	104	966787072	77	20260
2026-01-25 13:16:32.66	340.24	2.54	-52.9	-67.9	3.8	1.49e+00	0	44	104	966787072	77	20207
2026-01-25 13:16:33.64	340.34	2.49	-52.9	-67.9	3.8	1.49e+00	0	44	104	966787072	77	20136
2026-01-25 13:16:34.63	340.44	2.45	-52.9	-67.9	3.8	1.49e+00	0	44	104	966787072	77	20179
2026-01-25 13:16:35.60	340.53	2.41	-52.9	-67.9	3.8	1.49e+00	0	44	104	966787072	77	20201
2026-01-25 13:16:36.58	340.63	2.37	-52.9	-67.9	3.8	1.49e+00	0	44	104	966787072	77	20166
2026-01-25 13:16:37.56	340.73	2.32	-52.9	-67.9	3.8	1.49e+00	0	44	104	966787072	77	20111
2026-01-25 13:16:38.54	340.83	2.28	-52.9	-67.9	3.8	1.49e+00	0	44	104	966787072	77	20156
2026-01-25 13:16:39.52	340.93	2.24	-52.9	-67.9	3.8	1.49e+00	0	44	104	966787072	77	20079
2026-01-25 13:16:40.50	341.03	2.19	-52.9	-67.9	3.8	1.49e+00	0	44	104	966787072	77	20181
2026-01-25 13:16:41.48	341.13	2.15	-52.9	-67.9	3.8	1.49e+00	0	44	104	966787072	77	20174
2026-01-25 13:16:42.46	341.22	2.11	-52.9	-67.9	3.8	1.49e+00	0	44	104	966787072	77	20177
2026-01-25 13:16:43.44	341.32	2.07	-52.9	-67.9	3.8	1.49e+00	0	44	104	966787072	77	20151
2026-01-25 13:16:44.42	341.42	2.02	-52.9	-67.9	3.8	1.49e+00	0	44	104	966787072	77	20100
2026-01-25 13:16:45.41	341.52	1.98	-52.9	-67.8	3.8	1.49e+00	0	44	104	966787072	77	20051
2026-01-25 13:16:46.39	341.61	1.94	-52.9	-67.9	3.8	1.49e+00	0	44	104	966787072	77	20128

#Closed at: 2026-01-25 13:16:47
#Recorded file [966 MB]: D:/lorett/data/31041_260125_160600.dat