passes_logs/2026/01/25/R3.2S_Murmansk/R3.2S_Murmansk__20260125_074816_TY-42_rec.log

#Pass ID: 20260125_074816_TY-42
#Satellite: TY-42
#Configuration: TY-42_900M
#almurnet v.1.7.20251203
#Start time: 2026-01-25 07:48:17

#Version: 2.2.20231116
#Station: R3.2S_Murmansk
#Location: 33.079688 lon 68.888172 lat
#TLE: 1 64048U 25103A   26024.92006944  .00008009  00000-0  38191-3 0 09993
#TLE: 2 64048 097.4112 100.1510 0001739 092.3265 306.2865 15.19163302 38320

#Time	Az	El	Level	Level2	SNR	BER	BlckErr	Temp	State	Recorded	gain1	gain2
2026-01-25 07:48:17.72	22.36	2.07	-52.6	-54.7	6.2	0.00e+00	0	51	0	0	77	17741
2026-01-25 07:48:18.72	22.44	2.13	-52.6	-54.7	6.2	0.00e+00	0	51	104	0	76	18806
2026-01-25 07:48:19.73	22.53	2.20	-52.6	-54.7	6.2	0.00e+00	0	51	104	0	76	18745
2026-01-25 07:48:20.73	22.61	2.26	-52.6	-54.7	6.2	0.00e+00	0	51	104	0	76	18729
2026-01-25 07:48:21.74	22.69	2.32	-52.6	-54.7	6.2	0.00e+00	0	51	104	0	76	18716
2026-01-25 07:48:22.75	22.78	2.39	-52.6	-54.7	6.2	0.00e+00	0	51	104	0	76	18728
2026-01-25 07:48:23.76	22.86	2.45	-52.6	-54.7	6.2	0.00e+00	0	51	104	0	76	18769
2026-01-25 07:48:24.77	22.94	2.52	-52.6	-54.7	6.2	0.00e+00	0	51	104	0	76	18692
2026-01-25 07:48:25.78	23.03	2.58	-52.6	-54.7	6.2	0.00e+00	0	51	104	0	76	18675
2026-01-25 07:48:26.79	23.11	2.64	-52.6	-54.7	6.2	0.00e+00	0	51	104	0	76	18702
2026-01-25 07:48:27.80	23.20	2.71	-52.6	-54.7	6.2	0.00e+00	0	51	104	0	76	18657
2026-01-25 07:48:28.80	23.29	2.77	-52.6	-54.7	6.2	0.00e+00	0	51	104	0	76	18707
2026-01-25 07:48:29.81	23.37	2.84	-52.6	-54.7	6.2	0.00e+00	0	51	104	0	76	18681
2026-01-25 07:48:30.82	23.46	2.90	-52.6	-54.7	6.2	0.00e+00	0	51	104	0	76	18626
2026-01-25 07:48:31.83	23.55	2.97	-52.6	-54.7	6.2	0.00e+00	0	51	104	0	76	18660
2026-01-25 07:48:32.84	23.64	3.03	-52.6	-54.7	6.2	0.00e+00	0	51	104	0	76	18705
2026-01-25 07:48:33.85	23.72	3.10	-52.5	-54.7	6.2	0.00e+00	0	52	104	0	76	18614
2026-01-25 07:48:34.85	23.81	3.16	-52.6	-54.7	6.2	0.00e+00	0	52	104	0	76	18657
2026-01-25 07:48:35.86	23.90	3.23	-52.6	-54.7	6.2	0.00e+00	0	52	104	0	76	18687
2026-01-25 07:48:36.87	23.99	3.29	-52.5	-54.7	6.2	0.00e+00	0	52	104	0	76	18699
2026-01-25 07:48:37.88	24.08	3.36	-52.5	-54.7	6.2	0.00e+00	0	52	104	0	76	18629
2026-01-25 07:48:38.89	24.17	3.43	-52.6	-54.7	6.2	0.00e+00	0	52	104	0	76	18689
2026-01-25 07:48:39.90	24.27	3.49	-52.6	-54.7	6.2	0.00e+00	0	52	104	0	76	18703
2026-01-25 07:48:40.91	24.36	3.56	-52.6	-54.7	6.2	0.00e+00	0	52	104	0	76	18692
2026-01-25 07:48:41.91	24.45	3.62	-52.6	-54.7	6.2	0.00e+00	0	52	104	0	76	18739
2026-01-25 07:48:42.92	24.54	3.69	-52.5	-54.7	6.2	0.00e+00	0	52	104	0	76	18694
2026-01-25 07:48:43.93	24.64	3.76	-52.5	-54.7	6.2	0.00e+00	0	52	104	0	76	18674
2026-01-25 07:48:44.94	24.73	3.83	-52.6	-54.7	6.2	0.00e+00	0	52	104	0	76	18699
2026-01-25 07:48:45.95	24.82	3.89	-52.5	-54.7	6.2	0.00e+00	0	52	104	0	76	18674
2026-01-25 07:48:46.96	24.92	3.96	-52.6	-54.7	6.2	0.00e+00	0	52	104	0	76	18665
2026-01-25 07:48:47.97	25.01	4.03	-52.6	-54.7	6.2	0.00e+00	0	52	104	0	76	18683
2026-01-25 07:48:48.98	25.11	4.10	-52.6	-54.7	6.2	0.00e+00	0	52	104	0	76	18654
2026-01-25 07:48:49.98	25.21	4.16	-52.6	-54.7	6.2	0.00e+00	0	52	104	0	76	18642
2026-01-25 07:48:50.99	25.30	4.23	-52.6	-54.7	6.2	0.00e+00	0	52	104	0	76	18679
2026-01-25 07:48:52.00	25.40	4.30	-52.6	-54.7	6.2	0.00e+00	0	52	104	0	76	18660
2026-01-25 07:48:53.01	25.50	4.37	-52.5	-54.7	6.2	0.00e+00	0	52	104	0	76	18620
2026-01-25 07:48:54.01	25.60	4.44	-52.6	-54.7	6.2	0.00e+00	0	53	104	0	76	18683
2026-01-25 07:48:55.02	25.70	4.51	-52.5	-54.7	6.2	0.00e+00	0	53	104	0	76	18681
2026-01-25 07:48:56.03	25.80	4.57	-52.6	-54.7	6.2	0.00e+00	0	53	104	0	76	18727
2026-01-25 07:48:57.04	25.90	4.64	-52.6	-54.7	6.2	0.00e+00	0	53	104	0	76	18666
2026-01-25 07:48:58.05	26.00	4.71	-52.6	-54.7	6.2	0.00e+00	0	53	104	0	76	18748
2026-01-25 07:48:59.06	26.10	4.78	-52.6	-54.7	6.2	0.00e+00	0	53	104	0	76	18657
2026-01-25 07:49:00.07	26.20	4.85	-52.5	-54.7	6.2	0.00e+00	0	53	104	0	76	18645
2026-01-25 07:49:01.08	26.31	4.92	-52.6	-54.7	6.2	0.00e+00	0	53	104	0	76	18698
2026-01-25 07:49:02.09	26.41	4.99	-52.6	-54.7	6.2	0.00e+00	0	53	104	0	76	18703
2026-01-25 07:49:03.10	26.51	5.06	-52.5	-54.7	6.2	0.00e+00	0	53	104	0	76	18683
2026-01-25 07:49:04.10	26.62	5.13	-52.7	-54.9	6.2	0.00e+00	0	53	104	0	76	19161
2026-01-25 07:49:05.11	26.72	5.20	-52.7	-54.8	6.2	0.00e+00	0	53	104	0	76	18889
2026-01-25 07:49:06.12	26.83	5.27	-52.5	-54.7	6.2	0.00e+00	0	53	104	0	76	18721
2026-01-25 07:49:07.12	26.93	5.34	-52.5	-54.7	6.2	0.00e+00	0	53	104	0	76	18670
2026-01-25 07:49:08.13	27.04	5.42	-52.7	-54.9	6.2	0.00e+00	0	53	104	0	76	19135
2026-01-25 07:49:09.14	27.15	5.49	-52.7	-54.8	6.2	0.00e+00	0	53	104	0	76	18940
2026-01-25 07:49:10.15	27.26	5.56	-52.6	-54.8	6.2	0.00e+00	0	53	104	0	76	18859
2026-01-25 07:49:11.16	27.37	5.63	-52.6	-54.7	6.2	0.00e+00	0	53	104	0	76	18680
2026-01-25 07:49:12.16	27.48	5.70	-52.8	-54.9	6.2	0.00e+00	0	53	104	0	76	19150
2026-01-25 07:49:13.17	27.59	5.77	-52.7	-54.9	6.2	0.00e+00	0	53	104	0	76	19070
2026-01-25 07:49:14.18	27.70	5.85	-52.6	-54.8	6.2	0.00e+00	0	53	104	0	76	18917
2026-01-25 07:49:15.19	27.81	5.92	-52.6	-54.7	6.2	0.00e+00	0	53	104	0	76	18812
2026-01-25 07:49:16.20	27.92	5.99	-40.5	-40.4	12.5	0.00e+00	0	55	0	8388608	51	15195
2026-01-25 07:49:17.21	28.03	6.06	-39.2	-39.1	13.3	5.83e-02	0	55	0	125829120	50	13890
2026-01-25 07:49:18.21	28.15	6.14	-39.3	-39.2	13.3	5.83e-02	0	55	0	234881024	50	14065
2026-01-25 07:49:19.22	28.26	6.21	-38.6	-38.5	13.7	5.83e-02	0	55	0	360710144	49	13761
2026-01-25 07:49:20.23	28.38	6.28	-36.9	-36.8	13.7	6.46e-02	0	55	0	469762048	45	14219
2026-01-25 07:49:21.24	28.49	6.36	-36.2	-36.1	14.1	6.46e-02	0	55	0	587202560	44	13930
2026-01-25 07:49:22.25	28.61	6.43	-35.9	-35.8	14.3	6.46e-02	0	55	0	696254464	43	14216
2026-01-25 07:49:23.25	28.72	6.50	-35.8	-35.7	14.4	3.14e-02	0	56	0	813694976	43	14073
2026-01-25 07:49:24.26	28.84	6.58	-35.6	-35.5	14.5	3.14e-02	0	55	0	922746880	43	13777
2026-01-25 07:49:25.27	28.96	6.65	-35.1	-35.0	14.8	1.91e-02	0	55	0	1031798784	42	13732
2026-01-25 07:49:26.28	29.08	6.73	-35.3	-35.2	14.7	1.91e-02	0	56	0	1149239296	42	14002
2026-01-25 07:49:27.28	29.20	6.80	-35.1	-35.0	14.8	1.91e-02	0	56	0	1258291200	42	13757
2026-01-25 07:49:28.29	29.32	6.88	-35.1	-35.0	14.7	1.40e-02	0	56	0	1375731712	42	13703
2026-01-25 07:49:29.30	29.44	6.95	-35.1	-35.0	14.7	1.40e-02	0	56	0	1484783616	42	13658
2026-01-25 07:49:30.31	29.56	7.03	-34.9	-34.8	14.7	1.40e-02	0	56	0	1593835520	41	14220
2026-01-25 07:49:31.32	29.69	7.10	-35.0	-34.9	14.7	8.62e-03	0	56	0	1711276032	41	14411
2026-01-25 07:49:32.32	29.81	7.18	-34.9	-34.8	14.8	8.62e-03	0	56	0	1837105152	41	14179
2026-01-25 07:49:33.33	29.93	7.25	-34.8	-34.7	14.8	8.62e-03	0	56	0	1946157056	41	14077
2026-01-25 07:49:34.34	30.06	7.33	-34.7	-34.6	14.9	7.78e-03	0	56	0	2055208960	41	13894
2026-01-25 07:49:35.35	30.19	7.41	-34.7	-34.6	14.9	7.78e-03	0	56	0	2172649472	41	13929
2026-01-25 07:49:36.36	30.31	7.48	-34.7	-34.6	14.9	7.78e-03	0	56	0	2281701376	41	13828
2026-01-25 07:49:37.36	30.44	7.56	-34.8	-34.7	14.8	7.48e-03	0	56	0	2399141888	41	14062
2026-01-25 07:49:38.37	30.57	7.64	-34.8	-34.7	14.8	7.48e-03	0	56	0	2508193792	41	14085
2026-01-25 07:49:39.38	30.70	7.71	-34.7	-34.7	14.8	7.48e-03	0	56	0	2625634304	41	13953
2026-01-25 07:49:40.39	30.83	7.79	-34.7	-34.6	14.9	7.48e-03	0	56	0	2734686208	41	13891
2026-01-25 07:49:41.40	30.96	7.87	-34.7	-34.6	14.9	8.51e-03	0	56	0	2843738112	41	13950
2026-01-25 07:49:42.40	31.09	7.95	-34.6	-34.5	14.9	8.51e-03	0	56	0	2961178624	41	13757
2026-01-25 07:49:43.41	31.22	8.03	-34.4	-34.4	15.0	7.51e-03	0	56	0	3070230528	40	14277
2026-01-25 07:49:44.42	31.35	8.10	-34.6	-34.5	14.9	7.51e-03	0	57	0	3196059648	40	14509
2026-01-25 07:49:45.43	31.49	8.18	-34.4	-34.3	15.0	7.51e-03	0	56	0	3305111552	40	14121
2026-01-25 07:49:46.44	31.62	8.26	-34.5	-34.4	14.9	6.39e-03	0	57	0	3422552064	40	14404
2026-01-25 07:49:47.44	31.76	8.34	-34.4	-34.3	15.0	6.39e-03	0	57	0	3531603968	40	14131
2026-01-25 07:49:48.45	31.90	8.42	-34.4	-34.3	15.0	6.39e-03	0	57	0	3649044480	40	14125
2026-01-25 07:49:49.46	32.03	8.50	-34.2	-34.1	15.1	6.25e-03	0	57	0	3758096384	40	13916
2026-01-25 07:49:50.47	32.17	8.58	-34.3	-34.2	15.1	6.25e-03	0	57	0	3867148288	40	14053
2026-01-25 07:49:51.48	32.31	8.66	-34.5	-34.4	14.9	5.57e-03	0	57	0	3984588800	40	14431
2026-01-25 07:49:52.48	32.45	8.74	-34.3	-34.2	15.1	5.57e-03	0	57	0	4093640704	40	14087
2026-01-25 07:49:53.49	32.59	8.82	-34.1	-34.1	15.1	5.57e-03	0	57	0	4211081216	40	13822
2026-01-25 07:49:54.50	32.74	8.90	-34.3	-34.2	15.1	5.40e-03	0	57	0	4320133120	40	13989
2026-01-25 07:49:55.51	32.88	8.98	-34.3	-34.3	15.0	5.40e-03	0	57	0	4429185024	40	14117
2026-01-25 07:49:56.51	33.02	9.06	-34.2	-34.1	15.1	5.16e-03	0	57	0	4546625536	40	13846
2026-01-25 07:49:57.52	33.17	9.14	-34.3	-34.2	15.1	5.16e-03	0	57	0	4672454656	40	13984
2026-01-25 07:49:58.53	33.31	9.22	-34.2	-34.1	15.1	5.16e-03	0	57	0	4781506560	40	13875
2026-01-25 07:49:59.54	33.46	9.30	-34.1	-34.0	15.2	4.43e-03	0	57	0	4890558464	40	13790
2026-01-25 07:50:00.54	33.61	9.38	-34.1	-34.1	15.2	4.43e-03	0	57	0	5007998976	40	13805
2026-01-25 07:50:01.55	33.76	9.47	-34.1	-34.0	15.2	4.43e-03	0	57	0	5117050880	40	13679
2026-01-25 07:50:02.56	33.91	9.55	-34.0	-33.9	15.2	4.09e-03	0	57	0	5234491392	40	13630
2026-01-25 07:50:03.57	34.06	9.63	-34.1	-34.0	15.2	4.09e-03	0	57	0	5343543296	40	13710
2026-01-25 07:50:04.58	34.21	9.71	-34.0	-33.9	15.3	3.61e-03	0	57	0	5452595200	40	13572
2026-01-25 07:50:05.58	34.36	9.79	-34.1	-34.0	15.3	3.61e-03	0	57	0	5570035712	39	14475
2026-01-25 07:50:06.59	34.52	9.88	-34.0	-33.9	15.3	3.61e-03	0	57	0	5679087616	39	14380
2026-01-25 07:50:07.60	34.67	9.96	-34.0	-33.9	15.3	3.26e-03	0	58	0	5796528128	39	14365
2026-01-25 07:50:08.61	34.83	10.04	-34.1	-34.0	15.3	3.26e-03	0	57	0	5905580032	39	14519
2026-01-25 07:50:09.62	34.99	10.13	-33.8	-33.7	15.4	3.26e-03	0	57	0	6031409152	39	14111
2026-01-25 07:50:10.63	35.15	10.21	-33.9	-33.8	15.4	3.21e-03	0	57	0	6140461056	39	14243
2026-01-25 07:50:11.64	35.31	10.30	-33.9	-33.8	15.4	3.21e-03	0	58	0	6257901568	39	14171
2026-01-25 07:50:12.64	35.46	10.38	-33.7	-33.6	15.4	3.21e-03	0	58	0	6366953472	39	13917
2026-01-25 07:50:13.65	35.63	10.46	-33.7	-33.6	15.4	2.66e-03	0	58	0	6484393984	39	13927
2026-01-25 07:50:14.66	35.79	10.55	-33.7	-33.6	15.4	2.66e-03	0	58	0	6593445888	39	13926
2026-01-25 07:50:15.67	35.95	10.63	-33.6	-33.5	15.5	2.47e-03	0	58	0	6702497792	39	13756
2026-01-25 07:50:16.68	36.12	10.72	-33.6	-33.5	15.4	2.47e-03	0	58	0	6819938304	39	13771
2026-01-25 07:50:17.68	36.28	10.80	-33.5	-33.4	15.5	2.47e-03	0	58	0	6928990208	39	13535
2026-01-25 07:50:18.69	36.45	10.89	-33.3	-33.2	15.6	2.30e-03	0	58	0	7046430720	38	14044
2026-01-25 07:50:19.70	36.62	10.98	-33.3	-33.2	15.6	2.30e-03	0	58	0	7155482624	38	14079
2026-01-25 07:50:20.71	36.79	11.06	-33.3	-33.2	15.6	2.30e-03	0	58	0	7264534528	38	14032
2026-01-25 07:50:21.72	36.96	11.15	-33.3	-33.2	15.6	1.74e-03	0	58	0	7381975040	38	13974
2026-01-25 07:50:22.72	37.13	11.23	-33.2	-33.1	15.7	1.74e-03	0	58	0	7507804160	38	13862
2026-01-25 07:50:23.73	37.30	11.32	-33.1	-33.0	15.7	1.56e-03	0	58	0	7616856064	38	13739
2026-01-25 07:50:24.74	37.48	11.41	-33.1	-33.0	15.7	1.56e-03	0	58	0	7725907968	38	13689
2026-01-25 07:50:25.75	37.65	11.49	-32.9	-32.8	15.8	1.38e-03	0	58	0	7843348480	37	14229
2026-01-25 07:50:26.76	37.83	11.58	-32.9	-32.8	15.8	1.38e-03	0	58	0	7952400384	37	14184
2026-01-25 07:50:27.76	38.01	11.67	-33.0	-32.9	15.7	1.38e-03	0	58	0	8069840896	37	14285
2026-01-25 07:50:28.77	38.19	11.75	-32.9	-32.8	15.8	1.07e-03	0	58	0	8178892800	37	14143
2026-01-25 07:50:29.78	38.37	11.84	-32.8	-32.7	15.8	1.07e-03	0	58	0	8287944704	37	14070
2026-01-25 07:50:30.78	38.55	11.93	-32.7	-32.6	15.8	1.07e-03	0	59	0	8405385216	37	13921
2026-01-25 07:50:31.79	38.73	12.02	-32.8	-32.7	15.8	9.63e-04	0	59	0	8514437120	37	13957
2026-01-25 07:50:32.80	38.92	12.11	-32.8	-32.7	15.8	9.63e-04	0	58	0	8631877632	37	14025
2026-01-25 07:50:33.81	39.10	12.20	-32.6	-32.5	15.9	8.44e-04	0	58	0	8740929536	37	13776
2026-01-25 07:50:34.82	39.29	12.28	-32.6	-32.5	15.9	8.44e-04	0	59	0	8858370048	37	13730
2026-01-25 07:50:35.82	39.48	12.37	-32.7	-32.6	15.8	8.44e-04	0	59	0	8975810560	37	13811
2026-01-25 07:50:36.83	39.67	12.46	-32.5	-32.4	15.9	7.68e-04	0	59	0	9093251072	37	13565
2026-01-25 07:50:37.84	39.86	12.55	-32.4	-32.3	16.0	7.68e-04	0	59	0	9202302976	36	14144
2026-01-25 07:50:38.85	40.05	12.64	-32.4	-32.3	15.9	7.68e-04	0	59	0	9311354880	36	14216
2026-01-25 07:50:39.85	40.24	12.73	-32.3	-32.2	16.0	5.67e-04	0	59	0	9428795392	36	14048
2026-01-25 07:50:40.86	40.44	12.82	-32.5	-32.4	15.9	5.67e-04	0	59	0	9537847296	36	14321
2026-01-25 07:50:41.87	40.63	12.91	-32.4	-32.3	15.9	5.34e-04	0	59	0	9655287808	36	14144
2026-01-25 07:50:42.88	40.83	13.00	-32.3	-32.2	16.0	5.34e-04	0	59	0	9764339712	36	13962
2026-01-25 07:50:43.88	41.03	13.09	-32.3	-32.2	16.0	5.34e-04	0	59	0	9881780224	36	14007
2026-01-25 07:50:44.89	41.23	13.18	-32.2	-32.1	16.0	4.82e-04	0	59	0	9990832128	36	13820
2026-01-25 07:50:45.90	41.43	13.27	-32.0	-31.9	16.1	4.82e-04	0	59	0	10099884032	36	13579
2026-01-25 07:50:46.91	41.64	13.36	-32.0	-31.9	16.1	4.82e-04	0	59	0	10217324544	36	13620
2026-01-25 07:50:47.92	41.84	13.45	-29.6	-29.6	15.6	5.43e-04	0	59	0	10326376448	31	13795
2026-01-25 07:50:48.92	42.05	13.54	-29.6	-29.5	15.7	5.43e-04	0	59	0	10452205568	31	13653
2026-01-25 07:50:49.93	42.26	13.63	-29.6	-29.5	15.7	5.43e-04	0	59	0	10561257472	31	13750
2026-01-25 07:50:50.94	42.47	13.72	-29.5	-29.4	15.7	1.04e-03	0	59	0	10678697984	31	13555
2026-01-25 07:50:51.95	42.68	13.82	-29.5	-29.4	15.7	1.04e-03	0	59	0	10787749888	31	13572
2026-01-25 07:50:52.96	42.89	13.91	-29.5	-29.5	15.7	1.04e-03	0	59	0	10905190400	31	13636
2026-01-25 07:50:53.97	43.10	14.00	-29.3	-29.2	15.8	1.11e-03	0	59	0	11014242304	30	13986
2026-01-25 07:50:54.98	43.32	14.09	-29.4	-29.3	15.8	1.11e-03	0	59	0	11123294208	30	14172
2026-01-25 07:50:55.98	43.54	14.18	-29.4	-29.3	15.8	1.07e-03	0	59	0	11240734720	30	14209
2026-01-25 07:50:56.99	43.76	14.27	-29.5	-29.4	15.7	1.07e-03	0	59	0	11349786624	30	14307
2026-01-25 07:50:58.00	43.98	14.37	-29.2	-29.1	15.8	1.07e-03	0	59	0	11467227136	30	13916
2026-01-25 07:50:59.01	44.20	14.46	-29.2	-29.1	15.8	1.02e-03	0	59	0	11576279040	30	13942
2026-01-25 07:51:00.02	44.42	14.55	-29.3	-29.2	15.8	1.02e-03	0	59	0	11685330944	30	14017
2026-01-25 07:51:01.02	44.65	14.64	-29.1	-29.0	15.9	1.02e-03	0	59	0	11811160064	30	13747
2026-01-25 07:51:02.03	44.87	14.74	-29.1	-29.0	15.9	6.96e-04	0	59	0	11928600576	30	13781
2026-01-25 07:51:03.04	45.10	14.83	-29.0	-28.9	15.9	6.96e-04	0	59	0	12037652480	30	13607
2026-01-25 07:51:04.05	45.33	14.92	-28.9	-28.9	15.9	6.48e-04	0	59	0	12146704384	29	14285
2026-01-25 07:51:05.06	45.56	15.01	-29.0	-28.9	15.9	6.48e-04	0	59	0	12264144896	29	14323
2026-01-25 07:51:06.06	45.79	15.11	-29.0	-28.9	15.9	6.48e-04	0	59	0	12373196800	29	14408
2026-01-25 07:51:07.07	46.03	15.20	-28.9	-28.8	15.9	6.05e-04	0	59	0	12490637312	29	14227
2026-01-25 07:51:08.08	46.27	15.29	-28.8	-28.7	16.0	6.05e-04	0	59	0	12599689216	29	14017
2026-01-25 07:51:09.09	46.51	15.39	-28.8	-28.8	16.0	6.05e-04	0	59	0	12717129728	29	14126
2026-01-25 07:51:10.10	46.75	15.48	-28.8	-28.7	16.0	4.82e-04	0	59	0	12826181632	29	13972
2026-01-25 07:51:11.10	46.99	15.57	-28.8	-28.7	16.0	4.82e-04	0	59	0	12935233536	29	14086
2026-01-25 07:51:12.11	47.23	15.66	-28.9	-28.8	15.9	4.82e-04	0	59	0	13052674048	29	14171
2026-01-25 07:51:13.12	47.48	15.76	-28.7	-28.6	16.0	4.67e-04	0	60	0	13170114560	29	13846
2026-01-25 07:51:14.13	47.72	15.85	-28.7	-28.6	16.0	4.67e-04	0	60	0	13287555072	29	13837
2026-01-25 07:51:15.14	47.97	15.94	-28.6	-28.5	16.0	4.67e-04	0	59	0	13396606976	29	13756
2026-01-25 07:51:16.14	48.22	16.04	-28.6	-28.5	16.0	4.67e-04	0	59	0	13514047488	29	13677
2026-01-25 07:51:17.15	48.47	16.13	-28.6	-28.5	16.0	4.43e-04	0	60	0	13623099392	29	13757
2026-01-25 07:51:18.16	48.73	16.22	-28.6	-28.5	16.1	4.43e-04	0	60	0	13740539904	29	13673
2026-01-25 07:51:19.17	48.99	16.32	-28.5	-28.4	16.1	4.43e-04	0	60	0	13849591808	29	13596
2026-01-25 07:51:20.18	49.24	16.41	-28.4	-28.3	16.1	4.43e-04	0	60	0	13958643712	28	14160
2026-01-25 07:51:21.19	49.50	16.50	-28.4	-28.3	16.1	4.43e-04	0	59	0	14076084224	28	14230
2026-01-25 07:51:22.20	49.77	16.60	-28.4	-28.3	16.1	3.00e-04	0	59	0	14185136128	28	14237
2026-01-25 07:51:23.21	50.03	16.69	-28.4	-28.3	16.1	3.00e-04	0	59	0	14302576640	28	14239
2026-01-25 07:51:24.21	50.29	16.78	-28.3	-28.2	16.1	3.00e-04	0	59	0	14411628544	28	14095
2026-01-25 07:51:25.22	50.56	16.87	-28.3	-28.2	16.1	3.34e-04	0	59	0	14537457664	28	14103
2026-01-25 07:51:26.23	50.83	16.97	-28.4	-28.3	16.1	3.34e-04	0	60	0	14646509568	28	14202
2026-01-25 07:51:27.24	51.10	17.06	-28.3	-28.2	16.1	3.48e-04	0	60	0	14763950080	28	14044
2026-01-25 07:51:28.25	51.38	17.15	-28.3	-28.2	16.1	3.48e-04	0	59	0	14873001984	28	14012
2026-01-25 07:51:29.26	51.65	17.25	-28.2	-28.1	16.1	3.48e-04	0	60	0	14982053888	28	13879
2026-01-25 07:51:30.26	51.93	17.34	-28.2	-28.1	16.1	3.48e-04	0	60	0	15099494400	28	13869
2026-01-25 07:51:31.27	52.20	17.43	-28.3	-28.2	16.1	3.48e-04	0	60	0	15208546304	28	13976
2026-01-25 07:51:32.28	52.49	17.52	-28.1	-28.0	16.2	3.48e-04	0	60	0	15325986816	28	13671
2026-01-25 07:51:33.29	52.77	17.61	-28.0	-27.9	16.2	3.10e-04	0	60	0	15435038720	28	13599
2026-01-25 07:51:34.30	53.05	17.71	-28.0	-28.0	16.2	3.10e-04	0	60	0	15544090624	28	13641
2026-01-25 07:51:35.30	53.34	17.80	-28.0	-27.9	16.2	3.00e-04	0	60	0	15661531136	28	13583
2026-01-25 07:51:36.31	53.63	17.89	-28.0	-27.9	16.2	3.00e-04	0	60	0	15770583040	27	14433
2026-01-25 07:51:37.32	53.92	17.98	-27.9	-27.9	16.2	3.00e-04	0	60	0	15896412160	27	14278
2026-01-25 07:51:38.33	54.21	18.07	-27.9	-27.8	16.2	3.10e-04	0	60	0	16005464064	27	14244
2026-01-25 07:51:39.34	54.51	18.16	-27.9	-27.8	16.2	3.10e-04	0	60	0	16122904576	27	14215
2026-01-25 07:51:40.34	54.80	18.25	-27.9	-27.8	16.2	3.10e-04	0	60	0	16231956480	27	14141
2026-01-25 07:51:41.35	55.10	18.34	-27.9	-27.8	16.2	2.86e-04	0	60	0	16349396992	27	14249
2026-01-25 07:51:42.36	55.40	18.43	-27.9	-27.8	16.2	2.86e-04	0	60	0	16458448896	27	14129
2026-01-25 07:51:43.37	55.70	18.52	-27.8	-27.7	16.2	2.86e-04	0	60	0	16575889408	27	14045
2026-01-25 07:51:44.38	56.01	18.61	-27.8	-27.7	16.2	2.81e-04	0	60	0	16684941312	27	14051
2026-01-25 07:51:45.38	56.31	18.70	-27.9	-27.8	16.2	2.81e-04	0	60	0	16793993216	27	14165
2026-01-25 07:51:46.39	56.62	18.79	-27.8	-27.7	16.2	2.19e-04	0	60	0	16911433728	27	14055
2026-01-25 07:51:47.40	56.93	18.88	-27.8	-27.7	16.2	2.19e-04	0	60	0	17020485632	27	14001
2026-01-25 07:51:48.41	57.25	18.97	-27.6	-27.5	16.3	2.19e-04	0	60	0	17137926144	27	13746
2026-01-25 07:51:49.42	57.56	19.05	-27.7	-27.6	16.3	1.67e-04	0	60	0	17246978048	27	13822
2026-01-25 07:51:50.42	57.88	19.14	-27.6	-27.5	16.3	1.67e-04	0	60	0	17372807168	27	13714
2026-01-25 07:51:51.43	58.20	19.23	-27.6	-27.5	16.3	1.67e-04	0	60	0	17481859072	27	13779
2026-01-25 07:51:52.44	58.52	19.31	-27.5	-27.4	16.3	1.19e-04	0	60	0	17599299584	26	14321
2026-01-25 07:51:53.45	58.84	19.40	-27.5	-27.4	16.3	1.19e-04	0	60	0	17708351488	26	14393
2026-01-25 07:51:54.45	59.16	19.49	-27.5	-27.4	16.3	1.19e-04	0	60	0	17817403392	26	14393
2026-01-25 07:51:55.46	59.49	19.57	-27.5	-27.4	16.3	1.62e-04	0	60	0	17934843904	26	14402
2026-01-25 07:51:56.47	59.82	19.66	-27.4	-27.3	16.3	1.62e-04	0	60	0	18043895808	26	14264
2026-01-25 07:51:57.48	60.15	19.74	-27.3	-27.2	16.3	1.33e-04	0	60	0	18161336320	26	14058
2026-01-25 07:51:58.49	60.49	19.82	-27.3	-27.2	16.3	1.33e-04	0	60	0	18270388224	26	14078
2026-01-25 07:51:59.49	60.82	19.91	-27.3	-27.2	16.4	1.33e-04	0	60	0	18379440128	26	14052
2026-01-25 07:52:00.50	61.16	19.99	-27.3	-27.2	16.3	1.19e-04	0	60	0	18496880640	26	14004
2026-01-25 07:52:01.51	61.50	20.07	-27.3	-27.2	16.4	1.19e-04	0	60	0	18605932544	26	13998
2026-01-25 07:52:02.52	61.84	20.15	-27.3	-27.2	16.3	1.19e-04	0	60	0	18723373056	26	14090
2026-01-25 07:52:03.53	62.18	20.24	-27.1	-27.0	16.4	8.58e-05	0	60	0	18840813568	26	13783
2026-01-25 07:52:04.53	62.53	20.32	-27.2	-27.1	16.4	8.58e-05	0	60	0	18958254080	26	13807
2026-01-25 07:52:05.54	62.88	20.40	-27.2	-27.1	16.4	8.58e-05	0	60	0	19067305984	26	13901
2026-01-25 07:52:06.55	63.23	20.47	-27.1	-27.0	16.4	1.14e-04	0	60	0	19184746496	26	13713
2026-01-25 07:52:07.56	63.58	20.55	-27.1	-27.0	16.4	1.14e-04	0	60	0	19293798400	26	13788
2026-01-25 07:52:08.56	63.93	20.63	-27.1	-27.0	16.4	1.14e-04	0	60	0	19402850304	26	13760
2026-01-25 07:52:09.57	64.29	20.71	-27.0	-26.9	16.4	7.62e-05	0	60	0	19520290816	26	13609
2026-01-25 07:52:10.58	64.64	20.78	-27.0	-26.9	16.5	7.62e-05	0	60	0	19629342720	26	13527
2026-01-25 07:52:11.59	65.00	20.86	-27.0	-26.9	16.4	7.62e-05	0	60	0	19746783232	26	13606
2026-01-25 07:52:12.60	65.37	20.94	-26.8	-26.7	16.5	5.72e-05	0	60	0	19855835136	25	14057
2026-01-25 07:52:13.60	65.73	21.01	-26.8	-26.7	16.5	5.72e-05	0	60	0	19973275648	25	14054
2026-01-25 07:52:14.61	66.09	21.08	-26.9	-26.8	16.5	4.29e-05	0	60	0	20082327552	25	14121
2026-01-25 07:52:15.62	66.46	21.16	-26.6	-26.5	16.5	4.29e-05	0	60	0	20208156672	25	13697
2026-01-25 07:52:16.63	66.83	21.23	-26.7	-26.6	16.5	4.29e-05	0	60	0	20317208576	25	13825
2026-01-25 07:52:17.64	67.20	21.30	-26.5	-26.4	16.5	6.19e-05	0	60	0	20434649088	25	13624
2026-01-25 07:52:18.64	67.57	21.37	-26.7	-26.6	16.5	6.19e-05	0	60	0	20543700992	25	13806
2026-01-25 07:52:19.65	67.95	21.44	-26.6	-26.5	16.6	1.90e-05	0	60	0	20652752896	25	13695
2026-01-25 07:52:20.66	68.33	21.51	-26.6	-26.4	16.6	1.90e-05	0	60	0	20770193408	25	13632
2026-01-25 07:52:21.67	68.71	21.57	-26.5	-26.4	16.6	1.90e-05	0	60	0	20879245312	25	13596
2026-01-25 07:52:22.68	69.09	21.64	-26.5	-26.4	16.6	9.50e-06	0	60	0	20996685824	25	13575
2026-01-25 07:52:23.69	69.47	21.71	-26.5	-26.4	16.6	9.50e-06	0	60	0	21105737728	25	13535
2026-01-25 07:52:24.70	69.86	21.77	-26.6	-26.5	16.6	9.50e-06	0	60	0	21214789632	25	13747
2026-01-25 07:52:25.70	70.24	21.83	-26.7	-26.6	16.5	3.33e-05	0	60	0	21332230144	25	13858
2026-01-25 07:52:26.71	70.63	21.90	-26.7	-26.6	16.5	3.33e-05	0	60	0	21441282048	25	13949
2026-01-25 07:52:27.72	71.02	21.96	-26.6	-26.5	16.5	3.33e-05	0	60	0	21567111168	25	13700
2026-01-25 07:52:28.73	71.41	22.02	-26.6	-26.5	16.5	7.15e-05	0	60	0	21676163072	25	13704
2026-01-25 07:52:29.74	71.81	22.08	-26.6	-26.5	16.5	7.15e-05	0	60	0	21793603584	25	13709
2026-01-25 07:52:30.74	72.20	22.14	-26.6	-26.6	16.5	3.33e-05	0	60	0	21902655488	25	13800
2026-01-25 07:52:31.75	72.59	22.19	-26.5	-26.4	16.5	3.33e-05	0	60	0	22020096000	25	13500
2026-01-25 07:52:32.76	72.99	22.25	-26.6	-26.5	16.5	3.33e-05	0	60	0	22129147904	25	13646
2026-01-25 07:52:33.77	73.39	22.31	-26.6	-26.5	16.5	3.33e-05	0	60	0	22238199808	25	13664
2026-01-25 07:52:34.78	73.80	22.36	-26.7	-26.6	16.5	4.76e-05	0	60	0	22355640320	25	13844
2026-01-25 07:52:35.79	74.20	22.41	-26.6	-26.5	16.5	4.76e-05	0	60	0	22464692224	25	13715
2026-01-25 07:52:36.80	74.60	22.46	-26.6	-26.5	16.5	4.76e-05	0	60	0	22582132736	25	13686
2026-01-25 07:52:37.81	75.01	22.51	-26.5	-26.4	16.5	4.29e-05	0	60	0	22691184640	25	13563
2026-01-25 07:52:38.82	75.42	22.56	-26.5	-26.4	16.5	4.29e-05	0	60	0	22817013760	25	13506
2026-01-25 07:52:39.83	75.83	22.61	-26.5	-26.4	16.5	8.10e-05	0	60	0	22926065664	24	14400
2026-01-25 07:52:40.84	76.24	22.66	-26.5	-26.4	16.5	8.10e-05	0	60	0	23043506176	24	14425
2026-01-25 07:52:41.84	76.65	22.70	-26.4	-26.3	16.5	8.10e-05	0	60	0	23152558080	24	14248
2026-01-25 07:52:42.85	77.06	22.75	-26.4	-26.3	16.5	3.33e-05	0	60	0	23261609984	24	14260
2026-01-25 07:52:43.86	77.48	22.79	-26.4	-26.3	16.5	3.33e-05	0	60	0	23379050496	24	14192
2026-01-25 07:52:44.87	77.89	22.83	-26.5	-26.4	16.5	3.33e-05	0	60	0	23488102400	24	14300
2026-01-25 07:52:45.88	78.31	22.87	-26.4	-26.3	16.5	3.81e-05	0	60	0	23605542912	24	14202
2026-01-25 07:52:46.89	78.73	22.91	-26.4	-26.3	16.5	3.81e-05	0	60	0	23714594816	24	14267
2026-01-25 07:52:47.90	79.15	22.95	-26.4	-26.3	16.5	3.81e-05	0	60	0	23832035328	24	14175
2026-01-25 07:52:48.91	79.57	22.98	-26.5	-26.4	16.5	6.19e-05	0	60	0	23941087232	24	14374
2026-01-25 07:52:49.92	79.99	23.02	-26.4	-26.3	16.5	6.19e-05	0	60	0	24050139136	24	14213
2026-01-25 07:52:50.92	80.41	23.05	-26.5	-26.4	16.5	2.38e-05	0	60	0	24175968256	24	14396
2026-01-25 07:52:51.93	80.83	23.08	-26.5	-26.4	16.5	2.38e-05	0	60	0	24293408768	24	14316
2026-01-25 07:52:52.94	81.26	23.11	-26.4	-26.3	16.5	2.38e-05	0	60	0	24402460672	24	14173
2026-01-25 07:52:53.95	81.68	23.14	-26.5	-26.4	16.5	4.29e-05	0	60	0	24511512576	24	14342
2026-01-25 07:52:54.96	82.11	23.17	-26.5	-26.4	16.4	4.29e-05	0	60	0	24628953088	24	14345
2026-01-25 07:52:55.97	82.53	23.20	-26.3	-26.2	16.5	4.29e-05	0	60	0	24738004992	24	14055
2026-01-25 07:52:56.98	82.96	23.22	-26.3	-26.2	16.5	3.81e-05	0	60	0	24855445504	24	14090
2026-01-25 07:52:57.99	83.39	23.24	-26.3	-26.2	16.5	3.81e-05	0	60	0	24964497408	24	14072
2026-01-25 07:52:59.00	83.82	23.26	-26.3	-26.2	16.5	3.81e-05	0	60	0	25073549312	24	14094
2026-01-25 07:53:00.00	84.25	23.28	-26.3	-26.2	16.5	3.33e-05	0	60	0	25190989824	24	13984
2026-01-25 07:53:01.01	84.68	23.30	-26.3	-26.2	16.4	3.33e-05	0	60	0	25300041728	24	14106
2026-01-25 07:53:02.02	85.11	23.32	-26.3	-26.1	16.4	3.33e-05	0	60	0	25425870848	24	13942
2026-01-25 07:53:03.03	85.54	23.34	-26.2	-26.1	16.4	2.38e-05	0	60	0	25534922752	24	13915
2026-01-25 07:53:04.03	85.97	23.35	-26.3	-26.2	16.4	2.38e-05	0	60	0	25652363264	24	14023
2026-01-25 07:53:05.04	86.40	23.36	-26.3	-26.2	16.4	3.33e-05	0	60	0	25761415168	24	14088
2026-01-25 07:53:06.05	86.83	23.37	-26.4	-26.3	16.4	3.33e-05	0	60	0	25878855680	24	14186
2026-01-25 07:53:07.06	87.27	23.38	-26.3	-26.2	16.4	3.81e-05	0	60	0	25987907584	24	14090
2026-01-25 07:53:08.06	87.70	23.39	-26.5	-26.4	16.4	3.81e-05	0	60	0	26096959488	24	14307
2026-01-25 07:53:09.07	88.13	23.40	-26.3	-26.2	16.4	3.81e-05	0	60	0	26214400000	24	14054
2026-01-25 07:53:10.08	88.56	23.40	-26.3	-26.1	16.4	3.81e-05	0	60	0	26323451904	24	13945
2026-01-25 07:53:11.09	89.00	23.41	-26.3	-26.2	16.4	3.33e-05	0	60	0	26440892416	24	14073
2026-01-25 07:53:12.10	89.43	23.41	-26.4	-26.3	16.4	3.33e-05	0	60	0	26549944320	24	14131
2026-01-25 07:53:13.11	89.87	23.41	-26.3	-26.2	16.4	4.29e-05	0	60	0	26667384832	24	14081
2026-01-25 07:53:14.12	90.30	23.41	-26.2	-26.1	16.4	4.29e-05	0	60	0	26776436736	24	13887
2026-01-25 07:53:15.12	90.73	23.40	-26.3	-26.2	16.4	4.29e-05	0	60	0	26902265856	24	14021
2026-01-25 07:53:16.13	91.17	23.40	-26.3	-26.2	16.4	5.24e-05	0	60	0	27011317760	24	14082
2026-01-25 07:53:17.14	91.60	23.39	-26.4	-26.2	16.4	5.24e-05	0	60	0	27120369664	24	14102
2026-01-25 07:53:18.15	92.03	23.39	-26.4	-26.3	16.4	6.67e-05	0	60	0	27237810176	24	14160
2026-01-25 07:53:19.16	92.47	23.38	-26.5	-26.4	16.3	6.67e-05	0	60	0	27346862080	24	14355
2026-01-25 07:53:20.16	92.90	23.37	-26.5	-26.4	16.3	6.67e-05	0	60	0	27464302592	24	14286
2026-01-25 07:53:21.17	93.33	23.35	-26.4	-26.3	16.3	6.19e-05	0	60	0	27573354496	24	14219
2026-01-25 07:53:22.18	93.76	23.34	-26.5	-26.4	16.3	6.19e-05	0	60	0	27690795008	24	14302
2026-01-25 07:53:23.19	94.19	23.33	-26.6	-26.4	16.3	3.33e-05	0	60	0	27799846912	24	14437
2026-01-25 07:53:24.20	94.63	23.31	-26.4	-26.3	16.3	3.33e-05	0	60	0	27908898816	24	14224
2026-01-25 07:53:25.20	95.05	23.29	-26.5	-26.4	16.3	3.33e-05	0	60	0	28026339328	24	14331
2026-01-25 07:53:26.21	95.48	23.27	-26.5	-26.4	16.3	7.15e-05	0	60	0	28135391232	24	14362
2026-01-25 07:53:27.22	95.91	23.25	-26.5	-26.4	16.3	7.15e-05	0	60	0	28261220352	24	14398
2026-01-25 07:53:28.23	96.34	23.23	-26.6	-26.4	16.3	8.10e-05	0	60	0	28370272256	24	14439
2026-01-25 07:53:29.24	96.77	23.20	-26.5	-26.4	16.3	8.10e-05	0	60	0	28487712768	24	14412
2026-01-25 07:53:30.25	97.20	23.18	-26.5	-26.4	16.3	7.15e-05	0	60	0	28596764672	24	14401
2026-01-25 07:53:31.26	97.63	23.15	-26.6	-26.4	16.3	7.15e-05	0	60	0	28714205184	24	14435
2026-01-25 07:53:32.26	98.05	23.12	-26.6	-26.4	16.3	7.15e-05	0	60	0	28823257088	24	14438
2026-01-25 07:53:33.27	98.48	23.09	-26.6	-26.5	16.2	1.00e-04	0	60	0	28932308992	24	14580
2026-01-25 07:53:34.28	98.90	23.06	-26.5	-26.4	16.3	1.00e-04	0	60	0	29049749504	24	14362
2026-01-25 07:53:35.29	99.32	23.03	-26.7	-26.6	16.2	1.33e-04	0	60	0	29158801408	24	14632
2026-01-25 07:53:36.30	99.75	22.99	-26.7	-26.6	16.2	1.33e-04	0	60	0	29276241920	24	14633
2026-01-25 07:53:37.30	100.16	22.96	-26.7	-26.6	16.2	1.33e-04	0	60	0	29385293824	24	14642
2026-01-25 07:53:38.31	100.58	22.92	-26.6	-26.5	16.3	1.33e-04	0	60	0	29494345728	24	14470
2026-01-25 07:53:39.32	101.00	22.88	-26.6	-26.5	16.3	8.10e-05	0	60	0	29620174848	24	14588
2026-01-25 07:53:40.33	101.42	22.84	-26.7	-26.5	16.3	8.10e-05	0	60	0	29737615360	24	14600
2026-01-25 07:53:41.34	101.84	22.80	-26.7	-26.6	16.3	8.10e-05	0	60	0	29846667264	24	14610
2026-01-25 07:53:42.34	102.25	22.76	-26.8	-26.7	16.2	7.15e-05	0	60	0	29955719168	24	14871
2026-01-25 07:53:43.35	102.67	22.72	-26.7	-26.6	16.3	7.15e-05	0	60	0	30073159680	24	14694
2026-01-25 07:53:44.36	103.08	22.67	-26.8	-26.7	16.3	4.76e-05	0	60	0	30182211584	24	14795
2026-01-25 07:53:45.37	103.49	22.62	-26.9	-26.8	16.3	4.76e-05	0	60	0	30299652096	24	14976
2026-01-25 07:53:46.38	103.90	22.58	-26.7	-26.6	16.3	4.76e-05	0	60	0	30408704000	24	14727
2026-01-25 07:53:47.38	104.31	22.53	-26.8	-26.7	16.3	9.53e-05	0	60	0	30517755904	24	14783
2026-01-25 07:53:48.39	104.71	22.48	-26.9	-26.7	16.3	9.53e-05	0	60	0	30635196416	24	14947
2026-01-25 07:53:49.40	105.12	22.43	-26.8	-26.7	16.3	9.53e-05	0	60	0	30744248320	24	14897
2026-01-25 07:53:50.40	105.52	22.37	-26.8	-26.7	16.3	9.53e-05	0	60	0	30861688832	24	14877
2026-01-25 07:53:51.41	105.93	22.32	-26.8	-26.6	16.4	9.53e-05	0	60	0	30970740736	24	14768
2026-01-25 07:53:52.42	106.33	22.27	-26.9	-26.8	16.3	9.53e-05	0	60	0	31096569856	24	14993
2026-01-25 07:53:53.43	106.73	22.21	-26.8	-26.6	16.4	4.29e-05	0	60	0	31205621760	24	14766
2026-01-25 07:53:54.44	107.13	22.15	-26.9	-26.8	16.3	4.29e-05	0	60	0	31323062272	24	14973
2026-01-25 07:53:55.45	107.52	22.09	-26.8	-26.7	16.4	9.05e-05	0	60	0	31432114176	24	14777
2026-01-25 07:53:56.46	107.92	22.03	-26.9	-26.8	16.4	9.05e-05	0	60	0	31549554688	24	14995
2026-01-25 07:53:57.46	108.31	21.97	-26.9	-26.8	16.4	9.05e-05	0	60	0	31658606592	24	15001
2026-01-25 07:53:58.47	108.70	21.91	-26.8	-26.7	16.4	1.24e-04	0	60	0	31767658496	24	14912
2026-01-25 07:53:59.48	109.09	21.85	-26.9	-26.8	16.4	1.24e-04	0	60	0	31885099008	24	14964
2026-01-25 07:54:00.49	109.48	21.79	-27.0	-26.9	16.4	1.24e-04	0	60	0	31994150912	24	15164
2026-01-25 07:54:01.49	109.86	21.72	-27.0	-26.8	16.4	6.19e-05	0	60	0	32111591424	24	15111
2026-01-25 07:54:02.50	110.25	21.66	-27.1	-27.0	16.4	6.19e-05	0	60	0	32220643328	24	15298
2026-01-25 07:54:03.51	110.63	21.59	-27.0	-26.9	16.4	6.19e-05	0	60	0	32329695232	24	15153
2026-01-25 07:54:04.52	111.01	21.52	-27.1	-26.9	16.4	3.33e-05	0	60	0	32455524352	24	15292
2026-01-25 07:54:05.53	111.39	21.45	-27.1	-26.9	16.4	3.33e-05	0	60	0	32572964864	24	15294
2026-01-25 07:54:06.54	111.77	21.38	-27.1	-27.0	16.4	8.58e-05	0	60	0	32682016768	24	15329
2026-01-25 07:54:07.54	112.14	21.32	-27.2	-27.0	16.4	8.58e-05	0	60	0	32791068672	24	15472
2026-01-25 07:54:08.55	112.52	21.24	-27.1	-27.0	16.4	8.58e-05	0	60	0	32908509184	24	15432
2026-01-25 07:54:09.56	112.89	21.17	-27.2	-27.1	16.5	8.10e-05	0	60	0	33017561088	25	14629
2026-01-25 07:54:10.57	113.26	21.10	-27.2	-27.1	16.4	8.10e-05	0	60	0	33135001600	25	14705
2026-01-25 07:54:11.58	113.63	21.03	-27.2	-27.1	16.4	1.00e-04	0	60	0	33244053504	25	14737
2026-01-25 07:54:12.59	113.99	20.95	-27.1	-27.0	16.5	1.00e-04	0	60	0	33353105408	25	14540
2026-01-25 07:54:13.60	114.36	20.88	-27.2	-27.1	16.4	1.00e-04	0	60	0	33470545920	25	14715
2026-01-25 07:54:14.61	114.72	20.80	-27.2	-27.1	16.5	1.14e-04	0	60	0	33579597824	25	14667
2026-01-25 07:54:15.61	115.08	20.72	-27.3	-27.1	16.5	1.14e-04	0	60	0	33697038336	25	14766
2026-01-25 07:54:16.63	115.44	20.65	-27.2	-27.1	16.5	1.14e-04	0	60	0	33814478848	25	14706
2026-01-25 07:54:17.63	115.79	20.57	-27.3	-27.2	16.5	1.14e-04	0	60	0	33931919360	25	14887
2026-01-25 07:54:18.64	116.14	20.49	-27.2	-27.1	16.5	1.14e-04	0	60	0	34040971264	25	14758
2026-01-25 07:54:19.65	116.50	20.41	-27.3	-27.2	16.5	1.14e-04	0	60	0	34158411776	25	14917
2026-01-25 07:54:20.66	116.85	20.33	-27.3	-27.2	16.5	7.62e-05	0	60	0	34267463680	25	14872
2026-01-25 07:54:21.66	117.19	20.25	-27.4	-27.3	16.5	7.62e-05	0	60	0	34376515584	25	14957
2026-01-25 07:54:22.67	117.54	20.17	-27.4	-27.3	16.5	1.05e-04	0	60	0	34493956096	25	14948
2026-01-25 07:54:23.68	117.88	20.09	-27.4	-27.3	16.5	1.05e-04	0	60	0	34603008000	25	14993
2026-01-25 07:54:24.69	118.22	20.00	-27.5	-27.4	16.5	1.05e-04	0	60	0	34720448512	25	15124
2026-01-25 07:54:25.70	118.56	19.92	-27.4	-27.3	16.5	1.19e-04	0	60	0	34829500416	25	15068
2026-01-25 07:54:26.70	118.90	19.84	-27.5	-27.4	16.5	1.19e-04	0	60	0	34946940928	25	15169
2026-01-25 07:54:27.71	119.23	19.75	-27.5	-27.4	16.5	1.19e-04	0	60	0	35055992832	25	15176
2026-01-25 07:54:28.72	119.57	19.67	-27.6	-27.5	16.5	1.10e-04	0	60	0	35181821952	25	15307
2026-01-25 07:54:29.73	119.90	19.58	-27.4	-27.3	16.6	1.10e-04	0	60	0	35290873856	25	15075
2026-01-25 07:54:30.73	120.23	19.50	-27.4	-27.3	16.6	1.14e-04	0	60	0	35408314368	25	15099
2026-01-25 07:54:31.74	120.55	19.41	-27.5	-27.4	16.5	1.14e-04	0	60	0	35517366272	25	15274
2026-01-25 07:54:32.75	120.88	19.32	-27.6	-27.5	16.5	1.14e-04	0	60	0	35626418176	25	15323
2026-01-25 07:54:33.76	121.20	19.24	-27.7	-27.6	16.5	1.05e-04	0	60	0	35743858688	25	15553
2026-01-25 07:54:34.77	121.52	19.15	-27.7	-27.6	16.5	1.05e-04	0	60	0	35852910592	25	15541
2026-01-25 07:54:35.78	121.84	19.06	-27.6	-27.5	16.5	1.29e-04	0	60	0	35970351104	25	15452
2026-01-25 07:54:36.78	122.16	18.97	-27.6	-27.5	16.5	1.29e-04	0	60	0	36079403008	25	15368
2026-01-25 07:54:37.79	122.47	18.89	-27.7	-27.6	16.5	1.38e-04	0	60	0	36188454912	25	15498
2026-01-25 07:54:38.80	122.79	18.80	-27.8	-27.7	16.5	1.38e-04	0	60	0	36305895424	26	14786
2026-01-25 07:54:39.81	123.10	18.71	-27.7	-27.6	16.5	1.38e-04	0	60	0	36414947328	26	14739
2026-01-25 07:54:40.81	123.40	18.62	-27.9	-27.8	16.4	1.29e-04	0	60	0	36532387840	26	14974
2026-01-25 07:54:41.82	123.71	18.53	-27.8	-27.7	16.5	1.29e-04	0	60	0	36649828352	26	14909
2026-01-25 07:54:42.83	124.01	18.44	-27.9	-27.8	16.5	1.52e-04	0	60	0	36767268864	26	15003
2026-01-25 07:54:43.84	124.32	18.35	-28.1	-28.0	16.4	1.52e-04	0	60	0	36876320768	26	15322
2026-01-25 07:54:44.85	124.62	18.26	-28.0	-27.9	16.4	1.52e-04	0	60	0	36993761280	26	15197
2026-01-25 07:54:45.86	124.92	18.16	-28.0	-27.9	16.4	1.52e-04	0	60	0	37102813184	26	15162
2026-01-25 07:54:46.86	125.21	18.07	-28.1	-28.0	16.4	1.62e-04	0	60	0	37211865088	26	15355
2026-01-25 07:54:47.87	125.51	17.98	-28.0	-27.9	16.4	1.62e-04	0	60	0	37329305600	26	15277
2026-01-25 07:54:48.88	125.80	17.89	-28.1	-28.0	16.5	1.43e-04	0	60	0	37438357504	26	15389
2026-01-25 07:54:49.88	126.09	17.80	-28.2	-28.1	16.5	1.43e-04	0	60	0	37555798016	26	15494
2026-01-25 07:54:50.89	126.38	17.71	-28.1	-28.0	16.5	2.91e-04	0	60	0	37664849920	26	15427
2026-01-25 07:54:51.90	126.66	17.61	-28.2	-28.1	16.5	2.91e-04	0	60	0	37773901824	26	15491
2026-01-25 07:54:52.91	126.95	17.52	-28.2	-28.1	16.5	2.91e-04	0	60	0	37891342336	27	14701
2026-01-25 07:54:53.91	127.23	17.43	-28.3	-28.2	16.5	2.91e-04	0	60	0	38000394240	27	14790
2026-01-25 07:54:54.92	127.51	17.34	-28.3	-28.2	16.5	2.38e-04	0	60	0	38126223360	27	14899
2026-01-25 07:54:55.93	127.79	17.24	-28.2	-28.1	16.5	2.38e-04	0	60	0	38235275264	27	14696
2026-01-25 07:54:56.94	128.06	17.15	-28.2	-28.1	16.5	2.38e-04	0	60	0	38352715776	27	14734
2026-01-25 07:54:57.95	128.34	17.06	-53.5	-55.7	6.2	3.48e-04	0	59	104	38403047424	77	19895
2026-01-25 07:54:58.96	128.61	16.96	-53.5	-55.7	6.2	3.48e-04	0	59	104	38403047424	77	19763
2026-01-25 07:54:59.97	128.88	16.87	-53.5	-55.6	6.2	3.48e-04	0	59	104	38403047424	77	19655
2026-01-25 07:55:00.98	129.15	16.78	-53.5	-55.6	6.2	3.48e-04	0	59	104	38403047424	77	19589
2026-01-25 07:55:01.98	129.42	16.68	-53.4	-55.6	6.2	3.48e-04	0	59	104	38403047424	77	19578
2026-01-25 07:55:02.99	129.68	16.59	-53.4	-55.6	6.2	3.48e-04	0	58	104	38403047424	77	19550
2026-01-25 07:55:04.00	129.95	16.50	-53.5	-55.6	6.2	3.48e-04	0	59	104	38403047424	77	19619
2026-01-25 07:55:05.01	130.21	16.40	-53.4	-55.6	6.2	3.48e-04	0	58	104	38403047424	77	19528
2026-01-25 07:55:06.01	130.47	16.31	-53.4	-55.5	6.2	3.48e-04	0	59	104	38403047424	77	19398
2026-01-25 07:55:07.02	130.73	16.22	-53.4	-55.6	6.2	3.48e-04	0	58	104	38403047424	77	19483
2026-01-25 07:55:08.03	130.98	16.12	-53.4	-55.6	6.2	3.48e-04	0	58	104	38403047424	77	19527
2026-01-25 07:55:09.04	131.24	16.03	-53.4	-55.5	6.2	3.48e-04	0	58	104	38403047424	77	19405
2026-01-25 07:55:10.05	131.49	15.93	-53.4	-55.5	6.2	1.90e-05	0	58	104	38403047424	77	19409
2026-01-25 07:55:11.06	131.74	15.84	-53.3	-55.5	6.2	1.90e-05	0	58	104	38403047424	77	19361
2026-01-25 07:55:12.06	131.99	15.75	-53.4	-55.5	6.2	1.90e-05	0	58	104	38403047424	77	19423
2026-01-25 07:55:13.07	132.23	15.65	-53.3	-55.5	6.2	1.90e-05	0	58	104	38403047424	77	19310
2026-01-25 07:55:14.08	132.48	15.56	-53.3	-55.4	6.2	1.90e-05	0	58	104	38403047424	77	19244
2026-01-25 07:55:15.09	132.72	15.47	-53.3	-55.4	6.2	1.90e-05	0	58	104	38403047424	77	19182
2026-01-25 07:55:16.09	132.96	15.37	-53.4	-55.5	6.2	1.90e-05	0	58	104	38403047424	77	19317
2026-01-25 07:55:17.10	133.20	15.28	-53.3	-55.4	6.2	1.90e-05	0	58	104	38403047424	77	19215
2026-01-25 07:55:18.11	133.44	15.18	-53.3	-55.4	6.2	1.90e-05	0	58	104	38403047424	77	19239
2026-01-25 07:55:19.12	133.68	15.09	-53.3	-55.4	6.2	1.90e-05	0	58	104	38403047424	77	19152
2026-01-25 07:55:20.12	133.91	15.00	-53.3	-55.4	6.2	1.90e-05	0	58	104	38403047424	77	19236
2026-01-25 07:55:21.13	134.14	14.90	-53.3	-55.4	6.2	1.90e-05	0	58	104	38403047424	77	19231
2026-01-25 07:55:22.14	134.38	14.81	-53.3	-55.4	6.2	0.00e+00	0	58	104	38403047424	77	19129
2026-01-25 07:55:23.15	134.61	14.72	-53.3	-55.4	6.2	0.00e+00	0	58	104	38403047424	77	19089
2026-01-25 07:55:24.16	134.84	14.62	-53.3	-55.4	6.2	0.00e+00	0	58	104	38403047424	77	19178
2026-01-25 07:55:25.16	135.06	14.53	-53.2	-55.4	6.2	0.00e+00	0	58	104	38403047424	77	19051
2026-01-25 07:55:26.17	135.28	14.44	-53.2	-55.4	6.2	0.00e+00	0	58	104	38403047424	77	19124
2026-01-25 07:55:27.18	135.51	14.35	-53.2	-55.3	6.2	0.00e+00	0	57	104	38403047424	77	19031
2026-01-25 07:55:28.19	135.73	14.25	-53.3	-55.4	6.2	0.00e+00	0	58	104	38403047424	77	19154
2026-01-25 07:55:29.20	135.95	14.16	-53.2	-55.3	6.2	0.00e+00	0	58	104	38403047424	77	19028
2026-01-25 07:55:30.20	136.17	14.07	-53.2	-55.3	6.2	0.00e+00	0	58	104	38403047424	77	19015
2026-01-25 07:55:31.21	136.38	13.98	-53.2	-55.3	6.2	0.00e+00	0	58	104	38403047424	77	19027
2026-01-25 07:55:32.22	136.60	13.88	-53.2	-55.4	6.2	0.00e+00	0	58	104	38403047424	77	19073
2026-01-25 07:55:33.23	136.81	13.79	-53.2	-55.4	6.2	0.00e+00	0	58	104	38403047424	77	19048
2026-01-25 07:55:34.24	137.03	13.70	-53.2	-55.3	6.2	0.00e+00	0	58	104	38403047424	77	18989
2026-01-25 07:55:35.24	137.24	13.61	-53.2	-55.3	6.2	0.00e+00	0	58	104	38403047424	77	18970
2026-01-25 07:55:36.25	137.45	13.52	-53.2	-55.3	6.2	0.00e+00	0	58	104	38403047424	77	18989
2026-01-25 07:55:37.26	137.65	13.42	-53.2	-55.3	6.2	0.00e+00	0	57	104	38403047424	77	18947
2026-01-25 07:55:38.27	137.86	13.33	-53.1	-55.3	6.2	0.00e+00	0	58	104	38403047424	77	18912
2026-01-25 07:55:39.28	138.07	13.24	-53.1	-55.3	6.2	0.00e+00	0	58	104	38403047424	77	18845
2026-01-25 07:55:40.28	138.27	13.15	-53.2	-55.3	6.2	0.00e+00	0	57	104	38403047424	77	18982
2026-01-25 07:55:41.29	138.47	13.06	-53.1	-55.3	6.2	0.00e+00	0	57	104	38403047424	77	18878
2026-01-25 07:55:42.30	138.67	12.97	-53.1	-55.3	6.2	0.00e+00	0	57	104	38403047424	77	18854
2026-01-25 07:55:43.31	138.87	12.88	-53.1	-55.3	6.2	0.00e+00	0	57	104	38403047424	77	18842
2026-01-25 07:55:44.31	139.06	12.79	-53.2	-55.3	6.2	0.00e+00	0	57	104	38403047424	77	18885
2026-01-25 07:55:45.32	139.26	12.70	-53.1	-55.3	6.2	0.00e+00	0	57	104	38403047424	77	18824
2026-01-25 07:55:46.33	139.46	12.61	-53.1	-55.2	6.2	0.00e+00	0	57	104	38403047424	77	18778
2026-01-25 07:55:47.34	139.65	12.52	-53.1	-55.2	6.2	0.00e+00	0	57	104	38403047424	77	18765
2026-01-25 07:55:48.35	139.84	12.43	-53.1	-55.3	6.2	0.00e+00	0	57	104	38403047424	77	18821
2026-01-25 07:55:49.35	140.03	12.34	-53.1	-55.2	6.2	0.00e+00	0	57	104	38403047424	77	18725
2026-01-25 07:55:50.36	140.22	12.25	-53.1	-55.2	6.2	0.00e+00	0	57	104	38403047424	77	18785
2026-01-25 07:55:51.37	140.41	12.16	-53.1	-55.2	6.2	0.00e+00	0	57	104	38403047424	77	18734
2026-01-25 07:55:52.38	140.60	12.07	-53.1	-55.2	6.2	0.00e+00	0	57	104	38403047424	77	18737
2026-01-25 07:55:53.39	140.78	11.98	-53.1	-55.2	6.2	0.00e+00	0	57	104	38403047424	77	18753
2026-01-25 07:55:54.40	140.97	11.89	-53.0	-55.2	6.2	0.00e+00	0	57	104	38403047424	77	18708
2026-01-25 07:55:55.41	141.15	11.80	-53.0	-55.2	6.2	0.00e+00	0	57	104	38403047424	77	18714
2026-01-25 07:55:56.41	141.33	11.72	-53.1	-55.2	6.2	0.00e+00	0	57	104	38403047424	77	18707
2026-01-25 07:55:57.43	141.51	11.63	-53.0	-55.2	6.2	0.00e+00	0	57	104	38403047424	77	18729
2026-01-25 07:55:58.43	141.69	11.54	-53.0	-55.2	6.2	0.00e+00	0	57	104	38403047424	77	18643
2026-01-25 07:55:59.44	141.87	11.45	-53.1	-55.2	6.2	0.00e+00	0	57	104	38403047424	77	18628
2026-01-25 07:56:00.45	142.04	11.36	-53.1	-55.2	6.2	0.00e+00	0	57	104	38403047424	77	18676
2026-01-25 07:56:01.46	142.22	11.28	-53.0	-55.2	6.2	0.00e+00	0	57	104	38403047424	77	18661
2026-01-25 07:56:02.47	142.39	11.19	-53.0	-55.2	6.2	0.00e+00	0	57	104	38403047424	77	18617
2026-01-25 07:56:03.48	142.57	11.10	-53.0	-55.2	6.2	0.00e+00	0	57	104	38403047424	77	18677
2026-01-25 07:56:04.48	142.74	11.02	-53.0	-55.2	6.2	0.00e+00	0	57	104	38403047424	77	18650
2026-01-25 07:56:05.49	142.91	10.93	-53.0	-55.2	6.2	0.00e+00	0	57	104	38403047424	77	18614
2026-01-25 07:56:06.50	143.08	10.84	-53.0	-55.1	6.2	0.00e+00	0	57	104	38403047424	77	18556
2026-01-25 07:56:07.51	143.24	10.76	-53.0	-55.1	6.2	0.00e+00	0	57	104	38403047424	77	18570
2026-01-25 07:56:08.51	143.41	10.67	-53.0	-55.1	6.2	0.00e+00	0	57	104	38403047424	77	18592
2026-01-25 07:56:09.52	143.58	10.59	-53.0	-55.1	6.2	0.00e+00	0	57	104	38403047424	77	18526
2026-01-25 07:56:10.53	143.74	10.50	-53.0	-55.1	6.2	0.00e+00	0	57	104	38403047424	77	18559
2026-01-25 07:56:11.54	143.90	10.41	-53.0	-55.1	6.2	0.00e+00	0	57	104	38403047424	77	18591
2026-01-25 07:56:12.55	144.07	10.33	-53.0	-55.1	6.2	0.00e+00	0	57	104	38403047424	77	18568
2026-01-25 07:56:13.56	144.23	10.24	-53.0	-55.1	6.2	0.00e+00	0	57	104	38403047424	77	18462
2026-01-25 07:56:14.56	144.39	10.16	-52.9	-55.1	6.2	0.00e+00	0	57	104	38403047424	77	18451
2026-01-25 07:56:15.57	144.55	10.08	-53.0	-55.1	6.2	0.00e+00	0	57	104	38403047424	77	18534
2026-01-25 07:56:16.58	144.70	9.99	-52.9	-55.1	6.2	0.00e+00	0	57	104	38403047424	77	18497
2026-01-25 07:56:17.59	144.86	9.91	-52.9	-55.1	6.2	0.00e+00	0	57	104	38403047424	77	18446
2026-01-25 07:56:18.60	145.02	9.82	-52.9	-55.1	6.2	0.00e+00	0	57	104	38403047424	77	18430
2026-01-25 07:56:19.61	145.17	9.74	-53.0	-55.1	6.2	0.00e+00	0	57	104	38403047424	77	18502
2026-01-25 07:56:20.61	145.32	9.66	-52.9	-55.1	6.2	0.00e+00	0	57	104	38403047424	77	18406
2026-01-25 07:56:21.62	145.48	9.57	-52.9	-55.0	6.2	0.00e+00	0	57	104	38403047424	77	18345
2026-01-25 07:56:22.63	145.63	9.49	-52.9	-55.0	6.2	0.00e+00	0	57	104	38403047424	77	18339
2026-01-25 07:56:23.64	145.78	9.41	-52.9	-55.1	6.2	0.00e+00	0	57	104	38403047424	77	18464
2026-01-25 07:56:24.65	145.93	9.33	-52.9	-55.0	6.2	0.00e+00	0	57	104	38403047424	77	18366
2026-01-25 07:56:25.66	146.08	9.24	-52.9	-55.0	6.2	0.00e+00	0	57	104	38403047424	77	18338
2026-01-25 07:56:26.67	146.23	9.16	-52.9	-55.0	6.2	0.00e+00	0	57	104	38403047424	77	18300
2026-01-25 07:56:27.68	146.37	9.08	-52.9	-55.0	6.2	0.00e+00	0	57	104	38403047424	77	18382
2026-01-25 07:56:28.69	146.52	9.00	-52.9	-55.0	6.2	0.00e+00	0	57	104	38403047424	77	18286
2026-01-25 07:56:29.70	146.66	8.92	-52.9	-55.0	6.2	0.00e+00	0	57	104	38403047424	77	18309
2026-01-25 07:56:30.71	146.81	8.83	-52.8	-55.0	6.2	0.00e+00	0	57	104	38403047424	77	18201
2026-01-25 07:56:31.71	146.95	8.75	-52.9	-55.0	6.2	0.00e+00	0	57	104	38403047424	77	18330
2026-01-25 07:56:32.72	147.09	8.67	-52.8	-55.0	6.2	0.00e+00	0	57	104	38403047424	77	18265
2026-01-25 07:56:33.73	147.23	8.59	-52.8	-55.0	6.2	0.00e+00	0	57	104	38403047424	77	18200
2026-01-25 07:56:34.74	147.37	8.51	-52.8	-54.9	6.2	0.00e+00	0	57	104	38403047424	77	18088
2026-01-25 07:56:35.75	147.51	8.43	-52.9	-55.0	6.2	0.00e+00	0	57	104	38403047424	77	18259
2026-01-25 07:56:36.76	147.65	8.35	-52.8	-54.9	6.2	0.00e+00	0	57	104	38403047424	77	18125
2026-01-25 07:56:37.76	147.79	8.27	-52.8	-55.0	6.2	0.00e+00	0	57	104	38403047424	77	18189
2026-01-25 07:56:38.77	147.92	8.19	-52.7	-54.9	6.2	0.00e+00	0	57	104	38403047424	77	18025
2026-01-25 07:56:39.78	148.06	8.11	-52.8	-55.0	6.2	0.00e+00	0	57	104	38403047424	77	18244
2026-01-25 07:56:40.79	148.19	8.03	-52.8	-54.9	6.2	0.00e+00	0	57	104	38403047424	77	18016
2026-01-25 07:56:41.80	148.33	7.96	-52.8	-54.9	6.2	0.00e+00	0	57	104	38403047424	77	18065
2026-01-25 07:56:42.80	148.46	7.88	-52.7	-54.9	6.2	0.00e+00	0	57	104	38403047424	77	18001
2026-01-25 07:56:43.81	148.59	7.80	-52.8	-54.9	6.2	0.00e+00	0	57	104	38403047424	77	18132
2026-01-25 07:56:44.82	148.72	7.72	-52.7	-54.8	6.2	0.00e+00	0	56	104	38403047424	77	17934
2026-01-25 07:56:45.83	148.85	7.64	-52.7	-54.8	6.2	0.00e+00	0	57	104	38403047424	77	17953
2026-01-25 07:56:46.84	148.98	7.57	-52.6	-54.8	6.2	0.00e+00	0	57	104	38403047424	77	17878
2026-01-25 07:56:47.84	149.11	7.49	-52.8	-54.9	6.2	0.00e+00	0	57	104	38403047424	77	18064
2026-01-25 07:56:48.85	149.24	7.41	-52.7	-54.8	6.2	0.00e+00	0	57	104	38403047424	77	17859
2026-01-25 07:56:49.86	149.37	7.33	-52.7	-54.9	6.2	0.00e+00	0	56	104	38403047424	77	17973
2026-01-25 07:56:50.87	149.49	7.26	-52.6	-54.8	6.2	0.00e+00	0	57	104	38403047424	77	17793
2026-01-25 07:56:51.88	149.62	7.18	-52.7	-54.8	6.2	0.00e+00	0	57	104	38403047424	77	17957
2026-01-25 07:56:52.89	149.74	7.10	-52.6	-54.8	6.2	0.00e+00	0	57	104	38403047424	77	17771
2026-01-25 07:56:53.89	149.87	7.03	-52.7	-54.8	6.2	0.00e+00	0	56	104	38403047424	77	17898
2026-01-25 07:56:54.90	149.99	6.95	-52.6	-54.7	6.2	0.00e+00	0	56	104	38403047424	77	17681
2026-01-25 07:56:55.91	150.11	6.88	-52.7	-54.8	6.2	0.00e+00	0	57	104	38403047424	77	17944
2026-01-25 07:56:56.92	150.23	6.80	-52.6	-54.7	6.2	0.00e+00	0	57	104	38403047424	77	17653
2026-01-25 07:56:57.93	150.36	6.72	-52.6	-54.7	6.2	0.00e+00	0	56	104	38403047424	77	17760
2026-01-25 07:56:58.94	150.48	6.65	-52.5	-54.7	6.2	0.00e+00	0	57	104	38403047424	77	17565
2026-01-25 07:56:59.94	150.59	6.57	-52.7	-54.8	6.2	0.00e+00	0	57	104	38403047424	77	17837
2026-01-25 07:57:00.95	150.71	6.50	-52.5	-54.7	6.2	0.00e+00	0	57	104	38403047424	77	17624
2026-01-25 07:57:01.96	150.83	6.42	-52.6	-54.8	6.2	0.00e+00	0	56	104	38403047424	77	17778
2026-01-25 07:57:02.97	150.95	6.35	-52.5	-54.6	6.2	0.00e+00	0	57	104	38403047424	77	17553
2026-01-25 07:57:03.98	151.07	6.28	-52.6	-54.8	6.2	0.00e+00	0	57	104	38403047424	77	17820
2026-01-25 07:57:04.99	151.18	6.20	-52.5	-54.6	6.2	0.00e+00	0	57	104	38403047424	77	17478
2026-01-25 07:57:05.99	151.30	6.13	-52.6	-54.7	6.2	0.00e+00	0	57	104	38403047424	77	17624
2026-01-25 07:57:07.00	151.41	6.05	-52.4	-54.6	6.2	0.00e+00	0	56	104	38403047424	76	18396
2026-01-25 07:57:08.01	151.52	5.98	-52.6	-54.7	6.2	0.00e+00	0	57	104	38403047424	76	18723
2026-01-25 07:57:09.02	151.64	5.91	-52.4	-54.5	6.2	0.00e+00	0	57	104	38403047424	76	18378
2026-01-25 07:57:10.03	151.75	5.83	-52.5	-54.6	6.2	0.00e+00	0	57	104	38403047424	76	18505
2026-01-25 07:57:11.04	151.86	5.76	-52.3	-54.4	6.2	0.00e+00	0	57	104	38403047424	76	18174
2026-01-25 07:57:12.04	151.97	5.69	-52.5	-54.6	6.2	0.00e+00	0	57	104	38403047424	76	18545
2026-01-25 07:57:13.05	152.08	5.62	-52.4	-54.5	6.2	0.00e+00	0	57	104	38403047424	76	18253
2026-01-25 07:57:14.06	152.19	5.54	-52.4	-54.6	6.2	0.00e+00	0	57	104	38403047424	76	18434
2026-01-25 07:57:15.07	152.30	5.47	-52.3	-54.4	6.2	0.00e+00	0	56	104	38403047424	76	18049
2026-01-25 07:57:16.08	152.41	5.40	-52.5	-54.6	6.2	0.00e+00	0	57	104	38403047424	76	18483
2026-01-25 07:57:17.09	152.52	5.33	-52.3	-54.4	6.2	0.00e+00	0	57	104	38403047424	76	18161
2026-01-25 07:57:18.10	152.62	5.26	-52.4	-54.5	6.2	0.00e+00	0	57	104	38403047424	76	18358
2026-01-25 07:57:19.11	152.73	5.18	-52.2	-54.3	6.2	0.00e+00	0	56	104	38403047424	76	17853
2026-01-25 07:57:20.12	152.84	5.11	-52.4	-54.6	6.2	0.00e+00	0	57	104	38403047424	76	18406
2026-01-25 07:57:21.12	152.94	5.04	-52.2	-54.3	6.2	0.00e+00	0	57	104	38403047424	76	17910
2026-01-25 07:57:22.13	153.05	4.97	-52.6	-54.7	6.2	0.00e+00	0	56	104	38403047424	76	18690
2026-01-25 07:57:23.14	153.15	4.90	-53.0	-55.1	6.2	0.00e+00	0	56	104	38403047424	76	19674
2026-01-25 07:57:24.15	153.25	4.83	-53.3	-55.5	6.2	0.00e+00	0	57	104	38403047424	77	19258
2026-01-25 07:57:25.16	153.36	4.76	-53.5	-55.6	6.2	0.00e+00	0	57	104	38403047424	77	19703
2026-01-25 07:57:26.17	153.46	4.69	-53.7	-55.8	6.2	0.00e+00	0	57	104	38403047424	77	20018
2026-01-25 07:57:27.18	153.56	4.62	-53.8	-56.0	6.2	0.00e+00	0	57	104	38403047424	78	19264
2026-01-25 07:57:28.18	153.66	4.55	-53.9	-56.1	6.2	0.00e+00	0	56	104	38403047424	78	19547
2026-01-25 07:57:29.19	153.76	4.48	-54.0	-56.2	6.2	0.00e+00	0	56	104	38403047424	78	19736
2026-01-25 07:57:30.20	153.86	4.41	-54.1	-56.3	6.2	0.00e+00	0	56	104	38403047424	78	19934
2026-01-25 07:57:31.21	153.96	4.34	-54.2	-56.4	6.2	0.00e+00	0	56	104	38403047424	78	20172
2026-01-25 07:57:32.22	154.06	4.27	-54.3	-56.4	6.2	0.00e+00	0	57	104	38403047424	79	19217
2026-01-25 07:57:33.23	154.16	4.20	-54.4	-56.5	6.2	0.00e+00	0	57	104	38403047424	79	19468
2026-01-25 07:57:34.24	154.26	4.14	-54.4	-56.5	6.2	0.00e+00	0	57	104	38403047424	79	19478
2026-01-25 07:57:35.24	154.35	4.07	-54.5	-56.6	6.2	0.00e+00	0	57	104	38403047424	79	19593
2026-01-25 07:57:36.25	154.45	4.00	-54.5	-56.7	6.2	0.00e+00	0	56	104	38403047424	79	19715
2026-01-25 07:57:37.26	154.54	3.93	-54.6	-56.7	6.2	0.00e+00	0	56	104	38403047424	79	19872
2026-01-25 07:57:38.27	154.64	3.86	-54.6	-56.7	6.2	0.00e+00	0	56	104	38403047424	79	19870
2026-01-25 07:57:39.28	154.73	3.79	-54.6	-56.8	6.2	0.00e+00	0	57	104	38403047424	79	19949
2026-01-25 07:57:40.29	154.83	3.73	-54.6	-56.7	6.2	0.00e+00	0	57	104	38403047424	79	19884
2026-01-25 07:57:41.29	154.92	3.66	-54.6	-56.7	6.2	0.00e+00	0	56	104	38403047424	79	19862
2026-01-25 07:57:42.30	155.02	3.59	-54.5	-56.7	6.2	0.00e+00	0	56	104	38403047424	79	19775
2026-01-25 07:57:43.31	155.11	3.53	-54.6	-56.7	6.2	0.00e+00	0	56	104	38403047424	79	19823
2026-01-25 07:57:44.32	155.20	3.46	-54.5	-56.6	6.2	0.00e+00	0	56	104	38403047424	79	19636
2026-01-25 07:57:45.33	155.29	3.39	-54.5	-56.6	6.2	0.00e+00	0	56	104	38403047424	79	19595
2026-01-25 07:57:46.34	155.38	3.33	-54.5	-56.6	6.2	0.00e+00	0	56	104	38403047424	79	19631
2026-01-25 07:57:47.34	155.47	3.26	-54.5	-56.6	6.2	0.00e+00	0	56	104	38403047424	79	19602
2026-01-25 07:57:48.35	155.56	3.19	-54.5	-56.6	6.2	0.00e+00	0	56	104	38403047424	79	19572
2026-01-25 07:57:49.36	155.65	3.13	-54.5	-56.6	6.2	0.00e+00	0	56	104	38403047424	79	19549
2026-01-25 07:57:50.37	155.74	3.06	-54.4	-56.6	6.2	0.00e+00	0	56	104	38403047424	79	19567
2026-01-25 07:57:51.38	155.83	2.99	-54.4	-56.6	6.2	0.00e+00	0	56	104	38403047424	79	19561
2026-01-25 07:57:52.39	155.92	2.93	-54.4	-56.6	6.2	0.00e+00	0	56	104	38403047424	79	19499
2026-01-25 07:57:53.40	156.01	2.86	-54.4	-56.6	6.2	0.00e+00	0	56	104	38403047424	79	19526
2026-01-25 07:57:54.41	156.10	2.80	-54.4	-56.6	6.2	0.00e+00	0	56	104	38403047424	79	19480
2026-01-25 07:57:55.42	156.18	2.73	-54.4	-56.5	6.2	0.00e+00	0	57	104	38403047424	79	19476
2026-01-25 07:57:56.43	156.27	2.67	-54.4	-56.6	6.2	0.00e+00	0	56	104	38403047424	79	19511
2026-01-25 07:57:57.43	156.36	2.60	-54.4	-56.5	6.2	0.00e+00	0	56	104	38403047424	79	19426
2026-01-25 07:57:58.44	156.44	2.54	-54.4	-56.5	6.2	0.00e+00	0	57	104	38403047424	79	19433
2026-01-25 07:57:59.45	156.53	2.47	-54.4	-56.5	6.2	0.00e+00	0	56	104	38403047424	79	19391
2026-01-25 07:58:00.46	156.61	2.41	-54.4	-56.5	6.2	0.00e+00	0	56	104	38403047424	79	19425
2026-01-25 07:58:01.47	156.70	2.34	-54.4	-56.5	6.2	0.00e+00	0	56	104	38403047424	79	19422
2026-01-25 07:58:02.48	156.78	2.28	-54.4	-56.5	6.2	0.00e+00	0	56	104	38403047424	79	19440
2026-01-25 07:58:03.49	156.86	2.22	-54.4	-56.5	6.2	0.00e+00	0	56	104	38403047424	79	19380
2026-01-25 07:58:04.50	156.95	2.15	-54.4	-56.5	6.2	0.00e+00	0	56	104	38403047424	79	19416
2026-01-25 07:58:05.51	157.03	2.09	-54.4	-56.5	6.2	0.00e+00	0	56	104	38403047424	79	19400
2026-01-25 07:58:06.52	157.11	2.02	-54.4	-56.5	6.2	0.00e+00	0	56	104	38403047424	79	19360
2026-01-25 07:58:07.52	157.19	1.96	-54.4	-56.5	6.2	0.00e+00	0	56	104	38403047424	79	19352

#Closed at: 2026-01-25 07:58:07
#Recorded file [38403 MB]: D:/lorett/data/31041_260125_104817.dat