passes_logs/2026/01/25/R3.2S_Murmansk/R3.2S_Murmansk__20260125_215826_JL1KF02B01_rec.log

#Pass ID: 20260125_215826_JL1KF02B01
#Satellite: JL1KF02B01
#Configuration: 01B_900M
#almurnet v.1.7.20251203
#Start time: 2026-01-25 21:58:26

#Version: 2.2.20231116
#Station: R3.2S_Murmansk
#Location: 33.079688 lon 68.888172 lat
#TLE: 1 61191U 24169C   26025.50856348  .00007961  00000+0  49691-3 0  9998
#TLE: 2 61191  97.5612 116.9304 0014819  90.6838 269.6089 15.09673414 74305

#Time	Az	El	Level	Level2	SNR	BER	BlckErr	Temp	State	Recorded	gain1	gain2
2026-01-25 21:58:26.62	217.39	2.01	-54.3	-56.4	6.2	0.00e+00	0	45	0	0	79	19245
2026-01-25 21:58:27.62	217.49	2.06	-54.3	-56.4	6.2	0.00e+00	0	45	104	0	80	18031
2026-01-25 21:58:28.63	217.60	2.12	-54.3	-56.3	6.2	0.00e+00	0	45	104	0	80	17971
2026-01-25 21:58:29.64	217.70	2.18	-54.2	-56.3	6.2	0.00e+00	0	45	104	0	80	17936
2026-01-25 21:58:30.65	217.80	2.24	-54.2	-56.3	6.2	0.00e+00	0	45	104	0	80	17903
2026-01-25 21:58:31.65	217.91	2.30	-54.2	-56.3	6.2	0.00e+00	0	45	104	0	80	17847
2026-01-25 21:58:32.66	218.01	2.35	-54.2	-56.3	6.2	0.00e+00	0	45	104	0	80	17875
2026-01-25 21:58:33.67	218.12	2.41	-54.2	-56.3	6.2	0.00e+00	0	45	104	0	80	17877
2026-01-25 21:58:34.67	218.22	2.47	-54.2	-56.3	6.2	0.00e+00	0	45	104	0	80	17846
2026-01-25 21:58:35.68	218.33	2.53	-54.4	-56.5	6.2	0.00e+00	0	45	104	0	80	18216
2026-01-25 21:58:36.68	218.43	2.59	-54.5	-56.6	6.2	0.00e+00	0	45	104	0	80	18510
2026-01-25 21:58:37.69	218.54	2.65	-54.6	-56.7	6.2	0.00e+00	0	45	104	0	80	18622
2026-01-25 21:58:38.70	218.65	2.71	-54.6	-56.7	6.2	0.00e+00	0	45	104	0	80	18721
2026-01-25 21:58:39.71	218.75	2.76	-54.6	-56.7	6.2	0.00e+00	0	45	104	0	80	18619
2026-01-25 21:58:40.71	218.86	2.82	-54.6	-56.7	6.2	0.00e+00	0	45	104	0	80	18609
2026-01-25 21:58:41.72	218.97	2.88	-54.6	-56.6	6.2	0.00e+00	0	45	104	0	80	18555
2026-01-25 21:58:42.72	219.08	2.94	-54.5	-56.6	6.2	0.00e+00	0	46	104	0	80	18484
2026-01-25 21:58:43.73	219.19	3.00	-54.5	-56.6	6.2	0.00e+00	0	46	104	0	80	18467
2026-01-25 21:58:44.74	219.30	3.06	-54.5	-56.6	6.2	0.00e+00	0	46	104	0	80	18418
2026-01-25 21:58:45.75	219.41	3.12	-54.5	-56.5	6.2	0.00e+00	0	46	104	0	80	18357
2026-01-25 21:58:46.76	219.52	3.18	-54.4	-56.5	6.2	0.00e+00	0	46	104	0	80	18336
2026-01-25 21:58:47.76	219.63	3.24	-54.4	-56.5	6.2	0.00e+00	0	46	104	0	80	18310
2026-01-25 21:58:48.77	219.75	3.30	-54.4	-56.5	6.2	0.00e+00	0	46	104	0	80	18214
2026-01-25 21:58:49.78	219.86	3.36	-54.3	-56.4	6.2	0.00e+00	0	46	104	0	80	18080
2026-01-25 21:58:50.78	219.97	3.42	-54.3	-56.3	6.2	0.00e+00	0	46	104	0	80	17949
2026-01-25 21:58:51.79	220.09	3.48	-54.2	-56.3	6.2	0.00e+00	0	46	104	0	80	17857
2026-01-25 21:58:52.80	220.20	3.54	-54.1	-56.2	6.2	0.00e+00	0	46	104	0	80	17737
2026-01-25 21:58:53.80	220.32	3.60	-54.0	-56.1	6.2	0.00e+00	0	46	104	0	80	17452
2026-01-25 21:58:54.81	220.43	3.66	-54.0	-56.1	6.2	0.00e+00	0	46	104	0	79	18516
2026-01-25 21:58:55.81	220.55	3.72	-53.9	-56.0	6.2	0.00e+00	0	46	104	0	79	18319
2026-01-25 21:58:56.82	220.67	3.78	-53.8	-55.8	6.2	0.00e+00	0	46	104	0	79	17953
2026-01-25 21:58:57.82	220.78	3.84	-53.3	-55.4	6.2	0.00e+00	0	46	104	0	78	18116
2026-01-25 21:58:58.83	220.90	3.90	-53.2	-55.3	6.2	0.00e+00	0	46	104	0	78	17835
2026-01-25 21:58:59.84	221.02	3.96	-53.2	-55.2	6.2	0.00e+00	0	46	104	0	78	17746
2026-01-25 21:59:00.85	221.14	4.02	-53.1	-55.3	6.2	0.00e+00	0	46	104	0	78	17805
2026-01-25 21:59:01.85	221.26	4.08	-53.2	-55.2	6.2	0.00e+00	0	46	104	0	78	17733
2026-01-25 21:59:02.85	221.38	4.14	-53.1	-55.2	6.2	0.00e+00	0	46	104	0	78	17724
2026-01-25 21:59:03.86	221.50	4.21	-53.1	-55.3	6.2	0.00e+00	0	46	104	0	78	17771
2026-01-25 21:59:04.86	221.62	4.27	-53.1	-55.2	6.2	0.00e+00	0	46	104	0	78	17755
2026-01-25 21:59:05.87	221.74	4.33	-53.1	-55.2	6.2	0.00e+00	0	46	104	0	78	17722
2026-01-25 21:59:06.88	221.87	4.39	-53.1	-55.2	6.2	0.00e+00	0	46	104	0	78	17744
2026-01-25 21:59:07.88	221.99	4.45	-53.1	-55.3	6.2	0.00e+00	0	46	104	0	78	17779
2026-01-25 21:59:08.89	222.11	4.51	-53.1	-55.2	6.2	0.00e+00	0	46	104	0	78	17679
2026-01-25 21:59:09.90	222.24	4.57	-53.1	-55.2	6.2	0.00e+00	0	46	104	0	78	17673
2026-01-25 21:59:10.90	222.36	4.64	-53.1	-55.2	6.2	0.00e+00	0	47	104	0	78	17710
2026-01-25 21:59:11.91	222.49	4.70	-53.1	-55.2	6.2	0.00e+00	0	47	104	0	78	17723
2026-01-25 21:59:12.93	222.62	4.76	-53.1	-55.2	6.2	0.00e+00	0	46	104	0	78	17698
2026-01-25 21:59:13.93	222.75	4.82	-53.1	-55.2	6.2	0.00e+00	0	46	104	0	78	17688
2026-01-25 21:59:14.94	222.87	4.88	-53.1	-55.2	6.2	0.00e+00	0	47	104	0	78	17653
2026-01-25 21:59:15.94	223.00	4.95	-53.1	-55.2	6.2	0.00e+00	0	47	104	0	78	17660
2026-01-25 21:59:16.94	223.13	5.01	-53.1	-55.2	6.2	0.00e+00	0	46	104	0	78	17640
2026-01-25 21:59:17.94	223.26	5.07	-53.2	-55.4	6.2	0.00e+00	0	46	104	0	78	17989
2026-01-25 21:59:18.95	223.39	5.13	-53.0	-55.2	6.2	0.00e+00	0	47	104	0	78	17575
2026-01-25 21:59:19.95	223.52	5.19	-53.2	-55.3	6.2	0.00e+00	0	47	104	0	78	17824
2026-01-25 21:59:20.96	223.65	5.26	-53.1	-55.2	6.2	0.00e+00	0	47	104	0	78	17717
2026-01-25 21:59:21.97	223.79	5.32	-53.0	-55.2	6.2	0.00e+00	0	47	104	0	78	17592
2026-01-25 21:59:22.97	223.92	5.38	-53.0	-55.1	6.2	0.00e+00	0	47	104	0	78	17403
2026-01-25 21:59:23.98	224.05	5.45	-53.1	-55.3	6.2	0.00e+00	0	47	104	0	78	17775
2026-01-25 21:59:24.99	224.19	5.51	-53.1	-55.2	6.2	0.00e+00	0	47	104	0	78	17635
2026-01-25 21:59:25.99	224.32	5.57	-53.0	-55.1	6.2	0.00e+00	0	47	104	0	78	17501
2026-01-25 21:59:26.99	224.46	5.63	-53.0	-55.1	6.2	0.00e+00	0	47	104	0	78	17425
2026-01-25 21:59:27.99	224.59	5.70	-53.1	-55.2	6.2	0.00e+00	0	47	104	0	78	17699
2026-01-25 21:59:28.99	224.73	5.76	-53.1	-55.2	6.2	0.00e+00	0	47	104	0	78	17593
2026-01-25 21:59:30.00	224.87	5.82	-53.0	-55.1	6.2	0.00e+00	0	47	104	0	78	17434
2026-01-25 21:59:31.01	225.01	5.89	-52.9	-55.1	6.2	0.00e+00	0	47	104	0	77	18421
2026-01-25 21:59:32.02	225.15	5.95	-53.1	-55.2	6.2	0.00e+00	0	47	104	0	77	18697
2026-01-25 21:59:33.02	225.29	6.01	-53.0	-55.1	6.2	0.00e+00	0	47	104	0	77	18533
2026-01-25 21:59:34.03	225.43	6.08	-53.0	-55.1	6.2	0.00e+00	0	47	104	0	77	18461
2026-01-25 21:59:35.03	225.57	6.14	-52.9	-55.0	6.2	0.00e+00	0	47	104	0	77	18355
2026-01-25 21:59:36.03	225.71	6.20	-53.1	-55.2	6.2	0.00e+00	0	47	104	0	77	18707
2026-01-25 21:59:37.03	225.85	6.27	-53.0	-55.1	6.2	0.00e+00	0	47	104	0	77	18506
2026-01-25 21:59:38.04	226.00	6.33	-53.0	-55.1	6.2	0.00e+00	0	47	104	0	77	18455
2026-01-25 21:59:39.04	226.14	6.39	-52.9	-55.0	6.2	0.00e+00	0	47	104	0	77	18336
2026-01-25 21:59:40.05	226.29	6.46	-53.1	-55.2	6.2	0.00e+00	0	47	104	0	77	18718
2026-01-25 21:59:41.06	226.43	6.52	-53.0	-55.1	6.2	0.00e+00	0	47	104	0	77	18529
2026-01-25 21:59:42.07	226.58	6.59	-53.0	-55.1	6.2	0.00e+00	0	47	104	0	77	18455
2026-01-25 21:59:43.07	226.73	6.65	-52.9	-55.0	6.2	0.00e+00	0	47	104	0	77	18356
2026-01-25 21:59:44.08	226.88	6.72	-53.1	-55.2	6.2	0.00e+00	0	47	104	0	77	18697
2026-01-25 21:59:45.09	227.03	6.78	-53.1	-55.1	6.2	0.00e+00	0	47	104	0	77	18601
2026-01-25 21:59:46.09	227.18	6.84	-53.0	-55.1	6.2	0.00e+00	0	47	104	0	77	18549
2026-01-25 21:59:47.10	227.33	6.91	-52.9	-55.0	6.2	0.00e+00	0	47	104	0	77	18340
2026-01-25 21:59:48.11	227.48	6.97	-53.1	-55.2	6.2	0.00e+00	0	47	104	0	77	18698
2026-01-25 21:59:49.11	227.63	7.04	-53.1	-55.2	6.2	0.00e+00	0	47	104	0	77	18636
2026-01-25 21:59:50.12	227.79	7.10	-53.0	-55.1	6.2	0.00e+00	0	47	104	0	77	18556
2026-01-25 21:59:51.12	227.94	7.17	-53.0	-55.1	6.2	0.00e+00	0	47	104	0	77	18420
2026-01-25 21:59:52.12	228.09	7.23	-53.1	-55.2	6.2	0.00e+00	0	47	104	0	77	18730
2026-01-25 21:59:53.13	228.25	7.30	-53.1	-55.2	6.2	0.00e+00	0	47	104	0	77	18631
2026-01-25 21:59:54.13	228.41	7.36	-53.0	-55.1	6.2	0.00e+00	0	47	104	0	77	18544
2026-01-25 21:59:55.13	228.56	7.43	-53.0	-55.1	6.2	0.00e+00	0	47	104	0	77	18441
2026-01-25 21:59:56.14	228.72	7.49	-53.1	-55.2	6.2	0.00e+00	0	47	104	0	77	18726
2026-01-25 21:59:57.15	228.88	7.56	-53.1	-55.2	6.2	0.00e+00	0	47	104	0	77	18647
2026-01-25 21:59:58.15	229.04	7.62	-53.0	-55.1	6.2	0.00e+00	0	47	104	0	77	18592
2026-01-25 21:59:59.16	229.20	7.69	-53.0	-55.1	6.2	0.00e+00	0	47	104	0	77	18508
2026-01-25 22:00:00.17	229.36	7.75	-53.1	-55.2	6.2	0.00e+00	0	47	104	0	77	18776
2026-01-25 22:00:01.17	229.52	7.82	-53.1	-55.2	6.2	0.00e+00	0	47	104	0	77	18652
2026-01-25 22:00:02.18	229.69	7.88	-53.0	-55.1	6.2	0.00e+00	0	47	104	0	77	18595
2026-01-25 22:00:03.19	229.85	7.95	-53.0	-55.1	6.2	0.00e+00	0	47	104	0	77	18507
2026-01-25 22:00:04.20	230.02	8.02	-53.2	-55.3	6.2	0.00e+00	0	47	104	0	77	18853
2026-01-25 22:00:05.21	230.19	8.08	-53.1	-55.2	6.2	0.00e+00	0	47	104	0	77	18690
2026-01-25 22:00:06.21	230.35	8.15	-53.1	-55.2	6.2	0.00e+00	0	47	104	0	77	18604
2026-01-25 22:00:07.22	230.52	8.21	-53.0	-55.1	6.2	0.00e+00	0	47	104	0	77	18538
2026-01-25 22:00:08.22	230.69	8.28	-53.1	-55.3	6.2	0.00e+00	0	47	104	0	77	18850
2026-01-25 22:00:09.22	230.86	8.34	-53.1	-55.2	6.2	0.00e+00	0	47	104	0	77	18706
2026-01-25 22:00:10.23	231.03	8.41	-53.1	-55.1	6.2	0.00e+00	0	47	104	0	77	18585
2026-01-25 22:00:11.24	231.20	8.47	-53.1	-55.1	6.2	0.00e+00	0	47	104	0	77	18552
2026-01-25 22:00:12.24	231.37	8.54	-53.2	-55.2	6.2	0.00e+00	0	47	104	0	77	18793
2026-01-25 22:00:13.25	231.54	8.61	-53.1	-55.2	6.2	0.00e+00	0	47	104	0	77	18702
2026-01-25 22:00:14.26	231.72	8.67	-53.1	-55.2	6.2	0.00e+00	0	48	104	0	77	18611
2026-01-25 22:00:15.27	231.89	8.74	-53.1	-55.2	6.2	0.00e+00	0	47	104	0	77	18640
2026-01-25 22:00:16.28	232.07	8.80	-53.2	-55.2	6.2	0.00e+00	0	47	104	0	77	18803
2026-01-25 22:00:17.29	232.25	8.87	-52.6	-54.4	6.2	0.00e+00	0	48	104	0	77	17085
2026-01-25 22:00:18.30	232.43	8.94	-52.0	-53.6	6.2	0.00e+00	0	48	104	0	75	17468
2026-01-25 22:00:19.30	232.60	9.00	-51.5	-53.0	6.2	0.00e+00	0	47	104	0	75	16257
2026-01-25 22:00:20.31	232.79	9.07	-51.3	-52.7	6.3	0.00e+00	0	47	104	0	74	16636
2026-01-25 22:00:21.31	232.96	9.13	-51.1	-52.4	6.3	0.00e+00	0	47	104	0	74	16058
2026-01-25 22:00:22.31	233.15	9.20	-50.9	-52.2	6.2	0.00e+00	0	47	104	0	73	16762
2026-01-25 22:00:23.31	233.33	9.27	-51.1	-52.3	6.2	0.00e+00	0	47	104	0	73	16842
2026-01-25 22:00:24.32	233.51	9.33	-52.0	-53.6	6.2	0.00e+00	0	47	104	0	75	17491
2026-01-25 22:00:25.33	233.70	9.40	-51.3	-52.7	6.3	0.00e+00	0	47	104	0	74	16636
2026-01-25 22:00:26.34	233.88	9.46	-51.2	-52.4	6.2	0.00e+00	0	48	104	0	74	16171
2026-01-25 22:00:27.34	234.07	9.53	-49.7	-50.6	6.3	0.00e+00	0	47	104	0	71	15637
2026-01-25 22:00:28.34	234.25	9.59	-49.0	-49.8	6.5	0.00e+00	0	48	104	0	70	14967
2026-01-25 22:00:29.34	234.44	9.66	-48.8	-49.4	6.6	0.00e+00	0	47	104	0	69	15286
2026-01-25 22:00:30.35	234.63	9.73	-49.6	-50.5	6.5	0.00e+00	0	48	104	0	69	17180
2026-01-25 22:00:31.36	234.82	9.79	-48.7	-49.3	6.6	0.00e+00	0	47	104	0	69	15095
2026-01-25 22:00:32.37	235.02	9.86	-50.6	-51.6	6.4	0.00e+00	0	47	104	0	73	15623
2026-01-25 22:00:33.37	235.21	9.92	-28.9	-28.7	16.2	2.28e-05	0	48	0	41943040	29	14060
2026-01-25 22:00:34.38	235.40	9.99	-28.7	-28.6	16.3	5.70e-06	0	48	0	159383552	28	14609
2026-01-25 22:00:35.38	235.59	10.06	-27.5	-27.3	16.8	1.90e-06	0	48	0	268435456	26	14274
2026-01-25 22:00:36.39	235.79	10.12	-27.3	-27.2	17.0	0.00e+00	0	48	0	385875968	26	13964
2026-01-25 22:00:37.40	235.99	10.19	-27.4	-27.3	16.9	0.00e+00	0	48	0	494927872	26	14136
2026-01-25 22:00:38.40	236.18	10.25	-27.1	-27.0	17.0	0.00e+00	0	48	0	603979776	26	13686
2026-01-25 22:00:39.41	236.38	10.32	-27.3	-27.1	16.9	3.80e-06	0	48	0	721420288	26	13943
2026-01-25 22:00:40.42	236.58	10.39	-27.1	-26.9	16.9	1.90e-06	0	48	0	830472192	26	13629
2026-01-25 22:00:41.43	236.79	10.45	-26.9	-26.8	16.8	0.00e+00	0	48	0	956301312	25	14167
2026-01-25 22:00:42.43	236.99	10.52	-27.1	-26.9	16.9	1.90e-06	0	48	0	1065353216	25	14440
2026-01-25 22:00:43.44	237.19	10.58	-27.1	-27.0	16.7	0.00e+00	0	48	0	1182793728	25	14459
2026-01-25 22:00:44.45	237.40	10.65	-26.9	-26.8	16.9	0.00e+00	0	48	0	1291845632	25	14171
2026-01-25 22:00:45.46	237.60	10.71	-26.8	-26.6	17.0	0.00e+00	0	48	0	1409286144	25	13896
2026-01-25 22:00:46.46	237.81	10.78	-26.9	-26.8	16.8	5.70e-06	0	48	0	1518338048	25	14137
2026-01-25 22:00:47.47	238.01	10.84	-26.9	-26.7	16.9	0.00e+00	0	48	0	1635778560	25	14082
2026-01-25 22:00:48.48	238.22	10.91	-26.8	-26.6	17.0	1.90e-06	0	48	0	1744830464	25	13889
2026-01-25 22:00:49.48	238.43	10.97	-26.8	-26.7	16.9	0.00e+00	0	48	0	1853882368	25	13952
2026-01-25 22:00:50.49	238.64	11.04	-26.8	-26.6	16.8	0.00e+00	0	48	0	1971322880	25	13887
2026-01-25 22:00:51.49	238.85	11.10	-26.8	-26.6	17.0	0.00e+00	0	48	0	2080374784	25	13929
2026-01-25 22:00:52.50	239.07	11.17	-26.8	-26.6	16.8	1.90e-06	0	48	0	2197815296	25	13945
2026-01-25 22:00:53.51	239.28	11.23	-26.8	-26.6	17.1	0.00e+00	0	48	0	2306867200	25	13901
2026-01-25 22:00:54.51	239.49	11.30	-26.6	-26.4	17.0	1.90e-06	0	48	0	2415919104	25	13613
2026-01-25 22:00:55.52	239.71	11.36	-26.7	-26.5	16.9	0.00e+00	0	48	0	2533359616	25	13759
2026-01-25 22:00:56.53	239.93	11.43	-26.6	-26.5	16.9	0.00e+00	0	48	0	2659188736	25	13709
2026-01-25 22:00:57.54	240.15	11.49	-26.8	-26.7	16.7	3.80e-06	0	48	0	2768240640	25	13985
2026-01-25 22:00:58.55	240.37	11.56	-26.8	-26.6	16.7	3.80e-06	0	48	0	2877292544	25	13891
2026-01-25 22:00:59.56	240.59	11.62	-26.9	-26.8	16.8	0.00e+00	0	48	0	2994733056	25	14133
2026-01-25 22:01:00.57	240.81	11.69	-26.6	-26.5	17.0	0.00e+00	0	48	0	3103784960	25	13673
2026-01-25 22:01:01.57	241.03	11.75	-26.6	-26.4	16.9	0.00e+00	0	48	0	3221225472	25	13568
2026-01-25 22:01:02.58	241.26	11.81	-26.7	-26.5	16.7	0.00e+00	0	48	0	3330277376	25	13749
2026-01-25 22:01:03.59	241.48	11.88	-26.7	-26.6	16.7	0.00e+00	0	48	0	3439329280	25	13820
2026-01-25 22:01:04.59	241.71	11.94	-26.7	-26.6	16.8	5.70e-06	0	48	0	3556769792	25	13827
2026-01-25 22:01:05.60	241.94	12.00	-26.7	-26.5	16.7	1.90e-06	0	48	0	3665821696	25	13749
2026-01-25 22:01:06.61	242.17	12.07	-26.3	-26.2	16.8	0.00e+00	0	48	0	3783262208	24	13961
2026-01-25 22:01:07.61	242.39	12.13	-26.4	-26.3	16.7	3.80e-06	0	48	0	3892314112	24	14138
2026-01-25 22:01:08.62	242.62	12.19	-26.4	-26.2	16.6	0.00e+00	0	48	0	4001366016	24	14079
2026-01-25 22:01:09.62	242.85	12.26	-26.4	-26.2	16.6	0.00e+00	0	48	0	4127195136	24	14054
2026-01-25 22:01:10.63	243.09	12.32	-26.3	-26.2	16.7	0.00e+00	0	48	0	4244635648	24	14002
2026-01-25 22:01:11.64	243.32	12.38	-26.4	-26.2	16.8	1.90e-06	0	48	0	4353687552	24	14102
2026-01-25 22:01:12.65	243.56	12.44	-26.4	-26.2	16.7	1.90e-06	0	48	0	4462739456	24	14051
2026-01-25 22:01:13.66	243.80	12.51	-26.2	-26.1	16.5	0.00e+00	0	48	0	4580179968	24	13841
2026-01-25 22:01:14.67	244.04	12.57	-26.3	-26.2	16.7	3.80e-06	0	48	0	4689231872	24	13997
2026-01-25 22:01:15.68	244.27	12.63	-26.2	-26.0	16.6	0.00e+00	0	48	0	4806672384	24	13788
2026-01-25 22:01:16.68	244.51	12.69	-26.4	-26.3	16.7	1.90e-06	0	48	0	4915724288	24	14185
2026-01-25 22:01:17.69	244.75	12.75	-26.5	-26.4	16.4	1.90e-06	0	48	0	5033164800	24	14332
2026-01-25 22:01:18.70	245.00	12.81	-26.3	-26.2	16.4	1.90e-06	0	48	0	5142216704	24	13994
2026-01-25 22:01:19.71	245.24	12.87	-26.4	-26.2	16.6	0.00e+00	0	48	0	5251268608	24	14036
2026-01-25 22:01:20.71	245.48	12.94	-26.3	-26.1	16.6	1.90e-06	0	48	0	5368709120	24	13901
2026-01-25 22:01:21.72	245.73	13.00	-26.1	-26.0	16.7	0.00e+00	0	48	0	5477761024	24	13672
2026-01-25 22:01:22.73	245.98	13.06	-26.2	-26.0	16.5	1.90e-06	0	49	0	5603590144	24	13723
2026-01-25 22:01:23.73	246.23	13.12	-26.2	-26.0	16.5	3.80e-06	0	48	0	5712642048	24	13733
2026-01-25 22:01:24.73	246.47	13.17	-26.0	-25.9	16.4	0.00e+00	0	49	0	5830082560	24	13520
2026-01-25 22:01:25.74	246.72	13.23	-26.0	-25.9	16.4	3.80e-06	0	48	0	5939134464	24	13513
2026-01-25 22:01:26.75	246.98	13.29	-26.1	-25.9	16.6	0.00e+00	0	48	0	6056574976	24	13589
2026-01-25 22:01:27.75	247.23	13.35	-26.0	-25.8	16.3	1.90e-06	0	48	0	6165626880	24	13465
2026-01-25 22:01:28.77	247.48	13.41	-26.0	-25.8	16.2	0.00e+00	0	49	0	6274678784	23	14240
2026-01-25 22:01:29.78	247.74	13.47	-26.0	-25.8	16.4	1.90e-06	0	49	0	6392119296	23	14266
2026-01-25 22:01:30.78	247.99	13.53	-26.0	-25.9	16.3	0.00e+00	0	48	0	6501171200	23	14304
2026-01-25 22:01:31.79	248.25	13.59	-26.0	-25.9	16.3	1.90e-06	0	48	0	6618611712	23	14338
2026-01-25 22:01:32.79	248.51	13.64	-25.9	-25.8	16.4	1.90e-06	0	49	0	6727663616	23	14115
2026-01-25 22:01:33.80	248.77	13.70	-26.0	-25.8	16.1	5.70e-06	0	48	0	6836715520	23	14189
2026-01-25 22:01:34.81	249.03	13.76	-26.0	-25.9	16.0	3.80e-06	0	48	0	6954156032	23	14300
2026-01-25 22:01:35.82	249.29	13.81	-25.9	-25.7	16.3	0.00e+00	0	48	0	7063207936	23	14056
2026-01-25 22:01:36.82	249.55	13.87	-25.8	-25.7	16.2	0.00e+00	0	49	0	7180648448	23	13964
2026-01-25 22:01:37.83	249.82	13.93	-25.9	-25.7	16.2	0.00e+00	0	49	0	7298088960	23	14055
2026-01-25 22:01:38.84	250.09	13.98	-25.7	-25.6	16.2	5.70e-06	0	48	0	7415529472	23	13797
2026-01-25 22:01:39.85	250.35	14.04	-25.8	-25.6	16.2	5.70e-06	0	49	0	7524581376	23	13887
2026-01-25 22:01:40.85	250.62	14.09	-25.8	-25.6	16.1	5.70e-06	0	49	0	7642021888	23	13936
2026-01-25 22:01:41.86	250.89	14.15	-25.8	-25.6	16.1	0.00e+00	0	49	0	7751073792	23	13870
2026-01-25 22:01:42.87	251.16	14.20	-25.8	-25.7	16.0	5.70e-06	0	49	0	7860125696	23	13998
2026-01-25 22:01:43.88	251.43	14.25	-25.9	-25.7	16.3	7.60e-06	0	48	0	7977566208	23	14054
2026-01-25 22:01:44.89	251.70	14.31	-25.9	-25.7	16.1	1.90e-06	0	49	0	8086618112	23	14098
2026-01-25 22:01:45.89	251.98	14.36	-25.7	-25.5	15.8	0.00e+00	0	48	0	8204058624	23	13734
2026-01-25 22:01:46.90	252.25	14.41	-25.9	-25.7	16.2	3.80e-06	0	49	0	8313110528	23	14051
2026-01-25 22:01:47.91	252.53	14.46	-25.8	-25.7	15.9	0.00e+00	0	49	0	8430551040	23	13992
2026-01-25 22:01:48.91	252.80	14.52	-25.8	-25.6	16.2	1.90e-06	0	49	0	8539602944	23	13894
2026-01-25 22:01:49.92	253.08	14.57	-25.8	-25.6	15.7	5.70e-06	0	49	0	8648654848	23	13941
2026-01-25 22:01:50.93	253.36	14.62	-25.6	-25.5	15.7	1.90e-06	0	49	0	8774483968	23	13669
2026-01-25 22:01:51.93	253.64	14.67	-25.6	-25.5	16.0	0.00e+00	0	49	0	8891924480	23	13649
2026-01-25 22:01:52.94	253.92	14.72	-25.7	-25.5	15.8	1.14e-05	0	49	0	9000976384	23	13766
2026-01-25 22:01:53.95	254.20	14.77	-25.6	-25.4	15.5	9.50e-06	0	49	0	9110028288	23	13573
2026-01-25 22:01:54.96	254.49	14.82	-25.6	-25.4	15.5	5.70e-06	0	49	0	9227468800	23	13593
2026-01-25 22:01:55.97	254.77	14.87	-25.5	-25.4	15.5	1.90e-06	0	49	0	9336520704	23	13540
2026-01-25 22:01:56.97	255.05	14.91	-25.5	-25.3	15.4	5.70e-06	0	49	0	9453961216	22	14210
2026-01-25 22:01:57.98	255.34	14.96	-25.4	-25.3	15.2	9.50e-06	0	49	0	9563013120	22	14177
2026-01-25 22:01:58.98	255.63	15.01	-25.4	-25.2	15.2	1.14e-05	0	49	0	9672065024	22	14058
2026-01-25 22:01:59.99	255.91	15.06	-25.5	-25.3	15.2	5.70e-06	0	49	0	9789505536	22	14211
2026-01-25 22:02:01.00	256.20	15.10	-25.4	-25.3	15.3	9.50e-06	0	49	0	9898557440	22	14174
2026-01-25 22:02:02.01	256.50	15.15	-25.4	-25.3	15.4	9.50e-06	0	48	0	10015997952	22	14143
2026-01-25 22:02:03.02	256.79	15.19	-25.3	-25.2	15.2	7.60e-06	0	49	0	10133438464	22	13997
2026-01-25 22:02:04.03	257.08	15.24	-25.5	-25.4	15.3	1.71e-05	0	49	0	10250878976	22	14285
2026-01-25 22:02:05.03	257.37	15.28	-25.4	-25.2	15.1	1.14e-05	0	49	0	10359930880	22	14038
2026-01-25 22:02:06.04	257.67	15.33	-25.3	-25.1	15.4	5.70e-06	0	49	0	10477371392	22	13907
2026-01-25 22:02:07.05	257.96	15.37	-25.3	-25.1	15.2	9.50e-06	0	49	0	10586423296	22	13916
2026-01-25 22:02:08.06	258.26	15.41	-25.4	-25.2	15.3	7.60e-06	0	49	0	10695475200	22	14048
2026-01-25 22:02:09.07	258.56	15.45	-25.3	-25.2	15.0	1.90e-05	0	49	0	10812915712	22	14001
2026-01-25 22:02:10.07	258.85	15.49	-25.5	-25.3	15.3	1.14e-05	0	49	0	10921967616	22	14199
2026-01-25 22:02:11.08	259.15	15.54	-25.4	-25.3	15.1	5.70e-06	0	49	0	11039408128	22	14117
2026-01-25 22:02:12.09	259.46	15.58	-25.3	-25.1	15.2	5.70e-06	0	49	0	11148460032	22	13950
2026-01-25 22:02:13.09	259.75	15.62	-25.3	-25.1	15.3	7.60e-06	0	49	0	11265900544	22	13917
2026-01-25 22:02:14.11	260.06	15.66	-25.3	-25.1	15.6	1.90e-06	0	49	0	11374952448	22	13898
2026-01-25 22:02:15.11	260.36	15.69	-25.3	-25.2	15.6	3.80e-06	0	49	0	11484004352	22	13951
2026-01-25 22:02:16.12	260.66	15.73	-25.2	-25.0	15.4	9.50e-06	0	48	0	11601444864	22	13773
2026-01-25 22:02:17.12	260.97	15.77	-25.2	-25.0	15.6	5.70e-06	0	49	0	11718885376	22	13750
2026-01-25 22:02:18.13	261.27	15.81	-25.2	-25.1	15.6	9.50e-06	0	49	0	11836325888	22	13802
2026-01-25 22:02:19.14	261.58	15.84	-25.2	-25.1	15.6	0.00e+00	0	49	0	11945377792	22	13855
2026-01-25 22:02:20.15	261.89	15.88	-25.3	-25.1	15.6	3.80e-06	0	49	0	12062818304	22	13938
2026-01-25 22:02:21.16	262.20	15.91	-25.2	-25.1	15.4	1.14e-05	0	49	0	12171870208	22	13827
2026-01-25 22:02:22.16	262.50	15.95	-25.2	-25.0	15.4	3.80e-06	0	49	0	12289310720	22	13722
2026-01-25 22:02:23.17	262.81	15.98	-25.3	-25.2	15.4	1.90e-06	0	49	0	12398362624	22	13957
2026-01-25 22:02:24.18	263.12	16.01	-25.2	-25.1	15.7	7.60e-06	0	49	0	12507414528	22	13844
2026-01-25 22:02:25.19	263.44	16.04	-25.2	-25.1	15.7	1.14e-05	0	49	0	12624855040	22	13822
2026-01-25 22:02:26.20	263.75	16.08	-25.2	-25.0	15.5	1.90e-06	0	49	0	12733906944	22	13724
2026-01-25 22:02:27.21	264.06	16.11	-25.2	-25.0	15.5	1.90e-06	0	49	0	12851347456	22	13739
2026-01-25 22:02:28.21	264.37	16.14	-25.1	-25.0	15.8	1.90e-06	0	49	0	12960399360	22	13713
2026-01-25 22:02:29.22	264.69	16.17	-25.2	-25.0	15.4	3.80e-06	0	49	0	13069451264	22	13736
2026-01-25 22:02:30.23	265.00	16.20	-25.1	-24.9	15.6	7.60e-06	0	49	0	13195280384	22	13622
2026-01-25 22:02:31.23	265.32	16.22	-25.2	-25.0	15.7	1.90e-06	0	49	0	13312720896	22	13776
2026-01-25 22:02:32.24	265.63	16.25	-25.2	-25.1	15.5	1.90e-06	0	49	0	13421772800	22	13841
2026-01-25 22:02:33.25	265.95	16.28	-25.2	-25.1	15.5	3.80e-06	0	49	0	13530824704	22	13843
2026-01-25 22:02:34.25	266.26	16.30	-25.3	-25.1	15.5	1.14e-05	0	49	0	13648265216	22	13946
2026-01-25 22:02:35.26	266.58	16.33	-25.2	-25.0	15.9	3.80e-06	0	49	0	13757317120	22	13731
2026-01-25 22:02:36.27	266.90	16.35	-25.2	-25.0	15.8	3.80e-06	0	49	0	13874757632	22	13710
2026-01-25 22:02:37.27	267.22	16.38	-25.1	-25.0	15.8	1.90e-06	0	49	0	13983809536	22	13642
2026-01-25 22:02:38.27	267.54	16.40	-25.2	-25.0	16.1	3.80e-06	0	49	0	14092861440	22	13720
2026-01-25 22:02:39.28	267.86	16.42	-25.3	-25.1	15.8	1.90e-06	0	49	0	14210301952	22	13876
2026-01-25 22:02:40.29	268.18	16.44	-25.4	-25.2	15.8	3.80e-06	0	49	0	14319353856	22	14010
2026-01-25 22:02:41.30	268.50	16.47	-25.4	-25.2	15.8	7.60e-06	0	49	0	14436794368	22	14044
2026-01-25 22:02:42.30	268.82	16.49	-25.1	-25.0	16.0	0.00e+00	0	49	0	14545846272	22	13680
2026-01-25 22:02:43.31	269.14	16.50	-25.2	-25.1	16.1	3.80e-06	0	49	0	14663286784	22	13858
2026-01-25 22:02:44.31	269.46	16.52	-25.3	-25.1	16.2	3.80e-06	0	49	0	14772338688	22	13869
2026-01-25 22:02:45.31	269.78	16.54	-25.2	-25.0	16.3	1.90e-06	0	49	0	14881390592	22	13724
2026-01-25 22:02:46.32	270.11	16.56	-25.1	-24.9	15.9	3.80e-06	0	49	0	15007219712	22	13593
2026-01-25 22:02:47.33	270.43	16.57	-25.1	-25.0	16.0	0.00e+00	0	49	0	15124660224	22	13647
2026-01-25 22:02:48.34	270.76	16.59	-25.1	-25.0	16.0	0.00e+00	0	49	0	15233712128	22	13689
2026-01-25 22:02:49.34	271.08	16.60	-25.2	-25.1	16.0	0.00e+00	0	49	0	15342764032	22	13803
2026-01-25 22:02:50.35	271.40	16.62	-25.2	-25.0	16.2	0.00e+00	0	49	0	15460204544	22	13709
2026-01-25 22:02:51.36	271.73	16.63	-25.2	-25.1	16.6	0.00e+00	0	49	0	15569256448	22	13809
2026-01-25 22:02:52.37	272.06	16.64	-25.3	-25.1	16.6	3.80e-06	0	49	0	15686696960	22	13866
2026-01-25 22:02:53.37	272.38	16.66	-25.4	-25.2	16.4	1.90e-06	0	49	0	15795748864	22	14021
2026-01-25 22:02:54.38	272.71	16.67	-25.2	-25.1	16.5	1.90e-06	0	49	0	15904800768	22	13855
2026-01-25 22:02:55.38	273.03	16.68	-25.3	-25.1	17.0	0.00e+00	0	49	0	16022241280	22	13900
2026-01-25 22:02:56.39	273.36	16.69	-25.3	-25.2	16.9	0.00e+00	0	49	0	16131293184	22	13960
2026-01-25 22:02:57.40	273.68	16.69	-25.3	-25.2	16.9	0.00e+00	0	49	0	16248733696	22	13982
2026-01-25 22:02:58.40	274.01	16.70	-25.3	-25.2	17.2	0.00e+00	0	49	0	16357785600	22	13975
2026-01-25 22:02:59.40	274.33	16.71	-25.4	-25.3	17.0	0.00e+00	0	49	0	16466837504	22	14137
2026-01-25 22:03:00.41	274.66	16.71	-25.4	-25.2	17.3	0.00e+00	0	49	0	16584278016	22	14039
2026-01-25 22:03:01.41	274.99	16.72	-25.4	-25.2	17.0	0.00e+00	0	49	0	16693329920	22	14066
2026-01-25 22:03:02.42	275.32	16.72	-25.4	-25.3	17.2	0.00e+00	0	49	0	16819159040	22	14112
2026-01-25 22:03:03.43	275.64	16.73	-25.5	-25.3	17.4	0.00e+00	0	49	0	16928210944	22	14255
2026-01-25 22:03:04.43	275.97	16.73	-25.4	-25.2	17.5	0.00e+00	0	49	0	17045651456	22	14093
2026-01-25 22:03:05.44	276.30	16.73	-25.4	-25.2	17.4	0.00e+00	0	49	0	17154703360	22	14071
2026-01-25 22:03:06.44	276.62	16.73	-25.5	-25.4	17.6	0.00e+00	0	49	0	17272143872	22	14344
2026-01-25 22:03:07.45	276.95	16.73	-25.5	-25.3	17.7	1.90e-06	0	49	0	17381195776	22	14253
2026-01-25 22:03:08.46	277.28	16.73	-25.5	-25.4	17.7	0.00e+00	0	49	0	17490247680	22	14280
2026-01-25 22:03:09.46	277.60	16.73	-25.5	-25.3	17.7	0.00e+00	0	49	0	17607688192	22	14271
2026-01-25 22:03:10.47	277.93	16.73	-25.6	-25.4	17.7	0.00e+00	0	49	0	17716740096	22	14399
2026-01-25 22:03:11.47	278.26	16.73	-25.6	-25.4	17.8	0.00e+00	0	49	0	17834180608	22	14357
2026-01-25 22:03:12.47	278.58	16.72	-25.5	-25.3	18.0	0.00e+00	0	49	0	17943232512	22	14193
2026-01-25 22:03:13.47	278.91	16.72	-25.5	-25.3	18.0	0.00e+00	0	49	0	18060673024	22	14265
2026-01-25 22:03:14.48	279.24	16.72	-25.5	-25.4	18.1	0.00e+00	0	49	0	18169724928	22	14291
2026-01-25 22:03:15.49	279.56	16.71	-25.6	-25.4	18.0	0.00e+00	0	49	0	18278776832	22	14439
2026-01-25 22:03:16.49	279.89	16.70	-25.5	-25.3	18.1	0.00e+00	0	49	0	18396217344	22	14180
2026-01-25 22:03:17.50	280.22	16.70	-25.6	-25.4	18.1	0.00e+00	0	49	0	18505269248	22	14356
2026-01-25 22:03:18.51	280.54	16.69	-25.6	-25.4	18.1	0.00e+00	0	49	0	18622709760	22	14379
2026-01-25 22:03:19.51	280.87	16.68	-25.6	-25.4	18.2	0.00e+00	0	49	0	18731761664	22	14440
2026-01-25 22:03:20.52	281.20	16.67	-25.6	-25.4	18.3	0.00e+00	0	49	0	18840813568	22	14418
2026-01-25 22:03:21.53	281.52	16.66	-25.6	-25.4	18.3	0.00e+00	0	49	0	18966642688	22	14358
2026-01-25 22:03:22.54	281.85	16.65	-25.6	-25.5	18.4	0.00e+00	0	49	0	19084083200	22	14498
2026-01-25 22:03:23.54	282.17	16.63	-25.6	-25.5	18.4	0.00e+00	0	49	0	19193135104	22	14453
2026-01-25 22:03:24.55	282.50	16.62	-25.7	-25.5	18.3	0.00e+00	0	49	0	19302187008	22	14568
2026-01-25 22:03:25.56	282.82	16.61	-25.6	-25.4	18.5	0.00e+00	0	49	0	19419627520	22	14382
2026-01-25 22:03:26.56	283.14	16.59	-25.5	-25.4	18.5	0.00e+00	0	49	0	19528679424	22	14329
2026-01-25 22:03:27.57	283.47	16.58	-25.7	-25.5	18.5	0.00e+00	0	49	0	19646119936	22	14535
2026-01-25 22:03:28.58	283.79	16.56	-25.7	-25.5	18.5	0.00e+00	0	49	0	19755171840	22	14518
2026-01-25 22:03:29.58	284.11	16.54	-25.7	-25.5	18.6	0.00e+00	0	49	0	19864223744	22	14529
2026-01-25 22:03:30.59	284.44	16.52	-25.6	-25.5	18.5	0.00e+00	0	49	0	19981664256	22	14501
2026-01-25 22:03:31.60	284.76	16.51	-25.7	-25.5	18.6	0.00e+00	0	49	0	20090716160	22	14579
2026-01-25 22:03:32.61	285.08	16.49	-25.7	-25.5	18.6	0.00e+00	0	49	0	20208156672	22	14548
2026-01-25 22:03:33.61	285.40	16.47	-25.7	-25.6	18.5	0.00e+00	0	49	0	20317208576	22	14651
2026-01-25 22:03:34.61	285.72	16.45	-25.7	-25.6	18.6	0.00e+00	0	49	0	20434649088	22	14620
2026-01-25 22:03:35.62	286.04	16.43	-25.8	-25.6	18.6	0.00e+00	0	49	0	20543700992	22	14717
2026-01-25 22:03:36.63	286.36	16.40	-25.9	-25.7	18.5	0.00e+00	0	49	0	20669530112	22	14901
2026-01-25 22:03:37.63	286.68	16.38	-25.8	-25.7	18.5	0.00e+00	0	49	0	20778582016	22	14831
2026-01-25 22:03:38.64	287.00	16.36	-25.9	-25.7	18.5	0.00e+00	0	49	0	20887633920	22	14871
2026-01-25 22:03:39.65	287.32	16.33	-26.0	-25.8	18.5	0.00e+00	0	49	0	21005074432	22	15060
2026-01-25 22:03:40.66	287.64	16.31	-25.9	-25.7	18.5	0.00e+00	0	49	0	21114126336	22	14921
2026-01-25 22:03:41.66	287.95	16.28	-25.9	-25.7	18.4	0.00e+00	0	49	0	21231566848	22	14941
2026-01-25 22:03:42.67	288.27	16.25	-25.9	-25.8	18.4	0.00e+00	0	49	0	21340618752	22	14986
2026-01-25 22:03:43.68	288.58	16.23	-25.9	-25.8	18.4	0.00e+00	0	49	0	21458059264	22	14971
2026-01-25 22:03:44.68	288.90	16.20	-26.0	-25.8	18.2	0.00e+00	0	49	0	21567111168	22	15096
2026-01-25 22:03:45.69	289.21	16.17	-26.0	-25.8	18.2	0.00e+00	0	49	0	21676163072	22	15104
2026-01-25 22:03:46.70	289.52	16.14	-26.0	-25.8	18.2	0.00e+00	0	49	0	21793603584	22	15079
2026-01-25 22:03:47.71	289.84	16.11	-26.1	-25.9	18.2	0.00e+00	0	49	0	21902655488	22	15287
2026-01-25 22:03:48.72	290.15	16.08	-26.1	-25.9	18.1	0.00e+00	0	49	0	22020096000	22	15273
2026-01-25 22:03:49.72	290.46	16.05	-26.2	-26.0	17.9	0.00e+00	0	49	0	22129147904	22	15405
2026-01-25 22:03:50.73	290.77	16.02	-26.2	-26.0	17.9	0.00e+00	0	49	0	22254977024	22	15424
2026-01-25 22:03:51.73	291.08	15.98	-26.2	-26.1	17.8	0.00e+00	0	49	0	22364028928	23	14636
2026-01-25 22:03:52.74	291.39	15.95	-26.1	-26.0	17.8	0.00e+00	0	49	0	22481469440	23	14468
2026-01-25 22:03:53.74	291.69	15.92	-26.2	-26.0	17.6	0.00e+00	0	49	0	22590521344	23	14531
2026-01-25 22:03:54.75	292.00	15.88	-26.2	-26.1	17.7	0.00e+00	0	49	0	22699573248	23	14657
2026-01-25 22:03:55.76	292.31	15.85	-26.4	-26.2	17.5	0.00e+00	0	49	0	22817013760	23	14898
2026-01-25 22:03:56.76	292.61	15.81	-26.2	-26.1	17.5	0.00e+00	0	49	0	22926065664	23	14616
2026-01-25 22:03:57.77	292.92	15.77	-26.3	-26.1	17.2	0.00e+00	0	49	0	23043506176	23	14764
2026-01-25 22:03:58.77	293.22	15.74	-26.4	-26.2	17.3	0.00e+00	0	49	0	23152558080	23	14872
2026-01-25 22:03:59.78	293.52	15.70	-26.4	-26.2	17.4	0.00e+00	0	49	0	23261609984	23	14869
2026-01-25 22:04:00.78	293.82	15.66	-26.4	-26.3	17.0	0.00e+00	0	49	0	23379050496	23	14981
2026-01-25 22:04:01.79	294.13	15.62	-26.3	-26.2	17.2	0.00e+00	0	49	0	23488102400	23	14842
2026-01-25 22:04:02.80	294.43	15.58	-26.4	-26.2	17.4	0.00e+00	0	49	0	23605542912	23	14888
2026-01-25 22:04:03.80	294.73	15.54	-26.5	-26.3	17.3	0.00e+00	0	49	0	23714594816	23	15063
2026-01-25 22:04:04.80	295.02	15.50	-26.5	-26.3	17.2	0.00e+00	0	49	0	23832035328	23	15085
2026-01-25 22:04:05.80	295.32	15.46	-26.6	-26.5	17.0	1.90e-06	0	49	0	23941087232	23	15303
2026-01-25 22:04:06.79	295.61	15.42	-26.5	-26.3	17.2	0.00e+00	0	49	0	24050139136	23	15066
2026-01-25 22:04:07.80	295.91	15.38	-26.6	-26.5	17.2	0.00e+00	0	49	0	24167579648	23	15367
2026-01-25 22:04:08.81	296.20	15.34	-26.5	-26.3	17.3	0.00e+00	0	49	0	24276631552	23	15068
2026-01-25 22:04:09.81	296.49	15.29	-26.5	-26.4	17.4	0.00e+00	0	49	0	24394072064	23	15128
2026-01-25 22:04:10.82	296.79	15.25	-26.6	-26.5	17.4	0.00e+00	0	49	0	24503123968	23	15363
2026-01-25 22:04:11.83	297.08	15.20	-26.7	-26.6	17.3	1.90e-06	0	49	0	24628953088	24	14624
2026-01-25 22:04:12.83	297.37	15.16	-26.6	-26.5	17.1	0.00e+00	0	49	0	24738004992	24	14485
2026-01-25 22:04:13.84	297.66	15.11	-26.6	-26.5	17.0	1.90e-06	0	49	0	24855445504	24	14509
2026-01-25 22:04:14.85	297.95	15.07	-26.6	-26.5	16.9	0.00e+00	0	49	0	24964497408	24	14509
2026-01-25 22:04:15.86	298.24	15.02	-26.8	-26.6	16.9	0.00e+00	0	49	0	25073549312	24	14691
2026-01-25 22:04:16.86	298.52	14.97	-26.6	-26.4	17.3	0.00e+00	0	49	0	25190989824	24	14439
2026-01-25 22:04:17.87	298.81	14.93	-26.7	-26.5	17.2	0.00e+00	0	49	0	25300041728	24	14572
2026-01-25 22:04:18.87	299.09	14.88	-26.6	-26.4	16.9	0.00e+00	0	49	0	25417482240	24	14426
2026-01-25 22:04:19.88	299.38	14.83	-26.7	-26.5	17.0	0.00e+00	0	49	0	25526534144	24	14527
2026-01-25 22:04:20.89	299.66	14.78	-26.7	-26.6	16.9	0.00e+00	0	49	0	25635586048	24	14621
2026-01-25 22:04:21.89	299.94	14.73	-26.6	-26.5	16.7	0.00e+00	0	49	0	25753026560	24	14483
2026-01-25 22:04:22.90	300.22	14.68	-26.8	-26.7	16.7	0.00e+00	0	49	0	25862078464	24	14800
2026-01-25 22:04:23.91	300.50	14.63	-26.6	-26.5	16.5	1.90e-06	0	49	0	25979518976	24	14470
2026-01-25 22:04:24.92	300.78	14.58	-26.8	-26.7	16.7	3.80e-06	0	49	0	26088570880	24	14786
2026-01-25 22:04:25.93	301.06	14.53	-26.7	-26.6	16.5	1.90e-06	0	49	0	26214400000	24	14643
2026-01-25 22:04:26.94	301.33	14.48	-26.7	-26.5	16.6	1.90e-06	0	49	0	26323451904	24	14532
2026-01-25 22:04:27.94	301.61	14.43	-26.7	-26.5	16.6	3.80e-06	0	49	0	26440892416	24	14566
2026-01-25 22:04:28.95	301.88	14.37	-26.7	-26.6	16.3	3.80e-06	0	49	0	26549944320	24	14674
2026-01-25 22:04:29.96	302.15	14.32	-26.8	-26.7	16.3	3.80e-06	0	49	0	26658996224	24	14780
2026-01-25 22:04:30.97	302.43	14.27	-26.7	-26.6	16.6	1.90e-06	0	49	0	26776436736	24	14673
2026-01-25 22:04:31.98	302.70	14.22	-26.7	-26.6	16.9	0.00e+00	0	49	0	26885488640	24	14669
2026-01-25 22:04:32.98	302.97	14.16	-26.8	-26.6	16.8	3.80e-06	0	49	0	27002929152	24	14728
2026-01-25 22:04:33.99	303.24	14.11	-26.7	-26.6	16.9	0.00e+00	0	49	0	27111981056	24	14610
2026-01-25 22:04:34.99	303.50	14.05	-26.8	-26.6	16.9	0.00e+00	0	49	0	27229421568	24	14721
2026-01-25 22:04:36.00	303.77	14.00	-26.8	-26.7	16.9	0.00e+00	0	49	0	27338473472	24	14833
2026-01-25 22:04:37.01	304.03	13.94	-26.9	-26.7	16.9	0.00e+00	0	49	0	27447525376	24	14880
2026-01-25 22:04:38.01	304.29	13.89	-26.7	-26.6	17.0	0.00e+00	0	49	0	27564965888	24	14671
2026-01-25 22:04:39.02	304.56	13.83	-26.8	-26.6	17.0	0.00e+00	0	49	0	27674017792	24	14740
2026-01-25 22:04:40.03	304.82	13.78	-26.8	-26.7	17.1	0.00e+00	0	49	0	27799846912	24	14810
2026-01-25 22:04:41.04	305.08	13.72	-26.8	-26.6	17.2	0.00e+00	0	49	0	27908898816	24	14752
2026-01-25 22:04:42.05	305.34	13.66	-26.8	-26.7	17.1	0.00e+00	0	49	0	28026339328	24	14838
2026-01-25 22:04:43.06	305.60	13.60	-26.8	-26.6	17.0	0.00e+00	0	49	0	28135391232	24	14753
2026-01-25 22:04:44.07	305.86	13.55	-26.8	-26.7	17.1	0.00e+00	0	49	0	28252831744	24	14836
2026-01-25 22:04:45.08	306.11	13.49	-26.9	-26.7	17.2	0.00e+00	0	49	0	28361883648	24	14889
2026-01-25 22:04:46.08	306.37	13.43	-26.9	-26.7	17.2	0.00e+00	0	49	0	28470935552	24	14855
2026-01-25 22:04:47.09	306.62	13.37	-26.9	-26.8	17.3	1.90e-06	0	49	0	28588376064	24	14955
2026-01-25 22:04:48.09	306.87	13.31	-26.9	-26.8	17.2	1.90e-06	0	49	0	28697427968	24	14959
2026-01-25 22:04:49.08	307.12	13.26	-26.9	-26.7	17.2	0.00e+00	0	49	0	28814868480	24	14941
2026-01-25 22:04:50.06	307.36	13.20	-26.8	-26.6	17.1	0.00e+00	0	49	0	28923920384	24	14768
2026-01-25 22:04:51.03	307.60	13.14	-26.9	-26.7	17.2	0.00e+00	0	49	0	29032972288	24	14894
2026-01-25 22:04:52.00	307.84	13.08	-26.9	-26.7	17.0	0.00e+00	0	49	0	29142024192	24	14860
2026-01-25 22:04:52.97	308.08	13.03	-26.8	-26.7	17.2	0.00e+00	0	49	0	29251076096	24	14863
2026-01-25 22:04:53.94	308.31	12.97	-26.9	-26.7	17.1	1.90e-06	0	49	0	29360128000	24	14932
2026-01-25 22:04:54.91	308.55	12.91	-26.9	-26.7	16.9	0.00e+00	0	49	0	29460791296	24	14907
2026-01-25 22:04:55.87	308.78	12.85	-27.1	-26.9	17.2	0.00e+00	0	49	0	29578231808	24	15203
2026-01-25 22:04:56.84	309.01	12.80	-27.2	-27.0	17.2	0.00e+00	0	49	0	29687283712	25	14542
2026-01-25 22:04:57.81	309.25	12.74	-27.2	-27.0	17.2	0.00e+00	0	49	0	29787947008	25	14583
2026-01-25 22:04:58.78	309.48	12.68	-27.2	-27.0	17.1	0.00e+00	0	49	0	29905387520	25	14518
2026-01-25 22:04:59.75	309.71	12.62	-27.2	-27.0	17.1	0.00e+00	0	49	0	30014439424	25	14596
2026-01-25 22:05:00.72	309.94	12.56	-27.0	-26.8	17.1	0.00e+00	0	49	0	30115102720	25	14274
2026-01-25 22:05:01.68	310.16	12.50	-27.1	-27.0	17.1	0.00e+00	0	49	0	30232543232	25	14446
2026-01-25 22:05:02.65	310.39	12.44	-27.1	-26.9	17.1	1.90e-06	0	49	0	30341595136	25	14440
2026-01-25 22:05:03.62	310.61	12.38	-27.1	-26.9	17.1	0.00e+00	0	49	0	30450647040	25	14411
2026-01-25 22:05:04.59	310.84	12.32	-27.2	-27.1	17.0	0.00e+00	0	49	0	30551310336	25	14614
2026-01-25 22:05:05.56	311.06	12.26	-27.3	-27.1	16.9	1.90e-06	0	49	0	30668750848	25	14688
2026-01-25 22:05:06.53	311.29	12.20	-27.3	-27.1	17.0	0.00e+00	0	49	0	30777802752	25	14776
2026-01-25 22:05:07.50	311.51	12.14	-27.3	-27.1	17.0	1.90e-06	0	49	0	30878466048	25	14702
2026-01-25 22:05:08.47	311.73	12.08	-27.2	-27.1	17.0	3.80e-06	0	49	0	30995906560	25	14610
2026-01-25 22:05:09.44	311.95	12.02	-27.2	-27.0	16.9	0.00e+00	0	49	0	31104958464	25	14590
2026-01-25 22:05:10.40	312.16	11.96	-27.3	-27.2	16.9	0.00e+00	0	48	0	31205621760	25	14824
2026-01-25 22:05:11.37	312.38	11.90	-27.2	-27.0	17.1	0.00e+00	0	49	0	31323062272	25	14559
2026-01-25 22:05:12.34	312.60	11.84	-27.3	-27.1	16.9	0.00e+00	0	49	0	31432114176	25	14690
2026-01-25 22:05:13.31	312.81	11.78	-27.3	-27.2	16.9	0.00e+00	0	48	0	31532777472	25	14835
2026-01-25 22:05:14.28	313.03	11.72	-27.4	-27.3	17.0	0.00e+00	0	48	0	31650217984	25	15000
2026-01-25 22:05:15.24	313.24	11.65	-27.4	-27.2	16.8	0.00e+00	0	49	0	31759269888	25	14848
2026-01-25 22:05:16.21	313.45	11.59	-27.4	-27.3	17.0	1.90e-06	0	49	0	31859933184	25	14993
2026-01-25 22:05:17.18	313.66	11.53	-27.4	-27.3	16.8	1.90e-06	0	48	0	31968985088	25	14999
2026-01-25 22:05:18.14	313.87	11.47	-50.1	-50.9	7.2	0.00e+00	0	48	104	31985762304	70	16994
2026-01-25 22:05:19.11	314.08	11.41	-53.9	-56.0	6.2	0.00e+00	0	48	104	31985762304	78	19451
2026-01-25 22:05:20.08	314.29	11.35	-53.9	-56.0	6.2	0.00e+00	0	48	104	31985762304	78	19416
2026-01-25 22:05:21.05	314.49	11.28	-53.9	-55.9	6.2	0.00e+00	0	48	104	31985762304	78	19240
2026-01-25 22:05:22.01	314.70	11.22	-53.9	-56.0	6.2	0.00e+00	0	48	104	31985762304	78	19351
2026-01-25 22:05:22.98	314.90	11.16	-53.9	-56.0	6.2	0.00e+00	0	48	104	31985762304	78	19270
2026-01-25 22:05:23.95	315.11	11.10	-53.9	-56.0	6.2	0.00e+00	0	48	104	31985762304	78	19304
2026-01-25 22:05:24.92	315.31	11.04	-53.9	-56.0	6.2	0.00e+00	0	48	104	31985762304	78	19268
2026-01-25 22:05:25.88	315.51	10.97	-53.9	-56.0	6.2	0.00e+00	0	48	104	31985762304	78	19383
2026-01-25 22:05:26.85	315.71	10.91	-53.9	-56.0	6.2	0.00e+00	0	48	104	31985762304	78	19330
2026-01-25 22:05:27.82	315.91	10.85	-53.8	-55.9	6.2	0.00e+00	0	48	104	31985762304	78	19188
2026-01-25 22:05:28.79	316.11	10.79	-53.8	-55.9	6.2	0.00e+00	0	48	104	31985762304	78	19186
2026-01-25 22:05:29.76	316.31	10.72	-53.9	-56.0	6.2	0.00e+00	0	48	104	31985762304	78	19273
2026-01-25 22:05:30.72	316.50	10.66	-53.8	-55.9	6.2	0.00e+00	0	48	104	31985762304	78	19187
2026-01-25 22:05:31.69	316.70	10.60	-53.8	-55.9	6.2	0.00e+00	0	48	104	31985762304	78	19067
2026-01-25 22:05:32.66	316.89	10.54	-53.8	-55.8	6.2	0.00e+00	0	48	104	31985762304	78	18981
2026-01-25 22:05:33.62	317.08	10.47	-53.8	-55.9	6.2	0.00e+00	0	48	104	31985762304	78	19130
2026-01-25 22:05:34.59	317.28	10.41	-53.8	-55.9	6.2	0.00e+00	0	48	104	31985762304	78	19101
2026-01-25 22:05:35.56	317.47	10.35	-53.7	-55.8	6.2	0.00e+00	0	48	104	31985762304	78	18939
2026-01-25 22:05:36.52	317.66	10.29	-53.7	-55.8	6.2	0.00e+00	0	48	104	31985762304	78	18935
2026-01-25 22:05:37.49	317.85	10.22	-53.7	-55.8	6.2	0.00e+00	0	48	104	31985762304	78	18934
2026-01-25 22:05:38.46	318.04	10.16	-53.7	-55.8	6.2	0.00e+00	0	48	104	31985762304	78	18955
2026-01-25 22:05:39.43	318.23	10.10	-53.7	-55.7	6.2	0.00e+00	0	48	104	31985762304	78	18745
2026-01-25 22:05:40.39	318.41	10.03	-53.6	-55.7	6.2	0.00e+00	0	48	104	31985762304	78	18651
2026-01-25 22:05:41.36	318.60	9.97	-53.6	-55.7	6.2	0.00e+00	0	48	104	31985762304	78	18800
2026-01-25 22:05:42.33	318.78	9.91	-53.7	-55.8	6.2	0.00e+00	0	48	104	31985762304	78	18867
2026-01-25 22:05:43.30	318.97	9.84	-53.6	-55.7	6.2	0.00e+00	0	48	104	31985762304	78	18787
2026-01-25 22:05:44.26	319.15	9.78	-53.6	-55.6	6.2	0.00e+00	0	48	104	31985762304	78	18595
2026-01-25 22:05:45.23	319.33	9.72	-53.6	-55.7	6.2	0.00e+00	0	48	104	31985762304	78	18685
2026-01-25 22:05:46.19	319.51	9.66	-53.7	-55.8	6.2	0.00e+00	0	48	104	31985762304	78	18885
2026-01-25 22:05:47.16	319.69	9.59	-53.6	-55.7	6.2	0.00e+00	0	48	104	31985762304	78	18669
2026-01-25 22:05:48.13	319.87	9.53	-53.5	-55.6	6.2	0.00e+00	0	48	104	31985762304	78	18511
2026-01-25 22:05:49.10	320.05	9.47	-53.6	-55.7	6.2	0.00e+00	0	48	104	31985762304	78	18604
2026-01-25 22:05:50.07	320.23	9.40	-53.6	-55.7	6.2	0.00e+00	0	48	104	31985762304	78	18789
2026-01-25 22:05:51.03	320.41	9.34	-53.5	-55.6	6.2	0.00e+00	0	48	104	31985762304	78	18533
2026-01-25 22:05:52.00	320.58	9.28	-53.5	-55.6	6.2	0.00e+00	0	47	104	31985762304	78	18446
2026-01-25 22:05:52.97	320.76	9.21	-53.5	-55.6	6.2	0.00e+00	0	47	104	31985762304	78	18443
2026-01-25 22:05:53.94	320.93	9.15	-53.6	-55.7	6.2	0.00e+00	0	48	104	31985762304	78	18712
2026-01-25 22:05:54.90	321.10	9.09	-53.5	-55.6	6.2	0.00e+00	0	48	104	31985762304	78	18419
2026-01-25 22:05:55.87	321.28	9.03	-53.4	-55.5	6.2	0.00e+00	0	48	104	31985762304	78	18331
2026-01-25 22:05:56.84	321.45	8.96	-53.4	-55.6	6.2	0.00e+00	0	48	104	31985762304	78	18419
2026-01-25 22:05:57.81	321.62	8.90	-53.5	-55.6	6.2	0.00e+00	0	48	104	31985762304	78	18525
2026-01-25 22:05:58.77	321.79	8.84	-53.4	-55.5	6.2	0.00e+00	0	47	104	31985762304	78	18374
2026-01-25 22:05:59.74	321.96	8.77	-53.4	-55.5	6.2	0.00e+00	0	47	104	31985762304	78	18234
2026-01-25 22:06:00.71	322.13	8.71	-53.4	-55.5	6.2	0.00e+00	0	47	104	31985762304	78	18310
2026-01-25 22:06:01.67	322.29	8.65	-53.5	-55.6	6.2	0.00e+00	0	47	104	31985762304	78	18425
2026-01-25 22:06:02.64	322.46	8.58	-53.4	-55.5	6.2	0.00e+00	0	47	104	31985762304	78	18253
2026-01-25 22:06:03.61	322.62	8.52	-53.3	-55.5	6.2	0.00e+00	0	47	104	31985762304	78	18191
2026-01-25 22:06:04.58	322.79	8.46	-53.4	-55.4	6.2	0.00e+00	0	48	104	31985762304	78	18174
2026-01-25 22:06:05.54	322.95	8.40	-53.4	-55.5	6.2	0.00e+00	0	47	104	31985762304	78	18277
2026-01-25 22:06:06.51	323.11	8.33	-53.4	-55.4	6.2	0.00e+00	0	47	104	31985762304	78	18165
2026-01-25 22:06:07.48	323.28	8.27	-53.3	-55.4	6.2	0.00e+00	0	48	104	31985762304	78	18026
2026-01-25 22:06:08.45	323.44	8.21	-53.2	-55.3	6.2	0.00e+00	0	47	104	31985762304	78	17937
2026-01-25 22:06:09.41	323.60	8.14	-53.3	-55.4	6.2	0.00e+00	0	47	104	31985762304	78	18050
2026-01-25 22:06:10.38	323.76	8.08	-53.3	-55.4	6.2	0.00e+00	0	47	104	31985762304	78	18091
2026-01-25 22:06:11.35	323.92	8.02	-53.3	-55.4	6.2	0.00e+00	0	47	104	31985762304	78	18014
2026-01-25 22:06:12.31	324.07	7.96	-53.2	-55.3	6.2	0.00e+00	0	47	104	31985762304	78	17885
2026-01-25 22:06:13.28	324.23	7.89	-53.3	-55.3	6.2	0.00e+00	0	47	104	31985762304	78	17912
2026-01-25 22:06:14.25	324.39	7.83	-53.3	-55.4	6.2	0.00e+00	0	48	104	31985762304	78	18046
2026-01-25 22:06:15.22	324.54	7.77	-53.2	-55.3	6.2	0.00e+00	0	47	104	31985762304	78	17942
2026-01-25 22:06:16.19	324.70	7.71	-53.2	-55.3	6.2	0.00e+00	0	47	104	31985762304	78	17889
2026-01-25 22:06:17.16	324.85	7.64	-53.2	-55.3	6.2	0.00e+00	0	47	104	31985762304	78	17862
2026-01-25 22:06:18.12	325.01	7.58	-53.3	-55.4	6.2	0.00e+00	0	47	104	31985762304	78	18057
2026-01-25 22:06:19.09	325.16	7.52	-53.2	-55.3	6.2	0.00e+00	0	47	104	31985762304	78	17834
2026-01-25 22:06:20.06	325.31	7.46	-53.2	-55.3	6.2	0.00e+00	0	47	104	31985762304	78	17824
2026-01-25 22:06:21.03	325.46	7.40	-53.2	-55.3	6.2	0.00e+00	0	47	104	31985762304	78	17857
2026-01-25 22:06:21.99	325.61	7.33	-53.3	-55.4	6.2	0.00e+00	0	47	104	31985762304	78	18019
2026-01-25 22:06:22.96	325.76	7.27	-53.2	-55.3	6.2	0.00e+00	0	47	104	31985762304	78	17812
2026-01-25 22:06:23.93	325.91	7.21	-53.2	-55.2	6.2	0.00e+00	0	47	104	31985762304	78	17765
2026-01-25 22:06:24.90	326.06	7.15	-53.1	-55.3	6.2	0.00e+00	0	47	104	31985762304	78	17770
2026-01-25 22:06:25.86	326.21	7.09	-53.2	-55.3	6.2	0.00e+00	0	47	104	31985762304	78	17877
2026-01-25 22:06:26.83	326.35	7.02	-53.1	-55.2	6.2	0.00e+00	0	48	104	31985762304	78	17657
2026-01-25 22:06:27.80	326.50	6.96	-53.1	-55.2	6.2	0.00e+00	0	47	104	31985762304	78	17726
2026-01-25 22:06:28.76	326.64	6.90	-53.1	-55.2	6.2	0.00e+00	0	47	104	31985762304	78	17592
2026-01-25 22:06:29.73	326.79	6.84	-53.2	-55.2	6.2	0.00e+00	0	47	104	31985762304	78	17746
2026-01-25 22:06:30.69	326.93	6.78	-53.1	-55.2	6.2	0.00e+00	0	47	104	31985762304	78	17667
2026-01-25 22:06:31.66	327.07	6.72	-53.1	-55.2	6.2	0.00e+00	0	47	104	31985762304	78	17613
2026-01-25 22:06:32.63	327.22	6.65	-53.0	-55.2	6.2	0.00e+00	0	47	104	31985762304	78	17567
2026-01-25 22:06:33.60	327.36	6.59	-53.1	-55.2	6.2	0.00e+00	0	47	104	31985762304	78	17689
2026-01-25 22:06:34.56	327.50	6.53	-53.1	-55.2	6.2	0.00e+00	0	47	104	31985762304	78	17613
2026-01-25 22:06:35.53	327.64	6.47	-53.0	-55.2	6.2	0.00e+00	0	47	104	31985762304	78	17579
2026-01-25 22:06:36.49	327.78	6.41	-53.0	-55.1	6.2	0.00e+00	0	47	104	31985762304	78	17459
2026-01-25 22:06:37.46	327.91	6.35	-53.1	-55.1	6.2	0.00e+00	0	47	104	31985762304	78	17544
2026-01-25 22:06:38.43	328.05	6.29	-53.1	-55.2	6.2	0.00e+00	0	47	104	31985762304	78	17577
2026-01-25 22:06:39.39	328.19	6.23	-53.0	-55.1	6.2	0.00e+00	0	47	104	31985762304	78	17461
2026-01-25 22:06:40.36	328.33	6.17	-53.0	-55.1	6.2	0.00e+00	0	47	104	31985762304	78	17387
2026-01-25 22:06:41.32	328.46	6.10	-53.0	-55.1	6.2	0.00e+00	0	47	104	31985762304	77	18476
2026-01-25 22:06:42.29	328.60	6.04	-53.0	-55.1	6.2	0.00e+00	0	47	104	31985762304	77	18518
2026-01-25 22:06:43.26	328.73	5.98	-52.9	-55.1	6.2	0.00e+00	0	47	104	31985762304	77	18392
2026-01-25 22:06:44.22	328.86	5.92	-52.9	-55.0	6.2	0.00e+00	0	47	104	31985762304	77	18348
2026-01-25 22:06:45.19	329.00	5.86	-52.9	-55.0	6.2	0.00e+00	0	47	104	31985762304	77	18286
2026-01-25 22:06:46.16	329.13	5.80	-53.0	-55.1	6.2	0.00e+00	0	47	104	31985762304	77	18535
2026-01-25 22:06:47.13	329.26	5.74	-52.9	-55.0	6.2	0.00e+00	0	47	104	31985762304	77	18308
2026-01-25 22:06:48.10	329.40	5.68	-52.9	-55.0	6.2	0.00e+00	0	47	104	31985762304	77	18312
2026-01-25 22:06:49.07	329.53	5.62	-52.9	-55.0	6.2	0.00e+00	0	47	104	31985762304	77	18203
2026-01-25 22:06:50.03	329.66	5.56	-53.0	-55.1	6.2	0.00e+00	0	47	104	31985762304	77	18496
2026-01-25 22:06:51.00	329.78	5.50	-52.9	-55.0	6.2	0.00e+00	0	47	104	31985762304	77	18219
2026-01-25 22:06:51.97	329.91	5.44	-52.9	-55.0	6.2	0.00e+00	0	47	104	31985762304	77	18248
2026-01-25 22:06:52.94	330.04	5.38	-52.8	-54.9	6.2	0.00e+00	0	47	104	31985762304	77	18042
2026-01-25 22:06:53.90	330.17	5.32	-53.0	-55.1	6.2	0.00e+00	0	47	104	31985762304	77	18424
2026-01-25 22:06:54.87	330.30	5.26	-52.8	-54.9	6.2	0.00e+00	0	47	104	31985762304	77	18114
2026-01-25 22:06:55.84	330.42	5.20	-52.9	-55.0	6.2	0.00e+00	0	47	104	31985762304	77	18198
2026-01-25 22:06:56.80	330.55	5.14	-52.8	-54.9	6.2	0.00e+00	0	47	104	31985762304	77	18018
2026-01-25 22:06:57.77	330.67	5.08	-52.9	-55.0	6.2	0.00e+00	0	47	104	31985762304	77	18311
2026-01-25 22:06:58.74	330.80	5.02	-52.8	-54.9	6.2	0.00e+00	0	47	104	31985762304	77	18112
2026-01-25 22:06:59.71	330.92	4.96	-52.8	-54.9	6.2	0.00e+00	0	47	104	31985762304	77	18140
2026-01-25 22:07:00.68	331.05	4.90	-53.3	-55.4	6.2	0.00e+00	0	47	104	31985762304	77	19144
2026-01-25 22:07:01.64	331.17	4.84	-53.7	-55.8	6.2	0.00e+00	0	47	104	31985762304	77	20060
2026-01-25 22:07:02.61	331.29	4.78	-53.9	-56.0	6.2	0.00e+00	0	47	104	31985762304	78	19410
2026-01-25 22:07:03.58	331.41	4.72	-54.1	-56.2	6.2	0.00e+00	0	47	104	31985762304	78	19769
2026-01-25 22:07:04.54	331.53	4.67	-54.1	-56.2	6.2	0.00e+00	0	47	104	31985762304	78	19869
2026-01-25 22:07:05.51	331.65	4.61	-54.2	-56.3	6.2	0.00e+00	0	47	104	31985762304	78	20044
2026-01-25 22:07:06.47	331.77	4.55	-54.2	-56.3	6.2	0.00e+00	0	47	104	31985762304	79	18976
2026-01-25 22:07:07.44	331.89	4.49	-54.2	-56.3	6.2	0.00e+00	0	47	104	31985762304	79	18963
2026-01-25 22:07:08.41	332.01	4.43	-54.2	-56.3	6.2	0.00e+00	0	47	104	31985762304	79	18894
2026-01-25 22:07:09.37	332.13	4.37	-54.1	-56.2	6.2	0.00e+00	0	47	104	31985762304	79	18713
2026-01-25 22:07:10.34	332.24	4.31	-54.0	-56.1	6.2	0.00e+00	0	47	104	31985762304	79	18462
2026-01-25 22:07:11.31	332.36	4.26	-53.9	-56.0	6.2	0.00e+00	0	47	104	31985762304	79	18272
2026-01-25 22:07:12.28	332.48	4.20	-53.9	-56.1	6.2	0.00e+00	0	47	104	31985762304	79	18404
2026-01-25 22:07:13.24	332.59	4.14	-54.0	-56.1	6.2	0.00e+00	0	47	104	31985762304	79	18411
2026-01-25 22:07:14.21	332.71	4.08	-54.0	-56.1	6.2	0.00e+00	0	47	104	31985762304	79	18412
2026-01-25 22:07:15.18	332.82	4.02	-54.0	-56.1	6.2	0.00e+00	0	47	104	31985762304	79	18407
2026-01-25 22:07:16.15	332.94	3.96	-54.0	-56.1	6.2	0.00e+00	0	47	104	31985762304	79	18465
2026-01-25 22:07:17.11	333.05	3.91	-54.0	-56.1	6.2	0.00e+00	0	47	104	31985762304	79	18461
2026-01-25 22:07:18.08	333.16	3.85	-54.0	-56.1	6.2	0.00e+00	0	47	104	31985762304	79	18468
2026-01-25 22:07:19.05	333.28	3.79	-54.0	-56.0	6.2	0.00e+00	0	47	104	31985762304	79	18385
2026-01-25 22:07:20.01	333.39	3.73	-53.9	-56.0	6.2	0.00e+00	0	47	104	31985762304	79	18339
2026-01-25 22:07:20.98	333.50	3.68	-53.9	-56.0	6.2	0.00e+00	0	47	104	31985762304	79	18314
2026-01-25 22:07:21.95	333.61	3.62	-53.9	-56.0	6.2	0.00e+00	0	47	104	31985762304	79	18320
2026-01-25 22:07:22.92	333.72	3.56	-53.8	-55.9	6.2	0.00e+00	0	47	104	31985762304	79	18108
2026-01-25 22:07:23.88	333.83	3.50	-53.8	-55.9	6.2	0.00e+00	0	47	104	31985762304	79	18099
2026-01-25 22:07:24.85	333.94	3.45	-53.8	-55.9	6.2	0.00e+00	0	47	104	31985762304	79	18083
2026-01-25 22:07:25.81	334.05	3.39	-53.8	-55.9	6.2	0.00e+00	0	47	104	31985762304	79	18051
2026-01-25 22:07:26.78	334.16	3.33	-53.8	-55.9	6.2	0.00e+00	0	47	104	31985762304	79	17996
2026-01-25 22:07:27.75	334.27	3.27	-53.8	-55.8	6.2	0.00e+00	0	47	104	31985762304	79	17964
2026-01-25 22:07:28.72	334.37	3.22	-53.7	-55.8	6.2	0.00e+00	0	47	104	31985762304	79	17957
2026-01-25 22:07:29.69	334.48	3.16	-53.7	-55.8	6.2	0.00e+00	0	47	104	31985762304	79	17922
2026-01-25 22:07:30.65	334.59	3.10	-53.7	-55.8	6.2	0.00e+00	0	47	104	31985762304	79	17920
2026-01-25 22:07:31.63	334.69	3.05	-53.7	-55.8	6.2	0.00e+00	0	47	104	31985762304	79	17850
2026-01-25 22:07:32.59	334.80	2.99	-53.7	-55.8	6.2	0.00e+00	0	47	104	31985762304	79	17849
2026-01-25 22:07:33.56	334.90	2.93	-53.7	-55.8	6.2	0.00e+00	0	47	104	31985762304	79	17874
2026-01-25 22:07:34.53	335.01	2.88	-53.7	-55.8	6.2	0.00e+00	0	47	104	31985762304	79	17810
2026-01-25 22:07:35.50	335.11	2.82	-53.7	-55.8	6.2	0.00e+00	0	47	104	31985762304	79	17793
2026-01-25 22:07:36.46	335.22	2.76	-53.7	-55.8	6.2	0.00e+00	0	47	104	31985762304	79	17821
2026-01-25 22:07:37.43	335.32	2.71	-53.7	-55.7	6.2	0.00e+00	0	47	104	31985762304	79	17765
2026-01-25 22:07:38.40	335.42	2.65	-53.7	-55.7	6.2	0.00e+00	0	47	104	31985762304	79	17758
2026-01-25 22:07:39.37	335.52	2.60	-53.6	-55.7	6.2	0.00e+00	0	47	104	31985762304	79	17695
2026-01-25 22:07:40.33	335.63	2.54	-53.6	-55.7	6.2	0.00e+00	0	47	104	31985762304	79	17670
2026-01-25 22:07:41.30	335.73	2.48	-53.6	-55.7	6.2	0.00e+00	0	47	104	31985762304	79	17700
2026-01-25 22:07:42.27	335.83	2.43	-53.6	-55.7	6.2	0.00e+00	0	47	104	31985762304	79	17627
2026-01-25 22:07:43.24	335.93	2.37	-53.6	-55.7	6.2	0.00e+00	0	47	104	31985762304	79	17627
2026-01-25 22:07:44.21	336.03	2.32	-53.6	-55.7	6.2	0.00e+00	0	47	104	31985762304	79	17655
2026-01-25 22:07:45.18	336.13	2.26	-53.6	-55.7	6.2	0.00e+00	0	47	104	31985762304	79	17669
2026-01-25 22:07:46.15	336.23	2.20	-53.6	-55.7	6.2	0.00e+00	0	47	104	31985762304	79	17601
2026-01-25 22:07:47.11	336.33	2.15	-53.6	-55.7	6.2	0.00e+00	0	47	104	31985762304	79	17620
2026-01-25 22:07:48.08	336.42	2.09	-53.6	-55.7	6.2	0.00e+00	0	47	104	31985762304	79	17617
2026-01-25 22:07:49.05	336.52	2.04	-53.6	-55.7	6.2	0.00e+00	0	47	104	31985762304	79	17614
2026-01-25 22:07:50.02	336.62	1.98	-53.6	-55.7	6.2	0.00e+00	0	47	104	31985762304	79	17592
2026-01-25 22:07:50.99	336.72	1.93	-53.6	-55.7	6.2	0.00e+00	0	47	104	31985762304	79	17581
2026-01-25 22:07:51.96	336.81	1.87	-53.6	-55.7	6.2	0.00e+00	0	47	104	31985762304	79	17593

#Closed at: 2026-01-25 22:07:52
#Recorded file [31985 MB]: D:/lorett/data/31041_260126_005826.dat