passes_logs/2026/01/25/R3.2S_Murmansk/R3.2S_Murmansk__20260125_014448_NOAA_20_JPSS-1_rec.log

#Pass ID: 20260125_014448_NOAA 20 (JPSS-1)
#Satellite: NOAA 20 (JPSS-1)
#Configuration: NOAA 20
#almurnet v.1.7.20251203
#Start time: 2026-01-25 01:44:50

#Version: 2.2.20231116
#Station: R3.2S_Murmansk
#Location: 33.079688 lon 68.888172 lat
#TLE: 1 43013U 17073A   26024.42258823  .00000183  00000+0  10747-3 0  9990
#TLE: 2 43013  98.7646 325.2629 0001105  25.8644 334.2587 14.19539754424075

#Time	Az	El	Level	Level2	SNR	BER	BlckErr	Temp	State	Recorded	gain1	gain2
2026-01-25 01:44:50.22	29.27	2.12	-52.1	-67.1	3.8	1.49e+00	0	41	0	0	76	19439
2026-01-25 01:44:51.22	29.25	2.19	-52.1	-67.1	3.8	1.49e+00	0	41	104	0	74	21857
2026-01-25 01:44:52.23	29.22	2.25	-52.1	-67.0	3.8	1.49e+00	0	41	104	0	74	21742
2026-01-25 01:44:53.24	29.20	2.32	-52.1	-67.0	3.8	1.49e+00	0	41	104	0	74	21750
2026-01-25 01:44:54.24	29.18	2.38	-52.1	-67.0	3.8	1.49e+00	0	41	104	0	74	21733
2026-01-25 01:44:55.25	29.15	2.44	-52.1	-67.0	3.8	1.49e+00	0	41	104	0	74	21630
2026-01-25 01:44:56.26	29.13	2.51	-52.1	-66.9	3.8	1.49e+00	0	41	104	0	74	21481
2026-01-25 01:44:57.27	29.11	2.57	-52.1	-67.0	3.8	1.49e+00	0	41	104	0	74	21534
2026-01-25 01:44:58.28	29.08	2.64	-52.1	-66.9	3.8	1.49e+00	0	41	104	0	74	21431
2026-01-25 01:44:59.29	29.06	2.70	-52.1	-66.9	3.8	1.49e+00	0	41	104	0	74	21264
2026-01-25 01:45:00.29	29.04	2.77	-52.1	-66.7	3.8	1.49e+00	0	41	104	0	74	20998
2026-01-25 01:45:01.30	29.01	2.83	-52.1	-66.8	3.8	1.49e+00	0	41	104	0	74	21071
2026-01-25 01:45:02.31	28.99	2.90	-52.1	-66.8	3.8	1.49e+00	0	42	104	0	74	21067
2026-01-25 01:45:03.32	28.96	2.96	-52.1	-66.8	3.8	1.49e+00	0	41	104	0	74	21065
2026-01-25 01:45:04.32	28.94	3.03	-52.1	-66.9	3.8	1.49e+00	0	42	104	0	74	21327
2026-01-25 01:45:05.33	28.91	3.10	-52.1	-66.9	3.8	1.49e+00	0	42	104	0	74	21269
2026-01-25 01:45:06.34	28.89	3.16	-52.1	-66.9	3.8	1.49e+00	0	42	104	0	74	21466
2026-01-25 01:45:07.35	28.86	3.23	-52.1	-67.0	3.8	1.49e+00	0	42	104	0	74	21566
2026-01-25 01:45:08.36	28.84	3.29	-52.1	-67.0	3.8	1.49e+00	0	42	104	0	74	21701
2026-01-25 01:45:09.36	28.81	3.36	-52.1	-67.0	3.8	1.49e+00	0	42	104	0	74	21739
2026-01-25 01:45:10.37	28.79	3.43	-52.1	-67.0	3.8	1.49e+00	0	42	104	0	74	21706
2026-01-25 01:45:11.38	28.76	3.49	-52.1	-66.9	3.8	1.49e+00	0	42	104	0	74	21499
2026-01-25 01:45:12.39	28.74	3.56	-52.1	-66.8	3.8	1.49e+00	0	42	104	0	74	21040
2026-01-25 01:45:13.40	28.71	3.63	-52.1	-66.3	3.8	1.49e+00	0	42	104	0	74	20047
2026-01-25 01:45:14.41	28.69	3.70	-52.0	-65.8	3.8	1.49e+00	0	42	104	0	74	18737
2026-01-25 01:45:15.42	28.66	3.76	-52.0	-65.0	3.9	1.49e+00	0	42	104	0	74	17103
2026-01-25 01:45:16.42	28.64	3.83	-51.9	-64.0	4.1	1.47e+00	0	42	104	0	74	15291
2026-01-25 01:45:17.43	28.61	3.90	-51.9	-63.3	4.2	1.39e+00	0	42	0	0	74	14162
2026-01-25 01:45:18.44	28.58	3.97	-51.8	-62.2	4.6	1.03e+00	0	42	0	1048576	74	12474
2026-01-25 01:45:19.45	28.56	4.03	-51.7	-61.0	5.3	7.82e-01	0	42	0	3145728	74	10867
2026-01-25 01:45:20.46	28.53	4.10	-51.5	-59.6	6.3	4.95e-01	0	42	0	4194304	74	9231
2026-01-25 01:45:21.47	28.50	4.17	-51.2	-58.1	7.6	1.39e-01	0	42	0	6291456	74	7755
2026-01-25 01:45:22.48	28.48	4.24	-50.7	-56.3	9.4	3.43e-02	0	42	0	8388608	73	6691
2026-01-25 01:45:23.49	28.45	4.31	-50.1	-54.7	11.1	8.47e-03	0	42	0	10485760	72	5915
2026-01-25 01:45:24.49	28.42	4.38	-49.9	-54.1	11.8	4.92e-04	0	42	0	12582912	71	5822
2026-01-25 01:45:25.50	28.39	4.45	-49.2	-52.5	13.5	6.17e-05	0	42	0	13631488	70	5129
2026-01-25 01:45:26.51	28.37	4.51	-48.7	-51.7	14.4	1.50e-06	0	42	0	15728640	69	4934
2026-01-25 01:45:27.52	28.34	4.58	-48.1	-50.6	15.4	0.00e+00	0	42	0	17825792	68	4631
2026-01-25 01:45:28.53	28.31	4.65	-47.7	-50.1	15.9	0.00e+00	0	42	0	19922944	67	4622
2026-01-25 01:45:29.54	28.28	4.72	-47.6	-49.9	16.1	0.00e+00	0	43	0	22020096	67	4527
2026-01-25 01:45:30.55	28.26	4.79	-47.2	-49.3	16.7	0.00e+00	0	43	0	23068672	66	4482
2026-01-25 01:45:31.55	28.23	4.86	-47.1	-49.2	16.8	0.00e+00	0	42	0	25165824	66	4406
2026-01-25 01:45:32.56	28.20	4.93	-46.9	-49.0	17.0	0.00e+00	0	42	0	27262976	65	4566
2026-01-25 01:45:33.57	28.17	5.00	-46.8	-48.8	17.2	0.00e+00	0	42	0	29360128	65	4454
2026-01-25 01:45:34.58	28.14	5.07	-46.7	-48.6	17.4	0.00e+00	0	42	0	31457280	65	4383
2026-01-25 01:45:35.59	28.11	5.15	-46.2	-47.9	18.2	0.00e+00	0	43	0	32505856	64	4268
2026-01-25 01:45:36.60	28.08	5.22	-47.9	-50.3	16.0	0.00e+00	0	43	0	34603008	66	5022
2026-01-25 01:45:37.60	28.05	5.29	-47.6	-49.8	16.1	8.79e-03	0	43	0	36700160	67	4489
2026-01-25 01:45:38.61	28.03	5.36	-46.4	-48.2	17.9	0.00e+00	0	43	0	38797312	64	4423
2026-01-25 01:45:39.62	28.00	5.43	-47.6	-49.9	15.9	1.03e-03	0	43	0	40894464	67	4528
2026-01-25 01:45:40.63	27.97	5.50	-46.0	-47.7	18.4	0.00e+00	0	43	0	42991616	63	4414
2026-01-25 01:45:41.64	27.94	5.57	-46.2	-47.9	18.3	0.00e+00	0	43	0	44040192	63	4509
2026-01-25 01:45:42.65	27.91	5.65	-46.2	-47.9	18.3	0.00e+00	0	43	0	46137344	63	4517
2026-01-25 01:45:43.65	27.88	5.72	-46.1	-47.7	18.5	0.00e+00	0	43	0	48234496	63	4432
2026-01-25 01:45:44.66	27.85	5.79	-46.0	-47.7	18.6	0.00e+00	0	43	0	50331648	63	4405
2026-01-25 01:45:45.67	27.81	5.86	-46.2	-47.9	18.3	0.00e+00	0	43	0	51380224	63	4531
2026-01-25 01:45:46.68	27.78	5.94	-46.1	-47.7	18.5	0.00e+00	0	43	0	53477376	63	4432
2026-01-25 01:45:47.69	27.75	6.01	-46.0	-47.6	18.6	0.00e+00	0	42	0	55574528	63	4385
2026-01-25 01:45:48.69	27.72	6.08	-45.8	-47.4	18.8	0.00e+00	0	43	0	57671680	63	4274
2026-01-25 01:45:49.70	27.69	6.16	-46.3	-48.0	18.3	0.00e+00	0	43	0	59768832	63	4584
2026-01-25 01:45:50.71	27.66	6.23	-46.1	-47.7	18.6	0.00e+00	0	43	0	60817408	63	4418
2026-01-25 01:45:51.72	27.63	6.30	-46.0	-47.7	18.7	0.00e+00	0	43	0	62914560	63	4402
2026-01-25 01:45:52.73	27.60	6.38	-46.0	-47.6	18.7	0.00e+00	0	43	0	65011712	63	4371
2026-01-25 01:45:53.73	27.56	6.45	-45.6	-47.2	19.2	0.00e+00	0	43	0	67108864	63	4154
2026-01-25 01:45:54.74	27.53	6.52	-46.1	-47.8	18.5	0.00e+00	0	43	0	69206016	63	4461
2026-01-25 01:45:55.75	27.50	6.60	-45.8	-47.4	18.9	0.00e+00	0	43	0	71303168	63	4260
2026-01-25 01:45:56.76	27.47	6.67	-45.8	-47.3	19.0	0.00e+00	0	43	0	72351744	63	4229
2026-01-25 01:45:57.77	27.43	6.75	-45.9	-47.5	18.9	0.00e+00	0	43	0	74448896	63	4313
2026-01-25 01:45:58.77	27.40	6.82	-46.0	-47.6	18.7	0.00e+00	0	43	0	76546048	63	4387
2026-01-25 01:45:59.78	27.37	6.90	-46.2	-47.9	18.5	0.00e+00	0	43	0	78643200	63	4514
2026-01-25 01:46:00.79	27.34	6.98	-46.1	-47.8	18.6	0.00e+00	0	43	0	79691776	63	4456
2026-01-25 01:46:01.80	27.30	7.05	-46.3	-47.9	18.5	0.00e+00	0	43	0	81788928	63	4531
2026-01-25 01:46:02.80	27.27	7.13	-45.8	-47.4	19.0	0.00e+00	0	43	0	83886080	63	4263
2026-01-25 01:46:03.81	27.23	7.20	-45.9	-47.5	19.0	0.00e+00	0	43	0	85983232	63	4298
2026-01-25 01:46:04.82	27.20	7.28	-45.9	-47.4	19.0	0.00e+00	0	43	0	88080384	63	4278
2026-01-25 01:46:05.83	27.17	7.36	-45.8	-47.3	19.1	0.00e+00	0	43	0	90177536	63	4237
2026-01-25 01:46:06.84	27.13	7.43	-45.7	-47.3	19.2	0.00e+00	0	43	0	91226112	63	4199
2026-01-25 01:46:07.85	27.10	7.51	-45.7	-47.2	19.2	0.00e+00	0	43	0	93323264	63	4166
2026-01-25 01:46:08.86	27.06	7.59	-45.5	-47.0	19.4	0.00e+00	0	43	0	95420416	63	4086
2026-01-25 01:46:09.87	27.03	7.67	-45.7	-47.2	19.3	0.00e+00	0	43	0	97517568	63	4179
2026-01-25 01:46:10.88	26.99	7.74	-45.7	-47.2	19.2	0.00e+00	0	43	0	99614720	63	4173
2026-01-25 01:46:11.89	26.96	7.82	-45.6	-47.1	19.3	0.00e+00	0	43	0	100663296	63	4145
2026-01-25 01:46:12.90	26.92	7.90	-45.7	-47.2	19.3	0.00e+00	0	43	0	102760448	63	4165
2026-01-25 01:46:13.91	26.88	7.98	-45.8	-47.3	19.2	0.00e+00	0	43	0	104857600	63	4215
2026-01-25 01:46:14.92	26.85	8.06	-45.8	-47.3	19.2	0.00e+00	0	43	0	106954752	63	4225
2026-01-25 01:46:15.93	26.81	8.14	-45.9	-47.4	19.2	0.00e+00	0	43	0	109051904	63	4262
2026-01-25 01:46:16.93	26.77	8.22	-45.9	-47.4	19.1	0.00e+00	0	43	0	110100480	63	4266
2026-01-25 01:46:17.94	26.74	8.30	-45.9	-47.4	19.1	0.00e+00	0	43	0	112197632	63	4276
2026-01-25 01:46:18.95	26.70	8.38	-45.9	-47.4	19.1	0.00e+00	0	43	0	114294784	63	4277
2026-01-25 01:46:19.96	26.66	8.46	-45.8	-47.3	19.2	0.00e+00	0	43	0	116391936	63	4212
2026-01-25 01:46:20.97	26.63	8.54	-45.5	-46.9	19.6	0.00e+00	0	43	0	118489088	63	4033
2026-01-25 01:46:21.97	26.59	8.62	-45.6	-47.1	19.5	0.00e+00	0	43	0	119537664	62	4347
2026-01-25 01:46:22.98	26.55	8.70	-45.5	-47.0	19.6	0.00e+00	0	43	0	121634816	62	4310
2026-01-25 01:46:23.99	26.51	8.78	-45.5	-47.0	19.5	0.00e+00	0	43	0	123731968	62	4310
2026-01-25 01:46:25.00	26.47	8.86	-45.3	-46.7	19.8	0.00e+00	0	43	0	125829120	62	4189
2026-01-25 01:46:26.01	26.44	8.94	-45.4	-46.8	19.7	0.00e+00	0	43	0	127926272	62	4227
2026-01-25 01:46:27.01	26.40	9.02	-45.3	-46.7	19.8	0.00e+00	0	43	0	128974848	62	4173
2026-01-25 01:46:28.02	26.36	9.10	-45.3	-46.7	19.8	0.00e+00	0	43	0	131072000	62	4193
2026-01-25 01:46:29.03	26.32	9.19	-45.3	-46.7	19.9	0.00e+00	0	43	0	133169152	62	4163
2026-01-25 01:46:30.04	26.28	9.27	-45.4	-46.8	19.7	0.00e+00	0	43	0	135266304	62	4233
2026-01-25 01:46:31.05	26.24	9.35	-45.3	-46.7	19.8	0.00e+00	0	43	0	137363456	62	4183
2026-01-25 01:46:32.05	26.20	9.43	-45.4	-46.8	19.8	0.00e+00	0	43	0	138412032	62	4216
2026-01-25 01:46:33.06	26.16	9.52	-45.3	-46.7	19.9	0.00e+00	0	43	0	140509184	62	4186
2026-01-25 01:46:34.07	26.12	9.60	-45.4	-46.7	19.9	0.00e+00	0	43	0	142606336	62	4191
2026-01-25 01:46:35.07	26.08	9.68	-45.3	-46.7	19.9	0.00e+00	0	43	0	144703488	62	4162
2026-01-25 01:46:36.08	26.04	9.77	-45.3	-46.7	19.9	0.00e+00	0	43	0	146800640	62	4160
2026-01-25 01:46:37.09	25.99	9.85	-45.2	-46.6	20.1	0.00e+00	0	43	0	147849216	62	4099
2026-01-25 01:46:38.10	25.95	9.94	-45.2	-46.5	20.1	0.00e+00	0	43	0	149946368	62	4094
2026-01-25 01:46:39.11	25.91	10.02	-45.2	-46.5	20.1	0.00e+00	0	43	0	152043520	62	4090
2026-01-25 01:46:40.11	25.87	10.11	-45.2	-46.6	20.1	0.00e+00	0	43	0	154140672	62	4118
2026-01-25 01:46:41.12	25.83	10.19	-45.2	-46.5	20.1	0.00e+00	0	43	0	156237824	62	4091
2026-01-25 01:46:42.13	25.78	10.28	-45.2	-46.5	20.1	0.00e+00	0	43	0	158334976	62	4082
2026-01-25 01:46:43.14	25.74	10.36	-45.1	-46.4	20.2	0.00e+00	0	43	0	159383552	62	4041
2026-01-25 01:46:44.15	25.70	10.45	-45.1	-46.5	20.2	0.00e+00	0	43	0	161480704	62	4065
2026-01-25 01:46:45.16	25.65	10.54	-45.2	-46.6	20.1	0.00e+00	0	43	0	163577856	62	4115
2026-01-25 01:46:46.17	25.61	10.62	-45.1	-46.5	20.2	0.00e+00	0	43	0	165675008	62	4065
2026-01-25 01:46:47.18	25.56	10.71	-45.2	-46.5	20.2	0.00e+00	0	43	0	166723584	62	4074
2026-01-25 01:46:48.18	25.52	10.80	-45.2	-46.5	20.2	0.00e+00	0	43	0	168820736	62	4080
2026-01-25 01:46:49.19	25.48	10.88	-45.1	-46.4	20.2	0.00e+00	0	43	0	170917888	62	4044
2026-01-25 01:46:50.20	25.43	10.97	-45.2	-46.5	20.2	0.00e+00	0	43	0	173015040	62	4097
2026-01-25 01:46:51.21	25.39	11.06	-45.3	-46.7	20.0	0.00e+00	0	43	0	175112192	62	4156
2026-01-25 01:46:52.22	25.34	11.15	-45.3	-46.6	20.1	0.00e+00	0	43	0	176160768	62	4127
2026-01-25 01:46:53.23	25.29	11.24	-45.1	-46.4	20.3	0.00e+00	0	43	0	178257920	62	4043
2026-01-25 01:46:54.24	25.25	11.33	-45.0	-46.3	20.4	0.00e+00	0	43	0	180355072	62	3965
2026-01-25 01:46:55.25	25.20	11.42	-45.1	-46.4	20.3	0.00e+00	0	43	0	182452224	61	4265
2026-01-25 01:46:56.25	25.15	11.51	-45.0	-46.4	20.4	0.00e+00	0	43	0	184549376	61	4243
2026-01-25 01:46:57.26	25.11	11.60	-45.1	-46.4	20.3	0.00e+00	0	43	0	186646528	61	4281
2026-01-25 01:46:58.27	25.06	11.69	-45.1	-46.5	20.3	0.00e+00	0	43	0	187695104	61	4293
2026-01-25 01:46:59.28	25.01	11.78	-45.2	-46.5	20.2	0.00e+00	0	43	0	189792256	61	4334
2026-01-25 01:47:00.29	24.96	11.87	-45.1	-46.4	20.4	0.00e+00	0	43	0	191889408	61	4279
2026-01-25 01:47:01.29	24.92	11.96	-45.0	-46.3	20.4	0.00e+00	0	43	0	193986560	61	4221
2026-01-25 01:47:02.30	24.87	12.05	-45.0	-46.2	20.6	0.00e+00	0	43	0	195035136	61	4187
2026-01-25 01:47:03.31	24.82	12.14	-45.1	-46.4	20.4	0.00e+00	0	43	0	197132288	61	4254
2026-01-25 01:47:04.32	24.77	12.24	-45.0	-46.3	20.5	0.00e+00	0	43	0	199229440	61	4236
2026-01-25 01:47:05.33	24.72	12.33	-45.0	-46.3	20.5	0.00e+00	0	43	0	201326592	61	4231
2026-01-25 01:47:06.34	24.67	12.42	-45.0	-46.3	20.5	0.00e+00	0	43	0	203423744	61	4212
2026-01-25 01:47:07.35	24.62	12.52	-45.0	-46.3	20.5	0.00e+00	0	43	0	205520896	61	4209
2026-01-25 01:47:08.36	24.57	12.61	-45.1	-46.3	20.4	0.00e+00	0	43	0	206569472	61	4238
2026-01-25 01:47:09.37	24.52	12.70	-45.1	-46.3	20.5	0.00e+00	0	43	0	208666624	61	4237
2026-01-25 01:47:10.37	24.46	12.80	-45.0	-46.3	20.5	0.00e+00	0	43	0	210763776	61	4205
2026-01-25 01:47:11.38	24.41	12.89	-45.0	-46.3	20.5	0.00e+00	0	43	0	212860928	61	4203
2026-01-25 01:47:12.39	24.36	12.99	-44.9	-46.2	20.6	0.00e+00	0	43	0	214958080	61	4173
2026-01-25 01:47:13.40	24.31	13.08	-44.9	-46.2	20.6	0.00e+00	0	43	0	216006656	61	4154
2026-01-25 01:47:14.41	24.25	13.18	-44.9	-46.2	20.6	0.00e+00	0	43	0	218103808	61	4169
2026-01-25 01:47:15.41	24.20	13.27	-44.9	-46.1	20.7	0.00e+00	0	43	0	220200960	61	4139
2026-01-25 01:47:16.42	24.15	13.37	-45.0	-46.3	20.5	0.00e+00	0	43	0	222298112	61	4215
2026-01-25 01:47:17.43	24.09	13.47	-44.8	-46.1	20.7	0.00e+00	0	43	0	224395264	61	4117
2026-01-25 01:47:18.44	24.04	13.56	-44.9	-46.1	20.7	0.00e+00	0	43	0	225443840	61	4137
2026-01-25 01:47:19.45	23.98	13.66	-44.9	-46.2	20.6	0.00e+00	0	43	0	227540992	61	4153
2026-01-25 01:47:20.45	23.93	13.76	-44.9	-46.1	20.7	0.00e+00	0	44	0	229638144	61	4139
2026-01-25 01:47:21.46	23.87	13.86	-44.9	-46.1	20.7	0.00e+00	0	43	0	231735296	61	4140
2026-01-25 01:47:22.47	23.82	13.96	-44.9	-46.1	20.8	0.00e+00	0	43	0	233832448	61	4121
2026-01-25 01:47:23.48	23.76	14.05	-44.9	-46.2	20.7	0.00e+00	0	43	0	234881024	61	4157
2026-01-25 01:47:24.49	23.70	14.15	-44.8	-46.1	20.7	0.00e+00	0	43	0	236978176	61	4109
2026-01-25 01:47:25.50	23.65	14.25	-44.8	-46.0	20.9	0.00e+00	0	43	0	239075328	61	4062
2026-01-25 01:47:26.51	23.59	14.35	-44.9	-46.1	20.8	0.00e+00	0	44	0	241172480	61	4115
2026-01-25 01:47:27.52	23.53	14.45	-44.7	-46.0	20.9	0.00e+00	0	43	0	243269632	61	4054
2026-01-25 01:47:28.52	23.47	14.55	-44.6	-45.9	21.0	0.00e+00	0	43	0	244318208	61	4010
2026-01-25 01:47:29.53	23.41	14.66	-44.8	-46.0	20.8	0.00e+00	0	43	0	246415360	61	4094
2026-01-25 01:47:30.54	23.35	14.76	-44.7	-45.9	20.9	0.00e+00	0	43	0	248512512	61	4046
2026-01-25 01:47:31.55	23.29	14.86	-44.8	-46.0	20.9	0.00e+00	0	43	0	250609664	61	4082
2026-01-25 01:47:32.56	23.23	14.96	-44.7	-46.0	20.9	0.00e+00	0	43	0	252706816	61	4053
2026-01-25 01:47:33.57	23.17	15.06	-44.8	-46.0	20.9	0.00e+00	0	43	0	253755392	61	4064
2026-01-25 01:47:34.57	23.11	15.17	-44.8	-46.0	20.8	0.00e+00	0	43	0	255852544	61	4093
2026-01-25 01:47:35.58	23.05	15.27	-44.7	-45.9	21.0	0.00e+00	0	43	0	257949696	61	4034
2026-01-25 01:47:36.59	22.99	15.37	-44.7	-45.9	21.0	0.00e+00	0	43	0	260046848	61	4025
2026-01-25 01:47:37.60	22.93	15.48	-44.7	-46.0	21.0	0.00e+00	0	43	0	262144000	61	4060
2026-01-25 01:47:38.61	22.86	15.58	-44.7	-45.9	21.0	0.00e+00	0	43	0	263192576	61	4028
2026-01-25 01:47:39.61	22.80	15.69	-44.7	-45.9	20.9	0.00e+00	0	43	0	265289728	61	4045
2026-01-25 01:47:40.62	22.74	15.79	-44.7	-46.0	20.9	0.00e+00	0	43	0	267386880	61	4061
2026-01-25 01:47:41.63	22.67	15.90	-44.7	-46.0	20.9	0.00e+00	0	43	0	269484032	61	4056
2026-01-25 01:47:42.64	22.61	16.01	-44.7	-45.9	21.0	0.00e+00	0	44	0	271581184	61	4042
2026-01-25 01:47:43.64	22.54	16.11	-44.9	-46.1	20.9	0.00e+00	0	43	0	272629760	61	4128
2026-01-25 01:47:44.65	22.48	16.22	-44.8	-46.0	21.0	0.00e+00	0	43	0	274726912	61	4062
2026-01-25 01:47:45.66	22.41	16.33	-44.8	-46.1	20.9	0.00e+00	0	43	0	276824064	61	4104
2026-01-25 01:47:46.67	22.34	16.44	-44.8	-46.1	20.9	0.00e+00	0	43	0	278921216	61	4104
2026-01-25 01:47:47.67	22.28	16.54	-44.8	-46.0	21.0	0.00e+00	0	43	0	281018368	61	4059
2026-01-25 01:47:48.68	22.21	16.65	-44.8	-46.0	21.0	0.00e+00	0	43	0	282066944	61	4067
2026-01-25 01:47:49.69	22.14	16.76	-44.7	-45.9	21.0	0.00e+00	0	43	0	284164096	61	4031
2026-01-25 01:47:50.70	22.07	16.87	-44.8	-46.0	21.0	0.00e+00	0	43	0	286261248	61	4065
2026-01-25 01:47:51.71	22.00	16.98	-44.7	-45.9	21.0	0.00e+00	0	43	0	288358400	61	4048
2026-01-25 01:47:52.71	21.93	17.09	-44.8	-46.0	21.0	0.00e+00	0	43	0	290455552	61	4080
2026-01-25 01:47:53.72	21.86	17.21	-44.7	-45.9	21.1	0.00e+00	0	44	0	291504128	61	4018
2026-01-25 01:47:54.73	21.79	17.32	-44.7	-45.9	21.0	0.00e+00	0	43	0	293601280	61	4045
2026-01-25 01:47:55.74	21.72	17.43	-44.6	-45.8	21.1	0.00e+00	0	43	0	295698432	61	4000
2026-01-25 01:47:56.75	21.65	17.54	-44.6	-45.8	21.1	0.00e+00	0	43	0	297795584	61	3998
2026-01-25 01:47:57.76	21.57	17.66	-44.7	-45.9	21.1	0.00e+00	0	44	0	299892736	61	4036
2026-01-25 01:47:58.77	21.50	17.77	-44.8	-46.0	21.0	0.00e+00	0	43	0	300941312	61	4087
2026-01-25 01:47:59.77	21.43	17.88	-44.6	-45.8	21.1	0.00e+00	0	43	0	303038464	61	3999
2026-01-25 01:48:00.78	21.35	18.00	-44.6	-45.8	21.2	0.00e+00	0	43	0	305135616	61	3974
2026-01-25 01:48:01.79	21.28	18.11	-44.5	-45.7	21.3	0.00e+00	0	43	0	307232768	61	3945
2026-01-25 01:48:02.79	21.20	18.23	-44.5	-45.7	21.2	0.00e+00	0	43	0	309329920	61	3940
2026-01-25 01:48:03.80	21.13	18.34	-44.6	-45.7	21.2	0.00e+00	0	43	0	310378496	61	3954
2026-01-25 01:48:04.81	21.05	18.46	-44.6	-45.7	21.2	0.00e+00	0	43	0	312475648	61	3955
2026-01-25 01:48:05.82	20.97	18.58	-44.6	-45.8	21.3	0.00e+00	0	43	0	314572800	61	3960
2026-01-25 01:48:06.83	20.89	18.70	-44.5	-45.7	21.3	0.00e+00	0	43	0	316669952	61	3946
2026-01-25 01:48:07.83	20.81	18.81	-44.6	-45.8	21.3	0.00e+00	0	43	0	318767104	61	3959
2026-01-25 01:48:08.84	20.74	18.93	-44.7	-45.8	21.2	0.00e+00	0	43	0	320864256	61	4003
2026-01-25 01:48:09.85	20.65	19.05	-44.7	-45.8	21.3	0.00e+00	0	43	0	321912832	61	4001
2026-01-25 01:48:10.86	20.57	19.17	-44.6	-45.8	21.2	0.00e+00	0	43	0	324009984	61	3987
2026-01-25 01:48:11.87	20.49	19.29	-44.6	-45.8	21.3	0.00e+00	0	43	0	326107136	61	3972
2026-01-25 01:48:12.88	20.41	19.41	-44.6	-45.8	21.3	0.00e+00	0	43	0	328204288	61	3965
2026-01-25 01:48:13.89	20.33	19.53	-44.7	-45.8	21.2	0.00e+00	0	43	0	329252864	61	3999
2026-01-25 01:48:14.90	20.24	19.65	-44.6	-45.8	21.3	0.00e+00	0	43	0	331350016	61	3991
2026-01-25 01:48:15.90	20.16	19.78	-44.7	-45.9	21.2	0.00e+00	0	44	0	333447168	61	4006
2026-01-25 01:48:16.91	20.08	19.90	-44.7	-45.9	21.2	0.00e+00	0	43	0	335544320	61	4016
2026-01-25 01:48:17.92	19.99	20.02	-44.7	-45.9	21.2	0.00e+00	0	43	0	337641472	61	4009
2026-01-25 01:48:18.93	19.90	20.15	-44.7	-45.8	21.2	0.00e+00	0	43	0	339738624	61	3999
2026-01-25 01:48:19.94	19.82	20.27	-44.7	-45.9	21.2	0.00e+00	0	44	0	340787200	61	4024
2026-01-25 01:48:20.95	19.73	20.40	-44.7	-45.9	21.2	0.00e+00	0	43	0	342884352	61	4030
2026-01-25 01:48:21.96	19.64	20.52	-44.8	-46.0	21.1	0.00e+00	0	44	0	344981504	61	4067
2026-01-25 01:48:22.97	19.55	20.65	-44.9	-46.1	21.0	0.00e+00	0	43	0	347078656	61	4110
2026-01-25 01:48:23.98	19.46	20.77	-44.9	-46.1	21.0	0.00e+00	0	43	0	349175808	61	4115
2026-01-25 01:48:24.99	19.37	20.90	-44.9	-46.1	21.0	0.00e+00	0	44	0	350224384	61	4107
2026-01-25 01:48:26.00	19.28	21.03	-44.8	-46.0	21.0	0.00e+00	0	43	0	352321536	61	4096
2026-01-25 01:48:27.01	19.18	21.16	-44.9	-46.2	20.9	0.00e+00	0	44	0	354418688	61	4146
2026-01-25 01:48:28.02	19.09	21.29	-44.9	-46.2	21.0	0.00e+00	0	43	0	356515840	61	4146
2026-01-25 01:48:29.03	19.00	21.42	-45.0	-46.3	20.8	0.00e+00	0	43	0	358612992	61	4202
2026-01-25 01:48:30.03	18.90	21.55	-45.0	-46.3	20.8	0.00e+00	0	43	0	359661568	61	4194
2026-01-25 01:48:31.04	18.81	21.68	-45.0	-46.2	20.9	0.00e+00	0	43	0	361758720	61	4164
2026-01-25 01:48:32.05	18.71	21.81	-45.0	-46.2	20.9	0.00e+00	0	43	0	363855872	61	4183
2026-01-25 01:48:33.06	18.61	21.94	-45.1	-46.3	20.8	0.00e+00	0	43	0	365953024	61	4236
2026-01-25 01:48:34.07	18.51	22.07	-45.1	-46.3	20.8	0.00e+00	0	44	0	368050176	61	4213
2026-01-25 01:48:35.08	18.42	22.21	-45.2	-46.4	20.8	0.00e+00	0	43	0	369098752	61	4282
2026-01-25 01:48:36.09	18.32	22.34	-45.2	-46.5	20.7	0.00e+00	0	43	0	371195904	61	4299
2026-01-25 01:48:37.10	18.21	22.47	-45.3	-46.5	20.7	0.00e+00	0	43	0	373293056	61	4336
2026-01-25 01:48:38.10	18.11	22.61	-45.3	-46.5	20.6	0.00e+00	0	43	0	375390208	61	4337
2026-01-25 01:48:39.11	18.01	22.74	-45.3	-46.6	20.6	0.00e+00	0	44	0	377487360	61	4370
2026-01-25 01:48:40.12	17.91	22.88	-45.3	-46.6	20.6	0.00e+00	0	44	0	378535936	61	4349
2026-01-25 01:48:41.13	17.80	23.02	-45.3	-46.6	20.6	0.00e+00	0	44	0	380633088	61	4369
2026-01-25 01:48:42.14	17.70	23.15	-45.4	-46.7	20.5	0.00e+00	0	44	0	382730240	61	4438
2026-01-25 01:48:43.14	17.59	23.29	-45.6	-46.9	20.3	0.00e+00	0	44	0	384827392	61	4503
2026-01-25 01:48:44.15	17.48	23.43	-45.6	-46.9	20.3	0.00e+00	0	44	0	386924544	61	4504
2026-01-25 01:48:45.16	17.37	23.57	-45.6	-46.9	20.3	0.00e+00	0	44	0	387973120	61	4524
2026-01-25 01:48:46.17	17.26	23.71	-45.8	-47.2	20.1	0.00e+00	0	43	0	390070272	62	4394
2026-01-25 01:48:47.18	17.15	23.85	-45.9	-47.3	20.0	0.00e+00	0	44	0	392167424	62	4445
2026-01-25 01:48:48.19	17.04	23.99	-46.0	-47.4	19.8	0.00e+00	0	44	0	394264576	62	4527
2026-01-25 01:48:49.20	16.93	24.13	-46.0	-47.4	19.8	0.00e+00	0	44	0	396361728	62	4524
2026-01-25 01:48:50.20	16.82	24.27	-46.1	-47.5	19.8	0.00e+00	0	43	0	397410304	62	4581
2026-01-25 01:48:51.21	16.70	24.42	-46.3	-47.8	19.6	0.00e+00	0	43	0	399507456	63	4457
2026-01-25 01:48:52.22	16.59	24.56	-46.3	-47.8	19.5	0.00e+00	0	43	0	401604608	63	4458
2026-01-25 01:48:53.23	16.47	24.70	-46.3	-47.8	19.5	0.00e+00	0	44	0	403701760	63	4465
2026-01-25 01:48:54.24	16.35	24.85	-46.3	-47.8	19.6	0.00e+00	0	44	0	405798912	63	4451
2026-01-25 01:48:55.25	16.23	24.99	-46.3	-47.7	19.6	0.00e+00	0	44	0	407896064	63	4437
2026-01-25 01:48:56.26	16.11	25.14	-46.3	-47.7	19.6	0.00e+00	0	44	0	408944640	63	4434
2026-01-25 01:48:57.27	15.99	25.29	-46.3	-47.8	19.5	0.00e+00	0	43	0	411041792	63	4467
2026-01-25 01:48:58.27	15.87	25.43	-46.4	-47.8	19.5	0.00e+00	0	44	0	413138944	63	4491
2026-01-25 01:48:59.28	15.74	25.58	-46.4	-47.9	19.4	0.00e+00	0	43	0	415236096	63	4539
2026-01-25 01:49:00.29	15.62	25.73	-46.6	-48.1	19.3	0.00e+00	0	44	0	416284672	63	4599
2026-01-25 01:49:01.30	15.49	25.88	-46.6	-48.1	19.3	0.00e+00	0	44	0	418381824	63	4616
2026-01-25 01:49:02.30	15.37	26.03	-46.5	-48.0	19.2	0.00e+00	0	44	0	420478976	64	4327
2026-01-25 01:49:03.31	15.24	26.18	-46.5	-48.0	19.2	0.00e+00	0	44	0	422576128	64	4327
2026-01-25 01:49:04.32	15.11	26.33	-46.6	-48.1	19.1	0.00e+00	0	44	0	424673280	64	4389
2026-01-25 01:49:05.33	14.98	26.49	-46.7	-48.2	19.1	0.00e+00	0	44	0	426770432	64	4404
2026-01-25 01:49:06.34	14.84	26.64	-46.7	-48.2	19.0	0.00e+00	0	44	0	427819008	64	4423
2026-01-25 01:49:07.35	14.71	26.79	-46.8	-48.4	18.9	0.00e+00	0	43	0	429916160	64	4512
2026-01-25 01:49:08.36	14.57	26.95	-46.9	-48.5	18.8	0.00e+00	0	43	0	432013312	64	4548
2026-01-25 01:49:09.37	14.44	27.10	-46.9	-48.6	18.7	0.00e+00	0	43	0	434110464	64	4607
2026-01-25 01:49:10.37	14.30	27.26	-47.1	-48.8	18.5	0.00e+00	0	44	0	436207616	65	4445
2026-01-25 01:49:11.38	14.16	27.41	-47.2	-48.8	18.4	0.00e+00	0	43	0	437256192	65	4483
2026-01-25 01:49:12.39	14.02	27.57	-47.2	-48.9	18.3	0.00e+00	0	44	0	439353344	65	4544
2026-01-25 01:49:13.40	13.88	27.73	-47.1	-48.8	18.5	0.00e+00	0	44	0	441450496	65	4459
2026-01-25 01:49:14.41	13.73	27.89	-47.3	-49.0	18.4	0.00e+00	0	44	0	443547648	65	4547
2026-01-25 01:49:15.42	13.59	28.05	-47.4	-49.2	18.1	0.00e+00	0	43	0	444596224	65	4673
2026-01-25 01:49:16.43	13.44	28.21	-47.3	-49.0	18.3	0.00e+00	0	44	0	446693376	65	4592
2026-01-25 01:49:17.43	13.30	28.37	-47.3	-49.0	18.3	0.00e+00	0	44	0	448790528	65	4583
2026-01-25 01:49:18.44	13.15	28.53	-47.4	-49.1	18.2	0.00e+00	0	44	0	450887680	65	4625
2026-01-25 01:49:19.45	12.99	28.69	-47.4	-49.1	18.2	0.00e+00	0	44	0	452984832	65	4625
2026-01-25 01:49:20.46	12.84	28.86	-47.4	-49.1	18.2	0.00e+00	0	43	0	455081984	65	4646
2026-01-25 01:49:21.47	12.69	29.02	-47.4	-49.1	18.3	0.00e+00	0	43	0	456130560	65	4637
2026-01-25 01:49:22.47	12.53	29.18	-47.2	-48.8	18.5	0.00e+00	0	44	0	458227712	65	4489
2026-01-25 01:49:23.48	12.37	29.35	-47.0	-48.6	18.7	0.00e+00	0	43	0	460324864	65	4373
2026-01-25 01:49:24.49	12.21	29.51	-46.9	-48.5	18.9	0.00e+00	0	44	0	462422016	65	4295
2026-01-25 01:49:25.50	12.05	29.68	-46.8	-48.4	19.0	0.00e+00	0	44	0	464519168	65	4250
2026-01-25 01:49:26.51	11.89	29.85	-46.7	-48.2	19.1	0.00e+00	0	43	0	465567744	65	4171
2026-01-25 01:49:27.51	11.73	30.02	-46.7	-48.2	19.1	0.00e+00	0	44	0	467664896	65	4180
2026-01-25 01:49:28.52	11.56	30.18	-46.7	-48.3	19.1	0.00e+00	0	43	0	469762048	65	4202
2026-01-25 01:49:29.53	11.39	30.35	-46.6	-48.2	19.1	0.00e+00	0	44	0	471859200	65	4158
2026-01-25 01:49:30.54	11.22	30.52	-46.6	-48.1	19.2	0.00e+00	0	44	0	473956352	65	4118
2026-01-25 01:49:31.55	11.05	30.70	-46.6	-48.2	19.1	0.00e+00	0	43	0	475004928	65	4155
2026-01-25 01:49:32.56	10.88	30.87	-46.8	-48.3	19.0	0.00e+00	0	44	0	477102080	65	4227
2026-01-25 01:49:33.57	10.70	31.04	-46.8	-48.4	18.9	0.00e+00	0	44	0	479199232	65	4271
2026-01-25 01:49:34.57	10.53	31.21	-46.8	-48.4	18.9	0.00e+00	0	44	0	481296384	65	4281
2026-01-25 01:49:35.58	10.35	31.38	-47.0	-48.6	18.8	0.00e+00	0	44	0	483393536	65	4352
2026-01-25 01:49:36.59	10.17	31.56	-47.0	-48.6	18.7	0.00e+00	0	44	0	484442112	65	4377
2026-01-25 01:49:37.60	9.98	31.73	-47.0	-48.6	18.8	0.00e+00	0	44	0	486539264	65	4363
2026-01-25 01:49:38.61	9.80	31.91	-46.9	-48.6	18.8	0.00e+00	0	44	0	488636416	65	4341
2026-01-25 01:49:39.62	9.61	32.09	-46.9	-48.5	18.8	0.00e+00	0	44	0	490733568	65	4329
2026-01-25 01:49:40.63	9.42	32.26	-47.2	-48.8	18.6	0.00e+00	0	43	0	492830720	65	4470
2026-01-25 01:49:41.63	9.23	32.44	-47.3	-49.0	18.4	0.00e+00	0	44	0	493879296	65	4572
2026-01-25 01:49:42.64	9.04	32.62	-47.4	-49.1	18.3	0.00e+00	0	44	0	495976448	65	4628
2026-01-25 01:49:43.65	8.84	32.80	-47.3	-49.0	18.4	0.00e+00	0	44	0	498073600	65	4579
2026-01-25 01:49:44.66	8.64	32.98	-47.3	-49.0	18.4	0.00e+00	0	43	0	500170752	65	4582
2026-01-25 01:49:45.67	8.44	33.16	-47.2	-48.8	18.6	0.00e+00	0	44	0	502267904	65	4463
2026-01-25 01:49:46.68	8.24	33.34	-47.2	-48.8	18.6	0.00e+00	0	43	0	503316480	65	4491
2026-01-25 01:49:47.69	8.03	33.52	-47.4	-49.1	18.4	0.00e+00	0	44	0	505413632	65	4599
2026-01-25 01:49:48.69	7.83	33.71	-47.6	-49.4	18.1	0.00e+00	0	44	0	507510784	65	4771
2026-01-25 01:49:49.70	7.62	33.89	-47.8	-49.6	17.8	0.00e+00	0	43	0	509607936	66	4618
2026-01-25 01:49:50.71	7.41	34.07	-47.9	-49.8	17.6	0.00e+00	0	44	0	511705088	66	4750
2026-01-25 01:49:51.72	7.19	34.26	-47.9	-49.8	17.7	0.00e+00	0	44	0	512753664	66	4747
2026-01-25 01:49:52.73	6.98	34.44	-47.8	-49.6	17.8	0.00e+00	0	44	0	514850816	66	4646
2026-01-25 01:49:53.73	6.76	34.63	-47.6	-49.3	18.1	0.00e+00	0	44	0	516947968	66	4488
2026-01-25 01:49:54.74	6.54	34.81	-47.6	-49.3	18.0	0.00e+00	0	44	0	519045120	66	4485
2026-01-25 01:49:55.75	6.31	35.00	-47.8	-49.7	17.7	0.00e+00	0	44	0	521142272	66	4686
2026-01-25 01:49:56.75	6.09	35.19	-47.9	-49.8	17.6	0.00e+00	0	44	0	522190848	66	4757
2026-01-25 01:49:57.77	5.85	35.38	-47.8	-49.7	17.8	0.00e+00	0	44	0	524288000	66	4681
2026-01-25 01:49:58.77	5.62	35.57	-47.6	-49.4	18.1	0.00e+00	0	44	0	526385152	66	4503
2026-01-25 01:49:59.78	5.39	35.75	-47.6	-49.4	18.1	0.00e+00	0	44	0	528482304	66	4517
2026-01-25 01:50:00.79	5.15	35.94	-47.5	-49.2	18.3	0.00e+00	0	44	0	530579456	66	4410
2026-01-25 01:50:01.80	4.91	36.14	-47.4	-49.1	18.4	0.00e+00	0	44	0	531628032	66	4375
2026-01-25 01:50:02.80	4.67	36.33	-47.4	-49.1	18.4	0.00e+00	0	44	0	533725184	66	4354
2026-01-25 01:50:03.81	4.42	36.52	-47.3	-49.0	18.5	0.00e+00	0	44	0	535822336	66	4329
2026-01-25 01:50:04.82	4.17	36.71	-47.1	-48.7	18.7	0.00e+00	0	44	0	537919488	66	4191
2026-01-25 01:50:05.83	3.92	36.90	-46.9	-48.4	19.0	0.00e+00	0	44	0	540016640	65	4274
2026-01-25 01:50:06.84	3.66	37.10	-46.9	-48.4	19.0	0.00e+00	0	44	0	542113792	65	4278
2026-01-25 01:50:07.85	3.40	37.29	-46.9	-48.5	19.0	0.00e+00	0	44	0	543162368	65	4292
2026-01-25 01:50:08.85	3.14	37.48	-47.0	-48.6	18.9	0.00e+00	0	44	0	545259520	65	4367
2026-01-25 01:50:09.86	2.88	37.68	-47.2	-48.9	18.6	0.00e+00	0	44	0	547356672	65	4517
2026-01-25 01:50:10.87	2.61	37.87	-47.6	-49.3	18.1	0.00e+00	0	44	0	549453824	65	4750
2026-01-25 01:50:11.88	2.34	38.07	-47.4	-49.1	18.3	0.00e+00	0	44	0	550502400	65	4650
2026-01-25 01:50:12.89	2.06	38.26	-47.3	-48.9	18.5	0.00e+00	0	44	0	552599552	65	4543
2026-01-25 01:50:13.89	1.78	38.46	-47.3	-48.9	18.6	0.00e+00	0	44	0	554696704	65	4532
2026-01-25 01:50:14.90	1.50	38.65	-47.2	-48.8	18.7	0.00e+00	0	44	0	556793856	65	4456
2026-01-25 01:50:15.91	1.22	38.85	-47.2	-48.8	18.7	0.00e+00	0	44	0	558891008	65	4488
2026-01-25 01:50:16.91	0.93	39.05	-47.4	-49.1	18.5	0.00e+00	0	44	0	559939584	65	4602
2026-01-25 01:50:17.92	0.64	39.24	-47.4	-49.1	18.4	0.00e+00	0	44	0	562036736	65	4627
2026-01-25 01:50:18.93	0.34	39.44	-47.4	-49.1	18.5	0.00e+00	0	44	0	564133888	65	4608
2026-01-25 01:50:19.94	0.04	39.64	-47.3	-48.9	18.7	0.00e+00	0	44	0	566231040	65	4510
2026-01-25 01:50:20.95	359.74	39.84	-47.3	-48.9	18.7	0.00e+00	0	44	0	568328192	65	4529
2026-01-25 01:50:21.95	359.43	40.03	-47.1	-48.7	18.9	0.00e+00	0	44	0	570425344	65	4431
2026-01-25 01:50:22.96	359.12	40.23	-47.3	-48.9	18.7	0.00e+00	0	44	0	571473920	65	4507
2026-01-25 01:50:23.97	358.81	40.43	-47.3	-49.0	18.6	0.00e+00	0	44	0	573571072	65	4549
2026-01-25 01:50:24.98	358.49	40.63	-47.4	-49.1	18.5	0.00e+00	0	44	0	575668224	65	4622
2026-01-25 01:50:25.99	358.17	40.83	-47.4	-49.1	18.5	0.00e+00	0	44	0	577765376	65	4635
2026-01-25 01:50:27.00	357.84	41.03	-47.4	-49.1	18.6	0.00e+00	0	44	0	578813952	65	4605
2026-01-25 01:50:28.01	357.51	41.23	-47.4	-49.1	18.5	0.00e+00	0	44	0	580911104	65	4617
2026-01-25 01:50:29.01	357.18	41.42	-47.1	-48.7	18.9	0.00e+00	0	44	0	583008256	65	4402
2026-01-25 01:50:30.02	356.84	41.62	-47.0	-48.5	19.0	0.00e+00	0	44	0	585105408	65	4340
2026-01-25 01:50:31.03	356.49	41.82	-46.9	-48.4	19.3	0.00e+00	0	44	0	587202560	65	4264
2026-01-25 01:50:32.04	356.15	42.02	-46.9	-48.4	19.2	0.00e+00	0	44	0	589299712	65	4264
2026-01-25 01:50:33.05	355.79	42.22	-46.8	-48.3	19.3	0.00e+00	0	44	0	590348288	65	4224
2026-01-25 01:50:34.06	355.44	42.42	-47.1	-48.7	18.9	0.00e+00	0	44	0	592445440	65	4406
2026-01-25 01:50:35.07	355.08	42.62	-47.7	-49.4	18.3	0.00e+00	0	44	0	594542592	65	4795
2026-01-25 01:50:36.07	354.71	42.81	-47.9	-49.6	18.1	0.00e+00	0	44	0	596639744	66	4651
2026-01-25 01:50:37.08	354.34	43.01	-48.1	-49.9	17.8	0.00e+00	0	44	0	598736896	66	4802
2026-01-25 01:50:38.09	353.97	43.21	-48.0	-49.8	18.0	0.00e+00	0	44	0	599785472	66	4740
2026-01-25 01:50:39.10	353.59	43.40	-47.9	-49.7	18.1	0.00e+00	0	44	0	601882624	66	4654
2026-01-25 01:50:40.11	353.21	43.60	-47.9	-49.7	18.0	0.00e+00	0	44	0	603979776	66	4684
2026-01-25 01:50:41.12	352.82	43.80	-47.9	-49.6	18.1	0.00e+00	0	44	0	606076928	66	4642
2026-01-25 01:50:42.12	352.43	43.99	-47.7	-49.5	18.3	0.00e+00	0	44	0	607125504	66	4555
2026-01-25 01:50:43.13	352.03	44.18	-47.6	-49.3	18.5	0.00e+00	0	44	0	609222656	66	4467
2026-01-25 01:50:44.14	351.62	44.38	-47.7	-49.5	18.3	0.00e+00	0	44	0	611319808	66	4557
2026-01-25 01:50:45.15	351.22	44.57	-47.5	-49.2	18.5	0.00e+00	0	44	0	613416960	66	4418
2026-01-25 01:50:46.15	350.81	44.76	-47.7	-49.5	18.3	0.00e+00	0	44	0	615514112	66	4553
2026-01-25 01:50:47.16	350.39	44.96	-47.9	-49.7	18.1	0.00e+00	0	44	0	617611264	66	4654
2026-01-25 01:50:48.17	349.96	45.15	-48.0	-49.8	18.0	0.00e+00	0	44	0	618659840	66	4719
2026-01-25 01:50:49.18	349.54	45.34	-48.1	-49.9	17.9	0.00e+00	0	44	0	620756992	66	4797
2026-01-25 01:50:50.19	349.10	45.53	-48.3	-50.2	17.6	0.00e+00	0	44	0	622854144	67	4696
2026-01-25 01:50:51.20	348.66	45.72	-48.5	-50.4	17.4	0.00e+00	0	44	0	624951296	67	4809
2026-01-25 01:50:52.21	348.22	45.90	-48.4	-50.3	17.5	0.00e+00	0	44	0	627048448	67	4726
2026-01-25 01:50:53.21	347.77	46.09	-48.3	-50.2	17.5	0.00e+00	0	44	0	628097024	67	4687
2026-01-25 01:50:54.22	347.32	46.27	-47.9	-49.7	18.1	0.00e+00	0	44	0	630194176	67	4421
2026-01-25 01:50:55.23	346.86	46.46	-47.9	-49.6	18.2	0.00e+00	0	44	0	632291328	67	4365
2026-01-25 01:50:56.24	346.39	46.64	-47.8	-49.6	18.2	0.00e+00	0	44	0	634388480	67	4342
2026-01-25 01:50:57.25	345.92	46.82	-48.0	-49.8	18.1	0.00e+00	0	44	0	636485632	67	4487
2026-01-25 01:50:58.26	345.44	47.00	-47.7	-49.4	18.4	0.00e+00	0	44	0	637534208	67	4285
2026-01-25 01:50:59.27	344.96	47.18	-47.4	-49.0	18.9	0.00e+00	0	44	0	639631360	66	4309
2026-01-25 01:51:00.27	344.47	47.36	-47.3	-48.9	18.9	0.00e+00	0	44	0	641728512	66	4252
2026-01-25 01:51:01.28	343.98	47.53	-47.1	-48.7	19.2	0.00e+00	0	44	0	643825664	66	4151
2026-01-25 01:51:02.29	343.48	47.71	-47.6	-49.2	18.8	0.00e+00	0	44	0	645922816	66	4416
2026-01-25 01:51:03.30	342.97	47.88	-47.7	-49.4	18.6	0.00e+00	0	44	0	646971392	66	4500
2026-01-25 01:51:04.31	342.46	48.05	-47.6	-49.2	18.7	0.00e+00	0	44	0	649068544	66	4430
2026-01-25 01:51:05.32	341.95	48.22	-47.2	-48.7	19.1	0.00e+00	0	44	0	651165696	66	4172
2026-01-25 01:51:06.33	341.42	48.39	-46.7	-48.1	19.8	0.00e+00	0	44	0	653262848	65	4108
2026-01-25 01:51:07.34	340.90	48.55	-46.4	-47.8	20.0	0.00e+00	0	44	0	655360000	64	4205
2026-01-25 01:51:08.35	340.36	48.72	-46.4	-47.7	20.1	0.00e+00	0	44	0	657457152	64	4188
2026-01-25 01:51:09.36	339.82	48.88	-46.2	-47.6	20.2	0.00e+00	0	44	0	658505728	64	4117
2026-01-25 01:51:10.36	339.28	49.03	-46.3	-47.6	20.2	0.00e+00	0	44	0	660602880	64	4139
2026-01-25 01:51:11.37	338.73	49.19	-46.4	-47.8	20.0	0.00e+00	0	44	0	662700032	64	4194
2026-01-25 01:51:12.38	338.18	49.34	-46.8	-48.2	19.6	0.00e+00	0	44	0	664797184	64	4424
2026-01-25 01:51:13.39	337.61	49.50	-47.1	-48.7	19.1	0.00e+00	0	44	0	665845760	64	4664
2026-01-25 01:51:14.40	337.05	49.64	-47.6	-49.2	18.6	0.00e+00	0	44	0	667942912	65	4694
2026-01-25 01:51:15.40	336.48	49.79	-47.7	-49.4	18.4	0.00e+00	0	44	0	670040064	66	4524
2026-01-25 01:51:16.42	335.90	49.93	-47.8	-49.5	18.4	0.00e+00	0	44	0	672137216	66	4571
2026-01-25 01:51:17.43	335.31	50.08	-48.0	-49.8	18.0	0.00e+00	0	44	0	674234368	66	4724
2026-01-25 01:51:18.43	334.73	50.21	-48.1	-49.9	18.0	0.00e+00	0	44	0	676331520	66	4808
2026-01-25 01:51:19.44	334.13	50.35	-47.9	-49.6	18.2	0.00e+00	0	44	0	677380096	66	4626
2026-01-25 01:51:20.45	333.53	50.48	-47.7	-49.4	18.5	0.00e+00	0	44	0	679477248	66	4516
2026-01-25 01:51:21.46	332.93	50.61	-47.6	-49.2	18.6	0.00e+00	0	44	0	681574400	66	4440
2026-01-25 01:51:22.47	332.32	50.74	-47.3	-48.9	18.9	0.00e+00	0	44	0	683671552	66	4260
2026-01-25 01:51:23.48	331.70	50.86	-47.1	-48.7	19.1	0.00e+00	0	44	0	685768704	66	4158
2026-01-25 01:51:24.49	331.08	50.98	-47.0	-48.5	19.3	0.00e+00	0	44	0	686817280	65	4304
2026-01-25 01:51:25.49	330.46	51.10	-46.8	-48.3	19.5	0.00e+00	0	44	0	688914432	65	4207
2026-01-25 01:51:26.50	329.83	51.21	-46.9	-48.3	19.4	0.00e+00	0	44	0	691011584	65	4238
2026-01-25 01:51:27.51	329.19	51.32	-47.0	-48.5	19.2	0.00e+00	0	44	0	693108736	65	4319
2026-01-25 01:51:28.52	328.55	51.43	-47.1	-48.6	19.2	0.00e+00	0	44	0	694157312	65	4370
2026-01-25 01:51:29.53	327.91	51.53	-46.7	-48.2	19.6	0.00e+00	0	44	0	696254464	65	4170
2026-01-25 01:51:30.53	327.27	51.63	-46.5	-47.9	19.8	0.00e+00	0	44	0	698351616	65	4031
2026-01-25 01:51:31.54	326.61	51.73	-46.4	-47.8	20.0	0.00e+00	0	44	0	700448768	64	4223
2026-01-25 01:51:32.55	325.96	51.82	-46.6	-48.0	19.8	0.00e+00	0	44	0	702545920	64	4308
2026-01-25 01:51:33.56	325.30	51.91	-46.8	-48.3	19.5	0.00e+00	0	44	0	704643072	64	4465
2026-01-25 01:51:34.57	324.63	51.99	-46.4	-47.8	20.0	0.00e+00	0	44	0	705691648	64	4226
2026-01-25 01:51:35.58	323.96	52.07	-45.6	-46.9	20.9	0.00e+00	0	44	0	707788800	63	4006
2026-01-25 01:51:36.59	323.29	52.15	-44.9	-46.0	21.7	0.00e+00	0	44	0	709885952	61	4070
2026-01-25 01:51:37.60	322.61	52.22	-44.5	-45.6	22.1	0.00e+00	0	44	0	711983104	60	4103
2026-01-25 01:51:38.61	321.93	52.29	-44.6	-45.6	22.0	0.00e+00	0	44	0	714080256	60	4131
2026-01-25 01:51:39.61	321.26	52.36	-44.1	-45.1	22.5	0.00e+00	0	44	0	715128832	60	3882
2026-01-25 01:51:40.62	320.57	52.42	-44.4	-45.4	22.5	0.00e+00	0	44	0	717225984	59	4274
2026-01-25 01:51:41.63	319.88	52.47	-44.0	-45.0	22.9	0.00e+00	0	44	0	719323136	59	4069
2026-01-25 01:51:42.64	319.19	52.53	-43.9	-44.9	23.1	0.00e+00	0	44	0	721420288	59	4005
2026-01-25 01:51:43.65	318.50	52.57	-43.7	-44.7	23.2	0.00e+00	0	44	0	723517440	59	3924
2026-01-25 01:51:44.66	317.80	52.62	-43.4	-44.4	23.4	0.00e+00	0	44	0	724566016	58	4024
2026-01-25 01:51:45.67	317.11	52.66	-43.1	-44.1	23.7	0.00e+00	0	44	0	726663168	58	3873
2026-01-25 01:51:46.67	316.41	52.69	-43.0	-44.0	23.8	0.00e+00	0	44	0	728760320	58	3827
2026-01-25 01:51:47.68	315.71	52.72	-43.0	-43.9	23.9	0.00e+00	0	44	0	730857472	57	4010
2026-01-25 01:51:48.69	315.01	52.75	-43.2	-44.1	23.7	0.00e+00	0	44	0	732954624	57	4135
2026-01-25 01:51:49.70	314.31	52.77	-43.2	-44.1	23.7	0.00e+00	0	44	0	734003200	57	4124
2026-01-25 01:51:50.71	313.60	52.79	-43.1	-44.0	23.7	0.00e+00	0	44	0	736100352	57	4083
2026-01-25 01:51:51.72	312.90	52.80	-43.2	-44.1	23.6	0.00e+00	0	44	0	738197504	57	4123
2026-01-25 01:51:52.73	312.19	52.81	-43.1	-44.0	23.8	0.00e+00	0	44	0	740294656	57	4064
2026-01-25 01:51:53.73	311.50	52.81	-43.1	-44.0	23.7	0.00e+00	0	44	0	742391808	57	4097
2026-01-25 01:51:54.74	310.79	52.81	-43.2	-44.2	23.6	0.00e+00	0	44	0	743440384	57	4159
2026-01-25 01:51:55.75	310.08	52.81	-43.5	-44.4	23.3	0.00e+00	0	44	0	745537536	57	4291
2026-01-25 01:51:56.76	309.38	52.80	-43.8	-44.8	23.1	0.00e+00	0	44	0	747634688	58	4197
2026-01-25 01:51:57.76	308.68	52.78	-43.7	-44.7	23.2	0.00e+00	0	44	0	749731840	58	4152
2026-01-25 01:51:58.77	307.98	52.76	-43.9	-44.9	23.0	0.00e+00	0	44	0	751828992	58	4255
2026-01-25 01:51:59.78	307.27	52.74	-44.0	-45.0	22.9	0.00e+00	0	44	0	752877568	58	4313
2026-01-25 01:52:00.79	306.57	52.71	-43.8	-44.8	23.0	0.00e+00	0	44	0	754974720	58	4215
2026-01-25 01:52:01.79	305.88	52.68	-43.8	-44.8	23.0	0.00e+00	0	44	0	757071872	58	4203
2026-01-25 01:52:02.80	305.18	52.65	-44.1	-45.1	22.9	0.00e+00	0	44	0	759169024	58	4349
2026-01-25 01:52:03.81	304.48	52.61	-44.1	-45.1	22.8	0.00e+00	0	44	0	761266176	58	4367
2026-01-25 01:52:04.82	303.79	52.56	-43.9	-44.9	22.9	0.00e+00	0	44	0	762314752	58	4266
2026-01-25 01:52:05.83	303.10	52.51	-44.1	-45.1	22.8	0.00e+00	0	44	0	764411904	58	4386
2026-01-25 01:52:06.83	302.41	52.46	-44.1	-45.1	22.7	0.00e+00	0	44	0	766509056	58	4381
2026-01-25 01:52:07.84	301.72	52.40	-43.9	-44.9	23.0	0.00e+00	0	44	0	768606208	58	4247
2026-01-25 01:52:08.85	301.04	52.34	-43.7	-44.6	23.2	0.00e+00	0	44	0	770703360	58	4128
2026-01-25 01:52:09.85	300.36	52.28	-43.6	-44.5	23.3	0.00e+00	0	44	0	772800512	58	4082
2026-01-25 01:52:10.86	299.68	52.21	-43.7	-44.7	23.2	0.00e+00	0	44	0	773849088	58	4176
2026-01-25 01:52:11.87	299.01	52.13	-43.7	-44.6	23.2	0.00e+00	0	44	0	775946240	58	4144
2026-01-25 01:52:12.88	298.34	52.05	-43.8	-44.8	23.0	0.00e+00	0	44	0	778043392	58	4218
2026-01-25 01:52:13.89	297.67	51.97	-43.9	-44.9	22.9	0.00e+00	0	44	0	780140544	58	4282
2026-01-25 01:52:14.90	297.00	51.89	-43.8	-44.8	23.0	0.00e+00	0	44	0	781189120	58	4240
2026-01-25 01:52:15.91	296.34	51.80	-43.7	-44.7	23.2	0.00e+00	0	44	0	783286272	58	4158
2026-01-25 01:52:16.91	295.69	51.70	-43.5	-44.4	23.3	0.00e+00	0	44	0	785383424	58	4047
2026-01-25 01:52:17.92	295.04	51.61	-43.5	-44.5	23.3	0.00e+00	0	44	0	787480576	58	4061
2026-01-25 01:52:18.93	294.39	51.51	-43.9	-44.9	23.0	0.00e+00	0	44	0	789577728	58	4255
2026-01-25 01:52:19.94	293.75	51.40	-44.3	-45.3	22.5	0.00e+00	0	44	0	791674880	59	4235
2026-01-25 01:52:20.95	293.11	51.29	-44.4	-45.5	22.1	0.00e+00	0	44	0	792723456	60	4061
2026-01-25 01:52:21.95	292.48	51.18	-44.8	-46.0	21.6	0.00e+00	0	44	0	794820608	60	4304
2026-01-25 01:52:22.96	291.85	51.07	-45.1	-46.2	21.4	0.00e+00	0	44	0	796917760	60	4435
2026-01-25 01:52:23.97	291.22	50.95	-45.1	-46.3	21.4	0.00e+00	0	44	0	799014912	60	4447
2026-01-25 01:52:24.98	290.60	50.83	-45.1	-46.3	21.4	0.00e+00	0	44	0	801112064	60	4489
2026-01-25 01:52:25.99	289.99	50.71	-45.4	-46.6	21.1	0.00e+00	0	44	0	802160640	61	4353
2026-01-25 01:52:27.00	289.38	50.58	-46.1	-47.4	20.3	0.00e+00	0	44	0	804257792	62	4519
2026-01-25 01:52:28.01	288.77	50.45	-46.7	-48.1	19.6	0.00e+00	0	44	0	806354944	63	4624
2026-01-25 01:52:29.01	288.18	50.31	-47.0	-48.5	19.2	0.00e+00	0	44	0	808452096	64	4576
2026-01-25 01:52:30.02	287.59	50.18	-47.1	-48.7	19.0	0.00e+00	0	44	0	809500672	64	4671
2026-01-25 01:52:31.03	287.00	50.04	-47.1	-48.7	19.1	0.00e+00	0	44	0	811597824	64	4673
2026-01-25 01:52:32.04	286.41	49.90	-46.9	-48.4	19.3	0.00e+00	0	44	0	813694976	64	4537
2026-01-25 01:52:33.05	285.84	49.75	-46.6	-48.1	19.5	0.00e+00	0	44	0	815792128	64	4359
2026-01-25 01:52:34.06	285.26	49.60	-46.8	-48.3	19.3	0.00e+00	0	44	0	817889280	64	4482
2026-01-25 01:52:35.07	284.70	49.45	-47.4	-49.1	18.6	0.00e+00	0	44	0	819986432	65	4611
2026-01-25 01:52:36.08	284.14	49.30	-47.9	-49.8	17.9	0.00e+00	0	44	0	821035008	66	4717
2026-01-25 01:52:37.09	283.58	49.15	-48.0	-49.8	17.9	0.00e+00	0	44	0	823132160	66	4758
2026-01-25 01:52:38.09	283.04	48.99	-47.7	-49.4	18.3	0.00e+00	0	44	0	825229312	66	4529
2026-01-25 01:52:39.10	282.49	48.83	-47.4	-49.0	18.7	0.00e+00	0	44	0	827326464	66	4314
2026-01-25 01:52:40.11	281.95	48.67	-47.0	-48.5	19.1	0.00e+00	0	44	0	829423616	66	4094
2026-01-25 01:52:41.12	281.42	48.51	-46.7	-48.1	19.5	0.00e+00	0	44	0	830472192	65	4140
2026-01-25 01:52:42.13	280.89	48.34	-46.8	-48.3	19.3	0.00e+00	0	44	0	832569344	65	4220
2026-01-25 01:52:43.14	280.37	48.17	-47.4	-49.0	18.7	0.00e+00	0	44	0	834666496	65	4595
2026-01-25 01:52:44.15	279.86	48.00	-48.0	-49.9	17.8	0.00e+00	0	44	0	836763648	66	4768
2026-01-25 01:52:45.15	279.35	47.83	-48.2	-50.1	17.6	0.00e+00	0	44	0	838860800	67	4633
2026-01-25 01:52:46.16	278.85	47.66	-47.5	-49.2	18.4	0.00e+00	0	44	0	839909376	67	4174
2026-01-25 01:52:47.17	278.35	47.48	-47.1	-48.6	19.0	0.00e+00	0	44	0	842006528	66	4137
2026-01-25 01:52:48.18	277.85	47.31	-46.6	-48.1	19.4	0.00e+00	0	44	0	844103680	65	4110
2026-01-25 01:52:49.19	277.37	47.13	-46.6	-48.1	19.6	0.00e+00	0	44	0	846200832	65	4117
2026-01-25 01:52:50.19	276.89	46.95	-47.2	-48.8	18.9	0.00e+00	0	44	0	848297984	65	4461
2026-01-25 01:52:51.20	276.41	46.77	-47.8	-49.6	18.2	0.00e+00	0	44	0	849346560	66	4624
2026-01-25 01:52:52.21	275.94	46.59	-48.4	-50.4	17.4	0.00e+00	0	44	0	851443712	67	4765
2026-01-25 01:52:53.22	275.48	46.40	-48.6	-50.7	17.0	0.00e+00	0	44	0	853540864	67	4959
2026-01-25 01:52:54.23	275.02	46.22	-48.2	-50.0	17.6	0.00e+00	0	44	0	855638016	67	4593
2026-01-25 01:52:55.24	274.56	46.03	-47.8	-49.6	18.0	0.00e+00	0	44	0	857735168	67	4380
2026-01-25 01:52:56.25	274.11	45.85	-48.0	-49.8	17.9	0.00e+00	0	44	0	858783744	67	4454
2026-01-25 01:52:57.25	273.67	45.66	-47.6	-49.3	18.4	0.00e+00	0	44	0	860880896	67	4198
2026-01-25 01:52:58.26	273.23	45.47	-47.8	-49.5	18.1	0.00e+00	0	44	0	862978048	67	4339
2026-01-25 01:52:59.27	272.80	45.28	-47.9	-49.6	18.0	0.00e+00	0	44	0	865075200	67	4391
2026-01-25 01:53:00.28	272.37	45.09	-48.2	-50.2	17.5	0.00e+00	0	44	0	867172352	67	4663
2026-01-25 01:53:01.29	271.95	44.90	-48.1	-50.0	17.6	0.00e+00	0	44	0	868220928	67	4575
2026-01-25 01:53:02.29	271.53	44.71	-47.7	-49.5	18.2	0.00e+00	0	44	0	870318080	67	4292
2026-01-25 01:53:03.30	271.12	44.51	-47.3	-48.9	18.8	0.00e+00	0	44	0	872415232	66	4261
2026-01-25 01:53:04.31	270.71	44.32	-47.2	-48.8	18.8	0.00e+00	0	44	0	874512384	66	4226
2026-01-25 01:53:05.32	270.31	44.12	-46.8	-48.3	19.4	0.00e+00	0	44	0	876609536	65	4215
2026-01-25 01:53:06.33	269.91	43.93	-46.9	-48.4	19.2	0.00e+00	0	44	0	878706688	65	4251
2026-01-25 01:53:07.34	269.52	43.73	-47.0	-48.5	19.1	0.00e+00	0	44	0	879755264	65	4323
2026-01-25 01:53:08.35	269.13	43.54	-47.4	-49.1	18.5	0.00e+00	0	44	0	881852416	65	4614
2026-01-25 01:53:09.36	268.75	43.34	-47.6	-49.3	18.4	0.00e+00	0	44	0	883949568	65	4755
2026-01-25 01:53:10.37	268.37	43.14	-47.6	-49.3	18.3	0.00e+00	0	44	0	886046720	65	4719
2026-01-25 01:53:11.37	268.00	42.94	-47.2	-48.8	18.8	0.00e+00	0	44	0	887095296	65	4477
2026-01-25 01:53:12.38	267.63	42.75	-46.6	-48.1	19.5	0.00e+00	0	44	0	889192448	65	4106
2026-01-25 01:53:13.39	267.26	42.55	-46.4	-47.8	19.7	0.00e+00	0	44	0	891289600	64	4239
2026-01-25 01:53:14.40	266.90	42.35	-46.7	-48.2	19.4	0.00e+00	0	44	0	893386752	64	4403
2026-01-25 01:53:15.41	266.55	42.15	-47.1	-48.7	18.8	0.00e+00	0	44	0	895483904	64	4695
2026-01-25 01:53:16.42	266.19	41.95	-47.6	-49.3	18.3	0.00e+00	0	44	0	896532480	65	4739
2026-01-25 01:53:17.43	265.85	41.75	-47.8	-49.6	18.0	0.00e+00	0	44	0	898629632	66	4638
2026-01-25 01:53:18.43	265.51	41.55	-47.9	-49.8	17.8	0.00e+00	0	44	0	900726784	66	4716
2026-01-25 01:53:19.44	265.17	41.36	-48.0	-49.9	17.8	0.00e+00	0	44	0	902823936	66	4763
2026-01-25 01:53:20.45	264.83	41.16	-47.9	-49.8	17.8	0.00e+00	0	44	0	904921088	66	4719
2026-01-25 01:53:21.46	264.50	40.96	-48.0	-49.9	17.7	0.00e+00	0	44	0	907018240	66	4813
2026-01-25 01:53:22.47	264.18	40.76	-48.4	-50.5	17.1	0.00e+00	0	44	0	908066816	67	4818
2026-01-25 01:53:23.48	263.85	40.56	-48.6	-50.7	16.9	0.00e+00	0	44	0	910163968	67	4970
2026-01-25 01:53:24.49	263.54	40.36	-48.8	-51.0	16.7	0.00e+00	0	44	0	912261120	68	4854
2026-01-25 01:53:25.50	263.22	40.16	-48.6	-50.7	17.0	0.00e+00	0	44	0	914358272	68	4686
2026-01-25 01:53:26.51	262.91	39.96	-48.7	-50.8	16.9	0.00e+00	0	44	0	915406848	68	4706
2026-01-25 01:53:27.52	262.60	39.76	-49.0	-51.2	16.5	0.00e+00	0	44	0	917504000	68	4960
2026-01-25 01:53:28.53	262.30	39.56	-49.0	-51.3	16.5	0.00e+00	0	44	0	919601152	68	4997
2026-01-25 01:53:29.54	262.00	39.36	-49.2	-51.5	16.2	0.00e+00	0	44	0	921698304	68	5133
2026-01-25 01:53:30.55	261.71	39.17	-49.2	-51.5	16.2	0.00e+00	0	44	0	923795456	68	5153
2026-01-25 01:53:31.56	261.41	38.97	-49.3	-51.8	15.9	0.00e+00	0	44	0	925892608	69	4995
2026-01-25 01:53:32.57	261.13	38.77	-49.5	-52.0	15.6	0.00e+00	0	44	0	926941184	69	5140
2026-01-25 01:53:33.57	260.84	38.58	-49.2	-51.6	16.0	0.00e+00	0	44	0	929038336	69	4892
2026-01-25 01:53:34.58	260.56	38.38	-48.7	-50.8	16.9	0.00e+00	0	44	0	931135488	69	4466
2026-01-25 01:53:35.59	260.28	38.18	-48.6	-50.7	17.0	0.00e+00	0	44	0	933232640	69	4418
2026-01-25 01:53:36.60	260.01	37.99	-48.6	-50.6	17.0	0.00e+00	0	44	0	935329792	69	4389
2026-01-25 01:53:37.60	259.74	37.79	-48.7	-50.9	16.8	0.00e+00	0	44	0	936378368	69	4515
2026-01-25 01:53:38.61	259.47	37.60	-48.9	-51.1	16.6	0.00e+00	0	44	0	938475520	69	4605
2026-01-25 01:53:39.62	259.21	37.40	-49.0	-51.3	16.4	0.00e+00	0	44	0	940572672	69	4721
2026-01-25 01:53:40.63	258.94	37.21	-48.9	-51.2	16.5	0.00e+00	0	44	0	942669824	69	4655
2026-01-25 01:53:41.64	258.69	37.01	-48.8	-51.0	16.7	0.00e+00	0	44	0	944766976	69	4555
2026-01-25 01:53:42.65	258.43	36.82	-48.4	-50.4	17.2	0.00e+00	0	44	0	945815552	68	4518
2026-01-25 01:53:43.65	258.18	36.63	-48.0	-49.9	17.8	0.00e+00	0	44	0	947912704	68	4268
2026-01-25 01:53:44.66	257.93	36.43	-47.5	-49.1	18.4	0.00e+00	0	44	0	950009856	67	4145
2026-01-25 01:53:45.67	257.68	36.24	-47.6	-49.3	18.3	0.00e+00	0	44	0	952107008	66	4448
2026-01-25 01:53:46.68	257.44	36.05	-47.9	-49.7	17.8	0.00e+00	0	44	0	954204160	66	4694
2026-01-25 01:53:47.68	257.20	35.86	-48.1	-50.0	17.6	0.00e+00	0	44	0	955252736	66	4864
2026-01-25 01:53:48.69	256.96	35.67	-48.1	-50.0	17.5	0.00e+00	0	44	0	957349888	66	4839
2026-01-25 01:53:49.70	256.73	35.48	-48.2	-50.1	17.4	0.00e+00	0	44	0	959447040	67	4633
2026-01-25 01:53:50.71	256.50	35.29	-48.0	-49.9	17.6	0.00e+00	0	44	0	961544192	67	4501
2026-01-25 01:53:51.72	256.27	35.10	-48.1	-50.1	17.5	0.00e+00	0	44	0	963641344	67	4603
2026-01-25 01:53:52.73	256.04	34.91	-48.0	-49.9	17.6	0.00e+00	0	44	0	965738496	67	4543
2026-01-25 01:53:53.74	255.81	34.73	-48.0	-49.9	17.6	0.00e+00	0	44	0	966787072	67	4538
2026-01-25 01:53:54.75	255.59	34.54	-47.8	-49.6	17.9	0.00e+00	0	44	0	968884224	67	4374
2026-01-25 01:53:55.75	255.37	34.36	-47.7	-49.5	18.0	0.00e+00	0	44	0	970981376	67	4321
2026-01-25 01:53:56.76	255.16	34.17	-47.6	-49.3	18.2	0.00e+00	0	44	0	973078528	67	4221
2026-01-25 01:53:57.77	254.94	33.98	-47.4	-49.1	18.4	0.00e+00	0	44	0	974127104	66	4369
2026-01-25 01:53:58.78	254.73	33.80	-47.3	-49.0	18.5	0.00e+00	0	44	0	976224256	66	4298
2026-01-25 01:53:59.79	254.52	33.62	-47.3	-48.9	18.6	0.00e+00	0	44	0	978321408	66	4284
2026-01-25 01:54:00.80	254.31	33.43	-47.2	-48.8	18.7	0.00e+00	0	44	0	980418560	66	4202
2026-01-25 01:54:01.81	254.11	33.25	-47.1	-48.7	18.8	0.00e+00	0	43	0	982515712	66	4167
2026-01-25 01:54:02.82	253.91	33.07	-47.3	-48.9	18.5	0.00e+00	0	44	0	983564288	66	4282
2026-01-25 01:54:03.83	253.71	32.89	-47.4	-49.1	18.3	0.00e+00	0	44	0	985661440	66	4367
2026-01-25 01:54:04.83	253.51	32.71	-47.6	-49.3	18.1	0.00e+00	0	44	0	987758592	66	4484
2026-01-25 01:54:05.84	253.31	32.53	-47.6	-49.3	18.1	0.00e+00	0	44	0	989855744	66	4471
2026-01-25 01:54:06.86	253.12	32.35	-47.4	-49.1	18.3	0.00e+00	0	44	0	991952896	66	4370
2026-01-25 01:54:07.86	252.93	32.17	-47.4	-49.0	18.4	0.00e+00	0	44	0	994050048	66	4336
2026-01-25 01:54:08.87	252.74	31.99	-47.4	-49.2	18.2	0.00e+00	0	44	0	995098624	66	4403
2026-01-25 01:54:09.88	252.55	31.82	-47.4	-49.1	18.4	0.00e+00	0	44	0	997195776	66	4348
2026-01-25 01:54:10.89	252.37	31.64	-47.2	-48.8	18.4	0.00e+00	0	44	0	999292928	66	4226
2026-01-25 01:54:11.89	252.19	31.47	-47.3	-49.0	18.4	0.00e+00	0	44	0	1001390080	66	4321
2026-01-25 01:54:12.90	252.01	31.29	-47.5	-49.3	18.2	0.00e+00	0	44	0	1002438656	66	4457
2026-01-25 01:54:13.91	251.83	31.12	-47.6	-49.4	18.1	0.00e+00	0	44	0	1004535808	66	4495
2026-01-25 01:54:14.92	251.65	30.95	-47.7	-49.5	17.9	0.00e+00	0	44	0	1006632960	66	4568
2026-01-25 01:54:15.93	251.47	30.77	-47.6	-49.4	18.0	0.00e+00	0	44	0	1008730112	66	4505
2026-01-25 01:54:16.93	251.30	30.60	-47.5	-49.3	18.1	0.00e+00	0	44	0	1010827264	66	4467
2026-01-25 01:54:17.94	251.13	30.43	-47.6	-49.4	18.0	0.00e+00	0	44	0	1012924416	66	4498
2026-01-25 01:54:18.95	250.96	30.26	-47.6	-49.4	18.0	0.00e+00	0	44	0	1013972992	66	4497
2026-01-25 01:54:19.95	250.79	30.09	-47.6	-49.4	18.0	0.00e+00	0	44	0	1016070144	66	4509
2026-01-25 01:54:20.97	250.63	29.92	-47.7	-49.5	17.8	0.00e+00	0	44	0	1018167296	66	4580
2026-01-25 01:54:21.97	250.46	29.75	-47.6	-49.4	18.0	0.00e+00	0	44	0	1020264448	66	4527
2026-01-25 01:54:22.98	250.30	29.59	-47.5	-49.3	18.1	0.00e+00	0	44	0	1022361600	66	4446
2026-01-25 01:54:23.99	250.14	29.42	-47.4	-49.1	18.3	0.00e+00	0	44	0	1023410176	66	4354
2026-01-25 01:54:25.00	249.98	29.25	-47.0	-48.5	18.8	0.00e+00	0	44	0	1025507328	65	4339
2026-01-25 01:54:26.01	249.82	29.09	-46.7	-48.3	19.1	0.00e+00	0	44	0	1027604480	65	4204
2026-01-25 01:54:27.01	249.67	28.93	-46.7	-48.2	19.2	0.00e+00	0	44	0	1029701632	65	4167
2026-01-25 01:54:28.02	249.51	28.76	-46.6	-48.1	19.2	0.00e+00	0	44	0	1030750208	65	4141
2026-01-25 01:54:29.03	249.36	28.60	-46.7	-48.3	19.1	0.00e+00	0	44	0	1032847360	65	4211
2026-01-25 01:54:30.04	249.21	28.44	-46.9	-48.4	18.9	0.00e+00	0	44	0	1034944512	65	4283
2026-01-25 01:54:31.05	249.06	28.27	-47.0	-48.6	18.8	0.00e+00	0	44	0	1037041664	65	4359
2026-01-25 01:54:32.05	248.91	28.11	-47.0	-48.7	18.6	0.00e+00	0	44	0	1039138816	65	4402
2026-01-25 01:54:33.06	248.77	27.95	-46.8	-48.4	18.9	0.00e+00	0	44	0	1041235968	65	4264
2026-01-25 01:54:34.07	248.62	27.79	-46.9	-48.5	18.8	0.00e+00	0	44	0	1042284544	65	4319
2026-01-25 01:54:35.08	248.48	27.63	-46.9	-48.5	18.9	0.00e+00	0	44	0	1044381696	65	4302
2026-01-25 01:54:36.09	248.33	27.48	-46.7	-48.3	19.0	0.00e+00	0	44	0	1046478848	65	4221
2026-01-25 01:54:37.10	248.19	27.32	-46.7	-48.2	19.1	0.00e+00	0	44	0	1048576000	65	4189
2026-01-25 01:54:38.11	248.05	27.16	-46.6	-48.1	19.2	0.00e+00	0	44	0	1050673152	65	4120
2026-01-25 01:54:39.12	247.92	27.01	-46.6	-48.1	19.2	0.00e+00	0	44	0	1051721728	65	4142
2026-01-25 01:54:40.13	247.78	26.85	-46.5	-48.0	19.3	0.00e+00	0	44	0	1053818880	65	4081
2026-01-25 01:54:41.13	247.64	26.70	-46.5	-48.0	19.2	0.00e+00	0	44	0	1055916032	64	4327
2026-01-25 01:54:42.14	247.51	26.54	-46.5	-48.0	19.2	0.00e+00	0	44	0	1058013184	64	4330
2026-01-25 01:54:43.15	247.38	26.39	-46.4	-47.9	19.4	0.00e+00	0	44	0	1060110336	64	4278
2026-01-25 01:54:44.16	247.25	26.24	-46.3	-47.8	19.5	0.00e+00	0	44	0	1061158912	64	4209
2026-01-25 01:54:45.17	247.12	26.08	-46.4	-47.9	19.3	0.00e+00	0	44	0	1063256064	64	4282
2026-01-25 01:54:46.17	246.99	25.93	-46.4	-47.8	19.4	0.00e+00	0	44	0	1065353216	64	4233
2026-01-25 01:54:47.18	246.86	25.78	-46.4	-47.9	19.4	0.00e+00	0	44	0	1067450368	64	4261
2026-01-25 01:54:48.19	246.73	25.63	-46.2	-47.6	19.6	0.00e+00	0	44	0	1069547520	64	4121
2026-01-25 01:54:49.20	246.61	25.48	-46.0	-47.4	19.9	0.00e+00	0	44	0	1070596096	63	4270
2026-01-25 01:54:50.21	246.49	25.34	-46.1	-47.5	19.9	0.00e+00	0	44	0	1072693248	63	4308
2026-01-25 01:54:51.22	246.36	25.19	-45.9	-47.3	20.0	0.00e+00	0	44	0	1074790400	63	4229
2026-01-25 01:54:52.23	246.24	25.04	-46.0	-47.4	20.0	0.00e+00	0	44	0	1076887552	63	4254
2026-01-25 01:54:53.24	246.12	24.89	-46.1	-47.5	19.8	0.00e+00	0	44	0	1078984704	63	4319
2026-01-25 01:54:54.24	246.00	24.75	-46.4	-47.8	19.5	0.00e+00	0	44	0	1080033280	63	4492
2026-01-25 01:54:55.25	245.88	24.60	-46.4	-47.9	19.4	0.00e+00	0	44	0	1082130432	63	4520
2026-01-25 01:54:56.26	245.77	24.46	-46.5	-48.1	19.2	0.00e+00	0	44	0	1084227584	63	4607
2026-01-25 01:54:57.27	245.65	24.32	-46.6	-48.2	18.8	0.00e+00	0	44	0	1086324736	63	4681
2026-01-25 01:54:58.28	245.54	24.17	-46.6	-48.1	19.1	0.00e+00	0	44	0	1088421888	64	4389
2026-01-25 01:54:59.29	245.42	24.03	-46.5	-48.1	19.1	0.00e+00	0	44	0	1089470464	64	4357
2026-01-25 01:55:00.29	245.31	23.89	-46.5	-48.1	19.1	0.00e+00	0	44	0	1091567616	64	4348
2026-01-25 01:55:01.30	245.20	23.75	-46.4	-48.0	19.3	0.00e+00	0	44	0	1093664768	64	4293
2026-01-25 01:55:02.31	245.09	23.61	-46.4	-47.9	19.3	0.00e+00	0	44	0	1095761920	64	4269
2026-01-25 01:55:03.32	244.98	23.47	-46.3	-47.7	19.5	0.00e+00	0	44	0	1097859072	64	4192
2026-01-25 01:55:04.33	244.87	23.33	-46.1	-47.5	19.7	0.00e+00	0	44	0	1099956224	64	4088
2026-01-25 01:55:05.34	244.76	23.19	-46.0	-47.4	19.7	0.00e+00	0	44	0	1101004800	64	4047
2026-01-25 01:55:06.35	244.65	23.05	-46.1	-47.6	19.7	0.00e+00	0	44	0	1103101952	63	4350
2026-01-25 01:55:07.35	244.55	22.91	-46.1	-47.5	19.8	0.00e+00	0	44	0	1105199104	63	4315
2026-01-25 01:55:08.36	244.45	22.78	-46.0	-47.4	19.8	0.00e+00	0	44	0	1107296256	63	4272
2026-01-25 01:55:09.37	244.34	22.64	-46.1	-47.5	19.7	0.00e+00	0	44	0	1108344832	63	4313
2026-01-25 01:55:10.38	244.24	22.51	-46.1	-47.5	19.7	0.00e+00	0	44	0	1110441984	63	4336
2026-01-25 01:55:11.39	244.14	22.37	-46.2	-47.6	19.7	0.00e+00	0	44	0	1112539136	63	4372
2026-01-25 01:55:12.40	244.03	22.24	-46.2	-47.7	19.5	0.00e+00	0	44	0	1114636288	63	4419
2026-01-25 01:55:13.41	243.93	22.10	-46.3	-47.8	19.5	0.00e+00	0	44	0	1116733440	63	4443
2026-01-25 01:55:14.42	243.84	21.97	-46.3	-47.8	19.4	0.00e+00	0	44	0	1117782016	63	4485
2026-01-25 01:55:15.43	243.74	21.84	-46.3	-47.7	19.5	0.00e+00	0	44	0	1119879168	63	4430
2026-01-25 01:55:16.43	243.64	21.71	-46.3	-47.8	19.4	0.00e+00	0	44	0	1121976320	63	4471
2026-01-25 01:55:17.44	243.54	21.57	-46.3	-47.7	19.5	0.00e+00	0	44	0	1124073472	63	4438
2026-01-25 01:55:18.45	243.45	21.44	-46.1	-47.5	19.7	0.00e+00	0	44	0	1126170624	63	4312
2026-01-25 01:55:19.46	243.35	21.31	-46.1	-47.5	19.7	0.00e+00	0	44	0	1128267776	63	4323
2026-01-25 01:55:20.47	243.26	21.18	-46.2	-47.6	19.6	0.00e+00	0	44	0	1129316352	63	4376
2026-01-25 01:55:21.47	243.16	21.06	-46.2	-47.7	19.5	0.00e+00	0	44	0	1131413504	63	4413
2026-01-25 01:55:22.48	243.07	20.93	-46.2	-47.6	19.6	0.00e+00	0	44	0	1133510656	63	4382
2026-01-25 01:55:23.49	242.98	20.80	-46.3	-47.7	19.5	0.00e+00	0	44	0	1135607808	63	4429
2026-01-25 01:55:24.50	242.89	20.67	-46.1	-47.6	19.6	0.00e+00	0	44	0	1136656384	63	4359
2026-01-25 01:55:25.51	242.80	20.54	-46.2	-47.6	19.6	0.00e+00	0	44	0	1138753536	63	4390
2026-01-25 01:55:26.52	242.71	20.42	-46.3	-47.7	19.5	0.00e+00	0	44	0	1140850688	63	4431
2026-01-25 01:55:27.53	242.62	20.29	-46.2	-47.7	19.5	0.00e+00	0	44	0	1142947840	63	4419
2026-01-25 01:55:28.53	242.53	20.17	-46.3	-47.8	19.4	0.00e+00	0	44	0	1145044992	63	4444
2026-01-25 01:55:29.54	242.45	20.04	-46.4	-47.9	19.3	0.00e+00	0	44	0	1147142144	63	4527
2026-01-25 01:55:30.55	242.36	19.92	-46.3	-47.8	19.4	0.00e+00	0	44	0	1148190720	63	4479
2026-01-25 01:55:31.56	242.27	19.80	-46.3	-47.8	19.3	0.00e+00	0	44	0	1150287872	63	4482
2026-01-25 01:55:32.57	242.19	19.67	-46.3	-47.8	19.3	0.00e+00	0	44	0	1152385024	63	4486
2026-01-25 01:55:33.57	242.10	19.55	-46.2	-47.7	19.5	0.00e+00	0	44	0	1154482176	63	4424
2026-01-25 01:55:34.58	242.02	19.43	-46.4	-47.9	19.3	0.00e+00	0	44	0	1156579328	63	4524
2026-01-25 01:55:35.59	241.94	19.31	-46.3	-47.8	19.3	0.00e+00	0	44	0	1157627904	63	4493
2026-01-25 01:55:36.60	241.85	19.19	-46.5	-48.0	19.2	0.00e+00	0	44	0	1159725056	63	4572
2026-01-25 01:55:37.60	241.77	19.07	-46.4	-47.9	19.2	0.00e+00	0	44	0	1161822208	63	4535
2026-01-25 01:55:38.61	241.69	18.95	-46.4	-48.0	19.2	0.00e+00	0	44	0	1163919360	63	4560
2026-01-25 01:55:39.62	241.61	18.83	-46.4	-48.0	19.2	0.00e+00	0	44	0	1164967936	63	4555
2026-01-25 01:55:40.63	241.53	18.71	-46.4	-48.0	19.2	0.00e+00	0	44	0	1167065088	63	4564
2026-01-25 01:55:41.64	241.45	18.59	-46.4	-48.0	19.2	0.00e+00	0	44	0	1169162240	63	4566
2026-01-25 01:55:42.65	241.37	18.47	-46.4	-48.0	19.2	0.00e+00	0	44	0	1171259392	63	4564
2026-01-25 01:55:43.65	241.30	18.36	-46.4	-48.0	19.2	0.00e+00	0	44	0	1173356544	63	4554
2026-01-25 01:55:44.66	241.22	18.24	-46.5	-48.1	19.1	0.00e+00	0	44	0	1175453696	63	4618
2026-01-25 01:55:45.67	241.14	18.12	-46.2	-47.6	19.5	0.00e+00	0	44	0	1176502272	63	4384
2026-01-25 01:55:46.68	241.07	18.01	-46.1	-47.5	19.6	0.00e+00	0	44	0	1178599424	63	4335
2026-01-25 01:55:47.68	240.99	17.89	-46.0	-47.5	19.7	0.00e+00	0	44	0	1180696576	63	4306
2026-01-25 01:55:48.69	240.92	17.78	-46.0	-47.4	19.7	0.00e+00	0	44	0	1182793728	63	4266
2026-01-25 01:55:49.70	240.84	17.67	-46.1	-47.6	19.5	0.00e+00	0	44	0	1184890880	63	4358
2026-01-25 01:55:50.71	240.77	17.55	-45.9	-47.4	19.7	0.00e+00	0	44	0	1185939456	63	4250
2026-01-25 01:55:51.71	240.70	17.44	-45.8	-47.1	20.0	0.00e+00	0	44	0	1188036608	63	4135
2026-01-25 01:55:52.72	240.62	17.33	-45.8	-47.2	19.9	0.00e+00	0	44	0	1190133760	63	4179
2026-01-25 01:55:53.73	240.55	17.21	-45.9	-47.3	19.8	0.00e+00	0	44	0	1192230912	63	4232
2026-01-25 01:55:54.74	240.48	17.10	-45.9	-47.3	19.8	0.00e+00	0	44	0	1194328064	63	4209
2026-01-25 01:55:55.75	240.41	16.99	-46.0	-47.4	19.7	0.00e+00	0	44	0	1195376640	63	4276
2026-01-25 01:55:56.76	240.34	16.88	-46.1	-47.5	19.6	0.00e+00	0	44	0	1197473792	63	4316
2026-01-25 01:55:57.76	240.27	16.77	-46.2	-47.6	19.5	0.00e+00	0	44	0	1199570944	63	4388
2026-01-25 01:55:58.77	240.20	16.66	-46.4	-47.9	19.2	0.00e+00	0	44	0	1201668096	63	4526
2026-01-25 01:55:59.78	240.13	16.55	-46.4	-47.9	19.1	0.00e+00	0	44	0	1203765248	63	4539
2026-01-25 01:56:00.79	240.06	16.44	-46.4	-47.9	19.2	0.00e+00	0	44	0	1204813824	63	4537
2026-01-25 01:56:01.80	240.00	16.33	-46.6	-48.2	18.9	0.00e+00	0	44	0	1206910976	63	4675
2026-01-25 01:56:02.81	239.93	16.22	-46.7	-48.3	18.8	0.00e+00	0	44	0	1209008128	63	4728
2026-01-25 01:56:03.81	239.86	16.12	-46.7	-48.3	18.7	0.00e+00	0	44	0	1211105280	64	4489
2026-01-25 01:56:04.82	239.80	16.01	-46.6	-48.3	18.8	0.00e+00	0	44	0	1213202432	64	4445
2026-01-25 01:56:05.83	239.73	15.90	-46.7	-48.3	18.7	0.00e+00	0	44	0	1215299584	64	4479
2026-01-25 01:56:06.84	239.67	15.79	-46.8	-48.4	18.5	0.00e+00	0	44	0	1216348160	64	4538
2026-01-25 01:56:07.85	239.60	15.69	-46.8	-48.5	18.5	0.00e+00	0	44	0	1218445312	64	4550
2026-01-25 01:56:08.86	239.54	15.58	-46.7	-48.4	18.6	0.00e+00	0	44	0	1220542464	64	4514
2026-01-25 01:56:09.87	239.47	15.48	-46.7	-48.3	18.7	0.00e+00	0	44	0	1222639616	64	4486
2026-01-25 01:56:10.87	239.41	15.37	-46.8	-48.4	18.6	0.00e+00	0	44	0	1223688192	64	4530
2026-01-25 01:56:11.88	239.35	15.27	-46.7	-48.4	18.5	0.00e+00	0	44	0	1225785344	64	4522
2026-01-25 01:56:12.89	239.29	15.16	-46.7	-48.4	18.6	0.00e+00	0	44	0	1227882496	64	4507
2026-01-25 01:56:13.90	239.22	15.06	-46.7	-48.3	18.6	0.00e+00	0	44	0	1229979648	64	4472
2026-01-25 01:56:14.91	239.16	14.96	-46.7	-48.3	18.7	0.00e+00	0	44	0	1232076800	64	4469
2026-01-25 01:56:15.92	239.10	14.85	-46.8	-48.4	18.5	0.00e+00	0	44	0	1233125376	64	4536
2026-01-25 01:56:16.93	239.04	14.75	-46.7	-48.3	18.6	0.00e+00	0	44	0	1235222528	64	4483
2026-01-25 01:56:17.94	238.98	14.65	-46.7	-48.4	18.6	0.00e+00	0	44	0	1237319680	64	4507
2026-01-25 01:56:18.95	238.92	14.55	-46.8	-48.5	18.5	0.00e+00	0	44	0	1239416832	64	4548
2026-01-25 01:56:19.96	238.86	14.45	-46.9	-48.6	18.3	0.00e+00	0	44	0	1241513984	64	4632
2026-01-25 01:56:20.97	238.80	14.35	-46.9	-48.6	18.3	0.00e+00	0	44	0	1243611136	64	4637
2026-01-25 01:56:21.97	238.74	14.25	-47.0	-48.7	18.2	0.00e+00	0	44	0	1244659712	64	4703
2026-01-25 01:56:22.98	238.69	14.15	-47.0	-48.7	18.2	0.00e+00	0	44	0	1246756864	64	4684
2026-01-25 01:56:23.99	238.63	14.05	-46.9	-48.6	18.3	0.00e+00	0	44	0	1248854016	64	4620
2026-01-25 01:56:25.00	238.57	13.95	-46.8	-48.5	18.4	0.00e+00	0	44	0	1250951168	64	4576
