passes_logs/2026/01/25/R3.2S_Murmansk/R3.2S_Murmansk__20260125_072056_FENGYUN_3D_rec.log

#Pass ID: 20260125_072056_FENGYUN 3D
#Satellite: FENGYUN 3D
#Configuration: FENGYUN 3D
#almurnet v.1.7.20251203
#Start time: 2026-01-25 07:20:58

#Version: 2.2.20231116
#Station: R3.2S_Murmansk
#Location: 33.079688 lon 68.888172 lat
#TLE: 1 43010U 17072A   26024.94080550 -.00000109  00000+0 -29577-4 0  9995
#TLE: 2 43010  98.9962 356.9116 0002509  91.7481 268.3982 14.19699259424665

#Time	Az	El	Level	Level2	SNR	BER	BlckErr	Temp	State	Recorded	gain1	gain2
2026-01-25 07:20:58.45	64.18	2.10	-52.1	-64.1	3.8	8.46e-01	0	42	0	0	76	13732
2026-01-25 07:20:59.46	64.12	2.16	-52.1	-64.0	3.8	8.45e-01	0	42	104	0	74	15289
2026-01-25 07:21:00.47	64.05	2.22	-52.1	-64.0	3.8	8.46e-01	0	42	104	0	74	15247
2026-01-25 07:21:01.48	63.99	2.27	-52.1	-64.0	3.8	8.46e-01	0	42	104	0	74	15274
2026-01-25 07:21:02.49	63.92	2.33	-52.1	-64.0	3.8	8.46e-01	0	42	104	0	74	15236
2026-01-25 07:21:03.50	63.86	2.39	-52.1	-64.0	3.8	8.47e-01	0	42	104	0	74	15306
2026-01-25 07:21:04.50	63.79	2.45	-52.1	-64.0	3.8	8.46e-01	0	43	104	0	74	15288
2026-01-25 07:21:05.51	63.73	2.50	-52.1	-64.0	3.8	8.46e-01	0	42	104	0	74	15317
2026-01-25 07:21:06.52	63.66	2.56	-52.1	-64.0	3.8	8.47e-01	0	43	104	0	74	15279
2026-01-25 07:21:07.53	63.60	2.62	-52.1	-64.0	3.8	8.45e-01	0	42	104	0	74	15308
2026-01-25 07:21:08.54	63.53	2.68	-52.1	-64.0	3.8	8.45e-01	0	43	104	0	74	15265
2026-01-25 07:21:09.54	63.46	2.74	-52.1	-63.9	3.8	8.46e-01	0	43	104	0	74	15199
2026-01-25 07:21:10.55	63.40	2.80	-52.1	-63.9	3.8	8.46e-01	0	43	104	0	74	15198
2026-01-25 07:21:11.56	63.33	2.86	-52.1	-63.9	3.8	8.44e-01	0	43	104	0	74	15171
2026-01-25 07:21:12.57	63.26	2.91	-52.1	-64.0	3.8	8.46e-01	0	43	104	0	74	15251
2026-01-25 07:21:13.57	63.20	2.97	-52.1	-64.0	3.8	8.46e-01	0	43	104	0	74	15263
2026-01-25 07:21:14.58	63.13	3.03	-52.1	-64.0	3.8	8.46e-01	0	43	104	0	74	15303
2026-01-25 07:21:15.59	63.06	3.09	-52.1	-64.0	3.8	8.46e-01	0	43	104	0	74	15235
2026-01-25 07:21:16.60	62.99	3.15	-52.1	-63.9	3.8	8.46e-01	0	43	104	0	74	15131
2026-01-25 07:21:17.61	62.92	3.21	-52.1	-63.9	3.8	8.46e-01	0	43	104	0	74	15055
2026-01-25 07:21:18.61	62.85	3.27	-52.1	-63.8	3.8	8.48e-01	0	43	104	0	74	14974
2026-01-25 07:21:19.62	62.78	3.33	-52.1	-63.8	3.8	8.46e-01	0	43	104	0	74	14918
2026-01-25 07:21:20.63	62.72	3.39	-52.1	-63.8	3.8	8.46e-01	0	43	104	0	74	15040
2026-01-25 07:21:21.64	62.65	3.45	-52.1	-63.9	3.8	8.45e-01	0	43	104	0	74	15132
2026-01-25 07:21:22.65	62.57	3.50	-52.1	-64.0	3.8	8.47e-01	0	43	104	0	74	15261
2026-01-25 07:21:23.66	62.50	3.56	-52.1	-64.0	3.8	8.46e-01	0	43	104	0	74	15234
2026-01-25 07:21:24.67	62.43	3.62	-52.1	-63.9	3.8	8.45e-01	0	43	104	0	74	15174
2026-01-25 07:21:25.67	62.36	3.68	-52.1	-63.8	3.8	8.46e-01	0	43	104	0	74	14959
2026-01-25 07:21:26.68	62.29	3.74	-52.1	-63.7	3.8	8.46e-01	0	43	104	0	74	14779
2026-01-25 07:21:27.69	62.22	3.80	-52.1	-63.8	3.8	8.46e-01	0	43	104	0	74	14957
2026-01-25 07:21:28.70	62.15	3.86	-52.1	-63.9	3.8	8.47e-01	0	43	104	0	74	15135
2026-01-25 07:21:29.71	62.08	3.92	-52.1	-64.0	3.8	8.45e-01	0	43	104	0	74	15266
2026-01-25 07:21:30.72	62.00	3.98	-52.1	-63.8	3.8	8.46e-01	0	43	104	0	74	14918
2026-01-25 07:21:31.73	61.93	4.04	-52.0	-63.2	3.8	8.45e-01	0	43	104	0	74	13941
2026-01-25 07:21:32.74	61.86	4.11	-51.9	-62.2	3.8	8.45e-01	0	43	104	0	74	12505
2026-01-25 07:21:33.74	61.78	4.17	-51.8	-61.1	4.0	8.45e-01	0	43	104	0	74	10965
2026-01-25 07:21:34.75	61.71	4.23	-51.6	-60.1	4.3	8.33e-01	0	43	0	0	74	9771
2026-01-25 07:21:35.76	61.64	4.29	-51.6	-59.5	4.4	8.25e-01	0	43	0	0	74	9169
2026-01-25 07:21:36.77	61.56	4.35	-51.6	-59.5	4.5	8.23e-01	0	43	0	0	74	9137
2026-01-25 07:21:37.78	61.49	4.41	-51.6	-60.0	4.3	8.24e-01	0	43	0	0	74	9666
2026-01-25 07:21:38.79	61.41	4.47	-51.5	-59.5	4.5	8.22e-01	0	43	0	0	74	9074
2026-01-25 07:21:39.80	61.33	4.53	-51.5	-59.1	4.7	8.15e-01	0	43	0	0	74	8671
2026-01-25 07:21:40.80	61.26	4.59	-51.0	-57.0	5.9	5.59e-01	0	43	0	1048576	74	6859
2026-01-25 07:21:41.81	61.18	4.65	-50.3	-55.0	7.7	1.62e-01	0	43	0	6291456	72	6102
2026-01-25 07:21:42.82	61.11	4.71	-49.4	-52.8	10.1	1.33e-02	0	44	0	11534336	70	5291
2026-01-25 07:21:43.83	61.03	4.78	-48.6	-51.3	11.6	1.85e-03	0	44	0	17825792	69	4725
2026-01-25 07:21:44.84	60.95	4.84	-47.4	-49.6	13.3	9.49e-05	0	43	0	23068672	66	4633
2026-01-25 07:21:45.85	60.88	4.90	-46.9	-48.8	14.1	4.50e-06	0	43	0	28311552	65	4475
2026-01-25 07:21:46.86	60.80	4.96	-46.2	-48.0	15.0	0.00e+00	0	43	0	34603008	64	4295
2026-01-25 07:21:47.87	60.72	5.02	-46.1	-47.9	15.1	0.00e+00	0	44	0	40894464	64	4252
2026-01-25 07:21:48.88	60.64	5.08	-48.7	-51.6	11.3	1.14e-05	0	44	0	46137344	67	5521
2026-01-25 07:21:49.89	60.56	5.15	-48.6	-51.3	11.7	1.03e-03	0	43	0	51380224	68	5007
2026-01-25 07:21:50.90	60.48	5.21	-48.4	-51.1	11.9	0.00e+00	0	44	0	57671680	67	5194
2026-01-25 07:21:51.90	60.40	5.27	-43.5	-44.6	18.9	0.00e+00	0	44	0	62914560	58	4106
2026-01-25 07:21:52.91	60.32	5.33	-51.7	-61.0	4.1	2.00e-03	0	44	0	68157440	73	11438
2026-01-25 07:21:53.92	60.24	5.40	-43.8	-44.9	18.5	0.00e+00	0	44	0	69206016	59	4008
2026-01-25 07:21:54.93	60.16	5.46	-43.1	-44.1	19.4	0.00e+00	0	44	0	74448896	58	3891
2026-01-25 07:21:55.94	60.08	5.52	-43.2	-44.3	19.2	0.00e+00	0	44	0	80740352	58	3992
2026-01-25 07:21:56.95	60.00	5.58	-43.3	-44.4	19.2	0.00e+00	0	44	0	85983232	58	4017
2026-01-25 07:21:57.96	59.92	5.65	-43.2	-44.3	19.3	0.00e+00	0	43	0	92274688	58	3974
2026-01-25 07:21:58.97	59.84	5.71	-43.3	-44.4	19.2	0.00e+00	0	44	0	97517568	58	4005
2026-01-25 07:21:59.98	59.75	5.77	-43.2	-44.3	19.3	0.00e+00	0	44	0	103809024	58	3970
2026-01-25 07:22:00.98	59.67	5.83	-42.9	-43.9	19.7	0.00e+00	0	44	0	109051904	57	4017
2026-01-25 07:22:01.99	59.59	5.90	-43.1	-44.2	19.4	0.00e+00	0	44	0	114294784	57	4163
2026-01-25 07:22:03.00	59.50	5.96	-42.9	-44.0	19.6	0.00e+00	0	44	0	120586240	57	4067
2026-01-25 07:22:04.01	59.42	6.02	-43.0	-44.1	19.6	0.00e+00	0	44	0	125829120	57	4113
2026-01-25 07:22:05.02	59.33	6.09	-42.7	-43.8	19.9	0.00e+00	0	44	0	131072000	57	3959
2026-01-25 07:22:06.02	59.25	6.15	-42.9	-43.9	19.7	0.00e+00	0	44	0	137363456	57	4024
2026-01-25 07:22:07.03	59.17	6.21	-42.8	-43.8	19.8	0.00e+00	0	44	0	142606336	57	3999
2026-01-25 07:22:08.04	59.08	6.28	-42.9	-43.9	19.7	0.00e+00	0	44	0	147849216	57	4030
2026-01-25 07:22:09.05	58.99	6.34	-42.7	-43.7	19.9	0.00e+00	0	44	0	154140672	57	3933
2026-01-25 07:22:10.06	58.91	6.41	-42.9	-43.9	19.8	0.00e+00	0	44	0	160432128	57	4022
2026-01-25 07:22:11.06	58.82	6.47	-42.8	-43.8	19.9	0.00e+00	0	44	0	165675008	57	3965
2026-01-25 07:22:12.07	58.73	6.53	-42.8	-43.8	19.9	0.00e+00	0	44	0	170917888	57	3991
2026-01-25 07:22:13.08	58.65	6.60	-43.0	-44.0	19.7	0.00e+00	0	44	0	177209344	57	4077
2026-01-25 07:22:14.09	58.56	6.66	-42.7	-43.8	20.0	0.00e+00	0	44	0	182452224	57	3959
2026-01-25 07:22:15.10	58.47	6.73	-42.7	-43.7	20.0	0.00e+00	0	44	0	188743680	57	3951
2026-01-25 07:22:16.11	58.38	6.79	-42.9	-43.9	19.8	0.00e+00	0	44	0	193986560	57	4038
2026-01-25 07:22:17.12	58.29	6.86	-42.9	-43.9	19.8	0.00e+00	0	44	0	199229440	57	4028
2026-01-25 07:22:18.13	58.20	6.92	-42.9	-43.9	19.8	0.00e+00	0	44	0	205520896	57	4047
2026-01-25 07:22:19.14	58.11	6.98	-43.0	-44.0	19.7	0.00e+00	0	44	0	210763776	57	4080
2026-01-25 07:22:20.14	58.02	7.05	-42.9	-43.9	19.8	0.00e+00	0	44	0	216006656	57	4033
2026-01-25 07:22:21.15	57.93	7.11	-42.8	-43.8	19.9	0.00e+00	0	44	0	222298112	57	3999
2026-01-25 07:22:22.16	57.84	7.18	-42.8	-43.8	19.9	0.00e+00	0	44	0	228589568	57	3986
2026-01-25 07:22:23.17	57.75	7.24	-42.8	-43.8	19.9	0.00e+00	0	44	0	233832448	57	3959
2026-01-25 07:22:24.18	57.66	7.31	-42.9	-43.9	19.8	0.00e+00	0	44	0	239075328	57	4038
2026-01-25 07:22:25.19	57.56	7.37	-42.8	-43.8	20.0	0.00e+00	0	44	0	245366784	57	3980
2026-01-25 07:22:26.20	57.47	7.44	-42.6	-43.6	20.2	0.00e+00	0	44	0	250609664	57	3877
2026-01-25 07:22:27.21	57.38	7.51	-42.6	-43.5	20.2	0.00e+00	0	44	0	255852544	57	3860
2026-01-25 07:22:28.22	57.28	7.57	-42.5	-43.5	20.3	0.00e+00	0	44	0	262144000	57	3845
2026-01-25 07:22:29.23	57.19	7.64	-42.5	-43.5	20.3	0.00e+00	0	44	0	267386880	56	4052
2026-01-25 07:22:30.24	57.09	7.70	-42.6	-43.6	20.2	0.00e+00	0	44	0	273678336	56	4125
2026-01-25 07:22:31.25	57.00	7.77	-42.6	-43.5	20.3	0.00e+00	0	44	0	278921216	56	4091
2026-01-25 07:22:32.26	56.90	7.84	-42.5	-43.4	20.3	0.00e+00	0	44	0	285212672	56	4043
2026-01-25 07:22:33.27	56.81	7.90	-42.4	-43.4	20.4	0.00e+00	0	44	0	290455552	56	4021
2026-01-25 07:22:34.28	56.71	7.97	-42.4	-43.3	20.5	0.00e+00	0	44	0	296747008	56	3998
2026-01-25 07:22:35.29	56.61	8.03	-42.2	-43.2	20.6	0.00e+00	0	44	0	301989888	56	3922
2026-01-25 07:22:36.30	56.52	8.10	-42.2	-43.2	20.7	0.00e+00	0	44	0	307232768	56	3921
2026-01-25 07:22:37.31	56.42	8.17	-42.2	-43.2	20.6	0.00e+00	0	44	0	313524224	56	3926
2026-01-25 07:22:38.31	56.32	8.23	-42.2	-43.1	20.7	0.00e+00	0	44	0	318767104	56	3906
2026-01-25 07:22:39.32	56.22	8.30	-42.1	-43.0	20.8	0.00e+00	0	44	0	324009984	56	3866
2026-01-25 07:22:40.33	56.12	8.37	-42.2	-43.1	20.7	0.00e+00	0	44	0	330301440	56	3902
2026-01-25 07:22:41.33	56.02	8.43	-42.2	-43.1	20.7	0.00e+00	0	44	0	335544320	56	3892
2026-01-25 07:22:42.34	55.92	8.50	-42.2	-43.2	20.7	0.00e+00	0	44	0	340787200	56	3923
2026-01-25 07:22:43.35	55.82	8.57	-42.1	-43.0	20.8	0.00e+00	0	44	0	347078656	56	3858
2026-01-25 07:22:44.36	55.72	8.63	-42.3	-43.2	20.6	0.00e+00	0	44	0	353370112	56	3957
2026-01-25 07:22:45.37	55.62	8.70	-42.3	-43.3	20.6	0.00e+00	0	44	0	358612992	56	3962
2026-01-25 07:22:46.38	55.52	8.77	-42.2	-43.2	20.7	0.00e+00	0	44	0	363855872	56	3927
2026-01-25 07:22:47.39	55.42	8.84	-42.3	-43.3	20.6	0.00e+00	0	44	0	370147328	56	3962
2026-01-25 07:22:48.40	55.31	8.90	-42.3	-43.2	20.6	0.00e+00	0	44	0	375390208	56	3952
2026-01-25 07:22:49.41	55.21	8.97	-42.2	-43.2	20.7	0.00e+00	0	44	0	381681664	56	3925
2026-01-25 07:22:50.42	55.10	9.04	-42.3	-43.2	20.7	0.00e+00	0	44	0	386924544	56	3932
2026-01-25 07:22:51.42	55.00	9.11	-42.2	-43.1	20.8	0.00e+00	0	44	0	392167424	56	3887
2026-01-25 07:22:52.43	54.90	9.17	-42.1	-43.0	20.9	0.00e+00	0	44	0	398458880	56	3842
2026-01-25 07:22:53.44	54.79	9.24	-42.2	-43.1	20.8	0.00e+00	0	44	0	403701760	56	3887
2026-01-25 07:22:54.45	54.68	9.31	-42.1	-43.0	20.9	0.00e+00	0	44	0	408944640	56	3865
2026-01-25 07:22:55.46	54.58	9.38	-42.2	-43.1	20.8	0.00e+00	0	44	0	415236096	56	3884
2026-01-25 07:22:56.47	54.47	9.45	-42.4	-43.3	20.6	0.00e+00	0	44	0	421527552	56	3989
2026-01-25 07:22:57.48	54.36	9.51	-42.0	-42.9	21.0	0.00e+00	0	44	0	426770432	56	3823
2026-01-25 07:22:58.49	54.25	9.58	-42.0	-42.9	21.0	0.00e+00	0	44	0	432013312	56	3820
2026-01-25 07:22:59.50	54.15	9.65	-42.0	-42.9	20.9	0.00e+00	0	44	0	438304768	55	4031
2026-01-25 07:23:00.51	54.04	9.72	-42.0	-43.0	20.9	0.00e+00	0	44	0	443547648	55	4065
2026-01-25 07:23:01.52	53.93	9.79	-42.1	-43.0	20.8	0.00e+00	0	44	0	448790528	55	4096
2026-01-25 07:23:02.53	53.82	9.86	-42.1	-43.0	20.8	0.00e+00	0	44	0	455081984	55	4085
2026-01-25 07:23:03.54	53.70	9.93	-42.1	-43.0	20.8	0.00e+00	0	44	0	460324864	55	4073
2026-01-25 07:23:04.54	53.59	9.99	-42.0	-42.9	21.0	0.00e+00	0	44	0	466616320	55	4019
2026-01-25 07:23:05.55	53.48	10.06	-41.9	-42.8	21.0	0.00e+00	0	44	0	471859200	55	3999
2026-01-25 07:23:06.57	53.37	10.13	-41.8	-42.7	21.1	0.00e+00	0	44	0	478150656	55	3957
2026-01-25 07:23:07.57	53.26	10.20	-41.9	-42.8	21.0	0.00e+00	0	44	0	483393536	55	4001
2026-01-25 07:23:08.58	53.14	10.27	-41.9	-42.9	21.0	0.00e+00	0	44	0	489684992	55	4006
2026-01-25 07:23:09.59	53.03	10.34	-41.9	-42.8	21.1	0.00e+00	0	44	0	494927872	55	3963
2026-01-25 07:23:10.60	52.91	10.41	-41.7	-42.6	21.2	0.00e+00	0	44	0	500170752	55	3892
2026-01-25 07:23:11.60	52.80	10.48	-41.6	-42.5	21.3	0.00e+00	0	44	0	506462208	55	3855
2026-01-25 07:23:12.61	52.68	10.55	-41.7	-42.6	21.3	0.00e+00	0	44	0	511705088	55	3878
2026-01-25 07:23:13.62	52.57	10.62	-41.5	-42.4	21.5	0.00e+00	0	44	0	516947968	55	3791
2026-01-25 07:23:14.63	52.45	10.69	-41.7	-42.6	21.3	0.00e+00	0	44	0	523239424	54	4117
2026-01-25 07:23:15.64	52.33	10.76	-41.7	-42.6	21.3	0.00e+00	0	44	0	528482304	54	4114
2026-01-25 07:23:16.64	52.22	10.83	-41.9	-42.8	21.1	0.00e+00	0	44	0	533725184	54	4233
2026-01-25 07:23:17.65	52.10	10.90	-41.7	-42.6	21.3	0.00e+00	0	44	0	540016640	54	4134
2026-01-25 07:23:18.66	51.98	10.97	-41.7	-42.6	21.3	0.00e+00	0	44	0	546308096	54	4113
2026-01-25 07:23:19.67	51.86	11.04	-41.6	-42.5	21.4	0.00e+00	0	44	0	551550976	54	4080
2026-01-25 07:23:20.68	51.74	11.11	-41.5	-42.4	21.5	0.00e+00	0	44	0	556793856	54	4043
2026-01-25 07:23:21.69	51.62	11.18	-41.5	-42.4	21.5	0.00e+00	0	44	0	563085312	54	4019
2026-01-25 07:23:22.70	51.49	11.25	-41.5	-42.4	21.5	0.00e+00	0	44	0	568328192	54	4043
2026-01-25 07:23:23.70	51.37	11.32	-41.5	-42.4	21.5	0.00e+00	0	44	0	574619648	54	4008
2026-01-25 07:23:24.71	51.25	11.39	-41.4	-42.2	21.7	0.00e+00	0	44	0	579862528	54	3942
2026-01-25 07:23:25.72	51.13	11.46	-41.3	-42.2	21.7	0.00e+00	0	44	0	585105408	54	3933
2026-01-25 07:23:26.73	51.00	11.53	-41.4	-42.2	21.7	0.00e+00	0	44	0	591396864	54	3953
2026-01-25 07:23:27.74	50.88	11.60	-41.2	-42.1	21.9	0.00e+00	0	44	0	596639744	54	3869
2026-01-25 07:23:28.75	50.75	11.67	-41.3	-42.1	21.8	0.00e+00	0	44	0	601882624	54	3897
2026-01-25 07:23:29.76	50.63	11.74	-41.4	-42.2	21.7	0.00e+00	0	44	0	608174080	54	3951
2026-01-25 07:23:30.77	50.50	11.81	-41.4	-42.2	21.7	0.00e+00	0	44	0	614465536	54	3957
2026-01-25 07:23:31.78	50.37	11.88	-41.3	-42.1	21.8	0.00e+00	0	44	0	619708416	54	3908
2026-01-25 07:23:32.79	50.25	11.95	-41.1	-42.0	21.9	0.00e+00	0	44	0	624951296	54	3840
2026-01-25 07:23:33.79	50.12	12.02	-41.1	-42.0	22.0	0.00e+00	0	44	0	631242752	54	3835
2026-01-25 07:23:34.80	49.99	12.10	-41.1	-41.9	22.0	0.00e+00	0	45	0	636485632	54	3817
2026-01-25 07:23:35.81	49.86	12.17	-41.2	-42.1	21.9	0.00e+00	0	44	0	641728512	54	3872
2026-01-25 07:23:36.82	49.73	12.24	-41.3	-42.1	21.8	0.00e+00	0	45	0	648019968	54	3902
2026-01-25 07:23:37.83	49.60	12.31	-41.2	-42.1	21.9	0.00e+00	0	44	0	653262848	54	3882
2026-01-25 07:23:38.84	49.47	12.38	-41.2	-42.1	21.9	0.00e+00	0	44	0	659554304	54	3869
2026-01-25 07:23:39.85	49.33	12.45	-41.1	-41.9	22.0	0.00e+00	0	45	0	664797184	54	3823
2026-01-25 07:23:40.86	49.20	12.52	-41.1	-42.0	22.0	0.00e+00	0	45	0	671088640	54	3840
2026-01-25 07:23:41.86	49.07	12.59	-41.0	-41.9	22.1	0.00e+00	0	44	0	676331520	54	3785
2026-01-25 07:23:42.87	48.93	12.67	-41.0	-41.9	22.1	0.00e+00	0	44	0	682622976	54	3791
2026-01-25 07:23:43.88	48.80	12.74	-41.0	-41.8	22.1	0.00e+00	0	45	0	687865856	54	3770
2026-01-25 07:23:44.89	48.66	12.81	-41.0	-41.8	22.1	0.00e+00	0	45	0	693108736	53	3987
2026-01-25 07:23:45.90	48.53	12.88	-40.9	-41.8	22.2	0.00e+00	0	44	0	699400192	53	3969
2026-01-25 07:23:46.91	48.39	12.95	-40.9	-41.8	22.2	0.00e+00	0	45	0	704643072	53	3973
2026-01-25 07:23:47.91	48.25	13.02	-40.9	-41.7	22.2	0.00e+00	0	44	0	709885952	53	3953
2026-01-25 07:23:48.92	48.12	13.10	-40.9	-41.8	22.1	0.00e+00	0	44	0	716177408	53	3974
2026-01-25 07:23:49.93	47.98	13.17	-40.8	-41.6	22.3	0.00e+00	0	45	0	721420288	53	3894
2026-01-25 07:23:50.94	47.84	13.24	-40.7	-41.5	22.5	0.00e+00	0	45	0	726663168	53	3835
2026-01-25 07:23:51.94	47.70	13.31	-40.7	-41.6	22.4	0.00e+00	0	45	0	732954624	53	3876
2026-01-25 07:23:52.95	47.56	13.38	-40.7	-41.5	22.5	0.00e+00	0	44	0	738197504	53	3837
2026-01-25 07:23:53.96	47.41	13.46	-40.6	-41.4	22.5	0.00e+00	0	45	0	744488960	53	3808
2026-01-25 07:23:54.97	47.27	13.53	-40.7	-41.5	22.5	0.00e+00	0	45	0	749731840	53	3836
2026-01-25 07:23:55.98	47.13	13.60	-40.6	-41.4	22.5	0.00e+00	0	45	0	756023296	53	3814
2026-01-25 07:23:56.99	46.98	13.67	-40.6	-41.5	22.5	0.00e+00	0	44	0	761266176	53	3825
2026-01-25 07:23:58.00	46.84	13.75	-40.6	-41.4	22.6	0.00e+00	0	45	0	767557632	53	3805
2026-01-25 07:23:59.00	46.70	13.82	-40.6	-41.4	22.6	0.00e+00	0	45	0	772800512	53	3791
2026-01-25 07:24:00.01	46.55	13.89	-40.6	-41.4	22.6	0.00e+00	0	44	0	778043392	53	3789
2026-01-25 07:24:01.02	46.40	13.96	-40.5	-41.4	22.6	0.00e+00	0	45	0	784334848	53	3787
2026-01-25 07:24:02.03	46.26	14.03	-40.6	-41.4	22.5	0.00e+00	0	45	0	789577728	53	3815
2026-01-25 07:24:03.04	46.11	14.11	-40.6	-41.4	22.6	0.00e+00	0	45	0	794820608	53	3798
2026-01-25 07:24:04.05	45.96	14.18	-40.5	-41.3	22.7	0.00e+00	0	45	0	801112064	52	3961
2026-01-25 07:24:05.06	45.81	14.25	-40.4	-41.2	22.7	0.00e+00	0	45	0	807403520	52	3950
2026-01-25 07:24:06.06	45.66	14.32	-40.6	-41.4	22.6	0.00e+00	0	45	0	812646400	52	4016
2026-01-25 07:24:07.07	45.51	14.40	-40.5	-41.3	22.6	0.00e+00	0	45	0	817889280	52	3991
2026-01-25 07:24:08.08	45.36	14.47	-40.6	-41.4	22.6	0.00e+00	0	45	0	824180736	52	4021
2026-01-25 07:24:09.09	45.20	14.54	-40.6	-41.4	22.6	0.00e+00	0	45	0	829423616	52	4021
2026-01-25 07:24:10.10	45.05	14.61	-40.4	-41.2	22.8	0.00e+00	0	45	0	834666496	52	3937
2026-01-25 07:24:11.11	44.89	14.69	-40.3	-41.1	22.9	0.00e+00	0	45	0	840957952	52	3886
2026-01-25 07:24:12.12	44.74	14.76	-40.4	-41.2	22.8	0.00e+00	0	45	0	846200832	52	3933
2026-01-25 07:24:13.12	44.59	14.83	-40.3	-41.1	22.9	0.00e+00	0	45	0	852492288	52	3903
2026-01-25 07:24:14.13	44.43	14.90	-40.3	-41.1	22.9	0.00e+00	0	45	0	857735168	52	3878
2026-01-25 07:24:15.14	44.27	14.98	-40.2	-41.0	23.0	0.00e+00	0	45	0	862978048	52	3861
2026-01-25 07:24:16.15	44.11	15.05	-40.3	-41.1	22.9	0.00e+00	0	45	0	869269504	52	3870
2026-01-25 07:24:17.16	43.95	15.12	-40.2	-40.9	23.0	0.00e+00	0	45	0	875560960	52	3824
2026-01-25 07:24:18.17	43.79	15.19	-40.1	-40.9	23.1	0.00e+00	0	45	0	880803840	52	3807
2026-01-25 07:24:19.18	43.63	15.27	-40.2	-41.0	23.0	0.00e+00	0	45	0	886046720	52	3827
2026-01-25 07:24:20.19	43.47	15.34	-40.1	-40.9	23.1	0.00e+00	0	45	0	892338176	52	3809
2026-01-25 07:24:21.20	43.31	15.41	-40.2	-41.0	23.0	0.00e+00	0	45	0	897581056	52	3857
2026-01-25 07:24:22.21	43.15	15.48	-40.3	-41.1	22.9	0.00e+00	0	45	0	902823936	52	3898
2026-01-25 07:24:23.22	42.98	15.55	-40.2	-41.0	23.0	0.00e+00	0	45	0	909115392	52	3851
2026-01-25 07:24:24.23	42.82	15.63	-40.2	-41.0	23.0	0.00e+00	0	45	0	914358272	52	3845
2026-01-25 07:24:25.24	42.65	15.70	-40.2	-41.0	23.0	0.00e+00	0	45	0	919601152	52	3854
2026-01-25 07:24:26.25	42.49	15.77	-40.2	-41.0	23.0	0.00e+00	0	45	0	925892608	52	3825
2026-01-25 07:24:27.26	42.32	15.84	-40.1	-40.8	23.2	0.00e+00	0	45	0	932184064	52	3779
2026-01-25 07:24:28.27	42.15	15.92	-40.1	-40.9	23.1	0.00e+00	0	45	0	937426944	52	3781
2026-01-25 07:24:29.28	41.98	15.99	-40.0	-40.8	23.2	0.00e+00	0	45	0	942669824	52	3761
2026-01-25 07:24:30.28	41.81	16.06	-40.1	-40.9	23.1	0.00e+00	0	45	0	948961280	52	3814
2026-01-25 07:24:31.29	41.64	16.13	-40.0	-40.8	23.3	0.00e+00	0	45	0	954204160	51	3987
2026-01-25 07:24:32.30	41.47	16.20	-40.1	-40.9	23.2	0.00e+00	0	45	0	960495616	51	4018
2026-01-25 07:24:33.31	41.30	16.28	-40.2	-40.9	23.2	0.00e+00	0	45	0	965738496	51	4046
2026-01-25 07:24:34.32	41.13	16.35	-40.2	-40.9	23.2	0.00e+00	0	45	0	970981376	51	4045
2026-01-25 07:24:35.33	40.95	16.42	-40.2	-41.0	23.1	0.00e+00	0	45	0	977272832	51	4065
2026-01-25 07:24:36.34	40.78	16.49	-40.2	-41.0	23.1	0.00e+00	0	45	0	982515712	51	4083
2026-01-25 07:24:37.34	40.61	16.56	-40.3	-41.1	23.0	0.00e+00	0	45	0	987758592	51	4112
2026-01-25 07:24:38.35	40.43	16.64	-40.2	-40.9	23.2	0.00e+00	0	45	0	994050048	51	4049
2026-01-25 07:24:39.36	40.25	16.71	-40.1	-40.9	23.2	0.00e+00	0	45	0	1000341504	51	4042
2026-01-25 07:24:40.37	40.07	16.78	-40.2	-41.0	23.1	0.00e+00	0	45	0	1005584384	51	4080
2026-01-25 07:24:41.38	39.90	16.85	-40.2	-41.0	23.2	0.00e+00	0	45	0	1010827264	51	4060
2026-01-25 07:24:42.38	39.72	16.92	-40.2	-41.0	23.2	0.00e+00	0	45	0	1017118720	51	4052
2026-01-25 07:24:43.39	39.54	16.99	-40.0	-40.8	23.3	0.00e+00	0	45	0	1022361600	51	3969
2026-01-25 07:24:44.40	39.36	17.06	-40.0	-40.8	23.3	0.00e+00	0	45	0	1027604480	51	3979
2026-01-25 07:24:45.41	39.17	17.13	-39.8	-40.6	23.5	0.00e+00	0	45	0	1033895936	51	3889
2026-01-25 07:24:46.42	38.99	17.21	-39.8	-40.5	23.6	0.00e+00	0	45	0	1039138816	51	3854
2026-01-25 07:24:47.43	38.81	17.28	-39.8	-40.6	23.5	0.00e+00	0	45	0	1045430272	51	3878
2026-01-25 07:24:48.44	38.62	17.35	-39.7	-40.5	23.6	0.00e+00	0	45	0	1050673152	51	3829
2026-01-25 07:24:49.45	38.44	17.42	-39.8	-40.5	23.5	0.00e+00	0	45	0	1055916032	51	3865
2026-01-25 07:24:50.46	38.25	17.49	-39.8	-40.5	23.6	0.00e+00	0	45	0	1062207488	51	3868
2026-01-25 07:24:51.46	38.06	17.56	-39.8	-40.6	23.5	0.00e+00	0	45	0	1068498944	51	3873
2026-01-25 07:24:52.47	37.87	17.63	-39.6	-40.4	23.7	0.00e+00	0	45	0	1073741824	51	3792
2026-01-25 07:24:53.48	37.68	17.70	-39.6	-40.3	23.8	0.00e+00	0	45	0	1078984704	51	3768
2026-01-25 07:24:54.49	37.49	17.77	-39.5	-40.3	23.8	0.00e+00	0	45	0	1085276160	51	3749
2026-01-25 07:24:55.50	37.30	17.84	-39.6	-40.3	23.8	0.00e+00	0	45	0	1090519040	51	3764
2026-01-25 07:24:56.50	37.11	17.91	-39.6	-40.4	23.7	0.00e+00	0	45	0	1095761920	51	3784
2026-01-25 07:24:57.51	36.92	17.98	-39.5	-40.3	23.8	0.00e+00	0	45	0	1102053376	51	3751
2026-01-25 07:24:58.52	36.73	18.05	-39.6	-40.4	23.7	0.00e+00	0	45	0	1107296256	51	3801
2026-01-25 07:24:59.53	36.53	18.12	-39.7	-40.5	23.6	0.00e+00	0	45	0	1112539136	51	3828
2026-01-25 07:25:00.54	36.34	18.19	-39.5	-40.2	23.9	0.00e+00	0	45	0	1118830592	51	3732
2026-01-25 07:25:01.54	36.14	18.26	-39.5	-40.2	23.9	0.00e+00	0	45	0	1124073472	50	3943
2026-01-25 07:25:02.55	35.94	18.33	-39.3	-40.0	24.0	0.00e+00	0	45	0	1130364928	50	3863
2026-01-25 07:25:03.56	35.75	18.39	-39.3	-40.0	24.0	0.00e+00	0	45	0	1135607808	50	3865
2026-01-25 07:25:04.57	35.55	18.46	-39.4	-40.1	23.9	0.00e+00	0	45	0	1141899264	50	3908
2026-01-25 07:25:05.58	35.35	18.53	-39.3	-40.0	24.0	0.00e+00	0	45	0	1147142144	50	3866
2026-01-25 07:25:06.58	35.15	18.60	-39.1	-39.8	24.3	0.00e+00	0	45	0	1153433600	50	3755
2026-01-25 07:25:07.59	34.94	18.67	-39.1	-39.8	24.2	0.00e+00	0	45	0	1158676480	50	3774
2026-01-25 07:25:08.60	34.74	18.74	-39.2	-39.9	24.1	0.00e+00	0	45	0	1163919360	50	3817
2026-01-25 07:25:09.61	34.54	18.80	-39.2	-40.0	24.1	0.00e+00	0	45	0	1170210816	50	3829
2026-01-25 07:25:10.62	34.33	18.87	-39.3	-40.0	24.0	0.00e+00	0	45	0	1175453696	50	3860
2026-01-25 07:25:11.62	34.13	18.94	-39.2	-40.0	24.1	0.00e+00	0	45	0	1180696576	50	3842
2026-01-25 07:25:12.63	33.92	19.00	-39.4	-40.1	24.0	0.00e+00	0	45	0	1186988032	50	3893
2026-01-25 07:25:13.64	33.71	19.07	-39.3	-40.1	24.0	0.00e+00	0	45	0	1192230912	50	3878
2026-01-25 07:25:14.65	33.51	19.14	-39.1	-39.9	24.2	0.00e+00	0	45	0	1197473792	50	3796
2026-01-25 07:25:15.66	33.30	19.21	-39.2	-39.9	24.2	0.00e+00	0	45	0	1203765248	50	3813
2026-01-25 07:25:16.66	33.09	19.27	-39.2	-39.9	24.2	0.00e+00	0	45	0	1210056704	50	3814
2026-01-25 07:25:17.67	32.88	19.34	-39.1	-39.8	24.2	0.00e+00	0	45	0	1215299584	50	3778
2026-01-25 07:25:18.68	32.66	19.40	-39.1	-39.8	24.3	0.00e+00	0	45	0	1220542464	50	3763
2026-01-25 07:25:19.69	32.45	19.47	-39.1	-39.8	24.3	0.00e+00	0	45	0	1226833920	50	3778
2026-01-25 07:25:20.70	32.24	19.53	-39.0	-39.7	24.4	0.00e+00	0	45	0	1232076800	50	3735
2026-01-25 07:25:21.70	32.02	19.60	-39.0	-39.8	24.3	0.00e+00	0	45	0	1238368256	50	3750
2026-01-25 07:25:22.71	31.81	19.66	-39.0	-39.8	24.4	0.00e+00	0	45	0	1243611136	50	3745
2026-01-25 07:25:23.72	31.59	19.73	-39.1	-39.8	24.4	0.00e+00	0	45	0	1248854016	50	3763
2026-01-25 07:25:24.72	31.38	19.79	-39.2	-39.9	24.2	0.00e+00	0	45	0	1255145472	50	3807
2026-01-25 07:25:25.73	31.16	19.86	-39.1	-39.9	24.3	0.00e+00	0	45	0	1260388352	50	3787
2026-01-25 07:25:26.74	30.94	19.92	-39.1	-39.8	24.3	0.00e+00	0	45	0	1265631232	50	3769
2026-01-25 07:25:27.75	30.72	19.98	-39.0	-39.7	24.4	0.00e+00	0	45	0	1271922688	50	3733
2026-01-25 07:25:28.76	30.50	20.05	-38.9	-39.6	24.5	0.00e+00	0	45	0	1278214144	49	3913
2026-01-25 07:25:29.76	30.28	20.11	-38.8	-39.5	24.6	0.00e+00	0	45	0	1283457024	49	3847
2026-01-25 07:25:30.77	30.05	20.17	-38.7	-39.4	24.6	0.00e+00	0	45	0	1288699904	49	3813
2026-01-25 07:25:31.78	29.83	20.23	-38.8	-39.6	24.5	0.00e+00	0	45	0	1294991360	49	3870
2026-01-25 07:25:32.79	29.60	20.30	-38.9	-39.6	24.5	0.00e+00	0	45	0	1300234240	49	3896
2026-01-25 07:25:33.80	29.38	20.36	-39.0	-39.7	24.4	0.00e+00	0	45	0	1305477120	49	3937
2026-01-25 07:25:34.80	29.15	20.42	-39.0	-39.8	24.3	0.00e+00	0	45	0	1311768576	49	3973
2026-01-25 07:25:35.81	28.92	20.48	-39.0	-39.8	24.3	0.00e+00	0	45	0	1317011456	49	3968
2026-01-25 07:25:36.82	28.70	20.54	-39.1	-39.8	24.3	0.00e+00	0	45	0	1323302912	49	3979
2026-01-25 07:25:37.83	28.47	20.60	-39.1	-39.8	24.3	0.00e+00	0	45	0	1328545792	49	3976
2026-01-25 07:25:38.84	28.24	20.66	-39.1	-39.8	24.3	0.00e+00	0	45	0	1333788672	49	3984
2026-01-25 07:25:39.84	28.01	20.72	-39.0	-39.7	24.4	0.00e+00	0	45	0	1340080128	49	3957
2026-01-25 07:25:40.85	27.77	20.78	-38.8	-39.5	24.5	0.00e+00	0	45	0	1345323008	49	3864
2026-01-25 07:25:41.86	27.54	20.84	-38.8	-39.5	24.6	0.00e+00	0	45	0	1351614464	49	3847
2026-01-25 07:25:42.86	27.31	20.90	-38.8	-39.5	24.6	0.00e+00	0	45	0	1356857344	49	3865
2026-01-25 07:25:43.87	27.07	20.95	-38.8	-39.6	24.5	0.00e+00	0	45	0	1363148800	49	3872
2026-01-25 07:25:44.88	26.84	21.01	-39.0	-39.7	24.4	0.00e+00	0	45	0	1368391680	49	3941
2026-01-25 07:25:45.89	26.60	21.07	-38.8	-39.5	24.6	0.00e+00	0	45	0	1373634560	49	3849
2026-01-25 07:25:46.90	26.36	21.13	-38.7	-39.4	24.7	0.00e+00	0	45	0	1379926016	49	3812
2026-01-25 07:25:47.90	26.13	21.18	-38.7	-39.4	24.7	0.00e+00	0	45	0	1385168896	49	3788
2026-01-25 07:25:48.91	25.89	21.24	-38.7	-39.4	24.7	0.00e+00	0	45	0	1390411776	49	3795
2026-01-25 07:25:49.92	25.65	21.29	-38.8	-39.5	24.6	0.00e+00	0	45	0	1396703232	49	3830
2026-01-25 07:25:50.93	25.41	21.35	-38.7	-39.4	24.7	0.00e+00	0	45	0	1401946112	49	3790
2026-01-25 07:25:51.94	25.16	21.41	-38.8	-39.5	24.6	0.00e+00	0	45	0	1408237568	49	3860
2026-01-25 07:25:52.95	24.92	21.46	-38.9	-39.6	24.6	0.00e+00	0	45	0	1413480448	49	3886
2026-01-25 07:25:53.95	24.68	21.51	-39.0	-39.7	24.4	0.00e+00	0	45	0	1418723328	49	3937
2026-01-25 07:25:54.96	24.43	21.57	-38.8	-39.5	24.6	0.00e+00	0	45	0	1425014784	49	3859
2026-01-25 07:25:55.97	24.19	21.62	-38.6	-39.3	24.8	0.00e+00	0	45	0	1431306240	49	3767
2026-01-25 07:25:56.97	23.94	21.67	-38.6	-39.3	24.8	0.00e+00	0	45	0	1436549120	49	3759
2026-01-25 07:25:57.98	23.70	21.73	-38.6	-39.3	24.8	0.00e+00	0	45	0	1441792000	49	3760
2026-01-25 07:25:58.99	23.45	21.78	-38.6	-39.4	24.8	0.00e+00	0	45	0	1448083456	49	3782
2026-01-25 07:26:00.00	23.20	21.83	-38.8	-39.5	24.6	0.00e+00	0	45	0	1453326336	49	3841
2026-01-25 07:26:01.00	22.95	21.88	-38.8	-39.6	24.6	0.00e+00	0	45	0	1458569216	49	3873
2026-01-25 07:26:02.01	22.70	21.93	-38.7	-39.4	24.7	0.00e+00	0	45	0	1464860672	49	3804
2026-01-25 07:26:03.02	22.45	21.98	-38.7	-39.5	24.7	0.00e+00	0	45	0	1470103552	49	3831
2026-01-25 07:26:04.03	22.20	22.03	-38.6	-39.3	24.8	0.00e+00	0	45	0	1475346432	49	3779
2026-01-25 07:26:05.04	21.95	22.08	-38.4	-39.1	25.0	0.00e+00	0	45	0	1481637888	48	3911
2026-01-25 07:26:06.04	21.69	22.13	-38.5	-39.2	24.9	0.00e+00	0	45	0	1486880768	48	3950
2026-01-25 07:26:07.05	21.44	22.17	-38.5	-39.2	24.9	0.00e+00	0	45	0	1493172224	48	3916
2026-01-25 07:26:08.06	21.18	22.22	-38.5	-39.2	24.9	0.00e+00	0	45	0	1498415104	48	3934
2026-01-25 07:26:09.07	20.93	22.27	-38.3	-39.0	25.1	0.00e+00	0	45	0	1504706560	48	3832
2026-01-25 07:26:10.08	20.67	22.32	-38.4	-39.1	25.0	0.00e+00	0	45	0	1509949440	48	3884
2026-01-25 07:26:11.08	20.41	22.36	-38.5	-39.2	24.9	0.00e+00	0	45	0	1516240896	48	3924
2026-01-25 07:26:12.09	20.16	22.41	-38.6	-39.3	24.8	0.00e+00	0	45	0	1521483776	48	3992
2026-01-25 07:26:13.10	19.90	22.45	-38.7	-39.4	24.7	0.00e+00	0	45	0	1526726656	48	4042
2026-01-25 07:26:14.11	19.64	22.49	-38.6	-39.3	24.8	0.00e+00	0	45	0	1533018112	48	3976
2026-01-25 07:26:15.12	19.38	22.54	-38.5	-39.2	24.9	0.00e+00	0	45	0	1538260992	48	3932
2026-01-25 07:26:16.12	19.12	22.58	-38.5	-39.2	24.9	0.00e+00	0	45	0	1543503872	48	3937
2026-01-25 07:26:17.13	18.85	22.62	-38.5	-39.2	24.9	0.00e+00	0	45	0	1549795328	48	3917
2026-01-25 07:26:18.14	18.59	22.67	-38.4	-39.1	25.0	0.00e+00	0	45	0	1555038208	48	3904
2026-01-25 07:26:19.15	18.33	22.71	-38.4	-39.1	25.0	0.00e+00	0	45	0	1560281088	48	3908
2026-01-25 07:26:20.16	18.06	22.75	-38.4	-39.1	25.0	0.00e+00	0	45	0	1566572544	48	3883
2026-01-25 07:26:21.16	17.80	22.79	-38.3	-39.0	25.1	0.00e+00	0	45	0	1572864000	48	3847
2026-01-25 07:26:22.17	17.54	22.83	-38.3	-39.0	25.1	0.00e+00	0	45	0	1578106880	48	3827
2026-01-25 07:26:23.18	17.27	22.87	-38.1	-38.8	25.3	0.00e+00	0	45	0	1583349760	48	3755
2026-01-25 07:26:24.19	17.00	22.90	-38.2	-38.9	25.2	0.00e+00	0	45	0	1589641216	48	3788
2026-01-25 07:26:25.20	16.73	22.94	-38.3	-39.0	25.1	0.00e+00	0	45	0	1594884096	48	3842
2026-01-25 07:26:26.20	16.47	22.98	-38.4	-39.1	25.1	0.00e+00	0	45	0	1601175552	48	3883
2026-01-25 07:26:27.21	16.20	23.02	-38.4	-39.2	25.0	0.00e+00	0	45	0	1606418432	48	3922
2026-01-25 07:26:28.22	15.93	23.05	-38.5	-39.2	25.0	0.00e+00	0	45	0	1611661312	48	3936
2026-01-25 07:26:29.23	15.66	23.09	-38.5	-39.2	24.9	0.00e+00	0	45	0	1617952768	48	3955
2026-01-25 07:26:30.24	15.39	23.12	-38.6	-39.3	24.9	0.00e+00	0	45	0	1623195648	48	3967
2026-01-25 07:26:31.25	15.12	23.16	-38.5	-39.2	24.9	0.00e+00	0	45	0	1628438528	48	3933
2026-01-25 07:26:32.25	14.85	23.19	-38.6	-39.3	24.9	0.00e+00	0	45	0	1634729984	48	3966
2026-01-25 07:26:33.26	14.57	23.22	-38.5	-39.2	25.0	0.00e+00	0	45	0	1641021440	48	3926
2026-01-25 07:26:34.27	14.30	23.25	-38.4	-39.1	25.0	0.00e+00	0	45	0	1646264320	48	3877
2026-01-25 07:26:35.28	14.03	23.28	-38.4	-39.1	25.0	0.00e+00	0	45	0	1651507200	48	3893
2026-01-25 07:26:36.29	13.75	23.32	-38.4	-39.1	25.1	0.00e+00	0	45	0	1657798656	48	3872
2026-01-25 07:26:37.29	13.48	23.34	-38.4	-39.1	25.1	0.00e+00	0	45	0	1663041536	48	3874
2026-01-25 07:26:38.30	13.21	23.37	-38.2	-38.9	25.2	0.00e+00	0	45	0	1668284416	48	3822
2026-01-25 07:26:39.31	12.93	23.40	-38.1	-38.8	25.3	0.00e+00	0	45	0	1674575872	48	3762
2026-01-25 07:26:40.32	12.65	23.43	-38.1	-38.8	25.3	0.00e+00	0	45	0	1679818752	48	3771
2026-01-25 07:26:41.32	12.38	23.46	-38.0	-38.7	25.4	0.00e+00	0	45	0	1686110208	48	3728
2026-01-25 07:26:42.33	12.10	23.48	-38.0	-38.7	25.4	0.00e+00	0	45	0	1691353088	48	3717
2026-01-25 07:26:43.34	11.82	23.51	-38.0	-38.7	25.4	0.00e+00	0	45	0	1696595968	48	3730
2026-01-25 07:26:44.35	11.55	23.54	-38.0	-38.7	25.4	0.00e+00	0	45	0	1702887424	48	3722
2026-01-25 07:26:45.36	11.27	23.56	-37.6	-38.3	25.3	0.00e+00	0	45	0	1709178880	47	3754
2026-01-25 07:26:46.36	10.99	23.58	-37.6	-38.3	25.3	0.00e+00	0	45	0	1714421760	47	3767
2026-01-25 07:26:47.37	10.71	23.61	-37.5	-38.2	25.4	0.00e+00	0	45	0	1719664640	47	3707
2026-01-25 07:26:48.38	10.43	23.63	-37.5	-38.3	25.3	0.00e+00	0	45	0	1725956096	46	3963
2026-01-25 07:26:49.39	10.15	23.65	-37.6	-38.3	25.3	0.00e+00	0	45	0	1731198976	46	3973
2026-01-25 07:26:50.40	9.87	23.67	-37.6	-38.4	25.2	0.00e+00	0	45	0	1736441856	46	4016
2026-01-25 07:26:51.40	9.59	23.69	-37.6	-38.3	25.2	0.00e+00	0	45	0	1742733312	46	3994
2026-01-25 07:26:52.41	9.31	23.71	-37.7	-38.4	25.1	0.00e+00	0	45	0	1747976192	46	4046
2026-01-25 07:26:53.42	9.03	23.73	-37.9	-38.6	25.0	0.00e+00	0	45	0	1753219072	46	4111
2026-01-25 07:26:54.43	8.75	23.75	-37.9	-38.7	25.0	0.00e+00	0	45	0	1759510528	46	4146
2026-01-25 07:26:55.44	8.46	23.76	-37.8	-38.5	25.1	0.00e+00	0	45	0	1764753408	46	4055
2026-01-25 07:26:56.44	8.18	23.78	-37.7	-38.4	25.2	0.00e+00	0	45	0	1771044864	46	4017
2026-01-25 07:26:57.45	7.90	23.80	-37.7	-38.4	25.1	0.00e+00	0	45	0	1776287744	46	4037
2026-01-25 07:26:58.46	7.62	23.81	-37.6	-38.3	25.3	0.00e+00	0	45	0	1782579200	46	3993
2026-01-25 07:26:59.47	7.33	23.83	-37.5	-38.3	25.3	0.00e+00	0	45	0	1787822080	46	3964
2026-01-25 07:27:00.48	7.05	23.84	-37.5	-38.2	25.3	0.00e+00	0	45	0	1794113536	46	3940
2026-01-25 07:27:01.48	6.77	23.85	-37.5	-38.2	25.3	0.00e+00	0	45	0	1799356416	46	3930
2026-01-25 07:27:02.49	6.48	23.86	-37.6	-38.3	25.3	0.00e+00	0	45	0	1804599296	46	3971
2026-01-25 07:27:03.50	6.20	23.87	-37.5	-38.2	25.4	0.00e+00	0	45	0	1810890752	46	3932
2026-01-25 07:27:04.51	5.91	23.88	-37.5	-38.2	25.3	0.00e+00	0	45	0	1816133632	46	3936
2026-01-25 07:27:05.52	5.63	23.89	-37.5	-38.3	25.3	0.00e+00	0	45	0	1821376512	46	3961
2026-01-25 07:27:06.53	5.34	23.90	-37.5	-38.2	25.3	0.00e+00	0	45	0	1827667968	46	3945
2026-01-25 07:27:07.53	5.06	23.91	-37.4	-38.1	25.4	0.00e+00	0	45	0	1832910848	46	3909
2026-01-25 07:27:08.54	4.78	23.92	-37.5	-38.2	25.3	0.00e+00	0	45	0	1838153728	46	3937
2026-01-25 07:27:09.55	4.49	23.93	-37.5	-38.2	25.3	0.00e+00	0	45	0	1844445184	46	3943
2026-01-25 07:27:10.56	4.20	23.93	-37.4	-38.2	25.4	0.00e+00	0	45	0	1850736640	46	3921
2026-01-25 07:27:11.56	3.92	23.94	-37.5	-38.2	25.3	0.00e+00	0	45	0	1855979520	46	3957
2026-01-25 07:27:12.57	3.64	23.94	-37.5	-38.2	25.3	0.00e+00	0	45	0	1861222400	46	3922
2026-01-25 07:27:13.58	3.35	23.94	-37.4	-38.2	25.4	0.00e+00	0	45	0	1867513856	46	3914
2026-01-25 07:27:14.59	3.06	23.95	-37.5	-38.2	25.3	0.00e+00	0	45	0	1872756736	46	3921
2026-01-25 07:27:15.60	2.78	23.95	-37.6	-38.3	25.3	0.00e+00	0	45	0	1879048192	46	3984
2026-01-25 07:27:16.60	2.49	23.95	-37.6	-38.3	25.3	0.00e+00	0	45	0	1884291072	46	3979
2026-01-25 07:27:17.61	2.21	23.95	-37.6	-38.3	25.3	0.00e+00	0	45	0	1889533952	46	3995
2026-01-25 07:27:18.62	1.92	23.95	-37.5	-38.2	25.4	0.00e+00	0	45	0	1895825408	46	3924
2026-01-25 07:27:19.63	1.64	23.95	-37.5	-38.2	25.4	0.00e+00	0	45	0	1901068288	46	3930
2026-01-25 07:27:20.64	1.35	23.95	-37.4	-38.1	25.4	0.00e+00	0	45	0	1906311168	46	3888
2026-01-25 07:27:21.64	1.07	23.94	-37.5	-38.2	25.3	0.00e+00	0	45	0	1912602624	46	3948
2026-01-25 07:27:22.65	0.78	23.94	-37.4	-38.1	25.4	0.00e+00	0	45	0	1917845504	46	3905
2026-01-25 07:27:23.66	0.50	23.94	-37.4	-38.1	25.4	0.00e+00	0	45	0	1924136960	46	3895
2026-01-25 07:27:24.67	0.21	23.93	-37.5	-38.2	25.3	0.00e+00	0	45	0	1929379840	46	3944
2026-01-25 07:27:25.68	359.92	23.93	-37.5	-38.2	25.3	0.00e+00	0	45	0	1935671296	46	3935
2026-01-25 07:27:26.68	359.64	23.92	-37.5	-38.2	25.3	0.00e+00	0	45	0	1940914176	46	3958
2026-01-25 07:27:27.69	359.36	23.91	-37.6	-38.3	25.3	0.00e+00	0	45	0	1946157056	46	3968
2026-01-25 07:27:28.70	359.07	23.90	-37.6	-38.4	25.3	0.00e+00	0	45	0	1952448512	46	4009
2026-01-25 07:27:29.71	358.79	23.89	-37.7	-38.4	25.1	0.00e+00	0	45	0	1957691392	46	4046
2026-01-25 07:27:30.72	358.50	23.89	-37.7	-38.4	25.2	0.00e+00	0	45	0	1963982848	46	4010
2026-01-25 07:27:31.72	358.22	23.87	-37.4	-38.2	25.4	0.00e+00	0	45	0	1969225728	46	3916
2026-01-25 07:27:32.73	357.93	23.86	-37.5	-38.2	25.3	0.00e+00	0	45	0	1974468608	46	3946
2026-01-25 07:27:33.74	357.65	23.85	-37.5	-38.3	25.3	0.00e+00	0	45	0	1980760064	46	3962
2026-01-25 07:27:34.75	357.37	23.84	-37.5	-38.2	25.4	0.00e+00	0	45	0	1986002944	46	3918
2026-01-25 07:27:35.76	357.08	23.83	-37.5	-38.2	25.3	0.00e+00	0	45	0	1992294400	46	3955
2026-01-25 07:27:36.76	356.80	23.81	-37.5	-38.3	25.3	0.00e+00	0	45	0	1997537280	46	3975
2026-01-25 07:27:37.77	356.52	23.80	-37.6	-38.3	25.2	0.00e+00	0	45	0	2003828736	46	3990
2026-01-25 07:27:38.78	356.23	23.78	-37.5	-38.2	25.3	0.00e+00	0	45	0	2009071616	46	3940
2026-01-25 07:27:39.79	355.95	23.76	-37.5	-38.2	25.3	0.00e+00	0	45	0	2014314496	46	3946
2026-01-25 07:27:40.80	355.67	23.75	-37.4	-38.1	25.4	0.00e+00	0	45	0	2020605952	46	3910
2026-01-25 07:27:41.80	355.39	23.73	-37.3	-38.1	25.4	0.00e+00	0	45	0	2025848832	46	3878
2026-01-25 07:27:42.81	355.11	23.71	-37.4	-38.2	25.4	0.00e+00	0	45	0	2031091712	46	3914
2026-01-25 07:27:43.82	354.83	23.69	-37.5	-38.2	25.4	0.00e+00	0	45	0	2037383168	46	3947
2026-01-25 07:27:44.82	354.55	23.67	-37.6	-38.3	25.3	0.00e+00	0	45	0	2042626048	46	3978
2026-01-25 07:27:45.83	354.27	23.65	-37.6	-38.4	25.2	0.00e+00	0	45	0	2048917504	46	4009
2026-01-25 07:27:46.84	353.99	23.63	-37.6	-38.3	25.2	0.00e+00	0	45	0	2054160384	46	3992
2026-01-25 07:27:47.85	353.71	23.61	-37.5	-38.2	25.3	0.00e+00	0	45	0	2059403264	46	3945
2026-01-25 07:27:48.86	353.43	23.58	-37.5	-38.2	25.3	0.00e+00	0	45	0	2065694720	46	3931
2026-01-25 07:27:49.86	353.15	23.56	-37.5	-38.2	25.3	0.00e+00	0	45	0	2071986176	46	3921
2026-01-25 07:27:50.87	352.87	23.54	-37.4	-38.1	25.4	0.00e+00	0	45	0	2077229056	46	3901
2026-01-25 07:27:51.88	352.59	23.51	-37.5	-38.3	25.3	0.00e+00	0	45	0	2082471936	46	3961
2026-01-25 07:27:52.89	352.31	23.49	-37.6	-38.3	25.3	0.00e+00	0	45	0	2088763392	46	3972
2026-01-25 07:27:53.90	352.04	23.46	-37.5	-38.3	25.3	0.00e+00	0	45	0	2094006272	46	3961
2026-01-25 07:27:54.90	351.76	23.43	-37.6	-38.3	25.3	0.00e+00	0	45	0	2099249152	46	3981
2026-01-25 07:27:55.91	351.49	23.40	-37.6	-38.3	25.3	0.00e+00	0	45	0	2105540608	46	3995
2026-01-25 07:27:56.92	351.21	23.38	-37.5	-38.3	25.3	0.00e+00	0	45	0	2110783488	46	3960
2026-01-25 07:27:57.93	350.94	23.35	-37.7	-38.4	25.2	0.00e+00	0	45	0	2116026368	46	4031
2026-01-25 07:27:58.94	350.66	23.32	-37.6	-38.3	25.3	0.00e+00	0	45	0	2122317824	46	3988
2026-01-25 07:27:59.94	350.39	23.29	-37.6	-38.3	25.2	0.00e+00	0	45	0	2127560704	46	3982
2026-01-25 07:28:00.95	350.11	23.25	-37.6	-38.3	25.2	0.00e+00	0	45	0	2133852160	46	4003
2026-01-25 07:28:01.96	349.84	23.22	-37.6	-38.3	25.2	0.00e+00	0	45	0	2139095040	46	4003
2026-01-25 07:28:02.97	349.57	23.19	-37.7	-38.4	25.2	0.00e+00	0	45	0	2145386496	46	4023
2026-01-25 07:28:03.98	349.30	23.16	-37.7	-38.4	25.2	0.00e+00	0	45	0	2150629376	46	4017
2026-01-25 07:28:04.98	349.03	23.12	-37.7	-38.4	25.2	0.00e+00	0	45	0	2156920832	46	4026
2026-01-25 07:28:05.99	348.76	23.09	-37.7	-38.5	25.2	0.00e+00	0	45	0	2162163712	46	4052
2026-01-25 07:28:07.00	348.49	23.05	-37.6	-38.4	25.2	0.00e+00	0	45	0	2167406592	46	4005
2026-01-25 07:28:08.00	348.22	23.02	-37.6	-38.3	25.3	0.00e+00	0	45	0	2173698048	46	3969
2026-01-25 07:28:09.01	347.95	22.98	-37.7	-38.4	25.2	0.00e+00	0	45	0	2178940928	46	4020
2026-01-25 07:28:10.02	347.68	22.94	-37.7	-38.4	25.2	0.00e+00	0	45	0	2184183808	46	4021
2026-01-25 07:28:11.03	347.41	22.91	-37.5	-38.2	25.4	0.00e+00	0	45	0	2190475264	46	3934
2026-01-25 07:28:12.04	347.15	22.87	-37.6	-38.3	25.3	0.00e+00	0	45	0	2195718144	46	3971
2026-01-25 07:28:13.04	346.88	22.83	-37.6	-38.3	25.3	0.00e+00	0	45	0	2200961024	46	3962
2026-01-25 07:28:14.05	346.62	22.79	-37.5	-38.2	25.3	0.00e+00	0	45	0	2207252480	46	3946
2026-01-25 07:28:15.06	346.35	22.75	-37.6	-38.3	25.2	0.00e+00	0	45	0	2213543936	46	4003
2026-01-25 07:28:16.07	346.09	22.71	-37.6	-38.4	25.2	0.00e+00	0	45	0	2218786816	46	4005
2026-01-25 07:28:17.08	345.82	22.67	-37.7	-38.4	25.2	0.00e+00	0	45	0	2224029696	46	4016
2026-01-25 07:28:18.09	345.56	22.63	-37.7	-38.4	25.1	0.00e+00	0	45	0	2230321152	46	4039
2026-01-25 07:28:19.09	345.30	22.58	-37.7	-38.4	25.2	0.00e+00	0	45	0	2235564032	46	4012
2026-01-25 07:28:20.10	345.04	22.54	-37.6	-38.3	25.2	0.00e+00	0	45	0	2241855488	46	3984
2026-01-25 07:28:21.11	344.78	22.50	-37.7	-38.4	25.2	0.00e+00	0	45	0	2247098368	46	4029
2026-01-25 07:28:22.12	344.52	22.45	-37.7	-38.4	25.2	0.00e+00	0	45	0	2252341248	46	4035
2026-01-25 07:28:23.12	344.26	22.41	-37.7	-38.4	25.1	0.00e+00	0	45	0	2258632704	46	4040
2026-01-25 07:28:24.13	344.00	22.36	-37.6	-38.4	25.2	0.00e+00	0	45	0	2263875584	46	4009
2026-01-25 07:28:25.14	343.75	22.32	-37.8	-38.5	25.1	0.00e+00	0	45	0	2269118464	46	4062
2026-01-25 07:28:26.15	343.49	22.27	-37.7	-38.4	25.2	0.00e+00	0	45	0	2275409920	46	4019
2026-01-25 07:28:27.16	343.23	22.22	-37.7	-38.4	25.1	0.00e+00	0	45	0	2281701376	46	4037
2026-01-25 07:28:28.16	342.98	22.18	-37.8	-38.5	25.1	0.00e+00	0	45	0	2286944256	46	4068
2026-01-25 07:28:29.17	342.72	22.13	-37.7	-38.4	25.1	0.00e+00	0	45	0	2292187136	46	4051
2026-01-25 07:28:30.18	342.47	22.08	-37.9	-38.6	25.0	0.00e+00	0	45	0	2298478592	46	4108
2026-01-25 07:28:31.19	342.22	22.03	-37.9	-38.6	24.9	0.00e+00	0	45	0	2303721472	46	4135
2026-01-25 07:28:32.20	341.97	21.98	-37.8	-38.5	25.0	0.00e+00	0	45	0	2308964352	46	4079
2026-01-25 07:28:33.21	341.71	21.93	-37.8	-38.5	25.0	0.00e+00	0	45	0	2315255808	46	4067
2026-01-25 07:28:34.22	341.46	21.88	-37.9	-38.6	25.0	0.00e+00	0	45	0	2320498688	46	4128
2026-01-25 07:28:35.22	341.22	21.83	-37.9	-38.6	24.9	0.00e+00	0	45	0	2326790144	46	4139
2026-01-25 07:28:36.23	340.97	21.78	-38.0	-38.7	24.9	0.00e+00	0	45	0	2332033024	46	4176
2026-01-25 07:28:37.24	340.72	21.73	-37.9	-38.6	25.0	0.00e+00	0	45	0	2337275904	46	4123
2026-01-25 07:28:38.25	340.47	21.68	-37.9	-38.6	24.9	0.00e+00	0	45	0	2343567360	46	4119
2026-01-25 07:28:39.26	340.22	21.62	-37.8	-38.5	25.1	0.00e+00	0	45	0	2349858816	46	4060
2026-01-25 07:28:40.26	339.98	21.57	-37.8	-38.5	25.0	0.00e+00	0	45	0	2355101696	46	4075
2026-01-25 07:28:41.27	339.74	21.52	-38.0	-38.7	24.9	0.00e+00	0	45	0	2360344576	46	4161
2026-01-25 07:28:42.28	339.49	21.46	-37.9	-38.6	24.9	0.00e+00	0	45	0	2366636032	46	4139
2026-01-25 07:28:43.29	339.25	21.41	-37.9	-38.6	25.0	0.00e+00	0	45	0	2371878912	46	4120
2026-01-25 07:28:44.30	339.01	21.35	-37.8	-38.5	25.1	0.00e+00	0	45	0	2377121792	46	4061
2026-01-25 07:28:45.30	338.77	21.30	-37.6	-38.4	25.2	0.00e+00	0	45	0	2383413248	46	4011
2026-01-25 07:28:46.31	338.53	21.24	-37.8	-38.5	25.1	0.00e+00	0	45	0	2388656128	46	4056
2026-01-25 07:28:47.32	338.29	21.19	-37.7	-38.4	25.1	0.00e+00	0	45	0	2393899008	46	4045
2026-01-25 07:28:48.33	338.05	21.13	-37.7	-38.4	25.1	0.00e+00	0	45	0	2400190464	46	4037
2026-01-25 07:28:49.34	337.81	21.07	-37.7	-38.4	25.2	0.00e+00	0	45	0	2405433344	46	4033
2026-01-25 07:28:50.34	337.58	21.02	-37.8	-38.5	25.0	0.00e+00	0	45	0	2411724800	46	4094
2026-01-25 07:28:51.35	337.34	20.96	-37.9	-38.6	24.9	0.00e+00	0	45	0	2416967680	46	4118
2026-01-25 07:28:52.36	337.11	20.90	-38.1	-38.8	24.8	0.00e+00	0	45	0	2423259136	46	4209
2026-01-25 07:28:53.37	336.87	20.84	-38.2	-38.9	24.7	0.00e+00	0	45	0	2428502016	47	4040
2026-01-25 07:28:54.38	336.64	20.78	-38.1	-38.8	24.7	0.00e+00	0	45	0	2434793472	47	3995
2026-01-25 07:28:55.39	336.41	20.72	-38.1	-38.8	24.8	0.00e+00	0	45	0	2440036352	47	3974
2026-01-25 07:28:56.40	336.18	20.66	-38.0	-38.7	24.9	0.00e+00	0	45	0	2445279232	47	3945
2026-01-25 07:28:57.41	335.94	20.60	-37.9	-38.6	24.9	0.00e+00	0	45	0	2451570688	47	3908
2026-01-25 07:28:58.42	335.71	20.54	-38.2	-38.9	24.7	0.00e+00	0	45	0	2456813568	47	4029
2026-01-25 07:28:59.42	335.49	20.48	-38.3	-39.0	24.6	0.00e+00	0	45	0	2462056448	47	4079
2026-01-25 07:29:00.43	335.26	20.42	-38.4	-39.2	24.5	0.00e+00	0	45	0	2468347904	47	4150
2026-01-25 07:29:01.44	335.03	20.36	-38.4	-39.2	24.4	0.00e+00	0	45	0	2473590784	47	4164
2026-01-25 07:29:02.45	334.81	20.30	-38.5	-39.3	24.4	0.00e+00	0	45	0	2478833664	47	4197
2026-01-25 07:29:03.46	334.58	20.24	-38.5	-39.2	24.4	0.00e+00	0	45	0	2485125120	47	4181
2026-01-25 07:29:04.47	334.36	20.17	-38.4	-39.1	24.5	0.00e+00	0	45	0	2491416576	47	4116
2026-01-25 07:29:05.48	334.13	20.11	-38.3	-39.0	24.6	0.00e+00	0	45	0	2496659456	47	4075
2026-01-25 07:29:06.49	333.91	20.05	-38.3	-39.0	24.6	0.00e+00	0	45	0	2501902336	47	4070
2026-01-25 07:29:07.50	333.69	19.99	-38.3	-39.1	24.5	0.00e+00	0	45	0	2508193792	47	4111
2026-01-25 07:29:08.50	333.47	19.92	-38.2	-38.9	24.6	0.00e+00	0	45	0	2513436672	47	4049
2026-01-25 07:29:09.51	333.25	19.86	-38.3	-39.0	24.6	0.00e+00	0	45	0	2519728128	47	4073
2026-01-25 07:29:10.52	333.03	19.79	-38.3	-39.0	24.6	0.00e+00	0	45	0	2524971008	47	4076
2026-01-25 07:29:11.53	332.82	19.73	-38.4	-39.1	24.5	0.00e+00	0	45	0	2530213888	47	4128
2026-01-25 07:29:12.53	332.60	19.67	-38.5	-39.2	24.4	0.00e+00	0	45	0	2536505344	47	4170
2026-01-25 07:29:13.54	332.39	19.60	-38.5	-39.3	24.3	0.00e+00	0	45	0	2541748224	47	4200
2026-01-25 07:29:14.55	332.17	19.54	-38.6	-39.3	24.3	0.00e+00	0	45	0	2546991104	47	4233
2026-01-25 07:29:15.56	331.96	19.47	-38.7	-39.4	24.2	0.00e+00	0	45	0	2553282560	47	4282
2026-01-25 07:29:16.57	331.74	19.41	-39.0	-39.7	24.4	0.00e+00	0	45	0	2559574016	48	4188
2026-01-25 07:29:17.58	331.53	19.34	-39.2	-39.9	24.3	0.00e+00	0	45	0	2564816896	48	4259
2026-01-25 07:29:18.58	331.32	19.27	-39.2	-39.9	24.3	0.00e+00	0	45	0	2570059776	49	4038
2026-01-25 07:29:19.59	331.11	19.21	-39.1	-39.9	24.3	0.00e+00	0	45	0	2576351232	49	4010
2026-01-25 07:29:20.60	330.90	19.14	-39.1	-39.8	24.3	0.00e+00	0	45	0	2581594112	49	3988
2026-01-25 07:29:21.61	330.69	19.07	-39.1	-39.8	24.4	0.00e+00	0	45	0	2586836992	49	3972
2026-01-25 07:29:22.62	330.49	19.01	-39.0	-39.7	24.4	0.00e+00	0	45	0	2593128448	49	3955
2026-01-25 07:29:23.62	330.28	18.94	-39.1	-39.8	24.3	0.00e+00	0	45	0	2598371328	49	4003
2026-01-25 07:29:24.63	330.08	18.87	-39.3	-40.0	24.2	0.00e+00	0	45	0	2604662784	49	4073
2026-01-25 07:29:25.64	329.87	18.81	-39.3	-40.1	24.1	0.00e+00	0	45	0	2609905664	49	4103
2026-01-25 07:29:26.65	329.67	18.74	-39.3	-40.0	24.2	0.00e+00	0	45	0	2615148544	49	4079
2026-01-25 07:29:27.66	329.46	18.67	-39.3	-40.1	24.1	0.00e+00	0	45	0	2621440000	49	4108
2026-01-25 07:29:28.67	329.26	18.60	-39.2	-40.0	24.2	0.00e+00	0	45	0	2627731456	49	4055
2026-01-25 07:29:29.68	329.06	18.53	-38.9	-39.6	24.5	0.00e+00	0	45	0	2632974336	49	3894
2026-01-25 07:29:30.69	328.86	18.46	-38.9	-39.6	24.5	0.00e+00	0	45	0	2638217216	49	3893
2026-01-25 07:29:31.70	328.66	18.40	-39.1	-39.8	24.3	0.00e+00	0	45	0	2644508672	49	3980
2026-01-25 07:29:32.71	328.46	18.33	-39.1	-39.8	24.3	0.00e+00	0	45	0	2649751552	49	3987
2026-01-25 07:29:33.72	328.27	18.26	-39.1	-39.9	24.3	0.00e+00	0	45	0	2654994432	49	4007
2026-01-25 07:29:34.73	328.07	18.19	-39.1	-39.8	24.3	0.00e+00	0	45	0	2661285888	49	3994
2026-01-25 07:29:35.73	327.88	18.12	-39.2	-39.9	24.2	0.00e+00	0	45	0	2666528768	49	4040
2026-01-25 07:29:36.74	327.68	18.05	-39.1	-39.8	24.2	0.00e+00	0	45	0	2671771648	49	4000
2026-01-25 07:29:37.75	327.49	17.98	-39.0	-39.7	24.4	0.00e+00	0	45	0	2678063104	49	3928
2026-01-25 07:29:38.76	327.29	17.91	-39.1	-39.8	24.3	0.00e+00	0	45	0	2684354560	49	3982
2026-01-25 07:29:39.77	327.10	17.84	-39.2	-39.9	24.2	0.00e+00	0	45	0	2689597440	49	4038
2026-01-25 07:29:40.78	326.91	17.77	-39.2	-40.0	24.1	0.00e+00	0	45	0	2694840320	49	4071
2026-01-25 07:29:41.78	326.72	17.70	-39.3	-40.0	24.1	0.00e+00	0	45	0	2701131776	49	4090
2026-01-25 07:29:42.79	326.53	17.63	-39.3	-40.0	24.1	0.00e+00	0	45	0	2706374656	49	4080
2026-01-25 07:29:43.80	326.34	17.56	-39.2	-39.9	24.2	0.00e+00	0	45	0	2712666112	49	4047
2026-01-25 07:29:44.81	326.16	17.49	-39.1	-39.8	24.3	0.00e+00	0	45	0	2717908992	49	3980
2026-01-25 07:29:45.82	325.97	17.42	-39.0	-39.8	24.3	0.00e+00	0	45	0	2723151872	49	3966
2026-01-25 07:29:46.83	325.78	17.35	-39.2	-39.9	24.2	0.00e+00	0	45	0	2729443328	49	4024
2026-01-25 07:29:47.84	325.60	17.28	-39.2	-39.9	24.2	0.00e+00	0	45	0	2734686208	49	4028
2026-01-25 07:29:48.85	325.42	17.21	-39.2	-40.0	24.1	0.00e+00	0	45	0	2739929088	49	4058
2026-01-25 07:29:49.86	325.23	17.14	-39.1	-39.8	24.3	0.00e+00	0	45	0	2746220544	49	3996
2026-01-25 07:29:50.86	325.05	17.07	-39.0	-39.7	24.3	0.00e+00	0	45	0	2752512000	49	3957
2026-01-25 07:29:51.87	324.87	16.99	-39.0	-39.8	24.3	0.00e+00	0	45	0	2757754880	49	3972
2026-01-25 07:29:52.88	324.69	16.92	-39.1	-39.9	24.2	0.00e+00	0	45	0	2762997760	49	4015
2026-01-25 07:29:53.89	324.51	16.85	-39.2	-39.9	24.1	0.00e+00	0	45	0	2769289216	49	4049
2026-01-25 07:29:54.90	324.33	16.78	-39.2	-39.9	24.1	0.00e+00	0	45	0	2774532096	49	4040
2026-01-25 07:29:55.91	324.15	16.71	-39.2	-40.0	24.1	0.00e+00	0	45	0	2779774976	49	4061
2026-01-25 07:29:56.92	323.98	16.64	-39.2	-40.0	24.1	0.00e+00	0	45	0	2786066432	49	4054
2026-01-25 07:29:57.93	323.80	16.56	-39.4	-40.1	24.0	0.00e+00	0	45	0	2791309312	49	4120
2026-01-25 07:29:58.94	323.62	16.49	-39.4	-40.1	24.0	0.00e+00	0	45	0	2797600768	49	4117
2026-01-25 07:29:59.95	323.45	16.42	-39.4	-40.1	24.0	0.00e+00	0	45	0	2802843648	49	4143
2026-01-25 07:30:00.96	323.28	16.35	-39.5	-40.3	23.8	0.00e+00	0	45	0	2809135104	49	4214
2026-01-25 07:30:01.96	323.10	16.28	-39.6	-40.3	23.8	0.00e+00	0	45	0	2814377984	49	4230
2026-01-25 07:30:02.97	322.93	16.21	-39.6	-40.4	23.7	0.00e+00	0	45	0	2820669440	49	4251
2026-01-25 07:30:03.98	322.76	16.13	-39.7	-40.5	23.6	0.00e+00	0	45	0	2825912320	49	4299
2026-01-25 07:30:04.99	322.59	16.06	-39.7	-40.5	23.6	0.00e+00	0	45	0	2831155200	50	4074
2026-01-25 07:30:06.00	322.42	15.99	-39.8	-40.5	23.6	0.00e+00	0	45	0	2837446656	50	4092
2026-01-25 07:30:07.01	322.25	15.92	-39.8	-40.5	23.6	0.00e+00	0	45	0	2842689536	50	4088
2026-01-25 07:30:08.02	322.08	15.85	-39.9	-40.6	23.5	0.00e+00	0	45	0	2847932416	50	4140
2026-01-25 07:30:09.03	321.92	15.77	-39.9	-40.6	23.5	0.00e+00	0	45	0	2854223872	50	4126
2026-01-25 07:30:10.04	321.75	15.70	-39.8	-40.6	23.6	0.00e+00	0	45	0	2859466752	50	4099
2026-01-25 07:30:11.04	321.59	15.63	-39.9	-40.7	23.4	0.00e+00	0	45	0	2864709632	50	4163
2026-01-25 07:30:12.05	321.42	15.56	-39.9	-40.7	23.4	0.00e+00	0	45	0	2871001088	50	4171
2026-01-25 07:30:13.06	321.26	15.48	-39.9	-40.7	23.4	0.00e+00	0	45	0	2877292544	50	4152
2026-01-25 07:30:14.07	321.10	15.41	-39.8	-40.5	23.6	0.00e+00	0	45	0	2882535424	50	4075
2026-01-25 07:30:15.07	320.94	15.34	-39.7	-40.5	23.6	0.00e+00	0	45	0	2887778304	50	4069
2026-01-25 07:30:16.08	320.77	15.27	-39.7	-40.5	23.6	0.00e+00	0	45	0	2894069760	50	4059
2026-01-25 07:30:17.09	320.61	15.19	-39.6	-40.4	23.7	0.00e+00	0	45	0	2899312640	50	4005
2026-01-25 07:30:18.10	320.45	15.12	-39.8	-40.5	23.6	0.00e+00	0	45	0	2905604096	50	4092
2026-01-25 07:30:19.11	320.29	15.05	-39.8	-40.5	23.6	0.00e+00	0	45	0	2910846976	50	4082
2026-01-25 07:30:20.12	320.14	14.98	-39.8	-40.6	23.5	0.00e+00	0	45	0	2916089856	50	4116
2026-01-25 07:30:21.13	319.98	14.90	-39.9	-40.7	23.4	0.00e+00	0	45	0	2922381312	50	4161
2026-01-25 07:30:22.13	319.82	14.83	-40.0	-40.7	23.4	0.00e+00	0	45	0	2927624192	50	4185
2026-01-25 07:30:23.14	319.67	14.76	-40.0	-40.7	23.3	0.00e+00	0	45	0	2932867072	50	4193
2026-01-25 07:30:24.15	319.51	14.69	-40.0	-40.7	23.4	0.00e+00	0	45	0	2939158528	50	4186
2026-01-25 07:30:25.16	319.36	14.62	-40.0	-40.8	23.3	0.00e+00	0	45	0	2945449984	50	4214
2026-01-25 07:30:26.17	319.21	14.54	-40.1	-40.8	23.2	0.00e+00	0	45	0	2950692864	50	4241
2026-01-25 07:30:27.18	319.05	14.47	-40.1	-40.9	23.2	0.00e+00	0	45	0	2955935744	50	4254
2026-01-25 07:30:28.18	318.90	14.40	-40.2	-41.0	23.1	0.00e+00	0	45	0	2962227200	50	4300
2026-01-25 07:30:29.19	318.75	14.33	-40.1	-40.8	23.2	0.00e+00	0	45	0	2967470080	50	4242
2026-01-25 07:30:30.20	318.60	14.25	-40.0	-40.8	23.3	0.00e+00	0	45	0	2972712960	50	4218
2026-01-25 07:30:31.20	318.45	14.18	-40.0	-40.8	23.3	0.00e+00	0	45	0	2979004416	50	4211
2026-01-25 07:30:32.21	318.30	14.11	-40.1	-40.8	23.2	0.00e+00	0	45	0	2984247296	50	4230
2026-01-25 07:30:33.22	318.15	14.04	-40.1	-40.8	23.2	0.00e+00	0	45	0	2990538752	50	4240
2026-01-25 07:30:34.23	318.01	13.96	-40.1	-40.9	23.1	0.00e+00	0	45	0	2995781632	50	4278
2026-01-25 07:30:35.24	317.86	13.89	-40.2	-41.0	23.1	0.00e+00	0	45	0	3001024512	50	4305
2026-01-25 07:30:36.25	317.71	13.82	-40.2	-41.0	23.1	0.00e+00	0	45	0	3007315968	51	4072
2026-01-25 07:30:37.25	317.57	13.75	-40.4	-41.2	22.9	0.00e+00	0	45	0	3012558848	51	4160
2026-01-25 07:30:38.26	317.42	13.68	-40.3	-41.1	23.0	0.00e+00	0	45	0	3018850304	51	4110
2026-01-25 07:30:39.27	317.28	13.60	-40.3	-41.0	23.0	0.00e+00	0	45	0	3024093184	51	4091
2026-01-25 07:30:40.28	317.14	13.53	-40.3	-41.1	23.0	0.00e+00	0	45	0	3030384640	51	4105
2026-01-25 07:30:41.29	316.99	13.46	-40.4	-41.2	22.9	0.00e+00	0	45	0	3035627520	51	4154
2026-01-25 07:30:42.30	316.85	13.39	-40.4	-41.2	22.9	0.00e+00	0	45	0	3040870400	51	4175
2026-01-25 07:30:43.30	316.71	13.32	-40.4	-41.2	22.9	0.00e+00	0	45	0	3047161856	51	4162
2026-01-25 07:30:44.31	316.57	13.24	-40.5	-41.3	22.8	0.00e+00	0	45	0	3052404736	51	4205
2026-01-25 07:30:45.32	316.43	13.17	-40.5	-41.3	22.7	0.00e+00	0	45	0	3057647616	51	4240
2026-01-25 07:30:46.32	316.30	13.10	-40.6	-41.4	22.6	0.00e+00	0	45	0	3063939072	51	4285
2026-01-25 07:30:47.33	316.16	13.03	-40.6	-41.4	22.6	0.00e+00	0	45	0	3069181952	51	4269
2026-01-25 07:30:48.34	316.02	12.96	-40.6	-41.4	22.6	0.00e+00	0	45	0	3075473408	51	4284
2026-01-25 07:30:49.35	315.88	12.88	-40.6	-41.4	22.6	0.00e+00	0	45	0	3080716288	51	4291
2026-01-25 07:30:50.36	315.75	12.81	-40.5	-41.3	22.7	0.00e+00	0	45	0	3087007744	51	4219
2026-01-25 07:30:51.36	315.61	12.74	-40.5	-41.2	22.8	0.00e+00	0	45	0	3092250624	51	4193
2026-01-25 07:30:52.37	315.48	12.67	-40.5	-41.3	22.8	0.00e+00	0	45	0	3098542080	51	4204
2026-01-25 07:30:53.38	315.34	12.60	-40.6	-41.4	22.6	0.00e+00	0	45	0	3103784960	51	4262
2026-01-25 07:30:54.39	315.21	12.53	-40.7	-41.5	22.6	0.00e+00	0	45	0	3109027840	51	4306
2026-01-25 07:30:55.39	315.08	12.46	-40.7	-41.5	22.6	0.00e+00	0	45	0	3115319296	51	4294
2026-01-25 07:30:56.40	314.94	12.38	-40.7	-41.5	22.6	0.00e+00	0	45	0	3120562176	51	4302
2026-01-25 07:30:57.41	314.81	12.31	-40.7	-41.5	22.4	0.00e+00	0	45	0	3125805056	52	4075
2026-01-25 07:30:58.41	314.68	12.24	-40.7	-41.6	22.4	0.00e+00	0	45	0	3132096512	52	4108
2026-01-25 07:30:59.42	314.55	12.17	-40.8	-41.6	22.3	0.00e+00	0	45	0	3137339392	52	4120
2026-01-25 07:31:00.43	314.42	12.10	-40.7	-41.5	22.4	0.00e+00	0	45	0	3142582272	52	4089
2026-01-25 07:31:01.44	314.29	12.03	-40.7	-41.5	22.4	0.00e+00	0	45	0	3148873728	52	4086
2026-01-25 07:31:02.45	314.17	11.96	-40.8	-41.6	22.3	0.00e+00	0	45	0	3154116608	52	4131
2026-01-25 07:31:03.46	314.04	11.89	-40.8	-41.6	22.3	0.00e+00	0	45	0	3160408064	52	4138
2026-01-25 07:31:04.46	313.91	11.82	-40.8	-41.6	22.3	0.00e+00	0	45	0	3165650944	52	4142
2026-01-25 07:31:05.47	313.78	11.75	-40.9	-41.7	22.3	0.00e+00	0	45	0	3171942400	52	4158
2026-01-25 07:31:06.48	313.66	11.67	-40.9	-41.8	22.2	0.00e+00	0	45	0	3177185280	52	4194
2026-01-25 07:31:07.49	313.53	11.60	-40.8	-41.6	22.3	0.00e+00	0	45	0	3183476736	52	4122
2026-01-25 07:31:08.50	313.41	11.53	-40.9	-41.7	22.2	0.00e+00	0	45	0	3188719616	52	4165
2026-01-25 07:31:09.50	313.29	11.46	-40.9	-41.7	22.2	0.00e+00	0	45	0	3193962496	52	4167
2026-01-25 07:31:10.51	313.16	11.39	-40.8	-41.7	22.2	0.00e+00	0	45	0	3200253952	52	4148
2026-01-25 07:31:11.52	313.04	11.32	-40.9	-41.7	22.2	0.00e+00	0	45	0	3205496832	52	4172
2026-01-25 07:31:12.53	312.92	11.25	-40.9	-41.7	22.2	0.00e+00	0	45	0	3210739712	52	4160
2026-01-25 07:31:13.53	312.80	11.18	-40.9	-41.7	22.2	0.00e+00	0	45	0	3217031168	52	4171
2026-01-25 07:31:14.54	312.68	11.11	-40.9	-41.8	22.1	0.00e+00	0	45	0	3222274048	52	4203
2026-01-25 07:31:15.55	312.56	11.04	-41.0	-41.9	22.0	0.00e+00	0	45	0	3227516928	52	4243
2026-01-25 07:31:16.56	312.44	10.97	-41.1	-42.0	22.0	0.00e+00	0	45	0	3233808384	52	4295
2026-01-25 07:31:17.57	312.32	10.90	-41.2	-42.0	21.9	0.00e+00	0	45	0	3240099840	52	4338
2026-01-25 07:31:18.58	312.20	10.83	-41.2	-42.1	21.8	0.00e+00	0	45	0	3245342720	53	4110
2026-01-25 07:31:19.58	312.08	10.76	-41.4	-42.2	21.7	0.00e+00	0	45	0	3250585600	53	4190
2026-01-25 07:31:20.59	311.96	10.69	-41.3	-42.2	21.7	0.00e+00	0	45	0	3256877056	53	4160
2026-01-25 07:31:21.60	311.85	10.62	-41.3	-42.1	21.8	0.00e+00	0	45	0	3262119936	53	4127
2026-01-25 07:31:22.61	311.73	10.55	-41.3	-42.2	21.7	0.00e+00	0	45	0	3268411392	53	4149
2026-01-25 07:31:23.62	311.61	10.48	-41.3	-42.1	21.8	0.00e+00	0	45	0	3273654272	53	4129
2026-01-25 07:31:24.62	311.50	10.41	-41.2	-42.1	21.8	0.00e+00	0	45	0	3278897152	53	4119
2026-01-25 07:31:25.63	311.38	10.35	-41.4	-42.3	21.6	0.00e+00	0	45	0	3285188608	53	4197
2026-01-25 07:31:26.64	311.27	10.28	-41.4	-42.3	21.7	0.00e+00	0	45	0	3290431488	53	4196
2026-01-25 07:31:27.65	311.16	10.21	-41.4	-42.3	21.6	0.00e+00	0	45	0	3295674368	53	4200
2026-01-25 07:31:28.65	311.04	10.14	-41.4	-42.2	21.6	0.00e+00	0	45	0	3301965824	53	4186
2026-01-25 07:31:29.66	310.93	10.07	-41.4	-42.3	21.6	0.00e+00	0	45	0	3308257280	53	4214
2026-01-25 07:31:30.67	310.82	10.00	-41.5	-42.4	21.5	0.00e+00	0	45	0	3313500160	53	4255
2026-01-25 07:31:31.68	310.71	9.93	-41.4	-42.3	21.6	0.00e+00	0	45	0	3318743040	53	4232
2026-01-25 07:31:32.69	310.60	9.86	-41.4	-42.3	21.5	0.00e+00	0	45	0	3325034496	53	4221
2026-01-25 07:31:33.70	310.49	9.79	-41.2	-42.1	21.8	0.00e+00	0	45	0	3330277376	53	4114
2026-01-25 07:31:34.71	310.38	9.72	-41.3	-42.2	21.7	0.00e+00	0	45	0	3335520256	53	4157
2026-01-25 07:31:35.72	310.27	9.66	-41.2	-42.0	21.8	0.00e+00	0	45	0	3341811712	53	4097
2026-01-25 07:31:36.72	310.16	9.59	-41.2	-42.0	21.8	0.00e+00	0	45	0	3347054592	53	4084
2026-01-25 07:31:37.73	310.05	9.52	-41.2	-42.1	21.7	0.00e+00	0	45	0	3353346048	53	4106
2026-01-25 07:31:38.74	309.94	9.45	-41.4	-42.3	21.5	0.00e+00	0	45	0	3358588928	53	4228
2026-01-25 07:31:39.75	309.84	9.38	-41.5	-42.4	21.4	0.00e+00	0	45	0	3363831808	53	4259
2026-01-25 07:31:40.76	309.73	9.32	-41.6	-42.5	21.4	0.00e+00	0	45	0	3370123264	53	4295
2026-01-25 07:31:41.76	309.63	9.25	-41.6	-42.5	21.4	0.00e+00	0	45	0	3376414720	53	4295
2026-01-25 07:31:42.77	309.52	9.18	-41.6	-42.5	21.3	0.00e+00	0	45	0	3381657600	53	4323
2026-01-25 07:31:43.78	309.41	9.11	-41.8	-42.7	21.2	0.00e+00	0	45	0	3386900480	54	4150
2026-01-25 07:31:44.79	309.31	9.04	-41.7	-42.6	21.2	0.00e+00	0	45	0	3393191936	54	4132
2026-01-25 07:31:45.80	309.21	8.98	-41.5	-42.4	21.4	0.00e+00	0	45	0	3398434816	54	4018
2026-01-25 07:31:46.80	309.10	8.91	-41.6	-42.5	21.3	0.00e+00	0	45	0	3403677696	54	4085
2026-01-25 07:31:47.81	309.00	8.84	-41.7	-42.6	21.2	0.00e+00	0	45	0	3409969152	54	4140
2026-01-25 07:31:48.82	308.90	8.77	-41.7	-42.6	21.1	0.00e+00	0	45	0	3415212032	54	4136
2026-01-25 07:31:49.83	308.80	8.71	-41.7	-42.6	21.2	0.00e+00	0	45	0	3420454912	54	4115
2026-01-25 07:31:50.84	308.69	8.64	-41.7	-42.6	21.2	0.00e+00	0	45	0	3426746368	54	4126
2026-01-25 07:31:51.85	308.59	8.57	-41.8	-42.7	21.1	0.00e+00	0	45	0	3431989248	54	4170
2026-01-25 07:31:52.85	308.49	8.51	-41.6	-42.5	21.3	0.00e+00	0	45	0	3438280704	54	4086
2026-01-25 07:31:53.86	308.39	8.44	-41.8	-42.7	21.1	0.00e+00	0	45	0	3443523584	54	4177
2026-01-25 07:31:54.87	308.29	8.37	-41.8	-42.7	21.0	0.00e+00	0	45	0	3449815040	54	4191
2026-01-25 07:31:55.87	308.19	8.31	-42.0	-42.9	20.9	0.00e+00	0	45	0	3455057920	54	4273
2026-01-25 07:31:56.88	308.10	8.24	-42.1	-43.0	20.8	0.00e+00	0	45	0	3461349376	54	4329
2026-01-25 07:31:57.89	308.00	8.17	-41.7	-42.7	21.1	0.00e+00	0	45	0	3466592256	54	4151
2026-01-25 07:31:58.90	307.90	8.11	-41.9	-42.8	21.0	0.00e+00	0	45	0	3471835136	54	4209
2026-01-25 07:31:59.91	307.80	8.04	-41.9	-42.8	20.9	0.00e+00	0	45	0	3478126592	54	4230
2026-01-25 07:32:00.92	307.70	7.97	-41.9	-42.8	20.9	0.00e+00	0	45	0	3483369472	54	4230
2026-01-25 07:32:01.92	307.61	7.91	-41.9	-42.9	20.9	0.00e+00	0	45	0	3488612352	54	4253
2026-01-25 07:32:02.93	307.51	7.84	-41.9	-42.9	20.9	0.00e+00	0	45	0	3494903808	54	4249
2026-01-25 07:32:03.94	307.42	7.78	-42.0	-42.9	20.8	0.00e+00	0	45	0	3500146688	54	4283
2026-01-25 07:32:04.95	307.32	7.71	-41.7	-42.6	21.1	0.00e+00	0	45	0	3505389568	54	4119
2026-01-25 07:32:05.96	307.23	7.64	-41.9	-42.8	20.9	0.00e+00	0	45	0	3511681024	54	4204
2026-01-25 07:32:06.96	307.13	7.58	-42.0	-43.0	20.8	0.00e+00	0	45	0	3517972480	54	4295
2026-01-25 07:32:07.97	307.04	7.51	-42.0	-42.9	20.8	0.00e+00	0	45	0	3523215360	54	4277
2026-01-25 07:32:08.98	306.95	7.45	-42.1	-43.1	20.7	0.00e+00	0	45	0	3528458240	54	4353
2026-01-25 07:32:09.99	306.85	7.38	-42.1	-43.1	20.6	0.00e+00	0	45	0	3534749696	54	4358
2026-01-25 07:32:11.00	306.76	7.32	-42.3	-43.2	20.5	0.00e+00	0	45	0	3539992576	55	4188
2026-01-25 07:32:12.00	306.67	7.25	-42.0	-43.0	20.7	0.00e+00	0	45	0	3546284032	55	4058
2026-01-25 07:32:13.01	306.58	7.19	-42.3	-43.2	20.5	0.00e+00	0	45	0	3551526912	55	4182
2026-01-25 07:32:14.02	306.49	7.12	-42.3	-43.3	20.4	0.00e+00	0	45	0	3556769792	55	4221
2026-01-25 07:32:15.03	306.40	7.06	-42.7	-43.7	20.1	0.00e+00	0	45	0	3563061248	55	4394
2026-01-25 07:32:16.04	306.30	6.99	-42.5	-43.4	20.2	0.00e+00	0	45	0	3568304128	55	4284
2026-01-25 07:32:17.04	306.22	6.93	-42.4	-43.4	20.3	0.00e+00	0	45	0	3573547008	55	4272
2026-01-25 07:32:18.05	306.13	6.86	-42.6	-43.6	20.1	0.00e+00	0	45	0	3579838464	55	4364
2026-01-25 07:32:19.06	306.04	6.80	-42.5	-43.4	20.2	0.00e+00	0	45	0	3586129920	55	4283
2026-01-25 07:32:20.07	305.95	6.74	-42.3	-43.3	20.3	0.00e+00	0	45	0	3591372800	55	4224
2026-01-25 07:32:21.08	305.86	6.67	-42.3	-43.2	20.4	0.00e+00	0	45	0	3596615680	55	4181
2026-01-25 07:32:22.09	305.77	6.61	-42.3	-43.3	20.3	0.00e+00	0	45	0	3602907136	55	4229
2026-01-25 07:32:23.10	305.68	6.54	-42.3	-43.2	20.4	0.00e+00	0	45	0	3608150016	55	4180
2026-01-25 07:32:24.10	305.60	6.48	-42.2	-43.2	20.4	0.00e+00	0	45	0	3613392896	55	4172
2026-01-25 07:32:25.11	305.51	6.41	-42.4	-43.4	20.2	0.00e+00	0	45	0	3619684352	55	4271
2026-01-25 07:32:26.12	305.42	6.35	-42.3	-43.2	20.4	0.00e+00	0	45	0	3624927232	55	4187
2026-01-25 07:32:27.13	305.34	6.29	-42.4	-43.4	20.2	0.00e+00	0	45	0	3631218688	55	4273
2026-01-25 07:32:28.14	305.25	6.22	-42.4	-43.3	20.2	0.00e+00	0	45	0	3636461568	55	4233
2026-01-25 07:32:29.15	305.17	6.16	-42.4	-43.3	20.2	0.00e+00	0	45	0	3641704448	55	4233
2026-01-25 07:32:30.16	305.08	6.10	-42.3	-43.3	20.3	0.00e+00	0	45	0	3647995904	55	4201
2026-01-25 07:32:31.17	305.00	6.03	-42.4	-43.4	20.2	0.00e+00	0	45	0	3654287360	55	4249
2026-01-25 07:32:32.18	304.91	5.97	-42.2	-43.1	20.4	0.00e+00	0	45	0	3659530240	55	4140
