passes_logs/2026/01/25/R3.2S_Murmansk/R3.2S_Murmansk__20260125_230009_KANOPUS-V_5_rec.log

#Pass ID: 20260125_230009_KANOPUS-V 5
#Satellite: KANOPUS-V 5
#Configuration: KANOPUS-V_8320
#almurnet v.1.7.20251203
#Start time: 2026-01-25 23:00:09

#Version: 2.2.20231116
#Station: R3.2S_Murmansk
#Location: 33.079688 lon 68.888172 lat
#TLE: 1 43876U 18111A   26025.54826615  .00005329  00000+0  22598-3 0  9999
#TLE: 2 43876  97.3674 293.8720 0001834  89.1965 270.9482 15.23539467393070

#Time	Az	El	Level	Level2	SNR	BER	BlckErr	Temp	State	Recorded	gain1	gain2
2026-01-25 23:00:09.10	21.22	1.98	-54.5	-63.3	3.8	7.45e-01	0	42	0	0	80	9971
2026-01-25 23:00:10.09	21.19	2.05	-54.4	-63.3	3.8	7.46e-01	0	42	104	0	80	9970
2026-01-25 23:00:11.10	21.16	2.12	-54.4	-63.3	3.8	7.45e-01	0	42	104	0	80	10010
2026-01-25 23:00:12.11	21.13	2.19	-54.5	-63.3	3.8	7.45e-01	0	42	104	0	80	10040
2026-01-25 23:00:13.11	21.10	2.26	-54.5	-63.3	3.8	7.46e-01	0	42	104	0	80	9974
2026-01-25 23:00:14.12	21.07	2.33	-54.4	-63.3	3.8	7.44e-01	0	42	104	0	80	9964
2026-01-25 23:00:15.13	21.04	2.40	-54.4	-63.2	3.8	7.46e-01	0	42	104	0	80	9936
2026-01-25 23:00:16.14	21.01	2.47	-54.4	-63.3	3.8	7.46e-01	0	42	104	0	80	9973
2026-01-25 23:00:17.15	20.98	2.54	-54.4	-63.3	3.8	7.47e-01	0	42	104	0	80	9985
2026-01-25 23:00:18.15	20.95	2.61	-54.4	-63.3	3.8	7.44e-01	0	42	104	0	80	9973
2026-01-25 23:00:19.16	20.92	2.68	-54.4	-63.3	3.8	7.45e-01	0	42	104	0	80	9977
2026-01-25 23:00:20.17	20.88	2.76	-54.4	-63.3	3.8	7.45e-01	0	42	104	0	80	9979
2026-01-25 23:00:21.17	20.85	2.83	-54.4	-63.3	3.8	7.45e-01	0	42	104	0	80	9946
2026-01-25 23:00:22.18	20.82	2.90	-54.4	-63.3	3.8	7.45e-01	0	42	104	0	80	9956
2026-01-25 23:00:23.19	20.79	2.97	-54.4	-63.2	3.8	7.46e-01	0	42	104	0	80	9937
2026-01-25 23:00:24.20	20.76	3.05	-54.6	-63.5	3.8	7.44e-01	0	42	104	0	80	10221
2026-01-25 23:00:25.20	20.72	3.12	-54.7	-63.5	3.8	7.46e-01	0	42	104	0	80	10259
2026-01-25 23:00:26.21	20.69	3.19	-54.7	-63.5	3.8	7.44e-01	0	42	104	0	80	10258
2026-01-25 23:00:27.22	20.66	3.27	-54.7	-63.5	3.8	7.44e-01	0	42	104	0	80	10293
2026-01-25 23:00:28.23	20.63	3.34	-54.7	-63.5	3.8	7.45e-01	0	42	104	0	80	10270
2026-01-25 23:00:29.24	20.59	3.41	-54.7	-63.6	3.8	7.47e-01	0	42	104	0	80	10301
2026-01-25 23:00:30.24	20.56	3.49	-54.7	-63.5	3.8	7.44e-01	0	42	104	0	80	10255
2026-01-25 23:00:31.25	20.52	3.56	-54.7	-63.6	3.8	7.46e-01	0	43	104	0	80	10294
2026-01-25 23:00:32.26	20.49	3.64	-54.7	-63.5	3.8	7.46e-01	0	42	104	0	80	10217
2026-01-25 23:00:33.27	20.46	3.71	-54.6	-63.5	3.8	7.46e-01	0	43	104	0	80	10198
2026-01-25 23:00:34.27	20.42	3.79	-54.6	-63.4	3.8	7.45e-01	0	43	104	0	80	10169
2026-01-25 23:00:35.28	20.39	3.86	-54.6	-63.4	3.8	7.44e-01	0	42	104	0	80	10157
2026-01-25 23:00:36.29	20.35	3.94	-54.6	-63.4	3.8	7.46e-01	0	42	104	0	80	10140
2026-01-25 23:00:37.29	20.32	4.01	-54.5	-63.4	3.8	7.45e-01	0	43	104	0	80	10078
2026-01-25 23:00:38.30	20.28	4.09	-54.5	-63.3	3.8	7.44e-01	0	43	104	0	80	9982
2026-01-25 23:00:39.31	20.24	4.17	-54.4	-63.2	3.8	7.46e-01	0	43	104	0	80	9844
2026-01-25 23:00:40.32	20.21	4.24	-54.3	-63.1	3.8	7.45e-01	0	43	104	0	80	9772
2026-01-25 23:00:41.33	20.17	4.32	-54.2	-63.0	3.8	7.46e-01	0	43	104	0	80	9703
2026-01-25 23:00:42.33	20.13	4.40	-54.1	-62.9	3.8	7.46e-01	0	43	104	0	80	9555
2026-01-25 23:00:43.34	20.10	4.48	-54.0	-62.8	3.8	7.43e-01	0	43	104	0	79	9981
2026-01-25 23:00:44.35	20.06	4.55	-53.8	-62.6	3.8	7.45e-01	0	43	104	0	79	9771
2026-01-25 23:00:45.35	20.02	4.63	-53.5	-62.3	3.8	7.45e-01	0	43	104	0	79	9444
2026-01-25 23:00:46.36	19.98	4.71	-53.1	-61.9	3.8	7.47e-01	0	43	104	0	78	9528
2026-01-25 23:00:47.36	19.95	4.79	-53.0	-61.8	3.8	7.46e-01	0	43	104	0	78	9464
2026-01-25 23:00:48.37	19.91	4.87	-52.9	-61.8	3.8	7.45e-01	0	43	104	0	77	10010
2026-01-25 23:00:49.37	19.87	4.95	-52.9	-61.8	3.8	7.44e-01	0	43	104	0	77	9966
2026-01-25 23:00:50.38	19.83	5.03	-52.9	-61.8	3.8	7.45e-01	0	43	104	0	77	9957
2026-01-25 23:00:51.39	19.79	5.11	-53.0	-61.8	3.8	7.45e-01	0	43	104	0	77	10013
2026-01-25 23:00:52.39	19.75	5.19	-53.1	-61.9	3.8	7.46e-01	0	43	104	0	77	10141
2026-01-25 23:00:53.39	19.71	5.27	-53.0	-61.9	3.8	7.45e-01	0	43	104	0	77	10069
2026-01-25 23:00:54.40	19.67	5.35	-52.9	-61.8	3.8	7.44e-01	0	43	104	0	77	9953
2026-01-25 23:00:55.41	19.63	5.43	-53.0	-61.8	3.8	7.45e-01	0	43	104	0	77	10052
2026-01-25 23:00:56.42	19.59	5.51	-53.0	-61.8	3.8	7.45e-01	0	43	104	0	77	9989
2026-01-25 23:00:57.42	19.55	5.59	-53.0	-61.8	3.8	7.44e-01	0	43	104	0	77	10014
2026-01-25 23:00:58.43	19.51	5.68	-52.9	-61.8	3.8	7.45e-01	0	43	104	0	77	9960
2026-01-25 23:00:59.44	19.46	5.76	-53.0	-61.9	3.8	7.45e-01	0	43	104	0	77	10081
2026-01-25 23:01:00.45	19.42	5.84	-53.0	-61.8	3.8	7.45e-01	0	43	104	0	77	10019
2026-01-25 23:01:01.46	19.38	5.93	-53.0	-61.9	3.8	7.45e-01	0	43	104	0	77	10070
2026-01-25 23:01:02.47	19.33	6.01	-53.0	-61.8	3.8	7.44e-01	0	43	104	0	77	10052
2026-01-25 23:01:03.47	19.29	6.09	-53.1	-61.9	3.8	7.45e-01	0	43	104	0	77	10075
2026-01-25 23:01:04.48	19.25	6.18	-53.0	-61.9	3.8	7.46e-01	0	43	104	0	77	10084
2026-01-25 23:01:05.49	19.20	6.26	-53.1	-61.9	3.8	7.45e-01	0	43	104	0	77	10116
2026-01-25 23:01:06.49	19.16	6.35	-53.0	-61.9	3.8	7.45e-01	0	43	104	0	77	10088
2026-01-25 23:01:07.50	19.11	6.43	-53.1	-61.9	3.8	7.44e-01	0	43	104	0	77	10099
2026-01-25 23:01:08.51	19.07	6.52	-53.1	-61.9	3.8	7.46e-01	0	43	104	0	77	10145
2026-01-25 23:01:09.52	19.02	6.61	-53.1	-61.9	3.8	7.46e-01	0	43	104	0	77	10149
2026-01-25 23:01:10.52	18.98	6.69	-53.1	-61.9	3.8	7.47e-01	0	43	104	0	77	10165
2026-01-25 23:01:11.53	18.93	6.78	-53.1	-61.9	3.8	7.46e-01	0	43	104	0	77	10157
2026-01-25 23:01:12.54	18.89	6.87	-53.1	-62.0	3.8	7.45e-01	0	43	104	0	77	10189
2026-01-25 23:01:13.55	18.84	6.96	-53.1	-62.0	3.8	7.45e-01	0	43	104	0	77	10199
2026-01-25 23:01:14.55	18.79	7.04	-53.1	-62.0	3.8	7.44e-01	0	43	104	0	77	10193
2026-01-25 23:01:15.56	18.74	7.13	-53.1	-62.0	3.8	7.45e-01	0	43	104	0	77	10220
2026-01-25 23:01:16.56	18.70	7.22	-53.2	-62.0	3.8	7.45e-01	0	43	104	0	77	10202
2026-01-25 23:01:17.57	18.65	7.31	-53.2	-62.0	3.8	7.44e-01	0	43	104	0	77	10222
2026-01-25 23:01:18.58	18.60	7.40	-53.2	-62.0	3.8	7.45e-01	0	43	104	0	77	10221
2026-01-25 23:01:19.59	18.55	7.49	-53.2	-62.0	3.8	7.46e-01	0	43	104	0	77	10250
2026-01-25 23:01:20.60	18.50	7.58	-53.2	-62.1	3.8	7.46e-01	0	43	104	0	77	10313
2026-01-25 23:01:21.60	18.45	7.67	-53.2	-62.0	3.8	7.46e-01	0	43	104	0	77	10236
2026-01-25 23:01:22.61	18.40	7.76	-53.2	-62.0	3.8	7.46e-01	0	43	104	0	77	10275
2026-01-25 23:01:23.61	18.35	7.85	-53.2	-62.1	3.8	7.45e-01	0	43	104	0	77	10317
2026-01-25 23:01:24.62	18.29	7.95	-53.2	-62.1	3.8	7.45e-01	0	43	104	0	77	10316
2026-01-25 23:01:25.63	18.24	8.04	-53.2	-62.0	3.8	7.44e-01	0	44	104	0	77	10259
2026-01-25 23:01:26.63	18.19	8.13	-53.2	-62.1	3.8	7.46e-01	0	43	104	0	77	10305
2026-01-25 23:01:27.64	18.14	8.23	-53.2	-62.1	3.8	7.45e-01	0	43	104	0	77	10333
2026-01-25 23:01:28.65	18.08	8.32	-53.3	-62.1	3.8	7.45e-01	0	44	104	0	77	10329
2026-01-25 23:01:29.65	18.03	8.41	-53.3	-62.1	3.8	7.45e-01	0	43	104	0	77	10322
2026-01-25 23:01:30.65	17.98	8.51	-53.3	-62.1	3.8	7.46e-01	0	43	104	0	77	10357
2026-01-25 23:01:31.66	17.92	8.60	-53.3	-62.1	3.8	7.45e-01	0	43	104	0	77	10305
2026-01-25 23:01:32.67	17.87	8.70	-53.3	-62.2	3.8	7.44e-01	0	43	104	0	77	10424
2026-01-25 23:01:33.68	17.81	8.80	-53.3	-62.1	3.8	7.46e-01	0	43	104	0	77	10351
2026-01-25 23:01:34.69	17.75	8.89	-53.3	-62.1	3.8	7.45e-01	0	43	104	0	77	10358
2026-01-25 23:01:35.69	17.70	8.99	-53.3	-62.1	3.8	7.45e-01	0	44	104	0	77	10376
2026-01-25 23:01:36.69	17.64	9.09	-53.3	-62.2	3.8	7.44e-01	0	44	104	0	77	10444
2026-01-25 23:01:37.70	17.58	9.19	-53.3	-62.1	3.8	7.45e-01	0	44	104	0	77	10371
2026-01-25 23:01:38.71	17.52	9.28	-53.3	-62.2	3.8	7.45e-01	0	43	104	0	77	10436
2026-01-25 23:01:39.72	17.47	9.38	-53.3	-62.1	3.8	7.46e-01	0	43	104	0	77	10372
2026-01-25 23:01:40.72	17.41	9.48	-53.4	-62.2	3.8	7.46e-01	0	43	104	0	77	10465
2026-01-25 23:01:41.73	17.35	9.58	-53.3	-62.1	3.8	7.45e-01	0	44	104	0	77	10393
2026-01-25 23:01:42.73	17.29	9.68	-53.4	-62.2	3.8	7.44e-01	0	43	104	0	77	10483
2026-01-25 23:01:43.74	17.23	9.79	-53.3	-62.2	3.8	7.45e-01	0	44	104	0	77	10450
2026-01-25 23:01:44.75	17.16	9.89	-53.4	-62.2	3.8	7.46e-01	0	44	104	0	77	10515
2026-01-25 23:01:45.76	17.10	9.99	-53.4	-62.2	3.8	7.45e-01	0	44	104	0	77	10470
2026-01-25 23:01:46.77	17.04	10.09	-53.4	-62.2	3.8	7.47e-01	0	44	104	0	77	10496
2026-01-25 23:01:47.77	16.98	10.20	-53.4	-62.2	3.8	7.47e-01	0	44	104	0	77	10476
2026-01-25 23:01:48.78	16.91	10.30	-53.4	-62.2	3.8	7.44e-01	0	44	104	0	77	10525
2026-01-25 23:01:49.78	16.85	10.40	-53.4	-62.2	3.8	7.45e-01	0	44	104	0	77	10486
2026-01-25 23:01:50.79	16.78	10.51	-53.4	-62.2	3.8	7.47e-01	0	44	104	0	77	10532
2026-01-25 23:01:51.80	16.72	10.62	-53.4	-62.2	3.8	7.46e-01	0	44	104	0	77	10496
2026-01-25 23:01:52.79	16.65	10.72	-53.5	-62.3	3.8	7.46e-01	0	44	104	0	77	10548
2026-01-25 23:01:53.80	16.58	10.83	-53.4	-62.2	3.8	7.46e-01	0	44	104	0	77	10516
2026-01-25 23:01:54.81	16.52	10.94	-53.5	-62.3	3.8	7.45e-01	0	44	104	0	77	10560
2026-01-25 23:01:55.81	16.45	11.04	-53.4	-62.2	3.8	7.46e-01	0	43	104	0	77	10521
2026-01-25 23:01:56.82	16.38	11.15	-53.5	-62.3	3.8	7.44e-01	0	44	104	0	77	10599
2026-01-25 23:01:57.83	16.31	11.26	-53.4	-62.2	3.8	7.45e-01	0	44	104	0	77	10510
2026-01-25 23:01:58.84	16.24	11.37	-53.5	-62.3	3.8	7.44e-01	0	44	104	0	77	10623
2026-01-25 23:01:59.85	16.17	11.48	-53.4	-62.3	3.8	7.45e-01	0	43	104	0	77	10563
2026-01-25 23:02:00.85	16.10	11.59	-53.5	-62.3	3.8	7.45e-01	0	44	104	0	77	10618
2026-01-25 23:02:01.86	16.02	11.70	-53.5	-62.3	3.8	7.46e-01	0	44	104	0	77	10536
2026-01-25 23:02:02.87	15.95	11.82	-53.5	-62.3	3.8	7.44e-01	0	44	104	0	77	10648
2026-01-25 23:02:03.88	15.88	11.93	-53.5	-62.3	3.8	7.44e-01	0	44	104	0	77	10569
2026-01-25 23:02:04.89	15.80	12.04	-53.5	-62.4	3.8	7.46e-01	0	44	104	0	77	10670
2026-01-25 23:02:05.90	15.73	12.16	-53.5	-62.3	3.8	7.45e-01	0	44	104	0	77	10579
2026-01-25 23:02:06.90	15.65	12.27	-53.5	-62.4	3.8	7.44e-01	0	44	104	0	77	10700
2026-01-25 23:02:07.91	15.58	12.39	-53.5	-62.3	3.8	7.46e-01	0	43	104	0	77	10611
2026-01-25 23:02:08.92	15.50	12.51	-53.6	-62.4	3.8	7.44e-01	0	44	104	0	77	10744
2026-01-25 23:02:09.92	15.42	12.62	-53.5	-62.4	3.8	7.44e-01	0	44	104	0	77	10688
2026-01-25 23:02:10.93	15.34	12.74	-53.6	-62.4	3.8	7.46e-01	0	44	104	0	77	10762
2026-01-25 23:02:11.94	15.26	12.86	-53.5	-62.4	3.8	7.45e-01	0	44	104	0	77	10673
2026-01-25 23:02:12.94	15.18	12.98	-53.6	-62.4	3.8	7.45e-01	0	44	104	0	77	10776
2026-01-25 23:02:13.95	15.10	13.10	-53.5	-62.4	3.8	7.44e-01	0	44	104	0	77	10669
2026-01-25 23:02:14.96	15.02	13.22	-53.7	-62.5	3.8	7.47e-01	0	44	104	0	77	10796
2026-01-25 23:02:15.96	14.93	13.34	-53.6	-62.4	3.8	7.44e-01	0	44	104	0	77	10769
2026-01-25 23:02:16.97	14.85	13.46	-53.6	-62.5	3.8	7.47e-01	0	44	104	0	77	10809
2026-01-25 23:02:17.98	14.76	13.59	-53.6	-62.4	3.8	7.45e-01	0	44	104	0	77	10739
2026-01-25 23:02:18.99	14.68	13.71	-53.7	-62.5	3.8	7.45e-01	0	44	104	0	77	10808
2026-01-25 23:02:20.00	14.59	13.84	-53.6	-62.5	3.8	7.46e-01	0	44	104	0	77	10815
2026-01-25 23:02:21.01	14.50	13.96	-53.7	-62.5	3.8	7.46e-01	0	44	104	0	77	10822
2026-01-25 23:02:22.01	14.41	14.09	-53.6	-62.5	3.8	7.45e-01	0	44	104	0	77	10780
2026-01-25 23:02:23.02	14.32	14.21	-53.7	-62.5	3.8	7.44e-01	0	44	104	0	77	10822
2026-01-25 23:02:24.03	14.23	14.34	-53.6	-62.5	3.8	7.46e-01	0	44	104	0	77	10807
2026-01-25 23:02:25.03	14.14	14.47	-53.7	-62.5	3.8	7.44e-01	0	44	104	0	77	10820
2026-01-25 23:02:26.04	14.05	14.60	-53.6	-62.4	3.8	7.44e-01	0	44	104	0	77	10775
2026-01-25 23:02:27.04	13.96	14.73	-53.7	-62.5	3.8	7.47e-01	0	44	104	0	77	10895
2026-01-25 23:02:28.05	13.86	14.86	-53.6	-62.4	3.8	7.45e-01	0	44	104	0	77	10761
2026-01-25 23:02:29.06	13.77	14.99	-53.7	-62.5	3.8	7.44e-01	0	44	104	0	77	10856
2026-01-25 23:02:30.07	13.67	15.12	-53.6	-62.5	3.8	7.45e-01	0	44	104	0	77	10800
2026-01-25 23:02:31.07	13.57	15.26	-53.7	-62.5	3.8	7.46e-01	0	44	104	0	77	10891
2026-01-25 23:02:32.08	13.47	15.39	-53.7	-62.5	3.8	7.46e-01	0	44	104	0	77	10813
2026-01-25 23:02:33.08	13.37	15.53	-53.7	-62.5	3.8	7.46e-01	0	44	104	0	77	10888
2026-01-25 23:02:34.09	13.27	15.66	-53.7	-62.5	3.8	7.46e-01	0	44	104	0	77	10824
2026-01-25 23:02:35.09	13.17	15.80	-53.7	-62.5	3.8	7.42e-01	0	44	104	0	78	10256
2026-01-25 23:02:36.10	13.07	15.94	-53.7	-62.5	3.8	7.48e-01	0	44	104	0	78	10261
2026-01-25 23:02:37.11	12.96	16.08	-53.8	-62.6	3.8	7.45e-01	0	44	104	0	78	10312
2026-01-25 23:02:38.12	12.86	16.22	-53.7	-62.5	3.8	7.45e-01	0	44	104	0	78	10251
2026-01-25 23:02:39.13	12.75	16.36	-53.8	-62.6	3.8	7.46e-01	0	44	104	0	78	10338
2026-01-25 23:02:40.13	12.64	16.50	-53.7	-62.6	3.8	7.45e-01	0	44	104	0	78	10331
2026-01-25 23:02:41.14	12.53	16.64	-53.8	-62.6	3.8	7.45e-01	0	44	104	0	78	10410
2026-01-25 23:02:42.14	12.42	16.79	-53.7	-62.6	3.8	7.44e-01	0	44	104	0	78	10307
2026-01-25 23:02:43.15	12.31	16.93	-53.8	-62.6	3.8	7.47e-01	0	44	104	0	78	10369
2026-01-25 23:02:44.16	12.20	17.08	-53.7	-62.6	3.8	7.46e-01	0	44	104	0	78	10315
2026-01-25 23:02:45.16	12.08	17.23	-53.8	-62.6	3.8	7.47e-01	0	44	104	0	78	10387
2026-01-25 23:02:46.17	11.97	17.37	-53.7	-62.6	3.8	7.44e-01	0	44	104	0	78	10321
2026-01-25 23:02:47.18	11.85	17.52	-53.8	-62.6	3.8	7.46e-01	0	44	104	0	78	10388
2026-01-25 23:02:48.18	11.73	17.67	-53.8	-62.6	3.8	7.46e-01	0	44	104	0	78	10366
2026-01-25 23:02:49.19	11.61	17.82	-53.8	-62.6	3.8	7.45e-01	0	44	104	0	78	10400
2026-01-25 23:02:50.20	11.49	17.98	-53.8	-62.6	3.8	7.45e-01	0	44	104	0	78	10329
2026-01-25 23:02:51.21	11.37	18.13	-53.8	-62.7	3.8	7.46e-01	0	44	104	0	78	10416
2026-01-25 23:02:52.21	11.24	18.28	-53.8	-62.6	3.8	7.44e-01	0	44	104	0	78	10346
2026-01-25 23:02:53.22	11.11	18.44	-53.8	-62.7	3.8	7.45e-01	0	44	104	0	78	10435
2026-01-25 23:02:54.22	10.99	18.60	-53.8	-62.6	3.8	7.44e-01	0	44	104	0	78	10387
2026-01-25 23:02:55.22	10.86	18.75	-53.9	-62.7	3.8	7.45e-01	0	44	104	0	78	10432
2026-01-25 23:02:56.23	10.73	18.91	-53.9	-62.7	3.8	7.45e-01	0	44	104	0	78	10442
2026-01-25 23:02:57.24	10.60	19.07	-53.9	-62.7	3.8	7.46e-01	0	44	104	0	78	10482
2026-01-25 23:02:58.25	10.46	19.23	-53.8	-62.7	3.8	7.45e-01	0	44	104	0	78	10424
2026-01-25 23:02:59.25	10.33	19.40	-53.9	-62.7	3.8	7.45e-01	0	44	104	0	78	10503
2026-01-25 23:03:00.26	10.19	19.56	-53.8	-62.7	3.8	7.46e-01	0	44	104	0	78	10415
2026-01-25 23:03:01.27	10.05	19.73	-53.9	-62.7	3.8	7.46e-01	0	44	104	0	78	10488
2026-01-25 23:03:02.27	9.91	19.89	-53.9	-62.7	3.8	7.46e-01	0	44	104	0	78	10445
2026-01-25 23:03:03.27	9.77	20.06	-53.9	-62.7	3.8	7.47e-01	0	44	104	0	78	10480
2026-01-25 23:03:04.28	9.62	20.23	-53.9	-62.6	3.8	7.44e-01	0	44	104	0	78	10410
2026-01-25 23:03:05.28	9.47	20.40	-53.9	-62.7	3.8	7.47e-01	0	44	104	0	78	10509
2026-01-25 23:03:06.29	9.33	20.57	-53.9	-62.7	3.8	7.46e-01	0	44	104	0	78	10456
2026-01-25 23:03:07.29	9.18	20.74	-53.9	-62.7	3.8	7.47e-01	0	44	104	0	78	10518
2026-01-25 23:03:08.30	9.02	20.91	-53.9	-62.7	3.8	7.45e-01	0	44	104	0	78	10476
2026-01-25 23:03:09.31	8.87	21.09	-53.9	-62.8	3.8	7.45e-01	0	44	104	0	78	10559
2026-01-25 23:03:10.31	8.71	21.26	-53.9	-62.7	3.8	7.45e-01	0	44	104	0	78	10479
2026-01-25 23:03:11.32	8.55	21.44	-53.9	-62.7	3.8	7.44e-01	0	44	104	0	78	10517
2026-01-25 23:03:12.33	8.39	21.62	-53.9	-62.8	3.8	7.44e-01	0	44	104	0	78	10562
2026-01-25 23:03:13.33	8.23	21.80	-54.0	-62.8	3.8	7.46e-01	0	44	104	0	78	10541
2026-01-25 23:03:14.34	8.06	21.99	-53.9	-62.8	3.8	7.45e-01	0	44	104	0	78	10570
2026-01-25 23:03:15.35	7.90	22.17	-54.0	-62.8	3.8	7.46e-01	0	44	104	0	78	10584
2026-01-25 23:03:16.36	7.72	22.35	-54.0	-62.8	3.8	7.43e-01	0	44	104	0	78	10580
2026-01-25 23:03:17.37	7.55	22.54	-54.0	-62.8	3.8	7.46e-01	0	44	104	0	78	10574
2026-01-25 23:03:18.37	7.38	22.73	-54.0	-62.8	3.8	7.46e-01	0	44	104	0	78	10563
2026-01-25 23:03:19.39	7.20	22.92	-54.0	-62.8	3.8	7.45e-01	0	44	104	0	78	10606
2026-01-25 23:03:20.39	7.02	23.11	-54.0	-62.8	3.8	7.45e-01	0	44	104	0	78	10538
2026-01-25 23:03:21.40	6.84	23.30	-54.0	-62.8	3.8	7.45e-01	0	44	104	0	78	10604
2026-01-25 23:03:22.41	6.65	23.50	-54.0	-62.8	3.8	7.45e-01	0	44	104	0	78	10595
2026-01-25 23:03:23.42	6.46	23.69	-54.0	-62.8	3.8	7.45e-01	0	44	104	0	78	10582
2026-01-25 23:03:24.43	6.27	23.89	-54.0	-62.9	3.8	7.45e-01	0	44	104	0	78	10680
2026-01-25 23:03:25.43	6.08	24.09	-54.0	-62.8	3.8	7.46e-01	0	44	104	0	78	10634
2026-01-25 23:03:26.44	5.89	24.29	-54.0	-62.8	3.8	7.46e-01	0	44	104	0	78	10638
2026-01-25 23:03:27.45	5.69	24.49	-54.0	-62.9	3.8	7.44e-01	0	44	104	0	78	10661
2026-01-25 23:03:28.46	5.48	24.69	-54.0	-62.8	3.8	7.45e-01	0	44	104	0	78	10630
2026-01-25 23:03:29.47	5.28	24.90	-54.0	-62.8	3.8	7.45e-01	0	44	104	0	78	10652
2026-01-25 23:03:30.48	5.07	25.11	-54.0	-62.9	3.8	7.46e-01	0	44	104	0	78	10661
2026-01-25 23:03:31.48	4.86	25.31	-54.1	-62.9	3.8	7.45e-01	0	44	104	0	78	10691
2026-01-25 23:03:32.49	4.65	25.52	-54.0	-62.9	3.8	7.44e-01	0	44	104	0	78	10685
2026-01-25 23:03:33.50	4.43	25.73	-54.1	-62.9	3.8	7.45e-01	0	44	104	0	78	10687
2026-01-25 23:03:34.50	4.21	25.94	-54.0	-62.9	3.8	7.46e-01	0	44	104	0	78	10702
2026-01-25 23:03:35.51	3.99	26.16	-54.1	-62.9	3.8	7.44e-01	0	44	104	0	78	10677
2026-01-25 23:03:36.52	3.76	26.38	-54.1	-62.9	3.8	7.44e-01	0	44	104	0	78	10713
2026-01-25 23:03:37.52	3.53	26.59	-54.1	-62.9	3.8	7.45e-01	0	44	104	0	78	10716
2026-01-25 23:03:38.53	3.29	26.81	-54.1	-62.9	3.8	7.46e-01	0	44	104	0	78	10704
2026-01-25 23:03:39.54	3.06	27.03	-54.1	-62.9	3.8	7.46e-01	0	44	104	0	78	10713
2026-01-25 23:03:40.55	2.81	27.26	-54.1	-62.9	3.8	7.45e-01	0	44	104	0	78	10697
2026-01-25 23:03:41.55	2.57	27.48	-54.1	-62.9	3.8	7.45e-01	0	44	104	0	78	10718
2026-01-25 23:03:42.56	2.32	27.71	-54.1	-62.9	3.8	7.45e-01	0	44	104	0	78	10742
2026-01-25 23:03:43.57	2.06	27.93	-54.1	-62.9	3.8	7.45e-01	0	44	104	0	78	10752
2026-01-25 23:03:44.58	1.81	28.16	-54.1	-63.0	3.8	7.45e-01	0	44	104	0	78	10786
2026-01-25 23:03:45.58	1.55	28.39	-54.1	-62.9	3.8	7.46e-01	0	44	104	0	78	10747
2026-01-25 23:03:46.59	1.28	28.63	-54.1	-62.9	3.8	7.45e-01	0	44	104	0	78	10743
2026-01-25 23:03:47.60	1.01	28.86	-54.1	-63.0	3.8	7.46e-01	0	44	104	0	78	10800
2026-01-25 23:03:48.61	0.73	29.10	-54.2	-62.9	3.8	7.43e-01	0	44	104	0	78	10777
2026-01-25 23:03:49.61	0.46	29.34	-54.1	-62.9	3.8	7.46e-01	0	44	104	0	78	10771
2026-01-25 23:03:50.62	0.17	29.58	-54.2	-63.0	3.8	7.45e-01	0	44	104	0	78	10854
2026-01-25 23:03:51.63	359.88	29.82	-54.2	-63.0	3.8	7.46e-01	0	44	104	0	78	10860
2026-01-25 23:03:52.64	359.59	30.06	-54.2	-63.0	3.8	7.47e-01	0	44	104	0	78	10848
2026-01-25 23:03:53.64	359.29	30.30	-54.2	-63.0	3.8	7.45e-01	0	44	104	0	78	10818
2026-01-25 23:03:54.65	358.99	30.55	-54.2	-63.0	3.8	7.44e-01	0	44	104	0	78	10868
2026-01-25 23:03:55.66	358.68	30.80	-54.2	-63.0	3.8	7.45e-01	0	44	104	0	78	10816
2026-01-25 23:03:56.67	358.37	31.05	-54.3	-63.1	3.9	7.45e-01	0	44	104	0	79	10313
2026-01-25 23:03:57.67	358.05	31.30	-54.2	-63.0	3.8	7.45e-01	0	44	104	0	79	10280
2026-01-25 23:03:58.68	357.72	31.55	-54.2	-63.1	3.8	7.46e-01	0	44	104	0	79	10332
2026-01-25 23:03:59.69	357.39	31.81	-54.2	-63.1	3.8	7.47e-01	0	44	104	0	79	10326
2026-01-25 23:04:00.70	357.06	32.06	-54.3	-63.1	3.8	7.45e-01	0	44	104	0	79	10321
2026-01-25 23:04:01.71	356.72	32.32	-54.2	-63.1	3.8	7.44e-01	0	44	104	0	79	10303
2026-01-25 23:04:02.72	356.37	32.58	-54.3	-63.1	3.8	7.45e-01	0	44	104	0	79	10324
2026-01-25 23:04:03.73	356.01	32.84	-54.3	-63.1	3.8	7.45e-01	0	44	104	0	79	10345
2026-01-25 23:04:04.73	355.66	33.10	-54.3	-63.1	3.8	7.45e-01	0	44	104	0	79	10379
2026-01-25 23:04:05.74	355.29	33.37	-54.3	-63.0	3.8	7.46e-01	0	44	104	0	79	10286
2026-01-25 23:04:06.74	354.92	33.63	-54.3	-63.1	3.8	7.45e-01	0	44	104	0	79	10375
2026-01-25 23:04:07.75	354.54	33.90	-54.3	-63.1	3.8	7.45e-01	0	44	104	0	79	10335
2026-01-25 23:04:08.76	354.15	34.17	-54.3	-63.2	3.8	7.44e-01	0	44	104	0	79	10460
2026-01-25 23:04:09.77	353.76	34.44	-54.3	-63.1	3.8	7.46e-01	0	44	104	0	79	10378
2026-01-25 23:04:10.77	353.36	34.70	-54.3	-63.2	3.8	7.46e-01	0	44	104	0	79	10429
2026-01-25 23:04:11.78	352.95	34.98	-54.3	-63.2	3.8	7.45e-01	0	44	104	0	79	10416
2026-01-25 23:04:12.79	352.54	35.25	-54.4	-63.2	3.8	7.45e-01	0	44	104	0	79	10476
2026-01-25 23:04:13.80	352.11	35.52	-54.3	-63.2	3.8	7.45e-01	0	44	104	0	79	10429
2026-01-25 23:04:14.81	351.68	35.80	-54.4	-63.2	3.8	7.47e-01	0	44	104	0	79	10497
2026-01-25 23:04:15.81	351.25	36.07	-54.4	-63.2	3.8	7.47e-01	0	44	104	0	79	10483
2026-01-25 23:04:16.82	350.80	36.35	-54.4	-63.3	3.8	7.45e-01	0	44	104	0	79	10571
2026-01-25 23:04:17.83	350.35	36.63	-54.4	-63.2	3.8	7.47e-01	0	44	104	0	79	10453
2026-01-25 23:04:18.84	349.88	36.91	-54.4	-63.3	3.8	7.45e-01	0	44	104	0	79	10560
2026-01-25 23:04:19.85	349.41	37.19	-54.4	-63.3	3.8	7.46e-01	0	44	104	0	79	10538
2026-01-25 23:04:20.86	348.93	37.47	-54.5	-63.3	3.8	7.45e-01	0	44	104	0	79	10586
2026-01-25 23:04:21.87	348.44	37.75	-54.4	-63.3	3.8	7.44e-01	0	44	104	0	79	10563
2026-01-25 23:04:22.87	347.95	38.02	-54.5	-63.3	3.8	7.46e-01	0	44	104	0	79	10589
2026-01-25 23:04:23.88	347.44	38.31	-54.5	-63.3	3.8	7.44e-01	0	44	104	0	79	10545
2026-01-25 23:04:24.88	346.93	38.58	-54.5	-63.4	3.8	7.46e-01	0	44	104	0	79	10659
2026-01-25 23:04:25.89	346.40	38.87	-54.5	-63.3	3.8	7.46e-01	0	44	104	0	79	10584
2026-01-25 23:04:26.90	345.87	39.15	-54.5	-63.3	3.8	7.44e-01	0	44	104	0	79	10640
2026-01-25 23:04:27.91	345.32	39.43	-54.5	-63.4	3.8	7.45e-01	0	44	104	0	79	10687
2026-01-25 23:04:28.91	344.77	39.71	-54.6	-63.4	3.8	7.45e-01	0	44	104	0	79	10727
2026-01-25 23:04:29.92	344.21	39.99	-54.5	-63.3	3.8	7.45e-01	0	44	104	0	79	10646
2026-01-25 23:04:30.93	343.63	40.27	-54.5	-63.4	3.8	7.45e-01	0	44	104	0	79	10690
2026-01-25 23:04:31.93	343.05	40.54	-54.5	-63.4	3.8	7.44e-01	0	44	104	0	79	10659
2026-01-25 23:04:32.95	342.44	40.83	-54.6	-63.4	3.8	7.44e-01	0	44	104	0	79	10724
2026-01-25 23:04:33.96	341.84	41.10	-54.5	-63.4	3.8	7.45e-01	0	44	104	0	79	10667
2026-01-25 23:04:34.96	341.22	41.38	-54.6	-63.4	3.8	7.45e-01	0	44	104	0	79	10692
2026-01-25 23:04:35.97	340.59	41.65	-54.6	-63.4	3.8	7.45e-01	0	44	104	0	79	10709
2026-01-25 23:04:36.97	339.96	41.92	-54.6	-63.4	3.8	7.44e-01	0	44	104	0	79	10711
2026-01-25 23:04:37.98	339.30	42.20	-54.6	-63.4	3.8	7.46e-01	0	44	104	0	79	10673
2026-01-25 23:04:38.99	338.64	42.47	-54.6	-63.4	3.8	7.45e-01	0	44	104	0	79	10694
2026-01-25 23:04:40.00	337.96	42.73	-54.6	-63.4	3.8	7.46e-01	0	44	104	0	79	10723
2026-01-25 23:04:41.00	337.28	43.00	-54.6	-63.4	3.8	7.46e-01	0	44	104	0	79	10719
2026-01-25 23:04:42.01	336.58	43.26	-54.6	-63.4	3.8	7.44e-01	0	44	104	0	79	10746
2026-01-25 23:04:43.02	335.86	43.52	-54.6	-63.4	3.8	7.45e-01	0	44	104	0	79	10755
2026-01-25 23:04:44.03	335.14	43.78	-54.6	-63.4	3.8	7.45e-01	0	44	104	0	79	10735
2026-01-25 23:04:45.04	334.40	44.03	-54.6	-63.5	3.8	7.46e-01	0	44	104	0	79	10799
2026-01-25 23:04:46.05	333.65	44.28	-54.6	-63.4	3.8	7.44e-01	0	44	104	0	79	10737
2026-01-25 23:04:47.05	332.90	44.53	-54.6	-63.4	3.8	7.46e-01	0	44	104	0	79	10745
2026-01-25 23:04:48.06	332.12	44.77	-54.6	-63.4	3.8	7.46e-01	0	44	104	0	79	10732
2026-01-25 23:04:49.07	331.34	45.01	-54.6	-63.4	3.8	7.43e-01	0	44	104	0	79	10736
2026-01-25 23:04:50.07	330.54	45.25	-54.6	-63.4	3.8	7.45e-01	0	44	104	0	79	10716
2026-01-25 23:04:51.08	329.73	45.48	-54.7	-63.5	3.8	7.44e-01	0	44	104	0	79	10805
2026-01-25 23:04:52.09	328.91	45.70	-54.6	-63.5	3.8	7.46e-01	0	44	104	0	79	10808
2026-01-25 23:04:53.10	328.07	45.92	-54.6	-63.5	3.8	7.45e-01	0	44	104	0	79	10786
2026-01-25 23:04:54.11	327.23	46.14	-54.6	-63.5	3.8	7.46e-01	0	44	104	0	79	10799
2026-01-25 23:04:55.11	326.38	46.35	-54.6	-63.5	3.8	7.45e-01	0	44	104	0	79	10818
2026-01-25 23:04:56.12	325.50	46.55	-54.7	-63.5	3.8	7.47e-01	0	44	104	0	79	10841
2026-01-25 23:04:57.13	324.62	46.75	-54.7	-63.4	3.8	7.44e-01	0	44	104	0	79	10771
2026-01-25 23:04:58.14	323.73	46.94	-54.6	-63.4	3.8	7.45e-01	0	44	104	0	79	10761
2026-01-25 23:04:59.14	322.83	47.13	-54.6	-63.5	3.8	7.46e-01	0	44	104	0	79	10785
2026-01-25 23:05:00.15	321.91	47.31	-54.7	-63.5	3.8	7.45e-01	0	44	104	0	79	10818
2026-01-25 23:05:01.15	320.99	47.48	-54.7	-63.5	3.8	7.44e-01	0	44	104	0	79	10788
2026-01-25 23:05:02.16	320.06	47.64	-54.6	-63.4	3.8	7.45e-01	0	44	104	0	79	10770
2026-01-25 23:05:03.16	319.12	47.80	-54.7	-63.5	3.8	7.46e-01	0	44	104	0	79	10851
2026-01-25 23:05:04.17	318.16	47.94	-54.7	-63.5	3.8	7.44e-01	0	44	104	0	79	10842
2026-01-25 23:05:05.18	317.19	48.09	-54.7	-63.5	3.8	7.45e-01	0	44	104	0	79	10850
2026-01-25 23:05:06.18	316.23	48.22	-54.7	-63.5	3.8	7.45e-01	0	44	104	0	79	10803
2026-01-25 23:05:07.19	315.24	48.34	-54.7	-63.5	3.8	7.45e-01	0	44	104	0	79	10820
2026-01-25 23:05:08.20	314.25	48.46	-54.7	-63.5	3.8	7.45e-01	0	44	104	0	80	10228
2026-01-25 23:05:09.21	313.25	48.57	-54.6	-63.4	3.8	7.46e-01	0	44	104	0	80	10150
2026-01-25 23:05:10.21	312.25	48.66	-54.6	-63.4	3.8	7.45e-01	0	44	104	0	80	10173
2026-01-25 23:05:11.22	311.24	48.75	-54.6	-63.4	3.8	7.45e-01	0	44	104	0	80	10174
2026-01-25 23:05:12.23	310.22	48.83	-54.6	-63.5	3.8	7.46e-01	0	44	104	0	80	10195
2026-01-25 23:05:13.24	309.20	48.90	-54.6	-63.5	3.8	7.45e-01	0	44	104	0	80	10212
2026-01-25 23:05:14.24	308.18	48.96	-54.6	-63.4	3.8	7.45e-01	0	44	104	0	80	10138
2026-01-25 23:05:15.25	307.14	49.01	-54.6	-63.5	3.8	7.45e-01	0	44	104	0	80	10205
2026-01-25 23:05:16.26	306.11	49.06	-54.7	-63.5	3.8	7.45e-01	0	44	104	0	80	10221
2026-01-25 23:05:17.27	305.07	49.09	-54.7	-63.5	3.8	7.46e-01	0	44	104	0	80	10215
2026-01-25 23:05:18.28	304.03	49.11	-54.6	-63.5	3.8	7.45e-01	0	44	104	0	80	10185
2026-01-25 23:05:19.28	303.00	49.12	-54.7	-63.5	3.8	7.46e-01	0	44	104	0	80	10237
2026-01-25 23:05:20.29	301.96	49.13	-54.7	-63.5	3.8	7.45e-01	0	44	104	0	80	10227
2026-01-25 23:05:21.30	300.91	49.12	-54.6	-63.5	3.8	7.47e-01	0	44	104	0	80	10181
2026-01-25 23:05:22.31	299.87	49.10	-54.6	-63.4	3.8	7.45e-01	0	44	104	0	80	10133
2026-01-25 23:05:23.32	298.83	49.07	-54.7	-63.5	3.8	7.45e-01	0	44	104	0	80	10196
2026-01-25 23:05:24.33	297.80	49.04	-54.7	-63.5	3.8	7.43e-01	0	44	104	0	80	10226
2026-01-25 23:05:25.33	296.77	48.99	-54.6	-63.5	3.8	7.43e-01	0	44	104	0	80	10214
2026-01-25 23:05:26.34	295.74	48.93	-54.6	-63.4	3.8	7.46e-01	0	44	104	0	80	10076
2026-01-25 23:05:27.35	294.71	48.87	-54.6	-63.5	3.8	7.45e-01	0	44	104	0	80	10215
2026-01-25 23:05:28.36	293.69	48.79	-54.6	-63.5	3.8	7.44e-01	0	44	104	0	80	10200
2026-01-25 23:05:29.36	292.69	48.71	-54.6	-63.5	3.8	7.46e-01	0	44	104	0	80	10180
2026-01-25 23:05:30.36	291.68	48.61	-54.6	-63.4	3.8	7.45e-01	0	44	104	0	80	10130
2026-01-25 23:05:31.37	290.68	48.51	-54.7	-63.5	3.8	7.44e-01	0	44	104	0	80	10214
2026-01-25 23:05:32.38	289.68	48.40	-54.7	-63.5	3.8	7.44e-01	0	44	104	0	80	10215
2026-01-25 23:05:33.38	288.70	48.28	-54.6	-63.5	3.8	7.46e-01	0	44	104	0	80	10176
2026-01-25 23:05:34.39	287.72	48.15	-54.6	-63.4	3.8	7.46e-01	0	44	104	0	80	10108
2026-01-25 23:05:35.40	286.75	48.01	-54.6	-63.5	3.8	7.46e-01	0	44	104	0	80	10185
2026-01-25 23:05:36.41	285.79	47.87	-54.6	-63.4	3.8	7.47e-01	0	44	104	0	80	10175
2026-01-25 23:05:37.41	284.84	47.72	-54.6	-63.4	3.8	7.44e-01	0	44	104	0	80	10126
2026-01-25 23:05:38.42	283.90	47.56	-54.6	-63.4	3.8	7.47e-01	0	44	104	0	80	10118
2026-01-25 23:05:39.43	282.96	47.39	-54.6	-63.4	3.8	7.45e-01	0	44	104	0	80	10145
2026-01-25 23:05:40.43	282.05	47.21	-54.6	-63.4	3.8	7.45e-01	0	44	104	0	80	10135
2026-01-25 23:05:41.44	281.14	47.03	-54.6	-63.4	3.8	7.46e-01	0	44	104	0	80	10077
2026-01-25 23:05:42.45	280.24	46.84	-54.5	-63.4	3.8	7.44e-01	0	44	104	0	80	10084
2026-01-25 23:05:43.46	279.35	46.64	-54.6	-63.4	3.8	7.44e-01	0	44	104	0	80	10133
2026-01-25 23:05:44.47	278.47	46.44	-54.6	-63.4	3.8	7.46e-01	0	44	104	0	80	10107
2026-01-25 23:05:45.47	277.61	46.24	-54.6	-63.4	3.8	7.45e-01	0	44	104	0	80	10108
2026-01-25 23:05:46.48	276.76	46.02	-54.5	-63.4	3.8	7.45e-01	0	44	104	0	80	10079
2026-01-25 23:05:47.49	275.91	45.80	-54.6	-63.4	3.8	7.47e-01	0	44	104	0	80	10122
2026-01-25 23:05:48.49	275.09	45.58	-54.6	-63.4	3.8	7.46e-01	0	44	104	0	80	10124
2026-01-25 23:05:49.50	274.27	45.35	-54.5	-63.4	3.8	7.46e-01	0	44	104	0	80	10080
2026-01-25 23:05:50.51	273.47	45.12	-54.5	-63.3	3.8	7.45e-01	0	44	104	0	80	10039
2026-01-25 23:05:51.52	272.67	44.88	-54.6	-63.4	3.8	7.44e-01	0	44	104	0	80	10092
2026-01-25 23:05:52.53	271.89	44.64	-54.6	-63.4	3.8	7.46e-01	0	44	104	0	80	10116
2026-01-25 23:05:53.53	271.13	44.39	-54.5	-63.4	3.8	7.46e-01	0	44	104	0	80	10089
2026-01-25 23:05:54.54	270.37	44.14	-54.5	-63.3	3.8	7.45e-01	0	44	104	0	80	10042
2026-01-25 23:05:55.55	269.63	43.89	-54.6	-63.4	3.8	7.44e-01	0	44	104	0	80	10124
2026-01-25 23:05:56.56	268.90	43.63	-54.6	-63.4	3.8	7.46e-01	0	44	104	0	80	10111
2026-01-25 23:05:57.56	268.18	43.38	-54.5	-63.3	3.8	7.45e-01	0	44	104	0	80	10042
2026-01-25 23:05:58.57	267.47	43.11	-54.5	-63.3	3.8	7.44e-01	0	44	104	0	80	9993
2026-01-25 23:05:59.58	266.78	42.85	-54.5	-63.4	3.8	7.45e-01	0	44	104	0	80	10084
2026-01-25 23:06:00.59	266.09	42.58	-54.5	-63.4	3.8	7.46e-01	0	44	104	0	80	10076
2026-01-25 23:06:01.59	265.43	42.31	-54.5	-63.3	3.8	7.44e-01	0	44	104	0	80	10052
2026-01-25 23:06:02.61	264.76	42.04	-54.5	-63.3	3.8	7.47e-01	0	44	104	0	80	10017
2026-01-25 23:06:03.61	264.12	41.77	-54.5	-63.3	3.8	7.45e-01	0	44	104	0	80	10042
2026-01-25 23:06:04.62	263.48	41.49	-54.5	-63.3	3.8	7.46e-01	0	44	104	0	80	10026
2026-01-25 23:06:05.63	262.85	41.22	-54.5	-63.3	3.8	7.46e-01	0	44	104	0	80	10053
2026-01-25 23:06:06.63	262.25	40.94	-54.5	-63.3	3.8	7.45e-01	0	44	104	0	80	10001
2026-01-25 23:06:07.65	261.64	40.66	-54.5	-63.3	3.8	7.44e-01	0	44	104	0	80	10034
2026-01-25 23:06:08.65	261.05	40.38	-54.5	-63.3	3.8	7.45e-01	0	44	104	0	80	10037
2026-01-25 23:06:09.66	260.47	40.10	-54.5	-63.3	3.8	7.46e-01	0	44	104	0	80	9996
2026-01-25 23:06:10.67	259.89	39.82	-54.4	-63.3	3.8	7.44e-01	0	45	104	0	80	9959
2026-01-25 23:06:11.68	259.33	39.54	-54.5	-63.3	3.8	7.46e-01	0	44	104	0	80	10047
2026-01-25 23:06:12.69	258.78	39.26	-54.5	-63.3	3.8	7.45e-01	0	44	104	0	80	9993
2026-01-25 23:06:13.69	258.24	38.98	-54.4	-63.3	3.8	7.45e-01	0	44	104	0	80	9972
2026-01-25 23:06:14.70	257.71	38.69	-54.4	-63.2	3.8	7.44e-01	0	44	104	0	80	9909
2026-01-25 23:06:15.71	257.19	38.41	-54.5	-63.3	3.8	7.46e-01	0	44	104	0	80	9965
2026-01-25 23:06:16.72	256.68	38.13	-54.4	-63.3	3.8	7.46e-01	0	44	104	0	80	9958
2026-01-25 23:06:17.72	256.18	37.85	-54.4	-63.3	3.8	7.45e-01	0	44	104	0	80	9955
2026-01-25 23:06:18.73	255.68	37.57	-54.4	-63.2	3.8	7.46e-01	0	44	104	0	80	9914
2026-01-25 23:06:19.73	255.20	37.29	-54.4	-63.2	3.8	7.45e-01	0	44	104	0	80	9942
2026-01-25 23:06:20.74	254.73	37.01	-54.4	-63.2	3.8	7.46e-01	0	44	104	0	80	9941
2026-01-25 23:06:21.75	254.26	36.73	-54.4	-63.2	3.8	7.46e-01	0	44	104	0	80	9902
2026-01-25 23:06:22.76	253.80	36.45	-54.4	-63.2	3.8	7.44e-01	0	44	104	0	80	9884
2026-01-25 23:06:23.77	253.35	36.17	-54.4	-63.2	3.8	7.46e-01	0	44	104	0	80	9912
2026-01-25 23:06:24.78	252.90	35.89	-54.4	-63.2	3.8	7.44e-01	0	44	104	0	80	9912
2026-01-25 23:06:25.79	252.47	35.62	-54.4	-63.2	3.8	7.46e-01	0	44	104	0	80	9889
2026-01-25 23:06:26.79	252.04	35.34	-54.3	-63.2	3.8	7.45e-01	0	44	104	0	80	9904
2026-01-25 23:06:27.80	251.62	35.07	-54.4	-63.2	3.8	7.45e-01	0	44	104	0	80	9875
2026-01-25 23:06:28.81	251.21	34.80	-54.3	-63.2	3.8	7.46e-01	0	44	104	0	80	9866
2026-01-25 23:06:29.82	250.81	34.52	-54.3	-63.2	3.8	7.44e-01	0	44	104	0	80	9886
2026-01-25 23:06:30.83	250.41	34.25	-54.3	-63.1	3.8	7.46e-01	0	44	104	0	80	9826
2026-01-25 23:06:31.83	250.02	33.98	-54.3	-63.2	3.8	7.45e-01	0	44	104	0	80	9882
2026-01-25 23:06:32.84	249.64	33.72	-54.3	-63.2	3.8	7.45e-01	0	44	104	0	80	9855
2026-01-25 23:06:33.85	249.26	33.45	-54.3	-63.1	3.8	7.46e-01	0	44	104	0	80	9811
2026-01-25 23:06:34.86	248.89	33.18	-54.3	-63.2	3.8	7.46e-01	0	44	104	0	80	9832
2026-01-25 23:06:35.87	248.52	32.92	-54.3	-63.1	3.8	7.46e-01	0	44	104	0	80	9827
2026-01-25 23:06:36.87	248.17	32.66	-54.3	-63.1	3.8	7.43e-01	0	44	104	0	80	9820
2026-01-25 23:06:37.88	247.82	32.40	-54.3	-63.2	3.8	7.44e-01	0	44	104	0	80	9831
2026-01-25 23:06:38.89	247.47	32.14	-54.3	-63.1	3.8	7.44e-01	0	44	104	0	80	9822
2026-01-25 23:06:39.89	247.14	31.88	-54.3	-63.1	3.8	7.46e-01	0	44	104	0	80	9818
2026-01-25 23:06:40.90	246.80	31.62	-54.3	-63.1	3.8	7.45e-01	0	44	104	0	80	9807
2026-01-25 23:06:41.91	246.47	31.37	-54.3	-63.1	3.8	7.44e-01	0	45	104	0	80	9820
2026-01-25 23:06:42.92	246.15	31.12	-54.3	-63.1	3.8	7.45e-01	0	44	104	0	80	9781
2026-01-25 23:06:43.93	245.83	30.86	-54.3	-63.1	3.8	7.46e-01	0	44	104	0	80	9817
2026-01-25 23:06:44.93	245.52	30.62	-54.3	-63.1	3.8	7.46e-01	0	44	104	0	80	9810
2026-01-25 23:06:45.94	245.22	30.37	-54.3	-63.1	3.8	7.46e-01	0	44	104	0	80	9778
2026-01-25 23:06:46.95	244.91	30.12	-54.2	-63.1	3.8	7.45e-01	0	44	104	0	80	9735
2026-01-25 23:06:47.95	244.62	29.88	-54.3	-63.1	3.8	7.44e-01	0	44	104	0	80	9787
2026-01-25 23:06:48.96	244.33	29.63	-54.2	-63.1	3.8	7.45e-01	0	44	104	0	80	9723
2026-01-25 23:06:49.97	244.04	29.39	-54.2	-63.1	3.8	7.46e-01	0	44	104	0	80	9740
2026-01-25 23:06:50.97	243.76	29.16	-54.2	-63.1	3.8	7.46e-01	0	44	104	0	80	9720
2026-01-25 23:06:51.98	243.48	28.92	-54.2	-63.1	3.8	7.47e-01	0	44	104	0	80	9732
2026-01-25 23:06:52.99	243.21	28.68	-54.2	-63.0	3.8	7.45e-01	0	44	104	0	80	9685
2026-01-25 23:06:54.00	242.94	28.45	-54.2	-63.1	3.8	7.44e-01	0	44	104	0	80	9720
2026-01-25 23:06:55.00	242.68	28.21	-54.2	-63.0	3.8	7.46e-01	0	44	104	0	80	9700
2026-01-25 23:06:56.01	242.42	27.98	-54.2	-63.0	3.8	7.46e-01	0	44	104	0	80	9692
2026-01-25 23:06:57.02	242.16	27.75	-54.2	-63.0	3.8	7.45e-01	0	44	104	0	80	9678
2026-01-25 23:06:58.02	241.91	27.53	-54.2	-63.0	3.8	7.43e-01	0	44	104	0	80	9657
2026-01-25 23:06:59.02	241.66	27.30	-54.2	-63.0	3.8	7.44e-01	0	44	104	0	80	9677
2026-01-25 23:07:00.03	241.42	27.08	-54.2	-63.0	3.8	7.46e-01	0	44	104	0	80	9656
2026-01-25 23:07:01.04	241.18	26.85	-54.2	-63.0	3.8	7.44e-01	0	44	104	0	80	9651
2026-01-25 23:07:02.05	240.94	26.63	-54.1	-63.0	3.8	7.44e-01	0	44	104	0	80	9637
2026-01-25 23:07:03.05	240.71	26.42	-54.1	-63.0	3.8	7.47e-01	0	44	104	0	80	9613
2026-01-25 23:07:04.06	240.48	26.20	-54.1	-63.0	3.8	7.46e-01	0	44	104	0	80	9607
2026-01-25 23:07:05.06	240.25	25.98	-54.1	-63.0	3.8	7.45e-01	0	44	104	0	80	9612
2026-01-25 23:07:06.07	240.03	25.77	-54.1	-63.0	3.8	7.45e-01	0	44	104	0	80	9633
2026-01-25 23:07:07.08	239.81	25.56	-54.1	-62.9	3.8	7.45e-01	0	44	104	0	80	9572
2026-01-25 23:07:08.09	239.60	25.34	-54.1	-62.9	3.8	7.46e-01	0	44	104	0	80	9579
2026-01-25 23:07:09.09	239.38	25.14	-54.1	-62.9	3.8	7.45e-01	0	44	104	0	80	9569
2026-01-25 23:07:10.10	239.17	24.93	-54.1	-62.9	3.8	7.44e-01	0	44	104	0	80	9606
2026-01-25 23:07:11.10	238.97	24.72	-54.1	-62.9	3.8	7.47e-01	0	44	104	0	80	9551
2026-01-25 23:07:12.11	238.76	24.52	-54.1	-62.9	3.8	7.46e-01	0	44	104	0	80	9584
2026-01-25 23:07:13.12	238.56	24.31	-54.1	-62.9	3.8	7.45e-01	0	44	104	0	80	9554
2026-01-25 23:07:14.12	238.37	24.11	-54.1	-62.9	3.8	7.46e-01	0	44	104	0	80	9558
2026-01-25 23:07:15.13	238.17	23.91	-54.0	-62.9	3.8	7.44e-01	0	44	104	0	80	9530
2026-01-25 23:07:16.14	237.98	23.72	-54.0	-62.9	3.8	7.45e-01	0	44	104	0	80	9540
2026-01-25 23:07:17.14	237.79	23.52	-54.0	-62.9	3.8	7.47e-01	0	44	104	0	80	9557
2026-01-25 23:07:18.15	237.60	23.32	-54.0	-62.9	3.8	7.46e-01	0	44	104	0	80	9509
2026-01-25 23:07:19.16	237.42	23.13	-54.0	-62.9	3.8	7.45e-01	0	44	104	0	80	9501
2026-01-25 23:07:20.16	237.24	22.94	-54.0	-62.8	3.8	7.45e-01	0	44	104	0	80	9492
2026-01-25 23:07:21.17	237.06	22.75	-54.0	-62.8	3.8	7.45e-01	0	44	104	0	80	9475
2026-01-25 23:07:22.18	236.88	22.56	-54.0	-62.8	3.8	7.46e-01	0	44	104	0	80	9477
2026-01-25 23:07:23.19	236.71	22.37	-54.0	-62.9	3.8	7.44e-01	0	44	104	0	80	9510
2026-01-25 23:07:24.19	236.54	22.19	-54.0	-62.8	3.8	7.45e-01	0	44	104	0	80	9489
2026-01-25 23:07:25.20	236.37	22.00	-54.0	-62.8	3.8	7.46e-01	0	44	104	0	80	9474
2026-01-25 23:07:26.21	236.20	21.82	-54.0	-62.8	3.8	7.45e-01	0	44	104	0	80	9440
2026-01-25 23:07:27.21	236.04	21.64	-54.0	-62.9	3.8	7.44e-01	0	44	104	0	79	10083
2026-01-25 23:07:28.22	235.87	21.45	-54.0	-62.9	3.8	7.45e-01	0	44	104	0	79	10100
2026-01-25 23:07:29.23	235.71	21.27	-54.0	-62.9	3.8	7.43e-01	0	44	104	0	79	10068
2026-01-25 23:07:30.23	235.55	21.10	-54.0	-62.8	3.8	7.46e-01	0	44	104	0	79	10056
2026-01-25 23:07:31.24	235.40	20.92	-54.0	-62.8	3.8	7.47e-01	0	44	104	0	79	10033
2026-01-25 23:07:32.25	235.24	20.75	-54.0	-62.8	3.8	7.45e-01	0	44	104	0	79	9995
2026-01-25 23:07:33.25	235.09	20.57	-54.0	-62.8	3.8	7.46e-01	0	44	104	0	79	10007
2026-01-25 23:07:34.26	234.94	20.40	-54.0	-62.8	3.8	7.45e-01	0	44	104	0	79	9999
2026-01-25 23:07:35.26	234.79	20.23	-54.0	-62.8	3.8	7.45e-01	0	44	104	0	79	10003
2026-01-25 23:07:36.27	234.65	20.06	-54.0	-62.8	3.8	7.45e-01	0	44	104	0	79	9983
2026-01-25 23:07:37.28	234.50	19.89	-54.0	-62.8	3.8	7.46e-01	0	44	104	0	79	10027
2026-01-25 23:07:38.29	234.36	19.72	-54.0	-62.8	3.8	7.45e-01	0	44	104	0	79	9978
2026-01-25 23:07:39.29	234.22	19.56	-53.9	-62.8	3.8	7.43e-01	0	44	104	0	79	9970
2026-01-25 23:07:40.30	234.08	19.39	-53.9	-62.8	3.8	7.46e-01	0	44	104	0	79	9989
2026-01-25 23:07:41.30	233.94	19.23	-53.9	-62.8	3.8	7.45e-01	0	44	104	0	79	9959
2026-01-25 23:07:42.31	233.81	19.07	-53.9	-62.8	3.8	7.45e-01	0	44	104	0	79	9965
2026-01-25 23:07:43.32	233.67	18.90	-53.9	-62.7	3.8	7.44e-01	0	44	104	0	79	9933
2026-01-25 23:07:44.32	233.54	18.75	-53.9	-62.8	3.8	7.45e-01	0	44	104	0	79	9948
2026-01-25 23:07:45.33	233.41	18.59	-53.9	-62.7	3.8	7.45e-01	0	45	104	0	79	9935
2026-01-25 23:07:46.34	233.28	18.43	-53.9	-62.7	3.8	7.45e-01	0	44	104	0	79	9927
2026-01-25 23:07:47.34	233.16	18.27	-53.9	-62.7	3.8	7.46e-01	0	44	104	0	79	9887
2026-01-25 23:07:48.35	233.03	18.12	-53.9	-62.7	3.8	7.46e-01	0	44	104	0	79	9891
2026-01-25 23:07:49.36	232.91	17.96	-53.9	-62.7	3.8	7.44e-01	0	44	104	0	79	9909
2026-01-25 23:07:50.37	232.78	17.81	-53.9	-62.7	3.8	7.48e-01	0	44	104	0	79	9927
2026-01-25 23:07:51.37	232.66	17.66	-53.9	-62.7	3.8	7.45e-01	0	44	104	0	79	9879
2026-01-25 23:07:52.38	232.54	17.51	-53.9	-62.7	3.8	7.47e-01	0	44	104	0	79	9890
2026-01-25 23:07:53.39	232.42	17.35	-53.9	-62.7	3.8	7.44e-01	0	44	104	0	79	9857
2026-01-25 23:07:54.40	232.31	17.21	-53.8	-62.7	3.8	7.44e-01	0	44	104	0	79	9869
2026-01-25 23:07:55.40	232.19	17.06	-53.8	-62.7	3.8	7.45e-01	0	44	104	0	79	9839
2026-01-25 23:07:56.41	232.08	16.91	-53.8	-62.6	3.8	7.46e-01	0	44	104	0	79	9830
2026-01-25 23:07:57.42	231.96	16.76	-53.8	-62.6	3.8	7.45e-01	0	44	104	0	79	9821
2026-01-25 23:07:58.43	231.85	16.62	-53.8	-62.7	3.8	7.42e-01	0	44	104	0	79	9847
2026-01-25 23:07:59.43	231.74	16.48	-53.8	-62.6	3.8	7.46e-01	0	44	104	0	79	9819
2026-01-25 23:08:00.44	231.63	16.33	-53.8	-62.6	3.8	7.44e-01	0	44	104	0	79	9797
2026-01-25 23:08:01.44	231.52	16.19	-53.8	-62.6	3.8	7.45e-01	0	44	104	0	79	9822
2026-01-25 23:08:02.45	231.42	16.05	-53.8	-62.6	3.8	7.46e-01	0	44	104	0	79	9816
2026-01-25 23:08:03.46	231.31	15.91	-53.8	-62.6	3.8	7.46e-01	0	44	104	0	79	9778
2026-01-25 23:08:04.47	231.21	15.77	-53.8	-62.6	3.8	7.45e-01	0	44	104	0	79	9827
2026-01-25 23:08:05.48	231.10	15.63	-53.8	-62.7	3.8	7.46e-01	0	44	104	0	79	9833
2026-01-25 23:08:06.49	231.00	15.50	-53.8	-62.7	3.8	7.46e-01	0	44	104	0	79	9833
2026-01-25 23:08:07.49	230.90	15.36	-53.8	-62.6	3.8	7.45e-01	0	44	104	0	79	9788
2026-01-25 23:08:08.50	230.80	15.22	-53.8	-62.6	3.8	7.44e-01	0	44	104	0	79	9781
2026-01-25 23:08:09.51	230.70	15.09	-53.8	-62.6	3.8	7.45e-01	0	44	104	0	79	9769
2026-01-25 23:08:10.52	230.60	14.96	-53.8	-62.6	3.8	7.45e-01	0	44	104	0	79	9769
2026-01-25 23:08:11.52	230.51	14.82	-53.7	-62.6	3.8	7.45e-01	0	44	104	0	79	9730
2026-01-25 23:08:12.53	230.41	14.69	-53.7	-62.6	3.8	7.47e-01	0	44	104	0	79	9744
2026-01-25 23:08:13.54	230.32	14.56	-53.7	-62.6	3.8	7.45e-01	0	44	104	0	79	9744
2026-01-25 23:08:14.55	230.22	14.43	-53.7	-62.5	3.8	7.45e-01	0	44	104	0	79	9715
2026-01-25 23:08:15.55	230.13	14.30	-53.7	-62.5	3.8	7.43e-01	0	44	104	0	79	9690
2026-01-25 23:08:16.56	230.04	14.17	-53.7	-62.5	3.8	7.46e-01	0	44	104	0	79	9709
2026-01-25 23:08:17.57	229.95	14.05	-53.7	-62.5	3.8	7.47e-01	0	44	104	0	79	9708
2026-01-25 23:08:18.58	229.86	13.92	-53.7	-62.5	3.8	7.44e-01	0	44	104	0	79	9694
2026-01-25 23:08:19.58	229.77	13.79	-53.7	-62.5	3.8	7.45e-01	0	44	104	0	79	9663
2026-01-25 23:08:20.59	229.68	13.67	-53.7	-62.5	3.8	7.45e-01	0	44	104	0	79	9680
2026-01-25 23:08:21.60	229.60	13.54	-53.7	-62.6	3.8	7.46e-01	0	44	104	0	79	9726
2026-01-25 23:08:22.60	229.51	13.42	-53.7	-62.5	3.8	7.44e-01	0	44	104	0	79	9706
2026-01-25 23:08:23.61	229.43	13.30	-53.7	-62.5	3.8	7.46e-01	0	44	104	0	79	9657
2026-01-25 23:08:24.61	229.34	13.18	-53.6	-62.5	3.8	7.45e-01	0	44	104	0	79	9609
2026-01-25 23:08:25.62	229.26	13.05	-53.7	-62.5	3.8	7.44e-01	0	44	104	0	79	9679
2026-01-25 23:08:26.63	229.18	12.93	-53.7	-62.5	3.8	7.45e-01	0	44	104	0	79	9655
2026-01-25 23:08:27.64	229.09	12.81	-53.6	-62.5	3.8	7.44e-01	0	44	104	0	79	9617
2026-01-25 23:08:28.65	229.01	12.69	-53.6	-62.4	3.8	7.44e-01	0	44	104	0	79	9597
2026-01-25 23:08:29.65	228.93	12.58	-53.6	-62.5	3.8	7.44e-01	0	44	104	0	79	9634
2026-01-25 23:08:30.66	228.86	12.46	-53.6	-62.5	3.8	7.45e-01	0	44	104	0	79	9612
2026-01-25 23:08:31.67	228.78	12.34	-53.6	-62.4	3.8	7.45e-01	0	44	104	0	79	9603
2026-01-25 23:08:32.67	228.70	12.23	-53.6	-62.4	3.8	7.46e-01	0	44	104	0	79	9597
2026-01-25 23:08:33.68	228.62	12.11	-53.6	-62.4	3.8	7.46e-01	0	44	104	0	79	9603
2026-01-25 23:08:34.69	228.55	11.99	-53.6	-62.4	3.8	7.44e-01	0	44	104	0	79	9590
2026-01-25 23:08:35.68	228.47	11.88	-53.6	-62.4	3.8	7.45e-01	0	44	104	0	79	9575
2026-01-25 23:08:36.69	228.40	11.77	-53.6	-62.4	3.8	7.48e-01	0	44	104	0	79	9533
2026-01-25 23:08:37.70	228.32	11.65	-53.6	-62.4	3.8	7.46e-01	0	44	104	0	79	9536
2026-01-25 23:08:38.70	228.25	11.54	-53.6	-62.4	3.8	7.45e-01	0	44	104	0	79	9568
2026-01-25 23:08:39.71	228.18	11.43	-53.6	-62.4	3.8	7.44e-01	0	44	104	0	79	9574
2026-01-25 23:08:40.71	228.11	11.32	-53.6	-62.4	3.8	7.43e-01	0	44	104	0	79	9513
2026-01-25 23:08:41.72	228.04	11.21	-53.6	-62.4	3.8	7.45e-01	0	44	104	0	79	9587
2026-01-25 23:08:42.73	227.97	11.10	-53.6	-62.4	3.8	7.44e-01	0	44	104	0	79	9547
2026-01-25 23:08:43.73	227.90	10.99	-53.5	-62.4	3.8	7.45e-01	0	44	104	0	79	9504
2026-01-25 23:08:44.74	227.83	10.88	-53.5	-62.3	3.8	7.46e-01	0	44	104	0	79	9470
2026-01-25 23:08:45.75	227.76	10.77	-53.5	-62.4	3.8	7.47e-01	0	44	104	0	79	9559
2026-01-25 23:08:46.75	227.69	10.67	-53.5	-62.4	3.8	7.45e-01	0	44	104	0	79	9524
2026-01-25 23:08:47.76	227.62	10.56	-53.5	-62.3	3.8	7.44e-01	0	44	104	0	79	9486
2026-01-25 23:08:48.76	227.56	10.46	-53.5	-62.3	3.8	7.46e-01	0	45	104	0	79	9459
2026-01-25 23:08:49.77	227.49	10.35	-53.5	-62.3	3.8	7.43e-01	0	44	104	0	79	9473
2026-01-25 23:08:50.78	227.43	10.24	-53.5	-62.3	3.8	7.47e-01	0	44	104	0	79	9487
2026-01-25 23:08:51.79	227.36	10.14	-53.5	-62.3	3.8	7.45e-01	0	44	104	0	78	9979
2026-01-25 23:08:52.80	227.30	10.03	-53.4	-62.3	3.8	7.46e-01	0	44	104	0	78	9977
2026-01-25 23:08:53.80	227.23	9.93	-53.5	-62.3	3.8	7.45e-01	0	44	104	0	78	10010
2026-01-25 23:08:54.81	227.17	9.83	-53.5	-62.3	3.8	7.46e-01	0	44	104	0	78	9993
2026-01-25 23:08:55.81	227.11	9.73	-53.4	-62.3	3.8	7.45e-01	0	44	104	0	78	9973
2026-01-25 23:08:56.82	227.05	9.63	-53.4	-62.2	3.8	7.43e-01	0	44	104	0	78	9936
2026-01-25 23:08:57.83	226.99	9.52	-53.4	-62.3	3.8	7.45e-01	0	44	104	0	78	9965
2026-01-25 23:08:58.84	226.93	9.42	-53.4	-62.3	3.8	7.46e-01	0	44	104	0	78	9973
2026-01-25 23:08:59.84	226.87	9.32	-53.4	-62.2	3.8	7.45e-01	0	44	104	0	78	9900
2026-01-25 23:09:00.85	226.81	9.22	-53.4	-62.2	3.8	7.46e-01	0	44	104	0	78	9910
2026-01-25 23:09:01.85	226.75	9.12	-53.4	-62.3	3.8	7.45e-01	0	44	104	0	78	9973
2026-01-25 23:09:02.86	226.69	9.03	-53.4	-62.2	3.8	7.47e-01	0	44	104	0	78	9900
2026-01-25 23:09:03.87	226.63	8.93	-53.4	-62.2	3.8	7.43e-01	0	44	104	0	78	9852
2026-01-25 23:09:04.88	226.57	8.83	-53.3	-62.1	3.8	7.43e-01	0	44	104	0	78	9826
2026-01-25 23:09:05.88	226.52	8.73	-53.4	-62.2	3.8	7.45e-01	0	44	104	0	78	9865
2026-01-25 23:09:06.88	226.46	8.64	-53.4	-62.2	3.8	7.45e-01	0	44	104	0	78	9909
2026-01-25 23:09:07.89	226.40	8.54	-53.3	-62.1	3.8	7.46e-01	0	44	104	0	78	9820
2026-01-25 23:09:08.89	226.35	8.44	-53.3	-62.1	3.8	7.46e-01	0	44	104	0	78	9823
2026-01-25 23:09:09.90	226.29	8.35	-53.4	-62.2	3.8	7.44e-01	0	44	104	0	78	9914
2026-01-25 23:09:10.91	226.24	8.25	-53.3	-62.1	3.8	7.45e-01	0	44	104	0	78	9812
2026-01-25 23:09:11.91	226.19	8.16	-53.3	-62.1	3.8	7.45e-01	0	44	104	0	78	9722
2026-01-25 23:09:12.92	226.13	8.07	-53.2	-62.1	3.8	7.44e-01	0	44	104	0	78	9743
2026-01-25 23:09:13.93	226.08	7.97	-53.3	-62.2	3.8	7.46e-01	0	44	104	0	78	9831
2026-01-25 23:09:14.93	226.03	7.88	-53.3	-62.1	3.8	7.45e-01	0	44	104	0	78	9797
2026-01-25 23:09:15.94	225.97	7.79	-53.2	-62.0	3.8	7.46e-01	0	44	104	0	78	9693
2026-01-25 23:09:16.94	225.92	7.70	-53.2	-62.0	3.8	7.46e-01	0	44	104	0	78	9694
2026-01-25 23:09:17.95	225.87	7.60	-53.3	-62.1	3.8	7.45e-01	0	44	104	0	78	9805
2026-01-25 23:09:18.96	225.82	7.51	-53.3	-62.1	3.8	7.45e-01	0	44	104	0	78	9774
2026-01-25 23:09:19.96	225.77	7.42	-53.2	-62.0	3.8	7.45e-01	0	44	104	0	78	9683
2026-01-25 23:09:20.97	225.72	7.33	-53.2	-62.0	3.8	7.45e-01	0	44	104	0	78	9677
2026-01-25 23:09:21.97	225.67	7.24	-53.2	-62.1	3.8	7.44e-01	0	45	104	0	78	9797
2026-01-25 23:09:22.98	225.62	7.15	-53.2	-62.1	3.8	7.45e-01	0	44	104	0	78	9737
2026-01-25 23:09:23.99	225.57	7.06	-53.1	-62.0	3.8	7.44e-01	0	44	104	0	78	9619
2026-01-25 23:09:24.99	225.52	6.97	-53.1	-62.0	3.8	7.45e-01	0	45	104	0	78	9613
2026-01-25 23:09:25.99	225.48	6.89	-53.2	-62.0	3.8	7.46e-01	0	44	104	0	78	9713
2026-01-25 23:09:27.00	225.43	6.80	-53.2	-62.0	3.8	7.45e-01	0	44	104	0	78	9668
2026-01-25 23:09:28.01	225.38	6.71	-53.1	-61.9	3.8	7.45e-01	0	44	104	0	78	9593
2026-01-25 23:09:29.02	225.33	6.62	-53.1	-61.9	3.8	7.45e-01	0	44	104	0	78	9601
2026-01-25 23:09:30.02	225.29	6.54	-53.2	-62.0	3.8	7.45e-01	0	44	104	0	78	9655
2026-01-25 23:09:31.03	225.24	6.45	-53.1	-62.0	3.8	7.45e-01	0	44	104	0	78	9610
2026-01-25 23:09:32.04	225.19	6.36	-53.0	-61.9	3.8	7.46e-01	0	44	104	0	78	9545
2026-01-25 23:09:33.04	225.15	6.28	-53.0	-61.9	3.8	7.44e-01	0	44	104	0	78	9530
2026-01-25 23:09:34.05	225.10	6.19	-53.1	-62.0	3.8	7.46e-01	0	44	104	0	78	9610
2026-01-25 23:09:35.05	225.06	6.11	-53.1	-61.9	3.8	7.45e-01	0	44	104	0	78	9596
2026-01-25 23:09:36.07	225.01	6.02	-53.0	-61.8	3.8	7.45e-01	0	44	104	0	78	9467
2026-01-25 23:09:37.08	224.97	5.94	-53.0	-61.8	3.8	7.46e-01	0	44	104	0	78	9439
2026-01-25 23:09:38.08	224.93	5.85	-53.1	-61.9	3.8	7.45e-01	0	44	104	0	77	10088
2026-01-25 23:09:39.09	224.88	5.77	-53.0	-61.8	3.8	7.45e-01	0	44	104	0	77	10056
2026-01-25 23:09:40.09	224.84	5.69	-52.9	-61.7	3.8	7.47e-01	0	44	104	0	77	9941
2026-01-25 23:09:41.10	224.80	5.60	-52.9	-61.7	3.8	7.46e-01	0	44	104	0	77	9939
2026-01-25 23:09:42.11	224.76	5.52	-53.0	-61.8	3.8	7.46e-01	0	44	104	0	77	10043
2026-01-25 23:09:43.11	224.71	5.44	-53.0	-61.8	3.8	7.45e-01	0	44	104	0	77	9981
2026-01-25 23:09:44.12	224.67	5.36	-52.9	-61.7	3.8	7.46e-01	0	44	104	0	77	9887
2026-01-25 23:09:45.12	224.63	5.27	-52.8	-61.7	3.8	7.45e-01	0	45	104	0	77	9892
2026-01-25 23:09:46.13	224.59	5.19	-53.0	-61.8	3.8	7.45e-01	0	44	104	0	77	9956
2026-01-25 23:09:47.13	224.55	5.11	-52.9	-61.7	3.8	7.44e-01	0	44	104	0	77	9938
2026-01-25 23:09:48.14	224.51	5.03	-52.8	-61.6	3.8	7.45e-01	0	44	104	0	77	9784
2026-01-25 23:09:49.15	224.47	4.95	-53.1	-62.0	3.8	7.44e-01	0	44	104	0	77	10182
2026-01-25 23:09:50.15	224.43	4.87	-53.5	-62.3	3.8	7.46e-01	0	44	104	0	77	10651
2026-01-25 23:09:51.16	224.39	4.79	-53.7	-62.6	3.8	7.48e-01	0	44	104	0	77	10912
2026-01-25 23:09:52.17	224.35	4.71	-53.9	-62.7	3.8	7.45e-01	0	44	104	0	78	10513
2026-01-25 23:09:53.17	224.31	4.63	-54.0	-62.8	3.8	7.45e-01	0	44	104	0	78	10624
2026-01-25 23:09:54.18	224.27	4.55	-54.1	-62.9	3.8	7.45e-01	0	44	104	0	78	10740
2026-01-25 23:09:55.19	224.23	4.48	-54.2	-63.0	3.8	7.47e-01	0	44	104	0	78	10818
2026-01-25 23:09:56.20	224.20	4.40	-54.2	-63.1	3.8	7.43e-01	0	44	104	0	78	10945
2026-01-25 23:09:57.21	224.16	4.32	-54.3	-63.1	3.8	7.46e-01	0	44	104	0	79	10368
2026-01-25 23:09:58.21	224.12	4.24	-54.3	-63.1	3.8	7.46e-01	0	44	104	0	79	10380
2026-01-25 23:09:59.22	224.08	4.16	-54.3	-63.1	3.8	7.45e-01	0	44	104	0	79	10357
2026-01-25 23:10:00.23	224.05	4.09	-54.3	-63.1	3.8	7.46e-01	0	44	104	0	79	10399
2026-01-25 23:10:01.23	224.01	4.01	-54.3	-63.2	3.8	7.45e-01	0	44	104	0	79	10426
2026-01-25 23:10:02.24	223.97	3.93	-54.3	-63.2	3.8	7.45e-01	0	44	104	0	79	10433
2026-01-25 23:10:03.25	223.94	3.86	-54.3	-63.2	3.8	7.46e-01	0	44	104	0	79	10436
2026-01-25 23:10:04.26	223.90	3.78	-54.3	-63.1	3.8	7.45e-01	0	44	104	0	79	10403
2026-01-25 23:10:05.27	223.86	3.71	-54.3	-63.1	3.8	7.45e-01	0	44	104	0	79	10357
2026-01-25 23:10:06.28	223.83	3.63	-54.2	-63.1	3.8	7.46e-01	0	44	104	0	79	10303
2026-01-25 23:10:07.29	223.79	3.55	-54.1	-63.0	3.8	7.44e-01	0	44	104	0	79	10206
2026-01-25 23:10:08.29	223.76	3.48	-54.0	-62.8	3.8	7.47e-01	0	44	104	0	79	10056
2026-01-25 23:10:09.30	223.72	3.40	-54.0	-62.9	3.8	7.45e-01	0	44	104	0	79	10064
2026-01-25 23:10:10.31	223.69	3.33	-54.1	-62.9	3.8	7.46e-01	0	44	104	0	79	10104
2026-01-25 23:10:11.32	223.66	3.26	-54.1	-62.9	3.8	7.44e-01	0	44	104	0	79	10100
2026-01-25 23:10:12.33	223.62	3.18	-54.0	-62.8	3.8	7.46e-01	0	44	104	0	79	10025
2026-01-25 23:10:13.33	223.59	3.11	-54.0	-62.8	3.8	7.46e-01	0	44	104	0	79	10052
2026-01-25 23:10:14.34	223.56	3.04	-54.0	-62.8	3.8	7.45e-01	0	44	104	0	79	10006
2026-01-25 23:10:15.35	223.52	2.96	-54.0	-62.8	3.8	7.47e-01	0	44	104	0	79	10015
2026-01-25 23:10:16.36	223.49	2.89	-54.0	-62.8	3.8	7.44e-01	0	45	104	0	79	9973
2026-01-25 23:10:17.37	223.46	2.82	-54.0	-62.8	3.8	7.45e-01	0	44	104	0	79	10026
2026-01-25 23:10:18.37	223.42	2.74	-54.0	-62.8	3.8	7.46e-01	0	44	104	0	79	10024
2026-01-25 23:10:19.38	223.39	2.67	-54.0	-62.8	3.8	7.45e-01	0	44	104	0	79	10005
2026-01-25 23:10:20.39	223.36	2.60	-54.0	-62.8	3.8	7.43e-01	0	44	104	0	79	9996
2026-01-25 23:10:21.39	223.33	2.53	-54.0	-62.8	3.8	7.45e-01	0	44	104	0	79	10014
2026-01-25 23:10:22.40	223.30	2.46	-54.0	-62.8	3.8	7.44e-01	0	44	104	0	79	10014
2026-01-25 23:10:23.41	223.26	2.39	-53.9	-62.8	3.8	7.46e-01	0	44	104	0	79	9976
2026-01-25 23:10:24.42	223.23	2.31	-54.0	-62.8	3.8	7.46e-01	0	44	104	0	79	9977
2026-01-25 23:10:25.43	223.20	2.24	-54.0	-62.8	3.8	7.44e-01	0	44	104	0	79	9995
2026-01-25 23:10:26.43	223.17	2.17	-53.9	-62.8	3.8	7.46e-01	0	44	104	0	79	9969
2026-01-25 23:10:27.44	223.14	2.10	-53.9	-62.8	3.8	7.44e-01	0	44	104	0	79	9963
2026-01-25 23:10:28.44	223.11	2.03	-53.9	-62.7	3.8	7.41e-01	0	44	104	0	79	9939
2026-01-25 23:10:29.45	223.08	1.96	-53.9	-62.8	3.8	7.44e-01	0	44	104	0	79	9965
2026-01-25 23:10:30.46	223.05	1.89	-53.9	-62.8	3.8	7.45e-01	0	44	104	0	79	9965
2026-01-25 23:10:31.47	223.02	1.82	-53.9	-62.8	3.8	7.45e-01	0	44	104	0	79	9987

#Closed at: 2026-01-25 23:10:31
#Recorded file [0 MB]: D:/lorett/data/31041_260126_020008.dat