passes_logs/2026/01/25/R3.2S_Murmansk/R3.2S_Murmansk__20260125_195826_TY-39_rec.log

#Pass ID: 20260125_195826_TY-39
#Satellite: TY-39
#Configuration: TY-39
#almurnet v.1.7.20251203
#Start time: 2026-01-25 19:58:28

#Version: 2.2.20231116
#Station: R3.2S_Murmansk
#Location: 33.079688 lon 68.888172 lat
#TLE: 1 51832U 22019J   26024.96711751  .00003048  00000-0  14574-3 0  9993
#TLE: 2 51832  97.3626  91.4130 0009162  21.3948 338.7669 15.19714183216042

#Time	Az	El	Level	Level2	SNR	BER	BlckErr	Temp	State	Recorded	gain1	gain2
2026-01-25 19:58:28.81	207.68	2.13	-53.9	-56.0	3.7	0.00e+00	0	47	0	0	78	19367
2026-01-25 19:58:29.82	207.77	2.20	-53.9	-56.1	3.7	0.00e+00	0	47	104	0	79	18412
2026-01-25 19:58:30.83	207.86	2.26	-53.9	-56.0	3.7	0.00e+00	0	47	104	0	79	18319
2026-01-25 19:58:31.83	207.95	2.32	-53.9	-56.0	3.7	0.00e+00	0	47	104	0	79	18328
2026-01-25 19:58:32.83	208.04	2.38	-53.9	-56.0	3.7	0.00e+00	0	47	104	0	79	18275
2026-01-25 19:58:33.84	208.14	2.45	-53.9	-56.0	3.7	0.00e+00	0	47	104	0	79	18281
2026-01-25 19:58:34.85	208.23	2.51	-54.0	-56.1	3.7	0.00e+00	0	47	104	0	79	18544
2026-01-25 19:58:35.85	208.32	2.57	-54.1	-56.3	3.7	0.00e+00	0	47	104	0	79	18890
2026-01-25 19:58:36.86	208.42	2.64	-54.2	-56.3	3.7	0.00e+00	0	47	104	0	79	18941
2026-01-25 19:58:37.86	208.51	2.70	-54.2	-56.3	3.7	0.00e+00	0	47	104	0	79	18994
2026-01-25 19:58:38.87	208.61	2.76	-54.2	-56.3	3.7	0.00e+00	0	47	104	0	79	18931
2026-01-25 19:58:39.88	208.70	2.83	-54.2	-56.3	3.7	0.00e+00	0	48	104	0	79	18931
2026-01-25 19:58:40.89	208.80	2.89	-54.2	-56.3	3.7	0.00e+00	0	47	104	0	79	18972
2026-01-25 19:58:41.89	208.89	2.95	-54.1	-56.3	3.7	0.00e+00	0	47	104	0	79	18859
2026-01-25 19:58:42.90	208.99	3.02	-54.1	-56.3	3.7	0.00e+00	0	47	104	0	79	18826
2026-01-25 19:58:43.90	209.09	3.08	-54.1	-56.2	3.7	0.00e+00	0	47	104	0	79	18769
2026-01-25 19:58:44.91	209.19	3.15	-54.1	-56.2	3.7	0.00e+00	0	48	104	0	79	18754
2026-01-25 19:58:45.92	209.29	3.21	-54.1	-56.2	3.7	0.00e+00	0	48	104	0	79	18723
2026-01-25 19:58:46.93	209.39	3.28	-54.0	-56.1	3.7	0.00e+00	0	47	104	0	79	18523
2026-01-25 19:58:47.93	209.48	3.34	-54.0	-56.1	3.7	0.00e+00	0	48	104	0	79	18488
2026-01-25 19:58:48.94	209.58	3.41	-53.9	-56.0	3.7	0.00e+00	0	48	104	0	79	18359
2026-01-25 19:58:49.94	209.68	3.47	-53.9	-56.1	3.7	0.00e+00	0	48	104	0	79	18399
2026-01-25 19:58:50.95	209.79	3.54	-53.9	-56.0	3.7	0.00e+00	0	48	104	0	79	18253
2026-01-25 19:58:51.96	209.89	3.60	-53.8	-55.9	3.7	0.00e+00	0	48	104	0	78	19136
2026-01-25 19:58:52.96	209.99	3.67	-53.6	-55.7	3.7	0.00e+00	0	48	104	0	78	18809
2026-01-25 19:58:53.97	210.09	3.73	-53.5	-55.6	3.7	0.00e+00	0	48	104	0	78	18572
2026-01-25 19:58:54.98	210.20	3.80	-53.3	-55.5	3.7	0.00e+00	0	48	104	0	78	18265
2026-01-25 19:58:55.98	210.30	3.87	-53.0	-55.1	3.7	0.00e+00	0	48	104	0	78	17546
2026-01-25 19:58:56.99	210.41	3.93	-52.7	-54.8	3.7	0.00e+00	0	48	104	0	77	17941
2026-01-25 19:58:58.00	210.51	4.00	-52.6	-54.7	3.7	0.00e+00	0	48	104	0	77	17734
2026-01-25 19:58:59.01	210.62	4.07	-52.6	-54.7	3.7	0.00e+00	0	48	104	0	77	17657
2026-01-25 19:59:00.01	210.72	4.13	-52.6	-54.7	3.7	0.00e+00	0	48	104	0	77	17584
2026-01-25 19:59:01.02	210.83	4.20	-52.5	-54.7	3.7	0.00e+00	0	48	104	0	77	17628
2026-01-25 19:59:02.03	210.94	4.27	-52.5	-54.7	3.7	0.00e+00	0	48	104	0	77	17687
2026-01-25 19:59:03.03	211.05	4.33	-52.5	-54.7	3.7	0.00e+00	0	48	104	0	77	17591
2026-01-25 19:59:04.04	211.16	4.40	-52.5	-54.7	3.7	0.00e+00	0	48	104	0	77	17589
2026-01-25 19:59:05.05	211.26	4.47	-52.5	-54.7	3.7	0.00e+00	0	48	104	0	77	17609
2026-01-25 19:59:06.06	211.38	4.54	-52.5	-54.7	3.7	0.00e+00	0	48	104	0	77	17563
2026-01-25 19:59:07.06	211.49	4.60	-52.5	-54.7	3.7	0.00e+00	0	48	104	0	77	17563
2026-01-25 19:59:08.07	211.60	4.67	-52.5	-54.6	3.7	0.00e+00	0	48	104	0	77	17511
2026-01-25 19:59:09.08	211.71	4.74	-52.5	-54.6	3.7	0.00e+00	0	49	104	0	77	17548
2026-01-25 19:59:10.09	211.82	4.81	-52.5	-54.6	3.7	0.00e+00	0	48	104	0	77	17497
2026-01-25 19:59:11.09	211.93	4.88	-52.5	-54.6	3.7	0.00e+00	0	49	104	0	77	17473
2026-01-25 19:59:12.10	212.05	4.95	-52.5	-54.6	3.7	0.00e+00	0	49	104	0	77	17489
2026-01-25 19:59:13.10	212.16	5.01	-52.5	-54.6	3.7	0.00e+00	0	49	104	0	77	17521
2026-01-25 19:59:14.11	212.28	5.08	-52.5	-54.6	3.7	0.00e+00	0	49	104	0	77	17539
2026-01-25 19:59:15.12	212.39	5.15	-52.5	-54.7	3.7	0.00e+00	0	49	104	0	77	17618
2026-01-25 19:59:16.12	212.51	5.22	-52.5	-54.6	3.7	0.00e+00	0	49	104	0	77	17473
2026-01-25 19:59:17.13	212.63	5.29	-52.4	-54.6	3.7	0.00e+00	0	49	104	0	76	18487
2026-01-25 19:59:18.13	212.74	5.36	-52.6	-54.7	3.7	0.00e+00	0	49	104	0	76	18689
2026-01-25 19:59:19.14	212.86	5.43	-52.5	-54.7	3.7	0.00e+00	0	49	104	0	76	18627
2026-01-25 19:59:20.14	212.98	5.50	-52.5	-54.6	3.7	0.00e+00	0	49	104	0	76	18529
2026-01-25 19:59:21.15	213.10	5.57	-52.5	-54.6	3.7	0.00e+00	0	49	104	0	76	18466
2026-01-25 19:59:22.15	213.22	5.64	-52.5	-54.7	3.7	0.00e+00	0	49	104	0	76	18626
2026-01-25 19:59:23.15	213.34	5.71	-52.5	-54.6	3.7	0.00e+00	0	49	104	0	76	18517
2026-01-25 19:59:24.16	213.46	5.78	-52.5	-54.6	3.7	0.00e+00	0	49	104	0	76	18500
2026-01-25 19:59:25.17	213.59	5.85	-52.4	-54.6	3.7	0.00e+00	0	49	104	0	76	18460
2026-01-25 19:59:26.17	213.71	5.92	-52.5	-54.7	3.7	0.00e+00	0	49	104	0	76	18654
2026-01-25 19:59:27.18	213.83	5.99	-52.5	-54.6	3.7	0.00e+00	0	49	104	0	76	18566
2026-01-25 19:59:28.19	213.96	6.06	-52.4	-54.6	3.7	0.00e+00	0	49	104	0	76	18480
2026-01-25 19:59:29.19	214.09	6.13	-52.4	-54.6	3.7	0.00e+00	0	49	104	0	76	18454
2026-01-25 19:59:30.20	214.21	6.21	-52.5	-54.7	3.7	0.00e+00	0	49	104	0	76	18657
2026-01-25 19:59:31.21	214.34	6.28	-52.5	-54.6	3.7	0.00e+00	0	49	104	0	76	18506
2026-01-25 19:59:32.22	214.47	6.35	-52.4	-54.6	3.7	0.00e+00	0	49	104	0	76	18447
2026-01-25 19:59:33.22	214.60	6.42	-52.5	-54.6	3.7	0.00e+00	0	49	104	0	76	18462
2026-01-25 19:59:34.23	214.73	6.49	-52.6	-54.7	3.7	0.00e+00	0	49	104	0	76	18724
2026-01-25 19:59:35.23	214.85	6.56	-52.5	-54.7	3.7	0.00e+00	0	49	104	0	76	18631
2026-01-25 19:59:36.24	214.99	6.64	-52.5	-54.6	3.7	0.00e+00	0	49	104	0	76	18508
2026-01-25 19:59:37.25	215.12	6.71	-49.5	-50.3	4.3	0.00e+00	147	49	104	0	71	14965
2026-01-25 19:59:38.25	215.25	6.78	-37.2	-37.0	13.1	2.19e-02	0	50	0	67108864	46	13772
2026-01-25 19:59:39.25	215.38	6.85	-37.5	-37.4	12.9	5.54e-05	0	50	0	142606336	46	14407
2026-01-25 19:59:40.26	215.52	6.93	-37.5	-37.4	12.9	6.90e-06	0	50	0	218103808	46	14391
2026-01-25 19:59:41.26	215.65	7.00	-37.4	-37.3	13.0	0.00e+00	0	50	0	293601280	46	14224
2026-01-25 19:59:42.27	215.79	7.07	-37.0	-37.0	13.3	1.38e-05	0	50	0	369098752	46	13669
2026-01-25 19:59:43.28	215.92	7.15	-37.0	-37.0	13.3	0.00e+00	0	50	0	444596224	46	13668
2026-01-25 19:59:44.28	216.06	7.22	-37.3	-37.2	13.2	0.00e+00	0	50	0	520093696	46	14037
2026-01-25 19:59:45.29	216.20	7.30	-37.0	-37.0	13.3	6.90e-06	0	50	0	587202560	46	13669
2026-01-25 19:59:46.30	216.34	7.37	-37.2	-37.2	13.2	0.00e+00	0	50	0	662700032	46	13973
2026-01-25 19:59:47.31	216.48	7.44	-37.1	-37.0	13.3	0.00e+00	0	50	0	746586112	46	13710
2026-01-25 19:59:48.31	216.62	7.52	-37.3	-37.2	13.2	2.77e-05	0	50	0	822083584	46	14051
2026-01-25 19:59:49.32	216.76	7.59	-37.1	-37.0	13.4	0.00e+00	0	50	0	897581056	46	13784
2026-01-25 19:59:50.33	216.91	7.67	-36.9	-36.8	13.5	0.00e+00	0	51	0	973078528	45	14169
2026-01-25 19:59:51.34	217.05	7.74	-36.6	-36.6	13.6	1.38e-05	0	50	0	1048576000	45	13828
2026-01-25 19:59:52.34	217.19	7.82	-36.8	-36.7	13.5	0.00e+00	0	50	0	1124073472	45	14036
2026-01-25 19:59:53.35	217.34	7.89	-36.7	-36.6	13.6	0.00e+00	0	50	0	1199570944	45	13932
2026-01-25 19:59:54.35	217.48	7.97	-36.7	-36.6	13.6	0.00e+00	0	50	0	1275068416	45	13900
2026-01-25 19:59:55.36	217.63	8.04	-36.7	-36.7	13.6	0.00e+00	0	50	0	1350565888	45	13987
2026-01-25 19:59:56.36	217.78	8.12	-36.6	-36.6	13.7	0.00e+00	0	50	0	1426063360	45	13812
2026-01-25 19:59:57.37	217.93	8.20	-36.6	-36.5	13.7	0.00e+00	0	50	0	1501560832	45	13758
2026-01-25 19:59:58.38	218.08	8.27	-36.8	-36.7	13.6	6.90e-06	0	51	0	1577058304	45	14015
2026-01-25 19:59:59.38	218.23	8.35	-36.7	-36.6	13.7	1.38e-05	0	51	0	1652555776	45	13889
2026-01-25 20:00:00.39	218.38	8.42	-36.7	-36.6	13.7	0.00e+00	0	51	0	1728053248	45	13908
2026-01-25 20:00:01.39	218.53	8.50	-36.7	-36.7	13.6	0.00e+00	0	51	0	1795162112	45	13964
2026-01-25 20:00:02.40	218.69	8.58	-36.5	-36.4	13.8	0.00e+00	0	51	0	1870659584	45	13594
2026-01-25 20:00:03.41	218.84	8.65	-36.4	-36.3	13.9	0.00e+00	0	51	0	1954545664	44	14223
2026-01-25 20:00:04.41	219.00	8.73	-36.3	-36.2	13.9	0.00e+00	0	51	0	2030043136	44	14109
2026-01-25 20:00:05.42	219.15	8.81	-36.5	-36.4	13.8	0.00e+00	0	51	0	2105540608	44	14389
2026-01-25 20:00:06.42	219.31	8.89	-36.4	-36.3	13.8	0.00e+00	0	51	0	2181038080	44	14272
2026-01-25 20:00:07.43	219.47	8.96	-36.4	-36.4	13.8	0.00e+00	0	51	0	2256535552	44	14292
2026-01-25 20:00:08.43	219.63	9.04	-36.5	-36.4	13.8	0.00e+00	0	51	0	2332033024	44	14330
2026-01-25 20:00:09.44	219.79	9.12	-36.5	-36.5	13.8	0.00e+00	0	51	0	2407530496	44	14451
2026-01-25 20:00:10.45	219.95	9.20	-36.3	-36.2	13.9	0.00e+00	0	51	0	2483027968	44	14003
2026-01-25 20:00:11.46	220.11	9.28	-36.3	-36.2	14.0	6.90e-06	0	51	0	2558525440	44	14003
2026-01-25 20:00:12.47	220.28	9.35	-36.3	-36.2	13.9	0.00e+00	0	51	0	2634022912	44	14050
2026-01-25 20:00:13.47	220.44	9.43	-36.3	-36.2	13.9	0.00e+00	0	51	0	2709520384	44	14009
2026-01-25 20:00:14.48	220.61	9.51	-36.2	-36.1	14.0	0.00e+00	0	51	0	2785017856	44	13924
2026-01-25 20:00:15.49	220.78	9.59	-36.3	-36.2	13.9	0.00e+00	0	51	0	2860515328	44	14023
2026-01-25 20:00:16.49	220.94	9.67	-36.2	-36.2	14.0	0.00e+00	0	51	0	2927624192	44	13952
2026-01-25 20:00:17.50	221.11	9.75	-36.1	-36.0	14.0	0.00e+00	0	51	0	3003121664	44	13756
2026-01-25 20:00:18.50	221.28	9.83	-36.1	-36.1	14.0	0.00e+00	0	51	0	3078619136	44	13838
2026-01-25 20:00:19.51	221.45	9.91	-36.1	-36.0	14.1	0.00e+00	0	51	0	3162505216	43	14556
2026-01-25 20:00:20.52	221.63	9.99	-36.2	-36.2	14.0	0.00e+00	0	51	0	3238002688	43	14812
2026-01-25 20:00:21.53	221.80	10.07	-36.1	-36.0	14.1	0.00e+00	0	51	0	3313500160	43	14584
2026-01-25 20:00:22.53	221.97	10.14	-36.0	-36.0	14.2	0.00e+00	0	51	0	3388997632	43	14460
2026-01-25 20:00:23.54	222.15	10.22	-36.0	-36.0	14.2	0.00e+00	0	51	0	3464495104	43	14444
2026-01-25 20:00:24.55	222.33	10.31	-36.1	-36.0	14.2	0.00e+00	0	51	0	3539992576	43	14543
2026-01-25 20:00:25.55	222.51	10.38	-36.1	-36.0	14.2	0.00e+00	0	51	0	3615490048	43	14539
2026-01-25 20:00:26.56	222.69	10.47	-36.3	-36.2	14.0	0.00e+00	0	51	0	3690987520	43	14897
2026-01-25 20:00:27.57	222.87	10.55	-36.2	-36.1	14.1	0.00e+00	0	51	0	3766484992	43	14681
2026-01-25 20:00:28.57	223.05	10.63	-36.2	-36.1	14.0	6.90e-06	0	51	0	3841982464	43	14767
2026-01-25 20:00:29.58	223.23	10.71	-35.9	-35.9	14.1	0.00e+00	0	51	0	3917479936	43	14305
2026-01-25 20:00:30.59	223.42	10.79	-35.8	-35.7	14.2	0.00e+00	0	52	0	3992977408	43	14054
2026-01-25 20:00:31.59	223.60	10.87	-35.9	-35.8	14.2	0.00e+00	0	51	0	4060086272	43	14230
2026-01-25 20:00:32.60	223.79	10.95	-35.6	-35.6	14.3	0.00e+00	0	51	0	4135583744	43	13816
2026-01-25 20:00:33.61	223.97	11.03	-35.8	-35.7	14.2	0.00e+00	0	52	0	4219469824	43	13999
2026-01-25 20:00:34.61	224.16	11.11	-35.7	-35.6	14.4	0.00e+00	0	52	0	4294967296	43	13900
2026-01-25 20:00:35.61	224.35	11.19	-35.7	-35.6	14.4	0.00e+00	0	51	0	4370464768	43	13908
2026-01-25 20:00:36.62	224.54	11.27	-35.7	-35.6	14.4	0.00e+00	0	51	0	4445962240	43	13852
2026-01-25 20:00:37.63	224.74	11.36	-35.6	-35.6	14.4	0.00e+00	0	51	0	4521459712	43	13796
2026-01-25 20:00:38.64	224.93	11.44	-35.6	-35.6	14.4	0.00e+00	0	52	0	4596957184	43	13818
2026-01-25 20:00:39.65	225.13	11.52	-35.7	-35.7	14.4	0.00e+00	0	51	0	4672454656	43	13967
2026-01-25 20:00:40.66	225.32	11.60	-35.6	-35.5	14.4	0.00e+00	0	52	0	4747952128	43	13690
2026-01-25 20:00:41.66	225.52	11.68	-35.5	-35.4	14.5	0.00e+00	0	51	0	4823449600	43	13576
2026-01-25 20:00:42.67	225.72	11.77	-35.6	-35.5	14.4	0.00e+00	0	52	0	4898947072	43	13770
2026-01-25 20:00:43.67	225.92	11.85	-35.4	-35.3	14.5	0.00e+00	0	51	0	4974444544	42	14251
2026-01-25 20:00:44.68	226.12	11.93	-35.6	-35.5	14.4	0.00e+00	0	52	0	5049942016	42	14520
2026-01-25 20:00:45.69	226.33	12.01	-35.5	-35.4	14.5	0.00e+00	0	52	0	5125439488	42	14317
2026-01-25 20:00:46.69	226.53	12.10	-35.4	-35.3	14.5	0.00e+00	0	52	0	5192548352	42	14150
2026-01-25 20:00:47.70	226.73	12.18	-35.3	-35.2	14.6	0.00e+00	0	52	0	5268045824	42	14066
2026-01-25 20:00:48.71	226.94	12.26	-35.4	-35.3	14.6	0.00e+00	0	52	0	5351931904	42	14172
2026-01-25 20:00:49.71	227.15	12.34	-35.4	-35.3	14.5	0.00e+00	0	52	0	5427429376	42	14233
2026-01-25 20:00:50.72	227.36	12.43	-35.4	-35.4	14.5	0.00e+00	0	52	0	5502926848	42	14281
2026-01-25 20:00:51.72	227.57	12.51	-35.2	-35.1	14.7	0.00e+00	0	52	0	5578424320	42	13892
2026-01-25 20:00:52.73	227.78	12.59	-35.3	-35.2	14.6	0.00e+00	0	52	0	5653921792	42	14018
2026-01-25 20:00:53.73	228.00	12.68	-35.2	-35.1	14.7	0.00e+00	0	52	0	5729419264	42	13847
2026-01-25 20:00:54.73	228.21	12.76	-35.2	-35.1	14.7	0.00e+00	0	52	0	5804916736	42	13862
2026-01-25 20:00:55.74	228.43	12.84	-35.2	-35.1	14.7	0.00e+00	0	52	0	5880414208	42	13915
2026-01-25 20:00:56.75	228.65	12.92	-35.2	-35.2	14.7	0.00e+00	0	52	0	5955911680	42	13970
2026-01-25 20:00:57.74	228.86	13.01	-35.1	-35.0	14.8	0.00e+00	0	52	0	6031409152	42	13721
2026-01-25 20:00:58.75	229.08	13.09	-35.1	-35.0	14.8	0.00e+00	0	52	0	6106906624	41	14482
2026-01-25 20:00:59.76	229.31	13.17	-35.0	-34.9	14.8	0.00e+00	0	52	0	6182404096	41	14306
2026-01-25 20:01:00.77	229.53	13.26	-34.9	-34.8	14.8	0.00e+00	0	52	0	6257901568	41	14266
2026-01-25 20:01:01.78	229.76	13.34	-34.9	-34.8	14.9	0.00e+00	0	52	0	6325010432	41	14146
2026-01-25 20:01:02.78	229.98	13.42	-34.9	-34.8	14.8	0.00e+00	0	52	0	6400507904	41	14244
2026-01-25 20:01:03.79	230.21	13.51	-34.8	-34.7	14.9	0.00e+00	0	52	0	6476005376	41	14092
2026-01-25 20:01:04.79	230.44	13.59	-35.0	-35.0	14.8	0.00e+00	0	52	0	6551502848	41	14469
2026-01-25 20:01:05.80	230.67	13.67	-35.0	-35.0	14.8	0.00e+00	0	52	0	6627000320	41	14448
2026-01-25 20:01:06.81	230.91	13.76	-35.0	-34.9	14.8	0.00e+00	0	52	0	6702497792	41	14353
2026-01-25 20:01:07.81	231.14	13.84	-34.8	-34.7	14.9	0.00e+00	0	52	0	6786383872	41	14095
2026-01-25 20:01:08.82	231.38	13.92	-35.0	-34.9	14.8	0.00e+00	0	52	0	6861881344	41	14337
2026-01-25 20:01:09.83	231.62	14.01	-34.8	-34.7	14.9	0.00e+00	0	52	0	6937378816	41	14010
2026-01-25 20:01:10.83	231.85	14.09	-34.8	-34.7	14.9	0.00e+00	0	52	0	7012876288	41	14111
2026-01-25 20:01:11.84	232.10	14.17	-34.7	-34.7	14.9	0.00e+00	0	52	0	7088373760	41	13954
2026-01-25 20:01:12.85	232.34	14.26	-34.6	-34.5	15.0	0.00e+00	0	52	0	7163871232	41	13716
2026-01-25 20:01:13.85	232.58	14.34	-34.6	-34.5	15.0	0.00e+00	0	52	0	7239368704	40	14491
2026-01-25 20:01:14.85	232.82	14.42	-34.7	-34.6	14.9	0.00e+00	0	52	0	7314866176	40	14674
2026-01-25 20:01:15.86	233.07	14.50	-34.5	-34.4	15.0	0.00e+00	0	52	0	7390363648	40	14342
2026-01-25 20:01:16.87	233.32	14.59	-34.5	-34.4	15.0	0.00e+00	0	52	0	7457472512	40	14338
2026-01-25 20:01:17.88	233.57	14.67	-34.5	-34.4	15.0	0.00e+00	0	52	0	7532969984	40	14415
2026-01-25 20:01:18.88	233.82	14.75	-34.5	-34.5	15.0	0.00e+00	0	52	0	7608467456	40	14452
2026-01-25 20:01:19.89	234.08	14.84	-34.5	-34.4	15.0	0.00e+00	0	52	0	7683964928	40	14409
2026-01-25 20:01:20.89	234.33	14.92	-34.5	-34.5	14.9	0.00e+00	0	52	0	7759462400	40	14459
2026-01-25 20:01:21.90	234.59	15.00	-34.4	-34.3	15.1	0.00e+00	0	52	0	7834959872	40	14257
2026-01-25 20:01:22.90	234.85	15.08	-34.4	-34.3	15.1	0.00e+00	0	52	0	7910457344	40	14163
2026-01-25 20:01:23.91	235.11	15.17	-34.3	-34.2	15.1	0.00e+00	0	52	0	7994343424	40	14035
2026-01-25 20:01:24.92	235.37	15.25	-34.3	-34.2	15.1	0.00e+00	0	52	0	8069840896	40	14109
2026-01-25 20:01:25.93	235.63	15.33	-34.3	-34.2	15.1	0.00e+00	0	52	0	8145338368	40	14050
2026-01-25 20:01:26.94	235.90	15.41	-34.2	-34.1	15.2	0.00e+00	0	52	0	8220835840	40	13824
2026-01-25 20:01:27.95	236.17	15.49	-34.2	-34.1	15.2	0.00e+00	0	52	0	8296333312	40	13900
2026-01-25 20:01:28.96	236.44	15.58	-34.2	-34.1	15.2	0.00e+00	0	52	0	8371830784	40	13880
2026-01-25 20:01:29.96	236.70	15.66	-34.2	-34.1	15.2	0.00e+00	0	52	0	8447328256	40	13867
2026-01-25 20:01:30.96	236.97	15.74	-34.2	-34.1	15.2	0.00e+00	0	52	0	8522825728	40	13829
2026-01-25 20:01:31.97	237.25	15.82	-34.2	-34.1	15.1	0.00e+00	0	52	0	8589934592	40	13939
2026-01-25 20:01:32.98	237.52	15.90	-34.3	-34.2	15.2	0.00e+00	0	52	0	8665432064	40	13998
2026-01-25 20:01:33.99	237.80	15.98	-34.4	-34.3	15.0	0.00e+00	0	52	0	8740929536	40	14139
2026-01-25 20:01:34.99	238.08	16.06	-34.2	-34.1	15.2	0.00e+00	0	52	0	8816427008	40	13821
2026-01-25 20:01:35.99	238.36	16.14	-34.0	-34.0	15.2	0.00e+00	0	52	0	8891924480	40	13634
2026-01-25 20:01:36.99	238.64	16.22	-34.0	-33.9	15.3	0.00e+00	0	52	0	8967421952	40	13605
2026-01-25 20:01:37.99	238.92	16.30	-34.0	-34.0	15.3	0.00e+00	0	52	0	9042919424	40	13643
2026-01-25 20:01:39.00	239.21	16.38	-34.0	-34.0	15.3	0.00e+00	0	52	0	9118416896	39	14450
2026-01-25 20:01:40.01	239.49	16.46	-34.1	-34.0	15.2	0.00e+00	0	52	0	9202302976	39	14564
2026-01-25 20:01:41.01	239.78	16.53	-34.1	-34.0	15.3	0.00e+00	0	52	0	9277800448	39	14484
2026-01-25 20:01:42.02	240.07	16.61	-34.1	-34.0	15.3	0.00e+00	0	52	0	9353297920	39	14503
2026-01-25 20:01:43.02	240.36	16.69	-34.0	-33.9	15.4	0.00e+00	0	52	0	9428795392	39	14298
2026-01-25 20:01:44.03	240.66	16.77	-33.9	-33.8	15.4	0.00e+00	0	52	0	9504292864	39	14204
2026-01-25 20:01:45.03	240.95	16.85	-33.9	-33.8	15.4	0.00e+00	0	52	0	9579790336	39	14211
2026-01-25 20:01:46.04	241.25	16.92	-34.0	-33.9	15.3	0.00e+00	0	52	0	9655287808	39	14354
2026-01-25 20:01:47.04	241.55	17.00	-34.1	-34.0	15.2	0.00e+00	0	52	0	9722396672	39	14478
2026-01-25 20:01:48.04	241.85	17.07	-33.9	-33.8	15.3	0.00e+00	0	52	0	9797894144	39	14268
2026-01-25 20:01:49.05	242.15	17.15	-33.8	-33.7	15.4	0.00e+00	0	52	0	9873391616	39	14024
2026-01-25 20:01:50.06	242.45	17.23	-33.9	-33.8	15.4	0.00e+00	0	52	0	9948889088	39	14254
2026-01-25 20:01:51.06	242.76	17.30	-34.0	-33.9	15.3	0.00e+00	0	52	0	10024386560	39	14419
2026-01-25 20:01:52.06	243.06	17.38	-34.1	-34.0	15.3	0.00e+00	0	52	0	10099884032	39	14510
2026-01-25 20:01:53.07	243.37	17.45	-33.9	-33.8	15.4	0.00e+00	0	52	0	10175381504	39	14185
2026-01-25 20:01:54.08	243.69	17.52	-34.0	-33.9	15.4	0.00e+00	0	52	0	10250878976	39	14312
2026-01-25 20:01:55.09	244.00	17.60	-34.0	-34.0	15.3	0.00e+00	0	52	0	10326376448	39	14446
2026-01-25 20:01:56.09	244.31	17.67	-33.7	-33.7	15.5	0.00e+00	0	52	0	10401873920	39	13960
2026-01-25 20:01:57.10	244.63	17.74	-33.6	-33.5	15.5	0.00e+00	0	52	0	10477371392	39	13787
2026-01-25 20:01:58.11	244.95	17.82	-33.7	-33.6	15.5	0.00e+00	0	52	0	10561257472	39	13841
2026-01-25 20:01:59.11	245.27	17.89	-33.6	-33.5	15.5	0.00e+00	0	52	0	10636754944	39	13788
2026-01-25 20:02:00.11	245.59	17.96	-33.7	-33.6	15.5	0.00e+00	0	52	0	10712252416	39	13905
2026-01-25 20:02:01.12	245.91	18.03	-33.7	-33.6	15.5	0.00e+00	0	52	0	10787749888	39	13866
2026-01-25 20:02:02.12	246.23	18.10	-33.7	-33.6	15.3	0.00e+00	0	52	0	10854858752	39	13813
2026-01-25 20:02:03.12	246.56	18.17	-33.6	-33.5	15.5	0.00e+00	0	52	0	10930356224	39	13751
2026-01-25 20:02:04.12	246.88	18.24	-33.6	-33.5	15.5	0.00e+00	0	52	0	11005853696	39	13718
2026-01-25 20:02:05.13	247.22	18.30	-33.7	-33.6	15.5	0.00e+00	0	52	0	11081351168	39	13871
2026-01-25 20:02:06.13	247.55	18.37	-33.6	-33.5	15.5	0.00e+00	0	52	0	11156848640	39	13652
2026-01-25 20:02:07.13	247.88	18.44	-33.5	-33.4	15.6	0.00e+00	0	52	0	11232346112	39	13600
2026-01-25 20:02:08.14	248.21	18.50	-33.6	-33.5	15.5	0.00e+00	0	52	0	11307843584	39	13689
2026-01-25 20:02:09.14	248.55	18.57	-33.6	-33.5	15.5	0.00e+00	0	52	0	11383341056	39	13721
2026-01-25 20:02:10.15	248.89	18.64	-33.5	-33.4	15.5	0.00e+00	0	52	0	11458838528	39	13562
2026-01-25 20:02:11.15	249.22	18.70	-33.5	-33.4	15.6	0.00e+00	0	52	0	11534336000	38	14355
2026-01-25 20:02:12.15	249.56	18.76	-33.5	-33.4	15.6	0.00e+00	0	52	0	11609833472	38	14335
2026-01-25 20:02:13.16	249.91	18.83	-33.4	-33.3	15.6	0.00e+00	0	52	0	11685330944	38	14221
2026-01-25 20:02:14.17	250.25	18.89	-33.4	-33.3	15.6	0.00e+00	0	52	0	11760828416	38	14202
2026-01-25 20:02:15.17	250.60	18.95	-33.4	-33.3	15.6	0.00e+00	0	52	0	11836325888	38	14202
2026-01-25 20:02:16.17	250.94	19.01	-33.3	-33.2	15.6	0.00e+00	0	52	0	11911823360	38	14052
2026-01-25 20:02:17.18	251.29	19.07	-33.4	-33.3	15.6	0.00e+00	0	52	0	11987320832	38	14122
2026-01-25 20:02:18.19	251.64	19.13	-33.3	-33.2	15.5	0.00e+00	0	52	0	12062818304	38	14012
2026-01-25 20:02:19.19	251.99	19.19	-33.3	-33.2	15.7	0.00e+00	0	52	0	12129927168	38	13982
2026-01-25 20:02:20.20	252.35	19.25	-33.3	-33.2	15.6	0.00e+00	0	52	0	12205424640	38	14056
2026-01-25 20:02:21.21	252.71	19.30	-33.3	-33.2	15.7	0.00e+00	0	52	0	12289310720	38	14030
2026-01-25 20:02:22.22	253.06	19.36	-33.3	-33.2	15.6	0.00e+00	0	52	0	12364808192	38	13963
2026-01-25 20:02:23.22	253.42	19.42	-33.2	-33.1	15.7	0.00e+00	0	52	0	12440305664	38	13862
2026-01-25 20:02:24.23	253.78	19.47	-33.2	-33.1	15.7	0.00e+00	0	52	0	12515803136	38	13881
2026-01-25 20:02:25.23	254.14	19.52	-33.2	-33.1	15.7	0.00e+00	0	52	0	12591300608	38	13873
2026-01-25 20:02:26.24	254.50	19.58	-33.2	-33.1	15.6	0.00e+00	0	52	0	12666798080	38	13920
2026-01-25 20:02:27.24	254.86	19.63	-33.2	-33.1	15.7	0.00e+00	0	52	0	12742295552	38	13860
2026-01-25 20:02:28.25	255.23	19.68	-33.2	-33.1	15.7	0.00e+00	0	52	0	12817793024	38	13872
2026-01-25 20:02:29.25	255.59	19.73	-33.3	-33.2	15.6	0.00e+00	0	52	0	12893290496	38	13979
2026-01-25 20:02:30.26	255.96	19.78	-33.3	-33.2	15.7	0.00e+00	0	52	0	12968787968	38	13990
2026-01-25 20:02:31.27	256.33	19.83	-33.1	-33.0	15.7	0.00e+00	0	52	0	13044285440	38	13730
2026-01-25 20:02:32.28	256.71	19.88	-33.1	-33.0	15.7	0.00e+00	0	52	0	13119782912	38	13752
2026-01-25 20:02:33.29	257.08	19.92	-33.1	-33.0	15.7	0.00e+00	0	52	0	13195280384	38	13775
2026-01-25 20:02:34.29	257.45	19.97	-33.1	-33.0	15.7	0.00e+00	0	52	0	13262389248	38	13780
2026-01-25 20:02:35.30	257.83	20.01	-33.1	-33.0	15.6	0.00e+00	0	53	0	13337886720	38	13790
2026-01-25 20:02:36.31	258.20	20.06	-33.2	-33.1	15.4	0.00e+00	0	52	0	13421772800	38	13897
2026-01-25 20:02:37.31	258.58	20.10	-33.0	-32.9	15.5	0.00e+00	0	52	0	13497270272	38	13618
2026-01-25 20:02:38.31	258.95	20.14	-33.1	-33.0	15.6	0.00e+00	0	52	0	13572767744	38	13707
2026-01-25 20:02:39.32	259.33	20.18	-33.1	-33.0	15.7	0.00e+00	0	52	0	13648265216	38	13775
2026-01-25 20:02:40.33	259.71	20.22	-33.0	-32.9	15.7	0.00e+00	0	52	0	13723762688	38	13615
2026-01-25 20:02:41.33	260.09	20.26	-33.0	-32.9	15.7	0.00e+00	0	52	0	13799260160	38	13592
2026-01-25 20:02:42.34	260.47	20.29	-33.0	-32.9	15.7	0.00e+00	0	52	0	13874757632	38	13567
2026-01-25 20:02:43.35	260.86	20.33	-33.0	-32.9	15.8	0.00e+00	0	52	0	13950255104	38	13550
2026-01-25 20:02:44.36	261.24	20.36	-33.0	-32.9	15.8	0.00e+00	0	52	0	14025752576	38	13561
2026-01-25 20:02:45.36	261.63	20.40	-32.9	-32.8	15.8	0.00e+00	0	52	0	14101250048	37	14215
2026-01-25 20:02:46.37	262.01	20.43	-33.0	-32.9	15.7	0.00e+00	0	52	0	14176747520	37	14299
2026-01-25 20:02:47.38	262.40	20.46	-33.0	-32.9	15.7	0.00e+00	0	52	0	14252244992	37	14332
2026-01-25 20:02:48.38	262.79	20.49	-32.9	-32.8	15.8	0.00e+00	0	52	0	14327742464	37	14218
2026-01-25 20:02:49.38	263.17	20.52	-32.9	-32.8	15.8	0.00e+00	0	52	0	14403239936	37	14258
2026-01-25 20:02:50.39	263.56	20.55	-32.9	-32.8	15.7	0.00e+00	0	52	0	14470348800	37	14217
2026-01-25 20:02:51.40	263.95	20.58	-33.0	-32.9	15.7	0.00e+00	0	52	0	14545846272	37	14397
2026-01-25 20:02:52.41	264.35	20.60	-33.1	-33.0	15.7	0.00e+00	0	52	0	14621343744	37	14488
2026-01-25 20:02:53.41	264.73	20.63	-32.9	-32.8	15.7	0.00e+00	0	52	0	14705229824	37	14219
2026-01-25 20:02:54.42	265.13	20.65	-32.9	-32.8	15.8	0.00e+00	0	52	0	14780727296	37	14221
2026-01-25 20:02:55.41	265.51	20.67	-32.9	-32.8	15.8	0.00e+00	0	52	0	14856224768	37	14197
2026-01-25 20:02:56.42	265.91	20.70	-32.9	-32.8	15.8	0.00e+00	0	52	0	14931722240	37	14167
2026-01-25 20:02:57.43	266.30	20.72	-32.9	-32.8	15.8	0.00e+00	0	52	0	15007219712	37	14252
2026-01-25 20:02:58.43	266.70	20.73	-33.0	-32.9	15.7	0.00e+00	0	52	0	15082717184	37	14403
2026-01-25 20:02:59.44	267.09	20.75	-33.0	-32.9	15.8	0.00e+00	0	52	0	15158214656	37	14394
2026-01-25 20:03:00.44	267.48	20.77	-32.9	-32.8	15.8	0.00e+00	0	52	0	15233712128	37	14238
2026-01-25 20:03:01.45	267.88	20.78	-32.9	-32.8	15.8	0.00e+00	0	52	0	15309209600	37	14264
2026-01-25 20:03:02.46	268.28	20.80	-33.0	-32.9	15.7	0.00e+00	0	52	0	15384707072	37	14389
2026-01-25 20:03:03.46	268.67	20.81	-33.0	-32.9	15.8	0.00e+00	0	52	0	15460204544	37	14380
2026-01-25 20:03:04.47	269.07	20.82	-32.9	-32.8	15.8	0.00e+00	0	53	0	15527313408	37	14235
2026-01-25 20:03:05.48	269.47	20.83	-33.0	-32.9	15.8	0.00e+00	0	52	0	15602810880	37	14407
2026-01-25 20:03:06.49	269.87	20.84	-33.0	-33.0	15.7	0.00e+00	0	52	0	15678308352	37	14443
2026-01-25 20:03:07.49	270.26	20.85	-33.1	-33.0	15.8	0.00e+00	0	52	0	15753805824	37	14453
2026-01-25 20:03:08.49	270.66	20.85	-32.8	-32.7	15.7	0.00e+00	0	52	0	15829303296	37	14099
2026-01-25 20:03:09.50	271.06	20.86	-32.9	-32.8	15.8	0.00e+00	0	52	0	15904800768	37	14228
2026-01-25 20:03:10.51	271.46	20.86	-32.9	-32.8	15.8	0.00e+00	0	52	0	15980298240	37	14174
2026-01-25 20:03:11.51	271.85	20.86	-32.9	-32.8	15.8	0.00e+00	0	52	0	16064184320	37	14236
2026-01-25 20:03:12.52	272.25	20.87	-33.0	-32.9	15.8	0.00e+00	0	52	0	16139681792	37	14355
2026-01-25 20:03:13.52	272.65	20.87	-33.0	-32.9	15.8	0.00e+00	0	52	0	16215179264	37	14289
2026-01-25 20:03:14.53	273.05	20.86	-32.9	-32.8	15.8	0.00e+00	0	52	0	16290676736	37	14228
2026-01-25 20:03:15.53	273.44	20.86	-33.0	-32.9	15.8	0.00e+00	0	53	0	16366174208	37	14295
2026-01-25 20:03:16.54	273.84	20.86	-32.8	-32.7	15.8	0.00e+00	0	52	0	16441671680	37	14060
2026-01-25 20:03:17.54	274.24	20.85	-32.8	-32.7	15.8	0.00e+00	0	52	0	16517169152	37	14032
2026-01-25 20:03:18.55	274.64	20.85	-33.0	-32.9	15.8	0.00e+00	0	52	0	16592666624	37	14288
2026-01-25 20:03:19.56	275.04	20.84	-32.9	-32.8	15.8	0.00e+00	0	53	0	16668164096	37	14267
2026-01-25 20:03:20.56	275.43	20.83	-32.9	-32.8	15.8	0.00e+00	0	52	0	16735272960	37	14143
2026-01-25 20:03:21.56	275.82	20.82	-32.9	-32.8	15.7	0.00e+00	0	53	0	16810770432	37	14211
2026-01-25 20:03:22.57	276.22	20.81	-32.9	-32.8	15.6	0.00e+00	0	53	0	16886267904	37	14220
2026-01-25 20:03:23.58	276.62	20.80	-32.9	-32.8	15.6	0.00e+00	0	52	0	16961765376	37	14254
2026-01-25 20:03:24.58	277.01	20.78	-33.0	-32.9	15.6	0.00e+00	0	53	0	17037262848	37	14358
2026-01-25 20:03:25.59	277.41	20.77	-33.0	-32.9	15.6	0.00e+00	0	52	0	17112760320	37	14363
2026-01-25 20:03:26.60	277.81	20.75	-33.0	-32.9	15.6	0.00e+00	0	52	0	17188257792	37	14385
2026-01-25 20:03:27.61	278.20	20.74	-32.9	-32.8	15.6	0.00e+00	0	53	0	17272143872	37	14242
2026-01-25 20:03:28.61	278.59	20.72	-33.0	-33.0	15.6	0.00e+00	0	53	0	17347641344	37	14447
2026-01-25 20:03:29.63	278.99	20.70	-33.0	-32.9	15.6	0.00e+00	0	53	0	17423138816	37	14343
2026-01-25 20:03:30.63	279.38	20.68	-33.1	-33.0	15.6	0.00e+00	0	52	0	17498636288	37	14554
2026-01-25 20:03:31.64	279.77	20.66	-33.0	-32.9	15.6	0.00e+00	0	53	0	17574133760	37	14383
2026-01-25 20:03:32.64	280.16	20.63	-33.0	-32.9	15.6	0.00e+00	0	53	0	17649631232	37	14296
2026-01-25 20:03:33.65	280.55	20.61	-33.0	-32.9	15.6	0.00e+00	0	52	0	17725128704	37	14423
2026-01-25 20:03:34.65	280.94	20.58	-33.0	-32.9	15.6	0.00e+00	0	53	0	17800626176	37	14379
2026-01-25 20:03:35.66	281.33	20.56	-33.0	-32.9	15.6	0.00e+00	0	53	0	17867735040	37	14432
2026-01-25 20:03:36.67	281.72	20.53	-33.1	-33.1	15.6	0.00e+00	0	53	0	17943232512	37	14609
2026-01-25 20:03:37.68	282.11	20.50	-33.1	-33.0	15.6	0.00e+00	0	52	0	18018729984	37	14476
2026-01-25 20:03:38.68	282.50	20.47	-33.1	-33.0	15.6	0.00e+00	0	53	0	18094227456	37	14460
2026-01-25 20:03:39.69	282.88	20.44	-33.0	-32.9	15.6	0.00e+00	0	53	0	18169724928	37	14439
2026-01-25 20:03:40.69	283.26	20.40	-33.1	-33.0	15.6	0.00e+00	0	53	0	18245222400	37	14477
2026-01-25 20:03:41.70	283.65	20.37	-33.1	-33.0	15.6	0.00e+00	0	53	0	18320719872	37	14527
2026-01-25 20:03:42.71	284.03	20.34	-33.1	-33.0	15.6	0.00e+00	0	53	0	18404605952	37	14472
2026-01-25 20:03:43.72	284.42	20.30	-33.1	-33.0	15.6	0.00e+00	0	53	0	18480103424	37	14481
2026-01-25 20:03:44.72	284.80	20.26	-33.2	-33.1	15.5	0.00e+00	0	53	0	18555600896	37	14661
2026-01-25 20:03:45.73	285.18	20.22	-33.2	-33.1	15.6	0.00e+00	0	53	0	18631098368	37	14692
2026-01-25 20:03:46.72	285.55	20.19	-33.1	-33.0	15.6	0.00e+00	0	53	0	18706595840	37	14501
2026-01-25 20:03:47.73	285.93	20.15	-33.0	-32.9	15.6	0.00e+00	0	53	0	18782093312	37	14436
2026-01-25 20:03:48.74	286.31	20.11	-33.1	-33.0	15.6	0.00e+00	0	53	0	18857590784	37	14572
2026-01-25 20:03:49.75	286.68	20.06	-33.1	-33.0	15.6	0.00e+00	0	52	0	18933088256	37	14518
2026-01-25 20:03:50.76	287.06	20.02	-33.1	-33.0	15.6	0.00e+00	0	53	0	19000197120	37	14546
2026-01-25 20:03:51.76	287.43	19.98	-33.1	-33.0	15.6	0.00e+00	0	53	0	19075694592	37	14557
2026-01-25 20:03:52.77	287.80	19.93	-33.2	-33.1	15.5	0.00e+00	0	53	0	19151192064	37	14709
2026-01-25 20:03:53.78	288.17	19.88	-33.2	-33.1	15.6	0.00e+00	0	53	0	19226689536	37	14674
2026-01-25 20:03:54.79	288.54	19.84	-33.2	-33.1	15.5	0.00e+00	0	53	0	19302187008	37	14748
2026-01-25 20:03:55.79	288.91	19.79	-33.2	-33.1	15.6	0.00e+00	0	53	0	19377684480	37	14708
2026-01-25 20:03:56.80	289.28	19.74	-33.2	-33.1	15.5	0.00e+00	0	53	0	19453181952	37	14690
2026-01-25 20:03:57.80	289.64	19.69	-33.2	-33.1	15.6	0.00e+00	0	53	0	19528679424	37	14775
2026-01-25 20:03:58.81	290.01	19.64	-33.3	-33.2	15.6	0.00e+00	0	53	0	19612565504	37	14804
2026-01-25 20:03:59.81	290.37	19.59	-33.2	-33.1	15.5	0.00e+00	0	53	0	19688062976	37	14757
2026-01-25 20:04:00.82	290.73	19.54	-33.3	-33.2	15.6	0.00e+00	0	53	0	19763560448	37	14816
2026-01-25 20:04:01.82	291.08	19.48	-33.4	-33.3	15.5	0.00e+00	0	53	0	19839057920	37	14986
2026-01-25 20:04:02.82	291.44	19.43	-33.4	-33.3	15.5	0.00e+00	0	53	0	19914555392	37	15013
2026-01-25 20:04:03.83	291.80	19.38	-33.4	-33.3	15.5	0.00e+00	0	53	0	19990052864	37	14983
2026-01-25 20:04:04.83	292.15	19.32	-33.4	-33.3	15.5	0.00e+00	0	53	0	20065550336	37	15089
2026-01-25 20:04:05.84	292.51	19.26	-33.3	-33.2	15.5	0.00e+00	0	53	0	20132659200	37	14916
2026-01-25 20:04:06.85	292.86	19.21	-33.4	-33.3	15.5	0.00e+00	0	53	0	20208156672	37	15116
2026-01-25 20:04:07.85	293.21	19.15	-33.4	-33.3	15.5	0.00e+00	0	53	0	20283654144	37	15017
2026-01-25 20:04:08.86	293.56	19.09	-33.5	-33.4	15.5	0.00e+00	0	53	0	20359151616	37	15198
2026-01-25 20:04:09.87	293.91	19.03	-33.4	-33.3	15.5	0.00e+00	0	53	0	20434649088	37	15105
2026-01-25 20:04:10.88	294.25	18.97	-33.5	-33.4	15.5	0.00e+00	0	53	0	20510146560	37	15163
2026-01-25 20:04:11.88	294.60	18.91	-33.6	-33.5	15.4	0.00e+00	0	52	0	20585644032	37	15350
2026-01-25 20:04:12.88	294.94	18.85	-33.6	-33.5	15.4	0.00e+00	0	53	0	20661141504	37	15461
2026-01-25 20:04:13.89	295.28	18.78	-33.5	-33.4	15.4	0.00e+00	0	53	0	20736638976	37	15223
2026-01-25 20:04:14.90	295.62	18.72	-33.5	-33.4	15.5	0.00e+00	0	53	0	20812136448	37	15184
2026-01-25 20:04:15.90	295.96	18.66	-33.6	-33.5	15.4	0.00e+00	0	53	0	20887633920	37	15413
2026-01-25 20:04:16.91	296.29	18.59	-33.6	-33.5	15.4	0.00e+00	0	53	0	20971520000	37	15396
2026-01-25 20:04:17.91	296.63	18.53	-33.6	-33.5	15.4	0.00e+00	0	53	0	21047017472	37	15382
2026-01-25 20:04:18.92	296.96	18.46	-33.7	-33.6	15.4	0.00e+00	0	53	0	21122514944	37	15574
2026-01-25 20:04:19.92	297.29	18.39	-33.8	-33.7	15.3	0.00e+00	0	53	0	21198012416	38	14930
2026-01-25 20:04:20.93	297.62	18.33	-33.7	-33.6	15.4	0.00e+00	0	53	0	21265121280	38	14670
2026-01-25 20:04:21.94	297.95	18.26	-33.7	-33.6	15.4	0.00e+00	0	53	0	21340618752	38	14649
2026-01-25 20:04:22.95	298.28	18.19	-33.7	-33.6	15.4	0.00e+00	0	53	0	21416116224	38	14705
2026-01-25 20:04:23.95	298.60	18.12	-33.8	-33.7	15.3	0.00e+00	0	53	0	21491613696	38	14842
2026-01-25 20:04:24.96	298.93	18.05	-33.8	-33.7	15.3	0.00e+00	0	53	0	21567111168	38	14940
2026-01-25 20:04:25.96	299.25	17.98	-33.8	-33.7	15.3	0.00e+00	0	53	0	21642608640	38	14891
2026-01-25 20:04:26.97	299.57	17.91	-33.8	-33.7	15.3	0.00e+00	0	53	0	21718106112	38	14883
2026-01-25 20:04:27.97	299.88	17.84	-33.8	-33.7	15.4	0.00e+00	0	53	0	21793603584	38	14805
2026-01-25 20:04:28.97	300.20	17.77	-33.9	-33.8	15.3	0.00e+00	0	53	0	21869101056	38	14992
2026-01-25 20:04:29.98	300.51	17.70	-33.8	-33.7	15.3	0.00e+00	0	53	0	21944598528	38	14885
2026-01-25 20:04:30.99	300.83	17.63	-33.8	-33.7	15.3	0.00e+00	0	53	0	22020096000	38	14923
2026-01-25 20:04:31.99	301.13	17.55	-33.9	-33.8	15.3	0.00e+00	0	53	0	22095593472	38	14990
2026-01-25 20:04:32.99	301.44	17.48	-33.9	-33.8	15.3	0.00e+00	0	53	0	22171090944	38	15005
2026-01-25 20:04:33.99	301.75	17.41	-33.9	-33.8	15.3	0.00e+00	0	53	0	22246588416	38	15005
2026-01-25 20:04:35.00	302.06	17.33	-34.0	-33.9	15.2	0.00e+00	0	53	0	22322085888	38	15216
2026-01-25 20:04:36.00	302.36	17.26	-34.0	-33.9	15.2	0.00e+00	0	53	0	22397583360	38	15166
2026-01-25 20:04:37.01	302.66	17.19	-34.0	-33.9	15.2	0.00e+00	0	53	0	22473080832	38	15164
2026-01-25 20:04:38.02	302.96	17.11	-34.0	-33.9	15.3	0.00e+00	0	53	0	22548578304	38	15193
2026-01-25 20:04:39.02	303.26	17.03	-34.0	-33.9	15.2	0.00e+00	0	53	0	22624075776	38	15291
2026-01-25 20:04:40.03	303.56	16.96	-34.0	-33.9	15.2	0.00e+00	0	53	0	22699573248	38	15242
2026-01-25 20:04:41.03	303.85	16.88	-34.1	-34.0	15.2	0.00e+00	0	53	0	22775070720	38	15411
2026-01-25 20:04:42.04	304.15	16.81	-34.1	-34.0	15.2	0.00e+00	0	53	0	22850568192	38	15459
2026-01-25 20:04:43.05	304.44	16.73	-34.1	-34.0	15.2	0.00e+00	0	53	0	22926065664	38	15331
2026-01-25 20:04:44.05	304.73	16.65	-34.1	-34.0	15.2	0.00e+00	0	53	0	23001563136	38	15411
2026-01-25 20:04:45.05	305.02	16.57	-34.1	-34.1	15.2	0.00e+00	0	53	0	23077060608	38	15480
2026-01-25 20:04:46.07	305.31	16.50	-34.2	-34.1	15.2	0.00e+00	0	53	0	23152558080	38	15577
2026-01-25 20:04:47.07	305.59	16.42	-34.1	-34.0	15.2	0.00e+00	0	53	0	23228055552	39	14579
2026-01-25 20:04:48.07	305.87	16.34	-34.2	-34.2	15.2	0.00e+00	0	53	0	23303553024	39	14781
2026-01-25 20:04:49.07	306.15	16.26	-34.3	-34.2	15.1	0.00e+00	0	53	0	23379050496	39	14859
2026-01-25 20:04:50.09	306.44	16.18	-34.2	-34.1	15.2	0.00e+00	0	53	0	23454547968	39	14761
2026-01-25 20:04:51.09	306.71	16.10	-34.3	-34.2	15.1	0.00e+00	0	53	0	23530045440	39	14929
2026-01-25 20:04:52.10	306.99	16.02	-34.3	-34.2	15.1	0.00e+00	0	53	0	23605542912	39	14824
2026-01-25 20:04:53.10	307.26	15.94	-34.5	-34.4	15.1	0.00e+00	0	53	0	23672651776	39	15150
2026-01-25 20:04:54.11	307.54	15.86	-34.4	-34.3	15.1	0.00e+00	0	53	0	23756537856	39	15107
2026-01-25 20:04:55.12	307.81	15.78	-34.5	-34.4	15.1	0.00e+00	0	53	0	23832035328	39	15149
2026-01-25 20:04:56.13	308.08	15.70	-34.3	-34.3	15.1	0.00e+00	0	53	0	23907532800	39	14949
2026-01-25 20:04:57.13	308.35	15.62	-34.4	-34.3	15.1	0.00e+00	0	53	0	23983030272	39	15076
2026-01-25 20:04:58.14	308.62	15.54	-34.6	-34.5	15.0	0.00e+00	0	53	0	24058527744	39	15393
2026-01-25 20:04:59.15	308.88	15.46	-34.5	-34.4	15.0	0.00e+00	0	53	0	24134025216	39	15200
2026-01-25 20:05:00.15	309.14	15.38	-34.5	-34.5	15.0	0.00e+00	0	53	0	24209522688	39	15309
2026-01-25 20:05:01.15	309.40	15.30	-34.6	-34.5	15.0	0.00e+00	0	53	0	24285020160	39	15450
2026-01-25 20:05:02.16	309.66	15.22	-34.6	-34.5	15.0	0.00e+00	0	53	0	24360517632	39	15434
2026-01-25 20:05:03.17	309.92	15.14	-34.6	-34.5	15.0	0.00e+00	0	53	0	24436015104	39	15393
2026-01-25 20:05:04.17	310.18	15.06	-34.6	-34.5	15.0	0.00e+00	0	53	0	24511512576	39	15345
2026-01-25 20:05:05.18	310.43	14.98	-34.6	-34.6	14.9	0.00e+00	0	53	0	24587010048	39	15474
2026-01-25 20:05:06.18	310.69	14.89	-34.7	-34.6	14.9	0.00e+00	0	53	0	24662507520	40	14714
2026-01-25 20:05:07.19	310.94	14.81	-34.7	-34.6	14.9	0.00e+00	0	53	0	24738004992	40	14736
2026-01-25 20:05:08.20	311.19	14.73	-34.8	-34.7	14.8	0.00e+00	0	53	0	24805113856	40	14817
2026-01-25 20:05:09.20	311.44	14.65	-34.9	-34.8	14.8	0.00e+00	0	53	0	24880611328	40	15019
2026-01-25 20:05:10.21	311.69	14.57	-34.8	-34.7	14.8	0.00e+00	0	53	0	24964497408	40	14926
2026-01-25 20:05:11.22	311.93	14.48	-34.7	-34.6	14.9	0.00e+00	0	53	0	25039994880	40	14731
2026-01-25 20:05:12.22	312.17	14.40	-34.6	-34.5	14.9	0.00e+00	0	53	0	25115492352	40	14600
2026-01-25 20:05:13.23	312.42	14.32	-34.8	-34.7	14.8	0.00e+00	0	53	0	25190989824	40	14911
2026-01-25 20:05:14.23	312.66	14.24	-35.0	-34.9	14.7	0.00e+00	0	53	0	25266487296	40	15154
2026-01-25 20:05:15.24	312.90	14.16	-34.8	-34.7	14.8	0.00e+00	0	53	0	25341984768	40	14905
2026-01-25 20:05:16.24	313.13	14.07	-34.9	-34.8	14.8	0.00e+00	0	53	0	25417482240	40	15079
2026-01-25 20:05:17.25	313.37	13.99	-34.9	-34.8	14.8	0.00e+00	0	53	0	25492979712	40	15007
2026-01-25 20:05:18.25	313.60	13.91	-34.9	-34.8	14.8	0.00e+00	0	53	0	25568477184	40	15018
2026-01-25 20:05:19.26	313.84	13.83	-34.8	-34.7	14.8	0.00e+00	0	53	0	25643974656	40	14882
2026-01-25 20:05:20.26	314.07	13.74	-34.9	-34.8	14.8	0.00e+00	0	53	0	25719472128	40	15071
2026-01-25 20:05:21.27	314.30	13.66	-34.8	-34.7	14.8	0.00e+00	0	53	0	25794969600	40	14937
2026-01-25 20:05:22.27	314.52	13.58	-34.9	-34.8	14.8	0.00e+00	0	53	0	25870467072	40	15009
2026-01-25 20:05:23.28	314.75	13.50	-35.0	-34.9	14.7	0.00e+00	0	53	0	25937575936	40	15191
2026-01-25 20:05:24.29	314.98	13.41	-35.0	-34.9	14.7	0.00e+00	0	53	0	26013073408	40	15273
2026-01-25 20:05:25.29	315.20	13.33	-35.0	-35.0	14.7	0.00e+00	0	53	0	26088570880	40	15303
2026-01-25 20:05:26.30	315.43	13.25	-35.1	-35.0	14.6	0.00e+00	0	53	0	26164068352	40	15458
2026-01-25 20:05:27.31	315.65	13.17	-35.3	-35.2	14.6	0.00e+00	0	53	0	26239565824	41	14814
2026-01-25 20:05:28.31	315.87	13.09	-35.3	-35.2	14.6	0.00e+00	0	53	0	26323451904	41	14822
2026-01-25 20:05:29.32	316.08	13.00	-35.1	-35.0	14.6	0.00e+00	0	53	0	26398949376	41	14592
2026-01-25 20:05:30.33	316.30	12.92	-35.1	-35.0	14.7	0.00e+00	0	53	0	26474446848	41	14551
2026-01-25 20:05:31.33	316.52	12.84	-35.2	-35.2	14.6	0.00e+00	0	53	0	26549944320	41	14809
2026-01-25 20:05:32.34	316.73	12.76	-35.3	-35.2	14.6	0.00e+00	0	53	0	26625441792	41	14921
2026-01-25 20:05:33.34	316.94	12.67	-35.4	-35.3	14.5	0.00e+00	0	53	0	26700939264	41	14987
2026-01-25 20:05:34.34	317.15	12.59	-35.3	-35.2	14.5	0.00e+00	0	53	0	26776436736	41	14899
2026-01-25 20:05:35.35	317.36	12.51	-35.5	-35.5	14.4	0.00e+00	0	53	0	26851934208	41	15303
2026-01-25 20:05:36.36	317.57	12.43	-35.5	-35.4	14.5	0.00e+00	0	53	0	26927431680	41	15168
2026-01-25 20:05:37.36	317.78	12.35	-35.5	-35.4	14.4	0.00e+00	0	53	0	27002929152	41	15233
2026-01-25 20:05:38.37	317.99	12.27	-35.4	-35.3	14.5	0.00e+00	0	53	0	27070038016	41	15072
2026-01-25 20:05:39.38	318.19	12.18	-35.6	-35.6	14.3	0.00e+00	0	53	0	27145535488	41	15497
2026-01-25 20:05:40.38	318.39	12.10	-35.3	-35.3	14.5	0.00e+00	0	53	0	27221032960	41	14966
2026-01-25 20:05:41.39	318.59	12.02	-35.4	-35.3	14.5	0.00e+00	0	53	0	27296530432	41	15033
2026-01-25 20:05:42.39	318.79	11.94	-35.4	-35.3	14.5	0.00e+00	0	53	0	27372027904	41	15002
2026-01-25 20:05:43.40	318.99	11.86	-35.6	-35.5	14.4	0.00e+00	0	53	0	27447525376	41	15364
2026-01-25 20:05:44.40	319.19	11.78	-35.5	-35.4	14.4	0.00e+00	0	53	0	27523022848	41	15289
2026-01-25 20:05:45.41	319.39	11.70	-35.6	-35.5	14.4	0.00e+00	0	53	0	27606908928	41	15347
2026-01-25 20:05:46.41	319.58	11.61	-35.5	-35.4	14.4	0.00e+00	0	53	0	27682406400	41	15277
2026-01-25 20:05:47.42	319.78	11.53	-35.7	-35.7	14.3	0.00e+00	0	53	0	27757903872	42	14825
2026-01-25 20:05:48.43	319.97	11.45	-35.7	-35.6	14.3	0.00e+00	0	53	0	27833401344	42	14720
2026-01-25 20:05:49.43	320.16	11.37	-35.9	-35.8	14.2	0.00e+00	0	53	0	27908898816	42	15061
2026-01-25 20:05:50.43	320.35	11.29	-35.7	-35.6	14.3	0.00e+00	0	53	0	27984396288	42	14731
2026-01-25 20:05:51.44	320.54	11.21	-35.7	-35.6	14.3	0.00e+00	0	53	0	28059893760	42	14733
2026-01-25 20:05:52.45	320.73	11.13	-35.8	-35.7	14.3	0.00e+00	0	53	0	28135391232	42	14883
2026-01-25 20:05:53.46	320.91	11.05	-35.6	-35.5	14.4	0.00e+00	0	53	0	28202500096	42	14580
2026-01-25 20:05:54.46	321.10	10.97	-35.7	-35.6	14.3	0.00e+00	0	53	0	28277997568	42	14680
2026-01-25 20:05:55.47	321.28	10.89	-35.8	-35.8	14.2	0.00e+00	0	53	0	28353495040	42	14949
2026-01-25 20:05:56.48	321.47	10.81	-35.9	-35.8	14.2	0.00e+00	0	53	0	28428992512	42	15063
2026-01-25 20:05:57.48	321.65	10.73	-36.0	-35.9	14.1	0.00e+00	0	53	0	28504489984	42	15274
2026-01-25 20:05:58.49	321.83	10.65	-35.9	-35.8	14.2	0.00e+00	0	53	0	28579987456	42	15075
2026-01-25 20:05:59.49	322.01	10.57	-36.0	-35.9	14.1	0.00e+00	0	53	0	28655484928	42	15279
2026-01-25 20:06:00.50	322.19	10.49	-36.0	-35.9	14.1	0.00e+00	0	53	0	28730982400	42	15291
2026-01-25 20:06:01.50	322.36	10.41	-35.9	-35.9	14.1	0.00e+00	0	53	0	28806479872	42	15153
2026-01-25 20:06:02.50	322.54	10.33	-36.0	-35.9	14.1	0.00e+00	0	53	0	28881977344	42	15263
2026-01-25 20:06:03.51	322.71	10.25	-36.1	-36.0	14.1	0.00e+00	0	53	0	28965863424	42	15385
2026-01-25 20:06:04.52	322.89	10.18	-36.2	-36.1	14.0	0.00e+00	0	53	0	29041360896	43	14769
2026-01-25 20:06:05.53	323.06	10.10	-36.3	-36.2	13.9	0.00e+00	0	53	0	29116858368	43	14879
2026-01-25 20:06:06.53	323.23	10.02	-36.0	-36.0	14.1	0.00e+00	0	53	0	29192355840	43	14460
2026-01-25 20:06:07.53	323.40	9.94	-36.2	-36.2	14.0	0.00e+00	0	53	0	29267853312	43	14821
2026-01-25 20:06:08.54	323.57	9.86	-36.4	-36.3	13.9	0.00e+00	0	53	0	29334962176	43	15047
2026-01-25 20:06:09.54	323.74	9.78	-36.2	-36.1	14.0	6.90e-06	0	53	0	29410459648	43	14732
2026-01-25 20:06:10.54	323.90	9.71	-36.3	-36.2	14.0	0.00e+00	0	53	0	29485957120	43	14870
2026-01-25 20:06:11.55	324.07	9.63	-36.3	-36.2	14.0	0.00e+00	0	53	0	29561454592	43	14839
2026-01-25 20:06:12.56	324.24	9.55	-36.3	-36.2	13.9	0.00e+00	0	53	0	29636952064	43	14852
2026-01-25 20:06:13.57	324.40	9.47	-36.4	-36.3	13.9	0.00e+00	0	53	0	29712449536	43	15112
2026-01-25 20:06:14.57	324.56	9.39	-36.3	-36.3	13.9	0.00e+00	0	53	0	29787947008	43	14986
2026-01-25 20:06:15.58	324.73	9.32	-36.4	-36.3	13.9	0.00e+00	0	53	0	29863444480	43	15071
2026-01-25 20:06:16.59	324.89	9.24	-36.5	-36.4	13.8	0.00e+00	0	53	0	29938941952	43	15180
2026-01-25 20:06:17.59	325.05	9.16	-36.5	-36.5	13.8	0.00e+00	0	53	0	30014439424	43	15336
2026-01-25 20:06:18.60	325.21	9.09	-36.5	-36.5	13.7	0.00e+00	0	53	0	30089936896	44	14454
2026-01-25 20:06:19.61	325.36	9.01	-52.9	-55.2	3.7	1.38e-05	0	53	104	30148657152	76	19863
2026-01-25 20:06:20.61	325.52	8.93	-52.9	-55.1	3.7	1.38e-05	0	52	104	30148657152	76	19655
2026-01-25 20:06:21.62	325.68	8.86	-52.9	-55.0	3.7	1.38e-05	0	52	104	30148657152	76	19472
2026-01-25 20:06:22.63	325.83	8.78	-52.9	-55.0	3.7	1.38e-05	0	52	104	30148657152	76	19457
2026-01-25 20:06:23.63	325.99	8.70	-52.9	-55.0	3.7	1.38e-05	0	52	104	30148657152	76	19449
2026-01-25 20:06:24.64	326.14	8.63	-52.9	-55.0	3.7	1.38e-05	0	52	104	30148657152	76	19352
2026-01-25 20:06:25.64	326.29	8.55	-52.9	-55.1	3.7	1.38e-05	0	52	104	30148657152	76	19488
2026-01-25 20:06:26.64	326.44	8.48	-52.9	-55.0	3.7	1.38e-05	0	52	104	30148657152	76	19351
2026-01-25 20:06:27.65	326.59	8.40	-52.8	-55.0	3.7	1.38e-05	0	52	104	30148657152	76	19320
2026-01-25 20:06:28.66	326.74	8.33	-52.8	-54.9	3.7	1.38e-05	0	52	104	30148657152	76	19193
2026-01-25 20:06:29.67	326.89	8.25	-52.9	-55.0	3.7	1.38e-05	0	52	104	30148657152	76	19383
2026-01-25 20:06:30.68	327.04	8.18	-52.8	-55.0	3.7	1.38e-05	0	52	104	30148657152	76	19272
2026-01-25 20:06:31.68	327.18	8.10	-52.8	-55.0	3.7	1.38e-05	0	52	104	30148657152	76	19277
2026-01-25 20:06:32.68	327.33	8.03	-52.8	-54.9	3.7	1.38e-05	0	52	104	30148657152	76	19124
2026-01-25 20:06:33.69	327.47	7.95	-52.8	-54.9	3.7	1.38e-05	0	52	104	30148657152	76	19254
2026-01-25 20:06:34.70	327.62	7.88	-52.8	-54.9	3.7	1.38e-05	0	52	104	30148657152	76	19190
2026-01-25 20:06:35.71	327.76	7.80	-52.8	-54.9	3.7	1.38e-05	0	52	104	30148657152	76	19160
2026-01-25 20:06:36.70	327.90	7.73	-52.7	-54.8	3.7	1.38e-05	0	52	104	30148657152	76	19030
2026-01-25 20:06:37.71	328.04	7.66	-52.8	-54.9	3.7	1.38e-05	0	52	104	30148657152	76	19193
2026-01-25 20:06:38.71	328.18	7.58	-52.7	-54.8	3.7	1.38e-05	0	52	104	30148657152	76	19015
2026-01-25 20:06:39.71	328.32	7.51	-52.7	-54.9	3.7	1.38e-05	0	52	104	30148657152	76	19043
2026-01-25 20:06:40.72	328.46	7.44	-52.6	-54.8	3.7	1.38e-05	0	52	104	30148657152	76	18878
2026-01-25 20:06:41.73	328.60	7.36	-52.8	-54.9	3.7	1.38e-05	0	52	104	30148657152	76	19159
2026-01-25 20:06:42.73	328.73	7.29	-52.7	-54.8	3.7	1.38e-05	0	51	104	30148657152	76	18918
2026-01-25 20:06:43.73	328.87	7.22	-52.7	-54.8	3.7	1.38e-05	0	52	104	30148657152	76	18905
2026-01-25 20:06:44.73	329.00	7.15	-52.6	-54.8	3.7	1.38e-05	0	51	104	30148657152	76	18826
2026-01-25 20:06:45.74	329.14	7.07	-52.7	-54.9	3.7	1.38e-05	0	52	104	30148657152	76	19063
2026-01-25 20:06:46.75	329.27	7.00	-52.6	-54.8	3.7	1.38e-05	0	52	104	30148657152	76	18823
2026-01-25 20:06:47.74	329.40	6.93	-52.6	-54.8	3.7	1.38e-05	0	52	104	30148657152	76	18829
2026-01-25 20:06:48.75	329.54	6.86	-52.6	-54.7	3.7	1.38e-05	0	52	104	30148657152	76	18775
2026-01-25 20:06:49.75	329.67	6.78	-52.7	-54.8	3.7	1.38e-05	0	52	104	30148657152	76	18928
2026-01-25 20:06:50.75	329.80	6.71	-52.6	-54.7	3.7	1.38e-05	0	51	104	30148657152	76	18788
2026-01-25 20:06:51.76	329.93	6.64	-52.6	-54.7	3.7	1.38e-05	0	51	104	30148657152	76	18808
2026-01-25 20:06:52.77	330.06	6.57	-52.6	-54.7	3.7	1.38e-05	0	51	104	30148657152	76	18633
2026-01-25 20:06:53.78	330.19	6.50	-52.6	-54.8	3.7	1.38e-05	0	51	104	30148657152	76	18884
2026-01-25 20:06:54.79	330.31	6.43	-52.6	-54.7	3.7	1.38e-05	0	51	104	30148657152	76	18686
2026-01-25 20:06:55.79	330.44	6.36	-52.6	-54.7	3.7	1.38e-05	0	51	104	30148657152	76	18731
2026-01-25 20:06:56.79	330.57	6.29	-52.5	-54.6	3.7	1.38e-05	0	51	104	30148657152	76	18574
2026-01-25 20:06:57.80	330.69	6.22	-52.6	-54.7	3.7	1.38e-05	0	51	104	30148657152	76	18752
2026-01-25 20:06:58.79	330.81	6.15	-52.5	-54.6	3.7	1.38e-05	0	51	104	30148657152	76	18592
2026-01-25 20:06:59.80	330.94	6.08	-52.5	-54.7	3.7	1.38e-05	0	51	104	30148657152	76	18621
2026-01-25 20:07:00.81	331.06	6.01	-52.5	-54.6	3.7	1.38e-05	0	51	104	30148657152	76	18567
2026-01-25 20:07:01.81	331.18	5.94	-52.6	-54.7	3.7	1.38e-05	0	51	104	30148657152	76	18755
2026-01-25 20:07:02.82	331.31	5.87	-52.5	-54.6	3.7	1.38e-05	0	51	104	30148657152	76	18512
2026-01-25 20:07:03.83	331.43	5.80	-52.5	-54.6	3.7	1.38e-05	0	51	104	30148657152	76	18601
2026-01-25 20:07:04.83	331.55	5.73	-52.5	-54.6	3.7	1.38e-05	0	51	104	30148657152	76	18479
2026-01-25 20:07:05.84	331.67	5.66	-52.6	-54.7	3.7	1.38e-05	0	51	104	30148657152	76	18683
2026-01-25 20:07:06.84	331.79	5.59	-52.5	-54.6	3.7	1.38e-05	0	51	104	30148657152	76	18551
2026-01-25 20:07:07.85	331.90	5.52	-52.5	-54.6	3.7	1.38e-05	0	51	104	30148657152	76	18497
2026-01-25 20:07:08.85	332.02	5.45	-52.4	-54.6	3.7	1.38e-05	0	51	104	30148657152	76	18402
2026-01-25 20:07:09.86	332.14	5.38	-52.6	-54.7	3.7	1.38e-05	0	51	104	30148657152	76	18657
2026-01-25 20:07:10.87	332.25	5.31	-52.5	-54.6	3.7	1.38e-05	0	51	104	30148657152	76	18468
2026-01-25 20:07:11.87	332.37	5.24	-52.5	-54.6	3.7	1.38e-05	0	51	104	30148657152	76	18509
2026-01-25 20:07:12.88	332.48	5.18	-52.4	-54.5	3.7	1.38e-05	0	51	104	30148657152	76	18269
2026-01-25 20:07:13.89	332.60	5.11	-52.5	-54.6	3.7	1.38e-05	0	51	104	30148657152	76	18555
2026-01-25 20:07:14.89	332.71	5.04	-52.4	-54.5	3.7	1.38e-05	0	51	104	30148657152	76	18375
2026-01-25 20:07:15.89	332.82	4.97	-52.5	-54.6	3.7	1.38e-05	0	51	104	30148657152	76	18507
2026-01-25 20:07:16.89	332.94	4.91	-52.8	-54.9	3.7	1.38e-05	0	51	104	30148657152	76	19169
2026-01-25 20:07:17.90	333.05	4.84	-53.1	-55.2	3.7	1.38e-05	0	51	104	30148657152	76	19891
2026-01-25 20:07:18.91	333.16	4.77	-53.3	-55.4	3.7	1.38e-05	0	51	104	30148657152	77	19189
2026-01-25 20:07:19.91	333.27	4.70	-53.4	-55.5	3.7	1.38e-05	0	51	104	30148657152	77	19400
2026-01-25 20:07:20.92	333.38	4.64	-53.5	-55.6	3.7	1.38e-05	0	51	104	30148657152	77	19571
2026-01-25 20:07:21.92	333.49	4.57	-53.5	-55.7	3.7	1.38e-05	0	51	104	30148657152	77	19738
2026-01-25 20:07:22.93	333.60	4.50	-53.5	-55.6	3.7	1.38e-05	0	51	104	30148657152	77	19498
2026-01-25 20:07:23.94	333.71	4.44	-53.4	-55.5	3.7	1.38e-05	0	51	104	30148657152	77	19382
2026-01-25 20:07:24.95	333.81	4.37	-53.5	-55.6	3.7	1.38e-05	0	51	104	30148657152	77	19626
2026-01-25 20:07:25.95	333.92	4.30	-53.4	-55.6	3.7	1.38e-05	0	51	104	30148657152	77	19522
2026-01-25 20:07:26.96	334.03	4.24	-53.4	-55.5	3.7	1.38e-05	0	51	104	30148657152	77	19273
2026-01-25 20:07:27.97	334.13	4.17	-53.3	-55.4	3.7	1.38e-05	0	51	104	30148657152	77	19234
2026-01-25 20:07:28.98	334.24	4.10	-53.3	-55.4	3.7	1.38e-05	0	51	104	30148657152	77	19182
2026-01-25 20:07:29.99	334.34	4.04	-53.3	-55.4	3.7	1.38e-05	0	51	104	30148657152	77	19221
2026-01-25 20:07:30.99	334.45	3.97	-53.3	-55.5	3.7	1.38e-05	0	51	104	30148657152	77	19328
2026-01-25 20:07:32.00	334.55	3.91	-53.4	-55.5	3.7	1.38e-05	0	51	104	30148657152	77	19382
2026-01-25 20:07:33.00	334.65	3.84	-53.4	-55.6	3.7	1.38e-05	0	51	104	30148657152	77	19497
2026-01-25 20:07:34.01	334.76	3.78	-53.4	-55.5	3.7	1.38e-05	0	51	104	30148657152	77	19407
2026-01-25 20:07:35.01	334.86	3.71	-53.4	-55.5	3.7	1.38e-05	0	51	104	30148657152	77	19422
2026-01-25 20:07:36.02	334.96	3.65	-53.3	-55.5	3.7	1.38e-05	0	51	104	30148657152	77	19308
2026-01-25 20:07:37.03	335.06	3.58	-53.3	-55.4	3.7	1.38e-05	0	51	104	30148657152	77	19216
2026-01-25 20:07:38.03	335.16	3.52	-53.3	-55.4	3.7	1.38e-05	0	51	104	30148657152	77	19117
2026-01-25 20:07:39.03	335.26	3.46	-53.2	-55.4	3.7	0.00e+00	0	51	104	30148657152	77	19062
2026-01-25 20:07:40.04	335.36	3.39	-53.2	-55.3	3.7	0.00e+00	0	51	104	30148657152	77	18979
2026-01-25 20:07:41.05	335.46	3.33	-53.2	-55.3	3.7	0.00e+00	0	51	104	30148657152	77	18906
2026-01-25 20:07:42.06	335.56	3.26	-53.2	-55.3	3.7	0.00e+00	0	51	104	30148657152	77	18860
2026-01-25 20:07:43.07	335.65	3.20	-53.1	-55.3	3.7	0.00e+00	0	51	104	30148657152	77	18873
2026-01-25 20:07:44.07	335.75	3.14	-53.1	-55.3	3.7	0.00e+00	0	51	104	30148657152	77	18853
2026-01-25 20:07:45.08	335.85	3.07	-53.1	-55.2	3.7	0.00e+00	0	51	104	30148657152	77	18782
2026-01-25 20:07:46.09	335.94	3.01	-53.1	-55.2	3.7	0.00e+00	0	51	104	30148657152	77	18801
2026-01-25 20:07:47.10	336.04	2.94	-53.1	-55.2	3.7	0.00e+00	0	51	104	30148657152	77	18749
2026-01-25 20:07:48.10	336.13	2.88	-53.1	-55.2	3.7	0.00e+00	0	51	104	30148657152	77	18754
2026-01-25 20:07:49.11	336.23	2.82	-53.1	-55.2	3.7	0.00e+00	0	51	104	30148657152	77	18758
2026-01-25 20:07:50.12	336.32	2.76	-53.1	-55.2	3.7	0.00e+00	0	51	104	30148657152	77	18802
2026-01-25 20:07:51.12	336.42	2.69	-53.1	-55.2	3.7	0.00e+00	0	51	104	30148657152	77	18758
2026-01-25 20:07:52.13	336.51	2.63	-53.1	-55.2	3.7	0.00e+00	0	51	104	30148657152	77	18738
2026-01-25 20:07:53.14	336.60	2.57	-53.1	-55.2	3.7	0.00e+00	0	51	104	30148657152	77	18761
2026-01-25 20:07:54.15	336.70	2.51	-53.1	-55.2	3.7	0.00e+00	0	51	104	30148657152	77	18762
2026-01-25 20:07:55.16	336.79	2.44	-53.1	-55.2	3.7	0.00e+00	0	51	104	30148657152	77	18807
2026-01-25 20:07:56.17	336.88	2.38	-53.1	-55.2	3.7	0.00e+00	0	51	104	30148657152	77	18754
2026-01-25 20:07:57.17	336.97	2.32	-53.1	-55.2	3.7	0.00e+00	0	51	104	30148657152	77	18751
2026-01-25 20:07:58.18	337.06	2.26	-53.1	-55.2	3.7	0.00e+00	0	51	104	30148657152	77	18807
2026-01-25 20:07:59.19	337.15	2.20	-53.1	-55.2	3.7	0.00e+00	0	51	104	30148657152	77	18798
2026-01-25 20:08:00.19	337.24	2.13	-53.1	-55.2	3.7	0.00e+00	0	51	104	30148657152	77	18800
2026-01-25 20:08:01.20	337.33	2.07	-53.1	-55.2	3.7	0.00e+00	0	51	104	30148657152	77	18759
2026-01-25 20:08:02.21	337.42	2.01	-53.1	-55.2	3.7	0.00e+00	0	51	104	30148657152	77	18792
2026-01-25 20:08:03.22	337.50	1.95	-53.1	-55.2	3.7	0.00e+00	0	51	104	30148657152	77	18722

#Closed at: 2026-01-25 20:08:03
#Recorded file [30148 MB]: D:/lorett/data/31041_260125_225828.dat