passes_logs/2026/01/25/R3.2S_Murmansk/R3.2S_Murmansk__20260125_103845_FENGYUN_3D_rec.log

#Pass ID: 20260125_103845_FENGYUN 3D
#Satellite: FENGYUN 3D
#Configuration: FENGYUN 3D
#almurnet v.1.7.20251203
#Start time: 2026-01-25 10:38:46

#Version: 2.2.20231116
#Station: R3.2S_Murmansk
#Location: 33.079688 lon 68.888172 lat
#TLE: 1 43010U 17072A   26024.94080550 -.00000109  00000+0 -29577-4 0  9995
#TLE: 2 43010  98.9962 356.9116 0002509  91.7481 268.3982 14.19699259424665

#Time	Az	El	Level	Level2	SNR	BER	BlckErr	Temp	State	Recorded	gain1	gain2
2026-01-25 10:38:46.13	129.55	2.02	-51.9	-63.8	3.8	8.47e-01	0	42	0	0	75	14115
2026-01-25 10:38:47.12	129.53	2.08	-51.9	-63.8	3.8	8.46e-01	0	42	104	0	74	15028
2026-01-25 10:38:48.13	129.51	2.15	-51.9	-63.8	3.8	8.47e-01	0	42	104	0	74	15046
2026-01-25 10:38:49.14	129.49	2.21	-51.9	-63.8	3.8	8.47e-01	0	42	104	0	74	15013
2026-01-25 10:38:50.15	129.47	2.28	-51.9	-63.8	3.8	8.46e-01	0	42	104	0	74	14955
2026-01-25 10:38:51.16	129.45	2.34	-51.9	-63.8	3.8	8.46e-01	0	42	104	0	74	14962
2026-01-25 10:38:52.16	129.43	2.41	-51.9	-63.8	3.8	8.46e-01	0	42	104	0	74	14971
2026-01-25 10:38:53.17	129.41	2.47	-51.9	-63.8	3.8	8.46e-01	0	42	104	0	74	14993
2026-01-25 10:38:54.18	129.39	2.54	-51.9	-63.8	3.8	8.47e-01	0	42	104	0	74	14979
2026-01-25 10:38:55.19	129.37	2.60	-51.9	-63.8	3.8	8.46e-01	0	42	104	0	74	14920
2026-01-25 10:38:56.20	129.35	2.67	-51.9	-63.8	3.8	8.47e-01	0	42	104	0	74	14918
2026-01-25 10:38:57.20	129.32	2.73	-51.9	-63.7	3.8	8.46e-01	0	42	104	0	74	14858
2026-01-25 10:38:58.21	129.30	2.80	-51.9	-63.7	3.8	8.46e-01	0	42	104	0	74	14837
2026-01-25 10:38:59.22	129.28	2.86	-51.9	-63.7	3.8	8.46e-01	0	42	104	0	74	14809
2026-01-25 10:39:00.23	129.26	2.93	-51.9	-63.7	3.8	8.46e-01	0	42	104	0	74	14824
2026-01-25 10:39:01.24	129.24	3.00	-51.9	-63.7	3.8	8.46e-01	0	42	104	0	74	14753
2026-01-25 10:39:02.24	129.22	3.06	-51.9	-63.6	3.8	8.46e-01	0	43	104	0	74	14614
2026-01-25 10:39:03.25	129.20	3.13	-51.9	-63.6	3.8	8.45e-01	0	42	104	0	74	14558
2026-01-25 10:39:04.26	129.17	3.20	-51.8	-63.3	3.8	8.46e-01	0	42	104	0	74	14131
2026-01-25 10:39:05.27	129.15	3.26	-51.8	-62.9	3.8	8.46e-01	0	42	104	0	74	13552
2026-01-25 10:39:06.28	129.13	3.33	-51.8	-62.7	3.8	8.45e-01	0	43	104	0	74	13148
2026-01-25 10:39:07.28	129.11	3.40	-51.7	-62.0	3.8	8.46e-01	0	43	104	0	74	12180
2026-01-25 10:39:08.29	129.08	3.46	-51.6	-61.4	4.0	8.44e-01	0	42	104	0	74	11392
2026-01-25 10:39:09.30	129.06	3.53	-51.6	-60.6	4.1	8.41e-01	0	43	0	0	74	10391
2026-01-25 10:39:10.31	129.04	3.60	-51.5	-60.4	4.2	8.38e-01	0	43	0	0	74	10097
2026-01-25 10:39:11.32	129.02	3.67	-51.5	-60.2	4.2	8.38e-01	0	43	0	0	74	9896
2026-01-25 10:39:12.32	128.99	3.73	-51.5	-60.6	4.1	8.40e-01	0	43	0	0	74	10321
2026-01-25 10:39:13.33	128.97	3.80	-51.5	-60.6	4.1	8.40e-01	0	43	0	0	74	10311
2026-01-25 10:39:14.34	128.95	3.87	-51.4	-59.5	4.4	8.35e-01	0	43	0	0	74	9092
2026-01-25 10:39:15.34	128.92	3.94	-51.2	-58.3	4.9	7.90e-01	0	43	0	0	74	7958
2026-01-25 10:39:16.35	128.90	4.01	-50.7	-56.4	6.2	4.29e-01	0	43	0	2097152	73	6743
2026-01-25 10:39:17.35	128.88	4.08	-50.0	-54.4	8.2	9.09e-02	0	43	0	7340032	71	6009
2026-01-25 10:39:18.36	128.85	4.15	-49.3	-52.8	9.7	1.91e-02	0	43	0	13631488	70	5336
2026-01-25 10:39:19.36	128.83	4.21	-48.3	-51.0	11.7	2.47e-03	0	43	0	18874368	68	4831
2026-01-25 10:39:20.37	128.80	4.28	-47.1	-49.3	13.3	5.26e-05	0	43	0	25165824	66	4475
2026-01-25 10:39:21.37	128.78	4.35	-46.1	-47.8	14.8	2.20e-06	0	43	0	30408704	64	4239
2026-01-25 10:39:22.38	128.76	4.42	-45.6	-47.3	15.5	0.00e+00	0	43	0	35651584	63	4203
2026-01-25 10:39:23.38	128.73	4.49	-44.9	-46.4	16.4	0.00e+00	0	43	0	41943040	61	4276
2026-01-25 10:39:24.39	128.71	4.56	-44.1	-45.4	17.3	0.00e+00	0	43	0	47185920	60	4042
2026-01-25 10:39:25.40	128.68	4.63	-44.3	-45.6	17.5	0.00e+00	0	43	0	52428800	59	4374
2026-01-25 10:39:26.41	128.66	4.70	-44.0	-45.3	17.8	0.00e+00	0	43	0	58720256	59	4214
2026-01-25 10:39:27.42	128.63	4.77	-43.8	-45.0	18.0	0.00e+00	0	43	0	63963136	59	4097
2026-01-25 10:39:28.42	128.61	4.84	-43.6	-44.9	18.2	0.00e+00	0	43	0	69206016	59	4017
2026-01-25 10:39:29.43	128.58	4.91	-43.8	-45.1	18.0	0.00e+00	0	43	0	75497472	59	4106
2026-01-25 10:39:30.44	128.56	4.98	-44.4	-45.8	17.3	0.00e+00	0	43	0	81788928	59	4449
2026-01-25 10:39:31.45	128.53	5.06	-44.4	-45.8	17.0	0.00e+00	0	43	0	87031808	60	4237
2026-01-25 10:39:32.45	128.51	5.13	-43.8	-45.1	18.1	0.00e+00	0	43	0	92274688	59	4106
2026-01-25 10:39:33.45	128.48	5.20	-44.0	-45.3	18.0	0.00e+00	0	43	0	98566144	59	4220
2026-01-25 10:39:34.46	128.46	5.27	-45.8	-47.4	15.2	1.43e-01	0	43	0	103809024	63	4290
2026-01-25 10:39:35.46	128.43	5.34	-43.1	-44.3	19.0	0.00e+00	0	43	0	110100480	58	3971
2026-01-25 10:39:36.47	128.40	5.41	-45.5	-47.1	15.7	1.53e-04	0	43	0	115343360	63	4131
2026-01-25 10:39:37.48	128.38	5.49	-43.4	-44.5	18.7	0.00e+00	0	43	0	120586240	58	4098
2026-01-25 10:39:38.48	128.35	5.56	-43.4	-44.5	18.7	0.00e+00	0	43	0	126877696	58	4096
2026-01-25 10:39:39.49	128.32	5.63	-43.2	-44.3	19.0	0.00e+00	0	43	0	132120576	58	3994
2026-01-25 10:39:40.49	128.30	5.70	-43.2	-44.3	19.0	0.00e+00	0	43	0	137363456	58	3986
2026-01-25 10:39:41.50	128.27	5.78	-43.1	-44.2	19.1	0.00e+00	0	43	0	143654912	58	3946
2026-01-25 10:39:42.51	128.24	5.85	-43.2	-44.4	18.9	0.00e+00	0	43	0	148897792	58	4020
2026-01-25 10:39:43.52	128.22	5.92	-42.9	-44.0	19.3	0.00e+00	0	43	0	155189248	57	4069
2026-01-25 10:39:44.52	128.19	6.00	-43.0	-44.1	19.2	0.00e+00	0	43	0	160432128	57	4122
2026-01-25 10:39:45.53	128.16	6.07	-43.1	-44.3	19.0	0.00e+00	0	43	0	166723584	57	4208
2026-01-25 10:39:46.54	128.13	6.15	-43.1	-44.3	19.1	0.00e+00	0	43	0	171966464	57	4197
2026-01-25 10:39:47.54	128.11	6.22	-43.0	-44.1	19.3	0.00e+00	0	43	0	177209344	57	4112
2026-01-25 10:39:48.55	128.08	6.29	-43.0	-44.1	19.3	0.00e+00	0	43	0	183500800	57	4137
2026-01-25 10:39:49.55	128.05	6.37	-43.0	-44.1	19.3	0.00e+00	0	43	0	188743680	57	4132
2026-01-25 10:39:50.55	128.02	6.44	-43.1	-44.2	19.2	0.00e+00	0	43	0	195035136	57	4166
2026-01-25 10:39:51.56	127.99	6.52	-43.2	-44.3	19.1	0.00e+00	0	43	0	200278016	57	4220
2026-01-25 10:39:52.55	127.97	6.59	-42.7	-43.7	19.7	0.00e+00	0	43	0	205520896	57	3944
2026-01-25 10:39:53.56	127.94	6.67	-42.6	-43.7	19.7	0.00e+00	0	43	0	211812352	57	3921
2026-01-25 10:39:54.56	127.91	6.74	-42.8	-43.8	19.6	0.00e+00	0	43	0	217055232	57	4004
2026-01-25 10:39:55.57	127.88	6.82	-42.6	-43.7	19.7	0.00e+00	0	43	0	222298112	57	3922
2026-01-25 10:39:56.58	127.85	6.90	-42.9	-43.9	19.5	0.00e+00	0	43	0	228589568	57	4045
2026-01-25 10:39:57.58	127.82	6.97	-42.9	-44.0	19.4	0.00e+00	0	43	0	233832448	57	4090
2026-01-25 10:39:58.59	127.79	7.05	-42.8	-43.9	19.6	0.00e+00	0	43	0	240123904	57	4009
2026-01-25 10:39:59.59	127.76	7.13	-42.7	-43.8	19.7	0.00e+00	0	43	0	245366784	57	3988
2026-01-25 10:40:00.60	127.73	7.20	-42.7	-43.7	19.8	0.00e+00	0	43	0	250609664	57	3944
2026-01-25 10:40:01.60	127.70	7.28	-42.5	-43.5	20.0	0.00e+00	0	43	0	256901120	56	4062
2026-01-25 10:40:02.61	127.67	7.36	-42.5	-43.6	19.9	0.00e+00	0	43	0	262144000	56	4099
2026-01-25 10:40:03.62	127.64	7.44	-42.5	-43.5	20.0	0.00e+00	0	43	0	267386880	56	4083
2026-01-25 10:40:04.62	127.61	7.51	-42.4	-43.4	20.1	0.00e+00	0	43	0	273678336	56	4029
2026-01-25 10:40:05.63	127.58	7.59	-42.5	-43.6	20.0	0.00e+00	0	43	0	279969792	56	4100
2026-01-25 10:40:06.63	127.55	7.67	-42.4	-43.4	20.1	0.00e+00	0	43	0	285212672	56	4041
2026-01-25 10:40:07.64	127.52	7.75	-42.4	-43.5	20.1	0.00e+00	0	43	0	290455552	56	4053
2026-01-25 10:40:08.65	127.49	7.83	-42.4	-43.4	20.1	0.00e+00	0	43	0	296747008	56	4024
2026-01-25 10:40:09.65	127.45	7.91	-42.3	-43.3	20.2	0.00e+00	0	43	0	301989888	56	3986
2026-01-25 10:40:10.66	127.42	7.99	-42.3	-43.3	20.2	0.00e+00	0	44	0	307232768	56	3991
2026-01-25 10:40:11.66	127.39	8.06	-42.3	-43.3	20.2	0.00e+00	0	43	0	313524224	56	3978
2026-01-25 10:40:12.67	127.36	8.14	-42.2	-43.2	20.3	0.00e+00	0	43	0	318767104	56	3951
2026-01-25 10:40:13.67	127.33	8.22	-42.1	-43.1	20.4	0.00e+00	0	43	0	325058560	56	3899
2026-01-25 10:40:14.68	127.29	8.30	-42.3	-43.3	20.2	0.00e+00	0	43	0	330301440	56	3993
2026-01-25 10:40:15.68	127.26	8.38	-42.3	-43.3	20.3	0.00e+00	0	43	0	335544320	56	3971
2026-01-25 10:40:16.69	127.23	8.47	-42.3	-43.4	20.2	0.00e+00	0	43	0	341835776	56	4005
2026-01-25 10:40:17.69	127.19	8.55	-42.1	-43.1	20.5	0.00e+00	0	43	0	347078656	56	3901
2026-01-25 10:40:18.70	127.16	8.63	-42.1	-43.0	20.5	0.00e+00	0	43	0	352321536	56	3862
2026-01-25 10:40:19.71	127.13	8.71	-42.2	-43.1	20.4	0.00e+00	0	43	0	358612992	56	3912
2026-01-25 10:40:20.71	127.09	8.79	-42.0	-42.9	20.6	0.00e+00	0	43	0	363855872	56	3823
2026-01-25 10:40:21.72	127.06	8.87	-41.9	-42.8	20.7	0.00e+00	0	43	0	369098752	55	3992
2026-01-25 10:40:22.72	127.03	8.96	-41.9	-42.8	20.7	0.00e+00	0	44	0	375390208	55	3992
2026-01-25 10:40:23.73	126.99	9.04	-41.9	-42.8	20.7	0.00e+00	0	44	0	381681664	55	3994
2026-01-25 10:40:24.74	126.96	9.12	-42.0	-42.9	20.6	0.00e+00	0	43	0	386924544	55	4036
2026-01-25 10:40:25.74	126.92	9.20	-41.8	-42.7	20.8	0.00e+00	0	44	0	392167424	55	3951
2026-01-25 10:40:26.75	126.89	9.29	-41.7	-42.7	20.9	0.00e+00	0	44	0	398458880	55	3924
2026-01-25 10:40:27.75	126.85	9.37	-41.8	-42.8	20.8	0.00e+00	0	43	0	403701760	55	3963
2026-01-25 10:40:28.76	126.82	9.46	-41.7	-42.6	20.9	0.00e+00	0	44	0	409993216	55	3909
2026-01-25 10:40:29.76	126.78	9.54	-41.7	-42.7	20.9	0.00e+00	0	43	0	415236096	55	3919
2026-01-25 10:40:30.77	126.74	9.62	-41.7	-42.6	20.9	0.00e+00	0	44	0	420478976	55	3899
2026-01-25 10:40:31.78	126.71	9.71	-41.8	-42.7	20.8	0.00e+00	0	43	0	426770432	55	3954
2026-01-25 10:40:32.78	126.67	9.79	-41.6	-42.6	21.0	0.00e+00	0	44	0	432013312	55	3885
2026-01-25 10:40:33.78	126.64	9.88	-41.8	-42.7	20.8	0.00e+00	0	43	0	437256192	55	3944
2026-01-25 10:40:34.79	126.60	9.96	-41.7	-42.6	20.9	0.00e+00	0	44	0	443547648	55	3907
2026-01-25 10:40:35.79	126.56	10.05	-41.7	-42.6	20.9	0.00e+00	0	44	0	448790528	55	3908
2026-01-25 10:40:36.80	126.52	10.14	-41.7	-42.6	20.9	0.00e+00	0	43	0	454033408	55	3903
2026-01-25 10:40:37.80	126.49	10.22	-41.8	-42.8	20.8	0.00e+00	0	44	0	460324864	55	3977
2026-01-25 10:40:38.81	126.45	10.31	-41.9	-42.9	20.7	0.00e+00	0	44	0	465567744	55	4012
2026-01-25 10:40:39.82	126.41	10.40	-41.7	-42.7	20.9	0.00e+00	0	43	0	471859200	55	3918
2026-01-25 10:40:40.82	126.37	10.48	-41.6	-42.6	21.0	0.00e+00	0	44	0	477102080	55	3871
2026-01-25 10:40:41.83	126.33	10.57	-41.6	-42.5	21.1	0.00e+00	0	44	0	483393536	55	3866
2026-01-25 10:40:42.83	126.30	10.66	-41.6	-42.5	21.1	0.00e+00	0	44	0	488636416	55	3844
2026-01-25 10:40:43.84	126.26	10.75	-41.6	-42.6	21.0	0.00e+00	0	44	0	494927872	55	3887
2026-01-25 10:40:44.85	126.22	10.84	-41.7	-42.6	21.0	0.00e+00	0	44	0	500170752	55	3896
2026-01-25 10:40:45.85	126.18	10.92	-41.6	-42.5	21.1	0.00e+00	0	44	0	505413632	55	3856
2026-01-25 10:40:46.86	126.14	11.01	-41.6	-42.6	21.1	0.00e+00	0	44	0	511705088	55	3878
2026-01-25 10:40:47.87	126.10	11.10	-41.6	-42.5	21.1	0.00e+00	0	43	0	516947968	55	3839
2026-01-25 10:40:48.88	126.06	11.19	-41.6	-42.5	21.1	0.00e+00	0	44	0	522190848	55	3855
2026-01-25 10:40:49.88	126.02	11.28	-41.6	-42.5	21.1	0.00e+00	0	44	0	528482304	55	3843
2026-01-25 10:40:50.89	125.98	11.37	-41.5	-42.4	21.2	0.00e+00	0	44	0	533725184	54	4051
2026-01-25 10:40:51.89	125.93	11.46	-41.4	-42.4	21.3	0.00e+00	0	44	0	538968064	54	4020
2026-01-25 10:40:52.90	125.89	11.56	-41.4	-42.4	21.3	0.00e+00	0	44	0	545259520	54	4012
2026-01-25 10:40:53.91	125.85	11.65	-41.5	-42.4	21.2	0.00e+00	0	44	0	550502400	54	4046
2026-01-25 10:40:54.91	125.81	11.74	-41.4	-42.3	21.3	0.00e+00	0	44	0	556793856	54	3999
2026-01-25 10:40:55.92	125.77	11.83	-41.2	-42.2	21.5	0.00e+00	0	44	0	562036736	54	3916
2026-01-25 10:40:56.92	125.72	11.92	-41.4	-42.3	21.4	0.00e+00	0	44	0	567279616	54	3965
2026-01-25 10:40:57.93	125.68	12.02	-41.4	-42.3	21.3	0.00e+00	0	43	0	573571072	54	4000
2026-01-25 10:40:58.93	125.64	12.11	-41.2	-42.1	21.5	0.00e+00	0	44	0	579862528	54	3890
2026-01-25 10:40:59.94	125.60	12.20	-41.2	-42.1	21.6	0.00e+00	0	43	0	585105408	54	3878
2026-01-25 10:41:00.94	125.55	12.29	-41.2	-42.1	21.6	0.00e+00	0	44	0	590348288	54	3889
2026-01-25 10:41:01.95	125.51	12.39	-41.1	-42.0	21.7	0.00e+00	0	44	0	596639744	54	3833
2026-01-25 10:41:02.95	125.46	12.48	-41.1	-42.0	21.7	0.00e+00	0	44	0	601882624	54	3852
2026-01-25 10:41:03.96	125.42	12.58	-41.1	-42.0	21.6	0.00e+00	0	44	0	607125504	54	3864
2026-01-25 10:41:04.97	125.37	12.67	-41.0	-41.9	21.8	0.00e+00	0	44	0	613416960	54	3795
2026-01-25 10:41:05.98	125.33	12.77	-41.1	-42.0	21.7	0.00e+00	0	44	0	618659840	54	3831
2026-01-25 10:41:06.98	125.28	12.86	-41.1	-42.0	21.7	0.00e+00	0	44	0	623902720	54	3836
2026-01-25 10:41:07.99	125.24	12.96	-41.0	-41.9	21.8	0.00e+00	0	44	0	630194176	54	3813
2026-01-25 10:41:08.99	125.19	13.06	-41.1	-42.0	21.7	0.00e+00	0	44	0	635437056	54	3835
2026-01-25 10:41:10.00	125.14	13.15	-41.2	-42.1	21.7	0.00e+00	0	44	0	641728512	54	3872
2026-01-25 10:41:11.00	125.10	13.25	-41.0	-41.8	21.9	0.00e+00	0	44	0	646971392	53	3996
2026-01-25 10:41:12.01	125.05	13.35	-41.0	-41.8	21.9	0.00e+00	0	44	0	652214272	53	4001
2026-01-25 10:41:13.02	125.00	13.45	-41.0	-41.9	21.8	0.00e+00	0	44	0	658505728	53	4010
2026-01-25 10:41:14.02	124.95	13.55	-40.9	-41.8	21.9	0.00e+00	0	44	0	663748608	53	3972
2026-01-25 10:41:15.03	124.91	13.64	-40.9	-41.7	22.0	0.00e+00	0	44	0	670040064	53	3952
2026-01-25 10:41:16.03	124.86	13.74	-40.9	-41.8	21.9	0.00e+00	0	44	0	675282944	53	3964
2026-01-25 10:41:17.04	124.81	13.84	-40.9	-41.8	22.0	0.00e+00	0	44	0	681574400	53	3969
2026-01-25 10:41:18.04	124.76	13.94	-41.1	-42.0	21.8	0.00e+00	0	44	0	686817280	53	4070
2026-01-25 10:41:19.05	124.71	14.04	-40.9	-41.7	22.0	0.00e+00	0	44	0	692060160	53	3951
2026-01-25 10:41:20.05	124.66	14.14	-40.9	-41.8	22.0	0.00e+00	0	44	0	698351616	53	3974
2026-01-25 10:41:21.06	124.61	14.24	-40.9	-41.7	22.0	0.00e+00	0	44	0	703594496	53	3958
2026-01-25 10:41:22.07	124.56	14.35	-40.9	-41.8	22.0	0.00e+00	0	44	0	708837376	53	3967
2026-01-25 10:41:23.07	124.51	14.45	-40.9	-41.8	22.0	0.00e+00	0	44	0	715128832	53	3989
2026-01-25 10:41:24.08	124.46	14.55	-40.9	-41.7	22.0	0.00e+00	0	44	0	720371712	53	3949
2026-01-25 10:41:25.08	124.41	14.65	-40.9	-41.7	22.0	0.00e+00	0	44	0	726663168	53	3958
2026-01-25 10:41:26.09	124.35	14.76	-40.9	-41.8	22.0	0.00e+00	0	44	0	731906048	53	3960
2026-01-25 10:41:27.10	124.30	14.86	-40.8	-41.7	22.1	0.00e+00	0	44	0	737148928	53	3923
2026-01-25 10:41:28.10	124.25	14.96	-40.7	-41.5	22.2	0.00e+00	0	44	0	743440384	53	3858
2026-01-25 10:41:29.11	124.19	15.07	-40.8	-41.6	22.1	0.00e+00	0	44	0	748683264	53	3913
2026-01-25 10:41:30.11	124.14	15.17	-40.7	-41.5	22.2	0.00e+00	0	44	0	753926144	53	3868
2026-01-25 10:41:31.12	124.09	15.28	-40.6	-41.5	22.3	0.00e+00	0	44	0	760217600	53	3841
2026-01-25 10:41:32.13	124.03	15.38	-40.6	-41.5	22.3	0.00e+00	0	44	0	765460480	53	3828
2026-01-25 10:41:33.13	123.98	15.49	-40.6	-41.5	22.3	0.00e+00	0	44	0	771751936	53	3826
2026-01-25 10:41:34.14	123.92	15.60	-40.6	-41.4	22.4	0.00e+00	0	44	0	776994816	53	3824
2026-01-25 10:41:35.15	123.86	15.70	-40.4	-41.3	22.5	0.00e+00	0	44	0	783286272	52	3962
2026-01-25 10:41:36.15	123.81	15.81	-40.3	-41.1	22.6	0.00e+00	0	44	0	788529152	52	3900
2026-01-25 10:41:37.16	123.75	15.92	-40.2	-41.0	22.7	0.00e+00	0	44	0	793772032	52	3855
2026-01-25 10:41:38.17	123.69	16.03	-40.2	-41.0	22.8	0.00e+00	0	44	0	800063488	52	3857
2026-01-25 10:41:39.18	123.64	16.14	-40.2	-41.0	22.8	0.00e+00	0	44	0	805306368	52	3854
2026-01-25 10:41:40.18	123.58	16.24	-40.2	-41.0	22.8	0.00e+00	0	44	0	811597824	52	3847
2026-01-25 10:41:41.18	123.52	16.35	-39.9	-40.7	23.1	0.00e+00	0	44	0	816840704	51	3952
2026-01-25 10:41:42.19	123.46	16.46	-39.9	-40.7	23.1	0.00e+00	0	44	0	822083584	51	3946
2026-01-25 10:41:43.19	123.40	16.57	-39.8	-40.6	23.2	0.00e+00	0	44	0	828375040	51	3890
2026-01-25 10:41:44.18	123.34	16.68	-39.8	-40.7	23.2	0.00e+00	0	44	0	833617920	51	3914
2026-01-25 10:41:45.19	123.28	16.79	-39.8	-40.6	23.1	0.00e+00	0	44	0	838860800	51	3912
2026-01-25 10:41:46.19	123.22	16.91	-39.7	-40.5	23.3	0.00e+00	0	44	0	845152256	51	3846
2026-01-25 10:41:47.19	123.16	17.02	-39.8	-40.6	23.3	0.00e+00	0	44	0	850395136	51	3870
2026-01-25 10:41:48.19	123.10	17.13	-39.7	-40.5	23.3	0.00e+00	0	44	0	855638016	51	3851
2026-01-25 10:41:49.20	123.04	17.24	-39.6	-40.4	23.4	0.00e+00	0	44	0	861929472	51	3820
2026-01-25 10:41:50.20	122.98	17.36	-39.6	-40.4	23.4	0.00e+00	0	44	0	867172352	51	3816
2026-01-25 10:41:51.20	122.91	17.47	-39.7	-40.5	23.4	0.00e+00	0	44	0	873463808	51	3830
2026-01-25 10:41:52.21	122.85	17.59	-39.6	-40.4	23.4	0.00e+00	0	44	0	878706688	51	3809
2026-01-25 10:41:53.21	122.79	17.70	-39.7	-40.5	23.4	0.00e+00	0	44	0	883949568	51	3842
2026-01-25 10:41:54.21	122.72	17.82	-39.8	-40.6	23.2	0.00e+00	0	44	0	890241024	51	3882
2026-01-25 10:41:55.21	122.66	17.93	-39.9	-40.7	23.1	0.00e+00	0	44	0	895483904	51	3936
2026-01-25 10:41:56.22	122.59	18.05	-39.8	-40.6	23.3	0.00e+00	0	44	0	900726784	51	3876
2026-01-25 10:41:57.22	122.52	18.16	-39.7	-40.5	23.4	0.00e+00	0	44	0	907018240	51	3848
2026-01-25 10:41:58.23	122.46	18.28	-39.7	-40.5	23.3	0.00e+00	0	44	0	912261120	51	3861
2026-01-25 10:41:59.23	122.39	18.40	-39.7	-40.5	23.3	0.00e+00	0	44	0	918552576	51	3866
2026-01-25 10:42:00.23	122.32	18.52	-39.7	-40.5	23.3	0.00e+00	0	44	0	923795456	51	3859
2026-01-25 10:42:01.24	122.25	18.64	-39.6	-40.4	23.4	0.00e+00	0	44	0	930086912	51	3810
2026-01-25 10:42:02.24	122.19	18.76	-39.7	-40.5	23.4	0.00e+00	0	44	0	935329792	51	3843
2026-01-25 10:42:03.25	122.12	18.88	-39.6	-40.4	23.4	0.00e+00	0	44	0	940572672	51	3819
2026-01-25 10:42:04.26	122.05	19.00	-39.5	-40.3	23.5	0.00e+00	0	44	0	946864128	51	3769
2026-01-25 10:42:05.26	121.97	19.12	-39.6	-40.4	23.4	0.00e+00	0	44	0	952107008	51	3790
2026-01-25 10:42:06.26	121.90	19.24	-39.5	-40.3	23.5	0.00e+00	0	44	0	958398464	51	3773
2026-01-25 10:42:07.26	121.83	19.37	-39.5	-40.3	23.5	0.00e+00	0	44	0	963641344	51	3777
2026-01-25 10:42:08.27	121.76	19.49	-39.5	-40.3	23.5	0.00e+00	0	44	0	968884224	51	3748
2026-01-25 10:42:09.27	121.69	19.61	-39.5	-40.3	23.6	0.00e+00	0	44	0	975175680	50	3965
2026-01-25 10:42:10.28	121.61	19.74	-39.5	-40.3	23.5	0.00e+00	0	44	0	980418560	50	3988
2026-01-25 10:42:11.29	121.54	19.86	-39.4	-40.2	23.6	0.00e+00	0	44	0	985661440	50	3948
2026-01-25 10:42:12.29	121.46	19.99	-39.4	-40.2	23.6	0.00e+00	0	44	0	991952896	50	3935
2026-01-25 10:42:13.30	121.39	20.11	-39.3	-40.1	23.7	0.00e+00	0	44	0	997195776	50	3895
2026-01-25 10:42:14.30	121.31	20.24	-39.3	-40.1	23.6	0.00e+00	0	44	0	1002438656	50	3908
2026-01-25 10:42:15.31	121.23	20.37	-39.5	-40.3	23.6	0.00e+00	0	44	0	1008730112	50	3963
2026-01-25 10:42:16.31	121.16	20.50	-39.3	-40.1	23.5	0.00e+00	0	44	0	1013972992	50	3894
2026-01-25 10:42:17.31	121.08	20.62	-39.4	-40.2	23.4	0.00e+00	0	44	0	1020264448	50	3935
2026-01-25 10:42:18.31	121.00	20.75	-39.5	-40.3	23.2	0.00e+00	0	44	0	1025507328	50	3970
2026-01-25 10:42:19.32	120.92	20.88	-39.4	-40.3	23.1	0.00e+00	0	44	0	1030750208	50	3962
2026-01-25 10:42:20.33	120.84	21.01	-39.3	-40.2	23.5	0.00e+00	0	44	0	1037041664	50	3918
2026-01-25 10:42:21.34	120.76	21.14	-39.5	-40.3	23.4	0.00e+00	0	44	0	1043333120	50	3979
2026-01-25 10:42:22.34	120.68	21.27	-39.4	-40.2	23.4	0.00e+00	0	44	0	1048576000	50	3943
2026-01-25 10:42:23.35	120.59	21.41	-39.3	-40.1	23.6	0.00e+00	0	44	0	1053818880	50	3900
2026-01-25 10:42:24.36	120.51	21.54	-39.2	-40.0	23.8	0.00e+00	0	44	0	1060110336	50	3846
2026-01-25 10:42:25.36	120.43	21.67	-39.2	-40.0	23.9	0.00e+00	0	44	0	1065353216	50	3827
2026-01-25 10:42:26.37	120.34	21.81	-39.3	-40.0	23.7	0.00e+00	0	44	0	1070596096	50	3868
2026-01-25 10:42:27.37	120.26	21.94	-39.1	-39.9	23.8	0.00e+00	0	44	0	1076887552	50	3798
2026-01-25 10:42:28.37	120.17	22.08	-39.0	-39.8	24.0	0.00e+00	0	44	0	1082130432	50	3740
2026-01-25 10:42:29.38	120.08	22.21	-39.0	-39.7	24.1	0.00e+00	0	44	0	1087373312	49	3949
2026-01-25 10:42:30.39	119.99	22.35	-38.9	-39.6	24.1	0.00e+00	0	44	0	1093664768	49	3903
2026-01-25 10:42:31.39	119.91	22.49	-38.9	-39.6	24.2	0.00e+00	0	44	0	1098907648	49	3906
2026-01-25 10:42:32.40	119.82	22.63	-38.8	-39.6	24.2	0.00e+00	0	44	0	1105199104	49	3873
2026-01-25 10:42:33.40	119.73	22.76	-38.7	-39.5	24.3	0.00e+00	0	44	0	1110441984	49	3839
2026-01-25 10:42:34.41	119.63	22.90	-38.7	-39.5	24.4	0.00e+00	0	44	0	1115684864	49	3837
2026-01-25 10:42:35.42	119.54	23.04	-38.7	-39.4	24.4	0.00e+00	0	44	0	1121976320	49	3820
2026-01-25 10:42:36.42	119.45	23.18	-38.6	-39.4	24.5	0.00e+00	0	44	0	1127219200	49	3788
2026-01-25 10:42:37.43	119.36	23.33	-38.7	-39.5	24.4	0.00e+00	0	44	0	1133510656	49	3841
2026-01-25 10:42:38.44	119.26	23.47	-38.7	-39.5	24.4	0.00e+00	0	44	0	1138753536	49	3841
2026-01-25 10:42:39.44	119.17	23.61	-38.7	-39.4	24.4	0.00e+00	0	44	0	1145044992	49	3822
2026-01-25 10:42:40.45	119.07	23.75	-38.7	-39.4	24.4	0.00e+00	0	44	0	1150287872	49	3820
2026-01-25 10:42:41.46	118.97	23.90	-38.7	-39.4	24.4	0.00e+00	0	44	0	1155530752	49	3816
2026-01-25 10:42:42.47	118.87	24.04	-38.6	-39.4	24.4	0.00e+00	0	44	0	1161822208	49	3794
2026-01-25 10:42:43.47	118.77	24.19	-38.8	-39.5	24.3	0.00e+00	0	44	0	1167065088	49	3861
2026-01-25 10:42:44.48	118.67	24.34	-38.7	-39.5	24.4	0.00e+00	0	44	0	1172307968	49	3838
2026-01-25 10:42:45.48	118.57	24.48	-38.8	-39.5	24.4	0.00e+00	0	44	0	1178599424	49	3861
2026-01-25 10:42:46.48	118.47	24.63	-38.8	-39.6	24.3	0.00e+00	0	44	0	1183842304	49	3886
2026-01-25 10:42:47.49	118.37	24.78	-38.7	-39.5	24.4	0.00e+00	0	44	0	1190133760	49	3846
2026-01-25 10:42:48.49	118.26	24.93	-38.7	-39.4	24.4	0.00e+00	0	44	0	1195376640	49	3813
2026-01-25 10:42:49.50	118.16	25.08	-38.6	-39.3	24.5	0.00e+00	0	44	0	1200619520	49	3777
2026-01-25 10:42:50.51	118.05	25.23	-38.6	-39.3	24.5	0.00e+00	0	44	0	1206910976	49	3779
2026-01-25 10:42:51.52	117.94	25.38	-38.6	-39.3	24.6	0.00e+00	0	44	0	1212153856	49	3779
2026-01-25 10:42:52.52	117.84	25.53	-38.6	-39.3	24.5	0.00e+00	0	44	0	1217396736	49	3774
2026-01-25 10:42:53.53	117.73	25.69	-38.4	-39.2	24.7	0.00e+00	0	44	0	1223688192	48	3932
2026-01-25 10:42:54.54	117.61	25.84	-38.4	-39.1	24.7	0.00e+00	0	44	0	1229979648	48	3909
2026-01-25 10:42:55.54	117.50	25.99	-38.4	-39.1	24.7	0.00e+00	0	44	0	1235222528	48	3892
2026-01-25 10:42:56.55	117.39	26.15	-38.4	-39.1	24.7	0.00e+00	0	44	0	1240465408	48	3897
2026-01-25 10:42:57.56	117.28	26.31	-38.3	-39.1	24.8	0.00e+00	0	44	0	1246756864	48	3875
2026-01-25 10:42:58.56	117.16	26.46	-38.4	-39.1	25.1	0.00e+00	0	44	0	1251999744	48	3887
2026-01-25 10:42:59.57	117.04	26.62	-38.3	-39.0	25.2	0.00e+00	0	44	0	1257242624	48	3834
2026-01-25 10:43:00.58	116.93	26.78	-38.3	-38.9	25.2	0.00e+00	0	44	0	1263534080	48	3820
2026-01-25 10:43:01.58	116.81	26.94	-38.2	-38.9	25.2	0.00e+00	0	44	0	1268776960	48	3800
2026-01-25 10:43:02.59	116.69	27.10	-38.2	-38.9	25.2	0.00e+00	0	44	0	1275068416	48	3820
2026-01-25 10:43:03.59	116.57	27.26	-38.3	-39.0	25.2	0.00e+00	0	44	0	1280311296	48	3840
2026-01-25 10:43:04.60	116.45	27.42	-38.3	-39.0	25.2	0.00e+00	0	44	0	1285554176	48	3835
2026-01-25 10:43:05.60	116.32	27.58	-38.3	-39.0	25.2	0.00e+00	0	44	0	1291845632	48	3827
2026-01-25 10:43:06.61	116.20	27.75	-38.2	-38.9	25.3	0.00e+00	0	44	0	1297088512	48	3806
2026-01-25 10:43:07.62	116.07	27.91	-38.2	-38.9	25.3	0.00e+00	0	44	0	1302331392	48	3797
2026-01-25 10:43:08.62	115.94	28.07	-38.2	-38.9	25.3	0.00e+00	0	44	0	1308622848	48	3803
2026-01-25 10:43:09.63	115.81	28.24	-38.1	-38.8	25.3	0.00e+00	0	44	0	1314914304	48	3764
2026-01-25 10:43:10.64	115.68	28.41	-38.2	-38.8	25.3	0.00e+00	0	44	0	1320157184	48	3780
2026-01-25 10:43:11.64	115.55	28.57	-38.0	-38.7	25.5	0.00e+00	0	44	0	1325400064	48	3717
2026-01-25 10:43:12.65	115.42	28.74	-38.1	-38.7	25.4	0.00e+00	0	44	0	1331691520	48	3733
2026-01-25 10:43:13.65	115.28	28.91	-37.7	-38.4	25.2	0.00e+00	0	44	0	1336934400	47	3793
2026-01-25 10:43:14.66	115.15	29.08	-37.7	-38.4	25.3	0.00e+00	0	44	0	1342177280	47	3794
2026-01-25 10:43:15.67	115.01	29.25	-37.8	-38.5	25.1	0.00e+00	0	44	0	1348468736	47	3862
2026-01-25 10:43:16.68	114.87	29.43	-38.0	-38.7	25.0	0.00e+00	0	44	0	1353711616	47	3925
2026-01-25 10:43:17.68	114.73	29.60	-37.9	-38.6	25.0	0.00e+00	0	44	0	1360003072	47	3908
2026-01-25 10:43:18.69	114.59	29.77	-37.9	-38.6	25.0	0.00e+00	0	44	0	1365245952	47	3890
2026-01-25 10:43:19.70	114.44	29.95	-37.9	-38.6	25.0	0.00e+00	0	44	0	1370488832	47	3902
2026-01-25 10:43:20.71	114.30	30.12	-37.7	-38.4	25.2	0.00e+00	0	44	0	1376780288	47	3799
2026-01-25 10:43:21.72	114.15	30.30	-37.6	-38.3	25.4	0.00e+00	0	44	0	1382023168	47	3748
2026-01-25 10:43:22.72	114.00	30.47	-37.6	-38.3	25.3	0.00e+00	0	44	0	1387266048	47	3760
2026-01-25 10:43:23.73	113.85	30.65	-37.6	-38.3	25.3	0.00e+00	0	44	0	1393557504	47	3767
2026-01-25 10:43:24.74	113.70	30.83	-37.6	-38.4	25.3	0.00e+00	0	44	0	1399848960	47	3784
2026-01-25 10:43:25.74	113.55	31.01	-37.4	-38.1	25.5	0.00e+00	0	44	0	1405091840	46	3896
2026-01-25 10:43:26.75	113.39	31.19	-37.2	-37.9	25.7	0.00e+00	0	44	0	1410334720	46	3804
2026-01-25 10:43:27.75	113.23	31.37	-37.4	-38.1	25.5	0.00e+00	0	44	0	1416626176	46	3878
2026-01-25 10:43:28.76	113.07	31.55	-37.3	-38.0	25.6	0.00e+00	0	44	0	1421869056	46	3845
2026-01-25 10:43:29.76	112.91	31.73	-37.4	-38.1	25.5	0.00e+00	0	44	0	1427111936	46	3886
2026-01-25 10:43:30.77	112.75	31.92	-37.4	-38.1	25.5	0.00e+00	0	44	0	1433403392	46	3906
2026-01-25 10:43:31.78	112.59	32.10	-37.4	-38.1	25.6	0.00e+00	0	44	0	1438646272	46	3869
2026-01-25 10:43:32.78	112.42	32.29	-37.5	-38.2	25.5	0.00e+00	0	44	0	1444937728	46	3915
2026-01-25 10:43:33.79	112.25	32.47	-37.4	-38.1	25.5	0.00e+00	0	44	0	1450180608	46	3905
2026-01-25 10:43:34.80	112.08	32.66	-37.5	-38.2	25.4	0.00e+00	0	44	0	1455423488	46	3942
2026-01-25 10:43:35.81	111.91	32.85	-37.5	-38.2	25.5	0.00e+00	0	44	0	1461714944	46	3917
2026-01-25 10:43:36.82	111.73	33.04	-37.4	-38.1	25.5	0.00e+00	0	44	0	1466957824	46	3903
2026-01-25 10:43:37.82	111.56	33.23	-37.4	-38.1	25.6	0.00e+00	0	44	0	1472200704	46	3893
2026-01-25 10:43:38.83	111.38	33.42	-37.1	-37.8	25.8	0.00e+00	0	44	0	1478492160	46	3770
2026-01-25 10:43:39.84	111.20	33.61	-37.1	-37.8	25.8	0.00e+00	0	44	0	1484783616	46	3760
2026-01-25 10:43:40.84	111.01	33.80	-37.2	-37.9	25.7	0.00e+00	0	44	0	1490026496	46	3794
2026-01-25 10:43:41.85	110.83	34.00	-37.1	-37.8	25.8	0.00e+00	0	44	0	1495269376	46	3761
2026-01-25 10:43:42.86	110.64	34.19	-37.2	-37.9	25.8	0.00e+00	0	44	0	1501560832	46	3790
2026-01-25 10:43:43.86	110.45	34.39	-37.1	-37.8	25.8	0.00e+00	0	44	0	1506803712	46	3775
2026-01-25 10:43:44.87	110.26	34.58	-37.3	-38.0	25.7	0.00e+00	0	44	0	1513095168	46	3831
2026-01-25 10:43:45.87	110.07	34.78	-37.1	-37.8	25.8	0.00e+00	0	44	0	1518338048	46	3763
2026-01-25 10:43:46.88	109.87	34.98	-37.1	-37.8	25.8	0.00e+00	0	44	0	1523580928	46	3754
2026-01-25 10:43:47.88	109.67	35.17	-37.2	-37.9	25.7	0.00e+00	0	44	0	1529872384	46	3807
2026-01-25 10:43:48.89	109.47	35.37	-37.3	-38.0	25.7	0.00e+00	0	44	0	1535115264	46	3837
2026-01-25 10:43:49.89	109.26	35.57	-37.3	-38.0	25.6	0.00e+00	0	44	0	1540358144	46	3825
2026-01-25 10:43:50.89	109.06	35.77	-37.3	-38.0	25.6	0.00e+00	0	44	0	1546649600	46	3852
2026-01-25 10:43:51.90	108.85	35.97	-37.4	-38.1	25.6	0.00e+00	0	44	0	1551892480	46	3874
2026-01-25 10:43:52.91	108.64	36.18	-37.3	-38.0	25.6	0.00e+00	0	44	0	1557135360	46	3836
2026-01-25 10:43:53.92	108.42	36.38	-37.4	-38.1	25.6	0.00e+00	0	44	0	1563426816	46	3885
2026-01-25 10:43:54.92	108.20	36.58	-37.4	-38.1	25.5	0.00e+00	0	44	0	1568669696	46	3909
2026-01-25 10:43:55.93	107.98	36.79	-37.4	-38.1	25.5	0.00e+00	0	44	0	1574961152	46	3909
2026-01-25 10:43:56.94	107.76	37.00	-37.6	-38.3	25.4	0.00e+00	0	44	0	1580204032	46	3974
2026-01-25 10:43:57.94	107.53	37.20	-37.6	-38.3	25.4	0.00e+00	0	44	0	1586495488	46	3966
2026-01-25 10:43:58.95	107.30	37.41	-37.6	-38.3	25.4	0.00e+00	0	44	0	1591738368	46	4004
2026-01-25 10:43:59.96	107.07	37.62	-37.5	-38.2	25.4	0.00e+00	0	44	0	1598029824	46	3954
2026-01-25 10:44:00.96	106.84	37.83	-37.5	-38.2	25.4	0.00e+00	0	44	0	1603272704	46	3946
2026-01-25 10:44:01.97	106.60	38.04	-37.5	-38.2	25.1	0.00e+00	0	44	0	1608515584	46	3954
2026-01-25 10:44:02.97	106.36	38.25	-37.7	-38.4	24.8	0.00e+00	0	44	0	1614807040	46	4029
2026-01-25 10:44:03.98	106.11	38.46	-37.8	-38.5	25.0	0.00e+00	0	44	0	1620049920	46	4082
2026-01-25 10:44:04.99	105.87	38.67	-37.8	-38.6	25.1	0.00e+00	0	44	0	1625292800	46	4099
2026-01-25 10:44:06.00	105.61	38.88	-37.8	-38.5	25.2	0.00e+00	0	44	0	1631584256	46	4071
2026-01-25 10:44:07.00	105.36	39.10	-37.6	-38.4	25.2	0.00e+00	0	44	0	1636827136	46	4015
2026-01-25 10:44:08.01	105.10	39.31	-37.5	-38.2	24.4	0.00e+00	0	44	0	1642070016	46	3930
2026-01-25 10:44:09.02	104.84	39.53	-37.2	-37.9	25.5	0.00e+00	0	44	0	1648361472	46	3809
2026-01-25 10:44:10.03	104.58	39.74	-37.3	-38.0	25.5	0.00e+00	0	44	0	1654652928	46	3828
2026-01-25 10:44:11.04	104.31	39.96	-37.4	-38.1	25.3	0.00e+00	0	44	0	1659895808	46	3909
2026-01-25 10:44:12.04	104.04	40.17	-37.4	-38.1	25.0	0.00e+00	0	44	0	1665138688	46	3890
2026-01-25 10:44:13.05	103.76	40.39	-37.6	-38.3	24.6	0.00e+00	0	44	0	1671430144	46	3986
2026-01-25 10:44:14.06	103.48	40.61	-37.7	-38.4	24.9	0.00e+00	0	44	0	1676673024	46	4026
2026-01-25 10:44:15.06	103.20	40.82	-37.8	-38.5	24.9	0.00e+00	0	44	0	1682964480	46	4066
2026-01-25 10:44:16.07	102.91	41.04	-37.7	-38.4	25.3	0.00e+00	0	44	0	1688207360	46	4038
2026-01-25 10:44:17.08	102.62	41.26	-37.8	-38.5	25.3	0.00e+00	0	44	0	1693450240	46	4059
2026-01-25 10:44:18.09	102.32	41.48	-37.7	-38.4	25.3	0.00e+00	0	44	0	1699741696	46	4033
2026-01-25 10:44:19.09	102.03	41.70	-37.8	-38.5	25.3	0.00e+00	0	44	0	1704984576	46	4065
2026-01-25 10:44:20.10	101.72	41.92	-37.8	-38.5	25.3	0.00e+00	0	44	0	1710227456	46	4062
2026-01-25 10:44:21.10	101.42	42.14	-30.1	-37.2	19.1	9.20e-03	0	44	0	1716518912	31	8360
2026-01-25 10:44:22.11	101.10	42.36	-29.0	-37.1	18.7	1.52e-02	0	44	0	1721761792	28	9757
2026-01-25 10:44:23.12	100.79	42.59	-30.4	-36.9	18.6	1.79e-02	0	44	0	1727004672	31	8075
2026-01-25 10:44:24.13	100.47	42.81	-29.1	-36.6	18.6	1.14e-02	0	44	0	1733296128	29	8684
2026-01-25 10:44:25.13	100.14	43.03	-28.4	-36.2	18.9	1.30e-02	0	44	0	1739587584	28	8847
2026-01-25 10:44:26.14	99.81	43.25	-26.2	-36.6	17.6	2.09e-02	0	44	0	1744830464	22	13076
2026-01-25 10:44:27.14	99.48	43.47	-29.0	-36.8	18.9	1.42e-02	0	44	0	1750073344	28	9473
2026-01-25 10:44:28.15	99.14	43.70	-27.3	-36.9	17.5	2.03e-02	0	44	0	1756364800	25	11370
2026-01-25 10:44:29.16	98.80	43.92	-25.9	-36.8	17.5	1.64e-02	0	44	0	1761607680	23	12556
2026-01-25 10:44:30.16	98.45	44.14	-23.3	-36.6	16.9	2.56e-02	0	44	0	1767899136	19	15572
2026-01-25 10:44:31.17	98.10	44.37	-27.0	-36.4	17.7	1.64e-02	0	44	0	1773142016	24	11379
2026-01-25 10:44:32.18	97.74	44.59	-19.8	-36.6	12.1	3.08e-02	0	44	0	1778384896	10	26147
2026-01-25 10:44:33.18	97.38	44.81	-22.1	-36.6	15.7	2.80e-02	0	44	0	1784676352	14	20646
2026-01-25 10:44:34.18	97.01	45.03	-23.1	-36.7	16.0	2.52e-02	0	44	0	1789919232	16	18575
2026-01-25 10:44:35.19	96.63	45.26	-19.6	-36.9	10.9	6.95e-02	0	44	0	1795162112	9	28463
2026-01-25 10:44:36.19	96.26	45.48	-19.8	-37.1	11.0	9.26e-02	0	44	0	1801453568	10	27449
2026-01-25 10:44:37.20	95.87	45.70	-18.9	-36.8	10.8	9.85e-02	0	44	0	1806696448	9	28279
2026-01-25 10:44:38.20	95.49	45.92	-37.5	-38.0	25.1	1.27e-02	0	44	0	1811939328	45	4080
2026-01-25 10:44:39.21	95.09	46.14	-37.5	-38.1	25.4	0.00e+00	0	44	0	1818230784	45	4127
2026-01-25 10:44:40.22	94.69	46.37	-37.7	-38.4	25.3	0.00e+00	0	44	0	1823473664	45	4262
2026-01-25 10:44:41.22	94.28	46.59	-37.9	-38.6	25.2	0.00e+00	0	44	0	1829765120	46	4114
2026-01-25 10:44:42.23	93.87	46.81	-38.0	-38.7	25.1	0.00e+00	0	44	0	1835008000	46	4179
2026-01-25 10:44:43.24	93.45	47.03	-38.0	-38.8	25.1	0.00e+00	0	44	0	1841299456	46	4196
2026-01-25 10:44:44.24	93.03	47.25	-38.1	-38.8	25.0	0.00e+00	0	44	0	1846542336	46	4224
2026-01-25 10:44:45.25	92.59	47.47	-38.1	-38.8	25.0	0.00e+00	0	44	0	1852833792	46	4215
2026-01-25 10:44:46.26	92.16	47.68	-38.2	-38.9	24.9	0.00e+00	0	44	0	1858076672	46	4284
2026-01-25 10:44:47.26	91.72	47.90	-38.2	-39.0	24.9	0.00e+00	0	44	0	1863319552	47	4062
2026-01-25 10:44:48.27	91.26	48.12	-38.4	-39.2	24.5	0.00e+00	0	44	0	1869611008	47	4159
2026-01-25 10:44:49.28	90.81	48.34	-38.4	-39.2	24.6	0.00e+00	0	44	0	1874853888	47	4157
2026-01-25 10:44:50.28	90.35	48.55	-38.3	-39.1	24.1	0.00e+00	0	44	0	1880096768	47	4111
2026-01-25 10:44:51.29	89.88	48.76	-38.4	-39.2	24.7	0.00e+00	0	44	0	1886388224	47	4154
2026-01-25 10:44:52.29	89.41	48.97	-38.3	-39.0	24.7	0.00e+00	0	44	0	1891631104	47	4069
2026-01-25 10:44:53.30	88.92	49.19	-38.3	-39.1	24.8	0.00e+00	0	44	0	1896873984	47	4103
2026-01-25 10:44:54.31	88.43	49.40	-38.5	-39.2	24.6	0.00e+00	0	44	0	1903165440	47	4169
2026-01-25 10:44:55.32	87.94	49.61	-38.6	-39.4	24.5	0.00e+00	0	44	0	1908408320	47	4265
2026-01-25 10:44:56.32	87.44	49.82	-38.7	-39.4	24.2	0.00e+00	0	44	0	1914699776	47	4271
2026-01-25 10:44:57.33	86.93	50.02	-39.0	-39.7	24.6	0.00e+00	0	44	0	1919942656	48	4178
2026-01-25 10:44:58.34	86.41	50.23	-39.2	-40.0	24.4	0.00e+00	0	44	0	1926234112	49	4063
2026-01-25 10:44:59.34	85.89	50.43	-39.3	-40.1	24.3	0.00e+00	0	44	0	1931476992	49	4109
2026-01-25 10:45:00.35	85.36	50.63	-39.3	-40.0	24.4	0.00e+00	0	44	0	1937768448	49	4092
2026-01-25 10:45:01.36	84.82	50.83	-39.1	-39.8	24.7	0.00e+00	0	44	0	1943011328	49	3978
2026-01-25 10:45:02.36	84.28	51.03	-39.1	-39.8	24.7	0.00e+00	0	44	0	1948254208	49	3984
2026-01-25 10:45:03.37	83.72	51.23	-39.0	-39.7	24.8	0.00e+00	0	44	0	1954545664	49	3941
2026-01-25 10:45:04.38	83.16	51.42	-39.0	-39.7	24.8	0.00e+00	0	44	0	1959788544	49	3938
2026-01-25 10:45:05.38	82.60	51.61	-38.8	-39.5	24.9	0.00e+00	0	44	0	1965031424	49	3827
2026-01-25 10:45:06.39	82.03	51.80	-38.8	-39.5	25.0	0.00e+00	0	44	0	1971322880	49	3833
2026-01-25 10:45:07.40	81.44	51.99	-39.0	-39.7	24.8	0.00e+00	0	44	0	1976565760	49	3927
2026-01-25 10:45:08.40	80.86	52.17	-38.9	-39.6	24.8	0.00e+00	0	44	0	1981808640	49	3911
2026-01-25 10:45:09.41	80.26	52.36	-38.9	-39.6	24.9	0.00e+00	0	44	0	1988100096	49	3880
2026-01-25 10:45:10.41	79.66	52.54	-38.7	-39.4	25.0	0.00e+00	0	44	0	1993342976	49	3815
2026-01-25 10:45:11.42	79.05	52.71	-38.7	-39.4	25.1	0.00e+00	0	44	0	1999634432	49	3784
2026-01-25 10:45:12.43	78.43	52.89	-38.8	-39.5	25.0	0.00e+00	0	44	0	2004877312	49	3826
2026-01-25 10:45:13.44	77.80	53.06	-39.2	-39.9	24.7	0.00e+00	0	44	0	2011168768	49	4023
2026-01-25 10:45:14.44	77.17	53.23	-39.2	-39.9	24.6	0.00e+00	0	44	0	2016411648	49	4017
2026-01-25 10:45:15.45	76.53	53.40	-38.6	-39.3	25.2	0.00e+00	0	44	0	2022703104	49	3750
2026-01-25 10:45:16.46	75.88	53.56	-38.4	-39.1	25.3	0.00e+00	0	44	0	2027945984	48	3888
2026-01-25 10:45:17.46	75.23	53.72	-38.5	-39.2	25.3	0.00e+00	0	44	0	2033188864	48	3919
2026-01-25 10:45:18.47	74.57	53.87	-38.5	-39.2	25.3	0.00e+00	0	44	0	2039480320	48	3938
2026-01-25 10:45:19.48	73.90	54.03	-38.9	-39.6	24.9	0.00e+00	0	44	0	2044723200	48	4117
2026-01-25 10:45:20.48	73.23	54.17	-38.8	-39.5	25.0	0.00e+00	0	44	0	2049966080	48	4065
2026-01-25 10:45:21.49	72.54	54.32	-38.6	-39.3	25.2	0.00e+00	0	44	0	2056257536	48	3963
2026-01-25 10:45:22.50	71.85	54.46	-38.9	-39.5	25.0	0.00e+00	0	44	0	2061500416	48	4091
2026-01-25 10:45:23.50	71.16	54.60	-38.6	-39.3	25.1	0.00e+00	0	44	0	2066743296	48	3999
2026-01-25 10:45:24.50	70.46	54.73	-38.4	-39.1	25.4	0.00e+00	0	44	0	2073034752	48	3874
2026-01-25 10:45:25.51	69.75	54.86	-38.4	-39.1	25.3	0.00e+00	0	44	0	2078277632	48	3900
2026-01-25 10:45:26.52	69.03	54.99	-38.4	-39.1	25.4	0.00e+00	0	44	0	2084569088	48	3904
2026-01-25 10:45:27.52	68.31	55.11	-38.5	-39.2	25.3	0.00e+00	0	44	0	2089811968	48	3926
2026-01-25 10:45:28.53	67.58	55.22	-38.5	-39.2	25.3	0.00e+00	0	44	0	2096103424	48	3935
2026-01-25 10:45:29.54	66.85	55.34	-38.7	-39.4	25.1	0.00e+00	0	44	0	2101346304	48	4009
2026-01-25 10:45:30.54	66.11	55.44	-38.7	-39.4	25.1	0.00e+00	0	44	0	2107637760	48	4048
2026-01-25 10:45:31.54	65.37	55.55	-38.6	-39.3	25.2	0.00e+00	0	44	0	2112880640	48	3975
2026-01-25 10:45:32.55	64.62	55.65	-38.8	-39.5	25.0	0.00e+00	0	44	0	2118123520	48	4069
2026-01-25 10:45:33.56	63.86	55.74	-38.8	-39.5	25.0	0.00e+00	0	44	0	2124414976	48	4098
2026-01-25 10:45:34.56	63.10	55.83	-38.8	-39.5	25.0	0.00e+00	0	44	0	2129657856	48	4080
2026-01-25 10:45:35.57	62.33	55.92	-38.9	-39.6	24.9	0.00e+00	0	44	0	2134900736	48	4137
2026-01-25 10:45:36.58	61.56	56.00	-39.1	-39.8	24.7	0.00e+00	0	44	0	2141192192	48	4215
2026-01-25 10:45:37.59	60.78	56.07	-39.0	-39.8	24.7	0.00e+00	0	44	0	2146435072	49	3970
2026-01-25 10:45:38.59	60.01	56.14	-38.6	-39.3	25.2	0.00e+00	0	44	0	2151677952	49	3746
2026-01-25 10:45:39.60	59.22	56.20	-38.6	-39.3	25.2	0.00e+00	0	44	0	2157969408	49	3746
2026-01-25 10:45:40.60	58.44	56.26	-38.7	-39.4	25.1	0.00e+00	0	44	0	2163212288	49	3818
2026-01-25 10:45:41.61	57.65	56.32	-39.1	-39.8	24.8	0.00e+00	0	44	0	2169503744	49	3999
2026-01-25 10:45:42.61	56.87	56.37	-39.1	-39.8	24.8	0.00e+00	0	44	0	2174746624	49	3995
2026-01-25 10:45:43.62	56.07	56.41	-39.1	-39.8	24.8	0.00e+00	0	44	0	2179989504	49	3976
2026-01-25 10:45:44.62	55.28	56.45	-39.2	-39.9	24.7	0.00e+00	0	44	0	2186280960	49	4045
2026-01-25 10:45:45.63	54.47	56.48	-39.0	-39.7	24.9	0.00e+00	0	44	0	2192572416	49	3932
2026-01-25 10:45:46.64	53.67	56.51	-38.8	-39.5	25.0	0.00e+00	0	44	0	2197815296	49	3840
2026-01-25 10:45:47.65	52.87	56.53	-38.7	-39.4	25.1	0.00e+00	0	44	0	2203058176	49	3814
2026-01-25 10:45:48.65	52.07	56.55	-38.8	-39.5	25.0	0.00e+00	0	44	0	2209349632	49	3860
2026-01-25 10:45:49.66	51.26	56.56	-38.9	-39.6	24.9	0.00e+00	0	44	0	2214592512	49	3910
2026-01-25 10:45:50.67	50.45	56.56	-39.0	-39.7	24.9	0.00e+00	0	44	0	2219835392	49	3925
2026-01-25 10:45:51.67	49.65	56.56	-38.6	-39.3	25.2	0.00e+00	0	44	0	2226126848	49	3755
2026-01-25 10:45:52.68	48.85	56.56	-38.7	-39.4	25.1	0.00e+00	0	44	0	2231369728	49	3816
2026-01-25 10:45:53.69	48.04	56.55	-38.7	-39.4	25.1	0.00e+00	0	44	0	2236612608	49	3804
2026-01-25 10:45:54.70	47.23	56.53	-38.6	-39.3	25.2	0.00e+00	0	44	0	2242904064	49	3751
2026-01-25 10:45:55.70	46.44	56.51	-38.9	-39.6	25.1	0.00e+00	0	44	0	2248146944	49	3872
2026-01-25 10:45:56.71	45.63	56.48	-38.9	-39.6	25.0	0.00e+00	0	44	0	2254438400	49	3905
2026-01-25 10:45:57.72	44.83	56.45	-38.9	-39.6	25.0	0.00e+00	0	44	0	2259681280	49	3910
2026-01-25 10:45:58.72	44.04	56.41	-38.7	-39.4	25.1	0.00e+00	0	44	0	2264924160	49	3814
2026-01-25 10:45:59.73	43.24	56.37	-38.7	-39.4	25.2	0.00e+00	0	44	0	2271215616	49	3802
2026-01-25 10:46:00.74	42.45	56.32	-38.8	-39.5	25.1	0.00e+00	0	44	0	2277507072	49	3849
2026-01-25 10:46:01.74	41.66	56.27	-38.8	-39.5	25.1	0.00e+00	0	44	0	2282749952	49	3839
2026-01-25 10:46:02.75	40.88	56.21	-38.8	-39.5	25.1	0.00e+00	0	44	0	2287992832	49	3830
2026-01-25 10:46:03.76	40.09	56.14	-38.8	-39.5	25.1	0.00e+00	0	44	0	2294284288	49	3852
2026-01-25 10:46:04.77	39.31	56.07	-38.6	-39.2	25.3	0.00e+00	0	44	0	2299527168	49	3735
2026-01-25 10:46:05.78	38.53	56.00	-38.4	-39.0	25.4	0.00e+00	0	45	0	2304770048	48	3863
2026-01-25 10:46:06.78	37.77	55.92	-38.5	-39.2	25.3	0.00e+00	0	44	0	2311061504	48	3922
2026-01-25 10:46:07.79	37.00	55.84	-38.2	-38.9	25.6	0.00e+00	0	44	0	2316304384	48	3795
2026-01-25 10:46:08.80	36.24	55.75	-38.3	-39.0	25.5	0.00e+00	0	44	0	2321547264	48	3831
2026-01-25 10:46:09.80	35.48	55.65	-38.3	-39.0	25.4	0.00e+00	0	44	0	2327838720	48	3844
2026-01-25 10:46:10.81	34.73	55.55	-38.3	-39.0	25.5	0.00e+00	0	44	0	2333081600	48	3826
2026-01-25 10:46:11.82	33.98	55.45	-37.6	-38.3	25.6	0.00e+00	0	44	0	2339373056	47	3773
2026-01-25 10:46:12.83	33.24	55.34	-37.7	-38.4	25.5	0.00e+00	0	44	0	2344615936	47	3794
2026-01-25 10:46:13.84	32.51	55.23	-37.8	-38.5	25.4	0.00e+00	0	44	0	2350907392	47	3862
2026-01-25 10:46:14.84	31.78	55.11	-37.8	-38.5	25.4	0.00e+00	0	44	0	2356150272	47	3837
2026-01-25 10:46:15.85	31.06	54.99	-37.6	-38.3	25.6	0.00e+00	0	44	0	2362441728	47	3754
2026-01-25 10:46:16.86	30.34	54.87	-37.6	-38.2	25.7	0.00e+00	0	45	0	2367684608	47	3735
2026-01-25 10:46:17.86	29.64	54.74	-37.6	-38.3	25.5	0.00e+00	0	44	0	2372927488	47	3779
2026-01-25 10:46:18.87	28.93	54.60	-37.7	-38.4	25.4	0.00e+00	0	45	0	2379218944	47	3819
2026-01-25 10:46:19.88	28.23	54.47	-37.7	-38.4	25.5	0.00e+00	0	44	0	2384461824	47	3807
2026-01-25 10:46:20.89	27.54	54.33	-37.6	-38.3	25.5	0.00e+00	0	44	0	2389704704	47	3775
2026-01-25 10:46:21.90	26.86	54.18	-37.7	-38.3	25.5	0.00e+00	0	44	0	2395996160	47	3780
2026-01-25 10:46:22.90	26.19	54.03	-37.8	-38.5	25.3	0.00e+00	0	44	0	2401239040	47	3866
2026-01-25 10:46:23.91	25.52	53.88	-37.8	-38.5	25.4	0.00e+00	0	44	0	2406481920	47	3851
2026-01-25 10:46:24.92	24.85	53.72	-37.9	-38.5	25.4	0.00e+00	0	44	0	2412773376	47	3866
2026-01-25 10:46:25.92	24.20	53.57	-37.8	-38.5	25.4	0.00e+00	0	45	0	2418016256	47	3842
2026-01-25 10:46:26.93	23.55	53.40	-37.8	-38.5	25.3	0.00e+00	0	44	0	2424307712	47	3866
2026-01-25 10:46:27.94	22.91	53.24	-37.7	-38.4	25.4	0.00e+00	0	44	0	2429550592	47	3810
2026-01-25 10:46:28.95	22.28	53.07	-37.8	-38.5	25.4	0.00e+00	0	45	0	2435842048	47	3836
2026-01-25 10:46:29.95	21.66	52.90	-37.5	-38.2	25.6	0.00e+00	0	45	0	2441084928	47	3735
2026-01-25 10:46:30.96	21.04	52.72	-37.3	-38.0	25.8	0.00e+00	0	45	0	2447376384	46	3843
2026-01-25 10:46:31.96	20.43	52.55	-37.5	-38.2	25.6	0.00e+00	0	44	0	2452619264	46	3934
2026-01-25 10:46:32.97	19.83	52.37	-37.9	-38.6	25.3	0.00e+00	0	44	0	2457862144	46	4109
2026-01-25 10:46:33.98	19.23	52.19	-38.0	-38.7	25.2	0.00e+00	0	44	0	2464153600	46	4173
2026-01-25 10:46:34.98	18.65	52.00	-38.1	-38.8	25.1	0.00e+00	0	45	0	2469396480	46	4216
2026-01-25 10:46:35.99	18.06	51.81	-38.2	-38.9	25.0	0.00e+00	0	45	0	2474639360	46	4260
2026-01-25 10:46:37.00	17.49	51.62	-38.1	-38.8	25.1	0.00e+00	0	44	0	2480930816	46	4224
2026-01-25 10:46:38.01	16.92	51.43	-38.2	-38.9	25.0	0.00e+00	0	44	0	2486173696	46	4252
2026-01-25 10:46:39.01	16.37	51.24	-38.2	-38.9	25.0	0.00e+00	0	44	0	2491416576	46	4269
2026-01-25 10:46:40.02	15.81	51.04	-38.2	-38.9	25.0	0.00e+00	0	45	0	2497708032	46	4259
2026-01-25 10:46:41.03	15.27	50.85	-37.9	-38.6	25.2	0.00e+00	0	44	0	2503999488	46	4143
2026-01-25 10:46:42.04	14.73	50.64	-37.8	-38.5	25.4	0.00e+00	0	44	0	2509242368	46	4053
2026-01-25 10:46:43.04	14.20	50.45	-37.9	-38.5	25.3	0.00e+00	0	45	0	2514485248	46	4090
2026-01-25 10:46:44.05	13.68	50.24	-37.7	-38.4	25.5	0.00e+00	0	44	0	2520776704	46	4006
2026-01-25 10:46:45.06	13.16	50.04	-37.7	-38.4	25.5	0.00e+00	0	45	0	2526019584	46	4039
2026-01-25 10:46:46.06	12.66	49.83	-37.8	-38.5	25.4	0.00e+00	0	45	0	2532311040	46	4057
2026-01-25 10:46:47.07	12.15	49.62	-37.9	-38.6	25.3	0.00e+00	0	44	0	2537553920	46	4109
2026-01-25 10:46:48.08	11.66	49.41	-38.0	-38.7	25.2	0.00e+00	0	44	0	2542796800	46	4159
2026-01-25 10:46:49.08	11.17	49.21	-37.9	-38.7	25.2	0.00e+00	0	44	0	2549088256	46	4147
2026-01-25 10:46:50.09	10.69	48.99	-37.9	-38.6	25.2	0.00e+00	0	44	0	2554331136	46	4143
2026-01-25 10:46:51.10	10.21	48.78	-37.6	-38.4	25.5	0.00e+00	0	45	0	2559574016	46	4005
2026-01-25 10:46:52.10	9.75	48.57	-37.6	-38.3	25.6	0.00e+00	0	45	0	2565865472	46	3962
2026-01-25 10:46:53.11	9.28	48.35	-37.3	-37.9	25.9	0.00e+00	0	45	0	2571108352	46	3815
2026-01-25 10:46:54.11	8.83	48.14	-37.0	-37.7	26.1	0.00e+00	0	44	0	2576351232	46	3705
2026-01-25 10:46:55.11	8.39	47.92	-37.0	-37.7	26.0	0.00e+00	0	44	0	2582642688	45	3922
2026-01-25 10:46:56.12	7.94	47.71	-37.2	-37.8	25.9	0.00e+00	0	44	0	2587885568	45	4002
2026-01-25 10:46:57.13	7.50	47.49	-37.3	-38.0	25.7	0.00e+00	0	44	0	2594177024	45	4096
2026-01-25 10:46:58.14	7.07	47.27	-37.5	-38.2	25.6	0.00e+00	0	44	0	2599419904	45	4158
2026-01-25 10:46:59.14	6.65	47.05	-37.5	-38.2	25.6	0.00e+00	0	44	0	2605711360	45	4160
2026-01-25 10:47:00.15	6.23	46.83	-37.4	-38.1	25.7	0.00e+00	0	44	0	2610954240	45	4106
2026-01-25 10:47:01.15	5.82	46.61	-37.3	-38.0	25.7	0.00e+00	0	44	0	2617245696	45	4072
2026-01-25 10:47:02.16	5.41	46.39	-37.4	-38.0	25.7	0.00e+00	0	45	0	2622488576	45	4093
2026-01-25 10:47:03.17	5.01	46.17	-37.3	-38.0	25.8	0.00e+00	0	44	0	2627731456	45	4088
2026-01-25 10:47:04.17	4.62	45.95	-37.2	-37.9	25.9	0.00e+00	0	44	0	2634022912	45	4005
2026-01-25 10:47:05.18	4.23	45.73	-37.0	-37.6	26.1	0.00e+00	0	45	0	2639265792	45	3912
2026-01-25 10:47:06.18	3.85	45.51	-36.9	-37.5	26.2	0.00e+00	0	44	0	2644508672	45	3866
2026-01-25 10:47:07.19	3.47	45.28	-36.8	-37.4	26.3	0.00e+00	0	44	0	2650800128	45	3814
2026-01-25 10:47:08.20	3.09	45.06	-36.8	-37.5	26.2	0.00e+00	0	44	0	2656043008	45	3844
2026-01-25 10:47:09.20	2.73	44.84	-37.1	-37.8	26.0	0.00e+00	0	44	0	2661285888	45	3985
2026-01-25 10:47:10.21	2.36	44.62	-37.3	-38.0	25.8	0.00e+00	0	44	0	2667577344	45	4078
2026-01-25 10:47:11.22	2.00	44.39	-37.4	-38.2	25.6	0.00e+00	0	44	0	2672820224	45	4147
2026-01-25 10:47:12.23	1.65	44.17	-37.4	-38.1	25.7	0.00e+00	0	44	0	2679111680	45	4116
2026-01-25 10:47:13.24	1.30	43.95	-37.4	-38.1	25.7	0.00e+00	0	44	0	2684354560	45	4110
2026-01-25 10:47:14.24	0.96	43.73	-37.3	-37.9	25.8	0.00e+00	0	44	0	2690646016	45	4051
2026-01-25 10:47:15.25	0.62	43.50	-37.0	-37.7	26.0	0.00e+00	0	44	0	2695888896	45	3915
2026-01-25 10:47:16.26	0.29	43.28	-37.1	-37.7	26.0	0.00e+00	0	44	0	2702180352	45	3956
2026-01-25 10:47:17.27	359.96	43.06	-37.1	-37.8	25.9	0.00e+00	0	44	0	2707423232	45	3987
2026-01-25 10:47:18.27	359.63	42.84	-37.2	-37.9	25.8	0.00e+00	0	44	0	2712666112	45	4043
2026-01-25 10:47:19.28	359.31	42.62	-37.1	-37.7	26.0	0.00e+00	0	44	0	2718957568	45	3953
2026-01-25 10:47:20.28	359.00	42.40	-36.9	-37.5	26.2	0.00e+00	0	44	0	2724200448	45	3868
2026-01-25 10:47:21.29	358.69	42.17	-36.9	-37.5	26.1	0.00e+00	0	44	0	2729443328	45	3859
2026-01-25 10:47:22.30	358.38	41.95	-36.9	-37.6	26.2	0.00e+00	0	44	0	2735734784	45	3871
2026-01-25 10:47:23.30	358.08	41.74	-37.0	-37.7	26.1	0.00e+00	0	44	0	2740977664	45	3919
2026-01-25 10:47:24.31	357.78	41.52	-37.1	-37.8	26.0	0.00e+00	0	44	0	2746220544	45	3962
2026-01-25 10:47:25.32	357.48	41.30	-37.1	-37.7	26.0	0.00e+00	0	44	0	2752512000	45	3956
2026-01-25 10:47:26.33	357.19	41.08	-36.9	-37.6	26.1	0.00e+00	0	44	0	2758803456	45	3891
2026-01-25 10:47:27.34	356.90	40.86	-37.0	-37.6	26.1	0.00e+00	0	44	0	2764046336	45	3913
2026-01-25 10:47:28.35	356.62	40.64	-37.1	-37.7	26.0	0.00e+00	0	44	0	2769289216	45	3955
2026-01-25 10:47:29.35	356.34	40.42	-37.2	-37.9	25.8	0.00e+00	0	44	0	2775580672	45	4012
2026-01-25 10:47:30.36	356.07	40.21	-37.1	-37.8	25.9	0.00e+00	0	45	0	2780823552	45	3981
2026-01-25 10:47:31.37	355.80	39.99	-37.2	-37.9	25.9	0.00e+00	0	44	0	2787115008	45	4008
2026-01-25 10:47:32.37	355.53	39.78	-37.0	-37.6	26.0	0.00e+00	0	44	0	2792357888	45	3912
2026-01-25 10:47:33.38	355.26	39.56	-36.9	-37.6	26.1	0.00e+00	0	44	0	2797600768	45	3883
2026-01-25 10:47:34.39	355.00	39.35	-36.9	-37.5	26.1	0.00e+00	0	44	0	2803892224	45	3863
2026-01-25 10:47:35.40	354.75	39.13	-36.7	-37.4	26.2	0.00e+00	0	44	0	2809135104	45	3804
2026-01-25 10:47:36.40	354.49	38.92	-36.8	-37.4	26.2	0.00e+00	0	44	0	2814377984	45	3822
2026-01-25 10:47:37.41	354.24	38.71	-36.8	-37.5	26.2	0.00e+00	0	44	0	2820669440	45	3830
2026-01-25 10:47:38.42	353.99	38.50	-36.9	-37.6	26.1	0.00e+00	0	44	0	2825912320	45	3901
2026-01-25 10:47:39.43	353.75	38.29	-37.0	-37.6	26.0	0.00e+00	0	44	0	2832203776	45	3910
2026-01-25 10:47:40.44	353.51	38.08	-37.0	-37.7	26.0	0.00e+00	0	44	0	2837446656	45	3925
2026-01-25 10:47:41.44	353.27	37.87	-37.1	-37.8	25.9	0.00e+00	0	44	0	2843738112	45	3975
2026-01-25 10:47:42.45	353.04	37.66	-37.1	-37.8	25.9	0.00e+00	0	44	0	2848980992	45	3985
2026-01-25 10:47:43.45	352.81	37.45	-37.0	-37.7	26.0	0.00e+00	0	44	0	2854223872	45	3925
2026-01-25 10:47:44.46	352.58	37.24	-36.9	-37.6	26.1	0.00e+00	0	44	0	2860515328	45	3872
2026-01-25 10:47:45.47	352.35	37.04	-36.7	-37.4	26.2	0.00e+00	0	44	0	2865758208	45	3798
2026-01-25 10:47:46.48	352.13	36.83	-36.7	-37.4	26.2	0.00e+00	0	44	0	2872049664	45	3803
2026-01-25 10:47:47.48	351.91	36.63	-36.8	-37.5	26.2	0.00e+00	0	44	0	2877292544	45	3834
2026-01-25 10:47:48.49	351.69	36.42	-36.9	-37.6	26.1	0.00e+00	0	44	0	2882535424	45	3890
2026-01-25 10:47:49.50	351.48	36.22	-37.0	-37.7	26.0	0.00e+00	0	44	0	2888826880	45	3930
2026-01-25 10:47:50.50	351.26	36.02	-37.1	-37.8	25.9	0.00e+00	0	44	0	2894069760	45	3969
2026-01-25 10:47:51.51	351.05	35.82	-37.1	-37.8	25.9	0.00e+00	0	44	0	2899312640	45	3964
2026-01-25 10:47:52.52	350.85	35.62	-37.0	-37.7	26.0	0.00e+00	0	44	0	2905604096	45	3926
2026-01-25 10:47:53.53	350.64	35.42	-37.0	-37.6	26.0	0.00e+00	0	44	0	2911895552	45	3912
2026-01-25 10:47:54.54	350.44	35.22	-36.9	-37.6	26.0	0.00e+00	0	44	0	2917138432	45	3892
2026-01-25 10:47:55.54	350.24	35.02	-36.9	-37.5	26.1	0.00e+00	0	45	0	2922381312	45	3868
2026-01-25 10:47:56.55	350.05	34.82	-36.7	-37.4	26.2	0.00e+00	0	44	0	2928672768	45	3818
2026-01-25 10:47:57.56	349.85	34.63	-36.8	-37.4	26.2	0.00e+00	0	44	0	2933915648	45	3821
2026-01-25 10:47:58.56	349.66	34.43	-36.9	-37.5	26.1	0.00e+00	0	44	0	2939158528	45	3859
2026-01-25 10:47:59.57	349.47	34.24	-36.7	-37.4	26.3	0.00e+00	0	44	0	2945449984	45	3783
2026-01-25 10:48:00.58	349.28	34.04	-36.6	-37.3	26.3	0.00e+00	0	45	0	2950692864	45	3764
2026-01-25 10:48:01.58	349.10	33.85	-36.7	-37.4	26.2	0.00e+00	0	44	0	2956984320	45	3804
2026-01-25 10:48:02.59	348.92	33.66	-36.8	-37.5	26.1	0.00e+00	0	44	0	2962227200	45	3831
2026-01-25 10:48:03.60	348.74	33.47	-36.9	-37.6	26.0	0.00e+00	0	44	0	2967470080	45	3883
2026-01-25 10:48:04.61	348.56	33.28	-37.1	-37.8	25.9	0.00e+00	0	44	0	2973761536	45	3980
2026-01-25 10:48:05.61	348.38	33.09	-37.1	-37.8	25.8	0.00e+00	0	44	0	2979004416	45	3998
2026-01-25 10:48:06.62	348.21	32.90	-37.0	-37.7	25.9	0.00e+00	0	44	0	2984247296	45	3953
2026-01-25 10:48:07.63	348.03	32.71	-37.0	-37.7	25.9	0.00e+00	0	44	0	2990538752	45	3955
2026-01-25 10:48:08.63	347.86	32.52	-36.9	-37.6	26.0	0.00e+00	0	44	0	2996830208	45	3889
2026-01-25 10:48:09.64	347.70	32.34	-36.8	-37.5	26.0	0.00e+00	0	44	0	3002073088	45	3862
2026-01-25 10:48:10.65	347.53	32.15	-36.8	-37.5	26.0	0.00e+00	0	44	0	3007315968	45	3861
2026-01-25 10:48:11.66	347.36	31.97	-36.8	-37.5	26.1	0.00e+00	0	44	0	3013607424	45	3849
2026-01-25 10:48:12.66	347.20	31.79	-36.8	-37.5	26.0	0.00e+00	0	44	0	3018850304	45	3860
2026-01-25 10:48:13.67	347.04	31.60	-37.0	-37.7	25.9	0.00e+00	0	44	0	3024093184	45	3919
2026-01-25 10:48:14.68	346.88	31.42	-37.2	-37.9	25.8	0.00e+00	0	44	0	3030384640	45	4015
2026-01-25 10:48:15.69	346.73	31.24	-37.2	-37.9	25.7	0.00e+00	0	44	0	3035627520	45	4032
2026-01-25 10:48:16.70	346.57	31.06	-37.3	-38.0	25.7	0.00e+00	0	44	0	3041918976	45	4071
2026-01-25 10:48:17.70	346.42	30.88	-37.3	-38.0	25.6	0.00e+00	0	44	0	3047161856	45	4079
2026-01-25 10:48:18.71	346.27	30.70	-37.3	-38.0	25.6	0.00e+00	0	44	0	3052404736	45	4075
2026-01-25 10:48:19.72	346.12	30.52	-37.4	-38.1	25.5	0.00e+00	0	44	0	3058696192	45	4113
2026-01-25 10:48:20.73	345.97	30.35	-37.4	-38.1	25.5	0.00e+00	0	45	0	3064987648	45	4126
2026-01-25 10:48:21.73	345.82	30.17	-37.4	-38.1	25.5	0.00e+00	0	44	0	3070230528	45	4128
2026-01-25 10:48:22.74	345.68	30.00	-37.4	-38.2	25.5	0.00e+00	0	44	0	3075473408	45	4150
2026-01-25 10:48:23.75	345.53	29.82	-37.6	-38.3	25.3	0.00e+00	0	44	0	3081764864	45	4220
2026-01-25 10:48:24.76	345.39	29.65	-37.7	-38.4	25.3	0.00e+00	0	44	0	3087007744	45	4255
2026-01-25 10:48:25.77	345.25	29.48	-37.5	-38.3	25.4	0.00e+00	0	44	0	3092250624	45	4201
2026-01-25 10:48:26.78	345.11	29.31	-37.5	-38.2	25.4	0.00e+00	0	44	0	3098542080	45	4161
2026-01-25 10:48:27.78	344.97	29.14	-37.4	-38.1	25.5	0.00e+00	0	44	0	3103784960	45	4141
2026-01-25 10:48:28.79	344.84	28.97	-37.4	-38.1	25.5	0.00e+00	0	44	0	3109027840	45	4112
2026-01-25 10:48:29.80	344.70	28.80	-37.4	-38.1	25.5	0.00e+00	0	44	0	3115319296	45	4103
2026-01-25 10:48:30.81	344.57	28.63	-37.5	-38.2	25.4	0.00e+00	0	44	0	3120562176	45	4159
2026-01-25 10:48:31.81	344.44	28.46	-37.5	-38.2	25.4	0.00e+00	0	44	0	3126853632	45	4170
2026-01-25 10:48:32.82	344.31	28.30	-37.5	-38.2	25.4	0.00e+00	0	44	0	3132096512	45	4176
2026-01-25 10:48:33.83	344.18	28.13	-37.5	-38.2	25.4	0.00e+00	0	44	0	3138387968	45	4180
2026-01-25 10:48:34.84	344.05	27.97	-37.5	-38.2	25.4	0.00e+00	0	44	0	3143630848	45	4172
2026-01-25 10:48:35.84	343.93	27.80	-37.5	-38.2	25.4	0.00e+00	0	44	0	3149922304	45	4182
2026-01-25 10:48:36.85	343.80	27.64	-37.5	-38.2	25.4	0.00e+00	0	44	0	3155165184	45	4165
2026-01-25 10:48:37.86	343.68	27.48	-37.4	-38.1	25.5	0.00e+00	0	44	0	3160408064	45	4135
2026-01-25 10:48:38.87	343.56	27.31	-37.4	-38.1	25.5	0.00e+00	0	44	0	3166699520	45	4126
2026-01-25 10:48:39.88	343.43	27.15	-37.5	-38.2	25.4	0.00e+00	0	44	0	3171942400	45	4147
2026-01-25 10:48:40.88	343.32	27.00	-37.5	-38.2	25.4	0.00e+00	0	44	0	3177185280	45	4158
2026-01-25 10:48:41.89	343.20	26.84	-37.6	-38.3	25.3	0.00e+00	0	44	0	3183476736	45	4200
2026-01-25 10:48:42.90	343.08	26.68	-37.5	-38.2	25.3	0.00e+00	0	44	0	3188719616	45	4191
2026-01-25 10:48:43.90	342.96	26.52	-37.6	-38.3	25.3	0.00e+00	0	44	0	3193962496	45	4234
2026-01-25 10:48:44.91	342.85	26.36	-37.6	-38.3	25.3	0.00e+00	0	44	0	3200253952	45	4212
2026-01-25 10:48:45.92	342.73	26.21	-37.6	-38.3	25.2	0.00e+00	0	44	0	3205496832	45	4225
2026-01-25 10:48:46.93	342.62	26.05	-37.6	-38.3	25.3	0.00e+00	0	44	0	3211788288	45	4216
2026-01-25 10:48:47.94	342.51	25.90	-37.5	-38.2	25.4	0.00e+00	0	44	0	3217031168	45	4163
2026-01-25 10:48:48.94	342.40	25.74	-37.5	-38.2	25.3	0.00e+00	0	44	0	3223322624	45	4187
2026-01-25 10:48:49.95	342.29	25.59	-37.5	-38.2	25.3	0.00e+00	0	44	0	3228565504	45	4173
2026-01-25 10:48:50.96	342.18	25.44	-37.5	-38.2	25.3	0.00e+00	0	44	0	3234856960	45	4177
2026-01-25 10:48:51.97	342.08	25.29	-37.5	-38.2	25.3	0.00e+00	0	44	0	3240099840	45	4165
2026-01-25 10:48:52.98	341.97	25.14	-37.5	-38.2	25.4	0.00e+00	0	44	0	3245342720	45	4156
2026-01-25 10:48:53.98	341.87	24.99	-37.5	-38.2	25.4	0.00e+00	0	44	0	3251634176	45	4151
2026-01-25 10:48:54.99	341.76	24.84	-37.6	-38.3	25.3	0.00e+00	0	44	0	3256877056	45	4194
2026-01-25 10:48:56.00	341.66	24.69	-37.5	-38.2	25.4	0.00e+00	0	44	0	3262119936	45	4149
2026-01-25 10:48:57.00	341.56	24.54	-37.4	-38.1	25.4	0.00e+00	0	44	0	3268411392	45	4127
2026-01-25 10:48:58.01	341.46	24.40	-37.4	-38.1	25.4	0.00e+00	0	44	0	3273654272	45	4114
2026-01-25 10:48:59.02	341.36	24.25	-37.4	-38.1	25.4	0.00e+00	0	44	0	3278897152	45	4144
2026-01-25 10:49:00.03	341.26	24.10	-37.5	-38.2	25.3	0.00e+00	0	44	0	3285188608	45	4186
2026-01-25 10:49:01.04	341.16	23.96	-37.5	-38.2	25.3	0.00e+00	0	44	0	3291480064	45	4178
2026-01-25 10:49:02.04	341.06	23.82	-37.4	-38.1	25.4	0.00e+00	0	44	0	3296722944	45	4134
2026-01-25 10:49:03.05	340.97	23.67	-37.5	-38.2	25.3	0.00e+00	0	44	0	3301965824	45	4181
2026-01-25 10:49:04.06	340.87	23.53	-37.6	-38.3	25.3	0.00e+00	0	44	0	3308257280	45	4200
2026-01-25 10:49:05.06	340.78	23.39	-37.6	-38.3	25.2	0.00e+00	0	44	0	3313500160	45	4214
2026-01-25 10:49:06.07	340.68	23.25	-37.7	-38.4	25.1	0.00e+00	0	44	0	3319791616	45	4285
2026-01-25 10:49:07.08	340.59	23.11	-37.9	-38.6	25.0	0.00e+00	0	44	0	3325034496	46	4109
2026-01-25 10:49:08.09	340.50	22.97	-37.7	-38.4	25.1	0.00e+00	0	44	0	3330277376	46	4041
2026-01-25 10:49:09.09	340.41	22.83	-37.8	-38.5	25.1	0.00e+00	0	44	0	3336568832	46	4063
2026-01-25 10:49:10.10	340.32	22.69	-37.8	-38.5	25.0	0.00e+00	0	44	0	3341811712	46	4078
2026-01-25 10:49:11.11	340.23	22.55	-37.8	-38.5	25.0	0.00e+00	0	44	0	3347054592	46	4081
2026-01-25 10:49:12.11	340.14	22.41	-37.8	-38.5	25.0	0.00e+00	0	44	0	3353346048	46	4081
2026-01-25 10:49:13.12	340.05	22.28	-37.9	-38.6	25.0	0.00e+00	0	44	0	3358588928	46	4104
2026-01-25 10:49:14.13	339.96	22.14	-37.8	-38.5	25.0	0.00e+00	0	44	0	3363831808	46	4064
2026-01-25 10:49:15.14	339.88	22.01	-37.9	-38.6	24.9	0.00e+00	0	44	0	3370123264	46	4126
2026-01-25 10:49:16.14	339.79	21.87	-37.9	-38.6	24.9	0.00e+00	0	44	0	3376414720	46	4123
2026-01-25 10:49:17.15	339.71	21.74	-37.9	-38.6	24.9	0.00e+00	0	44	0	3381657600	46	4140
2026-01-25 10:49:18.15	339.63	21.60	-38.1	-38.8	24.7	0.00e+00	0	44	0	3386900480	46	4217
2026-01-25 10:49:19.16	339.54	21.47	-38.1	-38.8	24.7	0.00e+00	0	44	0	3393191936	46	4242
2026-01-25 10:49:20.17	339.46	21.34	-38.1	-38.8	24.7	0.00e+00	0	44	0	3398434816	46	4215
2026-01-25 10:49:21.18	339.38	21.21	-38.0	-38.7	24.8	0.00e+00	0	44	0	3404726272	46	4191
2026-01-25 10:49:22.18	339.30	21.08	-38.1	-38.8	24.7	0.00e+00	0	44	0	3409969152	46	4225
2026-01-25 10:49:23.19	339.22	20.95	-38.2	-39.0	24.6	0.00e+00	0	44	0	3415212032	46	4295
2026-01-25 10:49:24.20	339.14	20.82	-38.1	-38.9	24.7	0.00e+00	0	44	0	3421503488	47	4015
2026-01-25 10:49:25.21	339.06	20.69	-38.2	-38.9	24.6	0.00e+00	0	44	0	3426746368	47	4046
2026-01-25 10:49:26.21	338.98	20.56	-38.1	-38.9	24.7	0.00e+00	0	44	0	3431989248	47	4014
2026-01-25 10:49:27.22	338.90	20.43	-38.2	-39.0	24.6	0.00e+00	0	44	0	3438280704	47	4058
2026-01-25 10:49:28.23	338.83	20.30	-38.1	-38.9	24.7	0.00e+00	0	44	0	3444572160	47	4020
2026-01-25 10:49:29.24	338.75	20.18	-38.2	-39.0	24.6	0.00e+00	0	44	0	3449815040	47	4065
2026-01-25 10:49:30.24	338.68	20.05	-38.2	-39.0	24.6	0.00e+00	0	44	0	3455057920	47	4054
2026-01-25 10:49:31.25	338.60	19.93	-38.2	-38.9	24.6	0.00e+00	0	44	0	3461349376	47	4031
2026-01-25 10:49:32.26	338.53	19.80	-38.3	-39.1	24.5	0.00e+00	0	44	0	3466592256	47	4101
2026-01-25 10:49:33.26	338.45	19.68	-38.4	-39.1	24.4	0.00e+00	0	44	0	3471835136	47	4119
2026-01-25 10:49:34.27	338.38	19.55	-38.4	-39.2	24.3	0.00e+00	0	45	0	3478126592	47	4154
2026-01-25 10:49:35.28	338.31	19.43	-38.5	-39.3	24.3	0.00e+00	0	44	0	3483369472	47	4197
2026-01-25 10:49:36.29	338.24	19.31	-38.6	-39.4	24.2	0.00e+00	0	45	0	3489660928	47	4260
2026-01-25 10:49:37.30	338.17	19.19	-39.0	-39.7	24.3	0.00e+00	0	44	0	3494903808	48	4187
2026-01-25 10:49:38.31	338.10	19.06	-39.0	-39.7	24.3	0.00e+00	0	44	0	3500146688	48	4191
2026-01-25 10:49:39.31	338.03	18.94	-39.1	-39.8	24.2	0.00e+00	0	44	0	3506438144	48	4233
2026-01-25 10:49:40.32	337.96	18.82	-39.2	-39.9	24.2	0.00e+00	0	44	0	3511681024	48	4272
2026-01-25 10:49:41.33	337.89	18.70	-39.2	-39.9	24.2	0.00e+00	0	44	0	3517972480	48	4262
2026-01-25 10:49:42.34	337.82	18.58	-39.3	-40.0	24.1	0.00e+00	0	44	0	3523215360	49	4078
2026-01-25 10:49:43.34	337.75	18.47	-39.3	-40.1	24.0	0.00e+00	0	44	0	3529506816	49	4105
2026-01-25 10:49:44.35	337.69	18.35	-39.4	-40.1	24.0	0.00e+00	0	44	0	3534749696	49	4136
2026-01-25 10:49:45.35	337.62	18.23	-39.4	-40.1	23.9	0.00e+00	0	44	0	3539992576	49	4142
2026-01-25 10:49:46.36	337.55	18.11	-39.4	-40.2	23.9	0.00e+00	0	44	0	3546284032	49	4178
2026-01-25 10:49:47.37	337.49	18.00	-39.5	-40.3	23.8	0.00e+00	0	44	0	3551526912	49	4213
2026-01-25 10:49:48.38	337.42	17.88	-39.6	-40.3	23.7	0.00e+00	0	44	0	3556769792	49	4241
2026-01-25 10:49:49.39	337.36	17.76	-39.6	-40.3	23.8	0.00e+00	0	44	0	3563061248	49	4229
2026-01-25 10:49:50.39	337.30	17.65	-39.4	-40.2	23.9	0.00e+00	0	44	0	3568304128	49	4171
2026-01-25 10:49:51.40	337.23	17.53	-39.5	-40.3	23.8	3.40e-06	0	44	0	3574595584	49	4215
2026-01-25 10:49:52.41	337.17	17.42	-39.5	-40.3	23.8	0.00e+00	0	44	0	3579838464	49	4205
2026-01-25 10:49:53.41	337.11	17.31	-39.5	-40.2	23.8	0.00e+00	0	44	0	3585081344	49	4180
2026-01-25 10:49:54.42	337.05	17.19	-39.5	-40.2	23.8	0.00e+00	0	44	0	3591372800	49	4182
2026-01-25 10:49:55.43	336.98	17.08	-39.4	-40.2	23.8	0.00e+00	0	44	0	3596615680	49	4170
2026-01-25 10:49:56.43	336.92	16.97	-39.5	-40.2	23.8	0.00e+00	0	44	0	3602907136	49	4176
2026-01-25 10:49:57.44	336.86	16.86	-39.4	-40.1	23.9	0.00e+00	0	44	0	3608150016	49	4145
2026-01-25 10:49:58.45	336.80	16.74	-39.5	-40.2	23.8	0.00e+00	0	44	0	3614441472	49	4187
2026-01-25 10:49:59.45	336.74	16.63	-39.4	-40.1	23.9	0.00e+00	0	45	0	3619684352	49	4144
2026-01-25 10:50:00.46	336.69	16.52	-39.4	-40.2	23.8	0.00e+00	0	44	0	3624927232	49	4148
2026-01-25 10:50:01.47	336.63	16.41	-39.3	-40.1	23.9	0.00e+00	0	44	0	3631218688	49	4110
2026-01-25 10:50:02.48	336.57	16.30	-39.4	-40.1	23.9	0.00e+00	0	44	0	3636461568	49	4125
2026-01-25 10:50:03.48	336.51	16.20	-39.4	-40.1	23.8	0.00e+00	0	44	0	3641704448	49	4140
2026-01-25 10:50:04.49	336.45	16.09	-39.4	-40.1	23.9	0.00e+00	0	44	0	3647995904	49	4141
2026-01-25 10:50:05.50	336.40	15.98	-39.5	-40.3	23.8	0.00e+00	0	44	0	3653238784	49	4199
2026-01-25 10:50:06.50	336.34	15.87	-39.5	-40.2	23.8	0.00e+00	0	44	0	3659530240	49	4162
2026-01-25 10:50:07.51	336.29	15.76	-39.6	-40.3	23.7	0.00e+00	0	44	0	3664773120	49	4216
2026-01-25 10:50:08.52	336.23	15.66	-39.7	-40.4	23.6	0.00e+00	0	45	0	3670016000	49	4291
2026-01-25 10:50:09.52	336.18	15.55	-39.7	-40.4	23.6	0.00e+00	0	44	0	3676307456	49	4286
2026-01-25 10:50:10.53	336.12	15.45	-39.7	-40.4	23.6	0.00e+00	0	44	0	3682598912	49	4286
2026-01-25 10:50:11.54	336.07	15.34	-39.8	-40.5	23.5	0.00e+00	0	44	0	3687841792	50	4079
2026-01-25 10:50:12.54	336.01	15.24	-39.8	-40.6	23.4	0.00e+00	0	44	0	3693084672	50	4116
2026-01-25 10:50:13.55	335.96	15.13	-39.8	-40.6	23.5	0.00e+00	0	44	0	3699376128	50	4107
