passes_logs/2026/01/25/R3.2S_Murmansk/R3.2S_Murmansk__20260125_091132_NOAA_21_JPSS-2_rec.log

#Pass ID: 20260125_091132_NOAA 21 (JPSS-2)
#Satellite: NOAA 21 (JPSS-2)
#Configuration: NOAA-21
#almurnet v.1.7.20251203
#Start time: 2026-01-25 09:11:34

#Version: 2.2.20231116
#Station: R3.2S_Murmansk
#Location: 33.079688 lon 68.888172 lat
#TLE: 1 54234U 22150A   26024.88063640  .00000198  00000+0  11499-3 0  9991
#TLE: 2 54234  98.7509 325.6613 0000743 218.4833 141.6291 14.19538975166219

#Time	Az	El	Level	Level2	SNR	BER	BlckErr	Temp	State	Recorded	gain1	gain2
2026-01-25 09:11:34.29	143.76	2.10	-52.1	-64.8	3.8	1.49e+00	0	42	0	0	76	14973
2026-01-25 09:11:35.28	143.75	2.16	-52.1	-64.8	3.8	1.49e+00	0	42	104	0	74	16820
2026-01-25 09:11:36.27	143.75	2.22	-52.1	-64.8	3.8	1.49e+00	0	42	104	0	74	16741
2026-01-25 09:11:37.25	143.74	2.29	-52.1	-64.8	3.8	1.49e+00	0	42	104	0	74	16739
2026-01-25 09:11:38.24	143.73	2.35	-52.1	-64.8	3.8	1.49e+00	0	42	104	0	74	16696
2026-01-25 09:11:39.22	143.73	2.41	-52.1	-64.8	3.8	1.49e+00	0	42	104	0	74	16737
2026-01-25 09:11:40.21	143.72	2.48	-52.1	-64.7	3.8	1.49e+00	0	42	104	0	74	16688
2026-01-25 09:11:41.20	143.72	2.54	-52.1	-64.8	3.8	1.49e+00	0	42	104	0	74	16707
2026-01-25 09:11:42.19	143.71	2.61	-52.0	-64.7	3.8	1.49e+00	0	42	104	0	74	16693
2026-01-25 09:11:43.18	143.70	2.67	-52.0	-64.7	3.8	1.49e+00	0	42	104	0	74	16671
2026-01-25 09:11:44.17	143.70	2.74	-52.1	-64.7	3.8	1.49e+00	0	42	104	0	74	16600
2026-01-25 09:11:45.16	143.69	2.80	-52.0	-64.7	3.8	1.49e+00	0	42	104	0	74	16504
2026-01-25 09:11:46.15	143.68	2.87	-52.0	-64.6	3.8	1.49e+00	0	42	104	0	74	16455
2026-01-25 09:11:47.14	143.68	2.93	-52.0	-64.5	3.8	1.49e+00	0	42	104	0	74	16301
2026-01-25 09:11:48.13	143.67	3.00	-52.0	-64.4	3.8	1.49e+00	0	42	104	0	74	15990
2026-01-25 09:11:49.12	143.67	3.07	-52.0	-64.2	3.8	1.49e+00	0	42	104	0	74	15660
2026-01-25 09:11:50.11	143.66	3.13	-52.0	-63.9	3.8	1.49e+00	0	43	104	0	74	15059
2026-01-25 09:11:51.10	143.65	3.20	-52.0	-63.8	3.8	1.49e+00	0	42	104	0	74	15040
2026-01-25 09:11:52.09	143.65	3.26	-51.9	-63.6	3.8	1.49e+00	0	42	104	0	74	14662
2026-01-25 09:11:53.08	143.64	3.33	-51.9	-63.6	3.8	1.49e+00	0	43	104	0	74	14563
2026-01-25 09:11:54.06	143.63	3.40	-51.9	-62.9	3.8	1.49e+00	0	43	104	0	74	13555
2026-01-25 09:11:55.05	143.63	3.46	-51.9	-63.4	3.8	1.49e+00	0	42	104	0	74	14297
2026-01-25 09:11:56.04	143.62	3.53	-51.9	-63.5	3.8	1.49e+00	0	43	104	0	74	14478
2026-01-25 09:11:57.03	143.61	3.60	-51.9	-63.5	3.8	1.49e+00	0	43	104	0	74	14395
2026-01-25 09:11:58.03	143.61	3.67	-51.9	-63.0	3.8	1.49e+00	0	43	104	0	74	13708
2026-01-25 09:11:59.01	143.60	3.73	-51.8	-61.5	4.1	1.48e+00	0	43	104	0	74	11462
2026-01-25 09:12:00.00	143.59	3.80	-51.5	-59.7	4.8	1.33e+00	0	43	104	0	74	9290
2026-01-25 09:12:01.00	143.58	3.87	-51.2	-57.9	5.8	4.71e-01	0	43	0	2097152	74	7591
2026-01-25 09:12:01.99	143.58	3.94	-50.7	-56.2	7.3	1.51e-01	0	43	0	5242880	73	6601
2026-01-25 09:12:02.98	143.57	4.01	-50.0	-54.1	9.4	2.87e-02	0	43	0	8388608	71	5818
2026-01-25 09:12:03.96	143.56	4.07	-49.4	-52.7	10.9	3.77e-03	0	42	0	11534336	70	5279
2026-01-25 09:12:04.95	143.56	4.14	-48.4	-51.1	12.6	2.37e-04	0	43	0	14680064	68	4907
2026-01-25 09:12:05.93	143.55	4.21	-47.8	-50.1	13.6	2.28e-05	0	43	0	17825792	67	4604
2026-01-25 09:12:06.92	143.54	4.28	-46.9	-48.9	14.8	0.00e+00	0	43	0	20971520	65	4496
2026-01-25 09:12:07.91	143.53	4.35	-46.5	-48.3	15.4	0.00e+00	0	43	0	24117248	65	4211
2026-01-25 09:12:08.91	143.53	4.42	-45.9	-47.5	16.2	0.00e+00	0	43	0	27262976	63	4298
2026-01-25 09:12:09.89	143.52	4.49	-45.4	-46.9	16.9	0.00e+00	0	43	0	30408704	62	4256
2026-01-25 09:12:10.88	143.51	4.56	-45.1	-46.6	17.1	0.00e+00	0	43	0	32505856	62	4099
2026-01-25 09:12:11.87	143.50	4.62	-45.2	-46.6	17.1	0.00e+00	0	43	0	35651584	62	4106
2026-01-25 09:12:12.87	143.50	4.70	-44.9	-46.3	17.4	0.00e+00	0	43	0	38797312	61	4194
2026-01-25 09:12:13.86	143.49	4.77	-45.0	-46.4	17.3	0.00e+00	0	43	0	41943040	61	4253
2026-01-25 09:12:14.84	143.48	4.84	-45.3	-46.7	17.0	0.00e+00	0	43	0	45088768	61	4411
2026-01-25 09:12:15.83	143.47	4.91	-45.7	-47.3	16.4	0.00e+00	0	43	0	48234496	62	4467
2026-01-25 09:12:16.82	143.47	4.98	-45.9	-47.5	16.2	0.00e+00	0	43	0	51380224	62	4578
2026-01-25 09:12:17.81	143.46	5.05	-46.6	-48.4	15.3	0.00e+00	0	43	0	54525952	63	4793
2026-01-25 09:12:18.80	143.45	5.12	-46.3	-47.9	16.0	0.00e+00	0	43	0	57671680	63	4530
2026-01-25 09:12:19.79	143.44	5.19	-45.3	-46.7	17.2	0.00e+00	0	43	0	60817408	62	4180
2026-01-25 09:12:20.78	143.44	5.26	-50.3	-55.1	8.9	0.00e+00	0	43	0	63963136	71	6500
2026-01-25 09:12:21.76	143.43	5.33	-46.8	-48.6	15.0	4.12e-02	0	43	0	63963136	65	4362
2026-01-25 09:12:22.75	143.42	5.40	-46.2	-47.8	16.2	0.00e+00	0	43	0	67108864	62	4730
2026-01-25 09:12:23.74	143.41	5.48	-45.7	-47.2	16.7	0.00e+00	0	43	0	70254592	63	4158
2026-01-25 09:12:24.73	143.40	5.55	-45.6	-47.0	16.8	0.00e+00	0	43	0	73400320	63	4089
2026-01-25 09:12:25.72	143.39	5.62	-45.3	-46.6	17.2	0.00e+00	0	43	0	76546048	62	4141
2026-01-25 09:12:26.71	143.39	5.69	-45.0	-46.3	17.5	0.00e+00	0	43	0	79691776	62	4002
2026-01-25 09:12:27.70	143.38	5.77	-44.9	-46.2	17.6	0.00e+00	0	43	0	82837504	61	4192
2026-01-25 09:12:28.69	143.37	5.84	-44.8	-46.1	17.8	0.00e+00	0	43	0	84934656	61	4113
2026-01-25 09:12:29.68	143.36	5.91	-44.9	-46.2	17.7	0.00e+00	0	43	0	88080384	61	4178
2026-01-25 09:12:30.67	143.35	5.98	-44.9	-46.2	17.7	0.00e+00	0	43	0	91226112	61	4189
2026-01-25 09:12:31.66	143.34	6.06	-44.9	-46.2	17.7	0.00e+00	0	43	0	94371840	61	4183
2026-01-25 09:12:32.65	143.33	6.13	-44.9	-46.2	17.7	0.00e+00	0	43	0	97517568	61	4178
2026-01-25 09:12:33.64	143.33	6.21	-44.8	-46.1	17.9	0.00e+00	0	43	0	100663296	61	4132
2026-01-25 09:12:34.62	143.32	6.28	-44.7	-45.9	18.1	0.00e+00	0	43	0	103809024	61	4028
2026-01-25 09:12:35.61	143.31	6.35	-44.7	-45.9	18.0	0.00e+00	0	43	0	106954752	61	4036
2026-01-25 09:12:36.60	143.30	6.43	-44.7	-45.9	18.0	0.00e+00	0	43	0	110100480	61	4046
2026-01-25 09:12:37.59	143.29	6.50	-44.7	-45.9	18.1	0.00e+00	0	43	0	113246208	61	4048
2026-01-25 09:12:38.58	143.28	6.58	-44.4	-45.6	18.4	0.00e+00	0	43	0	116391936	60	4131
2026-01-25 09:12:39.57	143.27	6.65	-44.5	-45.7	18.3	0.00e+00	0	43	0	119537664	60	4163
2026-01-25 09:12:40.56	143.26	6.73	-44.5	-45.7	18.3	0.00e+00	0	43	0	122683392	60	4183
2026-01-25 09:12:41.55	143.25	6.80	-44.4	-45.6	18.4	0.00e+00	0	43	0	125829120	60	4111
2026-01-25 09:12:42.54	143.24	6.88	-44.3	-45.5	18.5	0.00e+00	0	43	0	128974848	60	4065
2026-01-25 09:12:43.53	143.24	6.96	-44.4	-45.6	18.5	0.00e+00	0	43	0	132120576	60	4110
2026-01-25 09:12:44.52	143.23	7.03	-44.4	-45.5	18.5	0.00e+00	0	43	0	135266304	60	4095
2026-01-25 09:12:45.50	143.22	7.11	-44.5	-45.7	18.4	0.00e+00	0	43	0	138412032	60	4150
2026-01-25 09:12:46.50	143.21	7.19	-44.3	-45.4	18.6	0.00e+00	0	44	0	141557760	60	4043
2026-01-25 09:12:47.49	143.20	7.26	-44.4	-45.6	18.5	0.00e+00	0	43	0	144703488	60	4102
2026-01-25 09:12:48.48	143.19	7.34	-44.2	-45.4	18.7	0.00e+00	0	43	0	146800640	60	4028
2026-01-25 09:12:49.47	143.18	7.42	-44.3	-45.5	18.6	0.00e+00	0	43	0	149946368	60	4072
2026-01-25 09:12:50.46	143.17	7.50	-44.3	-45.4	18.7	0.00e+00	0	44	0	153092096	60	4027
2026-01-25 09:12:51.45	143.16	7.57	-44.3	-45.5	18.6	0.00e+00	0	43	0	156237824	60	4066
2026-01-25 09:12:52.45	143.15	7.65	-44.3	-45.4	18.7	0.00e+00	0	43	0	159383552	60	4031
2026-01-25 09:12:53.44	143.14	7.73	-44.4	-45.6	18.6	0.00e+00	0	44	0	162529280	60	4107
2026-01-25 09:12:54.43	143.13	7.81	-44.3	-45.4	18.7	0.00e+00	0	43	0	165675008	60	4046
2026-01-25 09:12:55.41	143.12	7.89	-44.2	-45.4	18.7	0.00e+00	0	43	0	168820736	60	4018
2026-01-25 09:12:56.40	143.11	7.97	-44.3	-45.4	18.7	0.00e+00	0	43	0	171966464	60	4039
2026-01-25 09:12:57.39	143.10	8.05	-44.3	-45.4	18.7	0.00e+00	0	43	0	175112192	60	4029
2026-01-25 09:12:58.38	143.09	8.13	-44.2	-45.3	18.9	0.00e+00	0	44	0	178257920	60	3975
2026-01-25 09:12:59.36	143.08	8.21	-44.2	-45.3	18.8	0.00e+00	0	44	0	181403648	60	3981
2026-01-25 09:13:00.36	143.07	8.29	-44.1	-45.2	19.0	0.00e+00	0	44	0	184549376	60	3926
2026-01-25 09:13:01.34	143.05	8.37	-44.0	-45.1	19.0	0.00e+00	0	43	0	187695104	60	3901
2026-01-25 09:13:02.32	143.04	8.45	-44.3	-45.4	19.1	0.00e+00	0	44	0	190840832	59	4263
2026-01-25 09:13:03.31	143.03	8.53	-44.3	-45.5	19.0	0.00e+00	0	44	0	193986560	59	4300
2026-01-25 09:13:04.30	143.02	8.61	-44.4	-45.5	19.0	0.00e+00	0	44	0	197132288	59	4326
2026-01-25 09:13:05.29	143.01	8.69	-44.3	-45.4	19.1	0.00e+00	0	43	0	200278016	59	4267
2026-01-25 09:13:06.28	143.00	8.77	-44.2	-45.3	19.1	0.00e+00	0	43	0	203423744	59	4242
2026-01-25 09:13:07.26	142.99	8.85	-44.2	-45.4	19.2	0.00e+00	0	44	0	206569472	59	4252
2026-01-25 09:13:08.25	142.98	8.94	-44.1	-45.2	19.3	0.00e+00	0	44	0	209715200	59	4178
2026-01-25 09:13:09.24	142.97	9.02	-44.2	-45.3	19.2	0.00e+00	0	44	0	211812352	59	4237
2026-01-25 09:13:10.23	142.96	9.10	-44.1	-45.2	19.3	0.00e+00	0	44	0	214958080	59	4167
2026-01-25 09:13:11.22	142.94	9.18	-44.2	-45.3	19.2	0.00e+00	0	44	0	218103808	59	4232
2026-01-25 09:13:12.21	142.93	9.27	-44.2	-45.3	19.3	0.00e+00	0	44	0	221249536	59	4214
2026-01-25 09:13:13.20	142.92	9.35	-44.0	-45.1	19.4	0.00e+00	0	44	0	224395264	59	4131
2026-01-25 09:13:14.19	142.91	9.44	-44.0	-45.1	19.5	0.00e+00	0	44	0	227540992	59	4100
2026-01-25 09:13:15.17	142.90	9.52	-44.0	-45.1	19.5	0.00e+00	0	44	0	230686720	59	4101
2026-01-25 09:13:16.16	142.89	9.60	-44.0	-45.1	19.5	0.00e+00	0	44	0	233832448	59	4129
2026-01-25 09:13:17.15	142.87	9.69	-44.0	-45.1	19.5	0.00e+00	0	44	0	236978176	59	4118
2026-01-25 09:13:18.14	142.86	9.77	-43.9	-45.0	19.6	0.00e+00	0	44	0	240123904	59	4068
2026-01-25 09:13:19.13	142.85	9.86	-43.8	-44.9	19.7	0.00e+00	0	44	0	243269632	59	4012
2026-01-25 09:13:20.12	142.84	9.94	-43.8	-44.9	19.7	0.00e+00	0	44	0	246415360	59	4011
2026-01-25 09:13:21.11	142.83	10.03	-43.7	-44.8	19.8	0.00e+00	0	44	0	249561088	59	3966
2026-01-25 09:13:22.10	142.81	10.12	-43.7	-44.8	19.8	0.00e+00	0	44	0	252706816	59	3977
2026-01-25 09:13:23.09	142.80	10.20	-43.7	-44.8	19.8	0.00e+00	0	44	0	255852544	59	3972
2026-01-25 09:13:24.07	142.79	10.29	-43.7	-44.8	19.8	0.00e+00	0	44	0	258998272	59	3966
2026-01-25 09:13:25.07	142.77	10.38	-43.7	-44.8	19.9	0.00e+00	0	43	0	262144000	59	3959
2026-01-25 09:13:26.05	142.76	10.46	-43.6	-44.6	20.0	0.00e+00	0	44	0	265289728	59	3884
2026-01-25 09:13:27.04	142.75	10.55	-43.7	-44.7	19.8	0.00e+00	0	43	0	268435456	59	3958
2026-01-25 09:13:28.03	142.74	10.64	-43.6	-44.6	20.0	0.00e+00	0	44	0	271581184	59	3899
2026-01-25 09:13:29.02	142.72	10.73	-43.5	-44.5	20.0	0.00e+00	0	44	0	273678336	59	3868
2026-01-25 09:13:30.00	142.71	10.82	-43.6	-44.6	20.0	0.00e+00	0	44	0	276824064	59	3873
2026-01-25 09:13:30.99	142.70	10.91	-43.7	-44.7	19.9	0.00e+00	0	44	0	279969792	59	3927
2026-01-25 09:13:31.98	142.68	11.00	-43.4	-44.4	20.1	0.00e+00	0	44	0	283115520	58	4044
2026-01-25 09:13:32.98	142.67	11.09	-43.5	-44.5	20.1	0.00e+00	0	43	0	286261248	58	4065
2026-01-25 09:13:33.97	142.66	11.18	-43.4	-44.4	20.2	0.00e+00	0	44	0	289406976	58	4038
2026-01-25 09:13:34.96	142.64	11.27	-43.3	-44.3	20.3	0.00e+00	0	44	0	292552704	58	3997
2026-01-25 09:13:35.94	142.63	11.36	-43.3	-44.3	20.3	0.00e+00	0	44	0	295698432	58	3989
2026-01-25 09:13:36.93	142.61	11.45	-43.4	-44.4	20.2	0.00e+00	0	44	0	298844160	58	4019
2026-01-25 09:13:37.92	142.60	11.54	-43.5	-44.5	20.1	0.00e+00	0	44	0	301989888	58	4071
2026-01-25 09:13:38.90	142.59	11.63	-43.3	-44.3	20.4	0.00e+00	0	44	0	305135616	58	3961
2026-01-25 09:13:39.89	142.57	11.72	-43.3	-44.3	20.3	0.00e+00	0	44	0	308281344	58	3975
2026-01-25 09:13:40.88	142.56	11.81	-43.3	-44.3	20.3	0.00e+00	0	44	0	311427072	58	3974
2026-01-25 09:13:41.88	142.54	11.91	-43.2	-44.2	20.4	0.00e+00	0	44	0	314572800	58	3929
2026-01-25 09:13:42.87	142.53	12.00	-43.1	-44.1	20.5	0.00e+00	0	44	0	317718528	58	3878
2026-01-25 09:13:43.85	142.51	12.09	-43.1	-44.1	20.5	0.00e+00	0	44	0	320864256	58	3873
2026-01-25 09:13:44.85	142.50	12.19	-43.2	-44.2	20.5	0.00e+00	0	44	0	324009984	58	3922
2026-01-25 09:13:45.84	142.48	12.28	-43.0	-44.0	20.6	0.00e+00	0	44	0	327155712	58	3833
2026-01-25 09:13:46.83	142.47	12.38	-43.0	-44.0	20.7	0.00e+00	0	44	0	330301440	58	3829
2026-01-25 09:13:47.82	142.45	12.47	-43.0	-43.9	20.7	0.00e+00	0	44	0	333447168	58	3815
2026-01-25 09:13:48.81	142.44	12.57	-42.9	-43.9	20.8	0.00e+00	0	44	0	336592896	57	4010
2026-01-25 09:13:49.79	142.42	12.66	-42.9	-43.9	20.7	0.00e+00	0	44	0	338690048	57	4009
2026-01-25 09:13:50.78	142.41	12.76	-42.9	-43.8	20.8	0.00e+00	0	44	0	341835776	57	3988
2026-01-25 09:13:51.76	142.39	12.85	-43.0	-43.9	20.8	0.00e+00	0	44	0	344981504	57	4024
2026-01-25 09:13:52.75	142.38	12.95	-43.0	-43.9	20.7	0.00e+00	0	44	0	348127232	57	4039
2026-01-25 09:13:53.74	142.36	13.05	-42.8	-43.8	20.8	0.00e+00	0	44	0	351272960	57	3965
2026-01-25 09:13:54.73	142.35	13.14	-42.8	-43.7	20.9	0.00e+00	0	44	0	354418688	57	3939
2026-01-25 09:13:55.72	142.33	13.24	-42.9	-43.8	20.8	0.00e+00	0	44	0	357564416	57	3999
2026-01-25 09:13:56.71	142.31	13.34	-42.8	-43.7	20.9	0.00e+00	0	44	0	360710144	57	3947
2026-01-25 09:13:57.69	142.30	13.44	-42.8	-43.8	20.9	0.00e+00	0	44	0	363855872	57	3966
2026-01-25 09:13:58.69	142.28	13.54	-42.8	-43.7	20.9	0.00e+00	0	44	0	367001600	57	3948
2026-01-25 09:13:59.68	142.26	13.64	-42.9	-43.8	20.9	0.00e+00	0	44	0	370147328	57	3974
2026-01-25 09:14:00.67	142.25	13.74	-42.8	-43.8	20.9	0.00e+00	0	44	0	373293056	57	3962
2026-01-25 09:14:01.66	142.23	13.84	-42.8	-43.7	20.9	0.00e+00	0	44	0	376438784	57	3953
2026-01-25 09:14:02.65	142.21	13.94	-42.9	-43.8	20.9	0.00e+00	0	44	0	379584512	57	3978
2026-01-25 09:14:03.64	142.20	14.04	-42.9	-43.8	20.9	0.00e+00	0	44	0	382730240	57	3984
2026-01-25 09:14:04.63	142.18	14.14	-42.8	-43.8	20.9	0.00e+00	0	44	0	385875968	57	3959
2026-01-25 09:14:05.62	142.16	14.24	-42.8	-43.7	20.9	0.00e+00	0	44	0	389021696	57	3953
2026-01-25 09:14:06.60	142.14	14.34	-42.9	-43.8	20.9	0.00e+00	0	44	0	392167424	57	3972
2026-01-25 09:14:07.59	142.13	14.45	-42.9	-43.8	20.8	0.00e+00	0	44	0	395313152	57	3997
2026-01-25 09:14:08.58	142.11	14.55	-42.9	-43.9	20.8	0.00e+00	0	44	0	397410304	57	4009
2026-01-25 09:14:09.57	142.09	14.65	-42.9	-43.8	20.9	0.00e+00	0	44	0	400556032	57	3962
2026-01-25 09:14:10.56	142.07	14.76	-43.0	-43.9	20.8	0.00e+00	0	44	0	403701760	57	4022
2026-01-25 09:14:11.55	142.05	14.86	-43.0	-43.9	20.8	0.00e+00	0	44	0	406847488	57	4038
2026-01-25 09:14:12.54	142.03	14.97	-42.8	-43.7	21.0	0.00e+00	0	44	0	409993216	57	3947
2026-01-25 09:14:13.53	142.02	15.07	-42.9	-43.8	20.9	0.00e+00	0	44	0	413138944	57	3974
2026-01-25 09:14:14.52	142.00	15.18	-42.9	-43.8	20.9	0.00e+00	0	44	0	416284672	57	3973
2026-01-25 09:14:15.52	141.98	15.29	-42.9	-43.9	20.8	0.00e+00	0	44	0	419430400	57	4015
2026-01-25 09:14:16.50	141.96	15.39	-42.9	-43.9	20.9	0.00e+00	0	44	0	422576128	57	4006
2026-01-25 09:14:17.49	141.94	15.50	-43.0	-43.9	20.8	0.00e+00	0	44	0	425721856	57	4027
2026-01-25 09:14:18.48	141.92	15.61	-42.9	-43.9	20.9	0.00e+00	0	44	0	428867584	57	4017
2026-01-25 09:14:19.47	141.90	15.72	-43.1	-44.0	20.7	0.00e+00	0	44	0	432013312	57	4077
2026-01-25 09:14:20.46	141.88	15.82	-43.0	-43.9	20.8	0.00e+00	0	44	0	435159040	57	4021
2026-01-25 09:14:21.46	141.86	15.93	-43.0	-43.9	20.8	0.00e+00	0	44	0	438304768	57	4021
2026-01-25 09:14:22.45	141.84	16.04	-43.0	-43.9	20.8	0.00e+00	0	44	0	441450496	57	4046
2026-01-25 09:14:23.44	141.82	16.15	-43.0	-44.0	20.7	0.00e+00	0	44	0	444596224	57	4059
2026-01-25 09:14:24.43	141.80	16.27	-43.0	-43.9	20.8	0.00e+00	0	44	0	447741952	57	4048
2026-01-25 09:14:25.42	141.78	16.38	-43.0	-43.9	20.8	0.00e+00	0	44	0	450887680	57	4044
2026-01-25 09:14:26.42	141.76	16.49	-43.1	-44.0	20.7	0.00e+00	0	44	0	454033408	57	4088
2026-01-25 09:14:27.41	141.74	16.60	-43.1	-44.1	20.7	0.00e+00	0	44	0	457179136	57	4100
2026-01-25 09:14:28.40	141.71	16.71	-43.0	-44.0	20.8	0.00e+00	0	44	0	460324864	57	4057
2026-01-25 09:14:29.39	141.69	16.83	-43.2	-44.2	20.6	0.00e+00	0	44	0	463470592	57	4165
2026-01-25 09:14:30.38	141.67	16.94	-43.1	-44.1	20.7	0.00e+00	0	44	0	465567744	57	4113
2026-01-25 09:14:31.36	141.65	17.05	-43.3	-44.2	20.6	0.00e+00	0	44	0	468713472	57	4182
2026-01-25 09:14:32.36	141.63	17.17	-43.2	-44.1	20.6	0.00e+00	0	44	0	471859200	57	4124
2026-01-25 09:14:33.35	141.61	17.29	-43.1	-44.1	20.7	0.00e+00	0	44	0	475004928	57	4106
2026-01-25 09:14:34.34	141.58	17.40	-43.2	-44.1	20.7	0.00e+00	0	44	0	478150656	57	4122
2026-01-25 09:14:35.33	141.56	17.52	-43.2	-44.2	20.6	0.00e+00	0	44	0	481296384	57	4159
2026-01-25 09:14:36.34	141.54	17.64	-43.2	-44.2	20.6	0.00e+00	0	44	0	484442112	57	4161
2026-01-25 09:14:37.33	141.51	17.76	-43.2	-44.2	20.6	0.00e+00	0	44	0	487587840	57	4158
2026-01-25 09:14:38.32	141.49	17.87	-43.3	-44.3	20.5	0.00e+00	0	44	0	490733568	57	4231
2026-01-25 09:14:39.31	141.47	17.99	-43.3	-44.2	20.6	0.00e+00	0	44	0	493879296	57	4189
2026-01-25 09:14:40.30	141.44	18.11	-43.2	-44.1	20.7	0.00e+00	0	44	0	497025024	57	4141
2026-01-25 09:14:41.29	141.42	18.23	-43.2	-44.1	20.7	0.00e+00	0	44	0	500170752	57	4119
2026-01-25 09:14:42.29	141.40	18.35	-43.2	-44.1	20.7	0.00e+00	0	44	0	503316480	57	4144
2026-01-25 09:14:43.28	141.37	18.47	-43.2	-44.2	20.7	0.00e+00	0	44	0	506462208	57	4147
2026-01-25 09:14:44.27	141.35	18.60	-43.2	-44.2	20.7	0.00e+00	0	44	0	509607936	57	4174
2026-01-25 09:14:45.26	141.32	18.72	-43.2	-44.2	20.7	0.00e+00	0	44	0	512753664	57	4169
2026-01-25 09:14:46.26	141.30	18.84	-43.2	-44.1	20.7	0.00e+00	0	44	0	515899392	57	4141
2026-01-25 09:14:47.25	141.27	18.97	-43.2	-44.1	20.7	0.00e+00	0	44	0	519045120	57	4135
2026-01-25 09:14:48.24	141.25	19.09	-43.2	-44.2	20.7	0.00e+00	0	44	0	522190848	57	4146
2026-01-25 09:14:49.24	141.22	19.22	-43.2	-44.1	20.7	0.00e+00	0	44	0	525336576	57	4135
2026-01-25 09:14:50.23	141.20	19.34	-43.1	-44.1	20.8	0.00e+00	0	44	0	527433728	57	4116
2026-01-25 09:14:51.22	141.17	19.47	-43.1	-44.0	20.9	0.00e+00	0	44	0	530579456	57	4086
2026-01-25 09:14:52.21	141.14	19.59	-43.1	-44.0	20.9	0.00e+00	0	44	0	533725184	57	4069
2026-01-25 09:14:53.20	141.12	19.72	-43.1	-44.0	20.9	0.00e+00	0	44	0	536870912	57	4082
2026-01-25 09:14:54.19	141.09	19.85	-43.0	-43.9	20.9	0.00e+00	0	44	0	540016640	57	4043
2026-01-25 09:14:55.19	141.06	19.98	-42.9	-43.8	21.0	0.00e+00	0	44	0	543162368	57	3990
2026-01-25 09:14:56.17	141.04	20.11	-43.0	-43.9	21.0	0.00e+00	0	44	0	546308096	57	4015
2026-01-25 09:14:57.16	141.01	20.24	-42.8	-43.7	21.2	0.00e+00	0	44	0	549453824	57	3920
2026-01-25 09:14:58.15	140.98	20.37	-42.7	-43.6	21.3	0.00e+00	0	44	0	552599552	57	3874
2026-01-25 09:14:59.13	140.95	20.50	-42.7	-43.6	21.3	0.00e+00	0	44	0	555745280	57	3876
2026-01-25 09:15:00.13	140.92	20.63	-42.5	-43.4	21.5	0.00e+00	0	44	0	558891008	57	3787
2026-01-25 09:15:01.12	140.89	20.76	-42.4	-43.3	21.5	0.00e+00	0	44	0	562036736	56	3960
2026-01-25 09:15:02.12	140.87	20.90	-42.4	-43.3	21.5	0.00e+00	0	44	0	565182464	56	3964
2026-01-25 09:15:03.10	140.84	21.03	-42.3	-43.1	21.7	0.00e+00	0	44	0	568328192	56	3892
2026-01-25 09:15:04.10	140.81	21.16	-42.2	-43.0	21.8	0.00e+00	0	44	0	571473920	56	3868
2026-01-25 09:15:05.09	140.78	21.30	-42.2	-43.1	21.7	0.00e+00	0	44	0	574619648	56	3881
2026-01-25 09:15:06.08	140.75	21.44	-42.2	-43.0	21.8	0.00e+00	0	44	0	577765376	56	3862
2026-01-25 09:15:07.07	140.72	21.57	-42.1	-42.9	21.8	0.00e+00	0	44	0	580911104	56	3803
2026-01-25 09:15:08.06	140.69	21.71	-42.0	-42.8	22.0	0.00e+00	0	44	0	584056832	56	3757
2026-01-25 09:15:09.06	140.65	21.85	-41.9	-42.7	22.0	0.00e+00	0	44	0	587202560	55	3919
2026-01-25 09:15:10.05	140.62	21.99	-41.9	-42.7	22.0	0.00e+00	0	44	0	590348288	55	3925
2026-01-25 09:15:11.04	140.59	22.13	-41.8	-42.6	22.1	0.00e+00	0	44	0	592445440	55	3883
2026-01-25 09:15:12.03	140.56	22.27	-41.6	-42.4	22.3	0.00e+00	0	44	0	595591168	55	3781
2026-01-25 09:15:13.02	140.53	22.41	-41.5	-42.3	22.3	0.00e+00	0	44	0	598736896	55	3750
2026-01-25 09:15:14.01	140.49	22.55	-41.6	-42.3	22.3	0.00e+00	0	44	0	601882624	55	3780
2026-01-25 09:15:15.00	140.46	22.69	-41.4	-42.2	22.4	0.00e+00	0	44	0	605028352	54	3951
2026-01-25 09:15:15.99	140.43	22.84	-41.4	-42.2	22.4	0.00e+00	0	44	0	608174080	54	3918
2026-01-25 09:15:16.99	140.39	22.98	-41.3	-42.0	22.5	0.00e+00	0	44	0	611319808	54	3862
2026-01-25 09:15:17.99	140.36	23.13	-41.3	-42.0	22.5	0.00e+00	0	44	0	614465536	54	3855
2026-01-25 09:15:18.98	140.33	23.28	-41.3	-42.1	22.5	0.00e+00	0	44	0	617611264	54	3876
2026-01-25 09:15:19.97	140.29	23.42	-41.1	-41.9	22.6	0.00e+00	0	44	0	620756992	54	3802
2026-01-25 09:15:20.96	140.26	23.57	-41.2	-42.0	22.6	0.00e+00	0	44	0	623902720	54	3838
2026-01-25 09:15:21.95	140.22	23.72	-41.4	-42.2	22.4	0.00e+00	0	44	0	627048448	54	3926
2026-01-25 09:15:22.94	140.19	23.87	-41.2	-41.9	22.6	0.00e+00	0	44	0	630194176	54	3820
2026-01-25 09:15:23.93	140.15	24.02	-41.2	-41.9	22.6	0.00e+00	0	44	0	633339904	54	3815
2026-01-25 09:15:24.92	140.11	24.17	-41.2	-42.0	22.6	0.00e+00	0	44	0	636485632	54	3844
2026-01-25 09:15:25.92	140.08	24.32	-41.3	-42.1	22.5	0.00e+00	0	44	0	639631360	54	3872
2026-01-25 09:15:26.91	140.04	24.48	-41.3	-42.0	22.6	0.00e+00	0	44	0	642777088	54	3867
2026-01-25 09:15:27.90	140.00	24.63	-41.4	-42.1	22.5	0.00e+00	0	44	0	645922816	54	3912
2026-01-25 09:15:28.90	139.96	24.79	-41.5	-42.3	22.4	0.00e+00	0	44	0	649068544	54	3965
2026-01-25 09:15:29.89	139.92	24.94	-41.5	-42.3	22.4	0.00e+00	0	44	0	652214272	54	3971
2026-01-25 09:15:30.88	139.88	25.10	-41.5	-42.3	22.4	0.00e+00	0	44	0	654311424	54	3970
2026-01-25 09:15:31.88	139.85	25.26	-41.7	-42.5	22.2	0.00e+00	0	44	0	657457152	54	4073
2026-01-25 09:15:32.87	139.81	25.41	-41.7	-42.5	22.3	0.00e+00	0	44	0	660602880	54	4075
2026-01-25 09:15:33.87	139.76	25.57	-41.8	-42.6	22.2	0.00e+00	0	44	0	663748608	54	4122
2026-01-25 09:15:34.86	139.72	25.73	-41.9	-42.7	22.2	0.00e+00	0	44	0	666894336	54	4154
2026-01-25 09:15:35.85	139.68	25.90	-41.9	-42.7	22.1	0.00e+00	0	44	0	670040064	54	4191
2026-01-25 09:15:36.84	139.64	26.06	-42.1	-42.9	21.9	0.00e+00	0	44	0	673185792	54	4267
2026-01-25 09:15:37.83	139.60	26.22	-42.2	-43.0	21.9	0.00e+00	0	44	0	676331520	54	4317
2026-01-25 09:15:38.82	139.56	26.38	-42.2	-43.0	21.8	0.00e+00	0	44	0	679477248	55	4087
2026-01-25 09:15:39.82	139.51	26.55	-42.2	-43.1	21.8	0.00e+00	0	44	0	682622976	55	4109
2026-01-25 09:15:40.81	139.47	26.72	-42.3	-43.2	21.7	0.00e+00	0	44	0	685768704	55	4151
2026-01-25 09:15:41.81	139.43	26.89	-42.4	-43.3	21.7	0.00e+00	0	44	0	688914432	55	4194
2026-01-25 09:15:42.80	139.38	27.05	-42.5	-43.4	21.6	0.00e+00	0	44	0	692060160	55	4243
2026-01-25 09:15:43.80	139.34	27.22	-42.7	-43.5	21.4	0.00e+00	0	44	0	695205888	55	4328
2026-01-25 09:15:44.79	139.29	27.39	-42.9	-43.7	21.4	0.00e+00	0	44	0	698351616	56	4176
2026-01-25 09:15:45.79	139.24	27.57	-42.8	-43.6	21.4	0.00e+00	0	44	0	701497344	56	4141
2026-01-25 09:15:46.78	139.20	27.74	-42.9	-43.8	21.2	0.00e+00	0	44	0	704643072	56	4218
2026-01-25 09:15:47.78	139.15	27.91	-43.0	-43.8	21.2	0.00e+00	0	44	0	707788800	56	4239
2026-01-25 09:15:48.78	139.10	28.09	-43.0	-43.9	21.1	0.00e+00	0	44	0	710934528	56	4269
2026-01-25 09:15:49.77	139.05	28.26	-43.1	-43.9	21.1	0.00e+00	0	44	0	714080256	56	4286
2026-01-25 09:15:50.77	139.00	28.44	-43.0	-43.9	21.1	0.00e+00	0	44	0	717225984	56	4245
2026-01-25 09:15:51.76	138.96	28.62	-43.0	-43.9	21.1	0.00e+00	0	44	0	720371712	56	4279
2026-01-25 09:15:52.76	138.91	28.80	-43.0	-43.8	21.1	0.00e+00	0	44	0	723517440	56	4241
2026-01-25 09:15:53.75	138.85	28.98	-42.9	-43.8	21.1	0.00e+00	0	44	0	726663168	56	4226
2026-01-25 09:15:54.75	138.80	29.16	-42.9	-43.8	21.2	0.00e+00	0	44	0	729808896	56	4197
2026-01-25 09:15:55.74	138.75	29.34	-43.0	-43.9	21.1	0.00e+00	0	44	0	732954624	56	4247
2026-01-25 09:15:56.73	138.70	29.53	-42.7	-43.6	21.4	0.00e+00	0	44	0	736100352	56	4103
2026-01-25 09:15:57.73	138.65	29.71	-42.8	-43.6	21.3	0.00e+00	0	44	0	739246080	56	4141
2026-01-25 09:15:58.73	138.59	29.90	-42.6	-43.4	21.5	0.00e+00	0	44	0	742391808	56	4050
2026-01-25 09:15:59.72	138.54	30.09	-42.4	-43.2	21.7	0.00e+00	0	44	0	745537536	56	3951
2026-01-25 09:16:00.71	138.48	30.28	-42.4	-43.2	21.7	0.00e+00	0	44	0	748683264	56	3952
2026-01-25 09:16:01.71	138.43	30.47	-42.4	-43.2	21.8	0.00e+00	0	44	0	751828992	56	3951
2026-01-25 09:16:02.70	138.37	30.66	-42.3	-43.2	21.8	0.00e+00	0	44	0	754974720	56	3923
2026-01-25 09:16:03.70	138.31	30.85	-42.3	-43.2	21.8	0.00e+00	0	44	0	758120448	56	3922
2026-01-25 09:16:04.69	138.25	31.04	-42.2	-43.0	22.0	0.00e+00	0	44	0	760217600	56	3839
2026-01-25 09:16:05.69	138.19	31.24	-42.1	-42.9	22.0	0.00e+00	0	44	0	763363328	56	3821
2026-01-25 09:16:06.68	138.14	31.43	-42.1	-42.9	22.1	0.00e+00	0	44	0	766509056	56	3791
2026-01-25 09:16:07.68	138.07	31.63	-42.2	-43.0	22.0	0.00e+00	0	44	0	769654784	56	3859
2026-01-25 09:16:08.67	138.01	31.83	-42.2	-43.0	22.0	0.00e+00	0	44	0	772800512	56	3853
2026-01-25 09:16:09.67	137.95	32.03	-42.2	-43.0	22.0	0.00e+00	0	44	0	775946240	56	3851
2026-01-25 09:16:10.66	137.89	32.23	-42.2	-43.0	22.0	0.00e+00	0	44	0	779091968	56	3864
2026-01-25 09:16:11.66	137.83	32.44	-42.4	-43.2	21.8	0.00e+00	0	44	0	782237696	56	3949
2026-01-25 09:16:12.66	137.76	32.64	-42.5	-43.3	21.8	0.00e+00	0	44	0	785383424	56	3985
2026-01-25 09:16:13.66	137.70	32.85	-42.6	-43.5	21.7	0.00e+00	0	44	0	788529152	56	4055
2026-01-25 09:16:14.66	137.63	33.06	-42.7	-43.6	21.5	0.00e+00	0	44	0	791674880	56	4100
2026-01-25 09:16:15.66	137.56	33.26	-42.8	-43.6	21.5	0.00e+00	0	44	0	794820608	56	4139
2026-01-25 09:16:16.65	137.49	33.47	-42.9	-43.7	21.4	0.00e+00	0	44	0	797966336	56	4184
2026-01-25 09:16:17.65	137.42	33.68	-43.0	-43.8	21.3	0.00e+00	0	44	0	801112064	56	4242
2026-01-25 09:16:18.65	137.35	33.90	-43.0	-43.9	21.2	0.00e+00	0	44	0	804257792	56	4266
2026-01-25 09:16:19.64	137.28	34.11	-43.1	-44.0	21.1	0.00e+00	0	44	0	807403520	56	4337
2026-01-25 09:16:20.64	137.21	34.33	-43.1	-44.0	21.1	0.00e+00	0	44	0	810549248	56	4340
2026-01-25 09:16:21.64	137.14	34.54	-43.2	-44.1	21.0	0.00e+00	0	44	0	813694976	57	4145
2026-01-25 09:16:22.64	137.06	34.76	-43.2	-44.1	21.0	0.00e+00	0	44	0	816840704	57	4134
2026-01-25 09:16:23.63	136.99	34.98	-43.4	-44.4	20.9	0.00e+00	0	44	0	819986432	57	4244
2026-01-25 09:16:24.63	136.91	35.20	-43.5	-44.4	20.8	0.00e+00	0	44	0	823132160	57	4274
2026-01-25 09:16:25.63	136.84	35.43	-43.7	-44.6	20.6	0.00e+00	0	44	0	826277888	57	4361
2026-01-25 09:16:26.62	136.76	35.65	-43.8	-44.8	20.5	0.00e+00	0	44	0	829423616	58	4201
2026-01-25 09:16:27.62	136.68	35.88	-44.0	-44.9	20.4	0.00e+00	0	44	0	832569344	58	4281
2026-01-25 09:16:28.62	136.60	36.11	-44.1	-45.1	20.2	0.00e+00	0	44	0	835715072	58	4366
2026-01-25 09:16:29.61	136.52	36.33	-44.2	-45.2	20.1	0.00e+00	0	44	0	838860800	58	4431
2026-01-25 09:16:30.61	136.43	36.57	-44.4	-45.4	20.0	0.00e+00	0	44	0	842006528	59	4252
2026-01-25 09:16:31.61	136.35	36.80	-44.3	-45.3	20.0	0.00e+00	0	44	0	845152256	59	4229
2026-01-25 09:16:32.60	136.26	37.03	-44.3	-45.3	20.1	0.00e+00	0	44	0	848297984	59	4213
2026-01-25 09:16:33.60	136.18	37.27	-44.4	-45.4	19.9	0.00e+00	0	44	0	851443712	59	4279
2026-01-25 09:16:34.60	136.09	37.50	-44.5	-45.5	19.9	0.00e+00	0	44	0	854589440	59	4317
2026-01-25 09:16:35.60	136.00	37.74	-44.4	-45.4	19.9	0.00e+00	0	44	0	857735168	59	4274
2026-01-25 09:16:36.60	135.91	37.98	-44.3	-45.3	20.1	0.00e+00	0	44	0	860880896	59	4194
2026-01-25 09:16:37.60	135.82	38.23	-44.3	-45.3	20.1	0.00e+00	0	44	0	864026624	59	4217
2026-01-25 09:16:38.59	135.72	38.47	-44.1	-45.1	20.3	0.00e+00	0	44	0	866123776	59	4122
2026-01-25 09:16:39.58	135.63	38.71	-44.2	-45.2	20.2	0.00e+00	0	44	0	869269504	59	4161
2026-01-25 09:16:40.58	135.53	38.96	-44.1	-45.1	20.2	0.00e+00	0	44	0	872415232	59	4138
2026-01-25 09:16:41.57	135.43	39.21	-44.2	-45.2	20.2	0.00e+00	0	44	0	875560960	59	4168
2026-01-25 09:16:42.57	135.33	39.46	-44.3	-45.3	20.1	0.00e+00	0	44	0	878706688	59	4204
2026-01-25 09:16:43.57	135.23	39.71	-44.5	-45.5	19.9	0.00e+00	0	44	0	881852416	59	4322
2026-01-25 09:16:44.56	135.13	39.96	-44.6	-45.6	19.8	0.00e+00	0	44	0	884998144	59	4373
2026-01-25 09:16:45.55	135.03	40.22	-44.5	-45.5	19.6	0.00e+00	0	44	0	888143872	60	4088
2026-01-25 09:16:46.55	134.92	40.47	-44.5	-45.5	19.6	0.00e+00	0	44	0	891289600	60	4098
2026-01-25 09:16:47.54	134.81	40.73	-44.6	-45.7	19.4	0.00e+00	0	44	0	894435328	60	4175
2026-01-25 09:16:48.54	134.70	40.99	-44.8	-45.9	19.3	0.00e+00	0	44	0	897581056	60	4273
2026-01-25 09:16:49.54	134.59	41.26	-44.7	-45.8	19.4	0.00e+00	0	44	0	900726784	60	4195
2026-01-25 09:16:50.54	134.48	41.52	-44.7	-45.8	19.4	0.00e+00	0	44	0	903872512	60	4207
2026-01-25 09:16:51.53	134.36	41.78	-44.6	-45.7	19.4	0.00e+00	0	44	0	907018240	60	4170
2026-01-25 09:16:52.53	134.24	42.05	-44.7	-45.7	19.4	0.00e+00	0	44	0	910163968	60	4185
2026-01-25 09:16:53.53	134.12	42.32	-44.8	-45.9	19.3	0.00e+00	0	44	0	913309696	60	4258
2026-01-25 09:16:54.52	134.00	42.59	-45.0	-46.1	19.1	0.00e+00	0	44	0	916455424	60	4385
2026-01-25 09:16:55.52	133.88	42.87	-45.1	-46.3	18.9	0.00e+00	0	44	0	919601152	60	4447
2026-01-25 09:16:56.52	133.75	43.14	-45.3	-46.4	18.8	0.00e+00	0	44	0	922746880	61	4275
2026-01-25 09:16:57.52	133.62	43.42	-45.0	-46.2	19.1	0.00e+00	0	44	0	925892608	61	4149
2026-01-25 09:16:58.51	133.50	43.70	-44.9	-46.0	19.2	0.00e+00	0	44	0	929038336	61	4062
2026-01-25 09:16:59.51	133.36	43.98	-44.9	-45.9	19.1	0.00e+00	0	44	0	932184064	61	4049
2026-01-25 09:17:00.50	133.23	44.26	-44.9	-46.0	19.1	0.00e+00	0	44	0	935329792	61	4064
2026-01-25 09:17:01.50	133.09	44.54	-45.1	-46.2	18.9	0.00e+00	0	44	0	938475520	61	4157
2026-01-25 09:17:02.49	132.95	44.83	-45.1	-46.2	18.9	0.00e+00	0	44	0	941621248	61	4187
2026-01-25 09:17:03.50	132.81	45.12	-45.2	-46.3	18.9	0.00e+00	0	44	0	944766976	61	4210
2026-01-25 09:17:04.50	132.66	45.41	-45.2	-46.4	18.8	0.00e+00	0	44	0	947912704	61	4246
2026-01-25 09:17:05.50	132.51	45.70	-45.0	-46.1	19.1	0.00e+00	0	44	0	951058432	61	4111
2026-01-25 09:17:06.50	132.36	46.00	-44.9	-46.0	19.2	0.00e+00	0	44	0	954204160	61	4064
2026-01-25 09:17:07.50	132.21	46.29	-44.7	-45.7	19.3	0.00e+00	0	44	0	957349888	61	3943
2026-01-25 09:17:08.50	132.05	46.59	-44.4	-45.4	19.7	0.00e+00	0	44	0	960495616	60	4018
2026-01-25 09:17:09.50	131.89	46.89	-44.1	-45.1	19.9	0.00e+00	0	44	0	963641344	60	3889
2026-01-25 09:17:10.50	131.72	47.19	-44.3	-45.3	20.1	0.00e+00	0	44	0	966787072	59	4199
2026-01-25 09:17:11.50	131.56	47.50	-44.2	-45.2	20.2	0.00e+00	0	44	0	969932800	59	4159
2026-01-25 09:17:12.50	131.39	47.80	-44.3	-45.3	20.0	0.00e+00	0	44	0	973078528	59	4229
2026-01-25 09:17:13.50	131.21	48.11	-44.4	-45.4	20.0	0.00e+00	0	44	0	976224256	59	4244
2026-01-25 09:17:14.50	131.03	48.42	-44.5	-45.5	19.8	0.00e+00	0	44	0	979369984	59	4327
2026-01-25 09:17:15.50	130.85	48.73	-44.5	-45.5	19.7	0.00e+00	0	44	0	982515712	59	4335
2026-01-25 09:17:16.50	130.67	49.05	-44.3	-45.3	20.1	0.00e+00	0	44	0	985661440	59	4205
2026-01-25 09:17:17.50	130.48	49.36	-44.2	-45.1	20.2	0.00e+00	0	44	0	987758592	59	4129
2026-01-25 09:17:18.50	130.29	49.68	-44.1	-45.0	20.4	0.00e+00	0	44	0	990904320	59	4086
2026-01-25 09:17:19.49	130.09	50.00	-44.0	-45.0	20.4	0.00e+00	0	44	0	994050048	59	4068
2026-01-25 09:17:20.49	129.89	50.32	-44.4	-45.4	20.0	0.00e+00	0	44	0	997195776	59	4270
2026-01-25 09:17:21.50	129.68	50.64	-44.5	-45.5	19.9	0.00e+00	0	44	0	1000341504	59	4327
2026-01-25 09:17:22.49	129.47	50.97	-44.5	-45.5	19.9	0.00e+00	0	44	0	1003487232	59	4338
2026-01-25 09:17:23.49	129.26	51.29	-44.4	-45.4	20.1	0.00e+00	0	44	0	1006632960	59	4246
2026-01-25 09:17:24.49	129.04	51.62	-44.1	-45.1	20.3	0.00e+00	0	44	0	1009778688	59	4103
2026-01-25 09:17:25.49	128.82	51.95	-43.9	-44.8	20.6	0.00e+00	0	44	0	1012924416	59	3983
2026-01-25 09:17:26.49	128.59	52.28	-43.8	-44.8	20.6	0.00e+00	0	44	0	1016070144	59	3962
2026-01-25 09:17:27.49	128.35	52.62	-43.9	-44.8	20.6	0.00e+00	0	44	0	1019215872	59	4003
2026-01-25 09:17:28.48	128.11	52.95	-44.2	-45.2	20.3	0.00e+00	0	44	0	1022361600	59	4168
2026-01-25 09:17:29.48	127.87	53.29	-44.2	-45.2	20.3	0.00e+00	0	44	0	1025507328	59	4164
2026-01-25 09:17:30.48	127.61	53.62	-44.0	-45.0	20.5	0.00e+00	0	44	0	1028653056	59	4054
2026-01-25 09:17:31.48	127.36	53.97	-43.9	-44.9	20.6	0.00e+00	0	44	0	1031798784	59	4013
2026-01-25 09:17:32.48	127.09	54.31	-43.8	-44.7	20.7	0.00e+00	0	44	0	1034944512	59	3929
2026-01-25 09:17:33.48	126.82	54.65	-43.2	-44.1	21.2	0.00e+00	0	44	0	1038090240	58	3892
2026-01-25 09:17:34.47	126.55	54.99	-43.0	-43.8	21.5	0.00e+00	0	44	0	1041235968	57	4001
2026-01-25 09:17:35.47	126.26	55.34	-42.8	-43.7	21.6	0.00e+00	0	44	0	1044381696	57	3937
2026-01-25 09:17:36.47	125.97	55.69	-42.6	-43.4	21.8	0.00e+00	0	44	0	1047527424	57	3821
2026-01-25 09:17:37.47	125.67	56.04	-42.6	-43.5	21.7	0.00e+00	0	44	0	1050673152	57	3835
2026-01-25 09:17:38.47	125.36	56.39	-42.4	-43.3	22.0	0.00e+00	0	44	0	1053818880	56	3965
2026-01-25 09:17:39.47	125.05	56.74	-41.8	-42.6	22.4	0.00e+00	0	44	0	1056964608	55	3870
2026-01-25 09:17:40.47	124.73	57.10	-41.6	-42.4	22.6	0.00e+00	0	44	0	1060110336	55	3799
2026-01-25 09:17:41.47	124.40	57.45	-41.4	-42.1	22.7	0.00e+00	0	44	0	1063256064	54	3906
2026-01-25 09:17:42.46	124.06	57.81	-41.5	-42.2	22.5	0.00e+00	0	44	0	1066401792	54	3941
2026-01-25 09:17:43.47	123.71	58.17	-42.0	-42.8	22.1	0.00e+00	0	44	0	1069547520	54	4205
2026-01-25 09:17:44.47	123.35	58.53	-42.2	-43.0	22.0	0.00e+00	0	44	0	1072693248	54	4305
2026-01-25 09:17:45.47	122.98	58.89	-42.0	-42.8	22.2	0.00e+00	0	44	0	1075838976	54	4201
2026-01-25 09:17:46.48	122.59	59.25	-42.0	-42.8	22.2	0.00e+00	0	44	0	1078984704	54	4231
2026-01-25 09:17:47.49	122.20	59.62	-42.0	-42.8	22.3	0.00e+00	0	44	0	1082130432	54	4215
2026-01-25 09:17:48.49	121.80	59.98	-41.9	-42.7	22.3	0.00e+00	0	44	0	1085276160	54	4187
2026-01-25 09:17:49.49	121.39	60.34	-41.9	-42.7	22.4	0.00e+00	0	44	0	1088421888	54	4170
2026-01-25 09:17:50.50	120.96	60.71	-42.0	-42.8	22.3	0.00e+00	0	44	0	1091567616	54	4202
2026-01-25 09:17:51.50	120.52	61.08	-41.7	-42.5	22.6	0.00e+00	0	44	0	1094713344	54	4068
2026-01-25 09:17:52.51	120.06	61.45	-41.5	-42.3	22.7	0.00e+00	0	44	0	1097859072	54	3974
2026-01-25 09:17:53.51	119.60	61.81	-41.5	-42.3	22.6	0.00e+00	0	44	0	1101004800	54	3988
2026-01-25 09:17:54.51	119.12	62.18	-41.6	-42.3	22.6	0.00e+00	0	44	0	1104150528	54	4004
2026-01-25 09:17:55.51	118.63	62.55	-41.5	-42.3	22.7	0.00e+00	0	44	0	1107296256	54	3967
2026-01-25 09:17:56.52	118.11	62.92	-41.3	-42.1	22.9	0.00e+00	0	44	0	1110441984	54	3873
2026-01-25 09:17:57.52	117.59	63.28	-41.1	-41.8	23.1	0.00e+00	0	44	0	1113587712	54	3765
2026-01-25 09:17:58.53	117.04	63.65	-40.9	-41.6	23.3	0.00e+00	0	44	0	1116733440	53	3900
2026-01-25 09:17:59.53	116.48	64.02	-41.2	-41.9	23.0	0.00e+00	0	44	0	1119879168	53	4050
2026-01-25 09:18:00.54	115.90	64.39	-41.2	-42.0	23.0	0.00e+00	0	44	0	1123024896	53	4065
2026-01-25 09:18:01.54	115.30	64.75	-41.3	-42.1	22.8	0.00e+00	0	44	0	1126170624	53	4117
2026-01-25 09:18:02.55	114.68	65.12	-41.3	-42.1	22.8	0.00e+00	0	44	0	1129316352	53	4102
2026-01-25 09:18:03.55	114.04	65.48	-41.3	-42.0	22.8	0.00e+00	0	44	0	1132462080	53	4079
2026-01-25 09:18:04.55	113.39	65.85	-41.1	-41.9	22.8	0.00e+00	0	44	0	1135607808	53	4025
2026-01-25 09:18:05.56	112.70	66.21	-41.3	-42.1	22.8	0.00e+00	0	44	0	1138753536	53	4110
2026-01-25 09:18:06.56	112.00	66.57	-41.4	-42.2	22.8	0.00e+00	0	44	0	1141899264	53	4165
2026-01-25 09:18:07.57	111.26	66.93	-41.5	-42.2	22.7	0.00e+00	0	44	0	1145044992	53	4192
2026-01-25 09:18:08.58	110.50	67.29	-41.2	-41.9	22.9	0.00e+00	0	44	0	1147142144	53	4050
2026-01-25 09:18:09.59	109.72	67.64	-40.9	-41.6	23.2	0.00e+00	0	44	0	1150287872	53	3913
2026-01-25 09:18:10.60	108.90	68.00	-41.0	-41.7	23.1	0.00e+00	0	44	0	1154482176	53	3946
2026-01-25 09:18:11.60	108.07	68.34	-41.1	-41.8	23.0	0.00e+00	0	44	0	1157627904	53	3985
2026-01-25 09:18:12.61	107.19	68.69	-40.9	-41.6	23.3	0.00e+00	0	44	0	1160773632	53	3905
2026-01-25 09:18:13.61	106.30	69.03	-40.8	-41.5	23.4	0.00e+00	0	44	0	1163919360	53	3851
2026-01-25 09:18:14.62	105.36	69.37	-41.0	-41.8	23.1	0.00e+00	0	44	0	1167065088	53	3983
2026-01-25 09:18:15.62	104.40	69.71	-41.0	-41.8	23.1	0.00e+00	0	44	0	1170210816	53	3969
2026-01-25 09:18:16.63	103.40	70.04	-41.0	-41.8	23.2	0.00e+00	0	44	0	1173356544	53	3962
2026-01-25 09:18:17.64	102.35	70.37	-40.8	-41.6	23.3	0.00e+00	0	44	0	1176502272	53	3883
2026-01-25 09:18:18.64	101.29	70.68	-40.8	-41.6	23.4	0.00e+00	0	44	0	1179648000	53	3875
2026-01-25 09:18:19.65	100.17	71.00	-40.7	-41.4	23.3	0.00e+00	0	44	0	1182793728	53	3822
2026-01-25 09:18:20.65	99.02	71.31	-40.5	-41.2	23.6	0.00e+00	0	44	0	1185939456	52	3923
2026-01-25 09:18:21.66	97.83	71.61	-40.5	-41.2	23.5	0.00e+00	0	44	0	1189085184	52	3916
2026-01-25 09:18:22.67	96.59	71.91	-40.7	-41.4	23.0	0.00e+00	0	44	0	1192230912	52	4030
2026-01-25 09:18:23.67	95.32	72.19	-40.4	-41.1	23.2	0.00e+00	0	44	0	1194328064	52	3895
2026-01-25 09:18:24.68	93.99	72.47	-40.3	-41.0	23.6	0.00e+00	0	44	0	1197473792	52	3858
2026-01-25 09:18:25.68	92.63	72.74	-40.7	-41.4	23.4	0.00e+00	0	44	0	1200619520	52	4033
2026-01-25 09:18:26.69	91.21	73.01	-41.0	-41.8	23.1	0.00e+00	0	44	0	1204813824	52	4210
2026-01-25 09:18:27.70	89.75	73.26	-41.1	-41.9	23.0	0.00e+00	0	44	0	1207959552	52	4243
2026-01-25 09:18:28.71	88.24	73.50	-41.1	-41.8	23.0	0.00e+00	0	44	0	1211105280	52	4224
2026-01-25 09:18:29.72	86.69	73.74	-40.8	-41.5	23.3	0.00e+00	0	44	0	1214251008	52	4089
2026-01-25 09:18:30.72	85.10	73.96	-41.0	-41.7	23.1	0.00e+00	0	44	0	1217396736	52	4157
2026-01-25 09:18:31.73	83.45	74.17	-41.4	-42.2	22.8	0.00e+00	0	44	0	1220542464	53	4171
2026-01-25 09:18:32.73	81.78	74.36	-41.5	-42.3	22.8	0.00e+00	0	44	0	1223688192	53	4202
2026-01-25 09:18:33.73	80.06	74.54	-41.8	-42.6	22.4	0.00e+00	0	44	0	1226833920	54	4134
2026-01-25 09:18:34.74	78.28	74.71	-41.7	-42.5	22.6	0.00e+00	0	44	0	1229979648	54	4080
2026-01-25 09:18:35.75	76.47	74.87	-41.7	-42.5	22.5	0.00e+00	0	44	0	1233125376	54	4068
2026-01-25 09:18:36.75	74.63	75.01	-41.8	-42.6	22.6	0.00e+00	0	44	0	1236271104	54	4112
2026-01-25 09:18:37.75	72.76	75.13	-41.9	-42.6	22.4	0.00e+00	0	44	0	1239416832	54	4145
2026-01-25 09:18:38.76	70.85	75.24	-41.3	-42.0	22.9	0.00e+00	0	44	0	1241513984	54	3864
2026-01-25 09:18:39.77	68.90	75.34	-41.3	-42.1	23.0	0.00e+00	0	44	0	1244659712	54	3875
2026-01-25 09:18:40.77	66.95	75.41	-41.3	-42.1	22.9	0.00e+00	0	44	0	1247805440	54	3880
2026-01-25 09:18:41.78	64.96	75.47	-41.6	-42.4	22.5	0.00e+00	0	44	0	1250951168	54	4038
2026-01-25 09:18:42.79	62.96	75.52	-41.8	-42.6	22.5	0.00e+00	0	44	0	1254096896	54	4121
2026-01-25 09:18:43.80	60.94	75.54	-41.8	-42.6	22.5	0.00e+00	0	44	0	1258291200	54	4101
2026-01-25 09:18:44.80	58.94	75.55	-42.2	-43.1	22.0	0.00e+00	0	44	0	1261436928	55	4106
2026-01-25 09:18:45.81	56.92	75.54	-42.2	-43.0	22.2	0.00e+00	0	44	0	1264582656	55	4077
2026-01-25 09:18:46.81	54.93	75.52	-42.1	-42.9	22.3	0.00e+00	0	44	0	1267728384	55	4039
2026-01-25 09:18:47.82	52.92	75.48	-41.7	-42.5	22.4	0.00e+00	0	44	0	1270874112	55	3857
2026-01-25 09:18:48.82	50.95	75.42	-41.5	-42.3	22.8	0.00e+00	0	44	0	1274019840	55	3748
2026-01-25 09:18:49.83	48.98	75.34	-41.3	-42.0	23.1	0.00e+00	0	44	0	1277165568	54	3859
2026-01-25 09:18:50.83	47.05	75.25	-41.6	-42.3	22.9	0.00e+00	0	44	0	1280311296	54	3985
2026-01-25 09:18:51.84	45.13	75.14	-41.9	-42.6	22.6	0.00e+00	0	44	0	1283457024	54	4141
2026-01-25 09:18:52.84	43.26	75.02	-41.9	-42.7	22.4	0.00e+00	0	44	0	1286602752	54	4166
2026-01-25 09:18:53.84	41.43	74.88	-41.4	-42.2	22.9	0.00e+00	0	44	0	1288699904	54	3930
2026-01-25 09:18:54.84	39.62	74.73	-41.6	-42.4	22.8	0.00e+00	0	44	0	1291845632	54	4018
2026-01-25 09:18:55.83	37.88	74.56	-41.9	-42.7	22.6	0.00e+00	0	44	0	1294991360	54	4168
2026-01-25 09:18:56.83	36.16	74.38	-41.7	-42.5	22.4	0.00e+00	0	44	0	1298137088	54	4061
2026-01-25 09:18:57.84	34.46	74.18	-41.4	-42.2	22.4	0.00e+00	0	44	0	1301282816	54	3930
2026-01-25 09:18:58.84	32.83	73.98	-41.6	-42.4	22.6	0.00e+00	0	44	0	1304428544	54	4031
2026-01-25 09:18:59.84	31.24	73.76	-41.3	-42.0	23.0	0.00e+00	0	44	0	1307574272	54	3859
2026-01-25 09:19:00.84	29.70	73.53	-41.1	-41.8	23.2	0.00e+00	0	44	0	1310720000	54	3760
2026-01-25 09:19:01.85	28.18	73.29	-41.1	-41.8	23.2	0.00e+00	0	44	0	1313865728	53	4001
2026-01-25 09:19:02.85	26.73	73.04	-41.6	-42.4	22.8	0.00e+00	0	44	0	1317011456	53	4280
2026-01-25 09:19:03.86	25.31	72.78	-41.6	-42.3	22.8	0.00e+00	0	44	0	1320157184	54	3983
2026-01-25 09:19:04.87	23.93	72.51	-41.2	-41.9	23.0	0.00e+00	0	44	0	1323302912	54	3821
2026-01-25 09:19:05.88	22.60	72.23	-41.0	-41.7	23.4	0.00e+00	0	44	0	1326448640	54	3713
2026-01-25 09:19:06.88	21.33	71.94	-41.1	-41.8	23.0	0.00e+00	0	44	0	1329594368	53	3988
2026-01-25 09:19:07.88	20.10	71.65	-41.3	-42.1	22.9	0.00e+00	0	44	0	1332740096	53	4101
2026-01-25 09:19:08.89	18.89	71.35	-40.9	-41.6	23.3	0.00e+00	0	44	0	1335885824	53	3877
2026-01-25 09:19:09.90	17.73	71.04	-41.2	-42.0	23.0	0.00e+00	0	44	0	1339031552	53	4066
2026-01-25 09:19:10.91	16.61	70.72	-41.9	-42.7	22.4	0.00e+00	0	44	0	1342177280	54	4179
2026-01-25 09:19:11.92	15.53	70.40	-41.6	-42.3	22.8	0.00e+00	0	44	0	1345323008	54	3993
2026-01-25 09:19:12.92	14.50	70.08	-41.1	-41.8	23.2	0.00e+00	0	44	0	1348468736	54	3761
2026-01-25 09:19:13.93	13.49	69.75	-41.0	-41.7	23.3	0.00e+00	0	44	0	1351614464	53	3944
2026-01-25 09:19:14.94	12.51	69.41	-41.4	-42.2	22.9	0.00e+00	0	44	0	1354760192	53	4154
2026-01-25 09:19:15.94	11.58	69.08	-41.6	-42.4	22.8	0.00e+00	0	44	0	1357905920	53	4271
2026-01-25 09:19:16.94	10.69	68.74	-41.4	-42.1	23.0	0.00e+00	0	44	0	1361051648	53	4130
2026-01-25 09:19:17.93	9.83	68.40	-41.2	-42.0	22.9	0.00e+00	0	44	0	1364197376	53	4057
2026-01-25 09:19:18.93	8.99	68.05	-40.9	-41.7	23.1	0.00e+00	0	44	0	1367343104	53	3915
2026-01-25 09:19:19.93	8.18	67.70	-40.7	-41.4	23.4	0.00e+00	0	44	0	1370488832	53	3812
2026-01-25 09:19:20.93	7.40	67.35	-40.6	-41.3	23.5	0.00e+00	0	44	0	1373634560	53	3740
2026-01-25 09:19:21.93	6.64	66.99	-40.9	-41.6	23.4	0.00e+00	0	44	0	1376780288	52	4112
2026-01-25 09:19:22.93	5.91	66.64	-41.9	-42.7	22.5	0.00e+00	0	44	0	1379926016	54	4157
2026-01-25 09:19:23.94	5.20	66.28	-42.3	-43.1	21.9	0.00e+00	0	44	0	1383071744	55	4143
2026-01-25 09:19:24.94	4.51	65.92	-42.2	-43.1	21.8	0.00e+00	0	44	0	1386217472	55	4103
2026-01-25 09:19:25.94	3.85	65.56	-42.0	-42.8	22.2	0.00e+00	0	44	0	1389363200	55	3989
2026-01-25 09:19:26.94	3.21	65.19	-41.6	-42.3	22.7	0.00e+00	0	44	0	1392508928	55	3773
2026-01-25 09:19:27.94	2.60	64.83	-40.9	-41.6	23.1	0.00e+00	0	44	0	1395654656	53	3890
2026-01-25 09:19:28.93	2.00	64.47	-41.2	-41.9	23.0	0.00e+00	0	44	0	1398800384	53	4031
2026-01-25 09:19:29.92	1.43	64.11	-42.1	-42.9	22.3	0.00e+00	0	44	0	1401946112	54	4284
2026-01-25 09:19:30.92	0.87	63.74	-42.4	-43.2	21.9	0.00e+00	0	44	0	1405091840	55	4165
2026-01-25 09:19:31.92	0.32	63.38	-41.7	-42.5	22.1	0.00e+00	0	44	0	1408237568	55	3831
2026-01-25 09:19:32.92	359.79	63.01	-41.1	-41.8	22.9	0.00e+00	0	44	0	1411383296	54	3778
2026-01-25 09:19:33.92	359.28	62.65	-40.8	-41.6	23.3	0.00e+00	0	44	0	1414529024	53	3871
2026-01-25 09:19:34.91	358.79	62.28	-40.8	-41.5	23.3	0.00e+00	0	44	0	1417674752	53	3853
2026-01-25 09:19:35.91	358.31	61.92	-40.6	-41.3	23.4	0.00e+00	0	44	0	1420820480	53	3758
2026-01-25 09:19:36.90	357.84	61.56	-40.9	-41.6	23.3	0.00e+00	0	44	0	1423966208	53	3897
2026-01-25 09:19:37.91	357.39	61.19	-41.6	-42.3	22.8	0.00e+00	0	44	0	1427111936	53	4224
2026-01-25 09:19:38.90	356.95	60.83	-42.3	-43.1	21.9	0.00e+00	0	44	0	1430257664	55	4120
2026-01-25 09:19:39.90	356.52	60.46	-42.4	-43.2	20.4	0.00e+00	0	44	0	1433403392	55	4168
2026-01-25 09:19:40.90	356.11	60.10	-42.1	-42.9	20.6	0.00e+00	0	44	0	1436549120	55	4039
2026-01-25 09:19:41.90	355.70	59.74	-41.9	-42.7	21.7	0.00e+00	0	44	0	1439694848	55	3915
2026-01-25 09:19:42.89	355.31	59.38	-41.5	-42.2	22.5	0.00e+00	0	44	0	1442840576	55	3720
2026-01-25 09:19:43.90	354.93	59.02	-41.9	-42.6	22.1	0.00e+00	0	44	0	1445986304	54	4145
2026-01-25 09:19:44.90	354.55	58.66	-42.4	-43.3	21.6	0.00e+00	0	44	0	1449132032	55	4198
2026-01-25 09:19:45.90	354.19	58.30	-43.4	-44.3	21.2	0.00e+00	0	44	0	1452277760	57	4207
2026-01-25 09:19:46.91	353.84	57.94	-44.1	-45.1	20.3	0.00e+00	0	44	0	1455423488	58	4362
2026-01-25 09:19:47.92	353.49	57.58	-44.5	-45.6	19.5	0.00e+00	0	44	0	1458569216	59	4375
2026-01-25 09:19:48.93	353.15	57.22	-44.4	-45.5	19.7	0.00e+00	0	44	0	1461714944	59	4317
2026-01-25 09:19:49.94	352.83	56.86	-43.4	-44.3	20.8	0.00e+00	0	44	0	1464860672	58	3998
2026-01-25 09:19:50.94	352.51	56.51	-42.5	-43.4	21.8	0.00e+00	0	44	0	1468006400	57	3781
2026-01-25 09:19:51.95	352.20	56.15	-41.9	-42.6	22.0	0.00e+00	0	44	0	1471152128	55	3910
2026-01-25 09:19:52.96	351.89	55.80	-41.7	-42.4	21.9	0.00e+00	0	44	0	1474297856	55	3812
2026-01-25 09:19:53.97	351.60	55.45	-42.0	-42.8	21.7	0.00e+00	0	44	0	1477443584	55	3976
2026-01-25 09:19:54.98	351.31	55.10	-43.2	-44.1	20.8	0.00e+00	0	44	0	1480589312	56	4348
2026-01-25 09:19:55.98	351.03	54.75	-44.1	-45.1	20.4	0.00e+00	0	44	0	1483735040	58	4370
2026-01-25 09:19:56.99	350.76	54.41	-44.3	-45.3	19.7	0.00e+00	0	44	0	1486880768	59	4229
2026-01-25 09:19:58.00	350.49	54.06	-44.4	-45.5	19.4	0.00e+00	0	44	0	1490026496	59	4294
2026-01-25 09:19:59.00	350.23	53.72	-44.1	-45.1	20.1	0.00e+00	0	44	0	1493172224	59	4116
2026-01-25 09:20:00.01	349.97	53.38	-44.1	-45.0	20.4	0.00e+00	0	44	0	1496317952	59	4082
2026-01-25 09:20:01.02	349.72	53.04	-43.6	-44.5	21.0	0.00e+00	0	44	0	1499463680	59	3832
2026-01-25 09:20:02.03	349.48	52.70	-43.3	-44.2	21.3	0.00e+00	0	44	0	1502609408	58	3920
2026-01-25 09:20:03.04	349.24	52.36	-43.2	-44.0	21.3	0.00e+00	0	44	0	1505755136	58	3864
2026-01-25 09:20:04.05	349.01	52.03	-43.6	-44.5	20.8	0.00e+00	0	44	0	1508900864	58	4091
2026-01-25 09:20:05.06	348.78	51.70	-44.3	-45.3	20.1	0.00e+00	0	44	0	1512046592	59	4230
2026-01-25 09:20:06.06	348.56	51.37	-44.8	-45.8	19.5	0.00e+00	0	44	0	1515192320	60	4231
2026-01-25 09:20:07.07	348.35	51.04	-44.8	-45.9	19.5	0.00e+00	0	44	0	1518338048	60	4245
2026-01-25 09:20:08.08	348.13	50.71	-44.6	-45.6	19.3	0.00e+00	0	44	0	1521483776	60	4119
2026-01-25 09:20:09.09	347.93	50.39	-44.3	-45.3	19.4	0.00e+00	0	44	0	1524629504	60	3982
2026-01-25 09:20:10.10	347.72	50.06	-44.3	-45.2	20.1	0.00e+00	0	44	0	1527775232	59	4192
2026-01-25 09:20:11.11	347.52	49.74	-44.0	-44.9	20.5	0.00e+00	0	44	0	1530920960	59	4050
2026-01-25 09:20:12.12	347.33	49.42	-44.0	-44.9	20.6	0.00e+00	0	44	0	1534066688	59	4044
2026-01-25 09:20:13.12	347.14	49.11	-44.4	-45.4	20.2	0.00e+00	0	44	0	1537212416	59	4251
2026-01-25 09:20:14.13	346.95	48.79	-44.7	-45.7	19.9	0.00e+00	0	44	0	1540358144	59	4423
2026-01-25 09:20:15.14	346.77	48.48	-44.3	-45.3	20.0	0.00e+00	0	44	0	1543503872	60	3977
2026-01-25 09:20:16.15	346.59	48.16	-44.2	-45.2	20.0	0.00e+00	0	44	0	1546649600	60	3918
2026-01-25 09:20:17.16	346.42	47.85	-44.4	-45.4	19.8	0.00e+00	0	44	0	1549795328	60	4008
2026-01-25 09:20:18.16	346.25	47.55	-44.7	-45.8	19.5	0.00e+00	0	44	0	1552941056	60	4194
2026-01-25 09:20:19.17	346.08	47.24	-44.9	-46.0	19.3	0.00e+00	0	44	0	1556086784	60	4306
2026-01-25 09:20:20.18	345.91	46.94	-44.8	-45.8	19.5	0.00e+00	0	44	0	1559232512	60	4242
2026-01-25 09:20:21.19	345.75	46.64	-44.3	-45.3	19.7	0.00e+00	0	44	0	1562378240	60	3965
2026-01-25 09:20:22.20	345.59	46.34	-43.9	-44.8	19.7	0.00e+00	0	44	0	1565523968	59	4000
2026-01-25 09:20:23.21	345.44	46.04	-43.7	-44.6	20.1	0.00e+00	0	44	0	1568669696	59	3873
2026-01-25 09:20:24.22	345.28	45.74	-43.6	-44.5	20.3	0.00e+00	0	44	0	1571815424	59	3854
2026-01-25 09:20:25.22	345.13	45.45	-44.0	-44.9	20.3	0.00e+00	0	44	0	1574961152	59	4032
2026-01-25 09:20:26.23	344.99	45.16	-44.6	-45.6	19.9	0.00e+00	0	44	0	1578106880	59	4368
2026-01-25 09:20:27.24	344.84	44.86	-44.7	-45.7	19.5	0.00e+00	0	44	0	1581252608	60	4164
2026-01-25 09:20:28.25	344.70	44.58	-44.8	-45.8	19.4	0.00e+00	0	44	0	1584398336	60	4240
2026-01-25 09:20:29.26	344.56	44.29	-44.9	-46.0	19.4	0.00e+00	0	44	0	1587544064	60	4321
2026-01-25 09:20:30.26	344.43	44.01	-45.1	-46.2	19.1	0.00e+00	0	44	0	1590689792	60	4433
2026-01-25 09:20:31.27	344.29	43.72	-45.1	-46.2	19.1	0.00e+00	0	44	0	1593835520	60	4420
2026-01-25 09:20:32.28	344.16	43.44	-44.6	-45.6	19.6	0.00e+00	0	44	0	1596981248	60	4122
2026-01-25 09:20:33.29	344.03	43.16	-44.4	-45.4	19.8	0.00e+00	0	44	0	1600126976	60	4026
2026-01-25 09:20:34.30	343.91	42.88	-44.7	-45.7	19.5	0.00e+00	0	44	0	1603272704	60	4184
2026-01-25 09:20:35.30	343.78	42.61	-44.8	-45.8	19.3	0.00e+00	0	44	0	1606418432	60	4242
2026-01-25 09:20:36.31	343.66	42.34	-44.8	-45.9	19.4	0.00e+00	0	44	0	1609564160	60	4266
2026-01-25 09:20:37.32	343.54	42.06	-44.8	-45.9	19.4	0.00e+00	0	44	0	1612709888	60	4276
2026-01-25 09:20:38.33	343.42	41.79	-44.6	-45.6	19.3	0.00e+00	0	44	0	1615855616	60	4121
2026-01-25 09:20:39.34	343.31	41.53	-44.1	-45.1	19.4	0.00e+00	0	44	0	1619001344	60	3893
2026-01-25 09:20:40.34	343.19	41.26	-44.3	-45.3	19.5	0.00e+00	0	44	0	1622147072	59	4208
2026-01-25 09:20:41.35	343.08	41.00	-44.2	-45.1	19.8	0.00e+00	0	44	0	1625292800	59	4141
2026-01-25 09:20:42.36	342.97	40.73	-44.3	-45.3	20.0	0.00e+00	0	44	0	1628438528	59	4202
2026-01-25 09:20:43.37	342.86	40.47	-44.5	-45.5	19.9	0.00e+00	0	44	0	1631584256	59	4295
2026-01-25 09:20:44.38	342.75	40.21	-44.3	-45.3	20.1	0.00e+00	0	44	0	1634729984	59	4207
2026-01-25 09:20:45.38	342.65	39.96	-44.3	-45.3	20.2	0.00e+00	0	44	0	1637875712	59	4211
2026-01-25 09:20:46.39	342.55	39.70	-44.4	-45.4	20.0	0.00e+00	0	44	0	1641021440	59	4279
2026-01-25 09:20:47.40	342.44	39.45	-44.3	-45.3	20.2	0.00e+00	0	44	0	1644167168	59	4231
2026-01-25 09:20:48.41	342.34	39.20	-44.5	-45.6	20.0	0.00e+00	0	44	0	1647312896	59	4350
2026-01-25 09:20:49.42	342.24	38.95	-44.3	-45.3	19.8	0.00e+00	0	44	0	1650458624	60	3981
2026-01-25 09:20:50.42	342.15	38.70	-44.5	-45.5	19.6	0.00e+00	0	44	0	1653604352	60	4084
2026-01-25 09:20:51.43	342.05	38.45	-44.5	-45.6	19.5	0.00e+00	0	44	0	1656750080	60	4099
2026-01-25 09:20:52.44	341.96	38.21	-44.7	-45.7	19.4	0.00e+00	0	44	0	1659895808	60	4186
2026-01-25 09:20:53.45	341.87	37.96	-44.7	-45.7	19.5	0.00e+00	0	44	0	1663041536	60	4181
2026-01-25 09:20:54.46	341.78	37.72	-44.6	-45.7	19.5	0.00e+00	0	44	0	1666187264	60	4158
2026-01-25 09:20:55.46	341.69	37.48	-44.6	-45.6	19.6	0.00e+00	0	44	0	1669332992	60	4136
2026-01-25 09:20:56.47	341.60	37.24	-44.3	-45.4	19.8	0.00e+00	0	44	0	1672478720	60	4005
2026-01-25 09:20:57.48	341.51	37.01	-44.3	-45.3	19.9	0.00e+00	0	44	0	1675624448	60	3973
2026-01-25 09:20:58.49	341.43	36.77	-44.3	-45.3	19.9	0.00e+00	0	44	0	1678770176	60	3990
2026-01-25 09:20:59.50	341.34	36.54	-44.3	-45.3	19.9	0.00e+00	0	44	0	1681915904	60	3992
2026-01-25 09:21:00.50	341.26	36.31	-44.2	-45.2	19.9	0.00e+00	0	45	0	1685061632	60	3933
2026-01-25 09:21:01.51	341.18	36.08	-44.2	-45.2	20.2	0.00e+00	0	44	0	1688207360	59	4172
2026-01-25 09:21:02.52	341.10	35.85	-43.9	-44.8	20.6	0.00e+00	0	44	0	1691353088	59	3994
2026-01-25 09:21:03.52	341.02	35.62	-43.9	-44.9	20.6	0.00e+00	0	44	0	1694498816	59	4018
2026-01-25 09:21:04.53	340.94	35.40	-43.7	-44.7	20.8	0.00e+00	0	44	0	1697644544	59	3919
2026-01-25 09:21:05.54	340.86	35.17	-43.8	-44.7	20.7	0.00e+00	0	44	0	1700790272	59	3933
2026-01-25 09:21:06.55	340.78	34.95	-43.7	-44.7	20.8	0.00e+00	0	45	0	1703936000	59	3914
2026-01-25 09:21:07.56	340.71	34.73	-43.8	-44.8	20.6	0.00e+00	0	44	0	1707081728	59	3972
2026-01-25 09:21:08.57	340.64	34.51	-43.8	-44.7	20.7	0.00e+00	0	44	0	1710227456	59	3948
2026-01-25 09:21:09.57	340.56	34.29	-44.1	-45.0	20.4	0.00e+00	0	44	0	1713373184	59	4095
2026-01-25 09:21:10.58	340.49	34.07	-44.2	-45.2	20.3	0.00e+00	0	45	0	1716518912	59	4165
2026-01-25 09:21:11.59	340.42	33.86	-44.2	-45.2	20.3	0.00e+00	0	44	0	1719664640	59	4183
2026-01-25 09:21:12.60	340.35	33.64	-44.2	-45.2	20.2	0.00e+00	0	44	0	1722810368	59	4181
2026-01-25 09:21:13.61	340.28	33.43	-44.0	-45.0	20.4	0.00e+00	0	44	0	1725956096	59	4060
2026-01-25 09:21:14.62	340.21	33.22	-44.0	-44.9	20.4	0.00e+00	0	44	0	1729101824	59	4041
2026-01-25 09:21:15.63	340.15	33.01	-43.6	-44.6	20.7	0.00e+00	0	44	0	1732247552	59	3882
2026-01-25 09:21:16.64	340.08	32.80	-43.6	-44.5	20.6	0.00e+00	0	44	0	1735393280	59	3862
2026-01-25 09:21:17.65	340.01	32.59	-43.4	-44.3	20.7	0.00e+00	0	44	0	1738539008	58	3998
2026-01-25 09:21:18.66	339.95	32.39	-43.5	-44.4	20.6	0.00e+00	0	44	0	1741684736	58	4015
2026-01-25 09:21:19.66	339.89	32.19	-43.1	-44.0	21.0	0.00e+00	0	44	0	1744830464	58	3826
2026-01-25 09:21:20.67	339.82	31.98	-43.1	-43.9	21.0	0.00e+00	0	44	0	1747976192	58	3818
2026-01-25 09:21:21.68	339.76	31.78	-42.9	-43.7	21.1	0.00e+00	0	44	0	1751121920	57	3948
2026-01-25 09:21:22.69	339.70	31.58	-42.6	-43.5	21.4	0.00e+00	0	44	0	1754267648	57	3836
2026-01-25 09:21:23.70	339.64	31.38	-42.5	-43.3	21.6	0.00e+00	0	45	0	1757413376	56	3984
2026-01-25 09:21:24.71	339.58	31.18	-42.5	-43.3	21.7	0.00e+00	0	44	0	1760559104	56	3975
2026-01-25 09:21:25.72	339.52	30.99	-42.4	-43.2	21.8	0.00e+00	0	44	0	1763704832	56	3922
2026-01-25 09:21:26.72	339.46	30.79	-42.1	-42.9	22.1	0.00e+00	0	44	0	1766850560	56	3804
2026-01-25 09:21:27.73	339.41	30.60	-42.1	-42.9	22.1	0.00e+00	0	44	0	1769996288	56	3788
2026-01-25 09:21:28.74	339.35	30.41	-42.0	-42.8	22.2	0.00e+00	0	44	0	1773142016	56	3753
2026-01-25 09:21:29.75	339.29	30.22	-42.1	-42.9	22.1	0.00e+00	0	44	0	1776287744	56	3793
2026-01-25 09:21:30.76	339.24	30.02	-42.2	-43.0	22.1	0.00e+00	0	44	0	1779433472	56	3834
2026-01-25 09:21:31.77	339.18	29.84	-42.1	-42.8	22.2	0.00e+00	0	44	0	1782579200	56	3780
2026-01-25 09:21:32.78	339.13	29.65	-41.9	-42.7	22.2	0.00e+00	0	44	0	1785724928	55	3933
2026-01-25 09:21:33.78	339.08	29.46	-41.9	-42.7	22.2	0.00e+00	0	45	0	1788870656	55	3949
2026-01-25 09:21:34.79	339.03	29.28	-42.0	-42.7	22.2	0.00e+00	0	44	0	1792016384	55	3958
2026-01-25 09:21:35.80	338.97	29.09	-42.0	-42.8	22.1	0.00e+00	0	44	0	1795162112	55	3995
2026-01-25 09:21:36.81	338.92	28.91	-42.0	-42.8	22.1	0.00e+00	0	45	0	1798307840	55	3990
2026-01-25 09:21:37.81	338.87	28.73	-42.0	-42.8	22.1	0.00e+00	0	44	0	1801453568	55	3996
2026-01-25 09:21:38.82	338.82	28.55	-42.0	-42.8	22.2	0.00e+00	0	44	0	1804599296	55	3960
2026-01-25 09:21:39.83	338.77	28.37	-41.9	-42.7	22.2	0.00e+00	0	44	0	1807745024	55	3946
2026-01-25 09:21:40.84	338.72	28.19	-41.9	-42.7	22.2	0.00e+00	0	44	0	1810890752	55	3925
2026-01-25 09:21:41.85	338.68	28.01	-41.9	-42.7	22.2	0.00e+00	0	44	0	1814036480	55	3941
2026-01-25 09:21:42.86	338.63	27.84	-41.9	-42.7	22.2	0.00e+00	0	44	0	1817182208	55	3939
2026-01-25 09:21:43.87	338.58	27.66	-41.9	-42.7	22.2	0.00e+00	0	44	0	1820327936	55	3941
2026-01-25 09:21:44.88	338.53	27.49	-42.0	-42.8	22.1	0.00e+00	0	44	0	1823473664	55	3967
2026-01-25 09:21:45.88	338.49	27.32	-42.0	-42.7	22.0	0.00e+00	0	44	0	1826619392	55	3957
2026-01-25 09:21:46.89	338.44	27.15	-42.0	-42.8	22.0	0.00e+00	0	44	0	1829765120	55	3970
2026-01-25 09:21:47.90	338.40	26.98	-42.1	-42.9	21.9	0.00e+00	0	44	0	1832910848	55	4016
2026-01-25 09:21:48.91	338.35	26.81	-42.2	-43.0	21.8	0.00e+00	0	44	0	1836056576	55	4064
2026-01-25 09:21:49.92	338.31	26.64	-42.2	-43.0	21.8	0.00e+00	0	44	0	1839202304	55	4075
2026-01-25 09:21:50.93	338.27	26.47	-42.3	-43.1	21.7	0.00e+00	0	44	0	1842348032	55	4112
2026-01-25 09:21:51.94	338.22	26.30	-42.2	-43.0	21.7	0.00e+00	0	44	0	1845493760	55	4078
2026-01-25 09:21:52.94	338.18	26.14	-42.3	-43.1	21.7	0.00e+00	0	44	0	1848639488	55	4117
2026-01-25 09:21:53.95	338.14	25.97	-42.4	-43.2	21.6	0.00e+00	0	44	0	1851785216	55	4170
2026-01-25 09:21:54.96	338.10	25.81	-42.4	-43.3	21.5	0.00e+00	0	44	0	1854930944	55	4200
2026-01-25 09:21:55.97	338.06	25.65	-42.3	-43.2	21.6	0.00e+00	0	44	0	1858076672	55	4148
2026-01-25 09:21:56.98	338.02	25.49	-42.3	-43.2	21.6	0.00e+00	0	44	0	1861222400	55	4160
2026-01-25 09:21:57.98	337.98	25.33	-42.3	-43.1	21.6	0.00e+00	0	44	0	1864368128	55	4137
2026-01-25 09:21:58.99	337.94	25.17	-42.2	-43.1	21.6	0.00e+00	0	44	0	1867513856	55	4120
2026-01-25 09:22:00.00	337.90	25.01	-42.3	-43.1	21.5	0.00e+00	0	44	0	1870659584	55	4144
2026-01-25 09:22:01.01	337.86	24.85	-42.4	-43.2	21.5	0.00e+00	0	44	0	1873805312	55	4174
2026-01-25 09:22:02.02	337.82	24.69	-42.4	-43.2	21.4	0.00e+00	0	44	0	1876951040	55	4188
2026-01-25 09:22:03.03	337.78	24.54	-42.3	-43.2	21.4	0.00e+00	0	44	0	1880096768	55	4159
2026-01-25 09:22:04.04	337.75	24.38	-42.4	-43.3	21.3	0.00e+00	0	44	0	1883242496	55	4196
2026-01-25 09:22:05.05	337.71	24.23	-42.3	-43.1	21.4	0.00e+00	0	44	0	1886388224	55	4139
2026-01-25 09:22:06.06	337.67	24.07	-42.2	-43.0	21.5	0.00e+00	0	44	0	1889533952	55	4078
2026-01-25 09:22:07.06	337.64	23.92	-42.3	-43.2	21.4	0.00e+00	0	44	0	1892679680	55	4158
2026-01-25 09:22:08.07	337.60	23.77	-42.2	-43.0	21.5	0.00e+00	0	44	0	1895825408	55	4079
2026-01-25 09:22:09.08	337.56	23.62	-42.2	-43.0	21.5	0.00e+00	0	44	0	1898971136	55	4083
2026-01-25 09:22:10.09	337.53	23.47	-42.2	-43.1	21.4	0.00e+00	0	44	0	1902116864	55	4121
2026-01-25 09:22:11.10	337.49	23.32	-42.2	-43.0	21.5	0.00e+00	0	44	0	1905262592	55	4090
2026-01-25 09:22:12.11	337.46	23.17	-42.1	-43.0	21.6	0.00e+00	0	44	0	1908408320	55	4052
2026-01-25 09:22:13.11	337.43	23.03	-42.1	-43.0	21.6	0.00e+00	0	44	0	1911554048	55	4063
2026-01-25 09:22:14.12	337.39	22.88	-42.0	-42.8	21.7	0.00e+00	0	44	0	1914699776	55	3997
2026-01-25 09:22:15.13	337.36	22.73	-42.1	-42.9	21.7	0.00e+00	0	44	0	1917845504	55	4023
2026-01-25 09:22:16.14	337.33	22.59	-42.1	-42.9	21.7	0.00e+00	0	44	0	1920991232	55	4022
2026-01-25 09:22:17.14	337.29	22.45	-42.0	-42.8	21.8	0.00e+00	0	44	0	1924136960	55	3981
2026-01-25 09:22:18.15	337.26	22.30	-42.1	-42.9	21.8	0.00e+00	0	44	0	1927282688	55	4019
2026-01-25 09:22:19.16	337.23	22.16	-42.0	-42.8	21.8	0.00e+00	0	44	0	1930428416	55	4002
2026-01-25 09:22:20.17	337.20	22.02	-41.8	-42.6	22.1	0.00e+00	0	44	0	1933574144	55	3872
2026-01-25 09:22:21.18	337.17	21.88	-41.7	-42.5	22.1	0.00e+00	0	44	0	1936719872	55	3860
2026-01-25 09:22:22.18	337.14	21.74	-41.7	-42.5	22.1	0.00e+00	0	44	0	1939865600	55	3849
2026-01-25 09:22:23.19	337.10	21.60	-41.7	-42.5	22.2	0.00e+00	0	44	0	1944059904	55	3831
2026-01-25 09:22:24.20	337.07	21.46	-41.6	-42.4	22.2	0.00e+00	0	44	0	1947205632	55	3817
2026-01-25 09:22:25.21	337.04	21.32	-41.7	-42.5	22.2	0.00e+00	0	44	0	1950351360	55	3836
2026-01-25 09:22:26.22	337.01	21.18	-41.6	-42.4	22.3	0.00e+00	0	44	0	1952448512	55	3797
2026-01-25 09:22:27.22	336.98	21.05	-41.6	-42.4	22.3	0.00e+00	0	44	0	1955594240	55	3798
2026-01-25 09:22:28.23	336.96	20.91	-41.7	-42.5	22.2	0.00e+00	0	44	0	1958739968	55	3840
2026-01-25 09:22:29.24	336.93	20.78	-41.7	-42.5	22.1	0.00e+00	0	44	0	1961885696	55	3863
2026-01-25 09:22:30.25	336.90	20.64	-41.6	-42.4	22.2	0.00e+00	0	44	0	1965031424	55	3813
2026-01-25 09:22:31.26	336.87	20.51	-41.7	-42.5	22.2	0.00e+00	0	44	0	1968177152	55	3842
2026-01-25 09:22:32.26	336.84	20.38	-41.8	-42.6	22.1	0.00e+00	0	44	0	1971322880	55	3876
2026-01-25 09:22:33.27	336.81	20.25	-41.7	-42.5	22.1	0.00e+00	0	45	0	1974468608	55	3860
2026-01-25 09:22:34.28	336.79	20.11	-41.7	-42.5	22.2	0.00e+00	0	44	0	1977614336	55	3850
2026-01-25 09:22:35.29	336.76	19.98	-41.9	-42.7	22.1	0.00e+00	0	44	0	1980760064	55	3916
2026-01-25 09:22:36.30	336.73	19.85	-41.9	-42.7	22.0	0.00e+00	0	44	0	1984954368	55	3937
2026-01-25 09:22:37.30	336.71	19.72	-41.9	-42.7	22.0	0.00e+00	0	45	0	1988100096	55	3948
2026-01-25 09:22:38.31	336.68	19.60	-41.9	-42.7	22.0	0.00e+00	0	45	0	1991245824	55	3956
2026-01-25 09:22:39.32	336.65	19.47	-42.0	-42.8	21.9	0.00e+00	0	44	0	1994391552	55	3973
2026-01-25 09:22:40.33	336.63	19.34	-42.1	-42.9	21.9	0.00e+00	0	44	0	1997537280	55	4016
2026-01-25 09:22:41.34	336.60	19.21	-42.1	-42.9	21.9	0.00e+00	0	44	0	1999634432	55	4024
2026-01-25 09:22:42.34	336.58	19.09	-42.2	-43.0	21.7	0.00e+00	0	45	0	2002780160	55	4084
2026-01-25 09:22:43.35	336.55	18.96	-42.3	-43.1	21.6	0.00e+00	0	44	0	2005925888	55	4138
2026-01-25 09:22:44.36	336.53	18.84	-42.3	-43.1	21.6	0.00e+00	0	44	0	2009071616	55	4138
2026-01-25 09:22:45.37	336.50	18.71	-42.3	-43.2	21.6	0.00e+00	0	44	0	2012217344	55	4147
2026-01-25 09:22:46.38	336.48	18.59	-42.3	-43.2	21.5	0.00e+00	0	45	0	2015363072	55	4165
2026-01-25 09:22:47.39	336.45	18.47	-42.3	-43.2	21.6	0.00e+00	0	44	0	2018508800	55	4152
2026-01-25 09:22:48.40	336.43	18.34	-42.4	-43.3	21.5	0.00e+00	0	45	0	2022703104	55	4198
2026-01-25 09:22:49.40	336.40	18.22	-42.4	-43.3	21.5	0.00e+00	0	45	0	2025848832	55	4202
2026-01-25 09:22:50.41	336.38	18.10	-42.6	-43.4	21.3	0.00e+00	0	44	0	2028994560	55	4291
2026-01-25 09:22:51.42	336.36	17.98	-42.5	-43.4	21.3	0.00e+00	0	45	0	2032140288	55	4273
2026-01-25 09:22:52.43	336.33	17.86	-42.7	-43.6	21.2	0.00e+00	0	44	0	2035286016	55	4345
2026-01-25 09:22:53.44	336.31	17.74	-42.5	-43.4	21.3	0.00e+00	0	44	0	2038431744	55	4270
2026-01-25 09:22:54.44	336.29	17.62	-42.7	-43.6	21.2	0.00e+00	0	45	0	2041577472	55	4354
2026-01-25 09:22:55.45	336.27	17.50	-42.8	-43.7	21.2	0.00e+00	0	45	0	2044723200	56	4186
2026-01-25 09:22:56.46	336.24	17.39	-42.9	-43.8	21.0	0.00e+00	0	44	0	2046820352	56	4237
2026-01-25 09:22:57.47	336.22	17.27	-42.9	-43.9	21.0	0.00e+00	0	44	0	2049966080	56	4251
