passes_logs/2026/01/25/R3.2S_Murmansk/R3.2S_Murmansk__20260125_012414_SUOMI_NPP_rec.log

#Pass ID: 20260125_012414_SUOMI NPP
#Satellite: SUOMI NPP
#Configuration: NPP
#almurnet v.1.7.20251203
#Start time: 2026-01-25 01:24:17

#Version: 2.2.20231116
#Station: R3.2S_Murmansk
#Location: 33.079688 lon 68.888172 lat
#TLE: 1 37849U 11061A   26024.54906732  .00000185  00000+0  10878-3 0  9990
#TLE: 2 37849  98.7821 326.5159 0002200  47.3746 312.7615 14.19529340738061

#Time	Az	El	Level	Level2	SNR	BER	BlckErr	Temp	State	Recorded	gain1	gain2
2026-01-25 01:24:17.06	27.22	2.15	-52.2	-67.1	3.8	1.49e+00	0	41	0	0	76	19455
2026-01-25 01:24:18.06	27.21	2.21	-52.1	-67.0	3.8	1.49e+00	0	41	104	0	74	21710
2026-01-25 01:24:19.07	27.19	2.28	-52.1	-67.0	3.8	1.49e+00	0	41	104	0	74	21692
2026-01-25 01:24:20.07	27.18	2.34	-52.1	-67.0	3.8	1.49e+00	0	41	104	0	74	21557
2026-01-25 01:24:21.08	27.17	2.41	-52.1	-66.9	3.8	1.49e+00	0	41	104	0	74	21500
2026-01-25 01:24:22.09	27.15	2.47	-52.1	-66.9	3.8	1.49e+00	0	41	104	0	74	21483
2026-01-25 01:24:23.10	27.14	2.54	-52.1	-66.9	3.8	1.49e+00	0	41	104	0	74	21308
2026-01-25 01:24:24.11	27.13	2.60	-52.1	-66.9	3.8	1.49e+00	0	41	104	0	74	21364
2026-01-25 01:24:25.12	27.11	2.67	-52.1	-66.8	3.8	1.49e+00	0	41	104	0	74	21196
2026-01-25 01:24:26.13	27.10	2.73	-52.1	-66.8	3.8	1.49e+00	0	41	104	0	74	21253
2026-01-25 01:24:27.14	27.09	2.80	-52.1	-66.8	3.8	1.49e+00	0	41	104	0	74	21253
2026-01-25 01:24:28.15	27.07	2.87	-52.1	-66.8	3.8	1.49e+00	0	41	104	0	74	21128
2026-01-25 01:24:29.15	27.06	2.93	-52.1	-66.8	3.8	1.49e+00	0	41	104	0	74	21159
2026-01-25 01:24:30.16	27.05	3.00	-52.1	-66.9	3.8	1.49e+00	0	41	104	0	74	21296
2026-01-25 01:24:31.17	27.03	3.06	-52.1	-66.9	3.8	1.49e+00	0	41	104	0	74	21290
2026-01-25 01:24:32.18	27.02	3.13	-52.1	-67.0	3.8	1.49e+00	0	41	104	0	74	21508
2026-01-25 01:24:33.19	27.00	3.20	-52.1	-67.0	3.8	1.49e+00	0	41	104	0	74	21661
2026-01-25 01:24:34.20	26.99	3.27	-52.1	-67.1	3.8	1.49e+00	0	41	104	0	74	21804
2026-01-25 01:24:35.21	26.98	3.33	-52.1	-67.1	3.8	1.49e+00	0	41	104	0	74	21781
2026-01-25 01:24:36.22	26.96	3.40	-52.1	-67.0	3.8	1.49e+00	0	42	104	0	74	21631
2026-01-25 01:24:37.23	26.95	3.47	-52.1	-66.8	3.8	1.49e+00	0	41	104	0	74	21232
2026-01-25 01:24:38.23	26.93	3.53	-52.1	-66.6	3.8	1.49e+00	0	41	104	0	74	20543
2026-01-25 01:24:39.24	26.92	3.60	-52.1	-66.2	3.8	1.49e+00	0	41	104	0	74	19709
2026-01-25 01:24:40.25	26.90	3.67	-52.1	-65.8	3.8	1.49e+00	0	41	104	0	74	18886
2026-01-25 01:24:41.26	26.89	3.74	-52.0	-65.3	3.8	1.49e+00	0	42	104	0	74	17735
2026-01-25 01:24:42.27	26.88	3.81	-52.0	-64.4	4.0	1.48e+00	0	42	104	0	74	16090
2026-01-25 01:24:43.28	26.86	3.88	-51.9	-63.2	4.3	1.43e+00	0	42	0	0	74	13895
2026-01-25 01:24:44.29	26.85	3.94	-51.8	-61.9	4.8	1.01e+00	0	42	0	1048576	74	12044
2026-01-25 01:24:45.30	26.83	4.01	-51.6	-60.6	5.6	6.14e-01	0	42	0	3145728	74	10312
2026-01-25 01:24:46.31	26.82	4.08	-51.3	-58.8	6.9	2.99e-01	0	42	0	4194304	74	8434
2026-01-25 01:24:47.32	26.80	4.15	-51.0	-57.5	8.2	1.10e-01	0	42	0	6291456	74	7221
2026-01-25 01:24:48.33	26.78	4.22	-50.5	-55.9	9.8	1.61e-02	0	41	0	8388608	73	6389
2026-01-25 01:24:49.33	26.77	4.29	-50.1	-54.7	11.0	4.12e-03	0	42	0	10485760	72	5894
2026-01-25 01:24:50.34	26.75	4.36	-50.0	-54.3	11.6	7.84e-04	0	42	0	11534336	71	5980
2026-01-25 01:24:51.35	26.74	4.43	-49.1	-52.5	13.4	3.89e-05	0	42	0	13631488	70	5140
2026-01-25 01:24:52.36	26.72	4.50	-48.8	-52.0	14.0	7.00e-07	0	42	0	15728640	69	5129
2026-01-25 01:24:53.37	26.71	4.57	-48.3	-51.1	14.8	3.80e-06	0	42	0	17825792	68	4917
2026-01-25 01:24:54.37	26.69	4.64	-47.9	-50.5	15.3	0.00e+00	0	42	0	19922944	67	4869
2026-01-25 01:24:55.38	26.67	4.71	-47.8	-50.4	15.5	0.00e+00	0	42	0	22020096	67	4765
2026-01-25 01:24:56.39	26.66	4.78	-47.6	-50.0	15.8	0.00e+00	0	42	0	23068672	67	4585
2026-01-25 01:24:57.40	26.64	4.85	-47.5	-50.0	15.9	0.00e+00	0	42	0	25165824	66	4826
2026-01-25 01:24:58.41	26.63	4.92	-47.8	-50.4	15.5	0.00e+00	0	42	0	27262976	66	5064
2026-01-25 01:24:59.42	26.61	4.99	-47.6	-50.1	15.7	0.00e+00	0	42	0	29360128	66	4899
2026-01-25 01:25:00.43	26.59	5.07	-47.4	-49.8	16.1	0.00e+00	0	42	0	31457280	66	4722
2026-01-25 01:25:01.43	26.58	5.14	-48.3	-51.1	14.9	5.18e-05	0	42	0	32505856	68	4897
2026-01-25 01:25:02.44	26.56	5.21	-47.2	-49.5	16.5	0.00e+00	0	42	0	34603008	66	4549
2026-01-25 01:25:03.45	26.54	5.28	-49.0	-52.3	13.4	2.88e-02	0	42	0	36700160	70	5037
2026-01-25 01:25:04.46	26.53	5.35	-47.0	-49.1	16.8	1.50e-06	0	42	0	38797312	66	4356
2026-01-25 01:25:05.47	26.51	5.43	-48.8	-51.9	13.8	1.16e-02	0	42	0	40894464	69	5047
2026-01-25 01:25:06.47	26.49	5.50	-47.1	-49.2	16.7	0.00e+00	0	42	0	41943040	66	4417
2026-01-25 01:25:07.48	26.48	5.57	-46.8	-48.8	17.1	0.00e+00	0	42	0	44040192	65	4477
2026-01-25 01:25:08.49	26.46	5.64	-46.7	-48.8	17.2	0.00e+00	0	42	0	46137344	65	4442
2026-01-25 01:25:09.50	26.44	5.72	-47.0	-49.1	16.9	0.00e+00	0	42	0	48234496	65	4632
2026-01-25 01:25:10.51	26.42	5.79	-46.5	-48.5	17.5	0.00e+00	0	42	0	50331648	65	4321
2026-01-25 01:25:11.51	26.41	5.86	-46.7	-48.8	17.2	0.00e+00	0	42	0	51380224	65	4450
2026-01-25 01:25:12.52	26.39	5.94	-46.5	-48.5	17.5	0.00e+00	0	42	0	53477376	64	4549
2026-01-25 01:25:13.53	26.37	6.01	-46.8	-48.8	17.3	0.00e+00	0	42	0	55574528	64	4727
2026-01-25 01:25:14.54	26.35	6.09	-46.6	-48.6	17.4	0.00e+00	0	42	0	57671680	64	4611
2026-01-25 01:25:15.55	26.33	6.16	-46.5	-48.5	17.5	0.00e+00	0	42	0	59768832	64	4568
2026-01-25 01:25:16.55	26.32	6.23	-46.3	-48.2	17.9	0.00e+00	0	42	0	60817408	64	4410
2026-01-25 01:25:17.56	26.30	6.31	-46.9	-49.0	17.0	0.00e+00	0	42	0	62914560	64	4865
2026-01-25 01:25:18.57	26.28	6.38	-46.7	-48.7	17.3	0.00e+00	0	42	0	65011712	64	4686
2026-01-25 01:25:19.58	26.26	6.46	-46.5	-48.4	17.6	0.00e+00	0	42	0	67108864	64	4540
2026-01-25 01:25:20.59	26.24	6.54	-46.6	-48.6	17.5	0.00e+00	0	42	0	69206016	64	4628
2026-01-25 01:25:21.60	26.22	6.61	-46.3	-48.2	17.9	0.00e+00	0	42	0	70254592	64	4413
2026-01-25 01:25:22.61	26.20	6.69	-46.6	-48.6	17.5	0.00e+00	0	42	0	72351744	64	4620
2026-01-25 01:25:23.61	26.19	6.76	-46.6	-48.5	17.6	0.00e+00	0	42	0	74448896	64	4592
2026-01-25 01:25:24.62	26.17	6.84	-46.5	-48.4	17.7	0.00e+00	0	42	0	76546048	64	4522
2026-01-25 01:25:25.63	26.15	6.92	-46.5	-48.4	17.7	0.00e+00	0	42	0	78643200	64	4538
2026-01-25 01:25:26.64	26.13	6.99	-46.4	-48.3	17.8	0.00e+00	0	42	0	79691776	64	4460
2026-01-25 01:25:27.65	26.11	7.07	-46.6	-48.5	17.6	0.00e+00	0	42	0	81788928	64	4574
2026-01-25 01:25:28.66	26.09	7.15	-46.5	-48.4	17.7	0.00e+00	0	42	0	83886080	64	4519
2026-01-25 01:25:29.67	26.07	7.23	-46.4	-48.3	17.9	0.00e+00	0	42	0	85983232	64	4455
2026-01-25 01:25:30.67	26.05	7.30	-46.0	-47.8	18.3	0.00e+00	0	42	0	88080384	64	4206
2026-01-25 01:25:31.68	26.03	7.38	-46.3	-48.2	18.0	0.00e+00	0	42	0	90177536	64	4401
2026-01-25 01:25:32.69	26.01	7.46	-46.2	-47.9	18.2	0.00e+00	0	42	0	91226112	64	4285
2026-01-25 01:25:33.70	25.99	7.54	-46.3	-48.1	18.1	0.00e+00	0	42	0	93323264	64	4377
2026-01-25 01:25:34.71	25.97	7.62	-46.2	-48.0	18.2	0.00e+00	0	42	0	95420416	64	4322
2026-01-25 01:25:35.72	25.95	7.70	-46.3	-48.1	18.1	0.00e+00	0	42	0	97517568	64	4350
2026-01-25 01:25:36.73	25.93	7.77	-46.0	-47.8	18.5	0.00e+00	0	42	0	98566144	63	4448
2026-01-25 01:25:37.74	25.91	7.85	-46.2	-47.9	18.3	0.00e+00	0	42	0	100663296	63	4529
2026-01-25 01:25:38.75	25.88	7.93	-46.0	-47.7	18.6	0.00e+00	0	42	0	102760448	63	4417
2026-01-25 01:25:39.76	25.86	8.01	-46.1	-47.8	18.5	0.00e+00	0	42	0	104857600	63	4459
2026-01-25 01:25:40.77	25.84	8.09	-46.1	-47.8	18.5	0.00e+00	0	42	0	106954752	63	4449
2026-01-25 01:25:41.78	25.82	8.17	-46.1	-47.9	18.4	0.00e+00	0	42	0	109051904	63	4506
2026-01-25 01:25:42.79	25.80	8.26	-45.9	-47.6	18.7	0.00e+00	0	42	0	110100480	63	4358
2026-01-25 01:25:43.80	25.78	8.34	-45.9	-47.6	18.7	0.00e+00	0	42	0	112197632	63	4364
2026-01-25 01:25:44.80	25.76	8.42	-46.0	-47.7	18.6	0.00e+00	0	42	0	114294784	63	4418
2026-01-25 01:25:45.81	25.73	8.50	-45.9	-47.6	18.8	0.00e+00	0	42	0	116391936	63	4356
2026-01-25 01:25:46.82	25.71	8.58	-46.0	-47.6	18.7	0.00e+00	0	42	0	118489088	63	4371
2026-01-25 01:25:47.83	25.69	8.66	-46.1	-47.8	18.6	0.00e+00	0	42	0	119537664	63	4447
2026-01-25 01:25:48.84	25.67	8.74	-46.0	-47.7	18.7	0.00e+00	0	42	0	121634816	63	4410
2026-01-25 01:25:49.85	25.64	8.83	-45.8	-47.4	18.9	0.00e+00	0	42	0	123731968	63	4258
2026-01-25 01:25:50.86	25.62	8.91	-45.9	-47.5	18.9	0.00e+00	0	42	0	125829120	63	4312
2026-01-25 01:25:51.87	25.60	8.99	-45.7	-47.3	19.1	0.00e+00	0	42	0	127926272	63	4197
2026-01-25 01:25:52.87	25.58	9.08	-45.9	-47.5	18.9	0.00e+00	0	42	0	128974848	63	4308
2026-01-25 01:25:53.88	25.55	9.16	-45.9	-47.5	18.9	0.00e+00	0	42	0	131072000	63	4326
2026-01-25 01:25:54.89	25.53	9.24	-45.9	-47.6	18.8	0.00e+00	0	42	0	133169152	63	4342
2026-01-25 01:25:55.90	25.51	9.33	-45.9	-47.5	18.9	0.00e+00	0	42	0	135266304	63	4308
2026-01-25 01:25:56.91	25.48	9.41	-45.7	-47.3	19.1	0.00e+00	0	42	0	137363456	63	4207
2026-01-25 01:25:57.92	25.46	9.50	-45.5	-47.1	19.3	0.00e+00	0	42	0	138412032	63	4111
2026-01-25 01:25:58.92	25.43	9.58	-45.6	-47.2	19.2	0.00e+00	0	42	0	140509184	63	4166
2026-01-25 01:25:59.93	25.41	9.67	-45.5	-47.0	19.4	0.00e+00	0	42	0	142606336	63	4075
2026-01-25 01:26:00.94	25.39	9.75	-45.6	-47.2	19.2	0.00e+00	0	42	0	144703488	63	4163
2026-01-25 01:26:01.95	25.36	9.84	-45.6	-47.1	19.3	0.00e+00	0	42	0	146800640	63	4118
2026-01-25 01:26:02.96	25.34	9.92	-45.5	-47.0	19.4	0.00e+00	0	42	0	147849216	62	4297
2026-01-25 01:26:03.97	25.31	10.01	-45.5	-47.0	19.4	0.00e+00	0	42	0	149946368	62	4309
2026-01-25 01:26:04.97	25.29	10.10	-45.4	-46.9	19.4	0.00e+00	0	42	0	152043520	62	4274
2026-01-25 01:26:05.98	25.26	10.18	-45.5	-47.0	19.4	0.00e+00	0	42	0	154140672	62	4320
2026-01-25 01:26:06.99	25.24	10.27	-45.4	-46.8	19.6	0.00e+00	0	42	0	156237824	62	4229
2026-01-25 01:26:08.00	25.21	10.36	-45.3	-46.7	19.7	0.00e+00	0	42	0	157286400	62	4189
2026-01-25 01:26:09.01	25.18	10.45	-45.2	-46.7	19.7	0.00e+00	0	42	0	159383552	62	4162
2026-01-25 01:26:10.01	25.16	10.53	-45.2	-46.6	19.7	0.00e+00	0	42	0	161480704	62	4144
2026-01-25 01:26:11.02	25.13	10.62	-45.1	-46.5	19.8	0.00e+00	0	42	0	163577856	62	4084
2026-01-25 01:26:12.03	25.11	10.71	-45.0	-46.4	19.9	0.00e+00	0	42	0	165675008	62	4043
2026-01-25 01:26:13.04	25.08	10.80	-45.1	-46.5	19.8	0.00e+00	0	42	0	166723584	62	4080
2026-01-25 01:26:14.05	25.05	10.89	-45.0	-46.4	19.9	0.00e+00	0	42	0	168820736	61	4272
2026-01-25 01:26:15.05	25.03	10.98	-44.9	-46.2	20.1	0.00e+00	0	42	0	170917888	61	4192
2026-01-25 01:26:16.06	25.00	11.07	-44.9	-46.2	20.2	0.00e+00	0	42	0	173015040	61	4188
2026-01-25 01:26:17.07	24.97	11.16	-44.9	-46.2	20.2	0.00e+00	0	42	0	175112192	61	4177
2026-01-25 01:26:18.08	24.94	11.25	-44.9	-46.2	20.1	0.00e+00	0	42	0	176160768	61	4178
2026-01-25 01:26:19.09	24.92	11.34	-44.8	-46.1	20.2	0.00e+00	0	42	0	178257920	61	4126
2026-01-25 01:26:20.09	24.89	11.43	-44.7	-46.1	20.3	0.00e+00	0	42	0	180355072	61	4105
2026-01-25 01:26:21.10	24.86	11.52	-44.6	-45.9	20.5	0.00e+00	0	42	0	182452224	61	4014
2026-01-25 01:26:22.11	24.83	11.62	-44.7	-46.0	20.4	0.00e+00	0	42	0	184549376	61	4059
2026-01-25 01:26:23.12	24.81	11.71	-44.5	-45.8	20.5	0.00e+00	0	42	0	185597952	61	3977
2026-01-25 01:26:24.12	24.78	11.80	-44.5	-45.8	20.5	0.00e+00	0	42	0	187695104	60	4235
2026-01-25 01:26:25.13	24.75	11.89	-44.5	-45.7	20.6	0.00e+00	0	42	0	189792256	60	4188
2026-01-25 01:26:26.14	24.72	11.99	-44.5	-45.8	20.6	0.00e+00	0	42	0	191889408	60	4200
2026-01-25 01:26:27.15	24.69	12.08	-44.5	-45.7	20.6	0.00e+00	0	42	0	193986560	60	4183
2026-01-25 01:26:28.16	24.66	12.18	-44.4	-45.7	20.7	0.00e+00	0	42	0	196083712	60	4161
2026-01-25 01:26:29.17	24.63	12.27	-44.3	-45.5	20.8	0.00e+00	0	42	0	197132288	60	4094
2026-01-25 01:26:30.18	24.60	12.37	-44.4	-45.7	20.6	0.00e+00	0	42	0	199229440	60	4156
2026-01-25 01:26:31.19	24.57	12.46	-44.3	-45.5	20.8	0.00e+00	0	42	0	201326592	60	4074
2026-01-25 01:26:32.20	24.54	12.56	-44.3	-45.5	20.8	0.00e+00	0	42	0	203423744	60	4098
2026-01-25 01:26:33.21	24.51	12.65	-44.2	-45.5	20.8	0.00e+00	0	42	0	204472320	60	4065
2026-01-25 01:26:34.21	24.48	12.75	-44.3	-45.6	20.8	0.00e+00	0	42	0	206569472	60	4105
2026-01-25 01:26:35.22	24.45	12.85	-44.2	-45.4	20.9	0.00e+00	0	42	0	208666624	60	4040
2026-01-25 01:26:36.23	24.42	12.94	-44.2	-45.4	20.9	0.00e+00	0	42	0	210763776	60	4032
2026-01-25 01:26:37.24	24.39	13.04	-44.1	-45.4	21.0	0.00e+00	0	42	0	212860928	60	4006
2026-01-25 01:26:38.25	24.35	13.14	-44.2	-45.4	20.9	0.00e+00	0	42	0	213909504	60	4042
2026-01-25 01:26:39.25	24.32	13.24	-44.2	-45.5	20.9	0.00e+00	0	42	0	216006656	60	4061
2026-01-25 01:26:40.26	24.29	13.33	-44.2	-45.4	20.9	0.00e+00	0	42	0	218103808	60	4035
2026-01-25 01:26:41.27	24.26	13.43	-44.3	-45.5	20.8	0.00e+00	0	43	0	220200960	60	4095
2026-01-25 01:26:42.28	24.22	13.53	-44.2	-45.5	20.9	0.00e+00	0	42	0	222298112	60	4069
2026-01-25 01:26:43.29	24.19	13.63	-44.4	-45.6	20.8	0.00e+00	0	43	0	224395264	60	4127
2026-01-25 01:26:44.30	24.16	13.73	-44.2	-45.4	20.9	0.00e+00	0	43	0	225443840	60	4047
2026-01-25 01:26:45.31	24.12	13.83	-44.1	-45.4	21.0	0.00e+00	0	42	0	227540992	60	4011
2026-01-25 01:26:46.32	24.09	13.94	-44.2	-45.4	21.0	0.00e+00	0	42	0	229638144	60	4031
2026-01-25 01:26:47.32	24.06	14.04	-44.1	-45.3	21.1	0.00e+00	0	42	0	231735296	60	4003
2026-01-25 01:26:48.33	24.02	14.14	-44.4	-45.6	21.1	0.00e+00	0	42	0	232783872	59	4387
2026-01-25 01:26:49.34	23.99	14.24	-44.6	-45.9	20.9	0.00e+00	0	43	0	234881024	59	4496
2026-01-25 01:26:50.35	23.95	14.34	-44.4	-45.7	21.0	0.00e+00	0	43	0	236978176	59	4407
2026-01-25 01:26:51.36	23.92	14.45	-44.5	-45.7	21.0	0.00e+00	0	42	0	239075328	59	4418
2026-01-25 01:26:52.37	23.88	14.55	-44.5	-45.8	21.0	0.00e+00	0	42	0	241172480	59	4444
2026-01-25 01:26:53.37	23.85	14.65	-44.5	-45.7	21.0	0.00e+00	0	42	0	243269632	59	4416
2026-01-25 01:26:54.38	23.81	14.76	-44.6	-45.8	20.9	0.00e+00	0	42	0	244318208	59	4493
2026-01-25 01:26:55.39	23.78	14.86	-44.6	-45.8	20.9	0.00e+00	0	42	0	246415360	59	4487
2026-01-25 01:26:56.40	23.74	14.97	-44.5	-45.7	21.0	0.00e+00	0	42	0	248512512	59	4427
2026-01-25 01:26:57.41	23.70	15.07	-44.6	-45.8	20.9	0.00e+00	0	42	0	250609664	59	4483
2026-01-25 01:26:58.41	23.67	15.18	-44.6	-45.8	20.9	0.00e+00	0	42	0	252706816	59	4492
2026-01-25 01:26:59.42	23.63	15.29	-44.6	-45.9	20.9	0.00e+00	0	42	0	253755392	59	4519
2026-01-25 01:27:00.43	23.59	15.39	-44.5	-45.7	21.0	0.00e+00	0	42	0	255852544	59	4440
2026-01-25 01:27:01.44	23.55	15.50	-44.6	-45.9	20.9	0.00e+00	0	42	0	257949696	59	4511
2026-01-25 01:27:02.45	23.52	15.61	-44.6	-45.9	20.9	0.00e+00	0	42	0	260046848	59	4509
2026-01-25 01:27:03.45	23.48	15.72	-44.7	-46.0	20.8	0.00e+00	0	42	0	261095424	59	4577
2026-01-25 01:27:04.46	23.44	15.83	-44.4	-45.6	20.9	0.00e+00	0	42	0	263192576	60	4124
2026-01-25 01:27:05.47	23.40	15.93	-44.3	-45.6	20.9	0.00e+00	0	42	0	265289728	60	4110
2026-01-25 01:27:06.48	23.36	16.04	-44.4	-45.6	20.9	0.00e+00	0	42	0	267386880	60	4135
2026-01-25 01:27:07.49	23.32	16.16	-44.3	-45.6	21.0	0.00e+00	0	42	0	269484032	60	4103
2026-01-25 01:27:08.49	23.28	16.27	-44.3	-45.6	21.0	0.00e+00	0	42	0	271581184	60	4112
2026-01-25 01:27:09.50	23.24	16.38	-44.4	-45.7	20.8	0.00e+00	0	42	0	272629760	60	4176
2026-01-25 01:27:10.51	23.20	16.49	-44.4	-45.6	20.9	0.00e+00	0	42	0	274726912	60	4139
2026-01-25 01:27:11.52	23.16	16.60	-44.4	-45.7	20.9	0.00e+00	0	42	0	276824064	60	4155
2026-01-25 01:27:12.53	23.12	16.71	-44.4	-45.7	20.9	0.00e+00	0	42	0	278921216	60	4147
2026-01-25 01:27:13.54	23.08	16.83	-44.3	-45.6	20.9	0.00e+00	0	42	0	281018368	60	4104
2026-01-25 01:27:14.55	23.03	16.94	-44.5	-45.7	20.8	0.00e+00	0	42	0	282066944	60	4187
2026-01-25 01:27:15.56	22.99	17.06	-44.6	-45.9	20.8	0.00e+00	0	42	0	284164096	60	4244
2026-01-25 01:27:16.57	22.95	17.17	-44.5	-45.8	20.8	0.00e+00	0	42	0	286261248	60	4217
2026-01-25 01:27:17.57	22.91	17.29	-44.6	-45.9	20.8	0.00e+00	0	42	0	288358400	60	4247
2026-01-25 01:27:18.58	22.86	17.40	-44.6	-45.8	20.8	0.00e+00	0	42	0	290455552	60	4232
2026-01-25 01:27:19.59	22.82	17.52	-44.8	-46.1	20.5	0.00e+00	0	42	0	291504128	60	4366
2026-01-25 01:27:20.60	22.77	17.64	-44.5	-45.8	20.8	0.00e+00	0	42	0	293601280	60	4213
2026-01-25 01:27:21.61	22.73	17.75	-44.6	-45.9	20.8	0.00e+00	0	43	0	295698432	60	4243
2026-01-25 01:27:22.61	22.68	17.87	-44.8	-46.1	20.5	0.00e+00	0	42	0	297795584	60	4384
2026-01-25 01:27:23.62	22.64	17.99	-44.6	-45.9	20.7	0.00e+00	0	42	0	299892736	60	4267
2026-01-25 01:27:24.63	22.59	18.11	-44.5	-45.8	20.9	0.00e+00	0	43	0	300941312	60	4203
2026-01-25 01:27:25.64	22.55	18.23	-44.5	-45.8	20.8	0.00e+00	0	42	0	303038464	60	4229
2026-01-25 01:27:26.65	22.50	18.35	-44.5	-45.8	20.9	0.00e+00	0	42	0	305135616	60	4198
2026-01-25 01:27:27.65	22.45	18.47	-44.5	-45.8	20.8	0.00e+00	0	42	0	307232768	60	4230
2026-01-25 01:27:28.66	22.41	18.59	-44.4	-45.7	21.0	0.00e+00	0	42	0	309329920	60	4170
2026-01-25 01:27:29.67	22.36	18.71	-44.5	-45.8	20.9	0.00e+00	0	42	0	311427072	60	4206
2026-01-25 01:27:30.68	22.31	18.83	-44.4	-45.7	21.0	0.00e+00	0	43	0	312475648	60	4154
2026-01-25 01:27:31.68	22.26	18.96	-44.3	-45.5	21.2	0.00e+00	0	42	0	314572800	60	4060
2026-01-25 01:27:32.69	22.21	19.08	-44.1	-45.3	21.3	0.00e+00	0	42	0	316669952	60	3980
2026-01-25 01:27:33.70	22.16	19.21	-44.1	-45.3	21.3	0.00e+00	0	42	0	318767104	60	3993
2026-01-25 01:27:34.71	22.11	19.33	-44.1	-45.3	21.3	0.00e+00	0	42	0	319815680	60	3985
2026-01-25 01:27:35.72	22.06	19.46	-44.2	-45.4	21.2	0.00e+00	0	42	0	321912832	60	4018
2026-01-25 01:27:36.73	22.01	19.58	-44.4	-45.6	21.4	0.00e+00	0	43	0	324009984	59	4343
2026-01-25 01:27:37.73	21.96	19.71	-44.3	-45.5	21.4	0.00e+00	0	42	0	326107136	59	4337
2026-01-25 01:27:38.74	21.91	19.84	-44.5	-45.7	21.3	0.00e+00	0	42	0	328204288	59	4419
2026-01-25 01:27:39.75	21.86	19.96	-44.4	-45.6	21.3	0.00e+00	0	42	0	329252864	59	4357
2026-01-25 01:27:40.76	21.80	20.09	-44.3	-45.5	21.4	0.00e+00	0	42	0	331350016	59	4314
2026-01-25 01:27:41.77	21.75	20.22	-44.2	-45.4	21.6	0.00e+00	0	43	0	333447168	59	4246
2026-01-25 01:27:42.77	21.70	20.35	-44.3	-45.5	21.5	0.00e+00	0	42	0	335544320	59	4313
2026-01-25 01:27:43.78	21.64	20.48	-44.4	-45.6	21.4	0.00e+00	0	43	0	337641472	59	4369
2026-01-25 01:27:44.79	21.59	20.61	-44.1	-45.3	21.6	0.00e+00	0	43	0	339738624	59	4217
2026-01-25 01:27:45.80	21.53	20.75	-44.2	-45.3	21.5	0.00e+00	0	42	0	340787200	59	4232
2026-01-25 01:27:46.81	21.48	20.88	-44.3	-45.5	21.4	0.00e+00	0	43	0	342884352	59	4321
2026-01-25 01:27:47.81	21.42	21.01	-44.3	-45.5	21.4	0.00e+00	0	42	0	344981504	59	4315
2026-01-25 01:27:48.82	21.37	21.14	-44.3	-45.5	21.4	0.00e+00	0	42	0	347078656	59	4297
2026-01-25 01:27:49.83	21.31	21.28	-44.5	-45.7	21.2	0.00e+00	0	42	0	348127232	59	4441
2026-01-25 01:27:50.84	21.25	21.42	-44.3	-45.5	21.4	0.00e+00	0	42	0	350224384	59	4325
2026-01-25 01:27:51.84	21.19	21.55	-44.5	-45.7	21.2	0.00e+00	0	43	0	352321536	59	4440
2026-01-25 01:27:52.85	21.13	21.69	-44.2	-45.4	21.5	0.00e+00	0	43	0	354418688	59	4264
2026-01-25 01:27:53.86	21.08	21.82	-44.4	-45.6	21.4	0.00e+00	0	42	0	356515840	59	4377
2026-01-25 01:27:54.87	21.02	21.96	-44.1	-45.3	21.4	0.00e+00	0	43	0	358612992	60	3963
2026-01-25 01:27:55.88	20.96	22.10	-44.2	-45.4	21.3	0.00e+00	0	43	0	359661568	60	4015
2026-01-25 01:27:56.89	20.89	22.24	-44.3	-45.5	21.1	0.00e+00	0	42	0	361758720	60	4093
2026-01-25 01:27:57.90	20.83	22.38	-44.2	-45.4	21.3	0.00e+00	0	42	0	363855872	60	4018
2026-01-25 01:27:58.91	20.77	22.52	-44.3	-45.5	21.2	0.00e+00	0	42	0	365953024	60	4065
2026-01-25 01:27:59.91	20.71	22.66	-44.6	-45.9	20.9	0.00e+00	0	43	0	368050176	60	4256
2026-01-25 01:28:00.92	20.64	22.81	-44.4	-45.6	21.2	0.00e+00	0	43	0	369098752	60	4111
2026-01-25 01:28:01.93	20.58	22.95	-44.2	-45.4	21.3	0.00e+00	0	42	0	371195904	60	4023
2026-01-25 01:28:02.94	20.52	23.09	-44.4	-45.6	21.1	0.00e+00	0	42	0	373293056	60	4126
2026-01-25 01:28:03.95	20.45	23.24	-44.3	-45.5	21.3	0.00e+00	0	42	0	375390208	60	4063
2026-01-25 01:28:04.96	20.38	23.39	-44.4	-45.6	21.1	0.00e+00	0	42	0	376438784	60	4128
2026-01-25 01:28:05.96	20.32	23.53	-44.1	-45.3	21.3	0.00e+00	0	43	0	378535936	60	3986
2026-01-25 01:28:06.97	20.25	23.68	-44.2	-45.4	21.3	0.00e+00	0	42	0	380633088	60	4007
2026-01-25 01:28:07.98	20.18	23.83	-44.5	-45.7	21.0	0.00e+00	0	42	0	382730240	60	4184
2026-01-25 01:28:08.99	20.11	23.97	-44.5	-45.7	21.0	0.00e+00	0	43	0	384827392	60	4175
2026-01-25 01:28:09.99	20.04	24.12	-44.5	-45.8	21.0	0.00e+00	0	42	0	386924544	60	4205
2026-01-25 01:28:11.00	19.97	24.27	-44.6	-45.9	20.9	0.00e+00	0	43	0	387973120	60	4255
2026-01-25 01:28:12.01	19.90	24.42	-44.9	-46.2	20.7	0.00e+00	0	43	0	390070272	60	4413
2026-01-25 01:28:13.02	19.83	24.58	-45.4	-46.8	20.1	0.00e+00	0	43	0	392167424	61	4480
2026-01-25 01:28:14.03	19.76	24.73	-45.5	-46.9	19.9	0.00e+00	0	42	0	394264576	61	4542
2026-01-25 01:28:15.03	19.69	24.88	-45.6	-47.0	19.9	0.00e+00	0	42	0	396361728	61	4582
2026-01-25 01:28:16.04	19.61	25.04	-45.9	-47.4	19.5	0.00e+00	0	42	0	397410304	62	4538
2026-01-25 01:28:17.05	19.54	25.19	-45.6	-47.0	19.9	0.00e+00	0	43	0	399507456	62	4332
2026-01-25 01:28:18.06	19.46	25.35	-45.8	-47.2	19.7	0.00e+00	0	43	0	401604608	62	4440
2026-01-25 01:28:19.07	19.39	25.51	-45.8	-47.3	19.7	0.00e+00	0	43	0	403701760	62	4449
2026-01-25 01:28:20.08	19.31	25.66	-45.7	-47.1	19.8	0.00e+00	0	42	0	405798912	62	4371
2026-01-25 01:28:21.09	19.23	25.82	-45.9	-47.5	19.4	0.00e+00	0	43	0	406847488	62	4557
2026-01-25 01:28:22.09	19.16	25.98	-45.8	-47.3	19.7	0.00e+00	0	43	0	408944640	62	4474
2026-01-25 01:28:23.10	19.08	26.14	-45.5	-47.0	20.0	0.00e+00	0	43	0	411041792	62	4302
2026-01-25 01:28:24.11	19.00	26.31	-45.8	-47.2	19.8	0.00e+00	0	42	0	413138944	62	4440
2026-01-25 01:28:25.12	18.91	26.47	-45.6	-47.1	19.9	0.00e+00	0	42	0	415236096	62	4352
2026-01-25 01:28:26.13	18.83	26.63	-45.7	-47.2	19.9	0.00e+00	0	42	0	416284672	62	4399
2026-01-25 01:28:27.13	18.75	26.79	-45.7	-47.2	19.8	0.00e+00	0	43	0	418381824	62	4409
2026-01-25 01:28:28.14	18.67	26.96	-45.9	-47.3	19.7	0.00e+00	0	43	0	420478976	62	4482
2026-01-25 01:28:29.15	18.58	27.13	-46.0	-47.5	19.6	0.00e+00	0	43	0	422576128	62	4548
2026-01-25 01:28:30.16	18.50	27.29	-45.8	-47.2	19.8	0.00e+00	0	43	0	424673280	62	4438
2026-01-25 01:28:31.17	18.41	27.46	-45.8	-47.3	19.7	0.00e+00	0	43	0	425721856	62	4457
2026-01-25 01:28:32.18	18.32	27.63	-45.9	-47.3	19.7	0.00e+00	0	42	0	427819008	63	4212
2026-01-25 01:28:33.19	18.23	27.80	-45.7	-47.1	19.9	0.00e+00	0	43	0	429916160	63	4102
2026-01-25 01:28:34.19	18.15	27.97	-45.9	-47.3	19.7	0.00e+00	0	43	0	432013312	63	4220
2026-01-25 01:28:35.20	18.05	28.14	-45.9	-47.4	19.6	0.00e+00	0	43	0	434110464	63	4243
2026-01-25 01:28:36.21	17.96	28.32	-45.8	-47.2	19.8	0.00e+00	0	42	0	435159040	63	4150
2026-01-25 01:28:37.22	17.87	28.49	-46.1	-47.6	19.5	0.00e+00	0	43	0	437256192	63	4357
2026-01-25 01:28:38.23	17.78	28.67	-46.0	-47.4	19.6	0.00e+00	0	43	0	439353344	63	4285
2026-01-25 01:28:39.24	17.68	28.84	-46.1	-47.6	19.5	0.00e+00	0	43	0	441450496	63	4344
2026-01-25 01:28:40.25	17.59	29.02	-46.2	-47.7	19.4	0.00e+00	0	42	0	443547648	63	4405
2026-01-25 01:28:41.25	17.49	29.20	-46.2	-47.7	19.4	0.00e+00	0	43	0	444596224	63	4427
2026-01-25 01:28:42.26	17.39	29.37	-46.4	-48.0	19.1	0.00e+00	0	43	0	446693376	63	4578
2026-01-25 01:28:43.27	17.29	29.56	-46.7	-48.4	18.7	0.00e+00	0	43	0	448790528	64	4509
2026-01-25 01:28:44.28	17.19	29.74	-46.6	-48.3	18.7	0.00e+00	0	42	0	450887680	64	4463
2026-01-25 01:28:45.29	17.09	29.92	-46.8	-48.6	18.4	0.00e+00	0	43	0	452984832	64	4641
2026-01-25 01:28:46.29	16.99	30.10	-47.0	-48.9	18.2	0.00e+00	0	43	0	454033408	64	4762
2026-01-25 01:28:47.30	16.89	30.29	-46.7	-48.5	18.6	0.00e+00	0	43	0	456130560	64	4549
2026-01-25 01:28:48.31	16.78	30.47	-46.5	-48.2	18.8	0.00e+00	0	42	0	458227712	64	4401
2026-01-25 01:28:49.32	16.67	30.66	-46.6	-48.2	18.8	0.00e+00	0	43	0	460324864	64	4433
2026-01-25 01:28:50.33	16.57	30.85	-46.6	-48.3	18.8	0.00e+00	0	43	0	462422016	64	4448
2026-01-25 01:28:51.34	16.46	31.03	-46.6	-48.3	18.8	0.00e+00	0	43	0	463470592	64	4480
2026-01-25 01:28:52.35	16.35	31.22	-46.7	-48.4	18.6	0.00e+00	0	43	0	465567744	64	4506
2026-01-25 01:28:53.36	16.24	31.42	-47.1	-49.0	18.1	0.00e+00	0	43	0	467664896	64	4849
2026-01-25 01:28:54.37	16.12	31.61	-47.3	-49.2	17.9	0.00e+00	0	43	0	469762048	65	4690
2026-01-25 01:28:55.37	16.01	31.80	-47.6	-49.7	17.4	0.00e+00	0	43	0	471859200	65	4942
2026-01-25 01:28:56.38	15.89	31.99	-48.1	-50.4	16.7	0.00e+00	0	42	0	473956352	66	5081
2026-01-25 01:28:57.39	15.78	32.19	-48.2	-50.6	16.6	0.00e+00	0	43	0	475004928	66	5166
2026-01-25 01:28:58.40	15.66	32.39	-47.9	-50.2	17.0	0.00e+00	0	43	0	477102080	67	4653
2026-01-25 01:28:59.41	15.54	32.58	-48.1	-50.4	16.7	0.00e+00	0	43	0	479199232	67	4765
2026-01-25 01:29:00.42	15.42	32.78	-48.3	-50.8	16.3	0.00e+00	0	43	0	481296384	67	4989
2026-01-25 01:29:01.43	15.29	32.98	-48.4	-50.9	16.3	0.00e+00	0	43	0	482344960	67	5058
2026-01-25 01:29:02.44	15.17	33.19	-48.5	-51.0	16.1	0.00e+00	0	43	0	484442112	67	5159
2026-01-25 01:29:03.45	15.04	33.39	-48.9	-51.6	15.7	0.00e+00	0	43	0	486539264	68	5173
2026-01-25 01:29:04.45	14.91	33.59	-49.1	-51.8	15.4	0.00e+00	0	43	0	488636416	68	5318
2026-01-25 01:29:05.46	14.78	33.80	-49.3	-52.3	15.0	0.00e+00	0	43	0	490733568	69	5280
2026-01-25 01:29:06.47	14.65	34.00	-50.1	-53.6	13.8	3.00e-06	0	43	0	492830720	70	5846
2026-01-25 01:29:07.48	14.52	34.21	-50.3	-54.0	13.3	8.30e-06	0	43	0	493879296	71	5788
2026-01-25 01:29:08.49	14.39	34.42	-50.4	-54.2	13.1	1.98e-05	0	43	0	495976448	71	5917
2026-01-25 01:29:09.50	14.25	34.63	-50.2	-53.8	13.5	1.90e-05	0	43	0	498073600	71	5624
2026-01-25 01:29:10.51	14.11	34.84	-50.2	-53.8	13.4	7.60e-06	0	43	0	500170752	71	5629
2026-01-25 01:29:11.52	13.97	35.05	-49.7	-53.1	14.2	5.30e-06	0	43	0	502267904	71	5196
2026-01-25 01:29:12.53	13.83	35.27	-49.9	-53.5	13.8	1.52e-05	0	42	0	503316480	70	5737
2026-01-25 01:29:13.53	13.68	35.48	-49.9	-53.3	13.9	6.10e-06	0	43	0	505413632	70	5644
2026-01-25 01:29:14.54	13.54	35.69	-50.3	-54.5	12.9	3.00e-06	0	43	0	507510784	71	6067
2026-01-25 01:29:15.55	13.39	35.91	-49.7	-53.1	14.2	3.00e-06	0	43	0	509607936	71	5188
2026-01-25 01:29:16.56	13.24	36.13	-49.7	-53.1	14.2	0.00e+00	0	43	0	511705088	70	5475
2026-01-25 01:29:17.57	13.09	36.35	-49.4	-52.6	14.5	1.83e-05	0	43	0	512753664	70	5193
2026-01-25 01:29:18.58	12.93	36.57	-49.2	-52.3	15.0	2.20e-06	0	43	0	514850816	70	5000
2026-01-25 01:29:19.59	12.78	36.79	-48.7	-51.4	15.6	0.00e+00	0	43	0	516947968	69	4801
2026-01-25 01:29:20.59	12.62	37.02	-48.1	-50.5	16.7	0.00e+00	0	43	0	519045120	68	4546
2026-01-25 01:29:21.60	12.46	37.24	-47.5	-49.5	17.6	0.00e+00	0	43	0	521142272	66	4568
2026-01-25 01:29:22.61	12.29	37.47	-47.9	-50.2	17.0	0.00e+00	0	43	0	522190848	66	4957
2026-01-25 01:29:23.62	12.13	37.69	-47.3	-49.2	17.9	0.00e+00	0	43	0	524288000	66	4432
2026-01-25 01:29:24.63	11.96	37.92	-47.1	-48.9	18.1	0.00e+00	0	43	0	526385152	66	4264
2026-01-25 01:29:25.63	11.79	38.15	-47.4	-49.3	17.8	0.00e+00	0	43	0	528482304	66	4491
2026-01-25 01:29:26.64	11.62	38.38	-47.3	-49.2	18.0	0.00e+00	0	43	0	530579456	66	4412
2026-01-25 01:29:27.65	11.44	38.61	-47.5	-49.4	17.9	0.00e+00	0	43	0	531628032	66	4541
2026-01-25 01:29:28.66	11.27	38.85	-47.1	-49.0	18.2	0.00e+00	0	43	0	533725184	66	4322
2026-01-25 01:29:29.67	11.08	39.08	-47.2	-49.2	18.0	0.00e+00	0	43	0	535822336	66	4399
2026-01-25 01:29:30.67	10.90	39.32	-47.5	-49.5	17.7	0.00e+00	0	43	0	537919488	66	4594
2026-01-25 01:29:31.68	10.72	39.56	-47.8	-50.0	17.2	0.00e+00	0	43	0	540016640	66	4849
2026-01-25 01:29:32.69	10.53	39.79	-47.9	-50.2	17.2	0.00e+00	0	43	0	541065216	66	4933
2026-01-25 01:29:33.70	10.34	40.03	-48.0	-50.3	17.0	0.00e+00	0	43	0	543162368	67	4736
2026-01-25 01:29:34.71	10.14	40.28	-47.9	-50.1	17.0	0.00e+00	0	43	0	545259520	67	4637
2026-01-25 01:29:35.72	9.94	40.52	-47.7	-49.8	17.4	0.00e+00	0	43	0	547356672	66	4738
2026-01-25 01:29:36.73	9.74	40.76	-47.2	-49.1	18.2	0.00e+00	0	43	0	549453824	66	4345
2026-01-25 01:29:37.74	9.54	41.01	-47.0	-48.9	18.2	0.00e+00	0	43	0	550502400	65	4515
2026-01-25 01:29:38.75	9.33	41.25	-46.3	-47.9	19.3	0.00e+00	0	43	0	552599552	64	4250
2026-01-25 01:29:39.75	9.12	41.50	-46.2	-47.8	19.4	0.00e+00	0	43	0	554696704	64	4203
2026-01-25 01:29:40.76	8.91	41.75	-46.3	-47.8	19.3	0.00e+00	0	43	0	556793856	64	4216
2026-01-25 01:29:41.77	8.69	42.00	-46.4	-48.0	19.2	0.00e+00	0	43	0	558891008	64	4295
2026-01-25 01:29:42.78	8.47	42.25	-46.3	-47.8	19.4	0.00e+00	0	43	0	560988160	63	4464
2026-01-25 01:29:43.79	8.25	42.50	-45.4	-46.6	20.4	0.00e+00	0	43	0	562036736	62	4144
2026-01-25 01:29:44.80	8.02	42.76	-45.5	-46.8	20.3	0.00e+00	0	43	0	564133888	62	4242
2026-01-25 01:29:45.81	7.79	43.01	-45.6	-47.0	20.1	0.00e+00	0	43	0	566231040	62	4319
2026-01-25 01:29:46.82	7.55	43.27	-45.6	-47.0	20.2	0.00e+00	0	43	0	568328192	62	4300
2026-01-25 01:29:47.83	7.32	43.53	-46.1	-47.5	19.7	0.00e+00	0	43	0	569376768	62	4596
2026-01-25 01:29:48.83	7.08	43.78	-45.7	-47.1	20.1	0.00e+00	0	43	0	571473920	62	4386
2026-01-25 01:29:49.84	6.83	44.04	-45.8	-47.2	20.0	0.00e+00	0	43	0	573571072	62	4400
2026-01-25 01:29:50.85	6.58	44.30	-45.5	-46.9	20.3	0.00e+00	0	43	0	575668224	62	4262
2026-01-25 01:29:51.86	6.32	44.57	-45.6	-46.9	20.3	0.00e+00	0	43	0	577765376	62	4286
2026-01-25 01:29:52.87	6.06	44.83	-45.8	-47.1	20.1	0.00e+00	0	43	0	579862528	62	4383
2026-01-25 01:29:53.88	5.80	45.09	-45.7	-47.1	20.1	0.00e+00	0	43	0	580911104	62	4371
2026-01-25 01:29:54.88	5.53	45.36	-46.1	-47.6	19.7	0.00e+00	0	43	0	583008256	63	4341
2026-01-25 01:29:55.89	5.26	45.62	-45.8	-47.2	19.9	0.00e+00	0	43	0	585105408	63	4162
2026-01-25 01:29:56.90	4.98	45.89	-45.7	-47.1	19.9	0.00e+00	0	43	0	587202560	63	4138
2026-01-25 01:29:57.91	4.70	46.16	-45.0	-46.3	20.7	0.00e+00	0	43	0	589299712	61	4199
2026-01-25 01:29:58.92	4.41	46.43	-44.6	-45.9	21.0	0.00e+00	0	43	0	590348288	61	4007
2026-01-25 01:29:59.93	4.12	46.70	-44.9	-46.2	20.9	0.00e+00	0	43	0	592445440	61	4170
2026-01-25 01:30:00.93	3.83	46.97	-45.4	-46.9	20.3	0.00e+00	0	43	0	594542592	61	4495
2026-01-25 01:30:01.94	3.52	47.24	-46.4	-48.1	19.2	0.00e+00	0	43	0	596639744	63	4624
2026-01-25 01:30:02.95	3.21	47.51	-46.5	-48.3	18.9	0.00e+00	0	43	0	597688320	64	4466
2026-01-25 01:30:03.96	2.90	47.78	-46.0	-47.5	19.3	0.00e+00	0	43	0	599785472	64	4098
2026-01-25 01:30:04.97	2.58	48.06	-45.9	-47.4	19.7	0.00e+00	0	43	0	601882624	63	4281
2026-01-25 01:30:05.97	2.26	48.33	-45.5	-46.9	20.2	0.00e+00	0	43	0	603979776	63	4045
2026-01-25 01:30:06.98	1.93	48.61	-45.7	-47.2	20.0	0.00e+00	0	43	0	606076928	62	4435
2026-01-25 01:30:07.99	1.59	48.88	-45.4	-46.8	20.4	0.00e+00	0	43	0	608174080	62	4218
2026-01-25 01:30:09.00	1.25	49.16	-45.1	-46.4	20.7	0.00e+00	0	43	0	609222656	62	4037
2026-01-25 01:30:10.01	0.90	49.44	-44.7	-45.9	21.1	0.00e+00	0	43	0	611319808	61	4050
2026-01-25 01:30:11.01	0.55	49.72	-44.1	-45.2	21.8	0.00e+00	0	43	0	613416960	60	3933
2026-01-25 01:30:12.02	0.18	49.99	-43.9	-45.0	22.1	0.00e+00	0	43	0	615514112	59	4087
2026-01-25 01:30:13.03	359.81	50.27	-44.1	-45.3	21.9	0.00e+00	0	43	0	617611264	59	4211
2026-01-25 01:30:14.04	359.44	50.55	-44.4	-45.7	21.4	0.00e+00	0	43	0	618659840	60	4149
2026-01-25 01:30:15.05	359.05	50.83	-44.5	-45.8	21.3	0.00e+00	0	43	0	620756992	60	4196
2026-01-25 01:30:16.06	358.66	51.11	-44.5	-45.7	21.3	0.00e+00	0	43	0	622854144	60	4191
2026-01-25 01:30:17.06	358.27	51.39	-44.1	-45.3	21.6	0.00e+00	0	43	0	624951296	60	3962
2026-01-25 01:30:18.07	357.86	51.67	-44.3	-45.5	21.6	0.00e+00	0	43	0	627048448	60	4074
2026-01-25 01:30:19.08	357.45	51.95	-44.3	-45.5	21.5	0.00e+00	0	43	0	628097024	60	4077
2026-01-25 01:30:20.09	357.03	52.24	-44.8	-46.0	21.1	0.00e+00	0	43	0	630194176	60	4338
2026-01-25 01:30:21.09	356.60	52.51	-44.8	-46.1	21.0	0.00e+00	0	43	0	632291328	60	4385
2026-01-25 01:30:22.10	356.16	52.79	-44.7	-46.0	21.2	0.00e+00	0	43	0	634388480	60	4294
2026-01-25 01:30:23.11	355.72	53.08	-44.6	-45.9	21.3	0.00e+00	0	43	0	636485632	60	4258
2026-01-25 01:30:24.12	355.26	53.36	-44.9	-46.2	20.9	0.00e+00	0	43	0	637534208	60	4410
2026-01-25 01:30:25.13	354.80	53.64	-44.6	-45.8	21.2	0.00e+00	0	43	0	639631360	60	4212
2026-01-25 01:30:26.14	354.32	53.92	-44.6	-45.9	21.3	0.00e+00	0	43	0	641728512	60	4244
2026-01-25 01:30:27.15	353.84	54.20	-44.8	-46.0	21.1	0.00e+00	0	43	0	643825664	60	4332
2026-01-25 01:30:28.16	353.35	54.47	-45.2	-46.5	20.6	0.00e+00	0	43	0	645922816	60	4581
2026-01-25 01:30:29.16	352.85	54.75	-45.3	-46.6	20.5	0.00e+00	0	43	0	646971392	61	4389
2026-01-25 01:30:30.17	352.34	55.03	-45.6	-47.0	20.3	0.00e+00	0	43	0	649068544	61	4553
2026-01-25 01:30:31.18	351.82	55.30	-45.9	-47.4	19.8	0.00e+00	0	43	0	651165696	62	4528
2026-01-25 01:30:32.19	351.29	55.58	-46.3	-47.9	19.4	0.00e+00	0	43	0	653262848	63	4542
2026-01-25 01:30:33.20	350.74	55.85	-46.0	-47.5	19.9	0.00e+00	0	43	0	655360000	63	4328
2026-01-25 01:30:34.21	350.19	56.13	-45.5	-46.9	20.3	0.00e+00	0	43	0	656408576	62	4257
2026-01-25 01:30:35.22	349.62	56.40	-44.8	-46.1	21.0	0.00e+00	0	43	0	658505728	61	4105
2026-01-25 01:30:36.23	349.05	56.67	-45.0	-46.3	20.9	0.00e+00	0	43	0	660602880	61	4238
2026-01-25 01:30:37.24	348.46	56.94	-45.2	-46.6	20.7	0.00e+00	0	43	0	662700032	61	4355
2026-01-25 01:30:38.25	347.86	57.20	-45.3	-46.6	20.6	0.00e+00	0	43	0	664797184	61	4381
2026-01-25 01:30:39.25	347.26	57.47	-45.0	-46.3	20.9	0.00e+00	0	43	0	665845760	61	4209
2026-01-25 01:30:40.26	346.63	57.73	-44.8	-45.9	21.3	0.00e+00	0	43	0	667942912	61	4035
2026-01-25 01:30:41.27	346.00	57.99	-44.6	-45.7	21.4	0.00e+00	0	43	0	670040064	60	4177
2026-01-25 01:30:42.28	345.35	58.25	-44.6	-45.7	21.5	0.00e+00	0	43	0	672137216	60	4171
2026-01-25 01:30:43.28	344.70	58.50	-45.1	-46.4	20.9	0.00e+00	0	43	0	674234368	61	4243
2026-01-25 01:30:44.29	344.02	58.76	-45.2	-46.5	20.8	0.00e+00	0	43	0	676331520	61	4317
2026-01-25 01:30:45.30	343.34	59.01	-45.3	-46.6	20.7	0.00e+00	0	43	0	677380096	61	4349
2026-01-25 01:30:46.31	342.64	59.26	-44.9	-46.1	21.1	0.00e+00	0	43	0	679477248	61	4099
2026-01-25 01:30:47.32	341.92	59.50	-44.9	-46.1	21.0	0.00e+00	0	43	0	681574400	61	4145
2026-01-25 01:30:48.33	341.20	59.75	-45.1	-46.4	20.8	0.00e+00	0	43	0	683671552	61	4276
2026-01-25 01:30:49.34	340.46	59.98	-44.9	-46.2	21.0	0.00e+00	0	43	0	684720128	61	4166
2026-01-25 01:30:50.35	339.70	60.22	-45.0	-46.2	20.9	0.00e+00	0	43	0	686817280	61	4192
2026-01-25 01:30:51.35	338.94	60.45	-44.7	-45.9	21.3	0.00e+00	0	43	0	688914432	61	4036
2026-01-25 01:30:52.36	338.16	60.68	-45.4	-46.8	20.4	0.00e+00	0	42	0	691011584	61	4454
2026-01-25 01:30:53.37	337.37	60.90	-45.9	-47.4	19.8	0.00e+00	0	42	0	693108736	62	4530
2026-01-25 01:30:54.38	336.56	61.12	-45.5	-46.9	20.2	0.00e+00	0	43	0	695205888	62	4267
2026-01-25 01:30:55.39	335.73	61.34	-44.7	-45.9	21.2	0.00e+00	0	43	0	696254464	61	4031
2026-01-25 01:30:56.40	334.89	61.55	-44.0	-45.2	22.0	0.00e+00	0	43	0	698351616	59	4161
2026-01-25 01:30:57.41	334.04	61.75	-43.6	-44.7	22.5	0.00e+00	0	43	0	700448768	59	3951
2026-01-25 01:30:58.42	333.17	61.95	-43.6	-44.6	22.4	0.00e+00	0	43	0	702545920	59	3913
2026-01-25 01:30:59.43	332.29	62.15	-43.6	-44.7	22.4	0.00e+00	0	43	0	704643072	59	3937
2026-01-25 01:31:00.44	331.39	62.34	-43.9	-45.0	22.2	0.00e+00	0	43	0	705691648	59	4062
2026-01-25 01:31:01.45	330.48	62.53	-43.9	-45.1	22.1	0.00e+00	0	43	0	707788800	59	4107
2026-01-25 01:31:02.45	329.57	62.70	-43.7	-44.9	22.2	0.00e+00	0	43	0	709885952	59	4009
2026-01-25 01:31:03.46	328.63	62.88	-43.4	-44.5	22.5	0.00e+00	0	43	0	711983104	58	4095
2026-01-25 01:31:04.47	327.68	63.04	-44.0	-45.2	22.1	0.00e+00	0	43	0	714080256	58	4397
2026-01-25 01:31:05.48	326.72	63.20	-43.7	-44.8	22.3	0.00e+00	0	43	0	715128832	58	4232
2026-01-25 01:31:06.49	325.74	63.36	-43.6	-44.7	22.4	0.00e+00	0	43	0	717225984	58	4146
2026-01-25 01:31:07.50	324.75	63.51	-43.6	-44.8	22.3	0.00e+00	0	43	0	719323136	58	4196
2026-01-25 01:31:08.51	323.75	63.65	-43.4	-44.5	22.6	0.00e+00	0	43	0	721420288	58	4064
2026-01-25 01:31:09.51	322.75	63.78	-42.5	-43.5	23.3	0.00e+00	0	43	0	723517440	57	3853
2026-01-25 01:31:10.52	321.72	63.91	-42.4	-43.4	23.4	0.00e+00	0	43	0	724566016	56	4025
2026-01-25 01:31:11.53	320.68	64.03	-42.9	-43.9	23.1	0.00e+00	0	42	0	726663168	56	4282
2026-01-25 01:31:12.54	319.64	64.14	-42.8	-43.9	23.1	0.00e+00	0	43	0	728760320	56	4245
2026-01-25 01:31:13.55	318.58	64.24	-43.6	-44.8	22.4	0.00e+00	0	43	0	730857472	57	4446
2026-01-25 01:31:14.55	317.53	64.34	-43.9	-45.0	22.2	0.00e+00	0	43	0	732954624	58	4320
2026-01-25 01:31:15.56	316.45	64.43	-44.4	-45.6	21.6	0.00e+00	0	43	0	734003200	59	4368
2026-01-25 01:31:16.57	315.37	64.51	-44.6	-45.9	21.5	0.00e+00	0	43	0	736100352	59	4530
2026-01-25 01:31:17.58	314.28	64.58	-44.3	-45.6	21.6	0.00e+00	0	43	0	738197504	59	4371
2026-01-25 01:31:18.59	313.18	64.64	-43.7	-44.9	22.2	0.00e+00	0	43	0	740294656	59	4026
2026-01-25 01:31:19.60	312.08	64.70	-43.1	-44.2	22.8	0.00e+00	0	43	0	742391808	58	3935
2026-01-25 01:31:20.61	310.97	64.75	-42.6	-43.5	23.4	0.00e+00	0	43	0	743440384	56	4097
2026-01-25 01:31:21.61	309.87	64.78	-41.8	-42.7	23.9	0.00e+00	0	43	0	745537536	55	3937
2026-01-25 01:31:22.62	308.76	64.81	-42.0	-42.9	23.8	0.00e+00	0	43	0	747634688	55	4015
2026-01-25 01:31:23.63	307.64	64.84	-42.3	-43.3	23.5	0.00e+00	0	43	0	749731840	55	4208
2026-01-25 01:31:24.64	306.52	64.85	-42.1	-43.0	23.6	0.00e+00	0	43	0	751828992	55	4090
2026-01-25 01:31:25.65	305.40	64.85	-41.9	-42.8	23.8	0.00e+00	0	43	0	752877568	55	3997
2026-01-25 01:31:26.66	304.28	64.85	-42.1	-43.1	23.6	0.00e+00	0	42	0	754974720	55	4121
2026-01-25 01:31:27.67	303.16	64.84	-42.2	-43.2	23.5	0.00e+00	0	43	0	757071872	55	4173
2026-01-25 01:31:28.67	302.06	64.82	-42.7	-43.7	23.1	0.00e+00	0	43	0	759169024	55	4411
2026-01-25 01:31:29.68	300.94	64.79	-43.6	-44.8	22.3	0.00e+00	0	43	0	761266176	58	4203
2026-01-25 01:31:30.69	299.83	64.75	-43.6	-44.7	22.3	0.00e+00	0	43	0	762314752	58	4186
2026-01-25 01:31:31.70	298.72	64.70	-42.9	-44.0	23.1	0.00e+00	0	43	0	764411904	57	4059
2026-01-25 01:31:32.71	297.62	64.64	-42.3	-43.3	23.6	0.00e+00	0	43	0	766509056	56	3972
2026-01-25 01:31:33.72	296.52	64.58	-41.5	-42.4	24.2	0.00e+00	0	43	0	768606208	55	3783
2026-01-25 01:31:34.73	295.43	64.51	-41.8	-42.7	24.0	0.00e+00	0	43	0	770703360	54	4193
2026-01-25 01:31:35.73	294.36	64.43	-43.1	-44.2	22.9	0.00e+00	0	43	0	771751936	56	4399
2026-01-25 01:31:36.74	293.29	64.34	-43.4	-44.4	22.7	0.00e+00	0	43	0	773849088	57	4271
2026-01-25 01:31:37.75	292.22	64.24	-43.1	-44.2	23.0	0.00e+00	0	42	0	775946240	57	4160
2026-01-25 01:31:38.76	291.16	64.14	-43.9	-45.0	22.1	0.00e+00	0	43	0	778043392	58	4336
2026-01-25 01:31:39.77	290.12	64.03	-44.1	-45.2	22.0	0.00e+00	0	43	0	780140544	58	4441
2026-01-25 01:31:40.78	289.08	63.91	-44.0	-45.1	22.2	0.00e+00	0	43	0	782237696	58	4369
2026-01-25 01:31:41.79	288.05	63.78	-44.1	-45.3	22.0	0.00e+00	0	43	0	783286272	58	4478
2026-01-25 01:31:42.80	287.04	63.65	-44.1	-45.3	22.0	0.00e+00	0	43	0	785383424	59	4205
2026-01-25 01:31:43.80	286.05	63.51	-43.2	-44.3	22.8	0.00e+00	0	43	0	787480576	58	3961
2026-01-25 01:31:44.81	285.06	63.36	-43.4	-44.5	22.2	0.00e+00	0	43	0	789577728	58	4082
2026-01-25 01:31:45.82	284.08	63.21	-43.8	-44.9	22.2	0.00e+00	0	43	0	790626304	58	4266
2026-01-25 01:31:46.83	283.12	63.04	-43.6	-44.7	22.5	0.00e+00	0	43	0	792723456	59	3916
2026-01-25 01:31:47.83	282.17	62.88	-43.5	-44.6	22.6	0.00e+00	0	42	0	794820608	58	4124
2026-01-25 01:31:48.84	281.23	62.71	-43.7	-44.8	22.2	0.00e+00	0	43	0	796917760	58	4202
2026-01-25 01:31:49.85	280.31	62.53	-42.8	-43.8	23.1	0.00e+00	0	42	0	799014912	57	3959
2026-01-25 01:31:50.86	279.40	62.34	-42.5	-43.4	23.6	0.00e+00	0	43	0	801112064	56	4028
2026-01-25 01:31:51.87	278.50	62.15	-44.0	-45.2	22.1	0.00e+00	0	43	0	802160640	58	4392
2026-01-25 01:31:52.88	277.62	61.95	-44.3	-45.5	21.7	0.00e+00	0	43	0	804257792	59	4339
2026-01-25 01:31:53.89	276.75	61.75	-44.1	-45.3	22.1	0.00e+00	0	42	0	806354944	59	4211
2026-01-25 01:31:54.89	275.91	61.55	-44.0	-45.2	22.2	0.00e+00	0	43	0	808452096	59	4158
2026-01-25 01:31:55.90	275.07	61.34	-44.5	-45.7	21.4	0.00e+00	0	43	0	810549248	60	4173
2026-01-25 01:31:56.91	274.24	61.12	-45.9	-47.4	19.8	0.00e+00	0	43	0	811597824	62	4531
2026-01-25 01:31:57.92	273.43	60.90	-46.6	-48.4	18.8	0.00e+00	0	42	0	813694976	64	4543
2026-01-25 01:31:58.93	272.63	60.68	-47.1	-49.1	18.3	0.00e+00	0	43	0	815792128	64	4877
2026-01-25 01:31:59.93	271.86	60.45	-47.2	-49.0	18.2	0.00e+00	0	43	0	817889280	65	4593
2026-01-25 01:32:00.94	271.09	60.22	-46.3	-47.9	19.3	0.00e+00	0	43	0	818937856	64	4254
2026-01-25 01:32:01.95	270.33	59.98	-45.9	-47.3	20.0	0.00e+00	0	43	0	821035008	63	4200
2026-01-25 01:32:02.96	269.59	59.75	-46.7	-48.4	19.1	0.00e+00	0	43	0	823132160	64	4519
2026-01-25 01:32:03.97	268.86	59.50	-46.9	-48.6	18.7	0.00e+00	0	43	0	825229312	64	4620
2026-01-25 01:32:04.98	268.15	59.26	-47.5	-49.3	18.0	0.00e+00	0	43	0	827326464	65	4754
2026-01-25 01:32:05.99	267.45	59.01	-48.1	-50.2	17.4	0.00e+00	0	43	0	829423616	66	4932
2026-01-25 01:32:07.00	266.76	58.76	-47.7	-49.5	17.9	0.00e+00	0	43	0	830472192	67	4315
2026-01-25 01:32:08.01	266.09	58.50	-47.2	-48.9	18.5	0.00e+00	0	43	0	832569344	65	4530
2026-01-25 01:32:09.01	265.43	58.25	-45.9	-47.3	20.0	0.00e+00	0	43	0	834666496	63	4210
2026-01-25 01:32:10.02	264.79	57.99	-45.3	-46.5	20.8	0.00e+00	0	43	0	836763648	62	4087
2026-01-25 01:32:11.03	264.15	57.73	-44.9	-46.1	21.0	0.00e+00	0	43	0	838860800	61	4123
2026-01-25 01:32:12.04	263.53	57.46	-45.3	-46.6	20.6	0.00e+00	0	43	0	839909376	61	4365
2026-01-25 01:32:13.05	262.91	57.20	-46.0	-47.4	19.9	0.00e+00	0	43	0	842006528	62	4532
2026-01-25 01:32:14.05	262.32	56.93	-45.6	-47.0	20.3	0.00e+00	0	43	0	844103680	63	4070
2026-01-25 01:32:15.06	261.73	56.66	-45.3	-46.6	20.6	0.00e+00	0	43	0	846200832	62	4134
2026-01-25 01:32:16.07	261.15	56.39	-45.7	-47.1	20.1	0.00e+00	0	43	0	848297984	62	4384
2026-01-25 01:32:17.08	260.59	56.12	-47.4	-49.4	17.9	0.00e+00	0	43	0	849346560	65	4782
2026-01-25 01:32:18.09	260.03	55.85	-47.8	-50.1	17.3	0.00e+00	0	43	0	851443712	66	4881
2026-01-25 01:32:19.10	259.49	55.57	-47.6	-49.8	17.5	0.00e+00	0	43	0	853540864	66	4740
2026-01-25 01:32:20.11	258.96	55.30	-47.5	-49.5	17.7	0.00e+00	0	43	0	855638016	66	4587
2026-01-25 01:32:21.12	258.43	55.02	-46.5	-48.2	19.0	0.00e+00	0	43	0	857735168	64	4409
2026-01-25 01:32:22.13	257.92	54.74	-46.6	-48.4	18.9	0.00e+00	0	43	0	858783744	63	4782
2026-01-25 01:32:23.13	257.42	54.47	-47.5	-49.7	17.5	0.00e+00	0	43	0	860880896	65	4978
2026-01-25 01:32:24.14	256.93	54.19	-48.1	-50.6	16.6	0.00e+00	0	43	0	862978048	66	5191
2026-01-25 01:32:25.15	256.45	53.91	-46.6	-48.4	18.7	0.00e+00	0	43	0	865075200	65	4258
2026-01-25 01:32:26.16	255.97	53.63	-46.1	-47.7	19.4	0.00e+00	0	43	0	867172352	64	4163
2026-01-25 01:32:27.17	255.51	53.35	-46.3	-47.9	19.3	0.00e+00	0	43	0	868220928	63	4502
2026-01-25 01:32:28.17	255.06	53.07	-46.2	-47.8	19.5	0.00e+00	0	43	0	870318080	63	4452
2026-01-25 01:32:29.18	254.61	52.79	-45.0	-46.3	20.8	0.00e+00	0	43	0	872415232	62	3961
2026-01-25 01:32:30.19	254.17	52.51	-45.4	-46.8	20.3	0.00e+00	0	43	0	874512384	61	4485
2026-01-25 01:32:31.20	253.74	52.22	-45.7	-47.2	20.0	0.00e+00	0	43	0	876609536	62	4416
2026-01-25 01:32:32.21	253.32	51.94	-46.1	-47.6	19.7	0.00e+00	0	43	0	877658112	63	4389
2026-01-25 01:32:33.22	252.90	51.66	-45.2	-46.6	20.1	0.00e+00	0	43	0	879755264	62	4106
2026-01-25 01:32:34.23	252.50	51.38	-45.7	-47.1	20.3	0.00e+00	0	43	0	881852416	62	4384
2026-01-25 01:32:35.24	252.10	51.10	-45.7	-47.1	20.2	0.00e+00	0	43	0	883949568	62	4375
2026-01-25 01:32:36.25	251.71	50.82	-45.3	-46.6	20.6	0.00e+00	0	43	0	886046720	62	4119
2026-01-25 01:32:37.25	251.33	50.54	-44.3	-45.4	21.7	0.00e+00	0	43	0	887095296	60	4038
2026-01-25 01:32:38.27	250.95	50.26	-44.5	-45.6	21.4	0.00e+00	0	43	0	889192448	60	4130
2026-01-25 01:32:39.27	250.58	49.98	-44.9	-46.1	21.0	0.00e+00	0	43	0	891289600	60	4389
2026-01-25 01:32:40.28	250.22	49.70	-45.7	-47.0	20.2	0.00e+00	0	43	0	893386752	62	4338
2026-01-25 01:32:41.29	249.86	49.42	-45.6	-46.9	20.3	0.00e+00	0	43	0	895483904	62	4267
2026-01-25 01:32:42.30	249.51	49.14	-46.9	-48.7	18.8	0.00e+00	0	43	0	896532480	64	4682
2026-01-25 01:32:43.31	249.17	48.86	-47.3	-49.2	18.1	0.00e+00	0	43	0	898629632	65	4693
2026-01-25 01:32:44.32	248.83	48.59	-47.1	-48.9	18.5	0.00e+00	0	43	0	900726784	65	4503
2026-01-25 01:32:45.33	248.50	48.31	-47.2	-49.1	18.2	0.00e+00	0	43	0	902823936	65	4603
2026-01-25 01:32:46.33	248.18	48.04	-47.8	-49.8	17.5	0.00e+00	0	43	0	904921088	66	4743
2026-01-25 01:32:47.34	247.86	47.76	-47.5	-49.3	17.9	0.00e+00	0	43	0	905969664	66	4479
2026-01-25 01:32:48.35	247.54	47.49	-46.8	-48.5	18.6	0.00e+00	0	43	0	908066816	65	4328
2026-01-25 01:32:49.36	247.23	47.21	-46.9	-48.6	18.7	0.00e+00	0	43	0	910163968	64	4650
2026-01-25 01:32:50.37	246.93	46.94	-47.4	-49.4	17.8	0.00e+00	0	43	0	912261120	65	4777
2026-01-25 01:32:51.37	246.63	46.67	-46.9	-48.6	18.6	0.00e+00	0	43	0	914358272	65	4363
2026-01-25 01:32:52.38	246.34	46.40	-46.0	-47.5	19.5	0.00e+00	0	43	0	916455424	64	4088
2026-01-25 01:32:53.39	246.05	46.13	-45.7	-47.1	20.0	0.00e+00	0	43	0	917504000	63	4117
2026-01-25 01:32:54.40	245.77	45.86	-46.4	-48.1	19.1	0.00e+00	0	43	0	919601152	63	4621
2026-01-25 01:32:55.41	245.49	45.59	-47.0	-48.9	18.3	0.00e+00	0	43	0	921698304	64	4788
2026-01-25 01:32:56.41	245.22	45.33	-47.3	-49.4	17.8	0.00e+00	0	43	0	923795456	65	4793
2026-01-25 01:32:57.42	244.95	45.06	-47.6	-49.7	17.5	0.00e+00	0	43	0	924844032	65	4982
2026-01-25 01:32:58.43	244.69	44.80	-47.7	-50.0	17.1	0.00e+00	0	43	0	926941184	66	4819
2026-01-25 01:32:59.44	244.43	44.53	-47.4	-49.4	17.8	0.00e+00	0	43	0	929038336	66	4511
2026-01-25 01:33:00.45	244.17	44.27	-47.1	-48.9	18.4	0.00e+00	0	43	0	931135488	66	4271
2026-01-25 01:33:01.45	243.92	44.01	-47.2	-49.1	18.1	0.00e+00	0	43	0	933232640	65	4599
2026-01-25 01:33:02.46	243.68	43.75	-48.0	-50.1	17.3	0.00e+00	0	43	0	935329792	66	4918
2026-01-25 01:33:03.47	243.43	43.49	-47.6	-49.6	17.6	0.00e+00	0	43	0	936378368	66	4609
2026-01-25 01:33:04.48	243.19	43.24	-46.6	-48.2	18.9	0.00e+00	0	43	0	938475520	65	4191
2026-01-25 01:33:05.49	242.96	42.98	-46.2	-47.7	19.4	0.00e+00	0	43	0	940572672	64	4167
2026-01-25 01:33:06.50	242.73	42.72	-46.6	-48.2	19.1	0.00e+00	0	43	0	942669824	63	4656
2026-01-25 01:33:07.51	242.50	42.47	-46.4	-48.0	19.0	0.00e+00	0	43	0	944766976	64	4314
2026-01-25 01:33:08.52	242.28	42.22	-46.7	-48.4	18.8	0.00e+00	0	43	0	945815552	64	4528
2026-01-25 01:33:09.53	242.05	41.96	-47.2	-49.0	18.2	0.00e+00	0	43	0	947912704	65	4573
2026-01-25 01:33:10.53	241.84	41.71	-47.5	-49.5	17.7	0.00e+00	0	43	0	950009856	66	4546
2026-01-25 01:33:11.54	241.63	41.46	-47.9	-50.0	17.1	0.00e+00	0	43	0	952107008	66	4857
2026-01-25 01:33:12.55	241.41	41.22	-48.3	-50.6	16.7	0.00e+00	0	43	0	953155584	67	4892
2026-01-25 01:33:13.56	241.21	40.97	-49.1	-51.9	15.5	0.00e+00	0	43	0	955252736	68	5386
2026-01-25 01:33:14.57	241.00	40.72	-49.5	-52.5	15.0	0.00e+00	0	43	0	957349888	70	5116
2026-01-25 01:33:15.57	240.80	40.48	-49.6	-52.7	15.0	7.00e-07	0	43	0	959447040	70	5228
2026-01-25 01:33:16.58	240.61	40.24	-49.5	-52.4	15.0	7.00e-07	0	43	0	961544192	70	5064
2026-01-25 01:33:17.59	240.41	40.00	-49.6	-52.5	14.8	7.60e-06	0	43	0	963641344	71	4864
2026-01-25 01:33:18.60	240.22	39.76	-48.2	-50.3	17.1	0.00e+00	0	43	0	964689920	68	4455
2026-01-25 01:33:19.61	240.03	39.52	-46.9	-48.5	18.6	0.00e+00	0	43	0	966787072	65	4306
2026-01-25 01:33:20.61	239.84	39.28	-47.1	-48.7	18.5	0.00e+00	0	43	0	968884224	65	4435
2026-01-25 01:33:21.62	239.66	39.04	-46.8	-48.5	18.7	0.00e+00	0	43	0	970981376	65	4292
2026-01-25 01:33:22.63	239.48	38.81	-47.0	-48.6	18.6	0.00e+00	0	43	0	973078528	65	4390
2026-01-25 01:33:23.64	239.30	38.57	-47.8	-49.8	17.4	0.00e+00	0	43	0	974127104	66	4743
2026-01-25 01:33:24.65	239.12	38.34	-48.0	-50.0	17.2	0.00e+00	0	43	0	976224256	66	4850
2026-01-25 01:33:25.66	238.95	38.11	-48.1	-50.3	17.0	0.00e+00	0	43	0	978321408	66	4997
2026-01-25 01:33:26.67	238.78	37.88	-48.1	-50.3	17.0	0.00e+00	0	43	0	980418560	66	4994
2026-01-25 01:33:27.67	238.61	37.65	-48.8	-51.2	16.3	0.00e+00	0	43	0	982515712	68	4948
2026-01-25 01:33:28.68	238.45	37.42	-48.8	-51.3	16.0	0.00e+00	0	43	0	983564288	68	5021
2026-01-25 01:33:29.69	238.28	37.20	-49.1	-51.7	15.7	0.00e+00	0	43	0	985661440	69	4948
2026-01-25 01:33:30.70	238.12	36.97	-49.1	-51.8	15.6	0.00e+00	0	43	0	987758592	69	4998
2026-01-25 01:33:31.71	237.96	36.75	-49.5	-52.3	15.1	0.00e+00	0	43	0	989855744	69	5329
2026-01-25 01:33:32.72	237.81	36.52	-49.2	-51.8	15.5	0.00e+00	0	43	0	991952896	69	4991
2026-01-25 01:33:33.73	237.65	36.30	-48.6	-50.9	16.4	0.00e+00	0	43	0	993001472	68	4808
2026-01-25 01:33:34.74	237.50	36.08	-49.1	-51.7	15.6	0.00e+00	0	43	0	995098624	69	4966
2026-01-25 01:33:35.75	237.35	35.86	-49.0	-51.6	15.9	0.00e+00	0	43	0	997195776	69	4909
2026-01-25 01:33:36.75	237.20	35.65	-48.6	-50.9	16.5	0.00e+00	0	43	0	999292928	69	4501
2026-01-25 01:33:37.76	237.05	35.43	-47.7	-49.6	17.6	0.00e+00	0	43	0	1001390080	67	4379
2026-01-25 01:33:38.77	236.91	35.21	-47.8	-49.9	17.3	0.00e+00	0	43	0	1003487232	66	4768
2026-01-25 01:33:39.78	236.77	35.00	-47.6	-49.6	17.6	0.00e+00	0	43	0	1004535808	66	4601
2026-01-25 01:33:40.79	236.63	34.79	-47.6	-49.6	17.5	0.00e+00	0	43	0	1006632960	66	4621
2026-01-25 01:33:41.79	236.49	34.58	-47.5	-49.4	17.8	0.00e+00	0	43	0	1008730112	66	4508
2026-01-25 01:33:42.80	236.35	34.37	-47.2	-49.0	18.2	0.00e+00	0	43	0	1010827264	66	4295
2026-01-25 01:33:43.81	236.22	34.16	-46.4	-47.9	19.1	0.00e+00	0	43	0	1011875840	64	4286
2026-01-25 01:33:44.82	236.08	33.95	-46.1	-47.5	19.6	0.00e+00	0	43	0	1013972992	63	4329
2026-01-25 01:33:45.83	235.95	33.74	-46.1	-47.5	19.6	0.00e+00	0	43	0	1016070144	63	4313
2026-01-25 01:33:46.84	235.82	33.54	-45.7	-47.1	20.0	0.00e+00	0	43	0	1018167296	62	4352
2026-01-25 01:33:47.85	235.69	33.33	-46.6	-48.2	19.0	0.00e+00	0	43	0	1020264448	63	4671
2026-01-25 01:33:48.85	235.57	33.13	-47.1	-49.0	18.0	0.00e+00	0	43	0	1021313024	65	4557
2026-01-25 01:33:49.86	235.44	32.93	-47.3	-49.2	17.9	0.00e+00	0	43	0	1023410176	66	4407
2026-01-25 01:33:50.87	235.32	32.73	-47.1	-48.9	18.2	0.00e+00	0	43	0	1025507328	66	4284
2026-01-25 01:33:51.88	235.20	32.53	-47.0	-48.8	18.3	0.00e+00	0	43	0	1027604480	66	4208
2026-01-25 01:33:52.89	235.08	32.33	-46.8	-48.5	18.5	0.00e+00	0	43	0	1029701632	65	4320
2026-01-25 01:33:53.90	234.96	32.13	-47.0	-48.8	18.3	0.00e+00	0	43	0	1031798784	65	4467
2026-01-25 01:33:54.91	234.84	31.94	-47.5	-49.5	17.6	0.00e+00	0	43	0	1032847360	65	4836
2026-01-25 01:33:55.91	234.72	31.74	-48.0	-50.2	17.0	0.00e+00	0	43	0	1034944512	66	4929
2026-01-25 01:33:56.92	234.61	31.55	-47.9	-50.1	16.8	0.00e+00	0	43	0	1037041664	67	4622
2026-01-25 01:33:57.93	234.50	31.36	-47.4	-49.3	17.8	0.00e+00	0	43	0	1039138816	66	4460
2026-01-25 01:33:58.94	234.38	31.17	-46.6	-48.2	18.9	0.00e+00	0	43	0	1040187392	65	4159
2026-01-25 01:33:59.95	234.27	30.98	-46.2	-47.7	19.3	0.00e+00	0	43	0	1042284544	64	4166
2026-01-25 01:34:00.95	234.16	30.79	-45.4	-46.7	20.3	0.00e+00	0	43	0	1044381696	62	4168
2026-01-25 01:34:01.96	234.06	30.60	-45.2	-46.6	20.5	0.00e+00	0	43	0	1046478848	62	4100
2026-01-25 01:34:02.97	233.95	30.41	-45.7	-47.1	20.0	0.00e+00	0	43	0	1048576000	62	4363
2026-01-25 01:34:03.98	233.84	30.23	-46.2	-47.7	19.4	0.00e+00	0	43	0	1050673152	62	4674
2026-01-25 01:34:04.99	233.74	30.04	-46.6	-48.2	18.9	0.00e+00	0	43	0	1051721728	64	4407
2026-01-25 01:34:06.00	233.64	29.86	-46.5	-48.1	19.0	0.00e+00	0	43	0	1053818880	64	4357
2026-01-25 01:34:07.01	233.54	29.68	-46.5	-48.1	18.9	0.00e+00	0	43	0	1055916032	64	4350
2026-01-25 01:34:08.01	233.44	29.50	-46.4	-47.9	18.9	0.00e+00	0	43	0	1058013184	64	4281
2026-01-25 01:34:09.02	233.34	29.31	-46.6	-48.2	18.7	0.00e+00	0	43	0	1060110336	64	4439
2026-01-25 01:34:10.03	233.24	29.13	-46.8	-48.5	18.5	0.00e+00	0	43	0	1061158912	64	4582
2026-01-25 01:34:11.04	233.14	28.96	-47.5	-49.5	17.6	0.00e+00	0	43	0	1063256064	65	4835
2026-01-25 01:34:12.05	233.04	28.78	-48.1	-50.3	16.8	0.00e+00	0	43	0	1065353216	66	5019
2026-01-25 01:34:13.06	232.95	28.60	-48.4	-50.7	16.4	0.00e+00	0	43	0	1067450368	67	4961
2026-01-25 01:34:14.07	232.86	28.43	-49.0	-51.7	15.5	0.00e+00	0	43	0	1069547520	68	5226
2026-01-25 01:34:15.07	232.76	28.25	-49.2	-52.0	15.3	0.00e+00	0	43	0	1070596096	68	5426
2026-01-25 01:34:16.08	232.67	28.08	-48.5	-50.8	16.4	0.00e+00	0	43	0	1072693248	68	4737
2026-01-25 01:34:17.09	232.58	27.91	-48.3	-50.5	16.6	0.00e+00	0	43	0	1074790400	68	4565
2026-01-25 01:34:18.10	232.49	27.74	-47.6	-49.5	17.5	0.00e+00	0	43	0	1076887552	67	4335
2026-01-25 01:34:19.11	232.40	27.57	-47.4	-49.3	17.7	0.00e+00	0	43	0	1078984704	66	4476
2026-01-25 01:34:20.11	232.32	27.40	-47.1	-48.9	18.1	0.00e+00	0	43	0	1080033280	66	4271
2026-01-25 01:34:21.12	232.23	27.23	-47.1	-48.8	18.2	0.00e+00	0	43	0	1082130432	65	4477
2026-01-25 01:34:22.13	232.14	27.06	-46.9	-48.5	18.5	0.00e+00	0	43	0	1084227584	65	4337
2026-01-25 01:34:23.14	232.06	26.89	-46.7	-48.3	18.6	0.00e+00	0	43	0	1086324736	65	4240
2026-01-25 01:34:24.15	231.97	26.73	-46.5	-48.1	18.8	0.00e+00	0	43	0	1088421888	65	4132
2026-01-25 01:34:25.15	231.89	26.56	-46.3	-47.9	19.1	0.00e+00	0	43	0	1089470464	64	4258
2026-01-25 01:34:26.16	231.81	26.40	-46.4	-47.9	19.1	0.00e+00	0	42	0	1091567616	64	4286
2026-01-25 01:34:27.17	231.73	26.24	-46.1	-47.6	19.4	0.00e+00	0	43	0	1093664768	63	4355
2026-01-25 01:34:28.18	231.65	26.08	-46.1	-47.5	19.6	0.00e+00	0	43	0	1095761920	63	4307
2026-01-25 01:34:29.19	231.57	25.91	-46.0	-47.4	19.8	0.00e+00	0	43	0	1097859072	63	4256
2026-01-25 01:34:30.20	231.49	25.75	-46.1	-47.5	19.5	0.00e+00	0	43	0	1098907648	63	4318
2026-01-25 01:34:31.21	231.41	25.59	-46.2	-47.7	19.5	0.00e+00	0	43	0	1101004800	63	4399
2026-01-25 01:34:32.21	231.33	25.44	-46.4	-48.0	19.2	0.00e+00	0	43	0	1103101952	63	4551
2026-01-25 01:34:33.22	231.26	25.28	-46.5	-48.0	19.1	0.00e+00	0	43	0	1105199104	63	4589
2026-01-25 01:34:34.23	231.18	25.12	-46.4	-47.9	19.0	0.00e+00	0	43	0	1107296256	64	4267
2026-01-25 01:34:35.24	231.11	24.97	-46.7	-48.4	18.7	0.00e+00	0	43	0	1108344832	64	4499
2026-01-25 01:34:36.25	231.03	24.81	-46.6	-48.3	18.8	0.00e+00	0	43	0	1110441984	64	4451
2026-01-25 01:34:37.25	230.96	24.66	-46.7	-48.3	18.7	0.00e+00	0	43	0	1112539136	64	4470
2026-01-25 01:34:38.26	230.89	24.51	-46.8	-48.4	18.6	0.00e+00	0	43	0	1114636288	64	4538
2026-01-25 01:34:39.27	230.81	24.35	-46.4	-48.0	19.0	0.00e+00	0	43	0	1116733440	64	4320
2026-01-25 01:34:40.28	230.74	24.20	-46.5	-48.1	18.9	0.00e+00	0	43	0	1117782016	64	4355
2026-01-25 01:34:41.29	230.67	24.05	-46.6	-48.2	18.8	0.00e+00	0	43	0	1119879168	64	4415
2026-01-25 01:34:42.30	230.60	23.90	-46.8	-48.4	18.6	0.00e+00	0	43	0	1121976320	64	4533
2026-01-25 01:34:43.31	230.53	23.75	-47.0	-48.7	18.4	0.00e+00	0	43	0	1124073472	64	4670
2026-01-25 01:34:44.32	230.46	23.60	-47.4	-49.2	17.9	0.00e+00	0	43	0	1126170624	65	4671
2026-01-25 01:34:45.33	230.40	23.46	-47.7	-49.6	17.5	0.00e+00	0	43	0	1127219200	66	4632
2026-01-25 01:34:46.33	230.33	23.31	-48.0	-50.1	17.0	0.00e+00	0	43	0	1129316352	66	4887
2026-01-25 01:34:47.34	230.26	23.16	-48.3	-50.5	16.6	0.00e+00	0	43	0	1131413504	67	4839
2026-01-25 01:34:48.35	230.20	23.02	-48.5	-50.8	16.3	0.00e+00	0	43	0	1133510656	67	5000
2026-01-25 01:34:49.36	230.13	22.87	-48.2	-50.3	16.7	0.00e+00	0	43	0	1135607808	67	4750
2026-01-25 01:34:50.37	230.07	22.73	-47.7	-49.6	17.5	0.00e+00	0	43	0	1137704960	67	4357
2026-01-25 01:34:51.37	230.01	22.59	-47.2	-49.0	18.1	0.00e+00	0	43	0	1138753536	66	4298
2026-01-25 01:34:52.38	229.94	22.45	-47.0	-48.7	18.3	0.00e+00	0	43	0	1140850688	66	4190
2026-01-25 01:34:53.39	229.88	22.31	-46.4	-48.0	19.0	0.00e+00	0	43	0	1142947840	64	4300
2026-01-25 01:34:54.40	229.82	22.16	-46.3	-47.8	19.1	0.00e+00	0	43	0	1145044992	64	4234
2026-01-25 01:34:55.41	229.76	22.02	-46.0	-47.5	19.4	0.00e+00	0	43	0	1146093568	64	4057
2026-01-25 01:34:56.42	229.69	21.89	-45.9	-47.3	19.7	0.00e+00	0	43	0	1148190720	63	4212
2026-01-25 01:34:57.43	229.63	21.75	-45.6	-47.0	20.0	0.00e+00	0	43	0	1150287872	63	4063
2026-01-25 01:34:58.44	229.57	21.61	-45.5	-46.8	20.1	0.00e+00	0	43	0	1152385024	62	4234
2026-01-25 01:34:59.45	229.52	21.47	-45.8	-47.1	19.8	0.00e+00	0	43	0	1154482176	62	4374
2026-01-25 01:35:00.45	229.46	21.34	-45.5	-46.8	20.1	0.00e+00	0	43	0	1155530752	62	4233
2026-01-25 01:35:01.46	229.40	21.20	-45.3	-46.6	20.3	0.00e+00	0	43	0	1157627904	62	4113
2026-01-25 01:35:02.47	229.34	21.07	-45.5	-46.8	20.1	0.00e+00	0	43	0	1159725056	62	4239
2026-01-25 01:35:03.48	229.28	20.93	-45.6	-46.9	20.0	0.00e+00	0	43	0	1161822208	62	4283
2026-01-25 01:35:04.49	229.23	20.80	-45.5	-46.8	20.1	0.00e+00	0	43	0	1163919360	62	4196
2026-01-25 01:35:05.49	229.17	20.67	-45.5	-46.8	20.2	0.00e+00	0	43	0	1166016512	62	4199
2026-01-25 01:35:06.50	229.12	20.53	-45.6	-46.9	20.0	0.00e+00	0	43	0	1167065088	62	4257
2026-01-25 01:35:07.51	229.06	20.40	-45.6	-46.9	20.0	0.00e+00	0	43	0	1169162240	62	4283
2026-01-25 01:35:08.52	229.01	20.27	-45.6	-47.0	19.9	0.00e+00	0	43	0	1171259392	62	4313
2026-01-25 01:35:09.53	228.95	20.14	-45.7	-47.1	19.8	0.00e+00	0	43	0	1173356544	62	4355
2026-01-25 01:35:10.53	228.90	20.01	-45.8	-47.2	19.7	0.00e+00	0	43	0	1174405120	62	4437
2026-01-25 01:35:11.54	228.85	19.88	-46.0	-47.5	19.5	0.00e+00	0	43	0	1176502272	62	4558
2026-01-25 01:35:12.55	228.79	19.75	-46.1	-47.5	19.4	0.00e+00	0	43	0	1178599424	62	4594
2026-01-25 01:35:13.56	228.74	19.63	-46.1	-47.5	19.4	0.00e+00	0	42	0	1180696576	62	4596
2026-01-25 01:35:14.57	228.69	19.50	-46.3	-47.8	19.2	0.00e+00	0	43	0	1182793728	63	4451
2026-01-25 01:35:15.58	228.64	19.37	-46.3	-47.8	19.1	0.00e+00	0	43	0	1184890880	63	4474
2026-01-25 01:35:16.59	228.59	19.25	-46.2	-47.7	19.2	0.00e+00	0	43	0	1185939456	63	4415
2026-01-25 01:35:17.60	228.54	19.12	-46.6	-48.1	18.9	0.00e+00	0	43	0	1188036608	63	4647
2026-01-25 01:35:18.61	228.49	19.00	-46.3	-47.8	19.1	0.00e+00	0	43	0	1190133760	63	4475
2026-01-25 01:35:19.62	228.44	18.87	-46.3	-47.8	19.1	0.00e+00	0	42	0	1192230912	63	4480
2026-01-25 01:35:20.63	228.39	18.75	-46.3	-47.8	19.1	0.00e+00	0	43	0	1194328064	63	4460
2026-01-25 01:35:21.63	228.34	18.63	-46.4	-48.0	19.0	0.00e+00	0	43	0	1195376640	63	4565
2026-01-25 01:35:22.64	228.29	18.51	-46.3	-47.8	19.1	0.00e+00	0	43	0	1197473792	63	4478
2026-01-25 01:35:23.65	228.25	18.38	-46.6	-48.2	18.8	0.00e+00	0	43	0	1199570944	63	4701
2026-01-25 01:35:24.66	228.20	18.26	-46.6	-48.3	18.6	0.00e+00	0	43	0	1201668096	64	4454
2026-01-25 01:35:25.67	228.15	18.14	-46.4	-47.9	18.9	0.00e+00	0	43	0	1203765248	64	4276
2026-01-25 01:35:26.67	228.10	18.02	-46.8	-48.5	18.4	0.00e+00	0	43	0	1204813824	64	4563
2026-01-25 01:35:27.68	228.06	17.90	-47.0	-48.8	18.3	0.00e+00	0	43	0	1206910976	64	4712
2026-01-25 01:35:28.69	228.01	17.78	-47.1	-48.9	18.1	0.00e+00	0	43	0	1209008128	64	4775
2026-01-25 01:35:29.70	227.97	17.67	-47.3	-49.2	17.8	0.00e+00	0	43	0	1211105280	65	4660
2026-01-25 01:35:30.71	227.92	17.55	-47.6	-49.5	17.4	0.00e+00	0	43	0	1213202432	65	4843
2026-01-25 01:35:31.72	227.88	17.43	-47.6	-49.5	17.5	0.00e+00	0	43	0	1214251008	65	4825
2026-01-25 01:35:32.73	227.83	17.31	-47.7	-49.6	17.2	0.00e+00	0	43	0	1216348160	66	4650
2026-01-25 01:35:33.73	227.79	17.20	-47.9	-49.9	17.0	0.00e+00	0	43	0	1218445312	66	4798
2026-01-25 01:35:34.74	227.75	17.08	-47.8	-49.7	17.2	0.00e+00	0	43	0	1220542464	66	4694
2026-01-25 01:35:35.75	227.70	16.97	-47.4	-49.3	17.6	0.00e+00	0	43	0	1222639616	66	4447
2026-01-25 01:35:36.76	227.66	16.85	-47.4	-49.2	17.7	0.00e+00	0	43	0	1223688192	66	4416
2026-01-25 01:35:37.76	227.62	16.74	-47.1	-48.8	18.0	0.00e+00	0	43	0	1225785344	66	4234
2026-01-25 01:35:38.77	227.58	16.63	-47.2	-49.0	17.9	0.00e+00	0	43	0	1227882496	66	4308
2026-01-25 01:35:39.78	227.53	16.51	-46.5	-48.1	18.7	0.00e+00	0	43	0	1229979648	65	4108
2026-01-25 01:35:40.79	227.49	16.40	-46.1	-47.6	19.1	0.00e+00	0	43	0	1232076800	64	4129
2026-01-25 01:35:41.80	227.45	16.29	-46.2	-47.6	19.1	0.00e+00	0	43	0	1233125376	64	4139
2026-01-25 01:35:42.81	227.41	16.18	-45.9	-47.3	19.6	0.00e+00	0	43	0	1235222528	63	4211
2026-01-25 01:35:43.81	227.37	16.07	-45.8	-47.2	19.7	0.00e+00	0	43	0	1237319680	63	4156
2026-01-25 01:35:44.82	227.33	15.96	-45.6	-47.0	19.9	0.00e+00	0	43	0	1239416832	63	4058
2026-01-25 01:35:45.83	227.29	15.85	-45.6	-47.0	19.8	0.00e+00	0	42	0	1241513984	63	4077
2026-01-25 01:35:46.84	227.25	15.74	-45.6	-47.0	19.8	0.00e+00	0	43	0	1242562560	63	4067
2026-01-25 01:35:47.85	227.21	15.63	-45.6	-46.9	19.9	0.00e+00	0	43	0	1244659712	62	4267
2026-01-25 01:35:48.85	227.17	15.52	-45.6	-47.0	19.8	0.00e+00	0	43	0	1246756864	62	4312
2026-01-25 01:35:49.86	227.13	15.41	-45.3	-46.6	20.1	0.00e+00	0	43	0	1248854016	62	4137
2026-01-25 01:35:50.87	227.09	15.30	-45.6	-47.0	19.8	0.00e+00	0	43	0	1250951168	62	4292
2026-01-25 01:35:51.88	227.06	15.20	-45.8	-47.2	19.6	0.00e+00	0	43	0	1253048320	62	4419
2026-01-25 01:35:52.89	227.02	15.09	-45.9	-47.3	19.5	0.00e+00	0	43	0	1254096896	62	4467
