passes_logs/2026/01/25/R3.2S_Murmansk/R3.2S_Murmansk__20260125_201539_TY-42_rec.log

#Pass ID: 20260125_201539_TY-42
#Satellite: TY-42
#Configuration: TY-42_900M
#almurnet v.1.7.20251203
#Start time: 2026-01-25 20:15:40

#Version: 2.2.20231116
#Station: R3.2S_Murmansk
#Location: 33.079688 lon 68.888172 lat
#TLE: 1 64048U 25103A   26025.57890046  .00008012  00000-0  38191-3 0 09993
#TLE: 2 64048 097.4111 100.7975 0001666 092.3311 307.1431 15.19178210 38425

#Time	Az	El	Level	Level2	SNR	BER	BlckErr	Temp	State	Recorded	gain1	gain2
2026-01-25 20:15:40.02	198.46	2.02	-54.0	-56.1	6.2	0.00e+00	0	50	0	0	79	18602
2026-01-25 20:15:40.99	198.53	2.08	-54.0	-56.2	6.2	0.00e+00	0	50	104	0	79	18629
2026-01-25 20:15:41.96	198.60	2.14	-54.0	-56.2	6.2	0.00e+00	0	50	104	0	79	18658
2026-01-25 20:15:42.93	198.67	2.21	-54.0	-56.1	6.2	0.00e+00	0	50	104	0	79	18568
2026-01-25 20:15:43.91	198.75	2.27	-54.0	-56.2	6.2	0.00e+00	0	50	104	0	79	18603
2026-01-25 20:15:44.87	198.82	2.33	-54.0	-56.1	6.2	0.00e+00	0	50	104	0	79	18476
2026-01-25 20:15:45.85	198.90	2.39	-54.0	-56.1	6.2	0.00e+00	0	51	104	0	79	18433
2026-01-25 20:15:46.82	198.97	2.46	-54.0	-56.1	6.2	0.00e+00	0	50	104	0	79	18485
2026-01-25 20:15:47.79	199.04	2.52	-54.0	-56.1	6.2	0.00e+00	0	50	104	0	79	18474
2026-01-25 20:15:48.76	199.12	2.58	-54.0	-56.1	6.2	0.00e+00	0	51	104	0	79	18504
2026-01-25 20:15:49.73	199.19	2.65	-54.0	-56.1	6.2	0.00e+00	0	51	104	0	79	18438
2026-01-25 20:15:50.70	199.27	2.71	-53.9	-56.1	6.2	0.00e+00	0	51	104	0	79	18411
2026-01-25 20:15:51.67	199.35	2.78	-53.9	-56.1	6.2	0.00e+00	0	51	104	0	79	18431
2026-01-25 20:15:52.64	199.42	2.84	-53.9	-56.1	6.2	0.00e+00	0	51	104	0	79	18429
2026-01-25 20:15:53.61	199.50	2.90	-53.9	-56.0	6.2	0.00e+00	0	51	104	0	79	18360
2026-01-25 20:15:54.58	199.58	2.97	-54.1	-56.2	6.2	0.00e+00	0	51	104	0	79	18628
2026-01-25 20:15:55.56	199.66	3.03	-54.3	-56.4	6.2	0.00e+00	0	51	104	0	79	19121
2026-01-25 20:15:56.53	199.73	3.10	-54.3	-56.4	6.2	0.00e+00	0	51	104	0	79	19251
2026-01-25 20:15:57.50	199.81	3.16	-54.4	-56.5	6.2	0.00e+00	0	51	104	0	79	19355
2026-01-25 20:15:58.47	199.89	3.23	-54.4	-56.5	6.2	0.00e+00	0	51	104	0	79	19357
2026-01-25 20:15:59.44	199.97	3.29	-54.4	-56.5	6.2	0.00e+00	0	51	104	0	79	19406
2026-01-25 20:16:00.41	200.05	3.36	-54.4	-56.5	6.2	0.00e+00	0	51	104	0	79	19396
2026-01-25 20:16:01.39	200.13	3.43	-54.4	-56.5	6.2	0.00e+00	0	51	104	0	79	19363
2026-01-25 20:16:02.36	200.21	3.49	-54.4	-56.5	6.2	0.00e+00	0	51	104	0	79	19388
2026-01-25 20:16:03.33	200.29	3.56	-54.4	-56.5	6.2	0.00e+00	0	52	104	0	79	19391
2026-01-25 20:16:04.30	200.37	3.62	-54.4	-56.5	6.2	0.00e+00	0	52	104	0	79	19335
2026-01-25 20:16:05.28	200.46	3.69	-54.3	-56.5	6.2	0.00e+00	0	51	104	0	79	19305
2026-01-25 20:16:06.25	200.54	3.76	-54.3	-56.4	6.2	0.00e+00	0	52	104	0	79	19246
2026-01-25 20:16:07.22	200.62	3.82	-54.2	-56.4	6.2	0.00e+00	0	52	104	0	79	19070
2026-01-25 20:16:08.19	200.71	3.89	-54.2	-56.4	6.2	0.00e+00	0	52	104	0	79	19043
2026-01-25 20:16:09.16	200.79	3.96	-54.2	-56.3	6.2	0.00e+00	0	52	104	0	79	19004
2026-01-25 20:16:10.13	200.87	4.03	-54.1	-56.3	6.2	0.00e+00	0	52	104	0	79	18850
2026-01-25 20:16:11.10	200.96	4.09	-54.0	-56.2	6.2	0.00e+00	0	52	104	0	79	18628
2026-01-25 20:16:12.07	201.04	4.16	-53.9	-56.1	6.2	0.00e+00	0	52	104	0	79	18495
2026-01-25 20:16:13.04	201.13	4.23	-53.8	-56.0	6.2	0.00e+00	0	52	104	0	79	18204
2026-01-25 20:16:14.02	201.22	4.30	-53.7	-55.8	6.2	0.00e+00	0	52	104	0	79	17935
2026-01-25 20:16:14.99	201.30	4.37	-53.6	-55.7	6.2	0.00e+00	0	52	104	0	79	17625
2026-01-25 20:16:15.96	201.39	4.43	-53.3	-55.4	6.2	0.00e+00	0	52	104	0	78	18121
2026-01-25 20:16:16.93	201.48	4.50	-52.8	-55.0	6.2	0.00e+00	0	52	104	0	77	18250
2026-01-25 20:16:17.90	201.57	4.57	-52.7	-54.8	6.2	0.00e+00	0	52	104	0	77	17874
2026-01-25 20:16:18.88	201.66	4.64	-52.6	-54.8	6.2	0.00e+00	0	52	104	0	77	17860
2026-01-25 20:16:19.85	201.75	4.71	-52.6	-54.8	6.2	0.00e+00	0	52	104	0	77	17792
2026-01-25 20:16:20.82	201.84	4.78	-52.6	-54.8	6.2	0.00e+00	0	52	104	0	77	17810
2026-01-25 20:16:21.79	201.93	4.85	-52.6	-54.7	6.2	0.00e+00	0	52	104	0	77	17725
2026-01-25 20:16:22.77	202.02	4.92	-52.6	-54.8	6.2	0.00e+00	0	52	104	0	77	17780
2026-01-25 20:16:23.74	202.11	4.99	-52.6	-54.8	6.2	0.00e+00	0	52	104	0	77	17767
2026-01-25 20:16:24.71	202.20	5.06	-52.7	-54.9	6.2	0.00e+00	0	52	104	0	77	17986
2026-01-25 20:16:25.68	202.29	5.13	-52.7	-54.8	6.2	0.00e+00	0	52	104	0	77	17957
2026-01-25 20:16:26.65	202.39	5.20	-52.6	-54.7	6.2	0.00e+00	0	52	104	0	77	17745
2026-01-25 20:16:27.62	202.48	5.27	-52.6	-54.7	6.2	0.00e+00	0	53	104	0	77	17694
2026-01-25 20:16:28.59	202.57	5.34	-52.6	-54.8	6.2	0.00e+00	0	53	104	0	77	17861
2026-01-25 20:16:29.56	202.67	5.41	-39.1	-39.1	11.2	0.00e+00	0	53	104	0	59	8227
2026-01-25 20:16:30.53	202.76	5.48	-42.0	-42.0	11.4	0.00e+00	2353	55	0	58720256	55	14605
2026-01-25 20:16:31.51	202.86	5.56	-48.8	-49.6	7.3	0.00e+00	15	54	104	100663296	68	16526
2026-01-25 20:16:32.48	202.96	5.63	-43.8	-44.1	9.6	0.00e+00	150	53	104	100663296	60	13791
2026-01-25 20:16:33.45	203.05	5.70	-35.8	-35.6	14.3	0.00e+00	0	55	0	142606336	43	13942
2026-01-25 20:16:34.42	203.15	5.77	-35.6	-35.5	14.4	3.76e-02	0	55	0	243269632	43	13665
2026-01-25 20:16:35.39	203.25	5.84	-35.5	-35.4	14.4	3.76e-02	0	55	0	360710144	43	13618
2026-01-25 20:16:36.36	203.35	5.92	-35.3	-35.2	14.5	3.76e-02	0	55	0	469762048	42	14063
2026-01-25 20:16:37.33	203.45	5.99	-35.1	-35.0	14.6	2.94e-02	0	55	0	587202560	42	13784
2026-01-25 20:16:38.30	203.55	6.06	-35.1	-35.0	14.6	2.94e-02	0	55	0	687865856	42	13763
2026-01-25 20:16:39.28	203.65	6.13	-35.4	-35.3	14.5	2.57e-02	0	55	0	796917760	42	14225
2026-01-25 20:16:40.25	203.75	6.21	-35.4	-35.4	14.5	2.57e-02	0	55	0	914358272	42	14297
2026-01-25 20:16:41.22	203.85	6.28	-35.2	-35.1	14.6	2.57e-02	0	55	0	1023410176	42	13842
2026-01-25 20:16:42.19	203.95	6.36	-35.3	-35.2	14.6	2.68e-02	0	55	0	1124073472	42	14043
2026-01-25 20:16:43.16	204.05	6.43	-35.2	-35.1	14.7	2.68e-02	0	55	0	1233125376	42	13883
2026-01-25 20:16:44.13	204.16	6.50	-35.1	-35.0	14.7	2.68e-02	0	55	0	1350565888	42	13674
2026-01-25 20:16:45.10	204.26	6.58	-35.1	-35.1	14.7	2.49e-02	0	55	0	1451229184	42	13795
2026-01-25 20:16:46.07	204.37	6.65	-35.2	-35.1	14.7	2.49e-02	0	55	0	1560281088	42	13867
2026-01-25 20:16:47.04	204.47	6.73	-35.4	-35.3	14.6	2.43e-02	0	56	0	1677721600	42	14158
2026-01-25 20:16:48.01	204.58	6.80	-35.1	-35.0	14.7	2.43e-02	0	56	0	1778384896	42	13698
2026-01-25 20:16:48.98	204.68	6.88	-35.0	-34.9	14.7	2.43e-02	0	55	0	1887436800	41	14359
2026-01-25 20:16:49.96	204.79	6.95	-35.1	-35.0	14.6	1.48e-02	0	56	0	2004877312	41	14515
2026-01-25 20:16:50.93	204.90	7.03	-35.1	-35.0	14.6	1.48e-02	0	55	0	2113929216	41	14492
2026-01-25 20:16:51.90	205.01	7.11	-34.9	-34.8	14.7	1.48e-02	0	56	0	2214592512	41	14274
2026-01-25 20:16:52.87	205.12	7.18	-34.9	-34.8	14.7	1.13e-02	0	56	0	2332033024	41	14171
2026-01-25 20:16:53.83	205.23	7.26	-35.1	-35.0	14.6	1.13e-02	0	56	0	2441084928	41	14607
2026-01-25 20:16:54.80	205.34	7.33	-34.9	-34.8	14.7	1.13e-02	0	56	0	2541748224	41	14209
2026-01-25 20:16:55.78	205.45	7.41	-34.9	-34.9	14.7	1.09e-02	0	56	0	2650800128	41	14292
2026-01-25 20:16:56.74	205.56	7.49	-34.6	-34.5	14.9	1.09e-02	0	56	0	2768240640	41	13789
2026-01-25 20:16:57.71	205.67	7.56	-34.8	-34.7	14.8	1.09e-02	0	56	0	2868903936	41	14079
2026-01-25 20:16:58.69	205.79	7.64	-34.7	-34.6	14.8	9.56e-03	0	56	0	2977955840	41	13909
2026-01-25 20:16:59.66	205.90	7.72	-34.8	-34.7	14.8	9.56e-03	0	56	0	3095396352	41	14076
2026-01-25 20:17:00.63	206.02	7.80	-34.7	-34.6	14.8	9.56e-03	0	56	0	3204448256	41	13914
2026-01-25 20:17:01.60	206.13	7.88	-34.7	-34.6	14.8	9.73e-03	0	56	0	3305111552	41	13838
2026-01-25 20:17:02.57	206.25	7.96	-34.6	-34.5	14.9	9.73e-03	0	56	0	3422552064	41	13669
2026-01-25 20:17:03.54	206.37	8.03	-34.5	-34.4	14.9	7.90e-03	0	56	0	3531603968	40	14384
2026-01-25 20:17:04.52	206.49	8.11	-34.6	-34.5	14.9	7.90e-03	0	56	0	3632267264	40	14598
2026-01-25 20:17:05.49	206.60	8.19	-34.4	-34.3	15.0	7.90e-03	0	57	0	3749707776	40	14265
2026-01-25 20:17:06.47	206.73	8.27	-34.5	-34.4	14.9	6.90e-03	0	56	0	3858759680	40	14289
2026-01-25 20:17:07.44	206.85	8.35	-34.5	-34.4	14.9	6.90e-03	0	56	0	3967811584	40	14361
2026-01-25 20:17:08.41	206.97	8.43	-34.4	-34.3	14.9	7.16e-03	0	56	0	4068474880	40	14235
2026-01-25 20:17:09.38	207.09	8.51	-34.3	-34.2	15.0	7.16e-03	0	57	0	4185915392	40	13980
2026-01-25 20:17:10.35	207.21	8.59	-34.3	-34.2	15.0	7.16e-03	0	57	0	4294967296	40	14101
2026-01-25 20:17:11.33	207.34	8.67	-34.3	-34.2	15.0	6.38e-03	0	57	0	4412407808	40	14036
2026-01-25 20:17:12.30	207.46	8.76	-34.3	-34.2	15.0	6.38e-03	0	57	0	4513071104	40	14041
2026-01-25 20:17:13.27	207.59	8.84	-34.2	-34.1	15.1	5.54e-03	0	57	0	4622123008	40	13894
2026-01-25 20:17:14.24	207.71	8.92	-34.0	-33.9	15.1	5.54e-03	0	57	0	4739563520	40	13606
2026-01-25 20:17:15.21	207.84	9.00	-34.0	-33.9	15.1	5.54e-03	0	57	0	4840226816	39	14406
2026-01-25 20:17:16.18	207.97	9.08	-34.1	-34.0	15.1	5.13e-03	0	57	0	4949278720	39	14578
2026-01-25 20:17:17.15	208.09	9.16	-34.2	-34.1	15.1	5.13e-03	0	57	0	5058330624	39	14648
2026-01-25 20:17:18.13	208.23	9.25	-34.2	-34.1	15.1	5.13e-03	0	57	0	5175771136	39	14655
2026-01-25 20:17:19.10	208.36	9.33	-34.2	-34.1	15.1	4.69e-03	0	57	0	5276434432	39	14691
2026-01-25 20:17:20.07	208.49	9.41	-33.9	-33.8	15.3	4.69e-03	0	57	0	5385486336	39	14136
2026-01-25 20:17:21.04	208.62	9.50	-33.9	-33.8	15.3	4.69e-03	0	57	0	5502926848	39	14159
2026-01-25 20:17:22.01	208.75	9.58	-33.9	-33.8	15.2	4.69e-03	0	57	0	5603590144	39	14211
2026-01-25 20:17:22.98	208.89	9.66	-33.9	-33.8	15.2	4.28e-03	0	57	0	5712642048	39	14268
2026-01-25 20:17:23.95	209.02	9.75	-33.8	-33.7	15.3	4.28e-03	0	57	0	5830082560	39	13984
2026-01-25 20:17:24.93	209.16	9.83	-33.8	-33.7	15.3	4.28e-03	0	57	0	5939134464	39	13958
2026-01-25 20:17:25.90	209.29	9.92	-33.8	-33.7	15.3	4.28e-03	0	57	0	6039797760	39	14104
2026-01-25 20:17:26.87	209.43	10.00	-33.7	-33.6	15.3	3.81e-03	0	57	0	6157238272	39	13914
2026-01-25 20:17:27.84	209.57	10.09	-33.8	-33.7	15.3	3.81e-03	0	57	0	6266290176	39	14001
2026-01-25 20:17:28.81	209.71	10.17	-33.7	-33.6	15.3	3.81e-03	0	57	0	6366953472	39	13903
2026-01-25 20:17:29.78	209.85	10.26	-33.7	-33.6	15.3	3.31e-03	0	57	0	6476005376	39	13950
2026-01-25 20:17:30.75	209.99	10.34	-33.7	-33.6	15.4	3.31e-03	0	57	0	6593445888	39	13811
2026-01-25 20:17:31.73	210.13	10.43	-33.6	-33.5	15.4	3.31e-03	0	57	0	6702497792	39	13743
2026-01-25 20:17:32.70	210.28	10.52	-33.8	-33.7	15.3	3.09e-03	0	57	0	6803161088	39	14006
2026-01-25 20:17:33.67	210.42	10.60	-33.7	-33.6	15.4	3.09e-03	0	58	0	6920601600	39	13881
2026-01-25 20:17:34.64	210.57	10.69	-33.7	-33.6	15.3	3.13e-03	0	57	0	7029653504	39	13914
2026-01-25 20:17:35.61	210.71	10.78	-33.6	-33.5	15.4	3.13e-03	0	57	0	7130316800	39	13762
2026-01-25 20:17:36.58	210.86	10.86	-33.8	-33.7	15.4	3.13e-03	0	57	0	7247757312	39	13971
2026-01-25 20:17:37.55	211.01	10.95	-33.6	-33.5	15.4	3.22e-03	0	57	0	7356809216	39	13741
2026-01-25 20:17:38.52	211.16	11.04	-33.5	-33.4	15.6	3.22e-03	0	57	0	7465861120	39	13609
2026-01-25 20:17:39.49	211.31	11.13	-33.5	-33.4	15.5	3.22e-03	0	58	0	7574913024	39	13620
2026-01-25 20:17:40.46	211.46	11.22	-33.4	-33.3	15.6	6.83e-03	0	58	0	7683964928	38	14251
2026-01-25 20:17:41.43	211.61	11.30	-33.6	-33.5	15.5	6.83e-03	0	58	0	7793016832	38	14501
2026-01-25 20:17:42.40	211.77	11.39	-33.5	-33.4	15.6	6.83e-03	0	58	0	7893680128	38	14309
2026-01-25 20:17:43.37	211.92	11.48	-33.4	-33.3	15.6	1.01e-02	0	58	0	8011120640	38	14175
2026-01-25 20:17:44.35	212.08	11.57	-33.5	-33.4	15.5	1.01e-02	0	58	0	8120172544	38	14424
2026-01-25 20:17:45.32	212.24	11.66	-33.3	-33.2	15.6	5.35e-03	0	58	0	8237613056	38	14023
2026-01-25 20:17:46.29	212.40	11.75	-33.2	-33.1	15.6	5.35e-03	0	58	0	8338276352	38	13943
2026-01-25 20:17:47.27	212.56	11.84	-33.2	-33.1	15.7	5.35e-03	0	58	0	8447328256	38	13802
2026-01-25 20:17:48.24	212.72	11.93	-33.1	-33.0	15.7	5.35e-03	0	58	0	8564768768	38	13704
2026-01-25 20:17:49.21	212.88	12.02	-33.0	-32.9	15.7	2.52e-03	0	58	0	8665432064	38	13608
2026-01-25 20:17:50.18	213.04	12.12	-32.9	-32.8	15.7	2.52e-03	0	58	0	8774483968	37	14263
2026-01-25 20:17:51.15	213.21	12.21	-32.9	-32.8	15.8	2.52e-03	0	58	0	8883535872	37	14154
2026-01-25 20:17:52.12	213.37	12.30	-32.9	-32.8	15.8	1.99e-03	0	58	0	9000976384	37	14244
2026-01-25 20:17:53.09	213.54	12.39	-32.9	-32.9	15.7	1.99e-03	0	58	0	9101639680	37	14282
2026-01-25 20:17:54.06	213.70	12.48	-32.7	-32.6	15.8	1.99e-03	0	58	0	9210691584	37	13840
2026-01-25 20:17:55.03	213.87	12.57	-32.7	-32.6	15.8	1.89e-03	0	58	0	9328132096	37	13894
2026-01-25 20:17:56.00	214.04	12.67	-32.6	-32.5	15.9	1.89e-03	0	58	0	9428795392	37	13701
2026-01-25 20:17:56.97	214.21	12.76	-32.7	-32.6	15.8	1.89e-03	0	58	0	9537847296	37	13797
2026-01-25 20:17:57.94	214.39	12.85	-32.6	-32.5	15.9	1.65e-03	0	58	0	9655287808	37	13745
2026-01-25 20:17:58.91	214.56	12.95	-32.6	-32.5	15.9	1.65e-03	0	58	0	9755951104	37	13636
2026-01-25 20:17:59.88	214.74	13.04	-32.4	-32.3	15.9	1.65e-03	0	58	0	9865003008	36	14197
2026-01-25 20:18:00.86	214.91	13.14	-32.4	-32.3	15.9	1.48e-03	0	58	0	9982443520	36	14130
2026-01-25 20:18:01.83	215.09	13.23	-32.4	-32.3	15.9	1.48e-03	0	58	0	10091495424	36	14172
2026-01-25 20:18:02.79	215.27	13.32	-32.4	-32.3	15.9	1.48e-03	0	58	0	10192158720	36	14123
2026-01-25 20:18:03.77	215.45	13.42	-32.1	-32.0	16.0	1.39e-03	0	58	0	10301210624	36	13776
2026-01-25 20:18:04.73	215.63	13.51	-32.1	-32.0	16.0	1.39e-03	0	58	0	10418651136	36	13691
2026-01-25 20:18:05.70	215.82	13.61	-32.1	-32.0	16.0	1.39e-03	0	58	0	10519314432	36	13675
2026-01-25 20:18:06.68	216.00	13.70	-32.1	-32.0	16.0	9.35e-04	0	58	0	10628366336	36	13696
2026-01-25 20:18:07.65	216.19	13.80	-32.0	-31.9	16.1	9.35e-04	0	58	0	10745806848	36	13510
2026-01-25 20:18:08.62	216.38	13.90	-29.7	-29.6	15.6	9.35e-04	0	58	0	10854858752	31	13901
2026-01-25 20:18:09.59	216.56	13.99	-29.7	-29.6	15.6	1.70e-03	0	59	0	10955522048	31	13861
2026-01-25 20:18:10.56	216.75	14.09	-29.6	-29.5	15.7	1.70e-03	0	58	0	11072962560	31	13721
2026-01-25 20:18:11.53	216.95	14.19	-29.5	-29.5	15.7	1.70e-03	0	58	0	11182014464	31	13644
2026-01-25 20:18:12.50	217.14	14.28	-29.6	-29.6	15.6	1.70e-03	0	59	0	11282677760	31	13805
2026-01-25 20:18:13.47	217.33	14.38	-29.4	-29.3	15.7	2.35e-03	0	58	0	11400118272	30	14195
2026-01-25 20:18:14.44	217.53	14.48	-29.3	-29.3	15.8	2.35e-03	0	58	0	11509170176	30	14114
2026-01-25 20:18:15.41	217.73	14.57	-29.2	-29.2	15.8	2.35e-03	0	58	0	11609833472	30	13959
2026-01-25 20:18:16.38	217.93	14.67	-29.3	-29.2	15.8	1.85e-03	0	59	0	11718885376	30	13962
2026-01-25 20:18:17.35	218.13	14.77	-29.3	-29.2	15.7	1.85e-03	0	58	0	11836325888	30	14091
2026-01-25 20:18:18.33	218.33	14.87	-29.2	-29.1	15.8	1.85e-03	0	59	0	11945377792	30	13832
2026-01-25 20:18:19.30	218.53	14.97	-29.1	-29.0	15.9	1.74e-03	0	58	0	12046041088	30	13698
2026-01-25 20:18:20.27	218.74	15.07	-29.2	-29.1	15.8	1.74e-03	0	59	0	12163481600	30	13882
2026-01-25 20:18:21.24	218.95	15.17	-29.0	-28.9	15.9	1.74e-03	0	59	0	12272533504	30	13555
2026-01-25 20:18:22.21	219.15	15.26	-29.1	-29.0	15.9	1.74e-03	0	58	0	12373196800	30	13670
2026-01-25 20:18:23.18	219.36	15.36	-28.9	-28.8	15.9	1.45e-03	0	59	0	12490637312	29	14195
2026-01-25 20:18:24.15	219.58	15.46	-28.9	-28.8	15.9	1.45e-03	0	59	0	12599689216	29	14152
2026-01-25 20:18:25.12	219.79	15.56	-28.8	-28.7	15.9	1.26e-03	0	59	0	12708741120	29	14087
2026-01-25 20:18:26.09	220.00	15.66	-28.8	-28.7	15.9	1.26e-03	0	59	0	12817793024	29	14071
2026-01-25 20:18:27.06	220.22	15.76	-28.7	-28.6	16.0	1.26e-03	0	59	0	12926844928	29	13836
2026-01-25 20:18:28.03	220.44	15.86	-28.7	-28.6	16.0	1.26e-03	0	59	0	13035896832	29	13849
2026-01-25 20:18:29.00	220.66	15.96	-28.8	-28.7	16.0	1.25e-03	0	59	0	13136560128	29	14032
2026-01-25 20:18:29.97	220.88	16.06	-28.7	-28.6	16.0	1.25e-03	0	59	0	13254000640	29	13853
2026-01-25 20:18:30.94	221.10	16.17	-28.5	-28.4	16.1	1.10e-03	0	59	0	13363052544	29	13529
2026-01-25 20:18:31.91	221.33	16.27	-28.5	-28.4	16.0	1.10e-03	0	59	0	13463715840	28	14299
2026-01-25 20:18:32.88	221.55	16.37	-28.4	-28.3	16.0	1.10e-03	0	59	0	13581156352	28	14267
2026-01-25 20:18:33.86	221.78	16.47	-28.4	-28.3	16.1	7.82e-04	0	59	0	13690208256	28	14235
2026-01-25 20:18:34.83	222.01	16.57	-28.4	-28.3	16.1	7.82e-04	0	59	0	13807648768	28	14137
2026-01-25 20:18:35.80	222.25	16.67	-28.2	-28.1	16.2	7.82e-04	0	59	0	13908312064	28	13813
2026-01-25 20:18:36.77	222.48	16.78	-28.2	-28.1	16.2	7.49e-04	0	59	0	14017363968	28	13911
2026-01-25 20:18:37.74	222.71	16.88	-28.2	-28.1	16.2	7.49e-04	0	59	0	14126415872	28	13817
2026-01-25 20:18:38.72	222.95	16.98	-28.2	-28.1	16.1	7.49e-04	0	59	0	14243856384	28	13851
2026-01-25 20:18:39.69	223.19	17.08	-28.1	-28.0	16.2	9.87e-04	0	59	0	14344519680	28	13718
2026-01-25 20:18:40.67	223.44	17.19	-28.1	-28.0	16.2	9.87e-04	0	59	0	14453571584	28	13786
2026-01-25 20:18:41.64	223.68	17.29	-28.0	-27.9	16.3	9.87e-04	0	59	0	14571012096	28	13537
2026-01-25 20:18:42.61	223.92	17.39	-28.2	-28.1	16.2	9.87e-04	0	59	0	14671675392	28	13811
2026-01-25 20:18:43.58	224.17	17.49	-28.0	-27.9	16.3	6.01e-04	0	59	0	14780727296	28	13555
2026-01-25 20:18:44.55	224.42	17.60	-28.0	-27.9	16.3	6.01e-04	0	59	0	14898167808	27	14344
2026-01-25 20:18:45.52	224.67	17.70	-28.0	-27.9	16.3	5.67e-04	0	59	0	15007219712	27	14351
2026-01-25 20:18:46.49	224.92	17.80	-28.0	-27.9	16.3	5.67e-04	0	59	0	15107883008	27	14316
2026-01-25 20:18:47.46	225.18	17.90	-27.9	-27.8	16.3	5.67e-04	0	59	0	15225323520	27	14202
2026-01-25 20:18:48.43	225.43	18.01	-27.9	-27.8	16.3	5.67e-04	0	59	0	15334375424	27	14136
2026-01-25 20:18:49.40	225.69	18.11	-28.0	-27.9	16.3	4.72e-04	0	59	0	15435038720	27	14361
2026-01-25 20:18:50.37	225.95	18.21	-27.7	-27.6	16.3	4.72e-04	0	59	0	15544090624	27	13886
2026-01-25 20:18:51.34	226.21	18.32	-27.8	-27.7	16.3	4.72e-04	0	59	0	15661531136	27	14059
2026-01-25 20:18:52.31	226.48	18.42	-27.8	-27.7	16.3	4.72e-04	0	59	0	15762194432	27	14029
2026-01-25 20:18:53.28	226.74	18.52	-27.8	-27.7	16.3	8.01e-04	0	59	0	15871246336	27	14104
2026-01-25 20:18:54.25	227.01	18.63	-27.8	-27.7	16.3	8.01e-04	0	59	0	15988686848	27	14067
2026-01-25 20:18:55.22	227.28	18.73	-27.7	-27.6	16.4	8.01e-04	0	59	0	16097738752	27	13849
2026-01-25 20:18:56.19	227.56	18.83	-27.6	-27.5	16.3	3.58e-04	0	59	0	16198402048	27	13771
2026-01-25 20:18:57.16	227.83	18.93	-27.6	-27.4	16.4	3.58e-04	0	59	0	16315842560	27	13632
2026-01-25 20:18:58.13	228.11	19.04	-27.6	-27.5	16.4	3.58e-04	0	59	0	16424894464	27	13659
2026-01-25 20:18:59.10	228.39	19.14	-27.6	-27.5	16.4	3.58e-04	0	59	0	16525557760	27	13638
2026-01-25 20:19:00.07	228.67	19.24	-27.5	-27.4	16.4	3.43e-04	0	59	0	16642998272	27	13524
2026-01-25 20:19:01.05	228.95	19.35	-27.4	-27.3	16.4	3.43e-04	0	59	0	16752050176	26	14124
2026-01-25 20:19:02.02	229.24	19.45	-27.4	-27.3	16.4	3.77e-04	0	59	0	16861102080	26	14196
2026-01-25 20:19:02.99	229.52	19.55	-27.3	-27.2	16.4	3.77e-04	0	59	0	16961765376	26	14107
2026-01-25 20:19:03.97	229.82	19.66	-27.4	-27.3	16.4	3.77e-04	0	59	0	17079205888	26	14138
2026-01-25 20:19:04.95	230.11	19.76	-27.3	-27.2	16.4	4.96e-04	0	59	0	17188257792	26	14063
2026-01-25 20:19:05.92	230.41	19.86	-27.3	-27.2	16.4	4.96e-04	0	59	0	17288921088	26	14076
2026-01-25 20:19:06.88	230.70	19.96	-27.4	-27.3	16.4	4.96e-04	0	59	0	17406361600	26	14250
2026-01-25 20:19:07.85	231.00	20.06	-27.3	-27.2	16.4	4.00e-04	0	59	0	17515413504	26	13978
2026-01-25 20:19:08.82	231.30	20.17	-27.2	-27.1	16.4	4.00e-04	0	59	0	17632854016	26	13931
2026-01-25 20:19:09.79	231.60	20.27	-27.1	-27.0	16.5	4.00e-04	0	59	0	17733517312	26	13745
2026-01-25 20:19:10.76	231.90	20.37	-27.2	-27.1	16.4	3.15e-04	0	59	0	17842569216	26	13929
2026-01-25 20:19:11.73	232.21	20.47	-27.1	-27.0	16.4	3.15e-04	0	59	0	17951621120	26	13785
2026-01-25 20:19:12.70	232.52	20.57	-27.1	-27.0	16.5	3.15e-04	0	59	0	18052284416	26	13661
2026-01-25 20:19:13.67	232.83	20.67	-27.2	-27.1	16.4	3.43e-04	0	59	0	18169724928	26	13835
2026-01-25 20:19:14.64	233.15	20.77	-27.1	-27.0	16.4	3.43e-04	0	59	0	18278776832	26	13733
2026-01-25 20:19:15.61	233.46	20.87	-27.0	-26.9	16.4	3.43e-04	0	59	0	18379440128	26	13562
2026-01-25 20:19:16.59	233.78	20.97	-26.9	-26.8	16.4	3.43e-04	0	59	0	18496880640	25	14160
2026-01-25 20:19:17.56	234.11	21.07	-26.9	-26.8	16.5	1.22e-03	0	59	0	18605932544	25	14234
2026-01-25 20:19:18.53	234.43	21.17	-26.9	-26.8	16.5	1.22e-03	0	59	0	18723373056	25	14144
2026-01-25 20:19:19.50	234.75	21.27	-26.8	-26.7	16.5	4.05e-04	0	59	0	18824036352	25	14040
2026-01-25 20:19:20.47	235.08	21.37	-26.8	-26.7	16.5	4.05e-04	0	59	0	18933088256	25	14041
2026-01-25 20:19:21.44	235.41	21.46	-26.7	-26.6	16.5	4.05e-04	0	59	0	19050528768	25	13940
2026-01-25 20:19:22.41	235.74	21.56	-26.7	-26.6	16.5	2.76e-04	0	59	0	19151192064	25	13813
2026-01-25 20:19:23.38	236.08	21.66	-26.7	-26.6	16.5	2.76e-04	0	59	0	19260243968	25	13817
2026-01-25 20:19:24.36	236.42	21.76	-26.7	-26.6	16.5	2.76e-04	0	59	0	19369295872	25	13854
2026-01-25 20:19:25.33	236.76	21.85	-26.6	-26.5	16.6	2.24e-04	0	59	0	19486736384	25	13683
2026-01-25 20:19:26.30	237.10	21.95	-26.5	-26.4	16.6	2.24e-04	0	59	0	19587399680	25	13595
2026-01-25 20:19:27.27	237.44	22.04	-26.5	-26.4	16.6	2.24e-04	0	59	0	19696451584	25	13544
2026-01-25 20:19:28.24	237.79	22.14	-26.5	-26.5	16.6	2.24e-04	0	59	0	19813892096	25	13634
2026-01-25 20:19:29.21	238.14	22.23	-26.4	-26.3	16.6	1.24e-04	0	59	0	19914555392	24	14271
2026-01-25 20:19:30.19	238.49	22.33	-26.5	-26.4	16.6	1.24e-04	0	59	0	20023607296	24	14285
2026-01-25 20:19:31.16	238.85	22.42	-26.4	-26.3	16.6	1.24e-04	0	59	0	20141047808	24	14193
2026-01-25 20:19:32.13	239.20	22.51	-26.4	-26.3	16.6	1.52e-04	0	59	0	20250099712	24	14237
2026-01-25 20:19:33.10	239.56	22.60	-26.3	-26.3	16.6	1.52e-04	0	59	0	20350763008	24	14113
2026-01-25 20:19:34.07	239.92	22.69	-26.4	-26.3	16.6	1.52e-04	0	59	0	20459814912	24	14127
2026-01-25 20:19:35.04	240.28	22.78	-26.3	-26.2	16.6	1.52e-04	0	59	0	20577255424	24	14020
2026-01-25 20:19:36.02	240.65	22.87	-26.2	-26.1	16.6	1.52e-04	0	59	0	20686307328	24	13926
2026-01-25 20:19:36.99	241.02	22.96	-26.2	-26.1	16.7	1.62e-04	0	59	0	20786970624	24	13884
2026-01-25 20:19:37.96	241.39	23.05	-26.1	-26.1	16.7	1.62e-04	0	59	0	20904411136	24	13803
2026-01-25 20:19:38.93	241.76	23.14	-26.1	-26.0	16.7	9.53e-05	0	59	0	21013463040	24	13750
2026-01-25 20:19:39.90	242.13	23.23	-26.2	-26.1	16.7	9.53e-05	0	59	0	21114126336	24	13818
2026-01-25 20:19:40.87	242.51	23.31	-26.2	-26.1	16.6	9.53e-05	0	59	0	21231566848	24	13946
2026-01-25 20:19:41.85	242.89	23.40	-26.2	-26.1	16.7	9.53e-05	0	59	0	21340618752	24	13850
2026-01-25 20:19:42.82	243.27	23.48	-26.1	-26.0	16.7	1.33e-04	0	59	0	21441282048	24	13708
2026-01-25 20:19:43.79	243.66	23.57	-26.0	-25.9	16.7	1.33e-04	0	59	0	21558722560	24	13621
2026-01-25 20:19:44.76	244.04	23.65	-26.0	-25.9	16.7	1.33e-04	0	59	0	21667774464	23	14345
2026-01-25 20:19:45.73	244.43	23.73	-25.8	-25.7	16.8	8.10e-05	0	59	0	21776826368	23	14051
2026-01-25 20:19:46.70	244.82	23.81	-25.8	-25.7	16.7	8.10e-05	0	59	0	21877489664	23	13982
2026-01-25 20:19:47.67	245.21	23.89	-25.7	-25.6	16.7	8.10e-05	0	59	0	21994930176	23	13924
2026-01-25 20:19:48.65	245.61	23.97	-25.7	-25.6	16.8	8.10e-05	0	59	0	22103982080	23	13909
2026-01-25 20:19:49.62	246.01	24.05	-25.8	-25.7	16.7	7.15e-05	0	59	0	22221422592	23	14101
2026-01-25 20:19:50.60	246.41	24.12	-25.8	-25.7	16.7	7.15e-05	0	59	0	22322085888	23	14042
2026-01-25 20:19:51.57	246.81	24.20	-25.6	-25.5	16.8	7.15e-05	0	59	0	22431137792	23	13673
2026-01-25 20:19:52.54	247.21	24.27	-25.7	-25.6	16.8	7.15e-05	0	59	0	22548578304	23	13813
2026-01-25 20:19:53.52	247.62	24.35	-25.7	-25.6	16.8	6.19e-05	0	59	0	22649241600	23	13860
2026-01-25 20:19:54.49	248.03	24.42	-25.6	-25.5	16.8	6.19e-05	0	59	0	22758293504	23	13782
2026-01-25 20:19:55.46	248.44	24.49	-25.6	-25.5	16.8	3.81e-05	0	59	0	22867345408	23	13718
2026-01-25 20:19:56.43	248.85	24.56	-25.6	-25.5	16.8	3.81e-05	0	59	0	22984785920	23	13706
2026-01-25 20:19:57.40	249.26	24.63	-25.6	-25.5	16.8	3.81e-05	0	59	0	23085449216	23	13675
2026-01-25 20:19:58.37	249.67	24.70	-25.7	-25.6	16.8	3.81e-05	0	59	0	23194501120	23	13818
2026-01-25 20:19:59.35	250.09	24.76	-25.5	-25.4	16.8	3.81e-05	0	59	0	23311941632	23	13559
2026-01-25 20:20:00.32	250.51	24.83	-25.5	-25.4	16.8	7.62e-05	0	59	0	23412604928	23	13614
2026-01-25 20:20:01.29	250.93	24.89	-25.5	-25.4	16.7	7.62e-05	0	59	0	23521656832	23	13581
2026-01-25 20:20:02.26	251.36	24.95	-25.4	-25.3	16.8	7.62e-05	0	59	0	23639097344	22	14255
2026-01-25 20:20:03.23	251.78	25.02	-25.5	-25.4	16.7	5.72e-05	0	59	0	23748149248	22	14356
2026-01-25 20:20:04.21	252.21	25.08	-25.4	-25.3	16.7	5.72e-05	0	59	0	23848812544	22	14228
2026-01-25 20:20:05.18	252.64	25.13	-25.4	-25.3	16.7	5.72e-05	0	59	0	23966253056	22	14265
2026-01-25 20:20:06.15	253.07	25.19	-25.4	-25.3	16.7	7.15e-05	0	59	0	24075304960	22	14258
2026-01-25 20:20:07.12	253.50	25.25	-25.5	-25.4	16.7	7.15e-05	0	59	0	24184356864	22	14295
2026-01-25 20:20:08.10	253.93	25.30	-25.5	-25.4	16.7	7.15e-05	0	59	0	24285020160	22	14278
2026-01-25 20:20:09.07	254.37	25.35	-25.5	-25.4	16.7	4.29e-05	0	59	0	24402460672	22	14346
2026-01-25 20:20:10.04	254.80	25.40	-25.4	-25.3	16.7	4.29e-05	0	59	0	24511512576	22	14135
2026-01-25 20:20:11.01	255.24	25.45	-25.4	-25.3	16.7	4.29e-05	0	59	0	24612175872	22	14160
2026-01-25 20:20:11.98	255.68	25.50	-25.4	-25.3	16.7	1.14e-04	0	59	0	24729616384	22	14126
2026-01-25 20:20:12.96	256.12	25.55	-25.5	-25.4	16.7	1.14e-04	0	59	0	24838668288	22	14276
2026-01-25 20:20:13.93	256.57	25.59	-25.3	-25.2	16.7	1.14e-04	0	59	0	24956108800	22	14050
2026-01-25 20:20:14.90	257.01	25.64	-25.4	-25.3	16.7	4.76e-05	0	59	0	25056772096	22	14125
2026-01-25 20:20:15.88	257.46	25.68	-25.4	-25.3	16.7	4.76e-05	0	59	0	25165824000	22	14220
2026-01-25 20:20:16.85	257.90	25.72	-25.3	-25.2	16.7	4.76e-05	0	59	0	25274875904	22	14060
2026-01-25 20:20:17.82	258.35	25.76	-25.3	-25.2	16.7	4.29e-05	0	59	0	25383927808	22	14033
2026-01-25 20:20:18.78	258.79	25.80	-25.3	-25.2	16.7	4.29e-05	0	59	0	25492979712	22	14020
2026-01-25 20:20:19.76	259.24	25.83	-25.5	-25.3	16.7	4.29e-05	0	59	0	25602031616	22	14273
2026-01-25 20:20:20.73	259.69	25.86	-25.4	-25.3	16.7	6.19e-05	0	59	0	25719472128	22	14163
2026-01-25 20:20:21.71	260.15	25.90	-25.3	-25.2	16.7	6.19e-05	0	59	0	25820135424	22	13986
2026-01-25 20:20:22.68	260.60	25.93	-25.3	-25.2	16.7	7.15e-05	0	59	0	25929187328	22	13983
2026-01-25 20:20:23.64	261.05	25.96	-25.1	-25.0	16.7	7.15e-05	0	59	0	26046627840	22	13764
2026-01-25 20:20:24.61	261.50	25.98	-25.2	-25.0	16.7	7.15e-05	0	59	0	26147291136	22	13788
2026-01-25 20:20:25.58	261.96	26.01	-25.2	-25.1	16.7	9.53e-05	0	59	0	26256343040	22	13831
2026-01-25 20:20:26.55	262.41	26.03	-25.2	-25.1	16.7	9.53e-05	0	59	0	26373783552	22	13933
2026-01-25 20:20:27.52	262.87	26.05	-25.2	-25.1	16.7	9.53e-05	0	59	0	26482835456	22	13807
2026-01-25 20:20:28.49	263.32	26.07	-25.3	-25.2	16.6	2.86e-05	0	59	0	26583498752	22	14001
2026-01-25 20:20:29.47	263.79	26.09	-25.3	-25.2	16.6	2.86e-05	0	59	0	26692550656	22	14070
2026-01-25 20:20:30.44	264.24	26.11	-25.3	-25.1	16.6	4.29e-05	0	59	0	26809991168	22	13943
2026-01-25 20:20:31.42	264.71	26.12	-25.4	-25.3	16.6	4.29e-05	0	59	0	26919043072	22	14139
2026-01-25 20:20:32.39	265.16	26.14	-25.3	-25.2	16.6	4.29e-05	0	59	0	27019706368	22	14070
2026-01-25 20:20:33.36	265.62	26.15	-25.3	-25.2	16.6	6.67e-05	0	59	0	27137146880	22	13998
2026-01-25 20:20:34.33	266.08	26.16	-25.4	-25.3	16.6	6.67e-05	0	59	0	27246198784	22	14137
2026-01-25 20:20:35.31	266.55	26.16	-25.2	-25.1	16.6	6.67e-05	0	59	0	27346862080	22	13881
2026-01-25 20:20:36.28	267.00	26.17	-25.3	-25.2	16.6	4.76e-05	0	59	0	27464302592	22	14086
2026-01-25 20:20:37.25	267.46	26.17	-25.3	-25.2	16.6	4.76e-05	0	59	0	27573354496	22	14016
2026-01-25 20:20:38.22	267.92	26.18	-25.3	-25.2	16.6	4.76e-05	0	59	0	27682406400	22	14095
2026-01-25 20:20:39.19	268.38	26.18	-25.3	-25.2	16.6	1.57e-04	0	59	0	27791458304	22	13961
2026-01-25 20:20:40.16	268.84	26.17	-25.3	-25.2	16.6	1.57e-04	0	59	0	27900510208	22	14074
2026-01-25 20:20:41.14	269.31	26.17	-25.3	-25.2	16.5	4.29e-05	0	59	0	28009562112	22	13978
2026-01-25 20:20:42.11	269.77	26.17	-25.4	-25.3	16.5	4.29e-05	0	59	0	28110225408	22	14196
2026-01-25 20:20:43.08	270.23	26.16	-25.3	-25.2	16.5	4.29e-05	0	59	0	28227665920	22	13957
2026-01-25 20:20:44.05	270.68	26.15	-25.4	-25.2	16.5	5.72e-05	0	59	0	28336717824	22	14103
2026-01-25 20:20:45.02	271.14	26.14	-25.4	-25.3	16.5	5.72e-05	0	59	0	28454158336	22	14196
2026-01-25 20:20:45.99	271.60	26.13	-25.3	-25.2	16.5	5.72e-05	0	59	0	28554821632	22	14068
2026-01-25 20:20:46.96	272.06	26.11	-25.5	-25.4	16.5	4.76e-05	0	59	0	28663873536	22	14276
2026-01-25 20:20:47.93	272.52	26.10	-25.4	-25.3	16.5	4.76e-05	0	59	0	28781314048	22	14171
2026-01-25 20:20:48.90	272.97	26.08	-25.5	-25.4	16.5	4.76e-05	0	59	0	28881977344	22	14288
2026-01-25 20:20:49.87	273.43	26.06	-25.4	-25.3	16.5	4.29e-05	0	59	0	28991029248	22	14208
2026-01-25 20:20:50.85	273.89	26.04	-25.5	-25.3	16.5	4.29e-05	0	59	0	29100081152	22	14267
2026-01-25 20:20:51.82	274.34	26.02	-25.5	-25.4	16.5	4.29e-05	0	59	0	29217521664	22	14304
2026-01-25 20:20:52.79	274.80	25.99	-25.5	-25.4	16.5	4.76e-05	0	59	0	29318184960	22	14428
2026-01-25 20:20:53.76	275.25	25.97	-25.6	-25.5	16.5	4.76e-05	0	59	0	29427236864	22	14464
2026-01-25 20:20:54.73	275.70	25.94	-25.5	-25.4	16.5	4.76e-05	0	59	0	29544677376	22	14381
2026-01-25 20:20:55.70	276.16	25.91	-25.6	-25.5	16.4	4.76e-05	0	59	0	29645340672	22	14534
2026-01-25 20:20:56.67	276.61	25.88	-25.8	-25.7	16.4	4.29e-05	0	59	0	29754392576	22	14820
2026-01-25 20:20:57.64	277.06	25.84	-25.7	-25.6	16.4	4.29e-05	0	59	0	29871833088	22	14752
2026-01-25 20:20:58.61	277.50	25.81	-25.6	-25.5	16.5	4.29e-05	0	59	0	29972496384	22	14504
2026-01-25 20:20:59.58	277.95	25.77	-25.6	-25.5	16.5	8.10e-05	0	59	0	30081548288	22	14573
2026-01-25 20:21:00.55	278.40	25.73	-25.7	-25.6	16.5	8.10e-05	0	59	0	30198988800	22	14619
2026-01-25 20:21:01.52	278.84	25.69	-25.7	-25.6	16.5	2.86e-05	0	59	0	30308040704	22	14708
2026-01-25 20:21:02.49	279.29	25.65	-25.7	-25.6	16.4	2.86e-05	0	59	0	30408704000	22	14702
2026-01-25 20:21:03.46	279.73	25.61	-25.8	-25.7	16.5	2.86e-05	0	59	0	30517755904	22	14779
2026-01-25 20:21:04.43	280.17	25.57	-25.9	-25.8	16.4	1.24e-04	0	59	0	30635196416	22	15100
2026-01-25 20:21:05.40	280.61	25.52	-25.8	-25.7	16.5	1.24e-04	0	59	0	30735859712	22	14878
2026-01-25 20:21:06.38	281.05	25.47	-25.8	-25.7	16.4	1.24e-04	0	59	0	30844911616	22	14918
2026-01-25 20:21:07.35	281.49	25.42	-25.9	-25.8	16.5	1.24e-04	0	59	0	30962352128	22	14995
2026-01-25 20:21:08.32	281.92	25.37	-25.8	-25.7	16.5	7.62e-05	0	59	0	31071404032	22	14835
2026-01-25 20:21:09.29	282.36	25.32	-26.0	-25.9	16.5	7.62e-05	0	59	0	31172067328	22	15199
2026-01-25 20:21:10.26	282.79	25.27	-25.7	-25.6	16.5	7.62e-05	0	59	0	31289507840	22	14736
2026-01-25 20:21:11.23	283.22	25.21	-25.8	-25.7	16.5	7.62e-05	0	59	0	31398559744	22	14904
2026-01-25 20:21:12.20	283.65	25.16	-25.9	-25.8	16.6	8.10e-05	0	59	0	31499223040	22	14998
2026-01-25 20:21:13.18	284.08	25.10	-26.0	-25.9	16.5	8.10e-05	0	59	0	31616663552	22	15219
2026-01-25 20:21:14.15	284.51	25.04	-25.9	-25.8	16.5	8.10e-05	0	59	0	31725715456	22	15107
2026-01-25 20:21:15.12	284.93	24.98	-25.9	-25.8	16.5	7.15e-05	0	59	0	31834767360	22	14950
2026-01-25 20:21:16.09	285.35	24.92	-25.9	-25.8	16.5	7.15e-05	0	59	0	31935430656	22	15047
2026-01-25 20:21:17.07	285.78	24.85	-25.8	-25.7	16.6	7.15e-05	0	59	0	32052871168	22	14880
2026-01-25 20:21:18.04	286.19	24.79	-25.9	-25.8	16.6	1.14e-04	0	59	0	32161923072	22	15084
2026-01-25 20:21:19.01	286.61	24.72	-26.1	-25.9	16.6	1.14e-04	0	59	0	32262586368	22	15272
2026-01-25 20:21:19.98	287.02	24.66	-26.1	-26.0	16.6	1.14e-04	0	59	0	32380026880	22	15305
2026-01-25 20:21:20.96	287.44	24.59	-26.2	-26.1	16.5	7.15e-05	0	59	0	32489078784	22	15480
2026-01-25 20:21:21.93	287.85	24.52	-26.3	-26.2	16.6	7.15e-05	0	60	0	32606519296	23	14827
2026-01-25 20:21:22.90	288.26	24.45	-26.3	-26.2	16.6	7.15e-05	0	59	0	32707182592	23	14794
2026-01-25 20:21:23.87	288.67	24.38	-26.3	-26.2	16.6	7.62e-05	0	59	0	32816234496	23	14889
2026-01-25 20:21:24.84	289.07	24.31	-26.2	-26.1	16.6	7.62e-05	0	59	0	32925286400	23	14695
2026-01-25 20:21:25.82	289.48	24.23	-26.2	-26.1	16.6	9.53e-05	0	59	0	33034338304	23	14737
2026-01-25 20:21:26.79	289.88	24.16	-26.4	-26.3	16.6	9.53e-05	0	59	0	33143390208	23	14962
2026-01-25 20:21:27.76	290.27	24.08	-26.5	-26.4	16.6	9.53e-05	0	59	0	33252442112	23	15154
2026-01-25 20:21:28.73	290.67	24.00	-26.3	-26.2	16.7	1.33e-04	0	59	0	33369882624	23	14878
2026-01-25 20:21:29.70	291.06	23.93	-26.4	-26.3	16.6	1.33e-04	0	59	0	33470545920	23	14956
2026-01-25 20:21:30.67	291.46	23.85	-26.4	-26.3	16.6	1.33e-04	0	59	0	33579597824	23	15055
2026-01-25 20:21:31.64	291.85	23.77	-26.3	-26.2	16.7	8.58e-05	0	59	0	33697038336	23	14873
2026-01-25 20:21:32.61	292.23	23.69	-26.4	-26.2	16.7	8.58e-05	0	59	0	33797701632	23	14934
2026-01-25 20:21:33.59	292.62	23.60	-26.4	-26.2	16.7	8.58e-05	0	59	0	33906753536	23	14935
2026-01-25 20:21:34.56	293.00	23.52	-26.4	-26.3	16.7	1.19e-04	0	59	0	34024194048	23	15090
2026-01-25 20:21:35.53	293.38	23.44	-26.4	-26.3	16.7	1.19e-04	0	59	0	34133245952	23	15086
2026-01-25 20:21:36.50	293.76	23.35	-26.5	-26.4	16.7	1.19e-04	0	59	0	34233909248	23	15124
2026-01-25 20:21:37.48	294.14	23.27	-26.4	-26.3	16.8	1.33e-04	0	59	0	34342961152	23	14993
2026-01-25 20:21:38.45	294.52	23.18	-26.5	-26.4	16.7	1.33e-04	0	59	0	34460401664	23	15239
2026-01-25 20:21:39.42	294.89	23.09	-26.5	-26.4	16.7	1.33e-04	0	59	0	34561064960	23	15167
2026-01-25 20:21:40.39	295.26	23.01	-26.6	-26.5	16.7	1.05e-04	0	59	0	34670116864	23	15404
2026-01-25 20:21:41.36	295.62	22.92	-26.6	-26.5	16.7	1.05e-04	0	59	0	34787557376	23	15453
2026-01-25 20:21:42.33	295.99	22.83	-26.6	-26.5	16.7	1.05e-04	0	59	0	34896609280	23	15411
2026-01-25 20:21:43.31	296.35	22.74	-26.5	-26.4	16.8	1.05e-04	0	59	0	34997272576	23	15251
2026-01-25 20:21:44.28	296.71	22.65	-26.8	-26.7	16.7	7.15e-05	0	59	0	35114713088	24	14784
2026-01-25 20:21:45.25	297.07	22.56	-26.7	-26.6	16.7	7.15e-05	0	59	0	35223764992	24	14721
2026-01-25 20:21:46.22	297.43	22.47	-26.7	-26.6	16.8	7.15e-05	0	59	0	35332816896	24	14687
2026-01-25 20:21:47.19	297.78	22.37	-26.8	-26.7	16.8	8.10e-05	0	59	0	35433480192	24	14796
2026-01-25 20:21:48.16	298.13	22.28	-26.8	-26.7	16.7	8.10e-05	0	59	0	35550920704	24	14777
2026-01-25 20:21:49.13	298.48	22.19	-26.8	-26.7	16.8	8.10e-05	0	59	0	35659972608	24	14902
2026-01-25 20:21:50.10	298.82	22.09	-26.6	-26.4	16.8	1.00e-04	0	59	0	35760635904	24	14428
2026-01-25 20:21:51.07	299.17	22.00	-26.7	-26.6	16.8	1.00e-04	0	59	0	35878076416	24	14748
2026-01-25 20:21:52.04	299.51	21.90	-26.9	-26.7	16.7	1.00e-04	0	59	0	35987128320	24	14944
2026-01-25 20:21:53.02	299.85	21.81	-26.8	-26.7	16.8	1.05e-04	0	59	0	36087791616	24	14871
2026-01-25 20:21:53.99	300.19	21.71	-26.8	-26.7	16.8	1.05e-04	0	59	0	36205232128	24	14884
2026-01-25 20:21:54.96	300.52	21.62	-26.9	-26.8	16.8	1.05e-04	0	59	0	36314284032	24	14950
2026-01-25 20:21:55.93	300.85	21.52	-26.9	-26.8	16.7	1.10e-04	0	59	0	36431724544	24	15074
2026-01-25 20:21:56.90	301.18	21.42	-27.0	-26.9	16.7	1.10e-04	0	59	0	36532387840	24	15135
2026-01-25 20:21:57.88	301.51	21.32	-26.8	-26.7	16.8	1.10e-04	0	59	0	36641439744	24	14927
2026-01-25 20:21:58.85	301.84	21.23	-26.8	-26.7	16.8	1.38e-04	0	59	0	36750491648	24	14938
2026-01-25 20:21:59.82	302.16	21.13	-26.9	-26.8	16.7	1.38e-04	0	59	0	36867932160	24	15100
2026-01-25 20:22:00.79	302.48	21.03	-26.9	-26.8	16.8	1.52e-04	0	59	0	36968595456	24	14983
2026-01-25 20:22:01.76	302.80	20.93	-27.0	-26.9	16.8	1.52e-04	0	59	0	37077647360	24	15132
2026-01-25 20:22:02.73	303.12	20.83	-27.1	-27.0	16.7	1.52e-04	0	59	0	37195087872	24	15302
2026-01-25 20:22:03.70	303.43	20.73	-27.2	-27.1	16.7	2.29e-04	0	59	0	37295751168	24	15523
2026-01-25 20:22:04.67	303.74	20.63	-27.1	-27.0	16.7	2.29e-04	0	59	0	37404803072	24	15315
2026-01-25 20:22:05.64	304.05	20.53	-27.1	-27.0	16.7	2.29e-04	0	59	0	37522243584	24	15371
2026-01-25 20:22:06.62	304.36	20.43	-27.1	-27.0	16.7	2.14e-04	0	59	0	37622906880	24	15449
2026-01-25 20:22:07.59	304.66	20.33	-27.2	-27.1	16.7	2.14e-04	0	59	0	37731958784	24	15583
2026-01-25 20:22:08.56	304.97	20.23	-27.3	-27.2	16.7	2.14e-04	0	59	0	37841010688	25	14780
2026-01-25 20:22:09.53	305.27	20.13	-27.3	-27.2	16.7	2.48e-04	0	59	0	37958451200	25	14820
2026-01-25 20:22:10.50	305.57	20.03	-27.3	-27.2	16.7	2.48e-04	0	59	0	38059114496	25	14837
2026-01-25 20:22:11.48	305.86	19.92	-27.5	-27.4	16.6	2.48e-04	0	59	0	38168166400	25	15129
2026-01-25 20:22:12.45	306.16	19.82	-27.5	-27.4	16.6	2.48e-04	0	59	0	38285606912	25	15250
2026-01-25 20:22:13.42	306.45	19.72	-27.5	-27.4	16.6	2.48e-04	0	59	0	38394658816	25	15186
2026-01-25 20:22:14.39	306.74	19.62	-27.4	-27.3	16.6	2.24e-04	0	59	0	38495322112	25	15105
2026-01-25 20:22:15.37	307.03	19.52	-27.5	-27.4	16.6	2.24e-04	0	59	0	38612762624	25	15190
2026-01-25 20:22:16.34	307.31	19.41	-27.4	-27.3	16.6	2.24e-04	0	59	0	38721814528	25	15023
2026-01-25 20:22:17.31	307.60	19.31	-27.4	-27.3	16.6	2.43e-04	0	59	0	38822477824	25	15106
2026-01-25 20:22:18.28	307.88	19.21	-27.5	-27.4	16.6	2.43e-04	0	59	0	38939918336	25	15202
2026-01-25 20:22:19.25	308.15	19.11	-27.6	-27.5	16.6	2.43e-04	0	59	0	39048970240	25	15445
2026-01-25 20:22:20.22	308.43	19.01	-27.6	-27.5	16.6	3.62e-04	0	59	0	39158022144	25	15447
2026-01-25 20:22:21.20	308.71	18.90	-27.5	-27.4	16.6	3.62e-04	0	59	0	39258685440	25	15269
2026-01-25 20:22:22.17	308.98	18.80	-27.7	-27.6	16.6	3.62e-04	0	59	0	39376125952	26	14664
2026-01-25 20:22:23.14	309.25	18.70	-27.7	-27.6	16.5	2.86e-04	0	59	0	39485177856	26	14639
2026-01-25 20:22:24.11	309.52	18.60	-27.8	-27.7	16.5	2.86e-04	0	59	0	39585841152	26	14783
2026-01-25 20:22:25.09	309.79	18.49	-28.0	-27.9	16.5	2.86e-04	0	59	0	39703281664	26	15139
2026-01-25 20:22:26.06	310.05	18.39	-27.9	-27.8	16.5	2.86e-04	0	59	0	39812333568	26	15045
2026-01-25 20:22:27.03	310.31	18.29	-27.9	-27.8	16.5	2.38e-04	0	59	0	39929774080	26	15048
2026-01-25 20:22:28.00	310.57	18.19	-28.0	-27.9	16.5	2.38e-04	0	59	0	40030437376	26	15149
2026-01-25 20:22:28.96	310.83	18.08	-27.9	-27.8	16.5	2.38e-04	0	59	0	40139489280	26	15019
2026-01-25 20:22:29.93	311.08	17.98	-27.9	-27.8	16.5	3.15e-04	0	60	0	40248541184	26	15113
2026-01-25 20:22:30.90	311.34	17.88	-27.9	-27.8	16.4	3.15e-04	0	59	0	40357593088	26	15058
2026-01-25 20:22:31.87	311.59	17.78	-28.1	-28.0	16.4	3.15e-04	0	59	0	40466644992	26	15392
2026-01-25 20:22:32.84	311.84	17.68	-28.0	-27.9	16.4	3.72e-04	0	59	0	40575696896	26	15255
2026-01-25 20:22:33.81	312.09	17.57	-28.2	-28.1	16.4	3.72e-04	0	59	0	40676360192	27	14685
2026-01-25 20:22:34.78	312.33	17.47	-28.1	-28.0	16.3	3.72e-04	0	59	0	40793800704	27	14593
2026-01-25 20:22:35.75	312.58	17.37	-28.3	-28.2	16.3	4.10e-04	0	59	0	40902852608	27	14933
2026-01-25 20:22:36.72	312.82	17.27	-28.2	-28.1	16.3	4.10e-04	0	59	0	41020293120	27	14622
2026-01-25 20:22:37.70	313.07	17.16	-28.1	-28.0	16.3	4.10e-04	0	59	0	41120956416	27	14526
2026-01-25 20:22:38.67	313.30	17.06	-28.2	-28.2	16.3	5.91e-04	0	60	0	41230008320	27	14779
2026-01-25 20:22:39.64	313.54	16.96	-28.4	-28.3	16.2	5.91e-04	0	59	0	41347448832	27	14973
2026-01-25 20:22:40.61	313.78	16.86	-28.3	-28.2	16.2	5.91e-04	0	59	0	41448112128	27	14935
2026-01-25 20:22:41.59	314.01	16.76	-28.3	-28.2	16.3	5.91e-04	0	59	0	41557164032	27	14826
2026-01-25 20:22:42.56	314.24	16.66	-28.6	-28.5	16.2	5.48e-04	0	59	0	41666215936	27	15338
2026-01-25 20:22:43.53	314.47	16.56	-28.5	-28.4	16.1	5.48e-04	0	59	0	41783656448	27	15295
2026-01-25 20:22:44.50	314.70	16.46	-28.7	-28.6	16.1	5.48e-04	0	59	0	41884319744	28	14640
2026-01-25 20:22:45.47	314.93	16.36	-28.8	-28.7	16.0	7.44e-04	0	59	0	41993371648	28	14894
2026-01-25 20:22:46.44	315.15	16.25	-28.6	-28.5	16.1	7.44e-04	0	59	0	42110812160	28	14444
2026-01-25 20:22:47.41	315.38	16.15	-28.5	-28.4	16.1	7.44e-04	0	59	0	42211475456	28	14304
2026-01-25 20:22:48.38	315.60	16.05	-28.6	-28.5	16.1	7.53e-04	0	59	0	42320527360	28	14532
2026-01-25 20:22:49.35	315.82	15.95	-28.5	-28.4	16.1	7.53e-04	0	59	0	42437967872	28	14309
2026-01-25 20:22:50.33	316.04	15.85	-28.4	-28.3	16.1	7.53e-04	0	59	0	42547019776	28	14257
2026-01-25 20:22:51.30	316.25	15.75	-28.6	-28.5	16.1	5.72e-04	0	59	0	42647683072	28	14444
2026-01-25 20:22:52.27	316.47	15.66	-28.6	-28.5	16.1	5.72e-04	0	59	0	42765123584	28	14455
2026-01-25 20:22:53.24	316.68	15.56	-28.7	-28.6	16.0	5.72e-04	0	59	0	42874175488	28	14761
2026-01-25 20:22:54.21	316.89	15.46	-28.6	-28.5	16.0	5.72e-04	0	59	0	42974838784	28	14556
2026-01-25 20:22:55.18	317.10	15.36	-28.6	-28.6	16.0	7.53e-04	0	59	0	43083890688	28	14615
2026-01-25 20:22:56.15	317.31	15.26	-28.7	-28.6	16.0	7.53e-04	0	59	0	43201331200	28	14759
2026-01-25 20:22:57.12	317.52	15.16	-28.8	-28.7	15.9	8.68e-04	0	59	0	43310383104	28	14945
2026-01-25 20:22:58.10	317.72	15.06	-28.9	-28.8	15.9	8.68e-04	0	60	0	43411046400	28	15098
2026-01-25 20:22:59.07	317.93	14.96	-28.8	-28.7	15.9	8.68e-04	0	59	0	43528486912	28	14912
2026-01-25 20:23:00.04	318.13	14.87	-28.9	-28.8	15.9	1.02e-03	0	60	0	43637538816	28	14994
2026-01-25 20:23:01.01	318.33	14.77	-28.8	-28.7	15.9	1.02e-03	0	60	0	43738202112	28	14789
2026-01-25 20:23:01.98	318.53	14.67	-28.9	-28.8	15.9	1.05e-03	0	59	0	43855642624	28	15038
2026-01-25 20:23:02.96	318.73	14.57	-29.1	-29.0	15.8	1.05e-03	0	60	0	43964694528	28	15303
2026-01-25 20:23:03.92	318.92	14.48	-28.8	-28.7	15.9	1.05e-03	0	59	0	44073746432	28	14905
2026-01-25 20:23:04.89	319.12	14.38	-29.0	-28.9	15.9	1.14e-03	0	59	0	44182798336	28	15215
2026-01-25 20:23:05.86	319.31	14.28	-29.1	-29.0	15.8	1.14e-03	0	59	0	44291850240	28	15305
2026-01-25 20:23:06.84	319.50	14.19	-29.2	-29.1	15.8	1.14e-03	0	59	0	44400902144	28	15579
2026-01-25 20:23:07.81	319.69	14.09	-29.2	-29.1	15.8	1.24e-03	0	60	0	44501565440	29	14691
2026-01-25 20:23:08.78	319.88	14.00	-29.0	-28.9	15.9	1.24e-03	0	59	0	44619005952	29	14436
2026-01-25 20:23:09.75	320.07	13.90	-29.2	-29.1	15.8	1.24e-03	0	60	0	44728057856	29	14752
2026-01-25 20:23:10.72	320.26	13.81	-29.1	-29.0	15.8	1.28e-03	0	59	0	44845498368	29	14601
2026-01-25 20:23:11.69	320.44	13.71	-29.2	-29.1	15.8	1.28e-03	0	59	0	44946161664	29	14696
2026-01-25 20:23:12.66	320.62	13.62	-29.3	-29.2	15.7	1.28e-03	0	59	0	45055213568	29	14919
2026-01-25 20:23:13.63	320.80	13.52	-29.3	-29.2	15.8	1.51e-03	0	60	0	45172654080	29	14861
2026-01-25 20:23:14.60	320.99	13.43	-29.3	-29.2	15.7	1.51e-03	0	59	0	45273317376	29	14852
2026-01-25 20:23:15.57	321.16	13.33	-29.4	-29.3	15.7	1.51e-03	0	60	0	45382369280	29	14974
2026-01-25 20:23:16.54	321.34	13.24	-29.4	-29.3	15.7	2.70e-03	0	60	0	45491421184	29	15001
2026-01-25 20:23:17.51	321.52	13.15	-29.3	-29.2	15.7	2.70e-03	0	60	0	45592084480	29	14880
2026-01-25 20:23:18.48	321.69	13.05	-29.4	-29.3	15.7	2.75e-03	0	60	0	45709524992	29	15011
2026-01-25 20:23:19.45	321.87	12.96	-29.5	-29.4	15.7	2.75e-03	0	59	0	45818576896	29	15195
2026-01-25 20:23:20.42	322.04	12.87	-29.5	-29.4	15.6	2.75e-03	0	60	0	45919240192	29	15218
2026-01-25 20:23:21.39	322.21	12.78	-29.3	-29.3	15.7	2.17e-03	0	59	0	46036680704	29	14951
2026-01-25 20:23:22.36	322.38	12.68	-29.5	-29.4	15.6	2.17e-03	0	60	0	46145732608	29	15284
2026-01-25 20:23:23.33	322.55	12.59	-29.4	-29.3	15.7	2.17e-03	0	60	0	46263173120	29	15113
2026-01-25 20:23:24.30	322.72	12.50	-29.6	-29.5	15.6	2.26e-03	0	60	0	46363836416	29	15378
2026-01-25 20:23:25.27	322.89	12.41	-29.5	-29.4	15.6	2.26e-03	0	60	0	46472888320	29	15204
2026-01-25 20:23:26.25	323.05	12.32	-29.4	-29.3	15.7	2.26e-03	0	60	0	46581940224	29	15086
2026-01-25 20:23:27.22	323.22	12.23	-29.3	-29.2	15.7	2.57e-03	0	60	0	46690992128	29	14908
2026-01-25 20:23:28.18	323.38	12.14	-29.6	-29.5	15.6	2.57e-03	0	60	0	46800044032	29	15331
2026-01-25 20:23:29.16	323.54	12.04	-29.5	-29.4	15.6	2.57e-03	0	59	0	46909095936	29	15130
2026-01-25 20:23:30.13	323.70	11.95	-29.5	-29.4	15.6	4.29e-03	0	60	0	47026536448	29	15159
2026-01-25 20:23:31.10	323.86	11.86	-29.5	-29.4	15.6	4.29e-03	0	60	0	47127199744	29	15251
2026-01-25 20:23:32.07	324.02	11.78	-29.5	-29.4	15.6	8.97e-03	0	59	0	47236251648	29	15277
2026-01-25 20:23:33.04	324.18	11.69	-29.5	-29.4	15.6	8.97e-03	0	60	0	47353692160	29	15281
2026-01-25 20:23:34.01	324.33	11.60	-29.6	-29.5	15.6	8.97e-03	0	60	0	47454355456	29	15326
2026-01-25 20:23:34.98	324.49	11.51	-29.4	-29.3	15.6	1.01e-02	0	60	0	47563407360	29	15090
2026-01-25 20:23:35.96	324.64	11.42	-29.8	-29.7	15.5	1.01e-02	0	60	0	47680847872	30	14801
2026-01-25 20:23:36.93	324.80	11.33	-29.8	-29.7	15.5	1.01e-02	0	60	0	47789899776	30	14801
2026-01-25 20:23:37.90	324.95	11.24	-29.6	-29.5	15.6	1.01e-02	0	60	0	47890563072	30	14536
2026-01-25 20:23:38.87	325.10	11.16	-29.6	-29.5	15.6	1.01e-02	0	60	0	47999614976	30	14504
2026-01-25 20:23:39.84	325.25	11.07	-29.6	-29.5	15.6	1.01e-02	0	59	0	48117055488	30	14460
2026-01-25 20:23:40.81	325.40	10.98	-29.7	-29.6	15.5	1.01e-02	0	60	0	48217718784	30	14668
2026-01-25 20:23:41.77	325.54	10.89	-29.8	-29.7	15.5	1.12e-02	0	60	0	48326770688	30	14859
2026-01-25 20:23:42.75	325.69	10.81	-29.7	-29.6	15.5	1.12e-02	0	60	0	48444211200	30	14664
2026-01-25 20:23:43.72	325.84	10.72	-29.9	-29.8	15.5	1.24e-02	0	60	0	48544874496	30	15056
2026-01-25 20:23:44.69	325.98	10.63	-30.3	-30.2	15.3	1.24e-02	0	60	0	48653926400	31	14820
2026-01-25 20:23:45.66	326.12	10.55	-30.1	-30.0	15.4	1.24e-02	0	60	0	48771366912	31	14552
2026-01-25 20:23:46.63	326.27	10.46	-30.0	-29.9	15.4	1.43e-02	0	60	0	48880418816	31	14337
2026-01-25 20:23:47.60	326.41	10.38	-30.2	-30.1	15.3	1.43e-02	0	60	0	48981082112	31	14761
2026-01-25 20:23:48.57	326.55	10.29	-30.1	-30.0	15.4	1.47e-02	0	60	0	49098522624	31	14489
2026-01-25 20:23:49.54	326.69	10.21	-30.2	-30.1	15.3	1.47e-02	0	60	0	49207574528	31	14684
2026-01-25 20:23:50.51	326.83	10.12	-30.2	-30.1	15.3	1.47e-02	0	60	0	49308237824	31	14627
2026-01-25 20:23:51.48	326.96	10.04	-29.8	-29.7	15.5	1.47e-02	0	60	0	49417289728	31	13995
2026-01-25 20:23:52.45	327.10	9.95	-29.9	-29.8	15.4	1.47e-02	0	60	0	49534730240	31	14263
2026-01-25 20:23:53.42	327.24	9.87	-29.9	-29.8	15.4	1.47e-02	0	60	0	49643782144	31	14184
2026-01-25 20:23:54.40	327.37	9.79	-30.1	-30.1	15.3	1.39e-02	0	60	0	49744445440	31	14616
2026-01-25 20:23:55.37	327.51	9.70	-30.0	-29.9	15.3	1.39e-02	0	60	0	49861885952	31	14428
2026-01-25 20:23:56.34	327.64	9.62	-30.1	-30.0	15.3	1.39e-02	0	60	0	49970937856	31	14509
2026-01-25 20:23:57.31	327.77	9.54	-30.1	-30.1	15.3	1.60e-02	0	60	0	50071601152	31	14608
2026-01-25 20:23:58.28	327.90	9.46	-30.4	-30.4	15.2	1.60e-02	0	60	0	50189041664	31	15145
2026-01-25 20:23:59.25	328.03	9.37	-30.1	-30.0	15.3	1.72e-02	0	60	0	50298093568	31	14526
2026-01-25 20:24:00.22	328.16	9.29	-30.2	-30.1	15.3	1.72e-02	0	60	0	50407145472	31	14630
2026-01-25 20:24:01.20	328.29	9.21	-30.2	-30.1	15.3	1.72e-02	0	60	0	50516197376	31	14724
2026-01-25 20:24:02.17	328.42	9.13	-30.3	-30.2	15.2	1.65e-02	0	60	0	50625249280	31	14822
2026-01-25 20:24:03.14	328.55	9.05	-30.7	-30.6	15.1	1.65e-02	0	60	0	50734301184	31	15514
2026-01-25 20:24:04.11	328.67	8.96	-30.5	-30.4	15.1	1.65e-02	0	60	0	50834964480	32	14371
2026-01-25 20:24:05.08	328.80	8.88	-30.2	-30.2	15.2	2.05e-02	0	60	0	50952404992	32	13966
2026-01-25 20:24:06.04	328.92	8.80	-30.4	-30.3	15.1	2.05e-02	0	60	0	51061456896	32	14162
2026-01-25 20:24:07.02	329.05	8.72	-30.4	-30.3	15.1	2.05e-02	0	60	0	51178897408	32	14211
2026-01-25 20:24:07.99	329.17	8.64	-30.4	-30.3	15.1	2.05e-02	0	60	0	51279560704	32	14271
2026-01-25 20:24:08.97	329.29	8.56	-30.8	-30.7	15.0	2.05e-02	0	60	0	51388612608	32	14884
2026-01-25 20:24:09.94	329.42	8.48	-30.7	-30.6	15.0	2.05e-02	0	60	0	51506053120	32	14731
2026-01-25 20:24:10.92	329.54	8.40	-30.5	-30.4	15.1	2.28e-02	0	60	0	51615105024	32	14413
2026-01-25 20:24:11.89	329.66	8.32	-30.7	-30.6	15.0	2.28e-02	0	60	0	51715768320	32	14750
2026-01-25 20:24:12.86	329.78	8.24	-30.7	-30.6	15.0	2.38e-02	0	60	0	51824820224	32	14754
2026-01-25 20:24:13.84	329.90	8.17	-30.9	-30.8	14.9	2.38e-02	0	60	0	51942260736	32	15070
2026-01-25 20:24:14.81	330.01	8.09	-30.7	-30.6	15.0	2.38e-02	0	60	0	52042924032	32	14706
2026-01-25 20:24:15.78	330.13	8.01	-30.8	-30.7	15.0	2.47e-02	0	60	0	52151975936	32	14828
2026-01-25 20:24:16.76	330.25	7.93	-31.0	-30.9	14.9	2.47e-02	0	60	0	52269416448	32	15200
2026-01-25 20:24:17.73	330.36	7.85	-31.0	-30.9	14.8	2.47e-02	0	60	0	52378468352	32	15275
2026-01-25 20:24:18.70	330.48	7.78	-30.9	-30.8	14.9	2.47e-02	0	60	0	52479131648	32	15074
2026-01-25 20:24:19.68	330.59	7.70	-31.0	-30.9	14.9	2.66e-02	0	60	0	52596572160	32	15152
2026-01-25 20:24:20.65	330.71	7.62	-31.1	-31.0	14.8	2.66e-02	0	60	0	52705624064	33	14512
2026-01-25 20:24:21.63	330.82	7.54	-31.1	-31.0	14.8	2.76e-02	0	60	0	52814675968	33	14503
2026-01-25 20:24:22.60	330.93	7.47	-31.0	-30.9	14.8	2.76e-02	0	60	0	52923727872	33	14429
2026-01-25 20:24:23.57	331.04	7.39	-31.1	-31.0	14.8	2.76e-02	0	60	0	53032779776	33	14516
2026-01-25 20:24:24.54	331.15	7.31	-31.0	-31.0	14.8	2.71e-02	0	60	0	53141831680	33	14441
2026-01-25 20:24:25.52	331.26	7.24	-31.0	-30.9	14.8	2.71e-02	0	60	0	53259272192	33	14391
2026-01-25 20:24:26.49	331.37	7.16	-31.2	-31.1	14.7	2.71e-02	0	60	0	53359935488	33	14679
2026-01-25 20:24:27.46	331.48	7.09	-31.1	-31.0	14.8	2.85e-02	0	60	0	53468987392	33	14516
2026-01-25 20:24:28.44	331.59	7.01	-31.4	-31.3	14.6	2.85e-02	0	60	0	53586427904	33	15078
2026-01-25 20:24:29.41	331.70	6.94	-31.5	-31.4	14.5	2.85e-02	0	60	0	53687091200	33	15269
2026-01-25 20:24:30.39	331.80	6.86	-31.2	-31.2	14.7	3.21e-02	0	60	0	53796143104	33	14828
2026-01-25 20:24:31.36	331.91	6.79	-31.3	-31.2	14.7	3.21e-02	0	60	0	53913583616	33	14927
2026-01-25 20:24:32.34	332.01	6.71	-31.6	-31.5	14.5	3.21e-02	0	60	0	54022635520	33	15472
2026-01-25 20:24:33.31	332.12	6.64	-32.1	-32.0	14.3	3.23e-02	0	60	0	54123298816	34	15432
2026-01-25 20:24:34.28	332.22	6.56	-31.8	-31.7	14.5	3.23e-02	0	60	0	54232350720	35	14015
2026-01-25 20:24:35.26	332.33	6.49	-32.1	-32.0	14.3	3.23e-02	0	60	0	54349791232	35	14508
2026-01-25 20:24:36.23	332.43	6.41	-31.9	-31.9	14.4	4.07e-02	0	60	0	54458843136	35	14321
2026-01-25 20:24:37.20	332.53	6.34	-31.6	-31.5	14.5	4.07e-02	0	60	0	54559506432	35	13720
2026-01-25 20:24:38.18	332.63	6.27	-31.6	-31.5	14.5	4.07e-02	0	60	0	54676946944	34	14586
2026-01-25 20:24:39.16	332.73	6.19	-31.9	-31.8	14.4	3.76e-02	0	60	0	54785998848	34	15011
2026-01-25 20:24:40.13	332.83	6.12	-31.9	-31.8	14.3	3.76e-02	0	60	0	54903439360	34	15003
2026-01-25 20:24:41.11	332.94	6.05	-31.7	-31.7	14.4	3.76e-02	0	60	0	55004102656	34	14780
2026-01-25 20:24:42.08	333.03	5.98	-31.9	-31.8	14.3	3.76e-02	0	60	0	55113154560	34	15026
2026-01-25 20:24:43.06	333.13	5.90	-31.7	-31.7	14.4	4.10e-02	0	60	0	55222206464	34	14793
2026-01-25 20:24:44.04	333.23	5.83	-31.8	-31.7	14.4	4.10e-02	0	60	0	55339646976	34	14820
2026-01-25 20:24:45.02	333.33	5.76	-31.6	-31.5	14.4	4.09e-02	0	60	0	55448698880	34	14572
2026-01-25 20:24:46.00	333.43	5.69	-31.9	-31.8	14.3	4.09e-02	0	60	0	55549362176	34	15117
2026-01-25 20:24:46.98	333.52	5.62	-31.8	-31.8	14.3	4.09e-02	0	60	0	55666802688	34	15016
2026-01-25 20:24:47.96	333.62	5.54	-31.8	-31.8	14.3	4.09e-02	0	60	0	55775854592	34	14985
2026-01-25 20:24:48.94	333.72	5.47	-31.8	-31.8	14.3	4.51e-02	0	60	0	55893295104	34	14999
2026-01-25 20:24:49.92	333.81	5.40	-32.0	-32.0	14.2	4.51e-02	0	60	0	56002347008	34	15305
2026-01-25 20:24:50.90	333.91	5.33	-32.3	-32.3	14.0	4.51e-02	0	60	0	56103010304	35	15024
2026-01-25 20:24:51.88	334.00	5.26	-32.2	-32.1	14.0	4.51e-02	0	60	0	56212062208	35	14745
2026-01-25 20:24:52.87	334.10	5.19	-34.8	-34.7	14.5	5.08e-02	0	60	0	56329502720	40	14860
2026-01-25 20:24:53.86	334.19	5.12	-34.6	-34.5	14.4	5.08e-02	0	60	0	56438554624	40	14568
2026-01-25 20:24:54.85	334.28	5.05	-35.5	-35.5	13.9	5.08e-02	0	60	0	56555995136	41	15347
2026-01-25 20:24:55.84	334.38	4.98	-50.9	-52.3	6.5	7.08e-02	0	60	104	56648269824	72	17897
2026-01-25 20:24:56.84	334.47	4.90	-53.0	-55.2	6.2	7.08e-02	0	59	104	56648269824	76	19915
2026-01-25 20:24:57.84	334.56	4.83	-53.3	-55.5	6.2	7.08e-02	0	59	104	56648269824	77	19298
2026-01-25 20:24:58.85	334.66	4.76	-53.4	-55.6	6.2	7.08e-02	0	58	104	56648269824	77	19566
2026-01-25 20:24:59.85	334.75	4.69	-53.6	-55.7	6.2	7.08e-02	0	59	104	56648269824	77	19905
2026-01-25 20:25:00.83	334.84	4.62	-53.6	-55.8	6.2	7.08e-02	0	58	104	56648269824	77	19994
2026-01-25 20:25:01.82	334.93	4.55	-53.7	-55.9	6.2	7.08e-02	0	58	104	56648269824	78	19082
2026-01-25 20:25:02.82	335.02	4.48	-53.8	-55.9	6.2	7.08e-02	0	59	104	56648269824	78	19160
2026-01-25 20:25:03.82	335.11	4.41	-53.7	-55.9	6.2	7.08e-02	0	58	104	56648269824	78	19100
2026-01-25 20:25:04.82	335.20	4.34	-53.8	-55.9	6.2	7.08e-02	0	58	104	56648269824	78	19117
2026-01-25 20:25:05.82	335.28	4.27	-53.7	-55.8	6.2	7.08e-02	0	58	104	56648269824	78	18935
2026-01-25 20:25:06.81	335.37	4.20	-53.7	-55.8	6.2	0.00e+00	0	58	104	56648269824	78	18871
2026-01-25 20:25:07.81	335.46	4.14	-53.5	-55.7	6.2	0.00e+00	0	58	104	56648269824	78	18646
2026-01-25 20:25:08.80	335.54	4.07	-53.5	-55.6	6.2	0.00e+00	0	58	104	56648269824	78	18584
2026-01-25 20:25:09.79	335.63	4.00	-53.5	-55.7	6.2	0.00e+00	0	58	104	56648269824	78	18640
2026-01-25 20:25:10.78	335.72	3.93	-53.6	-55.7	6.2	0.00e+00	0	58	104	56648269824	78	18724
2026-01-25 20:25:11.78	335.80	3.86	-53.6	-55.7	6.2	0.00e+00	0	58	104	56648269824	78	18738
2026-01-25 20:25:12.78	335.89	3.79	-53.6	-55.7	6.2	0.00e+00	0	58	104	56648269824	78	18737
2026-01-25 20:25:13.77	335.97	3.73	-53.6	-55.7	6.2	0.00e+00	0	58	104	56648269824	78	18813
2026-01-25 20:25:14.76	336.05	3.66	-53.6	-55.8	6.2	0.00e+00	0	58	104	56648269824	78	18833
2026-01-25 20:25:15.77	336.14	3.59	-53.6	-55.7	6.2	0.00e+00	0	58	104	56648269824	78	18711
2026-01-25 20:25:16.77	336.22	3.52	-53.6	-55.7	6.2	0.00e+00	0	58	104	56648269824	78	18689
2026-01-25 20:25:17.78	336.31	3.46	-53.5	-55.7	6.2	0.00e+00	0	58	104	56648269824	78	18604
2026-01-25 20:25:18.79	336.39	3.39	-53.5	-55.6	6.2	0.00e+00	0	58	104	56648269824	78	18516
2026-01-25 20:25:19.80	336.47	3.32	-53.5	-55.6	6.2	0.00e+00	0	58	104	56648269824	78	18551
2026-01-25 20:25:20.81	336.55	3.25	-53.5	-55.6	6.2	0.00e+00	0	58	104	56648269824	78	18440
2026-01-25 20:25:21.82	336.64	3.19	-53.5	-55.6	6.2	0.00e+00	0	58	104	56648269824	78	18465
2026-01-25 20:25:22.83	336.72	3.12	-53.4	-55.6	6.2	0.00e+00	0	58	104	56648269824	78	18402
2026-01-25 20:25:23.83	336.80	3.05	-53.4	-55.6	6.2	0.00e+00	0	58	104	56648269824	78	18422
2026-01-25 20:25:24.83	336.88	2.99	-53.4	-55.5	6.2	0.00e+00	0	58	104	56648269824	78	18343
2026-01-25 20:25:25.84	336.96	2.92	-53.4	-55.5	6.2	0.00e+00	0	58	104	56648269824	78	18324
2026-01-25 20:25:26.84	337.04	2.86	-53.4	-55.5	6.2	0.00e+00	0	58	104	56648269824	78	18349
2026-01-25 20:25:27.85	337.12	2.79	-53.4	-55.5	6.2	0.00e+00	0	58	104	56648269824	78	18333
2026-01-25 20:25:28.86	337.20	2.72	-53.4	-55.5	6.2	0.00e+00	0	58	104	56648269824	78	18361
2026-01-25 20:25:29.87	337.27	2.66	-53.4	-55.5	6.2	0.00e+00	0	57	104	56648269824	78	18287
2026-01-25 20:25:30.87	337.35	2.59	-53.4	-55.5	6.2	0.00e+00	0	58	104	56648269824	78	18331
2026-01-25 20:25:31.88	337.43	2.53	-53.4	-55.5	6.2	0.00e+00	0	57	104	56648269824	78	18242
2026-01-25 20:25:32.89	337.51	2.46	-53.4	-55.5	6.2	0.00e+00	0	57	104	56648269824	78	18255
2026-01-25 20:25:33.89	337.58	2.40	-53.4	-55.5	6.2	0.00e+00	0	57	104	56648269824	78	18255
2026-01-25 20:25:34.90	337.66	2.33	-53.4	-55.5	6.2	0.00e+00	0	57	104	56648269824	78	18242
2026-01-25 20:25:35.91	337.73	2.27	-53.4	-55.5	6.2	0.00e+00	0	57	104	56648269824	78	18220
2026-01-25 20:25:36.92	337.81	2.20	-53.4	-55.5	6.2	0.00e+00	0	57	104	56648269824	78	18244
2026-01-25 20:25:37.93	337.89	2.14	-53.3	-55.5	6.2	0.00e+00	0	57	104	56648269824	78	18207
2026-01-25 20:25:38.93	337.96	2.07	-53.3	-55.5	6.2	0.00e+00	0	57	104	56648269824	78	18261
2026-01-25 20:25:39.94	338.03	2.01	-53.3	-55.5	6.2	0.00e+00	0	57	104	56648269824	78	18283
2026-01-25 20:25:40.94	338.11	1.95	-53.3	-55.5	6.2	0.00e+00	0	57	104	56648269824	78	18205

#Closed at: 2026-01-25 20:25:41
#Recorded file [56648 MB]: D:/lorett/data/31041_260125_231539.dat