passes_logs/2026/01/25/R3.2S_Murmansk/R3.2S_Murmansk__20260125_070446_KANOPUS-V_5_rec.log

#Pass ID: 20260125_070446_KANOPUS-V 5
#Satellite: KANOPUS-V 5
#Configuration: KANOPUS-V_8320
#almurnet v.1.7.20251203
#Start time: 2026-01-25 07:04:47

#Version: 2.2.20231116
#Station: R3.2S_Murmansk
#Location: 33.079688 lon 68.888172 lat
#TLE: 1 43876U 18111A   26024.95715628  .00005617  00000+0  23806-3 0  9997
#TLE: 2 43876  97.3675 293.2916 0001833  88.4697 271.6750 15.23533298392986

#Time	Az	El	Level	Level2	SNR	BER	BlckErr	Temp	State	Recorded	gain1	gain2
2026-01-25 07:04:47.43	140.37	2.10	-52.9	-61.8	3.8	7.44e-01	0	43	0	0	77	9976
2026-01-25 07:04:48.43	140.35	2.17	-52.9	-61.8	3.8	7.46e-01	0	43	104	0	76	10575
2026-01-25 07:04:49.44	140.32	2.24	-52.9	-61.8	3.8	7.45e-01	0	43	104	0	76	10577
2026-01-25 07:04:50.45	140.30	2.31	-52.9	-61.8	3.8	7.45e-01	0	43	104	0	76	10570
2026-01-25 07:04:51.46	140.27	2.38	-52.9	-61.7	3.8	7.43e-01	0	43	104	0	76	10508
2026-01-25 07:04:52.47	140.25	2.45	-52.9	-61.8	3.8	7.46e-01	0	43	104	0	76	10534
2026-01-25 07:04:53.48	140.22	2.52	-52.9	-61.7	3.8	7.45e-01	0	43	104	0	76	10509
2026-01-25 07:04:54.49	140.19	2.59	-52.9	-61.7	3.8	7.45e-01	0	43	104	0	76	10521
2026-01-25 07:04:55.50	140.17	2.67	-52.9	-61.8	3.8	7.45e-01	0	43	104	0	76	10554
2026-01-25 07:04:56.51	140.14	2.74	-52.9	-61.7	3.8	7.46e-01	0	43	104	0	76	10508
2026-01-25 07:04:57.52	140.12	2.81	-52.9	-61.7	3.8	7.46e-01	0	43	104	0	76	10527
2026-01-25 07:04:58.53	140.09	2.89	-52.9	-61.8	3.8	7.45e-01	0	43	104	0	76	10546
2026-01-25 07:04:59.54	140.06	2.96	-52.9	-61.7	3.8	7.44e-01	0	43	104	0	76	10522
2026-01-25 07:05:00.53	140.04	3.03	-52.9	-61.7	3.8	7.46e-01	0	43	104	0	76	10521
2026-01-25 07:05:01.53	140.01	3.11	-52.9	-61.8	3.8	7.46e-01	0	43	104	0	76	10549
2026-01-25 07:05:02.54	139.98	3.18	-52.9	-61.7	3.8	7.45e-01	0	43	104	0	76	10527
2026-01-25 07:05:03.55	139.95	3.25	-52.9	-61.7	3.8	7.47e-01	0	43	104	0	76	10532
2026-01-25 07:05:04.56	139.93	3.33	-52.9	-61.7	3.8	7.45e-01	0	43	104	0	76	10531
2026-01-25 07:05:05.57	139.90	3.40	-52.9	-61.7	3.8	7.46e-01	0	43	104	0	76	10489
2026-01-25 07:05:06.58	139.87	3.48	-52.9	-61.7	3.8	7.47e-01	0	43	104	0	76	10526
2026-01-25 07:05:07.58	139.84	3.55	-52.9	-61.7	3.8	7.46e-01	0	43	104	0	76	10522
2026-01-25 07:05:08.59	139.81	3.63	-52.9	-61.8	3.8	7.45e-01	0	43	104	0	76	10538
2026-01-25 07:05:09.60	139.78	3.71	-52.9	-61.7	3.8	7.45e-01	0	43	104	0	76	10507
2026-01-25 07:05:10.61	139.75	3.78	-52.9	-61.7	3.8	7.46e-01	0	43	104	0	76	10518
2026-01-25 07:05:11.62	139.73	3.86	-52.9	-61.7	3.8	7.46e-01	0	43	104	0	76	10520
2026-01-25 07:05:12.62	139.70	3.93	-52.9	-61.7	3.8	7.44e-01	0	43	104	0	76	10497
2026-01-25 07:05:13.63	139.67	4.01	-52.9	-61.7	3.8	7.44e-01	0	43	104	0	76	10503
2026-01-25 07:05:14.64	139.64	4.09	-52.9	-61.8	3.8	7.45e-01	0	43	104	0	76	10540
2026-01-25 07:05:15.65	139.61	4.17	-52.9	-61.7	3.8	7.46e-01	0	44	104	0	76	10505
2026-01-25 07:05:16.66	139.58	4.25	-52.9	-61.7	3.8	7.46e-01	0	44	104	0	76	10529
2026-01-25 07:05:17.66	139.55	4.32	-52.9	-61.7	3.8	7.46e-01	0	44	104	0	76	10511
2026-01-25 07:05:18.67	139.52	4.40	-52.9	-61.8	3.8	7.45e-01	0	44	104	0	76	10540
2026-01-25 07:05:19.68	139.48	4.48	-52.9	-61.7	3.8	7.44e-01	0	44	104	0	76	10533
2026-01-25 07:05:20.69	139.45	4.56	-52.9	-61.8	3.8	7.45e-01	0	44	104	0	76	10543
2026-01-25 07:05:21.70	139.42	4.64	-52.9	-61.7	3.8	7.45e-01	0	44	104	0	76	10504
2026-01-25 07:05:22.70	139.39	4.72	-52.9	-61.7	3.8	7.45e-01	0	44	104	0	76	10529
2026-01-25 07:05:23.71	139.36	4.80	-52.9	-61.7	3.8	7.46e-01	0	44	104	0	76	10522
2026-01-25 07:05:24.72	139.33	4.88	-52.9	-61.7	3.8	7.44e-01	0	44	104	0	76	10503
2026-01-25 07:05:25.73	139.29	4.96	-52.9	-61.7	3.8	7.47e-01	0	44	104	0	76	10518
2026-01-25 07:05:26.74	139.26	5.04	-52.9	-61.8	3.8	7.45e-01	0	44	104	0	76	10556
2026-01-25 07:05:27.74	139.23	5.12	-50.1	-61.9	3.8	7.45e-01	0	44	104	0	71	14286
2026-01-25 07:05:28.75	139.19	5.20	-50.1	-61.9	3.8	7.45e-01	0	44	104	0	71	14216
2026-01-25 07:05:29.76	139.16	5.29	-50.4	-54.5	6.1	6.78e-01	0	44	104	0	71	6067
2026-01-25 07:05:30.77	139.13	5.37	-49.1	-52.3	8.3	6.41e-01	0	44	0	0	70	5001
2026-01-25 07:05:31.78	139.09	5.45	-51.8	-57.7	4.4	7.26e-01	0	44	0	0	74	7451
2026-01-25 07:05:32.78	139.06	5.53	-48.5	-51.5	9.0	6.33e-01	0	44	0	2097152	69	4839
2026-01-25 07:05:33.79	139.02	5.62	-48.6	-51.6	9.0	6.33e-01	0	44	0	18874368	68	5198
2026-01-25 07:05:34.79	138.99	5.70	-48.4	-51.4	9.2	6.32e-01	0	44	0	33554432	68	5061
2026-01-25 07:05:35.80	138.95	5.78	-48.3	-51.2	9.7	6.27e-01	0	44	0	48234496	67	5226
2026-01-25 07:05:36.81	138.92	5.87	-47.8	-50.5	10.2	6.24e-01	0	44	0	62914560	67	4865
2026-01-25 07:05:37.82	138.88	5.95	-47.5	-50.2	10.6	6.20e-01	0	44	0	77594624	67	4666
2026-01-25 07:05:38.83	138.85	6.04	-47.6	-50.2	10.5	6.21e-01	0	44	0	94371840	66	4975
2026-01-25 07:05:39.84	138.81	6.12	-46.8	-49.3	11.5	6.16e-01	0	44	0	111149056	65	4722
2026-01-25 07:05:40.84	138.77	6.21	-45.8	-48.0	12.7	6.12e-01	0	44	0	125829120	63	4566
2026-01-25 07:05:41.85	138.74	6.30	-45.2	-47.3	13.3	6.11e-01	0	44	0	140509184	62	4485
2026-01-25 07:05:42.86	138.70	6.38	-44.8	-46.8	13.8	6.11e-01	0	44	0	157286400	61	4461
2026-01-25 07:05:43.87	138.66	6.47	-44.7	-46.8	13.8	6.10e-01	0	44	0	171966464	61	4458
2026-01-25 07:05:44.88	138.63	6.56	-44.1	-46.0	14.5	6.10e-01	0	44	0	186646528	60	4316
2026-01-25 07:05:45.88	138.59	6.65	-44.3	-46.3	14.3	6.10e-01	0	44	0	203423744	59	4716
2026-01-25 07:05:46.89	138.55	6.73	-44.0	-46.0	14.5	6.10e-01	0	44	0	218103808	59	4559
2026-01-25 07:05:47.90	138.51	6.82	-44.0	-46.0	14.5	6.09e-01	0	44	0	232783872	59	4565
2026-01-25 07:05:48.91	138.47	6.91	-44.3	-46.2	14.3	6.10e-01	0	44	0	249561088	59	4702
2026-01-25 07:05:49.92	138.43	7.00	-44.2	-46.4	14.3	5.85e-01	0	44	0	264241152	59	4773
2026-01-25 07:05:50.92	138.39	7.09	-44.3	-46.5	14.2	5.85e-01	0	44	0	278921216	59	4840
2026-01-25 07:05:51.93	138.35	7.18	-44.4	-46.6	14.1	5.85e-01	0	44	0	295698432	59	4921
2026-01-25 07:05:52.94	138.31	7.27	-44.6	-46.8	13.9	5.86e-01	0	44	0	312475648	59	5035
2026-01-25 07:05:53.95	138.27	7.36	-44.1	-46.2	14.5	5.85e-01	0	44	0	327155712	59	4694
2026-01-25 07:05:54.96	138.23	7.45	-44.1	-46.3	14.5	5.85e-01	0	44	0	341835776	59	4738
2026-01-25 07:05:55.96	138.19	7.55	-43.9	-46.0	14.7	5.85e-01	0	44	0	358612992	59	4579
2026-01-25 07:05:56.97	138.15	7.64	-43.9	-46.0	14.8	5.86e-01	0	45	0	373293056	59	4564
2026-01-25 07:05:57.98	138.10	7.73	-44.3	-46.4	14.3	5.86e-01	0	44	0	387973120	59	4810
2026-01-25 07:05:58.99	138.06	7.82	-43.7	-45.7	15.0	5.84e-01	0	44	0	404750336	59	4432
2026-01-25 07:06:00.00	138.02	7.92	-43.9	-46.0	14.8	5.85e-01	0	44	0	419430400	59	4559
2026-01-25 07:06:01.00	137.98	8.01	-43.5	-45.6	15.2	5.86e-01	0	44	0	434110464	59	4341
2026-01-25 07:06:02.01	137.93	8.11	-43.8	-45.9	14.8	5.85e-01	0	44	0	450887680	58	4800
2026-01-25 07:06:03.02	137.89	8.20	-43.7	-45.7	15.0	5.84e-01	0	44	0	465567744	58	4705
2026-01-25 07:06:04.03	137.84	8.30	-43.5	-45.5	15.1	5.85e-01	0	44	0	480247808	58	4594
2026-01-25 07:06:05.04	137.80	8.39	-43.5	-45.6	15.1	5.84e-01	0	44	0	497025024	58	4629
2026-01-25 07:06:06.05	137.75	8.49	-43.5	-45.6	15.1	5.85e-01	0	44	0	513802240	58	4626
2026-01-25 07:06:07.06	137.71	8.59	-43.6	-45.6	15.1	5.84e-01	0	44	0	528482304	58	4651
2026-01-25 07:06:08.07	137.66	8.68	-43.5	-45.5	15.2	5.85e-01	0	44	0	543162368	58	4594
2026-01-25 07:06:09.08	137.62	8.78	-43.5	-45.5	15.2	5.85e-01	0	44	0	559939584	58	4586
2026-01-25 07:06:10.08	137.57	8.88	-43.5	-45.5	15.2	5.84e-01	0	44	0	574619648	58	4578
2026-01-25 07:06:11.09	137.52	8.98	-43.4	-45.4	15.3	5.84e-01	0	44	0	589299712	58	4524
2026-01-25 07:06:12.10	137.47	9.08	-43.4	-45.4	15.3	5.85e-01	0	44	0	606076928	58	4543
2026-01-25 07:06:13.11	137.43	9.18	-43.4	-45.5	15.3	5.85e-01	0	44	0	620756992	58	4563
2026-01-25 07:06:14.12	137.38	9.28	-43.5	-45.5	15.2	5.84e-01	0	44	0	635437056	58	4592
2026-01-25 07:06:15.13	137.33	9.38	-43.4	-45.4	15.3	5.84e-01	0	44	0	652214272	58	4533
2026-01-25 07:06:16.14	137.28	9.48	-43.3	-45.4	15.4	5.85e-01	0	44	0	668991488	58	4507
2026-01-25 07:06:17.14	137.23	9.58	-43.4	-45.5	15.3	5.85e-01	0	45	0	683671552	58	4564
2026-01-25 07:06:18.15	137.18	9.69	-43.3	-45.4	15.4	5.85e-01	0	44	0	698351616	58	4516
2026-01-25 07:06:19.16	137.13	9.79	-43.3	-45.3	15.5	5.84e-01	0	44	0	715128832	58	4468
2026-01-25 07:06:20.17	137.08	9.89	-43.3	-45.3	15.4	5.99e-01	0	44	0	729808896	58	4480
2026-01-25 07:06:21.18	137.02	10.00	-43.3	-45.3	15.4	5.98e-01	0	44	0	744488960	58	4463
2026-01-25 07:06:22.18	136.97	10.10	-43.3	-45.4	15.3	5.98e-01	0	44	0	761266176	58	4506
2026-01-25 07:06:23.19	136.92	10.21	-43.3	-45.3	15.4	5.98e-01	0	45	0	775946240	58	4471
2026-01-25 07:06:24.20	136.87	10.32	-43.2	-45.2	15.5	5.98e-01	0	44	0	790626304	58	4419
2026-01-25 07:06:25.21	136.81	10.42	-43.2	-45.3	15.4	5.97e-01	0	44	0	807403520	58	4466
2026-01-25 07:06:26.21	136.76	10.53	-43.2	-45.3	15.5	5.97e-01	0	45	0	822083584	58	4456
2026-01-25 07:06:27.23	136.70	10.64	-43.1	-45.2	15.5	5.97e-01	0	44	0	836763648	58	4418
2026-01-25 07:06:28.23	136.65	10.75	-43.1	-45.2	15.6	5.98e-01	0	45	0	853540864	58	4393
2026-01-25 07:06:29.24	136.59	10.86	-43.0	-45.1	15.6	5.98e-01	0	44	0	870318080	58	4390
2026-01-25 07:06:30.25	136.53	10.97	-42.9	-45.0	15.7	5.98e-01	0	45	0	884998144	57	4589
2026-01-25 07:06:31.26	136.48	11.08	-43.0	-45.2	15.5	5.97e-01	0	44	0	899678208	57	4654
2026-01-25 07:06:32.26	136.42	11.19	-42.9	-45.1	15.6	5.99e-01	0	44	0	916455424	57	4621
2026-01-25 07:06:33.27	136.36	11.30	-42.8	-45.0	15.7	5.96e-01	0	45	0	931135488	57	4566
2026-01-25 07:06:34.28	136.30	11.41	-42.9	-45.0	15.6	5.96e-01	0	44	0	945815552	57	4588
2026-01-25 07:06:35.29	136.24	11.52	-42.8	-45.0	15.7	5.99e-01	0	45	0	962592768	57	4572
2026-01-25 07:06:36.30	136.18	11.64	-42.9	-45.0	15.7	5.95e-01	0	44	0	977272832	57	4577
2026-01-25 07:06:37.30	136.12	11.75	-42.8	-45.0	15.7	5.96e-01	0	44	0	991952896	57	4549
2026-01-25 07:06:38.31	136.06	11.87	-42.6	-44.8	15.9	5.97e-01	0	44	0	1008730112	57	4452
2026-01-25 07:06:39.32	136.00	11.98	-42.5	-44.6	16.1	5.97e-01	0	44	0	1023410176	56	4629
2026-01-25 07:06:40.33	135.94	12.10	-42.5	-44.6	16.0	5.99e-01	0	45	0	1038090240	56	4634
2026-01-25 07:06:41.34	135.88	12.22	-42.5	-44.6	16.0	5.95e-01	0	45	0	1054867456	56	4649
2026-01-25 07:06:42.34	135.81	12.33	-42.3	-44.4	16.2	5.96e-01	0	45	0	1071644672	56	4543
2026-01-25 07:06:43.35	135.75	12.45	-42.3	-44.4	16.2	5.95e-01	0	45	0	1086324736	56	4525
2026-01-25 07:06:44.36	135.68	12.57	-42.2	-44.4	16.3	5.96e-01	0	45	0	1101004800	56	4499
2026-01-25 07:06:45.37	135.62	12.69	-42.2	-44.3	16.3	5.97e-01	0	45	0	1117782016	56	4473
2026-01-25 07:06:46.38	135.55	12.81	-42.1	-44.2	16.5	5.96e-01	0	45	0	1132462080	56	4393
2026-01-25 07:06:47.39	135.48	12.93	-42.1	-44.2	16.4	5.97e-01	0	45	0	1147142144	56	4412
2026-01-25 07:06:48.39	135.42	13.06	-42.1	-44.2	16.6	5.96e-01	0	44	0	1163919360	55	4656
2026-01-25 07:06:49.40	135.35	13.18	-42.1	-44.1	16.6	5.94e-01	0	45	0	1178599424	55	4642
2026-01-25 07:06:50.41	135.28	13.30	-42.0	-44.0	16.7	5.97e-01	0	45	0	1193279488	55	4572
2026-01-25 07:06:51.42	135.21	13.43	-42.0	-44.0	16.8	5.95e-01	0	45	0	1207959552	55	4558
2026-01-25 07:06:52.42	135.14	13.55	-41.7	-43.7	17.0	5.95e-01	0	45	0	1224736768	55	4429
2026-01-25 07:06:53.43	135.07	13.68	-41.7	-43.7	17.0	5.95e-01	0	45	0	1239416832	55	4410
2026-01-25 07:06:54.44	134.99	13.81	-41.8	-43.7	16.9	5.95e-01	0	45	0	1256194048	55	4438
2026-01-25 07:06:55.45	134.92	13.93	-41.7	-43.6	17.0	5.95e-01	0	45	0	1272971264	55	4387
2026-01-25 07:06:56.46	134.85	14.06	-41.7	-43.6	17.1	5.96e-01	0	45	0	1287651328	55	4357
2026-01-25 07:06:57.46	134.77	14.19	-41.6	-43.5	17.1	5.95e-01	0	45	0	1302331392	55	4323
2026-01-25 07:06:58.47	134.70	14.32	-41.6	-43.4	17.2	5.97e-01	0	45	0	1317011456	55	4279
2026-01-25 07:06:59.48	134.62	14.46	-41.8	-43.6	17.0	5.96e-01	0	45	0	1333788672	55	4391
2026-01-25 07:07:00.49	134.55	14.59	-41.8	-43.6	17.1	5.96e-01	0	45	0	1348468736	55	4354
2026-01-25 07:07:01.50	134.47	14.72	-41.4	-43.1	17.4	5.94e-01	0	45	0	1363148800	54	4388
2026-01-25 07:07:02.51	134.39	14.86	-41.1	-42.9	17.6	5.99e-01	0	45	0	1379926016	54	4269
2026-01-25 07:07:03.51	134.31	14.99	-41.2	-43.0	17.6	5.98e-01	0	45	0	1394606080	54	4299
2026-01-25 07:07:04.52	134.23	15.13	-41.2	-43.0	17.5	5.94e-01	0	45	0	1409286144	54	4303
2026-01-25 07:07:05.53	134.15	15.26	-41.2	-43.0	17.5	5.96e-01	0	45	0	1426063360	54	4299
2026-01-25 07:07:06.54	134.06	15.40	-41.0	-42.8	17.8	6.00e-01	0	45	0	1442840576	54	4199
2026-01-25 07:07:07.55	133.98	15.54	-41.0	-42.7	17.8	5.96e-01	0	45	0	1457520640	54	4160
2026-01-25 07:07:08.56	133.90	15.68	-41.0	-42.7	17.8	5.96e-01	0	45	0	1472200704	53	4410
2026-01-25 07:07:09.57	133.81	15.82	-41.0	-42.7	17.8	5.97e-01	0	45	0	1488977920	53	4428
2026-01-25 07:07:10.58	133.72	15.96	-40.9	-42.7	17.7	5.97e-01	0	45	0	1503657984	53	4413
2026-01-25 07:07:11.58	133.64	16.11	-40.9	-42.7	17.8	6.00e-01	0	45	0	1518338048	53	4413
2026-01-25 07:07:12.59	133.55	16.25	-40.9	-42.7	17.8	5.99e-01	0	45	0	1535115264	53	4412
2026-01-25 07:07:13.60	133.46	16.40	-40.9	-42.7	17.8	6.00e-01	0	45	0	1549795328	53	4398
2026-01-25 07:07:14.61	133.37	16.54	-40.7	-42.5	17.9	5.99e-01	0	45	0	1564475392	53	4294
2026-01-25 07:07:15.61	133.28	16.69	-40.7	-42.5	17.9	5.98e-01	0	45	0	1581252608	53	4320
2026-01-25 07:07:16.62	133.19	16.84	-40.7	-42.6	17.9	5.99e-01	0	45	0	1595932672	53	4343
2026-01-25 07:07:17.63	133.09	16.99	-40.6	-42.5	18.0	6.00e-01	0	45	0	1610612736	53	4304
2026-01-25 07:07:18.64	133.00	17.14	-40.6	-42.5	17.9	5.98e-01	0	45	0	1627389952	53	4338
2026-01-25 07:07:19.65	132.90	17.29	-40.6	-42.5	17.9	6.04e-01	0	45	0	1644167168	53	4319
2026-01-25 07:07:20.66	132.80	17.44	-40.7	-42.6	17.9	5.98e-01	0	45	0	1658847232	53	4391
2026-01-25 07:07:21.66	132.71	17.59	-40.6	-42.6	17.9	5.99e-01	0	45	0	1673527296	53	4346
2026-01-25 07:07:22.67	132.61	17.75	-40.6	-42.5	17.9	5.98e-01	0	45	0	1690304512	53	4337
2026-01-25 07:07:23.68	132.51	17.91	-40.6	-42.6	18.0	6.02e-01	0	45	0	1704984576	53	4368
2026-01-25 07:07:24.69	132.40	18.06	-40.7	-42.7	17.9	6.00e-01	0	45	0	1719664640	53	4394
2026-01-25 07:07:25.70	132.30	18.22	-40.7	-42.6	17.9	6.00e-01	0	45	0	1736441856	53	4376
2026-01-25 07:07:26.71	132.19	18.38	-40.7	-42.6	17.9	6.00e-01	0	45	0	1751121920	53	4372
2026-01-25 07:07:27.72	132.09	18.54	-40.7	-42.7	17.9	6.00e-01	0	45	0	1765801984	53	4392
2026-01-25 07:07:28.73	131.98	18.71	-40.7	-42.7	17.9	5.99e-01	0	45	0	1782579200	53	4392
2026-01-25 07:07:29.73	131.87	18.87	-40.7	-42.6	17.9	5.99e-01	0	45	0	1797259264	53	4388
2026-01-25 07:07:30.74	131.76	19.03	-40.7	-42.6	17.8	5.99e-01	0	45	0	1814036480	53	4388
2026-01-25 07:07:31.75	131.65	19.20	-40.6	-42.5	18.0	5.99e-01	0	45	0	1828716544	53	4332
2026-01-25 07:07:32.76	131.54	19.37	-40.6	-42.5	18.0	5.98e-01	0	45	0	1845493760	53	4328
2026-01-25 07:07:33.77	131.42	19.54	-40.6	-42.5	18.1	5.99e-01	0	45	0	1860173824	53	4311
2026-01-25 07:07:34.78	131.31	19.71	-40.7	-42.5	18.0	6.04e-01	0	45	0	1874853888	53	4312
2026-01-25 07:07:35.79	131.19	19.88	-40.5	-42.4	18.1	5.98e-01	0	45	0	1891631104	53	4245
2026-01-25 07:07:36.80	131.07	20.05	-40.6	-42.4	18.2	5.98e-01	0	45	0	1906311168	53	4246
2026-01-25 07:07:37.80	130.95	20.23	-40.4	-42.2	18.2	6.00e-01	0	45	0	1920991232	52	4423
2026-01-25 07:07:38.81	130.83	20.40	-40.3	-42.1	18.3	6.01e-01	0	45	0	1937768448	52	4360
2026-01-25 07:07:39.82	130.70	20.58	-40.3	-42.0	18.3	5.99e-01	0	45	0	1952448512	52	4335
2026-01-25 07:07:40.83	130.58	20.76	-40.3	-42.1	18.3	6.02e-01	0	45	0	1967128576	52	4363
2026-01-25 07:07:41.84	130.45	20.94	-40.3	-42.1	18.4	6.01e-01	0	45	0	1983905792	52	4354
2026-01-25 07:07:42.85	130.32	21.12	-40.1	-41.9	18.5	6.00e-01	0	45	0	2000683008	52	4262
2026-01-25 07:07:43.86	130.19	21.31	-40.0	-41.8	18.5	6.02e-01	0	45	0	2015363072	52	4206
2026-01-25 07:07:44.86	130.06	21.49	-40.0	-41.8	18.5	6.00e-01	0	45	0	2030043136	52	4214
2026-01-25 07:07:45.87	129.92	21.68	-40.0	-41.8	18.5	5.99e-01	0	45	0	2046820352	52	4242
2026-01-25 07:07:46.88	129.79	21.86	-40.0	-41.8	18.7	6.02e-01	0	45	0	2061500416	51	4454
2026-01-25 07:07:47.89	129.65	22.05	-40.0	-41.8	18.6	6.03e-01	0	45	0	2076180480	51	4474
2026-01-25 07:07:48.90	129.51	22.25	-39.9	-41.8	18.6	6.03e-01	0	45	0	2092957696	51	4449
2026-01-25 07:07:49.91	129.36	22.44	-39.8	-41.6	18.7	6.04e-01	0	45	0	2107637760	51	4379
2026-01-25 07:07:50.92	129.22	22.63	-39.9	-41.7	18.7	6.05e-01	0	45	0	2122317824	51	4405
2026-01-25 07:07:51.93	129.07	22.83	-39.7	-41.5	18.8	6.03e-01	0	45	0	2139095040	51	4330
2026-01-25 07:07:52.94	128.92	23.03	-39.8	-41.5	18.7	6.03e-01	0	45	0	2155872256	51	4334
2026-01-25 07:07:53.95	128.77	23.23	-39.9	-41.6	18.8	6.02e-01	0	45	0	2170552320	51	4353
2026-01-25 07:07:54.95	128.62	23.43	-39.9	-41.6	18.7	5.99e-01	0	45	0	2185232384	51	4374
2026-01-25 07:07:55.96	128.46	23.63	-40.0	-41.7	18.7	6.01e-01	0	45	0	2202009600	51	4400
2026-01-25 07:07:56.97	128.31	23.84	-40.1	-41.8	18.7	6.00e-01	0	45	0	2216689664	51	4470
2026-01-25 07:07:57.98	128.15	24.04	-40.2	-41.9	18.6	5.96e-01	0	45	0	2231369728	51	4495
2026-01-25 07:07:58.99	127.98	24.25	-40.2	-41.9	18.6	5.97e-01	0	45	0	2248146944	51	4500
2026-01-25 07:08:00.00	127.82	24.46	-40.2	-42.0	18.5	6.00e-01	0	45	0	2262827008	51	4554
2026-01-25 07:08:01.01	127.65	24.67	-40.2	-42.0	18.5	6.00e-01	0	45	0	2277507072	51	4581
2026-01-25 07:08:02.02	127.48	24.89	-40.3	-42.1	18.5	5.99e-01	0	45	0	2294284288	51	4607
2026-01-25 07:08:03.02	127.31	25.10	-40.3	-42.1	18.4	5.97e-01	0	45	0	2308964352	51	4632
2026-01-25 07:08:04.03	127.13	25.32	-40.3	-42.1	18.5	5.98e-01	0	45	0	2323644416	51	4631
2026-01-25 07:08:05.04	126.95	25.54	-40.2	-42.1	18.5	6.00e-01	0	45	0	2340421632	51	4610
2026-01-25 07:08:06.04	126.77	25.76	-40.2	-42.0	18.5	5.98e-01	0	45	0	2357198848	51	4589
2026-01-25 07:08:07.05	126.59	25.98	-40.1	-42.0	18.6	5.98e-01	0	45	0	2371878912	51	4547
2026-01-25 07:08:08.06	126.40	26.21	-40.2	-42.0	18.5	6.00e-01	0	45	0	2386558976	51	4573
2026-01-25 07:08:09.06	126.21	26.43	-40.0	-41.9	18.6	6.04e-01	0	45	0	2403336192	51	4507
2026-01-25 07:08:10.07	126.02	26.66	-40.1	-41.9	18.6	6.05e-01	0	45	0	2418016256	51	4509
2026-01-25 07:08:11.08	125.82	26.90	-40.1	-41.9	18.6	6.04e-01	0	45	0	2432696320	51	4495
2026-01-25 07:08:12.09	125.62	27.13	-40.0	-41.8	18.7	6.01e-01	0	45	0	2449473536	51	4446
2026-01-25 07:08:13.09	125.42	27.36	-40.0	-41.7	18.8	6.04e-01	0	45	0	2464153600	51	4407
2026-01-25 07:08:14.10	125.22	27.60	-39.9	-41.6	18.8	6.05e-01	0	45	0	2478833664	51	4378
2026-01-25 07:08:15.11	125.01	27.84	-40.0	-41.7	18.7	6.03e-01	0	45	0	2495610880	51	4409
2026-01-25 07:08:16.12	124.79	28.08	-40.0	-41.7	18.8	6.03e-01	0	45	0	2510290944	51	4420
2026-01-25 07:08:17.13	124.58	28.33	-40.1	-41.8	18.7	6.04e-01	0	45	0	2524971008	51	4491
2026-01-25 07:08:18.14	124.36	28.57	-40.3	-42.0	18.5	6.04e-01	0	45	0	2541748224	51	4597
2026-01-25 07:08:19.15	124.13	28.82	-40.4	-42.3	18.4	6.03e-01	0	45	0	2558525440	51	4728
2026-01-25 07:08:20.15	123.91	29.07	-40.3	-42.2	18.5	6.02e-01	0	45	0	2573205504	51	4663
2026-01-25 07:08:21.16	123.67	29.33	-40.5	-42.4	18.3	6.01e-01	0	45	0	2587885568	51	4763
2026-01-25 07:08:22.17	123.44	29.58	-40.3	-42.2	18.5	5.99e-01	0	45	0	2604662784	51	4699
2026-01-25 07:08:23.18	123.20	29.84	-40.2	-42.0	18.5	6.00e-01	0	45	0	2619342848	51	4597
2026-01-25 07:08:24.18	122.95	30.10	-40.2	-42.0	18.5	5.99e-01	0	45	0	2634022912	51	4597
2026-01-25 07:08:25.19	122.70	30.36	-40.2	-42.1	18.5	5.99e-01	0	45	0	2648702976	51	4644
2026-01-25 07:08:26.20	122.45	30.62	-40.3	-42.2	18.4	6.00e-01	0	45	0	2665480192	51	4703
2026-01-25 07:08:27.21	122.19	30.89	-40.2	-42.2	18.4	6.06e-01	0	45	0	2680160256	51	4686
2026-01-25 07:08:28.22	121.93	31.16	-40.3	-42.3	18.5	6.00e-01	0	45	0	2694840320	51	4715
2026-01-25 07:08:29.22	121.66	31.43	-40.2	-42.2	18.4	5.99e-01	0	45	0	2711617536	51	4677
2026-01-25 07:08:30.23	121.39	31.70	-40.3	-42.2	18.5	5.97e-01	0	45	0	2726297600	51	4700
2026-01-25 07:08:31.24	121.11	31.98	-40.2	-42.2	18.5	6.01e-01	0	45	0	2743074816	51	4665
2026-01-25 07:08:32.25	120.83	32.25	-40.2	-42.1	18.5	6.01e-01	0	45	0	2757754880	51	4633
2026-01-25 07:08:33.25	120.54	32.53	-40.3	-42.3	18.4	6.00e-01	0	45	0	2774532096	51	4711
2026-01-25 07:08:34.26	120.25	32.81	-40.2	-42.2	18.4	6.01e-01	0	45	0	2789212160	51	4686
2026-01-25 07:08:35.27	119.95	33.10	-40.2	-42.4	18.4	5.99e-01	0	45	0	2803892224	51	4765
2026-01-25 07:08:36.28	119.65	33.39	-40.2	-42.5	18.3	5.98e-01	0	45	0	2820669440	51	4841
2026-01-25 07:08:37.29	119.34	33.68	-40.1	-42.4	18.3	5.96e-01	0	45	0	2835349504	51	4793
2026-01-25 07:08:38.30	119.02	33.97	-40.1	-42.4	18.3	6.03e-01	0	45	0	2850029568	51	4778
2026-01-25 07:08:39.30	118.70	34.26	-39.9	-42.1	18.5	6.00e-01	0	45	0	2866806784	51	4631
2026-01-25 07:08:40.31	118.37	34.55	-39.8	-42.0	18.7	5.97e-01	0	45	0	2881486848	51	4547
2026-01-25 07:08:41.32	118.03	34.85	-39.9	-42.0	18.7	6.00e-01	0	45	0	2896166912	51	4560
2026-01-25 07:08:42.33	117.69	35.15	-39.7	-41.9	18.7	6.01e-01	0	45	0	2912944128	51	4519
2026-01-25 07:08:43.34	117.34	35.46	-39.6	-41.8	18.7	5.94e-01	0	45	0	2929721344	51	4457
2026-01-25 07:08:44.35	116.98	35.76	-39.4	-41.7	18.7	5.98e-01	0	45	0	2944401408	50	4681
2026-01-25 07:08:45.36	116.62	36.07	-39.4	-41.8	18.7	5.95e-01	0	45	0	2959081472	50	4706
2026-01-25 07:08:46.37	116.25	36.38	-39.3	-41.6	18.9	6.02e-01	0	45	0	2975858688	50	4620
2026-01-25 07:08:47.38	115.87	36.69	-39.3	-41.6	18.9	5.99e-01	0	45	0	2990538752	50	4609
2026-01-25 07:08:48.39	115.48	37.01	-39.3	-41.5	18.9	6.00e-01	0	45	0	3005218816	50	4554
2026-01-25 07:08:49.40	115.09	37.32	-38.8	-40.9	19.3	6.00e-01	0	45	0	3021996032	49	4534
2026-01-25 07:08:50.40	114.69	37.64	-38.4	-40.6	19.5	6.01e-01	0	45	0	3036676096	48	4618
2026-01-25 07:08:51.41	114.28	37.96	-38.4	-40.6	19.5	6.02e-01	0	45	0	3051356160	48	4602
2026-01-25 07:08:52.42	113.86	38.28	-38.4	-40.5	19.5	5.99e-01	0	45	0	3068133376	48	4588
2026-01-25 07:08:53.43	113.43	38.60	-38.3	-40.4	19.5	6.00e-01	0	45	0	3082813440	48	4520
2026-01-25 07:08:54.44	112.99	38.93	-38.2	-40.3	19.6	5.99e-01	0	45	0	3099590656	48	4468
2026-01-25 07:08:55.44	112.55	39.25	-37.0	-39.0	19.4	5.99e-01	0	45	0	3114270720	46	4321
2026-01-25 07:08:56.45	112.09	39.58	-37.1	-39.2	19.3	5.96e-01	0	45	0	3131047936	46	4426
2026-01-25 07:08:57.46	111.62	39.91	-36.9	-39.0	19.3	5.97e-01	0	45	0	3145728000	45	4597
2026-01-25 07:08:58.47	111.15	40.24	-36.7	-38.8	19.4	5.94e-01	0	45	0	3160408064	45	4490
2026-01-25 07:08:59.48	110.66	40.57	-36.7	-38.8	19.5	5.96e-01	0	45	0	3177185280	45	4482
2026-01-25 07:09:00.48	110.17	40.90	-36.6	-38.7	19.5	5.97e-01	0	45	0	3191865344	45	4431
2026-01-25 07:09:01.49	109.66	41.24	-36.5	-38.7	19.5	5.97e-01	0	45	0	3206545408	45	4434
2026-01-25 07:09:02.50	109.14	41.57	-36.6	-38.9	19.4	5.92e-01	0	45	0	3223322624	45	4528
2026-01-25 07:09:03.51	108.60	41.91	-36.6	-38.9	19.5	6.01e-01	0	45	0	3238002688	45	4528
2026-01-25 07:09:04.52	108.06	42.25	-36.6	-38.9	19.4	5.98e-01	0	45	0	3252682752	45	4535
2026-01-25 07:09:05.53	107.51	42.58	-36.5	-38.8	19.4	5.95e-01	0	45	0	3269459968	45	4473
2026-01-25 07:09:06.54	106.94	42.92	-36.2	-38.5	19.6	5.93e-01	0	45	0	3286237184	44	4548
2026-01-25 07:09:07.54	106.36	43.26	-36.4	-38.6	19.6	5.95e-01	0	45	0	3300917248	44	4624
2026-01-25 07:09:08.55	105.77	43.60	-36.5	-38.6	19.6	5.97e-01	0	45	0	3315597312	44	4630
2026-01-25 07:09:09.56	105.16	43.94	-36.4	-38.5	19.6	5.98e-01	0	45	0	3332374528	44	4563
2026-01-25 07:09:10.57	104.54	44.27	-36.5	-38.6	19.5	5.92e-01	0	45	0	3347054592	44	4619
2026-01-25 07:09:11.58	103.91	44.61	-36.3	-38.4	19.7	5.97e-01	0	45	0	3361734656	44	4505
2026-01-25 07:09:12.58	103.27	44.95	-36.2	-38.3	19.8	5.97e-01	0	45	0	3378511872	44	4453
2026-01-25 07:09:13.59	102.61	45.28	-36.4	-38.5	19.7	5.97e-01	0	45	0	3393191936	44	4564
2026-01-25 07:09:14.60	101.93	45.62	-36.3	-38.3	19.8	5.94e-01	0	45	0	3407872000	44	4474
2026-01-25 07:09:15.61	101.24	45.95	-36.3	-38.3	19.8	5.95e-01	0	45	0	3424649216	44	4446
2026-01-25 07:09:16.62	100.53	46.29	-36.4	-38.3	19.8	5.96e-01	0	45	0	3439329280	44	4475
2026-01-25 07:09:17.63	99.81	46.62	-36.4	-38.4	19.8	5.91e-01	0	45	0	3454009344	44	4513
2026-01-25 07:09:18.64	99.07	46.95	-36.8	-38.9	19.4	5.94e-01	0	45	0	3470786560	44	4805
2026-01-25 07:09:19.64	98.32	47.27	-36.3	-38.4	19.6	5.92e-01	0	45	0	3487563776	44	4530
2026-01-25 07:09:20.65	97.55	47.59	-36.0	-38.0	19.9	5.90e-01	0	45	0	3502243840	44	4339
2026-01-25 07:09:21.66	96.76	47.92	-36.1	-38.1	19.9	5.90e-01	0	45	0	3516923904	44	4363
2026-01-25 07:09:22.67	95.96	48.23	-36.2	-38.3	19.8	5.91e-01	0	45	0	3533701120	44	4446
2026-01-25 07:09:23.68	95.13	48.55	-36.5	-38.6	19.6	5.88e-01	0	45	0	3548381184	44	4620
2026-01-25 07:09:24.69	94.29	48.86	-36.7	-38.7	19.5	5.97e-01	0	45	0	3563061248	44	4675
2026-01-25 07:09:25.70	93.44	49.17	-36.9	-38.9	19.5	5.94e-01	0	45	0	3579838464	44	4762
2026-01-25 07:09:26.70	92.57	49.46	-36.9	-38.9	19.4	6.02e-01	0	45	0	3594518528	44	4768
2026-01-25 07:09:27.71	91.68	49.76	-36.9	-38.8	19.4	5.93e-01	0	45	0	3609198592	44	4756
2026-01-25 07:09:28.72	90.77	50.05	-37.0	-38.9	19.5	5.94e-01	0	45	0	3625975808	44	4789
2026-01-25 07:09:29.73	89.84	50.34	-37.2	-39.2	19.3	5.95e-01	0	45	0	3640655872	44	4953
2026-01-25 07:09:30.74	88.89	50.62	-37.4	-39.6	19.0	5.90e-01	0	45	0	3657433088	45	4922
2026-01-25 07:09:31.74	87.94	50.89	-37.5	-39.7	18.9	5.96e-01	0	45	0	3672113152	45	4981
2026-01-25 07:09:32.75	86.96	51.16	-37.5	-39.6	19.0	5.98e-01	0	45	0	3688890368	45	4912
2026-01-25 07:09:33.76	85.96	51.42	-37.6	-39.7	18.9	6.00e-01	0	45	0	3703570432	45	4935
2026-01-25 07:09:34.77	84.94	51.67	-37.8	-40.1	18.8	6.01e-01	0	45	0	3718250496	46	4898
2026-01-25 07:09:35.78	83.90	51.91	-38.1	-40.5	18.5	6.00e-01	0	45	0	3735027712	46	5104
2026-01-25 07:09:36.78	82.86	52.15	-37.6	-39.8	19.0	5.85e-01	0	45	0	3749707776	46	4746
2026-01-25 07:09:37.79	81.79	52.37	-37.5	-39.7	19.1	5.85e-01	0	45	0	3764387840	46	4652
2026-01-25 07:09:38.80	80.71	52.59	-37.6	-39.8	19.0	5.84e-01	0	45	0	3781165056	46	4758
2026-01-25 07:09:39.81	79.60	52.80	-37.7	-40.0	18.9	5.84e-01	0	45	0	3795845120	46	4817
2026-01-25 07:09:40.82	78.49	53.00	-37.7	-40.0	18.9	5.85e-01	0	45	0	3810525184	46	4831
2026-01-25 07:09:41.83	77.35	53.19	-38.1	-40.4	18.6	5.84e-01	0	45	0	3827302400	46	5077
2026-01-25 07:09:42.83	76.22	53.36	-38.2	-40.5	18.6	5.84e-01	0	45	0	3841982464	47	4855
2026-01-25 07:09:43.84	75.06	53.53	-37.9	-40.0	18.9	5.86e-01	0	45	0	3858759680	47	4560
2026-01-25 07:09:44.85	73.88	53.68	-38.2	-40.2	18.8	5.85e-01	0	45	0	3873439744	47	4694
2026-01-25 07:09:45.86	72.69	53.83	-38.4	-40.7	18.4	5.84e-01	0	45	0	3890216960	47	4956
2026-01-25 07:09:46.87	71.50	53.96	-38.6	-40.9	18.3	5.84e-01	0	45	0	3904897024	47	5085
2026-01-25 07:09:47.88	70.29	54.08	-38.5	-40.7	18.5	5.85e-01	0	45	0	3919577088	47	4934
2026-01-25 07:09:48.88	69.08	54.19	-38.5	-40.7	18.4	5.85e-01	0	45	0	3936354304	47	4930
2026-01-25 07:09:49.89	67.85	54.28	-38.3	-40.4	18.6	5.84e-01	0	45	0	3951034368	47	4807
2026-01-25 07:09:50.90	66.62	54.36	-38.3	-40.4	18.5	5.83e-01	0	45	0	3965714432	47	4814
2026-01-25 07:09:51.91	65.37	54.43	-38.4	-40.6	18.6	5.85e-01	0	45	0	3982491648	47	4896
2026-01-25 07:09:52.92	64.13	54.49	-38.3	-40.5	18.6	5.85e-01	0	45	0	3997171712	47	4818
2026-01-25 07:09:53.93	62.87	54.53	-38.5	-40.6	18.5	5.84e-01	0	45	0	4011851776	47	4913
2026-01-25 07:09:54.94	61.62	54.56	-38.3	-40.4	18.8	5.85e-01	0	45	0	4028628992	47	4768
2026-01-25 07:09:55.94	60.37	54.57	-38.3	-40.4	18.7	5.85e-01	0	45	0	4045406208	47	4773
2026-01-25 07:09:56.95	59.12	54.57	-38.4	-40.5	18.5	6.00e-01	0	45	0	4060086272	47	4859
2026-01-25 07:09:57.96	57.86	54.56	-38.6	-40.8	18.3	6.02e-01	0	45	0	4074766336	47	4992
2026-01-25 07:09:58.97	56.60	54.54	-38.5	-40.6	18.5	6.00e-01	0	45	0	4091543552	47	4900
2026-01-25 07:09:59.98	55.35	54.50	-38.6	-40.7	18.4	6.00e-01	0	45	0	4106223616	47	4946
2026-01-25 07:10:00.98	54.12	54.44	-38.3	-40.6	18.6	6.02e-01	0	45	0	4120903680	47	4872
2026-01-25 07:10:01.99	52.87	54.38	-38.5	-40.6	18.5	6.02e-01	0	45	0	4135583744	47	4905
2026-01-25 07:10:03.00	51.64	54.30	-39.7	-41.8	18.8	6.00e-01	0	45	0	4152360960	50	4742
2026-01-25 07:10:04.01	50.41	54.21	-40.0	-42.1	18.6	6.03e-01	0	45	0	4167041024	50	4925
2026-01-25 07:10:05.02	49.19	54.10	-40.0	-42.2	18.7	5.98e-01	0	45	0	4181721088	51	4681
2026-01-25 07:10:06.03	47.98	53.99	-40.0	-42.3	18.5	6.04e-01	0	45	0	4198498304	51	4757
2026-01-25 07:10:07.04	46.78	53.86	-40.0	-42.3	18.6	5.98e-01	0	45	0	4215275520	51	4706
2026-01-25 07:10:08.05	45.59	53.72	-39.7	-41.8	18.8	6.05e-01	0	45	0	4229955584	51	4444
2026-01-25 07:10:09.06	44.41	53.57	-39.7	-41.8	18.8	6.03e-01	0	45	0	4244635648	51	4483
2026-01-25 07:10:10.07	43.25	53.40	-39.4	-41.5	19.0	5.99e-01	0	45	0	4261412864	50	4584
2026-01-25 07:10:11.08	42.10	53.23	-39.5	-41.6	19.1	6.02e-01	0	45	0	4276092928	50	4611
2026-01-25 07:10:12.08	40.97	53.04	-39.4	-41.5	19.0	6.00e-01	0	45	0	4290772992	50	4563
2026-01-25 07:10:13.09	39.85	52.85	-39.4	-41.5	19.1	5.98e-01	0	45	0	4307550208	50	4565
2026-01-25 07:10:14.10	38.75	52.64	-39.4	-41.5	19.1	6.01e-01	0	45	0	4322230272	50	4580
2026-01-25 07:10:15.11	37.66	52.42	-39.5	-41.5	19.0	6.02e-01	0	45	0	4336910336	50	4561
2026-01-25 07:10:16.12	36.59	52.20	-39.3	-41.3	19.1	6.04e-01	0	45	0	4353687552	50	4454
2026-01-25 07:10:17.12	35.54	51.97	-39.3	-41.4	19.1	6.04e-01	0	45	0	4368367616	50	4496
2026-01-25 07:10:18.13	34.51	51.73	-39.3	-41.5	19.0	6.01e-01	0	45	0	4383047680	50	4584
2026-01-25 07:10:19.14	33.49	51.48	-39.0	-41.1	19.2	6.02e-01	0	45	0	4399824896	50	4384
2026-01-25 07:10:20.15	32.48	51.22	-39.0	-41.0	19.3	6.03e-01	0	45	0	4416602112	49	4584
2026-01-25 07:10:21.16	31.50	50.95	-39.0	-41.1	19.2	6.03e-01	0	45	0	4431282176	49	4601
2026-01-25 07:10:22.16	30.54	50.69	-38.8	-40.9	19.3	5.99e-01	0	45	0	4445962240	49	4544
2026-01-25 07:10:23.17	29.59	50.41	-38.6	-40.8	19.3	6.01e-01	0	45	0	4462739456	49	4483
2026-01-25 07:10:24.18	28.66	50.12	-38.6	-40.8	19.4	6.02e-01	0	45	0	4477419520	49	4462
2026-01-25 07:10:25.19	27.75	49.83	-38.5	-40.6	19.5	6.02e-01	0	45	0	4492099584	49	4376
2026-01-25 07:10:26.20	26.85	49.54	-38.3	-40.4	19.6	5.99e-01	0	45	0	4508876800	48	4516
2026-01-25 07:10:27.21	25.98	49.24	-38.3	-40.4	19.7	6.00e-01	0	45	0	4523556864	48	4502
2026-01-25 07:10:28.22	25.12	48.93	-38.4	-40.5	19.6	6.00e-01	0	45	0	4538236928	48	4554
2026-01-25 07:10:29.22	24.28	48.63	-38.3	-40.4	19.7	6.01e-01	0	45	0	4555014144	48	4498
2026-01-25 07:10:30.23	23.46	48.31	-38.5	-40.5	19.6	6.00e-01	0	45	0	4569694208	48	4567
2026-01-25 07:10:31.24	22.65	48.00	-38.3	-40.2	19.7	5.99e-01	0	45	0	4586471424	48	4440
2026-01-25 07:10:32.25	21.86	47.68	-38.2	-40.1	19.7	6.03e-01	0	45	0	4601151488	48	4352
2026-01-25 07:10:33.26	21.09	47.36	-37.0	-38.8	19.5	6.00e-01	0	45	0	4617928704	46	4240
2026-01-25 07:10:34.26	20.34	47.03	-36.7	-38.5	19.6	6.03e-01	0	45	0	4632608768	45	4337
2026-01-25 07:10:35.27	19.59	46.71	-36.6	-38.5	19.7	6.02e-01	0	45	0	4647288832	45	4300
2026-01-25 07:10:36.28	18.87	46.38	-36.6	-38.6	19.7	6.02e-01	0	45	0	4664066048	45	4362
2026-01-25 07:10:37.29	18.16	46.05	-36.7	-38.7	19.6	6.02e-01	0	45	0	4678746112	45	4417
2026-01-25 07:10:38.30	17.46	45.71	-36.6	-38.6	19.6	6.04e-01	0	45	0	4693426176	45	4379
2026-01-25 07:10:39.31	16.79	45.38	-36.6	-38.6	19.7	6.03e-01	0	45	0	4710203392	45	4347
2026-01-25 07:10:40.31	16.13	45.05	-36.6	-38.5	19.7	6.02e-01	0	45	0	4724883456	45	4306
2026-01-25 07:10:41.32	15.48	44.71	-36.4	-38.3	19.8	6.02e-01	0	45	0	4739563520	44	4477
2026-01-25 07:10:42.33	14.84	44.37	-36.5	-38.4	19.8	6.02e-01	0	45	0	4756340736	44	4511
2026-01-25 07:10:43.34	14.22	44.03	-36.4	-38.3	19.8	6.01e-01	0	45	0	4773117952	44	4442
2026-01-25 07:10:44.34	13.62	43.70	-36.4	-38.3	19.8	6.02e-01	0	45	0	4787798016	44	4481
2026-01-25 07:10:45.35	13.02	43.36	-36.5	-38.4	19.8	6.04e-01	0	45	0	4802478080	44	4529
2026-01-25 07:10:46.36	12.44	43.02	-36.6	-38.5	19.7	6.04e-01	0	45	0	4819255296	44	4559
2026-01-25 07:10:47.37	11.87	42.69	-36.6	-38.5	19.6	6.03e-01	0	45	0	4833935360	44	4598
2026-01-25 07:10:48.38	11.31	42.35	-36.6	-38.6	19.6	6.03e-01	0	45	0	4848615424	44	4608
2026-01-25 07:10:49.39	10.77	42.01	-36.5	-38.5	19.7	6.04e-01	0	45	0	4865392640	44	4592
2026-01-25 07:10:50.39	10.24	41.68	-36.6	-38.5	19.7	6.02e-01	0	45	0	4880072704	44	4578
2026-01-25 07:10:51.40	9.72	41.35	-36.6	-38.5	19.7	6.00e-01	0	45	0	4894752768	44	4573
2026-01-25 07:10:52.41	9.21	41.01	-36.6	-38.6	19.6	5.99e-01	0	45	0	4911529984	44	4641
2026-01-25 07:10:53.41	8.71	40.68	-36.9	-38.9	19.4	5.99e-01	0	45	0	4926210048	44	4808
2026-01-25 07:10:54.42	8.22	40.35	-37.0	-39.1	19.3	5.97e-01	0	45	0	4940890112	44	4893
2026-01-25 07:10:55.43	7.75	40.02	-37.0	-39.1	19.3	5.98e-01	0	45	0	4957667328	44	4922
2026-01-25 07:10:56.44	7.28	39.69	-37.0	-39.1	19.3	5.99e-01	0	45	0	4974444544	44	4922
2026-01-25 07:10:57.44	6.82	39.37	-37.3	-39.3	19.1	6.01e-01	0	45	0	4989124608	45	4715
2026-01-25 07:10:58.45	6.38	39.04	-37.2	-39.1	19.4	6.00e-01	0	45	0	5003804672	45	4621
2026-01-25 07:10:59.46	5.94	38.72	-37.2	-39.1	19.3	5.97e-01	0	45	0	5020581888	45	4611
2026-01-25 07:11:00.47	5.51	38.39	-37.3	-39.2	19.3	6.00e-01	0	45	0	5035261952	45	4681
2026-01-25 07:11:01.48	5.08	38.07	-37.4	-39.4	19.1	6.00e-01	0	45	0	5049942016	45	4793
2026-01-25 07:11:02.48	4.68	37.76	-37.5	-39.5	19.1	6.01e-01	0	45	0	5066719232	45	4854
2026-01-25 07:11:03.49	4.27	37.44	-37.7	-39.7	19.0	6.03e-01	0	45	0	5081399296	45	4927
2026-01-25 07:11:04.50	3.87	37.12	-37.8	-39.7	18.9	6.01e-01	0	45	0	5096079360	46	4697
2026-01-25 07:11:05.51	3.49	36.81	-37.8	-39.7	18.9	6.00e-01	0	45	0	5112856576	46	4700
2026-01-25 07:11:06.52	3.11	36.50	-38.0	-39.9	18.8	6.02e-01	0	45	0	5127536640	46	4784
2026-01-25 07:11:07.53	2.73	36.19	-38.1	-40.0	18.8	6.01e-01	0	45	0	5142216704	46	4866
2026-01-25 07:11:08.54	2.37	35.88	-38.3	-40.2	18.7	6.00e-01	0	45	0	5158993920	47	4656
2026-01-25 07:11:09.54	2.02	35.58	-38.5	-40.3	18.6	6.01e-01	0	45	0	5175771136	47	4746
2026-01-25 07:11:10.55	1.66	35.28	-38.5	-40.4	18.5	6.02e-01	0	45	0	5190451200	47	4769
2026-01-25 07:11:11.56	1.32	34.98	-38.6	-40.3	18.6	6.00e-01	0	45	0	5205131264	47	4759
2026-01-25 07:11:12.57	0.98	34.68	-39.8	-41.6	18.9	6.05e-01	0	45	0	5221908480	50	4630
2026-01-25 07:11:13.57	0.66	34.39	-39.8	-41.7	18.8	6.04e-01	0	45	0	5236588544	50	4671
2026-01-25 07:11:14.58	0.33	34.09	-39.9	-41.8	18.7	6.04e-01	0	45	0	5251268608	50	4717
2026-01-25 07:11:15.59	0.01	33.80	-40.0	-41.9	18.7	6.01e-01	0	45	0	5268045824	50	4766
2026-01-25 07:11:16.60	359.70	33.51	-40.1	-41.9	18.7	6.05e-01	0	45	0	5282725888	50	4811
2026-01-25 07:11:17.61	359.40	33.23	-40.0	-41.9	18.7	6.04e-01	0	45	0	5297405952	50	4772
2026-01-25 07:11:18.62	359.10	32.94	-40.1	-41.9	18.7	5.99e-01	0	45	0	5314183168	50	4802
2026-01-25 07:11:19.62	358.80	32.66	-40.2	-41.9	18.7	6.03e-01	0	45	0	5328863232	50	4814
2026-01-25 07:11:20.63	358.52	32.38	-40.2	-42.0	18.6	6.00e-01	0	45	0	5343543296	50	4825
2026-01-25 07:11:21.64	358.23	32.10	-40.4	-42.1	18.6	6.03e-01	0	45	0	5360320512	51	4614
2026-01-25 07:11:22.65	357.95	31.83	-40.5	-42.2	18.5	6.02e-01	0	45	0	5377097728	51	4689
2026-01-25 07:11:23.66	357.68	31.56	-40.7	-42.4	18.4	5.97e-01	0	45	0	5391777792	51	4790
2026-01-25 07:11:24.67	357.41	31.28	-40.8	-42.5	18.3	6.01e-01	0	45	0	5406457856	52	4581
2026-01-25 07:11:25.67	357.15	31.02	-40.9	-42.7	18.1	6.01e-01	0	45	0	5423235072	52	4660
2026-01-25 07:11:26.68	356.89	30.75	-41.0	-42.8	18.1	6.03e-01	0	45	0	5437915136	52	4732
2026-01-25 07:11:27.69	356.64	30.49	-41.1	-42.9	18.0	6.00e-01	0	45	0	5452595200	52	4793
2026-01-25 07:11:28.70	356.39	30.23	-41.1	-42.9	17.9	6.01e-01	0	45	0	5467275264	52	4790
2026-01-25 07:11:29.70	356.14	29.97	-41.2	-43.0	17.9	6.00e-01	0	45	0	5484052480	52	4836
2026-01-25 07:11:30.71	355.90	29.71	-41.0	-42.8	18.0	6.00e-01	0	45	0	5498732544	52	4732
2026-01-25 07:11:31.72	355.67	29.46	-41.0	-42.8	18.0	6.02e-01	0	45	0	5513412608	52	4736
2026-01-25 07:11:32.73	355.43	29.20	-41.2	-43.0	17.9	6.03e-01	0	45	0	5530189824	52	4827
2026-01-25 07:11:33.74	355.20	28.95	-41.0	-42.8	18.0	6.02e-01	0	45	0	5546967040	53	4452
2026-01-25 07:11:34.74	354.98	28.71	-41.0	-42.8	18.0	6.05e-01	0	45	0	5561647104	53	4475
2026-01-25 07:11:35.75	354.76	28.46	-41.1	-42.8	18.0	6.03e-01	0	45	0	5576327168	53	4488
2026-01-25 07:11:36.76	354.54	28.22	-41.0	-42.7	18.0	6.04e-01	0	45	0	5593104384	53	4441
2026-01-25 07:11:37.77	354.33	27.98	-41.0	-42.7	18.1	6.04e-01	0	45	0	5607784448	53	4437
2026-01-25 07:11:38.78	354.12	27.74	-40.9	-42.7	18.1	6.01e-01	0	45	0	5622464512	53	4414
2026-01-25 07:11:39.78	353.91	27.50	-41.0	-42.8	18.1	6.04e-01	0	45	0	5639241728	53	4444
2026-01-25 07:11:40.79	353.71	27.26	-41.0	-42.7	18.1	6.01e-01	0	45	0	5653921792	53	4422
2026-01-25 07:11:41.80	353.51	27.03	-41.0	-42.7	18.1	6.04e-01	0	45	0	5668601856	53	4437
2026-01-25 07:11:42.81	353.31	26.80	-40.9	-42.6	18.1	6.02e-01	0	45	0	5685379072	53	4391
2026-01-25 07:11:43.81	353.12	26.57	-40.8	-42.5	18.2	6.02e-01	0	45	0	5700059136	53	4305
2026-01-25 07:11:44.82	352.93	26.34	-40.9	-42.6	18.2	6.04e-01	0	45	0	5714739200	53	4360
2026-01-25 07:11:45.83	352.74	26.12	-40.9	-42.6	18.1	6.02e-01	0	45	0	5731516416	53	4389
2026-01-25 07:11:46.84	352.56	25.89	-40.7	-42.4	18.2	6.02e-01	0	45	0	5748293632	53	4288
2026-01-25 07:11:47.84	352.38	25.68	-40.6	-42.3	18.2	6.04e-01	0	45	0	5762973696	53	4221
2026-01-25 07:11:48.85	352.20	25.46	-40.5	-42.3	18.3	6.03e-01	0	45	0	5777653760	53	4216
2026-01-25 07:11:49.86	352.02	25.24	-40.6	-42.4	18.3	6.02e-01	0	45	0	5794430976	53	4250
2026-01-25 07:11:50.87	351.85	25.02	-40.6	-42.4	18.2	6.02e-01	0	45	0	5809111040	53	4282
2026-01-25 07:11:51.88	351.68	24.81	-40.5	-42.3	18.2	6.02e-01	0	45	0	5823791104	53	4237
2026-01-25 07:11:52.89	351.51	24.60	-40.4	-42.2	18.4	6.00e-01	0	45	0	5840568320	52	4424
2026-01-25 07:11:53.90	351.35	24.39	-40.5	-42.3	18.3	6.03e-01	0	45	0	5855248384	52	4458
2026-01-25 07:11:54.91	351.18	24.18	-40.5	-42.3	18.2	6.00e-01	0	45	0	5869928448	52	4459
2026-01-25 07:11:55.91	351.02	23.97	-40.5	-42.3	18.3	6.02e-01	0	45	0	5886705664	52	4452
2026-01-25 07:11:56.92	350.87	23.77	-40.4	-42.2	18.3	6.00e-01	0	45	0	5901385728	52	4421
2026-01-25 07:11:57.93	350.71	23.56	-40.5	-42.2	18.3	6.00e-01	0	45	0	5916065792	52	4431
2026-01-25 07:11:58.94	350.56	23.36	-40.5	-42.2	18.3	5.99e-01	0	45	0	5932843008	52	4440
2026-01-25 07:11:59.95	350.41	23.16	-40.5	-42.3	18.3	6.03e-01	0	45	0	5949620224	52	4450
2026-01-25 07:12:00.95	350.26	22.97	-40.5	-42.3	18.2	6.03e-01	0	45	0	5964300288	52	4480
2026-01-25 07:12:01.96	350.11	22.77	-40.5	-42.4	18.2	5.97e-01	0	45	0	5978980352	52	4500
2026-01-25 07:12:02.97	349.97	22.58	-40.6	-42.4	18.2	6.00e-01	0	45	0	5995757568	52	4525
2026-01-25 07:12:03.97	349.82	22.39	-40.6	-42.4	18.2	6.02e-01	0	45	0	6010437632	52	4543
2026-01-25 07:12:04.98	349.68	22.19	-40.6	-42.5	18.1	6.01e-01	0	45	0	6025117696	52	4570
2026-01-25 07:12:05.99	349.54	22.00	-40.7	-42.6	18.0	6.02e-01	0	45	0	6041894912	52	4645
2026-01-25 07:12:07.00	349.41	21.82	-40.7	-42.6	18.0	5.98e-01	0	45	0	6056574976	52	4642
2026-01-25 07:12:08.01	349.27	21.63	-40.6	-42.6	18.1	5.96e-01	0	45	0	6071255040	52	4606
2026-01-25 07:12:09.02	349.14	21.44	-40.6	-42.5	18.0	5.96e-01	0	45	0	6088032256	52	4594
2026-01-25 07:12:10.02	349.01	21.26	-40.6	-42.5	18.1	5.97e-01	0	45	0	6102712320	52	4590
2026-01-25 07:12:11.03	348.88	21.08	-40.6	-42.6	18.0	5.94e-01	0	45	0	6117392384	52	4605
2026-01-25 07:12:12.04	348.75	20.90	-40.6	-42.6	18.0	5.96e-01	0	45	0	6134169600	52	4618
2026-01-25 07:12:13.05	348.63	20.72	-40.6	-42.6	18.0	5.96e-01	0	45	0	6150946816	52	4635
2026-01-25 07:12:14.06	348.50	20.54	-40.7	-42.6	18.0	5.99e-01	0	45	0	6165626880	52	4645
2026-01-25 07:12:15.06	348.38	20.37	-40.7	-42.7	17.9	5.97e-01	0	45	0	6180306944	52	4662
2026-01-25 07:12:16.07	348.26	20.20	-40.8	-42.7	17.8	5.99e-01	0	45	0	6197084160	52	4703
2026-01-25 07:12:17.08	348.14	20.02	-40.8	-42.7	17.9	5.96e-01	0	45	0	6211764224	52	4696
2026-01-25 07:12:18.09	348.02	19.85	-40.8	-42.8	17.9	5.84e-01	0	45	0	6226444288	52	4733
2026-01-25 07:12:19.10	347.91	19.68	-40.8	-42.8	17.9	5.85e-01	0	45	0	6243221504	52	4741
2026-01-25 07:12:20.10	347.79	19.51	-40.8	-42.8	17.8	5.85e-01	0	45	0	6257901568	52	4752
2026-01-25 07:12:21.11	347.68	19.34	-40.8	-42.9	17.8	5.85e-01	0	45	0	6272581632	52	4768
2026-01-25 07:12:22.12	347.57	19.18	-40.8	-42.8	17.8	5.84e-01	0	45	0	6289358848	52	4758
2026-01-25 07:12:23.13	347.46	19.01	-40.9	-43.0	17.8	5.84e-01	0	45	0	6304038912	52	4822
2026-01-25 07:12:24.14	347.35	18.85	-40.9	-43.0	17.7	5.84e-01	0	45	0	6320816128	52	4828
2026-01-25 07:12:25.14	347.24	18.69	-40.9	-43.0	17.7	5.85e-01	0	45	0	6335496192	52	4848
2026-01-25 07:12:26.15	347.14	18.53	-41.0	-43.1	17.7	5.85e-01	0	45	0	6352273408	52	4871
2026-01-25 07:12:27.16	347.03	18.37	-42.5	-43.3	17.5	5.85e-01	0	45	0	6366953472	55	4198
2026-01-25 07:12:28.17	346.93	18.21	-42.5	-43.3	17.6	5.85e-01	0	45	0	6381633536	55	4206
2026-01-25 07:12:29.18	346.83	18.05	-54.1	-63.0	3.8	7.47e-01	0	45	104	6392119296	78	10870
2026-01-25 07:12:30.18	346.73	17.89	-54.1	-62.9	3.8	7.44e-01	0	45	104	6392119296	78	10752
2026-01-25 07:12:31.19	346.63	17.74	-54.1	-62.9	3.8	7.47e-01	0	45	104	6392119296	78	10755
2026-01-25 07:12:32.20	346.53	17.59	-54.1	-62.9	3.8	7.46e-01	0	45	104	6392119296	78	10731
2026-01-25 07:12:33.20	346.43	17.43	-54.1	-62.9	3.8	7.46e-01	0	45	104	6392119296	78	10749
2026-01-25 07:12:34.21	346.34	17.28	-54.1	-62.9	3.8	7.46e-01	0	45	104	6392119296	78	10690
2026-01-25 07:12:35.22	346.24	17.13	-54.0	-62.9	3.8	7.44e-01	0	45	104	6392119296	78	10689
2026-01-25 07:12:36.23	346.15	16.98	-54.0	-62.9	3.8	7.44e-01	0	45	104	6392119296	78	10667
2026-01-25 07:12:37.24	346.05	16.83	-54.0	-62.8	3.8	7.44e-01	0	45	104	6392119296	78	10642
2026-01-25 07:12:38.24	345.96	16.69	-54.0	-62.8	3.8	7.45e-01	0	45	104	6392119296	78	10625
2026-01-25 07:12:39.25	345.87	16.54	-54.0	-62.8	3.8	7.45e-01	0	45	104	6392119296	78	10643
2026-01-25 07:12:40.26	345.78	16.40	-54.0	-62.8	3.8	7.44e-01	0	45	104	6392119296	78	10610
2026-01-25 07:12:41.27	345.70	16.25	-54.0	-62.8	3.8	7.46e-01	0	45	104	6392119296	78	10634
2026-01-25 07:12:42.28	345.61	16.11	-54.0	-62.8	3.8	7.45e-01	0	45	104	6392119296	78	10609
2026-01-25 07:12:43.28	345.52	15.97	-54.0	-62.8	3.8	7.44e-01	0	45	104	6392119296	78	10600
2026-01-25 07:12:44.29	345.44	15.83	-54.0	-62.8	3.8	7.46e-01	0	45	104	6392119296	78	10571
2026-01-25 07:12:45.30	345.35	15.69	-54.0	-62.8	3.8	7.45e-01	0	45	104	6392119296	78	10544
2026-01-25 07:12:46.31	345.27	15.55	-54.0	-62.8	3.8	7.45e-01	0	45	104	6392119296	78	10579
2026-01-25 07:12:47.31	345.19	15.41	-54.0	-62.8	3.8	7.44e-01	0	45	104	6392119296	78	10577
2026-01-25 07:12:48.32	345.11	15.27	-53.9	-62.8	3.8	7.45e-01	0	45	104	6392119296	78	10542
2026-01-25 07:12:49.33	345.03	15.14	-54.0	-62.7	3.8	7.46e-01	0	45	104	6392119296	78	10525
2026-01-25 07:12:50.34	344.95	15.00	-53.9	-62.7	3.8	7.45e-01	0	45	104	6392119296	78	10524
2026-01-25 07:12:51.34	344.87	14.87	-53.9	-62.7	3.8	7.45e-01	0	45	104	6392119296	78	10524
2026-01-25 07:12:52.35	344.79	14.74	-53.9	-62.7	3.8	7.44e-01	0	45	104	6392119296	78	10488
2026-01-25 07:12:53.36	344.71	14.60	-53.9	-62.7	3.8	7.45e-01	0	45	104	6392119296	78	10513
2026-01-25 07:12:54.37	344.64	14.47	-53.9	-62.7	3.8	7.45e-01	0	45	104	6392119296	78	10509
2026-01-25 07:12:55.38	344.56	14.34	-53.9	-62.7	3.8	7.44e-01	0	45	104	6392119296	78	10455
2026-01-25 07:12:56.38	344.49	14.21	-53.9	-62.7	3.8	7.45e-01	0	45	104	6392119296	78	10478
2026-01-25 07:12:57.39	344.42	14.08	-53.9	-62.7	3.8	7.44e-01	0	45	104	6392119296	78	10471
2026-01-25 07:12:58.40	344.34	13.95	-53.9	-62.7	3.8	7.45e-01	0	45	104	6392119296	78	10501
2026-01-25 07:12:59.41	344.27	13.83	-53.9	-62.7	3.8	7.45e-01	0	45	104	6392119296	78	10457
2026-01-25 07:13:00.42	344.20	13.70	-53.9	-62.7	3.8	7.45e-01	0	45	104	6392119296	78	10457
2026-01-25 07:13:01.42	344.13	13.58	-53.9	-62.7	3.8	7.46e-01	0	45	104	6392119296	78	10470
2026-01-25 07:13:02.43	344.06	13.45	-53.9	-62.7	3.8	7.44e-01	0	45	104	6392119296	78	10432
2026-01-25 07:13:03.44	343.99	13.33	-53.8	-62.7	3.8	7.44e-01	0	45	104	6392119296	78	10442
2026-01-25 07:13:04.45	343.92	13.20	-53.8	-62.7	3.8	7.45e-01	0	45	104	6392119296	78	10449
2026-01-25 07:13:05.46	343.85	13.08	-53.8	-62.7	3.8	7.46e-01	0	45	104	6392119296	78	10441
2026-01-25 07:13:06.46	343.79	12.96	-53.8	-62.6	3.8	7.44e-01	0	45	104	6392119296	78	10408
2026-01-25 07:13:07.47	343.72	12.84	-53.8	-62.6	3.8	7.45e-01	0	45	104	6392119296	78	10384
2026-01-25 07:13:08.48	343.66	12.72	-53.8	-62.7	3.8	7.45e-01	0	45	104	6392119296	78	10425
2026-01-25 07:13:09.49	343.59	12.60	-53.8	-62.6	3.8	7.46e-01	0	45	104	6392119296	78	10402
2026-01-25 07:13:10.50	343.53	12.48	-53.8	-62.6	3.8	7.46e-01	0	45	104	6392119296	78	10370
2026-01-25 07:13:11.50	343.46	12.36	-53.8	-62.6	3.8	7.46e-01	0	45	104	6392119296	78	10372
2026-01-25 07:13:12.51	343.40	12.25	-53.8	-62.6	3.8	7.46e-01	0	45	104	6392119296	78	10408
2026-01-25 07:13:13.52	343.34	12.13	-53.8	-62.6	3.8	7.47e-01	0	45	104	6392119296	78	10336
2026-01-25 07:13:14.53	343.28	12.01	-53.8	-62.6	3.8	7.46e-01	0	45	104	6392119296	78	10332
2026-01-25 07:13:15.54	343.22	11.90	-53.8	-62.6	3.8	7.44e-01	0	45	104	6392119296	78	10323
2026-01-25 07:13:16.54	343.16	11.79	-53.8	-62.6	3.8	7.44e-01	0	45	104	6392119296	78	10379
2026-01-25 07:13:17.55	343.10	11.67	-53.8	-62.6	3.8	7.46e-01	0	45	104	6392119296	78	10354
2026-01-25 07:13:18.56	343.04	11.56	-53.7	-62.6	3.8	7.45e-01	0	45	104	6392119296	78	10312
2026-01-25 07:13:19.57	342.98	11.45	-53.7	-62.6	3.8	7.46e-01	0	45	104	6392119296	78	10316
2026-01-25 07:13:20.58	342.92	11.33	-53.7	-62.5	3.8	7.43e-01	0	45	104	6392119296	78	10277
2026-01-25 07:13:21.58	342.86	11.22	-53.8	-62.6	3.8	7.45e-01	0	45	104	6392119296	78	10310
2026-01-25 07:13:22.59	342.81	11.11	-53.7	-62.5	3.8	7.45e-01	0	45	104	6392119296	78	10262
2026-01-25 07:13:23.60	342.75	11.00	-53.7	-62.5	3.8	7.44e-01	0	45	104	6392119296	78	10243
2026-01-25 07:13:24.61	342.70	10.89	-53.7	-62.6	3.8	7.44e-01	0	45	104	6392119296	78	10303
2026-01-25 07:13:25.62	342.64	10.79	-53.7	-62.5	3.8	7.44e-01	0	45	104	6392119296	78	10262
2026-01-25 07:13:26.62	342.59	10.68	-53.7	-62.5	3.8	7.45e-01	0	45	104	6392119296	78	10241
2026-01-25 07:13:27.63	342.53	10.57	-53.7	-62.5	3.8	7.45e-01	0	45	104	6392119296	78	10200
2026-01-25 07:13:28.64	342.48	10.46	-53.7	-62.5	3.8	7.43e-01	0	45	104	6392119296	78	10228
2026-01-25 07:13:29.65	342.43	10.36	-53.7	-62.5	3.8	7.44e-01	0	45	104	6392119296	78	10239
2026-01-25 07:13:30.66	342.37	10.25	-53.6	-62.5	3.8	7.46e-01	0	45	104	6392119296	78	10212
2026-01-25 07:13:31.66	342.32	10.15	-53.6	-62.5	3.8	7.46e-01	0	45	104	6392119296	78	10192
2026-01-25 07:13:32.67	342.27	10.04	-53.7	-62.5	3.8	7.43e-01	0	45	104	6392119296	78	10230
2026-01-25 07:13:33.68	342.22	9.94	-53.7	-62.5	3.8	7.45e-01	0	45	104	6392119296	78	10192
2026-01-25 07:13:34.68	342.17	9.84	-53.6	-62.4	3.8	7.45e-01	0	45	104	6392119296	78	10154
2026-01-25 07:13:35.69	342.12	9.73	-53.6	-62.4	3.8	7.45e-01	0	45	104	6392119296	78	10129
2026-01-25 07:13:36.70	342.07	9.63	-53.6	-62.4	3.8	7.45e-01	0	45	104	6392119296	78	10165
2026-01-25 07:13:37.71	342.02	9.53	-53.6	-62.5	3.8	7.47e-01	0	45	104	6392119296	78	10185
2026-01-25 07:13:38.72	341.97	9.43	-53.6	-62.4	3.8	7.44e-01	0	45	104	6392119296	78	10077
2026-01-25 07:13:39.72	341.92	9.33	-53.6	-62.4	3.8	7.46e-01	0	45	104	6392119296	78	10077
2026-01-25 07:13:40.73	341.88	9.23	-53.6	-62.4	3.8	7.47e-01	0	45	104	6392119296	78	10172
2026-01-25 07:13:41.74	341.83	9.13	-53.6	-62.4	3.8	7.44e-01	0	45	104	6392119296	78	10142
2026-01-25 07:13:42.75	341.78	9.03	-53.5	-62.3	3.8	7.47e-01	0	45	104	6392119296	78	10048
2026-01-25 07:13:43.76	341.73	8.93	-53.5	-62.3	3.8	7.44e-01	0	45	104	6392119296	78	10055
2026-01-25 07:13:44.76	341.69	8.83	-53.6	-62.4	3.8	7.45e-01	0	45	104	6392119296	78	10095
2026-01-25 07:13:45.77	341.64	8.74	-53.5	-62.4	3.8	7.44e-01	0	45	104	6392119296	78	10076
2026-01-25 07:13:46.78	341.60	8.64	-53.5	-62.3	3.8	7.46e-01	0	45	104	6392119296	78	10058
2026-01-25 07:13:47.79	341.55	8.54	-53.5	-62.3	3.8	7.46e-01	0	45	104	6392119296	78	10008
2026-01-25 07:13:48.80	341.51	8.45	-53.5	-62.4	3.8	7.45e-01	0	45	104	6392119296	78	10074
2026-01-25 07:13:49.80	341.46	8.35	-53.5	-62.3	3.8	7.47e-01	0	45	104	6392119296	78	10021
2026-01-25 07:13:50.81	341.42	8.26	-53.5	-62.3	3.8	7.46e-01	0	45	104	6392119296	78	10018
2026-01-25 07:13:51.82	341.38	8.16	-53.4	-62.3	3.8	7.46e-01	0	45	104	6392119296	78	9948
2026-01-25 07:13:52.83	341.33	8.07	-53.5	-62.3	3.8	7.45e-01	0	45	104	6392119296	78	10020
2026-01-25 07:13:53.84	341.29	7.97	-53.5	-62.3	3.8	7.44e-01	0	45	104	6392119296	78	9991
2026-01-25 07:13:54.84	341.25	7.88	-53.4	-62.3	3.8	7.46e-01	0	45	104	6392119296	78	9961
2026-01-25 07:13:55.85	341.21	7.79	-53.4	-62.2	3.8	7.46e-01	0	45	104	6392119296	78	9919
2026-01-25 07:13:56.86	341.17	7.70	-53.5	-62.3	3.8	7.43e-01	0	45	104	6392119296	78	10007
2026-01-25 07:13:57.87	341.13	7.60	-53.5	-62.3	3.8	7.45e-01	0	45	104	6392119296	78	9980
2026-01-25 07:13:58.88	341.08	7.51	-53.4	-62.2	3.8	7.46e-01	0	45	104	6392119296	78	9889
2026-01-25 07:13:59.88	341.04	7.42	-53.4	-62.2	3.8	7.45e-01	0	45	104	6392119296	78	9861
2026-01-25 07:14:00.89	341.00	7.33	-53.5	-62.3	3.8	7.43e-01	0	45	104	6392119296	78	9965
2026-01-25 07:14:01.90	340.96	7.24	-53.4	-62.3	3.8	7.45e-01	0	45	104	6392119296	78	9954
2026-01-25 07:14:02.91	340.93	7.15	-53.4	-62.1	3.8	7.44e-01	0	45	104	6392119296	78	9825
2026-01-25 07:14:03.92	340.89	7.06	-53.3	-62.1	3.8	7.45e-01	0	45	104	6392119296	78	9785
2026-01-25 07:14:04.93	340.85	6.97	-53.4	-62.2	3.8	7.45e-01	0	45	104	6392119296	78	9943
2026-01-25 07:14:05.94	340.81	6.88	-53.4	-62.2	3.8	7.45e-01	0	45	104	6392119296	78	9872
2026-01-25 07:14:06.94	340.77	6.80	-53.3	-62.1	3.8	7.45e-01	0	45	104	6392119296	78	9796
2026-01-25 07:14:07.95	340.73	6.71	-53.3	-62.1	3.8	7.46e-01	0	45	104	6392119296	78	9797
2026-01-25 07:14:08.96	340.70	6.62	-53.4	-62.2	3.8	7.47e-01	0	45	104	6392119296	78	9882
2026-01-25 07:14:09.97	340.66	6.53	-53.3	-62.2	3.8	7.44e-01	0	45	104	6392119296	78	9855
2026-01-25 07:14:10.98	340.62	6.45	-53.3	-62.1	3.8	7.47e-01	0	45	104	6392119296	78	9769
2026-01-25 07:14:11.98	340.59	6.36	-53.2	-62.0	3.8	7.46e-01	0	45	104	6392119296	78	9675
2026-01-25 07:14:12.99	340.55	6.27	-53.3	-62.2	3.8	7.44e-01	0	45	104	6392119296	78	9870
2026-01-25 07:14:14.00	340.51	6.19	-53.3	-62.1	3.8	7.46e-01	0	45	104	6392119296	78	9816
2026-01-25 07:14:15.01	340.48	6.10	-53.2	-62.0	3.8	7.45e-01	0	45	104	6392119296	78	9691
2026-01-25 07:14:16.02	340.44	6.02	-53.2	-62.0	3.8	7.45e-01	0	45	104	6392119296	78	9674
2026-01-25 07:14:17.02	340.41	5.94	-53.3	-62.1	3.8	7.43e-01	0	45	104	6392119296	78	9781
2026-01-25 07:14:18.03	340.37	5.85	-53.3	-62.1	3.8	7.45e-01	0	45	104	6392119296	78	9746
2026-01-25 07:14:19.04	340.34	5.77	-53.1	-62.0	3.8	7.45e-01	0	45	104	6392119296	78	9628
2026-01-25 07:14:20.05	340.31	5.68	-53.1	-61.9	3.8	7.46e-01	0	45	104	6392119296	78	9587
2026-01-25 07:14:21.06	340.27	5.60	-53.3	-62.1	3.8	7.45e-01	0	45	104	6392119296	78	9757
2026-01-25 07:14:22.06	340.24	5.52	-53.2	-62.0	3.8	7.45e-01	0	45	104	6392119296	78	9694
2026-01-25 07:14:23.07	340.20	5.44	-53.1	-61.9	3.8	7.44e-01	0	45	104	6392119296	78	9568
2026-01-25 07:14:24.08	340.17	5.35	-53.0	-61.9	3.8	7.46e-01	0	45	104	6392119296	78	9502
2026-01-25 07:14:25.09	340.14	5.27	-53.2	-62.0	3.8	7.44e-01	0	45	104	6392119296	78	9706
2026-01-25 07:14:26.10	340.11	5.19	-53.1	-62.0	3.8	7.46e-01	0	45	104	6392119296	78	9654
2026-01-25 07:14:27.10	340.07	5.11	-53.0	-61.8	3.8	7.44e-01	0	45	104	6392119296	78	9487
2026-01-25 07:14:28.11	340.04	5.03	-53.0	-61.8	3.8	7.46e-01	0	45	104	6392119296	78	9440
2026-01-25 07:14:29.12	340.01	4.95	-53.2	-62.0	3.8	7.47e-01	0	45	104	6392119296	77	10271
2026-01-25 07:14:30.13	339.98	4.87	-53.6	-62.5	3.8	7.45e-01	0	45	104	6392119296	77	10809
2026-01-25 07:14:31.14	339.95	4.79	-53.9	-62.8	3.8	7.44e-01	0	45	104	6392119296	78	10567
2026-01-25 07:14:32.14	339.92	4.71	-54.1	-62.9	3.8	7.44e-01	0	45	104	6392119296	78	10744
2026-01-25 07:14:33.15	339.89	4.63	-54.3	-63.1	3.8	7.44e-01	0	45	104	6392119296	79	10360
2026-01-25 07:14:34.16	339.86	4.55	-54.4	-63.2	3.8	7.45e-01	0	45	104	6392119296	79	10502
2026-01-25 07:14:35.17	339.83	4.47	-54.5	-63.3	3.8	7.45e-01	0	45	104	6392119296	79	10635
2026-01-25 07:14:36.18	339.80	4.39	-54.6	-63.4	3.8	7.46e-01	0	45	104	6392119296	79	10777
2026-01-25 07:14:37.19	339.77	4.32	-54.7	-63.5	3.8	7.45e-01	0	45	104	6392119296	80	10267
2026-01-25 07:14:38.19	339.74	4.24	-54.8	-63.6	3.8	7.46e-01	0	45	104	6392119296	80	10315
2026-01-25 07:14:39.20	339.71	4.16	-54.8	-63.6	3.8	7.45e-01	0	45	104	6392119296	80	10358
2026-01-25 07:14:40.21	339.68	4.08	-54.8	-63.6	3.8	7.46e-01	0	45	104	6392119296	80	10411
2026-01-25 07:14:41.22	339.65	4.01	-54.9	-63.7	3.8	7.46e-01	0	45	104	6392119296	80	10457
2026-01-25 07:14:42.22	339.62	3.93	-54.9	-63.7	3.8	7.45e-01	0	45	104	6392119296	80	10509
2026-01-25 07:14:43.23	339.59	3.86	-54.9	-63.7	3.8	7.46e-01	0	45	104	6392119296	80	10510
2026-01-25 07:14:44.24	339.56	3.78	-55.0	-63.8	3.8	7.46e-01	0	45	104	6392119296	80	10589
2026-01-25 07:14:45.25	339.54	3.70	-55.0	-63.8	3.8	7.44e-01	0	45	104	6392119296	80	10589
2026-01-25 07:14:46.26	339.51	3.63	-55.0	-63.8	3.8	7.44e-01	0	45	104	6392119296	80	10611
2026-01-25 07:14:47.26	339.48	3.55	-55.0	-63.9	3.8	7.46e-01	0	45	104	6392119296	80	10674
2026-01-25 07:14:48.27	339.45	3.48	-55.0	-63.8	3.8	7.46e-01	0	45	104	6392119296	80	10635
2026-01-25 07:14:49.28	339.43	3.40	-55.0	-63.8	3.8	7.45e-01	0	45	104	6392119296	80	10585
2026-01-25 07:14:50.28	339.40	3.33	-55.0	-63.8	3.8	7.46e-01	0	45	104	6392119296	80	10609
2026-01-25 07:14:51.29	339.37	3.26	-55.0	-63.8	3.8	7.46e-01	0	45	104	6392119296	80	10581
2026-01-25 07:14:52.30	339.35	3.18	-54.9	-63.8	3.8	7.45e-01	0	45	104	6392119296	80	10537
2026-01-25 07:14:53.31	339.32	3.11	-54.9	-63.8	3.8	7.46e-01	0	45	104	6392119296	80	10539
2026-01-25 07:14:54.32	339.29	3.04	-54.9	-63.7	3.8	7.47e-01	0	45	104	6392119296	80	10502
2026-01-25 07:14:55.33	339.27	2.96	-54.9	-63.7	3.8	7.45e-01	0	45	104	6392119296	80	10500
2026-01-25 07:14:56.34	339.24	2.89	-54.9	-63.7	3.8	7.47e-01	0	45	104	6392119296	80	10493
2026-01-25 07:14:57.35	339.22	2.82	-54.9	-63.7	3.8	7.44e-01	0	45	104	6392119296	80	10505
2026-01-25 07:14:58.36	339.19	2.74	-54.9	-63.7	3.8	7.44e-01	0	45	104	6392119296	80	10426
2026-01-25 07:14:59.36	339.16	2.67	-54.9	-63.7	3.8	7.44e-01	0	45	104	6392119296	80	10424
2026-01-25 07:15:00.37	339.14	2.60	-54.9	-63.7	3.8	7.45e-01	0	45	104	6392119296	80	10446
2026-01-25 07:15:01.38	339.11	2.53	-54.8	-63.7	3.8	7.46e-01	0	45	104	6392119296	80	10432
2026-01-25 07:15:02.39	339.09	2.46	-54.8	-63.7	3.8	7.46e-01	0	45	104	6392119296	80	10472
2026-01-25 07:15:03.40	339.07	2.39	-54.8	-63.7	3.8	7.45e-01	0	45	104	6392119296	80	10454
2026-01-25 07:15:04.40	339.04	2.32	-54.8	-63.6	3.8	7.44e-01	0	45	104	6392119296	80	10397
2026-01-25 07:15:05.41	339.02	2.25	-54.8	-63.7	3.8	7.45e-01	0	45	104	6392119296	80	10468
2026-01-25 07:15:06.42	338.99	2.17	-54.8	-63.6	3.8	7.45e-01	0	45	104	6392119296	80	10389
2026-01-25 07:15:07.43	338.97	2.10	-54.8	-63.6	3.8	7.44e-01	0	45	104	6392119296	80	10405
2026-01-25 07:15:08.44	338.95	2.03	-54.8	-63.6	3.8	7.45e-01	0	45	104	6392119296	80	10355
2026-01-25 07:15:09.45	338.92	1.96	-54.8	-63.6	3.8	7.44e-01	0	45	104	6392119296	80	10376

#Closed at: 2026-01-25 07:15:10
#Recorded file [6392 MB]: D:/lorett/data/31041_260125_100447.dat