passes_logs/2026/01/25/R3.2S_Murmansk/R3.2S_Murmansk__20260125_034811_AQUA_rec.log

#Pass ID: 20260125_034811_AQUA
#Satellite: AQUA
#Configuration: AQUA
#almurnet v.1.7.20251203
#Start time: 2026-01-25 03:48:12

#Version: 2.2.20231116
#Station: R3.2S_Murmansk
#Location: 33.079688 lon 68.888172 lat
#TLE: 1 27424U 02022A   26024.53919639  .00001970  00000+0  40397-3 0  9996
#TLE: 2 27424  98.4098 351.1277 0001915  66.8561 358.4840 14.61855303262281

#Time	Az	El	Level	Level2	SNR	BER	BlckErr	Temp	State	Recorded	gain1	gain2
2026-01-25 03:48:12.45	28.98	2.09	-53.7	-70.4	3.8	7.43e-01	0	43	0	0	79	24108
2026-01-25 03:48:13.46	28.94	2.16	-53.7	-71.2	3.8	7.43e-01	0	43	104	0	78	27833
2026-01-25 03:48:14.47	28.90	2.22	-53.7	-71.3	3.8	7.47e-01	0	44	104	0	78	28281
2026-01-25 03:48:15.48	28.85	2.29	-53.8	-71.2	3.8	7.45e-01	0	43	104	0	78	27979
2026-01-25 03:48:16.49	28.81	2.35	-53.7	-71.4	3.8	7.44e-01	0	44	104	0	78	28625
2026-01-25 03:48:17.49	28.77	2.42	-53.7	-71.3	3.8	7.39e-01	0	44	104	0	78	28079
2026-01-25 03:48:18.50	28.73	2.48	-53.7	-71.3	3.8	7.42e-01	0	44	104	0	78	28276
2026-01-25 03:48:19.51	28.69	2.55	-53.7	-71.3	3.8	7.47e-01	0	44	104	0	78	28169
2026-01-25 03:48:20.52	28.65	2.61	-53.7	-71.1	3.8	7.43e-01	0	44	104	0	78	27414
2026-01-25 03:48:21.53	28.61	2.68	-53.7	-71.1	3.8	7.43e-01	0	44	104	0	78	27411
2026-01-25 03:48:22.54	28.57	2.75	-53.7	-71.1	3.8	7.45e-01	0	44	104	0	78	27393
2026-01-25 03:48:23.55	28.53	2.81	-53.7	-70.9	3.8	7.47e-01	0	44	104	0	78	26860
2026-01-25 03:48:24.56	28.48	2.88	-53.7	-70.8	3.8	7.44e-01	0	44	104	0	78	26634
2026-01-25 03:48:25.57	28.44	2.95	-53.7	-70.9	3.8	7.45e-01	0	44	104	0	78	26945
2026-01-25 03:48:26.57	28.40	3.01	-53.7	-71.1	3.8	7.46e-01	0	44	104	0	78	27511
2026-01-25 03:48:27.58	28.36	3.08	-53.7	-71.3	3.8	7.43e-01	0	44	104	0	78	28148
2026-01-25 03:48:28.59	28.31	3.15	-53.7	-71.5	3.8	7.46e-01	0	44	104	0	78	28717
2026-01-25 03:48:29.60	28.27	3.21	-53.7	-71.5	3.8	7.46e-01	0	44	104	0	78	28931
2026-01-25 03:48:30.60	28.23	3.28	-53.7	-71.4	3.8	7.44e-01	0	44	104	0	78	28603
2026-01-25 03:48:31.61	28.18	3.35	-53.7	-71.3	3.8	7.45e-01	0	44	104	0	78	28217
2026-01-25 03:48:32.62	28.14	3.42	-53.7	-71.2	3.8	7.45e-01	0	44	104	0	78	27964
2026-01-25 03:48:33.63	28.09	3.48	-53.7	-71.1	3.8	7.45e-01	0	44	104	0	78	27647
2026-01-25 03:48:34.64	28.05	3.55	-53.7	-71.1	3.8	7.41e-01	0	44	104	0	78	27587
2026-01-25 03:48:35.65	28.00	3.62	-53.7	-71.2	3.8	7.47e-01	0	44	104	0	78	27966
2026-01-25 03:48:36.66	27.96	3.69	-53.7	-71.2	3.8	7.47e-01	0	44	104	0	78	27796
2026-01-25 03:48:37.67	27.91	3.76	-53.7	-71.0	3.8	7.42e-01	0	45	104	0	78	27327
2026-01-25 03:48:38.68	27.87	3.83	-53.7	-71.0	3.8	7.43e-01	0	45	104	0	78	27198
2026-01-25 03:48:39.69	27.82	3.90	-53.7	-70.8	3.8	7.44e-01	0	45	104	0	78	26685
2026-01-25 03:48:40.70	27.78	3.97	-53.6	-70.5	3.8	7.43e-01	0	44	104	0	78	25806
2026-01-25 03:48:41.71	27.73	4.03	-53.5	-70.0	3.8	7.44e-01	0	45	104	0	78	24396
2026-01-25 03:48:42.71	27.68	4.10	-53.4	-69.9	3.8	7.44e-01	0	45	104	0	78	23963
2026-01-25 03:48:43.72	27.64	4.17	-53.3	-69.5	3.8	7.50e-01	0	45	104	0	78	22965
2026-01-25 03:48:44.73	27.59	4.24	-53.3	-69.4	3.8	7.41e-01	0	45	104	0	78	22647
2026-01-25 03:48:45.74	27.54	4.31	-53.2	-69.1	3.8	7.45e-01	0	45	104	0	78	21852
2026-01-25 03:48:46.75	27.49	4.38	-53.1	-68.8	3.8	7.47e-01	0	45	104	0	78	21127
2026-01-25 03:48:47.76	27.45	4.45	-52.9	-68.1	3.8	7.45e-01	0	45	104	0	77	20588
2026-01-25 03:48:48.77	27.40	4.53	-52.6	-67.3	3.8	7.44e-01	0	45	104	0	77	18814
2026-01-25 03:48:49.77	27.35	4.60	-52.2	-66.3	3.8	7.47e-01	0	45	104	0	76	17883
2026-01-25 03:48:50.78	27.30	4.67	-51.6	-65.1	3.8	7.45e-01	0	45	104	0	75	16417
2026-01-25 03:48:51.79	27.25	4.74	-51.1	-64.2	3.8	7.44e-01	0	45	104	0	74	15663
2026-01-25 03:48:52.80	27.20	4.81	-50.8	-63.5	3.8	7.49e-01	0	45	104	0	73	15400
2026-01-25 03:48:53.81	27.15	4.88	-50.2	-62.6	3.8	7.43e-01	0	45	104	0	72	14669
2026-01-25 03:48:54.81	27.10	4.95	-50.2	-62.5	3.8	7.45e-01	0	45	104	0	72	14518
2026-01-25 03:48:55.82	27.05	5.02	-50.2	-62.7	3.8	7.45e-01	0	45	104	0	72	14753
2026-01-25 03:48:56.83	27.00	5.10	-51.7	-65.2	3.8	7.45e-01	0	45	104	0	73	18720
2026-01-25 03:48:57.84	26.95	5.17	-47.0	-58.2	3.8	7.40e-01	0	45	104	0	66	12484
2026-01-25 03:48:58.85	26.90	5.24	-53.5	-70.5	3.7	7.50e-01	0	45	104	0	77	27265
2026-01-25 03:48:59.85	26.85	5.31	-51.0	-63.6	3.8	7.43e-01	0	45	104	0	72	16479
2026-01-25 03:49:00.86	26.80	5.39	-47.8	-59.2	3.8	7.44e-01	0	45	104	0	66	14033
2026-01-25 03:49:01.87	26.74	5.46	-46.9	-58.1	3.8	7.46e-01	0	45	104	0	65	13054
2026-01-25 03:49:02.88	26.69	5.53	-46.9	-58.1	3.8	7.46e-01	0	45	104	0	65	13075
2026-01-25 03:49:03.89	26.64	5.61	-46.6	-57.7	3.8	7.43e-01	0	45	104	0	65	12487
2026-01-25 03:49:04.89	26.59	5.68	-45.9	-56.9	3.8	7.46e-01	0	45	104	0	63	12665
2026-01-25 03:49:05.90	26.53	5.75	-46.4	-57.5	3.8	7.45e-01	0	45	104	0	63	13631
2026-01-25 03:49:06.91	26.48	5.83	-53.7	-71.5	3.7	7.43e-01	0	45	104	0	78	28707
2026-01-25 03:49:07.92	26.43	5.90	-51.1	-63.8	3.8	7.42e-01	0	45	104	0	72	16837
2026-01-25 03:49:08.93	26.37	5.98	-47.5	-58.8	3.8	7.42e-01	0	45	104	0	65	14083
2026-01-25 03:49:09.93	26.32	6.05	-46.3	-57.4	3.8	7.46e-01	0	45	104	0	64	12758
2026-01-25 03:49:10.94	26.26	6.13	-46.0	-57.0	3.8	7.46e-01	0	45	104	0	63	12921
2026-01-25 03:49:11.95	26.21	6.20	-46.1	-57.2	3.8	7.46e-01	0	45	104	0	63	13139
2026-01-25 03:49:12.96	26.15	6.28	-46.9	-58.1	3.8	7.48e-01	0	45	104	0	64	13798
2026-01-25 03:49:13.96	26.10	6.35	-46.2	-57.2	3.8	7.42e-01	0	45	104	0	64	12477
2026-01-25 03:49:14.97	26.04	6.43	-53.8	-71.3	3.8	7.45e-01	0	45	104	0	78	28262
2026-01-25 03:49:15.98	25.98	6.51	-51.4	-64.4	3.9	7.47e-01	0	45	104	0	73	17016
2026-01-25 03:49:16.99	25.93	6.58	-47.2	-58.4	3.8	7.50e-01	0	45	104	0	64	14242
2026-01-25 03:49:17.99	25.87	6.66	-45.8	-56.8	3.8	7.44e-01	0	45	104	0	63	12583
2026-01-25 03:49:19.00	25.81	6.74	-45.8	-56.7	3.8	7.42e-01	0	45	104	0	63	12454
2026-01-25 03:49:20.01	25.75	6.81	-45.3	-56.2	3.8	7.46e-01	0	45	104	0	62	12487
2026-01-25 03:49:21.02	25.70	6.89	-46.7	-57.7	3.9	7.42e-01	0	45	104	0	63	14030
2026-01-25 03:49:22.03	25.64	6.97	-46.1	-57.1	3.8	7.45e-01	0	45	104	0	63	12980
2026-01-25 03:49:23.03	25.58	7.04	-53.9	-71.5	3.8	7.46e-01	0	45	104	0	78	28880
2026-01-25 03:49:24.04	25.52	7.12	-51.3	-64.2	3.8	7.43e-01	0	45	104	0	73	16544
2026-01-25 03:49:25.05	25.46	7.20	-46.8	-57.9	3.9	7.46e-01	0	46	104	0	64	13429
2026-01-25 03:49:26.06	25.40	7.28	-45.6	-56.5	3.8	7.44e-01	0	46	104	0	63	12143
2026-01-25 03:49:27.07	25.34	7.36	-45.6	-56.5	3.8	7.44e-01	0	45	104	0	62	12958
2026-01-25 03:49:28.07	25.28	7.44	-45.3	-56.1	3.9	7.43e-01	0	46	104	0	62	12325
2026-01-25 03:49:29.08	25.22	7.52	-46.5	-57.5	3.8	7.42e-01	0	46	104	0	63	13685
2026-01-25 03:49:30.09	25.15	7.60	-45.6	-56.4	3.8	7.43e-01	0	46	104	0	63	12086
2026-01-25 03:49:31.10	25.09	7.67	-54.0	-71.5	3.8	7.47e-01	0	45	104	0	78	28938
2026-01-25 03:49:32.11	25.03	7.75	-50.8	-63.4	3.8	7.43e-01	0	45	104	0	72	16040
2026-01-25 03:49:33.11	24.97	7.83	-46.8	-58.0	3.8	7.44e-01	0	46	104	0	64	13583
2026-01-25 03:49:34.12	24.90	7.91	-45.5	-56.5	3.8	7.43e-01	0	46	104	0	63	12131
2026-01-25 03:49:35.13	24.84	8.00	-45.4	-56.3	3.8	7.40e-01	0	46	104	0	62	12563
2026-01-25 03:49:36.14	24.78	8.08	-45.2	-56.0	3.8	7.47e-01	0	45	104	0	62	12188
2026-01-25 03:49:37.15	24.71	8.16	-45.2	-56.1	3.8	7.42e-01	0	46	104	0	62	12351
2026-01-25 03:49:38.16	24.65	8.24	-45.7	-56.6	3.8	7.43e-01	0	46	104	0	62	13040
2026-01-25 03:49:39.17	24.58	8.32	-54.0	-71.3	3.8	7.43e-01	0	45	104	0	78	28173
2026-01-25 03:49:40.18	24.51	8.40	-49.9	-61.8	3.9	7.41e-01	0	45	104	0	71	14077
2026-01-25 03:49:41.19	24.45	8.49	-46.7	-57.8	3.8	7.44e-01	0	46	104	0	64	13287
2026-01-25 03:49:42.20	24.38	8.57	-45.4	-56.2	3.8	7.46e-01	0	46	104	0	62	12481
2026-01-25 03:49:43.21	24.31	8.65	-45.1	-56.0	3.9	7.45e-01	0	46	104	0	62	12116
2026-01-25 03:49:44.21	24.25	8.73	-45.0	-55.9	3.8	7.47e-01	0	46	104	0	62	12002
2026-01-25 03:49:45.22	24.18	8.82	-45.9	-56.8	3.9	7.43e-01	0	46	104	0	62	13360
2026-01-25 03:49:46.23	24.11	8.90	-45.4	-56.3	3.9	7.45e-01	0	46	104	0	62	12607
2026-01-25 03:49:47.24	24.04	8.98	-54.0	-71.4	3.8	7.45e-01	0	46	104	0	78	28356
2026-01-25 03:49:48.24	23.97	9.07	-50.1	-62.3	3.9	7.43e-01	0	46	104	0	72	14065
2026-01-25 03:49:49.25	23.90	9.15	-46.1	-57.1	3.8	7.44e-01	0	46	104	0	63	12994
2026-01-25 03:49:50.26	23.83	9.24	-45.1	-55.9	3.8	7.42e-01	0	46	104	0	62	12012
2026-01-25 03:49:51.27	23.76	9.32	-44.9	-55.7	3.9	7.43e-01	0	46	104	0	61	12429
2026-01-25 03:49:52.28	23.69	9.41	-44.8	-55.6	3.8	7.46e-01	0	46	104	0	61	12327
2026-01-25 03:49:53.28	23.62	9.49	-45.7	-56.6	3.8	7.48e-01	0	46	104	0	62	13007
2026-01-25 03:49:54.29	23.55	9.58	-45.5	-56.3	3.9	7.43e-01	0	46	104	0	62	12609
2026-01-25 03:49:55.30	23.48	9.66	-53.8	-70.3	3.9	7.42e-01	0	46	104	0	78	24981
2026-01-25 03:49:56.31	23.40	9.75	-48.6	-60.1	3.9	7.48e-01	0	46	104	0	69	13100
2026-01-25 03:49:57.32	23.33	9.84	-46.7	-57.8	3.8	7.45e-01	0	46	104	0	64	13343
2026-01-25 03:49:58.32	23.26	9.92	-45.2	-56.1	3.8	7.44e-01	0	46	104	0	62	12339
2026-01-25 03:49:59.33	23.18	10.01	-45.1	-56.0	3.8	7.42e-01	0	46	104	0	62	12130
2026-01-25 03:50:00.34	23.11	10.10	-45.0	-55.8	3.9	7.46e-01	0	46	104	0	61	12581
2026-01-25 03:50:01.35	23.03	10.19	-46.2	-57.2	3.8	7.43e-01	0	46	104	0	64	12389
2026-01-25 03:50:02.36	22.95	10.27	-46.2	-57.1	3.8	7.45e-01	0	46	104	0	62	13734
2026-01-25 03:50:03.37	22.88	10.36	-52.6	-66.8	4.0	7.38e-01	0	46	104	0	77	17755
2026-01-25 03:50:04.38	22.80	10.45	-47.2	-58.3	3.8	7.48e-01	0	46	104	0	66	12562
2026-01-25 03:50:05.38	22.72	10.54	-45.8	-56.6	3.8	7.46e-01	0	46	104	0	62	13101
2026-01-25 03:50:06.40	22.64	10.63	-44.9	-55.7	3.8	7.45e-01	0	46	104	0	61	12458
2026-01-25 03:50:07.40	22.57	10.72	-44.6	-55.4	3.8	7.47e-01	0	46	104	0	61	11984
2026-01-25 03:50:08.41	22.49	10.81	-44.7	-55.5	3.8	7.45e-01	0	46	104	0	61	12127
2026-01-25 03:50:09.42	22.41	10.90	-45.4	-56.3	3.8	7.43e-01	0	46	104	0	61	13347
2026-01-25 03:50:10.43	22.33	10.99	-45.8	-57.0	3.9	7.42e-01	0	46	104	0	62	13605
2026-01-25 03:50:11.44	22.24	11.08	-52.8	-66.9	4.0	7.40e-01	0	46	104	0	77	18023
2026-01-25 03:50:12.45	22.16	11.17	-45.7	-56.6	3.9	7.45e-01	0	46	104	0	63	12317
2026-01-25 03:50:13.46	22.08	11.26	-45.3	-56.1	3.8	7.48e-01	0	46	104	0	62	12373
2026-01-25 03:50:14.47	22.00	11.36	-44.6	-55.3	3.8	7.45e-01	0	46	104	0	61	11921
2026-01-25 03:50:15.48	21.91	11.45	-44.5	-55.3	3.8	7.44e-01	0	46	104	0	61	11916
2026-01-25 03:50:16.49	21.83	11.54	-44.9	-55.7	3.8	7.47e-01	0	46	104	0	60	13238
2026-01-25 03:50:17.49	21.75	11.63	-45.8	-56.7	3.9	7.48e-01	0	46	104	0	63	12485
2026-01-25 03:50:18.50	21.66	11.73	-47.7	-58.8	3.8	7.43e-01	0	46	104	0	65	14209
2026-01-25 03:50:19.51	21.58	11.82	-51.5	-64.5	3.9	7.42e-01	0	46	104	0	75	15392
2026-01-25 03:50:20.52	21.49	11.91	-45.8	-56.6	3.9	7.44e-01	0	46	104	0	63	12373
2026-01-25 03:50:21.53	21.40	12.01	-45.5	-56.4	3.8	7.44e-01	0	46	104	0	62	12729
2026-01-25 03:50:22.53	21.31	12.10	-45.0	-55.8	3.8	7.44e-01	0	46	104	0	61	12550
2026-01-25 03:50:23.54	21.23	12.20	-44.6	-55.4	3.8	7.41e-01	0	46	104	0	61	11994
2026-01-25 03:50:24.55	21.14	12.29	-44.3	-55.1	3.8	7.42e-01	0	46	104	0	60	12326
2026-01-25 03:50:25.56	21.05	12.39	-45.1	-56.0	3.9	7.43e-01	0	46	104	0	60	13618
2026-01-25 03:50:26.57	20.96	12.48	-50.3	-62.2	3.8	7.45e-01	0	46	104	0	70	15616
2026-01-25 03:50:27.58	20.87	12.58	-49.8	-61.7	3.9	7.41e-01	0	46	104	0	71	13910
2026-01-25 03:50:28.59	20.77	12.68	-44.4	-54.9	3.8	7.45e-01	0	46	104	0	60	12076
2026-01-25 03:50:29.59	20.68	12.77	-44.4	-55.1	3.8	7.45e-01	0	46	104	0	60	12369
2026-01-25 03:50:30.60	20.59	12.87	-44.1	-54.8	3.8	7.45e-01	0	46	104	0	60	11926
2026-01-25 03:50:31.61	20.50	12.97	-44.0	-54.7	3.8	7.47e-01	0	46	104	0	60	11787
2026-01-25 03:50:32.62	20.40	13.07	-44.4	-55.1	3.8	7.43e-01	0	46	104	0	60	12347
2026-01-25 03:50:33.63	20.31	13.17	-45.0	-55.8	3.8	7.44e-01	0	46	104	0	60	13294
2026-01-25 03:50:34.63	20.21	13.26	-50.3	-62.2	3.8	7.41e-01	0	46	104	0	70	15688
2026-01-25 03:50:35.64	20.12	13.36	-50.2	-62.2	3.9	7.45e-01	0	46	104	0	72	13967
2026-01-25 03:50:36.65	20.02	13.46	-44.5	-55.2	3.8	7.46e-01	0	46	104	0	61	11795
2026-01-25 03:50:37.66	19.92	13.56	-44.6	-55.4	3.9	7.45e-01	0	46	104	0	61	12044
2026-01-25 03:50:38.67	19.82	13.66	-44.6	-55.4	3.8	7.45e-01	0	46	104	0	60	12747
2026-01-25 03:50:39.68	19.72	13.76	-44.2	-55.0	3.8	7.42e-01	0	46	104	0	60	12096
2026-01-25 03:50:40.68	19.62	13.86	-46.9	-58.0	3.8	7.44e-01	0	46	104	0	64	13615
2026-01-25 03:50:41.69	19.52	13.97	-44.5	-55.2	3.8	7.47e-01	0	46	104	0	60	12447
2026-01-25 03:50:42.70	19.42	14.07	-52.7	-66.3	3.8	7.46e-01	0	46	104	0	75	18867
2026-01-25 03:50:43.71	19.32	14.17	-50.2	-62.2	3.9	7.46e-01	0	46	104	0	72	13894
2026-01-25 03:50:44.72	19.22	14.27	-44.4	-55.0	3.8	7.47e-01	0	46	104	0	60	12232
2026-01-25 03:50:45.73	19.11	14.38	-44.6	-55.4	3.8	7.45e-01	0	46	104	0	61	11960
2026-01-25 03:50:46.73	19.01	14.48	-44.5	-55.3	3.8	7.43e-01	0	46	104	0	60	12654
2026-01-25 03:50:47.74	18.90	14.58	-44.4	-55.1	3.8	7.44e-01	0	46	104	0	60	12353
2026-01-25 03:50:48.75	18.80	14.69	-44.8	-55.6	3.8	7.45e-01	0	46	104	0	60	12992
2026-01-25 03:50:49.76	18.69	14.79	-45.3	-56.2	3.8	7.43e-01	0	46	104	0	61	13199
2026-01-25 03:50:50.77	18.58	14.90	-54.0	-69.5	3.7	7.43e-01	0	46	104	0	78	22805
2026-01-25 03:50:51.78	18.47	15.00	-50.6	-62.7	3.8	7.44e-01	0	46	104	0	72	14779
2026-01-25 03:50:52.79	18.36	15.11	-44.6	-55.3	3.8	7.41e-01	0	46	104	0	60	12556
2026-01-25 03:50:53.79	18.25	15.21	-44.7	-55.4	3.8	7.45e-01	0	46	104	0	61	12037
2026-01-25 03:50:54.80	18.14	15.32	-44.6	-55.3	3.8	7.44e-01	0	46	104	0	61	11890
2026-01-25 03:50:55.81	18.03	15.43	-44.2	-54.9	3.8	7.44e-01	0	46	104	0	60	12060
2026-01-25 03:50:56.82	17.91	15.53	-44.5	-55.3	3.8	7.45e-01	0	46	104	0	60	12523
2026-01-25 03:50:57.83	17.80	15.64	-45.2	-56.1	3.8	7.44e-01	0	46	104	0	60	13740
2026-01-25 03:50:58.83	17.69	15.75	-53.9	-69.4	3.8	7.46e-01	0	46	104	0	78	22522
2026-01-25 03:50:59.84	17.57	15.86	-50.8	-62.9	3.8	7.46e-01	0	46	104	0	72	15069
2026-01-25 03:51:00.85	17.45	15.97	-44.8	-55.6	3.8	7.41e-01	0	46	104	0	60	12969
2026-01-25 03:51:01.86	17.34	16.08	-44.5	-55.3	3.8	7.41e-01	0	46	104	0	61	11839
2026-01-25 03:51:02.87	17.22	16.19	-44.3	-55.0	3.8	7.42e-01	0	46	104	0	60	12130
2026-01-25 03:51:03.87	17.10	16.30	-44.1	-54.9	3.8	7.45e-01	0	46	104	0	60	11963
2026-01-25 03:51:04.88	16.98	16.41	-45.1	-55.9	3.8	7.45e-01	0	46	104	0	60	13457
2026-01-25 03:51:05.89	16.85	16.52	-45.4	-56.3	3.8	7.48e-01	0	46	104	0	61	13333
2026-01-25 03:51:06.90	16.73	16.63	-54.5	-71.3	3.7	7.46e-01	0	46	104	0	79	26576
2026-01-25 03:51:07.91	16.61	16.74	-51.3	-63.8	3.8	7.40e-01	0	46	104	0	73	15804
2026-01-25 03:51:08.91	16.48	16.85	-45.9	-56.8	3.8	7.47e-01	0	46	104	0	62	13314
2026-01-25 03:51:09.92	16.36	16.97	-45.5	-56.4	3.8	7.45e-01	0	46	104	0	63	12004
2026-01-25 03:51:10.93	16.23	17.08	-45.2	-56.0	3.8	7.43e-01	0	46	104	0	62	12223
2026-01-25 03:51:11.93	16.11	17.19	-45.0	-55.8	3.8	7.46e-01	0	46	104	0	61	12532
2026-01-25 03:51:12.94	15.98	17.31	-48.2	-59.5	3.8	7.44e-01	0	46	104	0	66	14518
2026-01-25 03:51:13.95	15.85	17.42	-48.8	-60.3	3.8	7.44e-01	0	46	104	0	68	14148
2026-01-25 03:51:14.96	15.72	17.54	-52.3	-65.5	3.8	7.44e-01	0	46	104	0	75	17229
2026-01-25 03:51:15.97	15.58	17.65	-45.1	-56.0	3.9	7.45e-01	0	46	104	0	62	12128
2026-01-25 03:51:16.98	15.45	17.77	-54.6	-71.8	3.8	7.47e-01	0	46	104	0	79	28088
2026-01-25 03:51:17.99	15.32	17.89	-45.6	-56.4	3.9	7.44e-01	0	46	104	0	63	12056
2026-01-25 03:51:18.99	15.18	18.00	-45.1	-56.0	3.8	7.44e-01	0	46	104	0	62	12106
2026-01-25 03:51:20.00	15.04	18.12	-44.7	-55.4	3.9	7.46e-01	0	46	104	0	61	12092
2026-01-25 03:51:21.01	14.91	18.24	-49.6	-61.3	3.8	7.46e-01	0	46	104	0	69	14895
2026-01-25 03:51:22.02	14.77	18.36	-45.6	-56.5	3.8	7.44e-01	0	46	104	0	63	12134
2026-01-25 03:51:23.03	14.63	18.47	-54.6	-71.8	3.8	7.45e-01	0	46	104	0	79	28164
2026-01-25 03:51:24.03	14.49	18.59	-51.6	-64.2	3.8	7.46e-01	0	46	104	0	74	15582
2026-01-25 03:51:25.04	14.34	18.71	-45.9	-56.7	3.8	7.43e-01	0	46	104	0	62	13256
2026-01-25 03:51:26.05	14.20	18.83	-45.2	-56.1	3.8	7.44e-01	0	46	104	0	62	12264
2026-01-25 03:51:27.06	14.06	18.95	-44.6	-55.4	3.9	7.46e-01	0	46	104	0	61	12073
2026-01-25 03:51:28.07	13.91	19.07	-44.2	-54.9	3.8	7.45e-01	0	46	104	0	60	12069
2026-01-25 03:51:29.08	13.76	19.20	-44.1	-54.8	3.9	7.43e-01	0	46	104	0	59	12618
2026-01-25 03:51:30.09	13.61	19.32	-48.6	-60.0	3.9	7.45e-01	0	46	104	0	68	13661
2026-01-25 03:51:31.09	13.46	19.44	-52.1	-65.1	3.8	7.44e-01	0	46	104	0	75	16492
2026-01-25 03:51:32.10	13.31	19.56	-45.5	-56.3	3.9	7.46e-01	0	46	104	0	63	11950
2026-01-25 03:51:33.11	13.16	19.69	-54.7	-72.0	3.8	7.45e-01	0	46	104	0	79	28751
2026-01-25 03:51:34.12	13.01	19.81	-45.7	-56.5	3.9	7.44e-01	0	46	104	0	63	12234
2026-01-25 03:51:35.13	12.85	19.93	-45.2	-56.0	3.8	7.47e-01	0	46	104	0	62	12158
2026-01-25 03:51:36.13	12.70	20.06	-45.1	-55.9	3.9	7.46e-01	0	46	104	0	62	12069
2026-01-25 03:51:37.14	12.54	20.18	-50.7	-63.0	3.8	7.43e-01	0	46	104	0	72	15253
2026-01-25 03:51:38.15	12.38	20.31	-45.4	-56.3	3.9	7.48e-01	0	46	104	0	62	12582
2026-01-25 03:51:39.16	12.22	20.43	-54.5	-71.2	3.8	7.43e-01	0	46	104	0	79	26432
2026-01-25 03:51:40.17	12.05	20.56	-50.6	-62.7	3.9	7.41e-01	0	46	104	0	73	13888
2026-01-25 03:51:41.17	11.89	20.69	-46.1	-56.9	3.8	7.44e-01	0	46	104	0	62	13562
2026-01-25 03:51:42.18	11.73	20.81	-45.3	-56.1	3.8	7.48e-01	0	46	104	0	62	12298
2026-01-25 03:51:43.19	11.56	20.94	-45.0	-55.8	3.8	7.45e-01	0	46	104	0	62	11922
2026-01-25 03:51:44.20	11.39	21.07	-44.5	-55.3	3.8	7.44e-01	0	46	104	0	61	11882
2026-01-25 03:51:45.21	11.22	21.20	-44.1	-54.9	3.8	7.43e-01	0	46	104	0	60	11983
2026-01-25 03:51:46.21	11.05	21.33	-48.1	-59.3	3.9	7.43e-01	0	46	104	0	67	13361
2026-01-25 03:51:47.22	10.88	21.46	-51.8	-64.6	3.9	7.43e-01	0	46	104	0	75	15562
2026-01-25 03:51:48.23	10.70	21.59	-45.1	-55.8	3.8	7.41e-01	0	46	104	0	62	11937
2026-01-25 03:51:49.24	10.53	21.72	-54.5	-71.1	3.8	7.47e-01	0	46	104	0	80	24624
2026-01-25 03:51:50.25	10.35	21.85	-45.5	-56.2	3.8	7.46e-01	0	46	104	0	63	11816
2026-01-25 03:51:51.25	10.17	21.98	-45.1	-55.9	3.8	7.47e-01	0	46	104	0	62	12018
2026-01-25 03:51:52.26	9.99	22.11	-45.3	-56.0	3.8	7.43e-01	0	46	104	0	61	12937
2026-01-25 03:51:53.27	9.81	22.25	-49.5	-61.1	3.8	7.44e-01	0	46	104	0	71	13096
2026-01-25 03:51:54.28	9.63	22.38	-45.2	-56.1	3.8	7.41e-01	0	46	104	0	62	12242
2026-01-25 03:51:55.28	9.44	22.51	-53.7	-68.6	3.9	7.45e-01	0	46	104	0	79	19393
2026-01-25 03:51:56.29	9.25	22.64	-49.1	-60.7	3.8	7.41e-01	0	46	104	0	70	13122
2026-01-25 03:51:57.30	9.07	22.78	-45.1	-55.9	3.8	7.45e-01	0	46	104	0	60	13541
2026-01-25 03:51:58.31	8.87	22.91	-44.5	-55.2	3.8	7.46e-01	0	46	104	0	60	12507
2026-01-25 03:51:59.31	8.68	23.05	-44.5	-55.3	3.9	7.50e-01	0	46	104	0	60	12588
2026-01-25 03:52:00.32	8.49	23.18	-44.4	-55.2	3.8	7.46e-01	0	46	104	0	60	12422
2026-01-25 03:52:01.33	8.29	23.32	-45.2	-56.0	3.8	7.43e-01	0	46	104	0	60	13612
2026-01-25 03:52:02.34	8.09	23.46	-45.6	-56.5	3.8	7.45e-01	0	46	104	0	63	12167
2026-01-25 03:52:03.35	7.89	23.59	-54.1	-69.9	3.9	7.43e-01	0	46	104	0	80	21399
2026-01-25 03:52:04.35	7.69	23.73	-47.8	-58.9	3.9	7.44e-01	0	46	104	0	67	12681
2026-01-25 03:52:05.36	7.49	23.87	-45.8	-56.7	3.8	7.47e-01	0	46	104	0	62	13111
2026-01-25 03:52:06.37	7.28	24.00	-45.3	-56.1	3.8	7.43e-01	0	46	104	0	62	12362
2026-01-25 03:52:07.38	7.08	24.14	-44.7	-55.4	3.8	7.41e-01	0	46	104	0	61	12079
2026-01-25 03:52:08.39	6.87	24.28	-44.2	-54.9	3.8	7.44e-01	0	46	104	0	60	12020
2026-01-25 03:52:09.39	6.66	24.42	-44.3	-54.9	3.8	7.48e-01	0	46	104	0	60	12055
2026-01-25 03:52:10.40	6.44	24.56	-46.8	-57.8	3.8	7.44e-01	0	46	104	0	65	12532
2026-01-25 03:52:11.41	6.23	24.70	-49.8	-61.4	3.9	7.45e-01	0	46	104	0	71	13545
2026-01-25 03:52:12.42	6.01	24.84	-45.6	-56.3	3.8	7.45e-01	0	46	104	0	62	12634
2026-01-25 03:52:13.43	5.79	24.98	-52.6	-66.0	3.9	7.42e-01	0	46	104	0	77	16223
2026-01-25 03:52:14.44	5.57	25.12	-45.6	-56.4	3.8	7.44e-01	0	46	104	0	63	12031
2026-01-25 03:52:15.44	5.35	25.26	-45.4	-56.2	3.8	7.43e-01	0	46	104	0	62	12468
2026-01-25 03:52:16.45	5.12	25.40	-48.3	-59.3	3.8	7.46e-01	0	46	104	0	66	14113
2026-01-25 03:52:17.46	4.89	25.55	-48.7	-60.1	3.9	7.41e-01	0	46	104	0	69	13055
2026-01-25 03:52:18.47	4.66	25.69	-47.2	-58.1	3.8	7.42e-01	0	46	104	0	64	13850
2026-01-25 03:52:19.48	4.43	25.83	-52.2	-65.1	3.9	7.43e-01	0	46	104	0	76	15533
2026-01-25 03:52:20.49	4.20	25.98	-46.0	-57.0	3.8	7.44e-01	0	46	104	0	64	12104
2026-01-25 03:52:21.50	3.96	26.12	-45.2	-56.0	3.9	7.44e-01	0	46	104	0	62	12194
2026-01-25 03:52:22.51	3.72	26.26	-44.9	-55.6	3.8	7.45e-01	0	46	104	0	61	12285
2026-01-25 03:52:23.51	3.48	26.41	-44.6	-55.3	3.8	7.47e-01	0	46	104	0	61	11847
2026-01-25 03:52:24.52	3.24	26.55	-44.1	-54.7	3.9	7.46e-01	0	46	104	0	59	12439
2026-01-25 03:52:25.53	2.99	26.69	-44.7	-55.3	3.8	7.47e-01	0	46	104	0	59	13412
2026-01-25 03:52:26.54	2.74	26.84	-47.3	-58.4	3.8	7.45e-01	0	46	104	0	65	13419
2026-01-25 03:52:27.55	2.49	26.98	-47.5	-58.6	3.9	7.43e-01	0	46	104	0	67	12336
2026-01-25 03:52:28.56	2.24	27.13	-50.0	-61.8	3.8	7.45e-01	0	46	104	0	70	14976
2026-01-25 03:52:29.57	1.98	27.28	-48.1	-59.3	3.9	7.43e-01	0	46	104	0	68	12625
2026-01-25 03:52:30.58	1.72	27.42	-45.3	-56.0	3.8	7.40e-01	0	46	104	0	62	12211
2026-01-25 03:52:31.59	1.46	27.57	-45.0	-55.8	3.8	7.45e-01	0	46	104	0	62	11870
2026-01-25 03:52:32.60	1.20	27.71	-51.3	-63.1	3.8	7.42e-01	0	46	104	0	72	15519
2026-01-25 03:52:33.61	0.93	27.86	-49.2	-60.7	3.8	7.46e-01	0	46	104	0	70	13239
2026-01-25 03:52:34.62	0.66	28.01	-50.0	-61.8	3.8	7.45e-01	0	46	104	0	70	14935
2026-01-25 03:52:35.63	0.39	28.15	-51.5	-63.9	3.8	7.43e-01	0	46	104	0	75	14335
2026-01-25 03:52:36.64	0.12	28.30	-44.6	-55.3	3.9	7.45e-01	0	46	104	0	61	11926
2026-01-25 03:52:37.65	359.84	28.45	-44.5	-55.2	3.9	7.45e-01	0	46	104	0	61	11742
2026-01-25 03:52:38.65	359.57	28.59	-44.4	-55.1	3.8	7.46e-01	0	46	104	0	60	12345
2026-01-25 03:52:39.66	359.29	28.74	-44.0	-54.6	3.8	7.45e-01	0	46	104	0	60	11668
2026-01-25 03:52:40.67	359.00	28.89	-44.2	-54.9	3.8	7.43e-01	0	46	104	0	59	12700
2026-01-25 03:52:41.68	358.71	29.04	-45.4	-56.2	3.8	7.43e-01	0	46	104	0	61	13248
2026-01-25 03:52:42.69	358.42	29.18	-50.7	-62.5	3.8	7.43e-01	0	46	104	0	71	15357
2026-01-25 03:52:43.70	358.13	29.33	-46.8	-57.8	3.8	7.43e-01	0	46	104	0	65	12543
2026-01-25 03:52:44.71	357.84	29.48	-52.5	-65.5	3.8	7.47e-01	0	46	104	0	75	17129
2026-01-25 03:52:45.72	357.54	29.62	-46.5	-57.4	3.8	7.45e-01	0	46	104	0	65	12092
2026-01-25 03:52:46.73	357.24	29.77	-45.1	-55.8	3.8	7.44e-01	0	46	104	0	62	11941
2026-01-25 03:52:47.73	356.94	29.92	-44.9	-55.6	3.8	7.45e-01	0	46	104	0	61	12290
2026-01-25 03:52:48.74	356.63	30.06	-48.3	-59.7	3.8	7.43e-01	0	46	104	0	67	13916
2026-01-25 03:52:49.75	356.32	30.21	-46.7	-57.7	3.8	7.43e-01	0	46	104	0	65	12438
2026-01-25 03:52:50.76	356.01	30.36	-54.1	-68.8	3.8	7.46e-01	0	46	104	0	78	21198
2026-01-25 03:52:51.77	355.69	30.51	-52.0	-64.6	3.8	7.46e-01	0	46	104	0	74	16452
2026-01-25 03:52:52.77	355.38	30.65	-44.0	-54.6	3.8	7.42e-01	0	46	104	0	59	12307
2026-01-25 03:52:53.78	355.05	30.80	-44.0	-54.7	3.8	7.44e-01	0	46	104	0	59	12386
2026-01-25 03:52:54.79	354.73	30.94	-44.3	-55.0	3.9	7.43e-01	0	46	104	0	59	12828
2026-01-25 03:52:55.80	354.40	31.09	-44.1	-54.8	3.8	7.45e-01	0	46	104	0	59	12585
2026-01-25 03:52:56.81	354.07	31.24	-44.6	-55.4	3.8	7.51e-01	0	46	104	0	59	13419
2026-01-25 03:52:57.82	353.74	31.38	-45.8	-57.0	3.8	7.43e-01	0	46	104	0	62	13676
2026-01-25 03:52:58.83	353.40	31.53	-52.1	-64.7	3.8	7.45e-01	0	46	104	0	74	16657
2026-01-25 03:52:59.84	353.06	31.67	-46.3	-57.2	3.9	7.45e-01	0	46	104	0	64	12438
2026-01-25 03:53:00.85	352.71	31.81	-54.8	-71.3	3.7	7.45e-01	0	46	104	0	80	25134
2026-01-25 03:53:01.86	352.37	31.96	-45.5	-56.2	3.8	7.45e-01	0	46	104	0	63	11781
2026-01-25 03:53:02.87	352.02	32.10	-44.8	-55.5	3.8	7.46e-01	0	46	104	0	61	12196
2026-01-25 03:53:03.88	351.66	32.25	-44.4	-55.1	3.8	7.42e-01	0	46	104	0	60	12355
2026-01-25 03:53:04.89	351.31	32.39	-49.5	-61.1	3.9	7.42e-01	0	46	104	0	69	14556
2026-01-25 03:53:05.89	350.95	32.53	-46.8	-57.8	3.9	7.48e-01	0	46	104	0	65	12566
2026-01-25 03:53:06.90	350.59	32.67	-54.8	-71.2	3.7	7.43e-01	0	46	104	0	80	24888
2026-01-25 03:53:07.91	350.22	32.81	-52.5	-65.4	3.8	7.44e-01	0	46	104	0	75	16985
2026-01-25 03:53:08.92	349.85	32.95	-44.4	-55.0	3.8	7.45e-01	0	46	104	0	59	12862
2026-01-25 03:53:09.93	349.48	33.09	-44.2	-54.9	3.8	7.45e-01	0	46	104	0	60	12020
2026-01-25 03:53:10.94	349.10	33.23	-44.4	-55.1	3.8	7.45e-01	0	46	104	0	60	12364
2026-01-25 03:53:11.95	348.72	33.37	-44.1	-54.7	3.8	7.45e-01	0	46	104	0	60	11813
2026-01-25 03:53:12.96	348.34	33.51	-46.7	-57.7	3.9	7.43e-01	0	46	104	0	64	13246
2026-01-25 03:53:13.97	347.96	33.64	-46.7	-57.7	3.8	7.47e-01	0	46	104	0	63	13915
2026-01-25 03:53:14.98	347.57	33.78	-53.2	-66.7	3.8	7.43e-01	0	46	104	0	76	18574
2026-01-25 03:53:15.99	347.17	33.91	-46.8	-57.8	3.8	7.45e-01	0	46	104	0	65	12556
2026-01-25 03:53:17.00	346.78	34.05	-55.0	-71.9	3.8	7.48e-01	0	46	104	0	80	26933
2026-01-25 03:53:18.00	346.38	34.18	-45.7	-56.4	3.8	7.47e-01	0	46	104	0	63	12070
2026-01-25 03:53:19.01	345.98	34.31	-45.5	-56.3	3.8	7.46e-01	0	46	104	0	62	12649
2026-01-25 03:53:20.02	345.57	34.45	-45.4	-56.2	3.8	7.46e-01	0	46	104	0	62	12496
2026-01-25 03:53:21.03	345.16	34.58	-51.9	-64.5	3.8	7.43e-01	0	46	104	0	74	16172
2026-01-25 03:53:22.03	344.75	34.70	-47.4	-58.4	3.9	7.44e-01	0	46	104	0	66	12737
2026-01-25 03:53:23.04	344.34	34.83	-55.0	-72.0	3.8	7.48e-01	0	46	104	0	80	27219
2026-01-25 03:53:24.05	343.92	34.96	-52.3	-65.1	3.8	7.43e-01	0	46	104	0	76	15490
2026-01-25 03:53:25.06	343.49	35.08	-45.3	-56.0	3.8	7.44e-01	0	46	104	0	61	12923
2026-01-25 03:53:26.07	343.07	35.21	-45.2	-56.0	3.8	7.45e-01	0	46	104	0	61	12886
2026-01-25 03:53:27.08	342.64	35.33	-45.2	-56.0	3.8	7.42e-01	0	46	104	0	61	12841
2026-01-25 03:53:28.09	342.20	35.45	-44.9	-55.6	3.8	7.45e-01	0	46	104	0	61	12373
2026-01-25 03:53:29.10	341.77	35.58	-45.9	-56.7	3.8	7.44e-01	0	46	104	0	63	12463
2026-01-25 03:53:30.11	341.33	35.69	-47.0	-58.0	3.8	7.45e-01	0	46	104	0	64	13582
2026-01-25 03:53:31.12	340.88	35.81	-53.2	-66.7	3.8	7.44e-01	0	46	104	0	77	17547
2026-01-25 03:53:32.13	340.44	35.93	-46.0	-56.7	3.8	7.44e-01	0	46	104	0	63	12385
2026-01-25 03:53:33.14	339.98	36.04	-54.9	-71.6	3.8	7.44e-01	0	46	104	0	80	26096
2026-01-25 03:53:34.14	339.54	36.16	-45.3	-56.0	3.8	7.45e-01	0	46	104	0	62	12197
2026-01-25 03:53:35.15	339.08	36.27	-45.4	-56.2	3.8	7.44e-01	0	46	104	0	62	12405
2026-01-25 03:53:36.16	338.62	36.38	-45.2	-55.9	3.8	7.46e-01	0	46	104	0	62	12067
2026-01-25 03:53:37.17	338.16	36.49	-48.1	-59.3	3.9	7.45e-01	0	46	104	0	68	12595
2026-01-25 03:53:38.18	337.69	36.59	-47.0	-58.0	3.9	7.42e-01	0	46	104	0	65	12928
2026-01-25 03:53:39.19	337.22	36.70	-52.7	-65.7	3.9	7.42e-01	0	46	104	0	77	15718
2026-01-25 03:53:40.20	336.75	36.80	-45.6	-56.4	3.8	7.43e-01	0	46	104	0	63	12064
2026-01-25 03:53:41.21	336.27	36.90	-54.5	-70.0	3.9	7.40e-01	0	46	104	0	80	21669
2026-01-25 03:53:42.22	335.80	37.00	-45.6	-56.4	3.8	7.44e-01	0	46	104	0	63	12024
2026-01-25 03:53:43.23	335.31	37.10	-45.6	-56.4	3.8	7.45e-01	0	46	104	0	63	12050
2026-01-25 03:53:44.23	334.83	37.19	-45.3	-56.0	3.8	7.46e-01	0	46	104	0	62	12176
2026-01-25 03:53:45.24	334.35	37.29	-51.7	-64.0	3.9	7.46e-01	0	46	104	0	75	14519
2026-01-25 03:53:46.25	333.86	37.38	-46.7	-57.7	3.8	7.44e-01	0	46	104	0	65	12423
2026-01-25 03:53:47.26	333.36	37.47	-54.4	-69.6	3.9	7.45e-01	0	46	104	0	80	20644
2026-01-25 03:53:48.27	332.87	37.55	-50.3	-61.8	3.8	7.43e-01	0	46	104	0	72	13300
2026-01-25 03:53:49.28	332.37	37.64	-46.3	-57.1	3.8	7.43e-01	0	46	104	0	63	13083
2026-01-25 03:53:50.29	331.87	37.72	-46.1	-57.0	3.8	7.45e-01	0	46	104	0	63	12868
2026-01-25 03:53:51.30	331.37	37.80	-46.1	-57.0	3.8	7.44e-01	0	46	104	0	63	12926
2026-01-25 03:53:52.31	330.86	37.88	-45.5	-56.3	3.8	7.46e-01	0	46	104	0	63	11886
2026-01-25 03:53:53.31	330.36	37.96	-44.7	-46.5	5.3	7.05e-01	0	46	104	0	61	4329
2026-01-25 03:53:54.32	329.85	38.03	-46.5	-47.9	23.5	6.03e-01	0	46	0	524288	65	4038
2026-01-25 03:53:55.33	329.33	38.10	-51.3	-54.1	17.7	6.03e-01	0	46	0	2097152	74	4886
2026-01-25 03:53:56.34	328.82	38.17	-45.1	-46.2	25.8	6.03e-01	0	46	0	4194304	62	3943
2026-01-25 03:53:57.35	328.30	38.24	-53.4	-58.2	12.8	6.03e-01	0	46	0	5767168	79	5908
2026-01-25 03:53:58.35	327.79	38.30	-45.4	-46.6	25.2	5.99e-01	0	46	0	7864320	62	4139
2026-01-25 03:53:59.36	327.26	38.36	-45.5	-46.7	25.7	6.02e-01	0	46	0	9961472	62	4158
2026-01-25 03:54:00.37	326.74	38.42	-45.1	-46.3	26.0	6.02e-01	0	46	0	12058624	62	3993
2026-01-25 03:54:01.38	326.21	38.47	-44.9	-46.1	26.2	6.01e-01	0	46	0	13631488	61	4120
2026-01-25 03:54:02.39	325.69	38.53	-45.0	-46.2	26.0	6.02e-01	0	46	0	15728640	61	4153
2026-01-25 03:54:03.40	325.16	38.58	-45.0	-46.2	26.0	6.04e-01	0	46	0	17301504	61	4159
2026-01-25 03:54:04.41	324.63	38.63	-45.0	-46.1	26.1	6.01e-01	0	46	0	19398656	61	4141
2026-01-25 03:54:05.41	324.10	38.67	-44.9	-46.1	26.2	6.02e-01	0	46	0	20971520	61	4128
2026-01-25 03:54:06.42	323.56	38.71	-44.8	-45.9	26.3	6.01e-01	0	46	0	23068672	61	4045
2026-01-25 03:54:07.43	323.03	38.75	-45.0	-46.2	26.0	6.00e-01	0	46	0	25165824	61	4169
2026-01-25 03:54:08.44	322.49	38.79	-45.0	-46.2	26.1	6.02e-01	0	46	0	26738688	61	4148
2026-01-25 03:54:09.45	321.95	38.83	-44.9	-46.1	26.1	5.99e-01	0	46	0	28835840	61	4130
2026-01-25 03:54:10.45	321.42	38.86	-44.9	-46.0	26.2	6.02e-01	0	46	0	30932992	61	4097
2026-01-25 03:54:11.46	320.88	38.89	-44.9	-46.0	26.2	6.02e-01	0	46	0	32505856	61	4096
2026-01-25 03:54:12.47	320.34	38.91	-45.1	-46.2	25.9	6.01e-01	0	46	0	34603008	61	4188
2026-01-25 03:54:13.48	319.80	38.94	-45.0	-46.1	26.1	6.02e-01	0	46	0	36175872	61	4135
2026-01-25 03:54:14.48	319.26	38.96	-44.8	-46.0	26.2	6.03e-01	0	46	0	38273024	61	4052
2026-01-25 03:54:15.49	318.72	38.97	-44.8	-46.0	26.2	6.02e-01	0	46	0	40370176	61	4072
2026-01-25 03:54:16.50	318.17	38.99	-45.1	-46.3	25.9	6.01e-01	0	46	0	41943040	61	4218
2026-01-25 03:54:17.51	317.63	39.00	-44.8	-46.0	26.2	6.03e-01	0	46	0	44040192	61	4077
2026-01-25 03:54:18.52	317.08	39.01	-45.0	-46.2	26.0	6.02e-01	0	46	0	45613056	61	4149
2026-01-25 03:54:19.53	316.54	39.02	-44.8	-46.0	26.2	6.01e-01	0	46	0	47710208	61	4065
2026-01-25 03:54:20.53	316.00	39.02	-44.9	-46.1	26.1	6.01e-01	0	46	0	49283072	61	4122
2026-01-25 03:54:21.54	315.45	39.02	-45.1	-46.3	25.9	5.99e-01	0	46	0	51380224	61	4223
2026-01-25 03:54:22.55	314.91	39.02	-45.0	-46.1	26.0	6.00e-01	0	46	0	53477376	61	4139
2026-01-25 03:54:23.56	314.36	39.01	-44.9	-46.1	26.1	6.00e-01	0	46	0	55574528	61	4139
2026-01-25 03:54:24.56	313.82	39.00	-44.9	-46.1	26.1	6.00e-01	0	46	0	57147392	61	4122
2026-01-25 03:54:25.57	313.28	38.99	-44.9	-46.1	26.0	6.00e-01	0	46	0	59244544	61	4142
2026-01-25 03:54:26.58	312.73	38.98	-44.9	-46.0	26.2	6.01e-01	0	46	0	60817408	61	4098
2026-01-25 03:54:27.59	312.19	38.96	-44.9	-46.1	26.1	6.03e-01	0	46	0	62914560	61	4139
2026-01-25 03:54:28.60	311.65	38.94	-45.1	-46.3	26.0	5.99e-01	0	46	0	64487424	61	4194
2026-01-25 03:54:29.61	311.11	38.92	-44.8	-45.9	26.2	6.02e-01	0	46	0	66584576	61	4051
2026-01-25 03:54:30.62	310.56	38.89	-44.6	-45.8	26.5	6.01e-01	0	46	0	68681728	61	3961
2026-01-25 03:54:31.63	310.02	38.86	-44.8	-45.9	26.3	6.01e-01	0	46	0	70254592	61	4032
2026-01-25 03:54:32.64	309.48	38.83	-45.0	-46.2	26.0	6.01e-01	0	46	0	72351744	61	4166
2026-01-25 03:54:33.65	308.95	38.80	-45.0	-46.2	26.0	6.00e-01	0	46	0	73924608	61	4150
2026-01-25 03:54:34.66	308.41	38.76	-44.9	-46.0	26.1	6.03e-01	0	46	0	76021760	61	4097
2026-01-25 03:54:35.67	307.87	38.72	-44.8	-45.9	26.3	6.02e-01	0	46	0	78118912	61	4043
2026-01-25 03:54:36.68	307.34	38.68	-44.7	-45.9	26.3	6.03e-01	0	46	0	79691776	61	4013
2026-01-25 03:54:37.69	306.81	38.63	-45.0	-46.1	26.1	6.01e-01	0	46	0	81788928	61	4140
2026-01-25 03:54:38.69	306.28	38.59	-45.3	-46.5	25.7	6.00e-01	0	46	0	83886080	61	4299
2026-01-25 03:54:39.70	305.75	38.53	-45.0	-46.2	26.0	6.05e-01	0	46	0	85458944	61	4176
2026-01-25 03:54:40.71	305.22	38.48	-45.0	-46.2	26.1	6.02e-01	0	46	0	87556096	61	4153
2026-01-25 03:54:41.72	304.70	38.43	-45.3	-46.5	25.8	6.01e-01	0	46	0	89128960	61	4308
2026-01-25 03:54:42.73	304.17	38.37	-45.4	-46.6	25.7	6.00e-01	0	46	0	91226112	61	4361
2026-01-25 03:54:43.73	303.65	38.31	-45.0	-46.2	26.0	6.01e-01	0	46	0	92798976	61	4155
2026-01-25 03:54:44.74	303.13	38.24	-44.9	-46.0	26.1	6.03e-01	0	46	0	94896128	61	4097
2026-01-25 03:54:45.75	302.61	38.18	-45.2	-46.4	25.7	6.03e-01	0	46	0	96993280	61	4279
2026-01-25 03:54:46.76	302.10	38.11	-45.5	-46.8	25.5	6.02e-01	0	46	0	98566144	61	4453
2026-01-25 03:54:47.76	301.59	38.04	-45.1	-46.3	26.0	5.97e-01	0	46	0	100663296	61	4199
2026-01-25 03:54:48.77	301.08	37.97	-44.7	-45.9	26.3	6.00e-01	0	46	0	102760448	61	4012
2026-01-25 03:54:49.78	300.57	37.89	-44.9	-46.0	26.2	6.03e-01	0	46	0	104333312	61	4082
2026-01-25 03:54:50.79	300.06	37.81	-44.9	-46.1	26.1	6.00e-01	0	46	0	106430464	61	4123
2026-01-25 03:54:51.80	299.56	37.73	-45.4	-46.6	25.6	6.01e-01	0	46	0	108003328	61	4369
2026-01-25 03:54:52.81	299.06	37.65	-45.0	-46.2	26.1	6.00e-01	0	46	0	110100480	61	4159
2026-01-25 03:54:53.81	298.56	37.57	-44.9	-46.0	26.2	6.02e-01	0	46	0	112197632	61	4071
2026-01-25 03:54:54.82	298.06	37.48	-44.9	-46.0	26.2	6.01e-01	0	46	0	113770496	61	4090
2026-01-25 03:54:55.83	297.57	37.39	-45.1	-46.2	25.8	6.01e-01	0	46	0	115867648	61	4185
2026-01-25 03:54:56.84	297.08	37.30	-45.3	-46.5	25.5	5.99e-01	0	46	0	117440512	61	4321
2026-01-25 03:54:57.85	296.59	37.20	-44.9	-46.1	26.0	6.02e-01	0	46	0	119537664	61	4106
2026-01-25 03:54:58.86	296.11	37.11	-44.7	-45.8	26.4	6.06e-01	0	46	0	121634816	61	4003
2026-01-25 03:54:59.87	295.62	37.01	-44.7	-45.8	26.4	6.01e-01	0	46	0	123207680	61	3982
2026-01-25 03:55:00.88	295.14	36.91	-44.8	-46.0	26.1	6.02e-01	0	46	0	125304832	61	4056
2026-01-25 03:55:01.89	294.67	36.81	-44.8	-45.9	26.1	6.01e-01	0	46	0	126877696	61	4022
2026-01-25 03:55:02.89	294.20	36.71	-44.6	-45.7	26.3	6.03e-01	0	46	0	128974848	61	3952
2026-01-25 03:55:03.90	293.73	36.61	-44.7	-45.8	26.3	6.01e-01	0	46	0	131072000	61	3986
2026-01-25 03:55:04.91	293.26	36.50	-44.6	-45.6	26.4	6.00e-01	0	46	0	132644864	61	3908
2026-01-25 03:55:05.92	292.80	36.39	-44.8	-45.9	25.8	6.02e-01	0	46	0	134742016	61	4014
2026-01-25 03:55:06.93	292.34	36.28	-45.2	-46.4	25.4	5.99e-01	0	46	0	136314880	62	4015
2026-01-25 03:55:07.93	291.88	36.17	-45.7	-47.0	25.2	6.01e-01	0	46	0	138412032	61	4589
2026-01-25 03:55:08.94	291.43	36.06	-45.2	-46.4	25.5	6.02e-01	0	46	0	140509184	61	4266
2026-01-25 03:55:09.95	290.98	35.94	-44.6	-45.7	26.2	6.01e-01	0	46	0	142082048	60	4190
2026-01-25 03:55:10.96	290.53	35.82	-44.3	-45.4	26.6	6.04e-01	0	46	0	144179200	60	4030
2026-01-25 03:55:11.97	290.09	35.71	-45.1	-46.3	25.8	6.01e-01	0	46	0	146276352	61	4211
2026-01-25 03:55:12.98	289.65	35.59	-45.4	-46.6	25.6	6.02e-01	0	46	0	147849216	61	4391
2026-01-25 03:55:13.99	289.21	35.47	-44.6	-45.8	26.3	6.01e-01	0	46	0	149946368	61	3966
2026-01-25 03:55:15.00	288.77	35.34	-44.4	-45.5	26.1	6.01e-01	0	46	0	151519232	60	4064
2026-01-25 03:55:16.01	288.34	35.22	-45.3	-46.6	24.9	6.00e-01	0	46	0	153616384	62	4120
2026-01-25 03:55:17.01	287.92	35.10	-45.8	-47.2	24.9	6.01e-01	0	46	0	155189248	62	4412
2026-01-25 03:55:18.02	287.49	34.97	-44.9	-46.1	25.9	6.02e-01	0	46	0	157286400	61	4125
2026-01-25 03:55:19.03	287.07	34.84	-44.4	-45.5	26.4	6.00e-01	0	46	0	159383552	60	4076
2026-01-25 03:55:20.04	286.65	34.72	-45.0	-46.1	25.8	6.02e-01	0	46	0	160956416	61	4141
2026-01-25 03:55:21.05	286.24	34.59	-45.6	-46.9	25.1	6.01e-01	0	46	0	163053568	61	4516
2026-01-25 03:55:22.06	285.83	34.46	-45.7	-47.0	25.2	6.02e-01	0	46	0	165150720	61	4571
2026-01-25 03:55:23.07	285.42	34.33	-44.9	-46.1	26.0	6.01e-01	0	46	0	166723584	61	4118
2026-01-25 03:55:24.07	285.02	34.19	-44.4	-45.5	26.5	6.02e-01	0	46	0	168820736	60	4065
2026-01-25 03:55:25.08	284.62	34.06	-45.0	-46.2	25.6	6.05e-01	0	46	0	170393600	61	4168
2026-01-25 03:55:26.09	284.22	33.93	-45.8	-47.1	24.9	6.01e-01	0	46	0	172490752	62	4381
2026-01-25 03:55:27.10	283.83	33.79	-45.0	-46.1	25.6	6.03e-01	0	46	0	174587904	61	4131
2026-01-25 03:55:28.11	283.44	33.65	-44.8	-45.9	25.6	6.01e-01	0	46	0	176160768	61	4044
2026-01-25 03:55:29.11	283.05	33.52	-45.5	-46.8	25.1	6.01e-01	0	46	0	178257920	61	4470
2026-01-25 03:55:30.12	282.67	33.38	-44.5	-45.7	26.0	5.99e-01	0	46	0	179830784	60	4152
2026-01-25 03:55:31.13	282.29	33.24	-44.3	-45.4	26.3	6.01e-01	0	46	0	181927936	60	4011
2026-01-25 03:55:32.14	281.91	33.10	-45.4	-46.8	25.2	6.01e-01	0	46	0	183500800	61	4445
2026-01-25 03:55:33.15	281.54	32.96	-44.9	-46.1	25.6	6.02e-01	0	46	0	185597952	60	4389
2026-01-25 03:55:34.16	281.17	32.82	-44.3	-45.3	26.6	6.00e-01	0	46	0	187695104	60	3994
2026-01-25 03:55:35.17	280.80	32.68	-45.1	-46.3	25.3	6.01e-01	0	46	0	189792256	61	4234
2026-01-25 03:55:36.17	280.44	32.54	-45.0	-46.2	25.5	6.01e-01	0	46	0	191365120	60	4434
2026-01-25 03:55:37.18	280.08	32.40	-44.1	-45.2	26.5	6.01e-01	0	46	0	193462272	60	3931
2026-01-25 03:55:38.19	279.72	32.26	-45.4	-46.7	25.2	6.02e-01	0	46	0	195035136	61	4441
2026-01-25 03:55:39.20	279.37	32.11	-44.8	-45.9	25.9	6.01e-01	0	46	0	197132288	60	4271
2026-01-25 03:55:40.21	279.01	31.97	-44.9	-46.1	25.3	6.01e-01	0	46	0	198705152	61	4107
2026-01-25 03:55:41.21	278.67	31.82	-45.3	-46.5	25.3	6.01e-01	0	46	0	200802304	61	4335
2026-01-25 03:55:42.22	278.33	31.68	-44.0	-45.1	26.7	6.01e-01	0	46	0	202899456	60	3876
2026-01-25 03:55:43.23	277.98	31.54	-45.7	-47.0	25.0	6.02e-01	0	46	0	204472320	61	4593
2026-01-25 03:55:44.24	277.65	31.39	-44.4	-45.5	26.3	6.00e-01	0	46	0	206569472	60	4054
2026-01-25 03:55:45.25	277.31	31.24	-44.9	-46.1	24.7	6.01e-01	0	46	0	208142336	61	4129
2026-01-25 03:55:46.25	276.98	31.10	-44.7	-45.8	25.3	6.00e-01	0	46	0	210239488	59	4475
2026-01-25 03:55:47.27	276.65	30.95	-44.3	-45.4	25.8	6.03e-01	0	46	0	212336640	60	4021
2026-01-25 03:55:48.27	276.33	30.81	-44.9	-46.2	25.5	5.99e-01	0	46	0	213909504	60	4399
2026-01-25 03:55:49.28	276.00	30.66	-44.3	-45.4	25.9	5.99e-01	0	46	0	216006656	60	4019
2026-01-25 03:55:50.29	275.68	30.51	-44.9	-46.1	25.6	6.03e-01	0	46	0	218103808	60	4366
2026-01-25 03:55:51.30	275.37	30.37	-44.4	-45.5	26.0	6.02e-01	0	46	0	219676672	60	4064
2026-01-25 03:55:52.31	275.05	30.22	-45.3	-46.6	25.2	6.02e-01	0	46	0	221773824	61	4344
2026-01-25 03:55:53.32	274.74	30.07	-44.8	-46.0	25.6	6.01e-01	0	46	0	223346688	61	4072
2026-01-25 03:55:54.32	274.44	29.92	-45.3	-46.5	25.3	6.02e-01	0	46	0	225443840	61	4316
2026-01-25 03:55:55.33	274.13	29.78	-45.1	-46.3	25.4	6.03e-01	0	46	0	227016704	61	4206
2026-01-25 03:55:56.34	273.83	29.63	-44.4	-45.5	26.4	6.01e-01	0	46	0	229113856	60	4084
2026-01-25 03:55:57.35	273.53	29.48	-44.6	-45.7	26.1	6.02e-01	0	46	0	231211008	60	4188
2026-01-25 03:55:58.36	273.23	29.33	-44.5	-45.6	26.3	6.02e-01	0	46	0	233308160	60	4118
2026-01-25 03:55:59.37	272.94	29.19	-45.1	-46.4	25.7	6.00e-01	0	46	0	234881024	60	4515
2026-01-25 03:56:00.38	272.65	29.04	-44.8	-46.0	25.9	6.01e-01	0	46	0	236978176	60	4312
2026-01-25 03:56:01.39	272.36	28.89	-45.3	-46.6	25.5	6.00e-01	0	46	0	238551040	61	4361
2026-01-25 03:56:02.39	272.08	28.74	-44.7	-45.9	25.8	6.01e-01	0	46	0	240648192	61	4029
2026-01-25 03:56:03.40	271.79	28.60	-44.4	-45.5	26.4	6.00e-01	0	46	0	242221056	60	4079
2026-01-25 03:56:04.41	271.51	28.45	-44.5	-45.7	26.2	6.02e-01	0	46	0	244318208	60	4164
2026-01-25 03:56:05.42	271.24	28.30	-44.4	-45.6	26.3	6.01e-01	0	46	0	246415360	60	4114
2026-01-25 03:56:06.43	270.96	28.15	-44.8	-46.0	25.9	6.02e-01	0	46	0	247988224	60	4326
2026-01-25 03:56:07.44	270.69	28.01	-45.1	-46.4	25.6	6.00e-01	0	46	0	250085376	60	4500
2026-01-25 03:56:08.45	270.42	27.86	-45.2	-46.3	25.7	6.01e-01	0	46	0	251658240	60	4491
2026-01-25 03:56:09.46	270.15	27.71	-45.0	-46.2	25.8	6.01e-01	0	46	0	253755392	60	4395
2026-01-25 03:56:10.47	269.89	27.57	-45.0	-46.1	25.7	6.02e-01	0	46	0	255852544	60	4390
2026-01-25 03:56:11.47	269.63	27.42	-44.9	-46.1	25.8	6.02e-01	0	46	0	257425408	60	4384
2026-01-25 03:56:12.48	269.37	27.28	-45.1	-46.4	25.5	6.02e-01	0	46	0	259522560	60	4506
2026-01-25 03:56:13.49	269.11	27.13	-44.9	-46.1	25.8	6.02e-01	0	46	0	261619712	60	4367
2026-01-25 03:56:14.50	268.86	26.98	-44.7	-45.9	26.0	6.03e-01	0	46	0	263192576	60	4258
2026-01-25 03:56:15.51	268.61	26.84	-45.0	-46.3	25.7	6.02e-01	0	46	0	265289728	60	4455
2026-01-25 03:56:16.51	268.36	26.69	-44.9	-46.1	25.7	6.04e-01	0	46	0	266862592	60	4384
2026-01-25 03:56:17.52	268.11	26.55	-44.6	-45.7	26.2	6.02e-01	0	46	0	268959744	60	4170
2026-01-25 03:56:18.53	267.87	26.40	-44.6	-45.8	26.0	6.00e-01	0	46	0	270532608	60	4222
2026-01-25 03:56:19.54	267.63	26.26	-44.6	-45.8	26.1	6.00e-01	0	46	0	272629760	60	4217
2026-01-25 03:56:20.55	267.39	26.12	-44.7	-45.9	26.0	5.99e-01	0	46	0	274726912	60	4267
2026-01-25 03:56:21.55	267.15	25.97	-44.9	-46.1	25.8	6.02e-01	0	46	0	276824064	60	4377
2026-01-25 03:56:22.56	266.91	25.83	-44.9	-46.1	25.8	6.01e-01	0	46	0	278396928	60	4344
2026-01-25 03:56:23.57	266.68	25.69	-44.8	-46.0	25.8	6.02e-01	0	46	0	280494080	60	4322
2026-01-25 03:56:24.58	266.45	25.54	-44.9	-46.1	25.8	6.02e-01	0	46	0	282066944	60	4353
2026-01-25 03:56:25.59	266.22	25.40	-44.7	-45.9	26.0	6.04e-01	0	46	0	284164096	60	4256
2026-01-25 03:56:26.59	266.00	25.26	-45.0	-46.2	25.7	6.05e-01	0	46	0	285736960	60	4413
2026-01-25 03:56:27.60	265.77	25.12	-45.1	-46.3	25.6	6.04e-01	0	46	0	287834112	60	4461
2026-01-25 03:56:28.61	265.55	24.98	-44.9	-46.1	25.8	6.00e-01	0	46	0	289931264	60	4354
2026-01-25 03:56:29.62	265.33	24.83	-45.1	-46.4	25.6	6.00e-01	0	46	0	291504128	60	4502
2026-01-25 03:56:30.63	265.11	24.69	-45.0	-46.3	25.6	6.02e-01	0	46	0	293601280	60	4452
2026-01-25 03:56:31.64	264.89	24.55	-44.9	-46.1	25.7	6.01e-01	0	46	0	295174144	60	4390
2026-01-25 03:56:32.65	264.68	24.41	-45.0	-46.2	25.7	6.02e-01	0	46	0	297271296	60	4420
2026-01-25 03:56:33.66	264.47	24.27	-44.8	-46.0	25.8	6.01e-01	0	46	0	299368448	60	4335
2026-01-25 03:56:34.67	264.26	24.13	-44.8	-45.9	25.9	6.02e-01	0	46	0	300941312	60	4286
2026-01-25 03:56:35.67	264.05	24.00	-44.8	-46.0	25.9	6.02e-01	0	46	0	303038464	60	4310
2026-01-25 03:56:36.68	263.84	23.86	-44.8	-46.0	25.8	6.02e-01	0	46	0	305135616	60	4332
2026-01-25 03:56:37.69	263.64	23.72	-45.0	-46.2	25.7	6.01e-01	0	46	0	306708480	60	4398
2026-01-25 03:56:38.70	263.43	23.58	-44.9	-46.2	25.7	6.01e-01	0	46	0	308805632	60	4393
2026-01-25 03:56:39.71	263.23	23.44	-44.9	-46.1	25.7	6.00e-01	0	46	0	310378496	60	4374
2026-01-25 03:56:40.71	263.04	23.31	-44.9	-46.1	25.7	6.01e-01	0	46	0	312475648	60	4356
2026-01-25 03:56:41.72	262.84	23.17	-44.9	-46.1	25.7	6.02e-01	0	46	0	314048512	60	4376
2026-01-25 03:56:42.73	262.64	23.04	-44.9	-46.1	25.8	5.99e-01	0	46	0	316145664	60	4375
2026-01-25 03:56:43.74	262.45	22.90	-44.9	-46.1	25.8	6.00e-01	0	46	0	318242816	60	4341
2026-01-25 03:56:44.75	262.26	22.76	-44.9	-46.1	25.7	6.02e-01	0	46	0	319815680	60	4387
2026-01-25 03:56:45.76	262.07	22.63	-45.0	-46.2	25.6	6.00e-01	0	46	0	321912832	60	4418
2026-01-25 03:56:46.77	261.88	22.50	-45.0	-46.3	25.6	6.02e-01	0	46	0	324009984	60	4448
2026-01-25 03:56:47.78	261.69	22.36	-44.9	-46.1	25.7	6.00e-01	0	46	0	325582848	60	4386
2026-01-25 03:56:48.79	261.51	22.23	-44.9	-46.1	25.7	6.01e-01	0	46	0	327680000	60	4365
2026-01-25 03:56:49.79	261.33	22.10	-44.9	-46.1	25.7	6.02e-01	0	46	0	329252864	60	4358
2026-01-25 03:56:50.80	261.15	21.96	-44.7	-45.8	25.9	6.01e-01	0	46	0	331350016	60	4229
2026-01-25 03:56:51.81	260.97	21.83	-44.6	-45.8	25.9	6.03e-01	0	46	0	333447168	60	4220
2026-01-25 03:56:52.82	260.79	21.70	-44.7	-45.9	25.9	6.01e-01	0	46	0	335020032	60	4247
2026-01-25 03:56:53.83	260.61	21.57	-44.8	-46.1	25.7	6.01e-01	0	46	0	337117184	60	4349
2026-01-25 03:56:54.84	260.43	21.44	-44.9	-46.1	25.6	6.01e-01	0	46	0	338690048	60	4366
2026-01-25 03:56:55.85	260.26	21.31	-44.8	-46.1	25.7	6.02e-01	0	46	0	340787200	60	4342
2026-01-25 03:56:56.86	260.09	21.18	-44.8	-46.0	25.8	6.03e-01	0	46	0	342884352	60	4316
2026-01-25 03:56:57.87	259.92	21.05	-44.7	-45.9	25.9	6.00e-01	0	46	0	344457216	60	4252
2026-01-25 03:56:58.88	259.75	20.92	-44.6	-45.7	26.0	6.00e-01	0	46	0	346554368	60	4191
2026-01-25 03:56:59.89	259.58	20.79	-44.6	-45.8	26.0	6.01e-01	0	46	0	348127232	60	4208
2026-01-25 03:57:00.90	259.42	20.66	-44.7	-45.9	25.9	6.03e-01	0	46	0	350224384	60	4255
2026-01-25 03:57:01.91	259.25	20.54	-44.7	-45.9	25.9	6.00e-01	0	46	0	352321536	60	4273
2026-01-25 03:57:02.91	259.09	20.41	-44.8	-46.0	25.8	6.00e-01	0	46	0	353894400	60	4297
2026-01-25 03:57:03.92	258.93	20.28	-44.6	-45.8	26.0	6.02e-01	0	46	0	355991552	60	4197
2026-01-25 03:57:04.93	258.77	20.16	-44.4	-45.6	26.2	6.02e-01	0	46	0	357564416	60	4101
2026-01-25 03:57:05.94	258.61	20.03	-44.5	-45.7	26.0	6.00e-01	0	46	0	359661568	60	4154
2026-01-25 03:57:06.95	258.45	19.91	-44.6	-45.7	26.0	6.02e-01	0	46	0	361758720	60	4188
2026-01-25 03:57:07.96	258.30	19.78	-44.7	-45.9	25.9	6.03e-01	0	46	0	363331584	60	4249
2026-01-25 03:57:08.97	258.14	19.66	-44.8	-46.0	25.7	6.02e-01	0	46	0	365428736	60	4313
2026-01-25 03:57:09.98	257.99	19.53	-44.7	-45.9	25.8	6.01e-01	0	46	0	367525888	60	4285
2026-01-25 03:57:10.99	257.84	19.41	-44.6	-45.8	25.8	6.02e-01	0	46	0	369098752	60	4231
2026-01-25 03:57:11.99	257.69	19.29	-44.5	-45.6	25.9	5.99e-01	0	46	0	371195904	60	4139
2026-01-25 03:57:13.00	257.54	19.17	-44.6	-45.8	25.8	6.02e-01	0	46	0	372768768	60	4229
2026-01-25 03:57:14.01	257.39	19.04	-44.6	-45.8	25.8	5.99e-01	0	46	0	374865920	60	4241
2026-01-25 03:57:15.02	257.24	18.92	-44.7	-45.9	25.8	6.01e-01	0	46	0	376438784	60	4285
2026-01-25 03:57:16.03	257.10	18.80	-44.7	-45.9	25.8	6.01e-01	0	46	0	378535936	60	4271
2026-01-25 03:57:17.04	256.95	18.68	-44.8	-46.0	25.7	6.03e-01	0	46	0	380633088	60	4317
2026-01-25 03:57:18.05	256.81	18.56	-44.7	-45.9	25.8	6.05e-01	0	46	0	382730240	60	4246
2026-01-25 03:57:19.06	256.67	18.44	-44.4	-45.6	26.1	6.00e-01	0	46	0	384303104	60	4109
2026-01-25 03:57:20.07	256.52	18.32	-44.4	-45.5	26.2	6.00e-01	0	46	0	386400256	60	4087
2026-01-25 03:57:21.08	256.38	18.20	-44.5	-45.7	26.0	6.00e-01	0	46	0	387973120	60	4174
2026-01-25 03:57:22.08	256.25	18.09	-44.6	-45.8	25.9	6.03e-01	0	46	0	390070272	60	4225
2026-01-25 03:57:23.09	256.11	17.97	-44.6	-45.8	25.8	6.01e-01	0	46	0	391643136	60	4241
2026-01-25 03:57:24.10	255.97	17.85	-44.6	-45.8	25.8	6.00e-01	0	46	0	393740288	60	4223
2026-01-25 03:57:25.11	255.84	17.73	-44.5	-45.7	25.9	6.00e-01	0	46	0	395837440	60	4163
2026-01-25 03:57:26.12	255.71	17.62	-44.5	-45.7	25.9	6.00e-01	0	46	0	397410304	60	4174
2026-01-25 03:57:27.13	255.57	17.50	-44.5	-45.7	25.9	6.02e-01	0	46	0	399507456	60	4167
2026-01-25 03:57:28.13	255.44	17.39	-44.6	-45.8	25.8	6.01e-01	0	46	0	401080320	60	4219
2026-01-25 03:57:29.14	255.31	17.27	-44.7	-45.9	25.8	6.02e-01	0	46	0	403177472	60	4244
2026-01-25 03:57:30.15	255.18	17.16	-44.7	-45.9	25.8	6.03e-01	0	46	0	405274624	60	4265
2026-01-25 03:57:31.16	255.05	17.04	-44.7	-45.9	25.7	6.01e-01	0	46	0	406847488	60	4258
2026-01-25 03:57:32.17	254.93	16.93	-44.7	-45.9	25.7	6.01e-01	0	46	0	408944640	60	4252
2026-01-25 03:57:33.17	254.80	16.82	-44.5	-45.7	25.9	6.02e-01	0	46	0	411041792	60	4180
2026-01-25 03:57:34.18	254.68	16.70	-44.5	-45.7	25.8	6.02e-01	0	46	0	412614656	60	4165
2026-01-25 03:57:35.19	254.55	16.59	-44.5	-45.7	25.9	6.02e-01	0	46	0	414711808	60	4161
2026-01-25 03:57:36.20	254.43	16.48	-44.5	-45.7	25.9	6.02e-01	0	46	0	416284672	60	4155
2026-01-25 03:57:37.20	254.31	16.37	-44.5	-45.7	25.9	6.02e-01	0	46	0	418381824	60	4180
2026-01-25 03:57:38.21	254.18	16.26	-44.7	-45.9	25.7	6.02e-01	0	46	0	419954688	60	4251
2026-01-25 03:57:39.22	254.06	16.15	-44.7	-46.0	25.6	6.02e-01	0	46	0	422051840	60	4294
2026-01-25 03:57:40.23	253.94	16.04	-44.8	-46.1	25.5	6.02e-01	0	46	0	424148992	60	4354
2026-01-25 03:57:41.24	253.83	15.93	-44.8	-46.0	25.6	6.01e-01	0	46	0	425721856	60	4316
2026-01-25 03:57:42.24	253.71	15.82	-44.7	-45.9	25.7	6.00e-01	0	46	0	427819008	60	4266
2026-01-25 03:57:43.25	253.59	15.71	-44.6	-45.8	25.8	6.00e-01	0	46	0	429916160	60	4223
2026-01-25 03:57:44.26	253.48	15.60	-44.5	-45.7	25.8	6.01e-01	0	46	0	431489024	60	4180
2026-01-25 03:57:45.27	253.36	15.49	-44.3	-45.5	26.0	6.02e-01	0	46	0	433586176	60	4068
2026-01-25 03:57:46.28	253.25	15.39	-44.5	-45.7	25.9	6.02e-01	0	46	0	435159040	60	4150
2026-01-25 03:57:47.28	253.14	15.28	-44.5	-45.7	25.8	6.04e-01	0	46	0	437256192	60	4187
2026-01-25 03:57:48.29	253.02	15.17	-44.7	-45.9	25.7	6.02e-01	0	46	0	439353344	60	4265
2026-01-25 03:57:49.30	252.91	15.07	-44.8	-46.0	25.5	5.99e-01	0	46	0	440926208	60	4325
2026-01-25 03:57:50.31	252.80	14.96	-44.8	-46.0	25.5	6.01e-01	0	46	0	443023360	60	4321
2026-01-25 03:57:51.32	252.69	14.85	-44.8	-46.0	25.6	6.02e-01	0	46	0	444596224	60	4312
2026-01-25 03:57:52.33	252.58	14.75	-44.8	-46.1	25.5	6.00e-01	0	46	0	446693376	60	4344
2026-01-25 03:57:53.33	252.48	14.64	-44.7	-45.9	25.6	6.02e-01	0	46	0	448266240	60	4285
2026-01-25 03:57:54.34	252.37	14.54	-44.7	-46.0	25.6	6.01e-01	0	46	0	450363392	60	4295
2026-01-25 03:57:55.35	252.26	14.44	-44.6	-45.8	25.7	6.02e-01	0	46	0	452460544	60	4227
2026-01-25 03:57:56.36	252.16	14.33	-44.5	-45.7	25.8	6.02e-01	0	46	0	454557696	60	4170
2026-01-25 03:57:57.37	252.05	14.23	-44.6	-45.8	25.7	6.01e-01	0	46	0	456130560	60	4215
2026-01-25 03:57:58.37	251.95	14.13	-44.7	-45.9	25.6	6.01e-01	0	46	0	458227712	60	4288
2026-01-25 03:57:59.38	251.85	14.02	-44.7	-45.9	25.6	6.01e-01	0	46	0	459800576	60	4286
2026-01-25 03:58:00.39	251.75	13.92	-44.9	-46.2	25.3	6.00e-01	0	46	0	461897728	60	4402
2026-01-25 03:58:01.40	251.64	13.82	-44.9	-46.1	25.3	6.01e-01	0	46	0	463470592	60	4385
2026-01-25 03:58:02.41	251.54	13.72	-45.0	-46.3	25.2	6.01e-01	0	46	0	465567744	60	4461
2026-01-25 03:58:03.41	251.44	13.62	-44.9	-46.1	25.4	6.03e-01	0	46	0	467664896	60	4364
2026-01-25 03:58:04.42	251.35	13.52	-44.9	-46.1	25.4	6.00e-01	0	46	0	469237760	60	4379
2026-01-25 03:58:05.43	251.25	13.42	-44.8	-46.1	25.4	6.00e-01	0	46	0	471334912	60	4363
2026-01-25 03:58:06.44	251.15	13.32	-44.9	-46.1	25.3	6.01e-01	0	46	0	472907776	60	4385
2026-01-25 03:58:07.45	251.05	13.22	-44.9	-46.2	25.3	6.02e-01	0	46	0	475004928	60	4406
2026-01-25 03:58:08.46	250.96	13.12	-45.1	-46.3	25.2	6.03e-01	0	46	0	477102080	60	4484
2026-01-25 03:58:09.47	250.86	13.02	-45.0	-46.2	25.2	6.03e-01	0	46	0	478674944	60	4421
2026-01-25 03:58:10.47	250.77	12.92	-45.0	-46.2	25.2	6.02e-01	0	46	0	480772096	60	4440
2026-01-25 03:58:11.48	250.67	12.82	-44.9	-46.2	25.3	6.03e-01	0	46	0	482869248	60	4411
2026-01-25 03:58:12.49	250.58	12.73	-45.0	-46.3	25.2	6.00e-01	0	46	0	484442112	60	4458
2026-01-25 03:58:13.50	250.49	12.63	-44.9	-46.1	25.4	6.01e-01	0	46	0	486539264	60	4359
2026-01-25 03:58:14.51	250.39	12.53	-44.8	-46.1	25.4	6.00e-01	0	46	0	488112128	60	4353
2026-01-25 03:58:15.52	250.30	12.44	-44.9	-46.1	25.4	6.03e-01	0	46	0	490209280	60	4375
2026-01-25 03:58:16.52	250.21	12.34	-44.9	-46.1	25.3	6.00e-01	0	46	0	491782144	60	4374
2026-01-25 03:58:17.53	250.12	12.24	-45.1	-46.4	25.1	6.03e-01	0	46	0	493879296	60	4494
2026-01-25 03:58:18.54	250.03	12.15	-45.1	-46.3	25.1	6.00e-01	0	46	0	495976448	60	4491
2026-01-25 03:58:19.55	249.94	12.05	-45.2	-46.5	25.0	6.00e-01	0	46	0	497549312	60	4571
2026-01-25 03:58:20.56	249.86	11.96	-45.1	-46.4	25.1	6.01e-01	0	46	0	499646464	61	4273
2026-01-25 03:58:21.57	249.77	11.86	-45.1	-46.4	25.1	6.01e-01	0	46	0	501743616	61	4244
2026-01-25 03:58:22.58	249.68	11.77	-45.0	-46.3	25.1	5.98e-01	0	46	0	503316480	61	4213
2026-01-25 03:58:23.59	249.59	11.68	-45.1	-46.4	25.0	6.00e-01	0	46	0	505413632	61	4275
2026-01-25 03:58:24.59	249.51	11.58	-45.1	-46.4	25.0	6.02e-01	0	46	0	506986496	61	4268
2026-01-25 03:58:25.60	249.42	11.49	-45.0	-46.3	25.2	6.03e-01	0	46	0	509083648	61	4201
2026-01-25 03:58:26.61	249.34	11.40	-45.0	-46.2	25.2	6.02e-01	0	46	0	511180800	61	4189
2026-01-25 03:58:27.62	249.26	11.31	-44.9	-46.2	25.2	6.01e-01	0	46	0	512753664	61	4163
2026-01-25 03:58:28.63	249.17	11.21	-44.9	-46.2	25.3	6.02e-01	0	46	0	514850816	61	4158
2026-01-25 03:58:29.64	249.09	11.12	-45.1	-46.3	25.1	6.04e-01	0	46	0	516423680	61	4232
2026-01-25 03:58:30.65	249.01	11.03	-45.0	-46.3	25.1	5.99e-01	0	46	0	518520832	61	4215
2026-01-25 03:58:31.65	248.93	10.94	-45.1	-46.4	25.1	6.02e-01	0	46	0	520617984	61	4249
2026-01-25 03:58:32.66	248.85	10.85	-45.2	-46.5	25.0	6.01e-01	0	46	0	522190848	61	4305
2026-01-25 03:58:33.67	248.76	10.76	-45.2	-46.5	24.9	6.02e-01	0	46	0	524288000	61	4336
2026-01-25 03:58:34.68	248.68	10.67	-45.2	-46.5	24.9	6.03e-01	0	46	0	525860864	61	4327
2026-01-25 03:58:35.69	248.61	10.58	-45.3	-46.6	24.8	6.00e-01	0	46	0	527958016	61	4390
2026-01-25 03:58:36.69	248.53	10.49	-45.4	-46.7	24.7	6.02e-01	0	46	0	530055168	61	4416
2026-01-25 03:58:37.70	248.45	10.40	-45.5	-46.8	24.6	6.03e-01	0	46	0	531628032	61	4468
2026-01-25 03:58:38.71	248.37	10.31	-45.4	-46.8	24.6	6.03e-01	0	46	0	533725184	61	4457
2026-01-25 03:58:39.71	248.29	10.22	-45.6	-46.9	24.5	6.02e-01	0	46	0	535298048	61	4521
2026-01-25 03:58:40.72	248.22	10.13	-45.6	-46.9	24.4	5.98e-01	0	46	0	537395200	61	4536
2026-01-25 03:58:41.73	248.14	10.05	-45.3	-46.6	24.7	6.01e-01	0	46	0	539492352	61	4381
2026-01-25 03:58:42.74	248.07	9.96	-45.3	-46.6	24.8	6.01e-01	0	46	0	541065216	61	4352
2026-01-25 03:58:43.75	247.99	9.87	-45.3	-46.6	24.7	6.00e-01	0	46	0	543162368	61	4364
2026-01-25 03:58:44.76	247.92	9.78	-45.3	-46.6	24.8	6.02e-01	0	46	0	545259520	61	4364
2026-01-25 03:58:45.76	247.84	9.70	-45.2	-46.5	24.8	6.00e-01	0	46	0	546832384	61	4330
2026-01-25 03:58:46.77	247.77	9.61	-45.2	-46.4	24.9	6.02e-01	0	46	0	548929536	61	4290
2026-01-25 03:58:47.78	247.69	9.52	-45.1	-46.3	25.0	6.03e-01	0	46	0	550502400	61	4240
2026-01-25 03:58:48.79	247.62	9.44	-45.5	-46.8	24.5	6.01e-01	0	46	0	552599552	61	4483
2026-01-25 03:58:49.79	247.55	9.35	-45.4	-46.7	24.5	6.02e-01	0	46	0	554172416	61	4434
2026-01-25 03:58:50.80	247.48	9.27	-45.1	-46.4	24.9	6.00e-01	0	46	0	556269568	61	4278
2026-01-25 03:58:51.81	247.41	9.18	-45.3	-46.6	24.6	6.03e-01	0	46	0	558366720	61	4368
2026-01-25 03:58:52.82	247.34	9.10	-45.4	-46.7	24.6	6.03e-01	0	46	0	559939584	61	4426
2026-01-25 03:58:53.83	247.27	9.01	-45.2	-46.5	24.8	6.02e-01	0	46	0	562036736	61	4303
2026-01-25 03:58:54.84	247.20	8.93	-45.4	-46.7	24.6	6.01e-01	0	46	0	563609600	61	4433
2026-01-25 03:58:55.85	247.13	8.84	-45.4	-46.7	24.5	6.02e-01	0	46	0	565706752	61	4433
2026-01-25 03:58:56.86	247.06	8.76	-45.4	-46.8	24.5	6.00e-01	0	46	0	567803904	61	4446
2026-01-25 03:58:57.87	246.99	8.68	-45.5	-46.9	24.4	6.02e-01	0	46	0	569376768	61	4499
2026-01-25 03:58:58.88	246.92	8.59	-45.4	-46.7	24.5	6.01e-01	0	46	0	571473920	61	4434
2026-01-25 03:58:59.89	246.85	8.51	-45.5	-46.8	24.5	6.00e-01	0	46	0	573571072	61	4464
2026-01-25 03:59:00.90	246.79	8.43	-45.5	-46.9	24.4	6.01e-01	0	46	0	575143936	61	4511
2026-01-25 03:59:01.91	246.72	8.35	-45.5	-46.9	24.3	6.02e-01	0	46	0	577241088	61	4515
2026-01-25 03:59:02.91	246.65	8.26	-45.6	-47.0	24.2	6.00e-01	0	46	0	578813952	61	4577
2026-01-25 03:59:03.92	246.59	8.18	-45.6	-47.0	24.2	6.03e-01	0	46	0	580911104	61	4569
2026-01-25 03:59:04.93	246.52	8.10	-45.8	-47.2	24.1	6.01e-01	0	46	0	582483968	62	4393
2026-01-25 03:59:05.94	246.46	8.02	-45.6	-47.0	24.3	5.99e-01	0	46	0	584581120	62	4294
2026-01-25 03:59:06.95	246.39	7.94	-45.6	-47.0	24.2	6.02e-01	0	46	0	586678272	62	4329
2026-01-25 03:59:07.96	246.33	7.86	-45.7	-47.0	24.2	6.02e-01	0	46	0	588775424	62	4338
2026-01-25 03:59:08.97	246.26	7.78	-45.8	-47.2	24.1	6.04e-01	0	46	0	590348288	62	4403
2026-01-25 03:59:09.97	246.20	7.70	-45.8	-47.2	24.1	6.00e-01	0	46	0	592445440	62	4404
2026-01-25 03:59:10.98	246.14	7.62	-46.1	-47.6	23.7	6.03e-01	0	46	0	594018304	62	4606
2026-01-25 03:59:11.99	246.07	7.54	-45.9	-47.4	23.9	6.02e-01	0	46	0	596115456	62	4496
2026-01-25 03:59:13.00	246.01	7.46	-46.1	-47.5	23.7	6.03e-01	0	46	0	597688320	62	4581
2026-01-25 03:59:14.01	245.95	7.38	-45.9	-47.3	23.9	5.99e-01	0	46	0	599785472	62	4486
2026-01-25 03:59:15.02	245.89	7.30	-45.7	-47.1	24.1	6.00e-01	0	46	0	601882624	62	4381
2026-01-25 03:59:16.03	245.83	7.22	-46.1	-47.5	23.6	6.02e-01	0	46	0	603455488	62	4598
2026-01-25 03:59:17.04	245.77	7.14	-46.3	-47.7	23.5	6.02e-01	0	46	0	605552640	63	4441
2026-01-25 03:59:18.05	245.71	7.06	-46.1	-47.6	23.6	6.03e-01	0	45	0	607649792	63	4341
2026-01-25 03:59:19.06	245.65	6.98	-46.0	-47.4	23.8	6.01e-01	0	46	0	609222656	63	4264
2026-01-25 03:59:20.07	245.59	6.91	-46.1	-47.6	23.6	6.01e-01	0	46	0	611319808	63	4380
2026-01-25 03:59:21.08	245.53	6.83	-46.0	-47.5	23.7	6.02e-01	0	46	0	612892672	63	4308
2026-01-25 03:59:22.09	245.47	6.75	-46.1	-47.6	23.6	6.01e-01	0	46	0	614989824	63	4369
2026-01-25 03:59:23.09	245.41	6.67	-46.0	-47.5	23.7	6.00e-01	0	46	0	617086976	63	4318
2026-01-25 03:59:24.10	245.35	6.60	-46.1	-47.6	23.5	6.02e-01	0	46	0	618659840	63	4366
2026-01-25 03:59:25.11	245.29	6.52	-46.2	-47.7	23.5	5.99e-01	0	46	0	620756992	63	4417
2026-01-25 03:59:26.12	245.24	6.44	-46.3	-47.8	23.4	6.02e-01	0	46	0	622329856	63	4453
2026-01-25 03:59:27.13	245.18	6.37	-46.3	-47.8	23.3	6.02e-01	0	46	0	624427008	63	4468
2026-01-25 03:59:28.13	245.12	6.29	-46.2	-47.7	23.4	6.00e-01	0	46	0	625999872	63	4440
2026-01-25 03:59:29.14	245.07	6.22	-46.5	-48.1	23.0	6.03e-01	0	46	0	628097024	63	4618
2026-01-25 03:59:30.15	245.01	6.14	-46.1	-47.6	23.5	6.01e-01	0	46	0	630194176	63	4373
2026-01-25 03:59:31.16	244.95	6.06	-46.6	-48.2	22.8	6.02e-01	0	46	0	632291328	64	4405
2026-01-25 03:59:32.17	244.90	5.99	-46.1	-47.6	23.4	6.02e-01	0	46	0	633864192	64	4108
2026-01-25 03:59:33.18	244.84	5.91	-46.3	-47.8	23.2	6.01e-01	0	46	0	635961344	64	4213
2026-01-25 03:59:34.19	244.79	5.84	-46.2	-47.8	23.2	6.01e-01	0	46	0	637534208	64	4197
2026-01-25 03:59:35.19	244.73	5.76	-46.2	-47.7	23.3	6.01e-01	0	46	0	639631360	64	4169
2026-01-25 03:59:36.20	244.68	5.69	-46.2	-47.8	23.2	6.03e-01	0	46	0	641204224	64	4205
2026-01-25 03:59:37.21	244.63	5.62	-46.4	-48.0	23.0	6.02e-01	0	46	0	643301376	64	4308
2026-01-25 03:59:38.22	244.57	5.54	-46.4	-48.0	22.9	6.00e-01	0	46	0	645398528	64	4312
2026-01-25 03:59:39.23	244.52	5.47	-46.3	-47.9	23.1	6.01e-01	0	46	0	646971392	64	4259
2026-01-25 03:59:40.23	244.47	5.40	-46.3	-47.9	23.0	6.05e-01	0	46	0	649068544	64	4263
2026-01-25 03:59:41.24	244.41	5.32	-46.4	-47.9	23.0	6.00e-01	0	46	0	650641408	64	4273
2026-01-25 03:59:42.25	244.36	5.25	-46.3	-47.9	23.0	6.02e-01	0	46	0	652738560	64	4258
2026-01-25 03:59:43.26	244.31	5.18	-46.5	-48.1	22.8	6.02e-01	0	46	0	654835712	64	4361
2026-01-25 03:59:44.27	244.26	5.10	-46.2	-47.8	23.1	6.01e-01	0	46	0	656408576	64	4209
2026-01-25 03:59:45.28	244.21	5.03	-46.4	-48.0	22.9	6.01e-01	0	46	0	658505728	64	4337
2026-01-25 03:59:46.29	244.16	4.96	-54.4	-72.1	3.8	7.45e-01	0	46	104	659554304	79	29344
2026-01-25 03:59:47.30	244.10	4.89	-54.8	-72.6	3.8	7.47e-01	0	46	104	659554304	80	29093
2026-01-25 03:59:48.31	244.05	4.81	-55.0	-72.8	3.8	7.46e-01	0	46	104	659554304	80	29763
2026-01-25 03:59:49.31	244.00	4.74	-55.1	-72.9	3.8	7.44e-01	0	46	104	659554304	80	30201
2026-01-25 03:59:50.32	243.95	4.67	-55.2	-73.0	3.8	7.42e-01	0	46	104	659554304	80	30674
2026-01-25 03:59:51.33	243.90	4.60	-55.3	-73.1	3.8	7.47e-01	0	46	104	659554304	81	29328
2026-01-25 03:59:52.34	243.86	4.53	-55.4	-73.3	3.8	7.44e-01	0	46	104	659554304	81	29693
2026-01-25 03:59:53.35	243.81	4.46	-55.5	-73.3	3.8	7.46e-01	0	46	104	659554304	81	29919
2026-01-25 03:59:54.35	243.76	4.39	-55.6	-73.4	3.8	7.48e-01	0	46	104	659554304	81	30122
2026-01-25 03:59:55.36	243.71	4.32	-55.6	-73.5	3.8	7.43e-01	0	46	104	659554304	81	30427
2026-01-25 03:59:56.37	243.66	4.25	-55.6	-73.5	3.8	7.45e-01	0	46	104	659554304	81	30433
2026-01-25 03:59:57.38	243.61	4.18	-55.7	-73.5	3.8	7.46e-01	0	46	104	659554304	81	30642
2026-01-25 03:59:58.39	243.56	4.11	-55.7	-73.5	3.8	7.43e-01	0	46	104	659554304	81	30682
2026-01-25 03:59:59.39	243.52	4.04	-55.7	-73.6	3.8	7.42e-01	0	46	104	659554304	82	29143
2026-01-25 04:00:00.40	243.47	3.97	-55.7	-73.6	3.8	7.45e-01	0	46	104	659554304	82	29063
2026-01-25 04:00:01.41	243.42	3.90	-55.7	-73.6	3.8	7.46e-01	0	46	104	659554304	82	29070
2026-01-25 04:00:02.42	243.38	3.83	-55.7	-73.5	3.8	7.44e-01	0	46	104	659554304	82	28984
2026-01-25 04:00:03.43	243.33	3.76	-55.7	-73.5	3.8	7.46e-01	0	46	104	659554304	82	28959
2026-01-25 04:00:04.44	243.28	3.69	-55.7	-73.5	3.8	7.43e-01	0	46	104	659554304	82	28940
2026-01-25 04:00:05.44	243.24	3.62	-55.7	-73.5	3.8	7.47e-01	0	46	104	659554304	82	28811
2026-01-25 04:00:06.45	243.19	3.55	-55.6	-73.5	3.8	7.42e-01	0	46	104	659554304	82	28731
2026-01-25 04:00:07.46	243.15	3.48	-55.6	-73.4	3.8	7.45e-01	0	46	104	659554304	82	28664
2026-01-25 04:00:08.47	243.10	3.42	-55.6	-73.4	3.8	7.45e-01	0	46	104	659554304	82	28512
2026-01-25 04:00:09.48	243.06	3.35	-55.5	-73.4	3.8	7.41e-01	0	46	104	659554304	82	28411
2026-01-25 04:00:10.49	243.01	3.28	-55.5	-73.4	3.8	7.48e-01	0	46	104	659554304	82	28356
