passes_logs/2026/01/25/R3.2S_Murmansk/R3.2S_Murmansk__20260125_023442_NOAA_21_JPSS-2_rec.log

#Pass ID: 20260125_023442_NOAA 21 (JPSS-2)
#Satellite: NOAA 21 (JPSS-2)
#Configuration: NOAA-21
#almurnet v.1.7.20251203
#Start time: 2026-01-25 02:34:43

#Version: 2.2.20231116
#Station: R3.2S_Murmansk
#Location: 33.079688 lon 68.888172 lat
#TLE: 1 54234U 22150A   26024.45772595  .00000201  00000+0  11607-3 0  9996
#TLE: 2 54234  98.7508 325.2435 0000728 220.7365 139.3757 14.19538765166156

#Time	Az	El	Level	Level2	SNR	BER	BlckErr	Temp	State	Recorded	gain1	gain2
2026-01-25 02:34:43.34	34.44	2.03	-52.1	-64.8	3.8	1.49e+00	0	42	0	0	76	14951
2026-01-25 02:34:44.35	34.40	2.09	-52.1	-64.8	3.8	1.49e+00	0	42	104	0	74	16873
2026-01-25 02:34:45.36	34.36	2.15	-52.1	-64.8	3.8	1.49e+00	0	42	104	0	74	16843
2026-01-25 02:34:46.37	34.32	2.21	-52.1	-64.8	3.8	1.49e+00	0	42	104	0	74	16816
2026-01-25 02:34:47.38	34.28	2.27	-52.1	-64.8	3.8	1.49e+00	0	42	104	0	74	16809
2026-01-25 02:34:48.39	34.24	2.34	-52.1	-64.8	3.8	1.49e+00	0	42	104	0	74	16811
2026-01-25 02:34:49.39	34.20	2.40	-52.1	-64.8	3.8	1.49e+00	0	42	104	0	74	16810
2026-01-25 02:34:50.40	34.15	2.46	-52.1	-64.8	3.8	1.49e+00	0	42	104	0	74	16772
2026-01-25 02:34:51.41	34.11	2.52	-52.1	-64.8	3.8	1.49e+00	0	42	104	0	74	16729
2026-01-25 02:34:52.42	34.07	2.59	-52.1	-64.8	3.8	1.49e+00	0	42	104	0	74	16796
2026-01-25 02:34:53.43	34.03	2.65	-52.1	-64.8	3.8	1.49e+00	0	42	104	0	74	16713
2026-01-25 02:34:54.43	33.99	2.71	-52.1	-64.8	3.8	1.49e+00	0	42	104	0	74	16706
2026-01-25 02:34:55.44	33.95	2.77	-52.1	-64.7	3.8	1.49e+00	0	43	104	0	74	16683
2026-01-25 02:34:56.45	33.90	2.84	-52.1	-64.7	3.8	1.49e+00	0	42	104	0	74	16555
2026-01-25 02:34:57.46	33.86	2.90	-52.1	-64.7	3.8	1.49e+00	0	43	104	0	74	16594
2026-01-25 02:34:58.47	33.82	2.96	-52.1	-64.7	3.8	1.49e+00	0	43	104	0	74	16575
2026-01-25 02:34:59.48	33.78	3.03	-52.1	-64.7	3.8	1.49e+00	0	43	104	0	74	16604
2026-01-25 02:35:00.49	33.73	3.09	-52.1	-64.7	3.8	1.49e+00	0	43	104	0	74	16625
2026-01-25 02:35:01.49	33.69	3.15	-52.1	-64.7	3.8	1.49e+00	0	43	104	0	74	16553
2026-01-25 02:35:02.50	33.65	3.22	-52.1	-64.6	3.8	1.49e+00	0	43	104	0	74	16448
2026-01-25 02:35:03.51	33.60	3.28	-52.1	-64.6	3.8	1.49e+00	0	43	104	0	74	16342
2026-01-25 02:35:04.52	33.56	3.35	-52.0	-64.6	3.8	1.49e+00	0	43	104	0	74	16332
2026-01-25 02:35:05.53	33.51	3.41	-52.1	-64.6	3.8	1.49e+00	0	43	104	0	74	16352
2026-01-25 02:35:06.53	33.47	3.48	-52.1	-64.7	3.8	1.49e+00	0	43	104	0	74	16579
2026-01-25 02:35:07.54	33.43	3.54	-52.1	-64.8	3.8	1.49e+00	0	43	104	0	74	16773
2026-01-25 02:35:08.55	33.38	3.61	-52.1	-64.8	3.8	1.49e+00	0	43	104	0	74	16710
2026-01-25 02:35:09.56	33.34	3.67	-52.1	-64.5	3.8	1.49e+00	0	43	104	0	74	16225
2026-01-25 02:35:10.56	33.29	3.73	-52.0	-64.0	3.8	1.49e+00	0	43	104	0	74	15331
2026-01-25 02:35:11.57	33.25	3.80	-52.0	-63.6	3.8	1.49e+00	0	43	104	0	74	14692
2026-01-25 02:35:12.58	33.20	3.87	-51.9	-62.4	4.0	1.48e+00	0	43	104	0	74	12741
2026-01-25 02:35:13.59	33.15	3.93	-51.8	-62.0	4.0	1.48e+00	0	43	104	0	74	12133
2026-01-25 02:35:14.60	33.11	4.00	-51.8	-61.7	4.1	1.48e+00	0	43	104	0	74	11781
2026-01-25 02:35:15.60	33.06	4.06	-51.7	-60.8	4.3	1.46e+00	0	43	104	0	74	10604
2026-01-25 02:35:16.61	33.02	4.13	-51.6	-60.3	4.5	1.39e+00	6	43	104	0	74	10002
2026-01-25 02:35:17.62	32.97	4.19	-51.4	-58.9	5.2	5.48e-01	0	43	0	1048576	74	8469
2026-01-25 02:35:18.63	32.92	4.26	-51.1	-57.6	6.1	3.63e-01	0	43	0	4194304	74	7363
2026-01-25 02:35:19.64	32.88	4.33	-50.6	-55.6	7.8	9.62e-02	0	43	0	7340032	73	6192
2026-01-25 02:35:20.65	32.83	4.39	-49.8	-53.7	9.8	1.17e-02	0	43	0	10485760	71	5578
2026-01-25 02:35:21.66	32.78	4.46	-49.4	-52.8	10.8	4.72e-03	0	43	0	13631488	70	5308
2026-01-25 02:35:22.67	32.73	4.53	-48.1	-50.6	13.2	3.07e-04	0	43	0	16777216	68	4600
2026-01-25 02:35:23.67	32.68	4.59	-47.6	-49.8	13.9	1.06e-05	0	43	0	19922944	67	4477
2026-01-25 02:35:24.68	32.64	4.66	-47.0	-49.0	14.7	0.00e+00	0	43	0	23068672	66	4314
2026-01-25 02:35:25.69	32.59	4.73	-46.4	-48.1	15.5	0.00e+00	0	43	0	26214400	64	4375
2026-01-25 02:35:26.70	32.54	4.79	-46.0	-47.6	16.1	0.00e+00	0	43	0	29360128	63	4377
2026-01-25 02:35:27.71	32.49	4.86	-45.7	-47.2	16.6	0.00e+00	0	43	0	32505856	63	4148
2026-01-25 02:35:28.71	32.44	4.93	-45.8	-47.3	16.4	0.00e+00	0	43	0	35651584	63	4223
2026-01-25 02:35:29.72	32.39	5.00	-45.5	-47.0	16.8	0.00e+00	0	43	0	38797312	62	4296
2026-01-25 02:35:30.73	32.34	5.06	-47.3	-49.4	14.4	0.00e+00	0	43	0	41943040	65	4784
2026-01-25 02:35:31.74	32.29	5.13	-47.2	-49.3	14.5	3.00e-06	0	43	0	45088768	66	4452
2026-01-25 02:35:32.75	32.24	5.20	-48.2	-50.9	13.0	0.00e+00	0	43	0	48234496	66	5344
2026-01-25 02:35:33.75	32.19	5.27	-45.1	-46.4	17.4	0.00e+00	0	43	0	51380224	62	4034
2026-01-25 02:35:34.76	32.14	5.34	-49.5	-53.1	10.9	0.00e+00	0	43	0	54525952	69	5828
2026-01-25 02:35:35.77	32.09	5.41	-45.0	-46.2	17.4	6.00e-04	0	43	0	57671680	62	3948
2026-01-25 02:35:36.78	32.04	5.47	-45.0	-46.3	17.5	0.00e+00	0	43	0	60817408	61	4206
2026-01-25 02:35:37.79	31.98	5.54	-44.9	-46.2	17.6	0.00e+00	0	43	0	63963136	61	4190
2026-01-25 02:35:38.80	31.93	5.61	-44.5	-45.8	18.1	0.00e+00	0	43	0	67108864	61	3972
2026-01-25 02:35:39.81	31.88	5.68	-44.5	-45.8	18.1	0.00e+00	0	43	0	70254592	61	3961
2026-01-25 02:35:40.81	31.83	5.75	-44.3	-45.5	18.3	0.00e+00	0	43	0	73400320	60	4092
2026-01-25 02:35:41.82	31.78	5.82	-44.3	-45.5	18.4	0.00e+00	0	43	0	76546048	60	4053
2026-01-25 02:35:42.83	31.72	5.89	-45.1	-46.4	17.5	0.00e+00	0	43	0	79691776	60	4514
2026-01-25 02:35:43.84	31.67	5.96	-44.3	-45.5	18.4	0.00e+00	0	43	0	82837504	60	4055
2026-01-25 02:35:44.85	31.62	6.03	-44.4	-45.6	18.2	0.00e+00	0	43	0	85983232	60	4132
2026-01-25 02:35:45.86	31.56	6.10	-44.7	-45.9	17.9	0.00e+00	0	43	0	89128960	60	4287
2026-01-25 02:35:46.87	31.51	6.17	-44.6	-45.9	18.0	0.00e+00	0	44	0	92274688	60	4256
2026-01-25 02:35:47.87	31.45	6.24	-44.6	-45.8	18.1	0.00e+00	0	43	0	95420416	60	4235
2026-01-25 02:35:48.88	31.40	6.31	-44.4	-45.6	18.3	0.00e+00	0	43	0	98566144	60	4116
2026-01-25 02:35:49.89	31.34	6.38	-44.5	-45.7	18.2	0.00e+00	0	43	0	101711872	60	4163
2026-01-25 02:35:50.90	31.29	6.45	-44.4	-45.6	18.3	0.00e+00	0	43	0	104857600	60	4114
2026-01-25 02:35:51.91	31.23	6.53	-44.4	-45.6	18.3	0.00e+00	0	43	0	108003328	60	4119
2026-01-25 02:35:52.91	31.18	6.60	-44.4	-45.6	18.3	0.00e+00	0	43	0	111149056	60	4131
2026-01-25 02:35:53.92	31.12	6.67	-44.5	-45.7	18.3	0.00e+00	0	43	0	114294784	60	4180
2026-01-25 02:35:54.93	31.07	6.74	-44.5	-45.7	18.3	0.00e+00	0	44	0	117440512	60	4160
2026-01-25 02:35:55.94	31.01	6.81	-44.2	-45.4	18.6	0.00e+00	0	43	0	120586240	60	4037
2026-01-25 02:35:56.95	30.95	6.88	-44.5	-45.7	18.3	0.00e+00	0	44	0	123731968	60	4155
2026-01-25 02:35:57.96	30.89	6.96	-44.3	-45.5	18.5	0.00e+00	0	44	0	126877696	60	4058
2026-01-25 02:35:58.96	30.84	7.03	-44.4	-45.6	18.5	0.00e+00	0	43	0	130023424	60	4099
2026-01-25 02:35:59.97	30.78	7.10	-44.3	-45.5	18.5	0.00e+00	0	43	0	133169152	60	4086
2026-01-25 02:36:00.98	30.72	7.17	-44.1	-45.3	18.8	0.00e+00	0	44	0	136314880	60	3970
2026-01-25 02:36:01.99	30.66	7.25	-44.4	-45.6	18.5	0.00e+00	0	44	0	139460608	60	4124
2026-01-25 02:36:03.00	30.60	7.32	-44.4	-45.6	18.5	0.00e+00	0	44	0	142606336	60	4118
2026-01-25 02:36:04.01	30.54	7.39	-44.0	-45.1	18.9	0.00e+00	0	44	0	145752064	60	3906
2026-01-25 02:36:05.01	30.49	7.47	-44.1	-45.2	18.9	0.00e+00	0	44	0	148897792	60	3928
2026-01-25 02:36:06.02	30.43	7.54	-44.1	-45.3	18.8	0.00e+00	0	43	0	152043520	60	3968
2026-01-25 02:36:07.03	30.37	7.61	-44.0	-45.1	19.0	0.00e+00	0	44	0	155189248	60	3887
2026-01-25 02:36:08.04	30.30	7.69	-44.4	-45.6	18.8	0.00e+00	0	44	0	158334976	59	4343
2026-01-25 02:36:09.05	30.24	7.76	-44.4	-45.6	18.8	0.00e+00	0	44	0	161480704	59	4359
2026-01-25 02:36:10.06	30.18	7.84	-44.4	-45.5	18.9	0.00e+00	0	44	0	164626432	59	4334
2026-01-25 02:36:11.07	30.12	7.91	-44.1	-45.3	19.2	0.00e+00	0	44	0	167772160	59	4196
2026-01-25 02:36:12.08	30.06	7.99	-44.1	-45.2	19.2	0.00e+00	0	44	0	170917888	59	4168
2026-01-25 02:36:13.09	30.00	8.06	-44.1	-45.2	19.2	0.00e+00	0	44	0	174063616	59	4182
2026-01-25 02:36:14.10	29.93	8.14	-44.0	-45.1	19.3	0.00e+00	0	44	0	177209344	59	4122
2026-01-25 02:36:15.11	29.87	8.21	-44.0	-45.1	19.3	0.00e+00	0	44	0	180355072	59	4130
2026-01-25 02:36:16.11	29.81	8.29	-44.0	-45.1	19.3	0.00e+00	0	44	0	183500800	59	4122
2026-01-25 02:36:17.12	29.75	8.36	-44.0	-45.1	19.3	0.00e+00	0	44	0	186646528	59	4122
2026-01-25 02:36:18.13	29.68	8.44	-43.9	-44.9	19.5	0.00e+00	0	44	0	189792256	59	4046
2026-01-25 02:36:19.14	29.62	8.52	-44.0	-45.1	19.4	0.00e+00	0	44	0	192937984	59	4099
2026-01-25 02:36:20.15	29.55	8.59	-44.0	-45.1	19.4	0.00e+00	0	44	0	196083712	59	4110
2026-01-25 02:36:21.16	29.49	8.67	-44.0	-45.1	19.3	0.00e+00	0	44	0	199229440	59	4133
2026-01-25 02:36:22.17	29.42	8.74	-44.0	-45.1	19.4	0.00e+00	0	44	0	202375168	59	4101
2026-01-25 02:36:23.18	29.36	8.82	-43.9	-45.0	19.5	0.00e+00	0	44	0	205520896	59	4057
2026-01-25 02:36:24.19	29.29	8.90	-43.8	-44.9	19.6	0.00e+00	0	44	0	208666624	59	4014
2026-01-25 02:36:25.19	29.23	8.98	-43.8	-44.9	19.5	0.00e+00	0	44	0	211812352	59	4030
2026-01-25 02:36:26.20	29.16	9.05	-43.7	-44.7	19.8	0.00e+00	0	44	0	214958080	59	3931
2026-01-25 02:36:27.21	29.09	9.13	-43.9	-45.0	19.5	0.00e+00	0	44	0	218103808	59	4063
2026-01-25 02:36:28.22	29.02	9.21	-43.8	-44.8	19.7	0.00e+00	0	44	0	221249536	59	3986
2026-01-25 02:36:29.23	28.96	9.29	-43.8	-44.8	19.7	0.00e+00	0	44	0	224395264	59	3985
2026-01-25 02:36:30.24	28.89	9.37	-43.7	-44.7	19.8	0.00e+00	0	44	0	227540992	59	3941
2026-01-25 02:36:31.25	28.82	9.44	-43.7	-44.8	19.7	0.00e+00	0	44	0	230686720	59	3968
2026-01-25 02:36:32.26	28.75	9.52	-43.6	-44.7	19.9	0.00e+00	0	44	0	233832448	59	3924
2026-01-25 02:36:33.27	28.68	9.60	-43.7	-44.7	19.8	0.00e+00	0	44	0	236978176	59	3952
2026-01-25 02:36:34.28	28.61	9.68	-43.6	-44.6	19.9	0.00e+00	0	44	0	240123904	59	3886
2026-01-25 02:36:35.29	28.54	9.76	-43.6	-44.6	19.9	0.00e+00	0	44	0	243269632	59	3892
2026-01-25 02:36:36.30	28.47	9.84	-43.6	-44.6	19.9	0.00e+00	0	44	0	246415360	59	3886
2026-01-25 02:36:37.31	28.40	9.92	-43.6	-44.6	19.9	0.00e+00	0	44	0	249561088	59	3904
2026-01-25 02:36:38.32	28.33	10.00	-43.4	-44.4	20.1	0.00e+00	0	44	0	252706816	58	4037
2026-01-25 02:36:39.33	28.25	10.08	-43.3	-44.3	20.2	0.00e+00	0	44	0	255852544	58	3987
2026-01-25 02:36:40.34	28.18	10.16	-43.3	-44.3	20.2	0.00e+00	0	44	0	258998272	58	3961
2026-01-25 02:36:41.35	28.11	10.24	-43.3	-44.3	20.2	0.00e+00	0	44	0	263192576	58	3965
2026-01-25 02:36:42.35	28.04	10.32	-43.4	-44.4	20.2	0.00e+00	0	44	0	266338304	58	4007
2026-01-25 02:36:43.36	27.96	10.40	-43.3	-44.3	20.2	0.00e+00	0	44	0	269484032	58	3990
2026-01-25 02:36:44.37	27.89	10.48	-43.2	-44.2	20.3	0.00e+00	0	44	0	272629760	58	3915
2026-01-25 02:36:45.38	27.81	10.57	-43.2	-44.2	20.3	0.00e+00	0	44	0	274726912	58	3941
2026-01-25 02:36:46.39	27.74	10.65	-43.3	-44.2	20.3	0.00e+00	0	44	0	277872640	58	3949
2026-01-25 02:36:47.39	27.67	10.73	-43.1	-44.1	20.4	0.00e+00	0	44	0	281018368	58	3887
2026-01-25 02:36:48.40	27.59	10.81	-43.3	-44.2	20.2	0.00e+00	0	44	0	284164096	58	3949
2026-01-25 02:36:49.41	27.51	10.89	-43.2	-44.1	20.4	0.00e+00	0	44	0	287309824	58	3905
2026-01-25 02:36:50.42	27.44	10.98	-43.0	-44.0	20.5	0.00e+00	0	44	0	290455552	58	3845
2026-01-25 02:36:51.43	27.36	11.06	-43.1	-44.1	20.4	0.00e+00	0	44	0	293601280	58	3883
2026-01-25 02:36:52.43	27.28	11.14	-43.1	-44.0	20.5	0.00e+00	0	44	0	296747008	58	3868
2026-01-25 02:36:53.44	27.20	11.23	-43.1	-44.1	20.4	0.00e+00	0	44	0	300941312	58	3884
2026-01-25 02:36:54.45	27.13	11.31	-43.1	-44.1	20.5	0.00e+00	0	44	0	304087040	58	3875
2026-01-25 02:36:55.46	27.05	11.39	-43.1	-44.1	20.5	0.00e+00	0	44	0	307232768	58	3896
2026-01-25 02:36:56.47	26.97	11.48	-43.1	-44.0	20.6	0.00e+00	0	44	0	310378496	58	3858
2026-01-25 02:36:57.48	26.89	11.56	-43.1	-44.0	20.6	0.00e+00	0	44	0	313524224	58	3857
2026-01-25 02:36:58.49	26.81	11.65	-43.1	-44.1	20.5	0.00e+00	0	44	0	316669952	58	3885
2026-01-25 02:36:59.49	26.73	11.73	-43.0	-43.9	20.6	0.00e+00	0	44	0	319815680	58	3822
2026-01-25 02:37:00.50	26.64	11.81	-42.9	-43.8	20.7	0.00e+00	0	44	0	321912832	57	4003
2026-01-25 02:37:01.51	26.56	11.90	-43.0	-43.9	20.6	0.00e+00	0	44	0	325058560	57	4042
2026-01-25 02:37:02.52	26.48	11.98	-43.0	-44.0	20.6	0.00e+00	0	44	0	328204288	57	4058
2026-01-25 02:37:03.53	26.40	12.07	-42.8	-43.7	20.8	0.00e+00	0	44	0	331350016	57	3958
2026-01-25 02:37:04.53	26.32	12.16	-42.8	-43.7	20.8	0.00e+00	0	44	0	334495744	57	3952
2026-01-25 02:37:05.54	26.23	12.24	-42.7	-43.6	20.9	0.00e+00	0	44	0	338690048	57	3890
2026-01-25 02:37:06.55	26.15	12.33	-42.6	-43.5	21.0	0.00e+00	0	44	0	341835776	57	3860
2026-01-25 02:37:07.56	26.06	12.42	-42.7	-43.6	21.0	0.00e+00	0	44	0	344981504	57	3879
2026-01-25 02:37:08.57	25.98	12.50	-42.7	-43.6	20.9	0.00e+00	0	44	0	348127232	57	3906
2026-01-25 02:37:09.58	25.89	12.59	-42.7	-43.6	21.0	0.00e+00	0	44	0	351272960	57	3878
2026-01-25 02:37:10.59	25.80	12.68	-42.7	-43.7	20.9	0.00e+00	0	44	0	354418688	57	3915
2026-01-25 02:37:11.59	25.72	12.76	-42.6	-43.5	21.0	0.00e+00	0	44	0	357564416	57	3862
2026-01-25 02:37:12.60	25.63	12.85	-42.6	-43.6	21.0	0.00e+00	0	44	0	360710144	57	3875
2026-01-25 02:37:13.61	25.54	12.94	-42.7	-43.6	21.0	0.00e+00	0	44	0	363855872	57	3878
2026-01-25 02:37:14.62	25.45	13.03	-42.7	-43.6	20.9	0.00e+00	0	44	0	367001600	57	3900
2026-01-25 02:37:15.63	25.36	13.12	-42.7	-43.6	20.9	0.00e+00	0	44	0	369098752	57	3910
2026-01-25 02:37:16.64	25.27	13.21	-42.6	-43.5	21.0	0.00e+00	0	44	0	373293056	57	3867
2026-01-25 02:37:17.65	25.18	13.29	-42.7	-43.6	21.0	0.00e+00	0	44	0	376438784	57	3872
2026-01-25 02:37:18.66	25.09	13.38	-42.7	-43.6	21.0	0.00e+00	0	44	0	379584512	57	3884
2026-01-25 02:37:19.67	25.00	13.47	-42.6	-43.5	21.1	0.00e+00	0	44	0	382730240	57	3853
2026-01-25 02:37:20.68	24.91	13.56	-42.5	-43.4	21.1	0.00e+00	0	44	0	385875968	57	3817
2026-01-25 02:37:21.69	24.82	13.65	-42.6	-43.5	21.1	0.00e+00	0	44	0	389021696	57	3846
2026-01-25 02:37:22.69	24.72	13.74	-42.6	-43.5	21.1	0.00e+00	0	44	0	392167424	57	3845
2026-01-25 02:37:23.70	24.63	13.83	-42.5	-43.4	21.2	0.00e+00	0	44	0	395313152	56	4024
2026-01-25 02:37:24.71	24.54	13.92	-42.6	-43.5	21.1	0.00e+00	0	44	0	398458880	56	4071
2026-01-25 02:37:25.72	24.44	14.02	-42.6	-43.4	21.2	0.00e+00	0	44	0	401604608	56	4048
2026-01-25 02:37:26.73	24.34	14.11	-42.4	-43.3	21.2	0.00e+00	0	44	0	404750336	56	3991
2026-01-25 02:37:27.74	24.25	14.20	-42.5	-43.4	21.2	0.00e+00	0	44	0	407896064	56	4033
2026-01-25 02:37:28.75	24.15	14.29	-42.5	-43.3	21.3	0.00e+00	0	44	0	411041792	56	4003
2026-01-25 02:37:29.75	24.05	14.38	-42.5	-43.4	21.2	0.00e+00	0	44	0	414187520	56	4014
2026-01-25 02:37:30.76	23.96	14.47	-42.6	-43.4	21.2	0.00e+00	0	44	0	417333248	56	4049
2026-01-25 02:37:31.77	23.86	14.57	-42.6	-43.4	21.2	0.00e+00	0	44	0	420478976	56	4048
2026-01-25 02:37:32.78	23.76	14.66	-42.5	-43.4	21.2	0.00e+00	0	44	0	423624704	56	4030
2026-01-25 02:37:33.79	23.66	14.75	-42.6	-43.5	21.1	0.00e+00	0	44	0	426770432	56	4090
2026-01-25 02:37:34.80	23.56	14.85	-42.7	-43.6	21.0	0.00e+00	0	44	0	429916160	56	4118
2026-01-25 02:37:35.81	23.46	14.94	-42.7	-43.6	21.1	0.00e+00	0	44	0	433061888	56	4111
2026-01-25 02:37:36.81	23.35	15.03	-42.6	-43.5	21.1	0.00e+00	0	44	0	436207616	56	4079
2026-01-25 02:37:37.82	23.25	15.13	-42.7	-43.6	21.1	0.00e+00	0	44	0	439353344	56	4113
2026-01-25 02:37:38.83	23.15	15.22	-42.6	-43.5	21.1	0.00e+00	0	44	0	442499072	56	4098
2026-01-25 02:37:39.84	23.04	15.32	-42.7	-43.6	21.1	0.00e+00	0	44	0	445644800	56	4101
2026-01-25 02:37:40.85	22.94	15.41	-42.6	-43.5	21.2	0.00e+00	0	44	0	448790528	56	4074
2026-01-25 02:37:41.86	22.83	15.51	-42.7	-43.6	21.1	0.00e+00	0	44	0	451936256	56	4103
2026-01-25 02:37:42.87	22.73	15.60	-42.8	-43.7	21.1	0.00e+00	0	44	0	455081984	56	4153
2026-01-25 02:37:43.88	22.62	15.70	-42.6	-43.5	21.2	0.00e+00	0	44	0	458227712	56	4083
2026-01-25 02:37:44.89	22.51	15.80	-42.6	-43.5	21.2	0.00e+00	0	44	0	461373440	56	4092
2026-01-25 02:37:45.90	22.40	15.89	-42.6	-43.5	21.2	0.00e+00	0	44	0	464519168	56	4074
2026-01-25 02:37:46.91	22.30	15.99	-42.7	-43.6	21.1	0.00e+00	0	44	0	467664896	56	4106
2026-01-25 02:37:47.91	22.19	16.09	-42.7	-43.6	21.1	0.00e+00	0	44	0	470810624	56	4130
2026-01-25 02:37:48.92	22.08	16.18	-42.8	-43.7	21.0	0.00e+00	0	44	0	473956352	56	4172
2026-01-25 02:37:49.93	21.97	16.28	-42.8	-43.7	21.0	0.00e+00	0	44	0	477102080	56	4152
2026-01-25 02:37:50.94	21.85	16.38	-42.8	-43.7	21.0	0.00e+00	0	44	0	480247808	56	4156
2026-01-25 02:37:51.95	21.74	16.48	-42.8	-43.7	21.0	0.00e+00	0	44	0	483393536	56	4184
2026-01-25 02:37:52.96	21.63	16.58	-42.7	-43.6	21.1	0.00e+00	0	44	0	486539264	56	4138
2026-01-25 02:37:53.97	21.51	16.67	-42.7	-43.6	21.2	0.00e+00	0	44	0	489684992	56	4105
2026-01-25 02:37:54.98	21.40	16.77	-42.8	-43.7	21.1	0.00e+00	0	44	0	492830720	56	4146
2026-01-25 02:37:55.99	21.28	16.87	-42.8	-43.8	21.0	0.00e+00	0	44	0	495976448	56	4194
2026-01-25 02:37:57.00	21.17	16.97	-42.9	-43.8	21.0	0.00e+00	0	44	0	499122176	56	4203
2026-01-25 02:37:58.01	21.05	17.07	-42.8	-43.7	21.0	0.00e+00	0	44	0	502267904	56	4185
2026-01-25 02:37:59.01	20.93	17.17	-42.9	-43.8	20.9	0.00e+00	0	44	0	505413632	56	4241
2026-01-25 02:38:00.02	20.81	17.27	-42.9	-43.8	21.0	0.00e+00	0	44	0	508559360	56	4196
2026-01-25 02:38:01.03	20.69	17.37	-42.8	-43.7	21.0	0.00e+00	0	44	0	511705088	56	4189
2026-01-25 02:38:02.04	20.57	17.47	-42.8	-43.7	21.1	0.00e+00	0	44	0	514850816	56	4170
2026-01-25 02:38:03.05	20.45	17.57	-42.9	-43.8	21.0	0.00e+00	0	44	0	517996544	56	4224
2026-01-25 02:38:04.06	20.33	17.68	-42.8	-43.7	21.1	0.00e+00	0	44	0	521142272	56	4168
2026-01-25 02:38:05.07	20.20	17.78	-42.8	-43.6	21.1	0.00e+00	0	44	0	524288000	56	4142
2026-01-25 02:38:06.08	20.08	17.88	-42.7	-43.6	21.2	0.00e+00	0	44	0	527433728	56	4121
2026-01-25 02:38:07.09	19.96	17.98	-43.1	-44.0	20.8	0.00e+00	0	44	0	530579456	56	4312
2026-01-25 02:38:08.10	19.83	18.08	-42.6	-43.5	21.3	0.00e+00	0	44	0	533725184	56	4076
2026-01-25 02:38:09.11	19.70	18.19	-42.7	-43.6	21.2	0.00e+00	0	44	0	536870912	56	4104
2026-01-25 02:38:10.11	19.58	18.29	-42.6	-43.5	21.3	0.00e+00	0	44	0	540016640	56	4055
2026-01-25 02:38:11.12	19.45	18.39	-42.6	-43.5	21.3	0.00e+00	0	44	0	543162368	56	4063
2026-01-25 02:38:12.13	19.32	18.50	-42.8	-43.6	21.1	0.00e+00	0	44	0	546308096	56	4144
2026-01-25 02:38:13.14	19.19	18.60	-42.7	-43.6	21.1	0.00e+00	0	44	0	549453824	56	4140
2026-01-25 02:38:14.15	19.06	18.71	-42.8	-43.7	21.1	0.00e+00	0	44	0	552599552	56	4182
2026-01-25 02:38:15.16	18.92	18.81	-42.9	-43.8	21.0	0.00e+00	0	44	0	555745280	56	4213
2026-01-25 02:38:16.17	18.79	18.92	-42.8	-43.7	21.1	0.00e+00	0	44	0	558891008	56	4159
2026-01-25 02:38:17.18	18.66	19.02	-42.8	-43.7	21.1	0.00e+00	0	44	0	562036736	56	4182
2026-01-25 02:38:18.19	18.52	19.13	-42.8	-43.7	21.1	0.00e+00	0	44	0	565182464	56	4191
2026-01-25 02:38:19.20	18.39	19.23	-42.7	-43.6	21.2	0.00e+00	0	44	0	568328192	56	4100
2026-01-25 02:38:20.21	18.25	19.34	-42.7	-43.6	21.2	0.00e+00	0	44	0	571473920	56	4108
2026-01-25 02:38:21.22	18.11	19.44	-42.4	-43.3	21.5	0.00e+00	0	44	0	574619648	56	3961
2026-01-25 02:38:22.23	17.97	19.55	-42.3	-43.1	21.6	0.00e+00	0	44	0	577765376	56	3907
2026-01-25 02:38:23.24	17.83	19.66	-42.2	-43.1	21.7	0.00e+00	0	44	0	580911104	56	3876
2026-01-25 02:38:24.24	17.69	19.76	-42.3	-43.1	21.6	0.00e+00	0	44	0	584056832	56	3908
2026-01-25 02:38:25.25	17.55	19.87	-42.2	-43.1	21.7	0.00e+00	0	44	0	587202560	56	3886
2026-01-25 02:38:26.26	17.41	19.98	-42.4	-43.2	21.5	0.00e+00	0	44	0	590348288	56	3941
2026-01-25 02:38:27.27	17.27	20.09	-42.4	-43.3	21.5	0.00e+00	0	44	0	593494016	56	3964
2026-01-25 02:38:28.28	17.12	20.19	-42.3	-43.1	21.6	0.00e+00	0	44	0	596639744	56	3892
2026-01-25 02:38:29.29	16.97	20.30	-42.2	-43.1	21.6	0.00e+00	0	44	0	599785472	56	3891
2026-01-25 02:38:30.30	16.83	20.41	-42.3	-43.1	21.6	0.00e+00	0	44	0	602931200	56	3905
2026-01-25 02:38:31.31	16.68	20.52	-42.2	-43.1	21.7	0.00e+00	0	44	0	606076928	56	3888
2026-01-25 02:38:32.31	16.53	20.63	-42.3	-43.1	21.7	0.00e+00	0	44	0	609222656	56	3902
2026-01-25 02:38:33.32	16.38	20.74	-42.3	-43.1	21.7	0.00e+00	0	44	0	612368384	56	3894
2026-01-25 02:38:34.33	16.23	20.85	-42.3	-43.1	21.7	0.00e+00	0	44	0	615514112	56	3904
2026-01-25 02:38:35.34	16.08	20.96	-42.2	-43.0	21.8	0.00e+00	0	44	0	618659840	56	3852
2026-01-25 02:38:36.35	15.92	21.07	-42.2	-43.0	21.7	0.00e+00	0	44	0	621805568	56	3859
2026-01-25 02:38:37.36	15.77	21.18	-42.0	-42.8	21.9	0.00e+00	0	44	0	624951296	56	3763
2026-01-25 02:38:38.37	15.61	21.29	-41.8	-42.6	22.0	0.00e+00	0	44	0	628097024	55	3887
2026-01-25 02:38:39.38	15.46	21.40	-41.8	-42.6	22.0	0.00e+00	0	44	0	631242752	55	3907
2026-01-25 02:38:40.39	15.30	21.51	-41.8	-42.6	22.0	0.00e+00	0	44	0	634388480	55	3900
2026-01-25 02:38:41.39	15.14	21.62	-41.8	-42.6	22.0	0.00e+00	0	44	0	637534208	55	3891
2026-01-25 02:38:42.40	14.98	21.74	-41.9	-42.8	21.9	0.00e+00	0	44	0	640679936	55	3964
2026-01-25 02:38:43.41	14.82	21.85	-41.8	-42.7	22.0	0.00e+00	0	44	0	643825664	55	3924
2026-01-25 02:38:44.42	14.66	21.96	-41.9	-42.7	21.9	0.00e+00	0	44	0	646971392	55	3939
2026-01-25 02:38:45.43	14.49	22.07	-41.9	-42.8	21.9	0.00e+00	0	44	0	650117120	55	3962
2026-01-25 02:38:46.44	14.33	22.19	-41.8	-42.6	22.0	0.00e+00	0	44	0	653262848	55	3902
2026-01-25 02:38:47.45	14.16	22.30	-41.6	-42.4	22.2	0.00e+00	0	44	0	656408576	55	3816
2026-01-25 02:38:48.45	13.99	22.41	-41.6	-42.4	22.2	0.00e+00	0	44	0	659554304	55	3821
2026-01-25 02:38:49.46	13.82	22.52	-41.5	-42.3	22.3	0.00e+00	0	44	0	662700032	55	3766
2026-01-25 02:38:50.47	13.65	22.64	-41.4	-42.2	22.4	0.00e+00	0	44	0	665845760	54	3931
2026-01-25 02:38:51.48	13.48	22.75	-41.4	-42.1	22.4	0.00e+00	0	44	0	668991488	54	3911
2026-01-25 02:38:52.49	13.31	22.87	-41.4	-42.2	22.4	0.00e+00	0	44	0	672137216	54	3950
2026-01-25 02:38:53.50	13.14	22.98	-41.5	-42.3	22.4	0.00e+00	0	44	0	675282944	54	3968
2026-01-25 02:38:54.51	12.96	23.10	-41.4	-42.1	22.5	0.00e+00	0	44	0	678428672	54	3910
2026-01-25 02:38:55.52	12.78	23.21	-41.4	-42.2	22.5	0.00e+00	0	44	0	681574400	54	3929
2026-01-25 02:38:56.53	12.61	23.33	-41.3	-42.1	22.5	0.00e+00	0	44	0	684720128	54	3891
2026-01-25 02:38:57.54	12.43	23.44	-41.3	-42.1	22.5	0.00e+00	0	44	0	687865856	54	3894
2026-01-25 02:38:58.55	12.24	23.56	-41.3	-42.0	22.6	0.00e+00	0	44	0	691011584	54	3852
2026-01-25 02:38:59.56	12.06	23.67	-41.4	-42.2	22.5	0.00e+00	0	44	0	694157312	54	3922
2026-01-25 02:39:00.57	11.88	23.79	-41.4	-42.2	22.5	0.00e+00	0	44	0	697303040	54	3929
2026-01-25 02:39:01.57	11.70	23.90	-41.3	-42.1	22.6	0.00e+00	0	44	0	700448768	54	3883
2026-01-25 02:39:02.58	11.51	24.02	-41.4	-42.2	22.5	0.00e+00	0	44	0	703594496	54	3914
2026-01-25 02:39:03.59	11.32	24.14	-41.5	-42.3	22.4	0.00e+00	0	44	0	706740224	54	3978
2026-01-25 02:39:04.60	11.13	24.25	-41.3	-42.1	22.6	0.00e+00	0	44	0	709885952	54	3869
2026-01-25 02:39:05.60	10.94	24.37	-41.3	-42.1	22.6	0.00e+00	0	44	0	713031680	54	3877
2026-01-25 02:39:06.61	10.75	24.49	-41.3	-42.0	22.6	0.00e+00	0	44	0	716177408	54	3866
2026-01-25 02:39:07.62	10.56	24.60	-41.3	-42.1	22.5	0.00e+00	0	44	0	719323136	54	3902
2026-01-25 02:39:08.63	10.36	24.72	-41.4	-42.1	22.5	0.00e+00	0	44	0	722468864	54	3905
2026-01-25 02:39:09.64	10.17	24.84	-41.5	-42.2	22.4	0.00e+00	0	44	0	726663168	54	3954
2026-01-25 02:39:10.65	9.97	24.96	-41.5	-42.3	22.3	0.00e+00	0	44	0	729808896	54	3996
2026-01-25 02:39:11.66	9.77	25.07	-41.6	-42.4	22.2	0.00e+00	0	44	0	732954624	54	4013
2026-01-25 02:39:12.67	9.57	25.19	-41.7	-42.5	22.1	0.00e+00	0	44	0	735051776	54	4094
2026-01-25 02:39:13.68	9.37	25.31	-42.1	-42.9	21.9	0.00e+00	0	44	0	738197504	54	4271
2026-01-25 02:39:14.68	9.16	25.43	-41.9	-42.7	22.0	0.00e+00	0	44	0	741343232	54	4189
2026-01-25 02:39:15.69	8.96	25.54	-41.9	-42.7	22.0	0.00e+00	0	44	0	744488960	54	4183
2026-01-25 02:39:16.70	8.75	25.66	-42.0	-42.8	22.0	0.00e+00	0	44	0	747634688	54	4223
2026-01-25 02:39:17.71	8.54	25.78	-42.0	-42.8	22.0	0.00e+00	0	44	0	750780416	54	4198
2026-01-25 02:39:18.72	8.33	25.90	-41.8	-42.6	22.1	0.00e+00	0	44	0	753926144	54	4140
2026-01-25 02:39:19.73	8.12	26.02	-41.8	-42.6	22.1	0.00e+00	0	44	0	757071872	54	4114
2026-01-25 02:39:20.74	7.91	26.14	-42.0	-42.8	21.8	0.00e+00	0	44	0	761266176	54	4232
2026-01-25 02:39:21.75	7.69	26.26	-41.9	-42.8	21.9	0.00e+00	0	44	0	764411904	54	4200
2026-01-25 02:39:22.76	7.48	26.38	-42.0	-42.9	21.9	0.00e+00	0	44	0	767557632	54	4249
2026-01-25 02:39:23.76	7.26	26.49	-42.0	-42.8	22.0	0.00e+00	0	44	0	770703360	54	4225
2026-01-25 02:39:24.77	7.04	26.61	-42.1	-42.9	21.8	0.00e+00	0	44	0	773849088	54	4268
2026-01-25 02:39:25.78	6.82	26.73	-42.0	-42.8	21.9	0.00e+00	0	44	0	776994816	54	4228
2026-01-25 02:39:26.79	6.59	26.85	-42.0	-42.9	22.0	0.00e+00	0	44	0	780140544	54	4246
2026-01-25 02:39:27.80	6.37	26.97	-42.1	-42.9	21.9	0.00e+00	0	44	0	782237696	54	4270
2026-01-25 02:39:28.81	6.14	27.09	-42.0	-42.8	22.0	0.00e+00	0	44	0	785383424	54	4231
2026-01-25 02:39:29.82	5.91	27.21	-42.1	-43.0	21.9	0.00e+00	0	44	0	788529152	54	4292
2026-01-25 02:39:30.83	5.68	27.33	-42.2	-43.1	21.7	0.00e+00	0	44	0	791674880	55	4106
2026-01-25 02:39:31.84	5.45	27.45	-42.2	-43.1	21.8	0.00e+00	0	44	0	794820608	55	4114
2026-01-25 02:39:32.85	5.22	27.57	-42.5	-43.3	21.6	0.00e+00	0	44	0	799014912	55	4240
2026-01-25 02:39:33.85	4.98	27.68	-42.6	-43.5	21.4	0.00e+00	0	44	0	802160640	55	4326
2026-01-25 02:39:34.86	4.75	27.80	-42.6	-43.4	21.5	0.00e+00	0	44	0	805306368	55	4284
2026-01-25 02:39:35.87	4.51	27.92	-42.6	-43.4	21.5	0.00e+00	0	44	0	808452096	55	4290
2026-01-25 02:39:36.88	4.27	28.04	-42.4	-43.2	21.6	0.00e+00	0	44	0	811597824	55	4192
2026-01-25 02:39:37.89	4.02	28.16	-42.4	-43.2	21.7	0.00e+00	0	44	0	814743552	55	4180
2026-01-25 02:39:38.90	3.78	28.28	-42.4	-43.2	21.7	0.00e+00	0	44	0	817889280	55	4165
2026-01-25 02:39:39.91	3.53	28.40	-42.4	-43.2	21.6	0.00e+00	0	44	0	821035008	55	4162
2026-01-25 02:39:40.92	3.28	28.52	-42.4	-43.2	21.6	0.00e+00	0	44	0	824180736	55	4181
2026-01-25 02:39:41.93	3.03	28.64	-42.5	-43.3	21.5	0.00e+00	0	44	0	827326464	55	4233
2026-01-25 02:39:42.94	2.78	28.76	-42.5	-43.3	21.5	0.00e+00	0	44	0	830472192	55	4234
2026-01-25 02:39:43.95	2.53	28.87	-42.6	-43.5	21.4	0.00e+00	0	44	0	833617920	55	4296
2026-01-25 02:39:44.96	2.27	28.99	-42.8	-43.6	21.4	0.00e+00	0	44	0	836763648	56	4133
2026-01-25 02:39:45.97	2.01	29.11	-42.7	-43.6	21.4	0.00e+00	0	44	0	839909376	56	4104
2026-01-25 02:39:46.98	1.75	29.23	-42.8	-43.7	21.4	0.00e+00	0	44	0	843055104	56	4175
2026-01-25 02:39:47.98	1.50	29.34	-42.9	-43.7	21.3	0.00e+00	0	44	0	846200832	56	4187
2026-01-25 02:39:48.99	1.23	29.46	-42.9	-43.8	21.3	0.00e+00	0	44	0	849346560	56	4199
2026-01-25 02:39:50.00	0.97	29.58	-42.9	-43.8	21.2	0.00e+00	0	44	0	852492288	56	4228
2026-01-25 02:39:51.01	0.70	29.70	-43.0	-43.9	21.2	0.00e+00	0	44	0	855638016	56	4262
2026-01-25 02:39:52.02	0.43	29.81	-42.9	-43.8	21.3	0.00e+00	0	44	0	858783744	56	4217
2026-01-25 02:39:53.03	0.16	29.93	-42.9	-43.8	21.3	0.00e+00	0	44	0	861929472	56	4221
2026-01-25 02:39:54.04	359.88	30.05	-42.7	-43.5	21.6	0.00e+00	0	44	0	865075200	56	4080
2026-01-25 02:39:55.05	359.61	30.16	-42.8	-43.6	21.5	0.00e+00	0	44	0	868220928	56	4144
2026-01-25 02:39:56.06	359.33	30.28	-42.7	-43.6	21.5	0.00e+00	0	44	0	871366656	56	4101
2026-01-25 02:39:57.07	359.05	30.40	-42.6	-43.5	21.6	0.00e+00	0	44	0	874512384	56	4068
2026-01-25 02:39:58.08	358.77	30.51	-42.6	-43.4	21.6	0.00e+00	0	44	0	877658112	56	4051
2026-01-25 02:39:59.09	358.49	30.63	-42.5	-43.4	21.7	0.00e+00	0	44	0	880803840	56	4018
2026-01-25 02:40:00.10	358.20	30.74	-42.5	-43.4	21.7	0.00e+00	0	44	0	883949568	56	4009
2026-01-25 02:40:01.11	357.91	30.86	-42.5	-43.4	21.7	0.00e+00	0	44	0	887095296	56	4011
2026-01-25 02:40:02.12	357.62	30.97	-42.6	-43.4	21.7	0.00e+00	0	44	0	890241024	56	4026
2026-01-25 02:40:03.13	357.33	31.08	-42.5	-43.3	21.8	0.00e+00	0	44	0	893386752	56	3992
2026-01-25 02:40:04.13	357.04	31.19	-42.5	-43.4	21.7	0.00e+00	0	44	0	896532480	56	4005
2026-01-25 02:40:05.14	356.75	31.31	-42.5	-43.3	21.8	0.00e+00	0	44	0	899678208	56	3988
2026-01-25 02:40:06.15	356.45	31.42	-42.6	-43.4	21.7	0.00e+00	0	44	0	902823936	56	4025
2026-01-25 02:40:07.16	356.15	31.53	-42.5	-43.3	21.8	0.00e+00	0	44	0	905969664	56	3975
2026-01-25 02:40:08.17	355.84	31.64	-42.6	-43.4	21.7	0.00e+00	0	44	0	909115392	56	4018
2026-01-25 02:40:09.18	355.54	31.75	-42.4	-43.2	21.9	0.00e+00	0	44	0	912261120	56	3928
2026-01-25 02:40:10.19	355.23	31.86	-42.5	-43.3	21.7	0.00e+00	0	44	0	915406848	56	4000
2026-01-25 02:40:11.19	354.93	31.97	-42.4	-43.2	21.7	0.00e+00	0	44	0	918552576	56	3949
2026-01-25 02:40:12.20	354.62	32.08	-42.4	-43.3	21.8	0.00e+00	0	44	0	921698304	56	3970
2026-01-25 02:40:13.21	354.31	32.19	-42.5	-43.3	21.7	0.00e+00	0	44	0	924844032	56	3987
2026-01-25 02:40:14.22	353.99	32.30	-42.5	-43.3	21.7	0.00e+00	0	44	0	927989760	56	3990
2026-01-25 02:40:15.23	353.67	32.41	-42.7	-43.5	21.5	0.00e+00	0	44	0	931135488	56	4074
2026-01-25 02:40:16.24	353.35	32.51	-42.8	-43.6	21.3	0.00e+00	0	44	0	934281216	56	4141
2026-01-25 02:40:17.25	353.03	32.62	-42.9	-43.8	21.1	0.00e+00	0	44	0	937426944	56	4224
2026-01-25 02:40:18.26	352.71	32.73	-43.1	-44.0	21.0	0.00e+00	0	44	0	940572672	56	4308
2026-01-25 02:40:19.27	352.38	32.83	-43.3	-44.2	20.9	0.00e+00	0	44	0	943718400	57	4189
2026-01-25 02:40:20.27	352.06	32.93	-43.3	-44.3	20.9	0.00e+00	0	44	0	946864128	57	4198
2026-01-25 02:40:21.28	351.73	33.04	-43.3	-44.2	21.0	0.00e+00	0	44	0	950009856	57	4166
2026-01-25 02:40:22.29	351.40	33.14	-43.3	-44.2	20.9	0.00e+00	0	44	0	953155584	57	4183
2026-01-25 02:40:23.30	351.07	33.24	-43.3	-44.2	21.0	0.00e+00	0	44	0	956301312	57	4171
2026-01-25 02:40:24.31	350.73	33.34	-43.3	-44.3	21.0	0.00e+00	0	44	0	959447040	57	4199
2026-01-25 02:40:25.31	350.39	33.44	-43.3	-44.3	21.0	0.00e+00	0	44	0	962592768	57	4195
2026-01-25 02:40:26.32	350.05	33.54	-43.3	-44.2	21.1	0.00e+00	0	44	0	965738496	57	4146
2026-01-25 02:40:27.33	349.71	33.64	-43.1	-44.0	21.2	0.00e+00	0	44	0	968884224	57	4085
2026-01-25 02:40:28.34	349.37	33.74	-43.2	-44.1	21.2	0.00e+00	0	45	0	972029952	57	4133
2026-01-25 02:40:29.35	349.02	33.84	-43.3	-44.2	21.2	0.00e+00	0	44	0	975175680	57	4164
2026-01-25 02:40:30.36	348.67	33.93	-43.5	-44.4	21.0	0.00e+00	0	44	0	978321408	57	4274
2026-01-25 02:40:31.37	348.32	34.03	-43.6	-44.5	20.9	0.00e+00	0	44	0	981467136	57	4323
2026-01-25 02:40:32.37	347.97	34.12	-43.7	-44.6	20.8	0.00e+00	0	44	0	984612864	58	4138
2026-01-25 02:40:33.38	347.62	34.21	-43.8	-44.8	20.6	0.00e+00	0	44	0	987758592	58	4209
2026-01-25 02:40:34.39	347.26	34.31	-43.9	-44.8	20.7	0.00e+00	0	44	0	990904320	58	4230
2026-01-25 02:40:35.40	346.90	34.40	-43.9	-44.8	20.7	0.00e+00	0	44	0	994050048	58	4223
2026-01-25 02:40:36.41	346.54	34.49	-43.5	-44.5	21.0	0.00e+00	0	44	0	997195776	58	4052
2026-01-25 02:40:37.41	346.18	34.58	-43.4	-44.3	21.0	0.00e+00	0	44	0	1000341504	58	3986
2026-01-25 02:40:38.42	345.82	34.67	-43.3	-44.2	21.1	0.00e+00	0	44	0	1003487232	58	3950
2026-01-25 02:40:39.43	345.45	34.75	-43.4	-44.3	21.1	0.00e+00	0	44	0	1006632960	58	3977
2026-01-25 02:40:40.44	345.08	34.84	-43.3	-44.2	21.2	0.00e+00	0	44	0	1009778688	58	3952
2026-01-25 02:40:41.45	344.71	34.92	-43.2	-44.1	21.2	0.00e+00	0	44	0	1012924416	58	3895
2026-01-25 02:40:42.46	344.34	35.01	-43.4	-44.3	21.1	0.00e+00	0	44	0	1016070144	58	3965
2026-01-25 02:40:43.47	343.96	35.09	-43.5	-44.4	21.0	0.00e+00	0	44	0	1019215872	58	4023
2026-01-25 02:40:44.47	343.59	35.17	-43.8	-44.7	20.7	0.00e+00	0	44	0	1022361600	58	4165
2026-01-25 02:40:45.48	343.21	35.25	-43.9	-44.8	20.6	0.00e+00	0	44	0	1025507328	58	4238
2026-01-25 02:40:46.49	342.83	35.33	-43.9	-44.9	20.6	0.00e+00	0	44	0	1028653056	58	4248
2026-01-25 02:40:47.50	342.45	35.41	-43.9	-44.9	20.7	0.00e+00	0	44	0	1031798784	58	4245
2026-01-25 02:40:48.51	342.07	35.48	-43.6	-44.5	21.0	0.00e+00	0	44	0	1034944512	58	4076
2026-01-25 02:40:49.52	341.68	35.56	-43.3	-44.1	21.3	0.00e+00	0	44	0	1038090240	58	3913
2026-01-25 02:40:50.53	341.29	35.63	-43.3	-44.1	21.3	0.00e+00	0	44	0	1041235968	58	3894
2026-01-25 02:40:51.53	340.91	35.71	-43.4	-44.3	21.1	0.00e+00	0	44	0	1044381696	58	3983
2026-01-25 02:40:52.54	340.52	35.78	-43.5	-44.4	21.0	0.00e+00	0	45	0	1047527424	58	4008
2026-01-25 02:40:53.55	340.12	35.85	-43.5	-44.4	21.1	0.00e+00	0	44	0	1050673152	58	4018
2026-01-25 02:40:54.56	339.73	35.91	-43.4	-44.2	21.2	0.00e+00	0	44	0	1053818880	58	3956
2026-01-25 02:40:55.57	339.33	35.98	-43.4	-44.2	21.1	0.00e+00	0	44	0	1056964608	58	3956
2026-01-25 02:40:56.58	338.94	36.05	-43.6	-44.5	20.9	0.00e+00	0	44	0	1060110336	58	4097
2026-01-25 02:40:57.59	338.54	36.11	-44.0	-44.9	20.5	0.00e+00	0	44	0	1063256064	58	4282
2026-01-25 02:40:58.59	338.14	36.17	-44.1	-45.1	20.4	0.00e+00	0	44	0	1066401792	58	4364
2026-01-25 02:40:59.60	337.74	36.23	-44.1	-45.1	20.3	0.00e+00	0	44	0	1069547520	58	4365
2026-01-25 02:41:00.61	337.33	36.29	-44.1	-45.1	20.2	0.00e+00	0	44	0	1072693248	58	4361
2026-01-25 02:41:01.62	336.93	36.35	-44.2	-45.2	20.2	0.00e+00	0	44	0	1075838976	59	4151
2026-01-25 02:41:02.63	336.52	36.41	-44.1	-45.1	20.3	0.00e+00	0	44	0	1078984704	59	4127
2026-01-25 02:41:03.63	336.12	36.46	-44.1	-45.0	20.4	0.00e+00	0	44	0	1082130432	59	4093
2026-01-25 02:41:04.64	335.71	36.52	-44.3	-45.3	20.1	0.00e+00	0	44	0	1085276160	59	4227
2026-01-25 02:41:05.65	335.30	36.57	-44.3	-45.3	20.1	0.00e+00	0	44	0	1088421888	59	4206
2026-01-25 02:41:06.66	334.88	36.62	-44.2	-45.2	20.1	0.00e+00	0	44	0	1091567616	59	4161
2026-01-25 02:41:07.67	334.47	36.67	-44.2	-45.2	20.3	0.00e+00	0	44	0	1094713344	59	4160
2026-01-25 02:41:08.67	334.06	36.71	-44.4	-45.3	20.3	0.00e+00	0	44	0	1097859072	59	4229
2026-01-25 02:41:09.68	333.64	36.76	-44.5	-45.5	20.1	0.00e+00	0	44	0	1101004800	59	4298
2026-01-25 02:41:10.69	333.23	36.80	-44.4	-45.4	20.2	0.00e+00	0	44	0	1104150528	59	4286
2026-01-25 02:41:11.70	332.81	36.85	-44.3	-45.2	20.3	0.00e+00	0	44	0	1107296256	59	4182
2026-01-25 02:41:12.70	332.39	36.89	-44.1	-45.0	20.5	0.00e+00	0	44	0	1110441984	59	4078
2026-01-25 02:41:13.71	331.97	36.92	-44.1	-45.1	20.4	0.00e+00	0	44	0	1113587712	59	4112
2026-01-25 02:41:14.72	331.55	36.96	-44.3	-45.2	20.4	0.00e+00	0	44	0	1116733440	59	4179
2026-01-25 02:41:15.73	331.13	37.00	-44.3	-45.3	20.3	0.00e+00	0	44	0	1119879168	59	4201
2026-01-25 02:41:16.74	330.71	37.03	-44.1	-45.1	20.4	0.00e+00	0	44	0	1123024896	59	4113
2026-01-25 02:41:17.74	330.29	37.06	-44.0	-44.9	20.6	0.00e+00	0	44	0	1126170624	59	4045
2026-01-25 02:41:18.75	329.86	37.09	-43.9	-44.8	20.7	0.00e+00	0	44	0	1129316352	59	3988
2026-01-25 02:41:19.76	329.44	37.12	-43.8	-44.7	20.8	0.00e+00	0	44	0	1132462080	59	3931
2026-01-25 02:41:20.77	329.01	37.15	-43.9	-44.8	20.6	0.00e+00	0	44	0	1135607808	59	3972
2026-01-25 02:41:21.78	328.58	37.17	-43.6	-44.5	20.9	0.00e+00	0	44	0	1138753536	59	3854
2026-01-25 02:41:22.79	328.16	37.19	-43.5	-44.4	21.0	0.00e+00	0	44	0	1141899264	59	3819
2026-01-25 02:41:23.80	327.73	37.21	-43.4	-44.2	21.2	0.00e+00	0	44	0	1145044992	58	3951
2026-01-25 02:41:24.81	327.30	37.23	-43.6	-44.5	21.0	0.00e+00	0	44	0	1148190720	58	4070
2026-01-25 02:41:25.82	326.87	37.25	-43.8	-44.7	20.7	0.00e+00	0	44	0	1151336448	58	4164
2026-01-25 02:41:26.83	326.44	37.27	-43.7	-44.6	20.8	0.00e+00	0	44	0	1154482176	58	4133
2026-01-25 02:41:27.83	326.02	37.28	-43.8	-44.7	20.7	0.00e+00	0	44	0	1157627904	58	4177
2026-01-25 02:41:28.84	325.58	37.29	-43.8	-44.7	20.7	0.00e+00	0	44	0	1160773632	58	4185
2026-01-25 02:41:29.85	325.15	37.30	-43.8	-44.7	20.7	0.00e+00	0	44	0	1163919360	58	4179
2026-01-25 02:41:30.86	324.72	37.31	-43.9	-44.8	20.7	0.00e+00	0	44	0	1167065088	58	4226
2026-01-25 02:41:31.87	324.29	37.32	-43.9	-44.9	20.7	0.00e+00	0	44	0	1170210816	58	4249
2026-01-25 02:41:32.88	323.86	37.32	-44.0	-44.9	20.6	0.00e+00	0	44	0	1173356544	58	4264
2026-01-25 02:41:33.89	323.43	37.32	-44.0	-45.0	20.6	0.00e+00	0	44	0	1176502272	58	4295
2026-01-25 02:41:34.90	323.00	37.32	-44.2	-45.2	20.3	0.00e+00	0	44	0	1179648000	59	4173
2026-01-25 02:41:35.91	322.57	37.32	-44.2	-45.2	20.3	0.00e+00	0	44	0	1182793728	59	4184
2026-01-25 02:41:36.92	322.14	37.32	-44.3	-45.3	20.2	0.00e+00	0	44	0	1185939456	59	4198
2026-01-25 02:41:37.93	321.70	37.31	-44.3	-45.3	20.2	0.00e+00	0	44	0	1189085184	59	4197
2026-01-25 02:41:38.93	321.28	37.31	-44.1	-45.0	20.4	0.00e+00	0	44	0	1192230912	59	4097
2026-01-25 02:41:39.94	320.85	37.30	-44.0	-45.0	20.4	0.00e+00	0	44	0	1195376640	59	4075
2026-01-25 02:41:40.95	320.42	37.29	-44.3	-45.3	20.2	0.00e+00	0	44	0	1198522368	59	4210
2026-01-25 02:41:41.96	319.99	37.28	-44.4	-45.5	20.0	0.00e+00	0	44	0	1201668096	59	4302
2026-01-25 02:41:42.97	319.56	37.26	-44.4	-45.4	20.2	0.00e+00	0	44	0	1204813824	59	4269
2026-01-25 02:41:43.98	319.13	37.25	-44.4	-45.4	20.1	0.00e+00	0	44	0	1207959552	59	4266
2026-01-25 02:41:44.99	318.70	37.23	-44.3	-45.3	20.3	0.00e+00	0	44	0	1211105280	59	4195
2026-01-25 02:41:46.00	318.27	37.21	-44.3	-45.2	20.3	0.00e+00	0	44	0	1214251008	59	4187
2026-01-25 02:41:47.00	317.84	37.19	-44.2	-45.2	20.2	0.00e+00	0	44	0	1217396736	59	4154
2026-01-25 02:41:48.01	317.42	37.17	-44.1	-45.1	20.4	0.00e+00	0	44	0	1220542464	59	4101
2026-01-25 02:41:49.02	316.99	37.14	-43.7	-44.6	20.8	0.00e+00	0	44	0	1223688192	59	3902
2026-01-25 02:41:50.03	316.56	37.11	-43.8	-44.7	20.8	0.00e+00	0	44	0	1226833920	59	3927
2026-01-25 02:41:51.04	316.14	37.09	-44.2	-45.2	20.3	0.00e+00	0	44	0	1231028224	59	4169
2026-01-25 02:41:52.05	315.71	37.06	-44.5	-45.5	20.0	0.00e+00	0	44	0	1234173952	59	4325
2026-01-25 02:41:53.05	315.29	37.02	-44.7	-45.7	19.8	0.00e+00	0	44	0	1237319680	59	4432
2026-01-25 02:41:54.07	314.87	36.99	-44.5	-45.5	19.7	0.00e+00	0	44	0	1239416832	60	4088
2026-01-25 02:41:55.08	314.44	36.95	-44.2	-45.2	20.0	0.00e+00	0	44	0	1242562560	60	3938
2026-01-25 02:41:56.09	314.02	36.92	-44.3	-45.3	20.2	0.00e+00	0	44	0	1245708288	59	4235
2026-01-25 02:41:57.09	313.61	36.88	-44.0	-44.9	20.5	0.00e+00	0	44	0	1248854016	59	4050
2026-01-25 02:41:58.10	313.19	36.84	-43.7	-44.7	20.8	0.00e+00	0	44	0	1251999744	59	3920
2026-01-25 02:41:59.11	312.77	36.80	-43.6	-44.5	20.9	0.00e+00	0	44	0	1255145472	59	3865
2026-01-25 02:42:00.12	312.35	36.75	-43.6	-44.5	20.8	0.00e+00	0	44	0	1258291200	59	3838
2026-01-25 02:42:01.13	311.94	36.71	-43.7	-44.6	20.8	0.00e+00	0	44	0	1261436928	59	3899
2026-01-25 02:42:02.14	311.52	36.66	-43.7	-44.6	20.9	0.00e+00	0	44	0	1265631232	59	3884
2026-01-25 02:42:03.15	311.11	36.61	-43.6	-44.5	20.9	0.00e+00	0	44	0	1268776960	59	3847
2026-01-25 02:42:04.16	310.70	36.56	-43.6	-44.5	20.9	0.00e+00	0	44	0	1271922688	59	3868
2026-01-25 02:42:05.17	310.28	36.51	-43.7	-44.6	20.7	0.00e+00	0	44	0	1275068416	59	3898
2026-01-25 02:42:06.17	309.88	36.45	-43.7	-44.6	20.7	0.00e+00	0	44	0	1278214144	59	3891
2026-01-25 02:42:07.18	309.47	36.40	-43.8	-44.7	20.7	0.00e+00	0	44	0	1281359872	59	3948
2026-01-25 02:42:08.19	309.06	36.34	-43.9	-44.8	20.6	0.00e+00	0	44	0	1284505600	59	3972
2026-01-25 02:42:09.20	308.66	36.28	-43.9	-44.9	20.6	0.00e+00	0	44	0	1286602752	59	4028
2026-01-25 02:42:10.21	308.25	36.22	-44.0	-45.0	20.5	0.00e+00	0	44	0	1289748480	59	4078
2026-01-25 02:42:11.22	307.85	36.16	-44.0	-44.9	20.6	0.00e+00	0	44	0	1292894208	59	4034
2026-01-25 02:42:12.23	307.45	36.10	-43.9	-44.8	20.6	0.00e+00	0	44	0	1296039936	59	3997
2026-01-25 02:42:13.24	307.05	36.03	-43.8	-44.7	20.6	0.00e+00	0	44	0	1299185664	59	3957
2026-01-25 02:42:14.25	306.65	35.97	-43.8	-44.7	20.6	0.00e+00	0	44	0	1303379968	59	3933
2026-01-25 02:42:15.25	306.26	35.90	-43.9	-44.9	20.5	0.00e+00	0	44	0	1306525696	59	4005
2026-01-25 02:42:16.26	305.87	35.83	-43.8	-44.7	20.6	0.00e+00	0	44	0	1309671424	59	3947
2026-01-25 02:42:17.27	305.47	35.76	-43.7	-44.6	20.8	0.00e+00	0	44	0	1312817152	59	3889
2026-01-25 02:42:18.28	305.08	35.69	-43.7	-44.7	20.7	0.00e+00	0	44	0	1315962880	59	3924
2026-01-25 02:42:19.29	304.69	35.62	-43.9	-44.9	20.6	0.00e+00	0	44	0	1319108608	59	4011
2026-01-25 02:42:20.30	304.31	35.54	-44.2	-45.2	20.3	0.00e+00	0	44	0	1322254336	59	4147
2026-01-25 02:42:21.31	303.92	35.47	-44.3	-45.3	20.2	0.00e+00	0	44	0	1325400064	59	4232
2026-01-25 02:42:22.32	303.54	35.39	-44.4	-45.4	20.1	0.00e+00	0	44	0	1328545792	59	4264
2026-01-25 02:42:23.33	303.15	35.31	-44.3	-45.4	20.1	0.00e+00	0	45	0	1331691520	59	4243
2026-01-25 02:42:24.34	302.77	35.23	-44.4	-45.4	20.1	0.00e+00	0	44	0	1334837248	59	4259
2026-01-25 02:42:25.35	302.39	35.15	-44.3	-45.3	20.2	0.00e+00	0	45	0	1337982976	59	4223
2026-01-25 02:42:26.36	302.02	35.07	-44.2	-45.2	20.3	0.00e+00	0	44	0	1341128704	59	4169
2026-01-25 02:42:27.37	301.64	34.99	-44.2	-45.2	20.2	0.00e+00	0	44	0	1344274432	59	4168
2026-01-25 02:42:28.37	301.27	34.90	-43.9	-44.9	20.6	0.00e+00	0	44	0	1347420160	59	4017
2026-01-25 02:42:29.38	300.90	34.82	-43.7	-44.6	20.8	0.00e+00	0	44	0	1350565888	59	3890
2026-01-25 02:42:30.39	300.53	34.73	-43.4	-44.3	21.1	0.00e+00	0	45	0	1353711616	58	3980
2026-01-25 02:42:31.40	300.17	34.64	-43.1	-44.0	21.3	0.00e+00	0	45	0	1356857344	58	3828
2026-01-25 02:42:32.41	299.80	34.56	-42.9	-43.8	21.5	0.00e+00	0	44	0	1360003072	57	3978
2026-01-25 02:42:33.42	299.44	34.47	-43.0	-43.9	21.4	0.00e+00	0	44	0	1363148800	57	4025
2026-01-25 02:42:34.43	299.08	34.37	-43.3	-44.2	21.1	0.00e+00	0	44	0	1366294528	57	4183
2026-01-25 02:42:35.44	298.72	34.28	-43.5	-44.4	20.9	0.00e+00	0	44	0	1369440256	57	4290
2026-01-25 02:42:36.45	298.36	34.19	-43.8	-44.8	20.7	0.00e+00	0	44	0	1372585984	58	4202
2026-01-25 02:42:37.45	298.01	34.10	-43.7	-44.6	20.8	0.00e+00	0	45	0	1375731712	58	4114
2026-01-25 02:42:38.47	297.65	34.00	-43.5	-44.4	20.9	0.00e+00	0	44	0	1378877440	58	4036
2026-01-25 02:42:39.47	297.31	33.91	-43.3	-44.1	21.2	0.00e+00	0	45	0	1382023168	58	3905
2026-01-25 02:42:40.48	296.96	33.81	-42.8	-43.7	21.6	0.00e+00	0	44	0	1385168896	57	3915
2026-01-25 02:42:41.49	296.61	33.71	-42.6	-43.4	21.9	0.00e+00	0	44	0	1388314624	57	3795
2026-01-25 02:42:42.50	296.27	33.61	-42.7	-43.6	21.7	0.00e+00	0	44	0	1391460352	57	3877
2026-01-25 02:42:43.50	295.93	33.52	-43.1	-44.0	21.2	0.00e+00	0	44	0	1394606080	57	4066
2026-01-25 02:42:44.51	295.59	33.42	-43.5	-44.4	20.9	0.00e+00	0	44	0	1397751808	57	4286
2026-01-25 02:42:45.52	295.25	33.32	-44.0	-44.9	20.5	0.00e+00	0	44	0	1400897536	58	4289
2026-01-25 02:42:46.53	294.91	33.21	-44.1	-45.0	20.4	0.00e+00	0	44	0	1404043264	58	4338
2026-01-25 02:42:47.54	294.58	33.11	-43.6	-44.5	20.9	0.00e+00	0	44	0	1407188992	58	4064
2026-01-25 02:42:48.55	294.25	33.01	-43.3	-44.1	21.2	0.00e+00	0	44	0	1410334720	58	3906
2026-01-25 02:42:49.56	293.92	32.90	-43.2	-44.0	21.3	0.00e+00	0	44	0	1413480448	58	3857
2026-01-25 02:42:50.57	293.59	32.80	-42.9	-43.7	21.5	0.00e+00	0	45	0	1416626176	57	3957
2026-01-25 02:42:51.58	293.26	32.69	-42.5	-43.4	21.9	0.00e+00	0	44	0	1419771904	57	3782
2026-01-25 02:42:52.59	292.94	32.59	-42.7	-43.5	21.7	0.00e+00	0	44	0	1422917632	56	4073
2026-01-25 02:42:53.60	292.62	32.48	-43.1	-44.0	21.3	0.00e+00	0	44	0	1426063360	56	4323
2026-01-25 02:42:54.61	292.30	32.37	-43.4	-44.3	21.1	0.00e+00	0	44	0	1429209088	57	4205
2026-01-25 02:42:55.62	291.98	32.27	-43.6	-44.5	20.8	0.00e+00	0	45	0	1432354816	57	4328
2026-01-25 02:42:56.63	291.67	32.16	-43.5	-44.5	20.9	0.00e+00	0	44	0	1435500544	57	4300
2026-01-25 02:42:57.64	291.36	32.05	-43.5	-44.4	20.9	0.00e+00	0	44	0	1438646272	57	4270
2026-01-25 02:42:58.64	291.05	31.94	-43.5	-44.4	21.0	0.00e+00	0	44	0	1441792000	57	4246
2026-01-25 02:42:59.65	290.74	31.83	-42.9	-43.7	21.5	0.00e+00	0	44	0	1444937728	57	3938
2026-01-25 02:43:00.66	290.43	31.72	-42.8	-43.6	21.6	0.00e+00	0	44	0	1448083456	57	3907
2026-01-25 02:43:01.67	290.13	31.61	-43.0	-43.9	21.3	0.00e+00	0	44	0	1451229184	57	4006
2026-01-25 02:43:02.68	289.83	31.50	-43.0	-43.9	21.2	0.00e+00	0	44	0	1454374912	57	4025
2026-01-25 02:43:03.69	289.53	31.38	-42.9	-43.8	21.3	0.00e+00	0	44	0	1457520640	57	3981
2026-01-25 02:43:04.70	289.23	31.27	-43.0	-43.9	21.2	0.00e+00	0	44	0	1460666368	57	4037
2026-01-25 02:43:05.71	288.93	31.16	-42.7	-43.6	21.5	0.00e+00	0	45	0	1463812096	57	3887
2026-01-25 02:43:06.71	288.64	31.05	-42.6	-43.5	21.7	0.00e+00	0	44	0	1466957824	57	3829
2026-01-25 02:43:07.72	288.35	30.93	-42.7	-43.5	21.6	0.00e+00	0	44	0	1470103552	57	3861
2026-01-25 02:43:08.73	288.06	30.82	-42.9	-43.8	21.4	0.00e+00	0	45	0	1473249280	57	3967
2026-01-25 02:43:09.74	287.77	30.70	-43.1	-44.0	21.2	0.00e+00	0	44	0	1476395008	57	4087
2026-01-25 02:43:10.75	287.49	30.59	-43.4	-44.3	21.0	0.00e+00	0	45	0	1479540736	57	4209
2026-01-25 02:43:11.76	287.20	30.47	-43.5	-44.4	20.9	0.00e+00	0	44	0	1482686464	57	4274
2026-01-25 02:43:12.77	286.92	30.36	-43.5	-44.4	20.9	0.00e+00	0	44	0	1485832192	57	4282
2026-01-25 02:43:13.78	286.64	30.24	-43.5	-44.4	20.9	0.00e+00	0	44	0	1488977920	57	4276
2026-01-25 02:43:14.79	286.36	30.12	-43.2	-44.1	21.1	0.00e+00	0	44	0	1492123648	57	4122
2026-01-25 02:43:15.80	286.09	30.01	-43.0	-43.9	21.3	0.00e+00	0	44	0	1495269376	57	4036
2026-01-25 02:43:16.81	285.81	29.89	-43.0	-43.9	21.3	0.00e+00	0	44	0	1498415104	57	4042
2026-01-25 02:43:17.82	285.54	29.77	-43.2	-44.1	21.1	0.00e+00	0	44	0	1501560832	57	4125
2026-01-25 02:43:18.83	285.27	29.66	-43.3	-44.2	21.0	0.00e+00	0	45	0	1504706560	57	4173
2026-01-25 02:43:19.84	285.01	29.54	-43.2	-44.1	21.1	0.00e+00	0	44	0	1507852288	57	4118
2026-01-25 02:43:20.85	284.74	29.42	-43.3	-44.2	21.0	0.00e+00	0	44	0	1510998016	57	4170
2026-01-25 02:43:21.85	284.48	29.30	-43.3	-44.3	20.9	0.00e+00	0	44	0	1514143744	57	4201
2026-01-25 02:43:22.86	284.22	29.19	-43.2	-44.1	21.0	0.00e+00	0	44	0	1517289472	57	4135
2026-01-25 02:43:23.87	283.96	29.07	-42.8	-43.6	21.4	0.00e+00	0	44	0	1520435200	57	3901
2026-01-25 02:43:24.88	283.70	28.95	-42.6	-43.4	21.6	0.00e+00	0	44	0	1523580928	57	3824
2026-01-25 02:43:25.89	283.44	28.83	-42.3	-43.1	21.9	0.00e+00	0	45	0	1526726656	56	3909
2026-01-25 02:43:26.90	283.19	28.71	-42.4	-43.2	21.8	0.00e+00	0	44	0	1529872384	56	3930
2026-01-25 02:43:27.91	282.94	28.59	-42.1	-42.9	22.1	0.00e+00	0	45	0	1533018112	56	3821
2026-01-25 02:43:28.91	282.69	28.47	-42.1	-42.9	22.1	0.00e+00	0	45	0	1536163840	56	3816
2026-01-25 02:43:29.92	282.44	28.35	-42.3	-43.1	22.0	0.00e+00	0	44	0	1539309568	56	3884
2026-01-25 02:43:30.93	282.19	28.24	-42.4	-43.2	21.8	0.00e+00	0	44	0	1542455296	56	3939
2026-01-25 02:43:31.94	281.95	28.12	-42.5	-43.3	21.7	0.00e+00	0	44	0	1545601024	56	3985
2026-01-25 02:43:32.95	281.71	28.00	-42.4	-43.3	21.8	0.00e+00	0	44	0	1548746752	56	3978
2026-01-25 02:43:33.96	281.46	27.88	-42.4	-43.3	21.7	0.00e+00	0	45	0	1551892480	56	3964
2026-01-25 02:43:34.97	281.22	27.76	-42.5	-43.4	21.6	0.00e+00	0	44	0	1555038208	56	4018
2026-01-25 02:43:35.97	280.99	27.64	-42.5	-43.3	21.7	0.00e+00	0	44	0	1558183936	56	3991
2026-01-25 02:43:36.98	280.75	27.52	-42.5	-43.3	21.7	0.00e+00	0	45	0	1561329664	56	3988
2026-01-25 02:43:37.99	280.52	27.40	-42.5	-43.4	21.7	0.00e+00	0	44	0	1564475392	56	4014
2026-01-25 02:43:39.00	280.29	27.28	-42.4	-43.2	21.8	0.00e+00	0	45	0	1567621120	56	3942
2026-01-25 02:43:40.01	280.06	27.16	-42.2	-43.1	21.9	0.00e+00	0	44	0	1570766848	56	3875
2026-01-25 02:43:41.01	279.83	27.04	-42.2	-43.1	22.0	0.00e+00	0	45	0	1573912576	56	3872
2026-01-25 02:43:42.02	279.60	26.92	-42.3	-43.1	21.9	0.00e+00	0	45	0	1577058304	56	3913
2026-01-25 02:43:43.03	279.38	26.80	-42.3	-43.2	21.9	0.00e+00	0	44	0	1580204032	56	3916
2026-01-25 02:43:44.04	279.15	26.68	-42.4	-43.2	21.8	0.00e+00	0	45	0	1583349760	56	3940
2026-01-25 02:43:45.05	278.93	26.56	-42.3	-43.2	21.8	0.00e+00	0	44	0	1586495488	56	3927
2026-01-25 02:43:46.05	278.71	26.45	-42.3	-43.2	21.8	0.00e+00	0	45	0	1589641216	56	3927
2026-01-25 02:43:47.06	278.50	26.33	-42.5	-43.3	21.7	0.00e+00	0	45	0	1592786944	56	3985
2026-01-25 02:43:48.07	278.28	26.21	-42.6	-43.4	21.6	0.00e+00	0	45	0	1595932672	56	4041
2026-01-25 02:43:49.08	278.06	26.09	-42.7	-43.6	21.4	0.00e+00	0	44	0	1599078400	56	4134
2026-01-25 02:43:50.09	277.85	25.97	-42.8	-43.7	21.3	0.00e+00	0	45	0	1602224128	56	4184
2026-01-25 02:43:51.10	277.64	25.85	-42.9	-43.8	21.2	0.00e+00	0	44	0	1605369856	56	4205
2026-01-25 02:43:52.11	277.43	25.73	-42.9	-43.8	21.1	0.00e+00	0	44	0	1608515584	56	4238
2026-01-25 02:43:53.12	277.22	25.61	-42.8	-43.7	21.3	0.00e+00	0	44	0	1611661312	56	4151
2026-01-25 02:43:54.12	277.01	25.49	-42.6	-43.5	21.5	0.00e+00	0	44	0	1614807040	56	4053
2026-01-25 02:43:55.13	276.81	25.38	-42.4	-43.3	21.7	0.00e+00	0	45	0	1617952768	56	3979
2026-01-25 02:43:56.14	276.60	25.26	-42.5	-43.4	21.6	0.00e+00	0	44	0	1621098496	56	4028
2026-01-25 02:43:57.15	276.40	25.14	-42.5	-43.4	21.6	0.00e+00	0	44	0	1624244224	56	4023
2026-01-25 02:43:58.16	276.20	25.02	-42.6	-43.5	21.5	0.00e+00	0	44	0	1627389952	56	4053
2026-01-25 02:43:59.17	276.00	24.90	-42.5	-43.4	21.6	0.00e+00	0	44	0	1630535680	56	4033
2026-01-25 02:44:00.17	275.80	24.79	-42.5	-43.3	21.7	0.00e+00	0	45	0	1633681408	56	4000
2026-01-25 02:44:01.18	275.61	24.67	-42.5	-43.3	21.7	0.00e+00	0	44	0	1636827136	56	4003
2026-01-25 02:44:02.19	275.41	24.55	-42.4	-43.2	21.8	0.00e+00	0	44	0	1639972864	56	3937
2026-01-25 02:44:03.20	275.22	24.43	-42.3	-43.1	21.9	0.00e+00	0	45	0	1643118592	56	3882
2026-01-25 02:44:04.21	275.02	24.32	-42.2	-43.0	22.0	0.00e+00	0	44	0	1646264320	56	3832
2026-01-25 02:44:05.22	274.83	24.20	-41.9	-42.7	22.2	0.00e+00	0	45	0	1649410048	55	3931
2026-01-25 02:44:06.23	274.64	24.08	-41.7	-42.5	22.3	0.00e+00	0	44	0	1652555776	55	3831
2026-01-25 02:44:07.24	274.46	23.97	-41.7	-42.5	22.3	0.00e+00	0	44	0	1655701504	55	3833
2026-01-25 02:44:08.24	274.27	23.85	-41.5	-42.2	22.5	0.00e+00	0	45	0	1658847232	55	3732
2026-01-25 02:44:09.25	274.09	23.73	-41.4	-42.2	22.5	0.00e+00	0	45	0	1661992960	54	3922
2026-01-25 02:44:10.26	273.90	23.62	-41.5	-42.3	22.4	0.00e+00	0	45	0	1665138688	54	3986
2026-01-25 02:44:11.27	273.72	23.50	-41.6	-42.3	22.4	0.00e+00	0	44	0	1668284416	54	4002
2026-01-25 02:44:12.28	273.54	23.39	-41.5	-42.3	22.5	0.00e+00	0	45	0	1671430144	54	3972
2026-01-25 02:44:13.29	273.36	23.27	-41.6	-42.4	22.4	0.00e+00	0	44	0	1674575872	54	4013
2026-01-25 02:44:14.29	273.18	23.16	-41.6	-42.4	22.4	0.00e+00	0	44	0	1677721600	54	4024
2026-01-25 02:44:15.30	273.01	23.04	-41.7	-42.5	22.3	0.00e+00	0	44	0	1680867328	54	4063
2026-01-25 02:44:16.31	272.83	22.93	-41.8	-42.6	22.2	0.00e+00	0	45	0	1684013056	54	4114
2026-01-25 02:44:17.32	272.66	22.81	-41.9	-42.7	22.1	0.00e+00	0	44	0	1687158784	54	4170
2026-01-25 02:44:18.33	272.48	22.70	-42.0	-42.8	22.0	0.00e+00	0	44	0	1690304512	54	4223
2026-01-25 02:44:19.34	272.31	22.58	-42.1	-42.9	22.0	0.00e+00	0	44	0	1694498816	54	4255
2026-01-25 02:44:20.35	272.14	22.47	-42.1	-42.9	21.9	0.00e+00	0	44	0	1697644544	54	4283
2026-01-25 02:44:21.35	271.97	22.35	-42.1	-42.9	21.9	0.00e+00	0	44	0	1699741696	54	4257
2026-01-25 02:44:22.36	271.81	22.24	-42.1	-42.9	21.9	0.00e+00	0	44	0	1702887424	54	4254
2026-01-25 02:44:23.37	271.64	22.13	-42.2	-43.0	21.8	0.00e+00	0	44	0	1706033152	54	4310
2026-01-25 02:44:24.38	271.47	22.01	-42.2	-43.0	21.8	0.00e+00	0	44	0	1709178880	55	4065
2026-01-25 02:44:25.39	271.31	21.90	-42.2	-43.0	21.8	0.00e+00	0	44	0	1712324608	55	4070
2026-01-25 02:44:26.40	271.15	21.79	-42.2	-43.1	21.7	0.00e+00	0	45	0	1715470336	55	4102
2026-01-25 02:44:27.41	270.98	21.68	-42.2	-43.0	21.7	0.00e+00	0	45	0	1718616064	55	4078
2026-01-25 02:44:28.41	270.82	21.57	-42.2	-43.0	21.7	0.00e+00	0	45	0	1721761792	55	4095
2026-01-25 02:44:29.42	270.66	21.45	-42.2	-43.0	21.7	0.00e+00	0	45	0	1724907520	55	4069
2026-01-25 02:44:30.44	270.50	21.34	-42.2	-43.0	21.7	0.00e+00	0	45	0	1728053248	55	4071
2026-01-25 02:44:31.45	270.35	21.23	-42.3	-43.1	21.6	0.00e+00	0	44	0	1732247552	55	4118
2026-01-25 02:44:32.45	270.19	21.12	-42.2	-43.0	21.7	0.00e+00	0	45	0	1735393280	55	4077
2026-01-25 02:44:33.46	270.04	21.01	-42.2	-43.1	21.7	0.00e+00	0	44	0	1738539008	55	4113
2026-01-25 02:44:34.47	269.88	20.90	-42.3	-43.1	21.6	0.00e+00	0	45	0	1741684736	55	4130
2026-01-25 02:44:35.48	269.73	20.79	-42.3	-43.2	21.6	0.00e+00	0	44	0	1744830464	55	4154
2026-01-25 02:44:36.49	269.58	20.68	-42.4	-43.2	21.5	0.00e+00	0	44	0	1746927616	55	4188
2026-01-25 02:44:37.50	269.43	20.57	-42.5	-43.3	21.5	0.00e+00	0	45	0	1750073344	55	4239
2026-01-25 02:44:38.51	269.28	20.46	-42.5	-43.3	21.5	0.00e+00	0	44	0	1753219072	55	4236
2026-01-25 02:44:39.52	269.13	20.35	-42.5	-43.4	21.4	0.00e+00	0	44	0	1756364800	55	4249
2026-01-25 02:44:40.53	268.98	20.24	-42.5	-43.4	21.4	0.00e+00	0	44	0	1759510528	55	4254
2026-01-25 02:44:41.54	268.84	20.13	-42.4	-43.2	21.5	0.00e+00	0	44	0	1763704832	55	4193
2026-01-25 02:44:42.55	268.69	20.02	-42.3	-43.1	21.6	0.00e+00	0	44	0	1766850560	55	4121
2026-01-25 02:44:43.56	268.55	19.91	-42.2	-43.1	21.6	0.00e+00	0	44	0	1769996288	55	4118
2026-01-25 02:44:44.57	268.40	19.81	-42.2	-43.0	21.6	0.00e+00	0	44	0	1773142016	55	4098
2026-01-25 02:44:45.57	268.26	19.70	-42.1	-42.9	21.7	0.00e+00	0	44	0	1776287744	55	4050
2026-01-25 02:44:46.58	268.12	19.59	-42.2	-43.0	21.7	0.00e+00	0	44	0	1779433472	55	4068
2026-01-25 02:44:47.59	267.98	19.49	-41.9	-42.7	21.9	0.00e+00	0	44	0	1782579200	55	3935
2026-01-25 02:44:48.60	267.84	19.38	-41.8	-42.6	22.0	0.00e+00	0	44	0	1785724928	55	3911
2026-01-25 02:44:49.61	267.71	19.27	-41.7	-42.5	22.1	0.00e+00	0	45	0	1788870656	55	3857
2026-01-25 02:44:50.62	267.57	19.17	-41.7	-42.5	22.1	0.00e+00	0	44	0	1792016384	55	3831
2026-01-25 02:44:51.63	267.43	19.06	-41.8	-42.6	22.1	0.00e+00	0	44	0	1794113536	55	3886
2026-01-25 02:44:52.64	267.30	18.95	-41.7	-42.5	22.1	0.00e+00	0	44	0	1797259264	55	3853
2026-01-25 02:44:53.64	267.16	18.85	-41.7	-42.5	22.1	0.00e+00	0	44	0	1801453568	55	3862
2026-01-25 02:44:54.65	267.03	18.75	-41.6	-42.4	22.2	0.00e+00	0	45	0	1804599296	55	3816
2026-01-25 02:44:55.66	266.90	18.64	-41.7	-42.5	22.2	0.00e+00	0	44	0	1807745024	55	3826
2026-01-25 02:44:56.67	266.77	18.54	-41.8	-42.6	22.1	0.00e+00	0	44	0	1810890752	55	3878
2026-01-25 02:44:57.68	266.64	18.43	-41.9	-42.7	22.0	0.00e+00	0	44	0	1814036480	55	3923
2026-01-25 02:44:58.69	266.51	18.33	-42.0	-42.8	21.9	0.00e+00	0	45	0	1817182208	55	3986
2026-01-25 02:44:59.70	266.38	18.22	-42.0	-42.8	21.9	0.00e+00	0	44	0	1820327936	55	3982
2026-01-25 02:45:00.71	266.25	18.12	-42.1	-42.9	21.7	0.00e+00	0	44	0	1823473664	55	4032
2026-01-25 02:45:01.72	266.12	18.02	-42.1	-42.9	21.7	0.00e+00	0	44	0	1826619392	55	4029
2026-01-25 02:45:02.73	266.00	17.91	-42.0	-42.9	21.7	0.00e+00	0	45	0	1829765120	55	4005
2026-01-25 02:45:03.73	265.87	17.81	-42.1	-42.9	21.7	0.00e+00	0	44	0	1832910848	55	4031
2026-01-25 02:45:04.74	265.75	17.71	-42.1	-42.9	21.7	0.00e+00	0	44	0	1836056576	55	4037
2026-01-25 02:45:05.75	265.63	17.61	-42.1	-43.0	21.7	0.00e+00	0	45	0	1839202304	55	4054
2026-01-25 02:45:06.75	265.50	17.51	-42.1	-42.9	21.7	0.00e+00	0	44	0	1842348032	55	4044
2026-01-25 02:45:07.76	265.38	17.41	-42.2	-43.1	21.6	0.00e+00	0	44	0	1845493760	55	4110
2026-01-25 02:45:08.77	265.26	17.31	-42.2	-43.0	21.6	0.00e+00	0	44	0	1848639488	55	4091
2026-01-25 02:45:09.78	265.14	17.20	-42.3	-43.1	21.5	0.00e+00	0	44	0	1851785216	55	4143
2026-01-25 02:45:10.79	265.02	17.10	-42.4	-43.2	21.5	0.00e+00	0	44	0	1854930944	55	4180
2026-01-25 02:45:11.80	264.90	17.00	-42.4	-43.3	21.4	0.00e+00	0	44	0	1858076672	55	4204
2026-01-25 02:45:12.81	264.78	16.90	-42.5	-43.4	21.3	0.00e+00	0	45	0	1861222400	55	4256
2026-01-25 02:45:13.81	264.67	16.80	-42.6	-43.5	21.2	0.00e+00	0	44	0	1864368128	55	4315
2026-01-25 02:45:14.82	264.55	16.70	-42.7	-43.6	21.2	0.00e+00	0	44	0	1867513856	55	4360
2026-01-25 02:45:15.83	264.44	16.61	-42.8	-43.7	21.1	0.00e+00	0	44	0	1870659584	56	4188
2026-01-25 02:45:16.84	264.32	16.51	-42.9	-43.9	21.0	0.00e+00	0	44	0	1873805312	56	4245
2026-01-25 02:45:17.85	264.21	16.41	-43.1	-44.0	20.9	0.00e+00	0	45	0	1876951040	56	4312
2026-01-25 02:45:18.86	264.10	16.31	-43.1	-44.0	20.9	0.00e+00	0	44	0	1880096768	56	4323
2026-01-25 02:45:19.87	263.98	16.21	-43.1	-44.1	20.8	0.00e+00	0	44	0	1883242496	56	4347
2026-01-25 02:45:20.88	263.87	16.11	-43.3	-44.2	20.7	0.00e+00	0	44	0	1886388224	57	4172
2026-01-25 02:45:21.89	263.76	16.02	-43.2	-44.1	20.8	0.00e+00	0	44	0	1889533952	57	4129
2026-01-25 02:45:22.90	263.65	15.92	-43.1	-44.0	20.8	0.00e+00	0	44	0	1892679680	57	4097
2026-01-25 02:45:23.91	263.54	15.82	-43.1	-44.0	20.8	0.00e+00	0	45	0	1895825408	57	4078
2026-01-25 02:45:24.92	263.43	15.73	-43.2	-44.1	20.8	0.00e+00	0	44	0	1898971136	57	4115
2026-01-25 02:45:25.92	263.33	15.63	-43.2	-44.1	20.7	0.00e+00	0	45	0	1902116864	57	4131
2026-01-25 02:45:26.93	263.22	15.53	-43.1	-44.0	20.8	0.00e+00	0	44	0	1905262592	57	4082
2026-01-25 02:45:27.94	263.11	15.44	-43.1	-44.0	20.8	0.00e+00	0	44	0	1908408320	57	4079
2026-01-25 02:45:28.95	263.01	15.34	-43.0	-43.9	20.8	0.00e+00	0	44	0	1911554048	57	4046
2026-01-25 02:45:29.96	262.90	15.25	-43.0	-43.9	20.8	0.00e+00	0	44	0	1914699776	57	4029
2026-01-25 02:45:30.97	262.80	15.15	-43.0	-43.9	20.9	0.00e+00	0	44	0	1917845504	57	4038
2026-01-25 02:45:31.98	262.69	15.06	-43.1	-44.0	20.8	0.00e+00	0	44	0	1920991232	57	4088
2026-01-25 02:45:32.99	262.59	14.96	-43.0	-43.9	20.8	0.00e+00	0	44	0	1924136960	57	4045
2026-01-25 02:45:34.00	262.49	14.87	-43.0	-44.0	20.8	0.00e+00	0	44	0	1927282688	57	4053
2026-01-25 02:45:35.01	262.39	14.77	-42.9	-43.8	21.0	0.00e+00	0	44	0	1930428416	57	3994
2026-01-25 02:45:36.02	262.28	14.68	-43.1	-44.0	20.8	0.00e+00	0	44	0	1933574144	57	4077
2026-01-25 02:45:37.03	262.18	14.59	-43.1	-44.0	20.8	0.00e+00	0	44	0	1936719872	57	4090
2026-01-25 02:45:38.04	262.08	14.49	-43.3	-44.3	20.6	0.00e+00	0	44	0	1939865600	57	4194
2026-01-25 02:45:39.05	261.99	14.40	-43.2	-44.1	20.7	0.00e+00	0	44	0	1943011328	57	4145
2026-01-25 02:45:40.06	261.89	14.31	-43.3	-44.2	20.6	0.00e+00	0	45	0	1946157056	57	4178
2026-01-25 02:45:41.07	261.79	14.22	-43.3	-44.3	20.6	0.00e+00	0	44	0	1949302784	57	4207
2026-01-25 02:45:42.08	261.69	14.12	-43.4	-44.4	20.5	0.00e+00	0	44	0	1952448512	57	4267
2026-01-25 02:45:43.08	261.60	14.03	-43.5	-44.5	20.4	0.00e+00	0	44	0	1955594240	57	4293
2026-01-25 02:45:44.10	261.50	13.94	-43.5	-44.5	20.3	0.00e+00	0	44	0	1958739968	57	4323
2026-01-25 02:45:45.11	261.40	13.85	-43.6	-44.5	20.3	0.00e+00	0	45	0	1961885696	57	4336
2026-01-25 02:45:46.11	261.31	13.76	-43.6	-44.6	20.2	0.00e+00	0	45	0	1965031424	57	4341
2026-01-25 02:45:47.12	261.22	13.67	-43.5	-44.5	20.2	0.00e+00	0	44	0	1968177152	57	4330
2026-01-25 02:45:48.13	261.12	13.58	-43.4	-44.4	20.3	0.00e+00	0	44	0	1971322880	57	4276
2026-01-25 02:45:49.14	261.03	13.49	-43.4	-44.4	20.3	0.00e+00	0	44	0	1974468608	57	4261
2026-01-25 02:45:50.15	260.94	13.40	-43.4	-44.3	20.4	0.00e+00	0	45	0	1977614336	57	4234
2026-01-25 02:45:51.15	260.85	13.31	-43.2	-44.2	20.5	0.00e+00	0	44	0	1980760064	57	4147
2026-01-25 02:45:52.16	260.75	13.22	-43.0	-43.9	20.7	0.00e+00	0	44	0	1983905792	57	4025
2026-01-25 02:45:53.17	260.66	13.13	-43.0	-43.9	20.7	0.00e+00	0	44	0	1987051520	57	4048
2026-01-25 02:45:54.18	260.57	13.04	-42.9	-43.8	20.8	0.00e+00	0	44	0	1990197248	57	3982
2026-01-25 02:45:55.18	260.48	12.95	-42.9	-43.8	20.8	0.00e+00	0	44	0	1993342976	57	3970
2026-01-25 02:45:56.19	260.40	12.86	-42.8	-43.7	20.9	0.00e+00	0	45	0	1996488704	57	3929
2026-01-25 02:45:57.20	260.31	12.78	-42.9	-43.8	20.8	0.00e+00	0	44	0	1999634432	57	3977
2026-01-25 02:45:58.21	260.22	12.69	-42.9	-43.8	20.8	0.00e+00	0	44	0	2002780160	57	3978
2026-01-25 02:45:59.22	260.13	12.60	-42.8	-43.7	20.9	0.00e+00	0	45	0	2005925888	57	3946
2026-01-25 02:46:00.23	260.04	12.51	-42.9	-43.8	20.8	0.00e+00	0	44	0	2009071616	57	3999
2026-01-25 02:46:01.24	259.96	12.43	-43.1	-44.0	20.7	0.00e+00	0	45	0	2012217344	57	4076
2026-01-25 02:46:02.25	259.87	12.34	-43.2	-44.1	20.5	0.00e+00	0	45	0	2015363072	57	4141
2026-01-25 02:46:03.25	259.79	12.25	-43.2	-44.2	20.5	0.00e+00	0	44	0	2018508800	57	4152
2026-01-25 02:46:04.26	259.70	12.17	-43.3	-44.2	20.5	0.00e+00	0	44	0	2021654528	57	4171
2026-01-25 02:46:05.27	259.62	12.08	-43.3	-44.2	20.5	0.00e+00	0	44	0	2024800256	57	4182
2026-01-25 02:46:06.28	259.53	11.99	-43.3	-44.3	20.5	0.00e+00	0	45	0	2027945984	57	4204
2026-01-25 02:46:07.29	259.45	11.91	-43.3	-44.3	20.5	0.00e+00	0	44	0	2031091712	57	4218
2026-01-25 02:46:08.29	259.37	11.82	-43.4	-44.4	20.3	0.00e+00	0	44	0	2034237440	57	4262
2026-01-25 02:46:09.30	259.29	11.74	-43.5	-44.4	20.3	0.00e+00	0	44	0	2037383168	57	4290
2026-01-25 02:46:10.31	259.21	11.65	-43.5	-44.5	20.2	0.00e+00	0	45	0	2040528896	57	4307
2026-01-25 02:46:11.32	259.12	11.57	-43.5	-44.5	20.3	0.00e+00	0	44	0	2043674624	57	4306
2026-01-25 02:46:12.33	259.04	11.48	-43.5	-44.5	20.3	0.00e+00	0	45	0	2046820352	57	4306
2026-01-25 02:46:13.34	258.96	11.40	-43.6	-44.6	20.1	0.00e+00	0	44	0	2049966080	57	4379
2026-01-25 02:46:14.35	258.88	11.31	-43.6	-44.6	20.1	0.00e+00	0	44	0	2053111808	57	4362
2026-01-25 02:46:15.36	258.80	11.23	-43.8	-44.8	20.0	0.00e+00	0	44	0	2056257536	58	4213
2026-01-25 02:46:16.37	258.72	11.15	-43.7	-44.7	20.0	0.00e+00	0	44	0	2059403264	58	4193
