passes_logs/2026/01/08/XPeterburg/XPeterburg__20260108_143047_FENGYUN_3E_rec.log

#Pass ID: 20260108_143047_FENGYUN 3E
#Satellite: FENGYUN 3E
#Configuration: FENGYUN 3E
#Start time: 2026-01-08 14:30:41

#Version: 1.5.20200625
#Station: XPeterburg
#Location: 30.318091 lon 59.932769 lat
#TLE: 1 49008U 21062A   25359.14718215  .00000011  00000+0  25812-4 0  9998
#TLE: 2 49008  98.7476 359.5210 0000940 189.9291 170.1866 14.19881103231888

#Time	Az	El	Level	Level2	SNR	BER	Gain	Gain2
2026-01-08 14:30:41.02	136.38	67.48	-37.5	-40.0	3.3	8398532	92	6561
2026-01-08 14:30:41.23	136.28	67.57	-37.2	-47.7	3.6	7999958	78	16662
2026-01-08 14:30:41.43	136.19	67.66	-37.5	-40.9	3.5	8437992	92	7295
2026-01-08 14:30:41.63	136.09	67.74	-37.5	-40.1	3.3	8415904	92	6601
2026-01-08 14:30:41.83	135.99	67.83	-37.5	-40.0	3.3	8388381	92	6557
2026-01-08 14:30:42.03	135.90	67.91	-37.5	-41.4	3.6	8404243	92	7746
2026-01-08 14:30:42.23	135.80	67.99	-37.5	-41.2	3.6	8437957	92	7564
2026-01-08 14:30:42.43	135.70	68.08	-37.5	-40.3	3.3	8437957	92	6750
2026-01-08 14:30:42.63	135.60	68.16	-37.5	-40.0	3.3	8418800	92	6565
2026-01-08 14:30:42.83	135.50	68.25	-37.5	-41.4	3.6	8406841	92	7714
2026-01-08 14:30:43.04	135.39	68.34	-37.5	-41.4	3.6	8414440	92	7691
2026-01-08 14:30:43.24	135.29	68.42	-37.5	-39.9	3.4	8372039	93	6543
2026-01-08 14:30:43.44	135.18	68.50	-37.5	-39.5	3.3	8410057	93	6179
2026-01-08 14:30:43.64	135.08	68.59	-37.5	-39.4	3.3	8399608	93	6155
2026-01-08 14:30:43.84	134.97	68.67	-37.5	-40.9	3.6	8356109	93	7284
2026-01-08 14:30:44.04	134.87	68.76	-37.5	-40.2	3.5	8439159	93	6715
2026-01-08 14:30:44.24	134.76	68.84	-37.5	-39.5	3.3	8439159	93	6191
2026-01-08 14:30:44.44	134.65	68.93	-37.5	-39.5	3.3	8410068	93	6203
2026-01-08 14:30:44.64	134.54	69.01	-37.5	-41.0	3.6	8395030	93	7374
2026-01-08 14:30:44.84	134.43	69.09	-37.5	-40.4	3.5	8451484	93	6887
2026-01-08 14:30:45.04	134.32	69.18	-37.5	-39.6	3.3	8419841	93	6275
2026-01-08 14:30:45.25	134.20	69.27	-37.5	-39.5	3.3	8389675	93	6188
2026-01-08 14:30:45.45	134.09	69.35	-37.5	-41.0	3.6	8405136	93	7349
2026-01-08 14:30:45.65	133.98	69.44	-37.5	-40.7	3.6	8440704	93	7124
2026-01-08 14:30:45.85	133.86	69.52	-37.5	-39.6	3.4	8440704	93	6291
2026-01-08 14:30:46.05	133.74	69.60	-37.5	-39.4	3.3	8419338	93	6124
2026-01-08 14:30:46.25	133.63	69.69	-37.5	-40.9	3.6	8397102	93	7262
2026-01-08 14:30:46.45	133.51	69.77	-37.5	-40.9	3.6	8427257	93	7267
2026-01-08 14:30:46.65	133.39	69.86	-37.5	-39.8	3.4	8435131	93	6449
2026-01-08 14:30:46.85	133.27	69.94	-37.5	-39.4	3.3	8389205	93	6138
2026-01-08 14:30:47.05	133.15	70.03	-37.5	-39.4	3.3	8397090	93	6146
2026-01-08 14:30:47.26	133.02	70.11	-37.5	-40.8	3.6	8433883	93	7237
2026-01-08 14:30:47.46	132.89	70.20	-37.5	-40.1	3.4	8433883	93	6625
2026-01-08 14:30:47.66	132.77	70.28	-37.5	-39.3	3.3	8440853	93	6090
2026-01-08 14:30:47.86	132.64	70.37	-37.5	-39.4	3.3	8399654	93	6150
2026-01-08 14:30:48.06	132.52	70.45	-37.5	-40.8	3.6	8391586	93	7255
2026-01-08 14:30:48.26	132.39	70.54	-37.5	-40.4	3.5	8444183	93	6857
2026-01-08 14:30:48.46	132.26	70.62	-37.5	-39.6	3.3	8415653	93	6268
2026-01-08 14:30:48.66	132.13	70.70	-37.5	-39.5	3.3	8391780	93	6194
2026-01-08 14:30:48.86	132.00	70.79	-37.5	-41.0	3.6	8392250	93	7363
2026-01-08 14:30:49.06	131.86	70.87	-37.5	-40.7	3.6	8446872	93	7059
2026-01-08 14:30:49.27	131.72	70.96	-37.5	-39.6	3.3	8422382	93	6243
2026-01-08 14:30:49.47	131.58	71.04	-37.5	-39.5	3.3	8398406	93	6209
2026-01-08 14:30:49.67	131.45	71.13	-37.5	-41.0	3.6	8398406	93	7338
2026-01-08 14:30:49.87	131.31	71.21	-37.5	-40.7	3.6	8416980	93	7137
2026-01-08 14:30:50.07	131.17	71.30	-37.5	-39.8	3.4	8442604	93	6394
2026-01-08 14:30:50.27	131.03	71.38	-37.5	-39.5	3.3	8408397	93	6189
2026-01-08 14:30:50.47	130.89	71.46	-37.5	-40.9	3.6	8388542	93	7282
2026-01-08 14:30:50.67	130.74	71.55	-37.5	-41.0	3.6	8427337	93	7340
2026-01-08 14:30:50.87	130.60	71.63	-37.5	-39.9	3.4	8434902	93	6501
2026-01-08 14:30:51.08	130.44	71.72	-37.5	-39.5	3.3	8385395	93	6194
2026-01-08 14:30:51.28	130.29	71.80	-37.5	-39.4	3.3	8385395	93	6153
2026-01-08 14:30:51.48	130.14	71.89	-37.5	-40.9	3.6	8383907	93	7259
2026-01-08 14:30:51.68	129.99	71.97	-37.5	-40.1	3.4	8442363	93	6641
2026-01-08 14:30:51.88	129.84	72.05	-37.5	-39.5	3.3	8419281	93	6221
2026-01-08 14:30:52.08	129.69	72.14	-37.5	-39.4	3.3	8398590	93	6150
2026-01-08 14:30:52.28	129.53	72.22	-37.5	-40.9	3.6	8414279	93	7298
2026-01-08 14:30:52.48	129.37	72.30	-37.5	-40.4	3.5	8385715	93	6893
2026-01-08 14:30:52.68	129.21	72.39	-37.5	-39.6	3.3	8412357	93	6264
2026-01-08 14:30:52.88	129.05	72.47	-37.5	-39.3	3.3	8412357	93	6094
2026-01-08 14:30:53.09	128.88	72.56	-37.5	-41.4	3.6	8396484	92	7695
2026-01-08 14:30:53.29	128.72	72.64	-37.5	-41.3	3.6	8348728	92	7632
2026-01-08 14:30:53.49	128.55	72.72	-37.5	-40.2	3.4	8451107	92	6738
2026-01-08 14:30:53.69	128.39	72.81	-37.4	-39.8	3.3	8409667	92	6469
2026-01-08 14:30:53.89	128.22	72.89	-37.4	-41.2	3.6	8394607	92	7625
2026-01-08 14:30:54.09	128.05	72.97	-37.4	-41.2	3.6	8428882	92	7600
2026-01-08 14:30:54.29	127.88	73.06	-37.5	-40.2	3.4	8432281	92	6735
2026-01-08 14:30:54.49	127.70	73.14	-37.5	-39.8	3.3	8394321	92	6474
2026-01-08 14:30:54.70	127.52	73.22	-37.4	-39.8	3.3	8394321	92	6456
2026-01-08 14:30:54.90	127.34	73.31	-37.4	-41.2	3.6	8379650	92	7580
2026-01-08 14:30:55.10	127.16	73.39	-37.4	-40.5	3.4	8449195	92	6989
2026-01-08 14:30:55.30	126.98	73.47	-37.5	-39.8	3.3	8423309	92	6439
2026-01-08 14:30:55.50	126.79	73.55	-37.4	-39.8	3.3	8391288	92	6485
2026-01-08 14:30:55.70	126.61	73.64	-37.5	-41.3	3.6	8410274	92	7657
2026-01-08 14:30:55.90	126.42	73.72	-37.5	-40.5	3.5	8383438	93	6956
2026-01-08 14:30:56.10	126.23	73.80	-37.5	-39.6	3.3	8424648	93	6232
2026-01-08 14:30:56.30	126.04	73.88	-37.5	-39.5	3.3	8424648	93	6183
2026-01-08 14:30:56.51	125.84	73.97	-37.5	-40.9	3.6	8396438	93	7286
2026-01-08 14:30:56.71	125.64	74.05	-37.5	-40.9	3.6	8386116	93	7276
2026-01-08 14:30:56.91	125.44	74.13	-37.5	-39.8	3.4	8453819	93	6427
2026-01-08 14:30:57.11	125.24	74.21	-37.5	-39.5	3.3	8415103	93	6205
2026-01-08 14:30:57.31	125.04	74.29	-37.5	-40.9	3.6	8395076	93	7274
2026-01-08 14:30:57.51	124.84	74.37	-37.5	-40.9	3.6	8423252	93	7302
2026-01-08 14:30:57.71	124.63	74.45	-37.6	-40.2	3.4	8372943	93	6653
2026-01-08 14:30:57.91	124.42	74.53	-37.6	-39.7	3.3	8394332	93	6306
2026-01-08 14:30:58.11	124.21	74.61	-37.6	-39.8	3.3	8394332	93	6306
2026-01-08 14:30:58.32	123.99	74.70	-37.5	-41.0	3.6	8351646	93	7338
2026-01-08 14:30:58.52	123.77	74.78	-37.5	-40.0	3.4	8428733	93	6574
2026-01-08 14:30:58.72	123.56	74.86	-37.5	-39.5	3.3	8438335	93	6193
2026-01-08 14:30:58.92	123.33	74.94	-37.5	-39.5	3.3	8393497	93	6194
2026-01-08 14:30:59.12	123.11	75.02	-37.5	-40.9	3.6	8414920	93	7287
2026-01-08 14:30:59.32	122.89	75.10	-37.5	-40.1	3.4	8446300	93	6653
2026-01-08 14:30:59.52	122.66	75.18	-37.5	-39.6	3.3	8414234	93	6223
2026-01-08 14:30:59.72	122.43	75.25	-37.5	-39.5	3.3	8389549	93	6213
2026-01-08 14:30:59.92	122.20	75.33	-37.5	-41.0	3.6	8429706	93	7352
2026-01-08 14:31:00.13	121.95	75.42	-37.5	-40.4	3.5	8429706	93	6861
2026-01-08 14:31:00.33	121.71	75.49	-37.5	-39.6	3.3	8441654	93	6284
2026-01-08 14:31:00.53	121.47	75.57	-37.5	-39.5	3.3	8413650	93	6199
2026-01-08 14:31:00.73	121.22	75.65	-37.5	-41.0	3.6	8379901	93	7325
2026-01-08 14:31:00.93	120.98	75.73	-37.5	-40.7	3.6	8435085	93	7117
2026-01-08 14:31:01.13	120.73	75.81	-37.5	-39.7	3.3	8432407	93	6352
2026-01-08 14:31:01.33	120.48	75.88	-37.5	-39.5	3.3	8401371	93	6188
2026-01-08 14:31:01.53	120.22	75.96	-37.5	-40.9	3.6	8394321	93	7299
2026-01-08 14:31:01.73	119.96	76.04	-37.5	-40.9	3.6	8394321	93	7289
2026-01-08 14:31:01.93	119.70	76.11	-37.5	-40.1	3.4	8426445	93	6574
2026-01-08 14:31:02.14	119.43	76.19	-37.5	-39.6	3.3	8361396	93	6202
2026-01-08 14:31:02.34	119.16	76.27	-37.6	-39.6	3.3	8395603	93	6225
2026-01-08 14:31:02.54	118.89	76.35	-37.5	-40.9	3.6	8344196	93	7289
2026-01-08 14:31:02.74	118.61	76.42	-37.5	-40.1	3.5	8443050	93	6682
2026-01-08 14:31:02.94	118.34	76.50	-37.5	-39.5	3.3	8411933	93	6177
2026-01-08 14:31:03.14	118.06	76.57	-37.5	-39.4	3.3	8392925	93	6152
2026-01-08 14:31:03.34	117.78	76.65	-37.5	-40.8	3.6	8420219	93	7212
2026-01-08 14:31:03.54	117.49	76.72	-37.5	-40.5	3.5	8420219	93	6928
2026-01-08 14:31:03.74	117.20	76.80	-37.5	-39.6	3.3	8389846	93	6258
2026-01-08 14:31:03.95	116.89	76.87	-37.5	-39.4	3.3	8419063	93	6137
2026-01-08 14:31:04.15	116.60	76.95	-37.5	-40.8	3.6	8393131	93	7215
2026-01-08 14:31:04.35	116.30	77.02	-37.5	-40.7	3.6	8363903	93	7118
2026-01-08 14:31:04.55	115.99	77.09	-37.5	-39.5	3.4	8433574	93	6256
2026-01-08 14:31:04.75	115.69	77.17	-37.5	-39.3	3.3	8400833	93	6106
2026-01-08 14:31:04.95	115.37	77.24	-37.4	-40.7	3.6	8394927	93	7143
2026-01-08 14:31:05.15	115.06	77.31	-37.4	-40.7	3.6	8394927	93	7166
2026-01-08 14:31:05.35	114.74	77.38	-37.4	-39.6	3.4	8443817	93	6358
2026-01-08 14:31:05.55	114.42	77.45	-37.5	-39.3	3.3	8409919	93	6055
2026-01-08 14:31:05.75	114.09	77.53	-37.4	-39.2	3.3	8390373	93	6020
2026-01-08 14:31:05.96	113.75	77.60	-37.4	-40.6	3.6	8416511	93	7109
2026-01-08 14:31:06.16	113.42	77.67	-37.4	-39.8	3.4	8446540	93	6474
2026-01-08 14:31:06.36	113.08	77.74	-37.4	-39.1	3.3	8416763	93	5994
2026-01-08 14:31:06.56	112.74	77.81	-37.4	-39.1	3.3	8386711	93	6003
2026-01-08 14:31:06.76	112.39	77.88	-37.4	-40.4	3.6	8416522	93	7015
2026-01-08 14:31:06.96	112.04	77.95	-37.4	-39.8	3.5	8416522	93	6534
2026-01-08 14:31:07.16	111.69	78.02	-37.3	-39.0	3.3	8439033	93	5942
2026-01-08 14:31:07.36	111.33	78.08	-37.3	-39.0	3.3	8401473	93	5939
2026-01-08 14:31:07.56	110.97	78.15	-37.3	-40.3	3.6	8399597	93	6928
2026-01-08 14:31:07.77	110.59	78.22	-37.3	-40.1	3.6	8437053	93	6760
2026-01-08 14:31:07.97	110.21	78.29	-37.3	-38.9	3.3	8434467	93	5890
2026-01-08 14:31:08.17	109.84	78.35	-37.3	-38.9	3.3	8398120	93	5869
2026-01-08 14:31:08.37	109.46	78.42	-37.3	-40.3	3.6	8390350	93	6920
2026-01-08 14:31:08.57	109.08	78.48	-37.3	-40.2	3.6	8434101	93	6815
2026-01-08 14:31:08.77	108.69	78.55	-37.3	-39.2	3.4	8414920	93	6087
2026-01-08 14:31:08.97	108.30	78.61	-37.4	-39.0	3.3	8414920	93	5921
2026-01-08 14:31:09.17	107.90	78.68	-37.3	-40.4	3.6	8400306	93	7004
2026-01-08 14:31:09.37	107.50	78.74	-37.3	-40.4	3.6	8406795	93	6958
2026-01-08 14:31:09.58	107.07	78.81	-37.4	-39.4	3.4	8450408	93	6203
2026-01-08 14:31:09.78	106.66	78.87	-37.3	-38.9	3.3	8397525	93	5911
2026-01-08 14:31:09.98	106.24	78.93	-37.4	-39.0	3.3	8387065	93	5960
2026-01-08 14:31:10.18	105.82	78.99	-37.4	-40.5	3.6	8419887	93	7057
2026-01-08 14:31:10.38	105.40	79.05	-37.4	-39.7	3.4	8433036	93	6406
2026-01-08 14:31:10.58	104.97	79.11	-37.4	-39.0	3.3	8433036	93	5968
2026-01-08 14:31:10.78	104.53	79.17	-37.4	-39.1	3.3	8397994	93	5965
2026-01-08 14:31:10.98	104.09	79.23	-37.4	-40.6	3.6	8400615	93	7090
2026-01-08 14:31:11.18	103.65	79.29	-37.4	-40.2	3.5	8440658	93	6774
2026-01-08 14:31:11.39	103.18	79.35	-37.4	-39.3	3.4	8394424	93	6125
2026-01-08 14:31:11.59	102.72	79.40	-37.4	-39.2	3.3	8390899	93	6012
2026-01-08 14:31:11.79	102.26	79.46	-37.4	-40.7	3.6	8344047	93	7182
2026-01-08 14:31:11.99	101.80	79.51	-37.4	-40.6	3.6	8444469	93	7102
2026-01-08 14:31:12.19	101.33	79.57	-37.4	-39.5	3.4	8431091	93	6262
2026-01-08 14:31:12.39	100.85	79.62	-37.4	-39.2	3.3	8431091	93	6039
2026-01-08 14:31:12.59	100.37	79.68	-37.4	-40.7	3.6	8390029	93	7190
2026-01-08 14:31:12.79	99.89	79.73	-37.4	-40.7	3.6	8416957	93	7160
2026-01-08 14:31:13.00	99.37	79.78	-37.5	-39.7	3.4	8437477	93	6387
2026-01-08 14:31:13.20	98.88	79.83	-37.5	-39.3	3.3	8413421	93	6096
2026-01-08 14:31:13.40	98.38	79.88	-37.5	-39.4	3.3	8396553	93	6125
2026-01-08 14:31:13.60	97.87	79.93	-37.5	-40.9	3.6	8423538	93	7284
2026-01-08 14:31:13.80	97.36	79.98	-37.5	-40.1	3.5	8386058	93	6679
2026-01-08 14:31:14.00	96.85	80.03	-37.5	-39.5	3.3	8386058	93	6197
2026-01-08 14:31:14.20	96.33	80.08	-37.5	-39.4	3.3	8405113	93	6143
2026-01-08 14:31:14.40	95.80	80.12	-37.5	-40.9	3.6	8393222	93	7280
2026-01-08 14:31:14.60	95.27	80.17	-37.5	-40.5	3.5	8387866	93	6972
2026-01-08 14:31:14.81	94.71	80.22	-37.5	-39.7	3.3	8446311	93	6302
2026-01-08 14:31:15.01	94.17	80.26	-37.5	-39.4	3.3	8397491	93	6129
2026-01-08 14:31:15.21	93.62	80.30	-37.5	-41.0	3.6	8401885	93	7315
2026-01-08 14:31:15.41	93.07	80.35	-37.5	-40.7	3.6	8445327	93	7124
2026-01-08 14:31:15.61	92.52	80.39	-37.5	-39.8	3.4	8445327	93	6392
2026-01-08 14:31:15.81	91.96	80.43	-37.5	-39.5	3.3	8419601	93	6162
2026-01-08 14:31:16.01	91.39	80.47	-37.5	-40.9	3.6	8390487	93	7284
2026-01-08 14:31:16.21	90.82	80.51	-37.5	-40.9	3.6	8414028	93	7271
2026-01-08 14:31:16.41	90.25	80.54	-37.5	-39.9	3.4	8448303	93	6464
2026-01-08 14:31:16.62	89.64	80.58	-37.5	-39.4	3.3	8423240	93	6153
2026-01-08 14:31:16.82	89.06	80.62	-37.5	-40.9	3.6	8381126	93	7254
2026-01-08 14:31:17.02	88.47	80.65	-37.5	-40.9	3.6	8436859	93	7257
2026-01-08 14:31:17.22	87.88	80.69	-37.5	-39.8	3.4	8429008	93	6441
2026-01-08 14:31:17.42	87.28	80.72	-37.5	-39.4	3.3	8389961	93	6151
2026-01-08 14:31:17.62	86.68	80.75	-37.5	-39.4	3.3	8396896	93	6166
2026-01-08 14:31:17.82	86.07	80.78	-37.5	-40.8	3.6	8396896	93	7189
2026-01-08 14:31:18.02	85.47	80.81	-37.5	-39.8	3.4	8444915	93	6480
2026-01-08 14:31:18.22	84.85	80.84	-37.5	-39.2	3.3	8426616	93	6050
2026-01-08 14:31:18.42	84.23	80.87	-37.4	-39.1	3.3	8394653	93	6005
2026-01-08 14:31:18.63	83.58	80.90	-37.4	-40.5	3.6	8411773	93	7039
2026-01-08 14:31:18.83	82.96	80.92	-37.3	-39.8	3.5	8447204	93	6551
2026-01-08 14:31:19.03	82.33	80.95	-37.3	-39.0	3.3	8423194	93	5935
2026-01-08 14:31:19.23	81.70	80.97	-37.3	-38.9	3.3	8390567	93	5873
2026-01-08 14:31:19.43	81.06	80.99	-37.3	-40.2	3.6	8390567	93	6853
2026-01-08 14:31:19.63	80.43	81.01	-37.3	-40.1	3.6	8414051	93	6784
2026-01-08 14:31:19.83	79.78	81.03	-37.3	-39.0	3.4	8446781	93	6006
2026-01-08 14:31:20.03	79.14	81.05	-37.3	-38.9	3.3	8404907	93	5878
2026-01-08 14:31:20.24	78.46	81.07	-37.3	-40.2	3.6	8393188	93	6906
2026-01-08 14:31:20.44	77.81	81.09	-37.3	-40.3	3.6	8423343	93	6935
2026-01-08 14:31:20.64	77.16	81.10	-37.3	-39.3	3.4	8441699	93	6184
2026-01-08 14:31:20.84	76.51	81.12	-37.4	-39.0	3.3	8397823	93	5924
2026-01-08 14:31:21.04	75.85	81.13	-37.4	-39.0	3.3	8397823	93	5936
2026-01-08 14:31:21.24	75.19	81.14	-37.4	-40.6	3.6	8402961	93	7097
2026-01-08 14:31:21.44	74.53	81.16	-37.5	-40.0	3.4	8436309	93	6616
2026-01-08 14:31:21.64	73.87	81.16	-37.5	-39.3	3.3	8383255	93	6078
2026-01-08 14:31:21.84	73.21	81.17	-37.5	-39.3	3.3	8393749	93	6084
2026-01-08 14:31:22.04	72.55	81.18	-37.4	-40.7	3.6	8341712	93	7126
2026-01-08 14:31:22.24	71.88	81.19	-37.5	-40.3	3.5	8443519	93	6848
2026-01-08 14:31:22.45	71.18	81.19	-37.5	-39.5	3.3	8434284	93	6192
2026-01-08 14:31:22.65	70.52	81.20	-37.5	-39.4	3.3	8388874	93	6135
2026-01-08 14:31:22.85	69.85	81.20	-37.5	-40.8	3.6	8388874	93	7250
2026-01-08 14:31:23.05	69.18	81.20	-37.5	-40.7	3.6	8414016	93	7133
2026-01-08 14:31:23.25	68.52	81.20	-37.5	-39.6	3.4	8444755	93	6287
2026-01-08 14:31:23.45	67.85	81.20	-37.5	-39.4	3.3	8413810	93	6135
2026-01-08 14:31:23.65	67.18	81.20	-37.5	-40.8	3.6	8400512	93	7207
2026-01-08 14:31:23.85	66.52	81.20	-37.5	-40.8	3.6	8442535	93	7226
2026-01-08 14:31:24.05	65.85	81.19	-37.5	-39.9	3.4	8380817	93	6451
2026-01-08 14:31:24.26	65.15	81.19	-37.5	-39.5	3.3	8406131	93	6144
2026-01-08 14:31:24.46	64.49	81.18	-37.5	-39.4	3.3	8406131	93	6134
2026-01-08 14:31:24.66	63.82	81.17	-37.5	-40.8	3.6	8393772	93	7245
2026-01-08 14:31:24.86	63.16	81.16	-37.5	-40.1	3.5	8386882	93	6688
2026-01-08 14:31:25.06	62.50	81.15	-37.5	-39.5	3.3	8425918	93	6204
2026-01-08 14:31:25.26	61.84	81.14	-37.5	-39.5	3.3	8397571	93	6191
2026-01-08 14:31:25.46	61.18	81.13	-37.5	-41.0	3.6	8411785	93	7339
2026-01-08 14:31:25.66	60.53	81.11	-37.5	-40.5	3.5	8424293	93	6916
2026-01-08 14:31:25.86	59.88	81.10	-37.5	-39.7	3.3	8401817	93	6320
2026-01-08 14:31:26.07	59.19	81.08	-37.5	-39.5	3.3	8391700	93	6201
2026-01-08 14:31:26.27	58.55	81.07	-37.5	-41.0	3.6	8420677	93	7310
2026-01-08 14:31:26.47	57.90	81.05	-37.5	-40.4	3.5	8429683	93	6841
2026-01-08 14:31:26.67	57.26	81.03	-37.5	-39.5	3.3	8429683	93	6171
2026-01-08 14:31:26.87	56.62	81.01	-37.5	-39.4	3.3	8406909	93	6113
2026-01-08 14:31:27.07	55.98	80.99	-37.5	-40.7	3.6	8384674	93	7179
2026-01-08 14:31:27.27	55.35	80.96	-37.4	-40.5	3.6	8429821	93	6988
2026-01-08 14:31:27.47	54.72	80.94	-37.4	-39.4	3.4	8436515	93	6192
2026-01-08 14:31:27.67	54.09	80.91	-37.4	-39.2	3.3	8403511	93	6016
2026-01-08 14:31:27.88	53.44	80.89	-37.4	-40.5	3.6	8382019	93	7025
2026-01-08 14:31:28.08	52.82	80.86	-37.4	-40.6	3.6	8445350	93	7113
2026-01-08 14:31:28.28	52.20	80.83	-37.3	-39.4	3.4	8445350	93	6231
2026-01-08 14:31:28.48	51.59	80.80	-37.3	-38.9	3.3	8379924	93	5925
2026-01-08 14:31:28.68	50.98	80.77	-37.3	-39.0	3.3	8396690	93	5954
2026-01-08 14:31:28.88	50.38	80.74	-37.4	-40.6	3.6	8353717	93	7102
2026-01-08 14:31:29.08	49.78	80.71	-37.4	-39.9	3.4	8442077	93	6558
2026-01-08 14:31:29.28	49.18	80.68	-37.5	-39.3	3.3	8431446	93	6059
2026-01-08 14:31:29.49	48.56	80.64	-37.4	-39.3	3.3	8386425	93	6066
2026-01-08 14:31:29.69	47.98	80.60	-37.5	-40.7	3.6	8415744	93	7173
2026-01-08 14:31:29.89	47.40	80.57	-37.4	-40.7	3.5	8415744	92	7202
2026-01-08 14:31:30.09	46.82	80.53	-37.4	-39.8	3.3	8396301	92	6531
2026-01-08 14:31:30.29	46.25	80.49	-37.4	-39.8	3.3	8403408	92	6470
2026-01-08 14:31:30.49	45.68	80.45	-37.5	-40.9	3.6	8384651	93	7268
2026-01-08 14:31:30.69	45.11	80.41	-37.5	-40.9	3.6	8366912	93	7253
2026-01-08 14:31:30.89	44.56	80.37	-37.5	-39.8	3.4	8439193	93	6431
2026-01-08 14:31:31.09	44.00	80.33	-37.5	-39.5	3.3	8386425	93	6205
2026-01-08 14:31:31.29	43.45	80.29	-37.5	-41.0	3.6	8388050	93	7327
2026-01-08 14:31:31.50	42.88	80.24	-37.5	-40.9	3.6	8439743	93	7279
2026-01-08 14:31:31.70	42.35	80.20	-37.5	-39.8	3.4	8439743	93	6407
2026-01-08 14:31:31.90	41.81	80.16	-37.5	-39.5	3.3	8430164	93	6174
2026-01-08 14:31:32.10	41.28	80.11	-37.5	-39.3	3.3	8389377	93	6100
2026-01-08 14:31:32.30	40.76	80.06	-37.5	-40.8	3.6	8398590	93	7212
2026-01-08 14:31:32.50	40.24	80.01	-37.6	-40.2	3.4	8378345	93	6687
2026-01-08 14:31:32.70	39.73	79.97	-37.6	-39.6	3.3	8417312	93	6244
2026-01-08 14:31:32.90	39.22	79.92	-37.6	-39.5	3.3	8395259	93	6163
2026-01-08 14:31:33.10	38.72	79.87	-37.5	-40.8	3.6	8354953	93	7251
2026-01-08 14:31:33.30	38.22	79.82	-37.5	-40.4	3.5	8354953	93	6880
2026-01-08 14:31:33.51	37.70	79.76	-37.5	-39.5	3.3	8444034	93	6227
2026-01-08 14:31:33.71	37.21	79.71	-37.5	-39.4	3.3	8424579	93	6135
2026-01-08 14:31:33.91	36.73	79.66	-37.5	-40.8	3.6	8396621	93	7207
2026-01-08 14:31:34.11	36.25	79.61	-37.5	-40.6	3.6	8436504	93	7030
2026-01-08 14:31:34.31	35.78	79.55	-37.5	-39.5	3.4	8450294	93	6232
2026-01-08 14:31:34.51	35.31	79.50	-37.5	-39.3	3.3	8408042	93	6078
2026-01-08 14:31:34.71	34.85	79.44	-37.5	-40.8	3.6	8402160	93	7227
2026-01-08 14:31:34.91	34.39	79.38	-37.5	-40.8	3.6	8432693	93	7215
2026-01-08 14:31:35.12	33.92	79.32	-37.5	-39.7	3.4	8432693	93	6392
2026-01-08 14:31:35.32	33.47	79.27	-37.5	-39.4	3.3	8419509	93	6156
2026-01-08 14:31:35.52	33.03	79.21	-37.5	-40.8	3.6	8393543	93	7249
2026-01-08 14:31:35.72	32.59	79.15	-37.5	-40.9	3.6	8414554	93	7301
2026-01-08 14:31:35.92	32.15	79.09	-37.5	-39.9	3.4	8438610	93	6506
2026-01-08 14:31:36.12	31.73	79.03	-37.5	-39.5	3.3	8410274	93	6201
2026-01-08 14:31:36.32	31.30	78.97	-37.5	-39.5	3.3	8398281	93	6198
2026-01-08 14:31:36.52	30.88	78.91	-37.5	-41.0	3.6	8416294	93	7305
2026-01-08 14:31:36.72	30.47	78.85	-37.5	-40.2	3.5	8447193	93	6705
2026-01-08 14:31:36.92	30.06	78.79	-37.5	-39.6	3.3	8409702	93	6228
2026-01-08 14:31:37.13	29.64	78.72	-37.5	-39.5	3.3	8409702	93	6200
2026-01-08 14:31:37.33	29.24	78.66	-37.5	-40.9	3.6	8387866	93	7293
2026-01-08 14:31:37.53	28.84	78.59	-37.5	-40.4	3.5	8440830	93	6854
2026-01-08 14:31:37.73	28.45	78.53	-37.5	-39.5	3.3	8448646	93	6216
2026-01-08 14:31:37.93	28.06	78.46	-37.5	-39.5	3.3	8396404	93	6200
2026-01-08 14:31:38.13	27.68	78.40	-37.5	-41.0	3.6	8397193	93	7348
2026-01-08 14:31:38.33	27.30	78.33	-37.5	-40.8	3.6	8454402	93	7171
2026-01-08 14:31:38.53	26.93	78.27	-37.5	-39.8	3.3	8423412	93	6424
2026-01-08 14:31:38.73	26.56	78.20	-37.5	-39.6	3.3	8423412	93	6228
2026-01-08 14:31:38.94	26.18	78.13	-37.5	-41.0	3.6	8396656	93	7348
2026-01-08 14:31:39.14	25.82	78.06	-37.5	-41.0	3.6	8407035	93	7333
2026-01-08 14:31:39.34	25.46	78.00	-37.6	-40.1	3.4	8379718	93	6620
2026-01-08 14:31:39.54	25.11	77.93	-37.6	-39.7	3.3	8417037	93	6241
2026-01-08 14:31:39.74	24.76	77.86	-37.6	-39.6	3.3	8395477	93	6239
2026-01-08 14:31:39.94	24.42	77.79	-37.5	-41.0	3.6	8369533	93	7328
2026-01-08 14:31:40.14	24.08	77.72	-37.5	-40.2	3.5	8442478	93	6733
2026-01-08 14:31:40.34	23.74	77.65	-37.5	-39.5	3.3	8404071	93	6190
2026-01-08 14:31:40.54	23.41	77.58	-37.5	-39.5	3.3	8404071	93	6222
2026-01-08 14:31:40.74	23.08	77.51	-37.5	-40.9	3.6	8401885	93	7310
2026-01-08 14:31:40.94	22.76	77.44	-37.5	-40.4	3.5	8448280	93	6843
2026-01-08 14:31:41.15	22.42	77.36	-37.5	-39.6	3.3	8444423	93	6279
2026-01-08 14:31:41.35	22.11	77.29	-37.5	-39.5	3.3	8399047	93	6162
2026-01-08 14:31:41.55	21.79	77.22	-37.5	-40.9	3.6	8397697	93	7286
2026-01-08 14:31:41.75	21.48	77.15	-37.5	-40.8	3.6	8439491	93	7194
2026-01-08 14:31:41.95	21.18	77.07	-37.5	-39.8	3.3	8426044	93	6365
2026-01-08 14:31:42.15	20.88	77.00	-37.5	-39.5	3.3	8426044	93	6198
2026-01-08 14:31:42.35	20.58	76.93	-37.5	-41.1	3.6	8386928	93	7384
2026-01-08 14:31:42.55	20.28	76.85	-37.5	-41.1	3.6	8409095	93	7410
2026-01-08 14:31:42.75	19.99	76.78	-37.6	-40.3	3.4	8383747	93	6657
2026-01-08 14:31:42.95	19.70	76.70	-37.6	-39.8	3.3	8421398	93	6308
2026-01-08 14:31:43.15	19.42	76.63	-37.6	-39.8	3.3	8392776	93	6317
2026-01-08 14:31:43.36	19.12	76.55	-37.5	-41.0	3.6	8372863	93	7319
2026-01-08 14:31:43.56	18.84	76.48	-37.5	-40.3	3.4	8435623	93	6735
2026-01-08 14:31:43.76	18.57	76.40	-37.5	-39.4	3.3	8435623	93	6139
2026-01-08 14:31:43.96	18.30	76.33	-37.5	-39.5	3.3	8398578	93	6191
2026-01-08 14:31:44.16	18.03	76.25	-37.5	-41.0	3.6	8386676	93	7333
2026-01-08 14:31:44.36	17.76	76.17	-37.5	-40.5	3.5	8433677	93	6920
2026-01-08 14:31:44.56	17.50	76.10	-37.5	-39.6	3.3	8442924	93	6242
2026-01-08 14:31:44.76	17.24	76.02	-37.5	-39.5	3.3	8399219	93	6204
2026-01-08 14:31:44.96	16.98	75.94	-37.5	-41.1	3.6	8394332	93	7386
2026-01-08 14:31:45.17	16.71	75.86	-37.5	-40.4	3.5	8441230	93	6866
2026-01-08 14:31:45.37	16.46	75.78	-37.5	-39.7	3.3	8424510	93	6288
2026-01-08 14:31:45.57	16.21	75.71	-37.5	-39.5	3.3	8396221	93	6195
2026-01-08 14:31:45.77	15.97	75.63	-37.5	-41.0	3.6	8409667	93	7323
2026-01-08 14:31:45.97	15.73	75.55	-37.5	-40.8	3.6	8409667	93	7154
2026-01-08 14:31:46.17	15.49	75.47	-37.5	-39.7	3.4	8454277	93	6331
2026-01-08 14:31:46.37	15.25	75.39	-37.5	-39.5	3.3	8407218	93	6148
2026-01-08 14:31:46.57	15.01	75.32	-37.5	-41.0	3.6	8386207	93	7309
2026-01-08 14:31:46.77	14.78	75.24	-37.5	-41.0	3.6	8420001	93	7339
2026-01-08 14:31:46.97	14.55	75.16	-37.5	-40.0	3.4	8376045	93	6578
2026-01-08 14:31:47.17	14.33	75.08	-37.5	-39.5	3.3	8401153	93	6216
2026-01-08 14:31:47.38	14.09	75.00	-37.5	-39.5	3.3	8384857	93	6176
2026-01-08 14:31:47.58	13.87	74.92	-37.5	-41.0	3.6	8384857	93	7308
2026-01-08 14:31:47.78	13.65	74.84	-37.5	-40.2	3.5	8375392	93	6723
2026-01-08 14:31:47.98	13.43	74.76	-37.5	-39.6	3.3	8439491	93	6242
2026-01-08 14:31:48.18	13.22	74.68	-37.5	-39.6	3.3	8395523	93	6219
2026-01-08 14:31:48.38	13.00	74.60	-37.5	-41.0	3.6	8402606	93	7343
2026-01-08 14:31:48.58	12.79	74.52	-37.6	-40.7	3.5	8430908	93	7067
2026-01-08 14:31:48.78	12.59	74.44	-37.6	-39.8	3.3	8371948	93	6339
2026-01-08 14:31:48.99	12.37	74.35	-37.6	-39.7	3.3	8396324	93	6256
2026-01-08 14:31:49.19	12.17	74.27	-37.5	-41.0	3.6	8354782	93	7331
2026-01-08 14:31:49.39	11.97	74.19	-37.5	-40.9	3.6	8354782	93	7276
2026-01-08 14:31:49.59	11.77	74.11	-37.5	-39.9	3.4	8435543	93	6461
2026-01-08 14:31:49.79	11.57	74.03	-37.5	-39.6	3.3	8401016	93	6215
2026-01-08 14:31:49.99	11.38	73.95	-37.6	-41.0	3.6	8397308	93	7331
2026-01-08 14:31:50.19	11.18	73.86	-37.5	-41.0	3.6	8429592	93	7295
2026-01-08 14:31:50.39	10.99	73.78	-37.6	-40.0	3.4	8440509	93	6503
2026-01-08 14:31:50.59	10.80	73.70	-37.5	-39.5	3.3	8396209	93	6185
2026-01-08 14:31:50.80	10.61	73.62	-37.5	-39.6	3.3	8384914	93	6237
2026-01-08 14:31:51.00	10.42	73.53	-37.5	-41.0	3.6	8384914	93	7340
2026-01-08 14:31:51.20	10.24	73.45	-37.5	-40.3	3.4	8435348	93	6729
2026-01-08 14:31:51.40	10.06	73.37	-37.5	-39.5	3.3	8423469	93	6181
2026-01-08 14:31:51.60	9.88	73.29	-37.5	-39.6	3.3	8376903	93	6244
2026-01-08 14:31:51.80	9.70	73.21	-37.5	-41.0	3.6	8390899	93	7340
2026-01-08 14:31:52.00	9.53	73.12	-37.5	-40.4	3.5	8439582	93	6902
2026-01-08 14:31:52.20	9.35	73.04	-37.5	-39.6	3.3	8425941	93	6232
2026-01-08 14:31:52.41	9.17	72.95	-37.5	-39.6	3.3	8388233	93	6252
2026-01-08 14:31:52.61	9.00	72.87	-37.5	-41.0	3.6	8388233	93	7308
2026-01-08 14:31:52.81	8.84	72.79	-37.5	-40.8	3.6	8413547	93	7144
2026-01-08 14:31:53.01	8.67	72.71	-37.5	-39.7	3.3	8445522	93	6340
2026-01-08 14:31:53.21	8.51	72.62	-37.5	-39.5	3.3	8415138	93	6197
2026-01-08 14:31:53.41	8.34	72.54	-37.5	-41.0	3.6	8393474	93	7339
2026-01-08 14:31:53.61	8.18	72.46	-37.5	-41.0	3.6	8435646	93	7336
2026-01-08 14:31:53.81	8.02	72.37	-37.5	-39.9	3.4	8442890	93	6500
2026-01-08 14:31:54.02	7.85	72.29	-37.5	-39.5	3.3	8406269	93	6193
2026-01-08 14:31:54.22	7.70	72.20	-37.5	-41.1	3.6	8388416	93	7430
2026-01-08 14:31:54.42	7.54	72.12	-37.5	-41.0	3.6	8452766	93	7358
2026-01-08 14:31:54.62	7.39	72.04	-37.5	-39.9	3.4	8426834	93	6491
2026-01-08 14:31:54.82	7.24	71.95	-37.5	-39.6	3.3	8426834	93	6226
2026-01-08 14:31:55.02	7.09	71.87	-37.5	-39.6	3.3	8396266	93	6247
2026-01-08 14:31:55.22	6.94	71.79	-37.5	-41.0	3.6	8401187	93	7325
2026-01-08 14:31:55.43	6.78	71.70	-37.6	-40.2	3.4	8446872	93	6694
2026-01-08 14:31:55.63	6.64	71.62	-37.5	-39.5	3.3	8425437	93	6201
2026-01-08 14:31:55.83	6.49	71.53	-37.5	-39.6	3.3	8396564	93	6251
2026-01-08 14:31:56.03	6.35	71.45	-37.5	-41.0	3.6	8412174	93	7315
2026-01-08 14:31:56.23	6.21	71.36	-37.5	-40.5	3.5	8447364	93	6925
2026-01-08 14:31:56.43	6.07	71.28	-37.5	-39.6	3.3	8447364	93	6250
2026-01-08 14:31:56.63	5.93	71.20	-37.5	-39.6	3.3	8388427	93	6210
2026-01-08 14:31:56.83	5.79	71.11	-37.5	-41.0	3.6	8382305	93	7332
2026-01-08 14:31:57.03	5.65	71.03	-37.5	-40.8	3.6	8431571	93	7153
2026-01-08 14:31:57.23	5.52	70.94	-37.6	-39.8	3.4	8429637	93	6379
2026-01-08 14:31:57.43	5.38	70.86	-37.5	-39.5	3.3	8405296	93	6193
2026-01-08 14:31:57.64	5.24	70.77	-37.5	-41.1	3.6	8384307	93	7386
2026-01-08 14:31:57.84	5.11	70.69	-37.6	-41.0	3.6	8434833	93	7345
2026-01-08 14:31:58.04	4.98	70.60	-37.7	-40.3	3.4	8434833	93	6665
2026-01-08 14:31:58.24	4.85	70.52	-37.6	-39.8	3.3	8371341	93	6332
2026-01-08 14:31:58.44	4.72	70.44	-37.7	-39.8	3.3	8399631	93	6297
2026-01-08 14:31:58.64	4.60	70.35	-37.5	-41.0	3.6	8357666	93	7337
2026-01-08 14:31:58.84	4.47	70.27	-37.5	-40.3	3.4	8454563	93	6785
2026-01-08 14:31:59.04	4.35	70.18	-37.5	-39.5	3.3	8422519	93	6188
2026-01-08 14:31:59.24	4.22	70.10	-37.5	-39.6	3.3	8401702	93	6239

#Closed at: 2026-01-08 14:31:59