passes_logs/2026/01/08/XPeterburg/XPeterburg__20260108_092330_FENGYUN_3F_rec.log

#Pass ID: 20260108_092330_FENGYUN 3F
#Satellite: FENGYUN 3F
#Configuration: FENGYUN 3F
#Start time: 2026-01-08 09:23:24

#Version: 1.5.20200625
#Station: XPeterburg
#Location: 30.318091 lon 59.932769 lat
#TLE: 1 57490U 23111A   25359.20461847  .00000075  00000+0  55793-4 0  9993
#TLE: 2 57490  98.7067  67.2960 0000833 117.6209 242.5052 14.19896763124173

#Time	Az	El	Level	Level2	SNR	BER	Gain	Gain2
2026-01-08 09:23:24.19	352.60	67.56	-38.1	-40.7	3.3	8387969	93	6649
2026-01-08 09:23:24.39	352.48	67.64	-37.8	-47.5	3.6	8160072	81	14972
2026-01-08 09:23:24.59	352.36	67.71	-38.1	-41.7	3.5	8448978	93	7382
2026-01-08 09:23:24.79	352.23	67.79	-38.2	-40.8	3.3	8420631	93	6689
2026-01-08 09:23:24.99	352.11	67.87	-38.1	-40.7	3.3	8385131	93	6644
2026-01-08 09:23:25.19	351.98	67.95	-38.1	-42.2	3.6	8407356	93	7811
2026-01-08 09:23:25.40	351.85	68.04	-38.1	-41.9	3.6	8446083	93	7639
2026-01-08 09:23:25.60	351.72	68.11	-38.1	-41.0	3.4	8446083	93	6814
2026-01-08 09:23:25.80	351.59	68.19	-38.1	-40.7	3.3	8403888	93	6638
2026-01-08 09:23:26.00	351.46	68.27	-38.1	-42.1	3.6	8398521	93	7788
2026-01-08 09:23:26.20	351.33	68.35	-38.1	-42.2	3.6	8414806	93	7820
2026-01-08 09:23:26.40	351.19	68.43	-38.1	-41.1	3.4	8443645	93	6899
2026-01-08 09:23:26.60	351.06	68.51	-38.1	-40.7	3.3	8404151	93	6626
2026-01-08 09:23:26.80	350.93	68.59	-38.1	-40.8	3.3	8389583	93	6656
2026-01-08 09:23:27.00	350.79	68.67	-38.1	-42.1	3.6	8425827	93	7796
2026-01-08 09:23:27.20	350.65	68.75	-38.1	-41.3	3.4	8425827	93	7123
2026-01-08 09:23:27.40	350.52	68.82	-38.1	-40.6	3.3	8427131	93	6584
2026-01-08 09:23:27.61	350.37	68.91	-38.2	-40.7	3.3	8413707	93	6633
2026-01-08 09:23:27.81	350.23	68.99	-38.1	-42.2	3.6	8396884	93	7826
2026-01-08 09:23:28.01	350.09	69.06	-38.1	-41.6	3.5	8439331	93	7328
2026-01-08 09:23:28.21	349.94	69.14	-38.1	-40.8	3.3	8430530	93	6655
2026-01-08 09:23:28.41	349.80	69.22	-38.1	-40.7	3.3	8395889	93	6581
2026-01-08 09:23:28.61	349.66	69.30	-38.1	-42.2	3.6	8399230	93	7860
2026-01-08 09:23:28.81	349.51	69.38	-38.1	-41.9	3.6	8441848	93	7613
2026-01-08 09:23:29.01	349.36	69.46	-38.1	-40.9	3.4	8441848	93	6785
2026-01-08 09:23:29.21	349.21	69.53	-38.1	-40.7	3.3	8423973	93	6627
2026-01-08 09:23:29.41	349.06	69.61	-38.1	-42.1	3.6	8395271	93	7811
2026-01-08 09:23:29.62	348.91	69.69	-38.1	-42.1	3.6	8418983	93	7733
2026-01-08 09:23:29.82	348.75	69.77	-38.1	-41.1	3.4	8440589	93	6921
2026-01-08 09:23:30.02	348.60	69.85	-38.1	-40.7	3.3	8406360	93	6619
2026-01-08 09:23:30.22	348.45	69.93	-38.1	-40.7	3.3	8385829	93	6600
2026-01-08 09:23:30.42	348.29	70.01	-38.1	-42.1	3.6	8442283	93	7786
2026-01-08 09:23:30.62	348.13	70.08	-38.1	-41.4	3.4	8442283	93	7140
2026-01-08 09:23:30.82	347.97	70.16	-38.1	-40.7	3.3	8449115	93	6601
2026-01-08 09:23:31.02	347.81	70.24	-38.1	-40.7	3.3	8404254	93	6638
2026-01-08 09:23:31.22	347.65	70.32	-38.1	-42.1	3.6	8388290	93	7784
2026-01-08 09:23:31.42	347.49	70.39	-38.1	-41.6	3.5	8451335	93	7350
2026-01-08 09:23:31.62	347.32	70.47	-38.1	-40.8	3.3	8429672	93	6668
2026-01-08 09:23:31.83	347.15	70.55	-38.1	-40.7	3.3	8384880	93	6598
2026-01-08 09:23:32.03	346.98	70.63	-38.1	-42.2	3.6	8397891	93	7828
2026-01-08 09:23:32.23	346.81	70.71	-38.2	-41.7	3.6	8376228	94	7354
2026-01-08 09:23:32.43	346.64	70.78	-38.1	-40.6	3.4	8376228	94	6496
2026-01-08 09:23:32.63	346.47	70.86	-38.2	-40.2	3.3	8423229	94	6262
2026-01-08 09:23:32.83	346.30	70.94	-38.1	-40.2	3.3	8393417	94	6252
2026-01-08 09:23:33.03	346.13	71.01	-38.1	-41.5	3.6	8342914	94	7304
2026-01-08 09:23:33.23	345.95	71.09	-38.1	-40.5	3.4	8449333	94	6534
2026-01-08 09:23:33.43	345.77	71.17	-38.1	-40.0	3.3	8415435	94	6179
2026-01-08 09:23:33.63	345.59	71.24	-38.0	-40.0	3.3	8390647	94	6186
2026-01-08 09:23:33.84	345.40	71.32	-38.1	-41.5	3.6	8420494	94	7321
2026-01-08 09:23:34.04	345.22	71.40	-38.1	-40.7	3.4	8429901	94	6656
2026-01-08 09:23:34.24	345.04	71.47	-38.1	-40.1	3.3	8399986	94	6220
2026-01-08 09:23:34.44	344.85	71.55	-38.0	-40.1	3.3	8399986	94	6221
2026-01-08 09:23:34.64	344.66	71.63	-38.1	-41.5	3.6	8390098	94	7306
2026-01-08 09:23:34.84	344.48	71.70	-38.1	-40.9	3.5	8434730	94	6839
2026-01-08 09:23:35.04	344.29	71.78	-38.1	-40.1	3.3	8432498	94	6248
2026-01-08 09:23:35.24	344.09	71.85	-38.1	-40.1	3.3	8407150	94	6212
2026-01-08 09:23:35.44	343.90	71.93	-38.1	-41.5	3.6	8386779	94	7307
2026-01-08 09:23:35.64	343.70	72.00	-38.0	-41.3	3.6	8435909	94	7135
2026-01-08 09:23:35.85	343.50	72.08	-38.0	-40.3	3.3	8430187	94	6372
2026-01-08 09:23:36.05	343.30	72.16	-38.1	-40.0	3.3	8430187	94	6174
2026-01-08 09:23:36.25	343.10	72.23	-38.1	-41.4	3.6	8404495	94	7258
2026-01-08 09:23:36.45	342.90	72.30	-38.0	-41.4	3.6	8401348	94	7281
2026-01-08 09:23:36.65	342.69	72.38	-38.1	-40.4	3.4	8449699	94	6457
2026-01-08 09:23:36.85	342.48	72.45	-38.1	-40.0	3.3	8406108	94	6186
2026-01-08 09:23:37.05	342.28	72.53	-38.1	-40.0	3.3	8391941	94	6163
2026-01-08 09:23:37.25	342.07	72.60	-38.0	-41.5	3.6	8415287	94	7317
2026-01-08 09:23:37.45	341.85	72.67	-38.0	-40.7	3.4	8446163	94	6651
2026-01-08 09:23:37.65	341.64	72.75	-38.1	-40.1	3.3	8410125	94	6212
2026-01-08 09:23:37.85	341.43	72.82	-38.1	-40.1	3.3	8410125	94	6207
2026-01-08 09:23:38.05	341.21	72.89	-38.0	-41.4	3.6	8388381	94	7260
2026-01-08 09:23:38.26	340.98	72.97	-38.1	-41.0	3.5	8436378	94	6892
2026-01-08 09:23:38.46	340.76	73.04	-38.1	-40.2	3.3	8430622	94	6268
2026-01-08 09:23:38.66	340.53	73.11	-38.0	-40.0	3.3	8404724	94	6166
2026-01-08 09:23:38.86	340.31	73.19	-38.1	-41.4	3.6	8392456	94	7248
2026-01-08 09:23:39.06	340.08	73.26	-38.1	-41.2	3.6	8446025	94	7078
2026-01-08 09:23:39.26	339.85	73.33	-38.1	-40.3	3.4	8413249	94	6364
2026-01-08 09:23:39.46	339.62	73.40	-38.1	-40.1	3.3	8413249	94	6246
2026-01-08 09:23:39.66	339.38	73.47	-38.1	-41.5	3.6	8402240	94	7273
2026-01-08 09:23:39.86	339.15	73.54	-38.1	-41.4	3.6	8400650	94	7243
2026-01-08 09:23:40.06	338.91	73.61	-38.1	-40.4	3.4	8434787	94	6462
2026-01-08 09:23:40.27	338.66	73.69	-38.1	-40.0	3.3	8397445	94	6177
2026-01-08 09:23:40.47	338.41	73.76	-38.1	-40.0	3.3	8389183	94	6177
2026-01-08 09:23:40.67	338.17	73.83	-38.1	-41.5	3.6	8425952	94	7272
2026-01-08 09:23:40.87	337.92	73.90	-38.1	-40.8	3.4	8436985	94	6712
2026-01-08 09:23:41.07	337.67	73.97	-38.1	-40.1	3.3	8408512	94	6199
2026-01-08 09:23:41.27	337.42	74.04	-38.1	-40.1	3.3	8408512	94	6209
2026-01-08 09:23:41.47	337.17	74.11	-38.1	-41.5	3.6	8392547	94	7335
2026-01-08 09:23:41.67	336.91	74.18	-38.1	-41.0	3.5	8439868	94	6878
2026-01-08 09:23:41.87	336.65	74.24	-38.1	-40.1	3.3	8432224	94	6249
2026-01-08 09:23:42.07	336.39	74.31	-38.1	-40.0	3.3	8408226	94	6188
2026-01-08 09:23:42.27	336.13	74.38	-38.1	-41.5	3.6	8394401	94	7339
2026-01-08 09:23:42.48	335.85	74.45	-38.1	-41.3	3.6	8435256	94	7124
2026-01-08 09:23:42.68	335.58	74.52	-38.1	-40.4	3.4	8421512	94	6398
2026-01-08 09:23:42.88	335.31	74.59	-38.1	-40.1	3.3	8421512	94	6211
2026-01-08 09:23:43.08	335.04	74.65	-38.1	-41.5	3.6	8394630	94	7313
2026-01-08 09:23:43.28	334.76	74.72	-38.1	-41.5	3.6	8418468	94	7335
2026-01-08 09:23:43.48	334.48	74.79	-38.0	-40.5	3.4	8380920	94	6528
2026-01-08 09:23:43.68	334.20	74.85	-38.0	-40.0	3.3	8411270	94	6174
2026-01-08 09:23:43.88	333.92	74.92	-38.0	-40.0	3.3	8394012	94	6165
2026-01-08 09:23:44.08	333.63	74.98	-38.3	-41.5	3.6	8351451	95	7082
2026-01-08 09:23:44.28	333.34	75.05	-38.3	-40.8	3.4	8441082	95	6556
2026-01-08 09:23:44.48	333.05	75.11	-38.3	-40.0	3.3	8414875	95	6024
2026-01-08 09:23:44.68	332.76	75.18	-38.3	-40.0	3.3	8396163	95	5999
2026-01-08 09:23:44.89	332.45	75.24	-38.3	-41.5	3.6	8396163	95	7091
2026-01-08 09:23:45.09	332.15	75.31	-38.3	-41.2	3.6	8418800	95	6892
2026-01-08 09:23:45.29	331.85	75.37	-38.3	-40.3	3.3	8448509	95	6201
2026-01-08 09:23:45.49	331.54	75.43	-38.3	-40.0	3.3	8406188	95	5998
2026-01-08 09:23:45.69	331.23	75.50	-38.3	-41.5	3.6	8398086	95	7126
2026-01-08 09:23:45.89	330.92	75.56	-38.1	-41.5	3.6	8428264	94	7335
2026-01-08 09:23:46.09	330.61	75.62	-38.1	-40.5	3.4	8432659	94	6491
2026-01-08 09:23:46.29	330.30	75.68	-38.1	-40.1	3.3	8409301	94	6195
2026-01-08 09:23:46.49	329.98	75.74	-38.1	-40.1	3.3	8405548	94	6233
2026-01-08 09:23:46.69	329.66	75.80	-38.1	-41.5	3.6	8405548	94	7319
2026-01-08 09:23:46.89	329.33	75.86	-38.1	-40.7	3.4	8439434	94	6681
2026-01-08 09:23:47.09	329.01	75.92	-38.1	-40.1	3.3	8435817	94	6186
2026-01-08 09:23:47.30	328.66	75.98	-38.1	-40.1	3.3	8401771	94	6192
2026-01-08 09:23:47.50	328.33	76.04	-38.1	-41.5	3.6	8408706	94	7322
2026-01-08 09:23:47.70	327.99	76.10	-38.1	-40.9	3.5	8439479	94	6845
2026-01-08 09:23:47.90	327.65	76.16	-38.1	-40.1	3.3	8427097	94	6219
2026-01-08 09:23:48.10	327.31	76.22	-38.1	-40.0	3.3	8398864	94	6171
2026-01-08 09:23:48.30	326.97	76.27	-38.1	-41.5	3.6	8398864	94	7287
2026-01-08 09:23:48.50	326.62	76.33	-38.1	-41.3	3.6	8420413	94	7123
2026-01-08 09:23:48.70	326.27	76.39	-38.1	-40.3	3.3	8439605	94	6382
2026-01-08 09:23:48.90	325.91	76.44	-38.1	-40.1	3.3	8416408	94	6203
2026-01-08 09:23:49.10	325.56	76.50	-38.1	-41.5	3.6	8389732	94	7300
2026-01-08 09:23:49.30	325.20	76.55	-38.1	-41.6	3.6	8415882	94	7343
2026-01-08 09:23:49.50	324.84	76.60	-38.1	-40.5	3.4	8433895	94	6491
2026-01-08 09:23:49.71	324.45	76.66	-38.1	-40.1	3.3	8389812	94	6197
2026-01-08 09:23:49.91	324.08	76.71	-38.1	-40.1	3.3	8389812	94	6214
2026-01-08 09:23:50.11	323.71	76.77	-38.1	-41.5	3.6	8390464	94	7289
2026-01-08 09:23:50.31	323.34	76.82	-38.1	-40.7	3.4	8442764	94	6676
2026-01-08 09:23:50.51	322.96	76.87	-38.1	-40.0	3.3	8428058	94	6175
2026-01-08 09:23:50.71	322.58	76.92	-38.1	-40.1	3.3	8380474	94	6218
2026-01-08 09:23:50.91	322.19	76.97	-38.1	-41.5	3.6	8406280	94	7314
2026-01-08 09:23:51.11	321.81	77.02	-38.1	-41.0	3.5	8448268	94	6922
2026-01-08 09:23:51.31	321.42	77.07	-38.1	-40.2	3.3	8407608	94	6304
2026-01-08 09:23:51.52	321.00	77.12	-38.1	-40.1	3.3	8385738	94	6222
2026-01-08 09:23:51.72	320.61	77.17	-38.1	-41.5	3.6	8385738	94	7319
2026-01-08 09:23:51.92	320.21	77.22	-38.1	-41.3	3.6	8416076	94	7122
2026-01-08 09:23:52.12	319.80	77.26	-38.1	-40.3	3.3	8434020	94	6351
2026-01-08 09:23:52.32	319.40	77.31	-38.1	-40.1	3.3	8410835	94	6216
2026-01-08 09:23:52.52	318.99	77.36	-38.1	-41.5	3.6	8391677	94	7297
2026-01-08 09:23:52.72	318.58	77.40	-38.1	-41.6	3.6	8440155	94	7353
2026-01-08 09:23:52.92	318.16	77.44	-38.1	-40.5	3.4	8435909	94	6494
2026-01-08 09:23:53.12	317.75	77.49	-38.1	-40.1	3.3	8393966	94	6210
2026-01-08 09:23:53.32	317.33	77.53	-38.1	-40.1	3.3	8393966	94	6197
2026-01-08 09:23:53.52	316.90	77.57	-38.1	-41.5	3.6	8393909	94	7335
2026-01-08 09:23:53.72	316.48	77.62	-38.1	-40.7	3.4	8434833	94	6648
2026-01-08 09:23:53.92	316.05	77.66	-38.1	-40.0	3.3	8421386	94	6153
2026-01-08 09:23:54.13	315.59	77.70	-38.1	-40.1	3.3	8397857	94	6195
2026-01-08 09:23:54.33	315.16	77.74	-38.1	-41.5	3.6	8403568	94	7320
2026-01-08 09:23:54.53	314.72	77.78	-38.1	-40.9	3.5	8435462	94	6841
2026-01-08 09:23:54.73	314.28	77.82	-38.1	-40.2	3.3	8419258	94	6261
2026-01-08 09:23:54.93	313.83	77.85	-38.1	-40.1	3.3	8391757	94	6195
2026-01-08 09:23:55.13	313.39	77.89	-38.1	-41.5	3.6	8391757	94	7314
2026-01-08 09:23:55.33	312.94	77.93	-38.1	-41.2	3.6	8410240	94	7099
2026-01-08 09:23:55.53	312.48	77.96	-38.1	-40.1	3.3	8437545	94	6227
2026-01-08 09:23:55.73	312.03	78.00	-38.1	-40.1	3.3	8404106	94	6219
2026-01-08 09:23:55.93	311.57	78.03	-38.1	-41.5	3.6	8388851	94	7282
2026-01-08 09:23:56.14	311.09	78.07	-38.0	-41.3	3.6	8435909	94	7201
2026-01-08 09:23:56.34	310.63	78.10	-38.0	-40.1	3.4	8373939	94	6295
2026-01-08 09:23:56.54	310.16	78.13	-38.0	-39.9	3.3	8404529	94	6148
2026-01-08 09:23:56.74	309.69	78.16	-38.3	-41.4	3.6	8388885	95	7077
2026-01-08 09:23:56.94	309.22	78.19	-38.3	-41.5	3.6	8381069	95	7110
2026-01-08 09:23:57.14	308.75	78.22	-38.3	-40.5	3.4	8381069	95	6379
2026-01-08 09:23:57.34	308.27	78.25	-38.3	-40.1	3.3	8430278	95	6041
2026-01-08 09:23:57.54	307.79	78.28	-38.3	-40.1	3.3	8390201	95	6052
2026-01-08 09:23:57.74	307.31	78.31	-38.3	-41.4	3.6	8395500	95	7054
2026-01-08 09:23:57.94	306.83	78.33	-38.3	-40.6	3.4	8454414	95	6441
2026-01-08 09:23:58.14	306.35	78.36	-38.3	-40.0	3.3	8416076	95	5990
2026-01-08 09:23:58.35	305.83	78.38	-38.3	-40.0	3.3	8386585	95	6008
2026-01-08 09:23:58.55	305.34	78.41	-38.3	-41.5	3.6	8411487	95	7109
2026-01-08 09:23:58.75	304.85	78.43	-38.3	-41.0	3.5	8411487	95	6670
2026-01-08 09:23:58.95	304.36	78.45	-38.3	-40.2	3.3	8442157	95	6115
2026-01-08 09:23:59.15	303.87	78.47	-38.3	-40.1	3.3	8400489	95	6068
2026-01-08 09:23:59.35	303.37	78.49	-38.3	-41.5	3.6	8394138	95	7096
2026-01-08 09:23:59.55	302.87	78.51	-38.3	-41.3	3.6	8421924	95	6947
2026-01-08 09:23:59.75	302.37	78.53	-38.3	-40.2	3.4	8435462	95	6138
2026-01-08 09:23:59.95	301.87	78.55	-38.3	-40.0	3.3	8402526	95	6017
2026-01-08 09:24:00.15	301.36	78.57	-38.3	-41.5	3.6	8394790	95	7128
2026-01-08 09:24:00.35	300.86	78.58	-38.3	-41.4	3.6	8439308	95	7064
2026-01-08 09:24:00.55	300.35	78.60	-38.3	-40.4	3.4	8439308	95	6283
2026-01-08 09:24:00.76	299.82	78.61	-38.3	-40.0	3.3	8441722	95	6009
2026-01-08 09:24:00.96	299.31	78.63	-38.3	-40.0	3.3	8391735	95	5978
2026-01-08 09:24:01.16	298.80	78.64	-38.3	-41.5	3.6	8394092	95	7083
2026-01-08 09:24:01.36	298.29	78.65	-38.3	-40.7	3.4	8445556	95	6470
2026-01-08 09:24:01.56	297.77	78.66	-38.3	-40.1	3.3	8412757	95	6036
2026-01-08 09:24:01.76	297.26	78.67	-38.3	-40.1	3.3	8387924	95	6020
2026-01-08 09:24:01.96	296.75	78.68	-38.3	-41.5	3.6	8409336	95	7105
2026-01-08 09:24:02.16	296.23	78.69	-38.3	-41.0	3.5	8409336	95	6698
2026-01-08 09:24:02.36	295.72	78.70	-38.3	-40.1	3.3	8439079	95	6093
2026-01-08 09:24:02.56	295.20	78.70	-38.3	-40.0	3.3	8409461	95	6009
2026-01-08 09:24:02.76	294.68	78.71	-38.3	-41.5	3.6	8388221	95	7126
2026-01-08 09:24:02.96	294.16	78.71	-38.3	-41.2	3.6	8438667	95	6886
2026-01-08 09:24:03.17	293.62	78.72	-38.3	-40.2	3.4	8429615	95	6174
2026-01-08 09:24:03.37	293.10	78.72	-38.3	-40.0	3.3	8403327	95	5979
2026-01-08 09:24:03.57	292.58	78.72	-38.1	-41.6	3.6	8396621	94	7386
2026-01-08 09:24:03.77	292.06	78.72	-38.1	-41.5	3.6	8436676	94	7297
2026-01-08 09:24:03.97	291.55	78.72	-38.1	-40.4	3.4	8436676	94	6472
2026-01-08 09:24:04.17	291.03	78.72	-38.1	-40.1	3.3	8422794	94	6203
2026-01-08 09:24:04.37	290.51	78.72	-38.1	-40.1	3.3	8392318	94	6193
2026-01-08 09:24:04.57	289.99	78.72	-38.1	-41.5	3.6	8413547	94	7302
2026-01-08 09:24:04.77	289.47	78.71	-38.1	-40.7	3.4	8442398	94	6649
2026-01-08 09:24:04.97	288.95	78.71	-38.1	-40.1	3.3	8415985	94	6190
2026-01-08 09:24:05.17	288.44	78.70	-38.1	-40.1	3.3	8389492	94	6209
2026-01-08 09:24:05.38	287.90	78.70	-38.1	-41.4	3.6	8428024	94	7265
2026-01-08 09:24:05.58	287.38	78.69	-38.1	-41.0	3.5	8428024	94	6865
2026-01-08 09:24:05.78	286.86	78.68	-38.0	-40.1	3.4	8435073	94	6209
2026-01-08 09:24:05.98	286.35	78.67	-38.1	-40.1	3.3	8398738	94	6184
2026-01-08 09:24:06.18	285.84	78.66	-38.1	-41.5	3.6	8386482	94	7333
2026-01-08 09:24:06.38	285.32	78.65	-38.1	-41.2	3.6	8431983	94	7092
2026-01-08 09:24:06.58	284.81	78.64	-38.1	-40.3	3.4	8430931	94	6348
2026-01-08 09:24:06.78	284.30	78.63	-38.1	-40.1	3.3	8398887	94	6193
2026-01-08 09:24:06.98	283.79	78.61	-38.0	-41.4	3.6	8394058	94	7279
2026-01-08 09:24:07.18	283.28	78.60	-38.1	-41.3	3.6	8440235	94	7098
2026-01-08 09:24:07.38	282.78	78.58	-38.1	-40.3	3.4	8436950	94	6353
2026-01-08 09:24:07.59	282.25	78.57	-38.1	-40.1	3.3	8436950	94	6194
2026-01-08 09:24:07.79	281.74	78.55	-38.1	-41.4	3.6	8397869	94	7263
2026-01-08 09:24:07.99	281.24	78.53	-38.1	-41.5	3.6	8412345	94	7279
2026-01-08 09:24:08.19	280.74	78.51	-38.1	-40.4	3.4	8439411	94	6476
2026-01-08 09:24:08.39	280.24	78.49	-38.1	-40.1	3.3	8405536	94	6222
2026-01-08 09:24:08.59	279.75	78.47	-38.1	-40.0	3.3	8393829	94	6179
2026-01-08 09:24:08.79	279.25	78.45	-38.0	-41.5	3.6	8423526	94	7297
2026-01-08 09:24:08.99	278.76	78.43	-38.1	-40.7	3.4	8435726	94	6637
2026-01-08 09:24:09.19	278.27	78.41	-38.1	-40.1	3.3	8398052	94	6214
2026-01-08 09:24:09.40	277.75	78.38	-38.0	-40.0	3.3	8398052	94	6184
2026-01-08 09:24:09.60	277.27	78.36	-38.1	-41.5	3.6	8396839	94	7332
2026-01-08 09:24:09.80	276.78	78.33	-38.1	-40.9	3.5	8438106	94	6829
2026-01-08 09:24:10.00	276.30	78.30	-38.0	-40.1	3.3	8437397	94	6228
2026-01-08 09:24:10.20	275.82	78.28	-38.1	-40.1	3.3	8403831	94	6216
2026-01-08 09:24:10.40	275.34	78.25	-38.1	-41.5	3.6	8394470	94	7286
2026-01-08 09:24:10.60	274.86	78.22	-38.0	-41.2	3.6	8442157	94	7085
2026-01-08 09:24:10.80	274.39	78.19	-38.1	-40.2	3.4	8423789	94	6326
2026-01-08 09:24:11.00	273.92	78.16	-38.1	-40.1	3.3	8423789	94	6205
2026-01-08 09:24:11.20	273.45	78.13	-38.1	-41.5	3.6	8392765	94	7284
2026-01-08 09:24:11.40	272.99	78.10	-38.1	-41.5	3.6	8418331	94	7336
2026-01-08 09:24:11.61	272.50	78.06	-38.1	-40.5	3.4	8440750	94	6505
2026-01-08 09:24:11.81	272.04	78.03	-38.1	-40.0	3.3	8404895	94	6177
2026-01-08 09:24:12.01	271.58	78.00	-38.1	-40.0	3.3	8389766	94	6187
2026-01-08 09:24:12.21	271.13	77.96	-38.1	-41.5	3.6	8431858	94	7316
2026-01-08 09:24:12.41	270.67	77.92	-38.1	-40.7	3.4	8448875	94	6685
2026-01-08 09:24:12.61	270.22	77.89	-38.1	-40.0	3.3	8448875	94	6128
2026-01-08 09:24:12.81	269.78	77.85	-38.1	-40.0	3.3	8404884	94	6162
2026-01-08 09:24:13.01	269.33	77.81	-38.1	-41.5	3.6	8381492	94	7348
2026-01-08 09:24:13.21	268.89	77.78	-38.1	-41.0	3.5	8439617	94	6894
2026-01-08 09:24:13.41	268.45	77.74	-38.1	-40.2	3.3	8427669	94	6262
2026-01-08 09:24:13.61	268.02	77.70	-38.1	-40.0	3.3	8391883	94	6170
2026-01-08 09:24:13.81	267.59	77.66	-38.1	-41.5	3.6	8391838	94	7336
2026-01-08 09:24:14.02	267.13	77.61	-38.1	-41.3	3.6	8440692	94	7150
2026-01-08 09:24:14.22	266.71	77.57	-38.1	-40.2	3.4	8433116	94	6329
2026-01-08 09:24:14.42	266.28	77.53	-38.1	-40.1	3.3	8433116	94	6188
2026-01-08 09:24:14.62	265.86	77.48	-38.1	-41.5	3.6	8401657	94	7296
2026-01-08 09:24:14.82	265.45	77.44	-38.1	-41.5	3.6	8405033	94	7328
2026-01-08 09:24:15.02	265.03	77.40	-38.1	-40.5	3.4	8437580	94	6500
2026-01-08 09:24:15.22	264.62	77.35	-38.1	-40.1	3.3	8407310	94	6195
2026-01-08 09:24:15.42	264.21	77.31	-38.0	-40.1	3.3	8393978	94	6201
2026-01-08 09:24:15.63	263.79	77.26	-38.1	-41.6	3.6	8418079	94	7369
2026-01-08 09:24:15.83	263.38	77.21	-38.1	-40.7	3.4	8439262	94	6652
2026-01-08 09:24:16.03	262.98	77.16	-38.1	-40.1	3.3	8439262	94	6198
2026-01-08 09:24:16.23	262.59	77.11	-38.1	-40.1	3.3	8414611	94	6228
2026-01-08 09:24:16.43	262.19	77.07	-38.1	-41.5	3.6	8404941	94	7291
2026-01-08 09:24:16.63	261.80	77.02	-38.0	-41.0	3.5	8433940	94	6920
2026-01-08 09:24:16.83	261.42	76.97	-38.0	-39.9	3.3	8382156	94	6110
2026-01-08 09:24:17.03	261.03	76.92	-38.0	-39.9	3.3	8398658	94	6126
2026-01-08 09:24:17.23	260.65	76.86	-38.3	-41.5	3.6	8384319	95	7114
2026-01-08 09:24:17.44	260.26	76.81	-38.3	-41.4	3.6	8379261	95	7069
2026-01-08 09:24:17.64	259.88	76.76	-38.0	-40.2	3.3	8442443	94	6332
2026-01-08 09:24:17.84	259.51	76.71	-38.0	-40.0	3.3	8405616	94	6186
2026-01-08 09:24:18.04	259.14	76.65	-38.1	-41.5	3.6	8405616	94	7328
2026-01-08 09:24:18.24	258.78	76.60	-38.0	-41.5	3.6	8405090	94	7316
2026-01-08 09:24:18.44	258.41	76.55	-38.1	-40.5	3.4	8444858	94	6481
2026-01-08 09:24:18.64	258.05	76.49	-38.1	-40.1	3.3	8418594	94	6180
2026-01-08 09:24:18.84	257.70	76.44	-38.1	-40.1	3.3	8393795	94	6219
2026-01-08 09:24:19.04	257.34	76.38	-38.1	-41.5	3.6	8410800	94	7332
2026-01-08 09:24:19.24	256.99	76.32	-38.1	-40.7	3.4	8446506	94	6678
2026-01-08 09:24:19.44	256.65	76.27	-38.1	-40.1	3.3	8409931	94	6210
2026-01-08 09:24:19.64	256.30	76.21	-38.0	-40.1	3.3	8382247	94	6212
2026-01-08 09:24:19.85	255.94	76.15	-38.1	-41.5	3.6	8382247	94	7352
2026-01-08 09:24:20.05	255.60	76.09	-38.1	-41.0	3.5	8427246	94	6887
2026-01-08 09:24:20.25	255.27	76.03	-38.1	-40.2	3.3	8437065	94	6294
2026-01-08 09:24:20.45	254.94	75.97	-38.1	-40.1	3.3	8394435	94	6193
2026-01-08 09:24:20.65	254.61	75.91	-38.1	-41.5	3.6	8387683	94	7296
2026-01-08 09:24:20.85	254.28	75.86	-38.1	-41.3	3.6	8442043	94	7110
2026-01-08 09:24:21.05	253.95	75.79	-38.1	-40.3	3.4	8421993	94	6381
2026-01-08 09:24:21.25	253.63	75.73	-38.0	-40.0	3.3	8392822	94	6158
2026-01-08 09:24:21.45	253.31	75.67	-38.1	-41.5	3.6	8392822	94	7291
2026-01-08 09:24:21.66	252.98	75.61	-38.1	-41.5	3.6	8405857	94	7289
2026-01-08 09:24:21.86	252.67	75.55	-38.1	-40.5	3.4	8450191	94	6483
2026-01-08 09:24:22.06	252.36	75.48	-38.1	-40.0	3.3	8413043	94	6176
2026-01-08 09:24:22.26	252.05	75.42	-38.1	-40.1	3.3	8396450	94	6195
2026-01-08 09:24:22.46	251.75	75.36	-38.1	-41.5	3.6	8412734	94	7320
2026-01-08 09:24:22.66	251.45	75.30	-38.1	-40.7	3.4	8432281	94	6633
2026-01-08 09:24:22.86	251.15	75.23	-38.1	-40.1	3.3	8416110	94	6214
2026-01-08 09:24:23.06	250.85	75.17	-38.1	-40.1	3.3	8378368	94	6196
2026-01-08 09:24:23.26	250.56	75.10	-38.1	-41.5	3.6	8378368	94	7292
2026-01-08 09:24:23.46	250.27	75.04	-38.0	-40.9	3.5	8429672	94	6870
2026-01-08 09:24:23.66	249.98	74.97	-38.0	-40.0	3.3	8381172	94	6200
2026-01-08 09:24:23.86	249.69	74.91	-38.0	-39.9	3.3	8395420	94	6114
2026-01-08 09:24:24.07	249.39	74.84	-38.3	-41.4	3.6	8395282	95	7066
2026-01-08 09:24:24.27	249.11	74.77	-38.1	-41.5	3.6	8375644	94	7289
2026-01-08 09:24:24.47	248.84	74.71	-38.1	-40.6	3.4	8435943	94	6593
2026-01-08 09:24:24.67	248.56	74.64	-38.0	-40.1	3.3	8396621	94	6229
2026-01-08 09:24:24.87	248.29	74.57	-38.1	-40.1	3.3	8396621	94	6202
2026-01-08 09:24:25.07	248.02	74.51	-38.1	-41.5	3.6	8389411	94	7281
2026-01-08 09:24:25.27	247.75	74.44	-38.1	-40.7	3.4	8445064	94	6665
2026-01-08 09:24:25.47	247.48	74.37	-38.0	-40.1	3.3	8423194	94	6221
2026-01-08 09:24:25.67	247.22	74.30	-38.0	-40.1	3.3	8399013	94	6212
2026-01-08 09:24:25.88	246.95	74.23	-38.1	-41.5	3.6	8404266	94	7299
2026-01-08 09:24:26.08	246.69	74.16	-38.1	-41.0	3.5	8444904	94	6887
2026-01-08 09:24:26.28	246.43	74.09	-38.0	-40.1	3.3	8406509	94	6233
2026-01-08 09:24:26.48	246.18	74.02	-38.1	-40.1	3.3	8406509	94	6197
2026-01-08 09:24:26.68	245.93	73.96	-38.0	-41.5	3.6	8392536	94	7315
2026-01-08 09:24:26.88	245.68	73.89	-38.0	-41.3	3.6	8414222	94	7211
2026-01-08 09:24:27.08	245.43	73.82	-38.0	-40.2	3.4	8389995	94	6352
2026-01-08 09:24:27.28	245.18	73.75	-38.0	-40.0	3.3	8404975	94	6159
2026-01-08 09:24:27.48	244.94	73.67	-38.3	-41.4	3.6	8392765	95	7027
2026-01-08 09:24:27.68	244.70	73.60	-38.1	-41.5	3.6	8376720	94	7272
2026-01-08 09:24:27.89	244.45	73.53	-38.1	-40.4	3.4	8431961	94	6427
2026-01-08 09:24:28.09	244.22	73.46	-38.0	-40.0	3.3	8409507	94	6180
2026-01-08 09:24:28.29	243.98	73.39	-38.1	-41.5	3.6	8396770	94	7334
2026-01-08 09:24:28.49	243.75	73.32	-38.1	-41.5	3.6	8443370	94	7292
2026-01-08 09:24:28.69	243.52	73.24	-38.0	-40.5	3.4	8443370	94	6491
2026-01-08 09:24:28.89	243.29	73.17	-38.1	-39.9	3.3	8379810	94	6113
2026-01-08 09:24:29.09	243.07	73.10	-38.0	-39.9	3.3	8405467	94	6128
2026-01-08 09:24:29.29	242.84	73.03	-38.0	-41.5	3.6	8348739	94	7291
2026-01-08 09:24:29.49	242.62	72.95	-38.0	-40.7	3.5	8447994	94	6716
2026-01-08 09:24:29.69	242.40	72.88	-38.1	-40.0	3.3	8423858	94	6178
2026-01-08 09:24:29.90	242.17	72.80	-38.0	-40.0	3.3	8398189	94	6184
2026-01-08 09:24:30.10	241.96	72.73	-38.0	-41.5	3.6	8419853	94	7314
2026-01-08 09:24:30.30	241.74	72.66	-38.1	-40.9	3.5	8419853	94	6844
2026-01-08 09:24:30.50	241.53	72.58	-38.1	-40.1	3.3	8431777	94	6228
2026-01-08 09:24:30.70	241.32	72.51	-38.0	-40.0	3.3	8403808	94	6189
2026-01-08 09:24:30.90	241.11	72.44	-38.1	-41.5	3.6	8389778	94	7318
2026-01-08 09:24:31.10	240.91	72.36	-38.1	-41.3	3.6	8433528	94	7122
2026-01-08 09:24:31.30	240.70	72.29	-38.0	-40.3	3.4	8434444	94	6385
2026-01-08 09:24:31.50	240.50	72.21	-38.1	-40.0	3.3	8405490	94	6191
2026-01-08 09:24:31.70	240.30	72.14	-38.1	-41.5	3.6	8396369	94	7321
2026-01-08 09:24:31.90	240.10	72.06	-38.1	-41.5	3.6	8451850	94	7317
2026-01-08 09:24:32.10	239.91	71.99	-38.3	-40.6	3.4	8451850	95	6414
2026-01-08 09:24:32.31	239.70	71.91	-38.3	-40.1	3.3	8372600	95	6043
2026-01-08 09:24:32.51	239.51	71.84	-38.3	-40.1	3.3	8395889	95	6044
2026-01-08 09:24:32.71	239.31	71.76	-38.1	-41.5	3.6	8360778	94	7313
2026-01-08 09:24:32.91	239.12	71.68	-38.1	-40.8	3.5	8440612	94	6735
2026-01-08 09:24:33.11	238.94	71.61	-38.1	-40.1	3.3	8423870	94	6216
2026-01-08 09:24:33.31	238.75	71.53	-38.1	-40.1	3.3	8395042	94	6209
2026-01-08 09:24:33.51	238.56	71.46	-38.0	-41.5	3.6	8401805	94	7331
2026-01-08 09:24:33.71	238.38	71.38	-38.1	-41.3	3.6	8401805	94	7136
2026-01-08 09:24:33.91	238.20	71.30	-38.1	-40.3	3.4	8449562	94	6361
2026-01-08 09:24:34.11	238.02	71.23	-38.1	-40.0	3.3	8437889	94	6186
2026-01-08 09:24:34.31	237.84	71.15	-38.1	-41.5	3.6	8393817	94	7275
2026-01-08 09:24:34.51	237.66	71.08	-38.0	-41.5	3.6	8415779	94	7303
2026-01-08 09:24:34.72	237.48	71.00	-38.1	-40.5	3.4	8436962	94	6501
2026-01-08 09:24:34.92	237.30	70.92	-38.0	-40.0	3.3	8400329	94	6189
2026-01-08 09:24:35.12	237.13	70.84	-38.1	-40.1	3.3	8393360	94	6210
2026-01-08 09:24:35.32	236.96	70.76	-38.1	-41.5	3.6	8393360	94	7318
2026-01-08 09:24:35.52	236.79	70.69	-38.0	-40.7	3.5	8431526	94	6675
2026-01-08 09:24:35.72	236.62	70.61	-38.0	-39.9	3.3	8380245	94	6113
2026-01-08 09:24:35.92	236.45	70.53	-38.0	-39.9	3.3	8417758	94	6128
2026-01-08 09:24:36.12	236.29	70.46	-38.3	-41.4	3.6	8396781	95	7087
2026-01-08 09:24:36.32	236.12	70.38	-38.1	-41.4	3.6	8376571	94	7244
2026-01-08 09:24:36.52	235.96	70.30	-38.1	-40.3	3.4	8429100	94	6396
2026-01-08 09:24:36.72	235.80	70.22	-38.1	-40.0	3.3	8398830	94	6151

#Closed at: 2026-01-08 09:24:36