passes_logs/2026/01/07/XPeterburg/XPeterburg__20260107_144958_FENGYUN_3E_rec.log

#Pass ID: 20260107_144958_FENGYUN 3E
#Satellite: FENGYUN 3E
#Configuration: FENGYUN 3E
#Start time: 2026-01-07 14:49:51

#Version: 1.5.20200625
#Station: XPeterburg
#Location: 30.318091 lon 59.932769 lat
#TLE: 1 49008U 21062A   25359.14718215  .00000011  00000+0  25812-4 0  9998
#TLE: 2 49008  98.7476 359.5210 0000940 189.9291 170.1866 14.19881103231888

#Time	Az	El	Level	Level2	SNR	BER	Gain	Gain2
2026-01-07 14:49:51.65	190.56	67.65	-37.9	-40.8	3.3	8387821	92	6908
2026-01-07 14:49:51.85	190.68	67.73	-37.1	-46.6	3.6	8027194	79	14819
2026-01-07 14:49:52.05	190.80	67.81	-37.4	-40.1	3.5	8450099	92	6701
2026-01-07 14:49:52.25	190.92	67.89	-37.2	-38.6	3.4	8429637	92	5813
2026-01-07 14:49:52.45	191.05	67.97	-37.0	-37.9	3.4	8400856	92	5473
2026-01-07 14:49:52.65	191.17	68.05	-36.7	-38.9	3.7	8400775	91	6359
2026-01-07 14:49:52.85	191.30	68.13	-36.4	-37.7	4.0	8417678	91	5732
2026-01-07 14:49:53.05	191.42	68.21	-35.8	-35.9	4.1	8417678	90	4983
2026-01-07 14:49:53.25	191.55	68.29	-35.5	-35.3	4.4	8285694	89	4838
2026-01-07 14:49:53.45	191.68	68.37	-35.0	-34.6	4.8	8106136	88	4697
2026-01-07 14:49:53.66	191.81	68.45	-34.7	-34.3	5.2	7723274	87	4741
2026-01-07 14:49:53.86	191.94	68.53	-33.9	-33.1	5.8	6991996	86	4520
2026-01-07 14:49:54.06	192.07	68.61	-33.4	-32.6	6.5	3790180	85	4472
2026-01-07 14:49:54.26	192.20	68.69	-32.8	-31.9	7.1	2220382	84	4420
2026-01-07 14:49:54.46	192.34	68.77	-32.9	-32.6	7.0	1263519	83	4775
2026-01-07 14:49:54.66	192.47	68.85	-32.2	-31.6	8.1	932270	82	4604
2026-01-07 14:49:54.86	192.61	68.93	-32.0	-31.2	8.3	932270	82	4516
2026-01-07 14:49:55.06	192.74	69.01	-31.5	-30.7	8.9	532527	81	4494
2026-01-07 14:49:55.26	192.88	69.09	-31.2	-30.6	9.5	299743	80	4599
2026-01-07 14:49:55.47	193.03	69.17	-30.9	-29.9	9.8	187786	80	4409
2026-01-07 14:49:55.67	193.17	69.25	-30.5	-29.8	10.0	112781	79	4507
2026-01-07 14:49:55.87	193.31	69.33	-30.3	-29.3	10.3	75622	79	4373
2026-01-07 14:49:56.07	193.45	69.41	-30.2	-29.6	10.5	53581	78	4608
2026-01-07 14:49:56.27	193.59	69.49	-30.1	-29.4	10.6	41130	78	4542
2026-01-07 14:49:56.47	193.74	69.57	-30.0	-29.2	10.7	41130	78	4493
2026-01-07 14:49:56.67	193.88	69.65	-30.0	-29.2	10.8	32947	78	4491
2026-01-07 14:49:56.87	194.03	69.73	-29.9	-29.1	10.8	29674	78	4455
2026-01-07 14:49:57.07	194.18	69.81	-29.9	-29.0	10.9	26287	78	4424
2026-01-07 14:49:57.27	194.33	69.89	-29.9	-29.1	10.9	24604	78	4455
2026-01-07 14:49:57.48	194.48	69.97	-30.0	-29.2	10.8	26733	78	4481
2026-01-07 14:49:57.68	194.64	70.05	-30.1	-29.4	10.6	30097	78	4538
2026-01-07 14:49:57.88	194.79	70.13	-30.2	-29.6	10.5	38063	78	4600
2026-01-07 14:49:58.08	194.94	70.21	-30.2	-29.6	10.4	45433	78	4604
2026-01-07 14:49:58.28	195.10	70.29	-30.5	-30.3	10.1	45433	78	4788
2026-01-07 14:49:58.48	195.26	70.36	-30.7	-30.8	9.9	58490	78	4941
2026-01-07 14:49:58.68	195.42	70.44	-30.8	-30.9	9.7	83770	78	4976
2026-01-07 14:49:58.88	195.57	70.52	-31.0	-31.3	9.5	109657	78	5067
2026-01-07 14:49:59.08	195.74	70.60	-31.1	-31.0	9.3	147960	79	4850
2026-01-07 14:49:59.28	195.90	70.68	-31.1	-30.9	9.3	207378	79	4840
2026-01-07 14:49:59.48	196.06	70.76	-31.0	-30.7	9.4	183300	79	4770
2026-01-07 14:49:59.69	196.24	70.84	-31.0	-30.8	9.4	146347	79	4781
2026-01-07 14:49:59.89	196.40	70.92	-31.0	-30.7	9.4	146347	79	4770
2026-01-07 14:50:00.09	196.57	70.99	-31.0	-30.7	9.5	164222	79	4782
2026-01-07 14:50:00.29	196.74	71.07	-31.3	-31.3	9.1	150272	79	4959
2026-01-07 14:50:00.49	196.91	71.15	-31.1	-30.9	9.3	161155	79	4812
2026-01-07 14:50:00.69	197.09	71.23	-30.8	-30.2	9.7	169338	79	4625
2026-01-07 14:50:00.89	197.26	71.31	-31.0	-30.7	9.4	149024	79	4760
2026-01-07 14:50:01.09	197.44	71.38	-30.9	-30.5	9.5	156246	79	4711
2026-01-07 14:50:01.29	197.61	71.46	-30.8	-30.3	9.7	138885	79	4654
2026-01-07 14:50:01.50	197.80	71.54	-30.8	-30.2	9.7	132911	79	4628
2026-01-07 14:50:01.70	197.98	71.62	-30.7	-30.2	9.8	112232	79	4637
2026-01-07 14:50:01.90	198.16	71.70	-30.7	-30.0	9.9	112232	79	4572
2026-01-07 14:50:02.10	198.35	71.77	-30.5	-29.7	10.1	107151	79	4484
2026-01-07 14:50:02.30	198.53	71.85	-30.5	-29.6	10.1	84354	79	4478
2026-01-07 14:50:02.50	198.72	71.93	-30.4	-29.5	10.2	77327	79	4457
2026-01-07 14:50:02.70	198.91	72.00	-30.3	-29.3	10.3	57998	79	4381
2026-01-07 14:50:02.90	199.10	72.08	-30.3	-29.7	10.5	52265	78	4614
2026-01-07 14:50:03.10	199.29	72.16	-30.2	-29.6	10.5	47367	78	4600
2026-01-07 14:50:03.30	199.49	72.23	-30.2	-29.5	10.6	41633	78	4574
2026-01-07 14:50:03.50	199.68	72.31	-30.2	-29.5	10.6	38188	78	4572
2026-01-07 14:50:03.71	199.89	72.39	-30.2	-29.6	10.6	38188	78	4603
2026-01-07 14:50:03.91	200.09	72.46	-30.2	-29.7	10.5	35442	78	4625
2026-01-07 14:50:04.11	200.29	72.54	-30.0	-29.1	10.8	36552	78	4471
2026-01-07 14:50:04.31	200.49	72.61	-30.1	-29.5	10.6	28060	78	4562
2026-01-07 14:50:04.51	200.70	72.69	-29.8	-29.2	11.0	31505	77	4608
2026-01-07 14:50:04.71	200.90	72.76	-29.8	-29.1	11.0	19191	77	4588
2026-01-07 14:50:04.91	201.11	72.84	-29.8	-29.2	11.1	16948	77	4616
2026-01-07 14:50:05.11	201.32	72.91	-29.6	-28.8	11.3	17795	77	4510
2026-01-07 14:50:05.31	201.54	72.99	-29.5	-28.8	11.3	17795	77	4494
2026-01-07 14:50:05.52	201.76	73.07	-29.5	-28.8	11.4	11180	77	4506
2026-01-07 14:50:05.72	201.98	73.14	-29.5	-28.7	11.4	11695	77	4487
2026-01-07 14:50:05.92	202.20	73.22	-29.4	-28.6	11.6	9155	77	4471
2026-01-07 14:50:06.12	202.42	73.29	-29.6	-29.4	11.5	7347	76	4820
2026-01-07 14:50:06.32	202.64	73.36	-29.5	-29.2	11.6	8983	76	4773
2026-01-07 14:50:06.52	202.86	73.44	-29.6	-29.5	11.5	7953	76	4841
2026-01-07 14:50:06.72	203.09	73.51	-29.6	-29.3	11.6	8972	76	4785
2026-01-07 14:50:06.93	203.33	73.59	-29.8	-29.8	11.4	9006	76	4922
2026-01-07 14:50:07.13	203.56	73.66	-29.7	-29.5	11.5	9006	76	4840
2026-01-07 14:50:07.33	203.80	73.73	-29.7	-29.5	11.6	9464	76	4829
2026-01-07 14:50:07.53	204.03	73.80	-29.7	-29.6	11.6	9498	76	4888
2026-01-07 14:50:07.73	204.27	73.88	-29.6	-29.5	11.6	9063	76	4832
2026-01-07 14:50:07.93	204.51	73.95	-29.6	-29.4	11.8	6786	76	4821
2026-01-07 14:50:08.13	204.75	74.02	-29.5	-29.1	11.9	5699	76	4719
2026-01-07 14:50:08.33	204.99	74.09	-29.5	-29.2	11.9	4337	76	4767
2026-01-07 14:50:08.53	205.24	74.16	-29.3	-28.9	12.1	3582	76	4683
2026-01-07 14:50:08.74	205.50	74.24	-29.3	-28.8	12.1	3582	76	4661
2026-01-07 14:50:08.94	205.75	74.31	-28.8	-27.8	12.7	2517	76	4365
2026-01-07 14:50:09.14	206.01	74.38	-28.8	-27.7	12.7	1544	76	4358
2026-01-07 14:50:09.34	206.26	74.45	-28.8	-27.9	12.6	1636	76	4416
2026-01-07 14:50:09.54	206.52	74.52	-28.4	-27.5	12.9	926	75	4430
2026-01-07 14:50:09.74	206.78	74.59	-28.5	-27.8	12.7	892	75	4509
2026-01-07 14:50:09.94	207.05	74.66	-28.4	-27.5	12.9	732	75	4430
2026-01-07 14:50:10.14	207.31	74.73	-28.3	-27.2	13.0	503	75	4337
2026-01-07 14:50:10.34	207.58	74.80	-28.4	-27.9	12.9	537	74	4653
2026-01-07 14:50:10.54	207.85	74.87	-28.3	-27.7	13.0	663	74	4595
2026-01-07 14:50:10.75	208.14	74.94	-28.3	-27.8	13.0	663	74	4624
2026-01-07 14:50:10.95	208.42	75.01	-28.2	-27.6	13.1	366	74	4564
2026-01-07 14:50:11.15	208.70	75.07	-28.4	-27.9	12.9	549	74	4642
2026-01-07 14:50:11.35	208.98	75.14	-28.4	-28.0	12.8	469	74	4694
2026-01-07 14:50:11.55	209.26	75.21	-28.3	-27.9	12.9	446	74	4663
2026-01-07 14:50:11.75	209.55	75.28	-28.3	-27.8	12.9	423	74	4650
2026-01-07 14:50:11.95	209.84	75.34	-28.1	-27.3	13.1	617	74	4513
2026-01-07 14:50:12.15	210.13	75.41	-28.0	-27.2	13.1	308	74	4457
2026-01-07 14:50:12.35	210.42	75.47	-27.9	-27.0	13.2	297	74	4413
2026-01-07 14:50:12.55	210.72	75.54	-27.8	-26.7	13.3	297	74	4345
2026-01-07 14:50:12.75	211.02	75.60	-27.7	-27.0	13.4	205	73	4550
2026-01-07 14:50:12.96	211.34	75.67	-27.5	-26.7	13.6	183	73	4492
2026-01-07 14:50:13.16	211.65	75.74	-27.6	-26.8	13.5	160	73	4501
2026-01-07 14:50:13.36	211.96	75.80	-27.5	-26.6	13.7	68	73	4471
2026-01-07 14:50:13.56	212.27	75.86	-27.5	-26.7	13.6	68	73	4474
2026-01-07 14:50:13.76	212.58	75.93	-27.5	-26.6	13.7	114	73	4460
2026-01-07 14:50:13.96	212.90	75.99	-27.5	-26.7	13.7	91	73	4480
2026-01-07 14:50:14.16	213.22	76.05	-27.6	-26.9	13.6	91	73	4526
2026-01-07 14:50:14.36	213.55	76.12	-27.6	-26.9	13.5	68	73	4529
2026-01-07 14:50:14.56	213.87	76.18	-27.6	-26.8	13.5	125	73	4507
2026-01-07 14:50:14.76	214.20	76.24	-27.5	-26.8	13.6	137	73	4500
2026-01-07 14:50:14.97	214.55	76.30	-27.7	-27.0	13.5	114	73	4555
2026-01-07 14:50:15.17	214.89	76.36	-27.6	-26.9	13.5	148	73	4520
2026-01-07 14:50:15.37	215.23	76.42	-27.8	-27.2	13.3	160	73	4617
2026-01-07 14:50:15.57	215.57	76.48	-27.5	-26.6	13.7	102	73	4465
2026-01-07 14:50:15.77	215.92	76.54	-27.5	-26.6	13.7	102	73	4431
2026-01-07 14:50:15.97	216.26	76.60	-27.4	-26.5	13.7	68	73	4409
2026-01-07 14:50:16.17	216.62	76.66	-27.5	-26.6	13.7	0	73	4429
2026-01-07 14:50:16.37	216.97	76.72	-27.4	-26.4	13.7	45	73	4359
2026-01-07 14:50:16.57	217.33	76.77	-27.4	-26.4	13.7	68	73	4373
2026-01-07 14:50:16.77	217.69	76.83	-27.5	-26.5	13.7	45	73	4395
2026-01-07 14:50:16.98	218.07	76.89	-27.4	-26.4	13.8	114	73	4371
2026-01-07 14:50:17.18	218.44	76.95	-27.4	-26.4	13.8	68	73	4372
2026-01-07 14:50:17.38	218.81	77.00	-27.5	-26.5	13.7	22	73	4397
2026-01-07 14:50:17.58	219.19	77.06	-27.4	-26.4	13.8	22	73	4363
2026-01-07 14:50:17.78	219.56	77.11	-27.5	-26.5	13.7	45	73	4382
2026-01-07 14:50:17.98	219.94	77.16	-27.5	-26.5	13.7	57	73	4393
2026-01-07 14:50:18.18	220.33	77.22	-27.6	-26.7	13.6	34	73	4438
2026-01-07 14:50:18.38	220.71	77.27	-27.5	-26.6	13.6	34	73	4409
2026-01-07 14:50:18.58	221.10	77.32	-27.6	-26.6	13.6	102	73	4429
2026-01-07 14:50:18.78	221.50	77.37	-27.6	-26.7	13.6	91	73	4453
2026-01-07 14:50:18.99	221.92	77.43	-27.7	-26.9	13.5	160	73	4502
2026-01-07 14:50:19.19	222.32	77.48	-27.7	-26.9	13.4	160	73	4497
2026-01-07 14:50:19.39	222.72	77.53	-27.6	-26.7	13.5	148	73	4451
2026-01-07 14:50:19.59	223.13	77.58	-27.7	-27.0	13.4	91	73	4539
2026-01-07 14:50:19.79	223.54	77.62	-27.6	-26.9	13.5	160	73	4533
2026-01-07 14:50:19.99	223.95	77.67	-27.6	-26.7	13.6	160	73	4475
2026-01-07 14:50:20.19	224.37	77.72	-27.6	-26.9	13.5	228	73	4510
2026-01-07 14:50:20.39	224.79	77.77	-27.7	-27.1	13.4	125	73	4571
2026-01-07 14:50:20.59	225.21	77.81	-27.6	-26.9	13.5	171	73	4516
2026-01-07 14:50:20.80	225.66	77.86	-27.6	-26.9	13.5	137	73	4536
2026-01-07 14:50:21.00	226.09	77.91	-27.5	-26.7	13.7	114	73	4474
2026-01-07 14:50:21.20	226.52	77.95	-27.5	-26.6	13.7	91	73	4452
2026-01-07 14:50:21.40	226.96	77.99	-27.6	-26.8	13.6	91	73	4500
2026-01-07 14:50:21.60	227.40	78.04	-27.5	-26.6	13.7	125	73	4455
2026-01-07 14:50:21.80	227.84	78.08	-27.4	-26.5	13.8	91	73	4424
2026-01-07 14:50:22.00	228.29	78.12	-27.4	-26.5	13.8	57	73	4428
2026-01-07 14:50:22.20	228.74	78.16	-27.4	-26.5	13.8	57	73	4416
2026-01-07 14:50:22.40	229.19	78.20	-27.6	-26.8	13.7	125	73	4496
2026-01-07 14:50:22.60	229.65	78.24	-27.6	-26.8	13.6	57	73	4499
2026-01-07 14:50:22.80	230.11	78.28	-27.7	-26.9	13.5	102	73	4516
2026-01-07 14:50:23.01	230.59	78.32	-27.7	-27.0	13.5	102	73	4525
2026-01-07 14:50:23.21	231.06	78.35	-27.8	-27.1	13.4	171	73	4554
2026-01-07 14:50:23.41	231.52	78.39	-27.8	-27.1	13.4	114	73	4549
2026-01-07 14:50:23.61	232.00	78.43	-27.8	-27.2	13.4	205	73	4579
2026-01-07 14:50:23.81	232.47	78.46	-27.8	-27.2	13.4	297	73	4577
2026-01-07 14:50:24.01	232.95	78.50	-27.8	-27.1	13.4	217	73	4551
2026-01-07 14:50:24.21	233.43	78.53	-27.9	-27.4	13.3	102	73	4633
2026-01-07 14:50:24.41	233.91	78.56	-27.8	-27.2	13.4	228	73	4585
2026-01-07 14:50:24.61	234.39	78.59	-27.8	-27.1	13.4	228	73	4553
2026-01-07 14:50:24.81	234.88	78.62	-27.8	-27.3	13.4	240	73	4612
2026-01-07 14:50:25.02	235.40	78.66	-27.8	-27.2	13.4	171	73	4589
2026-01-07 14:50:25.22	235.89	78.69	-27.8	-27.1	13.5	160	73	4543
2026-01-07 14:50:25.42	236.39	78.71	-27.8	-27.2	13.4	91	73	4592
2026-01-07 14:50:25.62	236.89	78.74	-27.8	-27.1	13.5	137	73	4557
2026-01-07 14:50:25.82	237.39	78.77	-27.8	-27.1	13.4	148	73	4566
2026-01-07 14:50:26.02	237.89	78.79	-27.6	-26.7	13.7	91	73	4441
2026-01-07 14:50:26.22	238.40	78.82	-27.6	-26.7	13.7	114	73	4436
2026-01-07 14:50:26.42	238.90	78.84	-27.6	-26.7	13.7	114	73	4447
2026-01-07 14:50:26.62	239.41	78.87	-27.5	-26.5	13.8	45	73	4395
2026-01-07 14:50:26.83	239.95	78.89	-27.5	-26.5	13.8	91	73	4412
2026-01-07 14:50:27.03	240.47	78.91	-27.5	-26.6	13.8	34	73	4423
2026-01-07 14:50:27.23	240.98	78.93	-27.5	-26.5	13.8	68	73	4411
2026-01-07 14:50:27.43	241.50	78.95	-27.5	-26.5	13.9	57	73	4412
2026-01-07 14:50:27.63	242.02	78.97	-27.5	-26.6	13.8	45	73	4423
2026-01-07 14:50:27.83	242.54	78.99	-27.6	-26.7	13.8	68	73	4439
2026-01-07 14:50:28.03	243.07	79.01	-27.5	-26.5	13.9	68	73	4407
2026-01-07 14:50:28.23	243.59	79.02	-27.6	-26.8	13.7	57	73	4478
2026-01-07 14:50:28.43	244.12	79.04	-27.7	-26.9	13.7	22	73	4510
2026-01-07 14:50:28.63	244.65	79.05	-27.6	-26.8	13.7	45	73	4488
2026-01-07 14:50:28.84	245.21	79.07	-27.7	-27.0	13.6	80	73	4517
2026-01-07 14:50:29.04	245.74	79.08	-27.9	-27.3	13.4	57	73	4621
2026-01-07 14:50:29.24	246.27	79.09	-27.9	-27.4	13.4	80	73	4630
2026-01-07 14:50:29.44	246.80	79.10	-27.9	-27.3	13.5	125	73	4596
2026-01-07 14:50:29.64	247.34	79.11	-27.9	-27.4	13.4	137	73	4637
2026-01-07 14:50:29.84	247.87	79.12	-27.9	-27.3	13.4	263	73	4613
2026-01-07 14:50:30.04	248.41	79.13	-28.0	-27.5	13.3	263	73	4659
2026-01-07 14:50:30.24	248.95	79.14	-28.0	-27.6	13.3	263	73	4689
2026-01-07 14:50:30.44	249.49	79.14	-28.1	-27.8	13.2	240	73	4762
2026-01-07 14:50:30.65	250.05	79.15	-28.1	-27.9	13.1	274	73	4763
2026-01-07 14:50:30.85	250.59	79.15	-28.0	-27.6	13.3	263	73	4687
2026-01-07 14:50:31.05	251.13	79.16	-28.2	-28.0	13.1	343	73	4817
2026-01-07 14:50:31.25	251.67	79.16	-28.2	-28.0	13.1	308	73	4797
2026-01-07 14:50:31.45	252.21	79.16	-28.2	-28.0	13.1	423	73	4804
2026-01-07 14:50:31.65	252.75	79.16	-28.3	-28.2	13.0	389	73	4875
2026-01-07 14:50:31.85	253.29	79.16	-28.3	-28.1	13.1	389	73	4830
2026-01-07 14:50:32.05	253.83	79.16	-28.4	-28.3	13.0	331	73	4884
2026-01-07 14:50:32.25	254.37	79.16	-28.4	-28.3	13.0	560	73	4888
2026-01-07 14:50:32.46	254.93	79.15	-28.4	-28.4	13.0	377	73	4913
2026-01-07 14:50:32.66	255.47	79.15	-28.3	-28.1	13.1	503	73	4832
2026-01-07 14:50:32.86	256.01	79.14	-28.4	-28.4	13.0	503	73	4912
2026-01-07 14:50:33.06	256.55	79.14	-28.5	-28.6	12.9	411	73	5004
2026-01-07 14:50:33.26	257.09	79.13	-28.6	-28.4	12.8	617	74	4800
2026-01-07 14:50:33.46	257.62	79.12	-28.6	-28.3	12.8	617	74	4790
2026-01-07 14:50:33.66	258.16	79.11	-28.6	-28.3	12.8	652	74	4766
2026-01-07 14:50:33.86	258.69	79.10	-28.8	-28.8	12.6	755	74	4931
2026-01-07 14:50:34.06	259.23	79.09	-28.7	-28.7	12.6	869	74	4893
2026-01-07 14:50:34.27	259.79	79.08	-28.7	-28.7	12.6	1007	74	4889
2026-01-07 14:50:34.47	260.32	79.07	-28.8	-28.8	12.6	1213	74	4910
2026-01-07 14:50:34.67	260.85	79.05	-28.7	-28.7	12.6	846	74	4888
2026-01-07 14:50:34.87	261.38	79.04	-28.7	-28.5	12.7	915	74	4851
2026-01-07 14:50:35.07	261.90	79.02	-28.7	-28.6	12.6	1144	74	4875
2026-01-07 14:50:35.27	262.43	79.01	-28.7	-28.7	12.6	1144	74	4884
2026-01-07 14:50:35.47	262.95	78.99	-28.7	-28.6	12.7	995	74	4856
2026-01-07 14:50:35.67	263.47	78.97	-28.8	-28.8	12.6	984	74	4921
2026-01-07 14:50:35.87	263.99	78.95	-28.8	-28.8	12.5	1110	74	4918
2026-01-07 14:50:36.08	264.54	78.93	-28.9	-29.0	12.5	1075	74	4974
2026-01-07 14:50:36.28	265.06	78.91	-28.9	-28.9	12.4	1270	74	4952
2026-01-07 14:50:36.48	265.57	78.89	-28.8	-28.7	12.5	1728	74	4903
2026-01-07 14:50:36.68	266.08	78.87	-28.8	-28.9	12.5	1785	74	4955
2026-01-07 14:50:36.88	266.59	78.84	-28.8	-28.4	12.4	1785	75	4672
2026-01-07 14:50:37.08	267.10	78.82	-28.9	-28.5	12.3	1728	75	4691
2026-01-07 14:50:37.28	267.61	78.79	-28.8	-28.4	12.4	1865	75	4665
2026-01-07 14:50:37.48	268.11	78.77	-28.9	-28.4	12.4	1693	75	4678
2026-01-07 14:50:37.69	268.63	78.74	-28.9	-28.4	12.4	1945	75	4682
2026-01-07 14:50:37.89	269.13	78.71	-28.8	-28.2	12.4	1613	75	4628
2026-01-07 14:50:38.09	269.63	78.68	-28.8	-28.2	12.4	1625	75	4620
2026-01-07 14:50:38.29	270.12	78.65	-28.7	-28.1	12.5	1510	75	4588
2026-01-07 14:50:38.49	270.61	78.62	-28.7	-28.0	12.5	1430	75	4552
2026-01-07 14:50:38.69	271.10	78.59	-28.7	-28.0	12.5	1144	75	4570
2026-01-07 14:50:38.89	271.59	78.56	-28.7	-28.0	12.5	1144	75	4529
2026-01-07 14:50:39.09	272.07	78.53	-28.8	-28.1	12.4	1544	75	4556
2026-01-07 14:50:39.30	272.57	78.49	-28.8	-28.1	12.4	1350	75	4556
2026-01-07 14:50:39.50	273.05	78.46	-28.8	-28.2	12.4	1350	75	4581
2026-01-07 14:50:39.70	273.52	78.43	-28.9	-28.3	12.3	1785	75	4621
2026-01-07 14:50:39.90	273.99	78.39	-28.8	-28.1	12.4	1808	75	4561
2026-01-07 14:50:40.10	274.46	78.35	-28.9	-28.3	12.3	2162	75	4589
2026-01-07 14:50:40.30	274.93	78.32	-29.0	-28.6	12.1	2494	75	4685
2026-01-07 14:50:40.50	275.39	78.28	-29.2	-28.9	12.0	3456	75	4764
2026-01-07 14:50:40.70	275.85	78.24	-29.1	-28.9	12.0	3456	75	4763
2026-01-07 14:50:40.90	276.30	78.20	-29.1	-28.9	12.0	3753	75	4760
2026-01-07 14:50:41.10	276.75	78.16	-29.3	-29.2	11.8	4028	75	4867
2026-01-07 14:50:41.31	277.23	78.12	-29.2	-29.0	11.9	5229	75	4798
2026-01-07 14:50:41.51	277.67	78.08	-29.3	-29.1	11.8	5813	75	4849
2026-01-07 14:50:41.71	278.11	78.03	-29.2	-29.1	11.8	5756	75	4821
2026-01-07 14:50:41.91	278.55	77.99	-29.4	-29.3	11.7	5596	75	4892
2026-01-07 14:50:42.11	278.99	77.95	-29.3	-29.2	11.8	6031	75	4842
2026-01-07 14:50:42.31	279.42	77.90	-29.3	-29.3	11.7	6031	75	4922
2026-01-07 14:50:42.51	279.85	77.86	-29.3	-29.3	11.7	5905	75	4905
2026-01-07 14:50:42.71	280.28	77.81	-29.3	-29.3	11.8	5573	75	4921
2026-01-07 14:50:42.91	280.70	77.77	-29.4	-29.4	11.7	5893	75	4954
2026-01-07 14:50:43.11	281.12	77.72	-29.2	-29.1	11.8	5630	75	4865
2026-01-07 14:50:43.32	281.56	77.67	-29.1	-28.7	11.9	5653	75	4720
2026-01-07 14:50:43.52	281.97	77.62	-29.3	-29.3	11.7	5847	75	4870
2026-01-07 14:50:43.72	282.38	77.57	-29.3	-29.2	11.7	6122	75	4859
2026-01-07 14:50:43.92	282.79	77.53	-29.4	-29.4	11.6	6248	75	4939
2026-01-07 14:50:44.12	283.19	77.48	-29.5	-29.5	11.6	6248	75	4923
2026-01-07 14:50:44.32	283.59	77.43	-29.7	-29.5	11.5	7804	76	4797
2026-01-07 14:50:44.52	283.99	77.37	-29.6	-29.3	11.6	9098	76	4749
2026-01-07 14:50:44.72	284.38	77.32	-29.7	-29.6	11.4	9086	76	4863
2026-01-07 14:50:44.92	284.77	77.27	-29.7	-29.6	11.4	10322	76	4852
2026-01-07 14:50:45.13	285.18	77.22	-29.8	-29.8	11.3	10803	76	4905
2026-01-07 14:50:45.33	285.56	77.16	-29.9	-29.9	11.3	12474	76	4941
2026-01-07 14:50:45.53	285.94	77.11	-29.9	-29.4	11.2	13652	77	4675
2026-01-07 14:50:45.73	286.32	77.05	-29.9	-29.4	11.2	13652	77	4678
2026-01-07 14:50:45.93	286.70	77.00	-29.9	-29.5	11.2	13526	77	4668
2026-01-07 14:50:46.13	287.07	76.94	-30.0	-29.7	11.0	15129	77	4718
2026-01-07 14:50:46.33	287.43	76.89	-30.1	-29.8	11.0	18905	77	4771
2026-01-07 14:50:46.53	287.80	76.83	-30.2	-30.1	10.8	19592	77	4835
2026-01-07 14:50:46.73	288.16	76.78	-30.3	-30.3	10.7	27626	77	4895
2026-01-07 14:50:46.94	288.53	76.72	-30.4	-30.5	10.5	34400	77	4944
2026-01-07 14:50:47.14	288.89	76.66	-30.5	-30.1	10.6	38681	78	4710
2026-01-07 14:50:47.34	289.24	76.60	-30.6	-30.3	10.4	38681	78	4778
2026-01-07 14:50:47.54	289.59	76.54	-30.7	-30.6	10.3	52997	78	4874
2026-01-07 14:50:47.74	289.93	76.48	-30.7	-30.7	10.3	52997	78	4903
2026-01-07 14:50:47.94	290.27	76.42	-30.8	-30.9	10.1	60058	78	4960
2026-01-07 14:50:48.14	290.61	76.36	-30.9	-31.0	10.1	65620	78	4990
2026-01-07 14:50:48.34	290.95	76.30	-30.9	-31.2	10.0	68939	78	5057
2026-01-07 14:50:48.54	291.28	76.24	-30.9	-30.6	10.0	78277	79	4753
2026-01-07 14:50:48.75	291.63	76.18	-31.0	-30.8	9.8	88623	79	4807
2026-01-07 14:50:48.95	291.95	76.12	-31.2	-31.1	9.7	110023	79	4862
2026-01-07 14:50:49.15	292.28	76.05	-31.3	-31.3	9.6	129043	79	4926
2026-01-07 14:50:49.35	292.60	75.99	-31.2	-31.2	9.6	142890	79	4921
2026-01-07 14:50:49.55	292.92	75.93	-31.4	-31.6	9.4	142890	79	5024
2026-01-07 14:50:49.75	293.23	75.86	-31.5	-31.8	9.3	151416	79	5096
2026-01-07 14:50:49.95	293.54	75.80	-31.8	-31.8	9.2	173538	80	4968
2026-01-07 14:50:50.15	293.85	75.74	-31.8	-31.9	9.1	194126	80	4990
2026-01-07 14:50:50.35	294.16	75.67	-31.9	-32.1	9.1	222770	80	5021
2026-01-07 14:50:50.56	294.48	75.60	-31.9	-31.6	9.2	240028	81	4772
2026-01-07 14:50:50.76	294.78	75.54	-32.0	-31.9	9.0	239101	81	4857
2026-01-07 14:50:50.96	295.07	75.47	-32.1	-31.9	8.9	266921	81	4863
2026-01-07 14:50:51.16	295.37	75.41	-32.1	-32.0	8.8	266921	81	4887
2026-01-07 14:50:51.36	295.66	75.34	-32.1	-32.1	8.8	278652	81	4907
2026-01-07 14:50:51.56	295.95	75.28	-32.3	-32.3	8.7	311347	81	4970
2026-01-07 14:50:51.76	296.24	75.21	-32.2	-32.2	8.7	354171	81	4908
2026-01-07 14:50:51.96	296.52	75.14	-32.2	-32.3	8.7	348655	81	4978
2026-01-07 14:50:52.16	296.80	75.07	-32.3	-32.5	8.5	359539	81	5005
2026-01-07 14:50:52.36	297.08	75.01	-32.2	-32.2	8.6	410396	81	4933
2026-01-07 14:50:52.57	297.37	74.94	-32.3	-32.3	8.6	396411	81	4948
2026-01-07 14:50:52.77	297.64	74.87	-32.3	-32.3	8.5	424701	81	4955
2026-01-07 14:50:52.97	297.91	74.80	-32.3	-32.2	8.5	424701	81	4912
2026-01-07 14:50:53.17	298.18	74.73	-32.1	-32.0	8.6	418647	81	4864
2026-01-07 14:50:53.37	298.45	74.66	-32.3	-32.3	8.5	383537	81	4936
2026-01-07 14:50:53.57	298.71	74.59	-32.2	-32.2	8.5	407386	81	4923
2026-01-07 14:50:53.77	298.97	74.52	-32.3	-32.3	8.4	427448	81	4958
2026-01-07 14:50:53.97	299.23	74.45	-32.4	-32.6	8.3	459045	81	5025
2026-01-07 14:50:54.17	299.49	74.38	-32.4	-32.5	8.2	523899	81	5006
2026-01-07 14:50:54.37	299.74	74.31	-32.4	-32.6	8.2	507202	81	5025
2026-01-07 14:50:54.58	300.00	74.24	-32.4	-32.1	8.1	507202	82	4747
2026-01-07 14:50:54.78	300.25	74.17	-32.7	-32.7	7.8	602233	82	4932
2026-01-07 14:50:54.98	300.50	74.09	-32.8	-32.9	7.7	737606	82	4969
2026-01-07 14:50:55.18	300.74	74.02	-33.1	-32.9	7.2	884010	83	4860
2026-01-07 14:50:55.38	300.98	73.95	-33.0	-32.9	7.3	1181671	83	4832
2026-01-07 14:50:55.58	301.22	73.88	-33.2	-33.2	7.0	1312133	83	4918
2026-01-07 14:50:55.78	301.46	73.81	-33.4	-33.7	6.7	1495628	83	5085
2026-01-07 14:50:55.98	301.70	73.74	-33.4	-33.2	6.7	1852890	84	4813
2026-01-07 14:50:56.18	301.93	73.66	-33.6	-33.6	6.5	1852890	84	4919
2026-01-07 14:50:56.38	302.16	73.59	-33.7	-33.8	6.3	1968727	84	4986
2026-01-07 14:50:56.58	302.39	73.52	-33.7	-33.8	6.4	2431652	84	4993
2026-01-07 14:50:56.79	302.63	73.44	-33.7	-33.9	6.4	2431594	84	5004
2026-01-07 14:50:56.99	302.85	73.37	-33.9	-34.2	6.2	2438243	84	5106
2026-01-07 14:50:57.19	303.07	73.29	-33.8	-34.1	6.3	2615535	84	5076
2026-01-07 14:50:57.39	303.29	73.22	-33.9	-33.9	6.2	2507434	85	4871
2026-01-07 14:50:57.59	303.51	73.15	-34.0	-33.9	6.2	2780090	85	4868
2026-01-07 14:50:57.79	303.73	73.07	-33.8	-33.5	6.5	2549331	85	4756
2026-01-07 14:50:57.99	303.94	73.00	-33.7	-33.3	6.5	2124229	85	4705
2026-01-07 14:50:58.19	304.16	72.92	-33.7	-33.2	6.6	2203765	85	4655
2026-01-07 14:50:58.39	304.37	72.85	-33.7	-33.2	6.5	2203765	85	4676
2026-01-07 14:50:58.59	304.57	72.77	-33.7	-33.1	6.5	2041351	85	4637
2026-01-07 14:50:58.79	304.78	72.70	-33.6	-33.1	6.5	2140594	85	4629
2026-01-07 14:50:58.99	304.99	72.62	-33.4	-32.6	6.7	2023464	85	4506
2026-01-07 14:50:59.20	305.20	72.54	-33.6	-32.9	6.6	1882221	85	4570
2026-01-07 14:50:59.40	305.40	72.47	-33.5	-32.8	6.6	2131450	85	4540
2026-01-07 14:50:59.60	305.60	72.39	-33.7	-33.2	6.4	2117546	85	4655
2026-01-07 14:50:59.80	305.80	72.32	-33.6	-33.0	6.4	2486457	85	4570
2026-01-07 14:51:00.00	305.99	72.24	-33.7	-33.2	6.4	2486457	85	4680
2026-01-07 14:51:00.20	306.19	72.17	-33.8	-33.3	6.3	2220233	85	4689
2026-01-07 14:51:00.40	306.38	72.09	-34.0	-33.9	6.0	2599731	85	4888
2026-01-07 14:51:00.60	306.57	72.01	-34.1	-34.0	5.8	2808139	85	4902
2026-01-07 14:51:00.80	306.76	71.94	-34.3	-34.7	5.6	3465362	85	5115
2026-01-07 14:51:01.01	306.95	71.86	-34.2	-34.2	5.8	3888576	85	4954
2026-01-07 14:51:01.21	307.14	71.78	-34.5	-34.5	5.3	3975162	86	4920
2026-01-07 14:51:01.41	307.32	71.70	-34.3	-34.1	5.5	6489910	86	4802
2026-01-07 14:51:01.61	307.50	71.63	-34.7	-35.0	5.1	6489910	86	5063
2026-01-07 14:51:01.81	307.69	71.55	-34.3	-34.0	5.5	6484210	86	4736
2026-01-07 14:51:02.01	307.86	71.47	-34.6	-34.6	5.2	6717922	86	4947
2026-01-07 14:51:02.21	308.04	71.39	-34.5	-34.3	5.2	6398094	86	4823
2026-01-07 14:51:02.41	308.22	71.32	-34.8	-35.0	5.0	7105327	86	5056
2026-01-07 14:51:02.61	308.39	71.24	-34.5	-34.2	5.2	7353858	86	4772
2026-01-07 14:51:02.82	308.57	71.16	-34.7	-34.7	5.1	6420318	86	4950
2026-01-07 14:51:03.02	308.74	71.08	-34.5	-34.2	5.2	7330581	86	4767
2026-01-07 14:51:03.22	308.91	71.00	-34.6	-34.7	5.1	6524322	86	4959
2026-01-07 14:51:03.42	309.08	70.92	-34.4	-34.0	5.2	6524322	86	4709
2026-01-07 14:51:03.62	309.25	70.85	-34.6	-34.7	5.1	7390766	86	4967
2026-01-07 14:51:03.82	309.41	70.77	-35.0	-34.9	4.9	6455371	87	4847
2026-01-07 14:51:04.02	309.58	70.69	-34.6	-33.9	5.5	7536575	87	4554
2026-01-07 14:51:04.22	309.74	70.61	-32.7	-31.3	7.0	5874721	84	4158
2026-01-07 14:51:04.42	309.90	70.53	-31.0	-30.5	9.3	2149188	79	4678
2026-01-07 14:51:04.62	310.06	70.46	-30.6	-30.0	9.9	120838	79	4559
2026-01-07 14:51:04.83	310.23	70.37	-36.1	-37.0	4.6	1553821	88	5429
2026-01-07 14:51:05.03	310.38	70.29	-36.0	-36.4	4.2	1553821	89	5197
2026-01-07 14:51:05.23	310.54	70.22	-37.4	-40.8	3.6	8159591	91	7247

#Closed at: 2026-01-07 14:51:05