passes_logs/2026/01/03/XPeterburg/XPeterburg__20260103_142617_FENGYUN_3E_rec.log

#Pass ID: 20260103_142617_FENGYUN 3E
#Satellite: FENGYUN 3E
#Configuration: FENGYUN 3E
#Start time: 2026-01-03 14:26:11

#Version: 1.5.20200625
#Station: XPeterburg
#Location: 30.318091 lon 59.932769 lat
#TLE: 1 49008U 21062A   25359.14718215  .00000011  00000+0  25812-4 0  9998
#TLE: 2 49008  98.7476 359.5210 0000940 189.9291 170.1866 14.19881103231888

#Time	Az	El	Level	Level2	SNR	BER	Gain	Gain2
2026-01-03 14:26:11.27	121.96	67.80	-37.1	-38.2	3.3	8378780	92	5577
2026-01-03 14:26:11.47	121.82	67.87	-36.8	-42.5	3.6	8170108	85	9544
2026-01-03 14:26:11.68	121.66	67.95	-37.3	-39.9	3.6	8438129	91	6679
2026-01-03 14:26:11.88	121.51	68.02	-37.4	-39.6	3.4	8423091	91	6327
2026-01-03 14:26:12.08	121.36	68.10	-37.5	-39.4	3.3	8404312	92	6127
2026-01-03 14:26:12.28	121.20	68.17	-37.6	-41.2	3.6	8384651	92	7389
2026-01-03 14:26:12.48	121.05	68.24	-37.7	-41.3	3.6	8425128	92	7417
2026-01-03 14:26:12.68	120.89	68.32	-37.8	-40.6	3.4	8426342	92	6775
2026-01-03 14:26:12.88	120.74	68.39	-37.8	-40.4	3.3	8394905	92	6622
2026-01-03 14:26:13.08	120.58	68.46	-37.8	-41.7	3.6	8394905	92	7716
2026-01-03 14:26:13.28	120.42	68.54	-37.7	-41.3	3.6	8396884	92	7489
2026-01-03 14:26:13.48	120.26	68.61	-37.4	-39.5	3.4	8432327	92	6242
2026-01-03 14:26:13.69	120.09	68.69	-37.1	-38.2	3.3	8415424	92	5553
2026-01-03 14:26:13.89	119.93	68.76	-36.8	-37.2	3.4	8388278	92	5180
2026-01-03 14:26:14.09	119.76	68.83	-36.3	-37.7	3.8	8404346	91	5764
2026-01-03 14:26:14.29	119.60	68.91	-35.7	-36.4	4.3	8357883	89	5305
2026-01-03 14:26:14.49	119.43	68.98	-35.1	-35.1	4.7	8016666	88	4885
2026-01-03 14:26:14.69	119.27	69.05	-34.6	-34.3	5.3	7357189	87	4718
2026-01-03 14:26:14.89	119.10	69.12	-34.3	-33.4	5.8	7357189	87	4475
2026-01-03 14:26:15.09	118.93	69.20	-33.4	-32.7	6.5	4695190	85	4526
2026-01-03 14:26:15.29	118.76	69.27	-33.0	-32.3	7.0	2596160	84	4523
2026-01-03 14:26:15.49	118.58	69.34	-32.6	-31.9	7.6	1635383	83	4572
2026-01-03 14:26:15.70	118.40	69.41	-32.2	-31.6	8.2	1040245	82	4601
2026-01-03 14:26:15.90	118.23	69.49	-31.9	-31.1	8.5	578899	82	4500
2026-01-03 14:26:16.10	118.05	69.56	-31.5	-30.8	9.0	413806	81	4540
2026-01-03 14:26:16.30	117.87	69.63	-31.4	-31.2	9.2	222152	80	4773
2026-01-03 14:26:16.50	117.69	69.70	-31.4	-31.0	9.3	222152	80	4719
2026-01-03 14:26:16.70	117.51	69.77	-30.4	-29.5	10.2	184020	79	4426
2026-01-03 14:26:16.90	117.33	69.84	-30.5	-29.8	10.0	108947	79	4537
2026-01-03 14:26:17.10	117.15	69.92	-30.4	-29.6	10.1	90499	79	4479
2026-01-03 14:26:17.30	116.96	69.99	-30.2	-29.7	10.5	62782	78	4643
2026-01-03 14:26:17.50	116.78	70.06	-30.0	-29.2	10.7	42732	78	4494
2026-01-03 14:26:17.71	116.58	70.13	-29.9	-29.0	10.9	33508	78	4452
2026-01-03 14:26:17.91	116.39	70.20	-29.9	-29.0	10.8	25611	78	4456
2026-01-03 14:26:18.11	116.20	70.27	-29.9	-29.1	10.9	25611	78	4500
2026-01-03 14:26:18.31	116.01	70.34	-29.9	-29.1	10.8	24581	78	4495
2026-01-03 14:26:18.51	115.81	70.41	-30.1	-29.4	10.7	26401	78	4568
2026-01-03 14:26:18.71	115.62	70.48	-30.1	-29.5	10.6	29411	78	4574
2026-01-03 14:26:18.91	115.42	70.55	-30.3	-29.9	10.4	35854	78	4699
2026-01-03 14:26:19.11	115.23	70.62	-30.5	-30.3	10.1	53970	78	4795
2026-01-03 14:26:19.31	115.03	70.69	-30.8	-30.9	9.8	83347	78	4985
2026-01-03 14:26:19.51	114.83	70.76	-31.0	-31.0	9.4	136459	79	4869
2026-01-03 14:26:19.72	114.61	70.83	-30.8	-30.4	9.7	145774	79	4695
2026-01-03 14:26:19.92	114.41	70.90	-31.0	-30.8	9.5	145774	79	4786
2026-01-03 14:26:20.12	114.20	70.97	-30.8	-30.3	9.7	135498	79	4670
2026-01-03 14:26:20.32	114.00	71.04	-30.6	-30.0	9.9	128688	79	4568
2026-01-03 14:26:20.52	113.79	71.11	-30.6	-30.0	9.8	104312	79	4586
2026-01-03 14:26:20.72	113.58	71.17	-30.6	-30.0	9.7	105674	79	4572
2026-01-03 14:26:20.92	113.36	71.24	-30.7	-30.1	9.7	113708	79	4588
2026-01-03 14:26:21.12	113.15	71.31	-30.5	-29.6	9.9	117885	79	4473
2026-01-03 14:26:21.32	112.94	71.38	-30.6	-29.8	9.8	106956	79	4527
2026-01-03 14:26:21.53	112.71	71.45	-30.8	-30.4	9.5	97675	79	4676
2026-01-03 14:26:21.73	112.49	71.51	-30.7	-30.0	9.7	114143	79	4574
2026-01-03 14:26:21.93	112.27	71.58	-30.5	-29.7	9.9	114143	79	4481
2026-01-03 14:26:22.13	112.05	71.65	-30.5	-29.6	9.9	101680	79	4472
2026-01-03 14:26:22.33	111.82	71.71	-30.4	-30.0	10.1	94219	78	4691
2026-01-03 14:26:22.53	111.60	71.78	-30.4	-29.9	10.1	79936	78	4658
2026-01-03 14:26:22.73	111.37	71.85	-30.4	-29.9	10.1	82614	78	4645
2026-01-03 14:26:22.93	111.14	71.91	-30.2	-29.5	10.3	70999	78	4550
2026-01-03 14:26:23.13	110.91	71.98	-30.0	-29.2	10.4	51818	78	4479
2026-01-03 14:26:23.33	110.68	72.04	-29.9	-28.8	10.7	41038	78	4342
2026-01-03 14:26:23.54	110.43	72.11	-29.8	-29.1	10.8	27660	77	4571
2026-01-03 14:26:23.74	110.19	72.17	-29.8	-29.1	10.8	27660	77	4579
2026-01-03 14:26:23.94	109.96	72.24	-29.5	-28.6	11.1	24776	77	4443
2026-01-03 14:26:24.14	109.72	72.30	-29.6	-28.7	11.1	17520	77	4476
2026-01-03 14:26:24.34	109.47	72.37	-29.4	-28.4	11.3	17326	77	4381
2026-01-03 14:26:24.54	109.23	72.43	-29.3	-28.2	11.4	13744	77	4336
2026-01-03 14:26:24.74	108.98	72.49	-29.5	-28.5	11.3	12462	77	4430
2026-01-03 14:26:24.94	108.74	72.56	-29.5	-28.6	11.3	12130	77	4439
2026-01-03 14:26:25.14	108.49	72.62	-29.4	-28.4	11.4	12382	77	4394
2026-01-03 14:26:25.34	108.24	72.68	-29.6	-28.8	11.3	12382	77	4493
2026-01-03 14:26:25.54	107.98	72.74	-29.7	-29.1	11.1	10837	77	4559
2026-01-03 14:26:25.75	107.72	72.81	-29.7	-29.1	11.1	15071	77	4548
2026-01-03 14:26:25.95	107.46	72.87	-29.8	-29.2	11.1	15106	77	4603
2026-01-03 14:26:26.15	107.20	72.93	-30.0	-29.7	10.8	16674	77	4743
2026-01-03 14:26:26.35	106.94	72.99	-30.0	-29.6	10.9	20633	77	4735
2026-01-03 14:26:26.55	106.68	73.05	-30.1	-29.9	10.8	25852	77	4778
2026-01-03 14:26:26.75	106.41	73.11	-30.3	-30.2	10.6	30521	77	4889
2026-01-03 14:26:26.95	106.14	73.17	-30.5	-30.7	10.4	30521	77	5037
2026-01-03 14:26:27.15	105.87	73.23	-30.3	-30.3	10.7	39436	77	4908
2026-01-03 14:26:27.36	105.59	73.30	-30.5	-30.2	10.4	33943	78	4780
2026-01-03 14:26:27.56	105.32	73.36	-30.4	-30.0	10.6	42320	78	4688
2026-01-03 14:26:27.76	105.04	73.41	-30.5	-30.1	10.5	37376	78	4715
2026-01-03 14:26:27.96	104.77	73.47	-30.3	-29.8	10.7	44197	78	4639
2026-01-03 14:26:28.16	104.49	73.53	-30.4	-30.1	10.6	29571	78	4711
2026-01-03 14:26:28.36	104.20	73.59	-30.2	-29.7	10.8	36186	78	4608
2026-01-03 14:26:28.56	103.92	73.65	-30.3	-29.8	10.8	24662	78	4631
2026-01-03 14:26:28.76	103.64	73.70	-30.1	-29.5	11.0	24662	78	4581
2026-01-03 14:26:28.96	103.35	73.76	-30.3	-29.8	10.9	27660	78	4656
2026-01-03 14:26:29.16	103.06	73.82	-29.9	-29.1	11.3	21938	78	4459
2026-01-03 14:26:29.36	102.77	73.87	-30.0	-29.2	11.3	15964	78	4512
2026-01-03 14:26:29.56	102.47	73.93	-30.1	-29.4	11.2	15712	78	4549
2026-01-03 14:26:29.77	102.16	73.98	-30.0	-29.3	11.3	14751	78	4517
2026-01-03 14:26:29.97	101.86	74.04	-30.0	-29.2	11.4	13572	78	4479
2026-01-03 14:26:30.17	101.56	74.09	-30.0	-29.2	11.4	11970	78	4495
2026-01-03 14:26:30.37	101.26	74.15	-29.9	-29.0	11.5	11970	78	4439
2026-01-03 14:26:30.57	100.96	74.20	-29.9	-29.2	11.5	10688	78	4498
2026-01-03 14:26:30.77	100.65	74.25	-29.9	-29.0	11.6	9292	78	4464
2026-01-03 14:26:30.97	100.34	74.31	-29.9	-29.5	11.6	8571	77	4711
2026-01-03 14:26:31.17	100.03	74.36	-30.1	-29.9	11.4	8274	77	4837
2026-01-03 14:26:31.37	99.72	74.41	-30.0	-29.9	11.4	9510	77	4832
2026-01-03 14:26:31.58	99.38	74.47	-29.9	-29.5	11.7	11489	77	4706
2026-01-03 14:26:31.78	99.07	74.52	-29.9	-29.6	11.6	8113	77	4739
2026-01-03 14:26:31.98	98.75	74.57	-30.0	-29.8	11.5	8090	77	4802
2026-01-03 14:26:32.18	98.42	74.62	-29.7	-29.2	11.8	8869	77	4648
2026-01-03 14:26:32.38	98.10	74.67	-30.1	-29.9	11.4	8869	77	4838
2026-01-03 14:26:32.58	97.77	74.72	-29.7	-29.0	11.9	7976	77	4581
2026-01-03 14:26:32.78	97.45	74.76	-29.8	-29.3	11.7	6305	77	4667
2026-01-03 14:26:32.98	97.11	74.81	-29.6	-29.0	12.0	5699	77	4598
2026-01-03 14:26:33.18	96.78	74.86	-29.7	-29.1	11.9	4600	77	4594
2026-01-03 14:26:33.39	96.43	74.91	-29.6	-28.9	12.0	4463	77	4572
2026-01-03 14:26:33.59	96.09	74.96	-29.5	-28.8	12.0	4154	77	4534
2026-01-03 14:26:33.79	95.75	75.00	-29.3	-28.4	12.3	3181	77	4440
2026-01-03 14:26:33.99	95.41	75.05	-29.4	-28.7	12.1	2861	77	4510
2026-01-03 14:26:34.19	95.07	75.09	-29.3	-28.3	12.2	2861	77	4379
2026-01-03 14:26:34.39	94.72	75.14	-29.3	-28.3	12.3	2552	77	4417
2026-01-03 14:26:34.59	94.37	75.18	-29.3	-28.9	12.3	2494	76	4671
2026-01-03 14:26:34.79	94.02	75.23	-29.4	-29.1	12.2	2391	76	4770
2026-01-03 14:26:34.99	93.67	75.27	-29.4	-29.1	12.1	2265	76	4767
2026-01-03 14:26:35.20	93.30	75.31	-29.2	-28.7	12.3	2941	76	4620
2026-01-03 14:26:35.40	92.94	75.36	-29.2	-28.6	12.3	1979	76	4576
2026-01-03 14:26:35.60	92.58	75.40	-29.1	-28.3	12.5	1396	76	4513
2026-01-03 14:26:35.80	92.22	75.44	-29.1	-28.5	12.4	1396	76	4593
2026-01-03 14:26:36.00	91.86	75.48	-29.1	-28.4	12.4	1281	76	4551
2026-01-03 14:26:36.20	91.49	75.52	-29.0	-28.3	12.5	1705	76	4524
2026-01-03 14:26:36.40	91.12	75.56	-29.0	-28.2	12.5	1670	76	4485
2026-01-03 14:26:36.60	90.75	75.60	-29.0	-28.1	12.6	1258	76	4451
2026-01-03 14:26:36.80	90.38	75.64	-29.0	-28.2	12.5	1190	76	4485
2026-01-03 14:26:37.01	89.99	75.68	-28.9	-28.1	12.6	1338	76	4461
2026-01-03 14:26:37.21	89.61	75.71	-28.9	-28.0	12.6	1213	76	4418
2026-01-03 14:26:37.41	89.23	75.75	-28.8	-27.9	12.7	949	76	4412
2026-01-03 14:26:37.61	88.85	75.78	-28.7	-28.1	12.7	949	75	4615
2026-01-03 14:26:37.81	88.47	75.82	-28.6	-27.9	12.8	766	75	4547
2026-01-03 14:26:37.92	88.26	75.84	-28.7	-28.1	12.7	904	75	4616
2026-01-03 14:26:38.12	87.88	75.87	-28.6	-28.1	12.7	720	75	4599
2026-01-03 14:26:38.32	87.49	75.91	-28.6	-28.0	12.8	789	75	4579
2026-01-03 14:26:38.52	87.10	75.94	-28.6	-27.7	12.8	732	75	4484
2026-01-03 14:26:38.72	86.71	75.97	-28.7	-28.0	12.7	698	75	4559
2026-01-03 14:26:38.92	86.32	76.00	-28.6	-27.9	12.8	846	75	4533
2026-01-03 14:26:39.12	85.92	76.04	-28.7	-28.1	12.7	846	75	4600
2026-01-03 14:26:39.32	85.53	76.07	-28.7	-28.1	12.7	984	75	4625
2026-01-03 14:26:39.52	85.13	76.10	-28.8	-28.4	12.5	972	75	4694
2026-01-03 14:26:39.73	84.71	76.13	-28.9	-28.5	12.4	1213	75	4703
2026-01-03 14:26:39.93	84.31	76.16	-28.9	-28.6	12.3	1522	75	4718
2026-01-03 14:26:40.13	83.91	76.18	-28.9	-28.5	12.4	1979	75	4665
2026-01-03 14:26:40.33	83.50	76.21	-29.0	-28.6	12.3	1888	75	4724
2026-01-03 14:26:40.53	83.10	76.24	-28.9	-28.5	12.4	1876	75	4684
2026-01-03 14:26:40.73	82.69	76.26	-29.0	-28.6	12.2	1796	75	4719
2026-01-03 14:26:40.93	82.28	76.29	-29.0	-28.6	12.2	2254	75	4706
2026-01-03 14:26:41.13	81.87	76.31	-29.1	-28.8	12.2	2254	75	4753
2026-01-03 14:26:41.33	81.45	76.34	-29.0	-28.7	12.2	2746	75	4728
2026-01-03 14:26:41.53	81.04	76.36	-28.9	-28.5	12.2	2346	75	4666
2026-01-03 14:26:41.73	80.62	76.38	-29.0	-28.6	12.1	2185	75	4704
2026-01-03 14:26:41.94	80.19	76.41	-28.9	-28.6	12.2	2529	75	4726
2026-01-03 14:26:42.14	79.77	76.43	-28.9	-28.5	12.2	2803	75	4699
2026-01-03 14:26:42.34	79.35	76.45	-28.7	-28.0	12.4	2552	75	4543
2026-01-03 14:26:42.54	78.93	76.47	-29.0	-28.7	12.1	1865	75	4735
2026-01-03 14:26:42.74	78.51	76.49	-28.9	-28.4	12.3	2460	75	4635
2026-01-03 14:26:42.94	78.08	76.50	-29.0	-28.7	12.1	2460	75	4758
2026-01-03 14:26:43.14	77.66	76.52	-28.7	-28.1	12.4	2449	75	4580
2026-01-03 14:26:43.34	77.23	76.54	-29.0	-28.6	12.2	2346	75	4720
2026-01-03 14:26:43.54	76.81	76.55	-28.9	-28.5	12.3	2414	75	4687
2026-01-03 14:26:43.74	76.38	76.57	-29.0	-28.7	12.1	2243	75	4774
2026-01-03 14:26:43.94	75.95	76.58	-29.0	-28.8	12.1	2826	75	4802
2026-01-03 14:26:44.15	75.50	76.60	-29.1	-28.9	12.0	3925	75	4807
2026-01-03 14:26:44.35	75.07	76.61	-29.2	-29.0	11.9	4005	75	4839
2026-01-03 14:26:44.55	74.64	76.62	-29.2	-29.0	11.9	4005	75	4828
2026-01-03 14:26:44.75	74.20	76.64	-29.3	-29.1	11.8	4005	75	4858
2026-01-03 14:26:44.95	73.77	76.65	-29.2	-29.1	11.9	4531	75	4863
2026-01-03 14:26:45.15	73.34	76.66	-29.2	-29.2	11.8	4920	75	4879
2026-01-03 14:26:45.35	72.90	76.67	-29.2	-29.1	11.8	5550	75	4855
2026-01-03 14:26:45.55	72.47	76.67	-29.2	-29.1	11.9	4692	75	4876
2026-01-03 14:26:45.75	72.03	76.68	-29.0	-28.7	12.1	3936	75	4775
2026-01-03 14:26:45.95	71.60	76.69	-29.2	-29.0	12.0	3330	75	4855
2026-01-03 14:26:46.15	71.16	76.70	-29.1	-28.9	12.1	3044	75	4808
2026-01-03 14:26:46.35	70.72	76.70	-29.0	-28.7	12.2	3044	75	4762
2026-01-03 14:26:46.56	70.26	76.71	-29.1	-28.9	12.1	3295	75	4821
2026-01-03 14:26:46.76	69.83	76.71	-28.8	-28.4	12.3	3067	75	4657
2026-01-03 14:26:46.96	69.39	76.71	-29.0	-28.6	12.2	2838	75	4724
2026-01-03 14:26:47.16	68.95	76.72	-29.0	-28.6	12.1	2883	75	4723
2026-01-03 14:26:47.36	68.51	76.72	-28.9	-28.5	12.2	2758	75	4676
2026-01-03 14:26:47.56	68.07	76.72	-29.0	-28.7	12.1	2288	75	4740
2026-01-03 14:26:47.76	67.64	76.72	-29.1	-28.8	12.1	3170	75	4778
2026-01-03 14:26:47.96	67.20	76.72	-29.1	-28.9	12.0	3170	75	4789
2026-01-03 14:26:48.17	66.74	76.72	-28.8	-28.3	12.4	3021	75	4627
2026-01-03 14:26:48.37	66.30	76.72	-29.0	-28.7	12.2	2597	75	4736
2026-01-03 14:26:48.57	65.86	76.71	-29.0	-28.6	12.2	3570	75	4722
2026-01-03 14:26:48.77	65.42	76.71	-29.0	-28.6	12.2	2620	75	4726
2026-01-03 14:26:48.97	64.99	76.71	-29.1	-28.9	12.1	2162	75	4813
2026-01-03 14:26:49.17	64.55	76.70	-28.9	-28.6	12.3	2792	75	4734
2026-01-03 14:26:49.37	64.11	76.70	-29.1	-28.8	12.1	2494	75	4797
2026-01-03 14:26:49.57	63.68	76.69	-28.9	-28.4	12.3	2494	75	4652
2026-01-03 14:26:49.77	63.24	76.68	-29.0	-28.6	12.2	2128	75	4721
2026-01-03 14:26:49.97	62.80	76.67	-29.0	-28.6	12.3	2162	75	4724
2026-01-03 14:26:50.18	62.35	76.66	-28.9	-28.5	12.3	2117	75	4698
2026-01-03 14:26:50.38	61.91	76.66	-28.9	-28.5	12.3	2346	75	4681
2026-01-03 14:26:50.58	61.48	76.65	-28.9	-28.4	12.3	1853	75	4658
2026-01-03 14:26:50.78	61.05	76.63	-29.0	-28.6	12.2	2288	75	4702
2026-01-03 14:26:50.98	60.61	76.62	-29.1	-28.8	12.1	2838	75	4745
2026-01-03 14:26:51.18	60.18	76.61	-29.0	-28.7	12.1	3192	75	4741
2026-01-03 14:26:51.38	59.75	76.60	-29.1	-28.9	12.0	3170	75	4786
2026-01-03 14:26:51.58	59.32	76.58	-29.1	-28.9	12.1	3124	75	4778
2026-01-03 14:26:51.78	58.90	76.57	-29.1	-29.0	12.0	3124	75	4845
2026-01-03 14:26:51.98	58.47	76.55	-29.3	-29.4	11.8	3902	75	4953
2026-01-03 14:26:52.19	58.02	76.54	-29.1	-28.9	12.0	4188	75	4813
2026-01-03 14:26:52.39	57.59	76.52	-29.3	-29.3	11.8	3993	75	4904
2026-01-03 14:26:52.59	57.17	76.50	-29.3	-29.4	11.7	5538	75	4971
2026-01-03 14:26:52.79	56.75	76.48	-29.4	-29.5	11.7	5847	75	4973
2026-01-03 14:26:52.99	56.32	76.46	-29.4	-29.5	11.7	6797	75	4962
2026-01-03 14:26:53.19	55.90	76.44	-29.4	-29.6	11.6	6900	75	5036
2026-01-03 14:26:53.39	55.48	76.42	-29.5	-29.7	11.6	6900	75	5067
2026-01-03 14:26:53.59	55.07	76.40	-29.4	-29.6	11.7	6431	75	5017
2026-01-03 14:26:53.79	54.65	76.38	-29.3	-29.3	11.8	6992	75	4946
2026-01-03 14:26:53.99	54.23	76.36	-29.2	-29.3	11.8	5676	75	4930
2026-01-03 14:26:54.20	53.80	76.33	-29.2	-29.1	11.9	4749	75	4875
2026-01-03 14:26:54.40	53.39	76.31	-29.0	-28.7	12.2	4039	75	4769
2026-01-03 14:26:54.60	52.98	76.29	-29.0	-28.8	12.1	2838	75	4777
2026-01-03 14:26:54.80	52.57	76.26	-28.7	-28.2	12.4	2311	75	4621
2026-01-03 14:26:55.00	52.16	76.23	-28.8	-28.2	12.4	1567	75	4607
2026-01-03 14:26:55.20	51.75	76.21	-28.7	-28.0	12.5	1567	75	4537
2026-01-03 14:26:55.40	51.35	76.18	-28.7	-27.9	12.6	1258	75	4520
2026-01-03 14:26:55.60	50.95	76.15	-28.6	-27.7	12.7	1304	75	4474
2026-01-03 14:26:55.80	50.55	76.12	-28.5	-27.7	12.7	972	75	4458
2026-01-03 14:26:56.01	50.13	76.09	-28.5	-27.6	12.8	686	75	4419
2026-01-03 14:26:56.21	49.73	76.06	-28.4	-27.4	12.8	801	75	4398
2026-01-03 14:26:56.41	49.33	76.03	-28.5	-27.5	12.8	755	75	4417
2026-01-03 14:26:56.61	48.94	76.00	-28.5	-27.6	12.7	789	75	4431
2026-01-03 14:26:56.81	48.55	75.97	-28.6	-27.7	12.7	789	75	4474
2026-01-03 14:26:57.01	48.16	75.94	-28.6	-27.7	12.7	835	75	4480
2026-01-03 14:26:57.21	47.77	75.90	-28.6	-27.9	12.6	778	75	4509
2026-01-03 14:26:57.41	47.38	75.87	-28.6	-27.8	12.7	915	75	4480
2026-01-03 14:26:57.61	47.00	75.84	-28.6	-27.9	12.6	1235	75	4516
2026-01-03 14:26:57.81	46.62	75.80	-28.7	-27.9	12.6	949	75	4509
2026-01-03 14:26:58.01	46.24	75.77	-28.7	-27.9	12.6	1087	75	4520
2026-01-03 14:26:58.22	45.84	75.73	-28.6	-27.9	12.6	1293	75	4511
2026-01-03 14:26:58.42	45.46	75.69	-28.7	-28.0	12.6	1293	75	4538
2026-01-03 14:26:58.62	45.09	75.65	-28.7	-28.1	12.5	1052	75	4578
2026-01-03 14:26:58.82	44.72	75.61	-28.7	-28.0	12.6	1270	75	4536
2026-01-03 14:26:59.02	44.34	75.58	-28.7	-28.1	12.5	1167	75	4571
2026-01-03 14:26:59.22	43.98	75.54	-28.5	-27.6	12.7	1235	75	4446
2026-01-03 14:26:59.42	43.61	75.50	-28.5	-27.5	12.8	881	75	4432
2026-01-03 14:26:59.62	43.25	75.46	-28.5	-27.6	12.8	720	75	4476
2026-01-03 14:26:59.82	42.88	75.42	-28.3	-27.3	13.0	743	75	4387
2026-01-03 14:27:00.02	42.52	75.38	-28.3	-27.4	13.0	503	75	4405
2026-01-03 14:27:00.22	42.17	75.33	-28.3	-27.8	13.1	503	74	4650
2026-01-03 14:27:00.42	41.81	75.29	-28.2	-27.7	13.2	400	74	4614
2026-01-03 14:27:00.63	41.44	75.25	-28.3	-27.8	13.1	297	74	4657
2026-01-03 14:27:00.83	41.09	75.20	-28.4	-28.0	13.1	320	74	4696
2026-01-03 14:27:01.03	40.74	75.16	-28.4	-28.0	13.1	469	74	4706
2026-01-03 14:27:01.23	40.39	75.11	-28.5	-28.2	12.9	320	74	4755
2026-01-03 14:27:01.43	40.05	75.07	-28.6	-28.3	12.9	423	74	4803
2026-01-03 14:27:01.63	39.70	75.02	-28.6	-28.4	12.9	377	74	4830
2026-01-03 14:27:01.83	39.36	74.98	-28.6	-28.5	12.8	617	74	4853
2026-01-03 14:27:02.03	39.03	74.93	-28.7	-28.7	12.8	801	74	4889
2026-01-03 14:27:02.23	38.69	74.88	-28.7	-28.6	12.8	801	74	4866
2026-01-03 14:27:02.44	38.34	74.83	-28.9	-29.0	12.6	698	74	4997
2026-01-03 14:27:02.64	38.01	74.79	-28.9	-29.1	12.6	904	74	5024
2026-01-03 14:27:02.84	37.68	74.74	-28.9	-28.9	12.6	1144	74	4972
2026-01-03 14:27:03.04	37.35	74.69	-28.9	-29.0	12.5	1121	74	4981
2026-01-03 14:27:03.24	37.03	74.64	-29.0	-29.1	12.5	1167	74	4989
2026-01-03 14:27:03.44	36.70	74.59	-28.9	-28.4	12.4	1464	75	4659
2026-01-03 14:27:03.64	36.38	74.54	-28.8	-28.3	12.6	1682	75	4618
2026-01-03 14:27:03.84	36.06	74.49	-29.0	-28.5	12.5	1682	75	4690
2026-01-03 14:27:04.04	35.75	74.44	-29.0	-28.7	12.4	1350	75	4740
2026-01-03 14:27:04.24	35.43	74.39	-29.0	-28.6	12.4	1361	75	4735
2026-01-03 14:27:04.45	35.11	74.33	-29.0	-28.6	12.5	1544	75	4713
2026-01-03 14:27:04.65	34.80	74.28	-29.0	-28.7	12.4	1350	75	4780
2026-01-03 14:27:04.85	34.49	74.23	-28.9	-28.7	12.5	1728	75	4760
2026-01-03 14:27:05.05	34.18	74.17	-29.0	-28.7	12.4	1602	75	4786
2026-01-03 14:27:05.25	33.88	74.12	-29.0	-28.9	12.3	1625	75	4830
2026-01-03 14:27:05.45	33.58	74.07	-29.1	-28.9	12.3	1739	75	4838
2026-01-03 14:27:05.65	33.28	74.01	-29.0	-28.7	12.4	1739	75	4765
2026-01-03 14:27:05.85	32.98	73.96	-29.0	-28.8	12.3	1991	75	4779
2026-01-03 14:27:06.05	32.69	73.90	-29.0	-28.7	12.3	2151	75	4757
2026-01-03 14:27:06.25	32.40	73.85	-29.0	-28.7	12.2	2117	75	4755
2026-01-03 14:27:06.46	32.09	73.79	-28.9	-28.6	12.3	1968	75	4725
2026-01-03 14:27:06.66	31.80	73.73	-28.9	-28.5	12.3	1876	75	4695
2026-01-03 14:27:06.86	31.52	73.67	-28.9	-28.4	12.3	2082	75	4693
2026-01-03 14:27:07.06	31.23	73.62	-28.7	-28.2	12.4	1693	75	4626
2026-01-03 14:27:07.26	30.95	73.56	-28.6	-27.8	12.7	1693	75	4514
2026-01-03 14:27:07.46	30.67	73.50	-28.6	-27.9	12.6	1293	75	4547
2026-01-03 14:27:07.66	30.39	73.44	-28.5	-27.7	12.7	1270	75	4490
2026-01-03 14:27:07.86	30.12	73.38	-28.5	-27.8	12.7	1007	75	4522
2026-01-03 14:27:08.06	29.84	73.33	-28.5	-27.7	12.7	972	75	4470
2026-01-03 14:27:08.26	29.57	73.27	-28.5	-27.7	12.7	892	75	4480
2026-01-03 14:27:08.46	29.30	73.21	-28.5	-27.6	12.7	972	75	4464
2026-01-03 14:27:08.67	29.02	73.14	-28.5	-27.7	12.6	892	75	4477
2026-01-03 14:27:08.87	28.76	73.08	-28.4	-27.4	12.7	1338	75	4395
2026-01-03 14:27:09.07	28.49	73.02	-28.5	-27.7	12.4	1338	75	4494
2026-01-03 14:27:09.27	28.23	72.96	-28.5	-28.2	12.5	1441	74	4723
2026-01-03 14:27:09.47	27.97	72.90	-28.5	-28.2	12.5	1316	74	4735
2026-01-03 14:27:09.67	27.71	72.84	-28.6	-28.3	12.4	1213	74	4778
2026-01-03 14:27:09.87	27.46	72.78	-28.6	-28.3	12.4	1510	74	4746
2026-01-03 14:27:10.07	27.20	72.72	-28.6	-28.3	12.4	1453	74	4761
2026-01-03 14:27:10.27	26.95	72.65	-28.6	-28.4	12.3	1808	74	4797
2026-01-03 14:27:10.47	26.70	72.59	-28.6	-28.4	12.3	1911	74	4795
2026-01-03 14:27:10.68	26.44	72.53	-28.7	-28.5	12.3	1911	74	4833
2026-01-03 14:27:10.88	26.19	72.46	-28.8	-28.7	12.2	1865	74	4890
2026-01-03 14:27:11.08	25.95	72.40	-28.8	-28.8	12.1	2300	74	4925
2026-01-03 14:27:11.28	25.71	72.34	-28.8	-28.8	12.1	2746	74	4930
2026-01-03 14:27:11.48	25.47	72.27	-28.8	-28.9	12.1	3421	74	4934
2026-01-03 14:27:11.68	25.23	72.21	-28.9	-28.9	12.0	3398	74	4931
2026-01-03 14:27:11.88	24.99	72.14	-28.9	-29.0	12.0	3776	74	4940
2026-01-03 14:27:12.08	24.76	72.08	-28.9	-29.0	11.9	3616	74	4946
2026-01-03 14:27:12.28	24.52	72.01	-28.8	-28.2	11.9	4508	75	4578
2026-01-03 14:27:12.49	24.28	71.94	-28.8	-28.2	12.0	3948	75	4599
2026-01-03 14:27:12.69	24.05	71.88	-28.8	-28.4	11.9	3948	75	4665
2026-01-03 14:27:12.89	23.82	71.81	-28.9	-28.6	11.8	5424	75	4729
2026-01-03 14:27:13.09	23.60	71.75	-29.0	-28.6	11.8	5367	75	4745
2026-01-03 14:27:13.29	23.37	71.68	-29.0	-28.6	11.8	5275	75	4735
2026-01-03 14:27:13.49	23.15	71.62	-29.0	-28.8	11.8	5413	75	4789
2026-01-03 14:27:13.69	22.93	71.55	-29.1	-28.9	11.7	5184	75	4812
2026-01-03 14:27:13.89	22.71	71.48	-29.1	-28.8	11.7	6134	75	4785
2026-01-03 14:27:14.09	22.49	71.42	-29.1	-28.9	11.7	6809	75	4814
2026-01-03 14:27:14.29	22.27	71.35	-29.0	-28.8	11.8	6889	75	4782
2026-01-03 14:27:14.50	22.05	71.28	-29.2	-29.1	11.6	6889	75	4873
2026-01-03 14:27:14.70	21.84	71.21	-29.3	-29.2	11.5	7244	75	4890
2026-01-03 14:27:14.90	21.63	71.14	-29.4	-29.4	11.5	9361	75	4919
2026-01-03 14:27:15.10	21.42	71.07	-29.3	-29.3	11.5	9784	75	4891
2026-01-03 14:27:15.30	21.21	71.01	-29.4	-29.5	11.4	10414	75	4950
2026-01-03 14:27:15.50	21.00	70.94	-29.7	-29.5	11.3	11089	76	4808
2026-01-03 14:27:15.70	20.80	70.87	-29.7	-29.5	11.3	12874	76	4810
2026-01-03 14:27:15.90	20.59	70.80	-29.8	-29.8	11.1	15026	76	4914
2026-01-03 14:27:16.10	20.39	70.73	-29.8	-29.8	11.1	15026	76	4895
2026-01-03 14:27:16.30	20.19	70.66	-29.7	-29.6	11.2	16365	76	4836
2026-01-03 14:27:16.51	19.98	70.59	-29.9	-29.9	11.1	16101	76	4931
2026-01-03 14:27:16.71	19.79	70.52	-29.9	-30.0	11.1	16868	76	4954
2026-01-03 14:27:16.91	19.59	70.45	-29.9	-29.9	11.1	18516	76	4953
2026-01-03 14:27:17.11	19.40	70.38	-29.8	-29.8	11.2	16078	76	4897
2026-01-03 14:27:17.31	19.21	70.31	-29.5	-29.2	11.6	14053	76	4730
2026-01-03 14:27:17.51	19.01	70.24	-32.9	-33.4	7.7	41187	82	5234
2026-01-03 14:27:17.71	18.83	70.17	-35.6	-36.3	4.4	5781314	88	5313

#Closed at: 2026-01-03 14:27:17