passes_logs/2026/01/19/PlanumMoscow/PlanumMoscow__20260119_174615_METOP-B_rec.log

#Pass ID: 20260119_174615_METOP-B
#Satellite: METOP-B
#Configuration: METOP-B
#Start time: 2026-01-19 17:46:20.912651

#LorettStation: 1.0.0 05.05.2024
#Station: PlanumMoscow
#Location: 37.6253844 lon 55.6713361 lat
#TLE: 1 38771U 12049A   25293.92766658  .00000266  00000+0  14193-3 0  9996
#TLE: 2 38771  98.6882 344.7603 0001609 341.5209  18.5909 14.21379342679275

#Time	Az	El	Level	SNR
2026-01-19 17:49:59.293655	176.2	29.4	-62.4	6.6
2026-01-19 17:50:00.415948	176.3	29.6	-63.9	9.2
2026-01-19 17:50:01.538201	176.4	29.8	-63.8	8.9
2026-01-19 17:50:02.660462	176.5	30.0	-64.2	7.9
2026-01-19 17:50:03.782715	176.6	30.2	-64.0	8.3
2026-01-19 17:50:04.904495	176.7	30.4	-64.0	8.4
2026-01-19 17:50:06.026749	176.7	30.7	-63.7	3.8
2026-01-19 17:50:07.149010	176.8	30.9	-64.1	8.6
2026-01-19 17:50:08.271264	176.9	31.1	-63.6	8.2
2026-01-19 17:50:09.392045	177.0	31.3	-64.0	8.2
2026-01-19 17:50:10.513803	177.1	31.5	-63.9	8.1
2026-01-19 17:50:11.636056	177.2	31.8	-64.0	6.2
2026-01-19 17:50:12.757822	177.3	32.0	-64.4	7.2
2026-01-19 17:50:13.880076	177.4	32.2	-64.3	8.2
2026-01-19 17:50:15.002329	177.5	32.4	-64.7	8.9
2026-01-19 17:50:16.124118	177.6	32.7	-64.6	8.1
2026-01-19 17:50:17.250877	177.7	32.9	-64.3	7.9
2026-01-19 17:50:18.372644	177.8	33.1	-64.2	8.4
2026-01-19 17:50:19.494433	177.9	33.4	-64.3	8.8
2026-01-19 17:50:20.616191	178.0	33.6	-64.6	8.5
2026-01-19 17:50:21.738444	178.1	33.9	-63.8	7.7
2026-01-19 17:50:22.860705	178.2	34.1	-64.5	8.7
2026-01-19 17:50:23.983959	178.3	34.3	-63.6	5.7
2026-01-19 17:50:25.105717	178.4	34.6	-63.9	8.4
2026-01-19 17:50:26.230499	178.5	34.8	-63.9	5.7
2026-01-19 17:50:27.352752	178.6	35.1	-63.3	5.4
2026-01-19 17:50:28.474521	178.7	35.3	-63.8	9.1
2026-01-19 17:50:29.597775	178.8	35.6	-63.4	8.8
2026-01-19 17:50:30.719555	179.0	35.8	-63.0	6.6
2026-01-19 17:50:31.841808	179.1	36.1	-63.9	7.7
2026-01-19 17:50:32.963072	179.2	36.4	-63.6	8.4
2026-01-19 17:50:34.085325	179.3	36.6	-63.7	8.0
2026-01-19 17:50:35.207586	179.4	36.9	-63.5	8.2
2026-01-19 17:50:36.329373	179.6	37.1	-64.0	8.5
2026-01-19 17:50:37.451627	179.7	37.4	-64.0	8.6
2026-01-19 17:50:38.573392	179.8	37.7	-64.2	9.2
2026-01-19 17:50:39.695150	180.0	37.9	-63.4	8.2
2026-01-19 17:50:40.816908	180.1	38.2	-63.5	7.9
2026-01-19 17:50:41.938696	180.2	38.5	-62.8	4.9
2026-01-19 17:50:43.060950	180.4	38.8	-63.5	8.5
2026-01-19 17:50:44.183211	180.5	39.0	-63.9	8.9
2026-01-19 17:50:45.305465	180.7	39.3	-64.0	8.9
2026-01-19 17:50:46.427718	180.8	39.6	-63.9	8.9
2026-01-19 17:50:47.549507	181.0	39.9	-63.1	6.5
2026-01-19 17:50:48.670770	181.1	40.2	-64.2	8.7
2026-01-19 17:50:49.793031	181.3	40.5	-64.0	9.0
2026-01-19 17:50:50.915285	181.4	40.7	-64.7	9.5
2026-01-19 17:50:52.037073	181.6	41.0	-64.4	9.2
2026-01-19 17:50:53.159327	181.7	41.3	-64.6	9.2
2026-01-19 17:50:54.281580	181.9	41.6	-64.6	8.1
2026-01-19 17:50:55.403833	182.1	41.9	-64.7	9.2
2026-01-19 17:50:56.525591	182.2	42.2	-64.3	8.3
2026-01-19 17:50:57.647390	182.4	42.5	-64.4	8.7
2026-01-19 17:50:58.769643	182.6	42.8	-64.3	8.3
2026-01-19 17:50:59.891904	182.8	43.1	-64.7	8.7
2026-01-19 17:51:01.014158	183.0	43.5	-64.4	8.5
2026-01-19 17:51:02.137411	183.1	43.8	-64.6	8.7
2026-01-19 17:51:03.259220	183.3	44.1	-64.7	8.5
2026-01-19 17:51:04.380978	183.5	44.4	-64.7	7.7
2026-01-19 17:51:05.503231	183.7	44.7	-65.0	8.5
2026-01-19 17:51:06.624998	183.9	45.0	-65.1	8.6
2026-01-19 17:51:07.747252	184.1	45.4	-64.1	8.7
2026-01-19 17:51:08.869040	184.3	45.7	-64.1	8.8
2026-01-19 17:51:09.991798	184.6	46.0	-63.4	5.5
2026-01-19 17:51:11.114060	184.8	46.3	-62.9	8.7
2026-01-19 17:51:12.235323	185.0	46.7	-64.2	7.7
2026-01-19 17:51:13.357576	185.2	47.0	-64.3	8.8
2026-01-19 17:51:14.479334	185.5	47.3	-64.5	8.9
2026-01-19 17:51:15.601587	185.7	47.7	-63.7	7.5
2026-01-19 17:51:16.723841	185.9	48.0	-64.1	7.6
2026-01-19 17:51:17.845622	186.2	48.4	-64.0	8.9
2026-01-19 17:51:18.967875	186.5	48.7	-64.3	9.3
2026-01-19 17:51:20.089633	186.7	49.1	-63.4	6.2
2026-01-19 17:51:21.211887	187.0	49.4	-64.3	6.1
2026-01-19 17:51:22.334148	187.3	49.8	-64.7	8.4
2026-01-19 17:51:23.456439	187.5	50.1	-64.2	7.3
2026-01-19 17:51:24.578197	187.8	50.5	-64.4	7.7
2026-01-19 17:51:25.700451	188.1	50.8	-64.6	8.2
2026-01-19 17:51:26.822713	188.4	51.2	-64.5	7.0
2026-01-19 17:51:27.944966	188.7	51.6	-65.1	7.9
2026-01-19 17:51:29.066753	189.0	51.9	-64.7	7.0
2026-01-19 17:51:30.189006	189.3	52.3	-63.9	6.7
2026-01-19 17:51:31.311260	189.7	52.6	-64.8	7.7
2026-01-19 17:51:32.433026	190.0	53.0	-65.0	7.1
2026-01-19 17:51:33.555280	190.4	53.4	-65.2	8.1
2026-01-19 17:51:34.677572	190.7	53.8	-65.5	7.1
2026-01-19 17:51:35.804827	191.1	54.1	-65.0	8.5
2026-01-19 17:51:36.927088	191.5	54.5	-64.6	8.1
2026-01-19 17:51:38.049342	191.8	54.9	-64.9	6.5
2026-01-19 17:51:39.171595	192.2	55.3	-64.8	8.6
2026-01-19 17:51:40.292890	192.6	55.6	-65.1	8.2
2026-01-19 17:51:41.415144	193.1	56.0	-65.4	7.1
2026-01-19 17:51:42.537397	193.5	56.4	-65.1	7.7
2026-01-19 17:51:43.659155	193.9	56.8	-65.1	8.1
2026-01-19 17:51:44.784925	194.4	57.2	-65.5	8.5
2026-01-19 17:51:45.906714	194.8	57.6	-65.3	7.8
2026-01-19 17:51:47.028968	195.3	57.9	-65.5	8.8
2026-01-19 17:51:48.151230	195.8	58.3	-65.7	7.1
2026-01-19 17:51:49.273484	196.3	58.7	-65.1	6.9
2026-01-19 17:51:50.395272	196.8	59.1	-65.4	7.0
2026-01-19 17:51:51.516535	197.4	59.5	-64.8	5.8
2026-01-19 17:51:52.638797	197.9	59.9	-65.1	6.9
2026-01-19 17:51:53.761050	198.5	60.3	-65.8	6.6
2026-01-19 17:51:54.883303	199.1	60.7	-65.9	8.3
2026-01-19 17:51:56.005596	199.7	61.0	-65.9	7.5
2026-01-19 17:51:57.127849	200.3	61.4	-66.6	8.1
2026-01-19 17:51:58.250111	200.9	61.8	-66.4	7.3
2026-01-19 17:51:59.371869	201.6	62.2	-66.4	7.0
2026-01-19 17:52:00.494122	202.3	62.6	-66.6	7.9
2026-01-19 17:52:01.618376	203.0	63.0	-66.7	6.3
2026-01-19 17:52:02.740630	203.7	63.4	-66.7	6.7
2026-01-19 17:52:03.862923	204.5	63.7	-66.6	6.2
2026-01-19 17:52:04.985176	205.2	64.1	-66.8	6.7
2026-01-19 17:52:06.107429	206.0	64.5	-66.7	6.7
2026-01-19 17:52:07.229683	206.9	64.9	-66.9	6.5
2026-01-19 17:52:08.354441	207.7	65.2	-66.9	6.5
2026-01-19 17:52:09.476247	208.6	65.6	-67.0	6.2
2026-01-19 17:52:10.598500	209.5	66.0	-66.1	4.6
2026-01-19 17:52:11.720754	210.5	66.3	-66.7	6.0
2026-01-19 17:52:12.844007	211.4	66.7	-66.6	5.6
2026-01-19 17:52:13.966270	212.4	67.0	-67.1	6.8
2026-01-19 17:52:15.088523	213.5	67.4	-67.4	6.5
2026-01-19 17:52:16.215282	214.6	67.7	-67.3	5.0
2026-01-19 17:52:17.337576	215.7	68.0	-67.3	5.6
2026-01-19 17:52:18.459829	216.8	68.4	-67.0	5.7
2026-01-19 17:52:19.582083	218.0	68.7	-67.0	5.9
2026-01-19 17:52:20.704336	219.2	69.0	-66.7	6.0
2026-01-19 17:52:21.826599	220.5	69.3	-67.2	6.2
2026-01-19 17:52:22.948891	221.8	69.6	-66.9	6.2
2026-01-19 17:52:24.071144	223.1	69.9	-66.6	5.9
2026-01-19 17:52:25.192909	224.5	70.1	-66.6	6.8
2026-01-19 17:52:26.315163	225.9	70.4	-66.3	6.4
2026-01-19 17:52:27.437455	227.4	70.7	-66.9	5.9
2026-01-19 17:52:28.559213	228.9	70.9	-66.9	5.8
2026-01-19 17:52:29.681466	230.4	71.1	-67.1	5.6
2026-01-19 17:52:30.803728	232.0	71.3	-67.1	4.7
2026-01-19 17:52:31.925981	233.6	71.6	-66.9	4.9
2026-01-19 17:52:33.047778	235.3	71.7	-66.7	4.1
2026-01-19 17:52:34.170536	237.0	71.9	-67.4	5.1
2026-01-19 17:52:35.292796	238.7	72.1	-67.3	5.0
2026-01-19 17:52:36.415050	240.5	72.2	-67.6	4.9
2026-01-19 17:52:37.537303	242.3	72.4	-67.4	4.3
2026-01-19 17:52:38.659597	244.1	72.5	-67.4	4.8
2026-01-19 17:52:39.781849	245.9	72.6	-67.8	3.9
2026-01-19 17:52:40.903612	247.8	72.6	-67.8	3.2
2026-01-19 17:52:42.025404	249.6	72.7	-68.3	3.3
2026-01-19 17:52:43.147658	251.5	72.8	-68.0	2.6
2026-01-19 17:52:44.269911	253.4	72.8	-67.9	3.1
2026-01-19 17:52:45.392165	255.3	72.8	-67.4	0.6
2026-01-19 17:52:46.514427	257.2	72.8	-67.9	2.7
2026-01-19 17:52:47.636680	259.1	72.8	-68.1	4.2
2026-01-19 17:52:48.758934	261.0	72.7	-68.0	1.8
2026-01-19 17:52:49.881226	262.9	72.7	-67.6	3.0
2026-01-19 17:52:51.003479	264.7	72.6	-67.3	1.5
2026-01-19 17:52:52.125245	266.6	72.5	-67.4	2.2
2026-01-19 17:52:53.247539	268.4	72.4	-67.5	1.7
2026-01-19 17:52:54.369793	270.2	72.2	-67.4	2.9
2026-01-19 17:52:55.491604	271.9	72.1	-68.0	1.5
2026-01-19 17:52:56.613362	273.6	71.9	-68.1	2.6
2026-01-19 17:52:57.735623	275.3	71.8	-67.9	0.2
2026-01-19 17:52:58.857877	277.0	71.6	-67.4	0.5
2026-01-19 17:52:59.980130	278.6	71.4	-67.2	1.1
2026-01-19 17:53:01.102421	280.2	71.1	-67.6	2.6
2026-01-19 17:53:02.224674	281.8	70.9	-67.6	1.4
2026-01-19 17:53:03.346975	283.3	70.7	-67.0	1.4
2026-01-19 17:53:04.468734	284.7	70.4	-67.5	2.5
2026-01-19 17:53:05.590500	286.1	70.2	-67.8	1.6
2026-01-19 17:53:06.712793	287.5	69.9	-68.1	3.0
2026-01-19 17:53:07.835046	288.9	69.6	-68.0	1.3
2026-01-19 17:53:08.957323	290.2	69.3	-67.8	0.0
2026-01-19 17:53:10.079576	291.4	69.0	-67.5	0.0
2026-01-19 17:53:11.201830	292.7	68.7	-67.2	0.0
2026-01-19 17:53:12.324122	293.8	68.4	-67.4	1.3
2026-01-19 17:53:13.445880	295.0	68.1	-67.2	0.9
2026-01-19 17:53:14.568133	296.1	67.7	-67.7	0.0
2026-01-19 17:53:15.690395	297.2	67.4	-67.7	1.8
2026-01-19 17:53:16.811687	298.2	67.0	-68.2	2.3
2026-01-19 17:53:17.933941	299.2	66.7	-68.0	2.2
2026-01-19 17:53:19.056194	300.2	66.3	-67.4	1.0
2026-01-19 17:53:20.179448	301.2	66.0	-67.4	2.2
2026-01-19 17:53:21.301206	302.1	65.6	-67.1	2.0
2026-01-19 17:53:22.424468	303.0	65.3	-67.7	2.7
2026-01-19 17:53:23.546761	303.8	64.9	-67.0	2.1
2026-01-19 17:53:24.669014	304.6	64.5	-67.4	1.9
2026-01-19 17:53:25.791268	305.4	64.2	-67.3	2.3
2026-01-19 17:53:26.928037	306.2	63.8	-66.8	1.5
2026-01-19 17:53:28.050291	307.0	63.4	-67.0	1.8
2026-01-19 17:53:29.172585	307.7	63.0	-67.2	1.5
2026-01-19 17:53:30.294838	308.4	62.6	-67.2	3.1
2026-01-19 17:53:31.417092	309.1	62.3	-67.1	2.8
2026-01-19 17:53:32.539345	309.8	61.9	-66.3	2.3
2026-01-19 17:53:33.661606	310.4	61.5	-66.7	2.1
2026-01-19 17:53:34.782900	311.0	61.1	-66.8	3.7
2026-01-19 17:53:35.903666	311.6	60.7	-66.8	3.1
2026-01-19 17:53:37.025919	312.2	60.3	-66.4	2.7
2026-01-19 17:53:38.148183	312.8	59.9	-66.4	3.2
2026-01-19 17:53:39.268453	313.3	59.6	-66.2	2.7
2026-01-19 17:53:40.390761	313.9	59.2	-66.9	3.6
2026-01-19 17:53:41.512022	314.4	58.8	-66.7	3.3
2026-01-19 17:53:42.633291	314.9	58.4	-66.4	2.5
2026-01-19 17:53:43.755545	315.4	58.0	-65.8	3.4
2026-01-19 17:53:44.876342	315.9	57.6	-65.7	3.2
2026-01-19 17:53:45.998099	316.3	57.2	-66.2	2.5
2026-01-19 17:53:47.120866	316.8	56.9	-66.7	4.2
2026-01-19 17:53:48.242127	317.2	56.5	-66.1	4.1
2026-01-19 17:53:49.364381	317.6	56.1	-65.1	2.6
2026-01-19 17:53:50.485673	318.1	55.7	-66.1	4.2
2026-01-19 17:53:51.607927	318.5	55.3	-65.7	4.1
2026-01-19 17:53:52.734202	318.9	55.0	-66.0	5.2
2026-01-19 17:53:53.855992	319.2	54.6	-66.3	6.0
2026-01-19 17:53:54.978246	319.6	54.2	-66.1	5.0
2026-01-19 17:53:56.099508	320.0	53.8	-66.7	3.4
2026-01-19 17:53:57.222770	320.3	53.5	-66.5	4.2
2026-01-19 17:53:58.344038	320.7	53.1	-65.6	3.3
2026-01-19 17:53:59.465300	321.0	52.7	-65.5	5.1
2026-01-19 17:54:00.587096	321.3	52.4	-65.4	4.9
2026-01-19 17:54:01.709349	321.7	52.0	-66.1	6.2
2026-01-19 17:54:02.833612	322.0	51.6	-65.6	5.2
2026-01-19 17:54:03.955865	322.3	51.3	-66.0	5.0
2026-01-19 17:54:05.077158	322.6	50.9	-66.1	4.7
2026-01-19 17:54:06.198917	322.9	50.6	-65.4	3.6
2026-01-19 17:54:07.320187	323.2	50.2	-66.0	5.3
2026-01-19 17:54:08.441945	323.4	49.9	-65.6	4.7
2026-01-19 17:54:09.564237	323.7	49.5	-64.6	3.6
2026-01-19 17:54:10.688491	324.0	49.2	-65.1	4.0
2026-01-19 17:54:11.811744	324.2	48.8	-65.4	4.2
2026-01-19 17:54:12.934073	324.5	48.5	-65.9	4.0
2026-01-19 17:54:14.056832	324.8	48.1	-65.8	4.3
2026-01-19 17:54:15.184592	325.0	47.8	-65.8	5.3
2026-01-19 17:54:16.306359	325.2	47.4	-65.7	5.5
2026-01-19 17:54:17.427629	325.5	47.1	-65.8	7.0
2026-01-19 17:54:18.548396	325.7	46.8	-64.8	4.0
2026-01-19 17:54:19.670649	325.9	46.4	-65.8	7.0
2026-01-19 17:54:20.791944	326.1	46.1	-65.1	5.7
2026-01-19 17:54:21.914197	326.4	45.8	-65.0	6.0
2026-01-19 17:54:23.035476	326.6	45.5	-64.4	4.7
2026-01-19 17:54:24.158244	326.8	45.1	-64.9	5.8
2026-01-19 17:54:25.279530	327.0	44.8	-64.6	5.5
2026-01-19 17:54:26.401288	327.2	44.5	-64.9	5.2
2026-01-19 17:54:27.523054	327.4	44.2	-65.1	7.1
2026-01-19 17:54:28.645308	327.6	43.9	-64.7	5.5
2026-01-19 17:54:29.767066	327.8	43.6	-65.4	7.1
2026-01-19 17:54:30.888864	327.9	43.3	-65.1	5.9
2026-01-19 17:54:32.011622	328.1	43.0	-64.4	5.0
2026-01-19 17:54:33.133884	328.3	42.7	-64.8	5.8
2026-01-19 17:54:34.255650	328.5	42.3	-64.8	4.9
2026-01-19 17:54:35.377408	328.6	42.0	-64.9	5.5
2026-01-19 17:54:36.499196	328.8	41.8	-65.1	5.7
2026-01-19 17:54:37.621450	329.0	41.5	-65.1	5.1
2026-01-19 17:54:38.742732	329.1	41.2	-65.2	5.5
2026-01-19 17:54:39.863499	329.3	40.9	-65.8	5.9
2026-01-19 17:54:40.985793	329.5	40.6	-65.7	5.6
2026-01-19 17:54:42.108046	329.6	40.3	-65.5	5.7
2026-01-19 17:54:43.232300	329.8	40.0	-64.9	5.3
2026-01-19 17:54:44.354554	329.9	39.7	-64.0	3.1
2026-01-19 17:54:45.476807	330.1	39.4	-64.1	2.8
2026-01-19 17:54:46.599070	330.2	39.2	-63.5	3.2
2026-01-19 17:54:47.720828	330.3	38.9	-63.8	4.3
2026-01-19 17:54:48.842585	330.5	38.6	-64.2	4.0
2026-01-19 17:54:49.964344	330.6	38.3	-63.7	5.0
2026-01-19 17:54:51.086102	330.8	38.1	-64.6	7.7
2026-01-19 17:54:52.208356	330.9	37.8	-65.0	6.8
2026-01-19 17:54:53.330112	331.0	37.5	-64.7	7.6
2026-01-19 17:54:54.451374	331.1	37.3	-64.0	4.7
2026-01-19 17:54:55.572140	331.3	37.0	-64.8	7.1
2026-01-19 17:54:56.693899	331.4	36.7	-65.0	7.6
2026-01-19 17:54:57.816152	331.5	36.5	-65.0	7.5
2026-01-19 17:54:58.937423	331.6	36.2	-64.3	4.9
2026-01-19 17:55:00.059685	331.8	36.0	-64.7	7.8
2026-01-19 17:55:01.181444	331.9	35.7	-65.0	7.2
2026-01-19 17:55:02.303697	332.0	35.5	-63.8	5.1
2026-01-19 17:55:03.425455	332.1	35.2	-63.9	4.9
2026-01-19 17:55:04.547212	332.2	35.0	-64.3	6.2
2026-01-19 17:55:05.668970	332.3	34.7	-64.0	6.5
2026-01-19 17:55:06.791223	332.4	34.5	-65.1	7.5
2026-01-19 17:55:07.913477	332.5	34.2	-65.4	7.4
2026-01-19 17:55:09.035235	332.7	34.0	-64.0	5.1
2026-01-19 17:55:10.156992	332.8	33.8	-64.5	7.8
2026-01-19 17:55:11.277263	332.9	33.5	-65.0	7.5
2026-01-19 17:55:12.398525	333.0	33.3	-64.5	5.6
2026-01-19 17:55:13.520282	333.1	33.1	-64.9	5.2
2026-01-19 17:55:14.642041	333.2	32.8	-64.5	5.6
2026-01-19 17:55:15.764303	333.3	32.6	-64.7	6.0
2026-01-19 17:55:16.885565	333.4	32.4	-64.7	5.8
2026-01-19 17:55:18.012819	333.4	32.1	-64.8	5.8
2026-01-19 17:55:19.136073	333.5	31.9	-64.0	3.8
2026-01-19 17:55:20.258327	333.6	31.7	-64.2	5.9
2026-01-19 17:55:21.380580	333.7	31.5	-64.4	6.3
2026-01-19 17:55:22.501842	333.8	31.3	-64.0	4.4
2026-01-19 17:55:23.624095	333.9	31.0	-64.0	6.6
2026-01-19 17:55:24.747862	334.0	30.8	-64.5	6.8
2026-01-19 17:55:25.868619	334.1	30.6	-64.4	7.4
2026-01-19 17:55:26.989881	334.2	30.4	-64.6	5.3
2026-01-19 17:55:28.111638	334.2	30.2	-64.9	6.6
2026-01-19 17:55:29.232900	334.3	30.0	-64.8	6.1
2026-01-19 17:55:30.355154	334.4	29.8	-64.6	5.5
2026-01-19 17:55:31.478911	334.5	29.6	-65.2	7.3
2026-01-19 17:55:32.600669	334.6	29.3	-64.7	4.5
2026-01-19 17:55:33.721932	334.7	29.1	-64.9	7.2
2026-01-19 17:55:34.843194	334.7	28.9	-64.3	5.3
2026-01-19 17:55:35.964447	334.8	28.7	-64.8	7.4
2026-01-19 17:55:37.084719	334.9	28.5	-64.7	6.8
2026-01-19 17:55:38.204972	335.0	28.3	-64.4	7.1
2026-01-19 17:55:39.331731	335.0	28.1	-64.5	7.4
2026-01-19 17:55:40.453985	335.1	27.9	-64.7	6.6
2026-01-19 17:55:41.575246	335.2	27.7	-64.9	6.2
2026-01-19 17:55:42.696004	335.3	27.6	-65.1	6.1
2026-01-19 17:55:43.817266	335.3	27.4	-65.0	5.9
2026-01-19 17:55:44.939024	335.4	27.2	-65.4	5.9
2026-01-19 17:55:46.064783	335.5	27.0	-65.2	6.0
2026-01-19 17:55:47.187036	335.5	26.8	-65.1	5.9
2026-01-19 17:55:48.309289	335.6	26.6	-64.7	5.9
2026-01-19 17:55:49.432048	335.7	26.4	-64.8	4.8
2026-01-19 17:55:50.552805	335.7	26.2	-65.0	6.1
2026-01-19 17:55:51.674562	335.8	26.1	-64.8	6.1
2026-01-19 17:55:52.796320	335.9	25.9	-64.6	5.0
2026-01-19 17:55:53.918573	335.9	25.7	-65.5	6.8
2026-01-19 17:55:55.038835	336.0	25.5	-65.6	7.3
2026-01-19 17:55:56.161096	336.1	25.3	-65.3	7.1
2026-01-19 17:55:57.283350	336.1	25.2	-64.3	4.8
2026-01-19 17:55:58.404613	336.2	25.0	-64.8	6.6
2026-01-19 17:55:59.526866	336.3	24.8	-65.5	6.8
2026-01-19 17:56:00.646138	336.3	24.6	-64.9	4.4
2026-01-19 17:56:01.767400	336.4	24.5	-64.9	5.3
2026-01-19 17:56:02.889653	336.4	24.3	-65.1	5.7
2026-01-19 17:56:04.011906	336.5	24.1	-66.0	6.4
2026-01-19 17:56:05.134160	336.6	23.9	-66.1	6.2
2026-01-19 17:56:06.252917	336.6	23.8	-65.6	5.3
2026-01-19 17:56:07.375171	336.7	23.6	-65.5	5.9
2026-01-19 17:56:08.496441	336.7	23.4	-65.1	6.2
2026-01-19 17:56:09.617694	336.8	23.3	-64.9	3.5
2026-01-19 17:56:10.739452	336.8	23.1	-64.7	5.1
2026-01-19 17:56:11.860705	336.9	23.0	-64.7	4.1
2026-01-19 17:56:12.982959	336.9	22.8	-65.3	6.1
2026-01-19 17:56:14.105212	337.0	22.6	-65.0	5.3
2026-01-19 17:56:15.224978	337.1	22.5	-64.7	5.2
2026-01-19 17:56:16.347735	337.1	22.3	-65.0	5.8
2026-01-19 17:56:17.469493	337.2	22.1	-65.4	6.3
2026-01-19 17:56:18.591747	337.2	22.0	-65.5	5.9
2026-01-19 17:56:19.713504	337.3	21.8	-65.2	6.0
2026-01-19 17:56:20.834767	337.3	21.7	-65.2	5.1
2026-01-19 17:56:21.955524	337.4	21.5	-65.7	5.6
2026-01-19 17:56:23.078281	337.4	21.4	-65.8	5.9
2026-01-19 17:56:24.200535	337.5	21.2	-66.0	6.4
2026-01-19 17:56:25.322788	337.5	21.1	-66.1	7.0
2026-01-19 17:56:26.444049	337.6	20.9	-65.8	6.0
2026-01-19 17:56:27.566311	337.6	20.8	-65.6	6.6
2026-01-19 17:56:28.688069	337.7	20.6	-65.8	6.5
2026-01-19 17:56:29.814331	337.7	20.5	-65.5	6.0
2026-01-19 17:56:30.936097	337.8	20.3	-65.6	5.2
2026-01-19 17:56:32.056358	337.8	20.2	-65.4	6.1
2026-01-19 17:56:33.177612	337.8	20.0	-64.7	3.6
2026-01-19 17:56:34.299865	337.9	19.9	-64.8	4.2
2026-01-19 17:56:35.421622	337.9	19.7	-65.8	6.8
2026-01-19 17:56:36.542876	338.0	19.6	-65.4	6.1
2026-01-19 17:56:37.663137	338.0	19.5	-65.7	6.5
2026-01-19 17:56:38.783894	338.1	19.3	-65.1	5.2
2026-01-19 17:56:39.904652	338.1	19.2	-64.9	4.3
2026-01-19 17:56:41.024906	338.2	19.0	-65.4	5.6
2026-01-19 17:56:42.144663	338.2	18.9	-65.6	6.7
2026-01-19 17:56:43.265916	338.2	18.8	-65.5	6.5
2026-01-19 17:56:44.387674	338.3	18.6	-65.3	5.9
2026-01-19 17:56:45.507927	338.3	18.5	-65.2	5.8
2026-01-19 17:56:46.630180	338.4	18.3	-64.8	4.3
2026-01-19 17:56:47.751442	338.4	18.2	-65.0	5.5
2026-01-19 17:56:48.873696	338.5	18.1	-65.7	5.7
2026-01-19 17:56:49.994958	338.5	17.9	-65.6	6.2
2026-01-19 17:56:51.117211	338.5	17.8	-65.0	5.4
2026-01-19 17:56:52.239465	338.6	17.7	-65.4	6.2
2026-01-19 17:56:53.362726	338.6	17.5	-65.4	5.2
2026-01-19 17:56:54.484484	338.7	17.4	-65.5	5.2
2026-01-19 17:56:55.606738	338.7	17.3	-65.8	5.4
2026-01-19 17:56:56.726990	338.7	17.2	-65.3	5.1
2026-01-19 17:56:57.847748	338.8	17.0	-65.4	4.8
2026-01-19 17:56:58.969002	338.8	16.9	-65.2	2.6
2026-01-19 17:57:00.089264	338.9	16.8	-65.2	5.3
2026-01-19 17:57:01.211021	338.9	16.6	-65.3	4.3
2026-01-19 17:57:02.332779	338.9	16.5	-65.8	4.5
2026-01-19 17:57:03.456032	339.0	16.4	-64.8	2.5
2026-01-19 17:57:04.578791	339.0	16.3	-65.3	5.0
2026-01-19 17:57:05.700548	339.0	16.1	-65.4	5.2
2026-01-19 17:57:06.820818	339.1	16.0	-65.9	4.9
2026-01-19 17:57:07.942090	339.1	15.9	-64.9	3.4
2026-01-19 17:57:09.063352	339.2	15.8	-65.5	4.3
2026-01-19 17:57:10.183129	339.2	15.7	-65.4	5.0
2026-01-19 17:57:11.305383	339.2	15.5	-65.9	4.6
2026-01-19 17:57:12.427141	339.3	15.4	-65.6	3.7
2026-01-19 17:57:13.549394	339.3	15.3	-65.9	3.9
2026-01-19 17:57:14.671151	339.3	15.2	-65.3	1.5
2026-01-19 17:57:15.792413	339.4	15.1	-64.5	2.1
2026-01-19 17:57:16.914180	339.4	14.9	-65.8	4.5
2026-01-19 17:57:18.035433	339.4	14.8	-65.7	4.6
2026-01-19 17:57:19.156190	339.5	14.7	-65.8	5.6
2026-01-19 17:57:20.276443	339.5	14.6	-64.5	1.4
2026-01-19 17:57:21.398201	339.5	14.5	-64.4	2.7
2026-01-19 17:57:22.518959	339.6	14.3	-65.8	5.1
2026-01-19 17:57:23.639716	339.6	14.2	-66.0	4.7
2026-01-19 17:57:24.759473	339.6	14.1	-65.0	3.9
2026-01-19 17:57:25.878230	339.7	14.0	-65.6	4.5
2026-01-19 17:57:26.999483	339.7	13.9	-65.6	2.9
2026-01-19 17:57:28.121737	339.7	13.8	-65.3	3.0
2026-01-19 17:57:29.242990	339.8	13.7	-64.3	0.0
2026-01-19 17:57:30.362242	339.8	13.6	-65.4	2.5
2026-01-19 17:57:31.481496	339.8	13.4	-65.7	2.6
2026-01-19 17:57:32.602253	339.9	13.3	-65.2	2.0
2026-01-19 17:57:33.723019	339.9	13.2	-65.3	1.0
2026-01-19 17:57:34.843777	339.9	13.1	-65.5	4.7
2026-01-19 17:57:35.965535	339.9	13.0	-65.8	4.3
2026-01-19 17:57:37.086301	340.0	12.9	-65.7	4.4
2026-01-19 17:57:38.208554	340.0	12.8	-65.2	4.2
2026-01-19 17:57:39.331816	340.0	12.7	-64.3	2.3
2026-01-19 17:57:40.452069	340.1	12.6	-65.3	3.1
2026-01-19 17:57:41.573826	340.1	12.5	-65.6	4.0
2026-01-19 17:57:42.694584	340.1	12.4	-65.9	3.6
2026-01-19 17:57:43.816837	340.2	12.3	-65.9	3.1
2026-01-19 17:57:44.938091	340.2	12.1	-65.6	1.8
2026-01-19 17:57:46.058343	340.2	12.0	-65.2	2.2
2026-01-19 17:57:47.177596	340.2	11.9	-65.5	2.8
2026-01-19 17:57:48.298354	340.3	11.8	-65.5	3.1
2026-01-19 17:57:49.418607	340.3	11.7	-65.6	3.5
2026-01-19 17:57:50.540365	340.3	11.6	-65.3	3.4
2026-01-19 17:57:51.663619	340.4	11.5	-64.4	1.7
2026-01-19 17:57:52.784872	340.4	11.4	-65.4	3.6
2026-01-19 17:57:53.905134	340.4	11.3	-65.6	3.7
2026-01-19 17:57:55.029388	340.4	11.2	-64.9	4.6
2026-01-19 17:57:56.146640	340.5	11.1	-64.6	2.6
2026-01-19 17:57:57.267894	340.5	11.0	-64.8	3.8
2026-01-19 17:57:58.388155	340.5	10.9	-65.3	4.6
2026-01-19 17:57:59.508408	340.6	10.8	-64.3	2.6
2026-01-19 17:58:00.630166	340.6	10.7	-64.9	2.3
2026-01-19 17:58:01.751924	340.6	10.6	-65.0	3.1
2026-01-19 17:58:02.871176	340.6	10.5	-65.0	1.3
2026-01-19 17:58:03.992430	340.7	10.4	-64.2	1.2
2026-01-19 17:58:05.111691	340.7	10.3	-64.9	2.5
2026-01-19 17:58:06.228943	340.7	10.2	-64.7	2.8
2026-01-19 17:58:07.349196	340.7	10.1	-64.7	1.8
2026-01-19 17:58:08.468449	340.8	10.0	-64.7	1.7
2026-01-19 17:58:09.589206	340.8	9.9	-64.1	0.3
2026-01-19 17:58:10.709963	340.8	9.8	-64.8	0.0
2026-01-19 17:58:11.827720	340.8	9.7	-65.2	1.1
2026-01-19 17:58:12.948478	340.9	9.6	-65.2	2.2
2026-01-19 17:58:14.067234	340.9	9.6	-64.6	0.0
2026-01-19 17:58:15.186495	340.9	9.5	-64.6	0.0
2026-01-19 17:58:16.306748	340.9	9.4	-65.2	0.0
2026-01-19 17:58:17.429001	341.0	9.3	-65.8	0.0
2026-01-19 17:58:18.549759	341.0	9.2	-65.0	0.0
2026-01-19 17:58:19.668516	341.0	9.1	-64.0	0.0
2026-01-19 17:58:20.786768	341.0	9.0	-63.9	0.0
2026-01-19 17:58:21.906525	341.1	8.9	-64.5	0.0
2026-01-19 17:58:23.028283	341.1	8.8	-64.9	0.2
2026-01-19 17:58:24.149536	341.1	8.7	-64.8	0.0
2026-01-19 17:58:25.269789	341.1	8.6	-64.6	0.0
2026-01-19 17:58:26.388041	341.2	8.5	-64.8	0.0
2026-01-19 17:58:27.508808	341.2	8.4	-64.7	0.0
2026-01-19 17:58:28.629575	341.2	8.4	-64.3	0.0
2026-01-19 17:58:29.751828	341.2	8.3	-64.3	0.0
2026-01-19 17:58:30.870081	341.3	8.2	-65.2	0.0
2026-01-19 17:58:31.990343	341.3	8.1	-64.4	0.0
2026-01-19 17:58:33.111596	341.3	8.0	-64.1	0.0
2026-01-19 17:58:34.234354	341.3	7.9	-64.6	0.0
2026-01-19 17:58:35.360113	341.3	7.8	-64.4	0.0
2026-01-19 17:58:36.482366	341.4	7.7	-65.2	0.8
2026-01-19 17:58:37.603124	341.4	7.6	-64.6	0.0
2026-01-19 17:58:38.724882	341.4	7.6	-64.5	0.0
2026-01-19 17:58:39.847135	341.4	7.5	-64.9	0.0
2026-01-19 17:58:40.967893	341.5	7.4	-63.4	0.0
2026-01-19 17:58:42.089651	341.5	7.3	-63.7	0.0
2026-01-19 17:58:43.211408	341.5	7.2	-64.5	0.0
2026-01-19 17:58:44.333662	341.5	7.1	-64.4	0.0
2026-01-19 17:58:45.454923	341.6	7.0	-63.6	0.0
2026-01-19 17:58:46.575176	341.6	6.9	-64.0	0.0
2026-01-19 17:58:47.693941	341.6	6.9	-63.9	0.0
2026-01-19 17:58:48.813194	341.6	6.8	-63.9	0.0
2026-01-19 17:58:49.932951	341.6	6.7	-63.5	0.0
2026-01-19 17:58:51.055205	341.7	6.6	-64.1	0.0
2026-01-19 17:58:52.175458	341.7	6.5	-64.5	0.0
2026-01-19 17:58:53.295711	341.7	6.4	-64.2	0.0
2026-01-19 17:58:54.415468	341.7	6.4	-64.5	0.0
2026-01-19 17:58:55.532225	341.7	6.3	-63.4	0.0
2026-01-19 17:58:56.653487	341.8	6.2	-64.2	0.0
2026-01-19 17:58:57.772244	341.8	6.1	-63.6	0.0
2026-01-19 17:58:58.890001	341.8	6.0	-62.2	0.0
2026-01-19 17:59:00.010254	341.8	5.9	-64.7	0.0
2026-01-19 17:59:01.125010	341.8	5.9	-66.8	0.0
2026-01-19 17:59:02.243271	341.9	5.8	-67.3	0.0
2026-01-19 17:59:03.362524	341.9	5.7	-68.5	0.0
2026-01-19 17:59:04.483281	341.9	5.6	-67.8	0.0
2026-01-19 17:59:05.600534	341.9	5.5	-65.7	0.0
2026-01-19 17:59:06.719290	342.0	5.5	-67.6	0.0
2026-01-19 17:59:07.840554	342.0	5.4	-67.0	0.0
2026-01-19 17:59:08.957311	342.0	5.3	-67.6	0.0
2026-01-19 17:59:10.078564	342.0	5.2	-65.4	0.0
2026-01-19 17:59:11.196817	342.0	5.1	-68.3	0.0
2026-01-19 17:59:12.316070	342.1	5.1	-68.6	0.0
2026-01-19 17:59:13.432331	342.1	5.0	-68.2	0.0
#Closed at: 2026-01-19 17:46:15.914291