passes_logs/2026/01/19/PlanumMoscow/PlanumMoscow__20260119_182331_METOP-C_rec.log

#Pass ID: 20260119_182331_METOP-C
#Satellite: METOP-C
#Configuration: METOP-C
#Start time: 2026-01-19 18:23:36.744712

#LorettStation: 1.0.0 05.05.2024
#Station: PlanumMoscow
#Location: 37.6253844 lon 55.6713361 lat
#TLE: 1 43689U 18087A   25293.88981035  .00000265  00000+0  14109-3 0  9997
#TLE: 2 43689  98.7006 352.4487 0002041 122.1097 238.0279 14.21482740360838

#Time	Az	El	Level	SNR
2026-01-19 18:27:15.235936	181.9	29.0	-63.7	0.0
2026-01-19 18:27:16.355225	182.0	29.2	-64.0	0.0
2026-01-19 18:27:17.472477	182.1	29.4	-65.3	0.0
2026-01-19 18:27:18.589730	182.2	29.6	-66.0	0.0
2026-01-19 18:27:19.706982	182.3	29.8	-65.6	0.0
2026-01-19 18:27:20.822748	182.4	30.0	-67.1	0.0
2026-01-19 18:27:21.942000	182.5	30.2	-65.9	0.0
2026-01-19 18:27:23.063253	182.6	30.4	-66.4	0.0
2026-01-19 18:27:24.179009	182.8	30.6	-65.7	0.0
2026-01-19 18:27:25.298262	182.9	30.8	-63.9	0.0
2026-01-19 18:27:26.415514	183.0	31.0	-64.5	0.0
2026-01-19 18:27:27.533767	183.1	31.3	-66.3	0.0
2026-01-19 18:27:28.654020	183.2	31.5	-65.3	0.0
2026-01-19 18:27:29.776273	183.4	31.7	-63.3	0.0
2026-01-19 18:27:30.901527	183.5	31.9	-65.6	0.0
2026-01-19 18:27:32.020780	183.6	32.1	-66.5	0.0
2026-01-19 18:27:33.143033	183.8	32.4	-65.0	0.0
2026-01-19 18:27:34.265287	183.9	32.6	-66.8	0.0
2026-01-19 18:27:35.387540	184.0	32.8	-65.9	0.0
2026-01-19 18:27:36.509794	184.2	33.0	-66.7	0.0
2026-01-19 18:27:37.632047	184.3	33.3	-63.7	0.0
2026-01-19 18:27:38.755805	184.4	33.5	-65.8	0.0
2026-01-19 18:27:39.878058	184.6	33.7	-66.0	0.0
2026-01-19 18:27:40.999312	184.7	34.0	-65.1	0.0
2026-01-19 18:27:42.121069	184.9	34.2	-66.0	0.0
2026-01-19 18:27:43.241322	185.0	34.4	-66.6	0.0
2026-01-19 18:27:44.361575	185.2	34.7	-64.5	0.0
2026-01-19 18:27:45.483828	185.3	34.9	-64.1	0.0
2026-01-19 18:27:46.601585	185.5	35.1	-63.6	0.0
2026-01-19 18:27:47.723838	185.6	35.4	-64.9	0.0
2026-01-19 18:27:48.846092	185.8	35.6	-64.4	0.0
2026-01-19 18:27:49.967345	185.9	35.9	-66.6	0.0
2026-01-19 18:27:51.089598	186.1	36.1	-66.2	0.0
2026-01-19 18:27:52.211356	186.3	36.4	-65.8	0.0
2026-01-19 18:27:53.333610	186.4	36.6	-64.9	0.0
2026-01-19 18:27:54.455863	186.6	36.9	-65.6	0.0
2026-01-19 18:27:55.580126	186.8	37.1	-66.7	0.0
2026-01-19 18:27:56.698378	187.0	37.4	-66.8	0.0
2026-01-19 18:27:57.820632	187.1	37.6	-64.9	0.0
2026-01-19 18:27:58.938884	187.3	37.9	-65.8	0.0
2026-01-19 18:28:00.057137	187.5	38.2	-65.3	0.0
2026-01-19 18:28:01.179390	187.7	38.4	-67.3	0.0
2026-01-19 18:28:02.298643	187.9	38.7	-65.2	0.0
2026-01-19 18:28:03.418905	188.1	38.9	-65.1	0.0
2026-01-19 18:28:04.539158	188.3	39.2	-66.1	0.0
2026-01-19 18:28:05.659411	188.5	39.5	-65.5	0.0
2026-01-19 18:28:06.781664	188.7	39.8	-66.7	0.0
2026-01-19 18:28:07.903926	188.9	40.0	-67.3	0.0
2026-01-19 18:28:09.024179	189.1	40.3	-66.7	0.0
2026-01-19 18:28:10.141431	189.3	40.6	-66.1	0.0
2026-01-19 18:28:11.260188	189.5	40.9	-65.4	0.0
2026-01-19 18:28:12.378449	189.8	41.1	-67.4	0.0
2026-01-19 18:28:13.499205	190.0	41.4	-66.4	0.0
2026-01-19 18:28:14.617962	190.2	41.7	-66.5	0.0
2026-01-19 18:28:15.734718	190.4	42.0	-66.6	0.0
2026-01-19 18:28:16.852970	190.7	42.3	-67.3	0.0
2026-01-19 18:28:17.973236	190.9	42.5	-65.9	0.0
2026-01-19 18:28:19.090000	191.2	42.8	-66.5	0.0
2026-01-19 18:28:20.207253	191.4	43.1	-67.5	0.0
2026-01-19 18:28:21.326010	191.7	43.4	-66.8	0.0
2026-01-19 18:28:22.447767	191.9	43.7	-67.5	0.0
2026-01-19 18:28:23.565523	192.2	44.0	-67.8	0.0
2026-01-19 18:28:24.685776	192.4	44.3	-67.7	0.0
2026-01-19 18:28:25.802028	192.7	44.6	-67.0	0.0
2026-01-19 18:28:26.918281	193.0	44.9	-67.2	0.0
2026-01-19 18:28:28.036533	193.3	45.2	-66.3	0.0
2026-01-19 18:28:29.152785	193.6	45.5	-66.5	0.0
2026-01-19 18:28:30.270037	193.9	45.8	-67.3	0.0
2026-01-19 18:28:31.388290	194.2	46.1	-67.7	0.0
2026-01-19 18:28:32.504550	194.5	46.4	-66.8	0.0
2026-01-19 18:28:33.619802	194.8	46.7	-67.4	0.0
2026-01-19 18:28:34.738055	195.1	47.0	-66.1	0.0
2026-01-19 18:28:35.854315	195.4	47.4	-67.6	0.0
2026-01-19 18:28:36.971070	195.7	47.7	-66.4	0.0
2026-01-19 18:28:38.089323	196.1	48.0	-67.6	0.0
2026-01-19 18:28:39.207584	196.4	48.3	-68.4	0.0
2026-01-19 18:28:40.324845	196.8	48.6	-68.4	0.0
2026-01-19 18:28:41.442610	197.1	48.9	-66.9	0.0
2026-01-19 18:28:42.559365	197.5	49.2	-67.5	0.0
2026-01-19 18:28:43.679123	197.9	49.6	-67.7	0.0
2026-01-19 18:28:44.796879	198.2	49.9	-67.6	0.0
2026-01-19 18:28:45.917637	198.6	50.2	-67.5	0.0
2026-01-19 18:28:47.036393	199.0	50.5	-67.9	0.0
2026-01-19 18:28:48.155149	199.4	50.9	-67.9	0.0
2026-01-19 18:28:49.272402	199.8	51.2	-66.7	0.0
2026-01-19 18:28:50.391654	200.3	51.5	-68.0	0.0
2026-01-19 18:28:51.511412	200.7	51.8	-67.8	0.0
2026-01-19 18:28:52.632665	201.1	52.2	-67.9	0.0
2026-01-19 18:28:53.751421	201.6	52.5	-68.2	0.0
2026-01-19 18:28:54.869682	202.1	52.8	-68.0	0.0
2026-01-19 18:28:55.989439	202.5	53.1	-66.5	0.0
2026-01-19 18:28:57.108692	203.0	53.5	-67.9	0.0
2026-01-19 18:28:58.230450	203.5	53.8	-67.0	0.0
2026-01-19 18:28:59.351703	204.0	54.1	-66.7	0.0
2026-01-19 18:29:00.471469	204.5	54.5	-67.9	0.0
2026-01-19 18:29:01.592731	205.0	54.8	-67.6	0.0
2026-01-19 18:29:02.713489	205.6	55.1	-68.0	0.0
2026-01-19 18:29:03.835247	206.1	55.4	-68.2	0.0
2026-01-19 18:29:04.957500	206.7	55.8	-68.2	0.0
2026-01-19 18:29:06.079763	207.3	56.1	-68.3	0.0
2026-01-19 18:29:07.202016	207.9	56.4	-68.1	0.0
2026-01-19 18:29:08.322782	208.5	56.7	-68.1	0.0
2026-01-19 18:29:09.444539	209.1	57.1	-68.3	0.0
2026-01-19 18:29:10.566793	209.7	57.4	-68.0	0.0
2026-01-19 18:29:11.688551	210.4	57.7	-67.5	0.0
2026-01-19 18:29:12.810322	211.1	58.0	-67.6	0.0
2026-01-19 18:29:13.933080	211.7	58.3	-67.4	0.0
2026-01-19 18:29:15.052333	212.4	58.6	-68.5	0.0
2026-01-19 18:29:16.171594	213.2	59.0	-68.4	0.0
2026-01-19 18:29:17.291352	213.9	59.3	-68.1	0.0
2026-01-19 18:29:18.410604	214.6	59.6	-68.3	0.0
2026-01-19 18:29:19.529370	215.4	59.9	-68.1	0.0
2026-01-19 18:29:20.646126	216.2	60.2	-68.2	0.0
2026-01-19 18:29:21.764883	217.0	60.5	-67.2	0.0
2026-01-19 18:29:22.882135	217.8	60.8	-68.3	0.0
2026-01-19 18:29:23.998891	218.6	61.0	-68.2	0.0
2026-01-19 18:29:25.116648	219.5	61.3	-67.7	0.0
2026-01-19 18:29:26.233404	220.4	61.6	-67.8	0.0
2026-01-19 18:29:27.351169	221.3	61.9	-67.8	0.0
2026-01-19 18:29:28.468421	222.2	62.1	-68.9	0.0
2026-01-19 18:29:29.585673	223.1	62.4	-68.5	0.0
2026-01-19 18:29:30.704430	224.1	62.7	-68.7	0.0
2026-01-19 18:29:31.824683	225.0	62.9	-68.0	0.0
2026-01-19 18:29:32.943439	226.0	63.2	-67.9	0.0
2026-01-19 18:29:34.062692	227.0	63.4	-68.9	0.0
2026-01-19 18:29:35.181455	228.1	63.6	-68.6	0.0
2026-01-19 18:29:36.301212	229.1	63.9	-68.2	0.0
2026-01-19 18:29:37.418969	230.2	64.1	-68.6	0.0
2026-01-19 18:29:38.538231	231.3	64.3	-68.5	0.0
2026-01-19 18:29:39.657987	232.4	64.5	-68.4	0.0
2026-01-19 18:29:40.778248	233.6	64.7	-68.7	0.0
2026-01-19 18:29:41.896509	234.7	64.9	-67.6	0.0
2026-01-19 18:29:43.015769	235.9	65.1	-68.0	0.0
2026-01-19 18:29:44.137023	237.1	65.2	-69.0	0.0
2026-01-19 18:29:45.258788	238.3	65.4	-68.9	0.0
2026-01-19 18:29:46.377546	239.6	65.5	-69.2	0.0
2026-01-19 18:29:47.494798	240.8	65.7	-68.5	0.0
2026-01-19 18:29:48.614051	242.1	65.8	-67.8	0.0
2026-01-19 18:29:49.731303	243.3	65.9	-69.1	0.0
2026-01-19 18:29:50.849556	244.6	66.0	-68.4	0.0
2026-01-19 18:29:51.967320	245.9	66.1	-68.6	0.0
2026-01-19 18:29:53.085573	247.2	66.2	-68.7	0.0
2026-01-19 18:29:54.209836	248.6	66.3	-69.1	0.0
2026-01-19 18:29:55.328089	249.9	66.4	-67.8	0.0
2026-01-19 18:29:56.445341	251.2	66.4	-69.1	0.0
2026-01-19 18:29:57.563593	252.6	66.5	-69.2	0.0
2026-01-19 18:29:58.681846	253.9	66.5	-68.5	0.0
2026-01-19 18:29:59.800602	255.3	66.5	-68.5	0.0
2026-01-19 18:30:00.917854	256.6	66.5	-68.3	0.0
2026-01-19 18:30:02.039108	258.0	66.5	-68.7	0.0
2026-01-19 18:30:03.161864	259.3	66.5	-68.5	0.0
2026-01-19 18:30:04.283622	260.7	66.4	-69.6	0.0
2026-01-19 18:30:05.405876	262.0	66.4	-69.2	0.0
2026-01-19 18:30:06.527670	263.3	66.4	-69.6	0.0
2026-01-19 18:30:07.648932	264.7	66.3	-68.7	0.0
2026-01-19 18:30:08.770239	266.0	66.2	-69.2	0.0
2026-01-19 18:30:09.891005	267.3	66.1	-68.7	0.0
2026-01-19 18:30:11.014310	268.6	66.0	-69.1	0.0
2026-01-19 18:30:12.135076	269.9	65.9	-68.7	0.0
2026-01-19 18:30:13.256344	271.2	65.8	-69.4	0.0
2026-01-19 18:30:14.377634	272.4	65.7	-69.0	0.0
2026-01-19 18:30:15.498897	273.7	65.5	-69.4	0.0
2026-01-19 18:30:16.620663	274.9	65.4	-69.7	0.0
2026-01-19 18:30:17.741460	276.1	65.2	-69.0	0.0
2026-01-19 18:30:18.862730	277.3	65.0	-68.8	0.0
2026-01-19 18:30:19.983991	278.5	64.9	-69.7	0.0
2026-01-19 18:30:21.104763	279.7	64.7	-69.6	0.0
2026-01-19 18:30:22.226521	280.8	64.5	-69.0	0.0
2026-01-19 18:30:23.348775	281.9	64.3	-68.5	0.0
2026-01-19 18:30:24.470066	283.0	64.1	-69.5	0.0
2026-01-19 18:30:25.592319	284.1	63.8	-69.5	0.0
2026-01-19 18:30:26.713581	285.1	63.6	-68.4	0.0
2026-01-19 18:30:27.834859	286.2	63.4	-68.9	0.0
2026-01-19 18:30:28.956121	287.2	63.1	-69.0	0.0
2026-01-19 18:30:30.076429	288.2	62.9	-69.4	0.0
2026-01-19 18:30:31.197690	289.2	62.6	-69.4	0.0
2026-01-19 18:30:32.319454	290.1	62.4	-68.8	0.0
2026-01-19 18:30:33.443212	291.1	62.1	-69.1	0.0
2026-01-19 18:30:34.564503	292.0	61.8	-69.2	0.0
2026-01-19 18:30:35.686756	292.9	61.6	-69.0	0.0
2026-01-19 18:30:36.811027	293.7	61.3	-69.3	0.0
2026-01-19 18:30:37.932297	294.6	61.0	-69.3	0.0
2026-01-19 18:30:39.053587	295.4	60.7	-69.1	0.0
2026-01-19 18:30:40.175345	296.2	60.4	-69.5	0.0
2026-01-19 18:30:41.296114	297.0	60.1	-68.8	0.0
2026-01-19 18:30:42.418374	297.8	59.8	-68.8	0.0
2026-01-19 18:30:43.539636	298.6	59.5	-68.5	0.0
2026-01-19 18:30:44.661431	299.3	59.2	-69.7	0.0
2026-01-19 18:30:45.783198	300.1	58.9	-69.3	0.0
2026-01-19 18:30:46.903963	300.8	58.6	-67.6	0.0
2026-01-19 18:30:48.025721	301.5	58.3	-68.7	0.0
2026-01-19 18:30:49.147479	302.1	58.0	-68.7	0.0
2026-01-19 18:30:50.268740	302.8	57.7	-68.9	0.0
2026-01-19 18:30:51.390498	303.4	57.3	-68.4	0.0
2026-01-19 18:30:52.510776	304.1	57.0	-67.6	0.0
2026-01-19 18:30:53.631541	304.7	56.7	-68.7	0.0
2026-01-19 18:30:54.752848	305.3	56.4	-68.2	0.0
2026-01-19 18:30:55.874605	305.9	56.1	-68.9	0.0
2026-01-19 18:30:56.996866	306.5	55.7	-69.3	0.0
2026-01-19 18:30:58.118624	307.0	55.4	-69.3	0.0
2026-01-19 18:30:59.240877	307.6	55.1	-69.2	0.0
2026-01-19 18:31:00.363168	308.1	54.8	-69.4	0.0
2026-01-19 18:31:01.485926	308.6	54.4	-69.2	0.0
2026-01-19 18:31:02.607691	309.2	54.1	-68.5	0.0
2026-01-19 18:31:03.729448	309.7	53.8	-68.9	0.0
2026-01-19 18:31:04.851242	310.1	53.4	-69.2	0.0
2026-01-19 18:31:05.972503	310.6	53.1	-69.4	0.0
2026-01-19 18:31:07.094269	311.1	52.8	-68.7	0.0
2026-01-19 18:31:08.215034	311.6	52.5	-69.0	0.0
2026-01-19 18:31:09.336362	312.0	52.1	-68.9	0.0
2026-01-19 18:31:10.458615	312.4	51.8	-69.5	0.0
2026-01-19 18:31:11.580868	312.9	51.5	-69.9	0.0
2026-01-19 18:31:12.701146	313.3	51.2	-68.2	0.0
2026-01-19 18:31:13.822904	313.7	50.8	-68.8	0.0
2026-01-19 18:31:14.944697	314.1	50.5	-69.1	0.0
2026-01-19 18:31:16.066455	314.5	50.2	-69.3	0.0
2026-01-19 18:31:17.191725	314.9	49.9	-69.9	0.0
2026-01-19 18:31:18.312985	315.3	49.6	-69.6	0.0
2026-01-19 18:31:19.434742	315.6	49.2	-69.5	0.0
2026-01-19 18:31:20.556536	316.0	48.9	-69.1	0.0
2026-01-19 18:31:21.678789	316.4	48.6	-69.1	0.0
2026-01-19 18:31:22.801049	316.7	48.3	-68.0	0.0
2026-01-19 18:31:23.921318	317.1	48.0	-68.9	0.0
2026-01-19 18:31:25.043105	317.4	47.7	-69.2	0.0
2026-01-19 18:31:26.165368	317.7	47.3	-68.6	0.0
2026-01-19 18:31:27.287628	318.0	47.0	-69.2	0.0
2026-01-19 18:31:28.408891	318.4	46.7	-69.6	0.0
2026-01-19 18:31:29.529657	318.7	46.4	-68.4	0.0
2026-01-19 18:31:30.651451	319.0	46.1	-68.5	0.0
2026-01-19 18:31:31.773705	319.3	45.8	-68.1	0.0
2026-01-19 18:31:32.894973	319.6	45.5	-67.1	0.0
2026-01-19 18:31:34.016234	319.9	45.2	-68.0	0.0
2026-01-19 18:31:35.137541	320.1	44.9	-69.1	0.0
2026-01-19 18:31:36.258803	320.4	44.6	-68.4	0.0
2026-01-19 18:31:37.381063	320.7	44.3	-68.4	0.0
2026-01-19 18:31:38.503316	321.0	44.0	-68.2	0.0
2026-01-19 18:31:39.624578	321.2	43.7	-67.6	0.0
2026-01-19 18:31:40.746869	321.5	43.4	-67.9	0.0
2026-01-19 18:31:41.868626	321.7	43.1	-67.6	0.0
2026-01-19 18:31:42.990391	322.0	42.8	-67.5	0.0
2026-01-19 18:31:44.111652	322.2	42.5	-68.1	0.0
2026-01-19 18:31:45.231960	322.5	42.3	-67.6	0.0
2026-01-19 18:31:46.352725	322.7	42.0	-68.4	0.0
2026-01-19 18:31:47.474986	322.9	41.7	-68.7	0.0
2026-01-19 18:31:48.597744	323.2	41.4	-68.9	0.0
2026-01-19 18:31:49.719006	323.4	41.1	-68.9	0.0
2026-01-19 18:31:50.843297	323.6	40.9	-67.7	0.0
2026-01-19 18:31:51.965055	323.8	40.6	-68.2	0.0
2026-01-19 18:31:53.085332	324.0	40.3	-69.5	0.0
2026-01-19 18:31:54.206594	324.2	40.0	-68.9	0.0
2026-01-19 18:31:55.327359	324.4	39.8	-68.7	0.0
2026-01-19 18:31:56.449620	324.6	39.5	-68.8	0.0
2026-01-19 18:31:57.570888	324.8	39.2	-67.9	0.0
2026-01-19 18:31:58.695646	325.0	39.0	-67.1	0.0
2026-01-19 18:31:59.817900	325.2	38.7	-67.6	0.0
2026-01-19 18:32:00.939697	325.4	38.4	-67.2	0.0
2026-01-19 18:32:02.061950	325.6	38.2	-68.1	0.0
2026-01-19 18:32:03.184203	325.8	37.9	-68.0	0.0
2026-01-19 18:32:04.305502	326.0	37.7	-68.2	0.0
2026-01-19 18:32:05.427755	326.2	37.4	-68.4	0.0
2026-01-19 18:32:06.549513	326.3	37.2	-68.0	0.0
2026-01-19 18:32:07.671774	326.5	36.9	-67.4	0.0
2026-01-19 18:32:08.794027	326.7	36.6	-67.1	0.0
2026-01-19 18:32:09.914791	326.8	36.4	-66.3	0.0
2026-01-19 18:32:11.036093	327.0	36.2	-67.1	0.0
2026-01-19 18:32:12.157851	327.2	35.9	-66.8	0.0
2026-01-19 18:32:13.279616	327.3	35.7	-68.2	0.0
2026-01-19 18:32:14.401405	327.5	35.4	-68.2	0.0
2026-01-19 18:32:15.523162	327.6	35.2	-68.2	0.0
2026-01-19 18:32:16.645415	327.8	34.9	-67.7	0.0
2026-01-19 18:32:17.767182	328.0	34.7	-68.5	0.0
2026-01-19 18:32:18.889435	328.1	34.5	-68.5	0.0
2026-01-19 18:32:20.012193	328.3	34.2	-68.6	0.0
2026-01-19 18:32:21.133985	328.4	34.0	-67.7	0.0
2026-01-19 18:32:22.255742	328.5	33.8	-67.0	0.0
2026-01-19 18:32:23.376506	328.7	33.5	-67.5	0.0
2026-01-19 18:32:24.498264	328.8	33.3	-68.6	0.0
2026-01-19 18:32:25.620067	329.0	33.1	-67.9	0.0
2026-01-19 18:32:26.742320	329.1	32.9	-67.0	0.0
2026-01-19 18:32:27.864581	329.2	32.6	-67.6	0.0
2026-01-19 18:32:28.986339	329.4	32.4	-67.8	0.0
2026-01-19 18:32:30.108593	329.5	32.2	-66.8	0.0
2026-01-19 18:32:31.230385	329.6	32.0	-68.1	0.0
2026-01-19 18:32:32.352639	329.7	31.8	-67.8	0.0
2026-01-19 18:32:33.474899	329.9	31.5	-65.6	0.0
2026-01-19 18:32:34.595666	330.0	31.3	-68.3	0.0
2026-01-19 18:32:35.717431	330.1	31.1	-67.3	0.0
2026-01-19 18:32:36.837226	330.2	30.9	-67.2	0.0
2026-01-19 18:32:37.959480	330.4	30.7	-67.6	0.0
2026-01-19 18:32:39.080749	330.5	30.5	-68.0	0.0
2026-01-19 18:32:40.206012	330.6	30.3	-67.9	0.0
2026-01-19 18:32:41.327300	330.7	30.1	-67.6	0.0
2026-01-19 18:32:42.449554	330.8	29.9	-68.1	0.0
2026-01-19 18:32:43.571311	330.9	29.7	-68.0	0.0
2026-01-19 18:32:44.693572	331.0	29.5	-68.0	0.0
2026-01-19 18:32:45.814833	331.2	29.3	-67.4	0.0
2026-01-19 18:32:46.936618	331.3	29.1	-67.7	0.0
2026-01-19 18:32:48.060881	331.4	28.9	-67.5	0.0
2026-01-19 18:32:49.182150	331.5	28.7	-68.4	0.0
2026-01-19 18:32:50.303908	331.6	28.5	-66.8	0.0
2026-01-19 18:32:51.425701	331.7	28.3	-68.5	0.0
2026-01-19 18:32:52.547459	331.8	28.1	-68.4	0.0
2026-01-19 18:32:53.669719	331.9	27.9	-68.1	0.0
2026-01-19 18:32:54.791477	332.0	27.7	-67.3	0.0
2026-01-19 18:32:55.913740	332.1	27.5	-68.6	0.0
2026-01-19 18:32:57.035533	332.2	27.3	-67.0	0.0
2026-01-19 18:32:58.157787	332.3	27.1	-66.7	0.0
2026-01-19 18:32:59.280040	332.4	26.9	-66.5	0.0
2026-01-19 18:33:00.402302	332.5	26.8	-66.8	0.0
2026-01-19 18:33:01.524066	332.6	26.6	-66.9	0.0
2026-01-19 18:33:02.646348	332.7	26.4	-66.2	0.0
2026-01-19 18:33:03.768105	332.8	26.2	-67.6	0.0
2026-01-19 18:33:04.889913	332.8	26.0	-68.5	0.0
2026-01-19 18:33:06.010679	332.9	25.9	-68.7	0.0
2026-01-19 18:33:07.132978	333.0	25.7	-67.8	0.0
2026-01-19 18:33:08.254736	333.1	25.5	-67.8	0.0
2026-01-19 18:33:09.376989	333.2	25.3	-68.0	0.0
2026-01-19 18:33:10.498747	333.3	25.2	-68.3	0.0
2026-01-19 18:33:11.620512	333.4	25.0	-67.5	0.0
2026-01-19 18:33:12.742306	333.4	24.8	-67.0	0.0
2026-01-19 18:33:13.865064	333.5	24.6	-67.9	0.0
2026-01-19 18:33:14.986333	333.6	24.5	-68.9	0.0
2026-01-19 18:33:16.108090	333.7	24.3	-68.6	0.0
2026-01-19 18:33:17.229372	333.8	24.1	-68.1	0.0
2026-01-19 18:33:18.351129	333.9	24.0	-67.0	0.0
2026-01-19 18:33:19.473390	333.9	23.8	-67.4	0.0
2026-01-19 18:33:20.595194	334.0	23.6	-68.4	0.0
2026-01-19 18:33:21.716959	334.1	23.5	-67.9	0.0
2026-01-19 18:33:22.837229	334.2	23.3	-66.9	0.0
2026-01-19 18:33:23.958985	334.2	23.1	-68.3	0.0
2026-01-19 18:33:25.080255	334.3	23.0	-67.9	0.0
2026-01-19 18:33:26.201517	334.4	22.8	-68.5	0.0
2026-01-19 18:33:27.322778	334.5	22.7	-68.6	0.0
2026-01-19 18:33:28.443581	334.5	22.5	-67.1	0.0
2026-01-19 18:33:29.565834	334.6	22.4	-68.3	0.0
2026-01-19 18:33:30.686114	334.7	22.2	-67.7	0.0
2026-01-19 18:33:31.808872	334.8	22.0	-66.3	0.0
2026-01-19 18:33:32.928683	334.8	21.9	-66.7	0.0
2026-01-19 18:33:34.050441	334.9	21.7	-68.2	0.0
2026-01-19 18:33:35.172214	335.0	21.6	-68.2	0.0
2026-01-19 18:33:36.294467	335.0	21.4	-68.2	0.0
2026-01-19 18:33:37.419233	335.1	21.3	-68.1	0.0
2026-01-19 18:33:38.540531	335.2	21.1	-67.0	0.0
2026-01-19 18:33:39.662792	335.2	21.0	-68.7	0.0
2026-01-19 18:33:40.784557	335.3	20.8	-66.5	0.0
2026-01-19 18:33:41.905843	335.4	20.7	-67.9	0.0
2026-01-19 18:33:43.027600	335.4	20.5	-66.9	0.0
2026-01-19 18:33:44.149357	335.5	20.4	-67.4	0.0
2026-01-19 18:33:45.271122	335.6	20.2	-66.7	0.0
2026-01-19 18:33:46.392383	335.6	20.1	-67.1	0.0
2026-01-19 18:33:47.513150	335.7	20.0	-67.0	0.0
2026-01-19 18:33:48.634945	335.7	19.8	-68.3	0.0
2026-01-19 18:33:49.756703	335.8	19.7	-67.2	0.0
2026-01-19 18:33:50.877971	335.9	19.5	-67.4	0.0
2026-01-19 18:33:51.999729	335.9	19.4	-67.8	0.0
2026-01-19 18:33:53.121539	336.0	19.3	-68.2	0.0
2026-01-19 18:33:54.242800	336.1	19.1	-68.2	0.0
2026-01-19 18:33:55.363572	336.1	19.0	-67.3	0.0
2026-01-19 18:33:56.484835	336.2	18.8	-67.7	0.0
2026-01-19 18:33:57.606096	336.2	18.7	-67.9	0.0
2026-01-19 18:33:58.727898	336.3	18.6	-68.2	0.0
2026-01-19 18:33:59.849655	336.3	18.4	-68.6	0.0
2026-01-19 18:34:00.970464	336.4	18.3	-67.1	0.0
2026-01-19 18:34:02.092221	336.5	18.2	-67.4	0.0
2026-01-19 18:34:03.216483	336.5	18.0	-67.9	0.0
2026-01-19 18:34:04.337248	336.6	17.9	-68.4	0.0
2026-01-19 18:34:05.457525	336.6	17.8	-67.4	0.0
2026-01-19 18:34:06.579778	336.7	17.6	-66.8	0.0
2026-01-19 18:34:07.702031	336.7	17.5	-67.7	0.0
2026-01-19 18:34:08.823833	336.8	17.4	-68.3	0.0
2026-01-19 18:34:09.946095	336.8	17.3	-68.2	0.0
2026-01-19 18:34:11.071377	336.9	17.1	-68.0	0.0
2026-01-19 18:34:12.193134	336.9	17.0	-67.1	0.0
2026-01-19 18:34:13.315424	337.0	16.9	-67.2	0.0
2026-01-19 18:34:14.438183	337.0	16.7	-67.5	0.0
2026-01-19 18:34:15.559948	337.1	16.6	-67.3	0.0
2026-01-19 18:34:16.682201	337.1	16.5	-66.8	0.0
2026-01-19 18:34:17.803959	337.2	16.4	-67.5	0.0
2026-01-19 18:34:18.926260	337.2	16.2	-67.3	0.0
2026-01-19 18:34:20.048017	337.3	16.1	-68.1	0.0
2026-01-19 18:34:21.170278	337.3	16.0	-67.1	0.0
2026-01-19 18:34:22.292532	337.4	15.9	-66.2	0.0
2026-01-19 18:34:23.412847	337.4	15.8	-67.0	0.0
2026-01-19 18:34:24.535100	337.5	15.6	-67.7	0.0
2026-01-19 18:34:25.656866	337.5	15.5	-67.8	0.0
2026-01-19 18:34:26.779120	337.6	15.4	-67.2	0.0
2026-01-19 18:34:27.900877	337.6	15.3	-67.5	0.0
2026-01-19 18:34:29.021672	337.7	15.2	-67.2	0.0
2026-01-19 18:34:30.143925	337.7	15.0	-66.5	0.0
2026-01-19 18:34:31.265691	337.8	14.9	-66.0	0.0
2026-01-19 18:34:32.387450	337.8	14.8	-66.5	0.0
2026-01-19 18:34:33.509243	337.9	14.7	-66.6	0.0
2026-01-19 18:34:34.636001	337.9	14.6	-66.6	0.0
2026-01-19 18:34:35.759263	338.0	14.5	-65.9	0.0
2026-01-19 18:34:36.881516	338.0	14.3	-66.7	0.0
2026-01-19 18:34:38.002282	338.0	14.2	-66.3	0.0
2026-01-19 18:34:39.124572	338.1	14.1	-66.4	0.0
2026-01-19 18:34:40.246826	338.1	14.0	-66.8	0.0
2026-01-19 18:34:41.369088	338.2	13.9	-66.4	0.0
2026-01-19 18:34:42.490845	338.2	13.8	-66.7	0.0
2026-01-19 18:34:43.613639	338.3	13.7	-66.1	0.0
2026-01-19 18:34:44.734900	338.3	13.6	-65.7	0.0
2026-01-19 18:34:45.856658	338.3	13.4	-64.9	0.0
2026-01-19 18:34:46.978440	338.4	13.3	-67.2	0.0
2026-01-19 18:34:48.101702	338.4	13.2	-67.1	0.0
2026-01-19 18:34:49.223955	338.5	13.1	-65.8	0.0
2026-01-19 18:34:50.344720	338.5	13.0	-65.4	0.0
2026-01-19 18:34:51.466478	338.6	12.9	-65.8	0.0
2026-01-19 18:34:52.588731	338.6	12.8	-65.7	0.0
2026-01-19 18:34:53.710510	338.6	12.7	-65.9	0.0
2026-01-19 18:34:54.832267	338.7	12.6	-65.0	0.0
2026-01-19 18:34:55.953529	338.7	12.5	-66.8	0.0
2026-01-19 18:34:57.075791	338.8	12.4	-66.6	0.0
2026-01-19 18:34:58.197549	338.8	12.3	-66.4	0.0
2026-01-19 18:34:59.319839	338.8	12.2	-66.3	0.0
2026-01-19 18:35:00.441596	338.9	12.1	-66.0	0.0
2026-01-19 18:35:01.563856	338.9	12.0	-66.5	0.0
2026-01-19 18:35:02.685649	339.0	11.8	-66.6	0.0
2026-01-19 18:35:03.806910	339.0	11.7	-66.1	0.0
2026-01-19 18:35:04.927675	339.0	11.6	-66.1	0.0
2026-01-19 18:35:06.048441	339.1	11.5	-67.0	0.0
2026-01-19 18:35:07.170208	339.1	11.4	-66.6	0.0
2026-01-19 18:35:08.291965	339.1	11.3	-66.6	0.0
2026-01-19 18:35:09.413249	339.2	11.2	-66.2	0.0
2026-01-19 18:35:10.535502	339.2	11.1	-66.8	0.0
2026-01-19 18:35:11.656772	339.2	11.0	-65.5	0.0
2026-01-19 18:35:12.779025	339.3	10.9	-65.6	0.0
2026-01-19 18:35:13.900783	339.3	10.8	-65.3	0.0
2026-01-19 18:35:15.022085	339.4	10.7	-66.2	0.0
2026-01-19 18:35:16.143348	339.4	10.6	-66.4	0.0
2026-01-19 18:35:17.265113	339.4	10.5	-66.4	0.0
2026-01-19 18:35:18.387367	339.5	10.4	-66.5	0.0
2026-01-19 18:35:19.507681	339.5	10.3	-65.8	0.0
2026-01-19 18:35:20.629437	339.5	10.3	-65.5	0.0
2026-01-19 18:35:21.753195	339.6	10.2	-65.6	0.0
2026-01-19 18:35:22.875448	339.6	10.1	-65.1	0.0
2026-01-19 18:35:23.995720	339.6	10.0	-66.0	0.0
2026-01-19 18:35:25.115538	339.7	9.9	-65.7	0.0
2026-01-19 18:35:26.237791	339.7	9.8	-64.5	0.0
2026-01-19 18:35:27.359053	339.7	9.7	-66.0	0.0
2026-01-19 18:35:28.480315	339.8	9.6	-64.4	0.0
2026-01-19 18:35:29.602108	339.8	9.5	-65.2	0.0
2026-01-19 18:35:30.722379	339.8	9.4	-66.3	0.0
2026-01-19 18:35:31.843641	339.9	9.3	-64.8	0.0
2026-01-19 18:35:32.966903	339.9	9.2	-64.6	0.0
2026-01-19 18:35:34.088661	339.9	9.1	-63.2	0.0
2026-01-19 18:35:35.209455	340.0	9.0	-65.1	0.0
2026-01-19 18:35:36.331212	340.0	8.9	-64.5	0.0
2026-01-19 18:35:37.452978	340.0	8.8	-63.2	0.0
2026-01-19 18:35:38.574240	340.1	8.7	-64.6	0.0
2026-01-19 18:35:39.695523	340.1	8.7	-64.8	0.0
2026-01-19 18:35:40.817784	340.1	8.6	-64.9	0.0
2026-01-19 18:35:41.938557	340.2	8.5	-66.0	0.0
2026-01-19 18:35:43.060811	340.2	8.4	-65.1	0.0
2026-01-19 18:35:44.183065	340.2	8.3	-65.3	0.0
2026-01-19 18:35:45.304860	340.3	8.2	-63.0	0.0
2026-01-19 18:35:46.428122	340.3	8.1	-65.7	0.0
2026-01-19 18:35:47.549887	340.3	8.0	-64.3	0.0
2026-01-19 18:35:48.672141	340.3	7.9	-65.2	0.0
2026-01-19 18:35:49.793936	340.4	7.9	-64.6	0.0
2026-01-19 18:35:50.915693	340.4	7.8	-65.0	0.0
2026-01-19 18:35:52.037953	340.4	7.7	-65.1	0.0
2026-01-19 18:35:53.159258	340.5	7.6	-63.5	0.0
2026-01-19 18:35:54.281512	340.5	7.5	-64.7	0.0
2026-01-19 18:35:55.403827	340.5	7.4	-65.6	0.0
2026-01-19 18:35:56.524606	340.6	7.3	-65.2	0.0
2026-01-19 18:35:57.646372	340.6	7.2	-65.3	0.0
2026-01-19 18:35:58.768626	340.6	7.2	-64.8	0.0
2026-01-19 18:35:59.890416	340.6	7.1	-65.6	0.0
2026-01-19 18:36:01.012692	340.7	7.0	-64.6	0.0
2026-01-19 18:36:02.134945	340.7	6.9	-64.4	0.0
2026-01-19 18:36:03.256710	340.7	6.8	-65.3	0.0
2026-01-19 18:36:04.380468	340.8	6.7	-65.2	0.0
2026-01-19 18:36:05.500765	340.8	6.6	-65.3	0.0
2026-01-19 18:36:06.622025	340.8	6.6	-64.6	0.0
2026-01-19 18:36:07.744791	340.8	6.5	-65.4	0.0
2026-01-19 18:36:08.866053	340.9	6.4	-65.4	0.0
2026-01-19 18:36:09.988307	340.9	6.3	-65.1	0.0
2026-01-19 18:36:11.111093	340.9	6.2	-66.0	0.0
2026-01-19 18:36:12.231363	341.0	6.1	-65.1	0.0
2026-01-19 18:36:13.353624	341.0	6.1	-65.2	0.0
2026-01-19 18:36:14.474906	341.0	6.0	-65.8	0.0
2026-01-19 18:36:15.596664	341.0	5.9	-67.2	0.4
2026-01-19 18:36:16.718918	341.1	5.8	-67.0	0.0
2026-01-19 18:36:17.840683	341.1	5.7	-68.4	0.0
2026-01-19 18:36:18.961944	341.1	5.7	-67.7	0.0
2026-01-19 18:36:20.083702	341.1	5.6	-67.7	0.0
2026-01-19 18:36:21.205992	341.2	5.5	-68.8	0.0
2026-01-19 18:36:22.328246	341.2	5.4	-67.2	0.0
2026-01-19 18:36:23.450010	341.2	5.3	-68.2	0.0
2026-01-19 18:36:24.572263	341.2	5.3	-67.5	0.0
2026-01-19 18:36:25.693554	341.3	5.2	-66.1	0.0
2026-01-19 18:36:26.815312	341.3	5.1	-67.2	0.0
2026-01-19 18:36:27.937077	341.3	5.0	-66.5	0.0
#Closed at: 2026-01-19 18:23:31.746539