passes_logs/2026/01/03/R3.0SM8_Murmansk_STILSPACE/R3.0SM8_Murmansk_STILSPACE__20260103_074429_NOAA_21_JPSS-2_rec.log

#Pass ID: 20260103_074429_NOAA 21 (JPSS-2)
#Satellite: NOAA 21 (JPSS-2)
#Configuration: NOAA-21
#almurnet v.1.7.20240730
#Start time: 2026-01-03 07:51:57

#Version: 2.2.20231116
#Station: R3.0SM8_Murmansk_STILSPACE
#Location: 33.092731 lon 68.902999 lat
#TLE: 1 54234U 22150A   26002.25486487  .00000200  00000+0  11573-3 0  9993
#TLE: 2 54234  98.7485 303.3096 0001220 350.9074   9.2080 14.19531212163006

#Time	Az	El	Level	Level2	SNR	BER	BlckErr	Temp	State	Recorded	gain1	gain2
2026-01-03 07:51:57.37	16.36	36.24	-54.9	-74.8	3.8	7.43e-01	0	57	0	0	72	36946
2026-01-03 07:51:58.37	15.98	36.15	-53.2	-64.8	3.8	1.49e+00	0	57	104	0	69	13554
2026-01-03 07:51:59.36	15.60	36.06	-53.3	-64.9	3.8	1.49e+00	0	57	104	0	69	13584
2026-01-03 07:52:00.36	15.23	35.97	-53.4	-64.9	3.8	1.49e+00	0	57	104	0	69	13575
2026-01-03 07:52:01.34	14.86	35.88	-53.2	-64.8	3.8	1.49e+00	0	57	104	0	69	13536
2026-01-03 07:52:02.33	14.49	35.79	-53.3	-64.9	3.8	1.49e+00	0	57	104	0	69	13588
2026-01-03 07:52:03.32	14.12	35.70	-53.2	-64.9	3.8	1.49e+00	0	57	104	0	69	13616
2026-01-03 07:52:04.30	13.76	35.60	-53.2	-64.8	3.8	1.49e+00	0	57	104	0	69	13553
2026-01-03 07:52:05.29	13.40	35.51	-53.2	-64.8	3.8	1.49e+00	0	57	104	0	69	13544
2026-01-03 07:52:06.29	13.04	35.41	-53.4	-64.8	3.8	1.49e+00	0	57	104	0	69	13518
2026-01-03 07:52:07.28	12.68	35.31	-53.2	-64.8	3.8	1.49e+00	0	57	104	0	69	13542
2026-01-03 07:52:08.27	12.32	35.21	-53.2	-64.8	3.8	1.49e+00	0	57	104	0	69	13494
2026-01-03 07:52:09.26	11.97	35.11	-53.3	-64.8	3.8	1.49e+00	0	57	104	0	69	13513
2026-01-03 07:52:10.24	11.62	35.01	-53.3	-64.8	3.8	1.49e+00	0	57	104	0	69	13478
2026-01-03 07:52:11.24	11.27	34.91	-53.3	-64.8	3.8	1.49e+00	0	57	104	0	69	13458
2026-01-03 07:52:12.24	10.91	34.81	-53.2	-64.8	3.8	1.49e+00	0	57	104	0	69	13472
2026-01-03 07:52:13.22	10.57	34.71	-53.1	-64.7	3.8	1.49e+00	0	57	104	0	69	13388
2026-01-03 07:52:14.21	10.23	34.60	-53.0	-64.7	3.8	1.49e+00	0	57	104	0	69	13365
2026-01-03 07:52:15.20	9.89	34.50	-53.1	-64.7	3.8	1.49e+00	0	57	104	0	68	14086
2026-01-03 07:52:16.20	9.55	34.39	-53.1	-64.7	3.8	1.49e+00	0	57	104	0	68	14084
2026-01-03 07:52:17.19	9.21	34.28	-53.1	-64.6	3.8	1.49e+00	0	57	104	0	68	14036
2026-01-03 07:52:18.18	8.88	34.18	-53.2	-64.6	3.8	1.49e+00	0	57	104	0	68	14031
2026-01-03 07:52:19.17	8.54	34.07	-53.2	-64.7	3.8	1.49e+00	0	57	104	0	68	14071
2026-01-03 07:52:20.16	8.21	33.96	-53.2	-64.7	3.8	1.49e+00	0	57	104	0	68	14121
2026-01-03 07:52:21.14	7.89	33.85	-53.2	-64.7	3.8	1.49e+00	0	57	104	0	68	14067
2026-01-03 07:52:22.13	7.56	33.74	-53.1	-64.7	3.8	1.49e+00	0	57	104	0	68	14082
2026-01-03 07:52:23.13	7.24	33.63	-53.1	-64.7	3.8	1.49e+00	0	57	104	0	68	14065
2026-01-03 07:52:24.12	6.92	33.52	-53.2	-64.6	3.8	1.49e+00	0	57	104	0	68	14045
2026-01-03 07:52:25.11	6.60	33.41	-53.2	-64.6	3.8	1.49e+00	0	57	104	0	68	14034
2026-01-03 07:52:26.10	6.28	33.29	-53.2	-64.6	3.8	1.49e+00	0	57	104	0	68	13945
2026-01-03 07:52:27.09	5.97	33.18	-53.1	-64.6	3.8	1.49e+00	0	57	104	0	68	13993
2026-01-03 07:52:28.07	5.66	33.07	-53.2	-64.6	3.8	1.49e+00	0	57	104	0	68	14035
2026-01-03 07:52:29.06	5.35	32.95	-53.1	-64.7	3.8	1.49e+00	0	57	104	0	68	14050
2026-01-03 07:52:30.04	5.04	32.84	-53.1	-64.6	3.8	1.49e+00	0	57	104	0	68	14017
2026-01-03 07:52:31.03	4.74	32.73	-53.2	-64.6	3.8	1.49e+00	0	57	104	0	68	14032
2026-01-03 07:52:32.02	4.44	32.61	-53.2	-64.6	3.8	1.49e+00	0	57	104	0	68	13977
2026-01-03 07:52:33.02	4.13	32.49	-53.1	-64.6	3.8	1.49e+00	0	57	104	0	68	14005
2026-01-03 07:52:34.01	3.83	32.38	-53.2	-64.7	3.8	1.49e+00	0	57	104	0	68	14069
2026-01-03 07:52:35.00	3.54	32.26	-53.1	-64.6	3.8	1.49e+00	0	57	104	0	68	14011
2026-01-03 07:52:35.98	3.24	32.14	-53.0	-64.7	3.8	1.49e+00	0	57	104	0	68	14084
2026-01-03 07:52:36.97	2.95	32.02	-53.1	-64.6	3.8	1.49e+00	0	57	104	0	68	14046
2026-01-03 07:52:37.96	2.66	31.91	-53.2	-64.5	3.8	1.49e+00	0	57	104	0	68	13736
2026-01-03 07:52:38.94	2.38	31.79	-52.9	-63.9	3.8	1.49e+00	0	57	104	0	68	12926
2026-01-03 07:52:39.93	2.09	31.67	-53.0	-63.4	3.8	1.49e+00	0	57	104	0	68	12164
2026-01-03 07:52:40.92	1.81	31.55	-52.9	-63.3	3.8	1.49e+00	0	57	104	0	68	12042
2026-01-03 07:52:41.91	1.52	31.43	-53.1	-64.1	3.8	1.49e+00	0	57	104	0	68	13177
2026-01-03 07:52:42.90	1.24	31.31	-53.0	-64.6	3.8	1.49e+00	0	57	104	0	68	13941
2026-01-03 07:52:43.89	0.97	31.19	-53.0	-64.1	3.8	1.49e+00	0	57	104	0	68	13112
2026-01-03 07:52:44.88	0.69	31.07	-53.0	-63.7	3.8	1.49e+00	0	57	104	0	68	12663
2026-01-03 07:52:45.86	0.42	30.95	-52.9	-63.7	3.8	1.49e+00	0	57	104	0	68	12605
2026-01-03 07:52:46.84	0.15	30.83	-52.7	-61.4	3.9	1.48e+00	0	57	104	0	68	9627
2026-01-03 07:52:47.83	359.88	30.71	-51.4	-56.3	7.0	3.96e-01	0	57	0	1048576	66	6037
2026-01-03 07:52:48.81	359.62	30.59	-50.1	-52.9	10.5	1.14e-02	0	57	0	4194304	63	4829
2026-01-03 07:52:49.81	359.35	30.47	-48.3	-50.0	13.4	3.96e-05	0	57	0	7340032	59	4387
2026-01-03 07:52:50.80	359.08	30.35	-46.6	-47.9	15.6	0.00e+00	0	57	0	10485760	56	4081
2026-01-03 07:52:51.79	358.82	30.23	-45.9	-47.0	16.4	0.00e+00	0	57	0	13631488	54	4106
2026-01-03 07:52:52.78	358.56	30.10	-46.0	-47.1	16.3	0.00e+00	0	57	0	16777216	54	4160
2026-01-03 07:52:53.77	358.31	29.98	-45.9	-46.9	16.4	0.00e+00	0	57	0	19922944	54	4097
2026-01-03 07:52:54.76	358.05	29.86	-45.7	-46.8	16.7	0.00e+00	0	57	0	23068672	54	4007
2026-01-03 07:52:55.75	357.80	29.74	-45.7	-46.7	16.7	0.00e+00	0	57	0	26214400	54	3980
2026-01-03 07:52:56.74	357.55	29.61	-45.8	-46.9	16.5	0.00e+00	0	57	0	29360128	54	4083
2026-01-03 07:52:57.72	357.30	29.49	-45.7	-46.7	16.6	0.00e+00	0	57	0	32505856	54	4004
2026-01-03 07:52:58.71	357.05	29.37	-45.5	-46.6	16.8	0.00e+00	0	57	0	35651584	54	3934
2026-01-03 07:52:59.69	356.81	29.25	-45.5	-46.5	16.8	0.00e+00	0	57	0	38797312	54	3913
2026-01-03 07:53:00.68	356.56	29.13	-45.5	-46.6	16.8	0.00e+00	0	57	0	41943040	54	3914
2026-01-03 07:53:01.68	356.32	29.00	-45.6	-46.6	16.7	0.00e+00	0	57	0	45088768	54	3957
2026-01-03 07:53:02.67	356.08	28.88	-45.6	-46.7	16.7	0.00e+00	0	57	0	47185920	54	3973
2026-01-03 07:53:03.66	355.84	28.76	-45.8	-46.8	16.5	0.00e+00	0	57	0	50331648	54	4043
2026-01-03 07:53:04.66	355.60	28.63	-46.0	-47.1	16.3	0.00e+00	0	57	0	53477376	54	4170
2026-01-03 07:53:05.64	355.37	28.51	-45.9	-47.0	16.3	0.00e+00	0	57	0	56623104	54	4138
2026-01-03 07:53:06.64	355.13	28.39	-45.7	-46.7	16.6	0.00e+00	0	57	0	59768832	54	3985
2026-01-03 07:53:07.62	354.90	28.27	-45.5	-46.5	16.9	0.00e+00	0	57	0	62914560	54	3886
2026-01-03 07:53:08.62	354.67	28.14	-45.3	-46.3	17.0	0.00e+00	0	57	0	66060288	53	4023
2026-01-03 07:53:09.61	354.45	28.02	-45.2	-46.2	17.1	0.00e+00	0	57	0	69206016	53	3974
2026-01-03 07:53:10.60	354.22	27.90	-45.2	-46.1	17.2	0.00e+00	0	57	0	72351744	53	3947
2026-01-03 07:53:11.59	354.00	27.77	-44.9	-45.9	17.4	0.00e+00	0	57	0	75497472	53	3835
2026-01-03 07:53:12.57	353.78	27.65	-45.0	-45.9	17.4	0.00e+00	0	57	0	78643200	52	4078
2026-01-03 07:53:13.57	353.55	27.53	-44.9	-45.9	17.4	0.00e+00	0	57	0	81788928	52	4067
2026-01-03 07:53:14.56	353.33	27.41	-44.8	-45.7	17.6	0.00e+00	0	57	0	84934656	52	3991
2026-01-03 07:53:15.54	353.12	27.28	-45.0	-45.9	17.4	0.00e+00	0	57	0	88080384	52	4071
2026-01-03 07:53:16.54	352.90	27.16	-45.2	-46.2	17.1	0.00e+00	0	57	0	91226112	52	4217
2026-01-03 07:53:17.52	352.69	27.04	-45.4	-46.4	16.9	0.00e+00	0	57	0	94371840	52	4323
2026-01-03 07:53:18.52	352.47	26.92	-45.8	-46.9	16.4	0.00e+00	0	57	0	97517568	53	4308
2026-01-03 07:53:19.50	352.27	26.80	-45.7	-46.8	16.5	0.00e+00	0	57	0	100663296	53	4261
2026-01-03 07:53:20.49	352.06	26.67	-45.4	-46.5	16.8	0.00e+00	0	57	0	103809024	53	4110
2026-01-03 07:53:21.47	351.85	26.55	-45.1	-46.1	17.2	0.00e+00	0	57	0	105906176	53	3922
2026-01-03 07:53:22.45	351.65	26.43	-44.9	-45.8	17.5	0.00e+00	0	57	0	109051904	52	4021
2026-01-03 07:53:23.45	351.44	26.31	-44.9	-45.8	17.5	0.00e+00	0	57	0	112197632	52	4026
2026-01-03 07:53:24.44	351.24	26.19	-45.0	-45.9	17.3	0.00e+00	0	57	0	115343360	52	4084
2026-01-03 07:53:25.42	351.04	26.07	-45.1	-46.1	17.2	0.00e+00	0	57	0	118489088	52	4168
2026-01-03 07:53:26.41	350.84	25.95	-45.3	-46.3	17.0	0.00e+00	0	57	0	121634816	52	4252
2026-01-03 07:53:27.39	350.65	25.83	-45.5	-46.5	16.8	0.00e+00	0	57	0	124780544	52	4367
2026-01-03 07:53:28.38	350.45	25.71	-45.6	-46.7	16.5	0.00e+00	0	57	0	127926272	53	4239
2026-01-03 07:53:29.36	350.26	25.59	-45.8	-47.0	16.3	0.00e+00	0	57	0	131072000	53	4343
2026-01-03 07:53:30.34	350.07	25.47	-45.9	-47.1	16.2	0.00e+00	0	57	0	134217728	53	4412
2026-01-03 07:53:31.33	349.87	25.35	-46.1	-47.3	15.9	0.00e+00	0	57	0	137363456	54	4284
2026-01-03 07:53:32.32	349.68	25.23	-46.1	-47.3	16.0	0.00e+00	0	57	0	140509184	54	4262
2026-01-03 07:53:33.30	349.50	25.11	-45.8	-47.0	16.3	0.00e+00	0	57	0	143654912	54	4109
2026-01-03 07:53:34.29	349.31	24.99	-45.6	-46.7	16.6	0.00e+00	0	57	0	146800640	54	3974
2026-01-03 07:53:35.28	349.12	24.87	-45.4	-46.4	16.9	0.00e+00	0	57	0	149946368	53	4060
2026-01-03 07:53:36.27	348.94	24.75	-45.2	-46.2	17.1	0.00e+00	0	57	0	153092096	53	3972
2026-01-03 07:53:37.27	348.75	24.63	-45.1	-46.1	17.1	0.00e+00	0	57	0	155189248	53	3939
2026-01-03 07:53:38.26	348.57	24.51	-45.0	-46.0	17.2	0.00e+00	0	57	0	158334976	53	3887
2026-01-03 07:53:39.25	348.39	24.40	-44.9	-45.9	17.3	0.00e+00	0	57	0	161480704	53	3834
2026-01-03 07:53:40.24	348.21	24.28	-44.9	-45.8	17.4	0.00e+00	0	57	0	164626432	53	3815
2026-01-03 07:53:41.22	348.04	24.16	-44.9	-45.8	17.4	0.00e+00	0	57	0	167772160	52	4036
2026-01-03 07:53:42.21	347.86	24.04	-44.8	-45.7	17.5	0.00e+00	0	57	0	170917888	52	3977
2026-01-03 07:53:43.21	347.68	23.92	-44.8	-45.7	17.5	0.00e+00	0	57	0	174063616	52	3990
2026-01-03 07:53:44.19	347.51	23.81	-44.9	-45.8	17.4	0.00e+00	0	57	0	177209344	52	4034
2026-01-03 07:53:45.18	347.34	23.69	-45.0	-45.9	17.3	0.00e+00	0	57	0	180355072	52	4070
2026-01-03 07:53:46.16	347.17	23.57	-45.0	-46.0	17.2	0.00e+00	0	57	0	183500800	52	4105
2026-01-03 07:53:47.15	347.00	23.46	-44.9	-45.8	17.4	0.00e+00	0	57	0	186646528	52	4021
2026-01-03 07:53:48.13	346.83	23.34	-44.7	-45.6	17.5	0.00e+00	0	57	0	189792256	52	3949
2026-01-03 07:53:49.11	346.67	23.23	-44.6	-45.5	17.7	0.00e+00	0	57	0	192937984	52	3892
2026-01-03 07:53:50.11	346.50	23.11	-44.8	-45.7	17.5	0.00e+00	0	57	0	196083712	52	3983
2026-01-03 07:53:51.10	346.33	23.00	-45.0	-46.0	17.2	0.00e+00	0	57	0	199229440	52	4112
2026-01-03 07:53:52.09	346.17	22.88	-45.0	-45.9	17.3	0.00e+00	0	57	0	202375168	52	4073
2026-01-03 07:53:53.08	346.01	22.76	-45.1	-46.1	17.1	0.00e+00	0	57	0	205520896	52	4155
2026-01-03 07:53:54.07	345.85	22.65	-45.3	-46.3	16.8	0.00e+00	0	57	0	208666624	52	4283
2026-01-03 07:53:55.05	345.69	22.54	-45.2	-46.2	16.9	0.00e+00	0	57	0	211812352	52	4227
2026-01-03 07:53:56.05	345.53	22.42	-45.5	-46.6	16.6	0.00e+00	0	57	0	213909504	52	4392
2026-01-03 07:53:57.03	345.37	22.31	-45.4	-46.5	16.7	0.00e+00	0	57	0	217055232	52	4379
2026-01-03 07:53:58.02	345.22	22.19	-45.6	-46.7	16.4	0.00e+00	0	57	0	220200960	53	4237
2026-01-03 07:53:59.01	345.06	22.08	-45.4	-46.4	16.7	0.00e+00	0	57	0	223346688	53	4073
2026-01-03 07:54:00.00	344.91	21.97	-45.2	-46.2	16.9	0.00e+00	0	57	0	226492416	53	4004
2026-01-03 07:54:00.99	344.75	21.86	-45.2	-46.2	16.9	0.00e+00	0	57	0	229638144	53	3999
2026-01-03 07:54:01.97	344.60	21.74	-45.1	-46.2	17.0	0.00e+00	0	57	0	232783872	53	3968
2026-01-03 07:54:02.97	344.45	21.63	-45.2	-46.3	16.8	0.00e+00	0	57	0	235929600	53	4015
2026-01-03 07:54:03.95	344.30	21.52	-45.3	-46.3	16.8	0.00e+00	0	57	0	239075328	53	4051
2026-01-03 07:54:04.94	344.16	21.41	-45.6	-46.7	16.3	0.00e+00	0	57	0	242221056	53	4233
2026-01-03 07:54:05.93	344.01	21.30	-45.5	-46.5	16.5	0.00e+00	0	57	0	245366784	53	4140
2026-01-03 07:54:06.93	343.86	21.18	-45.3	-46.4	16.7	0.00e+00	0	57	0	248512512	53	4059
2026-01-03 07:54:07.91	343.72	21.07	-45.5	-46.5	16.5	0.00e+00	0	57	0	251658240	53	4140
2026-01-03 07:54:08.90	343.57	20.96	-45.7	-46.8	16.3	0.00e+00	0	57	0	254803968	53	4257
2026-01-03 07:54:09.89	343.43	20.85	-45.3	-46.4	16.6	0.00e+00	0	57	0	257949696	53	4059
2026-01-03 07:54:10.88	343.29	20.74	-45.5	-46.6	16.4	0.00e+00	0	57	0	261095424	53	4160
2026-01-03 07:54:11.87	343.15	20.63	-45.7	-46.9	16.1	0.00e+00	0	57	0	264241152	53	4292
2026-01-03 07:54:12.86	343.01	20.52	-46.0	-47.3	15.6	0.00e+00	0	57	0	267386880	53	4514
2026-01-03 07:54:13.85	342.87	20.41	-45.5	-46.6	16.1	0.00e+00	0	57	0	270532608	53	4188
2026-01-03 07:54:14.84	342.73	20.31	-44.7	-45.7	17.0	0.00e+00	0	57	0	273678336	52	3977
2026-01-03 07:54:15.83	342.59	20.20	-44.5	-45.5	17.2	0.00e+00	0	57	0	276824064	52	3903
2026-01-03 07:54:16.83	342.46	20.09	-45.0	-46.0	16.6	0.00e+00	0	57	0	278921216	52	4142
2026-01-03 07:54:17.81	342.32	19.98	-45.4	-46.5	16.0	0.00e+00	0	57	0	282066944	52	4379
2026-01-03 07:54:18.80	342.19	19.87	-45.7	-46.9	15.6	0.00e+00	0	57	0	285212672	53	4330
2026-01-03 07:54:19.80	342.05	19.76	-45.5	-46.7	15.7	0.00e+00	0	57	0	288358400	53	4224
2026-01-03 07:54:20.79	341.92	19.66	-45.4	-46.6	15.8	0.00e+00	0	57	0	291504128	53	4174
2026-01-03 07:54:21.78	341.79	19.55	-45.9	-47.3	15.0	0.00e+00	0	57	0	294649856	53	4544
2026-01-03 07:54:22.77	341.66	19.44	-46.7	-48.3	14.0	1.50e-06	0	57	0	297795584	55	4529
2026-01-03 07:54:23.75	341.53	19.34	-47.8	-49.9	12.4	4.04e-05	0	57	0	300941312	57	4860
2026-01-03 07:54:24.74	341.40	19.23	-48.4	-50.8	11.4	6.95e-04	0	57	0	304087040	58	5099
2026-01-03 07:54:25.71	341.28	19.13	-48.5	-51.1	11.1	1.52e-03	0	57	0	307232768	58	5259
2026-01-03 07:54:26.69	341.15	19.03	-48.5	-51.0	11.2	1.48e-03	0	57	0	310378496	58	5212
2026-01-03 07:54:27.68	341.03	18.92	-48.4	-50.7	11.6	8.47e-04	0	57	0	313524224	58	5036
2026-01-03 07:54:28.67	340.90	18.82	-48.4	-50.8	11.6	7.30e-04	0	57	0	316669952	58	5082
2026-01-03 07:54:29.66	340.78	18.71	-48.5	-50.8	11.6	6.05e-04	0	57	0	319815680	58	5066
2026-01-03 07:54:30.65	340.66	18.61	-48.5	-50.9	11.7	5.87e-04	0	57	0	322961408	58	5102
2026-01-03 07:54:31.64	340.53	18.50	-48.2	-50.5	12.2	3.46e-04	0	57	0	326107136	58	4897
2026-01-03 07:54:32.63	340.41	18.40	-47.7	-49.6	13.1	6.56e-05	0	57	0	329252864	58	4404
2026-01-03 07:54:33.63	340.29	18.30	-46.8	-48.3	14.4	3.00e-06	0	57	0	332398592	56	4288
2026-01-03 07:54:34.62	340.17	18.19	-45.9	-47.2	15.4	0.00e+00	0	57	0	334495744	55	3980
2026-01-03 07:54:35.61	340.05	18.09	-45.8	-47.0	15.7	1.50e-06	0	57	0	337641472	54	4133
2026-01-03 07:54:36.60	339.93	17.99	-45.8	-47.0	15.6	0.00e+00	0	57	0	340787200	54	4127
2026-01-03 07:54:37.59	339.82	17.89	-45.6	-46.8	15.8	0.00e+00	0	57	0	343932928	54	4023
2026-01-03 07:54:38.58	339.70	17.78	-46.1	-47.4	15.1	0.00e+00	0	57	0	347078656	54	4331
2026-01-03 07:54:39.57	339.59	17.68	-47.2	-48.9	13.8	0.00e+00	0	57	0	350224384	56	4574
2026-01-03 07:54:40.55	339.47	17.58	-48.9	-51.4	11.4	1.96e-04	0	57	0	353370112	59	5104
2026-01-03 07:54:41.54	339.36	17.48	-51.3	-60.7	4.0	1.46e+00	0	57	104	355467264	65	10541
2026-01-03 07:54:42.52	339.25	17.38	-51.8	-63.3	3.8	1.49e+00	0	57	104	355467264	65	14265
2026-01-03 07:54:43.51	339.13	17.28	-51.7	-62.9	3.8	1.49e+00	0	57	104	355467264	65	13684
2026-01-03 07:54:44.51	339.02	17.18	-51.7	-63.2	3.8	1.49e+00	0	57	104	355467264	65	14100
2026-01-03 07:54:45.50	338.91	17.08	-51.8	-63.2	3.8	1.49e+00	0	57	104	355467264	65	14067
2026-01-03 07:54:46.49	338.80	16.98	-51.8	-63.3	3.8	1.49e+00	0	57	104	355467264	65	14289
2026-01-03 07:54:47.48	338.69	16.88	-51.9	-63.2	3.8	1.49e+00	0	58	104	355467264	65	14153
2026-01-03 07:54:48.47	338.58	16.78	-52.0	-63.4	3.8	1.49e+00	0	57	104	355467264	65	14387
2026-01-03 07:54:49.45	338.47	16.69	-52.0	-63.5	3.8	1.49e+00	0	57	104	355467264	65	14704
2026-01-03 07:54:50.44	338.37	16.59	-51.8	-63.5	3.8	1.49e+00	0	57	104	355467264	65	14589
2026-01-03 07:54:51.43	338.26	16.49	-51.9	-63.4	3.8	1.49e+00	0	57	104	355467264	65	14379
2026-01-03 07:54:52.41	338.16	16.39	-51.9	-63.2	3.8	1.49e+00	0	58	104	355467264	65	14166
2026-01-03 07:54:53.40	338.05	16.30	-51.8	-63.3	3.8	1.49e+00	0	58	104	355467264	65	14242
2026-01-03 07:54:54.38	337.95	16.20	-51.6	-63.0	3.8	1.49e+00	0	57	104	355467264	65	13773
2026-01-03 07:54:55.37	337.84	16.10	-51.6	-62.8	3.8	1.49e+00	0	57	104	355467264	65	13441
2026-01-03 07:54:56.36	337.74	16.01	-51.6	-63.1	3.8	1.49e+00	0	57	104	355467264	65	13954
2026-01-03 07:54:57.36	337.64	15.91	-51.5	-62.7	3.8	1.49e+00	0	57	104	355467264	65	13271
2026-01-03 07:54:58.34	337.54	15.81	-51.4	-62.5	3.8	1.49e+00	0	57	104	355467264	65	13010
2026-01-03 07:54:59.33	337.44	15.72	-51.1	-62.6	3.8	1.49e+00	0	57	104	355467264	65	13212
2026-01-03 07:55:00.31	337.34	15.62	-50.9	-62.3	3.8	1.49e+00	0	58	104	355467264	65	12770
2026-01-03 07:55:01.31	337.24	15.53	-50.6	-62.1	3.8	1.49e+00	0	57	104	355467264	64	13165
2026-01-03 07:55:02.30	337.14	15.43	-50.5	-62.0	3.8	1.49e+00	0	57	104	355467264	64	13090
2026-01-03 07:55:03.29	337.04	15.34	-50.4	-61.9	3.8	1.49e+00	0	58	104	355467264	63	13720
2026-01-03 07:55:04.27	336.94	15.25	-50.5	-61.8	3.8	1.49e+00	0	57	104	355467264	63	13482
2026-01-03 07:55:05.25	336.85	15.15	-50.4	-62.0	3.8	1.49e+00	0	57	104	355467264	63	13730
2026-01-03 07:55:06.23	336.75	15.06	-50.4	-61.7	3.8	1.49e+00	0	58	104	355467264	63	13339
2026-01-03 07:55:07.22	336.65	14.97	-50.4	-61.6	3.8	1.49e+00	0	57	104	355467264	63	13236
2026-01-03 07:55:08.21	336.56	14.87	-50.4	-61.8	3.8	1.49e+00	0	57	104	355467264	63	13565
2026-01-03 07:55:09.20	336.46	14.78	-50.3	-61.5	3.8	1.49e+00	0	57	104	355467264	63	13078
2026-01-03 07:55:10.19	336.37	14.69	-50.4	-61.8	3.8	1.49e+00	0	57	104	355467264	63	13493
2026-01-03 07:55:11.19	336.28	14.59	-50.3	-61.7	3.8	1.49e+00	0	58	104	355467264	63	13353
2026-01-03 07:55:12.17	336.18	14.50	-50.4	-61.8	3.8	1.49e+00	0	58	104	355467264	63	13488
2026-01-03 07:55:13.16	336.09	14.41	-50.4	-61.8	3.8	1.49e+00	0	57	104	355467264	63	13496
2026-01-03 07:55:14.15	336.00	14.32	-50.4	-61.8	3.8	1.49e+00	0	57	104	355467264	63	13544
2026-01-03 07:55:15.14	335.91	14.23	-50.4	-61.9	3.8	1.49e+00	0	57	104	355467264	63	13672
2026-01-03 07:55:16.13	335.82	14.14	-50.4	-62.0	3.8	1.49e+00	0	57	104	355467264	63	13755
2026-01-03 07:55:17.11	335.73	14.05	-50.5	-62.0	3.8	1.49e+00	0	57	104	355467264	63	13745
2026-01-03 07:55:18.11	335.64	13.96	-50.4	-61.9	3.8	1.49e+00	0	57	104	355467264	63	13692
2026-01-03 07:55:19.10	335.55	13.87	-50.4	-61.9	3.8	1.49e+00	0	58	104	355467264	63	13622
2026-01-03 07:55:20.09	335.46	13.78	-50.3	-61.7	3.8	1.49e+00	0	57	104	355467264	63	13412
2026-01-03 07:55:21.08	335.38	13.69	-50.0	-61.5	3.8	1.49e+00	0	57	104	355467264	63	13104
2026-01-03 07:55:22.08	335.29	13.60	-50.0	-61.5	3.8	1.49e+00	0	57	104	355467264	63	13042
2026-01-03 07:55:23.07	335.20	13.51	-50.1	-61.6	3.8	1.49e+00	0	57	104	355467264	63	13153
2026-01-03 07:55:24.07	335.11	13.42	-50.2	-61.6	3.8	1.49e+00	0	57	104	355467264	63	13161
2026-01-03 07:55:25.06	335.03	13.33	-50.3	-61.7	3.8	1.49e+00	0	57	104	355467264	63	13293
2026-01-03 07:55:26.04	334.94	13.24	-50.4	-61.8	3.8	1.49e+00	0	58	104	355467264	63	13557
2026-01-03 07:55:27.03	334.86	13.15	-50.6	-61.7	3.8	1.49e+00	0	58	104	355467264	63	13399
2026-01-03 07:55:28.01	334.78	13.06	-50.6	-61.7	3.8	1.49e+00	0	58	104	355467264	63	13395
2026-01-03 07:55:29.00	334.69	12.98	-50.8	-62.1	3.8	1.49e+00	0	58	104	355467264	63	13988
2026-01-03 07:55:29.98	334.61	12.89	-51.0	-62.4	3.8	1.49e+00	0	57	104	355467264	63	14526
2026-01-03 07:55:30.97	334.53	12.80	-51.1	-62.5	3.8	1.49e+00	0	58	104	355467264	64	13822
2026-01-03 07:55:31.95	334.45	12.72	-51.4	-62.7	3.8	1.49e+00	0	57	104	355467264	64	14153
2026-01-03 07:55:32.94	334.37	12.63	-51.7	-63.1	3.8	1.49e+00	0	57	104	355467264	65	13962
2026-01-03 07:55:33.93	334.29	12.54	-52.0	-63.4	3.8	1.49e+00	0	58	104	355467264	65	14480
2026-01-03 07:55:34.92	334.21	12.46	-52.1	-63.4	3.8	1.49e+00	0	58	104	355467264	65	14530
2026-01-03 07:55:35.91	334.13	12.37	-52.1	-63.5	3.8	1.49e+00	0	57	104	355467264	66	13814
2026-01-03 07:55:36.89	334.05	12.29	-52.2	-63.7	3.8	1.49e+00	0	58	104	355467264	66	14068
2026-01-03 07:55:37.88	333.97	12.20	-52.2	-63.7	3.8	1.49e+00	0	58	104	355467264	66	14168
2026-01-03 07:55:38.86	333.89	12.12	-52.3	-63.7	3.8	1.49e+00	0	58	104	355467264	66	14091
2026-01-03 07:55:39.86	333.81	12.03	-52.2	-63.7	3.8	1.49e+00	0	58	104	355467264	66	14077
2026-01-03 07:55:40.85	333.73	11.95	-52.3	-63.8	3.8	1.49e+00	0	57	104	355467264	66	14353
2026-01-03 07:55:41.84	333.66	11.86	-52.3	-63.9	3.8	1.49e+00	0	57	104	355467264	66	14437
2026-01-03 07:55:42.84	333.58	11.78	-52.3	-63.9	3.8	1.49e+00	0	58	104	355467264	66	14505
2026-01-03 07:55:43.83	333.50	11.69	-52.4	-63.9	3.8	1.49e+00	0	57	104	355467264	66	14494
2026-01-03 07:55:44.82	333.43	11.61	-52.5	-63.9	3.8	1.49e+00	0	57	104	355467264	66	14477
2026-01-03 07:55:45.81	333.35	11.53	-52.5	-63.9	3.8	1.49e+00	0	58	104	355467264	66	14520
2026-01-03 07:55:46.79	333.28	11.44	-52.4	-63.9	3.8	1.49e+00	0	57	104	355467264	66	14415
2026-01-03 07:55:47.78	333.21	11.36	-52.4	-63.9	3.8	1.49e+00	0	57	104	355467264	66	14415
2026-01-03 07:55:48.78	333.13	11.28	-52.4	-63.9	3.8	1.49e+00	0	57	104	355467264	66	14458
2026-01-03 07:55:49.76	333.06	11.20	-52.5	-63.9	3.8	1.49e+00	0	58	104	355467264	66	14445
2026-01-03 07:55:50.75	332.98	11.11	-52.4	-63.9	3.8	1.49e+00	0	57	104	355467264	66	14402
2026-01-03 07:55:51.74	332.91	11.03	-52.4	-63.9	3.8	1.49e+00	0	58	104	355467264	66	14396
2026-01-03 07:55:52.73	332.84	10.95	-52.3	-63.9	3.8	1.49e+00	0	57	104	355467264	66	14432
2026-01-03 07:55:53.72	332.77	10.87	-52.3	-63.9	3.8	1.49e+00	0	58	104	355467264	66	14408
2026-01-03 07:55:54.72	332.70	10.79	-52.3	-63.8	3.8	1.49e+00	0	57	104	355467264	66	14290
2026-01-03 07:55:55.71	332.63	10.70	-52.3	-63.8	3.8	1.49e+00	0	58	104	355467264	66	14228
2026-01-03 07:55:56.71	332.55	10.62	-52.4	-63.7	3.8	1.49e+00	0	58	104	355467264	66	14196
2026-01-03 07:55:57.70	332.48	10.54	-52.3	-63.7	3.8	1.49e+00	0	58	104	355467264	66	14068
2026-01-03 07:55:58.68	332.42	10.46	-52.3	-63.7	3.8	1.49e+00	0	57	104	355467264	66	14096
2026-01-03 07:55:59.68	332.35	10.38	-52.3	-63.7	3.8	1.49e+00	0	58	104	355467264	66	14167
2026-01-03 07:56:00.67	332.28	10.30	-52.4	-63.7	3.8	1.49e+00	0	58	104	355467264	66	14169
2026-01-03 07:56:01.66	332.21	10.22	-52.5	-63.8	3.8	1.49e+00	0	58	104	355467264	66	14251
2026-01-03 07:56:02.65	332.14	10.14	-52.4	-63.8	3.8	1.49e+00	0	57	104	355467264	66	14364
2026-01-03 07:56:03.64	332.07	10.06	-52.4	-63.9	3.8	1.49e+00	0	58	104	355467264	66	14421
2026-01-03 07:56:04.64	332.00	9.98	-52.4	-63.9	3.8	1.49e+00	0	57	104	355467264	66	14505
2026-01-03 07:56:05.63	331.94	9.90	-52.5	-64.0	3.8	1.49e+00	0	58	104	355467264	66	14542
2026-01-03 07:56:06.62	331.87	9.82	-52.5	-64.0	3.8	1.49e+00	0	57	104	355467264	66	14571
2026-01-03 07:56:07.62	331.80	9.74	-52.5	-64.0	3.8	1.49e+00	0	58	104	355467264	66	14597
2026-01-03 07:56:08.61	331.74	9.67	-52.5	-64.0	3.8	1.49e+00	0	58	104	355467264	66	14614
2026-01-03 07:56:09.59	331.67	9.59	-52.5	-64.0	3.8	1.49e+00	0	58	104	355467264	66	14624
2026-01-03 07:56:10.57	331.61	9.51	-52.5	-64.0	3.8	1.49e+00	0	58	104	355467264	66	14571
2026-01-03 07:56:11.56	331.54	9.43	-52.4	-64.0	3.8	1.49e+00	0	58	104	355467264	66	14567
2026-01-03 07:56:12.55	331.48	9.36	-52.5	-64.0	3.8	1.49e+00	0	57	104	355467264	66	14583
2026-01-03 07:56:13.54	331.42	9.28	-52.3	-64.0	3.8	1.49e+00	0	58	104	355467264	66	14556
2026-01-03 07:56:14.53	331.35	9.20	-52.5	-64.0	3.8	1.49e+00	0	58	104	355467264	66	14573
2026-01-03 07:56:15.52	331.29	9.12	-52.4	-64.0	3.8	1.49e+00	0	57	104	355467264	66	14567
2026-01-03 07:56:16.50	331.23	9.05	-52.4	-64.0	3.8	1.49e+00	0	58	104	355467264	66	14560
2026-01-03 07:56:17.48	331.17	8.97	-52.4	-63.9	3.8	1.49e+00	0	57	104	355467264	66	14539
2026-01-03 07:56:18.48	331.10	8.89	-52.4	-63.9	3.8	1.49e+00	0	57	104	355467264	66	14451
2026-01-03 07:56:19.47	331.04	8.82	-52.3	-63.9	3.8	1.49e+00	0	57	104	355467264	66	14411
2026-01-03 07:56:20.45	330.98	8.74	-52.4	-63.8	3.8	1.49e+00	0	57	104	355467264	66	14331
2026-01-03 07:56:21.44	330.92	8.67	-52.4	-63.8	3.8	1.49e+00	0	58	104	355467264	66	14355
2026-01-03 07:56:22.43	330.86	8.59	-52.4	-63.8	3.8	1.49e+00	0	58	104	355467264	66	14306
2026-01-03 07:56:23.42	330.80	8.52	-52.1	-63.8	3.8	1.49e+00	0	58	104	355467264	66	14291
2026-01-03 07:56:24.41	330.74	8.44	-52.3	-63.8	3.8	1.49e+00	0	57	104	355467264	66	14276
2026-01-03 07:56:25.41	330.68	8.37	-52.3	-63.8	3.8	1.49e+00	0	58	104	355467264	66	14246
2026-01-03 07:56:26.39	330.62	8.29	-52.2	-63.7	3.8	1.49e+00	0	58	104	355467264	66	14200
2026-01-03 07:56:27.39	330.56	8.22	-52.2	-63.7	3.8	1.49e+00	0	58	104	355467264	66	14081
2026-01-03 07:56:28.37	330.50	8.14	-52.0	-63.6	3.8	1.49e+00	0	57	104	355467264	66	13983
2026-01-03 07:56:29.37	330.44	8.07	-52.1	-63.6	3.8	1.49e+00	0	58	104	355467264	66	13962
2026-01-03 07:56:30.35	330.38	7.99	-52.0	-63.6	3.8	1.49e+00	0	58	104	355467264	66	13972
2026-01-03 07:56:31.34	330.33	7.92	-52.1	-63.6	3.8	1.49e+00	0	58	104	355467264	66	13904
2026-01-03 07:56:32.33	330.27	7.85	-51.9	-63.6	3.8	1.49e+00	0	58	104	355467264	66	14007
2026-01-03 07:56:33.32	330.21	7.77	-52.1	-63.7	3.8	1.49e+00	0	58	104	355467264	66	14120
2026-01-03 07:56:34.31	330.15	7.70	-52.2	-63.7	3.8	1.49e+00	0	58	104	355467264	66	14182
2026-01-03 07:56:35.30	330.10	7.63	-52.2	-63.7	3.8	1.49e+00	0	58	104	355467264	66	14198
2026-01-03 07:56:36.29	330.04	7.55	-52.2	-63.7	3.8	1.49e+00	0	58	104	355467264	66	14192
2026-01-03 07:56:37.28	329.98	7.48	-52.3	-63.7	3.8	1.49e+00	0	57	104	355467264	66	14137
2026-01-03 07:56:38.27	329.93	7.41	-52.0	-63.7	3.8	1.49e+00	0	58	104	355467264	66	14160
2026-01-03 07:56:39.26	329.87	7.34	-52.2	-63.7	3.8	1.49e+00	0	57	104	355467264	66	14153
2026-01-03 07:56:40.25	329.82	7.26	-52.2	-63.7	3.8	1.49e+00	0	58	104	355467264	66	14185
2026-01-03 07:56:41.24	329.76	7.19	-52.3	-63.7	3.8	1.49e+00	0	58	104	355467264	66	14174
2026-01-03 07:56:42.24	329.71	7.12	-52.3	-63.7	3.8	1.49e+00	0	57	104	355467264	66	14201
2026-01-03 07:56:43.23	329.65	7.05	-52.3	-63.7	3.8	1.49e+00	0	58	104	355467264	66	14201
2026-01-03 07:56:44.21	329.60	6.98	-52.1	-63.7	3.8	1.49e+00	0	58	104	355467264	66	14110
2026-01-03 07:56:45.21	329.55	6.90	-52.2	-63.7	3.8	1.49e+00	0	57	104	355467264	66	14089
2026-01-03 07:56:46.20	329.49	6.83	-52.1	-63.6	3.8	1.49e+00	0	58	104	355467264	66	14045
2026-01-03 07:56:47.18	329.44	6.76	-52.1	-63.6	3.8	1.49e+00	0	58	104	355467264	66	14019
2026-01-03 07:56:48.17	329.39	6.69	-52.1	-63.6	3.8	1.49e+00	0	58	104	355467264	66	13987
2026-01-03 07:56:49.15	329.33	6.62	-52.2	-63.6	3.8	1.49e+00	0	58	104	355467264	66	13977
2026-01-03 07:56:50.14	329.28	6.55	-52.0	-63.7	3.8	1.49e+00	0	57	104	355467264	66	14061
2026-01-03 07:56:51.13	329.23	6.48	-52.1	-63.7	3.8	1.49e+00	0	58	104	355467264	66	14079
2026-01-03 07:56:52.12	329.18	6.41	-52.2	-63.8	3.8	1.49e+00	0	58	104	355467264	66	14215
2026-01-03 07:56:53.11	329.13	6.34	-52.2	-63.7	3.8	1.49e+00	0	58	104	355467264	66	14185
2026-01-03 07:56:54.09	329.08	6.27	-52.2	-63.8	3.8	1.49e+00	0	57	104	355467264	66	14265
2026-01-03 07:56:55.09	329.02	6.20	-52.2	-63.8	3.8	1.49e+00	0	58	104	355467264	66	14326
2026-01-03 07:56:56.07	328.97	6.13	-52.3	-63.8	3.8	1.49e+00	0	58	104	355467264	66	14319
2026-01-03 07:56:57.07	328.92	6.06	-52.3	-63.8	3.8	1.49e+00	0	58	104	355467264	66	14292
2026-01-03 07:56:58.06	328.87	5.99	-52.3	-63.8	3.8	1.49e+00	0	58	104	355467264	66	14260
2026-01-03 07:56:59.04	328.82	5.92	-52.3	-63.8	3.8	1.49e+00	0	58	104	355467264	66	14286
2026-01-03 07:57:00.03	328.77	5.85	-52.3	-63.8	3.8	1.49e+00	0	58	104	355467264	66	14253
2026-01-03 07:57:01.02	328.72	5.79	-52.2	-63.8	3.8	1.49e+00	0	58	104	355467264	66	14279
2026-01-03 07:57:02.01	328.68	5.72	-52.3	-63.8	3.8	1.49e+00	0	58	104	355467264	66	14238
2026-01-03 07:57:03.00	328.63	5.65	-52.3	-63.7	3.8	1.49e+00	0	58	104	355467264	66	14203
2026-01-03 07:57:03.98	328.58	5.58	-52.3	-63.7	3.8	1.49e+00	0	58	104	355467264	66	14189
2026-01-03 07:57:04.96	328.53	5.51	-52.2	-63.7	3.8	1.49e+00	0	58	104	355467264	66	14187
2026-01-03 07:57:05.96	328.48	5.45	-52.1	-63.7	3.8	1.49e+00	0	58	104	355467264	66	14103
2026-01-03 07:57:06.94	328.43	5.38	-52.1	-63.7	3.8	1.49e+00	0	58	104	355467264	66	14067
2026-01-03 07:57:07.93	328.39	5.31	-52.2	-63.6	3.8	1.49e+00	0	57	104	355467264	66	13974
2026-01-03 07:57:08.93	328.34	5.24	-52.1	-63.6	3.8	1.49e+00	0	58	104	355467264	66	13944
2026-01-03 07:57:09.92	328.29	5.17	-52.0	-63.6	3.8	1.49e+00	0	58	104	355467264	66	13932
2026-01-03 07:57:10.90	328.24	5.11	-52.0	-63.5	3.8	1.49e+00	0	57	104	355467264	66	13883
2026-01-03 07:57:11.89	328.20	5.04	-52.1	-63.5	3.8	1.49e+00	0	58	104	355467264	66	13862
2026-01-03 07:57:12.87	328.15	4.97	-52.1	-63.6	3.8	1.49e+00	0	58	104	355467264	66	13982
2026-01-03 07:57:13.86	328.10	4.91	-49.0	-60.5	3.8	1.49e+00	0	58	104	355467264	60	13869
2026-01-03 07:57:14.84	328.06	4.84	-48.6	-60.0	3.8	1.49e+00	0	58	104	355467264	59	13838
2026-01-03 07:57:15.84	328.01	4.77	-52.8	-64.3	3.8	1.49e+00	0	58	104	355467264	67	14276
2026-01-03 07:57:16.82	327.97	4.71	-52.9	-64.4	3.8	1.49e+00	0	58	104	355467264	67	14507
2026-01-03 07:57:17.81	327.92	4.64	-53.0	-64.5	3.8	1.49e+00	0	58	104	355467264	67	14607
2026-01-03 07:57:18.79	327.88	4.58	-53.1	-64.5	3.8	1.49e+00	0	58	104	355467264	67	14699
2026-01-03 07:57:19.78	327.83	4.51	-53.2	-64.7	3.8	1.49e+00	0	58	104	355467264	68	14102
2026-01-03 07:57:20.77	327.79	4.45	-53.1	-64.7	3.8	1.49e+00	0	58	104	355467264	68	14177
2026-01-03 07:57:21.76	327.74	4.38	-53.2	-64.8	3.8	1.49e+00	0	58	104	355467264	68	14218
2026-01-03 07:57:22.75	327.70	4.31	-53.2	-64.8	3.8	1.49e+00	0	58	104	355467264	68	14248
2026-01-03 07:57:23.74	327.65	4.25	-53.2	-64.8	3.8	1.49e+00	0	58	104	355467264	68	14273
2026-01-03 07:57:24.73	327.61	4.18	-53.3	-64.8	3.8	1.49e+00	0	58	104	355467264	68	14349
2026-01-03 07:57:25.73	327.57	4.12	-53.3	-64.8	3.8	1.49e+00	0	58	104	355467264	68	14293
2026-01-03 07:57:26.72	327.52	4.05	-53.4	-64.8	3.8	1.49e+00	0	58	104	355467264	68	14342
2026-01-03 07:57:27.70	327.48	3.99	-53.3	-64.8	3.8	1.49e+00	0	58	104	355467264	68	14354
2026-01-03 07:57:28.68	327.44	3.93	-53.2	-64.8	3.8	1.49e+00	0	58	104	355467264	68	14366
2026-01-03 07:57:29.66	327.39	3.86	-53.3	-64.9	3.8	1.49e+00	0	58	104	355467264	68	14416
2026-01-03 07:57:30.65	327.35	3.80	-53.4	-64.9	3.8	1.49e+00	0	58	104	355467264	68	14449
2026-01-03 07:57:31.63	327.31	3.73	-53.4	-64.9	3.8	1.49e+00	0	58	104	355467264	68	14429
2026-01-03 07:57:32.61	327.27	3.67	-53.4	-64.9	3.8	1.49e+00	0	58	104	355467264	68	14456
2026-01-03 07:57:33.61	327.23	3.61	-53.4	-64.9	3.8	1.49e+00	0	58	104	355467264	68	14438
2026-01-03 07:57:34.59	327.18	3.54	-53.4	-64.9	3.8	1.49e+00	0	58	104	355467264	68	14393
2026-01-03 07:57:35.58	327.14	3.48	-53.4	-64.9	3.8	1.49e+00	0	58	104	355467264	68	14461
2026-01-03 07:57:36.57	327.10	3.42	-53.3	-64.9	3.8	1.49e+00	0	58	104	355467264	68	14441
2026-01-03 07:57:37.56	327.06	3.35	-53.2	-64.9	3.8	1.49e+00	0	57	104	355467264	68	14404
2026-01-03 07:57:38.56	327.02	3.29	-53.1	-64.9	3.8	1.49e+00	0	58	104	355467264	68	14390
2026-01-03 07:57:39.55	326.98	3.22	-53.3	-64.9	3.8	1.49e+00	0	58	104	355467264	68	14382
2026-01-03 07:57:40.54	326.94	3.16	-53.2	-64.9	3.8	1.49e+00	0	58	104	355467264	68	14402
2026-01-03 07:57:41.53	326.90	3.10	-53.1	-64.9	3.8	1.49e+00	0	58	104	355467264	68	14401
2026-01-03 07:57:42.51	326.86	3.04	-53.3	-64.8	3.8	1.49e+00	0	58	104	355467264	68	14343
2026-01-03 07:57:43.50	326.82	2.97	-53.2	-64.8	3.8	1.49e+00	0	58	104	355467264	68	14358

#Closed at: 2026-01-03 07:57:43
#Recorded file [355 MB]: D:/Data/31026_260103_105441.dat