passes_logs/2026/01/03/R3.0SM8_Murmansk_STILSPACE/R3.0SM8_Murmansk_STILSPACE__20260103_013632_SUOMI_NPP_rec.log

#Pass ID: 20260103_013632_SUOMI NPP
#Satellite: SUOMI NPP
#Configuration: NPP
#almurnet v.1.7.20240730
#Start time: 2026-01-03 01:36:35

#Version: 2.2.20231116
#Station: R3.0SM8_Murmansk_STILSPACE
#Location: 33.092731 lon 68.902999 lat
#TLE: 1 37849U 11061A   26001.07732418  .00000182  00000+0  10735-3 0  9990
#TLE: 2 37849  98.7795 303.2470 0002580  87.2016 272.9455 14.19520779734739

#Time	Az	El	Level	Level2	SNR	BER	BlckErr	Temp	State	Recorded	gain1	gain2
2026-01-03 01:36:35.06	27.94	3.17	-53.0	-66.9	3.8	1.49e+00	0	46	0	0	68	18259
2026-01-03 01:36:36.04	27.93	3.23	-52.8	-66.7	3.8	1.49e+00	0	47	104	0	68	17780
2026-01-03 01:36:37.03	27.91	3.30	-52.8	-66.6	3.8	1.49e+00	0	47	104	0	68	17640
2026-01-03 01:36:38.02	27.89	3.36	-52.6	-66.4	3.8	1.49e+00	0	47	104	0	68	17272
2026-01-03 01:36:39.01	27.87	3.43	-52.2	-65.5	3.8	1.49e+00	0	47	104	0	67	16327
2026-01-03 01:36:40.01	27.85	3.50	-51.9	-63.7	3.8	1.49e+00	0	47	104	0	66	14118
2026-01-03 01:36:41.00	27.83	3.56	-51.9	-63.2	4.0	1.47e+00	0	47	104	0	66	13291
2026-01-03 01:36:41.99	27.81	3.63	-51.8	-62.5	4.2	1.45e+00	0	47	0	0	66	12343
2026-01-03 01:36:42.99	27.79	3.70	-51.8	-61.9	4.3	1.38e+00	0	47	0	0	66	11496
2026-01-03 01:36:43.97	27.77	3.76	-51.7	-61.1	4.6	1.06e+00	0	47	0	1048576	66	10494
2026-01-03 01:36:44.97	27.75	3.83	-51.5	-60.5	4.9	8.33e-01	0	47	0	3145728	66	9791
2026-01-03 01:36:45.95	27.73	3.90	-51.5	-60.0	5.2	6.74e-01	0	47	0	5242880	66	9267
2026-01-03 01:36:46.94	27.71	3.96	-51.3	-59.1	5.8	5.38e-01	0	47	0	7340032	65	8834
2026-01-03 01:36:47.93	27.69	4.03	-51.2	-58.5	6.2	2.98e-01	0	47	0	8388608	65	8214
2026-01-03 01:36:48.92	27.67	4.10	-51.0	-57.6	7.0	1.93e-01	0	47	0	10485760	65	7382
2026-01-03 01:36:49.91	27.65	4.17	-50.9	-57.0	7.6	1.17e-01	0	48	0	12582912	64	7342
2026-01-03 01:36:50.89	27.63	4.23	-50.7	-56.3	8.3	7.43e-02	0	48	0	14680064	64	6749
2026-01-03 01:36:51.88	27.60	4.30	-50.5	-55.6	9.0	2.93e-02	0	48	0	15728640	64	6220
2026-01-03 01:36:52.87	27.58	4.37	-50.5	-55.3	9.4	1.83e-02	0	48	0	17825792	63	6367
2026-01-03 01:36:53.86	27.56	4.44	-50.2	-54.6	10.1	1.38e-02	0	48	0	19922944	63	5908
2026-01-03 01:36:54.85	27.54	4.50	-50.0	-54.1	10.6	3.93e-03	0	48	0	22020096	63	5579
2026-01-03 01:36:55.83	27.52	4.57	-49.9	-53.8	10.9	2.21e-03	0	48	0	23068672	62	5712
2026-01-03 01:36:56.83	27.50	4.64	-49.7	-53.4	11.4	1.40e-03	0	48	0	25165824	62	5434
2026-01-03 01:36:57.82	27.48	4.71	-49.5	-53.1	11.7	7.66e-04	0	48	0	27262976	62	5220
2026-01-03 01:36:58.81	27.46	4.78	-49.4	-52.8	12.0	3.20e-04	0	48	0	29360128	61	5342
2026-01-03 01:36:59.80	27.43	4.85	-49.3	-52.6	12.2	2.46e-04	0	48	0	31457280	61	5228
2026-01-03 01:37:00.79	27.41	4.92	-49.1	-52.3	12.5	1.40e-04	0	49	0	32505856	61	5082
2026-01-03 01:37:01.77	27.39	4.99	-49.1	-52.2	12.6	1.04e-04	0	48	0	34603008	61	5021
2026-01-03 01:37:02.77	27.37	5.06	-49.0	-52.1	12.7	7.32e-05	0	48	0	36700160	61	4936
2026-01-03 01:37:03.75	27.34	5.13	-49.1	-52.2	12.7	7.09e-05	0	49	0	38797312	61	5002
2026-01-03 01:37:04.74	27.32	5.20	-49.0	-52.0	12.8	8.92e-05	0	48	0	39845888	61	4924
2026-01-03 01:37:05.73	27.30	5.27	-49.0	-52.0	12.9	4.34e-05	0	49	0	41943040	61	4886
2026-01-03 01:37:06.73	27.28	5.34	-49.0	-52.1	12.8	6.63e-05	0	49	0	44040192	61	4939
2026-01-03 01:37:07.72	27.25	5.41	-49.0	-52.1	12.8	4.73e-05	0	49	0	46137344	61	4933
2026-01-03 01:37:08.71	27.23	5.48	-49.1	-52.3	12.7	7.01e-05	0	49	0	48234496	61	5042
2026-01-03 01:37:09.70	27.21	5.55	-49.2	-52.3	12.6	8.39e-05	0	49	0	49283072	61	5075
2026-01-03 01:37:10.69	27.18	5.62	-49.0	-52.1	12.9	5.11e-05	0	49	0	51380224	61	4933
2026-01-03 01:37:11.68	27.16	5.69	-48.8	-51.7	13.3	2.21e-05	0	49	0	53477376	60	5002
2026-01-03 01:37:12.67	27.14	5.77	-48.8	-51.6	13.4	1.75e-05	0	49	0	55574528	60	4932
2026-01-03 01:37:13.66	27.11	5.84	-48.8	-51.5	13.4	1.06e-05	0	49	0	56623104	60	4926
2026-01-03 01:37:14.66	27.09	5.91	-48.8	-51.6	13.4	1.60e-05	0	49	0	58720256	60	4931
2026-01-03 01:37:15.64	27.07	5.98	-48.9	-51.8	13.3	1.44e-05	0	49	0	60817408	60	5043
2026-01-03 01:37:16.63	27.04	6.05	-48.8	-51.6	13.4	2.05e-05	0	49	0	62914560	60	4931
2026-01-03 01:37:17.62	27.02	6.13	-48.7	-51.3	13.7	5.30e-06	0	49	0	63963136	60	4806
2026-01-03 01:37:18.61	26.99	6.20	-48.6	-51.2	13.8	3.00e-06	0	49	0	66060288	60	4731
2026-01-03 01:37:19.60	26.97	6.27	-48.6	-51.2	13.8	2.20e-06	0	49	0	68157440	60	4752
2026-01-03 01:37:20.59	26.94	6.35	-48.6	-51.2	13.8	2.20e-06	0	49	0	70254592	60	4737
2026-01-03 01:37:21.58	26.92	6.42	-48.5	-51.1	13.9	5.30e-06	0	50	0	72351744	60	4696
2026-01-03 01:37:22.58	26.89	6.49	-48.5	-51.1	13.9	1.50e-06	0	50	0	73400320	60	4678
2026-01-03 01:37:23.57	26.87	6.57	-48.5	-51.1	14.0	2.20e-06	0	50	0	75497472	60	4667
2026-01-03 01:37:24.56	26.84	6.64	-48.4	-51.0	14.1	1.50e-06	0	49	0	77594624	60	4600
2026-01-03 01:37:25.55	26.82	6.71	-48.5	-50.9	14.2	2.20e-06	0	50	0	79691776	59	4850
2026-01-03 01:37:26.54	26.79	6.79	-48.5	-51.0	14.1	3.80e-06	0	50	0	80740352	59	4885
2026-01-03 01:37:27.53	26.77	6.86	-48.7	-51.3	13.8	9.10e-06	0	50	0	82837504	59	5078
2026-01-03 01:37:28.52	26.74	6.94	-48.7	-51.3	13.8	2.20e-06	0	50	0	84934656	59	5060
2026-01-03 01:37:29.50	26.72	7.01	-48.8	-51.4	13.7	5.30e-06	0	50	0	87031808	59	5147
2026-01-03 01:37:30.48	26.69	7.09	-48.7	-51.2	13.9	3.80e-06	0	50	0	88080384	59	5038
2026-01-03 01:37:31.48	26.66	7.16	-48.8	-51.4	13.7	6.80e-06	0	50	0	90177536	59	5131
2026-01-03 01:37:32.47	26.64	7.24	-48.8	-51.4	13.8	6.10e-06	0	50	0	92274688	59	5109
2026-01-03 01:37:33.45	26.61	7.31	-48.8	-51.3	13.8	5.30e-06	0	50	0	94371840	59	5091
2026-01-03 01:37:34.44	26.58	7.39	-48.7	-51.4	13.8	2.20e-06	0	50	0	95420416	59	5102
2026-01-03 01:37:35.43	26.56	7.47	-48.9	-51.6	13.6	1.50e-06	0	50	0	97517568	59	5220
2026-01-03 01:37:36.42	26.53	7.54	-49.0	-51.8	13.3	2.36e-05	0	50	0	99614720	60	5086
2026-01-03 01:37:37.41	26.50	7.62	-48.8	-51.5	13.7	9.90e-06	0	50	0	101711872	60	4893
2026-01-03 01:37:38.40	26.47	7.70	-48.5	-51.1	14.1	3.80e-06	0	50	0	103809024	60	4666
2026-01-03 01:37:39.38	26.45	7.77	-48.4	-50.9	14.3	0.00e+00	0	50	0	104857600	59	4827
2026-01-03 01:37:40.37	26.42	7.85	-48.3	-50.7	14.4	7.00e-07	0	50	0	106954752	59	4750
2026-01-03 01:37:41.36	26.39	7.93	-48.3	-50.7	14.5	0.00e+00	0	50	0	109051904	59	4707
2026-01-03 01:37:42.35	26.36	8.01	-48.3	-50.6	14.6	7.00e-07	0	51	0	111149056	59	4673
2026-01-03 01:37:43.33	26.33	8.08	-48.3	-50.6	14.6	0.00e+00	0	50	0	112197632	59	4666
2026-01-03 01:37:44.33	26.31	8.16	-48.2	-50.5	14.7	0.00e+00	0	50	0	114294784	59	4608
2026-01-03 01:37:45.31	26.28	8.24	-48.3	-50.5	14.7	0.00e+00	0	51	0	116391936	59	4642
2026-01-03 01:37:46.30	26.25	8.32	-48.3	-50.6	14.6	0.00e+00	0	51	0	118489088	59	4686
2026-01-03 01:37:47.29	26.22	8.40	-48.3	-50.6	14.7	7.00e-07	0	51	0	119537664	59	4679
2026-01-03 01:37:48.28	26.19	8.48	-48.3	-50.6	14.6	0.00e+00	0	51	0	121634816	59	4695
2026-01-03 01:37:49.28	26.16	8.56	-48.2	-50.4	14.8	0.00e+00	0	51	0	123731968	59	4592
2026-01-03 01:37:50.27	26.13	8.64	-48.2	-50.5	14.8	0.00e+00	0	51	0	125829120	59	4612
2026-01-03 01:37:51.26	26.10	8.72	-48.3	-50.5	14.7	0.00e+00	0	51	0	127926272	59	4622
2026-01-03 01:37:52.25	26.07	8.80	-48.3	-50.6	14.7	0.00e+00	0	51	0	128974848	59	4670
2026-01-03 01:37:53.24	26.04	8.88	-48.4	-50.8	14.5	0.00e+00	0	51	0	131072000	59	4769
2026-01-03 01:37:54.23	26.01	8.96	-48.2	-50.4	14.7	7.00e-07	0	51	0	133169152	59	4591
2026-01-03 01:37:55.22	25.98	9.04	-48.2	-50.4	14.9	0.00e+00	0	51	0	135266304	59	4581
2026-01-03 01:37:56.22	25.95	9.12	-48.2	-50.5	14.9	0.00e+00	0	51	0	136314880	59	4602
2026-01-03 01:37:57.20	25.92	9.20	-48.3	-50.7	14.7	0.00e+00	0	51	0	138412032	59	4710
2026-01-03 01:37:58.19	25.89	9.29	-48.4	-50.8	14.5	0.00e+00	0	51	0	140509184	59	4775
2026-01-03 01:37:59.18	25.86	9.37	-48.3	-50.6	14.6	0.00e+00	0	51	0	142606336	59	4672
2026-01-03 01:38:00.17	25.83	9.45	-48.3	-50.5	14.8	0.00e+00	0	51	0	144703488	59	4641
2026-01-03 01:38:01.17	25.79	9.53	-48.2	-50.6	14.7	7.00e-07	0	51	0	145752064	59	4669
2026-01-03 01:38:02.16	25.76	9.62	-48.3	-50.6	14.7	0.00e+00	0	51	0	147849216	59	4679
2026-01-03 01:38:03.15	25.73	9.70	-48.3	-50.6	14.7	0.00e+00	0	51	0	149946368	59	4677
2026-01-03 01:38:04.13	25.70	9.78	-48.4	-50.7	14.6	0.00e+00	0	51	0	152043520	59	4734
2026-01-03 01:38:05.12	25.66	9.87	-48.2	-50.3	15.0	0.00e+00	0	51	0	153092096	59	4532
2026-01-03 01:38:06.11	25.63	9.95	-48.0	-50.1	15.2	0.00e+00	0	51	0	155189248	59	4413
2026-01-03 01:38:07.11	25.60	10.03	-47.9	-49.9	15.4	0.00e+00	0	52	0	157286400	58	4587
2026-01-03 01:38:08.10	25.57	10.12	-47.8	-49.8	15.5	0.00e+00	0	52	0	159383552	58	4525
2026-01-03 01:38:09.10	25.53	10.20	-47.8	-49.9	15.5	0.00e+00	0	51	0	160432128	58	4548
2026-01-03 01:38:10.09	25.50	10.29	-47.7	-49.7	15.6	0.00e+00	0	52	0	162529280	58	4452
2026-01-03 01:38:11.08	25.46	10.37	-47.7	-49.6	15.7	0.00e+00	0	52	0	164626432	58	4409
2026-01-03 01:38:12.07	25.43	10.46	-47.5	-49.5	15.9	0.00e+00	0	52	0	166723584	58	4346
2026-01-03 01:38:13.06	25.40	10.55	-47.5	-49.3	16.1	0.00e+00	0	52	0	168820736	58	4277
2026-01-03 01:38:14.05	25.36	10.63	-47.6	-49.5	15.8	0.00e+00	0	52	0	169869312	58	4387
2026-01-03 01:38:15.04	25.33	10.72	-47.7	-49.7	15.7	0.00e+00	0	52	0	171966464	58	4457
2026-01-03 01:38:16.03	25.29	10.81	-47.8	-49.8	15.6	0.00e+00	0	52	0	174063616	58	4514
2026-01-03 01:38:17.02	25.26	10.89	-48.0	-50.0	15.4	0.00e+00	0	52	0	176160768	58	4624
2026-01-03 01:38:18.02	25.22	10.98	-47.9	-49.9	15.5	0.00e+00	0	52	0	177209344	58	4576
2026-01-03 01:38:19.00	25.19	11.07	-47.8	-49.8	15.6	0.00e+00	0	52	0	179306496	58	4528
2026-01-03 01:38:20.00	25.15	11.16	-47.9	-49.9	15.5	0.00e+00	0	52	0	181403648	58	4584
2026-01-03 01:38:20.99	25.11	11.25	-47.7	-49.7	15.7	0.00e+00	0	52	0	183500800	58	4458
2026-01-03 01:38:21.98	25.08	11.33	-47.7	-49.7	15.7	0.00e+00	0	52	0	185597952	58	4443
2026-01-03 01:38:22.97	25.04	11.42	-47.7	-49.6	15.7	0.00e+00	0	52	0	186646528	58	4422
2026-01-03 01:38:23.96	25.00	11.51	-48.0	-50.0	15.4	0.00e+00	0	52	0	188743680	58	4607
2026-01-03 01:38:24.95	24.97	11.60	-47.6	-49.5	15.9	0.00e+00	0	52	0	190840832	58	4365
2026-01-03 01:38:25.94	24.93	11.69	-47.4	-49.2	16.1	0.00e+00	0	52	0	192937984	58	4216
2026-01-03 01:38:26.92	24.89	11.78	-47.2	-48.9	16.4	0.00e+00	0	52	0	193986560	57	4324
2026-01-03 01:38:27.91	24.85	11.87	-47.1	-48.8	16.5	0.00e+00	0	52	0	196083712	57	4265
2026-01-03 01:38:28.91	24.82	11.96	-47.1	-48.8	16.6	0.00e+00	0	52	0	198180864	57	4263
2026-01-03 01:38:29.89	24.78	12.05	-47.1	-48.8	16.6	0.00e+00	0	52	0	200278016	57	4262
2026-01-03 01:38:30.88	24.74	12.14	-47.2	-48.9	16.5	0.00e+00	0	52	0	201326592	57	4312
2026-01-03 01:38:31.86	24.70	12.24	-47.0	-48.6	16.8	0.00e+00	0	52	0	203423744	57	4166
2026-01-03 01:38:32.85	24.66	12.33	-47.0	-48.7	16.8	0.00e+00	0	52	0	205520896	56	4446
2026-01-03 01:38:33.83	24.62	12.42	-47.1	-48.7	16.7	0.00e+00	0	52	0	207618048	56	4492
2026-01-03 01:38:34.82	24.58	12.51	-47.1	-48.8	16.6	0.00e+00	0	52	0	208666624	56	4505
2026-01-03 01:38:35.82	24.54	12.61	-47.1	-48.8	16.6	0.00e+00	0	52	0	210763776	56	4536
2026-01-03 01:38:36.81	24.50	12.70	-47.3	-49.1	16.4	0.00e+00	0	52	0	212860928	56	4661
2026-01-03 01:38:37.80	24.46	12.79	-47.3	-49.1	16.3	0.00e+00	0	53	0	214958080	56	4669
2026-01-03 01:38:38.80	24.42	12.89	-47.2	-49.0	16.5	0.00e+00	0	53	0	217055232	56	4605
2026-01-03 01:38:39.79	24.38	12.98	-47.4	-49.1	16.3	0.00e+00	0	53	0	218103808	56	4698
2026-01-03 01:38:40.78	24.34	13.08	-47.4	-49.2	16.3	0.00e+00	0	53	0	220200960	56	4735
2026-01-03 01:38:41.77	24.29	13.17	-47.5	-49.2	16.2	0.00e+00	0	53	0	222298112	56	4757
2026-01-03 01:38:42.76	24.25	13.27	-47.4	-49.1	16.3	0.00e+00	0	52	0	224395264	57	4428
2026-01-03 01:38:43.74	24.21	13.36	-47.5	-49.3	16.1	0.00e+00	0	53	0	225443840	57	4542
2026-01-03 01:38:44.73	24.17	13.46	-47.7	-49.6	15.8	0.00e+00	0	53	0	227540992	57	4661
2026-01-03 01:38:45.72	24.13	13.56	-47.6	-49.5	15.9	0.00e+00	0	53	0	229638144	57	4648
2026-01-03 01:38:46.72	24.08	13.65	-47.5	-49.3	16.1	0.00e+00	0	53	0	231735296	57	4539
2026-01-03 01:38:47.71	24.04	13.75	-47.5	-49.3	16.2	0.00e+00	0	53	0	232783872	57	4503
2026-01-03 01:38:48.70	23.99	13.85	-47.5	-49.2	16.2	0.00e+00	0	53	0	234881024	57	4493
2026-01-03 01:38:49.68	23.95	13.95	-47.7	-49.5	15.9	0.00e+00	0	53	0	236978176	57	4641
2026-01-03 01:38:50.67	23.91	14.04	-47.7	-49.5	16.0	0.00e+00	0	53	0	239075328	57	4636
2026-01-03 01:38:51.66	23.86	14.14	-47.3	-49.1	16.4	0.00e+00	0	53	0	241172480	57	4405
2026-01-03 01:38:52.65	23.82	14.24	-47.2	-49.0	16.4	0.00e+00	0	53	0	242221056	57	4344
2026-01-03 01:38:53.64	23.77	14.34	-47.4	-49.2	16.2	0.00e+00	0	53	0	244318208	57	4483
2026-01-03 01:38:54.64	23.72	14.44	-47.4	-49.2	16.2	0.00e+00	0	53	0	246415360	57	4488
2026-01-03 01:38:55.62	23.68	14.54	-47.5	-49.2	16.2	0.00e+00	0	53	0	248512512	57	4489
2026-01-03 01:38:56.62	23.63	14.65	-47.4	-49.2	16.2	0.00e+00	0	53	0	249561088	57	4485
2026-01-03 01:38:57.62	23.58	14.75	-47.6	-49.5	16.0	0.00e+00	0	53	0	251658240	57	4615
2026-01-03 01:38:58.60	23.54	14.85	-47.6	-49.4	16.1	0.00e+00	0	53	0	253755392	57	4581
2026-01-03 01:38:59.59	23.49	14.95	-47.5	-49.3	16.2	0.00e+00	0	53	0	255852544	57	4512
2026-01-03 01:39:00.58	23.44	15.05	-47.8	-49.7	15.8	0.00e+00	0	53	0	257949696	57	4719
2026-01-03 01:39:01.56	23.39	15.15	-47.7	-49.5	15.9	0.00e+00	0	53	0	258998272	57	4624
2026-01-03 01:39:02.56	23.35	15.26	-47.6	-49.4	16.1	0.00e+00	0	53	0	261095424	57	4574
2026-01-03 01:39:03.55	23.30	15.36	-47.7	-49.6	15.9	0.00e+00	0	53	0	263192576	57	4668
2026-01-03 01:39:04.53	23.25	15.47	-47.4	-49.1	16.3	0.00e+00	0	53	0	265289728	57	4416
2026-01-03 01:39:05.52	23.20	15.57	-47.2	-48.9	16.6	0.00e+00	0	53	0	266338304	57	4310
2026-01-03 01:39:06.52	23.15	15.68	-47.3	-49.0	16.5	0.00e+00	0	53	0	268435456	57	4354
2026-01-03 01:39:07.51	23.10	15.78	-47.4	-49.1	16.5	0.00e+00	0	53	0	270532608	57	4410
2026-01-03 01:39:08.50	23.05	15.89	-47.2	-48.9	16.6	0.00e+00	0	53	0	272629760	57	4292
2026-01-03 01:39:09.49	22.99	15.99	-47.2	-48.9	16.6	0.00e+00	0	53	0	273678336	57	4293
2026-01-03 01:39:10.48	22.94	16.10	-47.2	-48.8	16.7	0.00e+00	0	53	0	275775488	57	4270
2026-01-03 01:39:11.47	22.89	16.21	-47.3	-49.0	16.5	0.00e+00	0	53	0	277872640	57	4351
2026-01-03 01:39:12.46	22.84	16.32	-47.1	-48.7	16.7	0.00e+00	0	53	0	279969792	57	4230
2026-01-03 01:39:13.45	22.79	16.42	-47.3	-49.0	16.5	0.00e+00	0	53	0	282066944	57	4362
2026-01-03 01:39:14.44	22.73	16.53	-47.4	-49.1	16.4	0.00e+00	0	54	0	283115520	57	4433
2026-01-03 01:39:15.43	22.68	16.64	-47.2	-48.9	16.6	0.00e+00	0	53	0	285212672	57	4301
2026-01-03 01:39:16.41	22.62	16.75	-47.0	-48.6	16.8	0.00e+00	0	54	0	287309824	57	4187
2026-01-03 01:39:17.39	22.57	16.86	-47.1	-48.7	16.7	0.00e+00	0	53	0	289406976	57	4241
2026-01-03 01:39:18.38	22.52	16.97	-47.0	-48.6	16.9	0.00e+00	0	53	0	290455552	56	4427
2026-01-03 01:39:19.37	22.46	17.08	-47.0	-48.6	16.9	0.00e+00	0	53	0	292552704	56	4400
2026-01-03 01:39:20.36	22.40	17.19	-47.0	-48.6	16.9	0.00e+00	0	53	0	294649856	56	4414
2026-01-03 01:39:21.35	22.35	17.30	-47.1	-48.7	16.8	0.00e+00	0	54	0	296747008	56	4461
2026-01-03 01:39:22.34	22.29	17.41	-47.2	-48.9	16.6	0.00e+00	0	53	0	297795584	56	4548
2026-01-03 01:39:23.33	22.23	17.53	-47.1	-48.8	16.7	0.00e+00	0	54	0	299892736	56	4507
2026-01-03 01:39:24.31	22.18	17.64	-47.0	-48.6	16.9	0.00e+00	0	54	0	301989888	56	4418
2026-01-03 01:39:25.30	22.12	17.75	-47.2	-48.9	16.6	0.00e+00	0	54	0	304087040	56	4590
2026-01-03 01:39:26.30	22.06	17.87	-47.2	-48.9	16.6	0.00e+00	0	54	0	305135616	56	4547
2026-01-03 01:39:27.29	22.00	17.98	-47.2	-48.9	16.6	0.00e+00	0	54	0	307232768	56	4550
2026-01-03 01:39:28.28	21.94	18.10	-47.2	-48.9	16.6	0.00e+00	0	54	0	309329920	56	4555
2026-01-03 01:39:29.27	21.88	18.21	-47.3	-49.0	16.6	0.00e+00	0	54	0	311427072	56	4602
2026-01-03 01:39:30.26	21.82	18.33	-47.4	-49.2	16.4	0.00e+00	0	54	0	313524224	56	4717
2026-01-03 01:39:31.25	21.76	18.45	-47.5	-49.4	16.2	0.00e+00	0	54	0	314572800	57	4567
2026-01-03 01:39:32.24	21.70	18.56	-47.4	-49.2	16.4	0.00e+00	0	54	0	316669952	57	4451
2026-01-03 01:39:33.24	21.64	18.68	-47.5	-49.3	16.3	0.00e+00	0	54	0	318767104	57	4517
2026-01-03 01:39:34.23	21.57	18.80	-47.5	-49.3	16.3	0.00e+00	0	54	0	320864256	57	4535
2026-01-03 01:39:35.23	21.51	18.92	-47.8	-49.7	15.9	0.00e+00	0	54	0	321912832	57	4720
2026-01-03 01:39:36.22	21.45	19.04	-47.7	-49.5	16.0	0.00e+00	0	54	0	324009984	57	4646
2026-01-03 01:39:37.21	21.38	19.16	-47.8	-49.6	16.0	0.00e+00	0	54	0	326107136	57	4696
2026-01-03 01:39:38.20	21.32	19.28	-48.1	-50.1	15.5	0.00e+00	0	54	0	328204288	58	4668
2026-01-03 01:39:39.19	21.25	19.40	-47.7	-49.6	16.1	0.00e+00	0	54	0	330301440	58	4409
2026-01-03 01:39:40.17	21.19	19.52	-47.3	-49.0	16.5	0.00e+00	0	54	0	331350016	57	4382
2026-01-03 01:39:41.16	21.12	19.65	-47.5	-49.2	16.4	0.00e+00	0	54	0	333447168	57	4484
2026-01-03 01:39:42.15	21.05	19.77	-47.2	-48.8	16.8	0.00e+00	0	54	0	335544320	57	4258
2026-01-03 01:39:43.14	20.99	19.89	-47.0	-48.6	17.0	0.00e+00	0	54	0	337641472	57	4174
2026-01-03 01:39:44.13	20.92	20.02	-47.0	-48.6	17.0	0.00e+00	0	54	0	338690048	57	4161
2026-01-03 01:39:45.13	20.85	20.14	-47.1	-48.6	17.0	0.00e+00	0	54	0	340787200	57	4173
2026-01-03 01:39:46.12	20.78	20.27	-47.1	-48.7	16.9	0.00e+00	0	54	0	342884352	57	4218
2026-01-03 01:39:47.10	20.71	20.39	-46.9	-48.4	17.1	0.00e+00	0	54	0	344981504	56	4329
2026-01-03 01:39:48.09	20.64	20.52	-47.0	-48.6	17.0	0.00e+00	0	54	0	346030080	56	4406
2026-01-03 01:39:49.08	20.57	20.64	-47.2	-48.8	16.8	0.00e+00	0	54	0	348127232	56	4528
2026-01-03 01:39:50.07	20.50	20.77	-47.1	-48.7	16.9	0.00e+00	0	54	0	350224384	56	4444
2026-01-03 01:39:51.05	20.43	20.90	-47.4	-49.2	16.4	0.00e+00	0	54	0	352321536	56	4713
2026-01-03 01:39:52.04	20.36	21.03	-47.5	-49.3	16.3	0.00e+00	0	54	0	354418688	57	4533
2026-01-03 01:39:53.03	20.28	21.15	-47.6	-49.3	16.3	0.00e+00	0	54	0	355467264	57	4517
2026-01-03 01:39:54.02	20.21	21.28	-47.9	-49.8	15.8	0.00e+00	0	54	0	357564416	57	4789
2026-01-03 01:39:55.01	20.13	21.41	-47.7	-49.6	16.1	0.00e+00	0	54	0	359661568	58	4393
2026-01-03 01:39:56.00	20.06	21.55	-47.9	-49.8	15.9	0.00e+00	0	54	0	361758720	58	4530
2026-01-03 01:39:56.99	19.98	21.68	-48.1	-50.1	15.5	0.00e+00	0	54	0	362807296	58	4694
2026-01-03 01:39:57.98	19.90	21.81	-48.0	-50.0	15.7	0.00e+00	0	54	0	364904448	58	4606
2026-01-03 01:39:58.97	19.83	21.94	-48.0	-50.1	15.6	0.00e+00	0	54	0	367001600	58	4673
2026-01-03 01:39:59.96	19.75	22.08	-48.4	-50.5	15.2	0.00e+00	0	54	0	369098752	58	4907
2026-01-03 01:40:00.95	19.67	22.21	-48.0	-50.0	15.6	0.00e+00	0	54	0	370147328	58	4632
2026-01-03 01:40:01.94	19.59	22.35	-47.9	-49.8	15.8	0.00e+00	0	54	0	372244480	58	4539
2026-01-03 01:40:02.93	19.51	22.48	-47.8	-49.7	15.9	0.00e+00	0	54	0	374341632	58	4455
2026-01-03 01:40:03.92	19.43	22.62	-47.7	-49.6	16.0	0.00e+00	0	54	0	376438784	58	4424
2026-01-03 01:40:04.91	19.35	22.75	-47.7	-49.6	16.1	0.00e+00	0	54	0	378535936	58	4394
2026-01-03 01:40:05.90	19.26	22.89	-47.6	-49.5	16.2	0.00e+00	0	54	0	379584512	58	4344
2026-01-03 01:40:06.89	19.18	23.03	-47.8	-49.7	16.0	0.00e+00	0	54	0	381681664	58	4452
2026-01-03 01:40:07.88	19.10	23.17	-48.0	-49.9	15.7	0.00e+00	0	54	0	383778816	58	4595
2026-01-03 01:40:08.87	19.01	23.31	-47.7	-49.7	16.0	0.00e+00	0	55	0	385875968	58	4458
2026-01-03 01:40:09.87	18.93	23.45	-47.8	-49.7	15.9	0.00e+00	0	54	0	386924544	58	4480
2026-01-03 01:40:10.86	18.84	23.59	-47.8	-49.7	16.0	0.00e+00	0	54	0	389021696	58	4444
2026-01-03 01:40:11.86	18.75	23.73	-47.7	-49.6	16.0	0.00e+00	0	54	0	391118848	58	4431
2026-01-03 01:40:12.85	18.66	23.88	-48.1	-50.1	15.6	0.00e+00	0	54	0	393216000	58	4659
2026-01-03 01:40:13.84	18.57	24.02	-48.1	-50.1	15.6	0.00e+00	0	55	0	395313152	58	4654
2026-01-03 01:40:14.83	18.48	24.16	-48.0	-50.0	15.7	0.00e+00	0	54	0	396361728	58	4625
2026-01-03 01:40:15.82	18.39	24.31	-48.4	-50.6	15.1	0.00e+00	0	54	0	398458880	58	4956
2026-01-03 01:40:16.81	18.30	24.45	-48.4	-50.6	15.0	7.00e-07	0	55	0	400556032	58	4983
2026-01-03 01:40:17.79	18.21	24.60	-48.3	-50.4	15.3	0.00e+00	0	55	0	402653184	58	4848
2026-01-03 01:40:18.78	18.12	24.74	-48.4	-50.6	15.1	0.00e+00	0	55	0	403701760	59	4685
2026-01-03 01:40:19.77	18.02	24.89	-48.6	-50.9	14.7	0.00e+00	0	54	0	405798912	59	4861
2026-01-03 01:40:20.75	17.93	25.04	-48.8	-51.1	14.6	7.00e-07	0	55	0	407896064	59	4956
2026-01-03 01:40:21.74	17.83	25.18	-48.6	-50.9	14.7	7.00e-07	0	55	0	409993216	59	4864
2026-01-03 01:40:22.73	17.73	25.33	-48.7	-51.0	14.7	0.00e+00	0	55	0	411041792	59	4886
2026-01-03 01:40:23.72	17.64	25.48	-48.7	-51.2	14.6	0.00e+00	0	55	0	413138944	59	4991
2026-01-03 01:40:24.70	17.54	25.63	-48.6	-50.9	14.7	1.50e-06	0	55	0	415236096	59	4858
2026-01-03 01:40:25.70	17.44	25.79	-48.7	-51.0	14.7	0.00e+00	0	55	0	417333248	59	4887
2026-01-03 01:40:26.69	17.34	25.94	-48.8	-51.1	14.6	0.00e+00	0	55	0	418381824	59	4956
2026-01-03 01:40:27.68	17.23	26.09	-48.6	-50.8	14.8	0.00e+00	0	55	0	420478976	59	4800
2026-01-03 01:40:28.67	17.13	26.25	-48.7	-51.0	14.6	0.00e+00	0	55	0	422576128	59	4904
2026-01-03 01:40:29.65	17.03	26.40	-48.5	-50.7	14.9	0.00e+00	0	55	0	424673280	59	4748
2026-01-03 01:40:30.64	16.92	26.56	-48.5	-50.8	14.9	0.00e+00	0	55	0	426770432	59	4773
2026-01-03 01:40:31.63	16.82	26.71	-48.4	-50.6	15.1	0.00e+00	0	55	0	427819008	59	4660
2026-01-03 01:40:32.62	16.71	26.87	-48.4	-50.6	14.9	0.00e+00	0	55	0	429916160	59	4703
2026-01-03 01:40:33.61	16.60	27.03	-48.5	-50.7	14.7	0.00e+00	0	55	0	432013312	59	4743
2026-01-03 01:40:34.60	16.49	27.19	-48.9	-51.5	13.9	7.00e-07	0	55	0	434110464	59	5193
2026-01-03 01:40:35.60	16.38	27.35	-48.8	-51.3	14.0	7.00e-07	0	55	0	435159040	59	5078
2026-01-03 01:40:36.59	16.27	27.51	-48.9	-51.5	13.7	1.50e-06	0	55	0	437256192	59	5186
2026-01-03 01:40:37.58	16.16	27.67	-49.1	-52.0	13.1	2.28e-05	0	55	0	439353344	60	5187
2026-01-03 01:40:38.57	16.04	27.83	-49.2	-52.3	12.8	7.85e-05	0	55	0	441450496	60	5373
2026-01-03 01:40:39.56	15.93	28.00	-49.2	-52.3	12.5	2.00e-04	0	55	0	443547648	60	5380
2026-01-03 01:40:40.55	15.81	28.16	-49.5	-53.1	11.6	3.37e-04	0	55	0	444596224	60	5916
2026-01-03 01:40:41.53	15.69	28.32	-50.1	-54.7	9.9	2.44e-03	0	55	0	446693376	62	6306
2026-01-03 01:40:42.53	15.57	28.49	-50.4	-55.7	8.7	2.71e-02	0	55	0	448790528	62	7087
2026-01-03 01:40:43.52	15.45	28.66	-50.6	-56.5	7.8	4.53e-02	0	55	0	450887680	62	7801
2026-01-03 01:40:44.51	15.33	28.82	-50.7	-57.2	7.1	1.30e-01	0	55	0	451936256	63	7901
2026-01-03 01:40:45.50	15.21	28.99	-50.6	-56.9	7.3	1.35e-01	0	55	0	454033408	63	7710
2026-01-03 01:40:46.49	15.08	29.16	-50.6	-56.9	7.4	1.37e-01	0	55	0	456130560	63	7682
2026-01-03 01:40:47.48	14.96	29.33	-50.8	-57.2	7.2	1.17e-01	0	55	0	458227712	63	7961
2026-01-03 01:40:48.47	14.83	29.50	-50.8	-56.6	7.9	1.00e-01	0	55	0	459276288	63	7447
2026-01-03 01:40:49.46	14.70	29.67	-50.6	-56.0	8.8	4.17e-02	0	55	0	461373440	63	6888
2026-01-03 01:40:50.46	14.57	29.85	-50.5	-55.4	9.4	1.93e-02	0	55	0	463470592	63	6451
2026-01-03 01:40:51.45	14.44	30.02	-50.3	-54.6	10.3	6.86e-03	0	55	0	465567744	63	5884
2026-01-03 01:40:52.44	14.31	30.19	-49.9	-53.6	11.3	2.62e-03	0	55	0	467664896	62	5586
2026-01-03 01:40:53.43	14.17	30.37	-49.7	-53.1	12.0	4.33e-04	0	55	0	468713472	62	5246
2026-01-03 01:40:54.42	14.04	30.54	-49.6	-52.9	12.5	2.68e-04	0	55	0	470810624	62	5108
2026-01-03 01:40:55.41	13.90	30.72	-49.8	-53.0	12.4	2.39e-04	0	55	0	472907776	62	5217
2026-01-03 01:40:56.40	13.76	30.90	-49.7	-52.9	12.6	1.50e-04	0	55	0	475004928	62	5154
2026-01-03 01:40:57.39	13.62	31.08	-49.9	-53.1	12.4	1.27e-04	0	55	0	476053504	62	5272
2026-01-03 01:40:58.38	13.48	31.26	-50.2	-53.8	11.8	1.70e-04	0	55	0	478150656	62	5685
2026-01-03 01:40:59.37	13.34	31.44	-50.2	-53.8	12.0	3.07e-04	0	55	0	480247808	62	5666
2026-01-03 01:41:00.36	13.19	31.62	-50.0	-53.2	12.4	3.41e-04	0	55	0	482344960	62	5316
2026-01-03 01:41:01.36	13.04	31.80	-49.6	-52.5	13.1	7.24e-05	0	55	0	483393536	62	4918
2026-01-03 01:41:02.35	12.89	31.99	-49.6	-52.5	13.2	1.98e-05	0	56	0	485490688	62	4908
2026-01-03 01:41:03.34	12.74	32.17	-49.4	-52.2	13.5	1.67e-05	0	55	0	487587840	61	4997
2026-01-03 01:41:04.33	12.59	32.35	-49.1	-51.6	14.1	6.10e-06	0	55	0	489684992	61	4692
2026-01-03 01:41:05.32	12.44	32.54	-49.0	-51.4	14.3	7.00e-07	0	55	0	491782144	60	4844
2026-01-03 01:41:06.30	12.28	32.73	-49.1	-51.7	14.0	7.00e-07	0	55	0	492830720	60	5000
2026-01-03 01:41:07.29	12.12	32.91	-48.8	-51.2	14.4	3.80e-06	0	55	0	494927872	60	4750
2026-01-03 01:41:08.27	11.97	33.10	-49.1	-51.7	14.0	1.50e-06	0	55	0	497025024	60	4993
2026-01-03 01:41:09.26	11.81	33.29	-49.5	-52.4	13.3	6.10e-06	0	55	0	499122176	61	5102
2026-01-03 01:41:10.25	11.64	33.48	-49.3	-52.0	13.7	6.80e-06	0	55	0	500170752	61	4922
2026-01-03 01:41:11.23	11.48	33.67	-49.4	-52.1	13.6	3.00e-06	0	55	0	502267904	61	4969
2026-01-03 01:41:12.22	11.31	33.86	-49.4	-52.2	13.6	3.81e-05	0	55	0	504365056	61	4991
2026-01-03 01:41:13.21	11.14	34.05	-49.3	-52.1	13.7	2.20e-06	0	55	0	506462208	61	4931
2026-01-03 01:41:14.19	10.97	34.25	-49.3	-52.1	13.5	7.60e-06	0	55	0	507510784	61	4958
2026-01-03 01:41:15.18	10.80	34.44	-49.1	-51.6	14.0	1.44e-05	0	55	0	509607936	61	4685
2026-01-03 01:41:16.18	10.62	34.64	-49.1	-51.6	14.1	0.00e+00	0	56	0	511705088	61	4678
2026-01-03 01:41:17.17	10.44	34.84	-49.5	-52.5	13.3	5.30e-06	0	56	0	513802240	61	5161
2026-01-03 01:41:18.15	10.27	35.03	-49.4	-52.2	13.6	1.37e-05	0	55	0	514850816	61	4996
2026-01-03 01:41:19.14	10.08	35.23	-49.6	-52.7	13.0	1.37e-05	0	55	0	516947968	61	5320
2026-01-03 01:41:20.13	9.90	35.43	-49.7	-52.8	12.8	1.62e-04	0	55	0	519045120	62	5088
2026-01-03 01:41:21.12	9.71	35.63	-50.0	-53.5	12.2	1.56e-04	0	56	0	521142272	62	5474
2026-01-03 01:41:22.10	9.53	35.83	-49.9	-53.4	12.2	2.27e-04	0	55	0	523239424	62	5424
2026-01-03 01:41:23.09	9.33	36.03	-49.9	-53.5	12.2	2.44e-04	0	55	0	524288000	62	5465
2026-01-03 01:41:24.08	9.14	36.24	-49.8	-53.4	12.3	2.24e-04	0	55	0	526385152	62	5423
2026-01-03 01:41:25.07	8.94	36.44	-50.1	-54.0	11.7	3.84e-04	0	55	0	528482304	62	5834
2026-01-03 01:41:26.06	8.74	36.64	-50.4	-54.4	11.2	1.03e-03	0	56	0	530579456	62	6126
2026-01-03 01:41:27.06	8.54	36.85	-50.7	-55.4	10.2	4.41e-03	0	56	0	531628032	63	6494
2026-01-03 01:41:28.04	8.34	37.06	-51.1	-56.5	8.9	1.45e-02	0	56	0	533725184	64	6951
2026-01-03 01:41:29.03	8.13	37.26	-51.1	-56.6	8.9	2.11e-02	0	56	0	535822336	64	6965
2026-01-03 01:41:30.02	7.92	37.47	-51.1	-56.4	9.2	2.31e-02	0	56	0	537919488	64	6802
2026-01-03 01:41:31.01	7.71	37.68	-50.6	-55.3	10.3	1.56e-02	0	56	0	538968064	64	6007
2026-01-03 01:41:32.00	7.50	37.89	-50.5	-54.6	10.9	4.69e-03	0	56	0	541065216	64	5592
2026-01-03 01:41:32.99	7.28	38.10	-50.5	-54.5	11.2	3.07e-03	0	56	0	543162368	63	5817
2026-01-03 01:41:33.98	7.06	38.32	-50.4	-54.0	11.7	1.99e-03	0	56	0	545259520	63	5515
2026-01-03 01:41:34.98	6.83	38.53	-49.7	-52.8	12.8	1.25e-04	0	56	0	547356672	62	5100
2026-01-03 01:41:35.97	6.60	38.74	-49.4	-52.2	13.4	1.37e-05	0	56	0	548405248	62	4756
2026-01-03 01:41:36.96	6.37	38.96	-48.9	-51.5	14.3	3.00e-06	0	56	0	550502400	60	4878
2026-01-03 01:41:37.95	6.14	39.17	-48.8	-51.3	14.4	1.50e-06	0	56	0	552599552	60	4760
2026-01-03 01:41:38.94	5.91	39.39	-49.2	-51.9	13.8	3.80e-06	0	56	0	554696704	60	5135
2026-01-03 01:41:39.93	5.67	39.61	-49.5	-52.6	13.2	1.37e-05	0	56	0	555745280	61	5229
2026-01-03 01:41:40.92	5.42	39.83	-49.9	-53.2	12.6	6.48e-05	0	56	0	557842432	61	5598
2026-01-03 01:41:41.91	5.18	40.04	-50.1	-53.5	12.2	1.49e-04	0	56	0	559939584	62	5505
2026-01-03 01:41:42.91	4.93	40.26	-49.9	-53.4	12.4	1.53e-04	0	56	0	562036736	62	5427
2026-01-03 01:41:43.90	4.67	40.48	-49.4	-52.3	13.5	1.04e-04	0	56	0	564133888	62	4795
2026-01-03 01:41:44.89	4.42	40.71	-49.8	-53.0	12.8	6.71e-05	0	56	0	565182464	62	5172
2026-01-03 01:41:45.87	4.16	40.92	-50.0	-53.6	12.1	1.86e-04	0	56	0	567279616	62	5536
2026-01-03 01:41:46.87	3.89	41.15	-50.0	-53.4	12.4	2.74e-05	0	56	0	569376768	62	5431
2026-01-03 01:41:47.85	3.63	41.37	-50.1	-53.6	12.1	1.43e-04	0	56	0	571473920	62	5561
2026-01-03 01:41:48.85	3.36	41.59	-50.4	-54.3	11.4	5.07e-04	0	56	0	572522496	62	6054
2026-01-03 01:41:49.83	3.08	41.82	-50.5	-54.6	11.1	6.16e-04	0	56	0	574619648	62	6203
2026-01-03 01:41:50.82	2.81	42.04	-50.4	-54.2	11.5	6.69e-04	0	56	0	576716800	62	5984
2026-01-03 01:41:51.82	2.52	42.27	-50.4	-54.1	11.6	8.38e-04	0	56	0	578813952	63	5579
2026-01-03 01:41:52.80	2.24	42.49	-50.6	-54.4	11.3	1.26e-03	0	56	0	579862528	63	5778
2026-01-03 01:41:53.79	1.95	42.72	-50.3	-53.8	12.0	5.02e-04	0	56	0	581959680	63	5378
2026-01-03 01:41:54.78	1.65	42.94	-50.2	-53.6	12.1	4.36e-04	0	56	0	584056832	63	5253
2026-01-03 01:41:55.77	1.35	43.17	-50.2	-53.7	12.1	3.20e-04	0	56	0	586153984	63	5299
2026-01-03 01:41:56.77	1.05	43.40	-50.4	-54.0	11.8	2.29e-04	0	56	0	588251136	63	5498
2026-01-03 01:41:57.76	0.74	43.63	-50.0	-53.3	12.4	6.90e-04	0	56	0	589299712	63	5073
2026-01-03 01:41:58.75	0.43	43.86	-49.5	-52.5	13.2	6.40e-05	0	56	0	591396864	62	4885
2026-01-03 01:41:59.74	0.11	44.09	-49.7	-52.7	13.1	1.52e-05	0	56	0	593494016	61	5305
2026-01-03 01:42:00.73	359.79	44.32	-49.9	-53.3	12.4	7.24e-05	0	56	0	595591168	61	5720
2026-01-03 01:42:01.73	359.46	44.55	-50.0	-53.5	12.2	2.68e-04	0	56	0	596639744	62	5478
2026-01-03 01:42:02.72	359.13	44.78	-49.9	-53.2	12.5	1.72e-04	0	56	0	598736896	62	5318
2026-01-03 01:42:03.71	358.79	45.01	-49.8	-52.7	13.1	4.73e-05	0	56	0	600834048	62	5037
2026-01-03 01:42:04.71	358.45	45.24	-49.6	-52.6	13.1	2.36e-05	0	56	0	602931200	62	4939
2026-01-03 01:42:05.70	358.10	45.47	-50.0	-53.2	12.6	2.21e-05	0	56	0	605028352	62	5338
2026-01-03 01:42:06.69	357.75	45.70	-49.6	-52.6	13.2	5.79e-05	0	56	0	606076928	62	4937
2026-01-03 01:42:07.67	357.40	45.93	-49.5	-52.5	13.3	1.37e-05	0	56	0	608174080	61	5161
2026-01-03 01:42:08.66	357.04	46.16	-49.3	-52.0	13.7	9.90e-06	0	56	0	610271232	61	4910
2026-01-03 01:42:09.65	356.67	46.39	-49.3	-51.9	13.8	3.80e-06	0	56	0	612368384	61	4861
2026-01-03 01:42:10.63	356.30	46.62	-49.5	-52.4	13.3	3.80e-06	0	56	0	613416960	61	5145
2026-01-03 01:42:11.62	355.92	46.85	-49.7	-52.8	12.9	1.67e-05	0	56	0	615514112	61	5396
2026-01-03 01:42:12.60	355.54	47.08	-49.8	-53.1	12.7	4.42e-05	0	56	0	617611264	61	5536
2026-01-03 01:42:13.59	355.15	47.31	-49.6	-52.7	13.0	5.18e-05	0	56	0	619708416	61	5340
2026-01-03 01:42:14.58	354.76	47.54	-49.1	-51.8	13.9	9.10e-06	0	56	0	620756992	61	4793
2026-01-03 01:42:15.58	354.35	47.77	-48.8	-51.3	14.5	7.00e-07	0	56	0	622854144	60	4768
2026-01-03 01:42:16.56	353.95	48.00	-48.7	-51.2	14.5	0.00e+00	0	56	0	624951296	59	5005
2026-01-03 01:42:17.56	353.53	48.23	-48.9	-51.5	14.3	7.00e-07	0	56	0	627048448	59	5201
2026-01-03 01:42:18.55	353.11	48.46	-49.3	-52.2	13.7	2.20e-06	0	56	0	628097024	60	5296
2026-01-03 01:42:19.54	352.69	48.69	-49.4	-52.4	13.3	6.10e-06	0	56	0	630194176	60	5438
2026-01-03 01:42:20.53	352.26	48.92	-49.1	-51.9	13.8	7.60e-06	0	56	0	632291328	60	5134
2026-01-03 01:42:21.51	351.82	49.14	-49.2	-52.1	13.6	1.22e-05	0	56	0	634388480	60	5240
2026-01-03 01:42:22.50	351.38	49.37	-49.1	-52.0	13.7	6.10e-06	0	56	0	636485632	60	5191
2026-01-03 01:42:23.49	350.93	49.59	-49.3	-52.1	13.5	9.10e-06	0	56	0	637534208	60	5275
2026-01-03 01:42:24.48	350.47	49.82	-49.2	-52.0	13.6	2.59e-05	0	56	0	639631360	61	4921
2026-01-03 01:42:25.47	350.00	50.04	-48.7	-51.2	14.5	1.50e-06	0	56	0	641728512	60	4735
2026-01-03 01:42:26.46	349.53	50.26	-48.5	-50.8	15.0	0.00e+00	0	56	0	643825664	59	4788
2026-01-03 01:42:27.45	349.05	50.49	-48.3	-50.5	15.3	0.00e+00	0	56	0	644874240	59	4600
2026-01-03 01:42:28.44	348.56	50.71	-48.1	-50.2	15.5	0.00e+00	0	56	0	646971392	59	4462
2026-01-03 01:42:29.42	348.07	50.92	-48.1	-50.2	15.6	0.00e+00	0	56	0	649068544	58	4711
2026-01-03 01:42:30.41	347.57	51.14	-48.1	-50.1	15.6	0.00e+00	0	56	0	651165696	58	4661
2026-01-03 01:42:31.40	347.06	51.36	-47.8	-49.7	16.0	0.00e+00	0	56	0	652214272	58	4467
2026-01-03 01:42:32.39	346.55	51.58	-47.4	-49.2	16.6	0.00e+00	0	56	0	654311424	57	4469
2026-01-03 01:42:33.38	346.02	51.79	-47.3	-49.1	16.7	0.00e+00	0	56	0	656408576	57	4395
2026-01-03 01:42:34.37	345.49	52.00	-47.1	-48.8	16.9	0.00e+00	0	56	0	658505728	57	4254
2026-01-03 01:42:35.36	344.95	52.21	-47.6	-49.5	16.2	0.00e+00	0	56	0	660602880	57	4615
2026-01-03 01:42:36.35	344.41	52.42	-48.0	-50.1	15.5	0.00e+00	0	56	0	661651456	58	4700
2026-01-03 01:42:37.34	343.85	52.63	-47.8	-49.9	15.8	0.00e+00	0	56	0	663748608	58	4568
2026-01-03 01:42:38.33	343.29	52.83	-47.4	-49.2	16.5	0.00e+00	0	56	0	665845760	58	4240
2026-01-03 01:42:39.32	342.72	53.04	-47.5	-49.3	16.5	0.00e+00	0	56	0	667942912	57	4497
2026-01-03 01:42:40.31	342.14	53.24	-47.8	-49.7	16.0	0.00e+00	0	56	0	668991488	57	4749
2026-01-03 01:42:41.30	341.56	53.44	-48.2	-50.4	15.5	0.00e+00	0	56	0	671088640	58	4833
2026-01-03 01:42:42.29	340.96	53.63	-48.8	-51.2	14.6	0.00e+00	0	56	0	673185792	59	5006
2026-01-03 01:42:43.28	340.36	53.83	-48.8	-51.3	14.6	0.00e+00	0	56	0	675282944	59	5058
2026-01-03 01:42:44.26	339.76	54.02	-49.1	-51.8	14.0	0.00e+00	0	56	0	677380096	60	5099
2026-01-03 01:42:45.25	339.14	54.21	-49.1	-51.9	13.9	3.00e-06	0	57	0	678428672	60	5103
2026-01-03 01:42:46.25	338.50	54.40	-48.8	-51.2	14.6	2.20e-06	0	56	0	680525824	60	4721
2026-01-03 01:42:47.23	337.88	54.58	-48.7	-51.2	14.7	7.00e-07	0	56	0	682622976	60	4725
2026-01-03 01:42:48.22	337.23	54.76	-48.4	-50.7	15.0	0.00e+00	0	56	0	684720128	60	4488
2026-01-03 01:42:49.21	336.58	54.94	-47.6	-49.5	16.3	0.00e+00	0	56	0	685768704	58	4343
2026-01-03 01:42:50.21	335.91	55.11	-46.9	-48.4	17.3	0.00e+00	0	56	0	687865856	56	4311
2026-01-03 01:42:51.19	335.25	55.28	-46.9	-48.5	17.2	0.00e+00	0	56	0	689963008	56	4341
2026-01-03 01:42:52.18	334.58	55.45	-47.7	-49.6	16.1	0.00e+00	0	56	0	692060160	57	4677
2026-01-03 01:42:53.17	333.89	55.61	-48.0	-50.1	15.7	0.00e+00	0	56	0	693108736	58	4653
2026-01-03 01:42:54.16	333.20	55.77	-47.8	-49.7	16.1	0.00e+00	0	56	0	695205888	58	4468
2026-01-03 01:42:55.15	332.50	55.93	-47.5	-49.2	16.5	0.00e+00	0	56	0	697303040	58	4241
2026-01-03 01:42:56.15	331.79	56.08	-47.9	-49.9	15.8	0.00e+00	0	56	0	699400192	58	4571
2026-01-03 01:42:57.14	331.07	56.23	-48.3	-50.4	15.3	0.00e+00	0	56	0	701497344	58	4865
2026-01-03 01:42:58.13	330.35	56.38	-49.0	-51.6	14.3	7.00e-07	0	56	0	702545920	59	5269
2026-01-03 01:42:59.12	329.62	56.52	-49.6	-52.9	12.9	2.20e-06	0	56	0	704643072	60	5741
2026-01-03 01:43:00.12	328.87	56.66	-49.4	-52.6	13.2	3.20e-05	0	57	0	706740224	61	5257
2026-01-03 01:43:01.10	328.13	56.79	-48.7	-51.2	14.5	4.50e-06	0	56	0	708837376	60	4733
2026-01-03 01:43:02.09	327.38	56.92	-47.8	-49.8	16.0	0.00e+00	0	56	0	709885952	58	4502
2026-01-03 01:43:03.09	326.61	57.04	-47.4	-49.3	16.4	0.00e+00	0	57	0	711983104	57	4518
2026-01-03 01:43:04.07	325.86	57.16	-47.9	-49.9	15.8	0.00e+00	0	56	0	714080256	57	4870
2026-01-03 01:43:05.07	325.08	57.28	-48.2	-50.4	15.3	0.00e+00	0	56	0	716177408	58	4870
2026-01-03 01:43:06.06	324.30	57.38	-48.4	-50.7	15.0	0.00e+00	0	56	0	717225984	58	5017
2026-01-03 01:43:07.05	323.51	57.49	-48.1	-50.2	15.5	0.00e+00	0	56	0	719323136	58	4753
2026-01-03 01:43:08.04	322.72	57.59	-47.2	-49.0	16.6	0.00e+00	0	56	0	721420288	57	4369
2026-01-03 01:43:09.03	321.92	57.68	-46.6	-48.1	17.6	0.00e+00	0	56	0	723517440	56	4169
2026-01-03 01:43:10.02	321.12	57.77	-46.6	-48.1	17.5	0.00e+00	0	56	0	725614592	56	4172
2026-01-03 01:43:11.01	320.31	57.86	-46.9	-48.4	17.2	0.00e+00	0	56	0	726663168	56	4330
2026-01-03 01:43:12.00	319.50	57.94	-46.8	-48.3	17.3	0.00e+00	0	56	0	728760320	56	4289
2026-01-03 01:43:12.99	318.68	58.01	-47.7	-49.6	16.0	0.00e+00	0	56	0	730857472	57	4703
2026-01-03 01:43:13.97	317.87	58.08	-48.4	-50.9	14.8	0.00e+00	0	56	0	732954624	58	5129
2026-01-03 01:43:14.96	317.04	58.14	-48.5	-51.0	14.8	0.00e+00	0	56	0	734003200	58	5164
2026-01-03 01:43:15.95	316.21	58.20	-47.8	-49.9	15.9	0.00e+00	0	56	0	736100352	58	4591
2026-01-03 01:43:16.95	315.37	58.25	-47.1	-48.9	16.8	0.00e+00	0	56	0	738197504	57	4302
2026-01-03 01:43:17.94	314.53	58.29	-46.4	-47.9	17.7	0.00e+00	0	57	0	740294656	56	4098
2026-01-03 01:43:18.92	313.70	58.33	-46.0	-47.4	18.1	0.00e+00	0	56	0	742391808	55	4080
2026-01-03 01:43:19.91	312.86	58.37	-46.8	-48.4	17.3	0.00e+00	0	56	0	743440384	55	4558
2026-01-03 01:43:20.90	312.02	58.39	-46.8	-48.3	17.3	0.00e+00	0	56	0	745537536	55	4543
2026-01-03 01:43:21.90	311.17	58.42	-46.7	-48.2	17.3	0.00e+00	0	57	0	747634688	55	4491
2026-01-03 01:43:22.89	310.32	58.43	-46.7	-48.2	17.4	0.00e+00	0	56	0	749731840	55	4482
2026-01-03 01:43:23.88	309.47	58.44	-46.2	-47.6	18.0	0.00e+00	0	56	0	750780416	55	4160
2026-01-03 01:43:24.87	308.63	58.45	-45.9	-47.2	18.4	0.00e+00	0	57	0	752877568	54	4201
2026-01-03 01:43:25.86	307.78	58.45	-45.7	-46.9	18.6	0.00e+00	0	56	0	754974720	54	4086
2026-01-03 01:43:26.85	306.93	58.44	-45.7	-46.9	18.7	0.00e+00	0	56	0	757071872	54	4067
2026-01-03 01:43:27.84	306.08	58.43	-45.5	-46.7	18.8	0.00e+00	0	56	0	758120448	54	3970
2026-01-03 01:43:28.82	305.25	58.41	-45.2	-46.3	19.1	0.00e+00	0	56	0	760217600	53	4023
2026-01-03 01:43:29.81	304.40	58.39	-45.5	-46.7	18.7	0.00e+00	0	56	0	762314752	53	4213
2026-01-03 01:43:30.79	303.57	58.36	-46.1	-47.6	18.0	0.00e+00	0	57	0	764411904	54	4404
2026-01-03 01:43:31.78	302.73	58.32	-46.1	-47.6	17.8	0.00e+00	0	56	0	765460480	54	4434
2026-01-03 01:43:32.77	301.89	58.28	-45.7	-47.0	18.4	0.00e+00	0	56	0	767557632	54	4122
2026-01-03 01:43:33.76	301.05	58.23	-45.7	-47.0	18.5	0.00e+00	0	56	0	769654784	54	4123
2026-01-03 01:43:34.75	300.22	58.18	-45.2	-46.4	19.0	0.00e+00	0	56	0	771751936	53	4057
2026-01-03 01:43:35.74	299.39	58.12	-45.3	-46.5	19.0	0.00e+00	0	57	0	773849088	52	4350
2026-01-03 01:43:36.73	298.57	58.06	-45.7	-47.0	18.6	0.00e+00	0	57	0	774897664	53	4345
2026-01-03 01:43:37.73	297.74	57.99	-45.6	-46.9	18.6	0.00e+00	0	57	0	776994816	53	4314
2026-01-03 01:43:38.71	296.93	57.91	-45.2	-46.4	19.0	0.00e+00	0	57	0	779091968	53	4089
2026-01-03 01:43:39.70	296.12	57.83	-45.1	-46.3	19.1	0.00e+00	0	57	0	781189120	53	4042
2026-01-03 01:43:40.69	295.31	57.75	-45.2	-46.3	19.1	0.00e+00	0	57	0	782237696	53	4039
2026-01-03 01:43:41.68	294.51	57.66	-45.4	-46.6	18.8	0.00e+00	0	56	0	784334848	53	4185
2026-01-03 01:43:42.67	293.71	57.56	-45.9	-47.2	18.3	0.00e+00	0	57	0	786432000	53	4462
2026-01-03 01:43:43.66	292.92	57.46	-46.3	-47.8	17.8	0.00e+00	0	56	0	788529152	54	4497
2026-01-03 01:43:44.65	292.14	57.36	-46.0	-47.4	18.1	0.00e+00	0	56	0	789577728	54	4304
2026-01-03 01:43:45.63	291.37	57.25	-46.9	-48.5	17.1	0.00e+00	0	56	0	791674880	55	4629
2026-01-03 01:43:46.62	290.60	57.13	-46.8	-48.3	17.3	0.00e+00	0	57	0	793772032	56	4278
2026-01-03 01:43:47.61	289.83	57.01	-46.2	-47.5	18.0	0.00e+00	0	56	0	795869184	55	4142
2026-01-03 01:43:48.60	289.07	56.88	-46.5	-47.9	17.7	0.00e+00	0	57	0	797966336	55	4337
2026-01-03 01:43:49.59	288.32	56.76	-46.9	-48.5	17.2	0.00e+00	0	56	0	799014912	56	4351
2026-01-03 01:43:50.57	287.58	56.62	-47.2	-48.9	16.9	0.00e+00	0	57	0	801112064	56	4579
2026-01-03 01:43:51.55	286.85	56.49	-47.4	-49.2	16.6	0.00e+00	0	56	0	803209216	57	4445
2026-01-03 01:43:52.54	286.12	56.34	-47.5	-49.2	16.5	0.00e+00	0	56	0	805306368	57	4493
2026-01-03 01:43:53.53	285.40	56.20	-47.5	-49.2	16.5	0.00e+00	0	57	0	806354944	57	4488
2026-01-03 01:43:54.53	284.68	56.05	-47.6	-49.4	16.4	0.00e+00	0	56	0	808452096	57	4567
2026-01-03 01:43:55.51	283.98	55.89	-47.4	-49.0	16.8	0.00e+00	0	56	0	810549248	57	4373
2026-01-03 01:43:56.51	283.28	55.73	-48.6	-50.8	15.0	0.00e+00	0	57	0	812646400	59	4809
2026-01-03 01:43:57.50	282.59	55.57	-49.6	-52.5	13.3	2.20e-06	0	57	0	813694976	60	5502
2026-01-03 01:43:58.49	281.90	55.41	-49.2	-51.9	13.9	3.96e-05	0	56	0	815792128	61	4861
2026-01-03 01:43:59.48	281.23	55.24	-48.6	-50.9	14.9	1.50e-06	0	56	0	817889280	60	4555
2026-01-03 01:44:00.47	280.56	55.07	-48.3	-50.3	15.4	0.00e+00	0	56	0	819986432	59	4543
2026-01-03 01:44:01.46	279.90	54.89	-47.4	-49.1	16.7	0.00e+00	0	56	0	822083584	58	4168
2026-01-03 01:44:02.46	279.25	54.71	-47.6	-49.3	16.6	0.00e+00	0	57	0	823132160	57	4496
2026-01-03 01:44:03.45	278.60	54.53	-48.0	-49.9	15.8	0.00e+00	0	57	0	825229312	57	4868
2026-01-03 01:44:04.44	277.97	54.34	-47.3	-49.0	16.7	0.00e+00	0	57	0	827326464	57	4353
2026-01-03 01:44:05.44	277.34	54.16	-45.9	-47.2	18.5	0.00e+00	0	57	0	829423616	54	4194
2026-01-03 01:44:06.42	276.73	53.97	-45.9	-47.2	18.4	0.00e+00	0	57	0	830472192	54	4209
2026-01-03 01:44:07.41	276.12	53.78	-46.5	-48.0	17.7	0.00e+00	0	57	0	832569344	54	4651
2026-01-03 01:44:08.40	275.52	53.58	-47.0	-48.5	17.2	0.00e+00	0	56	0	834666496	56	4388
2026-01-03 01:44:09.40	274.92	53.38	-47.4	-49.3	16.5	0.00e+00	0	57	0	836763648	56	4766
2026-01-03 01:44:10.38	274.34	53.18	-47.6	-49.4	16.3	0.00e+00	0	57	0	838860800	57	4568
2026-01-03 01:44:11.38	273.76	52.98	-47.5	-49.3	16.5	0.00e+00	0	57	0	839909376	57	4507
2026-01-03 01:44:12.37	273.19	52.77	-47.2	-48.8	17.0	0.00e+00	0	57	0	842006528	57	4283
2026-01-03 01:44:13.36	272.63	52.57	-47.3	-49.0	16.8	0.00e+00	0	57	0	844103680	57	4353
2026-01-03 01:44:14.35	272.07	52.36	-47.1	-48.7	17.1	0.00e+00	0	57	0	846200832	57	4223
2026-01-03 01:44:15.34	271.53	52.15	-47.5	-49.2	16.5	0.00e+00	0	57	0	847249408	57	4484
2026-01-03 01:44:16.32	271.00	51.94	-47.8	-49.6	16.2	0.00e+00	0	57	0	849346560	57	4682
2026-01-03 01:44:17.32	270.46	51.72	-47.8	-49.7	16.2	0.00e+00	0	56	0	851443712	57	4732
2026-01-03 01:44:18.30	269.95	51.51	-47.8	-49.8	16.0	0.00e+00	0	57	0	853540864	57	4786
2026-01-03 01:44:19.30	269.43	51.29	-48.1	-50.2	15.6	0.00e+00	0	56	0	854589440	58	4718
2026-01-03 01:44:20.28	268.92	51.08	-48.4	-50.6	15.2	0.00e+00	0	56	0	856686592	59	4663
2026-01-03 01:44:21.28	268.42	50.86	-48.6	-50.8	15.1	7.00e-07	0	57	0	858783744	59	4803
2026-01-03 01:44:22.27	267.93	50.64	-49.2	-51.9	13.9	8.30e-06	0	57	0	860880896	60	5146
2026-01-03 01:44:23.26	267.44	50.41	-48.2	-50.2	15.5	0.00e+00	0	57	0	861929472	59	4489
2026-01-03 01:44:24.24	266.97	50.19	-48.2	-50.2	15.6	0.00e+00	0	57	0	864026624	59	4468
2026-01-03 01:44:25.23	266.50	49.97	-48.4	-50.6	15.1	0.00e+00	0	57	0	866123776	59	4690
2026-01-03 01:44:26.22	266.03	49.75	-49.1	-51.7	14.2	7.00e-07	0	57	0	868220928	59	5331
2026-01-03 01:44:27.21	265.57	49.52	-49.1	-51.7	14.1	0.00e+00	0	57	0	870318080	60	5031
2026-01-03 01:44:28.20	265.12	49.29	-48.8	-51.5	14.3	0.00e+00	0	57	0	871366656	60	4888
2026-01-03 01:44:29.19	264.68	49.07	-48.8	-51.3	14.5	7.00e-07	0	57	0	873463808	60	4791
2026-01-03 01:44:30.17	264.25	48.84	-48.6	-51.0	14.7	1.50e-06	0	57	0	875560960	60	4606
2026-01-03 01:44:31.16	263.82	48.61	-49.0	-51.5	14.4	0.00e+00	0	57	0	877658112	60	4871
2026-01-03 01:44:32.16	263.39	48.38	-49.6	-52.5	13.2	8.30e-06	0	57	0	878706688	61	5210
2026-01-03 01:44:33.14	262.97	48.15	-49.5	-52.3	13.5	1.29e-05	0	57	0	880803840	61	5077
2026-01-03 01:44:34.13	262.56	47.92	-49.5	-52.2	13.7	6.10e-06	0	57	0	882900992	61	5041
2026-01-03 01:44:35.12	262.15	47.69	-49.6	-52.5	13.4	6.10e-06	0	57	0	884998144	61	5160
2026-01-03 01:44:36.11	261.75	47.46	-50.0	-53.2	12.5	8.23e-05	0	57	0	887095296	62	5329
2026-01-03 01:44:37.10	261.36	47.23	-49.7	-52.5	13.2	3.50e-05	0	57	0	888143872	62	4910
2026-01-03 01:44:38.10	260.97	47.00	-49.7	-52.5	13.3	2.05e-05	0	57	0	890241024	62	4910
2026-01-03 01:44:39.09	260.59	46.77	-49.8	-52.8	13.0	1.90e-05	0	57	0	892338176	62	5047
2026-01-03 01:44:40.07	260.21	46.54	-50.1	-53.3	12.5	1.11e-04	0	57	0	894435328	62	5390
2026-01-03 01:44:41.07	259.84	46.31	-50.6	-54.5	11.2	5.14e-04	0	57	0	895483904	63	5837
2026-01-03 01:44:42.05	259.47	46.08	-51.0	-55.6	10.0	7.28e-03	0	57	0	897581056	64	6212
2026-01-03 01:44:43.04	259.11	45.85	-51.0	-55.6	10.1	1.58e-02	0	57	0	899678208	64	6228
2026-01-03 01:44:44.04	258.76	45.61	-50.9	-55.2	10.4	9.69e-03	0	57	0	901775360	64	5971
2026-01-03 01:44:45.03	258.41	45.38	-50.7	-54.6	11.2	1.73e-03	0	57	0	902823936	64	5531
2026-01-03 01:44:46.03	258.06	45.15	-51.2	-55.8	9.9	7.29e-03	0	57	0	904921088	64	6349
2026-01-03 01:44:47.02	257.72	44.92	-51.0	-55.3	10.3	7.55e-03	0	57	0	907018240	64	6040
2026-01-03 01:44:48.01	257.38	44.69	-50.3	-53.8	12.0	8.48e-04	0	57	0	909115392	63	5388
2026-01-03 01:44:49.00	257.05	44.46	-49.5	-52.2	13.6	5.79e-05	0	57	0	911212544	62	4713
2026-01-03 01:44:49.99	256.73	44.23	-48.6	-50.9	14.8	2.20e-06	0	57	0	912261120	60	4548
2026-01-03 01:44:50.98	256.41	44.00	-48.0	-49.9	15.9	0.00e+00	0	57	0	914358272	59	4331
2026-01-03 01:44:51.97	256.09	43.77	-47.7	-49.5	16.4	0.00e+00	0	57	0	916455424	58	4351
2026-01-03 01:44:52.96	255.78	43.54	-47.8	-49.6	16.1	0.00e+00	0	57	0	918552576	58	4411
2026-01-03 01:44:53.94	255.48	43.31	-48.2	-50.2	15.6	0.00e+00	0	57	0	919601152	58	4725
2026-01-03 01:44:54.93	255.17	43.08	-48.6	-50.9	14.9	0.00e+00	0	57	0	921698304	59	4869
2026-01-03 01:44:55.92	254.87	42.86	-49.2	-51.9	13.9	7.00e-07	0	57	0	923795456	60	5135
2026-01-03 01:44:56.91	254.58	42.63	-49.4	-52.3	13.5	4.50e-06	0	57	0	925892608	60	5369
2026-01-03 01:44:57.90	254.29	42.40	-49.9	-53.1	12.7	3.58e-05	0	57	0	926941184	61	5541
2026-01-03 01:44:58.89	254.00	42.18	-50.3	-54.1	11.6	2.39e-04	0	57	0	929038336	62	5873
2026-01-03 01:44:59.89	253.72	41.95	-50.6	-54.6	11.2	1.37e-03	0	57	0	931135488	63	5898
2026-01-03 01:45:00.88	253.44	41.72	-50.1	-53.5	12.0	1.06e-03	0	57	0	933232640	63	5215
2026-01-03 01:45:01.87	253.17	41.50	-49.8	-52.8	13.0	9.68e-05	0	57	0	935329792	62	5052
2026-01-03 01:45:02.87	252.89	41.27	-49.7	-52.6	13.2	2.97e-05	0	57	0	936378368	62	4981
2026-01-03 01:45:03.86	252.63	41.05	-49.6	-52.4	13.4	1.44e-05	0	57	0	938475520	62	4869
2026-01-03 01:45:04.85	252.37	40.83	-50.0	-53.3	12.6	1.23e-04	0	57	0	940572672	62	5342
2026-01-03 01:45:05.84	252.11	40.61	-49.7	-52.6	13.1	8.16e-05	0	57	0	942669824	62	4977
2026-01-03 01:45:06.83	251.85	40.39	-49.8	-52.9	12.8	8.39e-05	0	57	0	943718400	62	5143
2026-01-03 01:45:07.82	251.60	40.17	-49.8	-53.1	12.6	8.54e-05	0	57	0	945815552	62	5242
2026-01-03 01:45:08.81	251.35	39.95	-50.2	-53.8	11.8	9.68e-05	0	57	0	947912704	62	5689
2026-01-03 01:45:09.80	251.10	39.73	-50.3	-54.1	11.7	2.01e-04	0	57	0	950009856	62	5869
2026-01-03 01:45:10.79	250.86	39.51	-50.5	-54.7	11.0	1.88e-03	0	57	0	952107008	63	5959
2026-01-03 01:45:11.79	250.62	39.29	-50.6	-54.6	11.2	2.57e-03	0	57	0	953155584	63	5879
2026-01-03 01:45:12.77	250.39	39.08	-50.6	-54.7	11.0	4.35e-03	0	57	0	955252736	63	5933
2026-01-03 01:45:13.76	250.16	38.86	-51.0	-55.6	10.1	3.27e-03	0	57	0	957349888	63	6626
2026-01-03 01:45:14.75	249.93	38.65	-50.9	-55.7	9.9	1.09e-02	0	57	0	959447040	64	6314
2026-01-03 01:45:15.73	249.70	38.43	-50.4	-54.3	11.5	2.36e-03	0	57	0	960495616	63	5699
2026-01-03 01:45:16.73	249.48	38.22	-50.3	-53.9	11.9	9.13e-04	0	57	0	962592768	63	5448
2026-01-03 01:45:17.72	249.26	38.01	-50.5	-54.1	11.7	4.45e-04	0	57	0	964689920	63	5558
2026-01-03 01:45:18.70	249.04	37.80	-50.7	-54.7	11.1	1.44e-03	0	57	0	966787072	63	5954
2026-01-03 01:45:19.69	248.83	37.59	-50.8	-54.7	11.0	3.21e-03	0	57	0	967835648	63	5966
2026-01-03 01:45:20.68	248.62	37.38	-50.9	-55.0	10.7	2.33e-03	0	57	0	969932800	63	6166
2026-01-03 01:45:21.66	248.41	37.17	-50.9	-55.1	10.6	3.42e-03	0	57	0	972029952	63	6269
2026-01-03 01:45:22.65	248.20	36.96	-50.8	-55.0	10.7	3.78e-03	0	57	0	974127104	64	5811
2026-01-03 01:45:23.64	248.00	36.76	-50.5	-54.4	11.2	3.27e-03	0	57	0	975175680	64	5464
2026-01-03 01:45:24.63	247.80	36.55	-50.6	-54.5	11.1	2.02e-03	0	57	0	977272832	64	5517
2026-01-03 01:45:25.62	247.60	36.34	-50.8	-55.1	10.5	4.91e-03	0	57	0	979369984	64	5898
2026-01-03 01:45:26.61	247.40	36.14	-50.9	-55.2	10.5	3.21e-03	0	57	0	981467136	64	5935
2026-01-03 01:45:27.60	247.21	35.94	-50.5	-54.1	11.6	4.25e-03	0	57	0	983564288	64	5223
2026-01-03 01:45:28.58	247.02	35.74	-50.0	-53.3	12.5	4.28e-04	0	57	0	984612864	63	5074
2026-01-03 01:45:29.56	246.83	35.54	-49.9	-53.0	12.8	9.68e-05	0	57	0	986710016	63	4904
2026-01-03 01:45:30.55	246.65	35.34	-50.0	-53.1	12.7	9.76e-05	0	57	0	988807168	62	5278
2026-01-03 01:45:31.54	246.46	35.14	-50.4	-54.1	11.7	3.37e-04	0	57	0	990904320	62	5908
2026-01-03 01:45:32.53	246.28	34.94	-50.8	-54.8	11.0	1.79e-03	0	57	0	991952896	63	6003
2026-01-03 01:45:33.52	246.10	34.74	-50.6	-54.4	11.3	1.30e-03	0	57	0	994050048	63	5770
2026-01-03 01:45:34.51	245.92	34.54	-50.1	-53.3	12.4	2.34e-04	0	57	0	996147200	63	5089
2026-01-03 01:45:35.51	245.74	34.34	-50.3	-53.7	12.2	1.22e-04	0	57	0	998244352	63	5303
2026-01-03 01:45:36.50	245.57	34.15	-50.4	-54.1	11.7	7.88e-04	0	57	0	999292928	63	5531
2026-01-03 01:45:37.48	245.40	33.96	-50.6	-54.7	11.0	1.19e-03	0	57	0	1001390080	63	5992
2026-01-03 01:45:38.47	245.23	33.76	-50.6	-54.7	11.1	2.76e-03	0	57	0	1003487232	63	5934
2026-01-03 01:45:39.46	245.07	33.57	-50.1	-53.7	12.1	5.08e-04	0	57	0	1005584384	63	5327
2026-01-03 01:45:40.46	244.90	33.38	-49.7	-52.8	13.0	5.64e-05	0	57	0	1007681536	62	5074
2026-01-03 01:45:41.45	244.74	33.19	-49.2	-52.0	13.8	4.50e-06	0	57	0	1008730112	61	4890
2026-01-03 01:45:42.45	244.57	32.99	-49.6	-52.6	13.2	1.29e-05	0	57	0	1010827264	61	5263
2026-01-03 01:45:43.44	244.41	32.81	-49.9	-53.2	12.5	3.05e-05	0	57	0	1012924416	61	5639
2026-01-03 01:45:44.43	244.26	32.62	-50.2	-53.8	12.0	2.03e-04	0	57	0	1015021568	62	5681
2026-01-03 01:45:45.42	244.10	32.43	-49.6	-52.6	13.2	5.56e-05	0	57	0	1016070144	62	4954
2026-01-03 01:45:46.41	243.95	32.24	-49.1	-51.7	14.1	3.80e-06	0	57	0	1018167296	61	4738
2026-01-03 01:45:47.40	243.80	32.06	-48.4	-50.6	15.2	7.00e-07	0	57	0	1020264448	60	4419
2026-01-03 01:45:48.39	243.64	31.87	-48.4	-50.4	15.4	0.00e+00	0	57	0	1022361600	59	4578
2026-01-03 01:45:49.39	243.49	31.69	-48.6	-50.8	15.0	0.00e+00	0	57	0	1024458752	59	4799
2026-01-03 01:45:50.37	243.35	31.51	-49.2	-51.7	14.1	0.00e+00	0	57	0	1025507328	60	5037
2026-01-03 01:45:51.37	243.20	31.33	-49.5	-52.5	13.3	1.52e-05	0	57	0	1027604480	60	5478
2026-01-03 01:45:52.36	243.06	31.15	-49.4	-52.3	13.5	1.29e-05	0	57	0	1029701632	61	5069
2026-01-03 01:45:53.35	242.92	30.97	-49.3	-52.0	13.7	1.52e-05	0	57	0	1031798784	61	4896
2026-01-03 01:45:54.35	242.78	30.79	-48.7	-50.9	14.8	7.00e-07	0	57	0	1032847360	60	4589
2026-01-03 01:45:55.33	242.64	30.61	-48.4	-50.6	15.1	0.00e+00	0	57	0	1034944512	60	4395
2026-01-03 01:45:56.32	242.50	30.43	-48.6	-50.7	15.0	0.00e+00	0	57	0	1037041664	59	4746
2026-01-03 01:45:57.31	242.37	30.26	-49.0	-51.4	14.4	0.00e+00	0	57	0	1039138816	59	5117
2026-01-03 01:45:58.30	242.23	30.08	-49.0	-51.4	14.4	1.50e-06	0	57	0	1040187392	60	4847
2026-01-03 01:45:59.29	242.10	29.91	-49.0	-51.5	14.3	2.20e-06	0	57	0	1042284544	60	4897
2026-01-03 01:46:00.27	241.97	29.74	-49.0	-51.4	14.4	0.00e+00	0	57	0	1044381696	60	4830
2026-01-03 01:46:01.27	241.84	29.56	-48.7	-51.1	14.7	7.00e-07	0	57	0	1046478848	60	4676
2026-01-03 01:46:02.26	241.71	29.39	-48.5	-50.7	15.1	0.00e+00	0	57	0	1048576000	60	4468
2026-01-03 01:46:03.26	241.58	29.22	-48.7	-51.0	14.8	0.00e+00	0	57	0	1049624576	60	4612
2026-01-03 01:46:04.25	241.46	29.05	-48.9	-51.3	14.5	0.00e+00	0	57	0	1051721728	60	4778
2026-01-03 01:46:05.23	241.33	28.88	-48.9	-51.3	14.5	7.00e-07	0	57	0	1053818880	60	4790
2026-01-03 01:46:06.23	241.21	28.71	-49.5	-52.3	13.5	6.10e-06	0	57	0	1055916032	60	5344
2026-01-03 01:46:07.21	241.09	28.54	-49.6	-52.4	13.4	1.52e-05	0	57	0	1056964608	60	5456
2026-01-03 01:46:08.21	240.97	28.38	-49.9	-53.0	12.8	4.27e-05	0	57	0	1059061760	61	5499
2026-01-03 01:46:09.20	240.85	28.21	-49.6	-52.5	13.2	5.34e-05	0	57	0	1061158912	61	5201
2026-01-03 01:46:10.18	240.73	28.05	-49.5	-52.2	13.4	9.10e-06	0	57	0	1063256064	61	5038
2026-01-03 01:46:11.17	240.61	27.88	-49.1	-51.6	14.2	7.60e-06	0	57	0	1065353216	61	4695
2026-01-03 01:46:12.16	240.50	27.72	-49.1	-51.7	14.1	4.50e-06	0	57	0	1066401792	61	4719
2026-01-03 01:46:13.15	240.39	27.56	-49.3	-52.1	13.7	7.00e-07	0	57	0	1068498944	61	4928
2026-01-03 01:46:14.14	240.27	27.40	-49.3	-52.1	13.7	7.60e-06	0	57	0	1070596096	61	4936
2026-01-03 01:46:15.13	240.16	27.24	-49.4	-52.1	13.7	4.50e-06	0	57	0	1072693248	61	4937
2026-01-03 01:46:16.12	240.05	27.08	-49.1	-51.6	14.1	3.80e-06	0	57	0	1073741824	61	4665
2026-01-03 01:46:17.11	239.94	26.92	-49.0	-51.4	14.3	2.20e-06	0	57	0	1075838976	61	4591
2026-01-03 01:46:18.10	239.83	26.76	-48.6	-50.8	14.9	1.50e-06	0	57	0	1077936128	60	4529
2026-01-03 01:46:19.09	239.72	26.60	-48.6	-50.7	15.1	7.00e-07	0	57	0	1080033280	59	4751
2026-01-03 01:46:20.08	239.62	26.45	-48.4	-50.5	15.3	0.00e+00	0	57	0	1081081856	59	4599
2026-01-03 01:46:21.07	239.51	26.29	-48.1	-50.0	15.8	0.00e+00	0	57	0	1083179008	59	4346
2026-01-03 01:46:22.06	239.41	26.13	-48.3	-50.3	15.5	0.00e+00	0	57	0	1085276160	59	4523
2026-01-03 01:46:23.05	239.31	25.98	-48.4	-50.3	15.5	0.00e+00	0	57	0	1087373312	59	4522
2026-01-03 01:46:24.04	239.20	25.83	-48.7	-50.8	15.0	0.00e+00	0	57	0	1088421888	59	4805
2026-01-03 01:46:25.03	239.10	25.67	-48.9	-51.3	14.6	0.00e+00	0	57	0	1090519040	59	5050
2026-01-03 01:46:26.03	239.00	25.52	-49.3	-51.9	13.9	7.00e-07	0	57	0	1092616192	60	5111
2026-01-03 01:46:27.02	238.90	25.37	-49.4	-52.1	13.7	6.10e-06	0	57	0	1094713344	60	5248
2026-01-03 01:46:28.01	238.80	25.22	-49.8	-52.8	13.1	1.37e-05	0	57	0	1096810496	61	5342
2026-01-03 01:46:29.00	238.71	25.07	-49.5	-52.2	13.6	1.44e-05	0	57	0	1097859072	61	5020
2026-01-03 01:46:29.99	238.61	24.92	-49.3	-51.9	14.0	7.60e-06	0	57	0	1099956224	61	4837
2026-01-03 01:46:30.97	238.52	24.77	-49.2	-51.7	14.1	3.00e-06	0	57	0	1102053376	61	4732
2026-01-03 01:46:31.96	238.42	24.63	-49.4	-51.9	13.9	7.00e-07	0	57	0	1104150528	61	4853
2026-01-03 01:46:32.94	238.33	24.48	-49.4	-52.0	13.8	2.20e-06	0	57	0	1105199104	61	4913
2026-01-03 01:46:33.93	238.24	24.34	-49.6	-52.4	13.4	7.60e-06	0	57	0	1107296256	61	5120
2026-01-03 01:46:34.92	238.15	24.19	-49.7	-52.5	13.4	1.75e-05	0	57	0	1109393408	61	5163
2026-01-03 01:46:35.91	238.05	24.05	-49.7	-52.5	13.3	2.36e-05	0	57	0	1111490560	61	5181
2026-01-03 01:46:36.90	237.96	23.90	-49.7	-52.5	13.4	1.52e-05	0	57	0	1112539136	61	5206
2026-01-03 01:46:37.89	237.88	23.76	-49.7	-52.5	13.3	2.36e-05	0	57	0	1114636288	61	5179
2026-01-03 01:46:38.88	237.79	23.62	-49.5	-52.3	13.5	1.60e-05	0	57	0	1116733440	61	5048
2026-01-03 01:46:39.87	237.70	23.47	-49.4	-52.0	13.8	6.10e-06	0	57	0	1118830592	61	4907
2026-01-03 01:46:40.85	237.61	23.34	-49.2	-51.7	14.1	7.00e-07	0	57	0	1120927744	61	4745
2026-01-03 01:46:41.84	237.53	23.20	-49.3	-51.8	13.9	7.00e-07	0	57	0	1121976320	61	4809
2026-01-03 01:46:42.83	237.44	23.06	-49.1	-51.5	14.2	3.00e-06	0	57	0	1124073472	61	4639
2026-01-03 01:46:43.81	237.36	22.92	-49.0	-51.5	14.3	0.00e+00	0	57	0	1126170624	60	4893
2026-01-03 01:46:44.81	237.28	22.78	-49.0	-51.4	14.4	1.50e-06	0	57	0	1128267776	60	4821
2026-01-03 01:46:45.80	237.19	22.64	-48.9	-51.2	14.5	0.00e+00	0	57	0	1129316352	60	4748
2026-01-03 01:46:46.78	237.11	22.51	-49.0	-51.3	14.5	0.00e+00	0	57	0	1131413504	60	4780
2026-01-03 01:46:47.77	237.03	22.37	-48.9	-51.2	14.5	0.00e+00	0	57	0	1133510656	60	4733
2026-01-03 01:46:48.76	236.95	22.23	-49.1	-51.5	14.3	1.50e-06	0	57	0	1135607808	60	4879
2026-01-03 01:46:49.75	236.87	22.10	-49.0	-51.3	14.5	0.00e+00	0	57	0	1136656384	60	4765
2026-01-03 01:46:50.74	236.79	21.96	-48.8	-51.0	14.7	0.00e+00	0	57	0	1138753536	60	4633
2026-01-03 01:46:51.73	236.71	21.83	-48.4	-50.4	15.4	0.00e+00	0	57	0	1140850688	59	4578
2026-01-03 01:46:52.72	236.63	21.70	-48.4	-50.3	15.5	0.00e+00	0	57	0	1142947840	59	4518
2026-01-03 01:46:53.70	236.56	21.57	-48.4	-50.4	15.4	0.00e+00	0	57	0	1143996416	59	4567
2026-01-03 01:46:54.69	236.48	21.43	-48.1	-50.0	15.7	0.00e+00	0	57	0	1146093568	59	4370
2026-01-03 01:46:55.68	236.41	21.30	-48.1	-50.0	15.8	0.00e+00	0	57	0	1148190720	59	4360
2026-01-03 01:46:56.68	236.33	21.17	-48.1	-49.9	15.9	0.00e+00	0	57	0	1150287872	59	4320
2026-01-03 01:46:57.67	236.26	21.04	-48.0	-49.8	15.9	0.00e+00	0	57	0	1152385024	59	4275
2026-01-03 01:46:58.66	236.18	20.91	-48.0	-49.8	15.9	0.00e+00	0	57	0	1153433600	59	4269
2026-01-03 01:46:59.64	236.11	20.79	-48.1	-50.1	15.6	0.00e+00	0	57	0	1155530752	59	4399
2026-01-03 01:47:00.63	236.04	20.66	-48.4	-50.4	15.3	0.00e+00	0	57	0	1157627904	59	4565
2026-01-03 01:47:01.61	235.97	20.53	-48.6	-50.7	15.0	0.00e+00	0	57	0	1159725056	59	4749
2026-01-03 01:47:02.60	235.90	20.40	-48.8	-51.1	14.7	7.00e-07	0	57	0	1160773632	59	4930
2026-01-03 01:47:03.59	235.82	20.28	-49.0	-51.5	14.2	0.00e+00	0	57	0	1162870784	60	4871
2026-01-03 01:47:04.58	235.76	20.15	-49.4	-52.0	13.7	4.50e-06	0	57	0	1164967936	60	5212
2026-01-03 01:47:05.57	235.69	20.03	-49.6	-52.4	13.3	6.80e-06	0	57	0	1167065088	60	5439
2026-01-03 01:47:06.57	235.62	19.90	-49.7	-52.5	13.2	1.67e-05	0	57	0	1169162240	61	5204
2026-01-03 01:47:07.55	235.55	19.78	-49.9	-53.1	12.6	4.88e-05	0	57	0	1170210816	61	5542
2026-01-03 01:47:08.54	235.48	19.66	-49.8	-53.0	12.6	9.38e-05	0	57	0	1172307968	61	5511
2026-01-03 01:47:09.54	235.41	19.53	-49.9	-53.0	12.7	8.54e-05	0	57	0	1174405120	61	5465
2026-01-03 01:47:10.53	235.35	19.41	-50.0	-53.3	12.4	1.40e-04	0	57	0	1176502272	62	5353
2026-01-03 01:47:11.52	235.28	19.29	-50.2	-53.5	12.0	2.20e-04	0	57	0	1177550848	62	5525
2026-01-03 01:47:12.51	235.22	19.17	-49.8	-52.9	12.8	9.68e-05	0	57	0	1179648000	62	5107
2026-01-03 01:47:13.51	235.15	19.04	-49.7	-52.6	13.0	3.58e-05	0	57	0	1181745152	62	4945
2026-01-03 01:47:14.50	235.09	18.92	-49.7	-52.5	13.1	3.43e-05	0	57	0	1183842304	62	4918
2026-01-03 01:47:15.49	235.02	18.81	-49.4	-52.2	13.5	1.98e-05	0	57	0	1184890880	62	4710
2026-01-03 01:47:16.48	234.96	18.69	-49.4	-52.1	13.4	1.29e-05	0	57	0	1186988032	61	4978
2026-01-03 01:47:17.48	234.89	18.57	-49.3	-52.1	13.5	2.28e-05	0	57	0	1189085184	61	4966
2026-01-03 01:47:18.47	234.83	18.45	-49.2	-51.8	13.8	2.20e-06	0	57	0	1191182336	61	4798
2026-01-03 01:47:19.47	234.77	18.33	-49.4	-52.2	13.4	5.30e-06	0	57	0	1193279488	61	5010
2026-01-03 01:47:20.45	234.71	18.21	-49.4	-52.1	13.4	2.89e-05	0	57	0	1194328064	61	4952
2026-01-03 01:47:21.44	234.65	18.10	-48.9	-51.4	14.2	2.20e-06	0	57	0	1196425216	61	4553
2026-01-03 01:47:22.43	234.59	17.98	-48.8	-51.1	14.5	1.50e-06	0	57	0	1198522368	60	4654
2026-01-03 01:47:23.42	234.53	17.87	-48.4	-50.5	15.1	0.00e+00	0	57	0	1200619520	59	4612
2026-01-03 01:47:24.41	234.47	17.75	-48.3	-50.4	15.3	0.00e+00	0	57	0	1201668096	59	4546
2026-01-03 01:47:25.40	234.41	17.64	-48.3	-50.3	15.3	0.00e+00	0	57	0	1203765248	59	4520
2026-01-03 01:47:26.39	234.35	17.52	-48.5	-50.6	15.0	0.00e+00	0	57	0	1205862400	59	4683
2026-01-03 01:47:27.38	234.29	17.41	-48.4	-50.6	14.9	0.00e+00	0	57	0	1207959552	59	4687
2026-01-03 01:47:28.37	234.24	17.30	-48.3	-50.4	15.1	0.00e+00	0	57	0	1210056704	59	4586
2026-01-03 01:47:29.36	234.18	17.19	-48.5	-50.6	14.9	0.00e+00	0	57	0	1211105280	59	4680
2026-01-03 01:47:30.34	234.12	17.08	-48.3	-50.4	15.1	0.00e+00	0	57	0	1213202432	59	4595
2026-01-03 01:47:31.34	234.07	16.96	-48.7	-50.9	14.6	0.00e+00	0	57	0	1215299584	59	4846
2026-01-03 01:47:32.33	234.01	16.85	-48.9	-51.4	14.1	2.20e-06	0	57	0	1217396736	59	5106
2026-01-03 01:47:33.32	233.96	16.74	-48.8	-51.1	14.5	7.00e-07	0	57	0	1218445312	59	4945
2026-01-03 01:47:34.31	233.90	16.63	-49.1	-51.6	13.9	2.20e-06	0	57	0	1220542464	60	4971
2026-01-03 01:47:35.30	233.85	16.52	-49.3	-52.0	13.4	7.60e-06	0	57	0	1222639616	60	5205
2026-01-03 01:47:36.29	233.79	16.41	-49.0	-51.6	13.9	6.10e-06	0	57	0	1224736768	60	4955
2026-01-03 01:47:37.28	233.74	16.30	-49.0	-51.5	14.0	3.80e-06	0	57	0	1225785344	60	4894
2026-01-03 01:47:38.28	233.69	16.20	-49.0	-51.6	13.9	7.00e-07	0	57	0	1227882496	60	4933
2026-01-03 01:47:39.27	233.63	16.09	-49.1	-51.6	13.8	4.50e-06	0	57	0	1229979648	60	4974
2026-01-03 01:47:40.25	233.58	15.98	-48.9	-51.3	14.1	7.00e-07	0	57	0	1232076800	60	4798
2026-01-03 01:47:41.23	233.53	15.88	-48.8	-51.3	14.1	2.20e-06	0	57	0	1234173952	60	4790
2026-01-03 01:47:42.22	233.48	15.77	-48.9	-51.3	14.2	6.10e-06	0	57	0	1235222528	60	4771
2026-01-03 01:47:43.21	233.43	15.66	-48.7	-51.1	14.3	2.20e-06	0	57	0	1237319680	60	4687
2026-01-03 01:47:44.21	233.38	15.56	-48.9	-51.4	14.0	3.80e-06	0	57	0	1239416832	60	4851
2026-01-03 01:47:45.19	233.33	15.45	-48.9	-51.4	14.1	7.00e-07	0	57	0	1241513984	60	4831
2026-01-03 01:47:46.18	233.28	15.35	-49.1	-51.7	13.8	6.80e-06	0	57	0	1242562560	60	5032
2026-01-03 01:47:47.18	233.23	15.24	-49.0	-51.6	13.8	7.60e-06	0	57	0	1244659712	60	4981
2026-01-03 01:47:48.17	233.18	15.14	-49.1	-51.8	13.7	6.10e-06	0	57	0	1246756864	60	5044
2026-01-03 01:47:49.15	233.13	15.04	-49.3	-52.0	13.3	3.00e-06	0	57	0	1248854016	60	5213
2026-01-03 01:47:50.15	233.08	14.93	-49.2	-52.0	13.4	1.60e-05	0	57	0	1249902592	60	5183
2026-01-03 01:47:51.14	233.03	14.83	-49.3	-52.0	13.4	7.60e-06	0	57	0	1251999744	60	5202
2026-01-03 01:47:52.14	232.98	14.73	-49.4	-52.3	13.1	2.97e-05	0	57	0	1254096896	60	5357
2026-01-03 01:47:53.13	232.93	14.63	-49.3	-52.1	13.2	1.29e-05	0	57	0	1256194048	60	5257
2026-01-03 01:47:54.12	232.89	14.52	-49.3	-52.0	13.3	1.83e-05	0	57	0	1258291200	60	5210
2026-01-03 01:47:55.11	232.84	14.42	-49.5	-52.6	12.7	4.80e-05	0	57	0	1259339776	60	5562
2026-01-03 01:47:56.10	232.79	14.32	-49.6	-52.6	12.7	8.01e-05	0	57	0	1261436928	61	5271
