passes_logs/2026/01/03/R3.0SM8_Murmansk_STILSPACE/R3.0SM8_Murmansk_STILSPACE__20260103_160354_FENGYUN_3E_rec.log

#Pass ID: 20260103_160354_FENGYUN 3E
#Satellite: FENGYUN 3E
#Configuration: FENGYUN 3E
#almurnet v.1.7.20240730
#Start time: 2026-01-03 16:03:54

#Version: 2.2.20231116
#Station: R3.0SM8_Murmansk_STILSPACE
#Location: 33.092731 lon 68.902999 lat
#TLE: 1 49008U 21062A   26002.95568549 -.00000227  00000+0 -86494-4 0  9990
#TLE: 2 49008  98.7475   8.2258 0001442 163.3458 196.7766 14.19882681233131

#Time	Az	El	Level	Level2	SNR	BER	BlckErr	Temp	State	Recorded	gain1	gain2
2026-01-03 16:03:54.62	209.82	3.02	-52.5	-62.7	3.8	8.46e-01	0	45	0	0	66	12509
2026-01-03 16:03:55.61	209.89	3.07	-52.3	-62.6	3.8	8.46e-01	0	46	104	0	67	11633
2026-01-03 16:03:56.60	209.96	3.13	-52.2	-62.5	3.8	8.47e-01	0	46	104	0	67	11517
2026-01-03 16:03:57.59	210.03	3.19	-52.1	-62.4	3.8	8.46e-01	0	46	104	0	67	11383
2026-01-03 16:03:58.58	210.10	3.25	-50.5	-62.4	3.8	8.45e-01	0	46	104	0	63	14291
2026-01-03 16:03:59.57	210.17	3.30	-51.6	-62.2	3.8	8.46e-01	0	46	104	0	64	13190
2026-01-03 16:04:00.57	210.24	3.36	-51.7	-62.0	3.8	8.46e-01	0	46	104	0	65	12152
2026-01-03 16:04:01.55	210.31	3.42	-51.4	-61.4	3.8	8.46e-01	0	46	104	0	65	11328
2026-01-03 16:04:02.55	210.39	3.48	-51.4	-61.3	3.8	8.46e-01	0	46	104	0	65	11260
2026-01-03 16:04:03.54	210.46	3.53	-51.4	-61.4	3.8	8.47e-01	0	46	104	0	65	11320
2026-01-03 16:04:04.52	210.53	3.59	-51.4	-61.4	3.8	8.46e-01	0	46	104	0	65	11344
2026-01-03 16:04:05.52	210.61	3.65	-51.4	-61.3	3.8	8.46e-01	0	47	104	0	65	11249
2026-01-03 16:04:06.51	210.68	3.71	-51.4	-61.3	3.8	8.45e-01	0	47	104	0	65	11196
2026-01-03 16:04:07.51	210.75	3.77	-51.4	-61.2	3.8	8.46e-01	0	46	104	0	65	11137
2026-01-03 16:04:08.49	210.83	3.82	-51.4	-61.3	3.8	8.46e-01	0	47	104	0	65	11186
2026-01-03 16:04:09.49	210.90	3.88	-51.4	-61.2	3.8	8.46e-01	0	47	104	0	65	11122
2026-01-03 16:04:10.48	210.98	3.94	-51.4	-61.2	3.8	8.45e-01	0	47	104	0	65	11062
2026-01-03 16:04:11.47	211.05	4.00	-51.4	-61.0	3.8	8.46e-01	0	47	104	0	65	10856
2026-01-03 16:04:12.45	211.13	4.06	-51.4	-60.8	3.8	8.47e-01	0	47	104	0	65	10550
2026-01-03 16:04:13.44	211.20	4.12	-51.3	-60.2	3.8	8.45e-01	0	47	104	0	65	9852
2026-01-03 16:04:14.43	211.28	4.18	-51.2	-59.5	3.8	8.44e-01	0	47	104	0	65	9165
2026-01-03 16:04:15.42	211.35	4.23	-51.0	-58.5	3.9	8.44e-01	0	47	104	0	64	8567
2026-01-03 16:04:16.41	211.43	4.29	-50.8	-57.1	4.5	8.28e-01	0	48	0	0	64	7348
2026-01-03 16:04:17.39	211.50	4.35	-50.6	-56.0	5.1	7.66e-01	0	47	0	0	63	6819
2026-01-03 16:04:18.38	211.58	4.41	-50.2	-55.0	5.8	5.36e-01	0	47	0	1048576	63	6074
2026-01-03 16:04:19.37	211.66	4.47	-49.8	-53.9	6.7	2.52e-01	0	48	0	8388608	62	5692
2026-01-03 16:04:20.36	211.74	4.53	-49.4	-53.1	7.4	1.24e-01	0	48	0	15728640	61	5476
2026-01-03 16:04:21.35	211.81	4.59	-49.0	-52.1	8.4	6.15e-02	0	48	0	22020096	60	5181
2026-01-03 16:04:22.33	211.89	4.65	-48.5	-51.3	9.2	2.86e-02	0	48	0	29360128	60	4722
2026-01-03 16:04:23.33	211.97	4.71	-48.2	-50.5	10.1	1.01e-02	0	48	0	36700160	59	4589
2026-01-03 16:04:24.31	212.05	4.77	-47.7	-49.9	10.7	3.97e-03	0	48	0	44040192	58	4521
2026-01-03 16:04:25.30	212.13	4.83	-47.2	-49.1	11.5	1.51e-03	0	48	0	51380224	57	4386
2026-01-03 16:04:26.29	212.21	4.89	-46.7	-48.4	12.3	2.55e-04	0	48	0	58720256	56	4250
2026-01-03 16:04:27.28	212.28	4.95	-46.1	-47.6	13.0	5.03e-05	0	48	0	65011712	55	4114
2026-01-03 16:04:28.27	212.36	5.01	-45.8	-47.2	13.5	2.40e-05	0	48	0	72351744	54	4158
2026-01-03 16:04:29.25	212.44	5.07	-45.5	-46.8	13.8	2.20e-06	0	48	0	79691776	54	3990
2026-01-03 16:04:30.24	212.52	5.13	-45.4	-46.7	14.0	3.40e-06	0	48	0	87031808	53	4152
2026-01-03 16:04:31.23	212.61	5.19	-45.6	-46.9	13.7	1.02e-05	0	48	0	94371840	53	4280
2026-01-03 16:04:32.21	212.69	5.25	-45.4	-46.7	13.9	5.70e-06	0	48	0	100663296	53	4189
2026-01-03 16:04:33.20	212.77	5.31	-45.2	-46.4	14.3	1.10e-06	0	48	0	108003328	53	4038
2026-01-03 16:04:34.19	212.85	5.37	-45.1	-46.2	14.5	1.10e-06	0	49	0	115343360	53	3952
2026-01-03 16:04:35.19	212.93	5.43	-45.0	-46.2	14.5	0.00e+00	0	48	0	122683392	52	4147
2026-01-03 16:04:36.17	213.01	5.49	-45.1	-46.3	14.4	1.10e-06	0	49	0	128974848	52	4225
2026-01-03 16:04:37.16	213.10	5.55	-45.3	-46.5	14.2	1.10e-06	0	49	0	136314880	52	4325
2026-01-03 16:04:38.15	213.18	5.61	-45.2	-46.5	14.3	2.20e-06	0	49	0	143654912	52	4304
2026-01-03 16:04:39.14	213.26	5.67	-45.2	-46.4	14.4	2.20e-06	0	49	0	150994944	52	4255
2026-01-03 16:04:40.13	213.35	5.73	-45.1	-46.4	14.4	1.10e-06	0	49	0	158334976	52	4247
2026-01-03 16:04:41.12	213.43	5.79	-45.3	-46.5	14.3	0.00e+00	0	49	0	165675008	52	4307
2026-01-03 16:04:42.12	213.52	5.86	-45.5	-46.8	14.0	2.20e-06	0	49	0	171966464	52	4450
2026-01-03 16:04:43.10	213.60	5.92	-45.4	-46.7	14.2	0.00e+00	0	49	0	179306496	52	4400
2026-01-03 16:04:44.09	213.68	5.98	-45.5	-46.8	14.0	6.80e-06	0	49	0	186646528	52	4483
2026-01-03 16:04:45.08	213.77	6.04	-45.8	-47.2	13.6	3.40e-06	0	49	0	193986560	53	4398
2026-01-03 16:04:46.07	213.86	6.10	-45.6	-46.9	13.9	4.50e-06	0	49	0	200278016	53	4261
2026-01-03 16:04:47.06	213.94	6.16	-45.8	-47.1	13.7	3.40e-06	0	49	0	207618048	53	4382
2026-01-03 16:04:48.06	214.03	6.23	-45.9	-47.2	13.6	1.25e-05	0	49	0	214958080	53	4438
2026-01-03 16:04:49.04	214.11	6.29	-45.8	-47.2	13.6	8.00e-06	0	49	0	222298112	53	4400
2026-01-03 16:04:50.03	214.20	6.35	-45.7	-47.1	13.7	8.00e-06	0	49	0	229638144	53	4347
2026-01-03 16:04:51.02	214.29	6.41	-45.7	-47.0	13.8	6.80e-06	0	50	0	236978176	53	4316
2026-01-03 16:04:52.01	214.38	6.47	-45.8	-47.1	13.7	9.10e-06	0	49	0	243269632	53	4380
2026-01-03 16:04:52.99	214.46	6.54	-45.7	-47.1	13.7	8.00e-06	0	50	0	250609664	53	4357
2026-01-03 16:04:53.98	214.55	6.60	-45.7	-47.0	13.8	5.70e-06	0	50	0	257949696	53	4329
2026-01-03 16:04:54.96	214.64	6.66	-45.6	-46.9	13.9	2.20e-06	0	50	0	265289728	53	4272
2026-01-03 16:04:55.95	214.73	6.72	-46.0	-47.4	13.4	4.50e-06	0	50	0	272629760	53	4504
2026-01-03 16:04:56.95	214.82	6.79	-45.6	-46.9	13.9	5.70e-06	0	50	0	279969792	53	4287
2026-01-03 16:04:57.94	214.91	6.85	-45.3	-46.5	14.4	2.20e-06	0	50	0	286261248	53	4062
2026-01-03 16:04:58.93	215.00	6.91	-45.0	-46.2	14.7	2.20e-06	0	50	0	293601280	53	3922
2026-01-03 16:04:59.92	215.09	6.97	-45.0	-46.1	14.7	0.00e+00	0	50	0	300941312	52	4137
2026-01-03 16:05:00.91	215.18	7.04	-44.9	-46.0	14.8	0.00e+00	0	50	0	308281344	52	4075
2026-01-03 16:05:01.91	215.28	7.10	-44.9	-46.0	14.8	0.00e+00	0	50	0	315621376	52	4094
2026-01-03 16:05:02.89	215.37	7.16	-45.1	-46.2	14.7	0.00e+00	0	50	0	321912832	52	4174
2026-01-03 16:05:03.88	215.46	7.23	-44.9	-46.0	14.9	0.00e+00	0	50	0	329252864	52	4079
2026-01-03 16:05:04.87	215.55	7.29	-45.0	-46.1	14.8	0.00e+00	0	50	0	336592896	52	4141
2026-01-03 16:05:05.86	215.64	7.35	-45.0	-46.1	14.8	0.00e+00	0	50	0	343932928	52	4115
2026-01-03 16:05:06.85	215.74	7.42	-44.7	-45.8	15.1	0.00e+00	0	50	0	351272960	52	3971
2026-01-03 16:05:07.84	215.83	7.48	-44.9	-46.0	14.9	0.00e+00	0	50	0	358612992	52	4085
2026-01-03 16:05:08.84	215.93	7.55	-44.8	-45.8	15.1	0.00e+00	0	50	0	364904448	52	3999
2026-01-03 16:05:09.83	216.02	7.61	-44.9	-46.0	14.9	0.00e+00	0	50	0	372244480	52	4071
2026-01-03 16:05:10.82	216.12	7.67	-45.0	-46.1	14.8	0.00e+00	0	51	0	379584512	52	4112
2026-01-03 16:05:11.81	216.21	7.74	-45.0	-46.1	14.8	1.10e-06	0	51	0	386924544	52	4110
2026-01-03 16:05:12.80	216.31	7.80	-45.3	-46.5	14.4	2.20e-06	0	51	0	394264576	52	4308
2026-01-03 16:05:13.79	216.40	7.87	-45.1	-46.3	14.7	2.20e-06	0	51	0	401604608	52	4205
2026-01-03 16:05:14.78	216.50	7.93	-44.9	-46.0	14.9	0.00e+00	0	51	0	407896064	52	4077
2026-01-03 16:05:15.77	216.60	8.00	-44.8	-45.9	15.0	0.00e+00	0	51	0	415236096	52	4012
2026-01-03 16:05:16.76	216.69	8.06	-44.8	-45.9	15.0	0.00e+00	0	51	0	422576128	52	4028
2026-01-03 16:05:17.74	216.79	8.13	-44.8	-45.9	15.0	0.00e+00	0	51	0	429916160	52	4037
2026-01-03 16:05:18.73	216.89	8.19	-44.9	-46.0	14.9	0.00e+00	0	51	0	437256192	52	4087
2026-01-03 16:05:19.71	216.99	8.25	-45.1	-46.2	14.7	0.00e+00	0	51	0	443547648	52	4171
2026-01-03 16:05:20.70	217.09	8.32	-45.3	-46.5	14.4	1.10e-06	0	51	0	450887680	52	4313
2026-01-03 16:05:21.69	217.19	8.38	-45.2	-46.3	14.6	0.00e+00	0	51	0	458227712	52	4224
2026-01-03 16:05:22.67	217.28	8.45	-45.0	-46.1	14.8	0.00e+00	0	51	0	465567744	52	4107
2026-01-03 16:05:23.66	217.39	8.51	-45.0	-46.2	14.7	0.00e+00	0	51	0	471859200	52	4166
2026-01-03 16:05:24.66	217.49	8.58	-45.0	-46.2	14.8	0.00e+00	0	51	0	479199232	52	4168
2026-01-03 16:05:25.65	217.59	8.65	-45.0	-46.2	14.8	0.00e+00	0	51	0	486539264	52	4146
2026-01-03 16:05:26.64	217.69	8.71	-45.0	-46.2	14.8	1.10e-06	0	51	0	493879296	52	4154
2026-01-03 16:05:27.63	217.79	8.78	-45.0	-46.2	14.7	2.20e-06	0	51	0	501219328	52	4169
2026-01-03 16:05:28.61	217.89	8.84	-45.2	-46.3	14.6	0.00e+00	0	51	0	507510784	52	4230
2026-01-03 16:05:29.60	218.00	8.91	-45.1	-46.2	14.7	1.10e-06	0	51	0	514850816	52	4182
2026-01-03 16:05:30.59	218.10	8.97	-44.9	-46.0	14.9	0.00e+00	0	51	0	522190848	52	4090
2026-01-03 16:05:31.59	218.20	9.04	-44.8	-45.9	15.1	0.00e+00	0	51	0	529530880	52	4007
2026-01-03 16:05:32.58	218.31	9.11	-44.8	-45.8	15.1	0.00e+00	0	51	0	536870912	52	4001
2026-01-03 16:05:33.57	218.41	9.17	-44.8	-45.9	15.1	1.10e-06	0	52	0	543162368	52	4010
2026-01-03 16:05:34.56	218.52	9.24	-45.0	-46.1	14.8	0.00e+00	0	52	0	550502400	52	4126
2026-01-03 16:05:35.56	218.63	9.31	-45.0	-46.1	14.8	0.00e+00	0	52	0	557842432	52	4144
2026-01-03 16:05:36.55	218.73	9.37	-44.8	-45.8	15.1	0.00e+00	0	52	0	565182464	52	4002
2026-01-03 16:05:37.54	218.84	9.44	-44.7	-45.7	15.3	0.00e+00	0	52	0	572522496	52	3941
2026-01-03 16:05:38.53	218.95	9.51	-44.7	-45.8	15.2	0.00e+00	0	52	0	579862528	52	3966
2026-01-03 16:05:39.52	219.05	9.57	-44.8	-45.8	15.1	1.10e-06	0	52	0	586153984	52	4001
2026-01-03 16:05:40.50	219.16	9.64	-44.8	-45.9	15.1	0.00e+00	0	52	0	593494016	52	4035
2026-01-03 16:05:41.49	219.27	9.71	-44.8	-45.9	15.1	0.00e+00	0	52	0	600834048	52	4026
2026-01-03 16:05:42.48	219.38	9.77	-44.9	-46.0	15.0	0.00e+00	0	52	0	608174080	52	4052
2026-01-03 16:05:43.47	219.49	9.84	-44.8	-45.8	15.1	0.00e+00	0	52	0	615514112	52	3999
2026-01-03 16:05:44.45	219.60	9.91	-44.8	-45.9	15.0	0.00e+00	0	52	0	622854144	52	4035
2026-01-03 16:05:45.44	219.71	9.98	-44.9	-46.0	14.9	0.00e+00	0	52	0	629145600	52	4077
2026-01-03 16:05:46.43	219.82	10.04	-45.0	-46.1	14.8	0.00e+00	0	52	0	636485632	52	4140
2026-01-03 16:05:47.42	219.93	10.11	-45.1	-46.2	14.7	0.00e+00	0	52	0	643825664	52	4174
2026-01-03 16:05:48.41	220.04	10.18	-45.0	-46.1	14.8	0.00e+00	0	52	0	651165696	52	4133
2026-01-03 16:05:49.40	220.15	10.25	-44.9	-46.1	14.9	0.00e+00	0	52	0	658505728	52	4099
2026-01-03 16:05:50.40	220.27	10.32	-45.0	-46.1	14.8	0.00e+00	0	52	0	664797184	52	4141
2026-01-03 16:05:51.39	220.38	10.38	-45.2	-46.3	14.6	0.00e+00	0	52	0	672137216	52	4230
2026-01-03 16:05:52.37	220.49	10.45	-45.2	-46.3	14.6	1.10e-06	0	52	0	679477248	52	4241
2026-01-03 16:05:53.37	220.61	10.52	-45.2	-46.3	14.6	1.10e-06	0	52	0	686817280	52	4220
2026-01-03 16:05:54.36	220.72	10.59	-45.2	-46.3	14.6	0.00e+00	0	52	0	694157312	52	4232
2026-01-03 16:05:55.35	220.84	10.66	-45.2	-46.3	14.6	0.00e+00	0	52	0	701497344	52	4221
2026-01-03 16:05:56.34	220.96	10.72	-45.2	-46.4	14.5	0.00e+00	0	52	0	707788800	52	4272
2026-01-03 16:05:57.32	221.07	10.79	-45.3	-46.5	14.4	0.00e+00	0	52	0	715128832	52	4300
2026-01-03 16:05:58.32	221.19	10.86	-45.5	-46.7	14.2	2.20e-06	0	52	0	722468864	52	4402
2026-01-03 16:05:59.31	221.31	10.93	-45.4	-46.6	14.3	1.10e-06	0	52	0	729808896	52	4358
2026-01-03 16:06:00.30	221.43	11.00	-45.4	-46.6	14.3	1.10e-06	0	52	0	737148928	52	4367
2026-01-03 16:06:01.29	221.54	11.07	-45.3	-46.5	14.4	0.00e+00	0	52	0	744488960	52	4324
2026-01-03 16:06:02.28	221.66	11.14	-45.3	-46.5	14.4	0.00e+00	0	52	0	750780416	52	4333
2026-01-03 16:06:03.27	221.78	11.21	-45.4	-46.6	14.3	0.00e+00	0	52	0	758120448	52	4358
2026-01-03 16:06:04.27	221.90	11.28	-45.4	-46.6	14.2	2.20e-06	0	53	0	765460480	52	4386
2026-01-03 16:06:05.26	222.03	11.34	-45.2	-46.3	14.5	0.00e+00	0	52	0	772800512	52	4239
2026-01-03 16:06:06.25	222.15	11.41	-45.1	-46.2	14.7	0.00e+00	0	53	0	780140544	52	4184
2026-01-03 16:06:07.24	222.27	11.48	-45.0	-46.2	14.7	0.00e+00	0	53	0	786432000	52	4173
2026-01-03 16:06:08.22	222.39	11.55	-45.1	-46.3	14.7	0.00e+00	0	53	0	793772032	52	4195
2026-01-03 16:06:09.21	222.51	11.62	-45.3	-46.4	14.5	0.00e+00	0	53	0	801112064	52	4280
2026-01-03 16:06:10.20	222.64	11.69	-45.1	-46.3	14.7	0.00e+00	0	53	0	808452096	52	4204
2026-01-03 16:06:11.17	222.76	11.76	-45.0	-46.1	14.9	0.00e+00	0	53	0	815792128	52	4111
2026-01-03 16:06:12.17	222.88	11.83	-44.9	-46.0	15.0	1.10e-06	0	53	0	822083584	52	4078
2026-01-03 16:06:13.15	223.01	11.90	-45.0	-46.1	14.9	0.00e+00	0	53	0	829423616	52	4115
2026-01-03 16:06:14.14	223.13	11.97	-45.0	-46.1	14.9	0.00e+00	0	53	0	836763648	52	4139
2026-01-03 16:06:15.13	223.26	12.04	-45.2	-46.3	14.7	0.00e+00	0	53	0	844103680	52	4227
2026-01-03 16:06:16.11	223.39	12.11	-45.0	-46.1	14.9	0.00e+00	0	53	0	850395136	52	4143
2026-01-03 16:06:17.10	223.51	12.18	-45.0	-46.1	14.9	0.00e+00	0	53	0	857735168	52	4116
2026-01-03 16:06:18.09	223.64	12.25	-44.9	-46.0	15.0	0.00e+00	0	53	0	865075200	52	4070
2026-01-03 16:06:19.08	223.77	12.32	-45.0	-46.1	14.9	0.00e+00	0	53	0	872415232	52	4138
2026-01-03 16:06:20.06	223.90	12.39	-45.2	-46.4	14.6	0.00e+00	0	53	0	879755264	52	4248
2026-01-03 16:06:21.05	224.03	12.46	-44.9	-46.0	15.0	0.00e+00	0	53	0	886046720	52	4091
2026-01-03 16:06:22.04	224.16	12.53	-45.2	-46.3	14.7	0.00e+00	0	53	0	893386752	52	4211
2026-01-03 16:06:23.03	224.29	12.60	-45.4	-46.6	14.4	1.10e-06	0	53	0	900726784	52	4391
2026-01-03 16:06:24.01	224.42	12.67	-45.6	-46.8	14.2	3.40e-06	0	53	0	908066816	52	4481
2026-01-03 16:06:24.99	224.55	12.74	-45.4	-46.7	14.4	0.00e+00	0	53	0	915406848	52	4397
2026-01-03 16:06:25.97	224.68	12.81	-45.4	-46.6	14.5	0.00e+00	0	53	0	921698304	52	4355
2026-01-03 16:06:26.95	224.82	12.88	-45.3	-46.5	14.5	0.00e+00	0	53	0	929038336	52	4317
2026-01-03 16:06:27.94	224.95	12.95	-45.3	-46.5	14.5	0.00e+00	0	53	0	936378368	52	4297
2026-01-03 16:06:28.93	225.09	13.02	-45.3	-46.5	14.5	0.00e+00	0	53	0	943718400	52	4308
2026-01-03 16:06:29.91	225.22	13.09	-45.5	-46.8	14.2	1.10e-06	0	53	0	950009856	52	4453
2026-01-03 16:06:30.90	225.36	13.16	-45.2	-46.3	14.7	0.00e+00	0	53	0	957349888	52	4223
2026-01-03 16:06:31.89	225.49	13.23	-44.8	-45.8	15.2	0.00e+00	0	53	0	964689920	52	3999
2026-01-03 16:06:32.88	225.63	13.31	-44.5	-45.5	15.5	0.00e+00	0	53	0	972029952	52	3854
2026-01-03 16:06:33.86	225.77	13.38	-44.4	-45.4	15.7	0.00e+00	0	53	0	979369984	51	4032
2026-01-03 16:06:34.84	225.90	13.45	-44.3	-45.3	15.9	0.00e+00	0	53	0	986710016	51	3982
2026-01-03 16:06:35.83	226.04	13.52	-44.4	-45.3	15.8	0.00e+00	0	53	0	993001472	51	3993
2026-01-03 16:06:36.82	226.18	13.59	-44.3	-45.3	15.9	0.00e+00	0	53	0	1000341504	51	3967
2026-01-03 16:06:37.81	226.32	13.66	-44.4	-45.4	15.8	0.00e+00	0	54	0	1007681536	51	4009
2026-01-03 16:06:38.81	226.47	13.73	-44.2	-45.2	16.0	0.00e+00	0	54	0	1015021568	51	3916
2026-01-03 16:06:39.79	226.61	13.80	-44.0	-44.8	16.3	0.00e+00	0	54	0	1022361600	50	3994
2026-01-03 16:06:40.77	226.75	13.88	-43.8	-44.7	16.5	0.00e+00	0	54	0	1028653056	50	3920
2026-01-03 16:06:41.76	226.89	13.95	-43.6	-44.4	16.7	0.00e+00	0	54	0	1035993088	50	3809
2026-01-03 16:06:42.75	227.03	14.02	-43.6	-44.4	16.7	0.00e+00	0	53	0	1043333120	50	3803
2026-01-03 16:06:43.74	227.18	14.09	-43.5	-44.3	16.8	0.00e+00	0	54	0	1050673152	49	3967
2026-01-03 16:06:44.72	227.32	14.16	-43.4	-44.2	16.9	0.00e+00	0	54	0	1058013184	49	3933
2026-01-03 16:06:45.71	227.47	14.23	-43.5	-44.3	16.8	0.00e+00	0	54	0	1064304640	49	4001
2026-01-03 16:06:46.71	227.62	14.31	-43.3	-44.1	17.0	0.00e+00	0	54	0	1071644672	49	3904
2026-01-03 16:06:47.70	227.76	14.38	-43.1	-43.8	17.3	0.00e+00	0	54	0	1078984704	49	3772
2026-01-03 16:06:48.69	227.91	14.45	-43.1	-43.9	17.3	0.00e+00	0	54	0	1086324736	49	3783
2026-01-03 16:06:49.66	228.06	14.52	-43.1	-43.8	17.3	0.00e+00	0	54	0	1092616192	49	3776
2026-01-03 16:06:50.65	228.21	14.59	-43.1	-43.8	17.3	0.00e+00	0	54	0	1099956224	49	3767
2026-01-03 16:06:51.64	228.36	14.67	-43.0	-43.7	17.4	0.00e+00	0	54	0	1107296256	48	3956
2026-01-03 16:06:52.63	228.51	14.74	-43.1	-43.9	17.3	0.00e+00	0	54	0	1114636288	48	4012
2026-01-03 16:06:53.62	228.66	14.81	-43.1	-43.8	17.4	0.00e+00	0	54	0	1121976320	48	3986
2026-01-03 16:06:54.61	228.81	14.88	-42.9	-43.6	17.6	0.00e+00	0	54	0	1128267776	48	3893
2026-01-03 16:06:55.61	228.97	14.96	-42.8	-43.5	17.7	0.00e+00	0	54	0	1135607808	48	3857
2026-01-03 16:06:56.60	229.12	15.03	-42.7	-43.4	17.8	0.00e+00	0	54	0	1142947840	48	3819
2026-01-03 16:06:57.59	229.27	15.10	-42.7	-43.4	17.8	0.00e+00	0	54	0	1150287872	48	3803
2026-01-03 16:06:58.58	229.43	15.17	-42.7	-43.4	17.8	0.00e+00	0	54	0	1157627904	48	3810
2026-01-03 16:06:59.57	229.59	15.24	-42.7	-43.4	17.9	0.00e+00	0	54	0	1164967936	48	3788
2026-01-03 16:07:00.56	229.74	15.32	-42.3	-43.0	18.0	0.00e+00	0	54	0	1171259392	47	3841
2026-01-03 16:07:01.55	229.90	15.39	-42.2	-42.9	18.2	0.00e+00	0	54	0	1178599424	47	3801
2026-01-03 16:07:02.54	230.06	15.46	-42.2	-42.8	18.2	0.00e+00	0	54	0	1185939456	47	3764
2026-01-03 16:07:03.52	230.21	15.53	-42.1	-42.7	18.4	0.00e+00	0	54	0	1193279488	47	3714
2026-01-03 16:07:04.50	230.37	15.61	-42.1	-42.7	18.3	0.00e+00	0	54	0	1200619520	47	3733
2026-01-03 16:07:05.49	230.53	15.68	-42.2	-42.8	18.3	0.00e+00	0	54	0	1207959552	47	3775
2026-01-03 16:07:06.48	230.69	15.75	-42.1	-42.7	18.4	0.00e+00	0	54	0	1214251008	47	3736
2026-01-03 16:07:07.47	230.85	15.82	-41.9	-42.6	18.5	0.00e+00	0	54	0	1221591040	46	3874
2026-01-03 16:07:08.46	231.02	15.90	-41.8	-42.4	18.7	0.00e+00	0	54	0	1228931072	46	3789
2026-01-03 16:07:09.45	231.18	15.97	-41.7	-42.3	18.8	0.00e+00	0	55	0	1236271104	46	3759
2026-01-03 16:07:10.43	231.34	16.04	-41.7	-42.3	18.8	0.00e+00	0	54	0	1243611136	46	3754
2026-01-03 16:07:11.43	231.51	16.11	-41.7	-42.3	18.8	0.00e+00	0	54	0	1249902592	46	3752
2026-01-03 16:07:12.41	231.67	16.18	-41.8	-42.4	18.8	0.00e+00	0	55	0	1257242624	46	3787
2026-01-03 16:07:13.41	231.84	16.26	-41.8	-42.4	18.7	0.00e+00	0	55	0	1264582656	46	3793
2026-01-03 16:07:14.40	232.01	16.33	-41.8	-42.4	18.8	0.00e+00	0	55	0	1271922688	46	3812
2026-01-03 16:07:15.39	232.18	16.40	-41.9	-42.5	18.7	0.00e+00	0	55	0	1279262720	46	3849
2026-01-03 16:07:16.38	232.35	16.47	-41.9	-42.5	18.7	0.00e+00	0	55	0	1286602752	46	3835
2026-01-03 16:07:17.37	232.51	16.55	-42.0	-42.6	18.6	0.00e+00	0	55	0	1292894208	46	3907
2026-01-03 16:07:18.36	232.68	16.62	-42.0	-42.6	18.5	0.00e+00	0	55	0	1300234240	46	3912
2026-01-03 16:07:19.34	232.85	16.69	-42.0	-42.6	18.6	0.00e+00	0	55	0	1307574272	46	3913
2026-01-03 16:07:20.33	233.03	16.76	-41.9	-42.6	18.7	0.00e+00	0	55	0	1314914304	46	3871
2026-01-03 16:07:21.33	233.20	16.84	-42.0	-42.6	18.6	0.00e+00	0	55	0	1322254336	46	3913
2026-01-03 16:07:22.31	233.37	16.91	-42.0	-42.6	18.6	0.00e+00	0	54	0	1328545792	46	3912
2026-01-03 16:07:23.30	233.55	16.98	-41.9	-42.5	18.7	0.00e+00	0	55	0	1335885824	46	3853
2026-01-03 16:07:24.30	233.72	17.05	-41.9	-42.6	18.7	0.00e+00	0	55	0	1343225856	46	3884
2026-01-03 16:07:25.28	233.90	17.12	-42.1	-42.8	18.5	0.00e+00	0	55	0	1350565888	46	3959
2026-01-03 16:07:26.27	234.07	17.20	-41.9	-42.5	18.7	0.00e+00	0	55	0	1357905920	46	3854
2026-01-03 16:07:27.26	234.25	17.27	-41.9	-42.5	18.8	0.00e+00	0	55	0	1364197376	46	3845
2026-01-03 16:07:28.25	234.43	17.34	-42.0	-42.7	18.6	0.00e+00	0	55	0	1371537408	46	3917
2026-01-03 16:07:29.23	234.61	17.41	-42.1	-42.7	18.6	0.00e+00	0	55	0	1378877440	46	3952
2026-01-03 16:07:30.22	234.79	17.48	-42.1	-42.8	18.5	0.00e+00	0	55	0	1386217472	46	3965
2026-01-03 16:07:31.21	234.97	17.56	-41.9	-42.5	18.8	0.00e+00	0	55	0	1392508928	46	3847
2026-01-03 16:07:32.21	235.15	17.63	-41.8	-42.4	18.9	0.00e+00	0	55	0	1399848960	46	3802
2026-01-03 16:07:33.20	235.33	17.70	-41.9	-42.5	18.8	0.00e+00	0	55	0	1407188992	46	3859
2026-01-03 16:07:34.19	235.52	17.77	-41.7	-42.3	19.0	0.00e+00	0	55	0	1414529024	46	3764
2026-01-03 16:07:35.18	235.70	17.84	-41.8	-42.4	18.9	0.00e+00	0	55	0	1421869056	46	3785
2026-01-03 16:07:36.17	235.89	17.91	-41.7	-42.3	19.0	0.00e+00	0	55	0	1429209088	46	3755
2026-01-03 16:07:37.16	236.07	17.99	-41.9	-42.5	18.9	0.00e+00	0	55	0	1435500544	46	3831
2026-01-03 16:07:38.14	236.26	18.06	-41.7	-42.3	19.0	0.00e+00	0	55	0	1442840576	46	3748
2026-01-03 16:07:39.13	236.45	18.13	-41.6	-42.2	19.1	0.00e+00	0	55	0	1450180608	46	3720
2026-01-03 16:07:40.12	236.63	18.20	-41.9	-42.5	18.8	0.00e+00	0	55	0	1457520640	46	3855
2026-01-03 16:07:41.10	236.82	18.27	-42.1	-42.7	18.7	0.00e+00	0	55	0	1464860672	46	3932
2026-01-03 16:07:42.09	237.01	18.34	-41.8	-42.4	18.9	0.00e+00	0	55	0	1471152128	46	3806
2026-01-03 16:07:43.08	237.20	18.41	-41.7	-42.3	19.1	0.00e+00	0	55	0	1478492160	46	3761
2026-01-03 16:07:44.08	237.40	18.48	-41.6	-42.2	19.2	0.00e+00	0	55	0	1485832192	46	3701
2026-01-03 16:07:45.06	237.59	18.55	-41.6	-42.2	19.2	0.00e+00	0	55	0	1493172224	45	3917
2026-01-03 16:07:46.06	237.78	18.62	-41.7	-42.3	19.1	0.00e+00	0	55	0	1500512256	45	3969
2026-01-03 16:07:47.04	237.97	18.69	-41.9	-42.5	18.8	0.00e+00	0	55	0	1507852288	45	4080
2026-01-03 16:07:48.03	238.17	18.76	-41.6	-42.2	19.2	0.00e+00	0	55	0	1514143744	45	3917
2026-01-03 16:07:49.02	238.37	18.83	-41.5	-42.0	19.3	0.00e+00	0	55	0	1521483776	45	3868
2026-01-03 16:07:50.00	238.56	18.90	-41.4	-42.0	19.4	0.00e+00	0	55	0	1528823808	45	3844
2026-01-03 16:07:50.98	238.76	18.97	-41.4	-41.9	19.4	0.00e+00	0	55	0	1536163840	45	3820
2026-01-03 16:07:51.97	238.96	19.04	-41.5	-42.0	19.3	0.00e+00	0	55	0	1542455296	45	3868
2026-01-03 16:07:52.96	239.16	19.11	-41.4	-41.9	19.4	0.00e+00	0	55	0	1549795328	45	3815
2026-01-03 16:07:53.94	239.35	19.18	-41.4	-41.9	19.4	0.00e+00	0	55	0	1557135360	45	3817
2026-01-03 16:07:54.93	239.56	19.25	-41.4	-41.9	19.4	0.00e+00	0	55	0	1564475392	45	3817
2026-01-03 16:07:55.92	239.76	19.32	-41.5	-42.1	19.3	0.00e+00	0	55	0	1570766848	45	3881
2026-01-03 16:07:56.90	239.96	19.39	-41.6	-42.2	19.2	0.00e+00	0	55	0	1578106880	45	3939
2026-01-03 16:07:57.90	240.17	19.46	-41.6	-42.1	19.3	0.00e+00	0	55	0	1585446912	45	3912
2026-01-03 16:07:58.88	240.37	19.52	-41.5	-42.1	19.3	0.00e+00	0	55	0	1592786944	45	3875
2026-01-03 16:07:59.87	240.58	19.59	-41.4	-41.9	19.4	0.00e+00	0	55	0	1600126976	45	3824
2026-01-03 16:08:00.86	240.78	19.66	-41.4	-41.9	19.5	0.00e+00	0	55	0	1607467008	45	3815
2026-01-03 16:08:01.84	240.99	19.73	-41.3	-41.8	19.6	0.00e+00	0	55	0	1613758464	45	3775
2026-01-03 16:08:02.83	241.20	19.80	-41.3	-41.8	19.6	0.00e+00	0	55	0	1621098496	45	3762
2026-01-03 16:08:03.82	241.41	19.86	-41.2	-41.8	19.6	0.00e+00	0	55	0	1628438528	45	3748
2026-01-03 16:08:04.81	241.62	19.93	-41.4	-42.0	19.4	0.00e+00	0	55	0	1635778560	45	3848
2026-01-03 16:08:05.80	241.83	20.00	-41.4	-41.9	19.5	0.00e+00	0	55	0	1643118592	45	3803
2026-01-03 16:08:06.79	242.04	20.07	-41.6	-42.2	19.2	0.00e+00	0	55	0	1650458624	45	3924
2026-01-03 16:08:07.78	242.25	20.13	-41.5	-42.1	19.4	0.00e+00	0	55	0	1656750080	45	3871
2026-01-03 16:08:08.76	242.47	20.20	-41.3	-41.8	19.6	0.00e+00	0	55	0	1664090112	45	3766
2026-01-03 16:08:09.76	242.68	20.27	-41.1	-41.7	19.7	0.00e+00	0	55	0	1671430144	45	3699
2026-01-03 16:08:10.75	242.90	20.33	-41.2	-41.7	19.7	0.00e+00	0	55	0	1678770176	45	3729
2026-01-03 16:08:11.73	243.11	20.40	-41.2	-41.7	19.7	0.00e+00	0	56	0	1686110208	45	3721
2026-01-03 16:08:12.73	243.33	20.46	-41.3	-41.9	19.5	0.00e+00	0	55	0	1692401664	45	3783
2026-01-03 16:08:13.72	243.55	20.53	-41.2	-41.7	19.6	0.00e+00	0	55	0	1699741696	45	3729
2026-01-03 16:08:14.71	243.77	20.60	-41.0	-41.5	19.8	0.00e+00	0	56	0	1707081728	45	3644
2026-01-03 16:08:15.70	243.99	20.66	-41.0	-41.5	19.9	0.00e+00	0	56	0	1714421760	44	3835
2026-01-03 16:08:16.69	244.21	20.72	-41.0	-41.5	19.9	0.00e+00	0	55	0	1721761792	44	3849
2026-01-03 16:08:17.67	244.43	20.79	-41.1	-41.6	19.8	0.00e+00	0	55	0	1729101824	44	3893
2026-01-03 16:08:18.67	244.66	20.85	-41.4	-41.9	19.5	0.00e+00	0	56	0	1735393280	44	4042
2026-01-03 16:08:19.66	244.88	20.92	-41.4	-42.0	19.4	0.00e+00	0	56	0	1742733312	44	4068
2026-01-03 16:08:20.65	245.11	20.98	-41.5	-42.0	19.4	0.00e+00	0	55	0	1750073344	44	4096
2026-01-03 16:08:21.64	245.33	21.05	-41.8	-42.4	19.1	0.00e+00	0	56	0	1757413376	45	4009
2026-01-03 16:08:22.64	245.56	21.11	-41.6	-42.2	19.2	0.00e+00	0	55	0	1764753408	45	3931
2026-01-03 16:08:23.63	245.79	21.17	-41.4	-41.9	19.5	0.00e+00	0	55	0	1772093440	45	3816
2026-01-03 16:08:24.62	246.02	21.23	-41.5	-42.0	19.4	0.00e+00	0	55	0	1778384896	45	3867
2026-01-03 16:08:25.61	246.25	21.30	-41.4	-41.9	19.4	0.00e+00	0	56	0	1785724928	45	3811
2026-01-03 16:08:26.59	246.48	21.36	-41.2	-41.8	19.6	0.00e+00	0	56	0	1793064960	45	3747
2026-01-03 16:08:27.59	246.71	21.42	-41.3	-41.9	19.5	0.00e+00	0	56	0	1800404992	45	3786
2026-01-03 16:08:28.57	246.94	21.48	-41.3	-41.8	19.6	0.00e+00	0	56	0	1806696448	45	3759
2026-01-03 16:08:29.55	247.17	21.54	-41.1	-41.7	19.7	0.00e+00	0	56	0	1814036480	45	3707
2026-01-03 16:08:30.54	247.40	21.60	-40.9	-41.4	19.9	0.00e+00	0	56	0	1821376512	44	3822
2026-01-03 16:08:31.53	247.64	21.66	-40.7	-41.3	20.1	0.00e+00	0	56	0	1828716544	44	3745
2026-01-03 16:08:32.52	247.87	21.72	-40.8	-41.3	20.1	0.00e+00	0	56	0	1835008000	44	3749
2026-01-03 16:08:33.51	248.11	21.78	-40.7	-41.2	20.2	0.00e+00	0	56	0	1842348032	44	3717
2026-01-03 16:08:34.50	248.35	21.84	-40.7	-41.2	20.2	0.00e+00	0	56	0	1849688064	44	3722
2026-01-03 16:08:35.49	248.59	21.90	-40.8	-41.3	20.1	0.00e+00	0	56	0	1857028096	44	3774
2026-01-03 16:08:36.48	248.83	21.96	-41.0	-41.5	19.9	0.00e+00	0	56	0	1864368128	44	3848
2026-01-03 16:08:37.47	249.07	22.02	-41.0	-41.6	19.8	0.00e+00	0	56	0	1871708160	44	3880
2026-01-03 16:08:38.45	249.30	22.08	-41.1	-41.7	19.7	0.00e+00	0	56	0	1877999616	44	3943
2026-01-03 16:08:39.44	249.55	22.13	-41.1	-41.7	19.7	0.00e+00	0	56	0	1885339648	44	3947
2026-01-03 16:08:40.43	249.79	22.19	-41.1	-41.7	19.7	0.00e+00	0	56	0	1892679680	44	3929
2026-01-03 16:08:41.42	250.03	22.25	-41.2	-41.7	19.7	0.00e+00	0	55	0	1900019712	44	3955
2026-01-03 16:08:42.41	250.28	22.30	-41.3	-41.8	19.6	0.00e+00	0	56	0	1907359744	44	4001
2026-01-03 16:08:43.40	250.52	22.36	-40.9	-41.5	19.9	0.00e+00	0	56	0	1913651200	44	3825
2026-01-03 16:08:44.38	250.77	22.41	-40.8	-41.4	20.0	0.00e+00	0	56	0	1920991232	44	3790
2026-01-03 16:08:45.38	251.02	22.47	-40.9	-41.4	20.0	0.00e+00	0	56	0	1928331264	44	3806
2026-01-03 16:08:46.37	251.26	22.53	-40.9	-41.4	20.0	0.00e+00	0	56	0	1935671296	44	3798
2026-01-03 16:08:47.36	251.51	22.58	-40.7	-41.3	20.1	0.00e+00	0	56	0	1943011328	44	3742
2026-01-03 16:08:48.35	251.76	22.63	-40.8	-41.3	20.1	0.00e+00	0	56	0	1950351360	44	3769
2026-01-03 16:08:49.34	252.01	22.69	-40.9	-41.4	20.0	0.00e+00	0	56	0	1956642816	44	3814
2026-01-03 16:08:50.34	252.27	22.74	-41.1	-41.7	19.8	0.00e+00	0	56	0	1963982848	44	3926
2026-01-03 16:08:51.33	252.52	22.79	-40.8	-41.3	20.1	0.00e+00	0	56	0	1971322880	44	3768
2026-01-03 16:08:52.32	252.77	22.84	-40.7	-41.2	20.2	0.00e+00	0	56	0	1978662912	44	3712
2026-01-03 16:08:53.31	253.03	22.90	-40.6	-41.1	20.3	0.00e+00	0	56	0	1986002944	44	3670
2026-01-03 16:08:54.29	253.28	22.95	-40.5	-41.0	20.4	0.00e+00	0	56	0	1993342976	44	3631
2026-01-03 16:08:55.28	253.53	23.00	-40.4	-40.9	20.4	0.00e+00	0	56	0	1999634432	43	3797
2026-01-03 16:08:56.27	253.79	23.05	-40.7	-41.2	20.1	0.00e+00	0	56	0	2006974464	43	3929
2026-01-03 16:08:57.26	254.05	23.10	-40.8	-41.3	20.0	0.00e+00	0	56	0	2014314496	43	3975
2026-01-03 16:08:58.25	254.30	23.15	-40.5	-41.0	20.2	0.00e+00	0	56	0	2021654528	43	3867
2026-01-03 16:08:59.24	254.56	23.20	-40.4	-40.9	20.4	0.00e+00	0	56	0	2028994560	43	3795
2026-01-03 16:09:00.24	254.82	23.24	-40.3	-40.8	20.5	0.00e+00	0	56	0	2035286016	43	3779
2026-01-03 16:09:01.23	255.08	23.29	-40.4	-40.9	20.4	0.00e+00	0	56	0	2042626048	43	3783
2026-01-03 16:09:02.22	255.35	23.34	-40.5	-41.0	20.3	0.00e+00	0	56	0	2049966080	43	3840
2026-01-03 16:09:03.21	255.61	23.39	-40.6	-41.1	20.1	0.00e+00	0	56	0	2057306112	43	3908
2026-01-03 16:09:04.19	255.87	23.43	-40.7	-41.2	20.1	0.00e+00	0	56	0	2064646144	43	3957
2026-01-03 16:09:05.18	256.13	23.48	-40.6	-41.1	20.2	0.00e+00	0	56	0	2071986176	43	3878
2026-01-03 16:09:06.18	256.40	23.52	-40.4	-40.9	20.5	0.00e+00	0	56	0	2078277632	43	3786
2026-01-03 16:09:07.17	256.66	23.57	-40.3	-40.8	20.5	0.00e+00	0	56	0	2085617664	43	3765
2026-01-03 16:09:08.16	256.93	23.61	-40.4	-40.9	20.4	0.00e+00	0	56	0	2092957696	43	3794
2026-01-03 16:09:09.15	257.19	23.65	-40.3	-40.8	20.5	0.00e+00	0	56	0	2100297728	43	3756
2026-01-03 16:09:10.14	257.46	23.70	-40.6	-41.1	20.2	0.00e+00	0	56	0	2107637760	43	3908
2026-01-03 16:09:11.13	257.73	23.74	-40.5	-41.0	20.2	0.00e+00	0	56	0	2114977792	43	3865
2026-01-03 16:09:12.12	258.00	23.78	-40.9	-41.4	19.9	0.00e+00	0	56	0	2121269248	43	4036
2026-01-03 16:09:13.11	258.26	23.82	-40.6	-41.2	20.1	0.00e+00	0	56	0	2128609280	43	3922
2026-01-03 16:09:14.10	258.53	23.86	-40.8	-41.4	19.9	0.00e+00	0	56	0	2135949312	43	4024
2026-01-03 16:09:15.09	258.80	23.90	-40.5	-41.0	20.3	0.00e+00	0	56	0	2143289344	43	3849
2026-01-03 16:09:16.08	259.07	23.94	-40.4	-40.8	20.4	0.00e+00	0	56	0	2150629376	43	3780
2026-01-03 16:09:17.07	259.35	23.98	-40.4	-40.9	20.4	0.00e+00	0	56	0	2156920832	43	3806
2026-01-03 16:09:18.06	259.62	24.02	-40.2	-40.7	20.6	0.00e+00	0	56	0	2164260864	43	3720
2026-01-03 16:09:19.05	259.89	24.06	-40.3	-40.8	20.5	0.00e+00	0	56	0	2171600896	43	3745
2026-01-03 16:09:20.03	260.16	24.09	-40.3	-40.7	20.5	0.00e+00	0	56	0	2178940928	43	3734
2026-01-03 16:09:21.03	260.44	24.13	-40.4	-40.8	20.5	0.00e+00	0	56	0	2186280960	43	3780
2026-01-03 16:09:22.02	260.71	24.17	-40.6	-41.1	20.2	0.00e+00	0	56	0	2192572416	43	3892
2026-01-03 16:09:23.01	260.99	24.20	-40.3	-40.8	20.5	0.00e+00	0	56	0	2199912448	43	3758
2026-01-03 16:09:24.00	261.27	24.23	-40.1	-40.6	20.7	0.00e+00	0	56	0	2207252480	43	3656
2026-01-03 16:09:24.99	261.54	24.27	-39.9	-40.4	20.9	0.00e+00	0	56	0	2214592512	42	3801
2026-01-03 16:09:25.98	261.82	24.30	-40.0	-40.4	20.8	0.00e+00	0	56	0	2221932544	42	3822
2026-01-03 16:09:26.97	262.10	24.33	-40.1	-40.6	20.7	0.00e+00	0	56	0	2228224000	42	3892
2026-01-03 16:09:27.96	262.37	24.37	-40.0	-40.5	20.7	0.00e+00	0	56	0	2235564032	42	3854
2026-01-03 16:09:28.94	262.65	24.40	-40.1	-40.5	20.8	0.00e+00	0	56	0	2242904064	42	3856
2026-01-03 16:09:29.93	262.93	24.43	-40.1	-40.6	20.7	0.00e+00	0	56	0	2250244096	42	3907
2026-01-03 16:09:30.92	263.21	24.46	-40.2	-40.7	20.6	0.00e+00	0	56	0	2256535552	42	3945
2026-01-03 16:09:31.91	263.49	24.49	-40.1	-40.6	20.7	0.00e+00	0	56	0	2263875584	42	3883
2026-01-03 16:09:32.90	263.77	24.51	-40.1	-40.5	20.7	0.00e+00	0	56	0	2271215616	42	3855
2026-01-03 16:09:33.89	264.05	24.54	-40.1	-40.5	20.7	0.00e+00	0	56	0	2278555648	42	3856
2026-01-03 16:09:34.87	264.33	24.57	-40.3	-40.8	20.5	0.00e+00	0	56	0	2285895680	42	3961
2026-01-03 16:09:35.86	264.61	24.60	-40.4	-40.8	20.4	0.00e+00	0	56	0	2293235712	42	3999
2026-01-03 16:09:36.85	264.90	24.62	-40.6	-41.1	20.2	0.00e+00	0	56	0	2299527168	42	4127
2026-01-03 16:09:37.84	265.18	24.65	-40.6	-41.1	20.2	0.00e+00	0	56	0	2306867200	42	4141
2026-01-03 16:09:38.83	265.46	24.67	-40.6	-41.1	20.2	0.00e+00	0	56	0	2314207232	42	4116
2026-01-03 16:09:39.82	265.75	24.69	-40.6	-41.1	20.2	0.00e+00	0	56	0	2321547264	42	4137
2026-01-03 16:09:40.81	266.03	24.72	-40.5	-41.0	20.3	0.00e+00	0	56	0	2328887296	42	4075
2026-01-03 16:09:41.81	266.32	24.74	-40.3	-40.9	20.5	0.00e+00	0	56	0	2336227328	42	4005
2026-01-03 16:09:42.80	266.60	24.76	-40.4	-40.9	20.4	0.00e+00	0	56	0	2342518784	42	4009
2026-01-03 16:09:43.79	266.89	24.78	-40.3	-40.8	20.5	0.00e+00	0	56	0	2349858816	42	3980
2026-01-03 16:09:44.77	267.17	24.80	-40.4	-40.9	20.4	0.00e+00	0	56	0	2357198848	42	4005
2026-01-03 16:09:45.76	267.46	24.82	-40.4	-40.9	20.4	0.00e+00	0	56	0	2364538880	42	4010
2026-01-03 16:09:46.75	267.74	24.84	-40.2	-40.7	20.6	0.00e+00	0	56	0	2371878912	42	3957
2026-01-03 16:09:47.74	268.03	24.86	-40.1	-40.6	20.7	0.00e+00	0	56	0	2378170368	42	3875
2026-01-03 16:09:48.72	268.32	24.88	-40.0	-40.5	20.8	0.00e+00	0	56	0	2385510400	42	3836
2026-01-03 16:09:49.72	268.61	24.89	-40.0	-40.4	20.9	0.00e+00	0	56	0	2392850432	42	3808
2026-01-03 16:09:50.70	268.89	24.91	-40.0	-40.5	20.8	0.00e+00	0	56	0	2400190464	42	3840
2026-01-03 16:09:51.69	269.18	24.92	-40.3	-40.8	20.5	0.00e+00	0	56	0	2407530496	42	3978
2026-01-03 16:09:52.68	269.47	24.94	-40.2	-40.7	20.6	0.00e+00	0	56	0	2414870528	42	3939
2026-01-03 16:09:53.66	269.75	24.95	-40.2	-40.7	20.6	0.00e+00	0	56	0	2421161984	42	3923
2026-01-03 16:09:54.65	270.04	24.96	-40.2	-40.6	20.7	0.00e+00	0	56	0	2428502016	42	3909
2026-01-03 16:09:55.64	270.33	24.98	-40.2	-40.6	20.6	0.00e+00	0	56	0	2435842048	42	3906
2026-01-03 16:09:56.63	270.62	24.99	-40.2	-40.7	20.6	0.00e+00	0	56	0	2443182080	42	3923
2026-01-03 16:09:57.62	270.91	25.00	-40.1	-40.6	20.7	0.00e+00	0	56	0	2449473536	42	3890
2026-01-03 16:09:58.61	271.20	25.01	-40.2	-40.7	20.6	0.00e+00	0	56	0	2456813568	42	3938
2026-01-03 16:09:59.60	271.49	25.02	-40.2	-40.7	20.6	0.00e+00	0	56	0	2464153600	42	3929
2026-01-03 16:10:00.59	271.78	25.02	-40.2	-40.7	20.6	0.00e+00	0	56	0	2471493632	42	3923
2026-01-03 16:10:01.58	272.07	25.03	-40.2	-40.7	20.6	0.00e+00	0	56	0	2478833664	42	3935
2026-01-03 16:10:02.57	272.36	25.04	-40.3	-40.8	20.6	0.00e+00	0	56	0	2485125120	42	3966
2026-01-03 16:10:03.56	272.65	25.04	-40.1	-40.6	20.7	0.00e+00	0	56	0	2492465152	42	3892
2026-01-03 16:10:04.55	272.94	25.05	-39.9	-40.4	20.9	0.00e+00	0	56	0	2499805184	42	3790
2026-01-03 16:10:05.55	273.23	25.05	-39.9	-40.3	21.0	0.00e+00	0	56	0	2507145216	42	3766
2026-01-03 16:10:06.53	273.52	25.06	-40.0	-40.5	20.8	0.00e+00	0	56	0	2514485248	42	3830
2026-01-03 16:10:07.52	273.81	25.06	-40.1	-40.6	20.8	0.00e+00	0	56	0	2520776704	42	3878
2026-01-03 16:10:08.51	274.10	25.06	-40.2	-40.7	20.6	0.00e+00	0	57	0	2528116736	42	3934
2026-01-03 16:10:09.49	274.39	25.06	-40.2	-40.7	20.6	0.00e+00	0	56	0	2535456768	42	3950
2026-01-03 16:10:10.48	274.68	25.06	-40.1	-40.6	20.7	0.00e+00	0	56	0	2542796800	42	3892
2026-01-03 16:10:11.46	274.97	25.06	-40.2	-40.7	20.6	0.00e+00	0	56	0	2550136832	42	3933
2026-01-03 16:10:12.45	275.26	25.06	-40.2	-40.7	20.7	0.00e+00	0	56	0	2557476864	42	3923
2026-01-03 16:10:13.44	275.55	25.06	-40.2	-40.6	20.7	0.00e+00	0	57	0	2563768320	42	3911
2026-01-03 16:10:14.43	275.84	25.06	-40.2	-40.7	20.6	0.00e+00	0	56	0	2571108352	42	3938
2026-01-03 16:10:15.41	276.13	25.06	-40.3	-40.8	20.5	0.00e+00	0	57	0	2578448384	42	3998
2026-01-03 16:10:16.40	276.42	25.05	-40.4	-40.9	20.4	0.00e+00	0	56	0	2585788416	42	4018
2026-01-03 16:10:17.38	276.70	25.05	-40.2	-40.7	20.6	0.00e+00	0	57	0	2593128448	42	3946
2026-01-03 16:10:18.37	276.99	25.04	-40.2	-40.6	20.6	0.00e+00	0	56	0	2599419904	42	3906
2026-01-03 16:10:19.36	277.28	25.04	-40.1	-40.6	20.7	0.00e+00	0	57	0	2606759936	42	3873
2026-01-03 16:10:20.35	277.57	25.03	-40.1	-40.5	20.8	0.00e+00	0	57	0	2614099968	42	3865
2026-01-03 16:10:21.34	277.86	25.02	-40.0	-40.5	20.8	0.00e+00	0	57	0	2621440000	42	3849
2026-01-03 16:10:22.33	278.15	25.01	-40.0	-40.5	20.8	0.00e+00	0	57	0	2628780032	42	3837
2026-01-03 16:10:23.33	278.45	25.00	-39.9	-40.4	20.9	0.00e+00	0	56	0	2636120064	42	3800
2026-01-03 16:10:24.31	278.73	24.99	-40.1	-40.5	20.8	0.00e+00	0	57	0	2642411520	42	3867
2026-01-03 16:10:25.31	279.02	24.98	-40.2	-40.7	20.6	0.00e+00	0	57	0	2649751552	42	3928
2026-01-03 16:10:26.30	279.31	24.97	-40.4	-40.9	20.4	0.00e+00	0	57	0	2657091584	42	4022
2026-01-03 16:10:27.29	279.60	24.96	-40.4	-40.9	20.4	0.00e+00	0	57	0	2664431616	42	4031
2026-01-03 16:10:28.28	279.89	24.95	-40.5	-41.0	20.3	0.00e+00	0	56	0	2671771648	42	4080
2026-01-03 16:10:29.26	280.18	24.93	-40.6	-41.1	20.2	0.00e+00	0	56	0	2678063104	42	4128
2026-01-03 16:10:30.25	280.46	24.92	-40.7	-41.2	20.2	0.00e+00	0	57	0	2685403136	43	3920
2026-01-03 16:10:31.23	280.75	24.90	-40.4	-40.9	20.4	0.00e+00	0	56	0	2692743168	43	3822
2026-01-03 16:10:32.22	281.04	24.89	-40.4	-40.9	20.4	0.00e+00	0	57	0	2699034624	43	3806
2026-01-03 16:10:33.21	281.32	24.87	-40.7	-41.2	20.1	0.00e+00	0	57	0	2706374656	43	3930
2026-01-03 16:10:34.19	281.61	24.85	-41.0	-41.6	19.8	0.00e+00	0	57	0	2713714688	43	4100
2026-01-03 16:10:35.18	281.89	24.84	-40.7	-41.2	20.1	0.00e+00	0	56	0	2721054720	43	3945
2026-01-03 16:10:36.18	282.18	24.82	-40.6	-41.1	20.2	0.00e+00	0	57	0	2728394752	43	3882
2026-01-03 16:10:37.16	282.47	24.80	-40.4	-40.9	20.3	0.00e+00	0	57	0	2735734784	43	3821
2026-01-03 16:10:38.14	282.75	24.78	-40.4	-40.9	20.4	0.00e+00	0	57	0	2742026240	43	3803
2026-01-03 16:10:39.14	283.04	24.76	-40.5	-41.0	20.3	0.00e+00	0	57	0	2749366272	43	3842
2026-01-03 16:10:40.13	283.32	24.74	-40.6	-41.1	20.1	0.00e+00	0	57	0	2756706304	43	3905
2026-01-03 16:10:41.12	283.61	24.71	-40.5	-41.0	20.2	0.00e+00	0	57	0	2764046336	43	3841
2026-01-03 16:10:42.12	283.89	24.69	-40.8	-41.3	19.9	0.00e+00	0	56	0	2771386368	43	3995
2026-01-03 16:10:43.11	284.18	24.67	-40.6	-41.1	20.1	0.00e+00	0	57	0	2778726400	43	3894
2026-01-03 16:10:44.10	284.46	24.64	-40.6	-41.1	20.1	0.00e+00	0	57	0	2785017856	43	3880
2026-01-03 16:10:45.09	284.74	24.62	-40.4	-40.9	20.2	0.00e+00	0	57	0	2792357888	43	3824
2026-01-03 16:10:46.08	285.02	24.59	-40.6	-41.2	20.0	0.00e+00	0	57	0	2799697920	43	3922
2026-01-03 16:10:47.06	285.30	24.56	-40.7	-41.2	19.9	0.00e+00	0	57	0	2807037952	43	3937
2026-01-03 16:10:48.06	285.59	24.54	-40.8	-41.3	19.8	0.00e+00	0	57	0	2814377984	43	3989
2026-01-03 16:10:49.06	285.87	24.51	-41.0	-41.5	19.6	0.00e+00	0	57	0	2820669440	43	4074
2026-01-03 16:10:50.05	286.15	24.48	-40.9	-41.4	19.8	0.00e+00	0	57	0	2828009472	43	4030
2026-01-03 16:10:51.04	286.43	24.45	-40.9	-41.4	19.7	0.00e+00	0	57	0	2835349504	43	4042
2026-01-03 16:10:52.03	286.71	24.42	-41.0	-41.5	19.6	0.00e+00	0	56	0	2842689536	43	4093
2026-01-03 16:10:53.03	286.99	24.39	-41.5	-42.1	19.2	0.00e+00	0	57	0	2850029568	44	4127
2026-01-03 16:10:54.01	287.27	24.36	-41.3	-41.8	19.5	0.00e+00	0	57	0	2857369600	44	3996
2026-01-03 16:10:54.99	287.54	24.33	-41.2	-41.7	19.5	0.00e+00	0	57	0	2863661056	44	3944
2026-01-03 16:10:55.98	287.82	24.29	-41.2	-41.8	19.5	0.00e+00	0	57	0	2871001088	44	3988
2026-01-03 16:10:56.98	288.10	24.26	-41.4	-42.0	19.3	0.00e+00	0	57	0	2878341120	44	4056
2026-01-03 16:10:57.97	288.37	24.23	-41.4	-42.0	19.2	0.00e+00	0	57	0	2885681152	44	4075
2026-01-03 16:10:58.97	288.65	24.19	-41.3	-41.9	19.3	0.00e+00	0	57	0	2893021184	44	4007
2026-01-03 16:10:59.96	288.93	24.16	-41.2	-41.8	19.4	0.00e+00	0	57	0	2900361216	44	3973
2026-01-03 16:11:00.95	289.20	24.12	-41.3	-41.8	19.3	0.00e+00	0	57	0	2906652672	44	3992
2026-01-03 16:11:01.94	289.47	24.08	-41.3	-41.8	19.3	0.00e+00	0	57	0	2913992704	44	4004
2026-01-03 16:11:02.94	289.75	24.05	-41.2	-41.8	19.3	0.00e+00	0	57	0	2921332736	44	3987
2026-01-03 16:11:03.93	290.02	24.01	-41.3	-41.9	19.2	0.00e+00	0	57	0	2928672768	44	4035
2026-01-03 16:11:04.91	290.29	23.97	-41.4	-42.0	19.2	0.00e+00	0	57	0	2936012800	44	4058
2026-01-03 16:11:05.91	290.56	23.93	-41.7	-42.3	18.8	0.00e+00	0	57	0	2942304256	45	3999
2026-01-03 16:11:06.89	290.83	23.89	-41.6	-42.2	18.9	0.00e+00	0	57	0	2949644288	45	3935
2026-01-03 16:11:07.88	291.10	23.85	-41.5	-42.1	19.1	0.00e+00	0	57	0	2956984320	45	3881
2026-01-03 16:11:08.88	291.37	23.81	-41.5	-42.1	19.0	0.00e+00	0	57	0	2964324352	45	3900
2026-01-03 16:11:09.86	291.64	23.77	-41.6	-42.2	19.0	0.00e+00	0	57	0	2971664384	45	3949
2026-01-03 16:11:10.85	291.91	23.73	-41.4	-42.0	19.2	0.00e+00	0	57	0	2979004416	45	3846
2026-01-03 16:11:11.84	292.17	23.69	-41.2	-41.8	19.5	0.00e+00	0	57	0	2985295872	45	3755
2026-01-03 16:11:12.83	292.44	23.65	-41.3	-41.9	19.4	0.00e+00	0	57	0	2992635904	45	3782
2026-01-03 16:11:13.82	292.70	23.60	-41.1	-41.6	19.7	0.00e+00	0	57	0	2999975936	45	3681
2026-01-03 16:11:14.81	292.97	23.56	-40.9	-41.5	19.9	0.00e+00	0	57	0	3007315968	44	3829
2026-01-03 16:11:15.80	293.23	23.51	-40.9	-41.4	19.9	0.00e+00	0	57	0	3014656000	44	3809
2026-01-03 16:11:16.78	293.49	23.47	-40.9	-41.4	19.9	0.00e+00	0	57	0	3021996032	44	3815
2026-01-03 16:11:17.78	293.76	23.42	-40.7	-41.3	20.1	0.00e+00	0	57	0	3028287488	44	3742
2026-01-03 16:11:18.77	294.02	23.38	-40.6	-41.1	20.2	0.00e+00	0	57	0	3035627520	44	3681
2026-01-03 16:11:19.76	294.28	23.33	-40.7	-41.2	20.2	0.00e+00	0	57	0	3042967552	44	3731
2026-01-03 16:11:20.74	294.54	23.28	-40.6	-41.2	20.1	0.00e+00	0	57	0	3050307584	44	3695
2026-01-03 16:11:21.73	294.80	23.24	-40.6	-41.1	20.2	0.00e+00	0	57	0	3057647616	44	3673
2026-01-03 16:11:22.72	295.06	23.19	-40.7	-41.2	20.1	0.00e+00	0	57	0	3063939072	44	3732
2026-01-03 16:11:23.71	295.31	23.14	-40.7	-41.2	20.2	0.00e+00	0	57	0	3071279104	44	3705
2026-01-03 16:11:24.71	295.57	23.09	-40.7	-41.2	20.1	0.00e+00	0	57	0	3078619136	44	3728
2026-01-03 16:11:25.70	295.83	23.04	-40.8	-41.4	20.0	0.00e+00	0	57	0	3085959168	44	3782
2026-01-03 16:11:26.69	296.08	22.99	-41.0	-41.5	19.9	0.00e+00	0	57	0	3093299200	44	3848
2026-01-03 16:11:27.68	296.34	22.94	-41.0	-41.5	19.9	0.00e+00	0	57	0	3100639232	44	3868
2026-01-03 16:11:28.67	296.59	22.89	-41.0	-41.6	19.8	0.00e+00	0	57	0	3106930688	44	3885
2026-01-03 16:11:29.66	296.85	22.84	-41.0	-41.5	19.9	0.00e+00	0	57	0	3114270720	44	3859
2026-01-03 16:11:30.65	297.10	22.78	-40.9	-41.5	19.9	0.00e+00	0	57	0	3121610752	44	3825
2026-01-03 16:11:31.64	297.35	22.73	-40.9	-41.5	19.9	0.00e+00	0	57	0	3128950784	44	3828
2026-01-03 16:11:32.64	297.60	22.68	-41.1	-41.6	19.8	0.00e+00	0	57	0	3136290816	44	3906
2026-01-03 16:11:33.63	297.85	22.63	-40.9	-41.4	20.0	0.00e+00	0	57	0	3143630848	44	3811
2026-01-03 16:11:34.62	298.10	22.57	-40.6	-41.1	20.2	0.00e+00	0	57	0	3149922304	44	3694
2026-01-03 16:11:35.61	298.35	22.52	-40.5	-41.0	20.3	0.00e+00	0	57	0	3157262336	44	3645
2026-01-03 16:11:36.59	298.59	22.46	-40.5	-41.0	20.2	0.00e+00	0	57	0	3164602368	44	3622
2026-01-03 16:11:37.59	298.84	22.41	-40.8	-41.3	20.1	0.00e+00	0	57	0	3171942400	44	3770
2026-01-03 16:11:38.57	299.08	22.35	-40.8	-41.4	20.0	0.00e+00	0	57	0	3179282432	44	3781
2026-01-03 16:11:39.56	299.33	22.30	-40.7	-41.2	20.2	0.00e+00	0	57	0	3185573888	44	3698
2026-01-03 16:11:40.55	299.57	22.24	-40.6	-41.1	20.3	0.00e+00	0	57	0	3192913920	44	3668
2026-01-03 16:11:41.54	299.82	22.18	-40.7	-41.2	20.2	0.00e+00	0	57	0	3200253952	44	3707
2026-01-03 16:11:42.53	300.06	22.13	-40.7	-41.2	20.1	0.00e+00	0	57	0	3207593984	44	3732
2026-01-03 16:11:43.51	300.30	22.07	-40.8	-41.3	20.1	0.00e+00	0	57	0	3213885440	44	3761
2026-01-03 16:11:44.50	300.54	22.01	-40.8	-41.3	20.0	0.00e+00	0	57	0	3221225472	44	3778
2026-01-03 16:11:45.50	300.78	21.95	-41.0	-41.5	19.9	0.00e+00	0	57	0	3228565504	44	3844
2026-01-03 16:11:46.50	301.02	21.89	-41.0	-41.5	19.7	0.00e+00	0	57	0	3235905536	44	3853
2026-01-03 16:11:47.48	301.25	21.84	-41.2	-41.8	19.6	0.00e+00	0	57	0	3243245568	44	3979
2026-01-03 16:11:48.47	301.49	21.78	-41.3	-41.9	19.5	0.00e+00	0	57	0	3249537024	44	4017
2026-01-03 16:11:49.45	301.72	21.72	-41.3	-41.9	19.5	0.00e+00	0	57	0	3256877056	44	4027
2026-01-03 16:11:50.44	301.96	21.66	-41.4	-41.9	19.5	0.00e+00	0	57	0	3264217088	44	4040
2026-01-03 16:11:51.42	302.19	21.60	-41.3	-41.9	19.5	0.00e+00	0	57	0	3271557120	44	4017
2026-01-03 16:11:52.42	302.43	21.54	-41.3	-41.9	19.5	0.00e+00	0	57	0	3278897152	44	4036
2026-01-03 16:11:53.42	302.66	21.48	-41.5	-42.1	19.4	0.00e+00	0	57	0	3285188608	44	4100
2026-01-03 16:11:54.41	302.89	21.42	-41.5	-42.1	19.4	0.00e+00	0	57	0	3292528640	44	4108
2026-01-03 16:11:55.41	303.12	21.35	-41.3	-41.8	19.6	0.00e+00	0	57	0	3299868672	44	3992
2026-01-03 16:11:56.40	303.35	21.29	-41.2	-41.8	19.6	0.00e+00	0	57	0	3307208704	44	3959
2026-01-03 16:11:57.39	303.58	21.23	-41.1	-41.6	19.8	0.00e+00	0	57	0	3314548736	44	3906
2026-01-03 16:11:58.38	303.81	21.17	-41.1	-41.6	19.8	0.00e+00	0	57	0	3321888768	44	3893
2026-01-03 16:11:59.37	304.04	21.10	-41.1	-41.6	19.8	0.00e+00	0	57	0	3328180224	44	3892
2026-01-03 16:12:00.35	304.26	21.04	-41.0	-41.5	19.8	0.00e+00	0	57	0	3335520256	44	3867
2026-01-03 16:12:01.34	304.48	20.98	-41.1	-41.6	19.8	0.00e+00	0	57	0	3342860288	44	3900
2026-01-03 16:12:02.33	304.71	20.91	-41.0	-41.6	19.8	0.00e+00	0	57	0	3350200320	44	3870
2026-01-03 16:12:03.32	304.93	20.85	-41.0	-41.5	19.9	0.00e+00	0	57	0	3357540352	44	3855
2026-01-03 16:12:04.31	305.15	20.79	-41.1	-41.6	19.8	0.00e+00	0	57	0	3364880384	44	3891
2026-01-03 16:12:05.30	305.38	20.72	-41.2	-41.8	19.6	0.00e+00	0	57	0	3371171840	44	3971
2026-01-03 16:12:06.29	305.60	20.66	-41.4	-42.0	19.4	0.00e+00	0	57	0	3378511872	44	4061
2026-01-03 16:12:07.28	305.82	20.59	-41.2	-41.7	19.6	0.00e+00	0	57	0	3385851904	44	3935
2026-01-03 16:12:08.27	306.03	20.53	-41.2	-41.8	19.6	0.00e+00	0	57	0	3393191936	44	3960
2026-01-03 16:12:09.26	306.25	20.46	-41.2	-41.8	19.6	0.00e+00	0	57	0	3400531968	44	3987
2026-01-03 16:12:10.25	306.47	20.40	-41.3	-41.8	19.5	0.00e+00	0	57	0	3406823424	44	3997
2026-01-03 16:12:11.25	306.69	20.33	-41.3	-41.9	19.4	0.00e+00	0	57	0	3414163456	44	4038
2026-01-03 16:12:12.24	306.90	20.26	-41.4	-42.0	19.4	0.00e+00	0	57	0	3421503488	44	4061
2026-01-03 16:12:13.24	307.12	20.20	-41.5	-42.1	19.2	0.00e+00	0	57	0	3428843520	44	4099
2026-01-03 16:12:14.23	307.33	20.13	-41.7	-42.3	19.1	0.00e+00	0	57	0	3436183552	45	3982
2026-01-03 16:12:15.22	307.54	20.06	-41.8	-42.4	19.0	0.00e+00	0	57	0	3443523584	45	4021
2026-01-03 16:12:16.22	307.76	20.00	-41.6	-42.2	19.2	0.00e+00	0	57	0	3449815040	45	3932
2026-01-03 16:12:17.21	307.97	19.93	-41.5	-42.1	19.3	0.00e+00	0	57	0	3457155072	45	3881
2026-01-03 16:12:18.19	308.18	19.86	-41.5	-42.1	19.3	0.00e+00	0	57	0	3464495104	45	3887
2026-01-03 16:12:19.18	308.38	19.80	-41.5	-42.0	19.3	0.00e+00	0	57	0	3471835136	45	3858
2026-01-03 16:12:20.17	308.59	19.73	-41.6	-42.2	19.3	0.00e+00	0	57	0	3479175168	45	3922
2026-01-03 16:12:21.16	308.80	19.66	-41.8	-42.4	19.0	0.00e+00	0	57	0	3486515200	45	4025
2026-01-03 16:12:22.15	309.00	19.59	-41.5	-42.0	19.3	0.00e+00	0	57	0	3492806656	45	3865
2026-01-03 16:12:23.14	309.21	19.52	-41.3	-41.9	19.5	0.00e+00	0	57	0	3500146688	45	3786
2026-01-03 16:12:24.13	309.41	19.46	-41.2	-41.7	19.6	0.00e+00	0	57	0	3507486720	45	3735
2026-01-03 16:12:25.11	309.62	19.39	-41.3	-41.9	19.5	0.00e+00	0	57	0	3514826752	45	3797
2026-01-03 16:12:26.10	309.82	19.32	-41.3	-41.9	19.5	0.00e+00	0	57	0	3522166784	45	3792
2026-01-03 16:12:27.10	310.02	19.25	-41.5	-42.1	19.2	0.00e+00	0	57	0	3528458240	45	3905
2026-01-03 16:12:28.09	310.22	19.18	-41.6	-42.2	19.2	0.00e+00	0	57	0	3535798272	45	3937
2026-01-03 16:12:29.08	310.42	19.11	-41.8	-42.4	19.0	0.00e+00	0	57	0	3543138304	45	4033
2026-01-03 16:12:30.06	310.62	19.04	-41.8	-42.4	19.0	0.00e+00	0	57	0	3550478336	45	4032
2026-01-03 16:12:31.06	310.82	18.97	-41.9	-42.6	18.8	0.00e+00	0	57	0	3557818368	45	4105
2026-01-03 16:12:32.04	311.01	18.90	-41.9	-42.5	18.9	0.00e+00	0	57	0	3565158400	45	4077
2026-01-03 16:12:33.02	311.21	18.84	-41.9	-42.5	18.9	0.00e+00	0	57	0	3571449856	45	4081
2026-01-03 16:12:34.01	311.40	18.77	-42.1	-42.7	18.7	0.00e+00	0	57	0	3578789888	45	4170
2026-01-03 16:12:35.00	311.60	18.70	-41.9	-42.5	18.9	0.00e+00	0	57	0	3586129920	45	4069
2026-01-03 16:12:35.99	311.79	18.63	-41.8	-42.4	18.9	0.00e+00	0	57	0	3593469952	45	4043
2026-01-03 16:12:36.99	311.99	18.56	-41.8	-42.5	18.9	0.00e+00	0	57	0	3600809984	45	4052
2026-01-03 16:12:37.98	312.18	18.49	-42.0	-42.7	18.7	0.00e+00	0	57	0	3608150016	45	4149
2026-01-03 16:12:38.97	312.37	18.41	-41.8	-42.4	18.9	0.00e+00	0	57	0	3614441472	45	4051
2026-01-03 16:12:39.96	312.56	18.34	-41.8	-42.4	18.9	0.00e+00	0	57	0	3621781504	45	4018
2026-01-03 16:12:40.95	312.75	18.27	-41.8	-42.4	19.0	0.00e+00	0	57	0	3629121536	45	4027
2026-01-03 16:12:41.95	312.94	18.20	-41.9	-42.5	18.8	0.00e+00	0	57	0	3636461568	45	4078
2026-01-03 16:12:42.93	313.13	18.13	-42.0	-42.7	18.7	0.00e+00	0	57	0	3643801600	45	4155
2026-01-03 16:12:43.93	313.31	18.06	-42.3	-42.9	18.4	0.00e+00	0	57	0	3650093056	46	4042
2026-01-03 16:12:44.92	313.50	17.99	-42.1	-42.7	18.7	0.00e+00	0	57	0	3657433088	46	3923
2026-01-03 16:12:45.91	313.68	17.92	-42.0	-42.6	18.7	0.00e+00	0	57	0	3664773120	46	3899
2026-01-03 16:12:46.90	313.87	17.85	-42.1	-42.7	18.6	0.00e+00	0	57	0	3672113152	46	3952
2026-01-03 16:12:47.88	314.05	17.78	-42.1	-42.7	18.7	0.00e+00	0	57	0	3679453184	46	3936
2026-01-03 16:12:48.86	314.23	17.71	-42.1	-42.8	18.6	0.00e+00	0	57	0	3685744640	46	3962
2026-01-03 16:12:49.85	314.41	17.64	-42.2	-42.8	18.6	0.00e+00	0	57	0	3693084672	46	3972
2026-01-03 16:12:50.84	314.59	17.56	-42.2	-42.9	18.4	0.00e+00	0	57	0	3700424704	46	4015
2026-01-03 16:12:51.84	314.78	17.49	-42.4	-43.1	18.3	0.00e+00	0	57	0	3707764736	46	4099
2026-01-03 16:12:52.82	314.95	17.42	-42.7	-43.3	18.0	0.00e+00	0	57	0	3714056192	46	4240
2026-01-03 16:12:53.81	315.13	17.35	-42.6	-43.3	18.1	0.00e+00	0	57	0	3721396224	47	3981
2026-01-03 16:12:54.80	315.31	17.28	-42.5	-43.1	18.2	0.00e+00	0	57	0	3728736256	47	3902
2026-01-03 16:12:55.79	315.49	17.21	-42.3	-43.0	18.3	0.00e+00	0	57	0	3736076288	47	3849
2026-01-03 16:12:56.78	315.66	17.14	-42.3	-42.9	18.4	0.00e+00	0	57	0	3743416320	47	3814
2026-01-03 16:12:57.77	315.84	17.06	-42.2	-42.9	18.5	0.00e+00	0	57	0	3749707776	47	3784
2026-01-03 16:12:58.75	316.01	16.99	-42.2	-42.9	18.5	0.00e+00	0	57	0	3757047808	47	3785
2026-01-03 16:12:59.73	316.18	16.92	-42.0	-42.7	18.7	0.00e+00	0	57	0	3764387840	47	3704
2026-01-03 16:13:00.72	316.35	16.85	-42.0	-42.6	18.8	0.00e+00	0	57	0	3771727872	46	3885
2026-01-03 16:13:01.72	316.53	16.78	-41.9	-42.5	18.8	0.00e+00	0	57	0	3779067904	46	3853
2026-01-03 16:13:02.71	316.70	16.71	-41.8	-42.4	18.9	0.00e+00	0	57	0	3786407936	46	3791
2026-01-03 16:13:03.70	316.87	16.63	-41.7	-42.3	19.0	0.00e+00	0	57	0	3792699392	46	3751
2026-01-03 16:13:04.69	317.04	16.56	-41.7	-42.3	19.0	0.00e+00	0	57	0	3800039424	46	3769
2026-01-03 16:13:05.68	317.21	16.49	-41.7	-42.3	19.0	0.00e+00	0	57	0	3807379456	46	3760
2026-01-03 16:13:06.67	317.38	16.42	-41.7	-42.3	19.0	0.00e+00	0	57	0	3814719488	46	3756
2026-01-03 16:13:07.66	317.54	16.35	-41.9	-42.5	18.9	0.00e+00	0	57	0	3822059520	46	3828
2026-01-03 16:13:08.65	317.71	16.27	-41.9	-42.5	18.8	0.00e+00	0	57	0	3829399552	46	3842
2026-01-03 16:13:09.65	317.88	16.20	-42.0	-42.6	18.7	0.00e+00	0	57	0	3835691008	46	3892
2026-01-03 16:13:10.64	318.04	16.13	-42.2	-42.8	18.5	0.00e+00	0	57	0	3843031040	46	3993
2026-01-03 16:13:11.63	318.21	16.06	-42.2	-42.9	18.4	0.00e+00	0	57	0	3850371072	46	4017
2026-01-03 16:13:12.62	318.37	15.99	-42.4	-43.0	18.3	0.00e+00	0	57	0	3857711104	46	4083
2026-01-03 16:13:13.61	318.53	15.91	-42.5	-43.2	18.1	0.00e+00	0	57	0	3865051136	46	4163
2026-01-03 16:13:14.60	318.69	15.84	-42.7	-43.4	17.9	0.00e+00	0	57	0	3871342592	46	4246
2026-01-03 16:13:15.58	318.85	15.77	-42.8	-43.5	17.8	0.00e+00	0	57	0	3878682624	47	4065
2026-01-03 16:13:16.56	319.01	15.70	-42.8	-43.6	17.7	0.00e+00	0	57	0	3886022656	47	4101
2026-01-03 16:13:17.56	319.17	15.63	-42.9	-43.7	17.7	0.00e+00	0	57	0	3893362688	47	4155
2026-01-03 16:13:18.55	319.33	15.55	-42.9	-43.6	17.7	0.00e+00	0	57	0	3900702720	47	4141
2026-01-03 16:13:19.54	319.49	15.48	-42.7	-43.4	17.9	0.00e+00	0	57	0	3908042752	47	4033
2026-01-03 16:13:20.53	319.65	15.41	-42.6	-43.3	18.0	0.00e+00	0	57	0	3914334208	47	3963
2026-01-03 16:13:21.52	319.81	15.34	-42.5	-43.2	18.2	0.00e+00	0	57	0	3921674240	47	3915
2026-01-03 16:13:22.50	319.96	15.27	-42.4	-43.1	18.2	0.00e+00	0	57	0	3929014272	47	3898
2026-01-03 16:13:23.48	320.11	15.20	-42.3	-43.0	18.3	0.00e+00	0	57	0	3936354304	47	3838
2026-01-03 16:13:24.47	320.27	15.12	-42.3	-42.9	18.4	0.00e+00	0	57	0	3942645760	47	3815
2026-01-03 16:13:25.46	320.42	15.05	-42.2	-42.9	18.3	0.00e+00	0	57	0	3949985792	47	3802
2026-01-03 16:13:26.46	320.58	14.98	-42.1	-42.7	18.5	0.00e+00	0	57	0	3957325824	47	3727
2026-01-03 16:13:27.45	320.73	14.91	-42.0	-42.7	18.6	0.00e+00	0	57	0	3964665856	47	3705
2026-01-03 16:13:28.44	320.88	14.84	-42.1	-42.7	18.6	0.00e+00	0	57	0	3972005888	47	3724
2026-01-03 16:13:29.42	321.03	14.77	-42.2	-42.9	18.4	0.00e+00	0	57	0	3978297344	47	3782
2026-01-03 16:13:30.40	321.18	14.69	-42.3	-42.9	18.3	0.00e+00	0	57	0	3985637376	47	3820
2026-01-03 16:13:31.39	321.33	14.62	-42.4	-43.1	18.2	0.00e+00	0	57	0	3992977408	47	3878
2026-01-03 16:13:32.37	321.48	14.55	-42.4	-43.1	18.2	0.00e+00	0	57	0	4000317440	47	3879
2026-01-03 16:13:33.36	321.62	14.48	-42.6	-43.3	18.0	0.00e+00	0	57	0	4007657472	47	3970
2026-01-03 16:13:34.34	321.77	14.41	-42.6	-43.3	17.9	0.00e+00	0	57	0	4013948928	47	3995
2026-01-03 16:13:35.33	321.92	14.34	-42.8	-43.5	17.7	0.00e+00	0	57	0	4021288960	47	4088
2026-01-03 16:13:36.32	322.06	14.27	-42.8	-43.6	17.7	0.00e+00	0	57	0	4028628992	47	4107
2026-01-03 16:13:37.31	322.21	14.20	-42.9	-43.5	17.7	0.00e+00	0	57	0	4035969024	47	4095
2026-01-03 16:13:38.30	322.35	14.12	-42.9	-43.6	17.6	0.00e+00	0	57	0	4043309056	47	4145
2026-01-03 16:13:39.29	322.50	14.05	-43.0	-43.7	17.5	0.00e+00	0	57	0	4050649088	47	4193
2026-01-03 16:13:40.28	322.64	13.98	-43.1	-43.9	17.4	0.00e+00	0	57	0	4056940544	47	4264
2026-01-03 16:13:41.27	322.78	13.91	-43.1	-43.9	17.4	0.00e+00	0	57	0	4064280576	47	4274
2026-01-03 16:13:42.26	322.93	13.84	-43.3	-44.0	17.4	0.00e+00	0	57	0	4071620608	48	4092
2026-01-03 16:13:43.25	323.07	13.77	-43.3	-44.1	17.4	0.00e+00	0	57	0	4078960640	48	4115
2026-01-03 16:13:44.24	323.21	13.70	-43.4	-44.1	17.3	0.00e+00	0	57	0	4086300672	48	4143
2026-01-03 16:13:45.22	323.35	13.63	-43.4	-44.2	17.3	0.00e+00	0	57	0	4092592128	48	4171
2026-01-03 16:13:46.22	323.49	13.55	-43.2	-44.0	17.4	0.00e+00	0	57	0	4099932160	48	4068
2026-01-03 16:13:47.21	323.63	13.48	-43.1	-43.8	17.6	0.00e+00	0	57	0	4107272192	48	3979
2026-01-03 16:13:48.20	323.76	13.41	-43.0	-43.7	17.7	0.00e+00	0	57	0	4114612224	48	3927
2026-01-03 16:13:49.19	323.90	13.34	-42.9	-43.6	17.7	0.00e+00	0	57	0	4121952256	48	3888
2026-01-03 16:13:50.18	324.04	13.27	-42.9	-43.6	17.7	0.00e+00	0	57	0	4129292288	48	3875
2026-01-03 16:13:51.16	324.17	13.20	-42.8	-43.5	17.9	0.00e+00	0	57	0	4135583744	48	3836
2026-01-03 16:13:52.16	324.31	13.13	-42.7	-43.4	18.0	0.00e+00	0	57	0	4142923776	48	3793
2026-01-03 16:13:53.14	324.44	13.06	-42.8	-43.5	18.0	0.00e+00	0	57	0	4150263808	48	3827
2026-01-03 16:13:54.12	324.58	12.99	-42.6	-43.3	18.1	0.00e+00	0	57	0	4157603840	48	3763
2026-01-03 16:13:55.12	324.71	12.92	-42.6	-43.3	18.0	0.00e+00	0	57	0	4163895296	48	3766
2026-01-03 16:13:56.11	324.85	12.85	-42.6	-43.3	18.1	0.00e+00	0	57	0	4171235328	48	3750
2026-01-03 16:13:57.11	324.98	12.78	-42.7	-43.4	17.9	0.00e+00	0	57	0	4178575360	48	3790
2026-01-03 16:13:58.09	325.11	12.71	-42.6	-43.3	18.0	0.00e+00	0	57	0	4185915392	48	3776
2026-01-03 16:13:59.08	325.24	12.64	-42.9	-43.6	17.7	0.00e+00	0	58	0	4193255424	48	3879
2026-01-03 16:14:00.07	325.37	12.57	-42.8	-43.5	17.8	0.00e+00	0	57	0	4199546880	48	3859
2026-01-03 16:14:01.04	325.50	12.50	-43.0	-43.7	17.5	0.00e+00	0	57	0	4206886912	48	3957
2026-01-03 16:14:02.03	325.63	12.43	-43.0	-43.7	17.6	0.00e+00	0	57	0	4214226944	48	3936
2026-01-03 16:14:03.02	325.76	12.36	-43.1	-43.8	17.5	0.00e+00	0	57	0	4221566976	48	3973
2026-01-03 16:14:04.01	325.89	12.29	-43.2	-43.9	17.3	0.00e+00	0	57	0	4228907008	48	4044
2026-01-03 16:14:05.00	326.02	12.22	-43.1	-43.8	17.3	0.00e+00	0	57	0	4235198464	48	4003
2026-01-03 16:14:05.99	326.14	12.15	-43.2	-44.0	17.2	0.00e+00	0	57	0	4242538496	48	4052
2026-01-03 16:14:06.98	326.27	12.08	-43.4	-44.1	17.2	0.00e+00	0	57	0	4249878528	48	4138
2026-01-03 16:14:07.97	326.40	12.01	-43.3	-44.1	17.2	0.00e+00	0	57	0	4257218560	48	4110
2026-01-03 16:14:08.96	326.52	11.94	-43.3	-44.0	17.3	0.00e+00	0	57	0	4264558592	48	4079
2026-01-03 16:14:09.96	326.65	11.87	-43.4	-44.1	17.2	0.00e+00	0	57	0	4271898624	48	4131
2026-01-03 16:14:10.95	326.77	11.80	-43.4	-44.2	17.2	0.00e+00	0	57	0	4278190080	48	4148
2026-01-03 16:14:11.94	326.90	11.73	-43.4	-44.2	17.1	0.00e+00	0	57	0	4285530112	48	4151
2026-01-03 16:14:12.92	327.02	11.66	-43.4	-44.2	17.0	0.00e+00	0	57	0	4292870144	48	4153
2026-01-03 16:14:13.91	327.14	11.60	-43.4	-44.3	16.8	0.00e+00	0	57	0	4300210176	48	4195
2026-01-03 16:14:14.90	327.26	11.53	-43.4	-44.2	16.9	0.00e+00	0	57	0	4307550208	48	4148
2026-01-03 16:14:15.89	327.39	11.46	-43.4	-44.2	17.0	0.00e+00	0	57	0	4313841664	48	4161
2026-01-03 16:14:16.88	327.51	11.39	-43.4	-44.2	17.0	0.00e+00	0	57	0	4321181696	48	4172
2026-01-03 16:14:17.86	327.63	11.32	-43.7	-44.5	16.8	0.00e+00	0	57	0	4328521728	48	4301
2026-01-03 16:14:18.84	327.74	11.25	-43.5	-44.3	16.9	0.00e+00	0	57	0	4335861760	49	3994
2026-01-03 16:14:19.84	327.87	11.18	-43.3	-44.1	17.1	0.00e+00	0	57	0	4343201792	49	3897
2026-01-03 16:14:20.83	327.98	11.12	-43.4	-44.2	17.0	0.00e+00	0	57	0	4350541824	49	3917
2026-01-03 16:14:21.81	328.10	11.05	-43.4	-44.2	17.0	0.00e+00	0	57	0	4356833280	49	3919
2026-01-03 16:14:22.80	328.22	10.98	-43.4	-44.2	17.0	0.00e+00	0	57	0	4364173312	49	3942
2026-01-03 16:14:23.79	328.34	10.91	-43.6	-44.4	16.9	0.00e+00	0	57	0	4371513344	49	4015
2026-01-03 16:14:24.78	328.45	10.84	-43.5	-44.3	17.0	0.00e+00	0	57	0	4378853376	49	3989
2026-01-03 16:14:25.78	328.57	10.77	-43.4	-44.2	17.1	0.00e+00	0	57	0	4386193408	49	3918
2026-01-03 16:14:26.76	328.69	10.71	-43.3	-44.1	17.0	0.00e+00	0	57	0	4392484864	49	3898
2026-01-03 16:14:27.75	328.80	10.64	-43.4	-44.2	17.1	0.00e+00	0	57	0	4399824896	49	3919
2026-01-03 16:14:28.74	328.92	10.57	-43.5	-44.3	16.8	0.00e+00	0	57	0	4407164928	49	3972
2026-01-03 16:14:29.72	329.03	10.50	-43.4	-44.2	16.9	0.00e+00	0	57	0	4414504960	49	3950
2026-01-03 16:14:30.69	329.14	10.44	-43.4	-44.2	16.9	0.00e+00	0	57	0	4420796416	49	3921
2026-01-03 16:14:31.68	329.25	10.37	-43.4	-44.2	16.9	0.00e+00	0	57	0	4428136448	49	3947
2026-01-03 16:14:32.67	329.37	10.30	-43.6	-44.4	16.7	0.00e+00	0	57	0	4435476480	49	4038
2026-01-03 16:14:33.66	329.48	10.24	-43.7	-44.5	16.7	0.00e+00	0	57	0	4442816512	49	4074
2026-01-03 16:14:34.64	329.59	10.17	-43.5	-44.3	16.9	0.00e+00	0	57	0	4450156544	49	3998
2026-01-03 16:14:35.63	329.70	10.10	-43.6	-44.4	16.8	0.00e+00	0	57	0	4456448000	49	4044
2026-01-03 16:14:36.61	329.81	10.04	-43.6	-44.4	16.7	0.00e+00	0	57	0	4463788032	49	4051
2026-01-03 16:14:37.60	329.92	9.97	-43.7	-44.5	16.5	0.00e+00	0	57	0	4471128064	49	4080
2026-01-03 16:14:38.59	330.03	9.90	-43.7	-44.5	16.6	0.00e+00	0	57	0	4478468096	49	4078
2026-01-03 16:14:39.57	330.14	9.84	-43.7	-44.6	16.4	0.00e+00	0	57	0	4485808128	49	4109
2026-01-03 16:14:40.55	330.25	9.77	-43.9	-44.8	16.1	0.00e+00	0	57	0	4492099584	49	4225
2026-01-03 16:14:41.55	330.36	9.70	-44.0	-44.9	16.0	0.00e+00	0	57	0	4499439616	49	4290
2026-01-03 16:14:42.53	330.46	9.64	-44.1	-45.1	16.0	0.00e+00	0	57	0	4506779648	49	4345
2026-01-03 16:14:43.53	330.57	9.57	-44.1	-45.1	16.1	0.00e+00	0	57	0	4514119680	49	4356
2026-01-03 16:14:44.52	330.68	9.50	-44.2	-45.1	16.1	0.00e+00	0	57	0	4521459712	49	4371
2026-01-03 16:14:45.50	330.79	9.44	-44.3	-45.3	15.9	0.00e+00	0	57	0	4527751168	50	4195
2026-01-03 16:14:46.49	330.89	9.37	-44.3	-45.2	15.9	0.00e+00	0	57	0	4535091200	50	4189
2026-01-03 16:14:47.49	331.00	9.31	-44.4	-45.3	15.8	0.00e+00	0	57	0	4542431232	50	4238
2026-01-03 16:14:48.48	331.10	9.24	-44.5	-45.4	15.7	0.00e+00	0	57	0	4549771264	50	4281
2026-01-03 16:14:49.47	331.21	9.17	-44.3	-45.2	15.9	0.00e+00	0	57	0	4557111296	50	4178
2026-01-03 16:14:50.45	331.31	9.11	-44.2	-45.1	16.0	0.00e+00	0	57	0	4563402752	50	4137
2026-01-03 16:14:51.45	331.42	9.04	-44.1	-45.0	16.2	0.00e+00	0	57	0	4570742784	50	4061
2026-01-03 16:14:52.45	331.52	8.98	-44.2	-45.1	16.1	0.00e+00	0	57	0	4578082816	50	4123
2026-01-03 16:14:53.43	331.62	8.91	-44.2	-45.2	16.0	0.00e+00	0	57	0	4585422848	50	4150
2026-01-03 16:14:54.41	331.72	8.85	-44.2	-45.1	15.9	0.00e+00	0	57	0	4592762880	50	4140
2026-01-03 16:14:55.40	331.83	8.78	-44.2	-45.1	15.8	0.00e+00	0	57	0	4599054336	50	4127
2026-01-03 16:14:56.40	331.93	8.72	-44.3	-45.2	15.8	0.00e+00	0	57	0	4606394368	50	4163
2026-01-03 16:14:57.39	332.03	8.65	-44.3	-45.2	15.7	0.00e+00	0	57	0	4613734400	50	4180
2026-01-03 16:14:58.38	332.13	8.59	-44.3	-45.3	15.6	0.00e+00	0	57	0	4621074432	50	4198
2026-01-03 16:14:59.38	332.23	8.52	-44.4	-45.4	15.4	0.00e+00	0	57	0	4628414464	50	4265
2026-01-03 16:15:00.36	332.33	8.46	-44.3	-45.2	15.4	0.00e+00	0	57	0	4635754496	50	4185
2026-01-03 16:15:01.35	332.43	8.39	-44.3	-45.3	14.7	0.00e+00	0	57	0	4642045952	50	4213
2026-01-03 16:15:02.33	332.53	8.33	-44.2	-45.2	14.2	0.00e+00	0	57	0	4649385984	50	4190
2026-01-03 16:15:03.33	332.63	8.26	-44.1	-45.1	14.0	1.10e-06	0	57	0	4656726016	50	4139
2026-01-03 16:15:04.32	332.73	8.20	-44.3	-45.4	13.7	3.40e-06	0	58	0	4664066048	50	4267
2026-01-03 16:15:05.30	332.83	8.13	-44.3	-45.5	13.2	3.40e-06	0	58	0	4671406080	50	4299
2026-01-03 16:15:06.29	332.92	8.07	-44.0	-45.2	12.1	6.86e-05	0	58	0	4677697536	50	4148
2026-01-03 16:15:07.28	333.02	8.01	-43.9	-45.1	12.0	7.43e-05	0	57	0	4685037568	50	4111
