passes_logs/2026/01/03/R3.0SM8_Murmansk_STILSPACE/R3.0SM8_Murmansk_STILSPACE__20260103_212714_NOAA_21_JPSS-2_rec.log

#Pass ID: 20260103_212714_NOAA 21 (JPSS-2)
#Satellite: NOAA 21 (JPSS-2)
#Configuration: NOAA-21
#almurnet v.1.7.20240730
#Start time: 2026-01-03 21:27:14

#Version: 2.2.20231116
#Station: R3.0SM8_Murmansk_STILSPACE
#Location: 33.092731 lon 68.902999 lat
#TLE: 1 54234U 22150A   26003.45311712  .00000198  00000+0  11468-3 0  9993
#TLE: 2 54234  98.7487 304.4932 0001159 347.5017  12.6130 14.19531745163172

#Time	Az	El	Level	Level2	SNR	BER	BlckErr	Temp	State	Recorded	gain1	gain2
2026-01-03 21:27:14.83	20.34	3.00	-52.5	-64.0	3.8	1.49e+00	0	45	0	0	67	13753
2026-01-03 21:27:15.81	20.44	3.05	-52.4	-63.9	3.8	1.49e+00	0	46	104	0	67	13658
2026-01-03 21:27:16.80	20.54	3.09	-52.4	-63.9	3.8	1.49e+00	0	46	104	0	67	13666
2026-01-03 21:27:17.79	20.64	3.14	-52.4	-63.9	3.8	1.49e+00	0	46	104	0	67	13648
2026-01-03 21:27:18.78	20.74	3.19	-52.3	-63.8	3.8	1.49e+00	0	46	104	0	67	13568
2026-01-03 21:27:19.78	20.84	3.23	-51.7	-63.3	3.8	1.49e+00	0	46	104	0	66	13470
2026-01-03 21:27:20.77	20.94	3.28	-51.7	-63.2	3.8	1.49e+00	0	46	104	0	65	14208
2026-01-03 21:27:21.76	21.04	3.32	-52.3	-63.8	3.8	1.49e+00	0	46	104	0	66	14287
2026-01-03 21:27:22.74	21.14	3.37	-52.3	-63.8	3.8	1.49e+00	0	46	104	0	66	14275
2026-01-03 21:27:23.74	21.24	3.42	-52.3	-63.8	3.8	1.49e+00	0	46	104	0	66	14226
2026-01-03 21:27:24.73	21.35	3.46	-52.2	-63.7	3.8	1.49e+00	0	46	104	0	66	14178
2026-01-03 21:27:25.73	21.45	3.51	-52.1	-63.7	3.8	1.49e+00	0	46	104	0	66	14068
2026-01-03 21:27:26.72	21.55	3.56	-52.1	-63.6	3.8	1.49e+00	0	46	104	0	66	13940
2026-01-03 21:27:27.70	21.65	3.60	-51.9	-63.5	3.8	1.49e+00	0	47	104	0	66	13743
2026-01-03 21:27:28.69	21.75	3.65	-51.7	-63.4	3.8	1.49e+00	0	47	104	0	66	13616
2026-01-03 21:27:29.68	21.86	3.70	-51.6	-63.2	3.8	1.49e+00	0	47	104	0	66	13281
2026-01-03 21:27:30.66	21.96	3.74	-51.3	-62.9	3.8	1.49e+00	0	47	104	0	65	13721
2026-01-03 21:27:31.65	22.06	3.79	-51.3	-62.9	3.8	1.49e+00	0	47	104	0	65	13644
2026-01-03 21:27:32.64	22.17	3.83	-51.4	-62.9	3.8	1.49e+00	0	47	104	0	65	13657
2026-01-03 21:27:33.63	22.27	3.88	-51.5	-62.9	3.8	1.49e+00	0	47	104	0	65	13653
2026-01-03 21:27:34.62	22.37	3.93	-51.5	-62.9	3.8	1.49e+00	0	47	104	0	65	13600
2026-01-03 21:27:35.61	22.48	3.97	-51.3	-62.8	3.8	1.49e+00	0	47	104	0	65	13539
2026-01-03 21:27:36.60	22.58	4.02	-51.5	-62.8	3.8	1.49e+00	0	47	104	0	65	13549
2026-01-03 21:27:37.59	22.69	4.07	-51.4	-62.8	3.8	1.49e+00	0	47	104	0	65	13543
2026-01-03 21:27:38.58	22.80	4.11	-51.5	-62.8	3.8	1.49e+00	0	47	104	0	65	13538
2026-01-03 21:27:39.57	22.90	4.16	-51.5	-62.8	3.8	1.49e+00	0	47	104	0	65	13542
2026-01-03 21:27:40.56	23.01	4.20	-51.5	-62.9	3.8	1.49e+00	0	47	104	0	65	13633
2026-01-03 21:27:41.55	23.11	4.25	-51.4	-62.9	3.8	1.49e+00	0	47	104	0	65	13708
2026-01-03 21:27:42.53	23.22	4.30	-51.4	-62.9	3.8	1.49e+00	0	47	104	0	65	13706
2026-01-03 21:27:43.53	23.33	4.34	-51.4	-62.9	3.8	1.49e+00	0	47	104	0	65	13693
2026-01-03 21:27:44.52	23.44	4.39	-51.5	-62.8	3.8	1.49e+00	0	48	104	0	65	13507
2026-01-03 21:27:45.51	23.54	4.44	-51.4	-62.8	3.8	1.49e+00	0	48	104	0	65	13437
2026-01-03 21:27:46.50	23.65	4.48	-51.5	-62.7	3.8	1.49e+00	0	48	104	0	65	13325
2026-01-03 21:27:47.49	23.76	4.53	-51.5	-62.6	3.8	1.49e+00	0	48	104	0	65	13224
2026-01-03 21:27:48.47	23.87	4.57	-51.3	-62.6	3.8	1.49e+00	0	48	104	0	65	13162
2026-01-03 21:27:49.46	23.98	4.62	-51.4	-62.6	3.8	1.49e+00	0	48	104	0	65	13178
2026-01-03 21:27:50.45	24.09	4.67	-51.3	-62.3	3.8	1.49e+00	0	48	104	0	65	12733
2026-01-03 21:27:51.44	24.20	4.71	-51.3	-61.9	3.8	1.49e+00	0	48	104	0	65	12219
2026-01-03 21:27:52.43	24.31	4.76	-51.2	-60.2	3.9	1.49e+00	0	48	104	0	65	10046
2026-01-03 21:27:53.42	24.42	4.81	-50.9	-58.5	4.4	1.46e+00	0	48	104	0	65	8260
2026-01-03 21:27:54.41	24.53	4.85	-50.5	-56.7	5.4	6.37e-01	0	48	0	1048576	64	7092
2026-01-03 21:27:55.40	24.64	4.90	-50.2	-55.3	6.5	2.51e-01	0	48	0	4194304	63	6381
2026-01-03 21:27:56.39	24.75	4.95	-49.7	-53.8	7.9	1.18e-01	0	48	0	7340032	62	5700
2026-01-03 21:27:57.37	24.86	4.99	-49.1	-52.5	9.2	2.60e-02	0	48	0	10485760	61	5184
2026-01-03 21:27:58.36	24.98	5.04	-48.7	-51.7	10.1	8.08e-03	0	48	0	13631488	60	5010
2026-01-03 21:27:59.35	25.09	5.08	-48.7	-51.7	10.0	6.28e-03	0	48	0	16777216	60	5041
2026-01-03 21:28:00.34	25.20	5.13	-48.9	-52.1	9.7	1.71e-02	0	49	0	19922944	60	5247
2026-01-03 21:28:01.34	25.32	5.18	-48.6	-51.6	10.2	6.69e-03	0	48	0	23068672	60	4967
2026-01-03 21:28:02.32	25.43	5.22	-48.4	-51.0	10.8	3.34e-03	0	49	0	25165824	59	4908
2026-01-03 21:28:03.30	25.54	5.27	-48.4	-51.0	10.8	2.25e-03	0	49	0	28311552	59	4914
2026-01-03 21:28:04.29	25.66	5.31	-47.9	-50.2	11.6	9.89e-04	0	49	0	31457280	58	4749
2026-01-03 21:28:05.29	25.77	5.36	-47.7	-49.9	12.0	3.59e-04	0	49	0	34603008	58	4585
2026-01-03 21:28:06.27	25.89	5.41	-47.5	-49.7	12.2	2.46e-04	0	49	0	37748736	58	4456
2026-01-03 21:28:07.26	26.00	5.45	-47.8	-50.1	11.8	4.36e-04	0	49	0	40894464	58	4667
2026-01-03 21:28:08.25	26.12	5.50	-48.1	-50.5	11.4	1.01e-03	0	49	0	44040192	58	4898
2026-01-03 21:28:09.24	26.23	5.55	-47.7	-50.0	11.9	4.25e-04	0	49	0	47185920	58	4610
2026-01-03 21:28:10.24	26.35	5.59	-47.4	-49.5	12.4	2.20e-04	0	49	0	50331648	58	4379
2026-01-03 21:28:11.22	26.47	5.64	-47.3	-49.3	12.7	8.46e-05	0	49	0	53477376	57	4506
2026-01-03 21:28:12.21	26.58	5.68	-47.1	-49.1	12.8	4.42e-05	0	49	0	56623104	57	4418
2026-01-03 21:28:13.19	26.70	5.73	-47.1	-48.9	13.0	4.50e-05	0	49	0	59768832	57	4337
2026-01-03 21:28:14.18	26.82	5.78	-47.2	-49.2	12.7	5.87e-05	0	49	0	62914560	57	4469
2026-01-03 21:28:15.17	26.94	5.82	-47.6	-49.7	12.2	1.64e-04	0	49	0	66060288	57	4750
2026-01-03 21:28:16.16	27.05	5.87	-47.2	-49.1	12.9	6.10e-05	0	49	0	69206016	57	4420
2026-01-03 21:28:17.15	27.17	5.91	-47.1	-49.0	13.0	3.89e-05	0	49	0	72351744	57	4350
2026-01-03 21:28:18.14	27.29	5.96	-46.9	-48.7	13.3	2.36e-05	0	50	0	75497472	56	4452
2026-01-03 21:28:19.13	27.41	6.01	-46.8	-48.5	13.5	1.06e-05	0	49	0	77594624	56	4354
2026-01-03 21:28:20.12	27.53	6.05	-46.7	-48.5	13.5	9.10e-06	0	49	0	80740352	56	4373
2026-01-03 21:28:21.11	27.65	6.10	-46.7	-48.5	13.5	1.90e-05	0	50	0	83886080	56	4377
2026-01-03 21:28:22.10	27.77	6.14	-47.0	-48.8	13.2	1.75e-05	0	49	0	87031808	56	4538
2026-01-03 21:28:23.09	27.89	6.19	-46.9	-48.7	13.3	1.83e-05	0	50	0	90177536	56	4473
2026-01-03 21:28:24.08	28.02	6.24	-47.1	-49.0	13.0	3.43e-05	0	50	0	93323264	56	4627
2026-01-03 21:28:25.07	28.14	6.28	-46.9	-48.7	13.3	1.83e-05	0	50	0	96468992	56	4452
2026-01-03 21:28:26.05	28.26	6.33	-46.7	-48.4	13.6	6.80e-06	0	50	0	99614720	56	4315
2026-01-03 21:28:27.04	28.38	6.37	-46.8	-48.6	13.5	1.83e-05	0	50	0	102760448	56	4396
2026-01-03 21:28:28.02	28.50	6.42	-46.8	-48.6	13.4	9.10e-06	0	50	0	105906176	56	4421
2026-01-03 21:28:28.99	28.62	6.46	-46.9	-48.7	13.4	1.83e-05	0	50	0	109051904	56	4459
2026-01-03 21:28:29.98	28.75	6.51	-46.7	-48.4	13.7	8.30e-06	0	50	0	112197632	56	4327
2026-01-03 21:28:30.97	28.87	6.55	-46.6	-48.3	13.8	3.80e-06	0	50	0	115343360	56	4246
2026-01-03 21:28:31.96	29.00	6.60	-46.3	-47.9	14.1	5.30e-06	0	50	0	118489088	55	4297
2026-01-03 21:28:32.94	29.12	6.64	-46.4	-48.0	13.9	2.20e-06	0	50	0	121634816	55	4388
2026-01-03 21:28:33.93	29.24	6.69	-46.2	-47.7	14.2	3.80e-06	0	50	0	124780544	55	4234
2026-01-03 21:28:34.92	29.37	6.74	-46.2	-47.8	14.2	2.20e-06	0	50	0	127926272	55	4244
2026-01-03 21:28:35.91	29.50	6.78	-46.2	-47.8	14.1	7.00e-07	0	50	0	130023424	55	4283
2026-01-03 21:28:36.89	29.62	6.83	-46.3	-47.9	14.0	1.50e-06	0	50	0	133169152	55	4314
2026-01-03 21:28:37.88	29.75	6.87	-46.2	-47.8	14.2	0.00e+00	0	50	0	136314880	55	4277
2026-01-03 21:28:38.87	29.87	6.92	-46.1	-47.6	14.4	0.00e+00	0	50	0	139460608	55	4181
2026-01-03 21:28:39.86	30.00	6.96	-46.0	-47.5	14.5	7.00e-07	0	50	0	142606336	55	4120
2026-01-03 21:28:40.85	30.13	7.01	-46.1	-47.7	14.4	7.00e-07	0	50	0	145752064	55	4194
2026-01-03 21:28:41.84	30.26	7.05	-46.1	-47.6	14.4	7.00e-07	0	51	0	148897792	55	4184
2026-01-03 21:28:42.83	30.39	7.10	-46.3	-47.8	14.1	1.50e-06	0	51	0	152043520	55	4286
2026-01-03 21:28:43.82	30.52	7.14	-46.1	-47.7	14.3	7.00e-07	0	51	0	155189248	55	4211
2026-01-03 21:28:44.81	30.64	7.19	-46.2	-47.7	14.3	3.00e-06	0	51	0	158334976	55	4211
2026-01-03 21:28:45.80	30.77	7.23	-46.1	-47.6	14.3	1.50e-06	0	51	0	161480704	55	4185
2026-01-03 21:28:46.79	30.90	7.28	-46.2	-47.8	14.2	1.50e-06	0	51	0	164626432	55	4269
2026-01-03 21:28:47.79	31.04	7.33	-46.2	-47.7	14.3	7.00e-07	0	51	0	167772160	55	4206
2026-01-03 21:28:48.77	31.17	7.37	-46.1	-47.6	14.4	7.00e-07	0	51	0	170917888	55	4168
2026-01-03 21:28:49.76	31.30	7.41	-46.2	-47.7	14.2	0.00e+00	0	51	0	174063616	55	4235
2026-01-03 21:28:50.75	31.43	7.46	-46.2	-47.7	14.4	0.00e+00	0	51	0	177209344	55	4196
2026-01-03 21:28:51.74	31.56	7.50	-46.0	-47.5	14.5	0.00e+00	0	51	0	180355072	55	4110
2026-01-03 21:28:52.73	31.69	7.55	-45.9	-47.4	14.6	0.00e+00	0	51	0	183500800	55	4071
2026-01-03 21:28:53.72	31.83	7.59	-45.9	-47.3	14.8	0.00e+00	0	51	0	186646528	54	4244
2026-01-03 21:28:54.70	31.96	7.64	-45.9	-47.4	14.7	0.00e+00	0	51	0	189792256	54	4296
2026-01-03 21:28:55.69	32.09	7.68	-45.9	-47.3	14.7	0.00e+00	0	51	0	191889408	54	4282
2026-01-03 21:28:56.68	32.23	7.73	-45.9	-47.4	14.7	0.00e+00	0	51	0	195035136	54	4293
2026-01-03 21:28:57.67	32.36	7.77	-45.9	-47.4	14.7	0.00e+00	0	51	0	198180864	54	4322
2026-01-03 21:28:58.65	32.49	7.82	-45.8	-47.3	14.8	0.00e+00	0	51	0	201326592	54	4268
2026-01-03 21:28:59.64	32.63	7.86	-45.8	-47.2	14.9	0.00e+00	0	51	0	204472320	54	4222
2026-01-03 21:29:00.63	32.76	7.91	-45.9	-47.3	14.8	0.00e+00	0	51	0	207618048	54	4269
2026-01-03 21:29:01.62	32.90	7.95	-46.0	-47.4	14.7	7.00e-07	0	51	0	210763776	54	4331
2026-01-03 21:29:02.60	33.04	7.99	-45.9	-47.3	14.8	0.00e+00	0	51	0	213909504	54	4291
2026-01-03 21:29:03.59	33.17	8.04	-46.0	-47.4	14.6	0.00e+00	0	51	0	217055232	54	4332
2026-01-03 21:29:04.58	33.31	8.08	-46.0	-47.4	14.7	1.50e-06	0	51	0	220200960	54	4339
2026-01-03 21:29:05.58	33.45	8.13	-46.0	-47.4	14.7	0.00e+00	0	51	0	223346688	54	4330
2026-01-03 21:29:06.57	33.59	8.17	-46.1	-47.6	14.5	0.00e+00	0	51	0	226492416	54	4402
2026-01-03 21:29:07.55	33.72	8.21	-46.2	-47.7	14.4	1.50e-06	0	52	0	229638144	54	4458
2026-01-03 21:29:08.55	33.86	8.26	-46.2	-47.6	14.5	0.00e+00	0	52	0	232783872	54	4422
2026-01-03 21:29:09.54	34.00	8.30	-46.2	-47.7	14.4	0.00e+00	0	52	0	235929600	54	4465
2026-01-03 21:29:10.53	34.14	8.35	-46.3	-47.9	14.3	1.50e-06	0	52	0	239075328	54	4560
2026-01-03 21:29:11.52	34.28	8.39	-46.3	-47.8	14.4	0.00e+00	0	52	0	242221056	54	4520
2026-01-03 21:29:12.51	34.42	8.43	-46.1	-47.5	14.6	7.00e-07	0	52	0	245366784	54	4362
2026-01-03 21:29:13.49	34.56	8.48	-46.0	-47.5	14.7	0.00e+00	0	52	0	248512512	54	4365
2026-01-03 21:29:14.49	34.70	8.52	-46.3	-47.8	14.4	0.00e+00	0	52	0	251658240	54	4497
2026-01-03 21:29:15.47	34.84	8.56	-46.3	-47.8	14.3	1.50e-06	0	52	0	253755392	54	4520
2026-01-03 21:29:16.46	34.99	8.61	-46.2	-47.7	14.5	0.00e+00	0	52	0	256901120	54	4455
2026-01-03 21:29:17.45	35.13	8.65	-46.1	-47.6	14.6	0.00e+00	0	52	0	260046848	54	4422
2026-01-03 21:29:18.43	35.27	8.69	-46.3	-47.7	14.4	0.00e+00	0	52	0	263192576	54	4492
2026-01-03 21:29:19.42	35.41	8.74	-46.4	-47.9	14.3	1.50e-06	0	52	0	266338304	54	4550
2026-01-03 21:29:20.41	35.56	8.78	-46.3	-47.8	14.4	0.00e+00	0	52	0	269484032	54	4521
2026-01-03 21:29:21.40	35.70	8.82	-46.3	-47.8	14.3	0.00e+00	0	52	0	272629760	54	4544
2026-01-03 21:29:22.39	35.85	8.87	-46.2	-47.6	14.6	7.00e-07	0	52	0	275775488	54	4432
2026-01-03 21:29:23.38	35.99	8.91	-46.0	-47.4	14.7	7.00e-07	0	52	0	278921216	54	4333
2026-01-03 21:29:24.37	36.14	8.95	-46.0	-47.4	14.8	0.00e+00	0	52	0	282066944	54	4298
2026-01-03 21:29:25.37	36.28	8.99	-46.0	-47.4	14.8	7.00e-07	0	52	0	285212672	54	4326
2026-01-03 21:29:26.36	36.43	9.04	-46.0	-47.4	14.8	0.00e+00	0	52	0	288358400	54	4320
2026-01-03 21:29:27.34	36.57	9.08	-46.0	-47.5	14.7	0.00e+00	0	52	0	291504128	54	4343
2026-01-03 21:29:28.33	36.72	9.12	-45.7	-47.1	15.1	0.00e+00	0	52	0	294649856	54	4157
2026-01-03 21:29:29.32	36.87	9.16	-45.7	-47.0	15.2	7.00e-07	0	52	0	297795584	54	4127
2026-01-03 21:29:30.30	37.02	9.21	-45.7	-47.0	15.2	0.00e+00	0	52	0	300941312	54	4114
2026-01-03 21:29:31.29	37.16	9.25	-45.8	-47.1	15.1	0.00e+00	0	52	0	304087040	54	4161
2026-01-03 21:29:32.28	37.31	9.29	-45.9	-47.2	15.0	0.00e+00	0	52	0	306184192	54	4229
2026-01-03 21:29:33.26	37.46	9.33	-45.7	-47.1	15.1	0.00e+00	0	52	0	309329920	54	4152
2026-01-03 21:29:34.25	37.61	9.37	-45.8	-47.2	15.0	7.00e-07	0	52	0	312475648	54	4232
2026-01-03 21:29:35.25	37.76	9.42	-45.7	-47.0	15.2	0.00e+00	0	52	0	315621376	54	4133
2026-01-03 21:29:36.23	37.91	9.46	-45.7	-47.0	15.2	0.00e+00	0	52	0	318767104	54	4142
2026-01-03 21:29:37.22	38.06	9.50	-45.8	-47.2	15.1	0.00e+00	0	52	0	321912832	54	4206
2026-01-03 21:29:38.21	38.21	9.54	-45.8	-47.2	15.1	0.00e+00	0	52	0	325058560	54	4214
2026-01-03 21:29:39.20	38.36	9.58	-45.6	-47.0	15.3	0.00e+00	0	52	0	328204288	54	4106
2026-01-03 21:29:40.18	38.51	9.62	-45.6	-46.9	15.3	0.00e+00	0	52	0	331350016	54	4088
2026-01-03 21:29:41.18	38.67	9.66	-45.7	-47.0	15.2	0.00e+00	0	52	0	334495744	54	4127
2026-01-03 21:29:42.16	38.82	9.70	-45.8	-47.2	15.1	0.00e+00	0	53	0	337641472	54	4204
2026-01-03 21:29:43.16	38.97	9.75	-45.6	-47.0	15.3	0.00e+00	0	52	0	340787200	54	4111
2026-01-03 21:29:44.15	39.13	9.79	-45.7	-46.9	15.3	0.00e+00	0	52	0	343932928	54	4090
2026-01-03 21:29:45.14	39.28	9.83	-45.7	-47.1	15.2	0.00e+00	0	53	0	347078656	54	4150
2026-01-03 21:29:46.13	39.43	9.87	-45.8	-47.2	15.0	0.00e+00	0	53	0	350224384	54	4232
2026-01-03 21:29:47.11	39.59	9.91	-45.7	-47.0	15.2	0.00e+00	0	52	0	353370112	54	4125
2026-01-03 21:29:48.10	39.74	9.95	-45.6	-46.9	15.4	0.00e+00	0	52	0	356515840	54	4059
2026-01-03 21:29:49.09	39.90	9.99	-45.6	-46.9	15.4	0.00e+00	0	53	0	359661568	54	4069
2026-01-03 21:29:50.08	40.05	10.03	-45.6	-46.9	15.4	0.00e+00	0	52	0	361758720	54	4086
2026-01-03 21:29:51.06	40.21	10.07	-45.6	-46.9	15.4	0.00e+00	0	53	0	364904448	54	4060
2026-01-03 21:29:52.05	40.37	10.11	-45.7	-47.0	15.2	0.00e+00	0	53	0	368050176	54	4145
2026-01-03 21:29:53.03	40.52	10.15	-45.8	-47.1	15.2	0.00e+00	0	53	0	371195904	54	4179
2026-01-03 21:29:54.02	40.68	10.19	-45.7	-47.0	15.3	0.00e+00	0	53	0	374341632	54	4128
2026-01-03 21:29:55.01	40.84	10.23	-45.6	-46.8	15.5	0.00e+00	0	53	0	377487360	54	4039
2026-01-03 21:29:56.01	41.00	10.27	-45.7	-46.9	15.3	0.00e+00	0	53	0	380633088	54	4094
2026-01-03 21:29:57.00	41.16	10.31	-45.7	-47.0	15.3	0.00e+00	0	53	0	383778816	54	4137
2026-01-03 21:29:57.98	41.31	10.34	-45.6	-46.9	15.4	0.00e+00	0	53	0	386924544	54	4096
2026-01-03 21:29:58.98	41.48	10.38	-46.0	-47.3	15.0	0.00e+00	0	53	0	390070272	54	4286
2026-01-03 21:29:59.97	41.64	10.42	-45.7	-47.0	15.3	0.00e+00	0	53	0	393216000	54	4138
2026-01-03 21:30:00.95	41.79	10.46	-45.6	-46.9	15.4	0.00e+00	0	53	0	396361728	54	4083
2026-01-03 21:30:01.94	41.96	10.50	-45.5	-46.8	15.5	0.00e+00	0	53	0	399507456	54	4044
2026-01-03 21:30:02.93	42.12	10.54	-45.6	-46.9	15.4	0.00e+00	0	53	0	402653184	54	4072
2026-01-03 21:30:03.92	42.28	10.58	-45.7	-47.0	15.3	0.00e+00	0	53	0	405798912	54	4117
2026-01-03 21:30:04.90	42.44	10.61	-45.8	-47.2	15.1	0.00e+00	0	53	0	408944640	54	4210
2026-01-03 21:30:05.89	42.60	10.65	-46.1	-47.5	14.8	0.00e+00	0	53	0	412090368	54	4359
2026-01-03 21:30:06.87	42.76	10.69	-45.9	-47.3	15.0	0.00e+00	0	53	0	415236096	54	4286
2026-01-03 21:30:07.86	42.93	10.73	-45.7	-47.0	15.3	0.00e+00	0	53	0	418381824	54	4145
2026-01-03 21:30:08.84	43.09	10.77	-45.6	-46.8	15.5	7.00e-07	0	53	0	421527552	54	4036
2026-01-03 21:30:09.82	43.25	10.80	-45.5	-46.8	15.6	0.00e+00	0	53	0	423624704	54	4017
2026-01-03 21:30:10.81	43.42	10.84	-45.4	-46.7	15.7	0.00e+00	0	53	0	426770432	54	3965
2026-01-03 21:30:11.80	43.58	10.88	-45.5	-46.7	15.7	0.00e+00	0	53	0	429916160	54	3981
2026-01-03 21:30:12.79	43.75	10.91	-45.6	-46.9	15.4	0.00e+00	0	53	0	433061888	54	4085
2026-01-03 21:30:13.78	43.91	10.95	-45.5	-46.8	15.5	0.00e+00	0	53	0	436207616	54	4030
2026-01-03 21:30:14.78	44.08	10.99	-45.4	-46.6	15.7	0.00e+00	0	53	0	439353344	54	3958
2026-01-03 21:30:15.77	44.25	11.02	-45.5	-46.8	15.6	0.00e+00	0	53	0	442499072	54	4012
2026-01-03 21:30:16.76	44.41	11.06	-45.7	-47.0	15.3	0.00e+00	0	53	0	445644800	54	4128
2026-01-03 21:30:17.74	44.58	11.10	-45.7	-47.0	15.4	0.00e+00	0	53	0	448790528	54	4100
2026-01-03 21:30:18.74	44.75	11.13	-45.8	-47.1	15.3	0.00e+00	0	53	0	451936256	54	4165
2026-01-03 21:30:19.73	44.92	11.17	-45.7	-47.1	15.3	0.00e+00	0	53	0	455081984	54	4152
2026-01-03 21:30:20.71	45.09	11.20	-45.7	-47.1	15.3	0.00e+00	0	53	0	458227712	54	4157
2026-01-03 21:30:21.70	45.25	11.24	-45.9	-47.2	15.2	0.00e+00	0	53	0	461373440	54	4220
2026-01-03 21:30:22.69	45.42	11.28	-45.8	-47.1	15.2	0.00e+00	0	53	0	464519168	54	4173
2026-01-03 21:30:23.68	45.59	11.31	-45.5	-46.8	15.5	0.00e+00	0	53	0	467664896	54	4016
2026-01-03 21:30:24.66	45.76	11.35	-45.3	-46.5	15.8	0.00e+00	0	53	0	470810624	53	4134
2026-01-03 21:30:25.65	45.93	11.38	-45.3	-46.5	15.8	0.00e+00	0	54	0	473956352	53	4130
2026-01-03 21:30:26.64	46.10	11.41	-45.3	-46.5	15.9	0.00e+00	0	54	0	477102080	53	4101
2026-01-03 21:30:27.63	46.28	11.45	-45.4	-46.6	15.7	0.00e+00	0	54	0	479199232	53	4170
2026-01-03 21:30:28.62	46.45	11.48	-45.5	-46.8	15.5	0.00e+00	0	54	0	482344960	53	4273
2026-01-03 21:30:29.60	46.62	11.52	-45.6	-46.8	15.5	0.00e+00	0	54	0	485490688	53	4285
2026-01-03 21:30:30.59	46.79	11.55	-45.5	-46.7	15.7	0.00e+00	0	54	0	488636416	53	4208
2026-01-03 21:30:31.58	46.96	11.59	-45.6	-46.9	15.5	0.00e+00	0	54	0	491782144	53	4296
2026-01-03 21:30:32.58	47.14	11.62	-45.6	-46.9	15.5	0.00e+00	0	54	0	494927872	53	4325
2026-01-03 21:30:33.57	47.31	11.65	-45.6	-46.9	15.4	0.00e+00	0	54	0	498073600	53	4317
2026-01-03 21:30:34.56	47.49	11.69	-45.6	-46.9	15.5	0.00e+00	0	54	0	501219328	53	4303
2026-01-03 21:30:35.55	47.66	11.72	-45.6	-46.9	15.4	0.00e+00	0	54	0	504365056	53	4317
2026-01-03 21:30:36.54	47.84	11.75	-45.7	-47.0	15.3	0.00e+00	0	54	0	507510784	53	4367
2026-01-03 21:30:37.52	48.01	11.78	-45.8	-47.1	15.2	0.00e+00	0	54	0	510656512	53	4440
2026-01-03 21:30:38.51	48.19	11.82	-45.8	-47.1	15.3	7.00e-07	0	54	0	513802240	53	4414
2026-01-03 21:30:39.50	48.36	11.85	-45.6	-46.9	15.5	0.00e+00	0	54	0	516947968	53	4302
2026-01-03 21:30:40.49	48.54	11.88	-45.5	-46.8	15.6	0.00e+00	0	54	0	520093696	53	4265
2026-01-03 21:30:41.48	48.71	11.91	-45.6	-46.8	15.6	0.00e+00	0	54	0	523239424	53	4270
2026-01-03 21:30:42.47	48.89	11.94	-45.5	-46.8	15.6	0.00e+00	0	54	0	526385152	53	4253
2026-01-03 21:30:43.46	49.07	11.98	-45.6	-47.0	15.4	0.00e+00	0	54	0	529530880	53	4344
2026-01-03 21:30:44.46	49.25	12.01	-45.8	-47.1	15.3	0.00e+00	0	54	0	532676608	53	4402
2026-01-03 21:30:45.45	49.43	12.04	-45.7	-47.0	15.3	7.00e-07	0	54	0	535822336	53	4383
2026-01-03 21:30:46.44	49.61	12.07	-46.0	-47.4	15.1	0.00e+00	0	54	0	538968064	53	4546
2026-01-03 21:30:47.43	49.79	12.10	-46.0	-47.4	15.0	0.00e+00	0	54	0	541065216	53	4549
2026-01-03 21:30:48.42	49.96	12.13	-45.8	-47.1	15.2	7.00e-07	0	54	0	544210944	53	4433
2026-01-03 21:30:49.42	50.15	12.16	-45.6	-46.9	15.4	0.00e+00	0	54	0	547356672	53	4335
2026-01-03 21:30:50.40	50.32	12.19	-45.6	-46.8	15.6	0.00e+00	0	54	0	550502400	53	4274
2026-01-03 21:30:51.39	50.51	12.22	-45.6	-46.8	15.6	0.00e+00	0	54	0	553648128	53	4270
2026-01-03 21:30:52.38	50.69	12.25	-45.6	-46.9	15.5	0.00e+00	0	54	0	556793856	53	4311
2026-01-03 21:30:53.37	50.87	12.28	-45.7	-47.0	15.4	0.00e+00	0	54	0	559939584	53	4352
2026-01-03 21:30:54.36	51.05	12.31	-45.5	-46.7	15.6	0.00e+00	0	54	0	563085312	53	4242
2026-01-03 21:30:55.35	51.23	12.34	-45.5	-46.7	15.6	0.00e+00	0	54	0	566231040	53	4225
2026-01-03 21:30:56.33	51.41	12.37	-45.6	-46.8	15.5	0.00e+00	0	54	0	569376768	53	4281
2026-01-03 21:30:57.33	51.60	12.39	-45.6	-46.9	15.5	0.00e+00	0	54	0	572522496	53	4319
2026-01-03 21:30:58.31	51.78	12.42	-45.4	-46.7	15.7	0.00e+00	0	54	0	575668224	53	4211
2026-01-03 21:30:59.31	51.96	12.45	-45.6	-46.8	15.6	0.00e+00	0	54	0	578813952	53	4267
2026-01-03 21:31:00.30	52.15	12.48	-45.6	-46.9	15.5	0.00e+00	0	54	0	581959680	53	4308
2026-01-03 21:31:01.29	52.33	12.51	-45.5	-46.7	15.7	0.00e+00	0	54	0	585105408	53	4231
2026-01-03 21:31:02.27	52.51	12.53	-45.4	-46.6	15.8	0.00e+00	0	54	0	588251136	53	4150
2026-01-03 21:31:03.26	52.70	12.56	-45.3	-46.5	15.9	0.00e+00	0	54	0	591396864	53	4110
2026-01-03 21:31:04.25	52.88	12.59	-45.3	-46.5	15.9	0.00e+00	0	54	0	594542592	53	4115
2026-01-03 21:31:05.24	53.07	12.61	-45.2	-46.4	16.0	0.00e+00	0	54	0	597688320	53	4070
2026-01-03 21:31:06.23	53.25	12.64	-45.2	-46.4	16.0	0.00e+00	0	54	0	599785472	53	4074
2026-01-03 21:31:07.22	53.44	12.67	-45.4	-46.6	15.8	0.00e+00	0	54	0	602931200	53	4146
2026-01-03 21:31:08.20	53.62	12.69	-45.5	-46.7	15.7	0.00e+00	0	54	0	606076928	53	4230
2026-01-03 21:31:09.19	53.81	12.72	-45.4	-46.6	15.7	0.00e+00	0	54	0	609222656	53	4185
2026-01-03 21:31:10.18	54.00	12.74	-45.4	-46.7	15.7	0.00e+00	0	54	0	612368384	53	4201
2026-01-03 21:31:11.18	54.18	12.77	-45.4	-46.6	15.8	0.00e+00	0	54	0	615514112	53	4162
2026-01-03 21:31:12.17	54.37	12.79	-45.4	-46.6	15.8	0.00e+00	0	54	0	618659840	53	4175
2026-01-03 21:31:13.16	54.56	12.82	-45.2	-46.4	16.0	0.00e+00	0	54	0	621805568	53	4063
2026-01-03 21:31:14.15	54.75	12.84	-45.0	-46.2	16.2	0.00e+00	0	54	0	624951296	53	3964
2026-01-03 21:31:15.14	54.94	12.87	-45.0	-46.1	16.3	0.00e+00	0	55	0	628097024	53	3936
2026-01-03 21:31:16.12	55.12	12.89	-45.0	-46.1	16.2	0.00e+00	0	54	0	631242752	53	3956
2026-01-03 21:31:17.12	55.31	12.91	-45.0	-46.1	16.2	0.00e+00	0	54	0	634388480	53	3958
2026-01-03 21:31:18.10	55.50	12.94	-45.0	-46.1	16.2	0.00e+00	0	54	0	637534208	53	3950
2026-01-03 21:31:19.09	55.69	12.96	-45.2	-46.3	16.1	0.00e+00	0	54	0	640679936	53	4034
2026-01-03 21:31:20.08	55.88	12.98	-45.0	-46.2	16.2	0.00e+00	0	55	0	643825664	53	3960
2026-01-03 21:31:21.07	56.07	13.00	-45.2	-46.4	16.0	0.00e+00	0	54	0	646971392	53	4068
2026-01-03 21:31:22.06	56.26	13.03	-45.4	-46.7	15.8	0.00e+00	0	54	0	650117120	53	4196
2026-01-03 21:31:23.06	56.45	13.05	-45.2	-46.4	16.0	0.00e+00	0	54	0	653262848	53	4084
2026-01-03 21:31:24.04	56.64	13.07	-45.1	-46.2	16.2	0.00e+00	0	54	0	656408576	53	3990
2026-01-03 21:31:25.03	56.83	13.09	-45.0	-46.1	16.3	0.00e+00	0	55	0	658505728	53	3944
2026-01-03 21:31:26.01	57.02	13.11	-45.0	-46.2	16.3	0.00e+00	0	54	0	661651456	53	3961
2026-01-03 21:31:27.00	57.22	13.13	-44.9	-46.0	16.4	0.00e+00	0	55	0	664797184	53	3901
2026-01-03 21:31:27.99	57.41	13.15	-45.1	-46.2	16.2	0.00e+00	0	54	0	667942912	53	3996
2026-01-03 21:31:28.99	57.60	13.18	-45.0	-46.1	16.3	0.00e+00	0	54	0	671088640	53	3945
2026-01-03 21:31:29.97	57.79	13.20	-45.1	-46.2	16.2	0.00e+00	0	54	0	674234368	53	3983
2026-01-03 21:31:30.96	57.99	13.22	-45.2	-46.3	16.1	0.00e+00	0	55	0	677380096	53	4025
2026-01-03 21:31:31.94	58.18	13.23	-45.2	-46.4	16.0	0.00e+00	0	55	0	680525824	53	4082
2026-01-03 21:31:32.94	58.37	13.25	-45.2	-46.3	16.1	0.00e+00	0	55	0	683671552	53	4034
2026-01-03 21:31:33.92	58.56	13.27	-45.2	-46.3	16.1	0.00e+00	0	55	0	686817280	53	4022
2026-01-03 21:31:34.90	58.76	13.29	-45.2	-46.3	16.1	0.00e+00	0	55	0	689963008	53	4047
2026-01-03 21:31:35.90	58.95	13.31	-45.3	-46.5	15.9	0.00e+00	0	55	0	693108736	53	4119
2026-01-03 21:31:36.89	59.15	13.33	-45.1	-46.2	16.2	0.00e+00	0	55	0	696254464	53	3974
2026-01-03 21:31:37.88	59.34	13.35	-44.9	-46.0	16.4	0.00e+00	0	55	0	699400192	52	4105
2026-01-03 21:31:38.87	59.54	13.36	-44.8	-45.8	16.5	0.00e+00	0	54	0	702545920	52	4046
2026-01-03 21:31:39.85	59.73	13.38	-44.8	-45.8	16.5	0.00e+00	0	55	0	705691648	52	4042
2026-01-03 21:31:40.84	59.92	13.40	-44.8	-45.8	16.5	0.00e+00	0	55	0	708837376	52	4037
2026-01-03 21:31:41.83	60.12	13.41	-44.9	-46.0	16.4	0.00e+00	0	55	0	711983104	52	4119
2026-01-03 21:31:42.82	60.31	13.43	-44.9	-46.0	16.4	0.00e+00	0	55	0	714080256	52	4123
2026-01-03 21:31:43.82	60.51	13.45	-45.0	-46.1	16.3	0.00e+00	0	55	0	717225984	52	4178
2026-01-03 21:31:44.80	60.71	13.46	-45.2	-46.4	16.1	0.00e+00	0	55	0	720371712	52	4296
2026-01-03 21:31:45.79	60.90	13.48	-45.1	-46.2	16.2	0.00e+00	0	54	0	723517440	52	4230
2026-01-03 21:31:46.77	61.10	13.49	-45.2	-46.4	16.0	0.00e+00	0	55	0	726663168	52	4302
2026-01-03 21:31:47.76	61.29	13.51	-45.4	-46.5	15.9	0.00e+00	0	55	0	729808896	52	4380
2026-01-03 21:31:48.74	61.49	13.52	-45.4	-46.5	15.9	0.00e+00	0	55	0	732954624	52	4390
2026-01-03 21:31:49.73	61.69	13.54	-45.4	-46.6	15.8	0.00e+00	0	55	0	736100352	52	4406
2026-01-03 21:31:50.72	61.88	13.55	-45.4	-46.7	15.8	0.00e+00	0	55	0	739246080	52	4450
2026-01-03 21:31:51.71	62.08	13.56	-45.4	-46.7	15.7	0.00e+00	0	55	0	742391808	52	4458
2026-01-03 21:31:52.70	62.28	13.58	-45.4	-46.6	15.8	0.00e+00	0	55	0	745537536	52	4432
2026-01-03 21:31:53.69	62.48	13.59	-45.4	-46.7	15.8	0.00e+00	0	55	0	748683264	52	4449
2026-01-03 21:31:54.68	62.67	13.60	-45.3	-46.5	15.9	0.00e+00	0	55	0	751828992	52	4371
2026-01-03 21:31:55.67	62.87	13.62	-45.1	-46.3	16.1	0.00e+00	0	55	0	754974720	52	4268
2026-01-03 21:31:56.65	63.07	13.63	-45.0	-46.2	16.2	0.00e+00	0	55	0	758120448	52	4206
2026-01-03 21:31:57.64	63.27	13.64	-45.1	-46.2	16.2	0.00e+00	0	55	0	761266176	52	4240
2026-01-03 21:31:58.63	63.47	13.65	-45.3	-46.4	16.0	0.00e+00	0	55	0	764411904	52	4337
2026-01-03 21:31:59.63	63.67	13.66	-45.2	-46.4	16.0	0.00e+00	0	55	0	767557632	52	4330
2026-01-03 21:32:00.62	63.87	13.67	-45.3	-46.5	16.0	0.00e+00	0	55	0	770703360	52	4351
2026-01-03 21:32:01.60	64.06	13.69	-45.5	-46.7	15.7	0.00e+00	0	55	0	773849088	52	4473
2026-01-03 21:32:02.60	64.26	13.70	-45.4	-46.6	15.8	0.00e+00	0	55	0	776994816	52	4414
2026-01-03 21:32:03.59	64.46	13.71	-45.2	-46.4	16.0	0.00e+00	0	55	0	779091968	52	4303
2026-01-03 21:32:04.57	64.66	13.72	-45.1	-46.2	16.2	0.00e+00	0	55	0	782237696	52	4227
2026-01-03 21:32:05.56	64.86	13.72	-45.0	-46.2	16.3	0.00e+00	0	55	0	785383424	52	4199
2026-01-03 21:32:06.56	65.06	13.73	-45.1	-46.2	16.2	0.00e+00	0	55	0	788529152	52	4222
2026-01-03 21:32:07.54	65.26	13.74	-45.2	-46.3	16.1	0.00e+00	0	55	0	791674880	52	4271
2026-01-03 21:32:08.53	65.46	13.75	-45.3	-46.5	16.0	0.00e+00	0	55	0	794820608	52	4354
2026-01-03 21:32:09.53	65.66	13.76	-45.3	-46.5	16.0	0.00e+00	0	55	0	797966336	52	4341
2026-01-03 21:32:10.51	65.86	13.77	-45.3	-46.5	15.9	0.00e+00	0	55	0	801112064	52	4375
2026-01-03 21:32:11.50	66.06	13.77	-45.6	-46.8	15.6	0.00e+00	0	55	0	804257792	52	4537
2026-01-03 21:32:12.49	66.26	13.78	-45.7	-46.9	15.5	0.00e+00	0	55	0	807403520	53	4326
2026-01-03 21:32:13.49	66.46	13.79	-45.6	-46.8	15.6	0.00e+00	0	55	0	810549248	53	4286
2026-01-03 21:32:14.48	66.66	13.80	-45.6	-46.9	15.6	0.00e+00	0	55	0	813694976	53	4308
2026-01-03 21:32:15.47	66.86	13.80	-45.6	-46.8	15.6	0.00e+00	0	55	0	816840704	53	4285
2026-01-03 21:32:16.46	67.06	13.81	-45.7	-47.0	15.5	0.00e+00	0	55	0	819986432	53	4354
2026-01-03 21:32:17.45	67.27	13.81	-45.7	-47.0	15.5	0.00e+00	0	55	0	823132160	53	4346
2026-01-03 21:32:18.44	67.47	13.82	-45.5	-46.7	15.7	0.00e+00	0	55	0	826277888	53	4236
2026-01-03 21:32:19.44	67.67	13.82	-45.6	-46.8	15.7	0.00e+00	0	55	0	829423616	53	4266
2026-01-03 21:32:20.42	67.87	13.83	-45.8	-47.0	15.4	0.00e+00	0	55	0	832569344	53	4391
2026-01-03 21:32:21.40	68.07	13.83	-45.8	-47.1	15.3	0.00e+00	0	55	0	835715072	53	4439
2026-01-03 21:32:22.40	68.27	13.84	-45.5	-46.8	15.7	0.00e+00	0	55	0	838860800	53	4246
2026-01-03 21:32:23.39	68.47	13.84	-45.4	-46.6	15.9	0.00e+00	0	55	0	840957952	53	4171
2026-01-03 21:32:24.38	68.67	13.84	-45.3	-46.5	16.0	0.00e+00	0	55	0	844103680	53	4124
2026-01-03 21:32:25.37	68.87	13.85	-45.3	-46.5	16.0	0.00e+00	0	55	0	847249408	53	4114
2026-01-03 21:32:26.36	69.08	13.85	-45.4	-46.6	15.9	0.00e+00	0	55	0	850395136	53	4174
2026-01-03 21:32:27.36	69.28	13.85	-45.4	-46.7	15.8	0.00e+00	0	55	0	853540864	53	4197
2026-01-03 21:32:28.35	69.48	13.85	-45.3	-46.5	16.0	0.00e+00	0	55	0	856686592	53	4099
2026-01-03 21:32:29.33	69.68	13.85	-45.1	-46.2	16.2	0.00e+00	0	55	0	859832320	53	3998
2026-01-03 21:32:30.32	69.88	13.86	-45.1	-46.2	16.2	0.00e+00	0	55	0	862978048	53	3999
2026-01-03 21:32:31.31	70.08	13.86	-45.3	-46.4	16.0	0.00e+00	0	55	0	866123776	53	4098
2026-01-03 21:32:32.29	70.28	13.86	-45.4	-46.5	15.9	0.00e+00	0	55	0	869269504	53	4145
2026-01-03 21:32:33.29	70.49	13.86	-45.3	-46.4	16.0	0.00e+00	0	55	0	872415232	53	4077
2026-01-03 21:32:34.28	70.69	13.86	-45.4	-46.6	15.9	0.00e+00	0	55	0	875560960	53	4170
2026-01-03 21:32:35.27	70.89	13.86	-45.5	-46.7	15.8	0.00e+00	0	55	0	878706688	53	4211
2026-01-03 21:32:36.26	71.09	13.86	-45.1	-46.3	16.2	0.00e+00	0	55	0	881852416	53	4006
2026-01-03 21:32:37.26	71.29	13.86	-44.9	-46.0	16.4	0.00e+00	0	55	0	884998144	53	3903
2026-01-03 21:32:38.25	71.49	13.86	-44.8	-45.9	16.5	0.00e+00	0	55	0	888143872	52	4081
2026-01-03 21:32:39.23	71.69	13.85	-44.8	-45.9	16.5	0.00e+00	0	55	0	891289600	52	4069
2026-01-03 21:32:40.22	71.90	13.85	-44.8	-45.9	16.5	0.00e+00	0	55	0	894435328	52	4085
2026-01-03 21:32:41.19	72.09	13.85	-44.8	-45.9	16.6	0.00e+00	0	55	0	897581056	52	4064
2026-01-03 21:32:42.19	72.30	13.85	-44.9	-46.0	16.4	0.00e+00	0	55	0	900726784	52	4134
2026-01-03 21:32:43.18	72.50	13.84	-45.1	-46.2	16.3	0.00e+00	0	55	0	902823936	52	4210
2026-01-03 21:32:44.17	72.70	13.84	-45.2	-46.4	16.0	0.00e+00	0	55	0	905969664	52	4313
2026-01-03 21:32:45.17	72.90	13.84	-45.1	-46.2	16.2	0.00e+00	0	55	0	909115392	52	4227
2026-01-03 21:32:46.16	73.10	13.83	-45.0	-46.1	16.3	0.00e+00	0	55	0	912261120	52	4186
2026-01-03 21:32:47.15	73.30	13.83	-44.9	-46.1	16.4	0.00e+00	0	55	0	915406848	52	4148
2026-01-03 21:32:48.14	73.51	13.83	-45.1	-46.2	16.3	0.00e+00	0	55	0	918552576	52	4214
2026-01-03 21:32:49.13	73.71	13.82	-45.0	-46.1	16.3	0.00e+00	0	55	0	921698304	52	4174
2026-01-03 21:32:50.12	73.91	13.82	-45.1	-46.3	16.2	0.00e+00	0	56	0	924844032	52	4253
2026-01-03 21:32:51.11	74.11	13.81	-45.3	-46.4	16.0	0.00e+00	0	56	0	927989760	52	4323
2026-01-03 21:32:52.11	74.31	13.80	-45.2	-46.4	16.1	0.00e+00	0	56	0	931135488	52	4306
2026-01-03 21:32:53.11	74.51	13.80	-45.4	-46.6	15.9	0.00e+00	0	56	0	934281216	52	4413
2026-01-03 21:32:54.09	74.71	13.79	-45.6	-46.8	15.6	0.00e+00	0	55	0	937426944	52	4532
2026-01-03 21:32:55.08	74.91	13.79	-45.5	-46.7	15.8	0.00e+00	0	55	0	940572672	52	4455
2026-01-03 21:32:56.07	75.11	13.78	-45.4	-46.6	15.8	0.00e+00	0	55	0	943718400	52	4436
2026-01-03 21:32:57.06	75.31	13.77	-45.5	-46.7	15.8	0.00e+00	0	55	0	946864128	52	4454
2026-01-03 21:32:58.05	75.52	13.76	-45.7	-46.9	15.6	0.00e+00	0	55	0	950009856	53	4323
2026-01-03 21:32:59.05	75.72	13.76	-45.5	-46.7	15.8	0.00e+00	0	55	0	953155584	53	4226
2026-01-03 21:33:00.03	75.92	13.75	-45.8	-47.1	15.4	0.00e+00	0	56	0	956301312	53	4417
2026-01-03 21:33:01.02	76.12	13.74	-45.6	-46.9	15.6	0.00e+00	0	56	0	959447040	53	4293
2026-01-03 21:33:02.01	76.32	13.73	-45.8	-47.1	15.4	0.00e+00	0	55	0	962592768	53	4430
2026-01-03 21:33:03.00	76.52	13.72	-45.5	-46.8	15.7	0.00e+00	0	56	0	965738496	53	4259
2026-01-03 21:33:03.99	76.72	13.71	-45.3	-46.5	15.9	0.00e+00	0	55	0	967835648	53	4138
2026-01-03 21:33:04.97	76.91	13.70	-45.3	-46.5	16.0	0.00e+00	0	56	0	970981376	53	4116
2026-01-03 21:33:05.96	77.11	13.69	-45.5	-46.7	15.8	0.00e+00	0	56	0	974127104	53	4223
2026-01-03 21:33:06.95	77.31	13.68	-45.4	-46.6	15.9	0.00e+00	0	56	0	977272832	53	4165
2026-01-03 21:33:07.94	77.51	13.67	-45.1	-46.3	16.2	0.00e+00	0	56	0	980418560	53	4014
2026-01-03 21:33:08.93	77.71	13.66	-44.9	-46.0	16.5	0.00e+00	0	55	0	983564288	53	3892
2026-01-03 21:33:09.92	77.91	13.65	-44.8	-45.9	16.6	0.00e+00	0	56	0	986710016	52	4058
2026-01-03 21:33:10.91	78.11	13.64	-44.9	-46.0	16.5	0.00e+00	0	56	0	989855744	52	4112
2026-01-03 21:33:11.89	78.30	13.62	-45.1	-46.2	16.3	0.00e+00	0	56	0	993001472	52	4216
2026-01-03 21:33:12.88	78.50	13.61	-45.1	-46.2	16.3	0.00e+00	0	56	0	996147200	52	4216
2026-01-03 21:33:13.87	78.70	13.60	-45.2	-46.3	16.1	0.00e+00	0	55	0	999292928	52	4278
2026-01-03 21:33:14.86	78.90	13.59	-45.4	-46.5	15.9	0.00e+00	0	56	0	1002438656	52	4388
2026-01-03 21:33:15.85	79.10	13.57	-45.3	-46.5	16.0	0.00e+00	0	55	0	1005584384	52	4352
2026-01-03 21:33:16.84	79.29	13.56	-45.5	-46.7	15.8	0.00e+00	0	56	0	1008730112	52	4474
2026-01-03 21:33:17.82	79.49	13.55	-45.3	-46.4	16.0	0.00e+00	0	56	0	1011875840	52	4335
2026-01-03 21:33:18.81	79.69	13.53	-45.1	-46.2	16.3	0.00e+00	0	56	0	1015021568	52	4211
2026-01-03 21:33:19.81	79.89	13.52	-45.0	-46.1	16.4	0.00e+00	0	56	0	1018167296	52	4182
2026-01-03 21:33:20.80	80.08	13.50	-45.1	-46.2	16.3	0.00e+00	0	56	0	1021313024	52	4217
2026-01-03 21:33:21.79	80.28	13.49	-45.1	-46.2	16.3	0.00e+00	0	56	0	1024458752	52	4206
2026-01-03 21:33:22.78	80.48	13.47	-45.0	-46.1	16.3	0.00e+00	0	55	0	1026555904	52	4175
2026-01-03 21:33:23.77	80.67	13.46	-45.1	-46.3	16.2	0.00e+00	0	56	0	1029701632	52	4253
2026-01-03 21:33:24.76	80.87	13.44	-45.2	-46.3	16.1	0.00e+00	0	56	0	1032847360	52	4287
2026-01-03 21:33:25.74	81.06	13.42	-45.2	-46.3	16.1	0.00e+00	0	55	0	1035993088	52	4270
2026-01-03 21:33:26.74	81.26	13.41	-45.3	-46.4	16.1	0.00e+00	0	55	0	1039138816	52	4322
2026-01-03 21:33:27.73	81.46	13.39	-45.1	-46.2	16.3	0.00e+00	0	56	0	1042284544	52	4206
2026-01-03 21:33:28.71	81.65	13.37	-44.9	-46.0	16.5	0.00e+00	0	55	0	1045430272	52	4111
2026-01-03 21:33:29.70	81.85	13.36	-44.9	-46.0	16.5	0.00e+00	0	55	0	1048576000	52	4110
2026-01-03 21:33:30.68	82.04	13.34	-44.9	-46.0	16.5	0.00e+00	0	55	0	1051721728	52	4128
2026-01-03 21:33:31.66	82.23	13.32	-45.0	-46.1	16.3	0.00e+00	0	56	0	1054867456	52	4184
2026-01-03 21:33:32.65	82.43	13.30	-45.0	-46.1	16.3	0.00e+00	0	56	0	1058013184	52	4173
2026-01-03 21:33:33.64	82.62	13.28	-45.0	-46.1	16.3	0.00e+00	0	56	0	1061158912	52	4170
2026-01-03 21:33:34.63	82.82	13.26	-45.0	-46.2	16.3	0.00e+00	0	56	0	1064304640	52	4202
2026-01-03 21:33:35.62	83.01	13.24	-45.0	-46.1	16.4	0.00e+00	0	56	0	1067450368	52	4169
2026-01-03 21:33:36.61	83.20	13.23	-45.1	-46.3	16.2	0.00e+00	0	55	0	1070596096	52	4247
2026-01-03 21:33:37.60	83.40	13.21	-45.2	-46.4	16.1	0.00e+00	0	56	0	1073741824	52	4314
2026-01-03 21:33:38.59	83.59	13.19	-45.3	-46.5	16.0	0.00e+00	0	56	0	1076887552	52	4352
2026-01-03 21:33:39.58	83.78	13.17	-45.4	-46.6	15.9	0.00e+00	0	56	0	1078984704	52	4408
2026-01-03 21:33:40.57	83.97	13.14	-45.5	-46.7	15.7	0.00e+00	0	56	0	1082130432	52	4484
2026-01-03 21:33:41.56	84.17	13.12	-45.5	-46.7	15.8	0.00e+00	0	56	0	1085276160	53	4229
2026-01-03 21:33:42.55	84.36	13.10	-45.3	-46.5	16.0	0.00e+00	0	56	0	1088421888	53	4122
2026-01-03 21:33:43.54	84.55	13.08	-45.3	-46.5	16.0	0.00e+00	0	56	0	1091567616	53	4110
2026-01-03 21:33:44.53	84.74	13.06	-45.4	-46.7	15.8	0.00e+00	0	56	0	1094713344	53	4200
2026-01-03 21:33:45.52	84.93	13.04	-45.5	-46.7	15.8	0.00e+00	0	56	0	1097859072	53	4201
2026-01-03 21:33:46.51	85.12	13.02	-45.3	-46.4	16.1	0.00e+00	0	56	0	1101004800	53	4075
2026-01-03 21:33:47.50	85.32	12.99	-45.1	-46.3	16.2	0.00e+00	0	56	0	1104150528	53	4025
2026-01-03 21:33:48.49	85.51	12.97	-45.1	-46.2	16.3	0.00e+00	0	56	0	1107296256	53	3965
2026-01-03 21:33:49.48	85.70	12.95	-45.0	-46.2	16.3	0.00e+00	0	56	0	1110441984	53	3978
2026-01-03 21:33:50.47	85.89	12.92	-45.1	-46.3	16.2	0.00e+00	0	56	0	1113587712	53	4018
2026-01-03 21:33:51.46	86.08	12.90	-45.3	-46.5	16.0	0.00e+00	0	56	0	1116733440	53	4105
2026-01-03 21:33:52.44	86.26	12.88	-45.3	-46.5	16.0	0.00e+00	0	56	0	1119879168	53	4124
2026-01-03 21:33:53.42	86.45	12.85	-45.4	-46.6	15.9	0.00e+00	0	56	0	1123024896	53	4158
2026-01-03 21:33:54.40	86.64	12.83	-45.4	-46.6	15.9	0.00e+00	0	56	0	1126170624	53	4162
2026-01-03 21:33:55.39	86.83	12.80	-45.5	-46.8	15.7	0.00e+00	0	56	0	1129316352	53	4243
2026-01-03 21:33:56.38	87.01	12.78	-45.5	-46.7	15.8	0.00e+00	0	56	0	1132462080	53	4222
2026-01-03 21:33:57.37	87.20	12.75	-45.6	-46.8	15.6	0.00e+00	0	56	0	1134559232	53	4290
2026-01-03 21:33:58.36	87.39	12.73	-45.5	-46.8	15.7	0.00e+00	0	56	0	1137704960	53	4263
2026-01-03 21:33:59.35	87.58	12.70	-45.6	-46.8	15.6	0.00e+00	0	56	0	1140850688	53	4283
2026-01-03 21:34:00.34	87.76	12.68	-45.5	-46.7	15.8	0.00e+00	0	56	0	1143996416	53	4222
2026-01-03 21:34:01.34	87.95	12.65	-45.5	-46.7	15.7	0.00e+00	0	56	0	1147142144	53	4241
2026-01-03 21:34:02.32	88.14	12.63	-45.6	-46.9	15.6	0.00e+00	0	56	0	1150287872	53	4302
2026-01-03 21:34:03.31	88.32	12.60	-45.8	-47.1	15.4	0.00e+00	0	56	0	1153433600	53	4396
2026-01-03 21:34:04.30	88.51	12.57	-45.7	-47.0	15.5	0.00e+00	0	56	0	1156579328	53	4348
2026-01-03 21:34:05.29	88.69	12.55	-45.8	-47.1	15.4	0.00e+00	0	56	0	1159725056	53	4401
2026-01-03 21:34:06.28	88.88	12.52	-45.6	-46.9	15.6	0.00e+00	0	56	0	1162870784	53	4314
2026-01-03 21:34:07.27	89.06	12.49	-45.8	-47.1	15.4	0.00e+00	0	56	0	1166016512	53	4393
2026-01-03 21:34:08.25	89.24	12.46	-45.8	-47.2	15.3	0.00e+00	0	56	0	1169162240	53	4447
2026-01-03 21:34:09.25	89.43	12.44	-45.7	-47.0	15.4	0.00e+00	0	56	0	1172307968	53	4377
2026-01-03 21:34:10.24	89.61	12.41	-45.9	-47.2	15.2	0.00e+00	0	56	0	1175453696	53	4472
2026-01-03 21:34:11.23	89.80	12.38	-45.7	-47.0	15.5	0.00e+00	0	56	0	1178599424	53	4346
2026-01-03 21:34:12.22	89.98	12.35	-45.5	-46.7	15.7	0.00e+00	0	56	0	1181745152	53	4223
2026-01-03 21:34:13.21	90.16	12.32	-45.3	-46.5	15.9	0.00e+00	0	56	0	1184890880	53	4137
2026-01-03 21:34:14.20	90.34	12.29	-45.4	-46.6	15.8	0.00e+00	0	56	0	1188036608	53	4188
2026-01-03 21:34:15.20	90.53	12.26	-45.5	-46.7	15.8	0.00e+00	0	56	0	1191182336	53	4222
2026-01-03 21:34:16.19	90.71	12.23	-45.6	-46.8	15.6	0.00e+00	0	56	0	1194328064	53	4277
2026-01-03 21:34:17.18	90.89	12.20	-45.4	-46.5	15.9	0.00e+00	0	56	0	1196425216	53	4143
2026-01-03 21:34:18.17	91.07	12.17	-45.2	-46.4	16.0	0.00e+00	0	56	0	1199570944	53	4074
2026-01-03 21:34:19.16	91.25	12.14	-45.3	-46.4	16.0	0.00e+00	0	56	0	1202716672	53	4082
2026-01-03 21:34:20.15	91.43	12.11	-45.3	-46.5	15.9	0.00e+00	0	56	0	1205862400	53	4131
2026-01-03 21:34:21.13	91.61	12.08	-45.5	-46.7	15.7	0.00e+00	0	56	0	1209008128	53	4236
2026-01-03 21:34:22.12	91.79	12.05	-45.3	-46.4	16.0	0.00e+00	0	56	0	1212153856	53	4076
2026-01-03 21:34:23.11	91.97	12.02	-45.4	-46.5	15.9	0.00e+00	0	56	0	1215299584	53	4122
2026-01-03 21:34:24.11	92.15	11.99	-45.5	-46.6	15.8	0.00e+00	0	56	0	1218445312	53	4191
2026-01-03 21:34:25.10	92.33	11.96	-45.7	-46.9	15.5	0.00e+00	0	56	0	1221591040	53	4317
2026-01-03 21:34:26.08	92.50	11.92	-45.4	-46.6	15.8	0.00e+00	0	56	0	1224736768	53	4163
2026-01-03 21:34:27.07	92.68	11.89	-45.2	-46.4	16.0	0.00e+00	0	56	0	1227882496	53	4080
2026-01-03 21:34:28.06	92.86	11.86	-45.2	-46.3	16.1	0.00e+00	0	56	0	1231028224	53	4049
2026-01-03 21:34:29.04	93.03	11.83	-45.2	-46.3	16.1	0.00e+00	0	56	0	1234173952	53	4031
2026-01-03 21:34:30.02	93.21	11.80	-45.1	-46.2	16.2	0.00e+00	0	56	0	1237319680	53	3975
2026-01-03 21:34:31.01	93.38	11.76	-45.0	-46.1	16.4	0.00e+00	0	56	0	1240465408	53	3917
2026-01-03 21:34:32.00	93.56	11.73	-45.0	-46.2	16.3	0.00e+00	0	56	0	1243611136	53	3960
2026-01-03 21:34:32.99	93.73	11.70	-45.1	-46.2	16.2	0.00e+00	0	56	0	1246756864	53	3984
2026-01-03 21:34:33.98	93.91	11.66	-45.1	-46.2	16.2	0.00e+00	0	56	0	1249902592	53	3976
2026-01-03 21:34:34.97	94.08	11.63	-45.1	-46.2	16.3	0.00e+00	0	56	0	1253048320	53	3971
2026-01-03 21:34:35.97	94.26	11.60	-45.2	-46.3	16.2	0.00e+00	0	56	0	1256194048	53	4024
2026-01-03 21:34:36.96	94.43	11.56	-45.4	-46.6	15.9	0.00e+00	0	56	0	1259339776	53	4147
2026-01-03 21:34:37.95	94.61	11.53	-45.3	-46.4	16.0	0.00e+00	0	56	0	1261436928	53	4090
2026-01-03 21:34:38.94	94.78	11.49	-45.4	-46.6	15.8	0.00e+00	0	56	0	1264582656	53	4167
2026-01-03 21:34:39.93	94.95	11.46	-45.3	-46.5	15.9	0.00e+00	0	56	0	1267728384	53	4129
2026-01-03 21:34:40.92	95.13	11.43	-45.5	-46.7	15.7	0.00e+00	0	56	0	1270874112	53	4200
2026-01-03 21:34:41.90	95.30	11.39	-45.4	-46.6	15.8	0.00e+00	0	56	0	1274019840	53	4189
2026-01-03 21:34:42.90	95.47	11.36	-45.5	-46.7	15.7	0.00e+00	0	56	0	1277165568	53	4242
2026-01-03 21:34:43.89	95.64	11.32	-45.3	-46.5	15.9	0.00e+00	0	56	0	1280311296	53	4119
2026-01-03 21:34:44.87	95.81	11.29	-45.2	-46.4	16.0	0.00e+00	0	56	0	1283457024	53	4068
2026-01-03 21:34:45.86	95.98	11.25	-45.3	-46.5	16.0	0.00e+00	0	56	0	1286602752	53	4111
2026-01-03 21:34:46.85	96.15	11.21	-45.4	-46.6	15.8	0.00e+00	0	56	0	1289748480	53	4187
2026-01-03 21:34:47.83	96.32	11.18	-45.7	-47.0	15.5	0.00e+00	0	56	0	1292894208	53	4345
2026-01-03 21:34:48.83	96.49	11.14	-45.5	-46.8	15.6	0.00e+00	0	56	0	1296039936	53	4267
2026-01-03 21:34:49.81	96.65	11.11	-45.5	-46.8	15.6	0.00e+00	0	56	0	1299185664	53	4258
2026-01-03 21:34:50.80	96.82	11.07	-45.6	-46.9	15.5	0.00e+00	0	56	0	1302331392	53	4312
2026-01-03 21:34:51.79	96.99	11.03	-45.5	-46.8	15.6	0.00e+00	0	56	0	1305477120	53	4267
2026-01-03 21:34:52.78	97.16	11.00	-45.7	-46.9	15.5	0.00e+00	0	56	0	1308622848	53	4338
2026-01-03 21:34:53.77	97.32	10.96	-45.7	-47.0	15.4	0.00e+00	0	56	0	1311768576	53	4351
2026-01-03 21:34:54.76	97.49	10.92	-45.9	-47.2	15.2	0.00e+00	0	56	0	1314914304	53	4481
2026-01-03 21:34:55.74	97.66	10.89	-46.2	-47.6	14.8	0.00e+00	0	56	0	1318060032	54	4427
2026-01-03 21:34:56.74	97.82	10.85	-46.1	-47.5	14.9	0.00e+00	0	56	0	1321205760	54	4382
2026-01-03 21:34:57.73	97.99	10.81	-46.1	-47.5	15.0	0.00e+00	0	56	0	1323302912	54	4348
2026-01-03 21:34:58.72	98.15	10.77	-46.1	-47.5	15.0	0.00e+00	0	56	0	1326448640	54	4352
2026-01-03 21:34:59.70	98.32	10.74	-46.3	-47.8	14.7	0.00e+00	0	56	0	1329594368	54	4498
2026-01-03 21:35:00.69	98.48	10.70	-46.1	-47.5	14.9	0.00e+00	0	56	0	1332740096	54	4367
2026-01-03 21:35:01.67	98.64	10.66	-46.1	-47.5	14.9	7.00e-07	0	56	0	1335885824	54	4386
2026-01-03 21:35:02.66	98.81	10.62	-46.4	-47.8	14.6	0.00e+00	0	56	0	1339031552	54	4543
2026-01-03 21:35:03.65	98.97	10.58	-46.3	-47.7	14.7	7.00e-07	0	56	0	1342177280	54	4489
2026-01-03 21:35:04.64	99.13	10.55	-46.1	-47.5	14.9	0.00e+00	0	56	0	1345323008	54	4363
2026-01-03 21:35:05.63	99.29	10.51	-46.0	-47.3	15.1	0.00e+00	0	56	0	1348468736	54	4265
2026-01-03 21:35:06.62	99.46	10.47	-45.8	-47.1	15.3	0.00e+00	0	56	0	1351614464	54	4169
2026-01-03 21:35:07.61	99.62	10.43	-45.7	-47.0	15.4	0.00e+00	0	56	0	1354760192	54	4139
2026-01-03 21:35:08.60	99.78	10.39	-45.8	-47.0	15.4	0.00e+00	0	56	0	1357905920	54	4139
2026-01-03 21:35:09.60	99.94	10.35	-45.7	-47.0	15.4	0.00e+00	0	56	0	1361051648	54	4122
2026-01-03 21:35:10.59	100.10	10.31	-45.7	-47.0	15.4	0.00e+00	0	56	0	1364197376	54	4110
2026-01-03 21:35:11.58	100.26	10.27	-45.6	-46.9	15.5	0.00e+00	0	56	0	1367343104	54	4078
2026-01-03 21:35:12.58	100.42	10.23	-45.7	-46.9	15.4	0.00e+00	0	56	0	1370488832	54	4096
2026-01-03 21:35:13.56	100.58	10.19	-45.8	-47.1	15.3	0.00e+00	0	56	0	1373634560	54	4166
2026-01-03 21:35:14.55	100.74	10.15	-45.9	-47.2	15.1	0.00e+00	0	56	0	1376780288	54	4241
2026-01-03 21:35:15.55	100.90	10.11	-46.0	-47.4	15.0	0.00e+00	0	56	0	1379926016	54	4306
2026-01-03 21:35:16.54	101.05	10.07	-46.0	-47.3	15.1	0.00e+00	0	56	0	1383071744	54	4272
2026-01-03 21:35:17.53	101.21	10.03	-46.0	-47.4	15.0	0.00e+00	0	56	0	1385168896	54	4321
2026-01-03 21:35:18.51	101.37	9.99	-46.0	-47.4	15.0	0.00e+00	0	56	0	1388314624	54	4317
2026-01-03 21:35:19.50	101.52	9.95	-46.1	-47.5	14.9	0.00e+00	0	56	0	1391460352	54	4366
2026-01-03 21:35:20.50	101.68	9.91	-46.1	-47.5	14.8	0.00e+00	0	56	0	1394606080	54	4384
2026-01-03 21:35:21.48	101.83	9.87	-46.0	-47.3	15.1	7.00e-07	0	56	0	1397751808	54	4277
2026-01-03 21:35:22.47	101.99	9.83	-45.8	-47.2	15.3	0.00e+00	0	56	0	1400897536	54	4194
2026-01-03 21:35:23.45	102.14	9.79	-45.8	-47.2	15.2	0.00e+00	0	56	0	1404043264	54	4201
2026-01-03 21:35:24.44	102.30	9.75	-45.8	-47.2	15.3	0.00e+00	0	56	0	1407188992	54	4195
2026-01-03 21:35:25.43	102.45	9.71	-45.8	-47.2	15.2	0.00e+00	0	56	0	1410334720	54	4202
2026-01-03 21:35:26.43	102.61	9.66	-45.9	-47.2	15.2	0.00e+00	0	56	0	1413480448	54	4207
2026-01-03 21:35:27.42	102.76	9.62	-45.9	-47.2	15.2	0.00e+00	0	56	0	1416626176	54	4230
2026-01-03 21:35:28.41	102.91	9.58	-45.9	-47.2	15.2	0.00e+00	0	56	0	1419771904	54	4226
2026-01-03 21:35:29.39	103.06	9.54	-45.9	-47.2	15.1	0.00e+00	0	56	0	1422917632	54	4242
2026-01-03 21:35:30.39	103.21	9.50	-46.0	-47.4	15.0	0.00e+00	0	56	0	1426063360	54	4307
2026-01-03 21:35:31.38	103.37	9.46	-46.1	-47.5	14.8	0.00e+00	0	56	0	1429209088	54	4375
2026-01-03 21:35:32.38	103.52	9.41	-46.1	-47.5	14.8	0.00e+00	0	56	0	1432354816	54	4381
2026-01-03 21:35:33.36	103.67	9.37	-46.3	-47.8	14.6	0.00e+00	0	56	0	1435500544	54	4506
2026-01-03 21:35:34.35	103.82	9.33	-46.3	-47.7	14.7	0.00e+00	0	56	0	1438646272	54	4470
2026-01-03 21:35:35.34	103.97	9.29	-46.1	-47.5	14.9	0.00e+00	0	56	0	1441792000	54	4366
2026-01-03 21:35:36.33	104.12	9.25	-46.0	-47.4	14.9	0.00e+00	0	56	0	1443889152	54	4313
2026-01-03 21:35:37.32	104.27	9.20	-46.0	-47.4	14.9	0.00e+00	0	56	0	1447034880	54	4324
2026-01-03 21:35:38.31	104.41	9.16	-46.0	-47.3	15.0	0.00e+00	0	56	0	1450180608	54	4286
2026-01-03 21:35:39.30	104.56	9.12	-46.1	-47.5	14.8	0.00e+00	0	56	0	1453326336	54	4375
2026-01-03 21:35:40.28	104.71	9.08	-46.1	-47.4	14.9	7.00e-07	0	56	0	1456472064	54	4333
2026-01-03 21:35:41.27	104.85	9.03	-46.3	-47.7	14.7	0.00e+00	0	56	0	1459617792	54	4470
2026-01-03 21:35:42.25	105.00	8.99	-46.4	-47.8	14.5	1.50e-06	0	56	0	1462763520	54	4534
2026-01-03 21:35:43.23	105.15	8.95	-46.2	-47.6	14.7	7.00e-07	0	56	0	1465909248	54	4434
2026-01-03 21:35:44.22	105.29	8.91	-46.0	-47.4	14.9	7.00e-07	0	56	0	1469054976	54	4322
2026-01-03 21:35:45.21	105.44	8.86	-46.1	-47.4	14.9	0.00e+00	0	56	0	1472200704	54	4334
2026-01-03 21:35:46.20	105.58	8.82	-46.1	-47.4	14.9	0.00e+00	0	56	0	1475346432	54	4329
2026-01-03 21:35:47.19	105.73	8.78	-46.2	-47.7	14.7	7.00e-07	0	56	0	1478492160	54	4443
2026-01-03 21:35:48.18	105.87	8.73	-46.2	-47.6	14.7	0.00e+00	0	56	0	1481637888	54	4404
2026-01-03 21:35:49.17	106.01	8.69	-46.3	-47.7	14.6	0.00e+00	0	56	0	1484783616	54	4472
2026-01-03 21:35:50.16	106.16	8.65	-46.4	-47.9	14.5	1.50e-06	0	56	0	1487929344	54	4546
2026-01-03 21:35:51.16	106.30	8.60	-46.3	-47.8	14.5	7.00e-07	0	56	0	1491075072	54	4525
2026-01-03 21:35:52.15	106.45	8.56	-46.3	-47.8	14.5	7.00e-07	0	56	0	1494220800	54	4542
2026-01-03 21:35:53.14	106.59	8.51	-46.5	-48.0	14.3	0.00e+00	0	56	0	1497366528	54	4644
2026-01-03 21:35:54.14	106.73	8.47	-46.5	-48.0	14.3	1.50e-06	0	56	0	1500512256	54	4640
2026-01-03 21:35:55.12	106.87	8.43	-46.5	-48.1	14.2	7.00e-07	0	56	0	1502609408	54	4673
2026-01-03 21:35:56.11	107.01	8.38	-46.7	-48.3	14.1	2.20e-06	0	56	0	1505755136	55	4507
2026-01-03 21:35:57.10	107.15	8.34	-46.5	-48.1	14.2	7.00e-07	0	56	0	1508900864	55	4413
2026-01-03 21:35:58.09	107.29	8.29	-46.4	-47.9	14.4	2.20e-06	0	57	0	1512046592	55	4318
2026-01-03 21:35:59.08	107.43	8.25	-46.5	-48.0	14.3	1.50e-06	0	56	0	1515192320	55	4359
2026-01-03 21:36:00.08	107.57	8.21	-46.4	-47.9	14.4	7.00e-07	0	56	0	1518338048	55	4310
2026-01-03 21:36:01.07	107.71	8.16	-46.6	-48.2	14.1	1.50e-06	0	56	0	1521483776	55	4460
2026-01-03 21:36:02.05	107.85	8.12	-46.4	-47.9	14.4	7.00e-07	0	56	0	1524629504	55	4318
2026-01-03 21:36:03.05	107.99	8.07	-46.6	-48.1	14.2	3.80e-06	0	56	0	1527775232	55	4438
2026-01-03 21:36:04.04	108.13	8.03	-46.9	-48.5	13.8	4.50e-06	0	56	0	1530920960	55	4630
2026-01-03 21:36:05.03	108.26	7.98	-46.7	-48.3	14.0	3.80e-06	0	56	0	1534066688	55	4504
2026-01-03 21:36:06.03	108.40	7.94	-46.5	-48.1	14.2	7.00e-07	0	56	0	1537212416	55	4412
2026-01-03 21:36:07.01	108.54	7.89	-46.4	-48.0	14.3	0.00e+00	0	56	0	1540358144	55	4350
2026-01-03 21:36:08.00	108.67	7.85	-46.4	-47.9	14.4	0.00e+00	0	56	0	1543503872	55	4315
2026-01-03 21:36:08.99	108.81	7.80	-46.4	-47.9	14.4	2.20e-06	0	56	0	1546649600	55	4315
2026-01-03 21:36:09.98	108.94	7.76	-46.4	-48.0	14.3	7.00e-07	0	56	0	1549795328	55	4341
2026-01-03 21:36:10.96	109.08	7.72	-46.5	-48.1	14.2	1.50e-06	0	57	0	1552941056	55	4394
2026-01-03 21:36:11.95	109.21	7.67	-46.7	-48.3	13.9	3.80e-06	0	56	0	1556086784	55	4524
2026-01-03 21:36:12.94	109.35	7.63	-46.5	-48.1	14.2	2.20e-06	0	56	0	1559232512	55	4418
2026-01-03 21:36:13.92	109.48	7.58	-46.3	-47.8	14.4	0.00e+00	0	56	0	1561329664	55	4274
2026-01-03 21:36:14.91	109.61	7.54	-46.3	-47.8	14.4	0.00e+00	0	56	0	1564475392	55	4275
2026-01-03 21:36:15.90	109.75	7.49	-46.4	-47.9	14.3	1.50e-06	0	56	0	1567621120	55	4338
2026-01-03 21:36:16.89	109.88	7.45	-46.4	-47.9	14.4	3.00e-06	0	56	0	1570766848	55	4306
2026-01-03 21:36:17.88	110.01	7.40	-46.4	-47.9	14.3	2.20e-06	0	57	0	1573912576	55	4340
2026-01-03 21:36:18.87	110.14	7.35	-46.4	-47.9	14.3	7.00e-07	0	56	0	1577058304	55	4333
2026-01-03 21:36:19.86	110.27	7.31	-46.4	-47.9	14.3	3.00e-06	0	56	0	1580204032	55	4331
2026-01-03 21:36:20.85	110.40	7.26	-46.5	-48.1	14.1	1.50e-06	0	57	0	1583349760	55	4412
2026-01-03 21:36:21.85	110.54	7.22	-46.3	-47.9	14.3	0.00e+00	0	56	0	1586495488	55	4325
2026-01-03 21:36:22.83	110.67	7.17	-46.5	-48.0	14.2	2.20e-06	0	56	0	1589641216	55	4386
2026-01-03 21:36:23.83	110.80	7.13	-46.6	-48.3	14.0	1.50e-06	0	56	0	1592786944	55	4500
2026-01-03 21:36:24.82	110.93	7.08	-46.5	-48.2	14.0	7.00e-07	0	56	0	1595932672	55	4472
2026-01-03 21:36:25.82	111.06	7.04	-46.6	-48.2	14.0	2.20e-06	0	56	0	1599078400	55	4466
2026-01-03 21:36:26.80	111.18	6.99	-46.8	-48.5	13.7	7.60e-06	0	56	0	1602224128	55	4637
2026-01-03 21:36:27.79	111.31	6.94	-46.7	-48.4	13.8	3.80e-06	0	56	0	1605369856	55	4554
2026-01-03 21:36:28.76	111.44	6.90	-46.6	-48.3	13.9	3.80e-06	0	56	0	1608515584	55	4519
2026-01-03 21:36:29.74	111.56	6.85	-46.6	-48.2	14.0	2.20e-06	0	56	0	1611661312	55	4469
2026-01-03 21:36:30.72	111.69	6.81	-46.7	-48.4	13.8	4.50e-06	0	56	0	1614807040	55	4561
2026-01-03 21:36:31.71	111.82	6.76	-46.6	-48.3	13.8	1.50e-06	0	56	0	1616904192	55	4541
2026-01-03 21:36:32.70	111.94	6.72	-46.7	-48.4	13.7	9.10e-06	0	56	0	1620049920	55	4579
2026-01-03 21:36:33.70	112.07	6.67	-46.9	-48.6	13.5	8.30e-06	0	56	0	1623195648	55	4697
2026-01-03 21:36:34.68	112.19	6.62	-46.8	-48.5	13.6	9.90e-06	0	56	0	1626341376	55	4631
2026-01-03 21:36:35.67	112.32	6.58	-46.8	-48.5	13.6	1.29e-05	0	56	0	1629487104	55	4645
2026-01-03 21:36:36.64	112.44	6.53	-47.2	-49.1	13.2	1.37e-05	0	56	0	1632632832	56	4653
2026-01-03 21:36:37.63	112.57	6.49	-47.2	-49.0	13.3	2.44e-05	0	57	0	1635778560	56	4619
2026-01-03 21:36:38.63	112.69	6.44	-47.0	-48.7	13.5	1.52e-05	0	57	0	1638924288	56	4466
2026-01-03 21:36:39.62	112.81	6.40	-46.9	-48.5	13.7	7.60e-06	0	57	0	1642070016	56	4369
2026-01-03 21:36:40.60	112.94	6.35	-47.0	-48.7	13.6	5.30e-06	0	57	0	1645215744	56	4471
2026-01-03 21:36:41.59	113.06	6.30	-46.9	-48.6	13.7	7.60e-06	0	56	0	1648361472	56	4403
2026-01-03 21:36:42.58	113.18	6.26	-46.8	-48.5	13.7	4.50e-06	0	57	0	1651507200	56	4361
2026-01-03 21:36:43.58	113.31	6.21	-46.8	-48.5	13.7	3.00e-06	0	56	0	1654652928	56	4368
2026-01-03 21:36:44.56	113.43	6.16	-46.8	-48.5	13.7	6.10e-06	0	57	0	1657798656	56	4383
2026-01-03 21:36:45.55	113.55	6.12	-46.8	-48.5	13.7	6.80e-06	0	57	0	1660944384	56	4388
2026-01-03 21:36:46.54	113.67	6.07	-47.0	-48.8	13.5	1.37e-05	0	56	0	1664090112	56	4498
2026-01-03 21:36:47.52	113.79	6.03	-47.1	-48.9	13.4	1.90e-05	0	57	0	1667235840	56	4547
2026-01-03 21:36:48.51	113.91	5.98	-47.0	-48.8	13.4	9.10e-06	0	57	0	1670381568	56	4499
2026-01-03 21:36:49.50	114.03	5.93	-47.2	-49.0	13.2	3.58e-05	0	57	0	1673527296	56	4618
2026-01-03 21:36:50.50	114.15	5.89	-47.1	-49.0	13.2	2.51e-05	0	56	0	1676673024	56	4613
2026-01-03 21:36:51.49	114.27	5.84	-47.3	-49.3	12.9	6.40e-05	0	57	0	1678770176	56	4797
2026-01-03 21:36:52.48	114.39	5.79	-47.4	-49.3	12.9	6.63e-05	0	57	0	1681915904	56	4777
2026-01-03 21:36:53.47	114.51	5.75	-47.1	-49.0	13.2	2.59e-05	0	57	0	1685061632	56	4606
2026-01-03 21:36:54.46	114.62	5.70	-47.1	-48.9	13.3	1.67e-05	0	56	0	1688207360	56	4565
2026-01-03 21:36:55.45	114.74	5.65	-47.0	-48.7	13.4	1.06e-05	0	57	0	1691353088	56	4490
2026-01-03 21:36:56.44	114.86	5.61	-47.1	-48.9	13.3	2.28e-05	0	56	0	1694498816	56	4563
2026-01-03 21:36:57.44	114.98	5.56	-47.3	-49.1	13.0	2.51e-05	0	56	0	1697644544	56	4700
2026-01-03 21:36:58.42	115.09	5.51	-47.2	-49.1	13.0	4.73e-05	0	57	0	1700790272	56	4689
2026-01-03 21:36:59.41	115.21	5.47	-46.9	-48.7	13.4	1.98e-05	0	57	0	1703936000	56	4468
2026-01-03 21:37:00.41	115.33	5.42	-46.8	-48.5	13.6	7.60e-06	0	57	0	1707081728	56	4391
2026-01-03 21:37:01.40	115.44	5.37	-47.1	-48.9	13.2	1.29e-05	0	57	0	1710227456	56	4553
2026-01-03 21:37:02.39	115.56	5.33	-47.1	-48.9	13.2	1.44e-05	0	57	0	1713373184	56	4585
2026-01-03 21:37:03.38	115.67	5.28	-47.1	-48.9	13.1	3.20e-05	0	57	0	1716518912	56	4595
2026-01-03 21:37:04.37	115.79	5.23	-47.2	-49.2	12.8	4.27e-05	0	57	0	1719664640	56	4733
2026-01-03 21:37:05.36	115.90	5.19	-47.3	-49.3	12.7	7.17e-05	0	56	0	1722810368	56	4803
2026-01-03 21:37:06.35	116.02	5.14	-47.1	-48.9	13.1	3.96e-05	0	57	0	1725956096	56	4593
2026-01-03 21:37:07.35	116.13	5.09	-47.2	-49.1	13.0	4.11e-05	0	57	0	1729101824	56	4660
2026-01-03 21:37:08.34	116.24	5.05	-47.0	-48.9	13.2	3.20e-05	0	57	0	1732247552	56	4562
2026-01-03 21:37:09.33	116.36	5.00	-51.5	-62.3	3.8	1.28e+00	0	57	104	1734344704	64	13447
2026-01-03 21:37:10.33	116.47	4.95	-51.8	-63.3	3.8	1.49e+00	0	57	104	1734344704	65	14306
2026-01-03 21:37:11.32	116.58	4.91	-52.1	-63.6	3.8	1.49e+00	0	57	104	1734344704	66	13970
2026-01-03 21:37:12.30	116.69	4.86	-52.2	-63.7	3.8	1.49e+00	0	57	104	1734344704	66	14116
2026-01-03 21:37:13.29	116.81	4.81	-52.2	-63.8	3.8	1.49e+00	0	57	104	1734344704	66	14309
2026-01-03 21:37:14.27	116.92	4.77	-52.3	-63.8	3.8	1.49e+00	0	57	104	1734344704	66	14349
2026-01-03 21:37:15.27	117.03	4.72	-52.4	-63.9	3.8	1.49e+00	0	57	104	1734344704	66	14505
2026-01-03 21:37:16.27	117.14	4.67	-52.4	-64.0	3.8	1.49e+00	0	57	104	1734344704	66	14545
2026-01-03 21:37:17.25	117.25	4.63	-52.4	-64.0	3.8	1.49e+00	0	57	104	1734344704	66	14541
2026-01-03 21:37:18.24	117.36	4.58	-52.1	-63.6	3.8	1.49e+00	0	57	104	1734344704	66	13945
2026-01-03 21:37:19.22	117.47	4.53	-52.6	-64.0	3.8	1.49e+00	0	57	104	1734344704	66	14617
2026-01-03 21:37:20.21	117.58	4.49	-52.5	-64.0	3.8	1.49e+00	0	57	104	1734344704	67	13838
2026-01-03 21:37:21.20	117.69	4.44	-52.5	-64.0	3.8	1.49e+00	0	57	104	1734344704	67	13859
2026-01-03 21:37:22.20	117.79	4.39	-52.5	-64.1	3.8	1.49e+00	0	57	104	1734344704	67	13907
2026-01-03 21:37:23.19	117.90	4.35	-52.6	-64.1	3.8	1.49e+00	0	57	104	1734344704	67	13977
2026-01-03 21:37:24.18	118.01	4.30	-52.6	-64.1	3.8	1.49e+00	0	57	104	1734344704	67	14022
2026-01-03 21:37:25.18	118.12	4.25	-52.6	-64.2	3.8	1.49e+00	0	57	104	1734344704	67	14053
2026-01-03 21:37:26.17	118.23	4.21	-52.7	-64.1	3.8	1.49e+00	0	57	104	1734344704	67	14011
2026-01-03 21:37:27.16	118.33	4.16	-52.7	-64.1	3.8	1.49e+00	0	57	104	1734344704	67	14040
2026-01-03 21:37:28.14	118.44	4.11	-52.5	-64.2	3.8	1.49e+00	0	57	104	1734344704	67	14057
2026-01-03 21:37:29.11	118.54	4.07	-52.6	-64.2	3.8	1.49e+00	0	57	104	1734344704	67	14068
2026-01-03 21:37:30.09	118.65	4.02	-52.7	-64.2	3.8	1.49e+00	0	57	104	1734344704	67	14107
2026-01-03 21:37:31.07	118.75	3.98	-52.7	-64.2	3.8	1.49e+00	0	57	104	1734344704	67	14123
2026-01-03 21:37:32.06	118.86	3.93	-52.8	-64.2	3.8	1.49e+00	0	57	104	1734344704	67	14145
2026-01-03 21:37:33.05	118.96	3.88	-52.8	-64.2	3.8	1.49e+00	0	57	104	1734344704	67	14158
2026-01-03 21:37:34.04	119.07	3.84	-52.7	-64.2	3.8	1.49e+00	0	57	104	1734344704	67	14154
2026-01-03 21:37:35.03	119.17	3.79	-52.8	-64.2	3.8	1.49e+00	0	57	104	1734344704	67	14145
2026-01-03 21:37:36.01	119.27	3.74	-52.8	-64.2	3.8	1.49e+00	0	57	104	1734344704	67	14115
2026-01-03 21:37:37.00	119.38	3.70	-52.8	-64.2	3.8	1.49e+00	0	57	104	1734344704	67	14097
2026-01-03 21:37:37.99	119.48	3.65	-52.6	-64.2	3.8	1.49e+00	0	57	104	1734344704	67	14124
2026-01-03 21:37:38.98	119.58	3.60	-52.6	-64.2	3.8	1.49e+00	0	57	104	1734344704	67	14081
2026-01-03 21:37:39.97	119.69	3.56	-52.7	-64.2	3.8	1.49e+00	0	57	104	1734344704	67	14116
2026-01-03 21:37:40.96	119.79	3.51	-52.8	-64.2	3.8	1.49e+00	0	57	104	1734344704	67	14124
2026-01-03 21:37:41.95	119.89	3.46	-52.7	-64.2	3.8	1.49e+00	0	57	104	1734344704	67	14126
2026-01-03 21:37:42.94	119.99	3.42	-52.6	-64.2	3.8	1.49e+00	0	57	104	1734344704	67	14080
2026-01-03 21:37:43.93	120.10	3.37	-52.6	-64.2	3.8	1.49e+00	0	57	104	1734344704	67	14144
2026-01-03 21:37:44.93	120.20	3.32	-52.7	-64.2	3.8	1.49e+00	0	57	104	1734344704	67	14113
2026-01-03 21:37:45.91	120.30	3.28	-52.6	-64.2	3.8	1.49e+00	0	57	104	1734344704	67	14149
2026-01-03 21:37:46.91	120.40	3.23	-52.7	-64.2	3.8	1.49e+00	0	57	104	1734344704	67	14109
2026-01-03 21:37:47.89	120.50	3.18	-52.7	-64.2	3.8	1.49e+00	0	57	104	1734344704	67	14127
2026-01-03 21:37:48.88	120.60	3.14	-52.7	-64.2	3.8	1.49e+00	0	57	104	1734344704	67	14098
2026-01-03 21:37:49.87	120.70	3.09	-52.6	-64.2	3.8	1.49e+00	0	57	104	1734344704	67	14154
2026-01-03 21:37:50.86	120.80	3.04	-52.7	-64.2	3.8	1.49e+00	0	57	104	1734344704	67	14122
2026-01-03 21:37:51.84	120.90	3.00	-52.7	-64.2	3.8	1.49e+00	0	57	104	1734344704	67	14110

#Closed at: 2026-01-03 21:37:52
#Recorded file [1734 MB]: D:/Data/31026_260104_003709.dat