passes_logs/2026/01/03/R3.0SM8_Murmansk_STILSPACE/R3.0SM8_Murmansk_STILSPACE__20260103_060505_FENGYUN_3E_rec.log

#Pass ID: 20260103_060505_FENGYUN 3E
#Satellite: FENGYUN 3E
#Configuration: FENGYUN 3E
#almurnet v.1.7.20240730
#Start time: 2026-01-03 06:10:17

#Version: 2.2.20231116
#Station: R3.0SM8_Murmansk_STILSPACE
#Location: 33.092731 lon 68.902999 lat
#TLE: 1 49008U 21062A   26002.32147302  .00000239  00000+0  13357-3 0  9999
#TLE: 2 49008  98.7477   7.5995 0001398 164.3382 195.7838 14.19884140233041

#Time	Az	El	Level	Level2	SNR	BER	BlckErr	Temp	State	Recorded	gain1	gain2
2026-01-03 06:10:17.36	0.32	38.33	-53.3	-64.2	3.8	8.46e-01	0	56	0	0	68	13309
2026-01-03 06:10:18.35	0.03	38.51	-53.3	-63.6	3.8	8.47e-01	0	57	104	0	69	11627
2026-01-03 06:10:19.34	359.74	38.70	-53.3	-63.6	3.8	8.47e-01	0	57	104	0	69	11582
2026-01-03 06:10:20.33	359.45	38.88	-53.4	-63.6	3.8	8.46e-01	0	58	104	0	69	11589
2026-01-03 06:10:21.32	359.15	39.07	-53.4	-63.7	3.8	8.47e-01	0	57	104	0	69	11695
2026-01-03 06:10:22.31	358.84	39.26	-53.2	-63.7	3.8	8.47e-01	0	58	104	0	69	11705
2026-01-03 06:10:23.30	358.54	39.44	-53.3	-63.6	3.8	8.46e-01	0	57	104	0	69	11615
2026-01-03 06:10:24.29	358.23	39.63	-53.4	-63.6	3.8	8.46e-01	0	57	104	0	69	11645
2026-01-03 06:10:25.27	357.92	39.81	-53.2	-63.6	3.8	8.47e-01	0	57	104	0	69	11592
2026-01-03 06:10:26.27	357.59	40.00	-53.3	-63.6	3.8	8.47e-01	0	57	104	0	69	11581
2026-01-03 06:10:27.26	357.27	40.19	-53.3	-63.6	3.8	8.46e-01	0	58	104	0	69	11596
2026-01-03 06:10:28.24	356.95	40.37	-53.3	-63.5	3.8	8.46e-01	0	58	104	0	69	11530
2026-01-03 06:10:29.23	356.62	40.56	-53.4	-63.6	3.8	8.47e-01	0	57	104	0	69	11584
2026-01-03 06:10:30.22	356.29	40.74	-53.4	-63.5	3.8	8.46e-01	0	57	104	0	69	11541
2026-01-03 06:10:31.20	355.96	40.93	-53.4	-63.6	3.8	8.46e-01	0	57	104	0	69	11581
2026-01-03 06:10:32.19	355.62	41.11	-53.4	-63.5	3.8	8.45e-01	0	57	104	0	69	11541
2026-01-03 06:10:33.18	355.27	41.30	-53.0	-63.5	3.8	8.46e-01	0	57	104	0	69	11508
2026-01-03 06:10:34.18	354.92	41.49	-53.4	-63.5	3.8	8.46e-01	0	57	104	0	69	11521
2026-01-03 06:10:35.17	354.57	41.67	-53.2	-63.5	3.8	8.46e-01	0	57	104	0	69	11497
2026-01-03 06:10:36.16	354.21	41.86	-53.1	-63.5	3.8	8.46e-01	0	57	104	0	69	11437
2026-01-03 06:10:37.15	353.85	42.04	-53.3	-63.5	3.8	8.46e-01	0	57	104	0	69	11522
2026-01-03 06:10:38.13	353.49	42.22	-53.3	-63.5	3.8	8.45e-01	0	58	104	0	69	11549
2026-01-03 06:10:39.13	353.12	42.41	-53.3	-63.5	3.8	8.47e-01	0	58	104	0	69	11545
2026-01-03 06:10:40.12	352.75	42.59	-53.3	-63.5	3.8	8.46e-01	0	57	104	0	69	11500
2026-01-03 06:10:41.11	352.37	42.77	-53.2	-63.6	3.8	8.47e-01	0	58	104	0	69	11554
2026-01-03 06:10:42.09	351.99	42.95	-53.3	-63.5	3.8	8.46e-01	0	57	104	0	69	11504
2026-01-03 06:10:43.07	351.61	43.13	-53.2	-63.5	3.8	8.47e-01	0	57	104	0	69	11522
2026-01-03 06:10:44.06	351.22	43.31	-53.2	-63.5	3.8	8.46e-01	0	58	104	0	69	11496
2026-01-03 06:10:45.05	350.82	43.49	-53.1	-63.5	3.8	8.47e-01	0	57	104	0	69	11436
2026-01-03 06:10:46.04	350.42	43.67	-53.3	-63.4	3.8	8.47e-01	0	57	104	0	69	11339
2026-01-03 06:10:47.03	350.02	43.85	-53.3	-63.4	3.8	8.46e-01	0	58	104	0	69	11293
2026-01-03 06:10:48.03	349.61	44.03	-53.3	-63.4	3.8	8.47e-01	0	58	104	0	69	11384
2026-01-03 06:10:49.02	349.19	44.21	-53.3	-63.4	3.8	8.47e-01	0	58	104	0	69	11307
2026-01-03 06:10:50.01	348.77	44.39	-53.3	-63.1	3.8	8.46e-01	0	57	104	0	69	11013
2026-01-03 06:10:51.00	348.35	44.56	-53.3	-63.1	3.8	8.46e-01	0	57	104	0	69	11013
2026-01-03 06:10:51.99	347.92	44.73	-53.3	-63.4	3.8	8.47e-01	0	58	104	0	69	11296
2026-01-03 06:10:52.98	347.49	44.91	-53.2	-63.4	3.8	8.47e-01	0	58	104	0	69	11362
2026-01-03 06:10:53.98	347.05	45.08	-53.2	-63.3	3.8	8.47e-01	0	58	104	0	69	11272
2026-01-03 06:10:54.97	346.61	45.25	-53.3	-63.1	3.8	8.46e-01	0	58	104	0	69	10935
2026-01-03 06:10:55.95	346.17	45.42	-53.3	-63.4	3.8	8.46e-01	0	58	104	0	69	11315
2026-01-03 06:10:56.94	345.72	45.59	-53.3	-63.5	3.8	8.46e-01	0	57	104	0	69	11524
2026-01-03 06:10:57.93	345.26	45.76	-53.3	-63.3	3.8	8.46e-01	0	58	104	0	69	11284
2026-01-03 06:10:58.92	344.80	45.92	-53.2	-63.3	3.8	8.46e-01	0	58	104	0	69	11196
2026-01-03 06:10:59.92	344.33	46.09	-53.3	-63.1	3.8	8.46e-01	0	58	104	0	69	10991
2026-01-03 06:11:00.89	343.87	46.25	-53.2	-62.6	3.8	8.47e-01	0	58	104	0	69	10386
2026-01-03 06:11:01.88	343.39	46.41	-53.1	-61.9	3.8	8.45e-01	0	58	104	0	69	9505
2026-01-03 06:11:02.87	342.91	46.57	-53.1	-61.6	3.8	8.46e-01	0	58	104	0	68	9812
2026-01-03 06:11:03.86	342.42	46.73	-53.0	-62.0	3.8	8.44e-01	0	58	104	0	68	10213
2026-01-03 06:11:04.85	341.93	46.89	-53.1	-61.9	3.9	8.46e-01	0	58	104	0	68	10107
2026-01-03 06:11:05.83	341.44	47.04	-52.8	-60.9	4.0	8.44e-01	0	57	104	0	68	9051
2026-01-03 06:11:06.83	340.94	47.19	-52.8	-60.7	4.0	8.44e-01	0	58	104	0	68	8838
2026-01-03 06:11:07.81	340.44	47.34	-52.3	-58.2	4.8	8.20e-01	0	58	0	0	67	6963
2026-01-03 06:11:08.81	339.92	47.49	-49.5	-51.8	10.4	3.81e-02	0	58	0	4194304	62	4476
2026-01-03 06:11:09.80	339.41	47.64	-44.8	-45.5	16.8	2.20e-06	0	57	0	11534336	52	3862
2026-01-03 06:11:10.78	338.89	47.79	-41.7	-42.3	19.9	0.00e+00	0	58	0	18874368	46	3748
2026-01-03 06:11:11.77	338.37	47.93	-41.4	-41.9	20.3	0.00e+00	0	58	0	26214400	45	3800
2026-01-03 06:11:12.76	337.84	48.07	-41.5	-42.0	20.2	0.00e+00	0	58	0	33554432	45	3832
2026-01-03 06:11:13.76	337.30	48.21	-41.8	-42.3	19.9	0.00e+00	0	58	0	40894464	45	3972
2026-01-03 06:11:14.74	336.76	48.34	-42.1	-42.7	19.5	0.00e+00	0	58	0	47185920	45	4155
2026-01-03 06:11:15.73	336.22	48.48	-42.5	-43.1	19.2	0.00e+00	0	58	0	54525952	46	4107
2026-01-03 06:11:16.72	335.67	48.61	-42.6	-43.2	19.0	0.00e+00	0	57	0	61865984	46	4186
2026-01-03 06:11:17.71	335.12	48.74	-42.5	-43.1	19.0	0.00e+00	0	58	0	69206016	47	3893
2026-01-03 06:11:18.70	334.56	48.87	-42.4	-43.0	19.3	0.00e+00	0	58	0	76546048	47	3848
2026-01-03 06:11:19.69	333.99	48.99	-41.9	-42.5	19.7	0.00e+00	0	58	0	82837504	46	3832
2026-01-03 06:11:20.68	333.43	49.11	-41.7	-42.3	19.9	0.00e+00	0	58	0	90177536	46	3755
2026-01-03 06:11:21.67	332.85	49.23	-41.6	-42.2	20.0	0.00e+00	0	58	0	97517568	46	3699
2026-01-03 06:11:22.66	332.28	49.35	-42.0	-42.5	19.6	0.00e+00	0	58	0	104857600	46	3862
2026-01-03 06:11:23.65	331.70	49.46	-42.3	-42.9	19.3	0.00e+00	0	58	0	112197632	46	4019
2026-01-03 06:11:24.64	331.11	49.57	-42.8	-43.4	18.9	0.00e+00	0	58	0	119537664	47	4020
2026-01-03 06:11:25.63	330.52	49.68	-42.9	-43.6	18.7	0.00e+00	0	58	0	125829120	47	4121
2026-01-03 06:11:26.62	329.93	49.78	-42.7	-43.3	18.9	0.00e+00	0	57	0	133169152	47	3987
2026-01-03 06:11:27.61	329.33	49.88	-42.3	-42.8	19.4	0.00e+00	0	57	0	140509184	47	3773
2026-01-03 06:11:28.60	328.73	49.98	-42.3	-42.8	19.4	0.00e+00	0	58	0	147849216	47	3780
2026-01-03 06:11:29.59	328.13	50.07	-42.1	-42.7	19.5	0.00e+00	0	58	0	155189248	47	3723
2026-01-03 06:11:30.58	327.52	50.17	-42.0	-42.6	19.6	0.00e+00	0	58	0	162529280	47	3656
2026-01-03 06:11:31.57	326.90	50.25	-42.1	-42.7	19.5	0.00e+00	0	58	0	168820736	47	3720
2026-01-03 06:11:32.56	326.29	50.34	-42.0	-42.5	19.7	0.00e+00	0	58	0	176160768	46	3840
2026-01-03 06:11:33.55	325.67	50.42	-42.0	-42.6	19.6	0.00e+00	0	58	0	183500800	46	3887
2026-01-03 06:11:34.55	325.04	50.50	-42.2	-42.8	19.5	0.00e+00	0	58	0	190840832	46	3971
2026-01-03 06:11:35.54	324.41	50.57	-42.2	-42.8	19.4	0.00e+00	0	58	0	198180864	46	3970
2026-01-03 06:11:36.53	323.78	50.64	-42.6	-43.1	19.1	0.00e+00	0	58	0	204472320	46	4144
2026-01-03 06:11:37.52	323.15	50.71	-42.7	-43.3	18.9	0.00e+00	0	58	0	211812352	47	3975
2026-01-03 06:11:38.50	322.52	50.77	-42.7	-43.4	18.9	0.00e+00	0	58	0	219152384	47	4008
2026-01-03 06:11:39.49	321.88	50.84	-42.7	-43.3	18.9	0.00e+00	0	57	0	226492416	47	3986
2026-01-03 06:11:40.48	321.24	50.89	-42.4	-42.9	19.3	0.00e+00	0	58	0	233832448	47	3821
2026-01-03 06:11:41.46	320.61	50.94	-42.4	-43.0	19.2	0.00e+00	0	58	0	241172480	47	3833
2026-01-03 06:11:42.45	319.96	50.99	-42.8	-43.4	18.9	0.00e+00	0	58	0	247463936	47	4010
2026-01-03 06:11:43.44	319.32	51.04	-43.2	-43.9	18.6	0.00e+00	0	58	0	254803968	48	4007
2026-01-03 06:11:44.43	318.67	51.08	-43.2	-43.9	18.6	0.00e+00	0	58	0	262144000	48	4007
2026-01-03 06:11:45.41	318.03	51.12	-43.3	-44.0	18.5	0.00e+00	0	58	0	269484032	48	4058
2026-01-03 06:11:46.41	317.37	51.15	-42.8	-43.4	19.0	0.00e+00	0	58	0	275775488	48	3785
2026-01-03 06:11:47.40	316.71	51.18	-42.3	-42.9	19.3	0.00e+00	0	58	0	283115520	47	3796
2026-01-03 06:11:48.39	316.06	51.21	-42.0	-42.5	19.7	0.00e+00	0	58	0	290455552	46	3863
2026-01-03 06:11:49.36	315.42	51.23	-42.1	-42.7	19.6	0.00e+00	0	58	0	297795584	46	3932
2026-01-03 06:11:50.35	314.76	51.25	-42.3	-42.9	19.3	0.00e+00	0	57	0	304087040	46	4030
2026-01-03 06:11:51.34	314.10	51.26	-42.5	-43.1	19.2	0.00e+00	0	58	0	311427072	46	4118
2026-01-03 06:11:52.33	313.45	51.27	-42.4	-43.0	19.2	0.00e+00	0	58	0	318767104	46	4076
2026-01-03 06:11:53.31	312.79	51.28	-42.2	-42.8	19.4	0.00e+00	0	58	0	326107136	46	3970
2026-01-03 06:11:54.30	312.14	51.28	-42.2	-42.7	19.5	0.00e+00	0	58	0	333447168	46	3941
2026-01-03 06:11:55.28	311.48	51.28	-42.1	-42.6	19.5	0.00e+00	0	58	0	340787200	46	3907
2026-01-03 06:11:56.28	310.82	51.27	-42.1	-42.7	19.6	0.00e+00	0	58	0	347078656	46	3933
2026-01-03 06:11:57.26	310.17	51.26	-42.2	-42.7	19.5	0.00e+00	0	58	0	354418688	46	3937
2026-01-03 06:11:58.25	309.51	51.25	-42.0	-42.6	19.6	0.00e+00	0	58	0	361758720	46	3889
2026-01-03 06:11:59.25	308.85	51.23	-42.0	-42.6	19.6	0.00e+00	0	58	0	369098752	46	3884
2026-01-03 06:12:00.23	308.20	51.21	-42.0	-42.5	19.7	0.00e+00	0	57	0	376438784	46	3854
2026-01-03 06:12:01.22	307.54	51.19	-42.2	-42.7	19.5	0.00e+00	0	57	0	383778816	46	3948
2026-01-03 06:12:02.21	306.89	51.16	-42.0	-42.5	19.7	0.00e+00	0	57	0	390070272	46	3856
2026-01-03 06:12:03.19	306.25	51.12	-42.1	-42.7	19.5	0.00e+00	0	58	0	397410304	46	3928
2026-01-03 06:12:04.17	305.60	51.09	-42.1	-42.6	19.5	0.00e+00	0	58	0	404750336	46	3891
2026-01-03 06:12:05.16	304.95	51.05	-42.2	-42.8	19.5	0.00e+00	0	58	0	412090368	46	3972
2026-01-03 06:12:06.16	304.30	51.00	-42.2	-42.8	19.4	0.00e+00	0	58	0	418381824	46	3982
2026-01-03 06:12:07.15	303.65	50.95	-42.5	-43.0	19.2	0.00e+00	0	58	0	425721856	46	4091
2026-01-03 06:12:08.14	303.01	50.90	-42.1	-42.7	19.6	0.00e+00	0	57	0	433061888	46	3919
2026-01-03 06:12:09.13	302.37	50.84	-42.2	-42.8	19.5	0.00e+00	0	57	0	440401920	46	3980
2026-01-03 06:12:10.12	301.73	50.78	-42.5	-43.1	19.2	0.00e+00	0	58	0	447741952	46	4108
2026-01-03 06:12:11.11	301.09	50.72	-42.2	-42.8	19.5	0.00e+00	0	58	0	455081984	46	3963
2026-01-03 06:12:12.10	300.46	50.65	-42.1	-42.6	19.6	0.00e+00	0	57	0	461373440	46	3909
2026-01-03 06:12:13.08	299.84	50.58	-42.1	-42.6	19.6	0.00e+00	0	58	0	468713472	46	3893
2026-01-03 06:12:14.07	299.21	50.51	-42.0	-42.5	19.7	0.00e+00	0	57	0	476053504	46	3861
2026-01-03 06:12:15.06	298.59	50.43	-42.1	-42.6	19.6	0.00e+00	0	58	0	483393536	46	3898
2026-01-03 06:12:16.04	297.97	50.35	-42.7	-43.3	18.8	0.00e+00	0	58	0	489684992	47	3995
2026-01-03 06:12:17.03	297.36	50.27	-42.6	-43.2	19.0	0.00e+00	0	58	0	497025024	47	3957
2026-01-03 06:12:18.02	296.74	50.18	-43.4	-44.1	18.4	0.00e+00	0	58	0	504365056	48	4114
2026-01-03 06:12:19.00	296.14	50.09	-43.0	-43.6	18.8	0.00e+00	0	58	0	511705088	48	3900
2026-01-03 06:12:19.99	295.53	50.00	-42.5	-43.1	19.1	0.00e+00	0	58	0	519045120	47	3882
2026-01-03 06:12:20.98	294.93	49.90	-42.1	-42.7	19.5	0.00e+00	0	58	0	525336576	47	3711
2026-01-03 06:12:21.97	294.33	49.80	-42.0	-42.5	19.7	0.00e+00	0	58	0	532676608	46	3857
2026-01-03 06:12:22.96	293.73	49.69	-42.3	-42.8	19.4	0.00e+00	0	58	0	540016640	46	3997
2026-01-03 06:12:23.95	293.14	49.59	-42.2	-42.7	19.5	0.00e+00	0	58	0	547356672	46	3954
2026-01-03 06:12:24.94	292.56	49.48	-42.3	-42.9	19.4	0.00e+00	0	58	0	554696704	46	4006
2026-01-03 06:12:25.93	291.97	49.37	-42.4	-43.0	19.2	0.00e+00	0	58	0	562036736	46	4078
2026-01-03 06:12:26.92	291.40	49.25	-41.9	-42.4	19.8	0.00e+00	0	57	0	568328192	46	3819
2026-01-03 06:12:27.90	290.83	49.13	-41.7	-42.2	20.0	0.00e+00	0	58	0	575668224	46	3699
2026-01-03 06:12:28.88	290.27	49.01	-41.8	-42.3	19.9	0.00e+00	0	58	0	583008256	46	3766
2026-01-03 06:12:29.87	289.70	48.89	-42.0	-42.6	19.6	0.00e+00	0	58	0	590348288	46	3878
2026-01-03 06:12:30.86	289.14	48.76	-42.3	-42.9	19.3	0.00e+00	0	58	0	596639744	46	4030
2026-01-03 06:12:31.86	288.58	48.63	-42.2	-42.8	19.4	0.00e+00	0	58	0	603979776	46	3988
2026-01-03 06:12:32.84	288.03	48.50	-42.0	-42.6	19.6	0.00e+00	0	58	0	611319808	46	3891
2026-01-03 06:12:33.82	287.49	48.37	-41.8	-42.3	19.9	0.00e+00	0	58	0	618659840	46	3773
2026-01-03 06:12:34.81	286.95	48.23	-42.0	-42.6	19.7	0.00e+00	0	58	0	625999872	46	3886
2026-01-03 06:12:35.80	286.42	48.10	-41.8	-42.3	19.9	0.00e+00	0	58	0	632291328	46	3778
2026-01-03 06:12:36.79	285.88	47.96	-42.1	-42.6	19.6	0.00e+00	0	58	0	639631360	46	3899
2026-01-03 06:12:37.78	285.36	47.81	-41.9	-42.5	19.7	0.00e+00	0	58	0	646971392	46	3832
2026-01-03 06:12:38.76	284.84	47.67	-41.7	-42.2	19.9	0.00e+00	0	57	0	654311424	46	3735
2026-01-03 06:12:39.75	284.32	47.52	-41.6	-42.1	20.1	0.00e+00	0	58	0	661651456	46	3663
2026-01-03 06:12:40.74	283.81	47.37	-41.6	-42.1	20.1	0.00e+00	0	58	0	667942912	46	3672
2026-01-03 06:12:41.73	283.31	47.22	-41.6	-42.1	20.1	0.00e+00	0	58	0	675282944	46	3673
2026-01-03 06:12:42.71	282.81	47.07	-41.7	-42.2	19.9	0.00e+00	0	58	0	682622976	46	3728
2026-01-03 06:12:43.70	282.31	46.91	-41.9	-42.5	19.7	0.00e+00	0	58	0	689963008	46	3837
2026-01-03 06:12:44.68	281.82	46.76	-41.8	-42.3	19.9	0.00e+00	0	58	0	697303040	46	3758
2026-01-03 06:12:45.67	281.34	46.60	-41.5	-42.0	20.2	0.00e+00	0	58	0	704643072	45	3830
2026-01-03 06:12:46.65	280.86	46.44	-41.4	-41.9	20.3	0.00e+00	0	58	0	710934528	45	3784
2026-01-03 06:12:47.64	280.38	46.28	-41.2	-41.7	20.3	0.00e+00	0	58	0	718274560	45	3707
2026-01-03 06:12:48.63	279.91	46.12	-41.0	-41.5	20.6	0.00e+00	0	58	0	725614592	45	3637
2026-01-03 06:12:49.62	279.44	45.95	-41.0	-41.5	20.6	0.00e+00	0	58	0	732954624	44	3850
2026-01-03 06:12:50.61	278.98	45.79	-41.1	-41.5	20.6	0.00e+00	0	58	0	739246080	44	3862
2026-01-03 06:12:51.60	278.52	45.62	-41.0	-41.5	20.7	0.00e+00	0	58	0	746586112	44	3834
2026-01-03 06:12:52.59	278.06	45.45	-41.0	-41.5	20.6	0.00e+00	0	58	0	753926144	44	3858
2026-01-03 06:12:53.58	277.62	45.28	-41.2	-41.7	20.4	0.00e+00	0	58	0	761266176	44	3948
2026-01-03 06:12:54.57	277.17	45.11	-41.4	-41.9	20.3	0.00e+00	0	58	0	768606208	44	4026
2026-01-03 06:12:55.57	276.73	44.94	-41.3	-41.8	20.3	0.00e+00	0	58	0	775946240	44	3995
2026-01-03 06:12:56.56	276.30	44.76	-41.4	-41.9	20.2	0.00e+00	0	58	0	782237696	44	4051
2026-01-03 06:12:57.55	275.87	44.59	-41.3	-41.9	20.3	0.00e+00	0	58	0	789577728	44	4006
2026-01-03 06:12:58.53	275.45	44.41	-41.2	-41.7	20.5	0.00e+00	0	58	0	796917760	44	3920
2026-01-03 06:12:59.52	275.03	44.24	-41.1	-41.6	20.5	0.00e+00	0	58	0	804257792	44	3897
2026-01-03 06:13:00.51	274.61	44.06	-41.2	-41.7	20.5	0.00e+00	0	58	0	811597824	44	3919
2026-01-03 06:13:01.50	274.20	43.88	-41.1	-41.6	20.5	0.00e+00	0	58	0	817889280	44	3890
2026-01-03 06:13:02.49	273.79	43.70	-41.1	-41.6	20.6	0.00e+00	0	58	0	825229312	44	3879
2026-01-03 06:13:03.48	273.39	43.52	-41.1	-41.6	20.5	0.00e+00	0	58	0	832569344	44	3898
2026-01-03 06:13:04.47	273.00	43.34	-41.2	-41.7	20.4	0.00e+00	0	58	0	839909376	44	3942
2026-01-03 06:13:05.46	272.60	43.16	-41.0	-41.5	20.7	0.00e+00	0	58	0	847249408	44	3834
2026-01-03 06:13:06.46	272.21	42.98	-40.8	-41.3	20.8	0.00e+00	0	58	0	853540864	44	3769
2026-01-03 06:13:07.44	271.83	42.80	-40.8	-41.3	20.9	0.00e+00	0	58	0	860880896	44	3741
2026-01-03 06:13:08.43	271.45	42.61	-40.8	-41.3	20.8	0.00e+00	0	58	0	868220928	44	3744
2026-01-03 06:13:09.42	271.08	42.43	-40.7	-41.2	21.0	0.00e+00	0	58	0	875560960	44	3707
2026-01-03 06:13:10.41	270.71	42.25	-40.9	-41.4	20.7	0.00e+00	0	58	0	882900992	44	3791
2026-01-03 06:13:11.39	270.34	42.06	-41.1	-41.6	20.6	0.00e+00	0	58	0	889192448	44	3888
2026-01-03 06:13:12.38	269.98	41.88	-41.2	-41.7	20.4	0.00e+00	0	58	0	896532480	44	3956
2026-01-03 06:13:13.37	269.62	41.69	-41.3	-41.8	20.3	0.00e+00	0	58	0	903872512	44	3970
2026-01-03 06:13:14.36	269.27	41.51	-41.2	-41.7	20.5	0.00e+00	0	58	0	911212544	44	3944
2026-01-03 06:13:15.35	268.92	41.32	-41.3	-41.8	20.3	0.00e+00	0	58	0	918552576	44	4004
2026-01-03 06:13:16.34	268.57	41.14	-41.3	-41.8	20.3	0.00e+00	0	58	0	925892608	44	4001
2026-01-03 06:13:17.33	268.23	40.95	-41.3	-41.8	20.3	0.00e+00	0	58	0	932184064	44	3998
2026-01-03 06:13:18.33	267.89	40.76	-41.2	-41.7	20.5	0.00e+00	0	58	0	939524096	44	3916
2026-01-03 06:13:19.31	267.56	40.58	-41.0	-41.5	20.6	0.00e+00	0	57	0	946864128	44	3860
2026-01-03 06:13:20.31	267.23	40.39	-41.1	-41.6	20.6	0.00e+00	0	58	0	954204160	44	3890
2026-01-03 06:13:21.29	266.90	40.20	-41.2	-41.7	20.4	0.00e+00	0	58	0	961544192	44	3952
2026-01-03 06:13:22.29	266.58	40.02	-41.1	-41.6	20.5	0.00e+00	0	58	0	968884224	44	3879
2026-01-03 06:13:23.28	266.26	39.83	-41.1	-41.6	20.5	0.00e+00	0	58	0	975175680	44	3886
2026-01-03 06:13:24.27	265.94	39.64	-41.3	-41.9	19.9	0.00e+00	0	58	0	982515712	44	4017
2026-01-03 06:13:25.26	265.63	39.46	-41.2	-41.7	20.5	0.00e+00	0	57	0	989855744	44	3922
2026-01-03 06:13:26.24	265.33	39.27	-40.9	-41.4	20.7	0.00e+00	0	58	0	997195776	44	3806
2026-01-03 06:13:27.23	265.02	39.08	-41.0	-41.4	20.7	0.00e+00	0	58	0	1004535808	44	3819
2026-01-03 06:13:28.22	264.72	38.90	-41.1	-41.6	20.6	0.00e+00	0	58	0	1010827264	44	3884
2026-01-03 06:13:29.20	264.43	38.71	-41.5	-42.0	20.1	0.00e+00	0	57	0	1018167296	44	4067
2026-01-03 06:13:30.18	264.14	38.53	-41.3	-41.8	20.4	0.00e+00	0	58	0	1025507328	44	3965
2026-01-03 06:13:31.16	263.85	38.34	-41.2	-41.7	20.5	0.00e+00	0	58	0	1032847360	44	3937
2026-01-03 06:13:32.15	263.56	38.16	-41.4	-41.9	20.2	0.00e+00	0	58	0	1039138816	44	4039
2026-01-03 06:13:33.15	263.27	37.97	-41.7	-42.3	19.9	0.00e+00	0	58	0	1046478848	45	3967
2026-01-03 06:13:34.13	263.00	37.79	-41.4	-41.9	20.2	0.00e+00	0	58	0	1053818880	45	3812
2026-01-03 06:13:35.12	262.72	37.60	-41.2	-41.7	20.3	0.00e+00	0	58	0	1061158912	45	3697
2026-01-03 06:13:36.11	262.44	37.41	-41.1	-41.6	20.5	0.00e+00	0	58	0	1067450368	45	3674
2026-01-03 06:13:37.10	262.17	37.23	-41.0	-41.4	20.6	0.00e+00	0	58	0	1074790400	45	3609
2026-01-03 06:13:38.10	261.90	37.04	-40.9	-41.4	20.8	0.00e+00	0	58	0	1082130432	44	3781
2026-01-03 06:13:39.08	261.64	36.86	-41.0	-41.5	20.7	0.00e+00	0	58	0	1089470464	44	3832
2026-01-03 06:13:40.08	261.37	36.68	-41.2	-41.7	20.4	0.00e+00	0	58	0	1096810496	44	3956
2026-01-03 06:13:41.06	261.12	36.49	-41.0	-41.5	20.6	0.00e+00	0	58	0	1104150528	44	3857
2026-01-03 06:13:42.05	260.86	36.31	-41.3	-41.9	20.2	0.00e+00	0	58	0	1110441984	44	4008
2026-01-03 06:13:43.04	260.61	36.13	-41.1	-41.6	20.6	0.00e+00	0	58	0	1117782016	44	3870
2026-01-03 06:13:44.03	260.36	35.94	-40.8	-41.3	20.8	0.00e+00	0	58	0	1125122048	44	3762
2026-01-03 06:13:45.01	260.11	35.76	-40.6	-41.1	20.4	0.00e+00	0	58	0	1132462080	44	3654
2026-01-03 06:13:46.01	259.86	35.58	-40.7	-41.2	20.9	0.00e+00	0	58	0	1139802112	44	3716
2026-01-03 06:13:46.99	259.62	35.40	-40.7	-41.2	20.9	0.00e+00	0	58	0	1147142144	44	3712
2026-01-03 06:13:47.98	259.38	35.22	-40.9	-41.4	20.7	0.00e+00	0	58	0	1153433600	44	3787
2026-01-03 06:13:48.97	259.15	35.04	-40.9	-41.4	20.7	0.00e+00	0	57	0	1160773632	44	3812
2026-01-03 06:13:49.96	258.91	34.86	-41.0	-41.5	20.6	0.00e+00	0	58	0	1168113664	44	3844
2026-01-03 06:13:50.95	258.68	34.68	-40.8	-41.2	20.9	0.00e+00	0	58	0	1175453696	44	3731
2026-01-03 06:13:51.94	258.45	34.50	-40.5	-41.0	21.1	0.00e+00	0	58	0	1182793728	44	3621
2026-01-03 06:13:52.93	258.22	34.32	-40.4	-40.8	21.2	0.00e+00	0	58	0	1190133760	43	3759
2026-01-03 06:13:53.92	258.00	34.15	-40.5	-41.0	21.0	0.00e+00	0	58	0	1196425216	43	3842
2026-01-03 06:13:54.91	257.78	33.97	-40.4	-40.8	21.0	0.00e+00	0	58	0	1203765248	43	3776
2026-01-03 06:13:55.90	257.56	33.79	-40.4	-40.8	21.1	0.00e+00	0	58	0	1211105280	43	3777
2026-01-03 06:13:56.90	257.34	33.61	-40.7	-41.1	20.9	0.00e+00	0	58	0	1218445312	43	3902
2026-01-03 06:13:57.89	257.12	33.44	-40.9	-41.4	20.6	0.00e+00	0	58	0	1225785344	43	4006
2026-01-03 06:13:58.88	256.91	33.26	-41.0	-41.5	20.5	0.00e+00	0	58	0	1232076800	43	4072
2026-01-03 06:13:59.87	256.70	33.09	-41.0	-41.5	20.5	0.00e+00	0	58	0	1239416832	43	4052
2026-01-03 06:14:00.85	256.50	32.92	-41.0	-41.5	20.4	0.00e+00	0	58	0	1246756864	43	4066
2026-01-03 06:14:01.85	256.29	32.74	-40.9	-41.4	20.6	0.00e+00	0	58	0	1254096896	43	4006
2026-01-03 06:14:02.84	256.09	32.57	-40.8	-41.3	20.7	0.00e+00	0	58	0	1261436928	43	3979
2026-01-03 06:14:03.84	255.88	32.39	-40.9	-41.4	20.6	0.00e+00	0	58	0	1268776960	43	4008
2026-01-03 06:14:04.83	255.68	32.22	-40.8	-41.2	20.7	0.00e+00	0	58	0	1275068416	43	3945
2026-01-03 06:14:05.82	255.49	32.05	-40.7	-41.1	20.8	0.00e+00	0	58	0	1282408448	43	3900
2026-01-03 06:14:06.80	255.29	31.88	-40.7	-41.2	20.8	0.00e+00	0	58	0	1289748480	43	3929
2026-01-03 06:14:07.79	255.10	31.71	-40.7	-41.1	20.8	0.00e+00	0	58	0	1297088512	43	3907
2026-01-03 06:14:08.78	254.91	31.54	-40.9	-41.4	20.6	0.00e+00	0	58	0	1304428544	43	4005
2026-01-03 06:14:09.78	254.72	31.37	-40.9	-41.4	20.6	0.00e+00	0	58	0	1310720000	43	4013
2026-01-03 06:14:10.76	254.54	31.21	-40.8	-41.3	20.7	0.00e+00	0	58	0	1318060032	43	3962
2026-01-03 06:14:11.76	254.35	31.04	-40.9	-41.3	20.6	0.00e+00	0	58	0	1325400064	43	3997
2026-01-03 06:14:12.74	254.17	30.87	-40.8	-41.3	20.7	0.00e+00	0	58	0	1332740096	43	3986
2026-01-03 06:14:13.73	253.99	30.71	-40.7	-41.2	20.7	0.00e+00	0	58	0	1340080128	43	3939
2026-01-03 06:14:14.72	253.81	30.54	-40.6	-41.1	20.9	0.00e+00	0	58	0	1347420160	43	3891
2026-01-03 06:14:15.71	253.63	30.37	-40.5	-41.0	20.8	0.00e+00	0	58	0	1353711616	43	3843
2026-01-03 06:14:16.70	253.46	30.21	-40.5	-41.0	20.9	0.00e+00	0	58	0	1361051648	43	3849
2026-01-03 06:14:17.69	253.28	30.05	-40.8	-41.2	20.7	0.00e+00	0	58	0	1368391680	43	3944
2026-01-03 06:14:18.68	253.11	29.88	-40.6	-41.1	20.9	0.00e+00	0	58	0	1375731712	43	3893
2026-01-03 06:14:19.67	252.94	29.72	-40.5	-41.0	20.9	0.00e+00	0	58	0	1383071744	43	3829
2026-01-03 06:14:20.66	252.77	29.56	-40.6	-41.1	20.9	0.00e+00	0	58	0	1389363200	43	3881
2026-01-03 06:14:21.65	252.61	29.40	-40.9	-41.4	20.6	0.00e+00	0	58	0	1396703232	43	4012
2026-01-03 06:14:22.64	252.44	29.24	-40.9	-41.3	20.6	0.00e+00	0	58	0	1404043264	43	3999
2026-01-03 06:14:23.63	252.28	29.08	-40.8	-41.3	20.6	0.00e+00	0	58	0	1411383296	43	3992
2026-01-03 06:14:24.62	252.12	28.92	-40.9	-41.4	20.5	0.00e+00	0	58	0	1418723328	43	4039
2026-01-03 06:14:25.61	251.96	28.76	-41.0	-41.5	20.5	0.00e+00	0	58	0	1425014784	43	4067
2026-01-03 06:14:26.60	251.80	28.60	-41.0	-41.5	20.3	0.00e+00	0	58	0	1432354816	43	4080
2026-01-03 06:14:27.58	251.64	28.45	-41.4	-41.9	20.2	0.00e+00	0	58	0	1439694848	44	4024
2026-01-03 06:14:28.57	251.49	28.29	-41.4	-41.9	20.2	0.00e+00	0	58	0	1447034880	44	4038
2026-01-03 06:14:29.56	251.33	28.13	-41.5	-42.0	20.1	0.00e+00	0	58	0	1453326336	44	4072
2026-01-03 06:14:30.53	251.19	27.98	-41.5	-42.1	20.0	0.00e+00	0	58	0	1460666368	45	3881
2026-01-03 06:14:31.51	251.04	27.83	-41.3	-41.8	20.3	0.00e+00	0	58	0	1468006400	45	3768
2026-01-03 06:14:32.50	250.89	27.67	-41.2	-41.7	20.4	0.00e+00	0	58	0	1475346432	45	3720
2026-01-03 06:14:33.50	250.74	27.52	-41.2	-41.7	20.4	0.00e+00	0	58	0	1482686464	45	3724
2026-01-03 06:14:34.49	250.59	27.37	-41.3	-41.8	20.3	0.00e+00	0	58	0	1490026496	45	3750
2026-01-03 06:14:35.48	250.45	27.21	-41.3	-41.8	20.3	0.00e+00	0	58	0	1496317952	45	3754
2026-01-03 06:14:36.48	250.30	27.06	-41.2	-41.7	20.3	0.00e+00	0	58	0	1503657984	45	3732
2026-01-03 06:14:37.47	250.16	26.91	-41.3	-41.8	20.3	0.00e+00	0	58	0	1510998016	45	3750
2026-01-03 06:14:38.46	250.02	26.76	-41.4	-41.9	20.1	0.00e+00	0	58	0	1518338048	45	3823
2026-01-03 06:14:39.45	249.88	26.61	-41.5	-42.0	20.1	0.00e+00	0	58	0	1525678080	45	3839
2026-01-03 06:14:40.44	249.74	26.46	-41.5	-42.0	20.1	0.00e+00	0	58	0	1531969536	45	3850
2026-01-03 06:14:41.43	249.60	26.31	-41.7	-42.2	19.9	0.00e+00	0	58	0	1539309568	45	3946
2026-01-03 06:14:42.42	249.47	26.16	-41.7	-42.3	19.8	0.00e+00	0	58	0	1546649600	45	3975
2026-01-03 06:14:43.41	249.33	26.02	-41.4	-42.0	20.1	0.00e+00	0	58	0	1553989632	45	3831
2026-01-03 06:14:44.41	249.20	25.87	-41.3	-41.8	20.3	0.00e+00	0	58	0	1561329664	45	3756
2026-01-03 06:14:45.40	249.07	25.72	-41.3	-41.8	20.2	0.00e+00	0	58	0	1568669696	45	3747
2026-01-03 06:14:46.39	248.94	25.58	-41.3	-41.7	20.3	0.00e+00	0	58	0	1574961152	45	3731
2026-01-03 06:14:47.38	248.81	25.43	-41.2	-41.7	20.3	0.00e+00	0	58	0	1582301184	45	3711
2026-01-03 06:14:48.36	248.68	25.29	-41.2	-41.7	20.3	0.00e+00	0	58	0	1589641216	45	3714
2026-01-03 06:14:49.35	248.55	25.15	-41.3	-41.8	20.2	0.00e+00	0	58	0	1596981248	45	3776
2026-01-03 06:14:50.33	248.43	25.01	-41.4	-42.0	20.1	0.00e+00	0	58	0	1604321280	45	3830
2026-01-03 06:14:51.32	248.31	24.86	-41.3	-41.8	20.3	0.00e+00	0	58	0	1611661312	45	3754
2026-01-03 06:14:52.31	248.18	24.72	-41.2	-41.7	20.3	0.00e+00	0	58	0	1617952768	45	3725
2026-01-03 06:14:53.30	248.06	24.58	-41.3	-41.8	20.3	0.00e+00	0	58	0	1625292800	45	3740
2026-01-03 06:14:54.29	247.94	24.44	-41.4	-41.9	20.2	0.00e+00	0	58	0	1632632832	45	3800
2026-01-03 06:14:55.27	247.82	24.30	-41.4	-41.9	20.1	0.00e+00	0	58	0	1639972864	45	3806
2026-01-03 06:14:56.26	247.70	24.16	-41.3	-41.9	20.2	0.00e+00	0	58	0	1647312896	45	3782
2026-01-03 06:14:57.25	247.58	24.02	-41.4	-41.9	20.1	0.00e+00	0	58	0	1653604352	45	3792
2026-01-03 06:14:58.24	247.47	23.89	-41.5	-42.0	20.0	0.00e+00	0	58	0	1660944384	45	3866
2026-01-03 06:14:59.23	247.35	23.75	-41.6	-42.2	19.9	0.00e+00	0	58	0	1668284416	45	3917
2026-01-03 06:15:00.22	247.23	23.61	-41.3	-41.9	20.2	0.00e+00	0	58	0	1675624448	45	3784
2026-01-03 06:15:01.21	247.12	23.48	-41.1	-41.6	20.4	0.00e+00	0	58	0	1682964480	45	3687
2026-01-03 06:15:02.20	247.01	23.34	-41.1	-41.6	20.4	0.00e+00	0	58	0	1690304512	45	3675
2026-01-03 06:15:03.20	246.90	23.20	-41.1	-41.6	20.4	0.00e+00	0	58	0	1696595968	45	3676
2026-01-03 06:15:04.18	246.79	23.07	-41.1	-41.6	20.4	0.00e+00	0	58	0	1703936000	45	3668
2026-01-03 06:15:05.18	246.67	22.94	-41.3	-41.8	20.3	0.00e+00	0	58	0	1711276032	45	3749
2026-01-03 06:15:06.16	246.57	22.80	-41.1	-41.6	20.4	0.00e+00	0	58	0	1718616064	45	3662
2026-01-03 06:15:07.15	246.46	22.67	-41.2	-41.6	20.4	0.00e+00	0	58	0	1725956096	45	3689
2026-01-03 06:15:08.15	246.35	22.54	-41.3	-41.8	20.2	0.00e+00	0	58	0	1733296128	45	3766
2026-01-03 06:15:09.13	246.25	22.41	-41.4	-41.9	20.2	0.00e+00	0	58	0	1739587584	45	3783
2026-01-03 06:15:10.12	246.14	22.28	-41.6	-42.1	19.9	0.00e+00	0	58	0	1746927616	45	3890
2026-01-03 06:15:11.11	246.04	22.15	-41.8	-42.3	19.7	0.00e+00	0	58	0	1754267648	45	3999
2026-01-03 06:15:12.10	245.93	22.02	-41.9	-42.4	19.6	0.00e+00	0	58	0	1760559104	45	4041
2026-01-03 06:15:13.08	245.83	21.89	-42.1	-42.7	19.4	0.00e+00	0	58	0	1767899136	45	4154
2026-01-03 06:15:14.07	245.73	21.76	-42.1	-42.7	19.3	0.00e+00	0	58	0	1775239168	45	4181
2026-01-03 06:15:15.06	245.63	21.63	-42.3	-42.9	19.2	0.00e+00	0	58	0	1782579200	46	4021
2026-01-03 06:15:16.05	245.53	21.50	-42.3	-42.9	19.2	0.00e+00	0	58	0	1789919232	46	4042
2026-01-03 06:15:17.04	245.43	21.38	-42.4	-43.0	19.0	0.00e+00	0	58	0	1796210688	46	4097
2026-01-03 06:15:18.04	245.33	21.25	-42.2	-42.8	19.3	0.00e+00	0	58	0	1803550720	46	3989
2026-01-03 06:15:19.02	245.23	21.12	-42.0	-42.6	19.4	0.00e+00	0	58	0	1810890752	46	3891
2026-01-03 06:15:20.00	245.14	21.00	-42.0	-42.5	19.5	0.00e+00	0	58	0	1818230784	46	3863
2026-01-03 06:15:20.98	245.04	20.88	-42.0	-42.5	19.5	0.00e+00	0	58	0	1825570816	46	3860
2026-01-03 06:15:21.98	244.95	20.75	-41.8	-42.4	19.7	0.00e+00	0	58	0	1832910848	46	3790
2026-01-03 06:15:22.97	244.85	20.63	-41.8	-42.4	19.7	0.00e+00	0	58	0	1839202304	46	3781
2026-01-03 06:15:23.96	244.76	20.50	-41.9	-42.4	19.6	0.00e+00	0	58	0	1846542336	46	3819
2026-01-03 06:15:24.95	244.67	20.38	-41.7	-42.3	19.8	0.00e+00	0	58	0	1853882368	46	3740
2026-01-03 06:15:25.93	244.58	20.26	-41.7	-42.2	19.8	0.00e+00	0	58	0	1861222400	46	3713
2026-01-03 06:15:26.92	244.49	20.14	-41.7	-42.2	19.8	0.00e+00	0	58	0	1868562432	46	3702
2026-01-03 06:15:27.90	244.40	20.02	-41.8	-42.3	19.7	0.00e+00	0	58	0	1874853888	46	3779
2026-01-03 06:15:28.89	244.31	19.90	-42.1	-42.7	19.3	0.00e+00	0	58	0	1882193920	46	3944
2026-01-03 06:15:29.87	244.22	19.78	-42.3	-42.9	19.1	0.00e+00	0	58	0	1889533952	46	4026
2026-01-03 06:15:30.85	244.13	19.66	-42.3	-42.9	19.1	0.00e+00	0	58	0	1896873984	46	4041
2026-01-03 06:15:31.85	244.04	19.54	-42.4	-43.0	19.0	0.00e+00	0	58	0	1903165440	46	4070
2026-01-03 06:15:32.83	243.96	19.42	-42.5	-43.1	18.9	0.00e+00	0	58	0	1910505472	46	4132
2026-01-03 06:15:33.82	243.87	19.30	-42.8	-43.4	18.6	0.00e+00	0	58	0	1917845504	47	4028
2026-01-03 06:15:34.81	243.78	19.18	-42.8	-43.4	18.6	0.00e+00	0	58	0	1925185536	47	4026
2026-01-03 06:15:35.79	243.70	19.07	-43.0	-43.6	18.4	0.00e+00	0	58	0	1932525568	47	4138
2026-01-03 06:15:36.78	243.62	18.95	-42.8	-43.5	18.6	0.00e+00	0	58	0	1938817024	47	4062
2026-01-03 06:15:37.76	243.53	18.84	-43.4	-44.0	18.2	0.00e+00	0	58	0	1946157056	48	4090
2026-01-03 06:15:38.75	243.45	18.72	-43.2	-43.8	18.4	0.00e+00	0	58	0	1953497088	48	4002
2026-01-03 06:15:39.73	243.37	18.61	-42.9	-43.5	18.7	0.00e+00	0	58	0	1960837120	48	3849
2026-01-03 06:15:40.72	243.29	18.49	-42.8	-43.4	18.9	0.00e+00	0	58	0	1968177152	48	3784
2026-01-03 06:15:41.71	243.21	18.38	-42.7	-43.3	18.9	0.00e+00	0	58	0	1974468608	48	3748
2026-01-03 06:15:42.71	243.13	18.26	-42.7	-43.3	18.9	0.00e+00	0	58	0	1981808640	48	3761
2026-01-03 06:15:43.69	243.05	18.15	-42.7	-43.3	19.0	0.00e+00	0	58	0	1989148672	48	3754
2026-01-03 06:15:44.68	242.97	18.04	-42.7	-43.3	19.0	0.00e+00	0	58	0	1996488704	48	3751
2026-01-03 06:15:45.66	242.89	17.92	-42.7	-43.3	18.9	0.00e+00	0	58	0	2003828736	48	3776
2026-01-03 06:15:46.65	242.81	17.81	-42.7	-43.3	18.9	0.00e+00	0	58	0	2011168768	48	3767
2026-01-03 06:15:47.65	242.73	17.70	-42.7	-43.3	18.9	0.00e+00	0	58	0	2017460224	48	3769
2026-01-03 06:15:48.64	242.66	17.59	-42.8	-43.4	18.8	0.00e+00	0	58	0	2024800256	48	3792
2026-01-03 06:15:49.63	242.58	17.48	-42.8	-43.4	18.8	0.00e+00	0	58	0	2032140288	48	3794
2026-01-03 06:15:50.63	242.51	17.37	-42.8	-43.4	18.8	0.00e+00	0	58	0	2039480320	48	3809
2026-01-03 06:15:51.61	242.43	17.26	-42.8	-43.4	18.8	0.00e+00	0	58	0	2046820352	48	3813
2026-01-03 06:15:52.61	242.36	17.15	-43.1	-43.7	18.5	0.00e+00	0	58	0	2054160384	48	3928
2026-01-03 06:15:53.60	242.28	17.04	-43.0	-43.7	18.6	0.00e+00	0	58	0	2060451840	48	3924
2026-01-03 06:15:54.60	242.21	16.93	-42.8	-43.4	18.8	0.00e+00	0	58	0	2067791872	48	3803
2026-01-03 06:15:55.58	242.14	16.82	-42.8	-43.4	18.7	0.00e+00	0	58	0	2075131904	48	3824
2026-01-03 06:15:56.56	242.07	16.71	-43.0	-43.6	18.6	0.00e+00	0	58	0	2082471936	48	3887
2026-01-03 06:15:57.56	241.99	16.61	-42.9	-43.5	18.7	0.00e+00	0	58	0	2089811968	48	3866
2026-01-03 06:15:58.55	241.92	16.50	-42.8	-43.4	18.8	0.00e+00	0	58	0	2096103424	48	3816
2026-01-03 06:15:59.54	241.85	16.39	-42.8	-43.4	18.8	0.00e+00	0	58	0	2103443456	48	3818
2026-01-03 06:16:00.53	241.78	16.29	-43.0	-43.6	18.6	0.00e+00	0	58	0	2110783488	48	3886
2026-01-03 06:16:01.52	241.71	16.18	-43.0	-43.6	18.6	0.00e+00	0	58	0	2118123520	48	3896
2026-01-03 06:16:02.51	241.64	16.08	-43.0	-43.6	18.6	0.00e+00	0	58	0	2125463552	48	3912
2026-01-03 06:16:03.51	241.57	15.97	-43.1	-43.7	18.5	0.00e+00	0	58	0	2132803584	48	3929
2026-01-03 06:16:04.50	241.51	15.87	-42.9	-43.5	18.6	0.00e+00	0	58	0	2139095040	48	3861
2026-01-03 06:16:05.49	241.44	15.76	-42.8	-43.4	18.8	0.00e+00	0	58	0	2146435072	48	3799
2026-01-03 06:16:06.48	241.37	15.66	-42.8	-43.4	18.7	0.00e+00	0	58	0	2153775104	48	3823
2026-01-03 06:16:07.47	241.30	15.55	-43.0	-43.6	18.6	0.00e+00	0	58	0	2161115136	48	3891
2026-01-03 06:16:08.46	241.24	15.45	-43.2	-43.8	18.3	0.00e+00	0	58	0	2168455168	48	4000
2026-01-03 06:16:09.45	241.17	15.35	-43.2	-43.9	18.3	0.00e+00	0	58	0	2174746624	48	4027
2026-01-03 06:16:10.43	241.11	15.25	-43.3	-44.0	18.2	0.00e+00	0	58	0	2182086656	48	4058
2026-01-03 06:16:11.42	241.04	15.15	-43.5	-44.2	18.0	0.00e+00	0	58	0	2189426688	48	4160
2026-01-03 06:16:12.42	240.98	15.04	-43.6	-44.3	17.9	0.00e+00	0	58	0	2196766720	48	4199
2026-01-03 06:16:13.40	240.92	14.94	-43.4	-44.1	18.1	0.00e+00	0	58	0	2204106752	48	4119
2026-01-03 06:16:14.40	240.85	14.84	-43.4	-44.1	18.0	0.00e+00	0	58	0	2210398208	48	4133
2026-01-03 06:16:15.38	240.79	14.74	-43.6	-44.2	17.9	0.00e+00	0	58	0	2217738240	48	4190
2026-01-03 06:16:16.37	240.73	14.64	-43.5	-44.2	18.0	0.00e+00	0	58	0	2225078272	48	4165
2026-01-03 06:16:17.36	240.67	14.54	-43.8	-44.5	17.7	0.00e+00	0	58	0	2232418304	49	4076
2026-01-03 06:16:18.35	240.60	14.45	-44.0	-44.7	17.4	0.00e+00	0	58	0	2239758336	49	4192
2026-01-03 06:16:19.34	240.54	14.35	-43.7	-44.5	17.7	0.00e+00	0	58	0	2246049792	49	4053
2026-01-03 06:16:20.33	240.48	14.25	-43.6	-44.3	17.8	0.00e+00	0	58	0	2253389824	49	3969
2026-01-03 06:16:21.32	240.42	14.15	-43.5	-44.2	17.9	0.00e+00	0	58	0	2260729856	49	3939
2026-01-03 06:16:22.31	240.36	14.05	-43.5	-44.2	17.9	0.00e+00	0	58	0	2268069888	49	3951
2026-01-03 06:16:23.30	240.30	13.96	-43.6	-44.4	17.7	0.00e+00	0	58	0	2275409920	49	4007
2026-01-03 06:16:24.29	240.24	13.86	-43.5	-44.2	17.9	0.00e+00	0	58	0	2281701376	49	3934
2026-01-03 06:16:25.28	240.18	13.76	-43.6	-44.3	17.8	0.00e+00	0	58	0	2289041408	49	3982
2026-01-03 06:16:26.26	240.13	13.67	-43.6	-44.4	17.7	0.00e+00	0	58	0	2296381440	49	4014
2026-01-03 06:16:27.26	240.07	13.57	-43.6	-44.3	17.7	0.00e+00	0	58	0	2303721472	49	3984
2026-01-03 06:16:28.25	240.01	13.47	-43.8	-44.5	17.6	0.00e+00	0	58	0	2311061504	49	4089
2026-01-03 06:16:29.24	239.95	13.38	-43.9	-44.6	17.5	0.00e+00	0	58	0	2317352960	49	4129
2026-01-03 06:16:30.22	239.90	13.29	-44.0	-44.7	17.3	0.00e+00	0	58	0	2324692992	49	4175
2026-01-03 06:16:31.21	239.84	13.19	-44.0	-44.8	17.3	0.00e+00	0	58	0	2332033024	49	4195
2026-01-03 06:16:32.20	239.79	13.10	-44.0	-44.8	17.3	0.00e+00	0	58	0	2339373056	49	4207
2026-01-03 06:16:33.20	239.73	13.00	-44.1	-44.9	17.1	0.00e+00	0	58	0	2346713088	49	4268
2026-01-03 06:16:34.18	239.68	12.91	-44.2	-45.0	17.0	0.00e+00	0	58	0	2354053120	50	4079
2026-01-03 06:16:35.17	239.62	12.82	-44.3	-45.0	17.0	0.00e+00	0	58	0	2360344576	50	4097
2026-01-03 06:16:36.16	239.57	12.72	-44.4	-45.2	16.8	0.00e+00	0	58	0	2367684608	50	4171
2026-01-03 06:16:37.15	239.51	12.63	-44.7	-45.6	16.5	0.00e+00	0	58	0	2375024640	51	4108
2026-01-03 06:16:38.14	239.46	12.54	-44.5	-45.3	16.7	0.00e+00	0	58	0	2382364672	51	3984
2026-01-03 06:16:39.13	239.40	12.45	-44.3	-45.2	16.9	0.00e+00	0	58	0	2389704704	51	3915
2026-01-03 06:16:40.11	239.35	12.36	-44.2	-45.0	17.0	0.00e+00	0	58	0	2397044736	51	3868
2026-01-03 06:16:41.10	239.30	12.27	-44.2	-45.1	16.9	0.00e+00	0	58	0	2403336192	51	3873
2026-01-03 06:16:42.10	239.25	12.17	-44.3	-45.2	16.9	0.00e+00	0	58	0	2410676224	51	3915
2026-01-03 06:16:43.08	239.20	12.08	-44.4	-45.2	16.8	0.00e+00	0	58	0	2418016256	51	3936
2026-01-03 06:16:44.07	239.14	11.99	-44.4	-45.3	16.7	0.00e+00	0	58	0	2425356288	51	3969
2026-01-03 06:16:45.05	239.09	11.90	-44.6	-45.4	16.6	0.00e+00	0	58	0	2432696320	51	4036
2026-01-03 06:16:46.05	239.04	11.81	-44.8	-45.6	16.3	0.00e+00	0	58	0	2438987776	51	4145
2026-01-03 06:16:47.04	238.99	11.72	-44.6	-45.5	16.5	0.00e+00	0	58	0	2446327808	51	4071
2026-01-03 06:16:48.03	238.94	11.64	-44.9	-45.8	16.1	0.00e+00	0	58	0	2453667840	51	4199
2026-01-03 06:16:49.02	238.89	11.55	-44.7	-45.6	16.4	0.00e+00	0	58	0	2461007872	51	4107
2026-01-03 06:16:50.01	238.84	11.46	-44.8	-45.7	16.2	0.00e+00	0	58	0	2468347904	51	4181
2026-01-03 06:16:50.99	238.79	11.37	-44.7	-45.6	16.3	0.00e+00	0	58	0	2474639360	51	4139
2026-01-03 06:16:51.98	238.74	11.28	-44.7	-45.6	16.3	0.00e+00	0	58	0	2481979392	51	4130
2026-01-03 06:16:52.97	238.69	11.20	-44.8	-45.7	16.2	0.00e+00	0	58	0	2489319424	51	4161
2026-01-03 06:16:53.96	238.65	11.11	-44.8	-45.7	16.2	0.00e+00	0	58	0	2496659456	51	4170
2026-01-03 06:16:54.94	238.60	11.02	-44.8	-45.7	16.2	0.00e+00	0	58	0	2502950912	51	4186
2026-01-03 06:16:55.93	238.55	10.94	-44.8	-45.8	16.1	0.00e+00	0	58	0	2510290944	51	4196
2026-01-03 06:16:56.92	238.50	10.85	-44.9	-45.8	16.1	0.00e+00	0	58	0	2517630976	51	4213
2026-01-03 06:16:57.92	238.45	10.76	-44.9	-45.8	16.0	0.00e+00	0	58	0	2524971008	51	4233
2026-01-03 06:16:58.91	238.41	10.68	-45.0	-46.0	15.8	0.00e+00	0	58	0	2532311040	51	4309
2026-01-03 06:16:59.90	238.36	10.59	-45.0	-45.9	15.9	0.00e+00	0	58	0	2538602496	51	4270
2026-01-03 06:17:00.88	238.32	10.51	-45.1	-46.0	15.8	0.00e+00	0	58	0	2545942528	51	4333
2026-01-03 06:17:01.87	238.27	10.42	-45.2	-46.1	15.6	0.00e+00	0	58	0	2553282560	52	4142
2026-01-03 06:17:02.86	238.22	10.34	-45.3	-46.3	15.4	0.00e+00	0	58	0	2560622592	52	4241
2026-01-03 06:17:03.84	238.18	10.25	-45.3	-46.3	15.4	0.00e+00	0	58	0	2567962624	52	4205
2026-01-03 06:17:04.83	238.13	10.17	-45.4	-46.4	15.3	0.00e+00	0	58	0	2575302656	52	4276
2026-01-03 06:17:05.83	238.09	10.08	-45.3	-46.3	15.3	0.00e+00	0	58	0	2581594112	52	4240
2026-01-03 06:17:06.81	238.04	10.00	-45.2	-46.2	15.4	0.00e+00	0	58	0	2588934144	52	4189
2026-01-03 06:17:07.80	238.00	9.92	-45.4	-46.4	15.3	0.00e+00	0	58	0	2596274176	52	4262
2026-01-03 06:17:08.79	237.95	9.83	-45.3	-46.4	15.3	0.00e+00	0	58	0	2603614208	52	4253
2026-01-03 06:17:09.78	237.91	9.75	-45.4	-46.4	15.3	0.00e+00	0	58	0	2610954240	52	4271
2026-01-03 06:17:10.76	237.87	9.67	-45.5	-46.6	15.0	0.00e+00	0	58	0	2618294272	52	4388
2026-01-03 06:17:11.75	237.82	9.59	-45.5	-46.6	15.1	0.00e+00	0	58	0	2624585728	52	4363
2026-01-03 06:17:12.74	237.78	9.51	-45.5	-46.5	15.1	0.00e+00	0	58	0	2631925760	52	4332
2026-01-03 06:17:13.72	237.74	9.42	-45.5	-46.6	15.1	0.00e+00	0	58	0	2639265792	52	4341
2026-01-03 06:17:14.71	237.70	9.34	-45.6	-46.7	14.9	0.00e+00	0	58	0	2646605824	52	4420
2026-01-03 06:17:15.70	237.65	9.26	-45.6	-46.7	14.9	0.00e+00	0	58	0	2652897280	53	4182
2026-01-03 06:17:16.69	237.61	9.18	-45.7	-46.8	14.8	1.10e-06	0	58	0	2660237312	53	4239
2026-01-03 06:17:17.67	237.57	9.10	-45.7	-46.8	14.8	0.00e+00	0	58	0	2667577344	53	4224
2026-01-03 06:17:18.66	237.53	9.02	-45.6	-46.7	14.8	0.00e+00	0	58	0	2674917376	53	4188
2026-01-03 06:17:19.64	237.49	8.94	-45.6	-46.8	14.8	1.10e-06	0	58	0	2681208832	53	4200
2026-01-03 06:17:20.63	237.45	8.86	-45.7	-46.9	14.7	1.10e-06	0	58	0	2688548864	53	4267
2026-01-03 06:17:21.62	237.41	8.78	-45.7	-46.8	14.8	0.00e+00	0	58	0	2695888896	53	4222
2026-01-03 06:17:22.61	237.37	8.70	-45.6	-46.8	14.7	0.00e+00	0	58	0	2703228928	53	4202
2026-01-03 06:17:23.60	237.33	8.62	-45.6	-46.7	14.8	0.00e+00	0	58	0	2710568960	53	4187
2026-01-03 06:17:24.59	237.28	8.54	-45.7	-46.9	14.6	1.10e-06	0	58	0	2717908992	53	4258
2026-01-03 06:17:25.58	237.25	8.46	-45.7	-46.9	14.6	0.00e+00	0	58	0	2724200448	53	4277
2026-01-03 06:17:26.56	237.21	8.38	-45.8	-46.9	14.5	2.20e-06	0	58	0	2731540480	53	4288
2026-01-03 06:17:27.56	237.17	8.31	-46.0	-47.2	14.3	0.00e+00	0	58	0	2738880512	53	4404
2026-01-03 06:17:28.55	237.13	8.23	-46.0	-47.2	14.2	2.20e-06	0	58	0	2746220544	53	4422
2026-01-03 06:17:29.53	237.09	8.15	-45.9	-47.1	14.3	1.10e-06	0	58	0	2753560576	53	4380
2026-01-03 06:17:30.51	237.05	8.07	-45.9	-47.1	14.3	0.00e+00	0	58	0	2759852032	53	4377
2026-01-03 06:17:31.50	237.01	8.00	-46.0	-47.3	14.1	4.50e-06	0	58	0	2767192064	53	4446
2026-01-03 06:17:32.49	236.97	7.92	-46.0	-47.2	14.1	0.00e+00	0	58	0	2774532096	53	4418
2026-01-03 06:17:33.48	236.93	7.84	-46.0	-47.2	14.1	1.10e-06	0	58	0	2781872128	53	4414
2026-01-03 06:17:34.47	236.90	7.76	-46.2	-47.4	13.9	3.40e-06	0	58	0	2789212160	53	4532
2026-01-03 06:17:35.46	236.86	7.69	-46.2	-47.5	13.8	1.02e-05	0	58	0	2796552192	54	4323
2026-01-03 06:17:36.45	236.82	7.61	-46.0	-47.3	14.0	4.50e-06	0	58	0	2802843648	54	4206
2026-01-03 06:17:37.45	236.78	7.53	-45.9	-47.2	14.2	1.10e-06	0	58	0	2810183680	54	4146
2026-01-03 06:17:38.42	236.75	7.46	-46.0	-47.2	14.1	4.50e-06	0	58	0	2817523712	54	4168
2026-01-03 06:17:39.42	236.71	7.38	-46.1	-47.4	13.9	5.70e-06	0	58	0	2824863744	54	4256
2026-01-03 06:17:40.41	236.67	7.31	-46.2	-47.5	13.8	6.80e-06	0	58	0	2832203776	54	4304
2026-01-03 06:17:41.39	236.64	7.23	-46.2	-47.5	13.7	4.50e-06	0	58	0	2838495232	54	4321
2026-01-03 06:17:42.38	236.60	7.16	-46.3	-47.6	13.6	9.10e-06	0	58	0	2845835264	54	4390
2026-01-03 06:17:43.37	236.57	7.08	-46.3	-47.7	13.5	9.10e-06	0	58	0	2853175296	54	4403
2026-01-03 06:17:44.36	236.53	7.01	-46.4	-47.8	13.4	2.05e-05	0	58	0	2860515328	54	4486
2026-01-03 06:17:45.34	236.49	6.93	-46.5	-47.9	13.2	2.74e-05	0	58	0	2866806784	54	4543
2026-01-03 06:17:46.33	236.46	6.86	-46.5	-47.9	13.3	1.48e-05	0	58	0	2874146816	54	4522
2026-01-03 06:17:47.32	236.42	6.78	-46.6	-48.1	13.1	4.23e-05	0	58	0	2881486848	54	4628
2026-01-03 06:17:48.31	236.39	6.71	-46.6	-48.2	13.0	4.11e-05	0	58	0	2888826880	55	4400
2026-01-03 06:17:49.30	236.35	6.64	-46.7	-48.2	12.9	5.14e-05	0	58	0	2896166912	55	4438
2026-01-03 06:17:50.29	236.32	6.56	-46.8	-48.3	12.8	5.60e-05	0	58	0	2902458368	55	4468
2026-01-03 06:17:51.28	236.29	6.49	-46.9	-48.6	12.5	1.10e-04	0	58	0	2909798400	55	4601
2026-01-03 06:17:52.26	236.25	6.42	-46.9	-48.5	12.6	1.34e-04	0	58	0	2917138432	55	4577
2026-01-03 06:17:53.25	236.22	6.34	-47.1	-48.8	12.3	1.72e-04	0	58	0	2924478464	55	4711
2026-01-03 06:17:54.23	236.18	6.27	-47.2	-48.9	12.2	2.35e-04	0	58	0	2931818496	55	4766
2026-01-03 06:17:55.22	236.15	6.20	-47.3	-49.0	12.1	2.83e-04	0	58	0	2939158528	56	4570
2026-01-03 06:17:56.21	236.12	6.13	-47.4	-49.1	12.0	3.66e-04	0	58	0	2945449984	56	4646
2026-01-03 06:17:57.20	236.08	6.06	-47.2	-49.0	12.1	3.02e-04	0	58	0	2952790016	56	4553
2026-01-03 06:17:58.19	236.05	5.98	-47.2	-48.9	12.2	2.56e-04	0	58	0	2960130048	56	4537
2026-01-03 06:17:59.17	236.02	5.91	-47.3	-49.0	12.0	3.00e-04	0	58	0	2967470080	56	4593
2026-01-03 06:18:00.17	235.98	5.84	-47.4	-49.3	11.7	6.32e-04	0	58	0	2974810112	56	4730
2026-01-03 06:18:01.16	235.95	5.77	-47.3	-49.2	11.9	4.53e-04	0	58	0	2981101568	56	4662
2026-01-03 06:18:02.15	235.92	5.70	-47.6	-49.5	11.5	8.59e-04	0	58	0	2988441600	56	4836
2026-01-03 06:18:03.14	235.89	5.63	-47.3	-49.1	11.8	5.14e-04	0	58	0	2995781632	56	4650
2026-01-03 06:18:04.12	235.86	5.56	-47.2	-49.0	12.0	3.84e-04	0	58	0	3003121664	56	4553
2026-01-03 06:18:05.11	235.82	5.49	-47.2	-48.9	12.0	3.00e-04	0	58	0	3010461696	56	4545
2026-01-03 06:18:06.10	235.79	5.41	-47.2	-49.0	12.0	3.43e-04	0	58	0	3016753152	56	4563
2026-01-03 06:18:07.09	235.76	5.34	-47.3	-49.1	11.8	4.87e-04	0	58	0	3024093184	56	4650
2026-01-03 06:18:08.08	235.73	5.27	-47.3	-49.1	11.8	6.23e-04	0	58	0	3031433216	56	4640
2026-01-03 06:18:09.06	235.70	5.20	-47.4	-49.2	11.7	6.98e-04	0	58	0	3038773248	56	4678
2026-01-03 06:18:10.05	235.67	5.13	-47.4	-49.2	11.7	6.35e-04	0	58	0	3045064704	56	4694
2026-01-03 06:18:11.03	235.64	5.07	-49.4	-52.6	8.3	1.11e-03	0	58	0	3052404736	60	5509
2026-01-03 06:18:12.02	235.61	5.00	-52.4	-62.5	3.8	8.46e-01	0	58	104	3053453312	66	12120
2026-01-03 06:18:13.01	235.57	4.93	-52.7	-62.9	3.8	8.46e-01	0	58	104	3053453312	67	12001
2026-01-03 06:18:14.00	235.54	4.86	-52.8	-63.0	3.8	8.47e-01	0	58	104	3053453312	67	12207
2026-01-03 06:18:14.98	235.51	4.79	-52.6	-63.1	3.8	8.46e-01	0	58	104	3053453312	67	12274
2026-01-03 06:18:15.98	235.48	4.72	-51.8	-62.1	3.8	8.46e-01	0	58	104	3053453312	66	11551
2026-01-03 06:18:16.96	235.45	4.65	-53.0	-63.2	3.8	8.46e-01	0	58	104	3053453312	67	12501
2026-01-03 06:18:17.95	235.42	4.58	-52.9	-63.3	3.8	8.46e-01	0	58	104	3053453312	67	12541
2026-01-03 06:18:18.94	235.39	4.52	-53.2	-63.3	3.8	8.48e-01	0	58	104	3053453312	67	12643
2026-01-03 06:18:19.93	235.37	4.45	-53.0	-63.3	3.8	8.46e-01	0	58	104	3053453312	67	12644
2026-01-03 06:18:20.92	235.34	4.38	-53.1	-63.3	3.8	8.46e-01	0	58	104	3053453312	67	12663
2026-01-03 06:18:21.92	235.31	4.31	-53.1	-63.4	3.8	8.46e-01	0	58	104	3053453312	67	12704
2026-01-03 06:18:22.91	235.28	4.24	-53.3	-63.5	3.8	8.46e-01	0	58	104	3053453312	68	12151
2026-01-03 06:18:23.90	235.25	4.18	-53.3	-63.5	3.8	8.46e-01	0	58	104	3053453312	68	12230
2026-01-03 06:18:24.88	235.22	4.11	-53.3	-63.6	3.8	8.45e-01	0	58	104	3053453312	68	12239
2026-01-03 06:18:25.86	235.19	4.04	-53.3	-63.6	3.8	8.46e-01	0	58	104	3053453312	68	12243
2026-01-03 06:18:26.85	235.16	3.98	-53.3	-63.6	3.8	8.48e-01	0	58	104	3053453312	68	12301
2026-01-03 06:18:27.84	235.13	3.91	-53.3	-63.6	3.8	8.47e-01	0	58	104	3053453312	68	12270
2026-01-03 06:18:28.81	235.11	3.84	-53.2	-63.6	3.8	8.46e-01	0	58	104	3053453312	68	12315
2026-01-03 06:18:29.80	235.08	3.78	-53.3	-63.6	3.8	8.46e-01	0	58	104	3053453312	68	12327
2026-01-03 06:18:30.78	235.05	3.71	-53.4	-63.6	3.8	8.45e-01	0	58	104	3053453312	68	12303
2026-01-03 06:18:31.77	235.02	3.64	-53.4	-63.6	3.8	8.46e-01	0	58	104	3053453312	68	12373
2026-01-03 06:18:32.75	235.00	3.58	-53.4	-63.7	3.8	8.46e-01	0	58	104	3053453312	68	12388
2026-01-03 06:18:33.74	234.97	3.51	-53.3	-63.7	3.8	8.47e-01	0	58	104	3053453312	68	12406
2026-01-03 06:18:34.73	234.94	3.45	-53.3	-63.7	3.8	8.46e-01	0	58	104	3053453312	68	12383
2026-01-03 06:18:35.73	234.91	3.38	-53.3	-63.6	3.8	8.46e-01	0	58	104	3053453312	68	12371
2026-01-03 06:18:36.72	234.89	3.32	-53.3	-63.7	3.8	8.46e-01	0	58	104	3053453312	68	12402
2026-01-03 06:18:37.71	234.86	3.25	-53.4	-63.7	3.8	8.45e-01	0	58	104	3053453312	68	12419
2026-01-03 06:18:38.71	234.83	3.18	-53.3	-63.7	3.8	8.45e-01	0	58	104	3053453312	68	12393
2026-01-03 06:18:39.70	234.81	3.12	-53.3	-63.6	3.8	8.46e-01	0	58	104	3053453312	68	12374
2026-01-03 06:18:40.69	234.78	3.05	-53.4	-63.6	3.8	8.46e-01	0	58	104	3053453312	68	12372
2026-01-03 06:18:41.67	234.75	2.99	-53.4	-63.7	3.8	8.46e-01	0	58	104	3053453312	68	12385
2026-01-03 06:18:42.66	234.73	2.93	-53.4	-63.6	3.8	8.45e-01	0	58	104	3053453312	68	12364

#Closed at: 2026-01-03 06:18:43
#Recorded file [3053 MB]: D:/Data/31026_260103_091811.dat