passes_logs/2026/01/03/R3.0SM8_Murmansk_STILSPACE/R3.0SM8_Murmansk_STILSPACE__20260103_033714_NOAA_20_JPSS-1_rec.log

#Pass ID: 20260103_033714_NOAA 20 (JPSS-1)
#Satellite: NOAA 20 (JPSS-1)
#Configuration: NOAA 20
#almurnet v.1.7.20240730
#Start time: 2026-01-03 03:37:14

#Version: 2.2.20231116
#Station: R3.0SM8_Murmansk_STILSPACE
#Location: 33.092731 lon 68.902999 lat
#TLE: 1 43013U 17073A   26002.21975278  .00000202  00000+0  11669-3 0  9999
#TLE: 2 43013  98.7622 303.2950 0001915  57.9213 302.2149 14.19532512420923

#Time	Az	El	Level	Level2	SNR	BER	BlckErr	Temp	State	Recorded	gain1	gain2
2026-01-03 03:37:14.30	42.24	2.98	-53.0	-66.9	3.8	1.49e+00	0	47	0	0	68	18236
2026-01-03 03:37:15.28	42.18	3.04	-52.9	-66.8	3.8	1.49e+00	0	47	104	0	68	18011
2026-01-03 03:37:16.27	42.13	3.10	-52.9	-66.8	3.8	1.49e+00	0	47	104	0	68	17911
2026-01-03 03:37:17.26	42.07	3.16	-52.9	-66.7	3.8	1.49e+00	0	47	104	0	68	17821
2026-01-03 03:37:18.25	42.01	3.22	-52.8	-66.6	3.8	1.49e+00	0	47	104	0	68	17668
2026-01-03 03:37:19.23	41.95	3.28	-52.6	-66.5	3.8	1.49e+00	0	47	104	0	68	17394
2026-01-03 03:37:20.22	41.89	3.34	-52.4	-66.2	3.8	1.49e+00	0	47	104	0	67	17852
2026-01-03 03:37:21.21	41.83	3.40	-52.1	-65.9	3.8	1.49e+00	0	47	104	0	67	17170
2026-01-03 03:37:22.20	41.77	3.46	-52.0	-65.8	3.8	1.49e+00	0	47	104	0	66	17983
2026-01-03 03:37:23.19	41.71	3.52	-51.9	-65.8	3.8	1.49e+00	0	47	104	0	66	17960
2026-01-03 03:37:24.18	41.65	3.58	-52.0	-65.8	3.8	1.49e+00	0	47	104	0	66	17953
2026-01-03 03:37:25.16	41.59	3.64	-51.9	-65.8	3.8	1.49e+00	0	47	104	0	66	17944
2026-01-03 03:37:26.16	41.53	3.70	-51.9	-65.8	3.8	1.49e+00	0	47	104	0	66	17995
2026-01-03 03:37:27.14	41.46	3.76	-51.9	-65.7	3.8	1.49e+00	0	47	104	0	66	17856
2026-01-03 03:37:28.14	41.40	3.82	-52.0	-65.6	3.8	1.49e+00	0	47	104	0	66	17620
2026-01-03 03:37:29.12	41.34	3.88	-52.0	-65.4	3.8	1.49e+00	0	47	104	0	66	17231
2026-01-03 03:37:30.10	41.28	3.94	-52.0	-65.2	3.8	1.49e+00	0	48	104	0	66	16706
2026-01-03 03:37:31.08	41.22	4.01	-51.9	-64.7	3.8	1.49e+00	0	48	104	0	66	15782
2026-01-03 03:37:32.06	41.15	4.07	-51.9	-64.1	3.8	1.49e+00	0	48	104	0	66	14722
2026-01-03 03:37:33.05	41.09	4.13	-51.8	-63.4	3.8	1.49e+00	0	48	104	0	66	13688
2026-01-03 03:37:34.03	41.03	4.19	-51.8	-62.6	4.1	1.44e+00	0	48	0	0	66	12405
2026-01-03 03:37:35.02	40.96	4.25	-51.7	-61.7	4.4	1.36e+00	92	48	0	0	66	11224
2026-01-03 03:37:36.01	40.90	4.31	-51.6	-60.8	4.7	9.76e-01	0	48	0	1048576	66	10141
2026-01-03 03:37:37.00	40.84	4.37	-51.4	-59.8	5.3	7.49e-01	0	48	0	3145728	65	9537
2026-01-03 03:37:37.99	40.77	4.44	-51.2	-58.6	6.1	3.87e-01	0	48	0	5242880	65	8303
2026-01-03 03:37:38.97	40.71	4.50	-51.1	-57.9	6.7	2.38e-01	0	48	0	7340032	65	7632
2026-01-03 03:37:39.97	40.64	4.56	-50.8	-56.9	7.5	1.35e-01	0	48	0	9437184	64	7268
2026-01-03 03:37:40.96	40.58	4.62	-50.6	-56.2	8.3	5.86e-02	0	48	0	10485760	64	6688
2026-01-03 03:37:41.94	40.51	4.68	-50.5	-55.6	9.0	3.48e-02	0	48	0	12582912	63	6574
2026-01-03 03:37:42.93	40.44	4.75	-50.3	-55.1	9.5	1.96e-02	0	48	0	14680064	63	6247
2026-01-03 03:37:43.92	40.38	4.81	-50.3	-54.8	9.8	1.16e-02	0	49	0	16777216	63	6033
2026-01-03 03:37:44.91	40.31	4.87	-50.1	-54.5	10.2	6.46e-03	0	49	0	17825792	63	5811
2026-01-03 03:37:45.90	40.24	4.93	-50.0	-54.2	10.4	4.95e-03	0	49	0	19922944	63	5653
2026-01-03 03:37:46.88	40.18	5.00	-50.1	-54.4	10.3	5.52e-03	0	49	0	22020096	63	5770
2026-01-03 03:37:47.87	40.11	5.06	-50.1	-54.4	10.3	5.66e-03	0	49	0	24117248	63	5764
2026-01-03 03:37:48.86	40.04	5.12	-50.1	-54.3	10.3	4.98e-03	0	49	0	25165824	63	5703
2026-01-03 03:37:49.85	39.97	5.18	-50.1	-54.3	10.4	4.29e-03	0	49	0	27262976	63	5665
2026-01-03 03:37:50.85	39.90	5.25	-50.0	-54.3	10.4	4.21e-03	0	49	0	29360128	63	5719
2026-01-03 03:37:51.84	39.83	5.31	-50.2	-54.6	10.1	5.14e-03	0	49	0	31457280	63	5869
2026-01-03 03:37:52.83	39.77	5.38	-50.1	-54.4	10.3	5.64e-03	0	49	0	33554432	63	5732
2026-01-03 03:37:53.81	39.70	5.44	-50.3	-54.7	10.0	6.23e-03	0	49	0	34603008	63	5983
2026-01-03 03:37:54.80	39.63	5.50	-50.2	-54.5	10.2	7.82e-03	0	49	0	36700160	63	5830
2026-01-03 03:37:55.80	39.56	5.57	-50.0	-54.3	10.5	4.85e-03	0	49	0	38797312	63	5688
2026-01-03 03:37:56.79	39.49	5.63	-50.0	-54.0	10.8	3.06e-03	0	49	0	40894464	63	5483
2026-01-03 03:37:57.78	39.41	5.70	-49.8	-53.8	11.0	2.22e-03	0	49	0	41943040	62	5665
2026-01-03 03:37:58.77	39.34	5.76	-49.8	-53.7	11.0	1.69e-03	0	49	0	44040192	62	5654
2026-01-03 03:37:59.76	39.27	5.82	-49.8	-53.7	11.1	1.51e-03	0	50	0	46137344	62	5640
2026-01-03 03:38:00.76	39.20	5.89	-49.9	-53.7	11.1	1.50e-03	0	49	0	48234496	62	5616
2026-01-03 03:38:01.74	39.13	5.95	-49.8	-53.5	11.3	1.16e-03	0	50	0	49283072	62	5508
2026-01-03 03:38:02.73	39.06	6.02	-49.8	-53.5	11.4	1.16e-03	0	50	0	51380224	62	5468
2026-01-03 03:38:03.71	38.98	6.08	-49.8	-53.4	11.4	9.99e-04	0	50	0	53477376	62	5452
2026-01-03 03:38:04.70	38.91	6.15	-49.7	-53.3	11.6	7.22e-04	0	50	0	55574528	62	5373
2026-01-03 03:38:05.69	38.84	6.21	-49.8	-53.6	11.3	8.92e-04	0	50	0	56623104	62	5547
2026-01-03 03:38:06.68	38.76	6.28	-49.8	-53.6	11.3	1.33e-03	0	50	0	58720256	62	5531
2026-01-03 03:38:07.66	38.69	6.34	-49.9	-53.6	11.3	9.51e-04	0	50	0	60817408	62	5548
2026-01-03 03:38:08.65	38.62	6.41	-49.8	-53.4	11.5	8.83e-04	0	50	0	62914560	62	5445
2026-01-03 03:38:09.64	38.54	6.47	-49.8	-53.4	11.5	7.70e-04	0	50	0	65011712	62	5460
2026-01-03 03:38:10.64	38.46	6.54	-49.9	-53.6	11.3	8.51e-04	0	50	0	66060288	62	5570
2026-01-03 03:38:11.62	38.39	6.60	-49.8	-53.5	11.5	1.00e-03	0	50	0	68157440	62	5473
2026-01-03 03:38:12.62	38.31	6.67	-49.7	-53.2	11.7	6.63e-04	0	50	0	70254592	62	5331
2026-01-03 03:38:13.60	38.24	6.73	-49.7	-53.2	11.8	4.87e-04	0	50	0	72351744	62	5292
2026-01-03 03:38:14.59	38.16	6.80	-49.7	-53.2	11.8	4.58e-04	0	50	0	73400320	62	5302
2026-01-03 03:38:15.59	38.08	6.87	-49.6	-53.1	11.9	3.72e-04	0	50	0	75497472	62	5236
2026-01-03 03:38:16.58	38.01	6.93	-49.6	-53.0	12.0	3.32e-04	0	50	0	77594624	62	5202
2026-01-03 03:38:17.57	37.93	7.00	-49.6	-53.0	12.1	3.09e-04	0	50	0	79691776	62	5186
2026-01-03 03:38:18.56	37.85	7.07	-49.6	-53.1	12.0	3.23e-04	0	50	0	81788928	62	5223
2026-01-03 03:38:19.55	37.77	7.13	-49.7	-53.1	12.0	3.28e-04	0	50	0	82837504	62	5231
2026-01-03 03:38:20.54	37.69	7.20	-49.6	-53.0	12.1	2.81e-04	0	50	0	84934656	62	5204
2026-01-03 03:38:21.53	37.61	7.27	-49.6	-53.0	12.0	3.26e-04	0	50	0	87031808	62	5214
2026-01-03 03:38:22.52	37.53	7.33	-49.7	-53.2	11.9	3.62e-04	0	51	0	89128960	62	5294
2026-01-03 03:38:23.50	37.45	7.40	-49.7	-53.2	11.8	4.84e-04	0	50	0	90177536	62	5337
2026-01-03 03:38:24.48	37.37	7.47	-49.7	-53.1	12.0	3.31e-04	0	51	0	92274688	62	5243
2026-01-03 03:38:25.47	37.29	7.54	-49.6	-53.0	12.1	2.84e-04	0	51	0	94371840	62	5186
2026-01-03 03:38:26.45	37.21	7.60	-49.6	-52.9	12.2	2.41e-04	0	51	0	96468992	62	5158
2026-01-03 03:38:27.44	37.13	7.67	-49.6	-53.1	12.0	3.16e-04	0	51	0	97517568	62	5252
2026-01-03 03:38:28.44	37.05	7.74	-49.7	-53.1	12.0	3.79e-04	0	51	0	99614720	62	5254
2026-01-03 03:38:29.43	36.97	7.81	-49.7	-53.2	12.0	3.33e-04	0	51	0	101711872	62	5290
2026-01-03 03:38:30.41	36.88	7.87	-49.7	-53.2	11.9	3.67e-04	0	51	0	103809024	62	5329
2026-01-03 03:38:31.41	36.80	7.94	-49.8	-53.3	11.8	5.32e-04	0	51	0	105906176	62	5381
2026-01-03 03:38:32.39	36.72	8.01	-49.6	-52.9	12.2	3.72e-04	0	51	0	106954752	62	5155
2026-01-03 03:38:33.38	36.63	8.08	-49.6	-52.9	12.2	2.25e-04	0	51	0	109051904	62	5137
2026-01-03 03:38:34.36	36.55	8.15	-49.6	-52.9	12.3	1.63e-04	0	51	0	111149056	62	5112
2026-01-03 03:38:35.35	36.46	8.21	-49.6	-52.8	12.3	1.67e-04	0	51	0	113246208	62	5078
2026-01-03 03:38:36.34	36.38	8.28	-49.7	-53.0	12.2	1.72e-04	0	51	0	114294784	62	5177
2026-01-03 03:38:37.32	36.29	8.35	-49.7	-53.1	12.1	2.66e-04	0	51	0	116391936	62	5234
2026-01-03 03:38:38.30	36.21	8.42	-49.6	-52.8	12.4	1.70e-04	0	51	0	118489088	62	5060
2026-01-03 03:38:39.29	36.12	8.49	-49.4	-52.5	12.7	1.11e-04	0	51	0	120586240	62	4896
2026-01-03 03:38:40.29	36.03	8.56	-49.3	-52.3	12.9	5.64e-05	0	51	0	121634816	61	5053
2026-01-03 03:38:41.27	35.95	8.63	-49.3	-52.2	13.1	3.12e-05	0	51	0	123731968	61	4996
2026-01-03 03:38:42.26	35.86	8.70	-49.3	-52.3	12.9	3.43e-05	0	51	0	125829120	61	5054
2026-01-03 03:38:43.25	35.77	8.77	-49.3	-52.3	12.9	4.04e-05	0	51	0	127926272	61	5059
2026-01-03 03:38:44.23	35.68	8.84	-49.4	-52.5	12.7	7.47e-05	0	51	0	128974848	61	5161
2026-01-03 03:38:45.22	35.60	8.91	-49.3	-52.3	12.9	3.81e-05	0	51	0	131072000	61	5052
2026-01-03 03:38:46.21	35.51	8.98	-49.3	-52.2	13.0	3.96e-05	0	52	0	133169152	61	5020
2026-01-03 03:38:47.21	35.41	9.05	-49.4	-52.4	12.9	4.65e-05	0	52	0	135266304	61	5101
2026-01-03 03:38:48.20	35.32	9.12	-49.4	-52.5	12.7	5.72e-05	0	51	0	136314880	61	5179
2026-01-03 03:38:49.19	35.23	9.19	-49.4	-52.4	12.9	5.87e-05	0	51	0	138412032	61	5109
2026-01-03 03:38:50.17	35.14	9.26	-49.5	-52.6	12.7	6.56e-05	0	51	0	140509184	61	5220
2026-01-03 03:38:51.16	35.05	9.33	-49.6	-52.7	12.5	1.03e-04	0	52	0	142606336	61	5312
2026-01-03 03:38:52.16	34.96	9.40	-49.5	-52.6	12.7	8.23e-05	0	52	0	144703488	61	5246
2026-01-03 03:38:53.15	34.87	9.47	-49.4	-52.4	12.8	6.25e-05	0	52	0	145752064	61	5138
2026-01-03 03:38:54.13	34.77	9.54	-49.5	-52.6	12.7	7.93e-05	0	52	0	147849216	61	5246
2026-01-03 03:38:55.12	34.68	9.61	-49.7	-52.9	12.4	1.09e-04	0	52	0	149946368	61	5411
2026-01-03 03:38:56.11	34.58	9.68	-49.7	-52.9	12.3	1.46e-04	0	52	0	152043520	61	5452
2026-01-03 03:38:57.10	34.49	9.75	-49.6	-52.8	12.5	1.21e-04	0	52	0	153092096	61	5350
2026-01-03 03:38:58.09	34.40	9.83	-49.6	-52.8	12.5	9.99e-05	0	52	0	155189248	61	5346
2026-01-03 03:38:59.08	34.30	9.90	-49.5	-52.8	12.5	1.11e-04	0	52	0	157286400	61	5348
2026-01-03 03:39:00.07	34.20	9.97	-49.7	-52.9	12.4	1.66e-04	0	52	0	159383552	61	5458
2026-01-03 03:39:01.06	34.11	10.04	-49.6	-52.7	12.6	1.30e-04	0	52	0	161480704	61	5305
2026-01-03 03:39:02.05	34.01	10.11	-49.7	-53.0	12.3	1.39e-04	0	52	0	162529280	61	5473
2026-01-03 03:39:03.04	33.91	10.18	-49.6	-52.7	12.6	1.26e-04	0	52	0	164626432	61	5331
2026-01-03 03:39:04.03	33.81	10.26	-49.5	-52.6	12.7	7.47e-05	0	52	0	166723584	61	5231
2026-01-03 03:39:05.02	33.72	10.33	-49.4	-52.3	13.0	3.73e-05	0	52	0	168820736	61	5091
2026-01-03 03:39:06.01	33.62	10.40	-49.5	-52.5	12.9	4.19e-05	0	52	0	169869312	61	5167
2026-01-03 03:39:07.00	33.52	10.47	-49.6	-52.7	12.6	5.34e-05	0	52	0	171966464	61	5294
2026-01-03 03:39:07.99	33.42	10.55	-49.7	-52.8	12.5	1.13e-04	0	52	0	174063616	61	5376
2026-01-03 03:39:08.98	33.32	10.62	-49.5	-52.6	12.8	8.85e-05	0	52	0	176160768	61	5227
2026-01-03 03:39:09.96	33.22	10.69	-49.6	-52.6	12.7	6.63e-05	0	52	0	177209344	61	5254
2026-01-03 03:39:10.95	33.11	10.77	-49.6	-52.7	12.7	6.71e-05	0	52	0	179306496	61	5297
2026-01-03 03:39:11.94	33.01	10.84	-49.7	-52.8	12.5	1.01e-04	0	52	0	181403648	61	5387
2026-01-03 03:39:12.93	32.91	10.91	-49.6	-52.7	12.7	1.10e-04	0	52	0	183500800	61	5320
2026-01-03 03:39:13.92	32.81	10.99	-49.7	-52.9	12.5	1.03e-04	0	52	0	185597952	61	5407
2026-01-03 03:39:14.90	32.70	11.06	-49.6	-52.8	12.6	1.13e-04	0	52	0	186646528	61	5342
2026-01-03 03:39:15.89	32.60	11.13	-49.5	-52.5	12.8	6.71e-05	0	52	0	188743680	61	5211
2026-01-03 03:39:16.88	32.49	11.21	-49.4	-52.3	13.0	5.79e-05	0	52	0	190840832	61	5088
2026-01-03 03:39:17.87	32.39	11.28	-49.5	-52.4	12.9	3.66e-05	0	52	0	192937984	61	5143
2026-01-03 03:39:18.86	32.28	11.36	-49.5	-52.6	12.8	5.11e-05	0	52	0	193986560	61	5235
2026-01-03 03:39:19.85	32.18	11.43	-49.4	-52.4	13.0	5.03e-05	0	52	0	196083712	61	5111
2026-01-03 03:39:20.84	32.07	11.50	-49.6	-52.7	12.7	5.49e-05	0	52	0	198180864	61	5300
2026-01-03 03:39:21.83	31.96	11.58	-49.5	-52.5	12.8	7.93e-05	0	53	0	200278016	61	5205
2026-01-03 03:39:22.82	31.85	11.65	-49.3	-52.3	13.1	2.74e-05	0	53	0	201326592	61	5090
2026-01-03 03:39:23.81	31.74	11.73	-49.3	-52.2	13.2	2.36e-05	0	53	0	203423744	61	4999
2026-01-03 03:39:24.80	31.63	11.80	-49.4	-52.2	13.2	2.51e-05	0	53	0	205520896	61	5032
2026-01-03 03:39:25.79	31.52	11.88	-49.4	-52.4	13.0	2.59e-05	0	53	0	207618048	61	5105
2026-01-03 03:39:26.77	31.42	11.95	-49.5	-52.5	12.9	5.64e-05	0	53	0	209715200	61	5205
2026-01-03 03:39:27.76	31.30	12.03	-49.5	-52.5	12.9	5.64e-05	0	52	0	210763776	61	5211
2026-01-03 03:39:28.75	31.19	12.10	-49.7	-52.8	12.6	8.08e-05	0	53	0	212860928	61	5377
2026-01-03 03:39:29.72	31.08	12.18	-49.6	-52.7	12.7	1.11e-04	0	53	0	214958080	61	5315
2026-01-03 03:39:30.71	30.97	12.25	-49.5	-52.4	12.9	4.57e-05	0	53	0	217055232	61	5158
2026-01-03 03:39:31.70	30.86	12.33	-49.4	-52.2	13.2	2.44e-05	0	53	0	218103808	61	5027
2026-01-03 03:39:32.68	30.74	12.40	-49.3	-52.1	13.3	1.98e-05	0	53	0	220200960	61	4968
2026-01-03 03:39:33.67	30.63	12.48	-49.2	-52.1	13.3	1.44e-05	0	53	0	222298112	61	4938
2026-01-03 03:39:34.66	30.51	12.56	-49.3	-52.2	13.2	1.29e-05	0	53	0	224395264	61	5033
2026-01-03 03:39:35.65	30.40	12.63	-49.2	-52.1	13.4	3.20e-05	0	53	0	225443840	61	4931
2026-01-03 03:39:36.64	30.28	12.71	-49.1	-51.9	13.6	1.29e-05	0	53	0	227540992	61	4815
2026-01-03 03:39:37.63	30.16	12.79	-49.2	-51.9	13.6	1.06e-05	0	53	0	229638144	61	4824
2026-01-03 03:39:38.62	30.05	12.86	-49.3	-52.2	13.3	1.06e-05	0	53	0	231735296	61	4988
2026-01-03 03:39:39.61	29.93	12.94	-49.3	-52.1	13.3	1.29e-05	0	53	0	232783872	61	4951
2026-01-03 03:39:40.60	29.81	13.02	-49.1	-51.8	13.6	9.10e-06	0	53	0	234881024	61	4791
2026-01-03 03:39:41.58	29.69	13.09	-49.1	-51.7	13.8	2.20e-06	0	53	0	236978176	61	4710
2026-01-03 03:39:42.58	29.57	13.17	-49.0	-51.6	13.9	3.80e-06	0	53	0	239075328	61	4688
2026-01-03 03:39:43.57	29.45	13.25	-49.0	-51.5	13.9	1.50e-06	0	53	0	241172480	61	4627
2026-01-03 03:39:44.55	29.33	13.32	-49.0	-51.6	13.8	4.50e-06	0	53	0	242221056	61	4699
2026-01-03 03:39:45.53	29.21	13.40	-49.1	-51.7	13.8	3.80e-06	0	53	0	244318208	61	4714
2026-01-03 03:39:46.52	29.08	13.48	-49.0	-51.6	13.9	0.00e+00	0	53	0	246415360	61	4674
2026-01-03 03:39:47.52	28.96	13.56	-49.2	-51.9	13.5	4.50e-06	0	53	0	248512512	61	4854
2026-01-03 03:39:48.50	28.83	13.63	-49.2	-51.9	13.5	7.60e-06	0	53	0	249561088	61	4868
2026-01-03 03:39:49.50	28.71	13.71	-49.2	-51.8	13.7	7.60e-06	0	53	0	251658240	61	4765
2026-01-03 03:39:50.49	28.58	13.79	-49.1	-51.8	13.7	5.30e-06	0	53	0	253755392	61	4760
2026-01-03 03:39:51.46	28.46	13.87	-49.2	-51.8	13.6	6.80e-06	0	53	0	255852544	61	4801
2026-01-03 03:39:52.46	28.33	13.95	-49.2	-52.0	13.5	6.80e-06	0	53	0	256901120	61	4876
2026-01-03 03:39:53.45	28.20	14.02	-49.2	-52.0	13.5	1.22e-05	0	53	0	258998272	61	4873
2026-01-03 03:39:54.43	28.08	14.10	-49.1	-51.7	13.8	6.80e-06	0	53	0	261095424	61	4753
2026-01-03 03:39:55.43	27.95	14.18	-49.1	-51.6	13.8	3.80e-06	0	54	0	263192576	61	4697
2026-01-03 03:39:56.42	27.82	14.26	-49.1	-51.7	13.8	6.10e-06	0	53	0	265289728	61	4721
2026-01-03 03:39:57.41	27.69	14.34	-49.1	-51.7	13.8	7.60e-06	0	53	0	266338304	61	4749
2026-01-03 03:39:58.40	27.55	14.42	-49.1	-51.7	13.8	7.60e-06	0	53	0	268435456	61	4748
2026-01-03 03:39:59.38	27.42	14.50	-49.0	-51.4	14.1	2.20e-06	0	54	0	270532608	61	4596
2026-01-03 03:40:00.37	27.29	14.57	-48.8	-51.3	14.2	1.50e-06	0	53	0	272629760	60	4769
2026-01-03 03:40:01.37	27.16	14.65	-48.8	-51.2	14.4	7.00e-07	0	54	0	273678336	60	4719
2026-01-03 03:40:02.36	27.02	14.73	-48.8	-51.2	14.3	0.00e+00	0	53	0	275775488	60	4715
2026-01-03 03:40:03.34	26.89	14.81	-48.9	-51.3	14.2	7.00e-07	0	54	0	277872640	60	4798
2026-01-03 03:40:04.33	26.75	14.89	-48.9	-51.5	14.1	2.20e-06	0	53	0	279969792	60	4871
2026-01-03 03:40:05.32	26.62	14.97	-48.8	-51.3	14.2	7.00e-07	0	54	0	281018368	60	4783
2026-01-03 03:40:06.32	26.48	15.05	-48.9	-51.3	14.2	1.50e-06	0	54	0	283115520	60	4790
2026-01-03 03:40:07.31	26.34	15.13	-48.9	-51.3	14.3	0.00e+00	0	54	0	285212672	60	4778
2026-01-03 03:40:08.30	26.20	15.21	-48.9	-51.4	14.1	1.50e-06	0	54	0	287309824	60	4833
2026-01-03 03:40:09.29	26.06	15.29	-49.0	-51.4	14.1	2.20e-06	0	54	0	289406976	60	4870
2026-01-03 03:40:10.28	25.92	15.37	-48.8	-51.3	14.3	0.00e+00	0	54	0	290455552	60	4763
2026-01-03 03:40:11.27	25.78	15.45	-48.9	-51.4	14.2	0.00e+00	0	54	0	292552704	60	4830
2026-01-03 03:40:12.26	25.64	15.53	-48.8	-51.2	14.4	1.50e-06	0	54	0	294649856	60	4717
2026-01-03 03:40:13.24	25.50	15.61	-48.6	-50.9	14.7	7.00e-07	0	54	0	296747008	60	4559
2026-01-03 03:40:14.23	25.36	15.69	-48.5	-50.8	14.8	1.50e-06	0	54	0	297795584	60	4511
2026-01-03 03:40:15.22	25.21	15.77	-48.5	-50.7	14.8	0.00e+00	0	54	0	299892736	60	4478
2026-01-03 03:40:16.21	25.07	15.85	-48.6	-50.8	14.8	0.00e+00	0	54	0	301989888	60	4527
2026-01-03 03:40:17.20	24.92	15.93	-48.7	-51.1	14.5	7.00e-07	0	54	0	304087040	60	4658
2026-01-03 03:40:18.19	24.78	16.01	-48.8	-51.2	14.3	1.50e-06	0	54	0	305135616	60	4732
2026-01-03 03:40:19.18	24.63	16.09	-48.8	-51.2	14.4	7.00e-07	0	54	0	307232768	60	4716
2026-01-03 03:40:20.17	24.48	16.18	-48.9	-51.3	14.2	7.00e-07	0	54	0	309329920	60	4809
2026-01-03 03:40:21.17	24.33	16.26	-49.1	-51.6	13.9	1.50e-06	0	54	0	311427072	60	4946
2026-01-03 03:40:22.16	24.18	16.34	-48.9	-51.3	14.3	3.00e-06	0	54	0	313524224	60	4788
2026-01-03 03:40:23.15	24.03	16.42	-48.7	-51.1	14.5	0.00e+00	0	54	0	314572800	60	4665
2026-01-03 03:40:24.14	23.88	16.50	-48.9	-51.4	14.2	2.20e-06	0	54	0	316669952	60	4825
2026-01-03 03:40:25.13	23.73	16.58	-48.8	-51.1	14.4	7.00e-07	0	54	0	318767104	60	4690
2026-01-03 03:40:26.12	23.57	16.66	-48.6	-50.8	14.7	0.00e+00	0	54	0	320864256	60	4511
2026-01-03 03:40:27.11	23.42	16.74	-48.6	-50.8	14.8	0.00e+00	0	54	0	321912832	60	4531
2026-01-03 03:40:28.09	23.27	16.82	-48.6	-50.8	14.7	7.00e-07	0	54	0	324009984	60	4541
2026-01-03 03:40:29.07	23.11	16.91	-48.6	-50.8	14.8	0.00e+00	0	54	0	326107136	60	4524
2026-01-03 03:40:30.06	22.96	16.99	-48.5	-50.6	15.0	0.00e+00	0	54	0	328204288	60	4421
2026-01-03 03:40:31.04	22.80	17.07	-48.5	-50.6	15.0	0.00e+00	0	54	0	329252864	59	4684
2026-01-03 03:40:32.03	22.64	17.15	-48.6	-50.7	14.9	0.00e+00	0	54	0	331350016	59	4743
2026-01-03 03:40:33.02	22.49	17.23	-48.5	-50.6	15.0	0.00e+00	0	54	0	333447168	59	4699
2026-01-03 03:40:34.02	22.32	17.31	-48.5	-50.6	15.0	0.00e+00	0	54	0	335544320	59	4701
2026-01-03 03:40:35.01	22.16	17.39	-48.6	-50.8	14.8	0.00e+00	0	54	0	337641472	59	4788
2026-01-03 03:40:36.00	22.00	17.48	-48.6	-51.0	14.6	0.00e+00	0	54	0	338690048	59	4921
2026-01-03 03:40:36.99	21.84	17.56	-48.8	-51.0	14.6	0.00e+00	0	54	0	340787200	59	4916
2026-01-03 03:40:37.98	21.68	17.64	-48.8	-51.1	14.6	0.00e+00	0	54	0	342884352	59	4928
2026-01-03 03:40:38.97	21.51	17.72	-48.7	-51.0	14.6	0.00e+00	0	54	0	344981504	59	4925
2026-01-03 03:40:39.95	21.35	17.80	-48.8	-51.2	14.4	1.50e-06	0	54	0	346030080	59	5016
2026-01-03 03:40:40.94	21.18	17.88	-48.8	-51.1	14.5	0.00e+00	0	54	0	348127232	59	4983
2026-01-03 03:40:41.93	21.01	17.97	-48.8	-51.3	14.3	0.00e+00	0	54	0	350224384	59	5047
2026-01-03 03:40:42.92	20.85	18.05	-49.1	-51.7	13.9	7.00e-07	0	54	0	352321536	60	4999
2026-01-03 03:40:43.90	20.68	18.13	-49.0	-51.5	14.1	6.80e-06	0	54	0	353370112	60	4906
2026-01-03 03:40:44.89	20.51	18.21	-48.8	-51.3	14.3	1.50e-06	0	54	0	355467264	60	4767
2026-01-03 03:40:45.88	20.34	18.29	-48.8	-51.1	14.5	7.00e-07	0	54	0	357564416	60	4687
2026-01-03 03:40:46.87	20.17	18.37	-48.8	-51.2	14.4	0.00e+00	0	54	0	359661568	60	4737
2026-01-03 03:40:47.85	20.00	18.46	-48.9	-51.3	14.3	7.00e-07	0	54	0	361758720	60	4779
2026-01-03 03:40:48.84	19.82	18.54	-49.0	-51.5	14.1	2.20e-06	0	54	0	362807296	60	4924
2026-01-03 03:40:49.83	19.65	18.62	-48.9	-51.4	14.3	4.50e-06	0	54	0	364904448	60	4820
2026-01-03 03:40:50.82	19.47	18.70	-49.0	-51.4	14.2	3.00e-06	0	54	0	367001600	60	4856
2026-01-03 03:40:51.81	19.30	18.78	-49.2	-51.7	13.9	2.20e-06	0	54	0	369098752	60	5035
2026-01-03 03:40:52.80	19.12	18.87	-49.1	-51.6	14.1	3.00e-06	0	54	0	370147328	60	4927
2026-01-03 03:40:53.79	18.94	18.95	-48.9	-51.2	14.4	2.20e-06	0	54	0	372244480	60	4738
2026-01-03 03:40:54.79	18.76	19.03	-48.8	-51.0	14.6	7.00e-07	0	54	0	374341632	60	4650
2026-01-03 03:40:55.78	18.58	19.11	-48.7	-51.0	14.6	7.00e-07	0	54	0	376438784	60	4601
2026-01-03 03:40:56.77	18.40	19.19	-48.7	-50.9	14.7	0.00e+00	0	54	0	377487360	60	4591
2026-01-03 03:40:57.75	18.22	19.27	-48.8	-51.1	14.6	0.00e+00	0	54	0	379584512	60	4658
2026-01-03 03:40:58.74	18.03	19.36	-48.8	-51.2	14.4	7.00e-07	0	54	0	381681664	60	4746
2026-01-03 03:40:59.74	17.85	19.44	-48.8	-51.1	14.6	7.00e-07	0	54	0	383778816	60	4658
2026-01-03 03:41:00.73	17.66	19.52	-48.6	-50.9	14.8	0.00e+00	0	54	0	385875968	60	4571
2026-01-03 03:41:01.72	17.48	19.60	-48.7	-51.0	14.6	7.00e-07	0	54	0	386924544	60	4639
2026-01-03 03:41:02.71	17.29	19.68	-48.8	-51.1	14.5	7.00e-07	0	54	0	389021696	60	4695
2026-01-03 03:41:03.70	17.10	19.76	-48.7	-51.0	14.6	7.00e-07	0	54	0	391118848	60	4640
2026-01-03 03:41:04.69	16.91	19.85	-48.7	-51.1	14.5	7.00e-07	0	54	0	393216000	60	4665
2026-01-03 03:41:05.68	16.72	19.93	-48.9	-51.3	14.4	0.00e+00	0	54	0	394264576	60	4789
2026-01-03 03:41:06.66	16.53	20.01	-49.0	-51.4	14.2	7.00e-07	0	55	0	396361728	60	4870
2026-01-03 03:41:07.66	16.34	20.09	-49.0	-51.4	14.3	0.00e+00	0	54	0	398458880	60	4824
2026-01-03 03:41:08.65	16.14	20.17	-48.9	-51.3	14.3	7.00e-07	0	55	0	400556032	60	4807
2026-01-03 03:41:09.63	15.95	20.25	-48.7	-51.1	14.5	0.00e+00	0	55	0	401604608	60	4678
2026-01-03 03:41:10.61	15.76	20.33	-48.7	-50.9	14.7	7.00e-07	0	55	0	403701760	60	4582
2026-01-03 03:41:11.60	15.56	20.41	-48.6	-50.8	14.9	7.00e-07	0	55	0	405798912	60	4512
2026-01-03 03:41:12.58	15.37	20.49	-48.5	-50.6	15.0	0.00e+00	0	55	0	407896064	60	4425
2026-01-03 03:41:13.57	15.17	20.57	-48.4	-50.5	15.2	0.00e+00	0	55	0	408944640	59	4634
2026-01-03 03:41:14.56	14.97	20.65	-48.3	-50.3	15.3	0.00e+00	0	55	0	411041792	59	4540
2026-01-03 03:41:15.55	14.77	20.73	-48.4	-50.5	15.2	0.00e+00	0	54	0	413138944	59	4632
2026-01-03 03:41:16.54	14.57	20.81	-48.4	-50.6	15.1	0.00e+00	0	55	0	415236096	59	4653
2026-01-03 03:41:17.52	14.37	20.89	-48.6	-50.7	15.0	0.00e+00	0	55	0	417333248	59	4746
2026-01-03 03:41:18.51	14.16	20.97	-48.6	-50.7	15.0	0.00e+00	0	55	0	418381824	59	4730
2026-01-03 03:41:19.49	13.96	21.05	-48.3	-50.4	15.2	0.00e+00	0	55	0	420478976	59	4596
2026-01-03 03:41:20.47	13.75	21.13	-48.3	-50.4	15.3	0.00e+00	0	55	0	422576128	59	4558
2026-01-03 03:41:21.46	13.55	21.21	-48.3	-50.3	15.3	0.00e+00	0	55	0	424673280	59	4528
2026-01-03 03:41:22.46	13.34	21.29	-48.1	-50.1	15.6	0.00e+00	0	55	0	425721856	59	4410
2026-01-03 03:41:23.44	13.13	21.37	-48.3	-50.2	15.4	0.00e+00	0	55	0	427819008	59	4493
2026-01-03 03:41:24.43	12.92	21.45	-48.2	-50.2	15.5	0.00e+00	0	55	0	429916160	59	4461
2026-01-03 03:41:25.42	12.71	21.53	-48.2	-50.1	15.5	0.00e+00	0	55	0	432013312	59	4440
2026-01-03 03:41:26.40	12.50	21.60	-48.4	-50.4	15.3	0.00e+00	0	55	0	433061888	59	4554
2026-01-03 03:41:27.38	12.29	21.68	-48.3	-50.5	15.2	0.00e+00	0	55	0	435159040	59	4605
2026-01-03 03:41:28.37	12.07	21.76	-48.1	-50.0	15.7	0.00e+00	0	55	0	437256192	59	4344
2026-01-03 03:41:29.36	11.86	21.84	-47.9	-49.8	15.9	0.00e+00	0	55	0	439353344	59	4265
2026-01-03 03:41:30.35	11.64	21.92	-48.0	-49.9	15.8	0.00e+00	0	55	0	440401920	58	4584
2026-01-03 03:41:31.34	11.42	21.99	-48.0	-49.9	15.8	0.00e+00	0	55	0	442499072	58	4575
2026-01-03 03:41:32.32	11.20	22.07	-47.8	-49.7	16.0	0.00e+00	0	55	0	444596224	58	4447
2026-01-03 03:41:33.31	10.98	22.15	-47.8	-49.6	16.1	0.00e+00	0	55	0	446693376	58	4410
2026-01-03 03:41:34.30	10.76	22.23	-47.7	-49.5	16.1	0.00e+00	0	55	0	447741952	58	4359
2026-01-03 03:41:35.29	10.54	22.30	-47.7	-49.5	16.0	0.00e+00	0	55	0	449839104	58	4387
2026-01-03 03:41:36.28	10.32	22.38	-47.8	-49.7	15.8	0.00e+00	0	55	0	451936256	58	4460
2026-01-03 03:41:37.26	10.09	22.45	-47.9	-49.8	15.6	0.00e+00	0	55	0	454033408	58	4505
2026-01-03 03:41:38.25	9.87	22.53	-47.5	-49.3	16.1	0.00e+00	0	55	0	456130560	58	4261
2026-01-03 03:41:39.24	9.64	22.61	-47.3	-49.1	16.1	0.00e+00	0	55	0	457179136	57	4432
2026-01-03 03:41:40.23	9.41	22.68	-47.3	-49.2	15.9	0.00e+00	0	55	0	459276288	57	4469
2026-01-03 03:41:41.23	9.18	22.76	-47.4	-49.3	15.7	0.00e+00	0	55	0	461373440	57	4501
2026-01-03 03:41:42.22	8.95	22.83	-47.5	-49.4	15.5	0.00e+00	0	55	0	463470592	57	4596
2026-01-03 03:41:43.20	8.72	22.91	-47.7	-49.8	15.1	0.00e+00	0	55	0	464519168	57	4760
2026-01-03 03:41:44.19	8.49	22.98	-47.8	-50.0	14.8	0.00e+00	0	55	0	466616320	57	4876
2026-01-03 03:41:45.18	8.25	23.06	-48.2	-50.8	13.8	7.00e-07	0	55	0	468713472	58	5053
2026-01-03 03:41:46.17	8.02	23.13	-48.8	-51.7	12.9	2.13e-05	0	55	0	470810624	59	5325
2026-01-03 03:41:47.16	7.78	23.20	-49.4	-53.1	11.4	3.17e-04	0	55	0	472907776	60	5869
2026-01-03 03:41:48.15	7.55	23.28	-49.6	-53.8	10.6	2.06e-03	0	55	0	473956352	61	6020
2026-01-03 03:41:49.14	7.31	23.35	-49.9	-54.7	9.6	1.02e-02	0	55	0	476053504	61	6659
2026-01-03 03:41:50.13	7.07	23.42	-49.8	-54.3	10.0	8.33e-03	0	55	0	478150656	61	6369
2026-01-03 03:41:51.12	6.83	23.50	-49.7	-54.1	10.4	6.55e-03	0	55	0	480247808	61	6222
2026-01-03 03:41:52.11	6.59	23.57	-49.8	-53.7	10.9	3.36e-03	0	55	0	481296384	61	5952
2026-01-03 03:41:53.10	6.34	23.64	-49.5	-52.9	12.0	5.44e-04	0	55	0	483393536	61	5432
2026-01-03 03:41:54.09	6.10	23.71	-49.1	-52.0	13.1	7.70e-05	0	55	0	485490688	61	4898
2026-01-03 03:41:55.07	5.86	23.78	-49.1	-51.8	13.4	1.67e-05	0	55	0	487587840	61	4791
2026-01-03 03:41:56.06	5.61	23.85	-49.3	-52.3	12.9	1.29e-05	0	55	0	488636416	61	5061
2026-01-03 03:41:57.06	5.36	23.92	-49.2	-52.1	13.0	3.81e-05	0	55	0	490733568	61	4945
2026-01-03 03:41:58.05	5.11	23.99	-49.3	-52.5	12.3	9.38e-05	0	55	0	492830720	61	5178
2026-01-03 03:41:59.04	4.86	24.06	-49.8	-53.9	10.6	7.48e-04	0	55	0	494927872	61	6084
2026-01-03 03:42:00.03	4.61	24.13	-50.2	-55.5	8.7	9.02e-03	0	55	0	497025024	62	6904
2026-01-03 03:42:01.02	4.36	24.20	-50.4	-56.4	7.6	8.34e-02	0	55	0	498073600	62	7684
2026-01-03 03:42:02.01	4.11	24.27	-50.3	-55.8	8.3	8.08e-02	0	55	0	500170752	62	7151
2026-01-03 03:42:03.00	3.86	24.33	-49.9	-54.4	10.0	2.35e-02	0	55	0	502267904	62	6079
2026-01-03 03:42:03.99	3.60	24.40	-49.5	-53.0	11.7	1.20e-03	0	55	0	504365056	62	5203
2026-01-03 03:42:04.97	3.35	24.47	-49.1	-52.0	13.2	6.63e-05	0	55	0	505413632	61	4879
2026-01-03 03:42:05.97	3.09	24.53	-49.0	-51.5	13.9	8.30e-06	0	55	0	507510784	61	4627
2026-01-03 03:42:06.96	2.83	24.60	-49.0	-51.4	14.2	2.20e-06	0	55	0	509607936	60	4852
2026-01-03 03:42:07.94	2.57	24.66	-49.0	-51.6	14.0	3.80e-06	0	55	0	511705088	60	4957
2026-01-03 03:42:08.94	2.31	24.73	-48.7	-51.0	14.6	1.50e-06	0	55	0	512753664	60	4620
2026-01-03 03:42:09.93	2.05	24.79	-48.3	-50.4	15.3	0.00e+00	0	55	0	514850816	59	4547
2026-01-03 03:42:10.91	1.79	24.86	-47.8	-49.7	16.0	0.00e+00	0	55	0	516947968	58	4461
2026-01-03 03:42:11.90	1.52	24.92	-47.7	-49.5	16.2	0.00e+00	0	55	0	519045120	58	4374
2026-01-03 03:42:12.89	1.26	24.98	-47.9	-49.7	16.0	0.00e+00	0	55	0	521142272	58	4455
2026-01-03 03:42:13.88	0.99	25.05	-47.9	-49.7	16.0	0.00e+00	0	55	0	522190848	58	4452
2026-01-03 03:42:14.87	0.73	25.11	-47.9	-49.8	16.0	0.00e+00	0	55	0	524288000	58	4510
2026-01-03 03:42:15.85	0.46	25.17	-47.8	-49.5	16.2	0.00e+00	0	55	0	526385152	58	4360
2026-01-03 03:42:16.84	0.19	25.23	-47.6	-49.2	16.5	0.00e+00	0	55	0	528482304	58	4237
2026-01-03 03:42:17.83	359.92	25.29	-47.4	-49.0	16.7	0.00e+00	0	55	0	529530880	58	4135
2026-01-03 03:42:18.82	359.65	25.35	-47.4	-49.0	16.8	0.00e+00	0	55	0	531628032	57	4349
2026-01-03 03:42:19.81	359.38	25.41	-47.4	-49.0	16.7	0.00e+00	0	55	0	533725184	57	4376
2026-01-03 03:42:20.81	359.10	25.47	-47.6	-49.3	16.4	0.00e+00	0	55	0	535822336	57	4520
2026-01-03 03:42:21.79	358.83	25.52	-47.7	-49.4	16.3	0.00e+00	0	55	0	536870912	57	4577
2026-01-03 03:42:22.78	358.56	25.58	-47.7	-49.4	16.3	0.00e+00	0	55	0	538968064	57	4560
2026-01-03 03:42:23.78	358.28	25.64	-47.7	-49.5	16.2	0.00e+00	0	56	0	541065216	57	4613
2026-01-03 03:42:24.77	358.00	25.69	-47.8	-49.6	16.2	0.00e+00	0	55	0	543162368	57	4653
2026-01-03 03:42:25.76	357.72	25.75	-48.0	-49.9	15.8	0.00e+00	0	55	0	545259520	57	4831
2026-01-03 03:42:26.75	357.45	25.80	-47.9	-49.7	16.0	0.00e+00	0	56	0	546308096	58	4491
2026-01-03 03:42:27.75	357.16	25.86	-47.7	-49.4	16.3	0.00e+00	0	56	0	548405248	58	4321
2026-01-03 03:42:28.74	356.88	25.91	-47.6	-49.2	16.5	0.00e+00	0	56	0	550502400	58	4229
2026-01-03 03:42:29.72	356.60	25.96	-47.5	-49.1	16.6	0.00e+00	0	55	0	552599552	58	4183
2026-01-03 03:42:30.71	356.32	26.02	-47.5	-49.2	16.6	0.00e+00	0	56	0	553648128	58	4205
2026-01-03 03:42:31.70	356.04	26.07	-47.5	-49.1	16.6	0.00e+00	0	55	0	555745280	58	4178
2026-01-03 03:42:32.69	355.75	26.12	-47.7	-49.4	16.4	0.00e+00	0	56	0	557842432	58	4295
2026-01-03 03:42:33.68	355.47	26.17	-47.8	-49.5	16.3	0.00e+00	0	56	0	559939584	58	4365
2026-01-03 03:42:34.67	355.18	26.22	-47.7	-49.4	16.3	0.00e+00	0	55	0	562036736	58	4314
2026-01-03 03:42:35.66	354.89	26.27	-47.7	-49.4	16.3	0.00e+00	0	56	0	563085312	58	4326
2026-01-03 03:42:36.65	354.60	26.31	-47.7	-49.4	16.3	0.00e+00	0	55	0	565182464	58	4320
2026-01-03 03:42:37.64	354.31	26.36	-47.8	-49.5	16.2	0.00e+00	0	55	0	567279616	58	4391
2026-01-03 03:42:38.62	354.03	26.41	-48.0	-49.9	15.9	0.00e+00	0	55	0	569376768	58	4547
2026-01-03 03:42:39.62	353.73	26.45	-48.1	-50.0	15.7	0.00e+00	0	56	0	570425344	58	4640
2026-01-03 03:42:40.61	353.44	26.50	-48.2	-50.2	15.5	0.00e+00	0	55	0	572522496	58	4734
2026-01-03 03:42:41.59	353.15	26.54	-48.4	-50.4	15.4	0.00e+00	0	56	0	574619648	58	4824
2026-01-03 03:42:42.59	352.86	26.59	-48.3	-50.3	15.4	0.00e+00	0	55	0	576716800	58	4793
2026-01-03 03:42:43.58	352.56	26.63	-48.5	-50.5	15.2	7.00e-07	0	56	0	577765376	58	4921
2026-01-03 03:42:44.57	352.27	26.67	-48.6	-50.8	15.0	0.00e+00	0	56	0	579862528	59	4773
2026-01-03 03:42:45.56	351.97	26.71	-48.8	-51.0	14.8	0.00e+00	0	56	0	581959680	59	4880
2026-01-03 03:42:46.55	351.67	26.75	-48.6	-50.7	15.1	7.00e-07	0	56	0	584056832	59	4732
2026-01-03 03:42:47.53	351.38	26.79	-48.6	-50.8	15.0	0.00e+00	0	56	0	585105408	59	4770
2026-01-03 03:42:48.52	351.08	26.83	-48.7	-50.9	14.9	0.00e+00	0	56	0	587202560	59	4825
2026-01-03 03:42:49.50	350.79	26.87	-48.7	-50.9	14.9	0.00e+00	0	56	0	589299712	59	4838
2026-01-03 03:42:50.49	350.49	26.91	-48.7	-50.9	14.8	0.00e+00	0	56	0	591396864	59	4837
2026-01-03 03:42:51.47	350.19	26.94	-48.5	-50.6	15.2	0.00e+00	0	56	0	593494016	59	4660
2026-01-03 03:42:52.47	349.89	26.98	-48.4	-50.4	15.3	0.00e+00	0	56	0	594542592	59	4590
2026-01-03 03:42:53.45	349.59	27.01	-48.4	-50.5	15.3	0.00e+00	0	56	0	596639744	59	4611
2026-01-03 03:42:54.43	349.29	27.05	-48.5	-50.6	15.2	0.00e+00	0	56	0	598736896	59	4670
2026-01-03 03:42:55.43	348.98	27.08	-48.7	-50.9	14.9	0.00e+00	0	55	0	600834048	59	4827
2026-01-03 03:42:56.41	348.68	27.11	-48.7	-51.0	14.8	0.00e+00	0	55	0	601882624	59	4871
2026-01-03 03:42:57.40	348.38	27.14	-48.7	-50.9	14.8	0.00e+00	0	56	0	603979776	59	4870
2026-01-03 03:42:58.39	348.07	27.17	-48.7	-50.8	14.9	0.00e+00	0	56	0	606076928	59	4800
2026-01-03 03:42:59.38	347.77	27.20	-48.5	-50.7	15.1	0.00e+00	0	56	0	608174080	59	4723
2026-01-03 03:43:00.37	347.46	27.23	-48.6	-50.8	15.0	0.00e+00	0	56	0	609222656	59	4761
2026-01-03 03:43:01.36	347.16	27.26	-48.7	-50.9	14.9	0.00e+00	0	56	0	611319808	59	4834
2026-01-03 03:43:02.36	346.85	27.29	-48.8	-51.1	14.6	0.00e+00	0	56	0	613416960	59	4943
2026-01-03 03:43:03.34	346.54	27.31	-49.0	-51.3	14.4	7.00e-07	0	55	0	615514112	59	5086
2026-01-03 03:43:04.33	346.23	27.34	-48.9	-51.3	14.4	0.00e+00	0	56	0	617611264	59	5063
2026-01-03 03:43:05.32	345.93	27.36	-48.9	-51.3	14.4	0.00e+00	0	56	0	618659840	59	5056
2026-01-03 03:43:06.31	345.62	27.39	-48.9	-51.2	14.5	7.00e-07	0	56	0	620756992	59	5010
2026-01-03 03:43:07.29	345.31	27.41	-48.7	-50.9	14.8	7.00e-07	0	56	0	622854144	59	4842
2026-01-03 03:43:08.29	345.00	27.43	-48.8	-51.0	14.8	0.00e+00	0	56	0	624951296	59	4875
2026-01-03 03:43:09.28	344.69	27.45	-48.9	-51.2	14.5	0.00e+00	0	56	0	625999872	59	5028
2026-01-03 03:43:10.27	344.38	27.47	-49.1	-51.5	14.2	7.00e-07	0	56	0	628097024	59	5173
2026-01-03 03:43:11.26	344.07	27.49	-49.1	-51.5	14.3	2.20e-06	0	56	0	630194176	60	4890
2026-01-03 03:43:12.25	343.76	27.51	-49.1	-51.5	14.2	7.00e-07	0	56	0	632291328	60	4903
2026-01-03 03:43:13.24	343.44	27.52	-48.9	-51.3	14.4	0.00e+00	0	56	0	633339904	60	4779
2026-01-03 03:43:14.23	343.13	27.54	-48.8	-51.1	14.6	1.50e-06	0	56	0	635437056	60	4685
2026-01-03 03:43:15.21	342.82	27.56	-48.8	-51.1	14.6	0.00e+00	0	56	0	637534208	60	4671
2026-01-03 03:43:16.20	342.51	27.57	-48.8	-51.1	14.7	7.00e-07	0	56	0	639631360	60	4660
2026-01-03 03:43:17.18	342.20	27.58	-48.8	-51.1	14.7	7.00e-07	0	56	0	640679936	60	4677
2026-01-03 03:43:18.17	341.89	27.60	-48.9	-51.3	14.4	7.00e-07	0	56	0	642777088	60	4800
2026-01-03 03:43:19.16	341.57	27.61	-49.0	-51.4	14.3	7.00e-07	0	56	0	644874240	60	4847
2026-01-03 03:43:20.15	341.26	27.62	-49.1	-51.7	14.0	2.20e-06	0	56	0	646971392	60	5011
2026-01-03 03:43:21.14	340.95	27.63	-49.1	-51.6	14.1	3.00e-06	0	56	0	649068544	60	4948
2026-01-03 03:43:22.12	340.64	27.64	-49.2	-51.7	14.1	7.00e-07	0	56	0	650117120	60	4988
2026-01-03 03:43:23.10	340.33	27.64	-49.2	-51.7	14.0	3.80e-06	0	56	0	652214272	60	5029
2026-01-03 03:43:24.09	340.01	27.65	-48.9	-51.3	14.4	7.00e-07	0	56	0	654311424	60	4771
2026-01-03 03:43:25.08	339.70	27.66	-48.9	-51.2	14.6	2.20e-06	0	56	0	656408576	60	4722
2026-01-03 03:43:26.07	339.38	27.66	-49.0	-51.3	14.4	0.00e+00	0	56	0	657457152	60	4793
2026-01-03 03:43:27.06	339.07	27.66	-48.8	-51.1	14.6	0.00e+00	0	56	0	659554304	60	4691
2026-01-03 03:43:28.03	338.76	27.67	-48.8	-51.1	14.6	0.00e+00	0	56	0	661651456	60	4702
2026-01-03 03:43:29.02	338.45	27.67	-48.9	-51.2	14.6	0.00e+00	0	56	0	663748608	60	4714
2026-01-03 03:43:30.00	338.13	27.67	-48.7	-50.9	14.8	0.00e+00	0	56	0	664797184	60	4593
2026-01-03 03:43:30.99	337.82	27.67	-48.5	-50.7	15.0	0.00e+00	0	56	0	666894336	60	4458
2026-01-03 03:43:31.98	337.51	27.67	-48.5	-50.6	15.1	0.00e+00	0	56	0	668991488	60	4423
2026-01-03 03:43:32.97	337.19	27.67	-48.5	-50.6	15.1	0.00e+00	0	56	0	671088640	60	4433
2026-01-03 03:43:33.96	336.88	27.66	-48.4	-50.4	15.4	0.00e+00	0	56	0	673185792	59	4573
2026-01-03 03:43:34.95	336.56	27.66	-48.4	-50.4	15.3	0.00e+00	0	56	0	674234368	59	4590
2026-01-03 03:43:35.94	336.25	27.66	-48.5	-50.6	15.2	0.00e+00	0	56	0	676331520	59	4672
2026-01-03 03:43:36.93	335.93	27.65	-48.6	-50.7	15.1	0.00e+00	0	56	0	678428672	59	4709
2026-01-03 03:43:37.92	335.62	27.64	-48.6	-50.7	15.1	7.00e-07	0	56	0	680525824	59	4727
2026-01-03 03:43:38.91	335.30	27.63	-48.4	-50.5	15.3	7.00e-07	0	56	0	681574400	59	4603
2026-01-03 03:43:39.90	334.99	27.63	-48.3	-50.3	15.5	7.00e-07	0	56	0	683671552	59	4504
2026-01-03 03:43:40.89	334.68	27.62	-48.4	-50.4	15.4	0.00e+00	0	56	0	685768704	59	4566
2026-01-03 03:43:41.88	334.36	27.61	-48.3	-50.3	15.5	0.00e+00	0	56	0	687865856	59	4503
2026-01-03 03:43:42.87	334.05	27.59	-48.5	-50.6	15.2	0.00e+00	0	56	0	688914432	59	4672
2026-01-03 03:43:43.86	333.74	27.58	-48.4	-50.4	15.4	0.00e+00	0	56	0	691011584	59	4558
2026-01-03 03:43:44.85	333.42	27.57	-48.3	-50.2	15.5	0.00e+00	0	56	0	693108736	59	4475
2026-01-03 03:43:45.84	333.11	27.55	-48.2	-50.1	15.6	0.00e+00	0	56	0	695205888	59	4424
2026-01-03 03:43:46.83	332.80	27.54	-48.2	-50.2	15.6	0.00e+00	0	56	0	697303040	59	4473
2026-01-03 03:43:47.82	332.49	27.52	-48.1	-49.9	15.9	0.00e+00	0	56	0	698351616	59	4330
2026-01-03 03:43:48.81	332.18	27.51	-47.9	-49.7	16.1	0.00e+00	0	56	0	700448768	58	4489
2026-01-03 03:43:49.81	331.86	27.49	-47.9	-49.7	16.1	0.00e+00	0	56	0	702545920	58	4468
2026-01-03 03:43:50.80	331.55	27.47	-47.9	-49.8	16.0	0.00e+00	0	56	0	704643072	58	4516
2026-01-03 03:43:51.79	331.24	27.45	-47.9	-49.7	16.1	0.00e+00	0	56	0	705691648	58	4466
2026-01-03 03:43:52.77	330.93	27.43	-47.8	-49.5	16.3	0.00e+00	0	56	0	707788800	58	4375
2026-01-03 03:43:53.76	330.62	27.41	-47.8	-49.5	16.3	0.00e+00	0	56	0	709885952	58	4355
2026-01-03 03:43:54.75	330.31	27.38	-47.9	-49.7	16.2	0.00e+00	0	56	0	711983104	58	4442
2026-01-03 03:43:55.75	330.00	27.36	-47.9	-49.7	16.1	0.00e+00	0	56	0	713031680	58	4449
2026-01-03 03:43:56.73	329.70	27.34	-47.8	-49.6	16.1	0.00e+00	0	56	0	715128832	58	4435
2026-01-03 03:43:57.72	329.39	27.31	-48.0	-49.8	16.0	0.00e+00	0	56	0	717225984	58	4517
2026-01-03 03:43:58.71	329.08	27.28	-48.4	-50.4	15.4	0.00e+00	0	56	0	719323136	58	4816
2026-01-03 03:43:59.70	328.77	27.26	-48.2	-50.2	15.6	0.00e+00	0	56	0	720371712	58	4713
2026-01-03 03:44:00.69	328.47	27.23	-47.8	-49.6	16.2	0.00e+00	0	56	0	722468864	58	4406
2026-01-03 03:44:01.68	328.16	27.20	-47.6	-49.3	16.4	0.00e+00	0	56	0	724566016	58	4271
2026-01-03 03:44:02.67	327.86	27.17	-47.6	-49.2	16.6	0.00e+00	0	56	0	726663168	58	4227
2026-01-03 03:44:03.66	327.55	27.14	-47.6	-49.3	16.5	0.00e+00	0	56	0	728760320	58	4248
2026-01-03 03:44:04.65	327.25	27.11	-47.8	-49.6	16.2	0.00e+00	0	56	0	729808896	58	4401
2026-01-03 03:44:05.65	326.94	27.08	-47.8	-49.6	16.2	0.00e+00	0	56	0	731906048	58	4395
2026-01-03 03:44:06.64	326.64	27.04	-48.0	-49.8	16.0	0.00e+00	0	56	0	734003200	58	4509
2026-01-03 03:44:07.62	326.34	27.01	-48.0	-49.8	16.0	0.00e+00	0	56	0	736100352	58	4521
2026-01-03 03:44:08.61	326.04	26.97	-47.9	-49.8	16.0	0.00e+00	0	56	0	737148928	58	4496
2026-01-03 03:44:09.60	325.74	26.94	-48.1	-50.0	15.8	0.00e+00	0	56	0	739246080	58	4620
2026-01-03 03:44:10.59	325.44	26.90	-48.1	-50.0	15.8	0.00e+00	0	56	0	741343232	58	4630
2026-01-03 03:44:11.58	325.14	26.86	-48.1	-50.0	15.8	0.00e+00	0	56	0	743440384	58	4635
2026-01-03 03:44:12.57	324.84	26.83	-48.3	-50.3	15.5	0.00e+00	0	56	0	745537536	58	4792
2026-01-03 03:44:13.56	324.54	26.79	-48.4	-50.4	15.4	0.00e+00	0	56	0	746586112	58	4860
2026-01-03 03:44:14.55	324.24	26.75	-48.5	-50.6	15.2	0.00e+00	0	56	0	748683264	58	4942
2026-01-03 03:44:15.54	323.95	26.71	-48.5	-50.6	15.2	0.00e+00	0	56	0	750780416	59	4672
2026-01-03 03:44:16.53	323.65	26.67	-48.4	-50.4	15.4	0.00e+00	0	56	0	752877568	59	4590
2026-01-03 03:44:17.53	323.35	26.62	-48.5	-50.6	15.2	0.00e+00	0	56	0	753926144	59	4669
2026-01-03 03:44:18.52	323.06	26.58	-48.5	-50.5	15.3	0.00e+00	0	56	0	756023296	59	4624
2026-01-03 03:44:19.51	322.76	26.54	-48.4	-50.3	15.4	0.00e+00	0	56	0	758120448	59	4535
2026-01-03 03:44:20.50	322.47	26.49	-48.3	-50.2	15.6	0.00e+00	0	56	0	760217600	59	4475
2026-01-03 03:44:21.49	322.18	26.45	-48.3	-50.2	15.6	0.00e+00	0	56	0	761266176	59	4467
2026-01-03 03:44:22.48	321.89	26.40	-48.4	-50.5	15.3	0.00e+00	0	56	0	763363328	59	4599
2026-01-03 03:44:23.47	321.60	26.36	-48.5	-50.6	15.2	0.00e+00	0	56	0	765460480	59	4658
2026-01-03 03:44:24.46	321.31	26.31	-48.5	-50.6	15.2	0.00e+00	0	56	0	767557632	59	4688
2026-01-03 03:44:25.45	321.02	26.26	-48.6	-50.8	15.0	0.00e+00	0	56	0	769654784	59	4776
2026-01-03 03:44:26.44	320.73	26.21	-48.6	-50.7	15.0	0.00e+00	0	56	0	770703360	59	4758
2026-01-03 03:44:27.43	320.45	26.16	-48.9	-51.2	14.6	0.00e+00	0	56	0	772800512	59	4988
2026-01-03 03:44:28.42	320.16	26.11	-48.9	-51.3	14.5	1.50e-06	0	56	0	774897664	59	5046
2026-01-03 03:44:29.41	319.88	26.06	-49.0	-51.4	14.4	0.00e+00	0	56	0	776994816	59	5147
2026-01-03 03:44:30.40	319.59	26.01	-49.3	-51.8	13.9	1.50e-06	0	56	0	778043392	60	5095
2026-01-03 03:44:31.39	319.31	25.96	-49.3	-52.0	13.8	5.30e-06	0	56	0	780140544	60	5172
2026-01-03 03:44:32.37	319.03	25.90	-49.2	-51.8	14.0	2.20e-06	0	56	0	782237696	60	5043
2026-01-03 03:44:33.37	318.75	25.85	-49.1	-51.6	14.2	3.00e-06	0	56	0	784334848	60	4927
2026-01-03 03:44:34.36	318.47	25.80	-49.1	-51.6	14.2	7.00e-07	0	56	0	786432000	60	4928
2026-01-03 03:44:35.35	318.19	25.74	-49.2	-51.7	14.2	7.00e-07	0	56	0	787480576	60	4994
2026-01-03 03:44:36.33	317.91	25.69	-49.2	-51.8	14.0	1.50e-06	0	56	0	789577728	60	5051
2026-01-03 03:44:37.32	317.64	25.63	-49.0	-51.4	14.4	7.00e-07	0	56	0	791674880	60	4832
2026-01-03 03:44:38.31	317.36	25.57	-49.0	-51.4	14.4	0.00e+00	0	56	0	793772032	60	4825
2026-01-03 03:44:39.30	317.08	25.52	-49.0	-51.4	14.4	0.00e+00	0	56	0	794820608	60	4832
2026-01-03 03:44:40.28	316.81	25.46	-49.1	-51.5	14.3	0.00e+00	0	56	0	796917760	60	4874
2026-01-03 03:44:41.27	316.54	25.40	-49.1	-51.6	14.2	1.50e-06	0	56	0	799014912	60	4954
2026-01-03 03:44:42.27	316.27	25.34	-49.1	-51.5	14.3	1.50e-06	0	56	0	801112064	60	4894
2026-01-03 03:44:43.25	316.00	25.28	-49.0	-51.4	14.3	7.00e-07	0	56	0	802160640	60	4857
2026-01-03 03:44:44.24	315.73	25.22	-49.1	-51.6	14.3	7.00e-07	0	56	0	804257792	60	4928
2026-01-03 03:44:45.23	315.46	25.16	-48.8	-51.2	14.6	1.50e-06	0	56	0	806354944	60	4733
2026-01-03 03:44:46.22	315.19	25.10	-48.7	-51.0	14.8	0.00e+00	0	56	0	808452096	60	4603
2026-01-03 03:44:47.21	314.92	25.04	-48.7	-50.9	14.9	0.00e+00	0	56	0	810549248	60	4562
2026-01-03 03:44:48.20	314.66	24.98	-48.8	-51.1	14.6	0.00e+00	0	56	0	811597824	60	4664
2026-01-03 03:44:49.19	314.39	24.91	-48.9	-51.3	14.5	1.50e-06	0	56	0	813694976	60	4768
2026-01-03 03:44:50.18	314.13	24.85	-48.8	-51.1	14.6	0.00e+00	0	56	0	815792128	60	4680
2026-01-03 03:44:51.17	313.87	24.78	-48.9	-51.3	14.4	7.00e-07	0	56	0	817889280	60	4809
2026-01-03 03:44:52.14	313.61	24.72	-49.1	-51.5	14.2	2.20e-06	0	56	0	818937856	60	4920
2026-01-03 03:44:53.14	313.35	24.66	-49.0	-51.4	14.3	2.20e-06	0	56	0	821035008	60	4833
2026-01-03 03:44:54.13	313.09	24.59	-49.0	-51.4	14.3	0.00e+00	0	56	0	823132160	60	4859
2026-01-03 03:44:55.12	312.83	24.52	-49.1	-51.6	14.1	2.20e-06	0	56	0	825229312	60	4954
2026-01-03 03:44:56.12	312.57	24.46	-49.2	-51.8	13.9	3.00e-06	0	56	0	826277888	60	5066
2026-01-03 03:44:57.10	312.31	24.39	-49.0	-51.4	14.3	0.00e+00	0	56	0	828375040	60	4847
2026-01-03 03:44:58.09	312.06	24.32	-48.9	-51.2	14.5	0.00e+00	0	56	0	830472192	60	4714
2026-01-03 03:44:59.08	311.81	24.26	-48.8	-51.1	14.7	2.20e-06	0	56	0	832569344	60	4655
2026-01-03 03:45:00.07	311.55	24.19	-49.0	-51.3	14.4	7.00e-07	0	56	0	833617920	60	4811
2026-01-03 03:45:01.06	311.30	24.12	-49.1	-51.6	14.1	4.50e-06	0	56	0	835715072	60	4955
2026-01-03 03:45:02.05	311.05	24.05	-49.0	-51.3	14.4	0.00e+00	0	56	0	837812224	60	4802
2026-01-03 03:45:03.04	310.80	23.98	-49.0	-51.5	14.2	7.00e-07	0	56	0	839909376	60	4895
2026-01-03 03:45:04.02	310.56	23.91	-49.1	-51.7	14.0	2.20e-06	0	56	0	842006528	60	5020
2026-01-03 03:45:05.02	310.31	23.84	-48.9	-51.2	14.6	0.00e+00	0	56	0	843055104	60	4716
2026-01-03 03:45:06.01	310.06	23.77	-48.6	-50.7	15.0	1.50e-06	0	56	0	845152256	60	4476
2026-01-03 03:45:07.00	309.81	23.70	-48.4	-50.4	15.4	0.00e+00	0	56	0	847249408	59	4580
2026-01-03 03:45:07.99	309.57	23.63	-48.4	-50.4	15.4	0.00e+00	0	56	0	849346560	59	4548
2026-01-03 03:45:08.98	309.33	23.56	-48.4	-50.3	15.4	0.00e+00	0	56	0	850395136	59	4536
2026-01-03 03:45:09.97	309.09	23.49	-48.4	-50.5	15.3	0.00e+00	0	56	0	852492288	59	4625
2026-01-03 03:45:10.96	308.84	23.41	-48.3	-50.2	15.5	0.00e+00	0	56	0	854589440	59	4492
2026-01-03 03:45:11.95	308.61	23.34	-48.2	-50.1	15.7	0.00e+00	0	56	0	856686592	59	4408
2026-01-03 03:45:12.95	308.36	23.27	-48.1	-49.9	15.8	0.00e+00	0	56	0	857735168	59	4334
2026-01-03 03:45:13.94	308.13	23.19	-47.8	-49.7	16.0	0.00e+00	0	56	0	859832320	58	4481
2026-01-03 03:45:14.93	307.89	23.12	-47.9	-49.7	16.1	0.00e+00	0	56	0	861929472	58	4444
2026-01-03 03:45:15.92	307.66	23.04	-48.1	-49.9	15.9	0.00e+00	0	56	0	864026624	58	4579
2026-01-03 03:45:16.91	307.42	22.97	-48.1	-49.9	15.8	0.00e+00	0	56	0	866123776	58	4596
2026-01-03 03:45:17.91	307.19	22.90	-48.0	-49.9	15.8	0.00e+00	0	56	0	867172352	58	4558
2026-01-03 03:45:18.89	306.96	22.82	-48.0	-49.9	15.9	0.00e+00	0	56	0	869269504	58	4565
2026-01-03 03:45:19.88	306.73	22.75	-48.1	-50.0	15.8	0.00e+00	0	56	0	871366656	58	4610
2026-01-03 03:45:20.87	306.50	22.67	-48.2	-50.2	15.5	0.00e+00	0	56	0	873463808	58	4757
2026-01-03 03:45:21.86	306.27	22.59	-48.1	-50.0	15.7	0.00e+00	0	56	0	874512384	58	4640
2026-01-03 03:45:22.85	306.04	22.52	-48.4	-50.4	15.3	0.00e+00	0	56	0	876609536	58	4862
2026-01-03 03:45:23.84	305.82	22.44	-48.1	-50.0	15.7	0.00e+00	0	56	0	878706688	58	4650
2026-01-03 03:45:24.83	305.59	22.37	-47.9	-49.7	16.1	0.00e+00	0	56	0	880803840	58	4456
2026-01-03 03:45:25.81	305.37	22.29	-47.7	-49.4	16.3	0.00e+00	0	56	0	882900992	58	4326
2026-01-03 03:45:26.81	305.15	22.21	-47.6	-49.4	16.4	0.00e+00	0	56	0	883949568	58	4295
2026-01-03 03:45:27.79	304.93	22.14	-47.7	-49.4	16.3	0.00e+00	0	56	0	886046720	58	4315
2026-01-03 03:45:28.78	304.71	22.06	-47.7	-49.4	16.3	0.00e+00	0	56	0	888143872	58	4330
2026-01-03 03:45:29.77	304.49	21.98	-47.7	-49.5	16.3	0.00e+00	0	56	0	890241024	58	4342
2026-01-03 03:45:30.76	304.27	21.90	-47.7	-49.5	16.3	0.00e+00	0	56	0	891289600	58	4362
2026-01-03 03:45:31.75	304.05	21.82	-47.8	-49.6	16.1	0.00e+00	0	56	0	893386752	58	4429
2026-01-03 03:45:32.75	303.83	21.75	-47.7	-49.4	16.3	0.00e+00	0	56	0	895483904	58	4334
2026-01-03 03:45:33.73	303.62	21.67	-47.5	-49.2	16.5	0.00e+00	0	56	0	897581056	58	4231
2026-01-03 03:45:34.72	303.41	21.59	-47.5	-49.1	16.6	0.00e+00	0	56	0	898629632	58	4188
2026-01-03 03:45:35.71	303.19	21.51	-47.5	-49.2	16.5	0.00e+00	0	56	0	900726784	58	4216
2026-01-03 03:45:36.70	302.98	21.43	-47.4	-49.1	16.6	0.00e+00	0	56	0	902823936	58	4150
2026-01-03 03:45:37.69	302.77	21.35	-47.5	-49.1	16.5	0.00e+00	0	56	0	904921088	57	4439
2026-01-03 03:45:38.68	302.56	21.27	-47.3	-48.9	16.8	0.00e+00	0	56	0	907018240	57	4325
2026-01-03 03:45:39.68	302.35	21.19	-47.2	-48.7	16.9	0.00e+00	0	57	0	908066816	57	4239
2026-01-03 03:45:40.67	302.14	21.11	-47.1	-48.7	17.0	0.00e+00	0	56	0	910163968	57	4209
2026-01-03 03:45:41.66	301.94	21.03	-47.1	-48.6	17.1	0.00e+00	0	56	0	912261120	57	4176
2026-01-03 03:45:42.65	301.73	20.95	-47.1	-48.6	17.1	0.00e+00	0	56	0	914358272	57	4148
2026-01-03 03:45:43.64	301.53	20.87	-47.1	-48.7	17.0	0.00e+00	0	57	0	915406848	57	4231
2026-01-03 03:45:44.63	301.33	20.79	-47.1	-48.7	17.0	0.00e+00	0	57	0	917504000	57	4224
2026-01-03 03:45:45.62	301.12	20.71	-47.3	-48.9	16.8	0.00e+00	0	57	0	919601152	57	4305
2026-01-03 03:45:46.60	300.93	20.63	-47.2	-48.8	16.9	0.00e+00	0	56	0	921698304	57	4250
2026-01-03 03:45:47.60	300.72	20.55	-47.2	-48.7	17.0	0.00e+00	0	57	0	922746880	57	4208
2026-01-03 03:45:48.58	300.53	20.47	-47.2	-48.7	17.0	0.00e+00	0	56	0	924844032	57	4221
2026-01-03 03:45:49.57	300.33	20.39	-47.3	-48.9	16.8	0.00e+00	0	56	0	926941184	57	4315
2026-01-03 03:45:50.56	300.13	20.31	-47.3	-48.8	16.8	0.00e+00	0	57	0	929038336	57	4291
2026-01-03 03:45:51.55	299.94	20.23	-47.3	-48.9	16.8	0.00e+00	0	56	0	931135488	57	4306
2026-01-03 03:45:52.54	299.74	20.15	-47.3	-48.9	16.7	0.00e+00	0	56	0	932184064	57	4334
2026-01-03 03:45:53.52	299.55	20.07	-47.6	-49.3	16.3	0.00e+00	0	56	0	934281216	57	4532
2026-01-03 03:45:54.51	299.36	19.99	-47.6	-49.3	16.4	0.00e+00	0	56	0	936378368	57	4505
2026-01-03 03:45:55.51	299.17	19.90	-47.2	-48.7	16.9	0.00e+00	0	56	0	938475520	57	4225
2026-01-03 03:45:56.49	298.98	19.82	-46.9	-48.4	17.3	0.00e+00	0	56	0	939524096	57	4079
2026-01-03 03:45:57.48	298.79	19.74	-46.8	-48.3	17.4	0.00e+00	0	56	0	941621248	56	4248
2026-01-03 03:45:58.48	298.60	19.66	-46.9	-48.4	17.3	0.00e+00	0	56	0	943718400	56	4295
2026-01-03 03:45:59.47	298.41	19.58	-46.8	-48.3	17.4	0.00e+00	0	56	0	945815552	56	4243
2026-01-03 03:46:00.46	298.22	19.50	-46.8	-48.2	17.5	0.00e+00	0	56	0	947912704	56	4208
2026-01-03 03:46:01.45	298.04	19.41	-46.7	-48.2	17.5	0.00e+00	0	56	0	948961280	56	4201
2026-01-03 03:46:02.44	297.85	19.33	-46.7	-48.2	17.4	0.00e+00	0	57	0	951058432	56	4220
2026-01-03 03:46:03.43	297.67	19.25	-46.9	-48.4	17.2	0.00e+00	0	56	0	953155584	56	4323
2026-01-03 03:46:04.42	297.49	19.17	-46.9	-48.5	17.1	0.00e+00	0	56	0	955252736	56	4358
2026-01-03 03:46:05.42	297.31	19.09	-47.0	-48.6	17.1	0.00e+00	0	56	0	956301312	56	4399
2026-01-03 03:46:06.41	297.12	19.00	-47.2	-48.8	16.8	0.00e+00	0	56	0	958398464	56	4514
2026-01-03 03:46:07.40	296.95	18.92	-47.3	-48.9	16.8	0.00e+00	0	56	0	960495616	56	4559
2026-01-03 03:46:08.39	296.77	18.84	-47.1	-48.6	17.0	0.00e+00	0	56	0	962592768	56	4439
2026-01-03 03:46:09.38	296.59	18.76	-47.1	-48.6	17.0	0.00e+00	0	56	0	963641344	56	4420
2026-01-03 03:46:10.36	296.41	18.68	-47.1	-48.6	17.1	0.00e+00	0	57	0	965738496	56	4409
2026-01-03 03:46:11.34	296.24	18.60	-47.1	-48.7	16.9	0.00e+00	0	56	0	967835648	56	4472
2026-01-03 03:46:12.33	296.07	18.51	-47.2	-48.8	16.8	0.00e+00	0	56	0	969932800	56	4526
2026-01-03 03:46:13.32	295.89	18.43	-46.9	-48.5	17.1	0.00e+00	0	56	0	970981376	56	4376
2026-01-03 03:46:14.31	295.72	18.35	-46.8	-48.4	17.3	0.00e+00	0	57	0	973078528	56	4297
2026-01-03 03:46:15.29	295.55	18.27	-46.8	-48.4	17.3	0.00e+00	0	56	0	975175680	56	4300
2026-01-03 03:46:16.28	295.38	18.19	-46.9	-48.5	17.1	0.00e+00	0	57	0	977272832	56	4358
2026-01-03 03:46:17.27	295.21	18.11	-47.0	-48.6	17.0	0.00e+00	0	56	0	979369984	56	4433
2026-01-03 03:46:18.27	295.04	18.02	-47.0	-48.6	17.0	0.00e+00	0	56	0	980418560	56	4432
2026-01-03 03:46:19.26	294.87	17.94	-47.1	-48.7	16.8	0.00e+00	0	56	0	982515712	56	4487
2026-01-03 03:46:20.26	294.70	17.86	-47.1	-48.7	16.8	0.00e+00	0	56	0	984612864	56	4491
2026-01-03 03:46:21.24	294.54	17.78	-47.3	-48.9	16.7	0.00e+00	0	56	0	986710016	56	4576
2026-01-03 03:46:22.23	294.37	17.69	-47.1	-48.7	16.9	0.00e+00	0	56	0	987758592	56	4490
2026-01-03 03:46:23.22	294.21	17.61	-47.1	-48.6	17.0	0.00e+00	0	56	0	989855744	56	4413
2026-01-03 03:46:24.21	294.04	17.53	-47.0	-48.6	17.0	0.00e+00	0	56	0	991952896	56	4402
2026-01-03 03:46:25.19	293.88	17.45	-47.0	-48.6	17.0	0.00e+00	0	57	0	994050048	56	4396
2026-01-03 03:46:26.19	293.72	17.37	-47.1	-48.6	17.0	0.00e+00	0	56	0	995098624	56	4426
2026-01-03 03:46:27.17	293.56	17.29	-47.2	-48.9	16.7	0.00e+00	0	57	0	997195776	56	4546
2026-01-03 03:46:28.15	293.40	17.21	-47.3	-49.0	16.6	0.00e+00	0	56	0	999292928	56	4623
2026-01-03 03:46:29.14	293.24	17.12	-47.6	-49.3	16.2	0.00e+00	0	56	0	1001390080	57	4534
2026-01-03 03:46:30.11	293.09	17.04	-47.6	-49.4	16.1	0.00e+00	0	56	0	1003487232	57	4585
2026-01-03 03:46:31.10	292.93	16.96	-47.9	-49.8	15.7	0.00e+00	0	57	0	1004535808	57	4795
2026-01-03 03:46:32.09	292.78	16.88	-48.0	-50.0	15.4	0.00e+00	0	57	0	1006632960	57	4904
2026-01-03 03:46:33.08	292.62	16.80	-48.3	-50.4	15.0	0.00e+00	0	57	0	1008730112	58	4840
2026-01-03 03:46:34.07	292.46	16.72	-48.2	-50.4	15.0	0.00e+00	0	56	0	1010827264	58	4844
2026-01-03 03:46:35.07	292.31	16.64	-48.4	-50.8	14.5	0.00e+00	0	56	0	1011875840	58	5069
2026-01-03 03:46:36.06	292.16	16.55	-48.5	-50.9	14.3	2.20e-06	0	56	0	1013972992	58	5115
2026-01-03 03:46:37.05	292.00	16.47	-48.6	-51.1	14.1	2.20e-06	0	57	0	1016070144	59	4934
2026-01-03 03:46:38.05	291.85	16.39	-48.9	-51.6	13.5	4.50e-06	0	56	0	1018167296	59	5232
2026-01-03 03:46:39.04	291.70	16.31	-49.1	-52.1	12.8	3.12e-05	0	56	0	1019215872	60	5250
2026-01-03 03:46:40.03	291.55	16.23	-49.1	-52.1	12.8	5.41e-05	0	56	0	1021313024	60	5238
2026-01-03 03:46:41.01	291.40	16.15	-49.2	-52.3	12.5	1.03e-04	0	57	0	1023410176	60	5373
2026-01-03 03:46:42.01	291.25	16.07	-49.4	-52.8	11.9	2.38e-04	0	57	0	1025507328	60	5713
2026-01-03 03:46:43.00	291.11	15.99	-49.4	-52.9	11.7	4.32e-04	0	57	0	1026555904	60	5768
2026-01-03 03:46:43.98	290.96	15.91	-49.5	-53.3	11.2	8.27e-04	0	57	0	1028653056	60	6014
2026-01-03 03:46:44.97	290.82	15.83	-49.5	-53.4	11.1	1.68e-03	0	57	0	1030750208	60	6086
2026-01-03 03:46:45.96	290.67	15.75	-49.6	-53.7	10.7	2.58e-03	0	56	0	1032847360	60	6275
2026-01-03 03:46:46.95	290.53	15.67	-49.6	-53.9	10.3	3.74e-03	0	56	0	1034944512	61	6100
2026-01-03 03:46:47.93	290.39	15.59	-49.8	-54.4	9.8	6.08e-03	0	56	0	1035993088	61	6432
2026-01-03 03:46:48.92	290.24	15.51	-49.9	-54.7	9.5	1.29e-02	0	57	0	1038090240	61	6647
2026-01-03 03:46:49.91	290.10	15.42	-50.0	-55.1	9.0	2.15e-02	0	57	0	1040187392	61	6997
2026-01-03 03:46:50.91	289.96	15.34	-50.0	-55.2	8.8	2.86e-02	0	57	0	1042284544	61	7086
2026-01-03 03:46:51.90	289.82	15.26	-50.0	-55.5	8.4	3.67e-02	0	57	0	1043333120	61	7359
2026-01-03 03:46:52.88	289.68	15.18	-50.1	-55.7	8.3	5.21e-02	0	57	0	1045430272	62	7051
2026-01-03 03:46:53.87	289.54	15.10	-50.2	-56.0	7.9	6.03e-02	0	57	0	1047527424	62	7306
2026-01-03 03:46:54.86	289.40	15.02	-50.1	-56.1	7.7	8.00e-02	0	56	0	1049624576	62	7439
2026-01-03 03:46:55.85	289.27	14.95	-50.2	-56.3	7.6	9.07e-02	0	57	0	1051721728	62	7556
2026-01-03 03:46:56.84	289.13	14.87	-50.3	-56.6	7.3	1.15e-01	0	57	0	1052770304	62	7850
2026-01-03 03:46:57.84	288.99	14.79	-50.3	-56.9	7.0	1.45e-01	0	56	0	1054867456	62	8123
2026-01-03 03:46:58.82	288.86	14.71	-50.3	-57.1	6.8	1.70e-01	0	57	0	1056964608	62	8299
2026-01-03 03:46:59.81	288.73	14.63	-50.4	-57.3	6.6	2.13e-01	0	57	0	1059061760	62	8507
2026-01-03 03:47:00.81	288.59	14.55	-50.4	-57.4	6.5	2.30e-01	0	57	0	1060110336	62	8588
2026-01-03 03:47:01.79	288.46	14.47	-50.4	-57.6	6.3	2.45e-01	0	57	0	1062207488	62	8781
2026-01-03 03:47:02.78	288.33	14.39	-50.4	-57.6	6.2	2.77e-01	0	57	0	1064304640	62	8814
2026-01-03 03:47:03.78	288.19	14.31	-50.3	-57.5	6.3	2.69e-01	0	57	0	1066401792	62	8736
2026-01-03 03:47:04.77	288.06	14.23	-50.3	-57.6	6.2	2.79e-01	0	57	0	1067450368	62	8781
2026-01-03 03:47:05.76	287.93	14.15	-50.4	-57.8	6.0	3.06e-01	0	57	0	1069547520	62	9047
2026-01-03 03:47:06.75	287.80	14.07	-50.4	-57.9	5.9	3.46e-01	0	57	0	1071644672	62	9166
2026-01-03 03:47:07.74	287.68	14.00	-50.4	-58.1	5.8	3.79e-01	0	57	0	1073741824	62	9380
2026-01-03 03:47:08.73	287.55	13.92	-50.4	-58.2	5.7	4.16e-01	0	57	0	1075838976	62	9435
2026-01-03 03:47:09.72	287.42	13.84	-50.4	-58.4	5.5	4.16e-01	0	57	0	1076887552	62	9681
2026-01-03 03:47:10.71	287.30	13.76	-50.5	-58.5	5.5	5.01e-01	0	56	0	1078984704	62	9827
2026-01-03 03:47:11.71	287.17	13.68	-50.4	-58.6	5.4	4.98e-01	0	57	0	1081081856	62	9921
2026-01-03 03:47:12.69	287.04	13.60	-50.4	-58.6	5.4	5.34e-01	0	57	0	1083179008	62	9896
2026-01-03 03:47:13.68	286.92	13.53	-50.3	-58.1	5.7	4.71e-01	0	57	0	1084227584	62	9377
2026-01-03 03:47:14.67	286.80	13.45	-50.3	-57.5	6.2	3.22e-01	0	57	0	1086324736	62	8755
2026-01-03 03:47:15.66	286.67	13.37	-50.1	-57.1	6.6	2.42e-01	0	57	0	1088421888	62	8280
2026-01-03 03:47:16.66	286.55	13.29	-50.1	-56.6	7.0	1.82e-01	0	57	0	1090519040	62	7889
2026-01-03 03:47:17.65	286.43	13.22	-50.0	-56.5	7.2	1.34e-01	0	57	0	1092616192	62	7744
2026-01-03 03:47:18.65	286.31	13.14	-50.1	-56.4	7.3	1.20e-01	0	57	0	1093664768	62	7658
2026-01-03 03:47:19.63	286.19	13.06	-50.1	-56.2	7.6	1.11e-01	0	57	0	1095761920	62	7465
2026-01-03 03:47:20.62	286.07	12.98	-50.0	-55.7	8.1	8.38e-02	0	57	0	1097859072	62	7067
2026-01-03 03:47:21.62	285.95	12.91	-50.0	-55.3	8.6	4.50e-02	0	57	0	1099956224	62	6791
2026-01-03 03:47:22.61	285.83	12.83	-49.9	-55.1	8.9	3.16e-02	0	57	0	1101004800	62	6582
2026-01-03 03:47:23.59	285.71	12.75	-49.9	-54.8	9.3	2.16e-02	0	57	0	1103101952	62	6383
2026-01-03 03:47:24.58	285.59	12.68	-49.9	-54.6	9.6	1.58e-02	0	57	0	1105199104	62	6241
2026-01-03 03:47:25.57	285.48	12.60	-49.9	-54.5	9.8	1.04e-02	0	57	0	1107296256	62	6173
2026-01-03 03:47:26.57	285.36	12.52	-49.9	-54.3	10.0	8.95e-03	0	57	0	1108344832	62	6051
2026-01-03 03:47:27.56	285.24	12.45	-49.8	-54.0	10.4	6.26e-03	0	57	0	1110441984	62	5827
2026-01-03 03:47:28.54	285.13	12.37	-49.8	-53.9	10.6	4.09e-03	0	57	0	1112539136	62	5744
2026-01-03 03:47:29.53	285.02	12.30	-49.7	-53.9	10.7	3.02e-03	0	57	0	1114636288	62	5734
2026-01-03 03:47:30.51	284.90	12.22	-49.9	-54.0	10.7	2.97e-03	0	57	0	1116733440	62	5789
2026-01-03 03:47:31.50	284.79	12.14	-49.9	-54.2	10.5	3.54e-03	0	57	0	1117782016	62	5928
2026-01-03 03:47:32.49	284.68	12.07	-50.0	-54.2	10.5	4.84e-03	0	57	0	1119879168	62	5943
2026-01-03 03:47:33.48	284.57	11.99	-49.9	-53.9	10.9	2.35e-03	0	57	0	1121976320	62	5742
2026-01-03 03:47:34.47	284.46	11.92	-49.8	-53.6	11.2	1.84e-03	0	57	0	1124073472	62	5570
2026-01-03 03:47:35.45	284.35	11.84	-49.7	-53.5	11.3	1.36e-03	0	57	0	1125122048	62	5490
2026-01-03 03:47:36.44	284.24	11.77	-49.7	-53.4	11.4	1.13e-03	0	57	0	1127219200	62	5421
2026-01-03 03:47:37.43	284.13	11.69	-49.7	-53.4	11.5	7.99e-04	0	57	0	1129316352	62	5405
2026-01-03 03:47:38.42	284.02	11.62	-49.7	-53.4	11.5	8.60e-04	0	57	0	1131413504	62	5414
2026-01-03 03:47:39.41	283.91	11.54	-49.6	-53.0	11.9	6.36e-04	0	56	0	1132462080	62	5208
2026-01-03 03:47:40.39	283.80	11.47	-49.4	-52.7	12.2	3.55e-04	0	57	0	1134559232	62	5037
2026-01-03 03:47:41.38	283.69	11.40	-49.4	-52.7	12.3	1.75e-04	0	57	0	1136656384	61	5303
2026-01-03 03:47:42.37	283.59	11.32	-49.5	-52.8	12.2	1.63e-04	0	57	0	1138753536	61	5360
2026-01-03 03:47:43.36	283.48	11.25	-49.5	-52.8	12.2	2.33e-04	0	57	0	1140850688	61	5359
2026-01-03 03:47:44.35	283.38	11.17	-49.3	-52.6	12.5	1.50e-04	0	57	0	1141899264	61	5223
2026-01-03 03:47:45.34	283.27	11.10	-49.4	-52.6	12.5	1.03e-04	0	57	0	1143996416	61	5229
2026-01-03 03:47:46.34	283.17	11.02	-49.4	-52.4	12.6	9.91e-05	0	57	0	1146093568	61	5154
2026-01-03 03:47:47.33	283.06	10.95	-49.4	-52.6	12.5	8.69e-05	0	57	0	1148190720	61	5232
2026-01-03 03:47:48.32	282.96	10.88	-49.4	-52.5	12.6	9.00e-05	0	57	0	1149239296	61	5190
2026-01-03 03:47:49.31	282.86	10.80	-49.4	-52.5	12.6	8.08e-05	0	57	0	1151336448	61	5188
2026-01-03 03:47:50.30	282.75	10.73	-49.4	-52.6	12.5	1.19e-04	0	57	0	1153433600	61	5279
2026-01-03 03:47:51.29	282.65	10.66	-49.6	-52.8	12.3	1.76e-04	0	57	0	1155530752	61	5393
2026-01-03 03:47:52.28	282.55	10.58	-49.6	-52.8	12.3	2.01e-04	0	57	0	1156579328	61	5362
2026-01-03 03:47:53.27	282.45	10.51	-49.4	-52.6	12.5	1.29e-04	0	57	0	1158676480	61	5273
2026-01-03 03:47:54.25	282.35	10.44	-49.5	-52.7	12.4	1.50e-04	0	57	0	1160773632	61	5300
2026-01-03 03:47:55.24	282.25	10.37	-49.5	-52.8	12.3	1.62e-04	0	57	0	1162870784	61	5379
2026-01-03 03:47:56.23	282.15	10.29	-49.6	-52.9	12.1	2.62e-04	0	57	0	1163919360	61	5452
2026-01-03 03:47:57.22	282.05	10.22	-49.5	-52.7	12.3	1.94e-04	0	57	0	1166016512	61	5317
2026-01-03 03:47:58.22	281.95	10.15	-49.4	-52.6	12.4	1.70e-04	0	57	0	1168113664	61	5265
2026-01-03 03:47:59.21	281.85	10.08	-49.5	-52.7	12.2	1.74e-04	0	57	0	1170210816	61	5332
2026-01-03 03:48:00.20	281.76	10.00	-49.5	-52.9	12.0	3.07e-04	0	57	0	1172307968	61	5432
2026-01-03 03:48:01.19	281.66	9.93	-49.6	-53.1	11.8	4.30e-04	0	57	0	1173356544	61	5534
2026-01-03 03:48:02.18	281.56	9.86	-49.5	-53.1	11.7	5.50e-04	0	57	0	1175453696	61	5557
2026-01-03 03:48:03.17	281.47	9.79	-49.7	-53.3	11.5	6.32e-04	0	57	0	1177550848	61	5682
2026-01-03 03:48:04.16	281.37	9.72	-49.8	-53.6	11.1	1.34e-03	0	57	0	1179648000	61	5891
2026-01-03 03:48:05.15	281.28	9.65	-49.7	-53.5	11.2	1.41e-03	0	57	0	1180696576	61	5825
2026-01-03 03:48:06.14	281.18	9.57	-49.9	-54.0	10.7	1.93e-03	0	57	0	1182793728	61	6172
2026-01-03 03:48:07.12	281.09	9.50	-49.9	-54.1	10.6	3.44e-03	0	57	0	1184890880	61	6223
2026-01-03 03:48:08.11	281.00	9.43	-50.0	-54.4	10.2	4.55e-03	0	57	0	1186988032	61	6424
2026-01-03 03:48:09.10	280.90	9.36	-50.0	-54.5	10.1	6.20e-03	0	57	0	1189085184	61	6505
2026-01-03 03:48:10.09	280.81	9.29	-50.1	-54.7	9.9	7.20e-03	0	57	0	1190133760	62	6315
2026-01-03 03:48:11.08	280.72	9.22	-50.2	-54.8	9.7	1.08e-02	0	57	0	1192230912	62	6415
2026-01-03 03:48:12.07	280.63	9.15	-50.1	-54.6	9.9	9.93e-03	0	57	0	1194328064	62	6255
2026-01-03 03:48:13.06	280.54	9.08	-50.3	-55.2	9.3	1.20e-02	0	57	0	1196425216	62	6669
2026-01-03 03:48:14.05	280.45	9.01	-50.1	-54.8	9.6	1.32e-02	0	57	0	1197473792	62	6359
2026-01-03 03:48:15.04	280.36	8.94	-50.3	-55.2	9.2	1.66e-02	0	57	0	1199570944	62	6703
2026-01-03 03:48:16.03	280.27	8.87	-50.2	-55.0	9.4	1.69e-02	0	57	0	1201668096	62	6515
2026-01-03 03:48:17.03	280.18	8.80	-49.9	-54.4	10.0	1.26e-02	0	57	0	1203765248	62	6089
2026-01-03 03:48:18.02	280.09	8.73	-49.8	-54.2	10.1	7.82e-03	0	57	0	1204813824	62	5957
2026-01-03 03:48:19.00	280.00	8.66	-49.7	-54.1	10.2	6.72e-03	0	57	0	1206910976	62	5861
2026-01-03 03:48:19.99	279.91	8.59	-49.9	-54.6	9.7	9.57e-03	0	57	0	1209008128	62	6218
2026-01-03 03:48:20.98	279.82	8.52	-50.0	-54.9	9.3	1.52e-02	0	57	0	1211105280	62	6431
2026-01-03 03:48:21.97	279.74	8.45	-49.9	-54.8	9.3	1.79e-02	0	57	0	1213202432	62	6419
2026-01-03 03:48:22.96	279.65	8.38	-50.0	-55.1	8.9	2.19e-02	0	57	0	1214251008	62	6645
2026-01-03 03:48:23.95	279.56	8.31	-50.0	-55.2	8.9	2.77e-02	0	57	0	1216348160	62	6674
2026-01-03 03:48:24.95	279.48	8.24	-50.0	-55.5	8.5	3.21e-02	0	57	0	1218445312	62	6882
2026-01-03 03:48:25.93	279.39	8.18	-50.0	-55.5	8.5	4.12e-02	0	57	0	1220542464	62	6932
2026-01-03 03:48:26.92	279.31	8.11	-50.1	-55.9	8.0	5.28e-02	0	57	0	1221591040	62	7272
2026-01-03 03:48:27.91	279.22	8.04	-49.9	-55.7	8.2	6.49e-02	0	57	0	1223688192	62	7058
2026-01-03 03:48:28.90	279.14	7.97	-50.2	-56.2	7.7	6.17e-02	0	57	0	1225785344	62	7517
2026-01-03 03:48:29.89	279.06	7.90	-50.0	-55.9	7.9	8.21e-02	0	57	0	1227882496	62	7278
2026-01-03 03:48:30.88	278.97	7.83	-50.2	-56.2	7.6	8.31e-02	0	57	0	1228931072	62	7496
2026-01-03 03:48:31.87	278.89	7.77	-50.1	-56.1	7.7	1.01e-01	0	57	0	1231028224	62	7402
2026-01-03 03:48:32.85	278.81	7.70	-50.1	-56.1	7.6	8.82e-02	0	57	0	1233125376	62	7415
2026-01-03 03:48:33.85	278.72	7.63	-50.1	-56.2	7.4	1.03e-01	0	57	0	1235222528	62	7528
2026-01-03 03:48:34.84	278.64	7.56	-50.1	-56.5	7.2	1.17e-01	0	57	0	1237319680	62	7736
2026-01-03 03:48:35.83	278.56	7.49	-50.1	-56.5	7.1	1.35e-01	0	57	0	1238368256	62	7774
2026-01-03 03:48:36.82	278.48	7.43	-50.0	-56.7	6.9	1.55e-01	0	57	0	1240465408	62	7923
