passes_logs/2026/01/03/R3.0SM8_Murmansk_STILSPACE/R3.0SM8_Murmansk_STILSPACE__20260103_221737_NOAA_20_JPSS-1_rec.log

#Pass ID: 20260103_221737_NOAA 20 (JPSS-1)
#Satellite: NOAA 20 (JPSS-1)
#Configuration: NOAA 20
#almurnet v.1.7.20240730
#Start time: 2026-01-03 22:17:37

#Version: 2.2.20231116
#Station: R3.0SM8_Murmansk_STILSPACE
#Location: 33.092731 lon 68.902999 lat
#TLE: 1 43013U 17073A   26003.41800368  .00000169  00000+0  10117-3 0  9998
#TLE: 2 43013  98.7624 304.4804 0001884  56.1176 304.0179 14.19532918421092

#Time	Az	El	Level	Level2	SNR	BER	BlckErr	Temp	State	Recorded	gain1	gain2
2026-01-03 22:17:37.59	20.11	3.02	-52.2	-66.1	3.8	1.49e+00	0	45	0	0	66	18518
2026-01-03 22:17:38.58	20.19	3.08	-52.2	-66.0	3.8	1.49e+00	0	45	104	0	67	17342
2026-01-03 22:17:39.57	20.26	3.13	-51.9	-66.0	3.8	1.49e+00	0	45	104	0	66	18362
2026-01-03 22:17:40.57	20.34	3.19	-52.0	-65.9	3.8	1.49e+00	0	46	104	0	66	18205
2026-01-03 22:17:41.56	20.41	3.25	-51.9	-65.8	3.8	1.49e+00	0	46	104	0	66	18018
2026-01-03 22:17:42.54	20.49	3.30	-51.9	-65.8	3.8	1.49e+00	0	46	104	0	66	17898
2026-01-03 22:17:43.54	20.57	3.36	-51.8	-65.6	3.8	1.49e+00	0	46	104	0	66	17572
2026-01-03 22:17:44.52	20.64	3.41	-51.5	-65.4	3.8	1.49e+00	0	46	104	0	66	17146
2026-01-03 22:17:45.50	20.72	3.47	-51.1	-64.9	3.8	1.49e+00	0	46	104	0	65	17202
2026-01-03 22:17:46.49	20.80	3.52	-51.1	-65.0	3.8	1.49e+00	0	46	104	0	65	17382
2026-01-03 22:17:47.48	20.87	3.58	-51.3	-65.1	3.8	1.49e+00	0	46	104	0	65	17510
2026-01-03 22:17:48.47	20.95	3.63	-51.3	-65.0	3.8	1.49e+00	0	46	104	0	65	17390
2026-01-03 22:17:49.45	21.03	3.69	-51.2	-65.0	3.8	1.49e+00	0	46	104	0	65	17368
2026-01-03 22:17:50.44	21.11	3.75	-51.2	-65.0	3.8	1.49e+00	0	47	104	0	65	17423
2026-01-03 22:17:51.44	21.19	3.80	-51.2	-65.0	3.8	1.49e+00	0	47	104	0	65	17411
2026-01-03 22:17:52.43	21.27	3.86	-51.2	-65.0	3.8	1.49e+00	0	46	104	0	65	17449
2026-01-03 22:17:53.42	21.35	3.92	-51.2	-64.9	3.8	1.49e+00	0	47	104	0	65	17232
2026-01-03 22:17:54.40	21.43	3.97	-51.2	-64.8	3.8	1.49e+00	0	47	104	0	65	17070
2026-01-03 22:17:55.39	21.50	4.03	-51.1	-64.9	3.8	1.49e+00	0	47	104	0	65	17192
2026-01-03 22:17:56.38	21.59	4.08	-51.0	-65.0	3.8	1.49e+00	0	47	104	0	65	17315
2026-01-03 22:17:57.37	21.67	4.14	-51.1	-65.0	3.8	1.49e+00	0	47	104	0	65	17325
2026-01-03 22:17:58.35	21.75	4.20	-51.2	-64.9	3.8	1.49e+00	0	47	104	0	65	17256
2026-01-03 22:17:59.34	21.83	4.25	-51.2	-64.9	3.8	1.49e+00	0	47	104	0	65	17263
2026-01-03 22:18:00.34	21.91	4.31	-51.1	-64.9	3.8	1.49e+00	0	47	104	0	65	17090
2026-01-03 22:18:01.33	21.99	4.37	-51.1	-64.9	3.8	1.49e+00	0	47	104	0	65	17243
2026-01-03 22:18:02.31	22.07	4.42	-51.2	-64.9	3.8	1.49e+00	0	47	104	0	65	17230
2026-01-03 22:18:03.30	22.15	4.48	-51.1	-65.0	3.8	1.49e+00	0	47	104	0	65	17355
2026-01-03 22:18:04.28	22.24	4.54	-51.1	-64.9	3.8	1.49e+00	0	48	104	0	65	17240
2026-01-03 22:18:05.27	22.32	4.60	-51.2	-64.8	3.8	1.49e+00	0	48	104	0	65	16982
2026-01-03 22:18:06.26	22.40	4.65	-51.1	-64.6	3.8	1.49e+00	0	47	104	0	65	16627
2026-01-03 22:18:07.25	22.48	4.71	-51.1	-64.3	3.8	1.49e+00	0	48	104	0	65	16057
2026-01-03 22:18:08.24	22.57	4.77	-51.0	-63.8	3.8	1.49e+00	0	48	104	0	65	15172
2026-01-03 22:18:09.23	22.65	4.83	-50.9	-62.8	3.8	1.49e+00	0	48	104	0	65	13468
2026-01-03 22:18:10.22	22.74	4.88	-51.0	-61.4	4.2	1.45e+00	0	48	0	0	64	12143
2026-01-03 22:18:11.21	22.82	4.94	-50.7	-59.5	5.0	1.09e+00	0	48	0	1048576	64	9746
2026-01-03 22:18:12.20	22.91	5.00	-50.6	-58.1	5.9	4.26e-01	0	48	0	3145728	64	8292
2026-01-03 22:18:13.19	22.99	5.06	-50.2	-56.7	7.2	1.93e-01	0	48	0	4194304	63	7510
2026-01-03 22:18:14.18	23.08	5.11	-50.3	-56.8	7.2	1.27e-01	0	48	0	6291456	63	7558
2026-01-03 22:18:15.18	23.16	5.17	-50.5	-57.0	7.0	1.63e-01	0	48	0	8388608	63	7734
2026-01-03 22:18:16.18	23.25	5.23	-50.2	-56.4	7.6	1.17e-01	0	48	0	10485760	63	7205
2026-01-03 22:18:17.16	23.34	5.29	-50.2	-56.2	7.7	8.39e-02	0	48	0	12582912	63	7108
2026-01-03 22:18:18.15	23.42	5.35	-50.1	-55.7	8.3	5.93e-02	0	48	0	13631488	63	6663
2026-01-03 22:18:19.14	23.51	5.41	-50.0	-55.2	8.8	3.74e-02	0	48	0	15728640	63	6309
2026-01-03 22:18:20.12	23.60	5.46	-49.8	-54.7	9.3	2.01e-02	0	48	0	17825792	62	6338
2026-01-03 22:18:21.11	23.69	5.52	-49.8	-54.7	9.3	1.93e-02	0	48	0	19922944	62	6303
2026-01-03 22:18:22.10	23.77	5.58	-49.7	-54.5	9.5	1.51e-02	0	49	0	20971520	62	6193
2026-01-03 22:18:23.08	23.86	5.64	-49.5	-53.8	10.2	6.43e-03	0	49	0	23068672	62	5714
2026-01-03 22:18:24.07	23.95	5.70	-49.3	-53.3	10.7	3.28e-03	0	49	0	25165824	61	5715
2026-01-03 22:18:25.06	24.04	5.76	-49.1	-52.8	11.3	1.58e-03	0	49	0	27262976	61	5384
2026-01-03 22:18:26.05	24.13	5.81	-48.9	-52.4	11.8	8.34e-04	0	49	0	29360128	60	5429
2026-01-03 22:18:27.04	24.22	5.87	-48.7	-52.1	12.0	4.08e-04	0	49	0	30408704	60	5274
2026-01-03 22:18:28.04	24.31	5.93	-48.5	-51.7	12.5	1.50e-04	0	49	0	32505856	60	4998
2026-01-03 22:18:29.02	24.40	5.99	-48.6	-51.9	12.3	1.40e-04	0	49	0	34603008	60	5137
2026-01-03 22:18:30.01	24.49	6.05	-48.7	-52.0	12.2	2.37e-04	0	49	0	36700160	60	5212
2026-01-03 22:18:30.99	24.58	6.11	-48.5	-51.7	12.5	1.32e-04	0	49	0	37748736	60	5010
2026-01-03 22:18:31.98	24.67	6.17	-48.4	-51.4	12.8	8.62e-05	0	49	0	39845888	59	5152
2026-01-03 22:18:32.97	24.77	6.23	-48.4	-51.4	12.9	5.87e-05	0	49	0	41943040	59	5129
2026-01-03 22:18:33.95	24.86	6.29	-48.5	-51.6	12.6	9.68e-05	0	49	0	44040192	59	5273
2026-01-03 22:18:34.94	24.95	6.35	-48.6	-51.6	12.7	8.39e-05	0	49	0	45088768	59	5229
2026-01-03 22:18:35.93	25.04	6.41	-48.5	-51.6	12.7	6.02e-05	0	49	0	47185920	59	5232
2026-01-03 22:18:36.91	25.14	6.46	-48.6	-51.7	12.6	9.07e-05	0	49	0	49283072	59	5291
2026-01-03 22:18:37.90	25.23	6.52	-48.6	-51.7	12.5	1.05e-04	0	49	0	51380224	59	5337
2026-01-03 22:18:38.90	25.32	6.58	-48.6	-51.8	12.5	1.35e-04	0	50	0	52428800	59	5368
2026-01-03 22:18:39.89	25.42	6.64	-48.8	-52.0	12.3	1.46e-04	0	50	0	54525952	59	5477
2026-01-03 22:18:40.88	25.51	6.70	-48.7	-52.0	12.3	1.69e-04	0	49	0	56623104	59	5474
2026-01-03 22:18:41.87	25.61	6.76	-48.9	-52.1	12.2	1.97e-04	0	50	0	58720256	59	5580
2026-01-03 22:18:42.86	25.71	6.82	-49.0	-52.4	11.9	2.81e-04	0	50	0	60817408	59	5748
2026-01-03 22:18:43.85	25.80	6.89	-49.0	-52.4	11.9	5.17e-04	0	50	0	61865984	59	5788
2026-01-03 22:18:44.84	25.90	6.95	-49.0	-52.5	11.8	4.16e-04	0	50	0	63963136	59	5792
2026-01-03 22:18:45.83	25.99	7.01	-49.1	-52.5	11.8	4.48e-04	0	50	0	66060288	59	5854
2026-01-03 22:18:46.82	26.09	7.07	-49.0	-52.6	11.7	5.85e-04	0	50	0	68157440	60	5586
2026-01-03 22:18:47.80	26.19	7.13	-49.2	-52.9	11.5	7.20e-04	0	50	0	69206016	60	5730
2026-01-03 22:18:48.78	26.29	7.19	-49.1	-52.8	11.5	1.11e-03	0	50	0	71303168	60	5691
2026-01-03 22:18:49.77	26.38	7.25	-49.2	-52.8	11.5	7.05e-04	0	50	0	73400320	60	5705
2026-01-03 22:18:50.77	26.48	7.31	-49.1	-52.7	11.6	1.06e-03	0	50	0	75497472	60	5626
2026-01-03 22:18:51.76	26.58	7.37	-49.0	-52.4	11.9	5.63e-04	0	50	0	76546048	60	5431
2026-01-03 22:18:52.74	26.68	7.43	-49.0	-52.4	11.9	4.44e-04	0	50	0	78643200	60	5451
2026-01-03 22:18:53.72	26.78	7.49	-48.9	-52.4	12.0	3.42e-04	0	50	0	80740352	60	5425
2026-01-03 22:18:54.71	26.88	7.55	-49.1	-52.6	11.8	3.71e-04	0	50	0	82837504	60	5549
2026-01-03 22:18:55.71	26.98	7.61	-49.2	-52.8	11.6	5.88e-04	0	50	0	84934656	60	5684
2026-01-03 22:18:56.70	27.08	7.67	-49.2	-52.7	11.6	7.26e-04	0	50	0	85983232	60	5644
2026-01-03 22:18:57.68	27.18	7.73	-49.1	-52.7	11.7	5.73e-04	0	50	0	88080384	60	5606
2026-01-03 22:18:58.68	27.29	7.80	-49.2	-52.8	11.6	5.39e-04	0	50	0	90177536	60	5714
2026-01-03 22:18:59.67	27.39	7.86	-49.2	-52.7	11.7	7.61e-04	0	50	0	92274688	60	5627
2026-01-03 22:19:00.66	27.49	7.92	-49.1	-52.5	11.9	4.20e-04	0	51	0	93323264	60	5512
2026-01-03 22:19:01.65	27.59	7.98	-49.0	-52.3	12.1	3.33e-04	0	50	0	95420416	60	5383
2026-01-03 22:19:02.64	27.70	8.04	-48.9	-52.2	12.2	2.22e-04	0	51	0	97517568	60	5312
2026-01-03 22:19:03.63	27.80	8.10	-48.8	-52.0	12.4	1.72e-04	0	50	0	99614720	60	5186
2026-01-03 22:19:04.61	27.91	8.17	-48.8	-52.0	12.5	1.07e-04	0	51	0	100663296	60	5162
2026-01-03 22:19:05.60	28.01	8.23	-48.7	-51.8	12.6	1.08e-04	0	51	0	102760448	60	5096
2026-01-03 22:19:06.59	28.12	8.29	-48.9	-52.1	12.4	7.93e-05	0	51	0	104857600	60	5220
2026-01-03 22:19:07.58	28.22	8.35	-48.8	-52.0	12.4	2.02e-04	0	51	0	106954752	60	5206
2026-01-03 22:19:08.57	28.33	8.41	-48.6	-51.7	12.8	7.93e-05	0	51	0	109051904	60	4999
2026-01-03 22:19:09.56	28.43	8.48	-48.4	-51.2	13.3	2.97e-05	0	51	0	110100480	59	5024
2026-01-03 22:19:10.55	28.54	8.54	-48.2	-51.0	13.5	9.90e-06	0	51	0	112197632	59	4880
2026-01-03 22:19:11.54	28.65	8.60	-48.2	-50.8	13.7	7.60e-06	0	51	0	114294784	59	4809
2026-01-03 22:19:12.53	28.76	8.66	-48.2	-50.8	13.7	4.50e-06	0	51	0	116391936	59	4801
2026-01-03 22:19:13.53	28.87	8.73	-48.1	-50.7	13.8	6.10e-06	0	51	0	117440512	59	4738
2026-01-03 22:19:14.52	28.97	8.79	-48.2	-50.8	13.7	4.50e-06	0	51	0	119537664	59	4793
2026-01-03 22:19:15.51	29.08	8.85	-48.2	-50.8	13.7	3.80e-06	0	51	0	121634816	59	4791
2026-01-03 22:19:16.49	29.19	8.91	-48.2	-50.8	13.8	8.30e-06	0	51	0	123731968	59	4778
2026-01-03 22:19:17.48	29.30	8.97	-48.1	-50.6	13.9	3.00e-06	0	51	0	124780544	59	4701
2026-01-03 22:19:18.47	29.41	9.04	-48.1	-50.7	13.9	3.80e-06	0	51	0	126877696	59	4713
2026-01-03 22:19:19.46	29.52	9.10	-48.1	-50.6	14.0	2.20e-06	0	51	0	128974848	59	4667
2026-01-03 22:19:20.44	29.63	9.16	-48.0	-50.5	14.1	1.50e-06	0	51	0	131072000	59	4627
2026-01-03 22:19:21.44	29.75	9.23	-48.0	-50.4	14.2	1.50e-06	0	51	0	132120576	59	4585
2026-01-03 22:19:22.43	29.86	9.29	-48.0	-50.5	14.1	7.00e-07	0	51	0	134217728	59	4602
2026-01-03 22:19:23.42	29.97	9.35	-48.0	-50.6	14.0	3.00e-06	0	51	0	136314880	59	4671
2026-01-03 22:19:24.41	30.09	9.42	-48.2	-50.8	13.8	1.50e-06	0	51	0	138412032	59	4787
2026-01-03 22:19:25.40	30.20	9.48	-48.2	-50.8	13.7	8.30e-06	0	51	0	140509184	59	4804
2026-01-03 22:19:26.39	30.31	9.54	-48.0	-50.5	14.1	2.20e-06	0	51	0	141557760	59	4633
2026-01-03 22:19:27.38	30.43	9.61	-47.9	-50.3	14.4	7.00e-07	0	51	0	143654912	58	4776
2026-01-03 22:19:28.37	30.54	9.67	-47.8	-50.1	14.5	2.20e-06	0	52	0	145752064	58	4690
2026-01-03 22:19:29.35	30.66	9.73	-47.8	-50.2	14.5	0.00e+00	0	52	0	147849216	58	4711
2026-01-03 22:19:30.33	30.77	9.80	-47.8	-50.2	14.4	7.00e-07	0	51	0	148897792	58	4753
2026-01-03 22:19:31.32	30.89	9.86	-47.8	-50.2	14.4	0.00e+00	0	52	0	150994944	58	4733
2026-01-03 22:19:32.31	31.01	9.92	-47.9	-50.4	14.3	0.00e+00	0	52	0	153092096	58	4818
2026-01-03 22:19:33.30	31.12	9.99	-48.0	-50.5	14.2	7.00e-07	0	52	0	155189248	58	4871
2026-01-03 22:19:34.28	31.24	10.05	-48.0	-50.5	14.2	0.00e+00	0	52	0	156237824	58	4880
2026-01-03 22:19:35.27	31.36	10.11	-48.1	-50.6	14.1	0.00e+00	0	52	0	158334976	58	4935
2026-01-03 22:19:36.26	31.48	10.18	-48.2	-50.8	13.9	3.80e-06	0	52	0	160432128	58	5050
2026-01-03 22:19:37.26	31.60	10.24	-48.1	-50.6	14.1	7.00e-07	0	52	0	162529280	58	4947
2026-01-03 22:19:38.25	31.72	10.31	-48.1	-50.6	14.1	6.10e-06	0	52	0	164626432	58	4956
2026-01-03 22:19:39.24	31.84	10.37	-48.2	-50.7	13.9	4.50e-06	0	52	0	165675008	58	5041
2026-01-03 22:19:40.23	31.96	10.43	-48.2	-50.7	14.0	3.80e-06	0	52	0	167772160	58	5006
2026-01-03 22:19:41.22	32.08	10.50	-48.2	-50.8	13.9	3.80e-06	0	52	0	169869312	58	5079
2026-01-03 22:19:42.21	32.20	10.56	-48.3	-50.9	13.8	3.00e-06	0	52	0	171966464	58	5148
2026-01-03 22:19:43.21	32.33	10.63	-48.1	-50.6	14.0	3.80e-06	0	52	0	173015040	58	4982
2026-01-03 22:19:44.20	32.45	10.69	-48.0	-50.4	14.3	2.20e-06	0	52	0	175112192	58	4868
2026-01-03 22:19:45.19	32.58	10.76	-48.0	-50.4	14.3	7.00e-07	0	52	0	177209344	58	4851
2026-01-03 22:19:46.18	32.70	10.82	-48.0	-50.4	14.3	1.50e-06	0	52	0	179306496	58	4835
2026-01-03 22:19:47.17	32.82	10.89	-48.1	-50.5	14.2	7.00e-07	0	52	0	181403648	58	4909
2026-01-03 22:19:48.17	32.95	10.95	-48.2	-50.7	14.0	7.00e-07	0	52	0	182452224	58	5006
2026-01-03 22:19:49.16	33.08	11.02	-48.3	-50.9	13.8	3.80e-06	0	52	0	184549376	58	5140
2026-01-03 22:19:50.15	33.20	11.08	-48.1	-50.6	14.1	2.20e-06	0	52	0	186646528	58	4936
2026-01-03 22:19:51.15	33.33	11.15	-48.1	-50.4	14.3	7.00e-07	0	52	0	188743680	58	4855
2026-01-03 22:19:52.14	33.46	11.21	-48.2	-50.6	14.1	2.20e-06	0	52	0	189792256	58	4959
2026-01-03 22:19:53.13	33.59	11.28	-48.3	-50.8	13.9	3.80e-06	0	52	0	191889408	58	5095
2026-01-03 22:19:54.12	33.72	11.34	-48.1	-50.5	14.2	7.00e-07	0	52	0	193986560	58	4899
2026-01-03 22:19:55.10	33.84	11.41	-48.0	-50.4	14.4	0.00e+00	0	52	0	196083712	58	4834
2026-01-03 22:19:56.09	33.97	11.47	-48.0	-50.3	14.4	7.00e-07	0	52	0	197132288	58	4802
2026-01-03 22:19:57.08	34.10	11.54	-48.0	-50.3	14.4	0.00e+00	0	52	0	199229440	58	4790
2026-01-03 22:19:58.07	34.23	11.60	-47.9	-50.3	14.5	7.00e-07	0	52	0	201326592	58	4768
2026-01-03 22:19:59.06	34.36	11.67	-47.8	-50.0	14.7	1.50e-06	0	53	0	203423744	58	4619
2026-01-03 22:20:00.05	34.50	11.73	-47.7	-49.8	15.0	0.00e+00	0	52	0	205520896	58	4518
2026-01-03 22:20:01.05	34.63	11.80	-47.6	-49.7	15.0	0.00e+00	0	52	0	206569472	58	4469
2026-01-03 22:20:02.04	34.76	11.86	-47.6	-49.7	15.0	7.00e-07	0	52	0	208666624	58	4483
2026-01-03 22:20:03.03	34.90	11.93	-47.5	-49.6	15.1	0.00e+00	0	53	0	210763776	58	4431
2026-01-03 22:20:04.01	35.03	11.99	-47.5	-49.6	15.2	0.00e+00	0	52	0	212860928	58	4439
2026-01-03 22:20:05.00	35.16	12.06	-47.6	-49.8	15.0	0.00e+00	0	53	0	213909504	58	4503
2026-01-03 22:20:05.98	35.30	12.12	-47.6	-49.6	15.2	0.00e+00	0	53	0	216006656	58	4428
2026-01-03 22:20:06.97	35.43	12.19	-47.5	-49.5	15.2	0.00e+00	0	53	0	218103808	58	4383
2026-01-03 22:20:07.96	35.57	12.25	-47.5	-49.6	15.2	0.00e+00	0	53	0	220200960	58	4423
2026-01-03 22:20:08.94	35.71	12.32	-47.6	-49.7	15.1	7.00e-07	0	53	0	221249536	58	4488
2026-01-03 22:20:09.94	35.84	12.38	-47.6	-49.6	15.1	0.00e+00	0	53	0	223346688	58	4441
2026-01-03 22:20:10.93	35.98	12.45	-47.7	-49.8	15.0	0.00e+00	0	53	0	225443840	58	4529
2026-01-03 22:20:11.91	36.12	12.51	-47.9	-50.1	14.6	0.00e+00	0	53	0	227540992	58	4691
2026-01-03 22:20:12.91	36.26	12.58	-47.8	-50.0	14.8	0.00e+00	0	53	0	229638144	58	4633
2026-01-03 22:20:13.89	36.40	12.65	-47.9	-50.2	14.5	7.00e-07	0	53	0	230686720	58	4758
2026-01-03 22:20:14.89	36.54	12.71	-47.8	-50.0	14.8	1.50e-06	0	53	0	232783872	58	4627
2026-01-03 22:20:15.88	36.68	12.78	-47.7	-49.8	15.0	0.00e+00	0	53	0	234881024	58	4534
2026-01-03 22:20:16.86	36.82	12.84	-47.6	-49.6	15.2	0.00e+00	0	53	0	236978176	58	4425
2026-01-03 22:20:17.85	36.97	12.91	-47.6	-49.6	15.2	0.00e+00	0	53	0	238026752	58	4438
2026-01-03 22:20:18.84	37.11	12.97	-47.5	-49.6	15.3	0.00e+00	0	53	0	240123904	58	4393
2026-01-03 22:20:19.84	37.25	13.04	-47.5	-49.4	15.4	0.00e+00	0	53	0	242221056	58	4340
2026-01-03 22:20:20.82	37.40	13.11	-47.4	-49.5	15.3	0.00e+00	0	53	0	244318208	58	4355
2026-01-03 22:20:21.81	37.54	13.17	-47.4	-49.4	15.4	0.00e+00	0	53	0	245366784	58	4330
2026-01-03 22:20:22.80	37.69	13.24	-47.5	-49.6	15.3	0.00e+00	0	53	0	247463936	58	4406
2026-01-03 22:20:23.78	37.83	13.30	-47.5	-49.6	15.3	0.00e+00	0	53	0	249561088	58	4395
2026-01-03 22:20:24.79	37.98	13.37	-47.6	-49.7	15.1	0.00e+00	0	53	0	251658240	58	4485
2026-01-03 22:20:25.76	38.13	13.44	-47.7	-49.9	15.0	0.00e+00	0	53	0	253755392	58	4552
2026-01-03 22:20:26.75	38.27	13.50	-47.7	-49.8	15.0	0.00e+00	0	53	0	254803968	58	4531
2026-01-03 22:20:27.74	38.42	13.57	-47.7	-49.9	14.9	0.00e+00	0	53	0	256901120	58	4560
2026-01-03 22:20:28.72	38.57	13.63	-47.7	-49.8	15.0	0.00e+00	0	53	0	258998272	58	4522
2026-01-03 22:20:29.71	38.72	13.70	-47.7	-49.8	15.1	0.00e+00	0	53	0	261095424	58	4499
2026-01-03 22:20:30.69	38.87	13.76	-47.6	-49.6	15.2	7.00e-07	0	53	0	262144000	58	4441
2026-01-03 22:20:31.68	39.02	13.83	-47.6	-49.7	15.2	0.00e+00	0	53	0	264241152	58	4453
2026-01-03 22:20:32.67	39.17	13.90	-47.7	-49.8	15.0	0.00e+00	0	53	0	266338304	58	4530
2026-01-03 22:20:33.66	39.32	13.96	-47.6	-49.7	15.2	0.00e+00	0	53	0	268435456	58	4468
2026-01-03 22:20:34.66	39.48	14.03	-47.4	-49.4	15.4	0.00e+00	0	53	0	269484032	58	4321
2026-01-03 22:20:35.64	39.63	14.09	-47.4	-49.3	15.5	0.00e+00	0	53	0	271581184	57	4521
2026-01-03 22:20:36.64	39.79	14.16	-47.4	-49.3	15.5	0.00e+00	0	53	0	273678336	57	4542
2026-01-03 22:20:37.63	39.94	14.23	-47.4	-49.4	15.5	0.00e+00	0	53	0	275775488	57	4556
2026-01-03 22:20:38.62	40.10	14.29	-47.4	-49.4	15.4	0.00e+00	0	53	0	277872640	57	4597
2026-01-03 22:20:39.61	40.26	14.36	-47.6	-49.6	15.3	0.00e+00	0	53	0	278921216	57	4656
2026-01-03 22:20:40.60	40.41	14.42	-47.5	-49.5	15.4	0.00e+00	0	53	0	281018368	57	4638
2026-01-03 22:20:41.59	40.57	14.49	-47.6	-49.6	15.3	0.00e+00	0	54	0	283115520	57	4688
2026-01-03 22:20:42.59	40.73	14.56	-47.6	-49.7	15.2	0.00e+00	0	53	0	285212672	57	4728
2026-01-03 22:20:43.58	40.89	14.62	-47.6	-49.7	15.2	0.00e+00	0	53	0	286261248	57	4731
2026-01-03 22:20:44.57	41.05	14.69	-47.7	-49.8	15.1	0.00e+00	0	53	0	288358400	57	4785
2026-01-03 22:20:45.56	41.21	14.75	-47.8	-49.9	15.0	0.00e+00	0	54	0	290455552	57	4851
2026-01-03 22:20:46.54	41.37	14.82	-47.8	-49.9	15.0	7.00e-07	0	53	0	292552704	57	4842
2026-01-03 22:20:47.54	41.53	14.88	-47.8	-49.9	14.9	0.00e+00	0	53	0	293601280	57	4863
2026-01-03 22:20:48.53	41.70	14.95	-47.9	-50.1	14.8	0.00e+00	0	54	0	295698432	57	4928
2026-01-03 22:20:49.52	41.86	15.02	-48.0	-50.3	14.6	0.00e+00	0	54	0	297795584	57	5048
2026-01-03 22:20:50.50	42.02	15.08	-48.1	-50.3	14.6	0.00e+00	0	53	0	299892736	58	4778
2026-01-03 22:20:51.49	42.19	15.15	-48.0	-50.2	14.7	0.00e+00	0	54	0	301989888	58	4741
2026-01-03 22:20:52.48	42.35	15.21	-48.2	-50.5	14.4	7.00e-07	0	53	0	303038464	58	4911
2026-01-03 22:20:53.47	42.52	15.28	-48.2	-50.6	14.4	1.50e-06	0	53	0	305135616	58	4931
2026-01-03 22:20:54.46	42.69	15.34	-48.0	-50.2	14.7	0.00e+00	0	54	0	307232768	58	4744
2026-01-03 22:20:55.45	42.85	15.41	-47.8	-50.0	15.0	0.00e+00	0	54	0	309329920	58	4614
2026-01-03 22:20:56.43	43.02	15.47	-47.7	-49.8	15.1	0.00e+00	0	54	0	310378496	58	4541
2026-01-03 22:20:57.42	43.19	15.54	-47.7	-49.8	15.1	0.00e+00	0	54	0	312475648	58	4513
2026-01-03 22:20:58.42	43.36	15.60	-47.8	-50.0	15.0	0.00e+00	0	54	0	314572800	58	4602
2026-01-03 22:20:59.41	43.53	15.67	-47.8	-50.0	14.9	0.00e+00	0	54	0	316669952	58	4637
2026-01-03 22:21:00.41	43.70	15.73	-47.6	-49.6	15.2	0.00e+00	0	54	0	318767104	58	4433
2026-01-03 22:21:01.40	43.87	15.80	-47.5	-49.4	15.5	0.00e+00	0	54	0	319815680	58	4335
2026-01-03 22:21:02.39	44.05	15.86	-47.3	-49.2	15.7	0.00e+00	0	54	0	321912832	57	4458
2026-01-03 22:21:03.39	44.22	15.93	-47.3	-49.2	15.7	0.00e+00	0	54	0	324009984	57	4452
2026-01-03 22:21:04.38	44.40	15.99	-47.3	-49.2	15.7	0.00e+00	0	54	0	326107136	57	4446
2026-01-03 22:21:05.38	44.57	16.06	-47.2	-49.1	15.8	0.00e+00	0	54	0	327155712	57	4438
2026-01-03 22:21:06.37	44.75	16.12	-47.1	-49.0	15.9	0.00e+00	0	54	0	329252864	57	4355
2026-01-03 22:21:07.36	44.93	16.19	-47.1	-48.9	16.0	0.00e+00	0	54	0	331350016	57	4295
2026-01-03 22:21:08.34	45.10	16.25	-47.1	-48.8	16.1	0.00e+00	0	54	0	333447168	57	4289
2026-01-03 22:21:09.33	45.28	16.32	-47.0	-48.8	16.1	0.00e+00	0	54	0	334495744	57	4280
2026-01-03 22:21:10.32	45.46	16.38	-46.8	-48.5	16.4	0.00e+00	0	54	0	336592896	56	4385
2026-01-03 22:21:11.31	45.64	16.45	-46.8	-48.5	16.4	0.00e+00	0	54	0	338690048	56	4357
2026-01-03 22:21:12.30	45.82	16.51	-46.7	-48.4	16.5	0.00e+00	0	54	0	340787200	56	4319
2026-01-03 22:21:13.29	46.00	16.57	-46.7	-48.4	16.5	0.00e+00	0	54	0	341835776	56	4313
2026-01-03 22:21:14.28	46.18	16.64	-46.8	-48.5	16.4	0.00e+00	0	54	0	343932928	56	4366
2026-01-03 22:21:15.26	46.36	16.70	-46.9	-48.7	16.3	0.00e+00	0	54	0	346030080	56	4445
2026-01-03 22:21:16.26	46.54	16.77	-46.7	-48.3	16.6	0.00e+00	0	54	0	348127232	56	4285
2026-01-03 22:21:17.25	46.73	16.83	-46.5	-48.2	16.8	0.00e+00	0	54	0	350224384	56	4202
2026-01-03 22:21:18.23	46.91	16.89	-46.5	-48.1	16.8	0.00e+00	0	54	0	351272960	56	4175
2026-01-03 22:21:19.23	47.10	16.96	-46.5	-48.2	16.8	0.00e+00	0	54	0	353370112	56	4195
2026-01-03 22:21:20.21	47.28	17.02	-46.5	-48.2	16.8	0.00e+00	0	54	0	355467264	56	4196
2026-01-03 22:21:21.20	47.47	17.08	-46.6	-48.2	16.7	0.00e+00	0	54	0	357564416	56	4242
2026-01-03 22:21:22.19	47.66	17.14	-46.6	-48.2	16.8	0.00e+00	0	54	0	358612992	56	4213
2026-01-03 22:21:23.18	47.84	17.21	-46.7	-48.3	16.6	0.00e+00	0	54	0	360710144	56	4262
2026-01-03 22:21:24.18	48.04	17.27	-46.8	-48.5	16.5	0.00e+00	0	54	0	362807296	56	4346
2026-01-03 22:21:25.16	48.22	17.33	-46.6	-48.3	16.7	0.00e+00	0	54	0	364904448	56	4246
2026-01-03 22:21:26.15	48.41	17.40	-46.6	-48.2	16.7	0.00e+00	0	54	0	367001600	56	4212
2026-01-03 22:21:27.14	48.61	17.46	-46.5	-48.1	16.8	0.00e+00	0	54	0	368050176	56	4185
2026-01-03 22:21:28.13	48.80	17.52	-46.5	-48.1	16.8	0.00e+00	0	54	0	370147328	56	4188
2026-01-03 22:21:29.12	48.99	17.58	-46.7	-48.3	16.6	0.00e+00	0	54	0	372244480	56	4290
2026-01-03 22:21:30.11	49.18	17.64	-46.6	-48.2	16.8	0.00e+00	0	54	0	374341632	56	4225
2026-01-03 22:21:31.10	49.38	17.71	-46.8	-48.4	16.5	0.00e+00	0	54	0	375390208	56	4335
2026-01-03 22:21:32.09	49.57	17.77	-46.7	-48.4	16.6	0.00e+00	0	54	0	377487360	56	4294
2026-01-03 22:21:33.08	49.77	17.83	-46.8	-48.4	16.5	0.00e+00	0	54	0	379584512	56	4332
2026-01-03 22:21:34.08	49.97	17.89	-47.0	-48.7	16.2	0.00e+00	0	54	0	381681664	56	4486
2026-01-03 22:21:35.07	50.17	17.95	-47.0	-48.8	16.2	0.00e+00	0	54	0	382730240	56	4530
2026-01-03 22:21:36.06	50.36	18.01	-47.1	-49.0	16.0	0.00e+00	0	54	0	384827392	56	4615
2026-01-03 22:21:37.06	50.57	18.07	-47.2	-49.1	15.9	0.00e+00	0	54	0	386924544	56	4659
2026-01-03 22:21:38.04	50.76	18.13	-47.2	-49.1	15.8	0.00e+00	0	54	0	389021696	56	4696
2026-01-03 22:21:39.03	50.96	18.19	-47.3	-49.2	15.8	0.00e+00	0	54	0	391118848	56	4731
2026-01-03 22:21:40.03	51.17	18.25	-47.2	-49.0	15.9	0.00e+00	0	54	0	392167424	56	4633
2026-01-03 22:21:41.02	51.37	18.31	-47.1	-48.9	16.0	0.00e+00	0	54	0	394264576	56	4590
2026-01-03 22:21:42.01	51.57	18.37	-47.1	-49.0	16.0	0.00e+00	0	54	0	396361728	56	4616
2026-01-03 22:21:43.00	51.78	18.43	-47.4	-49.4	15.6	0.00e+00	0	54	0	398458880	56	4824
2026-01-03 22:21:43.99	51.98	18.49	-47.3	-49.3	15.7	0.00e+00	0	54	0	399507456	56	4779
2026-01-03 22:21:44.98	52.19	18.55	-47.6	-49.6	15.4	0.00e+00	0	54	0	401604608	57	4686
2026-01-03 22:21:45.97	52.39	18.61	-47.6	-49.6	15.4	0.00e+00	0	54	0	403701760	57	4671
2026-01-03 22:21:46.96	52.60	18.67	-47.8	-49.9	15.1	0.00e+00	0	54	0	405798912	57	4841
2026-01-03 22:21:47.95	52.81	18.73	-47.7	-49.8	15.2	0.00e+00	0	54	0	407896064	57	4762
2026-01-03 22:21:48.94	53.02	18.79	-47.8	-50.0	15.0	0.00e+00	0	54	0	408944640	57	4887
2026-01-03 22:21:49.93	53.23	18.85	-47.8	-49.8	15.1	0.00e+00	0	54	0	411041792	57	4809
2026-01-03 22:21:50.91	53.43	18.90	-47.8	-49.9	15.1	0.00e+00	0	54	0	413138944	57	4849
2026-01-03 22:21:51.90	53.64	18.96	-48.0	-50.2	14.8	0.00e+00	0	54	0	415236096	57	5023
2026-01-03 22:21:52.90	53.86	19.02	-47.9	-50.1	14.9	0.00e+00	0	55	0	416284672	57	4950
2026-01-03 22:21:53.88	54.07	19.07	-47.9	-50.1	14.9	0.00e+00	0	54	0	418381824	57	4981
2026-01-03 22:21:54.87	54.28	19.13	-48.1	-50.4	14.5	0.00e+00	0	55	0	420478976	58	4850
2026-01-03 22:21:55.86	54.50	19.19	-48.4	-50.9	14.1	0.00e+00	0	55	0	422576128	58	5119
2026-01-03 22:21:56.85	54.71	19.24	-48.5	-51.0	13.9	5.30e-06	0	55	0	423624704	58	5212
2026-01-03 22:21:57.85	54.93	19.30	-48.6	-51.3	13.6	6.10e-06	0	55	0	425721856	59	5081
2026-01-03 22:21:58.84	55.14	19.36	-48.6	-51.2	13.8	8.30e-06	0	55	0	427819008	59	5028
2026-01-03 22:21:59.83	55.36	19.41	-48.7	-51.4	13.6	5.30e-06	0	55	0	429916160	59	5107
2026-01-03 22:22:00.82	55.58	19.47	-48.6	-51.2	13.8	5.30e-06	0	55	0	432013312	59	4987
2026-01-03 22:22:01.81	55.80	19.52	-48.6	-51.2	13.8	1.50e-06	0	55	0	433061888	59	4985
2026-01-03 22:22:02.79	56.01	19.58	-48.7	-51.3	13.7	3.80e-06	0	55	0	435159040	59	5076
2026-01-03 22:22:03.78	56.24	19.63	-48.9	-51.7	13.3	1.06e-05	0	55	0	437256192	59	5290
2026-01-03 22:22:04.77	56.46	19.68	-48.7	-51.4	13.6	1.75e-05	0	55	0	439353344	59	5125
2026-01-03 22:22:05.77	56.68	19.74	-48.5	-51.1	13.9	4.50e-06	0	54	0	440401920	59	4935
2026-01-03 22:22:06.76	56.90	19.79	-48.4	-50.9	14.0	3.80e-06	0	55	0	442499072	59	4860
2026-01-03 22:22:07.75	57.13	19.85	-48.6	-51.2	13.7	2.20e-06	0	55	0	444596224	59	5036
2026-01-03 22:22:08.74	57.35	19.90	-48.8	-51.7	13.3	6.10e-06	0	55	0	446693376	59	5293
2026-01-03 22:22:09.74	57.58	19.95	-49.0	-51.8	13.2	2.51e-05	0	55	0	447741952	59	5361
2026-01-03 22:22:10.73	57.80	20.00	-48.9	-51.8	13.2	1.90e-05	0	55	0	449839104	59	5356
2026-01-03 22:22:11.72	58.03	20.06	-48.9	-51.8	13.2	2.97e-05	0	55	0	451936256	59	5346
2026-01-03 22:22:12.71	58.26	20.11	-48.9	-51.8	13.1	1.75e-05	0	55	0	454033408	59	5367
2026-01-03 22:22:13.70	58.48	20.16	-49.0	-51.9	13.1	2.59e-05	0	55	0	456130560	59	5404
2026-01-03 22:22:14.68	58.71	20.21	-48.8	-51.6	13.3	2.36e-05	0	55	0	457179136	59	5272
2026-01-03 22:22:15.68	58.94	20.26	-48.6	-51.3	13.7	6.80e-06	0	55	0	459276288	59	5065
2026-01-03 22:22:16.68	59.17	20.31	-48.7	-51.4	13.6	3.80e-06	0	55	0	461373440	59	5114
2026-01-03 22:22:17.67	59.40	20.36	-48.7	-51.4	13.6	7.60e-06	0	55	0	463470592	59	5159
2026-01-03 22:22:18.66	59.63	20.41	-48.7	-51.6	13.4	8.30e-06	0	55	0	464519168	59	5237
2026-01-03 22:22:19.65	59.87	20.46	-49.0	-51.9	13.1	2.05e-05	0	55	0	466616320	59	5420
2026-01-03 22:22:20.64	60.10	20.51	-49.0	-51.9	13.1	4.57e-05	0	55	0	468713472	59	5413
2026-01-03 22:22:21.63	60.33	20.56	-48.8	-51.6	13.4	1.67e-05	0	55	0	470810624	59	5232
2026-01-03 22:22:22.62	60.57	20.60	-48.6	-51.1	13.8	7.60e-06	0	55	0	472907776	59	4976
2026-01-03 22:22:23.62	60.80	20.65	-48.4	-50.7	14.3	3.00e-06	0	55	0	473956352	59	4757
2026-01-03 22:22:24.61	61.04	20.70	-48.1	-50.3	14.7	7.00e-07	0	55	0	476053504	59	4508
2026-01-03 22:22:25.60	61.28	20.75	-47.9	-50.0	15.0	7.00e-07	0	55	0	478150656	58	4617
2026-01-03 22:22:26.59	61.51	20.79	-47.8	-49.9	15.1	0.00e+00	0	55	0	480247808	58	4562
2026-01-03 22:22:27.58	61.75	20.84	-47.8	-49.9	15.1	0.00e+00	0	55	0	481296384	58	4567
2026-01-03 22:22:28.57	61.99	20.88	-47.8	-49.9	15.1	0.00e+00	0	55	0	483393536	58	4572
2026-01-03 22:22:29.56	62.23	20.93	-47.9	-50.0	15.0	0.00e+00	0	55	0	485490688	58	4611
2026-01-03 22:22:30.54	62.47	20.97	-48.0	-50.2	14.8	0.00e+00	0	55	0	487587840	58	4733
2026-01-03 22:22:31.54	62.71	21.02	-48.1	-50.3	14.7	0.00e+00	0	55	0	488636416	58	4784
2026-01-03 22:22:32.53	62.95	21.06	-47.9	-50.0	15.0	7.00e-07	0	55	0	490733568	58	4614
2026-01-03 22:22:33.52	63.19	21.11	-47.9	-50.0	15.0	0.00e+00	0	55	0	492830720	58	4630
2026-01-03 22:22:34.51	63.44	21.15	-48.0	-50.1	14.9	0.00e+00	0	55	0	494927872	58	4699
2026-01-03 22:22:35.50	63.68	21.19	-48.0	-50.2	14.8	0.00e+00	0	55	0	497025024	58	4722
2026-01-03 22:22:36.49	63.92	21.23	-47.9	-50.0	15.1	0.00e+00	0	55	0	498073600	58	4615
2026-01-03 22:22:37.48	64.17	21.28	-47.9	-50.0	15.0	0.00e+00	0	55	0	500170752	58	4620
2026-01-03 22:22:38.47	64.41	21.32	-47.9	-50.2	14.8	0.00e+00	0	55	0	502267904	58	4716
2026-01-03 22:22:39.46	64.66	21.36	-48.0	-50.2	14.9	0.00e+00	0	55	0	504365056	58	4708
2026-01-03 22:22:40.45	64.91	21.40	-47.7	-49.8	15.2	0.00e+00	0	55	0	505413632	58	4543
2026-01-03 22:22:41.43	65.15	21.44	-47.7	-49.8	15.2	0.00e+00	0	55	0	507510784	58	4537
2026-01-03 22:22:42.43	65.40	21.48	-47.6	-49.7	15.3	0.00e+00	0	55	0	509607936	58	4471
2026-01-03 22:22:43.41	65.65	21.52	-47.6	-49.5	15.5	0.00e+00	0	55	0	511705088	58	4388
2026-01-03 22:22:44.40	65.90	21.55	-47.4	-49.3	15.7	0.00e+00	0	55	0	512753664	57	4530
2026-01-03 22:22:45.39	66.14	21.59	-47.3	-49.2	15.8	0.00e+00	0	55	0	514850816	57	4480
2026-01-03 22:22:46.38	66.40	21.63	-47.3	-49.1	15.9	0.00e+00	0	55	0	516947968	57	4417
2026-01-03 22:22:47.36	66.64	21.67	-47.1	-48.9	16.1	0.00e+00	0	55	0	519045120	57	4299
2026-01-03 22:22:48.35	66.89	21.70	-47.0	-48.8	16.3	0.00e+00	0	55	0	521142272	57	4251
2026-01-03 22:22:49.33	67.14	21.74	-47.1	-48.9	16.2	0.00e+00	0	55	0	522190848	57	4294
2026-01-03 22:22:50.32	67.40	21.77	-47.2	-49.1	15.9	0.00e+00	0	55	0	524288000	57	4427
2026-01-03 22:22:51.31	67.65	21.81	-47.3	-49.2	15.8	0.00e+00	0	55	0	526385152	57	4477
2026-01-03 22:22:52.29	67.90	21.84	-47.4	-49.3	15.6	0.00e+00	0	55	0	528482304	57	4542
2026-01-03 22:22:53.27	68.15	21.88	-47.4	-49.3	15.7	7.00e-07	0	55	0	529530880	57	4532
2026-01-03 22:22:54.27	68.41	21.91	-47.4	-49.4	15.7	0.00e+00	0	55	0	531628032	57	4556
2026-01-03 22:22:55.26	68.66	21.94	-47.4	-49.5	15.6	0.00e+00	0	55	0	533725184	57	4599
2026-01-03 22:22:56.25	68.92	21.98	-47.4	-49.3	15.7	0.00e+00	0	55	0	535822336	57	4529
2026-01-03 22:22:57.24	69.18	22.01	-47.4	-49.4	15.6	0.00e+00	0	55	0	536870912	57	4583
2026-01-03 22:22:58.24	69.44	22.04	-47.3	-49.3	15.8	0.00e+00	0	55	0	538968064	57	4498
2026-01-03 22:22:59.23	69.69	22.07	-47.3	-49.2	15.9	0.00e+00	0	55	0	541065216	57	4447
2026-01-03 22:23:00.22	69.95	22.10	-47.4	-49.4	15.6	0.00e+00	0	55	0	543162368	57	4567
2026-01-03 22:23:01.21	70.21	22.13	-47.7	-49.7	15.3	0.00e+00	0	55	0	545259520	57	4751
2026-01-03 22:23:02.20	70.47	22.16	-47.7	-49.7	15.3	0.00e+00	0	55	0	546308096	57	4717
2026-01-03 22:23:03.19	70.73	22.19	-48.0	-50.1	14.9	0.00e+00	0	55	0	548405248	57	4962
2026-01-03 22:23:04.18	70.99	22.22	-48.1	-50.3	14.7	0.00e+00	0	55	0	550502400	58	4783
2026-01-03 22:23:05.18	71.25	22.24	-48.0	-50.3	14.8	0.00e+00	0	55	0	552599552	58	4782
2026-01-03 22:23:06.17	71.51	22.27	-48.1	-50.4	14.6	7.00e-07	0	55	0	553648128	58	4835
2026-01-03 22:23:07.16	71.77	22.30	-48.1	-50.3	14.8	0.00e+00	0	56	0	555745280	58	4771
2026-01-03 22:23:08.15	72.03	22.32	-48.0	-50.1	14.9	0.00e+00	0	56	0	557842432	58	4693
2026-01-03 22:23:09.14	72.30	22.35	-48.1	-50.3	14.7	7.00e-07	0	55	0	559939584	58	4808
2026-01-03 22:23:10.13	72.56	22.37	-48.2	-50.5	14.5	1.50e-06	0	55	0	560988160	58	4915
2026-01-03 22:23:11.11	72.82	22.40	-47.9	-50.1	14.9	0.00e+00	0	55	0	563085312	58	4684
2026-01-03 22:23:12.11	73.08	22.42	-47.8	-49.9	15.2	0.00e+00	0	55	0	565182464	58	4568
2026-01-03 22:23:13.10	73.35	22.44	-47.8	-49.8	15.2	0.00e+00	0	55	0	567279616	58	4516
2026-01-03 22:23:14.09	73.61	22.46	-47.8	-49.9	15.1	0.00e+00	0	56	0	569376768	58	4571
2026-01-03 22:23:15.08	73.88	22.49	-47.8	-50.0	15.1	0.00e+00	0	55	0	570425344	58	4605
2026-01-03 22:23:16.07	74.14	22.51	-47.8	-49.9	15.1	0.00e+00	0	56	0	572522496	58	4572
2026-01-03 22:23:17.07	74.41	22.53	-47.8	-49.9	15.2	0.00e+00	0	56	0	574619648	58	4553
2026-01-03 22:23:18.05	74.67	22.55	-47.7	-49.8	15.2	0.00e+00	0	55	0	576716800	58	4530
2026-01-03 22:23:19.03	74.93	22.57	-47.8	-49.9	15.1	0.00e+00	0	55	0	577765376	58	4573
2026-01-03 22:23:20.03	75.20	22.59	-47.9	-50.0	15.1	0.00e+00	0	56	0	579862528	58	4617
2026-01-03 22:23:21.02	75.47	22.60	-48.1	-50.3	14.7	0.00e+00	0	55	0	581959680	58	4784
2026-01-03 22:23:22.01	75.74	22.62	-48.2	-50.5	14.6	0.00e+00	0	55	0	584056832	58	4889
2026-01-03 22:23:23.01	76.01	22.64	-48.2	-50.5	14.5	0.00e+00	0	55	0	586153984	58	4891
2026-01-03 22:23:24.00	76.27	22.65	-48.3	-50.7	14.4	7.00e-07	0	55	0	587202560	58	4993
2026-01-03 22:23:24.99	76.54	22.67	-48.5	-51.0	14.1	3.00e-06	0	55	0	589299712	58	5176
2026-01-03 22:23:25.98	76.81	22.68	-48.5	-50.9	14.1	7.00e-07	0	55	0	591396864	58	5140
2026-01-03 22:23:26.96	77.07	22.70	-48.7	-51.2	13.8	1.50e-06	0	56	0	593494016	59	5024
2026-01-03 22:23:27.94	77.34	22.71	-48.5	-51.2	13.9	4.50e-06	0	55	0	594542592	59	4986
2026-01-03 22:23:28.93	77.61	22.73	-48.8	-51.5	13.5	6.80e-06	0	55	0	596639744	59	5199
2026-01-03 22:23:29.92	77.88	22.74	-48.5	-51.0	14.0	3.80e-06	0	56	0	598736896	59	4884
2026-01-03 22:23:30.90	78.14	22.75	-48.1	-50.3	14.7	1.50e-06	0	56	0	600834048	59	4529
2026-01-03 22:23:31.89	78.41	22.76	-47.7	-49.7	15.4	0.00e+00	0	55	0	601882624	58	4475
2026-01-03 22:23:32.88	78.68	22.77	-47.4	-49.2	15.8	0.00e+00	0	56	0	603979776	57	4468
2026-01-03 22:23:33.87	78.95	22.78	-47.1	-48.9	16.2	0.00e+00	0	56	0	606076928	57	4315
2026-01-03 22:23:34.86	79.22	22.79	-47.1	-49.0	16.1	0.00e+00	0	56	0	608174080	57	4353
2026-01-03 22:23:35.85	79.49	22.80	-47.3	-49.2	15.8	0.00e+00	0	56	0	609222656	57	4469
2026-01-03 22:23:36.84	79.76	22.81	-47.5	-49.5	15.5	0.00e+00	0	56	0	611319808	57	4625
2026-01-03 22:23:37.83	80.03	22.81	-47.6	-49.5	15.5	0.00e+00	0	56	0	613416960	57	4625
2026-01-03 22:23:38.82	80.30	22.82	-47.6	-49.6	15.4	0.00e+00	0	56	0	615514112	57	4681
2026-01-03 22:23:39.82	80.57	22.83	-47.9	-50.0	15.1	0.00e+00	0	56	0	617611264	57	4875
2026-01-03 22:23:40.81	80.84	22.83	-47.7	-49.7	15.3	0.00e+00	0	56	0	618659840	57	4733
2026-01-03 22:23:41.80	81.11	22.84	-47.5	-49.5	15.5	0.00e+00	0	56	0	620756992	57	4633
2026-01-03 22:23:42.78	81.38	22.84	-47.4	-49.3	15.7	0.00e+00	0	56	0	622854144	57	4538
2026-01-03 22:23:43.77	81.65	22.84	-47.4	-49.3	15.7	0.00e+00	0	56	0	624951296	57	4519
2026-01-03 22:23:44.76	81.92	22.85	-47.3	-49.2	15.8	0.00e+00	0	56	0	625999872	57	4461
2026-01-03 22:23:45.74	82.19	22.85	-47.4	-49.3	15.7	7.00e-07	0	55	0	628097024	57	4518
2026-01-03 22:23:46.73	82.46	22.85	-47.7	-49.7	15.4	0.00e+00	0	56	0	630194176	57	4721
2026-01-03 22:23:47.73	82.73	22.85	-47.7	-49.8	15.2	0.00e+00	0	55	0	632291328	57	4801
2026-01-03 22:23:48.72	83.01	22.85	-47.9	-50.1	15.0	7.00e-07	0	56	0	633339904	57	4936
2026-01-03 22:23:49.71	83.28	22.85	-48.0	-50.2	14.9	7.00e-07	0	56	0	635437056	57	4987
2026-01-03 22:23:50.70	83.55	22.85	-48.0	-50.3	14.8	0.00e+00	0	56	0	637534208	57	5063
2026-01-03 22:23:51.69	83.82	22.85	-48.1	-50.4	14.7	0.00e+00	0	56	0	639631360	58	4832
2026-01-03 22:23:52.68	84.09	22.85	-48.1	-50.5	14.5	0.00e+00	0	56	0	641728512	58	4886
2026-01-03 22:23:53.67	84.36	22.84	-48.3	-50.5	14.5	0.00e+00	0	56	0	642777088	58	4923
2026-01-03 22:23:54.65	84.63	22.84	-48.3	-50.7	14.4	1.50e-06	0	56	0	644874240	58	5005
2026-01-03 22:23:55.65	84.90	22.84	-48.3	-50.7	14.4	1.50e-06	0	56	0	646971392	58	4989
2026-01-03 22:23:56.64	85.17	22.83	-48.3	-50.6	14.4	7.00e-07	0	56	0	649068544	58	4982
2026-01-03 22:23:57.62	85.44	22.82	-48.4	-50.8	14.3	0.00e+00	0	56	0	650117120	58	5061
2026-01-03 22:23:58.62	85.71	22.82	-48.2	-50.5	14.5	7.00e-07	0	56	0	652214272	58	4917
2026-01-03 22:23:59.61	85.98	22.81	-48.2	-50.4	14.7	7.00e-07	0	56	0	654311424	58	4863
2026-01-03 22:24:00.59	86.25	22.80	-48.3	-50.6	14.5	7.00e-07	0	56	0	656408576	58	4930
2026-01-03 22:24:01.59	86.52	22.80	-48.2	-50.4	14.6	0.00e+00	0	56	0	657457152	58	4858
2026-01-03 22:24:02.57	86.79	22.79	-47.9	-50.0	15.1	0.00e+00	0	56	0	659554304	58	4601
2026-01-03 22:24:03.57	87.06	22.78	-47.7	-49.7	15.4	0.00e+00	0	56	0	661651456	58	4468
2026-01-03 22:24:04.56	87.33	22.77	-47.6	-49.6	15.4	0.00e+00	0	56	0	663748608	58	4425
2026-01-03 22:24:05.55	87.60	22.76	-47.7	-49.8	15.2	0.00e+00	0	56	0	665845760	58	4516
2026-01-03 22:24:06.54	87.87	22.75	-48.0	-50.2	14.9	0.00e+00	0	56	0	666894336	58	4735
2026-01-03 22:24:07.53	88.14	22.73	-48.0	-50.2	14.8	7.00e-07	0	56	0	668991488	58	4757
2026-01-03 22:24:08.52	88.41	22.72	-47.9	-50.0	15.0	0.00e+00	0	56	0	671088640	58	4642
2026-01-03 22:24:09.51	88.68	22.71	-47.9	-50.0	15.1	0.00e+00	0	56	0	673185792	58	4642
2026-01-03 22:24:10.49	88.94	22.69	-47.9	-50.1	15.0	0.00e+00	0	56	0	674234368	58	4654
2026-01-03 22:24:11.48	89.21	22.68	-48.0	-50.2	14.9	0.00e+00	0	56	0	676331520	58	4724
2026-01-03 22:24:12.47	89.48	22.66	-48.1	-50.3	14.8	7.00e-07	0	56	0	678428672	58	4782
2026-01-03 22:24:13.47	89.75	22.65	-48.1	-50.3	14.8	1.50e-06	0	56	0	680525824	58	4761
2026-01-03 22:24:14.45	90.01	22.63	-47.8	-49.8	15.2	0.00e+00	0	56	0	682622976	58	4529
2026-01-03 22:24:15.44	90.28	22.61	-47.5	-49.5	15.6	0.00e+00	0	56	0	683671552	58	4343
2026-01-03 22:24:16.42	90.54	22.60	-47.2	-49.0	16.0	0.00e+00	0	56	0	685768704	57	4388
2026-01-03 22:24:17.42	90.81	22.58	-47.2	-49.0	16.1	0.00e+00	0	56	0	687865856	57	4364
2026-01-03 22:24:18.41	91.08	22.56	-47.2	-49.0	16.0	0.00e+00	0	56	0	689963008	57	4368
2026-01-03 22:24:19.40	91.35	22.54	-47.3	-49.2	15.9	0.00e+00	0	56	0	691011584	57	4467
2026-01-03 22:24:20.38	91.61	22.52	-47.4	-49.3	15.8	0.00e+00	0	56	0	693108736	57	4516
2026-01-03 22:24:21.37	91.87	22.50	-47.4	-49.3	15.7	0.00e+00	0	56	0	695205888	57	4524
2026-01-03 22:24:22.36	92.14	22.48	-47.3	-49.1	15.9	0.00e+00	0	56	0	697303040	57	4435
2026-01-03 22:24:23.35	92.40	22.46	-47.2	-49.0	16.1	0.00e+00	0	56	0	698351616	57	4362
2026-01-03 22:24:24.34	92.67	22.43	-47.1	-48.9	16.1	0.00e+00	0	56	0	700448768	57	4331
2026-01-03 22:24:25.33	92.93	22.41	-46.9	-48.6	16.5	0.00e+00	0	56	0	702545920	56	4402
2026-01-03 22:24:26.31	93.19	22.39	-46.9	-48.6	16.4	0.00e+00	0	56	0	704643072	56	4402
2026-01-03 22:24:27.31	93.46	22.36	-47.0	-48.7	16.4	0.00e+00	0	56	0	705691648	56	4452
2026-01-03 22:24:28.30	93.72	22.34	-47.1	-48.9	16.2	0.00e+00	0	56	0	707788800	56	4563
2026-01-03 22:24:29.29	93.98	22.31	-47.2	-49.1	16.0	0.00e+00	0	56	0	709885952	56	4665
2026-01-03 22:24:30.27	94.24	22.29	-47.3	-49.1	15.9	2.21e-05	0	56	0	711983104	56	4699
2026-01-03 22:24:31.26	94.50	22.26	-47.3	-49.2	15.8	0.00e+00	0	56	0	714080256	56	4751
2026-01-03 22:24:32.25	94.76	22.23	-47.4	-49.3	15.8	0.00e+00	0	56	0	715128832	56	4779
2026-01-03 22:24:33.23	95.02	22.21	-47.2	-49.0	16.0	0.00e+00	0	56	0	717225984	56	4637
2026-01-03 22:24:34.22	95.28	22.18	-47.0	-48.8	16.2	0.00e+00	0	56	0	719323136	56	4518
2026-01-03 22:24:35.21	95.54	22.15	-47.0	-48.8	16.3	0.00e+00	0	56	0	721420288	56	4507
2026-01-03 22:24:36.20	95.80	22.12	-47.0	-48.7	16.3	0.00e+00	0	56	0	722468864	56	4466
2026-01-03 22:24:37.20	96.06	22.09	-46.7	-48.3	16.7	0.00e+00	0	56	0	724566016	56	4287
2026-01-03 22:24:38.19	96.32	22.06	-46.6	-48.2	16.8	0.00e+00	0	56	0	726663168	56	4238
2026-01-03 22:24:39.18	96.58	22.03	-46.6	-48.2	16.8	0.00e+00	0	56	0	728760320	56	4227
2026-01-03 22:24:40.18	96.84	22.00	-46.2	-47.6	17.3	0.00e+00	0	56	0	729808896	55	4191
2026-01-03 22:24:41.17	97.09	21.96	-46.1	-47.5	17.5	0.00e+00	0	56	0	731906048	55	4105
2026-01-03 22:24:42.15	97.35	21.93	-46.0	-47.5	17.4	0.00e+00	0	56	0	734003200	55	4108
2026-01-03 22:24:43.14	97.60	21.90	-46.1	-47.6	17.3	0.00e+00	0	56	0	736100352	55	4168
2026-01-03 22:24:44.12	97.85	21.86	-46.4	-47.9	17.0	0.00e+00	0	56	0	738197504	55	4338
2026-01-03 22:24:45.11	98.11	21.83	-46.4	-47.9	17.0	0.00e+00	0	56	0	739246080	55	4322
2026-01-03 22:24:46.09	98.36	21.80	-46.4	-47.9	17.0	0.00e+00	0	56	0	741343232	55	4332
2026-01-03 22:24:47.08	98.61	21.76	-46.4	-47.9	17.0	0.00e+00	0	56	0	743440384	55	4303
2026-01-03 22:24:48.06	98.86	21.72	-46.5	-48.0	16.9	0.00e+00	0	56	0	745537536	55	4363
2026-01-03 22:24:49.06	99.12	21.69	-46.2	-47.7	17.2	0.00e+00	0	56	0	746586112	55	4222
2026-01-03 22:24:50.04	99.37	21.65	-46.3	-47.8	17.2	0.00e+00	0	56	0	748683264	55	4254
2026-01-03 22:24:51.04	99.62	21.61	-46.3	-47.8	17.1	0.00e+00	0	56	0	750780416	55	4285
2026-01-03 22:24:52.03	99.87	21.58	-46.5	-48.1	16.9	0.00e+00	0	56	0	752877568	55	4392
2026-01-03 22:24:53.02	100.12	21.54	-46.1	-47.6	17.4	0.00e+00	0	56	0	753926144	55	4149
2026-01-03 22:24:54.01	100.37	21.50	-45.7	-47.1	17.8	0.00e+00	0	56	0	756023296	54	4172
2026-01-03 22:24:54.99	100.62	21.46	-45.6	-47.0	17.9	0.00e+00	0	56	0	758120448	54	4106
2026-01-03 22:24:55.99	100.87	21.42	-45.6	-46.9	18.0	0.00e+00	0	56	0	760217600	54	4097
2026-01-03 22:24:56.98	101.12	21.38	-45.6	-46.9	18.0	0.00e+00	0	56	0	762314752	54	4068
2026-01-03 22:24:57.96	101.36	21.34	-45.7	-47.1	17.8	0.00e+00	0	56	0	763363328	54	4173
2026-01-03 22:24:58.95	101.61	21.30	-45.6	-47.0	17.9	0.00e+00	0	56	0	765460480	54	4123
2026-01-03 22:24:59.94	101.85	21.26	-45.8	-47.2	17.7	0.00e+00	0	56	0	767557632	54	4212
2026-01-03 22:25:00.93	102.10	21.21	-45.7	-47.0	17.8	0.00e+00	0	56	0	769654784	54	4143
2026-01-03 22:25:01.93	102.34	21.17	-45.8	-47.1	17.8	0.00e+00	0	56	0	770703360	54	4181
2026-01-03 22:25:02.92	102.59	21.13	-46.0	-47.4	17.5	0.00e+00	0	56	0	772800512	54	4309
2026-01-03 22:25:03.91	102.83	21.09	-46.2	-47.6	17.3	0.00e+00	0	56	0	774897664	54	4420
2026-01-03 22:25:04.91	103.07	21.04	-46.2	-47.7	17.2	0.00e+00	0	56	0	776994816	54	4473
2026-01-03 22:25:05.90	103.32	21.00	-46.4	-48.0	17.0	0.00e+00	0	56	0	779091968	54	4612
2026-01-03 22:25:06.89	103.56	20.95	-46.5	-48.0	16.8	0.00e+00	0	56	0	780140544	54	4651
2026-01-03 22:25:07.88	103.80	20.91	-46.6	-48.3	16.6	0.00e+00	0	56	0	782237696	55	4507
2026-01-03 22:25:08.87	104.04	20.86	-46.8	-48.4	16.5	0.00e+00	0	56	0	784334848	55	4581
2026-01-03 22:25:09.85	104.27	20.82	-46.6	-48.3	16.6	0.00e+00	0	56	0	786432000	55	4501
2026-01-03 22:25:10.85	104.51	20.77	-46.5	-48.0	16.9	0.00e+00	0	56	0	787480576	55	4376
2026-01-03 22:25:11.84	104.75	20.72	-46.5	-48.1	16.9	0.00e+00	0	56	0	789577728	55	4393
2026-01-03 22:25:12.84	104.99	20.68	-46.3	-47.7	17.2	0.00e+00	0	56	0	791674880	55	4238
2026-01-03 22:25:13.83	105.23	20.63	-46.1	-47.5	17.3	0.00e+00	0	56	0	793772032	55	4142
2026-01-03 22:25:14.83	105.46	20.58	-46.0	-47.5	17.4	0.00e+00	0	56	0	794820608	55	4112
2026-01-03 22:25:15.81	105.70	20.53	-46.2	-47.6	17.3	0.00e+00	0	56	0	796917760	55	4182
2026-01-03 22:25:16.80	105.93	20.48	-46.1	-47.5	17.4	0.00e+00	0	56	0	799014912	55	4144
2026-01-03 22:25:17.79	106.16	20.43	-46.1	-47.6	17.4	0.00e+00	0	56	0	801112064	55	4150
2026-01-03 22:25:18.78	106.40	20.38	-46.3	-47.8	17.1	0.00e+00	0	56	0	802160640	55	4262
2026-01-03 22:25:19.76	106.63	20.33	-46.2	-47.7	17.1	0.00e+00	0	56	0	804257792	55	4240
2026-01-03 22:25:20.74	106.85	20.29	-46.4	-47.9	17.0	0.00e+00	0	56	0	806354944	55	4304
2026-01-03 22:25:21.72	107.08	20.24	-46.7	-48.4	16.6	0.00e+00	0	56	0	808452096	55	4550
2026-01-03 22:25:22.70	107.31	20.18	-47.0	-48.8	16.1	0.00e+00	0	56	0	810549248	55	4776
2026-01-03 22:25:23.70	107.54	20.13	-47.2	-49.0	16.0	0.00e+00	0	56	0	811597824	56	4643
2026-01-03 22:25:24.68	107.77	20.08	-47.4	-49.3	15.6	0.00e+00	0	56	0	813694976	56	4806
2026-01-03 22:25:25.68	108.00	20.03	-47.5	-49.4	15.6	0.00e+00	0	56	0	815792128	56	4836
2026-01-03 22:25:26.67	108.22	19.98	-47.6	-49.5	15.5	0.00e+00	0	56	0	817889280	56	4908
2026-01-03 22:25:27.66	108.45	19.92	-47.8	-49.8	15.2	0.00e+00	0	56	0	818937856	57	4786
2026-01-03 22:25:28.64	108.67	19.87	-47.8	-49.8	15.2	0.00e+00	0	56	0	821035008	57	4773
2026-01-03 22:25:29.62	108.89	19.82	-47.7	-49.7	15.3	0.00e+00	0	56	0	823132160	57	4739
2026-01-03 22:25:30.61	109.12	19.77	-47.6	-49.6	15.4	0.00e+00	0	56	0	825229312	57	4674
2026-01-03 22:25:31.60	109.34	19.71	-47.5	-49.5	15.5	0.00e+00	0	56	0	826277888	57	4614
2026-01-03 22:25:32.59	109.56	19.66	-47.4	-49.3	15.6	0.00e+00	0	56	0	828375040	57	4545
2026-01-03 22:25:33.58	109.78	19.60	-47.3	-49.2	15.8	0.00e+00	0	56	0	830472192	57	4454
2026-01-03 22:25:34.57	110.00	19.55	-47.0	-48.8	16.2	0.00e+00	0	56	0	832569344	57	4254
2026-01-03 22:25:35.55	110.22	19.49	-46.9	-48.7	16.3	0.00e+00	0	56	0	834666496	56	4443
2026-01-03 22:25:36.54	110.44	19.44	-47.0	-48.7	16.3	0.00e+00	0	56	0	835715072	56	4451
2026-01-03 22:25:37.53	110.66	19.38	-47.1	-48.9	16.1	0.00e+00	0	56	0	837812224	56	4567
2026-01-03 22:25:38.52	110.88	19.33	-47.2	-49.0	16.0	0.00e+00	0	56	0	839909376	56	4639
2026-01-03 22:25:39.51	111.09	19.27	-47.3	-49.2	15.8	0.00e+00	0	56	0	842006528	56	4726
2026-01-03 22:25:40.50	111.31	19.22	-47.5	-49.4	15.6	0.00e+00	0	56	0	843055104	56	4842
2026-01-03 22:25:41.49	111.52	19.16	-47.6	-49.5	15.5	0.00e+00	0	56	0	845152256	56	4909
2026-01-03 22:25:42.48	111.74	19.10	-47.7	-49.7	15.3	0.00e+00	0	56	0	847249408	57	4751
2026-01-03 22:25:43.47	111.95	19.04	-47.7	-49.8	15.3	0.00e+00	0	56	0	849346560	57	4760
2026-01-03 22:25:44.46	112.16	18.99	-47.9	-50.0	15.0	0.00e+00	0	56	0	850395136	57	4880
2026-01-03 22:25:45.45	112.38	18.93	-47.8	-49.9	15.0	0.00e+00	0	56	0	852492288	57	4862
2026-01-03 22:25:46.44	112.59	18.87	-47.8	-49.9	15.1	0.00e+00	0	56	0	854589440	57	4864
2026-01-03 22:25:47.43	112.80	18.81	-47.7	-49.8	15.2	0.00e+00	0	56	0	856686592	57	4803
2026-01-03 22:25:48.42	113.01	18.75	-47.7	-49.7	15.3	0.00e+00	0	56	0	858783744	57	4747
2026-01-03 22:25:49.41	113.22	18.70	-47.5	-49.5	15.5	0.00e+00	0	56	0	859832320	57	4640
2026-01-03 22:25:50.40	113.42	18.64	-47.2	-49.0	16.0	0.00e+00	0	56	0	861929472	57	4371
2026-01-03 22:25:51.38	113.63	18.58	-46.9	-48.6	16.4	0.00e+00	0	56	0	864026624	57	4183
2026-01-03 22:25:52.38	113.84	18.52	-46.9	-48.6	16.4	0.00e+00	0	56	0	866123776	56	4397
2026-01-03 22:25:53.36	114.04	18.46	-46.9	-48.6	16.5	0.00e+00	0	56	0	867172352	56	4393
2026-01-03 22:25:54.36	114.25	18.40	-47.0	-48.7	16.3	0.00e+00	0	56	0	869269504	56	4491
2026-01-03 22:25:55.35	114.45	18.34	-47.2	-49.0	16.0	0.00e+00	0	56	0	871366656	56	4613
2026-01-03 22:25:56.34	114.66	18.28	-47.3	-49.2	15.8	0.00e+00	0	56	0	873463808	56	4714
2026-01-03 22:25:57.33	114.86	18.22	-47.4	-49.2	15.8	0.00e+00	0	56	0	874512384	56	4756
2026-01-03 22:25:58.32	115.06	18.16	-47.2	-49.0	16.0	0.00e+00	0	56	0	876609536	56	4641
2026-01-03 22:25:59.31	115.26	18.10	-47.1	-48.9	16.1	0.00e+00	0	56	0	878706688	56	4553
2026-01-03 22:26:00.30	115.46	18.04	-47.1	-48.9	16.1	0.00e+00	0	56	0	880803840	56	4547
2026-01-03 22:26:01.29	115.66	17.98	-47.3	-49.1	15.9	0.00e+00	0	56	0	881852416	56	4697
2026-01-03 22:26:02.28	115.86	17.91	-47.5	-49.4	15.6	0.00e+00	0	56	0	883949568	56	4861
2026-01-03 22:26:03.27	116.06	17.85	-47.6	-49.6	15.4	0.00e+00	0	56	0	886046720	57	4676
2026-01-03 22:26:04.26	116.26	17.79	-47.8	-49.8	15.1	0.00e+00	0	56	0	888143872	57	4813
2026-01-03 22:26:05.26	116.45	17.73	-47.7	-49.8	15.2	0.00e+00	0	56	0	890241024	57	4800
2026-01-03 22:26:06.25	116.65	17.67	-47.8	-49.9	15.1	0.00e+00	0	56	0	891289600	57	4847
2026-01-03 22:26:07.23	116.84	17.60	-47.9	-50.0	15.0	0.00e+00	0	56	0	893386752	57	4883
2026-01-03 22:26:08.23	117.04	17.54	-48.0	-50.1	14.9	7.00e-07	0	56	0	895483904	57	4974
2026-01-03 22:26:09.22	117.23	17.48	-48.1	-50.5	14.5	0.00e+00	0	56	0	897581056	58	4899
2026-01-03 22:26:10.20	117.42	17.42	-48.0	-50.1	14.9	7.00e-07	0	56	0	898629632	58	4695
2026-01-03 22:26:11.19	117.61	17.35	-47.9	-50.1	14.9	0.00e+00	0	56	0	900726784	58	4685
2026-01-03 22:26:12.18	117.80	17.29	-47.9	-50.1	14.9	0.00e+00	0	56	0	902823936	58	4682
2026-01-03 22:26:13.17	117.99	17.23	-47.9	-50.0	14.9	0.00e+00	0	56	0	904921088	58	4649
2026-01-03 22:26:14.17	118.19	17.17	-47.9	-50.1	14.8	0.00e+00	0	56	0	907018240	58	4687
2026-01-03 22:26:15.16	118.37	17.10	-47.9	-50.0	15.0	0.00e+00	0	56	0	908066816	58	4619
2026-01-03 22:26:16.14	118.56	17.04	-47.8	-49.9	15.1	0.00e+00	0	56	0	910163968	58	4563
2026-01-03 22:26:17.13	118.75	16.98	-47.8	-49.9	15.1	0.00e+00	0	56	0	912261120	58	4586
2026-01-03 22:26:18.12	118.93	16.91	-48.0	-50.1	14.8	0.00e+00	0	56	0	914358272	58	4698
2026-01-03 22:26:19.11	119.12	16.85	-47.7	-49.8	15.2	0.00e+00	0	56	0	915406848	58	4526
2026-01-03 22:26:20.09	119.30	16.78	-47.7	-49.7	15.3	0.00e+00	0	56	0	917504000	58	4460
2026-01-03 22:26:21.07	119.48	16.72	-47.8	-49.9	15.1	0.00e+00	0	56	0	919601152	58	4557
2026-01-03 22:26:22.07	119.67	16.66	-48.1	-50.4	14.5	7.00e-07	0	56	0	921698304	58	4867
2026-01-03 22:26:23.05	119.85	16.59	-48.2	-50.6	14.4	2.20e-06	0	57	0	922746880	58	4936
2026-01-03 22:26:24.04	120.03	16.53	-48.4	-50.9	14.0	0.00e+00	0	56	0	924844032	58	5151
2026-01-03 22:26:25.03	120.21	16.46	-48.2	-50.6	14.4	1.50e-06	0	56	0	926941184	58	4942
2026-01-03 22:26:26.02	120.39	16.40	-47.9	-50.2	14.8	0.00e+00	0	56	0	929038336	58	4710
2026-01-03 22:26:27.01	120.57	16.33	-47.8	-49.8	15.1	0.00e+00	0	56	0	931135488	58	4534
2026-01-03 22:26:27.99	120.75	16.27	-47.6	-49.6	15.3	0.00e+00	0	57	0	932184064	58	4435
2026-01-03 22:26:28.99	120.93	16.21	-47.7	-49.8	15.1	0.00e+00	0	56	0	934281216	58	4538
2026-01-03 22:26:29.97	121.11	16.14	-47.7	-49.7	15.2	0.00e+00	0	56	0	936378368	58	4478
2026-01-03 22:26:30.96	121.28	16.08	-48.0	-50.1	14.9	7.00e-07	0	56	0	938475520	58	4689
2026-01-03 22:26:31.96	121.46	16.01	-47.9	-50.1	14.8	0.00e+00	0	56	0	939524096	58	4689
2026-01-03 22:26:32.95	121.64	15.94	-48.1	-50.4	14.5	7.00e-07	0	56	0	941621248	58	4856
2026-01-03 22:26:33.94	121.81	15.88	-48.0	-50.2	14.8	0.00e+00	0	56	0	943718400	58	4708
2026-01-03 22:26:34.94	121.98	15.81	-47.7	-49.8	15.2	0.00e+00	0	56	0	945815552	58	4494
2026-01-03 22:26:35.93	122.16	15.75	-47.5	-49.4	15.6	0.00e+00	0	56	0	946864128	58	4314
2026-01-03 22:26:36.92	122.33	15.68	-47.3	-49.1	15.8	0.00e+00	0	56	0	948961280	57	4429
2026-01-03 22:26:37.91	122.50	15.62	-47.1	-48.9	16.0	0.00e+00	0	56	0	951058432	57	4335
2026-01-03 22:26:38.90	122.67	15.55	-47.2	-49.1	15.8	0.00e+00	0	56	0	953155584	57	4418
2026-01-03 22:26:39.89	122.84	15.49	-47.2	-49.1	15.9	0.00e+00	0	56	0	955252736	57	4405
2026-01-03 22:26:40.88	123.01	15.42	-47.3	-49.1	15.8	0.00e+00	0	57	0	956301312	57	4425
2026-01-03 22:26:41.87	123.18	15.35	-47.4	-49.4	15.5	0.00e+00	0	56	0	958398464	57	4586
2026-01-03 22:26:42.85	123.35	15.29	-47.6	-49.7	15.2	0.00e+00	0	56	0	960495616	57	4718
2026-01-03 22:26:43.85	123.51	15.22	-47.7	-49.8	15.2	0.00e+00	0	56	0	962592768	57	4775
2026-01-03 22:26:44.84	123.68	15.16	-47.7	-49.8	15.1	0.00e+00	0	57	0	963641344	57	4769
2026-01-03 22:26:45.83	123.85	15.09	-47.7	-49.7	15.2	0.00e+00	0	56	0	965738496	57	4750
2026-01-03 22:26:46.83	124.01	15.02	-47.7	-49.8	15.1	0.00e+00	0	57	0	967835648	57	4773
2026-01-03 22:26:47.82	124.18	14.96	-47.5	-49.5	15.4	0.00e+00	0	57	0	969932800	57	4642
2026-01-03 22:26:48.80	124.34	14.89	-47.5	-49.5	15.4	0.00e+00	0	56	0	972029952	57	4615
2026-01-03 22:26:49.78	124.50	14.83	-47.6	-49.6	15.3	0.00e+00	0	56	0	973078528	57	4656
2026-01-03 22:26:50.78	124.66	14.76	-47.7	-49.9	15.1	0.00e+00	0	56	0	975175680	57	4818
2026-01-03 22:26:51.77	124.83	14.69	-47.9	-50.0	14.9	0.00e+00	0	57	0	977272832	57	4923
2026-01-03 22:26:52.76	124.99	14.63	-48.0	-50.3	14.6	0.00e+00	0	57	0	979369984	57	5099
2026-01-03 22:26:53.76	125.15	14.56	-48.2	-50.5	14.4	7.00e-07	0	56	0	980418560	58	4922
2026-01-03 22:26:54.75	125.31	14.50	-48.3	-50.7	14.2	1.50e-06	0	57	0	982515712	58	5023
2026-01-03 22:26:55.73	125.46	14.43	-48.1	-50.5	14.4	0.00e+00	0	57	0	984612864	58	4889
2026-01-03 22:26:56.72	125.62	14.36	-47.9	-50.1	14.8	0.00e+00	0	57	0	986710016	58	4684
2026-01-03 22:26:57.72	125.78	14.30	-47.8	-49.9	15.0	0.00e+00	0	57	0	987758592	58	4575
2026-01-03 22:26:58.71	125.94	14.23	-47.7	-49.8	15.1	0.00e+00	0	57	0	989855744	58	4540
2026-01-03 22:26:59.70	126.09	14.16	-47.8	-50.0	15.0	0.00e+00	0	57	0	991952896	58	4605
2026-01-03 22:27:00.68	126.25	14.10	-47.7	-49.9	15.0	0.00e+00	0	56	0	994050048	58	4579
2026-01-03 22:27:01.67	126.40	14.03	-47.9	-50.1	14.8	0.00e+00	0	56	0	995098624	58	4688
2026-01-03 22:27:02.66	126.56	13.97	-48.0	-50.2	14.7	0.00e+00	0	56	0	997195776	58	4732
2026-01-03 22:27:03.65	126.71	13.90	-48.2	-50.5	14.4	0.00e+00	0	57	0	999292928	58	4892
2026-01-03 22:27:04.65	126.86	13.83	-48.2	-50.7	14.2	0.00e+00	0	57	0	1001390080	58	4994
2026-01-03 22:27:05.64	127.02	13.77	-48.3	-50.9	14.1	0.00e+00	0	57	0	1003487232	58	5102
2026-01-03 22:27:06.62	127.17	13.70	-48.3	-50.8	14.1	1.50e-06	0	56	0	1004535808	58	5072
2026-01-03 22:27:07.62	127.32	13.63	-48.2	-50.5	14.3	1.50e-06	0	56	0	1006632960	58	4921
2026-01-03 22:27:08.61	127.47	13.57	-47.9	-50.2	14.7	0.00e+00	0	56	0	1008730112	58	4735
2026-01-03 22:27:09.60	127.62	13.50	-47.9	-50.1	14.8	0.00e+00	0	56	0	1010827264	58	4672
2026-01-03 22:27:10.58	127.77	13.43	-47.9	-50.0	14.9	0.00e+00	0	57	0	1011875840	58	4629
2026-01-03 22:27:11.56	127.91	13.37	-47.8	-49.9	14.9	0.00e+00	0	57	0	1013972992	58	4592
2026-01-03 22:27:12.55	128.06	13.30	-47.8	-49.9	15.0	0.00e+00	0	57	0	1016070144	58	4598
2026-01-03 22:27:13.53	128.20	13.24	-47.9	-50.0	14.9	7.00e-07	0	57	0	1018167296	58	4637
2026-01-03 22:27:14.52	128.35	13.17	-48.1	-50.4	14.5	7.00e-07	0	57	0	1019215872	58	4844
2026-01-03 22:27:15.50	128.50	13.11	-48.2	-50.6	14.3	7.00e-07	0	57	0	1021313024	58	4933
2026-01-03 22:27:16.50	128.64	13.04	-48.2	-50.7	14.2	1.50e-06	0	57	0	1023410176	58	4991
2026-01-03 22:27:17.49	128.79	12.97	-48.4	-50.8	14.0	3.80e-06	0	57	0	1025507328	58	5074
2026-01-03 22:27:18.48	128.93	12.91	-48.3	-50.8	14.1	1.50e-06	0	57	0	1027604480	58	5050
2026-01-03 22:27:19.48	129.07	12.84	-48.5	-51.0	13.9	1.50e-06	0	57	0	1028653056	58	5194
2026-01-03 22:27:20.47	129.22	12.77	-48.5	-51.0	13.8	8.30e-06	0	57	0	1030750208	58	5205
2026-01-03 22:27:21.45	129.36	12.71	-48.4	-50.9	13.9	1.50e-06	0	56	0	1032847360	58	5154
2026-01-03 22:27:22.45	129.50	12.64	-48.4	-50.9	13.9	2.20e-06	0	57	0	1034944512	58	5156
2026-01-03 22:27:23.44	129.64	12.57	-48.5	-51.1	13.8	2.20e-06	0	56	0	1035993088	58	5250
2026-01-03 22:27:24.44	129.78	12.51	-48.6	-51.2	13.7	6.80e-06	0	56	0	1038090240	59	5019
2026-01-03 22:27:25.42	129.92	12.44	-48.6	-51.2	13.7	5.30e-06	0	56	0	1040187392	59	4999
2026-01-03 22:27:26.41	130.06	12.38	-48.7	-51.4	13.5	7.60e-06	0	57	0	1042284544	59	5145
2026-01-03 22:27:27.40	130.20	12.31	-48.9	-51.8	13.1	3.20e-05	0	57	0	1044381696	59	5352
2026-01-03 22:27:28.38	130.33	12.24	-48.9	-51.7	13.1	2.74e-05	0	56	0	1045430272	59	5323
2026-01-03 22:27:29.35	130.47	12.18	-48.9	-51.9	12.9	6.48e-05	0	57	0	1047527424	60	5145
2026-01-03 22:27:30.34	130.60	12.11	-48.7	-51.6	13.2	2.97e-05	0	57	0	1049624576	60	4970
2026-01-03 22:27:31.32	130.74	12.05	-48.5	-51.2	13.5	9.90e-06	0	56	0	1051721728	60	4755
2026-01-03 22:27:32.32	130.87	11.98	-48.4	-50.9	13.9	5.30e-06	0	57	0	1052770304	59	4856
2026-01-03 22:27:33.31	131.01	11.92	-48.2	-50.6	14.2	7.00e-07	0	57	0	1054867456	59	4692
2026-01-03 22:27:34.30	131.14	11.85	-48.0	-50.3	14.5	7.00e-07	0	57	0	1056964608	59	4517
2026-01-03 22:27:35.30	131.28	11.78	-47.9	-50.2	14.6	7.00e-07	0	57	0	1059061760	58	4738
2026-01-03 22:27:36.28	131.41	11.72	-47.9	-50.2	14.7	0.00e+00	0	57	0	1060110336	58	4711
2026-01-03 22:27:37.27	131.54	11.65	-47.8	-49.9	14.9	0.00e+00	0	56	0	1062207488	58	4598
2026-01-03 22:27:38.25	131.67	11.59	-47.8	-49.9	14.9	0.00e+00	0	56	0	1064304640	58	4571
2026-01-03 22:27:39.25	131.81	11.52	-47.8	-50.0	14.8	0.00e+00	0	57	0	1066401792	58	4608
2026-01-03 22:27:40.24	131.94	11.46	-47.7	-49.8	15.0	0.00e+00	0	57	0	1067450368	58	4541
2026-01-03 22:27:41.23	132.07	11.39	-47.8	-49.9	14.9	0.00e+00	0	57	0	1069547520	58	4568
2026-01-03 22:27:42.22	132.20	11.33	-47.8	-50.0	14.8	0.00e+00	0	57	0	1071644672	58	4630
2026-01-03 22:27:43.21	132.32	11.26	-47.8	-50.1	14.8	0.00e+00	0	57	0	1073741824	58	4652
2026-01-03 22:27:44.21	132.45	11.19	-47.9	-50.1	14.7	7.00e-07	0	57	0	1075838976	58	4697
2026-01-03 22:27:45.20	132.58	11.13	-48.0	-50.2	14.6	0.00e+00	0	57	0	1076887552	58	4750
2026-01-03 22:27:46.19	132.71	11.06	-48.0	-50.2	14.6	7.00e-07	0	57	0	1078984704	58	4754
2026-01-03 22:27:47.18	132.84	11.00	-48.0	-50.3	14.5	7.00e-07	0	57	0	1081081856	58	4787
2026-01-03 22:27:48.17	132.96	10.93	-48.1	-50.5	14.3	0.00e+00	0	57	0	1083179008	58	4889
2026-01-03 22:27:49.16	133.09	10.87	-48.1	-50.4	14.4	4.50e-06	0	57	0	1084227584	58	4846
2026-01-03 22:27:50.15	133.21	10.80	-48.1	-50.5	14.3	2.20e-06	0	57	0	1086324736	58	4923
2026-01-03 22:27:51.14	133.34	10.74	-48.3	-50.8	14.0	7.00e-07	0	57	0	1088421888	58	5070
2026-01-03 22:27:52.14	133.46	10.67	-48.3	-50.8	14.0	2.20e-06	0	57	0	1090519040	58	5077
2026-01-03 22:27:53.12	133.59	10.61	-48.4	-51.0	13.8	3.80e-06	0	56	0	1091567616	58	5201
2026-01-03 22:27:54.11	133.71	10.54	-48.4	-51.0	13.8	3.00e-06	0	56	0	1093664768	58	5172
2026-01-03 22:27:55.10	133.83	10.48	-48.5	-51.2	13.6	6.10e-06	0	57	0	1095761920	58	5280
2026-01-03 22:27:56.09	133.95	10.41	-48.6	-51.4	13.4	1.22e-05	0	57	0	1097859072	59	5136
2026-01-03 22:27:57.08	134.08	10.35	-48.6	-51.3	13.5	9.90e-06	0	56	0	1099956224	59	5058
2026-01-03 22:27:58.08	134.20	10.28	-48.7	-51.4	13.3	1.22e-05	0	56	0	1101004800	59	5156
2026-01-03 22:27:59.06	134.32	10.22	-48.5	-51.1	13.6	7.60e-06	0	57	0	1103101952	59	4967
2026-01-03 22:28:00.07	134.44	10.15	-48.4	-51.0	13.7	7.60e-06	0	57	0	1105199104	59	4904
2026-01-03 22:28:01.06	134.56	10.09	-48.5	-51.1	13.7	4.50e-06	0	57	0	1107296256	59	4947
2026-01-03 22:28:02.05	134.68	10.03	-48.3	-50.8	13.9	3.80e-06	0	56	0	1108344832	59	4811
2026-01-03 22:28:03.04	134.80	9.96	-48.5	-51.1	13.6	6.80e-06	0	57	0	1110441984	59	4962
2026-01-03 22:28:04.03	134.91	9.90	-48.3	-50.8	13.9	6.10e-06	0	56	0	1112539136	59	4795
2026-01-03 22:28:05.02	135.03	9.83	-48.2	-50.6	14.1	3.80e-06	0	56	0	1114636288	59	4696
2026-01-03 22:28:06.02	135.15	9.77	-48.2	-50.7	14.1	2.20e-06	0	57	0	1116733440	59	4712
2026-01-03 22:28:07.00	135.27	9.70	-48.2	-50.7	14.0	1.50e-06	0	57	0	1117782016	59	4756
2026-01-03 22:28:08.00	135.38	9.64	-48.2	-50.7	14.0	1.50e-06	0	57	0	1119879168	59	4733
2026-01-03 22:28:08.99	135.50	9.58	-48.3	-50.9	13.8	5.30e-06	0	57	0	1121976320	59	4853
2026-01-03 22:28:09.98	135.61	9.51	-48.5	-51.2	13.5	7.60e-06	0	57	0	1124073472	59	5027
2026-01-03 22:28:10.97	135.73	9.45	-48.5	-51.2	13.4	9.90e-06	0	57	0	1125122048	59	5041
2026-01-03 22:28:11.97	135.84	9.38	-48.6	-51.4	13.3	8.30e-06	0	57	0	1127219200	59	5105
2026-01-03 22:28:12.96	135.96	9.32	-48.6	-51.4	13.2	1.44e-05	0	57	0	1129316352	59	5153
2026-01-03 22:28:13.96	136.07	9.26	-48.7	-51.5	13.2	3.28e-05	0	57	0	1131413504	59	5213
2026-01-03 22:28:14.94	136.18	9.19	-48.7	-51.6	13.1	2.21e-05	0	57	0	1132462080	59	5259
2026-01-03 22:28:15.92	136.29	9.13	-48.8	-51.8	12.8	4.65e-05	0	57	0	1134559232	59	5386
2026-01-03 22:28:16.92	136.41	9.07	-48.9	-51.9	12.7	7.09e-05	0	57	0	1136656384	59	5447
2026-01-03 22:28:17.91	136.52	9.00	-49.0	-52.1	12.5	1.09e-04	0	57	0	1138753536	59	5586
2026-01-03 22:28:18.90	136.63	8.94	-49.0	-52.1	12.5	1.24e-04	0	57	0	1140850688	59	5583
2026-01-03 22:28:19.89	136.74	8.88	-49.1	-52.5	12.1	2.35e-04	0	57	0	1141899264	60	5491
2026-01-03 22:28:20.88	136.85	8.81	-49.0	-52.3	12.3	2.55e-04	0	57	0	1143996416	60	5397
2026-01-03 22:28:21.87	136.96	8.75	-49.1	-52.6	12.0	2.16e-04	0	57	0	1146093568	60	5557
2026-01-03 22:28:22.86	137.07	8.69	-49.1	-52.6	12.0	3.69e-04	0	57	0	1148190720	60	5539
2026-01-03 22:28:23.86	137.18	8.62	-49.1	-52.6	12.0	2.95e-04	0	57	0	1149239296	60	5576
2026-01-03 22:28:24.85	137.28	8.56	-49.3	-52.9	11.7	4.54e-04	0	57	0	1151336448	60	5762
2026-01-03 22:28:25.84	137.39	8.50	-49.1	-52.6	12.0	4.50e-04	0	57	0	1153433600	60	5532
2026-01-03 22:28:26.83	137.50	8.44	-49.1	-52.4	12.1	2.35e-04	0	57	0	1155530752	60	5452
2026-01-03 22:28:27.82	137.61	8.37	-49.1	-52.6	12.0	2.72e-04	0	57	0	1157627904	60	5542
2026-01-03 22:28:28.80	137.71	8.31	-49.1	-52.6	12.0	3.81e-04	0	57	0	1158676480	60	5545
2026-01-03 22:28:29.79	137.82	8.25	-49.1	-52.5	12.0	3.26e-04	0	57	0	1160773632	60	5521
2026-01-03 22:28:30.77	137.92	8.19	-49.1	-52.6	12.0	3.01e-04	0	57	0	1162870784	60	5550
2026-01-03 22:28:31.76	138.03	8.12	-49.0	-52.4	12.2	2.58e-04	0	57	0	1164967936	60	5442
2026-01-03 22:28:32.74	138.13	8.06	-49.2	-52.6	11.9	3.04e-04	0	57	0	1166016512	60	5585
2026-01-03 22:28:33.74	138.23	8.00	-49.1	-52.6	12.0	4.52e-04	0	57	0	1168113664	60	5548
2026-01-03 22:28:34.73	138.34	7.94	-49.0	-52.4	12.1	2.55e-04	0	57	0	1170210816	60	5451
2026-01-03 22:28:35.72	138.44	7.88	-49.1	-52.5	12.0	3.33e-04	0	57	0	1172307968	60	5522
2026-01-03 22:28:36.71	138.54	7.81	-49.0	-52.4	12.2	3.78e-04	0	57	0	1173356544	60	5405
2026-01-03 22:28:37.70	138.65	7.75	-48.8	-52.1	12.5	1.85e-04	0	57	0	1175453696	60	5228
2026-01-03 22:28:38.69	138.75	7.69	-48.8	-52.1	12.5	1.20e-04	0	57	0	1177550848	60	5219
2026-01-03 22:28:39.68	138.85	7.63	-48.7	-51.8	12.7	7.40e-05	0	57	0	1179648000	60	5075
2026-01-03 22:28:40.67	138.95	7.57	-48.7	-51.9	12.7	6.63e-05	0	57	0	1181745152	60	5119
2026-01-03 22:28:41.66	139.05	7.50	-48.6	-51.7	12.8	7.85e-05	0	57	0	1182793728	60	5010
2026-01-03 22:28:42.65	139.15	7.44	-48.6	-51.5	13.0	2.59e-05	0	57	0	1184890880	60	4919
2026-01-03 22:28:43.64	139.25	7.38	-48.6	-51.6	12.9	5.64e-05	0	57	0	1186988032	60	4954
2026-01-03 22:28:44.63	139.35	7.32	-48.5	-51.5	13.0	3.50e-05	0	57	0	1189085184	60	4888
2026-01-03 22:28:45.62	139.45	7.26	-48.6	-51.6	13.0	3.89e-05	0	57	0	1190133760	60	4937
2026-01-03 22:28:46.60	139.55	7.20	-48.7	-51.7	12.8	6.71e-05	0	57	0	1192230912	60	5015
2026-01-03 22:28:47.58	139.65	7.14	-48.6	-51.7	12.8	4.80e-05	0	57	0	1194328064	60	4989
2026-01-03 22:28:48.57	139.75	7.08	-48.8	-52.0	12.5	7.09e-05	0	57	0	1196425216	60	5165
2026-01-03 22:28:49.56	139.84	7.02	-48.7	-51.9	12.6	1.07e-04	0	57	0	1197473792	60	5116
2026-01-03 22:28:50.55	139.94	6.96	-48.8	-51.9	12.5	9.76e-05	0	57	0	1199570944	60	5159
2026-01-03 22:28:51.54	140.04	6.89	-49.0	-52.4	12.0	1.94e-04	0	57	0	1201668096	60	5448
2026-01-03 22:28:52.52	140.13	6.83	-48.9	-52.4	12.0	3.36e-04	0	57	0	1203765248	60	5428
2026-01-03 22:28:53.52	140.23	6.77	-48.9	-52.2	12.2	1.85e-04	0	57	0	1204813824	60	5296
2026-01-03 22:28:54.51	140.33	6.71	-48.9	-52.3	12.2	2.46e-04	0	57	0	1206910976	60	5349
2026-01-03 22:28:55.50	140.42	6.65	-49.0	-52.4	12.0	3.49e-04	0	57	0	1209008128	60	5409
2026-01-03 22:28:56.49	140.52	6.59	-48.9	-52.3	12.1	2.99e-04	0	57	0	1211105280	60	5390
2026-01-03 22:28:57.48	140.61	6.53	-49.0	-52.5	11.9	3.04e-04	0	57	0	1213202432	60	5508
2026-01-03 22:28:58.47	140.70	6.47	-49.0	-52.5	11.9	3.74e-04	0	57	0	1214251008	60	5483
2026-01-03 22:28:59.46	140.80	6.41	-49.1	-52.6	11.8	4.23e-04	0	57	0	1216348160	60	5562
2026-01-03 22:29:00.46	140.89	6.35	-49.1	-52.7	11.7	5.34e-04	0	57	0	1218445312	60	5616
2026-01-03 22:29:01.45	140.99	6.29	-49.1	-52.7	11.7	6.46e-04	0	57	0	1220542464	60	5595
2026-01-03 22:29:02.43	141.08	6.23	-48.9	-52.3	12.1	3.88e-04	0	57	0	1221591040	60	5353
