passes_logs/2026/01/03/R3.0SM8_Murmansk_STILSPACE/R3.0SM8_Murmansk_STILSPACE__20260103_073650_FENGYUN_3D_rec.log

#Pass ID: 20260103_073650_FENGYUN 3D
#Satellite: FENGYUN 3D
#Configuration: FENGYUN 3D
#almurnet v.1.7.20240730
#Start time: 2026-01-03 07:36:51

#Version: 2.2.20231116
#Station: R3.0SM8_Murmansk_STILSPACE
#Location: 33.092731 lon 68.902999 lat
#TLE: 1 43010U 17072A   26002.31768531  .00000715  00000+0  35975-3 0  9993
#TLE: 2 43010  98.9910 333.9388 0001871 131.0716 229.0622 14.19693418421454

#Time	Az	El	Level	Level2	SNR	BER	BlckErr	Temp	State	Recorded	gain1	gain2
2026-01-03 07:36:51.07	67.99	3.04	-53.0	-63.8	3.8	8.45e-01	0	45	0	0	68	12807
2026-01-03 07:36:52.05	67.92	3.10	-52.8	-63.6	3.8	8.46e-01	0	46	104	0	68	12514
2026-01-03 07:36:53.04	67.86	3.16	-52.8	-63.6	3.8	8.47e-01	0	46	104	0	68	12419
2026-01-03 07:36:54.02	67.79	3.22	-52.7	-63.5	3.8	8.47e-01	0	46	104	0	68	12288
2026-01-03 07:36:55.02	67.72	3.28	-52.5	-63.3	3.8	8.45e-01	0	46	104	0	68	12057
2026-01-03 07:36:56.01	67.66	3.33	-52.2	-62.9	3.8	8.46e-01	0	46	104	0	67	12143
2026-01-03 07:36:57.00	67.59	3.39	-52.0	-62.7	3.8	8.46e-01	0	46	104	0	66	12569
2026-01-03 07:36:57.98	67.52	3.45	-51.9	-62.6	3.8	8.46e-01	0	46	104	0	66	12514
2026-01-03 07:36:58.97	67.45	3.51	-51.9	-62.6	3.8	8.46e-01	0	47	104	0	66	12431
2026-01-03 07:36:59.95	67.39	3.57	-52.0	-62.6	3.8	8.46e-01	0	46	104	0	66	12480
2026-01-03 07:37:00.95	67.32	3.63	-51.9	-62.6	3.8	8.46e-01	0	47	104	0	66	12447
2026-01-03 07:37:01.94	67.25	3.69	-51.8	-62.6	3.8	8.46e-01	0	46	104	0	66	12415
2026-01-03 07:37:02.92	67.18	3.74	-52.0	-62.6	3.8	8.46e-01	0	47	104	0	66	12453
2026-01-03 07:37:03.91	67.11	3.80	-51.8	-62.6	3.8	8.45e-01	0	47	104	0	66	12474
2026-01-03 07:37:04.90	67.04	3.86	-51.9	-62.6	3.8	8.46e-01	0	46	104	0	66	12428
2026-01-03 07:37:05.90	66.97	3.92	-51.8	-62.5	3.8	8.46e-01	0	47	104	0	66	12283
2026-01-03 07:37:06.89	66.90	3.98	-51.9	-62.3	3.8	8.46e-01	0	47	104	0	66	12003
2026-01-03 07:37:07.88	66.83	4.04	-51.8	-61.9	3.8	8.47e-01	0	47	104	0	66	11473
2026-01-03 07:37:08.87	66.76	4.10	-51.8	-61.3	3.8	8.47e-01	0	47	104	0	66	10727
2026-01-03 07:37:09.86	66.69	4.16	-51.7	-60.5	3.8	8.45e-01	0	47	104	0	66	9727
2026-01-03 07:37:10.85	66.61	4.22	-51.4	-58.8	4.3	8.37e-01	0	47	0	0	65	8506
2026-01-03 07:37:11.84	66.54	4.28	-51.0	-57.4	4.8	8.12e-01	0	47	0	0	65	7274
2026-01-03 07:37:12.83	66.47	4.34	-50.7	-56.1	5.7	6.46e-01	0	47	0	0	64	6585
2026-01-03 07:37:13.82	66.40	4.40	-50.3	-54.8	6.7	2.67e-01	0	47	0	5242880	63	6045
2026-01-03 07:37:14.81	66.33	4.46	-49.9	-53.8	7.7	1.28e-01	0	48	0	10485760	63	5352
2026-01-03 07:37:15.79	66.25	4.52	-49.5	-52.9	8.6	5.17e-02	0	47	0	16777216	62	5132
2026-01-03 07:37:16.78	66.18	4.58	-49.1	-52.0	9.4	2.87e-02	0	48	0	22020096	61	4916
2026-01-03 07:37:17.78	66.11	4.64	-48.7	-51.3	10.2	8.55e-03	0	48	0	27262976	60	4794
2026-01-03 07:37:18.77	66.03	4.70	-48.4	-50.8	10.8	4.39e-03	0	48	0	33554432	59	4786
2026-01-03 07:37:19.76	65.96	4.76	-48.1	-50.3	11.3	2.02e-03	0	48	0	38797312	59	4501
2026-01-03 07:37:20.75	65.88	4.82	-47.6	-49.7	12.0	6.09e-04	0	48	0	44040192	58	4451
2026-01-03 07:37:21.74	65.81	4.88	-47.3	-49.2	12.5	1.88e-04	0	48	0	50331648	57	4463
2026-01-03 07:37:22.73	65.73	4.94	-47.1	-48.9	12.8	9.49e-05	0	48	0	55574528	57	4300
2026-01-03 07:37:23.72	65.66	5.01	-47.0	-48.8	12.9	6.40e-05	0	48	0	60817408	57	4249
2026-01-03 07:37:24.71	65.58	5.07	-47.3	-49.1	12.5	1.40e-04	0	48	0	66060288	57	4425
2026-01-03 07:37:25.70	65.50	5.13	-47.2	-49.0	12.7	1.59e-04	0	48	0	72351744	57	4351
2026-01-03 07:37:26.69	65.43	5.19	-47.1	-48.8	12.9	8.58e-05	0	48	0	77594624	57	4272
2026-01-03 07:37:27.68	65.35	5.25	-47.2	-48.9	12.8	9.95e-05	0	48	0	83886080	57	4340
2026-01-03 07:37:28.67	65.27	5.31	-47.1	-48.9	12.9	8.92e-05	0	48	0	89128960	57	4308
2026-01-03 07:37:29.64	65.20	5.37	-47.0	-48.7	13.0	6.63e-05	0	48	0	94371840	57	4241
2026-01-03 07:37:30.63	65.12	5.43	-47.3	-49.2	12.6	1.02e-04	0	48	0	99614720	57	4467
2026-01-03 07:37:31.62	65.04	5.49	-47.3	-49.1	12.7	1.83e-04	0	49	0	104857600	57	4396
2026-01-03 07:37:32.61	64.96	5.56	-47.0	-48.7	13.1	8.69e-05	0	49	0	111149056	57	4200
2026-01-03 07:37:33.60	64.88	5.62	-46.7	-48.3	13.5	2.51e-05	0	49	0	116391936	56	4261
2026-01-03 07:37:34.59	64.80	5.68	-46.5	-48.0	13.8	1.37e-05	0	49	0	122683392	56	4138
2026-01-03 07:37:35.58	64.72	5.74	-46.3	-47.7	14.0	3.40e-06	0	49	0	127926272	55	4238
2026-01-03 07:37:36.57	64.64	5.80	-46.0	-47.5	14.2	1.10e-06	0	49	0	133169152	55	4102
2026-01-03 07:37:37.56	64.56	5.87	-45.9	-47.3	14.4	1.10e-06	0	49	0	138412032	54	4285
2026-01-03 07:37:38.55	64.48	5.93	-46.1	-47.5	14.2	0.00e+00	0	49	0	144703488	54	4352
2026-01-03 07:37:39.53	64.40	5.99	-46.2	-47.6	14.1	2.20e-06	0	49	0	149946368	54	4424
2026-01-03 07:37:40.53	64.32	6.05	-46.1	-47.6	14.2	4.50e-06	0	49	0	155189248	54	4399
2026-01-03 07:37:41.51	64.24	6.11	-46.1	-47.6	14.2	1.10e-06	0	49	0	161480704	54	4407
2026-01-03 07:37:42.50	64.16	6.18	-45.9	-47.2	14.6	0.00e+00	0	49	0	166723584	54	4225
2026-01-03 07:37:43.50	64.07	6.24	-45.7	-47.1	14.8	0.00e+00	0	49	0	171966464	54	4149
2026-01-03 07:37:44.49	63.99	6.30	-45.7	-47.0	14.8	2.20e-06	0	49	0	178257920	54	4130
2026-01-03 07:37:45.47	63.91	6.37	-45.7	-47.0	14.9	1.10e-06	0	49	0	183500800	54	4110
2026-01-03 07:37:46.46	63.82	6.43	-45.9	-47.2	14.7	0.00e+00	0	50	0	188743680	54	4223
2026-01-03 07:37:47.45	63.74	6.49	-45.9	-47.2	14.7	3.40e-06	0	50	0	193986560	54	4211
2026-01-03 07:37:48.45	63.65	6.56	-45.7	-47.0	14.9	1.10e-06	0	49	0	200278016	54	4133
2026-01-03 07:37:49.44	63.57	6.62	-45.8	-47.1	14.8	0.00e+00	0	50	0	205520896	54	4149
2026-01-03 07:37:50.43	63.48	6.68	-45.8	-47.1	14.8	0.00e+00	0	50	0	211812352	54	4187
2026-01-03 07:37:51.43	63.40	6.75	-46.0	-47.3	14.6	0.00e+00	0	50	0	217055232	54	4286
2026-01-03 07:37:52.42	63.31	6.81	-46.0	-47.3	14.6	0.00e+00	0	50	0	222298112	54	4266
2026-01-03 07:37:53.40	63.23	6.87	-46.0	-47.3	14.6	0.00e+00	0	50	0	227540992	54	4263
2026-01-03 07:37:54.40	63.14	6.94	-46.1	-47.5	14.4	0.00e+00	0	50	0	233832448	54	4378
2026-01-03 07:37:55.38	63.05	7.00	-46.1	-47.5	14.5	3.40e-06	0	50	0	239075328	54	4348
2026-01-03 07:37:56.38	62.96	7.07	-45.9	-47.3	14.7	1.10e-06	0	50	0	244318208	54	4248
2026-01-03 07:37:57.37	62.88	7.13	-46.0	-47.3	14.6	1.10e-06	0	50	0	250609664	54	4283
2026-01-03 07:37:58.36	62.79	7.19	-46.1	-47.4	14.6	0.00e+00	0	50	0	255852544	54	4314
2026-01-03 07:37:59.35	62.70	7.26	-46.0	-47.4	14.6	1.10e-06	0	50	0	261095424	54	4303
2026-01-03 07:38:00.34	62.61	7.32	-45.8	-47.0	15.0	0.00e+00	0	50	0	267386880	54	4139
2026-01-03 07:38:01.32	62.52	7.39	-45.7	-47.0	15.0	0.00e+00	0	50	0	272629760	54	4111
2026-01-03 07:38:02.32	62.43	7.45	-45.8	-47.1	14.9	0.00e+00	0	50	0	277872640	54	4153
2026-01-03 07:38:03.31	62.34	7.52	-45.9	-47.2	14.9	0.00e+00	0	50	0	284164096	54	4205
2026-01-03 07:38:04.30	62.25	7.58	-45.6	-46.9	15.1	0.00e+00	0	50	0	289406976	54	4074
2026-01-03 07:38:05.29	62.16	7.65	-45.5	-46.7	15.3	0.00e+00	0	50	0	294649856	54	4003
2026-01-03 07:38:06.27	62.07	7.71	-45.5	-46.7	15.3	0.00e+00	0	50	0	300941312	54	3980
2026-01-03 07:38:07.26	61.97	7.77	-45.5	-46.7	15.3	1.10e-06	0	51	0	306184192	54	4003
2026-01-03 07:38:08.26	61.88	7.84	-45.7	-46.9	15.1	0.00e+00	0	50	0	311427072	54	4086
2026-01-03 07:38:09.25	61.79	7.91	-45.7	-46.9	15.1	0.00e+00	0	51	0	316669952	54	4066
2026-01-03 07:38:10.24	61.69	7.97	-45.4	-46.6	15.4	0.00e+00	0	51	0	322961408	54	3949
2026-01-03 07:38:11.23	61.60	8.04	-45.3	-46.5	15.6	0.00e+00	0	51	0	328204288	53	4100
2026-01-03 07:38:12.21	61.51	8.10	-45.1	-46.2	15.8	0.00e+00	0	51	0	333447168	53	4003
2026-01-03 07:38:13.20	61.41	8.17	-45.2	-46.4	15.7	0.00e+00	0	51	0	339738624	53	4066
2026-01-03 07:38:14.20	61.32	8.23	-45.1	-46.3	15.8	0.00e+00	0	51	0	344981504	53	4016
2026-01-03 07:38:15.19	61.22	8.30	-45.3	-46.4	15.7	0.00e+00	0	51	0	350224384	53	4092
2026-01-03 07:38:16.17	61.12	8.36	-45.4	-46.6	15.5	0.00e+00	0	51	0	356515840	53	4162
2026-01-03 07:38:17.16	61.03	8.43	-45.3	-46.4	15.6	0.00e+00	0	51	0	361758720	53	4088
2026-01-03 07:38:18.14	60.93	8.50	-45.4	-46.5	15.6	0.00e+00	0	51	0	367001600	53	4121
2026-01-03 07:38:19.13	60.83	8.56	-45.5	-46.7	15.4	0.00e+00	0	51	0	373293056	53	4215
2026-01-03 07:38:20.13	60.74	8.63	-45.2	-46.3	15.8	0.00e+00	0	51	0	378535936	53	4046
2026-01-03 07:38:21.12	60.64	8.69	-45.3	-46.4	15.7	0.00e+00	0	51	0	383778816	53	4084
2026-01-03 07:38:22.11	60.54	8.76	-45.3	-46.5	15.6	0.00e+00	0	51	0	389021696	53	4129
2026-01-03 07:38:23.10	60.44	8.83	-45.6	-46.8	15.3	0.00e+00	0	51	0	395313152	53	4271
2026-01-03 07:38:24.09	60.34	8.89	-45.4	-46.6	15.5	0.00e+00	0	51	0	400556032	53	4174
2026-01-03 07:38:25.08	60.24	8.96	-45.6	-46.9	15.2	0.00e+00	0	51	0	405798912	53	4297
2026-01-03 07:38:26.07	60.14	9.03	-45.8	-47.1	15.0	0.00e+00	0	51	0	412090368	53	4410
2026-01-03 07:38:27.06	60.04	9.09	-45.6	-46.8	15.3	1.10e-06	0	51	0	417333248	53	4268
2026-01-03 07:38:28.03	59.94	9.16	-45.4	-46.6	15.5	0.00e+00	0	51	0	422576128	53	4167
2026-01-03 07:38:29.00	59.84	9.23	-45.4	-46.6	15.5	0.00e+00	0	51	0	427819008	53	4159
2026-01-03 07:38:29.99	59.74	9.29	-45.4	-46.6	15.6	0.00e+00	0	51	0	434110464	53	4165
2026-01-03 07:38:30.98	59.63	9.36	-45.4	-46.6	15.5	0.00e+00	0	51	0	439353344	53	4161
2026-01-03 07:38:31.98	59.53	9.43	-45.4	-46.6	15.5	0.00e+00	0	51	0	444596224	53	4182
2026-01-03 07:38:32.96	59.42	9.49	-45.5	-46.7	15.4	0.00e+00	0	51	0	450887680	53	4240
2026-01-03 07:38:33.95	59.32	9.56	-45.8	-47.0	15.1	0.00e+00	0	52	0	456130560	53	4391
2026-01-03 07:38:34.94	59.22	9.63	-45.5	-46.7	15.5	0.00e+00	0	52	0	461373440	53	4201
2026-01-03 07:38:35.93	59.11	9.70	-45.3	-46.5	15.7	0.00e+00	0	52	0	467664896	53	4107
2026-01-03 07:38:36.92	59.00	9.76	-45.2	-46.4	15.9	0.00e+00	0	52	0	472907776	53	4055
2026-01-03 07:38:37.91	58.90	9.83	-45.2	-46.3	15.9	0.00e+00	0	52	0	478150656	53	4042
2026-01-03 07:38:38.90	58.79	9.90	-45.3	-46.4	15.8	0.00e+00	0	52	0	483393536	53	4071
2026-01-03 07:38:39.89	58.68	9.97	-45.4	-46.6	15.6	0.00e+00	0	52	0	489684992	53	4169
2026-01-03 07:38:40.87	58.58	10.04	-45.3	-46.5	15.8	0.00e+00	0	52	0	494927872	53	4104
2026-01-03 07:38:41.87	58.47	10.11	-45.4	-46.6	15.6	0.00e+00	0	52	0	500170752	53	4171
2026-01-03 07:38:42.85	58.36	10.17	-45.8	-47.0	15.3	0.00e+00	0	52	0	506462208	53	4359
2026-01-03 07:38:43.85	58.25	10.24	-45.6	-46.8	15.4	0.00e+00	0	52	0	511705088	53	4248
2026-01-03 07:38:44.84	58.14	10.31	-45.3	-46.4	15.8	0.00e+00	0	52	0	516947968	53	4071
2026-01-03 07:38:45.82	58.03	10.38	-45.0	-46.1	16.1	0.00e+00	0	52	0	523239424	53	3939
2026-01-03 07:38:46.82	57.91	10.45	-44.9	-46.0	16.3	0.00e+00	0	52	0	528482304	52	4101
2026-01-03 07:38:47.82	57.80	10.52	-44.8	-45.8	16.4	0.00e+00	0	52	0	533725184	52	4044
2026-01-03 07:38:48.81	57.69	10.59	-44.8	-45.8	16.4	0.00e+00	0	52	0	540016640	52	4041
2026-01-03 07:38:49.79	57.58	10.65	-44.9	-45.9	16.3	0.00e+00	0	52	0	545259520	52	4090
2026-01-03 07:38:50.78	57.46	10.72	-44.7	-45.8	16.5	0.00e+00	0	52	0	550502400	52	4025
2026-01-03 07:38:51.77	57.35	10.79	-44.6	-45.6	16.6	0.00e+00	0	52	0	556793856	52	3939
2026-01-03 07:38:52.76	57.24	10.86	-44.5	-45.5	16.7	0.00e+00	0	52	0	562036736	52	3911
2026-01-03 07:38:53.76	57.12	10.93	-44.5	-45.4	16.9	0.00e+00	0	52	0	567279616	52	3855
2026-01-03 07:38:54.75	57.00	11.00	-44.4	-45.4	16.9	0.00e+00	0	52	0	573571072	52	3843
2026-01-03 07:38:55.74	56.89	11.07	-44.6	-45.6	16.7	0.00e+00	0	52	0	578813952	52	3947
2026-01-03 07:38:56.73	56.77	11.14	-44.7	-45.7	16.6	0.00e+00	0	52	0	584056832	52	3971
2026-01-03 07:38:57.72	56.65	11.21	-44.7	-45.7	16.5	0.00e+00	0	52	0	590348288	52	3993
2026-01-03 07:38:58.71	56.53	11.28	-44.8	-45.8	16.5	0.00e+00	0	53	0	595591168	52	4026
2026-01-03 07:38:59.70	56.42	11.35	-44.8	-45.8	16.5	0.00e+00	0	52	0	600834048	52	4039
2026-01-03 07:39:00.69	56.30	11.42	-44.9	-46.0	16.3	0.00e+00	0	53	0	606076928	52	4100
2026-01-03 07:39:01.67	56.18	11.49	-44.8	-45.8	16.5	0.00e+00	0	53	0	612368384	52	4040
2026-01-03 07:39:02.65	56.06	11.56	-44.9	-45.9	16.4	0.00e+00	0	53	0	617611264	52	4093
2026-01-03 07:39:03.64	55.94	11.63	-44.8	-45.9	16.4	0.00e+00	0	53	0	622854144	52	4054
2026-01-03 07:39:04.63	55.82	11.70	-44.8	-45.8	16.6	0.00e+00	0	52	0	629145600	52	4012
2026-01-03 07:39:05.62	55.70	11.77	-44.8	-45.8	16.5	0.00e+00	0	53	0	634388480	52	4005
2026-01-03 07:39:06.61	55.57	11.84	-44.8	-45.8	16.5	0.00e+00	0	53	0	639631360	52	4037
2026-01-03 07:39:07.60	55.45	11.91	-44.7	-45.7	16.6	0.00e+00	0	53	0	644874240	52	4004
2026-01-03 07:39:08.59	55.33	11.98	-44.5	-45.5	16.8	0.00e+00	0	53	0	651165696	52	3902
2026-01-03 07:39:09.57	55.20	12.05	-44.4	-45.4	16.9	0.00e+00	0	53	0	656408576	52	3835
2026-01-03 07:39:10.56	55.08	12.12	-44.5	-45.5	16.9	0.00e+00	0	53	0	661651456	51	4127
2026-01-03 07:39:11.55	54.95	12.19	-44.7	-45.6	16.8	0.00e+00	0	53	0	667942912	51	4192
2026-01-03 07:39:12.55	54.82	12.26	-44.6	-45.6	16.8	0.00e+00	0	53	0	673185792	51	4184
2026-01-03 07:39:13.53	54.70	12.33	-44.5	-45.4	17.0	0.00e+00	0	53	0	678428672	51	4090
2026-01-03 07:39:14.52	54.57	12.40	-44.3	-45.3	17.1	0.00e+00	0	53	0	684720128	51	4021
2026-01-03 07:39:15.51	54.44	12.47	-44.4	-45.3	17.1	0.00e+00	0	53	0	689963008	51	4033
2026-01-03 07:39:16.50	54.31	12.54	-44.4	-45.4	17.1	0.00e+00	0	53	0	695205888	51	4052
2026-01-03 07:39:17.49	54.18	12.61	-44.3	-45.2	17.2	0.00e+00	0	53	0	701497344	51	3989
2026-01-03 07:39:18.48	54.05	12.68	-44.2	-45.1	17.4	0.00e+00	0	53	0	706740224	51	3917
2026-01-03 07:39:19.46	53.92	12.75	-44.2	-45.1	17.4	0.00e+00	0	53	0	711983104	51	3925
2026-01-03 07:39:20.45	53.79	12.82	-44.2	-45.2	17.3	0.00e+00	0	53	0	717225984	51	3961
2026-01-03 07:39:21.45	53.66	12.90	-44.2	-45.1	17.3	0.00e+00	0	53	0	723517440	51	3953
2026-01-03 07:39:22.44	53.53	12.97	-44.1	-45.0	17.4	0.00e+00	0	53	0	728760320	51	3908
2026-01-03 07:39:23.43	53.39	13.04	-44.1	-45.0	17.4	0.00e+00	0	53	0	734003200	51	3892
2026-01-03 07:39:24.42	53.26	13.11	-44.1	-44.9	17.5	0.00e+00	0	53	0	740294656	51	3865
2026-01-03 07:39:25.40	53.13	13.18	-44.0	-44.9	17.6	0.00e+00	0	53	0	745537536	51	3840
2026-01-03 07:39:26.39	52.99	13.25	-44.1	-45.0	17.5	0.00e+00	0	53	0	750780416	51	3875
2026-01-03 07:39:27.39	52.85	13.32	-44.2	-45.1	17.3	0.00e+00	0	53	0	757071872	51	3958
2026-01-03 07:39:28.37	52.72	13.39	-44.3	-45.2	17.2	0.00e+00	0	53	0	762314752	51	3994
2026-01-03 07:39:29.35	52.58	13.47	-44.1	-44.9	17.5	0.00e+00	0	53	0	767557632	51	3860
2026-01-03 07:39:30.34	52.45	13.54	-43.9	-44.8	17.7	0.00e+00	0	53	0	772800512	51	3806
2026-01-03 07:39:31.32	52.31	13.61	-43.9	-44.8	17.7	0.00e+00	0	53	0	779091968	50	4019
2026-01-03 07:39:32.32	52.17	13.68	-44.0	-44.8	17.7	0.00e+00	0	53	0	784334848	50	4041
2026-01-03 07:39:33.31	52.03	13.75	-44.0	-44.9	17.6	0.00e+00	0	53	0	789577728	50	4076
2026-01-03 07:39:34.30	51.89	13.82	-44.2	-45.0	17.4	0.00e+00	0	53	0	795869184	50	4143
2026-01-03 07:39:35.29	51.74	13.90	-44.0	-44.9	17.6	0.00e+00	0	53	0	801112064	50	4076
2026-01-03 07:39:36.28	51.60	13.97	-44.2	-45.1	17.4	0.00e+00	0	53	0	806354944	50	4149
2026-01-03 07:39:37.26	51.46	14.04	-44.0	-44.9	17.6	0.00e+00	0	54	0	812646400	50	4052
2026-01-03 07:39:38.25	51.32	14.11	-43.8	-44.7	17.8	0.00e+00	0	54	0	817889280	50	3971
2026-01-03 07:39:39.24	51.17	14.18	-43.8	-44.7	17.8	0.00e+00	0	54	0	823132160	50	3967
2026-01-03 07:39:40.23	51.03	14.25	-43.8	-44.7	17.8	0.00e+00	0	54	0	829423616	50	3975
2026-01-03 07:39:41.22	50.88	14.33	-43.8	-44.6	17.9	0.00e+00	0	54	0	834666496	50	3950
2026-01-03 07:39:42.20	50.74	14.40	-43.9	-44.8	17.7	0.00e+00	0	54	0	839909376	50	4012
2026-01-03 07:39:43.19	50.59	14.47	-43.8	-44.6	17.8	0.00e+00	0	54	0	845152256	50	3955
2026-01-03 07:39:44.18	50.44	14.54	-44.0	-44.9	17.6	0.00e+00	0	54	0	851443712	50	4069
2026-01-03 07:39:45.17	50.29	14.61	-44.1	-45.0	17.5	0.00e+00	0	54	0	856686592	50	4119
2026-01-03 07:39:46.16	50.14	14.69	-43.8	-44.7	17.8	0.00e+00	0	54	0	861929472	50	3965
2026-01-03 07:39:47.14	50.00	14.76	-43.7	-44.5	18.0	0.00e+00	0	54	0	868220928	50	3888
2026-01-03 07:39:48.13	49.85	14.83	-43.5	-44.4	18.2	0.00e+00	0	54	0	873463808	50	3830
2026-01-03 07:39:49.11	49.70	14.90	-43.5	-44.3	18.1	0.00e+00	0	54	0	878706688	50	3810
2026-01-03 07:39:50.11	49.54	14.97	-43.5	-44.3	18.2	0.00e+00	0	54	0	883949568	50	3811
2026-01-03 07:39:51.09	49.39	15.04	-43.5	-44.3	18.2	0.00e+00	0	54	0	890241024	50	3805
2026-01-03 07:39:52.07	49.24	15.12	-43.6	-44.4	18.1	0.00e+00	0	54	0	895483904	50	3847
2026-01-03 07:39:53.06	49.08	15.19	-43.7	-44.5	18.0	0.00e+00	0	54	0	900726784	50	3913
2026-01-03 07:39:54.06	48.93	15.26	-43.4	-44.3	18.3	0.00e+00	0	54	0	907018240	50	3785
2026-01-03 07:39:55.04	48.77	15.33	-43.3	-44.1	18.4	0.00e+00	0	54	0	912261120	49	3922
2026-01-03 07:39:56.04	48.61	15.40	-43.3	-44.1	18.5	0.00e+00	0	54	0	917504000	49	3914
2026-01-03 07:39:57.03	48.46	15.48	-43.3	-44.1	18.4	0.00e+00	0	54	0	923795456	49	3931
2026-01-03 07:39:58.02	48.30	15.55	-43.4	-44.2	18.3	0.00e+00	0	54	0	929038336	49	3981
2026-01-03 07:39:59.01	48.14	15.62	-43.3	-44.2	18.4	0.00e+00	0	54	0	934281216	49	3959
2026-01-03 07:40:00.00	47.98	15.69	-43.4	-44.2	18.3	0.00e+00	0	54	0	940572672	49	3989
2026-01-03 07:40:00.98	47.82	15.76	-43.4	-44.2	18.3	0.00e+00	0	54	0	945815552	49	3975
2026-01-03 07:40:01.98	47.66	15.84	-43.4	-44.2	18.3	0.00e+00	0	54	0	951058432	49	3995
2026-01-03 07:40:02.97	47.49	15.91	-43.3	-44.1	18.4	0.00e+00	0	54	0	956301312	49	3955
2026-01-03 07:40:03.95	47.33	15.98	-43.5	-44.3	18.2	0.00e+00	0	54	0	962592768	49	4018
2026-01-03 07:40:04.95	47.17	16.05	-43.6	-44.5	18.1	0.00e+00	0	54	0	967835648	49	4106
2026-01-03 07:40:05.94	47.00	16.12	-43.4	-44.2	18.3	0.00e+00	0	54	0	973078528	49	3994
2026-01-03 07:40:06.94	46.83	16.20	-43.2	-44.0	18.5	0.00e+00	0	54	0	979369984	49	3906
2026-01-03 07:40:07.93	46.67	16.27	-43.2	-44.0	18.5	0.00e+00	0	54	0	984612864	49	3897
2026-01-03 07:40:08.92	46.50	16.34	-43.2	-43.9	18.6	0.00e+00	0	54	0	990904320	49	3861
2026-01-03 07:40:09.92	46.33	16.41	-43.2	-43.9	18.6	0.00e+00	0	54	0	996147200	49	3861
2026-01-03 07:40:10.91	46.16	16.49	-43.1	-43.9	18.6	0.00e+00	0	54	0	1001390080	49	3855
2026-01-03 07:40:11.90	45.99	16.56	-43.2	-44.0	18.5	0.00e+00	0	54	0	1006632960	49	3885
2026-01-03 07:40:12.90	45.82	16.63	-43.4	-44.2	18.4	0.00e+00	0	54	0	1012924416	49	3959
2026-01-03 07:40:13.89	45.65	16.70	-43.3	-44.1	18.5	0.00e+00	0	54	0	1018167296	49	3936
2026-01-03 07:40:14.87	45.48	16.77	-43.2	-44.0	18.6	0.00e+00	0	54	0	1023410176	49	3874
2026-01-03 07:40:15.87	45.30	16.84	-43.3	-44.1	18.5	0.00e+00	0	54	0	1029701632	49	3929
2026-01-03 07:40:16.86	45.13	16.92	-43.3	-44.1	18.5	0.00e+00	0	54	0	1034944512	49	3937
2026-01-03 07:40:17.86	44.95	16.99	-43.5	-44.3	18.3	0.00e+00	0	54	0	1040187392	49	4035
2026-01-03 07:40:18.85	44.78	17.06	-43.3	-44.1	18.4	0.00e+00	0	54	0	1046478848	49	3933
2026-01-03 07:40:19.85	44.60	17.13	-43.2	-44.0	18.6	0.00e+00	0	54	0	1051721728	49	3884
2026-01-03 07:40:20.84	44.42	17.20	-43.2	-43.9	18.6	0.00e+00	0	55	0	1056964608	49	3857
2026-01-03 07:40:21.84	44.24	17.27	-43.1	-43.9	18.7	0.00e+00	0	54	0	1063256064	49	3845
2026-01-03 07:40:22.83	44.07	17.34	-43.2	-43.9	18.6	0.00e+00	0	54	0	1068498944	49	3859
2026-01-03 07:40:23.82	43.89	17.42	-43.3	-44.0	18.5	0.00e+00	0	54	0	1073741824	49	3900
2026-01-03 07:40:24.81	43.71	17.49	-43.3	-44.1	18.4	0.00e+00	0	54	0	1080033280	49	3936
2026-01-03 07:40:25.80	43.52	17.56	-43.4	-44.2	18.4	0.00e+00	0	54	0	1085276160	49	3967
2026-01-03 07:40:26.79	43.34	17.63	-43.3	-44.1	18.5	0.00e+00	0	55	0	1090519040	49	3922
2026-01-03 07:40:27.78	43.16	17.70	-43.1	-43.9	18.7	0.00e+00	0	54	0	1096810496	49	3832
2026-01-03 07:40:28.77	42.97	17.77	-43.0	-43.7	18.8	0.00e+00	0	55	0	1102053376	49	3769
2026-01-03 07:40:29.76	42.79	17.84	-43.1	-43.8	18.8	0.00e+00	0	55	0	1107296256	49	3805
2026-01-03 07:40:30.75	42.60	17.91	-43.3	-44.0	18.5	0.00e+00	0	55	0	1113587712	49	3904
2026-01-03 07:40:31.74	42.42	17.98	-43.1	-43.8	18.7	0.00e+00	0	54	0	1118830592	49	3803
2026-01-03 07:40:32.73	42.23	18.05	-42.9	-43.6	19.0	0.00e+00	0	55	0	1124073472	48	3919
2026-01-03 07:40:33.72	42.04	18.12	-42.8	-43.5	19.1	0.00e+00	0	55	0	1129316352	48	3882
2026-01-03 07:40:34.71	41.85	18.19	-42.7	-43.5	19.1	0.00e+00	0	55	0	1135607808	48	3870
2026-01-03 07:40:35.69	41.66	18.26	-42.8	-43.5	19.1	0.00e+00	0	55	0	1140850688	48	3875
2026-01-03 07:40:36.69	41.47	18.33	-42.9	-43.6	18.9	0.00e+00	0	55	0	1146093568	48	3955
2026-01-03 07:40:37.67	41.28	18.40	-42.8	-43.5	19.0	0.00e+00	0	55	0	1152385024	48	3901
2026-01-03 07:40:38.66	41.09	18.47	-42.7	-43.4	19.2	0.00e+00	0	55	0	1157627904	48	3836
2026-01-03 07:40:39.65	40.89	18.53	-42.7	-43.3	19.2	0.00e+00	0	55	0	1162870784	48	3819
2026-01-03 07:40:40.64	40.70	18.60	-42.7	-43.4	19.2	0.00e+00	0	55	0	1169162240	48	3861
2026-01-03 07:40:41.63	40.50	18.67	-42.6	-43.3	19.3	0.00e+00	0	55	0	1174405120	48	3807
2026-01-03 07:40:42.63	40.31	18.74	-42.6	-43.3	19.3	0.00e+00	0	55	0	1179648000	48	3803
2026-01-03 07:40:43.63	40.11	18.81	-42.5	-43.1	19.4	0.00e+00	0	55	0	1185939456	48	3735
2026-01-03 07:40:44.61	39.91	18.88	-42.2	-42.9	19.5	0.00e+00	0	55	0	1191182336	47	3828
2026-01-03 07:40:45.60	39.71	18.95	-42.1	-42.8	19.6	0.00e+00	0	55	0	1196425216	47	3802
2026-01-03 07:40:46.58	39.51	19.01	-42.2	-42.9	19.5	0.00e+00	0	55	0	1202716672	47	3827
2026-01-03 07:40:47.58	39.31	19.08	-42.3	-42.9	19.4	0.00e+00	0	55	0	1207959552	47	3865
2026-01-03 07:40:48.57	39.11	19.15	-42.3	-43.0	19.4	0.00e+00	0	55	0	1213202432	47	3896
2026-01-03 07:40:49.57	38.90	19.22	-42.3	-43.0	19.4	0.00e+00	0	55	0	1218445312	47	3886
2026-01-03 07:40:50.56	38.70	19.28	-42.2	-42.9	19.5	0.00e+00	0	55	0	1224736768	47	3863
2026-01-03 07:40:51.54	38.50	19.35	-42.2	-42.9	19.5	0.00e+00	0	55	0	1229979648	47	3847
2026-01-03 07:40:52.54	38.29	19.42	-42.2	-42.9	19.6	0.00e+00	0	55	0	1235222528	47	3831
2026-01-03 07:40:53.53	38.08	19.48	-42.1	-42.8	19.6	0.00e+00	0	55	0	1241513984	47	3791
2026-01-03 07:40:54.52	37.88	19.55	-42.2	-42.8	19.5	0.00e+00	0	55	0	1246756864	47	3822
2026-01-03 07:40:55.50	37.67	19.62	-42.3	-42.9	19.5	0.00e+00	0	55	0	1251999744	47	3867
2026-01-03 07:40:56.49	37.46	19.68	-42.3	-43.0	19.4	0.00e+00	0	55	0	1258291200	47	3896
2026-01-03 07:40:57.48	37.25	19.75	-42.4	-43.1	19.3	0.00e+00	0	55	0	1263534080	47	3927
2026-01-03 07:40:58.47	37.04	19.81	-42.5	-43.2	19.2	0.00e+00	0	55	0	1268776960	47	4003
2026-01-03 07:40:59.46	36.83	19.88	-42.5	-43.2	19.3	0.00e+00	0	55	0	1274019840	47	3967
2026-01-03 07:41:00.45	36.62	19.94	-42.3	-43.0	19.5	0.00e+00	0	55	0	1280311296	47	3885
2026-01-03 07:41:01.44	36.40	20.01	-42.1	-42.8	19.6	0.00e+00	0	55	0	1285554176	47	3814
2026-01-03 07:41:02.43	36.19	20.07	-42.2	-42.9	19.6	0.00e+00	0	55	0	1291845632	47	3835
2026-01-03 07:41:03.42	35.97	20.14	-42.2	-42.9	19.5	0.00e+00	0	55	0	1297088512	47	3847
2026-01-03 07:41:04.40	35.76	20.20	-42.2	-42.9	19.5	0.00e+00	0	55	0	1302331392	47	3866
2026-01-03 07:41:05.39	35.54	20.26	-42.1	-42.8	19.6	0.00e+00	0	55	0	1307574272	47	3800
2026-01-03 07:41:06.39	35.32	20.33	-42.0	-42.7	19.7	0.00e+00	0	55	0	1313865728	47	3757
2026-01-03 07:41:07.38	35.10	20.39	-42.1	-42.7	19.7	0.00e+00	0	55	0	1319108608	47	3769
2026-01-03 07:41:08.37	34.88	20.45	-42.2	-42.9	19.5	0.00e+00	0	55	0	1324351488	47	3839
2026-01-03 07:41:09.35	34.66	20.51	-42.3	-43.0	19.5	0.00e+00	0	55	0	1330642944	47	3875
2026-01-03 07:41:10.34	34.44	20.58	-42.4	-43.1	19.4	0.00e+00	0	55	0	1335885824	47	3914
2026-01-03 07:41:11.33	34.22	20.64	-42.4	-43.1	19.4	0.00e+00	0	55	0	1341128704	47	3924
2026-01-03 07:41:12.33	33.99	20.70	-42.5	-43.3	19.2	0.00e+00	0	55	0	1347420160	47	4012
2026-01-03 07:41:13.32	33.77	20.76	-42.6	-43.4	19.1	0.00e+00	0	55	0	1352663040	47	4065
2026-01-03 07:41:14.30	33.54	20.82	-42.6	-43.3	19.2	0.00e+00	0	55	0	1357905920	47	4015
2026-01-03 07:41:15.30	33.32	20.88	-42.6	-43.3	19.2	0.00e+00	0	55	0	1363148800	47	4017
2026-01-03 07:41:16.29	33.09	20.94	-42.7	-43.4	19.1	0.00e+00	0	55	0	1369440256	47	4082
2026-01-03 07:41:17.28	32.86	21.00	-42.8	-43.5	18.9	0.00e+00	0	55	0	1374683136	47	4123
2026-01-03 07:41:18.28	32.63	21.06	-42.4	-43.1	19.4	0.00e+00	0	55	0	1380974592	47	3921
2026-01-03 07:41:19.27	32.40	21.12	-42.1	-42.7	19.7	0.00e+00	0	55	0	1386217472	47	3780
2026-01-03 07:41:20.26	32.17	21.18	-42.0	-42.6	19.8	0.00e+00	0	55	0	1391460352	47	3725
2026-01-03 07:41:21.25	31.94	21.24	-42.0	-42.6	19.8	0.00e+00	0	55	0	1396703232	47	3722
2026-01-03 07:41:22.24	31.70	21.30	-42.0	-42.7	19.8	0.00e+00	0	55	0	1402994688	47	3753
2026-01-03 07:41:23.23	31.47	21.36	-42.0	-42.6	19.8	0.00e+00	0	56	0	1408237568	47	3733
2026-01-03 07:41:24.22	31.24	21.41	-42.0	-42.7	19.7	0.00e+00	0	55	0	1413480448	47	3770
2026-01-03 07:41:25.21	31.00	21.47	-41.9	-42.5	19.9	0.00e+00	0	55	0	1419771904	46	3905
2026-01-03 07:41:26.19	30.77	21.53	-41.9	-42.5	19.9	0.00e+00	0	55	0	1425014784	46	3907
2026-01-03 07:41:27.19	30.53	21.58	-42.0	-42.7	19.7	0.00e+00	0	55	0	1430257664	46	3978
2026-01-03 07:41:28.17	30.29	21.64	-42.2	-42.9	19.6	0.00e+00	0	55	0	1435500544	46	4061
2026-01-03 07:41:29.14	30.06	21.69	-42.0	-42.7	19.8	0.00e+00	0	55	0	1441792000	46	3967
2026-01-03 07:41:30.13	29.82	21.75	-42.1	-42.7	19.7	0.00e+00	0	56	0	1447034880	46	4002
2026-01-03 07:41:31.11	29.58	21.80	-42.2	-42.9	19.6	0.00e+00	0	55	0	1452277760	46	4053
2026-01-03 07:41:32.10	29.34	21.86	-42.0	-42.7	19.8	0.00e+00	0	55	0	1458569216	46	3976
2026-01-03 07:41:33.09	29.10	21.91	-42.0	-42.7	19.8	0.00e+00	0	56	0	1463812096	46	3967
2026-01-03 07:41:34.08	28.86	21.96	-41.9	-42.5	19.9	0.00e+00	0	55	0	1469054976	46	3903
2026-01-03 07:41:35.06	28.61	22.02	-41.9	-42.6	19.9	0.00e+00	0	55	0	1474297856	46	3930
2026-01-03 07:41:36.05	28.37	22.07	-42.1	-42.8	19.7	0.00e+00	0	56	0	1480589312	46	4026
2026-01-03 07:41:37.04	28.12	22.12	-42.4	-43.1	19.4	0.00e+00	0	56	0	1485832192	46	4148
2026-01-03 07:41:38.03	27.88	22.17	-42.2	-42.9	19.6	0.00e+00	0	56	0	1492123648	46	4078
2026-01-03 07:41:39.03	27.63	22.22	-42.4	-43.1	19.3	0.00e+00	0	56	0	1497366528	46	4180
2026-01-03 07:41:40.02	27.38	22.27	-42.7	-43.5	19.0	0.00e+00	0	56	0	1502609408	47	4111
2026-01-03 07:41:41.01	27.13	22.32	-42.3	-43.0	19.4	0.00e+00	0	56	0	1507852288	47	3905
2026-01-03 07:41:42.00	26.88	22.37	-42.0	-42.7	19.8	0.00e+00	0	56	0	1514143744	47	3756
2026-01-03 07:41:42.99	26.63	22.42	-41.9	-42.5	19.9	0.00e+00	0	56	0	1519386624	46	3901
2026-01-03 07:41:43.98	26.38	22.47	-41.9	-42.5	19.9	0.00e+00	0	56	0	1524629504	46	3895
2026-01-03 07:41:44.97	26.13	22.52	-41.8	-42.4	20.0	0.00e+00	0	56	0	1530920960	46	3860
2026-01-03 07:41:45.95	25.88	22.57	-42.0	-42.6	19.8	0.00e+00	0	56	0	1536163840	46	3943
2026-01-03 07:41:46.94	25.63	22.61	-42.1	-42.8	19.7	0.00e+00	0	56	0	1541406720	46	4029
2026-01-03 07:41:47.93	25.37	22.66	-41.9	-42.5	19.9	0.00e+00	0	56	0	1547698176	46	3911
2026-01-03 07:41:48.92	25.12	22.71	-41.7	-42.3	20.1	0.00e+00	0	56	0	1552941056	46	3820
2026-01-03 07:41:49.91	24.86	22.75	-41.6	-42.2	20.2	0.00e+00	0	56	0	1558183936	46	3762
2026-01-03 07:41:50.91	24.60	22.80	-41.5	-42.2	20.3	0.00e+00	0	56	0	1563426816	46	3744
2026-01-03 07:41:51.90	24.34	22.84	-41.5	-42.1	20.3	0.00e+00	0	56	0	1569718272	46	3734
2026-01-03 07:41:52.90	24.08	22.88	-41.6	-42.2	20.2	0.00e+00	0	56	0	1574961152	46	3769
2026-01-03 07:41:53.89	23.82	22.93	-41.5	-42.1	20.3	0.00e+00	0	56	0	1581252608	46	3723
2026-01-03 07:41:54.88	23.57	22.97	-41.5	-42.2	20.3	0.00e+00	0	56	0	1586495488	46	3745
2026-01-03 07:41:55.87	23.31	23.01	-41.6	-42.2	20.2	0.00e+00	0	56	0	1591738368	46	3780
2026-01-03 07:41:56.86	23.04	23.05	-41.7	-42.3	20.1	0.00e+00	0	56	0	1596981248	46	3808
2026-01-03 07:41:57.86	22.78	23.10	-41.8	-42.4	20.0	0.00e+00	0	56	0	1603272704	46	3856
2026-01-03 07:41:58.84	22.52	23.14	-41.7	-42.3	20.1	0.00e+00	0	56	0	1608515584	46	3809
2026-01-03 07:41:59.84	22.26	23.18	-41.7	-42.3	20.1	0.00e+00	0	56	0	1613758464	46	3820
2026-01-03 07:42:00.83	21.99	23.22	-41.6	-42.2	20.2	0.00e+00	0	56	0	1620049920	46	3769
2026-01-03 07:42:01.82	21.73	23.25	-41.7	-42.3	20.2	0.00e+00	0	56	0	1625292800	46	3798
2026-01-03 07:42:02.81	21.46	23.29	-41.8	-42.4	20.0	0.00e+00	0	56	0	1630535680	46	3849
2026-01-03 07:42:03.80	21.20	23.33	-41.8	-42.4	20.0	0.00e+00	0	56	0	1636827136	46	3865
2026-01-03 07:42:04.78	20.93	23.37	-41.7	-42.3	20.2	0.00e+00	0	56	0	1642070016	46	3804
2026-01-03 07:42:05.77	20.67	23.40	-41.6	-42.2	20.2	0.00e+00	0	56	0	1647312896	46	3771
2026-01-03 07:42:06.76	20.40	23.44	-41.7	-42.3	20.2	0.00e+00	0	56	0	1652555776	46	3796
2026-01-03 07:42:07.75	20.13	23.47	-41.9	-42.5	20.0	0.00e+00	0	56	0	1658847232	46	3905
2026-01-03 07:42:08.75	19.86	23.51	-41.7	-42.3	20.1	0.00e+00	0	56	0	1664090112	46	3814
2026-01-03 07:42:09.74	19.59	23.54	-41.5	-42.2	20.3	0.00e+00	0	56	0	1670381568	46	3747
2026-01-03 07:42:10.73	19.32	23.57	-41.6	-42.3	20.2	0.00e+00	0	56	0	1675624448	46	3787
2026-01-03 07:42:11.72	19.05	23.61	-41.6	-42.2	20.2	0.00e+00	0	56	0	1680867328	46	3771
2026-01-03 07:42:12.71	18.78	23.64	-41.7	-42.3	20.1	0.00e+00	0	56	0	1686110208	46	3813
2026-01-03 07:42:13.70	18.51	23.67	-41.8	-42.5	20.0	0.00e+00	0	56	0	1692401664	46	3874
2026-01-03 07:42:14.68	18.24	23.70	-41.8	-42.4	20.0	0.00e+00	0	56	0	1697644544	46	3847
2026-01-03 07:42:15.67	17.97	23.73	-41.5	-42.1	20.3	0.00e+00	0	56	0	1702887424	46	3735
2026-01-03 07:42:16.67	17.69	23.76	-41.3	-42.0	20.5	0.00e+00	0	56	0	1709178880	45	3870
2026-01-03 07:42:17.66	17.42	23.79	-41.4	-42.0	20.4	0.00e+00	0	56	0	1714421760	45	3883
2026-01-03 07:42:18.65	17.14	23.82	-41.5	-42.1	20.3	0.00e+00	0	56	0	1719664640	45	3944
2026-01-03 07:42:19.65	16.87	23.84	-41.4	-42.0	20.4	0.00e+00	0	56	0	1725956096	45	3884
2026-01-03 07:42:20.64	16.59	23.87	-41.2	-41.8	20.6	0.00e+00	0	56	0	1731198976	45	3804
2026-01-03 07:42:21.62	16.32	23.89	-41.1	-41.7	20.7	0.00e+00	0	56	0	1736441856	45	3757
2026-01-03 07:42:22.60	16.04	23.92	-41.0	-41.6	20.8	0.00e+00	0	56	0	1742733312	45	3713
2026-01-03 07:42:23.59	15.77	23.94	-41.0	-41.5	20.8	0.00e+00	0	56	0	1747976192	45	3693
2026-01-03 07:42:24.58	15.49	23.97	-41.1	-41.7	20.7	0.00e+00	0	56	0	1753219072	45	3757
2026-01-03 07:42:25.57	15.21	23.99	-41.3	-41.9	20.5	0.00e+00	0	56	0	1758461952	45	3829
2026-01-03 07:42:26.56	14.94	24.01	-41.4	-42.0	20.4	0.00e+00	0	56	0	1764753408	45	3896
2026-01-03 07:42:27.55	14.66	24.03	-41.5	-42.1	20.3	0.00e+00	0	56	0	1769996288	45	3944
2026-01-03 07:42:28.53	14.38	24.05	-41.5	-42.1	20.3	0.00e+00	0	56	0	1775239168	45	3931
2026-01-03 07:42:29.52	14.10	24.07	-41.6	-42.2	20.1	0.00e+00	0	56	0	1781530624	45	3998
2026-01-03 07:42:30.50	13.83	24.09	-41.7	-42.4	20.0	0.00e+00	0	56	0	1786773504	45	4060
2026-01-03 07:42:31.49	13.55	24.11	-41.7	-42.3	20.0	0.00e+00	0	56	0	1792016384	45	4034
2026-01-03 07:42:32.47	13.27	24.13	-41.5	-42.1	20.2	0.00e+00	0	56	0	1798307840	45	3955
2026-01-03 07:42:33.46	12.99	24.15	-41.4	-42.1	20.3	0.00e+00	0	56	0	1803550720	45	3914
2026-01-03 07:42:34.44	12.71	24.16	-41.3	-41.9	20.3	0.00e+00	0	56	0	1808793600	45	3855
2026-01-03 07:42:35.44	12.43	24.18	-41.3	-41.9	20.4	0.00e+00	0	56	0	1814036480	45	3840
2026-01-03 07:42:36.43	12.15	24.19	-41.3	-41.9	20.3	0.00e+00	0	56	0	1820327936	45	3860
2026-01-03 07:42:37.43	11.87	24.21	-41.4	-42.1	20.1	0.00e+00	0	56	0	1825570816	45	3933
2026-01-03 07:42:38.41	11.59	24.22	-41.6	-42.2	19.9	0.00e+00	0	56	0	1830813696	45	3989
2026-01-03 07:42:39.40	11.31	24.23	-41.6	-42.3	19.8	0.00e+00	0	56	0	1837105152	45	4015
2026-01-03 07:42:40.39	11.02	24.25	-41.9	-42.6	19.4	0.00e+00	0	56	0	1842348032	45	4188
2026-01-03 07:42:41.38	10.74	24.26	-42.2	-42.9	19.0	0.00e+00	0	56	0	1847590912	46	4093
2026-01-03 07:42:42.37	10.46	24.27	-42.5	-43.3	18.5	0.00e+00	0	56	0	1853882368	46	4264
2026-01-03 07:42:43.36	10.18	24.28	-42.8	-43.6	17.9	0.00e+00	0	56	0	1859125248	47	4191
2026-01-03 07:42:44.35	9.89	24.29	-43.4	-44.3	17.3	0.00e+00	0	56	0	1864368128	48	4261
2026-01-03 07:42:45.34	9.61	24.29	-43.9	-44.9	16.6	0.00e+00	0	56	0	1870659584	49	4310
2026-01-03 07:42:46.32	9.33	24.30	-44.7	-45.8	15.6	0.00e+00	0	56	0	1875902464	51	4285
2026-01-03 07:42:47.31	9.05	24.31	-45.1	-46.4	14.8	1.10e-06	0	56	0	1881145344	52	4304
2026-01-03 07:42:48.30	8.77	24.31	-45.6	-47.0	14.2	4.50e-06	0	56	0	1886388224	52	4622
2026-01-03 07:42:49.29	8.48	24.32	-45.6	-47.0	14.2	2.20e-06	0	56	0	1892679680	52	4620
2026-01-03 07:42:50.28	8.20	24.32	-45.8	-47.3	14.0	1.10e-06	0	56	0	1897922560	53	4524
2026-01-03 07:42:51.27	7.92	24.33	-45.8	-47.3	14.1	2.20e-06	0	56	0	1903165440	53	4499
2026-01-03 07:42:52.26	7.63	24.33	-45.7	-47.1	14.3	2.20e-06	0	56	0	1909456896	53	4440
2026-01-03 07:42:53.25	7.35	24.33	-45.4	-46.7	14.8	0.00e+00	0	56	0	1914699776	53	4225
2026-01-03 07:42:54.24	7.06	24.33	-44.9	-46.1	15.5	0.00e+00	0	56	0	1919942656	52	4147
2026-01-03 07:42:55.22	6.78	24.33	-44.8	-45.9	15.6	0.00e+00	0	56	0	1926234112	52	4093
2026-01-03 07:42:56.21	6.50	24.33	-44.7	-45.8	15.8	0.00e+00	0	56	0	1931476992	52	4035
2026-01-03 07:42:57.20	6.22	24.33	-44.0	-45.0	16.9	0.00e+00	0	56	0	1936719872	51	3874
2026-01-03 07:42:58.20	5.93	24.33	-43.9	-44.8	17.1	0.00e+00	0	56	0	1941962752	50	4023
2026-01-03 07:42:59.19	5.65	24.33	-43.6	-44.4	17.5	0.00e+00	0	56	0	1948254208	50	3850
2026-01-03 07:43:00.18	5.36	24.33	-42.4	-43.1	19.0	0.00e+00	0	56	0	1953497088	48	3715
2026-01-03 07:43:01.17	5.08	24.32	-41.7	-42.4	19.5	0.00e+00	0	56	0	1958739968	46	3861
2026-01-03 07:43:02.16	4.80	24.32	-42.4	-43.1	18.8	0.00e+00	0	56	0	1965031424	46	4187
2026-01-03 07:43:03.16	4.51	24.31	-43.9	-44.8	17.2	0.00e+00	0	57	0	1970274304	49	4264
2026-01-03 07:43:04.15	4.23	24.31	-45.3	-46.5	15.1	0.00e+00	0	56	0	1975517184	52	4371
2026-01-03 07:43:05.13	3.95	24.30	-46.8	-48.6	12.7	3.31e-05	0	57	0	1981808640	55	4666
2026-01-03 07:43:06.12	3.66	24.29	-47.4	-49.5	11.8	4.54e-04	0	57	0	1987051520	56	4902
2026-01-03 07:43:07.10	3.38	24.28	-48.0	-50.3	10.9	3.18e-03	0	57	0	1992294400	57	5095
2026-01-03 07:43:08.09	3.10	24.27	-45.8	-47.3	14.2	9.95e-05	0	56	0	1998585856	54	4244
2026-01-03 07:43:09.08	2.82	24.26	-43.6	-44.5	17.3	0.00e+00	0	57	0	2003828736	50	3905
2026-01-03 07:43:10.06	2.54	24.25	-42.1	-42.8	19.1	0.00e+00	0	56	0	2009071616	47	3814
2026-01-03 07:43:11.04	2.26	24.24	-41.5	-42.1	20.0	0.00e+00	0	57	0	2014314496	46	3734
2026-01-03 07:43:12.04	1.98	24.23	-41.5	-42.1	20.2	0.00e+00	0	57	0	2020605952	46	3711
2026-01-03 07:43:13.03	1.69	24.22	-41.5	-42.1	20.3	0.00e+00	0	57	0	2025848832	46	3728
2026-01-03 07:43:14.02	1.41	24.20	-41.5	-42.2	20.2	0.00e+00	0	57	0	2032140288	46	3750
2026-01-03 07:43:15.01	1.13	24.19	-41.8	-42.5	19.9	0.00e+00	0	56	0	2037383168	46	3881
2026-01-03 07:43:16.01	0.85	24.17	-41.4	-42.1	20.3	0.00e+00	0	57	0	2042626048	46	3715
2026-01-03 07:43:16.99	0.57	24.16	-41.2	-41.8	20.6	0.00e+00	0	56	0	2047868928	45	3791
2026-01-03 07:43:17.98	0.29	24.14	-40.9	-41.5	20.9	0.00e+00	0	57	0	2054160384	45	3673
2026-01-03 07:43:18.97	0.01	24.12	-40.8	-41.3	21.0	0.00e+00	0	57	0	2059403264	44	3824
2026-01-03 07:43:19.96	359.73	24.10	-40.9	-41.5	20.9	0.00e+00	0	56	0	2064646144	44	3886
2026-01-03 07:43:20.95	359.45	24.08	-41.0	-41.6	20.8	0.00e+00	0	57	0	2070937600	44	3920
2026-01-03 07:43:21.95	359.17	24.06	-41.0	-41.6	20.7	0.00e+00	0	57	0	2076180480	44	3948
2026-01-03 07:43:22.93	358.89	24.04	-41.1	-41.7	20.7	0.00e+00	0	57	0	2081423360	44	3968
2026-01-03 07:43:23.92	358.62	24.02	-41.2	-41.8	20.5	0.00e+00	0	56	0	2086666240	44	4036
2026-01-03 07:43:24.90	358.34	24.00	-41.0	-41.6	20.8	0.00e+00	0	57	0	2092957696	44	3915
2026-01-03 07:43:25.89	358.06	23.98	-40.7	-41.3	21.1	0.00e+00	0	57	0	2098200576	44	3794
2026-01-03 07:43:26.89	357.78	23.96	-40.7	-41.3	21.1	0.00e+00	0	57	0	2103443456	44	3795
2026-01-03 07:43:27.88	357.51	23.93	-40.8	-41.4	21.0	0.00e+00	0	57	0	2109734912	44	3846
2026-01-03 07:43:28.86	357.23	23.91	-41.0	-41.6	20.8	0.00e+00	0	57	0	2114977792	44	3939
2026-01-03 07:43:29.85	356.96	23.88	-41.0	-41.6	20.8	0.00e+00	0	57	0	2120220672	44	3946
2026-01-03 07:43:30.83	356.69	23.86	-41.0	-41.6	20.7	0.00e+00	0	56	0	2126512128	44	3956
2026-01-03 07:43:31.81	356.41	23.83	-41.1	-41.8	20.6	0.00e+00	0	57	0	2131755008	44	4006
2026-01-03 07:43:32.81	356.14	23.80	-41.1	-41.7	20.7	0.00e+00	0	56	0	2136997888	44	3961
2026-01-03 07:43:33.80	355.86	23.77	-41.0	-41.6	20.8	0.00e+00	0	57	0	2142240768	44	3943
2026-01-03 07:43:34.79	355.59	23.75	-41.1	-41.7	20.7	0.00e+00	0	57	0	2148532224	44	3970
2026-01-03 07:43:35.78	355.32	23.72	-41.2	-41.8	20.6	0.00e+00	0	57	0	2153775104	44	4015
2026-01-03 07:43:36.77	355.04	23.69	-41.2	-41.8	20.5	0.00e+00	0	57	0	2159017984	44	4049
2026-01-03 07:43:37.75	354.78	23.66	-41.4	-42.0	20.4	0.00e+00	0	57	0	2165309440	44	4113
2026-01-03 07:43:38.75	354.50	23.62	-41.3	-41.9	20.5	0.00e+00	0	57	0	2170552320	44	4062
2026-01-03 07:43:39.74	354.23	23.59	-41.2	-41.8	20.6	0.00e+00	0	56	0	2175795200	44	4009
2026-01-03 07:43:40.73	353.96	23.56	-41.2	-41.8	20.6	0.00e+00	0	57	0	2182086656	44	4008
2026-01-03 07:43:41.72	353.69	23.53	-41.1	-41.7	20.7	0.00e+00	0	57	0	2187329536	44	3978
2026-01-03 07:43:42.71	353.42	23.49	-41.2	-41.8	20.6	0.00e+00	0	57	0	2192572416	44	4035
2026-01-03 07:43:43.70	353.15	23.46	-41.4	-42.1	20.3	0.00e+00	0	57	0	2198863872	44	4150
2026-01-03 07:43:44.68	352.89	23.42	-41.3	-41.9	20.5	0.00e+00	0	57	0	2204106752	44	4057
2026-01-03 07:43:45.68	352.62	23.39	-41.0	-41.6	20.8	0.00e+00	0	57	0	2209349632	44	3917
2026-01-03 07:43:46.67	352.35	23.35	-40.9	-41.4	20.9	0.00e+00	0	57	0	2214592512	44	3864
2026-01-03 07:43:47.66	352.09	23.31	-40.9	-41.5	20.9	0.00e+00	0	57	0	2220883968	44	3878
2026-01-03 07:43:48.65	351.82	23.27	-41.0	-41.6	20.7	0.00e+00	0	57	0	2226126848	44	3945
2026-01-03 07:43:49.64	351.56	23.24	-41.1	-41.7	20.7	0.00e+00	0	57	0	2231369728	44	3965
2026-01-03 07:43:50.63	351.29	23.20	-41.2	-41.8	20.5	0.00e+00	0	57	0	2237661184	44	4028
2026-01-03 07:43:51.63	351.03	23.16	-41.4	-42.0	20.3	0.00e+00	0	57	0	2242904064	44	4136
2026-01-03 07:43:52.61	350.77	23.12	-41.4	-42.1	20.3	0.00e+00	0	57	0	2248146944	44	4150
2026-01-03 07:43:53.60	350.51	23.08	-41.2	-41.8	20.5	0.00e+00	0	57	0	2254438400	44	4035
2026-01-03 07:43:54.58	350.25	23.04	-41.2	-41.8	20.6	0.00e+00	0	57	0	2259681280	44	4020
2026-01-03 07:43:55.57	349.99	22.99	-41.4	-42.0	20.3	0.00e+00	0	57	0	2264924160	44	4123
2026-01-03 07:43:56.56	349.73	22.95	-41.4	-42.0	20.3	0.00e+00	0	57	0	2271215616	44	4127
2026-01-03 07:43:57.55	349.47	22.91	-41.1	-41.7	20.6	0.00e+00	0	57	0	2276458496	44	3985
2026-01-03 07:43:58.54	349.21	22.87	-41.0	-41.6	20.7	0.00e+00	0	57	0	2281701376	44	3935
2026-01-03 07:43:59.53	348.95	22.82	-41.1	-41.7	20.6	0.00e+00	0	57	0	2287992832	44	3962
2026-01-03 07:44:00.52	348.70	22.78	-41.1	-41.6	20.7	0.00e+00	0	57	0	2293235712	44	3957
2026-01-03 07:44:01.51	348.44	22.73	-41.0	-41.7	20.7	0.00e+00	0	57	0	2298478592	44	3960
2026-01-03 07:44:02.51	348.18	22.69	-41.2	-41.8	20.5	0.00e+00	0	57	0	2303721472	44	4031
2026-01-03 07:44:03.50	347.93	22.64	-41.2	-41.8	20.5	0.00e+00	0	57	0	2310012928	44	4051
2026-01-03 07:44:04.49	347.67	22.59	-41.2	-41.8	20.6	0.00e+00	0	57	0	2315255808	44	4008
2026-01-03 07:44:05.48	347.42	22.54	-41.3	-41.9	20.5	0.00e+00	0	57	0	2321547264	44	4064
2026-01-03 07:44:06.48	347.16	22.50	-41.3	-41.9	20.4	0.00e+00	0	57	0	2326790144	44	4085
2026-01-03 07:44:07.47	346.91	22.45	-41.2	-41.8	20.5	0.00e+00	0	57	0	2332033024	44	4042
2026-01-03 07:44:08.46	346.66	22.40	-41.3	-41.9	20.4	0.00e+00	0	57	0	2337275904	44	4068
2026-01-03 07:44:09.44	346.42	22.35	-41.4	-42.0	20.3	0.00e+00	0	57	0	2343567360	44	4116
2026-01-03 07:44:10.43	346.17	22.30	-41.4	-42.0	20.3	0.00e+00	0	57	0	2348810240	44	4143
2026-01-03 07:44:11.42	345.92	22.25	-41.5	-42.1	20.2	0.00e+00	0	57	0	2354053120	45	3952
2026-01-03 07:44:12.41	345.67	22.20	-41.3	-42.0	20.4	0.00e+00	0	57	0	2360344576	45	3870
2026-01-03 07:44:13.39	345.43	22.15	-41.2	-41.9	20.5	0.00e+00	0	57	0	2365587456	45	3828
2026-01-03 07:44:14.38	345.18	22.10	-41.2	-41.8	20.5	0.00e+00	0	57	0	2370830336	45	3798
2026-01-03 07:44:15.37	344.94	22.05	-41.2	-41.8	20.5	0.00e+00	0	57	0	2377121792	45	3816
2026-01-03 07:44:16.36	344.69	21.99	-41.3	-41.9	20.4	0.00e+00	0	57	0	2382364672	45	3853
2026-01-03 07:44:17.34	344.45	21.94	-41.5	-42.1	20.2	0.00e+00	0	57	0	2387607552	45	3936
2026-01-03 07:44:18.34	344.21	21.89	-41.4	-42.1	20.2	0.00e+00	0	57	0	2392850432	45	3920
2026-01-03 07:44:19.33	343.96	21.83	-41.4	-42.0	20.3	0.00e+00	0	57	0	2399141888	45	3890
2026-01-03 07:44:20.31	343.72	21.78	-41.2	-41.8	20.5	0.00e+00	0	57	0	2404384768	45	3800
2026-01-03 07:44:21.31	343.48	21.72	-41.2	-41.9	20.5	0.00e+00	0	57	0	2409627648	45	3827
2026-01-03 07:44:22.30	343.24	21.67	-41.2	-41.8	20.5	0.00e+00	0	57	0	2415919104	45	3824
2026-01-03 07:44:23.29	343.01	21.61	-41.3	-41.9	20.4	0.00e+00	0	57	0	2421161984	45	3859
2026-01-03 07:44:24.28	342.77	21.56	-41.3	-41.9	20.4	0.00e+00	0	57	0	2426404864	45	3827
2026-01-03 07:44:25.27	342.53	21.50	-41.4	-42.0	20.2	0.00e+00	0	57	0	2431647744	45	3910
2026-01-03 07:44:26.26	342.30	21.44	-41.6	-42.2	20.1	0.00e+00	0	57	0	2437939200	45	3994
2026-01-03 07:44:27.25	342.06	21.39	-41.4	-42.0	20.3	0.00e+00	0	57	0	2443182080	45	3871
2026-01-03 07:44:28.25	341.82	21.33	-41.4	-42.1	20.2	0.00e+00	0	57	0	2449473536	45	3925
2026-01-03 07:44:29.23	341.59	21.27	-41.7	-42.4	19.9	0.00e+00	0	57	0	2454716416	45	4074
2026-01-03 07:44:30.21	341.36	21.21	-41.7	-42.4	19.9	0.00e+00	0	57	0	2459959296	45	4072
2026-01-03 07:44:31.20	341.13	21.15	-41.6	-42.2	20.0	0.00e+00	0	57	0	2465202176	45	3999
2026-01-03 07:44:32.19	340.90	21.10	-41.4	-42.0	20.2	0.00e+00	0	57	0	2471493632	45	3896
2026-01-03 07:44:33.17	340.68	21.04	-41.5	-42.2	20.0	0.00e+00	0	57	0	2476736512	45	3965
2026-01-03 07:44:34.16	340.45	20.98	-41.8	-42.5	19.6	0.00e+00	0	57	0	2481979392	45	4121
2026-01-03 07:44:35.15	340.22	20.92	-42.0	-42.7	19.5	0.00e+00	0	57	0	2488270848	45	4196
2026-01-03 07:44:36.15	339.99	20.86	-42.7	-43.5	18.6	0.00e+00	0	57	0	2493513728	47	4115
2026-01-03 07:44:37.14	339.76	20.79	-42.8	-43.6	18.4	0.00e+00	0	57	0	2498756608	47	4163
2026-01-03 07:44:38.14	339.54	20.73	-43.5	-44.4	17.7	0.00e+00	0	57	0	2505048064	48	4330
2026-01-03 07:44:39.13	339.31	20.67	-43.6	-44.5	17.5	0.00e+00	0	57	0	2510290944	49	4138
2026-01-03 07:44:40.11	339.09	20.61	-44.4	-45.3	16.7	0.00e+00	0	57	0	2515533824	50	4286
2026-01-03 07:44:41.09	338.87	20.55	-44.6	-45.6	16.4	0.00e+00	0	57	0	2520776704	50	4409
2026-01-03 07:44:42.08	338.65	20.49	-45.1	-46.2	15.7	0.00e+00	0	57	0	2527068160	51	4475
2026-01-03 07:44:43.06	338.43	20.43	-44.7	-45.8	16.2	0.00e+00	0	57	0	2532311040	51	4263
2026-01-03 07:44:44.04	338.22	20.36	-44.7	-45.8	16.2	0.00e+00	0	57	0	2537553920	51	4243
2026-01-03 07:44:45.04	337.99	20.30	-44.8	-45.9	16.1	0.00e+00	0	57	0	2543845376	51	4310
2026-01-03 07:44:46.03	337.78	20.24	-44.3	-45.2	16.8	0.00e+00	0	57	0	2549088256	51	4000
2026-01-03 07:44:47.01	337.56	20.17	-44.2	-45.1	16.9	0.00e+00	0	57	0	2554331136	51	3946
2026-01-03 07:44:48.00	337.35	20.11	-44.3	-45.3	16.7	0.00e+00	0	57	0	2560622592	51	4048
2026-01-03 07:44:49.00	337.13	20.04	-44.7	-45.7	16.3	0.00e+00	0	57	0	2565865472	51	4224
2026-01-03 07:44:49.98	336.92	19.98	-45.0	-46.1	16.0	0.00e+00	0	57	0	2571108352	51	4412
2026-01-03 07:44:50.96	336.71	19.92	-44.4	-45.4	16.6	0.00e+00	0	57	0	2576351232	51	4089
2026-01-03 07:44:51.95	336.49	19.85	-44.0	-44.9	17.2	0.00e+00	0	57	0	2582642688	51	3863
2026-01-03 07:44:52.93	336.28	19.79	-43.5	-44.3	17.9	0.00e+00	0	57	0	2587885568	50	3798
2026-01-03 07:44:53.93	336.07	19.72	-43.2	-44.0	18.2	0.00e+00	0	57	0	2593128448	49	3907
2026-01-03 07:44:54.91	335.86	19.66	-43.1	-43.9	18.4	0.00e+00	0	57	0	2599419904	49	3851
2026-01-03 07:44:55.90	335.66	19.59	-43.0	-43.8	18.5	0.00e+00	0	57	0	2604662784	49	3813
2026-01-03 07:44:56.89	335.45	19.52	-43.0	-43.7	18.6	0.00e+00	0	57	0	2609905664	49	3780
2026-01-03 07:44:57.89	335.24	19.46	-42.5	-43.2	19.3	0.00e+00	0	57	0	2616197120	48	3742
2026-01-03 07:44:58.88	335.03	19.39	-42.6	-43.3	19.1	0.00e+00	0	57	0	2621440000	48	3816
2026-01-03 07:44:59.86	334.83	19.32	-42.7	-43.4	19.1	0.00e+00	0	57	0	2626682880	48	3842
2026-01-03 07:45:00.86	334.62	19.26	-43.1	-43.8	18.7	0.00e+00	0	57	0	2631925760	48	4042
2026-01-03 07:45:01.85	334.42	19.19	-43.2	-44.0	18.5	0.00e+00	0	57	0	2638217216	48	4118
2026-01-03 07:45:02.84	334.22	19.12	-43.4	-44.2	18.3	0.00e+00	0	57	0	2643460096	48	4237
2026-01-03 07:45:03.84	334.02	19.05	-43.1	-43.8	18.7	0.00e+00	0	57	0	2649751552	48	4048
2026-01-03 07:45:04.83	333.81	18.99	-42.6	-43.3	19.2	0.00e+00	0	57	0	2654994432	48	3814
2026-01-03 07:45:05.82	333.61	18.92	-42.3	-42.9	19.4	0.00e+00	0	57	0	2660237312	47	3860
2026-01-03 07:45:06.81	333.42	18.85	-42.2	-42.9	19.5	0.00e+00	0	57	0	2665480192	47	3845
2026-01-03 07:45:07.80	333.22	18.78	-42.5	-43.2	19.2	0.00e+00	0	57	0	2671771648	47	3982
2026-01-03 07:45:08.78	333.02	18.71	-42.6	-43.3	19.1	0.00e+00	0	57	0	2677014528	47	4046
2026-01-03 07:45:09.78	332.83	18.64	-42.6	-43.4	19.0	0.00e+00	0	57	0	2682257408	47	4063
2026-01-03 07:45:10.76	332.63	18.58	-42.8	-43.5	18.8	0.00e+00	0	57	0	2688548864	47	4145
2026-01-03 07:45:11.76	332.44	18.51	-42.6	-43.3	19.1	0.00e+00	0	57	0	2693791744	47	4044
2026-01-03 07:45:12.75	332.24	18.44	-42.3	-43.0	19.3	0.00e+00	0	57	0	2699034624	47	3899
2026-01-03 07:45:13.73	332.05	18.37	-42.3	-42.9	19.4	0.00e+00	0	57	0	2705326080	47	3864
2026-01-03 07:45:14.72	331.86	18.30	-42.4	-43.1	19.3	0.00e+00	0	57	0	2710568960	47	3955
2026-01-03 07:45:15.71	331.67	18.23	-42.5	-43.2	19.2	0.00e+00	0	57	0	2715811840	47	3986
2026-01-03 07:45:16.70	331.48	18.16	-42.6	-43.4	19.1	0.00e+00	0	57	0	2721054720	47	4054
2026-01-03 07:45:17.69	331.29	18.09	-42.5	-43.2	19.2	0.00e+00	0	57	0	2727346176	47	3979
2026-01-03 07:45:18.67	331.11	18.02	-42.3	-43.0	19.4	0.00e+00	0	57	0	2732589056	47	3874
2026-01-03 07:45:19.66	330.92	17.95	-42.2	-42.8	19.6	0.00e+00	0	57	0	2737831936	47	3816
2026-01-03 07:45:20.64	330.73	17.88	-42.2	-42.9	19.5	0.00e+00	0	57	0	2744123392	47	3858
2026-01-03 07:45:21.64	330.55	17.81	-42.2	-42.9	19.5	0.00e+00	0	57	0	2749366272	47	3849
2026-01-03 07:45:22.62	330.36	17.74	-42.2	-42.9	19.5	0.00e+00	0	57	0	2754609152	47	3852
2026-01-03 07:45:23.61	330.18	17.67	-42.2	-42.9	19.5	0.00e+00	0	57	0	2759852032	47	3867
2026-01-03 07:45:24.60	330.00	17.60	-42.2	-42.9	19.4	0.00e+00	0	57	0	2766143488	47	3864
2026-01-03 07:45:25.59	329.82	17.53	-42.3	-43.0	19.4	0.00e+00	0	57	0	2771386368	47	3909
2026-01-03 07:45:26.58	329.63	17.46	-42.6	-43.3	19.1	0.00e+00	0	57	0	2777677824	47	4022
2026-01-03 07:45:27.58	329.45	17.39	-42.5	-43.2	19.1	0.00e+00	0	57	0	2782920704	47	3993
2026-01-03 07:45:28.57	329.27	17.32	-42.4	-43.1	19.3	0.00e+00	0	57	0	2788163584	47	3932
2026-01-03 07:45:29.56	329.10	17.24	-42.3	-43.0	19.4	0.00e+00	0	57	0	2793406464	47	3875
2026-01-03 07:45:30.54	328.92	17.17	-42.3	-43.0	19.4	0.00e+00	0	57	0	2799697920	47	3870
2026-01-03 07:45:31.53	328.74	17.10	-42.3	-43.0	19.4	0.00e+00	0	57	0	2804940800	47	3888
2026-01-03 07:45:32.52	328.57	17.03	-42.5	-43.2	19.2	0.00e+00	0	57	0	2810183680	47	3968
2026-01-03 07:45:33.51	328.39	16.96	-42.5	-43.2	19.2	0.00e+00	0	57	0	2816475136	47	3993
2026-01-03 07:45:34.49	328.22	16.89	-42.4	-43.1	19.3	0.00e+00	0	57	0	2821718016	47	3933
2026-01-03 07:45:35.48	328.05	16.82	-42.4	-43.1	19.2	0.00e+00	0	57	0	2826960896	47	3955
2026-01-03 07:45:36.47	327.87	16.75	-42.5	-43.3	19.1	0.00e+00	0	57	0	2832203776	47	4005
2026-01-03 07:45:37.45	327.70	16.68	-42.7	-43.4	19.0	0.00e+00	0	57	0	2838495232	47	4090
2026-01-03 07:45:38.44	327.53	16.60	-42.8	-43.5	18.9	0.00e+00	0	57	0	2843738112	47	4142
2026-01-03 07:45:39.43	327.36	16.53	-42.9	-43.6	18.8	0.00e+00	0	57	0	2850029568	47	4182
2026-01-03 07:45:40.42	327.19	16.46	-42.9	-43.7	18.7	0.00e+00	0	57	0	2855272448	47	4214
2026-01-03 07:45:41.41	327.02	16.39	-42.8	-43.5	18.9	0.00e+00	0	57	0	2860515328	47	4120
2026-01-03 07:45:42.40	326.86	16.32	-42.7	-43.5	18.9	0.00e+00	0	57	0	2865758208	47	4109
2026-01-03 07:45:43.39	326.69	16.25	-42.8	-43.6	18.8	0.00e+00	0	57	0	2872049664	47	4153
2026-01-03 07:45:44.37	326.53	16.17	-42.9	-43.6	18.8	0.00e+00	0	57	0	2877292544	47	4176
2026-01-03 07:45:45.36	326.36	16.10	-42.9	-43.7	18.7	0.00e+00	0	57	0	2882535424	47	4207
2026-01-03 07:45:46.35	326.20	16.03	-42.9	-43.6	18.8	0.00e+00	0	57	0	2888826880	47	4176
2026-01-03 07:45:47.34	326.03	15.96	-42.8	-43.6	18.8	0.00e+00	0	57	0	2894069760	47	4160
2026-01-03 07:45:48.33	325.87	15.89	-42.9	-43.7	18.7	0.00e+00	0	57	0	2899312640	47	4207
2026-01-03 07:45:49.32	325.71	15.82	-43.0	-43.8	18.6	0.00e+00	0	57	0	2905604096	47	4250
2026-01-03 07:45:50.32	325.54	15.74	-42.9	-43.7	18.7	0.00e+00	0	57	0	2910846976	47	4198
2026-01-03 07:45:51.31	325.38	15.67	-43.0	-43.8	18.6	0.00e+00	0	57	0	2916089856	47	4244
2026-01-03 07:45:52.30	325.22	15.60	-42.8	-43.5	18.8	0.00e+00	0	57	0	2921332736	47	4136
2026-01-03 07:45:53.29	325.07	15.53	-42.8	-43.5	18.8	0.00e+00	0	57	0	2927624192	47	4134
2026-01-03 07:45:54.27	324.91	15.45	-43.0	-43.7	18.6	0.00e+00	0	57	0	2932867072	47	4240
2026-01-03 07:45:55.27	324.75	15.38	-43.3	-44.1	18.5	0.00e+00	0	57	0	2938109952	48	4155
2026-01-03 07:45:56.26	324.59	15.31	-43.2	-43.9	18.6	0.00e+00	0	57	0	2944401408	48	4092
2026-01-03 07:45:57.25	324.44	15.24	-43.3	-44.1	18.4	0.00e+00	0	57	0	2949644288	48	4167
2026-01-03 07:45:58.24	324.28	15.17	-43.3	-44.1	18.5	0.00e+00	0	57	0	2954887168	48	4146
2026-01-03 07:45:59.23	324.13	15.09	-43.4	-44.2	18.4	0.00e+00	0	57	0	2961178624	48	4206
2026-01-03 07:46:00.22	323.97	15.02	-43.3	-44.1	18.4	0.00e+00	0	57	0	2966421504	48	4171
2026-01-03 07:46:01.21	323.82	14.95	-43.3	-44.1	18.5	0.00e+00	0	57	0	2971664384	48	4164
2026-01-03 07:46:02.20	323.67	14.88	-43.4	-44.2	18.3	0.00e+00	0	57	0	2977955840	48	4242
2026-01-03 07:46:03.19	323.52	14.81	-43.6	-44.4	18.1	0.00e+00	0	57	0	2983198720	49	4090
2026-01-03 07:46:04.18	323.37	14.73	-43.4	-44.2	18.3	0.00e+00	0	57	0	2988441600	49	3973
2026-01-03 07:46:05.17	323.22	14.66	-43.2	-44.0	18.5	0.00e+00	0	57	0	2993684480	49	3898
2026-01-03 07:46:06.16	323.07	14.59	-43.2	-44.0	18.5	0.00e+00	0	57	0	2999975936	49	3878
2026-01-03 07:46:07.15	322.92	14.52	-43.3	-44.0	18.5	0.00e+00	0	57	0	3005218816	49	3909
2026-01-03 07:46:08.14	322.77	14.44	-43.4	-44.2	18.3	0.00e+00	0	57	0	3010461696	49	3973
2026-01-03 07:46:09.13	322.63	14.37	-43.4	-44.2	18.3	0.00e+00	0	57	0	3016753152	49	3987
2026-01-03 07:46:10.12	322.48	14.30	-43.6	-44.4	18.1	0.00e+00	0	57	0	3021996032	49	4061
2026-01-03 07:46:11.11	322.34	14.23	-43.8	-44.6	17.9	0.00e+00	0	57	0	3027238912	49	4182
2026-01-03 07:46:12.10	322.19	14.16	-43.6	-44.4	18.1	0.00e+00	0	57	0	3033530368	49	4078
2026-01-03 07:46:13.09	322.05	14.09	-43.5	-44.3	18.2	0.00e+00	0	57	0	3038773248	49	4037
2026-01-03 07:46:14.08	321.90	14.01	-43.5	-44.3	18.2	0.00e+00	0	57	0	3044016128	49	4036
2026-01-03 07:46:15.06	321.76	13.94	-43.5	-44.3	18.2	0.00e+00	0	57	0	3049259008	49	4042
2026-01-03 07:46:16.05	321.62	13.87	-43.8	-44.6	17.8	0.00e+00	0	57	0	3055550464	49	4193
2026-01-03 07:46:17.04	321.48	13.80	-43.6	-44.4	18.1	0.00e+00	0	57	0	3060793344	49	4078
2026-01-03 07:46:18.03	321.34	13.73	-43.9	-44.8	17.7	0.00e+00	0	57	0	3067084800	49	4249
2026-01-03 07:46:19.02	321.20	13.66	-43.8	-44.6	17.9	0.00e+00	0	57	0	3072327680	49	4159
2026-01-03 07:46:20.00	321.06	13.58	-43.7	-44.5	18.0	0.00e+00	0	57	0	3077570560	49	4125
2026-01-03 07:46:20.99	320.92	13.51	-43.9	-44.7	17.8	0.00e+00	0	57	0	3082813440	49	4233
2026-01-03 07:46:21.99	320.78	13.44	-43.9	-44.7	17.7	0.00e+00	0	57	0	3089104896	49	4239
2026-01-03 07:46:22.98	320.65	13.37	-43.8	-44.7	17.8	0.00e+00	0	57	0	3094347776	49	4228
2026-01-03 07:46:23.97	320.51	13.30	-43.9	-44.8	17.7	0.00e+00	0	57	0	3099590656	49	4247
2026-01-03 07:46:24.96	320.37	13.23	-44.0	-44.9	17.6	0.00e+00	0	57	0	3105882112	49	4307
2026-01-03 07:46:25.95	320.24	13.15	-43.8	-44.7	17.8	0.00e+00	0	57	0	3111124992	49	4220
2026-01-03 07:46:26.94	320.11	13.08	-43.7	-44.5	17.9	0.00e+00	0	57	0	3116367872	49	4135
2026-01-03 07:46:27.93	319.97	13.01	-43.7	-44.6	17.9	0.00e+00	0	57	0	3122659328	49	4156
2026-01-03 07:46:28.92	319.84	12.94	-43.8	-44.6	17.9	0.00e+00	0	57	0	3127902208	49	4183
2026-01-03 07:46:29.91	319.71	12.87	-44.1	-45.0	17.5	0.00e+00	0	57	0	3133145088	50	4127
2026-01-03 07:46:30.90	319.57	12.80	-44.0	-44.9	17.6	0.00e+00	0	57	0	3138387968	50	4066
2026-01-03 07:46:31.89	319.44	12.73	-43.8	-44.7	17.8	0.00e+00	0	57	0	3144679424	50	3970
2026-01-03 07:46:32.88	319.31	12.66	-44.0	-44.9	17.6	0.00e+00	0	57	0	3149922304	50	4070
2026-01-03 07:46:33.86	319.18	12.59	-44.3	-45.2	17.2	0.00e+00	0	57	0	3155165184	50	4231
2026-01-03 07:46:34.86	319.05	12.51	-44.1	-45.0	17.5	0.00e+00	0	57	0	3161456640	50	4107
2026-01-03 07:46:35.85	318.93	12.44	-44.2	-45.1	17.4	0.00e+00	0	57	0	3166699520	50	4160
2026-01-03 07:46:36.84	318.80	12.37	-44.3	-45.3	17.2	0.00e+00	0	57	0	3171942400	50	4248
2026-01-03 07:46:37.83	318.67	12.30	-44.3	-45.2	17.3	0.00e+00	0	57	0	3178233856	50	4196
2026-01-03 07:46:38.82	318.54	12.23	-44.4	-45.3	17.2	0.00e+00	0	57	0	3183476736	50	4261
2026-01-03 07:46:39.81	318.42	12.16	-44.6	-45.6	16.8	0.00e+00	0	57	0	3188719616	51	4177
2026-01-03 07:46:40.79	318.29	12.09	-44.5	-45.5	16.9	0.00e+00	0	57	0	3195011072	51	4112
2026-01-03 07:46:41.78	318.17	12.02	-44.7	-45.7	16.8	0.00e+00	0	57	0	3200253952	51	4194
2026-01-03 07:46:42.77	318.04	11.95	-44.9	-45.9	16.5	0.00e+00	0	57	0	3205496832	51	4327
2026-01-03 07:46:43.76	317.92	11.88	-44.8	-45.8	16.6	0.00e+00	0	57	0	3210739712	51	4288
2026-01-03 07:46:44.75	317.80	11.81	-44.5	-45.5	16.9	0.00e+00	0	57	0	3217031168	51	4117
2026-01-03 07:46:45.74	317.68	11.74	-44.4	-45.4	17.1	0.00e+00	0	57	0	3222274048	51	4052
2026-01-03 07:46:46.73	317.55	11.67	-44.5	-45.5	17.0	0.00e+00	0	57	0	3228565504	51	4114
2026-01-03 07:46:47.72	317.43	11.60	-44.7	-45.7	16.8	0.00e+00	0	57	0	3233808384	51	4207
2026-01-03 07:46:48.70	317.31	11.53	-44.6	-45.6	16.8	0.00e+00	0	57	0	3239051264	51	4179
2026-01-03 07:46:49.69	317.19	11.46	-44.6	-45.5	16.9	0.00e+00	0	57	0	3244294144	51	4142
2026-01-03 07:46:50.68	317.07	11.39	-44.7	-45.7	16.7	0.00e+00	0	57	0	3250585600	51	4212
2026-01-03 07:46:51.68	316.95	11.32	-44.7	-45.7	16.7	0.00e+00	0	57	0	3255828480	51	4206
2026-01-03 07:46:52.67	316.84	11.25	-44.8	-45.8	16.6	0.00e+00	0	57	0	3261071360	51	4277
2026-01-03 07:46:53.66	316.72	11.18	-45.1	-46.1	16.3	0.00e+00	0	57	0	3267362816	51	4429
2026-01-03 07:46:54.65	316.60	11.11	-44.9	-46.0	16.3	0.00e+00	0	57	0	3272605696	52	4103
2026-01-03 07:46:55.65	316.48	11.04	-44.8	-45.9	16.4	0.00e+00	0	57	0	3277848576	52	4071
2026-01-03 07:46:56.64	316.37	10.97	-44.8	-45.9	16.5	0.00e+00	0	57	0	3284140032	52	4057
2026-01-03 07:46:57.63	316.25	10.90	-44.9	-45.9	16.4	0.00e+00	0	57	0	3289382912	52	4069
2026-01-03 07:46:58.62	316.14	10.83	-44.9	-45.9	16.4	0.00e+00	0	57	0	3294625792	52	4091
2026-01-03 07:46:59.62	316.02	10.76	-44.8	-45.9	16.4	0.00e+00	0	57	0	3299868672	52	4078
2026-01-03 07:47:00.61	315.91	10.70	-44.7	-45.7	16.6	0.00e+00	0	57	0	3306160128	52	3992
2026-01-03 07:47:01.60	315.79	10.63	-44.5	-45.5	16.8	0.00e+00	0	57	0	3311403008	52	3889
2026-01-03 07:47:02.59	315.68	10.56	-44.4	-45.4	17.0	0.00e+00	0	57	0	3317694464	51	4058
2026-01-03 07:47:03.58	315.57	10.49	-44.4	-45.4	17.0	0.00e+00	0	57	0	3322937344	51	4070
2026-01-03 07:47:04.57	315.46	10.42	-44.6	-45.6	16.8	0.00e+00	0	57	0	3328180224	51	4146
2026-01-03 07:47:05.56	315.35	10.35	-44.6	-45.6	16.8	0.00e+00	0	57	0	3333423104	51	4172
2026-01-03 07:47:06.56	315.24	10.28	-44.5	-45.4	16.9	0.00e+00	0	57	0	3339714560	51	4076
2026-01-03 07:47:07.55	315.13	10.21	-44.4	-45.4	17.0	0.00e+00	0	57	0	3344957440	51	4063
2026-01-03 07:47:08.54	315.02	10.15	-44.5	-45.5	16.9	0.00e+00	0	57	0	3350200320	51	4106
2026-01-03 07:47:09.53	314.91	10.08	-44.5	-45.5	16.8	0.00e+00	0	57	0	3356491776	51	4123
2026-01-03 07:47:10.53	314.80	10.01	-44.6	-45.6	16.8	0.00e+00	0	57	0	3361734656	51	4167
2026-01-03 07:47:11.52	314.69	9.94	-44.6	-45.5	16.8	0.00e+00	0	57	0	3366977536	51	4145
2026-01-03 07:47:12.50	314.58	9.87	-44.6	-45.7	16.7	0.00e+00	0	57	0	3373268992	51	4200
2026-01-03 07:47:13.50	314.48	9.80	-44.7	-45.7	16.6	0.00e+00	0	57	0	3378511872	51	4229
2026-01-03 07:47:14.49	314.37	9.74	-44.8	-45.8	16.5	0.00e+00	0	57	0	3383754752	51	4278
2026-01-03 07:47:15.47	314.27	9.67	-44.9	-45.9	16.4	0.00e+00	0	57	0	3390046208	51	4320
2026-01-03 07:47:16.46	314.16	9.60	-44.9	-45.9	16.4	0.00e+00	0	57	0	3395289088	51	4329
2026-01-03 07:47:17.43	314.06	9.54	-45.0	-46.1	16.1	0.00e+00	0	57	0	3400531968	52	4176
2026-01-03 07:47:18.42	313.95	9.47	-45.1	-46.2	16.0	0.00e+00	0	58	0	3406823424	52	4218
2026-01-03 07:47:19.41	313.85	9.40	-44.9	-46.0	16.3	0.00e+00	0	57	0	3412066304	52	4101
2026-01-03 07:47:20.40	313.75	9.33	-44.7	-45.8	16.4	0.00e+00	0	57	0	3417309184	52	4024
2026-01-03 07:47:21.40	313.64	9.27	-44.8	-45.8	16.4	0.00e+00	0	57	0	3422552064	52	4021
2026-01-03 07:47:22.38	313.54	9.20	-44.7	-45.7	16.5	0.00e+00	0	57	0	3428843520	52	3998
2026-01-03 07:47:23.37	313.44	9.13	-44.8	-45.8	16.4	0.00e+00	0	58	0	3434086400	52	4018
2026-01-03 07:47:24.36	313.34	9.07	-44.8	-45.8	16.4	0.00e+00	0	57	0	3439329280	52	4036
2026-01-03 07:47:25.35	313.24	9.00	-44.8	-45.8	16.4	0.00e+00	0	57	0	3445620736	52	4019
2026-01-03 07:47:26.34	313.14	8.93	-44.7	-45.7	16.4	0.00e+00	0	58	0	3450863616	52	3999
2026-01-03 07:47:27.33	313.04	8.87	-44.8	-45.8	16.3	0.00e+00	0	57	0	3456106496	52	4051
2026-01-03 07:47:28.31	312.94	8.80	-44.9	-46.0	16.2	0.00e+00	0	58	0	3461349376	52	4126
2026-01-03 07:47:29.29	312.84	8.73	-44.9	-46.0	16.2	0.00e+00	0	57	0	3467640832	52	4122
2026-01-03 07:47:30.28	312.74	8.67	-45.0	-46.1	16.0	0.00e+00	0	57	0	3472883712	52	4184
2026-01-03 07:47:31.27	312.64	8.60	-45.1	-46.3	15.9	0.00e+00	0	57	0	3478126592	52	4243
2026-01-03 07:47:32.26	312.55	8.53	-45.1	-46.2	15.9	0.00e+00	0	57	0	3484418048	52	4218
2026-01-03 07:47:33.25	312.45	8.47	-45.3	-46.4	15.8	0.00e+00	0	57	0	3489660928	52	4304
2026-01-03 07:47:34.24	312.35	8.40	-45.3	-46.4	15.7	0.00e+00	0	57	0	3494903808	52	4323
2026-01-03 07:47:35.23	312.26	8.34	-45.2	-46.3	15.9	0.00e+00	0	57	0	3501195264	52	4248
2026-01-03 07:47:36.21	312.16	8.27	-45.3	-46.5	15.6	0.00e+00	0	57	0	3506438144	52	4362
2026-01-03 07:47:37.20	312.06	8.21	-45.4	-46.5	15.6	0.00e+00	0	58	0	3511681024	52	4364
2026-01-03 07:47:38.18	311.97	8.14	-45.4	-46.6	15.5	0.00e+00	0	57	0	3517972480	52	4420
2026-01-03 07:47:39.17	311.88	8.08	-45.4	-46.6	15.5	0.00e+00	0	57	0	3523215360	52	4421
2026-01-03 07:47:40.17	311.78	8.01	-45.5	-46.7	15.4	0.00e+00	0	57	0	3528458240	52	4460
2026-01-03 07:47:41.16	311.69	7.94	-45.6	-46.9	15.3	0.00e+00	0	57	0	3533701120	53	4293
2026-01-03 07:47:42.15	311.59	7.88	-45.5	-46.7	15.4	1.10e-06	0	58	0	3539992576	53	4212
2026-01-03 07:47:43.14	311.50	7.81	-45.3	-46.5	15.6	0.00e+00	0	57	0	3545235456	53	4121
2026-01-03 07:47:44.13	311.41	7.75	-45.4	-46.5	15.6	0.00e+00	0	57	0	3550478336	53	4136
2026-01-03 07:47:45.13	311.32	7.68	-45.3	-46.4	15.6	0.00e+00	0	57	0	3556769792	53	4090
2026-01-03 07:47:46.12	311.23	7.62	-45.4	-46.6	15.5	0.00e+00	0	57	0	3562012672	53	4163
2026-01-03 07:47:47.11	311.13	7.55	-45.5	-46.8	15.3	0.00e+00	0	57	0	3567255552	53	4243
2026-01-03 07:47:48.10	311.04	7.49	-45.4	-46.6	15.5	0.00e+00	0	57	0	3573547008	53	4164
2026-01-03 07:47:49.09	310.95	7.42	-45.6	-46.8	15.3	1.10e-06	0	57	0	3578789888	53	4258
2026-01-03 07:47:50.09	310.86	7.36	-45.8	-47.2	14.9	0.00e+00	0	57	0	3584032768	53	4445
2026-01-03 07:47:51.08	310.77	7.29	-45.5	-46.8	15.3	0.00e+00	0	58	0	3590324224	53	4244
2026-01-03 07:47:52.07	310.68	7.23	-45.4	-46.6	15.4	0.00e+00	0	57	0	3595567104	53	4168
2026-01-03 07:47:53.06	310.60	7.17	-45.3	-46.5	15.5	0.00e+00	0	57	0	3600809984	53	4123
2026-01-03 07:47:54.05	310.51	7.10	-45.4	-46.6	15.4	0.00e+00	0	57	0	3607101440	53	4175
2026-01-03 07:47:55.04	310.42	7.04	-45.3	-46.5	15.5	1.10e-06	0	57	0	3612344320	53	4127
2026-01-03 07:47:56.03	310.33	6.97	-45.4	-46.6	15.4	0.00e+00	0	57	0	3617587200	53	4164
2026-01-03 07:47:57.01	310.25	6.91	-45.3	-46.5	15.5	0.00e+00	0	57	0	3622830080	53	4126
2026-01-03 07:47:57.99	310.16	6.85	-45.5	-46.7	15.2	0.00e+00	0	57	0	3629121536	53	4211
2026-01-03 07:47:58.98	310.07	6.78	-45.4	-46.5	15.4	0.00e+00	0	57	0	3634364416	53	4145
2026-01-03 07:47:59.97	309.99	6.72	-45.2	-46.5	15.5	0.00e+00	0	57	0	3639607296	53	4107
2026-01-03 07:48:00.96	309.90	6.66	-45.2	-46.4	15.5	0.00e+00	0	57	0	3645898752	53	4082
2026-01-03 07:48:01.94	309.82	6.59	-45.5	-46.7	15.2	0.00e+00	0	57	0	3651141632	53	4219
2026-01-03 07:48:02.93	309.73	6.53	-45.3	-46.5	15.4	0.00e+00	0	57	0	3656384512	53	4112
2026-01-03 07:48:03.92	309.65	6.47	-45.5	-46.7	15.1	1.10e-06	0	57	0	3661627392	53	4230
2026-01-03 07:48:04.91	309.57	6.41	-45.4	-46.7	15.2	0.00e+00	0	57	0	3667918848	53	4208
2026-01-03 07:48:05.90	309.48	6.34	-45.6	-46.9	14.9	0.00e+00	0	57	0	3673161728	53	4324
2026-01-03 07:48:06.89	309.40	6.28	-45.5	-46.8	15.1	0.00e+00	0	57	0	3678404608	53	4259
2026-01-03 07:48:07.88	309.32	6.22	-45.6	-46.9	14.9	0.00e+00	0	58	0	3684696064	53	4337
2026-01-03 07:48:08.87	309.23	6.15	-45.5	-46.8	15.1	0.00e+00	0	57	0	3689938944	53	4246
2026-01-03 07:48:09.86	309.15	6.09	-45.5	-46.8	15.0	0.00e+00	0	57	0	3695181824	53	4250
