passes_logs/2026/01/03/R3.0SM8_Murmansk_STILSPACE/R3.0SM8_Murmansk_STILSPACE__20260103_041756_FENGYUN_3D_rec.log

#Pass ID: 20260103_041756_FENGYUN 3D
#Satellite: FENGYUN 3D
#Configuration: FENGYUN 3D
#almurnet v.1.7.20240730
#Start time: 2026-01-03 04:17:56

#Version: 2.2.20231116
#Station: R3.0SM8_Murmansk_STILSPACE
#Location: 33.092731 lon 68.902999 lat
#TLE: 1 43010U 17072A   26002.31768531  .00000715  00000+0  35975-3 0  9993
#TLE: 2 43010  98.9910 333.9388 0001871 131.0716 229.0622 14.19693418421454

#Time	Az	El	Level	Level2	SNR	BER	BlckErr	Temp	State	Recorded	gain1	gain2
2026-01-03 04:17:56.32	32.35	3.00	-53.2	-64.0	3.8	8.45e-01	0	45	0	0	68	13031
2026-01-03 04:17:57.30	32.31	3.06	-53.2	-63.9	3.8	8.46e-01	0	46	104	0	69	12140
2026-01-03 04:17:58.30	32.28	3.12	-53.1	-63.9	3.8	8.46e-01	0	46	104	0	69	12098
2026-01-03 04:17:59.29	32.24	3.19	-53.0	-63.8	3.8	8.46e-01	0	46	104	0	69	12026
2026-01-03 04:18:00.28	32.21	3.25	-53.0	-63.6	3.8	8.46e-01	0	46	104	0	68	12506
2026-01-03 04:18:01.27	32.17	3.32	-52.9	-63.7	3.8	8.46e-01	0	46	104	0	68	12575
2026-01-03 04:18:02.26	32.14	3.38	-52.8	-63.6	3.8	8.46e-01	0	46	104	0	68	12381
2026-01-03 04:18:03.25	32.10	3.44	-52.6	-63.3	3.8	8.46e-01	0	46	104	0	68	12053
2026-01-03 04:18:04.25	32.07	3.51	-52.2	-62.7	3.8	8.45e-01	0	46	104	0	67	11896
2026-01-03 04:18:05.23	32.03	3.57	-52.0	-62.5	3.8	8.46e-01	0	46	104	0	67	11601
2026-01-03 04:18:06.22	32.00	3.64	-52.1	-62.0	3.8	8.45e-01	0	46	104	0	67	11014
2026-01-03 04:18:07.20	31.96	3.70	-52.0	-61.5	3.8	8.46e-01	0	46	104	0	67	10398
2026-01-03 04:18:08.20	31.92	3.77	-51.9	-60.8	3.8	8.46e-01	0	46	104	0	66	10099
2026-01-03 04:18:09.18	31.89	3.83	-51.8	-59.7	4.1	8.43e-01	0	47	104	0	66	8904
2026-01-03 04:18:10.17	31.85	3.90	-51.6	-58.6	4.4	8.31e-01	0	46	0	0	66	7856
2026-01-03 04:18:11.16	31.81	3.96	-51.3	-57.5	4.9	7.96e-01	0	46	0	0	65	7341
2026-01-03 04:18:12.14	31.78	4.03	-51.1	-56.8	5.3	7.47e-01	0	47	0	0	65	6786
2026-01-03 04:18:13.13	31.74	4.09	-50.9	-56.2	5.7	6.44e-01	0	47	0	0	65	6329
2026-01-03 04:18:14.11	31.70	4.16	-50.6	-55.3	6.4	3.12e-01	0	47	0	5242880	64	6059
2026-01-03 04:18:15.10	31.67	4.23	-50.4	-54.6	7.2	1.88e-01	0	47	0	11534336	63	5878
2026-01-03 04:18:16.09	31.63	4.29	-50.0	-53.7	8.0	9.00e-02	0	47	0	16777216	63	5317
2026-01-03 04:18:17.08	31.59	4.36	-49.7	-52.9	8.8	4.34e-02	0	47	0	22020096	62	5128
2026-01-03 04:18:18.06	31.55	4.42	-49.2	-52.1	9.6	1.92e-02	0	47	0	28311552	61	4963
2026-01-03 04:18:19.05	31.51	4.49	-48.8	-51.4	10.4	6.98e-03	0	47	0	33554432	60	4840
2026-01-03 04:18:20.04	31.48	4.56	-48.4	-50.7	11.1	3.70e-03	0	47	0	38797312	59	4743
2026-01-03 04:18:21.03	31.44	4.62	-48.1	-50.2	11.7	1.08e-03	0	47	0	45088768	59	4442
2026-01-03 04:18:22.02	31.40	4.69	-47.6	-49.5	12.4	2.76e-04	0	47	0	50331648	58	4364
2026-01-03 04:18:23.01	31.36	4.76	-47.2	-48.9	13.0	9.95e-05	0	48	0	55574528	57	4320
2026-01-03 04:18:24.00	31.32	4.83	-47.0	-48.6	13.3	5.14e-05	0	47	0	60817408	57	4175
2026-01-03 04:18:24.99	31.28	4.89	-46.8	-48.4	13.6	2.63e-05	0	48	0	67108864	56	4303
2026-01-03 04:18:25.98	31.24	4.96	-46.7	-48.3	13.7	1.25e-05	0	48	0	72351744	56	4250
2026-01-03 04:18:26.97	31.20	5.03	-46.6	-48.1	13.8	6.80e-06	0	48	0	77594624	56	4157
2026-01-03 04:18:27.95	31.16	5.10	-46.5	-48.0	13.9	5.70e-06	0	48	0	83886080	56	4142
2026-01-03 04:18:28.95	31.12	5.17	-46.6	-48.1	13.9	4.50e-06	0	48	0	89128960	56	4164
2026-01-03 04:18:29.94	31.08	5.23	-46.5	-47.9	14.0	3.40e-06	0	48	0	94371840	56	4096
2026-01-03 04:18:30.92	31.04	5.30	-46.4	-47.9	14.1	6.80e-06	0	48	0	100663296	56	4053
2026-01-03 04:18:31.92	31.00	5.37	-46.3	-47.7	14.2	4.50e-06	0	48	0	105906176	55	4211
2026-01-03 04:18:32.90	30.96	5.44	-46.4	-47.9	14.0	1.10e-06	0	48	0	111149056	55	4318
2026-01-03 04:18:33.88	30.92	5.51	-46.2	-47.6	14.3	1.10e-06	0	48	0	117440512	55	4188
2026-01-03 04:18:34.87	30.87	5.58	-46.5	-48.0	13.9	3.40e-06	0	48	0	122683392	55	4351
2026-01-03 04:18:35.86	30.83	5.65	-46.4	-47.8	14.1	6.80e-06	0	48	0	127926272	55	4266
2026-01-03 04:18:36.85	30.79	5.72	-46.0	-47.3	14.7	2.20e-06	0	48	0	133169152	55	4017
2026-01-03 04:18:37.84	30.75	5.79	-45.9	-47.3	14.7	0.00e+00	0	48	0	139460608	55	4007
2026-01-03 04:18:38.82	30.71	5.86	-45.9	-47.2	14.8	0.00e+00	0	48	0	144703488	54	4219
2026-01-03 04:18:39.81	30.66	5.93	-46.1	-47.5	14.5	1.10e-06	0	48	0	149946368	54	4354
2026-01-03 04:18:40.80	30.62	6.00	-46.2	-47.5	14.4	1.10e-06	0	49	0	156237824	54	4378
2026-01-03 04:18:41.80	30.58	6.07	-46.1	-47.5	14.6	0.00e+00	0	48	0	161480704	54	4348
2026-01-03 04:18:42.79	30.53	6.14	-46.2	-47.5	14.5	0.00e+00	0	48	0	166723584	54	4388
2026-01-03 04:18:43.78	30.49	6.21	-46.1	-47.5	14.6	0.00e+00	0	49	0	173015040	54	4346
2026-01-03 04:18:44.77	30.44	6.28	-46.3	-47.6	14.4	0.00e+00	0	49	0	178257920	54	4429
2026-01-03 04:18:45.76	30.40	6.35	-46.4	-47.8	14.3	2.20e-06	0	49	0	183500800	54	4527
2026-01-03 04:18:46.75	30.36	6.42	-46.3	-47.7	14.4	1.10e-06	0	49	0	188743680	54	4445
2026-01-03 04:18:47.74	30.31	6.49	-46.4	-47.8	14.3	2.20e-06	0	49	0	195035136	54	4497
2026-01-03 04:18:48.73	30.27	6.56	-46.5	-47.9	14.2	1.10e-06	0	49	0	200278016	54	4559
2026-01-03 04:18:49.71	30.22	6.64	-46.4	-47.8	14.3	2.20e-06	0	49	0	205520896	54	4525
2026-01-03 04:18:50.71	30.18	6.71	-46.2	-47.5	14.6	1.10e-06	0	49	0	211812352	54	4380
2026-01-03 04:18:51.69	30.13	6.78	-45.9	-47.2	14.9	0.00e+00	0	49	0	217055232	54	4236
2026-01-03 04:18:52.68	30.09	6.85	-45.9	-47.1	15.0	0.00e+00	0	49	0	222298112	54	4191
2026-01-03 04:18:53.67	30.04	6.92	-45.9	-47.2	15.0	0.00e+00	0	49	0	228589568	54	4208
2026-01-03 04:18:54.66	29.99	7.00	-46.0	-47.3	14.8	0.00e+00	0	49	0	233832448	54	4265
2026-01-03 04:18:55.65	29.95	7.07	-46.0	-47.3	14.8	0.00e+00	0	49	0	239075328	54	4262
2026-01-03 04:18:56.64	29.90	7.14	-45.8	-47.1	15.0	0.00e+00	0	50	0	245366784	54	4163
2026-01-03 04:18:57.63	29.85	7.22	-45.5	-46.7	15.5	0.00e+00	0	49	0	250609664	54	3985
2026-01-03 04:18:58.62	29.81	7.29	-45.4	-46.6	15.6	0.00e+00	0	50	0	255852544	54	3922
2026-01-03 04:18:59.61	29.76	7.36	-45.4	-46.5	15.6	0.00e+00	0	49	0	261095424	53	4124
2026-01-03 04:19:00.59	29.71	7.44	-45.3	-46.4	15.7	0.00e+00	0	50	0	267386880	53	4093
2026-01-03 04:19:01.59	29.66	7.51	-45.4	-46.5	15.6	0.00e+00	0	50	0	272629760	53	4131
2026-01-03 04:19:02.58	29.61	7.59	-45.4	-46.5	15.7	0.00e+00	0	50	0	278921216	53	4117
2026-01-03 04:19:03.57	29.57	7.66	-45.3	-46.4	15.7	0.00e+00	0	50	0	284164096	53	4098
2026-01-03 04:19:04.56	29.52	7.73	-45.5	-46.6	15.6	0.00e+00	0	50	0	289406976	53	4184
2026-01-03 04:19:05.55	29.47	7.81	-45.5	-46.6	15.6	0.00e+00	0	50	0	294649856	53	4192
2026-01-03 04:19:06.54	29.42	7.88	-45.3	-46.4	15.8	0.00e+00	0	50	0	300941312	53	4075
2026-01-03 04:19:07.52	29.37	7.96	-45.2	-46.3	15.9	1.10e-06	0	50	0	306184192	53	4024
2026-01-03 04:19:08.51	29.32	8.03	-45.2	-46.3	15.9	0.00e+00	0	50	0	311427072	53	4044
2026-01-03 04:19:09.50	29.27	8.11	-45.2	-46.4	15.9	0.00e+00	0	50	0	317718528	53	4052
2026-01-03 04:19:10.48	29.22	8.19	-45.2	-46.4	15.8	0.00e+00	0	50	0	322961408	53	4053
2026-01-03 04:19:11.47	29.17	8.26	-45.4	-46.5	15.7	0.00e+00	0	50	0	328204288	53	4136
2026-01-03 04:19:12.45	29.12	8.34	-45.4	-46.6	15.7	0.00e+00	0	50	0	333447168	53	4154
2026-01-03 04:19:13.44	29.06	8.41	-45.3	-46.4	15.8	0.00e+00	0	50	0	339738624	53	4064
2026-01-03 04:19:14.41	29.01	8.49	-45.2	-46.2	16.0	0.00e+00	0	50	0	344981504	53	4002
2026-01-03 04:19:15.40	28.96	8.57	-45.2	-46.3	15.9	0.00e+00	0	50	0	350224384	53	4034
2026-01-03 04:19:16.39	28.91	8.64	-45.2	-46.3	15.9	0.00e+00	0	51	0	356515840	53	4027
2026-01-03 04:19:17.38	28.86	8.72	-45.2	-46.3	15.9	0.00e+00	0	50	0	361758720	53	4035
2026-01-03 04:19:18.37	28.80	8.80	-45.2	-46.3	16.0	0.00e+00	0	50	0	367001600	53	4005
2026-01-03 04:19:19.35	28.75	8.87	-45.2	-46.3	16.0	0.00e+00	0	50	0	372244480	53	4023
2026-01-03 04:19:20.34	28.70	8.95	-45.2	-46.3	16.0	0.00e+00	0	51	0	378535936	53	4011
2026-01-03 04:19:21.32	28.65	9.03	-45.3	-46.4	15.9	0.00e+00	0	51	0	383778816	53	4084
2026-01-03 04:19:22.30	28.59	9.11	-45.3	-46.4	15.8	0.00e+00	0	51	0	389021696	53	4095
2026-01-03 04:19:23.29	28.54	9.19	-45.2	-46.3	16.0	0.00e+00	0	51	0	395313152	53	4020
2026-01-03 04:19:24.27	28.48	9.26	-45.3	-46.4	15.9	0.00e+00	0	51	0	400556032	53	4071
2026-01-03 04:19:25.26	28.43	9.34	-45.2	-46.2	16.1	0.00e+00	0	51	0	405798912	53	3997
2026-01-03 04:19:26.24	28.37	9.42	-45.2	-46.3	16.0	0.00e+00	0	51	0	411041792	53	4024
2026-01-03 04:19:27.23	28.32	9.50	-45.2	-46.3	16.0	0.00e+00	0	51	0	417333248	53	4039
2026-01-03 04:19:28.21	28.26	9.58	-45.4	-46.5	15.8	0.00e+00	0	51	0	422576128	53	4109
2026-01-03 04:19:29.20	28.21	9.66	-45.2	-46.3	16.0	0.00e+00	0	51	0	427819008	53	4020
2026-01-03 04:19:30.18	28.15	9.74	-45.2	-46.2	16.1	0.00e+00	0	51	0	434110464	53	3997
2026-01-03 04:19:31.17	28.09	9.82	-45.2	-46.3	16.0	0.00e+00	0	51	0	439353344	53	4020
2026-01-03 04:19:32.16	28.03	9.90	-45.3	-46.4	16.0	0.00e+00	0	51	0	444596224	53	4071
2026-01-03 04:19:33.15	27.98	9.98	-45.5	-46.6	15.7	0.00e+00	0	51	0	449839104	53	4162
2026-01-03 04:19:34.13	27.92	10.06	-45.3	-46.4	16.0	0.00e+00	0	51	0	456130560	53	4059
2026-01-03 04:19:35.12	27.86	10.14	-45.1	-46.2	16.1	0.00e+00	0	51	0	461373440	53	3987
2026-01-03 04:19:36.10	27.80	10.22	-45.1	-46.1	16.2	0.00e+00	0	51	0	466616320	53	3944
2026-01-03 04:19:37.10	27.74	10.31	-45.1	-46.2	16.2	0.00e+00	0	51	0	472907776	53	3976
2026-01-03 04:19:38.09	27.68	10.39	-45.0	-46.0	16.3	0.00e+00	0	51	0	478150656	53	3912
2026-01-03 04:19:39.09	27.62	10.47	-45.0	-46.0	16.4	0.00e+00	0	51	0	483393536	53	3908
2026-01-03 04:19:40.08	27.56	10.55	-45.0	-46.1	16.3	0.00e+00	0	51	0	489684992	53	3930
2026-01-03 04:19:41.07	27.50	10.64	-45.2	-46.2	16.1	0.00e+00	0	51	0	494927872	53	4000
2026-01-03 04:19:42.06	27.44	10.72	-45.0	-46.0	16.4	0.00e+00	0	51	0	500170752	53	3892
2026-01-03 04:19:43.05	27.38	10.80	-44.8	-45.8	16.6	0.00e+00	0	51	0	506462208	52	4028
2026-01-03 04:19:44.04	27.32	10.89	-44.7	-45.7	16.7	0.00e+00	0	51	0	511705088	52	3981
2026-01-03 04:19:45.03	27.26	10.97	-44.7	-45.7	16.7	0.00e+00	0	51	0	516947968	52	3992
2026-01-03 04:19:46.01	27.20	11.05	-44.8	-45.8	16.6	0.00e+00	0	51	0	522190848	52	4006
2026-01-03 04:19:47.00	27.13	11.14	-44.9	-45.9	16.5	0.00e+00	0	51	0	528482304	52	4079
2026-01-03 04:19:47.98	27.07	11.22	-44.7	-45.7	16.7	0.00e+00	0	52	0	533725184	52	4000
2026-01-03 04:19:48.98	27.01	11.31	-44.6	-45.5	16.9	0.00e+00	0	52	0	538968064	52	3913
2026-01-03 04:19:49.97	26.94	11.39	-44.5	-45.4	17.0	0.00e+00	0	52	0	545259520	52	3854
2026-01-03 04:19:50.97	26.88	11.48	-44.5	-45.4	16.9	0.00e+00	0	52	0	550502400	52	3866
2026-01-03 04:19:51.96	26.81	11.56	-44.5	-45.4	17.0	0.00e+00	0	52	0	555745280	52	3859
2026-01-03 04:19:52.95	26.75	11.65	-44.6	-45.5	16.9	0.00e+00	0	52	0	562036736	52	3906
2026-01-03 04:19:53.94	26.68	11.73	-44.8	-45.8	16.6	0.00e+00	0	52	0	567279616	52	4034
2026-01-03 04:19:54.93	26.62	11.82	-44.6	-45.6	16.9	0.00e+00	0	52	0	572522496	52	3920
2026-01-03 04:19:55.91	26.55	11.91	-44.4	-45.4	17.1	0.00e+00	0	52	0	577765376	52	3845
2026-01-03 04:19:56.90	26.48	11.99	-44.4	-45.4	17.1	0.00e+00	0	52	0	584056832	52	3827
2026-01-03 04:19:57.88	26.42	12.08	-44.5	-45.5	17.0	0.00e+00	0	52	0	589299712	52	3884
2026-01-03 04:19:58.87	26.35	12.17	-44.5	-45.4	17.1	0.00e+00	0	52	0	594542592	52	3837
2026-01-03 04:19:59.86	26.28	12.26	-44.4	-45.4	17.1	0.00e+00	0	52	0	600834048	52	3827
2026-01-03 04:20:00.85	26.21	12.34	-44.6	-45.5	17.0	0.00e+00	0	52	0	606076928	52	3907
2026-01-03 04:20:01.84	26.14	12.43	-44.7	-45.7	16.8	0.00e+00	0	52	0	611319808	52	3963
2026-01-03 04:20:02.82	26.08	12.52	-44.6	-45.5	17.0	0.00e+00	0	52	0	617611264	52	3896
2026-01-03 04:20:03.81	26.01	12.61	-44.5	-45.4	17.1	0.00e+00	0	52	0	622854144	52	3840
2026-01-03 04:20:04.80	25.94	12.70	-44.4	-45.4	17.1	0.00e+00	0	52	0	628097024	52	3829
2026-01-03 04:20:05.79	25.87	12.79	-44.5	-45.4	17.0	0.00e+00	0	52	0	634388480	52	3853
2026-01-03 04:20:06.78	25.79	12.88	-44.5	-45.5	17.0	0.00e+00	0	52	0	639631360	52	3879
2026-01-03 04:20:07.78	25.72	12.97	-44.6	-45.6	16.9	0.00e+00	0	52	0	644874240	52	3948
2026-01-03 04:20:08.76	25.65	13.06	-44.9	-45.9	16.6	0.00e+00	0	52	0	650117120	52	4075
2026-01-03 04:20:09.76	25.58	13.15	-44.8	-45.8	16.7	0.00e+00	0	52	0	656408576	52	4021
2026-01-03 04:20:10.74	25.51	13.24	-44.5	-45.5	17.0	0.00e+00	0	52	0	661651456	52	3869
2026-01-03 04:20:11.73	25.43	13.33	-44.4	-45.4	17.2	0.00e+00	0	53	0	666894336	51	4059
2026-01-03 04:20:12.71	25.36	13.42	-44.4	-45.3	17.3	0.00e+00	0	53	0	673185792	51	4015
2026-01-03 04:20:13.70	25.28	13.51	-44.3	-45.2	17.4	0.00e+00	0	53	0	678428672	51	3989
2026-01-03 04:20:14.68	25.21	13.60	-44.4	-45.4	17.2	0.00e+00	0	53	0	683671552	51	4052
2026-01-03 04:20:15.67	25.13	13.69	-44.4	-45.3	17.3	0.00e+00	0	52	0	689963008	51	4025
2026-01-03 04:20:16.66	25.06	13.79	-44.2	-45.0	17.5	0.00e+00	0	53	0	695205888	51	3907
2026-01-03 04:20:17.65	24.98	13.88	-44.0	-44.9	17.7	0.00e+00	0	53	0	700448768	51	3847
2026-01-03 04:20:18.64	24.91	13.97	-44.1	-44.9	17.7	0.00e+00	0	52	0	705691648	51	3857
2026-01-03 04:20:19.63	24.83	14.07	-44.1	-44.9	17.7	0.00e+00	0	53	0	711983104	51	3845
2026-01-03 04:20:20.62	24.75	14.16	-44.2	-45.0	17.6	0.00e+00	0	53	0	717225984	51	3899
2026-01-03 04:20:21.61	24.67	14.25	-44.3	-45.1	17.5	0.00e+00	0	53	0	722468864	51	3956
2026-01-03 04:20:22.60	24.59	14.35	-44.2	-45.1	17.5	0.00e+00	0	53	0	728760320	51	3944
2026-01-03 04:20:23.59	24.51	14.44	-44.3	-45.2	17.4	0.00e+00	0	53	0	734003200	51	3971
2026-01-03 04:20:24.58	24.43	14.54	-44.3	-45.2	17.4	0.00e+00	0	53	0	739246080	51	3987
2026-01-03 04:20:25.57	24.35	14.63	-44.4	-45.2	17.4	0.00e+00	0	53	0	745537536	51	3999
2026-01-03 04:20:26.55	24.27	14.73	-44.5	-45.4	17.3	0.00e+00	0	53	0	750780416	51	4076
2026-01-03 04:20:27.54	24.19	14.82	-44.5	-45.4	17.2	0.00e+00	0	53	0	756023296	51	4074
2026-01-03 04:20:28.51	24.11	14.92	-44.4	-45.3	17.3	0.00e+00	0	53	0	761266176	51	4044
2026-01-03 04:20:29.50	24.03	15.01	-44.4	-45.3	17.3	0.00e+00	0	53	0	767557632	51	4030
2026-01-03 04:20:30.48	23.95	15.11	-44.4	-45.3	17.4	0.00e+00	0	53	0	772800512	51	4010
2026-01-03 04:20:31.47	23.86	15.21	-44.5	-45.4	17.2	0.00e+00	0	53	0	778043392	51	4092
2026-01-03 04:20:32.46	23.78	15.30	-44.5	-45.4	17.3	0.00e+00	0	53	0	784334848	51	4075
2026-01-03 04:20:33.45	23.69	15.40	-44.5	-45.4	17.3	0.00e+00	0	53	0	789577728	51	4060
2026-01-03 04:20:34.44	23.61	15.50	-44.5	-45.4	17.2	0.00e+00	0	53	0	794820608	51	4086
2026-01-03 04:20:35.43	23.52	15.60	-44.2	-45.1	17.6	0.00e+00	0	53	0	801112064	51	3915
2026-01-03 04:20:36.43	23.43	15.70	-44.0	-44.8	17.8	0.00e+00	0	53	0	806354944	51	3812
2026-01-03 04:20:37.42	23.35	15.80	-43.8	-44.6	18.0	0.00e+00	0	53	0	811597824	50	3945
2026-01-03 04:20:38.41	23.26	15.90	-43.8	-44.6	18.0	0.00e+00	0	53	0	816840704	50	3948
2026-01-03 04:20:39.40	23.17	16.00	-43.7	-44.5	18.1	0.00e+00	0	53	0	823132160	50	3912
2026-01-03 04:20:40.39	23.08	16.10	-43.5	-44.3	18.3	0.00e+00	0	53	0	828375040	50	3803
2026-01-03 04:20:41.38	22.99	16.20	-43.3	-44.0	18.6	0.00e+00	0	53	0	834666496	49	3890
2026-01-03 04:20:42.36	22.90	16.30	-43.2	-43.9	18.7	0.00e+00	0	53	0	839909376	49	3849
2026-01-03 04:20:43.36	22.81	16.40	-43.2	-43.9	18.7	0.00e+00	0	53	0	845152256	49	3849
2026-01-03 04:20:44.35	22.72	16.50	-43.2	-44.0	18.7	0.00e+00	0	54	0	850395136	49	3883
2026-01-03 04:20:45.33	22.63	16.60	-43.4	-44.2	18.5	0.00e+00	0	53	0	856686592	49	3967
2026-01-03 04:20:46.32	22.53	16.70	-43.6	-44.3	18.3	0.00e+00	0	53	0	861929472	49	4041
2026-01-03 04:20:47.31	22.44	16.81	-43.5	-44.2	18.4	0.00e+00	0	53	0	867172352	49	3997
2026-01-03 04:20:48.30	22.35	16.91	-43.5	-44.2	18.4	0.00e+00	0	54	0	873463808	49	3995
2026-01-03 04:20:49.29	22.25	17.01	-43.6	-44.4	18.3	0.00e+00	0	54	0	878706688	49	4076
2026-01-03 04:20:50.29	22.15	17.12	-43.7	-44.5	18.1	0.00e+00	0	54	0	883949568	49	4133
2026-01-03 04:20:51.27	22.06	17.22	-43.4	-44.2	18.5	0.00e+00	0	54	0	889192448	49	3979
2026-01-03 04:20:52.26	21.96	17.33	-43.3	-44.1	18.6	0.00e+00	0	54	0	895483904	49	3931
2026-01-03 04:20:53.25	21.86	17.43	-43.2	-44.0	18.7	0.00e+00	0	54	0	900726784	49	3878
2026-01-03 04:20:54.24	21.77	17.54	-43.2	-43.9	18.7	0.00e+00	0	53	0	905969664	49	3848
2026-01-03 04:20:55.22	21.67	17.64	-43.1	-43.8	18.8	0.00e+00	0	54	0	912261120	49	3816
2026-01-03 04:20:56.22	21.57	17.75	-43.1	-43.8	18.9	0.00e+00	0	54	0	917504000	49	3808
2026-01-03 04:20:57.21	21.47	17.85	-43.1	-43.8	18.9	0.00e+00	0	54	0	922746880	49	3802
2026-01-03 04:20:58.21	21.36	17.96	-43.1	-43.8	18.8	0.00e+00	0	54	0	929038336	49	3819
2026-01-03 04:20:59.20	21.26	18.07	-43.2	-43.9	18.7	0.00e+00	0	54	0	934281216	49	3865
2026-01-03 04:21:00.18	21.16	18.17	-43.0	-43.8	18.9	0.00e+00	0	54	0	939524096	49	3785
2026-01-03 04:21:01.17	21.06	18.28	-43.1	-43.8	18.9	0.00e+00	0	54	0	945815552	49	3806
2026-01-03 04:21:02.16	20.95	18.39	-42.9	-43.6	19.1	0.00e+00	0	54	0	951058432	49	3721
2026-01-03 04:21:03.14	20.85	18.50	-42.8	-43.5	19.1	0.00e+00	0	54	0	956301312	48	3913
2026-01-03 04:21:04.14	20.74	18.61	-42.9	-43.6	19.1	0.00e+00	0	54	0	962592768	48	3950
2026-01-03 04:21:05.13	20.63	18.72	-43.0	-43.8	18.9	0.00e+00	0	54	0	967835648	48	4009
2026-01-03 04:21:06.12	20.53	18.82	-42.9	-43.6	19.1	0.00e+00	0	54	0	973078528	48	3949
2026-01-03 04:21:07.10	20.42	18.93	-43.1	-43.8	18.9	0.00e+00	0	54	0	978321408	48	4048
2026-01-03 04:21:08.09	20.31	19.04	-43.3	-44.1	18.6	0.00e+00	0	54	0	984612864	48	4154
2026-01-03 04:21:09.08	20.20	19.15	-43.1	-43.8	18.9	0.00e+00	0	54	0	989855744	48	4023
2026-01-03 04:21:10.07	20.09	19.27	-42.8	-43.5	19.1	0.00e+00	0	54	0	995098624	48	3905
2026-01-03 04:21:11.05	19.98	19.38	-42.6	-43.3	19.3	0.00e+00	0	54	0	1001390080	48	3816
2026-01-03 04:21:12.04	19.87	19.49	-42.6	-43.3	19.4	0.00e+00	0	54	0	1006632960	48	3788
2026-01-03 04:21:13.02	19.76	19.60	-42.7	-43.3	19.4	0.00e+00	0	54	0	1011875840	48	3818
2026-01-03 04:21:14.02	19.64	19.71	-42.5	-43.2	19.5	0.00e+00	0	54	0	1017118720	48	3752
2026-01-03 04:21:15.01	19.53	19.82	-42.4	-43.1	19.6	0.00e+00	0	54	0	1023410176	48	3724
2026-01-03 04:21:16.00	19.41	19.94	-42.5	-43.2	19.5	0.00e+00	0	54	0	1028653056	48	3746
2026-01-03 04:21:17.00	19.29	20.05	-42.4	-43.1	19.6	0.00e+00	0	54	0	1034944512	48	3705
2026-01-03 04:21:17.99	19.17	20.17	-42.4	-43.1	19.6	0.00e+00	0	54	0	1040187392	48	3711
2026-01-03 04:21:18.97	19.06	20.28	-42.6	-43.3	19.4	0.00e+00	0	54	0	1045430272	48	3789
2026-01-03 04:21:19.97	18.94	20.40	-42.4	-43.1	19.6	0.00e+00	0	54	0	1050673152	48	3711
2026-01-03 04:21:20.96	18.82	20.51	-42.4	-43.1	19.6	0.00e+00	0	54	0	1056964608	48	3718
2026-01-03 04:21:21.94	18.70	20.63	-42.5	-43.1	19.6	0.00e+00	0	54	0	1062207488	48	3727
2026-01-03 04:21:22.94	18.57	20.74	-42.6	-43.3	19.4	0.00e+00	0	54	0	1067450368	48	3810
2026-01-03 04:21:23.92	18.45	20.86	-42.5	-43.2	19.5	0.00e+00	0	54	0	1073741824	48	3753
2026-01-03 04:21:24.91	18.33	20.98	-42.6	-43.3	19.4	0.00e+00	0	54	0	1078984704	48	3811
2026-01-03 04:21:25.90	18.20	21.09	-42.9	-43.6	19.1	0.00e+00	0	54	0	1084227584	48	3951
2026-01-03 04:21:26.89	18.07	21.21	-43.0	-43.7	19.0	0.00e+00	0	54	0	1090519040	48	3995
2026-01-03 04:21:27.88	17.95	21.33	-42.9	-43.6	19.1	0.00e+00	0	54	0	1095761920	48	3951
2026-01-03 04:21:28.87	17.82	21.45	-42.9	-43.6	19.2	0.00e+00	0	54	0	1101004800	48	3920
2026-01-03 04:21:29.86	17.69	21.57	-42.8	-43.5	19.3	0.00e+00	0	54	0	1106247680	48	3877
2026-01-03 04:21:30.84	17.56	21.68	-42.8	-43.5	19.2	0.00e+00	0	54	0	1112539136	48	3910
2026-01-03 04:21:31.83	17.43	21.80	-43.0	-43.7	19.0	0.00e+00	0	54	0	1117782016	48	3999
2026-01-03 04:21:32.83	17.30	21.92	-42.9	-43.7	19.1	0.00e+00	0	55	0	1124073472	48	3959
2026-01-03 04:21:33.81	17.16	22.04	-42.8	-43.5	19.2	0.00e+00	0	54	0	1129316352	48	3909
2026-01-03 04:21:34.80	17.03	22.16	-42.8	-43.5	19.3	0.00e+00	0	54	0	1134559232	48	3871
2026-01-03 04:21:35.79	16.89	22.29	-42.8	-43.5	19.3	0.00e+00	0	54	0	1139802112	48	3872
2026-01-03 04:21:36.78	16.76	22.41	-42.9	-43.7	19.1	0.00e+00	0	55	0	1146093568	48	3959
2026-01-03 04:21:37.77	16.62	22.53	-43.1	-43.8	18.9	0.00e+00	0	54	0	1151336448	48	4043
2026-01-03 04:21:38.76	16.48	22.65	-43.0	-43.7	19.0	0.00e+00	0	54	0	1156579328	48	3988
2026-01-03 04:21:39.74	16.34	22.77	-42.8	-43.5	19.2	0.00e+00	0	54	0	1162870784	48	3904
2026-01-03 04:21:40.73	16.20	22.90	-42.6	-43.3	19.5	0.00e+00	0	54	0	1168113664	48	3795
2026-01-03 04:21:41.73	16.06	23.02	-42.5	-43.1	19.6	0.00e+00	0	54	0	1173356544	48	3731
2026-01-03 04:21:42.71	15.92	23.14	-42.4	-43.1	19.6	0.00e+00	0	55	0	1178599424	48	3708
2026-01-03 04:21:43.70	15.77	23.27	-42.2	-42.8	19.7	0.00e+00	0	55	0	1184890880	47	3823
2026-01-03 04:21:44.69	15.63	23.39	-42.0	-42.7	19.9	0.00e+00	0	55	0	1190133760	47	3755
2026-01-03 04:21:45.68	15.48	23.52	-42.1	-42.8	19.8	0.00e+00	0	55	0	1195376640	47	3793
2026-01-03 04:21:46.67	15.33	23.65	-42.0	-42.6	19.9	0.00e+00	0	55	0	1201668096	47	3735
2026-01-03 04:21:47.66	15.18	23.77	-41.8	-42.4	20.1	0.00e+00	0	55	0	1206910976	46	3863
2026-01-03 04:21:48.65	15.03	23.90	-41.9	-42.5	20.0	0.00e+00	0	55	0	1212153856	46	3885
2026-01-03 04:21:49.64	14.88	24.02	-41.8	-42.5	20.1	0.00e+00	0	55	0	1218445312	46	3873
2026-01-03 04:21:50.62	14.73	24.15	-41.8	-42.5	20.1	0.00e+00	0	55	0	1223688192	46	3870
2026-01-03 04:21:51.61	14.58	24.28	-41.8	-42.4	20.0	0.00e+00	0	55	0	1228931072	46	3868
2026-01-03 04:21:52.61	14.42	24.41	-42.1	-42.8	19.7	0.00e+00	0	55	0	1234173952	46	4013
2026-01-03 04:21:53.59	14.26	24.53	-42.2	-42.9	19.6	0.00e+00	0	55	0	1240465408	46	4090
2026-01-03 04:21:54.58	14.10	24.66	-42.1	-42.8	19.7	0.00e+00	0	55	0	1245708288	46	4010
2026-01-03 04:21:55.56	13.95	24.79	-42.0	-42.7	19.8	0.00e+00	0	55	0	1250951168	46	3973
2026-01-03 04:21:56.56	13.78	24.92	-41.9	-42.5	19.9	0.00e+00	0	55	0	1257242624	46	3910
2026-01-03 04:21:57.54	13.62	25.05	-41.8	-42.5	19.9	0.00e+00	0	55	0	1262485504	46	3881
2026-01-03 04:21:58.54	13.46	25.18	-41.5	-42.2	20.1	0.00e+00	0	55	0	1267728384	46	3742
2026-01-03 04:21:59.52	13.30	25.31	-41.4	-42.1	20.1	0.00e+00	0	55	0	1274019840	45	3919
2026-01-03 04:22:00.50	13.13	25.44	-41.6	-42.3	19.8	0.00e+00	0	55	0	1279262720	45	4015
2026-01-03 04:22:01.50	12.96	25.57	-41.8	-42.5	19.5	0.00e+00	0	55	0	1284505600	45	4125
2026-01-03 04:22:02.49	12.79	25.71	-42.2	-42.9	18.9	0.00e+00	0	55	0	1290797056	46	4092
2026-01-03 04:22:03.47	12.62	25.84	-42.7	-43.5	18.3	0.00e+00	0	55	0	1296039936	47	4099
2026-01-03 04:22:04.46	12.45	25.97	-43.3	-44.2	17.7	0.00e+00	0	55	0	1301282816	48	4204
2026-01-03 04:22:05.44	12.28	26.10	-44.0	-45.0	16.8	0.00e+00	0	55	0	1306525696	49	4362
2026-01-03 04:22:06.43	12.10	26.23	-45.1	-46.3	15.5	0.00e+00	0	55	0	1312817152	51	4496
2026-01-03 04:22:07.42	11.93	26.37	-45.7	-47.1	14.4	1.10e-06	0	55	0	1318060032	53	4428
2026-01-03 04:22:08.41	11.75	26.50	-46.3	-47.9	13.6	5.70e-06	0	55	0	1323302912	54	4547
2026-01-03 04:22:09.40	11.57	26.64	-46.6	-48.3	13.2	3.43e-05	0	55	0	1329594368	55	4498
2026-01-03 04:22:10.38	11.39	26.77	-46.2	-47.7	13.8	2.05e-05	0	55	0	1334837248	55	4240
2026-01-03 04:22:11.36	11.21	26.90	-45.8	-47.2	14.4	4.50e-06	0	55	0	1340080128	54	4216
2026-01-03 04:22:12.36	11.02	27.04	-45.3	-46.5	15.1	0.00e+00	0	55	0	1345323008	53	4142
2026-01-03 04:22:13.36	10.84	27.18	-44.8	-46.0	15.7	0.00e+00	0	55	0	1351614464	52	4100
2026-01-03 04:22:14.34	10.65	27.31	-44.5	-45.6	16.1	0.00e+00	0	55	0	1356857344	52	3925
2026-01-03 04:22:15.33	10.46	27.45	-44.6	-45.6	16.2	0.00e+00	0	55	0	1363148800	52	3939
2026-01-03 04:22:16.33	10.27	27.59	-44.5	-45.4	16.5	0.00e+00	0	55	0	1368391680	51	4095
2026-01-03 04:22:17.31	10.08	27.72	-43.6	-44.4	17.8	0.00e+00	0	55	0	1373634560	50	3848
2026-01-03 04:22:18.30	9.88	27.86	-42.9	-43.7	18.5	0.00e+00	0	55	0	1378877440	49	3766
2026-01-03 04:22:19.29	9.69	28.00	-42.6	-43.4	19.0	0.00e+00	0	55	0	1385168896	48	3844
2026-01-03 04:22:20.28	9.49	28.14	-42.8	-43.5	19.0	0.00e+00	0	55	0	1390411776	48	3898
2026-01-03 04:22:21.27	9.29	28.27	-42.7	-43.4	19.1	0.00e+00	0	55	0	1395654656	48	3859
2026-01-03 04:22:22.26	9.09	28.41	-42.5	-43.2	19.5	0.00e+00	0	55	0	1401946112	48	3742
2026-01-03 04:22:23.25	8.89	28.55	-42.4	-43.1	19.6	0.00e+00	0	55	0	1407188992	48	3710
2026-01-03 04:22:24.24	8.68	28.69	-42.2	-42.9	19.6	0.00e+00	0	55	0	1412431872	47	3847
2026-01-03 04:22:25.23	8.48	28.83	-41.8	-42.4	20.1	0.00e+00	0	55	0	1418723328	46	3845
2026-01-03 04:22:26.22	8.27	28.97	-41.6	-42.2	20.3	0.00e+00	0	55	0	1423966208	46	3756
2026-01-03 04:22:27.20	8.06	29.11	-41.6	-42.3	20.3	0.00e+00	0	55	0	1429209088	46	3784
2026-01-03 04:22:28.19	7.85	29.25	-41.5	-42.2	20.4	0.00e+00	0	55	0	1434451968	46	3743
2026-01-03 04:22:29.18	7.63	29.39	-41.8	-42.4	20.2	0.00e+00	0	55	0	1440743424	46	3848
2026-01-03 04:22:30.17	7.42	29.53	-41.7	-42.3	20.3	0.00e+00	0	55	0	1445986304	46	3810
2026-01-03 04:22:31.16	7.20	29.67	-41.5	-42.1	20.5	0.00e+00	0	55	0	1451229184	46	3717
2026-01-03 04:22:32.15	6.98	29.81	-41.4	-42.0	20.6	0.00e+00	0	55	0	1457520640	45	3882
2026-01-03 04:22:33.14	6.76	29.96	-41.4	-42.0	20.6	0.00e+00	0	55	0	1462763520	45	3890
2026-01-03 04:22:34.13	6.54	30.10	-41.1	-41.7	20.9	0.00e+00	0	55	0	1468006400	45	3745
2026-01-03 04:22:35.12	6.31	30.24	-41.1	-41.7	20.9	0.00e+00	0	55	0	1473249280	45	3759
2026-01-03 04:22:36.11	6.08	30.38	-41.3	-41.9	20.7	0.00e+00	0	55	0	1479540736	45	3846
2026-01-03 04:22:37.09	5.85	30.52	-41.3	-41.9	20.6	0.00e+00	0	55	0	1484783616	45	3857
2026-01-03 04:22:38.08	5.62	30.66	-41.2	-41.8	20.8	0.00e+00	0	55	0	1491075072	45	3789
2026-01-03 04:22:39.07	5.39	30.81	-41.2	-41.8	20.8	0.00e+00	0	55	0	1496317952	45	3787
2026-01-03 04:22:40.05	5.16	30.95	-41.3	-41.9	20.7	0.00e+00	0	55	0	1501560832	45	3850
2026-01-03 04:22:41.05	4.92	31.09	-41.3	-41.9	20.7	0.00e+00	0	55	0	1506803712	45	3841
2026-01-03 04:22:42.03	4.68	31.23	-41.3	-41.9	20.7	0.00e+00	0	55	0	1513095168	45	3847
2026-01-03 04:22:43.02	4.44	31.38	-41.4	-42.0	20.6	0.00e+00	0	55	0	1518338048	45	3882
2026-01-03 04:22:44.01	4.19	31.52	-41.3	-41.9	20.7	0.00e+00	0	55	0	1523580928	45	3850
2026-01-03 04:22:45.01	3.94	31.67	-41.4	-42.0	20.6	0.00e+00	0	56	0	1529872384	45	3899
2026-01-03 04:22:45.99	3.70	31.81	-41.6	-42.3	20.3	0.00e+00	0	55	0	1535115264	45	4009
2026-01-03 04:22:46.98	3.44	31.95	-41.4	-42.0	20.6	0.00e+00	0	55	0	1540358144	45	3891
2026-01-03 04:22:47.98	3.19	32.10	-41.3	-41.9	20.7	0.00e+00	0	55	0	1546649600	45	3827
2026-01-03 04:22:48.97	2.93	32.24	-41.2	-41.8	20.8	0.00e+00	0	56	0	1551892480	45	3789
2026-01-03 04:22:49.96	2.67	32.38	-41.5	-42.1	20.5	0.00e+00	0	56	0	1557135360	45	3929
2026-01-03 04:22:50.94	2.42	32.53	-41.1	-41.7	20.9	0.00e+00	0	55	0	1563426816	45	3741
2026-01-03 04:22:51.93	2.15	32.67	-40.8	-41.4	21.2	0.00e+00	0	56	0	1568669696	44	3840
2026-01-03 04:22:52.92	1.89	32.81	-40.8	-41.3	21.2	0.00e+00	0	56	0	1573912576	44	3814
2026-01-03 04:22:53.91	1.62	32.96	-40.9	-41.4	21.2	0.00e+00	0	55	0	1579155456	44	3857
2026-01-03 04:22:54.90	1.35	33.10	-40.9	-41.5	21.1	0.00e+00	0	55	0	1585446912	44	3890
2026-01-03 04:22:55.89	1.08	33.24	-41.0	-41.6	21.0	0.00e+00	0	55	0	1590689792	44	3940
2026-01-03 04:22:56.88	0.81	33.39	-41.3	-41.9	20.7	0.00e+00	0	55	0	1595932672	44	4087
2026-01-03 04:22:57.87	0.53	33.53	-41.3	-41.9	20.7	0.00e+00	0	56	0	1602224128	44	4056
2026-01-03 04:22:58.86	0.25	33.67	-41.1	-41.7	20.9	0.00e+00	0	56	0	1607467008	44	3997
2026-01-03 04:22:59.85	359.97	33.82	-41.1	-41.6	20.9	0.00e+00	0	55	0	1612709888	44	3954
2026-01-03 04:23:00.84	359.68	33.96	-41.0	-41.6	21.0	0.00e+00	0	55	0	1619001344	44	3938
2026-01-03 04:23:01.83	359.39	34.10	-40.8	-41.4	21.2	0.00e+00	0	56	0	1624244224	44	3849
2026-01-03 04:23:02.82	359.10	34.25	-40.8	-41.4	21.2	0.00e+00	0	56	0	1629487104	44	3830
2026-01-03 04:23:03.81	358.81	34.39	-41.0	-41.6	21.1	0.00e+00	0	55	0	1634729984	44	3915
2026-01-03 04:23:04.80	358.52	34.53	-41.3	-41.9	20.7	0.00e+00	0	56	0	1641021440	44	4076
2026-01-03 04:23:05.79	358.22	34.67	-41.1	-41.7	21.0	0.00e+00	0	56	0	1646264320	44	3961
2026-01-03 04:23:06.77	357.92	34.81	-40.8	-41.4	21.2	0.00e+00	0	55	0	1651507200	44	3847
2026-01-03 04:23:07.76	357.62	34.96	-40.7	-41.3	21.3	0.00e+00	0	55	0	1657798656	44	3790
2026-01-03 04:23:08.75	357.31	35.10	-40.8	-41.3	21.3	0.00e+00	0	56	0	1663041536	44	3815
2026-01-03 04:23:09.74	357.01	35.24	-40.7	-41.2	21.3	0.00e+00	0	56	0	1668284416	44	3779
2026-01-03 04:23:10.73	356.70	35.38	-40.6	-41.2	21.4	0.00e+00	0	56	0	1674575872	44	3739
2026-01-03 04:23:11.72	356.38	35.52	-40.7	-41.2	21.4	0.00e+00	0	56	0	1679818752	44	3766
2026-01-03 04:23:12.71	356.07	35.66	-40.8	-41.4	21.2	0.00e+00	0	56	0	1685061632	44	3826
2026-01-03 04:23:13.70	355.75	35.80	-40.9	-41.5	21.1	0.00e+00	0	56	0	1691353088	44	3880
2026-01-03 04:23:14.69	355.43	35.94	-40.9	-41.5	21.2	0.00e+00	0	56	0	1696595968	44	3869
2026-01-03 04:23:15.68	355.10	36.08	-40.8	-41.4	21.2	0.00e+00	0	56	0	1701838848	44	3848
2026-01-03 04:23:16.66	354.78	36.21	-40.9	-41.4	21.1	0.00e+00	0	56	0	1707081728	44	3858
2026-01-03 04:23:17.65	354.45	36.35	-41.0	-41.6	21.0	0.00e+00	0	56	0	1713373184	44	3947
2026-01-03 04:23:18.63	354.12	36.49	-41.1	-41.7	20.9	0.00e+00	0	56	0	1718616064	44	3983
2026-01-03 04:23:19.63	353.78	36.63	-41.2	-41.8	20.8	0.00e+00	0	56	0	1723858944	44	4039
2026-01-03 04:23:20.62	353.44	36.76	-41.5	-42.1	20.6	0.00e+00	0	55	0	1730150400	44	4153
2026-01-03 04:23:21.60	353.10	36.90	-41.4	-42.0	20.7	0.00e+00	0	56	0	1735393280	45	3870
2026-01-03 04:23:22.60	352.75	37.03	-41.3	-41.9	20.7	0.00e+00	0	56	0	1740636160	45	3857
2026-01-03 04:23:23.59	352.41	37.17	-41.2	-41.8	20.8	0.00e+00	0	56	0	1746927616	45	3791
2026-01-03 04:23:24.58	352.06	37.30	-40.9	-41.4	21.1	0.00e+00	0	56	0	1752170496	45	3652
2026-01-03 04:23:25.57	351.70	37.43	-40.9	-41.5	21.1	0.00e+00	0	56	0	1757413376	44	3882
2026-01-03 04:23:26.56	351.35	37.57	-41.1	-41.7	20.9	0.00e+00	0	56	0	1762656256	44	3974
2026-01-03 04:23:27.54	350.99	37.70	-41.2	-41.8	20.8	0.00e+00	0	56	0	1768947712	44	4044
2026-01-03 04:23:28.53	350.63	37.83	-41.2	-41.8	20.8	0.00e+00	0	56	0	1774190592	44	4020
2026-01-03 04:23:29.53	350.26	37.96	-41.0	-41.6	21.0	0.00e+00	0	56	0	1780482048	44	3945
2026-01-03 04:23:30.51	349.90	38.09	-40.9	-41.5	21.1	0.00e+00	0	56	0	1785724928	44	3887
2026-01-03 04:23:31.50	349.53	38.21	-40.9	-41.5	21.1	0.00e+00	0	56	0	1790967808	44	3899
2026-01-03 04:23:32.49	349.15	38.34	-41.0	-41.5	21.1	0.00e+00	0	56	0	1796210688	44	3913
2026-01-03 04:23:33.48	348.78	38.47	-41.3	-41.9	20.8	0.00e+00	0	56	0	1802502144	44	4052
2026-01-03 04:23:34.47	348.40	38.59	-41.5	-42.1	20.6	0.00e+00	0	56	0	1807745024	44	4164
2026-01-03 04:23:35.45	348.02	38.72	-41.4	-42.0	20.7	0.00e+00	0	56	0	1812987904	44	4106
2026-01-03 04:23:36.44	347.63	38.84	-41.2	-41.8	20.8	0.00e+00	0	56	0	1819279360	44	4026
2026-01-03 04:23:37.43	347.24	38.96	-41.1	-41.6	21.0	0.00e+00	0	56	0	1824522240	44	3955
2026-01-03 04:23:38.42	346.85	39.08	-41.0	-41.6	21.0	0.00e+00	0	56	0	1829765120	44	3937
2026-01-03 04:23:39.41	346.46	39.20	-41.0	-41.6	21.1	0.00e+00	0	56	0	1835008000	44	3930
2026-01-03 04:23:40.40	346.06	39.32	-41.1	-41.7	21.0	0.00e+00	0	56	0	1841299456	44	3979
2026-01-03 04:23:41.39	345.66	39.44	-41.3	-41.9	20.8	0.00e+00	0	56	0	1846542336	44	4069
2026-01-03 04:23:42.38	345.26	39.56	-41.4	-42.0	20.6	0.00e+00	0	56	0	1852833792	45	3909
2026-01-03 04:23:43.38	344.85	39.67	-41.0	-41.6	21.0	0.00e+00	0	56	0	1858076672	45	3722
2026-01-03 04:23:44.37	344.44	39.79	-40.9	-41.5	21.2	0.00e+00	0	56	0	1863319552	45	3659
2026-01-03 04:23:45.35	344.03	39.90	-41.0	-41.6	21.0	0.00e+00	0	56	0	1868562432	45	3704
2026-01-03 04:23:46.34	343.62	40.01	-41.1	-41.7	20.9	0.00e+00	0	56	0	1874853888	45	3776
2026-01-03 04:23:47.33	343.20	40.12	-41.2	-41.7	20.9	0.00e+00	0	56	0	1880096768	45	3773
2026-01-03 04:23:48.31	342.78	40.23	-40.9	-41.5	21.1	0.00e+00	0	56	0	1885339648	44	3879
2026-01-03 04:23:49.30	342.36	40.34	-40.7	-41.3	21.4	0.00e+00	0	56	0	1891631104	44	3782
2026-01-03 04:23:50.29	341.94	40.44	-40.7	-41.3	21.3	0.00e+00	0	56	0	1896873984	44	3794
2026-01-03 04:23:51.27	341.51	40.54	-40.8	-41.3	21.3	0.00e+00	0	56	0	1902116864	44	3816
2026-01-03 04:23:52.26	341.08	40.65	-40.9	-41.4	21.2	0.00e+00	0	56	0	1907359744	44	3861
2026-01-03 04:23:53.25	340.65	40.75	-40.9	-41.5	21.1	0.00e+00	0	56	0	1913651200	44	3891
2026-01-03 04:23:54.25	340.20	40.85	-40.9	-41.5	21.2	0.00e+00	0	56	0	1918894080	44	3871
2026-01-03 04:23:55.24	339.77	40.95	-41.2	-41.8	20.9	0.00e+00	0	56	0	1924136960	44	4012
2026-01-03 04:23:56.23	339.32	41.04	-41.3	-41.9	20.7	0.00e+00	0	56	0	1930428416	44	4098
2026-01-03 04:23:57.21	338.88	41.14	-41.0	-41.5	21.1	0.00e+00	0	56	0	1935671296	44	3901
2026-01-03 04:23:58.20	338.43	41.23	-40.6	-41.2	21.4	0.00e+00	0	56	0	1940914176	44	3752
2026-01-03 04:23:59.19	337.98	41.32	-40.5	-41.0	21.6	0.00e+00	0	56	0	1947205632	44	3678
2026-01-03 04:24:00.19	337.53	41.41	-40.4	-41.0	21.6	0.00e+00	0	56	0	1952448512	44	3665
2026-01-03 04:24:01.18	337.07	41.50	-40.5	-41.1	21.5	0.00e+00	0	56	0	1957691392	44	3713
2026-01-03 04:24:02.17	336.61	41.59	-40.8	-41.4	21.3	0.00e+00	0	56	0	1962934272	44	3841
2026-01-03 04:24:03.16	336.15	41.67	-40.8	-41.3	21.3	0.00e+00	0	56	0	1969225728	44	3815
2026-01-03 04:24:04.15	335.69	41.75	-40.8	-41.3	21.3	0.00e+00	0	56	0	1974468608	44	3814
2026-01-03 04:24:05.15	335.22	41.83	-40.9	-41.5	21.2	0.00e+00	0	56	0	1980760064	44	3882
2026-01-03 04:24:06.14	334.76	41.91	-40.8	-41.3	21.3	0.00e+00	0	56	0	1986002944	44	3807
2026-01-03 04:24:07.12	334.29	41.98	-40.7	-41.2	21.4	0.00e+00	0	56	0	1991245824	44	3769
2026-01-03 04:24:08.12	333.81	42.06	-40.7	-41.3	21.4	0.00e+00	0	56	0	1996488704	44	3785
2026-01-03 04:24:09.10	333.35	42.13	-40.6	-41.1	21.5	0.00e+00	0	56	0	2002780160	44	3722
2026-01-03 04:24:10.09	332.87	42.20	-40.6	-41.1	21.5	0.00e+00	0	56	0	2008023040	44	3729
2026-01-03 04:24:11.08	332.39	42.27	-40.5	-41.0	21.6	0.00e+00	0	56	0	2013265920	44	3669
2026-01-03 04:24:12.07	331.91	42.33	-40.5	-41.1	21.6	0.00e+00	0	56	0	2019557376	44	3700
2026-01-03 04:24:13.06	331.43	42.40	-40.7	-41.3	21.3	0.00e+00	0	56	0	2024800256	44	3802
2026-01-03 04:24:14.05	330.95	42.46	-40.9	-41.5	21.2	0.00e+00	0	56	0	2030043136	44	3876
2026-01-03 04:24:15.04	330.46	42.52	-40.8	-41.4	21.3	0.00e+00	0	56	0	2036334592	44	3830
2026-01-03 04:24:16.03	329.97	42.57	-40.7	-41.3	21.4	0.00e+00	0	56	0	2041577472	44	3789
2026-01-03 04:24:17.03	329.48	42.63	-40.6	-41.1	21.5	0.00e+00	0	56	0	2046820352	44	3729
2026-01-03 04:24:18.02	328.99	42.68	-40.9	-41.4	21.2	0.00e+00	0	56	0	2053111808	44	3850
2026-01-03 04:24:19.01	328.50	42.73	-41.4	-42.0	20.7	0.00e+00	0	56	0	2058354688	44	4124
2026-01-03 04:24:20.00	328.00	42.78	-41.3	-41.9	20.8	0.00e+00	0	56	0	2063597568	44	4077
2026-01-03 04:24:20.99	327.51	42.82	-41.0	-41.6	21.0	0.00e+00	0	56	0	2069889024	44	3938
2026-01-03 04:24:21.97	327.02	42.87	-41.0	-41.5	21.1	0.00e+00	0	56	0	2075131904	44	3901
2026-01-03 04:24:22.95	326.52	42.91	-41.0	-41.5	21.1	0.00e+00	0	56	0	2080374784	44	3902
2026-01-03 04:24:23.95	326.02	42.94	-41.1	-41.6	21.0	0.00e+00	0	56	0	2085617664	44	3955
2026-01-03 04:24:24.94	325.52	42.98	-41.2	-41.8	20.9	0.00e+00	0	56	0	2091909120	44	4013
2026-01-03 04:24:25.93	325.02	43.01	-40.8	-41.4	21.3	0.00e+00	0	56	0	2097152000	44	3827
2026-01-03 04:24:26.92	324.52	43.04	-40.7	-41.2	21.4	0.00e+00	0	56	0	2102394880	44	3769
2026-01-03 04:24:27.91	324.01	43.07	-40.9	-41.5	21.1	0.00e+00	0	56	0	2108686336	44	3891
2026-01-03 04:24:28.88	323.52	43.10	-40.6	-41.1	21.5	0.00e+00	0	56	0	2113929216	44	3735
2026-01-03 04:24:29.87	323.01	43.12	-40.4	-40.9	21.6	0.00e+00	0	56	0	2119172096	44	3644
2026-01-03 04:24:30.85	322.51	43.14	-40.5	-41.1	21.5	0.00e+00	0	56	0	2124414976	44	3701
2026-01-03 04:24:31.84	322.01	43.16	-40.6	-41.1	21.5	0.00e+00	0	56	0	2130706432	44	3726
2026-01-03 04:24:32.83	321.50	43.18	-40.6	-41.1	21.5	0.00e+00	0	56	0	2135949312	44	3725
2026-01-03 04:24:33.82	320.99	43.19	-40.6	-41.1	21.5	0.00e+00	0	56	0	2141192192	44	3721
2026-01-03 04:24:34.81	320.49	43.20	-40.7	-41.2	21.4	0.00e+00	0	56	0	2147483648	44	3762
2026-01-03 04:24:35.79	319.98	43.21	-40.7	-41.3	21.4	0.00e+00	0	56	0	2152726528	44	3802
2026-01-03 04:24:36.78	319.48	43.21	-40.9	-41.5	21.2	0.00e+00	0	56	0	2157969408	44	3869
2026-01-03 04:24:37.76	318.97	43.22	-40.7	-41.2	21.4	0.00e+00	0	56	0	2163212288	44	3775
2026-01-03 04:24:38.75	318.46	43.22	-40.5	-41.1	21.5	0.00e+00	0	56	0	2169503744	44	3702
2026-01-03 04:24:39.74	317.96	43.22	-40.7	-41.3	21.4	0.00e+00	0	56	0	2174746624	44	3790
2026-01-03 04:24:40.73	317.45	43.21	-40.5	-41.0	21.6	0.00e+00	0	56	0	2181038080	44	3691
2026-01-03 04:24:41.72	316.94	43.20	-40.1	-40.6	21.9	0.00e+00	0	56	0	2186280960	43	3720
2026-01-03 04:24:42.71	316.43	43.20	-39.9	-40.4	22.1	0.00e+00	0	56	0	2191523840	43	3622
2026-01-03 04:24:43.70	315.92	43.18	-40.0	-40.6	21.9	0.00e+00	0	56	0	2196766720	42	3919
2026-01-03 04:24:44.69	315.42	43.17	-40.1	-40.7	21.8	0.00e+00	0	56	0	2203058176	42	3972
2026-01-03 04:24:45.69	314.90	43.15	-40.1	-40.6	21.9	0.00e+00	0	56	0	2208301056	42	3958
2026-01-03 04:24:46.68	314.40	43.13	-40.3	-40.9	21.6	0.00e+00	0	56	0	2213543936	42	4063
2026-01-03 04:24:47.66	313.90	43.11	-40.6	-41.2	21.3	0.00e+00	0	56	0	2219835392	43	3971
2026-01-03 04:24:48.65	313.39	43.09	-40.6	-41.2	21.4	0.00e+00	0	56	0	2225078272	43	3973
2026-01-03 04:24:49.64	312.89	43.06	-40.4	-41.0	21.6	0.00e+00	0	56	0	2230321152	43	3874
2026-01-03 04:24:50.64	312.38	43.03	-40.5	-41.0	21.5	0.00e+00	0	56	0	2236612608	43	3910
2026-01-03 04:24:51.63	311.88	43.00	-40.4	-41.0	21.5	0.00e+00	0	56	0	2241855488	43	3881
2026-01-03 04:24:52.63	311.37	42.96	-40.6	-41.2	21.4	0.00e+00	0	56	0	2247098368	43	3966
2026-01-03 04:24:53.62	310.87	42.93	-40.4	-40.9	21.6	0.00e+00	0	56	0	2252341248	43	3860
2026-01-03 04:24:54.60	310.38	42.89	-40.3	-40.8	21.7	0.00e+00	0	56	0	2258632704	43	3793
2026-01-03 04:24:55.59	309.88	42.85	-40.4	-40.9	21.6	0.00e+00	0	56	0	2263875584	43	3865
2026-01-03 04:24:56.57	309.39	42.80	-40.4	-41.0	21.5	0.00e+00	0	56	0	2270167040	43	3887
2026-01-03 04:24:57.57	308.89	42.76	-40.3	-40.8	21.7	0.00e+00	0	56	0	2275409920	43	3811
2026-01-03 04:24:58.56	308.40	42.71	-40.1	-40.6	21.8	0.00e+00	0	56	0	2280652800	43	3722
2026-01-03 04:24:59.54	307.91	42.66	-40.1	-40.6	21.9	0.00e+00	0	56	0	2285895680	43	3720
2026-01-03 04:25:00.53	307.42	42.60	-40.2	-40.8	21.8	0.00e+00	0	56	0	2292187136	43	3794
2026-01-03 04:25:01.52	306.93	42.55	-40.4	-41.0	21.6	0.00e+00	0	56	0	2297430016	43	3875
2026-01-03 04:25:02.51	306.45	42.49	-40.3	-40.8	21.7	0.00e+00	0	56	0	2302672896	43	3819
2026-01-03 04:25:03.51	305.96	42.43	-40.3	-40.8	21.7	0.00e+00	0	56	0	2308964352	43	3809
2026-01-03 04:25:04.49	305.48	42.37	-40.2	-40.7	21.8	0.00e+00	0	56	0	2314207232	43	3750
2026-01-03 04:25:05.47	305.00	42.30	-40.1	-40.6	21.9	0.00e+00	0	56	0	2319450112	43	3718
2026-01-03 04:25:06.47	304.52	42.24	-40.2	-40.8	21.8	0.00e+00	0	56	0	2324692992	43	3791
2026-01-03 04:25:07.45	304.04	42.17	-40.4	-40.9	21.6	0.00e+00	0	56	0	2330984448	43	3847
2026-01-03 04:25:08.44	303.57	42.10	-40.4	-41.0	21.6	0.00e+00	0	56	0	2336227328	43	3870
2026-01-03 04:25:09.44	303.09	42.02	-40.4	-40.9	21.6	0.00e+00	0	56	0	2341470208	43	3862
2026-01-03 04:25:10.43	302.62	41.95	-40.6	-41.1	21.4	0.00e+00	0	56	0	2347761664	43	3953
2026-01-03 04:25:11.43	302.15	41.87	-40.6	-41.2	21.3	0.00e+00	0	56	0	2353004544	43	3970
2026-01-03 04:25:12.42	301.68	41.79	-40.6	-41.1	21.4	0.00e+00	0	56	0	2358247424	43	3949
2026-01-03 04:25:13.40	301.22	41.71	-40.4	-40.9	21.6	0.00e+00	0	56	0	2364538880	43	3848
2026-01-03 04:25:14.39	300.76	41.63	-40.4	-40.9	21.6	0.00e+00	0	56	0	2369781760	43	3857
2026-01-03 04:25:15.37	300.30	41.55	-40.4	-41.0	21.5	0.00e+00	0	56	0	2375024640	43	3873
2026-01-03 04:25:16.37	299.84	41.46	-40.6	-41.1	21.4	0.00e+00	0	56	0	2381316096	43	3951
2026-01-03 04:25:17.35	299.39	41.37	-40.6	-41.2	21.3	0.00e+00	0	56	0	2386558976	43	3982
2026-01-03 04:25:18.34	298.94	41.28	-40.5	-41.1	21.4	0.00e+00	0	56	0	2391801856	43	3931
2026-01-03 04:25:19.33	298.49	41.19	-40.6	-41.2	21.3	0.00e+00	0	56	0	2398093312	43	3967
2026-01-03 04:25:20.32	298.04	41.09	-40.3	-40.8	21.7	0.00e+00	0	56	0	2403336192	43	3818
2026-01-03 04:25:21.30	297.60	41.00	-40.1	-40.7	21.8	0.00e+00	0	56	0	2408579072	43	3741
2026-01-03 04:25:22.29	297.16	40.90	-40.2	-40.7	21.8	0.00e+00	0	56	0	2413821952	43	3765
2026-01-03 04:25:23.28	296.72	40.80	-40.4	-40.9	21.6	0.00e+00	0	56	0	2420113408	43	3851
2026-01-03 04:25:24.27	296.29	40.70	-40.4	-40.9	21.5	0.00e+00	0	56	0	2425356288	43	3860
2026-01-03 04:25:25.26	295.85	40.60	-40.4	-40.9	21.6	0.00e+00	0	56	0	2430599168	43	3866
2026-01-03 04:25:26.26	295.42	40.50	-40.5	-41.0	21.5	0.00e+00	0	56	0	2436890624	43	3911
2026-01-03 04:25:27.25	294.99	40.39	-40.7	-41.2	21.3	0.00e+00	0	56	0	2442133504	43	3987
2026-01-03 04:25:28.23	294.57	40.29	-40.7	-41.3	21.3	0.00e+00	0	56	0	2447376384	43	4007
2026-01-03 04:25:29.21	294.15	40.18	-40.3	-40.8	21.7	0.00e+00	0	56	0	2452619264	43	3812
2026-01-03 04:25:30.19	293.74	40.07	-40.1	-40.7	21.8	0.00e+00	0	56	0	2458910720	43	3744
2026-01-03 04:25:31.18	293.32	39.96	-40.2	-40.7	21.8	0.00e+00	0	56	0	2464153600	43	3769
2026-01-03 04:25:32.17	292.90	39.85	-40.2	-40.7	21.7	0.00e+00	0	56	0	2469396480	43	3776
2026-01-03 04:25:33.16	292.49	39.73	-40.1	-40.6	21.8	0.00e+00	0	56	0	2475687936	43	3736
2026-01-03 04:25:34.15	292.09	39.62	-40.3	-40.9	21.6	0.00e+00	0	56	0	2480930816	43	3833
2026-01-03 04:25:35.14	291.68	39.50	-40.7	-41.3	21.3	0.00e+00	0	56	0	2486173696	43	4012
2026-01-03 04:25:36.13	291.28	39.38	-40.5	-41.0	21.5	0.00e+00	0	56	0	2492465152	43	3898
2026-01-03 04:25:37.11	290.88	39.27	-40.2	-40.7	21.7	0.00e+00	0	56	0	2497708032	43	3773
2026-01-03 04:25:38.11	290.48	39.15	-40.2	-40.7	21.7	0.00e+00	0	56	0	2502950912	43	3763
2026-01-03 04:25:39.09	290.09	39.03	-40.5	-41.0	21.5	0.00e+00	0	56	0	2509242368	43	3904
2026-01-03 04:25:40.08	289.70	38.90	-40.6	-41.1	21.4	0.00e+00	0	56	0	2514485248	43	3949
2026-01-03 04:25:41.07	289.31	38.78	-40.7	-41.2	21.2	0.00e+00	0	56	0	2519728128	43	4000
2026-01-03 04:25:42.07	288.93	38.66	-40.4	-41.0	21.5	0.00e+00	0	56	0	2524971008	43	3883
2026-01-03 04:25:43.05	288.55	38.53	-40.4	-41.0	21.5	0.00e+00	0	56	0	2531262464	43	3882
2026-01-03 04:25:44.05	288.16	38.40	-40.6	-41.2	21.4	0.00e+00	0	56	0	2536505344	43	3959
2026-01-03 04:25:45.03	287.79	38.28	-40.8	-41.4	21.1	0.00e+00	0	56	0	2541748224	43	4065
2026-01-03 04:25:46.02	287.42	38.15	-40.6	-41.2	21.3	0.00e+00	0	56	0	2548039680	43	3974
2026-01-03 04:25:47.01	287.05	38.02	-40.6	-41.2	21.3	0.00e+00	0	57	0	2553282560	43	3971
2026-01-03 04:25:48.00	286.68	37.89	-40.9	-41.4	21.1	0.00e+00	0	56	0	2558525440	43	4092
2026-01-03 04:25:48.99	286.32	37.76	-40.6	-41.2	21.3	0.00e+00	0	56	0	2564816896	43	3964
2026-01-03 04:25:49.98	285.96	37.63	-40.5	-41.0	21.5	0.00e+00	0	56	0	2570059776	43	3911
2026-01-03 04:25:50.96	285.60	37.50	-40.5	-41.1	21.4	0.00e+00	0	56	0	2575302656	43	3930
2026-01-03 04:25:51.95	285.25	37.37	-40.6	-41.2	21.3	0.00e+00	0	57	0	2580545536	43	3961
2026-01-03 04:25:52.94	284.89	37.23	-40.5	-41.0	21.4	0.00e+00	0	56	0	2586836992	43	3906
2026-01-03 04:25:53.93	284.55	37.10	-40.4	-41.0	21.5	0.00e+00	0	56	0	2592079872	43	3883
2026-01-03 04:25:54.91	284.20	36.96	-40.5	-41.0	21.4	0.00e+00	0	57	0	2597322752	43	3911
2026-01-03 04:25:55.90	283.86	36.83	-40.7	-41.3	21.3	0.00e+00	0	56	0	2603614208	43	4005
2026-01-03 04:25:56.90	283.51	36.69	-40.6	-41.2	21.3	0.00e+00	0	56	0	2608857088	43	3967
2026-01-03 04:25:57.88	283.18	36.56	-40.7	-41.3	21.3	0.00e+00	0	56	0	2614099968	43	4005
2026-01-03 04:25:58.87	282.84	36.42	-40.8	-41.4	21.1	0.00e+00	0	56	0	2620391424	43	4071
2026-01-03 04:25:59.86	282.51	36.28	-40.8	-41.3	21.2	0.00e+00	0	56	0	2625634304	43	4039
2026-01-03 04:26:00.85	282.18	36.14	-40.8	-41.3	21.2	0.00e+00	0	56	0	2630877184	43	4036
2026-01-03 04:26:01.84	281.85	36.00	-40.8	-41.3	21.2	0.00e+00	0	56	0	2637168640	43	4049
2026-01-03 04:26:02.83	281.53	35.86	-40.9	-41.4	21.1	0.00e+00	0	56	0	2642411520	43	4086
2026-01-03 04:26:03.82	281.21	35.72	-40.6	-41.2	21.3	0.00e+00	0	56	0	2647654400	43	3977
2026-01-03 04:26:04.81	280.89	35.58	-40.4	-40.9	21.5	0.00e+00	0	56	0	2652897280	43	3860
2026-01-03 04:26:05.79	280.58	35.45	-40.3	-40.8	21.6	0.00e+00	0	56	0	2659188736	43	3808
2026-01-03 04:26:06.78	280.27	35.30	-40.3	-40.9	21.6	0.00e+00	0	56	0	2664431616	43	3838
2026-01-03 04:26:07.76	279.96	35.16	-40.2	-40.7	21.7	0.00e+00	0	56	0	2669674496	43	3770
2026-01-03 04:26:08.76	279.65	35.02	-40.2	-40.8	21.7	0.00e+00	0	56	0	2675965952	43	3787
2026-01-03 04:26:09.75	279.34	34.88	-40.0	-40.5	21.9	0.00e+00	0	56	0	2681208832	43	3686
2026-01-03 04:26:10.73	279.04	34.74	-39.9	-40.4	22.1	0.00e+00	0	56	0	2686451712	42	3826
2026-01-03 04:26:11.72	278.74	34.60	-39.9	-40.4	22.0	0.00e+00	0	56	0	2692743168	42	3862
2026-01-03 04:26:12.72	278.44	34.45	-40.0	-40.6	21.9	0.00e+00	0	56	0	2697986048	42	3920
2026-01-03 04:26:13.70	278.15	34.31	-40.2	-40.7	21.7	0.00e+00	0	57	0	2703228928	42	3997
2026-01-03 04:26:14.70	277.86	34.17	-40.4	-40.9	21.5	0.00e+00	0	56	0	2709520384	42	4091
2026-01-03 04:26:15.68	277.57	34.02	-40.4	-41.0	21.5	0.00e+00	0	56	0	2714763264	42	4102
2026-01-03 04:26:16.67	277.28	33.88	-40.5	-41.0	21.5	0.00e+00	0	57	0	2720006144	42	4124
2026-01-03 04:26:17.66	277.00	33.74	-40.6	-41.1	21.4	0.00e+00	0	56	0	2725249024	43	3952
2026-01-03 04:26:18.64	276.72	33.60	-40.7	-41.2	21.3	0.00e+00	0	57	0	2731540480	43	3990
2026-01-03 04:26:19.63	276.44	33.45	-40.7	-41.2	21.3	0.00e+00	0	56	0	2736783360	43	3996
2026-01-03 04:26:20.62	276.17	33.31	-40.8	-41.4	21.1	0.00e+00	0	56	0	2742026240	43	4061
2026-01-03 04:26:21.61	275.89	33.16	-40.7	-41.2	21.2	0.00e+00	0	57	0	2748317696	43	3992
2026-01-03 04:26:22.59	275.62	33.02	-40.4	-40.9	21.6	0.00e+00	0	56	0	2753560576	43	3849
2026-01-03 04:26:23.58	275.35	32.88	-40.3	-40.8	21.7	0.00e+00	0	56	0	2758803456	43	3792
2026-01-03 04:26:24.57	275.09	32.73	-40.3	-40.9	21.6	0.00e+00	0	57	0	2765094912	43	3829
2026-01-03 04:26:25.56	274.82	32.59	-40.4	-40.9	21.6	0.00e+00	0	57	0	2770337792	43	3848
2026-01-03 04:26:26.55	274.56	32.44	-40.5	-41.1	21.4	0.00e+00	0	57	0	2775580672	43	3923
2026-01-03 04:26:27.54	274.30	32.30	-40.5	-41.1	21.4	0.00e+00	0	57	0	2780823552	43	3937
2026-01-03 04:26:28.53	274.04	32.16	-40.6	-41.1	21.4	0.00e+00	0	56	0	2787115008	43	3944
2026-01-03 04:26:29.52	273.79	32.01	-40.5	-41.1	21.4	0.00e+00	0	56	0	2792357888	43	3935
2026-01-03 04:26:30.49	273.54	31.87	-40.4	-40.9	21.6	0.00e+00	0	57	0	2797600768	43	3846
2026-01-03 04:26:31.49	273.28	31.73	-40.3	-40.8	21.6	0.00e+00	0	57	0	2803892224	43	3821
2026-01-03 04:26:32.48	273.04	31.58	-40.4	-41.0	21.5	0.00e+00	0	57	0	2809135104	43	3873
2026-01-03 04:26:33.47	272.79	31.44	-40.4	-41.0	21.5	0.00e+00	0	56	0	2814377984	43	3883
2026-01-03 04:26:34.45	272.55	31.30	-40.5	-41.0	21.5	0.00e+00	0	56	0	2819620864	43	3886
2026-01-03 04:26:35.44	272.30	31.15	-40.6	-41.2	21.3	0.00e+00	0	57	0	2825912320	43	3962
2026-01-03 04:26:36.43	272.07	31.01	-40.7	-41.3	21.2	0.00e+00	0	56	0	2831155200	43	4024
2026-01-03 04:26:37.42	271.83	30.87	-40.8	-41.4	21.1	0.00e+00	0	57	0	2836398080	43	4067
2026-01-03 04:26:38.41	271.59	30.72	-40.7	-41.3	21.2	0.00e+00	0	57	0	2842689536	43	4035
2026-01-03 04:26:39.40	271.36	30.58	-40.7	-41.2	21.2	0.00e+00	0	57	0	2847932416	43	3995
2026-01-03 04:26:40.38	271.13	30.44	-40.5	-41.1	21.4	0.00e+00	0	56	0	2853175296	43	3932
2026-01-03 04:26:41.38	270.90	30.29	-40.5	-41.0	21.4	0.00e+00	0	56	0	2859466752	43	3901
2026-01-03 04:26:42.37	270.67	30.15	-40.6	-41.2	21.3	0.00e+00	0	57	0	2864709632	43	3964
2026-01-03 04:26:43.36	270.44	30.01	-40.8	-41.3	21.1	0.00e+00	0	56	0	2869952512	43	4034
2026-01-03 04:26:44.35	270.22	29.87	-40.7	-41.3	21.2	0.00e+00	0	57	0	2876243968	43	4037
2026-01-03 04:26:45.34	270.00	29.73	-40.9	-41.5	21.0	0.00e+00	0	56	0	2881486848	43	4115
2026-01-03 04:26:46.33	269.78	29.58	-40.8	-41.4	21.1	0.00e+00	0	57	0	2886729728	43	4067
2026-01-03 04:26:47.32	269.56	29.44	-41.0	-41.6	20.9	0.00e+00	0	56	0	2891972608	43	4158
2026-01-03 04:26:48.31	269.35	29.30	-41.3	-41.9	20.7	0.00e+00	0	57	0	2898264064	44	4070
2026-01-03 04:26:49.31	269.13	29.16	-41.3	-41.9	20.7	0.00e+00	0	57	0	2903506944	44	4061
2026-01-03 04:26:50.30	268.92	29.02	-41.4	-42.0	20.6	0.00e+00	0	57	0	2908749824	44	4136
2026-01-03 04:26:51.29	268.71	28.88	-41.3	-41.9	20.7	0.00e+00	0	57	0	2915041280	44	4083
2026-01-03 04:26:52.28	268.50	28.74	-41.4	-41.9	20.6	0.00e+00	0	56	0	2920284160	44	4095
2026-01-03 04:26:53.27	268.30	28.60	-41.2	-41.8	20.8	0.00e+00	0	56	0	2926575616	44	4006
2026-01-03 04:26:54.26	268.09	28.46	-41.2	-41.7	20.9	0.00e+00	0	57	0	2931818496	44	3996
2026-01-03 04:26:55.25	267.89	28.32	-41.1	-41.7	20.9	0.00e+00	0	56	0	2937061376	44	3986
2026-01-03 04:26:56.24	267.69	28.18	-41.2	-41.8	20.8	0.00e+00	0	57	0	2942304256	44	4007
2026-01-03 04:26:57.23	267.49	28.04	-41.1	-41.7	20.9	0.00e+00	0	57	0	2948595712	44	3985
2026-01-03 04:26:58.22	267.29	27.90	-41.2	-41.8	20.8	0.00e+00	0	57	0	2953838592	44	4034
2026-01-03 04:26:59.21	267.10	27.77	-41.3	-41.9	20.6	0.00e+00	0	57	0	2959081472	44	4088
2026-01-03 04:27:00.20	266.90	27.63	-41.3	-41.9	20.7	0.00e+00	0	57	0	2965372928	44	4081
2026-01-03 04:27:01.19	266.71	27.49	-41.5	-42.1	20.5	0.00e+00	0	57	0	2970615808	44	4185
2026-01-03 04:27:02.18	266.52	27.35	-41.8	-42.5	20.1	0.00e+00	0	57	0	2975858688	45	4101
2026-01-03 04:27:03.17	266.33	27.22	-41.6	-42.3	20.3	0.00e+00	0	57	0	2981101568	45	4016
2026-01-03 04:27:04.16	266.14	27.08	-41.6	-42.2	20.3	0.00e+00	0	57	0	2987393024	45	4000
2026-01-03 04:27:05.15	265.96	26.94	-41.6	-42.2	20.4	0.00e+00	0	57	0	2992635904	45	3992
2026-01-03 04:27:06.14	265.77	26.81	-41.8	-42.5	20.1	0.00e+00	0	57	0	2998927360	45	4101
2026-01-03 04:27:07.12	265.59	26.67	-41.4	-42.1	20.5	0.00e+00	0	57	0	3004170240	45	3914
2026-01-03 04:27:08.11	265.41	26.54	-41.2	-41.7	20.8	0.00e+00	0	57	0	3009413120	45	3774
2026-01-03 04:27:09.11	265.23	26.40	-41.1	-41.7	20.9	0.00e+00	0	57	0	3014656000	45	3740
2026-01-03 04:27:10.10	265.05	26.27	-41.2	-41.8	20.7	0.00e+00	0	57	0	3020947456	45	3805
2026-01-03 04:27:11.09	264.88	26.14	-41.6	-42.2	20.4	0.00e+00	0	57	0	3026190336	45	3967
2026-01-03 04:27:12.07	264.70	26.00	-41.7	-42.3	20.3	0.00e+00	0	57	0	3031433216	45	4028
2026-01-03 04:27:13.06	264.53	25.87	-41.7	-42.3	20.3	0.00e+00	0	57	0	3037724672	45	4027
2026-01-03 04:27:14.05	264.36	25.74	-41.7	-42.4	20.2	0.00e+00	0	57	0	3042967552	45	4053
2026-01-03 04:27:15.04	264.19	25.60	-41.9	-42.5	20.1	0.00e+00	0	57	0	3048210432	45	4137
2026-01-03 04:27:16.03	264.02	25.47	-41.7	-42.3	20.2	0.00e+00	0	57	0	3054501888	45	4049
2026-01-03 04:27:17.01	263.85	25.34	-41.9	-42.5	20.1	0.00e+00	0	57	0	3059744768	45	4115
2026-01-03 04:27:17.99	263.69	25.21	-42.2	-42.8	19.8	0.00e+00	0	57	0	3064987648	46	4040
2026-01-03 04:27:18.98	263.52	25.08	-41.9	-42.5	20.1	0.00e+00	0	57	0	3070230528	46	3889
2026-01-03 04:27:19.97	263.36	24.95	-41.6	-42.3	20.3	0.00e+00	0	57	0	3076521984	46	3782
2026-01-03 04:27:20.96	263.20	24.82	-41.5	-42.1	20.5	0.00e+00	0	57	0	3081764864	46	3720
2026-01-03 04:27:21.95	263.04	24.69	-41.4	-42.1	20.5	0.00e+00	0	57	0	3087007744	46	3701
2026-01-03 04:27:22.94	262.88	24.56	-41.4	-42.0	20.5	0.00e+00	0	57	0	3093299200	46	3688
2026-01-03 04:27:23.92	262.72	24.43	-41.5	-42.1	20.5	0.00e+00	0	57	0	3098542080	46	3715
2026-01-03 04:27:24.92	262.56	24.30	-41.8	-42.4	20.2	0.00e+00	0	57	0	3103784960	46	3832
2026-01-03 04:27:25.90	262.41	24.18	-41.5	-42.1	20.4	0.00e+00	0	57	0	3109027840	46	3724
2026-01-03 04:27:26.89	262.25	24.05	-41.3	-41.9	20.7	0.00e+00	0	57	0	3115319296	45	3852
2026-01-03 04:27:27.88	262.10	23.92	-41.3	-41.9	20.7	0.00e+00	0	57	0	3120562176	45	3836
2026-01-03 04:27:28.86	261.95	23.80	-41.3	-41.9	20.7	0.00e+00	0	57	0	3125805056	45	3852
2026-01-03 04:27:29.85	261.80	23.67	-41.5	-42.1	20.4	0.00e+00	0	57	0	3132096512	45	3941
2026-01-03 04:27:30.83	261.65	23.54	-41.4	-42.0	20.5	0.00e+00	0	57	0	3137339392	45	3909
2026-01-03 04:27:31.81	261.51	23.42	-41.5	-42.1	20.5	0.00e+00	0	57	0	3142582272	45	3927
2026-01-03 04:27:32.81	261.36	23.29	-41.8	-42.4	20.1	0.00e+00	0	57	0	3147825152	45	4084
2026-01-03 04:27:33.81	261.21	23.17	-41.7	-42.3	20.3	0.00e+00	0	57	0	3154116608	45	4021
2026-01-03 04:27:34.79	261.07	23.04	-41.5	-42.1	20.4	0.00e+00	0	57	0	3159359488	45	3926
2026-01-03 04:27:35.78	260.92	22.92	-41.5	-42.1	20.5	0.00e+00	0	57	0	3165650944	45	3918
2026-01-03 04:27:36.77	260.78	22.80	-41.4	-42.0	20.5	0.00e+00	0	57	0	3170893824	45	3905
2026-01-03 04:27:37.77	260.64	22.67	-41.7	-42.3	20.3	0.00e+00	0	57	0	3176136704	45	4015
2026-01-03 04:27:38.77	260.50	22.55	-41.6	-42.2	20.3	0.00e+00	0	57	0	3181379584	45	3977
2026-01-03 04:27:39.76	260.36	22.42	-41.4	-42.0	20.5	0.00e+00	0	57	0	3187671040	45	3905
2026-01-03 04:27:40.75	260.22	22.30	-41.4	-41.9	20.6	0.00e+00	0	57	0	3192913920	45	3865
2026-01-03 04:27:41.74	260.09	22.18	-41.4	-42.1	20.5	0.00e+00	0	57	0	3198156800	45	3914
2026-01-03 04:27:42.73	259.95	22.06	-41.6	-42.2	20.3	0.00e+00	0	57	0	3204448256	45	3998
2026-01-03 04:27:43.71	259.82	21.94	-41.7	-42.4	20.2	0.00e+00	0	57	0	3209691136	45	4055
2026-01-03 04:27:44.70	259.68	21.82	-41.8	-42.4	20.1	0.00e+00	0	57	0	3214934016	45	4087
2026-01-03 04:27:45.69	259.55	21.70	-41.9	-42.6	20.0	0.00e+00	0	57	0	3221225472	45	4162
2026-01-03 04:27:46.69	259.42	21.58	-42.2	-42.9	19.7	0.00e+00	0	57	0	3226468352	46	4053
2026-01-03 04:27:47.68	259.29	21.46	-42.2	-42.8	19.8	0.00e+00	0	57	0	3231711232	46	4036
2026-01-03 04:27:48.66	259.16	21.34	-42.0	-42.7	19.9	0.00e+00	0	57	0	3236954112	46	3964
2026-01-03 04:27:49.65	259.03	21.22	-42.0	-42.6	19.9	0.00e+00	0	57	0	3243245568	46	3946
2026-01-03 04:27:50.64	258.91	21.10	-42.0	-42.6	19.9	0.00e+00	0	57	0	3248488448	46	3958
2026-01-03 04:27:51.62	258.78	20.99	-42.0	-42.6	19.9	0.00e+00	0	56	0	3253731328	46	3945
2026-01-03 04:27:52.61	258.66	20.87	-41.9	-42.5	20.0	0.00e+00	0	57	0	3260022784	46	3901
2026-01-03 04:27:53.61	258.53	20.75	-41.9	-42.5	20.0	0.00e+00	0	57	0	3265265664	46	3906
2026-01-03 04:27:54.60	258.41	20.63	-42.0	-42.6	19.9	0.00e+00	0	57	0	3270508544	46	3957
2026-01-03 04:27:55.59	258.28	20.52	-41.9	-42.6	20.0	0.00e+00	0	57	0	3276800000	46	3915
2026-01-03 04:27:56.58	258.16	20.40	-41.9	-42.5	20.0	0.00e+00	0	57	0	3282042880	46	3890
2026-01-03 04:27:57.58	258.04	20.29	-41.8	-42.5	20.1	0.00e+00	0	57	0	3288334336	46	3873
2026-01-03 04:27:58.57	257.92	20.17	-41.9	-42.5	20.0	0.00e+00	0	57	0	3293577216	46	3904
2026-01-03 04:27:59.56	257.80	20.06	-42.1	-42.7	19.8	0.00e+00	0	57	0	3298820096	46	3989
2026-01-03 04:28:00.54	257.69	19.94	-42.1	-42.8	19.8	0.00e+00	0	57	0	3304062976	46	4009
2026-01-03 04:28:01.53	257.57	19.83	-41.9	-42.5	20.0	0.00e+00	0	57	0	3310354432	46	3902
2026-01-03 04:28:02.52	257.45	19.72	-41.9	-42.6	19.9	0.00e+00	0	57	0	3315597312	46	3928
2026-01-03 04:28:03.51	257.34	19.60	-42.2	-42.8	19.7	0.00e+00	0	57	0	3320840192	46	4035
2026-01-03 04:28:04.50	257.23	19.49	-42.4	-43.1	19.5	0.00e+00	0	57	0	3327131648	46	4150
2026-01-03 04:28:05.49	257.11	19.38	-42.4	-43.1	19.5	0.00e+00	0	57	0	3332374528	46	4147
2026-01-03 04:28:06.48	257.00	19.27	-42.5	-43.2	19.3	0.00e+00	0	57	0	3337617408	46	4230
2026-01-03 04:28:07.47	256.89	19.15	-42.6	-43.3	19.3	0.00e+00	0	57	0	3342860288	46	4250
2026-01-03 04:28:08.46	256.78	19.04	-42.7	-43.4	19.2	0.00e+00	0	57	0	3349151744	47	4081
2026-01-03 04:28:09.45	256.67	18.93	-42.7	-43.5	19.1	0.00e+00	0	57	0	3354394624	47	4105
2026-01-03 04:28:10.44	256.56	18.82	-43.0	-43.7	18.8	0.00e+00	0	57	0	3359637504	47	4231
2026-01-03 04:28:11.42	256.45	18.71	-43.2	-43.9	18.8	0.00e+00	0	57	0	3365928960	48	4087
2026-01-03 04:28:12.41	256.34	18.60	-42.9	-43.6	19.1	0.00e+00	0	57	0	3371171840	48	3924
2026-01-03 04:28:13.40	256.24	18.49	-42.7	-43.4	19.3	0.00e+00	0	57	0	3376414720	48	3826
2026-01-03 04:28:14.39	256.13	18.39	-42.6	-43.3	19.4	0.00e+00	0	57	0	3382706176	48	3818
2026-01-03 04:28:15.37	256.03	18.28	-42.6	-43.3	19.4	0.00e+00	0	57	0	3387949056	48	3804
2026-01-03 04:28:16.36	255.92	18.17	-42.7	-43.4	19.3	0.00e+00	0	57	0	3393191936	48	3825
2026-01-03 04:28:17.34	255.82	18.06	-42.8	-43.5	19.2	0.00e+00	0	57	0	3398434816	48	3890
2026-01-03 04:28:18.33	255.72	17.96	-42.9	-43.6	19.1	0.00e+00	0	57	0	3404726272	48	3944
2026-01-03 04:28:19.32	255.61	17.85	-42.9	-43.5	19.2	0.00e+00	0	57	0	3409969152	48	3913
2026-01-03 04:28:20.31	255.51	17.74	-43.0	-43.7	19.0	0.00e+00	0	57	0	3415212032	48	3988
2026-01-03 04:28:21.29	255.41	17.64	-42.9	-43.6	19.1	0.00e+00	0	57	0	3421503488	48	3949
2026-01-03 04:28:22.27	255.31	17.53	-42.9	-43.6	19.1	0.00e+00	0	57	0	3426746368	48	3946
2026-01-03 04:28:23.26	255.21	17.43	-42.9	-43.6	19.1	0.00e+00	0	57	0	3431989248	48	3952
2026-01-03 04:28:24.25	255.12	17.32	-42.9	-43.6	19.1	0.00e+00	0	57	0	3437232128	48	3941
2026-01-03 04:28:25.24	255.02	17.22	-43.0	-43.7	19.0	0.00e+00	0	57	0	3443523584	48	3967
2026-01-03 04:28:26.23	254.92	17.11	-42.9	-43.6	19.1	0.00e+00	0	57	0	3448766464	48	3943
2026-01-03 04:28:27.22	254.82	17.01	-43.0	-43.7	19.0	0.00e+00	0	57	0	3454009344	48	3975
2026-01-03 04:28:28.21	254.73	16.90	-43.0	-43.7	19.0	0.00e+00	0	57	0	3460300800	48	3988
2026-01-03 04:28:29.19	254.63	16.80	-43.2	-43.9	18.8	0.00e+00	0	57	0	3465543680	48	4081
2026-01-03 04:28:30.17	254.54	16.70	-43.3	-44.0	18.7	0.00e+00	0	57	0	3470786560	48	4142
2026-01-03 04:28:31.15	254.45	16.60	-43.2	-43.9	18.7	0.00e+00	0	57	0	3476029440	48	4097
2026-01-03 04:28:32.14	254.36	16.50	-43.3	-44.1	18.6	0.00e+00	0	57	0	3482320896	48	4166
2026-01-03 04:28:33.13	254.26	16.39	-43.5	-44.3	18.4	0.00e+00	0	57	0	3487563776	48	4256
2026-01-03 04:28:34.12	254.17	16.29	-43.3	-44.1	18.6	0.00e+00	0	57	0	3492806656	48	4166
2026-01-03 04:28:35.11	254.08	16.19	-43.3	-44.0	18.7	0.00e+00	0	57	0	3499098112	48	4117
2026-01-03 04:28:36.10	253.99	16.09	-43.4	-44.2	18.5	0.00e+00	0	57	0	3504340992	48	4194
2026-01-03 04:28:37.09	253.90	15.99	-43.6	-44.4	18.3	0.00e+00	0	57	0	3509583872	48	4302
2026-01-03 04:28:38.08	253.81	15.89	-43.4	-44.1	18.5	0.00e+00	0	57	0	3515875328	48	4187
2026-01-03 04:28:39.07	253.72	15.79	-43.6	-44.4	18.3	0.00e+00	0	57	0	3521118208	49	4075
2026-01-03 04:28:40.06	253.63	15.69	-44.0	-44.9	17.8	0.00e+00	0	57	0	3526361088	49	4293
2026-01-03 04:28:41.04	253.55	15.59	-43.7	-44.5	18.2	0.00e+00	0	57	0	3532652544	49	4132
2026-01-03 04:28:42.02	253.46	15.49	-43.5	-44.3	18.4	0.00e+00	0	57	0	3537895424	49	4015
2026-01-03 04:28:43.02	253.37	15.39	-43.3	-44.1	18.6	0.00e+00	0	57	0	3543138304	49	3944
2026-01-03 04:28:44.00	253.29	15.30	-43.5	-44.3	18.3	0.00e+00	0	57	0	3548381184	49	4036
2026-01-03 04:28:44.99	253.20	15.20	-43.7	-44.5	18.1	0.00e+00	0	57	0	3554672640	49	4139
2026-01-03 04:28:45.98	253.12	15.10	-43.5	-44.3	18.3	0.00e+00	0	57	0	3559915520	49	4045
2026-01-03 04:28:46.97	253.03	15.00	-43.4	-44.2	18.4	0.00e+00	0	57	0	3566206976	49	3998
2026-01-03 04:28:47.96	252.95	14.91	-43.4	-44.2	18.4	0.00e+00	0	57	0	3571449856	49	3989
2026-01-03 04:28:48.95	252.87	14.81	-43.5	-44.3	18.4	0.00e+00	0	57	0	3576692736	49	4005
2026-01-03 04:28:49.94	252.79	14.71	-43.6	-44.4	18.3	0.00e+00	0	57	0	3581935616	49	4052
2026-01-03 04:28:50.93	252.70	14.62	-43.9	-44.7	18.0	0.00e+00	0	57	0	3588227072	49	4199
2026-01-03 04:28:51.93	252.62	14.52	-43.7	-44.4	18.2	0.00e+00	0	57	0	3593469952	49	4092
2026-01-03 04:28:52.92	252.54	14.43	-43.6	-44.3	18.3	0.00e+00	0	57	0	3598712832	49	4041
2026-01-03 04:28:53.91	252.46	14.33	-43.6	-44.4	18.3	0.00e+00	0	57	0	3605004288	49	4057
2026-01-03 04:28:54.90	252.38	14.24	-43.6	-44.4	18.2	0.00e+00	0	57	0	3610247168	49	4081
2026-01-03 04:28:55.88	252.30	14.14	-43.8	-44.6	18.1	0.00e+00	0	57	0	3615490048	49	4152
2026-01-03 04:28:56.88	252.22	14.05	-43.7	-44.5	18.1	0.00e+00	0	57	0	3621781504	49	4137
2026-01-03 04:28:57.87	252.15	13.95	-43.8	-44.6	18.0	0.00e+00	0	57	0	3627024384	49	4166
2026-01-03 04:28:58.85	252.07	13.86	-44.1	-44.9	17.7	0.00e+00	0	57	0	3632267264	49	4315
2026-01-03 04:28:59.85	251.99	13.77	-44.0	-44.8	17.9	0.00e+00	0	57	0	3637510144	50	4027
2026-01-03 04:29:00.84	251.91	13.67	-44.0	-44.8	17.8	0.00e+00	0	57	0	3643801600	50	4030
2026-01-03 04:29:01.83	251.84	13.58	-44.0	-44.9	17.8	0.00e+00	0	57	0	3649044480	50	4061
2026-01-03 04:29:02.82	251.76	13.49	-44.0	-44.8	17.8	0.00e+00	0	57	0	3654287360	50	4050
2026-01-03 04:29:03.81	251.69	13.40	-44.0	-44.9	17.8	0.00e+00	0	57	0	3660578816	50	4058
2026-01-03 04:29:04.80	251.61	13.31	-44.0	-44.9	17.7	0.00e+00	0	57	0	3665821696	50	4074
2026-01-03 04:29:05.79	251.54	13.21	-44.0	-44.9	17.8	0.00e+00	0	57	0	3671064576	50	4069
2026-01-03 04:29:06.78	251.46	13.12	-44.3	-45.2	17.5	0.00e+00	0	57	0	3677356032	50	4200
2026-01-03 04:29:07.78	251.39	13.03	-44.2	-45.1	17.5	0.00e+00	0	57	0	3682598912	50	4166
2026-01-03 04:29:08.77	251.32	12.94	-44.1	-44.9	17.7	0.00e+00	0	57	0	3687841792	50	4090
2026-01-03 04:29:09.76	251.25	12.85	-44.1	-44.9	17.7	0.00e+00	0	57	0	3694133248	50	4078
2026-01-03 04:29:10.74	251.17	12.76	-44.0	-44.8	17.8	0.00e+00	0	57	0	3699376128	50	4045
2026-01-03 04:29:11.74	251.10	12.67	-44.2	-45.0	17.6	0.00e+00	0	57	0	3704619008	50	4130
2026-01-03 04:29:12.73	251.03	12.58	-44.1	-45.0	17.7	0.00e+00	0	57	0	3710910464	50	4106
