passes_logs/2026/01/03/R3.0SM8_Murmansk_STILSPACE/R3.0SM8_Murmansk_STILSPACE__20260103_015719_NOAA_20_JPSS-1_rec.log

#Pass ID: 20260103_015719_NOAA 20 (JPSS-1)
#Satellite: NOAA 20 (JPSS-1)
#Configuration: NOAA 20
#almurnet v.1.7.20240730
#Start time: 2026-01-03 01:57:19

#Version: 2.2.20231116
#Station: R3.0SM8_Murmansk_STILSPACE
#Location: 33.092731 lon 68.902999 lat
#TLE: 1 43013U 17073A   26002.21975278  .00000202  00000+0  11669-3 0  9999
#TLE: 2 43013  98.7622 303.2950 0001915  57.9213 302.2149 14.19532512420923

#Time	Az	El	Level	Level2	SNR	BER	BlckErr	Temp	State	Recorded	gain1	gain2
2026-01-03 01:57:19.88	30.03	3.05	-53.0	-66.8	3.8	1.49e+00	0	47	0	0	68	18036
2026-01-03 01:57:20.87	30.00	3.12	-52.8	-66.7	3.8	1.49e+00	0	47	104	0	68	17772
2026-01-03 01:57:21.86	29.97	3.18	-52.8	-66.6	3.8	1.49e+00	0	47	104	0	68	17683
2026-01-03 01:57:22.84	29.94	3.25	-52.7	-66.5	3.8	1.49e+00	0	47	104	0	68	17387
2026-01-03 01:57:23.83	29.91	3.31	-52.5	-66.3	3.8	1.49e+00	0	48	104	0	68	17051
2026-01-03 01:57:24.82	29.89	3.38	-52.2	-65.6	3.8	1.49e+00	0	48	104	0	67	16666
2026-01-03 01:57:25.81	29.86	3.44	-51.9	-65.0	3.8	1.49e+00	0	48	104	0	66	16351
2026-01-03 01:57:26.79	29.83	3.50	-51.9	-64.5	3.8	1.49e+00	0	48	104	0	66	15445
2026-01-03 01:57:27.78	29.80	3.57	-51.9	-63.9	3.8	1.49e+00	0	48	104	0	66	14444
2026-01-03 01:57:28.78	29.76	3.64	-51.9	-63.3	4.0	1.48e+00	0	48	104	0	66	13529
2026-01-03 01:57:29.76	29.73	3.70	-51.8	-62.6	4.1	1.48e+00	0	48	104	0	66	12494
2026-01-03 01:57:30.75	29.70	3.77	-51.7	-61.9	4.3	1.40e+00	13	48	0	0	66	11436
2026-01-03 01:57:31.75	29.67	3.83	-51.6	-61.2	4.5	1.12e+00	0	48	0	1048576	66	10554
2026-01-03 01:57:32.73	29.64	3.90	-51.6	-60.3	5.0	8.38e-01	0	48	0	3145728	66	9604
2026-01-03 01:57:33.73	29.61	3.97	-51.4	-59.4	5.5	5.92e-01	0	48	0	5242880	65	9138
2026-01-03 01:57:34.71	29.58	4.03	-51.2	-58.7	6.0	4.37e-01	0	48	0	6291456	65	8368
2026-01-03 01:57:35.71	29.55	4.10	-51.0	-57.8	6.8	2.12e-01	0	48	0	8388608	65	7564
2026-01-03 01:57:36.69	29.52	4.16	-50.8	-57.1	7.5	1.31e-01	0	48	0	10485760	64	7397
2026-01-03 01:57:37.68	29.49	4.23	-50.7	-56.4	8.1	8.24e-02	0	49	0	12582912	64	6858
2026-01-03 01:57:38.67	29.45	4.30	-50.5	-55.7	8.7	5.42e-02	0	49	0	14680064	64	6324
2026-01-03 01:57:39.66	29.42	4.36	-50.3	-55.0	9.6	1.82e-02	0	49	0	15728640	63	6186
2026-01-03 01:57:40.64	29.39	4.43	-50.1	-54.4	10.3	8.22e-03	0	49	0	17825792	63	5748
2026-01-03 01:57:41.62	29.36	4.50	-49.9	-54.0	10.7	4.18e-03	0	49	0	19922944	62	5792
2026-01-03 01:57:42.61	29.33	4.57	-49.7	-53.5	11.2	2.01e-03	0	49	0	22020096	62	5528
2026-01-03 01:57:43.59	29.29	4.63	-49.5	-53.1	11.6	8.89e-04	0	49	0	23068672	62	5249
2026-01-03 01:57:44.59	29.26	4.70	-49.4	-52.8	11.9	5.90e-04	0	49	0	25165824	61	5372
2026-01-03 01:57:45.58	29.23	4.77	-49.2	-52.5	12.3	2.95e-04	0	49	0	27262976	61	5160
2026-01-03 01:57:46.57	29.19	4.84	-49.2	-52.4	12.3	1.72e-04	0	49	0	29360128	61	5137
2026-01-03 01:57:47.55	29.16	4.90	-49.1	-52.2	12.5	1.11e-04	0	49	0	30408704	61	5036
2026-01-03 01:57:48.55	29.13	4.97	-49.1	-52.2	12.5	6.94e-05	0	49	0	32505856	61	5016
2026-01-03 01:57:49.54	29.09	5.04	-49.0	-52.1	12.7	9.38e-05	0	49	0	34603008	61	4948
2026-01-03 01:57:50.52	29.06	5.11	-49.0	-52.0	12.8	7.78e-05	0	49	0	36700160	61	4895
2026-01-03 01:57:51.51	29.03	5.18	-49.1	-52.2	12.7	8.01e-05	0	49	0	38797312	61	4988
2026-01-03 01:57:52.50	28.99	5.25	-49.0	-52.1	12.7	6.71e-05	0	49	0	39845888	61	4962
2026-01-03 01:57:53.49	28.96	5.32	-49.0	-52.1	12.7	9.53e-05	0	49	0	41943040	61	4950
2026-01-03 01:57:54.48	28.92	5.39	-49.1	-52.2	12.7	8.54e-05	0	49	0	44040192	61	4997
2026-01-03 01:57:55.47	28.89	5.46	-49.2	-52.3	12.5	7.09e-05	0	49	0	46137344	61	5066
2026-01-03 01:57:56.46	28.85	5.53	-49.4	-52.6	12.2	9.38e-05	0	49	0	47185920	61	5278
2026-01-03 01:57:57.44	28.82	5.60	-49.4	-52.7	12.2	2.55e-04	0	49	0	49283072	61	5289
2026-01-03 01:57:58.43	28.78	5.67	-49.3	-52.5	12.4	1.92e-04	0	50	0	51380224	61	5168
2026-01-03 01:57:59.42	28.75	5.74	-49.0	-51.9	13.0	5.95e-05	0	50	0	53477376	61	4819
2026-01-03 01:58:00.40	28.71	5.81	-48.8	-51.7	13.2	2.67e-05	0	50	0	54525952	60	4989
2026-01-03 01:58:01.39	28.67	5.88	-48.7	-51.4	13.6	1.29e-05	0	50	0	56623104	60	4821
2026-01-03 01:58:02.38	28.64	5.95	-48.5	-51.2	13.7	5.30e-06	0	50	0	58720256	60	4746
2026-01-03 01:58:03.37	28.60	6.02	-48.6	-51.3	13.6	6.10e-06	0	50	0	60817408	60	4779
2026-01-03 01:58:04.35	28.57	6.09	-48.7	-51.3	13.6	4.50e-06	0	50	0	61865984	60	4805
2026-01-03 01:58:05.35	28.53	6.16	-48.7	-51.4	13.5	9.90e-06	0	50	0	63963136	60	4851
2026-01-03 01:58:06.34	28.49	6.23	-48.8	-51.6	13.3	2.21e-05	0	50	0	66060288	60	4960
2026-01-03 01:58:07.33	28.45	6.31	-48.6	-51.3	13.7	9.10e-06	0	50	0	68157440	60	4791
2026-01-03 01:58:08.32	28.42	6.38	-48.5	-51.2	13.8	6.10e-06	0	50	0	70254592	60	4734
2026-01-03 01:58:09.31	28.38	6.45	-48.6	-51.1	13.9	3.00e-06	0	50	0	71303168	60	4701
2026-01-03 01:58:10.29	28.34	6.52	-48.6	-51.2	13.8	4.50e-06	0	50	0	73400320	60	4717
2026-01-03 01:58:11.28	28.30	6.59	-48.6	-51.2	13.8	5.30e-06	0	50	0	75497472	60	4728
2026-01-03 01:58:12.27	28.27	6.67	-48.6	-51.2	13.9	4.50e-06	0	50	0	77594624	60	4731
2026-01-03 01:58:13.27	28.23	6.74	-48.7	-51.4	13.7	8.30e-06	0	50	0	78643200	60	4825
2026-01-03 01:58:14.26	28.19	6.81	-48.9	-51.6	13.4	9.90e-06	0	50	0	80740352	60	4962
2026-01-03 01:58:15.25	28.15	6.89	-48.7	-51.3	13.7	6.10e-06	0	50	0	82837504	60	4804
2026-01-03 01:58:16.24	28.11	6.96	-48.8	-51.5	13.6	9.90e-06	0	51	0	84934656	60	4883
2026-01-03 01:58:17.22	28.07	7.03	-48.8	-51.6	13.5	1.67e-05	0	51	0	85983232	60	4935
2026-01-03 01:58:18.21	28.03	7.11	-49.0	-51.8	13.3	1.90e-05	0	51	0	88080384	60	5074
2026-01-03 01:58:19.20	27.99	7.18	-48.9	-51.6	13.4	1.67e-05	0	51	0	90177536	60	4970
2026-01-03 01:58:20.19	27.95	7.26	-48.7	-51.4	13.7	1.29e-05	0	51	0	92274688	60	4838
2026-01-03 01:58:21.19	27.91	7.33	-48.8	-51.4	13.7	6.80e-06	0	51	0	94371840	60	4855
2026-01-03 01:58:22.19	27.87	7.41	-48.8	-51.4	13.7	3.00e-06	0	51	0	95420416	60	4855
2026-01-03 01:58:23.18	27.83	7.48	-48.8	-51.5	13.6	3.80e-06	0	51	0	97517568	60	4910
2026-01-03 01:58:24.17	27.79	7.56	-48.8	-51.3	13.8	5.30e-06	0	51	0	99614720	60	4812
2026-01-03 01:58:25.16	27.75	7.63	-48.9	-51.6	13.6	9.90e-06	0	51	0	101711872	60	4934
2026-01-03 01:58:26.15	27.71	7.71	-48.7	-51.3	13.9	6.10e-06	0	51	0	102760448	60	4762
2026-01-03 01:58:27.15	27.67	7.79	-48.5	-51.1	14.0	7.00e-07	0	51	0	104857600	60	4659
2026-01-03 01:58:28.13	27.62	7.86	-48.5	-50.9	14.3	7.00e-07	0	51	0	106954752	60	4578
2026-01-03 01:58:29.12	27.58	7.94	-48.5	-50.9	14.3	0.00e+00	0	51	0	109051904	59	4846
2026-01-03 01:58:30.10	27.54	8.01	-48.5	-50.9	14.3	7.00e-07	0	51	0	111149056	59	4869
2026-01-03 01:58:31.10	27.50	8.09	-48.6	-51.0	14.2	7.00e-07	0	51	0	112197632	59	4924
2026-01-03 01:58:32.09	27.45	8.17	-48.6	-50.9	14.2	0.00e+00	0	51	0	114294784	59	4867
2026-01-03 01:58:33.08	27.41	8.24	-48.5	-50.9	14.3	2.20e-06	0	51	0	116391936	59	4831
2026-01-03 01:58:34.07	27.37	8.32	-48.5	-50.8	14.4	7.00e-07	0	51	0	118489088	59	4790
2026-01-03 01:58:35.06	27.33	8.40	-48.5	-50.9	14.2	0.00e+00	0	51	0	119537664	59	4863
2026-01-03 01:58:36.04	27.28	8.48	-48.8	-51.3	13.9	7.00e-07	0	51	0	121634816	59	5048
2026-01-03 01:58:37.03	27.24	8.55	-48.7	-51.2	14.0	7.00e-07	0	51	0	123731968	59	5005
2026-01-03 01:58:38.01	27.19	8.63	-48.7	-51.2	14.0	3.00e-06	0	51	0	125829120	59	5008
2026-01-03 01:58:39.00	27.15	8.71	-48.7	-51.2	14.1	0.00e+00	0	52	0	126877696	59	4985
2026-01-03 01:58:39.99	27.10	8.79	-48.7	-51.1	14.1	3.00e-06	0	52	0	128974848	59	4949
2026-01-03 01:58:40.98	27.06	8.87	-48.7	-51.2	14.0	5.30e-06	0	52	0	131072000	59	5027
2026-01-03 01:58:41.96	27.01	8.95	-48.8	-51.4	13.9	1.50e-06	0	52	0	133169152	59	5123
2026-01-03 01:58:42.95	26.97	9.02	-48.7	-51.2	14.1	3.80e-06	0	52	0	135266304	59	5011
2026-01-03 01:58:43.94	26.92	9.10	-48.6	-51.1	14.2	1.50e-06	0	52	0	136314880	59	4935
2026-01-03 01:58:44.93	26.88	9.18	-48.6	-51.0	14.3	7.00e-07	0	52	0	138412032	59	4887
2026-01-03 01:58:45.93	26.83	9.26	-48.6	-51.0	14.3	1.50e-06	0	52	0	140509184	59	4871
2026-01-03 01:58:46.92	26.78	9.35	-48.6	-51.0	14.3	0.00e+00	0	52	0	142606336	59	4881
2026-01-03 01:58:47.91	26.74	9.43	-48.8	-51.3	14.0	1.50e-06	0	52	0	143654912	59	5060
2026-01-03 01:58:48.90	26.69	9.51	-48.7	-51.2	14.1	1.50e-06	0	52	0	145752064	59	5000
2026-01-03 01:58:49.88	26.64	9.59	-48.9	-51.4	13.9	1.50e-06	0	52	0	147849216	59	5118
2026-01-03 01:58:50.87	26.59	9.67	-48.7	-51.1	14.2	2.20e-06	0	52	0	149946368	59	4939
2026-01-03 01:58:51.86	26.55	9.75	-48.5	-50.8	14.5	0.00e+00	0	52	0	150994944	59	4765
2026-01-03 01:58:52.84	26.50	9.83	-48.4	-50.6	14.7	0.00e+00	0	52	0	153092096	59	4676
2026-01-03 01:58:53.83	26.45	9.91	-48.3	-50.6	14.7	0.00e+00	0	52	0	155189248	59	4652
2026-01-03 01:58:54.82	26.40	9.99	-48.4	-50.6	14.7	0.00e+00	0	52	0	157286400	59	4675
2026-01-03 01:58:55.81	26.35	10.08	-48.3	-50.5	14.8	0.00e+00	0	52	0	158334976	59	4615
2026-01-03 01:58:56.80	26.30	10.16	-48.3	-50.4	14.9	0.00e+00	0	52	0	160432128	59	4580
2026-01-03 01:58:57.80	26.25	10.24	-48.2	-50.4	14.9	0.00e+00	0	52	0	162529280	59	4580
2026-01-03 01:58:58.78	26.20	10.33	-48.3	-50.5	14.9	0.00e+00	0	52	0	164626432	59	4633
2026-01-03 01:58:59.77	26.15	10.41	-48.5	-50.8	14.6	1.50e-06	0	52	0	166723584	59	4768
2026-01-03 01:59:00.76	26.10	10.49	-48.5	-50.8	14.6	7.00e-07	0	52	0	167772160	59	4761
2026-01-03 01:59:01.75	26.05	10.58	-48.4	-50.8	14.6	7.00e-07	0	52	0	169869312	59	4762
2026-01-03 01:59:02.73	26.00	10.66	-48.5	-50.8	14.5	0.00e+00	0	52	0	171966464	59	4794
2026-01-03 01:59:03.72	25.95	10.74	-48.5	-50.8	14.6	2.20e-06	0	52	0	174063616	59	4794
2026-01-03 01:59:04.71	25.89	10.83	-48.4	-50.6	14.8	0.00e+00	0	53	0	175112192	59	4670
2026-01-03 01:59:05.69	25.84	10.91	-48.3	-50.5	14.9	0.00e+00	0	53	0	177209344	59	4600
2026-01-03 01:59:06.69	25.79	11.00	-48.4	-50.6	14.8	0.00e+00	0	53	0	179306496	59	4657
2026-01-03 01:59:07.68	25.74	11.09	-48.3	-50.4	14.9	0.00e+00	0	53	0	181403648	59	4583
2026-01-03 01:59:08.67	25.68	11.17	-48.2	-50.3	15.1	0.00e+00	0	53	0	182452224	59	4538
2026-01-03 01:59:09.66	25.63	11.26	-48.2	-50.3	15.1	0.00e+00	0	53	0	184549376	59	4517
2026-01-03 01:59:10.65	25.58	11.34	-48.2	-50.3	15.1	0.00e+00	0	53	0	186646528	59	4513
2026-01-03 01:59:11.64	25.52	11.43	-48.2	-50.3	15.1	0.00e+00	0	53	0	188743680	59	4517
2026-01-03 01:59:12.64	25.47	11.52	-48.3	-50.4	15.0	0.00e+00	0	53	0	190840832	59	4583
2026-01-03 01:59:13.63	25.41	11.61	-48.2	-50.4	15.1	0.00e+00	0	53	0	191889408	59	4551
2026-01-03 01:59:14.61	25.36	11.69	-48.2	-50.3	15.1	0.00e+00	0	53	0	193986560	59	4525
2026-01-03 01:59:15.60	25.30	11.78	-48.4	-50.5	14.9	0.00e+00	0	53	0	196083712	59	4638
2026-01-03 01:59:16.60	25.24	11.87	-48.4	-50.5	14.9	7.00e-07	0	53	0	198180864	59	4635
2026-01-03 01:59:17.58	25.19	11.96	-48.4	-50.5	14.9	0.00e+00	0	53	0	199229440	59	4647
2026-01-03 01:59:18.57	25.13	12.05	-48.4	-50.6	14.9	0.00e+00	0	53	0	201326592	59	4652
2026-01-03 01:59:19.56	25.07	12.13	-48.2	-50.3	15.1	0.00e+00	0	53	0	203423744	59	4545
2026-01-03 01:59:20.56	25.01	12.23	-48.2	-50.2	15.1	0.00e+00	0	53	0	205520896	59	4484
2026-01-03 01:59:21.55	24.96	12.31	-48.1	-50.2	15.3	0.00e+00	0	53	0	207618048	59	4449
2026-01-03 01:59:22.54	24.90	12.40	-48.1	-50.1	15.3	0.00e+00	0	53	0	208666624	59	4435
2026-01-03 01:59:23.52	24.84	12.49	-48.0	-50.0	15.4	0.00e+00	0	53	0	210763776	59	4381
2026-01-03 01:59:24.51	24.78	12.58	-48.0	-50.0	15.4	0.00e+00	0	53	0	212860928	59	4365
2026-01-03 01:59:25.49	24.72	12.67	-48.0	-50.0	15.4	0.00e+00	0	53	0	214958080	59	4367
2026-01-03 01:59:26.47	24.66	12.76	-48.1	-50.1	15.3	0.00e+00	0	53	0	216006656	59	4425
2026-01-03 01:59:27.47	24.60	12.86	-48.1	-50.1	15.3	0.00e+00	0	53	0	218103808	59	4425
2026-01-03 01:59:28.45	24.54	12.95	-48.1	-50.2	15.4	0.00e+00	0	53	0	220200960	59	4442
2026-01-03 01:59:29.44	24.48	13.04	-48.2	-50.2	15.2	7.00e-07	0	53	0	222298112	59	4467
2026-01-03 01:59:30.42	24.42	13.13	-48.2	-50.3	15.2	0.00e+00	0	53	0	223346688	59	4500
2026-01-03 01:59:31.42	24.36	13.22	-48.1	-50.1	15.3	0.00e+00	0	53	0	225443840	59	4429
2026-01-03 01:59:32.41	24.29	13.32	-48.0	-49.9	15.5	0.00e+00	0	53	0	227540992	59	4334
2026-01-03 01:59:33.40	24.23	13.41	-48.1	-50.1	15.3	0.00e+00	0	53	0	229638144	59	4427
2026-01-03 01:59:34.40	24.17	13.51	-48.3	-50.3	15.2	0.00e+00	0	53	0	231735296	59	4537
2026-01-03 01:59:35.39	24.10	13.60	-48.2	-50.3	15.2	0.00e+00	0	53	0	232783872	59	4523
2026-01-03 01:59:36.38	24.04	13.69	-48.2	-50.2	15.3	0.00e+00	0	53	0	234881024	59	4485
2026-01-03 01:59:37.37	23.98	13.79	-48.1	-50.1	15.4	0.00e+00	0	53	0	236978176	59	4417
2026-01-03 01:59:38.36	23.91	13.88	-48.1	-50.2	15.3	0.00e+00	0	53	0	239075328	59	4481
2026-01-03 01:59:39.34	23.85	13.98	-48.3	-50.4	15.1	0.00e+00	0	53	0	240123904	59	4567
2026-01-03 01:59:40.33	23.78	14.07	-48.3	-50.4	15.2	7.00e-07	0	53	0	242221056	59	4550
2026-01-03 01:59:41.32	23.71	14.17	-48.2	-50.3	15.2	0.00e+00	0	53	0	244318208	59	4520
2026-01-03 01:59:42.31	23.65	14.27	-48.3	-50.4	15.1	7.00e-07	0	53	0	246415360	59	4553
2026-01-03 01:59:43.30	23.58	14.36	-48.2	-50.2	15.3	0.00e+00	0	54	0	247463936	59	4464
2026-01-03 01:59:44.28	23.51	14.46	-48.0	-50.0	15.5	0.00e+00	0	53	0	249561088	59	4364
2026-01-03 01:59:45.28	23.44	14.56	-47.9	-49.8	15.7	0.00e+00	0	53	0	251658240	58	4542
2026-01-03 01:59:46.26	23.38	14.65	-47.9	-49.7	15.7	0.00e+00	0	53	0	253755392	58	4489
2026-01-03 01:59:47.25	23.31	14.75	-47.9	-49.7	15.8	0.00e+00	0	54	0	254803968	58	4483
2026-01-03 01:59:48.24	23.24	14.85	-47.7	-49.5	16.0	0.00e+00	0	54	0	256901120	58	4385
2026-01-03 01:59:49.23	23.17	14.95	-47.7	-49.5	16.0	0.00e+00	0	54	0	258998272	58	4391
2026-01-03 01:59:50.22	23.10	15.05	-47.8	-49.6	15.9	0.00e+00	0	54	0	261095424	58	4403
2026-01-03 01:59:51.20	23.03	15.15	-47.8	-49.7	15.8	0.00e+00	0	54	0	263192576	58	4460
2026-01-03 01:59:52.18	22.96	15.24	-47.7	-49.5	16.0	0.00e+00	0	54	0	264241152	58	4388
2026-01-03 01:59:53.17	22.88	15.34	-47.7	-49.5	16.0	0.00e+00	0	54	0	266338304	58	4365
2026-01-03 01:59:54.15	22.81	15.44	-47.7	-49.5	16.0	0.00e+00	0	54	0	268435456	58	4374
2026-01-03 01:59:55.13	22.74	15.54	-47.8	-49.6	15.9	0.00e+00	0	54	0	270532608	58	4419
2026-01-03 01:59:56.12	22.67	15.65	-47.9	-49.8	15.7	0.00e+00	0	54	0	271581184	58	4542
2026-01-03 01:59:57.11	22.59	15.75	-47.8	-49.6	15.9	0.00e+00	0	54	0	273678336	58	4433
2026-01-03 01:59:58.10	22.52	15.85	-47.9	-49.8	15.7	0.00e+00	0	54	0	275775488	58	4511
2026-01-03 01:59:59.09	22.44	15.95	-48.1	-50.1	15.5	0.00e+00	0	54	0	277872640	58	4681
2026-01-03 02:00:00.08	22.37	16.05	-47.9	-49.8	15.7	0.00e+00	0	54	0	278921216	58	4514
2026-01-03 02:00:01.07	22.29	16.16	-48.0	-50.0	15.5	0.00e+00	0	54	0	281018368	58	4613
2026-01-03 02:00:02.05	22.22	16.26	-47.9	-49.8	15.8	0.00e+00	0	54	0	283115520	58	4517
2026-01-03 02:00:03.04	22.14	16.36	-47.9	-49.8	15.8	0.00e+00	0	54	0	285212672	58	4506
2026-01-03 02:00:04.03	22.06	16.47	-47.9	-49.8	15.8	0.00e+00	0	54	0	286261248	58	4495
2026-01-03 02:00:05.02	21.98	16.57	-48.0	-49.9	15.7	0.00e+00	0	54	0	288358400	58	4579
2026-01-03 02:00:06.00	21.90	16.68	-48.1	-50.2	15.4	0.00e+00	0	54	0	290455552	58	4712
2026-01-03 02:00:07.00	21.82	16.78	-48.0	-49.9	15.7	0.00e+00	0	54	0	292552704	58	4586
2026-01-03 02:00:07.99	21.74	16.89	-48.2	-50.2	15.4	0.00e+00	0	54	0	294649856	58	4715
2026-01-03 02:00:08.98	21.66	16.99	-48.4	-50.6	15.0	0.00e+00	0	54	0	295698432	58	4945
2026-01-03 02:00:09.97	21.58	17.10	-48.2	-50.2	15.3	0.00e+00	0	54	0	297795584	58	4756
2026-01-03 02:00:10.96	21.50	17.21	-47.9	-49.9	15.7	0.00e+00	0	54	0	299892736	58	4554
2026-01-03 02:00:11.95	21.42	17.32	-47.8	-49.7	15.8	0.00e+00	0	54	0	301989888	58	4485
2026-01-03 02:00:12.94	21.33	17.42	-47.8	-49.7	15.9	0.00e+00	0	54	0	303038464	58	4442
2026-01-03 02:00:13.93	21.25	17.53	-47.8	-49.7	15.9	0.00e+00	0	54	0	305135616	58	4444
2026-01-03 02:00:14.91	21.16	17.64	-47.8	-49.6	16.0	0.00e+00	0	54	0	307232768	58	4413
2026-01-03 02:00:15.91	21.08	17.75	-47.8	-49.6	16.0	0.00e+00	0	54	0	309329920	58	4399
2026-01-03 02:00:16.90	20.99	17.86	-47.8	-49.7	15.9	0.00e+00	0	54	0	311427072	58	4460
2026-01-03 02:00:17.90	20.91	17.97	-47.8	-49.6	16.0	0.00e+00	0	54	0	312475648	58	4408
2026-01-03 02:00:18.88	20.82	18.08	-47.9	-49.8	15.8	0.00e+00	0	54	0	314572800	58	4534
2026-01-03 02:00:19.87	20.73	18.19	-47.9	-49.8	15.8	0.00e+00	0	54	0	316669952	58	4507
2026-01-03 02:00:20.86	20.64	18.30	-47.9	-49.8	15.8	0.00e+00	0	54	0	318767104	58	4513
2026-01-03 02:00:21.86	20.55	18.41	-48.1	-50.0	15.6	0.00e+00	0	54	0	319815680	58	4651
2026-01-03 02:00:22.85	20.46	18.53	-48.1	-50.0	15.6	0.00e+00	0	54	0	321912832	58	4649
2026-01-03 02:00:23.84	20.37	18.64	-48.2	-50.3	15.4	0.00e+00	0	54	0	324009984	58	4762
2026-01-03 02:00:24.84	20.28	18.75	-48.2	-50.1	15.5	0.00e+00	0	54	0	326107136	58	4704
2026-01-03 02:00:25.83	20.19	18.87	-48.1	-50.0	15.6	0.00e+00	0	54	0	327155712	58	4631
2026-01-03 02:00:26.82	20.10	18.98	-48.1	-50.1	15.5	0.00e+00	0	55	0	329252864	58	4685
2026-01-03 02:00:27.81	20.00	19.09	-48.2	-50.3	15.3	0.00e+00	0	54	0	331350016	58	4805
2026-01-03 02:00:28.80	19.91	19.21	-48.2	-50.3	15.3	0.00e+00	0	54	0	333447168	58	4790
2026-01-03 02:00:29.78	19.82	19.32	-48.3	-50.3	15.3	0.00e+00	0	54	0	334495744	58	4775
2026-01-03 02:00:30.76	19.72	19.44	-48.4	-50.5	15.1	0.00e+00	0	54	0	336592896	58	4922
2026-01-03 02:00:31.75	19.62	19.55	-48.4	-50.5	15.1	0.00e+00	0	54	0	338690048	58	4892
2026-01-03 02:00:32.74	19.53	19.67	-48.4	-50.5	15.2	0.00e+00	0	54	0	340787200	58	4893
2026-01-03 02:00:33.74	19.43	19.79	-48.5	-50.6	15.0	0.00e+00	0	55	0	342884352	58	4944
2026-01-03 02:00:34.72	19.33	19.90	-48.6	-50.8	14.8	0.00e+00	0	54	0	343932928	59	4780
2026-01-03 02:00:35.71	19.23	20.02	-48.6	-50.8	14.8	0.00e+00	0	55	0	346030080	59	4770
2026-01-03 02:00:36.69	19.13	20.14	-48.5	-50.6	15.0	0.00e+00	0	54	0	348127232	59	4690
2026-01-03 02:00:37.68	19.03	20.26	-48.6	-50.8	14.9	0.00e+00	0	54	0	350224384	59	4780
2026-01-03 02:00:38.67	18.93	20.38	-48.7	-51.0	14.6	7.00e-07	0	55	0	351272960	59	4900
2026-01-03 02:00:39.66	18.83	20.50	-48.7	-51.0	14.7	7.00e-07	0	55	0	353370112	59	4879
2026-01-03 02:00:40.65	18.72	20.62	-48.6	-50.8	14.8	0.00e+00	0	55	0	355467264	59	4805
2026-01-03 02:00:41.64	18.62	20.74	-48.6	-50.8	14.9	0.00e+00	0	55	0	357564416	59	4780
2026-01-03 02:00:42.64	18.51	20.86	-48.7	-50.9	14.7	0.00e+00	0	55	0	359661568	59	4857
2026-01-03 02:00:43.62	18.41	20.98	-48.7	-51.0	14.7	0.00e+00	0	55	0	360710144	59	4893
2026-01-03 02:00:44.61	18.30	21.10	-48.6	-50.9	14.7	0.00e+00	0	55	0	362807296	59	4870
2026-01-03 02:00:45.60	18.19	21.23	-48.7	-51.0	14.7	0.00e+00	0	55	0	364904448	59	4875
2026-01-03 02:00:46.59	18.09	21.35	-48.7	-51.0	14.6	0.00e+00	0	55	0	367001600	59	4918
2026-01-03 02:00:47.57	17.98	21.47	-48.8	-51.0	14.6	0.00e+00	0	55	0	368050176	59	4909
2026-01-03 02:00:48.56	17.87	21.60	-48.7	-50.9	14.7	0.00e+00	0	55	0	370147328	59	4866
2026-01-03 02:00:49.55	17.76	21.72	-48.8	-51.1	14.5	0.00e+00	0	55	0	372244480	59	4982
2026-01-03 02:00:50.55	17.64	21.85	-48.9	-51.1	14.5	1.50e-06	0	55	0	374341632	59	4983
2026-01-03 02:00:51.54	17.53	21.97	-48.8	-51.1	14.6	7.00e-07	0	55	0	375390208	59	4940
2026-01-03 02:00:52.53	17.41	22.10	-48.8	-51.1	14.6	7.00e-07	0	55	0	377487360	59	4933
2026-01-03 02:00:53.51	17.30	22.22	-48.8	-51.0	14.6	7.00e-07	0	55	0	379584512	59	4923
2026-01-03 02:00:54.50	17.18	22.35	-48.9	-51.2	14.5	3.00e-06	0	54	0	381681664	59	4987
2026-01-03 02:00:55.49	17.07	22.48	-48.7	-50.9	14.8	0.00e+00	0	55	0	383778816	59	4847
2026-01-03 02:00:56.49	16.95	22.61	-48.7	-50.8	14.8	0.00e+00	0	55	0	384827392	59	4808
2026-01-03 02:00:57.47	16.83	22.73	-48.6	-50.8	14.9	0.00e+00	0	55	0	386924544	59	4772
2026-01-03 02:00:58.46	16.71	22.86	-48.7	-50.9	14.8	0.00e+00	0	55	0	389021696	59	4843
2026-01-03 02:00:59.45	16.59	22.99	-48.7	-50.9	14.8	0.00e+00	0	55	0	391118848	59	4833
2026-01-03 02:01:00.44	16.47	23.12	-48.6	-50.7	14.9	0.00e+00	0	55	0	392167424	59	4752
2026-01-03 02:01:01.43	16.34	23.25	-48.7	-50.9	14.8	0.00e+00	0	55	0	394264576	59	4859
2026-01-03 02:01:02.43	16.22	23.39	-48.6	-50.9	14.8	0.00e+00	0	55	0	396361728	59	4846
2026-01-03 02:01:03.42	16.09	23.52	-48.7	-50.9	14.8	0.00e+00	0	55	0	398458880	59	4844
2026-01-03 02:01:04.41	15.97	23.65	-48.8	-51.1	14.6	0.00e+00	0	55	0	399507456	59	4970
2026-01-03 02:01:05.40	15.84	23.78	-49.0	-51.4	14.2	1.50e-06	0	55	0	401604608	59	5154
2026-01-03 02:01:06.39	15.71	23.92	-48.9	-51.3	14.4	7.00e-07	0	55	0	403701760	59	5044
2026-01-03 02:01:07.38	15.58	24.05	-48.9	-51.2	14.5	2.20e-06	0	55	0	405798912	59	5001
2026-01-03 02:01:08.37	15.45	24.18	-49.0	-51.4	14.3	0.00e+00	0	55	0	407896064	59	5102
2026-01-03 02:01:09.36	15.32	24.32	-49.1	-51.5	14.1	2.20e-06	0	55	0	408944640	60	4923
2026-01-03 02:01:10.35	15.18	24.45	-49.0	-51.4	14.2	0.00e+00	0	55	0	411041792	60	4854
2026-01-03 02:01:11.34	15.05	24.59	-48.9	-51.2	14.3	7.00e-07	0	55	0	413138944	60	4758
2026-01-03 02:01:12.33	14.91	24.73	-48.9	-51.2	14.4	7.00e-07	0	55	0	415236096	60	4743
2026-01-03 02:01:13.32	14.78	24.86	-48.9	-51.2	14.4	7.00e-07	0	55	0	416284672	60	4753
2026-01-03 02:01:14.31	14.64	25.00	-48.8	-51.2	14.4	1.50e-06	0	55	0	418381824	60	4736
2026-01-03 02:01:15.30	14.50	25.14	-48.8	-51.2	14.4	0.00e+00	0	55	0	420478976	60	4719
2026-01-03 02:01:16.29	14.36	25.28	-48.8	-51.3	14.3	0.00e+00	0	55	0	422576128	60	4762
2026-01-03 02:01:17.28	14.22	25.42	-48.9	-51.4	14.2	5.30e-06	0	55	0	423624704	60	4822
2026-01-03 02:01:18.26	14.08	25.55	-48.8	-51.2	14.2	1.50e-06	0	55	0	425721856	60	4741
2026-01-03 02:01:19.25	13.93	25.70	-48.9	-51.5	13.8	1.50e-06	0	55	0	427819008	60	4915
2026-01-03 02:01:20.24	13.79	25.84	-49.1	-52.0	13.2	1.60e-05	0	55	0	429916160	60	5190
2026-01-03 02:01:21.22	13.64	25.98	-49.4	-52.6	12.5	7.70e-05	0	55	0	430964736	60	5540
2026-01-03 02:01:22.21	13.49	26.12	-49.5	-53.1	11.9	2.31e-04	0	55	0	433061888	61	5531
2026-01-03 02:01:23.20	13.34	26.26	-49.9	-53.8	11.0	9.31e-04	0	55	0	435159040	61	6029
2026-01-03 02:01:24.19	13.19	26.40	-50.1	-54.4	10.2	4.01e-03	0	55	0	437256192	61	6490
2026-01-03 02:01:25.18	13.04	26.55	-50.3	-55.3	9.2	1.28e-02	0	55	0	439353344	62	6742
2026-01-03 02:01:26.17	12.88	26.69	-50.5	-56.1	8.3	3.43e-02	0	55	0	440401920	62	7389
2026-01-03 02:01:27.16	12.73	26.83	-50.5	-56.1	8.2	5.23e-02	0	55	0	442499072	62	7442
2026-01-03 02:01:28.15	12.57	26.98	-50.5	-56.3	8.0	6.78e-02	0	55	0	444596224	62	7561
2026-01-03 02:01:29.14	12.41	27.12	-50.4	-55.9	8.4	5.26e-02	0	55	0	446693376	62	7238
2026-01-03 02:01:30.12	12.26	27.27	-50.4	-55.7	8.6	4.22e-02	0	55	0	447741952	62	7118
2026-01-03 02:01:31.11	12.09	27.41	-50.4	-55.5	9.0	2.91e-02	0	55	0	449839104	62	6883
2026-01-03 02:01:32.10	11.93	27.56	-50.4	-55.2	9.4	2.05e-02	0	55	0	451936256	62	6707
2026-01-03 02:01:33.09	11.77	27.71	-50.4	-54.9	9.9	1.22e-02	0	55	0	454033408	62	6452
2026-01-03 02:01:34.08	11.60	27.86	-50.2	-54.5	10.4	7.08e-03	0	55	0	455081984	62	6173
2026-01-03 02:01:35.06	11.44	28.00	-50.3	-54.3	10.9	2.88e-03	0	55	0	457179136	62	5994
2026-01-03 02:01:36.04	11.27	28.15	-50.3	-54.0	11.3	1.35e-03	0	55	0	459276288	62	5847
2026-01-03 02:01:37.04	11.10	28.30	-50.3	-53.9	11.6	8.60e-04	0	55	0	461373440	62	5755
2026-01-03 02:01:38.03	10.92	28.45	-49.7	-52.9	12.6	3.33e-04	0	55	0	463470592	62	5114
2026-01-03 02:01:39.01	10.75	28.60	-49.7	-52.7	12.8	5.56e-05	0	55	0	464519168	62	5029
2026-01-03 02:01:40.01	10.57	28.76	-49.7	-52.8	12.8	5.26e-05	0	56	0	466616320	62	5059
2026-01-03 02:01:40.99	10.40	28.91	-49.4	-52.1	13.5	1.90e-05	0	56	0	468713472	61	4962
2026-01-03 02:01:41.98	10.22	29.06	-49.3	-51.9	13.8	6.80e-06	0	56	0	470810624	61	4863
2026-01-03 02:01:42.98	10.04	29.21	-49.3	-51.9	13.7	5.30e-06	0	55	0	471859200	61	4834
2026-01-03 02:01:43.97	9.85	29.36	-49.5	-52.2	13.4	1.06e-05	0	55	0	473956352	61	5036
2026-01-03 02:01:44.96	9.67	29.52	-49.9	-53.0	12.7	3.35e-05	0	55	0	476053504	61	5469
2026-01-03 02:01:45.94	9.49	29.67	-49.6	-52.5	13.2	2.21e-05	0	56	0	478150656	61	5161
2026-01-03 02:01:46.94	9.30	29.83	-49.6	-52.3	13.4	1.37e-05	0	56	0	480247808	61	5092
2026-01-03 02:01:47.92	9.11	29.98	-49.4	-52.1	13.6	5.30e-06	0	56	0	481296384	61	4951
2026-01-03 02:01:48.91	8.92	30.14	-49.3	-51.9	13.8	1.06e-05	0	56	0	483393536	61	4849
2026-01-03 02:01:49.91	8.72	30.29	-49.2	-51.8	13.9	4.50e-06	0	56	0	485490688	61	4772
2026-01-03 02:01:50.89	8.53	30.45	-49.2	-51.8	13.9	4.50e-06	0	55	0	487587840	61	4780
2026-01-03 02:01:51.88	8.33	30.61	-49.3	-51.9	13.8	3.80e-06	0	56	0	488636416	61	4856
2026-01-03 02:01:52.87	8.13	30.76	-49.2	-51.8	13.9	2.20e-06	0	56	0	490733568	61	4797
2026-01-03 02:01:53.85	7.93	30.92	-49.4	-51.9	13.8	1.50e-06	0	56	0	492830720	61	4866
2026-01-03 02:01:54.84	7.73	31.08	-49.3	-51.8	13.9	4.50e-06	0	56	0	494927872	61	4806
2026-01-03 02:01:55.83	7.52	31.24	-49.5	-52.2	13.5	6.80e-06	0	56	0	495976448	61	5032
2026-01-03 02:01:56.82	7.32	31.40	-49.4	-52.1	13.6	7.60e-06	0	56	0	498073600	61	4970
2026-01-03 02:01:57.81	7.11	31.56	-49.3	-51.9	13.8	4.50e-06	0	56	0	500170752	61	4837
2026-01-03 02:01:58.80	6.89	31.72	-49.5	-52.3	13.5	6.10e-06	0	56	0	502267904	61	5053
2026-01-03 02:01:59.78	6.68	31.88	-49.6	-52.3	13.4	5.30e-06	0	56	0	503316480	61	5071
2026-01-03 02:02:00.77	6.47	32.04	-49.7	-52.5	13.2	1.37e-05	0	56	0	505413632	61	5206
2026-01-03 02:02:01.76	6.25	32.20	-49.7	-52.5	13.2	1.83e-05	0	56	0	507510784	61	5202
2026-01-03 02:02:02.75	6.03	32.36	-49.8	-52.7	13.1	1.67e-05	0	56	0	509607936	61	5332
2026-01-03 02:02:03.74	5.81	32.52	-49.7	-52.5	13.3	3.12e-05	0	55	0	511705088	61	5169
2026-01-03 02:02:04.73	5.58	32.69	-49.7	-52.5	13.3	2.67e-05	0	56	0	512753664	61	5175
2026-01-03 02:02:05.72	5.35	32.85	-49.7	-52.4	13.3	1.98e-05	0	56	0	514850816	61	5159
2026-01-03 02:02:06.71	5.13	33.01	-49.6	-52.4	13.4	2.44e-05	0	56	0	516947968	61	5113
2026-01-03 02:02:07.70	4.89	33.17	-49.7	-52.5	13.2	2.36e-05	0	55	0	519045120	61	5218
2026-01-03 02:02:08.69	4.66	33.34	-49.6	-52.4	13.4	1.44e-05	0	56	0	520093696	61	5116
2026-01-03 02:02:09.67	4.43	33.50	-49.7	-52.5	13.3	1.22e-05	0	56	0	522190848	61	5165
2026-01-03 02:02:10.67	4.18	33.67	-49.7	-52.6	13.1	1.29e-05	0	56	0	524288000	61	5266
2026-01-03 02:02:11.65	3.94	33.83	-49.9	-53.0	12.8	3.81e-05	0	56	0	526385152	61	5501
2026-01-03 02:02:12.64	3.70	34.00	-50.1	-53.2	12.5	1.08e-04	0	56	0	527433728	61	5632
2026-01-03 02:02:13.63	3.45	34.16	-50.1	-53.2	12.6	9.76e-05	0	56	0	529530880	62	5315
2026-01-03 02:02:14.62	3.21	34.33	-50.1	-53.2	12.6	9.15e-05	0	56	0	531628032	62	5314
2026-01-03 02:02:15.61	2.95	34.49	-50.0	-53.1	12.7	9.23e-05	0	56	0	533725184	62	5243
2026-01-03 02:02:16.61	2.70	34.66	-50.1	-53.3	12.5	1.32e-04	0	56	0	535822336	62	5368
2026-01-03 02:02:17.59	2.44	34.83	-50.1	-53.2	12.6	1.30e-04	0	56	0	536870912	62	5297
2026-01-03 02:02:18.59	2.18	35.00	-50.2	-53.5	12.3	9.68e-05	0	56	0	538968064	62	5493
2026-01-03 02:02:19.58	1.92	35.16	-50.2	-53.5	12.2	2.81e-04	0	56	0	541065216	62	5499
2026-01-03 02:02:20.56	1.66	35.33	-49.9	-52.9	12.9	8.77e-05	0	56	0	543162368	62	5147
2026-01-03 02:02:21.55	1.39	35.50	-49.7	-52.6	13.2	3.12e-05	0	56	0	544210944	62	4965
2026-01-03 02:02:22.55	1.12	35.66	-49.6	-52.4	13.4	1.60e-05	0	56	0	546308096	62	4846
2026-01-03 02:02:23.54	0.84	35.83	-49.7	-52.5	13.3	1.75e-05	0	56	0	548405248	62	4878
2026-01-03 02:02:24.53	0.57	36.00	-49.6	-52.3	13.5	1.44e-05	0	56	0	550502400	62	4805
2026-01-03 02:02:25.52	0.29	36.17	-49.5	-52.1	13.6	5.30e-06	0	56	0	551550976	62	4690
2026-01-03 02:02:26.50	0.01	36.33	-49.4	-52.0	13.8	6.80e-06	0	56	0	553648128	61	4906
2026-01-03 02:02:27.49	359.72	36.50	-49.4	-51.9	13.8	7.60e-06	0	56	0	555745280	61	4866
2026-01-03 02:02:28.48	359.43	36.67	-49.5	-52.1	13.7	6.10e-06	0	56	0	557842432	61	4963
2026-01-03 02:02:29.46	359.15	36.84	-49.4	-52.1	13.7	9.90e-06	0	56	0	559939584	61	4929
2026-01-03 02:02:30.43	358.86	37.00	-49.4	-52.1	13.7	6.10e-06	0	56	0	560988160	61	4946
2026-01-03 02:02:31.42	358.56	37.17	-49.4	-52.0	13.8	3.00e-06	0	56	0	563085312	61	4902
2026-01-03 02:02:32.42	358.26	37.34	-49.2	-51.6	14.2	3.00e-06	0	56	0	565182464	61	4700
2026-01-03 02:02:33.41	357.96	37.51	-49.2	-51.7	14.1	0.00e+00	0	56	0	567279616	61	4723
2026-01-03 02:02:34.40	357.65	37.67	-49.1	-51.5	14.3	3.00e-06	0	56	0	568328192	61	4623
2026-01-03 02:02:35.39	357.34	37.84	-49.2	-51.7	14.1	2.20e-06	0	56	0	570425344	61	4727
2026-01-03 02:02:36.38	357.03	38.01	-49.2	-51.7	14.1	7.00e-07	0	56	0	572522496	61	4753
2026-01-03 02:02:37.38	356.71	38.18	-49.1	-51.5	14.2	1.50e-06	0	56	0	574619648	61	4648
2026-01-03 02:02:38.37	356.39	38.35	-49.1	-51.5	14.3	7.00e-07	0	56	0	575668224	61	4604
2026-01-03 02:02:39.36	356.07	38.51	-48.8	-51.1	14.7	0.00e+00	0	56	0	577765376	60	4656
2026-01-03 02:02:40.36	355.74	38.68	-48.8	-51.0	14.8	0.00e+00	0	56	0	579862528	60	4645
2026-01-03 02:02:41.34	355.41	38.85	-48.9	-51.1	14.7	0.00e+00	0	56	0	581959680	60	4696
2026-01-03 02:02:42.34	355.07	39.01	-48.9	-51.2	14.6	7.00e-07	0	56	0	584056832	60	4722
2026-01-03 02:02:43.33	354.74	39.18	-48.9	-51.1	14.7	7.00e-07	0	56	0	585105408	60	4694
2026-01-03 02:02:44.31	354.40	39.34	-48.8	-51.1	14.8	0.00e+00	0	56	0	587202560	60	4661
2026-01-03 02:02:45.29	354.06	39.51	-49.0	-51.3	14.5	0.00e+00	0	56	0	589299712	60	4777
2026-01-03 02:02:46.29	353.71	39.67	-49.2	-51.6	14.2	7.00e-07	0	56	0	591396864	60	4949
2026-01-03 02:02:47.29	353.36	39.84	-49.4	-52.0	13.8	3.80e-06	0	56	0	592445440	60	5162
2026-01-03 02:02:48.27	353.01	40.00	-49.4	-52.1	13.8	3.80e-06	0	56	0	594542592	60	5224
2026-01-03 02:02:49.27	352.64	40.17	-49.6	-52.3	13.5	8.30e-06	0	56	0	596639744	61	5097
2026-01-03 02:02:50.26	352.28	40.33	-49.3	-51.9	13.9	6.80e-06	0	56	0	598736896	61	4833
2026-01-03 02:02:51.25	351.92	40.49	-49.2	-51.8	14.0	1.50e-06	0	56	0	600834048	61	4772
2026-01-03 02:02:52.24	351.55	40.66	-49.5	-52.1	13.8	3.00e-06	0	56	0	601882624	61	4946
2026-01-03 02:02:53.22	351.18	40.81	-49.5	-52.1	13.7	6.10e-06	0	56	0	603979776	61	4964
2026-01-03 02:02:54.22	350.80	40.98	-49.8	-52.6	13.2	1.29e-05	0	56	0	606076928	61	5247
2026-01-03 02:02:55.21	350.42	41.14	-49.8	-52.6	13.2	1.75e-05	0	56	0	608174080	61	5275
2026-01-03 02:02:56.20	350.04	41.30	-49.8	-52.7	13.1	2.36e-05	0	56	0	609222656	61	5289
2026-01-03 02:02:57.19	349.65	41.45	-49.7	-52.5	13.2	1.90e-05	0	56	0	611319808	61	5199
2026-01-03 02:02:58.17	349.26	41.61	-49.7	-52.5	13.4	2.36e-05	0	56	0	613416960	61	5175
2026-01-03 02:02:59.15	348.87	41.76	-49.6	-52.3	13.5	1.29e-05	0	56	0	615514112	61	5074
2026-01-03 02:03:00.14	348.47	41.92	-49.4	-52.0	13.8	6.10e-06	0	56	0	616562688	61	4908
2026-01-03 02:03:01.13	348.07	42.08	-49.6	-52.4	13.4	1.22e-05	0	56	0	618659840	61	5125
2026-01-03 02:03:02.13	347.66	42.23	-49.6	-52.4	13.4	8.30e-06	0	56	0	620756992	61	5109
2026-01-03 02:03:03.11	347.25	42.38	-49.6	-52.3	13.5	1.29e-05	0	56	0	622854144	61	5046
2026-01-03 02:03:04.11	346.83	42.53	-49.5	-52.1	13.7	6.10e-06	0	56	0	623902720	61	4981
2026-01-03 02:03:05.10	346.41	42.69	-49.4	-52.1	13.7	9.10e-06	0	56	0	625999872	61	4968
2026-01-03 02:03:06.08	345.99	42.83	-49.2	-51.7	14.1	4.50e-06	0	56	0	628097024	61	4747
2026-01-03 02:03:07.07	345.57	42.98	-49.1	-51.6	14.2	7.00e-07	0	56	0	630194176	61	4685
2026-01-03 02:03:08.06	345.14	43.13	-49.4	-52.0	13.9	4.50e-06	0	56	0	632291328	61	4874
2026-01-03 02:03:09.05	344.70	43.27	-49.0	-51.3	14.6	1.50e-06	0	56	0	633339904	61	4509
2026-01-03 02:03:10.04	344.26	43.42	-48.7	-50.9	15.0	0.00e+00	0	56	0	635437056	60	4557
2026-01-03 02:03:11.03	343.82	43.56	-48.5	-50.5	15.4	0.00e+00	0	56	0	637534208	60	4355
2026-01-03 02:03:12.02	343.37	43.70	-48.3	-50.2	15.7	0.00e+00	0	56	0	639631360	59	4479
2026-01-03 02:03:13.02	342.92	43.84	-48.5	-50.5	15.4	0.00e+00	0	56	0	640679936	59	4644
2026-01-03 02:03:14.01	342.46	43.98	-48.6	-50.6	15.2	0.00e+00	0	56	0	642777088	59	4693
2026-01-03 02:03:15.00	342.01	44.12	-48.4	-50.3	15.5	0.00e+00	0	56	0	644874240	59	4530
2026-01-03 02:03:15.98	341.55	44.25	-48.2	-50.0	15.9	0.00e+00	0	56	0	646971392	59	4363
2026-01-03 02:03:16.98	341.08	44.39	-48.1	-49.9	16.0	0.00e+00	0	56	0	648019968	59	4334
2026-01-03 02:03:17.97	340.61	44.52	-48.2	-50.1	15.8	0.00e+00	0	56	0	650117120	59	4396
2026-01-03 02:03:18.95	340.14	44.65	-48.3	-50.1	15.8	0.00e+00	0	56	0	652214272	59	4431
2026-01-03 02:03:19.95	339.65	44.78	-48.1	-50.0	15.9	0.00e+00	0	56	0	654311424	59	4356
2026-01-03 02:03:20.94	339.17	44.91	-48.1	-49.9	16.1	0.00e+00	0	56	0	656408576	59	4292
2026-01-03 02:03:21.91	338.69	45.03	-48.0	-49.8	16.1	0.00e+00	0	56	0	657457152	59	4273
2026-01-03 02:03:22.91	338.20	45.15	-47.8	-49.5	16.4	0.00e+00	0	56	0	659554304	58	4372
2026-01-03 02:03:23.89	337.71	45.27	-48.0	-49.8	16.1	0.00e+00	0	56	0	661651456	58	4515
2026-01-03 02:03:24.89	337.21	45.39	-48.6	-50.6	15.4	0.00e+00	0	56	0	663748608	58	4942
2026-01-03 02:03:25.88	336.71	45.51	-48.9	-51.2	14.8	7.00e-07	0	56	0	664797184	59	5003
2026-01-03 02:03:26.87	336.20	45.63	-49.1	-51.5	14.3	1.50e-06	0	56	0	666894336	60	4924
2026-01-03 02:03:27.85	335.70	45.74	-49.2	-51.7	14.1	7.00e-07	0	56	0	668991488	60	5026
2026-01-03 02:03:28.83	335.19	45.85	-49.2	-51.7	14.2	0.00e+00	0	56	0	671088640	60	5013
2026-01-03 02:03:29.82	334.68	45.96	-49.0	-51.3	14.5	7.00e-07	0	56	0	672137216	60	4784
2026-01-03 02:03:30.80	334.16	46.06	-49.0	-51.3	14.5	0.00e+00	0	56	0	674234368	60	4810
2026-01-03 02:03:31.80	333.64	46.16	-49.2	-51.6	14.3	1.50e-06	0	56	0	676331520	60	4956
2026-01-03 02:03:32.79	333.11	46.27	-49.3	-51.8	14.1	7.00e-07	0	56	0	678428672	60	5053
2026-01-03 02:03:33.78	332.58	46.36	-49.4	-51.9	14.0	3.00e-06	0	56	0	680525824	60	5148
2026-01-03 02:03:34.77	332.05	46.46	-49.5	-52.0	13.9	2.20e-06	0	56	0	681574400	60	5213
2026-01-03 02:03:35.76	331.51	46.55	-49.9	-52.8	13.1	1.44e-05	0	56	0	683671552	61	5344
2026-01-03 02:03:36.75	330.97	46.65	-50.1	-53.3	12.6	8.62e-05	0	57	0	685768704	62	5341
2026-01-03 02:03:37.74	330.43	46.73	-50.3	-53.5	12.4	1.13e-04	0	56	0	687865856	62	5488
2026-01-03 02:03:38.73	329.88	46.82	-50.5	-53.9	12.0	2.61e-04	0	56	0	688914432	62	5768
2026-01-03 02:03:39.72	329.34	46.90	-50.3	-53.5	12.4	2.62e-04	0	57	0	691011584	62	5516
2026-01-03 02:03:40.71	328.78	46.98	-50.2	-53.4	12.5	1.65e-04	0	56	0	693108736	62	5457
2026-01-03 02:03:41.70	328.23	47.06	-49.9	-52.9	12.9	7.40e-05	0	56	0	695205888	62	5150
2026-01-03 02:03:42.69	327.67	47.14	-50.1	-53.2	12.7	6.56e-05	0	56	0	697303040	62	5291
2026-01-03 02:03:43.68	327.11	47.21	-50.1	-53.2	12.6	6.63e-05	0	56	0	698351616	62	5334
2026-01-03 02:03:44.67	326.55	47.28	-50.2	-53.5	12.4	9.15e-05	0	56	0	700448768	62	5485
2026-01-03 02:03:45.66	325.99	47.34	-50.2	-53.5	12.4	1.76e-04	0	56	0	702545920	62	5508
2026-01-03 02:03:46.65	325.42	47.41	-50.2	-53.4	12.4	1.62e-04	0	56	0	704643072	62	5416
2026-01-03 02:03:47.65	324.85	47.47	-50.2	-53.3	12.6	1.89e-04	0	56	0	705691648	62	5366
2026-01-03 02:03:48.64	324.27	47.52	-50.4	-53.7	12.1	1.11e-04	0	56	0	707788800	62	5648
2026-01-03 02:03:49.63	323.70	47.58	-50.4	-53.7	12.1	2.48e-04	0	56	0	709885952	62	5622
2026-01-03 02:03:50.62	323.13	47.63	-50.3	-53.6	12.2	2.58e-04	0	56	0	711983104	62	5552
2026-01-03 02:03:51.61	322.55	47.68	-50.2	-53.5	12.4	1.88e-04	0	56	0	713031680	62	5492
2026-01-03 02:03:52.60	321.97	47.72	-50.1	-53.2	12.6	1.57e-04	0	56	0	715128832	62	5284
2026-01-03 02:03:53.59	321.39	47.76	-50.1	-53.1	12.7	7.47e-05	0	56	0	717225984	62	5278
2026-01-03 02:03:54.57	320.81	47.80	-50.0	-53.0	12.9	4.42e-05	0	56	0	719323136	62	5179
2026-01-03 02:03:55.56	320.23	47.84	-49.8	-52.7	13.1	5.26e-05	0	56	0	720371712	62	5009
2026-01-03 02:03:56.55	319.64	47.87	-49.6	-52.2	13.6	1.83e-05	0	56	0	722468864	62	4747
2026-01-03 02:03:57.55	319.05	47.90	-49.4	-52.0	13.9	6.80e-06	0	57	0	724566016	61	4917
2026-01-03 02:03:58.54	318.47	47.92	-49.4	-52.0	13.9	1.50e-06	0	56	0	726663168	61	4893
2026-01-03 02:03:59.53	317.88	47.95	-49.4	-52.0	13.8	3.00e-06	0	56	0	728760320	61	4926
2026-01-03 02:04:00.52	317.29	47.97	-49.7	-52.6	13.3	6.10e-06	0	57	0	729808896	61	5247
2026-01-03 02:04:01.50	316.71	47.98	-50.1	-53.2	12.7	5.64e-05	0	56	0	731906048	62	5282
2026-01-03 02:04:02.49	316.12	47.99	-50.2	-53.3	12.5	8.54e-05	0	56	0	734003200	62	5371
2026-01-03 02:04:03.49	315.52	48.00	-50.1	-53.1	12.7	1.36e-04	0	56	0	736100352	62	5262
2026-01-03 02:04:04.48	314.93	48.01	-50.0	-52.9	12.9	3.73e-05	0	56	0	737148928	62	5147
2026-01-03 02:04:05.47	314.34	48.01	-49.8	-52.6	13.2	2.13e-05	0	57	0	739246080	62	4975
2026-01-03 02:04:06.45	313.75	48.01	-49.7	-52.5	13.4	2.44e-05	0	56	0	741343232	62	4879
2026-01-03 02:04:07.44	313.16	48.01	-49.6	-52.3	13.6	1.22e-05	0	56	0	743440384	62	4765
2026-01-03 02:04:08.43	312.57	48.00	-49.4	-51.9	14.0	3.80e-06	0	57	0	744488960	61	4839
2026-01-03 02:04:09.42	311.98	47.99	-49.3	-51.8	14.1	7.00e-07	0	57	0	746586112	61	4797
2026-01-03 02:04:10.41	311.39	47.97	-49.4	-51.9	14.0	3.00e-06	0	57	0	748683264	61	4844
2026-01-03 02:04:11.40	310.80	47.96	-49.5	-52.2	13.7	6.10e-06	0	57	0	750780416	61	5025
2026-01-03 02:04:12.39	310.21	47.94	-49.9	-52.8	13.0	1.67e-05	0	57	0	752877568	61	5389
2026-01-03 02:04:13.39	309.62	47.91	-50.4	-53.7	12.2	1.72e-04	0	57	0	753926144	62	5641
2026-01-03 02:04:14.38	309.03	47.88	-50.4	-53.8	12.2	1.92e-04	0	57	0	756023296	62	5658
2026-01-03 02:04:15.37	308.45	47.85	-50.3	-53.5	12.3	2.61e-04	0	57	0	758120448	62	5494
2026-01-03 02:04:16.35	307.87	47.82	-50.1	-53.1	12.8	8.31e-05	0	57	0	760217600	62	5230
2026-01-03 02:04:17.34	307.29	47.78	-49.8	-52.6	13.3	3.50e-05	0	57	0	761266176	62	4961
2026-01-03 02:04:18.33	306.71	47.74	-49.9	-52.8	13.1	2.51e-05	0	57	0	763363328	62	5057
2026-01-03 02:04:19.32	306.13	47.70	-49.9	-52.8	13.1	4.27e-05	0	57	0	765460480	62	5052
2026-01-03 02:04:20.32	305.54	47.65	-49.7	-52.5	13.4	1.98e-05	0	57	0	767557632	62	4899
2026-01-03 02:04:21.31	304.96	47.60	-49.7	-52.6	13.3	1.29e-05	0	57	0	769654784	62	4949
2026-01-03 02:04:22.30	304.39	47.55	-50.3	-53.5	12.4	2.28e-05	0	57	0	770703360	62	5468
2026-01-03 02:04:23.28	303.82	47.50	-50.6	-54.1	11.7	5.84e-04	0	57	0	772800512	63	5559
2026-01-03 02:04:24.27	303.25	47.44	-50.6	-54.1	11.7	4.88e-04	0	57	0	774897664	63	5567
2026-01-03 02:04:25.26	302.68	47.38	-50.6	-54.1	11.8	9.80e-04	0	57	0	776994816	63	5550
2026-01-03 02:04:26.25	302.12	47.31	-50.2	-53.4	12.5	2.94e-04	0	57	0	778043392	63	5116
2026-01-03 02:04:27.24	301.55	47.24	-49.9	-52.7	13.2	3.66e-05	0	57	0	780140544	62	5029
2026-01-03 02:04:28.23	300.99	47.17	-49.9	-52.8	13.0	2.89e-05	0	57	0	782237696	62	5099
2026-01-03 02:04:29.21	300.44	47.10	-49.9	-52.8	13.0	2.74e-05	0	57	0	784334848	62	5091
2026-01-03 02:04:30.19	299.89	47.03	-50.0	-53.0	12.9	3.73e-05	0	57	0	785383424	62	5200
2026-01-03 02:04:31.17	299.34	46.95	-49.9	-52.9	12.9	3.96e-05	0	57	0	787480576	62	5151
2026-01-03 02:04:32.16	298.79	46.87	-50.1	-53.2	12.6	5.87e-05	0	56	0	789577728	62	5331
2026-01-03 02:04:33.15	298.24	46.78	-50.4	-53.8	12.0	2.33e-04	0	56	0	791674880	62	5701
2026-01-03 02:04:34.14	297.70	46.69	-50.2	-53.5	12.3	1.93e-04	0	57	0	793772032	62	5506
2026-01-03 02:04:35.14	297.15	46.60	-49.8	-52.6	13.2	5.34e-05	0	57	0	794820608	62	4966
2026-01-03 02:04:36.13	296.61	46.51	-49.6	-52.3	13.6	1.37e-05	0	56	0	796917760	62	4789
2026-01-03 02:04:37.11	296.09	46.42	-49.5	-52.2	13.7	6.10e-06	0	57	0	799014912	62	4712
2026-01-03 02:04:38.10	295.55	46.32	-49.8	-52.7	13.2	2.21e-05	0	56	0	801112064	62	5020
2026-01-03 02:04:39.10	295.02	46.22	-49.7	-52.5	13.3	1.14e-05	0	57	0	802160640	62	4918
2026-01-03 02:04:40.08	294.50	46.12	-49.9	-52.8	13.0	2.67e-05	0	57	0	804257792	62	5062
2026-01-03 02:04:41.07	293.98	46.01	-49.8	-52.6	13.3	3.58e-05	0	57	0	806354944	62	4974
2026-01-03 02:04:42.07	293.45	45.90	-49.9	-52.8	13.1	3.50e-05	0	57	0	808452096	62	5063
2026-01-03 02:04:43.05	292.95	45.80	-49.9	-52.8	13.1	2.89e-05	0	57	0	809500672	62	5058
2026-01-03 02:04:44.04	292.43	45.68	-50.0	-52.9	12.9	3.96e-05	0	56	0	811597824	62	5155
2026-01-03 02:04:45.03	291.93	45.57	-49.6	-52.2	13.6	2.28e-05	0	57	0	813694976	62	4747
2026-01-03 02:04:46.03	291.42	45.45	-49.5	-52.1	13.8	4.50e-06	0	57	0	815792128	62	4680
2026-01-03 02:04:47.01	290.92	45.34	-49.4	-52.0	13.8	5.30e-06	0	56	0	816840704	61	4905
2026-01-03 02:04:48.00	290.43	45.22	-49.6	-52.3	13.6	3.80e-06	0	57	0	818937856	61	5062
2026-01-03 02:04:48.98	289.94	45.10	-49.4	-52.0	13.9	4.50e-06	0	57	0	821035008	61	4878
2026-01-03 02:04:49.97	289.45	44.97	-49.3	-51.9	14.0	2.20e-06	0	57	0	823132160	61	4825
2026-01-03 02:04:50.97	288.96	44.84	-49.3	-51.7	14.2	1.50e-06	0	57	0	825229312	61	4744
2026-01-03 02:04:51.95	288.49	44.72	-49.0	-51.3	14.6	7.00e-07	0	57	0	826277888	61	4514
2026-01-03 02:04:52.93	288.01	44.59	-48.9	-51.2	14.7	0.00e+00	0	57	0	828375040	60	4710
2026-01-03 02:04:53.92	287.54	44.46	-49.0	-51.3	14.6	7.00e-07	0	57	0	830472192	60	4790
2026-01-03 02:04:54.91	287.07	44.33	-48.9	-51.1	14.8	0.00e+00	0	57	0	832569344	60	4671
2026-01-03 02:04:55.90	286.61	44.19	-48.6	-50.7	15.1	0.00e+00	0	57	0	833617920	60	4462
2026-01-03 02:04:56.89	286.15	44.05	-48.5	-50.5	15.4	0.00e+00	0	57	0	835715072	59	4644
2026-01-03 02:04:57.89	285.68	43.91	-48.4	-50.3	15.6	0.00e+00	0	57	0	837812224	59	4536
2026-01-03 02:04:58.88	285.23	43.77	-48.4	-50.4	15.5	0.00e+00	0	57	0	839909376	59	4576
2026-01-03 02:04:59.87	284.78	43.63	-48.4	-50.4	15.6	0.00e+00	0	57	0	840957952	59	4562
2026-01-03 02:05:00.87	284.33	43.49	-48.1	-49.9	15.9	0.00e+00	0	57	0	843055104	59	4323
2026-01-03 02:05:01.86	283.89	43.35	-47.7	-49.3	16.6	0.00e+00	0	57	0	845152256	58	4260
2026-01-03 02:05:02.85	283.45	43.20	-47.5	-49.1	16.8	0.00e+00	0	57	0	847249408	58	4152
2026-01-03 02:05:03.83	283.02	43.06	-47.6	-49.2	16.8	0.00e+00	0	57	0	849346560	58	4206
2026-01-03 02:05:04.82	282.59	42.91	-47.6	-49.2	16.7	0.00e+00	0	56	0	850395136	58	4225
2026-01-03 02:05:05.81	282.17	42.76	-47.5	-49.2	16.7	0.00e+00	0	57	0	852492288	58	4195
2026-01-03 02:05:06.79	281.75	42.61	-47.5	-49.1	16.8	0.00e+00	0	57	0	854589440	58	4153
2026-01-03 02:05:07.78	281.33	42.46	-47.4	-49.0	16.9	0.00e+00	0	57	0	856686592	57	4352
2026-01-03 02:05:08.76	280.92	42.31	-47.5	-49.1	16.7	0.00e+00	0	57	0	857735168	57	4430
2026-01-03 02:05:09.75	280.51	42.15	-47.4	-48.9	16.9	0.00e+00	0	57	0	859832320	57	4337
2026-01-03 02:05:10.74	280.11	42.00	-47.3	-48.8	17.2	0.00e+00	0	57	0	861929472	57	4252
2026-01-03 02:05:11.72	279.71	41.85	-47.3	-48.9	17.0	0.00e+00	0	57	0	864026624	57	4309
2026-01-03 02:05:12.71	279.31	41.69	-47.5	-49.0	16.9	0.00e+00	0	57	0	865075200	57	4391
2026-01-03 02:05:13.70	278.92	41.53	-47.7	-49.3	16.6	0.00e+00	0	57	0	867172352	57	4522
2026-01-03 02:05:14.69	278.53	41.37	-47.6	-49.3	16.6	0.00e+00	0	57	0	869269504	57	4504
2026-01-03 02:05:15.69	278.14	41.21	-47.5	-49.1	16.8	0.00e+00	0	57	0	871366656	57	4421
2026-01-03 02:05:16.68	277.75	41.05	-47.5	-49.2	16.7	0.00e+00	0	57	0	873463808	57	4448
2026-01-03 02:05:17.66	277.38	40.90	-47.7	-49.4	16.5	0.00e+00	0	57	0	874512384	57	4554
2026-01-03 02:05:18.66	277.00	40.73	-47.8	-49.6	16.3	0.00e+00	0	57	0	876609536	57	4659
2026-01-03 02:05:19.65	276.63	40.57	-48.2	-50.1	15.8	0.00e+00	0	57	0	878706688	58	4679
2026-01-03 02:05:20.64	276.26	40.41	-48.2	-50.1	15.8	0.00e+00	0	57	0	880803840	58	4695
2026-01-03 02:05:21.62	275.90	40.25	-48.4	-50.4	15.6	0.00e+00	0	57	0	881852416	58	4839
2026-01-03 02:05:22.61	275.54	40.08	-48.3	-50.2	15.7	0.00e+00	0	57	0	883949568	58	4740
2026-01-03 02:05:23.60	275.18	39.92	-47.8	-49.6	16.3	0.00e+00	0	57	0	886046720	58	4393
2026-01-03 02:05:24.59	274.83	39.76	-47.7	-49.4	16.5	0.00e+00	0	57	0	888143872	58	4307
2026-01-03 02:05:25.58	274.48	39.59	-47.5	-49.2	16.8	0.00e+00	0	57	0	889192448	58	4216
2026-01-03 02:05:26.57	274.14	39.42	-47.7	-49.3	16.5	0.00e+00	0	57	0	891289600	58	4289
2026-01-03 02:05:27.56	273.79	39.26	-48.0	-49.8	16.1	0.00e+00	0	57	0	893386752	58	4529
2026-01-03 02:05:28.55	273.45	39.09	-48.0	-49.8	16.1	0.00e+00	0	57	0	895483904	58	4508
2026-01-03 02:05:29.54	273.12	38.93	-47.8	-49.5	16.3	0.00e+00	0	57	0	897581056	58	4389
2026-01-03 02:05:30.53	272.79	38.76	-47.6	-49.2	16.6	0.00e+00	0	57	0	898629632	58	4238
2026-01-03 02:05:31.52	272.46	38.59	-47.5	-49.1	16.7	0.00e+00	0	57	0	900726784	58	4192
2026-01-03 02:05:32.51	272.13	38.42	-47.7	-49.4	16.5	0.00e+00	0	57	0	902823936	58	4301
2026-01-03 02:05:33.51	271.81	38.26	-47.7	-49.4	16.4	0.00e+00	0	57	0	904921088	58	4323
2026-01-03 02:05:34.50	271.49	38.09	-48.1	-49.8	16.1	0.00e+00	0	57	0	905969664	58	4536
2026-01-03 02:05:35.49	271.17	37.92	-48.3	-50.2	15.7	0.00e+00	0	57	0	908066816	58	4742
2026-01-03 02:05:36.49	270.86	37.75	-48.4	-50.4	15.4	0.00e+00	0	57	0	910163968	58	4849
2026-01-03 02:05:37.48	270.55	37.58	-48.6	-50.6	15.2	0.00e+00	0	57	0	912261120	59	4700
2026-01-03 02:05:38.47	270.24	37.41	-48.5	-50.6	15.3	0.00e+00	0	57	0	913309696	59	4658
2026-01-03 02:05:39.46	269.94	37.25	-48.3	-50.3	15.6	0.00e+00	0	57	0	915406848	59	4503
2026-01-03 02:05:40.45	269.64	37.08	-48.4	-50.4	15.5	0.00e+00	0	57	0	917504000	59	4557
2026-01-03 02:05:41.45	269.34	36.91	-48.7	-50.7	15.2	0.00e+00	0	57	0	919601152	59	4754
2026-01-03 02:05:42.44	269.05	36.74	-48.9	-51.1	14.7	0.00e+00	0	57	0	921698304	59	4957
2026-01-03 02:05:43.43	268.76	36.57	-49.2	-51.7	14.2	0.00e+00	0	57	0	922746880	60	5024
2026-01-03 02:05:44.43	268.47	36.40	-49.3	-51.7	14.2	2.20e-06	0	57	0	924844032	60	5017
2026-01-03 02:05:45.42	268.19	36.23	-49.4	-52.0	13.9	7.00e-07	0	57	0	926941184	60	5184
2026-01-03 02:05:46.40	267.91	36.06	-49.4	-52.0	13.9	4.50e-06	0	57	0	929038336	60	5215
2026-01-03 02:05:47.39	267.63	35.90	-49.6	-52.3	13.5	5.30e-06	0	57	0	931135488	61	5091
2026-01-03 02:05:48.38	267.36	35.73	-49.7	-52.6	13.3	1.67e-05	0	57	0	932184064	61	5238
2026-01-03 02:05:49.36	267.09	35.56	-49.8	-52.7	13.2	1.75e-05	0	57	0	934281216	61	5292
2026-01-03 02:05:50.35	266.82	35.39	-50.0	-52.9	13.0	4.11e-05	0	57	0	936378368	61	5453
2026-01-03 02:05:51.35	266.55	35.23	-50.1	-53.4	12.4	8.69e-05	0	57	0	938475520	62	5414
2026-01-03 02:05:52.33	266.29	35.06	-50.4	-53.9	11.9	2.62e-04	0	57	0	939524096	62	5729
2026-01-03 02:05:53.32	266.02	34.89	-50.6	-54.3	11.5	6.72e-04	0	57	0	941621248	63	5666
2026-01-03 02:05:54.31	265.77	34.73	-50.7	-54.5	11.2	1.28e-03	0	57	0	943718400	63	5841
2026-01-03 02:05:55.29	265.51	34.56	-50.7	-54.6	11.3	1.05e-03	0	57	0	945815552	63	5858
2026-01-03 02:05:56.28	265.26	34.39	-50.7	-54.6	11.2	1.19e-03	0	57	0	946864128	63	5886
2026-01-03 02:05:57.27	265.01	34.23	-50.9	-55.0	10.7	2.57e-03	0	57	0	948961280	63	6149
2026-01-03 02:05:58.26	264.76	34.06	-50.9	-54.9	10.8	3.04e-03	0	57	0	951058432	63	6116
2026-01-03 02:05:59.25	264.51	33.90	-50.9	-55.3	10.3	4.56e-03	0	57	0	953155584	64	6011
2026-01-03 02:06:00.24	264.27	33.73	-50.8	-54.9	10.8	3.48e-03	0	57	0	954204160	64	5765
2026-01-03 02:06:01.23	264.03	33.56	-50.7	-54.7	11.0	1.82e-03	0	57	0	956301312	64	5623
2026-01-03 02:06:02.22	263.79	33.40	-50.7	-54.6	11.0	1.92e-03	0	57	0	958398464	64	5591
2026-01-03 02:06:03.21	263.55	33.24	-50.7	-54.6	11.0	1.86e-03	0	57	0	960495616	64	5583
2026-01-03 02:06:04.20	263.32	33.07	-50.5	-54.1	11.5	1.28e-03	0	57	0	962592768	64	5263
2026-01-03 02:06:05.18	263.09	32.91	-50.4	-53.9	11.8	5.53e-04	0	57	0	963641344	63	5448
2026-01-03 02:06:06.17	262.86	32.75	-50.4	-54.1	11.7	5.40e-04	0	57	0	965738496	63	5530
2026-01-03 02:06:07.16	262.64	32.58	-50.4	-53.9	11.8	3.93e-04	0	57	0	967835648	63	5464
2026-01-03 02:06:08.15	262.41	32.42	-50.5	-54.1	11.6	4.61e-04	0	57	0	969932800	63	5581
2026-01-03 02:06:09.14	262.19	32.26	-50.5	-54.1	11.6	6.26e-04	0	57	0	970981376	63	5571
2026-01-03 02:06:10.14	261.97	32.09	-50.4	-53.9	11.8	5.71e-04	0	57	0	973078528	63	5404
2026-01-03 02:06:11.12	261.75	31.93	-50.2	-53.4	12.4	3.00e-04	0	57	0	975175680	63	5147
2026-01-03 02:06:12.12	261.54	31.77	-50.1	-53.2	12.6	1.58e-04	0	57	0	977272832	63	5005
2026-01-03 02:06:13.10	261.33	31.61	-49.9	-52.9	12.9	5.26e-05	0	57	0	978321408	62	5147
2026-01-03 02:06:14.09	261.11	31.45	-49.8	-52.7	13.1	4.73e-05	0	57	0	980418560	62	5020
2026-01-03 02:06:15.07	260.91	31.29	-49.5	-52.3	13.4	1.60e-05	0	57	0	982515712	62	4774
2026-01-03 02:06:16.06	260.70	31.13	-49.5	-52.2	13.5	7.60e-06	0	57	0	984612864	62	4725
2026-01-03 02:06:17.05	260.50	30.97	-49.4	-52.0	13.7	6.80e-06	0	57	0	986710016	61	4906
2026-01-03 02:06:18.03	260.30	30.82	-49.5	-52.2	13.6	6.80e-06	0	57	0	987758592	61	5023
2026-01-03 02:06:19.02	260.09	30.66	-49.6	-52.4	13.4	1.14e-05	0	57	0	989855744	61	5138
2026-01-03 02:06:20.02	259.89	30.50	-49.8	-52.8	13.0	2.67e-05	0	57	0	991952896	61	5356
2026-01-03 02:06:21.01	259.70	30.34	-49.9	-53.0	12.8	5.64e-05	0	57	0	994050048	61	5494
2026-01-03 02:06:22.00	259.50	30.19	-49.9	-52.8	12.9	5.41e-05	0	57	0	995098624	61	5377
2026-01-03 02:06:22.98	259.31	30.03	-49.7	-52.6	13.2	3.20e-05	0	57	0	997195776	61	5228
2026-01-03 02:06:23.97	259.12	29.88	-49.6	-52.3	13.5	1.67e-05	0	57	0	999292928	61	5064
2026-01-03 02:06:24.96	258.93	29.72	-49.5	-52.2	13.7	6.10e-06	0	57	0	1001390080	61	4998
2026-01-03 02:06:25.95	258.74	29.56	-49.5	-52.2	13.6	6.10e-06	0	57	0	1002438656	61	4998
2026-01-03 02:06:26.95	258.55	29.41	-49.6	-52.5	13.3	1.52e-05	0	57	0	1004535808	61	5172
2026-01-03 02:06:27.94	258.37	29.26	-49.6	-52.4	13.4	1.37e-05	0	57	0	1006632960	61	5116
2026-01-03 02:06:28.92	258.19	29.10	-49.8	-52.8	13.0	2.51e-05	0	57	0	1008730112	61	5343
2026-01-03 02:06:29.91	258.01	28.95	-49.7	-52.6	13.2	4.19e-05	0	57	0	1009778688	61	5256
2026-01-03 02:06:30.91	257.83	28.80	-49.8	-52.8	13.0	2.51e-05	0	57	0	1011875840	61	5341
2026-01-03 02:06:31.90	257.65	28.65	-49.9	-52.9	12.8	3.20e-05	0	57	0	1013972992	61	5463
2026-01-03 02:06:32.88	257.48	28.50	-49.8	-52.7	13.0	4.65e-05	0	57	0	1016070144	61	5340
2026-01-03 02:06:33.87	257.31	28.34	-49.7	-52.5	13.3	2.74e-05	0	57	0	1018167296	61	5199
2026-01-03 02:06:34.86	257.13	28.19	-49.6	-52.4	13.4	2.05e-05	0	57	0	1019215872	61	5116
2026-01-03 02:06:35.85	256.96	28.04	-49.4	-52.1	13.7	9.90e-06	0	57	0	1021313024	61	4938
2026-01-03 02:06:36.84	256.79	27.90	-49.4	-51.9	13.9	4.50e-06	0	57	0	1023410176	61	4861
2026-01-03 02:06:37.83	256.63	27.75	-49.4	-52.0	13.8	4.50e-06	0	57	0	1025507328	61	4893
2026-01-03 02:06:38.82	256.46	27.60	-49.5	-52.3	13.5	8.30e-06	0	57	0	1026555904	61	5085
2026-01-03 02:06:39.80	256.30	27.45	-49.7	-52.6	13.2	1.44e-05	0	57	0	1028653056	61	5244
2026-01-03 02:06:40.80	256.14	27.30	-49.8	-52.8	13.0	3.28e-05	0	57	0	1030750208	61	5387
2026-01-03 02:06:41.79	255.97	27.16	-49.9	-53.0	12.7	6.33e-05	0	57	0	1032847360	61	5488
2026-01-03 02:06:42.78	255.82	27.01	-49.9	-53.0	12.7	7.01e-05	0	57	0	1033895936	61	5471
2026-01-03 02:06:43.77	255.66	26.87	-49.9	-53.0	12.8	7.09e-05	0	57	0	1035993088	61	5475
2026-01-03 02:06:44.76	255.50	26.72	-49.6	-52.5	13.3	2.89e-05	0	57	0	1038090240	61	5175
2026-01-03 02:06:45.74	255.35	26.58	-49.6	-52.4	13.4	1.67e-05	0	57	0	1040187392	61	5133
2026-01-03 02:06:46.74	255.19	26.43	-49.4	-52.0	13.8	7.60e-06	0	57	0	1042284544	61	4920
2026-01-03 02:06:47.73	255.04	26.29	-49.4	-52.1	13.7	6.10e-06	0	57	0	1043333120	61	4942
2026-01-03 02:06:48.73	254.89	26.14	-49.3	-51.9	13.9	4.50e-06	0	57	0	1045430272	61	4837
2026-01-03 02:06:49.72	254.74	26.00	-49.1	-51.5	14.3	7.00e-07	0	57	0	1047527424	61	4622
2026-01-03 02:06:50.71	254.59	25.86	-48.9	-51.3	14.5	7.00e-07	0	57	0	1049624576	60	4763
2026-01-03 02:06:51.71	254.44	25.72	-48.8	-51.2	14.6	0.00e+00	0	57	0	1050673152	60	4728
2026-01-03 02:06:52.70	254.30	25.58	-48.9	-51.2	14.6	0.00e+00	0	57	0	1052770304	60	4746
2026-01-03 02:06:53.69	254.15	25.44	-49.0	-51.3	14.5	7.00e-07	0	57	0	1054867456	60	4795
2026-01-03 02:06:54.68	254.01	25.30	-49.1	-51.6	14.2	7.00e-07	0	57	0	1056964608	60	4936
2026-01-03 02:06:55.67	253.87	25.16	-49.1	-51.6	14.2	1.50e-06	0	57	0	1059061760	60	4937
2026-01-03 02:06:56.66	253.73	25.02	-49.2	-51.7	14.1	3.00e-06	0	57	0	1060110336	60	5000
2026-01-03 02:06:57.65	253.59	24.88	-49.1	-51.6	14.1	2.20e-06	0	57	0	1062207488	60	4951
2026-01-03 02:06:58.64	253.45	24.74	-49.1	-51.5	14.3	7.00e-07	0	57	0	1064304640	60	4871
2026-01-03 02:06:59.62	253.31	24.61	-49.0	-51.4	14.4	0.00e+00	0	57	0	1066401792	60	4845
2026-01-03 02:07:00.61	253.18	24.47	-48.9	-51.2	14.5	7.00e-07	0	57	0	1067450368	60	4752
2026-01-03 02:07:01.59	253.05	24.34	-49.1	-51.5	14.3	1.50e-06	0	57	0	1069547520	60	4913
2026-01-03 02:07:02.57	252.91	24.20	-49.0	-51.4	14.4	7.00e-07	0	57	0	1071644672	60	4840
2026-01-03 02:07:03.56	252.78	24.07	-48.9	-51.2	14.5	7.00e-07	0	57	0	1073741824	60	4756
2026-01-03 02:07:04.55	252.65	23.94	-48.9	-51.2	14.6	0.00e+00	0	57	0	1074790400	60	4722
2026-01-03 02:07:05.54	252.52	23.80	-49.1	-51.5	14.3	0.00e+00	0	57	0	1076887552	60	4896
2026-01-03 02:07:06.53	252.39	23.67	-49.1	-51.5	14.2	1.50e-06	0	57	0	1078984704	60	4900
2026-01-03 02:07:07.51	252.27	23.54	-48.9	-51.3	14.4	7.00e-07	0	57	0	1081081856	60	4777
2026-01-03 02:07:08.50	252.14	23.40	-48.9	-51.3	14.4	0.00e+00	0	57	0	1083179008	60	4801
2026-01-03 02:07:09.49	252.02	23.27	-48.9	-51.3	14.5	0.00e+00	0	57	0	1084227584	60	4769
2026-01-03 02:07:10.49	251.89	23.14	-48.7	-50.8	14.9	1.50e-06	0	57	0	1086324736	60	4542
2026-01-03 02:07:11.47	251.77	23.01	-48.6	-50.7	15.1	0.00e+00	0	57	0	1088421888	60	4453
2026-01-03 02:07:12.46	251.65	22.88	-48.6	-50.7	15.1	0.00e+00	0	57	0	1090519040	60	4449
2026-01-03 02:07:13.45	251.53	22.75	-48.6	-50.7	15.1	0.00e+00	0	57	0	1091567616	60	4461
2026-01-03 02:07:14.45	251.40	22.62	-48.5	-50.6	15.1	0.00e+00	0	57	0	1093664768	60	4436
2026-01-03 02:07:15.44	251.29	22.49	-48.6	-50.7	15.1	0.00e+00	0	57	0	1095761920	60	4476
2026-01-03 02:07:16.43	251.17	22.36	-48.7	-50.9	14.8	0.00e+00	0	57	0	1097859072	60	4598
2026-01-03 02:07:17.42	251.05	22.24	-48.8	-51.1	14.6	0.00e+00	0	57	0	1098907648	60	4687
2026-01-03 02:07:18.40	250.94	22.11	-48.7	-50.9	14.8	7.00e-07	0	57	0	1101004800	60	4596
2026-01-03 02:07:19.39	250.82	21.98	-49.0	-51.4	14.4	7.00e-07	0	57	0	1103101952	60	4829
2026-01-03 02:07:20.38	250.71	21.86	-49.1	-51.5	14.2	7.00e-07	0	57	0	1105199104	60	4909
2026-01-03 02:07:21.38	250.59	21.73	-49.1	-51.5	14.2	7.00e-07	0	57	0	1106247680	60	4899
2026-01-03 02:07:22.37	250.48	21.61	-49.0	-51.4	14.3	0.00e+00	0	57	0	1108344832	60	4870
2026-01-03 02:07:23.36	250.37	21.48	-49.1	-51.6	14.1	1.50e-06	0	57	0	1110441984	60	4946
2026-01-03 02:07:24.35	250.26	21.36	-49.1	-51.6	14.1	4.50e-06	0	57	0	1112539136	60	4955
2026-01-03 02:07:25.34	250.15	21.23	-49.0	-51.4	14.4	1.50e-06	0	57	0	1114636288	60	4818
2026-01-03 02:07:26.32	250.04	21.11	-49.0	-51.4	14.3	7.00e-07	0	57	0	1115684864	60	4858
2026-01-03 02:07:27.32	249.93	20.99	-49.1	-51.6	14.1	0.00e+00	0	57	0	1117782016	60	4954
2026-01-03 02:07:28.30	249.83	20.87	-49.3	-51.9	13.8	7.00e-07	0	57	0	1119879168	60	5119
2026-01-03 02:07:29.30	249.72	20.74	-49.1	-51.5	14.2	3.80e-06	0	57	0	1121976320	60	4896
2026-01-03 02:07:30.28	249.62	20.62	-49.0	-51.4	14.3	7.00e-07	0	57	0	1123024896	60	4830
2026-01-03 02:07:31.27	249.51	20.50	-48.8	-51.2	14.5	0.00e+00	0	57	0	1125122048	60	4737
2026-01-03 02:07:32.26	249.41	20.38	-48.9	-51.2	14.5	0.00e+00	0	57	0	1127219200	60	4751
2026-01-03 02:07:33.25	249.31	20.26	-49.0	-51.4	14.3	0.00e+00	0	57	0	1129316352	60	4842
2026-01-03 02:07:34.24	249.20	20.14	-49.1	-51.5	14.2	2.20e-06	0	57	0	1131413504	60	4898
2026-01-03 02:07:35.22	249.10	20.03	-49.1	-51.6	14.2	7.00e-07	0	57	0	1132462080	60	4941
2026-01-03 02:07:36.21	249.00	19.91	-49.0	-51.5	14.2	2.20e-06	0	57	0	1134559232	60	4918
2026-01-03 02:07:37.20	248.90	19.79	-49.2	-51.8	13.9	7.00e-07	0	57	0	1136656384	60	5044
2026-01-03 02:07:38.19	248.81	19.67	-49.3	-51.8	13.8	2.20e-06	0	57	0	1138753536	60	5075
2026-01-03 02:07:39.19	248.71	19.55	-49.0	-51.5	14.2	5.30e-06	0	57	0	1139802112	60	4889
2026-01-03 02:07:40.17	248.61	19.44	-48.9	-51.3	14.4	3.00e-06	0	57	0	1141899264	60	4797
2026-01-03 02:07:41.14	248.52	19.33	-49.0	-51.3	14.4	1.50e-06	0	57	0	1143996416	60	4798
2026-01-03 02:07:42.13	248.42	19.21	-49.0	-51.4	14.3	7.00e-07	0	57	0	1146093568	60	4816
2026-01-03 02:07:43.11	248.33	19.10	-49.1	-51.6	14.1	0.00e+00	0	57	0	1147142144	60	4971
2026-01-03 02:07:44.11	248.23	18.98	-48.8	-51.3	14.4	2.20e-06	0	57	0	1149239296	60	4784
2026-01-03 02:07:45.10	248.14	18.87	-48.9	-51.2	14.5	0.00e+00	0	57	0	1151336448	60	4729
2026-01-03 02:07:46.10	248.05	18.75	-48.8	-51.2	14.5	0.00e+00	0	57	0	1153433600	60	4723
2026-01-03 02:07:47.09	247.95	18.64	-49.0	-51.3	14.3	7.00e-07	0	57	0	1155530752	60	4810
2026-01-03 02:07:48.08	247.86	18.52	-49.2	-51.7	14.0	1.50e-06	0	57	0	1156579328	60	5026
2026-01-03 02:07:49.07	247.77	18.41	-49.1	-51.7	14.0	2.20e-06	0	57	0	1158676480	60	4999
2026-01-03 02:07:50.06	247.68	18.30	-49.2	-51.7	14.0	2.20e-06	0	57	0	1160773632	60	5005
2026-01-03 02:07:51.06	247.59	18.19	-49.3	-51.9	13.7	3.00e-06	0	57	0	1162870784	60	5159
2026-01-03 02:07:52.05	247.50	18.08	-49.4	-52.1	13.5	8.30e-06	0	57	0	1163919360	60	5251
2026-01-03 02:07:53.04	247.42	17.97	-49.1	-51.6	14.0	3.80e-06	0	57	0	1166016512	60	4965
2026-01-03 02:07:54.03	247.33	17.85	-49.0	-51.5	14.1	7.00e-07	0	57	0	1168113664	60	4904
2026-01-03 02:07:55.02	247.24	17.74	-49.0	-51.4	14.3	3.80e-06	0	57	0	1170210816	60	4840
2026-01-03 02:07:56.00	247.16	17.64	-49.0	-51.5	14.2	1.50e-06	0	57	0	1171259392	60	4875
2026-01-03 02:07:56.99	247.07	17.53	-49.2	-51.8	13.9	7.00e-07	0	57	0	1173356544	60	5081
2026-01-03 02:07:57.98	246.99	17.42	-49.2	-51.7	13.9	2.20e-06	0	57	0	1175453696	60	5028
2026-01-03 02:07:58.97	246.90	17.31	-49.0	-51.5	14.2	3.00e-06	0	57	0	1177550848	60	4884
2026-01-03 02:07:59.96	246.82	17.20	-49.0	-51.4	14.2	0.00e+00	0	57	0	1179648000	60	4844
2026-01-03 02:08:00.93	246.74	17.10	-49.2	-51.7	13.9	7.00e-07	0	57	0	1180696576	60	5028
2026-01-03 02:08:01.92	246.66	16.99	-49.2	-51.7	13.9	3.80e-06	0	57	0	1182793728	60	5035
2026-01-03 02:08:02.91	246.57	16.88	-49.3	-52.0	13.6	4.50e-06	0	57	0	1184890880	60	5201
2026-01-03 02:08:03.90	246.49	16.78	-49.3	-52.0	13.6	1.14e-05	0	57	0	1186988032	60	5172
2026-01-03 02:08:04.89	246.41	16.67	-49.4	-52.1	13.5	1.14e-05	0	57	0	1188036608	60	5250
2026-01-03 02:08:05.89	246.33	16.56	-49.4	-52.2	13.4	1.83e-05	0	57	0	1190133760	60	5325
2026-01-03 02:08:06.87	246.25	16.46	-49.4	-52.3	13.4	1.52e-05	0	57	0	1192230912	60	5369
2026-01-03 02:08:07.87	246.17	16.36	-49.4	-52.3	13.3	1.83e-05	0	57	0	1194328064	60	5381
2026-01-03 02:08:08.85	246.10	16.25	-49.6	-52.6	13.1	3.20e-05	0	57	0	1195376640	61	5219
2026-01-03 02:08:09.85	246.02	16.15	-49.6	-52.5	13.1	3.81e-05	0	57	0	1197473792	61	5165
2026-01-03 02:08:10.84	245.94	16.04	-49.5	-52.3	13.2	2.89e-05	0	57	0	1199570944	61	5077
2026-01-03 02:08:11.83	245.87	15.94	-49.6	-52.5	13.2	2.05e-05	0	57	0	1201668096	61	5166
2026-01-03 02:08:12.83	245.79	15.84	-49.5	-52.4	13.2	2.67e-05	0	57	0	1202716672	61	5109
2026-01-03 02:08:13.82	245.71	15.73	-49.4	-52.2	13.4	1.52e-05	0	57	0	1204813824	61	4989
2026-01-03 02:08:14.80	245.64	15.63	-49.4	-52.2	13.4	1.67e-05	0	57	0	1206910976	61	5007
2026-01-03 02:08:15.80	245.56	15.53	-49.6	-52.5	13.1	2.28e-05	0	57	0	1209008128	61	5180
2026-01-03 02:08:16.79	245.49	15.43	-49.5	-52.3	13.3	2.89e-05	0	57	0	1211105280	61	5046
2026-01-03 02:08:17.77	245.42	15.33	-49.3	-52.0	13.6	5.30e-06	0	57	0	1212153856	61	4891
2026-01-03 02:08:18.76	245.35	15.23	-49.2	-51.8	13.8	6.10e-06	0	57	0	1214251008	61	4765
2026-01-03 02:08:19.75	245.27	15.13	-49.1	-51.7	13.9	2.20e-06	0	58	0	1216348160	61	4722
2026-01-03 02:08:20.74	245.20	15.03	-49.1	-51.7	13.9	2.20e-06	0	57	0	1218445312	61	4730
2026-01-03 02:08:21.74	245.13	14.93	-49.2	-51.8	13.7	6.10e-06	0	57	0	1219493888	61	4808
2026-01-03 02:08:22.74	245.06	14.83	-49.1	-51.7	13.9	5.30e-06	0	57	0	1221591040	61	4740
2026-01-03 02:08:23.73	244.99	14.73	-49.0	-51.6	14.0	3.80e-06	0	57	0	1223688192	61	4659
2026-01-03 02:08:24.71	244.92	14.63	-49.0	-51.6	14.0	3.80e-06	0	57	0	1225785344	61	4670
2026-01-03 02:08:25.70	244.85	14.53	-49.0	-51.5	14.1	1.50e-06	0	58	0	1227882496	61	4604
2026-01-03 02:08:26.68	244.78	14.44	-49.0	-51.5	14.0	1.50e-06	0	57	0	1228931072	61	4649
2026-01-03 02:08:27.68	244.71	14.34	-49.1	-51.7	13.8	6.10e-06	0	57	0	1231028224	61	4747
2026-01-03 02:08:28.66	244.65	14.24	-49.1	-51.7	13.9	2.20e-06	0	57	0	1233125376	61	4721
2026-01-03 02:08:29.65	244.58	14.15	-49.2	-51.8	13.7	9.10e-06	0	57	0	1235222528	61	4793
2026-01-03 02:08:30.63	244.51	14.05	-49.2	-51.8	13.8	1.50e-06	0	57	0	1236271104	61	4793
2026-01-03 02:08:31.62	244.45	13.96	-49.3	-52.1	13.5	5.30e-06	0	57	0	1238368256	61	4944
2026-01-03 02:08:32.61	244.38	13.86	-49.4	-52.3	13.3	2.36e-05	0	57	0	1240465408	61	5053
2026-01-03 02:08:33.60	244.31	13.77	-49.4	-52.2	13.3	1.67e-05	0	57	0	1242562560	61	5039
2026-01-03 02:08:34.58	244.25	13.67	-49.6	-52.7	12.9	3.12e-05	0	57	0	1243611136	61	5281
2026-01-03 02:08:35.56	244.19	13.58	-49.7	-52.7	12.8	5.95e-05	0	57	0	1245708288	61	5319
2026-01-03 02:08:36.54	244.12	13.48	-49.7	-52.8	12.7	6.10e-05	0	57	0	1247805440	61	5369
2026-01-03 02:08:37.52	244.06	13.39	-49.7	-52.8	12.7	7.01e-05	0	57	0	1249902592	61	5376
2026-01-03 02:08:38.51	244.00	13.30	-49.7	-52.8	12.7	8.54e-05	0	57	0	1250951168	61	5381
2026-01-03 02:08:39.51	243.93	13.20	-49.7	-52.9	12.6	1.23e-04	0	57	0	1253048320	61	5443
2026-01-03 02:08:40.49	243.87	13.11	-49.9	-53.2	12.3	1.25e-04	0	57	0	1255145472	61	5632
