passes_logs/2026/01/03/R3.0SM8_Murmansk_STILSPACE/R3.0SM8_Murmansk_STILSPACE__20260103_042443_FENGYUN_3E_rec.log

#Pass ID: 20260103_042443_FENGYUN 3E
#Satellite: FENGYUN 3E
#Configuration: FENGYUN 3E
#almurnet v.1.7.20240730
#Start time: 2026-01-03 04:31:27

#Version: 2.2.20231116
#Station: R3.0SM8_Murmansk_STILSPACE
#Location: 33.092731 lon 68.902999 lat
#TLE: 1 49008U 21062A   26002.32147302  .00000239  00000+0  13357-3 0  9999
#TLE: 2 49008  98.7477   7.5995 0001398 164.3382 195.7838 14.19884140233041

#Time	Az	El	Level	Level2	SNR	BER	BlckErr	Temp	State	Recorded	gain1	gain2
2026-01-03 04:31:27.12	89.56	66.60	-53.4	-64.2	3.8	8.46e-01	0	56	0	0	68	13287
2026-01-03 04:31:28.09	90.67	66.74	-53.3	-63.6	3.8	8.47e-01	0	57	104	0	69	11643
2026-01-03 04:31:29.08	91.81	66.87	-53.4	-63.5	3.8	8.46e-01	0	57	104	0	69	11543
2026-01-03 04:31:30.05	92.95	67.00	-53.4	-63.5	3.8	8.46e-01	0	57	104	0	69	11498
2026-01-03 04:31:31.05	94.14	67.11	-53.4	-63.6	3.8	8.47e-01	0	57	104	0	69	11591
2026-01-03 04:31:32.04	95.33	67.22	-53.4	-63.6	3.8	8.44e-01	0	57	104	0	69	11627
2026-01-03 04:31:33.03	96.52	67.32	-53.4	-63.6	3.8	8.46e-01	0	57	104	0	69	11617
2026-01-03 04:31:34.01	97.72	67.41	-53.3	-63.6	3.8	8.46e-01	0	57	104	0	69	11605
2026-01-03 04:31:35.00	98.94	67.49	-53.4	-63.6	3.8	8.47e-01	0	57	104	0	69	11585
2026-01-03 04:31:35.98	100.16	67.56	-53.4	-63.6	3.8	8.46e-01	0	57	104	0	69	11579
2026-01-03 04:31:36.96	101.38	67.62	-53.3	-63.6	3.8	8.47e-01	0	57	104	0	69	11561
2026-01-03 04:31:37.95	102.63	67.67	-53.4	-63.6	3.8	8.46e-01	0	57	104	0	69	11606
2026-01-03 04:31:38.93	103.86	67.72	-53.4	-63.6	3.8	8.47e-01	0	57	104	0	69	11640
2026-01-03 04:31:39.92	105.12	67.75	-53.3	-63.5	3.8	8.45e-01	0	57	104	0	69	11545
2026-01-03 04:31:40.92	106.39	67.77	-53.4	-63.6	3.8	8.48e-01	0	57	104	0	69	11620
2026-01-03 04:31:41.90	107.63	67.79	-53.3	-63.6	3.8	8.47e-01	0	57	104	0	69	11580
2026-01-03 04:31:42.89	108.89	67.79	-53.3	-63.6	3.8	8.46e-01	0	57	104	0	69	11603
2026-01-03 04:31:43.87	110.14	67.79	-53.4	-63.6	3.8	8.46e-01	0	57	104	0	69	11584
2026-01-03 04:31:44.87	111.41	67.77	-53.4	-63.5	3.8	8.46e-01	0	57	104	0	69	11532
2026-01-03 04:31:45.86	112.67	67.75	-53.4	-63.6	3.8	8.46e-01	0	57	104	0	69	11569
2026-01-03 04:31:46.85	113.92	67.71	-53.4	-63.6	3.8	8.46e-01	0	57	104	0	69	11644
2026-01-03 04:31:47.84	115.17	67.67	-53.4	-63.6	3.8	8.45e-01	0	57	104	0	69	11577
2026-01-03 04:31:48.81	116.39	67.61	-53.4	-63.6	3.8	8.46e-01	0	57	104	0	69	11622
2026-01-03 04:31:49.80	117.63	67.55	-53.4	-63.6	3.8	8.47e-01	0	57	104	0	69	11555
2026-01-03 04:31:50.79	118.85	67.48	-53.4	-63.6	3.8	8.46e-01	0	57	104	0	69	11567
2026-01-03 04:31:51.78	120.07	67.39	-53.4	-63.6	3.8	8.47e-01	0	57	104	0	69	11608
2026-01-03 04:31:52.76	121.27	67.30	-53.4	-63.6	3.8	8.46e-01	0	57	104	0	69	11582
2026-01-03 04:31:53.75	122.47	67.20	-53.4	-63.6	3.8	8.48e-01	0	57	104	0	69	11559
2026-01-03 04:31:54.74	123.65	67.09	-53.3	-63.5	3.8	8.45e-01	0	57	104	0	69	11524
2026-01-03 04:31:55.74	124.84	66.98	-53.4	-63.5	3.8	8.47e-01	0	57	104	0	69	11541
2026-01-03 04:31:56.73	126.00	66.85	-53.4	-63.6	3.8	8.46e-01	0	57	104	0	69	11557
2026-01-03 04:31:57.72	127.14	66.71	-53.4	-63.6	3.8	8.47e-01	0	57	104	0	69	11556
2026-01-03 04:31:58.72	128.28	66.57	-53.3	-63.5	3.8	8.47e-01	0	57	104	0	69	11509
2026-01-03 04:31:59.71	129.40	66.42	-53.3	-63.6	3.8	8.46e-01	0	57	104	0	69	11564
2026-01-03 04:32:00.71	130.51	66.26	-53.3	-63.5	3.8	8.45e-01	0	57	104	0	69	11427
2026-01-03 04:32:01.69	131.58	66.10	-53.3	-63.2	3.8	8.45e-01	0	57	104	0	69	11145
2026-01-03 04:32:02.69	132.66	65.92	-53.3	-63.0	3.8	8.46e-01	0	57	104	0	69	10896
2026-01-03 04:32:03.68	133.71	65.74	-53.2	-63.0	3.8	8.46e-01	0	57	104	0	69	10826
2026-01-03 04:32:04.67	134.74	65.55	-53.2	-63.3	3.8	8.47e-01	0	57	104	0	69	11240
2026-01-03 04:32:05.66	135.75	65.36	-53.4	-63.4	3.8	8.47e-01	0	57	104	0	69	11333
2026-01-03 04:32:06.64	136.74	65.16	-53.3	-63.3	3.8	8.45e-01	0	57	104	0	69	11167
2026-01-03 04:32:07.63	137.72	64.96	-53.2	-63.2	3.8	8.46e-01	0	57	104	0	69	11113
2026-01-03 04:32:08.61	138.67	64.75	-53.3	-63.2	3.8	8.46e-01	0	57	104	0	69	11059
2026-01-03 04:32:09.61	139.62	64.53	-53.2	-62.9	3.8	8.46e-01	0	57	104	0	69	10703
2026-01-03 04:32:10.59	140.54	64.31	-53.1	-61.8	3.8	8.45e-01	0	57	104	0	68	10013
2026-01-03 04:32:11.58	141.44	64.08	-53.0	-61.1	3.8	8.44e-01	0	57	104	0	68	9264
2026-01-03 04:32:12.56	142.33	63.85	-52.8	-61.5	3.8	8.45e-01	0	57	104	0	68	9617
2026-01-03 04:32:13.55	143.20	63.62	-53.1	-62.4	3.8	8.46e-01	0	57	104	0	68	10688
2026-01-03 04:32:14.54	144.05	63.37	-53.3	-62.8	3.8	8.46e-01	0	57	104	0	68	11171
2026-01-03 04:32:15.53	144.89	63.13	-53.2	-62.2	3.8	8.46e-01	0	57	104	0	68	10473
2026-01-03 04:32:16.52	145.71	62.88	-53.1	-61.7	3.8	8.45e-01	0	57	104	0	68	9867
2026-01-03 04:32:17.51	146.51	62.63	-53.2	-62.3	3.8	8.46e-01	0	57	104	0	68	10614
2026-01-03 04:32:18.49	147.29	62.37	-52.7	-59.4	4.0	8.43e-01	0	57	104	0	68	7630
2026-01-03 04:32:19.48	148.06	62.11	-49.5	-51.6	10.6	2.99e-02	0	57	0	4194304	62	4363
2026-01-03 04:32:20.47	148.82	61.85	-44.5	-45.3	17.1	0.00e+00	0	57	0	11534336	52	3744
2026-01-03 04:32:21.46	149.56	61.58	-42.6	-43.2	19.1	0.00e+00	0	57	0	17825792	47	3915
2026-01-03 04:32:22.45	150.28	61.31	-43.2	-43.8	18.5	0.00e+00	0	57	0	25165824	47	4235
2026-01-03 04:32:23.43	150.98	61.04	-43.7	-44.4	18.1	0.00e+00	0	57	0	32505856	49	4036
2026-01-03 04:32:24.42	151.67	60.77	-43.1	-43.7	18.7	0.00e+00	0	57	0	39845888	49	3720
2026-01-03 04:32:25.41	152.35	60.49	-42.6	-43.2	19.3	0.00e+00	0	57	0	47185920	48	3708
2026-01-03 04:32:26.41	153.02	60.21	-42.4	-43.0	19.2	0.00e+00	0	57	0	53477376	47	3855
2026-01-03 04:32:27.40	153.66	59.92	-42.6	-43.2	19.1	0.00e+00	0	58	0	60817408	47	3924
2026-01-03 04:32:28.38	154.29	59.64	-42.8	-43.4	18.9	0.00e+00	0	57	0	68157440	47	4011
2026-01-03 04:32:29.37	154.91	59.36	-42.8	-43.4	18.8	0.00e+00	0	57	0	75497472	47	4050
2026-01-03 04:32:30.35	155.51	59.07	-42.5	-43.1	19.1	0.00e+00	0	57	0	82837504	47	3870
2026-01-03 04:32:31.35	156.11	58.78	-42.5	-43.1	19.0	0.00e+00	0	57	0	89128960	47	3891
2026-01-03 04:32:32.34	156.70	58.49	-42.7	-43.3	19.0	0.00e+00	0	57	0	96468992	47	3959
2026-01-03 04:32:33.33	157.26	58.20	-42.5	-43.1	19.1	0.00e+00	0	57	0	103809024	47	3890
2026-01-03 04:32:34.31	157.82	57.91	-42.6	-43.2	19.0	0.00e+00	0	57	0	111149056	47	3934
2026-01-03 04:32:35.30	158.36	57.62	-42.7	-43.3	18.9	0.00e+00	0	57	0	118489088	47	4001
2026-01-03 04:32:36.29	158.89	57.32	-42.7	-43.3	18.9	0.00e+00	0	58	0	125829120	47	3963
2026-01-03 04:32:37.28	159.42	57.03	-42.5	-43.1	19.0	0.00e+00	0	57	0	132120576	47	3891
2026-01-03 04:32:38.27	159.93	56.73	-42.7	-43.4	18.8	0.00e+00	0	57	0	139460608	47	4010
2026-01-03 04:32:39.26	160.43	56.44	-42.9	-43.6	18.7	0.00e+00	0	57	0	146800640	47	4106
2026-01-03 04:32:40.25	160.92	56.14	-43.4	-44.0	18.4	0.00e+00	0	57	0	154140672	48	4078
2026-01-03 04:32:41.24	161.40	55.85	-43.4	-44.0	18.4	0.00e+00	0	57	0	161480704	48	4076
2026-01-03 04:32:42.23	161.87	55.55	-43.5	-44.1	18.3	0.00e+00	0	57	0	168820736	49	3884
2026-01-03 04:32:43.22	162.33	55.25	-43.3	-43.9	18.6	0.00e+00	0	57	0	175112192	49	3806
2026-01-03 04:32:44.20	162.77	54.96	-43.1	-43.6	18.8	0.00e+00	0	58	0	182452224	49	3694
2026-01-03 04:32:45.19	163.22	54.66	-43.1	-43.7	18.8	0.00e+00	0	57	0	189792256	48	3937
2026-01-03 04:32:46.18	163.65	54.36	-43.2	-43.9	18.6	0.00e+00	0	57	0	197132288	48	4008
2026-01-03 04:32:47.17	164.07	54.06	-43.2	-43.8	18.2	0.00e+00	0	57	0	204472320	48	4001
2026-01-03 04:32:48.15	164.48	53.77	-42.9	-43.5	18.9	0.00e+00	0	57	0	210763776	48	3850
2026-01-03 04:32:49.14	164.89	53.47	-42.7	-43.3	19.1	0.00e+00	0	57	0	218103808	48	3759
2026-01-03 04:32:50.13	165.29	53.18	-42.6	-43.2	19.2	0.00e+00	0	57	0	225443840	48	3725
2026-01-03 04:32:51.11	165.67	52.88	-42.7	-43.3	19.1	0.00e+00	0	58	0	231735296	48	3764
2026-01-03 04:32:52.10	166.06	52.59	-42.7	-43.3	19.2	0.00e+00	0	57	0	239075328	48	3763
2026-01-03 04:32:53.09	166.43	52.29	-42.8	-43.4	19.1	0.00e+00	0	57	0	246415360	48	3797
2026-01-03 04:32:54.07	166.80	52.00	-42.7	-43.3	19.2	0.00e+00	0	58	0	253755392	48	3749
2026-01-03 04:32:55.06	167.16	51.71	-42.3	-42.9	19.4	0.00e+00	0	57	0	261095424	47	3782
2026-01-03 04:32:56.05	167.51	51.42	-42.2	-42.8	19.4	0.00e+00	0	57	0	268435456	47	3743
2026-01-03 04:32:57.02	167.85	51.13	-42.5	-43.0	19.1	0.00e+00	0	57	0	274726912	47	3851
2026-01-03 04:32:58.01	168.20	50.84	-42.4	-43.0	19.2	0.00e+00	0	57	0	282066944	47	3847
2026-01-03 04:32:59.00	168.53	50.55	-42.6	-43.3	18.9	0.00e+00	0	57	0	289406976	47	3960
2026-01-03 04:32:59.99	168.86	50.26	-42.6	-43.2	19.1	0.00e+00	0	57	0	296747008	47	3917
2026-01-03 04:33:00.98	169.18	49.97	-42.5	-43.1	18.4	0.00e+00	0	58	0	304087040	47	3900
2026-01-03 04:33:01.97	169.50	49.68	-42.4	-43.0	19.1	0.00e+00	0	58	0	310378496	47	3865
2026-01-03 04:33:02.96	169.81	49.39	-42.5	-43.1	18.8	0.00e+00	0	57	0	317718528	47	3890
2026-01-03 04:33:03.95	170.11	49.11	-42.6	-43.2	19.0	0.00e+00	0	58	0	325058560	47	3933
2026-01-03 04:33:04.94	170.41	48.82	-42.7	-43.3	18.9	0.00e+00	0	58	0	332398592	47	3985
2026-01-03 04:33:05.92	170.70	48.54	-42.8	-43.5	18.7	0.00e+00	0	58	0	339738624	47	4059
2026-01-03 04:33:06.91	170.99	48.26	-42.8	-43.4	18.8	0.00e+00	0	57	0	346030080	47	4034
2026-01-03 04:33:07.89	171.27	47.98	-42.8	-43.4	18.8	0.00e+00	0	57	0	353370112	47	4020
2026-01-03 04:33:08.88	171.55	47.69	-42.9	-43.5	18.8	0.00e+00	0	57	0	360710144	47	4056
2026-01-03 04:33:09.87	171.82	47.41	-42.3	-42.9	19.3	0.00e+00	0	58	0	368050176	47	3799
2026-01-03 04:33:10.86	172.09	47.14	-42.0	-42.5	19.7	0.00e+00	0	58	0	374341632	46	3854
2026-01-03 04:33:11.85	172.35	46.86	-41.8	-42.3	19.9	0.00e+00	0	57	0	381681664	46	3770
2026-01-03 04:33:12.84	172.61	46.58	-41.8	-42.3	19.9	0.00e+00	0	58	0	389021696	46	3752
2026-01-03 04:33:13.83	172.87	46.31	-41.6	-42.1	20.1	0.00e+00	0	57	0	396361728	46	3694
2026-01-03 04:33:14.82	173.12	46.03	-41.7	-42.2	20.0	0.00e+00	0	57	0	403701760	46	3705
2026-01-03 04:33:15.80	173.36	45.76	-41.4	-41.9	20.3	0.00e+00	0	57	0	409993216	45	3782
2026-01-03 04:33:16.79	173.61	45.49	-41.1	-41.6	20.5	0.00e+00	0	57	0	417333248	45	3658
2026-01-03 04:33:17.78	173.85	45.22	-41.1	-41.6	20.6	0.00e+00	0	58	0	424673280	45	3661
2026-01-03 04:33:18.77	174.08	44.95	-41.1	-41.6	20.4	0.00e+00	0	57	0	432013312	45	3677
2026-01-03 04:33:19.75	174.31	44.69	-41.2	-41.7	20.4	0.00e+00	0	58	0	439353344	45	3727
2026-01-03 04:33:20.74	174.53	44.42	-41.2	-41.7	20.5	0.00e+00	0	58	0	446693376	45	3712
2026-01-03 04:33:21.74	174.76	44.15	-41.2	-41.7	20.2	0.00e+00	0	58	0	452984832	45	3727
2026-01-03 04:33:22.73	174.98	43.89	-41.2	-41.7	20.4	0.00e+00	0	57	0	460324864	44	3958
2026-01-03 04:33:23.72	175.20	43.63	-41.5	-42.1	20.1	0.00e+00	0	58	0	467664896	44	4100
2026-01-03 04:33:24.71	175.41	43.37	-41.3	-41.8	20.3	0.00e+00	0	57	0	475004928	44	3971
2026-01-03 04:33:25.70	175.62	43.11	-41.0	-41.5	20.6	0.00e+00	0	57	0	482344960	44	3848
2026-01-03 04:33:26.70	175.83	42.85	-40.9	-41.4	20.8	0.00e+00	0	58	0	489684992	44	3796
2026-01-03 04:33:27.69	176.03	42.59	-40.9	-41.4	20.7	0.00e+00	0	57	0	495976448	44	3813
2026-01-03 04:33:28.67	176.23	42.34	-41.0	-41.5	20.7	0.00e+00	0	58	0	503316480	44	3830
2026-01-03 04:33:29.66	176.42	42.08	-41.1	-41.6	20.6	0.00e+00	0	57	0	510656512	44	3873
2026-01-03 04:33:30.64	176.61	41.83	-41.1	-41.6	20.5	0.00e+00	0	57	0	517996544	44	3885
2026-01-03 04:33:31.63	176.80	41.58	-41.2	-41.7	20.1	0.00e+00	0	57	0	525336576	44	3958
2026-01-03 04:33:32.62	176.99	41.33	-41.4	-41.9	20.2	0.00e+00	0	57	0	531628032	44	4039
2026-01-03 04:33:33.61	177.18	41.08	-41.3	-41.8	20.3	0.00e+00	0	57	0	538968064	44	3993
2026-01-03 04:33:34.60	177.36	40.84	-41.1	-41.5	20.6	0.00e+00	0	58	0	546308096	44	3867
2026-01-03 04:33:35.58	177.54	40.59	-40.9	-41.4	20.7	0.00e+00	0	57	0	553648128	44	3811
2026-01-03 04:33:36.57	177.71	40.35	-40.9	-41.4	20.8	0.00e+00	0	58	0	560988160	44	3784
2026-01-03 04:33:37.56	177.89	40.11	-40.8	-41.3	20.7	0.00e+00	0	58	0	567279616	44	3768
2026-01-03 04:33:38.55	178.06	39.86	-41.0	-41.5	20.6	0.00e+00	0	58	0	574619648	44	3832
2026-01-03 04:33:39.54	178.23	39.62	-41.0	-41.4	20.7	0.00e+00	0	57	0	581959680	44	3810
2026-01-03 04:33:40.52	178.40	39.39	-40.9	-41.3	20.8	0.00e+00	0	58	0	589299712	44	3774
2026-01-03 04:33:41.51	178.56	39.15	-40.9	-41.3	20.8	0.00e+00	0	58	0	595591168	44	3778
2026-01-03 04:33:42.51	178.72	38.91	-41.0	-41.4	20.4	0.00e+00	0	58	0	602931200	44	3810
2026-01-03 04:33:43.50	178.88	38.68	-41.1	-41.6	20.4	0.00e+00	0	57	0	610271232	44	3876
2026-01-03 04:33:44.49	179.04	38.44	-40.9	-41.4	20.7	0.00e+00	0	57	0	617611264	44	3814
2026-01-03 04:33:45.48	179.20	38.21	-41.0	-41.5	20.6	0.00e+00	0	58	0	624951296	44	3831
2026-01-03 04:33:46.47	179.35	37.98	-41.1	-41.6	20.5	0.00e+00	0	58	0	631242752	44	3896
2026-01-03 04:33:47.45	179.50	37.75	-41.1	-41.6	20.5	0.00e+00	0	58	0	638582784	44	3881
2026-01-03 04:33:48.44	179.65	37.53	-40.9	-41.3	20.7	0.00e+00	0	58	0	645922816	44	3773
2026-01-03 04:33:49.42	179.80	37.30	-40.8	-41.3	20.8	0.00e+00	0	57	0	653262848	44	3743
2026-01-03 04:33:50.42	179.94	37.07	-40.8	-41.3	20.8	0.00e+00	0	57	0	660602880	44	3754
2026-01-03 04:33:51.41	180.09	36.85	-40.9	-41.4	20.7	0.00e+00	0	58	0	667942912	44	3795
2026-01-03 04:33:52.40	180.23	36.63	-40.9	-41.4	20.7	0.00e+00	0	58	0	674234368	44	3790
2026-01-03 04:33:53.39	180.37	36.41	-41.0	-41.5	20.6	0.00e+00	0	58	0	681574400	44	3843
2026-01-03 04:33:54.38	180.51	36.19	-41.1	-41.5	20.5	0.00e+00	0	58	0	688914432	44	3868
2026-01-03 04:33:55.37	180.64	35.97	-41.1	-41.6	20.5	0.00e+00	0	57	0	696254464	44	3900
2026-01-03 04:33:56.35	180.78	35.75	-41.2	-41.7	20.4	0.00e+00	0	58	0	703594496	44	3936
2026-01-03 04:33:57.34	180.91	35.54	-41.2	-41.7	20.4	0.00e+00	0	58	0	710934528	44	3951
2026-01-03 04:33:58.33	181.04	35.32	-41.1	-41.6	20.5	0.00e+00	0	58	0	717225984	44	3887
2026-01-03 04:33:59.32	181.17	35.11	-41.1	-41.5	20.6	0.00e+00	0	57	0	724566016	44	3867
2026-01-03 04:34:00.31	181.30	34.90	-40.9	-41.4	20.8	0.00e+00	0	57	0	731906048	44	3791
2026-01-03 04:34:01.30	181.42	34.69	-40.9	-41.3	20.8	0.00e+00	0	58	0	739246080	44	3775
2026-01-03 04:34:02.30	181.55	34.47	-41.0	-41.5	20.6	0.00e+00	0	58	0	746586112	44	3843
2026-01-03 04:34:03.29	181.67	34.27	-41.1	-41.6	20.3	0.00e+00	0	57	0	752877568	44	3899
2026-01-03 04:34:04.28	181.79	34.06	-40.9	-41.4	20.7	0.00e+00	0	57	0	760217600	44	3793
2026-01-03 04:34:05.28	181.91	33.85	-40.8	-41.3	20.8	0.00e+00	0	58	0	767557632	44	3769
2026-01-03 04:34:06.27	182.03	33.65	-41.0	-41.5	20.5	0.00e+00	0	58	0	774897664	44	3844
2026-01-03 04:34:07.26	182.15	33.44	-41.1	-41.6	20.4	0.00e+00	0	58	0	782237696	44	3905
2026-01-03 04:34:08.25	182.27	33.24	-41.0	-41.5	20.6	0.00e+00	0	58	0	789577728	44	3846
2026-01-03 04:34:09.24	182.38	33.04	-41.2	-41.7	20.3	0.00e+00	0	58	0	795869184	44	3955
2026-01-03 04:34:10.23	182.49	32.84	-41.5	-42.0	20.1	0.00e+00	0	57	0	803209216	44	4059
2026-01-03 04:34:11.22	182.61	32.64	-41.1	-41.6	20.5	0.00e+00	0	58	0	810549248	44	3874
2026-01-03 04:34:12.21	182.72	32.44	-40.8	-41.2	20.8	0.00e+00	0	57	0	817889280	44	3736
2026-01-03 04:34:13.20	182.82	32.25	-40.6	-41.1	21.0	0.00e+00	0	57	0	825229312	44	3657
2026-01-03 04:34:14.19	182.93	32.05	-40.5	-41.0	21.0	0.00e+00	0	58	0	832569344	44	3620
2026-01-03 04:34:15.18	183.04	31.86	-40.5	-40.9	20.7	0.00e+00	0	58	0	838860800	44	3609
2026-01-03 04:34:16.16	183.14	31.67	-40.8	-41.2	20.8	0.00e+00	0	58	0	846200832	44	3723
2026-01-03 04:34:17.15	183.25	31.48	-40.6	-41.0	21.0	0.00e+00	0	57	0	853540864	44	3637
2026-01-03 04:34:18.14	183.35	31.29	-40.5	-41.0	21.1	0.00e+00	0	57	0	860880896	44	3631
2026-01-03 04:34:19.13	183.45	31.10	-40.7	-41.1	20.9	0.00e+00	0	57	0	868220928	44	3677
2026-01-03 04:34:20.11	183.55	30.91	-40.8	-41.2	20.8	0.00e+00	0	58	0	874512384	44	3736
2026-01-03 04:34:21.10	183.65	30.72	-40.7	-41.1	21.0	0.00e+00	0	58	0	881852416	44	3685
2026-01-03 04:34:22.09	183.75	30.54	-40.7	-41.1	20.9	0.00e+00	0	57	0	889192448	44	3683
2026-01-03 04:34:23.07	183.85	30.36	-40.8	-41.2	20.8	0.00e+00	0	58	0	896532480	44	3730
2026-01-03 04:34:24.05	183.94	30.17	-40.6	-41.1	21.0	0.00e+00	0	58	0	902823936	44	3664
2026-01-03 04:34:25.05	184.04	29.99	-40.7	-41.2	20.8	0.00e+00	0	58	0	910163968	44	3699
2026-01-03 04:34:26.04	184.13	29.81	-40.8	-41.2	20.8	0.00e+00	0	57	0	917504000	44	3736
2026-01-03 04:34:27.03	184.23	29.63	-40.8	-41.2	20.8	0.00e+00	0	57	0	924844032	44	3733
2026-01-03 04:34:28.01	184.32	29.45	-40.9	-41.4	20.7	0.00e+00	0	57	0	932184064	44	3795
2026-01-03 04:34:29.00	184.41	29.27	-41.1	-41.6	20.5	0.00e+00	0	58	0	938475520	44	3883
2026-01-03 04:34:29.98	184.50	29.10	-41.1	-41.6	20.5	0.00e+00	0	58	0	945815552	44	3892
2026-01-03 04:34:30.96	184.59	28.92	-41.2	-41.7	20.4	0.00e+00	0	57	0	953155584	44	3920
2026-01-03 04:34:31.95	184.68	28.75	-41.2	-41.7	20.4	0.00e+00	0	58	0	960495616	44	3948
2026-01-03 04:34:32.94	184.77	28.57	-41.2	-41.7	20.3	0.00e+00	0	58	0	967835648	44	3948
2026-01-03 04:34:33.93	184.85	28.40	-41.4	-42.0	20.1	0.00e+00	0	58	0	974127104	44	4061
2026-01-03 04:34:34.92	184.94	28.23	-41.4	-41.9	20.2	0.00e+00	0	58	0	981467136	44	4039
2026-01-03 04:34:35.90	185.02	28.06	-41.6	-42.2	19.9	0.00e+00	0	57	0	988807168	44	4149
2026-01-03 04:34:36.90	185.11	27.88	-41.4	-41.9	20.1	0.00e+00	0	57	0	996147200	44	4051
2026-01-03 04:34:37.88	185.19	27.72	-41.7	-42.2	19.8	0.00e+00	0	57	0	1003487232	44	4165
2026-01-03 04:34:38.87	185.27	27.55	-41.5	-42.0	20.0	0.00e+00	0	58	0	1010827264	45	3855
2026-01-03 04:34:39.87	185.35	27.38	-41.4	-41.9	20.2	0.00e+00	0	57	0	1017118720	45	3792
2026-01-03 04:34:40.85	185.43	27.21	-41.5	-42.0	20.1	0.00e+00	0	57	0	1024458752	45	3843
2026-01-03 04:34:41.84	185.51	27.05	-41.8	-42.3	19.8	0.00e+00	0	57	0	1031798784	45	3995
2026-01-03 04:34:42.83	185.59	26.89	-42.0	-42.6	19.5	0.00e+00	0	57	0	1039138816	45	4100
2026-01-03 04:34:43.82	185.67	26.72	-41.9	-42.5	19.6	0.00e+00	0	57	0	1046478848	45	4075
2026-01-03 04:34:44.80	185.75	26.56	-41.9	-42.5	19.4	0.00e+00	0	57	0	1052770304	45	4071
2026-01-03 04:34:45.79	185.83	26.40	-42.1	-42.7	19.4	0.00e+00	0	57	0	1060110336	46	3921
2026-01-03 04:34:46.78	185.90	26.24	-42.0	-42.6	19.3	0.00e+00	0	57	0	1067450368	46	3893
2026-01-03 04:34:47.77	185.98	26.08	-41.8	-42.4	19.7	0.00e+00	0	57	0	1074790400	46	3785
2026-01-03 04:34:48.76	186.05	25.92	-41.7	-42.3	19.8	0.00e+00	0	58	0	1081081856	46	3739
2026-01-03 04:34:49.75	186.13	25.76	-41.7	-42.2	19.8	0.00e+00	0	58	0	1088421888	46	3726
2026-01-03 04:34:50.74	186.20	25.60	-41.9	-42.5	19.6	0.00e+00	0	57	0	1095761920	46	3827
2026-01-03 04:34:51.74	186.28	25.45	-41.8	-42.3	19.8	0.00e+00	0	58	0	1103101952	46	3757
2026-01-03 04:34:52.72	186.35	25.29	-41.4	-41.9	20.2	0.00e+00	0	57	0	1110441984	45	3786
2026-01-03 04:34:53.70	186.42	25.14	-41.1	-41.6	20.4	0.00e+00	0	57	0	1116733440	45	3679
2026-01-03 04:34:54.69	186.49	24.99	-41.0	-41.5	20.5	0.00e+00	0	57	0	1124073472	45	3631
2026-01-03 04:34:55.68	186.56	24.83	-41.0	-41.5	20.5	0.00e+00	0	57	0	1131413504	45	3634
2026-01-03 04:34:56.68	186.63	24.68	-41.1	-41.6	20.5	0.00e+00	0	57	0	1138753536	45	3660
2026-01-03 04:34:57.67	186.70	24.53	-41.2	-41.7	20.3	0.00e+00	0	57	0	1146093568	45	3722
2026-01-03 04:34:58.65	186.77	24.38	-41.2	-41.7	20.3	0.00e+00	0	58	0	1153433600	45	3697
2026-01-03 04:34:59.64	186.83	24.23	-41.0	-41.5	20.5	0.00e+00	0	58	0	1159725056	45	3632
2026-01-03 04:35:00.64	186.90	24.08	-41.1	-41.6	20.4	0.00e+00	0	57	0	1167065088	45	3667
2026-01-03 04:35:01.63	186.97	23.93	-41.2	-41.7	20.3	0.00e+00	0	58	0	1174405120	45	3725
2026-01-03 04:35:02.62	187.03	23.78	-41.3	-41.8	20.2	0.00e+00	0	58	0	1181745152	45	3751
2026-01-03 04:35:03.60	187.10	23.64	-41.3	-41.8	20.2	0.00e+00	0	58	0	1189085184	45	3757
2026-01-03 04:35:04.58	187.16	23.50	-41.5	-42.0	20.0	0.00e+00	0	57	0	1195376640	45	3858
2026-01-03 04:35:05.56	187.23	23.35	-41.5	-42.0	20.0	0.00e+00	0	58	0	1202716672	45	3846
2026-01-03 04:35:06.55	187.29	23.21	-41.6	-42.1	20.0	0.00e+00	0	58	0	1210056704	45	3874
2026-01-03 04:35:07.54	187.35	23.06	-41.6	-42.1	19.9	0.00e+00	0	58	0	1217396736	45	3903
2026-01-03 04:35:08.53	187.41	22.92	-41.5	-42.0	20.0	0.00e+00	0	57	0	1224736768	45	3845
2026-01-03 04:35:09.51	187.48	22.78	-41.5	-42.0	19.9	0.00e+00	0	57	0	1231028224	45	3863
2026-01-03 04:35:10.50	187.54	22.64	-41.7	-42.3	19.7	0.00e+00	0	58	0	1238368256	45	3972
2026-01-03 04:35:11.49	187.60	22.50	-41.9	-42.4	19.6	0.00e+00	0	58	0	1245708288	45	4024
2026-01-03 04:35:12.48	187.66	22.36	-41.6	-42.2	19.8	0.00e+00	0	58	0	1253048320	45	3916
2026-01-03 04:35:13.47	187.72	22.22	-41.5	-42.1	19.9	0.00e+00	0	58	0	1260388352	45	3880
2026-01-03 04:35:14.46	187.78	22.08	-41.5	-42.1	19.9	0.00e+00	0	58	0	1266679808	45	3872
2026-01-03 04:35:15.45	187.84	21.95	-41.7	-42.2	19.8	0.00e+00	0	58	0	1274019840	45	3953
2026-01-03 04:35:16.44	187.90	21.81	-41.8	-42.3	19.6	0.00e+00	0	58	0	1281359872	45	4003
2026-01-03 04:35:17.43	187.95	21.67	-41.8	-42.4	19.6	0.00e+00	0	58	0	1288699904	45	4013
2026-01-03 04:35:18.42	188.01	21.54	-41.8	-42.3	19.7	0.00e+00	0	58	0	1296039936	45	3999
2026-01-03 04:35:19.40	188.07	21.41	-41.8	-42.3	19.6	0.00e+00	0	57	0	1302331392	45	3998
2026-01-03 04:35:20.39	188.12	21.27	-41.8	-42.3	19.6	0.00e+00	0	57	0	1309671424	45	4003
2026-01-03 04:35:21.38	188.18	21.14	-41.8	-42.3	19.6	0.00e+00	0	57	0	1317011456	45	4004
2026-01-03 04:35:22.37	188.24	21.01	-41.8	-42.3	19.6	0.00e+00	0	57	0	1324351488	45	3998
2026-01-03 04:35:23.36	188.29	20.87	-41.9	-42.4	19.6	0.00e+00	0	58	0	1331691520	45	4035
2026-01-03 04:35:24.35	188.35	20.74	-42.0	-42.5	19.5	0.00e+00	0	57	0	1337982976	45	4093
2026-01-03 04:35:25.34	188.40	20.61	-41.7	-42.2	19.8	0.00e+00	0	58	0	1345323008	45	3946
2026-01-03 04:35:26.33	188.46	20.48	-41.6	-42.1	19.9	0.00e+00	0	57	0	1352663040	45	3895
2026-01-03 04:35:27.32	188.51	20.35	-41.6	-42.1	19.9	0.00e+00	0	57	0	1360003072	45	3887
2026-01-03 04:35:28.31	188.56	20.23	-41.5	-42.1	19.9	0.00e+00	0	58	0	1367343104	45	3881
2026-01-03 04:35:29.30	188.62	20.10	-41.5	-42.1	19.9	0.00e+00	0	58	0	1374683136	45	3884
2026-01-03 04:35:30.28	188.67	19.97	-41.7	-42.2	19.7	0.00e+00	0	58	0	1380974592	45	3944
2026-01-03 04:35:31.27	188.72	19.84	-41.7	-42.2	19.8	0.00e+00	0	58	0	1388314624	45	3937
2026-01-03 04:35:32.26	188.77	19.72	-41.7	-42.2	19.8	0.00e+00	0	58	0	1395654656	45	3936
2026-01-03 04:35:33.25	188.82	19.59	-41.9	-42.4	19.5	0.00e+00	0	58	0	1402994688	45	4043
2026-01-03 04:35:34.24	188.87	19.47	-42.0	-42.6	19.4	0.00e+00	0	58	0	1410334720	45	4128
2026-01-03 04:35:35.23	188.92	19.34	-41.9	-42.5	19.5	0.00e+00	0	57	0	1416626176	45	4073
2026-01-03 04:35:36.21	188.97	19.22	-42.2	-42.8	19.2	0.00e+00	0	58	0	1423966208	46	3983
2026-01-03 04:35:37.21	189.02	19.10	-42.2	-42.8	19.1	0.00e+00	0	58	0	1431306240	46	3979
2026-01-03 04:35:38.19	189.07	18.98	-42.3	-42.8	19.1	0.00e+00	0	58	0	1438646272	46	4000
2026-01-03 04:35:39.18	189.12	18.85	-42.4	-43.0	18.9	0.00e+00	0	58	0	1445986304	46	4087
2026-01-03 04:35:40.17	189.17	18.73	-42.4	-43.0	19.0	0.00e+00	0	58	0	1453326336	46	4073
2026-01-03 04:35:41.16	189.22	18.61	-42.5	-43.1	18.9	0.00e+00	0	58	0	1459617792	46	4133
2026-01-03 04:35:42.14	189.26	18.49	-42.7	-43.4	18.6	0.00e+00	0	57	0	1466957824	47	4010
2026-01-03 04:35:43.13	189.31	18.37	-42.6	-43.2	18.8	0.00e+00	0	57	0	1474297856	47	3928
2026-01-03 04:35:44.12	189.36	18.26	-42.8	-43.4	18.5	0.00e+00	0	58	0	1481637888	47	4043
2026-01-03 04:35:45.11	189.41	18.14	-42.6	-43.2	18.7	0.00e+00	0	58	0	1487929344	47	3946
2026-01-03 04:35:46.10	189.45	18.02	-42.5	-43.1	18.9	0.00e+00	0	58	0	1495269376	47	3881
2026-01-03 04:35:47.09	189.50	17.90	-42.4	-43.0	19.0	0.00e+00	0	58	0	1502609408	47	3832
2026-01-03 04:35:48.08	189.54	17.78	-42.5	-43.1	18.8	0.00e+00	0	58	0	1509949440	47	3901
2026-01-03 04:35:49.07	189.59	17.67	-42.8	-43.4	18.5	0.00e+00	0	58	0	1517289472	47	4039
2026-01-03 04:35:50.06	189.64	17.55	-42.6	-43.2	18.8	0.00e+00	0	58	0	1523580928	47	3954
2026-01-03 04:35:51.05	189.68	17.44	-42.5	-43.1	18.8	0.00e+00	0	58	0	1530920960	47	3895
2026-01-03 04:35:52.04	189.73	17.32	-42.5	-43.1	18.9	0.00e+00	0	58	0	1538260992	47	3883
2026-01-03 04:35:53.02	189.77	17.21	-42.5	-43.1	18.8	0.00e+00	0	58	0	1545601024	47	3900
2026-01-03 04:35:54.01	189.81	17.10	-42.7	-43.3	18.6	0.00e+00	0	57	0	1552941056	47	3986
2026-01-03 04:35:55.00	189.86	16.98	-42.6	-43.2	18.7	0.00e+00	0	58	0	1559232512	47	3949
2026-01-03 04:35:55.99	189.90	16.87	-42.7	-43.3	18.7	0.00e+00	0	58	0	1566572544	47	3984
2026-01-03 04:35:56.98	189.94	16.76	-42.9	-43.5	18.5	0.00e+00	0	58	0	1573912576	47	4080
2026-01-03 04:35:57.97	189.99	16.65	-42.8	-43.4	18.5	0.00e+00	0	58	0	1581252608	47	4034
2026-01-03 04:35:58.96	190.03	16.54	-42.9	-43.6	18.4	0.00e+00	0	58	0	1588592640	47	4117
2026-01-03 04:35:59.95	190.07	16.42	-43.4	-44.1	18.1	0.00e+00	0	58	0	1594884096	48	4119
2026-01-03 04:36:00.94	190.11	16.31	-43.1	-43.8	18.4	0.00e+00	0	57	0	1602224128	48	3972
2026-01-03 04:36:01.93	190.15	16.21	-43.3	-44.0	18.2	0.00e+00	0	57	0	1609564160	48	4073
2026-01-03 04:36:02.91	190.20	16.10	-43.2	-43.9	18.3	0.00e+00	0	58	0	1616904192	48	4011
2026-01-03 04:36:03.91	190.24	15.99	-43.0	-43.7	18.5	0.00e+00	0	58	0	1624244224	48	3919
2026-01-03 04:36:04.89	190.28	15.88	-43.0	-43.6	18.5	0.00e+00	0	58	0	1631584256	48	3893
2026-01-03 04:36:05.88	190.32	15.77	-43.1	-43.7	18.4	0.00e+00	0	58	0	1637875712	48	3929
2026-01-03 04:36:06.86	190.36	15.67	-43.0	-43.7	18.5	0.00e+00	0	58	0	1645215744	48	3916
2026-01-03 04:36:07.85	190.40	15.56	-43.2	-43.9	18.2	0.00e+00	0	58	0	1652555776	48	4031
2026-01-03 04:36:08.84	190.44	15.45	-43.1	-43.7	18.4	0.00e+00	0	58	0	1659895808	48	3956
2026-01-03 04:36:09.82	190.48	15.35	-42.9	-43.6	18.6	0.00e+00	0	58	0	1667235840	48	3875
2026-01-03 04:36:10.82	190.52	15.24	-42.8	-43.5	18.7	0.00e+00	0	58	0	1674575872	48	3828
2026-01-03 04:36:11.81	190.56	15.14	-42.9	-43.5	18.5	0.00e+00	0	58	0	1680867328	48	3847
2026-01-03 04:36:12.80	190.59	15.03	-43.0	-43.7	18.5	0.00e+00	0	58	0	1688207360	48	3918
2026-01-03 04:36:13.78	190.63	14.93	-43.1	-43.8	18.3	0.00e+00	0	58	0	1695547392	48	3980
2026-01-03 04:36:14.77	190.67	14.82	-43.1	-43.8	18.3	0.00e+00	0	58	0	1702887424	48	3978
2026-01-03 04:36:15.77	190.71	14.72	-43.1	-43.8	18.3	0.00e+00	0	58	0	1710227456	48	3970
2026-01-03 04:36:16.76	190.75	14.62	-43.3	-43.9	18.2	0.00e+00	0	58	0	1716518912	48	4039
2026-01-03 04:36:17.74	190.78	14.52	-43.3	-43.9	18.2	0.00e+00	0	58	0	1723858944	48	4048
2026-01-03 04:36:18.73	190.82	14.41	-43.2	-43.9	18.2	0.00e+00	0	58	0	1731198976	48	4025
2026-01-03 04:36:19.72	190.86	14.31	-43.5	-44.2	18.0	0.00e+00	0	58	0	1738539008	48	4150
2026-01-03 04:36:20.70	190.90	14.21	-43.4	-44.1	18.0	0.00e+00	0	58	0	1744830464	48	4104
2026-01-03 04:36:21.70	190.93	14.11	-43.1	-43.8	18.3	0.00e+00	0	58	0	1752170496	48	3983
2026-01-03 04:36:22.68	190.97	14.01	-43.0	-43.7	18.4	0.00e+00	0	58	0	1759510528	48	3938
2026-01-03 04:36:23.67	191.01	13.91	-43.2	-43.8	18.3	0.00e+00	0	58	0	1766850560	48	3995
2026-01-03 04:36:24.66	191.04	13.81	-43.3	-43.9	18.2	0.00e+00	0	58	0	1774190592	48	4046
2026-01-03 04:36:25.65	191.08	13.71	-43.3	-43.9	18.2	0.00e+00	0	58	0	1780482048	48	4044
2026-01-03 04:36:26.64	191.11	13.61	-43.2	-43.9	18.2	0.00e+00	0	58	0	1787822080	48	4009
2026-01-03 04:36:27.63	191.15	13.51	-43.3	-44.0	18.1	0.00e+00	0	58	0	1795162112	48	4064
2026-01-03 04:36:28.62	191.18	13.42	-43.3	-44.0	18.1	0.00e+00	0	58	0	1802502144	48	4075
2026-01-03 04:36:29.61	191.22	13.32	-43.3	-43.9	18.1	0.00e+00	0	58	0	1809842176	48	4045
2026-01-03 04:36:30.59	191.25	13.22	-43.3	-44.0	18.0	0.00e+00	0	58	0	1816133632	48	4081
2026-01-03 04:36:31.58	191.29	13.13	-43.5	-44.2	17.9	0.00e+00	0	58	0	1823473664	48	4163
2026-01-03 04:36:32.57	191.32	13.03	-43.7	-44.4	17.7	0.00e+00	0	58	0	1830813696	48	4255
2026-01-03 04:36:33.56	191.36	12.93	-43.7	-44.4	17.7	0.00e+00	0	57	0	1838153728	49	4023
2026-01-03 04:36:34.55	191.39	12.84	-43.6	-44.4	17.7	0.00e+00	0	58	0	1845493760	49	4008
2026-01-03 04:36:35.54	191.42	12.74	-43.7	-44.4	17.6	0.00e+00	0	58	0	1852833792	49	4037
2026-01-03 04:36:36.53	191.46	12.65	-43.7	-44.4	17.6	0.00e+00	0	58	0	1859125248	49	4039
2026-01-03 04:36:37.52	191.49	12.55	-43.8	-44.5	17.6	0.00e+00	0	58	0	1866465280	49	4068
2026-01-03 04:36:38.51	191.52	12.46	-43.9	-44.7	17.3	0.00e+00	0	58	0	1873805312	49	4151
2026-01-03 04:36:39.50	191.56	12.36	-44.0	-44.7	17.3	0.00e+00	0	58	0	1881145344	49	4180
2026-01-03 04:36:40.50	191.59	12.27	-43.8	-44.5	17.5	0.00e+00	0	58	0	1888485376	49	4096
2026-01-03 04:36:41.49	191.62	12.18	-43.7	-44.4	17.6	0.00e+00	0	58	0	1895825408	49	4029
2026-01-03 04:36:42.48	191.65	12.08	-43.7	-44.5	17.6	0.00e+00	0	58	0	1902116864	49	4057
2026-01-03 04:36:43.48	191.69	11.99	-43.8	-44.5	17.5	0.00e+00	0	58	0	1909456896	49	4061
2026-01-03 04:36:44.46	191.72	11.90	-43.9	-44.6	17.4	0.00e+00	0	58	0	1916796928	49	4142
2026-01-03 04:36:45.45	191.75	11.81	-44.1	-44.8	17.2	0.00e+00	0	58	0	1924136960	49	4233
2026-01-03 04:36:46.45	191.78	11.71	-44.1	-44.8	17.2	0.00e+00	0	58	0	1931476992	49	4234
2026-01-03 04:36:47.43	191.81	11.62	-44.1	-44.8	17.2	0.00e+00	0	58	0	1937768448	49	4241
2026-01-03 04:36:48.42	191.85	11.53	-44.0	-44.7	17.2	0.00e+00	0	58	0	1945108480	49	4189
2026-01-03 04:36:49.41	191.88	11.44	-43.9	-44.7	17.3	0.00e+00	0	58	0	1952448512	49	4147
2026-01-03 04:36:50.40	191.91	11.35	-43.9	-44.7	17.3	0.00e+00	0	58	0	1959788544	49	4178
2026-01-03 04:36:51.39	191.94	11.26	-43.9	-44.7	17.3	0.00e+00	0	58	0	1967128576	49	4172
2026-01-03 04:36:52.38	191.97	11.17	-44.0	-44.8	17.2	0.00e+00	0	58	0	1974468608	49	4211
2026-01-03 04:36:53.36	192.00	11.09	-44.0	-44.8	17.2	0.00e+00	0	58	0	1980760064	49	4207
2026-01-03 04:36:54.35	192.03	11.00	-44.2	-45.0	17.0	0.00e+00	0	58	0	1988100096	49	4306
2026-01-03 04:36:55.34	192.06	10.91	-44.3	-45.1	16.9	0.00e+00	0	58	0	1995440128	50	4111
2026-01-03 04:36:56.32	192.09	10.82	-44.2	-45.0	17.0	0.00e+00	0	58	0	2002780160	50	4061
2026-01-03 04:36:57.30	192.12	10.73	-44.1	-44.9	17.1	0.00e+00	0	58	0	2009071616	50	4032
2026-01-03 04:36:58.30	192.15	10.64	-44.3	-45.1	16.9	0.00e+00	0	58	0	2016411648	50	4110
2026-01-03 04:36:59.29	192.18	10.56	-44.4	-45.2	16.7	0.00e+00	0	58	0	2023751680	50	4184
2026-01-03 04:37:00.28	192.21	10.47	-44.3	-45.1	16.9	0.00e+00	0	58	0	2031091712	50	4105
2026-01-03 04:37:01.26	192.24	10.38	-44.3	-45.0	16.9	0.00e+00	0	58	0	2037383168	50	4095
2026-01-03 04:37:02.25	192.27	10.30	-44.3	-45.2	16.8	0.00e+00	0	58	0	2044723200	50	4146
2026-01-03 04:37:03.24	192.30	10.21	-44.2	-45.0	17.0	0.00e+00	0	58	0	2052063232	50	4056
2026-01-03 04:37:04.23	192.33	10.13	-44.3	-45.1	16.8	0.00e+00	0	58	0	2059403264	50	4124
2026-01-03 04:37:05.23	192.35	10.04	-44.3	-45.1	16.8	0.00e+00	0	58	0	2066743296	50	4123
2026-01-03 04:37:06.22	192.38	9.95	-44.4	-45.2	16.8	0.00e+00	0	58	0	2074083328	50	4158
2026-01-03 04:37:07.20	192.41	9.87	-44.4	-45.2	16.7	0.00e+00	0	58	0	2080374784	50	4173
2026-01-03 04:37:08.19	192.44	9.79	-44.3	-45.2	16.8	0.00e+00	0	58	0	2087714816	50	4146
2026-01-03 04:37:09.17	192.47	9.70	-44.4	-45.2	16.8	0.00e+00	0	58	0	2095054848	50	4156
2026-01-03 04:37:10.16	192.50	9.62	-44.4	-45.3	16.6	0.00e+00	0	58	0	2102394880	50	4211
2026-01-03 04:37:11.15	192.52	9.53	-44.4	-45.2	16.7	0.00e+00	0	58	0	2109734912	50	4175
2026-01-03 04:37:12.13	192.55	9.45	-44.5	-45.4	16.5	0.00e+00	0	58	0	2117074944	50	4260
2026-01-03 04:37:13.13	192.58	9.37	-44.8	-45.6	16.3	0.00e+00	0	58	0	2123366400	51	4132
2026-01-03 04:37:14.12	192.61	9.28	-44.6	-45.4	16.4	0.00e+00	0	58	0	2130706432	51	4046
2026-01-03 04:37:15.11	192.63	9.20	-44.8	-45.7	16.2	0.00e+00	0	58	0	2138046464	51	4147
2026-01-03 04:37:16.10	192.66	9.12	-45.1	-46.0	15.9	0.00e+00	0	58	0	2145386496	51	4316
2026-01-03 04:37:17.10	192.69	9.04	-45.0	-46.0	15.9	0.00e+00	0	58	0	2152726528	51	4301
2026-01-03 04:37:18.09	192.71	8.95	-45.1	-46.0	15.8	0.00e+00	0	58	0	2159017984	51	4323
2026-01-03 04:37:19.08	192.74	8.87	-45.1	-46.0	15.7	0.00e+00	0	58	0	2166358016	52	4096
2026-01-03 04:37:20.07	192.77	8.79	-45.2	-46.2	15.6	0.00e+00	0	58	0	2173698048	52	4164
2026-01-03 04:37:21.06	192.79	8.71	-45.3	-46.3	15.4	0.00e+00	0	58	0	2181038080	52	4241
2026-01-03 04:37:22.05	192.82	8.63	-45.2	-46.2	15.6	0.00e+00	0	58	0	2188378112	52	4157
2026-01-03 04:37:23.04	192.85	8.55	-45.5	-46.6	15.1	0.00e+00	0	58	0	2195718144	52	4360
2026-01-03 04:37:24.02	192.87	8.47	-45.3	-46.3	15.4	0.00e+00	0	58	0	2202009600	52	4235
2026-01-03 04:37:25.01	192.90	8.39	-45.1	-46.1	15.7	0.00e+00	0	58	0	2209349632	52	4103
2026-01-03 04:37:26.00	192.92	8.31	-44.9	-45.8	15.9	0.00e+00	0	58	0	2216689664	52	3964
2026-01-03 04:37:26.99	192.95	8.23	-44.8	-45.7	16.0	0.00e+00	0	58	0	2224029696	52	3953
2026-01-03 04:37:27.97	192.98	8.15	-44.9	-45.8	15.9	0.00e+00	0	58	0	2231369728	52	4002
2026-01-03 04:37:28.96	193.00	8.07	-44.7	-45.6	16.1	0.00e+00	0	58	0	2237661184	52	3887
2026-01-03 04:37:29.95	193.03	7.99	-44.6	-45.5	16.2	0.00e+00	0	58	0	2245001216	52	3859
2026-01-03 04:37:30.93	193.05	7.91	-44.7	-45.6	16.1	0.00e+00	0	58	0	2252341248	52	3882
2026-01-03 04:37:31.93	193.08	7.83	-44.7	-45.6	16.1	0.00e+00	0	58	0	2259681280	52	3903
2026-01-03 04:37:32.92	193.10	7.76	-44.8	-45.8	15.9	0.00e+00	0	58	0	2265972736	52	3970
2026-01-03 04:37:33.91	193.13	7.68	-44.8	-45.7	16.0	0.00e+00	0	58	0	2273312768	52	3952
2026-01-03 04:37:34.90	193.15	7.60	-44.9	-45.9	15.8	0.00e+00	0	58	0	2280652800	52	4014
2026-01-03 04:37:35.89	193.18	7.52	-45.3	-46.3	15.3	0.00e+00	0	58	0	2287992832	52	4232
2026-01-03 04:37:36.88	193.20	7.45	-45.1	-46.0	15.6	0.00e+00	0	58	0	2295332864	52	4098
2026-01-03 04:37:37.88	193.23	7.37	-44.8	-45.8	15.9	0.00e+00	0	58	0	2302672896	52	3976
2026-01-03 04:37:38.87	193.25	7.29	-44.7	-45.7	16.0	0.00e+00	0	58	0	2310012928	52	3922
2026-01-03 04:37:39.87	193.27	7.21	-44.9	-45.8	15.8	0.00e+00	0	58	0	2317352960	52	3982
2026-01-03 04:37:40.85	193.30	7.14	-45.1	-46.1	15.5	0.00e+00	0	58	0	2323644416	52	4117
2026-01-03 04:37:41.85	193.32	7.06	-45.2	-46.2	15.4	1.10e-06	0	58	0	2330984448	52	4166
2026-01-03 04:37:42.85	193.35	6.98	-45.2	-46.2	15.3	0.00e+00	0	58	0	2338324480	52	4191
2026-01-03 04:37:43.84	193.37	6.91	-45.1	-46.2	15.4	0.00e+00	0	58	0	2345664512	52	4146
2026-01-03 04:37:44.82	193.39	6.83	-45.1	-46.1	15.4	0.00e+00	0	58	0	2353004544	52	4144
2026-01-03 04:37:45.81	193.42	6.76	-45.2	-46.2	15.3	0.00e+00	0	58	0	2359296000	52	4181
2026-01-03 04:37:46.80	193.44	6.68	-45.1	-46.1	15.4	0.00e+00	0	58	0	2366636032	52	4142
2026-01-03 04:37:47.79	193.46	6.61	-45.4	-46.5	15.0	1.10e-06	0	58	0	2373976064	52	4328
2026-01-03 04:37:48.78	193.49	6.53	-45.3	-46.4	15.2	0.00e+00	0	58	0	2381316096	52	4250
2026-01-03 04:37:49.77	193.51	6.46	-45.4	-46.5	15.0	0.00e+00	0	58	0	2387607552	52	4333
2026-01-03 04:37:50.75	193.53	6.39	-45.4	-46.5	15.0	0.00e+00	0	58	0	2394947584	52	4300
2026-01-03 04:37:51.74	193.56	6.31	-45.1	-46.2	15.3	0.00e+00	0	58	0	2402287616	52	4162
2026-01-03 04:37:52.73	193.58	6.24	-45.2	-46.2	15.4	0.00e+00	0	58	0	2409627648	52	4157
2026-01-03 04:37:53.72	193.60	6.17	-45.2	-46.2	15.3	0.00e+00	0	58	0	2416967680	52	4181
2026-01-03 04:37:54.72	193.63	6.09	-45.1	-46.1	15.4	0.00e+00	0	58	0	2424307712	52	4135
2026-01-03 04:37:55.71	193.65	6.02	-45.2	-46.2	15.3	0.00e+00	0	58	0	2430599168	52	4162
2026-01-03 04:37:56.70	193.67	5.95	-45.3	-46.3	15.1	0.00e+00	0	58	0	2437939200	52	4235
2026-01-03 04:37:57.69	193.69	5.87	-45.2	-46.3	15.2	0.00e+00	0	58	0	2445279232	52	4203
2026-01-03 04:37:58.68	193.72	5.80	-45.3	-46.4	15.0	0.00e+00	0	58	0	2452619264	52	4264
2026-01-03 04:37:59.68	193.74	5.73	-45.4	-46.5	14.9	0.00e+00	0	58	0	2459959296	52	4308
2026-01-03 04:38:00.67	193.76	5.66	-45.5	-46.6	14.8	0.00e+00	0	58	0	2466250752	52	4380
2026-01-03 04:38:01.65	193.78	5.58	-45.5	-46.7	14.7	0.00e+00	0	58	0	2473590784	52	4397
2026-01-03 04:38:02.64	193.80	5.51	-45.4	-46.4	15.0	1.10e-06	0	58	0	2480930816	52	4280
2026-01-03 04:38:03.63	193.83	5.44	-45.3	-46.4	15.0	0.00e+00	0	58	0	2488270848	52	4280
2026-01-03 04:38:04.62	193.85	5.37	-45.4	-46.5	14.9	0.00e+00	0	58	0	2495610880	52	4336
2026-01-03 04:38:05.61	193.87	5.30	-45.4	-46.5	14.9	0.00e+00	0	58	0	2501902336	52	4313
2026-01-03 04:38:06.60	193.89	5.23	-45.2	-46.3	15.1	0.00e+00	0	58	0	2509242368	52	4211
2026-01-03 04:38:07.59	193.91	5.16	-45.4	-46.5	14.9	0.00e+00	0	58	0	2516582400	52	4301
2026-01-03 04:38:08.58	193.93	5.09	-45.2	-46.2	15.1	0.00e+00	0	58	0	2523922432	52	4183
2026-01-03 04:38:09.57	193.96	5.02	-52.3	-62.3	3.8	8.28e-01	0	58	104	2528116736	66	11845
2026-01-03 04:38:10.56	193.98	4.95	-52.5	-62.7	3.8	8.46e-01	0	58	104	2528116736	66	12391
2026-01-03 04:38:11.55	194.00	4.88	-52.7	-62.9	3.8	8.46e-01	0	58	104	2528116736	67	12029
2026-01-03 04:38:12.55	194.02	4.80	-52.9	-63.1	3.8	8.47e-01	0	58	104	2528116736	67	12274
2026-01-03 04:38:13.54	194.04	4.73	-52.8	-63.1	3.8	8.46e-01	0	58	104	2528116736	67	12312
2026-01-03 04:38:14.54	194.06	4.66	-53.0	-63.2	3.8	8.46e-01	0	58	104	2528116736	67	12423
2026-01-03 04:38:15.53	194.08	4.60	-53.1	-63.3	3.8	8.46e-01	0	58	104	2528116736	67	12524
2026-01-03 04:38:16.52	194.10	4.53	-53.1	-63.3	3.8	8.47e-01	0	58	104	2528116736	67	12552
2026-01-03 04:38:17.51	194.12	4.46	-53.1	-63.3	3.8	8.46e-01	0	58	104	2528116736	67	12623
2026-01-03 04:38:18.50	194.14	4.39	-53.2	-63.3	3.8	8.47e-01	0	58	104	2528116736	67	12637
2026-01-03 04:38:19.48	194.16	4.32	-53.2	-63.5	3.8	8.46e-01	0	58	104	2528116736	68	12098
2026-01-03 04:38:20.46	194.18	4.25	-53.3	-63.5	3.8	8.47e-01	0	58	104	2528116736	68	12171
2026-01-03 04:38:21.45	194.20	4.18	-53.3	-63.5	3.8	8.46e-01	0	58	104	2528116736	68	12215
2026-01-03 04:38:22.44	194.23	4.12	-53.3	-63.6	3.8	8.46e-01	0	58	104	2528116736	68	12235
2026-01-03 04:38:23.42	194.25	4.05	-53.3	-63.6	3.8	8.47e-01	0	58	104	2528116736	68	12250
2026-01-03 04:38:24.40	194.27	3.98	-53.2	-63.6	3.8	8.47e-01	0	58	104	2528116736	68	12257
2026-01-03 04:38:25.38	194.28	3.92	-53.3	-63.5	3.8	8.46e-01	0	58	104	2528116736	68	12203
2026-01-03 04:38:26.38	194.31	3.85	-53.1	-63.5	3.8	8.45e-01	0	58	104	2528116736	68	12205
2026-01-03 04:38:27.36	194.32	3.78	-53.3	-63.6	3.8	8.46e-01	0	58	104	2528116736	68	12277
2026-01-03 04:38:28.35	194.34	3.71	-53.2	-63.6	3.8	8.46e-01	0	58	104	2528116736	68	12240
2026-01-03 04:38:29.34	194.36	3.65	-53.3	-63.6	3.8	8.46e-01	0	58	104	2528116736	68	12297
2026-01-03 04:38:30.33	194.38	3.58	-53.3	-63.6	3.8	8.47e-01	0	58	104	2528116736	68	12256
2026-01-03 04:38:31.31	194.40	3.51	-53.2	-63.6	3.8	8.46e-01	0	58	104	2528116736	68	12262
2026-01-03 04:38:32.30	194.42	3.45	-53.3	-63.6	3.8	8.46e-01	0	58	104	2528116736	68	12285
2026-01-03 04:38:33.27	194.44	3.38	-53.3	-63.6	3.8	8.46e-01	0	58	104	2528116736	68	12283
2026-01-03 04:38:34.26	194.46	3.32	-53.3	-63.6	3.8	8.46e-01	0	58	104	2528116736	68	12275
2026-01-03 04:38:35.25	194.48	3.25	-53.4	-63.6	3.8	8.45e-01	0	58	104	2528116736	68	12289
2026-01-03 04:38:36.24	194.50	3.18	-53.3	-63.5	3.8	8.46e-01	0	58	104	2528116736	68	12216
2026-01-03 04:38:37.24	194.52	3.12	-53.3	-63.6	3.8	8.45e-01	0	58	104	2528116736	68	12268
2026-01-03 04:38:38.23	194.54	3.05	-53.3	-63.5	3.8	8.46e-01	0	58	104	2528116736	68	12222
2026-01-03 04:38:39.22	194.56	2.99	-53.4	-63.5	3.8	8.46e-01	0	58	104	2528116736	68	12206
2026-01-03 04:38:40.20	194.58	2.92	-53.2	-63.6	3.8	8.45e-01	0	58	104	2528116736	68	12273
2026-01-03 04:38:41.19	194.59	2.86	-53.4	-63.5	3.8	8.46e-01	0	58	104	2528116736	68	12230

#Closed at: 2026-01-03 04:38:41
#Recorded file [2528 MB]: D:/Data/31026_260103_073809.dat