passes_logs/2026/01/03/R3.0SM8_Murmansk_STILSPACE/R3.0SM8_Murmansk_STILSPACE__20260103_023740_FENGYUN_3D_rec.log

#Pass ID: 20260103_023740_FENGYUN 3D
#Satellite: FENGYUN 3D
#Configuration: FENGYUN 3D
#almurnet v.1.7.20240730
#Start time: 2026-01-03 02:37:40

#Version: 2.2.20231116
#Station: R3.0SM8_Murmansk_STILSPACE
#Location: 33.092731 lon 68.902999 lat
#TLE: 1 43010U 17072A   26002.31768531  .00000715  00000+0  35975-3 0  9993
#TLE: 2 43010  98.9910 333.9388 0001871 131.0716 229.0622 14.19693418421454

#Time	Az	El	Level	Level2	SNR	BER	BlckErr	Temp	State	Recorded	gain1	gain2
2026-01-03 02:37:40.88	24.80	3.05	-53.0	-63.8	3.8	8.47e-01	0	46	0	0	67	13444
2026-01-03 02:37:41.86	24.80	3.11	-53.0	-63.7	3.8	8.46e-01	0	46	104	0	68	12597
2026-01-03 02:37:42.86	24.81	3.18	-52.9	-63.6	3.8	8.46e-01	0	46	104	0	68	12471
2026-01-03 02:37:43.85	24.82	3.24	-52.8	-63.5	3.8	8.46e-01	0	46	104	0	68	12328
2026-01-03 02:37:44.84	24.83	3.31	-52.5	-63.4	3.8	8.46e-01	0	46	104	0	68	12103
2026-01-03 02:37:45.82	24.83	3.38	-52.2	-62.4	3.8	8.45e-01	0	46	104	0	67	11507
2026-01-03 02:37:46.82	24.84	3.44	-48.9	-51.8	9.7	7.83e-02	0	46	0	2097152	61	4776
2026-01-03 02:37:47.80	24.85	3.51	-48.6	-51.2	10.4	7.35e-03	0	46	0	7340032	60	4727
2026-01-03 02:37:48.79	24.86	3.58	-48.4	-50.8	10.8	4.64e-03	0	46	0	13631488	59	4766
2026-01-03 02:37:49.78	24.87	3.64	-48.2	-50.4	11.2	2.30e-03	0	47	0	18874368	59	4583
2026-01-03 02:37:50.77	24.87	3.71	-48.1	-50.3	11.3	1.45e-03	0	47	0	24117248	59	4540
2026-01-03 02:37:51.76	24.88	3.78	-48.0	-50.1	11.5	1.20e-03	0	47	0	29360128	58	4690
2026-01-03 02:37:52.75	24.89	3.84	-47.7	-49.7	12.0	6.42e-04	0	47	0	35651584	58	4457
2026-01-03 02:37:53.74	24.90	3.91	-47.7	-49.8	11.9	6.29e-04	0	46	0	40894464	58	4498
2026-01-03 02:37:54.72	24.90	3.98	-47.9	-50.1	11.6	9.61e-04	0	47	0	46137344	58	4664
2026-01-03 02:37:55.70	24.91	4.04	-47.6	-49.5	12.2	4.20e-04	0	47	0	52428800	58	4373
2026-01-03 02:37:56.69	24.92	4.11	-47.2	-49.0	12.7	9.26e-05	0	47	0	57671680	57	4371
2026-01-03 02:37:57.68	24.93	4.18	-46.8	-48.5	13.2	1.26e-04	0	47	0	62914560	56	4358
2026-01-03 02:37:58.67	24.94	4.25	-46.6	-48.3	13.5	3.20e-05	0	47	0	68157440	56	4245
2026-01-03 02:37:59.67	24.94	4.32	-46.3	-47.8	13.8	2.52e-04	0	47	0	74448896	55	4287
2026-01-03 02:38:00.66	24.95	4.39	-46.2	-47.7	13.9	8.00e-06	0	47	0	79691776	55	4223
2026-01-03 02:38:01.66	24.96	4.46	-46.1	-47.5	14.1	6.80e-06	0	47	0	85983232	55	4128
2026-01-03 02:38:02.65	24.97	4.53	-45.9	-47.3	14.3	5.70e-06	0	47	0	91226112	54	4257
2026-01-03 02:38:03.64	24.98	4.59	-45.9	-47.3	14.3	1.10e-06	0	47	0	96468992	54	4286
2026-01-03 02:38:04.63	24.98	4.66	-45.8	-47.2	14.5	1.10e-06	0	48	0	101711872	54	4208
2026-01-03 02:38:05.62	24.99	4.73	-45.9	-47.3	14.4	2.54e-04	0	48	0	108003328	54	4272
2026-01-03 02:38:06.61	25.00	4.80	-45.8	-47.1	14.5	0.00e+00	0	48	0	113246208	54	4178
2026-01-03 02:38:07.60	25.01	4.87	-45.8	-47.2	14.4	1.10e-06	0	47	0	118489088	54	4197
2026-01-03 02:38:08.59	25.02	4.94	-45.9	-47.2	14.4	0.00e+00	0	48	0	124780544	54	4241
2026-01-03 02:38:09.58	25.02	5.01	-46.1	-47.5	14.1	1.10e-06	0	48	0	130023424	54	4367
2026-01-03 02:38:10.56	25.03	5.08	-46.1	-47.5	14.1	2.20e-06	0	48	0	135266304	54	4372
2026-01-03 02:38:11.55	25.04	5.15	-45.8	-47.2	14.5	2.21e-04	0	48	0	141557760	54	4203
2026-01-03 02:38:12.54	25.05	5.23	-46.0	-47.3	14.4	1.10e-06	0	48	0	146800640	54	4281
2026-01-03 02:38:13.53	25.06	5.30	-46.0	-47.4	14.3	5.70e-06	0	48	0	152043520	54	4307
2026-01-03 02:38:14.52	25.07	5.37	-45.7	-47.0	14.7	1.10e-06	0	48	0	157286400	54	4125
2026-01-03 02:38:15.51	25.07	5.44	-45.6	-46.8	14.9	0.00e+00	0	48	0	163577856	54	4033
2026-01-03 02:38:16.49	25.08	5.51	-45.5	-46.7	15.1	2.20e-06	0	48	0	168820736	54	4002
2026-01-03 02:38:17.48	25.09	5.58	-45.5	-46.7	15.1	0.00e+00	0	48	0	174063616	54	3994
2026-01-03 02:38:18.46	25.10	5.65	-45.6	-46.8	15.0	0.00e+00	0	48	0	180355072	54	4040
2026-01-03 02:38:19.45	25.11	5.73	-45.6	-46.9	15.0	1.10e-06	0	49	0	185597952	54	4053
2026-01-03 02:38:20.44	25.12	5.80	-45.4	-46.6	15.2	0.00e+00	0	48	0	190840832	54	3958
2026-01-03 02:38:21.43	25.12	5.87	-45.4	-46.7	15.2	0.00e+00	0	48	0	196083712	53	4213
2026-01-03 02:38:22.42	25.13	5.94	-45.5	-46.8	15.1	0.00e+00	0	49	0	202375168	53	4248
2026-01-03 02:38:23.41	25.14	6.02	-45.6	-46.9	14.9	0.00e+00	0	48	0	207618048	53	4326
2026-01-03 02:38:24.40	25.15	6.09	-45.6	-46.9	15.0	1.10e-06	0	49	0	213909504	53	4316
2026-01-03 02:38:25.39	25.16	6.16	-45.7	-47.0	14.9	0.00e+00	0	49	0	219152384	53	4359
2026-01-03 02:38:26.38	25.17	6.24	-45.6	-46.8	15.1	0.00e+00	0	49	0	224395264	53	4279
2026-01-03 02:38:27.37	25.17	6.31	-45.9	-47.2	14.7	0.00e+00	0	49	0	229638144	53	4485
2026-01-03 02:38:28.36	25.18	6.38	-45.9	-47.2	14.7	0.00e+00	0	49	0	235929600	53	4490
2026-01-03 02:38:29.35	25.19	6.46	-45.7	-47.0	15.0	0.00e+00	0	49	0	241172480	53	4345
2026-01-03 02:38:30.34	25.20	6.53	-45.6	-46.8	15.1	0.00e+00	0	49	0	246415360	53	4272
2026-01-03 02:38:31.33	25.21	6.61	-45.5	-46.6	15.3	0.00e+00	0	49	0	252706816	53	4190
2026-01-03 02:38:32.31	25.22	6.68	-45.5	-46.7	15.2	0.00e+00	0	49	0	257949696	53	4240
2026-01-03 02:38:33.31	25.23	6.76	-45.5	-46.6	15.4	0.00e+00	0	49	0	263192576	53	4190
2026-01-03 02:38:34.30	25.23	6.83	-45.7	-47.0	15.0	0.00e+00	0	49	0	269484032	53	4346
2026-01-03 02:38:35.29	25.24	6.91	-45.4	-46.6	15.4	0.00e+00	0	49	0	274726912	53	4185
2026-01-03 02:38:36.28	25.25	6.98	-45.2	-46.3	15.7	0.00e+00	0	49	0	279969792	53	4027
2026-01-03 02:38:37.26	25.26	7.06	-45.1	-46.2	15.9	0.00e+00	0	49	0	285212672	53	3966
2026-01-03 02:38:38.25	25.27	7.14	-45.1	-46.2	15.9	0.00e+00	0	49	0	291504128	53	3969
2026-01-03 02:38:39.24	25.28	7.21	-45.1	-46.2	15.9	0.00e+00	0	49	0	296747008	53	3967
2026-01-03 02:38:40.24	25.29	7.29	-44.9	-46.1	16.0	0.00e+00	0	50	0	303038464	53	3930
2026-01-03 02:38:41.22	25.30	7.37	-44.9	-46.1	15.9	0.00e+00	0	50	0	308281344	52	4157
2026-01-03 02:38:42.21	25.30	7.44	-45.1	-46.2	15.9	0.00e+00	0	50	0	313524224	52	4229
2026-01-03 02:38:43.19	25.31	7.52	-45.2	-46.2	15.8	0.00e+00	0	50	0	318767104	52	4241
2026-01-03 02:38:44.18	25.32	7.60	-45.0	-46.1	16.0	0.00e+00	0	50	0	325058560	52	4176
2026-01-03 02:38:45.18	25.33	7.68	-45.0	-46.1	16.0	0.00e+00	0	49	0	330301440	52	4173
2026-01-03 02:38:46.16	25.34	7.75	-45.1	-46.2	15.9	0.00e+00	0	50	0	335544320	52	4222
2026-01-03 02:38:47.16	25.35	7.83	-45.1	-46.2	15.9	5.83e-05	0	50	0	341835776	52	4212
2026-01-03 02:38:48.14	25.36	7.91	-45.1	-46.2	15.9	0.00e+00	0	50	0	347078656	52	4241
2026-01-03 02:38:49.14	25.37	7.99	-45.2	-46.4	15.8	0.00e+00	0	50	0	352321536	52	4294
2026-01-03 02:38:50.13	25.38	8.07	-45.2	-46.4	15.8	0.00e+00	0	50	0	357564416	52	4293
2026-01-03 02:38:51.12	25.38	8.15	-45.1	-46.2	15.9	0.00e+00	0	50	0	363855872	52	4223
2026-01-03 02:38:52.10	25.39	8.23	-45.1	-46.2	15.9	0.00e+00	0	50	0	369098752	52	4235
2026-01-03 02:38:53.09	25.40	8.31	-45.1	-46.2	15.9	6.80e-06	0	50	0	375390208	52	4234
2026-01-03 02:38:54.08	25.41	8.39	-45.3	-46.5	15.7	0.00e+00	0	50	0	380633088	52	4342
2026-01-03 02:38:55.06	25.42	8.47	-45.1	-46.2	15.9	0.00e+00	0	50	0	385875968	52	4231
2026-01-03 02:38:56.05	25.43	8.55	-45.0	-46.1	16.1	0.00e+00	0	50	0	391118848	52	4154
2026-01-03 02:38:57.05	25.44	8.63	-44.9	-46.0	16.2	0.00e+00	0	50	0	397410304	52	4112
2026-01-03 02:38:58.04	25.45	8.71	-45.0	-46.0	16.2	0.00e+00	0	50	0	402653184	52	4125
2026-01-03 02:38:59.03	25.46	8.79	-45.0	-46.1	16.1	3.77e-05	0	50	0	407896064	52	4177
2026-01-03 02:39:00.02	25.47	8.87	-45.2	-46.3	15.9	0.00e+00	0	50	0	414187520	52	4249
2026-01-03 02:39:01.01	25.48	8.95	-45.2	-46.3	15.9	0.00e+00	0	50	0	419430400	52	4245
2026-01-03 02:39:02.00	25.48	9.04	-45.2	-46.2	15.9	0.00e+00	0	51	0	424673280	52	4241
2026-01-03 02:39:02.99	25.49	9.12	-45.2	-46.3	15.9	0.00e+00	0	51	0	430964736	52	4282
2026-01-03 02:39:03.98	25.50	9.20	-45.4	-46.5	15.7	0.00e+00	0	51	0	436207616	52	4369
2026-01-03 02:39:04.98	25.51	9.29	-45.2	-46.3	15.9	0.00e+00	0	51	0	441450496	52	4281
2026-01-03 02:39:05.96	25.52	9.37	-45.1	-46.1	16.1	0.00e+00	0	51	0	446693376	52	4187
2026-01-03 02:39:06.96	25.53	9.45	-45.3	-46.4	15.8	0.00e+00	0	51	0	452984832	52	4294
2026-01-03 02:39:07.95	25.54	9.54	-45.5	-46.6	15.6	0.00e+00	0	51	0	458227712	52	4422
2026-01-03 02:39:08.93	25.55	9.62	-45.2	-46.3	15.9	0.00e+00	0	51	0	464519168	52	4287
2026-01-03 02:39:09.93	25.56	9.71	-45.0	-46.0	16.2	0.00e+00	0	51	0	469762048	52	4123
2026-01-03 02:39:10.92	25.57	9.79	-44.8	-45.9	16.4	0.00e+00	0	51	0	475004928	52	4055
2026-01-03 02:39:11.91	25.58	9.88	-44.9	-45.9	16.3	0.00e+00	0	51	0	480247808	52	4098
2026-01-03 02:39:12.90	25.59	9.96	-44.9	-45.9	16.4	0.00e+00	0	51	0	486539264	52	4070
2026-01-03 02:39:13.89	25.60	10.05	-45.0	-46.0	16.3	0.00e+00	0	51	0	491782144	52	4112
2026-01-03 02:39:14.87	25.61	10.13	-45.0	-46.1	16.2	0.00e+00	0	51	0	497025024	52	4151
2026-01-03 02:39:15.85	25.62	10.22	-45.2	-46.3	16.0	0.00e+00	0	51	0	503316480	52	4273
2026-01-03 02:39:16.83	25.63	10.30	-45.1	-46.2	16.1	0.00e+00	0	51	0	508559360	52	4209
2026-01-03 02:39:17.81	25.64	10.39	-44.9	-46.0	16.3	0.00e+00	0	51	0	513802240	52	4108
2026-01-03 02:39:18.80	25.65	10.48	-45.0	-46.0	16.3	0.00e+00	0	51	0	519045120	52	4126
2026-01-03 02:39:19.79	25.66	10.56	-45.1	-46.2	16.1	0.00e+00	0	51	0	525336576	52	4227
2026-01-03 02:39:20.78	25.67	10.65	-45.1	-46.2	16.1	0.00e+00	0	51	0	530579456	52	4217
2026-01-03 02:39:21.76	25.68	10.74	-44.9	-45.9	16.3	0.00e+00	0	51	0	535822336	52	4091
2026-01-03 02:39:22.74	25.69	10.82	-44.8	-45.8	16.6	0.00e+00	0	51	0	542113792	52	4008
2026-01-03 02:39:23.74	25.70	10.91	-44.6	-45.7	16.7	0.00e+00	0	51	0	547356672	52	3959
2026-01-03 02:39:24.74	25.71	11.00	-44.7	-45.6	16.7	0.00e+00	0	51	0	552599552	52	3957
2026-01-03 02:39:25.73	25.72	11.09	-44.6	-45.6	16.8	0.00e+00	0	52	0	557842432	52	3915
2026-01-03 02:39:26.71	25.73	11.18	-44.5	-45.5	16.9	0.00e+00	0	51	0	564133888	52	3881
2026-01-03 02:39:27.70	25.74	11.27	-44.5	-45.5	16.8	0.00e+00	0	51	0	569376768	52	3896
2026-01-03 02:39:28.69	25.75	11.36	-44.5	-45.5	16.9	0.00e+00	0	51	0	574619648	52	3876
2026-01-03 02:39:29.67	25.76	11.45	-44.7	-45.7	16.7	0.00e+00	0	51	0	580911104	52	3984
2026-01-03 02:39:30.65	25.77	11.54	-44.8	-45.8	16.6	0.00e+00	0	52	0	586153984	52	4022
2026-01-03 02:39:31.64	25.78	11.63	-44.7	-45.7	16.7	0.00e+00	0	52	0	591396864	52	3983
2026-01-03 02:39:32.62	25.79	11.72	-44.8	-45.8	16.5	0.00e+00	0	52	0	596639744	52	4037
2026-01-03 02:39:33.61	25.80	11.82	-44.8	-45.8	16.6	0.00e+00	0	52	0	602931200	52	4022
2026-01-03 02:39:34.60	25.81	11.91	-44.7	-45.7	16.6	0.00e+00	0	52	0	608174080	52	4001
2026-01-03 02:39:35.59	25.82	12.00	-44.6	-45.6	16.8	0.00e+00	0	52	0	614465536	52	3921
2026-01-03 02:39:36.57	25.83	12.09	-44.6	-45.6	16.8	0.00e+00	0	52	0	619708416	52	3928
2026-01-03 02:39:37.56	25.84	12.19	-44.6	-45.6	16.8	0.00e+00	0	52	0	624951296	52	3949
2026-01-03 02:39:38.55	25.85	12.28	-44.5	-45.4	17.0	0.00e+00	0	52	0	630194176	52	3862
2026-01-03 02:39:39.54	25.86	12.37	-44.5	-45.4	17.0	0.00e+00	0	52	0	636485632	52	3855
2026-01-03 02:39:40.53	25.87	12.47	-44.5	-45.4	17.1	0.00e+00	0	52	0	641728512	51	4092
2026-01-03 02:39:41.51	25.88	12.56	-44.5	-45.5	17.0	0.00e+00	0	52	0	646971392	51	4118
2026-01-03 02:39:42.50	25.89	12.66	-44.5	-45.4	17.1	0.00e+00	0	52	0	653262848	51	4097
2026-01-03 02:39:43.49	25.90	12.75	-44.7	-45.6	16.9	0.00e+00	0	52	0	658505728	51	4185
2026-01-03 02:39:44.48	25.91	12.85	-44.8	-45.8	16.7	0.00e+00	0	52	0	663748608	51	4271
2026-01-03 02:39:45.48	25.93	12.95	-44.8	-45.8	16.7	0.00e+00	0	52	0	668991488	51	4275
2026-01-03 02:39:46.47	25.94	13.04	-44.7	-45.6	16.9	0.00e+00	0	52	0	675282944	51	4187
2026-01-03 02:39:47.45	25.95	13.14	-44.6	-45.6	17.0	0.00e+00	0	52	0	680525824	51	4162
2026-01-03 02:39:48.44	25.96	13.24	-44.6	-45.5	17.0	0.00e+00	0	52	0	685768704	51	4136
2026-01-03 02:39:49.42	25.97	13.33	-44.6	-45.5	17.0	0.00e+00	0	52	0	692060160	51	4135
2026-01-03 02:39:50.41	25.98	13.43	-44.6	-45.6	17.0	0.00e+00	0	52	0	697303040	51	4146
2026-01-03 02:39:51.40	25.99	13.53	-44.8	-45.8	16.8	0.00e+00	0	52	0	702545920	51	4263
2026-01-03 02:39:52.39	26.00	13.63	-45.0	-46.0	16.5	0.00e+00	0	52	0	708837376	51	4365
2026-01-03 02:39:53.38	26.01	13.73	-44.7	-45.6	16.9	0.00e+00	0	52	0	714080256	51	4193
2026-01-03 02:39:54.37	26.02	13.83	-44.4	-45.4	17.2	0.00e+00	0	52	0	719323136	51	4052
2026-01-03 02:39:55.35	26.04	13.93	-44.3	-45.2	17.4	0.00e+00	0	52	0	724566016	51	3971
2026-01-03 02:39:56.33	26.05	14.03	-44.1	-45.0	17.5	0.00e+00	0	52	0	730857472	51	3904
2026-01-03 02:39:57.33	26.06	14.13	-44.2	-45.1	17.4	0.00e+00	0	52	0	736100352	51	3943
2026-01-03 02:39:58.32	26.07	14.23	-44.2	-45.1	17.4	0.00e+00	0	52	0	741343232	51	3954
2026-01-03 02:39:59.32	26.08	14.34	-44.1	-44.9	17.6	0.00e+00	0	53	0	747634688	51	3858
2026-01-03 02:40:00.30	26.09	14.44	-43.9	-44.8	17.8	0.00e+00	0	52	0	752877568	51	3789
2026-01-03 02:40:01.29	26.10	14.54	-43.9	-44.7	17.9	0.00e+00	0	53	0	758120448	50	3985
2026-01-03 02:40:02.28	26.12	14.64	-43.8	-44.7	17.9	0.00e+00	0	53	0	764411904	50	3973
2026-01-03 02:40:03.27	26.13	14.75	-44.0	-44.8	17.8	0.00e+00	0	53	0	769654784	50	4037
2026-01-03 02:40:04.26	26.14	14.85	-44.1	-44.9	17.6	0.00e+00	0	53	0	774897664	50	4095
2026-01-03 02:40:05.25	26.15	14.96	-44.3	-45.1	17.4	0.00e+00	0	53	0	781189120	50	4188
2026-01-03 02:40:06.23	26.16	15.06	-44.0	-44.9	17.7	0.00e+00	0	53	0	786432000	50	4057
2026-01-03 02:40:07.21	26.17	15.16	-43.8	-44.6	18.0	0.00e+00	0	53	0	791674880	50	3941
2026-01-03 02:40:08.20	26.19	15.27	-43.6	-44.4	18.2	0.00e+00	0	53	0	796917760	50	3857
2026-01-03 02:40:09.19	26.20	15.38	-43.6	-44.4	18.2	0.00e+00	0	53	0	803209216	50	3843
2026-01-03 02:40:10.17	26.21	15.48	-43.6	-44.5	18.2	0.00e+00	0	53	0	808452096	50	3872
2026-01-03 02:40:11.16	26.22	15.59	-43.6	-44.4	18.2	0.00e+00	0	53	0	813694976	50	3829
2026-01-03 02:40:12.15	26.23	15.70	-43.7	-44.5	18.1	0.00e+00	0	53	0	819986432	50	3871
2026-01-03 02:40:13.14	26.25	15.81	-43.4	-44.2	18.4	0.00e+00	0	53	0	825229312	50	3742
2026-01-03 02:40:14.13	26.26	15.92	-43.2	-44.0	18.6	0.00e+00	0	53	0	830472192	49	3897
2026-01-03 02:40:15.12	26.27	16.02	-43.1	-43.9	18.7	0.00e+00	0	53	0	835715072	49	3835
2026-01-03 02:40:16.11	26.28	16.13	-43.1	-43.9	18.7	0.00e+00	0	53	0	842006528	49	3834
2026-01-03 02:40:17.10	26.30	16.24	-43.2	-44.0	18.6	0.00e+00	0	53	0	847249408	49	3871
2026-01-03 02:40:18.08	26.31	16.35	-43.3	-44.1	18.5	0.00e+00	0	53	0	853540864	49	3943
2026-01-03 02:40:19.08	26.32	16.47	-43.4	-44.2	18.4	0.00e+00	0	53	0	858783744	49	3961
2026-01-03 02:40:20.06	26.33	16.58	-43.3	-44.1	18.5	0.00e+00	0	53	0	864026624	49	3918
2026-01-03 02:40:21.05	26.35	16.69	-43.2	-44.0	18.6	0.00e+00	0	53	0	869269504	49	3884
2026-01-03 02:40:22.04	26.36	16.80	-43.3	-44.0	18.6	0.00e+00	0	53	0	875560960	49	3905
2026-01-03 02:40:23.04	26.37	16.92	-43.4	-44.2	18.4	0.00e+00	0	53	0	880803840	49	3989
2026-01-03 02:40:24.03	26.39	17.03	-43.3	-44.0	18.6	0.00e+00	0	53	0	886046720	49	3907
2026-01-03 02:40:25.01	26.40	17.14	-43.4	-44.2	18.4	0.00e+00	0	53	0	892338176	49	3974
2026-01-03 02:40:26.00	26.41	17.26	-43.2	-43.9	18.7	0.00e+00	0	53	0	897581056	49	3857
2026-01-03 02:40:26.99	26.42	17.37	-43.0	-43.7	18.9	0.00e+00	0	53	0	902823936	49	3774
2026-01-03 02:40:27.98	26.44	17.49	-42.9	-43.6	19.0	0.00e+00	0	53	0	908066816	49	3734
2026-01-03 02:40:28.96	26.45	17.61	-42.8	-43.5	19.1	0.00e+00	0	53	0	914358272	48	3905
2026-01-03 02:40:29.95	26.46	17.72	-42.9	-43.6	19.1	0.00e+00	0	53	0	919601152	48	3929
2026-01-03 02:40:30.93	26.48	17.84	-42.8	-43.5	19.1	0.00e+00	0	53	0	924844032	48	3885
2026-01-03 02:40:31.92	26.49	17.96	-42.6	-43.3	19.3	0.00e+00	0	53	0	931135488	48	3818
2026-01-03 02:40:32.90	26.50	18.08	-42.7	-43.4	19.3	0.00e+00	0	53	0	936378368	48	3833
2026-01-03 02:40:33.89	26.52	18.20	-42.9	-43.6	19.1	0.00e+00	0	53	0	941621248	48	3935
2026-01-03 02:40:34.87	26.53	18.31	-42.8	-43.5	19.2	0.00e+00	0	53	0	946864128	48	3873
2026-01-03 02:40:35.86	26.54	18.44	-42.6	-43.3	19.3	0.00e+00	0	53	0	953155584	48	3809
2026-01-03 02:40:36.86	26.56	18.56	-42.6	-43.3	19.3	0.00e+00	0	54	0	958398464	48	3813
2026-01-03 02:40:37.84	26.57	18.68	-42.8	-43.5	19.1	0.00e+00	0	53	0	963641344	48	3910
2026-01-03 02:40:38.83	26.59	18.80	-42.7	-43.4	19.2	0.00e+00	0	54	0	969932800	48	3852
2026-01-03 02:40:39.82	26.60	18.92	-42.8	-43.5	19.1	0.00e+00	0	54	0	975175680	48	3907
2026-01-03 02:40:40.81	26.61	19.05	-42.6	-43.3	19.3	0.00e+00	0	54	0	980418560	48	3820
2026-01-03 02:40:41.80	26.63	19.17	-42.6	-43.2	19.4	0.00e+00	0	54	0	986710016	48	3779
2026-01-03 02:40:42.79	26.64	19.30	-42.6	-43.3	19.4	0.00e+00	0	54	0	991952896	48	3803
2026-01-03 02:40:43.78	26.66	19.42	-42.6	-43.3	19.3	0.00e+00	0	54	0	997195776	48	3819
2026-01-03 02:40:44.77	26.67	19.55	-42.7	-43.4	19.3	0.00e+00	0	54	0	1002438656	48	3837
2026-01-03 02:40:45.76	26.69	19.68	-42.7	-43.4	19.3	0.00e+00	0	54	0	1008730112	48	3833
2026-01-03 02:40:46.74	26.70	19.80	-42.6	-43.3	19.4	0.00e+00	0	54	0	1013972992	48	3807
2026-01-03 02:40:47.73	26.71	19.93	-42.8	-43.5	19.2	0.00e+00	0	54	0	1019215872	48	3881
2026-01-03 02:40:48.72	26.73	20.06	-42.7	-43.4	19.3	0.00e+00	0	54	0	1025507328	48	3854
2026-01-03 02:40:49.71	26.74	20.19	-42.7	-43.4	19.3	0.00e+00	0	54	0	1030750208	48	3840
2026-01-03 02:40:50.70	26.76	20.32	-42.8	-43.5	19.2	0.00e+00	0	54	0	1035993088	48	3903
2026-01-03 02:40:51.68	26.77	20.45	-42.7	-43.4	19.2	0.00e+00	0	54	0	1042284544	48	3856
2026-01-03 02:40:52.67	26.79	20.58	-42.5	-43.2	19.5	0.00e+00	0	54	0	1047527424	48	3744
2026-01-03 02:40:53.65	26.80	20.71	-42.2	-42.9	19.6	0.00e+00	0	54	0	1052770304	47	3832
2026-01-03 02:40:54.65	26.82	20.84	-42.2	-42.9	19.6	0.00e+00	0	54	0	1059061760	47	3837
2026-01-03 02:40:55.64	26.84	20.98	-42.2	-42.8	19.7	0.00e+00	0	54	0	1064304640	47	3806
2026-01-03 02:40:56.63	26.85	21.11	-42.0	-42.7	19.8	0.00e+00	0	54	0	1069547520	47	3738
2026-01-03 02:40:57.62	26.87	21.25	-41.9	-42.5	20.0	0.00e+00	0	54	0	1074790400	46	3895
2026-01-03 02:40:58.61	26.88	21.38	-41.8	-42.4	20.1	0.00e+00	0	54	0	1081081856	46	3851
2026-01-03 02:40:59.61	26.90	21.52	-42.0	-42.7	19.9	0.00e+00	0	54	0	1086324736	46	3959
2026-01-03 02:41:00.60	26.91	21.66	-42.1	-42.7	19.8	0.00e+00	0	54	0	1091567616	46	3993
2026-01-03 02:41:01.59	26.93	21.80	-42.0	-42.7	19.8	0.00e+00	0	54	0	1097859072	46	3983
2026-01-03 02:41:02.58	26.95	21.93	-42.1	-42.8	19.7	0.00e+00	0	54	0	1103101952	46	4039
2026-01-03 02:41:03.57	26.96	22.07	-42.2	-42.8	19.7	0.00e+00	0	54	0	1108344832	46	4045
2026-01-03 02:41:04.56	26.98	22.21	-42.2	-42.9	19.7	0.00e+00	0	54	0	1114636288	46	4074
2026-01-03 02:41:05.55	27.00	22.36	-42.3	-43.0	19.6	0.00e+00	0	54	0	1119879168	46	4114
2026-01-03 02:41:06.54	27.01	22.50	-42.4	-43.1	19.4	0.00e+00	0	54	0	1125122048	46	4177
2026-01-03 02:41:07.53	27.03	22.64	-42.4	-43.1	19.4	0.00e+00	0	54	0	1131413504	46	4157
2026-01-03 02:41:08.52	27.05	22.78	-42.2	-42.8	19.7	0.00e+00	0	54	0	1136656384	46	4051
2026-01-03 02:41:09.51	27.06	22.93	-42.0	-42.6	19.9	0.00e+00	0	54	0	1141899264	46	3949
2026-01-03 02:41:10.50	27.08	23.07	-41.9	-42.6	20.0	0.00e+00	0	54	0	1148190720	46	3929
2026-01-03 02:41:11.49	27.10	23.22	-41.9	-42.5	20.0	0.00e+00	0	54	0	1153433600	46	3904
2026-01-03 02:41:12.49	27.11	23.37	-41.9	-42.5	20.0	0.00e+00	0	54	0	1158676480	46	3908
2026-01-03 02:41:13.48	27.13	23.51	-42.0	-42.6	19.9	0.00e+00	0	54	0	1163919360	46	3954
2026-01-03 02:41:14.47	27.15	23.66	-41.7	-42.3	20.3	0.00e+00	0	54	0	1170210816	46	3792
2026-01-03 02:41:15.45	27.17	23.81	-41.4	-42.0	20.5	0.00e+00	0	54	0	1175453696	45	3877
2026-01-03 02:41:16.44	27.18	23.96	-41.3	-41.9	20.6	0.00e+00	0	54	0	1181745152	45	3832
2026-01-03 02:41:17.43	27.20	24.11	-41.2	-41.8	20.7	0.00e+00	0	54	0	1186988032	45	3819
2026-01-03 02:41:18.41	27.22	24.26	-41.3	-41.9	20.6	0.00e+00	0	54	0	1192230912	45	3836
2026-01-03 02:41:19.40	27.24	24.41	-41.2	-41.8	20.7	0.00e+00	0	54	0	1197473792	45	3795
2026-01-03 02:41:20.38	27.26	24.57	-41.3	-41.9	20.6	0.00e+00	0	54	0	1203765248	45	3849
2026-01-03 02:41:21.37	27.27	24.72	-41.4	-42.0	20.5	0.00e+00	0	54	0	1209008128	45	3889
2026-01-03 02:41:22.37	27.29	24.88	-41.3	-41.9	20.6	0.00e+00	0	54	0	1214251008	45	3865
2026-01-03 02:41:23.36	27.31	25.03	-41.4	-42.0	20.5	0.00e+00	0	54	0	1220542464	45	3907
2026-01-03 02:41:24.35	27.33	25.19	-41.5	-42.1	20.4	0.00e+00	0	54	0	1225785344	45	3929
2026-01-03 02:41:25.34	27.35	25.35	-41.7	-42.3	20.3	0.00e+00	0	54	0	1231028224	45	4020
2026-01-03 02:41:26.33	27.37	25.51	-41.7	-42.3	20.2	0.00e+00	0	54	0	1236271104	45	4036
2026-01-03 02:41:27.32	27.39	25.67	-41.6	-42.3	20.3	0.00e+00	0	54	0	1242562560	45	4006
2026-01-03 02:41:28.32	27.41	25.83	-41.6	-42.2	20.3	0.00e+00	0	54	0	1247805440	45	4004
2026-01-03 02:41:29.30	27.43	25.99	-41.8	-42.4	20.1	0.00e+00	0	54	0	1253048320	45	4070
2026-01-03 02:41:30.29	27.45	26.16	-41.8	-42.5	20.1	0.00e+00	0	54	0	1259339776	45	4111
2026-01-03 02:41:31.28	27.47	26.32	-41.6	-42.2	20.3	0.00e+00	0	55	0	1264582656	45	4004
2026-01-03 02:41:32.27	27.49	26.49	-41.8	-42.4	20.1	0.00e+00	0	54	0	1269825536	45	4093
2026-01-03 02:41:33.26	27.51	26.65	-42.1	-42.7	19.9	0.00e+00	0	55	0	1276116992	45	4216
2026-01-03 02:41:34.25	27.53	26.82	-41.7	-42.3	20.2	0.00e+00	0	55	0	1281359872	45	4050
2026-01-03 02:41:35.24	27.55	26.99	-41.5	-42.1	20.4	0.00e+00	0	55	0	1286602752	45	3949
2026-01-03 02:41:36.23	27.57	27.16	-41.3	-41.9	20.6	0.00e+00	0	55	0	1292894208	45	3854
2026-01-03 02:41:37.22	27.59	27.33	-41.3	-41.9	20.6	0.00e+00	0	55	0	1298137088	45	3844
2026-01-03 02:41:38.21	27.61	27.50	-41.3	-41.9	20.6	0.00e+00	0	55	0	1303379968	45	3850
2026-01-03 02:41:39.20	27.63	27.67	-41.2	-41.7	20.8	0.00e+00	0	54	0	1309671424	45	3775
2026-01-03 02:41:40.19	27.66	27.84	-41.1	-41.7	20.8	0.00e+00	0	55	0	1314914304	45	3758
2026-01-03 02:41:41.18	27.68	28.02	-41.2	-41.8	20.7	0.00e+00	0	55	0	1320157184	45	3819
2026-01-03 02:41:42.16	27.70	28.19	-41.5	-42.1	20.5	0.00e+00	0	55	0	1325400064	45	3926
2026-01-03 02:41:43.15	27.72	28.37	-41.4	-42.0	20.5	0.00e+00	0	55	0	1331691520	45	3907
2026-01-03 02:41:44.15	27.74	28.55	-41.7	-42.3	20.3	0.00e+00	0	55	0	1336934400	45	4021
2026-01-03 02:41:45.14	27.77	28.73	-41.7	-42.4	20.2	0.00e+00	0	55	0	1342177280	45	4058
2026-01-03 02:41:46.13	27.79	28.91	-41.7	-42.3	20.3	0.00e+00	0	55	0	1348468736	45	4028
2026-01-03 02:41:47.12	27.81	29.09	-41.6	-42.2	20.3	0.00e+00	0	55	0	1353711616	45	3988
2026-01-03 02:41:48.10	27.83	29.27	-41.5	-42.1	20.5	0.00e+00	0	55	0	1358954496	45	3917
2026-01-03 02:41:49.10	27.86	29.46	-41.5	-42.1	20.5	0.00e+00	0	55	0	1365245952	45	3938
2026-01-03 02:41:50.08	27.88	29.64	-41.3	-41.9	20.6	0.00e+00	0	55	0	1370488832	45	3848
2026-01-03 02:41:51.07	27.91	29.83	-41.6	-42.2	20.3	0.00e+00	0	55	0	1375731712	45	3989
2026-01-03 02:41:52.06	27.93	30.01	-41.4	-42.0	20.6	0.00e+00	0	55	0	1382023168	45	3873
2026-01-03 02:41:53.05	27.95	30.20	-41.6	-42.3	20.3	0.00e+00	0	55	0	1387266048	45	4008
2026-01-03 02:41:54.04	27.98	30.39	-41.4	-42.0	20.5	0.00e+00	0	55	0	1392508928	45	3901
2026-01-03 02:41:55.02	28.00	30.58	-41.1	-41.7	20.9	0.00e+00	0	55	0	1397751808	45	3747
2026-01-03 02:41:56.01	28.03	30.77	-40.9	-41.5	21.0	0.00e+00	0	55	0	1404043264	45	3675
2026-01-03 02:41:57.00	28.05	30.97	-40.9	-41.5	21.1	0.00e+00	0	55	0	1409286144	44	3876
2026-01-03 02:41:57.99	28.08	31.16	-40.9	-41.5	21.1	0.00e+00	0	55	0	1414529024	44	3878
2026-01-03 02:41:58.98	28.10	31.36	-41.0	-41.6	21.0	0.00e+00	0	55	0	1420820480	44	3917
2026-01-03 02:41:59.97	28.13	31.56	-41.1	-41.7	20.8	0.00e+00	0	55	0	1426063360	44	3983
2026-01-03 02:42:00.95	28.16	31.75	-41.2	-41.8	20.8	0.00e+00	0	55	0	1431306240	44	4024
2026-01-03 02:42:01.94	28.18	31.95	-41.2	-41.8	20.8	0.00e+00	0	55	0	1437597696	44	4036
2026-01-03 02:42:02.92	28.21	32.15	-41.4	-42.0	20.6	0.00e+00	0	55	0	1442840576	44	4120
2026-01-03 02:42:03.91	28.24	32.36	-41.3	-41.9	20.7	0.00e+00	0	55	0	1448083456	44	4072
2026-01-03 02:42:04.90	28.26	32.56	-41.4	-42.1	20.5	0.00e+00	0	55	0	1453326336	44	4156
2026-01-03 02:42:05.89	28.29	32.77	-41.5	-42.2	20.4	0.00e+00	0	55	0	1459617792	44	4197
2026-01-03 02:42:06.88	28.32	32.97	-41.5	-42.1	20.5	0.00e+00	0	55	0	1464860672	44	4165
2026-01-03 02:42:07.87	28.35	33.18	-41.4	-42.0	20.5	0.00e+00	0	55	0	1470103552	44	4140
2026-01-03 02:42:08.85	28.38	33.39	-41.3	-41.9	20.7	0.00e+00	0	55	0	1476395008	44	4065
2026-01-03 02:42:09.84	28.41	33.60	-41.2	-41.8	20.7	0.00e+00	0	55	0	1481637888	44	4044
2026-01-03 02:42:10.84	28.44	33.82	-41.4	-42.0	20.6	0.00e+00	0	55	0	1486880768	44	4100
2026-01-03 02:42:11.82	28.46	34.03	-41.2	-41.8	20.7	0.00e+00	0	55	0	1492123648	44	4039
2026-01-03 02:42:12.82	28.49	34.25	-41.3	-41.8	20.7	0.00e+00	0	55	0	1498415104	44	4046
2026-01-03 02:42:13.81	28.53	34.47	-41.1	-41.7	20.9	0.00e+00	0	55	0	1503657984	44	3959
2026-01-03 02:42:14.79	28.56	34.68	-40.8	-41.4	21.1	0.00e+00	0	55	0	1509949440	44	3850
2026-01-03 02:42:15.78	28.59	34.90	-40.7	-41.2	21.3	0.00e+00	0	55	0	1515192320	44	3765
2026-01-03 02:42:16.76	28.62	35.12	-40.6	-41.1	21.5	0.00e+00	0	55	0	1520435200	44	3713
2026-01-03 02:42:17.75	28.65	35.35	-40.6	-41.2	21.4	0.00e+00	0	55	0	1525678080	44	3746
2026-01-03 02:42:18.74	28.68	35.57	-40.5	-41.1	21.4	0.00e+00	0	55	0	1531969536	44	3715
2026-01-03 02:42:19.72	28.71	35.80	-40.5	-41.0	21.5	0.00e+00	0	55	0	1537212416	44	3678
2026-01-03 02:42:20.70	28.75	36.02	-40.4	-40.9	21.5	0.00e+00	0	55	0	1542455296	43	3847
2026-01-03 02:42:21.69	28.78	36.25	-40.7	-41.2	21.3	0.00e+00	0	55	0	1548746752	43	3991
2026-01-03 02:42:22.68	28.81	36.49	-40.6	-41.2	21.3	0.00e+00	0	55	0	1553989632	43	3975
2026-01-03 02:42:23.66	28.85	36.72	-40.3	-40.8	21.6	0.00e+00	0	55	0	1559232512	43	3800
2026-01-03 02:42:24.66	28.88	36.95	-40.0	-40.6	21.9	0.00e+00	0	55	0	1564475392	43	3697
2026-01-03 02:42:25.65	28.92	37.19	-40.0	-40.5	21.9	0.00e+00	0	55	0	1570766848	43	3691
2026-01-03 02:42:26.64	28.95	37.43	-40.1	-40.6	21.8	0.00e+00	0	55	0	1576009728	43	3732
2026-01-03 02:42:27.63	28.99	37.67	-40.1	-40.6	21.8	0.00e+00	0	55	0	1581252608	43	3721
2026-01-03 02:42:28.62	29.03	37.91	-40.2	-40.7	21.8	0.00e+00	0	55	0	1587544064	43	3751
2026-01-03 02:42:29.60	29.06	38.15	-40.3	-40.8	21.7	0.00e+00	0	56	0	1592786944	43	3804
2026-01-03 02:42:30.59	29.10	38.40	-40.4	-41.0	21.5	0.00e+00	0	55	0	1598029824	43	3878
2026-01-03 02:42:31.58	29.14	38.65	-40.5	-41.0	21.4	0.00e+00	0	55	0	1603272704	43	3910
2026-01-03 02:42:32.58	29.18	38.90	-40.7	-41.2	21.3	0.00e+00	0	55	0	1609564160	43	3996
2026-01-03 02:42:33.57	29.22	39.15	-40.7	-41.3	21.2	0.00e+00	0	55	0	1614807040	43	4005
2026-01-03 02:42:34.56	29.25	39.40	-40.7	-41.2	21.3	0.00e+00	0	56	0	1620049920	43	3995
2026-01-03 02:42:35.55	29.29	39.66	-40.8	-41.3	21.1	0.00e+00	0	55	0	1626341376	43	4050
2026-01-03 02:42:36.54	29.34	39.91	-40.8	-41.4	21.1	0.00e+00	0	55	0	1631584256	43	4079
2026-01-03 02:42:37.54	29.38	40.17	-40.6	-41.1	21.4	0.00e+00	0	55	0	1637875712	43	3942
2026-01-03 02:42:38.53	29.42	40.43	-40.6	-41.2	21.3	0.00e+00	0	55	0	1643118592	43	3960
2026-01-03 02:42:39.52	29.46	40.70	-40.8	-41.3	21.2	0.00e+00	0	55	0	1648361472	43	4042
2026-01-03 02:42:40.51	29.50	40.96	-40.9	-41.5	21.0	0.00e+00	0	55	0	1653604352	43	4126
2026-01-03 02:42:41.50	29.55	41.23	-41.0	-41.6	20.9	0.00e+00	0	55	0	1659895808	43	4176
2026-01-03 02:42:42.49	29.59	41.50	-41.0	-41.6	20.9	0.00e+00	0	56	0	1665138688	43	4162
2026-01-03 02:42:43.47	29.64	41.76	-41.2	-41.8	20.8	0.00e+00	0	55	0	1670381568	44	4044
2026-01-03 02:42:44.46	29.68	42.03	-41.2	-41.8	20.8	0.00e+00	0	56	0	1676673024	44	4034
2026-01-03 02:42:45.45	29.73	42.31	-41.1	-41.7	21.0	0.00e+00	0	56	0	1681915904	44	3959
2026-01-03 02:42:46.43	29.78	42.58	-40.9	-41.5	21.1	0.00e+00	0	55	0	1687158784	44	3902
2026-01-03 02:42:47.42	29.82	42.86	-41.0	-41.6	21.1	0.00e+00	0	55	0	1692401664	44	3914
2026-01-03 02:42:48.40	29.87	43.14	-41.1	-41.7	21.0	0.00e+00	0	55	0	1698693120	44	3977
2026-01-03 02:42:49.39	29.92	43.42	-41.1	-41.7	20.9	0.00e+00	0	55	0	1703936000	44	3987
2026-01-03 02:42:50.39	29.97	43.71	-41.2	-41.8	20.8	0.00e+00	0	55	0	1710227456	44	4047
2026-01-03 02:42:51.37	30.02	43.99	-41.4	-42.0	20.6	0.00e+00	0	56	0	1715470336	44	4135
2026-01-03 02:42:52.36	30.08	44.28	-41.4	-42.0	20.7	0.00e+00	0	56	0	1720713216	44	4127
2026-01-03 02:42:53.36	30.13	44.57	-41.6	-42.2	20.5	0.00e+00	0	56	0	1725956096	45	3965
2026-01-03 02:42:54.33	30.18	44.86	-41.5	-42.1	20.6	0.00e+00	0	55	0	1732247552	45	3935
2026-01-03 02:42:55.32	30.24	45.15	-41.5	-42.1	20.6	0.00e+00	0	56	0	1737490432	45	3917
2026-01-03 02:42:56.31	30.29	45.45	-41.1	-41.7	21.0	0.00e+00	0	56	0	1742733312	45	3754
2026-01-03 02:42:57.29	30.35	45.75	-41.0	-41.5	21.1	0.00e+00	0	56	0	1749024768	45	3688
2026-01-03 02:42:58.28	30.41	46.05	-41.0	-41.6	21.1	0.00e+00	0	56	0	1754267648	45	3702
2026-01-03 02:42:59.27	30.47	46.35	-41.2	-41.7	20.9	0.00e+00	0	56	0	1759510528	45	3778
2026-01-03 02:43:00.24	30.52	46.65	-41.4	-42.0	20.7	0.00e+00	0	56	0	1764753408	45	3884
2026-01-03 02:43:01.23	30.58	46.96	-41.5	-42.1	20.6	0.00e+00	0	56	0	1769996288	45	3927
2026-01-03 02:43:02.22	30.65	47.27	-41.6	-42.2	20.5	0.00e+00	0	56	0	1776287744	45	3971
2026-01-03 02:43:03.21	30.71	47.58	-41.7	-42.3	20.4	0.00e+00	0	56	0	1781530624	45	4049
2026-01-03 02:43:04.20	30.77	47.90	-41.3	-41.9	20.8	0.00e+00	0	56	0	1787822080	45	3849
2026-01-03 02:43:05.18	30.84	48.21	-41.2	-41.8	20.9	0.00e+00	0	56	0	1793064960	45	3783
2026-01-03 02:43:06.18	30.91	48.53	-41.2	-41.8	20.9	0.00e+00	0	56	0	1798307840	45	3786
2026-01-03 02:43:07.17	30.97	48.86	-41.1	-41.6	21.0	0.00e+00	0	56	0	1803550720	45	3735
2026-01-03 02:43:08.15	31.04	49.18	-40.9	-41.4	21.2	0.00e+00	0	56	0	1809842176	45	3638
2026-01-03 02:43:09.15	31.12	49.51	-41.0	-41.5	21.1	0.00e+00	0	56	0	1815085056	45	3681
2026-01-03 02:43:10.13	31.19	49.83	-41.3	-41.8	20.8	0.00e+00	0	56	0	1820327936	45	3821
2026-01-03 02:43:11.13	31.26	50.17	-41.8	-42.4	20.3	0.00e+00	0	56	0	1826619392	45	4082
2026-01-03 02:43:12.12	31.34	50.50	-41.8	-42.4	20.3	0.00e+00	0	56	0	1831862272	45	4097
2026-01-03 02:43:13.10	31.41	50.83	-41.9	-42.5	20.2	0.00e+00	0	56	0	1837105152	45	4114
2026-01-03 02:43:14.09	31.49	51.17	-41.9	-42.6	20.1	0.00e+00	0	56	0	1843396608	45	4149
2026-01-03 02:43:15.07	31.57	51.51	-42.4	-43.1	19.7	0.00e+00	0	56	0	1848639488	46	4158
2026-01-03 02:43:16.06	31.65	51.85	-42.4	-43.1	19.7	0.00e+00	0	56	0	1853882368	46	4179
2026-01-03 02:43:17.05	31.74	52.20	-43.0	-43.7	19.1	0.00e+00	0	56	0	1859125248	47	4218
2026-01-03 02:43:18.05	31.82	52.55	-42.6	-43.3	19.5	0.00e+00	0	56	0	1865416704	47	4032
2026-01-03 02:43:19.04	31.91	52.90	-42.5	-43.2	19.6	0.00e+00	0	56	0	1870659584	47	3970
2026-01-03 02:43:20.03	32.00	53.25	-42.8	-43.5	19.3	0.00e+00	0	56	0	1875902464	47	4124
2026-01-03 02:43:21.02	32.09	53.61	-42.9	-43.6	19.2	0.00e+00	0	56	0	1882193920	47	4160
2026-01-03 02:43:22.02	32.19	53.97	-43.3	-44.0	18.9	0.00e+00	0	56	0	1887436800	48	4141
2026-01-03 02:43:23.01	32.29	54.33	-43.2	-43.9	19.1	0.00e+00	0	56	0	1892679680	48	4090
2026-01-03 02:43:24.00	32.38	54.69	-43.4	-44.1	18.9	0.00e+00	0	56	0	1898971136	48	4178
2026-01-03 02:43:25.00	32.49	55.06	-43.6	-44.4	18.6	0.00e+00	0	56	0	1904214016	49	4078
2026-01-03 02:43:25.99	32.59	55.43	-43.4	-44.1	18.9	0.00e+00	0	56	0	1910505472	49	3944
2026-01-03 02:43:26.97	32.70	55.80	-43.1	-43.8	19.2	0.00e+00	0	56	0	1915748352	49	3793
2026-01-03 02:43:27.96	32.81	56.17	-42.8	-43.5	19.5	0.00e+00	0	56	0	1920991232	48	3882
2026-01-03 02:43:28.95	32.92	56.54	-42.8	-43.5	19.5	0.00e+00	0	56	0	1926234112	48	3875
2026-01-03 02:43:29.93	33.03	56.92	-42.7	-43.4	19.5	0.00e+00	0	56	0	1932525568	48	3859
2026-01-03 02:43:30.93	33.15	57.30	-43.1	-43.8	19.2	0.00e+00	0	56	0	1937768448	48	4016
2026-01-03 02:43:31.92	33.27	57.68	-42.5	-43.2	19.8	0.00e+00	0	56	0	1943011328	48	3746
2026-01-03 02:43:32.91	33.40	58.07	-41.7	-42.3	20.4	0.00e+00	0	56	0	1949302784	46	3811
2026-01-03 02:43:33.90	33.53	58.45	-41.4	-41.9	20.8	0.00e+00	0	56	0	1954545664	45	3862
2026-01-03 02:43:34.90	33.66	58.85	-41.4	-42.0	20.7	0.00e+00	0	56	0	1959788544	45	3905
2026-01-03 02:43:35.89	33.80	59.24	-41.6	-42.2	20.6	0.00e+00	0	56	0	1966080000	45	3969
2026-01-03 02:43:36.89	33.94	59.64	-41.4	-42.0	20.8	0.00e+00	0	56	0	1971322880	45	3874
2026-01-03 02:43:37.88	34.08	60.04	-41.1	-41.7	21.0	0.00e+00	0	56	0	1976565760	45	3779
2026-01-03 02:43:38.86	34.23	60.43	-41.4	-42.0	20.8	0.00e+00	0	56	0	1981808640	45	3875
2026-01-03 02:43:39.85	34.38	60.83	-41.1	-41.7	21.0	0.00e+00	0	56	0	1988100096	45	3748
2026-01-03 02:43:40.84	34.54	61.24	-40.4	-40.9	21.8	0.00e+00	0	56	0	1993342976	44	3617
2026-01-03 02:43:41.83	34.70	61.64	-40.0	-40.5	22.0	0.00e+00	0	56	0	1999634432	43	3667
2026-01-03 02:43:42.83	34.87	62.05	-40.4	-40.9	21.6	0.00e+00	0	56	0	2004877312	43	3865
2026-01-03 02:43:43.82	35.05	62.47	-40.8	-41.3	21.3	0.00e+00	0	56	0	2010120192	43	4047
2026-01-03 02:43:44.82	35.23	62.88	-40.4	-41.0	21.6	0.00e+00	0	56	0	2015363072	43	3869
2026-01-03 02:43:45.80	35.41	63.29	-40.0	-40.5	22.0	0.00e+00	0	56	0	2021654528	43	3688
2026-01-03 02:43:46.79	35.61	63.71	-40.4	-40.9	21.7	0.00e+00	0	56	0	2026897408	43	3855
2026-01-03 02:43:47.78	35.81	64.13	-40.4	-41.0	21.6	0.00e+00	0	56	0	2032140288	43	3880
2026-01-03 02:43:48.76	36.01	64.55	-40.2	-40.7	21.8	0.00e+00	0	56	0	2038431744	43	3753
2026-01-03 02:43:49.75	36.23	64.97	-39.9	-40.5	22.1	0.00e+00	0	56	0	2043674624	43	3656
2026-01-03 02:43:50.75	36.45	65.40	-40.0	-40.5	22.0	0.00e+00	0	56	0	2048917504	43	3691
2026-01-03 02:43:51.73	36.68	65.83	-40.4	-40.9	21.7	0.00e+00	0	56	0	2055208960	43	3851
2026-01-03 02:43:52.72	36.92	66.26	-40.6	-41.2	21.4	0.00e+00	0	56	0	2060451840	43	3972
2026-01-03 02:43:53.71	37.17	66.69	-40.3	-40.9	21.7	0.00e+00	0	56	0	2065694720	43	3829
2026-01-03 02:43:54.69	37.43	67.12	-40.2	-40.7	21.8	0.00e+00	0	56	0	2070937600	43	3767
2026-01-03 02:43:55.69	37.70	67.56	-40.4	-40.9	21.7	0.00e+00	0	56	0	2077229056	43	3852
2026-01-03 02:43:56.68	37.98	67.99	-40.3	-40.9	21.7	0.00e+00	0	56	0	2082471936	43	3829
2026-01-03 02:43:57.65	38.27	68.42	-40.0	-40.5	22.1	0.00e+00	0	56	0	2087714816	43	3660
2026-01-03 02:43:58.64	38.58	68.87	-40.2	-40.7	21.8	0.00e+00	0	56	0	2094006272	43	3773
2026-01-03 02:43:59.64	38.91	69.31	-40.7	-41.3	21.3	0.00e+00	0	56	0	2099249152	43	4025
2026-01-03 02:44:00.62	39.24	69.75	-40.5	-41.0	21.5	0.00e+00	0	56	0	2104492032	43	3913
2026-01-03 02:44:01.61	39.59	70.20	-40.4	-41.0	21.6	0.00e+00	0	56	0	2109734912	43	3880
2026-01-03 02:44:02.61	39.97	70.65	-40.4	-40.9	21.7	0.00e+00	0	56	0	2116026368	43	3845
2026-01-03 02:44:03.60	40.36	71.10	-40.0	-40.5	22.0	0.00e+00	0	56	0	2121269248	43	3685
2026-01-03 02:44:04.58	40.76	71.54	-40.1	-40.7	21.9	0.00e+00	0	56	0	2127560704	43	3749
2026-01-03 02:44:05.57	41.19	71.99	-40.1	-40.7	21.9	0.00e+00	0	56	0	2132803584	43	3755
2026-01-03 02:44:06.56	41.64	72.44	-39.8	-40.3	22.3	0.00e+00	0	56	0	2138046464	42	3789
2026-01-03 02:44:07.55	42.12	72.89	-39.3	-39.8	22.7	0.00e+00	0	56	0	2143289344	41	3799
2026-01-03 02:44:08.54	42.63	73.34	-39.5	-39.9	22.5	0.00e+00	0	56	0	2149580800	41	3868
2026-01-03 02:44:09.53	43.16	73.80	-39.5	-40.0	22.5	0.00e+00	0	56	0	2154823680	41	3880
2026-01-03 02:44:10.52	43.73	74.25	-39.0	-39.5	22.9	0.00e+00	0	56	0	2160066560	41	3661
2026-01-03 02:44:11.51	44.33	74.70	-39.4	-39.9	22.6	0.00e+00	0	56	0	2166358016	41	3844
2026-01-03 02:44:12.49	44.96	75.15	-39.4	-39.9	22.6	0.00e+00	0	56	0	2171600896	41	3849
2026-01-03 02:44:13.48	45.64	75.60	-39.3	-39.8	22.7	0.00e+00	0	56	0	2176843776	41	3800
2026-01-03 02:44:14.46	46.36	76.05	-39.3	-39.8	22.7	0.00e+00	0	56	0	2182086656	41	3800
2026-01-03 02:44:15.46	47.14	76.51	-39.2	-39.7	22.8	0.00e+00	0	56	0	2188378112	41	3739
2026-01-03 02:44:16.45	47.97	76.96	-38.9	-39.4	23.0	0.00e+00	0	56	0	2193620992	41	3639
2026-01-03 02:44:17.45	48.87	77.41	-38.8	-39.3	23.1	0.00e+00	0	56	0	2199912448	40	3799
2026-01-03 02:44:18.43	49.82	77.85	-39.1	-39.6	22.8	0.00e+00	0	56	0	2205155328	40	3940
2026-01-03 02:44:19.42	50.86	78.30	-39.0	-39.5	23.0	0.00e+00	0	56	0	2210398208	40	3882
2026-01-03 02:44:20.41	51.97	78.74	-38.7	-39.2	23.2	0.00e+00	0	56	0	2215641088	40	3742
2026-01-03 02:44:21.40	53.18	79.18	-38.7	-39.1	23.3	0.00e+00	0	56	0	2221932544	40	3728
2026-01-03 02:44:22.40	54.51	79.62	-38.6	-39.1	23.3	0.00e+00	0	56	0	2227175424	40	3701
2026-01-03 02:44:23.39	55.94	80.05	-38.6	-39.0	23.4	0.00e+00	0	56	0	2232418304	40	3686
2026-01-03 02:44:24.37	57.48	80.47	-38.5	-39.0	23.4	0.00e+00	0	56	0	2238709760	40	3679
2026-01-03 02:44:25.36	59.19	80.88	-38.5	-39.0	23.4	0.00e+00	0	56	0	2243952640	40	3668
2026-01-03 02:44:26.35	61.06	81.29	-38.6	-39.0	23.4	0.00e+00	0	56	0	2249195520	40	3672
2026-01-03 02:44:27.34	63.11	81.69	-38.4	-38.8	23.6	0.00e+00	0	56	0	2255486976	40	3602
2026-01-03 02:44:28.33	65.37	82.08	-38.3	-38.7	23.7	0.00e+00	0	56	0	2260729856	39	3778
2026-01-03 02:44:29.32	67.86	82.46	-38.2	-38.7	23.8	0.00e+00	0	56	0	2265972736	39	3751
2026-01-03 02:44:30.30	70.58	82.81	-38.5	-38.9	23.5	0.00e+00	0	56	0	2271215616	39	3858
2026-01-03 02:44:31.29	73.61	83.16	-38.6	-39.1	23.4	0.00e+00	0	56	0	2277507072	39	3943
2026-01-03 02:44:32.27	76.92	83.48	-38.4	-38.9	23.6	0.00e+00	0	56	0	2282749952	39	3851
2026-01-03 02:44:33.26	80.60	83.78	-38.3	-38.7	23.7	0.00e+00	0	56	0	2287992832	39	3765
2026-01-03 02:44:34.25	84.63	84.05	-38.2	-38.6	23.8	0.00e+00	0	56	0	2294284288	39	3712
2026-01-03 02:44:35.24	89.03	84.29	-38.1	-38.5	23.9	0.00e+00	0	56	0	2299527168	39	3683
2026-01-03 02:44:36.23	93.79	84.50	-38.3	-38.7	23.7	0.00e+00	0	56	0	2304770048	39	3776
2026-01-03 02:44:37.22	98.88	84.66	-38.4	-38.8	23.6	0.00e+00	0	56	0	2310012928	39	3824
2026-01-03 02:44:38.21	104.24	84.78	-38.5	-38.9	23.5	0.00e+00	0	56	0	2316304384	39	3855
2026-01-03 02:44:39.20	109.81	84.85	-38.5	-39.0	23.5	0.00e+00	0	56	0	2321547264	39	3887
2026-01-03 02:44:40.19	115.48	84.87	-38.5	-39.0	23.5	0.00e+00	0	56	0	2327838720	39	3886
2026-01-03 02:44:41.18	121.15	84.85	-38.7	-39.2	23.3	0.00e+00	0	56	0	2333081600	39	3983
2026-01-03 02:44:42.17	126.70	84.77	-39.0	-39.5	22.9	0.00e+00	0	56	0	2338324480	40	3897
2026-01-03 02:44:43.16	132.05	84.65	-38.7	-39.2	23.2	0.00e+00	0	56	0	2343567360	40	3746
2026-01-03 02:44:44.15	137.11	84.48	-38.8	-39.3	23.1	0.00e+00	0	56	0	2349858816	40	3785
2026-01-03 02:44:45.14	141.84	84.27	-39.0	-39.5	22.9	0.00e+00	0	56	0	2355101696	40	3891
2026-01-03 02:44:46.13	146.20	84.03	-39.1	-39.6	22.9	0.00e+00	0	57	0	2360344576	40	3916
2026-01-03 02:44:47.12	150.21	83.75	-38.7	-39.2	23.2	0.00e+00	0	57	0	2366636032	40	3748
2026-01-03 02:44:48.12	153.89	83.45	-38.5	-39.0	23.4	0.00e+00	0	56	0	2371878912	40	3668
2026-01-03 02:44:49.11	157.20	83.12	-38.5	-39.0	23.4	0.00e+00	0	56	0	2377121792	39	3879
2026-01-03 02:44:50.10	160.20	82.77	-38.8	-39.2	23.2	0.00e+00	0	56	0	2383413248	39	4004
2026-01-03 02:44:51.09	162.92	82.41	-38.9	-39.4	23.2	0.00e+00	0	56	0	2388656128	39	4060
2026-01-03 02:44:52.08	165.38	82.03	-38.9	-39.4	23.0	0.00e+00	0	56	0	2393899008	40	3862
2026-01-03 02:44:53.07	167.61	81.64	-38.5	-39.0	23.4	0.00e+00	0	56	0	2399141888	40	3665
2026-01-03 02:44:54.06	169.64	81.24	-38.4	-38.9	23.5	0.00e+00	0	56	0	2405433344	40	3626
2026-01-03 02:44:55.05	171.49	80.83	-38.5	-38.9	23.5	0.00e+00	0	56	0	2410676224	39	3861
2026-01-03 02:44:56.04	173.17	80.41	-38.4	-38.9	23.6	0.00e+00	0	56	0	2416967680	39	3842
2026-01-03 02:44:57.03	174.72	79.99	-38.8	-39.3	23.2	0.00e+00	0	56	0	2422210560	39	4013
2026-01-03 02:44:58.02	176.13	79.56	-38.7	-39.1	23.4	0.00e+00	0	56	0	2427453440	39	3942
2026-01-03 02:44:59.01	177.43	79.12	-39.1	-39.6	22.8	0.00e+00	0	56	0	2432696320	40	3942
2026-01-03 02:45:00.00	178.63	78.68	-38.8	-39.3	23.1	0.00e+00	0	56	0	2438987776	40	3806
2026-01-03 02:45:00.99	179.73	78.24	-38.7	-39.2	23.2	0.00e+00	0	56	0	2444230656	40	3769
2026-01-03 02:45:01.97	180.75	77.80	-39.2	-39.6	22.8	0.00e+00	0	56	0	2449473536	40	3957
2026-01-03 02:45:02.97	181.71	77.35	-38.9	-39.3	23.1	0.00e+00	0	56	0	2455764992	40	3813
2026-01-03 02:45:03.96	182.59	76.90	-38.5	-38.9	23.5	0.00e+00	0	56	0	2461007872	40	3631
2026-01-03 02:45:04.95	183.42	76.45	-38.4	-38.8	23.6	0.00e+00	0	56	0	2466250752	39	3816
2026-01-03 02:45:05.94	184.19	75.99	-39.1	-39.5	22.9	0.00e+00	0	56	0	2472542208	39	4142
2026-01-03 02:45:06.92	184.90	75.55	-39.5	-40.0	22.5	0.00e+00	0	56	0	2477785088	40	4133
2026-01-03 02:45:07.91	185.58	75.09	-39.5	-40.0	22.5	0.00e+00	0	56	0	2483027968	40	4122
2026-01-03 02:45:08.90	186.21	74.64	-39.9	-40.4	22.1	0.00e+00	0	56	0	2488270848	41	4076
2026-01-03 02:45:09.90	186.81	74.18	-39.8	-40.3	22.2	0.00e+00	0	56	0	2494562304	41	4033
2026-01-03 02:45:10.88	187.37	73.73	-40.2	-40.7	21.8	0.00e+00	0	56	0	2499805184	42	3985
2026-01-03 02:45:11.88	187.91	73.27	-39.5	-40.0	22.5	0.00e+00	0	56	0	2505048064	42	3664
2026-01-03 02:45:12.86	188.40	72.83	-39.6	-40.0	22.4	0.00e+00	0	56	0	2511339520	42	3694
2026-01-03 02:45:13.86	188.88	72.37	-40.2	-40.8	21.8	0.00e+00	0	56	0	2516582400	42	4012
2026-01-03 02:45:14.84	189.33	71.92	-40.2	-40.7	21.9	0.00e+00	0	56	0	2521825280	42	3979
2026-01-03 02:45:15.83	189.75	71.47	-40.1	-40.6	21.9	0.00e+00	0	56	0	2528116736	42	3929
2026-01-03 02:45:16.82	190.16	71.02	-40.3	-40.8	21.7	0.00e+00	0	56	0	2533359616	42	4031
2026-01-03 02:45:17.80	190.54	70.58	-40.3	-40.8	21.7	0.00e+00	0	56	0	2538602496	42	4036
2026-01-03 02:45:18.78	190.91	70.14	-40.4	-40.9	21.7	0.00e+00	0	56	0	2544893952	42	4075
2026-01-03 02:45:19.78	191.26	69.69	-40.4	-41.0	21.6	0.00e+00	0	56	0	2550136832	42	4110
2026-01-03 02:45:20.76	191.59	69.25	-40.4	-40.9	21.6	0.00e+00	0	56	0	2555379712	42	4086
2026-01-03 02:45:21.75	191.91	68.80	-40.6	-41.1	21.5	0.00e+00	0	56	0	2560622592	42	4163
2026-01-03 02:45:22.74	192.22	68.36	-40.2	-40.8	21.8	0.00e+00	0	56	0	2566914048	43	3781
2026-01-03 02:45:23.73	192.51	67.92	-40.2	-40.7	21.9	0.00e+00	0	56	0	2572156928	43	3758
2026-01-03 02:45:24.73	192.80	67.48	-40.7	-41.3	21.3	0.00e+00	0	56	0	2577399808	43	4015
2026-01-03 02:45:25.71	193.06	67.05	-40.5	-41.1	21.5	0.00e+00	0	56	0	2583691264	43	3916
2026-01-03 02:45:26.70	193.32	66.61	-40.0	-40.5	22.0	0.00e+00	0	56	0	2588934144	43	3686
2026-01-03 02:45:27.68	193.57	66.19	-40.2	-40.7	21.8	0.00e+00	0	56	0	2594177024	43	3765
2026-01-03 02:45:28.67	193.81	65.75	-40.4	-41.0	21.6	0.00e+00	0	56	0	2599419904	43	3877
2026-01-03 02:45:29.65	194.04	65.33	-40.2	-40.7	21.8	0.00e+00	0	56	0	2605711360	43	3772
2026-01-03 02:45:30.64	194.26	64.90	-39.9	-40.4	22.1	0.00e+00	0	56	0	2610954240	43	3635
2026-01-03 02:45:31.63	194.47	64.48	-40.0	-40.5	22.1	0.00e+00	0	56	0	2616197120	43	3668
2026-01-03 02:45:32.61	194.68	64.06	-40.1	-40.6	21.9	0.00e+00	0	56	0	2622488576	43	3723
2026-01-03 02:45:33.60	194.88	63.64	-40.3	-40.8	21.7	0.00e+00	0	56	0	2627731456	43	3814
2026-01-03 02:45:34.59	195.07	63.22	-40.4	-41.0	21.6	0.00e+00	0	56	0	2632974336	43	3871
2026-01-03 02:45:35.57	195.25	62.81	-40.5	-41.0	21.5	0.00e+00	0	56	0	2638217216	43	3907
2026-01-03 02:45:36.56	195.43	62.40	-40.6	-41.2	21.4	0.00e+00	0	56	0	2644508672	43	3982
2026-01-03 02:45:37.55	195.60	61.99	-40.7	-41.3	21.3	0.00e+00	0	56	0	2649751552	43	4028
2026-01-03 02:45:38.54	195.77	61.58	-40.8	-41.4	21.2	0.00e+00	0	56	0	2656043008	43	4077
2026-01-03 02:45:39.53	195.93	61.17	-40.5	-41.0	21.5	0.00e+00	0	56	0	2661285888	43	3897
2026-01-03 02:45:40.52	196.09	60.77	-40.3	-40.8	21.7	0.00e+00	0	57	0	2666528768	43	3822
2026-01-03 02:45:41.52	196.25	60.36	-40.4	-40.9	21.6	0.00e+00	0	56	0	2671771648	43	3857
2026-01-03 02:45:42.51	196.39	59.96	-40.5	-41.1	21.5	0.00e+00	0	57	0	2678063104	43	3920
2026-01-03 02:45:43.50	196.54	59.56	-40.7	-41.2	21.4	0.00e+00	0	56	0	2683305984	43	3988
2026-01-03 02:45:44.50	196.68	59.16	-40.8	-41.4	21.2	0.00e+00	0	56	0	2688548864	43	4057
2026-01-03 02:45:45.49	196.81	58.77	-41.1	-41.7	21.0	0.00e+00	0	57	0	2694840320	43	4194
2026-01-03 02:45:46.48	196.95	58.38	-41.2	-41.8	20.9	0.00e+00	0	56	0	2700083200	44	4036
2026-01-03 02:45:47.47	197.07	57.99	-41.1	-41.7	21.0	0.00e+00	0	57	0	2705326080	44	3990
2026-01-03 02:45:48.46	197.20	57.61	-41.2	-41.8	20.9	0.00e+00	0	57	0	2711617536	44	4024
2026-01-03 02:45:49.45	197.32	57.22	-41.6	-42.2	20.5	0.00e+00	0	57	0	2716860416	45	4004
2026-01-03 02:45:50.44	197.44	56.84	-42.0	-42.6	20.1	0.00e+00	0	56	0	2722103296	45	4178
2026-01-03 02:45:51.42	197.55	56.47	-42.0	-42.7	20.1	0.00e+00	0	57	0	2727346176	45	4195
2026-01-03 02:45:52.41	197.66	56.09	-42.0	-42.6	20.2	0.00e+00	0	56	0	2733637632	45	4163
2026-01-03 02:45:53.40	197.77	55.72	-42.1	-42.7	20.1	0.00e+00	0	56	0	2738880512	45	4215
2026-01-03 02:45:54.39	197.88	55.35	-42.4	-43.1	19.7	0.00e+00	0	57	0	2745171968	46	4159
2026-01-03 02:45:55.37	197.98	54.98	-42.4	-43.1	19.7	0.00e+00	0	57	0	2750414848	46	4181
2026-01-03 02:45:56.36	198.08	54.62	-42.3	-42.9	19.8	0.00e+00	0	57	0	2755657728	46	4083
2026-01-03 02:45:57.35	198.18	54.25	-42.0	-42.7	20.1	0.00e+00	0	56	0	2760900608	46	3963
2026-01-03 02:45:58.33	198.28	53.90	-41.9	-42.5	20.3	0.00e+00	0	57	0	2767192064	46	3896
2026-01-03 02:45:59.32	198.37	53.54	-41.8	-42.4	20.3	0.00e+00	0	57	0	2772434944	46	3851
2026-01-03 02:46:00.32	198.46	53.18	-41.6	-42.1	20.6	0.00e+00	0	57	0	2777677824	46	3736
2026-01-03 02:46:01.31	198.55	52.82	-41.6	-42.2	20.5	0.00e+00	0	57	0	2783969280	46	3758
2026-01-03 02:46:02.30	198.64	52.47	-41.9	-42.5	20.2	0.00e+00	0	57	0	2789212160	46	3911
2026-01-03 02:46:03.29	198.73	52.12	-42.0	-42.6	20.1	0.00e+00	0	56	0	2794455040	46	3956
2026-01-03 02:46:04.28	198.81	51.78	-42.0	-42.6	20.1	0.00e+00	0	57	0	2799697920	46	3955
2026-01-03 02:46:05.26	198.89	51.44	-42.0	-42.6	20.2	0.00e+00	0	56	0	2805989376	46	3935
2026-01-03 02:46:06.25	198.97	51.10	-42.0	-42.6	20.1	0.00e+00	0	56	0	2811232256	46	3957
2026-01-03 02:46:07.24	199.05	50.76	-41.6	-42.3	20.5	0.00e+00	0	57	0	2817523712	46	3781
2026-01-03 02:46:08.23	199.13	50.42	-41.4	-42.0	20.7	0.00e+00	0	57	0	2822766592	46	3690
2026-01-03 02:46:09.22	199.20	50.09	-41.3	-41.9	20.8	0.00e+00	0	57	0	2828009472	45	3834
2026-01-03 02:46:10.21	199.27	49.75	-41.1	-41.7	21.0	0.00e+00	0	57	0	2833252352	45	3741
2026-01-03 02:46:11.20	199.35	49.42	-41.1	-41.7	21.0	0.00e+00	0	57	0	2839543808	45	3756
2026-01-03 02:46:12.19	199.42	49.10	-41.4	-41.9	20.8	0.00e+00	0	56	0	2844786688	45	3850
2026-01-03 02:46:13.18	199.49	48.77	-41.1	-41.6	21.1	0.00e+00	0	57	0	2850029568	45	3718
2026-01-03 02:46:14.17	199.55	48.45	-41.2	-41.8	20.9	0.00e+00	0	57	0	2856321024	45	3810
2026-01-03 02:46:15.16	199.62	48.13	-41.3	-41.9	20.8	0.00e+00	0	57	0	2861563904	45	3839
2026-01-03 02:46:16.14	199.69	47.82	-41.3	-41.9	20.8	0.00e+00	0	57	0	2866806784	45	3841
2026-01-03 02:46:17.13	199.75	47.50	-41.1	-41.6	21.1	0.00e+00	0	56	0	2873098240	45	3732
2026-01-03 02:46:18.11	199.81	47.19	-41.0	-41.5	21.2	0.00e+00	0	56	0	2878341120	45	3684
2026-01-03 02:46:19.11	199.87	46.88	-41.0	-41.6	21.1	0.00e+00	0	56	0	2883584000	45	3708
2026-01-03 02:46:20.10	199.94	46.57	-41.3	-41.8	20.9	0.00e+00	0	56	0	2888826880	45	3813
2026-01-03 02:46:21.09	199.99	46.26	-41.6	-42.2	20.5	0.00e+00	0	57	0	2895118336	45	3988
2026-01-03 02:46:22.07	200.05	45.96	-41.4	-42.0	20.7	0.00e+00	0	57	0	2900361216	45	3890
2026-01-03 02:46:23.06	200.11	45.66	-41.4	-41.9	20.7	0.00e+00	0	57	0	2905604096	45	3868
2026-01-03 02:46:24.05	200.17	45.36	-41.5	-42.1	20.6	0.00e+00	0	56	0	2911895552	45	3923
2026-01-03 02:46:25.04	200.22	45.06	-41.6	-42.3	20.5	0.00e+00	0	56	0	2917138432	45	4008
2026-01-03 02:46:26.03	200.28	44.76	-41.6	-42.2	20.5	0.00e+00	0	57	0	2922381312	45	3988
2026-01-03 02:46:27.02	200.33	44.47	-41.9	-42.5	20.2	0.00e+00	0	57	0	2927624192	45	4133
2026-01-03 02:46:28.01	200.38	44.18	-41.4	-42.0	20.7	0.00e+00	0	57	0	2933915648	45	3903
2026-01-03 02:46:28.99	200.43	43.89	-41.0	-41.6	21.1	0.00e+00	0	57	0	2939158528	45	3697
2026-01-03 02:46:29.98	200.48	43.61	-40.7	-41.3	21.4	0.00e+00	0	57	0	2945449984	44	3782
2026-01-03 02:46:30.97	200.53	43.32	-40.6	-41.1	21.5	0.00e+00	0	57	0	2950692864	44	3727
2026-01-03 02:46:31.96	200.58	43.04	-40.6	-41.1	21.5	0.00e+00	0	56	0	2955935744	44	3726
2026-01-03 02:46:32.95	200.63	42.76	-40.6	-41.2	21.5	0.00e+00	0	57	0	2961178624	44	3758
2026-01-03 02:46:33.95	200.68	42.48	-40.8	-41.3	21.4	0.00e+00	0	57	0	2967470080	44	3805
2026-01-03 02:46:34.93	200.73	42.20	-40.9	-41.4	21.2	0.00e+00	0	57	0	2972712960	44	3868
2026-01-03 02:46:35.93	200.77	41.92	-40.7	-41.3	21.4	0.00e+00	0	57	0	2977955840	44	3799
2026-01-03 02:46:36.92	200.82	41.65	-40.6	-41.2	21.5	0.00e+00	0	56	0	2984247296	44	3752
2026-01-03 02:46:37.90	200.86	41.38	-40.6	-41.1	21.5	0.00e+00	0	57	0	2989490176	44	3731
2026-01-03 02:46:38.89	200.91	41.12	-40.6	-41.2	21.5	0.00e+00	0	56	0	2994733056	44	3739
2026-01-03 02:46:39.89	200.95	40.85	-40.5	-41.0	21.7	0.00e+00	0	57	0	3001024512	44	3674
2026-01-03 02:46:40.87	200.99	40.58	-40.5	-41.1	21.6	0.00e+00	0	57	0	3006267392	44	3714
2026-01-03 02:46:41.86	201.04	40.32	-40.7	-41.2	21.4	0.00e+00	0	56	0	3011510272	44	3766
2026-01-03 02:46:42.85	201.08	40.06	-40.5	-41.0	21.6	0.00e+00	0	57	0	3016753152	44	3692
2026-01-03 02:46:43.84	201.12	39.80	-40.2	-40.8	21.8	0.00e+00	0	56	0	3023044608	43	3786
2026-01-03 02:46:44.82	201.16	39.55	-40.2	-40.8	21.8	0.00e+00	0	57	0	3028287488	43	3781
2026-01-03 02:46:45.81	201.20	39.29	-40.3	-40.8	21.7	0.00e+00	0	57	0	3033530368	43	3816
2026-01-03 02:46:46.81	201.24	39.04	-40.5	-41.1	21.5	0.00e+00	0	57	0	3039821824	43	3915
2026-01-03 02:46:47.80	201.28	38.78	-40.7	-41.3	21.3	0.00e+00	0	56	0	3045064704	43	4016
2026-01-03 02:46:48.79	201.32	38.53	-40.7	-41.2	21.3	0.00e+00	0	57	0	3050307584	43	3995
2026-01-03 02:46:49.78	201.35	38.29	-40.6	-41.2	21.3	0.00e+00	0	57	0	3055550464	43	3992
2026-01-03 02:46:50.77	201.39	38.04	-40.8	-41.4	21.2	0.00e+00	0	57	0	3061841920	43	4058
2026-01-03 02:46:51.76	201.43	37.80	-40.7	-41.2	21.3	0.00e+00	0	57	0	3067084800	43	3996
2026-01-03 02:46:52.75	201.46	37.55	-40.4	-40.9	21.6	0.00e+00	0	56	0	3073376256	43	3831
2026-01-03 02:46:53.75	201.50	37.31	-40.2	-40.7	21.8	0.00e+00	0	57	0	3078619136	43	3773
2026-01-03 02:46:54.74	201.53	37.07	-40.3	-40.9	21.7	0.00e+00	0	56	0	3083862016	43	3827
2026-01-03 02:46:55.73	201.57	36.83	-40.4	-40.9	21.7	0.00e+00	0	57	0	3089104896	43	3843
2026-01-03 02:46:56.72	201.60	36.60	-40.5	-41.1	21.4	0.00e+00	0	56	0	3095396352	43	3932
2026-01-03 02:46:57.71	201.64	36.37	-40.5	-41.1	21.4	0.00e+00	0	57	0	3100639232	43	3942
2026-01-03 02:46:58.70	201.67	36.13	-40.7	-41.3	21.3	0.00e+00	0	57	0	3106930688	43	4005
2026-01-03 02:46:59.69	201.70	35.90	-40.6	-41.2	21.4	0.00e+00	0	57	0	3112173568	43	3974
2026-01-03 02:47:00.69	201.74	35.67	-40.6	-41.2	21.3	0.00e+00	0	57	0	3117416448	43	3992
2026-01-03 02:47:01.67	201.77	35.45	-40.9	-41.5	21.1	0.00e+00	0	56	0	3122659328	43	4104
2026-01-03 02:47:02.65	201.80	35.22	-40.9	-41.5	21.0	0.00e+00	0	57	0	3128950784	43	4141
2026-01-03 02:47:03.64	201.83	35.00	-40.9	-41.5	21.1	0.00e+00	0	57	0	3134193664	43	4112
2026-01-03 02:47:04.62	201.86	34.78	-41.0	-41.5	21.0	0.00e+00	0	57	0	3139436544	43	4136
2026-01-03 02:47:05.61	201.89	34.56	-41.3	-41.8	20.8	0.00e+00	0	57	0	3145728000	44	4039
2026-01-03 02:47:06.60	201.92	34.34	-41.3	-41.9	20.8	0.00e+00	0	57	0	3150970880	44	4079
2026-01-03 02:47:07.58	201.95	34.12	-41.2	-41.8	20.9	0.00e+00	0	57	0	3156213760	44	4036
2026-01-03 02:47:08.56	201.98	33.91	-41.3	-41.9	20.8	0.00e+00	0	57	0	3161456640	44	4090
2026-01-03 02:47:09.55	202.01	33.69	-41.3	-41.9	20.8	0.00e+00	0	57	0	3167748096	44	4079
2026-01-03 02:47:10.54	202.04	33.48	-41.1	-41.7	20.9	0.00e+00	0	57	0	3172990976	44	3994
2026-01-03 02:47:11.54	202.07	33.26	-41.2	-41.8	20.9	0.00e+00	0	56	0	3178233856	44	4015
2026-01-03 02:47:12.53	202.10	33.05	-41.3	-41.9	20.8	0.00e+00	0	57	0	3184525312	44	4053
2026-01-03 02:47:13.52	202.13	32.84	-41.1	-41.7	21.0	0.00e+00	0	57	0	3189768192	44	3966
2026-01-03 02:47:14.52	202.15	32.63	-41.0	-41.6	21.1	0.00e+00	0	56	0	3195011072	44	3915
2026-01-03 02:47:15.51	202.18	32.43	-41.0	-41.6	21.1	0.00e+00	0	57	0	3201302528	44	3922
2026-01-03 02:47:16.49	202.21	32.23	-41.1	-41.6	21.0	0.00e+00	0	56	0	3206545408	44	3950
2026-01-03 02:47:17.49	202.24	32.02	-41.1	-41.7	21.0	0.00e+00	0	56	0	3211788288	44	3982
2026-01-03 02:47:18.48	202.26	31.82	-41.0	-41.6	21.0	0.00e+00	0	56	0	3217031168	44	3940
2026-01-03 02:47:19.47	202.29	31.62	-41.0	-41.6	21.1	0.00e+00	0	57	0	3223322624	44	3924
2026-01-03 02:47:20.46	202.31	31.42	-41.0	-41.6	21.1	0.00e+00	0	56	0	3228565504	44	3934
2026-01-03 02:47:21.45	202.34	31.22	-41.1	-41.6	21.0	0.00e+00	0	56	0	3234856960	44	3950
2026-01-03 02:47:22.44	202.37	31.02	-41.0	-41.6	21.0	0.00e+00	0	56	0	3240099840	44	3935
2026-01-03 02:47:23.43	202.39	30.83	-41.0	-41.6	21.0	0.00e+00	0	57	0	3245342720	44	3941
2026-01-03 02:47:24.41	202.42	30.64	-40.9	-41.5	21.2	0.00e+00	0	57	0	3250585600	44	3876
2026-01-03 02:47:25.41	202.44	30.44	-40.9	-41.4	21.2	0.00e+00	0	57	0	3256877056	44	3854
2026-01-03 02:47:26.40	202.46	30.25	-40.9	-41.5	21.1	0.00e+00	0	57	0	3262119936	44	3893
2026-01-03 02:47:27.39	202.49	30.06	-41.0	-41.6	21.1	0.00e+00	0	57	0	3267362816	44	3921
2026-01-03 02:47:28.38	202.51	29.87	-40.9	-41.5	21.1	0.00e+00	0	56	0	3273654272	44	3880
2026-01-03 02:47:29.37	202.54	29.68	-41.1	-41.7	21.0	0.00e+00	0	57	0	3278897152	44	3961
2026-01-03 02:47:30.36	202.56	29.50	-41.2	-41.8	20.8	0.00e+00	0	56	0	3284140032	44	4040
2026-01-03 02:47:31.34	202.58	29.31	-41.1	-41.7	20.9	0.00e+00	0	57	0	3290431488	44	3975
2026-01-03 02:47:32.33	202.61	29.13	-41.4	-42.0	20.6	0.00e+00	0	57	0	3295674368	44	4131
2026-01-03 02:47:33.31	202.63	28.95	-41.7	-42.3	20.3	0.00e+00	0	56	0	3300917248	45	4039
2026-01-03 02:47:34.30	202.65	28.77	-41.4	-42.0	20.6	0.00e+00	0	57	0	3306160128	45	3897
2026-01-03 02:47:35.29	202.67	28.59	-41.3	-41.9	20.7	0.00e+00	0	56	0	3312451584	45	3859
2026-01-03 02:47:36.28	202.70	28.41	-41.4	-42.1	20.6	0.00e+00	0	57	0	3317694464	45	3920
2026-01-03 02:47:37.27	202.72	28.23	-41.6	-42.3	20.4	0.00e+00	0	56	0	3322937344	45	4011
2026-01-03 02:47:38.26	202.74	28.05	-41.8	-42.4	20.2	0.00e+00	0	57	0	3329228800	45	4082
2026-01-03 02:47:39.25	202.76	27.87	-41.5	-42.1	20.5	0.00e+00	0	57	0	3334471680	45	3952
2026-01-03 02:47:40.24	202.78	27.70	-41.2	-41.8	20.8	0.00e+00	0	56	0	3339714560	45	3821
2026-01-03 02:47:41.22	202.80	27.53	-41.2	-41.7	20.9	0.00e+00	0	57	0	3344957440	45	3780
2026-01-03 02:47:42.21	202.82	27.35	-41.2	-41.8	20.9	0.00e+00	0	56	0	3351248896	45	3782
2026-01-03 02:47:43.20	202.85	27.18	-41.1	-41.7	20.9	0.00e+00	0	56	0	3356491776	45	3759
2026-01-03 02:47:44.19	202.87	27.01	-40.9	-41.5	21.1	0.00e+00	0	57	0	3362783232	45	3671
2026-01-03 02:47:45.18	202.89	26.84	-40.9	-41.4	21.2	0.00e+00	0	57	0	3368026112	44	3865
2026-01-03 02:47:46.17	202.91	26.67	-40.9	-41.5	21.1	0.00e+00	0	57	0	3373268992	44	3898
2026-01-03 02:47:47.17	202.93	26.51	-41.1	-41.7	20.9	0.00e+00	0	57	0	3378511872	44	3975
2026-01-03 02:47:48.16	202.95	26.34	-41.0	-41.6	21.0	0.00e+00	0	56	0	3384803328	44	3917
2026-01-03 02:47:49.15	202.97	26.17	-40.9	-41.5	21.1	0.00e+00	0	56	0	3390046208	44	3902
2026-01-03 02:47:50.15	202.99	26.01	-41.0	-41.6	21.0	0.00e+00	0	56	0	3396337664	44	3936
2026-01-03 02:47:51.14	203.01	25.84	-41.1	-41.7	20.9	0.00e+00	0	56	0	3401580544	44	3987
2026-01-03 02:47:52.12	203.02	25.68	-41.1	-41.7	20.9	0.00e+00	0	57	0	3406823424	44	3977
2026-01-03 02:47:53.11	203.04	25.52	-41.2	-41.8	20.8	0.00e+00	0	56	0	3412066304	44	4029
2026-01-03 02:47:54.10	203.06	25.36	-41.4	-42.0	20.6	0.00e+00	0	57	0	3418357760	44	4128
2026-01-03 02:47:55.09	203.08	25.20	-41.3	-41.9	20.7	0.00e+00	0	57	0	3423600640	44	4063
2026-01-03 02:47:56.08	203.10	25.04	-41.4	-42.0	20.5	0.00e+00	0	57	0	3428843520	44	4144
2026-01-03 02:47:57.07	203.12	24.89	-41.7	-42.3	20.3	0.00e+00	0	57	0	3435134976	45	4035
2026-01-03 02:47:58.06	203.14	24.73	-41.5	-42.2	20.4	0.00e+00	0	57	0	3440377856	45	3959
2026-01-03 02:47:59.05	203.16	24.57	-41.7	-42.3	20.3	0.00e+00	0	57	0	3445620736	45	4044
2026-01-03 02:48:00.04	203.17	24.42	-42.0	-42.7	19.9	0.00e+00	0	56	0	3451912192	45	4224
2026-01-03 02:48:01.03	203.19	24.27	-41.8	-42.4	20.2	0.00e+00	0	57	0	3457155072	45	4085
2026-01-03 02:48:02.02	203.21	24.11	-42.0	-42.7	19.9	0.00e+00	0	57	0	3462397952	45	4197
2026-01-03 02:48:03.01	203.23	23.96	-42.4	-43.0	19.6	0.00e+00	0	57	0	3467640832	46	4139
2026-01-03 02:48:03.99	203.24	23.81	-42.2	-42.8	19.8	0.00e+00	0	57	0	3473932288	46	4034
2026-01-03 02:48:04.98	203.26	23.66	-41.9	-42.6	20.1	0.00e+00	0	57	0	3479175168	46	3919
2026-01-03 02:48:05.98	203.28	23.51	-41.8	-42.4	20.2	0.00e+00	0	56	0	3484418048	46	3858
2026-01-03 02:48:06.97	203.30	23.36	-41.9	-42.5	20.1	0.00e+00	0	56	0	3490709504	46	3888
2026-01-03 02:48:07.96	203.31	23.21	-41.9	-42.5	20.1	0.00e+00	0	56	0	3495952384	46	3883
2026-01-03 02:48:08.95	203.33	23.07	-42.0	-42.6	20.0	0.00e+00	0	57	0	3501195264	46	3947
2026-01-03 02:48:09.93	203.35	22.92	-42.4	-43.0	19.6	0.00e+00	0	56	0	3507486720	46	4133
2026-01-03 02:48:10.92	203.36	22.78	-42.2	-42.9	19.7	0.00e+00	0	57	0	3512729600	46	4061
2026-01-03 02:48:11.91	203.38	22.63	-41.9	-42.6	20.0	0.00e+00	0	57	0	3517972480	46	3918
2026-01-03 02:48:12.90	203.40	22.49	-41.7	-42.3	20.3	0.00e+00	0	57	0	3524263936	46	3819
2026-01-03 02:48:13.89	203.41	22.35	-41.7	-42.3	20.3	0.00e+00	0	57	0	3529506816	46	3795
2026-01-03 02:48:14.89	203.43	22.20	-41.7	-42.4	20.2	0.00e+00	0	57	0	3534749696	46	3832
2026-01-03 02:48:15.88	203.44	22.06	-41.7	-42.3	20.2	0.00e+00	0	57	0	3539992576	46	3824
2026-01-03 02:48:16.87	203.46	21.92	-41.8	-42.4	20.2	0.00e+00	0	57	0	3546284032	46	3849
2026-01-03 02:48:17.86	203.48	21.78	-41.8	-42.4	20.2	0.00e+00	0	57	0	3551526912	46	3851
2026-01-03 02:48:18.85	203.49	21.64	-41.9	-42.5	20.1	0.00e+00	0	57	0	3556769792	46	3913
2026-01-03 02:48:19.83	203.51	21.50	-42.1	-42.7	19.9	0.00e+00	0	57	0	3563061248	46	3994
2026-01-03 02:48:20.82	203.52	21.37	-42.0	-42.7	19.9	0.00e+00	0	57	0	3568304128	46	3982
2026-01-03 02:48:21.81	203.54	21.23	-42.1	-42.8	19.9	0.00e+00	0	57	0	3573547008	46	4009
2026-01-03 02:48:22.79	203.55	21.10	-42.4	-43.0	19.6	0.00e+00	0	57	0	3579838464	46	4144
2026-01-03 02:48:23.78	203.57	20.96	-42.4	-43.1	19.5	0.00e+00	0	57	0	3585081344	46	4153
2026-01-03 02:48:24.78	203.58	20.82	-42.4	-43.1	19.5	0.00e+00	0	57	0	3590324224	46	4170
2026-01-03 02:48:25.77	203.60	20.69	-42.8	-43.5	19.1	0.00e+00	0	57	0	3595567104	47	4131
2026-01-03 02:48:26.76	203.61	20.56	-42.7	-43.4	19.2	0.00e+00	0	57	0	3601858560	47	4095
2026-01-03 02:48:27.75	203.63	20.43	-42.5	-43.2	19.4	0.00e+00	0	57	0	3607101440	47	3990
2026-01-03 02:48:28.73	203.64	20.30	-42.5	-43.2	19.4	0.00e+00	0	57	0	3612344320	47	3968
2026-01-03 02:48:29.71	203.66	20.17	-42.4	-43.1	19.5	0.00e+00	0	57	0	3618635776	47	3941
2026-01-03 02:48:30.70	203.67	20.04	-42.5	-43.2	19.4	0.00e+00	0	57	0	3623878656	47	3994
2026-01-03 02:48:31.68	203.69	19.91	-42.6	-43.3	19.3	0.00e+00	0	57	0	3629121536	47	4008
2026-01-03 02:48:32.67	203.70	19.78	-42.6	-43.3	19.3	0.00e+00	0	57	0	3634364416	47	4032
2026-01-03 02:48:33.66	203.72	19.65	-42.8	-43.5	19.1	0.00e+00	0	57	0	3640655872	47	4128
2026-01-03 02:48:34.65	203.73	19.52	-43.1	-43.8	18.8	0.00e+00	0	57	0	3645898752	47	4286
2026-01-03 02:48:35.65	203.74	19.39	-43.2	-44.0	18.8	0.00e+00	0	57	0	3652190208	48	4102
2026-01-03 02:48:36.63	203.76	19.27	-42.9	-43.6	19.2	0.00e+00	0	57	0	3657433088	48	3934
2026-01-03 02:48:37.62	203.77	19.14	-42.7	-43.4	19.3	0.00e+00	0	57	0	3662675968	48	3856
2026-01-03 02:48:38.61	203.79	19.02	-42.6	-43.3	19.5	0.00e+00	0	57	0	3667918848	48	3798
2026-01-03 02:48:39.60	203.80	18.89	-42.6	-43.3	19.4	0.00e+00	0	57	0	3674210304	48	3810
2026-01-03 02:48:40.59	203.81	18.77	-42.7	-43.3	19.4	0.00e+00	0	57	0	3679453184	48	3814
2026-01-03 02:48:41.58	203.83	18.65	-42.8	-43.5	19.3	0.00e+00	0	57	0	3684696064	48	3878
2026-01-03 02:48:42.57	203.84	18.52	-42.8	-43.5	19.2	0.00e+00	0	57	0	3690987520	48	3893
2026-01-03 02:48:43.56	203.85	18.40	-42.7	-43.4	19.4	0.00e+00	0	57	0	3696230400	48	3827
2026-01-03 02:48:44.55	203.87	18.28	-42.5	-43.2	19.5	0.00e+00	0	57	0	3701473280	48	3766
2026-01-03 02:48:45.54	203.88	18.16	-42.6	-43.3	19.5	0.00e+00	0	57	0	3707764736	48	3798
2026-01-03 02:48:46.53	203.89	18.04	-42.7	-43.4	19.3	0.00e+00	0	57	0	3713007616	48	3856
2026-01-03 02:48:47.52	203.91	17.92	-42.8	-43.5	19.2	0.00e+00	0	57	0	3718250496	48	3902
2026-01-03 02:48:48.51	203.92	17.80	-42.9	-43.6	19.1	0.00e+00	0	57	0	3724541952	48	3940
2026-01-03 02:48:49.50	203.93	17.68	-42.9	-43.6	19.1	0.00e+00	0	57	0	3729784832	48	3949
2026-01-03 02:48:50.49	203.94	17.56	-43.0	-43.7	19.0	0.00e+00	0	57	0	3735027712	48	4002
2026-01-03 02:48:51.47	203.96	17.45	-43.1	-43.8	18.9	0.00e+00	0	57	0	3740270592	48	4031
2026-01-03 02:48:52.46	203.97	17.33	-43.1	-43.8	18.9	0.00e+00	0	57	0	3746562048	48	4036
2026-01-03 02:48:53.45	203.98	17.21	-43.1	-43.9	18.9	0.00e+00	0	57	0	3751804928	48	4060
2026-01-03 02:48:54.43	204.00	17.10	-43.0	-43.7	19.0	0.00e+00	0	57	0	3757047808	48	3992
2026-01-03 02:48:55.42	204.01	16.99	-43.0	-43.7	19.0	0.00e+00	0	57	0	3763339264	48	3988
2026-01-03 02:48:56.41	204.02	16.87	-43.2	-43.9	18.8	0.00e+00	0	57	0	3768582144	48	4071
2026-01-03 02:48:57.40	204.03	16.76	-43.3	-44.0	18.7	0.00e+00	0	57	0	3773825024	48	4138
