passes_logs/2026/01/03/R3.0SM8_Murmansk_STILSPACE/R3.0SM8_Murmansk_STILSPACE__20260103_045601_SUOMI_NPP_rec.log

#Pass ID: 20260103_045601_SUOMI NPP
#Satellite: SUOMI NPP
#Configuration: NPP
#almurnet v.1.7.20240730
#Start time: 2026-01-03 04:56:04

#Version: 2.2.20231116
#Station: R3.0SM8_Murmansk_STILSPACE
#Location: 33.092731 lon 68.902999 lat
#TLE: 1 37849U 11061A   26001.07732418  .00000182  00000+0  10735-3 0  9990
#TLE: 2 37849  98.7795 303.2470 0002580  87.2016 272.9455 14.19520779734739

#Time	Az	El	Level	Level2	SNR	BER	BlckErr	Temp	State	Recorded	gain1	gain2
2026-01-03 04:56:04.56	56.51	3.16	-52.9	-66.8	3.8	1.49e+00	0	46	0	0	68	18070
2026-01-03 04:56:05.56	56.44	3.21	-52.6	-66.6	3.8	1.49e+00	0	46	104	0	68	17525
2026-01-03 04:56:06.55	56.37	3.27	-52.4	-66.3	3.8	1.49e+00	0	46	104	0	67	18074
2026-01-03 04:56:07.53	56.30	3.33	-52.0	-66.1	3.8	1.49e+00	0	46	104	0	67	17614
2026-01-03 04:56:08.52	56.23	3.39	-51.8	-65.7	3.8	1.49e+00	0	46	104	0	66	17847
2026-01-03 04:56:09.51	56.16	3.44	-51.9	-65.7	3.8	1.49e+00	0	46	104	0	66	17820
2026-01-03 04:56:10.49	56.10	3.50	-51.7	-65.7	3.8	1.49e+00	0	46	104	0	66	17793
2026-01-03 04:56:11.48	56.03	3.56	-51.8	-65.7	3.8	1.49e+00	0	47	104	0	66	17779
2026-01-03 04:56:12.48	55.95	3.62	-51.9	-65.7	3.8	1.49e+00	0	47	104	0	66	17819
2026-01-03 04:56:13.47	55.88	3.68	-51.9	-65.7	3.8	1.49e+00	0	47	104	0	66	17782
2026-01-03 04:56:14.46	55.81	3.74	-51.9	-65.7	3.8	1.49e+00	0	47	104	0	66	17754
2026-01-03 04:56:15.44	55.74	3.79	-51.9	-65.7	3.8	1.49e+00	0	47	104	0	66	17786
2026-01-03 04:56:16.42	55.67	3.85	-51.9	-65.7	3.8	1.49e+00	0	47	104	0	66	17830
2026-01-03 04:56:17.41	55.60	3.91	-51.9	-65.7	3.8	1.49e+00	0	47	104	0	66	17808
2026-01-03 04:56:18.41	55.53	3.97	-51.9	-65.6	3.8	1.49e+00	0	47	104	0	66	17571
2026-01-03 04:56:19.40	55.45	4.03	-51.8	-65.5	3.8	1.49e+00	0	47	104	0	66	17293
2026-01-03 04:56:20.38	55.38	4.09	-51.7	-65.0	3.8	1.49e+00	0	47	104	0	66	16476
2026-01-03 04:56:21.38	55.31	4.15	-51.7	-64.6	3.8	1.49e+00	0	47	104	0	66	15733
2026-01-03 04:56:22.37	55.24	4.21	-51.7	-64.2	3.8	1.49e+00	0	47	104	0	66	15028
2026-01-03 04:56:23.36	55.16	4.27	-51.7	-63.6	3.8	1.49e+00	0	47	104	0	66	14033
2026-01-03 04:56:24.35	55.09	4.33	-51.7	-62.7	3.9	1.47e+00	0	47	104	0	66	12586
2026-01-03 04:56:25.34	55.01	4.38	-51.3	-61.4	4.4	1.30e+00	0	47	0	0	65	11517
2026-01-03 04:56:26.33	54.94	4.44	-51.3	-60.5	4.8	9.68e-01	0	47	0	2097152	65	10373
2026-01-03 04:56:27.31	54.87	4.50	-51.1	-59.3	5.5	7.22e-01	0	48	0	4194304	65	8982
2026-01-03 04:56:28.30	54.79	4.56	-51.1	-58.4	6.1	3.72e-01	0	48	0	6291456	65	8163
2026-01-03 04:56:29.29	54.71	4.62	-50.8	-57.4	7.0	2.10e-01	0	48	0	7340032	64	7681
2026-01-03 04:56:30.28	54.64	4.68	-50.6	-56.4	8.0	1.07e-01	0	48	0	9437184	64	6845
2026-01-03 04:56:31.27	54.56	4.74	-50.5	-55.9	8.5	5.00e-02	0	48	0	11534336	63	6862
2026-01-03 04:56:32.25	54.49	4.80	-50.3	-55.5	8.9	3.55e-02	0	48	0	13631488	63	6539
2026-01-03 04:56:33.23	54.41	4.86	-50.2	-55.0	9.4	1.89e-02	0	48	0	14680064	63	6190
2026-01-03 04:56:34.23	54.33	4.92	-50.1	-54.8	9.6	1.26e-02	0	48	0	16777216	63	6054
2026-01-03 04:56:35.22	54.26	4.98	-50.1	-54.9	9.6	1.15e-02	0	48	0	18874368	63	6062
2026-01-03 04:56:36.20	54.18	5.04	-49.9	-54.5	10.0	8.48e-03	0	48	0	20971520	63	5854
2026-01-03 04:56:37.20	54.10	5.10	-50.0	-54.7	9.8	9.84e-03	0	48	0	22020096	63	5953
2026-01-03 04:56:38.19	54.02	5.16	-50.1	-54.6	9.9	8.52e-03	0	49	0	24117248	63	5878
2026-01-03 04:56:39.18	53.94	5.22	-50.1	-54.6	10.0	6.38e-03	0	48	0	26214400	62	6205
2026-01-03 04:56:40.17	53.86	5.28	-50.0	-54.4	10.1	7.66e-03	0	48	0	28311552	62	6126
2026-01-03 04:56:41.16	53.78	5.35	-50.0	-54.4	10.2	6.62e-03	0	49	0	30408704	62	6091
2026-01-03 04:56:42.15	53.70	5.41	-49.9	-54.2	10.5	5.11e-03	0	49	0	31457280	62	5942
2026-01-03 04:56:43.14	53.62	5.47	-50.1	-54.5	10.1	5.86e-03	0	48	0	33554432	62	6171
2026-01-03 04:56:44.12	53.54	5.53	-50.2	-54.8	9.8	9.44e-03	0	49	0	35651584	62	6395
2026-01-03 04:56:45.11	53.46	5.59	-49.9	-54.2	10.4	8.22e-03	0	49	0	37748736	62	5972
2026-01-03 04:56:46.10	53.38	5.65	-49.8	-53.9	10.8	3.66e-03	0	49	0	38797312	62	5762
2026-01-03 04:56:47.10	53.30	5.71	-49.7	-53.5	11.2	1.46e-03	0	49	0	40894464	62	5515
2026-01-03 04:56:48.09	53.22	5.77	-49.5	-53.3	11.4	1.06e-03	0	49	0	42991616	62	5370
2026-01-03 04:56:49.08	53.13	5.83	-49.3	-52.9	11.8	6.22e-04	0	49	0	45088768	61	5436
2026-01-03 04:56:50.08	53.05	5.90	-49.4	-53.1	11.6	5.97e-04	0	49	0	46137344	61	5533
2026-01-03 04:56:51.07	52.97	5.96	-49.4	-53.1	11.6	7.07e-04	0	49	0	48234496	61	5539
2026-01-03 04:56:52.06	52.88	6.02	-49.4	-53.0	11.7	6.04e-04	0	49	0	50331648	61	5495
2026-01-03 04:56:53.04	52.80	6.08	-49.4	-53.1	11.6	6.29e-04	0	49	0	52428800	61	5558
2026-01-03 04:56:54.03	52.72	6.14	-49.5	-53.2	11.5	7.32e-04	0	49	0	54525952	61	5610
2026-01-03 04:56:55.02	52.63	6.21	-49.7	-53.6	11.2	8.54e-04	0	49	0	55574528	61	5865
2026-01-03 04:56:56.01	52.55	6.27	-49.6	-53.5	11.2	1.08e-03	0	49	0	57671680	61	5807
2026-01-03 04:56:57.00	52.46	6.33	-49.6	-53.4	11.4	9.17e-04	0	50	0	59768832	61	5737
2026-01-03 04:56:58.00	52.38	6.39	-49.5	-53.4	11.3	1.08e-03	0	50	0	61865984	61	5726
2026-01-03 04:56:58.98	52.29	6.45	-49.5	-53.4	11.3	1.20e-03	0	50	0	62914560	61	5768
2026-01-03 04:56:59.98	52.20	6.52	-49.4	-53.1	11.7	7.21e-04	0	50	0	65011712	61	5559
2026-01-03 04:57:00.96	52.12	6.58	-49.5	-53.3	11.4	8.08e-04	0	50	0	67108864	61	5712
2026-01-03 04:57:01.95	52.03	6.64	-49.5	-53.4	11.4	1.02e-03	0	50	0	69206016	61	5729
2026-01-03 04:57:02.93	51.94	6.70	-49.6	-53.5	11.4	9.49e-04	0	50	0	70254592	61	5818
2026-01-03 04:57:03.92	51.86	6.77	-49.7	-53.7	11.1	1.55e-03	0	50	0	72351744	61	5965
2026-01-03 04:57:04.91	51.77	6.83	-49.8	-53.8	11.0	2.03e-03	0	50	0	74448896	61	6057
2026-01-03 04:57:05.91	51.68	6.89	-49.7	-53.7	11.2	1.76e-03	0	50	0	76546048	61	5941
2026-01-03 04:57:06.90	51.59	6.96	-49.8	-53.8	11.0	1.49e-03	0	50	0	78643200	61	6048
2026-01-03 04:57:07.89	51.50	7.02	-49.8	-53.8	11.0	1.91e-03	0	50	0	79691776	61	6061
2026-01-03 04:57:08.87	51.41	7.08	-49.8	-53.9	11.0	1.90e-03	0	50	0	81788928	61	6119
2026-01-03 04:57:09.86	51.32	7.14	-50.0	-54.0	10.8	2.19e-03	0	50	0	83886080	61	6196
2026-01-03 04:57:10.85	51.23	7.21	-49.8	-53.8	11.1	1.66e-03	0	50	0	85983232	61	6026
2026-01-03 04:57:11.85	51.14	7.27	-49.8	-53.9	11.0	1.48e-03	0	50	0	87031808	61	6091
2026-01-03 04:57:12.84	51.04	7.34	-49.7	-53.6	11.3	1.33e-03	0	50	0	89128960	61	5893
2026-01-03 04:57:13.83	50.95	7.40	-49.7	-53.6	11.3	1.09e-03	0	50	0	91226112	61	5900
2026-01-03 04:57:14.81	50.86	7.46	-49.8	-53.8	11.2	1.44e-03	0	50	0	93323264	61	6004
2026-01-03 04:57:15.80	50.77	7.53	-49.8	-53.6	11.3	1.53e-03	0	50	0	94371840	61	5887
2026-01-03 04:57:16.79	50.67	7.59	-49.7	-53.5	11.5	7.77e-04	0	50	0	96468992	61	5837
2026-01-03 04:57:17.78	50.58	7.65	-49.7	-53.5	11.5	8.58e-04	0	50	0	98566144	61	5814
2026-01-03 04:57:18.77	50.49	7.72	-49.6	-53.1	11.9	7.23e-04	0	51	0	100663296	61	5588
2026-01-03 04:57:19.77	50.39	7.78	-49.6	-53.3	11.7	4.45e-04	0	51	0	102760448	61	5713
2026-01-03 04:57:20.76	50.30	7.85	-49.5	-53.0	12.0	2.88e-04	0	51	0	103809024	61	5476
2026-01-03 04:57:21.75	50.20	7.91	-49.6	-53.1	12.0	2.84e-04	0	51	0	105906176	61	5534
2026-01-03 04:57:22.74	50.10	7.98	-49.6	-53.2	11.8	3.61e-04	0	51	0	108003328	61	5608
2026-01-03 04:57:23.74	50.01	8.04	-49.4	-52.7	12.3	2.40e-04	0	51	0	110100480	61	5315
2026-01-03 04:57:24.72	49.91	8.11	-49.3	-52.7	12.4	1.43e-04	0	51	0	111149056	61	5286
2026-01-03 04:57:25.71	49.81	8.17	-49.5	-52.9	12.1	1.46e-04	0	51	0	113246208	61	5436
2026-01-03 04:57:26.70	49.72	8.23	-49.4	-52.7	12.3	2.50e-04	0	51	0	115343360	61	5310
2026-01-03 04:57:27.69	49.62	8.30	-49.5	-52.9	12.2	1.75e-04	0	51	0	117440512	61	5421
2026-01-03 04:57:28.68	49.52	8.36	-49.4	-52.6	12.4	1.82e-04	0	51	0	119537664	61	5270
2026-01-03 04:57:29.66	49.42	8.43	-49.2	-52.4	12.7	9.00e-05	0	51	0	120586240	61	5115
2026-01-03 04:57:30.66	49.32	8.49	-49.3	-52.5	12.5	7.70e-05	0	51	0	122683392	61	5189
2026-01-03 04:57:31.65	49.22	8.56	-49.4	-52.8	12.3	1.91e-04	0	51	0	124780544	61	5351
2026-01-03 04:57:32.64	49.12	8.63	-49.4	-52.7	12.4	2.34e-04	0	51	0	126877696	61	5298
2026-01-03 04:57:33.63	49.02	8.69	-49.3	-52.5	12.6	1.78e-04	0	51	0	127926272	61	5178
2026-01-03 04:57:34.62	48.92	8.76	-49.3	-52.4	12.7	7.17e-05	0	51	0	130023424	61	5122
2026-01-03 04:57:35.61	48.82	8.82	-49.2	-52.3	12.8	5.41e-05	0	51	0	132120576	61	5057
2026-01-03 04:57:36.60	48.71	8.89	-49.3	-52.4	12.7	6.40e-05	0	51	0	134217728	61	5132
2026-01-03 04:57:37.60	48.61	8.95	-49.2	-52.4	12.7	5.79e-05	0	51	0	135266304	61	5132
2026-01-03 04:57:38.59	48.51	9.02	-49.2	-52.4	12.7	9.07e-05	0	51	0	137363456	61	5154
2026-01-03 04:57:39.59	48.40	9.09	-49.2	-52.3	12.8	8.31e-05	0	51	0	139460608	61	5094
2026-01-03 04:57:40.57	48.30	9.15	-49.4	-52.7	12.5	9.07e-05	0	52	0	141557760	61	5285
2026-01-03 04:57:41.56	48.19	9.22	-49.5	-52.8	12.4	2.28e-04	0	51	0	143654912	61	5357
2026-01-03 04:57:42.55	48.09	9.28	-49.5	-52.8	12.3	1.30e-04	0	52	0	144703488	61	5391
2026-01-03 04:57:43.54	47.98	9.35	-49.7	-53.1	12.0	2.93e-04	0	52	0	146800640	61	5578
2026-01-03 04:57:44.53	47.88	9.42	-49.6	-53.1	12.0	3.85e-04	0	52	0	148897792	61	5571
2026-01-03 04:57:45.52	47.77	9.48	-49.5	-53.0	12.2	2.22e-04	0	52	0	150994944	61	5467
2026-01-03 04:57:46.52	47.66	9.55	-49.7	-53.2	11.9	3.70e-04	0	52	0	152043520	61	5622
2026-01-03 04:57:47.51	47.55	9.62	-49.6	-53.0	12.2	3.09e-04	0	52	0	154140672	61	5495
2026-01-03 04:57:48.50	47.45	9.68	-49.7	-53.3	11.9	3.11e-04	0	52	0	156237824	61	5689
2026-01-03 04:57:49.49	47.34	9.75	-49.7	-53.5	11.7	6.38e-04	0	52	0	158334976	61	5798
2026-01-03 04:57:50.47	47.23	9.81	-49.9	-53.5	11.7	5.30e-04	0	52	0	159383552	61	5790
2026-01-03 04:57:51.46	47.12	9.88	-50.0	-53.7	11.5	5.44e-04	0	52	0	161480704	61	5951
2026-01-03 04:57:52.45	47.01	9.95	-50.0	-53.8	11.4	1.11e-03	0	52	0	163577856	62	5674
2026-01-03 04:57:53.43	46.90	10.01	-49.8	-53.4	11.8	4.56e-04	0	52	0	165675008	62	5407
2026-01-03 04:57:54.43	46.79	10.08	-49.6	-53.2	12.0	2.10e-04	0	52	0	167772160	62	5288
2026-01-03 04:57:55.41	46.68	10.15	-49.6	-53.1	12.1	1.80e-04	0	52	0	168820736	62	5224
2026-01-03 04:57:56.41	46.56	10.22	-49.8	-53.3	11.9	2.17e-04	0	52	0	170917888	62	5351
2026-01-03 04:57:57.40	46.45	10.28	-49.8	-53.5	11.7	7.24e-04	0	52	0	173015040	62	5470
2026-01-03 04:57:58.39	46.34	10.35	-49.7	-53.3	11.9	5.00e-04	0	52	0	175112192	62	5359
2026-01-03 04:57:59.38	46.22	10.42	-49.6	-52.9	12.3	2.59e-04	0	52	0	176160768	62	5133
2026-01-03 04:58:00.37	46.11	10.49	-49.6	-52.9	12.3	2.75e-04	0	52	0	178257920	62	5147
2026-01-03 04:58:01.36	45.99	10.55	-49.6	-53.0	12.3	1.65e-04	0	52	0	180355072	62	5167
2026-01-03 04:58:02.36	45.88	10.62	-49.8	-53.3	11.9	2.49e-04	0	52	0	182452224	62	5356
2026-01-03 04:58:03.35	45.76	10.69	-49.8	-53.1	12.1	2.39e-04	0	52	0	183500800	62	5279
2026-01-03 04:58:04.34	45.64	10.76	-49.8	-53.2	12.0	2.69e-04	0	52	0	185597952	62	5333
2026-01-03 04:58:05.33	45.53	10.83	-49.6	-53.1	12.2	3.32e-04	0	52	0	187695104	62	5247
2026-01-03 04:58:06.31	45.41	10.89	-49.6	-53.0	12.3	1.67e-04	0	52	0	189792256	62	5163
2026-01-03 04:58:07.31	45.29	10.96	-49.8	-53.3	11.9	2.01e-04	0	52	0	191889408	62	5397
2026-01-03 04:58:08.30	45.17	11.03	-50.0	-53.6	11.6	6.39e-04	0	52	0	192937984	62	5576
2026-01-03 04:58:09.28	45.05	11.10	-49.8	-53.1	12.1	3.62e-04	0	52	0	195035136	62	5272
2026-01-03 04:58:10.28	44.93	11.17	-49.6	-52.9	12.4	1.84e-04	0	52	0	197132288	62	5109
2026-01-03 04:58:11.27	44.81	11.23	-49.6	-52.9	12.3	1.62e-04	0	53	0	199229440	62	5139
2026-01-03 04:58:12.25	44.69	11.30	-49.5	-52.7	12.5	1.33e-04	0	52	0	200278016	62	5030
2026-01-03 04:58:13.25	44.57	11.37	-49.5	-52.6	12.7	1.21e-04	0	52	0	202375168	61	5248
2026-01-03 04:58:14.24	44.45	11.44	-49.6	-52.8	12.5	1.29e-04	0	53	0	204472320	61	5354
2026-01-03 04:58:15.23	44.32	11.51	-49.5	-52.7	12.6	1.04e-04	0	53	0	206569472	61	5304
2026-01-03 04:58:16.22	44.20	11.58	-49.5	-52.7	12.5	1.40e-04	0	53	0	208666624	61	5336
2026-01-03 04:58:17.19	44.08	11.64	-49.4	-52.5	12.8	6.71e-05	0	53	0	209715200	61	5189
2026-01-03 04:58:18.18	43.95	11.71	-49.3	-52.2	13.0	4.19e-05	0	53	0	211812352	61	5036
2026-01-03 04:58:19.17	43.83	11.78	-49.1	-52.0	13.3	2.74e-05	0	53	0	213909504	61	4892
2026-01-03 04:58:20.16	43.70	11.85	-48.9	-51.7	13.6	6.80e-06	0	53	0	216006656	61	4740
2026-01-03 04:58:21.14	43.58	11.92	-49.0	-51.7	13.6	8.30e-06	0	53	0	217055232	60	5020
2026-01-03 04:58:22.14	43.45	11.99	-48.9	-51.6	13.7	3.00e-06	0	53	0	219152384	60	4932
2026-01-03 04:58:23.13	43.32	12.06	-48.8	-51.5	13.9	7.00e-07	0	53	0	221249536	60	4871
2026-01-03 04:58:24.12	43.19	12.12	-48.7	-51.3	14.1	3.00e-06	0	53	0	223346688	60	4762
2026-01-03 04:58:25.11	43.06	12.19	-48.8	-51.5	13.8	3.80e-06	0	53	0	224395264	60	4882
2026-01-03 04:58:26.10	42.93	12.26	-49.0	-51.7	13.6	6.10e-06	0	53	0	226492416	60	5010
2026-01-03 04:58:27.08	42.80	12.33	-48.7	-51.3	14.0	4.50e-06	0	53	0	228589568	60	4794
2026-01-03 04:58:28.08	42.67	12.40	-48.6	-51.1	14.2	0.00e+00	0	53	0	230686720	60	4673
2026-01-03 04:58:29.06	42.54	12.47	-48.6	-51.0	14.3	2.20e-06	0	53	0	232783872	60	4648
2026-01-03 04:58:30.05	42.41	12.54	-48.7	-51.2	14.1	7.00e-07	0	53	0	233832448	60	4745
2026-01-03 04:58:31.03	42.28	12.61	-48.5	-51.0	14.3	1.50e-06	0	53	0	235929600	60	4638
2026-01-03 04:58:32.02	42.14	12.68	-48.7	-51.3	14.0	2.20e-06	0	53	0	238026752	60	4775
2026-01-03 04:58:33.01	42.01	12.75	-48.6	-51.1	14.2	7.00e-07	0	53	0	240123904	60	4693
2026-01-03 04:58:34.00	41.88	12.82	-48.5	-50.9	14.5	7.00e-07	0	53	0	241172480	59	4837
2026-01-03 04:58:34.98	41.74	12.88	-48.6	-51.0	14.3	1.50e-06	0	53	0	243269632	59	4894
2026-01-03 04:58:35.97	41.61	12.95	-48.7	-51.2	14.2	1.50e-06	0	53	0	245366784	59	4996
2026-01-03 04:58:36.97	41.47	13.02	-48.7	-51.2	14.2	7.00e-07	0	53	0	247463936	59	5004
2026-01-03 04:58:37.96	41.33	13.09	-48.6	-51.1	14.3	0.00e+00	0	53	0	248512512	59	4962
2026-01-03 04:58:38.95	41.19	13.16	-48.7	-51.2	14.2	7.00e-07	0	54	0	250609664	59	4993
2026-01-03 04:58:39.94	41.05	13.23	-48.5	-50.9	14.5	1.50e-06	0	54	0	252706816	59	4836
2026-01-03 04:58:40.94	40.91	13.30	-48.5	-50.8	14.5	0.00e+00	0	53	0	254803968	59	4806
2026-01-03 04:58:41.93	40.77	13.37	-48.5	-50.9	14.5	7.00e-07	0	54	0	255852544	59	4822
2026-01-03 04:58:42.92	40.63	13.44	-48.5	-50.9	14.5	7.00e-07	0	54	0	257949696	59	4837
2026-01-03 04:58:43.92	40.49	13.51	-48.6	-51.1	14.3	7.00e-07	0	53	0	260046848	59	4929
2026-01-03 04:58:44.91	40.35	13.58	-48.8	-51.4	14.1	7.00e-07	0	54	0	262144000	59	5108
2026-01-03 04:58:45.91	40.20	13.65	-48.8	-51.4	14.0	3.80e-06	0	54	0	264241152	59	5107
2026-01-03 04:58:46.90	40.06	13.72	-48.8	-51.5	13.9	0.00e+00	0	54	0	265289728	59	5186
2026-01-03 04:58:47.88	39.92	13.79	-48.7	-51.2	14.1	7.00e-07	0	54	0	267386880	59	5008
2026-01-03 04:58:48.87	39.77	13.86	-48.5	-51.1	14.3	7.00e-07	0	54	0	269484032	59	4974
2026-01-03 04:58:49.86	39.63	13.93	-48.7	-51.2	14.2	7.00e-07	0	54	0	271581184	59	5017
2026-01-03 04:58:50.86	39.48	14.00	-48.8	-51.3	14.0	3.80e-06	0	54	0	272629760	59	5100
2026-01-03 04:58:51.86	39.33	14.07	-49.0	-51.9	13.6	8.30e-06	0	54	0	274726912	59	5403
2026-01-03 04:58:52.85	39.18	14.14	-49.0	-51.8	13.5	1.22e-05	0	54	0	276824064	60	5089
2026-01-03 04:58:53.84	39.03	14.21	-49.1	-52.0	13.4	9.10e-06	0	54	0	278921216	60	5187
2026-01-03 04:58:54.82	38.89	14.28	-48.9	-51.8	13.6	9.90e-06	0	54	0	281018368	60	5043
2026-01-03 04:58:55.82	38.74	14.35	-48.8	-51.6	13.8	1.06e-05	0	54	0	282066944	60	4937
2026-01-03 04:58:56.80	38.59	14.42	-48.9	-51.6	13.7	4.50e-06	0	54	0	284164096	60	4979
2026-01-03 04:58:57.79	38.44	14.49	-48.7	-51.4	14.0	3.80e-06	0	54	0	286261248	60	4818
2026-01-03 04:58:58.78	38.28	14.56	-48.7	-51.2	14.2	1.50e-06	0	54	0	288358400	60	4744
2026-01-03 04:58:59.77	38.13	14.63	-48.8	-51.3	14.0	1.50e-06	0	54	0	289406976	60	4809
2026-01-03 04:59:00.76	37.98	14.70	-48.7	-51.3	14.1	1.50e-06	0	54	0	291504128	60	4804
2026-01-03 04:59:01.76	37.82	14.77	-48.8	-51.6	13.8	3.80e-06	0	54	0	293601280	60	4951
2026-01-03 04:59:02.74	37.67	14.84	-48.9	-51.6	13.8	4.50e-06	0	54	0	295698432	60	4967
2026-01-03 04:59:03.74	37.51	14.91	-48.8	-51.4	13.9	3.80e-06	0	54	0	296747008	60	4854
2026-01-03 04:59:04.73	37.35	14.98	-48.8	-51.3	14.1	5.30e-06	0	54	0	298844160	60	4808
2026-01-03 04:59:05.71	37.20	15.05	-48.8	-51.4	14.0	3.80e-06	0	54	0	300941312	60	4847
2026-01-03 04:59:06.70	37.04	15.12	-48.9	-51.6	13.8	5.30e-06	0	54	0	303038464	60	4980
2026-01-03 04:59:07.70	36.88	15.19	-49.0	-51.7	13.7	6.80e-06	0	54	0	305135616	60	5032
2026-01-03 04:59:08.69	36.72	15.26	-49.1	-52.0	13.4	1.06e-05	0	54	0	306184192	60	5192
2026-01-03 04:59:09.67	36.56	15.33	-49.3	-52.3	13.1	2.74e-05	0	54	0	308281344	60	5390
2026-01-03 04:59:10.66	36.40	15.40	-49.3	-52.3	13.1	1.83e-05	0	54	0	310378496	60	5363
2026-01-03 04:59:11.65	36.24	15.47	-49.2	-52.1	13.2	2.74e-05	0	54	0	312475648	60	5256
2026-01-03 04:59:12.64	36.08	15.54	-48.9	-51.7	13.7	8.30e-06	0	54	0	313524224	60	4995
2026-01-03 04:59:13.62	35.92	15.61	-48.9	-51.6	13.8	4.50e-06	0	54	0	315621376	60	4944
2026-01-03 04:59:14.61	35.75	15.68	-48.8	-51.5	13.8	3.00e-06	0	54	0	317718528	60	4920
2026-01-03 04:59:15.59	35.59	15.75	-48.9	-51.5	13.9	6.10e-06	0	54	0	319815680	60	4900
2026-01-03 04:59:16.58	35.42	15.82	-49.0	-51.7	13.7	4.50e-06	0	54	0	320864256	60	5025
2026-01-03 04:59:17.57	35.26	15.89	-49.1	-52.0	13.5	1.37e-05	0	54	0	322961408	60	5173
2026-01-03 04:59:18.56	35.09	15.96	-49.1	-52.0	13.4	1.14e-05	0	54	0	325058560	60	5166
2026-01-03 04:59:19.56	34.92	16.03	-49.0	-51.7	13.7	4.50e-06	0	54	0	327155712	60	4990
2026-01-03 04:59:20.54	34.75	16.09	-48.9	-51.5	13.9	3.00e-06	0	54	0	329252864	60	4912
2026-01-03 04:59:21.53	34.58	16.16	-49.2	-52.1	13.3	3.80e-06	0	54	0	330301440	60	5246
2026-01-03 04:59:22.52	34.41	16.23	-49.1	-52.0	13.5	1.52e-05	0	54	0	332398592	60	5182
2026-01-03 04:59:23.51	34.24	16.30	-49.3	-52.2	13.2	1.37e-05	0	54	0	334495744	60	5289
2026-01-03 04:59:24.50	34.07	16.37	-49.2	-52.1	13.3	1.67e-05	0	54	0	336592896	60	5235
2026-01-03 04:59:25.49	33.90	16.44	-49.1	-51.9	13.5	7.60e-06	0	55	0	337641472	60	5107
2026-01-03 04:59:26.48	33.72	16.51	-49.2	-52.1	13.4	1.37e-05	0	54	0	339738624	60	5219
2026-01-03 04:59:27.47	33.55	16.58	-49.1	-52.0	13.5	2.51e-05	0	54	0	341835776	60	5190
2026-01-03 04:59:28.46	33.38	16.65	-49.0	-51.7	13.7	6.80e-06	0	54	0	343932928	60	5022
2026-01-03 04:59:29.45	33.20	16.71	-49.0	-51.8	13.7	6.10e-06	0	54	0	344981504	60	5075
2026-01-03 04:59:30.43	33.02	16.78	-48.9	-51.7	13.7	6.10e-06	0	55	0	347078656	60	5024
2026-01-03 04:59:31.42	32.85	16.85	-49.1	-52.0	13.5	5.30e-06	0	55	0	349175808	60	5184
2026-01-03 04:59:32.41	32.67	16.92	-49.2	-52.1	13.3	1.37e-05	0	55	0	351272960	60	5256
2026-01-03 04:59:33.41	32.49	16.99	-49.3	-52.3	13.2	2.74e-05	0	54	0	353370112	60	5349
2026-01-03 04:59:34.40	32.31	17.06	-49.4	-52.5	12.9	3.05e-05	0	54	0	354418688	60	5511
2026-01-03 04:59:35.39	32.13	17.12	-49.4	-52.5	12.9	3.20e-05	0	54	0	356515840	60	5509
2026-01-03 04:59:36.38	31.94	17.19	-49.2	-52.3	13.2	5.11e-05	0	55	0	358612992	60	5355
2026-01-03 04:59:37.37	31.76	17.26	-49.2	-52.2	13.2	1.98e-05	0	55	0	360710144	60	5323
2026-01-03 04:59:38.36	31.58	17.33	-49.4	-52.4	13.1	3.28e-05	0	55	0	361758720	60	5430
2026-01-03 04:59:39.34	31.40	17.39	-49.2	-52.0	13.4	2.89e-05	0	54	0	363855872	60	5210
2026-01-03 04:59:40.34	31.21	17.46	-48.9	-51.6	13.9	1.06e-05	0	55	0	365953024	60	4948
2026-01-03 04:59:41.33	31.02	17.53	-48.8	-51.4	14.1	7.00e-07	0	55	0	368050176	60	4846
2026-01-03 04:59:42.32	30.84	17.60	-48.4	-50.7	14.8	0.00e+00	0	55	0	369098752	59	4740
2026-01-03 04:59:43.30	30.65	17.66	-48.4	-50.6	14.8	0.00e+00	0	55	0	371195904	59	4697
2026-01-03 04:59:44.29	30.46	17.73	-48.4	-50.8	14.7	0.00e+00	0	55	0	373293056	59	4767
2026-01-03 04:59:45.28	30.27	17.80	-48.3	-50.4	15.0	0.00e+00	0	55	0	375390208	59	4594
2026-01-03 04:59:46.27	30.08	17.86	-48.5	-50.8	14.7	0.00e+00	0	55	0	377487360	59	4797
2026-01-03 04:59:47.26	29.89	17.93	-48.5	-50.9	14.6	7.00e-07	0	55	0	378535936	59	4819
2026-01-03 04:59:48.25	29.70	18.00	-48.5	-50.9	14.5	0.00e+00	0	55	0	380633088	59	4869
2026-01-03 04:59:49.23	29.51	18.06	-48.3	-50.7	14.8	0.00e+00	0	55	0	382730240	59	4730
2026-01-03 04:59:50.21	29.32	18.13	-48.3	-50.7	14.8	0.00e+00	0	55	0	384827392	59	4735
2026-01-03 04:59:51.20	29.12	18.19	-48.5	-50.9	14.6	0.00e+00	0	55	0	385875968	59	4846
2026-01-03 04:59:52.19	28.93	18.26	-48.2	-50.5	15.0	7.00e-07	0	55	0	387973120	59	4617
2026-01-03 04:59:53.18	28.73	18.33	-48.3	-50.6	14.9	0.00e+00	0	55	0	390070272	59	4667
2026-01-03 04:59:54.17	28.54	18.39	-48.2	-50.5	14.9	0.00e+00	0	55	0	392167424	59	4603
2026-01-03 04:59:55.16	28.34	18.46	-48.5	-50.8	14.7	0.00e+00	0	55	0	393216000	59	4800
2026-01-03 04:59:56.16	28.14	18.52	-48.4	-50.7	14.8	0.00e+00	0	55	0	395313152	59	4708
2026-01-03 04:59:57.15	27.94	18.59	-47.9	-49.9	15.5	0.00e+00	0	55	0	397410304	59	4324
2026-01-03 04:59:58.14	27.74	18.65	-48.2	-50.4	15.1	0.00e+00	0	55	0	399507456	58	4824
2026-01-03 04:59:59.14	27.53	18.72	-48.0	-50.1	15.4	0.00e+00	0	55	0	401604608	58	4667
2026-01-03 05:00:00.13	27.33	18.78	-47.9	-50.0	15.5	0.00e+00	0	55	0	402653184	58	4611
2026-01-03 05:00:01.11	27.13	18.84	-47.9	-50.0	15.5	0.00e+00	0	55	0	404750336	58	4628
2026-01-03 05:00:02.10	26.93	18.91	-48.1	-50.2	15.4	0.00e+00	0	55	0	406847488	58	4725
2026-01-03 05:00:03.08	26.73	18.97	-47.8	-49.9	15.6	0.00e+00	0	55	0	408944640	58	4556
2026-01-03 05:00:04.07	26.52	19.03	-47.7	-49.6	15.8	0.00e+00	0	55	0	409993216	58	4433
2026-01-03 05:00:05.07	26.31	19.10	-47.5	-49.4	16.0	0.00e+00	0	55	0	412090368	58	4319
2026-01-03 05:00:06.06	26.10	19.16	-47.4	-49.3	16.2	0.00e+00	0	55	0	414187520	58	4256
2026-01-03 05:00:07.05	25.90	19.22	-47.6	-49.5	16.0	0.00e+00	0	55	0	416284672	58	4358
2026-01-03 05:00:08.03	25.69	19.29	-47.5	-49.4	16.1	0.00e+00	0	55	0	417333248	58	4303
2026-01-03 05:00:09.02	25.48	19.35	-47.3	-49.1	16.3	0.00e+00	0	55	0	419430400	57	4395
2026-01-03 05:00:10.01	25.27	19.41	-47.4	-49.3	16.1	0.00e+00	0	55	0	421527552	57	4509
2026-01-03 05:00:11.00	25.06	19.47	-47.5	-49.3	16.1	0.00e+00	0	55	0	423624704	57	4528
2026-01-03 05:00:12.00	24.84	19.53	-47.4	-49.3	16.2	0.00e+00	0	55	0	425721856	57	4503
2026-01-03 05:00:12.99	24.63	19.59	-47.5	-49.4	16.0	0.00e+00	0	55	0	426770432	57	4573
2026-01-03 05:00:13.98	24.41	19.66	-47.6	-49.5	16.0	0.00e+00	0	55	0	428867584	57	4611
2026-01-03 05:00:14.97	24.20	19.72	-47.8	-49.8	15.7	0.00e+00	0	55	0	430964736	57	4761
2026-01-03 05:00:15.95	23.99	19.78	-47.6	-49.5	15.9	0.00e+00	0	55	0	433061888	57	4624
2026-01-03 05:00:16.93	23.77	19.84	-47.5	-49.3	16.1	0.00e+00	0	55	0	434110464	57	4540
2026-01-03 05:00:17.92	23.55	19.90	-47.5	-49.5	16.0	0.00e+00	0	55	0	436207616	57	4601
2026-01-03 05:00:18.92	23.33	19.96	-47.4	-49.3	16.1	0.00e+00	0	55	0	438304768	57	4537
2026-01-03 05:00:19.91	23.11	20.01	-47.4	-49.2	16.2	0.00e+00	0	55	0	440401920	57	4474
2026-01-03 05:00:20.90	22.89	20.07	-47.1	-48.8	16.6	0.00e+00	0	55	0	441450496	57	4289
2026-01-03 05:00:21.89	22.67	20.13	-47.2	-49.0	16.5	0.00e+00	0	55	0	443547648	57	4348
2026-01-03 05:00:22.88	22.45	20.19	-47.2	-48.9	16.5	0.00e+00	0	55	0	445644800	57	4326
2026-01-03 05:00:23.87	22.23	20.25	-47.4	-49.2	16.3	0.00e+00	0	55	0	447741952	57	4468
2026-01-03 05:00:24.86	22.00	20.31	-47.2	-48.9	16.6	0.00e+00	0	55	0	449839104	57	4310
2026-01-03 05:00:25.85	21.78	20.36	-47.2	-49.0	16.5	0.00e+00	0	55	0	450887680	57	4348
2026-01-03 05:00:26.84	21.55	20.42	-47.5	-49.4	16.1	0.00e+00	0	55	0	452984832	57	4564
2026-01-03 05:00:27.83	21.33	20.48	-47.4	-49.2	16.2	0.00e+00	0	55	0	455081984	57	4487
2026-01-03 05:00:28.82	21.10	20.53	-47.3	-49.1	16.4	0.00e+00	0	55	0	457179136	57	4421
2026-01-03 05:00:29.80	20.88	20.59	-47.3	-49.0	16.5	0.00e+00	0	56	0	458227712	57	4375
2026-01-03 05:00:30.78	20.65	20.64	-47.3	-49.1	16.4	0.00e+00	0	55	0	460324864	57	4401
2026-01-03 05:00:31.77	20.42	20.70	-47.1	-48.8	16.6	0.00e+00	0	55	0	462422016	57	4263
2026-01-03 05:00:32.76	20.19	20.75	-47.1	-48.8	16.7	0.00e+00	0	55	0	464519168	57	4264
2026-01-03 05:00:33.75	19.96	20.81	-47.2	-48.9	16.5	0.00e+00	0	55	0	465567744	57	4336
2026-01-03 05:00:34.74	19.73	20.86	-47.1	-48.8	16.7	0.00e+00	0	56	0	467664896	57	4251
2026-01-03 05:00:35.74	19.49	20.92	-47.1	-48.8	16.7	0.00e+00	0	56	0	469762048	57	4285
2026-01-03 05:00:36.72	19.26	20.97	-47.0	-48.6	16.9	0.00e+00	0	56	0	471859200	57	4170
2026-01-03 05:00:37.71	19.03	21.02	-47.1	-48.7	16.7	0.00e+00	0	55	0	473956352	56	4485
2026-01-03 05:00:38.70	18.79	21.07	-47.0	-48.7	16.8	0.00e+00	0	56	0	475004928	56	4458
2026-01-03 05:00:39.69	18.55	21.13	-47.0	-48.7	16.8	0.00e+00	0	56	0	477102080	56	4474
2026-01-03 05:00:40.68	18.32	21.18	-47.0	-48.7	16.8	0.00e+00	0	56	0	479199232	56	4467
2026-01-03 05:00:41.67	18.08	21.23	-47.0	-48.7	16.8	0.00e+00	0	56	0	481296384	56	4459
2026-01-03 05:00:42.66	17.84	21.28	-47.1	-48.7	16.7	0.00e+00	0	56	0	482344960	56	4482
2026-01-03 05:00:43.65	17.60	21.33	-47.0	-48.6	16.9	0.00e+00	0	55	0	484442112	56	4412
2026-01-03 05:00:44.64	17.36	21.38	-46.9	-48.5	17.0	0.00e+00	0	56	0	486539264	56	4346
2026-01-03 05:00:45.63	17.12	21.43	-46.9	-48.5	17.0	0.00e+00	0	56	0	488636416	56	4364
2026-01-03 05:00:46.61	16.88	21.48	-47.2	-48.8	16.7	0.00e+00	0	56	0	489684992	56	4527
2026-01-03 05:00:47.61	16.64	21.53	-47.1	-48.8	16.7	0.00e+00	0	55	0	491782144	56	4500
2026-01-03 05:00:48.58	16.40	21.57	-47.0	-48.5	17.0	0.00e+00	0	56	0	493879296	56	4379
2026-01-03 05:00:49.57	16.16	21.62	-46.9	-48.5	17.0	0.00e+00	0	56	0	495976448	56	4359
2026-01-03 05:00:50.56	15.91	21.67	-46.9	-48.5	17.0	0.00e+00	0	56	0	498073600	56	4359
2026-01-03 05:00:51.55	15.67	21.72	-47.0	-48.7	16.8	0.00e+00	0	56	0	499122176	56	4458
2026-01-03 05:00:52.54	15.42	21.76	-47.3	-48.9	16.5	0.00e+00	0	56	0	501219328	56	4593
2026-01-03 05:00:53.52	15.18	21.81	-47.4	-49.1	16.4	0.00e+00	0	56	0	503316480	56	4686
2026-01-03 05:00:54.51	14.93	21.85	-47.6	-49.5	16.1	0.00e+00	0	56	0	505413632	57	4618
2026-01-03 05:00:55.51	14.68	21.90	-47.7	-49.6	15.9	0.00e+00	0	56	0	506462208	57	4682
2026-01-03 05:00:56.49	14.43	21.94	-47.5	-49.3	16.2	0.00e+00	0	56	0	508559360	57	4518
2026-01-03 05:00:57.48	14.18	21.99	-47.7	-49.6	15.9	0.00e+00	0	56	0	510656512	57	4689
2026-01-03 05:00:58.47	13.93	22.03	-47.6	-49.5	16.0	0.00e+00	0	56	0	512753664	57	4622
2026-01-03 05:00:59.46	13.68	22.07	-47.7	-49.6	15.9	0.00e+00	0	56	0	513802240	57	4661
2026-01-03 05:01:00.46	13.42	22.12	-47.8	-49.7	15.8	0.00e+00	0	56	0	515899392	57	4751
2026-01-03 05:01:01.45	13.17	22.16	-47.6	-49.5	16.1	0.00e+00	0	56	0	517996544	57	4603
2026-01-03 05:01:02.44	12.92	22.20	-47.4	-49.1	16.3	0.00e+00	0	56	0	520093696	57	4431
2026-01-03 05:01:03.43	12.67	22.24	-47.2	-48.8	16.7	0.00e+00	0	56	0	522190848	57	4285
2026-01-03 05:01:04.42	12.41	22.28	-47.0	-48.6	16.9	0.00e+00	0	56	0	523239424	57	4166
2026-01-03 05:01:05.41	12.16	22.32	-47.1	-48.7	16.8	0.00e+00	0	56	0	525336576	57	4217
2026-01-03 05:01:06.40	11.90	22.36	-47.4	-49.1	16.4	0.00e+00	0	56	0	527433728	57	4425
2026-01-03 05:01:07.39	11.64	22.40	-47.0	-48.7	16.8	0.00e+00	0	56	0	529530880	57	4198
2026-01-03 05:01:08.39	11.38	22.43	-46.8	-48.4	17.1	0.00e+00	0	56	0	530579456	56	4302
2026-01-03 05:01:09.37	11.13	22.47	-46.8	-48.4	17.1	0.00e+00	0	56	0	532676608	56	4313
2026-01-03 05:01:10.36	10.87	22.51	-46.9	-48.4	17.0	0.00e+00	0	56	0	534773760	56	4336
2026-01-03 05:01:11.35	10.61	22.54	-47.2	-48.9	16.6	0.00e+00	0	56	0	536870912	56	4551
2026-01-03 05:01:12.33	10.35	22.58	-47.3	-49.0	16.4	0.00e+00	0	56	0	537919488	56	4612
2026-01-03 05:01:13.33	10.09	22.62	-47.7	-49.5	15.8	0.00e+00	0	56	0	540016640	57	4642
2026-01-03 05:01:14.31	9.83	22.65	-47.9	-49.9	15.4	0.00e+00	0	56	0	542113792	57	4829
2026-01-03 05:01:15.31	9.57	22.68	-48.1	-50.2	15.1	0.00e+00	0	56	0	544210944	57	5004
2026-01-03 05:01:16.30	9.31	22.72	-48.3	-50.7	14.6	0.00e+00	0	56	0	545259520	58	4997
2026-01-03 05:01:17.29	9.04	22.75	-48.4	-50.8	14.4	0.00e+00	0	56	0	547356672	58	5051
2026-01-03 05:01:18.28	8.78	22.78	-48.9	-51.7	13.5	3.80e-06	0	56	0	549453824	59	5335
2026-01-03 05:01:19.27	8.52	22.81	-48.9	-51.8	13.2	2.67e-05	0	56	0	551550976	59	5375
2026-01-03 05:01:20.26	8.25	22.84	-49.1	-52.3	12.6	5.03e-05	0	56	0	553648128	60	5380
2026-01-03 05:01:21.24	7.99	22.87	-49.3	-52.6	12.1	1.32e-04	0	56	0	554696704	60	5566
2026-01-03 05:01:22.23	7.73	22.90	-49.4	-53.1	11.6	3.81e-04	0	56	0	556793856	60	5899
2026-01-03 05:01:23.21	7.46	22.93	-49.8	-54.2	10.2	3.96e-03	0	56	0	558891008	61	6306
2026-01-03 05:01:24.20	7.20	22.96	-50.0	-55.1	9.1	1.39e-02	0	56	0	560988160	61	6997
2026-01-03 05:01:25.19	6.93	22.99	-50.2	-56.0	8.0	4.45e-02	0	56	0	562036736	62	7328
2026-01-03 05:01:26.17	6.67	23.02	-50.3	-56.6	7.3	9.46e-02	0	56	0	564133888	62	7867
2026-01-03 05:01:27.17	6.40	23.04	-50.3	-57.1	6.7	1.78e-01	0	56	0	566231040	62	8321
2026-01-03 05:01:28.16	6.13	23.07	-50.4	-57.7	6.2	2.57e-01	0	56	0	568328192	62	8866
2026-01-03 05:01:29.15	5.86	23.09	-50.5	-57.8	6.1	2.98e-01	0	56	0	569376768	62	9060
2026-01-03 05:01:30.13	5.59	23.12	-50.3	-57.2	6.7	2.13e-01	0	56	0	571473920	62	8381
2026-01-03 05:01:31.13	5.32	23.14	-50.0	-55.8	8.0	8.94e-02	0	56	0	573571072	62	7162
2026-01-03 05:01:32.12	5.05	23.16	-49.8	-55.0	8.8	4.16e-02	0	56	0	575668224	62	6534
2026-01-03 05:01:33.12	4.78	23.19	-50.0	-55.5	8.4	3.18e-02	0	56	0	577765376	62	6912
2026-01-03 05:01:34.11	4.51	23.21	-50.3	-57.0	7.0	1.21e-01	0	56	0	578813952	62	8185
2026-01-03 05:01:35.10	4.24	23.23	-50.5	-57.4	6.7	1.87e-01	0	56	0	580911104	62	8585
2026-01-03 05:01:36.09	3.97	23.25	-50.6	-57.5	6.6	2.11e-01	0	56	0	583008256	63	8267
2026-01-03 05:01:37.07	3.70	23.27	-50.7	-58.0	6.3	2.27e-01	0	56	0	585105408	63	8734
2026-01-03 05:01:38.07	3.42	23.29	-50.6	-56.8	7.4	1.44e-01	0	56	0	586153984	63	7556
2026-01-03 05:01:39.06	3.15	23.31	-50.5	-55.7	8.8	5.32e-02	0	56	0	588251136	63	6660
2026-01-03 05:01:40.03	2.88	23.33	-50.1	-54.6	10.1	1.44e-02	0	56	0	590348288	63	5857
2026-01-03 05:01:41.02	2.61	23.34	-50.0	-53.8	11.2	3.18e-03	0	56	0	592445440	63	5348
2026-01-03 05:01:42.01	2.34	23.36	-50.0	-53.5	11.7	5.97e-04	0	56	0	594542592	62	5528
2026-01-03 05:01:43.00	2.06	23.37	-50.0	-53.5	11.9	3.91e-04	0	56	0	595591168	62	5507
2026-01-03 05:01:44.00	1.79	23.39	-49.6	-52.8	12.6	2.05e-04	0	56	0	597688320	62	5075
2026-01-03 05:01:44.98	1.52	23.40	-49.1	-51.8	13.6	1.60e-05	0	56	0	599785472	61	4785
2026-01-03 05:01:45.97	1.24	23.42	-48.9	-51.5	14.0	2.20e-06	0	56	0	601882624	60	4877
2026-01-03 05:01:46.96	0.97	23.43	-48.8	-51.4	14.1	1.50e-06	0	56	0	602931200	60	4837
2026-01-03 05:01:47.95	0.69	23.44	-48.8	-51.4	14.1	3.00e-06	0	56	0	605028352	60	4844
2026-01-03 05:01:48.93	0.42	23.45	-49.1	-52.0	13.5	9.10e-06	0	56	0	607125504	60	5185
2026-01-03 05:01:49.91	0.15	23.46	-49.2	-52.1	13.5	1.67e-05	0	56	0	609222656	60	5220
2026-01-03 05:01:50.90	359.87	23.47	-49.1	-52.0	13.5	1.60e-05	0	56	0	610271232	60	5178
2026-01-03 05:01:51.89	359.60	23.48	-49.0	-51.8	13.7	8.30e-06	0	56	0	612368384	60	5063
2026-01-03 05:01:52.89	359.32	23.49	-49.0	-51.8	13.6	1.14e-05	0	56	0	614465536	60	5079
2026-01-03 05:01:53.88	359.04	23.50	-49.2	-52.0	13.5	3.80e-06	0	56	0	616562688	60	5189
2026-01-03 05:01:54.87	358.77	23.51	-49.1	-52.1	13.4	3.00e-06	0	56	0	618659840	60	5224
2026-01-03 05:01:55.86	358.49	23.51	-49.3	-52.3	13.1	1.14e-05	0	56	0	619708416	60	5391
2026-01-03 05:01:56.84	358.22	23.52	-49.5	-52.5	13.0	3.66e-05	0	56	0	621805568	60	5484
2026-01-03 05:01:57.83	357.94	23.52	-49.1	-51.9	13.5	2.59e-05	0	56	0	623902720	60	5137
2026-01-03 05:01:58.82	357.67	23.53	-48.6	-51.1	14.4	2.20e-06	0	56	0	625999872	60	4690
2026-01-03 05:01:59.81	357.39	23.53	-48.1	-50.2	15.3	0.00e+00	0	56	0	627048448	59	4474
2026-01-03 05:02:00.81	357.11	23.54	-47.8	-49.7	15.8	0.00e+00	0	56	0	629145600	58	4460
2026-01-03 05:02:01.79	356.84	23.54	-47.9	-49.8	15.7	0.00e+00	0	56	0	631242752	58	4543
2026-01-03 05:02:02.78	356.56	23.54	-48.0	-50.1	15.4	0.00e+00	0	56	0	633339904	58	4660
2026-01-03 05:02:03.77	356.28	23.54	-48.2	-50.5	15.1	0.00e+00	0	56	0	634388480	58	4872
2026-01-03 05:02:04.76	356.01	23.54	-48.5	-50.8	14.7	0.00e+00	0	56	0	636485632	58	5085
2026-01-03 05:02:05.75	355.73	23.54	-48.5	-50.9	14.5	7.00e-07	0	56	0	638582784	59	4870
2026-01-03 05:02:06.73	355.46	23.54	-48.3	-50.7	14.8	0.00e+00	0	56	0	640679936	59	4708
2026-01-03 05:02:07.73	355.18	23.54	-48.3	-50.6	14.9	0.00e+00	0	56	0	641728512	59	4672
2026-01-03 05:02:08.72	354.90	23.53	-48.0	-50.2	15.3	0.00e+00	0	56	0	643825664	59	4469
2026-01-03 05:02:09.70	354.63	23.53	-47.9	-50.0	15.5	0.00e+00	0	56	0	645922816	58	4628
2026-01-03 05:02:10.70	354.35	23.52	-47.9	-49.9	15.6	0.00e+00	0	56	0	648019968	58	4551
2026-01-03 05:02:11.68	354.07	23.52	-48.0	-50.2	15.3	0.00e+00	0	56	0	650117120	58	4715
2026-01-03 05:02:12.67	353.80	23.51	-48.1	-50.3	15.2	0.00e+00	0	56	0	651165696	58	4802
2026-01-03 05:02:13.67	353.52	23.51	-48.2	-50.4	15.1	0.00e+00	0	56	0	653262848	58	4837
2026-01-03 05:02:14.66	353.24	23.50	-48.1	-50.3	15.2	0.00e+00	0	56	0	655360000	58	4776
2026-01-03 05:02:15.64	352.97	23.49	-47.7	-49.7	15.8	0.00e+00	0	56	0	657457152	58	4451
2026-01-03 05:02:16.63	352.69	23.48	-47.7	-49.6	15.9	0.00e+00	0	56	0	658505728	58	4418
2026-01-03 05:02:17.62	352.42	23.47	-47.5	-49.3	16.1	0.00e+00	0	56	0	660602880	58	4288
2026-01-03 05:02:18.61	352.14	23.46	-47.4	-49.2	16.2	0.00e+00	0	56	0	662700032	57	4460
2026-01-03 05:02:19.60	351.87	23.45	-47.3	-49.0	16.5	0.00e+00	0	56	0	664797184	57	4357
2026-01-03 05:02:20.58	351.60	23.44	-47.2	-48.9	16.6	0.00e+00	0	56	0	665845760	57	4297
2026-01-03 05:02:21.57	351.32	23.43	-47.2	-48.9	16.5	0.00e+00	0	56	0	667942912	57	4339
2026-01-03 05:02:22.55	351.05	23.42	-47.7	-49.7	15.8	0.00e+00	0	56	0	670040064	57	4723
2026-01-03 05:02:23.54	350.78	23.40	-47.9	-50.0	15.5	0.00e+00	0	56	0	672137216	57	4875
2026-01-03 05:02:24.52	350.51	23.39	-47.9	-50.0	15.5	0.00e+00	0	56	0	674234368	57	4873
2026-01-03 05:02:25.51	350.23	23.37	-47.6	-49.5	16.0	0.00e+00	0	56	0	675282944	57	4613
2026-01-03 05:02:26.49	349.96	23.36	-47.5	-49.3	16.2	0.00e+00	0	56	0	677380096	57	4531
2026-01-03 05:02:27.48	349.69	23.34	-47.2	-48.8	16.6	0.00e+00	0	56	0	679477248	57	4284
2026-01-03 05:02:28.46	349.42	23.33	-47.0	-48.6	16.9	0.00e+00	0	56	0	681574400	57	4147
2026-01-03 05:02:29.44	349.15	23.31	-47.0	-48.6	16.8	0.00e+00	0	56	0	682622976	57	4185
2026-01-03 05:02:30.43	348.88	23.29	-47.0	-48.6	16.8	0.00e+00	0	56	0	684720128	57	4170
2026-01-03 05:02:31.42	348.60	23.27	-47.2	-48.9	16.6	0.00e+00	0	56	0	686817280	57	4310
2026-01-03 05:02:32.40	348.33	23.25	-47.1	-48.8	16.7	0.00e+00	0	56	0	688914432	57	4264
2026-01-03 05:02:33.39	348.06	23.23	-47.0	-48.6	16.8	0.00e+00	0	56	0	689963008	57	4163
2026-01-03 05:02:34.38	347.79	23.21	-46.7	-48.1	17.3	0.00e+00	0	56	0	692060160	56	4189
2026-01-03 05:02:35.38	347.52	23.19	-46.8	-48.4	17.1	0.00e+00	0	56	0	694157312	56	4308
2026-01-03 05:02:36.36	347.25	23.16	-46.7	-48.3	17.2	0.00e+00	0	56	0	696254464	56	4245
2026-01-03 05:02:37.35	346.98	23.14	-46.6	-48.0	17.4	0.00e+00	0	57	0	697303040	56	4135
2026-01-03 05:02:38.34	346.71	23.12	-46.7	-48.1	17.2	0.00e+00	0	56	0	699400192	56	4188
2026-01-03 05:02:39.33	346.44	23.09	-46.8	-48.3	17.1	0.00e+00	0	57	0	701497344	56	4284
2026-01-03 05:02:40.32	346.18	23.07	-46.8	-48.3	17.1	0.00e+00	0	57	0	703594496	56	4274
2026-01-03 05:02:41.31	345.91	23.04	-46.9	-48.5	17.0	0.00e+00	0	57	0	705691648	56	4347
2026-01-03 05:02:42.30	345.64	23.02	-47.2	-48.8	16.7	0.00e+00	0	57	0	706740224	56	4517
2026-01-03 05:02:43.29	345.37	22.99	-47.3	-49.0	16.5	0.00e+00	0	56	0	708837376	56	4599
2026-01-03 05:02:44.29	345.10	22.96	-47.4	-49.1	16.4	0.00e+00	0	57	0	710934528	56	4686
2026-01-03 05:02:45.28	344.84	22.93	-47.4	-49.1	16.3	0.00e+00	0	57	0	713031680	56	4702
2026-01-03 05:02:46.26	344.57	22.90	-47.6	-49.4	16.1	0.00e+00	0	57	0	714080256	56	4841
2026-01-03 05:02:47.25	344.31	22.87	-47.7	-49.6	15.9	0.00e+00	0	56	0	716177408	57	4656
2026-01-03 05:02:48.24	344.04	22.84	-47.3	-49.0	16.5	0.00e+00	0	57	0	718274560	57	4345
2026-01-03 05:02:49.22	343.78	22.81	-46.9	-48.5	17.0	0.00e+00	0	57	0	720371712	57	4100
2026-01-03 05:02:50.21	343.52	22.78	-46.8	-48.3	17.1	0.00e+00	0	56	0	721420288	56	4281
2026-01-03 05:02:51.21	343.25	22.75	-46.8	-48.2	17.1	0.00e+00	0	57	0	723517440	56	4239
2026-01-03 05:02:52.20	342.99	22.72	-47.0	-48.6	16.8	0.00e+00	0	56	0	725614592	56	4424
2026-01-03 05:02:53.19	342.73	22.68	-47.4	-49.1	16.3	0.00e+00	0	57	0	727711744	56	4691
2026-01-03 05:02:54.17	342.47	22.65	-47.5	-49.2	16.2	0.00e+00	0	57	0	729808896	56	4750
2026-01-03 05:02:55.16	342.21	22.62	-47.6	-49.5	16.0	0.00e+00	0	57	0	730857472	57	4611
2026-01-03 05:02:56.15	341.95	22.58	-47.5	-49.3	16.2	0.00e+00	0	57	0	732954624	57	4494
2026-01-03 05:02:57.15	341.69	22.54	-47.5	-49.3	16.1	0.00e+00	0	57	0	735051776	57	4539
2026-01-03 05:02:58.14	341.43	22.51	-47.6	-49.4	16.0	0.00e+00	0	57	0	737148928	57	4568
2026-01-03 05:02:59.12	341.17	22.47	-47.3	-49.0	16.4	0.00e+00	0	57	0	738197504	57	4380
2026-01-03 05:03:00.11	340.91	22.43	-47.4	-49.2	16.3	0.00e+00	0	57	0	740294656	57	4445
2026-01-03 05:03:01.11	340.65	22.40	-47.4	-49.1	16.3	0.00e+00	0	57	0	742391808	57	4441
2026-01-03 05:03:02.09	340.40	22.36	-47.3	-49.1	16.4	0.00e+00	0	57	0	744488960	57	4395
2026-01-03 05:03:03.08	340.14	22.32	-47.4	-49.2	16.2	0.00e+00	0	57	0	745537536	57	4476
2026-01-03 05:03:04.08	339.89	22.28	-47.7	-49.6	15.9	0.00e+00	0	57	0	747634688	57	4671
2026-01-03 05:03:05.06	339.63	22.24	-47.7	-49.7	15.8	0.00e+00	0	57	0	749731840	57	4707
2026-01-03 05:03:06.05	339.38	22.20	-48.0	-50.1	15.3	0.00e+00	0	57	0	751828992	57	4941
2026-01-03 05:03:07.04	339.13	22.16	-47.9	-50.0	15.4	0.00e+00	0	57	0	753926144	57	4891
2026-01-03 05:03:08.03	338.87	22.12	-48.3	-50.5	14.8	0.00e+00	0	57	0	754974720	58	4923
2026-01-03 05:03:09.02	338.62	22.07	-48.1	-50.2	15.1	0.00e+00	0	57	0	757071872	58	4758
2026-01-03 05:03:10.01	338.37	22.03	-48.2	-50.5	14.9	0.00e+00	0	57	0	759169024	58	4890
2026-01-03 05:03:11.00	338.12	21.99	-48.4	-50.7	14.6	0.00e+00	0	57	0	761266176	58	5023
2026-01-03 05:03:11.99	337.87	21.94	-48.5	-51.0	14.3	1.50e-06	0	57	0	762314752	58	5180
2026-01-03 05:03:12.98	337.62	21.90	-48.8	-51.4	13.9	3.00e-06	0	57	0	764411904	59	5113
2026-01-03 05:03:13.96	337.38	21.86	-48.7	-51.3	13.8	3.80e-06	0	57	0	766509056	59	5100
2026-01-03 05:03:14.96	337.13	21.81	-49.0	-51.8	13.3	1.22e-05	0	57	0	768606208	59	5369
2026-01-03 05:03:15.95	336.88	21.76	-48.8	-51.6	13.4	8.30e-06	0	57	0	769654784	59	5239
2026-01-03 05:03:16.94	336.63	21.72	-49.0	-52.1	12.9	2.21e-05	0	57	0	771751936	60	5252
2026-01-03 05:03:17.92	336.39	21.67	-49.1	-52.2	12.8	5.03e-05	0	57	0	773849088	60	5300
2026-01-03 05:03:18.91	336.15	21.62	-49.2	-52.4	12.5	1.06e-04	0	57	0	775946240	60	5448
2026-01-03 05:03:19.91	335.90	21.58	-49.3	-52.6	12.4	1.69e-04	0	57	0	778043392	60	5540
2026-01-03 05:03:20.90	335.66	21.53	-49.4	-52.8	12.1	1.83e-04	0	57	0	779091968	60	5702
2026-01-03 05:03:21.89	335.41	21.48	-49.4	-52.9	12.1	2.77e-04	0	57	0	781189120	60	5723
2026-01-03 05:03:22.89	335.17	21.43	-49.3	-52.7	12.2	1.46e-04	0	57	0	783286272	60	5640
2026-01-03 05:03:23.88	334.93	21.38	-49.3	-52.6	12.3	1.62e-04	0	57	0	785383424	60	5577
2026-01-03 05:03:24.87	334.69	21.33	-49.4	-52.8	12.1	2.44e-04	0	57	0	786432000	60	5696
2026-01-03 05:03:25.85	334.45	21.28	-49.4	-52.9	12.0	3.07e-04	0	57	0	788529152	60	5733
2026-01-03 05:03:26.84	334.21	21.23	-49.7	-53.4	11.4	6.09e-04	0	57	0	790626304	61	5756
2026-01-03 05:03:27.83	333.98	21.18	-49.5	-53.1	11.8	6.88e-04	0	57	0	792723456	61	5556
2026-01-03 05:03:28.81	333.74	21.13	-49.1	-52.1	13.0	1.22e-04	0	57	0	794820608	61	4957
2026-01-03 05:03:29.79	333.51	21.07	-48.5	-51.1	14.2	1.75e-05	0	57	0	795869184	60	4672
2026-01-03 05:03:30.78	333.27	21.02	-48.4	-50.7	14.7	0.00e+00	0	57	0	797966336	59	4719
2026-01-03 05:03:31.76	333.04	20.97	-48.4	-50.7	14.9	0.00e+00	0	57	0	800063488	59	4706
2026-01-03 05:03:32.75	332.81	20.92	-48.6	-50.9	14.6	0.00e+00	0	57	0	801112064	59	4865
2026-01-03 05:03:33.74	332.57	20.86	-48.9	-51.5	14.1	0.00e+00	0	57	0	803209216	59	5166
2026-01-03 05:03:34.73	332.34	20.81	-48.9	-51.6	13.9	2.20e-06	0	57	0	805306368	60	4951
2026-01-03 05:03:35.72	332.11	20.75	-48.5	-50.9	14.7	3.80e-06	0	57	0	807403520	60	4548
2026-01-03 05:03:36.71	331.88	20.70	-48.6	-51.1	14.4	7.00e-07	0	57	0	809500672	60	4665
2026-01-03 05:03:37.70	331.65	20.64	-48.6	-51.0	14.5	7.00e-07	0	57	0	810549248	60	4621
2026-01-03 05:03:38.69	331.42	20.59	-48.9	-51.4	14.1	7.00e-07	0	57	0	812646400	60	4865
2026-01-03 05:03:39.68	331.19	20.53	-48.7	-51.2	14.3	1.50e-06	0	57	0	814743552	60	4730
2026-01-03 05:03:40.67	330.97	20.48	-48.8	-51.4	14.1	0.00e+00	0	57	0	816840704	60	4856
2026-01-03 05:03:41.67	330.74	20.42	-49.1	-51.9	13.6	9.10e-06	0	57	0	817889280	60	5148
2026-01-03 05:03:42.66	330.51	20.36	-49.5	-52.7	12.9	1.75e-05	0	57	0	819986432	60	5599
2026-01-03 05:03:43.65	330.29	20.31	-49.7	-53.0	12.5	8.54e-05	0	57	0	822083584	61	5492
2026-01-03 05:03:44.64	330.07	20.25	-50.0	-53.8	11.7	1.79e-04	0	57	0	824180736	61	5993
2026-01-03 05:03:45.63	329.84	20.19	-49.9	-53.5	12.0	4.20e-04	0	57	0	826277888	61	5816
2026-01-03 05:03:46.63	329.62	20.13	-49.6	-52.8	12.7	1.42e-04	0	57	0	827326464	61	5386
2026-01-03 05:03:47.61	329.40	20.07	-49.3	-52.3	13.2	5.11e-05	0	57	0	829423616	61	5058
2026-01-03 05:03:48.60	329.18	20.01	-49.0	-51.8	13.7	1.67e-05	0	57	0	831520768	61	4789
2026-01-03 05:03:49.58	328.96	19.96	-48.9	-51.5	14.0	3.00e-06	0	57	0	833617920	60	4908
2026-01-03 05:03:50.57	328.74	19.90	-48.8	-51.4	14.1	4.50e-06	0	57	0	834666496	60	4862
2026-01-03 05:03:51.56	328.53	19.84	-48.8	-51.5	14.2	0.00e+00	0	57	0	836763648	60	4889
2026-01-03 05:03:52.56	328.31	19.78	-48.7	-51.1	14.5	7.00e-07	0	57	0	838860800	60	4685
2026-01-03 05:03:53.55	328.09	19.72	-48.5	-50.9	14.6	7.00e-07	0	57	0	840957952	60	4569
2026-01-03 05:03:54.54	327.88	19.65	-48.3	-50.6	15.0	0.00e+00	0	57	0	842006528	59	4656
2026-01-03 05:03:55.53	327.66	19.59	-48.0	-50.0	15.5	0.00e+00	0	57	0	844103680	59	4374
2026-01-03 05:03:56.52	327.45	19.53	-47.8	-49.8	15.7	0.00e+00	0	57	0	846200832	58	4543
2026-01-03 05:03:57.51	327.24	19.47	-47.6	-49.6	15.9	0.00e+00	0	57	0	848297984	58	4407
2026-01-03 05:03:58.50	327.02	19.41	-47.7	-49.6	15.9	0.00e+00	0	57	0	850395136	58	4438
2026-01-03 05:03:59.50	326.81	19.35	-47.5	-49.3	16.1	0.00e+00	0	57	0	851443712	58	4263
2026-01-03 05:04:00.49	326.60	19.28	-47.4	-49.2	16.3	0.00e+00	0	57	0	853540864	57	4458
2026-01-03 05:04:01.48	326.39	19.22	-47.5	-49.4	16.1	0.00e+00	0	57	0	855638016	57	4552
2026-01-03 05:04:02.47	326.18	19.16	-47.4	-49.2	16.3	0.00e+00	0	57	0	857735168	57	4475
2026-01-03 05:04:03.46	325.98	19.10	-47.1	-48.7	16.7	0.00e+00	0	57	0	858783744	57	4234
2026-01-03 05:04:04.45	325.77	19.03	-47.0	-48.6	16.8	0.00e+00	0	57	0	860880896	56	4421
2026-01-03 05:04:05.44	325.57	18.97	-46.8	-48.4	17.0	0.00e+00	0	57	0	862978048	56	4320
2026-01-03 05:04:06.43	325.36	18.91	-47.0	-48.6	16.8	0.00e+00	0	57	0	865075200	56	4437
2026-01-03 05:04:07.42	325.16	18.84	-47.2	-48.9	16.5	0.00e+00	0	57	0	867172352	56	4588
2026-01-03 05:04:08.41	324.95	18.78	-47.3	-49.2	16.3	0.00e+00	0	57	0	868220928	56	4713
2026-01-03 05:04:09.40	324.75	18.71	-47.9	-49.9	15.6	0.00e+00	0	57	0	870318080	57	4828
2026-01-03 05:04:10.39	324.55	18.65	-48.0	-50.1	15.3	0.00e+00	0	57	0	872415232	57	4976
2026-01-03 05:04:11.38	324.35	18.59	-48.4	-50.8	14.8	0.00e+00	0	57	0	874512384	58	5049
2026-01-03 05:04:12.37	324.15	18.52	-48.5	-51.0	14.5	0.00e+00	0	57	0	875560960	59	4888
2026-01-03 05:04:13.36	323.95	18.46	-48.7	-51.3	14.2	0.00e+00	0	57	0	877658112	59	5051
2026-01-03 05:04:14.34	323.76	18.39	-48.6	-51.1	14.4	7.00e-07	0	57	0	879755264	59	4956
2026-01-03 05:04:15.33	323.56	18.33	-48.5	-51.0	14.5	0.00e+00	0	57	0	881852416	59	4913
2026-01-03 05:04:16.31	323.37	18.26	-48.5	-50.9	14.6	1.50e-06	0	57	0	882900992	59	4825
2026-01-03 05:04:17.30	323.17	18.19	-48.3	-50.6	14.9	7.00e-07	0	57	0	884998144	59	4670
2026-01-03 05:04:18.29	322.98	18.13	-48.1	-50.3	15.2	0.00e+00	0	57	0	887095296	59	4510
2026-01-03 05:04:19.28	322.78	18.06	-48.1	-50.2	15.3	0.00e+00	0	57	0	889192448	59	4470
2026-01-03 05:04:20.27	322.59	18.00	-48.1	-50.2	15.3	0.00e+00	0	57	0	891289600	59	4449
2026-01-03 05:04:21.26	322.40	17.93	-47.8	-49.8	15.5	0.00e+00	0	57	0	892338176	58	4518
2026-01-03 05:04:22.25	322.21	17.86	-47.8	-49.8	15.7	0.00e+00	0	57	0	894435328	58	4496
2026-01-03 05:04:23.24	322.02	17.80	-47.7	-49.6	15.8	0.00e+00	0	57	0	896532480	58	4438
2026-01-03 05:04:24.23	321.83	17.73	-47.8	-49.8	15.7	0.00e+00	0	57	0	898629632	58	4499
2026-01-03 05:04:25.22	321.64	17.66	-47.8	-49.8	15.7	0.00e+00	0	57	0	899678208	58	4520
2026-01-03 05:04:26.21	321.45	17.60	-48.1	-50.2	15.4	0.00e+00	0	57	0	901775360	58	4721
2026-01-03 05:04:27.20	321.26	17.53	-48.0	-50.1	15.4	0.00e+00	0	57	0	903872512	58	4667
2026-01-03 05:04:28.18	321.08	17.46	-48.4	-50.7	14.9	0.00e+00	0	57	0	905969664	58	4986
2026-01-03 05:04:29.17	320.90	17.39	-48.5	-50.8	14.7	0.00e+00	0	57	0	907018240	58	5072
2026-01-03 05:04:30.16	320.71	17.33	-48.8	-51.4	14.1	1.50e-06	0	57	0	909115392	59	5145
2026-01-03 05:04:31.15	320.53	17.26	-48.8	-51.3	14.2	3.00e-06	0	57	0	911212544	59	5097
2026-01-03 05:04:32.13	320.35	17.19	-49.0	-51.6	13.8	6.80e-06	0	57	0	913309696	60	4976
2026-01-03 05:04:33.12	320.17	17.12	-48.7	-51.2	14.2	3.80e-06	0	57	0	914358272	60	4751
2026-01-03 05:04:34.10	319.99	17.06	-48.4	-50.8	14.6	2.20e-06	0	57	0	916455424	60	4534
2026-01-03 05:04:35.09	319.81	16.99	-48.3	-50.6	14.9	0.00e+00	0	57	0	918552576	59	4666
2026-01-03 05:04:36.08	319.63	16.92	-48.3	-50.6	14.9	0.00e+00	0	57	0	920649728	59	4679
2026-01-03 05:04:37.07	319.45	16.85	-48.4	-50.7	14.8	0.00e+00	0	57	0	922746880	59	4713
2026-01-03 05:04:38.06	319.27	16.78	-48.6	-51.0	14.5	7.00e-07	0	57	0	923795456	59	4891
2026-01-03 05:04:39.05	319.09	16.71	-48.6	-51.1	14.4	7.00e-07	0	57	0	925892608	59	4946
2026-01-03 05:04:40.04	318.92	16.65	-48.8	-51.3	14.2	0.00e+00	0	57	0	927989760	59	5082
2026-01-03 05:04:41.04	318.74	16.58	-48.6	-51.1	14.4	0.00e+00	0	57	0	930086912	59	4936
2026-01-03 05:04:42.02	318.57	16.51	-48.4	-50.7	14.8	1.50e-06	0	57	0	931135488	59	4748
2026-01-03 05:04:43.02	318.39	16.44	-48.3	-50.6	14.8	0.00e+00	0	57	0	933232640	59	4702
2026-01-03 05:04:44.01	318.22	16.37	-48.3	-50.6	14.9	0.00e+00	0	57	0	935329792	59	4686
2026-01-03 05:04:45.00	318.05	16.30	-48.4	-50.7	14.8	0.00e+00	0	57	0	937426944	59	4734
2026-01-03 05:04:45.98	317.88	16.23	-48.1	-50.3	15.1	0.00e+00	0	57	0	938475520	59	4541
2026-01-03 05:04:46.97	317.71	16.16	-48.1	-50.3	15.2	0.00e+00	0	57	0	940572672	59	4500
2026-01-03 05:04:47.96	317.54	16.09	-48.0	-50.1	15.3	0.00e+00	0	57	0	942669824	59	4423
2026-01-03 05:04:48.95	317.37	16.02	-47.8	-49.8	15.6	0.00e+00	0	57	0	944766976	58	4534
2026-01-03 05:04:49.94	317.20	15.96	-47.7	-49.6	15.9	0.00e+00	0	57	0	946864128	58	4405
2026-01-03 05:04:50.93	317.04	15.89	-47.6	-49.5	16.0	0.00e+00	0	57	0	947912704	58	4365
2026-01-03 05:04:51.93	316.87	15.82	-47.9	-49.9	15.6	0.00e+00	0	57	0	950009856	58	4584
2026-01-03 05:04:52.92	316.70	15.75	-48.1	-50.1	15.3	0.00e+00	0	57	0	952107008	58	4695
2026-01-03 05:04:53.91	316.54	15.68	-48.0	-50.0	15.4	0.00e+00	0	57	0	954204160	58	4634
2026-01-03 05:04:54.90	316.37	15.61	-47.8	-49.7	15.7	0.00e+00	0	57	0	955252736	58	4485
2026-01-03 05:04:55.88	316.21	15.54	-47.6	-49.5	16.0	0.00e+00	0	57	0	957349888	58	4359
2026-01-03 05:04:56.88	316.05	15.47	-47.4	-49.2	16.3	0.00e+00	0	57	0	959447040	58	4208
2026-01-03 05:04:57.87	315.89	15.40	-47.3	-49.1	16.4	0.00e+00	0	57	0	961544192	57	4403
2026-01-03 05:04:58.87	315.72	15.33	-47.5	-49.2	16.2	0.00e+00	0	57	0	963641344	57	4473
2026-01-03 05:04:59.85	315.57	15.26	-47.1	-48.8	16.6	0.00e+00	0	57	0	964689920	57	4264
2026-01-03 05:05:00.84	315.41	15.19	-47.1	-48.7	16.7	0.00e+00	0	57	0	966787072	57	4220
2026-01-03 05:05:01.82	315.25	15.12	-47.5	-49.2	16.2	0.00e+00	0	57	0	968884224	57	4481
2026-01-03 05:05:02.81	315.09	15.05	-47.4	-49.2	16.3	0.00e+00	0	57	0	970981376	57	4451
2026-01-03 05:05:03.80	314.93	14.98	-47.6	-49.4	16.0	0.00e+00	0	57	0	972029952	57	4593
2026-01-03 05:05:04.79	314.78	14.91	-47.7	-49.5	16.0	0.00e+00	0	57	0	974127104	57	4632
2026-01-03 05:05:05.78	314.62	14.84	-47.8	-49.6	15.8	0.00e+00	0	57	0	976224256	57	4701
2026-01-03 05:05:06.77	314.47	14.77	-48.0	-50.0	15.5	0.00e+00	0	57	0	978321408	57	4896
2026-01-03 05:05:07.76	314.31	14.70	-48.1	-50.1	15.4	0.00e+00	0	57	0	979369984	58	4678
2026-01-03 05:05:08.75	314.16	14.63	-48.0	-50.1	15.4	7.00e-07	0	57	0	981467136	58	4655
2026-01-03 05:05:09.74	314.01	14.56	-48.1	-50.1	15.3	0.00e+00	0	57	0	983564288	58	4700
2026-01-03 05:05:10.73	313.85	14.49	-48.1	-50.1	15.3	0.00e+00	0	57	0	985661440	58	4702
2026-01-03 05:05:11.72	313.70	14.42	-47.9	-49.8	15.6	0.00e+00	0	57	0	987758592	58	4531
2026-01-03 05:05:12.71	313.55	14.35	-47.8	-49.7	15.8	0.00e+00	0	57	0	988807168	58	4463
2026-01-03 05:05:13.69	313.40	14.28	-47.6	-49.5	16.0	0.00e+00	0	57	0	990904320	58	4348
2026-01-03 05:05:14.69	313.25	14.21	-47.7	-49.6	15.8	0.00e+00	0	57	0	993001472	58	4439
2026-01-03 05:05:15.68	313.11	14.14	-47.8	-49.6	15.8	0.00e+00	0	57	0	995098624	58	4428
2026-01-03 05:05:16.68	312.96	14.07	-47.7	-49.5	15.9	0.00e+00	0	57	0	996147200	58	4356
2026-01-03 05:05:17.67	312.81	14.00	-47.5	-49.3	16.2	0.00e+00	0	57	0	998244352	58	4265
2026-01-03 05:05:18.65	312.66	13.93	-47.5	-49.3	16.1	0.00e+00	0	57	0	1000341504	58	4283
2026-01-03 05:05:19.64	312.52	13.86	-47.7	-49.6	15.9	0.00e+00	0	57	0	1002438656	58	4412
2026-01-03 05:05:20.64	312.37	13.79	-47.9	-49.9	15.6	0.00e+00	0	57	0	1003487232	58	4566
2026-01-03 05:05:21.63	312.23	13.72	-47.9	-50.0	15.4	0.00e+00	0	57	0	1005584384	58	4617
2026-01-03 05:05:22.61	312.09	13.65	-48.0	-50.0	15.4	0.00e+00	0	57	0	1007681536	58	4648
2026-01-03 05:05:23.60	311.94	13.58	-48.4	-50.7	14.8	0.00e+00	0	57	0	1009778688	58	4993
2026-01-03 05:05:24.59	311.80	13.51	-48.4	-50.7	14.7	7.00e-07	0	57	0	1010827264	59	4737
2026-01-03 05:05:25.58	311.66	13.44	-48.2	-50.3	15.1	0.00e+00	0	57	0	1012924416	59	4539
2026-01-03 05:05:26.58	311.52	13.37	-47.9	-50.0	15.4	0.00e+00	0	57	0	1015021568	59	4365
2026-01-03 05:05:27.56	311.38	13.30	-47.9	-50.0	15.4	0.00e+00	0	57	0	1017118720	58	4612
2026-01-03 05:05:28.55	311.24	13.23	-47.9	-49.9	15.5	0.00e+00	0	57	0	1019215872	58	4569
2026-01-03 05:05:29.53	311.10	13.16	-47.8	-49.8	15.7	0.00e+00	0	57	0	1020264448	58	4494
2026-01-03 05:05:30.51	310.97	13.10	-47.8	-49.8	15.6	0.00e+00	0	57	0	1022361600	58	4523
2026-01-03 05:05:31.51	310.83	13.03	-47.6	-49.5	15.9	0.00e+00	0	57	0	1024458752	58	4384
2026-01-03 05:05:32.50	310.69	12.96	-47.7	-49.6	15.8	0.00e+00	0	57	0	1026555904	58	4403
2026-01-03 05:05:33.49	310.55	12.89	-47.6	-49.4	16.0	0.00e+00	0	57	0	1027604480	58	4334
2026-01-03 05:05:34.48	310.42	12.82	-47.4	-49.2	16.2	0.00e+00	0	57	0	1029701632	57	4466
2026-01-03 05:05:35.47	310.28	12.75	-47.1	-48.7	16.6	0.00e+00	0	57	0	1031798784	57	4241
2026-01-03 05:05:36.46	310.15	12.68	-47.0	-48.7	16.7	0.00e+00	0	57	0	1033895936	56	4447
2026-01-03 05:05:37.45	310.02	12.61	-47.1	-48.7	16.6	0.00e+00	0	57	0	1034944512	56	4482
2026-01-03 05:05:38.45	309.88	12.54	-47.0	-48.7	16.7	0.00e+00	0	57	0	1037041664	56	4446
2026-01-03 05:05:39.44	309.75	12.47	-47.3	-49.1	16.3	0.00e+00	0	57	0	1039138816	56	4667
2026-01-03 05:05:40.43	309.62	12.40	-47.6	-49.6	15.8	0.00e+00	0	57	0	1041235968	57	4653
2026-01-03 05:05:41.42	309.49	12.33	-47.8	-49.9	15.6	0.00e+00	0	57	0	1043333120	57	4817
2026-01-03 05:05:42.41	309.36	12.26	-48.1	-50.2	15.2	0.00e+00	0	57	0	1044381696	58	4728
2026-01-03 05:05:43.39	309.23	12.19	-48.3	-50.5	14.9	0.00e+00	0	57	0	1046478848	58	4897
2026-01-03 05:05:44.38	309.10	12.12	-48.5	-50.8	14.6	0.00e+00	0	57	0	1048576000	59	4814
2026-01-03 05:05:45.38	308.97	12.05	-48.4	-50.7	14.7	0.00e+00	0	57	0	1050673152	59	4731
2026-01-03 05:05:46.37	308.84	11.99	-48.5	-50.8	14.6	0.00e+00	0	57	0	1051721728	59	4798
2026-01-03 05:05:47.35	308.72	11.92	-48.4	-50.6	14.7	0.00e+00	0	57	0	1053818880	59	4695
2026-01-03 05:05:48.34	308.59	11.85	-48.4	-50.7	14.7	0.00e+00	0	57	0	1055916032	59	4724
2026-01-03 05:05:49.34	308.46	11.78	-48.5	-50.7	14.7	0.00e+00	0	58	0	1058013184	59	4753
2026-01-03 05:05:50.32	308.34	11.71	-48.1	-50.2	15.2	0.00e+00	0	57	0	1060110336	59	4451
2026-01-03 05:05:51.31	308.21	11.64	-48.0	-50.0	15.4	0.00e+00	0	57	0	1061158912	58	4602
2026-01-03 05:05:52.29	308.09	11.57	-47.8	-49.8	15.6	0.00e+00	0	57	0	1063256064	58	4500
2026-01-03 05:05:53.28	307.97	11.51	-47.9	-50.0	15.4	0.00e+00	0	57	0	1065353216	58	4599
2026-01-03 05:05:54.28	307.84	11.44	-47.9	-50.0	15.4	0.00e+00	0	57	0	1067450368	58	4607
2026-01-03 05:05:55.27	307.72	11.37	-48.1	-50.2	15.2	0.00e+00	0	57	0	1068498944	58	4723
2026-01-03 05:05:56.25	307.60	11.30	-48.1	-50.3	15.1	0.00e+00	0	57	0	1070596096	58	4766
2026-01-03 05:05:57.25	307.48	11.23	-48.0	-50.1	15.2	0.00e+00	0	57	0	1072693248	58	4671
2026-01-03 05:05:58.24	307.36	11.16	-48.2	-50.4	14.9	1.50e-06	0	57	0	1074790400	58	4835
2026-01-03 05:05:59.22	307.24	11.10	-48.2	-50.4	15.0	0.00e+00	0	57	0	1075838976	58	4834
2026-01-03 05:06:00.21	307.12	11.03	-48.4	-50.6	14.7	0.00e+00	0	57	0	1077936128	58	4961
2026-01-03 05:06:01.20	307.00	10.96	-48.2	-50.4	15.0	7.00e-07	0	57	0	1080033280	58	4816
2026-01-03 05:06:02.18	306.88	10.89	-48.4	-50.7	14.7	0.00e+00	0	57	0	1082130432	58	4999
2026-01-03 05:06:03.18	306.76	10.82	-48.3	-50.5	14.8	7.00e-07	0	57	0	1084227584	58	4926
2026-01-03 05:06:04.17	306.65	10.76	-48.5	-50.8	14.5	7.00e-07	0	57	0	1085276160	58	5098
2026-01-03 05:06:05.16	306.53	10.69	-48.6	-50.9	14.4	0.00e+00	0	57	0	1087373312	58	5146
2026-01-03 05:06:06.15	306.41	10.62	-48.6	-51.1	14.2	7.00e-07	0	57	0	1089470464	59	4940
2026-01-03 05:06:07.14	306.30	10.55	-48.8	-51.3	14.0	3.00e-06	0	57	0	1091567616	59	5073
2026-01-03 05:06:08.13	306.18	10.49	-48.8	-51.4	13.9	4.50e-06	0	57	0	1092616192	59	5121
2026-01-03 05:06:09.12	306.07	10.42	-48.9	-51.5	13.8	2.20e-06	0	57	0	1094713344	59	5181
2026-01-03 05:06:10.12	305.95	10.35	-49.0	-51.6	13.7	3.00e-06	0	57	0	1096810496	59	5260
2026-01-03 05:06:11.11	305.84	10.28	-49.0	-51.6	13.7	4.50e-06	0	57	0	1098907648	59	5241
2026-01-03 05:06:12.11	305.72	10.21	-49.2	-52.1	13.2	1.44e-05	0	57	0	1101004800	60	5228
2026-01-03 05:06:13.09	305.61	10.15	-49.3	-52.2	13.0	3.20e-05	0	57	0	1102053376	60	5322
2026-01-03 05:06:14.08	305.50	10.08	-49.2	-52.1	13.1	2.97e-05	0	57	0	1104150528	60	5237
2026-01-03 05:06:15.07	305.39	10.01	-49.1	-52.0	13.2	2.28e-05	0	57	0	1106247680	60	5184
2026-01-03 05:06:16.06	305.28	9.95	-49.2	-52.2	13.0	3.05e-05	0	58	0	1108344832	60	5331
2026-01-03 05:06:17.05	305.17	9.88	-49.6	-52.8	12.4	9.68e-05	0	57	0	1109393408	60	5696
2026-01-03 05:06:18.04	305.06	9.81	-49.5	-52.8	12.4	1.47e-04	0	57	0	1111490560	61	5353
2026-01-03 05:06:19.03	304.95	9.75	-49.8	-53.4	11.7	3.68e-04	0	57	0	1113587712	61	5761
2026-01-03 05:06:20.02	304.84	9.68	-49.7	-53.1	12.1	3.45e-04	0	57	0	1115684864	61	5553
2026-01-03 05:06:21.01	304.73	9.61	-49.6	-53.0	12.1	2.50e-04	0	57	0	1116733440	61	5502
2026-01-03 05:06:22.00	304.62	9.55	-49.5	-52.8	12.4	1.81e-04	0	57	0	1118830592	61	5341
2026-01-03 05:06:22.99	304.52	9.48	-49.4	-52.6	12.6	1.11e-04	0	57	0	1120927744	61	5249
2026-01-03 05:06:23.98	304.41	9.41	-49.5	-52.8	12.3	1.24e-04	0	57	0	1123024896	61	5373
2026-01-03 05:06:24.97	304.30	9.35	-49.2	-52.3	12.9	8.92e-05	0	57	0	1124073472	61	5047
2026-01-03 05:06:25.96	304.20	9.28	-49.0	-51.9	13.1	2.13e-05	0	58	0	1126170624	61	4862
2026-01-03 05:06:26.96	304.09	9.21	-48.9	-51.6	13.4	2.28e-05	0	57	0	1128267776	60	4972
2026-01-03 05:06:27.95	303.99	9.15	-48.8	-51.5	13.5	4.50e-06	0	57	0	1130364928	60	4920
2026-01-03 05:06:28.94	303.88	9.08	-48.7	-51.4	13.5	2.05e-05	0	57	0	1132462080	60	4839
2026-01-03 05:06:29.93	303.78	9.02	-48.5	-51.1	13.8	1.50e-06	0	57	0	1133510656	60	4703
2026-01-03 05:06:30.91	303.68	8.95	-48.7	-51.4	13.5	6.10e-06	0	57	0	1135607808	60	4843
2026-01-03 05:06:31.91	303.57	8.89	-48.5	-51.2	13.8	1.06e-05	0	58	0	1137704960	60	4707
2026-01-03 05:06:32.90	303.47	8.82	-48.5	-51.2	13.7	3.80e-06	0	57	0	1139802112	59	5010
2026-01-03 05:06:33.89	303.37	8.75	-48.7	-51.4	13.5	1.22e-05	0	57	0	1140850688	59	5153
2026-01-03 05:06:34.88	303.27	8.69	-48.9	-51.7	13.2	1.52e-05	0	57	0	1142947840	59	5296
2026-01-03 05:06:35.87	303.17	8.62	-48.7	-51.7	13.1	1.22e-05	0	57	0	1145044992	59	5300
2026-01-03 05:06:36.86	303.07	8.56	-48.9	-51.8	13.0	3.58e-05	0	58	0	1147142144	59	5378
2026-01-03 05:06:37.85	302.97	8.49	-49.0	-52.1	12.7	6.71e-05	0	58	0	1148190720	59	5552
2026-01-03 05:06:38.84	302.87	8.43	-49.1	-52.2	12.5	9.46e-05	0	57	0	1150287872	60	5340
2026-01-03 05:06:39.83	302.77	8.36	-49.1	-52.2	12.5	1.16e-04	0	58	0	1152385024	60	5324
2026-01-03 05:06:40.82	302.67	8.30	-49.1	-52.4	12.3	1.34e-04	0	57	0	1154482176	60	5403
2026-01-03 05:06:41.81	302.57	8.23	-49.0	-52.4	12.3	1.79e-04	0	57	0	1156579328	60	5416
2026-01-03 05:06:42.80	302.47	8.17	-49.2	-52.6	12.0	2.30e-04	0	57	0	1157627904	60	5575
2026-01-03 05:06:43.79	302.38	8.10	-49.2	-52.5	12.1	2.50e-04	0	57	0	1159725056	60	5515
2026-01-03 05:06:44.78	302.28	8.04	-49.2	-52.6	11.9	3.34e-04	0	57	0	1161822208	60	5587
2026-01-03 05:06:45.77	302.18	7.97	-49.2	-52.7	11.7	5.71e-04	0	57	0	1163919360	60	5638
2026-01-03 05:06:46.76	302.09	7.91	-49.1	-52.6	11.8	4.97e-04	0	58	0	1164967936	60	5537
2026-01-03 05:06:47.76	301.99	7.85	-49.0	-52.5	11.8	5.46e-04	0	58	0	1167065088	60	5526
2026-01-03 05:06:48.75	301.90	7.78	-49.0	-52.6	11.6	5.19e-04	0	57	0	1169162240	60	5558
2026-01-03 05:06:49.74	301.80	7.72	-49.1	-52.9	11.3	9.51e-04	0	58	0	1171259392	60	5744
2026-01-03 05:06:50.74	301.71	7.65	-49.1	-52.8	11.3	1.32e-03	0	57	0	1173356544	60	5690
2026-01-03 05:06:51.72	301.61	7.59	-49.2	-53.2	10.9	1.89e-03	0	57	0	1174405120	60	5954
2026-01-03 05:06:52.71	301.52	7.52	-49.2	-53.4	10.6	2.92e-03	0	57	0	1176502272	60	6064
2026-01-03 05:06:53.71	301.43	7.46	-49.3	-53.6	10.3	3.87e-03	0	58	0	1178599424	60	6231
2026-01-03 05:06:54.70	301.33	7.40	-49.3	-53.7	10.2	6.02e-03	0	57	0	1180696576	60	6311
2026-01-03 05:06:55.69	301.24	7.33	-49.4	-53.9	9.9	9.23e-03	0	57	0	1181745152	60	6487
2026-01-03 05:06:56.67	301.15	7.27	-49.4	-54.2	9.5	1.32e-02	0	58	0	1183842304	60	6683
2026-01-03 05:06:57.66	301.06	7.21	-49.5	-54.4	9.3	1.41e-02	0	58	0	1185939456	60	6812
2026-01-03 05:06:58.65	300.97	7.14	-49.5	-54.5	9.1	2.33e-02	0	57	0	1188036608	60	6939
2026-01-03 05:06:59.65	300.88	7.08	-49.5	-54.9	8.7	3.36e-02	0	57	0	1189085184	61	6826
2026-01-03 05:07:00.64	300.79	7.02	-49.6	-55.1	8.4	4.43e-02	0	58	0	1191182336	61	7019
2026-01-03 05:07:01.63	300.70	6.95	-49.7	-55.7	7.8	5.34e-02	0	57	0	1193279488	61	7470
2026-01-03 05:07:02.61	300.61	6.89	-49.7	-55.8	7.7	8.79e-02	0	57	0	1195376640	61	7564
2026-01-03 05:07:03.60	300.52	6.83	-49.8	-56.1	7.4	1.14e-01	0	57	0	1197473792	61	7810
2026-01-03 05:07:04.59	300.43	6.76	-49.8	-56.3	7.1	1.38e-01	0	57	0	1198522368	61	8054
2026-01-03 05:07:05.59	300.34	6.70	-49.8	-56.7	6.7	1.68e-01	0	57	0	1200619520	61	8390
2026-01-03 05:07:06.57	300.26	6.64	-49.8	-56.9	6.4	2.42e-01	0	57	0	1202716672	61	8654
2026-01-03 05:07:07.56	300.17	6.58	-49.8	-57.2	6.1	2.84e-01	0	58	0	1204813824	61	8913
2026-01-03 05:07:08.55	300.08	6.51	-49.9	-57.4	5.9	3.20e-01	0	58	0	1205862400	61	9158
2026-01-03 05:07:09.54	299.99	6.45	-49.9	-57.6	5.7	3.90e-01	0	58	0	1207959552	61	9283
2026-01-03 05:07:10.53	299.91	6.39	-49.9	-57.9	5.5	4.70e-01	0	57	0	1210056704	61	9677
2026-01-03 05:07:11.52	299.82	6.33	-49.9	-58.3	5.3	5.38e-01	0	58	0	1212153856	61	10089
2026-01-03 05:07:12.51	299.74	6.26	-49.8	-58.5	5.1	5.99e-01	0	58	0	1214251008	61	10400
2026-01-03 05:07:13.51	299.65	6.20	-49.8	-58.6	5.0	6.93e-01	0	58	0	1215299584	61	10476
2026-01-03 05:07:14.51	299.57	6.14	-49.8	-58.6	5.0	7.19e-01	0	57	0	1217396736	61	10510
2026-01-03 05:07:15.50	299.48	6.08	-49.7	-58.8	4.8	7.57e-01	0	58	0	1219493888	61	10703
2026-01-03 05:07:16.49	299.40	6.02	-49.7	-59.3	4.6	8.48e-01	0	57	0	1221591040	61	11327
2026-01-03 05:07:17.47	299.32	5.95	-49.8	-59.5	4.5	1.03e+00	0	58	0	1222639616	61	11628
2026-01-03 05:07:18.47	299.23	5.89	-49.7	-59.7	4.4	1.23e+00	0	57	0	1224736768	61	11894
2026-01-03 05:07:19.45	299.15	5.83	-49.7	-59.9	4.4	1.26e+00	0	58	0	1226833920	61	12097
2026-01-03 05:07:20.44	299.07	5.77	-49.7	-60.2	4.2	1.34e+00	0	58	0	1226833920	61	12563
2026-01-03 05:07:21.44	298.98	5.71	-49.6	-60.5	4.1	1.42e+00	0	57	0	1226833920	61	12998
2026-01-03 05:07:22.42	298.90	5.65	-49.7	-60.5	4.1	1.42e+00	0	58	0	1226833920	61	13052
2026-01-03 05:07:23.41	298.82	5.59	-49.6	-60.6	4.1	1.43e+00	0	57	0	1226833920	61	13140
2026-01-03 05:07:24.40	298.74	5.52	-49.6	-61.0	3.8	1.48e+00	0	58	104	1226833920	61	13795
2026-01-03 05:07:25.39	298.66	5.46	-49.6	-61.2	4.0	1.48e+00	0	58	104	1226833920	61	14135
2026-01-03 05:07:26.38	298.58	5.40	-49.6	-61.6	3.8	1.48e+00	0	57	104	1226833920	61	14866
2026-01-03 05:07:27.37	298.50	5.34	-49.6	-62.0	3.8	1.49e+00	0	57	104	1226833920	61	15464
2026-01-03 05:07:28.36	298.42	5.28	-49.5	-62.3	3.8	1.49e+00	0	58	104	1226833920	61	16008
