passes_logs/2026/01/03/R3.0SM8_Murmansk_STILSPACE/R3.0SM8_Murmansk_STILSPACE__20260103_141744_FENGYUN_3D_rec.log

#Pass ID: 20260103_141744_FENGYUN 3D
#Satellite: FENGYUN 3D
#Configuration: FENGYUN 3D
#almurnet v.1.7.20240730
#Start time: 2026-01-03 14:17:45

#Version: 2.2.20231116
#Station: R3.0SM8_Murmansk_STILSPACE
#Location: 33.092731 lon 68.902999 lat
#TLE: 1 43010U 17072A   26002.95198047  .00000207  00000+0  11963-3 0  9999
#TLE: 2 43010  98.9912 334.5826 0001910 130.7105 229.4237 14.19692231421540

#Time	Az	El	Level	Level2	SNR	BER	BlckErr	Temp	State	Recorded	gain1	gain2
2026-01-03 14:17:45.84	223.57	3.06	-52.8	-63.5	3.8	8.46e-01	0	45	0	0	67	13081
2026-01-03 14:17:46.82	223.65	3.12	-52.9	-63.6	3.8	8.47e-01	0	45	104	0	68	12441
2026-01-03 14:17:47.82	223.74	3.17	-52.8	-63.5	3.8	8.45e-01	0	46	104	0	68	12347
2026-01-03 14:17:48.81	223.82	3.22	-52.7	-63.5	3.8	8.46e-01	0	46	104	0	68	12238
2026-01-03 14:17:49.79	223.91	3.27	-52.4	-63.2	3.8	8.47e-01	0	46	104	0	67	12589
2026-01-03 14:17:50.78	224.00	3.33	-52.2	-62.9	3.8	8.46e-01	0	46	104	0	67	12227
2026-01-03 14:17:51.78	224.09	3.38	-52.0	-62.7	3.8	8.46e-01	0	46	104	0	66	12635
2026-01-03 14:17:52.76	224.17	3.43	-51.5	-62.3	3.8	8.47e-01	0	46	104	0	66	12091
2026-01-03 14:17:53.76	224.26	3.49	-51.1	-61.9	3.8	8.47e-01	0	46	104	0	65	12215
2026-01-03 14:17:54.75	224.35	3.54	-50.7	-60.3	3.8	8.45e-01	0	46	104	0	64	10714
2026-01-03 14:17:55.73	224.44	3.59	-50.7	-60.4	3.8	8.47e-01	0	47	104	0	64	10875
2026-01-03 14:17:56.71	224.52	3.64	-50.7	-60.5	3.8	8.45e-01	0	46	104	0	64	10977
2026-01-03 14:17:57.70	224.61	3.70	-50.8	-60.9	3.8	8.45e-01	0	46	104	0	64	11439
2026-01-03 14:17:58.69	224.70	3.75	-50.8	-61.2	3.8	8.46e-01	0	46	104	0	64	11833
2026-01-03 14:17:59.68	224.79	3.80	-50.9	-61.4	3.8	8.45e-01	0	47	104	0	64	12232
2026-01-03 14:18:00.67	224.88	3.85	-50.8	-61.6	3.8	8.45e-01	0	47	104	0	64	12403
2026-01-03 14:18:01.66	224.97	3.91	-50.8	-61.5	3.8	8.46e-01	0	47	104	0	64	12303
2026-01-03 14:18:02.65	225.06	3.96	-50.7	-61.2	3.8	8.46e-01	0	47	104	0	64	11849
2026-01-03 14:18:03.64	225.15	4.01	-50.6	-60.6	3.8	8.46e-01	0	47	104	0	64	11124
2026-01-03 14:18:04.62	225.24	4.07	-50.6	-60.1	3.8	8.45e-01	0	47	104	0	64	10483
2026-01-03 14:18:05.62	225.33	4.12	-50.7	-59.5	3.9	8.46e-01	0	47	104	0	64	9815
2026-01-03 14:18:06.61	225.43	4.17	-50.6	-58.9	4.0	8.45e-01	0	47	104	0	64	9096
2026-01-03 14:18:07.60	225.52	4.23	-50.5	-58.5	4.1	8.40e-01	0	47	0	0	64	8666
2026-01-03 14:18:08.60	225.61	4.28	-50.5	-58.2	4.2	8.38e-01	0	47	0	0	64	8448
2026-01-03 14:18:09.59	225.70	4.34	-50.5	-58.1	4.2	8.37e-01	0	47	0	0	63	8841
2026-01-03 14:18:10.58	225.80	4.39	-50.5	-58.0	4.3	8.34e-01	0	47	0	0	63	8729
2026-01-03 14:18:11.57	225.89	4.44	-50.5	-58.1	4.2	8.36e-01	0	47	0	0	63	8859
2026-01-03 14:18:12.56	225.98	4.50	-50.6	-58.4	4.2	8.37e-01	0	47	0	0	63	9139
2026-01-03 14:18:13.55	226.08	4.55	-50.7	-59.0	3.9	8.41e-01	0	48	104	0	63	9761
2026-01-03 14:18:14.55	226.17	4.61	-50.8	-59.5	4.0	8.44e-01	0	47	104	0	63	10396
2026-01-03 14:18:15.54	226.27	4.66	-50.9	-60.4	3.8	8.45e-01	0	48	104	0	63	11445
2026-01-03 14:18:16.53	226.36	4.71	-51.0	-61.0	3.8	8.46e-01	0	48	104	0	63	12326
2026-01-03 14:18:17.53	226.46	4.77	-51.0	-61.0	3.8	8.46e-01	0	48	104	0	63	12365
2026-01-03 14:18:18.50	226.55	4.82	-50.8	-60.2	3.8	8.45e-01	0	48	104	0	63	11243
2026-01-03 14:18:19.50	226.65	4.87	-50.6	-58.6	4.1	8.45e-01	0	48	0	0	63	9292
2026-01-03 14:18:20.49	226.75	4.93	-50.2	-56.6	4.8	8.16e-01	0	48	0	0	63	7423
2026-01-03 14:18:21.47	226.84	4.98	-49.8	-55.0	5.8	6.98e-01	0	48	0	0	62	6524
2026-01-03 14:18:22.45	226.94	5.04	-49.5	-54.1	6.5	2.59e-01	0	48	0	6291456	62	5898
2026-01-03 14:18:23.44	227.04	5.09	-49.6	-54.6	6.1	2.93e-01	0	48	0	11534336	61	6587
2026-01-03 14:18:24.42	227.13	5.14	-49.6	-54.7	6.0	4.33e-01	0	48	0	16777216	61	6671
2026-01-03 14:18:25.42	227.23	5.20	-49.3	-53.8	6.8	2.14e-01	0	48	0	23068672	61	6028
2026-01-03 14:18:26.41	227.33	5.25	-49.0	-53.0	7.6	1.32e-01	0	48	0	28311552	61	5498
2026-01-03 14:18:27.41	227.43	5.31	-48.8	-52.5	8.0	8.11e-02	0	48	0	33554432	60	5503
2026-01-03 14:18:28.39	227.53	5.36	-48.6	-52.0	8.5	5.32e-02	0	48	0	39845888	60	5217
2026-01-03 14:18:29.38	227.63	5.42	-48.4	-51.7	8.8	3.87e-02	0	49	0	45088768	60	5016
2026-01-03 14:18:30.37	227.73	5.47	-48.3	-51.4	9.2	2.53e-02	0	49	0	50331648	59	5113
2026-01-03 14:18:31.36	227.83	5.53	-48.3	-51.3	9.3	2.15e-02	0	49	0	56623104	59	5063
2026-01-03 14:18:32.34	227.93	5.58	-48.3	-51.2	9.4	1.93e-02	0	49	0	61865984	59	5015
2026-01-03 14:18:33.34	228.03	5.63	-48.2	-51.2	9.4	1.99e-02	0	49	0	67108864	59	5001
2026-01-03 14:18:34.33	228.13	5.69	-48.2	-51.2	9.4	2.17e-02	0	49	0	72351744	59	5026
2026-01-03 14:18:35.32	228.23	5.74	-48.4	-51.5	9.1	2.41e-02	0	49	0	78643200	59	5171
2026-01-03 14:18:36.30	228.33	5.80	-48.3	-51.4	9.2	2.79e-02	0	49	0	83886080	59	5114
2026-01-03 14:18:37.29	228.44	5.85	-48.1	-51.0	9.6	1.74e-02	0	49	0	89128960	59	4899
2026-01-03 14:18:38.28	228.54	5.91	-48.0	-50.8	9.9	1.14e-02	0	49	0	95420416	59	4786
2026-01-03 14:18:39.28	228.64	5.96	-47.9	-50.6	10.1	8.42e-03	0	49	0	100663296	59	4683
2026-01-03 14:18:40.27	228.75	6.02	-47.9	-50.4	10.3	7.05e-03	0	49	0	105906176	58	4853
2026-01-03 14:18:41.27	228.85	6.07	-47.9	-50.5	10.2	8.21e-03	0	49	0	112197632	58	4920
2026-01-03 14:18:42.26	228.96	6.13	-47.9	-50.7	10.1	8.36e-03	0	49	0	117440512	58	4985
2026-01-03 14:18:43.25	229.06	6.18	-48.0	-50.8	9.9	1.25e-02	0	49	0	122683392	58	5071
2026-01-03 14:18:44.24	229.17	6.24	-47.9	-50.5	10.2	7.96e-03	0	50	0	128974848	58	4904
2026-01-03 14:18:45.23	229.27	6.29	-47.8	-50.4	10.4	6.30e-03	0	49	0	134217728	58	4847
2026-01-03 14:18:46.22	229.38	6.35	-48.0	-50.6	10.2	8.13e-03	0	49	0	139460608	58	4976
2026-01-03 14:18:47.21	229.48	6.40	-48.1	-50.7	10.0	1.08e-02	0	49	0	145752064	58	5033
2026-01-03 14:18:48.19	229.59	6.46	-48.0	-50.6	10.3	7.64e-03	0	50	0	150994944	58	4930
2026-01-03 14:18:49.19	229.70	6.51	-47.9	-50.5	10.3	7.39e-03	0	50	0	156237824	58	4906
2026-01-03 14:18:50.17	229.80	6.57	-47.9	-50.4	10.4	5.72e-03	0	50	0	161480704	58	4848
2026-01-03 14:18:51.16	229.91	6.62	-47.9	-50.4	10.4	5.58e-03	0	50	0	167772160	58	4857
2026-01-03 14:18:52.15	230.02	6.68	-47.7	-50.2	10.6	4.32e-03	0	50	0	173015040	58	4741
2026-01-03 14:18:53.13	230.13	6.74	-47.7	-50.1	10.7	4.01e-03	0	50	0	178257920	58	4680
2026-01-03 14:18:54.12	230.23	6.79	-47.8	-50.3	10.6	4.32e-03	0	50	0	184549376	58	4762
2026-01-03 14:18:55.12	230.34	6.85	-47.5	-49.8	11.1	2.70e-03	0	50	0	189792256	58	4522
2026-01-03 14:18:56.10	230.45	6.90	-47.2	-49.3	11.6	1.43e-03	0	50	0	195035136	57	4527
2026-01-03 14:18:57.09	230.56	6.96	-47.0	-49.1	11.8	7.36e-04	0	50	0	201326592	57	4432
2026-01-03 14:18:58.07	230.67	7.01	-47.0	-49.0	11.9	5.45e-04	0	50	0	206569472	57	4367
2026-01-03 14:18:59.06	230.78	7.07	-46.8	-48.7	12.2	3.76e-04	0	50	0	211812352	56	4480
2026-01-03 14:19:00.05	230.89	7.12	-46.8	-48.7	12.3	3.03e-04	0	50	0	217055232	56	4459
2026-01-03 14:19:01.04	231.01	7.18	-46.7	-48.6	12.4	2.48e-04	0	50	0	223346688	56	4403
2026-01-03 14:19:02.03	231.12	7.23	-46.7	-48.6	12.4	1.93e-04	0	50	0	228589568	56	4419
2026-01-03 14:19:03.03	231.23	7.29	-47.0	-49.0	12.1	3.11e-04	0	50	0	233832448	56	4606
2026-01-03 14:19:04.02	231.34	7.35	-46.7	-48.6	12.5	2.37e-04	0	50	0	240123904	56	4398
2026-01-03 14:19:05.01	231.46	7.40	-46.6	-48.4	12.6	1.23e-04	0	50	0	245366784	56	4306
2026-01-03 14:19:06.00	231.57	7.46	-46.4	-48.2	12.8	9.61e-05	0	51	0	250609664	56	4216
2026-01-03 14:19:06.99	231.69	7.51	-46.5	-48.3	12.8	1.05e-04	0	50	0	256901120	56	4251
2026-01-03 14:19:07.98	231.80	7.57	-46.4	-48.2	12.9	8.46e-05	0	50	0	262144000	56	4201
2026-01-03 14:19:08.97	231.92	7.63	-46.3	-48.0	13.0	5.37e-05	0	51	0	267386880	55	4363
2026-01-03 14:19:09.96	232.03	7.68	-46.4	-48.1	12.8	9.26e-05	0	50	0	273678336	55	4438
2026-01-03 14:19:10.95	232.15	7.74	-46.3	-48.0	13.0	5.49e-05	0	51	0	278921216	55	4374
2026-01-03 14:19:11.94	232.26	7.79	-46.2	-47.9	13.1	5.03e-05	0	51	0	284164096	55	4311
2026-01-03 14:19:12.93	232.38	7.85	-46.2	-47.9	13.1	4.11e-05	0	51	0	289406976	55	4331
2026-01-03 14:19:13.92	232.50	7.91	-46.2	-47.9	13.1	3.66e-05	0	51	0	295698432	55	4330
2026-01-03 14:19:14.91	232.61	7.96	-46.4	-48.1	13.0	6.63e-05	0	51	0	300941312	55	4418
2026-01-03 14:19:15.89	232.73	8.02	-46.2	-47.9	13.2	5.03e-05	0	51	0	307232768	55	4322
2026-01-03 14:19:16.88	232.85	8.07	-46.2	-47.8	13.4	2.40e-05	0	51	0	312475648	55	4251
2026-01-03 14:19:17.88	232.97	8.13	-46.1	-47.6	13.5	1.71e-05	0	51	0	317718528	55	4193
2026-01-03 14:19:18.86	233.09	8.19	-46.2	-47.7	13.4	1.83e-05	0	51	0	322961408	55	4242
2026-01-03 14:19:19.85	233.21	8.24	-45.9	-47.4	13.8	9.10e-06	0	51	0	329252864	54	4325
2026-01-03 14:19:20.83	233.33	8.30	-45.7	-47.1	14.1	4.50e-06	0	51	0	334495744	54	4187
2026-01-03 14:19:21.81	233.45	8.35	-45.6	-47.0	14.2	4.50e-06	0	51	0	339738624	54	4127
2026-01-03 14:19:22.80	233.57	8.41	-45.7	-47.1	14.1	3.40e-06	0	51	0	346030080	54	4157
2026-01-03 14:19:23.79	233.69	8.47	-45.5	-46.9	14.4	0.00e+00	0	51	0	351272960	54	4072
2026-01-03 14:19:24.78	233.81	8.52	-45.5	-46.8	14.5	1.10e-06	0	51	0	356515840	54	4033
2026-01-03 14:19:25.76	233.93	8.58	-45.7	-47.1	14.3	1.10e-06	0	51	0	361758720	54	4150
2026-01-03 14:19:26.75	234.06	8.63	-45.5	-46.9	14.4	1.10e-06	0	51	0	368050176	54	4068
2026-01-03 14:19:27.73	234.18	8.69	-45.4	-46.7	14.6	3.40e-06	0	51	0	373293056	54	3993
2026-01-03 14:19:28.71	234.30	8.74	-45.2	-46.5	14.9	1.10e-06	0	51	0	378535936	53	4104
2026-01-03 14:19:29.69	234.42	8.80	-45.1	-46.4	14.9	1.10e-06	0	52	0	384827392	53	4065
2026-01-03 14:19:30.69	234.55	8.86	-45.1	-46.4	14.9	0.00e+00	0	51	0	390070272	53	4081
2026-01-03 14:19:31.69	234.68	8.91	-45.1	-46.4	15.0	0.00e+00	0	51	0	395313152	53	4064
2026-01-03 14:19:32.67	234.80	8.97	-45.2	-46.5	14.9	0.00e+00	0	51	0	400556032	53	4108
2026-01-03 14:19:33.67	234.93	9.03	-45.3	-46.6	14.8	0.00e+00	0	52	0	406847488	53	4173
2026-01-03 14:19:34.65	235.05	9.08	-45.5	-46.9	14.6	0.00e+00	0	52	0	412090368	53	4301
2026-01-03 14:19:35.64	235.18	9.14	-45.4	-46.8	14.6	2.20e-06	0	52	0	417333248	53	4278
2026-01-03 14:19:36.64	235.31	9.20	-45.2	-46.5	14.9	0.00e+00	0	52	0	423624704	53	4131
2026-01-03 14:19:37.63	235.44	9.25	-45.0	-46.3	15.1	0.00e+00	0	52	0	428867584	53	4036
2026-01-03 14:19:38.62	235.56	9.31	-45.1	-46.3	15.2	0.00e+00	0	52	0	434110464	53	4032
2026-01-03 14:19:39.61	235.69	9.36	-45.0	-46.2	15.3	0.00e+00	0	52	0	440401920	53	4001
2026-01-03 14:19:40.60	235.82	9.42	-45.0	-46.3	15.3	0.00e+00	0	52	0	445644800	53	4008
2026-01-03 14:19:41.60	235.95	9.48	-45.1	-46.3	15.2	0.00e+00	0	52	0	450887680	53	4040
2026-01-03 14:19:42.59	236.08	9.53	-45.1	-46.3	15.2	0.00e+00	0	52	0	457179136	53	4048
2026-01-03 14:19:43.58	236.22	9.59	-45.0	-46.2	15.3	0.00e+00	0	52	0	462422016	53	3973
2026-01-03 14:19:44.57	236.35	9.65	-44.8	-46.0	15.6	0.00e+00	0	52	0	467664896	52	4111
2026-01-03 14:19:45.56	236.48	9.70	-44.7	-45.9	15.7	0.00e+00	0	52	0	473956352	52	4089
2026-01-03 14:19:46.55	236.61	9.76	-44.8	-46.0	15.6	0.00e+00	0	52	0	479199232	52	4114
2026-01-03 14:19:47.54	236.74	9.82	-44.9	-46.1	15.5	0.00e+00	0	52	0	484442112	52	4169
2026-01-03 14:19:48.53	236.88	9.87	-45.1	-46.3	15.4	0.00e+00	0	52	0	489684992	52	4250
2026-01-03 14:19:49.51	237.01	9.93	-45.0	-46.2	15.5	0.00e+00	0	52	0	495976448	52	4236
2026-01-03 14:19:50.49	237.14	9.98	-44.7	-45.9	15.9	0.00e+00	0	52	0	501219328	52	4055
2026-01-03 14:19:51.48	237.28	10.04	-44.5	-45.6	16.2	0.00e+00	0	52	0	506462208	52	3928
2026-01-03 14:19:52.47	237.41	10.10	-44.4	-45.5	16.3	0.00e+00	0	52	0	512753664	52	3879
2026-01-03 14:19:53.47	237.55	10.15	-44.4	-45.4	16.4	0.00e+00	0	52	0	517996544	51	4083
2026-01-03 14:19:54.45	237.69	10.21	-44.5	-45.5	16.4	0.00e+00	0	52	0	523239424	51	4117
2026-01-03 14:19:55.44	237.82	10.27	-44.5	-45.5	16.3	0.00e+00	0	52	0	529530880	51	4129
2026-01-03 14:19:56.43	237.96	10.32	-44.7	-45.7	16.1	0.00e+00	0	52	0	534773760	51	4229
2026-01-03 14:19:57.42	238.10	10.38	-44.7	-45.7	16.2	0.00e+00	0	52	0	540016640	51	4234
2026-01-03 14:19:58.41	238.24	10.43	-44.4	-45.3	16.5	0.00e+00	0	52	0	545259520	51	4051
2026-01-03 14:19:59.40	238.38	10.49	-44.2	-45.1	16.7	0.00e+00	0	52	0	551550976	51	3958
2026-01-03 14:20:00.39	238.51	10.55	-44.0	-44.9	17.0	0.00e+00	0	52	0	556793856	51	3845
2026-01-03 14:20:01.38	238.65	10.60	-43.9	-44.8	17.1	0.00e+00	0	53	0	562036736	50	4024
2026-01-03 14:20:02.37	238.79	10.66	-43.9	-44.8	17.1	0.00e+00	0	52	0	568328192	50	4009
2026-01-03 14:20:03.36	238.94	10.72	-43.7	-44.6	17.3	0.00e+00	0	53	0	573571072	50	3943
2026-01-03 14:20:04.35	239.08	10.77	-43.7	-44.6	17.4	0.00e+00	0	53	0	578813952	50	3918
2026-01-03 14:20:05.34	239.22	10.83	-43.7	-44.6	17.4	0.00e+00	0	52	0	585105408	50	3944
2026-01-03 14:20:06.33	239.36	10.88	-43.6	-44.5	17.5	0.00e+00	0	53	0	590348288	50	3884
2026-01-03 14:20:07.32	239.50	10.94	-43.6	-44.5	17.5	0.00e+00	0	52	0	595591168	50	3905
2026-01-03 14:20:08.31	239.65	11.00	-43.8	-44.7	17.3	0.00e+00	0	53	0	601882624	50	3996
2026-01-03 14:20:09.30	239.79	11.05	-44.1	-45.0	17.0	0.00e+00	0	52	0	607125504	50	4136
2026-01-03 14:20:10.28	239.94	11.11	-44.1	-45.1	16.9	0.00e+00	0	53	0	612368384	50	4165
2026-01-03 14:20:11.27	240.08	11.16	-44.2	-45.2	16.8	0.00e+00	0	53	0	617611264	50	4206
2026-01-03 14:20:12.27	240.23	11.22	-44.2	-45.2	16.9	0.00e+00	0	53	0	623902720	50	4216
2026-01-03 14:20:13.25	240.37	11.27	-44.1	-45.1	16.9	0.00e+00	0	53	0	629145600	50	4172
2026-01-03 14:20:14.24	240.52	11.33	-44.1	-45.1	16.9	0.00e+00	0	53	0	635437056	50	4167
2026-01-03 14:20:15.23	240.67	11.39	-44.2	-45.1	16.9	0.00e+00	0	53	0	640679936	50	4180
2026-01-03 14:20:16.23	240.82	11.44	-44.2	-45.1	16.9	0.00e+00	0	53	0	645922816	50	4182
2026-01-03 14:20:17.22	240.96	11.50	-44.4	-45.4	16.6	0.00e+00	0	53	0	651165696	50	4322
2026-01-03 14:20:18.21	241.11	11.55	-44.1	-45.0	17.1	0.00e+00	0	53	0	657457152	50	4132
2026-01-03 14:20:19.20	241.26	11.61	-43.8	-44.7	17.3	0.00e+00	0	53	0	662700032	50	3999
2026-01-03 14:20:20.18	241.41	11.66	-43.8	-44.7	17.4	0.00e+00	0	53	0	667942912	50	3969
2026-01-03 14:20:21.17	241.56	11.72	-43.9	-44.9	17.2	0.00e+00	0	53	0	674234368	50	4070
2026-01-03 14:20:22.16	241.71	11.78	-43.8	-44.8	17.3	0.00e+00	0	53	0	679477248	50	4015
2026-01-03 14:20:23.16	241.87	11.83	-43.9	-44.8	17.3	0.00e+00	0	53	0	684720128	50	4046
2026-01-03 14:20:24.15	242.02	11.89	-43.9	-44.8	17.3	0.00e+00	0	53	0	691011584	50	4025
2026-01-03 14:20:25.15	242.17	11.94	-44.0	-44.9	17.2	0.00e+00	0	53	0	696254464	50	4074
2026-01-03 14:20:26.14	242.33	12.00	-44.0	-45.0	17.2	0.00e+00	0	53	0	701497344	50	4101
2026-01-03 14:20:27.14	242.48	12.05	-43.9	-44.9	17.3	0.00e+00	0	53	0	707788800	50	4059
2026-01-03 14:20:28.12	242.64	12.11	-44.0	-44.9	17.2	0.00e+00	0	53	0	713031680	50	4098
2026-01-03 14:20:29.11	242.79	12.16	-43.9	-44.9	17.3	0.00e+00	0	53	0	718274560	50	4053
2026-01-03 14:20:30.10	242.95	12.22	-44.0	-44.9	17.3	0.00e+00	0	53	0	724566016	50	4082
2026-01-03 14:20:31.09	243.10	12.27	-44.1	-45.1	17.1	0.00e+00	0	53	0	729808896	50	4149
2026-01-03 14:20:32.07	243.26	12.33	-44.2	-45.2	17.0	0.00e+00	0	53	0	735051776	50	4223
2026-01-03 14:20:33.05	243.41	12.38	-43.9	-44.8	17.3	0.00e+00	0	53	0	740294656	50	4044
2026-01-03 14:20:34.04	243.57	12.44	-43.7	-44.6	17.6	0.00e+00	0	53	0	746586112	50	3924
2026-01-03 14:20:35.03	243.73	12.49	-43.6	-44.4	17.8	0.00e+00	0	53	0	751828992	50	3850
2026-01-03 14:20:36.01	243.89	12.54	-43.5	-44.4	17.8	0.00e+00	0	53	0	757071872	50	3839
2026-01-03 14:20:37.01	244.05	12.60	-43.6	-44.5	17.7	0.00e+00	0	53	0	763363328	50	3894
2026-01-03 14:20:38.00	244.21	12.65	-43.8	-44.7	17.5	0.00e+00	0	53	0	768606208	50	3978
2026-01-03 14:20:38.99	244.37	12.71	-43.7	-44.6	17.6	0.00e+00	0	53	0	773849088	50	3920
2026-01-03 14:20:39.98	244.53	12.76	-43.9	-44.8	17.4	0.00e+00	0	53	0	779091968	50	4013
2026-01-03 14:20:40.97	244.69	12.82	-44.1	-45.0	17.2	0.00e+00	0	53	0	785383424	50	4143
2026-01-03 14:20:41.96	244.85	12.87	-43.9	-44.8	17.4	0.00e+00	0	53	0	790626304	50	4036
2026-01-03 14:20:42.95	245.02	12.92	-43.7	-44.5	17.6	0.00e+00	0	54	0	795869184	50	3904
2026-01-03 14:20:43.93	245.18	12.98	-43.5	-44.3	17.8	0.00e+00	0	54	0	802160640	50	3818
2026-01-03 14:20:44.92	245.34	13.03	-43.4	-44.2	18.0	0.00e+00	0	53	0	807403520	49	3968
2026-01-03 14:20:45.90	245.51	13.08	-43.4	-44.2	17.9	0.00e+00	0	54	0	812646400	49	3995
2026-01-03 14:20:46.89	245.67	13.14	-43.5	-44.3	17.9	0.00e+00	0	54	0	818937856	49	4028
2026-01-03 14:20:47.88	245.84	13.19	-43.8	-44.6	17.6	0.00e+00	0	53	0	824180736	49	4179
2026-01-03 14:20:48.87	246.00	13.25	-43.6	-44.4	17.8	0.00e+00	0	54	0	829423616	49	4069
2026-01-03 14:20:49.85	246.17	13.30	-43.4	-44.2	18.0	0.00e+00	0	54	0	835715072	49	3981
2026-01-03 14:20:50.84	246.34	13.35	-43.3	-44.0	18.1	0.00e+00	0	54	0	840957952	49	3913
2026-01-03 14:20:51.82	246.50	13.40	-43.2	-44.0	18.2	0.00e+00	0	54	0	846200832	49	3869
2026-01-03 14:20:52.81	246.67	13.46	-43.1	-43.9	18.3	0.00e+00	0	54	0	851443712	49	3825
2026-01-03 14:20:53.80	246.84	13.51	-43.0	-43.8	18.4	0.00e+00	0	54	0	857735168	49	3784
2026-01-03 14:20:54.79	247.01	13.56	-43.1	-43.8	18.3	0.00e+00	0	54	0	862978048	49	3814
2026-01-03 14:20:55.78	247.18	13.61	-43.2	-44.0	18.2	0.00e+00	0	54	0	868220928	49	3884
2026-01-03 14:20:56.77	247.35	13.67	-43.2	-44.0	18.2	0.00e+00	0	54	0	874512384	49	3874
2026-01-03 14:20:57.76	247.52	13.72	-43.2	-44.1	18.2	0.00e+00	0	54	0	879755264	49	3916
2026-01-03 14:20:58.75	247.70	13.77	-43.1	-43.9	18.3	0.00e+00	0	54	0	884998144	49	3859
2026-01-03 14:20:59.74	247.87	13.82	-43.1	-43.9	18.3	0.00e+00	0	54	0	891289600	49	3851
2026-01-03 14:21:00.74	248.04	13.88	-43.3	-44.1	18.1	0.00e+00	0	54	0	896532480	49	3925
2026-01-03 14:21:01.73	248.22	13.93	-43.2	-44.0	18.2	0.00e+00	0	54	0	901775360	49	3881
2026-01-03 14:21:02.72	248.39	13.98	-43.3	-44.1	18.1	0.00e+00	0	54	0	907018240	49	3927
2026-01-03 14:21:03.70	248.57	14.03	-43.5	-44.3	17.9	0.00e+00	0	54	0	913309696	49	4038
2026-01-03 14:21:04.69	248.74	14.08	-43.3	-44.1	18.1	0.00e+00	0	54	0	918552576	49	3957
2026-01-03 14:21:05.68	248.92	14.13	-43.1	-43.9	18.3	0.00e+00	0	54	0	923795456	49	3857
2026-01-03 14:21:06.67	249.10	14.19	-43.0	-43.8	18.4	0.00e+00	0	54	0	930086912	49	3810
2026-01-03 14:21:07.65	249.27	14.24	-43.0	-43.8	18.4	0.00e+00	0	54	0	935329792	49	3811
2026-01-03 14:21:08.64	249.45	14.29	-43.0	-43.8	18.4	0.00e+00	0	54	0	940572672	49	3790
2026-01-03 14:21:09.64	249.63	14.34	-43.0	-43.8	18.4	0.00e+00	0	54	0	946864128	49	3817
2026-01-03 14:21:10.62	249.81	14.39	-43.1	-43.9	18.3	0.00e+00	0	54	0	952107008	49	3863
2026-01-03 14:21:11.61	249.99	14.44	-43.1	-43.9	18.3	0.00e+00	0	54	0	957349888	49	3844
2026-01-03 14:21:12.59	250.17	14.49	-42.9	-43.7	18.5	0.00e+00	0	54	0	963641344	49	3755
2026-01-03 14:21:13.57	250.35	14.54	-42.8	-43.6	18.6	0.00e+00	0	54	0	968884224	48	3923
2026-01-03 14:21:14.56	250.53	14.59	-42.8	-43.5	18.7	0.00e+00	0	54	0	974127104	48	3909
2026-01-03 14:21:15.55	250.71	14.64	-42.7	-43.5	18.7	0.00e+00	0	54	0	979369984	48	3884
2026-01-03 14:21:16.54	250.89	14.69	-42.8	-43.5	18.7	0.00e+00	0	54	0	985661440	48	3890
2026-01-03 14:21:17.53	251.08	14.74	-42.8	-43.6	18.6	0.00e+00	0	54	0	990904320	48	3931
2026-01-03 14:21:18.52	251.26	14.79	-43.0	-43.8	18.5	0.00e+00	0	54	0	996147200	48	4021
2026-01-03 14:21:19.51	251.45	14.84	-43.2	-44.0	18.2	0.00e+00	0	54	0	1002438656	48	4126
2026-01-03 14:21:20.50	251.63	14.88	-43.3	-44.1	18.1	0.00e+00	0	54	0	1007681536	48	4170
2026-01-03 14:21:21.49	251.82	14.93	-43.3	-44.1	18.1	0.00e+00	0	54	0	1012924416	48	4188
2026-01-03 14:21:22.48	252.00	14.98	-43.4	-44.2	18.0	0.00e+00	0	54	0	1018167296	48	4221
2026-01-03 14:21:23.46	252.19	15.03	-43.4	-44.2	18.0	0.00e+00	0	54	0	1024458752	48	4237
2026-01-03 14:21:24.46	252.38	15.08	-43.6	-44.4	17.8	0.00e+00	0	54	0	1029701632	48	4335
2026-01-03 14:21:25.45	252.57	15.13	-43.6	-44.5	17.7	0.00e+00	0	54	0	1034944512	49	4121
2026-01-03 14:21:26.44	252.75	15.17	-43.3	-44.2	18.1	0.00e+00	0	54	0	1041235968	49	3967
2026-01-03 14:21:27.42	252.94	15.22	-43.1	-44.0	18.3	0.00e+00	0	54	0	1046478848	49	3869
2026-01-03 14:21:28.41	253.13	15.27	-43.1	-43.9	18.3	0.00e+00	0	54	0	1051721728	49	3852
2026-01-03 14:21:29.39	253.32	15.32	-43.1	-43.8	18.4	0.00e+00	0	55	0	1058013184	49	3817
2026-01-03 14:21:30.38	253.51	15.36	-43.1	-43.9	18.4	0.00e+00	0	54	0	1063256064	49	3830
2026-01-03 14:21:31.37	253.70	15.41	-43.2	-44.0	18.3	0.00e+00	0	55	0	1068498944	49	3876
2026-01-03 14:21:32.35	253.89	15.46	-42.8	-43.5	18.7	0.00e+00	0	54	0	1073741824	48	3907
2026-01-03 14:21:33.35	254.09	15.50	-42.6	-43.3	18.9	0.00e+00	0	54	0	1080033280	48	3810
2026-01-03 14:21:34.33	254.28	15.55	-42.5	-43.2	19.0	0.00e+00	0	54	0	1085276160	48	3776
2026-01-03 14:21:35.32	254.47	15.59	-42.6	-43.3	18.9	0.00e+00	0	54	0	1090519040	48	3820
2026-01-03 14:21:36.31	254.67	15.64	-42.7	-43.4	18.8	0.00e+00	0	54	0	1096810496	48	3860
2026-01-03 14:21:37.30	254.86	15.69	-42.7	-43.4	18.8	0.00e+00	0	54	0	1102053376	48	3854
2026-01-03 14:21:38.29	255.06	15.73	-42.7	-43.5	18.8	0.00e+00	0	54	0	1107296256	48	3871
2026-01-03 14:21:39.28	255.26	15.78	-42.9	-43.6	18.7	0.00e+00	0	55	0	1113587712	48	3940
2026-01-03 14:21:40.28	255.45	15.82	-43.0	-43.8	18.5	0.00e+00	0	54	0	1118830592	48	4026
2026-01-03 14:21:41.26	255.65	15.87	-42.7	-43.4	18.8	0.00e+00	0	55	0	1124073472	48	3862
2026-01-03 14:21:42.26	255.85	15.91	-42.5	-43.2	19.0	0.00e+00	0	55	0	1130364928	48	3774
2026-01-03 14:21:43.25	256.05	15.95	-42.4	-43.1	19.1	0.00e+00	0	55	0	1135607808	48	3720
2026-01-03 14:21:44.24	256.25	16.00	-42.5	-43.2	19.0	0.00e+00	0	55	0	1140850688	48	3772
2026-01-03 14:21:45.22	256.44	16.04	-42.6	-43.3	18.9	0.00e+00	0	55	0	1146093568	48	3795
2026-01-03 14:21:46.21	256.65	16.08	-42.7	-43.4	18.8	0.00e+00	0	55	0	1152385024	48	3850
2026-01-03 14:21:47.20	256.85	16.13	-42.7	-43.4	18.8	0.00e+00	0	55	0	1157627904	48	3860
2026-01-03 14:21:48.20	257.05	16.17	-42.8	-43.6	18.7	0.00e+00	0	55	0	1163919360	48	3920
2026-01-03 14:21:49.19	257.25	16.21	-42.9	-43.7	18.6	0.00e+00	0	55	0	1169162240	48	3980
2026-01-03 14:21:50.18	257.45	16.26	-42.7	-43.5	18.8	0.00e+00	0	55	0	1174405120	48	3885
2026-01-03 14:21:51.16	257.65	16.30	-42.9	-43.7	18.6	0.00e+00	0	55	0	1179648000	48	3978
2026-01-03 14:21:52.16	257.86	16.34	-42.8	-43.5	18.7	0.00e+00	0	55	0	1185939456	48	3907
2026-01-03 14:21:53.15	258.06	16.38	-42.7	-43.5	18.8	0.00e+00	0	55	0	1191182336	48	3886
2026-01-03 14:21:54.14	258.27	16.42	-42.7	-43.4	18.8	0.00e+00	0	55	0	1196425216	48	3862
2026-01-03 14:21:55.14	258.48	16.46	-42.6	-43.3	18.9	0.00e+00	0	55	0	1202716672	48	3821
2026-01-03 14:21:56.12	258.68	16.50	-42.6	-43.3	19.0	0.00e+00	0	55	0	1207959552	48	3807
2026-01-03 14:21:57.11	258.89	16.54	-42.3	-43.0	19.1	0.00e+00	0	55	0	1213202432	47	3881
2026-01-03 14:21:58.11	259.10	16.59	-42.2	-42.9	19.2	0.00e+00	0	55	0	1219493888	47	3860
2026-01-03 14:21:59.09	259.30	16.62	-42.3	-43.0	19.0	0.00e+00	0	55	0	1224736768	47	3909
2026-01-03 14:22:00.08	259.51	16.66	-42.3	-43.0	19.0	0.00e+00	0	55	0	1229979648	47	3909
2026-01-03 14:22:01.07	259.72	16.70	-42.4	-43.1	19.0	0.00e+00	0	55	0	1235222528	47	3940
2026-01-03 14:22:02.05	259.92	16.74	-42.6	-43.3	18.8	0.00e+00	0	55	0	1241513984	47	4050
2026-01-03 14:22:03.05	260.14	16.78	-42.5	-43.3	18.9	0.00e+00	0	55	0	1246756864	47	4005
2026-01-03 14:22:04.04	260.35	16.82	-42.7	-43.4	18.7	0.00e+00	0	55	0	1253048320	47	4085
2026-01-03 14:22:05.02	260.55	16.86	-42.4	-43.2	18.9	0.00e+00	0	55	0	1258291200	47	3972
2026-01-03 14:22:06.01	260.77	16.89	-42.3	-43.0	19.1	0.00e+00	0	55	0	1263534080	47	3890
2026-01-03 14:22:07.00	260.98	16.93	-42.2	-42.9	19.2	0.00e+00	0	55	0	1268776960	47	3868
2026-01-03 14:22:07.98	261.19	16.97	-42.2	-42.9	19.2	0.00e+00	0	55	0	1274019840	47	3847
2026-01-03 14:22:08.98	261.40	17.01	-42.3	-43.0	19.1	0.00e+00	0	55	0	1280311296	47	3900
2026-01-03 14:22:09.97	261.61	17.04	-42.3	-43.0	19.1	0.00e+00	0	55	0	1285554176	47	3888
2026-01-03 14:22:10.96	261.83	17.08	-42.3	-43.0	19.1	0.00e+00	0	55	0	1291845632	47	3907
2026-01-03 14:22:11.94	262.04	17.11	-42.3	-43.0	19.1	0.00e+00	0	55	0	1297088512	47	3906
2026-01-03 14:22:12.94	262.26	17.15	-42.5	-43.2	18.9	0.00e+00	0	55	0	1302331392	47	3975
2026-01-03 14:22:13.92	262.47	17.18	-42.7	-43.5	18.7	0.00e+00	0	55	0	1307574272	47	4102
2026-01-03 14:22:14.92	262.69	17.22	-42.4	-43.1	19.0	0.00e+00	0	55	0	1313865728	47	3944
2026-01-03 14:22:15.91	262.90	17.25	-42.5	-43.2	18.9	0.00e+00	0	55	0	1319108608	47	3986
2026-01-03 14:22:16.90	263.12	17.29	-42.4	-43.1	19.0	0.00e+00	0	55	0	1324351488	47	3941
2026-01-03 14:22:17.90	263.34	17.32	-42.3	-43.0	19.1	0.00e+00	0	55	0	1330642944	47	3910
2026-01-03 14:22:18.90	263.56	17.36	-42.4	-43.1	19.0	0.00e+00	0	55	0	1335885824	47	3937
2026-01-03 14:22:19.89	263.78	17.39	-42.6	-43.3	18.8	0.00e+00	0	55	0	1342177280	47	4026
2026-01-03 14:22:20.88	263.99	17.42	-42.4	-43.1	19.0	0.00e+00	0	55	0	1347420160	47	3940
2026-01-03 14:22:21.87	264.21	17.45	-42.2	-42.9	19.2	0.00e+00	0	55	0	1352663040	47	3829
2026-01-03 14:22:22.86	264.43	17.49	-41.9	-42.6	19.5	0.00e+00	0	55	0	1357905920	47	3722
2026-01-03 14:22:23.85	264.65	17.52	-41.9	-42.5	19.6	0.00e+00	0	55	0	1364197376	46	3902
2026-01-03 14:22:24.84	264.87	17.55	-41.9	-42.6	19.5	0.00e+00	0	55	0	1369440256	46	3926
2026-01-03 14:22:25.83	265.09	17.58	-42.1	-42.8	19.4	0.00e+00	0	55	0	1374683136	46	4011
2026-01-03 14:22:26.82	265.31	17.61	-42.1	-42.8	19.3	0.00e+00	0	55	0	1380974592	46	4009
2026-01-03 14:22:27.81	265.54	17.64	-42.2	-42.9	19.2	0.00e+00	0	55	0	1386217472	46	4065
2026-01-03 14:22:28.79	265.75	17.67	-42.3	-43.0	19.1	0.00e+00	0	55	0	1391460352	46	4144
2026-01-03 14:22:29.79	265.98	17.70	-42.3	-43.0	19.1	0.00e+00	0	55	0	1397751808	46	4132
2026-01-03 14:22:30.77	266.20	17.73	-42.3	-43.0	19.1	0.00e+00	0	55	0	1402994688	46	4138
2026-01-03 14:22:31.76	266.42	17.76	-42.5	-43.3	18.9	0.00e+00	0	55	0	1408237568	46	4246
2026-01-03 14:22:32.75	266.65	17.79	-42.4	-43.1	19.0	0.00e+00	0	55	0	1414529024	47	3926
2026-01-03 14:22:33.74	266.87	17.81	-42.1	-42.9	19.3	0.00e+00	0	55	0	1419771904	47	3828
2026-01-03 14:22:34.73	267.09	17.84	-42.0	-42.8	19.4	0.00e+00	0	55	0	1425014784	47	3783
2026-01-03 14:22:35.71	267.32	17.87	-42.1	-42.7	19.4	0.00e+00	0	55	0	1430257664	47	3778
2026-01-03 14:22:36.70	267.54	17.90	-42.2	-42.9	19.2	0.00e+00	0	55	0	1436549120	47	3855
2026-01-03 14:22:37.69	267.77	17.92	-42.1	-42.8	19.3	0.00e+00	0	55	0	1441792000	47	3816
2026-01-03 14:22:38.68	267.99	17.95	-42.0	-42.7	19.4	0.00e+00	0	55	0	1447034880	47	3743
2026-01-03 14:22:39.67	268.22	17.97	-42.0	-42.7	19.4	0.00e+00	0	55	0	1453326336	47	3746
2026-01-03 14:22:40.66	268.45	18.00	-42.0	-42.7	19.4	0.00e+00	0	55	0	1458569216	47	3754
2026-01-03 14:22:41.65	268.67	18.02	-42.1	-42.8	19.3	0.00e+00	0	55	0	1463812096	47	3815
2026-01-03 14:22:42.64	268.90	18.05	-42.1	-42.8	19.3	0.00e+00	0	55	0	1470103552	47	3823
2026-01-03 14:22:43.63	269.13	18.07	-42.2	-42.9	19.3	0.00e+00	0	55	0	1475346432	47	3846
2026-01-03 14:22:44.62	269.36	18.09	-42.1	-42.8	19.3	0.00e+00	0	55	0	1480589312	47	3820
2026-01-03 14:22:45.62	269.59	18.12	-42.1	-42.8	19.3	0.00e+00	0	55	0	1485832192	47	3803
2026-01-03 14:22:46.60	269.81	18.14	-42.1	-42.9	19.2	0.00e+00	0	55	0	1492123648	47	3840
2026-01-03 14:22:47.59	270.04	18.16	-42.1	-42.8	19.3	0.00e+00	0	55	0	1497366528	47	3800
2026-01-03 14:22:48.58	270.27	18.18	-42.0	-42.7	19.4	0.00e+00	0	55	0	1502609408	47	3776
2026-01-03 14:22:49.57	270.50	18.21	-42.3	-43.0	19.2	0.00e+00	0	55	0	1508900864	47	3880
2026-01-03 14:22:50.56	270.73	18.23	-42.2	-42.9	19.2	0.00e+00	0	55	0	1514143744	47	3850
2026-01-03 14:22:51.56	270.96	18.25	-42.0	-42.7	19.4	0.00e+00	0	56	0	1519386624	47	3761
2026-01-03 14:22:52.55	271.19	18.27	-41.9	-42.6	19.5	0.00e+00	0	55	0	1525678080	47	3711
2026-01-03 14:22:53.54	271.43	18.29	-42.0	-42.7	19.5	0.00e+00	0	55	0	1530920960	46	3967
2026-01-03 14:22:54.53	271.66	18.31	-42.0	-42.7	19.5	0.00e+00	0	55	0	1536163840	46	3972
2026-01-03 14:22:55.52	271.89	18.33	-41.9	-42.6	19.5	0.00e+00	0	55	0	1542455296	46	3925
2026-01-03 14:22:56.51	272.12	18.34	-41.9	-42.5	19.6	0.00e+00	0	55	0	1547698176	46	3909
2026-01-03 14:22:57.50	272.35	18.36	-41.9	-42.5	19.6	0.00e+00	0	55	0	1552941056	46	3908
2026-01-03 14:22:58.49	272.58	18.38	-42.0	-42.7	19.4	0.00e+00	0	55	0	1559232512	46	3986
2026-01-03 14:22:59.48	272.82	18.40	-42.1	-42.8	19.3	0.00e+00	0	55	0	1564475392	46	4037
2026-01-03 14:23:00.48	273.05	18.41	-42.0	-42.7	19.4	0.00e+00	0	55	0	1569718272	46	3973
2026-01-03 14:23:01.47	273.28	18.43	-41.9	-42.6	19.5	0.00e+00	0	55	0	1574961152	46	3950
2026-01-03 14:23:02.45	273.51	18.44	-41.9	-42.6	19.5	0.00e+00	0	56	0	1581252608	46	3920
2026-01-03 14:23:03.44	273.75	18.46	-41.8	-42.5	19.6	0.00e+00	0	56	0	1586495488	46	3869
2026-01-03 14:23:04.43	273.98	18.47	-41.7	-42.3	19.8	0.00e+00	0	56	0	1591738368	46	3810
2026-01-03 14:23:05.40	274.21	18.49	-41.6	-42.3	19.8	0.00e+00	0	56	0	1598029824	46	3805
2026-01-03 14:23:06.39	274.44	18.50	-41.8	-42.4	19.7	0.00e+00	0	56	0	1603272704	46	3866
2026-01-03 14:23:07.38	274.68	18.52	-41.8	-42.5	19.7	0.00e+00	0	56	0	1608515584	46	3874
2026-01-03 14:23:08.37	274.91	18.53	-41.9	-42.6	19.5	0.00e+00	0	56	0	1613758464	46	3936
2026-01-03 14:23:09.36	275.15	18.54	-41.8	-42.5	19.6	0.00e+00	0	56	0	1620049920	46	3881
2026-01-03 14:23:10.36	275.39	18.55	-41.9	-42.6	19.5	0.00e+00	0	56	0	1625292800	46	3939
2026-01-03 14:23:11.34	275.62	18.57	-42.0	-42.7	19.5	0.00e+00	0	55	0	1631584256	46	3980
2026-01-03 14:23:12.34	275.86	18.58	-41.9	-42.6	19.6	0.00e+00	0	56	0	1636827136	46	3918
2026-01-03 14:23:13.33	276.09	18.59	-41.8	-42.5	19.6	0.00e+00	0	56	0	1642070016	46	3906
2026-01-03 14:23:14.31	276.32	18.60	-41.9	-42.6	19.5	0.00e+00	0	55	0	1647312896	46	3914
2026-01-03 14:23:15.30	276.56	18.61	-41.8	-42.5	19.6	0.00e+00	0	55	0	1653604352	46	3873
2026-01-03 14:23:16.29	276.80	18.62	-41.8	-42.4	19.7	0.00e+00	0	56	0	1658847232	46	3857
2026-01-03 14:23:17.29	277.03	18.63	-41.8	-42.5	19.6	0.00e+00	0	56	0	1664090112	46	3896
2026-01-03 14:23:18.28	277.27	18.63	-41.9	-42.6	19.5	0.00e+00	0	56	0	1670381568	46	3941
2026-01-03 14:23:19.27	277.51	18.64	-41.9	-42.6	19.6	0.00e+00	0	56	0	1675624448	46	3916
2026-01-03 14:23:20.26	277.74	18.65	-42.1	-42.8	19.3	0.00e+00	0	56	0	1680867328	46	4030
2026-01-03 14:23:21.25	277.98	18.66	-42.3	-43.0	19.1	0.00e+00	0	56	0	1687158784	46	4124
2026-01-03 14:23:22.24	278.21	18.66	-42.3	-43.0	19.2	0.00e+00	0	56	0	1692401664	46	4106
2026-01-03 14:23:23.22	278.45	18.67	-42.3	-43.1	19.1	0.00e+00	0	56	0	1697644544	46	4152
2026-01-03 14:23:24.22	278.69	18.67	-42.5	-43.2	18.9	0.00e+00	0	56	0	1703936000	46	4237
2026-01-03 14:23:25.21	278.92	18.68	-42.2	-43.0	19.2	0.00e+00	0	56	0	1709178880	46	4104
2026-01-03 14:23:26.20	279.16	18.68	-42.2	-42.9	19.2	0.00e+00	0	56	0	1714421760	46	4072
2026-01-03 14:23:27.19	279.40	18.69	-42.4	-43.1	19.0	0.00e+00	0	56	0	1720713216	46	4170
2026-01-03 14:23:28.17	279.63	18.69	-42.7	-43.4	18.7	0.00e+00	0	56	0	1725956096	47	4074
2026-01-03 14:23:29.15	279.87	18.69	-42.3	-43.0	19.2	0.00e+00	0	56	0	1731198976	47	3872
2026-01-03 14:23:30.13	280.10	18.70	-42.0	-42.7	19.4	0.00e+00	0	56	0	1736441856	47	3762
2026-01-03 14:23:31.12	280.34	18.70	-41.9	-42.6	19.5	0.00e+00	0	56	0	1742733312	47	3727
2026-01-03 14:23:32.11	280.58	18.70	-42.2	-42.8	19.3	0.00e+00	0	56	0	1747976192	47	3823
2026-01-03 14:23:33.11	280.82	18.70	-42.4	-43.2	18.9	0.00e+00	0	56	0	1753219072	47	3975
2026-01-03 14:23:34.10	281.05	18.70	-42.4	-43.2	18.9	0.00e+00	0	56	0	1759510528	47	3964
2026-01-03 14:23:35.09	281.29	18.70	-42.7	-43.5	18.6	0.00e+00	0	56	0	1764753408	47	4111
2026-01-03 14:23:36.07	281.52	18.70	-42.8	-43.6	18.6	0.00e+00	0	56	0	1769996288	47	4147
2026-01-03 14:23:37.06	281.76	18.70	-43.3	-44.1	18.1	0.00e+00	0	56	0	1775239168	48	4192
2026-01-03 14:23:38.06	282.00	18.70	-43.3	-44.1	18.1	0.00e+00	0	56	0	1781530624	48	4180
2026-01-03 14:23:39.05	282.24	18.70	-43.8	-44.6	17.5	0.00e+00	0	56	0	1786773504	49	4190
2026-01-03 14:23:40.04	282.47	18.70	-43.7	-44.6	17.6	0.00e+00	0	56	0	1793064960	49	4170
2026-01-03 14:23:41.02	282.71	18.69	-44.4	-45.4	16.7	0.00e+00	0	56	0	1798307840	50	4327
2026-01-03 14:23:42.02	282.95	18.69	-44.4	-45.4	16.6	0.00e+00	0	56	0	1803550720	50	4338
2026-01-03 14:23:43.02	283.19	18.69	-45.1	-46.3	15.6	0.00e+00	0	56	0	1808793600	52	4282
2026-01-03 14:23:44.00	283.42	18.68	-45.0	-46.2	15.6	0.00e+00	0	56	0	1815085056	52	4208
2026-01-03 14:23:44.98	283.66	18.68	-45.8	-47.1	14.6	0.00e+00	0	56	0	1820327936	53	4428
2026-01-03 14:23:45.98	283.90	18.67	-45.6	-47.0	14.7	0.00e+00	0	56	0	1825570816	53	4346
2026-01-03 14:23:46.96	284.13	18.67	-45.8	-47.2	14.5	3.40e-06	0	56	0	1831862272	53	4446
2026-01-03 14:23:47.95	284.37	18.66	-46.2	-47.7	13.8	4.50e-06	0	56	0	1837105152	54	4469
2026-01-03 14:23:48.94	284.60	18.66	-46.5	-48.1	13.4	1.94e-05	0	56	0	1842348032	54	4655
2026-01-03 14:23:49.92	284.84	18.65	-46.8	-48.6	12.7	8.81e-05	0	56	0	1847590912	55	4705
2026-01-03 14:23:50.92	285.07	18.64	-47.4	-49.4	11.9	3.35e-04	0	56	0	1853882368	56	4827
2026-01-03 14:23:51.92	285.31	18.64	-47.8	-50.1	11.1	1.67e-03	0	56	0	1859125248	57	4928
2026-01-03 14:23:52.91	285.55	18.63	-48.5	-51.4	9.6	8.67e-03	0	56	0	1864368128	58	5455
2026-01-03 14:23:53.90	285.78	18.62	-48.6	-51.6	9.4	1.86e-02	0	56	0	1870659584	59	5219
2026-01-03 14:23:54.89	286.02	18.61	-49.1	-52.5	8.4	3.79e-02	0	56	0	1875902464	59	5789
2026-01-03 14:23:55.89	286.26	18.60	-48.9	-52.2	8.6	5.17e-02	0	56	0	1882193920	60	5305
2026-01-03 14:23:56.88	286.49	18.59	-48.7	-51.9	8.9	3.59e-02	0	56	0	1887436800	60	5150
2026-01-03 14:23:57.87	286.73	18.58	-48.6	-51.8	9.1	3.00e-02	0	56	0	1892679680	60	5051
2026-01-03 14:23:58.85	286.96	18.57	-48.5	-51.6	9.2	2.54e-02	0	56	0	1897922560	60	4974
2026-01-03 14:23:59.85	287.20	18.56	-48.6	-51.7	9.1	2.69e-02	0	56	0	1904214016	60	5041
2026-01-03 14:24:00.84	287.43	18.54	-48.6	-51.8	9.1	2.91e-02	0	56	0	1909456896	60	5050
2026-01-03 14:24:01.83	287.67	18.53	-48.8	-52.1	8.8	3.68e-02	0	56	0	1914699776	60	5257
2026-01-03 14:24:02.82	287.90	18.52	-48.6	-51.6	9.2	3.11e-02	0	56	0	1920991232	60	4948
2026-01-03 14:24:03.81	288.14	18.51	-48.3	-51.1	9.8	1.35e-02	0	56	0	1926234112	59	4933
2026-01-03 14:24:04.80	288.37	18.49	-48.1	-50.7	10.2	8.64e-03	0	56	0	1931476992	59	4730
2026-01-03 14:24:05.79	288.60	18.48	-48.0	-50.6	10.3	7.68e-03	0	56	0	1937768448	59	4653
2026-01-03 14:24:06.78	288.84	18.46	-48.0	-50.6	10.2	7.36e-03	0	56	0	1943011328	59	4672
2026-01-03 14:24:07.77	289.07	18.45	-48.0	-50.6	10.2	7.96e-03	0	56	0	1948254208	59	4687
2026-01-03 14:24:08.75	289.30	18.43	-48.0	-50.7	10.2	7.94e-03	0	56	0	1953497088	59	4717
2026-01-03 14:24:09.74	289.53	18.42	-48.1	-50.7	10.1	8.63e-03	0	56	0	1959788544	59	4759
2026-01-03 14:24:10.73	289.77	18.40	-48.0	-50.7	10.2	9.18e-03	0	56	0	1965031424	59	4723
2026-01-03 14:24:11.72	290.00	18.38	-47.9	-50.5	10.4	6.04e-03	0	56	0	1970274304	58	4882
2026-01-03 14:24:12.71	290.23	18.37	-47.6	-49.9	11.1	3.18e-03	0	56	0	1976565760	58	4549
2026-01-03 14:24:13.70	290.46	18.35	-47.0	-49.0	12.2	5.21e-04	0	56	0	1981808640	57	4351
2026-01-03 14:24:14.69	290.69	18.33	-46.3	-48.0	13.2	5.83e-05	0	56	0	1987051520	55	4341
2026-01-03 14:24:15.68	290.92	18.31	-45.7	-47.2	14.1	1.02e-05	0	56	0	1993342976	54	4207
2026-01-03 14:24:16.67	291.16	18.29	-45.3	-46.6	14.9	0.00e+00	0	56	0	1998585856	53	4165
2026-01-03 14:24:17.66	291.39	18.27	-45.1	-46.3	15.4	0.00e+00	0	56	0	2003828736	53	4026
2026-01-03 14:24:18.65	291.62	18.25	-45.1	-46.4	15.5	0.00e+00	0	56	0	2010120192	53	4056
2026-01-03 14:24:19.63	291.84	18.23	-45.1	-46.2	15.7	0.00e+00	0	56	0	2015363072	53	3999
2026-01-03 14:24:20.62	292.07	18.21	-44.7	-45.7	16.3	0.00e+00	0	56	0	2020605952	52	3991
2026-01-03 14:24:21.61	292.30	18.19	-44.5	-45.4	16.7	0.00e+00	0	56	0	2025848832	51	4098
2026-01-03 14:24:22.60	292.53	18.17	-44.2	-45.2	17.0	0.00e+00	0	56	0	2032140288	51	3981
2026-01-03 14:24:23.59	292.76	18.15	-44.1	-45.1	17.2	0.00e+00	0	56	0	2037383168	51	3921
2026-01-03 14:24:24.59	292.99	18.12	-44.1	-45.0	17.2	0.00e+00	0	56	0	2043674624	51	3901
2026-01-03 14:24:25.58	293.22	18.10	-44.0	-44.9	17.4	0.00e+00	0	56	0	2048917504	51	3856
2026-01-03 14:24:26.57	293.45	18.08	-43.7	-44.6	17.7	0.00e+00	0	56	0	2054160384	50	3925
2026-01-03 14:24:27.56	293.67	18.05	-43.3	-44.1	18.2	0.00e+00	0	56	0	2059403264	49	3951
2026-01-03 14:24:28.54	293.90	18.03	-43.0	-43.7	18.6	0.00e+00	0	56	0	2065694720	49	3772
2026-01-03 14:24:29.52	294.12	18.01	-42.7	-43.4	18.8	0.00e+00	0	56	0	2070937600	48	3855
2026-01-03 14:24:30.51	294.35	17.98	-42.4	-43.2	19.1	0.00e+00	0	56	0	2076180480	48	3740
2026-01-03 14:24:31.50	294.58	17.96	-42.1	-42.9	19.2	0.00e+00	0	56	0	2082471936	47	3825
2026-01-03 14:24:32.49	294.80	17.93	-42.2	-42.9	19.2	0.00e+00	0	56	0	2087714816	47	3827
2026-01-03 14:24:33.47	295.02	17.90	-42.2	-42.9	19.2	0.00e+00	0	56	0	2092957696	47	3846
2026-01-03 14:24:34.47	295.25	17.88	-42.2	-42.9	19.2	0.00e+00	0	56	0	2098200576	47	3848
2026-01-03 14:24:35.46	295.48	17.85	-42.3	-43.0	19.1	0.00e+00	0	56	0	2104492032	47	3878
2026-01-03 14:24:36.45	295.70	17.82	-42.4	-43.2	18.9	0.00e+00	0	56	0	2109734912	47	3976
2026-01-03 14:24:37.44	295.92	17.80	-42.5	-43.3	18.8	0.00e+00	0	56	0	2114977792	47	4009
2026-01-03 14:24:38.43	296.15	17.77	-42.4	-43.1	19.0	0.00e+00	0	56	0	2121269248	47	3933
2026-01-03 14:24:39.41	296.37	17.74	-42.3	-43.0	19.1	0.00e+00	0	56	0	2126512128	47	3909
2026-01-03 14:24:40.41	296.59	17.71	-42.3	-43.0	19.1	0.00e+00	0	56	0	2131755008	47	3897
2026-01-03 14:24:41.39	296.81	17.68	-42.3	-43.0	19.1	0.00e+00	0	56	0	2138046464	47	3904
2026-01-03 14:24:42.38	297.03	17.65	-42.4	-43.2	19.0	0.00e+00	0	56	0	2143289344	47	3959
2026-01-03 14:24:43.37	297.25	17.62	-42.5	-43.2	18.9	0.00e+00	0	56	0	2148532224	47	3990
2026-01-03 14:24:44.36	297.47	17.59	-42.2	-42.9	19.2	0.00e+00	0	56	0	2153775104	47	3863
2026-01-03 14:24:45.34	297.69	17.56	-42.2	-42.9	19.2	0.00e+00	0	56	0	2160066560	47	3829
2026-01-03 14:24:46.34	297.91	17.53	-42.2	-42.9	19.2	0.00e+00	0	56	0	2165309440	47	3832
2026-01-03 14:24:47.32	298.13	17.50	-42.2	-42.9	19.2	0.00e+00	0	56	0	2170552320	47	3856
2026-01-03 14:24:48.31	298.35	17.47	-42.2	-42.9	19.2	0.00e+00	0	56	0	2176843776	47	3834
2026-01-03 14:24:49.30	298.57	17.43	-42.2	-42.9	19.2	0.00e+00	0	56	0	2182086656	47	3866
2026-01-03 14:24:50.29	298.79	17.40	-42.4	-43.1	19.0	0.00e+00	0	56	0	2187329536	47	3936
2026-01-03 14:24:51.28	299.00	17.37	-42.6	-43.4	18.8	0.00e+00	0	56	0	2192572416	47	4053
2026-01-03 14:24:52.27	299.22	17.33	-42.4	-43.2	18.9	0.00e+00	0	56	0	2198863872	47	3970
2026-01-03 14:24:53.26	299.44	17.30	-42.4	-43.1	19.0	0.00e+00	0	56	0	2204106752	47	3939
2026-01-03 14:24:54.25	299.65	17.27	-42.4	-43.1	19.0	0.00e+00	0	56	0	2210398208	47	3944
2026-01-03 14:24:55.23	299.87	17.23	-42.5	-43.2	18.9	0.00e+00	0	56	0	2215641088	47	3986
2026-01-03 14:24:56.23	300.08	17.20	-42.5	-43.3	18.8	0.00e+00	0	56	0	2220883968	47	4029
2026-01-03 14:24:57.22	300.30	17.16	-42.4	-43.2	19.0	0.00e+00	0	56	0	2226126848	47	3965
2026-01-03 14:24:58.21	300.51	17.13	-42.4	-43.1	19.0	0.00e+00	0	56	0	2232418304	47	3915
2026-01-03 14:24:59.20	300.73	17.09	-42.4	-43.1	19.0	0.00e+00	0	56	0	2237661184	47	3949
2026-01-03 14:25:00.19	300.94	17.06	-42.5	-43.2	18.9	0.00e+00	0	56	0	2242904064	47	3991
2026-01-03 14:25:01.18	301.15	17.02	-42.4	-43.1	19.0	0.00e+00	0	56	0	2249195520	47	3947
2026-01-03 14:25:02.17	301.37	16.98	-42.4	-43.1	19.0	0.00e+00	0	56	0	2254438400	47	3941
2026-01-03 14:25:03.16	301.58	16.95	-42.5	-43.2	18.9	0.00e+00	0	56	0	2259681280	47	3995
2026-01-03 14:25:04.15	301.79	16.91	-42.4	-43.2	18.9	0.00e+00	0	56	0	2265972736	47	3973
2026-01-03 14:25:05.14	302.00	16.87	-42.5	-43.3	18.8	0.00e+00	0	57	0	2271215616	47	4014
2026-01-03 14:25:06.13	302.21	16.83	-42.6	-43.4	18.7	0.00e+00	0	56	0	2276458496	47	4077
2026-01-03 14:25:07.11	302.42	16.80	-42.6	-43.3	18.8	0.00e+00	0	56	0	2282749952	47	4051
2026-01-03 14:25:08.10	302.63	16.76	-42.8	-43.6	18.5	0.00e+00	0	56	0	2287992832	47	4160
2026-01-03 14:25:09.10	302.84	16.72	-43.0	-43.8	18.3	0.00e+00	0	56	0	2293235712	47	4289
2026-01-03 14:25:10.09	303.04	16.68	-42.8	-43.5	18.6	0.00e+00	0	56	0	2299527168	47	4144
2026-01-03 14:25:11.08	303.25	16.64	-42.7	-43.4	18.7	0.00e+00	0	56	0	2304770048	47	4086
2026-01-03 14:25:12.08	303.46	16.60	-42.9	-43.7	18.5	0.00e+00	0	56	0	2310012928	47	4203
2026-01-03 14:25:13.07	303.67	16.56	-43.4	-44.2	18.1	0.00e+00	0	56	0	2315255808	48	4201
2026-01-03 14:25:14.07	303.88	16.52	-43.1	-43.9	18.4	0.00e+00	0	56	0	2321547264	48	4064
2026-01-03 14:25:15.06	304.08	16.48	-43.1	-43.9	18.4	0.00e+00	0	56	0	2326790144	48	4089
2026-01-03 14:25:16.06	304.29	16.44	-43.1	-43.9	18.4	0.00e+00	0	56	0	2333081600	48	4093
2026-01-03 14:25:17.05	304.49	16.40	-43.2	-44.0	18.3	0.00e+00	0	56	0	2338324480	48	4120
2026-01-03 14:25:18.03	304.69	16.36	-43.3	-44.1	18.2	0.00e+00	0	56	0	2343567360	48	4192
2026-01-03 14:25:19.02	304.90	16.32	-43.6	-44.4	17.9	0.00e+00	0	56	0	2348810240	48	4319
2026-01-03 14:25:20.02	305.10	16.27	-43.3	-44.2	18.1	0.00e+00	0	56	0	2355101696	48	4195
2026-01-03 14:25:21.00	305.30	16.23	-43.2	-44.0	18.3	0.00e+00	0	56	0	2360344576	48	4137
2026-01-03 14:25:22.00	305.50	16.19	-43.2	-44.0	18.3	0.00e+00	0	56	0	2365587456	48	4131
2026-01-03 14:25:22.99	305.71	16.15	-43.3	-44.1	18.2	0.00e+00	0	56	0	2371878912	48	4177
2026-01-03 14:25:23.98	305.91	16.10	-43.5	-44.3	18.0	0.00e+00	0	56	0	2377121792	48	4271
2026-01-03 14:25:24.97	306.11	16.06	-43.4	-44.2	18.1	0.00e+00	0	56	0	2382364672	48	4233
2026-01-03 14:25:25.97	306.31	16.02	-43.5	-44.4	17.9	0.00e+00	0	57	0	2388656128	48	4298
2026-01-03 14:25:26.96	306.51	15.97	-43.7	-44.6	17.7	0.00e+00	0	56	0	2393899008	49	4151
2026-01-03 14:25:27.94	306.70	15.93	-43.4	-44.2	18.0	0.00e+00	0	56	0	2399141888	49	3993
2026-01-03 14:25:28.93	306.90	15.89	-43.2	-44.0	18.3	0.00e+00	0	57	0	2404384768	49	3885
2026-01-03 14:25:29.91	307.09	15.84	-43.0	-43.8	18.5	0.00e+00	0	56	0	2410676224	49	3803
2026-01-03 14:25:30.90	307.29	15.80	-43.0	-43.7	18.5	0.00e+00	0	56	0	2415919104	49	3774
2026-01-03 14:25:31.88	307.49	15.75	-43.0	-43.8	18.4	0.00e+00	0	56	0	2421161984	49	3815
2026-01-03 14:25:32.87	307.68	15.71	-43.0	-43.8	18.5	0.00e+00	0	56	0	2427453440	49	3793
2026-01-03 14:25:33.86	307.88	15.66	-43.2	-44.0	18.2	0.00e+00	0	57	0	2432696320	49	3908
2026-01-03 14:25:34.85	308.07	15.62	-43.1	-43.8	18.4	0.00e+00	0	56	0	2437939200	49	3823
2026-01-03 14:25:35.84	308.26	15.57	-42.8	-43.6	18.6	0.00e+00	0	56	0	2444230656	48	3937
2026-01-03 14:25:36.83	308.46	15.53	-42.7	-43.5	18.8	0.00e+00	0	56	0	2449473536	48	3890
2026-01-03 14:25:37.82	308.65	15.48	-42.8	-43.5	18.7	0.00e+00	0	56	0	2454716416	48	3910
2026-01-03 14:25:38.81	308.84	15.43	-43.0	-43.8	18.5	0.00e+00	0	56	0	2461007872	48	4021
2026-01-03 14:25:39.80	309.03	15.39	-43.0	-43.7	18.5	0.00e+00	0	56	0	2466250752	48	3998
2026-01-03 14:25:40.79	309.22	15.34	-43.0	-43.8	18.5	0.00e+00	0	57	0	2471493632	48	4020
2026-01-03 14:25:41.79	309.41	15.29	-43.2	-44.0	18.3	0.00e+00	0	56	0	2477785088	48	4124
2026-01-03 14:25:42.77	309.60	15.25	-43.1	-43.9	18.3	0.00e+00	0	56	0	2483027968	48	4078
2026-01-03 14:25:43.77	309.79	15.20	-43.0	-43.8	18.4	0.00e+00	0	56	0	2488270848	48	4037
2026-01-03 14:25:44.76	309.98	15.15	-43.0	-43.8	18.4	0.00e+00	0	56	0	2493513728	48	4040
2026-01-03 14:25:45.75	310.17	15.10	-43.0	-43.8	18.5	0.00e+00	0	56	0	2499805184	48	4010
2026-01-03 14:25:46.74	310.36	15.06	-42.9	-43.7	18.6	0.00e+00	0	56	0	2505048064	48	3985
2026-01-03 14:25:47.73	310.54	15.01	-42.9	-43.7	18.5	0.00e+00	0	57	0	2510290944	48	3993
2026-01-03 14:25:48.72	310.73	14.96	-43.1	-43.9	18.4	0.00e+00	0	56	0	2516582400	48	4063
2026-01-03 14:25:49.71	310.91	14.91	-43.1	-43.9	18.4	0.00e+00	0	57	0	2521825280	48	4071
2026-01-03 14:25:50.70	311.10	14.86	-43.0	-43.8	18.4	0.00e+00	0	57	0	2527068160	48	4039
2026-01-03 14:25:51.69	311.28	14.81	-43.2	-44.0	18.3	0.00e+00	0	56	0	2533359616	48	4100
2026-01-03 14:25:52.68	311.47	14.76	-43.3	-44.1	18.1	0.00e+00	0	56	0	2538602496	48	4186
2026-01-03 14:25:53.67	311.65	14.72	-43.4	-44.2	18.1	0.00e+00	0	56	0	2543845376	48	4206
2026-01-03 14:25:54.67	311.83	14.67	-43.3	-44.1	18.1	0.00e+00	0	57	0	2550136832	48	4189
2026-01-03 14:25:55.66	312.02	14.62	-43.3	-44.2	18.1	0.00e+00	0	57	0	2555379712	48	4194
2026-01-03 14:25:56.65	312.20	14.57	-43.3	-44.1	18.1	0.00e+00	0	57	0	2560622592	48	4188
2026-01-03 14:25:57.65	312.38	14.52	-43.4	-44.2	18.1	0.00e+00	0	57	0	2566914048	48	4223
2026-01-03 14:25:58.63	312.56	14.47	-43.4	-44.2	18.0	0.00e+00	0	57	0	2572156928	48	4231
2026-01-03 14:25:59.62	312.74	14.42	-43.6	-44.5	17.8	0.00e+00	0	57	0	2577399808	49	4111
2026-01-03 14:26:00.61	312.92	14.37	-43.6	-44.4	17.8	0.00e+00	0	56	0	2582642688	49	4070
2026-01-03 14:26:01.60	313.10	14.32	-43.4	-44.2	18.1	0.00e+00	0	56	0	2588934144	49	3960
2026-01-03 14:26:02.59	313.27	14.27	-43.2	-44.0	18.2	0.00e+00	0	56	0	2594177024	49	3899
2026-01-03 14:26:03.59	313.45	14.21	-43.2	-44.0	18.2	0.00e+00	0	56	0	2600468480	49	3886
2026-01-03 14:26:04.58	313.63	14.16	-43.3	-44.1	18.1	0.00e+00	0	56	0	2605711360	49	3948
2026-01-03 14:26:05.58	313.81	14.11	-43.4	-44.2	18.0	0.00e+00	0	57	0	2610954240	49	3991
2026-01-03 14:26:06.57	313.98	14.06	-43.5	-44.4	17.9	0.00e+00	0	56	0	2616197120	49	4062
2026-01-03 14:26:07.56	314.16	14.01	-43.5	-44.4	17.8	0.00e+00	0	56	0	2622488576	49	4061
2026-01-03 14:26:08.54	314.33	13.96	-43.6	-44.5	17.7	0.00e+00	0	57	0	2627731456	49	4112
2026-01-03 14:26:09.53	314.50	13.91	-43.7	-44.5	17.7	0.00e+00	0	57	0	2632974336	49	4145
2026-01-03 14:26:10.52	314.68	13.86	-43.8	-44.7	17.5	0.00e+00	0	57	0	2639265792	49	4235
2026-01-03 14:26:11.51	314.85	13.80	-43.9	-44.8	17.4	0.00e+00	0	56	0	2644508672	49	4261
2026-01-03 14:26:12.50	315.02	13.75	-43.9	-44.8	17.4	0.00e+00	0	57	0	2649751552	49	4248
2026-01-03 14:26:13.49	315.19	13.70	-43.9	-44.8	17.4	0.00e+00	0	56	0	2656043008	49	4290
2026-01-03 14:26:14.47	315.36	13.65	-43.9	-44.7	17.5	0.00e+00	0	56	0	2661285888	49	4231
2026-01-03 14:26:15.46	315.53	13.60	-43.9	-44.8	17.5	0.00e+00	0	56	0	2666528768	49	4248
2026-01-03 14:26:16.44	315.70	13.54	-43.9	-44.8	17.4	0.00e+00	0	57	0	2672820224	49	4261
2026-01-03 14:26:17.43	315.87	13.49	-44.0	-44.8	17.3	0.00e+00	0	57	0	2678063104	49	4288
2026-01-03 14:26:18.41	316.03	13.44	-43.8	-44.7	17.5	0.00e+00	0	56	0	2683305984	49	4204
2026-01-03 14:26:19.40	316.20	13.39	-43.8	-44.6	17.5	0.00e+00	0	57	0	2688548864	49	4187
2026-01-03 14:26:20.38	316.37	13.33	-43.9	-44.8	17.3	0.00e+00	0	57	0	2693791744	49	4285
2026-01-03 14:26:21.37	316.53	13.28	-44.0	-44.9	17.3	0.00e+00	0	56	0	2700083200	50	4089
2026-01-03 14:26:22.36	316.70	13.23	-44.0	-44.9	17.4	0.00e+00	0	57	0	2705326080	50	4061
2026-01-03 14:26:23.35	316.87	13.18	-44.0	-44.9	17.3	0.00e+00	0	57	0	2711617536	50	4073
2026-01-03 14:26:24.34	317.03	13.12	-44.0	-44.9	17.3	0.00e+00	0	57	0	2716860416	50	4071
2026-01-03 14:26:25.34	317.20	13.07	-43.8	-44.7	17.5	0.00e+00	0	57	0	2722103296	50	4002
2026-01-03 14:26:26.32	317.36	13.02	-43.8	-44.7	17.5	0.00e+00	0	57	0	2727346176	50	3989
2026-01-03 14:26:27.32	317.52	12.96	-43.8	-44.7	17.5	0.00e+00	0	57	0	2733637632	50	3975
2026-01-03 14:26:28.31	317.69	12.91	-43.9	-44.8	17.3	0.00e+00	0	57	0	2738880512	50	4038
2026-01-03 14:26:29.29	317.85	12.85	-44.0	-44.9	17.3	0.00e+00	0	57	0	2744123392	50	4064
2026-01-03 14:26:30.28	318.01	12.80	-43.8	-44.6	17.6	0.00e+00	0	57	0	2750414848	50	3943
2026-01-03 14:26:31.26	318.17	12.75	-43.7	-44.5	17.6	0.00e+00	0	57	0	2755657728	50	3901
2026-01-03 14:26:32.26	318.33	12.69	-43.7	-44.5	17.6	0.00e+00	0	57	0	2760900608	50	3905
2026-01-03 14:26:33.25	318.49	12.64	-43.8	-44.7	17.5	0.00e+00	0	57	0	2767192064	50	3970
2026-01-03 14:26:34.24	318.65	12.59	-43.9	-44.8	17.4	0.00e+00	0	57	0	2772434944	50	4020
2026-01-03 14:26:35.23	318.81	12.53	-43.7	-44.7	17.5	0.00e+00	0	57	0	2777677824	50	3961
2026-01-03 14:26:36.21	318.96	12.48	-43.7	-44.6	17.6	0.00e+00	0	57	0	2782920704	50	3925
2026-01-03 14:26:37.21	319.12	12.42	-43.7	-44.6	17.6	0.00e+00	0	57	0	2789212160	50	3924
2026-01-03 14:26:38.20	319.28	12.37	-43.7	-44.6	17.6	0.00e+00	0	57	0	2794455040	50	3954
2026-01-03 14:26:39.19	319.44	12.31	-43.8	-44.8	17.4	0.00e+00	0	57	0	2800746496	50	4011
2026-01-03 14:26:40.17	319.59	12.26	-43.8	-44.7	17.5	0.00e+00	0	57	0	2805989376	50	3989
2026-01-03 14:26:41.16	319.75	12.21	-43.9	-44.8	17.4	0.00e+00	0	57	0	2811232256	50	4023
2026-01-03 14:26:42.14	319.90	12.15	-44.0	-44.9	17.3	0.00e+00	0	57	0	2816475136	50	4068
2026-01-03 14:26:43.14	320.05	12.10	-43.8	-44.7	17.4	0.00e+00	0	57	0	2822766592	50	4000
2026-01-03 14:26:44.13	320.21	12.04	-43.8	-44.7	17.5	0.00e+00	0	57	0	2828009472	50	3976
2026-01-03 14:26:45.12	320.36	11.99	-43.8	-44.7	17.5	0.00e+00	0	57	0	2833252352	50	3980
2026-01-03 14:26:46.11	320.51	11.93	-44.0	-45.0	17.2	0.00e+00	0	57	0	2839543808	50	4101
2026-01-03 14:26:47.11	320.67	11.88	-44.2	-45.2	17.0	0.00e+00	0	56	0	2844786688	50	4201
2026-01-03 14:26:48.10	320.82	11.82	-44.1	-45.0	17.1	0.00e+00	0	57	0	2850029568	50	4141
2026-01-03 14:26:49.09	320.97	11.77	-44.0	-44.9	17.2	0.00e+00	0	57	0	2856321024	50	4084
2026-01-03 14:26:50.07	321.12	11.71	-43.9	-44.7	17.4	0.00e+00	0	57	0	2861563904	50	4004
2026-01-03 14:26:51.06	321.27	11.66	-44.0	-44.9	17.2	0.00e+00	0	57	0	2866806784	50	4079
2026-01-03 14:26:52.05	321.42	11.60	-44.0	-44.9	17.2	0.00e+00	0	57	0	2872049664	50	4092
2026-01-03 14:26:53.04	321.57	11.55	-44.1	-45.0	17.1	0.00e+00	0	57	0	2878341120	50	4133
2026-01-03 14:26:54.03	321.71	11.49	-44.2	-45.1	17.0	0.00e+00	0	57	0	2883584000	50	4177
2026-01-03 14:26:55.02	321.86	11.44	-44.3	-45.3	16.8	0.00e+00	0	57	0	2888826880	50	4278
2026-01-03 14:26:56.01	322.01	11.38	-44.2	-45.2	16.9	0.00e+00	0	57	0	2895118336	50	4218
2026-01-03 14:26:57.00	322.16	11.32	-44.3	-45.3	16.8	0.00e+00	0	56	0	2900361216	50	4250
2026-01-03 14:26:58.00	322.30	11.27	-44.5	-45.5	16.7	0.00e+00	0	57	0	2905604096	50	4347
2026-01-03 14:26:58.99	322.45	11.21	-44.3	-45.3	16.8	0.00e+00	0	57	0	2911895552	50	4256
2026-01-03 14:26:59.98	322.59	11.16	-44.4	-45.4	16.7	0.00e+00	0	57	0	2917138432	50	4311
2026-01-03 14:27:00.98	322.74	11.10	-44.3	-45.3	16.8	0.00e+00	0	57	0	2922381312	50	4277
2026-01-03 14:27:01.96	322.88	11.05	-44.3	-45.3	16.8	0.00e+00	0	57	0	2928672768	50	4255
2026-01-03 14:27:02.95	323.03	10.99	-44.4	-45.4	16.7	0.00e+00	0	57	0	2933915648	50	4310
2026-01-03 14:27:03.94	323.17	10.94	-44.5	-45.5	16.6	0.00e+00	0	57	0	2939158528	50	4362
2026-01-03 14:27:04.94	323.31	10.88	-44.4	-45.4	16.7	0.00e+00	0	57	0	2945449984	50	4305
2026-01-03 14:27:05.92	323.45	10.82	-44.6	-45.6	16.5	0.00e+00	0	57	0	2950692864	51	4176
2026-01-03 14:27:06.91	323.59	10.77	-44.4	-45.4	16.6	0.00e+00	0	57	0	2955935744	51	4090
2026-01-03 14:27:07.90	323.73	10.71	-44.6	-45.6	16.5	0.00e+00	0	57	0	2962227200	51	4178
2026-01-03 14:27:08.89	323.87	10.66	-44.9	-46.0	16.1	0.00e+00	0	57	0	2967470080	51	4345
2026-01-03 14:27:09.88	324.01	10.60	-44.7	-45.7	16.4	0.00e+00	0	57	0	2972712960	51	4220
2026-01-03 14:27:10.87	324.15	10.55	-44.5	-45.5	16.6	0.00e+00	0	57	0	2977955840	51	4099
2026-01-03 14:27:11.85	324.29	10.49	-44.3	-45.3	16.8	0.00e+00	0	57	0	2984247296	51	4025
2026-01-03 14:27:12.84	324.43	10.43	-44.3	-45.2	16.8	0.00e+00	0	57	0	2989490176	51	3986
2026-01-03 14:27:13.83	324.57	10.38	-44.3	-45.2	16.9	0.00e+00	0	57	0	2994733056	51	3984
2026-01-03 14:27:14.82	324.70	10.32	-44.3	-45.2	16.8	0.00e+00	0	57	0	3001024512	51	3997
2026-01-03 14:27:15.81	324.84	10.27	-44.2	-45.2	16.9	0.00e+00	0	57	0	3006267392	51	3973
2026-01-03 14:27:16.80	324.98	10.21	-44.3	-45.3	16.7	0.00e+00	0	57	0	3011510272	51	4035
2026-01-03 14:27:17.79	325.11	10.15	-44.6	-45.6	16.4	0.00e+00	0	57	0	3017801728	51	4168
2026-01-03 14:27:18.77	325.25	10.10	-44.5	-45.5	16.6	0.00e+00	0	57	0	3023044608	51	4109
2026-01-03 14:27:19.76	325.38	10.04	-44.2	-45.2	16.8	0.00e+00	0	57	0	3028287488	51	3973
2026-01-03 14:27:20.74	325.51	9.99	-44.2	-45.2	16.9	0.00e+00	0	57	0	3033530368	51	3964
2026-01-03 14:27:21.73	325.65	9.93	-44.2	-45.2	16.8	0.00e+00	0	57	0	3039821824	51	3992
2026-01-03 14:27:22.72	325.78	9.88	-44.2	-45.2	16.8	0.00e+00	0	57	0	3045064704	51	3981
2026-01-03 14:27:23.71	325.91	9.82	-44.4	-45.3	16.7	0.00e+00	0	57	0	3050307584	51	4050
2026-01-03 14:27:24.70	326.05	9.76	-44.6	-45.6	16.4	0.00e+00	0	57	0	3056599040	51	4193
2026-01-03 14:27:25.69	326.18	9.71	-44.5	-45.6	16.5	0.00e+00	0	57	0	3061841920	51	4149
2026-01-03 14:27:26.68	326.31	9.65	-44.4	-45.4	16.6	0.00e+00	0	57	0	3067084800	51	4087
2026-01-03 14:27:27.66	326.44	9.60	-44.5	-45.5	16.5	0.00e+00	0	57	0	3072327680	51	4143
2026-01-03 14:27:28.64	326.57	9.54	-44.6	-45.6	16.4	0.00e+00	0	57	0	3078619136	51	4173
2026-01-03 14:27:29.63	326.70	9.49	-44.6	-45.6	16.4	0.00e+00	0	57	0	3083862016	51	4188
2026-01-03 14:27:30.61	326.83	9.43	-44.8	-45.8	16.2	0.00e+00	0	57	0	3089104896	51	4278
2026-01-03 14:27:31.60	326.95	9.37	-45.0	-46.1	16.0	0.00e+00	0	57	0	3095396352	51	4392
2026-01-03 14:27:32.60	327.08	9.32	-44.9	-46.1	15.9	0.00e+00	0	57	0	3100639232	51	4394
2026-01-03 14:27:33.59	327.21	9.26	-44.9	-46.1	16.0	0.00e+00	0	57	0	3105882112	51	4393
2026-01-03 14:27:34.58	327.34	9.21	-45.0	-46.1	15.8	0.00e+00	0	57	0	3111124992	51	4440
2026-01-03 14:27:35.57	327.47	9.15	-45.0	-46.2	15.7	0.00e+00	0	57	0	3117416448	52	4227
2026-01-03 14:27:36.56	327.59	9.09	-45.1	-46.2	15.7	0.00e+00	0	57	0	3122659328	52	4233
2026-01-03 14:27:37.55	327.72	9.04	-45.1	-46.3	15.6	0.00e+00	0	57	0	3128950784	52	4283
2026-01-03 14:27:38.54	327.84	8.98	-45.2	-46.4	15.5	0.00e+00	0	57	0	3134193664	52	4306
2026-01-03 14:27:39.53	327.97	8.93	-45.1	-46.3	15.6	0.00e+00	0	57	0	3139436544	52	4252
2026-01-03 14:27:40.52	328.09	8.87	-45.1	-46.3	15.6	0.00e+00	0	57	0	3144679424	52	4254
2026-01-03 14:27:41.51	328.22	8.81	-45.2	-46.3	15.5	0.00e+00	0	57	0	3150970880	52	4285
2026-01-03 14:27:42.50	328.34	8.76	-45.1	-46.3	15.6	0.00e+00	0	57	0	3156213760	52	4255
2026-01-03 14:27:43.49	328.47	8.70	-45.1	-46.2	15.6	0.00e+00	0	57	0	3161456640	52	4239
2026-01-03 14:27:44.49	328.59	8.65	-45.1	-46.2	15.6	0.00e+00	0	57	0	3167748096	52	4222
2026-01-03 14:27:45.48	328.71	8.59	-45.1	-46.2	15.6	0.00e+00	0	57	0	3172990976	52	4242
2026-01-03 14:27:46.47	328.83	8.53	-45.3	-46.5	15.4	0.00e+00	0	57	0	3178233856	52	4360
2026-01-03 14:27:47.46	328.96	8.48	-45.3	-46.5	15.3	0.00e+00	0	57	0	3184525312	52	4382
2026-01-03 14:27:48.45	329.08	8.42	-45.3	-46.5	15.3	0.00e+00	0	57	0	3189768192	52	4368
2026-01-03 14:27:49.44	329.20	8.37	-45.4	-46.6	15.2	0.00e+00	0	57	0	3195011072	52	4399
2026-01-03 14:27:50.43	329.32	8.31	-45.1	-46.3	15.5	0.00e+00	0	57	0	3201302528	52	4263
2026-01-03 14:27:51.42	329.44	8.26	-45.0	-46.2	15.6	0.00e+00	0	57	0	3206545408	52	4210
2026-01-03 14:27:52.41	329.56	8.20	-45.1	-46.2	15.6	0.00e+00	0	57	0	3211788288	52	4223
2026-01-03 14:27:53.40	329.68	8.14	-45.1	-46.3	15.5	0.00e+00	0	57	0	3218079744	52	4272
2026-01-03 14:27:54.39	329.79	8.09	-45.2	-46.4	15.3	0.00e+00	0	57	0	3223322624	52	4337
2026-01-03 14:27:55.39	329.91	8.03	-45.1	-46.3	15.5	0.00e+00	0	57	0	3228565504	52	4251
2026-01-03 14:27:56.38	330.03	7.98	-45.0	-46.2	15.6	0.00e+00	0	57	0	3233808384	52	4206
2026-01-03 14:27:57.37	330.15	7.92	-45.0	-46.2	15.6	0.00e+00	0	57	0	3240099840	52	4222
2026-01-03 14:27:58.36	330.26	7.87	-45.2	-46.4	15.4	0.00e+00	0	57	0	3245342720	52	4327
2026-01-03 14:27:59.36	330.38	7.81	-45.3	-46.5	15.3	1.10e-06	0	57	0	3251634176	52	4378
2026-01-03 14:28:00.34	330.50	7.75	-45.3	-46.5	15.2	0.00e+00	0	57	0	3256877056	52	4375
2026-01-03 14:28:01.34	330.61	7.70	-45.4	-46.7	15.1	0.00e+00	0	57	0	3262119936	52	4453
2026-01-03 14:28:02.32	330.73	7.64	-45.4	-46.6	15.2	0.00e+00	0	57	0	3267362816	52	4426
2026-01-03 14:28:03.32	330.84	7.59	-45.5	-46.8	14.9	0.00e+00	0	57	0	3273654272	52	4522
2026-01-03 14:28:04.31	330.96	7.53	-45.6	-46.9	14.8	0.00e+00	0	57	0	3278897152	53	4331
2026-01-03 14:28:05.30	331.07	7.48	-45.8	-47.1	14.7	0.00e+00	0	57	0	3284140032	53	4402
2026-01-03 14:28:06.30	331.19	7.42	-45.6	-46.9	14.8	0.00e+00	0	57	0	3290431488	53	4299
2026-01-03 14:28:07.29	331.30	7.37	-45.5	-46.8	15.0	0.00e+00	0	57	0	3295674368	53	4249
2026-01-03 14:28:08.27	331.41	7.31	-45.4	-46.6	15.1	0.00e+00	0	57	0	3300917248	53	4183
2026-01-03 14:28:09.26	331.52	7.26	-45.4	-46.7	15.0	0.00e+00	0	57	0	3307208704	53	4231
2026-01-03 14:28:10.25	331.63	7.20	-45.6	-46.9	14.9	0.00e+00	0	57	0	3312451584	53	4301
2026-01-03 14:28:11.24	331.75	7.15	-45.7	-47.1	14.6	0.00e+00	0	57	0	3317694464	53	4405
2026-01-03 14:28:12.22	331.86	7.09	-45.6	-46.9	14.8	0.00e+00	0	57	0	3322937344	53	4304
2026-01-03 14:28:13.20	331.96	7.04	-45.3	-46.6	15.1	0.00e+00	0	57	0	3329228800	53	4165
2026-01-03 14:28:14.19	332.07	6.98	-45.2	-46.4	15.2	0.00e+00	0	57	0	3334471680	53	4095
2026-01-03 14:28:15.18	332.18	6.93	-45.1	-46.4	15.3	0.00e+00	0	57	0	3339714560	53	4066
2026-01-03 14:28:16.17	332.29	6.87	-45.3	-46.5	15.2	0.00e+00	0	57	0	3346006016	53	4111
2026-01-03 14:28:17.17	332.40	6.82	-45.5	-46.7	14.9	0.00e+00	0	57	0	3351248896	53	4233
2026-01-03 14:28:18.16	332.51	6.76	-45.3	-46.7	15.0	0.00e+00	0	57	0	3356491776	53	4195
2026-01-03 14:28:19.15	332.62	6.71	-45.5	-46.8	14.8	0.00e+00	0	57	0	3362783232	53	4274
2026-01-03 14:28:20.13	332.73	6.65	-45.7	-47.1	14.5	1.10e-06	0	57	0	3368026112	53	4412
2026-01-03 14:28:21.12	332.83	6.60	-45.5	-46.9	14.7	0.00e+00	0	57	0	3373268992	53	4297
2026-01-03 14:28:22.11	332.94	6.54	-45.7	-47.1	14.5	1.10e-06	0	57	0	3379560448	53	4403
2026-01-03 14:28:23.10	333.05	6.49	-45.6	-47.0	14.6	0.00e+00	0	57	0	3384803328	53	4343
2026-01-03 14:28:24.10	333.16	6.43	-45.8	-47.2	14.3	2.20e-06	0	57	0	3390046208	53	4491
2026-01-03 14:28:25.08	333.26	6.38	-46.0	-47.4	14.2	1.10e-06	0	57	0	3395289088	53	4566
2026-01-03 14:28:26.08	333.37	6.32	-45.7	-47.0	14.5	1.10e-06	0	57	0	3401580544	53	4387
2026-01-03 14:28:27.07	333.47	6.27	-45.6	-47.0	14.5	1.10e-06	0	57	0	3406823424	53	4366
2026-01-03 14:28:28.05	333.58	6.21	-45.5	-46.8	14.7	1.10e-06	0	57	0	3412066304	53	4291
2026-01-03 14:28:29.04	333.68	6.16	-45.8	-47.2	14.3	1.10e-06	0	57	0	3418357760	53	4476
2026-01-03 14:28:30.02	333.78	6.10	-46.0	-47.4	14.1	1.10e-06	0	57	0	3423600640	53	4591
2026-01-03 14:28:31.00	333.89	6.05	-45.7	-47.0	14.5	0.00e+00	0	57	0	3428843520	53	4378
2026-01-03 14:28:31.99	333.99	6.00	-45.5	-46.8	14.8	0.00e+00	0	57	0	3435134976	53	4247
2026-01-03 14:28:32.98	334.09	5.94	-45.5	-46.7	14.8	1.10e-06	0	57	0	3440377856	53	4236
2026-01-03 14:28:33.97	334.19	5.89	-45.5	-46.9	14.6	0.00e+00	0	57	0	3445620736	53	4296
2026-01-03 14:28:34.95	334.30	5.83	-45.5	-46.8	14.7	1.10e-06	0	57	0	3450863616	53	4251
2026-01-03 14:28:35.93	334.40	5.78	-45.6	-47.0	14.5	2.20e-06	0	57	0	3457155072	53	4368
2026-01-03 14:28:36.92	334.50	5.73	-45.6	-47.0	14.5	1.10e-06	0	57	0	3462397952	53	4371
2026-01-03 14:28:37.91	334.60	5.67	-45.7	-47.1	14.4	2.20e-06	0	57	0	3467640832	53	4425
2026-01-03 14:28:38.91	334.70	5.62	-45.8	-47.2	14.2	2.20e-06	0	57	0	3473932288	53	4479
2026-01-03 14:28:39.90	334.80	5.56	-45.7	-47.1	14.4	0.00e+00	0	57	0	3479175168	53	4416
2026-01-03 14:28:40.89	334.90	5.51	-45.7	-47.1	14.3	3.40e-06	0	57	0	3484418048	53	4420
2026-01-03 14:28:41.88	335.00	5.45	-45.9	-47.3	14.1	3.40e-06	0	57	0	3490709504	53	4531
2026-01-03 14:28:42.87	335.10	5.40	-45.9	-47.4	14.1	3.40e-06	0	57	0	3495952384	53	4562
2026-01-03 14:28:43.87	335.20	5.35	-45.8	-47.3	14.2	4.50e-06	0	57	0	3501195264	53	4508
2026-01-03 14:28:44.86	335.30	5.29	-45.9	-47.4	14.0	1.10e-06	0	57	0	3507486720	53	4586
2026-01-03 14:28:45.85	335.40	5.24	-46.0	-47.6	13.8	4.50e-06	0	57	0	3512729600	53	4676
2026-01-03 14:28:46.84	335.50	5.18	-46.0	-47.6	13.8	6.80e-06	0	57	0	3517972480	54	4407
2026-01-03 14:28:47.83	335.59	5.13	-45.8	-47.3	14.1	1.10e-06	0	57	0	3523215360	54	4282
2026-01-03 14:28:48.82	335.69	5.08	-45.9	-47.5	13.9	8.00e-06	0	57	0	3529506816	54	4346
2026-01-03 14:28:49.81	335.79	5.02	-46.1	-47.6	13.8	4.50e-06	0	57	0	3534749696	54	4431
2026-01-03 14:28:50.81	335.88	4.97	-51.8	-62.0	3.8	8.46e-01	0	57	104	3536846848	65	12344
2026-01-03 14:28:51.80	335.98	4.91	-51.9	-62.8	3.8	8.47e-01	0	57	104	3536846848	65	13463
2026-01-03 14:28:52.78	336.08	4.86	-52.3	-63.1	3.8	8.46e-01	0	57	104	3536846848	66	13162
2026-01-03 14:28:53.78	336.17	4.81	-52.5	-63.2	3.8	8.46e-01	0	57	104	3536846848	66	13363
2026-01-03 14:28:54.76	336.27	4.75	-52.5	-63.3	3.8	8.45e-01	0	57	104	3536846848	66	13476
2026-01-03 14:28:55.76	336.36	4.70	-52.2	-62.9	3.8	8.45e-01	0	57	104	3536846848	66	12925
2026-01-03 14:28:56.75	336.46	4.65	-52.5	-63.3	3.8	8.45e-01	0	57	104	3536846848	66	13476
2026-01-03 14:28:57.73	336.55	4.59	-52.7	-63.4	3.8	8.46e-01	0	57	104	3536846848	67	12904
2026-01-03 14:28:58.73	336.65	4.54	-52.6	-63.4	3.8	8.47e-01	0	57	104	3536846848	67	12937
2026-01-03 14:28:59.72	336.74	4.49	-52.8	-63.5	3.8	8.47e-01	0	57	104	3536846848	67	13002
2026-01-03 14:29:00.71	336.83	4.43	-52.7	-63.5	3.8	8.46e-01	0	57	104	3536846848	67	13023
2026-01-03 14:29:01.70	336.93	4.38	-52.7	-63.5	3.8	8.46e-01	0	57	104	3536846848	67	13085
