passes_logs/2026/01/03/R3.0SM8_Murmansk_STILSPACE/R3.0SM8_Murmansk_STILSPACE__20260103_065514_NOAA_20_JPSS-1_rec.log

#Pass ID: 20260103_065514_NOAA 20 (JPSS-1)
#Satellite: NOAA 20 (JPSS-1)
#Configuration: NOAA 20
#almurnet v.1.7.20240730
#Start time: 2026-01-03 06:55:14

#Version: 2.2.20231116
#Station: R3.0SM8_Murmansk_STILSPACE
#Location: 33.092731 lon 68.902999 lat
#TLE: 1 43013U 17073A   26002.21975278  .00000202  00000+0  11669-3 0  9999
#TLE: 2 43013  98.7622 303.2950 0001915  57.9213 302.2149 14.19532512420923

#Time	Az	El	Level	Level2	SNR	BER	BlckErr	Temp	State	Recorded	gain1	gain2
2026-01-03 06:55:14.41	92.47	2.98	-53.0	-66.9	3.8	1.49e+00	0	46	0	0	68	18283
2026-01-03 06:55:15.40	92.42	3.04	-52.8	-66.9	3.8	1.49e+00	0	47	104	0	68	18096
2026-01-03 06:55:16.39	92.36	3.10	-52.9	-66.8	3.8	1.49e+00	0	47	104	0	68	17967
2026-01-03 06:55:17.38	92.31	3.16	-52.8	-66.8	3.8	1.49e+00	0	47	104	0	68	17904
2026-01-03 06:55:18.36	92.25	3.22	-52.8	-66.7	3.8	1.49e+00	0	47	104	0	68	17747
2026-01-03 06:55:19.34	92.19	3.28	-52.6	-66.6	3.8	1.49e+00	0	47	104	0	68	17627
2026-01-03 06:55:20.33	92.14	3.34	-52.6	-66.5	3.8	1.49e+00	0	47	104	0	68	17410
2026-01-03 06:55:21.32	92.08	3.41	-52.3	-66.3	3.8	1.49e+00	0	47	104	0	67	17897
2026-01-03 06:55:22.30	92.03	3.47	-51.9	-66.0	3.8	1.49e+00	0	47	104	0	67	17357
2026-01-03 06:55:23.29	91.97	3.53	-52.0	-66.0	3.8	1.49e+00	0	47	104	0	67	17309
2026-01-03 06:55:24.28	91.91	3.59	-52.1	-65.9	3.8	1.49e+00	0	47	104	0	67	17281
2026-01-03 06:55:25.28	91.85	3.65	-52.1	-66.0	3.8	1.49e+00	0	47	104	0	66	18367
2026-01-03 06:55:26.26	91.80	3.71	-52.0	-66.0	3.8	1.49e+00	0	47	104	0	66	18365
2026-01-03 06:55:27.25	91.74	3.77	-52.0	-66.0	3.8	1.49e+00	0	47	104	0	66	18365
2026-01-03 06:55:28.23	91.68	3.84	-52.1	-66.0	3.8	1.49e+00	0	48	104	0	66	18306
2026-01-03 06:55:29.21	91.62	3.90	-52.0	-65.9	3.8	1.49e+00	0	47	104	0	66	18115
2026-01-03 06:55:30.19	91.56	3.96	-52.1	-65.7	3.8	1.49e+00	0	48	104	0	66	17685
2026-01-03 06:55:31.18	91.51	4.02	-52.0	-65.5	3.8	1.49e+00	0	47	104	0	66	17312
2026-01-03 06:55:32.17	91.45	4.08	-52.1	-65.1	3.8	1.49e+00	0	48	104	0	66	16553
2026-01-03 06:55:33.17	91.39	4.15	-52.0	-64.5	3.8	1.49e+00	0	48	104	0	66	15507
2026-01-03 06:55:34.16	91.33	4.21	-51.8	-63.9	3.8	1.49e+00	0	48	104	0	66	14497
2026-01-03 06:55:35.15	91.27	4.27	-51.8	-62.9	4.1	1.47e+00	0	48	0	0	66	12884
2026-01-03 06:55:36.14	91.21	4.33	-51.8	-62.0	4.3	1.40e+00	0	48	0	0	66	11667
2026-01-03 06:55:37.13	91.15	4.40	-51.6	-60.9	4.8	9.59e-01	0	48	0	1048576	66	10235
2026-01-03 06:55:38.11	91.09	4.46	-51.4	-60.1	5.2	7.02e-01	0	48	0	3145728	66	9385
2026-01-03 06:55:39.10	91.02	4.52	-51.3	-59.1	5.9	4.92e-01	0	48	0	4194304	65	8766
2026-01-03 06:55:40.09	90.96	4.59	-51.2	-58.3	6.4	2.88e-01	0	48	0	6291456	65	8079
2026-01-03 06:55:41.08	90.90	4.65	-51.1	-57.5	7.1	1.61e-01	0	48	0	8388608	65	7367
2026-01-03 06:55:42.07	90.84	4.71	-50.9	-56.7	8.0	9.08e-02	0	48	0	10485760	64	7047
2026-01-03 06:55:43.06	90.78	4.78	-50.7	-56.3	8.4	5.64e-02	0	48	0	11534336	64	6742
2026-01-03 06:55:44.05	90.71	4.84	-50.5	-55.8	8.9	3.96e-02	0	48	0	13631488	64	6348
2026-01-03 06:55:45.04	90.65	4.90	-50.5	-55.5	9.3	2.18e-02	0	49	0	15728640	63	6517
2026-01-03 06:55:46.03	90.59	4.97	-50.4	-55.2	9.6	1.40e-02	0	48	0	17825792	63	6286
2026-01-03 06:55:47.01	90.52	5.03	-50.5	-55.1	9.7	1.08e-02	0	49	0	18874368	63	6227
2026-01-03 06:55:48.01	90.46	5.10	-50.4	-55.0	9.8	1.09e-02	0	49	0	20971520	63	6144
2026-01-03 06:55:48.99	90.40	5.16	-50.4	-55.1	9.7	1.12e-02	0	49	0	23068672	63	6219
2026-01-03 06:55:49.98	90.33	5.22	-50.3	-54.9	9.9	9.22e-03	0	49	0	25165824	63	6093
2026-01-03 06:55:50.97	90.27	5.29	-50.4	-55.0	9.8	8.23e-03	0	49	0	27262976	63	6174
2026-01-03 06:55:51.96	90.20	5.35	-50.4	-54.9	10.0	9.65e-03	0	49	0	28311552	63	6096
2026-01-03 06:55:52.95	90.14	5.42	-50.4	-54.9	10.0	8.12e-03	0	49	0	30408704	63	6111
2026-01-03 06:55:53.94	90.07	5.48	-50.6	-55.5	9.4	1.23e-02	0	49	0	32505856	63	6506
2026-01-03 06:55:54.93	90.01	5.55	-50.5	-55.0	9.9	1.36e-02	0	49	0	34603008	63	6164
2026-01-03 06:55:55.91	89.94	5.61	-50.3	-54.8	10.1	8.37e-03	0	49	0	35651584	63	6000
2026-01-03 06:55:56.90	89.87	5.68	-50.3	-54.5	10.4	5.24e-03	0	49	0	37748736	63	5822
2026-01-03 06:55:57.90	89.81	5.74	-50.0	-54.0	10.9	3.13e-03	0	49	0	39845888	63	5518
2026-01-03 06:55:58.89	89.74	5.81	-49.9	-53.8	11.1	1.82e-03	0	49	0	41943040	62	5709
2026-01-03 06:55:59.88	89.67	5.88	-49.8	-53.6	11.4	1.13e-03	0	49	0	44040192	62	5562
2026-01-03 06:56:00.86	89.61	5.94	-49.8	-53.4	11.5	9.12e-04	0	50	0	45088768	62	5462
2026-01-03 06:56:01.86	89.54	6.01	-49.9	-53.6	11.4	8.24e-04	0	50	0	47185920	62	5544
2026-01-03 06:56:02.84	89.47	6.07	-49.9	-53.7	11.2	1.02e-03	0	49	0	49283072	62	5636
2026-01-03 06:56:03.83	89.40	6.14	-49.9	-53.5	11.5	1.02e-03	0	50	0	51380224	62	5517
2026-01-03 06:56:04.82	89.33	6.21	-49.8	-53.5	11.5	8.76e-04	0	50	0	52428800	62	5472
2026-01-03 06:56:05.81	89.26	6.27	-49.8	-53.5	11.5	7.29e-04	0	50	0	54525952	62	5467
2026-01-03 06:56:06.79	89.19	6.34	-49.8	-53.5	11.5	7.42e-04	0	50	0	56623104	62	5489
2026-01-03 06:56:07.78	89.12	6.41	-49.9	-53.6	11.3	9.70e-04	0	50	0	58720256	62	5573
2026-01-03 06:56:08.76	89.05	6.47	-49.9	-53.8	11.2	1.26e-03	0	50	0	59768832	62	5662
2026-01-03 06:56:09.75	88.98	6.54	-49.9	-53.7	11.2	1.26e-03	0	50	0	61865984	62	5651
2026-01-03 06:56:10.75	88.91	6.61	-50.0	-53.7	11.3	1.11e-03	0	50	0	63963136	62	5653
2026-01-03 06:56:11.74	88.84	6.67	-50.0	-53.8	11.2	1.34e-03	0	50	0	66060288	62	5703
2026-01-03 06:56:12.73	88.77	6.74	-50.0	-54.0	11.1	1.62e-03	0	50	0	68157440	62	5795
2026-01-03 06:56:13.72	88.70	6.81	-50.1	-53.9	11.1	1.87e-03	0	50	0	69206016	62	5764
2026-01-03 06:56:14.70	88.62	6.88	-49.9	-53.6	11.4	1.22e-03	0	50	0	71303168	62	5585
2026-01-03 06:56:15.69	88.55	6.94	-49.9	-53.5	11.6	7.87e-04	0	50	0	73400320	62	5507
2026-01-03 06:56:16.67	88.48	7.01	-49.9	-53.5	11.6	6.61e-04	0	50	0	75497472	62	5465
2026-01-03 06:56:17.66	88.41	7.08	-49.9	-53.5	11.6	6.65e-04	0	50	0	76546048	62	5510
2026-01-03 06:56:18.65	88.33	7.15	-49.9	-53.6	11.5	8.52e-04	0	50	0	78643200	62	5592
2026-01-03 06:56:19.64	88.26	7.22	-49.9	-53.5	11.6	8.90e-04	0	50	0	80740352	62	5520
2026-01-03 06:56:20.63	88.18	7.28	-49.8	-53.3	11.8	6.02e-04	0	50	0	82837504	62	5401
2026-01-03 06:56:21.63	88.11	7.35	-49.6	-53.1	12.0	3.29e-04	0	50	0	83886080	62	5251
2026-01-03 06:56:22.62	88.03	7.42	-49.6	-52.9	12.2	2.21e-04	0	50	0	85983232	62	5150
2026-01-03 06:56:23.62	87.96	7.49	-49.5	-52.8	12.3	2.13e-04	0	51	0	88080384	62	5092
2026-01-03 06:56:24.60	87.88	7.56	-49.5	-52.9	12.3	1.72e-04	0	51	0	90177536	62	5115
2026-01-03 06:56:25.59	87.80	7.63	-49.6	-52.9	12.3	1.91e-04	0	51	0	92274688	62	5125
2026-01-03 06:56:26.57	87.73	7.70	-49.5	-52.7	12.4	1.50e-04	0	51	0	93323264	62	5021
2026-01-03 06:56:27.56	87.65	7.77	-49.5	-52.7	12.5	1.22e-04	0	51	0	95420416	62	5009
2026-01-03 06:56:28.55	87.57	7.84	-49.5	-52.7	12.5	1.31e-04	0	51	0	97517568	62	5008
2026-01-03 06:56:29.54	87.49	7.91	-49.4	-52.6	12.5	9.84e-05	0	51	0	99614720	62	4983
2026-01-03 06:56:30.52	87.42	7.98	-49.4	-52.6	12.6	8.23e-05	0	51	0	100663296	61	5221
2026-01-03 06:56:31.51	87.34	8.05	-49.5	-52.6	12.5	1.07e-04	0	51	0	102760448	61	5268
2026-01-03 06:56:32.49	87.26	8.11	-49.5	-52.7	12.5	1.17e-04	0	51	0	104857600	61	5296
2026-01-03 06:56:33.48	87.18	8.18	-49.5	-52.6	12.6	1.03e-04	0	51	0	106954752	61	5238
2026-01-03 06:56:34.48	87.10	8.26	-49.4	-52.6	12.6	1.13e-04	0	51	0	108003328	61	5268
2026-01-03 06:56:35.47	87.02	8.33	-49.4	-52.6	12.6	9.00e-05	0	51	0	110100480	61	5237
2026-01-03 06:56:36.46	86.94	8.40	-49.6	-52.8	12.5	9.30e-05	0	51	0	112197632	61	5357
2026-01-03 06:56:37.45	86.86	8.47	-49.6	-52.7	12.5	1.31e-04	0	51	0	114294784	61	5317
2026-01-03 06:56:38.44	86.78	8.54	-49.4	-52.5	12.7	8.46e-05	0	51	0	115343360	61	5199
2026-01-03 06:56:39.44	86.69	8.61	-49.4	-52.4	12.9	5.03e-05	0	51	0	117440512	61	5122
2026-01-03 06:56:40.43	86.61	8.68	-49.4	-52.4	12.9	4.34e-05	0	51	0	119537664	61	5108
2026-01-03 06:56:41.43	86.53	8.75	-49.4	-52.3	12.9	4.65e-05	0	51	0	121634816	61	5097
2026-01-03 06:56:42.42	86.44	8.83	-49.3	-52.3	13.0	4.27e-05	0	51	0	123731968	61	5066
2026-01-03 06:56:43.41	86.36	8.90	-49.3	-52.2	13.0	3.89e-05	0	51	0	124780544	61	5036
2026-01-03 06:56:44.40	86.28	8.97	-49.3	-52.2	13.0	3.43e-05	0	51	0	126877696	61	5018
2026-01-03 06:56:45.39	86.19	9.04	-49.2	-52.2	13.1	3.43e-05	0	51	0	128974848	61	5012
2026-01-03 06:56:46.38	86.11	9.11	-49.2	-52.1	13.2	2.13e-05	0	51	0	131072000	61	4983
2026-01-03 06:56:47.37	86.02	9.19	-49.3	-52.3	13.0	3.05e-05	0	52	0	132120576	61	5052
2026-01-03 06:56:48.36	85.94	9.26	-49.2	-52.3	13.0	4.11e-05	0	52	0	134217728	61	5078
2026-01-03 06:56:49.35	85.85	9.33	-49.3	-52.1	13.2	2.21e-05	0	52	0	136314880	61	4971
2026-01-03 06:56:50.33	85.76	9.40	-49.3	-52.3	13.1	4.11e-05	0	52	0	138412032	61	5043
2026-01-03 06:56:51.32	85.68	9.48	-49.3	-52.3	13.0	4.88e-05	0	52	0	140509184	61	5048
2026-01-03 06:56:52.32	85.59	9.55	-49.2	-52.1	13.2	2.13e-05	0	52	0	141557760	61	4977
2026-01-03 06:56:53.31	85.50	9.62	-49.2	-52.1	13.3	2.21e-05	0	52	0	143654912	61	4937
2026-01-03 06:56:54.29	85.41	9.70	-49.2	-52.1	13.3	1.90e-05	0	52	0	145752064	61	4927
2026-01-03 06:56:55.29	85.32	9.77	-49.2	-52.0	13.3	1.75e-05	0	52	0	147849216	61	4893
2026-01-03 06:56:56.29	85.23	9.84	-49.2	-52.0	13.3	1.83e-05	0	52	0	148897792	61	4891
2026-01-03 06:56:57.27	85.14	9.92	-49.1	-51.9	13.4	1.29e-05	0	52	0	150994944	61	4855
2026-01-03 06:56:58.26	85.05	9.99	-49.2	-52.0	13.4	1.44e-05	0	52	0	153092096	61	4890
2026-01-03 06:56:59.25	84.96	10.06	-49.2	-52.1	13.2	1.98e-05	0	52	0	155189248	61	4948
2026-01-03 06:57:00.24	84.87	10.14	-49.4	-52.3	13.0	3.35e-05	0	52	0	156237824	61	5066
2026-01-03 06:57:01.22	84.78	10.21	-49.3	-52.1	13.2	2.21e-05	0	52	0	158334976	61	4979
2026-01-03 06:57:02.22	84.69	10.29	-49.3	-52.1	13.2	1.98e-05	0	52	0	160432128	61	4980
2026-01-03 06:57:03.21	84.59	10.36	-49.2	-52.2	13.2	2.97e-05	0	52	0	162529280	61	5007
2026-01-03 06:57:04.20	84.50	10.44	-49.2	-52.1	13.3	2.21e-05	0	52	0	164626432	61	4943
2026-01-03 06:57:05.18	84.41	10.51	-49.2	-52.0	13.4	2.28e-05	0	52	0	165675008	61	4901
2026-01-03 06:57:06.17	84.31	10.59	-49.3	-52.1	13.3	1.44e-05	0	52	0	167772160	61	4943
2026-01-03 06:57:07.16	84.22	10.66	-49.3	-52.1	13.2	2.44e-05	0	52	0	169869312	61	4983
2026-01-03 06:57:08.15	84.12	10.74	-49.2	-52.0	13.3	1.67e-05	0	52	0	171966464	61	4921
2026-01-03 06:57:09.15	84.03	10.81	-49.1	-52.0	13.4	1.44e-05	0	52	0	173015040	61	4897
2026-01-03 06:57:10.14	83.93	10.89	-49.2	-52.0	13.4	8.30e-06	0	52	0	175112192	61	4893
2026-01-03 06:57:11.13	83.83	10.97	-49.2	-52.1	13.3	1.60e-05	0	52	0	177209344	61	4940
2026-01-03 06:57:12.12	83.74	11.04	-49.1	-52.0	13.4	1.52e-05	0	52	0	179306496	61	4886
2026-01-03 06:57:13.11	83.64	11.12	-49.2	-52.0	13.4	9.10e-06	0	52	0	180355072	61	4895
2026-01-03 06:57:14.10	83.54	11.19	-49.2	-52.1	13.3	1.44e-05	0	52	0	182452224	61	4977
2026-01-03 06:57:15.09	83.44	11.27	-49.2	-51.9	13.5	1.52e-05	0	52	0	184549376	61	4848
2026-01-03 06:57:16.08	83.34	11.35	-49.2	-52.0	13.4	1.44e-05	0	52	0	186646528	61	4893
2026-01-03 06:57:17.07	83.24	11.42	-49.4	-52.2	13.2	1.44e-05	0	52	0	188743680	61	5011
2026-01-03 06:57:18.06	83.14	11.50	-49.5	-52.5	13.0	3.89e-05	0	53	0	189792256	61	5163
2026-01-03 06:57:19.05	83.04	11.58	-49.3	-52.2	13.1	1.90e-05	0	53	0	191889408	61	5036
2026-01-03 06:57:20.04	82.94	11.66	-49.5	-52.4	13.0	2.74e-05	0	53	0	193986560	61	5155
2026-01-03 06:57:21.03	82.84	11.73	-49.2	-52.2	13.2	2.59e-05	0	53	0	196083712	61	5008
2026-01-03 06:57:22.02	82.73	11.81	-49.4	-52.5	13.0	2.44e-05	0	52	0	197132288	61	5167
2026-01-03 06:57:23.01	82.63	11.89	-49.2	-52.2	13.3	2.05e-05	0	53	0	199229440	61	4985
2026-01-03 06:57:24.00	82.53	11.97	-49.3	-52.1	13.3	1.83e-05	0	53	0	201326592	61	4979
2026-01-03 06:57:24.99	82.42	12.04	-49.3	-52.1	13.3	1.90e-05	0	53	0	203423744	61	4965
2026-01-03 06:57:25.98	82.32	12.12	-49.3	-52.1	13.3	1.67e-05	0	53	0	205520896	61	4960
2026-01-03 06:57:26.96	82.21	12.20	-49.3	-52.0	13.4	1.29e-05	0	53	0	206569472	61	4924
2026-01-03 06:57:27.96	82.10	12.28	-49.1	-51.9	13.6	1.52e-05	0	53	0	208666624	61	4833
2026-01-03 06:57:28.95	82.00	12.36	-49.1	-51.8	13.7	6.10e-06	0	53	0	210763776	61	4760
2026-01-03 06:57:29.93	81.89	12.44	-49.1	-51.8	13.7	7.60e-06	0	53	0	212860928	61	4761
2026-01-03 06:57:30.92	81.78	12.51	-49.1	-51.8	13.6	7.60e-06	0	53	0	213909504	61	4789
2026-01-03 06:57:31.91	81.68	12.59	-49.2	-51.9	13.6	2.20e-06	0	53	0	216006656	61	4840
2026-01-03 06:57:32.89	81.57	12.67	-49.2	-51.9	13.5	1.83e-05	0	53	0	218103808	61	4849
2026-01-03 06:57:33.88	81.46	12.75	-49.1	-51.8	13.7	6.10e-06	0	53	0	220200960	61	4791
2026-01-03 06:57:34.87	81.35	12.83	-49.2	-51.9	13.5	1.14e-05	0	53	0	221249536	61	4870
2026-01-03 06:57:35.86	81.24	12.91	-49.2	-51.9	13.6	6.80e-06	0	53	0	223346688	61	4844
2026-01-03 06:57:36.85	81.13	12.99	-49.2	-51.8	13.7	5.30e-06	0	53	0	225443840	61	4796
2026-01-03 06:57:37.84	81.01	13.07	-49.1	-52.0	13.5	9.90e-06	0	53	0	227540992	61	4871
2026-01-03 06:57:38.83	80.90	13.15	-49.1	-51.9	13.6	1.06e-05	0	53	0	229638144	61	4830
2026-01-03 06:57:39.82	80.79	13.23	-49.1	-51.8	13.7	6.80e-06	0	53	0	230686720	61	4798
2026-01-03 06:57:40.80	80.67	13.31	-49.2	-52.0	13.5	8.30e-06	0	53	0	232783872	61	4918
2026-01-03 06:57:41.79	80.56	13.39	-49.1	-51.8	13.6	1.29e-05	0	53	0	234881024	61	4812
2026-01-03 06:57:42.77	80.45	13.47	-49.0	-51.7	13.8	7.60e-06	0	53	0	236978176	61	4731
2026-01-03 06:57:43.76	80.33	13.55	-49.1	-51.8	13.7	7.60e-06	0	53	0	238026752	61	4767
2026-01-03 06:57:44.75	80.21	13.63	-49.2	-51.8	13.7	6.10e-06	0	53	0	240123904	61	4798
2026-01-03 06:57:45.74	80.10	13.71	-49.1	-51.7	13.8	3.80e-06	0	53	0	242221056	61	4746
2026-01-03 06:57:46.72	79.98	13.80	-49.0	-51.7	13.8	3.00e-06	0	53	0	244318208	61	4720
2026-01-03 06:57:47.72	79.86	13.88	-49.0	-51.6	13.9	1.50e-06	0	53	0	245366784	61	4689
2026-01-03 06:57:48.70	79.74	13.96	-49.1	-51.6	13.9	3.80e-06	0	53	0	247463936	61	4685
2026-01-03 06:57:49.69	79.62	14.04	-49.0	-51.5	14.0	3.80e-06	0	53	0	249561088	61	4630
2026-01-03 06:57:50.68	79.50	14.12	-49.0	-51.7	13.9	7.00e-07	0	53	0	251658240	61	4719
2026-01-03 06:57:51.66	79.38	14.20	-49.0	-51.7	13.8	6.10e-06	0	53	0	252706816	61	4725
2026-01-03 06:57:52.64	79.26	14.29	-49.0	-51.7	13.9	5.30e-06	0	53	0	254803968	61	4706
2026-01-03 06:57:53.63	79.14	14.37	-49.2	-51.9	13.6	6.80e-06	0	53	0	256901120	61	4842
2026-01-03 06:57:54.62	79.01	14.45	-49.1	-51.9	13.6	6.10e-06	0	53	0	258998272	61	4843
2026-01-03 06:57:55.61	78.89	14.53	-49.0	-51.6	14.0	3.80e-06	0	53	0	260046848	61	4667
2026-01-03 06:57:56.60	78.76	14.62	-48.9	-51.5	14.0	3.00e-06	0	54	0	262144000	61	4624
2026-01-03 06:57:57.59	78.64	14.70	-48.9	-51.5	14.0	0.00e+00	0	53	0	264241152	61	4602
2026-01-03 06:57:58.59	78.51	14.78	-49.0	-51.6	14.0	2.20e-06	0	53	0	266338304	60	4951
2026-01-03 06:57:59.58	78.39	14.87	-49.0	-51.7	13.9	4.50e-06	0	53	0	268435456	60	4989
2026-01-03 06:58:00.57	78.26	14.95	-49.1	-51.6	13.9	5.30e-06	0	53	0	269484032	60	4978
2026-01-03 06:58:01.56	78.13	15.03	-49.0	-51.7	13.8	3.00e-06	0	54	0	271581184	60	5033
2026-01-03 06:58:02.54	78.00	15.12	-49.0	-51.7	13.8	6.80e-06	0	54	0	273678336	60	5015
2026-01-03 06:58:03.53	77.87	15.20	-49.0	-51.6	14.0	4.50e-06	0	54	0	275775488	60	4938
2026-01-03 06:58:04.51	77.74	15.28	-49.0	-51.5	14.0	2.20e-06	0	54	0	276824064	60	4911
2026-01-03 06:58:05.50	77.61	15.37	-49.0	-51.5	14.0	7.00e-07	0	54	0	278921216	60	4914
2026-01-03 06:58:06.49	77.48	15.45	-49.1	-51.7	13.9	0.00e+00	0	54	0	281018368	60	5007
2026-01-03 06:58:07.47	77.35	15.53	-49.0	-51.6	14.0	3.80e-06	0	54	0	283115520	60	4947
2026-01-03 06:58:08.46	77.21	15.62	-48.8	-51.2	14.3	1.50e-06	0	54	0	284164096	60	4747
2026-01-03 06:58:09.44	77.08	15.70	-48.7	-51.1	14.5	0.00e+00	0	54	0	286261248	60	4672
2026-01-03 06:58:10.43	76.95	15.79	-48.6	-50.9	14.6	0.00e+00	0	54	0	288358400	60	4597
2026-01-03 06:58:11.42	76.81	15.87	-48.6	-51.0	14.6	0.00e+00	0	54	0	290455552	60	4627
2026-01-03 06:58:12.41	76.67	15.96	-48.7	-51.1	14.5	0.00e+00	0	53	0	291504128	60	4695
2026-01-03 06:58:13.40	76.54	16.04	-48.8	-51.2	14.4	1.50e-06	0	54	0	293601280	60	4738
2026-01-03 06:58:14.39	76.40	16.13	-48.7	-51.1	14.5	0.00e+00	0	54	0	295698432	60	4685
2026-01-03 06:58:15.38	76.26	16.21	-48.7	-51.1	14.5	2.20e-06	0	54	0	297795584	60	4688
2026-01-03 06:58:16.38	76.12	16.30	-48.7	-51.1	14.6	0.00e+00	0	54	0	299892736	60	4655
2026-01-03 06:58:17.37	75.98	16.39	-48.7	-51.1	14.5	7.00e-07	0	54	0	300941312	60	4691
2026-01-03 06:58:18.36	75.83	16.47	-48.7	-51.1	14.6	7.00e-07	0	54	0	303038464	60	4655
2026-01-03 06:58:19.35	75.69	16.56	-48.7	-51.0	14.6	7.00e-07	0	54	0	305135616	60	4648
2026-01-03 06:58:20.35	75.55	16.64	-48.6	-50.8	14.8	0.00e+00	0	54	0	307232768	60	4538
2026-01-03 06:58:21.34	75.40	16.73	-48.4	-50.7	14.9	0.00e+00	0	54	0	308281344	59	4719
2026-01-03 06:58:22.34	75.26	16.82	-48.4	-50.5	15.1	0.00e+00	0	54	0	310378496	59	4636
2026-01-03 06:58:23.32	75.11	16.90	-48.3	-50.5	15.2	0.00e+00	0	54	0	312475648	59	4622
2026-01-03 06:58:24.31	74.97	16.99	-48.3	-50.4	15.2	0.00e+00	0	54	0	314572800	59	4570
2026-01-03 06:58:25.30	74.82	17.08	-48.3	-50.5	15.1	0.00e+00	0	54	0	316669952	59	4607
2026-01-03 06:58:26.29	74.67	17.16	-48.5	-50.7	15.0	0.00e+00	0	54	0	317718528	59	4722
2026-01-03 06:58:27.28	74.52	17.25	-48.6	-50.9	14.7	0.00e+00	0	54	0	319815680	59	4845
2026-01-03 06:58:28.26	74.37	17.33	-48.4	-50.6	15.0	0.00e+00	0	54	0	321912832	59	4703
2026-01-03 06:58:29.25	74.22	17.42	-48.3	-50.5	15.2	0.00e+00	0	54	0	324009984	59	4604
2026-01-03 06:58:30.24	74.07	17.51	-48.3	-50.5	15.1	0.00e+00	0	54	0	325058560	59	4615
2026-01-03 06:58:31.22	73.92	17.60	-48.4	-50.5	15.1	0.00e+00	0	54	0	327155712	59	4647
2026-01-03 06:58:32.21	73.76	17.68	-48.4	-50.6	15.1	0.00e+00	0	54	0	329252864	59	4677
2026-01-03 06:58:33.20	73.61	17.77	-48.4	-50.7	14.9	0.00e+00	0	54	0	331350016	59	4741
2026-01-03 06:58:34.20	73.45	17.86	-48.3	-50.5	15.2	0.00e+00	0	54	0	332398592	59	4599
2026-01-03 06:58:35.19	73.30	17.95	-48.3	-50.4	15.3	0.00e+00	0	54	0	334495744	59	4556
2026-01-03 06:58:36.18	73.14	18.03	-48.3	-50.5	15.1	0.00e+00	0	54	0	336592896	59	4650
2026-01-03 06:58:37.17	72.98	18.12	-48.5	-50.7	15.0	0.00e+00	0	54	0	338690048	59	4722
2026-01-03 06:58:38.16	72.82	18.21	-48.6	-50.9	14.8	7.00e-07	0	54	0	340787200	59	4821
2026-01-03 06:58:39.15	72.66	18.30	-48.6	-50.8	14.8	7.00e-07	0	54	0	341835776	59	4800
2026-01-03 06:58:40.14	72.50	18.38	-48.8	-51.0	14.7	0.00e+00	0	54	0	343932928	59	4900
2026-01-03 06:58:41.13	72.34	18.47	-48.7	-51.0	14.7	0.00e+00	0	54	0	346030080	59	4877
2026-01-03 06:58:42.12	72.18	18.56	-48.8	-51.1	14.6	0.00e+00	0	54	0	348127232	59	4930
2026-01-03 06:58:43.11	72.01	18.65	-48.9	-51.2	14.5	7.00e-07	0	54	0	349175808	59	5013
2026-01-03 06:58:44.10	71.85	18.74	-48.8	-51.1	14.6	0.00e+00	0	54	0	351272960	59	4936
2026-01-03 06:58:45.09	71.68	18.83	-49.0	-51.4	14.3	1.50e-06	0	54	0	353370112	59	5137
2026-01-03 06:58:46.07	71.52	18.91	-48.9	-51.1	14.5	0.00e+00	0	54	0	355467264	59	4976
2026-01-03 06:58:47.06	71.35	19.00	-49.0	-51.5	14.2	7.00e-07	0	54	0	356515840	59	5169
2026-01-03 06:58:48.05	71.18	19.09	-48.8	-51.2	14.5	2.20e-06	0	54	0	358612992	59	5004
2026-01-03 06:58:49.04	71.01	19.18	-48.7	-50.9	14.7	1.50e-06	0	54	0	360710144	59	4862
2026-01-03 06:58:50.03	70.84	19.27	-48.7	-50.9	14.8	0.00e+00	0	54	0	362807296	59	4834
2026-01-03 06:58:51.01	70.67	19.36	-48.8	-51.2	14.4	0.00e+00	0	54	0	364904448	59	5027
2026-01-03 06:58:52.01	70.49	19.44	-49.0	-51.4	14.3	7.00e-07	0	54	0	365953024	59	5142
2026-01-03 06:58:53.00	70.32	19.53	-48.9	-51.2	14.4	0.00e+00	0	54	0	368050176	59	5039
2026-01-03 06:58:53.99	70.15	19.62	-48.8	-51.2	14.5	7.00e-07	0	54	0	370147328	59	5013
2026-01-03 06:58:54.98	69.97	19.71	-48.8	-51.2	14.5	7.00e-07	0	55	0	372244480	59	5011
2026-01-03 06:58:55.97	69.79	19.80	-48.9	-51.4	14.3	1.50e-06	0	55	0	373293056	59	5126
2026-01-03 06:58:56.96	69.62	19.89	-48.9	-51.3	14.4	7.00e-07	0	55	0	375390208	59	5070
2026-01-03 06:58:57.95	69.44	19.98	-49.0	-51.5	14.2	0.00e+00	0	54	0	377487360	59	5168
2026-01-03 06:58:58.94	69.26	20.07	-48.9	-51.3	14.4	0.00e+00	0	54	0	379584512	59	5061
2026-01-03 06:58:59.93	69.07	20.16	-48.8	-51.1	14.6	0.00e+00	0	54	0	381681664	59	4966
2026-01-03 06:59:00.90	68.90	20.24	-48.7	-51.0	14.7	0.00e+00	0	54	0	382730240	59	4903
2026-01-03 06:59:01.89	68.71	20.33	-48.7	-51.0	14.7	0.00e+00	0	54	0	384827392	59	4901
2026-01-03 06:59:02.88	68.53	20.42	-48.8	-51.1	14.6	0.00e+00	0	55	0	386924544	59	4970
2026-01-03 06:59:03.87	68.34	20.51	-49.0	-51.3	14.4	7.00e-07	0	55	0	389021696	59	5078
2026-01-03 06:59:04.86	68.16	20.60	-49.0	-51.5	14.2	3.80e-06	0	54	0	390070272	60	4896
2026-01-03 06:59:05.86	67.97	20.69	-48.8	-51.3	14.4	2.20e-06	0	54	0	392167424	60	4798
2026-01-03 06:59:06.84	67.78	20.78	-48.7	-51.0	14.7	2.20e-06	0	55	0	394264576	60	4642
2026-01-03 06:59:07.84	67.59	20.87	-48.7	-51.1	14.6	0.00e+00	0	54	0	396361728	60	4669
2026-01-03 06:59:08.83	67.40	20.95	-48.6	-50.8	14.9	7.00e-07	0	55	0	397410304	60	4541
2026-01-03 06:59:09.82	67.21	21.04	-48.5	-50.8	14.9	0.00e+00	0	55	0	399507456	60	4535
2026-01-03 06:59:10.81	67.01	21.13	-48.7	-50.9	14.8	0.00e+00	0	55	0	401604608	60	4569
2026-01-03 06:59:11.81	66.82	21.22	-48.5	-50.8	14.9	0.00e+00	0	55	0	403701760	60	4504
2026-01-03 06:59:12.79	66.62	21.31	-48.5	-50.7	15.0	0.00e+00	0	55	0	405798912	60	4452
2026-01-03 06:59:13.78	66.43	21.40	-48.5	-50.6	15.1	7.00e-07	0	55	0	406847488	60	4407
2026-01-03 06:59:14.77	66.23	21.49	-48.4	-50.5	15.2	0.00e+00	0	55	0	408944640	59	4634
2026-01-03 06:59:15.76	66.03	21.58	-48.5	-50.6	15.0	0.00e+00	0	55	0	411041792	59	4704
2026-01-03 06:59:16.75	65.83	21.66	-48.6	-50.8	14.9	7.00e-07	0	55	0	413138944	59	4786
2026-01-03 06:59:17.74	65.63	21.75	-48.7	-50.9	14.8	7.00e-07	0	55	0	414187520	59	4838
2026-01-03 06:59:18.73	65.43	21.84	-48.5	-50.7	15.0	0.00e+00	0	55	0	416284672	59	4736
2026-01-03 06:59:19.72	65.22	21.93	-48.5	-50.7	15.0	7.00e-07	0	55	0	418381824	59	4713
2026-01-03 06:59:20.71	65.02	22.02	-48.4	-50.5	15.2	0.00e+00	0	55	0	420478976	59	4613
2026-01-03 06:59:21.69	64.81	22.10	-48.4	-50.4	15.3	0.00e+00	0	54	0	421527552	59	4594
2026-01-03 06:59:22.67	64.61	22.19	-48.3	-50.4	15.3	0.00e+00	0	55	0	423624704	59	4583
2026-01-03 06:59:23.65	64.40	22.28	-48.4	-50.6	15.1	0.00e+00	0	55	0	425721856	59	4684
2026-01-03 06:59:24.64	64.19	22.37	-48.4	-50.6	15.1	1.50e-06	0	55	0	427819008	59	4656
2026-01-03 06:59:25.62	63.99	22.45	-48.3	-50.4	15.4	0.00e+00	0	55	0	428867584	59	4555
2026-01-03 06:59:26.61	63.77	22.54	-48.1	-50.1	15.6	0.00e+00	0	55	0	430964736	59	4428
2026-01-03 06:59:27.60	63.56	22.63	-48.0	-50.0	15.7	0.00e+00	0	55	0	433061888	59	4345
2026-01-03 06:59:28.59	63.35	22.71	-47.9	-49.8	15.9	0.00e+00	0	55	0	435159040	59	4261
2026-01-03 06:59:29.57	63.13	22.80	-47.9	-49.8	16.0	0.00e+00	0	55	0	437256192	58	4505
2026-01-03 06:59:30.56	62.92	22.89	-47.9	-49.8	15.9	0.00e+00	0	55	0	438304768	58	4510
2026-01-03 06:59:31.55	62.70	22.97	-48.0	-49.8	16.0	0.00e+00	0	55	0	440401920	58	4513
2026-01-03 06:59:32.53	62.48	23.06	-48.0	-49.9	15.9	0.00e+00	0	55	0	442499072	58	4554
2026-01-03 06:59:33.52	62.26	23.15	-48.0	-49.8	15.9	0.00e+00	0	55	0	444596224	58	4532
2026-01-03 06:59:34.52	62.04	23.23	-47.9	-49.7	16.0	0.00e+00	0	55	0	445644800	58	4491
2026-01-03 06:59:35.51	61.82	23.32	-47.9	-49.8	16.0	0.00e+00	0	55	0	447741952	58	4505
2026-01-03 06:59:36.50	61.59	23.41	-48.0	-50.0	15.8	0.00e+00	0	55	0	449839104	58	4605
2026-01-03 06:59:37.49	61.37	23.49	-48.0	-49.9	15.9	0.00e+00	0	55	0	451936256	58	4563
2026-01-03 06:59:38.47	61.14	23.58	-47.9	-49.7	16.1	0.00e+00	0	55	0	452984832	58	4457
2026-01-03 06:59:39.46	60.92	23.66	-47.8	-49.7	16.1	0.00e+00	0	55	0	455081984	58	4444
2026-01-03 06:59:40.45	60.69	23.75	-47.8	-49.5	16.2	0.00e+00	0	55	0	457179136	58	4386
2026-01-03 06:59:41.44	60.46	23.83	-47.7	-49.5	16.3	0.00e+00	0	55	0	459276288	58	4354
2026-01-03 06:59:42.43	60.22	23.92	-47.8	-49.6	16.1	0.00e+00	0	55	0	461373440	58	4437
2026-01-03 06:59:43.43	59.99	24.00	-47.8	-49.6	16.1	0.00e+00	0	55	0	462422016	58	4440
2026-01-03 06:59:44.42	59.76	24.09	-47.7	-49.5	16.3	0.00e+00	0	55	0	464519168	58	4372
2026-01-03 06:59:45.41	59.52	24.17	-47.8	-49.6	16.2	0.00e+00	0	55	0	466616320	58	4427
2026-01-03 06:59:46.40	59.28	24.25	-47.8	-49.7	16.1	0.00e+00	0	55	0	468713472	58	4449
2026-01-03 06:59:47.39	59.05	24.34	-47.7	-49.5	16.3	0.00e+00	0	55	0	469762048	58	4360
2026-01-03 06:59:48.39	58.80	24.42	-47.8	-49.6	16.1	0.00e+00	0	55	0	471859200	58	4424
2026-01-03 06:59:49.38	58.56	24.50	-47.8	-49.7	16.1	0.00e+00	0	55	0	473956352	58	4449
2026-01-03 06:59:50.37	58.32	24.59	-48.0	-49.9	15.9	0.00e+00	0	55	0	476053504	58	4551
2026-01-03 06:59:51.37	58.08	24.67	-48.0	-49.9	15.9	0.00e+00	0	55	0	478150656	58	4571
2026-01-03 06:59:52.36	57.83	24.75	-48.1	-50.0	15.8	0.00e+00	0	55	0	479199232	58	4614
2026-01-03 06:59:53.34	57.59	24.83	-48.1	-50.0	15.7	0.00e+00	0	55	0	481296384	58	4648
2026-01-03 06:59:54.32	57.35	24.91	-48.2	-50.2	15.6	0.00e+00	0	55	0	483393536	58	4714
2026-01-03 06:59:55.31	57.10	24.99	-48.1	-49.9	15.8	0.00e+00	0	55	0	484442112	58	4596
2026-01-03 06:59:56.30	56.85	25.08	-47.9	-49.7	16.0	0.00e+00	0	55	0	486539264	58	4471
2026-01-03 06:59:57.29	56.60	25.16	-47.8	-49.6	16.2	0.00e+00	0	55	0	488636416	58	4406
2026-01-03 06:59:58.28	56.35	25.24	-47.9	-49.7	16.1	0.00e+00	0	55	0	490733568	58	4470
2026-01-03 06:59:59.26	56.10	25.31	-47.9	-49.7	16.1	0.00e+00	0	55	0	492830720	58	4475
2026-01-03 07:00:00.25	55.84	25.39	-47.9	-49.8	16.0	0.00e+00	0	55	0	493879296	58	4532
2026-01-03 07:00:01.24	55.59	25.47	-48.0	-49.9	15.9	0.00e+00	0	55	0	495976448	58	4568
2026-01-03 07:00:02.23	55.33	25.55	-48.1	-50.0	15.9	0.00e+00	0	56	0	498073600	58	4601
2026-01-03 07:00:03.22	55.07	25.63	-48.1	-50.0	15.8	0.00e+00	0	56	0	500170752	58	4637
2026-01-03 07:00:04.21	54.81	25.71	-48.2	-50.1	15.7	0.00e+00	0	55	0	501219328	58	4682
2026-01-03 07:00:05.21	54.55	25.78	-48.3	-50.2	15.5	0.00e+00	0	55	0	503316480	58	4757
2026-01-03 07:00:06.20	54.28	25.86	-48.1	-50.0	15.8	0.00e+00	0	55	0	505413632	58	4641
2026-01-03 07:00:07.18	54.02	25.94	-48.2	-50.1	15.7	0.00e+00	0	55	0	507510784	58	4695
2026-01-03 07:00:08.17	53.76	26.01	-48.3	-50.3	15.4	0.00e+00	0	55	0	509607936	58	4788
2026-01-03 07:00:09.16	53.49	26.09	-48.4	-50.5	15.4	0.00e+00	0	55	0	510656512	58	4875
2026-01-03 07:00:10.15	53.23	26.16	-48.5	-50.5	15.3	0.00e+00	0	55	0	512753664	58	4916
2026-01-03 07:00:11.14	52.96	26.24	-48.3	-50.3	15.5	0.00e+00	0	55	0	514850816	58	4790
2026-01-03 07:00:12.13	52.69	26.31	-48.2	-50.2	15.6	0.00e+00	0	55	0	516947968	58	4723
2026-01-03 07:00:13.12	52.42	26.38	-48.2	-50.1	15.7	0.00e+00	0	56	0	517996544	58	4685
2026-01-03 07:00:14.11	52.14	26.46	-48.4	-50.4	15.4	0.00e+00	0	55	0	520093696	58	4850
2026-01-03 07:00:15.10	51.87	26.53	-48.1	-50.0	15.8	0.00e+00	0	55	0	522190848	58	4637
2026-01-03 07:00:16.10	51.59	26.60	-48.1	-50.0	15.8	0.00e+00	0	55	0	524288000	58	4625
2026-01-03 07:00:17.09	51.32	26.67	-48.1	-49.9	15.8	0.00e+00	0	55	0	525336576	58	4595
2026-01-03 07:00:18.08	51.04	26.74	-48.2	-50.1	15.7	0.00e+00	0	55	0	527433728	58	4680
2026-01-03 07:00:19.06	50.76	26.81	-48.2	-50.2	15.5	0.00e+00	0	55	0	529530880	58	4743
2026-01-03 07:00:20.05	50.49	26.88	-48.1	-50.0	15.8	0.00e+00	0	55	0	531628032	58	4622
2026-01-03 07:00:21.03	50.21	26.95	-47.9	-49.7	16.1	0.00e+00	0	55	0	533725184	58	4454
2026-01-03 07:00:22.02	49.92	27.02	-47.8	-49.6	16.2	0.00e+00	0	55	0	534773760	58	4399
2026-01-03 07:00:23.01	49.64	27.09	-47.9	-49.7	16.1	0.00e+00	0	55	0	536870912	58	4487
2026-01-03 07:00:24.01	49.35	27.16	-47.9	-49.8	16.0	0.00e+00	0	55	0	538968064	58	4519
2026-01-03 07:00:24.99	49.07	27.22	-48.1	-49.9	15.9	0.00e+00	0	55	0	541065216	58	4577
2026-01-03 07:00:25.98	48.78	27.29	-48.1	-50.0	15.8	0.00e+00	0	55	0	542113792	58	4624
2026-01-03 07:00:26.98	48.49	27.35	-48.1	-49.9	15.9	0.00e+00	0	55	0	544210944	58	4588
2026-01-03 07:00:27.96	48.21	27.42	-48.0	-49.9	15.8	0.00e+00	0	55	0	546308096	58	4598
2026-01-03 07:00:28.95	47.92	27.48	-48.3	-50.2	15.6	0.00e+00	0	55	0	548405248	58	4733
2026-01-03 07:00:29.94	47.62	27.54	-48.2	-50.1	15.7	0.00e+00	0	55	0	549453824	58	4670
2026-01-03 07:00:30.93	47.33	27.61	-48.2	-50.1	15.7	0.00e+00	0	55	0	551550976	58	4685
2026-01-03 07:00:31.92	47.04	27.67	-48.3	-50.2	15.6	0.00e+00	0	55	0	553648128	58	4730
2026-01-03 07:00:32.90	46.75	27.73	-48.3	-50.3	15.6	0.00e+00	0	55	0	555745280	58	4768
2026-01-03 07:00:33.89	46.45	27.79	-48.5	-50.6	15.3	0.00e+00	0	55	0	557842432	58	4949
2026-01-03 07:00:34.89	46.15	27.85	-48.5	-50.6	15.2	0.00e+00	0	55	0	558891008	58	4968
2026-01-03 07:00:35.86	45.86	27.91	-48.5	-50.7	15.1	0.00e+00	0	55	0	560988160	58	5017
2026-01-03 07:00:36.85	45.56	27.97	-48.7	-50.9	15.0	0.00e+00	0	55	0	563085312	59	4836
2026-01-03 07:00:37.84	45.26	28.02	-48.5	-50.6	15.2	0.00e+00	0	56	0	565182464	59	4672
2026-01-03 07:00:38.83	44.95	28.08	-48.3	-50.4	15.4	0.00e+00	0	56	0	566231040	59	4592
2026-01-03 07:00:39.81	44.65	28.14	-48.5	-50.6	15.3	0.00e+00	0	55	0	568328192	59	4663
2026-01-03 07:00:40.80	44.35	28.19	-48.5	-50.7	15.1	0.00e+00	0	55	0	570425344	59	4706
2026-01-03 07:00:41.79	44.05	28.25	-48.6	-50.7	15.1	0.00e+00	0	56	0	572522496	59	4740
2026-01-03 07:00:42.78	43.74	28.30	-48.7	-50.8	15.0	0.00e+00	0	56	0	573571072	59	4801
2026-01-03 07:00:43.77	43.43	28.35	-48.8	-51.1	14.7	0.00e+00	0	55	0	575668224	59	4929
2026-01-03 07:00:44.76	43.12	28.40	-48.9	-51.2	14.5	0.00e+00	0	55	0	577765376	59	5037
2026-01-03 07:00:45.74	42.82	28.45	-49.0	-51.4	14.4	7.00e-07	0	55	0	579862528	59	5139
2026-01-03 07:00:46.73	42.51	28.50	-49.0	-51.5	14.3	7.00e-07	0	55	0	580911104	60	4872
2026-01-03 07:00:47.71	42.20	28.55	-49.1	-51.5	14.3	0.00e+00	0	56	0	583008256	60	4922
2026-01-03 07:00:48.70	41.89	28.60	-49.0	-51.4	14.4	1.50e-06	0	56	0	585105408	60	4817
2026-01-03 07:00:49.69	41.58	28.65	-48.9	-51.2	14.6	0.00e+00	0	55	0	587202560	60	4739
2026-01-03 07:00:50.68	41.26	28.70	-48.8	-51.1	14.7	7.00e-07	0	55	0	589299712	60	4688
2026-01-03 07:00:51.67	40.95	28.74	-48.9	-51.2	14.6	1.50e-06	0	55	0	590348288	60	4749
2026-01-03 07:00:52.66	40.63	28.79	-48.9	-51.3	14.5	0.00e+00	0	56	0	592445440	60	4785
2026-01-03 07:00:53.65	40.32	28.83	-48.9	-51.3	14.5	1.50e-06	0	56	0	594542592	60	4781
2026-01-03 07:00:54.64	40.00	28.88	-48.9	-51.3	14.5	0.00e+00	0	56	0	596639744	60	4780
2026-01-03 07:00:55.63	39.68	28.92	-48.8	-51.2	14.6	7.00e-07	0	56	0	597688320	60	4719
2026-01-03 07:00:56.62	39.36	28.96	-48.9	-51.2	14.6	0.00e+00	0	56	0	599785472	60	4725
2026-01-03 07:00:57.61	39.04	29.00	-48.9	-51.2	14.6	1.50e-06	0	55	0	601882624	60	4755
2026-01-03 07:00:58.60	38.72	29.04	-49.0	-51.3	14.5	0.00e+00	0	56	0	603979776	60	4808
2026-01-03 07:00:59.59	38.40	29.08	-49.1	-51.4	14.4	7.00e-07	0	56	0	605028352	60	4852
2026-01-03 07:01:00.57	38.08	29.12	-48.9	-51.2	14.6	7.00e-07	0	56	0	607125504	60	4756
2026-01-03 07:01:01.56	37.76	29.15	-48.9	-51.1	14.5	0.00e+00	0	56	0	609222656	60	4700
2026-01-03 07:01:02.56	37.43	29.19	-49.0	-51.3	14.5	7.00e-07	0	56	0	611319808	60	4775
2026-01-03 07:01:03.54	37.11	29.22	-48.9	-51.3	14.5	0.00e+00	0	56	0	613416960	60	4801
2026-01-03 07:01:04.52	36.79	29.26	-48.9	-51.2	14.6	0.00e+00	0	55	0	614465536	60	4723
2026-01-03 07:01:05.51	36.46	29.29	-48.9	-51.1	14.7	0.00e+00	0	56	0	616562688	60	4677
2026-01-03 07:01:06.50	36.14	29.32	-48.9	-51.2	14.6	7.00e-07	0	56	0	618659840	60	4754
2026-01-03 07:01:07.48	35.81	29.35	-49.0	-51.4	14.4	1.50e-06	0	56	0	620756992	60	4841
2026-01-03 07:01:08.47	35.49	29.38	-49.1	-51.5	14.3	7.00e-07	0	55	0	621805568	60	4914
2026-01-03 07:01:09.46	35.16	29.41	-49.0	-51.4	14.5	0.00e+00	0	56	0	623902720	60	4825
2026-01-03 07:01:10.45	34.83	29.44	-49.0	-51.4	14.4	0.00e+00	0	56	0	625999872	60	4858
2026-01-03 07:01:11.43	34.50	29.46	-49.2	-51.7	14.1	7.00e-07	0	56	0	628097024	60	5023
2026-01-03 07:01:12.42	34.17	29.49	-49.3	-51.9	13.9	2.20e-06	0	56	0	629145600	60	5156
2026-01-03 07:01:13.40	33.85	29.51	-49.5	-52.2	13.6	1.14e-05	0	56	0	631242752	60	5340
2026-01-03 07:01:14.39	33.52	29.54	-49.5	-52.2	13.6	1.14e-05	0	56	0	633339904	60	5316
2026-01-03 07:01:15.38	33.18	29.56	-49.4	-52.1	13.7	6.10e-06	0	56	0	635437056	60	5241
2026-01-03 07:01:16.37	32.85	29.58	-49.7	-52.5	13.3	1.22e-05	0	56	0	637534208	61	5184
2026-01-03 07:01:17.37	32.52	29.60	-49.8	-52.7	13.1	3.81e-05	0	56	0	638582784	61	5307
2026-01-03 07:01:18.36	32.18	29.62	-49.7	-52.5	13.3	2.05e-05	0	56	0	640679936	61	5184
2026-01-03 07:01:19.36	31.85	29.64	-49.7	-52.5	13.3	2.13e-05	0	56	0	642777088	61	5188
2026-01-03 07:01:20.35	31.51	29.66	-49.6	-52.4	13.4	1.52e-05	0	56	0	644874240	61	5105
2026-01-03 07:01:21.34	31.18	29.67	-49.5	-52.1	13.7	1.06e-05	0	56	0	645922816	61	4981
2026-01-03 07:01:22.34	30.84	29.69	-49.6	-52.3	13.5	6.80e-06	0	56	0	648019968	61	5043
2026-01-03 07:01:23.32	30.51	29.70	-49.7	-52.5	13.3	1.14e-05	0	56	0	650117120	61	5166
2026-01-03 07:01:24.32	30.17	29.71	-49.7	-52.6	13.1	2.21e-05	0	56	0	652214272	61	5249
2026-01-03 07:01:25.30	29.84	29.73	-49.8	-52.7	13.0	2.97e-05	0	56	0	653262848	61	5334
2026-01-03 07:01:26.29	29.51	29.74	-49.6	-52.4	13.4	2.13e-05	0	56	0	655360000	61	5154
2026-01-03 07:01:27.28	29.17	29.75	-49.3	-52.1	13.7	7.60e-06	0	56	0	657457152	61	4928
2026-01-03 07:01:28.26	28.84	29.75	-49.2	-51.8	14.0	3.80e-06	0	56	0	659554304	61	4770
2026-01-03 07:01:29.24	28.51	29.76	-49.4	-52.0	13.8	7.00e-07	0	56	0	660602880	61	4872
2026-01-03 07:01:30.22	28.18	29.77	-49.5	-52.2	13.5	6.10e-06	0	56	0	662700032	61	5029
2026-01-03 07:01:31.21	27.84	29.77	-49.7	-52.5	13.3	1.67e-05	0	56	0	664797184	61	5175
2026-01-03 07:01:32.20	27.50	29.78	-49.6	-52.4	13.3	2.44e-05	0	56	0	666894336	61	5152
2026-01-03 07:01:33.19	27.17	29.78	-49.5	-52.3	13.5	1.37e-05	0	56	0	668991488	61	5069
2026-01-03 07:01:34.18	26.83	29.78	-49.4	-52.1	13.7	9.10e-06	0	56	0	670040064	61	4950
2026-01-03 07:01:35.17	26.50	29.78	-49.4	-52.1	13.7	6.10e-06	0	56	0	672137216	61	4937
2026-01-03 07:01:36.15	26.16	29.78	-49.4	-52.1	13.6	7.60e-06	0	56	0	674234368	61	4970
2026-01-03 07:01:37.14	25.83	29.78	-49.4	-52.0	13.8	9.90e-06	0	56	0	676331520	61	4906
2026-01-03 07:01:38.14	25.49	29.78	-49.4	-52.0	13.7	4.50e-06	0	56	0	677380096	61	4895
2026-01-03 07:01:39.13	25.15	29.77	-49.4	-52.1	13.6	4.50e-06	0	56	0	679477248	61	4971
2026-01-03 07:01:40.12	24.82	29.77	-49.4	-52.1	13.6	7.60e-06	0	56	0	681574400	61	4957
2026-01-03 07:01:41.10	24.48	29.76	-49.4	-52.1	13.5	1.22e-05	0	56	0	683671552	61	4979
2026-01-03 07:01:42.10	24.14	29.76	-49.2	-51.7	14.0	3.00e-06	0	56	0	684720128	61	4735
2026-01-03 07:01:43.09	23.81	29.75	-49.1	-51.6	14.1	0.00e+00	0	56	0	686817280	61	4681
2026-01-03 07:01:44.08	23.47	29.74	-49.2	-51.8	14.0	2.20e-06	0	56	0	688914432	61	4769
2026-01-03 07:01:45.07	23.14	29.73	-49.3	-52.1	13.7	4.50e-06	0	56	0	691011584	61	4941
2026-01-03 07:01:46.06	22.80	29.72	-49.3	-51.9	13.8	2.20e-06	0	56	0	693108736	61	4852
2026-01-03 07:01:47.04	22.47	29.70	-49.0	-51.4	14.3	6.80e-06	0	56	0	694157312	61	4560
2026-01-03 07:01:48.03	22.14	29.69	-48.7	-51.0	14.7	0.00e+00	0	56	0	696254464	60	4607
2026-01-03 07:01:49.02	21.81	29.68	-48.6	-50.9	14.8	0.00e+00	0	56	0	698351616	60	4556
2026-01-03 07:01:50.01	21.47	29.66	-48.8	-51.2	14.4	7.00e-07	0	56	0	700448768	60	4710
2026-01-03 07:01:51.00	21.14	29.64	-48.7	-51.1	14.5	1.50e-06	0	56	0	701497344	60	4662
2026-01-03 07:01:51.99	20.81	29.62	-48.9	-51.6	13.9	3.00e-06	0	56	0	703594496	60	4941
2026-01-03 07:01:52.98	20.47	29.61	-48.9	-51.5	14.0	2.20e-06	0	56	0	705691648	60	4881
2026-01-03 07:01:53.98	20.14	29.59	-49.1	-51.8	13.6	8.30e-06	0	56	0	707788800	60	5068
2026-01-03 07:01:54.97	19.81	29.56	-49.1	-51.8	13.6	9.90e-06	0	56	0	709885952	60	5044
2026-01-03 07:01:55.95	19.48	29.54	-49.2	-52.0	13.3	1.83e-05	0	56	0	710934528	60	5205
2026-01-03 07:01:56.95	19.14	29.52	-49.1	-51.9	13.4	1.06e-05	0	56	0	713031680	60	5124
2026-01-03 07:01:57.94	18.81	29.49	-49.0	-51.7	13.5	1.22e-05	0	56	0	715128832	60	4992
2026-01-03 07:01:58.92	18.49	29.47	-48.8	-51.5	13.7	6.80e-06	0	56	0	717225984	60	4872
2026-01-03 07:01:59.91	18.16	29.44	-48.8	-51.6	13.5	9.10e-06	0	56	0	718274560	60	4945
2026-01-03 07:02:00.89	17.83	29.42	-48.9	-51.8	13.3	2.51e-05	0	56	0	720371712	60	5076
2026-01-03 07:02:01.88	17.50	29.39	-49.1	-52.1	12.9	2.67e-05	0	56	0	722468864	60	5259
2026-01-03 07:02:02.86	17.18	29.36	-49.2	-52.4	12.5	7.01e-05	0	56	0	724566016	60	5427
2026-01-03 07:02:03.84	16.86	29.33	-49.6	-53.1	11.7	4.37e-04	0	56	0	725614592	60	5899
2026-01-03 07:02:04.83	16.53	29.30	-49.8	-53.9	10.7	1.95e-03	0	56	0	727711744	61	6106
2026-01-03 07:02:05.81	16.21	29.26	-50.3	-55.1	9.4	6.14e-03	0	56	0	729808896	62	6621
2026-01-03 07:02:06.80	15.88	29.23	-50.4	-55.5	9.0	2.19e-02	0	56	0	731906048	62	6914
2026-01-03 07:02:07.79	15.56	29.20	-50.5	-56.0	8.4	4.13e-02	0	56	0	732954624	62	7301
2026-01-03 07:02:08.78	15.24	29.16	-50.4	-55.8	8.5	4.60e-02	0	56	0	735051776	62	7124
2026-01-03 07:02:09.77	14.91	29.12	-50.2	-55.5	8.8	3.34e-02	0	56	0	737148928	62	6908
2026-01-03 07:02:10.77	14.59	29.09	-50.3	-55.6	8.7	3.18e-02	0	56	0	739246080	62	6998
2026-01-03 07:02:11.76	14.27	29.05	-50.4	-55.5	9.0	3.05e-02	0	56	0	740294656	62	6898
2026-01-03 07:02:12.75	13.95	29.01	-50.2	-54.8	9.8	1.59e-02	0	56	0	742391808	62	6379
2026-01-03 07:02:13.74	13.63	28.97	-50.0	-54.2	10.5	6.72e-03	0	56	0	744488960	62	5926
2026-01-03 07:02:14.74	13.30	28.93	-49.9	-53.8	11.1	1.80e-03	0	56	0	746586112	62	5660
2026-01-03 07:02:15.72	12.99	28.89	-49.8	-53.5	11.5	1.08e-03	0	56	0	748683264	62	5525
2026-01-03 07:02:16.71	12.67	28.84	-49.9	-53.7	11.4	8.56e-04	0	56	0	749731840	62	5621
2026-01-03 07:02:17.70	12.36	28.80	-50.0	-53.5	11.8	1.06e-03	0	56	0	751828992	62	5500
2026-01-03 07:02:18.69	12.04	28.75	-49.8	-53.1	12.2	2.75e-04	0	56	0	753926144	62	5270
2026-01-03 07:02:19.68	11.73	28.71	-49.8	-53.0	12.5	1.42e-04	0	56	0	756023296	62	5178
2026-01-03 07:02:20.67	11.41	28.66	-49.8	-53.2	12.4	1.03e-04	0	56	0	757071872	62	5281
2026-01-03 07:02:21.65	11.10	28.61	-49.9	-53.1	12.5	1.88e-04	0	56	0	759169024	62	5265
2026-01-03 07:02:22.64	10.79	28.57	-49.8	-52.9	12.7	9.38e-05	0	56	0	761266176	62	5145
2026-01-03 07:02:23.63	10.48	28.52	-49.6	-52.7	12.8	8.23e-05	0	56	0	763363328	62	5025
2026-01-03 07:02:24.62	10.17	28.47	-49.6	-52.6	13.0	5.34e-05	0	56	0	765460480	62	4963
2026-01-03 07:02:25.61	9.86	28.42	-49.6	-52.5	13.1	4.27e-05	0	56	0	766509056	62	4915
2026-01-03 07:02:26.60	9.55	28.36	-49.5	-52.4	13.2	2.59e-05	0	56	0	768606208	62	4827
2026-01-03 07:02:27.59	9.25	28.31	-49.4	-52.1	13.5	1.37e-05	0	56	0	770703360	61	4944
2026-01-03 07:02:28.58	8.94	28.26	-49.2	-52.0	13.6	8.30e-06	0	56	0	772800512	61	4873
2026-01-03 07:02:29.57	8.64	28.20	-49.3	-52.1	13.5	3.00e-06	0	56	0	773849088	61	4944
2026-01-03 07:02:30.55	8.33	28.15	-49.4	-52.2	13.4	1.37e-05	0	56	0	775946240	61	5014
2026-01-03 07:02:31.54	8.03	28.09	-49.5	-52.4	13.2	2.82e-05	0	56	0	778043392	61	5113
2026-01-03 07:02:32.54	7.73	28.04	-49.5	-52.4	13.2	2.13e-05	0	56	0	780140544	61	5117
2026-01-03 07:02:33.53	7.43	27.98	-49.4	-52.5	13.1	3.58e-05	0	56	0	781189120	61	5178
2026-01-03 07:02:34.52	7.13	27.92	-49.6	-52.6	12.9	3.20e-05	0	56	0	783286272	61	5241
2026-01-03 07:02:35.50	6.83	27.86	-49.6	-52.8	12.7	5.41e-05	0	56	0	785383424	61	5381
2026-01-03 07:02:36.49	6.53	27.80	-49.7	-52.9	12.7	6.40e-05	0	56	0	787480576	61	5429
2026-01-03 07:02:37.48	6.24	27.74	-49.8	-53.0	12.5	1.04e-04	0	56	0	789577728	61	5470
2026-01-03 07:02:38.47	5.94	27.68	-49.7	-52.8	12.8	8.92e-05	0	56	0	790626304	61	5359
2026-01-03 07:02:39.46	5.65	27.62	-49.7	-52.8	12.8	5.26e-05	0	56	0	792723456	61	5344
2026-01-03 07:02:40.45	5.36	27.56	-49.8	-52.8	12.8	5.64e-05	0	56	0	794820608	61	5382
2026-01-03 07:02:41.44	5.07	27.49	-49.6	-52.5	13.1	3.81e-05	0	56	0	796917760	61	5184
2026-01-03 07:02:42.43	4.78	27.43	-49.5	-52.5	13.0	3.35e-05	0	56	0	797966336	61	5194
2026-01-03 07:02:43.42	4.49	27.37	-49.7	-53.1	12.3	9.61e-05	0	56	0	800063488	61	5535
2026-01-03 07:02:44.41	4.20	27.30	-50.0	-53.6	11.7	2.53e-04	0	56	0	802160640	61	5856
2026-01-03 07:02:45.41	3.91	27.24	-50.0	-53.8	11.4	9.68e-04	0	56	0	804257792	62	5685
2026-01-03 07:02:46.40	3.62	27.17	-49.9	-53.4	11.8	6.38e-04	0	56	0	805306368	62	5458
2026-01-03 07:02:47.39	3.34	27.10	-49.8	-53.0	12.4	3.49e-04	0	56	0	807403520	62	5195
2026-01-03 07:02:48.37	3.06	27.04	-49.6	-52.5	13.0	3.73e-05	0	56	0	809500672	62	4896
2026-01-03 07:02:49.35	2.78	26.97	-49.4	-52.2	13.5	1.98e-05	0	56	0	811597824	61	5001
2026-01-03 07:02:50.35	2.50	26.90	-49.4	-52.2	13.5	8.30e-06	0	56	0	813694976	61	4990
2026-01-03 07:02:51.33	2.22	26.83	-49.3	-52.1	13.7	7.60e-06	0	56	0	814743552	61	4937
2026-01-03 07:02:52.33	1.94	26.76	-49.3	-52.1	13.7	9.90e-06	0	56	0	816840704	61	4929
2026-01-03 07:02:53.31	1.66	26.69	-49.2	-51.8	13.9	3.80e-06	0	57	0	818937856	61	4801
2026-01-03 07:02:54.31	1.38	26.62	-49.1	-51.7	14.0	3.80e-06	0	56	0	821035008	61	4732
2026-01-03 07:02:55.29	1.11	26.55	-49.1	-51.7	14.0	2.20e-06	0	56	0	822083584	61	4706
2026-01-03 07:02:56.29	0.84	26.47	-49.1	-51.7	14.1	2.20e-06	0	56	0	824180736	61	4713
2026-01-03 07:02:57.27	0.57	26.40	-49.1	-51.7	14.0	3.00e-06	0	56	0	826277888	61	4735
2026-01-03 07:02:58.26	0.30	26.33	-49.0	-51.4	14.3	1.50e-06	0	56	0	828375040	61	4576
2026-01-03 07:02:59.25	0.03	26.26	-48.9	-51.3	14.4	3.00e-06	0	56	0	829423616	61	4522
2026-01-03 07:03:00.24	359.76	26.18	-49.0	-51.4	14.3	0.00e+00	0	56	0	831520768	61	4573
2026-01-03 07:03:01.23	359.49	26.11	-49.0	-51.5	14.3	3.00e-06	0	56	0	833617920	61	4602
2026-01-03 07:03:02.22	359.23	26.03	-49.0	-51.4	14.3	0.00e+00	0	56	0	835715072	61	4548
2026-01-03 07:03:03.21	358.96	25.96	-49.0	-51.4	14.3	7.00e-07	0	56	0	836763648	61	4576
2026-01-03 07:03:04.20	358.70	25.88	-49.0	-51.3	14.4	7.00e-07	0	56	0	838860800	61	4524
2026-01-03 07:03:05.19	358.44	25.80	-49.1	-51.5	14.2	2.20e-06	0	56	0	840957952	61	4624
2026-01-03 07:03:06.18	358.18	25.73	-48.8	-51.1	14.6	0.00e+00	0	56	0	843055104	60	4700
2026-01-03 07:03:07.17	357.92	25.65	-48.7	-50.9	14.8	0.00e+00	0	56	0	845152256	60	4557
2026-01-03 07:03:08.15	357.66	25.57	-48.5	-50.6	15.1	0.00e+00	0	56	0	846200832	60	4435
2026-01-03 07:03:09.15	357.40	25.49	-48.4	-50.6	15.2	0.00e+00	0	56	0	848297984	60	4396
2026-01-03 07:03:10.13	357.15	25.42	-48.5	-50.6	15.1	0.00e+00	0	56	0	850395136	60	4427
2026-01-03 07:03:11.12	356.89	25.34	-48.5	-50.6	15.1	0.00e+00	0	56	0	852492288	59	4669
2026-01-03 07:03:12.11	356.64	25.26	-48.7	-50.9	14.9	7.00e-07	0	56	0	853540864	59	4825
2026-01-03 07:03:13.10	356.39	25.18	-48.5	-50.5	15.2	0.00e+00	0	56	0	855638016	59	4640
2026-01-03 07:03:14.09	356.14	25.10	-48.4	-50.4	15.3	0.00e+00	0	56	0	857735168	59	4563
2026-01-03 07:03:15.09	355.89	25.02	-48.2	-50.2	15.6	0.00e+00	0	56	0	859832320	59	4463
2026-01-03 07:03:16.08	355.64	24.94	-48.1	-50.1	15.6	0.00e+00	0	56	0	861929472	59	4428
2026-01-03 07:03:17.07	355.39	24.85	-48.0	-49.9	15.8	0.00e+00	0	56	0	862978048	59	4310
2026-01-03 07:03:18.07	355.15	24.77	-48.0	-49.9	15.8	0.00e+00	0	56	0	865075200	59	4316
2026-01-03 07:03:19.06	354.90	24.69	-48.1	-50.0	15.7	0.00e+00	0	56	0	867172352	59	4356
2026-01-03 07:03:20.04	354.66	24.61	-48.2	-50.1	15.6	0.00e+00	0	56	0	869269504	59	4412
2026-01-03 07:03:21.03	354.42	24.53	-47.9	-49.8	15.9	0.00e+00	0	56	0	870318080	59	4257
2026-01-03 07:03:22.02	354.18	24.44	-47.8	-49.6	16.1	0.00e+00	0	56	0	872415232	58	4413
2026-01-03 07:03:23.01	353.94	24.36	-47.8	-49.5	16.2	0.00e+00	0	57	0	874512384	58	4369
2026-01-03 07:03:24.00	353.70	24.28	-47.8	-49.6	16.1	0.00e+00	0	56	0	876609536	58	4417
2026-01-03 07:03:24.99	353.47	24.19	-47.8	-49.6	16.1	0.00e+00	0	56	0	877658112	58	4402
2026-01-03 07:03:25.98	353.23	24.11	-47.8	-49.7	16.0	0.00e+00	0	56	0	879755264	58	4443
2026-01-03 07:03:26.97	353.00	24.03	-47.6	-49.3	16.4	0.00e+00	0	56	0	881852416	58	4279
2026-01-03 07:03:27.95	352.77	23.94	-47.4	-49.1	16.6	0.00e+00	0	56	0	883949568	58	4172
2026-01-03 07:03:28.94	352.54	23.86	-47.4	-49.0	16.7	0.00e+00	0	56	0	886046720	57	4384
2026-01-03 07:03:29.93	352.31	23.77	-47.4	-49.0	16.6	0.00e+00	0	56	0	887095296	57	4364
2026-01-03 07:03:30.92	352.08	23.69	-47.3	-48.9	16.7	0.00e+00	0	57	0	889192448	57	4334
2026-01-03 07:03:31.90	351.85	23.60	-47.4	-49.1	16.5	0.00e+00	0	57	0	891289600	57	4440
2026-01-03 07:03:32.89	351.63	23.52	-47.5	-49.2	16.4	0.00e+00	0	57	0	893386752	57	4493
2026-01-03 07:03:33.88	351.40	23.43	-47.2	-48.9	16.8	0.00e+00	0	57	0	894435328	57	4301
2026-01-03 07:03:34.87	351.18	23.35	-47.1	-48.7	17.0	0.00e+00	0	56	0	896532480	57	4201
2026-01-03 07:03:35.86	350.96	23.26	-47.0	-48.6	17.0	0.00e+00	0	56	0	898629632	57	4148
2026-01-03 07:03:36.85	350.73	23.18	-47.0	-48.6	17.0	0.00e+00	0	56	0	900726784	57	4187
2026-01-03 07:03:37.83	350.52	23.09	-47.1	-48.6	17.0	0.00e+00	0	56	0	901775360	57	4183
2026-01-03 07:03:38.82	350.30	23.00	-47.2	-48.8	16.9	0.00e+00	0	56	0	903872512	57	4253
2026-01-03 07:03:39.81	350.08	22.92	-47.1	-48.6	17.0	0.00e+00	0	56	0	905969664	57	4174
2026-01-03 07:03:40.80	349.86	22.83	-46.9	-48.4	17.2	0.00e+00	0	56	0	908066816	56	4311
2026-01-03 07:03:41.80	349.65	22.74	-46.7	-48.2	17.4	0.00e+00	0	56	0	910163968	56	4221
2026-01-03 07:03:42.79	349.43	22.66	-46.7	-48.2	17.4	0.00e+00	0	56	0	911212544	56	4220
2026-01-03 07:03:43.78	349.22	22.57	-46.6	-48.0	17.6	0.00e+00	0	57	0	913309696	56	4119
2026-01-03 07:03:44.77	349.01	22.48	-46.5	-47.9	17.7	0.00e+00	0	56	0	915406848	56	4081
2026-01-03 07:03:45.76	348.80	22.39	-46.5	-47.9	17.7	0.00e+00	0	56	0	917504000	56	4073
2026-01-03 07:03:46.75	348.59	22.31	-46.6	-48.0	17.6	0.00e+00	0	56	0	918552576	56	4138
2026-01-03 07:03:47.75	348.38	22.22	-46.5	-47.9	17.7	0.00e+00	0	57	0	920649728	56	4070
2026-01-03 07:03:48.75	348.17	22.13	-46.3	-47.6	17.8	0.00e+00	0	57	0	922746880	55	4177
2026-01-03 07:03:49.73	347.97	22.04	-46.3	-47.6	17.9	0.00e+00	0	57	0	924844032	55	4178
2026-01-03 07:03:50.71	347.76	21.95	-46.4	-47.8	17.7	0.00e+00	0	57	0	926941184	55	4272
2026-01-03 07:03:51.70	347.56	21.87	-46.5	-48.0	17.5	0.00e+00	0	56	0	927989760	55	4352
2026-01-03 07:03:52.69	347.36	21.78	-46.5	-47.9	17.6	0.00e+00	0	56	0	930086912	55	4297
2026-01-03 07:03:53.67	347.16	21.69	-46.2	-47.5	17.9	0.00e+00	0	56	0	932184064	55	4131
2026-01-03 07:03:54.66	346.96	21.60	-46.0	-47.3	18.1	0.00e+00	0	57	0	933232640	55	4027
2026-01-03 07:03:55.65	346.76	21.51	-46.0	-47.3	18.1	0.00e+00	0	56	0	935329792	55	4028
2026-01-03 07:03:56.64	346.57	21.43	-45.9	-47.2	18.1	0.00e+00	0	57	0	937426944	55	4000
2026-01-03 07:03:57.63	346.37	21.34	-46.1	-47.4	18.0	0.00e+00	0	57	0	939524096	55	4090
2026-01-03 07:03:58.61	346.18	21.25	-46.2	-47.5	17.9	0.00e+00	0	57	0	941621248	55	4136
2026-01-03 07:03:59.60	345.98	21.16	-46.3	-47.8	17.7	0.00e+00	0	56	0	942669824	55	4251
2026-01-03 07:04:00.60	345.79	21.07	-46.4	-47.8	17.6	0.00e+00	0	56	0	944766976	55	4287
2026-01-03 07:04:01.59	345.60	20.98	-46.5	-48.0	17.4	0.00e+00	0	56	0	946864128	55	4349
2026-01-03 07:04:02.58	345.40	20.90	-46.8	-48.3	17.1	0.00e+00	0	56	0	948961280	55	4525
2026-01-03 07:04:03.57	345.21	20.81	-46.8	-48.3	17.1	0.00e+00	0	56	0	950009856	55	4514
2026-01-03 07:04:04.55	345.03	20.72	-46.8	-48.4	17.0	0.00e+00	0	56	0	952107008	55	4551
2026-01-03 07:04:05.54	344.84	20.63	-46.9	-48.5	16.9	0.00e+00	0	56	0	954204160	55	4628
2026-01-03 07:04:06.54	344.65	20.54	-46.9	-48.5	16.8	0.00e+00	0	56	0	956301312	55	4649
2026-01-03 07:04:07.53	344.47	20.45	-47.0	-48.6	16.7	0.00e+00	0	57	0	958398464	55	4701
2026-01-03 07:04:08.52	344.28	20.36	-47.3	-49.0	16.5	0.00e+00	0	57	0	959447040	56	4627
2026-01-03 07:04:09.52	344.10	20.27	-47.5	-49.2	16.3	0.00e+00	0	56	0	961544192	57	4479
2026-01-03 07:04:10.50	343.92	20.19	-47.3	-49.0	16.4	0.00e+00	0	56	0	963641344	57	4383
2026-01-03 07:04:11.50	343.74	20.10	-47.3	-49.0	16.4	0.00e+00	0	57	0	965738496	57	4379
2026-01-03 07:04:12.49	343.56	20.01	-47.2	-48.9	16.5	0.00e+00	0	57	0	966787072	57	4320
2026-01-03 07:04:13.47	343.38	19.92	-47.0	-48.6	16.7	0.00e+00	0	56	0	968884224	57	4189
2026-01-03 07:04:14.47	343.20	19.83	-47.0	-48.7	16.6	0.00e+00	0	57	0	970981376	57	4204
2026-01-03 07:04:15.45	343.03	19.74	-47.3	-49.1	16.0	0.00e+00	0	57	0	973078528	57	4441
2026-01-03 07:04:16.43	342.85	19.65	-47.4	-49.4	15.7	0.00e+00	0	56	0	974127104	57	4555
2026-01-03 07:04:17.42	342.68	19.57	-47.4	-49.5	15.5	0.00e+00	0	57	0	976224256	57	4606
2026-01-03 07:04:18.41	342.50	19.48	-47.6	-49.7	15.1	0.00e+00	0	57	0	978321408	57	4742
2026-01-03 07:04:19.40	342.33	19.39	-48.0	-50.5	14.2	1.50e-06	0	57	0	980418560	57	5196
2026-01-03 07:04:20.39	342.16	19.30	-48.8	-51.8	12.9	8.30e-06	0	57	0	982515712	59	5349
2026-01-03 07:04:21.38	341.99	19.21	-49.4	-53.4	11.1	2.61e-04	0	57	0	983564288	60	6069
2026-01-03 07:04:22.37	341.82	19.12	-49.9	-54.6	9.7	9.71e-03	0	57	0	985661440	61	6592
2026-01-03 07:04:23.36	341.65	19.04	-50.1	-55.0	9.1	1.68e-02	0	57	0	987758592	61	6959
2026-01-03 07:04:24.34	341.48	18.95	-50.0	-55.1	9.1	2.61e-02	0	57	0	989855744	62	6586
2026-01-03 07:04:25.33	341.32	18.86	-49.9	-54.8	9.3	1.82e-02	0	57	0	990904320	62	6393
2026-01-03 07:04:26.31	341.15	18.77	-50.0	-54.8	9.3	1.49e-02	0	57	0	993001472	62	6382
2026-01-03 07:04:27.31	340.99	18.68	-50.0	-54.9	9.3	1.86e-02	0	57	0	995098624	62	6460
2026-01-03 07:04:28.29	340.83	18.60	-50.0	-54.7	9.6	1.77e-02	0	57	0	997195776	62	6343
2026-01-03 07:04:29.28	340.66	18.51	-50.0	-54.3	10.2	7.62e-03	0	57	0	998244352	62	6022
2026-01-03 07:04:30.27	340.50	18.42	-49.7	-53.4	11.4	2.16e-03	0	57	0	1000341504	62	5406
2026-01-03 07:04:31.25	340.34	18.33	-49.3	-52.6	12.3	4.32e-04	0	57	0	1002438656	61	5239
2026-01-03 07:04:32.24	340.18	18.25	-49.0	-52.0	13.0	8.31e-05	0	56	0	1004535808	61	4906
2026-01-03 07:04:33.22	340.03	18.16	-48.8	-51.6	13.5	8.30e-06	0	56	0	1006632960	60	4971
2026-01-03 07:04:34.21	339.87	18.07	-48.8	-51.5	13.8	8.30e-06	0	57	0	1007681536	60	4893
2026-01-03 07:04:35.21	339.71	17.98	-48.8	-51.3	13.9	6.10e-06	0	56	0	1009778688	60	4801
2026-01-03 07:04:36.19	339.55	17.90	-48.4	-50.7	14.6	0.00e+00	0	57	0	1011875840	59	4739
2026-01-03 07:04:37.18	339.40	17.81	-48.4	-50.7	14.6	7.00e-07	0	57	0	1013972992	59	4741
2026-01-03 07:04:38.17	339.24	17.72	-48.3	-50.4	14.9	0.00e+00	0	56	0	1015021568	59	4575
2026-01-03 07:04:39.16	339.09	17.64	-48.3	-50.5	14.9	0.00e+00	0	57	0	1017118720	59	4616
2026-01-03 07:04:40.15	338.94	17.55	-48.5	-50.9	14.5	7.00e-07	0	57	0	1019215872	59	4822
2026-01-03 07:04:41.14	338.79	17.46	-48.6	-50.9	14.6	0.00e+00	0	57	0	1021313024	59	4821
2026-01-03 07:04:42.14	338.64	17.37	-48.6	-51.1	14.3	7.00e-07	0	57	0	1022361600	59	4945
2026-01-03 07:04:43.13	338.49	17.29	-48.8	-51.3	14.1	1.50e-06	0	57	0	1024458752	59	5044
2026-01-03 07:04:44.12	338.34	17.20	-48.6	-50.9	14.5	1.50e-06	0	57	0	1026555904	59	4827
2026-01-03 07:04:45.11	338.19	17.11	-48.4	-50.6	14.8	0.00e+00	0	57	0	1028653056	59	4691
2026-01-03 07:04:46.10	338.04	17.03	-48.3	-50.5	14.9	0.00e+00	0	57	0	1029701632	59	4629
2026-01-03 07:04:47.08	337.90	16.94	-48.3	-50.5	15.0	0.00e+00	0	57	0	1031798784	59	4607
2026-01-03 07:04:48.07	337.75	16.86	-48.4	-50.5	15.0	0.00e+00	0	57	0	1033895936	59	4621
2026-01-03 07:04:49.06	337.61	16.77	-48.6	-50.9	14.5	0.00e+00	0	57	0	1035993088	59	4854
2026-01-03 07:04:50.05	337.46	16.68	-48.2	-50.4	15.0	7.00e-07	0	57	0	1038090240	59	4574
2026-01-03 07:04:51.04	337.32	16.60	-48.1	-50.2	15.3	0.00e+00	0	57	0	1039138816	59	4446
2026-01-03 07:04:52.03	337.18	16.51	-48.0	-50.0	15.5	0.00e+00	0	57	0	1041235968	59	4368
2026-01-03 07:04:53.01	337.04	16.43	-48.0	-50.0	15.5	0.00e+00	0	56	0	1043333120	59	4348
2026-01-03 07:04:54.01	336.90	16.34	-47.9	-50.0	15.5	0.00e+00	0	57	0	1045430272	59	4354
2026-01-03 07:04:55.00	336.76	16.26	-48.3	-50.4	15.1	0.00e+00	0	57	0	1046478848	59	4561
2026-01-03 07:04:55.98	336.62	16.17	-48.3	-50.5	15.0	0.00e+00	0	57	0	1048576000	59	4601
2026-01-03 07:04:56.98	336.48	16.09	-48.4	-50.6	14.9	0.00e+00	0	57	0	1050673152	59	4652
2026-01-03 07:04:57.96	336.34	16.00	-48.5	-50.7	14.8	7.00e-07	0	57	0	1052770304	59	4720
2026-01-03 07:04:58.95	336.21	15.92	-48.5	-50.7	14.8	0.00e+00	0	57	0	1053818880	59	4710
2026-01-03 07:04:59.94	336.07	15.83	-48.4	-50.7	14.8	0.00e+00	0	57	0	1055916032	59	4725
2026-01-03 07:05:00.92	335.94	15.75	-48.6	-50.9	14.6	7.00e-07	0	57	0	1058013184	59	4846
2026-01-03 07:05:01.91	335.80	15.66	-48.5	-50.8	14.7	0.00e+00	0	57	0	1060110336	59	4790
2026-01-03 07:05:02.90	335.67	15.58	-48.4	-50.6	14.9	2.20e-06	0	57	0	1062207488	59	4663
2026-01-03 07:05:03.89	335.54	15.50	-48.4	-50.6	14.9	0.00e+00	0	57	0	1063256064	59	4673
2026-01-03 07:05:04.87	335.41	15.41	-48.5	-50.6	14.8	0.00e+00	0	57	0	1065353216	59	4704
2026-01-03 07:05:05.86	335.28	15.33	-48.4	-50.6	14.9	0.00e+00	0	57	0	1067450368	59	4668
2026-01-03 07:05:06.85	335.15	15.24	-48.5	-50.8	14.7	7.00e-07	0	57	0	1069547520	59	4802
2026-01-03 07:05:07.83	335.02	15.16	-48.5	-50.7	14.8	0.00e+00	0	57	0	1070596096	59	4753
2026-01-03 07:05:08.82	334.89	15.08	-48.5	-50.7	14.9	0.00e+00	0	57	0	1072693248	59	4707
2026-01-03 07:05:09.80	334.76	15.00	-48.4	-50.6	14.9	0.00e+00	0	57	0	1074790400	59	4682
2026-01-03 07:05:10.78	334.64	14.91	-48.5	-50.7	14.7	7.00e-07	0	57	0	1076887552	59	4751
2026-01-03 07:05:11.77	334.51	14.83	-48.4	-50.7	14.7	0.00e+00	0	57	0	1077936128	59	4756
2026-01-03 07:05:12.77	334.38	14.75	-48.5	-50.8	14.6	0.00e+00	0	57	0	1080033280	59	4808
2026-01-03 07:05:13.75	334.26	14.66	-48.6	-51.0	14.5	7.00e-07	0	57	0	1082130432	59	4907
2026-01-03 07:05:14.74	334.13	14.58	-48.8	-51.2	14.3	0.00e+00	0	57	0	1084227584	59	5013
2026-01-03 07:05:15.73	334.01	14.50	-48.8	-51.2	14.3	0.00e+00	0	57	0	1086324736	59	5010
2026-01-03 07:05:16.72	333.89	14.42	-48.8	-51.1	14.3	7.00e-07	0	57	0	1087373312	59	4983
2026-01-03 07:05:17.71	333.76	14.33	-48.9	-51.3	14.2	7.00e-07	0	57	0	1089470464	59	5057
2026-01-03 07:05:18.71	333.64	14.25	-48.9	-51.3	14.2	0.00e+00	0	57	0	1091567616	59	5073
2026-01-03 07:05:19.70	333.52	14.17	-48.8	-51.2	14.3	3.00e-06	0	57	0	1093664768	59	5025
2026-01-03 07:05:20.69	333.40	14.09	-48.9	-51.4	14.1	7.00e-07	0	57	0	1094713344	59	5123
2026-01-03 07:05:21.67	333.28	14.01	-48.9	-51.4	14.1	3.00e-06	0	57	0	1096810496	59	5140
2026-01-03 07:05:22.66	333.16	13.92	-49.0	-51.5	14.0	3.00e-06	0	57	0	1098907648	59	5182
2026-01-03 07:05:23.65	333.04	13.84	-49.1	-51.7	13.8	3.80e-06	0	57	0	1101004800	60	5006
2026-01-03 07:05:24.63	332.93	13.76	-49.1	-51.7	13.7	4.50e-06	0	57	0	1102053376	60	4995
2026-01-03 07:05:25.62	332.81	13.68	-49.0	-51.5	13.9	6.80e-06	0	57	0	1104150528	60	4901
2026-01-03 07:05:26.61	332.69	13.60	-49.0	-51.7	13.8	5.30e-06	0	57	0	1106247680	60	4999
2026-01-03 07:05:27.60	332.58	13.52	-49.0	-51.6	13.9	7.60e-06	0	57	0	1108344832	60	4929
2026-01-03 07:05:28.59	332.46	13.44	-48.9	-51.3	14.1	3.00e-06	0	57	0	1109393408	60	4814
2026-01-03 07:05:29.57	332.35	13.36	-48.9	-51.4	14.0	1.50e-06	0	57	0	1111490560	60	4866
2026-01-03 07:05:30.55	332.24	13.28	-49.0	-51.6	13.8	3.00e-06	0	57	0	1113587712	60	4957
2026-01-03 07:05:31.54	332.12	13.20	-49.0	-51.6	13.9	6.10e-06	0	57	0	1115684864	60	4939
2026-01-03 07:05:32.54	332.01	13.12	-48.9	-51.4	14.1	3.80e-06	0	57	0	1117782016	60	4817
2026-01-03 07:05:33.53	331.90	13.04	-48.8	-51.3	14.2	1.50e-06	0	57	0	1118830592	60	4781
2026-01-03 07:05:34.52	331.79	12.96	-48.8	-51.3	14.2	0.00e+00	0	57	0	1120927744	60	4780
2026-01-03 07:05:35.51	331.68	12.88	-48.9	-51.4	14.1	1.50e-06	0	57	0	1123024896	60	4835
2026-01-03 07:05:36.50	331.57	12.80	-49.0	-51.5	13.9	3.80e-06	0	57	0	1125122048	60	4926
2026-01-03 07:05:37.49	331.46	12.72	-48.9	-51.4	14.0	3.00e-06	0	57	0	1126170624	60	4836
2026-01-03 07:05:38.48	331.35	12.64	-48.8	-51.3	14.1	1.50e-06	0	57	0	1128267776	60	4795
2026-01-03 07:05:39.47	331.24	12.56	-48.8	-51.3	14.1	2.20e-06	0	57	0	1130364928	60	4813
2026-01-03 07:05:40.45	331.13	12.49	-49.0	-51.5	13.9	1.50e-06	0	57	0	1132462080	60	4906
2026-01-03 07:05:41.44	331.03	12.41	-49.0	-51.6	13.8	3.00e-06	0	57	0	1133510656	60	4948
2026-01-03 07:05:42.42	330.92	12.33	-49.1	-51.9	13.6	5.30e-06	0	57	0	1135607808	60	5104
2026-01-03 07:05:43.41	330.82	12.25	-49.2	-52.0	13.4	1.52e-05	0	57	0	1137704960	60	5188
2026-01-03 07:05:44.40	330.71	12.17	-49.1	-51.9	13.5	1.37e-05	0	57	0	1139802112	60	5135
2026-01-03 07:05:45.39	330.61	12.09	-49.2	-52.0	13.3	1.90e-05	0	57	0	1141899264	60	5210
2026-01-03 07:05:46.37	330.50	12.02	-49.1	-51.8	13.6	9.90e-06	0	57	0	1142947840	60	5072
2026-01-03 07:05:47.36	330.40	11.94	-49.1	-51.7	13.7	7.60e-06	0	57	0	1145044992	60	5002
2026-01-03 07:05:48.35	330.30	11.86	-49.0	-51.6	13.8	2.20e-06	0	57	0	1147142144	60	4959
2026-01-03 07:05:49.35	330.19	11.78	-49.0	-51.6	13.7	5.30e-06	0	57	0	1149239296	60	4965
2026-01-03 07:05:50.35	330.09	11.71	-49.0	-51.7	13.7	7.60e-06	0	57	0	1150287872	60	5012
2026-01-03 07:05:51.33	329.99	11.63	-49.2	-51.9	13.5	9.90e-06	0	57	0	1152385024	60	5113
2026-01-03 07:05:52.32	329.89	11.55	-49.2	-52.0	13.4	1.60e-05	0	57	0	1154482176	60	5166
2026-01-03 07:05:53.30	329.79	11.48	-49.1	-51.8	13.5	9.90e-06	0	57	0	1156579328	60	5082
2026-01-03 07:05:54.29	329.69	11.40	-49.1	-51.7	13.6	8.30e-06	0	57	0	1157627904	60	5036
2026-01-03 07:05:55.29	329.59	11.32	-49.1	-51.8	13.5	6.10e-06	0	57	0	1159725056	60	5063
2026-01-03 07:05:56.28	329.49	11.25	-49.2	-52.0	13.3	1.37e-05	0	57	0	1161822208	60	5178
2026-01-03 07:05:57.27	329.39	11.17	-49.3	-52.2	13.1	2.67e-05	0	57	0	1163919360	60	5299
2026-01-03 07:05:58.26	329.30	11.09	-49.3	-52.2	13.2	3.50e-05	0	57	0	1166016512	60	5280
2026-01-03 07:05:59.24	329.20	11.02	-49.4	-52.4	12.9	2.13e-05	0	57	0	1167065088	60	5455
2026-01-03 07:06:00.23	329.10	10.94	-49.4	-52.4	13.0	4.34e-05	0	57	0	1169162240	60	5427
2026-01-03 07:06:01.22	329.01	10.87	-49.5	-52.6	12.7	7.01e-05	0	57	0	1171259392	60	5556
2026-01-03 07:06:02.21	328.91	10.79	-49.5	-52.6	12.7	8.46e-05	0	57	0	1173356544	60	5539
2026-01-03 07:06:03.20	328.82	10.72	-49.6	-52.7	12.6	7.55e-05	0	57	0	1174405120	60	5629
2026-01-03 07:06:04.19	328.72	10.64	-49.5	-52.5	12.8	7.62e-05	0	57	0	1176502272	60	5511
2026-01-03 07:06:05.17	328.63	10.57	-49.4	-52.5	12.8	5.95e-05	0	57	0	1178599424	60	5491
2026-01-03 07:06:06.16	328.54	10.49	-49.5	-52.5	12.8	5.87e-05	0	57	0	1180696576	60	5509
2026-01-03 07:06:07.16	328.44	10.42	-49.5	-52.5	12.7	5.49e-05	0	57	0	1181745152	60	5512
2026-01-03 07:06:08.14	328.35	10.34	-49.6	-52.7	12.6	8.31e-05	0	57	0	1183842304	60	5624
2026-01-03 07:06:09.14	328.26	10.27	-49.6	-52.7	12.5	1.19e-04	0	57	0	1185939456	61	5332
2026-01-03 07:06:10.13	328.17	10.19	-49.7	-52.9	12.3	1.17e-04	0	57	0	1188036608	61	5433
2026-01-03 07:06:11.13	328.07	10.12	-49.5	-52.6	12.7	9.23e-05	0	57	0	1190133760	61	5252
2026-01-03 07:06:12.12	327.98	10.04	-49.4	-52.3	12.9	6.02e-05	0	57	0	1191182336	61	5090
2026-01-03 07:06:13.11	327.89	9.97	-49.3	-52.3	13.0	4.34e-05	0	57	0	1193279488	61	5057
2026-01-03 07:06:14.10	327.80	9.90	-49.4	-52.4	12.9	3.81e-05	0	57	0	1195376640	61	5102
2026-01-03 07:06:15.08	327.71	9.82	-49.3	-52.3	13.0	3.66e-05	0	57	0	1197473792	61	5079
2026-01-03 07:06:16.07	327.63	9.75	-49.5	-52.6	12.6	6.10e-05	0	57	0	1198522368	61	5251
2026-01-03 07:06:17.05	327.54	9.68	-49.4	-52.4	12.9	4.73e-05	0	57	0	1200619520	61	5107
2026-01-03 07:06:18.04	327.45	9.60	-49.2	-52.2	13.1	4.88e-05	0	57	0	1202716672	61	5017
2026-01-03 07:06:19.02	327.36	9.53	-49.2	-52.2	13.1	2.67e-05	0	57	0	1204813824	61	4998
2026-01-03 07:06:20.01	327.28	9.46	-49.2	-52.2	13.0	2.67e-05	0	57	0	1205862400	61	5019
2026-01-03 07:06:21.00	327.19	9.39	-49.3	-52.3	12.9	3.89e-05	0	57	0	1207959552	61	5090
2026-01-03 07:06:21.99	327.11	9.31	-49.4	-52.4	12.8	4.50e-05	0	57	0	1210056704	61	5135
2026-01-03 07:06:22.98	327.02	9.24	-49.4	-52.4	12.8	5.95e-05	0	57	0	1212153856	61	5135
2026-01-03 07:06:23.98	326.93	9.17	-49.4	-52.5	12.6	6.94e-05	0	57	0	1214251008	61	5209
2026-01-03 07:06:24.97	326.85	9.10	-49.5	-52.8	12.4	9.76e-05	0	57	0	1215299584	61	5372
2026-01-03 07:06:25.96	326.76	9.03	-49.4	-52.6	12.6	1.23e-04	0	57	0	1217396736	61	5253
2026-01-03 07:06:26.94	326.68	8.95	-49.6	-52.9	12.3	1.53e-04	0	57	0	1219493888	61	5443
2026-01-03 07:06:27.93	326.60	8.88	-49.6	-52.9	12.2	2.04e-04	0	57	0	1221591040	61	5463
2026-01-03 07:06:28.91	326.52	8.81	-49.7	-53.0	12.1	2.14e-04	0	57	0	1222639616	61	5512
2026-01-03 07:06:29.89	326.43	8.74	-49.8	-53.2	11.9	3.46e-04	0	57	0	1224736768	61	5647
2026-01-03 07:06:30.86	326.35	8.67	-49.8	-53.1	12.0	3.58e-04	0	57	0	1226833920	61	5584
2026-01-03 07:06:31.85	326.27	8.60	-49.8	-53.2	11.9	3.88e-04	0	57	0	1228931072	61	5623
2026-01-03 07:06:32.84	326.19	8.53	-49.7	-53.3	11.9	4.09e-04	0	57	0	1229979648	61	5660
2026-01-03 07:06:33.83	326.11	8.46	-49.9	-53.6	11.5	6.00e-04	0	57	0	1232076800	61	5869
2026-01-03 07:06:34.81	326.03	8.39	-49.9	-53.5	11.6	7.26e-04	0	57	0	1234173952	61	5810
2026-01-03 07:06:35.80	325.95	8.32	-49.9	-53.8	11.3	7.85e-04	0	57	0	1236271104	61	5996
2026-01-03 07:06:36.79	325.87	8.25	-49.9	-53.5	11.6	1.14e-03	0	57	0	1237319680	61	5820
2026-01-03 07:06:37.78	325.79	8.18	-49.8	-53.3	11.8	5.49e-04	0	57	0	1239416832	61	5693
