passes_logs/2026/01/03/R3.0SM8_Murmansk_STILSPACE/R3.0SM8_Murmansk_STILSPACE__20260103_235807_NOAA_20_JPSS-1_rec.log

#Pass ID: 20260103_235807_NOAA 20 (JPSS-1)
#Satellite: NOAA 20 (JPSS-1)
#Configuration: NOAA 20
#almurnet v.1.7.20240730
#Start time: 2026-01-03 23:58:08

#Version: 2.2.20231116
#Station: R3.0SM8_Murmansk_STILSPACE
#Location: 33.092731 lon 68.902999 lat
#TLE: 1 43013U 17073A   26003.41800368  .00000169  00000+0  10117-3 0  9998
#TLE: 2 43013  98.7624 304.4804 0001884  56.1176 304.0179 14.19532918421092

#Time	Az	El	Level	Level2	SNR	BER	BlckErr	Temp	State	Recorded	gain1	gain2
2026-01-03 23:58:08.87	22.52	3.07	-52.2	-66.2	3.8	1.49e+00	0	47	0	0	66	18915
2026-01-03 23:58:09.85	22.54	3.13	-52.2	-66.0	3.8	1.49e+00	0	47	104	0	67	17417
2026-01-03 23:58:10.84	22.56	3.20	-52.1	-65.9	3.8	1.49e+00	0	47	104	0	67	17227
2026-01-03 23:58:11.82	22.59	3.26	-52.0	-65.8	3.8	1.49e+00	0	48	104	0	67	16989
2026-01-03 23:58:12.82	22.61	3.33	-51.8	-65.6	3.8	1.49e+00	0	48	104	0	66	17611
2026-01-03 23:58:13.81	22.64	3.39	-51.1	-63.8	3.8	1.49e+00	0	48	104	0	65	15208
2026-01-03 23:58:14.81	22.66	3.46	-50.1	-57.6	6.0	5.83e-01	0	48	0	0	63	8302
2026-01-03 23:58:15.79	22.69	3.52	-50.1	-57.5	6.1	3.17e-01	0	48	0	2097152	63	8254
2026-01-03 23:58:16.79	22.71	3.59	-50.2	-57.4	6.2	2.67e-01	0	48	0	4194304	63	8159
2026-01-03 23:58:17.78	22.74	3.65	-50.2	-57.3	6.2	2.95e-01	0	48	0	6291456	63	8078
2026-01-03 23:58:18.76	22.77	3.72	-50.0	-57.2	6.4	2.73e-01	0	48	0	7340032	63	7924
2026-01-03 23:58:19.75	22.79	3.79	-50.2	-57.5	6.1	2.64e-01	0	48	0	9437184	63	8226
2026-01-03 23:58:20.74	22.82	3.85	-50.3	-58.1	5.7	4.00e-01	0	48	0	11534336	63	8828
2026-01-03 23:58:21.73	22.84	3.92	-50.4	-58.6	5.4	4.65e-01	0	48	0	13631488	63	9313
2026-01-03 23:58:22.72	22.87	3.99	-50.4	-58.5	5.4	5.05e-01	0	48	0	14680064	63	9236
2026-01-03 23:58:23.71	22.89	4.05	-50.3	-58.1	5.6	5.25e-01	0	48	0	16777216	63	8820
2026-01-03 23:58:24.70	22.92	4.12	-50.1	-57.4	6.2	3.45e-01	0	48	0	18874368	63	8097
2026-01-03 23:58:25.69	22.95	4.19	-50.1	-57.2	6.4	2.55e-01	0	49	0	20971520	63	7936
2026-01-03 23:58:26.68	22.97	4.25	-50.0	-56.5	7.0	2.08e-01	0	49	0	23068672	63	7310
2026-01-03 23:58:27.67	23.00	4.32	-49.8	-56.0	7.5	9.85e-02	0	49	0	24117248	62	7291
2026-01-03 23:58:28.65	23.03	4.39	-49.7	-55.7	7.7	9.97e-02	0	49	0	26214400	62	7084
2026-01-03 23:58:29.63	23.05	4.46	-49.8	-55.9	7.5	1.04e-01	0	49	0	28311552	62	7273
2026-01-03 23:58:30.61	23.08	4.52	-49.8	-56.0	7.5	1.06e-01	0	49	0	30408704	62	7315
2026-01-03 23:58:31.61	23.11	4.59	-49.9	-56.4	7.0	1.38e-01	0	49	0	31457280	62	7665
2026-01-03 23:58:32.59	23.13	4.66	-50.0	-56.5	7.0	1.44e-01	0	49	0	33554432	62	7766
2026-01-03 23:58:33.59	23.16	4.73	-50.0	-56.9	6.6	2.01e-01	0	49	0	35651584	62	8174
2026-01-03 23:58:34.57	23.19	4.80	-50.2	-57.6	6.1	2.68e-01	0	49	0	37748736	62	8789
2026-01-03 23:58:35.57	23.21	4.87	-50.3	-58.1	5.7	3.86e-01	0	49	0	38797312	62	9313
2026-01-03 23:58:36.55	23.24	4.93	-50.3	-58.2	5.6	4.45e-01	0	49	0	40894464	62	9496
2026-01-03 23:58:37.54	23.27	5.00	-50.3	-58.6	5.3	5.19e-01	0	49	0	42991616	62	9932
2026-01-03 23:58:38.54	23.30	5.07	-50.3	-58.3	5.6	5.34e-01	0	49	0	45088768	62	9528
2026-01-03 23:58:39.52	23.32	5.14	-50.0	-57.0	6.5	2.91e-01	0	49	0	47185920	62	8242
2026-01-03 23:58:40.52	23.35	5.21	-50.0	-56.5	7.0	1.50e-01	0	49	0	48234496	62	7767
2026-01-03 23:58:41.51	23.38	5.28	-50.1	-56.7	6.8	1.68e-01	0	49	0	50331648	62	7981
2026-01-03 23:58:42.49	23.41	5.35	-50.1	-56.5	7.0	1.99e-01	0	49	0	52428800	62	7780
2026-01-03 23:58:43.48	23.43	5.42	-49.9	-55.8	7.8	9.54e-02	0	50	0	54525952	62	7166
2026-01-03 23:58:44.47	23.46	5.49	-49.8	-55.2	8.4	6.00e-02	0	50	0	55574528	62	6670
2026-01-03 23:58:45.46	23.49	5.56	-49.6	-54.6	9.1	3.27e-02	0	50	0	57671680	62	6236
2026-01-03 23:58:46.45	23.52	5.63	-49.5	-54.1	9.7	1.30e-02	0	50	0	59768832	62	5866
2026-01-03 23:58:47.44	23.55	5.70	-49.4	-53.7	10.2	8.09e-03	0	50	0	61865984	61	5955
2026-01-03 23:58:48.43	23.58	5.78	-49.3	-53.6	10.4	5.37e-03	0	50	0	62914560	61	5865
2026-01-03 23:58:49.42	23.61	5.85	-49.2	-53.4	10.6	3.91e-03	0	50	0	65011712	61	5738
2026-01-03 23:58:50.40	23.63	5.92	-49.4	-53.4	10.6	3.19e-03	0	50	0	67108864	61	5782
2026-01-03 23:58:51.39	23.66	5.99	-49.3	-53.3	10.7	4.15e-03	0	50	0	69206016	61	5718
2026-01-03 23:58:52.38	23.69	6.06	-49.0	-52.8	11.3	2.06e-03	0	50	0	71303168	61	5359
2026-01-03 23:58:53.36	23.72	6.13	-48.8	-52.3	11.9	7.46e-04	0	50	0	72351744	60	5351
2026-01-03 23:58:54.35	23.75	6.20	-48.6	-51.9	12.3	2.32e-04	0	50	0	74448896	60	5109
2026-01-03 23:58:55.34	23.78	6.28	-48.5	-51.6	12.6	1.19e-04	0	50	0	76546048	60	4944
2026-01-03 23:58:56.33	23.81	6.35	-48.5	-51.5	12.8	6.94e-05	0	50	0	78643200	60	4876
2026-01-03 23:58:57.32	23.84	6.42	-48.4	-51.3	13.0	6.33e-05	0	50	0	79691776	59	5091
2026-01-03 23:58:58.32	23.87	6.50	-48.4	-51.3	13.1	4.19e-05	0	50	0	81788928	59	5060
2026-01-03 23:58:59.31	23.90	6.57	-48.6	-51.6	12.7	4.80e-05	0	50	0	83886080	59	5266
2026-01-03 23:59:00.31	23.93	6.64	-48.7	-51.8	12.5	9.61e-05	0	50	0	85983232	59	5387
2026-01-03 23:59:01.29	23.96	6.72	-48.6	-51.5	12.8	7.40e-05	0	50	0	87031808	59	5199
2026-01-03 23:59:02.28	23.99	6.79	-48.5	-51.3	13.1	4.50e-05	0	50	0	89128960	59	5096
2026-01-03 23:59:03.27	24.02	6.87	-48.3	-51.0	13.4	1.14e-05	0	50	0	91226112	59	4894
2026-01-03 23:59:04.25	24.05	6.94	-48.2	-50.9	13.6	9.10e-06	0	51	0	93323264	59	4844
2026-01-03 23:59:05.24	24.08	7.01	-48.2	-50.8	13.7	7.60e-06	0	51	0	94371840	59	4782
2026-01-03 23:59:06.23	24.11	7.09	-48.3	-50.9	13.5	5.30e-06	0	51	0	96468992	59	4868
2026-01-03 23:59:07.22	24.14	7.16	-48.3	-51.0	13.5	1.22e-05	0	51	0	98566144	59	4905
2026-01-03 23:59:08.21	24.17	7.24	-48.2	-50.8	13.8	7.60e-06	0	51	0	100663296	59	4774
2026-01-03 23:59:09.19	24.21	7.31	-48.2	-50.8	13.8	7.60e-06	0	51	0	102760448	59	4775
2026-01-03 23:59:10.18	24.24	7.39	-48.2	-50.8	13.8	7.60e-06	0	51	0	103809024	59	4788
2026-01-03 23:59:11.17	24.27	7.46	-48.2	-50.7	13.8	3.80e-06	0	51	0	105906176	59	4736
2026-01-03 23:59:12.15	24.30	7.54	-48.2	-50.7	13.9	2.20e-06	0	51	0	108003328	59	4748
2026-01-03 23:59:13.14	24.33	7.62	-48.2	-50.7	13.8	5.30e-06	0	51	0	110100480	59	4741
2026-01-03 23:59:14.13	24.36	7.69	-48.4	-51.0	13.5	9.90e-06	0	51	0	111149056	59	4910
2026-01-03 23:59:15.12	24.40	7.77	-48.2	-50.8	13.8	7.60e-06	0	51	0	113246208	59	4778
2026-01-03 23:59:16.11	24.43	7.85	-48.2	-50.7	13.9	3.80e-06	0	51	0	115343360	59	4723
2026-01-03 23:59:17.10	24.46	7.92	-48.2	-50.7	13.9	3.80e-06	0	51	0	117440512	59	4730
2026-01-03 23:59:18.09	24.49	8.00	-48.3	-50.9	13.7	3.00e-06	0	51	0	118489088	59	4863
2026-01-03 23:59:19.07	24.53	8.08	-48.2	-50.7	13.9	5.30e-06	0	51	0	120586240	59	4753
2026-01-03 23:59:20.06	24.56	8.16	-48.2	-50.8	13.8	2.20e-06	0	51	0	122683392	59	4773
2026-01-03 23:59:21.05	24.59	8.23	-48.4	-51.0	13.6	2.20e-06	0	51	0	124780544	59	4904
2026-01-03 23:59:22.04	24.62	8.31	-48.2	-50.7	13.9	7.60e-06	0	51	0	126877696	59	4749
2026-01-03 23:59:23.03	24.66	8.39	-48.1	-50.6	14.0	5.30e-06	0	51	0	127926272	59	4694
2026-01-03 23:59:24.03	24.69	8.47	-48.2	-50.7	14.0	1.50e-06	0	52	0	130023424	59	4723
2026-01-03 23:59:25.01	24.73	8.55	-48.3	-50.9	13.7	5.30e-06	0	51	0	132120576	59	4865
2026-01-03 23:59:26.00	24.76	8.63	-48.2	-50.7	13.9	5.30e-06	0	51	0	134217728	59	4745
2026-01-03 23:59:26.99	24.79	8.71	-48.1	-50.5	14.1	7.00e-07	0	51	0	135266304	59	4637
2026-01-03 23:59:27.98	24.83	8.79	-48.1	-50.5	14.2	0.00e+00	0	52	0	137363456	59	4614
2026-01-03 23:59:28.95	24.86	8.87	-48.1	-50.5	14.2	0.00e+00	0	52	0	139460608	59	4637
2026-01-03 23:59:29.93	24.90	8.95	-48.1	-50.5	14.2	1.50e-06	0	51	0	141557760	59	4629
2026-01-03 23:59:30.92	24.93	9.03	-48.2	-50.7	14.0	3.00e-06	0	52	0	142606336	59	4723
2026-01-03 23:59:31.92	24.96	9.11	-48.3	-50.9	13.8	3.00e-06	0	51	0	144703488	59	4821
2026-01-03 23:59:32.91	25.00	9.19	-48.4	-51.0	13.6	6.10e-06	0	52	0	146800640	59	4915
2026-01-03 23:59:33.89	25.03	9.27	-48.6	-51.3	13.4	7.60e-06	0	52	0	148897792	59	5070
2026-01-03 23:59:34.88	25.07	9.35	-48.4	-51.0	13.7	1.52e-05	0	52	0	150994944	59	4922
2026-01-03 23:59:35.87	25.11	9.43	-48.3	-50.8	13.9	4.50e-06	0	52	0	152043520	59	4800
2026-01-03 23:59:36.86	25.14	9.51	-48.2	-50.6	14.1	3.00e-06	0	52	0	154140672	59	4689
2026-01-03 23:59:37.85	25.18	9.60	-48.2	-50.6	14.2	1.50e-06	0	52	0	156237824	59	4672
2026-01-03 23:59:38.84	25.21	9.68	-48.2	-50.6	14.1	7.00e-07	0	52	0	158334976	59	4678
2026-01-03 23:59:39.83	25.25	9.76	-48.2	-50.8	14.0	1.50e-06	0	52	0	159383552	59	4772
2026-01-03 23:59:40.83	25.29	9.85	-48.2	-50.6	14.2	4.50e-06	0	52	0	161480704	59	4676
2026-01-03 23:59:41.83	25.32	9.93	-48.0	-50.3	14.5	2.20e-06	0	52	0	163577856	59	4497
2026-01-03 23:59:42.81	25.36	10.01	-47.9	-50.1	14.7	0.00e+00	0	52	0	165675008	58	4689
2026-01-03 23:59:43.80	25.40	10.10	-47.8	-50.0	14.8	0.00e+00	0	52	0	166723584	58	4647
2026-01-03 23:59:44.79	25.43	10.18	-47.8	-50.0	14.8	0.00e+00	0	52	0	168820736	58	4625
2026-01-03 23:59:45.78	25.47	10.27	-47.9	-50.2	14.6	7.00e-07	0	52	0	170917888	58	4709
2026-01-03 23:59:46.77	25.51	10.35	-47.9	-50.2	14.7	0.00e+00	0	52	0	173015040	58	4720
2026-01-03 23:59:47.76	25.55	10.44	-47.9	-50.2	14.7	0.00e+00	0	52	0	174063616	58	4709
2026-01-03 23:59:48.76	25.58	10.52	-47.9	-50.2	14.6	0.00e+00	0	52	0	176160768	58	4713
2026-01-03 23:59:49.75	25.62	10.61	-47.9	-50.1	14.8	7.00e-07	0	52	0	178257920	58	4656
2026-01-03 23:59:50.74	25.66	10.69	-47.9	-50.1	14.8	7.00e-07	0	52	0	180355072	58	4661
2026-01-03 23:59:51.73	25.70	10.78	-47.9	-50.1	14.8	7.00e-07	0	52	0	182452224	58	4655
2026-01-03 23:59:52.72	25.74	10.87	-47.9	-50.2	14.7	0.00e+00	0	52	0	183500800	58	4718
2026-01-03 23:59:53.71	25.78	10.95	-47.9	-50.1	14.7	7.00e-07	0	52	0	185597952	58	4703
2026-01-03 23:59:54.71	25.82	11.04	-47.8	-49.9	15.0	0.00e+00	0	52	0	187695104	58	4553
2026-01-03 23:59:55.70	25.85	11.13	-47.7	-49.9	15.0	0.00e+00	0	52	0	189792256	58	4548
2026-01-03 23:59:56.69	25.89	11.22	-47.7	-49.8	15.0	0.00e+00	0	52	0	190840832	58	4533
2026-01-03 23:59:57.68	25.93	11.31	-47.7	-49.9	15.0	0.00e+00	0	52	0	192937984	58	4560
2026-01-03 23:59:58.67	25.97	11.39	-47.8	-49.9	15.0	0.00e+00	0	53	0	195035136	58	4555
2026-01-03 23:59:59.66	26.01	11.48	-47.8	-49.9	14.9	0.00e+00	0	53	0	197132288	58	4583
2026-01-04 00:00:00.65	26.05	11.57	-47.8	-50.0	14.9	0.00e+00	0	53	0	199229440	58	4616
2026-01-04 00:00:01.64	26.10	11.66	-48.0	-50.2	14.7	0.00e+00	0	53	0	200278016	58	4751
2026-01-04 00:00:02.63	26.14	11.75	-47.9	-50.2	14.7	7.00e-07	0	53	0	202375168	58	4712
2026-01-04 00:00:03.62	26.18	11.84	-47.8	-49.9	15.0	0.00e+00	0	53	0	204472320	58	4547
2026-01-04 00:00:04.61	26.22	11.93	-47.7	-49.9	15.0	0.00e+00	0	53	0	206569472	58	4547
2026-01-04 00:00:05.60	26.26	12.02	-47.7	-49.8	15.1	0.00e+00	0	53	0	207618048	58	4525
2026-01-04 00:00:06.58	26.30	12.11	-47.7	-49.8	15.1	0.00e+00	0	53	0	209715200	58	4507
2026-01-04 00:00:07.57	26.34	12.20	-47.7	-49.8	15.1	7.00e-07	0	53	0	211812352	58	4505
2026-01-04 00:00:08.57	26.39	12.30	-47.9	-50.1	14.8	0.00e+00	0	53	0	213909504	58	4658
2026-01-04 00:00:09.55	26.43	12.39	-47.9	-50.1	14.8	0.00e+00	0	53	0	214958080	58	4658
2026-01-04 00:00:10.55	26.47	12.48	-47.8	-49.9	15.0	0.00e+00	0	53	0	217055232	58	4590
2026-01-04 00:00:11.53	26.51	12.57	-48.0	-50.2	14.7	0.00e+00	0	53	0	219152384	58	4749
2026-01-04 00:00:12.52	26.56	12.66	-48.1	-50.3	14.6	0.00e+00	0	53	0	221249536	58	4790
2026-01-04 00:00:13.50	26.60	12.76	-47.9	-50.0	14.9	0.00e+00	0	53	0	223346688	58	4642
2026-01-04 00:00:14.49	26.64	12.85	-47.7	-49.7	15.2	0.00e+00	0	53	0	224395264	58	4487
2026-01-04 00:00:15.47	26.69	12.94	-47.6	-49.6	15.3	0.00e+00	0	53	0	226492416	58	4431
2026-01-04 00:00:16.45	26.73	13.04	-47.6	-49.6	15.3	0.00e+00	0	53	0	228589568	58	4437
2026-01-04 00:00:17.44	26.77	13.13	-47.7	-49.7	15.3	0.00e+00	0	53	0	230686720	58	4466
2026-01-04 00:00:18.43	26.82	13.23	-47.6	-49.6	15.4	0.00e+00	0	53	0	231735296	58	4411
2026-01-04 00:00:19.42	26.86	13.32	-47.7	-49.8	15.2	0.00e+00	0	53	0	233832448	58	4500
2026-01-04 00:00:20.41	26.91	13.42	-47.7	-49.7	15.3	0.00e+00	0	53	0	235929600	58	4474
2026-01-04 00:00:21.40	26.95	13.51	-47.6	-49.6	15.4	0.00e+00	0	53	0	238026752	58	4403
2026-01-04 00:00:22.38	27.00	13.61	-47.6	-49.5	15.5	0.00e+00	0	53	0	239075328	58	4384
2026-01-04 00:00:23.36	27.04	13.71	-47.6	-49.6	15.4	0.00e+00	0	53	0	241172480	58	4396
2026-01-04 00:00:24.35	27.09	13.80	-47.7	-49.7	15.2	0.00e+00	0	53	0	243269632	58	4489
2026-01-04 00:00:25.34	27.14	13.90	-47.7	-49.7	15.3	0.00e+00	0	53	0	245366784	58	4480
2026-01-04 00:00:26.32	27.18	14.00	-47.7	-49.7	15.3	0.00e+00	0	53	0	247463936	58	4477
2026-01-04 00:00:27.31	27.23	14.10	-47.7	-49.7	15.3	0.00e+00	0	53	0	248512512	58	4468
2026-01-04 00:00:28.30	27.28	14.19	-47.8	-49.9	15.1	7.00e-07	0	53	0	250609664	58	4584
2026-01-04 00:00:29.29	27.32	14.29	-47.8	-49.9	15.0	0.00e+00	0	53	0	252706816	58	4596
2026-01-04 00:00:30.27	27.37	14.39	-47.8	-49.9	15.1	0.00e+00	0	54	0	254803968	58	4563
2026-01-04 00:00:31.26	27.42	14.49	-47.9	-50.0	15.0	0.00e+00	0	54	0	255852544	58	4616
2026-01-04 00:00:32.25	27.47	14.59	-47.7	-49.7	15.3	0.00e+00	0	53	0	257949696	58	4489
2026-01-04 00:00:33.24	27.52	14.69	-47.7	-49.7	15.3	0.00e+00	0	54	0	260046848	58	4465
2026-01-04 00:00:34.23	27.57	14.79	-47.7	-49.8	15.2	0.00e+00	0	54	0	262144000	58	4524
2026-01-04 00:00:35.23	27.62	14.90	-47.8	-49.9	15.1	0.00e+00	0	54	0	263192576	58	4591
2026-01-04 00:00:36.22	27.67	15.00	-47.7	-49.7	15.3	0.00e+00	0	54	0	265289728	58	4462
2026-01-04 00:00:37.20	27.72	15.10	-47.6	-49.6	15.5	0.00e+00	0	54	0	267386880	58	4399
2026-01-04 00:00:38.20	27.77	15.20	-47.6	-49.5	15.5	0.00e+00	0	54	0	269484032	58	4383
2026-01-04 00:00:39.19	27.82	15.31	-47.6	-49.6	15.4	0.00e+00	0	53	0	270532608	58	4423
2026-01-04 00:00:40.18	27.87	15.41	-47.7	-49.7	15.4	0.00e+00	0	54	0	272629760	58	4477
2026-01-04 00:00:41.17	27.92	15.51	-47.6	-49.6	15.5	0.00e+00	0	54	0	274726912	58	4413
2026-01-04 00:00:42.16	27.97	15.62	-47.6	-49.5	15.5	0.00e+00	0	54	0	276824064	58	4379
2026-01-04 00:00:43.15	28.02	15.72	-47.6	-49.6	15.5	0.00e+00	0	54	0	278921216	58	4401
2026-01-04 00:00:44.14	28.07	15.83	-47.5	-49.4	15.6	0.00e+00	0	54	0	279969792	58	4328
2026-01-04 00:00:45.14	28.13	15.94	-47.6	-49.5	15.6	0.00e+00	0	54	0	282066944	58	4358
2026-01-04 00:00:46.13	28.18	16.04	-47.7	-49.7	15.4	0.00e+00	0	54	0	284164096	58	4444
2026-01-04 00:00:47.12	28.23	16.15	-47.6	-49.5	15.5	0.00e+00	0	54	0	286261248	58	4373
2026-01-04 00:00:48.11	28.29	16.26	-47.5	-49.5	15.6	0.00e+00	0	54	0	287309824	58	4345
2026-01-04 00:00:49.10	28.34	16.36	-47.6	-49.6	15.5	0.00e+00	0	54	0	289406976	58	4395
2026-01-04 00:00:50.09	28.40	16.47	-47.7	-49.7	15.4	0.00e+00	0	54	0	291504128	58	4476
2026-01-04 00:00:51.08	28.45	16.58	-47.5	-49.5	15.6	0.00e+00	0	54	0	293601280	58	4369
2026-01-04 00:00:52.06	28.51	16.69	-47.6	-49.5	15.6	0.00e+00	0	54	0	294649856	58	4359
2026-01-04 00:00:53.05	28.56	16.80	-47.6	-49.6	15.5	0.00e+00	0	54	0	296747008	58	4395
2026-01-04 00:00:54.04	28.62	16.91	-47.7	-49.7	15.4	7.00e-07	0	54	0	298844160	58	4447
2026-01-04 00:00:55.02	28.67	17.02	-47.8	-49.9	15.2	0.00e+00	0	54	0	300941312	58	4578
2026-01-04 00:00:56.01	28.73	17.13	-47.8	-49.8	15.3	0.00e+00	0	54	0	303038464	58	4496
2026-01-04 00:00:57.00	28.79	17.24	-47.8	-49.9	15.2	0.00e+00	0	54	0	304087040	58	4550
2026-01-04 00:00:58.00	28.84	17.35	-47.8	-49.8	15.3	0.00e+00	0	54	0	306184192	58	4512
2026-01-04 00:00:58.98	28.90	17.46	-47.8	-49.8	15.3	0.00e+00	0	54	0	308281344	58	4513
2026-01-04 00:00:59.98	28.96	17.58	-47.8	-49.8	15.3	0.00e+00	0	54	0	310378496	58	4529
2026-01-04 00:01:00.97	29.02	17.69	-47.8	-49.8	15.3	0.00e+00	0	54	0	311427072	58	4514
2026-01-04 00:01:01.96	29.08	17.80	-47.9	-50.1	15.0	0.00e+00	0	54	0	313524224	58	4666
2026-01-04 00:01:02.94	29.14	17.92	-47.8	-49.8	15.3	0.00e+00	0	54	0	315621376	58	4534
2026-01-04 00:01:03.93	29.19	18.03	-47.6	-49.6	15.6	0.00e+00	0	54	0	317718528	58	4397
2026-01-04 00:01:04.92	29.26	18.15	-47.5	-49.4	15.7	0.00e+00	0	54	0	318767104	58	4327
2026-01-04 00:01:05.91	29.32	18.26	-47.5	-49.4	15.7	0.00e+00	0	54	0	320864256	58	4305
2026-01-04 00:01:06.90	29.38	18.38	-47.5	-49.4	15.7	0.00e+00	0	54	0	322961408	58	4331
2026-01-04 00:01:07.89	29.44	18.50	-47.5	-49.4	15.7	0.00e+00	0	54	0	325058560	58	4335
2026-01-04 00:01:08.88	29.50	18.61	-47.7	-49.6	15.5	0.00e+00	0	54	0	327155712	58	4432
2026-01-04 00:01:09.87	29.56	18.73	-47.6	-49.5	15.7	0.00e+00	0	54	0	328204288	58	4371
2026-01-04 00:01:10.86	29.63	18.85	-47.6	-49.6	15.6	0.00e+00	0	54	0	330301440	58	4396
2026-01-04 00:01:11.85	29.69	18.97	-47.8	-49.7	15.4	0.00e+00	0	54	0	332398592	58	4493
2026-01-04 00:01:12.84	29.75	19.09	-47.7	-49.6	15.6	0.00e+00	0	54	0	334495744	58	4411
2026-01-04 00:01:13.83	29.82	19.21	-47.5	-49.4	15.8	0.00e+00	0	54	0	335544320	58	4302
2026-01-04 00:01:14.82	29.88	19.33	-47.4	-49.2	16.0	0.00e+00	0	54	0	337641472	57	4483
2026-01-04 00:01:15.81	29.95	19.45	-47.4	-49.2	16.0	0.00e+00	0	54	0	339738624	57	4456
2026-01-04 00:01:16.81	30.01	19.57	-47.3	-49.1	16.0	0.00e+00	0	54	0	341835776	57	4437
2026-01-04 00:01:17.80	30.08	19.70	-47.4	-49.3	15.9	0.00e+00	0	54	0	343932928	57	4505
2026-01-04 00:01:18.79	30.14	19.82	-47.3	-49.0	16.1	0.00e+00	0	54	0	344981504	57	4391
2026-01-04 00:01:19.78	30.21	19.94	-47.1	-48.9	16.3	0.00e+00	0	54	0	347078656	57	4297
2026-01-04 00:01:20.77	30.28	20.07	-47.1	-48.8	16.4	0.00e+00	0	54	0	349175808	57	4248
2026-01-04 00:01:21.75	30.35	20.19	-47.0	-48.7	16.5	0.00e+00	0	54	0	351272960	57	4227
2026-01-04 00:01:22.74	30.42	20.31	-47.0	-48.7	16.5	0.00e+00	0	54	0	352321536	57	4228
2026-01-04 00:01:23.73	30.48	20.44	-47.1	-48.8	16.4	0.00e+00	0	54	0	354418688	57	4261
2026-01-04 00:01:24.72	30.55	20.57	-47.2	-48.9	16.3	0.00e+00	0	54	0	356515840	57	4314
2026-01-04 00:01:25.72	30.63	20.70	-47.0	-48.7	16.5	0.00e+00	0	55	0	358612992	57	4220
2026-01-04 00:01:26.71	30.70	20.82	-46.9	-48.5	16.7	0.00e+00	0	55	0	359661568	57	4142
2026-01-04 00:01:27.70	30.77	20.95	-46.9	-48.6	16.6	0.00e+00	0	54	0	361758720	56	4406
2026-01-04 00:01:28.68	30.84	21.08	-46.9	-48.5	16.6	0.00e+00	0	55	0	363855872	56	4387
2026-01-04 00:01:29.66	30.91	21.21	-46.9	-48.5	16.7	0.00e+00	0	55	0	365953024	56	4379
2026-01-04 00:01:30.65	30.98	21.34	-47.0	-48.7	16.5	0.00e+00	0	55	0	367001600	56	4475
2026-01-04 00:01:31.64	31.06	21.47	-46.9	-48.6	16.6	0.00e+00	0	55	0	369098752	56	4418
2026-01-04 00:01:32.64	31.13	21.60	-46.8	-48.3	16.9	0.00e+00	0	54	0	371195904	56	4285
2026-01-04 00:01:33.63	31.21	21.73	-46.5	-48.0	17.2	0.00e+00	0	54	0	373293056	56	4136
2026-01-04 00:01:34.62	31.28	21.87	-46.4	-47.9	17.3	0.00e+00	0	54	0	375390208	56	4080
2026-01-04 00:01:35.62	31.36	22.00	-46.3	-47.8	17.3	0.00e+00	0	55	0	376438784	55	4257
2026-01-04 00:01:36.62	31.44	22.14	-46.3	-47.7	17.4	0.00e+00	0	55	0	378535936	55	4232
2026-01-04 00:01:37.61	31.51	22.27	-46.3	-47.7	17.3	0.00e+00	0	54	0	380633088	55	4237
2026-01-04 00:01:38.60	31.59	22.41	-46.4	-47.9	17.2	0.00e+00	0	55	0	382730240	55	4322
2026-01-04 00:01:39.58	31.67	22.54	-46.4	-47.9	17.2	0.00e+00	0	55	0	384827392	55	4301
2026-01-04 00:01:40.57	31.75	22.68	-46.3	-47.7	17.4	0.00e+00	0	55	0	385875968	55	4230
2026-01-04 00:01:41.56	31.83	22.81	-46.2	-47.6	17.5	0.00e+00	0	55	0	387973120	55	4154
2026-01-04 00:01:42.55	31.91	22.95	-46.2	-47.6	17.5	0.00e+00	0	55	0	390070272	55	4161
2026-01-04 00:01:43.54	31.99	23.09	-46.2	-47.6	17.5	0.00e+00	0	55	0	392167424	55	4162
2026-01-04 00:01:44.54	32.07	23.23	-46.2	-47.6	17.4	0.00e+00	0	55	0	393216000	55	4188
2026-01-04 00:01:45.52	32.15	23.37	-46.2	-47.6	17.5	0.00e+00	0	55	0	395313152	55	4192
2026-01-04 00:01:46.51	32.24	23.51	-46.0	-47.4	17.6	0.00e+00	0	55	0	397410304	55	4097
2026-01-04 00:01:47.50	32.32	23.65	-45.9	-47.3	17.8	0.00e+00	0	55	0	399507456	55	4023
2026-01-04 00:01:48.49	32.41	23.80	-46.0	-47.4	17.7	0.00e+00	0	55	0	400556032	55	4054
2026-01-04 00:01:49.47	32.49	23.94	-46.0	-47.3	17.7	0.00e+00	0	55	0	402653184	55	4050
2026-01-04 00:01:50.47	32.58	24.08	-46.1	-47.4	17.7	0.00e+00	0	55	0	404750336	55	4096
2026-01-04 00:01:51.46	32.66	24.23	-46.0	-47.3	17.8	0.00e+00	0	55	0	406847488	55	4041
2026-01-04 00:01:52.44	32.75	24.37	-46.1	-47.5	17.6	0.00e+00	0	55	0	407896064	55	4122
2026-01-04 00:01:53.43	32.84	24.52	-46.2	-47.6	17.5	0.00e+00	0	55	0	409993216	55	4154
2026-01-04 00:01:54.41	32.93	24.66	-46.1	-47.5	17.6	0.00e+00	0	55	0	412090368	55	4143
2026-01-04 00:01:55.40	33.02	24.81	-46.3	-47.8	17.3	0.00e+00	0	55	0	414187520	55	4256
2026-01-04 00:01:56.39	33.11	24.96	-46.4	-47.8	17.3	0.00e+00	0	55	0	416284672	55	4273
2026-01-04 00:01:57.38	33.20	25.11	-46.3	-47.7	17.4	0.00e+00	0	55	0	417333248	55	4235
2026-01-04 00:01:58.37	33.29	25.26	-46.4	-47.8	17.3	0.00e+00	0	55	0	419430400	55	4291
2026-01-04 00:01:59.36	33.39	25.41	-46.4	-47.9	17.3	0.00e+00	0	55	0	421527552	55	4297
2026-01-04 00:02:00.35	33.48	25.56	-46.4	-47.9	17.3	0.00e+00	0	55	0	423624704	55	4292
2026-01-04 00:02:01.35	33.58	25.71	-46.4	-47.9	17.3	0.00e+00	0	55	0	424673280	55	4296
2026-01-04 00:02:02.34	33.67	25.86	-46.4	-47.9	17.2	0.00e+00	0	55	0	426770432	55	4325
2026-01-04 00:02:03.33	33.77	26.02	-46.3	-47.8	17.4	0.00e+00	0	55	0	428867584	55	4257
2026-01-04 00:02:04.30	33.86	26.17	-46.2	-47.6	17.5	0.00e+00	0	55	0	430964736	55	4185
2026-01-04 00:02:05.30	33.96	26.33	-46.2	-47.6	17.5	0.00e+00	0	55	0	432013312	55	4176
2026-01-04 00:02:06.29	34.06	26.48	-46.2	-47.6	17.5	0.00e+00	0	55	0	434110464	55	4177
2026-01-04 00:02:07.27	34.16	26.64	-46.3	-47.7	17.5	0.00e+00	0	55	0	436207616	55	4210
2026-01-04 00:02:08.26	34.26	26.80	-46.3	-47.8	17.4	0.00e+00	0	55	0	438304768	55	4254
2026-01-04 00:02:09.25	34.37	26.95	-46.3	-47.7	17.4	0.00e+00	0	55	0	440401920	55	4231
2026-01-04 00:02:10.25	34.47	27.12	-46.4	-47.9	17.3	0.00e+00	0	55	0	441450496	55	4302
2026-01-04 00:02:11.24	34.58	27.28	-46.3	-47.7	17.4	0.00e+00	0	55	0	443547648	55	4238
2026-01-04 00:02:12.23	34.68	27.44	-46.4	-47.8	17.4	0.00e+00	0	55	0	445644800	55	4260
2026-01-04 00:02:13.22	34.79	27.60	-46.4	-47.9	17.3	0.00e+00	0	55	0	447741952	55	4305
2026-01-04 00:02:14.21	34.90	27.76	-46.5	-48.0	17.1	0.00e+00	0	55	0	448790528	55	4385
2026-01-04 00:02:15.20	35.00	27.93	-46.5	-48.0	17.1	0.00e+00	0	55	0	450887680	55	4386
2026-01-04 00:02:16.18	35.11	28.09	-46.6	-48.3	16.9	0.00e+00	0	55	0	452984832	55	4494
2026-01-04 00:02:17.17	35.22	28.25	-46.8	-48.5	16.7	0.00e+00	0	55	0	455081984	55	4603
2026-01-04 00:02:18.16	35.33	28.42	-47.0	-48.7	16.5	0.00e+00	0	55	0	456130560	55	4743
2026-01-04 00:02:19.15	35.45	28.59	-47.2	-48.9	16.4	0.00e+00	0	55	0	458227712	56	4583
2026-01-04 00:02:20.14	35.56	28.76	-47.5	-49.3	16.0	0.00e+00	0	55	0	460324864	56	4813
2026-01-04 00:02:21.13	35.68	28.93	-47.7	-49.6	15.7	0.00e+00	0	55	0	462422016	57	4675
2026-01-04 00:02:22.11	35.79	29.09	-47.9	-49.9	15.3	0.00e+00	0	55	0	464519168	57	4862
2026-01-04 00:02:23.10	35.91	29.26	-48.0	-50.1	15.2	0.00e+00	0	55	0	465567744	57	4952
2026-01-04 00:02:24.09	36.03	29.44	-48.2	-50.4	14.9	0.00e+00	0	55	0	467664896	58	4864
2026-01-04 00:02:25.07	36.15	29.61	-48.2	-50.4	15.0	0.00e+00	0	55	0	469762048	58	4824
2026-01-04 00:02:26.07	36.27	29.78	-48.4	-50.6	14.7	0.00e+00	0	55	0	471859200	58	4970
2026-01-04 00:02:27.05	36.39	29.96	-48.3	-50.5	14.8	1.50e-06	0	55	0	472907776	58	4906
2026-01-04 00:02:28.04	36.51	30.13	-48.5	-50.9	14.4	0.00e+00	0	55	0	475004928	58	5140
2026-01-04 00:02:29.01	36.64	30.30	-48.7	-51.1	14.2	0.00e+00	0	55	0	477102080	59	4983
2026-01-04 00:02:30.00	36.76	30.48	-48.8	-51.3	14.0	1.50e-06	0	55	0	479199232	59	5055
2026-01-04 00:02:30.99	36.89	30.66	-49.0	-51.6	13.7	4.50e-06	0	55	0	480247808	59	5257
2026-01-04 00:02:31.98	37.02	30.84	-49.1	-51.9	13.4	1.22e-05	0	55	0	482344960	60	5119
2026-01-04 00:02:32.98	37.15	31.02	-49.3	-52.2	13.1	2.74e-05	0	55	0	484442112	60	5309
2026-01-04 00:02:33.97	37.28	31.20	-49.4	-52.5	12.8	4.88e-05	0	55	0	486539264	60	5472
2026-01-04 00:02:34.96	37.42	31.39	-49.5	-52.5	12.8	7.40e-05	0	55	0	487587840	60	5518
2026-01-04 00:02:35.94	37.55	31.57	-49.6	-52.8	12.6	9.00e-05	0	55	0	489684992	61	5344
2026-01-04 00:02:36.93	37.69	31.75	-49.6	-52.7	12.6	1.07e-04	0	55	0	491782144	61	5283
2026-01-04 00:02:37.91	37.82	31.93	-49.6	-52.7	12.6	1.15e-04	0	55	0	493879296	61	5299
2026-01-04 00:02:38.89	37.96	32.12	-49.7	-52.9	12.4	1.10e-04	0	55	0	495976448	61	5415
2026-01-04 00:02:39.88	38.10	32.31	-49.7	-53.0	12.2	1.62e-04	0	55	0	497025024	61	5511
2026-01-04 00:02:40.87	38.24	32.49	-49.7	-53.0	12.3	2.20e-04	0	55	0	499122176	61	5520
2026-01-04 00:02:41.86	38.39	32.68	-49.7	-52.9	12.4	1.62e-04	0	55	0	501219328	61	5413
2026-01-04 00:02:42.85	38.53	32.87	-49.7	-53.0	12.2	1.50e-04	0	55	0	503316480	61	5481
2026-01-04 00:02:43.83	38.68	33.06	-49.8	-53.1	12.1	2.32e-04	0	56	0	504365056	61	5590
2026-01-04 00:02:44.82	38.83	33.25	-50.0	-53.5	11.8	3.46e-04	0	55	0	506462208	61	5803
2026-01-04 00:02:45.80	38.98	33.45	-49.7	-53.0	12.2	4.31e-04	0	55	0	508559360	61	5514
2026-01-04 00:02:46.79	39.13	33.64	-49.7	-52.9	12.3	1.49e-04	0	55	0	510656512	61	5453
2026-01-04 00:02:47.78	39.28	33.84	-49.8	-53.1	12.1	1.88e-04	0	56	0	511705088	61	5591
2026-01-04 00:02:48.78	39.44	34.03	-49.7	-53.0	12.3	2.20e-04	0	56	0	513802240	61	5484
2026-01-04 00:02:49.77	39.60	34.23	-49.9	-53.3	12.0	2.60e-04	0	56	0	515899392	61	5661
2026-01-04 00:02:50.77	39.76	34.43	-49.8	-53.1	12.2	3.39e-04	0	55	0	517996544	61	5567
2026-01-04 00:02:51.76	39.92	34.63	-50.0	-53.4	11.9	2.84e-04	0	55	0	520093696	61	5745
2026-01-04 00:02:52.75	40.09	34.83	-49.8	-53.4	11.9	5.65e-04	0	55	0	521142272	61	5757
2026-01-04 00:02:53.74	40.25	35.03	-49.6	-53.1	12.2	2.53e-04	0	55	0	523239424	61	5554
2026-01-04 00:02:54.73	40.42	35.24	-49.6	-52.7	12.6	1.44e-04	0	56	0	525336576	61	5308
2026-01-04 00:02:55.72	40.59	35.44	-49.5	-52.5	12.8	8.39e-05	0	56	0	527433728	61	5192
2026-01-04 00:02:56.72	40.76	35.65	-49.5	-52.4	12.9	5.11e-05	0	56	0	528482304	61	5151
2026-01-04 00:02:57.71	40.94	35.85	-49.4	-52.3	13.0	4.34e-05	0	56	0	530579456	61	5097
2026-01-04 00:02:58.70	41.11	36.06	-49.1	-52.0	13.3	2.67e-05	0	55	0	532676608	61	4925
2026-01-04 00:02:59.69	41.29	36.27	-49.1	-51.9	13.4	2.28e-05	0	55	0	534773760	61	4827
2026-01-04 00:03:00.68	41.47	36.48	-48.8	-51.3	14.1	5.30e-06	0	56	0	536870912	60	4780
2026-01-04 00:03:01.66	41.65	36.68	-48.7	-51.2	14.2	1.50e-06	0	56	0	537919488	60	4709
2026-01-04 00:03:02.65	41.84	36.89	-48.5	-50.8	14.5	0.00e+00	0	56	0	540016640	60	4521
2026-01-04 00:03:03.64	42.03	37.11	-48.4	-50.6	14.8	7.00e-07	0	56	0	542113792	59	4683
2026-01-04 00:03:04.62	42.21	37.32	-48.4	-50.6	14.8	0.00e+00	0	56	0	544210944	59	4667
2026-01-04 00:03:05.62	42.41	37.53	-48.3	-50.5	14.9	0.00e+00	0	56	0	545259520	59	4621
2026-01-04 00:03:06.61	42.60	37.75	-48.4	-50.6	14.8	0.00e+00	0	56	0	547356672	59	4670
2026-01-04 00:03:07.60	42.80	37.96	-48.3	-50.5	14.9	0.00e+00	0	55	0	549453824	59	4614
2026-01-04 00:03:08.58	43.00	38.18	-48.1	-50.1	15.3	0.00e+00	0	55	0	551550976	59	4427
2026-01-04 00:03:09.58	43.20	38.40	-48.0	-50.0	15.4	0.00e+00	0	56	0	552599552	59	4356
2026-01-04 00:03:10.58	43.41	38.62	-48.0	-50.0	15.3	0.00e+00	0	56	0	554696704	59	4386
2026-01-04 00:03:11.57	43.62	38.84	-48.1	-50.2	15.3	0.00e+00	0	56	0	556793856	59	4449
2026-01-04 00:03:12.56	43.83	39.06	-48.3	-50.5	14.9	0.00e+00	0	56	0	558891008	59	4610
2026-01-04 00:03:13.55	44.04	39.28	-48.5	-50.7	14.7	0.00e+00	0	55	0	560988160	59	4736
2026-01-04 00:03:14.54	44.26	39.51	-48.4	-50.8	14.6	0.00e+00	0	56	0	562036736	59	4795
2026-01-04 00:03:15.54	44.48	39.73	-48.3	-50.5	14.9	0.00e+00	0	55	0	564133888	59	4623
2026-01-04 00:03:16.52	44.70	39.96	-48.0	-50.0	15.4	0.00e+00	0	55	0	566231040	59	4391
2026-01-04 00:03:17.52	44.93	40.19	-47.7	-49.7	15.8	0.00e+00	0	56	0	568328192	58	4451
2026-01-04 00:03:18.51	45.16	40.41	-47.6	-49.4	16.0	0.00e+00	0	55	0	569376768	58	4332
2026-01-04 00:03:19.50	45.39	40.64	-47.5	-49.3	16.1	0.00e+00	0	56	0	571473920	58	4256
2026-01-04 00:03:20.49	45.62	40.87	-47.5	-49.3	16.1	0.00e+00	0	56	0	573571072	58	4287
2026-01-04 00:03:21.48	45.86	41.10	-47.6	-49.4	16.0	0.00e+00	0	56	0	575668224	58	4314
2026-01-04 00:03:22.47	46.10	41.33	-47.8	-49.7	15.7	0.00e+00	0	56	0	576716800	58	4476
2026-01-04 00:03:23.46	46.35	41.56	-48.1	-50.1	15.3	0.00e+00	0	56	0	578813952	58	4703
2026-01-04 00:03:24.46	46.60	41.80	-48.3	-50.5	14.9	0.00e+00	0	56	0	580911104	58	4885
2026-01-04 00:03:25.45	46.85	42.03	-48.3	-50.5	15.0	0.00e+00	0	56	0	583008256	58	4887
2026-01-04 00:03:26.44	47.11	42.27	-48.2	-50.2	15.1	0.00e+00	0	56	0	585105408	58	4754
2026-01-04 00:03:27.42	47.36	42.50	-48.0	-50.0	15.4	0.00e+00	0	56	0	586153984	58	4626
2026-01-04 00:03:28.40	47.62	42.73	-47.9	-49.8	15.6	0.00e+00	0	56	0	588251136	58	4518
2026-01-04 00:03:29.38	47.89	42.97	-47.8	-49.7	15.8	0.00e+00	0	56	0	590348288	58	4457
2026-01-04 00:03:30.36	48.16	43.20	-47.6	-49.5	15.9	0.00e+00	0	56	0	592445440	58	4377
2026-01-04 00:03:31.34	48.43	43.44	-47.8	-49.8	15.7	0.00e+00	0	56	0	593494016	58	4494
2026-01-04 00:03:32.33	48.71	43.68	-48.1	-50.2	15.3	7.00e-07	0	56	0	595591168	58	4719
2026-01-04 00:03:33.32	48.99	43.92	-48.3	-50.5	15.0	0.00e+00	0	56	0	597688320	58	4872
2026-01-04 00:03:34.30	49.28	44.16	-48.5	-50.8	14.7	0.00e+00	0	56	0	599785472	58	5056
2026-01-04 00:03:35.29	49.57	44.40	-48.6	-50.8	14.6	7.00e-07	0	56	0	600834048	58	5070
2026-01-04 00:03:36.28	49.86	44.64	-48.6	-50.9	14.6	7.00e-07	0	56	0	602931200	59	4824
2026-01-04 00:03:37.26	50.16	44.88	-48.8	-51.1	14.3	7.00e-07	0	56	0	605028352	59	4953
2026-01-04 00:03:38.26	50.47	45.13	-48.9	-51.3	14.2	3.80e-06	0	56	0	607125504	59	5075
2026-01-04 00:03:39.25	50.78	45.37	-49.0	-51.5	13.9	2.20e-06	0	56	0	608174080	59	5163
2026-01-04 00:03:40.23	51.09	45.62	-48.8	-51.2	14.2	1.50e-06	0	56	0	610271232	59	4993
2026-01-04 00:03:41.22	51.41	45.86	-48.8	-51.2	14.3	1.50e-06	0	56	0	612368384	59	5009
2026-01-04 00:03:42.21	51.73	46.11	-49.0	-51.7	13.8	7.00e-07	0	56	0	614465536	60	4991
2026-01-04 00:03:43.20	52.06	46.35	-49.5	-52.4	13.0	1.52e-05	0	56	0	616562688	60	5450
2026-01-04 00:03:44.19	52.39	46.60	-49.6	-52.6	12.8	5.95e-05	0	56	0	617611264	61	5262
2026-01-04 00:03:45.18	52.73	46.85	-49.7	-52.8	12.5	6.79e-05	0	56	0	619708416	61	5369
2026-01-04 00:03:46.17	53.08	47.10	-49.4	-52.3	13.0	3.81e-05	0	56	0	621805568	61	5074
2026-01-04 00:03:47.16	53.43	47.35	-49.1	-51.7	13.7	7.60e-06	0	56	0	623902720	61	4728
2026-01-04 00:03:48.15	53.79	47.59	-48.9	-51.5	13.9	4.50e-06	0	56	0	624951296	61	4599
2026-01-04 00:03:49.13	54.14	47.84	-49.2	-51.8	13.5	3.00e-06	0	56	0	627048448	60	5095
2026-01-04 00:03:50.12	54.51	48.09	-49.3	-52.1	13.3	1.29e-05	0	56	0	629145600	60	5267
2026-01-04 00:03:51.12	54.89	48.34	-49.6	-52.7	12.7	5.26e-05	0	56	0	631242752	61	5283
2026-01-04 00:03:52.10	55.26	48.59	-50.0	-53.3	12.0	1.85e-04	0	56	0	632291328	61	5699
2026-01-04 00:03:53.10	55.65	48.84	-49.9	-53.2	12.1	3.13e-04	0	56	0	634388480	61	5640
2026-01-04 00:03:54.09	56.04	49.09	-50.0	-53.4	11.9	3.03e-04	0	56	0	636485632	61	5772
2026-01-04 00:03:55.07	56.44	49.34	-49.7	-52.7	12.6	1.37e-04	0	56	0	638582784	61	5329
2026-01-04 00:03:56.06	56.84	49.58	-49.3	-52.0	13.4	3.66e-05	0	56	0	640679936	61	4924
2026-01-04 00:03:57.05	57.25	49.83	-49.1	-51.7	13.7	1.14e-05	0	56	0	641728512	61	4717
2026-01-04 00:03:58.04	57.67	50.08	-49.2	-51.8	13.6	6.80e-06	0	56	0	643825664	61	4799
2026-01-04 00:03:59.03	58.09	50.33	-49.0	-51.6	13.8	8.30e-06	0	56	0	645922816	61	4671
2026-01-04 00:04:00.02	58.53	50.58	-49.0	-51.5	13.9	3.80e-06	0	56	0	648019968	61	4632
2026-01-04 00:04:01.01	58.96	50.83	-48.7	-51.1	14.3	3.80e-06	0	56	0	649068544	60	4688
2026-01-04 00:04:02.00	59.41	51.08	-48.5	-50.8	14.6	0.00e+00	0	56	0	651165696	60	4520
2026-01-04 00:04:02.99	59.86	51.32	-48.3	-50.4	15.0	0.00e+00	0	56	0	653262848	59	4572
2026-01-04 00:04:03.98	60.32	51.57	-48.2	-50.3	15.1	7.00e-07	0	56	0	655360000	59	4523
2026-01-04 00:04:04.97	60.79	51.82	-48.5	-50.6	14.8	0.00e+00	0	56	0	656408576	59	4699
2026-01-04 00:04:05.96	61.27	52.06	-48.1	-50.1	15.3	0.00e+00	0	56	0	658505728	59	4407
2026-01-04 00:04:06.95	61.75	52.31	-48.0	-49.9	15.5	0.00e+00	0	56	0	660602880	59	4340
2026-01-04 00:04:07.95	62.25	52.55	-47.8	-49.8	15.6	0.00e+00	0	56	0	662700032	58	4512
2026-01-04 00:04:08.93	62.74	52.79	-47.9	-49.8	15.7	0.00e+00	0	56	0	664797184	58	4522
2026-01-04 00:04:09.93	63.25	53.04	-47.7	-49.5	15.9	0.00e+00	0	56	0	665845760	58	4377
2026-01-04 00:04:10.92	63.77	53.28	-47.6	-49.4	16.1	0.00e+00	0	56	0	667942912	58	4330
2026-01-04 00:04:11.91	64.30	53.52	-47.2	-48.9	16.5	0.00e+00	0	56	0	670040064	57	4321
2026-01-04 00:04:12.91	64.84	53.76	-47.2	-48.9	16.6	0.00e+00	0	56	0	672137216	57	4302
2026-01-04 00:04:13.89	65.37	53.99	-47.5	-49.2	16.3	0.00e+00	0	56	0	673185792	57	4463
2026-01-04 00:04:14.87	65.92	54.23	-47.8	-49.7	15.8	0.00e+00	0	56	0	675282944	57	4715
2026-01-04 00:04:15.86	66.48	54.46	-47.7	-49.6	15.8	0.00e+00	0	56	0	677380096	57	4705
2026-01-04 00:04:16.85	67.05	54.69	-47.6	-49.4	16.1	0.00e+00	0	56	0	679477248	57	4575
2026-01-04 00:04:17.84	67.63	54.92	-47.5	-49.2	16.3	0.00e+00	0	56	0	680525824	57	4460
2026-01-04 00:04:18.83	68.21	55.15	-47.6	-49.4	16.1	0.00e+00	0	56	0	682622976	57	4547
2026-01-04 00:04:19.82	68.81	55.38	-47.6	-49.3	16.1	0.00e+00	0	56	0	684720128	57	4541
2026-01-04 00:04:20.81	69.42	55.60	-47.6	-49.4	16.1	0.00e+00	0	56	0	686817280	57	4555
2026-01-04 00:04:21.80	70.03	55.82	-48.0	-50.0	15.5	0.00e+00	0	56	0	688914432	57	4893
2026-01-04 00:04:22.79	70.66	56.04	-48.0	-50.1	15.4	0.00e+00	0	56	0	689963008	58	4671
2026-01-04 00:04:23.78	71.30	56.26	-48.3	-50.5	15.0	0.00e+00	0	56	0	692060160	58	4873
2026-01-04 00:04:24.77	71.94	56.47	-48.5	-50.7	14.7	0.00e+00	0	56	0	694157312	58	5025
2026-01-04 00:04:25.75	72.59	56.68	-48.5	-50.8	14.6	0.00e+00	0	56	0	696254464	59	4809
2026-01-04 00:04:26.75	73.27	56.89	-48.5	-50.7	14.8	0.00e+00	0	56	0	697303040	59	4710
2026-01-04 00:04:27.72	73.93	57.10	-48.4	-50.5	15.0	0.00e+00	0	56	0	699400192	59	4637
2026-01-04 00:04:28.71	74.61	57.30	-48.6	-50.8	14.7	0.00e+00	0	56	0	701497344	59	4786
2026-01-04 00:04:29.69	75.30	57.50	-48.6	-50.8	14.7	7.00e-07	0	56	0	703594496	59	4804
2026-01-04 00:04:30.68	76.01	57.69	-48.5	-50.8	14.7	0.00e+00	0	56	0	704643072	59	4792
2026-01-04 00:04:31.67	76.73	57.89	-48.6	-51.0	14.5	7.00e-07	0	56	0	706740224	59	4884
2026-01-04 00:04:32.66	77.45	58.08	-48.5	-50.7	14.8	1.50e-06	0	56	0	708837376	59	4739
2026-01-04 00:04:33.65	78.19	58.26	-48.3	-50.5	15.0	0.00e+00	0	56	0	710934528	59	4612
2026-01-04 00:04:34.64	78.94	58.45	-47.9	-49.9	15.6	0.00e+00	0	56	0	713031680	59	4296
2026-01-04 00:04:35.62	79.69	58.62	-47.8	-49.6	15.9	0.00e+00	0	56	0	714080256	58	4421
2026-01-04 00:04:36.61	80.45	58.80	-47.8	-49.6	15.8	0.00e+00	0	56	0	716177408	58	4422
2026-01-04 00:04:37.60	81.23	58.97	-48.1	-50.2	15.3	0.00e+00	0	56	0	718274560	58	4714
2026-01-04 00:04:38.59	82.02	59.13	-48.3	-50.4	15.1	0.00e+00	0	56	0	720371712	58	4821
2026-01-04 00:04:39.58	82.82	59.29	-48.2	-50.3	15.2	0.00e+00	0	56	0	721420288	58	4765
2026-01-04 00:04:40.57	83.62	59.45	-48.2	-50.4	15.1	0.00e+00	0	56	0	723517440	58	4841
2026-01-04 00:04:41.56	84.44	59.60	-48.2	-50.2	15.3	0.00e+00	0	56	0	725614592	58	4726
2026-01-04 00:04:42.55	85.26	59.75	-47.6	-49.3	16.2	0.00e+00	0	56	0	727711744	58	4279
2026-01-04 00:04:43.55	86.11	59.89	-47.0	-48.7	16.7	0.00e+00	0	56	0	728760320	57	4210
2026-01-04 00:04:44.53	86.94	60.03	-46.9	-48.5	16.9	0.00e+00	0	56	0	730857472	56	4368
2026-01-04 00:04:45.53	87.80	60.16	-47.0	-48.6	16.9	0.00e+00	0	56	0	732954624	56	4414
2026-01-04 00:04:46.51	88.66	60.28	-47.1	-48.7	16.7	0.00e+00	0	56	0	735051776	56	4456
2026-01-04 00:04:47.51	89.53	60.40	-47.6	-49.4	16.0	0.00e+00	0	56	0	737148928	57	4570
2026-01-04 00:04:48.50	90.41	60.52	-48.1	-50.1	15.4	0.00e+00	0	56	0	738197504	57	4932
2026-01-04 00:04:49.49	91.30	60.63	-48.0	-49.9	15.5	0.00e+00	0	56	0	740294656	58	4585
2026-01-04 00:04:50.48	92.19	60.73	-47.1	-48.7	16.7	0.00e+00	0	56	0	742391808	57	4211
2026-01-04 00:04:51.45	93.07	60.83	-46.7	-48.1	17.3	0.00e+00	0	56	0	744488960	56	4182
2026-01-04 00:04:52.44	93.98	60.92	-47.1	-48.7	16.8	0.00e+00	0	56	0	745537536	56	4460
2026-01-04 00:04:53.43	94.89	61.00	-47.5	-49.3	16.1	0.00e+00	0	56	0	747634688	56	4765
2026-01-04 00:04:54.42	95.81	61.08	-48.0	-49.9	15.5	0.00e+00	0	56	0	749731840	57	4851
2026-01-04 00:04:55.40	96.73	61.15	-48.4	-50.6	14.8	7.00e-07	0	56	0	751828992	58	4956
2026-01-04 00:04:56.39	97.65	61.22	-47.8	-49.7	15.7	0.00e+00	0	56	0	752877568	58	4481
2026-01-04 00:04:57.38	98.59	61.28	-47.5	-49.3	16.2	0.00e+00	0	56	0	754974720	58	4251
2026-01-04 00:04:58.38	99.54	61.33	-47.5	-49.2	16.1	0.00e+00	0	56	0	757071872	57	4484
2026-01-04 00:04:59.37	100.48	61.38	-47.7	-49.6	15.9	0.00e+00	0	56	0	759169024	57	4670
2026-01-04 00:05:00.35	101.41	61.42	-47.5	-49.3	16.1	0.00e+00	0	56	0	760217600	57	4524
2026-01-04 00:05:01.34	102.36	61.45	-47.4	-49.2	16.2	0.00e+00	0	56	0	762314752	57	4471
2026-01-04 00:05:02.33	103.31	61.48	-47.5	-49.2	16.2	0.00e+00	0	56	0	764411904	57	4487
2026-01-04 00:05:03.31	104.26	61.50	-47.1	-48.7	16.8	0.00e+00	0	56	0	766509056	57	4209
2026-01-04 00:05:04.30	105.21	61.51	-47.1	-48.7	16.7	0.00e+00	0	56	0	768606208	57	4228
2026-01-04 00:05:05.29	106.16	61.51	-47.6	-49.4	16.0	0.00e+00	0	56	0	769654784	57	4584
2026-01-04 00:05:06.28	107.12	61.51	-47.3	-49.0	16.4	0.00e+00	0	56	0	771751936	57	4370
2026-01-04 00:05:07.27	108.07	61.51	-46.7	-48.2	17.2	0.00e+00	0	56	0	773849088	56	4241
2026-01-04 00:05:08.25	109.01	61.49	-46.7	-48.1	17.3	0.00e+00	0	56	0	775946240	56	4189
2026-01-04 00:05:09.24	109.97	61.47	-46.5	-47.9	17.5	0.00e+00	0	56	0	776994816	56	4064
2026-01-04 00:05:10.23	110.92	61.44	-46.2	-47.5	17.8	0.00e+00	0	56	0	779091968	55	4130
2026-01-04 00:05:11.22	111.86	61.41	-46.1	-47.4	17.9	0.00e+00	0	56	0	781189120	55	4067
2026-01-04 00:05:12.21	112.81	61.37	-46.0	-47.3	18.0	0.00e+00	0	56	0	783286272	55	4032
2026-01-04 00:05:13.20	113.75	61.32	-46.3	-47.7	17.7	0.00e+00	0	56	0	784334848	55	4201
2026-01-04 00:05:14.18	114.68	61.27	-47.0	-48.6	16.8	0.00e+00	0	56	0	786432000	55	4659
2026-01-04 00:05:15.16	115.60	61.21	-47.7	-49.5	15.9	0.00e+00	0	56	0	788529152	57	4645
2026-01-04 00:05:16.15	116.53	61.14	-47.5	-49.3	16.1	0.00e+00	0	56	0	790626304	57	4539
2026-01-04 00:05:17.14	117.46	61.06	-48.2	-50.3	15.2	0.00e+00	0	56	0	792723456	58	4814
2026-01-04 00:05:18.14	118.38	60.98	-48.4	-50.6	14.9	0.00e+00	0	56	0	793772032	58	4936
2026-01-04 00:05:19.13	119.29	60.90	-48.1	-50.0	15.5	7.00e-07	0	56	0	795869184	58	4642
2026-01-04 00:05:20.13	120.21	60.80	-47.7	-49.6	15.9	0.00e+00	0	56	0	797966336	58	4395
2026-01-04 00:05:21.11	121.10	60.71	-48.2	-50.3	15.2	0.00e+00	0	56	0	800063488	58	4776
2026-01-04 00:05:22.10	121.99	60.60	-48.7	-51.0	14.5	0.00e+00	0	56	0	801112064	59	4873
2026-01-04 00:05:23.09	122.87	60.49	-48.8	-51.2	14.2	0.00e+00	0	56	0	803209216	59	5025
2026-01-04 00:05:24.08	123.75	60.38	-48.6	-50.9	14.5	7.00e-07	0	56	0	805306368	59	4862
2026-01-04 00:05:25.07	124.62	60.25	-48.7	-51.0	14.5	1.50e-06	0	56	0	807403520	59	4907
2026-01-04 00:05:26.06	125.48	60.13	-48.6	-50.8	14.7	7.00e-07	0	56	0	808452096	59	4784
2026-01-04 00:05:27.04	126.32	60.00	-48.7	-51.1	14.5	7.00e-07	0	56	0	810549248	59	4933
2026-01-04 00:05:28.03	127.17	59.86	-49.0	-51.6	13.9	7.00e-07	0	56	0	812646400	59	5235
2026-01-04 00:05:29.03	128.01	59.71	-49.0	-51.6	13.8	3.00e-06	0	56	0	814743552	60	4966
2026-01-04 00:05:30.01	128.82	59.57	-48.6	-51.0	14.5	7.00e-07	0	56	0	816840704	60	4604
2026-01-04 00:05:31.00	129.64	59.41	-48.5	-50.8	14.7	0.00e+00	0	56	0	817889280	59	4794
2026-01-04 00:05:31.98	130.44	59.26	-48.8	-51.2	14.2	0.00e+00	0	56	0	819986432	59	5034
2026-01-04 00:05:32.97	131.23	59.10	-48.8	-51.2	14.3	1.50e-06	0	56	0	822083584	59	5007
2026-01-04 00:05:33.95	132.01	58.93	-48.6	-50.8	14.7	1.50e-06	0	56	0	824180736	59	4811
2026-01-04 00:05:34.93	132.78	58.76	-48.7	-51.1	14.4	0.00e+00	0	56	0	825229312	59	4949
2026-01-04 00:05:35.92	133.54	58.59	-49.2	-51.9	13.5	3.80e-06	0	56	0	827326464	60	5136
2026-01-04 00:05:36.91	134.30	58.41	-49.5	-52.5	12.9	1.83e-05	0	56	0	829423616	60	5502
2026-01-04 00:05:37.90	135.05	58.22	-49.2	-51.9	13.5	3.66e-05	0	56	0	831520768	60	5130
2026-01-04 00:05:38.89	135.78	58.04	-48.8	-51.2	14.2	1.50e-06	0	56	0	832569344	60	4742
2026-01-04 00:05:39.88	136.51	57.85	-48.9	-51.5	13.9	1.50e-06	0	56	0	834666496	60	4887
2026-01-04 00:05:40.86	137.22	57.65	-48.8	-51.2	14.2	4.50e-06	0	56	0	836763648	60	4740
2026-01-04 00:05:41.86	137.93	57.45	-48.4	-50.6	14.9	7.00e-07	0	56	0	838860800	60	4402
2026-01-04 00:05:42.85	138.62	57.25	-48.6	-50.8	14.6	0.00e+00	0	56	0	839909376	59	4810
2026-01-04 00:05:43.84	139.31	57.05	-48.9	-51.3	14.2	1.50e-06	0	57	0	842006528	59	5070
2026-01-04 00:05:44.83	139.98	56.84	-48.9	-51.3	14.2	7.00e-07	0	56	0	844103680	59	5076
2026-01-04 00:05:45.82	140.65	56.63	-48.1	-50.2	15.2	0.00e+00	0	56	0	846200832	59	4477
2026-01-04 00:05:46.81	141.30	56.42	-47.8	-49.7	15.8	0.00e+00	0	56	0	848297984	58	4481
2026-01-04 00:05:47.79	141.94	56.21	-47.7	-49.6	15.9	0.00e+00	0	57	0	849346560	58	4408
2026-01-04 00:05:48.77	142.57	55.99	-47.4	-49.1	16.4	0.00e+00	0	57	0	851443712	58	4157
2026-01-04 00:05:49.76	143.19	55.77	-47.0	-48.5	16.9	0.00e+00	0	56	0	853540864	57	4145
2026-01-04 00:05:50.76	143.81	55.54	-47.1	-48.7	16.8	0.00e+00	0	57	0	855638016	57	4207
2026-01-04 00:05:51.74	144.41	55.32	-47.2	-48.8	16.7	0.00e+00	0	56	0	856686592	57	4263
2026-01-04 00:05:52.73	145.01	55.09	-47.2	-48.9	16.6	0.00e+00	0	56	0	858783744	57	4311
2026-01-04 00:05:53.71	145.59	54.87	-46.6	-48.1	17.4	0.00e+00	0	56	0	860880896	56	4156
2026-01-04 00:05:54.70	146.17	54.64	-45.7	-47.0	18.3	0.00e+00	0	57	0	862978048	54	4100
2026-01-04 00:05:55.69	146.74	54.40	-45.0	-46.1	19.1	0.00e+00	0	56	0	864026624	53	3952
2026-01-04 00:05:56.68	147.30	54.17	-44.4	-45.4	19.9	0.00e+00	0	57	0	866123776	52	3827
2026-01-04 00:05:57.67	147.85	53.93	-44.3	-45.3	20.1	0.00e+00	0	56	0	868220928	51	4007
2026-01-04 00:05:58.65	148.38	53.70	-44.6	-45.6	19.7	0.00e+00	0	56	0	870318080	51	4181
2026-01-04 00:05:59.64	148.91	53.46	-44.6	-45.6	19.7	0.00e+00	0	56	0	872415232	51	4173
2026-01-04 00:06:00.62	149.43	53.22	-44.3	-45.3	20.0	0.00e+00	0	56	0	873463808	51	4021
2026-01-04 00:06:01.61	149.95	52.98	-44.5	-45.5	19.8	0.00e+00	0	56	0	875560960	51	4127
2026-01-04 00:06:02.60	150.45	52.74	-44.9	-46.0	19.4	0.00e+00	0	56	0	877658112	51	4358
2026-01-04 00:06:03.59	150.95	52.49	-45.1	-46.2	19.0	0.00e+00	0	56	0	879755264	52	4229
2026-01-04 00:06:04.57	151.44	52.25	-45.1	-46.2	19.1	0.00e+00	0	56	0	880803840	52	4223
2026-01-04 00:06:05.56	151.92	52.00	-45.0	-46.1	19.2	0.00e+00	0	57	0	882900992	52	4156
2026-01-04 00:06:06.55	152.40	51.76	-45.0	-46.2	19.1	0.00e+00	0	56	0	884998144	52	4197
2026-01-04 00:06:07.54	152.86	51.51	-45.6	-46.8	18.5	0.00e+00	0	56	0	887095296	52	4511
2026-01-04 00:06:08.53	153.32	51.26	-46.1	-47.5	17.9	0.00e+00	0	57	0	888143872	54	4342
2026-01-04 00:06:09.53	153.78	51.01	-46.8	-48.4	16.9	0.00e+00	0	57	0	890241024	55	4597
2026-01-04 00:06:10.52	154.23	50.76	-47.3	-49.0	16.5	0.00e+00	0	56	0	892338176	56	4620
2026-01-04 00:06:11.51	154.66	50.52	-47.2	-48.8	16.7	0.00e+00	0	56	0	894435328	56	4529
2026-01-04 00:06:12.50	155.09	50.27	-46.8	-48.2	17.2	0.00e+00	0	56	0	895483904	56	4235
2026-01-04 00:06:13.49	155.52	50.02	-47.6	-49.3	16.2	0.00e+00	0	57	0	897581056	56	4798
2026-01-04 00:06:14.48	155.93	49.77	-48.6	-50.9	14.6	0.00e+00	0	56	0	899678208	59	4825
2026-01-04 00:06:15.46	156.34	49.52	-49.2	-51.9	13.5	4.50e-06	0	56	0	901775360	60	5105
2026-01-04 00:06:16.45	156.74	49.27	-48.8	-51.3	14.2	1.50e-06	0	57	0	903872512	60	4806
2026-01-04 00:06:17.44	157.14	49.02	-48.7	-51.1	14.3	0.00e+00	0	57	0	904921088	60	4668
2026-01-04 00:06:18.43	157.53	48.77	-49.0	-51.5	13.9	7.00e-07	0	56	0	907018240	60	4913
2026-01-04 00:06:19.42	157.92	48.52	-49.1	-51.8	13.7	5.30e-06	0	56	0	909115392	60	5062
2026-01-04 00:06:20.40	158.29	48.27	-49.2	-51.9	13.5	7.60e-06	0	56	0	911212544	60	5146
2026-01-04 00:06:21.40	158.67	48.02	-49.1	-51.8	13.7	4.50e-06	0	56	0	912261120	60	5067
2026-01-04 00:06:22.39	159.03	47.77	-49.8	-53.1	12.3	5.18e-05	0	57	0	914358272	61	5552
2026-01-04 00:06:23.39	159.40	47.52	-50.5	-54.5	10.9	7.77e-04	0	57	0	916455424	62	6151
2026-01-04 00:06:24.37	159.75	47.27	-50.4	-54.3	11.1	2.28e-03	0	57	0	918552576	62	6021
2026-01-04 00:06:25.36	160.10	47.02	-50.1	-53.6	11.8	6.08e-04	0	56	0	919601152	62	5541
2026-01-04 00:06:26.36	160.45	46.77	-50.2	-53.8	11.6	3.52e-04	0	57	0	921698304	62	5659
2026-01-04 00:06:27.34	160.78	46.53	-50.7	-55.0	10.3	1.46e-03	0	57	0	923795456	63	6198
2026-01-04 00:06:28.33	161.12	46.28	-51.1	-56.0	9.2	1.69e-02	0	57	0	925892608	63	6940
2026-01-04 00:06:29.32	161.45	46.03	-50.7	-55.0	10.1	1.22e-02	0	57	0	927989760	64	5845
2026-01-04 00:06:30.29	161.76	45.79	-50.2	-53.8	11.5	1.83e-03	0	57	0	929038336	63	5376
2026-01-04 00:06:31.29	162.08	45.54	-50.2	-53.8	11.6	6.12e-04	0	57	0	931135488	63	5346
2026-01-04 00:06:32.28	162.40	45.29	-50.8	-55.2	10.1	3.08e-03	0	57	0	933232640	63	6331
2026-01-04 00:06:33.28	162.71	45.05	-51.0	-55.8	9.4	1.14e-02	0	57	0	935329792	63	6760
2026-01-04 00:06:34.27	163.01	44.80	-50.5	-54.8	10.4	1.34e-02	0	57	0	936378368	63	6016
2026-01-04 00:06:35.24	163.31	44.56	-49.6	-52.8	12.6	2.38e-04	0	57	0	938475520	62	5049
2026-01-04 00:06:36.23	163.60	44.32	-48.7	-51.2	14.2	5.30e-06	0	56	0	940572672	60	4711
2026-01-04 00:06:37.22	163.89	44.08	-48.5	-50.7	14.7	1.50e-06	0	57	0	942669824	60	4469
2026-01-04 00:06:38.21	164.18	43.84	-48.5	-50.8	14.7	0.00e+00	0	57	0	943718400	60	4498
2026-01-04 00:06:39.20	164.46	43.60	-48.7	-51.1	14.3	1.50e-06	0	56	0	945815552	60	4700
2026-01-04 00:06:40.19	164.74	43.36	-48.7	-51.2	14.2	7.00e-07	0	57	0	947912704	60	4759
2026-01-04 00:06:41.18	165.02	43.12	-49.1	-51.8	13.6	3.00e-06	0	57	0	950009856	60	5042
2026-01-04 00:06:42.16	165.28	42.88	-48.8	-51.2	14.2	4.50e-06	0	57	0	952107008	60	4723
2026-01-04 00:06:43.15	165.55	42.64	-48.0	-50.0	15.4	0.00e+00	0	57	0	953155584	59	4389
2026-01-04 00:06:44.13	165.81	42.41	-47.2	-48.9	16.6	0.00e+00	0	57	0	955252736	57	4307
2026-01-04 00:06:45.12	166.07	42.17	-46.7	-48.1	17.3	0.00e+00	0	57	0	957349888	56	4172
2026-01-04 00:06:46.12	166.33	41.93	-46.9	-48.4	17.0	0.00e+00	0	57	0	959447040	56	4327
2026-01-04 00:06:47.10	166.57	41.70	-47.5	-49.2	16.2	0.00e+00	0	57	0	960495616	56	4747
2026-01-04 00:06:48.09	166.82	41.47	-48.1	-50.2	15.2	0.00e+00	0	56	0	962592768	58	4756
2026-01-04 00:06:49.07	167.06	41.24	-49.1	-51.8	13.6	7.00e-07	0	57	0	964689920	60	5091
2026-01-04 00:06:50.05	167.30	41.01	-48.4	-50.7	14.7	2.20e-06	0	57	0	966787072	60	4463
2026-01-04 00:06:51.04	167.54	40.78	-47.3	-49.0	16.4	0.00e+00	0	56	0	967835648	57	4373
2026-01-04 00:06:52.03	167.78	40.55	-46.1	-47.4	17.8	0.00e+00	0	57	0	969932800	55	4085
2026-01-04 00:06:53.02	168.01	40.32	-45.8	-47.1	18.1	0.00e+00	0	56	0	972029952	54	4162
2026-01-04 00:06:54.01	168.23	40.09	-45.9	-47.2	18.1	0.00e+00	0	57	0	974127104	54	4234
2026-01-04 00:06:55.00	168.46	39.87	-46.4	-47.9	17.4	0.00e+00	0	57	0	975175680	54	4564
2026-01-04 00:06:55.99	168.68	39.64	-47.1	-48.8	16.6	0.00e+00	0	57	0	977272832	55	4769
2026-01-04 00:06:56.98	168.90	39.41	-47.9	-49.9	15.6	0.00e+00	0	57	0	979369984	57	4816
2026-01-04 00:06:57.97	169.12	39.19	-48.2	-50.3	15.1	0.00e+00	0	57	0	981467136	58	4789
2026-01-04 00:06:58.96	169.33	38.97	-48.1	-50.2	15.2	0.00e+00	0	57	0	983564288	58	4728
2026-01-04 00:06:59.95	169.54	38.75	-47.9	-49.8	15.6	0.00e+00	0	57	0	984612864	58	4518
2026-01-04 00:07:00.94	169.75	38.53	-47.2	-49.0	16.4	0.00e+00	0	57	0	986710016	57	4351
2026-01-04 00:07:01.93	169.95	38.31	-47.1	-48.7	16.7	0.00e+00	0	57	0	988807168	57	4208
2026-01-04 00:07:02.92	170.15	38.09	-47.0	-48.6	16.7	0.00e+00	0	57	0	990904320	57	4187
2026-01-04 00:07:03.91	170.35	37.87	-46.7	-48.2	17.2	0.00e+00	0	57	0	991952896	56	4214
2026-01-04 00:07:04.90	170.55	37.65	-47.0	-48.6	16.9	0.00e+00	0	57	0	994050048	56	4407
2026-01-04 00:07:05.89	170.74	37.44	-47.4	-49.2	16.2	0.00e+00	0	57	0	996147200	56	4746
2026-01-04 00:07:06.88	170.94	37.22	-47.9	-49.9	15.5	0.00e+00	0	56	0	998244352	57	4819
2026-01-04 00:07:07.87	171.13	37.01	-48.4	-50.6	14.8	0.00e+00	0	57	0	1000341504	58	4948
2026-01-04 00:07:08.86	171.31	36.80	-48.6	-51.0	14.4	0.00e+00	0	57	0	1001390080	59	4905
2026-01-04 00:07:09.85	171.50	36.59	-48.4	-50.8	14.6	7.00e-07	0	57	0	1003487232	59	4785
2026-01-04 00:07:10.85	171.68	36.37	-48.2	-50.2	15.2	0.00e+00	0	57	0	1005584384	59	4491
2026-01-04 00:07:11.84	171.86	36.16	-48.0	-50.0	15.4	0.00e+00	0	57	0	1007681536	59	4376
2026-01-04 00:07:12.82	172.04	35.96	-47.8	-49.7	15.7	0.00e+00	0	57	0	1008730112	58	4473
2026-01-04 00:07:13.80	172.21	35.75	-48.1	-50.1	15.3	0.00e+00	0	57	0	1010827264	58	4664
2026-01-04 00:07:14.80	172.39	35.54	-48.0	-49.9	15.5	7.00e-07	0	57	0	1012924416	58	4582
2026-01-04 00:07:15.79	172.56	35.34	-47.7	-49.5	15.8	0.00e+00	0	57	0	1015021568	58	4391
2026-01-04 00:07:16.78	172.73	35.13	-47.7	-49.6	15.8	0.00e+00	0	57	0	1016070144	58	4409
2026-01-04 00:07:17.77	172.90	34.93	-48.2	-50.2	15.2	0.00e+00	0	57	0	1018167296	58	4734
2026-01-04 00:07:18.76	173.06	34.73	-48.3	-50.4	15.0	0.00e+00	0	57	0	1020264448	58	4856
2026-01-04 00:07:19.75	173.22	34.53	-48.4	-50.6	14.8	0.00e+00	0	57	0	1022361600	58	4963
2026-01-04 00:07:20.73	173.38	34.33	-48.4	-50.7	14.8	7.00e-07	0	57	0	1024458752	58	4987
2026-01-04 00:07:21.73	173.54	34.13	-48.1	-50.1	15.2	0.00e+00	0	57	0	1025507328	58	4705
2026-01-04 00:07:22.72	173.70	33.93	-47.8	-49.7	15.6	0.00e+00	0	56	0	1027604480	58	4486
2026-01-04 00:07:23.70	173.86	33.74	-47.7	-49.6	15.8	0.00e+00	0	57	0	1029701632	58	4436
2026-01-04 00:07:24.69	174.01	33.54	-47.6	-49.5	16.0	0.00e+00	0	57	0	1031798784	58	4344
2026-01-04 00:07:25.68	174.16	33.35	-47.8	-49.7	15.8	0.00e+00	0	57	0	1032847360	58	4446
2026-01-04 00:07:26.67	174.31	33.15	-47.9	-49.8	15.6	0.00e+00	0	57	0	1034944512	58	4508
2026-01-04 00:07:27.66	174.46	32.96	-48.0	-49.9	15.5	0.00e+00	0	57	0	1037041664	58	4581
2026-01-04 00:07:28.65	174.61	32.77	-48.1	-50.1	15.3	0.00e+00	0	57	0	1039138816	58	4705
2026-01-04 00:07:29.64	174.75	32.58	-48.3	-50.5	14.9	0.00e+00	0	57	0	1040187392	58	4891
2026-01-04 00:07:30.62	174.90	32.39	-48.5	-50.8	14.6	7.00e-07	0	57	0	1042284544	58	5071
2026-01-04 00:07:31.62	175.04	32.20	-48.7	-51.0	14.4	0.00e+00	0	57	0	1044381696	59	4893
2026-01-04 00:07:32.61	175.18	32.01	-48.8	-51.3	14.1	5.30e-06	0	57	0	1046478848	59	5051
2026-01-04 00:07:33.59	175.32	31.83	-49.0	-51.5	13.9	1.50e-06	0	57	0	1048576000	59	5178
2026-01-04 00:07:34.58	175.45	31.64	-49.0	-51.6	13.8	4.50e-06	0	57	0	1049624576	60	4927
2026-01-04 00:07:35.57	175.59	31.46	-49.2	-51.9	13.5	3.00e-06	0	57	0	1051721728	60	5140
2026-01-04 00:07:36.56	175.72	31.27	-49.3	-52.0	13.3	1.83e-05	0	57	0	1053818880	60	5212
2026-01-04 00:07:37.55	175.86	31.09	-49.3	-52.2	13.2	1.67e-05	0	57	0	1055916032	60	5295
2026-01-04 00:07:38.54	175.99	30.91	-49.4	-52.3	13.0	3.96e-05	0	57	0	1056964608	60	5369
2026-01-04 00:07:39.53	176.12	30.73	-49.2	-52.2	13.2	1.60e-05	0	57	0	1059061760	60	5287
2026-01-04 00:07:40.51	176.25	30.55	-49.3	-52.2	13.1	3.81e-05	0	57	0	1061158912	60	5327
2026-01-04 00:07:41.50	176.37	30.37	-49.2	-52.1	13.3	3.66e-05	0	57	0	1063256064	60	5220
2026-01-04 00:07:42.49	176.50	30.19	-49.2	-52.0	13.3	1.60e-05	0	57	0	1064304640	60	5190
2026-01-04 00:07:43.48	176.62	30.02	-49.1	-51.7	13.6	1.60e-05	0	57	0	1066401792	60	5030
2026-01-04 00:07:44.46	176.75	29.84	-48.9	-51.4	13.9	5.30e-06	0	57	0	1068498944	60	4863
2026-01-04 00:07:45.46	176.87	29.67	-48.7	-51.3	14.1	1.50e-06	0	57	0	1070596096	60	4767
2026-01-04 00:07:46.45	176.99	29.49	-48.7	-51.3	14.1	1.50e-06	0	57	0	1071644672	60	4786
2026-01-04 00:07:47.44	177.11	29.32	-48.8	-51.3	14.1	3.00e-06	0	57	0	1073741824	60	4776
2026-01-04 00:07:48.43	177.23	29.15	-48.6	-51.0	14.4	7.00e-07	0	57	0	1075838976	60	4613
2026-01-04 00:07:49.42	177.35	28.97	-48.6	-50.9	14.5	7.00e-07	0	57	0	1077936128	60	4555
2026-01-04 00:07:50.40	177.46	28.81	-48.5	-50.8	14.5	7.00e-07	0	57	0	1080033280	60	4528
2026-01-04 00:07:51.40	177.58	28.64	-48.6	-50.9	14.4	1.50e-06	0	57	0	1081081856	60	4568
2026-01-04 00:07:52.39	177.69	28.47	-48.6	-51.0	14.3	7.00e-07	0	57	0	1083179008	60	4639
2026-01-04 00:07:53.37	177.80	28.30	-48.6	-50.9	14.4	1.50e-06	0	57	0	1085276160	60	4582
2026-01-04 00:07:54.37	177.91	28.13	-48.4	-50.8	14.6	0.00e+00	0	57	0	1087373312	60	4504
2026-01-04 00:07:55.37	178.03	27.96	-48.5	-50.9	14.5	7.00e-07	0	57	0	1088421888	60	4546
2026-01-04 00:07:56.35	178.13	27.80	-48.6	-51.0	14.3	0.00e+00	0	57	0	1090519040	60	4600
2026-01-04 00:07:57.34	178.24	27.64	-48.6	-50.9	14.4	7.00e-07	0	57	0	1092616192	60	4586
2026-01-04 00:07:58.32	178.35	27.48	-48.6	-51.0	14.4	0.00e+00	0	57	0	1094713344	60	4605
2026-01-04 00:07:59.31	178.45	27.31	-48.5	-50.9	14.4	7.00e-07	0	57	0	1095761920	60	4581
2026-01-04 00:08:00.31	178.56	27.15	-48.3	-50.5	14.9	0.00e+00	0	57	0	1097859072	59	4618
2026-01-04 00:08:01.29	178.66	26.99	-48.1	-50.2	15.2	0.00e+00	0	57	0	1099956224	59	4447
2026-01-04 00:08:02.27	178.76	26.83	-47.9	-49.9	15.5	0.00e+00	0	57	0	1102053376	59	4312
2026-01-04 00:08:03.26	178.87	26.67	-47.8	-49.8	15.6	0.00e+00	0	57	0	1104150528	58	4515
2026-01-04 00:08:04.25	178.97	26.52	-47.8	-49.7	15.6	0.00e+00	0	57	0	1105199104	58	4482
2026-01-04 00:08:05.24	179.07	26.36	-47.5	-49.2	16.1	0.00e+00	0	57	0	1107296256	58	4223
2026-01-04 00:08:06.23	179.17	26.20	-47.3	-49.0	16.3	0.00e+00	0	57	0	1109393408	57	4368
2026-01-04 00:08:07.22	179.26	26.05	-47.3	-49.1	16.3	0.00e+00	0	57	0	1111490560	57	4395
2026-01-04 00:08:08.22	179.36	25.89	-47.4	-49.2	16.2	0.00e+00	0	57	0	1112539136	57	4450
2026-01-04 00:08:09.21	179.46	25.74	-47.4	-49.1	16.3	0.00e+00	0	57	0	1114636288	57	4415
2026-01-04 00:08:10.19	179.55	25.58	-47.5	-49.3	16.0	0.00e+00	0	57	0	1116733440	57	4532
2026-01-04 00:08:11.18	179.65	25.43	-47.6	-49.5	15.8	0.00e+00	0	57	0	1118830592	57	4620
2026-01-04 00:08:12.16	179.74	25.28	-47.8	-49.8	15.4	0.00e+00	0	57	0	1119879168	57	4814
2026-01-04 00:08:13.15	179.83	25.13	-47.8	-49.8	15.5	0.00e+00	0	57	0	1121976320	57	4769
2026-01-04 00:08:14.14	179.93	24.98	-48.0	-50.1	15.2	0.00e+00	0	57	0	1124073472	57	4978
2026-01-04 00:08:15.13	180.02	24.83	-48.0	-50.1	15.2	0.00e+00	0	57	0	1126170624	57	4955
2026-01-04 00:08:16.12	180.11	24.68	-48.0	-50.1	15.2	0.00e+00	0	57	0	1128267776	57	4973
2026-01-04 00:08:17.11	180.20	24.53	-48.1	-50.2	15.2	0.00e+00	0	57	0	1129316352	58	4721
2026-01-04 00:08:18.10	180.29	24.39	-47.8	-49.8	15.6	0.00e+00	0	57	0	1131413504	58	4502
2026-01-04 00:08:19.08	180.37	24.24	-47.6	-49.5	15.8	0.00e+00	0	57	0	1133510656	58	4352
2026-01-04 00:08:20.07	180.46	24.10	-47.4	-49.2	16.2	0.00e+00	0	57	0	1135607808	57	4444
2026-01-04 00:08:21.06	180.55	23.95	-47.3	-49.0	16.3	0.00e+00	0	57	0	1136656384	57	4363
2026-01-04 00:08:22.05	180.63	23.81	-47.3	-49.0	16.3	0.00e+00	0	57	0	1138753536	57	4372
2026-01-04 00:08:23.05	180.72	23.66	-47.0	-48.6	16.7	0.00e+00	0	57	0	1140850688	57	4164
2026-01-04 00:08:24.04	180.80	23.52	-47.0	-48.6	16.7	0.00e+00	0	57	0	1142947840	57	4179
2026-01-04 00:08:25.03	180.89	23.38	-47.2	-48.8	16.5	0.00e+00	0	57	0	1145044992	57	4281
2026-01-04 00:08:26.02	180.97	23.24	-46.8	-48.4	16.9	0.00e+00	0	57	0	1146093568	56	4299
2026-01-04 00:08:27.01	181.05	23.10	-46.5	-48.0	17.3	0.00e+00	0	57	0	1148190720	56	4106
2026-01-04 00:08:27.99	181.13	22.96	-46.2	-47.6	17.5	0.00e+00	0	57	0	1150287872	55	4180
2026-01-04 00:08:28.98	181.21	22.82	-46.1	-47.5	17.7	0.00e+00	0	57	0	1152385024	55	4123
2026-01-04 00:08:29.96	181.29	22.68	-46.1	-47.5	17.7	0.00e+00	0	57	0	1153433600	55	4114
2026-01-04 00:08:30.95	181.37	22.55	-46.1	-47.5	17.7	0.00e+00	0	57	0	1155530752	55	4111
2026-01-04 00:08:31.93	181.45	22.41	-46.2	-47.6	17.6	0.00e+00	0	57	0	1157627904	55	4181
2026-01-04 00:08:32.92	181.53	22.27	-46.4	-47.9	17.3	0.00e+00	0	57	0	1159725056	55	4299
2026-01-04 00:08:33.90	181.60	22.14	-46.4	-47.9	17.3	0.00e+00	0	57	0	1160773632	55	4307
2026-01-04 00:08:34.89	181.68	22.01	-46.6	-48.1	17.0	0.00e+00	0	57	0	1162870784	55	4404
2026-01-04 00:08:35.87	181.75	21.87	-46.6	-48.1	17.1	0.00e+00	0	57	0	1164967936	55	4414
2026-01-04 00:08:36.86	181.83	21.74	-46.8	-48.4	16.8	0.00e+00	0	57	0	1167065088	55	4549
2026-01-04 00:08:37.85	181.91	21.61	-46.8	-48.5	16.7	0.00e+00	0	57	0	1168113664	55	4602
2026-01-04 00:08:38.85	181.98	21.47	-46.9	-48.6	16.6	0.00e+00	0	57	0	1170210816	55	4669
2026-01-04 00:08:39.84	182.05	21.34	-47.1	-48.8	16.4	0.00e+00	0	57	0	1172307968	55	4791
2026-01-04 00:08:40.83	182.13	21.21	-47.1	-48.8	16.5	0.00e+00	0	57	0	1174405120	56	4510
2026-01-04 00:08:41.82	182.20	21.08	-47.2	-48.9	16.4	0.00e+00	0	57	0	1175453696	56	4563
2026-01-04 00:08:42.80	182.27	20.95	-47.1	-48.7	16.6	0.00e+00	0	57	0	1177550848	56	4474
2026-01-04 00:08:43.79	182.34	20.82	-47.2	-48.9	16.4	0.00e+00	0	57	0	1179648000	56	4549
2026-01-04 00:08:44.79	182.41	20.69	-47.0	-48.6	16.6	0.00e+00	0	57	0	1181745152	56	4437
2026-01-04 00:08:45.78	182.48	20.56	-46.8	-48.3	16.9	0.00e+00	0	57	0	1183842304	56	4288
2026-01-04 00:08:46.77	182.55	20.44	-46.6	-48.1	17.1	0.00e+00	0	57	0	1184890880	56	4193
2026-01-04 00:08:47.75	182.62	20.31	-46.6	-48.1	17.1	0.00e+00	0	57	0	1186988032	56	4181
2026-01-04 00:08:48.74	182.69	20.19	-46.6	-48.1	17.2	0.00e+00	0	57	0	1189085184	56	4155
2026-01-04 00:08:49.74	182.76	20.06	-46.8	-48.4	16.9	0.00e+00	0	57	0	1191182336	56	4295
2026-01-04 00:08:50.72	182.83	19.93	-46.9	-48.5	16.8	0.00e+00	0	57	0	1192230912	56	4350
2026-01-04 00:08:51.72	182.89	19.81	-47.0	-48.6	16.6	0.00e+00	0	57	0	1194328064	56	4432
2026-01-04 00:08:52.70	182.96	19.69	-46.9	-48.5	16.7	0.00e+00	0	57	0	1196425216	56	4388
2026-01-04 00:08:53.70	183.03	19.56	-46.9	-48.5	16.7	0.00e+00	0	57	0	1198522368	56	4367
2026-01-04 00:08:54.69	183.09	19.44	-47.1	-48.8	16.4	0.00e+00	0	57	0	1200619520	56	4536
2026-01-04 00:08:55.68	183.16	19.32	-47.1	-48.9	16.3	0.00e+00	0	57	0	1201668096	56	4554
2026-01-04 00:08:56.67	183.22	19.20	-47.2	-49.0	16.3	0.00e+00	0	57	0	1203765248	56	4604
2026-01-04 00:08:57.66	183.29	19.08	-47.5	-49.4	15.8	0.00e+00	0	57	0	1205862400	56	4840
2026-01-04 00:08:58.64	183.35	18.96	-47.6	-49.4	15.8	0.00e+00	0	57	0	1207959552	57	4575
2026-01-04 00:08:59.62	183.41	18.84	-47.2	-49.0	16.2	0.00e+00	0	57	0	1209008128	57	4385
2026-01-04 00:09:00.61	183.48	18.72	-47.1	-48.8	16.4	0.00e+00	0	57	0	1211105280	57	4282
2026-01-04 00:09:01.60	183.54	18.60	-47.0	-48.7	16.5	0.00e+00	0	57	0	1213202432	57	4203
2026-01-04 00:09:02.59	183.60	18.48	-47.2	-48.9	16.3	0.00e+00	0	57	0	1215299584	57	4303
2026-01-04 00:09:03.57	183.66	18.37	-47.4	-49.2	16.0	0.00e+00	0	57	0	1216348160	57	4479
2026-01-04 00:09:04.57	183.72	18.25	-47.4	-49.2	16.0	0.00e+00	0	57	0	1218445312	57	4484
2026-01-04 00:09:05.56	183.78	18.13	-47.2	-49.0	16.2	0.00e+00	0	57	0	1220542464	57	4365
2026-01-04 00:09:06.55	183.84	18.01	-47.3	-49.1	16.1	0.00e+00	0	57	0	1222639616	57	4404
2026-01-04 00:09:07.54	183.90	17.90	-47.3	-49.1	16.1	0.00e+00	0	57	0	1224736768	57	4428
2026-01-04 00:09:08.52	183.96	17.78	-47.2	-49.0	16.2	0.00e+00	0	57	0	1225785344	57	4348
2026-01-04 00:09:09.51	184.02	17.67	-47.3	-49.0	16.2	0.00e+00	0	57	0	1227882496	57	4386
2026-01-04 00:09:10.50	184.08	17.56	-47.3	-49.0	16.2	0.00e+00	0	57	0	1229979648	57	4367
2026-01-04 00:09:11.49	184.14	17.44	-47.3	-49.1	16.1	0.00e+00	0	57	0	1232076800	57	4406
2026-01-04 00:09:12.47	184.19	17.33	-47.3	-49.1	16.1	0.00e+00	0	57	0	1233125376	57	4400
2026-01-04 00:09:13.46	184.25	17.22	-47.2	-49.0	16.2	0.00e+00	0	57	0	1235222528	57	4362
2026-01-04 00:09:14.44	184.31	17.11	-47.2	-49.0	16.2	0.00e+00	0	57	0	1237319680	57	4349
2026-01-04 00:09:15.43	184.36	17.00	-47.3	-49.2	16.0	0.00e+00	0	57	0	1239416832	57	4455
2026-01-04 00:09:16.42	184.42	16.88	-47.4	-49.2	16.0	0.00e+00	0	57	0	1240465408	57	4483
2026-01-04 00:09:17.41	184.47	16.77	-47.4	-49.2	16.0	0.00e+00	0	57	0	1242562560	57	4455
2026-01-04 00:09:18.40	184.53	16.66	-47.5	-49.4	15.8	0.00e+00	0	57	0	1244659712	57	4571
2026-01-04 00:09:19.39	184.58	16.55	-47.6	-49.5	15.7	0.00e+00	0	57	0	1246756864	57	4647
2026-01-04 00:09:20.38	184.64	16.45	-47.6	-49.6	15.6	0.00e+00	0	57	0	1247805440	57	4653
2026-01-04 00:09:21.37	184.69	16.34	-47.7	-49.7	15.5	0.00e+00	0	57	0	1249902592	57	4733
2026-01-04 00:09:22.37	184.75	16.23	-47.7	-49.6	15.5	0.00e+00	0	57	0	1251999744	57	4696
2026-01-04 00:09:23.36	184.80	16.12	-47.7	-49.7	15.4	0.00e+00	0	57	0	1254096896	57	4754
2026-01-04 00:09:24.35	184.85	16.01	-47.6	-49.6	15.6	0.00e+00	0	57	0	1256194048	57	4664
2026-01-04 00:09:25.35	184.91	15.90	-47.6	-49.6	15.6	0.00e+00	0	57	0	1257242624	57	4668
2026-01-04 00:09:26.33	184.96	15.80	-47.7	-49.7	15.4	0.00e+00	0	57	0	1259339776	57	4729
2026-01-04 00:09:27.32	185.01	15.69	-47.7	-49.6	15.6	0.00e+00	0	57	0	1261436928	57	4680
2026-01-04 00:09:28.31	185.06	15.59	-47.7	-49.6	15.5	0.00e+00	0	57	0	1263534080	57	4704
2026-01-04 00:09:29.29	185.11	15.48	-47.8	-49.8	15.4	0.00e+00	0	57	0	1264582656	57	4771
