passes_logs/2026/01/03/R3.0SM8_Murmansk_STILSPACE/R3.0SM8_Murmansk_STILSPACE__20260103_063451_SUOMI_NPP_rec.log

#Pass ID: 20260103_063451_SUOMI NPP
#Satellite: SUOMI NPP
#Configuration: NPP
#almurnet v.1.7.20240730
#Start time: 2026-01-03 06:34:50

#Version: 2.2.20231116
#Station: R3.0SM8_Murmansk_STILSPACE
#Location: 33.092731 lon 68.902999 lat
#TLE: 1 37849U 11061A   26001.07732418  .00000182  00000+0  10735-3 0  9990
#TLE: 2 37849  98.7795 303.2470 0002580  87.2016 272.9455 14.19520779734739

#Time	Az	El	Level	Level2	SNR	BER	BlckErr	Temp	State	Recorded	gain1	gain2
2026-01-03 06:34:50.99	84.27	2.99	-53.0	-66.9	3.8	1.49e+00	0	45	0	0	68	18259
2026-01-03 06:34:51.99	84.21	3.05	-52.9	-66.8	3.8	1.49e+00	0	45	104	0	68	17982
2026-01-03 06:34:52.99	84.15	3.11	-52.9	-66.8	3.8	1.49e+00	0	46	104	0	68	17931
2026-01-03 06:34:53.98	84.09	3.17	-52.8	-66.7	3.8	1.49e+00	0	46	104	0	68	17825
2026-01-03 06:34:54.97	84.03	3.22	-52.8	-66.6	3.8	1.49e+00	0	46	104	0	68	17642
2026-01-03 06:34:55.96	83.97	3.28	-52.6	-66.5	3.8	1.49e+00	0	46	104	0	68	17464
2026-01-03 06:34:56.95	83.91	3.34	-52.5	-66.4	3.8	1.49e+00	0	46	104	0	68	17142
2026-01-03 06:34:57.93	83.85	3.40	-52.3	-66.0	3.8	1.49e+00	0	46	104	0	67	17373
2026-01-03 06:34:58.93	83.78	3.46	-52.0	-65.9	3.8	1.49e+00	0	46	104	0	67	17109
2026-01-03 06:34:59.92	83.72	3.52	-52.1	-65.9	3.8	1.49e+00	0	46	104	0	67	17137
2026-01-03 06:35:00.91	83.66	3.59	-52.0	-65.9	3.8	1.49e+00	0	46	104	0	67	17273
2026-01-03 06:35:01.90	83.60	3.65	-52.0	-66.0	3.8	1.49e+00	0	46	104	0	66	18335
2026-01-03 06:35:02.90	83.53	3.71	-52.0	-66.0	3.8	1.49e+00	0	46	104	0	66	18322
2026-01-03 06:35:03.89	83.47	3.77	-52.1	-65.9	3.8	1.49e+00	0	47	104	0	66	18303
2026-01-03 06:35:04.88	83.40	3.83	-52.1	-65.9	3.8	1.49e+00	0	46	104	0	66	18265
2026-01-03 06:35:05.87	83.34	3.89	-52.1	-65.8	3.8	1.49e+00	0	46	104	0	66	17991
2026-01-03 06:35:06.85	83.28	3.95	-52.1	-65.6	3.8	1.49e+00	0	47	104	0	66	17566
2026-01-03 06:35:07.85	83.21	4.01	-52.1	-65.3	3.8	1.49e+00	0	47	104	0	66	16958
2026-01-03 06:35:08.84	83.15	4.07	-52.1	-64.8	3.8	1.49e+00	0	47	104	0	66	16095
2026-01-03 06:35:09.82	83.08	4.13	-51.9	-64.3	3.8	1.49e+00	0	47	104	0	66	15158
2026-01-03 06:35:10.80	83.02	4.19	-52.0	-63.4	4.0	1.49e+00	0	47	104	0	66	13692
2026-01-03 06:35:11.79	82.95	4.25	-51.9	-62.9	4.1	1.46e+00	0	47	0	0	66	12954
2026-01-03 06:35:12.77	82.89	4.31	-51.8	-61.7	4.4	1.37e+00	0	47	0	0	66	11203
2026-01-03 06:35:13.76	82.82	4.38	-51.7	-60.8	4.8	8.77e-01	0	47	0	2097152	66	10068
2026-01-03 06:35:14.74	82.76	4.44	-51.6	-59.9	5.2	7.27e-01	0	47	0	3145728	66	9171
2026-01-03 06:35:15.72	82.69	4.50	-51.4	-58.9	5.9	4.04e-01	0	47	0	5242880	65	8652
2026-01-03 06:35:16.71	82.62	4.56	-51.3	-58.3	6.5	3.19e-01	0	47	0	7340032	65	8003
2026-01-03 06:35:17.70	82.56	4.62	-51.0	-57.6	7.0	1.80e-01	0	47	0	9437184	65	7416
2026-01-03 06:35:18.70	82.49	4.69	-51.0	-57.0	7.6	1.15e-01	0	48	0	11534336	64	7352
2026-01-03 06:35:19.69	82.42	4.75	-50.9	-56.8	7.8	7.76e-02	0	48	0	12582912	64	7163
2026-01-03 06:35:20.68	82.35	4.81	-50.7	-56.1	8.5	5.66e-02	0	48	0	14680064	64	6592
2026-01-03 06:35:21.66	82.28	4.87	-50.6	-56.0	8.7	3.47e-02	0	48	0	16777216	64	6496
2026-01-03 06:35:22.65	82.21	4.93	-50.6	-55.9	8.7	4.17e-02	0	48	0	18874368	64	6471
2026-01-03 06:35:23.65	82.14	5.00	-50.6	-55.7	8.9	2.83e-02	0	48	0	19922944	64	6320
2026-01-03 06:35:24.64	82.07	5.06	-50.5	-55.5	9.1	2.50e-02	0	48	0	22020096	64	6183
2026-01-03 06:35:25.64	82.00	5.12	-50.6	-55.7	8.9	2.86e-02	0	48	0	24117248	64	6305
2026-01-03 06:35:26.63	81.93	5.19	-50.6	-55.5	9.2	1.93e-02	0	48	0	26214400	63	6540
2026-01-03 06:35:27.63	81.86	5.25	-50.6	-55.7	9.0	2.19e-02	0	48	0	28311552	63	6718
2026-01-03 06:35:28.62	81.79	5.31	-50.6	-55.6	9.2	2.37e-02	0	48	0	29360128	63	6576
2026-01-03 06:35:29.60	81.72	5.38	-50.7	-55.9	8.9	2.55e-02	0	48	0	31457280	63	6803
2026-01-03 06:35:30.58	81.65	5.44	-50.7	-56.2	8.6	2.92e-02	0	48	0	33554432	63	7066
2026-01-03 06:35:31.57	81.58	5.50	-50.7	-56.1	8.6	4.42e-02	0	48	0	35651584	63	7040
2026-01-03 06:35:32.56	81.51	5.57	-50.7	-55.8	9.0	3.09e-02	0	48	0	36700160	63	6757
2026-01-03 06:35:33.55	81.43	5.63	-50.7	-55.7	9.1	2.78e-02	0	48	0	38797312	63	6697
2026-01-03 06:35:34.54	81.36	5.69	-50.4	-55.1	9.7	1.31e-02	0	49	0	40894464	63	6211
2026-01-03 06:35:35.53	81.29	5.76	-50.2	-54.9	9.9	9.90e-03	0	48	0	42991616	63	6110
2026-01-03 06:35:36.52	81.22	5.82	-50.0	-54.2	10.5	4.99e-03	0	49	0	44040192	63	5645
2026-01-03 06:35:37.50	81.14	5.89	-49.8	-53.6	11.1	2.22e-03	0	49	0	46137344	62	5580
2026-01-03 06:35:38.50	81.07	5.95	-49.9	-53.9	10.9	1.56e-03	0	49	0	48234496	62	5758
2026-01-03 06:35:39.48	80.99	6.01	-49.8	-53.7	11.1	1.83e-03	0	49	0	50331648	62	5624
2026-01-03 06:35:40.46	80.92	6.08	-49.8	-53.6	11.2	1.25e-03	0	49	0	51380224	62	5572
2026-01-03 06:35:41.45	80.85	6.14	-49.9	-53.8	11.0	1.91e-03	0	49	0	53477376	62	5708
2026-01-03 06:35:42.44	80.77	6.21	-49.6	-53.4	11.5	1.24e-03	0	49	0	55574528	62	5435
2026-01-03 06:35:43.43	80.69	6.27	-49.5	-53.0	11.9	5.16e-04	0	49	0	57671680	62	5200
2026-01-03 06:35:44.42	80.62	6.34	-49.5	-52.9	12.0	4.05e-04	0	49	0	59768832	62	5144
2026-01-03 06:35:45.40	80.54	6.40	-49.5	-52.9	12.0	3.25e-04	0	49	0	60817408	61	5462
2026-01-03 06:35:46.39	80.47	6.47	-49.6	-53.1	11.8	3.90e-04	0	49	0	62914560	61	5562
2026-01-03 06:35:47.39	80.39	6.53	-49.4	-52.8	12.2	2.28e-04	0	49	0	65011712	61	5342
2026-01-03 06:35:48.38	80.31	6.60	-49.5	-53.0	11.9	3.02e-04	0	49	0	67108864	61	5490
2026-01-03 06:35:49.37	80.23	6.66	-49.4	-52.9	12.1	4.13e-04	0	49	0	68157440	61	5407
2026-01-03 06:35:50.36	80.15	6.73	-49.3	-52.5	12.4	2.46e-04	0	49	0	70254592	61	5208
2026-01-03 06:35:51.35	80.07	6.80	-49.2	-52.4	12.6	8.77e-05	0	49	0	72351744	61	5125
2026-01-03 06:35:52.33	80.00	6.86	-49.2	-52.5	12.5	1.28e-04	0	49	0	74448896	61	5175
2026-01-03 06:35:53.33	79.92	6.93	-49.2	-52.5	12.5	1.20e-04	0	49	0	75497472	61	5199
2026-01-03 06:35:54.31	79.84	6.99	-49.3	-52.7	12.3	1.19e-04	0	49	0	77594624	61	5307
2026-01-03 06:35:55.30	79.76	7.06	-49.3	-52.9	12.2	2.27e-04	0	50	0	79691776	61	5408
2026-01-03 06:35:56.29	79.68	7.12	-49.4	-52.8	12.2	1.61e-04	0	50	0	81788928	61	5396
2026-01-03 06:35:57.27	79.60	7.19	-49.5	-53.0	12.1	2.60e-04	0	50	0	83886080	61	5477
2026-01-03 06:35:58.26	79.51	7.26	-49.4	-52.7	12.3	1.52e-04	0	50	0	84934656	61	5338
2026-01-03 06:35:59.24	79.43	7.32	-49.4	-52.8	12.2	1.58e-04	0	50	0	87031808	61	5371
2026-01-03 06:36:00.22	79.35	7.39	-49.5	-52.9	12.1	2.43e-04	0	50	0	89128960	61	5425
2026-01-03 06:36:01.21	79.27	7.46	-49.3	-52.5	12.5	1.70e-04	0	50	0	91226112	61	5213
2026-01-03 06:36:02.20	79.19	7.52	-49.4	-52.7	12.3	1.58e-04	0	50	0	92274688	61	5288
2026-01-03 06:36:03.18	79.11	7.59	-49.2	-52.7	12.3	2.14e-04	0	50	0	94371840	61	5310
2026-01-03 06:36:04.17	79.02	7.66	-49.3	-52.7	12.3	1.62e-04	0	50	0	96468992	61	5331
2026-01-03 06:36:05.15	78.94	7.72	-49.3	-52.7	12.4	1.85e-04	0	50	0	98566144	61	5287
2026-01-03 06:36:06.15	78.85	7.79	-49.5	-53.0	12.1	2.46e-04	0	50	0	99614720	61	5469
2026-01-03 06:36:07.14	78.77	7.86	-49.5	-53.0	12.1	2.31e-04	0	50	0	101711872	61	5483
2026-01-03 06:36:08.13	78.68	7.93	-49.7	-53.2	11.8	2.78e-04	0	50	0	103809024	61	5647
2026-01-03 06:36:09.12	78.60	8.00	-49.5	-53.1	12.0	3.29e-04	0	50	0	105906176	61	5564
2026-01-03 06:36:10.10	78.51	8.06	-49.8	-53.5	11.6	6.11e-04	0	50	0	108003328	61	5836
2026-01-03 06:36:11.10	78.42	8.13	-49.6	-53.1	12.0	5.47e-04	0	50	0	109051904	61	5549
2026-01-03 06:36:12.09	78.34	8.20	-49.6	-53.0	12.1	3.04e-04	0	50	0	111149056	61	5493
2026-01-03 06:36:13.07	78.25	8.27	-49.6	-53.1	12.0	2.85e-04	0	50	0	113246208	61	5553
2026-01-03 06:36:14.07	78.16	8.34	-49.6	-53.1	12.0	3.62e-04	0	50	0	115343360	61	5535
2026-01-03 06:36:15.06	78.07	8.41	-49.6	-53.1	11.9	3.28e-04	0	51	0	116391936	61	5591
2026-01-03 06:36:16.05	77.99	8.47	-50.0	-53.9	11.2	6.25e-04	0	50	0	118489088	61	6080
2026-01-03 06:36:17.05	77.90	8.54	-49.8	-53.5	11.6	9.37e-04	0	51	0	120586240	61	5847
2026-01-03 06:36:18.04	77.81	8.61	-50.0	-53.8	11.3	1.04e-03	0	50	0	122683392	61	6028
2026-01-03 06:36:19.02	77.72	8.68	-50.0	-54.1	11.0	1.81e-03	0	51	0	123731968	62	5859
2026-01-03 06:36:20.01	77.63	8.75	-49.9	-53.7	11.4	1.32e-03	0	51	0	125829120	62	5641
2026-01-03 06:36:21.00	77.54	8.82	-49.7	-53.3	11.8	7.93e-04	0	51	0	127926272	62	5386
2026-01-03 06:36:21.99	77.44	8.89	-49.8	-53.6	11.5	7.76e-04	0	51	0	130023424	62	5585
2026-01-03 06:36:22.97	77.35	8.96	-49.9	-53.9	11.2	9.25e-04	0	51	0	131072000	62	5763
2026-01-03 06:36:23.96	77.26	9.03	-50.0	-53.8	11.4	1.15e-03	0	51	0	133169152	62	5688
2026-01-03 06:36:24.95	77.17	9.10	-49.8	-53.5	11.7	6.12e-04	0	51	0	135266304	62	5474
2026-01-03 06:36:25.93	77.08	9.17	-49.8	-53.4	11.8	4.21e-04	0	51	0	137363456	62	5438
2026-01-03 06:36:26.92	76.98	9.24	-50.0	-53.7	11.4	5.19e-04	0	51	0	139460608	62	5642
2026-01-03 06:36:27.91	76.89	9.31	-49.8	-53.4	11.8	6.46e-04	0	51	0	140509184	62	5455
2026-01-03 06:36:28.90	76.79	9.38	-50.1	-54.1	11.0	1.34e-03	0	51	0	142606336	62	5918
2026-01-03 06:36:29.88	76.70	9.45	-50.1	-54.0	11.2	1.77e-03	0	51	0	144703488	62	5789
2026-01-03 06:36:30.87	76.60	9.52	-49.8	-53.6	11.6	8.99e-04	0	51	0	146800640	62	5541
2026-01-03 06:36:31.85	76.51	9.59	-49.7	-53.3	11.9	5.00e-04	0	51	0	147849216	62	5352
2026-01-03 06:36:32.84	76.41	9.66	-49.5	-52.8	12.4	1.99e-04	0	51	0	149946368	62	5093
2026-01-03 06:36:33.83	76.32	9.73	-49.2	-52.5	12.7	8.62e-05	0	51	0	152043520	61	5191
2026-01-03 06:36:34.81	76.22	9.80	-49.3	-52.6	12.6	7.09e-05	0	51	0	154140672	61	5233
2026-01-03 06:36:35.80	76.12	9.87	-49.2	-52.3	12.9	5.64e-05	0	51	0	155189248	61	5072
2026-01-03 06:36:36.78	76.02	9.94	-49.2	-52.3	12.9	3.73e-05	0	51	0	157286400	61	5081
2026-01-03 06:36:37.77	75.93	10.01	-49.1	-52.3	12.9	3.73e-05	0	52	0	159383552	61	5068
2026-01-03 06:36:38.77	75.83	10.08	-49.2	-52.2	13.0	3.58e-05	0	51	0	161480704	61	5014
2026-01-03 06:36:39.76	75.73	10.16	-49.2	-52.3	12.9	4.65e-05	0	52	0	163577856	61	5068
2026-01-03 06:36:40.75	75.63	10.23	-49.3	-52.5	12.8	5.87e-05	0	52	0	164626432	61	5207
2026-01-03 06:36:41.74	75.52	10.30	-49.2	-52.4	12.8	5.87e-05	0	52	0	166723584	61	5130
2026-01-03 06:36:42.74	75.42	10.37	-49.4	-52.5	12.7	5.79e-05	0	52	0	168820736	61	5206
2026-01-03 06:36:43.73	75.32	10.44	-49.3	-52.4	12.9	4.65e-05	0	52	0	170917888	61	5121
2026-01-03 06:36:44.71	75.22	10.52	-49.5	-52.7	12.5	6.56e-05	0	52	0	171966464	61	5302
2026-01-03 06:36:45.70	75.12	10.59	-49.3	-52.5	12.8	1.05e-04	0	52	0	174063616	61	5170
2026-01-03 06:36:46.69	75.01	10.66	-49.1	-52.1	13.2	5.18e-05	0	52	0	176160768	61	4948
2026-01-03 06:36:47.69	74.91	10.73	-49.1	-52.0	13.2	3.05e-05	0	52	0	178257920	61	4891
2026-01-03 06:36:48.69	74.80	10.81	-49.2	-52.1	13.2	2.82e-05	0	52	0	179306496	61	4966
2026-01-03 06:36:49.68	74.70	10.88	-49.2	-52.2	13.1	3.66e-05	0	52	0	181403648	61	5018
2026-01-03 06:36:50.67	74.59	10.95	-49.4	-52.6	12.7	3.66e-05	0	52	0	183500800	61	5225
2026-01-03 06:36:51.66	74.49	11.03	-49.4	-52.5	12.8	7.55e-05	0	52	0	185597952	61	5197
2026-01-03 06:36:52.65	74.38	11.10	-49.5	-52.7	12.6	8.01e-05	0	52	0	187695104	61	5296
2026-01-03 06:36:53.64	74.27	11.17	-49.4	-52.5	12.7	4.19e-05	0	52	0	188743680	61	5193
2026-01-03 06:36:54.63	74.16	11.25	-49.4	-52.5	12.8	5.87e-05	0	52	0	190840832	61	5172
2026-01-03 06:36:55.61	74.06	11.32	-49.3	-52.4	12.8	4.65e-05	0	52	0	192937984	61	5137
2026-01-03 06:36:56.60	73.95	11.39	-49.5	-52.7	12.6	8.01e-05	0	52	0	195035136	61	5292
2026-01-03 06:36:57.58	73.84	11.47	-49.5	-52.6	12.7	9.61e-05	0	52	0	196083712	61	5251
2026-01-03 06:36:58.56	73.73	11.54	-49.3	-52.4	12.9	4.42e-05	0	52	0	198180864	61	5138
2026-01-03 06:36:59.55	73.62	11.61	-49.2	-52.2	13.1	4.34e-05	0	52	0	200278016	61	5017
2026-01-03 06:37:00.54	73.51	11.69	-49.2	-52.0	13.3	3.12e-05	0	52	0	202375168	61	4921
2026-01-03 06:37:01.54	73.40	11.76	-49.2	-52.1	13.2	2.28e-05	0	52	0	203423744	61	4955
2026-01-03 06:37:02.53	73.28	11.84	-49.3	-52.2	13.2	1.90e-05	0	52	0	205520896	61	5011
2026-01-03 06:37:03.51	73.17	11.91	-49.3	-52.2	13.1	5.79e-05	0	52	0	207618048	61	5022
2026-01-03 06:37:04.51	73.06	11.99	-49.0	-51.7	13.6	1.67e-05	0	52	0	209715200	61	4757
2026-01-03 06:37:05.49	72.94	12.06	-48.9	-51.6	13.8	9.90e-06	0	52	0	210763776	60	4941
2026-01-03 06:37:06.48	72.83	12.13	-48.9	-51.6	13.8	5.30e-06	0	52	0	212860928	60	4931
2026-01-03 06:37:07.47	72.71	12.21	-48.9	-51.6	13.8	4.50e-06	0	52	0	214958080	60	4953
2026-01-03 06:37:08.46	72.60	12.28	-49.0	-51.7	13.6	5.30e-06	0	53	0	217055232	60	5024
2026-01-03 06:37:09.45	72.48	12.36	-49.1	-52.0	13.4	9.10e-06	0	52	0	219152384	60	5195
2026-01-03 06:37:10.44	72.36	12.43	-49.1	-52.0	13.4	1.52e-05	0	52	0	220200960	60	5192
2026-01-03 06:37:11.42	72.25	12.51	-49.3	-52.2	13.2	8.30e-06	0	52	0	222298112	60	5318
2026-01-03 06:37:12.41	72.13	12.58	-49.2	-52.2	13.1	3.35e-05	0	52	0	224395264	60	5319
2026-01-03 06:37:13.40	72.01	12.66	-49.2	-52.3	13.0	3.20e-05	0	52	0	226492416	60	5374
2026-01-03 06:37:14.40	71.89	12.74	-49.5	-52.5	12.8	5.11e-05	0	52	0	227540992	60	5515
2026-01-03 06:37:15.38	71.77	12.81	-49.6	-52.9	12.5	1.22e-04	0	53	0	229638144	61	5414
2026-01-03 06:37:16.37	71.65	12.89	-49.6	-53.0	12.4	1.35e-04	0	52	0	231735296	61	5496
2026-01-03 06:37:17.36	71.53	12.96	-49.6	-53.0	12.4	1.11e-04	0	52	0	233832448	61	5475
2026-01-03 06:37:18.34	71.41	13.04	-49.6	-53.0	12.4	1.92e-04	0	53	0	235929600	61	5481
2026-01-03 06:37:19.33	71.28	13.12	-49.6	-52.8	12.5	9.84e-05	0	53	0	236978176	61	5385
2026-01-03 06:37:20.31	71.16	13.19	-49.6	-52.9	12.5	9.76e-05	0	53	0	239075328	61	5404
2026-01-03 06:37:21.31	71.04	13.27	-49.6	-52.8	12.6	1.14e-04	0	53	0	241172480	61	5366
2026-01-03 06:37:22.29	70.91	13.34	-49.3	-52.3	13.0	5.41e-05	0	53	0	243269632	61	5096
2026-01-03 06:37:23.29	70.79	13.42	-49.1	-51.9	13.5	1.98e-05	0	53	0	244318208	61	4862
2026-01-03 06:37:24.27	70.66	13.50	-49.0	-51.8	13.6	6.80e-06	0	53	0	246415360	61	4777
2026-01-03 06:37:25.25	70.54	13.57	-48.9	-51.6	13.8	3.00e-06	0	53	0	248512512	60	4960
2026-01-03 06:37:26.23	70.41	13.65	-48.9	-51.5	13.8	3.80e-06	0	53	0	250609664	60	4912
2026-01-03 06:37:27.22	70.28	13.73	-48.9	-51.6	13.8	3.00e-06	0	53	0	251658240	60	4938
2026-01-03 06:37:28.21	70.15	13.80	-48.8	-51.4	14.0	7.00e-07	0	53	0	253755392	60	4831
2026-01-03 06:37:29.19	70.03	13.88	-48.8	-51.3	14.1	2.20e-06	0	53	0	255852544	60	4793
2026-01-03 06:37:30.18	69.90	13.96	-48.8	-51.4	14.0	3.80e-06	0	53	0	257949696	60	4847
2026-01-03 06:37:31.17	69.76	14.04	-49.0	-51.7	13.7	6.80e-06	0	53	0	258998272	60	5012
2026-01-03 06:37:32.17	69.63	14.11	-48.8	-51.4	14.0	1.06e-05	0	53	0	261095424	60	4847
2026-01-03 06:37:33.17	69.50	14.19	-48.5	-50.8	14.6	1.50e-06	0	53	0	263192576	59	4809
2026-01-03 06:37:34.15	69.37	14.27	-48.6	-50.9	14.5	2.20e-06	0	53	0	265289728	59	4849
2026-01-03 06:37:35.13	69.23	14.35	-48.7	-51.2	14.3	7.00e-07	0	53	0	267386880	59	4995
2026-01-03 06:37:36.11	69.10	14.42	-48.5	-50.9	14.5	0.00e+00	0	53	0	268435456	59	4833
2026-01-03 06:37:37.10	68.97	14.50	-48.7	-51.1	14.3	0.00e+00	0	53	0	270532608	59	4948
2026-01-03 06:37:38.09	68.83	14.58	-48.6	-51.0	14.4	7.00e-07	0	53	0	272629760	59	4906
2026-01-03 06:37:39.07	68.70	14.66	-48.6	-51.1	14.4	7.00e-07	0	53	0	274726912	59	4928
2026-01-03 06:37:40.06	68.56	14.74	-48.8	-51.4	14.1	1.50e-06	0	53	0	275775488	59	5108
2026-01-03 06:37:41.05	68.42	14.81	-48.6	-51.1	14.4	7.00e-07	0	53	0	277872640	59	4934
2026-01-03 06:37:42.04	68.28	14.89	-48.9	-51.5	14.0	1.50e-06	0	53	0	279969792	59	5161
2026-01-03 06:37:43.03	68.14	14.97	-49.1	-51.9	13.6	3.80e-06	0	53	0	282066944	60	5101
2026-01-03 06:37:44.01	68.00	15.05	-48.8	-51.3	14.1	4.50e-06	0	53	0	283115520	60	4789
2026-01-03 06:37:45.00	67.86	15.13	-48.6	-51.1	14.3	1.50e-06	0	53	0	285212672	60	4686
2026-01-03 06:37:46.00	67.72	15.21	-48.5	-51.0	14.5	0.00e+00	0	53	0	287309824	60	4620
2026-01-03 06:37:46.98	67.58	15.29	-48.4	-50.7	14.8	7.00e-07	0	53	0	289406976	59	4748
2026-01-03 06:37:47.97	67.43	15.36	-48.5	-50.9	14.6	1.50e-06	0	53	0	290455552	59	4866
2026-01-03 06:37:48.96	67.29	15.44	-48.5	-50.8	14.7	2.20e-06	0	53	0	292552704	59	4804
2026-01-03 06:37:49.94	67.15	15.52	-48.4	-50.7	14.8	7.00e-07	0	53	0	294649856	59	4717
2026-01-03 06:37:50.93	67.00	15.60	-48.3	-50.5	15.0	0.00e+00	0	53	0	296747008	59	4604
2026-01-03 06:37:51.91	66.86	15.68	-48.2	-50.3	15.1	0.00e+00	0	53	0	298844160	59	4521
2026-01-03 06:37:52.91	66.71	15.76	-48.4	-50.7	14.8	0.00e+00	0	53	0	299892736	59	4719
2026-01-03 06:37:53.89	66.56	15.84	-48.3	-50.5	15.0	0.00e+00	0	53	0	301989888	59	4625
2026-01-03 06:37:54.88	66.41	15.92	-48.1	-50.3	15.1	0.00e+00	0	53	0	304087040	59	4526
2026-01-03 06:37:55.86	66.26	16.00	-48.3	-50.5	14.9	0.00e+00	0	53	0	306184192	59	4649
2026-01-03 06:37:56.86	66.11	16.08	-48.3	-50.5	15.1	0.00e+00	0	53	0	307232768	59	4626
2026-01-03 06:37:57.84	65.96	16.15	-48.4	-50.7	14.8	0.00e+00	0	53	0	309329920	59	4753
2026-01-03 06:37:58.83	65.81	16.23	-48.5	-50.8	14.7	0.00e+00	0	54	0	311427072	59	4786
2026-01-03 06:37:59.82	65.66	16.31	-48.5	-50.8	14.7	7.00e-07	0	54	0	313524224	59	4801
2026-01-03 06:38:00.80	65.51	16.39	-48.6	-51.2	14.3	7.00e-07	0	53	0	314572800	59	5013
2026-01-03 06:38:01.78	65.35	16.47	-48.6	-51.0	14.4	1.50e-06	0	53	0	316669952	59	4923
2026-01-03 06:38:02.77	65.20	16.55	-48.5	-51.0	14.5	0.00e+00	0	54	0	318767104	59	4919
2026-01-03 06:38:03.76	65.04	16.63	-48.9	-51.5	14.0	7.00e-07	0	53	0	320864256	59	5163
2026-01-03 06:38:04.75	64.88	16.71	-48.9	-51.4	14.0	2.20e-06	0	54	0	322961408	59	5157
2026-01-03 06:38:05.74	64.73	16.79	-49.0	-51.8	13.7	2.20e-06	0	54	0	324009984	59	5368
2026-01-03 06:38:06.73	64.57	16.87	-49.0	-51.7	13.8	5.30e-06	0	54	0	326107136	59	5320
2026-01-03 06:38:07.71	64.41	16.95	-48.9	-51.6	13.9	3.00e-06	0	54	0	328204288	59	5260
2026-01-03 06:38:08.69	64.25	17.03	-49.1	-52.0	13.5	9.10e-06	0	54	0	330301440	60	5173
2026-01-03 06:38:09.67	64.09	17.11	-49.1	-52.0	13.5	1.29e-05	0	54	0	331350016	60	5184
2026-01-03 06:38:10.66	63.93	17.19	-49.1	-52.2	13.3	1.44e-05	0	54	0	333447168	60	5296
2026-01-03 06:38:11.65	63.77	17.27	-49.4	-52.5	13.0	3.96e-05	0	54	0	335544320	60	5507
2026-01-03 06:38:12.63	63.60	17.35	-49.4	-52.6	12.9	4.95e-05	0	54	0	337641472	60	5558
2026-01-03 06:38:13.63	63.44	17.43	-49.3	-52.6	13.0	7.47e-05	0	54	0	338690048	61	5222
2026-01-03 06:38:14.62	63.27	17.51	-49.2	-52.1	13.4	2.13e-05	0	54	0	340787200	61	4963
2026-01-03 06:38:15.61	63.11	17.59	-49.2	-52.1	13.3	1.90e-05	0	54	0	342884352	61	4979
2026-01-03 06:38:16.59	62.94	17.67	-49.1	-51.9	13.6	1.98e-05	0	54	0	344981504	61	4855
2026-01-03 06:38:17.59	62.77	17.75	-49.0	-51.7	13.8	5.30e-06	0	54	0	346030080	61	4733
2026-01-03 06:38:18.57	62.60	17.83	-49.0	-51.7	13.8	3.00e-06	0	54	0	348127232	60	4988
2026-01-03 06:38:19.56	62.43	17.91	-48.9	-51.5	14.0	7.00e-07	0	54	0	350224384	60	4900
2026-01-03 06:38:20.56	62.26	17.99	-48.9	-51.6	13.9	1.50e-06	0	54	0	352321536	60	4935
2026-01-03 06:38:21.55	62.09	18.07	-48.8	-51.5	14.0	2.20e-06	0	54	0	354418688	60	4893
2026-01-03 06:38:22.54	61.91	18.15	-48.9	-51.5	14.0	2.20e-06	0	54	0	355467264	60	4906
2026-01-03 06:38:23.54	61.74	18.23	-48.8	-51.4	14.1	2.20e-06	0	54	0	357564416	60	4863
2026-01-03 06:38:24.53	61.56	18.31	-48.6	-51.1	14.4	7.00e-07	0	54	0	359661568	60	4662
2026-01-03 06:38:25.51	61.39	18.39	-48.6	-51.1	14.4	7.00e-07	0	54	0	361758720	60	4670
2026-01-03 06:38:26.50	61.21	18.47	-48.6	-51.1	14.5	0.00e+00	0	54	0	362807296	59	4939
2026-01-03 06:38:27.48	61.04	18.55	-48.6	-51.0	14.5	0.00e+00	0	54	0	364904448	59	4903
2026-01-03 06:38:28.47	60.86	18.63	-48.5	-50.9	14.6	7.00e-07	0	54	0	367001600	59	4860
2026-01-03 06:38:29.45	60.68	18.71	-48.3	-50.6	14.9	0.00e+00	0	54	0	369098752	59	4675
2026-01-03 06:38:30.44	60.50	18.79	-48.5	-50.8	14.7	7.00e-07	0	54	0	370147328	59	4798
2026-01-03 06:38:31.43	60.32	18.87	-48.6	-51.0	14.6	0.00e+00	0	54	0	372244480	59	4914
2026-01-03 06:38:32.41	60.14	18.95	-48.5	-50.9	14.6	7.00e-07	0	54	0	374341632	59	4862
2026-01-03 06:38:33.41	59.95	19.03	-48.8	-51.3	14.2	7.00e-07	0	54	0	376438784	59	5084
2026-01-03 06:38:34.39	59.77	19.11	-48.7	-51.1	14.4	7.00e-07	0	54	0	377487360	59	4975
2026-01-03 06:38:35.39	59.58	19.19	-48.8	-51.4	14.2	7.00e-07	0	54	0	379584512	59	5115
2026-01-03 06:38:36.38	59.40	19.27	-48.8	-51.4	14.2	2.20e-06	0	54	0	381681664	59	5112
2026-01-03 06:38:37.38	59.21	19.35	-48.9	-51.4	14.1	2.20e-06	0	54	0	383778816	59	5124
2026-01-03 06:38:38.37	59.02	19.43	-48.7	-51.2	14.4	0.00e+00	0	54	0	385875968	59	5008
2026-01-03 06:38:39.36	58.83	19.51	-48.7	-51.2	14.4	0.00e+00	0	54	0	386924544	59	4998
2026-01-03 06:38:40.34	58.64	19.59	-48.7	-51.1	14.4	7.00e-07	0	54	0	389021696	59	4937
2026-01-03 06:38:41.33	58.45	19.67	-48.4	-50.6	15.0	0.00e+00	0	54	0	391118848	59	4660
2026-01-03 06:38:42.32	58.26	19.74	-48.4	-50.6	15.0	0.00e+00	0	54	0	393216000	59	4657
2026-01-03 06:38:43.30	58.07	19.82	-48.2	-50.3	15.2	0.00e+00	0	54	0	394264576	59	4541
2026-01-03 06:38:44.29	57.87	19.90	-48.4	-50.6	15.0	0.00e+00	0	54	0	396361728	59	4688
2026-01-03 06:38:45.27	57.68	19.98	-48.6	-51.0	14.5	7.00e-07	0	54	0	398458880	59	4915
2026-01-03 06:38:46.26	57.48	20.06	-48.6	-51.0	14.6	0.00e+00	0	54	0	400556032	59	4887
2026-01-03 06:38:47.25	57.28	20.14	-48.7	-51.1	14.4	7.00e-07	0	54	0	402653184	59	4964
2026-01-03 06:38:48.25	57.08	20.22	-48.9	-51.3	14.3	7.00e-07	0	54	0	403701760	59	5090
2026-01-03 06:38:49.24	56.88	20.30	-48.9	-51.3	14.3	1.50e-06	0	54	0	405798912	59	5099
2026-01-03 06:38:50.23	56.68	20.37	-49.1	-51.7	14.0	7.00e-07	0	54	0	407896064	59	5328
2026-01-03 06:38:51.22	56.48	20.45	-48.9	-51.5	14.1	3.00e-06	0	54	0	409993216	60	4921
2026-01-03 06:38:52.21	56.28	20.53	-49.0	-51.8	13.8	2.20e-06	0	54	0	411041792	60	5045
2026-01-03 06:38:53.20	56.08	20.61	-48.7	-51.1	14.4	3.00e-06	0	54	0	413138944	60	4684
2026-01-03 06:38:54.19	55.87	20.69	-48.5	-50.9	14.7	0.00e+00	0	54	0	415236096	60	4570
2026-01-03 06:38:55.17	55.67	20.76	-48.3	-50.5	15.1	0.00e+00	0	54	0	417333248	59	4638
2026-01-03 06:38:56.17	55.46	20.84	-48.3	-50.4	15.2	0.00e+00	0	54	0	418381824	59	4563
2026-01-03 06:38:57.16	55.25	20.92	-48.3	-50.5	15.1	0.00e+00	0	55	0	420478976	59	4600
2026-01-03 06:38:58.15	55.04	21.00	-47.9	-49.8	15.6	0.00e+00	0	54	0	422576128	59	4259
2026-01-03 06:38:59.14	54.83	21.07	-48.1	-50.2	15.4	0.00e+00	0	54	0	424673280	58	4713
2026-01-03 06:39:00.13	54.62	21.15	-48.3	-50.4	15.1	0.00e+00	0	54	0	426770432	58	4843
2026-01-03 06:39:01.11	54.41	21.23	-47.9	-50.0	15.5	0.00e+00	0	54	0	427819008	58	4639
2026-01-03 06:39:02.10	54.20	21.30	-47.9	-49.9	15.6	0.00e+00	0	55	0	429916160	58	4595
2026-01-03 06:39:03.08	53.99	21.38	-48.2	-50.4	15.2	0.00e+00	0	54	0	432013312	58	4837
2026-01-03 06:39:04.07	53.77	21.45	-48.0	-50.1	15.4	0.00e+00	0	54	0	434110464	58	4692
2026-01-03 06:39:05.06	53.56	21.53	-47.8	-49.9	15.7	0.00e+00	0	55	0	435159040	58	4560
2026-01-03 06:39:06.05	53.34	21.60	-47.7	-49.7	15.9	0.00e+00	0	54	0	437256192	58	4491
2026-01-03 06:39:07.04	53.12	21.68	-47.8	-49.7	15.9	0.00e+00	0	54	0	439353344	58	4457
2026-01-03 06:39:08.02	52.90	21.75	-47.6	-49.4	16.1	0.00e+00	0	54	0	441450496	58	4338
2026-01-03 06:39:09.00	52.68	21.83	-47.5	-49.4	16.1	0.00e+00	0	55	0	442499072	58	4333
2026-01-03 06:39:09.99	52.46	21.90	-47.4	-49.2	16.3	0.00e+00	0	55	0	444596224	57	4491
2026-01-03 06:39:10.99	52.24	21.98	-47.4	-49.1	16.4	0.00e+00	0	55	0	446693376	57	4410
2026-01-03 06:39:11.98	52.01	22.05	-47.6	-49.5	16.0	0.00e+00	0	55	0	448790528	57	4620
2026-01-03 06:39:12.97	51.79	22.13	-47.2	-49.0	16.5	0.00e+00	0	54	0	449839104	57	4354
2026-01-03 06:39:13.97	51.56	22.20	-47.3	-49.1	16.4	0.00e+00	0	55	0	451936256	57	4411
2026-01-03 06:39:14.96	51.33	22.27	-47.6	-49.4	16.1	0.00e+00	0	55	0	454033408	57	4595
2026-01-03 06:39:15.95	51.11	22.35	-47.6	-49.5	16.1	0.00e+00	0	54	0	456130560	57	4604
2026-01-03 06:39:16.94	50.88	22.42	-47.9	-49.8	15.7	0.00e+00	0	55	0	458227712	57	4786
2026-01-03 06:39:17.93	50.65	22.49	-47.8	-49.7	15.9	0.00e+00	0	55	0	459276288	57	4713
2026-01-03 06:39:18.92	50.41	22.57	-47.7	-49.6	16.0	0.00e+00	0	55	0	461373440	57	4657
2026-01-03 06:39:19.90	50.18	22.64	-47.6	-49.5	16.1	0.00e+00	0	55	0	463470592	57	4605
2026-01-03 06:39:20.89	49.95	22.71	-47.5	-49.3	16.2	0.00e+00	0	55	0	465567744	57	4538
2026-01-03 06:39:21.87	49.72	22.78	-47.0	-48.7	16.8	0.00e+00	0	55	0	466616320	57	4220
2026-01-03 06:39:22.86	49.48	22.85	-46.8	-48.4	17.1	0.00e+00	0	55	0	468713472	56	4295
2026-01-03 06:39:23.85	49.25	22.92	-46.7	-48.3	17.2	0.00e+00	0	55	0	470810624	56	4252
2026-01-03 06:39:24.84	49.01	22.99	-46.8	-48.3	17.1	0.00e+00	0	55	0	472907776	56	4268
2026-01-03 06:39:25.83	48.77	23.06	-46.9	-48.5	17.0	0.00e+00	0	55	0	473956352	56	4380
2026-01-03 06:39:26.83	48.53	23.13	-47.0	-48.6	16.9	0.00e+00	0	55	0	476053504	56	4405
2026-01-03 06:39:27.82	48.29	23.20	-47.1	-48.8	16.7	0.00e+00	0	55	0	478150656	56	4526
2026-01-03 06:39:28.80	48.05	23.27	-47.0	-48.6	16.9	0.00e+00	0	55	0	480247808	56	4437
2026-01-03 06:39:29.78	47.81	23.34	-46.9	-48.5	17.0	0.00e+00	0	55	0	482344960	56	4373
2026-01-03 06:39:30.76	47.56	23.40	-47.1	-48.7	16.9	0.00e+00	0	55	0	483393536	56	4466
2026-01-03 06:39:31.75	47.32	23.47	-47.0	-48.7	16.9	0.00e+00	0	55	0	485490688	56	4455
2026-01-03 06:39:32.74	47.07	23.54	-47.0	-48.7	16.9	0.00e+00	0	55	0	487587840	56	4442
2026-01-03 06:39:33.73	46.82	23.61	-46.9	-48.4	17.1	0.00e+00	0	55	0	489684992	56	4329
2026-01-03 06:39:34.72	46.58	23.67	-47.0	-48.6	17.0	0.00e+00	0	55	0	490733568	56	4411
2026-01-03 06:39:35.70	46.33	23.74	-47.0	-48.6	16.9	0.00e+00	0	55	0	492830720	56	4429
2026-01-03 06:39:36.69	46.08	23.80	-47.4	-49.1	16.4	0.00e+00	0	55	0	494927872	56	4700
2026-01-03 06:39:37.69	45.82	23.87	-47.6	-49.5	16.1	0.00e+00	0	55	0	497025024	57	4607
2026-01-03 06:39:38.67	45.57	23.93	-47.7	-49.6	15.9	0.00e+00	0	55	0	498073600	57	4702
2026-01-03 06:39:39.66	45.32	24.00	-47.5	-49.5	16.2	0.00e+00	0	55	0	500170752	57	4600
2026-01-03 06:39:40.64	45.07	24.06	-47.5	-49.4	16.2	0.00e+00	0	55	0	502267904	57	4585
2026-01-03 06:39:41.64	44.81	24.13	-47.8	-49.7	15.9	0.00e+00	0	55	0	504365056	57	4716
2026-01-03 06:39:42.64	44.55	24.19	-47.9	-50.0	15.7	0.00e+00	0	55	0	505413632	57	4878
2026-01-03 06:39:43.63	44.29	24.25	-48.0	-50.1	15.5	0.00e+00	0	55	0	507510784	58	4704
2026-01-03 06:39:44.63	44.03	24.32	-48.0	-50.1	15.5	0.00e+00	0	55	0	509607936	58	4692
2026-01-03 06:39:45.62	43.77	24.38	-48.0	-50.0	15.6	0.00e+00	0	55	0	511705088	58	4608
2026-01-03 06:39:46.60	43.51	24.44	-47.9	-49.9	15.7	0.00e+00	0	55	0	513802240	58	4564
2026-01-03 06:39:47.59	43.25	24.50	-48.1	-50.0	15.6	0.00e+00	0	55	0	514850816	58	4642
2026-01-03 06:39:48.59	42.98	24.56	-48.1	-50.2	15.5	0.00e+00	0	55	0	516947968	58	4712
2026-01-03 06:39:49.58	42.72	24.62	-48.0	-50.0	15.7	0.00e+00	0	55	0	519045120	58	4608
2026-01-03 06:39:50.57	42.45	24.68	-48.2	-50.2	15.4	0.00e+00	0	55	0	521142272	58	4737
2026-01-03 06:39:51.56	42.19	24.74	-48.2	-50.2	15.5	0.00e+00	0	55	0	523239424	58	4712
2026-01-03 06:39:52.55	41.92	24.79	-48.1	-50.0	15.7	0.00e+00	0	55	0	524288000	58	4626
2026-01-03 06:39:53.55	41.65	24.85	-47.8	-49.7	16.0	0.00e+00	0	55	0	526385152	58	4462
2026-01-03 06:39:54.54	41.38	24.91	-47.8	-49.6	16.0	0.00e+00	0	55	0	528482304	58	4417
2026-01-03 06:39:55.52	41.11	24.96	-47.7	-49.6	16.1	0.00e+00	0	55	0	530579456	58	4392
2026-01-03 06:39:56.51	40.84	25.02	-47.6	-49.3	16.3	0.00e+00	0	55	0	531628032	58	4261
2026-01-03 06:39:57.51	40.57	25.08	-47.6	-49.3	16.2	0.00e+00	0	55	0	533725184	57	4535
2026-01-03 06:39:58.50	40.29	25.13	-47.5	-49.2	16.4	0.00e+00	0	55	0	535822336	57	4469
2026-01-03 06:39:59.49	40.02	25.18	-47.2	-48.9	16.8	0.00e+00	0	55	0	537919488	57	4295
2026-01-03 06:40:00.48	39.75	25.24	-47.2	-48.8	16.8	0.00e+00	0	55	0	538968064	57	4258
2026-01-03 06:40:01.46	39.47	25.29	-47.2	-48.8	16.8	0.00e+00	0	55	0	541065216	57	4262
2026-01-03 06:40:02.45	39.20	25.34	-47.0	-48.6	17.0	0.00e+00	0	55	0	543162368	57	4157
2026-01-03 06:40:03.44	38.92	25.39	-47.2	-48.9	16.7	0.00e+00	0	55	0	545259520	57	4308
2026-01-03 06:40:04.43	38.64	25.44	-47.4	-49.1	16.5	0.00e+00	0	55	0	546308096	57	4425
2026-01-03 06:40:05.42	38.36	25.49	-47.5	-49.2	16.4	0.00e+00	0	55	0	548405248	57	4467
2026-01-03 06:40:06.41	38.08	25.54	-47.6	-49.4	16.2	0.00e+00	0	55	0	550502400	57	4587
2026-01-03 06:40:07.40	37.80	25.59	-47.7	-49.5	16.0	0.00e+00	0	55	0	552599552	57	4645
2026-01-03 06:40:08.39	37.52	25.64	-47.4	-49.2	16.4	0.00e+00	0	55	0	554696704	57	4467
2026-01-03 06:40:09.39	37.23	25.69	-47.5	-49.2	16.4	0.00e+00	0	55	0	555745280	57	4464
2026-01-03 06:40:10.36	36.95	25.73	-47.7	-49.6	16.0	0.00e+00	0	55	0	557842432	57	4661
2026-01-03 06:40:11.36	36.67	25.78	-47.6	-49.4	16.3	0.00e+00	0	55	0	559939584	57	4564
2026-01-03 06:40:12.35	36.38	25.82	-47.8	-49.7	15.9	0.00e+00	0	55	0	562036736	57	4737
2026-01-03 06:40:13.34	36.09	25.87	-47.9	-49.8	15.8	0.00e+00	0	55	0	563085312	57	4797
2026-01-03 06:40:14.32	35.81	25.91	-48.3	-50.4	15.2	0.00e+00	0	55	0	565182464	58	4862
2026-01-03 06:40:15.31	35.52	25.96	-48.4	-50.5	15.1	0.00e+00	0	55	0	567279616	58	4919
2026-01-03 06:40:16.29	35.24	26.00	-48.5	-50.7	14.9	0.00e+00	0	55	0	569376768	58	5037
2026-01-03 06:40:17.28	34.95	26.04	-48.3	-50.5	15.1	0.00e+00	0	55	0	570425344	58	4900
2026-01-03 06:40:18.27	34.66	26.08	-48.3	-50.5	15.2	0.00e+00	0	55	0	572522496	58	4902
2026-01-03 06:40:19.26	34.37	26.12	-48.8	-51.2	14.5	1.50e-06	0	55	0	574619648	59	4997
2026-01-03 06:40:20.25	34.07	26.16	-48.9	-51.4	14.2	0.00e+00	0	55	0	576716800	59	5131
2026-01-03 06:40:21.24	33.78	26.20	-48.9	-51.4	14.2	7.00e-07	0	55	0	578813952	59	5152
2026-01-03 06:40:22.22	33.49	26.24	-48.9	-51.3	14.4	0.00e+00	0	55	0	579862528	59	5051
2026-01-03 06:40:23.22	33.20	26.27	-48.5	-50.8	14.8	0.00e+00	0	55	0	581959680	59	4762
2026-01-03 06:40:24.21	32.90	26.31	-48.1	-50.1	15.5	0.00e+00	0	55	0	584056832	59	4411
2026-01-03 06:40:25.20	32.61	26.34	-48.1	-50.0	15.6	0.00e+00	0	55	0	586153984	59	4364
2026-01-03 06:40:26.19	32.31	26.38	-48.2	-50.3	15.3	0.00e+00	0	55	0	587202560	58	4798
2026-01-03 06:40:27.17	32.02	26.41	-48.2	-50.3	15.3	0.00e+00	0	55	0	589299712	58	4797
2026-01-03 06:40:28.15	31.72	26.45	-48.5	-50.7	15.0	0.00e+00	0	55	0	591396864	58	4986
2026-01-03 06:40:29.14	31.43	26.48	-48.8	-51.2	14.5	0.00e+00	0	55	0	593494016	59	4996
2026-01-03 06:40:30.12	31.13	26.51	-48.8	-51.2	14.4	0.00e+00	0	55	0	594542592	59	5037
2026-01-03 06:40:31.11	30.83	26.54	-48.9	-51.4	14.3	7.00e-07	0	55	0	596639744	59	5105
2026-01-03 06:40:32.10	30.53	26.57	-48.9	-51.4	14.2	0.00e+00	0	55	0	598736896	59	5133
2026-01-03 06:40:33.09	30.23	26.60	-48.8	-51.3	14.4	0.00e+00	0	55	0	600834048	59	5048
2026-01-03 06:40:34.09	29.93	26.63	-48.8	-51.3	14.4	7.00e-07	0	55	0	601882624	59	5058
2026-01-03 06:40:35.08	29.63	26.66	-48.6	-50.9	14.7	0.00e+00	0	55	0	603979776	59	4842
2026-01-03 06:40:36.07	29.33	26.68	-48.5	-50.7	14.9	0.00e+00	0	55	0	606076928	59	4749
2026-01-03 06:40:37.06	29.02	26.71	-48.5	-50.8	14.9	0.00e+00	0	55	0	608174080	59	4766
2026-01-03 06:40:38.04	28.72	26.73	-48.7	-51.0	14.6	0.00e+00	0	55	0	610271232	59	4879
2026-01-03 06:40:39.04	28.42	26.76	-48.8	-51.2	14.4	0.00e+00	0	55	0	611319808	59	5032
2026-01-03 06:40:40.03	28.12	26.78	-49.1	-51.7	13.9	3.00e-06	0	55	0	613416960	60	5029
2026-01-03 06:40:41.01	27.81	26.80	-49.0	-51.6	14.0	1.50e-06	0	55	0	615514112	60	4982
2026-01-03 06:40:42.00	27.51	26.82	-48.8	-51.3	14.4	1.50e-06	0	55	0	617611264	60	4763
2026-01-03 06:40:42.99	27.21	26.84	-48.6	-50.9	14.7	7.00e-07	0	55	0	618659840	60	4592
2026-01-03 06:40:43.98	26.90	26.86	-48.6	-51.1	14.5	0.00e+00	0	55	0	620756992	60	4658
2026-01-03 06:40:44.97	26.60	26.88	-48.3	-50.6	15.0	0.00e+00	0	55	0	622854144	59	4655
2026-01-03 06:40:45.96	26.29	26.90	-48.8	-51.2	14.4	7.00e-07	0	55	0	624951296	59	5024
2026-01-03 06:40:46.95	25.98	26.92	-48.7	-51.0	14.5	7.00e-07	0	55	0	627048448	59	4925
2026-01-03 06:40:47.94	25.68	26.93	-48.4	-50.7	15.0	0.00e+00	0	55	0	628097024	59	4714
2026-01-03 06:40:48.92	25.37	26.95	-48.3	-50.6	15.1	0.00e+00	0	55	0	630194176	59	4655
2026-01-03 06:40:49.91	25.07	26.96	-48.6	-50.9	14.7	0.00e+00	0	55	0	632291328	59	4859
2026-01-03 06:40:50.90	24.76	26.97	-48.7	-51.1	14.5	0.00e+00	0	55	0	634388480	59	4964
2026-01-03 06:40:51.89	24.45	26.99	-49.2	-52.0	13.6	7.60e-06	0	55	0	635437056	60	5196
2026-01-03 06:40:52.88	24.14	27.00	-49.1	-51.9	13.7	6.10e-06	0	55	0	637534208	60	5147
2026-01-03 06:40:53.86	23.84	27.01	-49.0	-51.7	13.9	6.80e-06	0	55	0	639631360	60	4989
2026-01-03 06:40:54.85	23.53	27.02	-48.8	-51.4	14.3	3.80e-06	0	55	0	641728512	60	4815
2026-01-03 06:40:55.84	23.22	27.03	-48.7	-51.2	14.4	7.00e-07	0	55	0	642777088	60	4735
2026-01-03 06:40:56.83	22.91	27.04	-48.4	-50.6	15.0	0.00e+00	0	55	0	644874240	59	4675
2026-01-03 06:40:57.82	22.61	27.04	-48.4	-50.6	15.1	0.00e+00	0	55	0	646971392	59	4675
2026-01-03 06:40:58.80	22.30	27.05	-48.3	-50.3	15.3	0.00e+00	0	55	0	649068544	59	4540
2026-01-03 06:40:59.80	21.99	27.05	-48.2	-50.2	15.4	0.00e+00	0	55	0	651165696	59	4465
2026-01-03 06:41:00.78	21.68	27.06	-48.1	-50.2	15.4	0.00e+00	0	55	0	652214272	59	4462
2026-01-03 06:41:01.76	21.38	27.06	-48.4	-50.5	15.1	0.00e+00	0	55	0	654311424	59	4646
2026-01-03 06:41:02.76	21.06	27.06	-48.4	-50.7	15.0	7.00e-07	0	55	0	656408576	59	4712
2026-01-03 06:41:03.75	20.76	27.06	-48.6	-50.9	14.7	0.00e+00	0	55	0	658505728	59	4848
2026-01-03 06:41:04.73	20.45	27.07	-48.8	-51.2	14.5	0.00e+00	0	55	0	659554304	59	5007
2026-01-03 06:41:05.72	20.14	27.06	-48.9	-51.5	14.1	0.00e+00	0	56	0	661651456	59	5184
2026-01-03 06:41:06.71	19.83	27.06	-48.8	-51.4	14.2	8.30e-06	0	55	0	663748608	60	4815
2026-01-03 06:41:07.70	19.52	27.06	-48.8	-51.2	14.3	0.00e+00	0	55	0	665845760	60	4748
2026-01-03 06:41:08.69	19.21	27.06	-48.6	-51.1	14.5	0.00e+00	0	56	0	666894336	60	4672
2026-01-03 06:41:09.67	18.91	27.05	-48.7	-51.1	14.5	0.00e+00	0	55	0	668991488	60	4666
2026-01-03 06:41:10.66	18.60	27.05	-48.4	-50.6	15.0	7.00e-07	0	56	0	671088640	59	4673
2026-01-03 06:41:11.65	18.29	27.04	-48.2	-50.2	15.3	7.00e-07	0	55	0	673185792	59	4486
2026-01-03 06:41:12.64	17.98	27.04	-48.2	-50.3	15.2	0.00e+00	0	56	0	674234368	59	4545
2026-01-03 06:41:13.63	17.67	27.03	-48.4	-50.5	15.0	0.00e+00	0	55	0	676331520	59	4638
2026-01-03 06:41:14.62	17.36	27.02	-48.5	-50.8	14.7	0.00e+00	0	56	0	678428672	59	4781
2026-01-03 06:41:15.61	17.06	27.01	-48.3	-50.5	15.0	0.00e+00	0	55	0	680525824	59	4608
2026-01-03 06:41:16.60	16.75	27.00	-48.1	-50.3	15.1	0.00e+00	0	55	0	682622976	59	4505
2026-01-03 06:41:17.59	16.44	26.99	-48.0	-50.0	15.3	0.00e+00	0	56	0	683671552	58	4637
2026-01-03 06:41:18.59	16.13	26.98	-47.9	-50.0	15.3	0.00e+00	0	56	0	685768704	58	4606
2026-01-03 06:41:19.57	15.83	26.96	-47.9	-50.1	15.0	0.00e+00	0	55	0	687865856	58	4690
2026-01-03 06:41:20.56	15.52	26.95	-48.0	-50.3	14.8	0.00e+00	0	56	0	689963008	58	4774
2026-01-03 06:41:21.56	15.21	26.93	-47.7	-49.9	15.2	0.00e+00	0	56	0	691011584	58	4546
2026-01-03 06:41:22.55	14.90	26.92	-47.6	-49.7	15.3	0.00e+00	0	55	0	693108736	58	4452
2026-01-03 06:41:23.54	14.60	26.90	-47.3	-49.2	15.8	0.00e+00	0	55	0	695205888	57	4445
2026-01-03 06:41:24.53	14.29	26.88	-47.3	-49.2	15.7	0.00e+00	0	56	0	697303040	57	4449
2026-01-03 06:41:25.52	13.99	26.86	-47.4	-49.3	15.5	0.00e+00	0	55	0	698351616	57	4543
2026-01-03 06:41:26.51	13.68	26.84	-48.0	-50.4	14.4	0.00e+00	0	56	0	700448768	57	5111
2026-01-03 06:41:27.50	13.38	26.82	-48.4	-51.1	13.5	3.80e-06	0	55	0	702545920	58	5238
2026-01-03 06:41:28.49	13.07	26.80	-48.9	-52.0	12.6	2.05e-05	0	56	0	704643072	59	5516
2026-01-03 06:41:29.48	12.77	26.78	-49.1	-52.5	11.9	3.23e-04	0	56	0	706740224	60	5509
2026-01-03 06:41:30.47	12.47	26.76	-49.3	-53.1	11.4	4.67e-04	0	56	0	707788800	60	5868
2026-01-03 06:41:31.45	12.17	26.73	-49.4	-53.4	11.0	1.00e-03	0	56	0	709885952	60	6099
2026-01-03 06:41:32.43	11.87	26.71	-49.7	-54.0	10.4	2.52e-03	0	56	0	711983104	61	6140
2026-01-03 06:41:33.42	11.57	26.68	-49.8	-54.3	10.0	8.21e-03	0	56	0	714080256	61	6403
2026-01-03 06:41:34.41	11.26	26.66	-49.8	-54.4	9.9	7.92e-03	0	56	0	715128832	61	6437
2026-01-03 06:41:35.40	10.96	26.63	-49.9	-54.7	9.5	1.12e-02	0	56	0	717225984	61	6674
2026-01-03 06:41:36.39	10.66	26.60	-50.0	-54.9	9.3	1.49e-02	0	56	0	719323136	61	6814
2026-01-03 06:41:37.38	10.36	26.57	-50.0	-55.0	9.3	1.82e-02	0	56	0	721420288	62	6500
2026-01-03 06:41:38.37	10.06	26.54	-49.9	-54.6	9.7	1.65e-02	0	56	0	722468864	62	6239
2026-01-03 06:41:39.36	9.76	26.51	-50.0	-54.7	9.7	1.15e-02	0	56	0	724566016	62	6275
2026-01-03 06:41:40.35	9.47	26.48	-50.0	-54.4	10.1	8.26e-03	0	56	0	726663168	62	6083
2026-01-03 06:41:41.34	9.17	26.45	-49.8	-54.0	10.5	5.31e-03	0	56	0	728760320	62	5824
2026-01-03 06:41:42.33	8.87	26.42	-49.9	-54.0	10.6	3.66e-03	0	56	0	730857472	62	5852
2026-01-03 06:41:43.32	8.58	26.38	-49.9	-54.0	10.8	4.78e-03	0	56	0	731906048	62	5791
2026-01-03 06:41:44.30	8.28	26.35	-49.4	-52.8	12.2	4.67e-04	0	56	0	734003200	62	5061
2026-01-03 06:41:45.29	7.99	26.31	-49.4	-52.5	12.5	1.01e-04	0	56	0	736100352	61	5211
2026-01-03 06:41:46.28	7.69	26.28	-49.2	-52.1	13.1	4.27e-05	0	56	0	738197504	61	4930
2026-01-03 06:41:47.28	7.40	26.24	-49.3	-52.2	13.1	2.97e-05	0	56	0	739246080	61	5001
2026-01-03 06:41:48.27	7.10	26.20	-49.2	-52.1	13.3	1.37e-05	0	56	0	741343232	61	4939
2026-01-03 06:41:49.26	6.81	26.16	-49.0	-51.6	13.9	8.30e-06	0	56	0	743440384	61	4684
2026-01-03 06:41:50.24	6.52	26.12	-49.0	-51.6	13.9	4.50e-06	0	56	0	745537536	61	4691
2026-01-03 06:41:51.23	6.23	26.08	-48.8	-51.3	14.1	7.00e-07	0	56	0	746586112	60	4779
2026-01-03 06:41:52.22	5.94	26.04	-48.5	-50.7	14.8	7.00e-07	0	56	0	748683264	60	4454
2026-01-03 06:41:53.21	5.65	26.00	-48.5	-50.8	14.7	0.00e+00	0	56	0	750780416	59	4789
2026-01-03 06:41:54.20	5.37	25.96	-49.0	-51.5	13.9	0.00e+00	0	56	0	752877568	59	5196
2026-01-03 06:41:55.19	5.08	25.92	-49.2	-52.1	13.3	9.10e-06	0	56	0	754974720	60	5232
2026-01-03 06:41:56.18	4.79	25.87	-49.5	-52.9	12.1	1.42e-04	0	56	0	756023296	60	5754
2026-01-03 06:41:57.17	4.51	25.83	-49.8	-53.9	10.9	1.05e-03	0	56	0	758120448	61	6068
2026-01-03 06:41:58.16	4.22	25.78	-50.0	-54.7	9.8	4.98e-03	0	56	0	760217600	61	6677
2026-01-03 06:41:59.16	3.93	25.74	-50.2	-55.7	8.5	3.29e-02	0	56	0	762314752	62	7096
2026-01-03 06:42:00.15	3.65	25.69	-50.4	-56.6	7.6	6.47e-02	0	56	0	763363328	62	7818
2026-01-03 06:42:01.14	3.37	25.64	-50.8	-58.1	6.3	2.05e-01	0	56	0	765460480	63	8821
2026-01-03 06:42:02.13	3.08	25.59	-50.7	-57.1	7.3	2.27e-01	0	56	0	767557632	63	7833
2026-01-03 06:42:03.12	2.80	25.55	-50.2	-55.0	9.8	1.95e-02	0	56	0	769654784	63	6133
2026-01-03 06:42:04.11	2.52	25.50	-49.9	-53.7	11.4	1.66e-03	0	56	0	771751936	62	5619
2026-01-03 06:42:05.09	2.25	25.45	-50.0	-53.6	11.8	5.72e-04	0	56	0	772800512	62	5532
2026-01-03 06:42:06.08	1.97	25.40	-50.2	-53.9	11.7	5.32e-04	0	56	0	774897664	62	5732
2026-01-03 06:42:07.07	1.69	25.34	-49.8	-53.0	12.5	1.52e-04	0	56	0	776994816	62	5218
2026-01-03 06:42:08.06	1.41	25.29	-50.1	-53.5	12.1	2.15e-04	0	56	0	779091968	62	5483
2026-01-03 06:42:09.05	1.14	25.24	-49.9	-53.0	12.5	1.52e-04	0	56	0	780140544	62	5206
2026-01-03 06:42:10.04	0.86	25.19	-49.7	-52.8	12.7	8.92e-05	0	56	0	782237696	62	5087
2026-01-03 06:42:11.03	0.59	25.13	-49.5	-52.5	13.1	2.97e-05	0	56	0	784334848	62	4874
2026-01-03 06:42:12.01	0.32	25.08	-49.6	-52.5	13.1	2.97e-05	0	56	0	786432000	62	4903
2026-01-03 06:42:13.01	0.05	25.02	-49.6	-52.6	12.9	3.58e-05	0	56	0	787480576	62	4951
2026-01-03 06:42:13.99	359.78	24.97	-49.9	-53.2	12.4	7.40e-05	0	56	0	789577728	62	5285
2026-01-03 06:42:14.98	359.51	24.91	-49.5	-52.4	13.2	2.97e-05	0	56	0	791674880	62	4833
2026-01-03 06:42:15.97	359.24	24.86	-48.9	-51.5	14.0	3.80e-06	0	56	0	793772032	61	4626
2026-01-03 06:42:16.95	358.97	24.80	-48.4	-50.6	14.9	0.00e+00	0	56	0	794820608	59	4662
2026-01-03 06:42:17.94	358.71	24.74	-48.3	-50.5	15.1	0.00e+00	0	56	0	796917760	59	4600
2026-01-03 06:42:18.93	358.44	24.68	-48.3	-50.5	15.1	0.00e+00	0	56	0	799014912	59	4620
2026-01-03 06:42:19.91	358.18	24.63	-48.3	-50.5	15.1	0.00e+00	0	56	0	801112064	59	4633
2026-01-03 06:42:20.91	357.91	24.57	-48.5	-50.7	14.8	0.00e+00	0	56	0	803209216	59	4748
2026-01-03 06:42:21.90	357.65	24.51	-48.6	-51.0	14.6	1.50e-06	0	56	0	804257792	59	4878
2026-01-03 06:42:22.88	357.39	24.45	-48.6	-50.9	14.6	7.00e-07	0	56	0	806354944	59	4870
2026-01-03 06:42:23.87	357.13	24.38	-48.9	-51.4	14.2	0.00e+00	0	56	0	808452096	59	5150
2026-01-03 06:42:24.86	356.87	24.32	-48.8	-51.3	14.2	0.00e+00	0	56	0	810549248	59	5082
2026-01-03 06:42:25.84	356.61	24.26	-48.6	-51.1	14.5	0.00e+00	0	56	0	811597824	59	4928
2026-01-03 06:42:26.83	356.35	24.20	-48.5	-50.8	14.7	7.00e-07	0	56	0	813694976	59	4794
2026-01-03 06:42:27.82	356.10	24.14	-48.1	-50.2	15.4	0.00e+00	0	56	0	815792128	59	4450
2026-01-03 06:42:28.80	355.84	24.07	-48.1	-50.2	15.4	0.00e+00	0	56	0	817889280	59	4450
2026-01-03 06:42:29.78	355.59	24.01	-48.1	-50.3	15.2	7.00e-07	0	56	0	818937856	59	4508
2026-01-03 06:42:30.77	355.34	23.95	-48.6	-50.9	14.6	0.00e+00	0	56	0	821035008	59	4858
2026-01-03 06:42:31.76	355.09	23.88	-48.9	-51.4	14.2	0.00e+00	0	56	0	823132160	59	5137
2026-01-03 06:42:32.75	354.83	23.82	-49.2	-52.0	13.5	4.50e-06	0	56	0	825229312	60	5195
2026-01-03 06:42:33.74	354.58	23.75	-49.4	-52.5	13.0	1.83e-05	0	56	0	826277888	60	5473
2026-01-03 06:42:34.72	354.34	23.69	-49.4	-52.4	13.1	2.97e-05	0	56	0	828375040	60	5450
2026-01-03 06:42:35.72	354.09	23.62	-49.5	-52.7	12.8	3.73e-05	0	56	0	830472192	60	5619
2026-01-03 06:42:36.70	353.84	23.55	-49.5	-52.7	12.8	3.50e-05	0	56	0	832569344	61	5313
2026-01-03 06:42:37.70	353.59	23.48	-49.4	-52.4	13.2	5.03e-05	0	56	0	834666496	61	5121
2026-01-03 06:42:38.69	353.35	23.42	-48.9	-51.6	14.0	3.00e-06	0	56	0	835715072	61	4667
2026-01-03 06:42:39.68	353.10	23.35	-48.9	-51.5	14.0	7.00e-07	0	56	0	837812224	60	4887
2026-01-03 06:42:40.67	352.86	23.28	-48.8	-51.3	14.3	1.50e-06	0	56	0	839909376	60	4771
2026-01-03 06:42:41.66	352.62	23.21	-48.5	-50.8	14.8	0.00e+00	0	56	0	842006528	60	4502
2026-01-03 06:42:42.65	352.38	23.14	-48.2	-50.4	15.2	0.00e+00	0	56	0	843055104	59	4546
2026-01-03 06:42:43.64	352.14	23.07	-48.3	-50.5	15.0	0.00e+00	0	56	0	845152256	59	4633
2026-01-03 06:42:44.63	351.90	23.00	-48.4	-50.7	14.9	7.00e-07	0	56	0	847249408	59	4718
2026-01-03 06:42:45.62	351.66	22.93	-48.9	-51.5	14.1	1.50e-06	0	56	0	849346560	59	5181
2026-01-03 06:42:46.61	351.42	22.86	-48.9	-51.7	13.8	6.10e-06	0	56	0	851443712	60	4993
2026-01-03 06:42:47.60	351.19	22.79	-49.0	-51.8	13.8	0.00e+00	0	56	0	852492288	60	5049
2026-01-03 06:42:48.60	350.95	22.72	-48.5	-50.9	14.5	0.00e+00	0	56	0	854589440	60	4596
2026-01-03 06:42:49.59	350.72	22.65	-48.3	-50.5	14.9	0.00e+00	0	56	0	856686592	59	4621
2026-01-03 06:42:50.59	350.48	22.57	-48.1	-50.2	15.3	0.00e+00	0	56	0	858783744	59	4456
2026-01-03 06:42:51.58	350.25	22.50	-47.7	-49.7	15.8	0.00e+00	0	56	0	859832320	58	4460
2026-01-03 06:42:52.56	350.03	22.43	-47.6	-49.5	16.0	0.00e+00	0	56	0	861929472	58	4342
2026-01-03 06:42:53.55	349.80	22.36	-47.3	-49.1	16.4	0.00e+00	0	56	0	864026624	57	4414
2026-01-03 06:42:54.54	349.57	22.29	-47.2	-49.0	16.5	0.00e+00	0	56	0	866123776	57	4347
2026-01-03 06:42:55.53	349.34	22.21	-47.3	-49.1	16.4	0.00e+00	0	56	0	867172352	57	4413
2026-01-03 06:42:56.51	349.12	22.14	-47.5	-49.4	16.1	0.00e+00	0	56	0	869269504	57	4558
2026-01-03 06:42:57.50	348.89	22.07	-47.6	-49.4	15.9	0.00e+00	0	56	0	871366656	57	4597
2026-01-03 06:42:58.49	348.67	21.99	-47.4	-49.1	16.3	0.00e+00	0	56	0	873463808	57	4426
2026-01-03 06:42:59.48	348.45	21.92	-47.3	-49.0	16.4	0.00e+00	0	56	0	874512384	57	4381
2026-01-03 06:43:00.47	348.23	21.84	-47.2	-48.9	16.5	0.00e+00	0	56	0	876609536	57	4317
2026-01-03 06:43:01.46	348.01	21.77	-47.2	-48.9	16.5	0.00e+00	0	56	0	878706688	57	4325
2026-01-03 06:43:02.45	347.79	21.69	-47.3	-49.0	16.4	0.00e+00	0	56	0	880803840	57	4373
2026-01-03 06:43:03.44	347.57	21.62	-47.2	-49.0	16.4	0.00e+00	0	56	0	882900992	57	4357
2026-01-03 06:43:04.43	347.35	21.54	-47.0	-48.6	16.7	0.00e+00	0	56	0	883949568	57	4176
2026-01-03 06:43:05.41	347.14	21.47	-46.7	-48.3	16.9	0.00e+00	0	56	0	886046720	56	4267
2026-01-03 06:43:06.40	346.92	21.39	-46.5	-48.0	17.2	0.00e+00	0	56	0	888143872	56	4137
2026-01-03 06:43:07.40	346.71	21.31	-46.6	-48.2	17.0	0.00e+00	0	56	0	890241024	56	4231
2026-01-03 06:43:08.38	346.50	21.24	-46.9	-48.6	16.7	0.00e+00	0	56	0	891289600	56	4409
2026-01-03 06:43:09.38	346.28	21.16	-47.2	-49.0	16.4	0.00e+00	0	56	0	893386752	56	4601
2026-01-03 06:43:10.37	346.07	21.08	-47.4	-49.2	16.1	0.00e+00	0	56	0	895483904	56	4759
2026-01-03 06:43:11.36	345.86	21.01	-47.5	-49.5	15.9	0.00e+00	0	56	0	897581056	56	4892
2026-01-03 06:43:12.36	345.65	20.93	-47.7	-49.8	15.6	0.00e+00	0	56	0	899678208	57	4764
2026-01-03 06:43:13.35	345.44	20.85	-47.8	-49.9	15.5	0.00e+00	0	56	0	900726784	57	4845
2026-01-03 06:43:14.35	345.23	20.77	-48.1	-50.3	15.1	0.00e+00	0	56	0	902823936	58	4804
2026-01-03 06:43:15.33	345.03	20.70	-48.2	-50.5	14.9	0.00e+00	0	56	0	904921088	58	4908
2026-01-03 06:43:16.31	344.83	20.62	-48.4	-50.7	14.7	0.00e+00	0	56	0	907018240	58	5020
2026-01-03 06:43:17.31	344.62	20.54	-48.3	-50.7	14.7	0.00e+00	0	56	0	908066816	58	4994
2026-01-03 06:43:18.30	344.42	20.46	-48.3	-50.5	14.8	7.00e-07	0	56	0	910163968	58	4903
2026-01-03 06:43:19.30	344.22	20.39	-48.0	-50.1	15.3	0.00e+00	0	56	0	912261120	58	4664
2026-01-03 06:43:20.28	344.02	20.31	-47.8	-49.8	15.5	0.00e+00	0	56	0	914358272	58	4524
2026-01-03 06:43:21.28	343.82	20.23	-47.9	-49.9	15.3	0.00e+00	0	56	0	915406848	58	4598
2026-01-03 06:43:22.26	343.62	20.15	-47.8	-49.9	15.3	0.00e+00	0	56	0	917504000	58	4573
2026-01-03 06:43:23.26	343.42	20.07	-47.8	-49.8	15.3	0.00e+00	0	56	0	919601152	58	4540
2026-01-03 06:43:24.25	343.23	19.99	-47.4	-49.4	15.8	0.00e+00	0	56	0	921698304	58	4299
2026-01-03 06:43:25.23	343.03	19.92	-47.5	-49.5	15.6	0.00e+00	0	56	0	923795456	58	4381
2026-01-03 06:43:26.22	342.84	19.84	-47.5	-49.5	15.5	0.00e+00	0	56	0	924844032	58	4368
2026-01-03 06:43:27.21	342.65	19.76	-47.5	-49.6	15.3	0.00e+00	0	56	0	926941184	58	4407
2026-01-03 06:43:28.19	342.46	19.68	-47.2	-49.2	15.5	0.00e+00	0	56	0	929038336	57	4459
2026-01-03 06:43:29.18	342.27	19.60	-47.2	-49.2	15.5	0.00e+00	0	56	0	931135488	57	4443
2026-01-03 06:43:30.17	342.08	19.52	-47.3	-49.4	15.2	0.00e+00	0	56	0	932184064	57	4573
2026-01-03 06:43:31.16	341.89	19.44	-47.8	-50.2	14.4	7.00e-07	0	56	0	934281216	57	4994
2026-01-03 06:43:32.15	341.70	19.36	-48.8	-51.9	12.6	4.50e-06	0	56	0	936378368	59	5404
2026-01-03 06:43:33.14	341.51	19.28	-49.1	-52.8	11.6	4.03e-04	0	56	0	938475520	60	5659
2026-01-03 06:43:34.13	341.33	19.20	-49.7	-54.1	10.1	3.30e-03	0	56	0	939524096	61	6247
2026-01-03 06:43:35.11	341.14	19.12	-49.6	-53.9	10.4	7.88e-03	0	56	0	941621248	61	6071
2026-01-03 06:43:36.10	340.96	19.04	-49.8	-54.3	9.9	6.41e-03	0	56	0	943718400	61	6406
2026-01-03 06:43:37.10	340.77	18.96	-49.4	-53.3	11.1	2.04e-03	0	56	0	945815552	61	5667
2026-01-03 06:43:38.09	340.59	18.88	-49.4	-53.1	11.4	8.80e-04	0	56	0	947912704	61	5576
2026-01-03 06:43:39.08	340.41	18.80	-49.5	-53.0	11.7	8.06e-04	0	56	0	948961280	61	5497
2026-01-03 06:43:40.07	340.23	18.72	-49.2	-52.4	12.4	4.23e-04	0	56	0	951058432	61	5111
2026-01-03 06:43:41.06	340.05	18.64	-48.8	-51.7	13.2	4.50e-05	0	56	0	953155584	60	5025
2026-01-03 06:43:42.05	339.87	18.56	-48.8	-51.6	13.3	7.60e-06	0	56	0	955252736	60	4966
2026-01-03 06:43:43.04	339.69	18.49	-48.0	-50.3	14.7	4.50e-06	0	56	0	956301312	59	4503
2026-01-03 06:43:44.03	339.52	18.41	-47.9	-50.0	15.0	0.00e+00	0	56	0	958398464	58	4614
2026-01-03 06:43:45.02	339.34	18.33	-48.1	-50.4	14.7	7.00e-07	0	56	0	960495616	58	4815
2026-01-03 06:43:46.01	339.17	18.25	-47.9	-50.0	15.0	7.00e-07	0	56	0	962592768	58	4638
2026-01-03 06:43:46.99	339.00	18.17	-47.9	-50.1	15.0	0.00e+00	0	56	0	963641344	58	4673
2026-01-03 06:43:47.98	338.82	18.09	-48.0	-50.2	14.9	0.00e+00	0	56	0	965738496	58	4754
2026-01-03 06:43:48.97	338.65	18.01	-47.9	-50.0	15.1	0.00e+00	0	56	0	967835648	58	4639
2026-01-03 06:43:49.96	338.48	17.93	-47.9	-49.9	15.3	7.00e-07	0	56	0	969932800	58	4571
2026-01-03 06:43:50.95	338.31	17.85	-48.2	-50.5	14.8	0.00e+00	0	56	0	972029952	58	4906
2026-01-03 06:43:51.94	338.14	17.77	-48.3	-50.5	14.7	7.00e-07	0	56	0	973078528	58	4924
2026-01-03 06:43:52.92	337.98	17.69	-48.3	-50.4	14.9	0.00e+00	0	56	0	975175680	58	4861
2026-01-03 06:43:53.91	337.81	17.61	-48.0	-50.0	15.3	7.00e-07	0	56	0	977272832	58	4628
2026-01-03 06:43:54.91	337.64	17.53	-47.5	-49.4	16.0	0.00e+00	0	56	0	979369984	58	4296
2026-01-03 06:43:55.89	337.48	17.45	-47.2	-49.0	16.3	0.00e+00	0	56	0	980418560	57	4365
2026-01-03 06:43:56.87	337.31	17.37	-47.0	-48.7	16.6	0.00e+00	0	56	0	982515712	57	4204
2026-01-03 06:43:57.87	337.15	17.29	-47.2	-48.9	16.4	0.00e+00	0	56	0	984612864	57	4321
2026-01-03 06:43:58.86	336.99	17.21	-47.2	-48.9	16.4	0.00e+00	0	56	0	986710016	57	4331
2026-01-03 06:43:59.85	336.82	17.13	-47.0	-48.7	16.6	0.00e+00	0	56	0	987758592	57	4219
2026-01-03 06:44:00.84	336.66	17.05	-47.2	-48.9	16.5	0.00e+00	0	56	0	989855744	57	4307
2026-01-03 06:44:01.82	336.50	16.97	-47.5	-49.4	16.0	0.00e+00	0	56	0	991952896	57	4562
2026-01-03 06:44:02.82	336.34	16.89	-47.8	-49.7	15.7	0.00e+00	0	56	0	994050048	57	4741
2026-01-03 06:44:03.80	336.19	16.81	-47.9	-49.9	15.5	0.00e+00	0	56	0	996147200	57	4841
2026-01-03 06:44:04.79	336.03	16.73	-47.8	-49.7	15.6	0.00e+00	0	56	0	997195776	57	4756
2026-01-03 06:44:05.78	335.87	16.65	-47.8	-49.8	15.6	0.00e+00	0	56	0	999292928	57	4770
2026-01-03 06:44:06.77	335.72	16.57	-47.7	-49.6	15.8	0.00e+00	0	56	0	1001390080	57	4679
2026-01-03 06:44:07.75	335.56	16.49	-47.8	-49.8	15.6	0.00e+00	0	56	0	1003487232	57	4775
2026-01-03 06:44:08.73	335.41	16.41	-47.5	-49.4	16.0	0.00e+00	0	56	0	1004535808	57	4561
2026-01-03 06:44:09.72	335.26	16.33	-47.4	-49.2	16.2	0.00e+00	0	56	0	1006632960	57	4456
2026-01-03 06:44:10.71	335.10	16.25	-47.3	-49.0	16.4	0.00e+00	0	56	0	1008730112	57	4382
2026-01-03 06:44:11.70	334.95	16.17	-47.5	-49.3	16.1	0.00e+00	0	56	0	1010827264	57	4539
2026-01-03 06:44:12.69	334.80	16.09	-47.5	-49.3	16.1	0.00e+00	0	56	0	1011875840	57	4496
2026-01-03 06:44:13.68	334.65	16.01	-47.5	-49.3	16.1	0.00e+00	0	56	0	1013972992	57	4508
2026-01-03 06:44:14.67	334.50	15.93	-47.6	-49.5	15.9	0.00e+00	0	56	0	1016070144	57	4630
2026-01-03 06:44:15.66	334.35	15.85	-47.5	-49.4	16.0	0.00e+00	0	56	0	1018167296	57	4552
2026-01-03 06:44:16.65	334.21	15.78	-47.8	-49.8	15.6	0.00e+00	0	56	0	1020264448	57	4773
2026-01-03 06:44:17.63	334.06	15.70	-47.9	-49.9	15.5	0.00e+00	0	57	0	1021313024	57	4837
2026-01-03 06:44:18.63	333.91	15.62	-48.2	-50.3	15.2	0.00e+00	0	56	0	1023410176	58	4787
2026-01-03 06:44:19.62	333.77	15.54	-48.4	-50.7	14.8	0.00e+00	0	56	0	1025507328	58	5005
2026-01-03 06:44:20.61	333.62	15.46	-48.6	-50.9	14.5	0.00e+00	0	56	0	1027604480	59	4868
2026-01-03 06:44:21.60	333.48	15.38	-48.7	-51.3	14.2	0.00e+00	0	56	0	1028653056	59	5042
2026-01-03 06:44:22.59	333.34	15.30	-48.7	-51.1	14.3	1.50e-06	0	57	0	1030750208	59	4942
2026-01-03 06:44:23.58	333.19	15.22	-48.5	-50.7	14.8	0.00e+00	0	56	0	1032847360	59	4739
2026-01-03 06:44:24.57	333.05	15.14	-48.1	-50.2	15.2	0.00e+00	0	56	0	1034944512	59	4461
2026-01-03 06:44:25.56	332.91	15.07	-48.0	-50.0	15.5	0.00e+00	0	57	0	1035993088	59	4346
2026-01-03 06:44:26.54	332.77	14.99	-47.7	-49.5	15.9	0.00e+00	0	56	0	1038090240	58	4390
2026-01-03 06:44:27.53	332.63	14.91	-47.8	-49.6	15.8	0.00e+00	0	56	0	1040187392	58	4433
2026-01-03 06:44:28.52	332.50	14.83	-47.8	-49.6	15.8	0.00e+00	0	56	0	1042284544	58	4430
2026-01-03 06:44:29.51	332.36	14.75	-47.6	-49.4	16.1	0.00e+00	0	56	0	1044381696	58	4305
2026-01-03 06:44:30.50	332.22	14.67	-48.0	-49.9	15.5	0.00e+00	0	56	0	1045430272	58	4593
2026-01-03 06:44:31.49	332.09	14.60	-48.1	-50.2	15.2	0.00e+00	0	57	0	1047527424	58	4752
2026-01-03 06:44:32.48	331.95	14.52	-48.3	-50.4	15.0	0.00e+00	0	56	0	1049624576	58	4837
2026-01-03 06:44:33.47	331.82	14.44	-48.3	-50.4	15.0	0.00e+00	0	56	0	1051721728	58	4852
2026-01-03 06:44:34.45	331.68	14.36	-48.5	-50.7	14.8	0.00e+00	0	56	0	1052770304	58	5017
2026-01-03 06:44:35.45	331.55	14.28	-48.5	-50.7	14.8	7.00e-07	0	56	0	1054867456	58	5013
2026-01-03 06:44:36.43	331.42	14.21	-48.4	-50.6	14.8	0.00e+00	0	56	0	1056964608	58	4964
2026-01-03 06:44:37.42	331.28	14.13	-48.4	-50.6	14.8	2.20e-06	0	56	0	1059061760	58	4946
2026-01-03 06:44:38.41	331.15	14.05	-48.1	-50.2	15.2	0.00e+00	0	56	0	1060110336	58	4735
2026-01-03 06:44:39.40	331.02	13.98	-48.1	-50.2	15.2	0.00e+00	0	56	0	1062207488	58	4731
2026-01-03 06:44:40.39	330.89	13.90	-48.2	-50.2	15.2	0.00e+00	0	56	0	1064304640	58	4754
2026-01-03 06:44:41.39	330.76	13.82	-48.2	-50.2	15.2	0.00e+00	0	56	0	1066401792	58	4757
2026-01-03 06:44:42.38	330.63	13.74	-48.2	-50.4	15.1	0.00e+00	0	56	0	1067450368	58	4821
2026-01-03 06:44:43.37	330.51	13.67	-48.5	-50.8	14.7	0.00e+00	0	56	0	1069547520	58	5042
2026-01-03 06:44:44.36	330.38	13.59	-48.4	-50.6	14.9	0.00e+00	0	56	0	1071644672	58	4963
2026-01-03 06:44:45.34	330.25	13.51	-48.3	-50.5	15.0	0.00e+00	0	56	0	1073741824	58	4876
2026-01-03 06:44:46.33	330.13	13.44	-48.2	-50.3	15.1	0.00e+00	0	56	0	1075838976	58	4770
2026-01-03 06:44:47.32	330.00	13.36	-48.0	-50.0	15.4	0.00e+00	0	56	0	1076887552	58	4638
2026-01-03 06:44:48.31	329.88	13.28	-47.9	-49.9	15.5	0.00e+00	0	57	0	1078984704	58	4569
2026-01-03 06:44:49.31	329.75	13.21	-47.8	-49.8	15.6	0.00e+00	0	57	0	1081081856	58	4518
2026-01-03 06:44:50.30	329.63	13.13	-48.0	-50.1	15.3	0.00e+00	0	56	0	1083179008	58	4671
2026-01-03 06:44:51.29	329.51	13.05	-48.0	-50.0	15.4	0.00e+00	0	56	0	1084227584	58	4629
2026-01-03 06:44:52.28	329.39	12.98	-48.0	-50.1	15.3	0.00e+00	0	56	0	1086324736	58	4674
2026-01-03 06:44:53.27	329.27	12.90	-48.4	-50.6	14.8	7.00e-07	0	56	0	1088421888	58	4968
2026-01-03 06:44:54.26	329.15	12.83	-48.3	-50.5	14.9	0.00e+00	0	56	0	1090519040	58	4884
2026-01-03 06:44:55.24	329.03	12.75	-48.4	-50.7	14.7	0.00e+00	0	56	0	1091567616	58	5024
2026-01-03 06:44:56.22	328.91	12.68	-48.4	-50.7	14.7	0.00e+00	0	57	0	1093664768	58	4998
2026-01-03 06:44:57.21	328.79	12.60	-48.6	-51.0	14.4	7.00e-07	0	57	0	1095761920	59	4885
2026-01-03 06:44:58.21	328.67	12.52	-48.6	-50.9	14.4	0.00e+00	0	56	0	1097859072	59	4862
2026-01-03 06:44:59.19	328.55	12.45	-48.5	-50.8	14.6	1.50e-06	0	57	0	1099956224	59	4767
2026-01-03 06:45:00.18	328.44	12.38	-48.4	-50.6	14.8	7.00e-07	0	56	0	1101004800	59	4696
2026-01-03 06:45:01.17	328.32	12.30	-48.2	-50.4	15.0	0.00e+00	0	57	0	1103101952	59	4578
2026-01-03 06:45:02.16	328.21	12.23	-48.4	-50.6	14.7	0.00e+00	0	56	0	1105199104	59	4704
2026-01-03 06:45:03.15	328.09	12.15	-48.5	-50.8	14.6	0.00e+00	0	57	0	1107296256	59	4784
2026-01-03 06:45:04.13	327.98	12.08	-48.4	-50.7	14.7	7.00e-07	0	57	0	1108344832	59	4714
2026-01-03 06:45:05.12	327.86	12.00	-48.7	-51.1	14.2	7.00e-07	0	57	0	1110441984	59	4968
2026-01-03 06:45:06.10	327.75	11.93	-48.7	-51.1	14.2	0.00e+00	0	56	0	1112539136	59	4967
2026-01-03 06:45:07.10	327.64	11.85	-49.0	-51.6	13.9	7.00e-07	0	57	0	1114636288	59	5222
2026-01-03 06:45:08.08	327.53	11.78	-49.0	-51.6	13.8	3.00e-06	0	56	0	1115684864	59	5243
2026-01-03 06:45:09.07	327.42	11.71	-49.2	-52.0	13.3	1.06e-05	0	57	0	1117782016	60	5185
2026-01-03 06:45:10.05	327.31	11.63	-49.2	-52.0	13.3	2.13e-05	0	57	0	1119879168	60	5189
2026-01-03 06:45:11.04	327.20	11.56	-49.2	-52.1	13.3	1.37e-05	0	57	0	1121976320	60	5235
2026-01-03 06:45:12.03	327.09	11.48	-49.4	-52.5	12.8	3.28e-05	0	56	0	1124073472	60	5507
2026-01-03 06:45:13.02	326.98	11.41	-49.1	-52.0	13.3	2.13e-05	0	56	0	1125122048	60	5166
2026-01-03 06:45:14.00	326.87	11.34	-48.9	-51.8	13.6	1.06e-05	0	57	0	1127219200	60	5042
2026-01-03 06:45:15.00	326.76	11.26	-48.8	-51.4	13.9	2.20e-06	0	57	0	1129316352	60	4828
2026-01-03 06:45:15.99	326.65	11.19	-48.8	-51.3	14.0	2.20e-06	0	57	0	1131413504	60	4810
2026-01-03 06:45:16.98	326.55	11.12	-48.5	-50.9	14.5	0.00e+00	0	56	0	1132462080	60	4556
2026-01-03 06:45:17.96	326.44	11.04	-48.4	-50.7	14.6	0.00e+00	0	57	0	1134559232	59	4722
2026-01-03 06:45:18.95	326.33	10.97	-48.4	-50.6	14.7	0.00e+00	0	57	0	1136656384	59	4694
2026-01-03 06:45:19.94	326.23	10.90	-48.4	-50.7	14.6	0.00e+00	0	56	0	1138753536	59	4749
2026-01-03 06:45:20.93	326.12	10.83	-48.3	-50.6	14.7	7.00e-07	0	57	0	1139802112	59	4677
2026-01-03 06:45:21.91	326.02	10.75	-48.3	-50.6	14.7	0.00e+00	0	57	0	1141899264	59	4661
2026-01-03 06:45:22.90	325.92	10.68	-48.4	-50.8	14.5	7.00e-07	0	57	0	1143996416	59	4765
2026-01-03 06:45:23.89	325.81	10.61	-48.5	-50.9	14.4	1.50e-06	0	57	0	1146093568	59	4859
2026-01-03 06:45:24.88	325.71	10.54	-48.6	-51.1	14.1	1.50e-06	0	57	0	1147142144	59	4946
2026-01-03 06:45:25.87	325.61	10.46	-48.9	-51.5	13.8	4.50e-06	0	57	0	1149239296	59	5173
2026-01-03 06:45:26.85	325.51	10.39	-49.0	-51.7	13.5	9.90e-06	0	57	0	1151336448	59	5333
2026-01-03 06:45:27.83	325.41	10.32	-49.1	-52.1	13.2	9.90e-06	0	57	0	1153433600	60	5219
2026-01-03 06:45:28.81	325.31	10.25	-49.3	-52.3	12.9	2.51e-05	0	57	0	1155530752	60	5384
2026-01-03 06:45:29.79	325.21	10.18	-49.4	-52.5	12.7	5.41e-05	0	57	0	1156579328	60	5479
2026-01-03 06:45:30.78	325.11	10.11	-49.5	-52.7	12.5	8.69e-05	0	57	0	1158676480	60	5598
2026-01-03 06:45:31.77	325.01	10.04	-49.5	-52.7	12.5	8.39e-05	0	57	0	1160773632	60	5643
2026-01-03 06:45:32.76	324.91	9.97	-49.5	-52.8	12.5	1.56e-04	0	57	0	1162870784	60	5676
2026-01-03 06:45:33.75	324.82	9.90	-49.6	-52.9	12.2	2.12e-04	0	56	0	1163919360	61	5463
2026-01-03 06:45:34.73	324.72	9.82	-49.6	-52.8	12.3	2.46e-04	0	57	0	1166016512	61	5400
2026-01-03 06:45:35.72	324.62	9.75	-49.6	-52.9	12.2	2.02e-04	0	57	0	1168113664	61	5463
2026-01-03 06:45:36.71	324.53	9.68	-49.9	-53.4	11.8	2.57e-04	0	56	0	1170210816	61	5741
2026-01-03 06:45:37.70	324.43	9.61	-49.9	-53.4	11.8	5.07e-04	0	57	0	1171259392	61	5760
2026-01-03 06:45:38.69	324.33	9.54	-49.8	-53.2	11.9	4.72e-04	0	57	0	1173356544	61	5652
2026-01-03 06:45:39.68	324.24	9.47	-49.7	-53.1	12.0	3.57e-04	0	57	0	1175453696	61	5589
2026-01-03 06:45:40.67	324.14	9.40	-49.7	-53.2	11.9	3.50e-04	0	57	0	1177550848	61	5654
2026-01-03 06:45:41.66	324.05	9.33	-49.7	-53.1	12.0	2.62e-04	0	57	0	1179648000	61	5588
2026-01-03 06:45:42.65	323.96	9.26	-49.7	-53.1	12.0	2.60e-04	0	57	0	1180696576	61	5566
2026-01-03 06:45:43.64	323.86	9.19	-49.6	-53.0	12.2	2.45e-04	0	57	0	1182793728	61	5473
2026-01-03 06:45:44.63	323.77	9.12	-49.9	-53.4	11.7	4.24e-04	0	57	0	1184890880	61	5774
2026-01-03 06:45:45.62	323.68	9.05	-49.7	-53.2	12.0	6.75e-04	0	56	0	1186988032	61	5599
2026-01-03 06:45:46.60	323.59	8.98	-49.5	-52.7	12.4	2.34e-04	0	57	0	1188036608	61	5332
2026-01-03 06:45:47.59	323.50	8.91	-49.7	-53.1	12.1	2.26e-04	0	57	0	1190133760	61	5548
2026-01-03 06:45:48.58	323.40	8.84	-49.7	-53.2	11.9	4.65e-04	0	56	0	1192230912	61	5623
2026-01-03 06:45:49.58	323.31	8.77	-49.8	-53.2	12.0	3.61e-04	0	57	0	1194328064	61	5608
2026-01-03 06:45:50.56	323.22	8.71	-49.8	-53.4	11.8	3.60e-04	0	57	0	1195376640	61	5731
2026-01-03 06:45:51.55	323.13	8.64	-49.9	-53.6	11.5	8.19e-04	0	56	0	1197473792	61	5918
2026-01-03 06:45:52.54	323.04	8.57	-50.1	-53.9	11.2	1.13e-03	0	57	0	1199570944	61	6103
2026-01-03 06:45:53.53	322.96	8.50	-50.2	-54.1	11.0	1.76e-03	0	57	0	1201668096	62	5890
2026-01-03 06:45:54.53	322.87	8.43	-50.2	-54.3	10.8	1.91e-03	0	57	0	1202716672	62	6053
2026-01-03 06:45:55.52	322.78	8.36	-50.3	-54.4	10.7	2.23e-03	0	57	0	1204813824	62	6078
2026-01-03 06:45:56.50	322.69	8.29	-50.2	-54.2	10.9	2.88e-03	0	57	0	1206910976	62	5987
2026-01-03 06:45:57.49	322.61	8.22	-50.2	-54.4	10.6	2.68e-03	0	57	0	1209008128	62	6102
2026-01-03 06:45:58.47	322.52	8.16	-50.3	-54.5	10.5	5.13e-03	0	57	0	1211105280	62	6201
2026-01-03 06:45:59.46	322.43	8.09	-50.0	-54.0	11.1	1.65e-03	0	57	0	1212153856	62	5800
2026-01-03 06:46:00.45	322.35	8.02	-49.9	-53.6	11.5	9.52e-04	0	57	0	1214251008	62	5540
2026-01-03 06:46:01.44	322.26	7.95	-49.6	-53.1	12.0	4.90e-04	0	57	0	1216348160	62	5228
2026-01-03 06:46:02.43	322.18	7.89	-49.6	-52.9	12.3	2.18e-04	0	57	0	1218445312	62	5101
2026-01-03 06:46:03.42	322.09	7.82	-49.5	-52.8	12.3	1.33e-04	0	57	0	1219493888	62	5069
2026-01-03 06:46:04.41	322.01	7.75	-49.3	-52.4	12.7	1.12e-04	0	57	0	1221591040	61	5151
2026-01-03 06:46:05.40	321.92	7.68	-49.1	-52.0	13.0	4.04e-05	0	57	0	1223688192	61	4925
2026-01-03 06:46:06.39	321.84	7.62	-49.0	-51.8	13.3	2.67e-05	0	57	0	1225785344	61	4809
2026-01-03 06:46:07.37	321.76	7.55	-48.9	-51.7	13.4	6.80e-06	0	57	0	1226833920	60	5017
2026-01-03 06:46:08.36	321.68	7.48	-48.9	-51.7	13.3	2.13e-05	0	57	0	1228931072	60	5006
2026-01-03 06:46:09.35	321.59	7.42	-48.7	-51.3	13.8	4.50e-06	0	57	0	1231028224	60	4761
2026-01-03 06:46:10.34	321.51	7.35	-48.6	-51.2	13.9	8.30e-06	0	57	0	1233125376	60	4733
2026-01-03 06:46:11.32	321.43	7.28	-48.6	-51.2	13.9	5.30e-06	0	57	0	1235222528	60	4748
2026-01-03 06:46:12.31	321.35	7.22	-48.7	-51.3	13.8	3.80e-06	0	57	0	1236271104	60	4791
2026-01-03 06:46:13.30	321.27	7.15	-48.7	-51.3	13.8	4.50e-06	0	57	0	1238368256	60	4786
2026-01-03 06:46:14.29	321.19	7.08	-48.7	-51.4	13.6	3.00e-06	0	57	0	1240465408	60	4869
