passes_logs/2026/01/03/R3.0SM8_Murmansk_STILSPACE/R3.0SM8_Murmansk_STILSPACE__20260103_081344_SUOMI_NPP_rec.log

#Pass ID: 20260103_081344_SUOMI NPP
#Satellite: SUOMI NPP
#Configuration: NPP
#almurnet v.1.7.20240730
#Start time: 2026-01-03 08:13:45

#Version: 2.2.20231116
#Station: R3.0SM8_Murmansk_STILSPACE
#Location: 33.092731 lon 68.902999 lat
#TLE: 1 37849U 11061A   26001.07732418  .00000182  00000+0  10735-3 0  9990
#TLE: 2 37849  98.7795 303.2470 0002580  87.2016 272.9455 14.19520779734739

#Time	Az	El	Level	Level2	SNR	BER	BlckErr	Temp	State	Recorded	gain1	gain2
2026-01-03 08:13:45.13	119.34	3.07	-52.8	-66.7	3.8	1.49e+00	0	46	0	0	68	17878
2026-01-03 08:13:46.11	119.31	3.13	-52.8	-66.6	3.8	1.49e+00	0	46	104	0	68	17573
2026-01-03 08:13:47.11	119.28	3.20	-52.6	-66.5	3.8	1.49e+00	0	46	104	0	68	17476
2026-01-03 08:13:48.10	119.24	3.26	-52.5	-66.3	3.8	1.49e+00	0	46	104	0	67	18076
2026-01-03 08:13:49.09	119.21	3.32	-52.4	-66.2	3.8	1.49e+00	0	46	104	0	67	17756
2026-01-03 08:13:50.08	119.18	3.39	-52.1	-65.5	3.8	1.49e+00	0	46	104	0	67	16415
2026-01-03 08:13:51.07	119.14	3.45	-52.0	-65.5	3.8	1.49e+00	0	46	104	0	66	17349
2026-01-03 08:13:52.07	119.11	3.52	-51.9	-65.3	3.8	1.49e+00	0	46	104	0	66	17051
2026-01-03 08:13:53.06	119.08	3.59	-51.9	-65.2	3.8	1.49e+00	0	46	104	0	66	16708
2026-01-03 08:13:54.05	119.04	3.65	-51.9	-65.0	3.8	1.49e+00	0	46	104	0	66	16331
2026-01-03 08:13:55.04	119.01	3.72	-51.8	-64.7	3.8	1.49e+00	0	46	104	0	66	15801
2026-01-03 08:13:56.04	118.98	3.78	-51.9	-64.5	3.8	1.49e+00	0	46	104	0	66	15465
2026-01-03 08:13:57.03	118.94	3.85	-51.9	-64.2	3.8	1.49e+00	0	46	104	0	66	14896
2026-01-03 08:13:58.02	118.91	3.91	-51.8	-63.6	3.8	1.48e+00	0	46	104	0	66	13981
2026-01-03 08:13:59.02	118.87	3.98	-51.8	-63.2	3.9	1.48e+00	0	46	104	0	66	13333
2026-01-03 08:14:00.00	118.84	4.05	-51.8	-62.6	4.1	1.42e+00	0	47	0	0	66	12487
2026-01-03 08:14:00.99	118.80	4.11	-51.8	-62.2	4.2	1.36e+00	0	47	0	0	66	11937
2026-01-03 08:14:01.97	118.77	4.18	-51.7	-61.2	4.6	1.22e+00	0	47	0	0	66	10550
2026-01-03 08:14:02.97	118.73	4.25	-51.5	-60.3	5.0	8.78e-01	0	47	0	2097152	66	9540
2026-01-03 08:14:03.96	118.70	4.31	-51.5	-60.0	5.2	6.28e-01	0	47	0	4194304	66	9218
2026-01-03 08:14:04.94	118.66	4.38	-51.4	-59.2	5.7	4.61e-01	0	47	0	6291456	65	8914
2026-01-03 08:14:05.94	118.63	4.45	-51.2	-58.3	6.4	3.16e-01	0	47	0	8388608	65	8052
2026-01-03 08:14:06.93	118.59	4.52	-50.9	-57.5	7.1	2.26e-01	0	47	0	9437184	65	7352
2026-01-03 08:14:07.92	118.55	4.58	-50.9	-57.1	7.5	1.14e-01	0	47	0	11534336	64	7412
2026-01-03 08:14:08.91	118.52	4.65	-50.8	-56.5	8.0	7.60e-02	0	47	0	13631488	64	6944
2026-01-03 08:14:09.91	118.48	4.72	-50.5	-55.9	8.7	4.51e-02	0	47	0	15728640	64	6425
2026-01-03 08:14:10.90	118.44	4.79	-50.4	-55.5	9.1	3.83e-02	0	47	0	16777216	63	6558
2026-01-03 08:14:11.89	118.41	4.86	-50.3	-55.0	9.6	1.81e-02	0	48	0	18874368	63	6196
2026-01-03 08:14:12.88	118.37	4.92	-50.3	-55.0	9.7	1.12e-02	0	48	0	20971520	63	6138
2026-01-03 08:14:13.87	118.33	4.99	-50.0	-54.4	10.3	1.04e-02	0	47	0	23068672	63	5737
2026-01-03 08:14:14.85	118.30	5.06	-50.2	-54.6	10.1	7.00e-03	0	48	0	25165824	63	5883
2026-01-03 08:14:15.84	118.26	5.13	-50.3	-54.7	10.0	6.30e-03	0	48	0	26214400	63	5982
2026-01-03 08:14:16.83	118.22	5.20	-50.1	-54.5	10.2	7.06e-03	0	48	0	28311552	63	5847
2026-01-03 08:14:17.81	118.18	5.27	-50.1	-54.4	10.4	6.12e-03	0	48	0	30408704	63	5758
2026-01-03 08:14:18.80	118.15	5.34	-50.0	-54.2	10.5	4.29e-03	0	48	0	32505856	63	5628
2026-01-03 08:14:19.79	118.11	5.41	-50.0	-54.4	10.3	3.98e-03	0	48	0	33554432	63	5760
2026-01-03 08:14:20.78	118.07	5.48	-50.0	-54.0	10.8	3.27e-03	0	48	0	35651584	63	5500
2026-01-03 08:14:21.77	118.03	5.55	-49.8	-53.5	11.3	2.21e-03	0	48	0	37748736	62	5502
2026-01-03 08:14:22.77	117.99	5.62	-49.6	-53.2	11.6	6.89e-04	0	48	0	39845888	62	5311
2026-01-03 08:14:23.76	117.95	5.69	-49.5	-52.9	11.8	2.91e-04	0	48	0	40894464	61	5460
2026-01-03 08:14:24.75	117.91	5.76	-49.2	-52.5	12.3	2.01e-04	0	48	0	42991616	61	5168
2026-01-03 08:14:25.74	117.87	5.83	-49.1	-52.2	12.6	1.46e-04	0	48	0	45088768	61	5017
2026-01-03 08:14:26.74	117.83	5.90	-48.9	-51.8	13.0	5.11e-05	0	48	0	47185920	60	5080
2026-01-03 08:14:27.72	117.79	5.97	-48.9	-51.8	13.0	1.90e-05	0	48	0	49283072	60	5074
2026-01-03 08:14:28.72	117.75	6.04	-48.8	-51.6	13.3	2.89e-05	0	49	0	50331648	60	4941
2026-01-03 08:14:29.70	117.71	6.11	-49.0	-52.0	12.9	3.81e-05	0	49	0	52428800	60	5186
2026-01-03 08:14:30.67	117.67	6.18	-49.0	-52.0	12.9	6.40e-05	0	49	0	54525952	60	5199
2026-01-03 08:14:31.67	117.63	6.25	-49.0	-52.0	12.9	3.05e-05	0	49	0	56623104	60	5177
2026-01-03 08:14:32.66	117.59	6.33	-49.0	-52.0	12.9	4.50e-05	0	49	0	57671680	60	5194
2026-01-03 08:14:33.64	117.55	6.40	-49.1	-52.1	12.8	5.95e-05	0	49	0	59768832	60	5272
2026-01-03 08:14:34.62	117.51	6.47	-49.1	-52.1	12.8	7.47e-05	0	49	0	61865984	60	5225
2026-01-03 08:14:35.61	117.47	6.54	-49.0	-52.0	12.9	3.73e-05	0	49	0	63963136	60	5189
2026-01-03 08:14:36.59	117.43	6.61	-49.2	-52.2	12.7	5.87e-05	0	49	0	65011712	60	5333
2026-01-03 08:14:37.59	117.38	6.69	-49.2	-52.3	12.6	1.46e-04	0	49	0	67108864	60	5380
2026-01-03 08:14:38.58	117.34	6.76	-49.1	-52.1	12.8	6.40e-05	0	49	0	69206016	60	5244
2026-01-03 08:14:39.57	117.30	6.83	-49.0	-52.0	12.9	5.49e-05	0	49	0	71303168	60	5209
2026-01-03 08:14:40.56	117.26	6.91	-49.0	-51.8	13.1	4.42e-05	0	49	0	73400320	60	5088
2026-01-03 08:14:41.55	117.21	6.98	-49.0	-52.0	13.0	2.82e-05	0	49	0	74448896	60	5166
2026-01-03 08:14:42.53	117.17	7.05	-49.1	-52.1	12.8	5.11e-05	0	49	0	76546048	60	5273
2026-01-03 08:14:43.53	117.13	7.13	-49.2	-52.2	12.7	7.17e-05	0	49	0	78643200	60	5326
2026-01-03 08:14:44.52	117.08	7.20	-48.9	-51.8	13.1	2.89e-05	0	49	0	80740352	60	5074
2026-01-03 08:14:45.51	117.04	7.28	-48.7	-51.5	13.5	1.06e-05	0	49	0	81788928	60	4897
2026-01-03 08:14:46.49	116.99	7.35	-48.7	-51.4	13.6	5.30e-06	0	49	0	83886080	60	4847
2026-01-03 08:14:47.49	116.95	7.43	-48.8	-51.5	13.5	9.10e-06	0	49	0	85983232	60	4923
2026-01-03 08:14:48.47	116.90	7.50	-48.7	-51.4	13.6	9.90e-06	0	50	0	88080384	60	4834
2026-01-03 08:14:49.46	116.86	7.57	-48.8	-51.8	13.2	1.22e-05	0	50	0	89128960	60	5056
2026-01-03 08:14:50.45	116.81	7.65	-49.0	-52.0	13.0	3.35e-05	0	50	0	91226112	60	5196
2026-01-03 08:14:51.44	116.77	7.73	-49.0	-51.9	13.2	2.59e-05	0	50	0	93323264	60	5103
2026-01-03 08:14:52.44	116.72	7.80	-48.9	-51.8	13.2	2.44e-05	0	50	0	95420416	60	5066
2026-01-03 08:14:53.43	116.68	7.88	-48.8	-51.6	13.4	1.83e-05	0	50	0	97517568	60	4970
2026-01-03 08:14:54.42	116.63	7.95	-48.7	-51.5	13.6	9.90e-06	0	50	0	98566144	60	4871
2026-01-03 08:14:55.41	116.58	8.03	-48.7	-51.4	13.7	6.80e-06	0	50	0	100663296	60	4840
2026-01-03 08:14:56.41	116.54	8.11	-48.7	-51.4	13.7	3.80e-06	0	50	0	102760448	60	4860
2026-01-03 08:14:57.40	116.49	8.19	-48.8	-51.6	13.5	8.30e-06	0	50	0	104857600	60	4967
2026-01-03 08:14:58.39	116.44	8.26	-48.9	-51.7	13.4	1.06e-05	0	50	0	105906176	60	5022
2026-01-03 08:14:59.38	116.40	8.34	-48.9	-51.6	13.4	9.10e-06	0	50	0	108003328	60	4981
2026-01-03 08:15:00.37	116.35	8.42	-48.7	-51.4	13.7	8.30e-06	0	50	0	110100480	60	4845
2026-01-03 08:15:01.35	116.30	8.49	-48.6	-51.2	13.9	3.00e-06	0	50	0	112197632	60	4711
2026-01-03 08:15:02.35	116.25	8.57	-48.5	-51.1	14.0	1.50e-06	0	50	0	113246208	60	4668
2026-01-03 08:15:03.33	116.20	8.65	-48.7	-51.3	13.8	3.00e-06	0	50	0	115343360	60	4805
2026-01-03 08:15:04.32	116.15	8.73	-48.7	-51.3	13.8	2.20e-06	0	50	0	117440512	60	4804
2026-01-03 08:15:05.31	116.10	8.81	-48.7	-51.2	13.9	3.80e-06	0	50	0	119537664	60	4744
2026-01-03 08:15:06.31	116.05	8.89	-48.7	-51.3	13.8	2.20e-06	0	50	0	121634816	60	4787
2026-01-03 08:15:07.30	116.00	8.97	-48.7	-51.3	13.9	3.00e-06	0	50	0	122683392	60	4778
2026-01-03 08:15:08.29	115.95	9.04	-48.6	-51.2	14.0	6.10e-06	0	50	0	124780544	60	4710
2026-01-03 08:15:09.27	115.90	9.12	-48.6	-51.2	14.0	4.50e-06	0	50	0	126877696	60	4716
2026-01-03 08:15:10.26	115.85	9.20	-48.7	-51.3	13.8	5.30e-06	0	51	0	128974848	60	4796
2026-01-03 08:15:11.24	115.80	9.28	-48.7	-51.2	13.9	2.20e-06	0	51	0	130023424	60	4741
2026-01-03 08:15:12.23	115.75	9.36	-48.7	-51.3	13.9	2.20e-06	0	51	0	132120576	60	4795
2026-01-03 08:15:13.22	115.70	9.44	-48.8	-51.4	13.7	6.10e-06	0	51	0	134217728	60	4842
2026-01-03 08:15:14.21	115.65	9.52	-48.7	-51.2	14.0	1.50e-06	0	51	0	136314880	60	4727
2026-01-03 08:15:15.21	115.60	9.61	-48.5	-50.9	14.3	2.20e-06	0	51	0	137363456	60	4567
2026-01-03 08:15:16.20	115.54	9.69	-48.4	-50.7	14.5	7.00e-07	0	51	0	139460608	59	4724
2026-01-03 08:15:17.19	115.49	9.77	-48.4	-50.6	14.6	2.20e-06	0	51	0	141557760	59	4688
2026-01-03 08:15:18.18	115.44	9.85	-48.5	-50.8	14.4	0.00e+00	0	51	0	143654912	59	4792
2026-01-03 08:15:19.15	115.39	9.93	-48.6	-51.0	14.2	1.50e-06	0	51	0	145752064	59	4904
2026-01-03 08:15:20.15	115.33	10.01	-48.4	-50.8	14.4	1.50e-06	0	51	0	146800640	59	4778
2026-01-03 08:15:21.14	115.28	10.09	-48.6	-51.0	14.2	3.80e-06	0	51	0	148897792	59	4896
2026-01-03 08:15:22.13	115.22	10.18	-48.7	-51.3	14.0	1.50e-06	0	51	0	150994944	59	5051
2026-01-03 08:15:23.12	115.17	10.26	-48.5	-50.9	14.3	7.00e-07	0	51	0	153092096	59	4846
2026-01-03 08:15:24.11	115.11	10.34	-48.5	-50.9	14.3	3.80e-06	0	51	0	154140672	59	4836
2026-01-03 08:15:25.10	115.06	10.43	-48.5	-50.9	14.3	7.00e-07	0	51	0	156237824	59	4854
2026-01-03 08:15:26.09	115.00	10.51	-48.5	-51.0	14.2	3.00e-06	0	51	0	158334976	59	4914
2026-01-03 08:15:27.08	114.95	10.59	-48.6	-51.0	14.2	7.00e-07	0	51	0	160432128	59	4896
2026-01-03 08:15:28.06	114.89	10.68	-48.4	-50.7	14.5	0.00e+00	0	51	0	161480704	59	4752
2026-01-03 08:15:29.05	114.83	10.76	-48.3	-50.7	14.5	7.00e-07	0	51	0	163577856	59	4722
2026-01-03 08:15:30.03	114.78	10.85	-48.4	-50.8	14.4	7.00e-07	0	51	0	165675008	59	4763
2026-01-03 08:15:31.01	114.72	10.93	-48.5	-51.0	14.3	1.50e-06	0	51	0	167772160	59	4878
2026-01-03 08:15:32.00	114.66	11.01	-48.5	-50.9	14.3	7.00e-07	0	51	0	169869312	59	4821
2026-01-03 08:15:32.99	114.61	11.10	-48.5	-51.0	14.2	1.50e-06	0	51	0	170917888	59	4903
2026-01-03 08:15:33.98	114.55	11.19	-48.4	-50.9	14.3	0.00e+00	0	51	0	173015040	59	4840
2026-01-03 08:15:34.97	114.49	11.27	-48.5	-50.9	14.3	7.00e-07	0	51	0	175112192	59	4847
2026-01-03 08:15:35.95	114.43	11.36	-48.4	-50.9	14.3	7.00e-07	0	51	0	177209344	59	4866
2026-01-03 08:15:36.93	114.37	11.44	-48.6	-51.1	14.1	1.50e-06	0	52	0	178257920	59	4959
2026-01-03 08:15:37.91	114.31	11.53	-48.6	-51.1	14.1	7.00e-07	0	51	0	180355072	59	4952
2026-01-03 08:15:38.90	114.25	11.62	-48.6	-51.1	14.2	7.00e-07	0	51	0	182452224	59	4933
2026-01-03 08:15:39.89	114.19	11.70	-48.6	-51.1	14.2	2.20e-06	0	52	0	184549376	59	4948
2026-01-03 08:15:40.87	114.13	11.79	-48.8	-51.6	13.6	1.50e-06	0	52	0	185597952	59	5236
2026-01-03 08:15:41.87	114.07	11.88	-48.8	-51.4	13.9	4.50e-06	0	52	0	187695104	59	5123
2026-01-03 08:15:42.85	114.01	11.97	-48.4	-50.8	14.5	7.00e-07	0	52	0	189792256	59	4792
2026-01-03 08:15:43.84	113.94	12.05	-48.3	-50.5	14.7	0.00e+00	0	52	0	191889408	59	4649
2026-01-03 08:15:44.82	113.88	12.14	-48.3	-50.7	14.6	7.00e-07	0	52	0	192937984	59	4736
2026-01-03 08:15:45.82	113.82	12.23	-48.6	-51.1	14.2	2.20e-06	0	52	0	195035136	59	4958
2026-01-03 08:15:46.82	113.75	12.32	-48.4	-50.8	14.5	0.00e+00	0	52	0	197132288	59	4772
2026-01-03 08:15:47.80	113.69	12.41	-48.4	-50.9	14.3	7.00e-07	0	52	0	199229440	59	4870
2026-01-03 08:15:48.79	113.63	12.50	-48.4	-50.8	14.5	0.00e+00	0	52	0	201326592	59	4786
2026-01-03 08:15:49.77	113.56	12.59	-48.4	-50.8	14.5	1.50e-06	0	52	0	202375168	59	4782
2026-01-03 08:15:50.76	113.50	12.68	-48.6	-51.1	14.2	0.00e+00	0	52	0	204472320	59	4977
2026-01-03 08:15:51.74	113.43	12.77	-48.7	-51.3	14.0	2.20e-06	0	52	0	206569472	59	5059
2026-01-03 08:15:52.72	113.37	12.86	-48.6	-51.1	14.2	7.00e-07	0	52	0	208666624	59	4964
2026-01-03 08:15:53.71	113.30	12.95	-48.7	-51.2	14.1	2.20e-06	0	52	0	209715200	59	5000
2026-01-03 08:15:54.70	113.24	13.04	-48.8	-51.4	13.9	3.80e-06	0	52	0	211812352	59	5153
2026-01-03 08:15:55.70	113.17	13.14	-48.7	-51.3	14.0	4.50e-06	0	52	0	213909504	59	5060
2026-01-03 08:15:56.68	113.10	13.23	-48.5	-51.0	14.3	1.50e-06	0	52	0	216006656	59	4883
2026-01-03 08:15:57.67	113.03	13.32	-48.5	-50.9	14.4	0.00e+00	0	52	0	217055232	59	4844
2026-01-03 08:15:58.66	112.96	13.41	-48.5	-51.0	14.3	1.50e-06	0	52	0	219152384	59	4913
2026-01-03 08:15:59.66	112.89	13.51	-48.5	-51.0	14.3	1.50e-06	0	52	0	221249536	59	4892
2026-01-03 08:16:00.64	112.83	13.60	-48.5	-51.0	14.3	0.00e+00	0	52	0	223346688	59	4894
2026-01-03 08:16:01.64	112.76	13.70	-48.5	-51.0	14.3	7.00e-07	0	52	0	225443840	59	4885
2026-01-03 08:16:02.62	112.69	13.79	-48.3	-50.6	14.8	7.00e-07	0	52	0	226492416	59	4654
2026-01-03 08:16:03.61	112.61	13.88	-48.0	-50.2	15.1	0.00e+00	0	52	0	228589568	59	4471
2026-01-03 08:16:04.60	112.54	13.98	-47.9	-50.0	15.3	0.00e+00	0	52	0	230686720	59	4364
2026-01-03 08:16:05.59	112.47	14.07	-47.9	-50.1	15.3	0.00e+00	0	52	0	232783872	58	4661
2026-01-03 08:16:06.59	112.40	14.17	-48.0	-50.1	15.2	0.00e+00	0	52	0	233832448	58	4688
2026-01-03 08:16:07.58	112.33	14.27	-48.0	-50.1	15.3	0.00e+00	0	52	0	235929600	58	4684
2026-01-03 08:16:08.57	112.25	14.36	-47.7	-49.7	15.7	0.00e+00	0	52	0	238026752	58	4451
2026-01-03 08:16:09.56	112.18	14.46	-47.7	-49.7	15.6	0.00e+00	0	53	0	240123904	58	4491
2026-01-03 08:16:10.55	112.11	14.56	-47.9	-49.9	15.4	0.00e+00	0	52	0	241172480	58	4579
2026-01-03 08:16:11.54	112.03	14.65	-47.9	-49.9	15.5	0.00e+00	0	53	0	243269632	58	4577
2026-01-03 08:16:12.52	111.96	14.75	-47.8	-49.9	15.4	0.00e+00	0	52	0	245366784	58	4580
2026-01-03 08:16:13.51	111.88	14.85	-47.9	-50.0	15.4	7.00e-07	0	53	0	247463936	58	4619
2026-01-03 08:16:14.49	111.81	14.94	-48.0	-50.1	15.3	0.00e+00	0	53	0	249561088	58	4660
2026-01-03 08:16:15.49	111.73	15.04	-48.0	-50.1	15.3	7.00e-07	0	53	0	250609664	58	4693
2026-01-03 08:16:16.48	111.65	15.14	-47.9	-50.0	15.4	0.00e+00	0	53	0	252706816	58	4632
2026-01-03 08:16:17.46	111.57	15.24	-48.1	-50.2	15.2	0.00e+00	0	53	0	254803968	58	4729
2026-01-03 08:16:18.46	111.49	15.34	-48.2	-50.4	14.9	0.00e+00	0	53	0	256901120	58	4851
2026-01-03 08:16:19.46	111.41	15.44	-48.1	-50.3	15.1	0.00e+00	0	53	0	257949696	58	4785
2026-01-03 08:16:20.44	111.34	15.54	-48.1	-50.3	15.1	0.00e+00	0	53	0	260046848	58	4775
2026-01-03 08:16:21.44	111.25	15.64	-48.0	-50.2	15.2	0.00e+00	0	53	0	262144000	58	4721
2026-01-03 08:16:22.43	111.17	15.74	-48.4	-50.8	14.6	1.50e-06	0	53	0	264241152	58	5062
2026-01-03 08:16:23.43	111.09	15.85	-48.5	-50.9	14.5	7.00e-07	0	53	0	266338304	59	4855
2026-01-03 08:16:24.42	111.01	15.95	-48.2	-50.4	15.0	0.00e+00	0	53	0	267386880	59	4583
2026-01-03 08:16:25.41	110.93	16.05	-48.0	-50.1	15.3	0.00e+00	0	53	0	269484032	59	4420
2026-01-03 08:16:26.40	110.85	16.15	-48.2	-50.5	14.9	7.00e-07	0	53	0	271581184	59	4615
2026-01-03 08:16:27.38	110.76	16.25	-47.7	-49.7	15.6	0.00e+00	0	53	0	273678336	58	4493
2026-01-03 08:16:28.37	110.68	16.36	-47.8	-49.8	15.6	0.00e+00	0	53	0	274726912	58	4515
2026-01-03 08:16:29.36	110.59	16.46	-47.9	-49.9	15.5	0.00e+00	0	53	0	276824064	58	4564
2026-01-03 08:16:30.34	110.51	16.56	-47.8	-49.8	15.6	0.00e+00	0	53	0	278921216	58	4522
2026-01-03 08:16:31.33	110.42	16.67	-47.5	-49.4	16.0	0.00e+00	0	53	0	281018368	58	4332
2026-01-03 08:16:32.32	110.34	16.77	-47.5	-49.5	15.9	0.00e+00	0	53	0	282066944	58	4344
2026-01-03 08:16:33.31	110.25	16.88	-47.7	-49.8	15.6	0.00e+00	0	53	0	284164096	58	4523
2026-01-03 08:16:34.30	110.16	16.98	-48.0	-50.2	15.2	0.00e+00	0	53	0	286261248	58	4726
2026-01-03 08:16:35.29	110.07	17.09	-47.8	-49.9	15.5	0.00e+00	0	53	0	288358400	58	4565
2026-01-03 08:16:36.28	109.99	17.19	-48.1	-50.3	15.1	0.00e+00	0	53	0	289406976	58	4796
2026-01-03 08:16:37.27	109.90	17.30	-48.0	-50.1	15.2	0.00e+00	0	53	0	291504128	58	4696
2026-01-03 08:16:38.26	109.80	17.41	-48.0	-50.1	15.3	0.00e+00	0	53	0	293601280	58	4671
2026-01-03 08:16:39.25	109.71	17.52	-48.0	-50.2	15.3	0.00e+00	0	53	0	295698432	58	4706
2026-01-03 08:16:40.23	109.62	17.62	-48.0	-50.1	15.3	0.00e+00	0	53	0	297795584	58	4664
2026-01-03 08:16:41.21	109.53	17.73	-48.2	-50.4	15.1	0.00e+00	0	53	0	298844160	58	4826
2026-01-03 08:16:42.20	109.44	17.84	-48.5	-50.9	14.5	0.00e+00	0	53	0	300941312	58	5122
2026-01-03 08:16:43.19	109.35	17.95	-48.3	-50.6	14.9	0.00e+00	0	53	0	303038464	59	4654
2026-01-03 08:16:44.18	109.25	18.06	-48.3	-50.6	14.8	7.00e-07	0	53	0	305135616	59	4680
2026-01-03 08:16:45.17	109.16	18.17	-48.4	-50.8	14.7	0.00e+00	0	53	0	306184192	59	4765
2026-01-03 08:16:46.16	109.06	18.28	-48.3	-50.6	14.8	7.00e-07	0	53	0	308281344	59	4699
2026-01-03 08:16:47.15	108.96	18.39	-48.3	-50.6	14.8	7.00e-07	0	53	0	310378496	59	4691
2026-01-03 08:16:48.14	108.87	18.50	-48.1	-50.3	15.1	7.00e-07	0	53	0	312475648	59	4523
2026-01-03 08:16:49.12	108.77	18.61	-48.3	-50.6	14.8	0.00e+00	0	54	0	313524224	59	4663
2026-01-03 08:16:50.12	108.67	18.72	-48.4	-50.6	14.7	7.00e-07	0	53	0	315621376	59	4705
2026-01-03 08:16:51.10	108.57	18.83	-48.1	-50.3	15.1	0.00e+00	0	53	0	317718528	59	4509
2026-01-03 08:16:52.09	108.47	18.94	-48.1	-50.3	15.1	0.00e+00	0	54	0	319815680	59	4520
2026-01-03 08:16:53.08	108.37	19.06	-48.4	-50.8	14.6	0.00e+00	0	54	0	321912832	59	4793
2026-01-03 08:16:54.06	108.27	19.17	-48.4	-50.7	14.8	0.00e+00	0	54	0	322961408	59	4731
2026-01-03 08:16:55.05	108.17	19.28	-48.5	-50.9	14.5	7.00e-07	0	53	0	325058560	59	4840
2026-01-03 08:16:56.04	108.06	19.40	-48.4	-50.6	14.8	0.00e+00	0	54	0	327155712	59	4697
2026-01-03 08:16:57.03	107.96	19.51	-48.6	-51.0	14.5	0.00e+00	0	54	0	329252864	59	4891
2026-01-03 08:16:58.02	107.85	19.63	-48.6	-50.9	14.5	0.00e+00	0	54	0	330301440	59	4854
2026-01-03 08:16:59.01	107.75	19.74	-48.5	-50.8	14.6	2.20e-06	0	54	0	332398592	59	4805
2026-01-03 08:16:59.99	107.64	19.86	-48.7	-51.1	14.4	0.00e+00	0	54	0	334495744	59	4958
2026-01-03 08:17:00.98	107.53	19.98	-48.7	-51.2	14.3	1.50e-06	0	54	0	336592896	59	5020
2026-01-03 08:17:01.97	107.43	20.09	-48.1	-50.3	15.2	0.00e+00	0	54	0	337641472	59	4525
2026-01-03 08:17:02.96	107.32	20.21	-48.1	-50.3	15.1	0.00e+00	0	54	0	339738624	59	4542
2026-01-03 08:17:03.94	107.21	20.33	-48.3	-50.5	15.0	7.00e-07	0	54	0	341835776	59	4600
2026-01-03 08:17:04.92	107.10	20.44	-48.4	-50.6	14.8	0.00e+00	0	54	0	343932928	59	4699
2026-01-03 08:17:05.91	106.99	20.56	-48.3	-50.6	14.9	0.00e+00	0	54	0	344981504	59	4671
2026-01-03 08:17:06.90	106.87	20.68	-48.4	-50.8	14.8	7.00e-07	0	54	0	347078656	59	4764
2026-01-03 08:17:07.90	106.76	20.80	-48.6	-50.9	14.6	7.00e-07	0	54	0	349175808	59	4868
2026-01-03 08:17:08.88	106.65	20.92	-48.2	-50.5	15.0	0.00e+00	0	54	0	351272960	59	4634
2026-01-03 08:17:09.87	106.53	21.04	-48.0	-50.0	15.4	0.00e+00	0	54	0	353370112	59	4386
2026-01-03 08:17:10.86	106.41	21.16	-47.8	-49.9	15.6	0.00e+00	0	54	0	354418688	58	4546
2026-01-03 08:17:11.85	106.30	21.28	-47.9	-50.0	15.5	0.00e+00	0	54	0	356515840	58	4616
2026-01-03 08:17:12.84	106.18	21.40	-48.1	-50.2	15.2	0.00e+00	0	54	0	358612992	58	4757
2026-01-03 08:17:13.83	106.06	21.53	-48.2	-50.4	15.1	0.00e+00	0	54	0	360710144	58	4822
2026-01-03 08:17:14.83	105.94	21.65	-48.2	-50.3	15.2	0.00e+00	0	54	0	361758720	58	4808
2026-01-03 08:17:15.83	105.82	21.78	-48.5	-50.7	14.8	0.00e+00	0	54	0	363855872	58	5021
2026-01-03 08:17:16.82	105.69	21.90	-48.4	-50.7	14.8	0.00e+00	0	54	0	365953024	58	4988
2026-01-03 08:17:17.81	105.57	22.02	-48.3	-50.6	14.9	0.00e+00	0	54	0	368050176	59	4655
2026-01-03 08:17:18.79	105.45	22.15	-48.5	-50.8	14.7	0.00e+00	0	54	0	369098752	59	4812
2026-01-03 08:17:19.78	105.32	22.27	-48.5	-50.8	14.7	0.00e+00	0	54	0	371195904	59	4760
2026-01-03 08:17:20.76	105.20	22.40	-48.3	-50.6	14.9	0.00e+00	0	54	0	373293056	59	4669
2026-01-03 08:17:21.75	105.07	22.52	-48.7	-51.2	14.3	2.20e-06	0	54	0	375390208	59	4997
2026-01-03 08:17:22.74	104.94	22.65	-48.6	-51.0	14.5	7.00e-07	0	54	0	377487360	59	4909
2026-01-03 08:17:23.74	104.81	22.78	-48.6	-50.9	14.5	7.00e-07	0	54	0	378535936	59	4862
2026-01-03 08:17:24.73	104.68	22.90	-48.4	-50.7	14.9	0.00e+00	0	54	0	380633088	59	4706
2026-01-03 08:17:25.72	104.55	23.03	-48.4	-50.7	14.8	0.00e+00	0	54	0	382730240	59	4748
2026-01-03 08:17:26.71	104.42	23.16	-48.2	-50.4	15.1	0.00e+00	0	54	0	384827392	59	4592
2026-01-03 08:17:27.70	104.28	23.29	-48.2	-50.5	15.1	0.00e+00	0	54	0	385875968	59	4606
2026-01-03 08:17:28.68	104.15	23.42	-48.1	-50.3	15.2	0.00e+00	0	54	0	387973120	59	4508
2026-01-03 08:17:29.67	104.02	23.55	-48.2	-50.4	15.0	0.00e+00	0	54	0	390070272	59	4598
2026-01-03 08:17:30.66	103.88	23.68	-48.3	-50.6	14.9	0.00e+00	0	54	0	392167424	59	4675
2026-01-03 08:17:31.65	103.74	23.81	-48.6	-51.0	14.5	0.00e+00	0	54	0	393216000	59	4921
2026-01-03 08:17:32.64	103.60	23.94	-48.7	-51.1	14.5	0.00e+00	0	54	0	395313152	59	4981
2026-01-03 08:17:33.63	103.46	24.07	-49.0	-51.7	13.9	3.80e-06	0	54	0	397410304	59	5284
2026-01-03 08:17:34.61	103.32	24.20	-48.9	-51.5	14.1	3.00e-06	0	54	0	399507456	59	5170
2026-01-03 08:17:35.61	103.18	24.33	-48.8	-51.3	14.3	3.00e-06	0	54	0	401604608	59	5070
2026-01-03 08:17:36.59	103.03	24.47	-48.7	-51.2	14.3	1.50e-06	0	54	0	402653184	59	5017
2026-01-03 08:17:37.58	102.89	24.60	-48.7	-51.1	14.4	7.00e-07	0	54	0	404750336	59	4971
2026-01-03 08:17:38.57	102.74	24.73	-48.6	-51.1	14.4	7.00e-07	0	54	0	406847488	59	4952
2026-01-03 08:17:39.56	102.59	24.87	-48.7	-51.2	14.4	0.00e+00	0	54	0	408944640	59	4997
2026-01-03 08:17:40.55	102.44	25.00	-48.8	-51.4	14.1	7.00e-07	0	54	0	409993216	59	5131
2026-01-03 08:17:41.55	102.29	25.14	-48.8	-51.4	14.1	3.80e-06	0	54	0	412090368	60	4861
2026-01-03 08:17:42.54	102.14	25.27	-48.7	-51.2	14.3	3.80e-06	0	54	0	414187520	60	4735
2026-01-03 08:17:43.53	101.98	25.41	-48.4	-50.8	14.7	0.00e+00	0	54	0	416284672	59	4777
2026-01-03 08:17:44.53	101.83	25.55	-48.5	-51.0	14.5	7.00e-07	0	55	0	418381824	59	4892
2026-01-03 08:17:45.51	101.67	25.68	-48.8	-51.3	14.2	7.00e-07	0	54	0	419430400	59	5091
2026-01-03 08:17:46.51	101.51	25.82	-49.1	-52.0	13.5	4.50e-06	0	54	0	421527552	60	5188
2026-01-03 08:17:47.50	101.36	25.96	-49.1	-51.9	13.6	0.00e+00	0	54	0	423624704	60	5127
2026-01-03 08:17:48.49	101.20	26.10	-49.1	-52.0	13.5	1.67e-05	0	54	0	425721856	60	5194
2026-01-03 08:17:49.48	101.03	26.24	-49.2	-52.2	13.4	3.73e-05	0	55	0	426770432	60	5296
2026-01-03 08:17:50.48	100.87	26.38	-49.0	-52.0	13.6	1.90e-05	0	54	0	428867584	60	5165
2026-01-03 08:17:51.46	100.71	26.52	-48.7	-51.3	14.3	6.10e-06	0	54	0	430964736	60	4793
2026-01-03 08:17:52.45	100.54	26.66	-48.6	-51.1	14.4	3.80e-06	0	54	0	433061888	60	4669
2026-01-03 08:17:53.44	100.37	26.80	-48.5	-50.8	14.7	0.00e+00	0	54	0	434110464	60	4530
2026-01-03 08:17:54.42	100.21	26.94	-48.8	-51.4	14.1	7.00e-07	0	54	0	436207616	59	5142
2026-01-03 08:17:55.41	100.03	27.08	-48.5	-51.0	14.6	0.00e+00	0	54	0	438304768	59	4873
2026-01-03 08:17:56.40	99.86	27.22	-48.5	-50.8	14.8	7.00e-07	0	55	0	440401920	59	4767
2026-01-03 08:17:57.39	99.69	27.37	-48.5	-50.7	14.8	3.80e-06	0	55	0	442499072	59	4758
2026-01-03 08:17:58.38	99.51	27.51	-48.5	-50.9	14.6	0.00e+00	0	54	0	443547648	59	4830
2026-01-03 08:17:59.37	99.34	27.65	-48.6	-51.0	14.6	0.00e+00	0	55	0	445644800	59	4882
2026-01-03 08:18:00.37	99.16	27.80	-48.6	-51.0	14.5	1.50e-06	0	55	0	447741952	59	4902
2026-01-03 08:18:01.36	98.98	27.94	-48.7	-51.1	14.5	0.00e+00	0	55	0	449839104	59	4950
2026-01-03 08:18:02.35	98.79	28.09	-49.0	-51.7	13.9	7.00e-07	0	55	0	450887680	59	5329
2026-01-03 08:18:03.33	98.61	28.23	-48.8	-51.6	14.0	1.50e-06	0	55	0	452984832	60	4928
2026-01-03 08:18:04.32	98.43	28.38	-49.1	-52.0	13.6	3.80e-06	0	55	0	455081984	60	5174
2026-01-03 08:18:05.31	98.24	28.53	-48.9	-51.6	13.9	5.30e-06	0	55	0	457179136	60	4931
2026-01-03 08:18:06.29	98.05	28.67	-49.1	-52.1	13.5	4.50e-06	0	55	0	458227712	60	5247
2026-01-03 08:18:07.29	97.86	28.82	-49.2	-52.1	13.5	1.44e-05	0	55	0	460324864	60	5225
2026-01-03 08:18:08.27	97.67	28.97	-49.1	-52.0	13.5	3.05e-05	0	55	0	462422016	60	5218
2026-01-03 08:18:09.26	97.48	29.11	-49.3	-52.3	13.2	8.30e-06	0	55	0	464519168	60	5400
2026-01-03 08:18:10.26	97.28	29.26	-49.6	-52.9	12.6	3.81e-05	0	55	0	465567744	60	5787
2026-01-03 08:18:11.24	97.08	29.41	-49.5	-52.7	12.9	5.11e-05	0	55	0	467664896	61	5310
2026-01-03 08:18:12.23	96.88	29.56	-49.5	-52.7	12.8	4.27e-05	0	55	0	469762048	61	5320
2026-01-03 08:18:13.21	96.68	29.71	-49.7	-53.1	12.5	6.02e-05	0	55	0	471859200	61	5555
2026-01-03 08:18:14.20	96.48	29.86	-49.3	-52.3	13.2	1.60e-05	0	55	0	473956352	61	5092
2026-01-03 08:18:15.19	96.27	30.01	-49.2	-52.1	13.4	1.22e-05	0	55	0	475004928	61	4981
2026-01-03 08:18:16.18	96.07	30.16	-49.3	-52.5	13.1	4.04e-05	0	55	0	477102080	61	5188
2026-01-03 08:18:17.16	95.86	30.31	-49.5	-52.7	12.9	3.66e-05	0	55	0	479199232	61	5301
2026-01-03 08:18:18.15	95.65	30.46	-49.6	-53.0	12.4	8.16e-05	0	55	0	481296384	61	5466
2026-01-03 08:18:19.14	95.44	30.61	-49.6	-52.8	12.7	1.16e-04	0	55	0	482344960	62	5066
2026-01-03 08:18:20.13	95.22	30.76	-49.6	-52.9	12.7	5.79e-05	0	55	0	484442112	62	5111
2026-01-03 08:18:21.12	95.00	30.91	-49.9	-53.7	11.8	8.69e-05	0	55	0	486539264	62	5634
2026-01-03 08:18:22.11	94.78	31.07	-49.7	-53.2	12.4	1.01e-04	0	55	0	488636416	62	5286
2026-01-03 08:18:23.10	94.56	31.22	-49.6	-52.9	12.7	5.56e-05	0	55	0	489684992	62	5125
2026-01-03 08:18:24.10	94.34	31.37	-49.5	-52.5	13.0	9.61e-05	0	55	0	491782144	62	4896
2026-01-03 08:18:25.09	94.11	31.53	-49.4	-52.3	13.2	2.13e-05	0	55	0	493879296	61	5086
2026-01-03 08:18:26.08	93.88	31.68	-49.3	-52.4	13.3	1.06e-05	0	55	0	495976448	61	5103
2026-01-03 08:18:27.07	93.65	31.84	-49.4	-52.5	13.1	2.67e-05	0	55	0	498073600	61	5206
2026-01-03 08:18:28.05	93.42	31.99	-49.7	-53.1	12.5	5.18e-05	0	55	0	499122176	61	5536
2026-01-03 08:18:29.04	93.19	32.14	-49.9	-53.5	12.0	1.29e-04	0	55	0	501219328	61	5838
2026-01-03 08:18:30.02	92.96	32.30	-50.1	-53.7	11.8	1.92e-04	0	55	0	503316480	61	5963
2026-01-03 08:18:31.01	92.72	32.45	-50.0	-53.7	11.9	4.68e-04	0	55	0	505413632	62	5602
2026-01-03 08:18:32.01	92.47	32.61	-50.1	-53.8	11.7	5.85e-04	0	55	0	506462208	62	5687
2026-01-03 08:18:33.00	92.23	32.76	-50.4	-54.3	11.2	6.07e-04	0	55	0	508559360	62	6049
2026-01-03 08:18:33.99	91.98	32.92	-50.0	-53.7	11.8	4.05e-04	0	55	0	510656512	62	5633
2026-01-03 08:18:34.98	91.73	33.08	-49.7	-53.0	12.5	1.30e-04	0	55	0	512753664	62	5199
2026-01-03 08:18:35.97	91.48	33.23	-49.8	-53.2	12.2	1.24e-04	0	55	0	514850816	62	5339
2026-01-03 08:18:36.96	91.23	33.39	-49.8	-53.2	12.3	1.23e-04	0	55	0	515899392	62	5288
2026-01-03 08:18:37.95	90.97	33.55	-50.1	-53.7	11.8	2.33e-04	0	55	0	517996544	62	5648
2026-01-03 08:18:38.95	90.71	33.70	-50.3	-54.2	11.3	8.70e-04	0	55	0	520093696	62	5945
2026-01-03 08:18:39.95	90.45	33.86	-50.3	-54.6	11.0	1.43e-03	0	55	0	522190848	62	6260
2026-01-03 08:18:40.93	90.19	34.02	-50.7	-55.1	10.4	3.25e-03	0	55	0	523239424	63	6218
2026-01-03 08:18:41.92	89.92	34.17	-50.4	-54.4	11.1	1.97e-03	0	55	0	525336576	63	5774
2026-01-03 08:18:42.91	89.65	34.33	-50.2	-54.3	11.3	1.03e-03	0	55	0	527433728	63	5669
2026-01-03 08:18:43.90	89.38	34.49	-50.1	-53.6	12.0	5.59e-04	0	55	0	529530880	62	5573
2026-01-03 08:18:44.89	89.11	34.65	-50.3	-53.9	11.6	2.49e-04	0	55	0	530579456	62	5761
2026-01-03 08:18:45.88	88.83	34.80	-49.7	-52.9	12.7	1.78e-04	0	55	0	532676608	62	5132
2026-01-03 08:18:46.86	88.56	34.96	-49.3	-52.0	13.5	1.52e-05	0	55	0	534773760	61	4909
2026-01-03 08:18:47.85	88.27	35.12	-49.1	-51.7	13.9	2.20e-06	0	55	0	536870912	61	4748
2026-01-03 08:18:48.84	87.99	35.27	-49.1	-51.8	13.8	3.80e-06	0	55	0	538968064	61	4800
2026-01-03 08:18:49.84	87.70	35.43	-49.3	-52.0	13.6	2.20e-06	0	55	0	540016640	60	5171
2026-01-03 08:18:50.83	87.41	35.59	-49.1	-51.8	13.8	6.80e-06	0	55	0	542113792	60	5068
2026-01-03 08:18:51.81	87.12	35.74	-48.7	-51.3	14.4	4.50e-06	0	55	0	544210944	60	4768
2026-01-03 08:18:52.79	86.83	35.90	-48.6	-51.0	14.6	0.00e+00	0	55	0	546308096	60	4637
2026-01-03 08:18:53.79	86.52	36.06	-48.5	-50.8	14.8	7.00e-07	0	55	0	547356672	59	4802
2026-01-03 08:18:54.77	86.22	36.21	-48.6	-51.1	14.5	0.00e+00	0	55	0	549453824	59	4940
2026-01-03 08:18:55.76	85.92	36.37	-49.3	-52.4	13.1	1.50e-06	0	55	0	551550976	60	5436
2026-01-03 08:18:56.75	85.61	36.53	-49.7	-53.0	12.6	6.17e-05	0	55	0	553648128	61	5509
2026-01-03 08:18:57.74	85.30	36.68	-49.7	-53.1	12.5	1.13e-04	0	55	0	554696704	61	5557
2026-01-03 08:18:58.72	84.99	36.84	-49.3	-52.3	13.2	8.92e-05	0	55	0	556793856	61	5097
2026-01-03 08:18:59.72	84.67	36.99	-49.4	-52.4	13.1	1.44e-05	0	55	0	558891008	61	5139
2026-01-03 08:19:00.71	84.35	37.15	-49.4	-52.6	13.0	3.73e-05	0	55	0	560988160	61	5225
2026-01-03 08:19:01.71	84.03	37.30	-49.9	-53.6	12.0	1.21e-04	0	55	0	562036736	61	5860
2026-01-03 08:19:02.70	83.70	37.46	-49.9	-53.7	11.9	4.04e-04	0	55	0	564133888	62	5616
2026-01-03 08:19:03.69	83.37	37.61	-49.7	-53.0	12.6	1.23e-04	0	55	0	566231040	62	5174
2026-01-03 08:19:04.68	83.04	37.77	-49.1	-52.0	13.6	2.13e-05	0	55	0	568328192	61	4890
2026-01-03 08:19:05.67	82.70	37.92	-49.1	-51.8	13.9	6.10e-06	0	55	0	570425344	60	5061
2026-01-03 08:19:06.66	82.36	38.07	-49.1	-51.8	13.8	3.00e-06	0	55	0	571473920	60	5071
2026-01-03 08:19:07.65	82.02	38.23	-49.2	-52.0	13.6	6.80e-06	0	55	0	573571072	60	5194
2026-01-03 08:19:08.64	81.68	38.38	-49.5	-52.8	12.8	1.83e-05	0	55	0	575668224	61	5376
2026-01-03 08:19:09.64	81.33	38.53	-50.1	-53.8	11.7	2.96e-04	0	55	0	577765376	62	5704
2026-01-03 08:19:10.63	80.97	38.68	-50.3	-54.4	11.1	1.17e-03	0	55	0	578813952	62	6130
2026-01-03 08:19:11.62	80.62	38.83	-50.5	-54.8	10.7	2.79e-03	0	55	0	580911104	62	6386
2026-01-03 08:19:12.61	80.26	38.98	-50.3	-54.5	11.0	2.19e-03	0	55	0	583008256	62	6165
2026-01-03 08:19:13.60	79.90	39.13	-50.1	-54.0	11.5	1.58e-03	0	55	0	585105408	62	5796
2026-01-03 08:19:14.59	79.54	39.28	-49.6	-53.0	12.6	1.11e-04	0	55	0	587202560	62	5176
2026-01-03 08:19:15.58	79.17	39.43	-49.4	-52.4	13.2	5.11e-05	0	56	0	588251136	61	5156
2026-01-03 08:19:16.56	78.80	39.57	-49.3	-52.2	13.4	1.52e-05	0	55	0	590348288	61	5031
2026-01-03 08:19:17.54	78.43	39.72	-49.2	-52.1	13.5	1.52e-05	0	56	0	592445440	61	4954
2026-01-03 08:19:18.54	78.05	39.87	-49.5	-52.6	13.0	1.83e-05	0	56	0	594542592	61	5237
2026-01-03 08:19:19.52	77.67	40.01	-49.9	-53.5	12.1	1.88e-04	0	55	0	595591168	61	5850
2026-01-03 08:19:20.52	77.28	40.16	-49.7	-52.9	12.6	1.68e-04	0	55	0	597688320	61	5459
2026-01-03 08:19:21.51	76.89	40.30	-49.6	-52.7	12.8	9.76e-05	0	56	0	599785472	61	5321
2026-01-03 08:19:22.49	76.50	40.44	-49.6	-52.6	13.0	3.96e-05	0	55	0	601882624	61	5253
2026-01-03 08:19:23.48	76.11	40.58	-49.3	-52.1	13.5	2.05e-05	0	55	0	602931200	61	4970
2026-01-03 08:19:24.47	75.71	40.72	-49.2	-51.9	13.6	1.14e-05	0	55	0	605028352	61	4859
2026-01-03 08:19:25.46	75.31	40.86	-49.4	-52.4	13.2	1.06e-05	0	56	0	607125504	61	5115
2026-01-03 08:19:26.45	74.90	41.00	-49.5	-52.8	12.8	4.57e-05	0	55	0	609222656	61	5347
2026-01-03 08:19:27.44	74.49	41.13	-49.6	-52.8	12.8	4.34e-05	0	55	0	611319808	61	5392
2026-01-03 08:19:28.43	74.08	41.27	-49.7	-52.8	12.8	3.58e-05	0	56	0	612368384	61	5395
2026-01-03 08:19:29.41	73.67	41.40	-49.5	-52.7	12.9	7.47e-05	0	56	0	614465536	61	5294
2026-01-03 08:19:30.40	73.25	41.53	-49.4	-52.4	13.2	5.64e-05	0	55	0	616562688	61	5101
2026-01-03 08:19:31.39	72.82	41.67	-48.4	-50.8	14.8	5.30e-06	0	55	0	618659840	60	4513
2026-01-03 08:19:32.37	72.40	41.80	-48.1	-50.3	15.3	0.00e+00	0	56	0	619708416	59	4519
2026-01-03 08:19:33.35	71.98	41.92	-48.1	-50.2	15.4	0.00e+00	0	56	0	621805568	59	4446
2026-01-03 08:19:34.34	71.54	42.05	-48.2	-50.4	15.2	0.00e+00	0	56	0	623902720	59	4550
2026-01-03 08:19:35.33	71.11	42.18	-48.2	-50.4	15.1	0.00e+00	0	56	0	625999872	59	4568
2026-01-03 08:19:36.32	70.67	42.30	-47.4	-49.2	16.3	0.00e+00	0	56	0	627048448	57	4453
2026-01-03 08:19:37.32	70.22	42.43	-47.0	-48.6	16.9	0.00e+00	0	55	0	629145600	57	4174
2026-01-03 08:19:38.31	69.77	42.55	-47.1	-48.8	16.7	0.00e+00	0	56	0	631242752	57	4284
2026-01-03 08:19:39.30	69.32	42.67	-47.5	-49.5	16.1	0.00e+00	0	56	0	633339904	57	4627
2026-01-03 08:19:40.29	68.87	42.79	-47.6	-49.6	16.0	0.00e+00	0	56	0	635437056	57	4705
2026-01-03 08:19:41.28	68.41	42.90	-47.5	-49.5	16.1	0.00e+00	0	56	0	636485632	57	4622
2026-01-03 08:19:42.27	67.95	43.02	-47.8	-49.8	15.8	0.00e+00	0	56	0	638582784	57	4805
2026-01-03 08:19:43.26	67.48	43.13	-48.0	-50.2	15.3	0.00e+00	0	56	0	640679936	58	4724
2026-01-03 08:19:44.25	67.02	43.24	-48.3	-50.6	15.0	0.00e+00	0	56	0	642777088	58	4948
2026-01-03 08:19:45.24	66.55	43.35	-48.4	-50.8	14.7	0.00e+00	0	56	0	643825664	58	5079
2026-01-03 08:19:46.23	66.07	43.46	-48.8	-51.3	14.3	0.00e+00	0	56	0	645922816	59	5079
2026-01-03 08:19:47.21	65.60	43.57	-48.8	-51.4	14.1	2.20e-06	0	55	0	648019968	59	5147
2026-01-03 08:19:48.20	65.12	43.67	-48.7	-51.3	14.2	7.00e-07	0	56	0	650117120	59	5059
2026-01-03 08:19:49.19	64.64	43.77	-48.7	-51.4	14.2	0.00e+00	0	56	0	651165696	59	5102
2026-01-03 08:19:50.18	64.15	43.87	-48.9	-51.7	13.8	1.50e-06	0	56	0	653262848	59	5309
2026-01-03 08:19:51.16	63.67	43.97	-49.0	-52.0	13.6	3.00e-06	0	56	0	655360000	59	5474
2026-01-03 08:19:52.16	63.17	44.07	-49.2	-52.3	13.3	9.10e-06	0	56	0	657457152	60	5356
2026-01-03 08:19:53.15	62.67	44.16	-48.9	-51.8	13.7	8.30e-06	0	56	0	658505728	60	5067
2026-01-03 08:19:54.13	62.18	44.25	-48.9	-51.6	13.8	3.00e-06	0	56	0	660602880	60	4967
2026-01-03 08:19:55.13	61.68	44.34	-48.9	-51.5	14.0	3.80e-06	0	56	0	662700032	60	4915
2026-01-03 08:19:56.12	61.17	44.43	-48.3	-50.4	15.2	0.00e+00	0	56	0	664797184	59	4576
2026-01-03 08:19:57.11	60.67	44.51	-47.9	-49.9	15.7	0.00e+00	0	56	0	666894336	58	4573
2026-01-03 08:19:58.10	60.16	44.60	-47.8	-49.8	15.8	0.00e+00	0	56	0	667942912	58	4509
2026-01-03 08:19:59.09	59.65	44.68	-48.3	-50.5	15.0	0.00e+00	0	56	0	670040064	58	4906
2026-01-03 08:20:00.08	59.13	44.75	-48.4	-50.6	15.2	0.00e+00	0	56	0	672137216	59	4668
2026-01-03 08:20:01.06	58.62	44.83	-48.3	-50.5	15.2	0.00e+00	0	56	0	674234368	59	4607
2026-01-03 08:20:02.06	58.10	44.90	-48.8	-51.2	14.4	0.00e+00	0	56	0	675282944	59	5023
2026-01-03 08:20:03.05	57.57	44.97	-49.4	-52.4	13.1	1.37e-05	0	56	0	677380096	60	5461
2026-01-03 08:20:04.05	57.05	45.04	-50.1	-53.9	11.8	2.58e-04	0	56	0	679477248	62	5748
2026-01-03 08:20:05.04	56.52	45.10	-50.1	-53.8	11.7	5.96e-04	0	56	0	681574400	62	5699
2026-01-03 08:20:06.03	55.99	45.17	-49.7	-53.1	12.4	1.82e-04	0	56	0	683671552	62	5257
2026-01-03 08:20:07.02	55.46	45.23	-49.4	-52.5	13.1	3.89e-05	0	56	0	684720128	61	5193
2026-01-03 08:20:08.01	54.93	45.28	-48.9	-51.8	13.6	1.44e-05	0	56	0	686817280	61	4765
2026-01-03 08:20:09.00	54.40	45.34	-48.7	-51.2	14.3	0.00e+00	0	56	0	688914432	60	4755
2026-01-03 08:20:09.99	53.86	45.39	-48.6	-51.2	14.4	7.00e-07	0	56	0	691011584	60	4729
2026-01-03 08:20:10.98	53.32	45.44	-48.5	-51.0	14.7	1.50e-06	0	56	0	692060160	60	4624
2026-01-03 08:20:11.97	52.78	45.49	-48.7	-51.2	14.4	0.00e+00	0	56	0	694157312	60	4736
2026-01-03 08:20:12.97	52.24	45.53	-48.8	-51.4	14.2	7.00e-07	0	56	0	696254464	60	4834
2026-01-03 08:20:13.96	51.70	45.57	-49.4	-52.5	13.0	4.50e-06	0	56	0	698351616	60	5502
2026-01-03 08:20:14.94	51.16	45.61	-50.0	-53.7	11.8	1.59e-04	0	56	0	699400192	61	5955
2026-01-03 08:20:15.94	50.61	45.64	-50.0	-53.7	11.9	4.32e-04	0	56	0	701497344	62	5654
2026-01-03 08:20:16.93	50.06	45.67	-49.8	-53.5	12.1	4.41e-04	0	56	0	703594496	62	5495
2026-01-03 08:20:17.92	49.51	45.70	-50.0	-53.8	11.9	3.74e-04	0	56	0	705691648	62	5676
2026-01-03 08:20:18.91	48.97	45.73	-50.1	-53.8	11.7	4.78e-04	0	56	0	707788800	62	5721
2026-01-03 08:20:19.91	48.41	45.75	-49.6	-53.0	12.7	1.59e-04	0	56	0	708837376	62	5184
2026-01-03 08:20:20.89	47.87	45.77	-49.4	-52.6	12.6	5.03e-05	0	56	0	710934528	62	4978
2026-01-03 08:20:21.88	47.32	45.79	-49.4	-52.8	12.7	2.67e-05	0	56	0	713031680	61	5379
2026-01-03 08:20:22.87	46.77	45.81	-49.5	-52.7	12.8	4.11e-05	0	56	0	715128832	61	5311
2026-01-03 08:20:23.85	46.22	45.82	-49.3	-52.5	13.0	3.50e-05	0	56	0	716177408	61	5198
2026-01-03 08:20:24.84	45.67	45.83	-49.7	-53.5	12.1	8.54e-05	0	56	0	718274560	61	5804
2026-01-03 08:20:25.83	45.12	45.83	-49.7	-53.4	12.1	2.01e-04	0	56	0	720371712	61	5744
2026-01-03 08:20:26.82	44.57	45.84	-49.2	-52.4	13.1	1.42e-04	0	56	0	722468864	61	5116
2026-01-03 08:20:27.81	44.02	45.84	-48.6	-51.1	14.5	6.10e-06	0	56	0	723517440	60	4667
2026-01-03 08:20:28.80	43.46	45.83	-48.2	-50.4	15.1	0.00e+00	0	56	0	725614592	59	4567
2026-01-03 08:20:29.79	42.91	45.83	-48.5	-50.9	14.7	0.00e+00	0	56	0	727711744	59	4839
2026-01-03 08:20:30.77	42.37	45.82	-48.6	-51.2	14.4	7.00e-07	0	56	0	729808896	59	5030
2026-01-03 08:20:31.76	41.82	45.81	-49.0	-51.8	13.7	1.50e-06	0	56	0	731906048	60	5088
2026-01-03 08:20:32.75	41.27	45.79	-49.3	-52.5	13.0	5.30e-06	0	56	0	732954624	60	5469
2026-01-03 08:20:33.73	40.72	45.78	-49.8	-53.4	12.1	1.37e-04	0	56	0	735051776	61	5770
2026-01-03 08:20:34.73	40.17	45.76	-49.3	-52.5	12.9	1.04e-04	0	56	0	737148928	61	5184
2026-01-03 08:20:35.72	39.62	45.73	-48.7	-51.4	14.1	9.10e-06	0	56	0	739246080	60	4824
2026-01-03 08:20:36.70	39.08	45.71	-48.8	-51.6	13.9	2.20e-06	0	56	0	740294656	60	4974
2026-01-03 08:20:37.69	38.53	45.68	-49.1	-52.2	13.4	1.14e-05	0	56	0	742391808	60	5281
2026-01-03 08:20:38.69	37.98	45.65	-49.0	-51.9	13.7	4.50e-06	0	56	0	744488960	60	5130
2026-01-03 08:20:39.67	37.44	45.61	-48.7	-51.5	14.2	2.20e-06	0	56	0	746586112	60	4877
2026-01-03 08:20:40.67	36.89	45.57	-48.9	-51.9	13.7	4.50e-06	0	56	0	748683264	60	5112
2026-01-03 08:20:41.66	36.35	45.53	-49.3	-52.6	12.9	2.36e-05	0	56	0	749731840	60	5587
2026-01-03 08:20:42.64	35.81	45.49	-49.2	-52.6	13.1	3.50e-05	0	56	0	751828992	60	5549
2026-01-03 08:20:43.62	35.28	45.45	-49.5	-52.9	12.7	5.41e-05	0	56	0	753926144	60	5739
2026-01-03 08:20:44.61	34.74	45.40	-49.0	-52.0	13.5	1.22e-05	0	56	0	754974720	60	5215
2026-01-03 08:20:45.60	34.21	45.35	-48.4	-50.9	14.6	6.80e-06	0	56	0	757071872	60	4556
2026-01-03 08:20:46.59	33.67	45.29	-48.3	-50.5	15.1	0.00e+00	0	56	0	759169024	59	4610
2026-01-03 08:20:47.58	33.14	45.24	-48.9	-51.4	14.2	0.00e+00	0	56	0	761266176	59	5145
2026-01-03 08:20:48.57	32.61	45.18	-49.2	-52.2	13.5	8.30e-06	0	56	0	763363328	60	5300
2026-01-03 08:20:49.55	32.09	45.11	-49.3	-52.4	13.2	2.59e-05	0	56	0	764411904	60	5423
2026-01-03 08:20:50.54	31.56	45.05	-49.1	-51.9	13.7	1.29e-05	0	56	0	766509056	60	5137
2026-01-03 08:20:51.53	31.04	44.98	-49.0	-51.8	13.8	5.30e-06	0	56	0	768606208	60	5069
2026-01-03 08:20:52.52	30.52	44.91	-49.1	-51.9	13.7	6.80e-06	0	56	0	770703360	60	5110
2026-01-03 08:20:53.50	30.00	44.84	-49.4	-52.5	13.1	4.19e-05	0	56	0	771751936	60	5501
2026-01-03 08:20:54.49	29.49	44.77	-49.5	-52.6	12.9	3.96e-05	0	56	0	773849088	60	5570
2026-01-03 08:20:55.47	28.98	44.69	-49.2	-52.2	13.2	1.37e-05	0	56	0	775946240	60	5297
2026-01-03 08:20:56.46	28.47	44.61	-49.5	-52.8	12.8	1.14e-05	0	56	0	778043392	60	5682
2026-01-03 08:20:57.46	27.95	44.53	-49.7	-53.2	12.4	7.24e-05	0	56	0	779091968	61	5608
2026-01-03 08:20:58.45	27.45	44.44	-49.5	-53.0	12.5	1.35e-04	0	56	0	781189120	61	5512
2026-01-03 08:20:59.44	26.94	44.36	-49.4	-52.7	12.9	1.28e-04	0	56	0	783286272	61	5285
2026-01-03 08:21:00.43	26.44	44.27	-49.2	-52.3	13.3	3.28e-05	0	56	0	785383424	61	5075
2026-01-03 08:21:01.42	25.94	44.18	-49.4	-52.6	13.0	7.40e-05	0	56	0	787480576	61	5228
2026-01-03 08:21:02.41	25.45	44.09	-49.8	-53.3	12.4	5.11e-05	0	56	0	788529152	61	5657
2026-01-03 08:21:03.40	24.96	43.99	-50.0	-53.8	11.7	7.17e-04	0	56	0	790626304	62	5710
2026-01-03 08:21:04.38	24.47	43.89	-49.0	-51.7	13.9	4.11e-05	0	56	0	792723456	61	4745
2026-01-03 08:21:05.37	23.99	43.79	-48.0	-50.2	15.4	0.00e+00	0	56	0	794820608	59	4453
2026-01-03 08:21:06.35	23.51	43.69	-47.9	-49.9	15.6	0.00e+00	0	56	0	795869184	58	4575
2026-01-03 08:21:07.34	23.03	43.59	-47.7	-49.8	15.8	0.00e+00	0	56	0	797966336	58	4498
2026-01-03 08:21:08.33	22.55	43.48	-48.2	-50.5	15.1	0.00e+00	0	56	0	800063488	58	4874
2026-01-03 08:21:09.32	22.08	43.38	-48.9	-51.7	13.9	2.20e-06	0	56	0	802160640	59	5319
2026-01-03 08:21:10.31	21.61	43.27	-49.1	-52.2	13.4	3.80e-06	0	56	0	803209216	60	5306
2026-01-03 08:21:11.30	21.14	43.16	-48.5	-51.2	14.3	3.00e-06	0	56	0	805306368	60	4707
2026-01-03 08:21:12.29	20.67	43.04	-47.7	-49.7	15.8	0.00e+00	0	56	0	807403520	58	4488
2026-01-03 08:21:13.28	20.21	42.93	-47.7	-49.7	15.9	0.00e+00	0	56	0	809500672	58	4448
2026-01-03 08:21:14.27	19.76	42.81	-48.3	-50.6	15.0	0.00e+00	0	56	0	811597824	58	4966
2026-01-03 08:21:15.26	19.30	42.69	-48.2	-50.6	15.0	7.00e-07	0	56	0	812646400	58	4954
2026-01-03 08:21:16.26	18.85	42.57	-47.7	-49.8	15.8	0.00e+00	0	56	0	814743552	58	4495
2026-01-03 08:21:17.25	18.40	42.45	-47.1	-48.8	16.7	0.00e+00	0	56	0	816840704	57	4280
2026-01-03 08:21:18.24	17.96	42.33	-46.8	-48.4	17.1	0.00e+00	0	56	0	818937856	56	4333
2026-01-03 08:21:19.23	17.52	42.21	-46.8	-48.5	17.1	0.00e+00	0	56	0	819986432	56	4349
2026-01-03 08:21:20.22	17.08	42.08	-46.2	-47.6	17.8	0.00e+00	0	56	0	822083584	55	4188
2026-01-03 08:21:21.21	16.65	41.95	-45.8	-47.1	18.2	0.00e+00	0	56	0	824180736	54	4186
2026-01-03 08:21:22.20	16.22	41.82	-45.4	-46.6	18.7	0.00e+00	0	56	0	826277888	53	4191
2026-01-03 08:21:23.18	15.79	41.69	-45.4	-46.6	18.7	0.00e+00	0	56	0	828375040	53	4177
2026-01-03 08:21:24.18	15.37	41.56	-45.5	-46.7	18.6	0.00e+00	0	56	0	829423616	53	4235
2026-01-03 08:21:25.16	14.95	41.43	-45.7	-46.9	18.4	0.00e+00	0	56	0	831520768	53	4336
2026-01-03 08:21:26.15	14.53	41.30	-46.0	-47.4	18.0	0.00e+00	0	56	0	833617920	53	4574
2026-01-03 08:21:27.15	14.12	41.16	-46.3	-47.8	17.6	0.00e+00	0	56	0	835715072	54	4522
2026-01-03 08:21:28.13	13.71	41.03	-45.9	-47.3	18.1	0.00e+00	0	56	0	836763648	54	4259
2026-01-03 08:21:29.12	13.31	40.89	-45.8	-47.1	18.2	0.00e+00	0	56	0	838860800	54	4168
2026-01-03 08:21:30.11	12.91	40.75	-45.7	-46.9	18.4	0.00e+00	0	56	0	840957952	54	4084
2026-01-03 08:21:31.10	12.51	40.61	-45.9	-47.3	18.0	0.00e+00	0	56	0	843055104	54	4288
2026-01-03 08:21:32.08	12.11	40.47	-46.3	-47.7	17.7	0.00e+00	0	56	0	844103680	54	4486
2026-01-03 08:21:33.08	11.72	40.33	-46.8	-48.4	17.0	0.00e+00	0	56	0	846200832	55	4595
2026-01-03 08:21:34.06	11.33	40.19	-47.0	-48.7	16.8	0.00e+00	0	56	0	848297984	55	4740
2026-01-03 08:21:35.06	10.95	40.04	-47.9	-49.9	15.8	0.00e+00	0	56	0	850395136	57	4823
2026-01-03 08:21:36.05	10.56	39.90	-47.8	-49.8	15.8	0.00e+00	0	56	0	851443712	58	4518
2026-01-03 08:21:37.04	10.19	39.75	-47.7	-49.6	16.0	0.00e+00	0	56	0	853540864	58	4407
2026-01-03 08:21:38.03	9.81	39.61	-47.5	-49.3	16.3	0.00e+00	0	56	0	855638016	58	4263
2026-01-03 08:21:39.03	9.44	39.46	-47.8	-49.8	15.8	0.00e+00	0	56	0	857735168	57	4785
2026-01-03 08:21:40.02	9.07	39.31	-47.6	-49.5	16.1	0.00e+00	0	56	0	859832320	57	4632
2026-01-03 08:21:41.01	8.70	39.16	-48.1	-50.1	15.6	0.00e+00	0	56	0	860880896	57	4959
2026-01-03 08:21:42.00	8.34	39.01	-47.9	-49.9	15.7	0.00e+00	0	56	0	862978048	58	4574
2026-01-03 08:21:42.99	7.98	38.87	-48.1	-50.3	15.2	0.00e+00	0	56	0	865075200	58	4789
2026-01-03 08:21:43.97	7.63	38.72	-48.0	-50.0	15.6	0.00e+00	0	56	0	867172352	58	4628
2026-01-03 08:21:44.96	7.28	38.57	-48.0	-50.0	15.6	0.00e+00	0	56	0	868220928	58	4630
2026-01-03 08:21:45.95	6.93	38.42	-47.7	-49.6	16.1	0.00e+00	0	56	0	870318080	58	4400
2026-01-03 08:21:46.94	6.59	38.26	-47.7	-49.6	16.1	0.00e+00	0	56	0	872415232	58	4400
2026-01-03 08:21:47.93	6.25	38.11	-47.9	-49.9	15.7	0.00e+00	0	56	0	874512384	58	4575
2026-01-03 08:21:48.91	5.91	37.96	-48.6	-51.0	14.6	0.00e+00	0	56	0	875560960	59	4880
2026-01-03 08:21:49.90	5.58	37.81	-48.6	-50.9	14.7	0.00e+00	0	56	0	877658112	59	4834
2026-01-03 08:21:50.88	5.25	37.66	-48.3	-50.4	15.2	0.00e+00	0	56	0	879755264	59	4580
2026-01-03 08:21:51.87	4.92	37.50	-47.9	-49.8	15.8	0.00e+00	0	56	0	881852416	58	4519
2026-01-03 08:21:52.85	4.60	37.35	-48.0	-49.9	15.7	0.00e+00	0	56	0	883949568	58	4595
2026-01-03 08:21:53.84	4.27	37.19	-47.9	-49.8	15.9	0.00e+00	0	56	0	884998144	58	4502
2026-01-03 08:21:54.83	3.95	37.04	-48.2	-50.3	15.4	0.00e+00	0	56	0	887095296	58	4773
2026-01-03 08:21:55.81	3.64	36.89	-48.3	-50.5	15.2	0.00e+00	0	56	0	889192448	58	4875
2026-01-03 08:21:56.80	3.33	36.73	-49.1	-51.6	14.0	7.00e-07	0	56	0	891289600	59	5256
2026-01-03 08:21:57.79	3.02	36.57	-49.6	-52.7	12.8	3.50e-05	0	56	0	892338176	61	5314
2026-01-03 08:21:58.78	2.71	36.42	-49.9	-53.5	12.1	1.71e-04	0	56	0	894435328	61	5817
2026-01-03 08:21:59.78	2.40	36.26	-49.5	-52.5	13.1	6.25e-05	0	56	0	896532480	61	5174
2026-01-03 08:22:00.76	2.10	36.11	-49.0	-51.7	13.9	3.00e-06	0	56	0	898629632	61	4719
2026-01-03 08:22:01.76	1.80	35.95	-49.0	-51.7	13.9	3.80e-06	0	56	0	899678208	60	5010
2026-01-03 08:22:02.75	1.50	35.79	-49.4	-52.6	12.8	7.60e-06	0	56	0	901775360	60	5555
2026-01-03 08:22:03.74	1.21	35.64	-49.9	-53.4	12.1	3.47e-04	0	56	0	903872512	61	5742
2026-01-03 08:22:04.73	0.92	35.48	-50.0	-53.5	11.9	6.07e-04	0	56	0	905969664	62	5512
2026-01-03 08:22:05.72	0.63	35.32	-50.1	-53.7	11.8	2.65e-04	0	56	0	908066816	62	5636
2026-01-03 08:22:06.70	0.35	35.17	-50.4	-54.3	11.2	1.11e-03	0	56	0	909115392	62	6048
2026-01-03 08:22:07.70	0.07	35.01	-50.8	-55.2	10.3	3.20e-03	0	56	0	911212544	63	6283
2026-01-03 08:22:08.69	359.79	34.85	-50.5	-54.8	10.6	6.78e-03	0	56	0	913309696	63	6044
2026-01-03 08:22:09.68	359.51	34.70	-49.9	-53.2	12.4	9.27e-04	0	56	0	915406848	62	5306
2026-01-03 08:22:10.67	359.24	34.54	-49.1	-51.7	13.9	3.43e-05	0	56	0	916455424	61	4751
2026-01-03 08:22:11.66	358.97	34.38	-49.3	-52.1	13.4	6.10e-06	0	56	0	918552576	61	4951
2026-01-03 08:22:12.66	358.70	34.22	-49.9	-53.1	12.4	3.96e-05	0	56	0	920649728	61	5592
2026-01-03 08:22:13.65	358.43	34.07	-50.8	-55.1	10.4	2.98e-04	0	56	0	922746880	63	6262
2026-01-03 08:22:14.64	358.17	33.91	-50.8	-55.9	9.5	1.60e-02	0	56	0	924844032	64	6433
2026-01-03 08:22:15.62	357.91	33.76	-50.8	-55.7	9.6	1.60e-02	0	56	0	925892608	64	6336
2026-01-03 08:22:16.61	357.65	33.60	-50.5	-54.8	10.6	7.09e-03	0	57	0	927989760	64	5686
2026-01-03 08:22:17.60	357.39	33.44	-50.6	-54.8	10.8	2.13e-03	0	56	0	930086912	63	6018
2026-01-03 08:22:18.59	357.14	33.29	-50.5	-54.6	10.9	2.81e-03	0	56	0	932184064	63	5864
2026-01-03 08:22:19.57	356.89	33.13	-50.4	-54.3	11.3	1.09e-03	0	56	0	933232640	63	5660
2026-01-03 08:22:20.56	356.64	32.98	-50.2	-53.8	11.8	8.18e-04	0	56	0	935329792	63	5341
2026-01-03 08:22:21.55	356.40	32.82	-50.1	-53.7	11.8	4.12e-04	0	56	0	937426944	62	5619
2026-01-03 08:22:22.54	356.15	32.67	-50.3	-54.0	11.6	5.58e-04	0	56	0	939524096	62	5855
2026-01-03 08:22:23.53	355.91	32.51	-50.3	-54.0	11.6	3.81e-04	0	56	0	940572672	62	5809
2026-01-03 08:22:24.52	355.67	32.36	-50.0	-53.3	12.1	3.21e-04	0	56	0	942669824	62	5391
2026-01-03 08:22:25.52	355.44	32.20	-49.7	-52.8	12.8	8.54e-05	0	57	0	944766976	62	5063
2026-01-03 08:22:26.50	355.20	32.05	-49.5	-52.4	13.2	3.20e-05	0	56	0	946864128	62	4839
2026-01-03 08:22:27.48	354.97	31.90	-49.1	-51.8	13.8	8.30e-06	0	57	0	947912704	61	4769
2026-01-03 08:22:28.47	354.74	31.74	-49.4	-52.3	13.2	7.60e-06	0	56	0	950009856	61	5089
2026-01-03 08:22:29.45	354.52	31.59	-49.6	-52.7	12.8	6.25e-05	0	56	0	952107008	61	5328
2026-01-03 08:22:30.44	354.29	31.44	-50.4	-54.4	11.1	7.38e-04	0	57	0	954204160	62	6073
2026-01-03 08:22:31.43	354.07	31.28	-50.6	-54.7	10.9	2.21e-03	0	56	0	956301312	62	6312
2026-01-03 08:22:32.42	353.85	31.13	-50.4	-54.2	11.3	1.23e-03	0	56	0	957349888	62	5964
2026-01-03 08:22:33.40	353.63	30.98	-50.1	-53.6	11.9	4.81e-04	0	57	0	959447040	62	5581
2026-01-03 08:22:34.39	353.41	30.83	-50.1	-53.7	11.8	2.58e-04	0	56	0	961544192	62	5617
2026-01-03 08:22:35.38	353.20	30.68	-49.8	-53.1	12.4	3.22e-04	0	56	0	963641344	62	5261
2026-01-03 08:22:36.37	352.99	30.53	-49.8	-52.9	12.6	1.52e-04	0	57	0	964689920	62	5151
2026-01-03 08:22:37.36	352.77	30.37	-49.8	-53.1	12.4	2.01e-04	0	56	0	966787072	62	5260
2026-01-03 08:22:38.35	352.57	30.22	-49.8	-53.1	12.4	1.96e-04	0	57	0	968884224	62	5279
2026-01-03 08:22:39.34	352.36	30.07	-50.0	-53.3	12.3	3.11e-04	0	57	0	970981376	62	5357
2026-01-03 08:22:40.33	352.15	29.92	-49.2	-52.0	13.6	1.06e-05	0	56	0	972029952	61	4900
2026-01-03 08:22:41.32	351.95	29.77	-48.9	-51.4	14.1	8.30e-06	0	56	0	974127104	60	4865
2026-01-03 08:22:42.31	351.75	29.63	-48.6	-51.0	14.6	3.00e-06	0	56	0	976224256	60	4606
2026-01-03 08:22:43.29	351.55	29.48	-48.8	-51.5	14.0	7.00e-07	0	56	0	978321408	60	4883
2026-01-03 08:22:44.28	351.35	29.33	-49.0	-51.7	13.8	2.20e-06	0	56	0	980418560	60	5021
2026-01-03 08:22:45.27	351.16	29.18	-49.4	-52.2	13.3	1.90e-05	0	57	0	981467136	60	5328
2026-01-03 08:22:46.26	350.96	29.03	-49.1	-51.7	13.8	5.30e-06	0	56	0	983564288	60	5006
2026-01-03 08:22:47.25	350.77	28.89	-49.1	-51.7	13.8	6.80e-06	0	56	0	985661440	60	4992
2026-01-03 08:22:48.25	350.58	28.74	-48.7	-51.1	14.4	3.80e-06	0	56	0	987758592	60	4667
2026-01-03 08:22:49.23	350.39	28.59	-48.5	-50.8	14.7	0.00e+00	0	56	0	988807168	60	4537
2026-01-03 08:22:50.22	350.21	28.45	-48.2	-50.3	15.2	0.00e+00	0	57	0	990904320	59	4497
2026-01-03 08:22:51.21	350.02	28.30	-48.4	-50.6	14.9	0.00e+00	0	56	0	993001472	59	4670
2026-01-03 08:22:52.20	349.84	28.16	-48.6	-50.9	14.6	0.00e+00	0	56	0	995098624	59	4847
2026-01-03 08:22:53.18	349.66	28.01	-48.4	-50.5	15.0	0.00e+00	0	56	0	996147200	59	4611
2026-01-03 08:22:54.17	349.48	27.87	-48.8	-51.2	14.3	0.00e+00	0	56	0	998244352	59	4990
2026-01-03 08:22:55.16	349.30	27.73	-49.1	-51.6	13.9	7.00e-07	0	57	0	1000341504	59	5277
2026-01-03 08:22:56.16	349.12	27.58	-49.9	-53.3	12.2	1.23e-04	0	56	0	1002438656	61	5698
2026-01-03 08:22:57.14	348.95	27.44	-50.0	-53.6	11.8	1.97e-04	0	57	0	1004535808	61	5917
2026-01-03 08:22:58.14	348.77	27.30	-50.4	-54.4	11.1	7.15e-04	0	57	0	1005584384	62	6101
2026-01-03 08:22:59.12	348.60	27.16	-50.3	-54.1	11.3	1.40e-03	0	57	0	1007681536	62	5913
2026-01-03 08:23:00.11	348.43	27.01	-50.3	-54.2	11.2	1.20e-03	0	57	0	1009778688	62	5934
2026-01-03 08:23:01.10	348.26	26.87	-50.0	-53.6	11.9	8.50e-04	0	57	0	1011875840	62	5532
2026-01-03 08:23:02.09	348.09	26.73	-50.3	-54.0	11.4	5.50e-04	0	57	0	1012924416	62	5817
2026-01-03 08:23:03.08	347.93	26.59	-49.6	-52.8	12.7	1.27e-04	0	57	0	1015021568	62	5075
2026-01-03 08:23:04.07	347.76	26.45	-49.0	-51.7	13.8	9.10e-06	0	56	0	1017118720	61	4726
2026-01-03 08:23:05.06	347.60	26.31	-48.7	-51.1	14.4	3.80e-06	0	56	0	1019215872	60	4667
2026-01-03 08:23:06.05	347.44	26.17	-48.4	-50.7	14.8	1.50e-06	0	56	0	1020264448	59	4724
2026-01-03 08:23:07.05	347.28	26.03	-48.7	-51.1	14.4	7.00e-07	0	57	0	1022361600	59	4973
2026-01-03 08:23:08.04	347.12	25.90	-48.9	-51.4	14.1	0.00e+00	0	57	0	1024458752	59	5147
2026-01-03 08:23:09.03	346.96	25.76	-49.3	-52.2	13.3	3.00e-06	0	56	0	1026555904	60	5322
2026-01-03 08:23:10.02	346.81	25.62	-49.2	-52.1	13.4	1.52e-05	0	56	0	1028653056	60	5237
2026-01-03 08:23:11.00	346.65	25.49	-49.4	-52.3	13.1	1.90e-05	0	57	0	1029701632	60	5374
2026-01-03 08:23:11.99	346.50	25.35	-49.2	-52.0	13.5	1.90e-05	0	56	0	1031798784	60	5180
2026-01-03 08:23:12.98	346.35	25.22	-49.3	-52.1	13.3	1.67e-05	0	56	0	1033895936	60	5262
2026-01-03 08:23:13.97	346.20	25.08	-49.3	-52.3	13.1	1.98e-05	0	57	0	1035993088	60	5376
2026-01-03 08:23:14.97	346.05	24.94	-49.5	-52.5	12.9	1.83e-05	0	56	0	1037041664	60	5514
2026-01-03 08:23:15.95	345.90	24.81	-49.5	-52.5	12.8	6.48e-05	0	57	0	1039138816	61	5217
2026-01-03 08:23:16.95	345.75	24.68	-49.8	-53.2	12.2	1.11e-04	0	56	0	1041235968	62	5314
2026-01-03 08:23:17.94	345.61	24.54	-49.9	-53.6	11.8	4.26e-04	0	56	0	1043333120	62	5541
2026-01-03 08:23:18.93	345.46	24.41	-50.1	-53.7	11.7	5.42e-04	0	56	0	1044381696	62	5635
2026-01-03 08:23:19.92	345.32	24.28	-50.1	-53.8	11.5	5.84e-04	0	57	0	1046478848	62	5719
2026-01-03 08:23:20.90	345.18	24.15	-49.7	-53.2	12.2	5.15e-04	0	56	0	1048576000	62	5305
2026-01-03 08:23:21.89	345.04	24.02	-49.4	-52.4	13.0	6.71e-05	0	57	0	1050673152	62	4847
2026-01-03 08:23:22.88	344.90	23.89	-49.2	-52.1	13.3	2.82e-05	0	56	0	1052770304	61	4940
2026-01-03 08:23:23.87	344.76	23.75	-49.1	-51.9	13.4	1.22e-05	0	56	0	1053818880	61	4861
2026-01-03 08:23:24.85	344.63	23.63	-48.8	-51.2	14.1	5.30e-06	0	57	0	1055916032	60	4751
2026-01-03 08:23:25.84	344.49	23.50	-48.6	-51.0	14.4	0.00e+00	0	57	0	1058013184	60	4651
2026-01-03 08:23:26.83	344.35	23.37	-48.6	-50.9	14.5	1.50e-06	0	56	0	1060110336	60	4585
2026-01-03 08:23:27.82	344.22	23.24	-48.5	-50.9	14.5	7.00e-07	0	56	0	1061158912	60	4553
2026-01-03 08:23:28.80	344.09	23.11	-49.0	-51.6	13.8	1.50e-06	0	56	0	1063256064	60	4954
2026-01-03 08:23:29.78	343.96	22.99	-48.8	-51.4	14.1	1.50e-06	0	56	0	1065353216	60	4822
2026-01-03 08:23:30.77	343.83	22.86	-48.6	-51.0	14.4	1.50e-06	0	56	0	1067450368	60	4648
2026-01-03 08:23:31.75	343.70	22.73	-48.5	-50.8	14.6	7.00e-07	0	57	0	1068498944	59	4783
2026-01-03 08:23:32.74	343.57	22.61	-48.5	-50.9	14.6	0.00e+00	0	56	0	1070596096	59	4831
2026-01-03 08:23:33.73	343.45	22.48	-48.6	-51.1	14.4	7.00e-07	0	56	0	1072693248	59	4931
2026-01-03 08:23:34.72	343.32	22.36	-48.7	-51.2	14.1	7.00e-07	0	56	0	1074790400	59	5037
2026-01-03 08:23:35.69	343.20	22.23	-48.9	-51.6	13.8	0.00e+00	0	56	0	1075838976	59	5219
2026-01-03 08:23:36.69	343.07	22.11	-48.7	-51.3	14.1	3.00e-06	0	57	0	1077936128	59	5046
2026-01-03 08:23:37.68	342.95	21.98	-48.8	-51.3	14.2	1.50e-06	0	56	0	1080033280	59	5044
2026-01-03 08:23:38.67	342.83	21.86	-48.5	-51.0	14.4	0.00e+00	0	56	0	1082130432	59	4884
2026-01-03 08:23:39.65	342.71	21.74	-48.4	-50.6	14.7	7.00e-07	0	56	0	1083179008	59	4692
2026-01-03 08:23:40.65	342.59	21.62	-48.4	-50.7	14.7	0.00e+00	0	56	0	1085276160	59	4744
2026-01-03 08:23:41.63	342.47	21.50	-48.5	-50.8	14.6	7.00e-07	0	57	0	1087373312	59	4781
2026-01-03 08:23:42.62	342.35	21.37	-48.5	-50.8	14.6	1.50e-06	0	56	0	1089470464	59	4782
2026-01-03 08:23:43.61	342.24	21.25	-48.6	-50.9	14.4	1.50e-06	0	57	0	1091567616	59	4865
2026-01-03 08:23:44.60	342.12	21.13	-48.8	-51.4	14.0	0.00e+00	0	57	0	1092616192	59	5106
2026-01-03 08:23:45.59	342.00	21.01	-49.1	-51.8	13.6	4.50e-06	0	56	0	1094713344	59	5343
2026-01-03 08:23:46.57	341.89	20.89	-49.2	-52.2	13.1	2.13e-05	0	57	0	1096810496	60	5290
2026-01-03 08:23:47.56	341.78	20.77	-49.4	-52.6	12.6	5.72e-05	0	57	0	1098907648	60	5567
2026-01-03 08:23:48.55	341.67	20.65	-49.4	-52.6	12.6	9.38e-05	0	57	0	1099956224	60	5577
2026-01-03 08:23:49.54	341.55	20.54	-49.6	-53.0	12.1	1.04e-04	0	57	0	1102053376	61	5527
2026-01-03 08:23:50.52	341.44	20.42	-49.7	-53.2	11.9	4.33e-04	0	57	0	1104150528	61	5605
2026-01-03 08:23:51.51	341.33	20.30	-49.6	-53.2	12.0	4.00e-04	0	56	0	1106247680	61	5602
2026-01-03 08:23:52.50	341.23	20.18	-49.5	-53.0	12.0	3.07e-04	0	56	0	1107296256	61	5488
2026-01-03 08:23:53.48	341.12	20.07	-49.6	-53.3	11.7	4.04e-04	0	57	0	1109393408	61	5667
2026-01-03 08:23:54.48	341.01	19.95	-49.7	-53.5	11.4	7.74e-04	0	56	0	1111490560	61	5803
2026-01-03 08:23:55.47	340.90	19.84	-49.8	-53.7	11.1	1.76e-03	0	57	0	1113587712	61	5953
2026-01-03 08:23:56.46	340.80	19.72	-49.8	-53.9	10.8	2.42e-03	0	56	0	1115684864	61	6087
2026-01-03 08:23:57.45	340.69	19.60	-49.9	-54.1	10.5	3.44e-03	0	56	0	1116733440	61	6243
2026-01-03 08:23:58.44	340.59	19.49	-49.9	-54.2	10.4	4.29e-03	0	57	0	1118830592	61	6306
2026-01-03 08:23:59.43	340.49	19.38	-50.0	-54.4	10.1	5.69e-03	0	56	0	1120927744	61	6480
2026-01-03 08:24:00.43	340.38	19.26	-50.0	-54.4	10.1	7.33e-03	0	56	0	1123024896	61	6450
2026-01-03 08:24:01.41	340.28	19.15	-50.1	-54.6	10.0	8.48e-03	0	57	0	1124073472	62	6203
2026-01-03 08:24:02.40	340.18	19.04	-50.0	-54.3	10.3	6.48e-03	0	56	0	1126170624	62	6003
2026-01-03 08:24:03.40	340.08	18.92	-49.8	-53.8	10.9	3.03e-03	0	57	0	1128267776	62	5667
2026-01-03 08:24:04.39	339.98	18.81	-49.6	-53.4	11.4	1.50e-03	0	56	0	1130364928	62	5412
2026-01-03 08:24:05.39	339.88	18.70	-49.2	-52.8	12.0	5.25e-04	0	57	0	1132462080	61	5347
2026-01-03 08:24:06.37	339.79	18.59	-49.2	-52.6	12.2	2.71e-04	0	57	0	1133510656	61	5252
2026-01-03 08:24:07.37	339.69	18.48	-49.1	-52.5	12.4	1.58e-04	0	56	0	1135607808	61	5185
2026-01-03 08:24:08.36	339.59	18.37	-49.1	-52.2	12.7	1.19e-04	0	57	0	1137704960	61	4997
2026-01-03 08:24:09.35	339.50	18.26	-48.9	-51.8	13.1	4.27e-05	0	57	0	1139802112	60	5069
2026-01-03 08:24:10.34	339.40	18.15	-48.7	-51.5	13.5	1.52e-05	0	57	0	1140850688	60	4904
2026-01-03 08:24:11.33	339.31	18.04	-48.6	-51.3	13.7	7.60e-06	0	57	0	1142947840	60	4775
2026-01-03 08:24:12.31	339.21	17.93	-48.8	-51.6	13.4	4.50e-06	0	57	0	1145044992	60	4976
2026-01-03 08:24:13.31	339.12	17.82	-48.9	-51.7	13.3	1.83e-05	0	57	0	1147142144	60	5028
2026-01-03 08:24:14.30	339.03	17.71	-48.8	-51.5	13.6	9.90e-06	0	56	0	1148190720	60	4892
2026-01-03 08:24:15.28	338.94	17.60	-48.8	-51.5	13.6	7.60e-06	0	57	0	1150287872	60	4886
2026-01-03 08:24:16.28	338.85	17.50	-48.8	-51.5	13.6	9.90e-06	0	57	0	1152385024	60	4923
2026-01-03 08:24:17.27	338.76	17.39	-48.8	-51.6	13.6	5.30e-06	0	57	0	1154482176	60	4930
2026-01-03 08:24:18.26	338.67	17.28	-48.8	-51.5	13.7	3.00e-06	0	56	0	1156579328	60	4884
2026-01-03 08:24:19.25	338.58	17.18	-48.4	-51.0	14.1	1.50e-06	0	56	0	1157627904	60	4636
2026-01-03 08:24:20.23	338.49	17.07	-48.6	-51.1	14.1	0.00e+00	0	57	0	1159725056	60	4679
2026-01-03 08:24:21.22	338.40	16.97	-48.8	-51.5	13.7	1.50e-06	0	57	0	1161822208	60	4926
2026-01-03 08:24:22.21	338.32	16.86	-48.8	-51.6	13.6	8.30e-06	0	57	0	1163919360	60	4942
2026-01-03 08:24:23.20	338.23	16.76	-48.9	-51.8	13.4	1.37e-05	0	57	0	1164967936	60	5069
2026-01-03 08:24:24.19	338.14	16.65	-48.9	-51.6	13.6	9.90e-06	0	57	0	1167065088	60	4975
2026-01-03 08:24:25.18	338.06	16.55	-48.9	-51.7	13.5	8.30e-06	0	57	0	1169162240	60	5004
2026-01-03 08:24:26.17	337.98	16.45	-49.0	-51.8	13.4	1.60e-05	0	57	0	1171259392	60	5059
2026-01-03 08:24:27.16	337.89	16.34	-49.1	-52.1	13.1	2.21e-05	0	57	0	1172307968	60	5221
2026-01-03 08:24:28.15	337.81	16.24	-48.9	-51.7	13.5	1.60e-05	0	57	0	1174405120	60	5022
2026-01-03 08:24:29.14	337.73	16.14	-49.1	-52.0	13.2	2.13e-05	0	57	0	1176502272	60	5181
2026-01-03 08:24:30.13	337.64	16.04	-49.1	-52.0	13.1	2.44e-05	0	56	0	1178599424	60	5192
2026-01-03 08:24:31.13	337.56	15.93	-49.0	-52.0	13.2	1.98e-05	0	57	0	1180696576	60	5162
2026-01-03 08:24:32.11	337.48	15.83	-48.9	-51.6	13.5	1.37e-05	0	56	0	1181745152	60	4971
2026-01-03 08:24:33.11	337.40	15.73	-49.0	-51.9	13.3	6.80e-06	0	57	0	1183842304	60	5110
2026-01-03 08:24:34.10	337.32	15.63	-48.7	-51.5	13.7	9.90e-06	0	57	0	1185939456	60	4893
2026-01-03 08:24:35.09	337.24	15.53	-48.7	-51.3	13.8	6.80e-06	0	57	0	1188036608	60	4806
2026-01-03 08:24:36.09	337.16	15.43	-48.7	-51.4	13.8	2.20e-06	0	57	0	1189085184	60	4855
2026-01-03 08:24:37.07	337.09	15.33	-48.7	-51.4	13.8	5.30e-06	0	56	0	1191182336	60	4834
2026-01-03 08:24:38.06	337.01	15.23	-48.9	-51.7	13.5	9.10e-06	0	56	0	1193279488	60	5000
2026-01-03 08:24:39.04	336.93	15.14	-49.3	-52.4	12.8	2.59e-05	0	57	0	1195376640	60	5409
2026-01-03 08:24:40.03	336.86	15.04	-48.9	-51.7	13.4	2.89e-05	0	57	0	1196425216	60	5027
2026-01-03 08:24:41.02	336.78	14.94	-48.7	-51.4	13.8	6.10e-06	0	57	0	1198522368	60	4826
2026-01-03 08:24:42.01	336.70	14.84	-48.6	-51.1	14.0	5.30e-06	0	56	0	1200619520	60	4687
2026-01-03 08:24:43.00	336.63	14.74	-48.7	-51.3	13.8	5.30e-06	0	56	0	1202716672	60	4801
2026-01-03 08:24:43.99	336.55	14.65	-48.8	-51.4	13.8	4.50e-06	0	57	0	1204813824	60	4846
2026-01-03 08:24:44.98	336.48	14.55	-48.9	-51.7	13.5	3.80e-06	0	57	0	1205862400	60	4996
2026-01-03 08:24:45.97	336.41	14.45	-49.0	-51.7	13.5	2.21e-05	0	56	0	1207959552	60	5034
2026-01-03 08:24:46.95	336.34	14.36	-48.9	-51.7	13.5	9.90e-06	0	57	0	1210056704	60	5008
2026-01-03 08:24:47.94	336.26	14.26	-49.1	-52.2	13.0	2.44e-05	0	56	0	1212153856	60	5295
2026-01-03 08:24:48.93	336.19	14.17	-49.0	-52.0	13.2	2.82e-05	0	56	0	1213202432	60	5186
2026-01-03 08:24:49.92	336.12	14.07	-49.1	-52.1	13.1	1.98e-05	0	56	0	1215299584	60	5247
2026-01-03 08:24:50.91	336.05	13.98	-49.1	-52.1	13.0	2.59e-05	0	57	0	1217396736	60	5273
2026-01-03 08:24:51.90	335.98	13.88	-49.2	-52.2	13.0	3.28e-05	0	57	0	1219493888	60	5286
2026-01-03 08:24:52.89	335.91	13.79	-48.9	-51.8	13.4	2.67e-05	0	56	0	1220542464	60	5049
2026-01-03 08:24:53.87	335.84	13.70	-49.1	-52.2	13.0	2.36e-05	0	56	0	1222639616	60	5293
2026-01-03 08:24:54.87	335.77	13.60	-49.1	-52.1	13.0	3.66e-05	0	56	0	1224736768	60	5245
2026-01-03 08:24:55.86	335.70	13.51	-49.0	-51.9	13.2	2.28e-05	0	57	0	1226833920	60	5129
2026-01-03 08:24:56.85	335.63	13.42	-49.1	-52.2	13.0	1.37e-05	0	57	0	1228931072	60	5303
2026-01-03 08:24:57.84	335.57	13.32	-49.1	-52.2	13.0	5.79e-05	0	57	0	1229979648	60	5295
2026-01-03 08:24:58.83	335.50	13.23	-49.0	-51.9	13.2	2.67e-05	0	56	0	1232076800	60	5143
2026-01-03 08:24:59.81	335.43	13.14	-49.2	-52.2	12.9	2.51e-05	0	56	0	1234173952	60	5325
2026-01-03 08:25:00.79	335.37	13.05	-49.1	-52.1	13.0	5.41e-05	0	57	0	1236271104	60	5279
2026-01-03 08:25:01.78	335.30	12.96	-49.2	-52.1	13.1	2.44e-05	0	56	0	1237319680	60	5222
2026-01-03 08:25:02.78	335.23	12.87	-49.1	-52.0	13.1	2.89e-05	0	56	0	1239416832	60	5198
2026-01-03 08:25:03.77	335.17	12.78	-49.2	-52.2	12.9	4.04e-05	0	56	0	1241513984	60	5326
2026-01-03 08:25:04.75	335.11	12.69	-49.3	-52.4	12.7	7.17e-05	0	57	0	1243611136	60	5420
2026-01-03 08:25:05.74	335.04	12.60	-49.4	-52.5	12.6	9.99e-05	0	56	0	1244659712	60	5477
