passes_logs/2026/01/03/R3.0SM8_Murmansk_STILSPACE/R3.0SM8_Murmansk_STILSPACE__20260103_055743_FENGYUN_3D_rec.log

#Pass ID: 20260103_055743_FENGYUN 3D
#Satellite: FENGYUN 3D
#Configuration: FENGYUN 3D
#almurnet v.1.7.20240730
#Start time: 2026-01-03 05:57:43

#Version: 2.2.20231116
#Station: R3.0SM8_Murmansk_STILSPACE
#Location: 33.092731 lon 68.902999 lat
#TLE: 1 43010U 17072A   26002.31768531  .00000715  00000+0  35975-3 0  9993
#TLE: 2 43010  98.9910 333.9388 0001871 131.0716 229.0622 14.19693418421454

#Time	Az	El	Level	Level2	SNR	BER	BlckErr	Temp	State	Recorded	gain1	gain2
2026-01-03 05:57:43.78	45.84	3.01	-53.3	-63.9	3.8	8.46e-01	0	45	0	0	68	12955
2026-01-03 05:57:44.75	45.78	3.06	-53.1	-63.9	3.8	8.47e-01	0	45	104	0	68	12870
2026-01-03 05:57:45.74	45.72	3.12	-53.1	-63.8	3.8	8.46e-01	0	46	104	0	68	12785
2026-01-03 05:57:46.73	45.66	3.18	-53.1	-63.8	3.8	8.47e-01	0	46	104	0	68	12711
2026-01-03 05:57:47.72	45.60	3.24	-52.9	-63.7	3.8	8.47e-01	0	46	104	0	68	12647
2026-01-03 05:57:48.72	45.54	3.30	-52.8	-63.6	3.8	8.46e-01	0	46	104	0	68	12493
2026-01-03 05:57:49.72	45.47	3.36	-52.6	-63.5	3.8	8.45e-01	0	46	104	0	68	12296
2026-01-03 05:57:50.71	45.41	3.42	-52.4	-63.1	3.8	8.46e-01	0	46	104	0	67	12507
2026-01-03 05:57:51.70	45.35	3.48	-52.0	-62.8	3.8	8.46e-01	0	46	104	0	67	12002
2026-01-03 05:57:52.69	45.29	3.54	-52.1	-62.8	3.8	8.46e-01	0	46	104	0	67	12062
2026-01-03 05:57:53.68	45.22	3.60	-52.1	-62.8	3.8	8.46e-01	0	46	104	0	67	12005
2026-01-03 05:57:54.66	45.16	3.66	-52.0	-62.8	3.8	8.46e-01	0	46	104	0	67	12019
2026-01-03 05:57:55.66	45.10	3.72	-52.1	-62.8	3.8	8.45e-01	0	46	104	0	67	12014
2026-01-03 05:57:56.65	45.03	3.78	-52.1	-62.8	3.8	8.47e-01	0	47	104	0	67	11992
2026-01-03 05:57:57.64	44.97	3.84	-52.1	-62.6	3.8	8.46e-01	0	46	104	0	67	11812
2026-01-03 05:57:58.64	44.90	3.90	-52.0	-62.5	3.8	8.46e-01	0	47	104	0	66	12307
2026-01-03 05:57:59.62	44.84	3.96	-52.0	-62.1	3.8	8.45e-01	0	47	104	0	66	11748
2026-01-03 05:58:00.62	44.77	4.03	-51.9	-61.6	3.8	8.45e-01	0	47	104	0	66	11123
2026-01-03 05:58:01.60	44.71	4.09	-51.8	-60.8	3.8	8.45e-01	0	47	104	0	66	10091
2026-01-03 05:58:02.59	44.64	4.15	-51.7	-59.9	4.1	8.42e-01	0	47	0	0	66	9131
2026-01-03 05:58:03.58	44.58	4.21	-51.5	-58.9	4.3	8.36e-01	0	47	0	0	66	8126
2026-01-03 05:58:04.58	44.51	4.27	-51.3	-57.6	4.8	8.17e-01	0	47	0	0	65	7385
2026-01-03 05:58:05.57	44.45	4.33	-50.9	-56.4	5.5	7.32e-01	0	47	0	0	64	6864
2026-01-03 05:58:06.56	44.38	4.39	-50.5	-55.2	6.4	3.31e-01	0	47	0	4194304	64	5945
2026-01-03 05:58:07.56	44.31	4.45	-50.1	-54.1	7.5	1.80e-01	0	47	0	9437184	63	5571
2026-01-03 05:58:08.55	44.24	4.52	-49.7	-53.0	8.6	5.82e-02	0	47	0	15728640	62	5192
2026-01-03 05:58:09.54	44.18	4.58	-49.1	-52.0	9.6	2.59e-02	0	47	0	20971520	61	4919
2026-01-03 05:58:10.53	44.11	4.64	-48.6	-51.1	10.6	7.07e-03	0	47	0	27262976	60	4683
2026-01-03 05:58:11.53	44.04	4.70	-48.2	-50.4	11.4	2.16e-03	0	47	0	32505856	59	4557
2026-01-03 05:58:12.52	43.97	4.76	-47.7	-49.6	12.2	5.43e-04	0	48	0	37748736	58	4405
2026-01-03 05:58:13.51	43.90	4.83	-47.2	-49.0	12.8	1.33e-04	0	48	0	42991616	57	4349
2026-01-03 05:58:14.49	43.83	4.89	-46.9	-48.6	13.2	4.00e-05	0	47	0	49283072	57	4165
2026-01-03 05:58:15.48	43.76	4.95	-46.6	-48.1	13.7	1.71e-05	0	48	0	54525952	56	4187
2026-01-03 05:58:16.47	43.69	5.01	-46.5	-48.0	13.8	6.80e-06	0	48	0	59768832	56	4142
2026-01-03 05:58:17.46	43.62	5.07	-46.5	-48.1	13.7	5.70e-06	0	48	0	66060288	56	4151
2026-01-03 05:58:18.46	43.55	5.14	-46.6	-48.1	13.8	8.00e-06	0	48	0	71303168	56	4175
2026-01-03 05:58:19.45	43.48	5.20	-46.6	-48.1	13.8	1.14e-05	0	48	0	76546048	56	4168
2026-01-03 05:58:20.43	43.41	5.26	-46.6	-48.1	13.8	8.00e-06	0	48	0	82837504	56	4178
2026-01-03 05:58:21.42	43.34	5.32	-46.7	-48.2	13.7	8.00e-06	0	48	0	88080384	56	4216
2026-01-03 05:58:22.40	43.27	5.39	-46.5	-48.0	13.9	1.02e-05	0	48	0	93323264	56	4122
2026-01-03 05:58:23.39	43.20	5.45	-46.5	-48.0	13.9	3.40e-06	0	48	0	99614720	56	4124
2026-01-03 05:58:24.38	43.13	5.51	-46.6	-48.1	13.8	1.02e-05	0	48	0	104857600	56	4192
2026-01-03 05:58:25.37	43.05	5.58	-46.4	-47.8	14.1	3.40e-06	0	48	0	110100480	56	4051
2026-01-03 05:58:26.35	42.98	5.64	-46.1	-47.4	14.4	3.40e-06	0	48	0	115343360	55	4092
2026-01-03 05:58:27.34	42.91	5.70	-46.0	-47.3	14.5	1.10e-06	0	49	0	121634816	55	4040
2026-01-03 05:58:28.33	42.83	5.77	-45.9	-47.2	14.7	0.00e+00	0	49	0	126877696	54	4202
2026-01-03 05:58:29.31	42.76	5.83	-45.9	-47.3	14.6	0.00e+00	0	49	0	132120576	54	4261
2026-01-03 05:58:30.30	42.69	5.89	-45.9	-47.3	14.6	1.10e-06	0	49	0	138412032	54	4244
2026-01-03 05:58:31.29	42.61	5.96	-45.8	-47.2	14.7	0.00e+00	0	49	0	143654912	54	4197
2026-01-03 05:58:32.28	42.54	6.02	-45.9	-47.2	14.6	0.00e+00	0	49	0	148897792	54	4241
2026-01-03 05:58:33.26	42.46	6.08	-46.0	-47.4	14.5	1.10e-06	0	49	0	154140672	54	4322
2026-01-03 05:58:34.25	42.39	6.15	-46.3	-47.8	14.1	1.10e-06	0	49	0	160432128	54	4508
2026-01-03 05:58:35.23	42.31	6.21	-46.0	-47.3	14.6	1.10e-06	0	49	0	165675008	54	4282
2026-01-03 05:58:36.22	42.24	6.28	-45.9	-47.3	14.7	0.00e+00	0	49	0	170917888	54	4247
2026-01-03 05:58:37.21	42.16	6.34	-46.0	-47.4	14.6	0.00e+00	0	49	0	177209344	54	4292
2026-01-03 05:58:38.20	42.08	6.41	-46.1	-47.5	14.5	2.20e-06	0	49	0	182452224	54	4345
2026-01-03 05:58:39.19	42.00	6.47	-46.0	-47.4	14.6	2.20e-06	0	49	0	187695104	54	4309
2026-01-03 05:58:40.18	41.93	6.54	-46.1	-47.5	14.5	0.00e+00	0	49	0	192937984	54	4375
2026-01-03 05:58:41.15	41.85	6.60	-45.9	-47.3	14.7	2.20e-06	0	49	0	199229440	54	4261
2026-01-03 05:58:42.14	41.77	6.67	-45.6	-47.0	15.0	0.00e+00	0	49	0	204472320	54	4131
2026-01-03 05:58:43.13	41.69	6.73	-45.6	-47.0	15.0	0.00e+00	0	49	0	209715200	54	4133
2026-01-03 05:58:44.12	41.61	6.80	-45.7	-47.0	15.0	1.10e-06	0	49	0	216006656	54	4142
2026-01-03 05:58:45.11	41.53	6.86	-45.7	-47.0	15.0	0.00e+00	0	49	0	221249536	54	4141
2026-01-03 05:58:46.11	41.45	6.93	-45.8	-47.0	15.0	0.00e+00	0	49	0	226492416	54	4139
2026-01-03 05:58:47.10	41.37	6.99	-45.9	-47.2	14.8	1.10e-06	0	49	0	232783872	54	4217
2026-01-03 05:58:48.09	41.29	7.06	-45.8	-47.1	15.0	0.00e+00	0	49	0	238026752	54	4168
2026-01-03 05:58:49.08	41.21	7.13	-45.8	-47.0	15.1	0.00e+00	0	50	0	243269632	54	4134
2026-01-03 05:58:50.07	41.13	7.19	-45.8	-47.1	15.0	0.00e+00	0	50	0	248512512	54	4156
2026-01-03 05:58:51.06	41.05	7.26	-45.7	-47.0	15.1	0.00e+00	0	50	0	254803968	54	4102
2026-01-03 05:58:52.05	40.96	7.32	-45.8	-47.0	15.1	0.00e+00	0	50	0	260046848	54	4144
2026-01-03 05:58:53.04	40.88	7.39	-46.0	-47.3	14.9	0.00e+00	0	50	0	266338304	54	4254
2026-01-03 05:58:54.03	40.80	7.46	-45.8	-47.0	15.1	0.00e+00	0	50	0	271581184	54	4137
2026-01-03 05:58:55.02	40.71	7.52	-45.5	-46.7	15.4	0.00e+00	0	50	0	276824064	54	3984
2026-01-03 05:58:56.01	40.63	7.59	-45.5	-46.7	15.4	0.00e+00	0	50	0	282066944	54	3990
2026-01-03 05:58:57.00	40.55	7.66	-45.5	-46.7	15.5	0.00e+00	0	50	0	288358400	54	3986
2026-01-03 05:58:57.98	40.46	7.72	-45.6	-46.8	15.4	0.00e+00	0	50	0	293601280	54	4038
2026-01-03 05:58:58.98	40.38	7.79	-45.7	-46.9	15.3	0.00e+00	0	50	0	298844160	54	4063
2026-01-03 05:58:59.96	40.29	7.86	-45.7	-46.9	15.3	0.00e+00	0	50	0	305135616	54	4083
2026-01-03 05:59:00.96	40.21	7.93	-45.5	-46.6	15.5	0.00e+00	0	50	0	310378496	54	3957
2026-01-03 05:59:01.95	40.12	7.99	-45.4	-46.5	15.7	0.00e+00	0	50	0	315621376	53	4120
2026-01-03 05:59:02.95	40.03	8.06	-45.4	-46.5	15.6	0.00e+00	0	50	0	321912832	53	4138
2026-01-03 05:59:03.94	39.94	8.13	-45.4	-46.5	15.7	0.00e+00	0	50	0	327155712	53	4129
2026-01-03 05:59:04.93	39.86	8.20	-45.6	-46.8	15.4	0.00e+00	0	51	0	332398592	53	4283
2026-01-03 05:59:05.92	39.77	8.26	-45.4	-46.6	15.6	0.00e+00	0	51	0	337641472	53	4150
2026-01-03 05:59:06.91	39.68	8.33	-45.3	-46.4	15.7	0.00e+00	0	51	0	343932928	53	4090
2026-01-03 05:59:07.90	39.59	8.40	-45.4	-46.6	15.7	0.00e+00	0	50	0	349175808	53	4149
2026-01-03 05:59:08.89	39.50	8.47	-45.5	-46.7	15.5	0.00e+00	0	51	0	355467264	53	4223
2026-01-03 05:59:09.89	39.41	8.54	-45.3	-46.5	15.8	0.00e+00	0	51	0	360710144	53	4115
2026-01-03 05:59:10.88	39.32	8.61	-45.4	-46.6	15.6	0.00e+00	0	51	0	365953024	53	4168
2026-01-03 05:59:11.87	39.23	8.67	-45.3	-46.5	15.8	0.00e+00	0	51	0	371195904	53	4101
2026-01-03 05:59:12.87	39.14	8.74	-45.4	-46.6	15.7	0.00e+00	0	51	0	377487360	53	4163
2026-01-03 05:59:13.86	39.05	8.81	-45.4	-46.5	15.7	0.00e+00	0	51	0	382730240	53	4131
2026-01-03 05:59:14.85	38.95	8.88	-45.7	-46.9	15.4	0.00e+00	0	51	0	389021696	53	4314
2026-01-03 05:59:15.84	38.86	8.95	-45.4	-46.6	15.7	0.00e+00	0	51	0	394264576	53	4175
2026-01-03 05:59:16.83	38.77	9.02	-45.3	-46.4	15.9	0.00e+00	0	51	0	399507456	53	4060
2026-01-03 05:59:17.82	38.68	9.09	-45.2	-46.3	15.9	0.00e+00	0	51	0	404750336	53	4040
2026-01-03 05:59:18.81	38.58	9.16	-45.2	-46.3	16.0	0.00e+00	0	51	0	411041792	53	4020
2026-01-03 05:59:19.81	38.49	9.23	-45.2	-46.3	15.9	0.00e+00	0	51	0	416284672	53	4042
2026-01-03 05:59:20.79	38.39	9.30	-45.2	-46.3	16.0	0.00e+00	0	51	0	421527552	53	4018
2026-01-03 05:59:21.78	38.30	9.37	-45.3	-46.4	15.8	0.00e+00	0	51	0	427819008	53	4089
2026-01-03 05:59:22.77	38.20	9.44	-45.3	-46.4	15.9	0.00e+00	0	51	0	433061888	53	4055
2026-01-03 05:59:23.76	38.11	9.51	-45.0	-46.1	16.2	0.00e+00	0	51	0	438304768	53	3941
2026-01-03 05:59:24.75	38.01	9.58	-45.0	-46.0	16.3	0.00e+00	0	51	0	444596224	53	3893
2026-01-03 05:59:25.73	37.91	9.65	-44.8	-45.9	16.4	0.00e+00	0	52	0	449839104	52	4062
2026-01-03 05:59:26.73	37.81	9.72	-45.0	-46.0	16.3	0.00e+00	0	52	0	455081984	52	4119
2026-01-03 05:59:27.72	37.72	9.79	-45.1	-46.2	16.1	0.00e+00	0	52	0	460324864	52	4213
2026-01-03 05:59:28.70	37.62	9.86	-45.0	-46.0	16.3	0.00e+00	0	51	0	466616320	52	4133
2026-01-03 05:59:29.69	37.52	9.93	-44.9	-45.9	16.4	0.00e+00	0	52	0	471859200	52	4081
2026-01-03 05:59:30.67	37.42	10.00	-44.9	-45.9	16.4	0.00e+00	0	52	0	477102080	52	4063
2026-01-03 05:59:31.67	37.32	10.07	-44.8	-45.8	16.5	0.00e+00	0	52	0	483393536	52	4022
2026-01-03 05:59:32.65	37.22	10.14	-44.9	-45.9	16.4	0.00e+00	0	52	0	488636416	52	4069
2026-01-03 05:59:33.64	37.12	10.21	-44.8	-45.8	16.5	0.00e+00	0	52	0	493879296	52	4033
2026-01-03 05:59:34.63	37.02	10.28	-44.8	-45.8	16.5	0.00e+00	0	52	0	500170752	52	4024
2026-01-03 05:59:35.62	36.92	10.36	-44.8	-45.8	16.5	0.00e+00	0	52	0	505413632	52	4007
2026-01-03 05:59:36.62	36.81	10.43	-44.7	-45.7	16.6	0.00e+00	0	52	0	510656512	52	4000
2026-01-03 05:59:37.61	36.71	10.50	-44.7	-45.6	16.7	0.00e+00	0	52	0	516947968	52	3949
2026-01-03 05:59:38.61	36.60	10.57	-44.7	-45.7	16.7	0.00e+00	0	52	0	522190848	52	3959
2026-01-03 05:59:39.59	36.50	10.64	-44.8	-45.8	16.6	0.00e+00	0	52	0	527433728	52	4034
2026-01-03 05:59:40.58	36.40	10.71	-44.9	-45.9	16.5	0.00e+00	0	52	0	532676608	52	4060
2026-01-03 05:59:41.56	36.29	10.79	-44.6	-45.6	16.7	0.00e+00	0	52	0	538968064	52	3952
2026-01-03 05:59:42.55	36.19	10.86	-44.6	-45.6	16.7	0.00e+00	0	52	0	544210944	52	3942
2026-01-03 05:59:43.54	36.08	10.93	-44.6	-45.6	16.8	0.00e+00	0	52	0	549453824	52	3939
2026-01-03 05:59:44.53	35.97	11.00	-44.6	-45.5	16.9	0.00e+00	0	52	0	555745280	52	3897
2026-01-03 05:59:45.52	35.86	11.08	-44.6	-45.6	16.8	0.00e+00	0	52	0	560988160	52	3918
2026-01-03 05:59:46.51	35.76	11.15	-44.6	-45.6	16.8	0.00e+00	0	52	0	566231040	52	3925
2026-01-03 05:59:47.49	35.65	11.22	-44.5	-45.5	16.9	0.00e+00	0	52	0	572522496	52	3873
2026-01-03 05:59:48.48	35.54	11.29	-44.5	-45.4	16.9	0.00e+00	0	52	0	577765376	52	3864
2026-01-03 05:59:49.47	35.43	11.37	-44.6	-45.6	16.8	0.00e+00	0	52	0	583008256	52	3937
2026-01-03 05:59:50.46	35.32	11.44	-44.6	-45.6	16.8	0.00e+00	0	52	0	588251136	52	3951
2026-01-03 05:59:51.45	35.21	11.51	-44.6	-45.6	16.8	0.00e+00	0	52	0	594542592	52	3940
2026-01-03 05:59:52.44	35.10	11.59	-44.7	-45.7	16.7	0.00e+00	0	52	0	599785472	52	3990
2026-01-03 05:59:53.43	34.99	11.66	-44.9	-45.9	16.5	0.00e+00	0	52	0	605028352	52	4080
2026-01-03 05:59:54.41	34.87	11.73	-44.9	-46.0	16.4	0.00e+00	0	52	0	611319808	52	4118
2026-01-03 05:59:55.40	34.76	11.81	-44.7	-45.7	16.8	0.00e+00	0	52	0	616562688	52	3963
2026-01-03 05:59:56.39	34.65	11.88	-44.5	-45.5	16.9	0.00e+00	0	53	0	621805568	52	3877
2026-01-03 05:59:57.38	34.53	11.95	-44.5	-45.4	16.9	0.00e+00	0	53	0	628097024	52	3865
2026-01-03 05:59:58.37	34.42	12.03	-44.5	-45.5	16.9	0.00e+00	0	53	0	633339904	52	3872
2026-01-03 05:59:59.35	34.30	12.10	-44.4	-45.4	17.0	0.00e+00	0	53	0	638582784	52	3844
2026-01-03 06:00:00.35	34.19	12.18	-44.5	-45.5	16.9	0.00e+00	0	52	0	644874240	52	3891
2026-01-03 06:00:01.34	34.07	12.25	-44.5	-45.5	17.0	0.00e+00	0	53	0	650117120	52	3870
2026-01-03 06:00:02.33	33.95	12.32	-44.4	-45.3	17.1	0.00e+00	0	53	0	655360000	52	3822
2026-01-03 06:00:03.31	33.84	12.40	-44.5	-45.4	17.2	0.00e+00	0	52	0	660602880	51	4071
2026-01-03 06:00:04.30	33.72	12.47	-44.4	-45.3	17.2	0.00e+00	0	53	0	666894336	51	4044
2026-01-03 06:00:05.30	33.60	12.55	-44.4	-45.3	17.2	0.00e+00	0	53	0	672137216	51	4029
2026-01-03 06:00:06.28	33.48	12.62	-44.5	-45.5	17.0	0.00e+00	0	53	0	678428672	51	4112
2026-01-03 06:00:07.27	33.36	12.70	-44.4	-45.3	17.2	0.00e+00	0	53	0	683671552	51	4045
2026-01-03 06:00:08.26	33.24	12.77	-44.4	-45.3	17.3	0.00e+00	0	53	0	688914432	51	4024
2026-01-03 06:00:09.25	33.12	12.85	-44.3	-45.3	17.3	0.00e+00	0	53	0	694157312	51	4008
2026-01-03 06:00:10.24	32.99	12.92	-44.3	-45.2	17.3	0.00e+00	0	53	0	700448768	51	4001
2026-01-03 06:00:11.24	32.87	13.00	-44.3	-45.2	17.3	0.00e+00	0	53	0	705691648	51	3992
2026-01-03 06:00:12.22	32.75	13.07	-44.3	-45.2	17.4	0.00e+00	0	53	0	710934528	51	3982
2026-01-03 06:00:13.21	32.62	13.15	-44.4	-45.3	17.2	0.00e+00	0	53	0	717225984	51	4028
2026-01-03 06:00:14.20	32.50	13.22	-44.1	-45.0	17.5	0.00e+00	0	53	0	722468864	51	3891
2026-01-03 06:00:15.18	32.37	13.30	-44.0	-44.9	17.7	0.00e+00	0	53	0	727711744	51	3843
2026-01-03 06:00:16.18	32.25	13.38	-44.1	-45.0	17.6	0.00e+00	0	53	0	732954624	51	3871
2026-01-03 06:00:17.17	32.12	13.45	-44.1	-45.0	17.5	0.00e+00	0	53	0	739246080	51	3894
2026-01-03 06:00:18.15	31.99	13.53	-44.3	-45.2	17.4	0.00e+00	0	53	0	744488960	51	3980
2026-01-03 06:00:19.14	31.87	13.60	-44.4	-45.3	17.3	0.00e+00	0	53	0	749731840	51	4036
2026-01-03 06:00:20.14	31.74	13.68	-44.2	-45.1	17.5	0.00e+00	0	53	0	756023296	51	3943
2026-01-03 06:00:21.13	31.61	13.76	-44.2	-45.0	17.5	0.00e+00	0	53	0	761266176	51	3912
2026-01-03 06:00:22.12	31.48	13.83	-44.2	-45.0	17.5	0.00e+00	0	53	0	766509056	51	3899
2026-01-03 06:00:23.11	31.34	13.91	-44.1	-44.9	17.6	0.00e+00	0	53	0	772800512	51	3868
2026-01-03 06:00:24.09	31.21	13.99	-44.1	-45.0	17.6	0.00e+00	0	53	0	778043392	51	3888
2026-01-03 06:00:25.09	31.08	14.06	-44.4	-45.3	17.3	0.00e+00	0	53	0	783286272	51	4007
2026-01-03 06:00:26.08	30.95	14.14	-44.1	-45.0	17.6	0.00e+00	0	53	0	789577728	51	3891
2026-01-03 06:00:27.07	30.81	14.22	-44.0	-44.8	17.8	0.00e+00	0	53	0	794820608	51	3817
2026-01-03 06:00:28.05	30.68	14.29	-43.9	-44.7	17.9	0.00e+00	0	53	0	800063488	51	3769
2026-01-03 06:00:29.04	30.55	14.37	-43.9	-44.7	17.9	0.00e+00	0	53	0	806354944	50	3973
2026-01-03 06:00:30.03	30.41	14.45	-43.9	-44.7	17.9	0.00e+00	0	53	0	811597824	50	3978
2026-01-03 06:00:31.01	30.27	14.52	-44.0	-44.8	17.8	0.00e+00	0	54	0	816840704	50	4032
2026-01-03 06:00:32.00	30.14	14.60	-44.2	-45.0	17.5	0.00e+00	0	54	0	822083584	50	4142
2026-01-03 06:00:32.98	30.00	14.68	-43.9	-44.8	17.8	0.00e+00	0	53	0	828375040	50	4007
2026-01-03 06:00:33.97	29.86	14.75	-43.7	-44.5	18.1	0.00e+00	0	54	0	833617920	50	3903
2026-01-03 06:00:34.97	29.72	14.83	-43.7	-44.5	18.1	0.00e+00	0	53	0	838860800	50	3879
2026-01-03 06:00:35.95	29.58	14.91	-43.7	-44.5	18.1	0.00e+00	0	53	0	845152256	50	3892
2026-01-03 06:00:36.94	29.44	14.99	-43.8	-44.6	18.0	0.00e+00	0	53	0	850395136	50	3922
2026-01-03 06:00:37.93	29.30	15.06	-43.9	-44.7	17.9	0.00e+00	0	54	0	855638016	50	3998
2026-01-03 06:00:38.92	29.16	15.14	-43.7	-44.5	18.1	0.00e+00	0	54	0	860880896	50	3890
2026-01-03 06:00:39.90	29.02	15.22	-43.5	-44.3	18.3	0.00e+00	0	54	0	867172352	50	3815
2026-01-03 06:00:40.89	28.87	15.30	-43.5	-44.2	18.3	0.00e+00	0	54	0	872415232	50	3774
2026-01-03 06:00:41.89	28.72	15.38	-43.5	-44.3	18.3	0.00e+00	0	54	0	877658112	50	3791
2026-01-03 06:00:42.88	28.58	15.45	-43.6	-44.4	18.3	0.00e+00	0	54	0	883949568	50	3836
2026-01-03 06:00:43.87	28.43	15.53	-43.6	-44.4	18.2	0.00e+00	0	54	0	889192448	50	3839
2026-01-03 06:00:44.86	28.29	15.61	-43.7	-44.5	18.2	0.00e+00	0	54	0	894435328	50	3869
2026-01-03 06:00:45.85	28.14	15.69	-43.8	-44.6	18.0	0.00e+00	0	54	0	900726784	50	3951
2026-01-03 06:00:46.84	27.99	15.77	-43.7	-44.5	18.1	0.00e+00	0	54	0	905969664	50	3888
2026-01-03 06:00:47.84	27.84	15.85	-43.6	-44.4	18.2	0.00e+00	0	54	0	911212544	50	3850
2026-01-03 06:00:48.83	27.69	15.92	-43.6	-44.4	18.2	0.00e+00	0	54	0	916455424	50	3858
2026-01-03 06:00:49.81	27.54	16.00	-43.7	-44.5	18.1	0.00e+00	0	54	0	922746880	50	3898
2026-01-03 06:00:50.80	27.39	16.08	-43.6	-44.4	18.2	0.00e+00	0	54	0	927989760	50	3864
2026-01-03 06:00:51.79	27.23	16.16	-43.5	-44.3	18.4	0.00e+00	0	54	0	934281216	50	3790
2026-01-03 06:00:52.77	27.08	16.24	-43.4	-44.2	18.4	0.00e+00	0	54	0	939524096	50	3772
2026-01-03 06:00:53.77	26.93	16.32	-43.4	-44.1	18.5	0.00e+00	0	54	0	944766976	49	3950
2026-01-03 06:00:54.76	26.77	16.39	-43.4	-44.2	18.5	0.00e+00	0	54	0	950009856	49	3961
2026-01-03 06:00:55.75	26.61	16.47	-43.3	-44.1	18.5	0.00e+00	0	54	0	956301312	49	3916
2026-01-03 06:00:56.74	26.46	16.55	-43.3	-44.1	18.5	0.00e+00	0	54	0	961544192	49	3922
2026-01-03 06:00:57.73	26.30	16.63	-43.2	-43.9	18.7	0.00e+00	0	54	0	967835648	49	3863
2026-01-03 06:00:58.72	26.14	16.71	-43.1	-43.8	18.8	0.00e+00	0	54	0	973078528	49	3803
2026-01-03 06:00:59.71	25.98	16.79	-43.0	-43.8	18.9	0.00e+00	0	54	0	978321408	49	3790
2026-01-03 06:01:00.70	25.82	16.87	-43.0	-43.7	18.9	0.00e+00	0	54	0	983564288	49	3764
2026-01-03 06:01:01.68	25.66	16.94	-43.0	-43.8	18.8	0.00e+00	0	54	0	989855744	49	3798
2026-01-03 06:01:02.67	25.50	17.02	-43.1	-43.8	18.8	0.00e+00	0	54	0	995098624	49	3824
2026-01-03 06:01:03.65	25.34	17.10	-43.1	-43.9	18.7	0.00e+00	0	54	0	1000341504	49	3845
2026-01-03 06:01:04.64	25.17	17.18	-43.2	-44.0	18.6	0.00e+00	0	54	0	1006632960	49	3900
2026-01-03 06:01:05.63	25.01	17.26	-43.4	-44.2	18.5	0.00e+00	0	54	0	1011875840	49	3966
2026-01-03 06:01:06.62	24.84	17.34	-43.3	-44.1	18.6	0.00e+00	0	54	0	1017118720	49	3916
2026-01-03 06:01:07.62	24.68	17.42	-43.0	-43.8	18.8	0.00e+00	0	54	0	1022361600	49	3796
2026-01-03 06:01:08.61	24.51	17.50	-42.9	-43.6	19.0	0.00e+00	0	54	0	1028653056	49	3721
2026-01-03 06:01:09.61	24.34	17.58	-42.9	-43.6	19.0	0.00e+00	0	54	0	1033895936	48	3945
2026-01-03 06:01:10.60	24.17	17.65	-42.8	-43.5	19.1	0.00e+00	0	54	0	1039138816	48	3911
2026-01-03 06:01:11.59	24.00	17.73	-42.9	-43.7	19.0	0.00e+00	0	54	0	1045430272	48	3962
2026-01-03 06:01:12.59	23.83	17.81	-43.0	-43.7	18.9	0.00e+00	0	54	0	1050673152	48	3999
2026-01-03 06:01:13.58	23.66	17.89	-43.0	-43.7	18.9	0.00e+00	0	54	0	1055916032	48	3994
2026-01-03 06:01:14.56	23.49	17.97	-43.1	-43.8	18.8	0.00e+00	0	54	0	1062207488	48	4039
2026-01-03 06:01:15.55	23.31	18.05	-43.2	-44.0	18.6	0.00e+00	0	54	0	1067450368	48	4119
2026-01-03 06:01:16.54	23.14	18.13	-43.2	-44.0	18.7	0.00e+00	0	54	0	1072693248	48	4112
2026-01-03 06:01:17.53	22.96	18.21	-43.1	-43.8	18.8	0.00e+00	0	54	0	1078984704	48	4036
2026-01-03 06:01:18.52	22.79	18.28	-43.0	-43.8	18.9	0.00e+00	0	55	0	1084227584	48	4010
2026-01-03 06:01:19.52	22.61	18.36	-43.1	-43.8	18.8	0.00e+00	0	54	0	1089470464	48	4037
2026-01-03 06:01:20.51	22.43	18.44	-43.0	-43.8	18.9	0.00e+00	0	54	0	1095761920	48	4020
2026-01-03 06:01:21.49	22.25	18.52	-42.9	-43.6	19.0	0.00e+00	0	54	0	1101004800	48	3954
2026-01-03 06:01:22.48	22.07	18.60	-42.9	-43.7	19.0	0.00e+00	0	55	0	1106247680	48	3967
2026-01-03 06:01:23.47	21.89	18.68	-42.9	-43.6	19.0	0.00e+00	0	54	0	1111490560	48	3950
2026-01-03 06:01:24.46	21.71	18.76	-42.8	-43.5	19.1	0.00e+00	0	54	0	1117782016	48	3904
2026-01-03 06:01:25.45	21.53	18.83	-42.8	-43.5	19.2	0.00e+00	0	54	0	1123024896	48	3885
2026-01-03 06:01:26.44	21.34	18.91	-42.8	-43.5	19.1	0.00e+00	0	54	0	1128267776	48	3897
2026-01-03 06:01:27.43	21.16	18.99	-42.9	-43.6	19.0	0.00e+00	0	55	0	1134559232	48	3950
2026-01-03 06:01:28.41	20.97	19.07	-42.9	-43.7	19.0	0.00e+00	0	55	0	1139802112	48	3962
2026-01-03 06:01:29.41	20.78	19.15	-42.7	-43.4	19.3	0.00e+00	0	54	0	1145044992	48	3825
2026-01-03 06:01:30.39	20.60	19.22	-42.5	-43.2	19.5	0.00e+00	0	55	0	1151336448	48	3750
2026-01-03 06:01:31.38	20.41	19.30	-42.5	-43.1	19.5	0.00e+00	0	55	0	1156579328	48	3733
2026-01-03 06:01:32.37	20.22	19.38	-42.6	-43.3	19.4	0.00e+00	0	55	0	1161822208	48	3796
2026-01-03 06:01:33.36	20.03	19.46	-42.6	-43.3	19.3	0.00e+00	0	55	0	1167065088	48	3822
2026-01-03 06:01:34.35	19.84	19.54	-42.8	-43.5	19.2	0.00e+00	0	55	0	1173356544	48	3889
2026-01-03 06:01:35.34	19.64	19.61	-42.8	-43.5	19.2	0.00e+00	0	55	0	1178599424	48	3890
2026-01-03 06:01:36.32	19.45	19.69	-42.9	-43.7	19.0	0.00e+00	0	55	0	1183842304	48	3964
2026-01-03 06:01:37.31	19.26	19.77	-43.0	-43.7	19.0	0.00e+00	0	55	0	1190133760	48	3983
2026-01-03 06:01:38.30	19.06	19.84	-42.7	-43.4	19.2	0.00e+00	0	55	0	1195376640	48	3859
2026-01-03 06:01:39.29	18.87	19.92	-42.5	-43.2	19.5	0.00e+00	0	55	0	1200619520	48	3762
2026-01-03 06:01:40.28	18.67	20.00	-42.4	-43.1	19.6	0.00e+00	0	55	0	1206910976	48	3709
2026-01-03 06:01:41.27	18.47	20.08	-42.5	-43.2	19.5	0.00e+00	0	55	0	1212153856	48	3738
2026-01-03 06:01:42.26	18.27	20.15	-42.5	-43.2	19.5	0.00e+00	0	55	0	1217396736	48	3753
2026-01-03 06:01:43.25	18.07	20.23	-42.6	-43.3	19.4	0.00e+00	0	55	0	1223688192	48	3807
2026-01-03 06:01:44.24	17.87	20.31	-42.5	-43.2	19.5	0.00e+00	0	55	0	1228931072	48	3757
2026-01-03 06:01:45.22	17.67	20.38	-42.4	-43.1	19.6	0.00e+00	0	55	0	1234173952	48	3709
2026-01-03 06:01:46.21	17.46	20.46	-42.3	-42.9	19.5	0.00e+00	0	55	0	1239416832	47	3864
2026-01-03 06:01:47.21	17.26	20.53	-42.1	-42.8	19.7	0.00e+00	0	55	0	1245708288	47	3814
2026-01-03 06:01:48.19	17.05	20.61	-42.1	-42.8	19.7	0.00e+00	0	55	0	1250951168	47	3799
2026-01-03 06:01:49.18	16.85	20.68	-42.1	-42.7	19.7	0.00e+00	0	55	0	1257242624	47	3775
2026-01-03 06:01:50.17	16.64	20.76	-42.1	-42.8	19.7	0.00e+00	0	55	0	1262485504	47	3804
2026-01-03 06:01:51.16	16.43	20.84	-42.2	-42.9	19.6	0.00e+00	0	55	0	1267728384	47	3844
2026-01-03 06:01:52.15	16.22	20.91	-42.1	-42.8	19.7	0.00e+00	0	55	0	1272971264	47	3787
2026-01-03 06:01:53.14	16.01	20.99	-42.1	-42.7	19.8	0.00e+00	0	55	0	1279262720	47	3761
2026-01-03 06:01:54.12	15.80	21.06	-42.1	-42.7	19.8	0.00e+00	0	55	0	1284505600	47	3763
2026-01-03 06:01:55.11	15.58	21.13	-42.1	-42.8	19.7	0.00e+00	0	55	0	1289748480	47	3795
2026-01-03 06:01:56.10	15.37	21.21	-42.2	-42.9	19.6	0.00e+00	0	55	0	1296039936	47	3841
2026-01-03 06:01:57.10	15.15	21.28	-42.1	-42.7	19.7	0.00e+00	0	55	0	1301282816	47	3776
2026-01-03 06:01:58.09	14.94	21.36	-42.1	-42.7	19.8	0.00e+00	0	55	0	1306525696	47	3774
2026-01-03 06:01:59.09	14.72	21.43	-42.0	-42.7	19.8	0.00e+00	0	55	0	1312817152	47	3748
2026-01-03 06:02:00.08	14.50	21.51	-42.0	-42.7	19.8	0.00e+00	0	55	0	1318060032	47	3763
2026-01-03 06:02:01.07	14.28	21.58	-42.3	-43.0	19.5	0.00e+00	0	55	0	1323302912	47	3882
2026-01-03 06:02:02.06	14.06	21.65	-42.1	-42.8	19.7	0.00e+00	0	55	0	1328545792	47	3788
2026-01-03 06:02:03.05	13.84	21.72	-42.2	-42.8	19.7	0.00e+00	0	55	0	1334837248	47	3811
2026-01-03 06:02:04.03	13.62	21.80	-42.1	-42.8	19.7	0.00e+00	0	55	0	1340080128	47	3802
2026-01-03 06:02:05.03	13.39	21.87	-42.3	-43.0	19.5	0.00e+00	0	55	0	1345323008	47	3888
2026-01-03 06:02:06.01	13.17	21.94	-42.3	-42.9	19.6	0.00e+00	0	55	0	1351614464	47	3868
2026-01-03 06:02:07.00	12.94	22.01	-42.4	-43.1	19.4	0.00e+00	0	55	0	1356857344	47	3926
2026-01-03 06:02:07.99	12.72	22.08	-42.6	-43.3	19.3	0.00e+00	0	55	0	1362100224	47	4008
2026-01-03 06:02:08.99	12.49	22.16	-42.4	-43.1	19.4	0.00e+00	0	55	0	1368391680	47	3922
2026-01-03 06:02:09.98	12.26	22.23	-42.3	-42.9	19.6	0.00e+00	0	55	0	1373634560	47	3865
2026-01-03 06:02:10.97	12.03	22.30	-42.2	-42.9	19.6	0.00e+00	0	55	0	1378877440	47	3844
2026-01-03 06:02:11.96	11.80	22.37	-42.4	-43.1	19.4	0.00e+00	0	55	0	1385168896	47	3916
2026-01-03 06:02:12.94	11.57	22.44	-42.6	-43.3	19.2	0.00e+00	0	55	0	1390411776	47	4034
2026-01-03 06:02:13.92	11.34	22.51	-42.3	-43.0	19.4	0.00e+00	0	55	0	1395654656	47	3910
2026-01-03 06:02:14.92	11.10	22.58	-42.4	-43.1	19.3	0.00e+00	0	55	0	1400897536	47	3946
2026-01-03 06:02:15.91	10.86	22.65	-42.2	-42.8	19.6	0.00e+00	0	55	0	1407188992	47	3823
2026-01-03 06:02:16.90	10.63	22.71	-42.0	-42.7	19.7	0.00e+00	0	55	0	1412431872	47	3744
2026-01-03 06:02:17.90	10.39	22.78	-41.9	-42.6	19.8	0.00e+00	0	55	0	1417674752	47	3702
2026-01-03 06:02:18.89	10.15	22.85	-41.9	-42.6	19.8	0.00e+00	0	55	0	1423966208	46	3916
2026-01-03 06:02:19.88	9.91	22.92	-41.8	-42.5	19.7	0.00e+00	0	56	0	1429209088	46	3885
2026-01-03 06:02:20.86	9.67	22.99	-41.8	-42.4	19.7	0.00e+00	0	55	0	1434451968	46	3867
2026-01-03 06:02:21.85	9.43	23.05	-41.9	-42.6	19.4	0.00e+00	0	55	0	1440743424	46	3930
2026-01-03 06:02:22.84	9.19	23.12	-42.0	-42.8	19.1	0.00e+00	0	55	0	1445986304	46	4013
2026-01-03 06:02:23.83	8.94	23.18	-42.3	-43.1	18.7	0.00e+00	0	55	0	1451229184	46	4147
2026-01-03 06:02:24.82	8.70	23.25	-42.7	-43.5	18.2	0.00e+00	0	55	0	1456472064	47	4112
2026-01-03 06:02:25.82	8.45	23.32	-43.3	-44.2	17.6	0.00e+00	0	55	0	1462763520	48	4218
2026-01-03 06:02:26.80	8.21	23.38	-44.2	-45.2	16.7	0.00e+00	0	55	0	1468006400	50	4203
2026-01-03 06:02:27.79	7.96	23.45	-44.7	-45.9	15.8	0.00e+00	0	55	0	1474297856	51	4305
2026-01-03 06:02:28.78	7.71	23.51	-45.2	-46.4	15.1	0.00e+00	0	55	0	1479540736	52	4320
2026-01-03 06:02:29.75	7.47	23.57	-45.4	-46.7	14.7	0.00e+00	0	56	0	1484783616	52	4480
2026-01-03 06:02:30.74	7.22	23.63	-45.4	-46.7	14.7	0.00e+00	0	55	0	1490026496	52	4475
2026-01-03 06:02:31.72	6.97	23.70	-44.9	-46.2	15.2	0.00e+00	0	55	0	1496317952	52	4216
2026-01-03 06:02:32.71	6.71	23.76	-44.5	-45.7	15.6	0.00e+00	0	55	0	1501560832	52	3996
2026-01-03 06:02:33.70	6.46	23.82	-44.2	-45.3	16.1	0.00e+00	0	55	0	1506803712	51	4026
2026-01-03 06:02:34.69	6.20	23.88	-43.8	-44.8	16.6	0.00e+00	0	55	0	1513095168	50	4043
2026-01-03 06:02:35.67	5.95	23.94	-43.6	-44.6	16.9	0.00e+00	0	56	0	1518338048	50	3939
2026-01-03 06:02:36.65	5.70	24.00	-43.1	-44.0	17.6	0.00e+00	0	56	0	1523580928	49	3871
2026-01-03 06:02:37.65	5.44	24.06	-42.9	-43.8	17.8	0.00e+00	0	55	0	1528823808	49	3785
2026-01-03 06:02:38.64	5.18	24.12	-43.2	-44.1	17.5	0.00e+00	0	56	0	1535115264	49	3951
2026-01-03 06:02:39.63	4.92	24.18	-43.8	-44.8	16.9	0.00e+00	0	56	0	1540358144	49	4272
2026-01-03 06:02:40.62	4.66	24.24	-45.1	-46.3	15.4	0.00e+00	0	56	0	1545601024	51	4507
2026-01-03 06:02:41.60	4.40	24.30	-46.3	-47.8	13.6	2.20e-06	0	55	0	1551892480	54	4538
2026-01-03 06:02:42.59	4.13	24.36	-47.5	-49.6	11.8	3.26e-04	0	56	0	1557135360	56	4936
2026-01-03 06:02:43.58	3.87	24.41	-48.4	-50.9	10.4	3.41e-03	0	56	0	1562378240	58	5158
2026-01-03 06:02:44.57	3.61	24.47	-48.8	-51.6	9.8	1.19e-02	0	56	0	1567621120	59	5258
2026-01-03 06:02:45.56	3.34	24.52	-48.3	-50.5	11.1	5.89e-03	0	56	0	1573912576	59	4638
2026-01-03 06:02:46.55	3.07	24.58	-47.2	-48.8	13.2	1.84e-04	0	56	0	1579155456	57	4274
2026-01-03 06:02:47.54	2.81	24.63	-45.5	-46.7	15.5	0.00e+00	0	56	0	1585446912	54	3973
2026-01-03 06:02:48.53	2.54	24.69	-44.2	-45.1	17.5	0.00e+00	0	56	0	1590689792	51	3917
2026-01-03 06:02:49.52	2.27	24.74	-43.1	-43.9	18.7	0.00e+00	0	56	0	1595932672	49	3832
2026-01-03 06:02:50.50	2.00	24.79	-42.4	-43.1	19.6	0.00e+00	0	56	0	1601175552	48	3706
2026-01-03 06:02:51.49	1.73	24.85	-41.8	-42.4	20.1	0.00e+00	0	56	0	1607467008	46	3840
2026-01-03 06:02:52.48	1.46	24.90	-41.4	-42.0	20.4	0.00e+00	0	56	0	1612709888	46	3678
2026-01-03 06:02:53.48	1.18	24.95	-41.3	-41.9	20.5	0.00e+00	0	56	0	1617952768	45	3860
2026-01-03 06:02:54.47	0.91	25.00	-41.2	-41.9	20.6	0.00e+00	0	56	0	1624244224	45	3828
2026-01-03 06:02:55.46	0.63	25.05	-41.2	-41.9	20.6	0.00e+00	0	56	0	1629487104	45	3825
2026-01-03 06:02:56.45	0.36	25.10	-41.2	-41.8	20.7	0.00e+00	0	56	0	1634729984	45	3796
2026-01-03 06:02:57.44	0.08	25.15	-41.2	-41.8	20.6	0.00e+00	0	56	0	1641021440	45	3816
2026-01-03 06:02:58.42	359.81	25.20	-41.3	-41.9	20.6	0.00e+00	0	56	0	1646264320	45	3833
2026-01-03 06:02:59.42	359.52	25.24	-41.3	-41.9	20.6	0.00e+00	0	56	0	1651507200	45	3827
2026-01-03 06:03:00.41	359.25	25.29	-41.5	-42.1	20.4	0.00e+00	0	56	0	1656750080	45	3923
2026-01-03 06:03:01.39	358.97	25.34	-41.5	-42.1	20.4	0.00e+00	0	56	0	1663041536	45	3956
2026-01-03 06:03:02.38	358.69	25.38	-41.5	-42.1	20.4	0.00e+00	0	56	0	1668284416	45	3935
2026-01-03 06:03:03.36	358.41	25.42	-41.5	-42.1	20.4	0.00e+00	0	56	0	1673527296	45	3928
2026-01-03 06:03:04.35	358.13	25.47	-41.5	-42.1	20.4	0.00e+00	0	56	0	1679818752	45	3932
2026-01-03 06:03:05.35	357.84	25.51	-41.4	-42.0	20.5	0.00e+00	0	56	0	1685061632	45	3889
2026-01-03 06:03:06.34	357.56	25.55	-41.4	-42.0	20.5	0.00e+00	0	56	0	1690304512	45	3897
2026-01-03 06:03:07.33	357.27	25.60	-41.6	-42.3	20.3	0.00e+00	0	56	0	1696595968	45	4015
2026-01-03 06:03:08.32	356.99	25.64	-41.8	-42.5	20.0	0.00e+00	0	56	0	1701838848	45	4119
2026-01-03 06:03:09.31	356.70	25.68	-41.9	-42.5	20.0	0.00e+00	0	56	0	1707081728	45	4143
2026-01-03 06:03:10.30	356.41	25.72	-41.9	-42.6	19.9	0.00e+00	0	56	0	1713373184	45	4161
2026-01-03 06:03:11.29	356.13	25.76	-42.0	-42.7	19.9	0.00e+00	0	56	0	1718616064	45	4202
2026-01-03 06:03:12.28	355.84	25.79	-42.0	-42.7	19.8	0.00e+00	0	56	0	1723858944	46	3986
2026-01-03 06:03:13.26	355.55	25.83	-41.8	-42.4	20.1	0.00e+00	0	56	0	1729101824	46	3849
2026-01-03 06:03:14.25	355.26	25.87	-41.6	-42.3	20.3	0.00e+00	0	56	0	1735393280	46	3782
2026-01-03 06:03:15.24	354.97	25.90	-41.6	-42.2	20.3	0.00e+00	0	56	0	1740636160	46	3759
2026-01-03 06:03:16.23	354.68	25.94	-41.6	-42.2	20.4	0.00e+00	0	56	0	1745879040	46	3752
2026-01-03 06:03:17.22	354.39	25.97	-41.8	-42.4	20.1	0.00e+00	0	56	0	1752170496	46	3858
2026-01-03 06:03:18.21	354.10	26.01	-41.5	-42.1	20.4	0.00e+00	0	56	0	1757413376	46	3724
2026-01-03 06:03:19.20	353.80	26.04	-41.2	-41.8	20.7	0.00e+00	0	56	0	1762656256	45	3817
2026-01-03 06:03:20.20	353.51	26.07	-41.1	-41.7	20.8	0.00e+00	0	56	0	1768947712	45	3768
2026-01-03 06:03:21.19	353.21	26.10	-41.2	-41.8	20.7	0.00e+00	0	56	0	1774190592	45	3794
2026-01-03 06:03:22.18	352.92	26.13	-41.2	-41.8	20.6	0.00e+00	0	56	0	1779433472	45	3820
2026-01-03 06:03:23.17	352.62	26.16	-41.3	-41.9	20.6	0.00e+00	0	56	0	1785724928	45	3835
2026-01-03 06:03:24.15	352.33	26.19	-41.3	-41.8	20.6	0.00e+00	0	56	0	1790967808	45	3822
2026-01-03 06:03:25.14	352.03	26.22	-41.4	-42.0	20.5	0.00e+00	0	56	0	1796210688	45	3900
2026-01-03 06:03:26.13	351.74	26.25	-41.6	-42.3	20.3	0.00e+00	0	56	0	1802502144	45	4005
2026-01-03 06:03:27.12	351.44	26.27	-41.4	-42.0	20.5	0.00e+00	0	56	0	1807745024	45	3894
2026-01-03 06:03:28.11	351.14	26.30	-41.2	-41.8	20.7	0.00e+00	0	56	0	1812987904	45	3823
2026-01-03 06:03:29.09	350.84	26.32	-41.2	-41.8	20.6	0.00e+00	0	56	0	1818230784	45	3820
2026-01-03 06:03:30.07	350.55	26.35	-41.4	-42.0	20.5	0.00e+00	0	56	0	1824522240	45	3900
2026-01-03 06:03:31.06	350.25	26.37	-41.2	-41.8	20.7	0.00e+00	0	56	0	1829765120	45	3816
2026-01-03 06:03:32.05	349.95	26.39	-41.2	-41.8	20.7	0.00e+00	0	56	0	1835008000	45	3806
2026-01-03 06:03:33.04	349.65	26.42	-41.4	-42.0	20.4	0.00e+00	0	56	0	1841299456	45	3905
2026-01-03 06:03:34.03	349.35	26.44	-41.4	-42.0	20.5	0.00e+00	0	56	0	1846542336	45	3903
2026-01-03 06:03:35.01	349.05	26.46	-41.4	-42.1	20.4	0.00e+00	0	56	0	1851785216	45	3923
2026-01-03 06:03:36.00	348.75	26.47	-41.5	-42.1	20.4	0.00e+00	0	56	0	1857028096	45	3945
2026-01-03 06:03:36.99	348.45	26.49	-41.6	-42.3	20.3	0.00e+00	0	56	0	1863319552	45	4013
2026-01-03 06:03:37.98	348.15	26.51	-41.5	-42.1	20.4	0.00e+00	0	56	0	1868562432	45	3950
2026-01-03 06:03:38.96	347.85	26.53	-41.5	-42.1	20.4	0.00e+00	0	56	0	1873805312	45	3944
2026-01-03 06:03:39.95	347.54	26.54	-41.6	-42.2	20.3	0.00e+00	0	56	0	1880096768	45	3976
2026-01-03 06:03:40.94	347.24	26.56	-41.4	-42.1	20.4	0.00e+00	0	56	0	1885339648	45	3922
2026-01-03 06:03:41.94	346.93	26.57	-41.4	-42.0	20.5	0.00e+00	0	56	0	1890582528	45	3896
2026-01-03 06:03:42.93	346.63	26.58	-41.2	-41.8	20.7	0.00e+00	0	56	0	1895825408	45	3807
2026-01-03 06:03:43.92	346.33	26.59	-41.2	-41.8	20.7	0.00e+00	0	56	0	1902116864	45	3798
2026-01-03 06:03:44.90	346.03	26.60	-41.0	-41.6	20.8	0.00e+00	0	56	0	1907359744	45	3730
2026-01-03 06:03:45.89	345.72	26.61	-41.0	-41.6	20.9	0.00e+00	0	56	0	1913651200	45	3702
2026-01-03 06:03:46.88	345.42	26.62	-40.9	-41.5	20.9	0.00e+00	0	56	0	1918894080	45	3688
2026-01-03 06:03:47.87	345.11	26.63	-40.8	-41.4	21.1	0.00e+00	0	56	0	1924136960	44	3860
2026-01-03 06:03:48.86	344.81	26.64	-40.8	-41.4	21.1	0.00e+00	0	56	0	1929379840	44	3829
2026-01-03 06:03:49.86	344.50	26.65	-40.9	-41.5	21.0	0.00e+00	0	56	0	1935671296	44	3893
2026-01-03 06:03:50.85	344.20	26.65	-41.1	-41.7	20.8	0.00e+00	0	56	0	1940914176	44	3997
2026-01-03 06:03:51.84	343.89	26.66	-41.3	-41.9	20.6	0.00e+00	0	56	0	1946157056	44	4061
2026-01-03 06:03:52.84	343.58	26.66	-41.3	-41.9	20.6	0.00e+00	0	56	0	1952448512	44	4067
2026-01-03 06:03:53.83	343.28	26.66	-41.4	-42.0	20.5	0.00e+00	0	56	0	1957691392	44	4132
2026-01-03 06:03:54.82	342.97	26.67	-41.8	-42.4	20.1	0.00e+00	0	56	0	1962934272	45	4097
2026-01-03 06:03:55.82	342.66	26.67	-41.9	-42.5	20.0	0.00e+00	0	56	0	1969225728	45	4144
2026-01-03 06:03:56.80	342.36	26.67	-41.8	-42.5	20.0	0.00e+00	0	56	0	1974468608	45	4123
2026-01-03 06:03:57.79	342.06	26.67	-42.0	-42.6	19.9	0.00e+00	0	56	0	1979711488	45	4181
2026-01-03 06:03:58.78	341.75	26.66	-42.3	-42.9	19.6	0.00e+00	0	56	0	1986002944	46	4090
2026-01-03 06:03:59.78	341.44	26.66	-42.0	-42.7	19.9	0.00e+00	0	56	0	1991245824	46	3975
2026-01-03 06:04:00.76	341.14	26.66	-41.6	-42.2	20.3	0.00e+00	0	56	0	1996488704	46	3775
2026-01-03 06:04:01.75	340.84	26.65	-41.3	-41.9	20.5	0.00e+00	0	56	0	2002780160	45	3868
2026-01-03 06:04:02.74	340.53	26.65	-41.2	-41.8	20.7	0.00e+00	0	56	0	2008023040	45	3789
2026-01-03 06:04:03.73	340.23	26.64	-41.1	-41.7	20.8	0.00e+00	0	56	0	2013265920	45	3760
2026-01-03 06:04:04.72	339.92	26.64	-41.1	-41.7	20.8	0.00e+00	0	56	0	2018508800	45	3758
2026-01-03 06:04:05.71	339.62	26.63	-41.0	-41.6	20.9	0.00e+00	0	56	0	2024800256	45	3712
2026-01-03 06:04:06.70	339.31	26.62	-41.0	-41.6	20.9	0.00e+00	0	56	0	2030043136	45	3720
2026-01-03 06:04:07.70	339.00	26.61	-41.0	-41.5	20.9	0.00e+00	0	56	0	2035286016	45	3692
2026-01-03 06:04:08.69	338.70	26.60	-41.1	-41.7	20.8	0.00e+00	0	57	0	2041577472	45	3757
2026-01-03 06:04:09.68	338.40	26.59	-41.3	-41.9	20.7	0.00e+00	0	56	0	2046820352	45	3825
2026-01-03 06:04:10.66	338.10	26.58	-41.3	-41.9	20.6	0.00e+00	0	56	0	2052063232	45	3865
2026-01-03 06:04:11.66	337.79	26.56	-41.3	-41.9	20.6	0.00e+00	0	56	0	2058354688	45	3839
2026-01-03 06:04:12.65	337.49	26.55	-41.2	-41.8	20.7	0.00e+00	0	56	0	2063597568	45	3791
2026-01-03 06:04:13.65	337.18	26.53	-41.2	-41.8	20.7	0.00e+00	0	56	0	2068840448	45	3814
2026-01-03 06:04:14.63	336.88	26.52	-41.4	-42.0	20.5	0.00e+00	0	56	0	2075131904	45	3911
2026-01-03 06:04:15.62	336.58	26.50	-41.5	-42.1	20.4	0.00e+00	0	56	0	2080374784	45	3933
2026-01-03 06:04:16.61	336.28	26.48	-41.5	-42.1	20.4	0.00e+00	0	56	0	2085617664	45	3938
2026-01-03 06:04:17.60	335.98	26.46	-41.5	-42.1	20.4	0.00e+00	0	56	0	2091909120	45	3936
2026-01-03 06:04:18.60	335.67	26.45	-41.5	-42.1	20.4	0.00e+00	0	57	0	2097152000	45	3956
2026-01-03 06:04:19.58	335.37	26.43	-41.4	-42.0	20.5	0.00e+00	0	56	0	2102394880	45	3908
2026-01-03 06:04:20.57	335.07	26.40	-41.3	-41.9	20.6	0.00e+00	0	56	0	2107637760	45	3853
2026-01-03 06:04:21.57	334.77	26.38	-41.4	-42.0	20.5	0.00e+00	0	56	0	2113929216	45	3913
2026-01-03 06:04:22.56	334.47	26.36	-41.5	-42.1	20.4	0.00e+00	0	56	0	2119172096	45	3924
2026-01-03 06:04:23.54	334.17	26.34	-41.4	-42.0	20.5	0.00e+00	0	56	0	2125463552	45	3899
2026-01-03 06:04:24.53	333.88	26.31	-41.3	-41.9	20.6	0.00e+00	0	56	0	2130706432	45	3838
2026-01-03 06:04:25.52	333.58	26.29	-41.0	-41.5	21.0	0.00e+00	0	56	0	2135949312	45	3689
2026-01-03 06:04:26.51	333.28	26.26	-40.9	-41.4	21.1	0.00e+00	0	57	0	2141192192	44	3865
2026-01-03 06:04:27.50	332.98	26.23	-41.0	-41.6	21.0	0.00e+00	0	56	0	2147483648	44	3918
2026-01-03 06:04:28.48	332.69	26.21	-41.2	-41.9	20.7	0.00e+00	0	56	0	2152726528	44	4054
2026-01-03 06:04:29.47	332.39	26.18	-41.3	-41.9	20.6	0.00e+00	0	56	0	2157969408	44	4096
2026-01-03 06:04:30.46	332.10	26.15	-41.4	-42.0	20.6	0.00e+00	0	56	0	2164260864	44	4103
2026-01-03 06:04:31.45	331.80	26.12	-41.5	-42.1	20.4	0.00e+00	0	56	0	2169503744	44	4182
2026-01-03 06:04:32.44	331.51	26.09	-41.6	-42.2	20.4	0.00e+00	0	56	0	2174746624	44	4207
2026-01-03 06:04:33.42	331.21	26.06	-41.4	-42.1	20.5	0.00e+00	0	56	0	2179989504	44	4146
2026-01-03 06:04:34.41	330.92	26.02	-41.2	-41.7	20.8	0.00e+00	0	56	0	2186280960	44	4002
2026-01-03 06:04:35.40	330.63	25.99	-41.1	-41.7	20.9	0.00e+00	0	56	0	2191523840	44	3960
2026-01-03 06:04:36.39	330.34	25.96	-41.1	-41.6	20.9	0.00e+00	0	56	0	2196766720	44	3944
2026-01-03 06:04:37.39	330.04	25.92	-41.0	-41.5	21.0	0.00e+00	0	57	0	2203058176	44	3905
2026-01-03 06:04:38.38	329.75	25.89	-40.8	-41.4	21.1	0.00e+00	0	56	0	2208301056	44	3847
2026-01-03 06:04:39.37	329.46	25.85	-40.9	-41.5	21.0	0.00e+00	0	56	0	2213543936	44	3874
2026-01-03 06:04:40.35	329.17	25.81	-41.0	-41.6	21.0	0.00e+00	0	56	0	2219835392	44	3915
2026-01-03 06:04:41.35	328.88	25.77	-41.0	-41.6	20.9	0.00e+00	0	56	0	2225078272	44	3942
2026-01-03 06:04:42.34	328.59	25.74	-41.3	-41.9	20.7	0.00e+00	0	57	0	2230321152	44	4062
2026-01-03 06:04:43.32	328.31	25.70	-41.1	-41.7	20.8	0.00e+00	0	57	0	2235564032	44	3994
2026-01-03 06:04:44.31	328.02	25.66	-41.2	-41.8	20.8	0.00e+00	0	56	0	2241855488	44	4006
2026-01-03 06:04:45.31	327.73	25.62	-41.4	-42.0	20.6	0.00e+00	0	56	0	2247098368	44	4102
2026-01-03 06:04:46.30	327.45	25.57	-41.6	-42.2	20.4	0.00e+00	0	57	0	2253389824	45	3975
2026-01-03 06:04:47.29	327.16	25.53	-41.4	-42.0	20.5	0.00e+00	0	56	0	2258632704	45	3891
2026-01-03 06:04:48.28	326.88	25.49	-41.4	-42.0	20.6	0.00e+00	0	57	0	2263875584	45	3883
2026-01-03 06:04:49.26	326.60	25.45	-41.5	-42.1	20.5	0.00e+00	0	57	0	2269118464	45	3935
2026-01-03 06:04:50.25	326.32	25.40	-41.3	-41.9	20.6	0.00e+00	0	56	0	2275409920	45	3858
2026-01-03 06:04:51.24	326.04	25.36	-41.3	-41.9	20.7	0.00e+00	0	57	0	2280652800	45	3856
2026-01-03 06:04:52.23	325.76	25.31	-41.4	-42.0	20.6	0.00e+00	0	57	0	2285895680	45	3890
2026-01-03 06:04:53.22	325.48	25.26	-41.5	-42.1	20.4	0.00e+00	0	56	0	2292187136	45	3945
2026-01-03 06:04:54.22	325.19	25.22	-41.4	-42.0	20.6	0.00e+00	0	57	0	2297430016	45	3887
2026-01-03 06:04:55.21	324.92	25.17	-41.4	-42.0	20.5	0.00e+00	0	56	0	2302672896	45	3885
2026-01-03 06:04:56.21	324.64	25.12	-41.4	-42.0	20.5	0.00e+00	0	56	0	2308964352	45	3900
2026-01-03 06:04:57.19	324.36	25.07	-41.5	-42.1	20.4	0.00e+00	0	57	0	2314207232	45	3954
2026-01-03 06:04:58.17	324.09	25.02	-41.3	-41.9	20.7	0.00e+00	0	56	0	2319450112	45	3825
2026-01-03 06:04:59.16	323.81	24.97	-41.0	-41.6	20.9	0.00e+00	0	56	0	2324692992	45	3712
2026-01-03 06:05:00.15	323.54	24.92	-40.9	-41.5	21.0	0.00e+00	0	56	0	2330984448	45	3660
2026-01-03 06:05:01.13	323.27	24.87	-41.0	-41.6	21.0	0.00e+00	0	57	0	2336227328	45	3702
2026-01-03 06:05:02.13	323.00	24.82	-41.0	-41.6	21.0	0.00e+00	0	57	0	2341470208	45	3717
2026-01-03 06:05:03.12	322.73	24.77	-41.2	-41.8	20.8	0.00e+00	0	57	0	2347761664	45	3803
2026-01-03 06:05:04.11	322.45	24.71	-41.0	-41.6	20.9	0.00e+00	0	57	0	2353004544	45	3724
2026-01-03 06:05:05.10	322.19	24.66	-41.1	-41.7	20.8	0.00e+00	0	57	0	2358247424	45	3768
2026-01-03 06:05:06.09	321.92	24.60	-41.4	-42.0	20.6	0.00e+00	0	57	0	2364538880	45	3878
2026-01-03 06:05:07.07	321.65	24.55	-41.1	-41.6	20.9	0.00e+00	0	57	0	2369781760	45	3734
2026-01-03 06:05:08.06	321.39	24.49	-41.0	-41.5	21.0	0.00e+00	0	57	0	2375024640	45	3688
2026-01-03 06:05:09.05	321.12	24.44	-41.0	-41.6	20.9	0.00e+00	0	57	0	2381316096	45	3704
2026-01-03 06:05:10.04	320.86	24.38	-41.1	-41.7	20.8	0.00e+00	0	57	0	2386558976	45	3767
2026-01-03 06:05:11.03	320.59	24.32	-41.2	-41.8	20.7	0.00e+00	0	57	0	2391801856	45	3811
2026-01-03 06:05:12.02	320.33	24.27	-41.2	-41.8	20.7	0.00e+00	0	57	0	2397044736	45	3802
2026-01-03 06:05:13.01	320.07	24.21	-41.3	-41.9	20.7	0.00e+00	0	57	0	2403336192	45	3835
2026-01-03 06:05:14.01	319.81	24.15	-41.3	-41.8	20.7	0.00e+00	0	57	0	2408579072	45	3822
2026-01-03 06:05:15.01	319.54	24.09	-41.3	-41.9	20.6	0.00e+00	0	57	0	2414870528	45	3866
2026-01-03 06:05:15.99	319.29	24.03	-41.3	-41.9	20.7	0.00e+00	0	56	0	2420113408	45	3838
2026-01-03 06:05:16.98	319.03	23.97	-41.5	-42.1	20.5	0.00e+00	0	57	0	2425356288	45	3933
2026-01-03 06:05:17.97	318.77	23.91	-41.8	-42.4	20.1	0.00e+00	0	57	0	2430599168	45	4098
2026-01-03 06:05:18.96	318.52	23.85	-41.5	-42.1	20.4	0.00e+00	0	57	0	2436890624	45	3952
2026-01-03 06:05:19.95	318.26	23.79	-41.3	-41.9	20.7	0.00e+00	0	57	0	2442133504	45	3831
2026-01-03 06:05:20.94	318.01	23.72	-41.1	-41.7	20.8	0.00e+00	0	57	0	2447376384	45	3760
2026-01-03 06:05:21.93	317.76	23.66	-41.1	-41.7	20.8	0.00e+00	0	57	0	2453667840	45	3750
2026-01-03 06:05:22.93	317.50	23.60	-41.1	-41.7	20.8	0.00e+00	0	57	0	2458910720	45	3754
2026-01-03 06:05:23.92	317.25	23.53	-41.2	-41.8	20.8	0.00e+00	0	57	0	2464153600	45	3795
2026-01-03 06:05:24.90	317.00	23.47	-41.5	-42.1	20.4	0.00e+00	0	57	0	2470445056	45	3937
2026-01-03 06:05:25.89	316.76	23.41	-41.4	-42.0	20.5	0.00e+00	0	57	0	2475687936	45	3906
2026-01-03 06:05:26.88	316.51	23.34	-41.6	-42.3	20.3	0.00e+00	0	57	0	2480930816	45	4006
2026-01-03 06:05:27.88	316.26	23.27	-41.5	-42.1	20.5	0.00e+00	0	57	0	2486173696	45	3920
2026-01-03 06:05:28.86	316.02	23.21	-41.3	-41.9	20.6	0.00e+00	0	57	0	2492465152	45	3850
2026-01-03 06:05:29.85	315.77	23.14	-41.3	-41.9	20.6	0.00e+00	0	57	0	2497708032	45	3849
2026-01-03 06:05:30.84	315.53	23.08	-41.3	-41.9	20.6	0.00e+00	0	57	0	2503999488	45	3855
2026-01-03 06:05:31.82	315.29	23.01	-41.5	-42.1	20.4	0.00e+00	0	57	0	2509242368	45	3955
2026-01-03 06:05:32.81	315.05	22.94	-41.5	-42.1	20.4	0.00e+00	0	57	0	2514485248	45	3947
2026-01-03 06:05:33.81	314.80	22.88	-41.4	-42.0	20.5	0.00e+00	0	57	0	2519728128	45	3904
2026-01-03 06:05:34.80	314.57	22.81	-41.3	-41.9	20.6	0.00e+00	0	57	0	2526019584	45	3843
2026-01-03 06:05:35.79	314.33	22.74	-41.3	-41.9	20.6	0.00e+00	0	57	0	2531262464	45	3848
2026-01-03 06:05:36.78	314.09	22.67	-41.5	-42.1	20.4	0.00e+00	0	57	0	2536505344	45	3950
2026-01-03 06:05:37.77	313.85	22.60	-41.6	-42.2	20.3	0.00e+00	0	57	0	2542796800	45	3997
2026-01-03 06:05:38.76	313.62	22.53	-41.6	-42.3	20.3	0.00e+00	0	57	0	2548039680	45	4012
2026-01-03 06:05:39.75	313.39	22.46	-41.7	-42.3	20.2	0.00e+00	0	57	0	2553282560	45	4035
2026-01-03 06:05:40.73	313.16	22.39	-41.8	-42.4	20.1	0.00e+00	0	57	0	2559574016	45	4086
2026-01-03 06:05:41.72	312.92	22.32	-41.8	-42.4	20.2	0.00e+00	0	57	0	2564816896	45	4071
2026-01-03 06:05:42.71	312.69	22.25	-41.8	-42.4	20.1	0.00e+00	0	57	0	2570059776	45	4083
2026-01-03 06:05:43.70	312.46	22.18	-41.9	-42.6	19.9	0.00e+00	0	57	0	2575302656	45	4169
2026-01-03 06:05:44.69	312.23	22.11	-41.8	-42.5	20.1	0.00e+00	0	57	0	2581594112	45	4100
2026-01-03 06:05:45.68	312.01	22.04	-41.7	-42.3	20.2	0.00e+00	0	57	0	2586836992	45	4028
2026-01-03 06:05:46.67	311.78	21.97	-41.6	-42.2	20.3	0.00e+00	0	57	0	2592079872	45	3977
2026-01-03 06:05:47.66	311.56	21.90	-41.6	-42.2	20.3	0.00e+00	0	57	0	2598371328	45	3980
2026-01-03 06:05:48.65	311.33	21.82	-41.7	-42.3	20.2	0.00e+00	0	57	0	2603614208	45	4041
2026-01-03 06:05:49.64	311.11	21.75	-41.7	-42.3	20.2	0.00e+00	0	57	0	2608857088	45	4031
2026-01-03 06:05:50.63	310.89	21.68	-41.6	-42.2	20.4	0.00e+00	0	57	0	2615148544	45	3977
2026-01-03 06:05:51.62	310.66	21.60	-41.5	-42.1	20.4	0.00e+00	0	57	0	2620391424	45	3940
2026-01-03 06:05:52.62	310.44	21.53	-41.5	-42.1	20.4	0.00e+00	0	57	0	2625634304	45	3958
2026-01-03 06:05:53.61	310.22	21.46	-41.5	-42.1	20.4	0.00e+00	0	57	0	2631925760	45	3943
2026-01-03 06:05:54.60	310.00	21.38	-41.5	-42.1	20.4	0.00e+00	0	57	0	2637168640	45	3941
2026-01-03 06:05:55.59	309.79	21.31	-41.7	-42.3	20.2	0.00e+00	0	57	0	2642411520	45	4018
2026-01-03 06:05:56.58	309.57	21.23	-41.8	-42.4	20.1	0.00e+00	0	57	0	2647654400	45	4087
2026-01-03 06:05:57.57	309.36	21.16	-41.9	-42.5	20.0	0.00e+00	0	57	0	2653945856	45	4137
2026-01-03 06:05:58.56	309.14	21.09	-42.0	-42.6	19.9	0.00e+00	0	57	0	2659188736	45	4190
2026-01-03 06:05:59.55	308.93	21.01	-41.9	-42.6	19.9	0.00e+00	0	57	0	2665480192	45	4165
2026-01-03 06:06:00.54	308.72	20.94	-41.8	-42.4	20.1	0.00e+00	0	57	0	2670723072	45	4090
2026-01-03 06:06:01.53	308.51	20.86	-41.9	-42.5	20.0	0.00e+00	0	57	0	2675965952	45	4125
2026-01-03 06:06:02.52	308.30	20.79	-42.0	-42.6	19.9	0.00e+00	0	57	0	2681208832	45	4187
2026-01-03 06:06:03.51	308.09	20.71	-42.1	-42.8	19.7	0.00e+00	0	57	0	2687500288	46	4026
2026-01-03 06:06:04.50	307.88	20.63	-42.3	-43.0	19.6	0.00e+00	0	57	0	2692743168	46	4119
2026-01-03 06:06:05.48	307.68	20.56	-42.3	-42.9	19.6	0.00e+00	0	57	0	2697986048	46	4085
2026-01-03 06:06:06.46	307.47	20.48	-42.1	-42.7	19.8	0.00e+00	0	57	0	2704277504	46	3976
2026-01-03 06:06:07.45	307.27	20.41	-42.1	-42.7	19.8	0.00e+00	0	57	0	2709520384	46	3987
2026-01-03 06:06:08.43	307.07	20.33	-42.3	-43.0	19.6	0.00e+00	0	57	0	2714763264	46	4121
2026-01-03 06:06:09.42	306.86	20.25	-42.5	-43.2	19.4	0.00e+00	0	57	0	2720006144	46	4218
2026-01-03 06:06:10.41	306.66	20.18	-42.4	-43.1	19.4	0.00e+00	0	57	0	2726297600	46	4184
2026-01-03 06:06:11.40	306.46	20.10	-42.3	-43.0	19.5	0.00e+00	0	57	0	2731540480	46	4121
2026-01-03 06:06:12.39	306.26	20.02	-42.2	-42.9	19.6	0.00e+00	0	57	0	2736783360	46	4084
2026-01-03 06:06:13.39	306.06	19.95	-42.2	-42.9	19.7	0.00e+00	0	57	0	2743074816	46	4064
2026-01-03 06:06:14.38	305.87	19.87	-42.3	-43.0	19.5	0.00e+00	0	57	0	2748317696	46	4123
2026-01-03 06:06:15.37	305.67	19.79	-42.4	-43.1	19.4	0.00e+00	0	57	0	2753560576	46	4167
2026-01-03 06:06:16.36	305.47	19.71	-42.3	-43.0	19.5	0.00e+00	0	57	0	2759852032	46	4121
2026-01-03 06:06:17.36	305.28	19.64	-42.6	-43.3	19.2	0.00e+00	0	57	0	2765094912	46	4265
2026-01-03 06:06:18.34	305.09	19.56	-42.7	-43.4	19.1	0.00e+00	0	57	0	2770337792	47	4064
2026-01-03 06:06:19.33	304.89	19.48	-42.5	-43.2	19.3	0.00e+00	0	57	0	2776629248	47	3984
2026-01-03 06:06:20.33	304.70	19.40	-42.4	-43.1	19.4	0.00e+00	0	57	0	2781872128	47	3924
2026-01-03 06:06:21.32	304.51	19.32	-42.4	-43.1	19.4	0.00e+00	0	57	0	2787115008	47	3946
2026-01-03 06:06:22.31	304.32	19.25	-42.5	-43.2	19.3	0.00e+00	0	57	0	2793406464	47	3989
2026-01-03 06:06:23.31	304.13	19.17	-42.6	-43.4	19.2	0.00e+00	0	57	0	2798649344	47	4052
2026-01-03 06:06:24.30	303.94	19.09	-42.7	-43.5	19.1	0.00e+00	0	57	0	2803892224	47	4103
2026-01-03 06:06:25.29	303.76	19.01	-42.3	-43.0	19.5	0.00e+00	0	57	0	2810183680	47	3898
2026-01-03 06:06:26.27	303.57	18.93	-42.1	-42.8	19.7	0.00e+00	0	57	0	2815426560	47	3788
2026-01-03 06:06:27.26	303.39	18.86	-42.0	-42.7	19.8	0.00e+00	0	57	0	2820669440	47	3757
2026-01-03 06:06:28.25	303.20	18.78	-42.0	-42.7	19.8	0.00e+00	0	57	0	2825912320	47	3744
2026-01-03 06:06:29.23	303.02	18.70	-42.1	-42.8	19.7	0.00e+00	0	57	0	2832203776	47	3788
2026-01-03 06:06:30.22	302.84	18.62	-42.3	-42.9	19.6	0.00e+00	0	57	0	2837446656	47	3860
2026-01-03 06:06:31.21	302.66	18.54	-42.2	-42.9	19.6	0.00e+00	0	57	0	2842689536	47	3848
2026-01-03 06:06:32.19	302.48	18.46	-42.3	-43.0	19.5	0.00e+00	0	57	0	2848980992	47	3889
2026-01-03 06:06:33.18	302.30	18.39	-42.4	-43.1	19.4	0.00e+00	0	57	0	2854223872	47	3953
2026-01-03 06:06:34.17	302.13	18.31	-42.4	-43.1	19.4	0.00e+00	0	57	0	2859466752	47	3916
2026-01-03 06:06:35.17	301.95	18.23	-42.5	-43.2	19.3	0.00e+00	0	57	0	2864709632	47	3978
2026-01-03 06:06:36.15	301.77	18.15	-42.5	-43.2	19.3	0.00e+00	0	57	0	2871001088	47	3966
2026-01-03 06:06:37.14	301.60	18.07	-42.5	-43.2	19.3	0.00e+00	0	57	0	2876243968	47	3989
2026-01-03 06:06:38.13	301.42	17.99	-42.6	-43.4	19.1	0.00e+00	0	57	0	2882535424	47	4069
2026-01-03 06:06:39.12	301.25	17.91	-42.8	-43.6	18.9	0.00e+00	0	57	0	2887778304	47	4157
2026-01-03 06:06:40.11	301.08	17.83	-42.6	-43.3	19.2	0.00e+00	0	57	0	2893021184	47	4026
2026-01-03 06:06:41.10	300.90	17.75	-42.8	-43.5	19.0	0.00e+00	0	57	0	2898264064	47	4131
2026-01-03 06:06:42.09	300.73	17.68	-43.3	-44.0	18.7	0.00e+00	0	57	0	2904555520	48	4126
2026-01-03 06:06:43.07	300.57	17.60	-43.2	-43.9	18.8	0.00e+00	0	57	0	2909798400	48	4084
2026-01-03 06:06:44.06	300.40	17.52	-43.3	-44.1	18.6	0.00e+00	0	57	0	2915041280	48	4156
2026-01-03 06:06:45.06	300.23	17.44	-43.3	-44.1	18.6	0.00e+00	0	57	0	2921332736	48	4156
2026-01-03 06:06:46.05	300.06	17.36	-43.5	-44.3	18.4	0.00e+00	0	57	0	2926575616	48	4250
2026-01-03 06:06:47.04	299.89	17.28	-43.4	-44.2	18.5	0.00e+00	0	57	0	2931818496	48	4222
2026-01-03 06:06:48.04	299.73	17.20	-43.6	-44.4	18.3	0.00e+00	0	57	0	2938109952	48	4297
2026-01-03 06:06:49.03	299.56	17.12	-44.2	-45.1	17.6	0.00e+00	0	57	0	2943352832	50	4148
2026-01-03 06:06:50.02	299.40	17.04	-43.8	-44.6	18.1	0.00e+00	0	57	0	2948595712	50	3923
2026-01-03 06:06:51.01	299.24	16.96	-43.4	-44.1	18.5	0.00e+00	0	57	0	2954887168	50	3728
2026-01-03 06:06:52.00	299.08	16.88	-43.1	-43.9	18.8	0.00e+00	0	57	0	2960130048	49	3830
2026-01-03 06:06:52.98	298.92	16.81	-43.1	-43.8	18.9	0.00e+00	0	57	0	2965372928	49	3796
2026-01-03 06:06:53.98	298.75	16.73	-43.0	-43.8	18.9	0.00e+00	0	57	0	2970615808	49	3798
2026-01-03 06:06:54.97	298.59	16.65	-43.1	-43.8	18.8	0.00e+00	0	57	0	2976907264	49	3812
2026-01-03 06:06:55.97	298.43	16.57	-43.2	-44.0	18.7	0.00e+00	0	57	0	2982150144	49	3884
2026-01-03 06:06:56.95	298.28	16.49	-43.1	-43.8	18.9	0.00e+00	0	57	0	2987393024	49	3804
2026-01-03 06:06:57.94	298.12	16.41	-43.0	-43.7	18.9	0.00e+00	0	57	0	2993684480	49	3761
2026-01-03 06:06:58.93	297.97	16.33	-43.1	-43.9	18.8	0.00e+00	0	57	0	2998927360	49	3835
2026-01-03 06:06:59.92	297.81	16.25	-43.3	-44.1	18.6	0.00e+00	0	57	0	3004170240	49	3932
2026-01-03 06:07:00.91	297.66	16.18	-43.2	-44.0	18.6	0.00e+00	0	57	0	3010461696	49	3897
2026-01-03 06:07:01.90	297.50	16.10	-43.4	-44.2	18.4	0.00e+00	0	57	0	3015704576	49	3990
2026-01-03 06:07:02.88	297.35	16.02	-43.4	-44.2	18.5	0.00e+00	0	57	0	3020947456	49	3968
2026-01-03 06:07:03.87	297.20	15.94	-43.5	-44.3	18.3	0.00e+00	0	57	0	3026190336	49	4038
2026-01-03 06:07:04.87	297.05	15.86	-43.8	-44.7	17.9	0.00e+00	0	57	0	3032481792	49	4197
2026-01-03 06:07:05.86	296.90	15.78	-43.6	-44.4	18.2	0.00e+00	0	57	0	3037724672	49	4084
2026-01-03 06:07:06.85	296.75	15.70	-43.4	-44.1	18.5	0.00e+00	0	57	0	3044016128	49	3946
2026-01-03 06:07:07.84	296.60	15.63	-43.3	-44.1	18.5	0.00e+00	0	57	0	3049259008	49	3917
2026-01-03 06:07:08.84	296.45	15.55	-43.4	-44.2	18.4	0.00e+00	0	57	0	3054501888	49	3961
2026-01-03 06:07:09.83	296.30	15.47	-43.6	-44.4	18.2	0.00e+00	0	57	0	3059744768	49	4074
2026-01-03 06:07:10.81	296.16	15.39	-43.5	-44.4	18.3	0.00e+00	0	57	0	3066036224	49	4053
2026-01-03 06:07:11.80	296.01	15.31	-43.7	-44.5	18.1	0.00e+00	0	57	0	3071279104	49	4103
2026-01-03 06:07:12.80	295.87	15.24	-43.9	-44.7	17.9	0.00e+00	0	57	0	3076521984	49	4232
2026-01-03 06:07:13.78	295.73	15.16	-43.7	-44.5	18.1	0.00e+00	0	57	0	3082813440	49	4138
2026-01-03 06:07:14.77	295.58	15.08	-43.5	-44.3	18.3	0.00e+00	0	57	0	3088056320	49	4025
2026-01-03 06:07:15.76	295.44	15.00	-43.4	-44.1	18.4	0.00e+00	0	57	0	3093299200	49	3957
2026-01-03 06:07:16.75	295.30	14.92	-43.3	-44.1	18.5	0.00e+00	0	57	0	3099590656	49	3937
2026-01-03 06:07:17.75	295.16	14.85	-43.3	-44.1	18.5	0.00e+00	0	57	0	3104833536	49	3937
2026-01-03 06:07:18.74	295.02	14.77	-43.5	-44.3	18.3	0.00e+00	0	57	0	3110076416	49	4030
2026-01-03 06:07:19.73	294.88	14.69	-43.5	-44.3	18.2	0.00e+00	0	57	0	3115319296	49	4040
2026-01-03 06:07:20.72	294.74	14.61	-43.7	-44.5	18.0	0.00e+00	0	57	0	3121610752	49	4141
2026-01-03 06:07:21.71	294.60	14.54	-43.7	-44.5	18.0	0.00e+00	0	57	0	3126853632	49	4145
2026-01-03 06:07:22.70	294.46	14.46	-43.8	-44.7	17.9	0.00e+00	0	57	0	3133145088	49	4206
2026-01-03 06:07:23.69	294.33	14.38	-43.8	-44.7	17.9	0.00e+00	0	57	0	3138387968	49	4200
2026-01-03 06:07:24.69	294.19	14.30	-43.9	-44.7	17.8	0.00e+00	0	57	0	3143630848	49	4220
2026-01-03 06:07:25.68	294.05	14.23	-44.0	-44.9	17.6	0.00e+00	0	57	0	3148873728	49	4298
2026-01-03 06:07:26.67	293.92	14.15	-43.9	-44.8	17.7	0.00e+00	0	57	0	3155165184	49	4253
2026-01-03 06:07:27.66	293.79	14.07	-43.8	-44.7	17.8	0.00e+00	0	57	0	3160408064	49	4194
2026-01-03 06:07:28.64	293.65	14.00	-43.8	-44.7	17.8	0.00e+00	0	57	0	3165650944	49	4205
2026-01-03 06:07:29.62	293.52	13.92	-43.9	-44.7	17.7	0.00e+00	0	57	0	3171942400	49	4230
2026-01-03 06:07:30.61	293.39	13.84	-44.0	-44.9	17.5	0.00e+00	0	57	0	3177185280	49	4300
2026-01-03 06:07:31.60	293.26	13.77	-44.0	-44.9	17.5	0.00e+00	0	57	0	3182428160	49	4305
2026-01-03 06:07:32.58	293.13	13.69	-44.1	-45.0	17.4	0.00e+00	0	57	0	3188719616	49	4341
2026-01-03 06:07:33.58	293.00	13.61	-44.3	-45.2	17.2	0.00e+00	0	57	0	3193962496	50	4199
2026-01-03 06:07:34.57	292.87	13.54	-44.3	-45.2	17.2	0.00e+00	0	57	0	3199205376	50	4225
2026-01-03 06:07:35.56	292.75	13.46	-44.3	-45.3	17.1	0.00e+00	0	57	0	3204448256	50	4266
2026-01-03 06:07:36.55	292.62	13.39	-44.5	-45.4	16.9	0.00e+00	0	57	0	3210739712	50	4333
2026-01-03 06:07:37.54	292.49	13.31	-44.5	-45.4	16.9	0.00e+00	0	57	0	3215982592	50	4340
2026-01-03 06:07:38.53	292.36	13.23	-44.6	-45.6	16.7	0.00e+00	0	57	0	3221225472	51	4186
2026-01-03 06:07:39.52	292.24	13.16	-44.7	-45.7	16.6	0.00e+00	0	57	0	3227516928	51	4232
2026-01-03 06:07:40.50	292.12	13.08	-44.9	-45.9	16.4	0.00e+00	0	57	0	3232759808	51	4326
2026-01-03 06:07:41.49	291.99	13.01	-45.0	-46.1	16.2	0.00e+00	0	57	0	3238002688	51	4397
2026-01-03 06:07:42.47	291.87	12.93	-45.1	-46.1	16.1	0.00e+00	0	57	0	3243245568	51	4435
2026-01-03 06:07:43.46	291.75	12.86	-45.2	-46.3	15.8	0.00e+00	0	57	0	3249537024	52	4281
2026-01-03 06:07:44.44	291.63	12.78	-45.3	-46.5	15.6	0.00e+00	0	57	0	3254779904	52	4361
2026-01-03 06:07:45.44	291.50	12.71	-45.4	-46.6	15.4	0.00e+00	0	57	0	3261071360	52	4408
2026-01-03 06:07:46.43	291.38	12.63	-45.5	-46.8	15.2	0.00e+00	0	57	0	3266314240	53	4247
2026-01-03 06:07:47.42	291.26	12.56	-45.6	-46.8	15.1	0.00e+00	0	57	0	3271557120	53	4282
2026-01-03 06:07:48.41	291.14	12.48	-45.7	-47.0	14.8	2.20e-06	0	57	0	3276800000	53	4371
2026-01-03 06:07:49.40	291.02	12.41	-45.7	-47.0	14.7	1.10e-06	0	57	0	3283091456	53	4384
2026-01-03 06:07:50.39	290.90	12.33	-45.9	-47.2	14.4	1.10e-06	0	57	0	3288334336	53	4493
2026-01-03 06:07:51.38	290.79	12.26	-46.0	-47.4	14.2	1.10e-06	0	57	0	3293577216	53	4595
2026-01-03 06:07:52.36	290.67	12.18	-46.1	-47.6	14.0	4.50e-06	0	57	0	3299868672	53	4660
2026-01-03 06:07:53.35	290.55	12.11	-46.2	-47.7	13.8	6.80e-06	0	57	0	3305111552	54	4486
2026-01-03 06:07:54.34	290.44	12.04	-46.3	-47.8	13.7	1.37e-05	0	57	0	3310354432	54	4541
2026-01-03 06:07:55.33	290.32	11.96	-46.5	-48.1	13.4	2.05e-05	0	57	0	3316645888	54	4680
2026-01-03 06:07:56.32	290.21	11.89	-46.6	-48.3	13.1	5.03e-05	0	57	0	3321888768	55	4530
2026-01-03 06:07:57.32	290.09	11.81	-46.7	-48.4	13.0	6.06e-05	0	57	0	3327131648	55	4576
2026-01-03 06:07:58.31	289.98	11.74	-46.8	-48.6	12.7	1.14e-04	0	57	0	3333423104	55	4699
2026-01-03 06:07:59.31	289.86	11.66	-47.0	-48.8	12.5	1.49e-04	0	57	0	3338665984	55	4772
2026-01-03 06:08:00.30	289.75	11.59	-47.3	-49.2	12.2	3.50e-04	0	57	0	3343908864	56	4742
2026-01-03 06:08:01.28	289.64	11.52	-47.3	-49.3	12.0	3.42e-04	0	57	0	3350200320	56	4797
2026-01-03 06:08:02.28	289.53	11.44	-47.6	-49.7	11.6	7.77e-04	0	57	0	3355443200	56	5003
2026-01-03 06:08:03.27	289.42	11.37	-47.7	-49.9	11.3	1.29e-03	0	57	0	3360686080	57	4831
2026-01-03 06:08:04.26	289.31	11.30	-47.8	-50.2	11.1	2.00e-03	0	57	0	3365928960	57	4990
2026-01-03 06:08:05.25	289.20	11.22	-47.9	-50.3	10.9	2.94e-03	0	57	0	3372220416	57	5076
2026-01-03 06:08:06.24	289.09	11.15	-48.1	-50.6	10.6	4.26e-03	0	57	0	3377463296	57	5235
2026-01-03 06:08:07.23	288.98	11.08	-48.2	-50.7	10.4	5.04e-03	0	57	0	3383754752	58	5016
2026-01-03 06:08:08.23	288.87	11.01	-48.2	-50.8	10.3	7.03e-03	0	57	0	3388997632	58	5095
2026-01-03 06:08:09.22	288.76	10.93	-48.2	-50.8	10.3	6.33e-03	0	57	0	3394240512	58	5081
2026-01-03 06:08:10.21	288.66	10.86	-48.4	-51.2	9.9	1.13e-02	0	57	0	3399483392	58	5291
2026-01-03 06:08:11.19	288.55	10.79	-48.4	-51.2	9.9	1.05e-02	0	57	0	3405774848	58	5293
2026-01-03 06:08:12.18	288.45	10.72	-48.6	-51.6	9.4	1.72e-02	0	57	0	3411017728	59	5247
2026-01-03 06:08:13.17	288.34	10.64	-48.6	-51.4	9.6	1.63e-02	0	57	0	3416260608	59	5150
2026-01-03 06:08:14.16	288.24	10.57	-48.8	-51.8	9.1	2.50e-02	0	57	0	3422552064	59	5386
2026-01-03 06:08:15.15	288.13	10.50	-48.8	-51.8	9.1	2.65e-02	0	57	0	3427794944	59	5380
2026-01-03 06:08:16.14	288.03	10.43	-48.9	-52.0	8.9	3.23e-02	0	57	0	3433037824	59	5528
2026-01-03 06:08:17.13	287.93	10.36	-48.8	-52.0	8.9	3.26e-02	0	57	0	3438280704	59	5507
2026-01-03 06:08:18.12	287.82	10.29	-49.0	-52.3	8.6	4.35e-02	0	57	0	3444572160	59	5709
2026-01-03 06:08:19.11	287.72	10.21	-48.9	-52.2	8.8	3.89e-02	0	57	0	3449815040	59	5599
2026-01-03 06:08:20.10	287.62	10.14	-49.1	-52.5	8.5	4.75e-02	0	57	0	3455057920	59	5805
2026-01-03 06:08:21.08	287.52	10.07	-49.4	-53.2	7.7	8.32e-02	0	57	0	3461349376	60	5946
2026-01-03 06:08:22.08	287.42	10.00	-48.9	-52.3	8.6	6.39e-02	0	57	0	3466592256	60	5382
2026-01-03 06:08:23.07	287.32	9.93	-48.7	-51.8	9.1	2.87e-02	0	57	0	3471835136	60	5081
2026-01-03 06:08:24.05	287.22	9.86	-48.4	-51.1	9.9	1.50e-02	0	57	0	3478126592	59	4962
2026-01-03 06:08:25.05	287.12	9.79	-48.0	-50.4	10.6	5.45e-03	0	57	0	3483369472	59	4590
2026-01-03 06:08:26.04	287.02	9.72	-47.7	-50.0	11.0	2.76e-03	0	57	0	3488612352	58	4647
2026-01-03 06:08:27.02	286.92	9.65	-47.4	-49.7	11.4	1.54e-03	0	57	0	3493855232	58	4466
2026-01-03 06:08:28.02	286.82	9.58	-47.4	-49.6	11.6	9.80e-04	0	57	0	3500146688	58	4399
2026-01-03 06:08:28.99	286.73	9.51	-47.5	-49.6	11.5	1.07e-03	0	57	0	3505389568	57	4705
2026-01-03 06:08:29.99	286.63	9.44	-47.4	-49.5	11.6	9.20e-04	0	57	0	3511681024	57	4646
2026-01-03 06:08:30.97	286.54	9.37	-47.6	-49.8	11.4	1.18e-03	0	57	0	3516923904	57	4774
2026-01-03 06:08:31.95	286.44	9.30	-47.4	-49.5	11.7	9.52e-04	0	57	0	3522166784	57	4635
2026-01-03 06:08:32.95	286.35	9.23	-47.3	-49.3	12.0	4.93e-04	0	57	0	3527409664	57	4497
2026-01-03 06:08:33.94	286.25	9.16	-47.3	-49.2	12.2	4.13e-04	0	57	0	3533701120	57	4465
2026-01-03 06:08:34.92	286.16	9.09	-47.2	-49.2	12.2	3.05e-04	0	57	0	3538944000	57	4467
2026-01-03 06:08:35.91	286.06	9.02	-47.4	-49.4	12.0	4.66e-04	0	57	0	3544186880	57	4558
2026-01-03 06:08:36.90	285.97	8.95	-47.5	-49.5	11.9	5.30e-04	0	57	0	3550478336	57	4628
2026-01-03 06:08:37.89	285.88	8.88	-47.4	-49.3	12.1	3.88e-04	0	57	0	3555721216	57	4542
2026-01-03 06:08:38.88	285.79	8.81	-47.2	-49.2	12.3	2.95e-04	0	57	0	3560964096	57	4453
2026-01-03 06:08:39.86	285.69	8.74	-47.2	-49.1	12.4	1.93e-04	0	57	0	3566206976	57	4414
2026-01-03 06:08:40.85	285.60	8.68	-47.2	-49.2	12.3	2.57e-04	0	57	0	3572498432	57	4466
2026-01-03 06:08:41.85	285.51	8.61	-47.1	-49.0	12.5	2.32e-04	0	57	0	3577741312	57	4372
2026-01-03 06:08:42.84	285.42	8.54	-47.2	-49.1	12.4	1.92e-04	0	57	0	3584032768	57	4416
2026-01-03 06:08:43.82	285.33	8.47	-47.0	-48.8	12.8	1.60e-04	0	57	0	3589275648	57	4264
2026-01-03 06:08:44.81	285.24	8.40	-46.9	-48.5	13.1	7.32e-05	0	57	0	3594518528	56	4388
2026-01-03 06:08:45.81	285.15	8.33	-46.7	-48.4	13.3	2.97e-05	0	57	0	3599761408	56	4299
2026-01-03 06:08:46.80	285.06	8.26	-46.5	-48.1	13.6	1.83e-05	0	57	0	3606052864	56	4161
2026-01-03 06:08:47.79	284.97	8.20	-46.5	-48.0	13.8	5.70e-06	0	57	0	3611295744	56	4108
2026-01-03 06:08:48.78	284.88	8.13	-46.3	-47.8	13.8	1.14e-05	0	57	0	3616538624	55	4270
2026-01-03 06:08:49.76	284.80	8.06	-46.2	-47.7	13.9	6.80e-06	0	57	0	3622830080	55	4224
2026-01-03 06:08:50.75	284.71	7.99	-46.2	-47.6	14.0	3.40e-06	0	57	0	3628072960	55	4167
2026-01-03 06:08:51.74	284.62	7.93	-46.2	-47.7	13.9	4.50e-06	0	57	0	3633315840	55	4205
2026-01-03 06:08:52.73	284.54	7.86	-46.1	-47.6	14.0	4.50e-06	0	57	0	3638558720	55	4162
2026-01-03 06:08:53.72	284.45	7.79	-46.1	-47.5	14.1	3.40e-06	0	57	0	3644850176	55	4142
2026-01-03 06:08:54.71	284.37	7.72	-46.1	-47.6	14.0	5.70e-06	0	57	0	3650093056	55	4169
2026-01-03 06:08:55.69	284.28	7.66	-46.0	-47.5	14.1	1.10e-06	0	57	0	3655335936	55	4101
2026-01-03 06:08:56.69	284.20	7.59	-46.1	-47.6	13.9	4.50e-06	0	57	0	3661627392	55	4169
2026-01-03 06:08:57.68	284.11	7.52	-46.2	-47.9	13.7	1.02e-05	0	57	0	3666870272	55	4294
2026-01-03 06:08:58.66	284.03	7.46	-46.3	-47.8	13.7	1.60e-05	0	57	0	3672113152	55	4279
2026-01-03 06:08:59.66	283.94	7.39	-46.1	-47.6	13.8	8.00e-06	0	57	0	3678404608	55	4179
2026-01-03 06:09:00.64	283.86	7.32	-45.9	-47.3	14.1	5.70e-06	0	57	0	3683647488	55	4036
2026-01-03 06:09:01.63	283.78	7.26	-45.7	-47.1	14.3	3.40e-06	0	57	0	3688890368	54	4189
