passes_logs/2026/01/03/R3.0SM8_Murmansk_STILSPACE/R3.0SM8_Murmansk_STILSPACE__20260103_124816_NOAA_21_JPSS-2_rec.log

#Pass ID: 20260103_124816_NOAA 21 (JPSS-2)
#Satellite: NOAA 21 (JPSS-2)
#Configuration: NOAA-21
#almurnet v.1.7.20240730
#Start time: 2026-01-03 12:48:16

#Version: 2.2.20231116
#Station: R3.0SM8_Murmansk_STILSPACE
#Location: 33.092731 lon 68.902999 lat
#TLE: 1 54234U 22150A   26002.25486487  .00000200  00000+0  11573-3 0  9993
#TLE: 2 54234  98.7485 303.3096 0001220 350.9074   9.2080 14.19531212163006

#Time	Az	El	Level	Level2	SNR	BER	BlckErr	Temp	State	Recorded	gain1	gain2
2026-01-03 12:48:16.65	238.92	2.99	-52.7	-64.3	3.8	1.49e+00	0	46	0	0	67	14370
2026-01-03 12:48:17.64	239.01	3.04	-52.7	-64.4	3.8	1.49e+00	0	46	104	0	68	13661
2026-01-03 12:48:18.63	239.11	3.09	-52.7	-64.4	3.8	1.49e+00	0	46	104	0	68	13575
2026-01-03 12:48:19.62	239.21	3.13	-52.5	-64.4	3.8	1.49e+00	0	47	104	0	68	13572
2026-01-03 12:48:20.61	239.31	3.18	-52.6	-64.3	3.8	1.49e+00	0	47	104	0	68	13515
2026-01-03 12:48:21.59	239.41	3.23	-52.8	-64.3	3.8	1.49e+00	0	47	104	0	68	13539
2026-01-03 12:48:22.58	239.51	3.27	-52.6	-64.3	3.8	1.49e+00	0	47	104	0	68	13481
2026-01-03 12:48:23.57	239.61	3.32	-52.6	-64.3	3.8	1.49e+00	0	47	104	0	68	13449
2026-01-03 12:48:24.56	239.72	3.37	-52.6	-64.2	3.8	1.49e+00	0	47	104	0	68	13405
2026-01-03 12:48:25.55	239.82	3.41	-52.5	-64.2	3.8	1.49e+00	0	47	104	0	68	13364
2026-01-03 12:48:26.54	239.92	3.46	-52.5	-64.2	3.8	1.49e+00	0	47	104	0	68	13299
2026-01-03 12:48:27.54	240.02	3.51	-52.4	-64.0	3.8	1.49e+00	0	47	104	0	67	13825
2026-01-03 12:48:28.52	240.12	3.55	-52.4	-64.0	3.8	1.49e+00	0	47	104	0	67	13746
2026-01-03 12:48:29.50	240.22	3.60	-52.2	-63.8	3.8	1.49e+00	0	47	104	0	67	13568
2026-01-03 12:48:30.49	240.33	3.65	-52.1	-63.7	3.8	1.49e+00	0	47	104	0	67	13294
2026-01-03 12:48:31.48	240.43	3.69	-51.7	-63.4	3.8	1.49e+00	0	47	104	0	66	13653
2026-01-03 12:48:32.46	240.53	3.74	-50.6	-62.2	3.8	1.49e+00	0	47	104	0	64	13397
2026-01-03 12:48:33.45	240.64	3.79	-50.5	-62.1	3.8	1.49e+00	0	47	104	0	64	13169
2026-01-03 12:48:34.44	240.74	3.83	-50.6	-62.1	3.8	1.49e+00	0	48	104	0	64	13241
2026-01-03 12:48:35.42	240.85	3.88	-50.5	-62.1	3.8	1.49e+00	0	48	104	0	64	13182
2026-01-03 12:48:36.40	240.95	3.93	-50.5	-62.2	3.8	1.49e+00	0	47	104	0	64	13298
2026-01-03 12:48:37.40	241.06	3.97	-50.5	-62.0	3.8	1.49e+00	0	48	104	0	64	13106
2026-01-03 12:48:38.38	241.16	4.02	-50.6	-62.2	3.8	1.49e+00	0	48	104	0	64	13297
2026-01-03 12:48:39.37	241.27	4.07	-50.5	-62.1	3.8	1.49e+00	0	48	104	0	64	13248
2026-01-03 12:48:40.36	241.37	4.11	-50.6	-62.0	3.8	1.49e+00	0	48	104	0	64	12977
2026-01-03 12:48:41.35	241.48	4.16	-50.6	-62.0	3.8	1.49e+00	0	48	104	0	64	13040
2026-01-03 12:48:42.34	241.59	4.21	-50.5	-61.7	3.8	1.49e+00	0	48	104	0	64	12562
2026-01-03 12:48:43.32	241.69	4.25	-50.5	-61.9	3.8	1.49e+00	0	48	104	0	64	12949
2026-01-03 12:48:44.32	241.80	4.30	-50.6	-62.1	3.8	1.49e+00	0	48	104	0	64	13127
2026-01-03 12:48:45.31	241.91	4.35	-50.6	-62.2	3.8	1.49e+00	0	48	104	0	64	13262
2026-01-03 12:48:46.30	242.02	4.40	-50.5	-62.0	3.8	1.49e+00	0	48	104	0	64	12996
2026-01-03 12:48:47.28	242.12	4.44	-50.5	-62.2	3.8	1.49e+00	0	48	104	0	64	13328
2026-01-03 12:48:48.26	242.23	4.49	-50.5	-62.1	3.8	1.49e+00	0	48	104	0	64	13119
2026-01-03 12:48:49.26	242.34	4.54	-50.5	-61.9	3.8	1.49e+00	0	48	104	0	64	12956
2026-01-03 12:48:50.24	242.45	4.58	-50.5	-62.1	3.8	1.49e+00	0	49	104	0	64	13118
2026-01-03 12:48:51.23	242.56	4.63	-50.5	-62.1	3.8	1.49e+00	0	48	104	0	64	13254
2026-01-03 12:48:52.22	242.67	4.68	-50.6	-61.4	3.8	1.49e+00	0	49	104	0	64	12138
2026-01-03 12:48:53.20	242.78	4.72	-50.6	-61.1	3.8	1.49e+00	0	49	104	0	63	12448
2026-01-03 12:48:54.19	242.89	4.77	-50.3	-59.3	3.9	1.47e+00	0	49	104	0	63	10078
2026-01-03 12:48:55.17	243.00	4.81	-49.6	-55.4	5.8	1.31e+00	0	49	104	0	62	6872
2026-01-03 12:48:56.17	243.11	4.86	-50.0	-56.9	4.9	1.15e+00	0	49	104	1048576	62	8156
2026-01-03 12:48:57.16	243.22	4.91	-48.8	-52.8	8.0	3.38e-01	0	49	0	2097152	60	5721
2026-01-03 12:48:58.14	243.33	4.96	-48.7	-52.4	8.6	1.65e-02	0	49	0	5242880	59	5784
2026-01-03 12:48:59.13	243.45	5.00	-48.8	-52.9	8.1	9.63e-02	0	49	0	8388608	60	5726
2026-01-03 12:49:00.12	243.56	5.05	-50.1	-58.4	3.9	5.19e-01	2	49	104	11534336	62	9714
2026-01-03 12:49:01.11	243.67	5.10	-50.2	-58.0	4.0	1.49e+00	0	49	104	11534336	63	8662
2026-01-03 12:49:02.08	243.78	5.14	-50.3	-57.1	5.0	5.20e-01	0	49	0	1048576	63	7866
2026-01-03 12:49:03.07	243.90	5.19	-50.1	-56.4	5.4	8.35e-01	0	49	0	2097152	63	7238
2026-01-03 12:49:04.05	244.01	5.23	-49.2	-53.0	8.6	4.85e-02	0	49	0	3145728	61	5469
2026-01-03 12:49:05.04	244.13	5.28	-48.7	-51.7	10.2	1.52e-02	0	49	0	6291456	60	5012
2026-01-03 12:49:06.03	244.24	5.33	-48.9	-52.1	9.9	5.18e-03	0	49	0	9437184	60	5244
2026-01-03 12:49:07.02	244.36	5.37	-49.7	-53.6	8.4	4.09e-02	0	49	0	12582912	61	5916
2026-01-03 12:49:08.02	244.47	5.42	-49.2	-52.6	9.5	1.71e-02	0	50	0	15728640	61	5235
2026-01-03 12:49:08.99	244.59	5.47	-49.4	-53.0	9.0	2.11e-02	0	49	0	17825792	61	5517
2026-01-03 12:49:09.99	244.70	5.52	-49.3	-52.8	9.3	1.69e-02	0	50	0	20971520	61	5347
2026-01-03 12:49:10.98	244.82	5.56	-49.2	-52.5	9.6	1.36e-02	0	50	0	24117248	61	5167
2026-01-03 12:49:11.96	244.94	5.61	-49.1	-52.3	9.8	1.05e-02	0	50	0	27262976	61	5064
2026-01-03 12:49:12.96	245.06	5.65	-49.2	-52.4	9.7	1.02e-02	0	50	0	30408704	61	5141
2026-01-03 12:49:13.94	245.17	5.70	-49.2	-52.5	9.6	1.08e-02	0	50	0	33554432	61	5215
2026-01-03 12:49:14.93	245.29	5.75	-49.1	-52.3	9.8	1.09e-02	0	50	0	36700160	61	5098
2026-01-03 12:49:15.91	245.41	5.79	-48.7	-51.7	10.5	4.95e-03	0	50	0	39845888	60	4996
2026-01-03 12:49:16.90	245.53	5.84	-48.5	-51.0	11.1	1.55e-03	0	50	0	42991616	60	4649
2026-01-03 12:49:17.89	245.65	5.89	-48.1	-50.4	11.8	6.62e-04	0	50	0	46137344	59	4569
2026-01-03 12:49:18.88	245.77	5.93	-47.8	-50.0	12.3	2.62e-04	0	50	0	49283072	58	4630
2026-01-03 12:49:19.87	245.89	5.98	-47.6	-49.6	12.7	1.03e-04	0	50	0	52428800	58	4410
2026-01-03 12:49:20.86	246.01	6.03	-47.4	-49.3	12.9	4.11e-05	0	50	0	55574528	57	4537
2026-01-03 12:49:21.86	246.13	6.07	-47.2	-49.0	13.3	1.90e-05	0	50	0	58720256	57	4377
2026-01-03 12:49:22.85	246.25	6.12	-47.1	-48.8	13.5	1.14e-05	0	50	0	61865984	57	4275
2026-01-03 12:49:23.84	246.37	6.17	-47.0	-48.8	13.5	1.29e-05	0	50	0	65011712	57	4258
2026-01-03 12:49:24.83	246.49	6.21	-46.9	-48.7	13.6	6.80e-06	0	50	0	68157440	57	4234
2026-01-03 12:49:25.81	246.61	6.26	-46.8	-48.5	13.9	7.60e-06	0	50	0	71303168	56	4366
2026-01-03 12:49:26.79	246.73	6.30	-46.7	-48.3	14.1	2.20e-06	0	50	0	74448896	56	4272
2026-01-03 12:49:27.77	246.86	6.35	-46.7	-48.4	14.0	3.00e-06	0	50	0	77594624	56	4304
2026-01-03 12:49:28.76	246.98	6.40	-46.7	-48.3	14.1	0.00e+00	0	51	0	80740352	56	4271
2026-01-03 12:49:29.74	247.10	6.44	-46.7	-48.3	14.1	1.50e-06	0	50	0	82837504	56	4283
2026-01-03 12:49:30.73	247.23	6.49	-46.8	-48.4	13.9	3.80e-06	0	50	0	85983232	56	4335
2026-01-03 12:49:31.72	247.35	6.53	-46.8	-48.5	13.9	4.50e-06	0	50	0	89128960	56	4361
2026-01-03 12:49:32.72	247.48	6.58	-46.9	-48.5	13.8	1.50e-06	0	51	0	92274688	56	4387
2026-01-03 12:49:33.71	247.60	6.63	-46.8	-48.5	13.8	3.80e-06	0	51	0	95420416	56	4380
2026-01-03 12:49:34.70	247.73	6.67	-46.9	-48.7	13.7	9.90e-06	0	51	0	98566144	56	4475
2026-01-03 12:49:35.68	247.85	6.72	-47.0	-48.7	13.7	4.50e-06	0	51	0	101711872	56	4459
2026-01-03 12:49:36.68	247.98	6.77	-46.8	-48.5	13.9	3.00e-06	0	51	0	104857600	56	4359
2026-01-03 12:49:37.67	248.11	6.81	-46.9	-48.7	13.8	2.20e-06	0	51	0	108003328	56	4446
2026-01-03 12:49:38.66	248.23	6.86	-46.8	-48.5	14.0	6.10e-06	0	51	0	111149056	56	4353
2026-01-03 12:49:39.65	248.36	6.90	-46.7	-48.4	14.1	2.20e-06	0	51	0	114294784	56	4296
2026-01-03 12:49:40.65	248.49	6.95	-46.8	-48.4	14.0	3.00e-06	0	51	0	117440512	56	4326
2026-01-03 12:49:41.64	248.62	7.00	-46.8	-48.4	14.1	2.20e-06	0	51	0	120586240	56	4316
2026-01-03 12:49:42.63	248.75	7.04	-46.8	-48.5	14.0	7.00e-07	0	51	0	123731968	56	4359
2026-01-03 12:49:43.62	248.88	7.09	-46.9	-48.7	13.8	1.50e-06	0	51	0	126877696	56	4443
2026-01-03 12:49:44.61	249.00	7.13	-46.9	-48.6	13.9	3.00e-06	0	51	0	130023424	56	4405
2026-01-03 12:49:45.60	249.13	7.18	-46.8	-48.4	14.0	3.80e-06	0	51	0	133169152	56	4340
2026-01-03 12:49:46.58	249.26	7.22	-46.8	-48.5	14.0	3.80e-06	0	51	0	136314880	56	4371
2026-01-03 12:49:47.57	249.39	7.27	-46.9	-48.6	13.9	3.00e-06	0	51	0	139460608	56	4411
2026-01-03 12:49:48.56	249.53	7.32	-46.9	-48.6	13.9	4.50e-06	0	51	0	142606336	56	4419
2026-01-03 12:49:49.55	249.66	7.36	-46.9	-48.6	13.9	3.80e-06	0	51	0	144703488	56	4396
2026-01-03 12:49:50.54	249.79	7.41	-46.9	-48.5	13.9	2.20e-06	0	51	0	147849216	56	4390
2026-01-03 12:49:51.52	249.92	7.45	-46.9	-48.7	13.8	3.00e-06	0	51	0	150994944	56	4453
2026-01-03 12:49:52.52	250.05	7.50	-47.0	-48.7	13.8	9.10e-06	0	51	0	154140672	56	4455
2026-01-03 12:49:53.51	250.19	7.54	-46.8	-48.4	14.1	4.50e-06	0	51	0	157286400	56	4323
2026-01-03 12:49:54.50	250.32	7.59	-46.6	-48.2	14.3	1.50e-06	0	52	0	160432128	56	4219
2026-01-03 12:49:55.49	250.45	7.63	-46.5	-48.1	14.4	7.00e-07	0	52	0	163577856	56	4175
2026-01-03 12:49:56.49	250.59	7.68	-46.6	-48.2	14.3	7.00e-07	0	52	0	166723584	56	4240
2026-01-03 12:49:57.48	250.72	7.72	-46.6	-48.2	14.3	3.00e-06	0	52	0	169869312	56	4238
2026-01-03 12:49:58.47	250.86	7.77	-46.6	-48.1	14.4	7.00e-07	0	52	0	173015040	56	4176
2026-01-03 12:49:59.46	250.99	7.81	-46.5	-48.0	14.5	1.50e-06	0	52	0	176160768	56	4139
2026-01-03 12:50:00.46	251.13	7.86	-46.5	-48.1	14.4	0.00e+00	0	52	0	179306496	56	4171
2026-01-03 12:50:01.44	251.27	7.90	-46.6	-48.1	14.5	7.00e-07	0	52	0	182452224	56	4166
2026-01-03 12:50:02.43	251.40	7.95	-46.6	-48.2	14.3	7.00e-07	0	51	0	185597952	56	4221
2026-01-03 12:50:03.43	251.54	7.99	-46.7	-48.3	14.2	7.00e-07	0	52	0	188743680	56	4282
2026-01-03 12:50:04.42	251.68	8.04	-46.7	-48.3	14.2	1.50e-06	0	52	0	191889408	56	4273
2026-01-03 12:50:05.40	251.81	8.08	-46.8	-48.4	14.2	7.00e-07	0	52	0	195035136	56	4297
2026-01-03 12:50:06.39	251.95	8.13	-46.6	-48.1	14.5	1.50e-06	0	52	0	198180864	56	4159
2026-01-03 12:50:07.37	252.09	8.17	-46.4	-47.9	14.6	7.00e-07	0	52	0	201326592	56	4092
2026-01-03 12:50:08.36	252.23	8.22	-46.2	-47.7	14.8	0.00e+00	0	52	0	204472320	55	4194
2026-01-03 12:50:09.35	252.37	8.26	-46.2	-47.7	14.8	0.00e+00	0	52	0	207618048	55	4206
2026-01-03 12:50:10.34	252.51	8.31	-46.2	-47.6	14.8	0.00e+00	0	52	0	209715200	55	4192
2026-01-03 12:50:11.33	252.65	8.35	-46.0	-47.4	15.0	0.00e+00	0	52	0	212860928	55	4093
2026-01-03 12:50:12.32	252.79	8.39	-46.1	-47.4	15.0	0.00e+00	0	52	0	216006656	55	4096
2026-01-03 12:50:13.31	252.93	8.44	-46.1	-47.5	15.0	0.00e+00	0	52	0	219152384	55	4109
2026-01-03 12:50:14.30	253.07	8.48	-46.2	-47.7	14.8	0.00e+00	0	52	0	222298112	55	4214
2026-01-03 12:50:15.28	253.21	8.53	-46.1	-47.5	15.0	0.00e+00	0	52	0	225443840	55	4141
2026-01-03 12:50:16.27	253.35	8.57	-46.0	-47.4	15.0	0.00e+00	0	52	0	228589568	55	4090
2026-01-03 12:50:17.26	253.50	8.61	-46.1	-47.5	15.0	0.00e+00	0	52	0	231735296	55	4130
2026-01-03 12:50:18.24	253.64	8.66	-46.2	-47.6	14.8	0.00e+00	0	52	0	234881024	55	4193
2026-01-03 12:50:19.23	253.78	8.70	-46.2	-47.6	14.9	7.00e-07	0	52	0	238026752	55	4171
2026-01-03 12:50:20.22	253.92	8.74	-46.0	-47.4	15.1	0.00e+00	0	52	0	241172480	55	4089
2026-01-03 12:50:21.22	254.07	8.79	-46.0	-47.3	15.2	0.00e+00	0	52	0	244318208	55	4045
2026-01-03 12:50:22.21	254.22	8.83	-46.1	-47.5	15.1	0.00e+00	0	52	0	247463936	55	4106
2026-01-03 12:50:23.19	254.36	8.87	-46.1	-47.6	14.9	0.00e+00	0	52	0	250609664	55	4153
2026-01-03 12:50:24.19	254.51	8.92	-46.2	-47.6	14.9	1.50e-06	0	52	0	253755392	55	4165
2026-01-03 12:50:25.18	254.65	8.96	-46.1	-47.5	15.0	0.00e+00	0	52	0	256901120	55	4119
2026-01-03 12:50:26.17	254.80	9.00	-46.0	-47.4	15.1	0.00e+00	0	52	0	260046848	55	4071
2026-01-03 12:50:27.16	254.95	9.05	-46.1	-47.5	15.0	0.00e+00	0	52	0	263192576	55	4126
2026-01-03 12:50:28.15	255.09	9.09	-46.2	-47.6	14.9	0.00e+00	0	52	0	265289728	55	4178
2026-01-03 12:50:29.13	255.24	9.13	-46.4	-47.8	14.7	0.00e+00	0	52	0	268435456	55	4275
2026-01-03 12:50:30.11	255.39	9.18	-46.2	-47.6	14.9	0.00e+00	0	53	0	271581184	55	4171
2026-01-03 12:50:31.09	255.53	9.22	-46.4	-47.9	14.6	0.00e+00	0	52	0	274726912	55	4337
2026-01-03 12:50:32.08	255.68	9.26	-46.1	-47.5	15.0	1.50e-06	0	52	0	277872640	55	4133
2026-01-03 12:50:33.07	255.83	9.30	-45.9	-47.3	15.2	0.00e+00	0	53	0	281018368	55	4039
2026-01-03 12:50:34.06	255.98	9.35	-46.0	-47.4	15.1	0.00e+00	0	53	0	284164096	55	4080
2026-01-03 12:50:35.05	256.13	9.39	-46.3	-47.7	14.8	0.00e+00	0	53	0	287309824	55	4219
2026-01-03 12:50:36.04	256.28	9.43	-46.0	-47.3	15.2	0.00e+00	0	53	0	290455552	55	4049
2026-01-03 12:50:37.03	256.43	9.47	-45.9	-47.2	15.3	0.00e+00	0	53	0	293601280	55	3994
2026-01-03 12:50:38.02	256.58	9.51	-45.9	-47.2	15.4	0.00e+00	0	53	0	296747008	54	4201
2026-01-03 12:50:39.00	256.73	9.56	-45.9	-47.2	15.3	0.00e+00	0	53	0	299892736	54	4218
2026-01-03 12:50:39.99	256.89	9.60	-45.9	-47.2	15.4	0.00e+00	0	53	0	303038464	54	4221
2026-01-03 12:50:40.98	257.04	9.64	-46.0	-47.3	15.2	0.00e+00	0	53	0	306184192	54	4279
2026-01-03 12:50:41.96	257.19	9.68	-45.9	-47.3	15.3	0.00e+00	0	53	0	309329920	54	4244
2026-01-03 12:50:42.95	257.34	9.72	-45.8	-47.2	15.4	0.00e+00	0	53	0	312475648	54	4197
2026-01-03 12:50:43.94	257.50	9.76	-45.8	-47.1	15.5	0.00e+00	0	53	0	314572800	54	4168
2026-01-03 12:50:44.92	257.65	9.80	-45.8	-47.1	15.5	0.00e+00	0	53	0	317718528	54	4167
2026-01-03 12:50:45.92	257.81	9.85	-45.8	-47.1	15.4	0.00e+00	0	53	0	320864256	54	4190
2026-01-03 12:50:46.91	257.96	9.89	-46.0	-47.4	15.2	0.00e+00	0	53	0	324009984	54	4319
2026-01-03 12:50:47.89	258.12	9.93	-45.9	-47.2	15.4	0.00e+00	0	53	0	327155712	54	4207
2026-01-03 12:50:48.88	258.27	9.97	-45.9	-47.1	15.4	0.00e+00	0	53	0	330301440	54	4183
2026-01-03 12:50:49.86	258.43	10.01	-45.9	-47.2	15.4	0.00e+00	0	53	0	333447168	54	4216
2026-01-03 12:50:50.85	258.58	10.05	-45.8	-47.1	15.5	0.00e+00	0	53	0	336592896	54	4167
2026-01-03 12:50:51.84	258.74	10.09	-45.9	-47.1	15.5	0.00e+00	0	53	0	339738624	54	4178
2026-01-03 12:50:52.82	258.90	10.13	-45.8	-47.1	15.5	0.00e+00	0	53	0	342884352	54	4184
2026-01-03 12:50:53.81	259.05	10.17	-46.0	-47.4	15.2	0.00e+00	0	53	0	346030080	54	4302
2026-01-03 12:50:54.80	259.21	10.21	-46.0	-47.3	15.3	0.00e+00	0	53	0	349175808	54	4256
2026-01-03 12:50:55.79	259.37	10.25	-45.8	-47.1	15.4	0.00e+00	0	53	0	352321536	54	4184
2026-01-03 12:50:56.78	259.53	10.29	-45.8	-47.1	15.5	0.00e+00	0	53	0	355467264	54	4180
2026-01-03 12:50:57.76	259.69	10.33	-45.8	-47.1	15.5	0.00e+00	0	53	0	358612992	54	4168
2026-01-03 12:50:58.75	259.85	10.37	-45.9	-47.2	15.4	0.00e+00	0	53	0	361758720	54	4221
2026-01-03 12:50:59.74	260.01	10.41	-45.9	-47.2	15.4	0.00e+00	0	53	0	364904448	54	4232
2026-01-03 12:51:00.72	260.17	10.45	-45.9	-47.3	15.3	0.00e+00	0	53	0	368050176	54	4251
2026-01-03 12:51:01.72	260.33	10.49	-46.0	-47.3	15.3	0.00e+00	0	53	0	371195904	54	4260
2026-01-03 12:51:02.70	260.49	10.52	-46.0	-47.3	15.3	0.00e+00	0	53	0	374341632	54	4272
2026-01-03 12:51:03.69	260.66	10.56	-46.1	-47.5	15.1	0.00e+00	0	53	0	376438784	54	4359
2026-01-03 12:51:04.68	260.82	10.60	-46.0	-47.4	15.2	0.00e+00	0	53	0	379584512	54	4330
2026-01-03 12:51:05.67	260.98	10.64	-46.1	-47.5	15.1	0.00e+00	0	53	0	382730240	54	4365
2026-01-03 12:51:06.66	261.14	10.68	-46.3	-47.7	14.9	0.00e+00	0	53	0	385875968	54	4466
2026-01-03 12:51:07.65	261.31	10.72	-46.3	-47.7	15.0	0.00e+00	0	53	0	389021696	54	4453
2026-01-03 12:51:08.64	261.47	10.76	-46.2	-47.6	15.1	0.00e+00	0	53	0	392167424	54	4401
2026-01-03 12:51:09.63	261.64	10.79	-46.1	-47.4	15.2	0.00e+00	0	53	0	395313152	54	4316
2026-01-03 12:51:10.61	261.80	10.83	-46.1	-47.4	15.2	0.00e+00	0	53	0	398458880	54	4325
2026-01-03 12:51:11.60	261.97	10.87	-46.2	-47.5	15.1	0.00e+00	0	53	0	401604608	54	4383
2026-01-03 12:51:12.59	262.13	10.91	-46.2	-47.5	15.1	0.00e+00	0	53	0	404750336	54	4388
2026-01-03 12:51:13.57	262.30	10.94	-46.2	-47.5	15.1	0.00e+00	0	54	0	407896064	54	4384
2026-01-03 12:51:14.55	262.46	10.98	-46.2	-47.6	15.1	0.00e+00	0	53	0	411041792	54	4392
2026-01-03 12:51:15.55	262.63	11.02	-46.0	-47.4	15.3	0.00e+00	0	54	0	414187520	54	4296
2026-01-03 12:51:16.53	262.80	11.05	-45.8	-47.1	15.5	0.00e+00	0	53	0	417333248	54	4166
2026-01-03 12:51:17.51	262.96	11.09	-45.7	-47.0	15.6	0.00e+00	0	54	0	420478976	54	4126
2026-01-03 12:51:18.50	263.13	11.13	-45.8	-47.1	15.5	0.00e+00	0	54	0	423624704	54	4169
2026-01-03 12:51:19.49	263.30	11.16	-45.9	-47.1	15.5	0.00e+00	0	54	0	425721856	54	4186
2026-01-03 12:51:20.48	263.47	11.20	-45.7	-47.0	15.6	0.00e+00	0	54	0	428867584	54	4132
2026-01-03 12:51:21.47	263.64	11.24	-45.8	-47.0	15.6	0.00e+00	0	54	0	432013312	54	4136
2026-01-03 12:51:22.46	263.81	11.27	-45.9	-47.2	15.4	0.00e+00	0	54	0	435159040	54	4236
2026-01-03 12:51:23.44	263.98	11.31	-46.0	-47.3	15.3	0.00e+00	0	54	0	438304768	54	4259
2026-01-03 12:51:24.44	264.15	11.34	-45.9	-47.2	15.4	0.00e+00	0	54	0	441450496	54	4231
2026-01-03 12:51:25.43	264.32	11.38	-46.0	-47.3	15.4	0.00e+00	0	54	0	444596224	54	4264
2026-01-03 12:51:26.42	264.49	11.41	-45.9	-47.1	15.5	0.00e+00	0	54	0	447741952	54	4190
2026-01-03 12:51:27.41	264.66	11.45	-45.9	-47.3	15.4	0.00e+00	0	54	0	450887680	54	4252
2026-01-03 12:51:28.40	264.84	11.48	-45.9	-47.2	15.4	0.00e+00	0	54	0	454033408	54	4225
2026-01-03 12:51:29.39	265.01	11.52	-45.8	-47.1	15.5	0.00e+00	0	54	0	457179136	54	4184
2026-01-03 12:51:30.37	265.18	11.55	-45.8	-47.1	15.6	0.00e+00	0	54	0	460324864	54	4172
2026-01-03 12:51:31.36	265.35	11.59	-45.9	-47.1	15.5	0.00e+00	0	54	0	463470592	54	4184
2026-01-03 12:51:32.35	265.53	11.62	-46.1	-47.4	15.3	0.00e+00	0	54	0	466616320	54	4311
2026-01-03 12:51:33.34	265.70	11.65	-46.1	-47.5	15.2	0.00e+00	0	54	0	469762048	54	4349
2026-01-03 12:51:34.32	265.88	11.69	-46.0	-47.4	15.3	0.00e+00	0	54	0	472907776	54	4308
2026-01-03 12:51:35.31	266.05	11.72	-46.2	-47.7	15.0	0.00e+00	0	54	0	476053504	54	4443
2026-01-03 12:51:36.29	266.22	11.75	-46.4	-47.8	14.8	1.50e-06	0	54	0	478150656	54	4544
2026-01-03 12:51:37.28	266.40	11.79	-46.1	-47.4	15.2	0.00e+00	0	54	0	481296384	54	4340
2026-01-03 12:51:38.28	266.58	11.82	-46.0	-47.4	15.3	0.00e+00	0	54	0	484442112	54	4292
2026-01-03 12:51:39.27	266.75	11.85	-46.1	-47.5	15.2	0.00e+00	0	54	0	487587840	54	4365
2026-01-03 12:51:40.25	266.93	11.89	-45.9	-47.2	15.4	0.00e+00	0	54	0	490733568	54	4232
2026-01-03 12:51:41.23	267.11	11.92	-45.7	-47.0	15.6	0.00e+00	0	54	0	493879296	54	4118
2026-01-03 12:51:42.22	267.28	11.95	-45.7	-47.0	15.7	0.00e+00	0	54	0	497025024	54	4116
2026-01-03 12:51:43.21	267.46	11.98	-45.8	-47.1	15.6	0.00e+00	0	54	0	500170752	54	4164
2026-01-03 12:51:44.20	267.64	12.01	-45.8	-47.1	15.5	0.00e+00	0	54	0	503316480	54	4185
2026-01-03 12:51:45.18	267.82	12.05	-45.7	-47.0	15.7	0.00e+00	0	54	0	506462208	54	4111
2026-01-03 12:51:46.18	268.00	12.08	-45.7	-46.9	15.7	0.00e+00	0	54	0	509607936	54	4087
2026-01-03 12:51:47.17	268.18	12.11	-45.8	-47.0	15.6	0.00e+00	0	54	0	512753664	54	4145
2026-01-03 12:51:48.16	268.36	12.14	-45.9	-47.2	15.4	0.00e+00	0	54	0	515899392	54	4204
2026-01-03 12:51:49.15	268.54	12.17	-45.8	-47.0	15.6	0.00e+00	0	54	0	519045120	54	4129
2026-01-03 12:51:50.14	268.72	12.20	-45.7	-47.0	15.6	0.00e+00	0	54	0	522190848	54	4118
2026-01-03 12:51:51.13	268.90	12.23	-45.8	-47.1	15.5	0.00e+00	0	54	0	525336576	54	4170
2026-01-03 12:51:52.13	269.08	12.26	-45.7	-47.0	15.6	0.00e+00	0	54	0	528482304	54	4124
2026-01-03 12:51:53.12	269.26	12.29	-45.8	-47.1	15.5	0.00e+00	0	54	0	531628032	54	4153
2026-01-03 12:51:54.11	269.45	12.32	-45.9	-47.2	15.3	0.00e+00	0	54	0	534773760	54	4232
2026-01-03 12:51:55.10	269.63	12.35	-45.7	-46.9	15.6	0.00e+00	0	54	0	537919488	54	4078
2026-01-03 12:51:56.08	269.81	12.38	-45.5	-46.8	15.7	0.00e+00	0	54	0	540016640	54	4020
2026-01-03 12:51:57.08	269.99	12.41	-45.6	-46.9	15.6	0.00e+00	0	55	0	543162368	54	4055
2026-01-03 12:51:58.07	270.18	12.44	-45.6	-46.9	15.6	0.00e+00	0	54	0	546308096	54	4063
2026-01-03 12:51:59.06	270.36	12.46	-45.6	-46.9	15.6	0.00e+00	0	54	0	549453824	54	4073
2026-01-03 12:52:00.04	270.54	12.49	-45.6	-46.9	15.7	0.00e+00	0	54	0	552599552	54	4074
2026-01-03 12:52:01.03	270.73	12.52	-45.8	-47.1	15.4	0.00e+00	0	54	0	555745280	54	4171
2026-01-03 12:52:02.02	270.91	12.55	-46.0	-47.3	15.2	0.00e+00	0	54	0	558891008	54	4280
2026-01-03 12:52:03.00	271.10	12.58	-45.8	-47.0	15.5	0.00e+00	0	55	0	562036736	54	4139
2026-01-03 12:52:03.99	271.28	12.60	-45.5	-46.7	15.8	0.00e+00	0	54	0	565182464	54	4004
2026-01-03 12:52:04.98	271.47	12.63	-45.5	-46.7	15.9	0.00e+00	0	55	0	568328192	54	3977
2026-01-03 12:52:05.96	271.65	12.66	-45.4	-46.6	15.9	0.00e+00	0	54	0	571473920	54	3949
2026-01-03 12:52:06.95	271.84	12.68	-45.5	-46.7	15.9	0.00e+00	0	55	0	574619648	54	3977
2026-01-03 12:52:07.93	272.02	12.71	-45.4	-46.6	16.0	0.00e+00	0	55	0	577765376	54	3946
2026-01-03 12:52:08.92	272.21	12.73	-45.4	-46.6	16.1	0.00e+00	0	55	0	580911104	53	4147
2026-01-03 12:52:09.90	272.40	12.76	-45.4	-46.6	16.0	0.00e+00	0	55	0	584056832	53	4172
2026-01-03 12:52:10.90	272.59	12.79	-45.5	-46.8	15.8	0.00e+00	0	55	0	587202560	53	4248
2026-01-03 12:52:11.89	272.77	12.81	-45.5	-46.7	15.8	0.00e+00	0	54	0	590348288	53	4232
2026-01-03 12:52:12.88	272.96	12.84	-45.5	-46.8	15.8	0.00e+00	0	54	0	593494016	53	4250
2026-01-03 12:52:13.87	273.15	12.86	-45.6	-46.9	15.7	0.00e+00	0	55	0	596639744	53	4302
2026-01-03 12:52:14.86	273.34	12.89	-45.9	-47.2	15.4	0.00e+00	0	55	0	599785472	53	4454
2026-01-03 12:52:15.85	273.53	12.91	-45.6	-46.9	15.7	0.00e+00	0	55	0	602931200	53	4296
2026-01-03 12:52:16.84	273.72	12.93	-45.4	-46.6	16.0	0.00e+00	0	55	0	605028352	53	4177
2026-01-03 12:52:17.82	273.91	12.96	-45.4	-46.5	16.1	0.00e+00	0	54	0	608174080	53	4135
2026-01-03 12:52:18.82	274.10	12.98	-45.3	-46.5	16.1	0.00e+00	0	55	0	611319808	53	4126
2026-01-03 12:52:19.80	274.29	13.00	-45.5	-46.7	16.0	0.00e+00	0	55	0	614465536	53	4209
2026-01-03 12:52:20.80	274.48	13.03	-45.4	-46.5	16.1	0.00e+00	0	55	0	617611264	53	4130
2026-01-03 12:52:21.79	274.67	13.05	-45.3	-46.4	16.2	0.00e+00	0	55	0	620756992	53	4087
2026-01-03 12:52:22.78	274.86	13.07	-45.4	-46.6	16.1	0.00e+00	0	55	0	623902720	53	4164
2026-01-03 12:52:23.78	275.06	13.10	-45.4	-46.6	16.0	0.00e+00	0	55	0	627048448	53	4173
2026-01-03 12:52:24.76	275.25	13.12	-45.5	-46.7	15.9	0.00e+00	0	55	0	630194176	53	4225
2026-01-03 12:52:25.75	275.44	13.14	-45.6	-46.8	15.9	0.00e+00	0	55	0	633339904	53	4243
2026-01-03 12:52:26.74	275.63	13.16	-45.5	-46.7	16.0	0.00e+00	0	55	0	636485632	53	4215
2026-01-03 12:52:27.73	275.82	13.18	-45.6	-46.8	15.9	0.00e+00	0	55	0	639631360	53	4265
2026-01-03 12:52:28.72	276.02	13.20	-45.8	-47.0	15.6	0.00e+00	0	55	0	642777088	53	4384
2026-01-03 12:52:29.70	276.21	13.22	-45.6	-46.8	15.8	0.00e+00	0	55	0	645922816	53	4277
2026-01-03 12:52:30.69	276.40	13.24	-45.4	-46.6	16.1	0.00e+00	0	55	0	649068544	53	4170
2026-01-03 12:52:31.68	276.59	13.26	-45.4	-46.5	16.1	0.00e+00	0	55	0	652214272	53	4118
2026-01-03 12:52:32.66	276.79	13.28	-45.4	-46.5	16.1	0.00e+00	0	55	0	655360000	53	4125
2026-01-03 12:52:33.65	276.98	13.30	-45.5	-46.6	16.0	0.00e+00	0	55	0	657457152	53	4189
2026-01-03 12:52:34.64	277.17	13.32	-45.5	-46.6	16.0	0.00e+00	0	55	0	660602880	53	4184
2026-01-03 12:52:35.62	277.37	13.34	-45.3	-46.5	16.2	0.00e+00	0	55	0	663748608	53	4124
2026-01-03 12:52:36.61	277.56	13.36	-45.4	-46.5	16.1	0.00e+00	0	55	0	666894336	53	4142
2026-01-03 12:52:37.60	277.76	13.38	-45.5	-46.8	15.9	0.00e+00	0	55	0	670040064	53	4247
2026-01-03 12:52:38.59	277.95	13.39	-45.4	-46.6	16.1	0.00e+00	0	55	0	673185792	53	4177
2026-01-03 12:52:39.58	278.15	13.41	-45.3	-46.5	16.2	0.00e+00	0	55	0	676331520	53	4110
2026-01-03 12:52:40.57	278.34	13.43	-45.2	-46.4	16.3	0.00e+00	0	55	0	679477248	53	4067
2026-01-03 12:52:41.56	278.54	13.45	-45.2	-46.3	16.3	0.00e+00	0	55	0	682622976	53	4045
2026-01-03 12:52:42.55	278.74	13.46	-45.3	-46.4	16.2	0.00e+00	0	55	0	685768704	53	4098
2026-01-03 12:52:43.54	278.93	13.48	-45.5	-46.7	16.0	0.00e+00	0	55	0	688914432	53	4214
2026-01-03 12:52:44.53	279.13	13.50	-45.5	-46.7	15.9	0.00e+00	0	55	0	692060160	53	4226
2026-01-03 12:52:45.53	279.33	13.51	-45.4	-46.6	16.1	0.00e+00	0	55	0	695205888	53	4169
2026-01-03 12:52:46.52	279.53	13.53	-45.4	-46.6	16.1	0.00e+00	0	55	0	698351616	53	4181
2026-01-03 12:52:47.51	279.72	13.54	-45.6	-46.8	15.8	0.00e+00	0	55	0	701497344	53	4280
2026-01-03 12:52:48.50	279.92	13.56	-45.7	-47.0	15.7	0.00e+00	0	55	0	704643072	53	4343
2026-01-03 12:52:49.48	280.12	13.57	-45.6	-46.9	15.8	0.00e+00	0	55	0	707788800	53	4304
2026-01-03 12:52:50.46	280.31	13.59	-45.6	-46.8	15.8	0.00e+00	0	55	0	710934528	53	4272
2026-01-03 12:52:51.46	280.51	13.60	-45.6	-46.8	15.9	0.00e+00	0	55	0	714080256	53	4253
2026-01-03 12:52:52.46	280.71	13.61	-45.5	-46.7	15.9	0.00e+00	0	55	0	717225984	53	4235
2026-01-03 12:52:53.45	280.91	13.63	-45.5	-46.7	16.0	0.00e+00	0	55	0	720371712	53	4194
2026-01-03 12:52:54.44	281.11	13.64	-45.7	-46.9	15.8	0.00e+00	0	55	0	722468864	53	4307
2026-01-03 12:52:55.44	281.31	13.65	-45.8	-47.1	15.6	0.00e+00	0	55	0	725614592	53	4406
2026-01-03 12:52:56.43	281.51	13.67	-45.6	-46.9	15.8	0.00e+00	0	55	0	728760320	53	4296
2026-01-03 12:52:57.42	281.71	13.68	-45.5	-46.7	15.9	0.00e+00	0	55	0	731906048	53	4226
2026-01-03 12:52:58.40	281.90	13.69	-45.6	-46.8	15.8	0.00e+00	0	55	0	735051776	53	4274
2026-01-03 12:52:59.39	282.10	13.70	-45.7	-47.0	15.6	0.00e+00	0	55	0	738197504	53	4350
2026-01-03 12:53:00.36	282.30	13.71	-45.7	-47.1	15.5	0.00e+00	0	55	0	741343232	53	4395
2026-01-03 12:53:01.36	282.50	13.72	-46.0	-47.3	15.2	0.00e+00	0	55	0	744488960	53	4518
2026-01-03 12:53:02.35	282.70	13.73	-46.0	-47.4	15.1	0.00e+00	0	55	0	747634688	53	4576
2026-01-03 12:53:03.33	282.90	13.75	-46.2	-47.7	14.7	0.00e+00	0	55	0	750780416	54	4469
2026-01-03 12:53:04.32	283.10	13.76	-46.4	-47.8	14.5	7.00e-07	0	55	0	753926144	54	4545
2026-01-03 12:53:05.30	283.30	13.76	-46.6	-48.2	14.1	1.50e-06	0	55	0	757071872	55	4470
2026-01-03 12:53:06.29	283.50	13.77	-46.7	-48.4	13.8	3.80e-06	0	55	0	760217600	55	4561
2026-01-03 12:53:07.28	283.70	13.78	-46.9	-48.8	13.4	9.90e-06	0	55	0	763363328	55	4768
2026-01-03 12:53:08.28	283.90	13.79	-47.3	-49.3	12.8	3.50e-05	0	55	0	766509056	56	4798
2026-01-03 12:53:09.26	284.10	13.80	-47.4	-49.4	12.7	4.88e-05	0	55	0	769654784	56	4867
2026-01-03 12:53:10.25	284.30	13.81	-47.8	-50.0	12.0	3.16e-04	0	55	0	772800512	57	4918
2026-01-03 12:53:11.25	284.50	13.82	-47.8	-50.2	11.7	4.68e-04	0	55	0	774897664	57	5007
2026-01-03 12:53:12.23	284.70	13.82	-48.3	-51.0	10.8	1.71e-03	0	55	0	778043392	58	5177
2026-01-03 12:53:13.22	284.90	13.83	-48.2	-50.9	10.8	2.38e-03	0	55	0	781189120	58	5134
2026-01-03 12:53:14.21	285.10	13.84	-48.3	-51.2	10.4	3.55e-03	0	55	0	784334848	58	5313
2026-01-03 12:53:15.20	285.30	13.84	-48.5	-51.8	9.6	1.21e-02	0	55	0	787480576	59	5397
2026-01-03 12:53:16.18	285.50	13.85	-48.6	-52.0	9.3	1.46e-02	0	55	0	790626304	59	5513
2026-01-03 12:53:17.17	285.70	13.86	-48.8	-52.7	8.5	3.41e-02	0	55	0	793772032	59	5947
2026-01-03 12:53:18.15	285.90	13.86	-48.9	-52.9	8.3	4.77e-02	0	55	0	796917760	59	6087
2026-01-03 12:53:19.14	286.10	13.87	-49.1	-53.6	7.4	9.97e-02	0	55	0	800063488	60	6271
2026-01-03 12:53:20.13	286.31	13.87	-49.4	-54.7	6.4	1.94e-01	0	55	0	803209216	60	7059
2026-01-03 12:53:21.12	286.51	13.88	-49.3	-54.4	6.6	2.16e-01	0	56	0	806354944	60	6859
2026-01-03 12:53:22.10	286.71	13.88	-49.5	-55.3	5.9	3.27e-01	0	56	0	809500672	60	7557
2026-01-03 12:53:23.10	286.91	13.89	-49.4	-55.0	6.0	3.27e-01	0	55	0	812646400	60	7324
2026-01-03 12:53:24.09	287.11	13.89	-49.5	-55.4	5.7	3.92e-01	0	55	0	815792128	60	7691
2026-01-03 12:53:25.07	287.31	13.89	-49.3	-54.7	6.2	3.14e-01	0	55	0	818937856	60	7116
2026-01-03 12:53:26.06	287.51	13.90	-49.3	-54.4	6.5	2.37e-01	0	55	0	822083584	60	6870
2026-01-03 12:53:27.05	287.72	13.90	-49.2	-54.2	6.7	1.96e-01	0	56	0	825229312	60	6706
2026-01-03 12:53:28.04	287.92	13.90	-49.2	-54.0	7.0	1.64e-01	0	55	0	828375040	60	6562
2026-01-03 12:53:29.03	288.12	13.90	-49.2	-54.0	7.1	1.52e-01	0	56	0	831520768	60	6550
2026-01-03 12:53:30.01	288.32	13.90	-49.2	-54.1	7.0	1.47e-01	0	55	0	833617920	60	6598
2026-01-03 12:53:31.00	288.52	13.91	-49.3	-54.2	7.0	1.55e-01	0	55	0	836763648	60	6702
2026-01-03 12:53:31.98	288.72	13.91	-49.2	-53.7	7.5	1.12e-01	0	55	0	839909376	60	6297
2026-01-03 12:53:32.96	288.92	13.91	-49.2	-53.4	7.8	8.78e-02	0	56	0	843055104	60	6095
2026-01-03 12:53:33.95	289.12	13.91	-49.0	-53.2	8.0	7.00e-02	0	55	0	846200832	60	5934
2026-01-03 12:53:34.94	289.32	13.91	-49.1	-53.1	8.2	5.83e-02	0	55	0	849346560	60	5861
2026-01-03 12:53:35.93	289.53	13.91	-49.1	-53.1	8.3	5.35e-02	0	56	0	852492288	60	5862
2026-01-03 12:53:36.92	289.73	13.91	-48.9	-52.5	8.9	3.29e-02	0	55	0	855638016	60	5526
2026-01-03 12:53:37.91	289.93	13.91	-48.6	-51.8	9.7	1.64e-02	0	56	0	858783744	60	5099
2026-01-03 12:53:38.90	290.13	13.90	-48.4	-51.2	10.4	5.81e-03	0	55	0	861929472	59	5037
2026-01-03 12:53:39.89	290.33	13.90	-48.1	-50.6	11.2	1.83e-03	0	55	0	865075200	59	4705
2026-01-03 12:53:40.88	290.54	13.90	-47.8	-50.0	11.9	4.49e-04	0	56	0	868220928	58	4649
2026-01-03 12:53:41.87	290.74	13.90	-47.6	-49.7	12.4	2.02e-04	0	56	0	871366656	58	4481
2026-01-03 12:53:42.86	290.94	13.90	-47.5	-49.5	12.6	1.08e-04	0	56	0	874512384	58	4381
2026-01-03 12:53:43.85	291.14	13.89	-47.7	-49.7	12.6	8.62e-05	0	55	0	877658112	58	4470
2026-01-03 12:53:44.84	291.34	13.89	-47.4	-49.3	13.1	4.11e-05	0	56	0	880803840	57	4510
2026-01-03 12:53:45.83	291.54	13.89	-47.1	-48.8	13.6	1.83e-05	0	56	0	883949568	57	4279
2026-01-03 12:53:46.82	291.75	13.88	-46.8	-48.5	14.0	3.00e-06	0	56	0	887095296	56	4345
2026-01-03 12:53:47.81	291.95	13.88	-46.6	-48.1	14.4	2.20e-06	0	56	0	890241024	56	4179
2026-01-03 12:53:48.80	292.15	13.87	-46.2	-47.7	14.8	0.00e+00	0	56	0	893386752	55	4213
2026-01-03 12:53:49.79	292.35	13.87	-46.1	-47.5	15.0	0.00e+00	0	56	0	895483904	55	4109
2026-01-03 12:53:50.78	292.55	13.86	-46.0	-47.3	15.1	0.00e+00	0	55	0	898629632	55	4030
2026-01-03 12:53:51.76	292.75	13.86	-45.9	-47.3	15.2	0.00e+00	0	56	0	901775360	54	4251
2026-01-03 12:53:52.75	292.95	13.85	-45.8	-47.1	15.4	0.00e+00	0	55	0	904921088	54	4170
2026-01-03 12:53:53.74	293.15	13.85	-45.6	-46.9	15.6	0.00e+00	0	56	0	908066816	54	4064
2026-01-03 12:53:54.73	293.35	13.84	-45.6	-46.8	15.7	0.00e+00	0	56	0	911212544	54	4019
2026-01-03 12:53:55.72	293.56	13.83	-45.5	-46.7	15.8	0.00e+00	0	56	0	914358272	54	3979
2026-01-03 12:53:56.71	293.76	13.83	-45.5	-46.7	15.8	0.00e+00	0	56	0	917504000	54	3981
2026-01-03 12:53:57.71	293.96	13.82	-45.6	-46.8	15.8	0.00e+00	0	56	0	920649728	54	4028
2026-01-03 12:53:58.70	294.16	13.81	-45.7	-47.0	15.5	0.00e+00	0	56	0	923795456	54	4126
2026-01-03 12:53:59.70	294.36	13.80	-45.8	-47.1	15.4	0.00e+00	0	56	0	926941184	54	4174
2026-01-03 12:54:00.69	294.56	13.80	-45.8	-47.1	15.4	0.00e+00	0	56	0	930086912	54	4179
2026-01-03 12:54:01.68	294.76	13.79	-45.9	-47.2	15.3	0.00e+00	0	56	0	933232640	54	4231
2026-01-03 12:54:02.68	294.97	13.78	-45.9	-47.2	15.4	0.00e+00	0	56	0	936378368	54	4199
2026-01-03 12:54:03.67	295.17	13.77	-45.9	-47.2	15.4	0.00e+00	0	56	0	939524096	54	4214
2026-01-03 12:54:04.66	295.37	13.76	-46.0	-47.4	15.2	0.00e+00	0	56	0	942669824	54	4319
2026-01-03 12:54:05.65	295.57	13.75	-46.1	-47.4	15.2	0.00e+00	0	56	0	945815552	54	4305
2026-01-03 12:54:06.64	295.76	13.74	-46.1	-47.5	15.1	0.00e+00	0	56	0	948961280	54	4358
2026-01-03 12:54:07.64	295.97	13.73	-46.0	-47.3	15.2	0.00e+00	0	56	0	952107008	54	4288
2026-01-03 12:54:08.63	296.17	13.72	-45.7	-47.0	15.6	0.00e+00	0	56	0	955252736	54	4137
2026-01-03 12:54:09.62	296.36	13.71	-45.6	-46.8	15.9	0.00e+00	0	56	0	958398464	54	4030
2026-01-03 12:54:10.60	296.56	13.69	-45.5	-46.7	15.9	0.00e+00	0	56	0	960495616	54	3995
2026-01-03 12:54:11.60	296.76	13.68	-45.5	-46.7	16.0	0.00e+00	0	56	0	963641344	54	3962
2026-01-03 12:54:12.59	296.96	13.67	-45.5	-46.7	15.9	0.00e+00	0	56	0	966787072	54	3978
2026-01-03 12:54:13.58	297.16	13.66	-45.4	-46.6	16.0	0.00e+00	0	56	0	969932800	54	3943
2026-01-03 12:54:14.58	297.36	13.65	-45.4	-46.6	16.0	0.00e+00	0	56	0	973078528	54	3952
2026-01-03 12:54:15.56	297.56	13.63	-45.6	-46.8	15.9	0.00e+00	0	56	0	976224256	54	4025
2026-01-03 12:54:16.54	297.75	13.62	-45.6	-46.8	15.8	0.00e+00	0	56	0	979369984	54	4031
2026-01-03 12:54:17.54	297.95	13.61	-45.6	-46.8	15.8	0.00e+00	0	56	0	982515712	54	4043
2026-01-03 12:54:18.53	298.15	13.59	-45.6	-46.8	15.8	0.00e+00	0	56	0	985661440	54	4013
2026-01-03 12:54:19.51	298.35	13.58	-45.6	-46.8	15.9	0.00e+00	0	56	0	988807168	54	4007
2026-01-03 12:54:20.50	298.54	13.56	-45.4	-46.6	16.0	0.00e+00	0	56	0	991952896	54	3933
2026-01-03 12:54:21.49	298.74	13.55	-45.5	-46.7	16.0	0.00e+00	0	56	0	995098624	54	3966
2026-01-03 12:54:22.48	298.94	13.53	-45.6	-46.8	15.9	0.00e+00	0	56	0	998244352	54	4021
2026-01-03 12:54:23.48	299.14	13.52	-45.5	-46.7	15.9	0.00e+00	0	56	0	1001390080	54	4001
2026-01-03 12:54:24.47	299.33	13.50	-45.4	-46.6	16.0	0.00e+00	0	56	0	1004535808	54	3936
2026-01-03 12:54:25.47	299.53	13.49	-45.5	-46.7	15.9	0.00e+00	0	56	0	1007681536	54	3959
2026-01-03 12:54:26.45	299.73	13.47	-45.5	-46.7	15.9	0.00e+00	0	56	0	1010827264	54	3992
2026-01-03 12:54:27.44	299.92	13.45	-45.7	-46.9	15.8	0.00e+00	0	56	0	1013972992	54	4070
2026-01-03 12:54:28.43	300.12	13.44	-45.6	-46.9	15.8	0.00e+00	0	56	0	1017118720	54	4054
2026-01-03 12:54:29.41	300.31	13.42	-45.5	-46.7	16.0	0.00e+00	0	56	0	1020264448	54	3976
2026-01-03 12:54:30.39	300.50	13.40	-45.4	-46.6	16.1	0.00e+00	0	56	0	1022361600	54	3925
2026-01-03 12:54:31.39	300.70	13.38	-45.4	-46.6	16.1	0.00e+00	0	56	0	1025507328	53	4155
2026-01-03 12:54:32.37	300.89	13.37	-45.4	-46.6	16.1	0.00e+00	0	56	0	1028653056	53	4152
2026-01-03 12:54:33.36	301.09	13.35	-45.3	-46.4	16.2	0.00e+00	0	56	0	1031798784	53	4086
2026-01-03 12:54:34.34	301.28	13.33	-45.3	-46.4	16.1	0.00e+00	0	56	0	1034944512	53	4098
2026-01-03 12:54:35.33	301.47	13.31	-45.4	-46.6	16.0	0.00e+00	0	56	0	1038090240	53	4149
2026-01-03 12:54:36.32	301.67	13.29	-45.4	-46.5	16.1	0.00e+00	0	56	0	1041235968	53	4122
2026-01-03 12:54:37.31	301.86	13.27	-45.4	-46.5	16.0	0.00e+00	0	56	0	1044381696	53	4140
2026-01-03 12:54:38.31	302.06	13.25	-45.5	-46.7	16.0	0.00e+00	0	56	0	1047527424	53	4201
2026-01-03 12:54:39.30	302.25	13.23	-45.5	-46.7	16.0	0.00e+00	0	56	0	1050673152	53	4227
2026-01-03 12:54:40.30	302.45	13.21	-45.4	-46.5	16.1	0.00e+00	0	56	0	1053818880	53	4132
2026-01-03 12:54:41.28	302.64	13.19	-45.3	-46.5	16.1	0.00e+00	0	56	0	1056964608	53	4108
2026-01-03 12:54:42.27	302.83	13.17	-45.3	-46.4	16.0	0.00e+00	0	56	0	1060110336	53	4079
2026-01-03 12:54:43.26	303.02	13.15	-45.3	-46.5	16.0	0.00e+00	0	56	0	1063256064	53	4118
2026-01-03 12:54:44.26	303.21	13.13	-45.4	-46.6	15.8	0.00e+00	0	56	0	1066401792	53	4193
2026-01-03 12:54:45.24	303.40	13.11	-45.4	-46.6	15.8	0.00e+00	0	56	0	1069547520	53	4170
2026-01-03 12:54:46.23	303.59	13.08	-45.5	-46.7	15.8	7.00e-07	0	56	0	1072693248	53	4209
2026-01-03 12:54:47.23	303.79	13.06	-45.5	-46.7	16.0	0.00e+00	0	56	0	1075838976	53	4203
2026-01-03 12:54:48.22	303.98	13.04	-45.4	-46.6	16.0	0.00e+00	0	56	0	1078984704	53	4167
2026-01-03 12:54:49.21	304.17	13.02	-45.5	-46.7	15.8	0.00e+00	0	56	0	1082130432	53	4225
2026-01-03 12:54:50.21	304.36	12.99	-45.5	-46.7	15.5	0.00e+00	0	56	0	1085276160	53	4229
2026-01-03 12:54:51.19	304.55	12.97	-45.7	-47.0	15.4	0.00e+00	0	56	0	1087373312	53	4342
2026-01-03 12:54:52.19	304.74	12.95	-45.5	-46.7	15.7	0.00e+00	0	56	0	1090519040	53	4235
2026-01-03 12:54:53.17	304.93	12.92	-45.4	-46.6	15.8	0.00e+00	0	56	0	1093664768	53	4170
2026-01-03 12:54:54.16	305.12	12.90	-45.4	-46.5	15.8	0.00e+00	0	56	0	1096810496	53	4129
2026-01-03 12:54:55.15	305.30	12.87	-45.4	-46.6	15.6	0.00e+00	0	56	0	1099956224	53	4191
2026-01-03 12:54:56.14	305.49	12.85	-45.6	-46.8	15.7	0.00e+00	0	56	0	1103101952	53	4259
2026-01-03 12:54:57.13	305.68	12.82	-45.5	-46.7	15.9	0.00e+00	0	56	0	1106247680	53	4194
2026-01-03 12:54:58.12	305.87	12.80	-45.5	-46.7	15.7	0.00e+00	0	56	0	1109393408	53	4216
2026-01-03 12:54:59.11	306.06	12.77	-45.5	-46.7	15.5	0.00e+00	0	56	0	1112539136	53	4220
2026-01-03 12:55:00.10	306.24	12.75	-45.6	-46.9	15.5	0.00e+00	0	56	0	1115684864	53	4292
2026-01-03 12:55:01.09	306.43	12.72	-45.9	-47.1	15.4	0.00e+00	0	56	0	1118830592	53	4433
2026-01-03 12:55:02.07	306.61	12.70	-45.6	-46.8	15.7	0.00e+00	0	56	0	1121976320	53	4274
2026-01-03 12:55:03.06	306.80	12.67	-45.5	-46.6	15.8	0.00e+00	0	56	0	1125122048	53	4190
2026-01-03 12:55:04.06	306.99	12.64	-45.4	-46.6	15.8	0.00e+00	0	56	0	1128267776	53	4167
2026-01-03 12:55:05.06	307.17	12.62	-45.5	-46.6	15.6	0.00e+00	0	56	0	1131413504	53	4192
2026-01-03 12:55:06.05	307.36	12.59	-45.5	-46.7	15.6	0.00e+00	0	56	0	1134559232	53	4224
2026-01-03 12:55:07.04	307.54	12.56	-45.7	-46.9	15.7	0.00e+00	0	56	0	1137704960	53	4327
2026-01-03 12:55:08.03	307.73	12.53	-45.6	-46.8	15.7	7.00e-07	0	56	0	1140850688	53	4268
2026-01-03 12:55:09.01	307.91	12.51	-45.6	-46.8	15.6	0.00e+00	0	56	0	1143996416	53	4264
2026-01-03 12:55:10.01	308.10	12.48	-45.6	-46.9	15.3	7.00e-07	0	56	0	1147142144	53	4313
2026-01-03 12:55:11.00	308.28	12.45	-45.6	-46.9	15.4	0.00e+00	0	56	0	1149239296	53	4292
2026-01-03 12:55:11.99	308.46	12.42	-45.8	-47.0	15.7	0.00e+00	0	56	0	1152385024	53	4352
2026-01-03 12:55:12.98	308.65	12.39	-45.8	-47.1	15.1	0.00e+00	0	56	0	1155530752	53	4401
2026-01-03 12:55:13.98	308.83	12.36	-45.8	-47.1	14.5	7.00e-07	0	56	0	1158676480	53	4439
2026-01-03 12:55:14.97	309.01	12.33	-46.1	-47.5	14.6	0.00e+00	0	56	0	1161822208	54	4369
2026-01-03 12:55:15.96	309.19	12.30	-45.7	-47.1	12.7	7.00e-07	0	56	0	1164967936	54	4185
2026-01-03 12:55:16.96	309.38	12.27	-44.7	-46.6	8.5	6.35e-03	0	56	0	1168113664	52	4392
2026-01-03 12:55:17.95	309.56	12.25	-44.1	-46.3	7.1	9.99e-02	0	56	0	1171259392	51	4525
2026-01-03 12:55:18.94	309.74	12.22	-44.4	-46.4	7.9	6.46e-02	0	56	0	1174405120	51	4558
2026-01-03 12:55:19.92	309.92	12.19	-44.4	-46.4	8.0	3.75e-02	0	56	0	1177550848	51	4568
2026-01-03 12:55:20.92	310.10	12.15	-44.6	-46.4	8.9	2.20e-02	0	56	0	1180696576	51	4576
2026-01-03 12:55:21.91	310.28	12.12	-45.0	-46.6	10.8	2.00e-03	0	56	0	1183842304	51	4675
2026-01-03 12:55:22.90	310.46	12.09	-45.2	-46.6	12.3	7.85e-05	0	56	0	1186988032	52	4439
2026-01-03 12:55:23.89	310.63	12.06	-45.4	-46.7	14.0	2.20e-06	0	56	0	1190133760	52	4463
2026-01-03 12:55:24.88	310.81	12.03	-45.4	-46.6	14.8	0.00e+00	0	56	0	1193279488	52	4436
2026-01-03 12:55:25.87	310.99	12.00	-45.5	-46.7	15.6	0.00e+00	0	56	0	1196425216	52	4490
2026-01-03 12:55:26.86	311.17	11.97	-45.6	-46.8	15.3	0.00e+00	0	56	0	1199570944	53	4270
2026-01-03 12:55:27.85	311.35	11.94	-45.6	-46.9	14.5	0.00e+00	0	56	0	1202716672	53	4320
2026-01-03 12:55:28.84	311.52	11.90	-45.5	-46.8	14.3	0.00e+00	0	56	0	1205862400	53	4246
2026-01-03 12:55:29.83	311.70	11.87	-45.5	-46.8	14.8	0.00e+00	0	56	0	1209008128	53	4258
2026-01-03 12:55:30.82	311.88	11.84	-45.5	-46.8	15.7	0.00e+00	0	56	0	1212153856	53	4251
2026-01-03 12:55:31.80	312.05	11.81	-45.7	-46.9	15.5	0.00e+00	0	56	0	1214251008	53	4309
2026-01-03 12:55:32.78	312.22	11.77	-45.6	-46.8	15.0	7.00e-07	0	56	0	1217396736	53	4283
2026-01-03 12:55:33.78	312.40	11.74	-45.8	-47.1	14.6	7.00e-07	0	56	0	1220542464	53	4401
2026-01-03 12:55:34.77	312.57	11.71	-45.8	-47.0	15.1	7.00e-07	0	56	0	1223688192	53	4370
2026-01-03 12:55:35.77	312.75	11.67	-45.9	-47.2	15.4	0.00e+00	0	56	0	1226833920	53	4463
2026-01-03 12:55:36.75	312.92	11.64	-46.2	-47.5	15.0	0.00e+00	0	56	0	1229979648	54	4390
2026-01-03 12:55:37.75	313.10	11.61	-46.1	-47.4	15.0	0.00e+00	0	56	0	1233125376	54	4317
2026-01-03 12:55:38.74	313.27	11.57	-45.9	-47.2	15.3	0.00e+00	0	56	0	1236271104	54	4204
2026-01-03 12:55:39.73	313.44	11.54	-45.7	-46.9	15.6	0.00e+00	0	56	0	1239416832	54	4077
2026-01-03 12:55:40.73	313.62	11.50	-45.9	-47.1	15.5	0.00e+00	0	56	0	1242562560	54	4172
2026-01-03 12:55:41.72	313.79	11.47	-46.0	-47.3	15.4	0.00e+00	0	56	0	1245708288	54	4257
2026-01-03 12:55:42.69	313.96	11.43	-46.0	-47.2	15.3	0.00e+00	0	56	0	1248854016	54	4242
2026-01-03 12:55:43.69	314.13	11.40	-45.8	-47.1	15.5	0.00e+00	0	56	0	1251999744	54	4148
2026-01-03 12:55:44.67	314.30	11.36	-45.9	-47.2	15.4	0.00e+00	0	56	0	1255145472	54	4205
2026-01-03 12:55:45.65	314.47	11.33	-45.8	-47.0	15.6	0.00e+00	0	56	0	1258291200	54	4135
2026-01-03 12:55:46.65	314.64	11.29	-45.8	-47.0	15.6	0.00e+00	0	56	0	1261436928	54	4126
2026-01-03 12:55:47.64	314.81	11.26	-45.9	-47.2	15.4	0.00e+00	0	56	0	1264582656	54	4227
2026-01-03 12:55:48.63	314.98	11.22	-46.0	-47.3	15.4	0.00e+00	0	56	0	1267728384	54	4254
2026-01-03 12:55:49.62	315.15	11.19	-46.0	-47.4	15.3	0.00e+00	0	56	0	1270874112	54	4311
2026-01-03 12:55:50.61	315.31	11.15	-46.0	-47.3	15.3	0.00e+00	0	56	0	1274019840	54	4277
2026-01-03 12:55:51.59	315.48	11.11	-45.8	-47.1	15.6	0.00e+00	0	56	0	1276116992	54	4186
2026-01-03 12:55:52.58	315.65	11.08	-45.8	-47.0	15.6	0.00e+00	0	56	0	1279262720	54	4145
2026-01-03 12:55:53.57	315.81	11.04	-45.8	-47.0	15.6	0.00e+00	0	56	0	1282408448	54	4136
2026-01-03 12:55:54.57	315.98	11.00	-45.9	-47.2	15.4	0.00e+00	0	57	0	1285554176	54	4237
2026-01-03 12:55:55.56	316.15	10.97	-45.9	-47.3	15.4	0.00e+00	0	56	0	1288699904	54	4249
2026-01-03 12:55:56.54	316.31	10.93	-45.9	-47.1	15.5	0.00e+00	0	56	0	1291845632	54	4193
2026-01-03 12:55:57.53	316.48	10.89	-45.8	-47.1	15.5	0.00e+00	0	56	0	1294991360	54	4171
2026-01-03 12:55:58.52	316.64	10.85	-45.8	-47.1	15.5	0.00e+00	0	57	0	1298137088	54	4180
2026-01-03 12:55:59.51	316.81	10.82	-45.8	-47.1	15.5	0.00e+00	0	56	0	1301282816	54	4174
2026-01-03 12:56:00.50	316.97	10.78	-45.8	-47.0	15.6	0.00e+00	0	56	0	1304428544	54	4140
2026-01-03 12:56:01.48	317.13	10.74	-45.9	-47.2	15.4	0.00e+00	0	56	0	1307574272	54	4224
2026-01-03 12:56:02.47	317.30	10.70	-45.9	-47.2	15.4	0.00e+00	0	57	0	1310720000	54	4237
2026-01-03 12:56:03.45	317.46	10.67	-45.7	-47.0	15.6	0.00e+00	0	56	0	1313865728	54	4119
2026-01-03 12:56:04.44	317.62	10.63	-45.7	-47.0	15.6	0.00e+00	0	56	0	1317011456	54	4106
2026-01-03 12:56:05.44	317.79	10.59	-46.0	-47.3	15.3	0.00e+00	0	57	0	1320157184	54	4257
2026-01-03 12:56:06.42	317.95	10.55	-46.2	-47.6	15.1	0.00e+00	0	56	0	1323302912	54	4396
2026-01-03 12:56:07.41	318.11	10.51	-46.3	-47.8	14.8	0.00e+00	0	56	0	1326448640	54	4503
2026-01-03 12:56:08.40	318.27	10.47	-46.3	-47.7	14.9	0.00e+00	0	56	0	1328545792	54	4479
2026-01-03 12:56:09.39	318.43	10.43	-46.3	-47.8	14.8	0.00e+00	0	57	0	1331691520	54	4498
2026-01-03 12:56:10.39	318.59	10.40	-46.6	-48.1	14.6	7.00e-07	0	56	0	1334837248	54	4653
2026-01-03 12:56:11.38	318.75	10.36	-46.6	-48.1	14.5	7.00e-07	0	56	0	1337982976	55	4417
2026-01-03 12:56:12.37	318.91	10.32	-46.6	-48.2	14.4	0.00e+00	0	57	0	1341128704	55	4464
2026-01-03 12:56:13.36	319.07	10.28	-46.8	-48.4	14.2	3.80e-06	0	57	0	1344274432	55	4557
2026-01-03 12:56:14.35	319.23	10.24	-46.5	-48.0	14.5	0.00e+00	0	57	0	1347420160	55	4390
2026-01-03 12:56:15.34	319.38	10.20	-46.4	-47.8	14.8	1.50e-06	0	56	0	1350565888	55	4272
2026-01-03 12:56:16.33	319.54	10.16	-46.3	-47.7	14.8	7.00e-07	0	56	0	1353711616	55	4223
2026-01-03 12:56:17.32	319.70	10.12	-46.2	-47.7	14.9	0.00e+00	0	56	0	1356857344	55	4198
2026-01-03 12:56:18.30	319.85	10.08	-46.4	-47.8	14.8	0.00e+00	0	56	0	1360003072	55	4259
2026-01-03 12:56:19.29	320.01	10.04	-46.4	-48.0	14.6	0.00e+00	0	57	0	1363148800	55	4344
2026-01-03 12:56:20.28	320.17	10.00	-46.5	-48.0	14.6	1.50e-06	0	56	0	1366294528	55	4376
2026-01-03 12:56:21.27	320.32	9.96	-46.3	-47.7	14.9	0.00e+00	0	57	0	1369440256	55	4226
2026-01-03 12:56:22.26	320.48	9.92	-46.2	-47.6	15.0	0.00e+00	0	56	0	1372585984	55	4173
2026-01-03 12:56:23.26	320.63	9.88	-46.3	-47.7	14.9	0.00e+00	0	57	0	1375731712	55	4241
2026-01-03 12:56:24.25	320.79	9.83	-46.4	-47.9	14.7	0.00e+00	0	57	0	1378877440	55	4320
2026-01-03 12:56:25.24	320.94	9.79	-46.3	-47.8	14.8	0.00e+00	0	57	0	1382023168	55	4256
2026-01-03 12:56:26.23	321.09	9.75	-46.4	-47.9	14.7	7.00e-07	0	57	0	1385168896	55	4321
2026-01-03 12:56:27.22	321.25	9.71	-46.4	-47.8	14.8	7.00e-07	0	56	0	1388314624	55	4261
2026-01-03 12:56:28.20	321.40	9.67	-46.2	-47.6	15.0	0.00e+00	0	56	0	1391460352	55	4160
2026-01-03 12:56:29.19	321.55	9.63	-46.2	-47.6	15.0	0.00e+00	0	57	0	1393557504	55	4164
2026-01-03 12:56:30.17	321.70	9.59	-46.3	-47.8	14.8	7.00e-07	0	57	0	1396703232	55	4255
2026-01-03 12:56:31.15	321.85	9.55	-46.3	-47.7	14.8	7.00e-07	0	57	0	1399848960	55	4224
2026-01-03 12:56:32.15	322.00	9.51	-46.3	-47.7	14.9	0.00e+00	0	57	0	1402994688	55	4228
2026-01-03 12:56:33.13	322.15	9.46	-46.3	-47.7	14.8	0.00e+00	0	57	0	1406140416	55	4214
2026-01-03 12:56:34.12	322.30	9.42	-46.4	-47.8	14.7	0.00e+00	0	56	0	1409286144	55	4288
2026-01-03 12:56:35.11	322.45	9.38	-46.5	-48.1	14.5	0.00e+00	0	57	0	1412431872	55	4392
2026-01-03 12:56:36.10	322.60	9.34	-46.3	-47.8	14.8	0.00e+00	0	56	0	1415577600	55	4260
2026-01-03 12:56:37.09	322.75	9.30	-46.3	-47.7	14.8	7.00e-07	0	57	0	1418723328	55	4224
2026-01-03 12:56:38.08	322.90	9.25	-46.3	-47.7	14.8	7.00e-07	0	57	0	1421869056	55	4226
2026-01-03 12:56:39.07	323.05	9.21	-46.3	-47.7	14.8	7.00e-07	0	57	0	1425014784	55	4212
2026-01-03 12:56:40.06	323.19	9.17	-46.3	-47.7	14.8	7.00e-07	0	57	0	1428160512	55	4233
2026-01-03 12:56:41.04	323.34	9.13	-46.4	-47.9	14.7	7.00e-07	0	57	0	1431306240	55	4296
2026-01-03 12:56:42.03	323.49	9.08	-46.6	-48.1	14.4	1.50e-06	0	57	0	1434451968	55	4430
2026-01-03 12:56:43.02	323.63	9.04	-46.5	-48.0	14.6	0.00e+00	0	57	0	1437597696	55	4341
2026-01-03 12:56:44.01	323.78	9.00	-46.7	-48.2	14.3	3.00e-06	0	57	0	1440743424	55	4482
2026-01-03 12:56:44.99	323.92	8.96	-46.8	-48.4	14.1	3.00e-06	0	57	0	1442840576	55	4559
2026-01-03 12:56:45.98	324.07	8.91	-46.7	-48.3	14.2	3.80e-06	0	56	0	1445986304	55	4518
2026-01-03 12:56:46.97	324.21	8.87	-46.9	-48.5	14.0	3.00e-06	0	57	0	1449132032	55	4635
2026-01-03 12:56:47.96	324.36	8.83	-46.8	-48.4	14.1	7.00e-07	0	57	0	1452277760	55	4552
2026-01-03 12:56:48.96	324.50	8.78	-46.9	-48.5	13.9	2.20e-06	0	57	0	1455423488	55	4639
2026-01-03 12:56:49.95	324.65	8.74	-46.9	-48.6	13.9	5.30e-06	0	57	0	1458569216	55	4677
2026-01-03 12:56:50.94	324.79	8.70	-46.8	-48.5	14.0	3.00e-06	0	57	0	1461714944	55	4619
2026-01-03 12:56:51.93	324.93	8.65	-46.8	-48.4	14.1	3.00e-06	0	57	0	1464860672	55	4565
2026-01-03 12:56:52.93	325.07	8.61	-46.9	-48.6	13.9	4.50e-06	0	56	0	1468006400	55	4675
2026-01-03 12:56:53.92	325.22	8.57	-47.2	-48.9	13.7	7.60e-06	0	57	0	1471152128	56	4578
2026-01-03 12:56:54.90	325.36	8.52	-47.1	-48.7	13.8	5.30e-06	0	57	0	1474297856	56	4487
2026-01-03 12:56:55.88	325.50	8.48	-47.2	-48.9	13.7	3.80e-06	0	57	0	1477443584	56	4559
2026-01-03 12:56:56.87	325.64	8.44	-47.3	-49.0	13.6	1.14e-05	0	57	0	1480589312	56	4632
2026-01-03 12:56:57.86	325.78	8.39	-47.1	-48.8	13.8	9.10e-06	0	57	0	1483735040	56	4509
2026-01-03 12:56:58.86	325.92	8.35	-47.0	-48.7	13.9	7.00e-07	0	57	0	1486880768	56	4442
2026-01-03 12:56:59.84	326.06	8.30	-47.0	-48.7	13.9	1.50e-06	0	57	0	1490026496	56	4460
2026-01-03 12:57:00.82	326.19	8.26	-47.1	-48.7	13.8	3.00e-06	0	57	0	1493172224	56	4485
2026-01-03 12:57:01.81	326.33	8.22	-47.1	-48.8	13.8	3.00e-06	0	57	0	1496317952	56	4498
2026-01-03 12:57:02.81	326.47	8.17	-47.3	-49.1	13.5	6.10e-06	0	57	0	1499463680	56	4652
2026-01-03 12:57:03.80	326.61	8.13	-47.1	-48.9	13.8	8.30e-06	0	57	0	1502609408	56	4548
2026-01-03 12:57:04.80	326.75	8.08	-46.9	-48.5	14.0	5.30e-06	0	57	0	1504706560	56	4375
2026-01-03 12:57:05.79	326.89	8.04	-46.8	-48.4	14.2	1.50e-06	0	57	0	1507852288	56	4327
2026-01-03 12:57:06.77	327.02	7.99	-46.7	-48.3	14.3	3.80e-06	0	57	0	1510998016	56	4251
2026-01-03 12:57:07.77	327.16	7.95	-46.7	-48.3	14.2	1.50e-06	0	57	0	1514143744	56	4278
2026-01-03 12:57:08.76	327.29	7.91	-46.8	-48.4	14.2	2.20e-06	0	57	0	1517289472	56	4296
2026-01-03 12:57:09.75	327.43	7.86	-46.7	-48.2	14.3	2.20e-06	0	57	0	1520435200	56	4235
2026-01-03 12:57:10.74	327.56	7.82	-46.6	-48.1	14.4	7.00e-07	0	57	0	1523580928	56	4163
2026-01-03 12:57:11.73	327.70	7.77	-46.6	-48.1	14.4	7.00e-07	0	57	0	1526726656	56	4188
2026-01-03 12:57:12.72	327.83	7.73	-46.6	-48.2	14.4	7.00e-07	0	57	0	1529872384	56	4202
2026-01-03 12:57:13.72	327.97	7.68	-46.7	-48.3	14.3	0.00e+00	0	57	0	1533018112	56	4252
2026-01-03 12:57:14.71	328.10	7.64	-46.7	-48.2	14.3	1.50e-06	0	57	0	1536163840	56	4220
2026-01-03 12:57:15.70	328.23	7.59	-46.7	-48.3	14.2	1.50e-06	0	57	0	1539309568	56	4277
2026-01-03 12:57:16.69	328.37	7.55	-46.8	-48.4	14.2	7.00e-07	0	57	0	1542455296	56	4318
2026-01-03 12:57:17.68	328.50	7.50	-46.8	-48.4	14.1	1.50e-06	0	57	0	1545601024	56	4317
2026-01-03 12:57:18.67	328.63	7.46	-46.9	-48.5	14.0	2.20e-06	0	57	0	1548746752	56	4376
2026-01-03 12:57:19.67	328.76	7.41	-47.1	-48.9	13.6	3.00e-06	0	57	0	1551892480	56	4562
2026-01-03 12:57:20.64	328.89	7.37	-47.2	-48.9	13.6	9.90e-06	0	57	0	1555038208	56	4563
2026-01-03 12:57:21.63	329.02	7.32	-46.9	-48.6	13.9	3.80e-06	0	57	0	1558183936	56	4425
2026-01-03 12:57:22.62	329.15	7.28	-47.2	-48.9	13.6	1.29e-05	0	57	0	1561329664	56	4557
2026-01-03 12:57:23.60	329.28	7.23	-47.1	-48.8	13.7	7.60e-06	0	57	0	1564475392	56	4507
2026-01-03 12:57:24.60	329.41	7.19	-46.9	-48.6	13.9	6.80e-06	0	57	0	1566572544	56	4422
2026-01-03 12:57:25.58	329.54	7.14	-47.0	-48.8	13.7	5.30e-06	0	57	0	1569718272	56	4520
2026-01-03 12:57:26.57	329.67	7.10	-47.2	-49.0	13.5	1.14e-05	0	57	0	1572864000	56	4601
2026-01-03 12:57:27.55	329.80	7.05	-47.4	-49.3	13.2	1.83e-05	0	57	0	1576009728	56	4762
2026-01-03 12:57:28.54	329.92	7.01	-47.4	-49.4	13.1	2.74e-05	0	57	0	1579155456	56	4815
2026-01-03 12:57:29.53	330.05	6.96	-47.4	-49.3	13.1	2.89e-05	0	57	0	1582301184	56	4793
2026-01-03 12:57:30.51	330.18	6.91	-47.5	-49.6	12.9	6.33e-05	0	57	0	1585446912	56	4932
2026-01-03 12:57:31.50	330.30	6.87	-47.6	-49.6	12.8	6.33e-05	0	57	0	1588592640	57	4689
2026-01-03 12:57:32.49	330.43	6.82	-47.6	-49.5	12.9	3.20e-05	0	57	0	1591738368	57	4651
2026-01-03 12:57:33.47	330.56	6.78	-47.6	-49.7	12.7	9.00e-05	0	57	0	1594884096	57	4721
2026-01-03 12:57:34.46	330.68	6.73	-47.6	-49.5	12.9	5.26e-05	0	57	0	1598029824	57	4634
2026-01-03 12:57:35.44	330.80	6.69	-47.7	-49.7	12.7	9.46e-05	0	57	0	1601175552	57	4709
2026-01-03 12:57:36.44	330.93	6.64	-47.6	-49.5	12.9	4.80e-05	0	57	0	1604321280	57	4614
2026-01-03 12:57:37.42	331.05	6.60	-47.5	-49.4	13.0	4.34e-05	0	57	0	1607467008	57	4556
2026-01-03 12:57:38.40	331.18	6.55	-47.6	-49.5	12.9	5.26e-05	0	57	0	1610612736	57	4626
2026-01-03 12:57:39.39	331.30	6.50	-47.7	-49.8	12.6	8.54e-05	0	57	0	1613758464	57	4766
2026-01-03 12:57:40.38	331.42	6.46	-47.3	-49.3	13.1	3.35e-05	0	57	0	1616904192	57	4507
2026-01-03 12:57:41.37	331.55	6.41	-47.3	-49.1	13.3	2.82e-05	0	57	0	1620049920	57	4410
2026-01-03 12:57:42.36	331.67	6.37	-47.2	-49.0	13.4	1.37e-05	0	57	0	1623195648	57	4365
2026-01-03 12:57:43.36	331.79	6.32	-47.1	-48.9	13.5	6.10e-06	0	57	0	1626341376	57	4322
2026-01-03 12:57:44.35	331.92	6.27	-47.2	-49.1	13.3	1.44e-05	0	57	0	1628438528	57	4402
2026-01-03 12:57:45.33	332.04	6.23	-47.1	-49.0	13.4	1.52e-05	0	57	0	1631584256	57	4349
2026-01-03 12:57:46.32	332.16	6.18	-47.2	-49.0	13.3	1.52e-05	0	57	0	1634729984	57	4388
2026-01-03 12:57:47.31	332.28	6.14	-47.0	-48.8	13.5	9.90e-06	0	57	0	1637875712	57	4283
2026-01-03 12:57:48.31	332.40	6.09	-47.0	-48.9	13.5	1.06e-05	0	57	0	1641021440	57	4303
2026-01-03 12:57:49.29	332.52	6.05	-47.0	-48.7	13.6	3.80e-06	0	57	0	1644167168	57	4238
2026-01-03 12:57:50.28	332.64	6.00	-47.2	-49.0	13.3	1.52e-05	0	57	0	1647312896	57	4379
2026-01-03 12:57:51.27	332.76	5.95	-47.4	-49.2	13.1	3.66e-05	0	57	0	1650458624	57	4486
2026-01-03 12:57:52.26	332.88	5.91	-47.2	-49.1	13.2	1.52e-05	0	57	0	1653604352	57	4412
2026-01-03 12:57:53.25	333.00	5.86	-47.3	-49.1	13.1	3.20e-05	0	57	0	1656750080	57	4441
2026-01-03 12:57:54.24	333.11	5.81	-47.3	-49.2	13.1	2.36e-05	0	57	0	1659895808	57	4453
2026-01-03 12:57:55.23	333.23	5.77	-47.2	-49.0	13.3	1.14e-05	0	57	0	1663041536	57	4370
2026-01-03 12:57:56.22	333.35	5.72	-47.3	-49.1	13.2	2.51e-05	0	57	0	1666187264	57	4431
2026-01-03 12:57:57.20	333.47	5.68	-47.3	-49.2	13.0	4.11e-05	0	57	0	1669332992	57	4487
2026-01-03 12:57:58.20	333.58	5.63	-47.2	-49.0	13.3	2.13e-05	0	57	0	1672478720	57	4361
2026-01-03 12:57:59.18	333.70	5.58	-47.1	-48.9	13.4	1.44e-05	0	57	0	1675624448	57	4327
2026-01-03 12:58:00.17	333.81	5.54	-47.1	-49.0	13.2	1.52e-05	0	57	0	1678770176	57	4371
2026-01-03 12:58:01.16	333.93	5.49	-47.1	-48.9	13.3	2.13e-05	0	57	0	1681915904	57	4320
2026-01-03 12:58:02.16	334.05	5.44	-47.1	-49.0	13.3	9.10e-06	0	57	0	1685061632	57	4345
2026-01-03 12:58:03.15	334.16	5.40	-46.9	-48.8	13.4	1.14e-05	0	57	0	1687158784	57	4243
2026-01-03 12:58:04.13	334.28	5.35	-47.0	-48.8	13.4	1.29e-05	0	57	0	1690304512	57	4264
2026-01-03 12:58:05.13	334.39	5.31	-47.2	-49.0	13.2	2.21e-05	0	57	0	1693450240	57	4382
2026-01-03 12:58:06.12	334.51	5.26	-47.2	-49.1	13.1	2.21e-05	0	57	0	1696595968	57	4426
2026-01-03 12:58:07.11	334.62	5.21	-47.2	-49.2	13.0	2.82e-05	0	57	0	1699741696	57	4463
2026-01-03 12:58:08.09	334.73	5.17	-47.4	-49.3	12.9	5.41e-05	0	57	0	1702887424	57	4519
2026-01-03 12:58:09.08	334.84	5.12	-47.3	-49.3	12.9	5.26e-05	0	57	0	1706033152	57	4506
2026-01-03 12:58:10.06	334.96	5.07	-47.4	-49.4	12.8	7.85e-05	0	57	0	1709178880	57	4568
2026-01-03 12:58:11.05	335.07	5.03	-49.9	-54.0	8.4	8.77e-05	0	57	0	1712324608	61	6175
2026-01-03 12:58:12.03	335.18	4.98	-51.8	-63.2	3.8	1.49e+00	0	57	104	1712324608	65	14105
2026-01-03 12:58:13.02	335.29	4.94	-52.0	-63.7	3.8	1.49e+00	0	57	104	1712324608	65	14890
2026-01-03 12:58:14.01	335.40	4.89	-52.2	-63.9	3.8	1.49e+00	0	57	104	1712324608	66	14378
2026-01-03 12:58:15.01	335.51	4.84	-52.3	-63.9	3.8	1.49e+00	0	57	104	1712324608	66	14527
2026-01-03 12:58:16.00	335.63	4.80	-52.4	-64.0	3.8	1.49e+00	0	57	104	1712324608	66	14642
2026-01-03 12:58:17.00	335.74	4.75	-51.8	-63.4	3.8	1.49e+00	0	57	104	1712324608	66	13652
2026-01-03 12:58:17.99	335.85	4.70	-52.4	-64.1	3.8	1.49e+00	0	57	104	1712324608	66	14804
2026-01-03 12:58:18.97	335.96	4.66	-52.5	-64.1	3.8	1.49e+00	0	57	104	1712324608	67	14011
2026-01-03 12:58:19.96	336.06	4.61	-52.6	-64.2	3.8	1.49e+00	0	57	104	1712324608	67	14142
2026-01-03 12:58:20.95	336.17	4.56	-52.5	-64.2	3.8	1.49e+00	0	57	104	1712324608	67	14197
2026-01-03 12:58:21.95	336.28	4.52	-52.6	-64.3	3.8	1.49e+00	0	57	104	1712324608	67	14242
2026-01-03 12:58:22.94	336.39	4.47	-52.6	-64.3	3.8	1.49e+00	0	57	104	1712324608	67	14289
2026-01-03 12:58:23.93	336.50	4.42	-52.5	-64.3	3.8	1.49e+00	0	57	104	1712324608	67	14257
2026-01-03 12:58:24.92	336.61	4.38	-52.7	-64.3	3.8	1.49e+00	0	57	104	1712324608	67	14341
2026-01-03 12:58:25.91	336.71	4.33	-52.8	-64.4	3.8	1.49e+00	0	57	104	1712324608	67	14396
2026-01-03 12:58:26.90	336.82	4.29	-52.7	-64.4	3.8	1.49e+00	0	57	104	1712324608	67	14472
2026-01-03 12:58:27.89	336.93	4.24	-52.8	-64.4	3.8	1.49e+00	0	57	104	1712324608	67	14460
2026-01-03 12:58:28.87	337.03	4.19	-52.8	-64.4	3.8	1.49e+00	0	57	104	1712324608	67	14498
2026-01-03 12:58:29.85	337.14	4.15	-52.8	-64.4	3.8	1.49e+00	0	57	104	1712324608	67	14499
2026-01-03 12:58:30.84	337.24	4.10	-52.9	-64.4	3.8	1.49e+00	0	57	104	1712324608	67	14515
2026-01-03 12:58:31.83	337.35	4.05	-52.9	-64.4	3.8	1.49e+00	0	57	104	1712324608	67	14516
2026-01-03 12:58:32.82	337.46	4.01	-52.9	-64.4	3.8	1.49e+00	0	57	104	1712324608	67	14511
2026-01-03 12:58:33.82	337.56	3.96	-52.9	-64.5	3.8	1.49e+00	0	57	104	1712324608	67	14544
2026-01-03 12:58:34.81	337.67	3.91	-52.9	-64.4	3.8	1.49e+00	0	57	104	1712324608	67	14522
2026-01-03 12:58:35.80	337.77	3.87	-52.9	-64.5	3.8	1.49e+00	0	57	104	1712324608	67	14555
2026-01-03 12:58:36.79	337.87	3.82	-52.7	-64.4	3.8	1.49e+00	0	57	104	1712324608	67	14522
2026-01-03 12:58:37.78	337.98	3.78	-53.0	-64.4	3.8	1.49e+00	0	57	104	1712324608	67	14539
2026-01-03 12:58:38.78	338.08	3.73	-52.9	-64.5	3.8	1.49e+00	0	57	104	1712324608	67	14551
2026-01-03 12:58:39.77	338.18	3.68	-52.9	-64.5	3.8	1.49e+00	0	57	104	1712324608	67	14559
2026-01-03 12:58:40.76	338.29	3.64	-52.7	-64.4	3.8	1.49e+00	0	57	104	1712324608	67	14523
2026-01-03 12:58:41.74	338.39	3.59	-52.8	-64.5	3.8	1.49e+00	0	57	104	1712324608	67	14547
2026-01-03 12:58:42.73	338.49	3.54	-52.8	-64.4	3.8	1.49e+00	0	57	104	1712324608	67	14501
2026-01-03 12:58:43.72	338.59	3.50	-52.9	-64.4	3.8	1.49e+00	0	57	104	1712324608	67	14491
2026-01-03 12:58:44.71	338.69	3.45	-52.8	-64.4	3.8	1.49e+00	0	57	104	1712324608	67	14510
2026-01-03 12:58:45.70	338.79	3.40	-52.9	-64.4	3.8	1.49e+00	0	57	104	1712324608	67	14520
2026-01-03 12:58:46.69	338.90	3.36	-52.9	-64.4	3.8	1.49e+00	0	57	104	1712324608	67	14530
2026-01-03 12:58:47.68	339.00	3.31	-52.7	-64.4	3.8	1.49e+00	0	57	104	1712324608	67	14533
2026-01-03 12:58:48.67	339.10	3.27	-52.9	-64.4	3.8	1.49e+00	0	57	104	1712324608	67	14538
2026-01-03 12:58:49.67	339.20	3.22	-52.8	-64.4	3.8	1.49e+00	0	57	104	1712324608	67	14480
2026-01-03 12:58:50.65	339.30	3.17	-52.9	-64.4	3.8	1.49e+00	0	57	104	1712324608	67	14528
2026-01-03 12:58:51.64	339.40	3.13	-53.0	-64.4	3.8	1.49e+00	0	57	104	1712324608	67	14511
2026-01-03 12:58:52.62	339.49	3.08	-53.0	-64.4	3.8	1.49e+00	0	57	104	1712324608	67	14497
2026-01-03 12:58:53.61	339.59	3.03	-52.9	-64.5	3.8	1.49e+00	0	57	104	1712324608	67	14561

#Closed at: 2026-01-03 12:58:54
#Recorded file [1712 MB]: D:/Data/31026_260103_155811.dat