passes_logs/2026/01/03/R3.0SM8_Murmansk_STILSPACE/R3.0SM8_Murmansk_STILSPACE__20260103_115632_NOAA_20_JPSS-1_rec.log

#Pass ID: 20260103_115632_NOAA 20 (JPSS-1)
#Satellite: NOAA 20 (JPSS-1)
#Configuration: NOAA 20
#almurnet v.1.7.20240730
#Start time: 2026-01-03 11:56:34

#Version: 2.2.20231116
#Station: R3.0SM8_Murmansk_STILSPACE
#Location: 33.092731 lon 68.902999 lat
#TLE: 1 43013U 17073A   26002.21975278  .00000202  00000+0  11669-3 0  9999
#TLE: 2 43013  98.7622 303.2950 0001915  57.9213 302.2149 14.19532512420923

#Time	Az	El	Level	Level2	SNR	BER	BlckErr	Temp	State	Recorded	gain1	gain2
2026-01-03 11:56:34.15	214.27	3.07	-52.6	-66.5	3.8	1.49e+00	0	45	0	0	67	18456
2026-01-03 11:56:35.13	214.34	3.13	-52.4	-66.4	3.8	1.49e+00	0	45	104	0	67	18185
2026-01-03 11:56:36.12	214.42	3.18	-52.4	-66.3	3.8	1.49e+00	0	45	104	0	67	17932
2026-01-03 11:56:37.11	214.50	3.24	-52.3	-66.2	3.8	1.49e+00	0	45	104	0	67	17705
2026-01-03 11:56:38.10	214.57	3.30	-52.1	-66.0	3.8	1.49e+00	0	46	104	0	67	17364
2026-01-03 11:56:39.09	214.65	3.35	-52.0	-65.8	3.8	1.49e+00	0	46	104	0	66	17904
2026-01-03 11:56:40.08	214.73	3.41	-51.5	-65.5	3.8	1.49e+00	0	46	104	0	66	17316
2026-01-03 11:56:41.07	214.80	3.46	-51.3	-64.8	3.8	1.49e+00	0	46	104	0	65	16909
2026-01-03 11:56:42.06	214.88	3.52	-51.4	-64.8	3.8	1.49e+00	0	46	104	0	65	16983
2026-01-03 11:56:43.05	214.96	3.58	-51.4	-64.9	3.8	1.49e+00	0	46	104	0	65	17174
2026-01-03 11:56:44.03	215.03	3.63	-51.5	-65.0	3.8	1.49e+00	0	46	104	0	65	17394
2026-01-03 11:56:45.02	215.11	3.69	-51.4	-65.1	3.8	1.49e+00	0	46	104	0	65	17663
2026-01-03 11:56:46.01	215.19	3.75	-51.5	-65.2	3.8	1.49e+00	0	46	104	0	65	17781
2026-01-03 11:56:47.00	215.27	3.80	-51.4	-65.2	3.8	1.49e+00	0	46	104	0	65	17823
2026-01-03 11:56:48.00	215.35	3.86	-51.4	-65.3	3.8	1.49e+00	0	47	104	0	65	17906
2026-01-03 11:56:48.98	215.43	3.92	-51.4	-65.3	3.8	1.49e+00	0	46	104	0	65	17916
2026-01-03 11:56:49.97	215.51	3.97	-51.4	-65.3	3.8	1.49e+00	0	47	104	0	65	17923
2026-01-03 11:56:50.96	215.59	4.03	-51.5	-65.2	3.8	1.49e+00	0	47	104	0	65	17816
2026-01-03 11:56:51.95	215.67	4.09	-51.4	-65.2	3.8	1.49e+00	0	47	104	0	65	17701
2026-01-03 11:56:52.94	215.75	4.15	-51.5	-64.9	3.8	1.49e+00	0	47	104	0	65	17269
2026-01-03 11:56:53.93	215.83	4.20	-51.5	-64.7	3.8	1.49e+00	0	47	104	0	65	16741
2026-01-03 11:56:54.92	215.91	4.26	-51.4	-64.1	3.8	1.49e+00	0	47	104	0	65	15694
2026-01-03 11:56:55.91	215.99	4.32	-51.4	-63.5	3.8	1.49e+00	0	47	104	0	65	14700
2026-01-03 11:56:56.90	216.08	4.38	-51.3	-62.8	3.8	1.48e+00	0	47	104	0	65	13569
2026-01-03 11:56:57.90	216.16	4.43	-51.2	-62.1	4.1	1.44e+00	0	47	0	0	65	12448
2026-01-03 11:56:58.89	216.24	4.49	-51.1	-61.5	4.3	1.38e+00	0	47	0	0	65	11554
2026-01-03 11:56:59.88	216.32	4.55	-51.0	-61.0	4.4	1.29e+00	57	47	0	1048576	65	10955
2026-01-03 11:57:00.87	216.41	4.61	-51.0	-60.5	4.6	9.62e-01	0	47	0	3145728	65	10326
2026-01-03 11:57:01.86	216.49	4.66	-51.0	-60.2	4.8	8.70e-01	0	47	0	4194304	65	9955
2026-01-03 11:57:02.86	216.57	4.72	-51.0	-60.0	4.9	7.87e-01	0	48	0	6291456	65	9735
2026-01-03 11:57:03.85	216.66	4.78	-50.9	-59.5	5.1	6.75e-01	0	48	0	8388608	64	9809
2026-01-03 11:57:04.83	216.74	4.84	-50.8	-59.0	5.5	5.39e-01	0	47	0	10485760	64	9239
2026-01-03 11:57:05.82	216.83	4.90	-50.7	-58.4	5.9	4.36e-01	0	48	0	12582912	64	8609
2026-01-03 11:57:06.81	216.91	4.96	-50.6	-57.7	6.5	3.09e-01	0	48	0	13631488	64	7916
2026-01-03 11:57:07.80	217.00	5.01	-50.4	-56.9	7.2	1.57e-01	0	48	0	15728640	64	7236
2026-01-03 11:57:08.79	217.08	5.07	-50.5	-56.7	7.4	1.16e-01	0	48	0	17825792	63	7503
2026-01-03 11:57:09.78	217.17	5.13	-50.6	-57.0	7.1	1.26e-01	0	48	0	19922944	63	7742
2026-01-03 11:57:10.77	217.25	5.19	-50.5	-56.7	7.4	1.39e-01	0	48	0	20971520	63	7532
2026-01-03 11:57:11.76	217.34	5.25	-50.4	-56.5	7.7	9.63e-02	0	48	0	23068672	63	7294
2026-01-03 11:57:12.75	217.43	5.31	-50.3	-55.9	8.2	6.24e-02	0	48	0	25165824	63	6823
2026-01-03 11:57:13.74	217.52	5.37	-50.1	-55.4	8.8	4.42e-02	0	48	0	27262976	63	6424
2026-01-03 11:57:14.73	217.60	5.42	-50.0	-55.2	8.9	2.91e-02	0	48	0	28311552	63	6316
2026-01-03 11:57:15.71	217.69	5.48	-50.0	-55.2	8.9	2.42e-02	0	48	0	30408704	63	6336
2026-01-03 11:57:16.70	217.78	5.54	-50.1	-55.4	8.8	2.93e-02	0	48	0	32505856	63	6463
2026-01-03 11:57:17.68	217.87	5.60	-50.1	-55.4	8.7	3.71e-02	0	48	0	34603008	63	6472
2026-01-03 11:57:18.67	217.96	5.66	-50.0	-55.0	9.2	2.95e-02	0	48	0	36700160	63	6163
2026-01-03 11:57:19.66	218.04	5.72	-49.9	-54.7	9.5	1.65e-02	0	48	0	37748736	62	6331
2026-01-03 11:57:20.65	218.13	5.78	-50.0	-54.7	9.6	1.29e-02	0	49	0	39845888	62	6290
2026-01-03 11:57:21.64	218.22	5.84	-49.9	-54.6	9.6	1.37e-02	0	49	0	41943040	62	6254
2026-01-03 11:57:22.63	218.31	5.90	-49.9	-54.8	9.4	1.43e-02	0	49	0	44040192	62	6362
2026-01-03 11:57:23.62	218.41	5.96	-49.9	-54.8	9.4	1.49e-02	0	49	0	45088768	62	6395
2026-01-03 11:57:24.62	218.50	6.02	-50.1	-55.0	9.2	1.64e-02	0	49	0	47185920	62	6537
2026-01-03 11:57:25.61	218.59	6.08	-50.0	-55.0	9.3	2.34e-02	0	49	0	49283072	62	6532
2026-01-03 11:57:26.61	218.68	6.14	-49.9	-54.5	9.7	1.15e-02	0	49	0	51380224	62	6177
2026-01-03 11:57:27.59	218.77	6.20	-49.8	-54.2	10.0	8.60e-03	0	49	0	52428800	62	5956
2026-01-03 11:57:28.58	218.87	6.26	-49.7	-53.9	10.4	5.31e-03	0	49	0	54525952	62	5739
2026-01-03 11:57:29.56	218.96	6.32	-49.6	-53.8	10.6	3.90e-03	0	49	0	56623104	62	5662
2026-01-03 11:57:30.55	219.05	6.38	-49.6	-53.8	10.5	3.75e-03	0	49	0	58720256	62	5673
2026-01-03 11:57:31.54	219.14	6.44	-49.7	-54.0	10.3	4.81e-03	0	49	0	59768832	62	5832
2026-01-03 11:57:32.53	219.24	6.50	-49.7	-54.1	10.2	6.54e-03	0	49	0	61865984	62	5860
2026-01-03 11:57:33.52	219.33	6.56	-49.6	-53.7	10.6	4.79e-03	0	49	0	63963136	62	5650
2026-01-03 11:57:34.51	219.43	6.62	-49.5	-53.7	10.7	3.09e-03	0	49	0	66060288	62	5593
2026-01-03 11:57:35.50	219.52	6.68	-49.6	-53.7	10.7	3.30e-03	0	49	0	68157440	62	5625
2026-01-03 11:57:36.49	219.62	6.74	-49.6	-53.9	10.5	3.47e-03	0	49	0	69206016	62	5754
2026-01-03 11:57:37.49	219.71	6.80	-49.7	-53.9	10.5	4.28e-03	0	49	0	71303168	62	5749
2026-01-03 11:57:38.48	219.81	6.86	-49.7	-53.9	10.5	4.23e-03	0	49	0	73400320	62	5743
2026-01-03 11:57:39.47	219.91	6.92	-49.8	-54.1	10.3	4.95e-03	0	50	0	75497472	62	5869
2026-01-03 11:57:40.46	220.00	6.98	-49.7	-54.1	10.3	6.32e-03	0	50	0	76546048	62	5862
2026-01-03 11:57:41.45	220.10	7.04	-49.7	-54.1	10.3	5.44e-03	0	50	0	78643200	62	5870
2026-01-03 11:57:42.44	220.20	7.11	-49.8	-54.2	10.1	7.04e-03	0	50	0	80740352	62	5954
2026-01-03 11:57:43.43	220.30	7.17	-49.7	-54.1	10.2	6.01e-03	0	50	0	82837504	62	5878
2026-01-03 11:57:44.41	220.40	7.23	-49.7	-54.1	10.2	7.29e-03	0	50	0	84934656	62	5903
2026-01-03 11:57:45.40	220.49	7.29	-49.7	-54.0	10.3	5.59e-03	0	50	0	85983232	62	5806
2026-01-03 11:57:46.39	220.59	7.35	-49.7	-54.0	10.4	4.16e-03	0	50	0	88080384	62	5813
2026-01-03 11:57:47.37	220.69	7.41	-49.8	-54.1	10.2	5.20e-03	0	50	0	90177536	62	5901
2026-01-03 11:57:48.36	220.79	7.47	-49.7	-54.1	10.2	6.38e-03	0	50	0	92274688	62	5866
2026-01-03 11:57:49.35	220.89	7.53	-49.7	-53.9	10.4	4.67e-03	0	50	0	93323264	62	5776
2026-01-03 11:57:50.34	220.99	7.60	-49.7	-53.9	10.5	3.49e-03	0	50	0	95420416	62	5746
2026-01-03 11:57:51.33	221.10	7.66	-49.6	-53.8	10.6	3.77e-03	0	50	0	97517568	62	5710
2026-01-03 11:57:52.32	221.20	7.72	-49.5	-53.7	10.7	2.98e-03	0	50	0	99614720	62	5603
2026-01-03 11:57:53.31	221.30	7.78	-49.5	-53.6	10.8	2.26e-03	0	50	0	100663296	62	5554
2026-01-03 11:57:54.30	221.40	7.84	-49.6	-53.8	10.7	2.63e-03	0	50	0	102760448	62	5666
2026-01-03 11:57:55.29	221.51	7.91	-49.6	-53.8	10.5	3.86e-03	0	50	0	104857600	62	5700
2026-01-03 11:57:56.28	221.61	7.97	-49.6	-53.6	10.8	2.72e-03	0	50	0	106954752	62	5537
2026-01-03 11:57:57.28	221.71	8.03	-49.4	-53.3	11.1	1.99e-03	0	50	0	109051904	61	5716
2026-01-03 11:57:58.27	221.82	8.09	-49.4	-53.3	11.0	1.76e-03	0	50	0	110100480	61	5716
2026-01-03 11:57:59.26	221.92	8.16	-49.5	-53.5	10.8	2.13e-03	0	51	0	112197632	61	5828
2026-01-03 11:58:00.25	222.03	8.22	-49.5	-53.6	10.8	2.43e-03	0	51	0	114294784	61	5856
2026-01-03 11:58:01.25	222.13	8.28	-49.6	-53.8	10.5	3.33e-03	0	50	0	116391936	61	6028
2026-01-03 11:58:02.23	222.24	8.34	-49.5	-53.5	10.8	3.01e-03	0	51	0	117440512	61	5851
2026-01-03 11:58:03.23	222.35	8.41	-49.5	-53.5	10.8	2.61e-03	0	51	0	119537664	61	5855
2026-01-03 11:58:04.21	222.45	8.47	-49.5	-53.7	10.7	2.74e-03	0	51	0	121634816	61	5935
2026-01-03 11:58:05.20	222.56	8.53	-49.6	-53.9	10.4	3.83e-03	0	51	0	123731968	61	6106
2026-01-03 11:58:06.18	222.67	8.59	-49.6	-53.9	10.4	4.77e-03	0	51	0	124780544	61	6076
2026-01-03 11:58:07.17	222.78	8.66	-49.5	-53.8	10.5	4.68e-03	0	51	0	126877696	61	6021
2026-01-03 11:58:08.17	222.89	8.72	-49.6	-54.0	10.3	5.16e-03	0	51	0	128974848	61	6159
2026-01-03 11:58:09.16	222.99	8.78	-49.6	-53.9	10.4	4.71e-03	0	51	0	131072000	61	6108
2026-01-03 11:58:10.15	223.10	8.85	-49.6	-54.0	10.3	4.80e-03	0	51	0	133169152	61	6151
2026-01-03 11:58:11.13	223.21	8.91	-49.6	-54.2	10.0	6.75e-03	0	51	0	134217728	61	6319
2026-01-03 11:58:12.12	223.32	8.97	-49.7	-54.1	10.2	5.95e-03	0	51	0	136314880	61	6226
2026-01-03 11:58:13.11	223.43	9.04	-49.7	-54.1	10.2	5.34e-03	0	51	0	138412032	61	6209
2026-01-03 11:58:14.11	223.55	9.10	-49.8	-54.0	10.3	5.18e-03	0	51	0	140509184	61	6184
2026-01-03 11:58:15.10	223.66	9.16	-49.7	-54.1	10.2	5.48e-03	0	51	0	141557760	61	6223
2026-01-03 11:58:16.10	223.77	9.23	-49.7	-54.1	10.2	6.22e-03	0	51	0	143654912	61	6244
2026-01-03 11:58:17.09	223.89	9.29	-49.8	-54.2	10.0	7.73e-03	0	51	0	145752064	61	6339
2026-01-03 11:58:18.08	224.00	9.36	-49.7	-54.1	10.2	6.94e-03	0	51	0	147849216	61	6246
2026-01-03 11:58:19.08	224.11	9.42	-49.8	-54.4	9.9	7.94e-03	0	51	0	149946368	61	6428
2026-01-03 11:58:20.07	224.23	9.48	-49.7	-54.1	10.3	6.80e-03	0	51	0	150994944	61	6214
2026-01-03 11:58:21.06	224.34	9.55	-49.6	-53.8	10.5	4.63e-03	0	51	0	153092096	61	6059
2026-01-03 11:58:22.04	224.46	9.61	-49.6	-53.7	10.6	3.92e-03	0	51	0	155189248	61	5988
2026-01-03 11:58:23.03	224.57	9.67	-49.5	-53.7	10.7	3.19e-03	0	51	0	157286400	61	5928
2026-01-03 11:58:24.02	224.69	9.74	-49.5	-53.6	10.8	2.95e-03	0	51	0	158334976	61	5862
2026-01-03 11:58:25.01	224.81	9.80	-49.5	-53.5	10.9	2.30e-03	0	52	0	160432128	61	5830
2026-01-03 11:58:26.00	224.92	9.87	-49.4	-53.4	11.0	2.04e-03	0	52	0	162529280	61	5762
2026-01-03 11:58:26.99	225.04	9.93	-49.5	-53.4	11.0	1.75e-03	0	51	0	164626432	61	5741
2026-01-03 11:58:27.98	225.16	10.00	-49.5	-53.3	11.1	1.58e-03	0	52	0	165675008	61	5677
2026-01-03 11:58:28.97	225.28	10.06	-49.4	-53.3	11.1	1.40e-03	0	52	0	167772160	61	5696
2026-01-03 11:58:29.96	225.40	10.13	-49.4	-53.2	11.2	1.41e-03	0	51	0	169869312	61	5646
2026-01-03 11:58:30.95	225.52	10.19	-49.4	-53.2	11.3	1.28e-03	0	52	0	171966464	61	5625
2026-01-03 11:58:31.94	225.64	10.25	-49.4	-53.3	11.2	1.44e-03	0	52	0	173015040	61	5672
2026-01-03 11:58:32.94	225.76	10.32	-49.4	-53.5	11.0	1.63e-03	0	52	0	175112192	61	5807
2026-01-03 11:58:33.92	225.88	10.38	-49.4	-53.2	11.2	1.55e-03	0	52	0	177209344	61	5651
2026-01-03 11:58:34.91	226.00	10.45	-49.2	-53.0	11.5	1.01e-03	0	52	0	179306496	61	5496
2026-01-03 11:58:35.90	226.12	10.51	-49.2	-52.7	11.8	6.42e-04	0	52	0	181403648	61	5335
2026-01-03 11:58:36.88	226.24	10.58	-49.2	-52.6	11.9	4.75e-04	0	52	0	182452224	61	5267
2026-01-03 11:58:37.87	226.37	10.64	-49.2	-52.7	11.8	4.36e-04	0	52	0	184549376	61	5293
2026-01-03 11:58:38.85	226.49	10.71	-49.2	-52.6	12.0	3.48e-04	0	52	0	186646528	61	5220
2026-01-03 11:58:39.84	226.62	10.77	-49.1	-52.5	12.1	2.84e-04	0	52	0	188743680	61	5166
2026-01-03 11:58:40.82	226.74	10.84	-49.0	-52.4	12.2	2.48e-04	0	52	0	189792256	61	5109
2026-01-03 11:58:41.82	226.87	10.90	-49.0	-52.3	12.3	2.20e-04	0	52	0	191889408	61	5077
2026-01-03 11:58:42.81	226.99	10.97	-48.9	-52.2	12.4	1.69e-04	0	52	0	193986560	60	5319
2026-01-03 11:58:43.79	227.12	11.03	-49.0	-52.2	12.4	1.56e-04	0	52	0	196083712	60	5326
2026-01-03 11:58:44.78	227.24	11.10	-49.1	-52.4	12.2	1.88e-04	0	52	0	197132288	60	5407
2026-01-03 11:58:45.78	227.37	11.16	-49.0	-52.3	12.3	1.85e-04	0	52	0	199229440	60	5360
2026-01-03 11:58:46.76	227.50	11.23	-48.8	-52.1	12.6	1.01e-04	0	52	0	201326592	60	5223
2026-01-03 11:58:47.76	227.63	11.29	-48.9	-52.2	12.5	1.07e-04	0	52	0	203423744	60	5291
2026-01-03 11:58:48.75	227.76	11.36	-48.8	-52.1	12.6	1.08e-04	0	52	0	205520896	60	5220
2026-01-03 11:58:49.74	227.89	11.43	-48.9	-52.1	12.6	8.54e-05	0	52	0	206569472	60	5220
2026-01-03 11:58:50.73	228.02	11.49	-48.9	-52.0	12.6	1.02e-04	0	52	0	208666624	60	5197
2026-01-03 11:58:51.72	228.15	11.56	-48.9	-52.0	12.6	8.92e-05	0	52	0	210763776	60	5174
2026-01-03 11:58:52.71	228.28	11.62	-48.8	-51.9	12.7	8.08e-05	0	52	0	212860928	60	5153
2026-01-03 11:58:53.69	228.41	11.69	-48.8	-51.8	12.8	7.47e-05	0	52	0	213909504	60	5099
2026-01-03 11:58:54.68	228.55	11.75	-48.9	-51.9	12.7	4.95e-05	0	52	0	216006656	60	5148
2026-01-03 11:58:55.67	228.68	11.82	-48.9	-52.1	12.5	1.04e-04	0	52	0	218103808	60	5231
2026-01-03 11:58:56.67	228.81	11.89	-48.9	-52.0	12.6	1.08e-04	0	52	0	220200960	60	5195
2026-01-03 11:58:57.66	228.95	11.95	-48.6	-51.7	13.0	6.17e-05	0	52	0	222298112	60	4987
2026-01-03 11:58:58.65	229.08	12.02	-48.6	-51.5	13.1	3.43e-05	0	53	0	223346688	60	4918
2026-01-03 11:58:59.64	229.22	12.08	-48.7	-51.6	13.1	3.20e-05	0	53	0	225443840	60	4966
2026-01-03 11:59:00.63	229.36	12.15	-48.7	-51.7	13.0	2.82e-05	0	53	0	227540992	60	5011
2026-01-03 11:59:01.62	229.49	12.22	-48.7	-51.6	13.1	4.04e-05	0	53	0	229638144	60	4970
2026-01-03 11:59:02.61	229.63	12.28	-48.5	-51.4	13.3	2.21e-05	0	53	0	230686720	60	4828
2026-01-03 11:59:03.60	229.77	12.35	-48.5	-51.2	13.5	1.60e-05	0	53	0	232783872	60	4756
2026-01-03 11:59:04.59	229.91	12.42	-48.4	-51.2	13.5	9.90e-06	0	53	0	234881024	60	4723
2026-01-03 11:59:05.59	230.05	12.48	-48.5	-51.2	13.6	1.14e-05	0	53	0	236978176	59	4999
2026-01-03 11:59:06.58	230.19	12.55	-48.5	-51.1	13.6	6.80e-06	0	53	0	238026752	59	4957
2026-01-03 11:59:07.56	230.32	12.61	-48.5	-51.1	13.6	5.30e-06	0	53	0	240123904	59	4964
2026-01-03 11:59:08.55	230.47	12.68	-48.5	-51.1	13.7	9.10e-06	0	53	0	242221056	59	4927
2026-01-03 11:59:09.54	230.61	12.75	-48.2	-50.8	14.0	7.00e-07	0	53	0	244318208	59	4787
2026-01-03 11:59:10.53	230.75	12.81	-48.3	-50.8	14.0	4.50e-06	0	53	0	246415360	59	4772
2026-01-03 11:59:11.51	230.89	12.88	-48.3	-50.7	14.1	1.50e-06	0	53	0	247463936	59	4727
2026-01-03 11:59:12.51	231.04	12.95	-48.2	-50.7	14.1	3.00e-06	0	53	0	249561088	59	4750
2026-01-03 11:59:13.50	231.18	13.01	-48.4	-50.9	13.9	7.00e-07	0	53	0	251658240	59	4854
2026-01-03 11:59:14.49	231.32	13.08	-48.4	-51.0	13.9	1.50e-06	0	53	0	253755392	59	4905
2026-01-03 11:59:15.48	231.47	13.15	-48.5	-51.1	13.8	6.80e-06	0	53	0	254803968	59	4978
2026-01-03 11:59:16.48	231.62	13.21	-48.4	-51.1	13.8	9.10e-06	0	53	0	256901120	59	4945
2026-01-03 11:59:17.47	231.76	13.28	-48.3	-50.9	14.1	2.20e-06	0	53	0	258998272	59	4835
2026-01-03 11:59:18.46	231.91	13.35	-48.3	-50.7	14.2	7.00e-07	0	53	0	261095424	59	4750
2026-01-03 11:59:19.45	232.06	13.41	-48.3	-50.8	14.2	7.00e-07	0	53	0	262144000	59	4767
2026-01-03 11:59:20.43	232.21	13.48	-48.4	-50.8	14.1	0.00e+00	0	53	0	264241152	59	4796
2026-01-03 11:59:21.43	232.36	13.54	-48.5	-50.9	14.1	7.00e-07	0	53	0	266338304	59	4838
2026-01-03 11:59:22.42	232.51	13.61	-48.2	-50.6	14.4	7.00e-07	0	53	0	268435456	59	4653
2026-01-03 11:59:23.41	232.66	13.68	-48.2	-50.4	14.6	0.00e+00	0	53	0	270532608	59	4574
2026-01-03 11:59:24.40	232.81	13.74	-48.1	-50.3	14.7	0.00e+00	0	53	0	271581184	59	4533
2026-01-03 11:59:25.40	232.96	13.81	-48.1	-50.4	14.6	0.00e+00	0	53	0	273678336	59	4577
2026-01-03 11:59:26.38	233.11	13.88	-48.2	-50.6	14.4	0.00e+00	0	53	0	275775488	59	4676
2026-01-03 11:59:27.38	233.27	13.94	-48.2	-50.6	14.4	7.00e-07	0	53	0	277872640	59	4677
2026-01-03 11:59:28.37	233.42	14.01	-48.3	-50.7	14.4	7.00e-07	0	53	0	278921216	59	4710
2026-01-03 11:59:29.35	233.57	14.08	-48.1	-50.4	14.7	7.00e-07	0	53	0	281018368	59	4569
2026-01-03 11:59:30.34	233.73	14.14	-48.0	-50.3	14.8	0.00e+00	0	53	0	283115520	59	4500
2026-01-03 11:59:31.33	233.88	14.21	-48.0	-50.2	14.9	0.00e+00	0	53	0	285212672	59	4471
2026-01-03 11:59:32.31	234.04	14.28	-48.0	-50.3	14.8	0.00e+00	0	53	0	286261248	59	4524
2026-01-03 11:59:33.30	234.20	14.34	-48.2	-50.4	14.6	0.00e+00	0	53	0	288358400	59	4598
2026-01-03 11:59:34.29	234.35	14.41	-48.0	-50.2	14.9	7.00e-07	0	53	0	290455552	59	4451
2026-01-03 11:59:35.27	234.51	14.47	-47.9	-50.1	15.0	0.00e+00	0	53	0	292552704	59	4414
2026-01-03 11:59:36.26	234.67	14.54	-48.0	-50.1	15.0	7.00e-07	0	54	0	294649856	58	4676
2026-01-03 11:59:37.26	234.83	14.61	-48.0	-50.2	14.9	0.00e+00	0	53	0	295698432	58	4709
2026-01-03 11:59:38.25	234.99	14.67	-48.1	-50.3	14.8	0.00e+00	0	54	0	297795584	58	4770
2026-01-03 11:59:39.23	235.15	14.74	-48.0	-50.2	15.0	7.00e-07	0	53	0	299892736	58	4720
2026-01-03 11:59:40.22	235.31	14.81	-48.1	-50.3	14.8	0.00e+00	0	54	0	301989888	58	4801
2026-01-03 11:59:41.21	235.48	14.87	-48.2	-50.4	14.7	0.00e+00	0	54	0	303038464	58	4868
2026-01-03 11:59:42.20	235.64	14.94	-48.0	-50.1	15.0	0.00e+00	0	54	0	305135616	58	4694
2026-01-03 11:59:43.19	235.80	15.00	-47.9	-50.1	15.1	0.00e+00	0	53	0	307232768	58	4665
2026-01-03 11:59:44.18	235.97	15.07	-47.9	-50.0	15.1	0.00e+00	0	54	0	309329920	58	4650
2026-01-03 11:59:45.17	236.13	15.14	-47.8	-49.9	15.2	0.00e+00	0	54	0	310378496	58	4595
2026-01-03 11:59:46.15	236.30	15.20	-47.9	-50.0	15.2	0.00e+00	0	54	0	312475648	58	4644
2026-01-03 11:59:47.15	236.47	15.27	-48.1	-50.2	15.0	0.00e+00	0	54	0	314572800	58	4749
2026-01-03 11:59:48.13	236.63	15.33	-47.9	-50.0	15.2	0.00e+00	0	54	0	316669952	58	4618
2026-01-03 11:59:49.13	236.80	15.40	-47.8	-49.9	15.3	0.00e+00	0	54	0	318767104	58	4570
2026-01-03 11:59:50.12	236.97	15.47	-47.9	-50.0	15.2	0.00e+00	0	54	0	319815680	58	4628
2026-01-03 11:59:51.11	237.14	15.53	-48.1	-50.3	14.9	0.00e+00	0	54	0	321912832	58	4770
2026-01-03 11:59:52.10	237.31	15.60	-48.1	-50.2	15.0	0.00e+00	0	54	0	324009984	58	4746
2026-01-03 11:59:53.09	237.48	15.66	-48.1	-50.3	14.9	0.00e+00	0	54	0	326107136	58	4798
2026-01-03 11:59:54.08	237.66	15.73	-48.1	-50.4	14.9	0.00e+00	0	54	0	327155712	58	4819
2026-01-03 11:59:55.07	237.83	15.80	-48.2	-50.5	14.8	0.00e+00	0	54	0	329252864	58	4892
2026-01-03 11:59:56.07	238.00	15.86	-48.2	-50.3	15.0	0.00e+00	0	54	0	331350016	58	4770
2026-01-03 11:59:57.06	238.18	15.93	-48.1	-50.2	15.1	0.00e+00	0	54	0	333447168	58	4733
2026-01-03 11:59:58.05	238.35	15.99	-48.1	-50.3	15.0	0.00e+00	0	54	0	335544320	58	4794
2026-01-03 11:59:59.04	238.53	16.06	-48.4	-50.7	14.6	0.00e+00	0	54	0	336592896	58	5011
2026-01-03 12:00:00.03	238.70	16.12	-48.1	-50.3	15.0	0.00e+00	0	54	0	338690048	58	4769
2026-01-03 12:00:01.02	238.88	16.19	-48.0	-50.0	15.3	0.00e+00	0	54	0	340787200	58	4617
2026-01-03 12:00:02.01	239.06	16.25	-47.8	-49.9	15.5	0.00e+00	0	54	0	342884352	58	4546
2026-01-03 12:00:02.99	239.24	16.32	-47.9	-49.9	15.4	0.00e+00	0	54	0	343932928	58	4596
2026-01-03 12:00:03.98	239.41	16.38	-48.1	-50.2	15.1	0.00e+00	0	54	0	346030080	58	4724
2026-01-03 12:00:04.97	239.59	16.45	-47.8	-49.9	15.4	0.00e+00	0	54	0	348127232	58	4572
2026-01-03 12:00:05.97	239.78	16.51	-47.9	-50.0	15.4	0.00e+00	0	54	0	350224384	58	4604
2026-01-03 12:00:06.96	239.96	16.58	-47.9	-50.0	15.3	0.00e+00	0	54	0	351272960	58	4638
2026-01-03 12:00:07.95	240.14	16.64	-48.1	-50.3	15.1	0.00e+00	0	54	0	353370112	58	4770
2026-01-03 12:00:08.94	240.32	16.71	-47.9	-50.0	15.4	0.00e+00	0	54	0	355467264	58	4601
2026-01-03 12:00:09.93	240.51	16.77	-47.9	-49.9	15.5	7.00e-07	0	54	0	357564416	58	4550
2026-01-03 12:00:10.91	240.69	16.83	-48.0	-50.0	15.3	0.00e+00	0	54	0	359661568	58	4643
2026-01-03 12:00:11.90	240.88	16.90	-47.9	-49.9	15.5	0.00e+00	0	54	0	360710144	58	4586
2026-01-03 12:00:12.90	241.06	16.96	-47.8	-49.8	15.5	0.00e+00	0	54	0	362807296	58	4513
2026-01-03 12:00:13.89	241.25	17.03	-47.8	-49.8	15.6	0.00e+00	0	54	0	364904448	58	4517
2026-01-03 12:00:14.88	241.44	17.09	-47.7	-49.7	15.7	0.00e+00	0	54	0	367001600	58	4443
2026-01-03 12:00:15.87	241.63	17.15	-47.7	-49.6	15.8	0.00e+00	0	54	0	368050176	58	4421
2026-01-03 12:00:16.86	241.82	17.22	-47.7	-49.7	15.7	7.00e-07	0	54	0	370147328	58	4469
2026-01-03 12:00:17.86	242.01	17.28	-47.6	-49.5	15.9	0.00e+00	0	54	0	372244480	58	4358
2026-01-03 12:00:18.86	242.20	17.35	-47.7	-49.6	15.8	0.00e+00	0	54	0	374341632	58	4432
2026-01-03 12:00:19.85	242.39	17.41	-47.9	-49.9	15.5	0.00e+00	0	54	0	376438784	58	4577
2026-01-03 12:00:20.84	242.59	17.47	-47.7	-49.6	15.8	0.00e+00	0	54	0	377487360	58	4416
2026-01-03 12:00:21.83	242.78	17.53	-47.4	-49.3	16.1	0.00e+00	0	54	0	379584512	58	4243
2026-01-03 12:00:22.82	242.97	17.60	-47.3	-49.1	16.3	0.00e+00	0	54	0	381681664	57	4398
2026-01-03 12:00:23.81	243.17	17.66	-47.1	-48.9	16.5	0.00e+00	0	54	0	383778816	57	4321
2026-01-03 12:00:24.80	243.36	17.72	-47.2	-48.9	16.5	0.00e+00	0	54	0	384827392	57	4317
2026-01-03 12:00:25.80	243.56	17.78	-47.1	-48.9	16.5	0.00e+00	0	54	0	386924544	57	4302
2026-01-03 12:00:26.78	243.76	17.84	-47.1	-48.7	16.6	0.00e+00	0	54	0	389021696	57	4238
2026-01-03 12:00:27.78	243.96	17.91	-47.0	-48.7	16.6	0.00e+00	0	54	0	391118848	57	4225
2026-01-03 12:00:28.76	244.15	17.97	-47.1	-48.9	16.5	0.00e+00	0	55	0	392167424	57	4299
2026-01-03 12:00:29.74	244.35	18.03	-47.0	-48.7	16.7	0.00e+00	0	55	0	394264576	57	4214
2026-01-03 12:00:30.73	244.55	18.09	-47.0	-48.6	16.8	0.00e+00	0	55	0	396361728	57	4165
2026-01-03 12:00:31.72	244.75	18.15	-47.0	-48.7	16.7	0.00e+00	0	54	0	398458880	57	4215
2026-01-03 12:00:32.71	244.95	18.21	-47.1	-48.7	16.6	0.00e+00	0	54	0	399507456	57	4234
2026-01-03 12:00:33.71	245.16	18.27	-47.2	-48.8	16.6	0.00e+00	0	54	0	401604608	57	4273
2026-01-03 12:00:34.69	245.36	18.33	-47.3	-49.0	16.4	0.00e+00	0	54	0	403701760	57	4345
2026-01-03 12:00:35.68	245.56	18.39	-47.3	-49.0	16.4	0.00e+00	0	55	0	405798912	57	4381
2026-01-03 12:00:36.67	245.77	18.45	-47.3	-49.1	16.3	0.00e+00	0	55	0	407896064	57	4393
2026-01-03 12:00:37.66	245.97	18.51	-47.5	-49.4	16.0	0.00e+00	0	55	0	408944640	57	4547
2026-01-03 12:00:38.65	246.18	18.57	-47.4	-49.3	16.1	0.00e+00	0	55	0	411041792	57	4502
2026-01-03 12:00:39.64	246.39	18.63	-47.4	-49.2	16.2	0.00e+00	0	54	0	413138944	57	4447
2026-01-03 12:00:40.63	246.59	18.69	-47.4	-49.3	16.1	0.00e+00	0	55	0	415236096	57	4515
2026-01-03 12:00:41.61	246.80	18.75	-47.8	-49.7	15.7	0.00e+00	0	55	0	416284672	57	4748
2026-01-03 12:00:42.60	247.01	18.81	-47.9	-49.8	15.6	0.00e+00	0	54	0	418381824	57	4777
2026-01-03 12:00:43.60	247.22	18.87	-47.7	-49.7	15.7	0.00e+00	0	55	0	420478976	57	4712
2026-01-03 12:00:44.58	247.43	18.93	-47.8	-49.7	15.6	0.00e+00	0	55	0	422576128	57	4751
2026-01-03 12:00:45.58	247.65	18.98	-47.9	-49.8	15.6	0.00e+00	0	55	0	423624704	57	4809
2026-01-03 12:00:46.57	247.86	19.04	-48.0	-50.0	15.4	0.00e+00	0	55	0	425721856	57	4909
2026-01-03 12:00:47.56	248.07	19.10	-48.0	-50.1	15.3	0.00e+00	0	55	0	427819008	57	4935
2026-01-03 12:00:48.55	248.29	19.16	-48.0	-50.1	15.3	0.00e+00	0	55	0	429916160	57	4948
2026-01-03 12:00:49.53	248.50	19.21	-48.2	-50.4	15.1	0.00e+00	0	55	0	432013312	58	4822
2026-01-03 12:00:50.52	248.72	19.27	-48.3	-50.4	15.0	0.00e+00	0	55	0	433061888	58	4846
2026-01-03 12:00:51.52	248.93	19.33	-48.1	-50.2	15.2	0.00e+00	0	55	0	435159040	58	4740
2026-01-03 12:00:52.51	249.15	19.38	-48.1	-50.2	15.2	0.00e+00	0	55	0	437256192	58	4748
2026-01-03 12:00:53.49	249.37	19.44	-48.1	-50.3	15.1	0.00e+00	0	55	0	439353344	58	4764
2026-01-03 12:00:54.48	249.59	19.49	-48.3	-50.4	15.0	0.00e+00	0	55	0	440401920	58	4850
2026-01-03 12:00:55.47	249.81	19.55	-48.4	-50.6	14.9	0.00e+00	0	55	0	442499072	58	4934
2026-01-03 12:00:56.45	250.02	19.60	-48.5	-50.8	14.6	0.00e+00	0	55	0	444596224	58	5060
2026-01-03 12:00:57.45	250.25	19.66	-48.6	-50.9	14.5	0.00e+00	0	55	0	446693376	59	4860
2026-01-03 12:00:58.44	250.47	19.71	-48.9	-51.4	14.0	0.00e+00	0	55	0	447741952	59	5103
2026-01-03 12:00:59.42	250.69	19.77	-49.0	-51.6	13.8	2.20e-06	0	55	0	449839104	59	5248
2026-01-03 12:01:00.42	250.92	19.82	-49.1	-51.7	13.7	2.20e-06	0	55	0	451936256	60	5030
2026-01-03 12:01:01.40	251.14	19.87	-49.2	-52.0	13.4	1.37e-05	0	55	0	454033408	60	5166
2026-01-03 12:01:02.39	251.36	19.93	-49.1	-51.7	13.6	7.60e-06	0	55	0	456130560	60	5041
2026-01-03 12:01:03.38	251.59	19.98	-49.0	-51.7	13.7	6.10e-06	0	55	0	457179136	60	5027
2026-01-03 12:01:04.38	251.82	20.03	-49.2	-51.8	13.6	8.30e-06	0	55	0	459276288	60	5096
2026-01-03 12:01:05.36	252.04	20.09	-49.0	-51.7	13.7	1.98e-05	0	55	0	461373440	60	4991
2026-01-03 12:01:06.35	252.27	20.14	-48.9	-51.4	14.0	4.50e-06	0	55	0	463470592	60	4843
2026-01-03 12:01:07.34	252.50	20.19	-48.8	-51.3	14.1	2.20e-06	0	55	0	464519168	60	4776
2026-01-03 12:01:08.33	252.73	20.24	-48.8	-51.3	14.2	2.20e-06	0	55	0	466616320	60	4762
2026-01-03 12:01:09.33	252.96	20.29	-48.7	-51.3	14.1	1.50e-06	0	55	0	468713472	60	4768
2026-01-03 12:01:10.32	253.19	20.34	-48.8	-51.3	14.1	1.50e-06	0	55	0	470810624	60	4786
2026-01-03 12:01:11.30	253.42	20.39	-48.8	-51.4	13.9	4.50e-06	0	55	0	472907776	60	4870
2026-01-03 12:01:12.29	253.66	20.44	-48.9	-51.3	14.1	2.20e-06	0	55	0	473956352	60	4800
2026-01-03 12:01:13.28	253.89	20.49	-49.0	-51.5	13.9	3.00e-06	0	55	0	476053504	60	4914
2026-01-03 12:01:14.27	254.12	20.54	-48.8	-51.2	14.2	3.80e-06	0	55	0	478150656	60	4755
2026-01-03 12:01:15.26	254.36	20.59	-48.7	-51.1	14.3	7.00e-07	0	55	0	480247808	60	4699
2026-01-03 12:01:16.26	254.59	20.64	-48.6	-51.0	14.4	7.00e-07	0	55	0	481296384	60	4628
2026-01-03 12:01:17.25	254.83	20.69	-48.5	-50.9	14.5	7.00e-07	0	55	0	483393536	60	4576
2026-01-03 12:01:18.24	255.07	20.73	-48.4	-50.7	14.8	7.00e-07	0	55	0	485490688	59	4712
2026-01-03 12:01:19.23	255.31	20.78	-48.4	-50.6	14.9	7.00e-07	0	55	0	487587840	59	4674
2026-01-03 12:01:20.22	255.54	20.83	-48.3	-50.5	14.9	0.00e+00	0	55	0	488636416	59	4630
2026-01-03 12:01:21.21	255.78	20.87	-48.0	-50.0	15.4	0.00e+00	0	55	0	490733568	59	4390
2026-01-03 12:01:22.20	256.02	20.92	-47.8	-49.7	15.7	0.00e+00	0	55	0	492830720	58	4481
2026-01-03 12:01:23.19	256.26	20.96	-47.8	-49.7	15.7	0.00e+00	0	55	0	494927872	58	4487
2026-01-03 12:01:24.17	256.50	21.01	-48.0	-49.9	15.5	0.00e+00	0	55	0	495976448	58	4592
2026-01-03 12:01:25.16	256.74	21.05	-48.1	-50.2	15.3	0.00e+00	0	55	0	498073600	58	4714
2026-01-03 12:01:26.16	256.99	21.10	-48.3	-50.5	15.0	0.00e+00	0	55	0	500170752	58	4906
2026-01-03 12:01:27.15	257.23	21.14	-48.4	-50.6	14.8	0.00e+00	0	55	0	502267904	58	4969
2026-01-03 12:01:28.14	257.47	21.19	-48.5	-50.8	14.6	0.00e+00	0	55	0	504365056	58	5088
2026-01-03 12:01:29.13	257.72	21.23	-48.5	-50.7	14.8	0.00e+00	0	55	0	505413632	58	5004
2026-01-03 12:01:30.10	257.96	21.27	-48.5	-50.7	14.7	0.00e+00	0	55	0	507510784	58	5007
2026-01-03 12:01:31.09	258.20	21.31	-48.5	-50.7	14.7	0.00e+00	0	55	0	509607936	58	5034
2026-01-03 12:01:32.08	258.45	21.35	-48.5	-50.7	14.7	7.00e-07	0	55	0	511705088	58	5040
2026-01-03 12:01:33.07	258.70	21.39	-48.6	-50.8	14.6	0.00e+00	0	55	0	512753664	58	5093
2026-01-03 12:01:34.07	258.95	21.44	-48.7	-51.0	14.4	7.00e-07	0	55	0	514850816	59	4907
2026-01-03 12:01:35.06	259.20	21.48	-48.5	-50.8	14.7	0.00e+00	0	55	0	516947968	59	4783
2026-01-03 12:01:36.05	259.45	21.51	-48.3	-50.5	14.9	0.00e+00	0	55	0	519045120	59	4644
2026-01-03 12:01:37.04	259.69	21.55	-48.3	-50.5	15.0	0.00e+00	0	55	0	520093696	59	4617
2026-01-03 12:01:38.03	259.94	21.59	-48.4	-50.6	14.8	0.00e+00	0	55	0	522190848	59	4682
2026-01-03 12:01:39.02	260.20	21.63	-48.6	-51.0	14.5	0.00e+00	0	55	0	524288000	59	4871
2026-01-03 12:01:40.02	260.45	21.67	-48.5	-50.7	14.7	7.00e-07	0	55	0	526385152	59	4753
2026-01-03 12:01:41.01	260.70	21.71	-48.4	-50.6	14.9	0.00e+00	0	55	0	528482304	59	4680
2026-01-03 12:01:42.00	260.95	21.74	-48.4	-50.6	14.9	0.00e+00	0	55	0	529530880	59	4667
2026-01-03 12:01:42.99	261.21	21.78	-48.3	-50.4	15.0	0.00e+00	0	56	0	531628032	59	4591
2026-01-03 12:01:43.99	261.46	21.81	-48.3	-50.4	15.1	0.00e+00	0	55	0	533725184	59	4562
2026-01-03 12:01:44.98	261.72	21.85	-48.3	-50.4	15.0	0.00e+00	0	55	0	535822336	59	4587
2026-01-03 12:01:45.97	261.97	21.88	-48.4	-50.6	14.9	0.00e+00	0	56	0	536870912	59	4678
2026-01-03 12:01:46.96	262.23	21.92	-48.2	-50.2	15.2	0.00e+00	0	55	0	538968064	59	4493
2026-01-03 12:01:47.95	262.48	21.95	-48.0	-50.0	15.4	0.00e+00	0	56	0	541065216	59	4386
2026-01-03 12:01:48.94	262.74	21.99	-47.9	-49.8	15.6	0.00e+00	0	56	0	543162368	58	4542
2026-01-03 12:01:49.94	263.00	22.02	-47.9	-49.8	15.6	0.00e+00	0	55	0	545259520	58	4530
2026-01-03 12:01:50.93	263.26	22.05	-48.0	-49.9	15.6	0.00e+00	0	55	0	546308096	58	4577
2026-01-03 12:01:51.91	263.51	22.08	-47.8	-49.7	15.8	0.00e+00	0	55	0	548405248	58	4466
2026-01-03 12:01:52.91	263.77	22.11	-47.9	-49.9	15.6	0.00e+00	0	56	0	550502400	58	4547
2026-01-03 12:01:53.90	264.03	22.14	-47.8	-49.7	15.8	0.00e+00	0	56	0	552599552	58	4474
2026-01-03 12:01:54.89	264.29	22.17	-47.7	-49.6	15.9	0.00e+00	0	56	0	553648128	58	4410
2026-01-03 12:01:55.88	264.55	22.20	-47.7	-49.6	15.9	0.00e+00	0	55	0	555745280	58	4407
2026-01-03 12:01:56.86	264.81	22.23	-47.6	-49.6	15.9	0.00e+00	0	56	0	557842432	58	4392
2026-01-03 12:01:57.85	265.07	22.26	-47.8	-49.7	15.7	0.00e+00	0	56	0	559939584	58	4483
2026-01-03 12:01:58.85	265.33	22.29	-48.0	-50.1	15.4	0.00e+00	0	56	0	560988160	58	4656
2026-01-03 12:01:59.85	265.60	22.31	-47.9	-49.9	15.5	0.00e+00	0	56	0	563085312	58	4594
2026-01-03 12:02:00.83	265.86	22.34	-47.9	-50.0	15.5	0.00e+00	0	55	0	565182464	58	4601
2026-01-03 12:02:01.82	266.12	22.36	-48.0	-50.1	15.4	0.00e+00	0	56	0	567279616	58	4665
2026-01-03 12:02:02.82	266.38	22.39	-48.2	-50.4	15.1	0.00e+00	0	56	0	569376768	58	4823
2026-01-03 12:02:03.81	266.65	22.41	-48.2	-50.3	15.2	0.00e+00	0	56	0	570425344	58	4773
2026-01-03 12:02:04.80	266.91	22.44	-48.3	-50.5	14.9	0.00e+00	0	56	0	572522496	58	4903
2026-01-03 12:02:05.78	267.17	22.46	-48.3	-50.4	15.0	0.00e+00	0	56	0	574619648	58	4856
2026-01-03 12:02:06.77	267.44	22.48	-48.2	-50.3	15.1	0.00e+00	0	55	0	576716800	58	4808
2026-01-03 12:02:07.75	267.70	22.51	-48.1	-50.2	15.3	0.00e+00	0	56	0	577765376	58	4727
2026-01-03 12:02:08.74	267.96	22.53	-48.3	-50.3	15.2	0.00e+00	0	56	0	579862528	58	4807
2026-01-03 12:02:09.73	268.23	22.55	-48.3	-50.4	15.1	0.00e+00	0	56	0	581959680	58	4842
2026-01-03 12:02:10.73	268.50	22.57	-48.3	-50.5	15.0	0.00e+00	0	56	0	584056832	58	4905
2026-01-03 12:02:11.71	268.76	22.59	-48.3	-50.6	14.9	0.00e+00	0	56	0	586153984	58	4929
2026-01-03 12:02:12.70	269.03	22.61	-48.4	-50.7	14.8	0.00e+00	0	56	0	587202560	58	5007
2026-01-03 12:02:13.69	269.30	22.63	-48.4	-50.6	14.8	0.00e+00	0	56	0	589299712	58	4973
2026-01-03 12:02:14.68	269.56	22.65	-48.3	-50.5	14.9	0.00e+00	0	56	0	591396864	58	4909
2026-01-03 12:02:15.67	269.83	22.66	-48.3	-50.4	15.1	0.00e+00	0	56	0	593494016	58	4847
2026-01-03 12:02:16.66	270.10	22.68	-48.2	-50.3	15.1	0.00e+00	0	56	0	594542592	58	4808
2026-01-03 12:02:17.66	270.37	22.70	-48.2	-50.4	15.1	0.00e+00	0	56	0	596639744	58	4829
2026-01-03 12:02:18.64	270.63	22.71	-48.3	-50.4	15.1	0.00e+00	0	56	0	598736896	58	4870
2026-01-03 12:02:19.63	270.90	22.73	-48.3	-50.6	14.9	0.00e+00	0	56	0	600834048	58	4939
2026-01-03 12:02:20.62	271.17	22.74	-48.3	-50.5	15.0	0.00e+00	0	56	0	601882624	58	4887
2026-01-03 12:02:21.61	271.44	22.75	-48.1	-50.1	15.4	0.00e+00	0	56	0	603979776	58	4688
2026-01-03 12:02:22.60	271.71	22.77	-47.9	-49.9	15.5	0.00e+00	0	56	0	606076928	58	4592
2026-01-03 12:02:23.60	271.98	22.78	-47.8	-49.8	15.7	0.00e+00	0	55	0	608174080	58	4521
2026-01-03 12:02:24.59	272.25	22.79	-47.9	-49.9	15.6	0.00e+00	0	56	0	610271232	58	4547
2026-01-03 12:02:25.58	272.52	22.80	-48.0	-50.0	15.5	0.00e+00	0	56	0	611319808	58	4611
2026-01-03 12:02:26.58	272.79	22.81	-48.0	-49.9	15.5	0.00e+00	0	56	0	613416960	58	4596
2026-01-03 12:02:27.57	273.06	22.82	-48.0	-50.0	15.5	0.00e+00	0	56	0	615514112	58	4636
2026-01-03 12:02:28.55	273.33	22.83	-48.2	-50.2	15.2	0.00e+00	0	56	0	617611264	58	4753
2026-01-03 12:02:29.54	273.60	22.84	-48.1	-50.2	15.3	0.00e+00	0	56	0	618659840	58	4715
2026-01-03 12:02:30.53	273.87	22.85	-48.2	-50.3	15.2	0.00e+00	0	56	0	620756992	58	4775
2026-01-03 12:02:31.52	274.14	22.85	-48.1	-50.2	15.3	0.00e+00	0	56	0	622854144	58	4736
2026-01-03 12:02:32.52	274.42	22.86	-48.0	-50.0	15.5	0.00e+00	0	56	0	624951296	58	4639
2026-01-03 12:02:33.51	274.69	22.87	-47.9	-49.9	15.6	0.00e+00	0	56	0	627048448	58	4566
2026-01-03 12:02:34.50	274.96	22.87	-47.8	-49.7	15.8	0.00e+00	0	56	0	628097024	58	4488
2026-01-03 12:02:35.49	275.23	22.88	-47.6	-49.4	16.1	0.00e+00	0	56	0	630194176	58	4333
2026-01-03 12:02:36.49	275.50	22.88	-47.5	-49.5	16.0	0.00e+00	0	56	0	632291328	58	4342
2026-01-03 12:02:37.48	275.78	22.88	-47.7	-49.6	16.0	0.00e+00	0	56	0	634388480	58	4399
2026-01-03 12:02:38.47	276.05	22.89	-47.9	-49.9	15.6	0.00e+00	0	56	0	635437056	58	4583
2026-01-03 12:02:39.47	276.32	22.89	-48.1	-50.2	15.3	0.00e+00	0	56	0	637534208	58	4739
2026-01-03 12:02:40.46	276.59	22.89	-48.2	-50.4	15.1	0.00e+00	0	56	0	639631360	58	4831
2026-01-03 12:02:41.45	276.86	22.89	-48.3	-50.4	15.0	0.00e+00	0	56	0	641728512	58	4864
2026-01-03 12:02:42.44	277.14	22.89	-48.2	-50.4	15.1	0.00e+00	0	56	0	642777088	58	4838
2026-01-03 12:02:43.43	277.41	22.89	-48.2	-50.3	15.2	7.00e-07	0	56	0	644874240	58	4786
2026-01-03 12:02:44.42	277.68	22.89	-48.2	-50.4	15.1	0.00e+00	0	56	0	646971392	58	4837
2026-01-03 12:02:45.41	277.95	22.89	-48.3	-50.4	15.0	0.00e+00	0	56	0	649068544	58	4865
2026-01-03 12:02:46.40	278.22	22.88	-48.4	-50.7	14.8	7.00e-07	0	56	0	650117120	58	5017
2026-01-03 12:02:47.38	278.49	22.88	-48.5	-50.8	14.7	0.00e+00	0	56	0	652214272	59	4761
2026-01-03 12:02:48.38	278.76	22.88	-48.1	-50.2	15.2	0.00e+00	0	56	0	654311424	59	4488
2026-01-03 12:02:49.37	279.03	22.87	-47.9	-50.0	15.5	0.00e+00	0	56	0	656408576	59	4344
2026-01-03 12:02:50.36	279.30	22.87	-48.0	-50.1	15.4	0.00e+00	0	56	0	658505728	59	4421
2026-01-03 12:02:51.36	279.58	22.86	-48.3	-50.5	15.0	0.00e+00	0	56	0	659554304	59	4604
2026-01-03 12:02:52.35	279.85	22.85	-48.4	-50.7	14.8	0.00e+00	0	56	0	661651456	59	4715
2026-01-03 12:02:53.34	280.12	22.85	-48.6	-51.0	14.5	7.00e-07	0	56	0	663748608	59	4879
2026-01-03 12:02:54.34	280.39	22.84	-48.6	-50.9	14.6	7.00e-07	0	56	0	665845760	59	4839
2026-01-03 12:02:55.33	280.66	22.83	-48.5	-50.8	14.7	7.00e-07	0	56	0	666894336	59	4796
2026-01-03 12:02:56.32	280.93	22.82	-48.4	-50.8	14.7	0.00e+00	0	56	0	668991488	59	4767
2026-01-03 12:02:57.31	281.20	22.81	-48.5	-50.8	14.7	0.00e+00	0	56	0	671088640	59	4805
2026-01-03 12:02:58.30	281.47	22.80	-48.7	-51.1	14.3	7.00e-07	0	56	0	673185792	59	4969
2026-01-03 12:02:59.28	281.74	22.79	-48.6	-50.9	14.5	0.00e+00	0	56	0	675282944	59	4868
2026-01-03 12:03:00.28	282.01	22.78	-48.7	-51.1	14.3	1.50e-06	0	56	0	676331520	59	4970
2026-01-03 12:03:01.27	282.28	22.77	-48.5	-50.9	14.5	7.00e-07	0	56	0	678428672	59	4847
2026-01-03 12:03:02.26	282.55	22.75	-48.3	-50.5	14.9	0.00e+00	0	56	0	680525824	59	4636
2026-01-03 12:03:03.25	282.82	22.74	-48.2	-50.3	15.0	0.00e+00	0	56	0	682622976	59	4541
2026-01-03 12:03:04.24	283.09	22.73	-48.2	-50.3	15.1	7.00e-07	0	56	0	683671552	59	4534
2026-01-03 12:03:05.24	283.36	22.71	-48.2	-50.4	14.9	0.00e+00	0	56	0	685768704	59	4589
2026-01-03 12:03:06.24	283.63	22.70	-48.3	-50.6	14.7	0.00e+00	0	56	0	687865856	59	4673
2026-01-03 12:03:07.23	283.90	22.68	-48.5	-51.0	14.3	7.00e-07	0	56	0	689963008	59	4893
2026-01-03 12:03:08.22	284.16	22.66	-48.7	-51.4	13.8	2.20e-06	0	56	0	692060160	59	5123
2026-01-03 12:03:09.21	284.43	22.65	-49.0	-51.8	13.3	9.10e-06	0	56	0	693108736	59	5369
2026-01-03 12:03:10.20	284.70	22.63	-49.0	-52.0	13.1	1.52e-05	0	56	0	695205888	60	5195
2026-01-03 12:03:11.20	284.97	22.61	-49.1	-52.2	12.9	3.58e-05	0	56	0	697303040	60	5286
2026-01-03 12:03:12.18	285.23	22.59	-49.1	-52.2	12.8	5.11e-05	0	56	0	699400192	60	5301
2026-01-03 12:03:13.18	285.50	22.57	-49.0	-52.0	13.0	4.04e-05	0	56	0	700448768	60	5193
2026-01-03 12:03:14.18	285.77	22.55	-48.9	-51.9	13.1	2.44e-05	0	56	0	702545920	60	5108
2026-01-03 12:03:15.16	286.03	22.53	-48.9	-52.0	13.0	3.50e-05	0	56	0	704643072	60	5183
2026-01-03 12:03:16.16	286.30	22.51	-49.0	-51.9	13.0	3.20e-05	0	56	0	706740224	60	5150
2026-01-03 12:03:17.14	286.56	22.49	-49.1	-52.2	12.8	4.50e-05	0	56	0	707788800	60	5291
2026-01-03 12:03:18.13	286.82	22.46	-48.9	-51.9	13.1	4.50e-05	0	56	0	709885952	60	5115
2026-01-03 12:03:19.12	287.09	22.44	-48.8	-51.7	13.3	1.75e-05	0	56	0	711983104	60	5031
2026-01-03 12:03:20.12	287.35	22.41	-48.7	-51.6	13.4	8.30e-06	0	56	0	714080256	60	4945
2026-01-03 12:03:21.10	287.61	22.39	-48.8	-51.7	13.2	1.90e-05	0	56	0	716177408	60	5031
2026-01-03 12:03:22.09	287.88	22.37	-48.8	-51.8	13.2	2.59e-05	0	56	0	717225984	60	5042
2026-01-03 12:03:23.09	288.14	22.34	-49.2	-52.2	12.7	5.18e-05	0	56	0	719323136	60	5302
2026-01-03 12:03:24.07	288.40	22.31	-49.1	-52.3	12.6	8.23e-05	0	56	0	721420288	60	5378
2026-01-03 12:03:25.06	288.66	22.29	-49.3	-52.7	12.2	1.33e-04	0	56	0	723517440	60	5629
2026-01-03 12:03:26.05	288.92	22.26	-49.2	-52.5	12.3	1.99e-04	0	56	0	724566016	60	5497
2026-01-03 12:03:27.04	289.18	22.23	-49.2	-52.7	12.1	2.30e-04	0	56	0	726663168	60	5612
2026-01-03 12:03:28.03	289.44	22.20	-49.3	-53.0	11.8	3.49e-04	0	56	0	728760320	60	5799
2026-01-03 12:03:29.02	289.70	22.17	-49.6	-53.4	11.3	6.68e-04	0	56	0	730857472	60	6109
2026-01-03 12:03:30.00	289.96	22.14	-49.5	-53.3	11.4	9.99e-04	0	56	0	732954624	61	5682
2026-01-03 12:03:31.00	290.22	22.11	-49.6	-53.8	10.8	1.95e-03	0	56	0	734003200	61	6027
2026-01-03 12:03:31.98	290.47	22.08	-49.6	-53.6	11.1	1.90e-03	0	56	0	736100352	61	5856
2026-01-03 12:03:32.98	290.73	22.05	-49.5	-53.2	11.4	1.27e-03	0	56	0	738197504	61	5654
2026-01-03 12:03:33.97	290.99	22.02	-49.4	-53.0	11.7	7.63e-04	0	56	0	740294656	61	5514
2026-01-03 12:03:34.95	291.25	21.99	-49.2	-52.6	12.2	3.23e-04	0	56	0	741343232	61	5242
2026-01-03 12:03:35.94	291.50	21.95	-49.1	-52.3	12.7	1.47e-04	0	56	0	743440384	61	5055
2026-01-03 12:03:36.93	291.76	21.92	-48.9	-51.8	13.3	4.42e-05	0	56	0	745537536	60	5069
2026-01-03 12:03:37.93	292.01	21.89	-48.8	-51.4	13.7	3.80e-06	0	56	0	747634688	60	4870
2026-01-03 12:03:38.92	292.27	21.85	-48.6	-51.2	14.1	4.50e-06	0	56	0	748683264	60	4736
2026-01-03 12:03:39.91	292.52	21.82	-48.6	-51.2	14.1	7.00e-07	0	56	0	750780416	60	4742
2026-01-03 12:03:40.91	292.78	21.78	-48.2	-50.5	14.8	0.00e+00	0	56	0	752877568	59	4629
2026-01-03 12:03:41.89	293.03	21.75	-48.2	-50.3	15.1	0.00e+00	0	56	0	754974720	59	4539
2026-01-03 12:03:42.88	293.28	21.71	-48.1	-50.3	15.1	0.00e+00	0	56	0	757071872	59	4539
2026-01-03 12:03:43.88	293.53	21.67	-47.8	-49.8	15.6	0.00e+00	0	56	0	758120448	58	4532
2026-01-03 12:03:44.87	293.78	21.63	-47.5	-49.4	16.0	0.00e+00	0	56	0	760217600	58	4308
2026-01-03 12:03:45.86	294.03	21.60	-47.3	-49.1	16.3	0.00e+00	0	56	0	762314752	57	4424
2026-01-03 12:03:46.84	294.28	21.56	-47.4	-49.2	16.3	0.00e+00	0	56	0	764411904	57	4456
2026-01-03 12:03:47.83	294.53	21.52	-47.5	-49.3	16.1	0.00e+00	0	56	0	765460480	57	4539
2026-01-03 12:03:48.83	294.78	21.48	-47.4	-49.2	16.1	0.00e+00	0	56	0	767557632	57	4490
2026-01-03 12:03:49.81	295.03	21.44	-47.3	-49.1	16.3	0.00e+00	0	56	0	769654784	57	4430
2026-01-03 12:03:50.80	295.27	21.40	-47.2	-48.9	16.6	0.00e+00	0	56	0	771751936	57	4301
2026-01-03 12:03:51.80	295.52	21.36	-47.1	-48.8	16.6	0.00e+00	0	56	0	772800512	57	4262
2026-01-03 12:03:52.79	295.77	21.32	-47.0	-48.7	16.7	0.00e+00	0	56	0	774897664	57	4214
2026-01-03 12:03:53.78	296.01	21.28	-46.9	-48.6	16.8	0.00e+00	0	56	0	776994816	57	4168
2026-01-03 12:03:54.77	296.26	21.23	-47.0	-48.6	16.8	0.00e+00	0	56	0	779091968	57	4188
2026-01-03 12:03:55.77	296.50	21.19	-46.9	-48.5	16.9	0.00e+00	0	56	0	781189120	57	4124
2026-01-03 12:03:56.75	296.74	21.15	-46.8	-48.4	17.0	0.00e+00	0	56	0	782237696	56	4328
2026-01-03 12:03:57.74	296.99	21.10	-46.7	-48.3	17.1	0.00e+00	0	56	0	784334848	56	4287
2026-01-03 12:03:58.74	297.23	21.06	-46.8	-48.4	17.1	0.00e+00	0	56	0	786432000	56	4294
2026-01-03 12:03:59.73	297.47	21.02	-46.5	-48.0	17.4	0.00e+00	0	56	0	788529152	56	4133
2026-01-03 12:04:00.73	297.71	20.97	-46.4	-47.9	17.5	0.00e+00	0	56	0	789577728	56	4072
2026-01-03 12:04:01.72	297.95	20.92	-46.5	-48.1	17.4	0.00e+00	0	56	0	791674880	56	4148
2026-01-03 12:04:02.71	298.19	20.88	-46.4	-47.9	17.5	0.00e+00	0	56	0	793772032	56	4066
2026-01-03 12:04:03.70	298.43	20.83	-46.2	-47.6	17.8	0.00e+00	0	56	0	795869184	55	4151
2026-01-03 12:04:04.69	298.67	20.79	-46.1	-47.5	17.8	0.00e+00	0	56	0	796917760	55	4115
2026-01-03 12:04:05.68	298.90	20.74	-46.1	-47.6	17.7	0.00e+00	0	56	0	799014912	55	4147
2026-01-03 12:04:06.66	299.14	20.69	-46.2	-47.6	17.7	0.00e+00	0	56	0	801112064	55	4169
2026-01-03 12:04:07.65	299.37	20.65	-46.3	-47.7	17.7	0.00e+00	0	56	0	803209216	55	4197
2026-01-03 12:04:08.65	299.61	20.60	-46.4	-47.8	17.5	0.00e+00	0	56	0	805306368	55	4263
2026-01-03 12:04:09.64	299.84	20.55	-46.4	-47.9	17.4	0.00e+00	0	56	0	806354944	55	4306
2026-01-03 12:04:10.63	300.08	20.50	-46.6	-48.0	17.3	0.00e+00	0	56	0	808452096	55	4391
2026-01-03 12:04:11.62	300.31	20.45	-46.7	-48.2	17.2	0.00e+00	0	56	0	810549248	55	4443
2026-01-03 12:04:12.60	300.54	20.40	-46.8	-48.4	16.9	0.00e+00	0	56	0	812646400	55	4560
2026-01-03 12:04:13.59	300.77	20.35	-47.0	-48.6	16.7	0.00e+00	0	56	0	813694976	55	4670
2026-01-03 12:04:14.59	301.00	20.30	-47.0	-48.7	16.7	0.00e+00	0	56	0	815792128	55	4707
2026-01-03 12:04:15.57	301.23	20.25	-47.0	-48.7	16.6	0.00e+00	0	56	0	817889280	55	4733
2026-01-03 12:04:16.56	301.46	20.20	-47.0	-48.6	16.7	0.00e+00	0	56	0	819986432	55	4694
2026-01-03 12:04:17.56	301.69	20.15	-46.9	-48.6	16.7	0.00e+00	0	56	0	822083584	55	4677
2026-01-03 12:04:18.55	301.92	20.10	-46.9	-48.6	16.7	0.00e+00	0	57	0	823132160	55	4696
2026-01-03 12:04:19.54	302.14	20.04	-47.0	-48.7	16.6	0.00e+00	0	56	0	825229312	55	4733
2026-01-03 12:04:20.53	302.37	19.99	-47.0	-48.6	16.7	0.00e+00	0	56	0	827326464	55	4684
2026-01-03 12:04:21.52	302.60	19.94	-46.9	-48.5	16.8	0.00e+00	0	56	0	829423616	55	4630
2026-01-03 12:04:22.51	302.82	19.89	-46.8	-48.4	16.9	0.00e+00	0	57	0	830472192	55	4593
2026-01-03 12:04:23.50	303.04	19.83	-46.7	-48.3	17.0	0.00e+00	0	56	0	832569344	55	4506
2026-01-03 12:04:24.49	303.27	19.78	-46.8	-48.4	16.9	0.00e+00	0	56	0	834666496	55	4561
2026-01-03 12:04:25.48	303.49	19.73	-46.9	-48.6	16.7	0.00e+00	0	56	0	836763648	55	4652
2026-01-03 12:04:26.48	303.71	19.67	-47.1	-48.8	16.5	0.00e+00	0	56	0	837812224	55	4808
2026-01-03 12:04:27.47	303.93	19.62	-47.4	-49.4	16.1	0.00e+00	0	56	0	839909376	56	4818
2026-01-03 12:04:28.45	304.15	19.56	-47.7	-49.7	15.7	0.00e+00	0	56	0	842006528	57	4757
2026-01-03 12:04:29.43	304.37	19.51	-48.0	-50.1	15.3	0.00e+00	0	56	0	844103680	57	4956
2026-01-03 12:04:30.42	304.58	19.45	-48.2	-50.3	15.2	0.00e+00	0	56	0	846200832	58	4763
2026-01-03 12:04:31.41	304.80	19.40	-48.3	-50.4	15.0	0.00e+00	0	57	0	847249408	58	4851
2026-01-03 12:04:32.40	305.02	19.34	-48.2	-50.3	15.1	0.00e+00	0	57	0	849346560	58	4806
2026-01-03 12:04:33.39	305.23	19.29	-48.2	-50.3	15.0	0.00e+00	0	56	0	851443712	58	4810
2026-01-03 12:04:34.39	305.45	19.23	-48.3	-50.5	14.9	7.00e-07	0	57	0	853540864	58	4873
2026-01-03 12:04:35.38	305.67	19.17	-48.2	-50.5	14.9	7.00e-07	0	56	0	854589440	58	4904
2026-01-03 12:04:36.37	305.88	19.11	-48.3	-50.6	14.8	0.00e+00	0	57	0	856686592	58	4945
2026-01-03 12:04:37.37	306.09	19.06	-48.3	-50.6	14.8	0.00e+00	0	57	0	858783744	58	4967
2026-01-03 12:04:38.35	306.30	19.00	-48.2	-50.4	15.0	0.00e+00	0	56	0	860880896	58	4816
2026-01-03 12:04:39.33	306.51	18.94	-48.0	-50.2	15.3	0.00e+00	0	57	0	861929472	58	4716
2026-01-03 12:04:40.32	306.72	18.88	-48.0	-50.0	15.4	0.00e+00	0	57	0	864026624	58	4643
2026-01-03 12:04:41.31	306.93	18.83	-47.9	-49.9	15.4	0.00e+00	0	56	0	866123776	58	4598
2026-01-03 12:04:42.31	307.14	18.77	-47.7	-49.7	15.7	0.00e+00	0	56	0	868220928	58	4450
2026-01-03 12:04:43.30	307.35	18.71	-47.5	-49.4	16.0	0.00e+00	0	57	0	870318080	58	4328
2026-01-03 12:04:44.29	307.56	18.65	-47.6	-49.4	16.0	0.00e+00	0	57	0	871366656	58	4331
2026-01-03 12:04:45.28	307.77	18.59	-47.6	-49.6	15.9	0.00e+00	0	57	0	873463808	58	4401
2026-01-03 12:04:46.27	307.97	18.53	-47.8	-49.8	15.6	0.00e+00	0	57	0	875560960	58	4540
2026-01-03 12:04:47.26	308.18	18.47	-47.8	-49.9	15.5	0.00e+00	0	57	0	877658112	58	4556
2026-01-03 12:04:48.25	308.38	18.41	-48.1	-50.2	15.2	0.00e+00	0	57	0	878706688	58	4720
2026-01-03 12:04:49.24	308.58	18.35	-48.3	-50.5	14.9	0.00e+00	0	57	0	880803840	58	4900
2026-01-03 12:04:50.23	308.79	18.29	-48.2	-50.5	14.9	0.00e+00	0	56	0	882900992	58	4878
2026-01-03 12:04:51.21	308.99	18.23	-48.3	-50.5	14.8	0.00e+00	0	57	0	884998144	58	4920
2026-01-03 12:04:52.20	309.19	18.17	-48.3	-50.6	14.8	0.00e+00	0	56	0	886046720	58	4962
2026-01-03 12:04:53.19	309.39	18.11	-48.5	-50.9	14.5	7.00e-07	0	57	0	888143872	58	5101
2026-01-03 12:04:54.17	309.59	18.05	-48.3	-50.6	14.8	0.00e+00	0	57	0	890241024	58	4979
2026-01-03 12:04:55.16	309.78	17.99	-48.5	-50.9	14.5	0.00e+00	0	57	0	892338176	58	5105
2026-01-03 12:04:56.15	309.98	17.93	-48.6	-51.0	14.3	1.50e-06	0	57	0	893386752	59	4912
2026-01-03 12:04:57.13	310.18	17.87	-48.1	-50.3	15.0	0.00e+00	0	57	0	895483904	59	4528
2026-01-03 12:04:58.12	310.37	17.81	-47.8	-49.8	15.6	0.00e+00	0	57	0	897581056	58	4525
2026-01-03 12:04:59.11	310.57	17.75	-47.5	-49.5	15.9	0.00e+00	0	56	0	899678208	58	4341
2026-01-03 12:05:00.10	310.76	17.68	-47.4	-49.3	16.1	0.00e+00	0	56	0	901775360	58	4258
2026-01-03 12:05:01.09	310.96	17.62	-47.6	-49.4	16.0	0.00e+00	0	57	0	902823936	58	4324
2026-01-03 12:05:02.07	311.15	17.56	-47.6	-49.4	16.0	0.00e+00	0	57	0	904921088	58	4334
2026-01-03 12:05:03.07	311.34	17.50	-47.6	-49.5	15.9	0.00e+00	0	57	0	907018240	58	4348
2026-01-03 12:05:04.06	311.54	17.44	-47.7	-49.5	15.9	0.00e+00	0	56	0	909115392	58	4374
2026-01-03 12:05:05.06	311.73	17.37	-47.8	-49.7	15.6	0.00e+00	0	56	0	911212544	58	4491
2026-01-03 12:05:06.05	311.92	17.31	-47.6	-49.5	15.9	0.00e+00	0	56	0	912261120	58	4383
2026-01-03 12:05:07.03	312.11	17.25	-47.6	-49.4	16.0	0.00e+00	0	56	0	914358272	58	4328
2026-01-03 12:05:08.02	312.29	17.18	-47.7	-49.6	15.8	0.00e+00	0	56	0	916455424	58	4412
2026-01-03 12:05:09.01	312.48	17.12	-47.5	-49.4	16.0	0.00e+00	0	56	0	918552576	58	4309
2026-01-03 12:05:10.01	312.67	17.06	-47.7	-49.6	15.8	0.00e+00	0	56	0	919601152	58	4403
2026-01-03 12:05:10.99	312.86	16.99	-47.9	-49.9	15.4	0.00e+00	0	57	0	921698304	58	4594
2026-01-03 12:05:11.98	313.04	16.93	-47.8	-49.9	15.5	0.00e+00	0	57	0	923795456	58	4556
2026-01-03 12:05:12.97	313.23	16.87	-48.1	-50.3	15.1	0.00e+00	0	57	0	925892608	58	4794
2026-01-03 12:05:13.96	313.41	16.80	-48.1	-50.2	15.1	0.00e+00	0	57	0	926941184	58	4754
2026-01-03 12:05:14.95	313.59	16.74	-48.2	-50.4	15.0	0.00e+00	0	57	0	929038336	58	4860
2026-01-03 12:05:15.94	313.78	16.68	-48.3	-50.6	14.8	0.00e+00	0	57	0	931135488	58	4939
2026-01-03 12:05:16.93	313.96	16.61	-48.1	-50.3	15.1	0.00e+00	0	57	0	933232640	58	4773
2026-01-03 12:05:17.92	314.14	16.55	-48.1	-50.3	15.1	7.00e-07	0	57	0	934281216	58	4803
2026-01-03 12:05:18.91	314.32	16.48	-48.1	-50.3	15.0	0.00e+00	0	57	0	936378368	58	4804
2026-01-03 12:05:19.90	314.50	16.42	-48.2	-50.4	15.0	0.00e+00	0	57	0	938475520	58	4816
2026-01-03 12:05:20.89	314.68	16.35	-48.2	-50.4	15.0	0.00e+00	0	57	0	940572672	58	4843
2026-01-03 12:05:21.89	314.86	16.29	-48.2	-50.4	15.0	0.00e+00	0	57	0	942669824	58	4849
2026-01-03 12:05:22.88	315.03	16.22	-48.4	-50.7	14.6	1.50e-06	0	56	0	943718400	58	5014
2026-01-03 12:05:23.87	315.21	16.16	-48.1	-50.3	15.1	0.00e+00	0	57	0	945815552	58	4789
2026-01-03 12:05:24.87	315.39	16.09	-47.9	-49.9	15.4	0.00e+00	0	57	0	947912704	58	4590
2026-01-03 12:05:25.87	315.57	16.03	-47.7	-49.6	15.8	0.00e+00	0	57	0	950009856	58	4428
2026-01-03 12:05:26.86	315.74	15.96	-47.5	-49.4	15.9	0.00e+00	0	57	0	951058432	58	4330
2026-01-03 12:05:27.84	315.91	15.90	-47.6	-49.5	15.8	0.00e+00	0	57	0	953155584	58	4391
2026-01-03 12:05:28.83	316.08	15.83	-47.6	-49.4	15.9	0.00e+00	0	57	0	955252736	58	4339
2026-01-03 12:05:29.82	316.26	15.77	-47.7	-49.6	15.8	0.00e+00	0	57	0	957349888	58	4431
2026-01-03 12:05:30.81	316.43	15.70	-47.9	-49.9	15.5	0.00e+00	0	56	0	959447040	58	4567
2026-01-03 12:05:31.79	316.60	15.64	-48.1	-50.2	15.2	0.00e+00	0	57	0	960495616	58	4723
2026-01-03 12:05:32.79	316.77	15.57	-48.2	-50.4	15.0	0.00e+00	0	57	0	962592768	58	4838
2026-01-03 12:05:33.78	316.94	15.51	-48.1	-50.4	15.0	0.00e+00	0	57	0	964689920	58	4828
2026-01-03 12:05:34.77	317.11	15.44	-48.1	-50.3	15.1	0.00e+00	0	57	0	966787072	58	4763
2026-01-03 12:05:35.77	317.28	15.38	-48.0	-50.1	15.2	0.00e+00	0	57	0	967835648	58	4681
2026-01-03 12:05:36.75	317.44	15.31	-47.9	-50.0	15.4	0.00e+00	0	57	0	969932800	58	4599
2026-01-03 12:05:37.75	317.61	15.25	-47.9	-49.9	15.4	0.00e+00	0	57	0	972029952	58	4587
2026-01-03 12:05:38.74	317.77	15.18	-47.8	-49.8	15.6	0.00e+00	0	57	0	974127104	58	4512
2026-01-03 12:05:39.73	317.94	15.11	-47.7	-49.7	15.6	0.00e+00	0	57	0	975175680	58	4463
2026-01-03 12:05:40.71	318.10	15.05	-47.9	-50.0	15.4	0.00e+00	0	57	0	977272832	58	4602
2026-01-03 12:05:41.71	318.27	14.98	-48.0	-50.2	15.1	0.00e+00	0	57	0	979369984	58	4706
2026-01-03 12:05:42.69	318.43	14.92	-48.2	-50.4	14.9	0.00e+00	0	57	0	981467136	58	4835
2026-01-03 12:05:43.68	318.59	14.85	-48.3	-50.6	14.8	0.00e+00	0	56	0	983564288	58	4940
2026-01-03 12:05:44.67	318.75	14.79	-48.3	-50.6	14.7	7.00e-07	0	57	0	984612864	58	4966
2026-01-03 12:05:45.67	318.91	14.72	-48.2	-50.4	14.9	0.00e+00	0	57	0	986710016	58	4841
2026-01-03 12:05:46.66	319.08	14.65	-48.0	-50.1	15.2	0.00e+00	0	57	0	988807168	58	4673
2026-01-03 12:05:47.65	319.23	14.59	-47.8	-49.8	15.5	0.00e+00	0	57	0	990904320	58	4525
2026-01-03 12:05:48.63	319.39	14.52	-47.7	-49.7	15.6	0.00e+00	0	57	0	991952896	58	4475
2026-01-03 12:05:49.63	319.55	14.46	-47.6	-49.5	15.8	0.00e+00	0	57	0	994050048	58	4378
2026-01-03 12:05:50.62	319.71	14.39	-47.5	-49.4	15.9	0.00e+00	0	57	0	996147200	58	4320
2026-01-03 12:05:51.61	319.87	14.32	-47.6	-49.5	15.8	0.00e+00	0	57	0	998244352	58	4364
2026-01-03 12:05:52.59	320.02	14.26	-47.8	-49.9	15.5	0.00e+00	0	56	0	999292928	58	4549
2026-01-03 12:05:53.59	320.18	14.19	-48.0	-50.2	15.1	0.00e+00	0	57	0	1001390080	58	4727
2026-01-03 12:05:54.58	320.33	14.13	-48.2	-50.4	14.9	0.00e+00	0	57	0	1003487232	58	4839
2026-01-03 12:05:55.57	320.49	14.06	-48.3	-50.6	14.7	0.00e+00	0	57	0	1005584384	58	4951
2026-01-03 12:05:56.57	320.64	13.99	-48.3	-50.6	14.7	0.00e+00	0	57	0	1007681536	58	4978
2026-01-03 12:05:57.56	320.79	13.93	-48.4	-50.8	14.5	0.00e+00	0	57	0	1008730112	58	5080
2026-01-03 12:05:58.55	320.94	13.86	-48.4	-50.8	14.5	7.00e-07	0	57	0	1010827264	58	5057
2026-01-03 12:05:59.54	321.10	13.80	-48.3	-50.6	14.6	0.00e+00	0	57	0	1012924416	58	4958
2026-01-03 12:06:00.54	321.25	13.73	-48.4	-50.7	14.6	7.00e-07	0	57	0	1015021568	58	5022
2026-01-03 12:06:01.53	321.40	13.66	-48.3	-50.6	14.6	0.00e+00	0	57	0	1016070144	58	4972
2026-01-03 12:06:02.52	321.55	13.60	-48.2	-50.4	14.9	0.00e+00	0	57	0	1018167296	58	4861
2026-01-03 12:06:03.51	321.70	13.53	-48.3	-50.7	14.6	0.00e+00	0	57	0	1020264448	58	4991
2026-01-03 12:06:04.50	321.84	13.47	-48.4	-50.8	14.5	1.50e-06	0	57	0	1022361600	58	5057
2026-01-03 12:06:05.49	321.99	13.40	-48.6	-51.1	14.1	7.00e-07	0	57	0	1024458752	59	4976
2026-01-03 12:06:06.47	322.14	13.33	-48.8	-51.4	13.9	6.10e-06	0	57	0	1025507328	59	5120
2026-01-03 12:06:07.47	322.29	13.27	-48.6	-51.1	14.2	1.50e-06	0	57	0	1027604480	59	4946
2026-01-03 12:06:08.46	322.43	13.20	-48.4	-50.8	14.5	7.00e-07	0	57	0	1029701632	59	4765
2026-01-03 12:06:09.44	322.57	13.14	-48.2	-50.5	14.7	0.00e+00	0	57	0	1031798784	59	4638
2026-01-03 12:06:10.43	322.72	13.07	-48.0	-50.2	15.0	0.00e+00	0	57	0	1032847360	59	4486
2026-01-03 12:06:11.41	322.86	13.00	-48.1	-50.2	15.0	0.00e+00	0	57	0	1034944512	59	4493
2026-01-03 12:06:12.40	323.00	12.94	-48.0	-50.1	15.1	7.00e-07	0	57	0	1037041664	59	4425
2026-01-03 12:06:13.39	323.15	12.87	-47.9	-49.9	15.3	0.00e+00	0	57	0	1039138816	58	4591
2026-01-03 12:06:14.38	323.29	12.81	-47.9	-50.0	15.3	0.00e+00	0	57	0	1040187392	58	4625
2026-01-03 12:06:15.38	323.43	12.74	-47.9	-50.1	15.2	0.00e+00	0	57	0	1042284544	58	4675
2026-01-03 12:06:16.37	323.57	12.67	-48.2	-50.4	14.9	0.00e+00	0	57	0	1044381696	58	4832
2026-01-03 12:06:17.36	323.71	12.61	-48.2	-50.5	14.8	0.00e+00	0	57	0	1046478848	58	4903
2026-01-03 12:06:18.35	323.85	12.54	-48.4	-50.8	14.4	0.00e+00	0	57	0	1047527424	58	5095
2026-01-03 12:06:19.34	323.99	12.48	-48.6	-51.0	14.3	1.50e-06	0	57	0	1049624576	58	5174
2026-01-03 12:06:20.33	324.13	12.41	-48.6	-51.1	14.1	1.50e-06	0	57	0	1051721728	59	4955
2026-01-03 12:06:21.32	324.27	12.35	-48.5	-50.9	14.3	3.00e-06	0	57	0	1053818880	59	4856
2026-01-03 12:06:22.31	324.40	12.28	-48.4	-50.8	14.4	0.00e+00	0	57	0	1055916032	59	4778
2026-01-03 12:06:23.31	324.54	12.21	-48.3	-50.7	14.5	7.00e-07	0	57	0	1056964608	59	4753
2026-01-03 12:06:24.30	324.68	12.15	-48.4	-50.8	14.4	7.00e-07	0	57	0	1059061760	59	4806
2026-01-03 12:06:25.29	324.81	12.08	-48.5	-50.9	14.3	7.00e-07	0	57	0	1061158912	59	4838
2026-01-03 12:06:26.28	324.95	12.02	-48.5	-51.0	14.2	1.50e-06	0	57	0	1063256064	59	4901
2026-01-03 12:06:27.27	325.08	11.95	-48.6	-51.1	14.1	7.00e-07	0	57	0	1064304640	59	4964
2026-01-03 12:06:28.26	325.21	11.89	-48.8	-51.4	13.8	1.50e-06	0	57	0	1066401792	59	5122
2026-01-03 12:06:29.24	325.35	11.82	-48.7	-51.4	13.8	2.20e-06	0	57	0	1068498944	59	5136
2026-01-03 12:06:30.22	325.48	11.76	-48.7	-51.3	13.8	5.30e-06	0	57	0	1070596096	59	5087
2026-01-03 12:06:31.21	325.61	11.69	-48.6	-51.3	13.9	3.80e-06	0	57	0	1072693248	59	5082
2026-01-03 12:06:32.21	325.74	11.63	-48.7	-51.4	13.7	7.60e-06	0	57	0	1073741824	59	5124
2026-01-03 12:06:33.20	325.87	11.56	-48.5	-51.2	14.0	3.00e-06	0	57	0	1075838976	59	4989
2026-01-03 12:06:34.19	326.00	11.50	-48.5	-51.0	14.2	2.20e-06	0	57	0	1077936128	59	4872
2026-01-03 12:06:35.18	326.13	11.43	-48.4	-50.9	14.3	7.00e-07	0	57	0	1080033280	59	4827
2026-01-03 12:06:36.17	326.26	11.37	-48.5	-50.9	14.2	3.00e-06	0	57	0	1081081856	59	4852
2026-01-03 12:06:37.17	326.39	11.30	-48.6	-51.0	14.1	7.00e-07	0	57	0	1083179008	59	4919
2026-01-03 12:06:38.15	326.52	11.24	-48.6	-51.2	13.9	2.20e-06	0	57	0	1085276160	59	5027
2026-01-03 12:06:39.14	326.65	11.17	-48.6	-51.2	14.0	3.00e-06	0	57	0	1087373312	59	4988
2026-01-03 12:06:40.14	326.77	11.11	-48.7	-51.4	13.8	7.00e-07	0	57	0	1088421888	59	5131
2026-01-03 12:06:41.14	326.90	11.04	-49.0	-51.8	13.4	9.90e-06	0	57	0	1090519040	59	5343
2026-01-03 12:06:42.13	327.03	10.98	-48.9	-51.7	13.5	1.14e-05	0	57	0	1092616192	59	5285
2026-01-03 12:06:43.12	327.15	10.91	-49.1	-52.1	13.0	2.28e-05	0	57	0	1094713344	60	5263
2026-01-03 12:06:44.11	327.28	10.85	-49.1	-52.1	13.0	3.28e-05	0	57	0	1096810496	60	5242
2026-01-03 12:06:45.10	327.40	10.78	-49.4	-52.7	12.4	7.47e-05	0	57	0	1097859072	60	5623
2026-01-03 12:06:46.09	327.53	10.72	-49.2	-52.4	12.7	1.12e-04	0	57	0	1099956224	60	5429
2026-01-03 12:06:47.08	327.65	10.65	-49.4	-52.8	12.2	1.12e-04	0	57	0	1102053376	60	5689
2026-01-03 12:06:48.06	327.77	10.59	-49.3	-52.5	12.6	1.27e-04	0	57	0	1104150528	60	5465
2026-01-03 12:06:49.05	327.89	10.52	-49.1	-52.1	13.0	5.64e-05	0	57	0	1105199104	60	5244
2026-01-03 12:06:50.04	328.01	10.46	-48.9	-51.7	13.4	2.67e-05	0	57	0	1107296256	60	4986
2026-01-03 12:06:51.03	328.14	10.40	-48.8	-51.5	13.6	1.83e-05	0	57	0	1109393408	60	4875
2026-01-03 12:06:52.01	328.25	10.33	-48.5	-51.2	13.9	7.60e-06	0	57	0	1111490560	60	4741
2026-01-03 12:06:53.01	328.38	10.27	-48.6	-51.2	13.8	4.50e-06	0	57	0	1113587712	60	4756
2026-01-03 12:06:53.99	328.49	10.20	-48.5	-51.1	13.9	5.30e-06	0	57	0	1114636288	60	4692
2026-01-03 12:06:54.99	328.61	10.14	-48.5	-51.0	14.1	3.00e-06	0	57	0	1116733440	59	4913
2026-01-03 12:06:55.98	328.73	10.07	-48.4	-50.9	14.2	0.00e+00	0	57	0	1118830592	59	4847
2026-01-03 12:06:56.97	328.85	10.01	-48.6	-51.2	13.9	4.50e-06	0	57	0	1120927744	59	5001
2026-01-03 12:06:57.96	328.97	9.95	-48.5	-51.0	14.1	3.80e-06	0	57	0	1121976320	59	4899
2026-01-03 12:06:58.96	329.09	9.88	-48.4	-50.9	14.2	1.50e-06	0	57	0	1124073472	59	4821
2026-01-03 12:06:59.95	329.20	9.82	-48.5	-51.0	14.1	7.00e-07	0	57	0	1126170624	59	4892
2026-01-03 12:07:00.95	329.32	9.75	-48.5	-51.0	14.0	2.20e-06	0	57	0	1128267776	59	4923
2026-01-03 12:07:01.93	329.44	9.69	-48.6	-51.1	13.9	1.50e-06	0	57	0	1129316352	59	4983
2026-01-03 12:07:02.92	329.55	9.63	-48.6	-51.3	13.8	4.50e-06	0	57	0	1131413504	59	5065
2026-01-03 12:07:03.91	329.67	9.56	-48.6	-51.3	13.8	5.30e-06	0	57	0	1133510656	59	5065
2026-01-03 12:07:04.91	329.78	9.50	-48.8	-51.4	13.6	4.50e-06	0	57	0	1135607808	59	5148
2026-01-03 12:07:05.90	329.89	9.44	-48.7	-51.4	13.6	5.30e-06	0	57	0	1137704960	59	5101
2026-01-03 12:07:06.88	330.01	9.37	-48.7	-51.4	13.6	8.30e-06	0	57	0	1138753536	59	5138
2026-01-03 12:07:07.87	330.12	9.31	-48.9	-51.7	13.3	7.60e-06	0	57	0	1140850688	59	5303
2026-01-03 12:07:08.86	330.23	9.25	-48.8	-51.5	13.4	1.83e-05	0	57	0	1142947840	59	5208
2026-01-03 12:07:09.85	330.34	9.19	-48.8	-51.6	13.4	1.37e-05	0	57	0	1145044992	59	5233
2026-01-03 12:07:10.84	330.46	9.12	-48.9	-51.8	13.2	2.05e-05	0	57	0	1146093568	59	5377
2026-01-03 12:07:11.83	330.57	9.06	-48.9	-51.8	13.2	1.98e-05	0	57	0	1148190720	59	5402
2026-01-03 12:07:12.82	330.68	9.00	-49.0	-52.1	12.8	4.73e-05	0	57	0	1150287872	60	5262
2026-01-03 12:07:13.81	330.79	8.93	-49.0	-52.0	13.0	4.80e-05	0	57	0	1152385024	60	5195
2026-01-03 12:07:14.81	330.90	8.87	-49.0	-52.1	12.9	4.73e-05	0	57	0	1154482176	60	5250
2026-01-03 12:07:15.80	331.01	8.81	-49.1	-52.3	12.6	9.30e-05	0	57	0	1155530752	60	5402
2026-01-03 12:07:16.79	331.12	8.75	-49.0	-52.2	12.7	1.02e-04	0	57	0	1157627904	60	5313
2026-01-03 12:07:17.78	331.22	8.68	-49.1	-52.4	12.5	9.46e-05	0	57	0	1159725056	60	5450
2026-01-03 12:07:18.77	331.33	8.62	-49.0	-52.3	12.6	1.30e-04	0	57	0	1161822208	60	5372
2026-01-03 12:07:19.76	331.44	8.56	-49.0	-52.3	12.6	8.39e-05	0	57	0	1162870784	60	5364
2026-01-03 12:07:20.76	331.55	8.50	-49.1	-52.3	12.7	6.86e-05	0	57	0	1164967936	60	5345
2026-01-03 12:07:21.75	331.65	8.43	-49.2	-52.4	12.5	1.21e-04	0	57	0	1167065088	60	5430
2026-01-03 12:07:22.75	331.76	8.37	-49.1	-52.3	12.6	1.08e-04	0	57	0	1169162240	60	5372
2026-01-03 12:07:23.73	331.87	8.31	-49.0	-52.0	12.8	9.91e-05	0	57	0	1170210816	60	5203
2026-01-03 12:07:24.72	331.97	8.25	-48.9	-51.8	13.1	4.88e-05	0	57	0	1172307968	60	5097
2026-01-03 12:07:25.71	332.08	8.18	-48.9	-51.9	13.0	3.05e-05	0	57	0	1174405120	60	5121
2026-01-03 12:07:26.69	332.18	8.12	-49.0	-52.1	12.8	4.50e-05	0	57	0	1176502272	60	5228
2026-01-03 12:07:27.68	332.28	8.06	-49.0	-52.1	12.7	6.02e-05	0	57	0	1177550848	60	5259
2026-01-03 12:07:28.67	332.39	8.00	-49.1	-52.2	12.6	9.53e-05	0	57	0	1179648000	60	5317
2026-01-03 12:07:29.65	332.49	7.94	-49.2	-52.4	12.4	1.12e-04	0	57	0	1181745152	60	5438
2026-01-03 12:07:30.63	332.59	7.88	-49.2	-52.5	12.4	1.87e-04	0	57	0	1183842304	60	5491
2026-01-03 12:07:31.62	332.69	7.82	-49.3	-52.7	12.1	1.50e-04	0	57	0	1185939456	60	5617
2026-01-03 12:07:32.62	332.80	7.75	-49.1	-52.6	12.3	2.20e-04	0	57	0	1186988032	60	5531
2026-01-03 12:07:33.60	332.90	7.69	-49.3	-52.7	12.1	2.13e-04	0	57	0	1189085184	60	5609
2026-01-03 12:07:34.60	333.00	7.63	-49.4	-52.9	11.9	3.55e-04	0	57	0	1191182336	60	5733
2026-01-03 12:07:35.59	333.10	7.57	-49.3	-52.8	12.0	3.25e-04	0	57	0	1193279488	60	5680
2026-01-03 12:07:36.57	333.20	7.51	-49.4	-53.1	11.7	4.91e-04	0	57	0	1194328064	60	5878
2026-01-03 12:07:37.55	333.30	7.45	-49.5	-53.3	11.5	9.81e-04	0	57	0	1196425216	61	5676
2026-01-03 12:07:38.55	333.40	7.39	-49.4	-53.0	11.7	6.25e-04	0	57	0	1198522368	61	5513
2026-01-03 12:07:39.54	333.50	7.33	-49.5	-53.2	11.5	5.36e-04	0	57	0	1200619520	61	5655
2026-01-03 12:07:40.54	333.60	7.27	-49.5	-53.3	11.5	9.54e-04	0	57	0	1201668096	61	5680
2026-01-03 12:07:41.53	333.69	7.21	-49.6	-53.4	11.3	1.22e-03	0	57	0	1203765248	61	5768
2026-01-03 12:07:42.52	333.79	7.14	-49.6	-53.5	11.1	1.17e-03	0	57	0	1205862400	61	5837
2026-01-03 12:07:43.51	333.89	7.08	-49.6	-53.5	11.2	1.74e-03	0	57	0	1207959552	61	5843
2026-01-03 12:07:44.50	333.99	7.02	-49.6	-53.4	11.3	1.25e-03	0	57	0	1210056704	61	5761
2026-01-03 12:07:45.48	334.08	6.96	-49.6	-53.5	11.2	1.40e-03	0	57	0	1211105280	61	5822
2026-01-03 12:07:46.47	334.18	6.90	-49.7	-53.6	11.1	1.61e-03	0	57	0	1213202432	61	5890
2026-01-03 12:07:47.46	334.28	6.84	-49.7	-53.7	10.9	2.16e-03	0	57	0	1215299584	61	5976
2026-01-03 12:07:48.45	334.37	6.78	-49.6	-53.7	11.0	1.95e-03	0	57	0	1217396736	61	5962
2026-01-03 12:07:49.43	334.47	6.72	-49.7	-53.8	10.8	1.89e-03	0	57	0	1218445312	61	6047
2026-01-03 12:07:50.43	334.56	6.66	-49.9	-54.1	10.5	3.68e-03	0	57	0	1220542464	61	6265
2026-01-03 12:07:51.41	334.65	6.60	-49.7	-53.7	10.9	2.42e-03	0	57	0	1222639616	61	5976
2026-01-03 12:07:52.40	334.75	6.54	-49.7	-53.6	11.0	1.95e-03	0	57	0	1224736768	61	5883
2026-01-03 12:07:53.39	334.84	6.48	-49.7	-53.6	11.0	1.87e-03	0	57	0	1225785344	61	5909
