passes_logs/2026/01/03/R3.0SM8_Murmansk_STILSPACE/R3.0SM8_Murmansk_STILSPACE__20260103_083417_NOAA_20_JPSS-1_rec.log

#Pass ID: 20260103_083417_NOAA 20 (JPSS-1)
#Satellite: NOAA 20 (JPSS-1)
#Configuration: NOAA 20
#almurnet v.1.7.20240730
#Start time: 2026-01-03 08:34:18

#Version: 2.2.20231116
#Station: R3.0SM8_Murmansk_STILSPACE
#Location: 33.092731 lon 68.902999 lat
#TLE: 1 43013U 17073A   26002.21975278  .00000202  00000+0  11669-3 0  9999
#TLE: 2 43013  98.7622 303.2950 0001915  57.9213 302.2149 14.19532512420923

#Time	Az	El	Level	Level2	SNR	BER	BlckErr	Temp	State	Recorded	gain1	gain2
2026-01-03 08:34:18.86	128.89	3.11	-52.7	-66.7	3.8	1.49e+00	0	46	0	0	67	18748
2026-01-03 08:34:19.85	128.87	3.17	-52.6	-66.6	3.8	1.49e+00	0	46	104	0	68	17563
2026-01-03 08:34:20.84	128.85	3.24	-52.6	-66.5	3.8	1.49e+00	0	47	104	0	68	17369
2026-01-03 08:34:21.84	128.82	3.30	-52.4	-66.3	3.8	1.49e+00	0	47	104	0	67	17915
2026-01-03 08:34:22.82	128.80	3.37	-52.2	-66.0	3.8	1.49e+00	0	47	104	0	67	17440
2026-01-03 08:34:23.81	128.78	3.44	-52.0	-64.9	3.8	1.49e+00	0	47	104	0	67	15332
2026-01-03 08:34:24.80	128.76	3.50	-52.0	-64.6	3.8	1.49e+00	0	47	104	0	66	15685
2026-01-03 08:34:25.80	128.73	3.57	-51.9	-64.4	3.8	1.49e+00	0	47	104	0	66	15247
2026-01-03 08:34:26.79	128.71	3.64	-51.9	-64.0	3.8	1.49e+00	0	47	104	0	66	14671
2026-01-03 08:34:27.77	128.68	3.70	-51.9	-63.6	3.8	1.48e+00	0	47	104	0	66	13959
2026-01-03 08:34:28.76	128.66	3.77	-51.9	-63.1	4.0	1.47e+00	0	47	104	0	66	13193
2026-01-03 08:34:29.74	128.64	3.83	-51.8	-62.7	4.1	1.46e+00	0	47	104	0	66	12541
2026-01-03 08:34:30.73	128.61	3.90	-51.7	-62.1	4.2	1.38e+00	0	47	0	0	66	11805
2026-01-03 08:34:31.71	128.59	3.97	-51.6	-61.9	4.3	1.34e+00	42	47	0	0	66	11468
2026-01-03 08:34:32.70	128.57	4.03	-51.6	-61.0	4.7	1.09e+00	0	47	0	1048576	66	10400
2026-01-03 08:34:33.69	128.54	4.10	-51.6	-60.8	4.7	8.96e-01	0	47	0	3145728	66	10132
2026-01-03 08:34:34.67	128.52	4.17	-51.5	-60.1	5.1	7.11e-01	0	47	0	5242880	66	9364
2026-01-03 08:34:35.66	128.49	4.24	-51.4	-59.7	5.3	5.71e-01	0	48	0	7340032	65	9484
2026-01-03 08:34:36.66	128.47	4.31	-51.3	-59.0	5.9	4.87e-01	0	48	0	8388608	65	8674
2026-01-03 08:34:37.64	128.44	4.37	-51.1	-58.5	6.2	3.46e-01	0	48	0	10485760	65	8247
2026-01-03 08:34:38.63	128.42	4.44	-51.1	-57.9	6.7	2.21e-01	0	48	0	12582912	65	7700
2026-01-03 08:34:39.62	128.39	4.51	-50.9	-57.2	7.4	1.31e-01	0	48	0	14680064	64	7494
2026-01-03 08:34:40.61	128.37	4.58	-50.8	-56.6	8.0	8.82e-02	0	48	0	15728640	64	7010
2026-01-03 08:34:41.60	128.34	4.65	-50.6	-56.0	8.6	4.26e-02	0	48	0	17825792	64	6546
2026-01-03 08:34:42.59	128.32	4.72	-50.5	-55.5	9.2	2.65e-02	0	48	0	19922944	63	6496
2026-01-03 08:34:43.58	128.29	4.79	-50.3	-55.0	9.8	1.61e-02	0	48	0	22020096	63	6139
2026-01-03 08:34:44.57	128.26	4.86	-50.1	-54.6	10.2	8.07e-03	0	48	0	24117248	63	5873
2026-01-03 08:34:45.56	128.24	4.92	-50.0	-54.2	10.6	3.99e-03	0	48	0	25165824	63	5599
2026-01-03 08:34:46.55	128.21	4.99	-49.9	-53.9	10.9	2.37e-03	0	48	0	27262976	62	5775
2026-01-03 08:34:47.54	128.19	5.06	-49.9	-53.9	10.9	1.92e-03	0	48	0	29360128	62	5749
2026-01-03 08:34:48.53	128.16	5.13	-49.9	-53.9	10.9	2.00e-03	0	48	0	31457280	62	5759
2026-01-03 08:34:49.53	128.13	5.21	-49.8	-53.9	10.9	2.49e-03	0	48	0	32505856	62	5740
2026-01-03 08:34:50.52	128.11	5.28	-49.8	-53.8	11.0	1.83e-03	0	48	0	34603008	62	5675
2026-01-03 08:34:51.51	128.08	5.35	-49.8	-53.4	11.4	1.25e-03	0	49	0	36700160	62	5455
2026-01-03 08:34:52.49	128.05	5.42	-49.6	-53.4	11.5	8.51e-04	0	48	0	38797312	62	5405
2026-01-03 08:34:53.48	128.02	5.49	-49.8	-53.7	11.1	1.17e-03	0	49	0	39845888	62	5650
2026-01-03 08:34:54.47	128.00	5.56	-49.6	-53.4	11.4	1.55e-03	0	49	0	41943040	62	5414
2026-01-03 08:34:55.47	127.97	5.63	-49.5	-52.9	12.0	6.55e-04	0	49	0	44040192	62	5144
2026-01-03 08:34:56.46	127.94	5.70	-49.1	-52.3	12.6	1.42e-04	0	49	0	46137344	61	5074
2026-01-03 08:34:57.44	127.91	5.77	-49.0	-52.0	12.9	7.24e-05	0	49	0	48234496	61	4910
2026-01-03 08:34:58.43	127.89	5.85	-48.8	-51.6	13.3	1.83e-05	0	49	0	49283072	60	4951
2026-01-03 08:34:59.42	127.86	5.92	-48.7	-51.5	13.5	1.29e-05	0	49	0	51380224	60	4876
2026-01-03 08:35:00.41	127.83	5.99	-48.4	-51.0	13.9	1.50e-06	0	49	0	53477376	60	4620
2026-01-03 08:35:01.41	127.80	6.06	-48.5	-51.0	13.9	2.20e-06	0	49	0	55574528	60	4639
2026-01-03 08:35:02.40	127.77	6.14	-48.4	-50.9	14.1	2.20e-06	0	49	0	56623104	59	4818
2026-01-03 08:35:03.39	127.74	6.21	-48.5	-51.1	13.9	1.50e-06	0	49	0	58720256	59	4951
2026-01-03 08:35:04.38	127.72	6.28	-48.5	-51.1	13.9	2.20e-06	0	49	0	60817408	59	4950
2026-01-03 08:35:05.36	127.69	6.35	-48.4	-50.9	14.1	3.00e-06	0	49	0	62914560	59	4853
2026-01-03 08:35:06.36	127.66	6.43	-48.5	-51.1	13.9	1.50e-06	0	49	0	63963136	59	4965
2026-01-03 08:35:07.35	127.63	6.50	-48.5	-51.2	13.9	6.10e-06	0	49	0	66060288	59	4994
2026-01-03 08:35:08.34	127.60	6.58	-48.4	-50.9	14.1	3.80e-06	0	49	0	68157440	59	4839
2026-01-03 08:35:09.33	127.57	6.65	-48.4	-50.8	14.3	7.00e-07	0	50	0	70254592	59	4766
2026-01-03 08:35:10.31	127.54	6.72	-48.3	-50.7	14.3	0.00e+00	0	49	0	72351744	59	4751
2026-01-03 08:35:11.30	127.51	6.80	-48.3	-50.7	14.4	7.00e-07	0	50	0	73400320	59	4727
2026-01-03 08:35:12.29	127.48	6.87	-48.5	-51.0	14.1	1.50e-06	0	50	0	75497472	59	4885
2026-01-03 08:35:13.28	127.45	6.95	-48.3	-50.7	14.3	3.00e-06	0	50	0	77594624	59	4745
2026-01-03 08:35:14.27	127.42	7.02	-48.3	-50.7	14.4	2.20e-06	0	50	0	79691776	59	4723
2026-01-03 08:35:15.26	127.39	7.10	-48.4	-50.7	14.4	7.00e-07	0	50	0	80740352	59	4750
2026-01-03 08:35:16.24	127.36	7.17	-48.4	-50.8	14.3	7.00e-07	0	50	0	82837504	59	4791
2026-01-03 08:35:17.24	127.33	7.25	-48.2	-50.5	14.6	0.00e+00	0	50	0	84934656	59	4639
2026-01-03 08:35:18.22	127.29	7.32	-48.4	-50.9	14.2	0.00e+00	0	50	0	87031808	59	4832
2026-01-03 08:35:19.22	127.26	7.40	-48.3	-50.6	14.5	7.00e-07	0	50	0	89128960	59	4698
2026-01-03 08:35:20.21	127.23	7.48	-48.3	-50.6	14.5	0.00e+00	0	50	0	90177536	59	4688
2026-01-03 08:35:21.20	127.20	7.55	-48.2	-50.5	14.6	1.50e-06	0	50	0	92274688	59	4633
2026-01-03 08:35:22.18	127.17	7.63	-48.3	-50.7	14.4	0.00e+00	0	50	0	94371840	59	4736
2026-01-03 08:35:23.17	127.14	7.71	-48.2	-50.5	14.7	0.00e+00	0	50	0	96468992	59	4609
2026-01-03 08:35:24.16	127.10	7.79	-48.2	-50.5	14.7	1.50e-06	0	50	0	97517568	59	4625
2026-01-03 08:35:25.15	127.07	7.86	-48.2	-50.5	14.7	0.00e+00	0	50	0	99614720	59	4624
2026-01-03 08:35:26.14	127.04	7.94	-48.4	-50.7	14.4	0.00e+00	0	50	0	101711872	59	4732
2026-01-03 08:35:27.13	127.01	8.02	-48.5	-50.9	14.3	1.50e-06	0	50	0	103809024	59	4827
2026-01-03 08:35:28.11	126.97	8.10	-48.3	-50.6	14.6	7.00e-07	0	50	0	104857600	59	4690
2026-01-03 08:35:29.10	126.94	8.17	-48.1	-50.3	14.9	7.00e-07	0	51	0	106954752	59	4533
2026-01-03 08:35:30.08	126.91	8.25	-48.1	-50.3	14.9	0.00e+00	0	51	0	109051904	59	4525
2026-01-03 08:35:31.07	126.87	8.33	-48.2	-50.5	14.7	1.50e-06	0	50	0	111149056	59	4603
2026-01-03 08:35:32.06	126.84	8.41	-48.2	-50.4	14.9	1.50e-06	0	50	0	113246208	59	4554
2026-01-03 08:35:33.05	126.80	8.49	-48.3	-50.6	14.6	1.50e-06	0	51	0	114294784	59	4667
2026-01-03 08:35:34.04	126.77	8.57	-48.5	-50.8	14.4	7.00e-07	0	51	0	116391936	59	4801
2026-01-03 08:35:35.03	126.74	8.65	-48.3	-50.5	14.7	7.00e-07	0	51	0	118489088	59	4644
2026-01-03 08:35:36.02	126.70	8.73	-48.1	-50.3	14.9	0.00e+00	0	51	0	120586240	59	4512
2026-01-03 08:35:37.00	126.67	8.81	-48.1	-50.2	15.0	0.00e+00	0	51	0	121634816	59	4471
2026-01-03 08:35:37.99	126.63	8.89	-48.0	-50.2	15.0	7.00e-07	0	51	0	123731968	59	4473
2026-01-03 08:35:38.97	126.60	8.97	-48.1	-50.3	14.9	0.00e+00	0	51	0	125829120	59	4531
2026-01-03 08:35:39.96	126.56	9.05	-48.2	-50.5	14.8	0.00e+00	0	51	0	127926272	59	4614
2026-01-03 08:35:40.95	126.52	9.13	-48.2	-50.4	14.9	7.00e-07	0	51	0	128974848	59	4575
2026-01-03 08:35:41.94	126.49	9.21	-48.2	-50.4	14.9	0.00e+00	0	51	0	131072000	59	4559
2026-01-03 08:35:42.92	126.45	9.29	-48.3	-50.6	14.7	0.00e+00	0	51	0	133169152	59	4668
2026-01-03 08:35:43.91	126.42	9.38	-48.2	-50.5	14.8	7.00e-07	0	51	0	135266304	59	4602
2026-01-03 08:35:44.89	126.38	9.46	-48.2	-50.5	14.8	0.00e+00	0	51	0	136314880	59	4619
2026-01-03 08:35:45.88	126.34	9.54	-48.4	-50.8	14.5	7.00e-07	0	51	0	138412032	59	4783
2026-01-03 08:35:46.88	126.31	9.62	-48.2	-50.5	14.8	0.00e+00	0	51	0	140509184	59	4609
2026-01-03 08:35:47.87	126.27	9.71	-48.2	-50.3	15.0	0.00e+00	0	51	0	142606336	59	4524
2026-01-03 08:35:48.86	126.23	9.79	-48.1	-50.2	15.1	0.00e+00	0	51	0	144703488	59	4468
2026-01-03 08:35:49.85	126.19	9.88	-48.1	-50.2	15.1	0.00e+00	0	51	0	145752064	59	4467
2026-01-03 08:35:50.84	126.16	9.96	-48.3	-50.4	14.9	0.00e+00	0	51	0	147849216	59	4595
2026-01-03 08:35:51.84	126.12	10.04	-48.3	-50.5	14.8	0.00e+00	0	51	0	149946368	59	4644
2026-01-03 08:35:52.82	126.08	10.13	-48.5	-50.8	14.5	0.00e+00	0	52	0	152043520	59	4803
2026-01-03 08:35:53.81	126.04	10.21	-48.4	-50.6	14.7	1.50e-06	0	51	0	153092096	59	4681
2026-01-03 08:35:54.79	126.00	10.30	-48.2	-50.4	14.9	0.00e+00	0	52	0	155189248	59	4554
2026-01-03 08:35:55.78	125.96	10.38	-48.1	-50.3	15.0	0.00e+00	0	51	0	157286400	59	4520
2026-01-03 08:35:56.77	125.92	10.47	-48.0	-50.2	15.2	0.00e+00	0	51	0	159383552	59	4448
2026-01-03 08:35:57.76	125.88	10.55	-48.0	-50.1	15.3	0.00e+00	0	52	0	160432128	59	4402
2026-01-03 08:35:58.75	125.84	10.64	-48.2	-50.3	15.0	0.00e+00	0	52	0	162529280	59	4533
2026-01-03 08:35:59.74	125.80	10.73	-48.1	-50.2	15.1	0.00e+00	0	52	0	164626432	59	4468
2026-01-03 08:36:00.73	125.76	10.81	-48.2	-50.3	15.1	0.00e+00	0	52	0	166723584	59	4515
2026-01-03 08:36:01.72	125.72	10.90	-48.4	-50.6	14.7	0.00e+00	0	52	0	168820736	59	4681
2026-01-03 08:36:02.71	125.68	10.99	-48.3	-50.5	14.9	0.00e+00	0	52	0	169869312	59	4616
2026-01-03 08:36:03.71	125.64	11.08	-48.1	-50.2	15.2	0.00e+00	0	52	0	171966464	59	4447
2026-01-03 08:36:04.70	125.60	11.16	-47.9	-49.9	15.5	0.00e+00	0	52	0	174063616	58	4548
2026-01-03 08:36:05.69	125.56	11.25	-47.8	-49.7	15.7	0.00e+00	0	52	0	176160768	58	4463
2026-01-03 08:36:06.69	125.51	11.34	-47.8	-49.8	15.6	7.00e-07	0	52	0	177209344	58	4508
2026-01-03 08:36:07.67	125.47	11.43	-47.9	-49.8	15.6	0.00e+00	0	52	0	179306496	58	4519
2026-01-03 08:36:08.66	125.43	11.52	-47.9	-49.8	15.6	0.00e+00	0	52	0	181403648	58	4523
2026-01-03 08:36:09.64	125.39	11.61	-47.9	-49.8	15.6	0.00e+00	0	52	0	183500800	58	4521
2026-01-03 08:36:10.62	125.34	11.70	-47.7	-49.6	15.7	0.00e+00	0	52	0	184549376	58	4433
2026-01-03 08:36:11.62	125.30	11.79	-47.8	-49.7	15.7	0.00e+00	0	52	0	186646528	58	4459
2026-01-03 08:36:12.62	125.25	11.88	-47.7	-49.6	15.8	0.00e+00	0	52	0	188743680	58	4422
2026-01-03 08:36:13.60	125.21	11.97	-47.7	-49.6	15.8	0.00e+00	0	52	0	190840832	58	4412
2026-01-03 08:36:14.59	125.17	12.06	-47.8	-49.7	15.7	0.00e+00	0	52	0	191889408	58	4484
2026-01-03 08:36:15.59	125.12	12.15	-47.8	-49.8	15.6	0.00e+00	0	52	0	193986560	58	4500
2026-01-03 08:36:16.58	125.08	12.24	-47.8	-49.7	15.7	0.00e+00	0	52	0	196083712	58	4480
2026-01-03 08:36:17.57	125.03	12.34	-47.9	-49.9	15.5	0.00e+00	0	52	0	198180864	58	4561
2026-01-03 08:36:18.56	124.99	12.43	-47.9	-49.8	15.6	0.00e+00	0	52	0	200278016	58	4535
2026-01-03 08:36:19.55	124.94	12.52	-47.8	-49.7	15.8	0.00e+00	0	52	0	201326592	58	4447
2026-01-03 08:36:20.54	124.89	12.61	-47.8	-49.7	15.7	0.00e+00	0	52	0	203423744	58	4457
2026-01-03 08:36:21.53	124.85	12.71	-47.8	-49.7	15.7	0.00e+00	0	52	0	205520896	58	4487
2026-01-03 08:36:22.52	124.80	12.80	-47.8	-49.8	15.6	0.00e+00	0	52	0	207618048	58	4506
2026-01-03 08:36:23.51	124.75	12.90	-48.0	-50.1	15.4	0.00e+00	0	52	0	209715200	58	4662
2026-01-03 08:36:24.51	124.71	12.99	-48.0	-50.1	15.4	0.00e+00	0	52	0	210763776	58	4657
2026-01-03 08:36:25.49	124.66	13.08	-47.9	-49.9	15.5	0.00e+00	0	53	0	212860928	58	4567
2026-01-03 08:36:26.48	124.61	13.18	-47.8	-49.6	15.8	0.00e+00	0	52	0	214958080	58	4438
2026-01-03 08:36:27.46	124.56	13.27	-47.6	-49.5	16.0	0.00e+00	0	52	0	217055232	58	4350
2026-01-03 08:36:28.45	124.51	13.37	-47.6	-49.4	16.0	0.00e+00	0	52	0	218103808	58	4308
2026-01-03 08:36:29.43	124.46	13.47	-47.6	-49.5	16.0	0.00e+00	0	53	0	220200960	58	4352
2026-01-03 08:36:30.42	124.42	13.56	-47.8	-49.6	15.9	0.00e+00	0	53	0	222298112	58	4415
2026-01-03 08:36:31.40	124.37	13.66	-47.8	-49.7	15.8	0.00e+00	0	53	0	224395264	58	4446
2026-01-03 08:36:32.38	124.32	13.75	-47.6	-49.4	16.1	0.00e+00	0	53	0	225443840	58	4292
2026-01-03 08:36:33.36	124.27	13.85	-47.5	-49.4	16.1	0.00e+00	0	53	0	227540992	58	4300
2026-01-03 08:36:34.35	124.22	13.95	-47.7	-49.5	15.9	0.00e+00	0	53	0	229638144	58	4388
2026-01-03 08:36:35.34	124.16	14.05	-47.7	-49.6	15.8	0.00e+00	0	53	0	231735296	58	4420
2026-01-03 08:36:36.33	124.11	14.15	-47.8	-49.7	15.8	0.00e+00	0	53	0	232783872	58	4461
2026-01-03 08:36:37.32	124.06	14.24	-47.7	-49.7	15.8	0.00e+00	0	53	0	234881024	58	4448
2026-01-03 08:36:38.31	124.01	14.34	-47.7	-49.6	15.9	0.00e+00	0	53	0	236978176	58	4409
2026-01-03 08:36:39.30	123.96	14.44	-47.8	-49.7	15.8	0.00e+00	0	53	0	239075328	58	4444
2026-01-03 08:36:40.29	123.90	14.54	-47.7	-49.5	15.9	0.00e+00	0	53	0	240123904	58	4380
2026-01-03 08:36:41.28	123.85	14.64	-47.8	-49.6	15.9	0.00e+00	0	53	0	242221056	58	4430
2026-01-03 08:36:42.27	123.80	14.75	-47.8	-49.7	15.8	0.00e+00	0	53	0	244318208	58	4490
2026-01-03 08:36:43.26	123.74	14.85	-47.9	-49.8	15.7	0.00e+00	0	53	0	246415360	58	4535
2026-01-03 08:36:44.25	123.69	14.95	-47.8	-49.7	15.9	0.00e+00	0	53	0	248512512	58	4447
2026-01-03 08:36:45.26	123.63	15.05	-47.6	-49.5	16.0	0.00e+00	0	53	0	249561088	58	4358
2026-01-03 08:36:46.24	123.58	15.16	-47.6	-49.4	16.1	0.00e+00	0	53	0	251658240	58	4323
2026-01-03 08:36:47.23	123.52	15.26	-47.7	-49.6	15.9	0.00e+00	0	53	0	253755392	58	4392
2026-01-03 08:36:48.21	123.46	15.36	-47.8	-49.7	15.9	0.00e+00	0	53	0	255852544	58	4443
2026-01-03 08:36:49.20	123.41	15.46	-47.9	-49.8	15.7	0.00e+00	0	53	0	256901120	58	4514
2026-01-03 08:36:50.19	123.35	15.57	-47.8	-49.8	15.7	0.00e+00	0	53	0	258998272	58	4523
2026-01-03 08:36:51.18	123.29	15.67	-47.9	-49.9	15.7	0.00e+00	0	53	0	261095424	58	4550
2026-01-03 08:36:52.16	123.24	15.78	-47.8	-49.7	15.8	0.00e+00	0	53	0	263192576	58	4464
2026-01-03 08:36:53.15	123.18	15.88	-47.8	-49.7	15.9	0.00e+00	0	53	0	264241152	58	4453
2026-01-03 08:36:54.13	123.12	15.99	-47.8	-49.7	15.8	0.00e+00	0	53	0	266338304	58	4485
2026-01-03 08:36:55.12	123.06	16.09	-47.8	-49.8	15.7	0.00e+00	0	53	0	268435456	58	4544
2026-01-03 08:36:56.11	123.00	16.20	-48.1	-50.1	15.4	0.00e+00	0	53	0	270532608	58	4670
2026-01-03 08:36:57.09	122.94	16.31	-47.8	-49.8	15.8	0.00e+00	0	53	0	271581184	58	4497
2026-01-03 08:36:58.08	122.88	16.41	-47.7	-49.5	16.0	0.00e+00	0	53	0	273678336	58	4364
2026-01-03 08:36:59.07	122.82	16.52	-47.5	-49.3	16.2	0.00e+00	0	53	0	275775488	58	4266
2026-01-03 08:37:00.05	122.76	16.63	-47.5	-49.2	16.3	0.00e+00	0	53	0	277872640	58	4237
2026-01-03 08:37:01.04	122.70	16.74	-47.5	-49.3	16.2	0.00e+00	0	53	0	279969792	58	4266
2026-01-03 08:37:02.03	122.64	16.85	-47.7	-49.6	15.9	0.00e+00	0	53	0	281018368	58	4440
2026-01-03 08:37:03.02	122.57	16.96	-47.5	-49.3	16.2	0.00e+00	0	53	0	283115520	58	4281
2026-01-03 08:37:04.00	122.51	17.07	-47.4	-49.2	16.3	0.00e+00	0	53	0	285212672	58	4218
2026-01-03 08:37:04.99	122.45	17.18	-47.5	-49.2	16.4	0.00e+00	0	53	0	287309824	58	4209
2026-01-03 08:37:05.98	122.38	17.29	-47.5	-49.2	16.3	0.00e+00	0	54	0	288358400	58	4239
2026-01-03 08:37:06.98	122.32	17.40	-47.5	-49.3	16.3	0.00e+00	0	53	0	290455552	58	4267
2026-01-03 08:37:07.97	122.25	17.51	-47.7	-49.5	16.1	0.00e+00	0	53	0	292552704	58	4370
2026-01-03 08:37:08.96	122.19	17.63	-47.6	-49.4	16.2	0.00e+00	0	53	0	294649856	58	4292
2026-01-03 08:37:09.95	122.12	17.74	-47.7	-49.5	16.1	0.00e+00	0	53	0	295698432	58	4353
2026-01-03 08:37:10.94	122.05	17.85	-47.8	-49.7	15.8	0.00e+00	0	54	0	297795584	58	4493
2026-01-03 08:37:11.93	121.98	17.97	-47.6	-49.5	16.0	0.00e+00	0	54	0	299892736	58	4382
2026-01-03 08:37:12.92	121.92	18.08	-47.6	-49.4	16.2	0.00e+00	0	54	0	301989888	58	4307
2026-01-03 08:37:13.91	121.85	18.20	-47.5	-49.3	16.3	0.00e+00	0	54	0	304087040	58	4244
2026-01-03 08:37:14.90	121.78	18.31	-47.5	-49.2	16.3	0.00e+00	0	54	0	305135616	58	4240
2026-01-03 08:37:15.89	121.71	18.43	-47.5	-49.3	16.3	0.00e+00	0	54	0	307232768	58	4261
2026-01-03 08:37:16.88	121.64	18.55	-47.6	-49.4	16.2	0.00e+00	0	54	0	309329920	58	4292
2026-01-03 08:37:17.86	121.57	18.66	-47.5	-49.2	16.4	0.00e+00	0	54	0	311427072	58	4231
2026-01-03 08:37:18.85	121.50	18.78	-47.3	-49.1	16.5	0.00e+00	0	54	0	312475648	57	4409
2026-01-03 08:37:19.84	121.43	18.90	-47.3	-49.0	16.6	0.00e+00	0	54	0	314572800	57	4363
2026-01-03 08:37:20.83	121.35	19.02	-47.3	-49.0	16.6	0.00e+00	0	54	0	316669952	57	4345
2026-01-03 08:37:21.82	121.28	19.14	-47.4	-49.2	16.4	0.00e+00	0	54	0	318767104	57	4450
2026-01-03 08:37:22.81	121.21	19.26	-47.5	-49.3	16.3	0.00e+00	0	54	0	319815680	57	4517
2026-01-03 08:37:23.80	121.13	19.38	-47.5	-49.2	16.4	0.00e+00	0	54	0	321912832	57	4448
2026-01-03 08:37:24.79	121.06	19.50	-47.5	-49.3	16.3	0.00e+00	0	54	0	324009984	57	4509
2026-01-03 08:37:25.78	120.98	19.62	-47.7	-49.5	16.1	0.00e+00	0	54	0	326107136	57	4615
2026-01-03 08:37:26.77	120.91	19.74	-47.6	-49.4	16.2	0.00e+00	0	54	0	328204288	57	4584
2026-01-03 08:37:27.76	120.83	19.86	-47.7	-49.5	16.1	0.00e+00	0	54	0	329252864	57	4632
2026-01-03 08:37:28.75	120.75	19.99	-47.8	-49.7	15.9	0.00e+00	0	54	0	331350016	57	4737
2026-01-03 08:37:29.73	120.68	20.11	-47.8	-49.7	15.9	0.00e+00	0	54	0	333447168	57	4716
2026-01-03 08:37:30.72	120.60	20.23	-47.8	-49.7	15.8	0.00e+00	0	54	0	335544320	57	4759
2026-01-03 08:37:31.70	120.52	20.35	-48.0	-50.0	15.6	0.00e+00	0	54	0	336592896	57	4901
2026-01-03 08:37:32.69	120.44	20.48	-48.0	-50.0	15.6	0.00e+00	0	54	0	338690048	58	4601
2026-01-03 08:37:33.68	120.36	20.61	-48.1	-50.1	15.5	0.00e+00	0	54	0	340787200	58	4671
2026-01-03 08:37:34.67	120.28	20.73	-48.1	-50.1	15.5	0.00e+00	0	54	0	342884352	58	4694
2026-01-03 08:37:35.66	120.20	20.86	-48.1	-50.2	15.5	0.00e+00	0	54	0	343932928	58	4716
2026-01-03 08:37:36.65	120.11	20.99	-48.3	-50.4	15.2	0.00e+00	0	54	0	346030080	58	4838
2026-01-03 08:37:37.64	120.03	21.11	-48.3	-50.4	15.2	0.00e+00	0	54	0	348127232	58	4836
2026-01-03 08:37:38.63	119.94	21.24	-48.2	-50.3	15.4	0.00e+00	0	54	0	350224384	58	4781
2026-01-03 08:37:39.62	119.86	21.37	-48.3	-50.4	15.3	0.00e+00	0	54	0	352321536	58	4817
2026-01-03 08:37:40.61	119.77	21.50	-48.3	-50.4	15.3	0.00e+00	0	54	0	353370112	58	4829
2026-01-03 08:37:41.59	119.69	21.63	-48.5	-50.6	15.0	7.00e-07	0	54	0	355467264	58	4962
2026-01-03 08:37:42.59	119.60	21.76	-48.6	-50.7	14.9	0.00e+00	0	54	0	357564416	59	4729
2026-01-03 08:37:43.58	119.51	21.89	-48.2	-50.4	15.2	7.00e-07	0	54	0	359661568	59	4555
2026-01-03 08:37:44.57	119.42	22.03	-48.1	-50.1	15.5	0.00e+00	0	54	0	360710144	59	4418
2026-01-03 08:37:45.56	119.34	22.16	-48.0	-49.9	15.7	0.00e+00	0	54	0	362807296	59	4337
2026-01-03 08:37:46.54	119.25	22.29	-48.0	-49.9	15.8	0.00e+00	0	54	0	364904448	59	4296
2026-01-03 08:37:47.53	119.15	22.43	-48.0	-49.9	15.8	0.00e+00	0	54	0	367001600	59	4318
2026-01-03 08:37:48.52	119.06	22.56	-48.0	-49.9	15.7	0.00e+00	0	54	0	369098752	59	4337
2026-01-03 08:37:49.51	118.97	22.70	-48.0	-49.9	15.7	0.00e+00	0	54	0	370147328	59	4331
2026-01-03 08:37:50.50	118.88	22.83	-48.3	-50.3	15.4	0.00e+00	0	54	0	372244480	59	4502
2026-01-03 08:37:51.49	118.78	22.97	-48.3	-50.3	15.3	0.00e+00	0	54	0	374341632	59	4539
2026-01-03 08:37:52.48	118.69	23.10	-48.2	-50.2	15.4	0.00e+00	0	54	0	376438784	59	4470
2026-01-03 08:37:53.47	118.59	23.24	-48.1	-50.1	15.5	0.00e+00	0	54	0	377487360	59	4426
2026-01-03 08:37:54.45	118.50	23.38	-48.1	-50.2	15.5	0.00e+00	0	54	0	379584512	59	4455
2026-01-03 08:37:55.44	118.40	23.52	-48.2	-50.3	15.4	0.00e+00	0	54	0	381681664	59	4521
2026-01-03 08:37:56.44	118.30	23.66	-48.3	-50.4	15.2	0.00e+00	0	54	0	383778816	59	4595
2026-01-03 08:37:57.43	118.20	23.80	-48.5	-50.6	15.1	0.00e+00	0	54	0	384827392	59	4678
2026-01-03 08:37:58.42	118.10	23.94	-48.5	-50.7	15.0	0.00e+00	0	54	0	386924544	59	4727
2026-01-03 08:37:59.41	118.00	24.08	-48.6	-50.8	14.9	0.00e+00	0	54	0	389021696	59	4781
2026-01-03 08:38:00.40	117.89	24.23	-48.7	-51.0	14.7	0.00e+00	0	54	0	391118848	59	4885
2026-01-03 08:38:01.40	117.79	24.37	-48.7	-51.0	14.7	7.00e-07	0	55	0	392167424	59	4872
2026-01-03 08:38:02.39	117.68	24.51	-48.8	-51.1	14.6	0.00e+00	0	54	0	394264576	59	4948
2026-01-03 08:38:03.38	117.58	24.66	-48.7	-51.0	14.7	0.00e+00	0	54	0	396361728	59	4880
2026-01-03 08:38:04.38	117.47	24.81	-48.8	-51.1	14.5	7.00e-07	0	55	0	398458880	59	4982
2026-01-03 08:38:05.36	117.37	24.95	-48.9	-51.3	14.3	7.00e-07	0	55	0	400556032	59	5077
2026-01-03 08:38:06.35	117.26	25.10	-48.8	-51.2	14.5	0.00e+00	0	55	0	401604608	59	4992
2026-01-03 08:38:07.34	117.15	25.24	-48.9	-51.3	14.4	1.50e-06	0	55	0	403701760	59	5067
2026-01-03 08:38:08.33	117.04	25.39	-48.8	-51.2	14.5	7.00e-07	0	54	0	405798912	59	5002
2026-01-03 08:38:09.31	116.93	25.54	-48.9	-51.3	14.4	7.00e-07	0	55	0	407896064	59	5049
2026-01-03 08:38:10.30	116.81	25.69	-49.0	-51.4	14.3	7.00e-07	0	54	0	408944640	59	5129
2026-01-03 08:38:11.28	116.70	25.84	-49.1	-51.5	14.1	0.00e+00	0	55	0	411041792	60	4918
2026-01-03 08:38:12.27	116.59	25.99	-49.1	-51.7	14.0	1.50e-06	0	55	0	413138944	60	4985
2026-01-03 08:38:13.26	116.47	26.14	-49.1	-51.6	14.1	7.00e-07	0	55	0	415236096	60	4939
2026-01-03 08:38:14.25	116.35	26.29	-49.1	-51.7	14.0	2.20e-06	0	54	0	416284672	60	5004
2026-01-03 08:38:15.23	116.24	26.44	-49.2	-51.8	13.8	4.50e-06	0	54	0	418381824	60	5078
2026-01-03 08:38:16.22	116.12	26.60	-49.1	-51.6	14.1	0.00e+00	0	54	0	420478976	60	4955
2026-01-03 08:38:17.21	116.00	26.75	-48.9	-51.5	14.2	4.50e-06	0	55	0	422576128	60	4916
2026-01-03 08:38:18.19	115.88	26.90	-49.0	-51.5	14.1	0.00e+00	0	55	0	424673280	60	4926
2026-01-03 08:38:19.18	115.75	27.06	-49.1	-51.8	13.9	4.50e-06	0	55	0	425721856	60	5058
2026-01-03 08:38:20.17	115.63	27.22	-49.1	-51.8	13.9	1.50e-06	0	55	0	427819008	60	5067
2026-01-03 08:38:21.15	115.50	27.37	-49.2	-51.9	13.8	7.60e-06	0	55	0	429916160	60	5117
2026-01-03 08:38:22.14	115.38	27.53	-49.3	-52.1	13.5	7.60e-06	0	55	0	432013312	60	5260
2026-01-03 08:38:23.13	115.25	27.69	-49.3	-51.9	13.7	6.10e-06	0	55	0	433061888	60	5156
2026-01-03 08:38:24.11	115.12	27.85	-49.2	-51.9	13.8	3.80e-06	0	55	0	435159040	60	5119
2026-01-03 08:38:25.10	114.99	28.01	-49.3	-52.1	13.6	9.90e-06	0	55	0	437256192	60	5251
2026-01-03 08:38:26.09	114.86	28.17	-49.5	-52.5	13.2	9.90e-06	0	55	0	439353344	60	5474
2026-01-03 08:38:27.08	114.72	28.33	-49.6	-52.6	13.1	2.21e-05	0	55	0	440401920	61	5240
2026-01-03 08:38:28.07	114.59	28.49	-49.5	-52.4	13.3	1.06e-05	0	55	0	442499072	61	5112
2026-01-03 08:38:29.05	114.45	28.65	-49.4	-52.3	13.4	1.37e-05	0	55	0	444596224	61	5061
2026-01-03 08:38:30.04	114.32	28.82	-49.6	-52.6	13.1	2.51e-05	0	55	0	446693376	61	5241
2026-01-03 08:38:31.03	114.18	28.98	-49.5	-52.4	13.3	1.60e-05	0	55	0	447741952	61	5126
2026-01-03 08:38:32.01	114.04	29.15	-49.5	-52.2	13.5	8.30e-06	0	55	0	449839104	61	5016
2026-01-03 08:38:33.00	113.90	29.31	-49.5	-52.2	13.5	1.14e-05	0	55	0	451936256	61	5029
2026-01-03 08:38:33.99	113.75	29.48	-49.5	-52.3	13.3	1.44e-05	0	55	0	454033408	61	5078
2026-01-03 08:38:34.97	113.61	29.65	-49.3	-52.0	13.7	9.90e-06	0	55	0	456130560	61	4908
2026-01-03 08:38:35.97	113.46	29.82	-49.3	-52.2	13.5	8.30e-06	0	55	0	457179136	61	4990
2026-01-03 08:38:36.96	113.31	29.99	-49.2	-51.9	13.8	5.30e-06	0	55	0	459276288	61	4845
2026-01-03 08:38:37.95	113.16	30.16	-49.1	-51.7	14.0	4.50e-06	0	55	0	461373440	61	4708
2026-01-03 08:38:38.94	113.01	30.33	-48.9	-51.3	14.4	7.00e-07	0	55	0	463470592	60	4805
2026-01-03 08:38:39.94	112.86	30.50	-49.0	-51.4	14.3	7.00e-07	0	55	0	464519168	60	4829
2026-01-03 08:38:40.93	112.70	30.68	-48.9	-51.4	14.4	1.50e-06	0	55	0	466616320	60	4815
2026-01-03 08:38:41.92	112.55	30.85	-48.9	-51.3	14.4	1.50e-06	0	55	0	468713472	60	4790
2026-01-03 08:38:42.92	112.39	31.03	-48.9	-51.5	14.3	7.00e-07	0	55	0	470810624	60	4871
2026-01-03 08:38:43.91	112.23	31.20	-49.1	-51.6	14.1	4.50e-06	0	55	0	472907776	60	4974
2026-01-03 08:38:44.90	112.06	31.38	-49.2	-51.8	13.9	4.50e-06	0	55	0	473956352	60	5082
2026-01-03 08:38:45.89	111.90	31.55	-49.2	-51.9	13.8	5.30e-06	0	55	0	476053504	60	5121
2026-01-03 08:38:46.88	111.74	31.73	-49.3	-52.0	13.7	4.50e-06	0	55	0	478150656	60	5205
2026-01-03 08:38:47.87	111.57	31.91	-49.4	-52.1	13.6	8.30e-06	0	55	0	480247808	60	5242
2026-01-03 08:38:48.85	111.40	32.09	-49.4	-52.2	13.5	6.80e-06	0	55	0	481296384	60	5331
2026-01-03 08:38:49.84	111.23	32.27	-49.3	-52.0	13.7	6.10e-06	0	55	0	483393536	60	5183
2026-01-03 08:38:50.82	111.06	32.45	-49.2	-52.0	13.7	9.90e-06	0	55	0	485490688	60	5177
2026-01-03 08:38:51.81	110.88	32.63	-49.4	-52.3	13.4	9.90e-06	0	55	0	487587840	60	5346
2026-01-03 08:38:52.81	110.71	32.81	-49.4	-52.3	13.4	1.14e-05	0	55	0	488636416	60	5384
2026-01-03 08:38:53.80	110.53	33.00	-49.6	-52.6	13.0	2.74e-05	0	55	0	490733568	61	5272
2026-01-03 08:38:54.78	110.35	33.18	-49.5	-52.4	13.2	2.74e-05	0	55	0	492830720	61	5157
2026-01-03 08:38:55.77	110.16	33.36	-49.4	-52.2	13.5	1.90e-05	0	55	0	494927872	61	5039
2026-01-03 08:38:56.76	109.98	33.55	-49.5	-52.4	13.3	2.44e-05	0	55	0	495976448	61	5136
2026-01-03 08:38:57.74	109.79	33.73	-49.6	-52.4	13.3	2.44e-05	0	55	0	498073600	61	5154
2026-01-03 08:38:58.73	109.60	33.92	-49.7	-52.6	13.1	3.50e-05	0	55	0	500170752	61	5266
2026-01-03 08:38:59.72	109.41	34.11	-49.8	-53.0	12.7	6.48e-05	0	55	0	502267904	61	5481
2026-01-03 08:39:00.72	109.22	34.30	-50.1	-53.4	12.4	1.23e-04	0	55	0	504365056	62	5443
2026-01-03 08:39:01.71	109.02	34.49	-50.2	-53.5	12.1	1.75e-04	0	55	0	505413632	62	5512
2026-01-03 08:39:02.70	108.82	34.68	-50.2	-53.5	12.2	1.79e-04	0	55	0	507510784	62	5492
2026-01-03 08:39:03.69	108.62	34.87	-50.2	-53.5	12.2	2.10e-04	0	55	0	509607936	62	5508
2026-01-03 08:39:04.68	108.42	35.06	-50.3	-53.9	11.8	4.22e-04	0	55	0	511705088	62	5736
2026-01-03 08:39:05.67	108.21	35.25	-50.3	-53.6	12.0	4.25e-04	0	55	0	512753664	62	5582
2026-01-03 08:39:06.66	108.00	35.44	-50.2	-53.6	12.1	2.70e-04	0	55	0	514850816	62	5550
2026-01-03 08:39:07.65	107.79	35.64	-50.1	-53.6	12.1	4.32e-04	0	55	0	516947968	62	5586
2026-01-03 08:39:08.65	107.58	35.83	-50.2	-53.6	12.1	2.96e-04	0	55	0	519045120	62	5546
2026-01-03 08:39:09.63	107.36	36.03	-50.2	-53.6	12.1	3.04e-04	0	55	0	521142272	62	5553
2026-01-03 08:39:10.62	107.14	36.22	-50.2	-53.7	12.0	3.31e-04	0	55	0	522190848	62	5611
2026-01-03 08:39:11.61	106.92	36.42	-50.1	-53.4	12.3	3.07e-04	0	55	0	524288000	62	5446
2026-01-03 08:39:12.61	106.70	36.62	-49.8	-52.8	12.9	9.53e-05	0	55	0	526385152	62	5085
2026-01-03 08:39:13.59	106.47	36.81	-49.8	-52.9	12.8	5.41e-05	0	55	0	528482304	62	5132
2026-01-03 08:39:14.59	106.24	37.02	-49.9	-52.9	12.8	5.18e-05	0	55	0	529530880	62	5112
2026-01-03 08:39:15.58	106.01	37.21	-49.7	-52.6	13.1	2.28e-05	0	55	0	531628032	62	4956
2026-01-03 08:39:16.56	105.78	37.41	-49.7	-52.5	13.2	3.43e-05	0	55	0	533725184	62	4897
2026-01-03 08:39:17.55	105.54	37.61	-49.4	-52.2	13.5	1.90e-05	0	55	0	535822336	61	5003
2026-01-03 08:39:18.54	105.30	37.81	-49.3	-52.1	13.7	3.80e-06	0	55	0	536870912	61	4932
2026-01-03 08:39:19.54	105.05	38.02	-49.4	-52.2	13.6	6.10e-06	0	55	0	538968064	61	5016
2026-01-03 08:39:20.53	104.80	38.22	-49.6	-52.5	13.2	1.06e-05	0	55	0	541065216	61	5218
2026-01-03 08:39:21.52	104.55	38.42	-49.8	-52.7	13.0	4.73e-05	0	55	0	543162368	61	5317
2026-01-03 08:39:22.51	104.30	38.63	-49.7	-52.5	13.2	2.36e-05	0	55	0	545259520	61	5207
2026-01-03 08:39:23.51	104.04	38.83	-49.8	-52.7	13.0	4.27e-05	0	55	0	546308096	61	5340
2026-01-03 08:39:24.49	103.78	39.04	-49.8	-52.8	12.9	4.04e-05	0	55	0	548405248	61	5374
2026-01-03 08:39:25.48	103.52	39.24	-49.9	-53.0	12.7	7.09e-05	0	55	0	550502400	61	5491
2026-01-03 08:39:26.47	103.25	39.45	-49.9	-53.1	12.7	6.40e-05	0	55	0	552599552	61	5552
2026-01-03 08:39:27.46	102.98	39.65	-50.2	-53.4	12.3	1.46e-04	0	55	0	553648128	62	5443
2026-01-03 08:39:28.46	102.70	39.86	-50.2	-53.7	12.0	2.92e-04	0	56	0	555745280	62	5651
2026-01-03 08:39:29.44	102.43	40.07	-50.4	-54.0	11.8	3.13e-04	0	55	0	557842432	62	5795
2026-01-03 08:39:30.43	102.15	40.28	-50.4	-54.1	11.7	6.83e-04	0	55	0	559939584	62	5857
2026-01-03 08:39:31.42	101.86	40.48	-50.2	-53.6	12.1	5.30e-04	0	55	0	562036736	62	5575
2026-01-03 08:39:32.41	101.57	40.69	-50.0	-53.3	12.4	3.03e-04	0	55	0	563085312	62	5372
2026-01-03 08:39:33.41	101.28	40.90	-50.1	-53.3	12.4	1.52e-04	0	55	0	565182464	62	5380
2026-01-03 08:39:34.40	100.98	41.11	-50.1	-53.3	12.4	1.20e-04	0	55	0	567279616	62	5374
2026-01-03 08:39:35.39	100.68	41.32	-50.1	-53.3	12.4	1.84e-04	0	55	0	569376768	62	5365
2026-01-03 08:39:36.38	100.38	41.53	-49.9	-53.2	12.6	8.39e-05	0	55	0	570425344	62	5282
2026-01-03 08:39:37.36	100.07	41.74	-50.1	-53.3	12.5	1.60e-04	0	55	0	572522496	62	5347
2026-01-03 08:39:38.35	99.76	41.95	-49.8	-52.9	12.9	5.18e-05	0	55	0	574619648	62	5103
2026-01-03 08:39:39.34	99.45	42.16	-49.8	-52.8	13.0	2.74e-05	0	55	0	576716800	62	5050
2026-01-03 08:39:40.34	99.12	42.37	-49.7	-52.7	13.1	2.05e-05	0	55	0	577765376	62	4985
2026-01-03 08:39:41.33	98.80	42.58	-49.5	-52.3	13.5	1.44e-05	0	55	0	579862528	62	4766
2026-01-03 08:39:42.32	98.47	42.80	-49.6	-52.4	13.3	1.37e-05	0	55	0	581959680	62	4862
2026-01-03 08:39:43.30	98.14	43.00	-49.8	-52.8	13.0	2.97e-05	0	56	0	584056832	62	5072
2026-01-03 08:39:44.29	97.80	43.22	-49.7	-52.8	13.0	2.28e-05	0	55	0	585105408	62	5072
2026-01-03 08:39:45.28	97.46	43.43	-50.0	-53.1	12.7	4.27e-05	0	56	0	587202560	62	5235
2026-01-03 08:39:46.28	97.11	43.64	-50.4	-53.9	11.8	2.94e-04	0	56	0	589299712	62	5767
2026-01-03 08:39:47.27	96.76	43.85	-50.2	-53.6	12.1	4.45e-04	0	56	0	591396864	62	5584
2026-01-03 08:39:48.26	96.40	44.06	-50.2	-53.7	12.1	4.52e-04	0	56	0	593494016	62	5609
2026-01-03 08:39:49.25	96.04	44.27	-50.1	-53.4	12.4	1.86e-04	0	56	0	594542592	62	5446
2026-01-03 08:39:50.25	95.67	44.49	-49.9	-53.1	12.6	1.23e-04	0	56	0	596639744	62	5256
2026-01-03 08:39:51.24	95.30	44.70	-49.9	-52.9	12.9	8.01e-05	0	56	0	598736896	62	5115
2026-01-03 08:39:52.23	94.93	44.91	-49.8	-52.9	12.9	3.66e-05	0	56	0	600834048	62	5107
2026-01-03 08:39:53.22	94.55	45.12	-49.9	-53.0	12.8	7.32e-05	0	56	0	601882624	62	5180
2026-01-03 08:39:54.21	94.16	45.33	-49.9	-52.8	13.0	3.58e-05	0	56	0	603979776	62	5083
2026-01-03 08:39:55.19	93.77	45.53	-49.7	-52.6	13.1	2.28e-05	0	55	0	606076928	62	4963
2026-01-03 08:39:56.18	93.38	45.74	-49.7	-52.7	13.1	2.21e-05	0	56	0	608174080	62	5022
2026-01-03 08:39:57.18	92.97	45.95	-49.7	-52.6	13.1	3.35e-05	0	56	0	610271232	62	4982
2026-01-03 08:39:58.16	92.57	46.16	-49.8	-52.9	12.9	3.35e-05	0	56	0	611319808	62	5117
2026-01-03 08:39:59.15	92.16	46.37	-50.1	-53.4	12.3	5.64e-05	0	56	0	613416960	62	5459
2026-01-03 08:40:00.15	91.73	46.58	-50.0	-53.5	12.3	1.69e-04	0	56	0	615514112	62	5467
2026-01-03 08:40:01.14	91.31	46.78	-50.1	-53.5	12.3	1.72e-04	0	56	0	617611264	62	5473
2026-01-03 08:40:02.13	90.88	46.99	-50.0	-53.2	12.5	1.39e-04	0	56	0	618659840	62	5321
2026-01-03 08:40:03.13	90.44	47.19	-49.8	-52.9	12.8	6.71e-05	0	56	0	620756992	62	5127
2026-01-03 08:40:04.12	90.00	47.40	-49.8	-52.7	13.1	4.42e-05	0	56	0	622854144	62	4993
2026-01-03 08:40:05.11	89.56	47.60	-49.9	-52.9	12.9	2.05e-05	0	56	0	624951296	62	5126
2026-01-03 08:40:06.09	89.11	47.80	-49.9	-53.0	12.8	5.03e-05	0	56	0	625999872	62	5201
2026-01-03 08:40:07.06	88.66	48.00	-50.0	-53.2	12.6	9.68e-05	0	56	0	628097024	62	5303
2026-01-03 08:40:08.06	88.19	48.20	-50.0	-53.2	12.6	9.76e-05	0	56	0	630194176	62	5302
2026-01-03 08:40:09.05	87.72	48.40	-50.0	-53.2	12.6	9.61e-05	0	56	0	632291328	62	5304
2026-01-03 08:40:10.04	87.25	48.59	-50.0	-53.1	12.7	6.86e-05	0	56	0	634388480	62	5245
2026-01-03 08:40:11.04	86.76	48.79	-50.0	-53.1	12.6	7.62e-05	0	56	0	635437056	62	5276
2026-01-03 08:40:12.02	86.28	48.99	-49.7	-52.6	13.2	4.88e-05	0	56	0	637534208	62	4951
2026-01-03 08:40:13.02	85.78	49.18	-49.5	-52.3	13.5	1.52e-05	0	56	0	639631360	62	4777
2026-01-03 08:40:14.01	85.27	49.37	-49.4	-52.1	13.7	8.30e-06	0	56	0	641728512	61	4941
2026-01-03 08:40:15.00	84.77	49.56	-49.2	-51.7	14.1	1.50e-06	0	56	0	642777088	61	4715
2026-01-03 08:40:15.99	84.25	49.75	-49.2	-51.8	14.0	1.50e-06	0	56	0	644874240	61	4767
2026-01-03 08:40:16.98	83.73	49.94	-49.4	-51.9	13.9	1.50e-06	0	56	0	646971392	61	4862
2026-01-03 08:40:17.96	83.21	50.12	-48.9	-51.2	14.6	7.00e-07	0	56	0	649068544	61	4477
2026-01-03 08:40:18.96	82.67	50.31	-48.6	-50.8	15.0	0.00e+00	0	56	0	650117120	60	4536
2026-01-03 08:40:19.95	82.14	50.49	-48.3	-50.3	15.6	0.00e+00	0	56	0	652214272	59	4502
2026-01-03 08:40:20.94	81.59	50.67	-48.0	-49.8	16.0	0.00e+00	0	56	0	654311424	59	4277
2026-01-03 08:40:21.93	81.04	50.84	-48.0	-49.9	16.0	0.00e+00	0	56	0	656408576	59	4310
2026-01-03 08:40:22.92	80.48	51.02	-48.1	-50.0	15.8	0.00e+00	0	56	0	658505728	59	4375
2026-01-03 08:40:23.90	79.92	51.19	-48.2	-50.2	15.6	0.00e+00	0	56	0	659554304	59	4459
2026-01-03 08:40:24.90	79.34	51.36	-48.4	-50.4	15.4	0.00e+00	0	56	0	661651456	59	4570
2026-01-03 08:40:25.89	78.76	51.53	-48.3	-50.4	15.5	0.00e+00	0	56	0	663748608	59	4549
2026-01-03 08:40:26.87	78.18	51.69	-48.2	-50.2	15.6	0.00e+00	0	56	0	665845760	59	4472
2026-01-03 08:40:27.86	77.59	51.85	-48.4	-50.4	15.5	0.00e+00	0	56	0	666894336	59	4550
2026-01-03 08:40:28.84	77.00	52.01	-48.1	-50.0	15.9	0.00e+00	0	56	0	668991488	59	4352
2026-01-03 08:40:29.83	76.40	52.17	-48.1	-50.0	15.9	0.00e+00	0	56	0	671088640	59	4350
2026-01-03 08:40:30.81	75.79	52.32	-48.4	-50.6	15.2	0.00e+00	0	56	0	673185792	59	4659
2026-01-03 08:40:31.81	75.17	52.48	-48.5	-50.6	15.2	0.00e+00	0	56	0	675282944	59	4676
2026-01-03 08:40:32.81	74.54	52.63	-48.5	-50.6	15.2	0.00e+00	0	56	0	676331520	59	4687
2026-01-03 08:40:33.80	73.91	52.77	-48.4	-50.4	15.5	0.00e+00	0	56	0	678428672	59	4557
2026-01-03 08:40:34.78	73.28	52.91	-48.2	-50.1	15.7	0.00e+00	0	56	0	680525824	59	4423
2026-01-03 08:40:35.78	72.63	53.05	-48.3	-50.3	15.6	0.00e+00	0	56	0	682622976	59	4518
2026-01-03 08:40:36.77	71.98	53.19	-48.1	-50.0	15.9	0.00e+00	0	56	0	683671552	59	4361
2026-01-03 08:40:37.76	71.33	53.32	-47.7	-49.4	16.4	0.00e+00	0	56	0	685768704	58	4311
2026-01-03 08:40:38.76	70.66	53.45	-47.6	-49.4	16.5	0.00e+00	0	56	0	687865856	58	4295
2026-01-03 08:40:39.75	70.00	53.57	-47.6	-49.3	16.6	0.00e+00	0	56	0	689963008	58	4261
2026-01-03 08:40:40.73	69.33	53.69	-47.3	-48.8	17.0	0.00e+00	0	56	0	691011584	57	4281
2026-01-03 08:40:41.72	68.66	53.81	-47.0	-48.4	17.5	0.00e+00	0	56	0	693108736	57	4091
2026-01-03 08:40:42.72	67.97	53.93	-47.0	-48.5	17.3	0.00e+00	0	56	0	695205888	56	4353
2026-01-03 08:40:43.71	67.28	54.04	-47.1	-48.5	17.4	0.00e+00	0	56	0	697303040	56	4376
2026-01-03 08:40:44.70	66.59	54.14	-46.9	-48.3	17.5	0.00e+00	0	56	0	698351616	56	4287
2026-01-03 08:40:45.69	65.89	54.24	-46.8	-48.2	17.6	0.00e+00	0	56	0	700448768	56	4216
2026-01-03 08:40:46.67	65.19	54.34	-46.9	-48.3	17.5	0.00e+00	0	56	0	702545920	56	4254
2026-01-03 08:40:47.66	64.48	54.43	-46.6	-48.0	17.7	0.00e+00	0	56	0	704643072	56	4138
2026-01-03 08:40:48.66	63.77	54.52	-46.4	-47.7	18.1	0.00e+00	0	56	0	706740224	56	3993
2026-01-03 08:40:49.65	63.05	54.61	-46.2	-47.4	18.2	0.00e+00	0	56	0	707788800	55	4098
2026-01-03 08:40:50.64	62.33	54.69	-46.2	-47.4	18.2	0.00e+00	0	56	0	709885952	55	4089
2026-01-03 08:40:51.64	61.60	54.76	-46.0	-47.2	18.5	0.00e+00	0	56	0	711983104	55	3978
2026-01-03 08:40:52.63	60.87	54.84	-45.7	-46.8	18.8	0.00e+00	0	56	0	714080256	54	4041
2026-01-03 08:40:53.62	60.14	54.90	-45.8	-47.0	18.8	0.00e+00	0	56	0	715128832	54	4100
2026-01-03 08:40:54.61	59.40	54.97	-45.7	-46.9	18.8	0.00e+00	0	56	0	717225984	54	4087
2026-01-03 08:40:55.60	58.66	55.02	-45.4	-46.5	19.1	0.00e+00	0	56	0	719323136	53	4127
2026-01-03 08:40:56.59	57.92	55.08	-45.3	-46.3	19.3	0.00e+00	0	56	0	721420288	53	4049
2026-01-03 08:40:57.58	57.18	55.12	-45.5	-46.6	19.0	0.00e+00	0	56	0	723517440	53	4184
2026-01-03 08:40:58.56	56.44	55.17	-45.5	-46.6	19.0	0.00e+00	0	56	0	724566016	53	4175
2026-01-03 08:40:59.56	55.68	55.21	-45.4	-46.5	19.1	0.00e+00	0	56	0	726663168	53	4129
2026-01-03 08:41:00.54	54.94	55.24	-45.4	-46.6	19.1	0.00e+00	0	56	0	728760320	53	4146
2026-01-03 08:41:01.54	54.18	55.27	-45.6	-46.7	19.0	0.00e+00	0	56	0	730857472	53	4227
2026-01-03 08:41:02.51	53.44	55.29	-45.8	-47.0	18.7	0.00e+00	0	56	0	731906048	53	4346
2026-01-03 08:41:03.51	52.68	55.31	-45.8	-47.0	18.7	0.00e+00	0	56	0	734003200	53	4351
2026-01-03 08:41:04.50	51.93	55.32	-45.8	-46.9	18.7	0.00e+00	0	56	0	736100352	53	4332
2026-01-03 08:41:05.48	51.18	55.33	-45.9	-47.2	18.6	0.00e+00	0	56	0	738197504	53	4446
2026-01-03 08:41:06.48	50.41	55.34	-46.0	-47.3	18.4	0.00e+00	0	56	0	739246080	53	4506
2026-01-03 08:41:07.47	49.66	55.34	-46.2	-47.5	18.3	0.00e+00	0	56	0	741343232	54	4364
2026-01-03 08:41:08.45	48.91	55.33	-46.3	-47.6	18.1	0.00e+00	0	56	0	743440384	54	4418
2026-01-03 08:41:09.45	48.15	55.32	-46.3	-47.6	18.1	0.00e+00	0	56	0	745537536	54	4405
2026-01-03 08:41:10.45	47.38	55.31	-46.2	-47.5	18.2	0.00e+00	0	56	0	747634688	54	4361
2026-01-03 08:41:11.44	46.63	55.29	-46.1	-47.4	18.3	0.00e+00	0	56	0	748683264	54	4324
2026-01-03 08:41:12.42	45.88	55.26	-46.0	-47.3	18.5	0.00e+00	0	56	0	750780416	54	4259
2026-01-03 08:41:13.41	45.13	55.23	-46.1	-47.3	18.4	0.00e+00	0	56	0	752877568	54	4281
2026-01-03 08:41:14.40	44.38	55.19	-46.3	-47.6	18.2	0.00e+00	0	56	0	754974720	54	4402
2026-01-03 08:41:15.39	43.64	55.15	-46.2	-47.4	18.3	0.00e+00	0	56	0	756023296	54	4331
2026-01-03 08:41:16.39	42.88	55.11	-45.8	-47.0	18.7	0.00e+00	0	56	0	758120448	54	4123
2026-01-03 08:41:17.37	42.15	55.06	-45.8	-46.9	18.8	0.00e+00	0	56	0	760217600	54	4093
2026-01-03 08:41:18.36	41.41	55.01	-45.5	-46.7	19.0	0.00e+00	0	56	0	762314752	54	3960
2026-01-03 08:41:19.35	40.67	54.95	-45.1	-46.1	19.5	0.00e+00	0	56	0	763363328	53	3943
2026-01-03 08:41:20.33	39.94	54.88	-45.0	-46.1	19.6	0.00e+00	0	56	0	765460480	53	3925
2026-01-03 08:41:21.32	39.21	54.82	-45.1	-46.1	19.5	0.00e+00	0	56	0	767557632	53	3945
2026-01-03 08:41:22.31	38.49	54.74	-45.1	-46.2	19.5	0.00e+00	0	56	0	769654784	53	3982
2026-01-03 08:41:23.29	37.77	54.67	-45.0	-46.1	19.6	0.00e+00	0	56	0	771751936	53	3922
2026-01-03 08:41:24.27	37.06	54.59	-45.0	-46.0	19.6	0.00e+00	0	56	0	772800512	53	3910
2026-01-03 08:41:25.26	36.34	54.50	-45.2	-46.3	19.4	0.00e+00	0	56	0	774897664	53	4009
2026-01-03 08:41:26.25	35.63	54.41	-45.1	-46.2	19.5	0.00e+00	0	56	0	776994816	53	3981
2026-01-03 08:41:27.24	34.93	54.32	-45.6	-46.8	18.9	0.00e+00	0	56	0	779091968	53	4255
2026-01-03 08:41:28.23	34.23	54.22	-45.5	-46.6	19.1	0.00e+00	0	56	0	780140544	53	4157
2026-01-03 08:41:29.23	33.52	54.12	-45.7	-46.9	18.8	0.00e+00	0	56	0	782237696	53	4319
2026-01-03 08:41:30.21	32.84	54.01	-46.0	-47.2	18.5	0.00e+00	0	57	0	784334848	53	4468
2026-01-03 08:41:31.20	32.15	53.90	-46.4	-47.7	18.1	0.00e+00	0	56	0	786432000	54	4443
2026-01-03 08:41:32.19	31.47	53.78	-46.5	-47.8	17.9	0.00e+00	0	56	0	787480576	54	4539
2026-01-03 08:41:33.18	30.80	53.67	-46.6	-48.0	17.6	0.00e+00	0	56	0	789577728	55	4387
2026-01-03 08:41:34.17	30.13	53.54	-46.8	-48.2	17.6	0.00e+00	0	56	0	791674880	55	4460
2026-01-03 08:41:35.17	29.46	53.42	-47.0	-48.4	17.3	0.00e+00	0	56	0	793772032	55	4588
2026-01-03 08:41:36.16	28.80	53.29	-47.6	-49.1	17.1	0.00e+00	0	56	0	795869184	56	4689
2026-01-03 08:41:37.16	28.14	53.15	-47.4	-49.1	16.7	0.00e+00	0	56	0	796917760	56	4673
2026-01-03 08:41:38.15	27.50	53.02	-47.2	-48.8	17.1	0.00e+00	0	56	0	799014912	56	4506
2026-01-03 08:41:39.13	26.86	52.88	-47.2	-48.7	17.1	0.00e+00	0	56	0	801112064	56	4465
2026-01-03 08:41:40.12	26.23	52.74	-47.3	-48.8	17.0	0.00e+00	0	57	0	803209216	56	4524
2026-01-03 08:41:41.11	25.60	52.59	-47.3	-48.9	16.9	0.00e+00	0	56	0	804257792	56	4580
2026-01-03 08:41:42.10	24.98	52.44	-47.3	-48.8	17.0	0.00e+00	0	57	0	806354944	56	4538
2026-01-03 08:41:43.10	24.36	52.29	-47.3	-48.8	17.0	0.00e+00	0	56	0	808452096	56	4522
2026-01-03 08:41:44.09	23.75	52.13	-47.3	-48.9	16.9	0.00e+00	0	56	0	810549248	56	4567
2026-01-03 08:41:45.09	23.14	51.98	-47.3	-48.8	17.0	0.00e+00	0	57	0	811597824	56	4538
2026-01-03 08:41:46.08	22.55	51.81	-47.2	-48.8	17.1	0.00e+00	0	56	0	813694976	56	4528
2026-01-03 08:41:47.07	21.96	51.65	-47.5	-49.2	16.7	0.00e+00	0	56	0	815792128	56	4716
2026-01-03 08:41:48.06	21.38	51.49	-47.5	-49.2	16.6	0.00e+00	0	56	0	817889280	56	4733
2026-01-03 08:41:49.06	20.80	51.32	-47.4	-49.0	16.8	0.00e+00	0	56	0	819986432	56	4641
2026-01-03 08:41:50.05	20.23	51.15	-47.3	-48.8	17.0	0.00e+00	0	56	0	821035008	56	4543
2026-01-03 08:41:51.03	19.67	50.97	-47.5	-49.1	16.8	0.00e+00	0	56	0	823132160	56	4667
2026-01-03 08:41:52.02	19.11	50.80	-47.7	-49.4	16.5	0.00e+00	0	56	0	825229312	57	4559
2026-01-03 08:41:53.01	18.56	50.62	-48.2	-50.0	15.9	0.00e+00	0	56	0	827326464	58	4627
2026-01-03 08:41:54.01	18.01	50.44	-48.1	-50.0	15.9	0.00e+00	0	56	0	828375040	58	4636
2026-01-03 08:41:55.00	17.48	50.26	-48.4	-50.4	15.5	0.00e+00	0	56	0	830472192	58	4826
2026-01-03 08:41:55.99	16.95	50.08	-48.4	-50.4	15.4	0.00e+00	0	56	0	832569344	58	4867
2026-01-03 08:41:56.98	16.42	49.89	-48.7	-50.8	15.1	0.00e+00	0	56	0	834666496	59	4762
2026-01-03 08:41:57.97	15.91	49.70	-48.7	-50.9	15.0	0.00e+00	0	56	0	836763648	59	4820
2026-01-03 08:41:58.96	15.40	49.52	-49.3	-51.8	14.0	7.00e-07	0	56	0	837812224	60	5070
2026-01-03 08:41:59.96	14.89	49.32	-49.4	-52.1	13.7	2.20e-06	0	56	0	839909376	60	5271
2026-01-03 08:42:00.95	14.39	49.13	-49.7	-52.6	13.2	2.05e-05	0	56	0	842006528	61	5267
2026-01-03 08:42:01.94	13.90	48.94	-49.7	-52.8	13.0	3.12e-05	0	56	0	844103680	61	5347
2026-01-03 08:42:02.93	13.41	48.74	-50.2	-53.7	12.2	1.98e-04	0	56	0	845152256	62	5593
2026-01-03 08:42:03.92	12.93	48.55	-50.2	-53.7	12.1	2.67e-04	0	56	0	847249408	62	5605
2026-01-03 08:42:04.91	12.46	48.35	-50.1	-53.5	12.2	2.27e-04	0	57	0	849346560	62	5496
2026-01-03 08:42:05.91	11.98	48.15	-50.4	-54.0	11.7	2.43e-04	0	56	0	851443712	62	5851
2026-01-03 08:42:06.90	11.52	47.95	-50.5	-53.9	11.8	5.90e-04	0	56	0	852492288	62	5781
2026-01-03 08:42:07.89	11.07	47.75	-50.5	-54.2	11.6	5.89e-04	0	56	0	854589440	62	5979
2026-01-03 08:42:08.88	10.62	47.55	-50.8	-54.7	11.0	1.39e-03	0	57	0	856686592	63	5984
2026-01-03 08:42:09.86	10.18	47.35	-50.9	-55.4	10.2	5.11e-03	0	56	0	858783744	64	6103
2026-01-03 08:42:10.85	9.74	47.15	-50.6	-54.4	11.2	2.95e-03	0	56	0	860880896	64	5450
2026-01-03 08:42:11.83	9.31	46.94	-49.9	-53.0	12.7	2.60e-04	0	56	0	861929472	63	4878
2026-01-03 08:42:12.82	8.89	46.74	-49.7	-52.6	13.2	3.05e-05	0	56	0	864026624	62	4959
2026-01-03 08:42:13.82	8.46	46.53	-50.0	-53.2	12.7	3.81e-05	0	57	0	866123776	62	5291
2026-01-03 08:42:14.81	8.05	46.32	-50.0	-53.2	12.5	1.17e-04	0	56	0	868220928	62	5313
2026-01-03 08:42:15.80	7.64	46.12	-50.1	-53.5	12.3	1.46e-04	0	56	0	869269504	62	5476
2026-01-03 08:42:16.79	7.23	45.91	-50.1	-53.4	12.3	1.95e-04	0	56	0	871366656	62	5445
2026-01-03 08:42:17.79	6.83	45.70	-49.9	-53.2	12.6	1.14e-04	0	56	0	873463808	62	5296
2026-01-03 08:42:18.78	6.43	45.49	-49.7	-52.6	13.2	5.18e-05	0	56	0	875560960	62	4945
2026-01-03 08:42:19.77	6.05	45.28	-49.7	-52.7	13.1	2.21e-05	0	57	0	877658112	62	5010
2026-01-03 08:42:20.76	5.66	45.07	-49.6	-52.5	13.3	1.83e-05	0	56	0	878706688	62	4919
2026-01-03 08:42:21.76	5.28	44.86	-49.5	-52.4	13.4	1.75e-05	0	56	0	880803840	62	4849
2026-01-03 08:42:22.75	4.91	44.65	-49.6	-52.5	13.3	1.52e-05	0	57	0	882900992	62	4877
2026-01-03 08:42:23.74	4.54	44.44	-49.7	-52.7	13.1	1.67e-05	0	57	0	884998144	62	5030
2026-01-03 08:42:24.74	4.17	44.23	-49.8	-52.9	12.9	4.88e-05	0	56	0	886046720	62	5123
2026-01-03 08:42:25.73	3.81	44.02	-49.7	-52.8	13.1	3.20e-05	0	56	0	888143872	62	5051
2026-01-03 08:42:26.72	3.46	43.81	-49.8	-52.7	13.1	3.96e-05	0	56	0	890241024	62	5010
2026-01-03 08:42:27.70	3.11	43.60	-49.8	-52.6	13.1	3.05e-05	0	56	0	892338176	62	4978
2026-01-03 08:42:28.69	2.77	43.39	-49.8	-52.7	13.1	2.51e-05	0	56	0	893386752	62	5018
2026-01-03 08:42:29.67	2.43	43.18	-49.9	-53.0	12.8	5.34e-05	0	56	0	895483904	62	5163
2026-01-03 08:42:30.66	2.10	42.97	-49.9	-53.1	12.7	8.39e-05	0	57	0	897581056	62	5234
2026-01-03 08:42:31.66	1.76	42.76	-50.1	-53.2	12.6	7.17e-05	0	56	0	899678208	62	5310
2026-01-03 08:42:32.65	1.43	42.55	-50.2	-53.6	12.2	1.51e-04	0	56	0	901775360	62	5533
2026-01-03 08:42:33.64	1.11	42.34	-50.1	-53.4	12.3	2.00e-04	0	57	0	902823936	62	5429
2026-01-03 08:42:34.63	0.79	42.13	-50.1	-53.3	12.5	1.49e-04	0	57	0	904921088	62	5387
2026-01-03 08:42:35.62	0.48	41.92	-50.2	-53.6	12.1	1.81e-04	0	57	0	907018240	62	5531
2026-01-03 08:42:36.60	0.17	41.71	-50.3	-54.0	11.7	5.38e-04	0	56	0	909115392	62	5800
2026-01-03 08:42:37.60	359.86	41.50	-50.3	-54.0	11.6	4.56e-04	0	57	0	910163968	62	5831
2026-01-03 08:42:38.59	359.56	41.29	-50.3	-54.0	11.7	6.26e-04	0	57	0	912261120	62	5803
2026-01-03 08:42:39.58	359.26	41.08	-50.0	-53.4	12.3	1.78e-04	0	57	0	914358272	62	5426
2026-01-03 08:42:40.57	358.97	40.87	-50.0	-53.2	12.5	1.19e-04	0	56	0	916455424	62	5331
2026-01-03 08:42:41.57	358.67	40.66	-50.0	-53.2	12.5	1.18e-04	0	57	0	918552576	62	5318
2026-01-03 08:42:42.56	358.39	40.45	-50.0	-53.2	12.6	8.01e-05	0	57	0	919601152	62	5293
2026-01-03 08:42:43.56	358.10	40.24	-49.9	-52.9	12.9	5.87e-05	0	56	0	921698304	62	5101
2026-01-03 08:42:44.54	357.83	40.04	-49.9	-53.1	12.7	6.86e-05	0	56	0	923795456	62	5226
2026-01-03 08:42:45.54	357.55	39.83	-49.9	-53.0	12.8	7.47e-05	0	57	0	925892608	62	5207
2026-01-03 08:42:46.53	357.27	39.62	-49.9	-53.1	12.6	7.62e-05	0	57	0	926941184	62	5251
2026-01-03 08:42:47.52	357.01	39.42	-49.9	-53.1	12.7	7.01e-05	0	57	0	929038336	62	5221
2026-01-03 08:42:48.51	356.74	39.21	-49.9	-53.1	12.6	9.99e-05	0	57	0	931135488	62	5273
2026-01-03 08:42:49.49	356.48	39.01	-50.0	-53.1	12.6	1.16e-04	0	57	0	933232640	62	5279
2026-01-03 08:42:50.47	356.23	38.81	-50.1	-53.3	12.5	1.37e-04	0	57	0	934281216	62	5352
2026-01-03 08:42:51.46	355.97	38.61	-50.0	-53.2	12.5	1.56e-04	0	57	0	936378368	62	5321
2026-01-03 08:42:52.45	355.72	38.40	-50.1	-53.4	12.3	2.18e-04	0	57	0	938475520	62	5443
2026-01-03 08:42:53.45	355.47	38.20	-50.0	-53.2	12.5	1.33e-04	0	57	0	940572672	62	5320
2026-01-03 08:42:54.43	355.22	38.00	-50.0	-53.0	12.7	7.55e-05	0	57	0	942669824	62	5204
2026-01-03 08:42:55.43	354.98	37.80	-50.0	-53.1	12.6	1.08e-04	0	57	0	943718400	62	5270
2026-01-03 08:42:56.41	354.74	37.60	-50.1	-53.2	12.5	1.17e-04	0	57	0	945815552	62	5318
2026-01-03 08:42:57.41	354.50	37.40	-49.9	-52.9	12.8	8.77e-05	0	57	0	947912704	62	5128
2026-01-03 08:42:58.40	354.27	37.20	-49.8	-52.7	13.0	5.26e-05	0	57	0	950009856	62	5003
2026-01-03 08:42:59.39	354.04	37.00	-49.8	-52.7	13.0	2.82e-05	0	57	0	951058432	62	5019
2026-01-03 08:43:00.38	353.81	36.80	-49.7	-52.6	13.1	3.50e-05	0	57	0	953155584	62	4978
2026-01-03 08:43:01.37	353.58	36.60	-49.7	-52.7	13.0	3.05e-05	0	57	0	955252736	62	5028
2026-01-03 08:43:02.35	353.36	36.41	-49.7	-52.6	13.2	3.05e-05	0	57	0	957349888	62	4957
2026-01-03 08:43:03.35	353.14	36.21	-49.8	-52.8	13.0	5.11e-05	0	57	0	958398464	62	5053
2026-01-03 08:43:04.34	352.92	36.01	-49.9	-53.0	12.8	3.58e-05	0	57	0	960495616	62	5166
2026-01-03 08:43:05.33	352.71	35.82	-49.9	-52.9	12.8	9.23e-05	0	57	0	962592768	62	5158
2026-01-03 08:43:06.32	352.49	35.63	-49.5	-52.5	13.2	2.51e-05	0	57	0	964689920	62	4894
2026-01-03 08:43:07.32	352.28	35.43	-49.6	-52.5	13.3	2.05e-05	0	57	0	966787072	62	4880
2026-01-03 08:43:08.31	352.08	35.24	-49.6	-52.3	13.5	1.60e-05	0	57	0	967835648	62	4781
2026-01-03 08:43:09.30	351.87	35.05	-49.7	-52.6	13.1	1.98e-05	0	57	0	969932800	62	4932
2026-01-03 08:43:10.29	351.67	34.86	-49.8	-52.8	12.9	3.96e-05	0	56	0	972029952	62	5081
2026-01-03 08:43:11.29	351.47	34.67	-50.1	-53.2	12.4	6.10e-05	0	57	0	974127104	62	5333
2026-01-03 08:43:12.28	351.27	34.48	-50.2	-53.4	12.2	1.58e-04	0	57	0	975175680	62	5463
2026-01-03 08:43:13.27	351.07	34.29	-50.1	-53.4	12.2	1.94e-04	0	56	0	977272832	62	5451
2026-01-03 08:43:14.26	350.88	34.10	-50.1	-53.3	12.3	2.11e-04	0	57	0	979369984	62	5400
2026-01-03 08:43:15.25	350.69	33.91	-49.9	-52.9	12.8	1.23e-04	0	57	0	981467136	62	5150
2026-01-03 08:43:16.25	350.50	33.72	-49.6	-52.6	13.1	7.24e-05	0	57	0	982515712	62	4945
2026-01-03 08:43:17.24	350.32	33.54	-49.8	-52.7	13.0	3.12e-05	0	57	0	984612864	62	5005
2026-01-03 08:43:18.22	350.13	33.36	-49.8	-52.7	13.0	4.11e-05	0	57	0	986710016	62	5008
2026-01-03 08:43:19.21	349.95	33.17	-49.7	-52.5	13.2	2.05e-05	0	57	0	988807168	62	4906
2026-01-03 08:43:20.20	349.77	32.99	-49.7	-52.7	13.1	3.12e-05	0	57	0	990904320	62	4989
2026-01-03 08:43:21.19	349.59	32.81	-49.9	-53.0	12.7	6.25e-05	0	57	0	991952896	62	5194
2026-01-03 08:43:22.18	349.42	32.63	-50.0	-53.1	12.6	7.17e-05	0	57	0	994050048	62	5247
2026-01-03 08:43:23.17	349.24	32.45	-50.1	-53.4	12.3	1.13e-04	0	57	0	996147200	62	5429
2026-01-03 08:43:24.16	349.07	32.27	-50.1	-53.3	12.4	1.63e-04	0	57	0	998244352	62	5389
2026-01-03 08:43:25.15	348.90	32.09	-50.1	-53.5	12.2	1.74e-04	0	57	0	999292928	62	5492
2026-01-03 08:43:26.15	348.73	31.91	-50.1	-53.5	12.1	2.40e-04	0	57	0	1001390080	62	5527
2026-01-03 08:43:27.14	348.57	31.73	-50.3	-53.8	11.9	3.49e-04	0	57	0	1003487232	62	5672
2026-01-03 08:43:28.13	348.40	31.55	-50.3	-53.8	11.8	4.48e-04	0	57	0	1005584384	62	5702
2026-01-03 08:43:29.11	348.24	31.38	-50.4	-53.9	11.7	5.26e-04	0	57	0	1006632960	62	5767
2026-01-03 08:43:30.09	348.08	31.20	-50.6	-54.4	11.2	8.89e-04	0	57	0	1008730112	62	6081
2026-01-03 08:43:31.09	347.92	31.03	-50.5	-54.3	11.3	1.18e-03	0	57	0	1010827264	62	6029
2026-01-03 08:43:32.07	347.77	30.86	-50.3	-54.1	11.5	8.25e-04	0	57	0	1012924416	62	5890
2026-01-03 08:43:33.05	347.61	30.68	-50.0	-53.5	12.2	3.50e-04	0	57	0	1015021568	62	5494
2026-01-03 08:43:34.04	347.46	30.51	-49.8	-52.9	12.7	1.38e-04	0	57	0	1016070144	62	5156
2026-01-03 08:43:35.03	347.31	30.34	-49.7	-52.7	13.0	6.40e-05	0	57	0	1018167296	62	5014
2026-01-03 08:43:36.02	347.15	30.17	-49.7	-52.7	12.9	3.96e-05	0	57	0	1020264448	62	5039
2026-01-03 08:43:37.01	347.01	30.00	-49.6	-52.6	13.1	2.97e-05	0	57	0	1022361600	62	4954
2026-01-03 08:43:37.99	346.86	29.83	-49.5	-52.6	13.1	2.36e-05	0	57	0	1023410176	62	4941
2026-01-03 08:43:38.98	346.71	29.67	-49.7	-52.8	12.9	4.88e-05	0	57	0	1025507328	62	5054
2026-01-03 08:43:39.96	346.57	29.50	-49.7	-52.8	12.8	4.42e-05	0	57	0	1027604480	62	5067
2026-01-03 08:43:40.95	346.43	29.33	-49.7	-52.7	13.0	5.87e-05	0	57	0	1029701632	62	5027
2026-01-03 08:43:41.94	346.29	29.17	-49.6	-52.7	12.9	3.73e-05	0	57	0	1030750208	62	5026
2026-01-03 08:43:42.93	346.15	29.00	-49.7	-52.8	12.9	4.80e-05	0	57	0	1032847360	62	5076
2026-01-03 08:43:43.92	346.01	28.84	-49.9	-53.0	12.7	8.23e-05	0	57	0	1034944512	62	5169
2026-01-03 08:43:44.90	345.87	28.68	-49.7	-52.7	13.0	6.63e-05	0	57	0	1037041664	62	5026
2026-01-03 08:43:45.90	345.74	28.51	-49.7	-52.7	13.0	4.04e-05	0	57	0	1039138816	62	4989
2026-01-03 08:43:46.89	345.60	28.35	-49.7	-52.8	12.8	6.40e-05	0	57	0	1040187392	62	5085
2026-01-03 08:43:47.88	345.47	28.19	-49.9	-53.1	12.6	7.93e-05	0	57	0	1042284544	62	5232
2026-01-03 08:43:48.87	345.34	28.03	-49.8	-52.7	12.9	8.01e-05	0	57	0	1044381696	62	5031
2026-01-03 08:43:49.86	345.21	27.87	-49.5	-52.5	13.1	3.58e-05	0	57	0	1046478848	62	4898
2026-01-03 08:43:50.85	345.08	27.71	-49.4	-52.1	13.5	9.10e-06	0	57	0	1047527424	61	4982
2026-01-03 08:43:51.84	344.95	27.55	-49.4	-52.2	13.5	1.06e-05	0	57	0	1049624576	61	4984
2026-01-03 08:43:52.82	344.83	27.40	-49.4	-52.1	13.5	6.80e-06	0	57	0	1051721728	61	4954
2026-01-03 08:43:53.81	344.70	27.24	-49.3	-51.9	13.7	6.10e-06	0	57	0	1053818880	61	4847
2026-01-03 08:43:54.81	344.58	27.08	-49.1	-51.6	13.9	6.10e-06	0	57	0	1054867456	61	4700
2026-01-03 08:43:55.79	344.46	26.93	-49.1	-51.7	14.0	3.00e-06	0	57	0	1056964608	61	4718
2026-01-03 08:43:56.79	344.34	26.77	-49.1	-51.7	14.0	7.00e-07	0	57	0	1059061760	61	4722
2026-01-03 08:43:57.78	344.22	26.62	-49.0	-51.5	14.1	3.80e-06	0	57	0	1061158912	61	4607
2026-01-03 08:43:58.77	344.10	26.47	-48.9	-51.2	14.4	7.00e-07	0	57	0	1063256064	60	4732
2026-01-03 08:43:59.76	343.98	26.31	-48.8	-51.1	14.5	1.50e-06	0	57	0	1064304640	60	4683
2026-01-03 08:44:00.76	343.86	26.16	-48.9	-51.2	14.4	1.50e-06	0	57	0	1066401792	60	4753
2026-01-03 08:44:01.74	343.75	26.01	-48.8	-51.2	14.4	1.50e-06	0	57	0	1068498944	60	4740
2026-01-03 08:44:02.72	343.64	25.86	-48.9	-51.4	14.3	0.00e+00	0	57	0	1070596096	60	4815
2026-01-03 08:44:03.71	343.52	25.71	-49.0	-51.5	14.1	1.50e-06	0	57	0	1071644672	60	4899
2026-01-03 08:44:04.69	343.41	25.57	-49.0	-51.5	14.1	7.00e-07	0	57	0	1073741824	60	4887
2026-01-03 08:44:05.68	343.30	25.42	-48.9	-51.5	14.2	7.00e-07	0	57	0	1075838976	60	4875
2026-01-03 08:44:06.67	343.19	25.27	-49.1	-51.8	13.9	1.50e-06	0	57	0	1077936128	60	5049
2026-01-03 08:44:07.66	343.08	25.12	-49.0	-51.5	14.1	5.30e-06	0	57	0	1078984704	60	4915
2026-01-03 08:44:08.65	342.97	24.98	-48.8	-51.1	14.5	3.00e-06	0	57	0	1081081856	60	4702
2026-01-03 08:44:09.65	342.87	24.83	-48.6	-50.8	14.8	0.00e+00	0	57	0	1083179008	60	4507
2026-01-03 08:44:10.64	342.76	24.69	-48.5	-50.6	15.0	0.00e+00	0	57	0	1085276160	60	4412
2026-01-03 08:44:11.64	342.66	24.54	-48.4	-50.5	15.1	0.00e+00	0	57	0	1087373312	59	4610
2026-01-03 08:44:12.62	342.55	24.40	-48.4	-50.5	15.1	0.00e+00	0	57	0	1088421888	59	4620
2026-01-03 08:44:13.61	342.45	24.26	-48.5	-50.7	14.9	0.00e+00	0	57	0	1090519040	59	4713
2026-01-03 08:44:14.60	342.35	24.11	-48.6	-50.8	14.8	0.00e+00	0	57	0	1092616192	59	4803
2026-01-03 08:44:15.59	342.25	23.97	-48.6	-50.9	14.7	0.00e+00	0	57	0	1094713344	59	4834
2026-01-03 08:44:16.57	342.15	23.83	-48.6	-51.0	14.6	7.00e-07	0	57	0	1095761920	59	4896
2026-01-03 08:44:17.56	342.05	23.69	-48.8	-51.2	14.4	0.00e+00	0	57	0	1097859072	59	5001
2026-01-03 08:44:18.55	341.95	23.56	-49.0	-51.4	14.2	0.00e+00	0	57	0	1099956224	59	5111
2026-01-03 08:44:19.54	341.85	23.42	-49.0	-51.4	14.2	7.00e-07	0	57	0	1102053376	59	5111
2026-01-03 08:44:20.54	341.76	23.28	-49.0	-51.6	14.0	1.50e-06	0	57	0	1103101952	59	5219
2026-01-03 08:44:21.53	341.66	23.14	-48.9	-51.4	14.1	4.50e-06	0	57	0	1105199104	59	5138
2026-01-03 08:44:22.52	341.57	23.00	-49.1	-51.6	14.0	3.80e-06	0	57	0	1107296256	59	5256
2026-01-03 08:44:23.51	341.47	22.87	-49.0	-51.5	14.1	4.50e-06	0	57	0	1109393408	60	4900
2026-01-03 08:44:24.51	341.38	22.73	-48.8	-51.2	14.3	7.00e-07	0	57	0	1111490560	60	4738
2026-01-03 08:44:25.50	341.29	22.60	-48.8	-51.2	14.4	7.00e-07	0	57	0	1112539136	60	4708
2026-01-03 08:44:26.48	341.20	22.46	-48.7	-51.0	14.5	3.00e-06	0	57	0	1114636288	60	4642
2026-01-03 08:44:27.48	341.11	22.33	-48.6	-50.9	14.6	0.00e+00	0	57	0	1116733440	60	4582
2026-01-03 08:44:28.46	341.02	22.20	-48.6	-50.9	14.7	0.00e+00	0	57	0	1118830592	60	4546
2026-01-03 08:44:29.45	340.93	22.07	-48.5	-50.8	14.8	0.00e+00	0	57	0	1119879168	60	4496
2026-01-03 08:44:30.44	340.84	21.93	-48.6	-50.9	14.6	0.00e+00	0	57	0	1121976320	60	4586
2026-01-03 08:44:31.43	340.75	21.80	-48.7	-51.1	14.4	2.20e-06	0	57	0	1124073472	60	4674
2026-01-03 08:44:32.42	340.67	21.67	-48.7	-51.1	14.4	0.00e+00	0	57	0	1126170624	60	4694
2026-01-03 08:44:33.40	340.58	21.54	-48.8	-51.3	14.2	7.00e-07	0	57	0	1127219200	60	4763
2026-01-03 08:44:34.39	340.50	21.41	-48.7	-51.1	14.3	0.00e+00	0	57	0	1129316352	60	4704
2026-01-03 08:44:35.38	340.41	21.29	-48.5	-50.9	14.5	0.00e+00	0	57	0	1131413504	60	4548
2026-01-03 08:44:36.37	340.33	21.16	-48.6	-50.9	14.4	0.00e+00	0	57	0	1133510656	60	4590
2026-01-03 08:44:37.36	340.25	21.03	-48.7	-51.1	14.3	7.00e-07	0	57	0	1135607808	60	4666
2026-01-03 08:44:38.35	340.17	20.90	-48.7	-51.1	14.2	0.00e+00	0	57	0	1136656384	60	4678
2026-01-03 08:44:39.34	340.08	20.78	-48.9	-51.5	13.8	7.00e-07	0	57	0	1138753536	60	4890
2026-01-03 08:44:40.32	340.00	20.65	-48.8	-51.4	13.7	3.00e-06	0	57	0	1140850688	60	4864
2026-01-03 08:44:41.31	339.92	20.53	-49.0	-51.8	13.3	1.14e-05	0	57	0	1142947840	60	5083
2026-01-03 08:44:42.30	339.85	20.40	-49.3	-52.4	12.6	3.05e-05	0	57	0	1143996416	60	5444
2026-01-03 08:44:43.30	339.77	20.28	-49.5	-52.8	12.1	1.93e-04	0	57	0	1146093568	60	5704
2026-01-03 08:44:44.29	339.69	20.15	-49.7	-53.3	11.5	6.22e-04	0	57	0	1148190720	61	5714
2026-01-03 08:44:45.28	339.61	20.03	-49.7	-53.5	11.3	9.87e-04	0	57	0	1150287872	61	5811
2026-01-03 08:44:46.27	339.53	19.91	-49.7	-53.6	11.1	1.47e-03	0	57	0	1152385024	61	5864
2026-01-03 08:44:47.26	339.46	19.79	-49.8	-53.6	11.1	1.42e-03	0	57	0	1153433600	61	5884
2026-01-03 08:44:48.25	339.38	19.66	-49.8	-53.8	10.9	1.92e-03	0	57	0	1155530752	61	6011
2026-01-03 08:44:49.24	339.31	19.54	-49.7	-53.5	11.3	1.60e-03	0	57	0	1157627904	61	5799
2026-01-03 08:44:50.23	339.23	19.42	-49.6	-53.3	11.4	8.76e-04	0	57	0	1159725056	61	5696
2026-01-03 08:44:51.23	339.16	19.30	-49.6	-53.5	11.3	1.16e-03	0	57	0	1160773632	61	5826
2026-01-03 08:44:52.22	339.09	19.18	-49.8	-53.7	11.0	1.82e-03	0	57	0	1162870784	61	5992
2026-01-03 08:44:53.21	339.01	19.06	-49.5	-53.2	11.6	1.32e-03	0	57	0	1164967936	61	5630
2026-01-03 08:44:54.20	338.94	18.95	-49.2	-52.4	12.4	2.18e-04	0	57	0	1167065088	61	5153
2026-01-03 08:44:55.19	338.87	18.83	-48.8	-51.6	13.3	4.04e-05	0	57	0	1168113664	60	4968
2026-01-03 08:44:56.18	338.80	18.71	-48.6	-51.3	13.6	1.44e-05	0	57	0	1170210816	60	4785
2026-01-03 08:44:57.17	338.73	18.60	-48.6	-51.3	13.7	1.06e-05	0	57	0	1172307968	60	4778
2026-01-03 08:44:58.16	338.66	18.48	-48.5	-51.1	13.8	3.00e-06	0	57	0	1174405120	60	4684
2026-01-03 08:44:59.16	338.59	18.36	-48.3	-50.6	14.4	1.50e-06	0	57	0	1175453696	59	4685
2026-01-03 08:45:00.14	338.52	18.25	-48.2	-50.5	14.5	0.00e+00	0	57	0	1177550848	59	4647
2026-01-03 08:45:01.12	338.46	18.13	-48.4	-50.8	14.2	3.00e-06	0	57	0	1179648000	59	4799
2026-01-03 08:45:02.10	338.39	18.02	-48.6	-51.0	14.1	0.00e+00	0	57	0	1181745152	59	4904
2026-01-03 08:45:03.10	338.32	17.91	-49.1	-52.0	13.2	3.80e-06	0	57	0	1183842304	59	5477
2026-01-03 08:45:04.09	338.26	17.79	-48.9	-51.6	13.6	1.44e-05	0	57	0	1184890880	60	4982
2026-01-03 08:45:05.07	338.19	17.68	-48.9	-51.6	13.6	3.80e-06	0	57	0	1186988032	60	4953
2026-01-03 08:45:06.06	338.13	17.57	-48.9	-51.7	13.6	4.50e-06	0	57	0	1189085184	60	5007
2026-01-03 08:45:07.05	338.06	17.46	-48.8	-51.4	13.9	4.50e-06	0	57	0	1191182336	60	4834
2026-01-03 08:45:08.04	338.00	17.35	-48.7	-51.3	14.0	7.00e-07	0	57	0	1192230912	60	4784
2026-01-03 08:45:09.02	337.93	17.24	-48.7	-51.3	14.1	3.80e-06	0	57	0	1194328064	60	4771
2026-01-03 08:45:10.00	337.87	17.13	-48.8	-51.3	14.0	5.30e-06	0	57	0	1196425216	60	4813
2026-01-03 08:45:11.00	337.81	17.02	-48.9	-51.6	13.8	7.60e-06	0	57	0	1198522368	60	4932
2026-01-03 08:45:11.99	337.75	16.91	-48.8	-51.4	14.0	3.80e-06	0	57	0	1199570944	60	4848
2026-01-03 08:45:12.98	337.68	16.80	-49.0	-51.7	13.7	3.00e-06	0	57	0	1201668096	60	4984
2026-01-03 08:45:13.98	337.62	16.69	-49.2	-52.0	13.4	9.90e-06	0	57	0	1203765248	60	5171
2026-01-03 08:45:14.97	337.56	16.58	-49.1	-51.8	13.5	4.50e-06	0	57	0	1205862400	60	5099
2026-01-03 08:45:15.96	337.50	16.47	-48.8	-51.5	13.9	3.80e-06	0	57	0	1207959552	60	4885
2026-01-03 08:45:16.96	337.44	16.36	-48.7	-51.2	14.2	7.00e-07	0	57	0	1209008128	60	4722
2026-01-03 08:45:17.95	337.38	16.26	-48.7	-51.1	14.2	7.00e-07	0	57	0	1211105280	60	4692
2026-01-03 08:45:18.95	337.32	16.15	-48.7	-51.2	14.1	2.20e-06	0	57	0	1213202432	60	4746
2026-01-03 08:45:19.93	337.26	16.04	-48.9	-51.6	13.8	3.00e-06	0	57	0	1215299584	60	4928
2026-01-03 08:45:20.92	337.21	15.94	-48.8	-51.3	14.0	3.00e-06	0	57	0	1216348160	60	4789
2026-01-03 08:45:21.91	337.15	15.83	-48.8	-51.2	14.1	1.50e-06	0	57	0	1218445312	60	4757
2026-01-03 08:45:22.90	337.09	15.73	-48.6	-51.1	14.3	2.20e-06	0	57	0	1220542464	60	4679
2026-01-03 08:45:23.90	337.03	15.62	-48.6	-51.1	14.3	3.00e-06	0	57	0	1222639616	60	4659
2026-01-03 08:45:24.89	336.98	15.52	-48.7	-51.1	14.3	7.00e-07	0	57	0	1224736768	60	4671
2026-01-03 08:45:25.87	336.92	15.42	-48.8	-51.2	14.1	7.00e-07	0	57	0	1225785344	60	4759
2026-01-03 08:45:26.86	336.87	15.31	-48.7	-51.2	14.1	7.00e-07	0	57	0	1227882496	60	4722
2026-01-03 08:45:27.85	336.81	15.21	-48.7	-51.3	14.0	7.00e-07	0	57	0	1229979648	60	4798
2026-01-03 08:45:28.84	336.76	15.11	-48.8	-51.5	13.9	1.50e-06	0	57	0	1232076800	60	4898
2026-01-03 08:45:29.82	336.70	15.01	-48.9	-51.5	13.8	6.10e-06	0	57	0	1233125376	60	4894
2026-01-03 08:45:30.81	336.65	14.91	-48.9	-51.4	13.9	3.00e-06	0	57	0	1235222528	60	4847
2026-01-03 08:45:31.81	336.59	14.81	-49.1	-51.9	13.5	9.10e-06	0	57	0	1237319680	60	5119
2026-01-03 08:45:32.79	336.54	14.71	-49.1	-51.9	13.4	1.44e-05	0	57	0	1239416832	60	5148
2026-01-03 08:45:33.78	336.49	14.61	-49.1	-52.0	13.4	1.29e-05	0	57	0	1240465408	60	5173
2026-01-03 08:45:34.77	336.44	14.51	-49.2	-52.1	13.2	1.44e-05	0	57	0	1242562560	60	5264
2026-01-03 08:45:35.76	336.38	14.41	-49.3	-52.3	13.0	3.81e-05	0	57	0	1244659712	60	5386
2026-01-03 08:45:36.75	336.33	14.31	-49.3	-52.3	13.0	5.41e-05	0	57	0	1246756864	60	5349
2026-01-03 08:45:37.74	336.28	14.21	-49.4	-52.4	12.9	2.59e-05	0	57	0	1248854016	60	5442
