passes_logs/2026/01/03/R3.0SM8_Murmansk_STILSPACE/R3.0SM8_Murmansk_STILSPACE__20260103_233717_SUOMI_NPP_rec.log

#Pass ID: 20260103_233717_SUOMI NPP
#Satellite: SUOMI NPP
#Configuration: NPP
#almurnet v.1.7.20240730
#Start time: 2026-01-03 23:37:17

#Version: 2.2.20231116
#Station: R3.0SM8_Murmansk_STILSPACE
#Location: 33.092731 lon 68.902999 lat
#TLE: 1 37849U 11061A   26001.07732418  .00000182  00000+0  10735-3 0  9990
#TLE: 2 37849  98.7795 303.2470 0002580  87.2016 272.9455 14.19520779734739

#Time	Az	El	Level	Level2	SNR	BER	BlckErr	Temp	State	Recorded	gain1	gain2
2026-01-03 23:37:17.78	21.61	3.00	-52.2	-66.0	3.8	1.49e+00	0	45	0	0	66	18460
2026-01-03 23:37:18.76	21.65	3.06	-52.2	-66.0	3.8	1.49e+00	0	46	104	0	67	17308
2026-01-03 23:37:19.74	21.68	3.12	-52.1	-65.9	3.8	1.49e+00	0	46	104	0	66	18226
2026-01-03 23:37:20.73	21.72	3.18	-52.1	-65.9	3.8	1.49e+00	0	46	104	0	66	18155
2026-01-03 23:37:21.72	21.76	3.25	-51.8	-65.8	3.8	1.49e+00	0	46	104	0	66	17983
2026-01-03 23:37:22.72	21.80	3.31	-51.9	-65.7	3.8	1.49e+00	0	46	104	0	66	17789
2026-01-03 23:37:23.71	21.84	3.38	-51.8	-65.6	3.8	1.49e+00	0	46	104	0	66	17555
2026-01-03 23:37:24.69	21.87	3.44	-51.6	-65.4	3.8	1.49e+00	0	46	104	0	66	17215
2026-01-03 23:37:25.68	21.91	3.50	-51.1	-64.8	3.8	1.49e+00	0	46	104	0	65	16889
2026-01-03 23:37:26.66	21.95	3.57	-50.3	-63.6	3.8	1.49e+00	0	46	104	0	63	16540
2026-01-03 23:37:27.65	21.99	3.63	-50.2	-63.1	3.8	1.49e+00	0	46	104	0	63	15704
2026-01-03 23:37:28.63	22.03	3.70	-50.3	-63.0	3.8	1.49e+00	0	46	104	0	63	15492
2026-01-03 23:37:29.62	22.07	3.76	-50.2	-63.2	3.8	1.49e+00	0	46	104	0	63	15784
2026-01-03 23:37:30.61	22.10	3.82	-50.3	-63.1	3.8	1.49e+00	0	46	104	0	63	15646
2026-01-03 23:37:31.59	22.14	3.89	-50.3	-62.8	3.8	1.49e+00	0	46	104	0	63	15076
2026-01-03 23:37:32.58	22.18	3.95	-50.2	-61.9	3.8	1.48e+00	0	46	104	0	63	13723
2026-01-03 23:37:33.56	22.22	4.02	-50.1	-61.3	4.0	1.46e+00	0	46	0	0	63	12682
2026-01-03 23:37:34.54	22.26	4.08	-50.2	-61.1	4.1	1.44e+00	0	47	0	0	63	12439
2026-01-03 23:37:35.53	22.30	4.15	-50.1	-60.8	4.1	1.42e+00	0	47	0	0	63	12038
2026-01-03 23:37:36.52	22.34	4.21	-50.1	-61.2	4.1	1.42e+00	0	47	0	0	63	12598
2026-01-03 23:37:37.51	22.38	4.28	-50.2	-62.3	3.8	1.48e+00	0	47	104	0	63	14216
2026-01-03 23:37:38.49	22.42	4.35	-50.3	-62.6	3.8	1.49e+00	0	47	104	0	63	14845
2026-01-03 23:37:39.49	22.46	4.41	-50.2	-62.6	3.8	1.49e+00	0	47	104	0	63	14841
2026-01-03 23:37:40.48	22.50	4.48	-50.2	-62.4	3.8	1.49e+00	0	47	104	0	63	14502
2026-01-03 23:37:41.46	22.54	4.54	-50.2	-62.4	3.8	1.49e+00	0	47	104	0	63	14461
2026-01-03 23:37:42.45	22.58	4.61	-50.2	-62.8	3.8	1.49e+00	0	47	104	0	63	15106
2026-01-03 23:37:43.44	22.62	4.68	-50.3	-62.6	3.8	1.49e+00	0	47	104	0	63	14785
2026-01-03 23:37:44.43	22.67	4.74	-50.2	-61.6	3.8	1.49e+00	0	47	104	0	63	13196
2026-01-03 23:37:45.42	22.71	4.81	-50.1	-60.2	4.3	1.37e+00	0	47	0	0	63	11190
2026-01-03 23:37:46.41	22.75	4.88	-50.0	-59.4	4.6	1.12e+00	0	48	0	1048576	63	10214
2026-01-03 23:37:47.40	22.79	4.95	-49.8	-58.8	4.9	9.07e-01	0	48	0	3145728	62	10071
2026-01-03 23:37:48.38	22.83	5.01	-49.9	-58.3	5.2	6.27e-01	0	48	0	5242880	62	9507
2026-01-03 23:37:49.37	22.87	5.08	-49.8	-57.8	5.5	5.36e-01	0	48	0	7340032	62	9060
2026-01-03 23:37:50.36	22.92	5.15	-49.8	-57.3	5.9	4.41e-01	0	48	0	8388608	62	8560
2026-01-03 23:37:51.35	22.96	5.22	-49.7	-56.8	6.2	3.23e-01	0	48	0	10485760	62	8067
2026-01-03 23:37:52.35	23.00	5.29	-49.6	-56.8	6.3	2.62e-01	0	48	0	12582912	62	8038
2026-01-03 23:37:53.34	23.05	5.35	-49.8	-57.0	6.2	2.89e-01	0	48	0	14680064	62	8213
2026-01-03 23:37:54.33	23.09	5.42	-49.7	-56.6	6.6	2.28e-01	0	48	0	15728640	62	7819
2026-01-03 23:37:55.32	23.13	5.49	-49.8	-56.6	6.7	2.09e-01	0	48	0	17825792	62	7856
2026-01-03 23:37:56.30	23.17	5.56	-49.9	-56.9	6.3	2.51e-01	0	48	0	19922944	62	8133
2026-01-03 23:37:57.29	23.22	5.63	-49.8	-56.2	7.0	1.81e-01	0	48	0	22020096	62	7533
2026-01-03 23:37:58.28	23.26	5.70	-49.6	-55.5	7.7	1.20e-01	0	48	0	23068672	62	6929
2026-01-03 23:37:59.28	23.31	5.77	-49.5	-55.3	8.0	7.94e-02	0	48	0	25165824	62	6741
2026-01-03 23:38:00.26	23.35	5.84	-49.4	-54.6	8.7	4.65e-02	0	48	0	27262976	61	6605
2026-01-03 23:38:01.25	23.39	5.91	-49.2	-54.0	9.4	2.22e-02	0	49	0	29360128	61	6177
2026-01-03 23:38:02.24	23.44	5.98	-49.1	-53.8	9.6	1.45e-02	0	49	0	31457280	61	6009
2026-01-03 23:38:03.23	23.48	6.05	-49.2	-53.8	9.7	1.05e-02	0	49	0	32505856	61	6019
2026-01-03 23:38:04.21	23.53	6.12	-49.3	-54.1	9.4	1.23e-02	0	49	0	34603008	61	6244
2026-01-03 23:38:05.20	23.57	6.19	-49.5	-54.6	9.0	2.21e-02	0	49	0	36700160	61	6597
2026-01-03 23:38:06.20	23.62	6.26	-49.4	-54.2	9.4	2.25e-02	0	49	0	38797312	61	6277
2026-01-03 23:38:07.19	23.66	6.33	-49.6	-54.6	9.0	2.19e-02	0	49	0	39845888	61	6617
2026-01-03 23:38:08.18	23.71	6.40	-49.7	-55.0	8.6	3.50e-02	0	49	0	41943040	61	6894
2026-01-03 23:38:09.17	23.76	6.47	-49.4	-54.0	9.7	2.01e-02	0	49	0	44040192	61	6144
2026-01-03 23:38:10.15	23.80	6.54	-49.3	-53.7	10.1	9.60e-03	0	49	0	46137344	61	5978
2026-01-03 23:38:11.15	23.85	6.61	-49.2	-53.4	10.5	5.18e-03	0	49	0	48234496	61	5733
2026-01-03 23:38:12.13	23.89	6.68	-49.1	-53.0	10.9	3.26e-03	0	49	0	49283072	61	5528
2026-01-03 23:38:13.12	23.94	6.76	-49.1	-53.0	11.0	2.15e-03	0	49	0	51380224	61	5515
2026-01-03 23:38:14.11	23.99	6.83	-48.8	-52.4	11.6	1.74e-03	0	49	0	53477376	60	5450
2026-01-03 23:38:15.10	24.03	6.90	-48.8	-52.3	11.8	7.57e-04	0	49	0	55574528	60	5376
2026-01-03 23:38:16.09	24.08	6.97	-48.8	-52.3	11.8	5.44e-04	0	49	0	56623104	60	5391
2026-01-03 23:38:17.08	24.13	7.05	-48.8	-52.2	12.0	3.78e-04	0	49	0	58720256	60	5291
2026-01-03 23:38:18.07	24.18	7.12	-48.8	-52.4	11.8	3.51e-04	0	49	0	60817408	60	5429
2026-01-03 23:38:19.05	24.22	7.19	-48.9	-52.4	11.7	4.09e-04	0	50	0	62914560	60	5442
2026-01-03 23:38:20.04	24.27	7.26	-48.8	-52.2	11.9	5.21e-04	0	50	0	63963136	60	5340
2026-01-03 23:38:21.04	24.32	7.34	-48.9	-52.5	11.7	4.45e-04	0	50	0	66060288	60	5466
2026-01-03 23:38:22.02	24.37	7.41	-49.0	-52.6	11.5	8.37e-04	0	50	0	68157440	60	5587
2026-01-03 23:38:23.01	24.42	7.49	-49.3	-53.2	10.9	1.76e-03	0	50	0	70254592	60	5978
2026-01-03 23:38:24.01	24.47	7.56	-49.0	-52.6	11.5	1.35e-03	0	50	0	72351744	60	5575
2026-01-03 23:38:25.00	24.52	7.63	-49.0	-52.8	11.4	8.91e-04	0	50	0	73400320	60	5659
2026-01-03 23:38:25.99	24.57	7.71	-49.1	-52.9	11.3	9.60e-04	0	50	0	75497472	60	5724
2026-01-03 23:38:26.97	24.62	7.78	-49.0	-52.9	11.3	1.09e-03	0	50	0	77594624	60	5733
2026-01-03 23:38:27.95	24.67	7.86	-49.3	-53.3	10.8	1.77e-03	0	50	0	79691776	60	6009
2026-01-03 23:38:28.93	24.72	7.93	-49.0	-52.6	11.6	1.56e-03	0	50	0	80740352	60	5552
2026-01-03 23:38:29.93	24.77	8.01	-48.9	-52.4	11.8	5.46e-04	0	50	0	82837504	60	5452
2026-01-03 23:38:30.91	24.82	8.08	-48.8	-52.2	12.0	4.33e-04	0	50	0	84934656	60	5301
2026-01-03 23:38:31.89	24.87	8.16	-48.7	-52.0	12.3	2.87e-04	0	50	0	87031808	60	5171
2026-01-03 23:38:32.89	24.92	8.23	-48.7	-52.0	12.2	1.20e-04	0	50	0	88080384	60	5206
2026-01-03 23:38:33.87	24.97	8.31	-48.8	-52.2	12.1	2.87e-04	0	50	0	90177536	60	5287
2026-01-03 23:38:34.85	25.02	8.38	-48.9	-52.2	12.0	2.94e-04	0	50	0	92274688	60	5317
2026-01-03 23:38:35.84	25.07	8.46	-49.1	-52.7	11.5	4.55e-04	0	50	0	94371840	60	5654
2026-01-03 23:38:36.83	25.12	8.54	-48.9	-52.4	11.9	1.06e-03	0	50	0	95420416	60	5416
2026-01-03 23:38:37.81	25.18	8.61	-48.7	-51.9	12.4	1.79e-04	0	50	0	97517568	60	5127
2026-01-03 23:38:38.80	25.23	8.69	-48.5	-51.3	13.0	5.41e-05	0	50	0	99614720	59	5088
2026-01-03 23:38:39.79	25.28	8.77	-48.3	-51.1	13.3	2.51e-05	0	50	0	101711872	59	4935
2026-01-03 23:38:40.78	25.34	8.85	-48.2	-50.9	13.5	1.60e-05	0	51	0	102760448	59	4822
2026-01-03 23:38:41.76	25.39	8.92	-48.0	-50.5	13.9	5.30e-06	0	51	0	104857600	59	4649
2026-01-03 23:38:42.75	25.44	9.00	-48.1	-50.7	13.6	7.60e-06	0	51	0	106954752	59	4747
2026-01-03 23:38:43.73	25.50	9.08	-48.0	-50.5	13.9	3.00e-06	0	51	0	109051904	59	4634
2026-01-03 23:38:44.72	25.55	9.16	-48.1	-50.7	13.8	2.20e-06	0	51	0	111149056	59	4714
2026-01-03 23:38:45.71	25.60	9.23	-48.0	-50.6	13.8	2.20e-06	0	51	0	112197632	59	4690
2026-01-03 23:38:46.71	25.66	9.31	-48.1	-50.6	13.8	3.80e-06	0	51	0	114294784	59	4698
2026-01-03 23:38:47.69	25.71	9.39	-48.0	-50.4	14.0	4.50e-06	0	51	0	116391936	59	4595
2026-01-03 23:38:48.68	25.77	9.47	-48.0	-50.5	14.0	1.50e-06	0	51	0	118489088	58	4888
2026-01-03 23:38:49.67	25.82	9.55	-47.9	-50.3	14.1	1.50e-06	0	51	0	119537664	58	4814
2026-01-03 23:38:50.66	25.88	9.63	-47.9	-50.4	14.1	7.00e-07	0	51	0	121634816	58	4833
2026-01-03 23:38:51.65	25.94	9.71	-47.9	-50.3	14.1	4.50e-06	0	51	0	123731968	58	4795
2026-01-03 23:38:52.64	25.99	9.79	-48.0	-50.3	14.1	7.00e-07	0	51	0	125829120	58	4809
2026-01-03 23:38:53.62	26.05	9.87	-48.1	-50.6	13.8	2.20e-06	0	51	0	126877696	58	4968
2026-01-03 23:38:54.62	26.11	9.95	-47.9	-50.3	14.2	2.20e-06	0	51	0	128974848	58	4768
2026-01-03 23:38:55.61	26.16	10.03	-47.9	-50.3	14.1	7.00e-07	0	51	0	131072000	58	4789
2026-01-03 23:38:56.60	26.22	10.12	-48.0	-50.4	14.1	5.30e-06	0	51	0	133169152	58	4829
2026-01-03 23:38:57.59	26.28	10.20	-47.9	-50.3	14.1	0.00e+00	0	51	0	135266304	58	4806
2026-01-03 23:38:58.58	26.34	10.28	-47.9	-50.4	14.1	1.50e-06	0	51	0	136314880	58	4818
2026-01-03 23:38:59.57	26.40	10.36	-47.9	-50.3	14.2	3.80e-06	0	51	0	138412032	58	4803
2026-01-03 23:39:00.56	26.45	10.44	-47.9	-50.2	14.3	3.00e-06	0	51	0	140509184	58	4754
2026-01-03 23:39:01.55	26.51	10.53	-47.9	-50.3	14.2	7.00e-07	0	51	0	142606336	58	4792
2026-01-03 23:39:02.55	26.57	10.61	-47.8	-50.3	14.3	7.00e-07	0	51	0	143654912	58	4761
2026-01-03 23:39:03.54	26.63	10.69	-47.9	-50.3	14.2	0.00e+00	0	52	0	145752064	58	4770
2026-01-03 23:39:04.53	26.69	10.78	-47.9	-50.3	14.2	7.00e-07	0	51	0	147849216	58	4777
2026-01-03 23:39:05.53	26.75	10.86	-47.9	-50.3	14.3	1.50e-06	0	51	0	149946368	58	4761
2026-01-03 23:39:06.52	26.81	10.94	-47.8	-50.2	14.3	0.00e+00	0	51	0	152043520	58	4720
2026-01-03 23:39:07.51	26.88	11.03	-47.8	-50.1	14.5	0.00e+00	0	51	0	153092096	58	4657
2026-01-03 23:39:08.49	26.94	11.11	-47.9	-50.2	14.4	7.00e-07	0	52	0	155189248	58	4727
2026-01-03 23:39:09.48	27.00	11.20	-47.8	-50.1	14.5	7.00e-07	0	51	0	157286400	58	4653
2026-01-03 23:39:10.47	27.06	11.28	-47.8	-50.1	14.5	0.00e+00	0	52	0	159383552	58	4655
2026-01-03 23:39:11.46	27.12	11.37	-47.9	-50.3	14.3	0.00e+00	0	52	0	160432128	58	4763
2026-01-03 23:39:12.44	27.18	11.45	-47.8	-50.1	14.4	1.50e-06	0	51	0	162529280	58	4701
2026-01-03 23:39:13.43	27.25	11.54	-47.8	-50.1	14.5	0.00e+00	0	52	0	164626432	58	4660
2026-01-03 23:39:14.41	27.31	11.62	-47.5	-49.6	15.0	0.00e+00	0	52	0	166723584	58	4430
2026-01-03 23:39:15.39	27.37	11.71	-47.6	-49.7	14.8	0.00e+00	0	52	0	167772160	58	4474
2026-01-03 23:39:16.38	27.44	11.79	-47.5	-49.7	14.9	0.00e+00	0	52	0	169869312	58	4453
2026-01-03 23:39:17.37	27.50	11.88	-47.5	-49.6	15.0	0.00e+00	0	52	0	171966464	58	4408
2026-01-03 23:39:18.35	27.56	11.97	-47.5	-49.5	15.0	0.00e+00	0	52	0	174063616	57	4648
2026-01-03 23:39:19.34	27.63	12.06	-47.4	-49.5	15.1	0.00e+00	0	52	0	175112192	57	4634
2026-01-03 23:39:20.33	27.70	12.14	-47.5	-49.6	14.9	0.00e+00	0	52	0	177209344	57	4704
2026-01-03 23:39:21.32	27.76	12.23	-47.7	-49.9	14.7	7.00e-07	0	52	0	179306496	57	4848
2026-01-03 23:39:22.32	27.83	12.32	-47.4	-49.5	15.1	0.00e+00	0	52	0	181403648	57	4604
2026-01-03 23:39:23.31	27.89	12.41	-47.6	-49.8	14.8	0.00e+00	0	52	0	183500800	57	4782
2026-01-03 23:39:24.30	27.96	12.50	-47.6	-49.8	14.8	7.00e-07	0	52	0	184549376	57	4772
2026-01-03 23:39:25.29	28.03	12.59	-47.7	-50.0	14.6	7.00e-07	0	52	0	186646528	57	4880
2026-01-03 23:39:26.28	28.10	12.68	-47.5	-49.6	15.0	0.00e+00	0	52	0	188743680	57	4689
2026-01-03 23:39:27.26	28.16	12.76	-47.3	-49.4	15.2	0.00e+00	0	52	0	190840832	57	4546
2026-01-03 23:39:28.24	28.23	12.85	-47.3	-49.2	15.3	0.00e+00	0	52	0	191889408	57	4487
2026-01-03 23:39:29.23	28.30	12.94	-47.2	-49.1	15.5	0.00e+00	0	52	0	193986560	57	4426
2026-01-03 23:39:30.22	28.37	13.03	-47.2	-49.1	15.5	0.00e+00	0	52	0	196083712	57	4436
2026-01-03 23:39:31.20	28.44	13.12	-47.1	-49.1	15.5	0.00e+00	0	52	0	198180864	57	4393
2026-01-03 23:39:32.19	28.51	13.22	-47.0	-48.8	15.8	0.00e+00	0	52	0	199229440	57	4272
2026-01-03 23:39:33.18	28.58	13.31	-47.0	-48.9	15.7	0.00e+00	0	52	0	201326592	57	4329
2026-01-03 23:39:34.17	28.65	13.40	-47.1	-49.0	15.6	0.00e+00	0	52	0	203423744	57	4377
2026-01-03 23:39:35.16	28.72	13.49	-46.9	-48.8	15.9	0.00e+00	0	52	0	205520896	56	4500
2026-01-03 23:39:36.16	28.79	13.58	-46.9	-48.7	16.0	0.00e+00	0	52	0	207618048	56	4444
2026-01-03 23:39:37.15	28.86	13.68	-46.8	-48.6	16.1	0.00e+00	0	52	0	208666624	56	4393
2026-01-03 23:39:38.14	28.94	13.77	-46.9	-48.8	15.8	0.00e+00	0	52	0	210763776	56	4526
2026-01-03 23:39:39.14	29.01	13.86	-46.8	-48.5	16.1	0.00e+00	0	53	0	212860928	56	4379
2026-01-03 23:39:40.13	29.08	13.96	-46.7	-48.5	16.2	0.00e+00	0	53	0	214958080	56	4345
2026-01-03 23:39:41.12	29.16	14.05	-46.8	-48.6	16.1	0.00e+00	0	53	0	216006656	56	4415
2026-01-03 23:39:42.10	29.23	14.15	-46.6	-48.3	16.4	0.00e+00	0	53	0	218103808	56	4243
2026-01-03 23:39:43.09	29.31	14.24	-46.6	-48.3	16.4	0.00e+00	0	52	0	220200960	56	4262
2026-01-03 23:39:44.08	29.38	14.34	-46.6	-48.2	16.4	0.00e+00	0	53	0	222298112	56	4232
2026-01-03 23:39:45.07	29.46	14.43	-46.5	-48.2	16.5	0.00e+00	0	53	0	223346688	56	4205
2026-01-03 23:39:46.06	29.53	14.53	-46.6	-48.3	16.4	0.00e+00	0	53	0	225443840	56	4257
2026-01-03 23:39:47.05	29.61	14.62	-46.7	-48.3	16.3	0.00e+00	0	53	0	227540992	56	4286
2026-01-03 23:39:48.05	29.69	14.72	-46.8	-48.5	16.1	0.00e+00	0	53	0	229638144	56	4387
2026-01-03 23:39:49.04	29.76	14.82	-46.6	-48.3	16.4	0.00e+00	0	53	0	231735296	56	4257
2026-01-03 23:39:50.03	29.84	14.91	-46.8	-48.5	16.2	0.00e+00	0	53	0	232783872	56	4367
2026-01-03 23:39:51.03	29.92	15.01	-46.8	-48.7	16.0	0.00e+00	0	53	0	234881024	56	4443
2026-01-03 23:39:52.02	30.00	15.11	-47.1	-48.9	15.8	0.00e+00	0	53	0	236978176	56	4561
2026-01-03 23:39:53.01	30.08	15.21	-46.9	-48.8	16.0	0.00e+00	0	53	0	239075328	56	4494
2026-01-03 23:39:54.00	30.16	15.31	-47.0	-48.8	15.9	0.00e+00	0	53	0	240123904	56	4529
2026-01-03 23:39:54.99	30.24	15.41	-46.9	-48.7	16.0	0.00e+00	0	53	0	242221056	56	4468
2026-01-03 23:39:55.98	30.32	15.50	-47.2	-49.0	15.7	0.00e+00	0	53	0	244318208	56	4647
2026-01-03 23:39:56.97	30.40	15.60	-47.0	-48.9	15.8	0.00e+00	0	53	0	246415360	56	4553
2026-01-03 23:39:57.96	30.48	15.70	-47.1	-49.0	15.7	0.00e+00	0	53	0	248512512	56	4628
2026-01-03 23:39:58.95	30.57	15.80	-47.5	-49.6	15.1	0.00e+00	0	53	0	249561088	56	4936
2026-01-03 23:39:59.95	30.65	15.91	-47.3	-49.2	15.5	0.00e+00	0	53	0	251658240	56	4757
2026-01-03 23:40:00.93	30.73	16.01	-47.0	-48.8	15.9	0.00e+00	0	53	0	253755392	56	4528
2026-01-03 23:40:01.93	30.82	16.11	-47.0	-48.9	15.8	0.00e+00	0	53	0	255852544	56	4573
2026-01-03 23:40:02.91	30.90	16.21	-47.1	-49.0	15.7	0.00e+00	0	53	0	256901120	56	4647
2026-01-03 23:40:03.90	30.99	16.31	-47.4	-49.5	15.3	0.00e+00	0	53	0	258998272	56	4886
2026-01-03 23:40:04.89	31.07	16.41	-47.2	-49.2	15.6	0.00e+00	0	53	0	261095424	56	4734
2026-01-03 23:40:05.89	31.16	16.52	-47.2	-49.2	15.6	0.00e+00	0	53	0	263192576	56	4720
2026-01-03 23:40:06.88	31.24	16.62	-47.3	-49.2	15.5	0.00e+00	0	53	0	264241152	56	4747
2026-01-03 23:40:07.86	31.33	16.72	-47.4	-49.4	15.4	0.00e+00	0	53	0	266338304	56	4824
2026-01-03 23:40:08.85	31.42	16.83	-47.3	-49.3	15.5	0.00e+00	0	53	0	268435456	56	4771
2026-01-03 23:40:09.84	31.51	16.93	-47.3	-49.1	15.6	0.00e+00	0	53	0	270532608	56	4700
2026-01-03 23:40:10.83	31.60	17.04	-47.3	-49.3	15.5	0.00e+00	0	53	0	271581184	56	4767
2026-01-03 23:40:11.81	31.68	17.14	-47.3	-49.2	15.6	0.00e+00	0	53	0	273678336	56	4738
2026-01-03 23:40:12.80	31.77	17.25	-47.5	-49.5	15.3	0.00e+00	0	53	0	275775488	56	4907
2026-01-03 23:40:13.79	31.87	17.35	-47.3	-49.2	15.5	0.00e+00	0	53	0	277872640	56	4758
2026-01-03 23:40:14.77	31.96	17.46	-47.1	-49.0	15.8	0.00e+00	0	54	0	279969792	56	4606
2026-01-03 23:40:15.75	32.05	17.56	-46.9	-48.7	16.1	0.00e+00	0	53	0	281018368	56	4467
2026-01-03 23:40:16.74	32.14	17.67	-47.0	-48.8	15.9	0.00e+00	0	54	0	283115520	56	4509
2026-01-03 23:40:17.73	32.23	17.78	-47.2	-49.1	15.7	0.00e+00	0	54	0	285212672	56	4680
2026-01-03 23:40:18.72	32.33	17.88	-47.3	-49.2	15.6	7.00e-07	0	53	0	287309824	56	4733
2026-01-03 23:40:19.72	32.42	17.99	-47.3	-49.2	15.6	0.00e+00	0	54	0	288358400	56	4740
2026-01-03 23:40:20.70	32.52	18.10	-47.6	-49.6	15.2	0.00e+00	0	54	0	290455552	56	4979
2026-01-03 23:40:21.70	32.61	18.21	-47.4	-49.4	15.4	0.00e+00	0	54	0	292552704	57	4559
2026-01-03 23:40:22.69	32.71	18.32	-47.6	-49.8	15.1	0.00e+00	0	54	0	294649856	57	4764
2026-01-03 23:40:23.69	32.81	18.43	-47.6	-49.6	15.2	0.00e+00	0	53	0	296747008	57	4657
2026-01-03 23:40:24.68	32.91	18.54	-47.7	-49.8	15.0	0.00e+00	0	54	0	297795584	57	4791
2026-01-03 23:40:25.66	33.00	18.65	-47.8	-49.9	15.0	0.00e+00	0	54	0	299892736	57	4847
2026-01-03 23:40:26.65	33.10	18.76	-47.7	-49.8	15.0	7.00e-07	0	54	0	301989888	57	4801
2026-01-03 23:40:27.64	33.20	18.88	-47.5	-49.5	15.3	0.00e+00	0	54	0	304087040	57	4625
2026-01-03 23:40:28.63	33.30	18.99	-47.2	-49.1	15.7	0.00e+00	0	54	0	305135616	57	4438
2026-01-03 23:40:29.61	33.40	19.10	-47.1	-49.0	15.9	0.00e+00	0	54	0	307232768	57	4353
2026-01-03 23:40:30.59	33.50	19.21	-47.1	-49.0	15.8	0.00e+00	0	54	0	309329920	57	4349
2026-01-03 23:40:31.59	33.61	19.33	-47.0	-48.8	16.0	0.00e+00	0	54	0	311427072	57	4273
2026-01-03 23:40:32.58	33.71	19.44	-47.0	-48.7	16.1	0.00e+00	0	54	0	312475648	57	4240
2026-01-03 23:40:33.57	33.81	19.55	-47.1	-48.9	16.0	0.00e+00	0	54	0	314572800	57	4308
2026-01-03 23:40:34.56	33.92	19.67	-47.1	-49.0	15.9	0.00e+00	0	54	0	316669952	57	4365
2026-01-03 23:40:35.56	34.03	19.78	-47.2	-49.1	15.7	0.00e+00	0	54	0	318767104	57	4425
2026-01-03 23:40:36.55	34.13	19.90	-47.3	-49.1	15.7	0.00e+00	0	54	0	320864256	57	4433
2026-01-03 23:40:37.54	34.24	20.02	-47.6	-49.6	15.2	0.00e+00	0	54	0	321912832	57	4691
2026-01-03 23:40:38.54	34.35	20.13	-47.6	-49.6	15.2	0.00e+00	0	54	0	324009984	57	4684
2026-01-03 23:40:39.53	34.46	20.25	-47.7	-49.7	15.2	0.00e+00	0	54	0	326107136	57	4743
2026-01-03 23:40:40.52	34.57	20.37	-47.5	-49.6	15.3	0.00e+00	0	54	0	328204288	57	4663
2026-01-03 23:40:41.51	34.68	20.49	-47.3	-49.3	15.5	0.00e+00	0	54	0	329252864	57	4543
2026-01-03 23:40:42.49	34.79	20.60	-47.5	-49.6	15.3	0.00e+00	0	54	0	331350016	57	4663
2026-01-03 23:40:43.48	34.90	20.72	-47.4	-49.4	15.6	0.00e+00	0	54	0	333447168	57	4546
2026-01-03 23:40:44.47	35.01	20.84	-47.3	-49.3	15.6	0.00e+00	0	54	0	335544320	57	4500
2026-01-03 23:40:45.47	35.13	20.96	-47.5	-49.5	15.4	0.00e+00	0	54	0	336592896	57	4600
2026-01-03 23:40:46.45	35.24	21.08	-47.3	-49.2	15.6	0.00e+00	0	54	0	338690048	57	4487
2026-01-03 23:40:47.45	35.36	21.20	-47.2	-49.0	15.8	0.00e+00	0	54	0	340787200	57	4371
2026-01-03 23:40:48.44	35.47	21.32	-47.1	-49.0	15.9	0.00e+00	0	54	0	342884352	57	4347
2026-01-03 23:40:49.44	35.59	21.45	-47.2	-49.1	15.8	0.00e+00	0	54	0	344981504	57	4403
2026-01-03 23:40:50.43	35.71	21.57	-47.1	-48.9	16.0	0.00e+00	0	54	0	346030080	57	4308
2026-01-03 23:40:51.42	35.83	21.69	-47.2	-49.1	15.8	0.00e+00	0	54	0	348127232	57	4434
2026-01-03 23:40:52.41	35.95	21.81	-47.4	-49.4	15.5	0.00e+00	0	54	0	350224384	57	4553
2026-01-03 23:40:53.39	36.07	21.94	-47.2	-49.0	15.9	0.00e+00	0	54	0	352321536	57	4360
2026-01-03 23:40:54.38	36.19	22.06	-47.1	-48.8	16.0	0.00e+00	0	54	0	353370112	57	4278
2026-01-03 23:40:55.37	36.31	22.18	-47.3	-49.1	15.8	0.00e+00	0	54	0	355467264	57	4424
2026-01-03 23:40:56.37	36.44	22.31	-47.6	-49.6	15.3	0.00e+00	0	54	0	357564416	57	4669
2026-01-03 23:40:57.36	36.56	22.44	-47.3	-49.2	15.7	0.00e+00	0	54	0	359661568	57	4465
2026-01-03 23:40:58.35	36.69	22.56	-47.3	-49.2	15.7	0.00e+00	0	54	0	361758720	57	4485
2026-01-03 23:40:59.35	36.82	22.69	-47.6	-49.5	15.4	0.00e+00	0	54	0	362807296	57	4635
2026-01-03 23:41:00.34	36.94	22.82	-47.6	-49.6	15.3	0.00e+00	0	54	0	364904448	57	4664
2026-01-03 23:41:01.32	37.07	22.94	-47.7	-49.7	15.2	0.00e+00	0	54	0	367001600	57	4719
2026-01-03 23:41:02.31	37.20	23.07	-47.5	-49.5	15.4	0.00e+00	0	54	0	369098752	57	4617
2026-01-03 23:41:03.31	37.33	23.20	-47.6	-49.7	15.2	0.00e+00	0	54	0	370147328	57	4712
2026-01-03 23:41:04.29	37.46	23.33	-47.6	-49.6	15.3	7.00e-07	0	54	0	372244480	57	4660
2026-01-03 23:41:05.29	37.60	23.46	-47.4	-49.3	15.6	7.00e-07	0	54	0	374341632	57	4514
2026-01-03 23:41:06.28	37.73	23.59	-47.3	-49.2	15.7	0.00e+00	0	54	0	376438784	57	4469
2026-01-03 23:41:07.27	37.86	23.72	-47.3	-49.3	15.6	0.00e+00	0	54	0	377487360	57	4499
2026-01-03 23:41:08.26	38.00	23.85	-47.6	-49.5	15.4	0.00e+00	0	55	0	379584512	57	4638
2026-01-03 23:41:09.25	38.14	23.98	-47.5	-49.5	15.5	0.00e+00	0	54	0	381681664	57	4600
2026-01-03 23:41:10.24	38.28	24.11	-47.6	-49.6	15.3	0.00e+00	0	54	0	383778816	57	4700
2026-01-03 23:41:11.23	38.41	24.24	-47.6	-49.7	15.3	0.00e+00	0	54	0	384827392	57	4716
2026-01-03 23:41:12.22	38.56	24.38	-47.5	-49.5	15.5	0.00e+00	0	54	0	386924544	57	4615
2026-01-03 23:41:13.20	38.70	24.51	-47.5	-49.5	15.5	0.00e+00	0	54	0	389021696	57	4612
2026-01-03 23:41:14.19	38.84	24.64	-47.6	-49.6	15.4	0.00e+00	0	54	0	391118848	57	4692
2026-01-03 23:41:15.18	38.98	24.78	-47.7	-49.7	15.2	0.00e+00	0	55	0	393216000	57	4759
2026-01-03 23:41:16.16	39.13	24.91	-47.7	-49.9	15.1	0.00e+00	0	55	0	394264576	57	4816
2026-01-03 23:41:17.14	39.27	25.04	-47.7	-49.7	15.2	0.00e+00	0	55	0	396361728	57	4746
2026-01-03 23:41:18.13	39.42	25.18	-47.8	-49.9	15.2	0.00e+00	0	55	0	398458880	57	4816
2026-01-03 23:41:19.11	39.56	25.32	-47.9	-50.1	14.9	0.00e+00	0	55	0	400556032	57	4928
2026-01-03 23:41:20.10	39.71	25.45	-47.7	-49.7	15.2	0.00e+00	0	54	0	401604608	57	4746
2026-01-03 23:41:21.09	39.87	25.59	-47.9	-50.1	14.9	0.00e+00	0	55	0	403701760	57	4948
2026-01-03 23:41:22.07	40.02	25.73	-47.8	-50.0	15.0	0.00e+00	0	55	0	405798912	57	4903
2026-01-03 23:41:23.06	40.17	25.86	-47.8	-49.9	15.1	0.00e+00	0	54	0	407896064	57	4827
2026-01-03 23:41:24.06	40.33	26.00	-47.6	-49.6	15.3	0.00e+00	0	55	0	408944640	57	4679
2026-01-03 23:41:25.04	40.48	26.14	-47.8	-49.8	15.1	0.00e+00	0	54	0	411041792	57	4791
2026-01-03 23:41:26.03	40.64	26.28	-47.5	-49.4	15.6	0.00e+00	0	55	0	413138944	57	4548
2026-01-03 23:41:27.03	40.80	26.42	-47.4	-49.3	15.6	0.00e+00	0	55	0	415236096	57	4541
2026-01-03 23:41:28.02	40.96	26.57	-47.5	-49.5	15.4	0.00e+00	0	55	0	417333248	57	4618
2026-01-03 23:41:29.01	41.12	26.71	-47.8	-49.9	15.1	0.00e+00	0	55	0	418381824	57	4832
2026-01-03 23:41:29.99	41.28	26.85	-47.7	-49.7	15.3	0.00e+00	0	55	0	420478976	57	4752
2026-01-03 23:41:30.98	41.45	26.99	-47.7	-49.7	15.3	0.00e+00	0	55	0	422576128	57	4741
2026-01-03 23:41:31.98	41.62	27.13	-47.9	-50.0	15.0	0.00e+00	0	55	0	424673280	57	4886
2026-01-03 23:41:32.96	41.78	27.28	-47.6	-49.6	15.3	0.00e+00	0	55	0	425721856	57	4701
2026-01-03 23:41:33.95	41.95	27.42	-47.7	-49.8	15.3	0.00e+00	0	55	0	427819008	57	4761
2026-01-03 23:41:34.94	42.12	27.56	-47.6	-49.6	15.4	0.00e+00	0	55	0	429916160	57	4672
2026-01-03 23:41:35.93	42.29	27.71	-47.6	-49.6	15.4	0.00e+00	0	55	0	432013312	57	4657
2026-01-03 23:41:36.92	42.47	27.86	-47.8	-49.8	15.2	0.00e+00	0	55	0	433061888	57	4776
2026-01-03 23:41:37.90	42.64	28.00	-47.5	-49.4	15.6	0.00e+00	0	55	0	435159040	57	4583
2026-01-03 23:41:38.90	42.82	28.15	-47.4	-49.3	15.7	0.00e+00	0	55	0	437256192	57	4513
2026-01-03 23:41:39.89	43.00	28.29	-47.4	-49.3	15.7	0.00e+00	0	55	0	439353344	57	4516
2026-01-03 23:41:40.88	43.18	28.44	-47.3	-49.2	15.8	0.00e+00	0	55	0	441450496	57	4483
2026-01-03 23:41:41.87	43.36	28.59	-47.5	-49.4	15.6	0.00e+00	0	55	0	442499072	57	4590
2026-01-03 23:41:42.86	43.54	28.74	-47.5	-49.4	15.6	0.00e+00	0	55	0	444596224	57	4590
2026-01-03 23:41:43.84	43.73	28.89	-47.7	-49.7	15.4	0.00e+00	0	55	0	446693376	57	4737
2026-01-03 23:41:44.83	43.91	29.04	-47.8	-49.8	15.2	0.00e+00	0	55	0	448790528	57	4786
2026-01-03 23:41:45.81	44.10	29.18	-47.9	-50.1	14.9	0.00e+00	0	55	0	449839104	57	4971
2026-01-03 23:41:46.81	44.29	29.34	-48.0	-50.1	15.0	0.00e+00	0	55	0	451936256	57	4947
2026-01-03 23:41:47.79	44.48	29.49	-48.1	-50.3	14.7	0.00e+00	0	55	0	454033408	58	4803
2026-01-03 23:41:48.78	44.67	29.64	-48.2	-50.6	14.5	0.00e+00	0	55	0	456130560	58	4932
2026-01-03 23:41:49.76	44.87	29.79	-48.2	-50.4	14.6	1.50e-06	0	55	0	457179136	58	4860
2026-01-03 23:41:50.75	45.06	29.94	-48.3	-50.6	14.4	0.00e+00	0	55	0	459276288	58	4964
2026-01-03 23:41:51.74	45.26	30.09	-48.4	-50.8	14.2	0.00e+00	0	55	0	461373440	58	5081
2026-01-03 23:41:52.73	45.46	30.24	-48.6	-51.0	14.1	0.00e+00	0	55	0	463470592	58	5190
2026-01-03 23:41:53.72	45.66	30.40	-48.6	-51.1	13.9	0.00e+00	0	55	0	464519168	58	5271
2026-01-03 23:41:54.71	45.87	30.55	-48.8	-51.4	13.7	7.60e-06	0	55	0	466616320	59	5127
2026-01-03 23:41:55.70	46.08	30.71	-48.8	-51.5	13.6	5.30e-06	0	55	0	468713472	59	5162
2026-01-03 23:41:56.69	46.28	30.86	-48.8	-51.3	13.7	9.90e-06	0	55	0	470810624	59	5095
2026-01-03 23:41:57.69	46.50	31.02	-48.4	-50.8	14.2	9.90e-06	0	55	0	472907776	59	4794
2026-01-03 23:41:58.68	46.71	31.17	-48.5	-51.0	14.1	7.00e-07	0	55	0	473956352	59	4892
2026-01-03 23:41:59.67	46.92	31.33	-48.5	-50.8	14.3	3.00e-06	0	55	0	476053504	59	4802
2026-01-03 23:42:00.67	47.14	31.49	-48.3	-50.6	14.4	0.00e+00	0	55	0	478150656	59	4672
2026-01-03 23:42:01.66	47.36	31.65	-48.8	-51.3	13.8	3.00e-06	0	55	0	480247808	59	5060
2026-01-03 23:42:02.65	47.58	31.80	-48.4	-50.7	14.3	6.10e-06	0	55	0	481296384	59	4741
2026-01-03 23:42:03.64	47.80	31.96	-48.7	-51.2	13.9	3.00e-06	0	55	0	483393536	59	4986
2026-01-03 23:42:04.63	48.03	32.12	-48.9	-51.6	13.5	3.80e-06	0	55	0	485490688	59	5222
2026-01-03 23:42:05.62	48.25	32.28	-49.0	-51.8	13.3	1.60e-05	0	55	0	487587840	59	5345
2026-01-03 23:42:06.61	48.48	32.44	-48.7	-51.2	13.9	6.10e-06	0	55	0	489684992	59	4984
2026-01-03 23:42:07.60	48.71	32.60	-48.6	-51.1	14.1	7.00e-07	0	55	0	490733568	59	4933
2026-01-03 23:42:08.58	48.94	32.75	-48.4	-50.9	14.2	3.00e-06	0	55	0	492830720	59	4821
2026-01-03 23:42:09.56	49.18	32.91	-48.6	-51.0	14.1	2.20e-06	0	55	0	494927872	59	4926
2026-01-03 23:42:10.55	49.42	33.07	-48.9	-51.5	13.5	1.22e-05	0	55	0	497025024	59	5218
2026-01-03 23:42:11.54	49.66	33.23	-48.9	-51.7	13.4	1.44e-05	0	55	0	498073600	59	5320
2026-01-03 23:42:12.54	49.90	33.40	-49.1	-52.0	13.0	2.21e-05	0	55	0	500170752	60	5211
2026-01-03 23:42:13.53	50.15	33.56	-48.9	-51.7	13.4	1.75e-05	0	55	0	502267904	60	5017
2026-01-03 23:42:14.51	50.39	33.72	-48.8	-51.5	13.6	1.67e-05	0	55	0	504365056	60	4880
2026-01-03 23:42:15.51	50.64	33.88	-48.7	-51.3	13.9	3.80e-06	0	55	0	505413632	60	4778
2026-01-03 23:42:16.51	50.90	34.04	-48.6	-51.1	13.9	3.80e-06	0	55	0	507510784	60	4693
2026-01-03 23:42:17.50	51.15	34.21	-48.6	-51.2	13.9	7.00e-07	0	55	0	509607936	60	4706
2026-01-03 23:42:18.49	51.41	34.37	-48.5	-50.9	14.1	5.30e-06	0	55	0	511705088	60	4590
2026-01-03 23:42:19.47	51.67	34.53	-48.5	-50.8	14.2	7.00e-07	0	55	0	513802240	59	4802
2026-01-03 23:42:20.47	51.93	34.69	-48.0	-50.0	14.9	2.20e-06	0	55	0	514850816	59	4377
2026-01-03 23:42:21.46	52.20	34.86	-48.1	-50.2	14.9	0.00e+00	0	55	0	516947968	59	4447
2026-01-03 23:42:22.44	52.46	35.02	-47.9	-49.9	15.2	0.00e+00	0	55	0	519045120	58	4573
2026-01-03 23:42:23.44	52.73	35.18	-48.2	-50.4	14.8	7.00e-07	0	55	0	521142272	58	4820
2026-01-03 23:42:24.44	53.01	35.35	-47.9	-50.0	15.2	0.00e+00	0	55	0	522190848	58	4615
2026-01-03 23:42:25.42	53.28	35.51	-48.0	-50.1	15.0	0.00e+00	0	56	0	524288000	58	4686
2026-01-03 23:42:26.42	53.56	35.68	-48.0	-50.1	15.0	0.00e+00	0	55	0	526385152	58	4701
2026-01-03 23:42:27.40	53.84	35.84	-47.7	-49.7	15.4	7.00e-07	0	56	0	528482304	58	4481
2026-01-03 23:42:28.38	54.12	36.00	-47.5	-49.4	15.6	0.00e+00	0	56	0	529530880	58	4325
2026-01-03 23:42:29.36	54.41	36.16	-47.2	-49.0	16.1	0.00e+00	0	56	0	531628032	57	4378
2026-01-03 23:42:30.34	54.69	36.33	-47.6	-49.5	15.5	0.00e+00	0	56	0	533725184	57	4651
2026-01-03 23:42:31.32	54.98	36.49	-47.5	-49.3	15.8	0.00e+00	0	56	0	535822336	57	4538
2026-01-03 23:42:32.31	55.28	36.65	-47.7	-49.6	15.4	0.00e+00	0	56	0	537919488	57	4692
2026-01-03 23:42:33.30	55.58	36.82	-47.9	-49.9	15.1	0.00e+00	0	55	0	538968064	57	4870
2026-01-03 23:42:34.28	55.87	36.98	-48.1	-50.2	14.9	0.00e+00	0	56	0	541065216	57	5033
2026-01-03 23:42:35.27	56.18	37.14	-48.0	-50.2	15.0	0.00e+00	0	56	0	543162368	57	4984
2026-01-03 23:42:36.26	56.48	37.31	-48.2	-50.4	14.8	0.00e+00	0	56	0	545259520	58	4831
2026-01-03 23:42:37.25	56.79	37.47	-48.1	-50.3	14.9	0.00e+00	0	56	0	546308096	58	4787
2026-01-03 23:42:38.25	57.11	37.64	-48.0	-50.2	14.9	7.00e-07	0	55	0	548405248	58	4714
2026-01-03 23:42:39.23	57.42	37.80	-47.6	-49.6	15.5	0.00e+00	0	56	0	550502400	58	4411
2026-01-03 23:42:40.23	57.75	37.96	-47.4	-49.3	15.8	0.00e+00	0	56	0	552599552	57	4507
2026-01-03 23:42:41.21	58.07	38.13	-47.1	-48.9	16.2	0.00e+00	0	56	0	553648128	57	4327
2026-01-03 23:42:42.21	58.40	38.29	-47.4	-49.2	15.9	0.00e+00	0	56	0	555745280	57	4483
2026-01-03 23:42:43.20	58.72	38.45	-47.4	-49.3	15.8	0.00e+00	0	55	0	557842432	57	4526
2026-01-03 23:42:44.19	59.06	38.62	-47.5	-49.4	15.7	0.00e+00	0	56	0	559939584	57	4585
2026-01-03 23:42:45.18	59.39	38.78	-47.3	-49.1	16.0	0.00e+00	0	56	0	560988160	57	4436
2026-01-03 23:42:46.16	59.73	38.94	-47.0	-48.7	16.4	0.00e+00	0	56	0	563085312	57	4227
2026-01-03 23:42:47.15	60.07	39.10	-47.3	-49.1	15.9	0.00e+00	0	56	0	565182464	57	4429
2026-01-03 23:42:48.13	60.41	39.26	-47.4	-49.2	15.9	0.00e+00	0	56	0	567279616	57	4471
2026-01-03 23:42:49.12	60.76	39.42	-48.0	-50.3	14.9	0.00e+00	0	56	0	569376768	57	5051
2026-01-03 23:42:50.11	61.11	39.58	-47.7	-49.7	15.4	0.00e+00	0	56	0	570425344	57	4750
2026-01-03 23:42:51.11	61.47	39.74	-47.4	-49.2	15.9	0.00e+00	0	56	0	572522496	57	4463
2026-01-03 23:42:52.10	61.83	39.90	-47.2	-48.9	16.2	0.00e+00	0	56	0	574619648	57	4308
2026-01-03 23:42:53.09	62.20	40.06	-47.4	-49.2	15.9	0.00e+00	0	55	0	576716800	57	4462
2026-01-03 23:42:54.08	62.56	40.22	-47.9	-49.9	15.2	0.00e+00	0	56	0	577765376	57	4847
2026-01-03 23:42:55.06	62.93	40.38	-47.6	-49.6	15.4	0.00e+00	0	56	0	579862528	57	4705
2026-01-03 23:42:56.05	63.30	40.53	-48.2	-50.5	14.6	0.00e+00	0	56	0	581959680	58	4900
2026-01-03 23:42:57.05	63.68	40.69	-48.0	-50.2	15.0	0.00e+00	0	56	0	584056832	58	4712
2026-01-03 23:42:58.03	64.06	40.85	-48.0	-50.1	15.0	7.00e-07	0	56	0	586153984	58	4664
2026-01-03 23:42:59.03	64.45	41.00	-48.2	-50.4	14.8	0.00e+00	0	56	0	587202560	58	4831
2026-01-03 23:43:00.01	64.83	41.16	-48.2	-50.4	14.8	1.50e-06	0	56	0	589299712	58	4837
2026-01-03 23:43:01.00	65.23	41.31	-48.3	-50.8	14.4	7.00e-07	0	56	0	591396864	58	5053
2026-01-03 23:43:02.00	65.62	41.47	-48.7	-51.3	14.0	2.20e-06	0	56	0	593494016	59	5059
2026-01-03 23:43:02.99	66.02	41.62	-48.6	-51.1	14.1	2.20e-06	0	56	0	594542592	59	4947
2026-01-03 23:43:03.98	66.43	41.77	-48.0	-50.1	15.0	0.00e+00	0	56	0	596639744	59	4405
2026-01-03 23:43:04.97	66.83	41.92	-47.4	-49.3	15.9	0.00e+00	0	56	0	598736896	57	4497
2026-01-03 23:43:05.97	67.25	42.07	-47.4	-49.2	15.9	0.00e+00	0	56	0	600834048	57	4489
2026-01-03 23:43:06.96	67.66	42.22	-47.9	-49.9	15.3	0.00e+00	0	56	0	601882624	57	4845
2026-01-03 23:43:07.96	68.08	42.37	-47.7	-49.7	15.5	0.00e+00	0	56	0	603979776	57	4719
2026-01-03 23:43:08.95	68.51	42.51	-48.2	-50.4	14.7	0.00e+00	0	56	0	606076928	58	4870
2026-01-03 23:43:09.94	68.93	42.66	-48.9	-51.5	13.6	6.80e-06	0	56	0	608174080	59	5211
2026-01-03 23:43:10.93	69.36	42.80	-48.8	-51.5	13.7	1.29e-05	0	56	0	610271232	60	4880
2026-01-03 23:43:11.92	69.79	42.94	-48.7	-51.3	13.8	6.80e-06	0	56	0	611319808	60	4787
2026-01-03 23:43:12.91	70.23	43.08	-48.6	-51.1	14.0	1.50e-06	0	56	0	613416960	60	4667
2026-01-03 23:43:13.89	70.67	43.22	-48.8	-51.3	13.8	2.20e-06	0	56	0	615514112	60	4808
2026-01-03 23:43:14.88	71.11	43.36	-48.8	-51.4	13.8	8.30e-06	0	56	0	617611264	60	4828
2026-01-03 23:43:15.87	71.56	43.50	-48.9	-51.6	13.6	9.10e-06	0	56	0	618659840	60	4929
2026-01-03 23:43:16.86	72.01	43.63	-48.8	-51.5	13.7	4.50e-06	0	56	0	620756992	60	4897
2026-01-03 23:43:17.84	72.46	43.77	-48.8	-51.4	13.8	5.30e-06	0	56	0	622854144	60	4840
2026-01-03 23:43:18.83	72.92	43.90	-49.5	-52.6	12.6	1.75e-05	0	56	0	624951296	60	5554
2026-01-03 23:43:19.82	73.39	44.03	-49.4	-52.5	12.6	8.31e-05	0	56	0	625999872	60	5472
2026-01-03 23:43:20.81	73.86	44.16	-49.5	-52.8	12.4	1.43e-04	0	56	0	628097024	61	5363
2026-01-03 23:43:21.80	74.33	44.29	-49.0	-51.7	13.4	5.11e-05	0	56	0	630194176	61	4757
2026-01-03 23:43:22.79	74.80	44.42	-48.7	-51.1	14.0	6.80e-06	0	56	0	632291328	60	4699
2026-01-03 23:43:23.78	75.28	44.54	-48.7	-51.2	14.0	2.20e-06	0	56	0	634388480	60	4748
2026-01-03 23:43:24.77	75.76	44.66	-49.1	-51.9	13.3	1.50e-06	0	56	0	635437056	60	5123
2026-01-03 23:43:25.76	76.25	44.78	-49.9	-53.5	11.6	1.47e-04	0	56	0	637534208	61	5833
2026-01-03 23:43:26.75	76.74	44.90	-50.2	-54.2	10.8	1.70e-03	0	56	0	639631360	62	5938
2026-01-03 23:43:27.74	77.23	45.02	-50.0	-53.7	11.4	1.50e-03	0	56	0	641728512	62	5641
2026-01-03 23:43:28.73	77.73	45.13	-50.1	-54.1	11.0	1.46e-03	0	56	0	642777088	62	5857
2026-01-03 23:43:29.70	78.22	45.25	-50.4	-54.5	10.5	2.95e-03	0	56	0	644874240	62	6163
2026-01-03 23:43:30.68	78.72	45.36	-50.7	-55.7	9.4	9.82e-03	0	56	0	646971392	63	6670
2026-01-03 23:43:31.67	79.22	45.46	-50.8	-55.6	9.3	5.74e-02	0	56	0	649068544	64	6261
2026-01-03 23:43:32.65	79.73	45.57	-49.9	-53.6	11.4	1.48e-03	0	56	0	650117120	63	5251
2026-01-03 23:43:33.64	80.24	45.68	-49.1	-52.0	13.1	5.56e-05	0	56	0	652214272	61	4920
2026-01-03 23:43:34.63	80.76	45.78	-49.1	-52.0	13.1	3.05e-05	0	56	0	654311424	60	5205
2026-01-03 23:43:35.63	81.29	45.88	-50.0	-53.6	11.5	1.39e-04	0	56	0	656408576	61	5915
2026-01-03 23:43:36.61	81.81	45.98	-50.1	-54.0	11.2	1.67e-03	0	56	0	657457152	62	5810
2026-01-03 23:43:37.60	82.33	46.07	-49.7	-53.0	12.1	6.31e-04	0	56	0	659554304	62	5160
2026-01-03 23:43:38.59	82.86	46.16	-49.3	-52.5	12.6	5.34e-05	0	56	0	661651456	61	5184
2026-01-03 23:43:39.58	83.40	46.26	-49.6	-53.0	12.1	1.65e-04	0	56	0	663748608	61	5525
2026-01-03 23:43:40.57	83.93	46.34	-51.1	-55.5	9.9	3.76e-03	0	56	0	665845760	63	6513
2026-01-03 23:43:41.56	84.47	46.43	-50.6	-55.3	9.7	2.56e-02	0	56	0	666894336	63	6376
2026-01-03 23:43:42.55	85.01	46.51	-50.2	-54.2	10.8	6.51e-03	0	56	0	668991488	63	5628
2026-01-03 23:43:43.54	85.56	46.59	-50.1	-53.7	11.3	1.36e-03	0	56	0	671088640	63	5337
2026-01-03 23:43:44.54	86.11	46.67	-50.1	-53.8	11.4	6.55e-04	0	56	0	673185792	62	5678
2026-01-03 23:43:45.52	86.66	46.75	-49.8	-53.3	11.9	5.55e-04	0	56	0	674234368	62	5386
2026-01-03 23:43:46.51	87.21	46.82	-49.1	-51.8	13.3	6.48e-05	0	56	0	676331520	61	4791
2026-01-03 23:43:47.50	87.77	46.89	-48.4	-50.8	14.4	1.50e-06	0	56	0	678428672	59	4764
2026-01-03 23:43:48.50	88.33	46.96	-48.6	-50.9	14.3	0.00e+00	0	56	0	680525824	59	4862
2026-01-03 23:43:49.48	88.89	47.02	-48.9	-51.6	13.6	4.50e-06	0	56	0	681574400	59	5243
2026-01-03 23:43:50.47	89.45	47.08	-49.2	-52.0	13.2	1.22e-05	0	56	0	683671552	60	5179
2026-01-03 23:43:51.46	90.01	47.14	-49.4	-52.5	12.6	8.31e-05	0	56	0	685768704	60	5506
2026-01-03 23:43:52.45	90.58	47.19	-49.5	-52.6	12.6	9.53e-05	0	56	0	687865856	60	5562
2026-01-03 23:43:53.44	91.15	47.25	-48.8	-51.5	13.6	4.50e-05	0	56	0	689963008	60	4912
2026-01-03 23:43:54.43	91.72	47.30	-48.3	-50.6	14.5	2.20e-06	0	56	0	691011584	59	4675
2026-01-03 23:43:55.41	92.29	47.34	-48.1	-50.2	15.0	0.00e+00	0	56	0	693108736	59	4491
2026-01-03 23:43:56.40	92.86	47.39	-48.6	-50.9	14.3	2.20e-06	0	56	0	695205888	59	4864
2026-01-03 23:43:57.39	93.44	47.43	-49.1	-51.9	13.3	5.30e-06	0	56	0	697303040	59	5423
2026-01-03 23:43:58.38	94.01	47.46	-49.2	-52.1	13.0	3.80e-06	0	56	0	698351616	60	5266
2026-01-03 23:43:59.37	94.59	47.50	-49.7	-52.9	12.3	1.62e-04	0	56	0	700448768	61	5442
2026-01-03 23:44:00.36	95.17	47.53	-50.6	-54.2	11.3	5.21e-04	0	56	0	702545920	62	5973
2026-01-03 23:44:01.36	95.76	47.56	-49.9	-53.4	11.7	1.05e-03	0	56	0	704643072	62	5415
2026-01-03 23:44:02.34	96.33	47.58	-48.9	-51.5	13.7	2.44e-05	0	56	0	706740224	60	4908
2026-01-03 23:44:03.33	96.92	47.61	-48.3	-50.5	14.6	1.50e-06	0	56	0	707788800	59	4633
2026-01-03 23:44:04.32	97.50	47.63	-49.0	-51.9	13.4	5.30e-06	0	56	0	709885952	59	5414
2026-01-03 23:44:05.31	98.08	47.64	-49.9	-53.5	11.5	2.46e-04	0	56	0	711983104	61	5850
2026-01-03 23:44:06.31	98.67	47.65	-49.8	-53.3	11.8	1.23e-03	0	56	0	714080256	62	5351
2026-01-03 23:44:07.29	99.25	47.66	-49.1	-51.9	13.2	1.36e-04	0	56	0	715128832	61	4862
2026-01-03 23:44:08.28	99.84	47.67	-48.7	-51.3	13.8	7.60e-06	0	56	0	717225984	60	4811
2026-01-03 23:44:09.27	100.42	47.67	-49.0	-51.7	13.5	6.10e-06	0	56	0	719323136	60	5036
2026-01-03 23:44:10.26	101.01	47.67	-49.6	-53.1	12.0	2.23e-04	0	56	0	721420288	61	5536
2026-01-03 23:44:11.25	101.59	47.67	-49.3	-52.5	12.7	1.72e-04	0	56	0	722468864	61	5179
2026-01-03 23:44:12.24	102.18	47.66	-49.1	-52.1	13.1	4.11e-05	0	56	0	724566016	61	4935
2026-01-03 23:44:13.24	102.77	47.65	-49.1	-52.0	13.1	2.05e-05	0	56	0	726663168	61	4909
2026-01-03 23:44:14.23	103.36	47.64	-49.2	-52.3	12.8	9.38e-05	0	56	0	728760320	61	5076
2026-01-03 23:44:15.23	103.95	47.62	-48.6	-51.2	13.8	1.60e-05	0	56	0	730857472	60	4707
2026-01-03 23:44:16.21	104.52	47.61	-47.7	-49.7	15.5	1.50e-06	0	56	0	731906048	58	4444
2026-01-03 23:44:17.21	105.11	47.58	-47.6	-49.4	15.7	0.00e+00	0	56	0	734003200	58	4337
2026-01-03 23:44:18.20	105.69	47.56	-47.9	-49.9	15.2	0.00e+00	0	56	0	736100352	58	4596
2026-01-03 23:44:19.18	106.27	47.53	-49.1	-51.8	13.4	2.20e-06	0	56	0	738197504	60	5083
2026-01-03 23:44:20.18	106.85	47.50	-49.3	-52.2	13.0	4.19e-05	0	57	0	739246080	60	5311
2026-01-03 23:44:21.16	107.43	47.46	-49.1	-51.9	13.3	1.44e-05	0	56	0	741343232	60	5106
2026-01-03 23:44:22.16	108.01	47.42	-49.4	-52.4	12.9	1.44e-05	0	56	0	743440384	60	5429
2026-01-03 23:44:23.15	108.59	47.38	-49.6	-52.8	12.3	1.99e-04	0	56	0	745537536	61	5387
2026-01-03 23:44:24.14	109.16	47.34	-49.7	-53.0	12.2	3.06e-04	0	56	0	747634688	61	5500
2026-01-03 23:44:25.14	109.74	47.29	-49.1	-51.9	13.3	9.23e-05	0	56	0	748683264	61	4860
2026-01-03 23:44:26.11	110.30	47.24	-49.1	-51.9	13.2	1.22e-05	0	56	0	750780416	61	4856
2026-01-03 23:44:27.10	110.87	47.19	-49.6	-52.9	12.2	2.74e-05	0	56	0	752877568	61	5458
2026-01-03 23:44:28.09	111.43	47.14	-50.2	-54.2	10.9	5.97e-04	0	56	0	754974720	62	5954
2026-01-03 23:44:29.08	112.00	47.08	-50.0	-53.5	11.7	1.24e-03	0	56	0	756023296	62	5510
2026-01-03 23:44:30.06	112.56	47.02	-48.7	-51.2	14.0	5.49e-05	0	56	0	758120448	60	4734
2026-01-03 23:44:31.04	113.11	46.95	-48.1	-50.2	14.9	7.00e-07	0	56	0	760217600	59	4473
2026-01-03 23:44:32.04	113.68	46.88	-48.1	-50.2	15.0	0.00e+00	0	56	0	762314752	59	4479
2026-01-03 23:44:33.03	114.23	46.81	-48.3	-50.5	14.7	0.00e+00	0	57	0	763363328	59	4615
2026-01-03 23:44:34.02	114.79	46.74	-47.2	-49.0	16.2	0.00e+00	0	56	0	765460480	57	4347
2026-01-03 23:44:35.02	115.34	46.67	-46.9	-48.4	16.8	0.00e+00	0	56	0	767557632	56	4336
2026-01-03 23:44:36.00	115.88	46.59	-47.2	-48.9	16.2	0.00e+00	0	57	0	769654784	56	4594
2026-01-03 23:44:37.00	116.44	46.51	-48.6	-51.1	14.2	0.00e+00	0	57	0	770703360	59	4942
2026-01-03 23:44:37.98	116.97	46.42	-49.3	-52.4	12.8	3.35e-05	0	56	0	772800512	60	5412
2026-01-03 23:44:38.98	117.52	46.34	-48.5	-50.9	14.3	1.14e-05	0	57	0	774897664	60	4579
2026-01-03 23:44:39.97	118.06	46.25	-47.6	-49.6	15.6	0.00e+00	0	57	0	776994816	58	4401
2026-01-03 23:44:40.97	118.59	46.16	-47.0	-48.6	16.5	0.00e+00	0	57	0	779091968	57	4193
2026-01-03 23:44:41.96	119.13	46.06	-47.4	-49.2	15.9	0.00e+00	0	57	0	780140544	57	4465
2026-01-03 23:44:42.94	119.65	45.97	-47.6	-49.5	15.7	0.00e+00	0	57	0	782237696	57	4607
2026-01-03 23:44:43.92	120.17	45.87	-47.8	-49.8	15.5	0.00e+00	0	57	0	784334848	57	4777
2026-01-03 23:44:44.91	120.69	45.77	-47.8	-49.8	15.4	0.00e+00	0	57	0	786432000	57	4769
2026-01-03 23:44:45.89	121.20	45.67	-48.1	-50.4	14.9	0.00e+00	0	57	0	787480576	58	4823
2026-01-03 23:44:46.87	121.71	45.57	-48.7	-51.2	14.1	0.00e+00	0	57	0	789577728	59	5018
2026-01-03 23:44:47.86	122.22	45.46	-49.6	-53.0	12.2	1.03e-04	0	57	0	791674880	61	5498
2026-01-03 23:44:48.86	122.73	45.35	-49.5	-52.6	12.6	1.46e-04	0	57	0	793772032	61	5250
2026-01-03 23:44:49.85	123.24	45.24	-48.3	-50.5	14.7	1.60e-05	0	56	0	794820608	59	4622
2026-01-03 23:44:50.84	123.74	45.12	-47.2	-49.0	16.1	0.00e+00	0	57	0	796917760	57	4362
2026-01-03 23:44:51.83	124.24	45.01	-47.6	-49.6	15.7	0.00e+00	0	57	0	799014912	57	4655
2026-01-03 23:44:52.82	124.73	44.89	-48.1	-50.3	14.9	0.00e+00	0	57	0	801112064	58	4777
2026-01-03 23:44:53.81	125.22	44.77	-48.5	-50.8	14.4	1.50e-06	0	57	0	803209216	58	5079
2026-01-03 23:44:54.80	125.71	44.65	-47.4	-49.2	15.9	0.00e+00	0	57	0	804257792	58	4226
2026-01-03 23:44:55.79	126.19	44.53	-46.1	-47.5	17.5	0.00e+00	0	57	0	806354944	55	4124
2026-01-03 23:44:56.78	126.67	44.40	-46.0	-47.4	17.6	0.00e+00	0	57	0	808452096	55	4070
2026-01-03 23:44:57.77	127.14	44.27	-46.9	-48.5	16.6	0.00e+00	0	57	0	810549248	55	4613
2026-01-03 23:44:58.76	127.62	44.15	-47.1	-48.7	16.4	0.00e+00	0	57	0	811597824	56	4493
2026-01-03 23:44:59.74	128.08	44.02	-46.7	-48.2	16.9	0.00e+00	0	57	0	813694976	56	4224
2026-01-03 23:45:00.73	128.54	43.88	-45.5	-46.7	18.1	0.00e+00	0	57	0	815792128	54	4004
2026-01-03 23:45:01.71	129.00	43.75	-45.4	-46.7	18.3	0.00e+00	0	57	0	817889280	53	4194
2026-01-03 23:45:02.70	129.45	43.62	-46.3	-47.7	17.3	0.00e+00	0	57	0	818937856	54	4483
2026-01-03 23:45:03.69	129.91	43.48	-46.9	-48.6	16.4	0.00e+00	0	56	0	821035008	55	4697
2026-01-03 23:45:04.68	130.36	43.34	-46.4	-47.9	17.1	0.00e+00	0	57	0	823132160	55	4324
2026-01-03 23:45:05.67	130.80	43.21	-45.2	-46.4	18.5	0.00e+00	0	57	0	825229312	53	4080
2026-01-03 23:45:06.66	131.24	43.06	-44.9	-46.0	18.9	0.00e+00	0	57	0	827326464	52	4130
2026-01-03 23:45:07.64	131.68	42.92	-45.9	-47.2	17.8	0.00e+00	0	57	0	828375040	53	4448
2026-01-03 23:45:08.63	132.11	42.78	-46.5	-48.1	17.0	0.00e+00	0	57	0	830472192	54	4663
2026-01-03 23:45:09.61	132.53	42.64	-46.4	-47.9	17.1	0.00e+00	0	57	0	832569344	55	4321
2026-01-03 23:45:10.60	132.96	42.49	-45.6	-46.9	18.1	0.00e+00	0	57	0	834666496	54	4087
2026-01-03 23:45:11.59	133.38	42.35	-44.4	-45.5	19.4	0.00e+00	0	57	0	835715072	52	3877
2026-01-03 23:45:12.58	133.80	42.20	-44.5	-45.5	19.5	0.00e+00	0	57	0	837812224	51	4116
2026-01-03 23:45:13.57	134.22	42.05	-45.0	-46.1	18.9	0.00e+00	0	57	0	839909376	51	4419
2026-01-03 23:45:14.56	134.63	41.90	-45.5	-46.8	18.2	0.00e+00	0	57	0	842006528	52	4495
2026-01-03 23:45:15.55	135.03	41.75	-45.5	-46.7	18.2	0.00e+00	0	57	0	843055104	53	4214
2026-01-03 23:45:16.54	135.44	41.60	-44.8	-45.9	19.0	0.00e+00	0	57	0	845152256	52	4089
2026-01-03 23:45:17.53	135.84	41.45	-45.1	-46.3	18.7	0.00e+00	0	57	0	847249408	52	4253
2026-01-03 23:45:18.51	136.23	41.29	-46.0	-47.3	17.7	0.00e+00	0	57	0	849346560	53	4522
2026-01-03 23:45:19.50	136.62	41.14	-46.8	-48.4	16.5	0.00e+00	0	57	0	850395136	55	4595
2026-01-03 23:45:20.49	137.01	40.98	-46.5	-48.0	17.0	0.00e+00	0	57	0	852492288	55	4361
2026-01-03 23:45:21.48	137.40	40.83	-45.1	-46.2	18.6	0.00e+00	0	57	0	854589440	53	4003
2026-01-03 23:45:22.47	137.78	40.67	-44.5	-45.6	19.3	0.00e+00	0	57	0	856686592	52	3921
2026-01-03 23:45:23.46	138.16	40.51	-45.2	-46.4	18.6	0.00e+00	0	57	0	858783744	52	4330
2026-01-03 23:45:24.45	138.53	40.36	-46.9	-48.6	16.4	0.00e+00	0	57	0	859832320	55	4685
2026-01-03 23:45:25.45	138.90	40.20	-48.4	-50.8	14.5	0.00e+00	0	57	0	861929472	58	5047
2026-01-03 23:45:26.44	139.27	40.04	-48.1	-50.2	15.0	2.20e-06	0	57	0	864026624	58	4734
2026-01-03 23:45:27.42	139.63	39.88	-47.1	-48.8	16.3	0.00e+00	0	57	0	866123776	57	4269
2026-01-03 23:45:28.42	139.99	39.72	-46.7	-48.3	16.8	0.00e+00	0	57	0	867172352	56	4264
2026-01-03 23:45:29.40	140.35	39.56	-47.0	-48.7	16.6	0.00e+00	0	57	0	869269504	56	4470
2026-01-03 23:45:30.38	140.70	39.40	-48.7	-51.2	14.1	0.00e+00	0	57	0	871366656	59	4997
2026-01-03 23:45:31.36	141.04	39.24	-50.3	-54.4	10.8	1.36e-04	0	57	0	873463808	62	6086
2026-01-03 23:45:32.35	141.39	39.08	-50.8	-55.9	9.2	2.28e-02	0	57	0	874512384	63	6835
2026-01-03 23:45:33.35	141.74	38.91	-49.6	-52.9	12.2	3.56e-03	0	57	0	876609536	62	5134
2026-01-03 23:45:34.34	142.08	38.75	-48.4	-50.7	14.5	5.30e-06	0	57	0	878706688	59	4708
2026-01-03 23:45:35.32	142.41	38.59	-48.1	-50.3	14.9	0.00e+00	0	57	0	880803840	59	4502
2026-01-03 23:45:36.31	142.74	38.43	-48.7	-51.2	14.0	0.00e+00	0	57	0	882900992	59	4987
2026-01-03 23:45:37.29	143.07	38.26	-50.1	-53.8	11.3	2.11e-04	0	57	0	883949568	61	6039
2026-01-03 23:45:38.28	143.39	38.10	-51.2	-57.4	7.6	3.79e-02	0	57	0	886046720	64	7701
2026-01-03 23:45:39.28	143.72	37.93	-50.8	-55.9	9.0	6.86e-02	0	57	0	888143872	64	6459
2026-01-03 23:45:40.27	144.04	37.77	-50.1	-53.8	11.2	2.61e-03	0	57	0	890241024	63	5398
2026-01-03 23:45:41.26	144.36	37.61	-49.5	-52.6	12.6	1.91e-04	0	57	0	891289600	62	4930
2026-01-03 23:45:42.25	144.67	37.44	-49.1	-51.8	13.4	2.97e-05	0	57	0	893386752	61	4786
2026-01-03 23:45:43.23	144.98	37.28	-49.4	-52.4	12.8	2.44e-05	0	57	0	895483904	61	5133
2026-01-03 23:45:44.22	145.29	37.11	-50.2	-54.1	11.1	1.09e-03	0	57	0	897581056	62	5884
2026-01-03 23:45:45.21	145.59	36.95	-51.2	-56.9	8.0	3.04e-02	0	57	0	898629632	64	7283
2026-01-03 23:45:46.21	145.90	36.78	-51.4	-58.0	7.1	1.07e-01	0	57	0	900726784	64	8241
2026-01-03 23:45:47.20	146.19	36.62	-51.1	-56.9	8.0	9.36e-02	0	57	0	902823936	64	7244
2026-01-03 23:45:48.18	146.49	36.45	-50.5	-54.8	10.3	1.00e-02	0	57	0	904921088	63	6007
2026-01-03 23:45:49.17	146.78	36.29	-50.3	-54.3	10.9	2.66e-03	0	57	0	907018240	63	5665
2026-01-03 23:45:50.16	147.07	36.12	-50.3	-54.2	10.9	1.88e-03	0	57	0	908066816	63	5635
2026-01-03 23:45:51.15	147.36	35.96	-51.1	-56.7	8.3	3.98e-02	0	57	0	910163968	64	7058
2026-01-03 23:45:52.14	147.64	35.79	-51.8	-59.8	5.6	2.64e-01	0	57	0	912261120	65	9605
2026-01-03 23:45:53.12	147.92	35.63	-51.8	-61.0	4.9	6.61e-01	0	57	0	914358272	65	10967
2026-01-03 23:45:54.12	148.20	35.47	-51.8	-60.0	5.3	7.23e-01	0	57	0	915406848	65	9762
2026-01-03 23:45:55.11	148.48	35.30	-51.2	-57.0	7.8	1.29e-01	0	57	0	917504000	65	6905
2026-01-03 23:45:56.10	148.75	35.14	-50.2	-54.1	10.9	5.37e-03	0	57	0	919601152	63	5563
2026-01-03 23:45:57.09	149.02	34.97	-49.3	-52.4	12.7	3.65e-04	0	57	0	921698304	61	5119
2026-01-03 23:45:58.09	149.29	34.81	-48.8	-51.5	13.6	2.36e-05	0	57	0	923795456	60	4922
2026-01-03 23:45:59.07	149.55	34.65	-48.9	-51.5	13.6	6.10e-06	0	57	0	924844032	60	4915
2026-01-03 23:46:00.06	149.81	34.48	-49.7	-53.1	12.0	4.88e-05	0	57	0	926941184	61	5566
2026-01-03 23:46:01.05	150.07	34.32	-50.3	-54.4	10.7	1.27e-03	0	57	0	929038336	62	6080
2026-01-03 23:46:02.04	150.33	34.16	-50.5	-55.0	10.0	5.53e-03	0	57	0	931135488	62	6528
2026-01-03 23:46:03.04	150.59	33.99	-49.5	-52.7	12.4	1.12e-03	0	57	0	932184064	62	5011
2026-01-03 23:46:04.04	150.84	33.83	-48.0	-50.1	15.0	7.60e-06	0	57	0	934281216	59	4401
2026-01-03 23:46:05.03	151.09	33.66	-46.7	-48.3	16.7	0.00e+00	0	57	0	936378368	56	4266
2026-01-03 23:46:06.02	151.34	33.50	-46.3	-47.7	17.3	0.00e+00	0	57	0	938475520	55	4234
2026-01-03 23:46:07.01	151.59	33.34	-46.7	-48.3	16.7	0.00e+00	0	57	0	939524096	55	4510
2026-01-03 23:46:08.00	151.83	33.18	-47.6	-49.5	15.7	0.00e+00	0	57	0	941621248	57	4615
2026-01-03 23:46:08.99	152.07	33.02	-48.7	-51.2	14.0	0.00e+00	0	57	0	943718400	59	5015
2026-01-03 23:46:09.98	152.31	32.86	-49.9	-53.5	11.7	1.82e-04	0	57	0	945815552	61	5793
2026-01-03 23:46:10.97	152.54	32.70	-50.1	-54.2	10.9	2.54e-03	0	57	0	946864128	62	5927
2026-01-03 23:46:11.95	152.78	32.54	-49.7	-53.0	12.1	1.02e-03	0	57	0	948961280	62	5196
2026-01-03 23:46:12.95	153.01	32.38	-48.7	-51.3	13.8	5.18e-05	0	57	0	951058432	60	4814
2026-01-03 23:46:13.94	153.24	32.22	-48.0	-50.0	15.1	7.00e-07	0	57	0	953155584	59	4381
2026-01-03 23:46:14.93	153.46	32.06	-47.7	-49.7	15.4	0.00e+00	0	57	0	955252736	58	4474
2026-01-03 23:46:15.92	153.69	31.90	-48.0	-50.1	15.0	0.00e+00	0	57	0	956301312	58	4671
2026-01-03 23:46:16.91	153.91	31.74	-48.4	-50.7	14.5	1.50e-06	0	57	0	958398464	58	5002
2026-01-03 23:46:17.90	154.13	31.58	-49.1	-51.9	13.2	1.06e-05	0	57	0	960495616	60	5133
2026-01-03 23:46:18.89	154.35	31.42	-49.5	-52.8	12.3	6.94e-05	0	57	0	962592768	60	5676
2026-01-03 23:46:19.89	154.57	31.27	-49.9	-53.5	11.6	3.93e-04	0	57	0	963641344	61	5831
2026-01-03 23:46:20.88	154.78	31.11	-49.5	-52.6	12.5	2.11e-04	0	57	0	965738496	61	5243
2026-01-03 23:46:21.88	155.00	30.95	-48.9	-51.6	13.5	1.14e-05	0	57	0	967835648	60	4956
2026-01-03 23:46:22.86	155.21	30.80	-48.2	-50.4	14.7	0.00e+00	0	57	0	969932800	59	4576
2026-01-03 23:46:23.85	155.41	30.64	-47.5	-49.3	15.8	0.00e+00	0	57	0	972029952	58	4286
2026-01-03 23:46:24.84	155.62	30.49	-47.3	-49.0	16.1	0.00e+00	0	57	0	973078528	57	4358
2026-01-03 23:46:25.83	155.82	30.33	-47.8	-49.7	15.5	0.00e+00	0	57	0	975175680	57	4734
2026-01-03 23:46:26.81	156.03	30.18	-47.9	-50.0	15.1	0.00e+00	0	57	0	977272832	57	4917
2026-01-03 23:46:27.81	156.23	30.02	-48.7	-51.2	13.9	0.00e+00	0	57	0	979369984	59	5011
2026-01-03 23:46:28.80	156.43	29.87	-49.3	-52.4	12.9	4.27e-05	0	57	0	980418560	60	5403
2026-01-03 23:46:29.79	156.62	29.72	-49.9	-53.5	11.6	1.84e-04	0	57	0	982515712	61	5807
2026-01-03 23:46:30.77	156.82	29.57	-50.0	-53.8	11.1	1.15e-03	0	57	0	984612864	62	5722
2026-01-03 23:46:31.76	157.01	29.41	-50.1	-54.0	11.0	1.30e-03	0	57	0	986710016	62	5851
2026-01-03 23:46:32.75	157.20	29.26	-49.6	-52.9	12.1	6.09e-04	0	57	0	987758592	62	5147
2026-01-03 23:46:33.75	157.39	29.11	-49.3	-52.2	12.8	1.17e-04	0	57	0	989855744	61	5017
2026-01-03 23:46:34.74	157.58	28.96	-48.6	-51.1	13.9	1.52e-05	0	57	0	991952896	60	4702
2026-01-03 23:46:35.72	157.77	28.81	-48.1	-50.3	14.8	0.00e+00	0	57	0	994050048	59	4495
2026-01-03 23:46:36.71	157.95	28.66	-47.9	-49.9	15.2	0.00e+00	0	57	0	996147200	58	4573
2026-01-03 23:46:37.70	158.13	28.51	-47.9	-49.9	15.3	0.00e+00	0	57	0	997195776	58	4563
2026-01-03 23:46:38.69	158.32	28.36	-47.9	-50.0	15.1	0.00e+00	0	57	0	999292928	58	4632
2026-01-03 23:46:39.68	158.50	28.22	-48.1	-50.2	14.9	7.00e-07	0	57	0	1001390080	58	4735
2026-01-03 23:46:40.66	158.67	28.07	-48.6	-51.1	14.1	0.00e+00	0	57	0	1003487232	58	5237
2026-01-03 23:46:41.65	158.85	27.92	-49.0	-51.8	13.3	6.80e-06	0	57	0	1004535808	59	5353
2026-01-03 23:46:42.63	159.02	27.78	-49.4	-52.5	12.6	1.52e-05	0	57	0	1006632960	60	5481
2026-01-03 23:46:43.63	159.20	27.63	-49.1	-51.8	13.2	3.89e-05	0	57	0	1008730112	60	5084
2026-01-03 23:46:44.62	159.37	27.48	-48.4	-50.7	14.4	3.00e-06	0	57	0	1010827264	59	4709
2026-01-03 23:46:45.61	159.54	27.34	-47.8	-49.8	15.2	0.00e+00	0	57	0	1011875840	58	4541
2026-01-03 23:46:46.60	159.71	27.19	-46.9	-48.5	16.5	0.00e+00	0	57	0	1013972992	57	4144
2026-01-03 23:46:47.58	159.87	27.05	-46.2	-47.6	17.3	0.00e+00	0	57	0	1016070144	55	4186
2026-01-03 23:46:48.57	160.04	26.91	-46.0	-47.4	17.4	0.00e+00	0	57	0	1018167296	55	4087
2026-01-03 23:46:49.55	160.20	26.77	-45.8	-47.2	17.8	0.00e+00	0	57	0	1020264448	54	4200
2026-01-03 23:46:50.54	160.37	26.62	-46.0	-47.4	17.5	0.00e+00	0	57	0	1021313024	54	4331
2026-01-03 23:46:51.53	160.53	26.48	-46.3	-47.8	17.1	0.00e+00	0	57	0	1023410176	54	4505
2026-01-03 23:46:52.51	160.69	26.34	-46.4	-48.0	17.0	0.00e+00	0	57	0	1025507328	54	4607
2026-01-03 23:46:53.50	160.85	26.20	-46.9	-48.7	16.3	0.00e+00	0	57	0	1027604480	55	4730
2026-01-03 23:46:54.49	161.00	26.06	-47.4	-49.2	15.9	0.00e+00	0	57	0	1028653056	56	4725
2026-01-03 23:46:55.48	161.16	25.92	-47.7	-49.6	15.5	0.00e+00	0	57	0	1030750208	57	4693
2026-01-03 23:46:56.47	161.31	25.78	-48.2	-50.5	14.6	0.00e+00	0	57	0	1032847360	58	4886
2026-01-03 23:46:57.46	161.47	25.64	-48.2	-50.4	14.7	0.00e+00	0	57	0	1034944512	58	4845
2026-01-03 23:46:58.45	161.62	25.50	-48.4	-50.8	14.3	7.00e-07	0	57	0	1035993088	59	4798
2026-01-03 23:46:59.44	161.77	25.37	-48.4	-50.7	14.4	7.00e-07	0	57	0	1038090240	59	4741
2026-01-03 23:47:00.44	161.92	25.23	-48.2	-50.4	14.7	1.50e-06	0	57	0	1040187392	59	4597
2026-01-03 23:47:01.42	162.07	25.09	-48.1	-50.2	14.8	7.00e-07	0	57	0	1042284544	59	4475
2026-01-03 23:47:02.42	162.22	24.95	-47.5	-49.4	15.7	0.00e+00	0	57	0	1043333120	58	4296
2026-01-03 23:47:03.40	162.36	24.82	-47.1	-48.9	16.2	0.00e+00	0	57	0	1045430272	57	4315
2026-01-03 23:47:04.40	162.51	24.68	-46.8	-48.5	16.5	0.00e+00	0	57	0	1047527424	56	4358
2026-01-03 23:47:05.38	162.65	24.55	-46.8	-48.4	16.7	0.00e+00	0	57	0	1049624576	56	4301
2026-01-03 23:47:06.37	162.79	24.41	-46.8	-48.5	16.5	0.00e+00	0	57	0	1051721728	56	4346
2026-01-03 23:47:07.36	162.94	24.28	-46.9	-48.6	16.5	0.00e+00	0	57	0	1052770304	56	4396
2026-01-03 23:47:08.35	163.08	24.15	-47.5	-49.3	15.8	0.00e+00	0	57	0	1054867456	56	4801
2026-01-03 23:47:09.35	163.22	24.01	-47.3	-49.1	16.0	0.00e+00	0	57	0	1056964608	56	4652
2026-01-03 23:47:10.34	163.35	23.88	-47.7	-49.7	15.4	0.00e+00	0	57	0	1059061760	57	4717
2026-01-03 23:47:11.33	163.49	23.75	-48.0	-50.1	15.0	0.00e+00	0	57	0	1060110336	57	4943
2026-01-03 23:47:12.32	163.63	23.62	-47.7	-49.6	15.4	0.00e+00	0	57	0	1062207488	57	4702
2026-01-03 23:47:13.31	163.76	23.49	-47.6	-49.6	15.5	0.00e+00	0	57	0	1064304640	57	4677
2026-01-03 23:47:14.29	163.89	23.36	-47.3	-49.1	15.9	0.00e+00	0	57	0	1066401792	57	4428
2026-01-03 23:47:15.29	164.03	23.23	-47.4	-49.2	15.8	0.00e+00	0	57	0	1068498944	57	4487
2026-01-03 23:47:16.28	164.16	23.10	-47.7	-49.7	15.4	0.00e+00	0	57	0	1069547520	57	4715
2026-01-03 23:47:17.27	164.29	22.97	-47.5	-49.4	15.6	0.00e+00	0	57	0	1071644672	57	4587
2026-01-03 23:47:18.26	164.42	22.84	-47.6	-49.5	15.5	0.00e+00	0	57	0	1073741824	57	4625
2026-01-03 23:47:19.26	164.55	22.71	-47.6	-49.5	15.6	0.00e+00	0	57	0	1075838976	57	4615
2026-01-03 23:47:20.25	164.67	22.58	-47.3	-49.1	15.9	0.00e+00	0	57	0	1076887552	57	4409
2026-01-03 23:47:21.24	164.80	22.46	-47.5	-49.3	15.7	0.00e+00	0	57	0	1078984704	57	4527
2026-01-03 23:47:22.22	164.93	22.33	-47.1	-48.9	16.1	0.00e+00	0	57	0	1081081856	57	4299
2026-01-03 23:47:23.21	165.05	22.21	-47.3	-49.1	16.0	0.00e+00	0	57	0	1083179008	57	4415
2026-01-03 23:47:24.20	165.17	22.08	-47.8	-49.8	15.3	0.00e+00	0	57	0	1084227584	57	4785
2026-01-03 23:47:25.19	165.30	21.96	-47.3	-49.2	15.9	0.00e+00	0	57	0	1086324736	57	4457
2026-01-03 23:47:26.18	165.42	21.83	-47.1	-48.9	16.1	0.00e+00	0	57	0	1088421888	57	4293
2026-01-03 23:47:27.17	165.54	21.71	-47.1	-48.9	16.1	0.00e+00	0	57	0	1090519040	57	4314
2026-01-03 23:47:28.16	165.66	21.58	-47.0	-48.8	16.3	0.00e+00	0	57	0	1092616192	57	4246
2026-01-03 23:47:29.14	165.77	21.46	-47.5	-49.5	15.6	0.00e+00	0	57	0	1093664768	57	4615
2026-01-03 23:47:30.12	165.89	21.34	-47.4	-49.3	15.7	0.00e+00	0	57	0	1095761920	57	4531
2026-01-03 23:47:31.11	166.01	21.22	-47.2	-49.0	16.0	0.00e+00	0	57	0	1097859072	57	4389
2026-01-03 23:47:32.10	166.12	21.10	-47.6	-49.5	15.5	0.00e+00	0	57	0	1099956224	57	4615
2026-01-03 23:47:33.10	166.24	20.98	-47.5	-49.4	15.6	0.00e+00	0	57	0	1101004800	57	4577
2026-01-03 23:47:34.08	166.35	20.86	-47.6	-49.6	15.5	0.00e+00	0	57	0	1103101952	57	4660
2026-01-03 23:47:35.07	166.47	20.74	-47.6	-49.6	15.4	0.00e+00	0	57	0	1105199104	57	4683
2026-01-03 23:47:36.07	166.58	20.62	-47.5	-49.5	15.6	0.00e+00	0	57	0	1107296256	57	4605
2026-01-03 23:47:37.05	166.69	20.50	-47.9	-50.1	15.0	0.00e+00	0	57	0	1108344832	57	4927
2026-01-03 23:47:38.03	166.80	20.38	-47.9	-50.0	15.0	0.00e+00	0	57	0	1110441984	57	4926
2026-01-03 23:47:39.02	166.91	20.26	-48.2	-50.5	14.6	0.00e+00	0	57	0	1112539136	58	4877
2026-01-03 23:47:40.01	167.02	20.14	-48.1	-50.4	14.6	0.00e+00	0	57	0	1114636288	58	4861
2026-01-03 23:47:41.00	167.13	20.03	-48.5	-51.1	13.9	0.00e+00	0	57	0	1116733440	59	4945
2026-01-03 23:47:41.99	167.24	19.91	-48.5	-50.9	14.1	1.50e-06	0	57	0	1117782016	59	4848
2026-01-03 23:47:42.98	167.34	19.79	-48.6	-51.1	13.9	3.80e-06	0	57	0	1119879168	59	4948
2026-01-03 23:47:43.96	167.45	19.68	-48.5	-51.0	14.0	6.10e-06	0	57	0	1121976320	59	4894
2026-01-03 23:47:44.95	167.55	19.56	-48.5	-50.9	14.1	7.00e-07	0	57	0	1124073472	59	4856
2026-01-03 23:47:45.94	167.66	19.45	-48.7	-51.3	13.8	7.00e-07	0	57	0	1125122048	59	5053
2026-01-03 23:47:46.93	167.76	19.33	-48.3	-50.7	14.3	1.50e-06	0	57	0	1127219200	59	4751
2026-01-03 23:47:47.92	167.87	19.22	-48.3	-50.8	14.2	0.00e+00	0	57	0	1129316352	59	4769
2026-01-03 23:47:48.91	167.97	19.11	-48.2	-50.5	14.5	0.00e+00	0	57	0	1131413504	59	4634
2026-01-03 23:47:49.90	168.07	18.99	-47.8	-49.9	15.1	0.00e+00	0	57	0	1132462080	58	4588
2026-01-03 23:47:50.89	168.17	18.88	-47.6	-49.6	15.4	0.00e+00	0	57	0	1134559232	58	4408
2026-01-03 23:47:51.88	168.27	18.77	-47.6	-49.6	15.4	7.00e-07	0	57	0	1136656384	58	4409
2026-01-03 23:47:52.86	168.37	18.66	-47.4	-49.3	15.7	0.00e+00	0	57	0	1138753536	57	4502
2026-01-03 23:47:53.86	168.47	18.54	-47.2	-49.0	16.0	0.00e+00	0	57	0	1139802112	57	4346
2026-01-03 23:47:54.85	168.57	18.43	-47.1	-48.9	16.1	0.00e+00	0	57	0	1141899264	57	4312
2026-01-03 23:47:55.85	168.67	18.32	-47.4	-49.3	15.7	0.00e+00	0	57	0	1143996416	57	4497
2026-01-03 23:47:56.84	168.76	18.21	-47.4	-49.3	15.7	0.00e+00	0	57	0	1146093568	57	4528
2026-01-03 23:47:57.83	168.86	18.10	-47.3	-49.2	15.8	0.00e+00	0	57	0	1148190720	57	4444
2026-01-03 23:47:58.83	168.95	17.99	-47.3	-49.2	15.8	0.00e+00	0	57	0	1149239296	57	4462
2026-01-03 23:47:59.82	169.05	17.88	-47.7	-49.6	15.3	0.00e+00	0	57	0	1151336448	57	4704
2026-01-03 23:48:00.81	169.14	17.77	-47.6	-49.5	15.4	0.00e+00	0	57	0	1153433600	57	4633
2026-01-03 23:48:01.80	169.24	17.66	-47.5	-49.4	15.6	0.00e+00	0	57	0	1155530752	57	4559
2026-01-03 23:48:02.80	169.33	17.55	-47.5	-49.5	15.5	0.00e+00	0	57	0	1156579328	57	4612
2026-01-03 23:48:03.79	169.42	17.45	-47.6	-49.5	15.4	7.00e-07	0	57	0	1158676480	57	4632
2026-01-03 23:48:04.77	169.51	17.34	-47.9	-50.0	15.0	0.00e+00	0	58	0	1160773632	57	4886
2026-01-03 23:48:05.76	169.60	17.23	-47.9	-50.0	15.0	0.00e+00	0	57	0	1162870784	58	4617
2026-01-03 23:48:06.75	169.69	17.13	-47.9	-50.1	14.9	0.00e+00	0	57	0	1164967936	58	4654
2026-01-03 23:48:07.75	169.79	17.02	-47.9	-50.1	14.9	7.00e-07	0	57	0	1166016512	58	4658
2026-01-03 23:48:08.73	169.87	16.92	-48.1	-50.3	14.7	0.00e+00	0	57	0	1168113664	58	4771
2026-01-03 23:48:09.72	169.96	16.81	-48.0	-50.3	14.7	1.50e-06	0	57	0	1170210816	58	4775
2026-01-03 23:48:10.71	170.05	16.71	-48.1	-50.5	14.5	1.50e-06	0	57	0	1172307968	58	4880
2026-01-03 23:48:11.70	170.14	16.60	-48.0	-50.3	14.7	0.00e+00	0	57	0	1173356544	58	4781
2026-01-03 23:48:12.69	170.22	16.50	-48.0	-50.2	14.7	0.00e+00	0	57	0	1175453696	58	4733
2026-01-03 23:48:13.68	170.31	16.39	-48.0	-50.3	14.6	0.00e+00	0	57	0	1177550848	58	4809
2026-01-03 23:48:14.68	170.40	16.29	-48.1	-50.3	14.6	0.00e+00	0	57	0	1179648000	58	4786
2026-01-03 23:48:15.67	170.48	16.19	-48.1	-50.4	14.6	0.00e+00	0	57	0	1180696576	58	4824
2026-01-03 23:48:16.67	170.57	16.08	-48.1	-50.5	14.5	1.50e-06	0	57	0	1182793728	58	4905
2026-01-03 23:48:17.65	170.65	15.98	-48.4	-51.0	14.0	7.00e-07	0	57	0	1184890880	58	5160
2026-01-03 23:48:18.64	170.73	15.88	-48.4	-50.9	14.0	3.00e-06	0	57	0	1186988032	59	4835
2026-01-03 23:48:19.64	170.82	15.78	-47.9	-50.1	14.8	0.00e+00	0	57	0	1189085184	59	4396
2026-01-03 23:48:20.62	170.90	15.68	-47.6	-49.5	15.4	0.00e+00	0	57	0	1190133760	58	4377
2026-01-03 23:48:21.60	170.98	15.58	-47.4	-49.3	15.6	0.00e+00	0	57	0	1192230912	58	4261
2026-01-03 23:48:22.60	171.06	15.48	-47.2	-49.0	15.9	0.00e+00	0	57	0	1194328064	57	4366
2026-01-03 23:48:23.59	171.14	15.38	-47.2	-49.1	15.8	0.00e+00	0	57	0	1196425216	57	4419
2026-01-03 23:48:24.58	171.22	15.28	-47.2	-49.0	15.9	0.00e+00	0	57	0	1197473792	57	4347
2026-01-03 23:48:25.57	171.30	15.18	-47.2	-49.0	15.9	0.00e+00	0	57	0	1199570944	57	4367
2026-01-03 23:48:26.56	171.38	15.08	-47.3	-49.1	15.8	0.00e+00	0	57	0	1201668096	57	4404
2026-01-03 23:48:27.55	171.46	14.98	-47.2	-49.0	15.9	0.00e+00	0	57	0	1203765248	57	4352
2026-01-03 23:48:28.54	171.54	14.88	-47.4	-49.3	15.6	0.00e+00	0	57	0	1205862400	57	4537
2026-01-03 23:48:29.52	171.62	14.79	-47.5	-49.5	15.4	0.00e+00	0	57	0	1206910976	57	4602
2026-01-03 23:48:30.51	171.70	14.69	-47.3	-49.2	15.7	0.00e+00	0	57	0	1209008128	57	4448
2026-01-03 23:48:31.50	171.77	14.59	-47.1	-48.9	15.9	0.00e+00	0	57	0	1211105280	57	4329
2026-01-03 23:48:32.48	171.85	14.50	-47.3	-49.1	15.8	0.00e+00	0	57	0	1213202432	57	4431
2026-01-03 23:48:33.48	171.93	14.40	-47.5	-49.4	15.5	0.00e+00	0	57	0	1214251008	57	4556
2026-01-03 23:48:34.47	172.00	14.30	-47.6	-49.6	15.3	0.00e+00	0	57	0	1216348160	57	4700
2026-01-03 23:48:35.45	172.08	14.21	-47.7	-49.8	15.1	0.00e+00	0	57	0	1218445312	57	4762
2026-01-03 23:48:36.44	172.15	14.11	-47.9	-50.1	14.8	0.00e+00	0	57	0	1220542464	57	4936
2026-01-03 23:48:37.43	172.22	14.02	-48.1	-50.4	14.5	0.00e+00	0	57	0	1221591040	58	4849
2026-01-03 23:48:38.42	172.30	13.92	-48.2	-50.5	14.4	7.00e-07	0	57	0	1223688192	58	4901
2026-01-03 23:48:39.41	172.37	13.83	-48.3	-50.7	14.3	0.00e+00	0	57	0	1225785344	58	5012
2026-01-03 23:48:40.41	172.44	13.74	-48.5	-51.0	13.8	6.10e-06	0	57	0	1227882496	58	5211
2026-01-03 23:48:41.40	172.52	13.64	-48.5	-50.9	13.9	4.50e-06	0	57	0	1229979648	58	5157
