passes_logs/2026/01/03/R3.0SM8_Murmansk_STILSPACE/R3.0SM8_Murmansk_STILSPACE__20260103_051629_NOAA_20_JPSS-1_rec.log

#Pass ID: 20260103_051629_NOAA 20 (JPSS-1)
#Satellite: NOAA 20 (JPSS-1)
#Configuration: NOAA 20
#almurnet v.1.7.20240730
#Start time: 2026-01-03 05:16:31

#Version: 2.2.20231116
#Station: R3.0SM8_Murmansk_STILSPACE
#Location: 33.092731 lon 68.902999 lat
#TLE: 1 43013U 17073A   26002.21975278  .00000202  00000+0  11669-3 0  9999
#TLE: 2 43013  98.7622 303.2950 0001915  57.9213 302.2149 14.19532512420923

#Time	Az	El	Level	Level2	SNR	BER	BlckErr	Temp	State	Recorded	gain1	gain2
2026-01-03 05:16:31.56	62.55	3.11	-52.9	-66.9	3.8	1.49e+00	0	47	0	0	68	18131
2026-01-03 05:16:32.56	62.48	3.17	-52.9	-66.7	3.8	1.49e+00	0	47	104	0	68	17725
2026-01-03 05:16:33.55	62.42	3.23	-52.8	-66.6	3.8	1.49e+00	0	47	104	0	68	17613
2026-01-03 05:16:34.54	62.35	3.29	-52.5	-66.5	3.8	1.49e+00	0	47	104	0	68	17322
2026-01-03 05:16:35.53	62.28	3.35	-52.1	-66.1	3.8	1.49e+00	0	47	104	0	67	17622
2026-01-03 05:16:36.52	62.21	3.40	-51.9	-65.8	3.8	1.49e+00	0	47	104	0	66	17979
2026-01-03 05:16:37.52	62.14	3.46	-51.9	-65.8	3.8	1.49e+00	0	48	104	0	66	17909
2026-01-03 05:16:38.50	62.07	3.52	-51.9	-65.7	3.8	1.49e+00	0	48	104	0	66	17849
2026-01-03 05:16:39.50	62.00	3.58	-51.8	-65.7	3.8	1.49e+00	0	48	104	0	66	17867
2026-01-03 05:16:40.49	61.93	3.64	-52.0	-65.7	3.8	1.49e+00	0	48	104	0	66	17837
2026-01-03 05:16:41.48	61.85	3.69	-51.9	-65.7	3.8	1.49e+00	0	48	104	0	66	17822
2026-01-03 05:16:42.47	61.78	3.75	-51.9	-65.7	3.8	1.49e+00	0	48	104	0	66	17835
2026-01-03 05:16:43.46	61.71	3.81	-52.0	-65.8	3.8	1.49e+00	0	48	104	0	66	17952
2026-01-03 05:16:44.44	61.64	3.87	-52.0	-65.8	3.8	1.49e+00	0	48	104	0	66	18021
2026-01-03 05:16:45.43	61.57	3.93	-52.0	-65.8	3.8	1.49e+00	0	48	104	0	66	18007
2026-01-03 05:16:46.42	61.50	3.99	-52.0	-65.8	3.8	1.49e+00	0	48	104	0	66	17914
2026-01-03 05:16:47.41	61.42	4.05	-52.0	-65.6	3.8	1.49e+00	0	48	104	0	66	17495
2026-01-03 05:16:48.40	61.35	4.11	-51.9	-65.2	3.8	1.49e+00	0	48	104	0	66	16882
2026-01-03 05:16:49.38	61.28	4.16	-51.9	-64.8	3.8	1.49e+00	0	48	104	0	66	16123
2026-01-03 05:16:50.37	61.20	4.22	-51.9	-64.3	3.8	1.49e+00	0	48	104	0	66	15135
2026-01-03 05:16:51.37	61.13	4.28	-51.9	-63.6	3.9	1.49e+00	0	48	104	0	66	14043
2026-01-03 05:16:52.36	61.05	4.34	-51.8	-62.9	3.9	1.47e+00	0	48	104	0	66	12879
2026-01-03 05:16:53.34	60.98	4.40	-51.5	-61.9	4.3	1.47e+00	22	49	0	0	66	11477
2026-01-03 05:16:54.33	60.91	4.46	-50.8	-60.3	4.8	9.36e-01	0	49	0	1048576	65	10159
2026-01-03 05:16:55.32	60.83	4.52	-51.3	-59.5	5.5	5.81e-01	0	49	0	3145728	65	9179
2026-01-03 05:16:56.31	60.76	4.58	-51.2	-58.5	6.1	3.96e-01	0	49	0	5242880	65	8234
2026-01-03 05:16:57.31	60.68	4.64	-51.0	-57.8	6.8	2.04e-01	0	49	0	7340032	65	7555
2026-01-03 05:16:58.30	60.60	4.70	-50.9	-57.2	7.4	1.35e-01	0	49	0	8388608	64	7464
2026-01-03 05:16:59.29	60.53	4.76	-50.6	-56.3	8.2	7.51e-02	0	49	0	10485760	64	6790
2026-01-03 05:17:00.27	60.45	4.82	-50.5	-55.6	9.0	3.85e-02	0	49	0	12582912	63	6618
2026-01-03 05:17:01.26	60.37	4.88	-50.5	-55.4	9.2	1.98e-02	0	49	0	14680064	63	6451
2026-01-03 05:17:02.25	60.29	4.94	-50.4	-55.2	9.5	1.70e-02	0	49	0	15728640	63	6295
2026-01-03 05:17:03.24	60.22	5.00	-50.4	-55.2	9.4	1.71e-02	0	49	0	17825792	63	6328
2026-01-03 05:17:04.24	60.14	5.06	-50.4	-55.2	9.5	1.28e-02	0	49	0	19922944	63	6306
2026-01-03 05:17:05.22	60.06	5.12	-50.4	-55.1	9.5	1.50e-02	0	49	0	22020096	63	6271
2026-01-03 05:17:06.21	59.98	5.18	-50.2	-55.1	9.6	1.26e-02	0	49	0	23068672	63	6228
2026-01-03 05:17:07.20	59.90	5.24	-50.4	-55.1	9.5	1.29e-02	0	49	0	25165824	63	6260
2026-01-03 05:17:08.18	59.82	5.30	-50.4	-55.1	9.5	1.35e-02	0	49	0	27262976	63	6243
2026-01-03 05:17:09.18	59.74	5.36	-50.5	-55.4	9.3	1.80e-02	0	49	0	29360128	63	6455
2026-01-03 05:17:10.17	59.66	5.42	-50.4	-55.2	9.4	1.64e-02	0	50	0	31457280	63	6329
2026-01-03 05:17:11.15	59.58	5.48	-50.3	-54.9	9.8	1.25e-02	0	50	0	32505856	63	6077
2026-01-03 05:17:12.14	59.50	5.54	-50.1	-54.5	10.2	7.62e-03	0	50	0	34603008	63	5851
2026-01-03 05:17:13.13	59.42	5.60	-50.0	-54.2	10.5	4.88e-03	0	50	0	36700160	63	5627
2026-01-03 05:17:14.12	59.34	5.67	-49.9	-53.9	10.8	2.87e-03	0	50	0	38797312	62	5776
2026-01-03 05:17:15.11	59.26	5.73	-49.9	-53.9	10.8	2.64e-03	0	50	0	39845888	62	5739
2026-01-03 05:17:16.09	59.17	5.79	-50.0	-54.0	10.7	2.54e-03	0	50	0	41943040	62	5847
2026-01-03 05:17:17.08	59.09	5.85	-49.9	-53.7	11.1	2.02e-03	0	50	0	44040192	62	5630
2026-01-03 05:17:18.07	59.01	5.91	-49.8	-53.6	11.2	1.29e-03	0	50	0	46137344	62	5555
2026-01-03 05:17:19.06	58.92	5.97	-49.8	-53.7	11.1	1.55e-03	0	50	0	47185920	62	5643
2026-01-03 05:17:20.04	58.84	6.03	-49.7	-53.5	11.4	1.34e-03	0	50	0	49283072	62	5489
2026-01-03 05:17:21.03	58.76	6.10	-49.9	-53.7	11.1	1.48e-03	0	50	0	51380224	62	5640
2026-01-03 05:17:22.01	58.67	6.16	-49.9	-53.7	11.2	1.34e-03	0	50	0	53477376	62	5596
2026-01-03 05:17:23.00	58.59	6.22	-49.9	-53.8	11.1	1.31e-03	0	50	0	54525952	62	5660
2026-01-03 05:17:23.99	58.50	6.28	-49.8	-53.5	11.3	1.47e-03	0	50	0	56623104	62	5523
2026-01-03 05:17:24.98	58.42	6.34	-49.8	-53.4	11.5	7.58e-04	0	50	0	58720256	62	5464
2026-01-03 05:17:25.97	58.33	6.40	-49.8	-53.4	11.5	8.08e-04	0	50	0	60817408	62	5434
2026-01-03 05:17:26.96	58.24	6.47	-49.8	-53.4	11.5	8.18e-04	0	50	0	62914560	62	5460
2026-01-03 05:17:27.95	58.16	6.53	-49.9	-53.6	11.3	9.98e-04	0	50	0	63963136	62	5571
2026-01-03 05:17:28.94	58.07	6.59	-49.9	-53.8	11.1	1.48e-03	0	51	0	66060288	62	5682
2026-01-03 05:17:29.93	57.98	6.65	-50.0	-53.8	11.2	1.37e-03	0	50	0	68157440	62	5682
2026-01-03 05:17:30.91	57.90	6.72	-50.1	-54.1	10.8	1.89e-03	0	50	0	70254592	62	5901
2026-01-03 05:17:31.90	57.81	6.78	-50.1	-54.0	11.0	2.05e-03	0	51	0	71303168	62	5807
2026-01-03 05:17:32.89	57.72	6.84	-50.1	-54.1	10.9	2.05e-03	0	51	0	73400320	62	5868
2026-01-03 05:17:33.88	57.63	6.90	-50.2	-54.3	10.7	2.59e-03	0	51	0	75497472	62	6002
2026-01-03 05:17:34.88	57.54	6.97	-50.1	-54.1	10.9	2.85e-03	0	51	0	77594624	62	5869
2026-01-03 05:17:35.87	57.45	7.03	-50.2	-54.4	10.6	2.54e-03	0	51	0	78643200	62	6063
2026-01-03 05:17:36.86	57.36	7.09	-50.1	-54.1	10.9	2.57e-03	0	51	0	80740352	62	5871
2026-01-03 05:17:37.85	57.27	7.16	-50.0	-53.8	11.2	1.83e-03	0	51	0	82837504	62	5693
2026-01-03 05:17:38.84	57.18	7.22	-50.0	-53.7	11.3	1.20e-03	0	51	0	84934656	62	5640
2026-01-03 05:17:39.83	57.08	7.28	-50.0	-53.7	11.3	1.16e-03	0	51	0	87031808	62	5646
2026-01-03 05:17:40.83	56.99	7.35	-50.1	-54.1	11.0	1.43e-03	0	51	0	88080384	62	5858
2026-01-03 05:17:41.81	56.90	7.41	-50.2	-54.3	10.7	1.96e-03	0	51	0	90177536	62	6018
2026-01-03 05:17:42.80	56.81	7.47	-50.1	-54.0	11.0	2.23e-03	0	51	0	92274688	62	5854
2026-01-03 05:17:43.80	56.71	7.54	-50.0	-53.8	11.3	1.30e-03	0	51	0	94371840	62	5662
2026-01-03 05:17:44.79	56.62	7.60	-50.0	-53.7	11.4	1.12e-03	0	51	0	95420416	62	5593
2026-01-03 05:17:45.77	56.53	7.67	-50.0	-53.6	11.5	9.09e-04	0	51	0	97517568	62	5569
2026-01-03 05:17:46.76	56.43	7.73	-50.0	-53.8	11.3	1.05e-03	0	51	0	99614720	62	5657
2026-01-03 05:17:47.76	56.33	7.79	-50.0	-53.7	11.4	1.24e-03	0	51	0	101711872	62	5612
2026-01-03 05:17:48.75	56.24	7.86	-50.0	-53.8	11.3	9.08e-04	0	51	0	102760448	62	5675
2026-01-03 05:17:49.73	56.14	7.92	-50.1	-54.0	11.1	1.28e-03	0	51	0	104857600	62	5792
2026-01-03 05:17:50.72	56.05	7.99	-50.0	-53.8	11.3	1.30e-03	0	51	0	106954752	62	5669
2026-01-03 05:17:51.71	55.95	8.05	-49.9	-53.5	11.7	7.88e-04	0	51	0	109051904	62	5492
2026-01-03 05:17:52.70	55.85	8.12	-49.8	-53.2	12.0	4.54e-04	0	51	0	111149056	62	5287
2026-01-03 05:17:53.68	55.76	8.18	-49.6	-52.9	12.2	2.48e-04	0	51	0	112197632	62	5117
2026-01-03 05:17:54.68	55.66	8.25	-49.6	-52.8	12.3	1.70e-04	0	51	0	114294784	62	5073
2026-01-03 05:17:55.67	55.56	8.31	-49.5	-52.8	12.4	1.80e-04	0	51	0	116391936	62	5076
2026-01-03 05:17:56.66	55.46	8.37	-49.6	-52.7	12.4	1.46e-04	0	52	0	118489088	62	5030
2026-01-03 05:17:57.65	55.36	8.44	-49.5	-52.7	12.5	1.07e-04	0	52	0	119537664	62	5024
2026-01-03 05:17:58.64	55.26	8.50	-49.5	-52.8	12.4	1.09e-04	0	52	0	121634816	62	5055
2026-01-03 05:17:59.63	55.16	8.57	-49.7	-53.0	12.2	1.75e-04	0	52	0	123731968	62	5195
2026-01-03 05:18:00.62	55.06	8.63	-49.7	-52.9	12.3	2.14e-04	0	52	0	125829120	62	5140
2026-01-03 05:18:01.61	54.96	8.70	-49.5	-52.7	12.5	1.07e-04	0	52	0	127926272	62	4997
2026-01-03 05:18:02.60	54.86	8.77	-49.5	-52.6	12.6	1.01e-04	0	52	0	128974848	62	4951
2026-01-03 05:18:03.60	54.75	8.83	-49.5	-52.7	12.5	1.19e-04	0	52	0	131072000	62	5016
2026-01-03 05:18:04.59	54.65	8.90	-49.5	-52.7	12.5	1.40e-04	0	52	0	133169152	62	5007
2026-01-03 05:18:05.58	54.55	8.96	-49.5	-52.8	12.5	1.17e-04	0	52	0	135266304	62	5048
2026-01-03 05:18:06.56	54.44	9.03	-49.4	-52.6	12.6	1.08e-04	0	52	0	136314880	61	5274
2026-01-03 05:18:07.55	54.34	9.09	-49.5	-52.9	12.3	1.20e-04	0	52	0	138412032	61	5425
2026-01-03 05:18:08.53	54.24	9.16	-49.6	-53.0	12.2	1.72e-04	0	52	0	140509184	61	5498
2026-01-03 05:18:09.52	54.13	9.22	-49.7	-53.0	12.2	1.63e-04	0	52	0	142606336	61	5485
2026-01-03 05:18:10.51	54.03	9.29	-49.7	-53.2	12.0	2.31e-04	0	52	0	143654912	61	5633
2026-01-03 05:18:11.51	53.92	9.36	-49.7	-53.2	12.0	3.33e-04	0	52	0	145752064	61	5615
2026-01-03 05:18:12.49	53.81	9.42	-49.7	-53.0	12.2	2.48e-04	0	52	0	147849216	61	5528
2026-01-03 05:18:13.48	53.71	9.49	-49.7	-53.0	12.2	2.11e-04	0	52	0	149946368	61	5516
2026-01-03 05:18:14.48	53.60	9.56	-49.8	-53.2	12.0	2.69e-04	0	52	0	150994944	61	5653
2026-01-03 05:18:15.46	53.49	9.62	-49.8	-53.3	11.9	3.96e-04	0	52	0	153092096	61	5714
2026-01-03 05:18:16.45	53.38	9.69	-49.9	-53.4	11.8	3.82e-04	0	52	0	155189248	61	5776
2026-01-03 05:18:17.43	53.27	9.75	-49.9	-53.4	11.8	5.30e-04	0	52	0	157286400	61	5768
2026-01-03 05:18:18.42	53.16	9.82	-49.8	-53.2	12.1	3.34e-04	0	52	0	159383552	61	5595
2026-01-03 05:18:19.41	53.05	9.89	-49.8	-53.2	12.1	2.29e-04	0	52	0	160432128	61	5606
2026-01-03 05:18:20.40	52.94	9.95	-49.8	-53.3	12.0	3.04e-04	0	52	0	162529280	61	5670
2026-01-03 05:18:21.38	52.83	10.02	-49.9	-53.4	11.9	4.39e-04	0	52	0	164626432	61	5746
2026-01-03 05:18:22.37	52.72	10.09	-50.0	-53.4	11.8	3.87e-04	0	53	0	166723584	61	5781
2026-01-03 05:18:23.36	52.61	10.15	-49.9	-53.5	11.8	5.16e-04	0	53	0	167772160	61	5829
2026-01-03 05:18:24.34	52.50	10.22	-50.0	-53.5	11.8	4.43e-04	0	52	0	169869312	61	5816
2026-01-03 05:18:25.33	52.38	10.29	-49.9	-53.5	11.8	4.38e-04	0	52	0	171966464	61	5799
2026-01-03 05:18:26.32	52.27	10.35	-50.0	-53.5	11.8	5.18e-04	0	53	0	174063616	61	5809
2026-01-03 05:18:27.31	52.15	10.42	-49.9	-53.2	12.0	3.68e-04	0	53	0	175112192	61	5652
2026-01-03 05:18:28.30	52.04	10.49	-49.9	-53.2	12.1	2.74e-04	0	53	0	177209344	61	5645
2026-01-03 05:18:29.29	51.92	10.56	-49.9	-53.3	12.0	3.26e-04	0	53	0	179306496	61	5695
2026-01-03 05:18:30.27	51.81	10.62	-49.9	-53.3	12.0	3.19e-04	0	52	0	181403648	61	5697
2026-01-03 05:18:31.26	51.69	10.69	-50.0	-53.3	12.0	4.39e-04	0	53	0	183500800	61	5717
2026-01-03 05:18:32.25	51.58	10.76	-49.8	-53.0	12.3	2.30e-04	0	53	0	184549376	61	5497
2026-01-03 05:18:33.24	51.46	10.83	-49.6	-52.6	12.7	1.07e-04	0	53	0	186646528	61	5279
2026-01-03 05:18:34.23	51.34	10.89	-49.5	-52.5	12.9	7.55e-05	0	53	0	188743680	61	5169
2026-01-03 05:18:35.21	51.22	10.96	-49.5	-52.4	13.0	3.73e-05	0	53	0	190840832	61	5117
2026-01-03 05:18:36.19	51.10	11.03	-49.4	-52.4	13.0	3.66e-05	0	53	0	191889408	61	5130
2026-01-03 05:18:37.18	50.98	11.10	-49.5	-52.5	12.9	4.34e-05	0	53	0	193986560	61	5182
2026-01-03 05:18:38.17	50.86	11.16	-49.5	-52.6	12.8	5.49e-05	0	53	0	196083712	61	5264
2026-01-03 05:18:39.16	50.74	11.23	-49.6	-52.7	12.7	7.93e-05	0	53	0	198180864	61	5292
2026-01-03 05:18:40.14	50.62	11.30	-49.4	-52.4	13.0	5.11e-05	0	53	0	199229440	61	5134
2026-01-03 05:18:41.13	50.50	11.37	-49.3	-52.2	13.2	3.28e-05	0	53	0	201326592	61	4986
2026-01-03 05:18:42.13	50.38	11.44	-49.3	-52.1	13.3	1.90e-05	0	53	0	203423744	61	4961
2026-01-03 05:18:43.12	50.25	11.50	-49.3	-52.2	13.2	2.13e-05	0	53	0	205520896	61	4989
2026-01-03 05:18:44.10	50.13	11.57	-49.4	-52.3	13.1	2.59e-05	0	53	0	206569472	61	5079
2026-01-03 05:18:45.09	50.00	11.64	-49.3	-52.2	13.2	2.59e-05	0	53	0	208666624	61	5000
2026-01-03 05:18:46.08	49.88	11.71	-49.4	-52.2	13.2	2.05e-05	0	53	0	210763776	61	5007
2026-01-03 05:18:47.07	49.75	11.78	-49.5	-52.4	13.0	2.82e-05	0	53	0	212860928	61	5120
2026-01-03 05:18:48.06	49.63	11.85	-49.6	-52.7	12.7	5.11e-05	0	53	0	214958080	61	5289
2026-01-03 05:18:49.05	49.50	11.91	-49.5	-52.5	12.9	5.56e-05	0	53	0	216006656	61	5181
2026-01-03 05:18:50.04	49.37	11.98	-49.6	-52.7	12.8	3.66e-05	0	53	0	218103808	61	5281
2026-01-03 05:18:51.03	49.24	12.05	-49.8	-52.9	12.5	1.03e-04	0	53	0	220200960	61	5458
2026-01-03 05:18:52.02	49.12	12.12	-49.7	-52.8	12.6	8.23e-05	0	53	0	222298112	61	5360
2026-01-03 05:18:53.01	48.99	12.19	-49.8	-52.9	12.5	9.53e-05	0	53	0	223346688	61	5458
2026-01-03 05:18:54.00	48.86	12.26	-49.6	-52.7	12.8	9.68e-05	0	53	0	225443840	61	5296
2026-01-03 05:18:54.98	48.73	12.33	-49.6	-52.6	12.8	6.56e-05	0	53	0	227540992	61	5268
2026-01-03 05:18:55.98	48.59	12.40	-49.5	-52.7	12.8	5.11e-05	0	53	0	229638144	61	5280
2026-01-03 05:18:56.97	48.46	12.47	-49.5	-52.5	12.9	6.86e-05	0	53	0	230686720	61	5211
2026-01-03 05:18:57.96	48.33	12.53	-49.7	-52.8	12.7	6.86e-05	0	53	0	232783872	61	5351
2026-01-03 05:18:58.95	48.20	12.60	-49.5	-52.4	13.0	4.34e-05	0	53	0	234881024	61	5139
2026-01-03 05:18:59.93	48.06	12.67	-49.3	-52.0	13.4	2.21e-05	0	53	0	236978176	61	4920
2026-01-03 05:19:00.92	47.93	12.74	-49.1	-51.7	13.8	6.80e-06	0	54	0	239075328	61	4742
2026-01-03 05:19:01.92	47.79	12.81	-48.9	-51.4	14.0	2.20e-06	0	53	0	240123904	61	4595
2026-01-03 05:19:02.91	47.66	12.88	-48.9	-51.4	14.1	3.00e-06	0	53	0	242221056	60	4846
2026-01-03 05:19:03.89	47.52	12.95	-48.9	-51.4	14.1	2.20e-06	0	54	0	244318208	60	4815
2026-01-03 05:19:04.88	47.38	13.02	-48.9	-51.3	14.2	7.00e-07	0	54	0	246415360	60	4777
2026-01-03 05:19:05.87	47.25	13.09	-48.9	-51.4	14.1	7.00e-07	0	54	0	247463936	60	4850
2026-01-03 05:19:06.86	47.11	13.16	-48.8	-51.2	14.3	7.00e-07	0	54	0	249561088	60	4742
2026-01-03 05:19:07.84	46.97	13.23	-48.8	-51.2	14.3	0.00e+00	0	54	0	251658240	60	4724
2026-01-03 05:19:08.82	46.83	13.29	-48.8	-51.2	14.3	0.00e+00	0	54	0	253755392	60	4711
2026-01-03 05:19:09.81	46.69	13.36	-48.9	-51.4	14.2	0.00e+00	0	54	0	254803968	60	4826
2026-01-03 05:19:10.81	46.55	13.43	-48.9	-51.3	14.3	0.00e+00	0	54	0	256901120	60	4774
2026-01-03 05:19:11.80	46.41	13.50	-48.8	-51.3	14.2	7.00e-07	0	54	0	258998272	60	4797
2026-01-03 05:19:12.79	46.27	13.57	-48.8	-51.3	14.2	0.00e+00	0	54	0	261095424	60	4765
2026-01-03 05:19:13.78	46.12	13.64	-48.9	-51.4	14.2	7.00e-07	0	54	0	263192576	60	4829
2026-01-03 05:19:14.78	45.98	13.71	-48.9	-51.4	14.2	1.50e-06	0	54	0	264241152	60	4833
2026-01-03 05:19:15.76	45.83	13.78	-49.0	-51.5	14.1	1.50e-06	0	54	0	266338304	60	4889
2026-01-03 05:19:16.75	45.69	13.85	-49.1	-51.7	13.9	3.00e-06	0	54	0	268435456	60	4986
2026-01-03 05:19:17.74	45.54	13.92	-49.0	-51.6	13.9	5.30e-06	0	54	0	270532608	60	4959
2026-01-03 05:19:18.73	45.40	13.99	-49.0	-51.5	14.0	3.80e-06	0	54	0	271581184	60	4901
2026-01-03 05:19:19.72	45.25	14.06	-49.0	-51.5	14.0	0.00e+00	0	54	0	273678336	60	4915
2026-01-03 05:19:20.70	45.10	14.13	-49.1	-51.7	13.9	4.50e-06	0	54	0	275775488	60	4986
2026-01-03 05:19:21.68	44.95	14.20	-49.1	-51.7	13.8	7.60e-06	0	54	0	277872640	60	5014
2026-01-03 05:19:22.67	44.81	14.27	-49.2	-51.8	13.7	7.60e-06	0	54	0	278921216	60	5081
2026-01-03 05:19:23.66	44.66	14.34	-49.3	-52.0	13.5	6.80e-06	0	54	0	281018368	60	5192
2026-01-03 05:19:24.64	44.51	14.41	-49.3	-52.0	13.6	5.30e-06	0	54	0	283115520	60	5181
2026-01-03 05:19:25.63	44.35	14.48	-49.3	-52.0	13.5	6.10e-06	0	54	0	285212672	60	5188
2026-01-03 05:19:26.62	44.20	14.55	-49.3	-52.0	13.5	1.06e-05	0	54	0	287309824	60	5198
2026-01-03 05:19:27.60	44.05	14.61	-49.1	-51.8	13.7	1.50e-06	0	54	0	288358400	60	5082
2026-01-03 05:19:28.59	43.90	14.68	-49.2	-51.8	13.7	6.80e-06	0	54	0	290455552	60	5080
2026-01-03 05:19:29.57	43.74	14.75	-49.1	-51.8	13.7	3.80e-06	0	54	0	292552704	60	5079
2026-01-03 05:19:30.55	43.59	14.82	-49.3	-52.1	13.5	9.10e-06	0	54	0	293601280	60	5231
2026-01-03 05:19:31.54	43.43	14.89	-49.3	-52.1	13.4	1.75e-05	0	54	0	295698432	60	5273
2026-01-03 05:19:32.52	43.28	14.96	-49.2	-51.9	13.6	1.22e-05	0	54	0	297795584	60	5143
2026-01-03 05:19:33.50	43.12	15.03	-49.2	-51.9	13.6	9.10e-06	0	54	0	299892736	60	5158
2026-01-03 05:19:34.48	42.97	15.10	-49.3	-52.0	13.5	1.29e-05	0	54	0	301989888	60	5193
2026-01-03 05:19:35.47	42.81	15.17	-49.4	-52.1	13.4	1.37e-05	0	54	0	303038464	60	5271
2026-01-03 05:19:36.46	42.65	15.24	-49.4	-52.2	13.3	1.67e-05	0	54	0	305135616	60	5325
2026-01-03 05:19:37.45	42.49	15.31	-49.4	-52.2	13.4	1.52e-05	0	54	0	307232768	60	5294
2026-01-03 05:19:38.44	42.33	15.38	-49.4	-52.2	13.3	1.29e-05	0	54	0	309329920	60	5315
2026-01-03 05:19:39.44	42.16	15.45	-49.5	-52.4	13.2	2.67e-05	0	54	0	310378496	60	5428
2026-01-03 05:19:40.42	42.00	15.51	-49.5	-52.4	13.2	2.51e-05	0	54	0	312475648	61	5108
2026-01-03 05:19:41.41	41.84	15.58	-49.4	-52.2	13.3	3.12e-05	0	54	0	314572800	61	5018
2026-01-03 05:19:42.40	41.67	15.65	-49.3	-52.1	13.5	1.29e-05	0	54	0	316669952	61	4933
2026-01-03 05:19:43.39	41.51	15.72	-49.3	-52.1	13.5	1.29e-05	0	55	0	317718528	61	4940
2026-01-03 05:19:44.38	41.34	15.79	-49.3	-52.1	13.5	8.30e-06	0	54	0	319815680	61	4972
2026-01-03 05:19:45.37	41.18	15.86	-49.4	-52.2	13.3	1.29e-05	0	55	0	321912832	61	5009
2026-01-03 05:19:46.36	41.01	15.93	-49.3	-52.0	13.5	1.22e-05	0	55	0	324009984	61	4909
2026-01-03 05:19:47.35	40.84	16.00	-49.3	-52.0	13.5	9.90e-06	0	55	0	326107136	61	4915
2026-01-03 05:19:48.34	40.67	16.07	-49.5	-52.3	13.2	8.30e-06	0	54	0	327155712	61	5090
2026-01-03 05:19:49.32	40.50	16.13	-49.6	-52.5	13.1	3.96e-05	0	55	0	329252864	61	5179
2026-01-03 05:19:50.31	40.33	16.20	-49.3	-52.2	13.4	1.52e-05	0	54	0	331350016	61	4996
2026-01-03 05:19:51.30	40.16	16.27	-49.4	-52.3	13.3	1.83e-05	0	55	0	333447168	61	5080
2026-01-03 05:19:52.29	39.99	16.34	-49.5	-52.3	13.2	2.36e-05	0	55	0	334495744	61	5091
2026-01-03 05:19:53.28	39.82	16.41	-49.6	-52.4	13.2	2.36e-05	0	55	0	336592896	61	5124
2026-01-03 05:19:54.27	39.64	16.48	-49.7	-52.6	13.0	3.28e-05	0	55	0	338690048	61	5238
2026-01-03 05:19:55.26	39.47	16.55	-49.7	-52.7	12.8	4.80e-05	0	55	0	340787200	61	5311
2026-01-03 05:19:56.25	39.29	16.61	-49.6	-52.5	13.1	4.11e-05	0	55	0	341835776	61	5184
2026-01-03 05:19:57.24	39.12	16.68	-49.4	-52.3	13.3	2.89e-05	0	55	0	343932928	61	5070
2026-01-03 05:19:58.23	38.94	16.75	-49.4	-52.3	13.4	1.98e-05	0	54	0	346030080	61	5042
2026-01-03 05:19:59.21	38.76	16.82	-49.4	-52.2	13.4	1.60e-05	0	55	0	348127232	61	5024
2026-01-03 05:20:00.21	38.58	16.89	-49.5	-52.2	13.4	1.14e-05	0	55	0	350224384	61	5029
2026-01-03 05:20:01.20	38.41	16.96	-49.5	-52.4	13.2	1.75e-05	0	55	0	351272960	61	5112
2026-01-03 05:20:02.19	38.22	17.02	-49.6	-52.6	13.0	2.97e-05	0	55	0	353370112	61	5253
2026-01-03 05:20:03.17	38.05	17.09	-49.7	-52.8	12.8	4.11e-05	0	55	0	355467264	61	5367
2026-01-03 05:20:04.17	37.86	17.16	-49.4	-52.3	13.3	4.27e-05	0	55	0	357564416	61	5071
2026-01-03 05:20:05.17	37.68	17.23	-49.4	-52.1	13.6	1.60e-05	0	55	0	358612992	61	4929
2026-01-03 05:20:06.15	37.50	17.29	-49.3	-52.1	13.6	3.80e-06	0	55	0	360710144	61	4929
2026-01-03 05:20:07.14	37.31	17.36	-49.2	-52.0	13.6	9.90e-06	0	55	0	362807296	61	4878
2026-01-03 05:20:08.14	37.12	17.43	-49.4	-52.1	13.5	6.80e-06	0	55	0	364904448	61	4965
2026-01-03 05:20:09.13	36.94	17.50	-49.4	-52.2	13.4	1.67e-05	0	55	0	367001600	61	5035
2026-01-03 05:20:10.12	36.75	17.56	-49.3	-51.9	13.7	6.80e-06	0	55	0	368050176	61	4868
2026-01-03 05:20:11.11	36.56	17.63	-49.2	-51.8	13.9	3.00e-06	0	55	0	370147328	61	4762
2026-01-03 05:20:12.10	36.38	17.70	-49.2	-51.7	13.9	3.00e-06	0	55	0	372244480	61	4755
2026-01-03 05:20:13.09	36.19	17.76	-49.0	-51.5	14.1	1.50e-06	0	55	0	374341632	61	4621
2026-01-03 05:20:14.08	36.00	17.83	-49.0	-51.4	14.3	2.20e-06	0	55	0	375390208	61	4556
2026-01-03 05:20:15.07	35.80	17.89	-49.1	-51.6	14.1	7.00e-07	0	55	0	377487360	61	4655
2026-01-03 05:20:16.06	35.61	17.96	-49.2	-51.8	13.8	7.00e-07	0	55	0	379584512	61	4766
2026-01-03 05:20:17.04	35.42	18.02	-48.9	-51.3	14.4	7.00e-07	0	55	0	381681664	60	4778
2026-01-03 05:20:18.03	35.23	18.09	-48.6	-50.8	14.8	0.00e+00	0	55	0	382730240	60	4530
2026-01-03 05:20:19.02	35.03	18.16	-48.4	-50.6	15.1	0.00e+00	0	55	0	384827392	59	4663
2026-01-03 05:20:20.01	34.84	18.22	-48.3	-50.3	15.3	0.00e+00	0	55	0	386924544	59	4527
2026-01-03 05:20:21.00	34.64	18.29	-48.2	-50.2	15.4	0.00e+00	0	55	0	389021696	59	4469
2026-01-03 05:20:21.98	34.45	18.35	-48.1	-50.0	15.6	0.00e+00	0	55	0	390070272	59	4380
2026-01-03 05:20:22.97	34.25	18.42	-48.3	-50.3	15.3	0.00e+00	0	55	0	392167424	59	4543
2026-01-03 05:20:23.96	34.05	18.48	-48.1	-50.0	15.7	0.00e+00	0	55	0	394264576	59	4365
2026-01-03 05:20:24.94	33.85	18.54	-47.9	-49.7	15.9	0.00e+00	0	55	0	396361728	58	4486
2026-01-03 05:20:25.93	33.65	18.61	-47.8	-49.6	16.1	0.00e+00	0	55	0	398458880	58	4393
2026-01-03 05:20:26.92	33.45	18.67	-47.8	-49.6	16.1	0.00e+00	0	55	0	399507456	58	4409
2026-01-03 05:20:27.90	33.25	18.74	-47.7	-49.5	16.1	0.00e+00	0	55	0	401604608	58	4368
2026-01-03 05:20:28.89	33.05	18.80	-47.7	-49.5	16.2	0.00e+00	0	55	0	403701760	58	4369
2026-01-03 05:20:29.87	32.85	18.86	-47.8	-49.6	16.1	0.00e+00	0	55	0	405798912	58	4413
2026-01-03 05:20:30.86	32.64	18.92	-47.9	-49.8	15.9	0.00e+00	0	55	0	406847488	58	4498
2026-01-03 05:20:31.85	32.44	18.99	-47.6	-49.4	16.2	0.00e+00	0	55	0	408944640	58	4332
2026-01-03 05:20:32.84	32.23	19.05	-47.5	-49.2	16.4	0.00e+00	0	55	0	411041792	58	4236
2026-01-03 05:20:33.83	32.02	19.11	-47.4	-49.1	16.5	0.00e+00	0	55	0	413138944	58	4190
2026-01-03 05:20:34.82	31.81	19.17	-47.5	-49.2	16.5	0.00e+00	0	55	0	414187520	58	4213
2026-01-03 05:20:35.81	31.61	19.24	-47.5	-49.2	16.5	0.00e+00	0	55	0	416284672	58	4204
2026-01-03 05:20:36.80	31.40	19.30	-47.6	-49.3	16.4	0.00e+00	0	55	0	418381824	58	4280
2026-01-03 05:20:37.79	31.19	19.36	-47.7	-49.4	16.3	0.00e+00	0	55	0	420478976	58	4329
2026-01-03 05:20:38.78	30.97	19.42	-47.5	-49.2	16.4	0.00e+00	0	55	0	422576128	58	4238
2026-01-03 05:20:39.76	30.76	19.48	-47.3	-49.0	16.7	0.00e+00	0	55	0	423624704	57	4348
2026-01-03 05:20:40.75	30.55	19.54	-47.3	-48.9	16.7	0.00e+00	0	55	0	425721856	57	4333
2026-01-03 05:20:41.74	30.34	19.60	-47.3	-48.9	16.8	0.00e+00	0	55	0	427819008	57	4299
2026-01-03 05:20:42.73	30.12	19.66	-47.3	-49.0	16.7	0.00e+00	0	55	0	429916160	57	4342
2026-01-03 05:20:43.72	29.91	19.72	-47.4	-49.0	16.6	0.00e+00	0	55	0	430964736	57	4377
2026-01-03 05:20:44.71	29.69	19.78	-47.5	-49.1	16.6	0.00e+00	0	55	0	433061888	57	4425
2026-01-03 05:20:45.70	29.47	19.84	-47.6	-49.3	16.4	0.00e+00	0	55	0	435159040	57	4512
2026-01-03 05:20:46.69	29.25	19.90	-47.6	-49.3	16.3	0.00e+00	0	55	0	437256192	57	4523
2026-01-03 05:20:47.67	29.04	19.96	-47.5	-49.2	16.5	0.00e+00	0	55	0	438304768	57	4452
2026-01-03 05:20:48.66	28.82	20.02	-47.4	-49.1	16.6	0.00e+00	0	55	0	440401920	57	4392
2026-01-03 05:20:49.65	28.59	20.07	-47.4	-49.0	16.7	0.00e+00	0	55	0	442499072	57	4375
2026-01-03 05:20:50.63	28.38	20.13	-47.4	-49.1	16.6	0.00e+00	0	55	0	444596224	57	4432
2026-01-03 05:20:51.63	28.15	20.19	-47.4	-49.1	16.6	0.00e+00	0	55	0	446693376	57	4406
2026-01-03 05:20:52.61	27.93	20.25	-47.4	-49.1	16.6	0.00e+00	0	55	0	447741952	57	4401
2026-01-03 05:20:53.60	27.70	20.30	-47.5	-49.1	16.6	0.00e+00	0	55	0	449839104	57	4432
2026-01-03 05:20:54.59	27.48	20.36	-47.6	-49.3	16.3	0.00e+00	0	55	0	451936256	57	4541
2026-01-03 05:20:55.58	27.25	20.42	-47.7	-49.4	16.2	0.00e+00	0	55	0	454033408	57	4573
2026-01-03 05:20:56.56	27.03	20.47	-47.5	-49.1	16.5	0.00e+00	0	55	0	455081984	57	4437
2026-01-03 05:20:57.55	26.80	20.53	-47.4	-49.0	16.7	0.00e+00	0	55	0	457179136	57	4372
2026-01-03 05:20:58.54	26.57	20.58	-47.4	-49.0	16.6	0.00e+00	0	55	0	459276288	57	4390
2026-01-03 05:20:59.52	26.35	20.64	-47.5	-49.1	16.5	0.00e+00	0	55	0	461373440	57	4440
2026-01-03 05:21:00.51	26.12	20.69	-47.5	-49.2	16.5	0.00e+00	0	55	0	462422016	57	4484
2026-01-03 05:21:01.50	25.89	20.74	-47.6	-49.3	16.5	0.00e+00	0	55	0	464519168	57	4499
2026-01-03 05:21:02.49	25.65	20.80	-47.6	-49.3	16.4	0.00e+00	0	55	0	466616320	57	4507
2026-01-03 05:21:03.48	25.42	20.85	-47.6	-49.4	16.3	0.00e+00	0	55	0	468713472	57	4557
2026-01-03 05:21:04.47	25.19	20.90	-47.7	-49.5	16.1	0.00e+00	0	55	0	469762048	57	4631
2026-01-03 05:21:05.46	24.95	20.96	-47.8	-49.6	16.1	0.00e+00	0	55	0	471859200	57	4657
2026-01-03 05:21:06.45	24.72	21.01	-47.8	-49.6	16.0	0.00e+00	0	55	0	473956352	57	4697
2026-01-03 05:21:07.44	24.48	21.06	-47.7	-49.4	16.3	0.00e+00	0	55	0	476053504	57	4567
2026-01-03 05:21:08.43	24.25	21.11	-47.4	-49.1	16.6	0.00e+00	0	56	0	478150656	57	4395
2026-01-03 05:21:09.41	24.01	21.16	-47.3	-48.8	16.8	0.00e+00	0	55	0	479199232	57	4284
2026-01-03 05:21:10.40	23.77	21.21	-47.2	-48.8	16.9	0.00e+00	0	56	0	481296384	57	4245
2026-01-03 05:21:11.39	23.54	21.26	-47.2	-48.8	16.9	0.00e+00	0	55	0	483393536	57	4252
2026-01-03 05:21:12.37	23.30	21.31	-47.1	-48.6	17.0	0.00e+00	0	56	0	485490688	57	4192
2026-01-03 05:21:13.36	23.06	21.36	-47.4	-49.1	16.6	0.00e+00	0	56	0	486539264	57	4405
2026-01-03 05:21:14.35	22.82	21.41	-47.6	-49.3	16.4	0.00e+00	0	56	0	488636416	57	4495
2026-01-03 05:21:15.34	22.57	21.46	-47.4	-49.0	16.7	0.00e+00	0	55	0	490733568	57	4352
2026-01-03 05:21:16.33	22.33	21.50	-47.2	-48.7	17.0	0.00e+00	0	56	0	492830720	57	4231
2026-01-03 05:21:17.32	22.09	21.55	-47.0	-48.5	17.2	0.00e+00	0	56	0	493879296	57	4123
2026-01-03 05:21:18.31	21.84	21.60	-47.0	-48.5	17.2	0.00e+00	0	55	0	495976448	57	4115
2026-01-03 05:21:19.30	21.60	21.64	-47.0	-48.6	17.1	0.00e+00	0	56	0	498073600	57	4150
2026-01-03 05:21:20.29	21.35	21.69	-46.9	-48.4	17.2	0.00e+00	0	56	0	500170752	57	4091
2026-01-03 05:21:21.28	21.11	21.73	-47.0	-48.5	17.2	0.00e+00	0	56	0	502267904	57	4124
2026-01-03 05:21:22.27	20.86	21.78	-47.0	-48.6	17.1	0.00e+00	0	56	0	503316480	57	4180
2026-01-03 05:21:23.25	20.62	21.82	-47.1	-48.7	17.0	0.00e+00	0	56	0	505413632	57	4219
2026-01-03 05:21:24.25	20.36	21.87	-47.0	-48.6	17.1	0.00e+00	0	56	0	507510784	57	4146
2026-01-03 05:21:25.23	20.12	21.91	-46.9	-48.4	17.3	0.00e+00	0	56	0	509607936	56	4328
2026-01-03 05:21:26.22	19.87	21.95	-46.9	-48.5	17.2	0.00e+00	0	55	0	510656512	56	4360
2026-01-03 05:21:27.21	19.62	21.99	-47.0	-48.5	17.2	0.00e+00	0	56	0	512753664	56	4363
2026-01-03 05:21:28.19	19.37	22.04	-47.1	-48.6	17.1	0.00e+00	0	56	0	514850816	56	4431
2026-01-03 05:21:29.18	19.12	22.08	-47.2	-48.8	16.9	0.00e+00	0	56	0	516947968	56	4511
2026-01-03 05:21:30.16	18.87	22.12	-47.1	-48.6	17.1	0.00e+00	0	56	0	517996544	56	4415
2026-01-03 05:21:31.15	18.61	22.16	-47.1	-48.6	17.1	0.00e+00	0	56	0	520093696	56	4435
2026-01-03 05:21:32.15	18.36	22.20	-47.3	-48.9	16.8	0.00e+00	0	55	0	522190848	56	4585
2026-01-03 05:21:33.14	18.10	22.24	-47.3	-48.9	16.8	0.00e+00	0	56	0	524288000	56	4579
2026-01-03 05:21:34.13	17.85	22.28	-47.4	-49.1	16.6	0.00e+00	0	56	0	525336576	56	4680
2026-01-03 05:21:35.12	17.59	22.31	-47.3	-48.9	16.8	0.00e+00	0	56	0	527433728	56	4558
2026-01-03 05:21:36.11	17.33	22.35	-47.3	-48.8	16.8	0.00e+00	0	56	0	529530880	56	4535
2026-01-03 05:21:37.10	17.08	22.39	-47.3	-48.9	16.8	0.00e+00	0	56	0	531628032	56	4553
2026-01-03 05:21:38.09	16.82	22.42	-47.2	-48.7	17.0	0.00e+00	0	56	0	533725184	56	4479
2026-01-03 05:21:39.07	16.56	22.46	-47.2	-48.9	16.8	0.00e+00	0	56	0	534773760	56	4549
2026-01-03 05:21:40.06	16.30	22.50	-47.4	-49.0	16.7	0.00e+00	0	56	0	536870912	56	4632
2026-01-03 05:21:41.05	16.05	22.53	-47.4	-49.0	16.6	0.00e+00	0	56	0	538968064	56	4645
2026-01-03 05:21:42.04	15.79	22.56	-47.4	-49.1	16.6	0.00e+00	0	56	0	541065216	56	4669
2026-01-03 05:21:43.03	15.52	22.60	-47.6	-49.4	16.3	0.00e+00	0	56	0	542113792	57	4561
2026-01-03 05:21:44.02	15.26	22.63	-47.7	-49.5	16.2	0.00e+00	0	56	0	544210944	57	4607
2026-01-03 05:21:45.00	15.00	22.66	-48.0	-50.0	15.7	0.00e+00	0	56	0	546308096	57	4886
2026-01-03 05:21:45.99	14.74	22.69	-48.1	-50.1	15.6	0.00e+00	0	56	0	548405248	58	4661
2026-01-03 05:21:46.99	14.48	22.72	-48.2	-50.1	15.6	0.00e+00	0	56	0	549453824	58	4694
2026-01-03 05:21:47.98	14.21	22.76	-48.1	-50.1	15.6	0.00e+00	0	56	0	551550976	58	4669
2026-01-03 05:21:48.96	13.95	22.78	-48.2	-50.2	15.5	0.00e+00	0	56	0	553648128	58	4719
2026-01-03 05:21:49.95	13.69	22.81	-48.0	-49.9	15.8	0.00e+00	0	56	0	555745280	58	4548
2026-01-03 05:21:50.94	13.42	22.84	-48.0	-50.0	15.7	0.00e+00	0	56	0	557842432	58	4604
2026-01-03 05:21:51.94	13.15	22.87	-48.3	-50.3	15.4	0.00e+00	0	56	0	558891008	58	4780
2026-01-03 05:21:52.93	12.89	22.90	-48.6	-50.7	15.0	0.00e+00	0	56	0	560988160	58	5013
2026-01-03 05:21:53.91	12.63	22.92	-48.5	-50.5	15.1	7.00e-07	0	56	0	563085312	59	4649
2026-01-03 05:21:54.90	12.36	22.95	-48.3	-50.3	15.3	0.00e+00	0	56	0	565182464	59	4525
2026-01-03 05:21:55.89	12.09	22.98	-48.3	-50.3	15.4	0.00e+00	0	56	0	566231040	59	4503
2026-01-03 05:21:56.88	11.82	23.00	-48.2	-50.3	15.3	0.00e+00	0	56	0	568328192	59	4512
2026-01-03 05:21:57.88	11.55	23.02	-48.4	-50.5	15.1	0.00e+00	0	56	0	570425344	59	4612
2026-01-03 05:21:58.87	11.28	23.05	-48.7	-50.9	14.6	0.00e+00	0	56	0	572522496	59	4850
2026-01-03 05:21:59.85	11.02	23.07	-48.8	-51.2	14.3	1.50e-06	0	56	0	573571072	59	5007
2026-01-03 05:22:00.85	10.75	23.09	-48.9	-51.3	14.2	1.50e-06	0	56	0	575668224	59	5091
2026-01-03 05:22:01.84	10.48	23.11	-48.9	-51.3	14.1	7.00e-07	0	56	0	577765376	59	5095
2026-01-03 05:22:02.83	10.21	23.13	-48.9	-51.4	13.9	3.00e-06	0	56	0	579862528	59	5157
2026-01-03 05:22:03.82	9.94	23.15	-48.8	-51.3	14.0	1.50e-06	0	56	0	581959680	59	5043
2026-01-03 05:22:04.82	9.66	23.17	-48.6	-51.1	14.0	1.50e-06	0	56	0	583008256	59	4941
2026-01-03 05:22:05.80	9.39	23.19	-48.6	-51.2	13.8	3.00e-06	0	56	0	585105408	59	5003
2026-01-03 05:22:06.79	9.12	23.21	-48.8	-51.5	13.3	1.06e-05	0	56	0	587202560	59	5203
2026-01-03 05:22:07.77	8.85	23.23	-48.9	-51.9	12.9	3.58e-05	0	56	0	589299712	59	5415
2026-01-03 05:22:08.75	8.59	23.24	-49.0	-52.0	12.7	7.62e-05	0	56	0	590348288	59	5513
2026-01-03 05:22:09.75	8.31	23.26	-49.0	-52.3	12.3	1.23e-04	0	56	0	592445440	60	5377
2026-01-03 05:22:10.74	8.04	23.28	-49.2	-52.6	11.9	2.49e-04	0	56	0	594542592	60	5591
2026-01-03 05:22:11.73	7.77	23.29	-49.5	-53.4	11.1	1.11e-03	0	56	0	596639744	60	6099
2026-01-03 05:22:12.72	7.49	23.30	-49.8	-54.4	10.0	3.07e-03	0	56	0	598736896	61	6429
2026-01-03 05:22:13.70	7.22	23.32	-50.2	-55.3	8.9	2.26e-02	0	56	0	599785472	62	6779
2026-01-03 05:22:14.69	6.95	23.33	-50.3	-55.8	8.4	4.19e-02	0	56	0	601882624	62	7140
2026-01-03 05:22:15.68	6.67	23.34	-50.3	-56.1	8.1	5.82e-02	0	56	0	603979776	62	7397
2026-01-03 05:22:16.66	6.40	23.35	-50.3	-56.4	7.8	6.63e-02	0	56	0	606076928	62	7639
2026-01-03 05:22:17.66	6.13	23.36	-50.4	-56.0	8.2	6.99e-02	0	56	0	607125504	62	7323
2026-01-03 05:22:18.63	5.86	23.37	-50.2	-55.3	9.1	3.25e-02	0	56	0	609222656	62	6738
2026-01-03 05:22:19.62	5.58	23.38	-50.2	-54.9	9.7	1.56e-02	0	56	0	611319808	62	6421
2026-01-03 05:22:20.61	5.31	23.39	-50.2	-55.0	9.6	1.13e-02	0	56	0	613416960	62	6554
2026-01-03 05:22:21.60	5.03	23.40	-50.4	-55.2	9.4	1.69e-02	0	56	0	614465536	62	6683
2026-01-03 05:22:22.59	4.76	23.40	-50.3	-55.3	9.1	2.00e-02	0	56	0	616562688	62	6755
2026-01-03 05:22:23.58	4.48	23.41	-50.4	-55.9	8.4	3.05e-02	0	56	0	618659840	62	7220
2026-01-03 05:22:24.57	4.21	23.42	-50.4	-56.1	8.1	6.31e-02	0	56	0	620756992	62	7411
2026-01-03 05:22:25.56	3.93	23.42	-50.4	-55.9	8.3	5.72e-02	0	56	0	621805568	62	7236
2026-01-03 05:22:26.55	3.66	23.42	-50.2	-55.2	9.1	3.37e-02	0	56	0	623902720	62	6672
2026-01-03 05:22:27.54	3.38	23.43	-49.9	-54.2	10.4	1.18e-02	0	56	0	625999872	62	5972
2026-01-03 05:22:28.53	3.11	23.43	-49.9	-53.7	11.2	2.01e-03	0	56	0	628097024	62	5625
2026-01-03 05:22:29.53	2.83	23.43	-49.7	-53.0	12.2	5.34e-04	0	56	0	630194176	62	5197
2026-01-03 05:22:30.52	2.56	23.43	-49.8	-53.0	12.5	1.51e-04	0	56	0	631242752	62	5167
2026-01-03 05:22:31.51	2.28	23.43	-49.7	-52.6	12.9	1.16e-04	0	56	0	633339904	62	4983
2026-01-03 05:22:32.50	2.00	23.43	-49.2	-51.9	13.6	1.06e-05	0	56	0	635437056	61	4852
2026-01-03 05:22:33.49	1.73	23.43	-48.8	-51.2	14.4	7.00e-07	0	56	0	637534208	60	4708
2026-01-03 05:22:34.49	1.45	23.43	-48.8	-51.1	14.6	0.00e+00	0	56	0	638582784	60	4682
2026-01-03 05:22:35.48	1.18	23.43	-48.7	-51.1	14.5	0.00e+00	0	56	0	640679936	60	4669
2026-01-03 05:22:36.47	0.90	23.43	-48.7	-50.9	14.8	7.00e-07	0	56	0	642777088	60	4575
2026-01-03 05:22:37.45	0.63	23.42	-48.8	-51.1	14.6	0.00e+00	0	56	0	644874240	60	4657
2026-01-03 05:22:38.45	0.35	23.42	-48.9	-51.3	14.4	0.00e+00	0	56	0	645922816	60	4770
2026-01-03 05:22:39.44	0.07	23.41	-48.8	-51.2	14.5	0.00e+00	0	56	0	648019968	60	4720
2026-01-03 05:22:40.44	359.80	23.41	-48.5	-50.6	15.1	7.00e-07	0	56	0	650117120	60	4414
2026-01-03 05:22:41.42	359.53	23.40	-48.1	-50.1	15.6	0.00e+00	0	56	0	652214272	59	4426
2026-01-03 05:22:42.41	359.25	23.39	-47.8	-49.7	16.0	0.00e+00	0	56	0	654311424	58	4451
2026-01-03 05:22:43.40	358.98	23.38	-47.6	-49.4	16.3	0.00e+00	0	56	0	655360000	58	4306
2026-01-03 05:22:44.39	358.70	23.38	-47.5	-49.3	16.4	0.00e+00	0	56	0	657457152	58	4254
2026-01-03 05:22:45.38	358.43	23.37	-47.5	-49.2	16.5	0.00e+00	0	56	0	659554304	58	4209
2026-01-03 05:22:46.37	358.15	23.36	-47.6	-49.3	16.4	0.00e+00	0	56	0	661651456	58	4255
2026-01-03 05:22:47.35	357.88	23.34	-47.6	-49.3	16.3	0.00e+00	0	56	0	662700032	58	4285
2026-01-03 05:22:48.34	357.61	23.33	-47.4	-49.1	16.6	0.00e+00	0	56	0	664797184	57	4398
2026-01-03 05:22:49.34	357.33	23.32	-47.3	-48.9	16.8	0.00e+00	0	56	0	666894336	57	4300
2026-01-03 05:22:50.33	357.06	23.31	-47.1	-48.8	16.9	0.00e+00	0	56	0	668991488	57	4243
2026-01-03 05:22:51.31	356.79	23.29	-47.2	-48.7	17.0	0.00e+00	0	56	0	671088640	57	4223
2026-01-03 05:22:52.29	356.52	23.28	-46.9	-48.4	17.2	0.00e+00	0	56	0	672137216	56	4311
2026-01-03 05:22:53.29	356.24	23.26	-47.0	-48.5	17.2	0.00e+00	0	56	0	674234368	56	4344
2026-01-03 05:22:54.28	355.97	23.25	-46.8	-48.3	17.3	0.00e+00	0	56	0	676331520	56	4266
2026-01-03 05:22:55.27	355.70	23.23	-46.8	-48.3	17.4	0.00e+00	0	56	0	678428672	56	4258
2026-01-03 05:22:56.27	355.42	23.21	-46.9	-48.3	17.3	0.00e+00	0	56	0	679477248	56	4280
2026-01-03 05:22:57.25	355.16	23.20	-46.7	-48.2	17.5	0.00e+00	0	56	0	681574400	56	4200
2026-01-03 05:22:58.24	354.88	23.18	-46.7	-48.1	17.5	0.00e+00	0	56	0	683671552	56	4186
2026-01-03 05:22:59.23	354.61	23.16	-46.7	-48.1	17.5	0.00e+00	0	56	0	685768704	56	4171
2026-01-03 05:23:00.21	354.35	23.14	-46.7	-48.1	17.6	0.00e+00	0	56	0	686817280	56	4150
2026-01-03 05:23:01.20	354.08	23.12	-46.7	-48.1	17.6	0.00e+00	0	56	0	688914432	56	4154
2026-01-03 05:23:02.19	353.81	23.10	-46.7	-48.1	17.5	0.00e+00	0	56	0	691011584	56	4159
2026-01-03 05:23:03.17	353.54	23.08	-46.7	-48.1	17.5	0.00e+00	0	56	0	693108736	56	4187
2026-01-03 05:23:04.15	353.27	23.05	-46.5	-47.8	17.8	0.00e+00	0	56	0	694157312	56	4035
2026-01-03 05:23:05.14	353.01	23.03	-46.3	-47.6	17.9	0.00e+00	0	56	0	696254464	55	4161
2026-01-03 05:23:06.12	352.74	23.01	-46.2	-47.6	17.9	0.00e+00	0	56	0	698351616	55	4157
2026-01-03 05:23:07.11	352.47	22.98	-46.4	-47.8	17.8	0.00e+00	0	56	0	700448768	55	4243
2026-01-03 05:23:08.10	352.21	22.96	-46.4	-47.7	17.8	0.00e+00	0	56	0	702545920	55	4236
2026-01-03 05:23:09.09	351.94	22.93	-46.5	-47.9	17.6	0.00e+00	0	56	0	703594496	55	4334
2026-01-03 05:23:10.07	351.67	22.91	-46.6	-48.0	17.5	0.00e+00	0	56	0	705691648	55	4372
2026-01-03 05:23:11.05	351.41	22.88	-46.7	-48.2	17.3	0.00e+00	0	56	0	707788800	55	4465
2026-01-03 05:23:12.04	351.15	22.85	-46.7	-48.2	17.3	0.00e+00	0	56	0	709885952	55	4448
2026-01-03 05:23:13.04	350.88	22.82	-46.7	-48.1	17.4	0.00e+00	0	56	0	710934528	55	4437
2026-01-03 05:23:14.02	350.62	22.79	-46.8	-48.3	17.2	0.00e+00	0	56	0	713031680	55	4528
2026-01-03 05:23:15.01	350.35	22.76	-47.1	-48.7	16.9	0.00e+00	0	56	0	715128832	55	4713
2026-01-03 05:23:15.99	350.09	22.73	-46.9	-48.3	17.2	0.00e+00	0	56	0	717225984	55	4545
2026-01-03 05:23:16.98	349.83	22.70	-46.8	-48.3	17.2	0.00e+00	0	56	0	718274560	55	4536
2026-01-03 05:23:17.97	349.57	22.67	-46.9	-48.4	17.1	0.00e+00	0	56	0	720371712	55	4582
2026-01-03 05:23:18.96	349.30	22.64	-47.0	-48.6	16.9	0.00e+00	0	56	0	722468864	55	4669
2026-01-03 05:23:19.94	349.05	22.61	-47.0	-48.6	16.9	0.00e+00	0	56	0	724566016	55	4660
2026-01-03 05:23:20.93	348.79	22.57	-47.0	-48.6	16.9	0.00e+00	0	56	0	725614592	55	4700
2026-01-03 05:23:21.93	348.52	22.54	-47.4	-49.1	16.5	0.00e+00	0	56	0	727711744	56	4665
2026-01-03 05:23:22.92	348.26	22.51	-47.4	-49.0	16.6	0.00e+00	0	56	0	729808896	56	4642
2026-01-03 05:23:23.91	348.00	22.47	-47.4	-49.1	16.6	0.00e+00	0	56	0	731906048	56	4679
2026-01-03 05:23:24.90	347.75	22.44	-47.5	-49.2	16.4	0.00e+00	0	56	0	734003200	56	4745
2026-01-03 05:23:25.89	347.49	22.40	-47.5	-49.3	16.3	0.00e+00	0	56	0	735051776	56	4791
2026-01-03 05:23:26.88	347.23	22.36	-47.7	-49.5	16.1	0.00e+00	0	56	0	737148928	57	4619
2026-01-03 05:23:27.86	346.98	22.33	-47.6	-49.4	16.3	0.00e+00	0	56	0	739246080	57	4557
2026-01-03 05:23:28.84	346.72	22.29	-47.7	-49.5	16.1	0.00e+00	0	56	0	741343232	57	4613
2026-01-03 05:23:29.83	346.47	22.25	-47.9	-49.8	15.8	0.00e+00	0	56	0	742391808	57	4763
2026-01-03 05:23:30.81	346.22	22.21	-47.8	-49.7	15.9	0.00e+00	0	56	0	744488960	57	4726
2026-01-03 05:23:31.80	345.96	22.17	-48.0	-49.9	15.7	7.00e-07	0	56	0	746586112	57	4836
2026-01-03 05:23:32.78	345.71	22.13	-48.2	-50.1	15.5	0.00e+00	0	56	0	748683264	58	4694
2026-01-03 05:23:33.78	345.46	22.09	-48.2	-50.3	15.4	0.00e+00	0	56	0	749731840	58	4768
2026-01-03 05:23:34.77	345.20	22.05	-48.4	-50.5	15.1	0.00e+00	0	56	0	751828992	58	4909
2026-01-03 05:23:35.75	344.95	22.01	-48.5	-50.6	15.0	0.00e+00	0	56	0	753926144	58	4952
2026-01-03 05:23:36.74	344.70	21.97	-48.5	-50.7	14.9	0.00e+00	0	56	0	756023296	58	5030
2026-01-03 05:23:37.73	344.45	21.92	-48.5	-50.7	14.9	0.00e+00	0	56	0	758120448	59	4753
2026-01-03 05:23:38.72	344.20	21.88	-48.3	-50.4	15.2	0.00e+00	0	56	0	759169024	59	4566
2026-01-03 05:23:39.71	343.96	21.84	-48.1	-50.2	15.4	0.00e+00	0	56	0	761266176	59	4443
2026-01-03 05:23:40.70	343.71	21.79	-48.1	-50.0	15.6	0.00e+00	0	56	0	763363328	59	4353
2026-01-03 05:23:41.69	343.46	21.75	-48.0	-49.9	15.7	0.00e+00	0	56	0	765460480	59	4338
2026-01-03 05:23:42.68	343.21	21.70	-48.1	-50.2	15.4	0.00e+00	0	56	0	766509056	59	4442
2026-01-03 05:23:43.67	342.97	21.66	-48.1	-50.2	15.4	0.00e+00	0	56	0	768606208	59	4455
2026-01-03 05:23:44.66	342.72	21.61	-48.2	-50.2	15.4	0.00e+00	0	57	0	770703360	59	4470
2026-01-03 05:23:45.65	342.48	21.56	-48.2	-50.3	15.3	0.00e+00	0	56	0	772800512	59	4505
2026-01-03 05:23:46.64	342.23	21.52	-48.4	-50.5	15.1	0.00e+00	0	56	0	773849088	59	4631
2026-01-03 05:23:47.63	341.99	21.47	-48.3	-50.4	15.1	0.00e+00	0	56	0	775946240	59	4594
2026-01-03 05:23:48.62	341.75	21.42	-48.4	-50.5	15.1	0.00e+00	0	56	0	778043392	59	4632
2026-01-03 05:23:49.61	341.51	21.37	-48.4	-50.6	14.9	0.00e+00	0	57	0	780140544	59	4691
2026-01-03 05:23:50.59	341.27	21.33	-48.6	-50.9	14.7	0.00e+00	0	56	0	781189120	59	4822
2026-01-03 05:23:51.59	341.03	21.28	-48.6	-51.0	14.5	7.00e-07	0	56	0	783286272	59	4898
2026-01-03 05:23:52.57	340.79	21.23	-48.8	-51.1	14.3	0.00e+00	0	56	0	785383424	59	4963
2026-01-03 05:23:53.56	340.55	21.18	-48.8	-51.2	14.3	3.80e-06	0	56	0	787480576	59	5030
2026-01-03 05:23:54.54	340.32	21.13	-48.7	-51.1	14.3	3.00e-06	0	56	0	789577728	59	4971
2026-01-03 05:23:55.53	340.08	21.08	-48.5	-50.8	14.6	7.00e-07	0	56	0	790626304	59	4772
2026-01-03 05:23:56.52	339.85	21.02	-48.5	-50.7	14.6	1.50e-06	0	56	0	792723456	59	4740
2026-01-03 05:23:57.50	339.61	20.97	-48.7	-51.1	14.1	7.00e-07	0	56	0	794820608	59	4967
2026-01-03 05:23:58.49	339.38	20.92	-49.0	-51.8	13.4	4.50e-06	0	56	0	796917760	59	5343
2026-01-03 05:23:59.47	339.15	20.87	-49.2	-52.2	12.8	2.67e-05	0	56	0	797966336	60	5327
2026-01-03 05:24:00.47	338.91	20.82	-49.4	-52.6	12.4	1.31e-04	0	56	0	800063488	60	5568
2026-01-03 05:24:01.46	338.68	20.76	-49.5	-52.9	12.0	2.27e-04	0	56	0	802160640	60	5787
2026-01-03 05:24:02.44	338.45	20.71	-49.6	-53.0	12.0	2.93e-04	0	57	0	804257792	60	5799
2026-01-03 05:24:03.43	338.22	20.65	-49.5	-52.9	12.0	3.11e-04	0	56	0	805306368	60	5779
2026-01-03 05:24:04.42	337.99	20.60	-49.6	-53.0	11.9	3.68e-04	0	56	0	807403520	60	5795
2026-01-03 05:24:05.41	337.76	20.54	-49.7	-53.3	11.7	5.08e-04	0	56	0	809500672	61	5686
2026-01-03 05:24:06.40	337.54	20.49	-49.7	-53.3	11.6	8.51e-04	0	56	0	811597824	61	5702
2026-01-03 05:24:07.39	337.31	20.43	-49.6	-53.0	12.0	4.16e-04	0	57	0	813694976	61	5510
2026-01-03 05:24:08.38	337.08	20.38	-49.6	-53.1	11.9	3.78e-04	0	56	0	814743552	61	5533
2026-01-03 05:24:09.37	336.86	20.32	-49.8	-53.3	11.6	5.53e-04	0	56	0	816840704	61	5702
2026-01-03 05:24:10.36	336.63	20.27	-49.7	-53.3	11.6	6.23e-04	0	57	0	818937856	61	5669
2026-01-03 05:24:11.35	336.41	20.21	-49.6	-52.9	12.0	4.34e-04	0	56	0	821035008	61	5460
2026-01-03 05:24:12.34	336.19	20.15	-49.2	-52.3	12.8	1.59e-04	0	56	0	822083584	61	5060
2026-01-03 05:24:13.32	335.97	20.09	-48.9	-51.6	13.5	2.59e-05	0	56	0	824180736	60	4963
2026-01-03 05:24:14.31	335.75	20.04	-48.7	-51.2	13.9	2.20e-06	0	56	0	826277888	60	4727
2026-01-03 05:24:15.29	335.53	19.98	-48.6	-51.0	14.2	1.50e-06	0	56	0	828375040	60	4625
2026-01-03 05:24:16.28	335.31	19.92	-48.4	-50.8	14.4	1.50e-06	0	56	0	829423616	60	4504
2026-01-03 05:24:17.26	335.09	19.86	-48.1	-50.1	15.1	0.00e+00	0	56	0	831520768	59	4433
2026-01-03 05:24:18.25	334.88	19.80	-47.7	-49.7	15.6	0.00e+00	0	56	0	833617920	58	4446
2026-01-03 05:24:19.23	334.66	19.74	-47.7	-49.6	15.7	0.00e+00	0	56	0	835715072	58	4399
2026-01-03 05:24:20.22	334.44	19.68	-47.7	-49.5	15.7	0.00e+00	0	56	0	837812224	58	4384
2026-01-03 05:24:21.21	334.23	19.62	-47.9	-49.9	15.4	0.00e+00	0	57	0	838860800	58	4586
2026-01-03 05:24:22.19	334.02	19.56	-48.3	-50.4	15.0	0.00e+00	0	56	0	840957952	58	4853
2026-01-03 05:24:23.18	333.80	19.50	-48.6	-50.8	14.7	0.00e+00	0	57	0	843055104	58	5092
2026-01-03 05:24:24.17	333.59	19.44	-48.7	-51.1	14.5	7.00e-07	0	57	0	845152256	59	4927
2026-01-03 05:24:25.16	333.38	19.38	-48.4	-50.6	15.0	0.00e+00	0	57	0	846200832	59	4663
2026-01-03 05:24:26.15	333.17	19.32	-48.2	-50.2	15.5	0.00e+00	0	57	0	848297984	59	4449
2026-01-03 05:24:27.13	332.96	19.26	-48.0	-50.0	15.7	0.00e+00	0	57	0	850395136	59	4365
2026-01-03 05:24:28.12	332.75	19.20	-48.0	-49.9	15.7	0.00e+00	0	57	0	852492288	59	4333
2026-01-03 05:24:29.10	332.55	19.14	-48.2	-50.2	15.5	0.00e+00	0	57	0	853540864	59	4448
2026-01-03 05:24:30.08	332.34	19.07	-48.2	-50.1	15.5	0.00e+00	0	57	0	855638016	59	4441
2026-01-03 05:24:31.07	332.13	19.01	-48.2	-50.2	15.5	0.00e+00	0	56	0	857735168	59	4461
2026-01-03 05:24:32.06	331.93	18.95	-48.3	-50.3	15.4	0.00e+00	0	57	0	859832320	59	4506
2026-01-03 05:24:33.05	331.72	18.89	-48.1	-50.1	15.5	0.00e+00	0	56	0	860880896	59	4420
2026-01-03 05:24:34.04	331.52	18.82	-48.3	-50.3	15.4	0.00e+00	0	57	0	862978048	59	4516
2026-01-03 05:24:35.03	331.32	18.76	-48.4	-50.4	15.3	0.00e+00	0	57	0	865075200	59	4574
2026-01-03 05:24:36.01	331.12	18.70	-48.3	-50.2	15.4	0.00e+00	0	57	0	867172352	59	4486
2026-01-03 05:24:36.99	330.92	18.63	-48.2	-50.2	15.4	0.00e+00	0	56	0	868220928	59	4451
2026-01-03 05:24:37.97	330.72	18.57	-48.3	-50.3	15.3	0.00e+00	0	57	0	870318080	59	4543
2026-01-03 05:24:38.96	330.52	18.51	-48.5	-50.6	15.1	0.00e+00	0	57	0	872415232	59	4659
2026-01-03 05:24:39.95	330.32	18.44	-48.4	-50.4	15.2	0.00e+00	0	57	0	874512384	59	4589
2026-01-03 05:24:40.93	330.12	18.38	-48.5	-50.6	15.1	0.00e+00	0	56	0	876609536	59	4679
2026-01-03 05:24:41.92	329.93	18.31	-48.4	-50.5	15.2	0.00e+00	0	57	0	877658112	59	4624
2026-01-03 05:24:42.91	329.73	18.25	-48.6	-50.7	14.9	0.00e+00	0	56	0	879755264	59	4748
2026-01-03 05:24:43.90	329.53	18.18	-48.5	-50.6	15.1	0.00e+00	0	57	0	881852416	59	4654
2026-01-03 05:24:44.89	329.34	18.12	-48.4	-50.4	15.2	0.00e+00	0	56	0	883949568	59	4598
2026-01-03 05:24:45.88	329.15	18.05	-48.3	-50.4	15.3	0.00e+00	0	57	0	884998144	59	4552
2026-01-03 05:24:46.87	328.95	17.99	-48.4	-50.5	15.2	0.00e+00	0	57	0	887095296	59	4614
2026-01-03 05:24:47.87	328.76	17.92	-48.5	-50.6	15.0	0.00e+00	0	57	0	889192448	59	4689
2026-01-03 05:24:48.86	328.57	17.85	-48.5	-50.6	15.1	0.00e+00	0	56	0	891289600	59	4673
2026-01-03 05:24:49.84	328.38	17.79	-48.4	-50.5	15.2	7.00e-07	0	57	0	892338176	59	4637
2026-01-03 05:24:50.83	328.19	17.72	-48.4	-50.6	15.1	0.00e+00	0	57	0	894435328	59	4666
2026-01-03 05:24:51.82	328.00	17.65	-48.6	-50.8	14.9	0.00e+00	0	56	0	896532480	59	4783
2026-01-03 05:24:52.82	327.81	17.59	-48.5	-50.6	15.0	0.00e+00	0	57	0	898629632	59	4703
2026-01-03 05:24:53.81	327.62	17.52	-48.4	-50.5	15.2	0.00e+00	0	57	0	900726784	59	4620
2026-01-03 05:24:54.80	327.44	17.45	-48.4	-50.5	15.1	0.00e+00	0	57	0	901775360	59	4643
2026-01-03 05:24:55.79	327.25	17.39	-48.5	-50.7	15.0	0.00e+00	0	57	0	903872512	59	4707
2026-01-03 05:24:56.78	327.07	17.32	-48.4	-50.6	15.1	0.00e+00	0	57	0	905969664	59	4673
2026-01-03 05:24:57.77	326.88	17.25	-48.3	-50.3	15.3	0.00e+00	0	57	0	908066816	59	4520
2026-01-03 05:24:58.76	326.70	17.18	-48.2	-50.2	15.4	0.00e+00	0	57	0	909115392	59	4458
2026-01-03 05:24:59.74	326.52	17.12	-48.2	-50.2	15.4	0.00e+00	0	57	0	911212544	59	4470
2026-01-03 05:25:00.72	326.34	17.05	-48.3	-50.3	15.4	0.00e+00	0	57	0	913309696	59	4510
2026-01-03 05:25:01.71	326.16	16.98	-48.4	-50.5	15.2	0.00e+00	0	57	0	915406848	59	4612
2026-01-03 05:25:02.70	325.98	16.92	-48.3	-50.4	15.3	0.00e+00	0	57	0	917504000	59	4567
2026-01-03 05:25:03.69	325.80	16.85	-48.3	-50.4	15.3	0.00e+00	0	56	0	918552576	59	4565
2026-01-03 05:25:04.68	325.62	16.78	-48.3	-50.3	15.4	0.00e+00	0	57	0	920649728	59	4502
2026-01-03 05:25:05.67	325.45	16.71	-48.2	-50.2	15.4	0.00e+00	0	57	0	922746880	59	4489
2026-01-03 05:25:06.66	325.27	16.64	-48.2	-50.2	15.5	0.00e+00	0	57	0	924844032	59	4453
2026-01-03 05:25:07.65	325.09	16.57	-48.1	-50.1	15.6	0.00e+00	0	57	0	925892608	59	4405
2026-01-03 05:25:08.64	324.92	16.51	-48.2	-50.2	15.4	0.00e+00	0	57	0	927989760	59	4448
2026-01-03 05:25:09.63	324.75	16.44	-48.1	-50.1	15.5	0.00e+00	0	57	0	930086912	59	4400
2026-01-03 05:25:10.62	324.57	16.37	-48.0	-49.9	15.7	0.00e+00	0	57	0	932184064	59	4332
2026-01-03 05:25:11.61	324.40	16.30	-48.0	-49.9	15.7	0.00e+00	0	57	0	933232640	59	4327
2026-01-03 05:25:12.59	324.23	16.23	-48.1	-50.0	15.6	0.00e+00	0	57	0	935329792	59	4391
2026-01-03 05:25:13.58	324.06	16.16	-48.1	-50.0	15.6	0.00e+00	0	57	0	937426944	59	4383
2026-01-03 05:25:14.57	323.89	16.10	-48.1	-50.1	15.5	0.00e+00	0	57	0	939524096	59	4415
2026-01-03 05:25:15.56	323.72	16.03	-48.3	-50.3	15.3	0.00e+00	0	57	0	940572672	59	4541
2026-01-03 05:25:16.54	323.55	15.96	-48.2	-50.3	15.3	0.00e+00	0	57	0	942669824	59	4511
2026-01-03 05:25:17.53	323.39	15.89	-48.0	-49.9	15.7	0.00e+00	0	57	0	944766976	59	4315
2026-01-03 05:25:18.52	323.22	15.82	-47.8	-49.7	15.9	0.00e+00	0	57	0	946864128	58	4454
2026-01-03 05:25:19.51	323.05	15.75	-47.8	-49.6	16.0	0.00e+00	0	57	0	948961280	58	4399
2026-01-03 05:25:20.51	322.89	15.68	-47.6	-49.3	16.3	0.00e+00	0	57	0	950009856	58	4282
2026-01-03 05:25:21.49	322.72	15.61	-47.6	-49.3	16.3	0.00e+00	0	57	0	952107008	58	4291
2026-01-03 05:25:22.47	322.56	15.54	-47.6	-49.4	16.2	0.00e+00	0	57	0	954204160	58	4298
2026-01-03 05:25:23.46	322.40	15.48	-47.6	-49.4	16.2	0.00e+00	0	57	0	956301312	58	4297
2026-01-03 05:25:24.46	322.24	15.41	-47.5	-49.2	16.4	0.00e+00	0	57	0	957349888	58	4205
2026-01-03 05:25:25.44	322.08	15.34	-47.4	-49.0	16.5	0.00e+00	0	57	0	959447040	57	4386
2026-01-03 05:25:26.42	321.92	15.27	-47.5	-49.2	16.4	0.00e+00	0	57	0	961544192	57	4470
2026-01-03 05:25:27.41	321.76	15.20	-47.5	-49.3	16.3	0.00e+00	0	57	0	963641344	57	4504
2026-01-03 05:25:28.40	321.60	15.13	-47.6	-49.4	16.2	0.00e+00	0	57	0	964689920	57	4557
2026-01-03 05:25:29.38	321.44	15.06	-47.5	-49.3	16.3	0.00e+00	0	57	0	966787072	57	4520
2026-01-03 05:25:30.36	321.29	14.99	-47.6	-49.3	16.3	0.00e+00	0	57	0	968884224	57	4522
2026-01-03 05:25:31.35	321.13	14.92	-47.5	-49.3	16.3	0.00e+00	0	57	0	970981376	57	4495
2026-01-03 05:25:32.34	320.97	14.85	-47.6	-49.4	16.1	0.00e+00	0	57	0	972029952	57	4574
2026-01-03 05:25:33.34	320.82	14.78	-47.5	-49.2	16.4	0.00e+00	0	57	0	974127104	57	4443
2026-01-03 05:25:34.33	320.66	14.71	-47.5	-49.2	16.4	0.00e+00	0	57	0	976224256	57	4444
2026-01-03 05:25:35.32	320.51	14.64	-47.5	-49.2	16.4	0.00e+00	0	57	0	978321408	57	4449
2026-01-03 05:25:36.31	320.35	14.57	-47.5	-49.2	16.4	0.00e+00	0	57	0	980418560	57	4450
2026-01-03 05:25:37.30	320.20	14.50	-47.6	-49.3	16.3	0.00e+00	0	57	0	981467136	57	4511
2026-01-03 05:25:38.29	320.05	14.43	-47.6	-49.4	16.2	0.00e+00	0	57	0	983564288	57	4573
2026-01-03 05:25:39.29	319.90	14.36	-47.5	-49.3	16.3	0.00e+00	0	57	0	985661440	57	4494
2026-01-03 05:25:40.28	319.75	14.29	-47.5	-49.2	16.4	0.00e+00	0	57	0	987758592	57	4462
2026-01-03 05:25:41.26	319.60	14.23	-47.6	-49.3	16.2	0.00e+00	0	57	0	988807168	57	4525
2026-01-03 05:25:42.25	319.45	14.16	-47.7	-49.5	16.1	0.00e+00	0	57	0	990904320	57	4622
2026-01-03 05:25:43.24	319.30	14.09	-47.7	-49.5	16.0	0.00e+00	0	57	0	993001472	57	4648
2026-01-03 05:25:44.22	319.16	14.02	-47.7	-49.5	16.0	0.00e+00	0	57	0	995098624	57	4644
2026-01-03 05:25:45.22	319.01	13.95	-47.9	-49.7	15.8	0.00e+00	0	57	0	997195776	57	4752
2026-01-03 05:25:46.21	318.86	13.88	-48.0	-49.9	15.6	0.00e+00	0	57	0	998244352	57	4850
2026-01-03 05:25:47.20	318.72	13.81	-47.9	-49.8	15.8	0.00e+00	0	57	0	1000341504	57	4760
2026-01-03 05:25:48.19	318.57	13.74	-48.2	-50.1	15.4	0.00e+00	0	57	0	1002438656	58	4705
2026-01-03 05:25:49.18	318.43	13.67	-48.3	-50.4	15.1	0.00e+00	0	57	0	1004535808	58	4836
2026-01-03 05:25:50.17	318.28	13.60	-48.2	-50.2	15.4	0.00e+00	0	56	0	1005584384	58	4724
2026-01-03 05:25:51.15	318.14	13.53	-48.1	-50.1	15.4	0.00e+00	0	57	0	1007681536	58	4676
2026-01-03 05:25:52.14	318.00	13.46	-48.1	-50.1	15.4	0.00e+00	0	57	0	1009778688	58	4677
2026-01-03 05:25:53.13	317.86	13.39	-48.3	-50.4	15.1	0.00e+00	0	57	0	1011875840	58	4850
2026-01-03 05:25:54.12	317.72	13.32	-48.3	-50.3	15.2	0.00e+00	0	57	0	1012924416	58	4805
2026-01-03 05:25:55.11	317.58	13.25	-48.4	-50.7	14.8	0.00e+00	0	57	0	1015021568	58	5027
2026-01-03 05:25:56.10	317.44	13.18	-48.3	-50.4	15.1	0.00e+00	0	57	0	1017118720	58	4853
2026-01-03 05:25:57.09	317.30	13.11	-48.2	-50.2	15.3	0.00e+00	0	57	0	1019215872	58	4749
2026-01-03 05:25:58.07	317.16	13.05	-48.1	-50.1	15.4	0.00e+00	0	57	0	1020264448	58	4665
2026-01-03 05:25:59.06	317.03	12.98	-48.1	-50.1	15.5	0.00e+00	0	57	0	1022361600	58	4663
2026-01-03 05:26:00.04	316.89	12.91	-48.0	-50.0	15.5	0.00e+00	0	57	0	1024458752	58	4613
2026-01-03 05:26:01.02	316.76	12.84	-48.0	-50.0	15.5	0.00e+00	0	57	0	1026555904	58	4631
2026-01-03 05:26:02.01	316.62	12.77	-48.1	-50.0	15.5	0.00e+00	0	57	0	1028653056	58	4633
2026-01-03 05:26:03.00	316.49	12.70	-48.1	-50.1	15.5	0.00e+00	0	57	0	1029701632	58	4669
2026-01-03 05:26:03.99	316.35	12.63	-48.3	-50.3	15.2	0.00e+00	0	57	0	1031798784	58	4814
2026-01-03 05:26:04.98	316.22	12.56	-48.1	-50.2	15.4	0.00e+00	0	57	0	1033895936	58	4710
2026-01-03 05:26:05.97	316.09	12.49	-48.1	-50.1	15.4	0.00e+00	0	57	0	1035993088	58	4692
2026-01-03 05:26:06.96	315.96	12.43	-48.1	-50.1	15.3	0.00e+00	0	57	0	1037041664	58	4700
2026-01-03 05:26:07.95	315.82	12.36	-48.2	-50.3	15.2	0.00e+00	0	57	0	1039138816	58	4780
2026-01-03 05:26:08.94	315.69	12.29	-48.2	-50.3	15.2	0.00e+00	0	57	0	1041235968	58	4772
2026-01-03 05:26:09.93	315.56	12.22	-48.3	-50.4	15.1	0.00e+00	0	57	0	1043333120	58	4836
2026-01-03 05:26:10.92	315.43	12.15	-48.3	-50.4	15.0	0.00e+00	0	57	0	1044381696	58	4860
2026-01-03 05:26:11.91	315.30	12.08	-48.4	-50.6	14.9	0.00e+00	0	57	0	1046478848	58	4948
2026-01-03 05:26:12.89	315.18	12.01	-48.3	-50.4	15.0	0.00e+00	0	57	0	1048576000	58	4860
2026-01-03 05:26:13.88	315.05	11.94	-48.4	-50.5	15.0	0.00e+00	0	57	0	1050673152	58	4908
2026-01-03 05:26:14.88	314.92	11.88	-48.4	-50.5	14.9	0.00e+00	0	57	0	1052770304	58	4907
2026-01-03 05:26:15.86	314.80	11.81	-48.5	-50.7	14.8	7.00e-07	0	57	0	1053818880	58	5022
2026-01-03 05:26:16.85	314.67	11.74	-48.4	-50.6	14.9	0.00e+00	0	57	0	1055916032	58	4963
2026-01-03 05:26:17.84	314.54	11.67	-48.4	-50.5	15.0	0.00e+00	0	57	0	1058013184	58	4922
2026-01-03 05:26:18.83	314.42	11.60	-48.5	-50.7	14.7	0.00e+00	0	57	0	1060110336	58	5025
2026-01-03 05:26:19.82	314.30	11.53	-48.5	-50.7	14.8	0.00e+00	0	57	0	1061158912	58	5014
2026-01-03 05:26:20.81	314.17	11.47	-48.5	-50.7	14.8	0.00e+00	0	57	0	1063256064	58	5032
2026-01-03 05:26:21.79	314.05	11.40	-48.6	-50.8	14.6	7.00e-07	0	57	0	1065353216	59	4814
2026-01-03 05:26:22.78	313.93	11.33	-48.6	-50.8	14.6	0.00e+00	0	57	0	1067450368	59	4787
2026-01-03 05:26:23.77	313.81	11.26	-48.5	-50.6	14.8	7.00e-07	0	57	0	1068498944	59	4701
2026-01-03 05:26:24.75	313.69	11.19	-48.5	-50.7	14.7	0.00e+00	0	57	0	1070596096	59	4740
2026-01-03 05:26:25.75	313.56	11.13	-48.5	-50.7	14.7	7.00e-07	0	57	0	1072693248	59	4755
2026-01-03 05:26:26.73	313.45	11.06	-48.7	-51.1	14.3	0.00e+00	0	57	0	1074790400	59	4954
2026-01-03 05:26:27.71	313.33	10.99	-48.7	-51.0	14.4	7.00e-07	0	57	0	1075838976	59	4910
2026-01-03 05:26:28.69	313.21	10.92	-48.6	-51.0	14.4	1.50e-06	0	57	0	1077936128	59	4922
2026-01-03 05:26:29.68	313.09	10.86	-49.0	-51.4	14.0	3.00e-06	0	57	0	1080033280	59	5153
2026-01-03 05:26:30.65	312.98	10.79	-48.9	-51.4	14.0	1.50e-06	0	57	0	1082130432	59	5137
2026-01-03 05:26:31.64	312.86	10.72	-49.0	-51.6	13.8	3.00e-06	0	57	0	1083179008	59	5237
2026-01-03 05:26:32.63	312.74	10.66	-49.1	-51.7	13.7	6.80e-06	0	57	0	1085276160	60	5004
2026-01-03 05:26:33.62	312.63	10.59	-49.1	-51.7	13.7	7.60e-06	0	57	0	1087373312	60	5034
2026-01-03 05:26:34.62	312.51	10.52	-49.2	-52.0	13.3	1.37e-05	0	57	0	1089470464	60	5218
2026-01-03 05:26:35.61	312.39	10.45	-49.3	-52.1	13.3	1.52e-05	0	57	0	1091567616	60	5238
2026-01-03 05:26:36.59	312.28	10.39	-49.3	-52.2	13.2	1.75e-05	0	57	0	1092616192	60	5327
2026-01-03 05:26:37.59	312.16	10.32	-49.3	-52.2	13.2	3.43e-05	0	57	0	1094713344	60	5312
2026-01-03 05:26:38.58	312.05	10.25	-49.2	-52.0	13.4	1.44e-05	0	57	0	1096810496	60	5184
2026-01-03 05:26:39.56	311.94	10.18	-49.1	-51.8	13.5	1.06e-05	0	57	0	1098907648	60	5088
2026-01-03 05:26:40.55	311.83	10.12	-49.1	-51.7	13.6	9.10e-06	0	57	0	1099956224	60	5039
2026-01-03 05:26:41.54	311.72	10.05	-49.1	-51.8	13.6	7.60e-06	0	57	0	1102053376	60	5045
2026-01-03 05:26:42.53	311.60	9.98	-49.1	-51.9	13.4	9.10e-06	0	57	0	1104150528	60	5144
2026-01-03 05:26:43.53	311.49	9.92	-49.1	-51.9	13.5	1.90e-05	0	57	0	1106247680	60	5116
2026-01-03 05:26:44.52	311.38	9.85	-48.9	-51.5	13.8	0.00e+00	0	57	0	1108344832	60	4905
2026-01-03 05:26:45.51	311.27	9.78	-48.8	-51.4	14.0	2.20e-06	0	57	0	1109393408	60	4816
2026-01-03 05:26:46.50	311.16	9.72	-48.7	-51.2	14.1	1.50e-06	0	57	0	1111490560	60	4758
2026-01-03 05:26:47.50	311.05	9.65	-48.8	-51.3	14.1	3.00e-06	0	57	0	1113587712	60	4793
2026-01-03 05:26:48.49	310.94	9.58	-48.8	-51.4	13.9	3.00e-06	0	57	0	1115684864	60	4859
2026-01-03 05:26:49.48	310.84	9.52	-48.9	-51.5	13.9	3.00e-06	0	57	0	1116733440	60	4876
2026-01-03 05:26:50.47	310.73	9.45	-48.8	-51.5	13.8	2.20e-06	0	57	0	1118830592	60	4907
2026-01-03 05:26:51.46	310.62	9.38	-49.0	-51.7	13.6	7.60e-06	0	57	0	1120927744	60	5010
2026-01-03 05:26:52.44	310.52	9.32	-49.1	-51.9	13.5	1.37e-05	0	57	0	1123024896	60	5107
2026-01-03 05:26:53.43	310.41	9.25	-49.1	-51.9	13.4	9.10e-06	0	57	0	1124073472	60	5125
2026-01-03 05:26:54.42	310.31	9.19	-49.1	-52.1	13.2	1.75e-05	0	57	0	1126170624	60	5237
2026-01-03 05:26:55.40	310.20	9.12	-49.2	-52.1	13.3	2.21e-05	0	57	0	1128267776	60	5219
2026-01-03 05:26:56.40	310.10	9.06	-49.4	-52.4	13.0	3.58e-05	0	57	0	1130364928	60	5403
2026-01-03 05:26:57.39	309.99	8.99	-49.5	-52.5	12.8	6.71e-05	0	57	0	1132462080	60	5514
2026-01-03 05:26:58.38	309.89	8.92	-49.3	-52.5	12.8	5.64e-05	0	57	0	1133510656	60	5487
2026-01-03 05:26:59.38	309.79	8.86	-49.6	-52.8	12.5	1.01e-04	0	57	0	1135607808	61	5356
2026-01-03 05:27:00.37	309.68	8.79	-49.6	-53.0	12.3	2.23e-04	0	57	0	1137704960	61	5468
2026-01-03 05:27:01.36	309.58	8.73	-49.5	-52.7	12.5	1.23e-04	0	57	0	1139802112	61	5326
2026-01-03 05:27:02.36	309.48	8.66	-49.5	-52.6	12.7	9.53e-05	0	57	0	1140850688	61	5252
2026-01-03 05:27:03.35	309.38	8.60	-49.5	-52.6	12.7	8.16e-05	0	57	0	1142947840	61	5228
2026-01-03 05:27:04.33	309.28	8.53	-49.5	-52.7	12.6	8.54e-05	0	57	0	1145044992	61	5304
2026-01-03 05:27:05.32	309.18	8.47	-49.5	-52.7	12.5	1.26e-04	0	57	0	1147142144	61	5315
2026-01-03 05:27:06.31	309.08	8.40	-49.6	-52.8	12.4	1.04e-04	0	57	0	1149239296	61	5387
2026-01-03 05:27:07.30	308.98	8.34	-49.6	-52.9	12.3	2.08e-04	0	57	0	1150287872	61	5434
2026-01-03 05:27:08.29	308.88	8.27	-49.6	-52.8	12.4	1.56e-04	0	57	0	1152385024	61	5369
2026-01-03 05:27:09.28	308.78	8.21	-49.5	-52.7	12.5	1.27e-04	0	57	0	1154482176	61	5302
2026-01-03 05:27:10.27	308.69	8.14	-49.5	-52.7	12.4	1.25e-04	0	57	0	1156579328	61	5331
2026-01-03 05:27:11.26	308.59	8.08	-49.6	-52.9	12.2	2.03e-04	0	57	0	1157627904	61	5422
2026-01-03 05:27:12.25	308.49	8.01	-49.5	-52.9	12.2	1.87e-04	0	57	0	1159725056	61	5433
2026-01-03 05:27:13.23	308.40	7.95	-49.6	-52.9	12.2	2.15e-04	0	57	0	1161822208	61	5457
2026-01-03 05:27:14.22	308.30	7.89	-49.7	-53.2	11.9	2.55e-04	0	57	0	1163919360	61	5629
2026-01-03 05:27:15.21	308.20	7.82	-49.8	-53.5	11.6	6.60e-04	0	57	0	1164967936	61	5811
2026-01-03 05:27:16.20	308.11	7.76	-49.7	-53.1	11.9	4.66e-04	0	57	0	1167065088	61	5569
2026-01-03 05:27:17.19	308.01	7.69	-49.5	-52.8	12.3	2.50e-04	0	57	0	1169162240	61	5373
2026-01-03 05:27:18.18	307.92	7.63	-49.4	-52.7	12.4	1.60e-04	0	57	0	1171259392	61	5332
2026-01-03 05:27:19.17	307.83	7.57	-49.5	-52.7	12.3	1.51e-04	0	57	0	1172307968	61	5339
2026-01-03 05:27:20.16	307.73	7.50	-49.5	-52.7	12.4	1.58e-04	0	57	0	1174405120	61	5338
2026-01-03 05:27:21.15	307.64	7.44	-49.5	-52.7	12.4	1.38e-04	0	57	0	1176502272	61	5290
2026-01-03 05:27:22.14	307.55	7.38	-49.5	-52.8	12.2	1.79e-04	0	57	0	1178599424	61	5395
2026-01-03 05:27:23.13	307.46	7.31	-49.6	-53.0	12.1	2.42e-04	0	57	0	1180696576	61	5483
2026-01-03 05:27:24.12	307.36	7.25	-49.5	-52.8	12.2	2.84e-04	0	57	0	1181745152	61	5380
2026-01-03 05:27:25.11	307.27	7.19	-49.5	-52.9	12.1	2.31e-04	0	57	0	1183842304	61	5420
2026-01-03 05:27:26.10	307.18	7.12	-49.6	-53.0	11.9	3.23e-04	0	57	0	1185939456	61	5520
2026-01-03 05:27:27.09	307.09	7.06	-49.6	-53.1	11.9	3.81e-04	0	57	0	1188036608	61	5529
2026-01-03 05:27:28.08	307.00	7.00	-49.6	-53.1	11.8	4.18e-04	0	57	0	1189085184	61	5590
2026-01-03 05:27:29.07	306.91	6.93	-49.6	-53.3	11.6	5.85e-04	0	57	0	1191182336	61	5688
2026-01-03 05:27:30.05	306.82	6.87	-49.7	-53.4	11.4	8.86e-04	0	57	0	1193279488	61	5752
2026-01-03 05:27:31.03	306.73	6.81	-49.7	-53.6	11.2	1.33e-03	0	57	0	1195376640	61	5876
2026-01-03 05:27:32.02	306.65	6.75	-49.8	-53.8	10.9	1.55e-03	0	57	0	1196425216	61	6001
2026-01-03 05:27:33.01	306.56	6.68	-49.9	-53.9	10.7	2.62e-03	0	57	0	1198522368	61	6128
2026-01-03 05:27:34.01	306.47	6.62	-49.9	-54.0	10.6	3.23e-03	0	57	0	1200619520	61	6196
2026-01-03 05:27:35.00	306.38	6.56	-50.1	-54.4	10.3	4.66e-03	0	57	0	1202716672	61	6439
2026-01-03 05:27:35.98	306.30	6.50	-50.0	-54.3	10.3	5.37e-03	0	57	0	1204813824	61	6400
2026-01-03 05:27:36.97	306.21	6.43	-50.1	-54.4	10.1	6.04e-03	0	57	0	1205862400	61	6486
2026-01-03 05:27:37.96	306.12	6.37	-50.2	-54.8	9.8	7.99e-03	0	57	0	1207959552	62	6388
2026-01-03 05:27:38.95	306.04	6.31	-50.1	-54.6	10.0	9.39e-03	0	57	0	1210056704	62	6254
2026-01-03 05:27:39.94	305.95	6.25	-50.2	-54.9	9.7	9.16e-03	0	57	0	1212153856	62	6489
2026-01-03 05:27:40.93	305.87	6.19	-50.1	-54.7	9.8	9.93e-03	0	57	0	1213202432	62	6331
2026-01-03 05:27:41.92	305.78	6.12	-50.1	-54.7	9.9	9.89e-03	0	57	0	1215299584	62	6279
2026-01-03 05:27:42.91	305.70	6.06	-50.1	-54.7	9.9	9.12e-03	0	57	0	1217396736	62	6301
2026-01-03 05:27:43.90	305.61	6.00	-50.2	-55.0	9.4	1.03e-02	0	57	0	1219493888	62	6570
2026-01-03 05:27:44.88	305.53	5.94	-50.2	-55.0	9.5	1.64e-02	0	57	0	1220542464	62	6553
2026-01-03 05:27:45.87	305.45	5.88	-50.1	-54.7	9.7	1.17e-02	0	57	0	1222639616	62	6333
2026-01-03 05:27:46.86	305.36	5.82	-50.1	-54.7	9.7	1.03e-02	0	57	0	1224736768	62	6302
2026-01-03 05:27:47.85	305.28	5.76	-50.2	-55.0	9.4	1.11e-02	0	57	0	1226833920	62	6535
2026-01-03 05:27:48.84	305.20	5.69	-50.1	-55.0	9.4	1.77e-02	0	57	0	1228931072	62	6501
2026-01-03 05:27:49.83	305.12	5.63	-50.1	-55.1	9.2	1.75e-02	0	57	0	1229979648	62	6605
2026-01-03 05:27:50.81	305.04	5.57	-50.2	-55.3	8.9	2.27e-02	0	57	0	1232076800	62	6799
2026-01-03 05:27:51.80	304.96	5.51	-50.4	-55.9	8.4	3.36e-02	0	57	0	1234173952	62	7223
2026-01-03 05:27:52.78	304.88	5.45	-50.3	-56.0	8.2	5.15e-02	0	57	0	1236271104	62	7309
2026-01-03 05:27:53.78	304.80	5.39	-50.4	-56.2	8.0	5.89e-02	0	57	0	1237319680	62	7468
2026-01-03 05:27:54.77	304.72	5.33	-50.3	-56.0	8.1	6.83e-02	0	57	0	1239416832	62	7319
