passes_logs/2026/01/03/R3.0SM8_Murmansk_STILSPACE/R3.0SM8_Murmansk_STILSPACE__20260103_105350_AQUA_rec.log

#Pass ID: 20260103_105350_AQUA
#Satellite: AQUA
#Configuration: AQUA
#almurnet v.1.7.20240730
#Start time: 2026-01-03 10:53:50

#Version: 2.2.20231116
#Station: R3.0SM8_Murmansk_STILSPACE
#Location: 33.092731 lon 68.902999 lat
#TLE: 1 27424U 02022A   25365.92641127  .00002078  00000+0  42628-3 0  9999
#TLE: 2 27424  98.4058 327.1196 0001962  94.7781 340.6230 14.61783896258835

#Time	Az	El	Level	Level2	SNR	BER	BlckErr	Temp	State	Recorded	gain1	gain2
2026-01-03 10:53:50.99	143.10	3.04	-54.5	-74.5	3.8	7.47e-01	0	45	0	0	71	37399
2026-01-03 10:53:51.97	143.09	3.11	-54.4	-74.3	3.8	7.48e-01	0	45	104	0	71	36861
2026-01-03 10:53:52.96	143.08	3.18	-54.3	-74.3	3.8	7.46e-01	0	45	104	0	71	36663
2026-01-03 10:53:53.95	143.07	3.25	-54.3	-74.2	3.8	7.45e-01	0	45	104	0	71	36327
2026-01-03 10:53:54.94	143.06	3.31	-54.2	-74.1	3.8	7.47e-01	0	45	104	0	71	35980
2026-01-03 10:53:55.93	143.05	3.38	-54.1	-74.1	3.8	7.49e-01	0	46	104	0	71	35732
2026-01-03 10:53:56.92	143.04	3.45	-54.0	-73.8	3.8	7.46e-01	0	46	104	0	71	34841
2026-01-03 10:53:57.91	143.03	3.52	-53.7	-73.0	3.8	7.45e-01	0	46	104	0	71	31790
2026-01-03 10:53:58.90	143.02	3.59	-53.5	-70.6	4.0	7.46e-01	0	46	104	0	70	25436
2026-01-03 10:53:59.90	143.01	3.66	-53.5	-69.7	4.3	7.32e-01	0	46	104	0	70	22788
2026-01-03 10:54:00.89	142.99	3.73	-53.5	-69.7	4.3	7.44e-01	0	46	104	0	70	23023
2026-01-03 10:54:01.88	142.98	3.81	-53.5	-68.3	4.3	7.14e-01	0	46	104	0	70	19589
2026-01-03 10:54:02.87	142.97	3.88	-53.4	-67.4	5.3	7.04e-01	0	46	0	0	70	17554
2026-01-03 10:54:03.86	142.96	3.95	-53.4	-66.6	5.8	6.91e-01	64	46	0	0	70	16066
2026-01-03 10:54:04.86	142.95	4.02	-53.4	-66.2	6.2	6.78e-01	69	46	0	2097152	70	15248
2026-01-03 10:54:05.85	142.94	4.09	-53.3	-65.4	6.8	6.65e-01	92	46	0	3670016	70	13923
2026-01-03 10:54:06.83	142.93	4.16	-53.3	-64.8	7.3	6.55e-01	93	46	0	5767168	70	12980
2026-01-03 10:54:07.82	142.91	4.23	-53.2	-64.0	8.1	6.48e-01	72	46	0	7340032	70	11939
2026-01-03 10:54:08.81	142.90	4.30	-53.1	-63.5	8.6	6.39e-01	7	47	0	9437184	69	11935
2026-01-03 10:54:09.80	142.89	4.38	-53.1	-62.8	9.3	6.30e-01	0	47	0	11010048	69	11012
2026-01-03 10:54:10.79	142.88	4.45	-53.0	-62.2	9.9	6.25e-01	0	46	0	13107200	69	10255
2026-01-03 10:54:11.78	142.87	4.52	-52.9	-61.4	10.8	6.18e-01	0	47	0	14680064	69	9343
2026-01-03 10:54:12.77	142.85	4.59	-52.7	-60.5	11.8	6.14e-01	0	47	0	16777216	69	8421
2026-01-03 10:54:13.76	142.84	4.67	-52.6	-59.9	12.4	6.12e-01	0	47	0	18874368	68	8283
2026-01-03 10:54:14.75	142.83	4.74	-52.4	-59.2	13.1	6.08e-01	0	47	0	20447232	68	7645
2026-01-03 10:54:15.74	142.82	4.81	-52.2	-58.3	14.1	6.09e-01	0	47	0	22544384	68	6881
2026-01-03 10:54:16.72	142.80	4.89	-51.9	-57.6	14.8	6.08e-01	0	47	0	24117248	67	6734
2026-01-03 10:54:17.71	142.79	4.96	-51.8	-57.2	15.1	6.07e-01	0	47	0	26214400	67	6449
2026-01-03 10:54:18.70	142.78	5.04	-51.6	-56.6	15.8	6.06e-01	0	47	0	27787264	66	6365
2026-01-03 10:54:19.70	142.77	5.11	-51.5	-56.2	16.1	6.07e-01	0	47	0	29884416	66	6113
2026-01-03 10:54:20.68	142.75	5.18	-51.4	-56.0	16.3	6.06e-01	0	47	0	31457280	66	5982
2026-01-03 10:54:21.66	142.74	5.26	-51.4	-56.1	16.2	6.06e-01	0	47	0	33554432	66	6033
2026-01-03 10:54:22.65	142.73	5.33	-51.4	-56.1	16.3	6.08e-01	0	47	0	35127296	66	6013
2026-01-03 10:54:23.64	142.71	5.41	-51.5	-56.2	16.2	6.09e-01	0	47	0	37224448	66	6101
2026-01-03 10:54:24.63	142.70	5.48	-51.3	-55.7	16.6	6.06e-01	0	48	0	38797312	66	5788
2026-01-03 10:54:25.62	142.69	5.56	-51.3	-55.7	16.7	6.06e-01	0	48	0	40894464	66	5773
2026-01-03 10:54:26.60	142.67	5.64	-51.3	-55.8	16.6	6.06e-01	0	48	0	42991616	66	5831
2026-01-03 10:54:27.59	142.66	5.71	-51.4	-56.0	16.4	6.07e-01	0	48	0	44564480	66	5962
2026-01-03 10:54:28.58	142.65	5.79	-51.6	-56.3	16.2	6.05e-01	0	48	0	46661632	66	6147
2026-01-03 10:54:29.57	142.63	5.87	-51.1	-55.3	17.1	6.08e-01	0	48	0	48234496	65	5801
2026-01-03 10:54:30.55	142.62	5.94	-50.9	-54.7	17.7	6.06e-01	0	48	0	50331648	65	5436
2026-01-03 10:54:31.54	142.60	6.02	-50.6	-54.0	18.4	6.06e-01	0	48	0	51904512	64	5338
2026-01-03 10:54:32.52	142.59	6.10	-50.3	-53.6	18.8	6.05e-01	0	48	0	54001664	64	5069
2026-01-03 10:54:33.51	142.58	6.17	-50.2	-53.2	19.3	6.08e-01	0	48	0	55574528	63	5122
2026-01-03 10:54:34.50	142.56	6.25	-49.9	-52.7	19.8	6.07e-01	0	48	0	57671680	63	4860
2026-01-03 10:54:35.49	142.55	6.33	-49.7	-52.5	20.1	6.04e-01	0	48	0	59244544	63	4720
2026-01-03 10:54:36.48	142.53	6.41	-49.6	-52.3	20.2	6.06e-01	0	48	0	61341696	62	4905
2026-01-03 10:54:37.47	142.52	6.49	-49.6	-52.2	20.4	6.07e-01	0	48	0	62914560	62	4847
2026-01-03 10:54:38.46	142.50	6.57	-49.7	-52.4	20.2	6.05e-01	0	48	0	65011712	62	4978
2026-01-03 10:54:39.45	142.49	6.65	-49.7	-52.4	20.2	6.06e-01	0	48	0	67108864	62	4947
2026-01-03 10:54:40.44	142.47	6.73	-49.6	-52.2	20.4	6.08e-01	0	48	0	68681728	62	4828
2026-01-03 10:54:41.43	142.46	6.81	-49.5	-52.0	20.6	6.04e-01	0	48	0	70254592	62	4729
2026-01-03 10:54:42.42	142.44	6.89	-49.4	-52.0	20.6	6.06e-01	0	48	0	72351744	62	4720
2026-01-03 10:54:43.41	142.43	6.97	-49.5	-52.1	20.5	6.08e-01	0	49	0	74448896	62	4770
2026-01-03 10:54:44.41	142.41	7.05	-49.6	-52.3	20.4	6.06e-01	0	48	0	76021760	62	4878
2026-01-03 10:54:45.40	142.40	7.13	-49.7	-52.3	20.3	6.06e-01	0	49	0	78118912	62	4924
2026-01-03 10:54:46.38	142.38	7.21	-49.6	-52.2	20.5	6.05e-01	0	49	0	79691776	62	4833
2026-01-03 10:54:47.37	142.37	7.29	-49.7	-52.3	20.4	6.06e-01	0	49	0	81788928	62	4912
2026-01-03 10:54:48.36	142.35	7.37	-49.8	-52.4	20.3	6.05e-01	0	49	0	83361792	62	4963
2026-01-03 10:54:49.35	142.34	7.46	-49.6	-52.2	20.5	6.05e-01	0	49	0	85458944	62	4842
2026-01-03 10:54:50.33	142.32	7.54	-49.5	-52.1	20.6	6.08e-01	0	49	0	87031808	62	4768
2026-01-03 10:54:51.32	142.30	7.62	-49.6	-52.2	20.5	6.07e-01	0	49	0	89128960	62	4842
2026-01-03 10:54:52.32	142.29	7.70	-49.7	-52.4	20.3	6.07e-01	0	49	0	90701824	62	4939
2026-01-03 10:54:53.31	142.27	7.79	-49.6	-52.1	20.6	6.06e-01	0	49	0	92798976	62	4792
2026-01-03 10:54:54.30	142.25	7.87	-49.4	-51.9	20.8	6.07e-01	0	49	0	94896128	62	4658
2026-01-03 10:54:55.29	142.24	7.96	-49.2	-51.6	21.1	6.04e-01	0	49	0	96468992	62	4508
2026-01-03 10:54:56.28	142.22	8.04	-49.2	-51.5	21.2	6.04e-01	0	49	0	98566144	61	4746
2026-01-03 10:54:57.26	142.20	8.12	-49.1	-51.4	21.2	6.06e-01	0	49	0	100139008	61	4692
2026-01-03 10:54:58.24	142.19	8.21	-49.2	-51.5	21.2	6.07e-01	0	49	0	102236160	61	4735
2026-01-03 10:54:59.23	142.17	8.29	-49.4	-51.8	21.0	6.07e-01	0	49	0	103809024	61	4878
2026-01-03 10:55:00.22	142.15	8.38	-49.5	-51.9	20.8	6.06e-01	0	49	0	105906176	61	4979
2026-01-03 10:55:01.21	142.14	8.46	-49.2	-51.5	21.2	6.08e-01	0	49	0	107479040	61	4739
2026-01-03 10:55:02.20	142.12	8.55	-49.1	-51.3	21.4	6.04e-01	0	49	0	109576192	61	4637
2026-01-03 10:55:03.18	142.10	8.64	-49.0	-51.2	21.5	6.06e-01	0	49	0	111149056	61	4596
2026-01-03 10:55:04.17	142.08	8.72	-49.0	-51.3	21.5	6.06e-01	0	49	0	113246208	61	4606
2026-01-03 10:55:05.16	142.07	8.81	-49.1	-51.4	21.4	6.08e-01	0	49	0	114819072	61	4653
2026-01-03 10:55:06.16	142.05	8.90	-49.2	-51.5	21.3	6.05e-01	0	50	0	116916224	61	4734
2026-01-03 10:55:07.14	142.03	8.99	-49.1	-51.3	21.5	6.07e-01	0	50	0	119013376	61	4624
2026-01-03 10:55:08.14	142.01	9.08	-49.0	-51.2	21.6	6.06e-01	0	50	0	120586240	61	4547
2026-01-03 10:55:09.13	141.99	9.16	-49.0	-51.2	21.5	6.08e-01	0	50	0	122683392	61	4596
2026-01-03 10:55:10.12	141.97	9.25	-49.2	-51.4	21.4	6.06e-01	0	50	0	124256256	61	4684
2026-01-03 10:55:11.11	141.95	9.34	-49.0	-51.2	21.6	6.08e-01	0	50	0	126353408	61	4564
2026-01-03 10:55:12.10	141.94	9.43	-49.2	-51.4	21.4	6.06e-01	0	50	0	127926272	61	4677
2026-01-03 10:55:13.09	141.92	9.52	-48.9	-51.1	21.7	6.06e-01	0	50	0	130023424	61	4509
2026-01-03 10:55:14.08	141.90	9.61	-48.9	-51.0	21.8	6.09e-01	0	50	0	131596288	61	4467
2026-01-03 10:55:15.08	141.88	9.70	-49.0	-51.2	21.7	6.06e-01	0	50	0	133693440	61	4547
2026-01-03 10:55:16.06	141.86	9.79	-49.1	-51.3	21.6	6.05e-01	0	50	0	135266304	61	4623
2026-01-03 10:55:17.05	141.84	9.89	-49.0	-51.1	21.7	6.07e-01	0	50	0	137363456	61	4530
2026-01-03 10:55:18.03	141.82	9.98	-48.9	-51.0	21.8	6.07e-01	0	50	0	138936320	61	4479
2026-01-03 10:55:19.02	141.80	10.07	-48.9	-51.0	21.9	6.06e-01	0	50	0	141033472	61	4472
2026-01-03 10:55:20.00	141.78	10.16	-49.1	-51.2	21.6	6.08e-01	0	50	0	143130624	61	4593
2026-01-03 10:55:21.00	141.76	10.25	-48.9	-51.0	21.9	6.06e-01	0	50	0	144703488	61	4468
2026-01-03 10:55:21.98	141.74	10.35	-48.9	-50.9	21.9	6.07e-01	0	50	0	146800640	61	4435
2026-01-03 10:55:22.98	141.72	10.44	-48.9	-51.0	21.9	6.08e-01	0	50	0	148373504	61	4454
2026-01-03 10:55:23.97	141.70	10.54	-49.0	-51.2	21.7	6.04e-01	0	50	0	150470656	61	4564
2026-01-03 10:55:24.95	141.68	10.63	-49.3	-51.5	21.4	6.07e-01	0	50	0	152043520	61	4743
2026-01-03 10:55:25.93	141.66	10.72	-49.1	-51.2	21.7	6.06e-01	0	50	0	154140672	61	4584
2026-01-03 10:55:26.92	141.63	10.82	-48.9	-51.0	21.9	6.07e-01	0	50	0	155713536	61	4458
2026-01-03 10:55:27.90	141.61	10.91	-48.8	-50.8	22.0	6.05e-01	0	50	0	157810688	61	4386
2026-01-03 10:55:28.88	141.59	11.01	-48.8	-50.9	22.0	6.08e-01	0	50	0	159383552	61	4414
2026-01-03 10:55:29.87	141.57	11.11	-49.0	-51.1	21.8	6.08e-01	0	50	0	161480704	61	4530
2026-01-03 10:55:30.85	141.55	11.20	-48.9	-50.9	22.0	6.07e-01	0	51	0	163053568	61	4429
2026-01-03 10:55:31.84	141.53	11.30	-48.8	-50.8	22.1	6.07e-01	0	51	0	165150720	61	4372
2026-01-03 10:55:32.84	141.50	11.40	-48.8	-50.9	22.0	6.07e-01	0	51	0	166723584	61	4396
2026-01-03 10:55:33.83	141.48	11.50	-48.8	-50.9	22.0	6.08e-01	0	51	0	168820736	61	4411
2026-01-03 10:55:34.83	141.46	11.60	-48.9	-50.9	21.4	6.07e-01	0	51	0	170393600	61	4426
2026-01-03 10:55:35.81	141.43	11.69	-48.9	-51.0	21.9	6.06e-01	0	51	0	172490752	61	4493
2026-01-03 10:55:36.80	141.41	11.79	-48.9	-50.9	22.0	6.06e-01	0	51	0	174587904	61	4431
2026-01-03 10:55:37.79	141.39	11.89	-48.8	-50.8	22.1	6.05e-01	0	51	0	176160768	61	4388
2026-01-03 10:55:38.78	141.36	11.99	-48.8	-50.9	22.1	6.07e-01	0	51	0	178257920	61	4394
2026-01-03 10:55:39.77	141.34	12.09	-48.9	-51.0	22.0	6.07e-01	0	51	0	179830784	61	4454
2026-01-03 10:55:40.76	141.32	12.20	-49.0	-51.1	21.9	6.07e-01	0	51	0	181927936	61	4526
2026-01-03 10:55:41.74	141.29	12.30	-49.2	-51.4	21.7	6.06e-01	0	51	0	183500800	61	4655
2026-01-03 10:55:42.73	141.27	12.40	-49.2	-51.3	21.7	6.06e-01	0	51	0	185597952	61	4646
2026-01-03 10:55:43.72	141.24	12.50	-49.2	-51.3	21.7	6.07e-01	0	51	0	187170816	61	4641
2026-01-03 10:55:44.70	141.22	12.60	-49.1	-51.3	21.7	6.07e-01	0	51	0	189267968	61	4605
2026-01-03 10:55:45.69	141.19	12.71	-49.2	-51.3	21.7	6.07e-01	0	51	0	190840832	61	4643
2026-01-03 10:55:46.68	141.17	12.81	-49.3	-51.5	21.5	6.07e-01	0	51	0	192937984	61	4715
2026-01-03 10:55:47.68	141.14	12.92	-49.2	-51.3	21.7	6.06e-01	0	51	0	194510848	61	4638
2026-01-03 10:55:48.67	141.12	13.02	-49.2	-51.4	21.6	6.07e-01	0	51	0	196608000	61	4700
2026-01-03 10:55:49.66	141.09	13.13	-49.2	-51.4	21.6	6.08e-01	0	51	0	198705152	61	4662
2026-01-03 10:55:50.65	141.07	13.24	-49.0	-51.0	22.0	6.05e-01	0	51	0	200278016	61	4479
2026-01-03 10:55:51.64	141.04	13.34	-48.8	-50.8	22.2	6.07e-01	0	51	0	202375168	61	4342
2026-01-03 10:55:52.63	141.01	13.45	-48.5	-50.4	22.5	6.06e-01	0	51	0	203948032	60	4437
2026-01-03 10:55:53.62	140.99	13.56	-48.5	-50.4	22.6	6.06e-01	0	51	0	206045184	60	4395
2026-01-03 10:55:54.60	140.96	13.67	-48.4	-50.2	22.7	6.03e-01	0	51	0	207618048	60	4337
2026-01-03 10:55:55.58	140.93	13.77	-48.4	-50.3	22.7	6.06e-01	0	52	0	209715200	60	4367
2026-01-03 10:55:56.57	140.91	13.88	-48.4	-50.2	22.8	6.06e-01	0	51	0	211288064	60	4314
2026-01-03 10:55:57.57	140.88	13.99	-48.2	-50.0	23.0	6.05e-01	0	52	0	213385216	60	4231
2026-01-03 10:55:58.55	140.85	14.10	-48.5	-50.4	23.0	6.05e-01	0	52	0	214958080	59	4660
2026-01-03 10:55:59.53	140.82	14.21	-48.5	-50.4	23.0	6.05e-01	0	52	0	217055232	59	4652
2026-01-03 10:56:00.52	140.79	14.32	-48.7	-50.5	22.8	6.06e-01	0	52	0	218628096	59	4747
2026-01-03 10:56:01.50	140.76	14.44	-48.7	-50.5	22.9	6.06e-01	0	52	0	220725248	59	4731
2026-01-03 10:56:02.50	140.74	14.55	-48.6	-50.5	22.3	6.06e-01	0	52	0	222822400	60	4447
2026-01-03 10:56:03.49	140.71	14.66	-48.8	-50.7	22.3	6.05e-01	0	51	0	224395264	60	4589
2026-01-03 10:56:04.48	140.68	14.78	-48.7	-50.6	22.4	6.06e-01	0	52	0	225968128	60	4541
2026-01-03 10:56:05.47	140.65	14.89	-48.7	-50.7	22.4	6.06e-01	0	52	0	228065280	60	4567
2026-01-03 10:56:06.45	140.62	15.00	-48.8	-50.8	22.3	6.05e-01	0	51	0	230162432	60	4624
2026-01-03 10:56:07.44	140.59	15.12	-48.8	-50.7	22.4	6.06e-01	0	52	0	231735296	60	4591
2026-01-03 10:56:08.43	140.56	15.24	-48.8	-50.8	22.3	6.05e-01	0	52	0	233832448	60	4621
2026-01-03 10:56:09.42	140.53	15.35	-49.0	-51.0	22.1	6.05e-01	0	52	0	235405312	60	4749
2026-01-03 10:56:10.41	140.49	15.47	-49.0	-51.1	22.0	6.05e-01	0	52	0	237502464	60	4780
2026-01-03 10:56:11.40	140.46	15.59	-48.8	-50.8	22.3	6.07e-01	0	52	0	239075328	60	4599
2026-01-03 10:56:12.38	140.43	15.71	-48.7	-50.6	22.5	6.08e-01	0	52	0	241172480	60	4528
2026-01-03 10:56:13.37	140.40	15.83	-48.6	-50.4	22.6	6.06e-01	0	52	0	242745344	60	4433
2026-01-03 10:56:14.36	140.37	15.95	-48.5	-50.4	22.7	6.05e-01	0	52	0	244842496	60	4397
2026-01-03 10:56:15.34	140.33	16.07	-48.6	-50.6	22.5	6.05e-01	0	52	0	246415360	60	4494
2026-01-03 10:56:16.33	140.30	16.19	-48.8	-50.8	22.3	6.07e-01	0	52	0	248512512	60	4606
2026-01-03 10:56:17.32	140.27	16.31	-48.6	-50.5	22.6	6.06e-01	0	52	0	250085376	60	4453
2026-01-03 10:56:18.31	140.23	16.43	-48.4	-50.3	22.8	6.09e-01	0	52	0	252182528	60	4347
2026-01-03 10:56:19.30	140.20	16.55	-48.4	-50.2	22.8	6.07e-01	0	52	0	254279680	60	4339
2026-01-03 10:56:20.29	140.17	16.68	-48.5	-50.3	22.8	6.07e-01	0	52	0	255852544	60	4388
2026-01-03 10:56:21.28	140.13	16.80	-48.6	-50.5	22.6	6.06e-01	0	52	0	257949696	60	4446
2026-01-03 10:56:22.27	140.10	16.93	-48.5	-50.4	22.7	6.06e-01	0	52	0	259522560	60	4419
2026-01-03 10:56:23.26	140.06	17.05	-48.6	-50.5	22.6	6.06e-01	0	52	0	261619712	60	4477
2026-01-03 10:56:24.24	140.03	17.18	-48.7	-50.7	22.5	6.05e-01	0	52	0	263192576	60	4555
2026-01-03 10:56:25.23	139.99	17.31	-48.9	-50.8	22.3	6.03e-01	0	52	0	265289728	60	4638
2026-01-03 10:56:26.23	139.95	17.44	-48.7	-50.6	22.5	6.08e-01	0	52	0	266862592	60	4513
2026-01-03 10:56:27.22	139.92	17.57	-48.6	-50.5	22.7	6.07e-01	0	52	0	268959744	60	4455
2026-01-03 10:56:28.21	139.88	17.70	-48.7	-50.6	22.5	6.05e-01	0	52	0	270532608	60	4539
2026-01-03 10:56:29.20	139.84	17.83	-48.8	-50.8	22.3	6.07e-01	0	52	0	272629760	60	4630
2026-01-03 10:56:30.18	139.81	17.96	-48.6	-50.5	22.7	6.07e-01	0	52	0	274202624	60	4453
2026-01-03 10:56:31.16	139.77	18.09	-48.4	-50.3	22.9	6.09e-01	0	52	0	276299776	60	4352
2026-01-03 10:56:32.15	139.73	18.22	-48.4	-50.2	22.9	6.06e-01	0	52	0	278396928	60	4314
2026-01-03 10:56:33.15	139.69	18.35	-48.5	-50.3	22.8	6.07e-01	0	52	0	279969792	60	4369
2026-01-03 10:56:34.14	139.65	18.49	-48.6	-50.4	22.7	6.07e-01	0	52	0	282066944	60	4422
2026-01-03 10:56:35.12	139.61	18.62	-48.4	-50.2	22.9	6.07e-01	0	52	0	283639808	60	4336
2026-01-03 10:56:36.11	139.57	18.76	-48.5	-50.3	22.9	6.07e-01	0	52	0	285736960	60	4360
2026-01-03 10:56:37.10	139.53	18.89	-48.5	-50.3	22.8	6.07e-01	0	52	0	287309824	60	4388
2026-01-03 10:56:38.09	139.49	19.03	-48.6	-50.5	22.6	6.06e-01	0	52	0	289406976	60	4475
2026-01-03 10:56:39.08	139.45	19.17	-48.5	-50.4	22.8	6.07e-01	0	52	0	290979840	60	4394
2026-01-03 10:56:40.07	139.41	19.31	-48.7	-50.6	22.6	6.08e-01	0	52	0	293076992	60	4500
2026-01-03 10:56:41.06	139.36	19.45	-48.9	-50.9	22.3	6.06e-01	0	53	0	294649856	60	4674
2026-01-03 10:56:42.05	139.32	19.59	-48.8	-50.7	22.5	6.07e-01	0	52	0	296747008	60	4572
2026-01-03 10:56:43.04	139.28	19.73	-49.0	-51.0	22.2	6.07e-01	0	53	0	298844160	60	4725
2026-01-03 10:56:44.03	139.24	19.87	-48.8	-50.8	22.4	6.07e-01	0	52	0	300417024	60	4605
2026-01-03 10:56:45.02	139.19	20.02	-48.7	-50.6	22.6	6.06e-01	0	52	0	302514176	60	4502
2026-01-03 10:56:46.01	139.15	20.16	-48.6	-50.4	22.7	6.05e-01	0	52	0	304087040	60	4441
2026-01-03 10:56:47.00	139.10	20.31	-48.7	-50.5	22.6	6.07e-01	0	53	0	306184192	60	4491
2026-01-03 10:56:47.99	139.06	20.45	-48.9	-50.8	22.4	6.05e-01	0	53	0	307757056	60	4639
2026-01-03 10:56:48.98	139.01	20.60	-48.7	-50.5	22.7	6.08e-01	0	53	0	309854208	60	4475
2026-01-03 10:56:49.96	138.96	20.75	-48.4	-50.3	22.9	6.07e-01	0	53	0	311427072	60	4345
2026-01-03 10:56:50.95	138.92	20.89	-48.4	-50.1	23.1	6.05e-01	0	53	0	313524224	60	4289
2026-01-03 10:56:51.95	138.87	21.05	-48.4	-50.2	23.0	6.06e-01	0	53	0	315097088	60	4335
2026-01-03 10:56:52.94	138.82	21.20	-48.6	-50.4	22.8	6.07e-01	0	53	0	317194240	60	4427
2026-01-03 10:56:53.93	138.77	21.35	-48.5	-50.3	23.0	6.05e-01	0	53	0	318767104	60	4350
2026-01-03 10:56:54.92	138.72	21.50	-48.6	-50.4	22.8	6.06e-01	0	53	0	320864256	60	4410
2026-01-03 10:56:55.91	138.67	21.65	-48.4	-50.2	23.0	6.07e-01	0	53	0	322961408	60	4317
2026-01-03 10:56:56.90	138.62	21.81	-48.3	-50.0	23.1	6.07e-01	0	53	0	324534272	60	4234
2026-01-03 10:56:57.90	138.57	21.97	-48.3	-50.0	23.2	6.06e-01	0	53	0	326631424	60	4225
2026-01-03 10:56:58.89	138.52	22.12	-48.4	-50.2	23.1	6.07e-01	0	53	0	328204288	60	4292
2026-01-03 10:56:59.88	138.47	22.28	-48.5	-50.2	23.0	6.07e-01	0	53	0	330301440	60	4339
2026-01-03 10:57:00.87	138.42	22.44	-48.7	-50.5	22.7	6.06e-01	0	53	0	331874304	60	4480
2026-01-03 10:57:01.85	138.36	22.60	-48.6	-50.4	22.8	6.06e-01	0	53	0	333971456	60	4415
2026-01-03 10:57:02.84	138.31	22.76	-48.6	-50.5	22.8	6.09e-01	0	53	0	335544320	60	4453
2026-01-03 10:57:03.83	138.26	22.92	-48.9	-50.9	22.4	6.06e-01	0	53	0	337641472	60	4654
2026-01-03 10:57:04.82	138.20	23.08	-48.8	-50.7	22.5	6.04e-01	0	53	0	339214336	60	4598
2026-01-03 10:57:05.81	138.15	23.25	-49.0	-51.1	22.3	6.07e-01	0	53	0	341311488	60	4761
2026-01-03 10:57:06.80	138.09	23.41	-49.1	-51.1	22.1	6.10e-01	0	53	0	342884352	60	4811
2026-01-03 10:57:07.79	138.03	23.58	-49.2	-51.2	22.0	6.06e-01	0	53	0	344981504	60	4870
2026-01-03 10:57:08.79	137.97	23.75	-49.2	-51.2	22.1	6.08e-01	0	53	0	346554368	60	4837
2026-01-03 10:57:09.77	137.92	23.92	-49.2	-51.2	22.1	6.06e-01	0	53	0	348651520	60	4867
2026-01-03 10:57:10.75	137.86	24.08	-49.2	-51.3	22.0	6.05e-01	0	53	0	350748672	60	4891
2026-01-03 10:57:11.74	137.80	24.25	-49.3	-51.4	21.9	6.04e-01	0	53	0	352321536	60	4961
2026-01-03 10:57:12.73	137.74	24.43	-49.2	-51.3	22.1	6.06e-01	0	53	0	354418688	60	4885
2026-01-03 10:57:13.71	137.68	24.60	-49.1	-51.1	22.2	6.06e-01	0	53	0	355991552	60	4765
2026-01-03 10:57:14.70	137.62	24.77	-49.0	-51.0	22.3	6.07e-01	0	53	0	358088704	60	4732
2026-01-03 10:57:15.69	137.55	24.95	-49.0	-51.0	22.3	6.07e-01	0	53	0	359661568	60	4753
2026-01-03 10:57:16.68	137.49	25.13	-49.1	-51.1	22.2	6.04e-01	0	53	0	361758720	60	4787
2026-01-03 10:57:17.68	137.42	25.31	-49.3	-61.0	3.8	7.44e-01	0	53	104	362283008	60	14976
2026-01-03 10:57:18.67	137.36	25.48	-49.3	-60.9	3.8	7.46e-01	0	53	104	362283008	60	14862
2026-01-03 10:57:19.65	137.29	25.66	-49.5	-61.1	3.9	7.45e-01	0	53	104	362283008	61	14220
2026-01-03 10:57:20.64	137.23	25.85	-49.9	-61.7	3.9	7.47e-01	0	53	104	362283008	61	15321
2026-01-03 10:57:21.64	137.16	26.03	-50.3	-62.3	3.8	7.48e-01	0	53	104	362283008	62	15553
2026-01-03 10:57:22.63	137.09	26.22	-50.7	-62.8	3.9	7.44e-01	0	53	104	362283008	63	15486
2026-01-03 10:57:23.62	137.02	26.40	-51.1	-63.8	3.8	7.44e-01	0	53	104	362283008	64	16338
2026-01-03 10:57:24.61	136.95	26.59	-51.7	-64.7	3.8	7.46e-01	0	53	104	362283008	65	17232
2026-01-03 10:57:25.60	136.88	26.78	-52.0	-65.3	3.8	7.41e-01	0	53	104	362283008	66	17318
2026-01-03 10:57:26.59	136.81	26.97	-52.1	-65.7	3.8	7.43e-01	0	53	104	362283008	66	18109
2026-01-03 10:57:27.58	136.74	27.16	-52.3	-66.1	3.8	7.48e-01	0	53	104	362283008	66	18956
2026-01-03 10:57:28.56	136.66	27.35	-52.3	-65.9	3.9	7.42e-01	0	54	104	362283008	67	17571
2026-01-03 10:57:29.55	136.59	27.55	-52.0	-65.4	3.8	7.49e-01	0	53	104	362283008	67	16683
2026-01-03 10:57:30.54	136.51	27.74	-51.8	-64.9	3.9	7.42e-01	0	54	104	362283008	67	15707
2026-01-03 10:57:31.52	136.44	27.94	-52.0	-65.3	3.8	7.46e-01	0	53	104	362283008	67	16425
2026-01-03 10:57:32.51	136.36	28.13	-52.5	-66.3	3.9	7.44e-01	0	53	104	362283008	67	18508
2026-01-03 10:57:33.49	136.28	28.33	-53.0	-67.6	3.8	7.44e-01	0	54	104	362283008	68	20159
2026-01-03 10:57:34.48	136.20	28.53	-53.4	-68.8	3.9	7.45e-01	0	54	104	362283008	69	21947
2026-01-03 10:57:35.47	136.12	28.74	-53.8	-70.2	3.8	7.45e-01	0	54	104	362283008	69	25715
2026-01-03 10:57:36.46	136.04	28.94	-54.1	-71.3	3.8	7.45e-01	0	54	104	362283008	70	27426
2026-01-03 10:57:37.45	135.95	29.15	-54.2	-72.1	3.8	7.44e-01	0	54	104	362283008	70	30088
2026-01-03 10:57:38.43	135.87	29.35	-54.2	-72.1	3.8	7.44e-01	0	54	104	362283008	70	30336
2026-01-03 10:57:39.43	135.78	29.57	-54.3	-72.4	3.8	7.43e-01	0	54	104	362283008	70	31354
2026-01-03 10:57:40.42	135.70	29.78	-54.4	-72.8	3.8	7.45e-01	0	54	104	362283008	70	32767
2026-01-03 10:57:41.40	135.61	29.99	-54.4	-73.4	3.8	7.46e-01	0	54	104	362283008	71	33044
2026-01-03 10:57:42.39	135.52	30.20	-54.5	-73.9	3.8	7.46e-01	0	54	104	362283008	71	34949
2026-01-03 10:57:43.38	135.43	30.42	-54.5	-74.2	3.8	7.46e-01	0	54	104	362283008	71	36210
2026-01-03 10:57:44.37	135.34	30.63	-54.5	-74.1	3.8	7.45e-01	0	54	104	362283008	71	35726
2026-01-03 10:57:45.35	135.25	30.85	-54.4	-73.4	3.8	7.44e-01	0	54	104	362283008	71	33019
2026-01-03 10:57:46.34	135.15	31.07	-54.3	-72.3	3.8	7.42e-01	0	54	104	362283008	71	29173
2026-01-03 10:57:47.33	135.06	31.29	-54.1	-71.1	3.8	7.43e-01	0	54	104	362283008	71	25457
2026-01-03 10:57:48.32	134.96	31.52	-53.7	-69.8	3.8	7.44e-01	0	54	104	362283008	71	21778
2026-01-03 10:57:49.31	134.86	31.75	-53.3	-68.4	3.8	7.40e-01	0	54	104	362283008	70	19618
2026-01-03 10:57:50.30	134.76	31.97	-53.1	-67.7	3.8	7.48e-01	0	54	104	362283008	69	19230
2026-01-03 10:57:51.28	134.66	32.20	-53.3	-68.4	3.8	7.47e-01	0	54	104	362283008	69	20809
2026-01-03 10:57:52.27	134.56	32.43	-53.4	-68.7	3.8	7.44e-01	0	54	104	362283008	69	21581
2026-01-03 10:57:53.26	134.45	32.66	-53.2	-67.9	3.8	7.44e-01	0	54	104	362283008	69	19827
2026-01-03 10:57:54.25	134.34	32.90	-52.9	-67.3	3.8	7.44e-01	0	54	104	362283008	69	18320
2026-01-03 10:57:55.24	134.24	33.14	-52.7	-66.6	3.8	7.46e-01	0	54	104	362283008	69	17009
2026-01-03 10:57:56.23	134.13	33.37	-52.4	-66.2	3.8	7.44e-01	0	54	104	362283008	68	17094
2026-01-03 10:57:57.22	134.01	33.62	-51.9	-65.1	3.8	7.43e-01	0	54	104	362283008	67	16040
2026-01-03 10:57:58.21	133.90	33.86	-51.5	-64.3	3.8	7.46e-01	0	54	104	362283008	66	15536
2026-01-03 10:57:59.19	133.79	34.10	-51.2	-63.8	3.8	7.45e-01	0	54	104	362283008	66	14572
2026-01-03 10:58:00.17	133.67	34.34	-50.8	-63.1	3.8	7.44e-01	0	54	104	362283008	65	14354
2026-01-03 10:58:01.16	133.55	34.59	-50.5	-62.6	3.8	7.45e-01	0	54	104	362283008	64	14317
2026-01-03 10:58:02.15	133.43	34.84	-50.2	-62.1	3.8	7.44e-01	0	54	104	362283008	64	13525
2026-01-03 10:58:03.14	133.31	35.09	-50.0	-61.9	3.8	7.43e-01	0	54	104	362283008	63	13926
2026-01-03 10:58:04.14	133.18	35.35	-49.9	-61.8	3.8	7.46e-01	0	54	104	362283008	63	13830
2026-01-03 10:58:05.13	133.06	35.61	-50.0	-61.9	3.8	7.44e-01	0	54	104	362283008	63	13918
2026-01-03 10:58:06.12	132.93	35.86	-50.1	-62.1	3.8	7.45e-01	0	54	104	362283008	63	14313
2026-01-03 10:58:07.12	132.80	36.13	-50.4	-62.5	3.8	7.44e-01	0	54	104	362283008	63	14904
2026-01-03 10:58:08.10	132.66	36.39	-50.5	-62.6	3.8	7.43e-01	0	54	104	362283008	63	15070
2026-01-03 10:58:09.09	132.53	36.65	-50.5	-62.7	3.8	7.41e-01	0	54	104	362283008	63	15250
2026-01-03 10:58:10.08	132.39	36.92	-50.8	-62.9	3.8	7.45e-01	0	54	104	362283008	63	15749
2026-01-03 10:58:11.06	132.25	37.18	-51.1	-63.6	3.8	7.45e-01	0	54	104	362283008	64	16007
2026-01-03 10:58:12.06	132.11	37.46	-51.8	-64.8	3.8	7.46e-01	0	54	104	362283008	65	17288
2026-01-03 10:58:13.05	131.96	37.73	-52.4	-66.3	3.9	7.47e-01	0	54	104	362283008	67	18358
2026-01-03 10:58:14.04	131.81	38.01	-53.0	-67.6	3.8	7.43e-01	0	54	104	362283008	68	20086
2026-01-03 10:58:15.03	131.66	38.28	-53.3	-68.5	3.8	7.44e-01	0	54	104	362283008	68	22282
2026-01-03 10:58:16.02	131.51	38.56	-53.4	-68.5	3.8	7.46e-01	0	54	104	362283008	68	22292
2026-01-03 10:58:17.01	131.35	38.84	-53.0	-67.5	3.8	7.45e-01	0	54	104	362283008	68	19877
2026-01-03 10:58:18.00	131.20	39.13	-52.8	-66.9	3.8	7.45e-01	0	54	104	362283008	68	18589
2026-01-03 10:58:18.99	131.03	39.41	-52.8	-67.1	3.8	7.46e-01	0	54	104	362283008	68	19061
2026-01-03 10:58:19.98	130.87	39.70	-52.9	-67.4	3.8	7.46e-01	0	54	104	362283008	68	19726
2026-01-03 10:58:20.97	130.70	39.99	-53.0	-67.5	3.8	7.47e-01	0	54	104	362283008	68	19853
2026-01-03 10:58:21.97	130.53	40.29	-53.2	-67.9	3.8	7.44e-01	0	54	104	362283008	68	20952
2026-01-03 10:58:22.96	130.35	40.58	-53.5	-68.8	3.8	7.49e-01	0	55	104	362283008	69	21762
2026-01-03 10:58:23.94	130.18	40.88	-53.8	-70.1	3.8	7.46e-01	0	55	104	362283008	69	25372
2026-01-03 10:58:24.93	130.00	41.18	-54.1	-71.2	3.8	7.46e-01	0	55	104	362283008	70	27325
2026-01-03 10:58:25.92	129.81	41.48	-54.3	-72.4	3.8	7.46e-01	0	55	104	362283008	70	31207
2026-01-03 10:58:26.90	129.63	41.78	-54.5	-73.3	3.8	7.46e-01	0	55	104	362283008	71	32817
2026-01-03 10:58:27.89	129.44	42.09	-54.6	-73.8	3.8	7.47e-01	0	55	104	362283008	71	34528
2026-01-03 10:58:28.88	129.24	42.39	-54.6	-74.0	3.8	7.45e-01	0	54	104	362283008	71	35451
2026-01-03 10:58:29.86	129.04	42.70	-54.6	-74.2	3.8	7.46e-01	0	55	104	362283008	71	36188
2026-01-03 10:58:30.85	128.84	43.02	-54.6	-74.3	3.8	7.46e-01	0	54	104	362283008	71	36529
2026-01-03 10:58:31.84	128.63	43.33	-54.6	-74.1	3.8	7.48e-01	0	55	104	362283008	71	36033
2026-01-03 10:58:32.83	128.42	43.65	-54.6	-74.0	3.8	7.45e-01	0	55	104	362283008	71	35528
2026-01-03 10:58:33.82	128.20	43.97	-54.6	-73.9	3.8	7.45e-01	0	54	104	362283008	71	35003
2026-01-03 10:58:34.81	127.98	44.29	-54.5	-73.4	3.8	7.43e-01	0	55	104	362283008	71	33202
2026-01-03 10:58:35.81	127.75	44.62	-54.4	-72.7	3.8	7.46e-01	0	55	104	362283008	71	30571
2026-01-03 10:58:36.79	127.53	44.95	-54.3	-72.0	3.8	7.48e-01	0	55	104	362283008	71	28107
2026-01-03 10:58:37.78	127.29	45.27	-54.1	-71.3	3.8	7.47e-01	0	55	104	362283008	71	26023
2026-01-03 10:58:38.77	127.05	45.61	-53.9	-70.3	3.8	7.45e-01	0	55	104	362283008	71	23048
2026-01-03 10:58:39.76	126.81	45.94	-53.6	-69.2	3.8	7.44e-01	0	55	104	362283008	70	21690
2026-01-03 10:58:40.75	126.55	46.28	-53.5	-68.9	3.8	7.43e-01	0	55	104	362283008	70	20921
2026-01-03 10:58:41.73	126.30	46.61	-53.3	-68.2	3.8	7.43e-01	0	55	104	362283008	70	19338
2026-01-03 10:58:42.72	126.04	46.95	-53.1	-67.4	3.8	7.46e-01	0	55	104	362283008	69	18703
2026-01-03 10:58:43.71	125.77	47.30	-52.9	-67.1	3.8	7.48e-01	0	55	104	362283008	69	18009
2026-01-03 10:58:44.70	125.50	47.64	-52.7	-66.8	3.8	7.48e-01	0	55	104	362283008	69	17414
2026-01-03 10:58:45.69	125.21	47.99	-52.5	-66.1	3.8	7.46e-01	0	55	104	362283008	68	17056
2026-01-03 10:58:46.68	124.93	48.34	-51.9	-65.1	3.8	7.43e-01	0	55	104	362283008	67	15959
2026-01-03 10:58:47.67	124.63	48.69	-51.4	-64.0	3.8	7.43e-01	0	55	104	362283008	66	15018
2026-01-03 10:58:48.65	124.34	49.04	-51.1	-63.8	3.8	7.44e-01	0	55	104	362283008	65	15431
2026-01-03 10:58:49.65	124.02	49.40	-50.6	-62.7	3.8	7.46e-01	0	55	104	362283008	64	14476
2026-01-03 10:58:50.64	123.71	49.76	-49.9	-61.6	3.8	7.40e-01	0	55	104	362283008	63	13482
2026-01-03 10:58:51.63	123.39	50.12	-49.7	-61.4	3.8	7.44e-01	0	55	104	362283008	63	13140
2026-01-03 10:58:52.61	123.06	50.48	-49.6	-61.3	3.8	7.42e-01	0	55	104	362283008	62	13843
2026-01-03 10:58:53.60	122.72	50.84	-49.4	-61.0	3.8	7.43e-01	0	55	104	362283008	62	13347
2026-01-03 10:58:54.59	122.37	51.21	-49.0	-60.4	3.8	7.44e-01	0	55	104	362283008	61	13211
2026-01-03 10:58:55.57	122.02	51.57	-49.0	-60.5	3.8	7.44e-01	0	55	104	362283008	61	13264
2026-01-03 10:58:56.56	121.65	51.94	-49.2	-60.7	3.8	7.44e-01	0	55	104	362283008	61	13647
2026-01-03 10:58:57.56	121.27	52.32	-49.4	-61.0	3.8	7.44e-01	0	55	104	362283008	61	14078
2026-01-03 10:58:58.55	120.89	52.69	-49.3	-60.9	3.8	7.46e-01	0	55	104	362283008	61	13944
2026-01-03 10:58:59.54	120.49	53.07	-49.2	-60.7	3.8	7.43e-01	0	55	104	362283008	61	13605
2026-01-03 10:59:00.52	120.09	53.44	-49.7	-61.4	3.8	7.44e-01	0	55	104	362283008	61	14747
2026-01-03 10:59:01.51	119.68	53.82	-50.4	-62.5	3.8	7.46e-01	0	55	104	362283008	62	15815
2026-01-03 10:59:02.51	119.25	54.20	-50.9	-63.1	3.8	7.42e-01	0	55	104	362283008	63	16034
2026-01-03 10:59:03.50	118.81	54.58	-51.2	-63.8	3.8	7.43e-01	0	55	104	362283008	64	16412
2026-01-03 10:59:04.48	118.36	54.96	-52.0	-65.1	3.8	7.43e-01	0	55	104	362283008	66	16896
2026-01-03 10:59:05.49	117.89	55.35	-52.2	-65.6	3.8	7.42e-01	0	55	104	362283008	66	17923
2026-01-03 10:59:06.48	117.41	55.73	-51.9	-65.0	3.8	7.47e-01	0	55	104	362283008	66	16736
2026-01-03 10:59:07.46	116.93	56.11	-51.7	-64.7	3.8	7.46e-01	0	55	104	362283008	66	16137
2026-01-03 10:59:08.46	116.42	56.50	-52.0	-65.2	3.8	7.48e-01	0	55	104	362283008	66	17188
2026-01-03 10:59:09.45	115.90	56.88	-51.9	-65.0	3.8	7.45e-01	0	55	104	362283008	66	16735
2026-01-03 10:59:10.45	115.36	57.27	-52.2	-65.5	3.8	7.45e-01	0	55	104	362283008	66	17815
2026-01-03 10:59:11.44	114.81	57.66	-52.5	-66.2	3.8	7.45e-01	0	55	104	362283008	67	18170
2026-01-03 10:59:12.43	114.25	58.05	-53.1	-67.6	3.8	7.45e-01	0	55	104	362283008	68	20167
2026-01-03 10:59:13.42	113.66	58.43	-53.7	-69.2	3.8	7.46e-01	0	55	104	362283008	69	22791
2026-01-03 10:59:14.40	113.07	58.81	-54.0	-70.6	3.8	7.47e-01	0	55	104	362283008	70	25397
2026-01-03 10:59:15.39	112.45	59.20	-54.3	-71.9	3.8	7.47e-01	0	55	104	362283008	70	29516
2026-01-03 10:59:16.37	111.83	59.58	-54.5	-73.2	3.8	7.44e-01	0	55	104	362283008	71	32191
2026-01-03 10:59:17.36	111.17	59.96	-54.6	-73.5	3.8	7.46e-01	0	55	104	362283008	71	33683
2026-01-03 10:59:18.36	110.49	60.35	-54.5	-73.2	3.8	7.43e-01	0	55	104	362283008	71	32183
2026-01-03 10:59:19.35	109.80	60.73	-54.5	-72.9	3.8	7.46e-01	0	55	104	362283008	71	31222
2026-01-03 10:59:20.34	109.08	61.11	-54.4	-72.9	3.8	7.44e-01	0	55	104	362283008	71	31092
2026-01-03 10:59:21.33	108.34	61.49	-54.4	-72.4	3.8	7.43e-01	0	55	104	362283008	71	29656
2026-01-03 10:59:22.32	107.58	61.87	-54.4	-72.6	3.8	7.45e-01	0	55	104	362283008	71	30169
2026-01-03 10:59:23.31	106.79	62.24	-54.4	-72.5	3.8	7.49e-01	0	55	104	362283008	71	29960
2026-01-03 10:59:24.30	105.98	62.61	-54.4	-72.6	3.8	7.46e-01	0	55	104	362283008	71	30049
2026-01-03 10:59:25.29	105.15	62.98	-54.2	-71.4	3.8	7.44e-01	0	55	104	362283008	71	26264
2026-01-03 10:59:26.27	104.29	63.34	-54.1	-71.1	3.8	7.46e-01	0	55	104	362283008	71	25270
2026-01-03 10:59:27.26	103.41	63.70	-54.0	-70.4	3.8	7.45e-01	0	55	104	362283008	71	23364
2026-01-03 10:59:28.25	102.49	64.06	-53.8	-69.5	3.8	7.46e-01	0	55	104	362283008	71	21050
2026-01-03 10:59:29.24	101.54	64.41	-53.7	-69.2	3.8	7.44e-01	0	55	104	362283008	70	21553
2026-01-03 10:59:30.22	100.58	64.76	-53.5	-68.5	3.8	7.45e-01	0	55	104	362283008	70	20061
2026-01-03 10:59:31.21	99.57	65.10	-53.4	-68.2	3.8	7.44e-01	0	55	104	362283008	70	19357
2026-01-03 10:59:32.20	98.54	65.44	-53.2	-67.9	3.8	7.47e-01	0	55	104	362283008	70	18547
2026-01-03 10:59:33.19	97.47	65.77	-53.2	-67.7	3.8	7.44e-01	0	55	104	362283008	69	19239
2026-01-03 10:59:34.18	96.37	66.09	-53.1	-67.4	3.8	7.44e-01	0	55	104	362283008	69	18670
2026-01-03 10:59:35.17	95.23	66.41	-53.1	-67.4	3.8	7.45e-01	0	56	104	362283008	69	18706
2026-01-03 10:59:36.17	94.05	66.73	-53.0	-67.1	3.8	7.46e-01	0	55	104	362283008	69	17906
2026-01-03 10:59:37.15	92.86	67.03	-52.7	-66.6	3.8	7.46e-01	0	55	104	362283008	69	16958
2026-01-03 10:59:38.14	91.62	67.32	-52.4	-65.9	3.8	7.47e-01	0	56	104	362283008	68	16567
2026-01-03 10:59:39.13	90.35	67.61	-52.1	-65.2	3.8	7.46e-01	0	55	104	362283008	67	16291
2026-01-03 10:59:40.12	89.04	67.88	-52.0	-65.0	3.8	7.45e-01	0	55	104	362283008	67	15838
2026-01-03 10:59:41.10	87.71	68.15	-51.8	-64.8	3.8	7.46e-01	0	56	104	362283008	67	15474
2026-01-03 10:59:42.09	86.34	68.40	-51.5	-64.2	3.8	7.45e-01	0	55	104	362283008	66	15313
2026-01-03 10:59:43.08	84.92	68.64	-51.9	-64.8	3.8	7.49e-01	0	55	104	362283008	66	16502
2026-01-03 10:59:44.07	83.47	68.88	-51.9	-64.9	3.8	7.48e-01	0	55	104	362283008	66	16612
2026-01-03 10:59:45.06	81.99	69.10	-52.1	-65.4	3.8	7.44e-01	0	55	104	362283008	66	17538
2026-01-03 10:59:46.06	80.46	69.31	-52.7	-66.9	3.8	7.45e-01	0	56	104	362283008	67	19729
2026-01-03 10:59:47.05	78.91	69.50	-52.1	-65.1	3.8	7.44e-01	0	55	104	362283008	67	15981
2026-01-03 10:59:48.04	77.34	69.68	-52.1	-65.5	3.8	7.44e-01	0	56	104	362283008	67	16835
2026-01-03 10:59:49.04	75.71	69.85	-51.8	-64.7	3.8	7.43e-01	0	55	104	362283008	67	15318
2026-01-03 10:59:50.03	74.08	70.00	-51.9	-64.9	3.8	7.45e-01	0	56	104	362283008	67	15698
2026-01-03 10:59:51.02	72.42	70.13	-51.9	-64.6	3.8	7.44e-01	0	55	104	362283008	67	15179
2026-01-03 10:59:52.02	70.72	70.26	-52.3	-66.2	3.8	7.44e-01	0	56	104	362283008	67	18151
2026-01-03 10:59:53.01	69.01	70.36	-52.1	-65.1	3.8	7.41e-01	0	55	104	362283008	67	16020
2026-01-03 10:59:54.00	67.29	70.45	-52.5	-66.2	3.8	7.42e-01	0	56	104	362283008	67	18176
2026-01-03 10:59:54.99	65.55	70.52	-53.0	-67.5	3.8	7.48e-01	0	56	104	362283008	68	20062
2026-01-03 10:59:55.98	63.80	70.57	-52.7	-66.2	3.8	7.44e-01	0	56	104	362283008	68	17167
2026-01-03 10:59:56.96	62.06	70.61	-52.9	-66.9	3.8	7.47e-01	0	55	104	362283008	68	18628
2026-01-03 10:59:57.95	60.30	70.63	-53.1	-67.5	3.8	7.43e-01	0	56	104	362283008	68	19994
2026-01-03 10:59:58.95	58.52	70.63	-53.0	-67.2	3.8	7.44e-01	0	55	104	362283008	68	19284
2026-01-03 10:59:59.94	56.75	70.61	-53.3	-67.8	3.8	7.46e-01	0	56	104	362283008	68	20690
2026-01-03 11:00:00.93	55.00	70.58	-53.5	-68.8	3.8	7.47e-01	0	56	104	362283008	69	21895
2026-01-03 11:00:01.92	53.24	70.53	-53.6	-68.9	3.8	7.43e-01	0	55	104	362283008	69	22197
2026-01-03 11:00:02.91	51.50	70.47	-53.8	-69.4	3.8	7.47e-01	0	56	104	362283008	69	23391
2026-01-03 11:00:03.90	49.78	70.38	-54.1	-70.4	3.8	7.49e-01	0	56	104	362283008	70	24825
2026-01-03 11:00:04.89	48.07	70.28	-54.2	-70.7	3.8	7.45e-01	0	55	104	362283008	70	25763
2026-01-03 11:00:05.88	46.38	70.17	-54.3	-71.7	3.8	7.44e-01	0	56	104	362283008	70	28815
2026-01-03 11:00:06.87	44.72	70.04	-54.5	-72.6	3.8	7.43e-01	0	55	104	362283008	71	30080
2026-01-03 11:00:07.85	43.09	69.89	-54.5	-72.7	3.8	7.45e-01	0	56	104	362283008	71	30622
2026-01-03 11:00:08.84	41.48	69.73	-54.5	-72.8	3.8	7.46e-01	0	55	104	362283008	71	30873
2026-01-03 11:00:09.82	39.91	69.55	-54.6	-73.7	3.8	7.46e-01	0	56	104	362283008	71	34433
2026-01-03 11:00:10.81	38.35	69.36	-54.6	-73.2	3.8	7.46e-01	0	56	104	362283008	71	32315
2026-01-03 11:00:11.80	36.83	69.16	-54.5	-72.9	3.8	7.46e-01	0	56	104	362283008	71	31121
2026-01-03 11:00:12.78	35.35	68.95	-54.5	-72.8	3.8	7.43e-01	0	56	104	362283008	71	30956
2026-01-03 11:00:13.76	33.91	68.72	-54.4	-72.5	3.8	7.46e-01	0	56	104	362283008	71	29691
2026-01-03 11:00:14.74	32.50	68.48	-54.3	-71.7	3.8	7.45e-01	0	56	104	362283008	71	27146
2026-01-03 11:00:15.73	31.11	68.23	-54.2	-71.2	3.8	7.46e-01	0	56	104	362283008	71	25734
2026-01-03 11:00:16.72	29.76	67.97	-54.0	-70.0	3.8	7.44e-01	0	56	104	362283008	71	22486
2026-01-03 11:00:17.71	28.44	67.70	-53.8	-69.5	3.8	7.47e-01	0	56	104	362283008	71	21166
2026-01-03 11:00:18.70	27.15	67.42	-53.4	-68.2	3.8	7.44e-01	0	56	104	362283008	70	19368
2026-01-03 11:00:19.69	25.91	67.12	-53.1	-67.4	3.8	7.44e-01	0	56	104	362283008	69	18642
2026-01-03 11:00:20.68	24.69	66.82	-52.8	-66.8	3.8	7.45e-01	0	56	104	362283008	69	17372
2026-01-03 11:00:21.67	23.52	66.52	-52.6	-66.5	3.8	7.45e-01	0	56	104	362283008	68	17796
2026-01-03 11:00:22.66	22.37	66.20	-52.6	-66.3	3.8	7.45e-01	0	56	104	362283008	68	17452
2026-01-03 11:00:23.66	21.25	65.88	-52.6	-66.1	3.8	7.47e-01	0	56	104	362283008	68	16899
2026-01-03 11:00:24.65	20.17	65.55	-52.5	-66.2	3.8	7.42e-01	0	56	104	362283008	68	17231
2026-01-03 11:00:25.64	19.13	65.21	-52.7	-66.6	3.8	7.43e-01	0	56	104	362283008	68	18012
2026-01-03 11:00:26.63	18.11	64.87	-52.7	-66.6	3.8	7.44e-01	0	56	104	362283008	68	18049
2026-01-03 11:00:27.61	17.14	64.53	-52.3	-65.4	3.8	7.45e-01	0	56	104	362283008	68	15752
2026-01-03 11:00:28.60	16.19	64.18	-52.1	-65.0	3.8	7.42e-01	0	56	104	362283008	67	15848
2026-01-03 11:00:29.58	15.27	63.82	-52.3	-66.6	3.8	7.47e-01	0	56	104	362283008	67	19000
2026-01-03 11:00:30.56	14.38	63.47	-52.1	-65.0	3.8	7.41e-01	0	56	104	362283008	67	15941
2026-01-03 11:00:31.55	13.51	63.11	-52.1	-65.0	3.8	7.45e-01	0	56	104	362283008	67	15875
2026-01-03 11:00:32.54	12.67	62.74	-52.4	-66.2	3.8	7.44e-01	0	56	104	362283008	67	18150
2026-01-03 11:00:33.53	11.85	62.37	-52.8	-66.9	3.8	7.43e-01	0	56	104	362283008	67	19635
2026-01-03 11:00:34.53	11.05	61.99	-52.7	-66.5	3.8	7.48e-01	0	56	104	362283008	68	17837
2026-01-03 11:00:35.52	10.28	61.62	-52.2	-65.3	3.8	7.45e-01	0	56	104	362283008	68	15556
2026-01-03 11:00:36.51	9.54	61.24	-51.8	-64.8	3.8	7.43e-01	0	56	104	362283008	67	15572
2026-01-03 11:00:37.50	8.82	60.86	-51.5	-64.5	3.8	7.47e-01	0	56	104	362283008	66	15865
2026-01-03 11:00:38.49	8.12	60.48	-51.1	-63.4	3.8	7.45e-01	0	56	104	362283008	65	14755
2026-01-03 11:00:39.48	7.43	60.10	-50.6	-62.6	3.8	7.42e-01	0	56	104	362283008	64	14219
2026-01-03 11:00:40.46	6.78	59.72	-50.3	-62.0	3.8	7.43e-01	0	56	104	362283008	64	13369
2026-01-03 11:00:41.45	6.14	59.34	-50.2	-62.5	3.8	7.45e-01	0	56	104	362283008	64	14154
2026-01-03 11:00:42.43	5.53	58.96	-50.1	-62.1	3.8	7.47e-01	0	56	104	362283008	63	14318
2026-01-03 11:00:43.42	4.92	58.57	-49.8	-61.1	3.8	7.43e-01	0	56	104	362283008	63	12731
2026-01-03 11:00:44.42	4.33	58.18	-49.8	-61.6	3.8	7.43e-01	0	56	104	362283008	63	13487
2026-01-03 11:00:45.39	3.77	57.81	-49.8	-61.5	3.8	7.42e-01	0	56	104	362283008	63	13317
2026-01-03 11:00:46.38	3.22	57.42	-49.6	-61.3	3.8	7.45e-01	0	56	104	362283008	62	13811
2026-01-03 11:00:47.37	2.68	57.04	-49.5	-61.2	3.8	7.43e-01	0	56	104	362283008	62	13662
2026-01-03 11:00:48.35	2.16	56.66	-49.1	-60.3	3.8	7.44e-01	0	56	104	362283008	61	13052
2026-01-03 11:00:49.35	1.65	56.27	-49.1	-60.4	3.8	7.44e-01	0	56	104	362283008	61	13260
2026-01-03 11:00:50.34	1.15	55.88	-49.3	-61.1	3.8	7.45e-01	0	56	104	362283008	61	14216
2026-01-03 11:00:51.33	0.67	55.50	-49.4	-61.3	3.8	7.46e-01	0	56	104	362283008	61	14581
2026-01-03 11:00:52.32	0.21	55.12	-49.6	-60.9	3.8	7.42e-01	0	56	104	362283008	61	14013
2026-01-03 11:00:53.31	359.75	54.74	-49.9	-61.6	3.8	7.42e-01	0	56	104	362283008	62	14277
2026-01-03 11:00:54.30	359.31	54.36	-50.6	-62.7	3.8	7.43e-01	0	56	104	362283008	63	15380
2026-01-03 11:00:55.28	358.88	53.98	-51.1	-63.7	3.8	7.44e-01	0	56	104	362283008	64	16211
2026-01-03 11:00:56.27	358.46	53.61	-51.8	-64.7	3.8	7.43e-01	0	56	104	362283008	65	17184
2026-01-03 11:00:57.26	358.05	53.23	-52.3	-65.9	3.8	7.46e-01	0	56	104	362283008	66	18530
2026-01-03 11:00:58.25	357.66	52.86	-52.4	-65.8	3.8	7.48e-01	0	56	104	362283008	67	17389
2026-01-03 11:00:59.24	357.27	52.48	-52.1	-65.2	3.8	7.45e-01	0	56	104	362283008	67	16138
2026-01-03 11:01:00.24	356.89	52.11	-51.8	-65.0	3.8	7.45e-01	0	56	104	362283008	67	15784
2026-01-03 11:01:01.23	356.52	51.74	-51.6	-64.6	3.8	7.45e-01	0	56	104	362283008	66	16061
2026-01-03 11:01:02.22	356.16	51.37	-51.4	-64.2	3.8	7.45e-01	0	56	104	362283008	66	15265
2026-01-03 11:01:03.22	355.80	51.00	-51.2	-63.6	3.8	7.49e-01	0	56	104	362283008	66	14360
2026-01-03 11:01:04.21	355.46	50.64	-51.0	-63.4	3.8	7.40e-01	0	56	104	362283008	65	14735
2026-01-03 11:01:05.20	355.13	50.28	-50.4	-62.3	3.8	7.41e-01	0	56	104	362283008	64	13732
2026-01-03 11:01:06.19	354.80	49.92	-49.9	-61.5	3.8	7.44e-01	0	56	104	362283008	63	13367
2026-01-03 11:01:07.17	354.49	49.56	-49.6	-61.4	3.8	7.44e-01	0	56	104	362283008	62	14031
2026-01-03 11:01:08.16	354.18	49.21	-49.3	-61.0	3.8	7.43e-01	0	56	104	362283008	62	13322
2026-01-03 11:01:09.16	353.87	48.85	-49.0	-60.4	3.8	7.41e-01	0	56	104	362283008	61	13189
2026-01-03 11:01:10.14	353.58	48.50	-48.9	-60.2	3.8	7.42e-01	0	56	104	362283008	61	12845
2026-01-03 11:01:11.14	353.29	48.15	-49.1	-60.4	3.8	7.44e-01	0	56	104	362283008	61	13251
2026-01-03 11:01:12.12	353.01	47.80	-49.3	-61.0	3.8	7.44e-01	0	56	104	362283008	61	14099
2026-01-03 11:01:13.12	352.73	47.45	-49.5	-61.0	3.8	7.42e-01	0	56	104	362283008	61	14202
2026-01-03 11:01:14.10	352.46	47.12	-49.9	-61.5	3.8	7.44e-01	0	56	104	362283008	61	14943
2026-01-03 11:01:15.09	352.20	46.77	-50.4	-62.8	3.8	7.42e-01	0	56	104	362283008	62	16347
2026-01-03 11:01:16.08	351.94	46.44	-50.8	-63.5	3.8	7.44e-01	0	56	104	362283008	63	16702
2026-01-03 11:01:17.07	351.69	46.10	-50.8	-63.1	3.8	7.42e-01	0	56	104	362283008	64	15076
2026-01-03 11:01:18.06	351.44	45.76	-51.0	-63.2	3.8	7.42e-01	0	56	104	362283008	64	15345
2026-01-03 11:01:19.05	351.20	45.43	-51.3	-63.6	3.8	7.41e-01	0	56	104	362283008	64	16107
2026-01-03 11:01:20.04	350.96	45.10	-51.7	-64.5	3.8	7.45e-01	0	56	104	362283008	65	16812
2026-01-03 11:01:21.03	350.73	44.78	-52.2	-65.6	3.8	7.43e-01	0	56	104	362283008	66	18002
2026-01-03 11:01:22.02	350.50	44.45	-52.7	-66.9	3.8	7.44e-01	0	56	104	362283008	67	19683
2026-01-03 11:01:23.00	350.28	44.13	-52.5	-66.4	3.8	7.45e-01	0	56	104	362283008	67	18604
2026-01-03 11:01:24.00	350.06	43.81	-52.3	-65.6	3.8	7.45e-01	0	56	104	362283008	67	17007
2026-01-03 11:01:24.99	349.85	43.49	-52.0	-65.3	3.8	7.47e-01	0	56	104	362283008	67	16401
2026-01-03 11:01:25.98	349.64	43.17	-51.8	-64.9	3.8	7.46e-01	0	56	104	362283008	67	15739
2026-01-03 11:01:26.97	349.44	42.86	-51.6	-64.4	3.8	7.46e-01	0	56	104	362283008	66	15724
2026-01-03 11:01:27.96	349.24	42.55	-51.5	-64.1	3.8	7.45e-01	0	56	104	362283008	66	15126
2026-01-03 11:01:28.95	349.04	42.24	-51.5	-64.2	3.8	7.47e-01	0	56	104	362283008	66	15281
2026-01-03 11:01:29.93	348.85	41.94	-51.1	-63.7	3.8	7.46e-01	0	56	104	362283008	65	15401
2026-01-03 11:01:30.92	348.66	41.63	-50.8	-63.3	3.8	7.43e-01	0	56	104	362283008	65	14541
2026-01-03 11:01:31.91	348.47	41.33	-50.5	-62.8	3.8	7.44e-01	0	56	104	362283008	64	14681
2026-01-03 11:01:32.89	348.29	41.04	-50.2	-62.4	3.8	7.40e-01	0	56	104	362283008	64	13932
2026-01-03 11:01:33.88	348.12	40.74	-50.1	-62.0	3.8	7.46e-01	0	56	104	362283008	63	14161
2026-01-03 11:01:34.87	347.94	40.44	-49.9	-61.5	3.8	7.44e-01	0	56	104	362283008	63	13389
2026-01-03 11:01:35.86	347.77	40.15	-49.9	-61.4	3.8	7.42e-01	0	56	104	362283008	63	13253
2026-01-03 11:01:36.86	347.60	39.86	-50.0	-61.8	3.8	7.46e-01	0	56	104	362283008	63	13738
2026-01-03 11:01:37.85	347.43	39.57	-50.2	-62.2	3.8	7.43e-01	0	56	104	362283008	63	14531
2026-01-03 11:01:38.83	347.27	39.29	-50.4	-62.6	3.8	7.44e-01	0	56	104	362283008	63	15106
2026-01-03 11:01:39.82	347.11	39.00	-50.6	-62.8	3.8	7.41e-01	0	56	104	362283008	63	15418
2026-01-03 11:01:40.82	346.96	38.72	-50.5	-62.5	3.8	7.40e-01	0	56	104	362283008	63	14978
2026-01-03 11:01:41.81	346.80	38.44	-50.4	-62.5	3.8	7.44e-01	0	56	104	362283008	63	15012
2026-01-03 11:01:42.80	346.65	38.16	-50.4	-62.6	3.8	7.45e-01	0	56	104	362283008	63	15164
2026-01-03 11:01:43.79	346.50	37.89	-50.4	-62.8	3.8	7.44e-01	0	56	104	362283008	63	15412
2026-01-03 11:01:44.77	346.36	37.62	-50.6	-62.7	3.8	7.46e-01	0	56	104	362283008	63	15382
2026-01-03 11:01:45.75	346.22	37.35	-50.8	-62.8	3.8	7.42e-01	0	56	104	362283008	63	15536
2026-01-03 11:01:46.73	346.08	37.08	-51.0	-63.1	3.8	7.43e-01	0	56	104	362283008	64	15155
2026-01-03 11:01:47.72	345.94	36.82	-50.9	-63.1	3.8	7.43e-01	0	56	104	362283008	64	15057
2026-01-03 11:01:48.71	345.80	36.55	-50.6	-62.7	3.8	7.44e-01	0	56	104	362283008	64	14499
2026-01-03 11:01:49.70	345.67	36.29	-50.5	-62.6	3.8	7.41e-01	0	56	104	362283008	64	14288
2026-01-03 11:01:50.69	345.54	36.03	-50.4	-62.5	3.8	7.44e-01	0	56	104	362283008	64	14120
2026-01-03 11:01:51.69	345.41	35.77	-50.3	-62.4	3.8	7.45e-01	0	56	104	362283008	64	13976
2026-01-03 11:01:52.67	345.28	35.51	-50.3	-62.5	3.8	7.45e-01	0	56	104	362283008	64	14079
2026-01-03 11:01:53.67	345.15	35.26	-50.4	-62.6	3.8	7.45e-01	0	56	104	362283008	64	14222
2026-01-03 11:01:54.65	345.03	35.01	-50.2	-62.3	3.8	7.48e-01	0	56	104	362283008	63	14605
2026-01-03 11:01:55.64	344.91	34.76	-49.8	-61.7	3.8	7.40e-01	0	56	104	362283008	63	13690
2026-01-03 11:01:56.64	344.79	34.51	-49.5	-61.3	3.8	7.43e-01	0	56	104	362283008	62	13788
2026-01-03 11:01:57.62	344.67	34.26	-49.4	-61.0	3.8	7.44e-01	0	56	104	362283008	62	13344
2026-01-03 11:01:58.62	344.56	34.02	-49.4	-61.0	3.8	7.45e-01	0	56	104	362283008	62	13375
2026-01-03 11:01:59.61	344.44	33.77	-49.5	-61.2	3.8	7.45e-01	0	56	104	362283008	62	13573
2026-01-03 11:02:00.61	344.33	33.53	-49.7	-61.4	3.8	7.41e-01	0	56	104	362283008	62	13995
2026-01-03 11:02:01.60	344.22	33.29	-50.0	-61.9	3.8	7.42e-01	0	56	104	362283008	62	14766
2026-01-03 11:02:02.59	344.11	33.06	-50.3	-62.4	3.8	7.45e-01	0	56	104	362283008	62	15712
2026-01-03 11:02:03.58	344.00	32.82	-50.7	-62.9	3.8	7.47e-01	0	56	104	362283008	63	15705
2026-01-03 11:02:04.57	343.90	32.59	-50.6	-62.9	3.8	7.45e-01	0	56	104	362283008	63	15625
2026-01-03 11:02:05.56	343.80	32.36	-50.1	-62.0	3.8	7.46e-01	0	56	104	362283008	63	14187
2026-01-03 11:02:06.55	343.69	32.13	-50.0	-61.7	3.8	7.44e-01	0	56	104	362283008	63	13669
2026-01-03 11:02:07.54	343.59	31.90	-50.3	-62.2	3.8	7.43e-01	0	56	104	362283008	63	14488
2026-01-03 11:02:08.53	343.49	31.67	-50.7	-63.0	3.8	7.46e-01	0	57	104	362283008	63	15838
2026-01-03 11:02:09.52	343.40	31.45	-51.2	-64.0	3.8	7.43e-01	0	56	104	362283008	64	16802
2026-01-03 11:02:10.51	343.30	31.23	-51.7	-65.0	3.8	7.44e-01	0	56	104	362283008	65	17733
2026-01-03 11:02:11.49	343.21	31.01	-52.3	-66.1	3.8	7.46e-01	0	56	104	362283008	66	18992
2026-01-03 11:02:12.48	343.11	30.79	-52.6	-66.9	3.8	7.43e-01	0	56	104	362283008	67	19657
2026-01-03 11:02:13.47	343.02	30.57	-52.3	-66.1	3.8	7.44e-01	0	56	104	362283008	67	17901
2026-01-03 11:02:14.46	342.93	30.35	-52.1	-65.5	3.8	7.45e-01	0	56	104	362283008	67	16856
2026-01-03 11:02:15.46	342.84	30.14	-51.8	-64.9	3.8	7.46e-01	0	56	104	362283008	67	15741
2026-01-03 11:02:16.45	342.75	29.93	-51.6	-64.6	3.8	7.42e-01	0	56	104	362283008	66	16044
2026-01-03 11:02:17.43	342.67	29.72	-51.5	-64.4	3.8	7.40e-01	0	56	104	362283008	66	15688
2026-01-03 11:02:18.41	342.58	29.51	-51.5	-64.5	3.8	7.45e-01	0	57	104	362283008	66	15844
2026-01-03 11:02:19.40	342.50	29.30	-51.4	-64.3	3.8	7.46e-01	0	56	104	362283008	66	15433
2026-01-03 11:02:20.38	342.42	29.10	-50.9	-63.4	3.8	7.44e-01	0	56	104	362283008	65	14850
2026-01-03 11:02:21.37	342.33	28.89	-50.4	-62.5	3.8	7.45e-01	0	57	104	362283008	64	14145
2026-01-03 11:02:22.36	342.25	28.69	-49.9	-61.8	3.8	7.47e-01	0	57	104	362283008	63	13857
2026-01-03 11:02:23.35	342.17	28.49	-49.5	-61.3	3.8	7.43e-01	0	57	104	362283008	62	13835
2026-01-03 11:02:24.34	342.09	28.29	-49.1	-60.7	3.8	7.43e-01	0	56	104	362283008	61	13628
2026-01-03 11:02:25.33	342.02	28.09	-48.9	-60.5	3.8	7.44e-01	0	57	104	362283008	61	13272
2026-01-03 11:02:26.32	341.94	27.89	-49.1	-60.5	3.8	7.47e-01	0	56	104	362283008	61	13405
2026-01-03 11:02:27.30	341.86	27.70	-49.4	-60.8	3.8	7.42e-01	0	57	104	362283008	61	13814
2026-01-03 11:02:28.29	341.79	27.50	-49.5	-61.0	3.8	7.45e-01	0	56	104	362283008	61	14078
2026-01-03 11:02:29.28	341.71	27.31	-49.3	-60.6	3.8	7.45e-01	0	57	104	362283008	61	13455
2026-01-03 11:02:30.27	341.64	27.12	-49.1	-60.4	3.8	7.43e-01	0	56	104	362283008	61	13230
2026-01-03 11:02:31.25	341.57	26.93	-48.9	-60.2	3.8	7.43e-01	0	56	104	362283008	61	12894
2026-01-03 11:02:32.25	341.50	26.74	-48.7	-60.0	3.8	7.45e-01	0	56	104	362283008	61	12553
2026-01-03 11:02:33.24	341.43	26.55	-48.6	-59.9	3.8	7.44e-01	0	57	104	362283008	60	13188
2026-01-03 11:02:34.23	341.36	26.37	-48.5	-59.8	3.8	7.45e-01	0	56	104	362283008	60	12971
2026-01-03 11:02:35.21	341.29	26.18	-48.6	-59.9	3.8	7.43e-01	0	56	104	362283008	60	13202
2026-01-03 11:02:36.20	341.22	26.00	-48.8	-60.2	3.8	7.44e-01	0	56	104	362283008	60	13639
2026-01-03 11:02:37.19	341.16	25.82	-49.1	-60.5	3.8	7.45e-01	0	57	104	362283008	60	14128
2026-01-03 11:02:38.19	341.09	25.64	-49.1	-60.6	3.8	7.47e-01	0	56	104	362283008	60	14220
2026-01-03 11:02:39.18	341.03	25.46	-49.2	-60.7	3.8	7.48e-01	0	56	104	362283008	60	14456
2026-01-03 11:02:40.18	340.96	25.28	-49.3	-61.0	3.8	7.44e-01	0	56	104	362283008	60	14905
2026-01-03 11:02:41.17	340.90	25.10	-49.5	-61.3	3.8	7.43e-01	0	57	104	362283008	61	14707
2026-01-03 11:02:42.16	340.84	24.92	-49.8	-61.7	3.8	7.44e-01	0	56	104	362283008	61	15386
2026-01-03 11:02:43.15	340.77	24.75	-50.1	-62.2	3.8	7.48e-01	0	56	104	362283008	62	15289
2026-01-03 11:02:44.13	340.71	24.58	-50.4	-62.6	3.8	7.45e-01	0	56	104	362283008	62	16068
2026-01-03 11:02:45.13	340.65	24.40	-50.2	-62.2	3.8	7.44e-01	0	57	104	362283008	62	15371
2026-01-03 11:02:46.12	340.59	24.23	-50.1	-62.0	3.8	7.42e-01	0	57	104	362283008	62	15041
2026-01-03 11:02:47.11	340.53	24.06	-50.1	-62.0	3.8	7.45e-01	0	57	104	362283008	62	15001
2026-01-03 11:02:48.09	340.48	23.90	-50.2	-62.1	3.8	7.45e-01	0	57	104	362283008	62	15091
2026-01-03 11:02:49.08	340.42	23.73	-50.4	-62.3	3.8	7.45e-01	0	56	104	362283008	62	15564
2026-01-03 11:02:50.07	340.36	23.56	-50.7	-62.8	3.8	7.45e-01	0	57	104	362283008	63	15479
2026-01-03 11:02:51.06	340.31	23.40	-50.9	-63.3	3.8	7.47e-01	0	56	104	362283008	64	15477
2026-01-03 11:02:52.05	340.25	23.23	-51.4	-64.1	3.8	7.45e-01	0	57	104	362283008	64	16959
2026-01-03 11:02:53.03	340.20	23.07	-51.0	-63.5	3.8	7.44e-01	0	57	104	362283008	64	15905
2026-01-03 11:02:54.02	340.14	22.91	-50.7	-63.1	3.8	7.44e-01	0	57	104	362283008	64	15053
2026-01-03 11:02:55.01	340.09	22.75	-50.4	-62.7	3.8	7.43e-01	0	56	104	362283008	64	14400
2026-01-03 11:02:56.00	340.04	22.59	-50.2	-62.4	3.8	7.43e-01	0	57	104	362283008	63	14839
2026-01-03 11:02:56.99	339.98	22.43	-50.5	-62.9	3.8	7.46e-01	0	57	104	362283008	63	15754
2026-01-03 11:02:57.97	339.93	22.27	-50.9	-63.5	3.8	7.42e-01	0	56	104	362283008	63	16861
2026-01-03 11:02:58.97	339.88	22.12	-51.3	-64.3	3.8	7.43e-01	0	56	104	362283008	64	17307
2026-01-03 11:02:59.96	339.83	21.96	-51.8	-65.3	3.8	7.45e-01	0	56	104	362283008	65	18361
2026-01-03 11:03:00.95	339.78	21.81	-52.1	-66.1	3.8	7.45e-01	0	56	104	362283008	66	18958
2026-01-03 11:03:01.94	339.73	21.65	-52.6	-67.1	3.8	7.45e-01	0	57	104	362283008	67	20285
2026-01-03 11:03:02.93	339.68	21.50	-52.6	-67.1	3.8	7.43e-01	0	57	104	362283008	67	20119
2026-01-03 11:03:03.92	339.63	21.35	-52.3	-66.5	3.8	7.48e-01	0	57	104	362283008	67	18794
2026-01-03 11:03:04.90	339.59	21.20	-52.1	-66.2	3.8	7.46e-01	0	57	104	362283008	67	18282
2026-01-03 11:03:05.88	339.54	21.05	-52.2	-66.5	3.8	7.47e-01	0	57	104	362283008	67	18774
2026-01-03 11:03:06.88	339.49	20.90	-52.3	-67.0	3.8	7.42e-01	0	56	104	362283008	67	19859
2026-01-03 11:03:07.87	339.45	20.75	-52.4	-67.5	3.8	7.44e-01	0	56	104	362283008	67	21051
2026-01-03 11:03:08.87	339.40	20.60	-52.5	-67.9	3.8	7.43e-01	0	56	104	362283008	67	22136
2026-01-03 11:03:09.86	339.35	20.46	-52.4	-67.6	3.8	7.50e-01	0	57	104	362283008	67	21385
2026-01-03 11:03:10.85	339.31	20.31	-52.3	-67.5	3.8	7.45e-01	0	57	104	362283008	67	21134
2026-01-03 11:03:11.84	339.27	20.17	-52.2	-67.1	3.8	7.45e-01	0	57	104	362283008	67	20281
2026-01-03 11:03:12.83	339.22	20.02	-52.0	-66.5	3.8	7.43e-01	0	57	104	362283008	67	18874
2026-01-03 11:03:13.82	339.18	19.88	-51.6	-65.6	3.8	7.42e-01	0	57	104	362283008	66	17974
2026-01-03 11:03:14.81	339.14	19.74	-51.2	-64.7	3.8	7.42e-01	0	57	104	362283008	66	16134
2026-01-03 11:03:15.80	339.09	19.60	-51.3	-64.8	3.8	7.46e-01	0	57	104	362283008	65	17368
2026-01-03 11:03:16.79	339.05	19.46	-51.1	-64.4	3.8	7.44e-01	0	56	104	362283008	65	16608
2026-01-03 11:03:17.78	339.01	19.32	-51.0	-64.2	3.8	7.45e-01	0	57	104	362283008	65	16273
2026-01-03 11:03:18.77	338.97	19.18	-51.0	-64.3	3.8	7.43e-01	0	57	104	362283008	65	16407
2026-01-03 11:03:19.76	338.93	19.05	-50.8	-63.9	3.8	7.46e-01	0	57	104	362283008	65	15712
2026-01-03 11:03:20.75	338.89	18.91	-50.3	-63.0	3.8	7.43e-01	0	57	104	362283008	64	14987
2026-01-03 11:03:21.75	338.85	18.77	-49.8	-62.2	3.8	7.47e-01	0	57	104	362283008	63	14381
2026-01-03 11:03:22.73	338.81	18.64	-49.4	-61.4	3.8	7.43e-01	0	57	104	362283008	62	14002
2026-01-03 11:03:23.72	338.77	18.50	-49.1	-60.9	3.8	7.41e-01	0	57	104	362283008	61	14035
2026-01-03 11:03:24.72	338.73	18.37	-48.6	-60.2	3.8	7.46e-01	0	56	104	362283008	60	13697
2026-01-03 11:03:25.71	338.69	18.24	-48.3	-59.7	3.8	7.46e-01	0	57	104	362283008	60	12891
2026-01-03 11:03:26.70	338.65	18.10	-48.6	-60.0	3.8	7.44e-01	0	57	104	362283008	59	14153
2026-01-03 11:03:27.69	338.62	17.97	-48.6	-60.1	3.8	7.42e-01	0	57	104	362283008	60	13429
2026-01-03 11:03:28.67	338.58	17.84	-49.1	-60.7	3.8	7.46e-01	0	57	104	362283008	60	14385
2026-01-03 11:03:29.66	338.54	17.71	-49.5	-61.2	3.8	7.42e-01	0	56	104	362283008	61	14461
2026-01-03 11:03:30.64	338.51	17.59	-49.5	-61.3	3.8	7.46e-01	0	57	104	362283008	61	14624
2026-01-03 11:03:31.64	338.47	17.46	-49.6	-61.4	3.8	7.44e-01	0	57	104	362283008	61	14789
2026-01-03 11:03:32.62	338.44	17.33	-49.9	-62.1	3.8	7.44e-01	0	57	104	362283008	62	15064
2026-01-03 11:03:33.61	338.40	17.21	-50.5	-62.8	3.9	7.47e-01	0	57	104	362283008	63	15454
2026-01-03 11:03:34.59	338.37	17.08	-50.8	-63.3	3.8	7.45e-01	0	57	104	362283008	63	16493
2026-01-03 11:03:35.58	338.33	16.96	-50.6	-63.0	3.8	7.44e-01	0	57	104	362283008	63	15866
2026-01-03 11:03:36.56	338.30	16.83	-50.4	-62.7	3.8	7.45e-01	0	57	104	362283008	63	15267
2026-01-03 11:03:37.56	338.26	16.71	-50.6	-62.9	3.8	7.45e-01	0	57	104	362283008	63	15749
2026-01-03 11:03:38.55	338.23	16.58	-50.9	-63.5	3.8	7.42e-01	0	57	104	362283008	63	16814
2026-01-03 11:03:39.54	338.20	16.46	-50.9	-63.7	3.8	7.45e-01	0	57	104	362283008	64	16185
2026-01-03 11:03:40.53	338.16	16.34	-50.9	-63.5	3.8	7.42e-01	0	57	104	362283008	64	15936
2026-01-03 11:03:41.51	338.13	16.22	-50.7	-63.2	3.8	7.45e-01	0	57	104	362283008	64	15332
2026-01-03 11:03:42.51	338.10	16.10	-50.4	-62.9	3.8	7.48e-01	0	57	104	362283008	64	14710
2026-01-03 11:03:43.50	338.07	15.98	-50.3	-62.5	3.8	7.45e-01	0	57	104	362283008	64	14197
2026-01-03 11:03:44.49	338.03	15.86	-50.1	-62.3	3.8	7.45e-01	0	57	104	362283008	63	14652
2026-01-03 11:03:45.48	338.00	15.74	-49.9	-62.0	3.8	7.47e-01	0	57	104	362283008	63	14172
2026-01-03 11:03:46.47	337.97	15.62	-49.8	-61.9	3.8	7.43e-01	0	57	104	362283008	63	13904
2026-01-03 11:03:47.46	337.94	15.50	-50.1	-62.4	3.8	7.48e-01	0	57	104	362283008	63	14731
2026-01-03 11:03:48.45	337.91	15.39	-50.3	-62.8	3.8	7.46e-01	0	57	104	362283008	63	15496
2026-01-03 11:03:49.44	337.88	15.27	-50.7	-63.5	3.8	7.45e-01	0	57	104	362283008	63	16877
2026-01-03 11:03:50.42	337.85	15.16	-50.8	-64.1	3.8	7.44e-01	0	57	104	362283008	64	17064
2026-01-03 11:03:51.41	337.82	15.04	-51.1	-64.9	3.9	7.44e-01	0	57	104	362283008	64	18580
2026-01-03 11:03:52.40	337.79	14.93	-51.1	-56.4	15.1	6.03e-01	0	57	0	362283008	64	6978
2026-01-03 11:03:53.39	337.76	14.81	-50.9	-56.3	15.1	6.01e-01	0	57	0	2097152	64	6914
2026-01-03 11:03:54.38	337.73	14.70	-50.9	-56.4	14.9	6.03e-01	0	57	0	3670016	64	6970
2026-01-03 11:03:55.37	337.70	14.59	-51.0	-56.7	14.6	6.05e-01	0	57	0	5767168	64	7216
2026-01-03 11:03:56.36	337.68	14.47	-51.0	-56.9	14.2	6.04e-01	0	57	0	7340032	64	7415
2026-01-03 11:03:57.35	337.65	14.36	-51.1	-57.2	14.0	6.06e-01	0	57	0	9437184	64	7652
2026-01-03 11:03:58.34	337.62	14.25	-51.1	-57.6	13.5	6.04e-01	0	57	0	11010048	64	8024
2026-01-03 11:03:59.33	337.59	14.14	-51.2	-57.7	13.4	6.06e-01	0	57	0	13107200	64	8100
2026-01-03 11:04:00.32	337.57	14.03	-51.1	-57.0	14.3	6.05e-01	0	57	0	14680064	64	7520
2026-01-03 11:04:01.31	337.54	13.92	-51.0	-56.0	15.6	6.03e-01	0	57	0	16777216	64	6681
2026-01-03 11:04:02.30	337.51	13.81	-50.7	-55.0	16.7	6.04e-01	0	57	0	18874368	64	5952
2026-01-03 11:04:03.29	337.49	13.70	-50.4	-54.0	17.9	6.04e-01	0	57	0	20447232	64	5337
2026-01-03 11:04:04.29	337.46	13.60	-50.0	-53.2	19.0	6.04e-01	0	57	0	22544384	63	5118
2026-01-03 11:04:05.28	337.43	13.49	-49.7	-52.4	19.9	6.01e-01	0	57	0	24117248	62	4968
2026-01-03 11:04:06.26	337.41	13.38	-49.3	-51.7	20.7	6.04e-01	0	57	0	26214400	62	4579
2026-01-03 11:04:07.25	337.38	13.28	-48.9	-51.1	21.4	6.06e-01	0	57	0	27787264	61	4508
2026-01-03 11:04:08.25	337.36	13.17	-48.6	-50.7	21.9	6.03e-01	0	57	0	29884416	60	4556
2026-01-03 11:04:09.23	337.33	13.07	-48.5	-50.5	22.1	6.04e-01	0	57	0	31457280	60	4451
2026-01-03 11:04:10.22	337.31	12.96	-48.3	-50.3	22.3	6.02e-01	0	57	0	33554432	60	4343
2026-01-03 11:04:11.22	337.28	12.86	-48.4	-50.3	22.3	6.04e-01	0	57	0	35127296	60	4372
2026-01-03 11:04:12.21	337.26	12.75	-48.3	-50.2	22.4	6.02e-01	0	57	0	37224448	60	4337
2026-01-03 11:04:13.21	337.23	12.65	-48.4	-50.3	22.3	6.04e-01	0	57	0	39321600	60	4382
2026-01-03 11:04:14.19	337.21	12.55	-48.3	-50.2	22.4	6.02e-01	0	57	0	40894464	60	4332
2026-01-03 11:04:15.18	337.18	12.44	-48.4	-50.3	22.3	6.05e-01	0	57	0	42991616	60	4383
2026-01-03 11:04:16.18	337.16	12.34	-48.4	-50.3	22.2	6.04e-01	0	57	0	44564480	60	4389
2026-01-03 11:04:17.17	337.14	12.24	-48.4	-50.4	22.2	6.05e-01	0	57	0	46661632	60	4416
2026-01-03 11:04:18.16	337.11	12.14	-48.5	-50.6	22.0	6.03e-01	0	57	0	48234496	60	4501
2026-01-03 11:04:19.15	337.09	12.04	-48.6	-50.7	21.9	6.03e-01	0	57	0	50331648	60	4586
2026-01-03 11:04:20.14	337.07	11.94	-48.8	-51.0	21.6	6.05e-01	0	57	0	51904512	60	4734
2026-01-03 11:04:21.12	337.04	11.84	-48.7	-50.8	21.8	6.03e-01	0	57	0	54001664	60	4628
2026-01-03 11:04:22.12	337.02	11.74	-48.9	-51.2	21.3	6.05e-01	0	57	0	55574528	60	4826
2026-01-03 11:04:23.11	337.00	11.64	-48.8	-51.0	21.6	6.00e-01	0	57	0	57671680	60	4743
2026-01-03 11:04:24.11	336.98	11.54	-49.0	-51.3	21.3	6.04e-01	0	57	0	59768832	60	4891
2026-01-03 11:04:25.10	336.95	11.44	-49.0	-51.3	21.3	6.02e-01	0	57	0	61341696	60	4907
2026-01-03 11:04:26.09	336.93	11.35	-49.2	-51.5	21.1	6.01e-01	0	57	0	63438848	60	5022
2026-01-03 11:04:27.08	336.91	11.25	-49.1	-51.4	21.2	6.00e-01	0	57	0	65011712	60	4940
2026-01-03 11:04:28.07	336.89	11.15	-49.2	-51.6	21.0	6.05e-01	0	57	0	67108864	60	5063
2026-01-03 11:04:29.05	336.87	11.06	-49.2	-51.6	20.9	6.03e-01	0	57	0	68681728	60	5094
2026-01-03 11:04:30.04	336.85	10.96	-49.5	-52.0	20.6	6.02e-01	0	57	0	70778880	61	5035
2026-01-03 11:04:31.04	336.83	10.87	-49.3	-51.8	20.7	6.03e-01	0	57	0	72351744	61	4906
2026-01-03 11:04:32.03	336.81	10.77	-49.6	-52.2	20.4	6.04e-01	0	57	0	74448896	61	5123
2026-01-03 11:04:33.02	336.79	10.68	-49.4	-51.9	20.7	6.01e-01	0	57	0	76021760	61	4949
2026-01-03 11:04:34.01	336.77	10.58	-49.2	-51.5	21.0	6.02e-01	0	57	0	78118912	61	4733
2026-01-03 11:04:35.00	336.75	10.49	-49.1	-51.3	21.2	6.03e-01	0	57	0	80216064	61	4650
2026-01-03 11:04:35.99	336.73	10.40	-49.1	-51.3	21.2	6.02e-01	0	57	0	81788928	61	4650
2026-01-03 11:04:36.99	336.71	10.30	-49.0	-51.3	21.3	6.02e-01	0	57	0	83886080	61	4646
2026-01-03 11:04:37.97	336.69	10.21	-49.0	-51.2	21.0	6.01e-01	0	57	0	85458944	61	4596
2026-01-03 11:04:38.96	336.67	10.12	-49.1	-51.4	21.2	6.05e-01	0	57	0	87556096	61	4667
2026-01-03 11:04:39.95	336.65	10.03	-49.0	-51.3	21.2	6.03e-01	0	57	0	89128960	61	4612
2026-01-03 11:04:40.94	336.63	9.93	-49.0	-51.3	21.2	6.02e-01	0	57	0	91226112	61	4620
2026-01-03 11:04:41.93	336.61	9.84	-49.0	-51.3	21.2	6.03e-01	0	57	0	92798976	61	4615
2026-01-03 11:04:42.91	336.59	9.75	-49.1	-51.4	21.2	6.05e-01	0	57	0	94896128	61	4659
2026-01-03 11:04:43.91	336.57	9.66	-49.1	-51.5	21.0	6.02e-01	0	57	0	96468992	61	4734
2026-01-03 11:04:44.89	336.55	9.57	-49.0	-51.3	21.2	6.03e-01	0	57	0	98566144	61	4631
2026-01-03 11:04:45.89	336.53	9.48	-49.0	-51.3	21.3	6.02e-01	0	57	0	100139008	61	4600
2026-01-03 11:04:46.88	336.52	9.39	-48.9	-51.2	21.3	6.05e-01	0	57	0	102236160	61	4570
2026-01-03 11:04:47.87	336.50	9.30	-49.1	-51.4	21.0	6.02e-01	0	57	0	103809024	61	4705
2026-01-03 11:04:48.85	336.48	9.22	-49.1	-51.5	21.0	6.04e-01	0	57	0	105906176	61	4707
2026-01-03 11:04:49.84	336.46	9.13	-49.2	-51.5	21.0	6.04e-01	0	57	0	108003328	61	4735
2026-01-03 11:04:50.84	336.44	9.04	-49.3	-51.8	20.7	6.00e-01	0	57	0	109576192	61	4891
2026-01-03 11:04:51.83	336.43	8.95	-49.3	-51.7	20.8	6.02e-01	0	57	0	111673344	61	4824
2026-01-03 11:04:52.82	336.41	8.87	-49.1	-51.4	21.1	6.04e-01	0	57	0	113246208	61	4704
2026-01-03 11:04:53.81	336.39	8.78	-49.0	-51.3	21.1	6.04e-01	0	57	0	115343360	61	4639
2026-01-03 11:04:54.79	336.38	8.69	-49.0	-51.3	21.2	6.04e-01	0	56	0	116916224	61	4609
2026-01-03 11:04:55.79	336.36	8.61	-49.0	-51.3	21.2	6.02e-01	0	57	0	119013376	61	4629
2026-01-03 11:04:56.77	336.34	8.52	-49.0	-51.3	21.2	6.04e-01	0	57	0	120586240	61	4619
2026-01-03 11:04:57.77	336.32	8.43	-49.0	-51.3	21.2	6.03e-01	0	57	0	122683392	61	4617
2026-01-03 11:04:58.75	336.31	8.35	-49.1	-51.5	21.0	6.05e-01	0	57	0	124256256	61	4745
2026-01-03 11:04:59.74	336.29	8.27	-49.1	-51.5	20.9	6.02e-01	0	57	0	126353408	61	4742
2026-01-03 11:05:00.73	336.28	8.18	-49.1	-51.5	21.0	6.01e-01	0	57	0	127926272	61	4715
2026-01-03 11:05:01.72	336.26	8.10	-49.3	-51.8	20.6	6.02e-01	0	57	0	130023424	61	4907
2026-01-03 11:05:02.71	336.24	8.01	-49.5	-52.0	20.4	6.03e-01	0	57	0	132120576	61	5039
