passes_logs/2026/01/03/R3.0SM8_Murmansk_STILSPACE/R3.0SM8_Murmansk_STILSPACE__20260103_010659_NOAA_21_JPSS-2_rec.log

#Pass ID: 20260103_010659_NOAA 21 (JPSS-2)
#Satellite: NOAA 21 (JPSS-2)
#Configuration: NOAA-21
#almurnet v.1.7.20240730
#Start time: 2026-01-03 01:12:37

#Version: 2.2.20231116
#Station: R3.0SM8_Murmansk_STILSPACE
#Location: 33.092731 lon 68.902999 lat
#TLE: 1 54234U 22150A   26002.25486487  .00000200  00000+0  11573-3 0  9993
#TLE: 2 54234  98.7485 303.3096 0001220 350.9074   9.2080 14.19531212163006

#Time	Az	El	Level	Level2	SNR	BER	BlckErr	Temp	State	Recorded	gain1	gain2
2026-01-03 01:12:37.93	7.71	51.00	-53.4	-63.6	3.8	8.47e-01	0	57	0	0	68	12331
2026-01-03 01:12:38.91	7.45	51.30	-53.5	-65.0	3.8	1.49e+00	0	57	104	0	69	13793
2026-01-03 01:12:39.90	7.17	51.62	-53.5	-65.0	3.8	1.49e+00	0	57	104	0	69	13820
2026-01-03 01:12:40.89	6.89	51.93	-53.5	-65.0	3.8	1.49e+00	0	57	104	0	69	13789
2026-01-03 01:12:41.87	6.61	52.24	-53.5	-65.0	3.8	1.49e+00	0	57	104	0	69	13794
2026-01-03 01:12:42.86	6.31	52.56	-53.5	-65.0	3.8	1.49e+00	0	57	104	0	69	13818
2026-01-03 01:12:43.84	6.02	52.87	-53.5	-65.0	3.8	1.49e+00	0	57	104	0	69	13804
2026-01-03 01:12:44.82	5.71	53.19	-53.5	-65.0	3.8	1.49e+00	0	57	104	0	69	13769
2026-01-03 01:12:45.81	5.40	53.51	-53.4	-65.0	3.8	1.49e+00	0	57	104	0	69	13778
2026-01-03 01:12:46.80	5.08	53.83	-53.5	-65.0	3.8	1.49e+00	0	57	104	0	69	13823
2026-01-03 01:12:47.79	4.75	54.15	-53.5	-65.0	3.8	1.49e+00	0	57	104	0	69	13808
2026-01-03 01:12:48.78	4.42	54.47	-53.3	-65.0	3.8	1.49e+00	0	57	104	0	69	13807
2026-01-03 01:12:49.78	4.07	54.80	-53.5	-65.0	3.8	1.49e+00	0	57	104	0	69	13807
2026-01-03 01:12:50.77	3.72	55.12	-53.5	-65.0	3.8	1.49e+00	0	57	104	0	69	13821
2026-01-03 01:12:51.76	3.36	55.45	-53.5	-65.0	3.8	1.49e+00	0	57	104	0	69	13766
2026-01-03 01:12:52.75	3.00	55.77	-53.5	-65.0	3.8	1.49e+00	0	57	104	0	69	13826
2026-01-03 01:12:53.74	2.62	56.10	-53.5	-65.0	3.8	1.49e+00	0	57	104	0	69	13813
2026-01-03 01:12:54.74	2.23	56.43	-53.4	-65.0	3.8	1.49e+00	0	57	104	0	69	13761
2026-01-03 01:12:55.73	1.83	56.76	-53.5	-65.0	3.8	1.49e+00	0	57	104	0	69	13864
2026-01-03 01:12:56.72	1.43	57.09	-53.4	-65.0	3.8	1.49e+00	0	57	104	0	69	13823
2026-01-03 01:12:57.71	1.02	57.42	-53.5	-65.0	3.8	1.49e+00	0	57	104	0	69	13809
2026-01-03 01:12:58.69	0.60	57.75	-53.5	-65.0	3.8	1.49e+00	0	57	104	0	69	13819
2026-01-03 01:12:59.68	0.16	58.08	-53.5	-65.0	3.8	1.49e+00	0	57	104	0	69	13824
2026-01-03 01:13:00.68	359.71	58.41	-53.5	-65.0	3.8	1.49e+00	0	57	104	0	69	13839
2026-01-03 01:13:01.66	359.26	58.74	-53.5	-65.0	3.8	1.49e+00	0	57	104	0	69	13800
2026-01-03 01:13:02.65	358.79	59.07	-53.5	-65.0	3.8	1.49e+00	0	57	104	0	69	13797
2026-01-03 01:13:03.65	358.30	59.40	-53.5	-65.0	3.8	1.49e+00	0	57	104	0	69	13816
2026-01-03 01:13:04.64	357.81	59.73	-53.5	-65.0	3.8	1.49e+00	0	57	104	0	69	13799
2026-01-03 01:13:05.62	357.31	60.06	-53.5	-65.0	3.8	1.49e+00	0	57	104	0	69	13783
2026-01-03 01:13:06.62	356.78	60.39	-53.5	-65.0	3.8	1.49e+00	0	57	104	0	69	13731
2026-01-03 01:13:07.61	356.25	60.72	-53.4	-65.0	3.8	1.49e+00	0	57	104	0	69	13761
2026-01-03 01:13:08.60	355.70	61.05	-53.5	-65.0	3.8	1.49e+00	0	57	104	0	69	13801
2026-01-03 01:13:09.59	355.14	61.38	-53.5	-65.0	3.8	1.49e+00	0	57	104	0	69	13757
2026-01-03 01:13:10.59	354.56	61.71	-53.5	-65.0	3.8	1.49e+00	0	57	104	0	69	13817
2026-01-03 01:13:11.57	353.97	62.03	-53.5	-65.0	3.8	1.49e+00	0	57	104	0	69	13733
2026-01-03 01:13:12.56	353.36	62.36	-53.5	-65.0	3.8	1.49e+00	0	57	104	0	69	13729
2026-01-03 01:13:13.55	352.73	62.68	-53.4	-65.0	3.8	1.49e+00	0	57	104	0	69	13737
2026-01-03 01:13:14.54	352.09	63.01	-53.5	-65.0	3.8	1.49e+00	0	57	104	0	69	13732
2026-01-03 01:13:15.54	351.42	63.33	-53.5	-64.9	3.8	1.49e+00	0	57	104	0	69	13683
2026-01-03 01:13:16.52	350.75	63.65	-53.5	-65.0	3.8	1.49e+00	0	57	104	0	69	13765
2026-01-03 01:13:17.51	350.05	63.96	-53.5	-65.0	3.8	1.49e+00	0	57	104	0	69	13737
2026-01-03 01:13:18.50	349.34	64.28	-53.5	-64.9	3.8	1.49e+00	0	57	104	0	69	13686
2026-01-03 01:13:19.49	348.60	64.59	-53.5	-64.8	3.8	1.49e+00	0	57	104	0	69	13537
2026-01-03 01:13:20.48	347.84	64.90	-53.5	-64.6	3.8	1.49e+00	0	57	104	0	69	13141
2026-01-03 01:13:21.47	347.06	65.21	-53.4	-64.0	3.8	1.49e+00	0	57	104	0	69	12315
2026-01-03 01:13:22.46	346.26	65.51	-53.3	-63.7	3.8	1.49e+00	0	57	104	0	69	11918
2026-01-03 01:13:23.45	345.44	65.81	-53.4	-64.1	3.8	1.49e+00	0	57	104	0	69	12513
2026-01-03 01:13:24.44	344.59	66.11	-53.3	-64.5	3.8	1.49e+00	0	57	104	0	69	13100
2026-01-03 01:13:25.43	343.73	66.40	-53.4	-64.1	3.8	1.49e+00	0	57	104	0	69	12410
2026-01-03 01:13:26.42	342.83	66.69	-53.3	-63.8	3.8	1.49e+00	0	57	104	0	69	11986
2026-01-03 01:13:27.40	341.92	66.97	-53.3	-63.6	3.8	1.49e+00	0	57	104	0	69	11733
2026-01-03 01:13:28.38	340.99	67.25	-53.4	-64.0	3.8	1.49e+00	0	57	104	0	69	12284
2026-01-03 01:13:29.37	340.02	67.53	-53.2	-62.5	3.9	1.49e+00	0	57	104	0	69	10400
2026-01-03 01:13:30.35	339.04	67.80	-50.7	-53.9	9.5	7.79e-02	0	57	0	1048576	64	5156
2026-01-03 01:13:31.34	338.02	68.06	-45.8	-46.8	16.8	0.00e+00	0	57	0	4194304	54	4039
2026-01-03 01:13:32.33	336.97	68.32	-43.9	-44.6	19.1	0.00e+00	0	57	0	7340032	50	3923
2026-01-03 01:13:33.31	335.91	68.57	-44.1	-44.8	18.8	0.00e+00	0	57	0	10485760	50	4048
2026-01-03 01:13:34.30	334.81	68.82	-44.4	-45.2	18.5	0.00e+00	0	57	0	13631488	50	4212
2026-01-03 01:13:35.28	333.69	69.05	-44.0	-44.8	18.8	0.00e+00	0	57	0	16777216	50	4029
2026-01-03 01:13:36.27	332.53	69.29	-44.1	-44.8	18.9	0.00e+00	0	57	0	19922944	50	4034
2026-01-03 01:13:37.26	331.35	69.51	-44.1	-44.8	18.8	0.00e+00	0	57	0	23068672	50	4051
2026-01-03 01:13:38.26	330.12	69.73	-44.3	-45.1	18.6	0.00e+00	0	57	0	26214400	50	4180
2026-01-03 01:13:39.25	328.88	69.94	-44.5	-45.3	18.4	0.00e+00	0	57	0	29360128	50	4272
2026-01-03 01:13:40.24	327.61	70.14	-44.3	-45.1	18.4	0.00e+00	0	57	0	32505856	50	4173
2026-01-03 01:13:41.23	326.32	70.33	-44.6	-45.4	18.2	0.00e+00	0	57	0	35651584	50	4300
2026-01-03 01:13:42.21	325.01	70.51	-44.7	-45.6	18.2	0.00e+00	0	57	0	37748736	51	4147
2026-01-03 01:13:43.20	323.66	70.68	-44.3	-45.0	18.6	0.00e+00	0	57	0	40894464	51	3898
2026-01-03 01:13:44.19	322.29	70.85	-44.1	-44.8	18.8	0.00e+00	0	57	0	44040192	51	3817
2026-01-03 01:13:45.18	320.89	71.00	-44.4	-45.2	18.5	0.00e+00	0	57	0	47185920	51	3984
2026-01-03 01:13:46.17	319.47	71.14	-44.9	-45.8	17.9	0.00e+00	0	57	0	50331648	51	4244
2026-01-03 01:13:47.16	318.03	71.27	-44.7	-45.6	18.1	0.00e+00	0	57	0	53477376	51	4155
2026-01-03 01:13:48.15	316.57	71.39	-44.5	-45.3	18.3	0.00e+00	0	57	0	56623104	51	4009
2026-01-03 01:13:49.15	315.07	71.50	-44.3	-45.1	18.6	0.00e+00	0	57	0	59768832	51	3922
2026-01-03 01:13:50.14	313.57	71.60	-44.3	-45.1	18.6	0.00e+00	0	57	0	62914560	51	3932
2026-01-03 01:13:51.12	312.07	71.68	-44.4	-45.2	18.4	0.00e+00	0	57	0	66060288	51	4003
2026-01-03 01:13:52.11	310.54	71.75	-44.6	-45.4	18.3	0.00e+00	0	57	0	69206016	51	4072
2026-01-03 01:13:53.10	309.00	71.81	-45.0	-45.9	17.7	0.00e+00	0	57	0	72351744	52	4098
2026-01-03 01:13:54.08	307.47	71.86	-44.2	-44.9	18.7	0.00e+00	0	57	0	75497472	51	3861
2026-01-03 01:13:55.07	305.91	71.89	-43.6	-44.2	19.4	0.00e+00	0	57	0	78643200	50	3768
2026-01-03 01:13:56.06	304.35	71.91	-43.6	-44.2	19.4	0.00e+00	0	57	0	81788928	49	4002
2026-01-03 01:13:57.05	302.78	71.92	-44.5	-45.3	18.4	0.00e+00	0	57	0	84934656	50	4257
2026-01-03 01:13:58.03	301.23	71.92	-44.8	-45.6	18.1	0.00e+00	0	57	0	88080384	51	4179
2026-01-03 01:13:59.02	299.67	71.90	-44.9	-45.8	17.9	0.00e+00	0	57	0	91226112	51	4257
2026-01-03 01:14:00.01	298.11	71.87	-44.5	-45.3	18.3	0.00e+00	0	57	0	93323264	51	4050
2026-01-03 01:14:01.01	296.54	71.83	-44.3	-45.0	18.6	0.00e+00	0	57	0	96468992	51	3911
2026-01-03 01:14:01.99	295.01	71.77	-44.1	-44.9	18.8	0.00e+00	0	57	0	99614720	51	3848
2026-01-03 01:14:02.99	293.46	71.71	-44.1	-44.9	18.8	0.00e+00	0	57	0	102760448	51	3835
2026-01-03 01:14:03.98	291.94	71.63	-44.3	-45.1	18.6	0.00e+00	0	57	0	105906176	51	3942
2026-01-03 01:14:04.97	290.43	71.54	-44.0	-44.7	18.8	0.00e+00	0	57	0	109051904	51	3770
2026-01-03 01:14:05.96	288.94	71.43	-44.0	-44.7	18.9	0.00e+00	0	57	0	112197632	51	3772
2026-01-03 01:14:06.95	287.47	71.32	-44.6	-45.4	18.3	0.00e+00	0	57	0	115343360	51	4068
2026-01-03 01:14:07.94	286.02	71.19	-44.8	-45.7	18.0	0.00e+00	0	57	0	118489088	51	4205
2026-01-03 01:14:08.92	284.60	71.05	-45.4	-46.4	17.2	0.00e+00	0	57	0	121634816	52	4328
2026-01-03 01:14:09.91	283.20	70.91	-45.3	-46.3	17.4	0.00e+00	0	57	0	124780544	52	4251
2026-01-03 01:14:10.90	281.82	70.75	-45.7	-46.7	17.0	0.00e+00	0	57	0	127926272	53	4220
2026-01-03 01:14:11.90	280.44	70.58	-45.4	-46.4	17.3	0.00e+00	0	57	0	131072000	53	4057
2026-01-03 01:14:12.89	279.11	70.40	-44.5	-45.3	18.3	0.00e+00	0	57	0	134217728	52	3801
2026-01-03 01:14:13.88	277.81	70.21	-44.1	-44.9	18.8	0.00e+00	0	57	0	137363456	51	3828
2026-01-03 01:14:14.86	276.54	70.01	-44.3	-45.1	18.6	0.00e+00	0	57	0	140509184	51	3925
2026-01-03 01:14:15.86	275.28	69.81	-44.7	-45.5	18.1	0.00e+00	0	57	0	143654912	51	4145
2026-01-03 01:14:16.85	274.05	69.59	-44.5	-45.3	18.3	0.00e+00	0	57	0	146800640	51	4034
2026-01-03 01:14:17.84	272.86	69.37	-44.4	-45.2	18.4	0.00e+00	0	57	0	149946368	51	3989
2026-01-03 01:14:18.83	271.69	69.14	-44.4	-45.2	18.5	0.00e+00	0	57	0	153092096	51	3978
2026-01-03 01:14:19.82	270.55	68.90	-44.1	-44.9	18.8	0.00e+00	0	57	0	156237824	51	3826
2026-01-03 01:14:20.81	269.44	68.66	-44.1	-44.8	18.9	0.00e+00	0	57	0	158334976	51	3807
2026-01-03 01:14:21.80	268.35	68.41	-44.6	-45.4	18.2	0.00e+00	0	57	0	161480704	51	4070
2026-01-03 01:14:22.79	267.30	68.15	-45.4	-46.3	17.3	0.00e+00	0	57	0	164626432	52	4279
2026-01-03 01:14:23.77	266.28	67.89	-45.2	-46.1	17.4	0.00e+00	0	57	0	167772160	52	4176
2026-01-03 01:14:24.76	265.27	67.62	-44.5	-45.3	18.2	0.00e+00	0	57	0	170917888	52	3793
2026-01-03 01:14:25.75	264.29	67.35	-44.8	-45.7	18.0	0.00e+00	0	57	0	174063616	51	4196
2026-01-03 01:14:26.75	263.33	67.06	-45.1	-46.0	17.8	0.00e+00	0	57	0	177209344	52	4100
2026-01-03 01:14:27.73	262.42	66.78	-46.1	-47.1	16.6	0.00e+00	0	57	0	180355072	53	4439
2026-01-03 01:14:28.72	261.51	66.49	-46.1	-47.2	16.4	0.00e+00	0	57	0	183500800	54	4219
2026-01-03 01:14:29.70	260.64	66.20	-45.4	-46.4	17.3	0.00e+00	0	57	0	186646528	54	3828
2026-01-03 01:14:30.70	259.78	65.91	-44.9	-45.7	17.8	0.00e+00	0	57	0	189792256	53	3773
2026-01-03 01:14:31.69	258.95	65.61	-45.0	-45.9	17.7	0.00e+00	0	57	0	192937984	52	4062
2026-01-03 01:14:32.68	258.14	65.30	-45.1	-45.9	17.6	0.00e+00	0	57	0	196083712	52	4081
2026-01-03 01:14:33.67	257.36	65.00	-45.7	-46.7	16.8	0.00e+00	0	57	0	199229440	53	4218
2026-01-03 01:14:34.66	256.59	64.69	-46.4	-47.6	16.0	0.00e+00	0	57	0	202375168	54	4406
2026-01-03 01:14:35.65	255.85	64.37	-47.3	-48.6	15.2	0.00e+00	0	57	0	205520896	56	4435
2026-01-03 01:14:36.63	255.13	64.06	-46.8	-48.0	15.7	0.00e+00	0	57	0	208666624	56	4130
2026-01-03 01:14:37.61	254.43	63.75	-45.3	-46.2	17.3	0.00e+00	0	57	0	211812352	53	4003
2026-01-03 01:14:38.61	253.74	63.43	-44.4	-45.2	18.3	0.00e+00	0	57	0	214958080	52	3766
2026-01-03 01:14:39.59	253.08	63.11	-44.8	-45.6	18.1	0.00e+00	0	57	0	217055232	51	4182
2026-01-03 01:14:40.58	252.43	62.79	-45.6	-46.6	17.1	0.00e+00	0	57	0	220200960	53	4179
2026-01-03 01:14:41.57	251.80	62.46	-46.4	-47.6	16.1	0.00e+00	0	57	0	223346688	54	4406
2026-01-03 01:14:42.56	251.18	62.14	-46.3	-47.5	16.2	0.00e+00	0	57	0	226492416	55	4102
2026-01-03 01:14:43.55	250.58	61.81	-45.4	-46.4	17.2	0.00e+00	0	57	0	229638144	54	3847
2026-01-03 01:14:44.54	250.00	61.48	-44.6	-45.4	18.2	0.00e+00	0	57	0	232783872	52	3849
2026-01-03 01:14:45.53	249.43	61.15	-44.2	-45.0	18.7	0.00e+00	0	57	0	235929600	51	3880
2026-01-03 01:14:46.52	248.88	60.82	-44.3	-45.1	18.5	0.00e+00	0	57	0	239075328	51	3931
2026-01-03 01:14:47.51	248.34	60.49	-44.9	-45.7	17.9	0.00e+00	0	57	0	242221056	51	4232
2026-01-03 01:14:48.50	247.81	60.16	-45.6	-46.5	17.1	0.00e+00	0	57	0	245366784	52	4372
2026-01-03 01:14:49.49	247.30	59.83	-46.1	-47.2	16.5	0.00e+00	0	57	0	248512512	54	4202
2026-01-03 01:14:50.48	246.80	59.50	-46.0	-47.1	16.5	0.00e+00	0	57	0	251658240	54	4157
2026-01-03 01:14:51.47	246.32	59.17	-45.8	-46.8	16.9	0.00e+00	0	57	0	254803968	54	4005
2026-01-03 01:14:52.45	245.85	58.84	-44.6	-45.3	18.2	0.00e+00	0	57	0	257949696	52	3823
2026-01-03 01:14:53.43	245.39	58.51	-44.0	-44.7	18.9	0.00e+00	0	57	0	261095424	51	3747
2026-01-03 01:14:54.42	244.94	58.18	-43.9	-44.6	19.0	0.00e+00	0	57	0	264241152	50	3937
2026-01-03 01:14:55.41	244.50	57.85	-44.3	-45.0	18.6	0.00e+00	0	57	0	267386880	50	4140
2026-01-03 01:14:56.40	244.07	57.52	-45.1	-45.9	17.8	0.00e+00	0	57	0	270532608	51	4319
2026-01-03 01:14:57.38	243.66	57.19	-45.6	-46.5	16.9	0.00e+00	0	57	0	273678336	52	4376
2026-01-03 01:14:58.36	243.25	56.87	-45.6	-46.6	16.8	0.00e+00	0	57	0	275775488	53	4172
2026-01-03 01:14:59.35	242.86	56.54	-45.2	-46.1	17.5	0.00e+00	0	57	0	278921216	53	3924
2026-01-03 01:15:00.35	242.46	56.21	-45.1	-46.0	17.6	0.00e+00	0	57	0	282066944	53	3874
2026-01-03 01:15:01.34	242.08	55.88	-45.4	-46.3	17.3	0.00e+00	0	57	0	285212672	53	4032
2026-01-03 01:15:02.33	241.71	55.55	-45.3	-46.3	17.4	0.00e+00	0	57	0	288358400	53	4011
2026-01-03 01:15:03.32	241.35	55.22	-45.6	-46.6	17.0	0.00e+00	0	57	0	291504128	53	4181
2026-01-03 01:15:04.32	240.99	54.89	-46.3	-47.3	16.3	0.00e+00	0	57	0	294649856	54	4289
2026-01-03 01:15:05.31	240.64	54.57	-46.7	-47.9	15.7	0.00e+00	0	57	0	297795584	55	4306
2026-01-03 01:15:06.30	240.31	54.25	-47.3	-48.7	15.1	0.00e+00	0	57	0	300941312	56	4461
2026-01-03 01:15:07.29	239.98	53.92	-47.4	-48.9	14.9	7.00e-07	0	57	0	304087040	56	4555
2026-01-03 01:15:08.29	239.65	53.60	-47.1	-48.3	15.3	0.00e+00	0	57	0	307232768	56	4283
2026-01-03 01:15:09.28	239.33	53.28	-46.4	-47.5	16.1	0.00e+00	0	57	0	310378496	56	3908
2026-01-03 01:15:10.26	239.03	52.96	-46.1	-47.1	16.5	0.00e+00	0	57	0	313524224	55	3936
2026-01-03 01:15:11.25	238.72	52.64	-46.1	-47.1	16.5	0.00e+00	0	57	0	316669952	55	3937
2026-01-03 01:15:12.23	238.43	52.33	-45.7	-46.6	16.9	0.00e+00	0	57	0	319815680	54	3937
2026-01-03 01:15:13.22	238.14	52.01	-45.9	-46.9	16.7	0.00e+00	0	57	0	322961408	54	4071
2026-01-03 01:15:14.21	237.86	51.70	-46.3	-47.4	16.2	0.00e+00	0	57	0	326107136	54	4301
2026-01-03 01:15:15.20	237.58	51.39	-46.6	-47.8	15.8	0.00e+00	0	57	0	329252864	55	4275
2026-01-03 01:15:16.19	237.31	51.07	-47.4	-48.7	15.1	0.00e+00	0	57	0	332398592	56	4464
2026-01-03 01:15:17.18	237.04	50.76	-47.9	-49.4	14.4	0.00e+00	0	57	0	335544320	57	4591
2026-01-03 01:15:18.17	236.78	50.45	-48.3	-50.0	13.8	3.00e-06	0	57	0	338690048	58	4608
2026-01-03 01:15:19.16	236.53	50.15	-48.3	-50.0	13.6	9.90e-06	0	57	0	340787200	58	4635
2026-01-03 01:15:20.16	236.27	49.84	-47.5	-48.9	14.8	0.00e+00	0	57	0	343932928	58	4071
2026-01-03 01:15:21.15	236.03	49.53	-46.6	-47.7	16.0	0.00e+00	0	57	0	347078656	56	3989
2026-01-03 01:15:22.14	235.79	49.23	-45.9	-46.9	16.7	0.00e+00	0	57	0	350224384	55	3842
2026-01-03 01:15:23.14	235.55	48.93	-46.2	-47.2	16.4	0.00e+00	0	57	0	353370112	54	4230
2026-01-03 01:15:24.13	235.32	48.63	-46.8	-48.1	15.6	0.00e+00	0	57	0	356515840	55	4394
2026-01-03 01:15:25.12	235.09	48.33	-47.4	-48.7	15.1	0.00e+00	0	57	0	359661568	56	4451
2026-01-03 01:15:26.10	234.87	48.03	-47.8	-49.3	14.5	7.00e-07	0	57	0	362807296	57	4523
2026-01-03 01:15:27.09	234.66	47.74	-48.2	-49.8	13.9	1.50e-06	0	57	0	365953024	58	4524
2026-01-03 01:15:28.08	234.44	47.44	-48.3	-50.0	13.7	9.10e-06	0	57	0	369098752	58	4651
2026-01-03 01:15:29.06	234.24	47.15	-48.3	-50.1	13.6	9.10e-06	0	57	0	372244480	58	4665
2026-01-03 01:15:30.04	234.03	46.87	-48.3	-50.0	13.6	3.80e-06	0	57	0	375390208	58	4642
2026-01-03 01:15:31.04	233.83	46.57	-48.5	-50.2	13.6	6.80e-06	0	57	0	378535936	58	4724
2026-01-03 01:15:32.03	233.63	46.29	-47.8	-49.2	14.5	7.00e-07	0	57	0	381681664	58	4241
2026-01-03 01:15:33.02	233.44	46.00	-47.0	-48.2	15.4	0.00e+00	0	57	0	384827392	57	3996
2026-01-03 01:15:34.01	233.25	45.72	-46.3	-47.3	16.3	0.00e+00	0	57	0	387973120	55	4036
2026-01-03 01:15:35.00	233.06	45.43	-45.8	-46.8	16.8	0.00e+00	0	57	0	391118848	54	4013
2026-01-03 01:15:35.99	232.87	45.15	-46.1	-47.1	16.5	0.00e+00	0	57	0	394264576	54	4175
2026-01-03 01:15:36.99	232.69	44.87	-46.6	-47.7	16.0	0.00e+00	0	57	0	397410304	54	4461
2026-01-03 01:15:37.98	232.51	44.59	-47.6	-49.0	14.7	0.00e+00	0	57	0	400556032	57	4379
2026-01-03 01:15:38.97	232.34	44.32	-48.3	-50.0	13.7	3.80e-06	0	57	0	403701760	58	4626
2026-01-03 01:15:39.96	232.17	44.04	-48.8	-50.6	13.1	2.05e-05	0	57	0	405798912	59	4683
2026-01-03 01:15:40.95	232.00	43.77	-48.9	-50.8	13.0	3.73e-05	0	57	0	408944640	59	4770
2026-01-03 01:15:41.94	231.83	43.50	-48.5	-50.2	13.5	1.06e-05	0	57	0	412090368	59	4475
2026-01-03 01:15:42.92	231.67	43.23	-47.9	-49.4	14.3	2.20e-06	0	57	0	415236096	59	4098
2026-01-03 01:15:43.91	231.51	42.96	-47.7	-49.2	14.6	0.00e+00	0	57	0	418381824	58	4200
2026-01-03 01:15:44.91	231.35	42.69	-47.8	-49.3	14.4	7.00e-07	0	57	0	421527552	58	4289
2026-01-03 01:15:45.89	231.20	42.43	-47.7	-49.1	14.6	0.00e+00	0	57	0	424673280	58	4181
2026-01-03 01:15:46.88	231.05	42.17	-47.8	-49.3	14.5	0.00e+00	0	57	0	427819008	58	4243
2026-01-03 01:15:47.87	230.90	41.91	-47.8	-49.3	14.5	1.50e-06	0	57	0	430964736	58	4257
2026-01-03 01:15:48.86	230.75	41.65	-47.7	-49.2	14.5	7.00e-07	0	57	0	434110464	58	4239
2026-01-03 01:15:49.85	230.61	41.39	-47.6	-49.0	14.8	0.00e+00	0	57	0	437256192	58	4117
2026-01-03 01:15:50.84	230.47	41.13	-47.5	-49.0	14.8	7.00e-07	0	57	0	440401920	58	4104
2026-01-03 01:15:51.82	230.33	40.88	-47.9	-49.4	14.3	7.00e-07	0	57	0	443547648	58	4336
2026-01-03 01:15:52.82	230.19	40.62	-48.4	-50.1	13.6	2.20e-06	0	57	0	446693376	58	4689
2026-01-03 01:15:53.82	230.05	40.37	-48.5	-50.2	13.5	1.14e-05	0	57	0	449839104	58	4743
2026-01-03 01:15:54.81	229.92	40.12	-49.1	-51.1	12.7	5.64e-05	0	57	0	452984832	60	4694
2026-01-03 01:15:55.80	229.79	39.87	-49.3	-51.4	12.3	1.59e-04	0	57	0	456130560	60	4820
2026-01-03 01:15:56.79	229.66	39.62	-49.8	-52.3	11.4	4.49e-04	0	57	0	459276288	61	5042
2026-01-03 01:15:57.77	229.53	39.38	-49.8	-52.3	11.4	1.01e-03	0	57	0	462422016	61	5045
2026-01-03 01:15:58.76	229.40	39.14	-50.0	-52.7	10.9	1.74e-03	0	57	0	464519168	61	5293
2026-01-03 01:15:59.75	229.28	38.89	-49.6	-52.0	11.7	8.10e-04	0	57	0	467664896	62	4603
2026-01-03 01:16:00.74	229.16	38.65	-48.7	-50.6	13.0	1.24e-04	0	57	0	470810624	60	4441
2026-01-03 01:16:01.73	229.04	38.41	-48.0	-49.5	14.3	5.30e-06	0	57	0	473956352	59	4111
2026-01-03 01:16:02.72	228.92	38.18	-47.4	-48.7	15.0	0.00e+00	0	57	0	477102080	58	4000
2026-01-03 01:16:03.71	228.80	37.94	-47.1	-48.4	15.2	0.00e+00	0	57	0	480247808	57	4083
2026-01-03 01:16:04.71	228.69	37.70	-47.1	-48.3	15.4	0.00e+00	0	57	0	483393536	57	4051
2026-01-03 01:16:05.70	228.58	37.47	-47.1	-48.3	15.4	0.00e+00	0	57	0	486539264	57	4051
2026-01-03 01:16:06.69	228.46	37.24	-46.9	-48.2	15.5	0.00e+00	0	57	0	489684992	57	3990
2026-01-03 01:16:07.67	228.36	37.01	-46.5	-47.7	16.0	0.00e+00	0	57	0	492830720	56	3981
2026-01-03 01:16:08.67	228.25	36.78	-46.0	-47.1	16.5	0.00e+00	0	57	0	495976448	55	3957
2026-01-03 01:16:09.65	228.14	36.55	-45.9	-47.0	16.6	0.00e+00	0	57	0	499122176	55	3888
2026-01-03 01:16:10.64	228.04	36.33	-46.1	-47.1	16.5	0.00e+00	0	57	0	502267904	55	3948
2026-01-03 01:16:11.63	227.93	36.10	-46.1	-47.2	16.4	0.00e+00	0	57	0	505413632	55	3964
2026-01-03 01:16:12.62	227.83	35.88	-46.1	-47.1	16.5	0.00e+00	0	57	0	508559360	55	3944
2026-01-03 01:16:13.61	227.73	35.66	-45.9	-47.0	16.7	0.00e+00	0	57	0	511705088	54	4101
2026-01-03 01:16:14.60	227.63	35.44	-45.9	-46.9	16.7	0.00e+00	0	57	0	514850816	54	4064
2026-01-03 01:16:15.59	227.53	35.22	-46.0	-47.1	16.5	0.00e+00	0	57	0	517996544	54	4157
2026-01-03 01:16:16.58	227.44	35.00	-46.0	-47.1	16.5	0.00e+00	0	57	0	521142272	54	4169
2026-01-03 01:16:17.56	227.34	34.79	-45.8	-46.8	16.8	0.00e+00	0	57	0	523239424	54	4031
2026-01-03 01:16:18.55	227.25	34.57	-45.7	-46.7	16.9	0.00e+00	0	57	0	526385152	54	3964
2026-01-03 01:16:19.54	227.16	34.36	-45.6	-46.6	17.0	0.00e+00	0	57	0	529530880	54	3914
2026-01-03 01:16:20.53	227.06	34.15	-45.5	-46.5	17.1	0.00e+00	0	57	0	532676608	54	3885
2026-01-03 01:16:21.52	226.97	33.94	-45.6	-46.6	17.0	0.00e+00	0	57	0	535822336	54	3923
2026-01-03 01:16:22.51	226.88	33.73	-45.7	-46.7	16.8	0.00e+00	0	57	0	538968064	54	3990
2026-01-03 01:16:23.50	226.80	33.52	-45.8	-46.8	16.7	0.00e+00	0	57	0	542113792	54	4045
2026-01-03 01:16:24.50	226.71	33.31	-45.9	-47.0	16.6	0.00e+00	0	57	0	545259520	54	4110
2026-01-03 01:16:25.49	226.62	33.11	-45.9	-46.9	16.7	0.00e+00	0	57	0	548405248	54	4080
2026-01-03 01:16:26.47	226.54	32.91	-46.0	-47.0	16.5	0.00e+00	0	57	0	551550976	54	4140
2026-01-03 01:16:27.46	226.46	32.70	-45.9	-47.0	16.5	0.00e+00	0	57	0	554696704	54	4124
2026-01-03 01:16:28.45	226.37	32.50	-45.9	-47.0	16.6	0.00e+00	0	57	0	557842432	54	4104
2026-01-03 01:16:29.44	226.29	32.30	-46.2	-47.3	16.2	0.00e+00	0	57	0	560988160	54	4278
2026-01-03 01:16:30.43	226.21	32.10	-46.3	-47.4	16.1	0.00e+00	0	57	0	564133888	54	4319
2026-01-03 01:16:31.42	226.13	31.90	-45.8	-46.8	16.7	0.00e+00	0	57	0	567279616	54	4048
2026-01-03 01:16:32.41	226.05	31.71	-45.7	-46.6	16.9	0.00e+00	0	57	0	570425344	54	3950
2026-01-03 01:16:33.39	225.98	31.52	-45.6	-46.5	17.0	0.00e+00	0	57	0	573571072	54	3911
2026-01-03 01:16:34.38	225.90	31.32	-45.7	-46.7	16.8	0.00e+00	0	57	0	576716800	54	3995
2026-01-03 01:16:35.38	225.83	31.13	-45.8	-46.9	16.7	0.00e+00	0	57	0	579862528	54	4065
2026-01-03 01:16:36.36	225.75	30.94	-46.0	-47.0	16.5	0.00e+00	0	57	0	581959680	54	4133
2026-01-03 01:16:37.35	225.68	30.75	-46.1	-47.2	16.4	0.00e+00	0	57	0	585105408	54	4228
2026-01-03 01:16:38.34	225.61	30.56	-46.1	-47.3	16.3	0.00e+00	0	57	0	588251136	54	4245
2026-01-03 01:16:39.32	225.53	30.37	-46.2	-47.3	16.3	0.00e+00	0	57	0	591396864	54	4268
2026-01-03 01:16:40.31	225.46	30.19	-46.1	-47.2	16.4	0.00e+00	0	57	0	594542592	54	4222
2026-01-03 01:16:41.30	225.39	30.00	-46.1	-47.2	16.4	0.00e+00	0	57	0	597688320	54	4212
2026-01-03 01:16:42.29	225.32	29.82	-46.1	-47.2	16.4	0.00e+00	0	57	0	600834048	54	4208
2026-01-03 01:16:43.28	225.26	29.63	-46.2	-47.3	16.2	0.00e+00	0	57	0	603979776	54	4290
2026-01-03 01:16:44.27	225.19	29.45	-46.3	-47.4	16.2	0.00e+00	0	57	0	607125504	54	4313
2026-01-03 01:16:45.26	225.12	29.27	-45.8	-46.8	16.8	0.00e+00	0	57	0	610271232	54	4041
2026-01-03 01:16:46.24	225.06	29.09	-45.4	-46.4	17.2	0.00e+00	0	57	0	613416960	54	3839
2026-01-03 01:16:47.24	224.99	28.91	-45.2	-46.1	17.4	0.00e+00	0	57	0	616562688	53	3933
2026-01-03 01:16:48.22	224.93	28.73	-45.0	-45.9	17.6	0.00e+00	0	57	0	619708416	53	3858
2026-01-03 01:16:49.21	224.86	28.56	-44.9	-45.8	17.7	0.00e+00	0	57	0	622854144	53	3785
2026-01-03 01:16:50.21	224.80	28.38	-44.7	-45.5	18.0	0.00e+00	0	57	0	625999872	52	3897
2026-01-03 01:16:51.20	224.74	28.21	-44.7	-45.6	17.9	0.00e+00	0	57	0	629145600	52	3918
2026-01-03 01:16:52.20	224.67	28.03	-44.5	-45.3	18.2	0.00e+00	0	57	0	632291328	52	3788
2026-01-03 01:16:53.19	224.61	27.86	-44.5	-45.2	18.3	0.00e+00	0	57	0	635437056	51	3993
2026-01-03 01:16:54.18	224.55	27.69	-44.5	-45.2	18.3	0.00e+00	0	57	0	638582784	51	3990
2026-01-03 01:16:55.17	224.49	27.52	-44.4	-45.1	18.4	0.00e+00	0	57	0	641728512	51	3939
2026-01-03 01:16:56.16	224.43	27.35	-44.3	-45.1	18.4	0.00e+00	0	57	0	643825664	51	3945
2026-01-03 01:16:57.15	224.38	27.18	-44.4	-45.2	18.4	0.00e+00	0	57	0	646971392	51	3981
2026-01-03 01:16:58.14	224.32	27.01	-44.4	-45.2	18.3	0.00e+00	0	57	0	650117120	51	3991
2026-01-03 01:16:59.13	224.26	26.84	-44.3	-45.1	18.5	0.00e+00	0	57	0	653262848	51	3916
2026-01-03 01:17:00.12	224.21	26.68	-44.3	-45.0	18.5	0.00e+00	0	57	0	656408576	51	3913
2026-01-03 01:17:01.10	224.15	26.52	-44.5	-45.3	18.3	0.00e+00	0	57	0	659554304	51	4021
2026-01-03 01:17:02.10	224.09	26.35	-44.6	-45.4	18.2	0.00e+00	0	57	0	662700032	51	4063
2026-01-03 01:17:03.09	224.04	26.19	-44.8	-45.7	17.9	0.00e+00	0	57	0	665845760	51	4200
2026-01-03 01:17:04.07	223.99	26.03	-44.9	-45.8	17.8	0.00e+00	0	57	0	668991488	51	4244
2026-01-03 01:17:05.06	223.93	25.87	-45.0	-45.8	17.8	0.00e+00	0	57	0	672137216	51	4286
2026-01-03 01:17:06.05	223.88	25.71	-45.1	-46.0	17.5	0.00e+00	0	57	0	675282944	52	4107
2026-01-03 01:17:07.04	223.83	25.55	-45.1	-46.0	17.5	0.00e+00	0	57	0	678428672	52	4106
2026-01-03 01:17:08.03	223.78	25.39	-45.3	-46.2	17.3	0.00e+00	0	57	0	681574400	52	4236
2026-01-03 01:17:09.03	223.73	25.23	-45.2	-46.1	17.4	0.00e+00	0	57	0	684720128	52	4170
2026-01-03 01:17:10.01	223.68	25.08	-45.2	-46.1	17.3	0.00e+00	0	57	0	687865856	52	4192
2026-01-03 01:17:10.98	223.63	24.93	-45.3	-46.2	17.3	0.00e+00	0	57	0	691011584	52	4228
2026-01-03 01:17:11.97	223.58	24.77	-45.3	-46.3	17.2	0.00e+00	0	57	0	694157312	52	4259
2026-01-03 01:17:12.96	223.53	24.62	-45.5	-46.5	17.0	0.00e+00	0	57	0	696254464	52	4350
2026-01-03 01:17:13.95	223.48	24.47	-45.5	-46.5	17.0	0.00e+00	0	57	0	699400192	52	4355
2026-01-03 01:17:14.94	223.43	24.31	-45.5	-46.5	16.9	0.00e+00	0	57	0	702545920	53	4136
2026-01-03 01:17:15.93	223.38	24.16	-45.5	-46.5	17.0	0.00e+00	0	57	0	705691648	53	4120
2026-01-03 01:17:16.92	223.34	24.01	-45.7	-46.7	16.8	0.00e+00	0	57	0	708837376	53	4229
2026-01-03 01:17:17.91	223.29	23.86	-45.7	-46.7	16.8	0.00e+00	0	57	0	711983104	53	4238
2026-01-03 01:17:18.89	223.24	23.72	-45.7	-46.7	16.8	0.00e+00	0	57	0	715128832	53	4238
2026-01-03 01:17:19.88	223.20	23.57	-45.8	-46.8	16.7	0.00e+00	0	57	0	718274560	53	4291
2026-01-03 01:17:20.88	223.15	23.42	-45.7	-46.7	16.7	0.00e+00	0	57	0	721420288	53	4242
2026-01-03 01:17:21.86	223.11	23.28	-45.6	-46.6	16.9	0.00e+00	0	57	0	724566016	53	4186
2026-01-03 01:17:22.86	223.06	23.13	-45.7	-46.7	16.8	0.00e+00	0	57	0	727711744	53	4204
2026-01-03 01:17:23.85	223.02	22.99	-45.5	-46.5	16.9	0.00e+00	0	57	0	730857472	53	4134
2026-01-03 01:17:24.83	222.98	22.84	-45.6	-46.6	16.8	0.00e+00	0	57	0	734003200	53	4176
2026-01-03 01:17:25.82	222.93	22.70	-45.9	-46.9	16.5	0.00e+00	0	57	0	737148928	53	4336
2026-01-03 01:17:26.81	222.89	22.56	-45.7	-46.8	16.7	0.00e+00	0	57	0	740294656	53	4252
2026-01-03 01:17:27.80	222.85	22.42	-45.4	-46.4	17.0	0.00e+00	0	57	0	743440384	53	4075
2026-01-03 01:17:28.78	222.81	22.28	-45.2	-46.1	17.3	0.00e+00	0	57	0	746586112	53	3946
2026-01-03 01:17:29.78	222.77	22.14	-45.1	-46.0	17.4	0.00e+00	0	57	0	749731840	53	3888
2026-01-03 01:17:30.76	222.73	22.00	-45.1	-46.0	17.4	0.00e+00	0	57	0	752877568	53	3895
2026-01-03 01:17:31.75	222.68	21.86	-45.2	-46.1	17.3	0.00e+00	0	57	0	756023296	53	3941
2026-01-03 01:17:32.74	222.64	21.72	-45.3	-46.2	17.2	0.00e+00	0	57	0	759169024	53	3987
2026-01-03 01:17:33.73	222.60	21.59	-45.2	-46.1	17.3	0.00e+00	0	57	0	761266176	53	3952
2026-01-03 01:17:34.73	222.56	21.45	-45.3	-46.3	17.1	0.00e+00	0	57	0	764411904	53	4044
2026-01-03 01:17:35.72	222.53	21.31	-45.5	-46.5	16.9	0.00e+00	0	57	0	767557632	53	4114
2026-01-03 01:17:36.71	222.49	21.18	-45.4	-46.4	17.0	0.00e+00	0	57	0	770703360	53	4085
2026-01-03 01:17:37.69	222.45	21.05	-45.4	-46.4	17.1	0.00e+00	0	57	0	773849088	53	4065
2026-01-03 01:17:38.68	222.41	20.91	-45.6	-46.7	16.8	0.00e+00	0	57	0	776994816	53	4197
2026-01-03 01:17:39.68	222.37	20.78	-45.6	-46.6	16.8	0.00e+00	0	57	0	780140544	53	4164
2026-01-03 01:17:40.66	222.34	20.65	-45.4	-46.3	17.1	0.00e+00	0	57	0	783286272	53	4047
2026-01-03 01:17:41.66	222.30	20.52	-45.3	-46.3	17.1	0.00e+00	0	57	0	786432000	53	4030
2026-01-03 01:17:42.65	222.26	20.38	-45.3	-46.2	17.2	0.00e+00	0	57	0	789577728	53	3995
2026-01-03 01:17:43.64	222.23	20.26	-45.2	-46.1	17.2	0.00e+00	0	57	0	792723456	53	3958
2026-01-03 01:17:44.62	222.19	20.13	-45.1	-46.0	17.3	0.00e+00	0	57	0	795869184	53	3908
2026-01-03 01:17:45.62	222.15	20.00	-45.1	-46.0	17.4	0.00e+00	0	57	0	799014912	53	3891
2026-01-03 01:17:46.60	222.12	19.87	-45.2	-46.1	17.3	0.00e+00	0	57	0	802160640	53	3937
2026-01-03 01:17:47.60	222.08	19.74	-45.4	-46.3	17.0	0.00e+00	0	57	0	805306368	53	4046
2026-01-03 01:17:48.59	222.05	19.62	-45.3	-46.3	17.1	0.00e+00	0	57	0	808452096	53	4021
2026-01-03 01:17:49.57	222.02	19.49	-45.3	-46.2	17.1	0.00e+00	0	57	0	811597824	53	3989
2026-01-03 01:17:50.56	221.98	19.36	-45.4	-46.5	16.9	0.00e+00	0	57	0	814743552	53	4099
2026-01-03 01:17:51.55	221.95	19.24	-45.5	-46.5	16.9	0.00e+00	0	57	0	817889280	53	4108
2026-01-03 01:17:52.55	221.91	19.11	-45.5	-46.5	16.9	0.00e+00	0	57	0	821035008	53	4101
2026-01-03 01:17:53.54	221.88	18.99	-45.8	-46.8	16.6	0.00e+00	0	57	0	823132160	53	4268
2026-01-03 01:17:54.53	221.85	18.87	-45.9	-46.9	16.4	0.00e+00	0	57	0	826277888	53	4330
2026-01-03 01:17:55.52	221.82	18.75	-45.6	-46.6	16.8	0.00e+00	0	57	0	829423616	53	4174
2026-01-03 01:17:56.51	221.78	18.62	-45.5	-46.5	16.8	0.00e+00	0	57	0	832569344	53	4131
2026-01-03 01:17:57.50	221.75	18.50	-45.5	-46.5	16.8	0.00e+00	0	57	0	835715072	53	4138
2026-01-03 01:17:58.49	221.72	18.38	-45.6	-46.6	16.8	0.00e+00	0	57	0	838860800	53	4165
2026-01-03 01:17:59.48	221.69	18.26	-45.6	-46.6	16.7	0.00e+00	0	57	0	842006528	53	4193
2026-01-03 01:18:00.47	221.66	18.14	-45.6	-46.7	16.7	0.00e+00	0	57	0	845152256	53	4200
2026-01-03 01:18:01.46	221.63	18.02	-45.7	-46.8	16.6	0.00e+00	0	57	0	848297984	53	4255
2026-01-03 01:18:02.44	221.60	17.91	-45.8	-46.9	16.5	0.00e+00	0	57	0	851443712	53	4304
2026-01-03 01:18:03.43	221.57	17.79	-45.9	-46.9	16.4	0.00e+00	0	57	0	854589440	53	4338
2026-01-03 01:18:04.42	221.54	17.67	-45.9	-47.0	16.3	0.00e+00	0	57	0	857735168	53	4388
2026-01-03 01:18:05.41	221.51	17.55	-46.1	-47.2	16.1	0.00e+00	0	57	0	860880896	54	4221
2026-01-03 01:18:06.40	221.48	17.44	-45.9	-47.0	16.3	0.00e+00	0	57	0	864026624	54	4112
2026-01-03 01:18:07.39	221.45	17.32	-45.8	-46.9	16.4	0.00e+00	0	57	0	867172352	54	4086
2026-01-03 01:18:08.38	221.42	17.21	-45.9	-47.0	16.3	0.00e+00	0	57	0	870318080	54	4130
2026-01-03 01:18:09.37	221.39	17.09	-46.0	-47.1	16.3	0.00e+00	0	57	0	873463808	54	4154
2026-01-03 01:18:10.36	221.36	16.98	-46.1	-47.2	16.1	0.00e+00	0	57	0	876609536	54	4229
2026-01-03 01:18:11.34	221.33	16.87	-46.2	-47.3	16.0	0.00e+00	0	57	0	879755264	54	4286
2026-01-03 01:18:12.33	221.30	16.75	-46.4	-47.6	15.7	0.00e+00	0	57	0	882900992	54	4404
2026-01-03 01:18:13.32	221.28	16.64	-46.4	-47.5	15.8	0.00e+00	0	57	0	884998144	54	4390
2026-01-03 01:18:14.31	221.25	16.53	-46.5	-47.7	15.6	0.00e+00	0	57	0	888143872	54	4477
2026-01-03 01:18:15.30	221.22	16.42	-46.5	-47.8	15.6	0.00e+00	0	57	0	891289600	54	4498
2026-01-03 01:18:16.29	221.19	16.31	-46.6	-47.9	15.4	0.00e+00	0	57	0	894435328	55	4301
2026-01-03 01:18:17.28	221.17	16.20	-46.6	-47.9	15.4	0.00e+00	0	57	0	897581056	55	4310
2026-01-03 01:18:18.27	221.14	16.09	-46.8	-48.1	15.2	0.00e+00	0	57	0	900726784	55	4415
2026-01-03 01:18:19.25	221.11	15.98	-47.0	-48.3	14.9	0.00e+00	0	57	0	903872512	55	4542
2026-01-03 01:18:20.24	221.09	15.87	-46.9	-48.2	15.1	7.00e-07	0	57	0	907018240	55	4477
2026-01-03 01:18:21.23	221.06	15.76	-47.0	-48.4	14.8	0.00e+00	0	57	0	910163968	55	4598
2026-01-03 01:18:22.22	221.04	15.65	-47.4	-48.9	14.5	0.00e+00	0	57	0	913309696	56	4570
2026-01-03 01:18:23.21	221.01	15.54	-47.2	-48.7	14.7	0.00e+00	0	57	0	916455424	56	4447
2026-01-03 01:18:24.20	220.99	15.44	-47.1	-48.5	14.8	7.00e-07	0	57	0	919601152	56	4389
2026-01-03 01:18:25.19	220.96	15.33	-47.1	-48.5	14.9	0.00e+00	0	57	0	922746880	56	4345
2026-01-03 01:18:26.17	220.94	15.23	-47.1	-48.5	14.8	0.00e+00	0	57	0	925892608	56	4383
2026-01-03 01:18:27.16	220.91	15.12	-47.3	-48.7	14.6	0.00e+00	0	57	0	929038336	56	4490
2026-01-03 01:18:28.15	220.89	15.01	-47.2	-48.7	14.7	0.00e+00	0	57	0	932184064	56	4461
2026-01-03 01:18:29.14	220.86	14.91	-47.3	-48.8	14.6	0.00e+00	0	57	0	935329792	56	4510
2026-01-03 01:18:30.12	220.84	14.81	-47.2	-48.7	14.7	1.50e-06	0	57	0	938475520	56	4454
2026-01-03 01:18:31.11	220.81	14.70	-47.2	-48.6	14.7	0.00e+00	0	57	0	940572672	56	4432
2026-01-03 01:18:32.10	220.79	14.60	-47.2	-48.6	14.7	0.00e+00	0	57	0	943718400	56	4438
2026-01-03 01:18:33.09	220.77	14.49	-47.2	-48.7	14.6	0.00e+00	0	57	0	946864128	56	4465
2026-01-03 01:18:34.08	220.74	14.39	-47.3	-48.8	14.6	7.00e-07	0	57	0	950009856	56	4495
2026-01-03 01:18:35.08	220.72	14.29	-47.3	-48.8	14.5	0.00e+00	0	57	0	953155584	56	4520
2026-01-03 01:18:36.07	220.70	14.19	-47.5	-49.1	14.3	7.00e-07	0	57	0	956301312	56	4655
2026-01-03 01:18:37.05	220.67	14.09	-47.4	-48.9	14.4	7.00e-07	0	57	0	959447040	56	4552
2026-01-03 01:18:38.04	220.65	13.99	-47.3	-48.8	14.5	1.50e-06	0	57	0	962592768	56	4505
2026-01-03 01:18:39.03	220.63	13.88	-47.3	-48.8	14.5	0.00e+00	0	57	0	965738496	56	4503
2026-01-03 01:18:40.02	220.60	13.78	-47.2	-48.8	14.5	0.00e+00	0	57	0	968884224	56	4496
2026-01-03 01:18:41.00	220.58	13.69	-47.3	-48.9	14.4	0.00e+00	0	57	0	972029952	56	4549
2026-01-03 01:18:42.00	220.56	13.59	-47.4	-48.9	14.3	7.00e-07	0	57	0	975175680	56	4589
2026-01-03 01:18:42.98	220.54	13.49	-47.3	-48.8	14.4	0.00e+00	0	57	0	978321408	56	4542
2026-01-03 01:18:43.97	220.52	13.39	-47.2	-48.7	14.6	0.00e+00	0	57	0	981467136	56	4449
2026-01-03 01:18:44.96	220.50	13.29	-47.2	-48.7	14.5	0.00e+00	0	57	0	984612864	56	4468
2026-01-03 01:18:45.95	220.47	13.19	-47.4	-48.9	14.4	0.00e+00	0	57	0	987758592	56	4551
2026-01-03 01:18:46.93	220.45	13.10	-47.6	-49.2	14.0	1.50e-06	0	57	0	990904320	56	4726
2026-01-03 01:18:47.93	220.43	13.00	-47.5	-49.1	14.1	4.50e-06	0	57	0	994050048	57	4427
2026-01-03 01:18:48.92	220.41	12.90	-47.5	-49.0	14.2	7.00e-07	0	57	0	997195776	57	4381
2026-01-03 01:18:49.91	220.39	12.81	-47.4	-49.1	14.1	7.00e-07	0	57	0	999292928	57	4411
2026-01-03 01:18:50.90	220.37	12.71	-47.6	-49.3	13.9	1.50e-06	0	57	0	1002438656	57	4496
2026-01-03 01:18:51.88	220.35	12.61	-47.6	-49.2	13.9	3.80e-06	0	57	0	1005584384	57	4471
2026-01-03 01:18:52.88	220.33	12.52	-47.6	-49.3	13.9	5.30e-06	0	57	0	1008730112	57	4503
2026-01-03 01:18:53.87	220.31	12.42	-47.7	-49.4	13.8	3.00e-06	0	57	0	1011875840	57	4564
2026-01-03 01:18:54.86	220.29	12.33	-47.9	-49.7	13.5	1.06e-05	0	57	0	1015021568	57	4710
2026-01-03 01:18:55.85	220.27	12.24	-47.8	-49.5	13.6	4.50e-06	0	57	0	1018167296	57	4643
2026-01-03 01:18:56.84	220.25	12.14	-47.6	-49.2	13.9	6.80e-06	0	57	0	1021313024	57	4490
2026-01-03 01:18:57.82	220.23	12.05	-47.5	-49.0	14.1	3.00e-06	0	57	0	1024458752	57	4384
2026-01-03 01:18:58.81	220.21	11.96	-47.4	-49.0	14.2	2.20e-06	0	57	0	1027604480	57	4346
2026-01-03 01:18:59.80	220.19	11.86	-47.4	-49.0	14.2	1.50e-06	0	57	0	1030750208	57	4345
2026-01-03 01:19:00.80	220.17	11.77	-47.6	-49.2	13.9	2.20e-06	0	57	0	1033895936	57	4468
2026-01-03 01:19:01.79	220.15	11.68	-47.6	-49.2	13.9	3.00e-06	0	57	0	1037041664	57	4491
2026-01-03 01:19:02.79	220.13	11.59	-47.6	-49.2	13.8	3.00e-06	0	57	0	1040187392	57	4490
2026-01-03 01:19:03.78	220.11	11.49	-47.6	-49.3	13.8	1.50e-06	0	57	0	1043333120	57	4514
2026-01-03 01:19:04.77	220.10	11.40	-47.6	-49.3	13.7	2.20e-06	0	57	0	1046478848	57	4534
2026-01-03 01:19:05.76	220.08	11.31	-47.7	-49.4	13.6	6.80e-06	0	57	0	1049624576	57	4588
2026-01-03 01:19:06.75	220.06	11.22	-47.7	-49.5	13.6	8.30e-06	0	57	0	1052770304	57	4602
2026-01-03 01:19:07.74	220.04	11.13	-47.8	-49.6	13.5	9.10e-06	0	57	0	1055916032	57	4655
2026-01-03 01:19:08.73	220.02	11.04	-47.9	-49.7	13.3	1.52e-05	0	57	0	1059061760	57	4735
2026-01-03 01:19:09.72	220.00	10.95	-48.0	-49.8	13.2	2.21e-05	0	57	0	1062207488	57	4779
2026-01-03 01:19:10.71	219.99	10.86	-48.0	-49.8	13.2	2.59e-05	0	57	0	1064304640	57	4795
2026-01-03 01:19:11.71	219.97	10.77	-48.1	-50.0	13.0	4.50e-05	0	57	0	1067450368	57	4877
2026-01-03 01:19:12.70	219.95	10.69	-48.1	-49.9	13.1	3.43e-05	0	57	0	1070596096	58	4588
2026-01-03 01:19:13.69	219.93	10.60	-47.9	-49.8	13.2	2.82e-05	0	57	0	1073741824	58	4507
2026-01-03 01:19:14.68	219.92	10.51	-47.9	-49.7	13.4	1.75e-05	0	57	0	1076887552	58	4443
2026-01-03 01:19:15.67	219.90	10.42	-47.8	-49.5	13.5	9.90e-06	0	57	0	1080033280	58	4363
2026-01-03 01:19:16.67	219.88	10.33	-47.8	-49.6	13.4	1.29e-05	0	57	0	1083179008	58	4408
2026-01-03 01:19:17.66	219.87	10.25	-47.8	-49.6	13.4	1.83e-05	0	57	0	1086324736	58	4439
2026-01-03 01:19:18.65	219.85	10.16	-47.8	-49.6	13.4	1.06e-05	0	57	0	1089470464	58	4397
2026-01-03 01:19:19.64	219.83	10.08	-47.8	-49.6	13.4	1.60e-05	0	57	0	1092616192	58	4399
2026-01-03 01:19:20.63	219.82	9.99	-47.8	-49.6	13.4	1.52e-05	0	57	0	1095761920	58	4432
2026-01-03 01:19:21.61	219.80	9.90	-47.9	-49.8	13.2	1.75e-05	0	57	0	1098907648	58	4494
2026-01-03 01:19:22.60	219.78	9.82	-47.9	-49.8	13.2	3.12e-05	0	57	0	1102053376	58	4517
2026-01-03 01:19:23.59	219.77	9.73	-48.0	-49.9	13.1	3.05e-05	0	57	0	1105199104	58	4579
2026-01-03 01:19:24.58	219.75	9.65	-48.0	-50.0	13.0	5.03e-05	0	57	0	1108344832	58	4615
2026-01-03 01:19:25.58	219.73	9.56	-48.0	-50.0	13.0	4.34e-05	0	57	0	1111490560	58	4611
2026-01-03 01:19:26.57	219.72	9.48	-47.9	-49.9	13.1	2.36e-05	0	57	0	1114636288	58	4567
2026-01-03 01:19:27.56	219.70	9.40	-48.1	-50.0	13.0	3.05e-05	0	57	0	1117782016	58	4619
2026-01-03 01:19:28.54	219.69	9.31	-48.1	-50.0	12.9	4.88e-05	0	57	0	1120927744	58	4636
2026-01-03 01:19:29.53	219.67	9.23	-48.1	-50.0	12.9	3.89e-05	0	57	0	1124073472	58	4633
2026-01-03 01:19:30.52	219.66	9.15	-48.1	-50.1	12.8	4.95e-05	0	57	0	1127219200	58	4671
2026-01-03 01:19:31.50	219.64	9.06	-48.1	-50.0	12.9	5.95e-05	0	57	0	1129316352	58	4614
2026-01-03 01:19:32.49	219.63	8.98	-48.0	-49.9	13.1	3.96e-05	0	57	0	1132462080	58	4555
2026-01-03 01:19:33.48	219.61	8.90	-48.0	-49.9	13.0	2.74e-05	0	57	0	1135607808	58	4559
2026-01-03 01:19:34.47	219.60	8.82	-48.1	-50.1	12.8	4.95e-05	0	57	0	1138753536	58	4656
2026-01-03 01:19:35.46	219.58	8.74	-48.2	-50.2	12.7	8.16e-05	0	57	0	1141899264	58	4715
2026-01-03 01:19:36.45	219.57	8.65	-48.2	-50.1	12.8	5.34e-05	0	57	0	1145044992	58	4690
2026-01-03 01:19:37.44	219.55	8.57	-48.2	-50.2	12.7	8.69e-05	0	57	0	1148190720	58	4725
2026-01-03 01:19:38.43	219.54	8.49	-48.2	-50.3	12.6	8.69e-05	0	57	0	1151336448	58	4774
2026-01-03 01:19:39.42	219.52	8.41	-48.3	-50.4	12.5	1.37e-04	0	57	0	1154482176	58	4826
2026-01-03 01:19:40.41	219.51	8.33	-48.2	-50.2	12.7	9.00e-05	0	57	0	1157627904	58	4719
2026-01-03 01:19:41.40	219.49	8.25	-48.1	-50.1	12.7	7.32e-05	0	57	0	1160773632	58	4683
2026-01-03 01:19:42.39	219.48	8.17	-48.2	-50.2	12.6	8.46e-05	0	57	0	1163919360	58	4747
2026-01-03 01:19:43.38	219.46	8.09	-48.2	-50.3	12.6	1.09e-04	0	57	0	1167065088	58	4780
2026-01-03 01:19:44.37	219.45	8.01	-48.3	-50.4	12.5	1.09e-04	0	57	0	1170210816	58	4823
2026-01-03 01:19:45.36	219.44	7.93	-48.4	-50.5	12.3	1.68e-04	0	57	0	1173356544	58	4892
2026-01-03 01:19:46.36	219.42	7.85	-48.4	-50.4	12.4	1.20e-04	0	57	0	1176502272	58	4864
2026-01-03 01:19:47.35	219.41	7.77	-48.4	-50.6	12.2	1.90e-04	0	57	0	1179648000	58	4943
2026-01-03 01:19:48.34	219.39	7.70	-48.3	-50.4	12.4	1.54e-04	0	57	0	1182793728	58	4851
2026-01-03 01:19:49.33	219.38	7.62	-48.2	-50.3	12.4	1.23e-04	0	57	0	1185939456	58	4812
2026-01-03 01:19:50.32	219.37	7.54	-48.3	-50.4	12.4	1.41e-04	0	57	0	1189085184	58	4823
2026-01-03 01:19:51.31	219.35	7.46	-48.3	-50.4	12.3	1.55e-04	0	57	0	1191182336	58	4849
2026-01-03 01:19:52.30	219.34	7.38	-48.4	-50.5	12.2	1.94e-04	0	57	0	1194328064	58	4915
2026-01-03 01:19:53.30	219.33	7.31	-48.5	-50.7	12.1	3.23e-04	0	57	0	1197473792	58	4993
2026-01-03 01:19:54.29	219.31	7.23	-48.4	-50.5	12.2	2.10e-04	0	57	0	1200619520	58	4918
2026-01-03 01:19:55.29	219.30	7.15	-48.4	-50.5	12.2	2.14e-04	0	57	0	1203765248	58	4922
2026-01-03 01:19:56.27	219.29	7.08	-48.5	-50.7	12.0	2.77e-04	0	57	0	1206910976	58	5038
2026-01-03 01:19:57.27	219.28	7.00	-48.5	-50.8	11.8	4.61e-04	0	57	0	1210056704	58	5080
2026-01-03 01:19:58.26	219.26	6.92	-48.5	-50.8	11.9	3.79e-04	0	57	0	1213202432	58	5049
2026-01-03 01:19:59.25	219.25	6.85	-48.6	-50.9	11.8	4.42e-04	0	57	0	1216348160	58	5112
2026-01-03 01:20:00.24	219.24	6.77	-48.6	-51.0	11.6	6.56e-04	0	57	0	1219493888	59	4904
2026-01-03 01:20:01.23	219.22	6.70	-48.6	-51.0	11.7	6.11e-04	0	57	0	1222639616	59	4881
2026-01-03 01:20:02.21	219.21	6.62	-48.7	-51.2	11.4	1.11e-03	0	57	0	1225785344	59	5020
2026-01-03 01:20:03.20	219.20	6.55	-48.7	-51.1	11.5	8.77e-04	0	57	0	1228931072	59	4958
2026-01-03 01:20:04.20	219.19	6.47	-48.6	-51.0	11.6	7.08e-04	0	57	0	1232076800	59	4900
2026-01-03 01:20:05.20	219.17	6.39	-48.6	-51.1	11.5	7.88e-04	0	57	0	1235222528	59	4963
2026-01-03 01:20:06.19	219.16	6.32	-48.8	-51.4	11.1	1.67e-03	0	57	0	1238368256	59	5149
2026-01-03 01:20:07.18	219.15	6.25	-48.7	-51.2	11.4	1.05e-03	0	57	0	1241513984	59	4987
2026-01-03 01:20:08.17	219.14	6.17	-48.7	-51.1	11.5	8.70e-04	0	57	0	1244659712	59	4947
2026-01-03 01:20:09.15	219.13	6.10	-48.7	-51.1	11.5	9.87e-04	0	57	0	1247805440	59	4953
2026-01-03 01:20:10.15	219.11	6.02	-48.8	-51.2	11.3	9.49e-04	0	57	0	1250951168	59	5022
2026-01-03 01:20:11.14	219.10	5.95	-48.8	-51.4	11.2	1.53e-03	0	57	0	1254096896	59	5102
2026-01-03 01:20:12.13	219.09	5.88	-48.8	-51.3	11.2	1.44e-03	0	57	0	1257242624	59	5047
2026-01-03 01:20:13.12	219.08	5.81	-48.8	-51.5	11.0	1.84e-03	0	57	0	1260388352	59	5199
2026-01-03 01:20:14.11	219.07	5.73	-48.9	-51.5	11.0	1.68e-03	0	57	0	1262485504	59	5160
2026-01-03 01:20:15.10	219.06	5.66	-48.9	-51.6	10.9	2.27e-03	0	57	0	1265631232	59	5240
2026-01-03 01:20:16.09	219.05	5.59	-48.9	-51.4	11.0	1.88e-03	0	57	0	1268776960	59	5155
2026-01-03 01:20:17.08	219.03	5.52	-49.0	-51.7	10.8	2.51e-03	0	57	0	1271922688	59	5303
2026-01-03 01:20:18.07	219.02	5.44	-49.1	-52.0	10.4	3.42e-03	0	57	0	1275068416	60	5187
2026-01-03 01:20:19.06	219.01	5.37	-49.3	-52.4	10.0	7.48e-03	0	57	0	1278214144	60	5410
2026-01-03 01:20:20.04	219.00	5.30	-49.1	-52.1	10.2	6.06e-03	0	57	0	1281359872	60	5271
2026-01-03 01:20:21.02	218.99	5.23	-49.2	-52.2	10.2	6.46e-03	0	57	0	1284505600	60	5282
2026-01-03 01:20:22.02	218.98	5.16	-49.2	-52.2	10.2	6.09e-03	0	57	0	1287651328	60	5299
2026-01-03 01:20:23.01	218.97	5.09	-49.3	-52.4	9.9	8.50e-03	0	57	0	1290797056	60	5460
2026-01-03 01:20:24.00	218.96	5.02	-51.0	-57.0	5.8	8.56e-02	0	57	0	1293942784	64	7357
2026-01-03 01:20:24.98	218.95	4.95	-51.8	-63.3	3.8	1.49e+00	0	57	104	1293942784	65	14351
2026-01-03 01:20:25.96	218.94	4.88	-52.2	-63.7	3.8	1.49e+00	0	57	104	1293942784	66	14195
2026-01-03 01:20:26.95	218.92	4.81	-52.9	-64.4	3.8	1.49e+00	0	57	104	1293942784	67	14466
2026-01-03 01:20:27.93	218.91	4.74	-53.0	-64.5	3.8	1.49e+00	0	57	104	1293942784	67	14693
2026-01-03 01:20:28.91	218.90	4.67	-53.1	-64.6	3.8	1.49e+00	0	57	104	1293942784	68	14041
2026-01-03 01:20:29.90	218.89	4.60	-53.2	-64.7	3.8	1.49e+00	0	57	104	1293942784	68	14186
2026-01-03 01:20:30.89	218.88	4.53	-52.7	-64.3	3.8	1.49e+00	0	57	104	1293942784	68	13416
2026-01-03 01:20:31.88	218.87	4.46	-53.3	-64.8	3.8	1.49e+00	0	57	104	1293942784	68	14296
2026-01-03 01:20:32.87	218.86	4.39	-53.4	-64.9	3.8	1.49e+00	0	57	104	1293942784	68	14375
2026-01-03 01:20:33.87	218.85	4.32	-53.4	-64.9	3.8	1.49e+00	0	57	104	1293942784	68	14387
2026-01-03 01:20:34.86	218.84	4.25	-53.2	-64.8	3.8	1.49e+00	0	57	104	1293942784	68	14370
2026-01-03 01:20:35.84	218.83	4.18	-53.2	-64.8	3.8	1.49e+00	0	57	104	1293942784	68	14359
2026-01-03 01:20:36.83	218.82	4.11	-53.4	-64.9	3.8	1.49e+00	0	57	104	1293942784	68	14472
2026-01-03 01:20:37.83	218.81	4.05	-53.4	-64.9	3.8	1.49e+00	0	57	104	1293942784	68	14520
2026-01-03 01:20:38.81	218.80	3.98	-53.4	-64.9	3.8	1.49e+00	0	57	104	1293942784	68	14470
2026-01-03 01:20:39.81	218.79	3.91	-53.4	-64.9	3.8	1.49e+00	0	57	104	1293942784	68	14488
2026-01-03 01:20:40.79	218.78	3.84	-53.4	-64.9	3.8	1.49e+00	0	57	104	1293942784	68	14534
2026-01-03 01:20:41.78	218.77	3.77	-53.4	-65.0	3.8	1.49e+00	0	57	104	1293942784	68	14585
2026-01-03 01:20:42.77	218.76	3.71	-53.5	-65.0	3.8	1.49e+00	0	57	104	1293942784	68	14631
2026-01-03 01:20:43.76	218.75	3.64	-53.5	-65.0	3.8	1.49e+00	0	57	104	1293942784	68	14595
2026-01-03 01:20:44.75	218.74	3.57	-53.4	-65.0	3.8	1.49e+00	0	57	104	1293942784	68	14630
2026-01-03 01:20:45.73	218.73	3.51	-53.5	-65.0	3.8	1.49e+00	0	57	104	1293942784	68	14663
2026-01-03 01:20:46.72	218.73	3.44	-53.5	-65.0	3.8	1.49e+00	0	57	104	1293942784	68	14679
2026-01-03 01:20:47.72	218.72	3.37	-53.6	-65.0	3.8	1.49e+00	0	57	104	1293942784	68	14651
2026-01-03 01:20:48.71	218.71	3.31	-53.5	-65.0	3.8	1.49e+00	0	57	104	1293942784	68	14682
2026-01-03 01:20:49.70	218.70	3.24	-53.5	-65.0	3.8	1.49e+00	0	57	104	1293942784	68	14692
2026-01-03 01:20:50.68	218.69	3.17	-53.5	-65.0	3.8	1.49e+00	0	57	104	1293942784	68	14689
2026-01-03 01:20:51.68	218.68	3.11	-53.6	-65.0	3.8	1.49e+00	0	57	104	1293942784	68	14672
2026-01-03 01:20:52.68	218.67	3.04	-53.5	-65.0	3.8	1.49e+00	0	57	104	1293942784	68	14630
2026-01-03 01:20:53.66	218.66	2.98	-53.4	-65.0	3.8	1.49e+00	0	57	104	1293942784	68	14583
2026-01-03 01:20:54.65	218.65	2.91	-53.5	-65.0	3.8	1.49e+00	0	57	104	1293942784	68	14625

#Closed at: 2026-01-03 01:20:54
#Recorded file [1293 MB]: D:/Data/31026_260103_042024.dat