passes_logs/2026/01/03/R3.0SM8_Murmansk_STILSPACE/R3.0SM8_Murmansk_STILSPACE__20260103_091718_AQUA_rec.log

#Pass ID: 20260103_091718_AQUA
#Satellite: AQUA
#Configuration: AQUA
#almurnet v.1.7.20240730
#Start time: 2026-01-03 09:17:19

#Version: 2.2.20231116
#Station: R3.0SM8_Murmansk_STILSPACE
#Location: 33.092731 lon 68.902999 lat
#TLE: 1 27424U 02022A   25365.92641127  .00002078  00000+0  42628-3 0  9999
#TLE: 2 27424  98.4058 327.1196 0001962  94.7781 340.6230 14.61783896258835

#Time	Az	El	Level	Level2	SNR	BER	BlckErr	Temp	State	Recorded	gain1	gain2
2026-01-03 09:17:19.23	104.09	3.07	-54.6	-74.6	3.8	7.44e-01	0	46	0	0	71	37849
2026-01-03 09:17:20.20	104.04	3.13	-54.4	-74.2	3.8	7.44e-01	0	46	104	0	71	36134
2026-01-03 09:17:21.19	103.98	3.19	-54.3	-74.0	3.8	7.46e-01	0	46	104	0	71	35617
2026-01-03 09:17:22.19	103.92	3.26	-54.1	-73.2	3.9	7.43e-01	0	46	104	0	71	32285
2026-01-03 09:17:23.18	103.86	3.32	-53.9	-72.5	3.8	7.46e-01	0	47	104	0	71	29893
2026-01-03 09:17:24.16	103.81	3.39	-53.8	-73.0	3.8	7.44e-01	0	46	104	0	71	31656
2026-01-03 09:17:25.14	103.75	3.45	-53.8	-73.1	3.8	7.46e-01	0	47	104	0	71	31847
2026-01-03 09:17:26.13	103.69	3.52	-53.8	-73.2	3.8	7.44e-01	0	47	104	0	71	32456
2026-01-03 09:17:27.11	103.63	3.58	-53.8	-73.4	3.8	7.45e-01	0	47	104	0	71	33027
2026-01-03 09:17:28.10	103.57	3.65	-53.8	-73.5	3.8	7.47e-01	0	47	104	0	71	33377
2026-01-03 09:17:29.09	103.51	3.71	-53.8	-73.4	3.8	7.47e-01	0	47	104	0	71	33101
2026-01-03 09:17:30.07	103.45	3.78	-53.8	-73.4	3.8	7.48e-01	0	47	104	0	71	33136
2026-01-03 09:17:31.06	103.39	3.84	-53.8	-73.2	3.8	7.46e-01	0	47	104	0	71	32395
2026-01-03 09:17:32.06	103.33	3.91	-53.8	-72.7	3.8	7.44e-01	0	47	104	0	71	30674
2026-01-03 09:17:33.04	103.27	3.97	-53.8	-72.0	3.8	7.45e-01	0	47	104	0	71	28212
2026-01-03 09:17:34.03	103.21	4.04	-53.7	-71.2	3.9	7.41e-01	0	47	104	0	71	25613
2026-01-03 09:17:35.01	103.14	4.10	-53.7	-69.0	4.6	7.21e-01	0	47	104	0	71	19996
2026-01-03 09:17:36.01	103.08	4.17	-53.7	-68.1	5.0	7.11e-01	0	47	0	0	70	19105
2026-01-03 09:17:37.00	103.02	4.24	-53.6	-66.2	6.3	6.78e-01	91	47	0	524288	70	15274
2026-01-03 09:17:37.99	102.96	4.30	-53.5	-65.1	7.3	6.54e-01	93	47	0	2097152	70	13466
2026-01-03 09:17:38.99	102.89	4.37	-53.4	-63.6	8.7	6.38e-01	1	47	0	4194304	70	11316
2026-01-03 09:17:39.98	102.83	4.44	-53.2	-62.3	10.0	6.23e-01	0	48	0	6291456	70	9774
2026-01-03 09:17:40.97	102.77	4.51	-53.0	-60.9	11.5	6.16e-01	0	47	0	7864320	69	8850
2026-01-03 09:17:41.97	102.70	4.57	-52.8	-59.9	12.6	6.09e-01	0	48	0	9961472	69	7824
2026-01-03 09:17:42.96	102.64	4.64	-52.5	-58.8	13.8	6.08e-01	0	48	0	11534336	68	7325
2026-01-03 09:17:43.94	102.57	4.71	-52.2	-57.9	14.7	6.08e-01	0	48	0	13631488	68	6577
2026-01-03 09:17:44.93	102.51	4.78	-52.0	-57.2	15.3	6.08e-01	0	48	0	15204352	67	6451
2026-01-03 09:17:45.92	102.44	4.84	-51.7	-56.4	16.0	6.04e-01	0	48	0	17301504	67	5922
2026-01-03 09:17:46.91	102.38	4.91	-51.6	-56.1	16.5	6.06e-01	0	48	0	18874368	66	6021
2026-01-03 09:17:47.89	102.31	4.98	-51.4	-55.7	16.9	6.05e-01	0	48	0	20971520	66	5771
2026-01-03 09:17:48.89	102.24	5.05	-51.3	-55.6	17.0	6.06e-01	0	48	0	22544384	66	5669
2026-01-03 09:17:49.88	102.18	5.12	-51.3	-55.5	17.1	6.06e-01	0	48	0	24641536	66	5623
2026-01-03 09:17:50.87	102.11	5.19	-51.4	-55.7	16.9	6.07e-01	0	48	0	26214400	66	5784
2026-01-03 09:17:51.87	102.04	5.26	-51.3	-55.5	17.1	6.05e-01	0	48	0	28311552	66	5636
2026-01-03 09:17:52.86	101.97	5.32	-51.3	-55.5	17.1	6.06e-01	0	49	0	30408704	66	5647
2026-01-03 09:17:53.85	101.90	5.39	-51.3	-55.5	17.1	6.05e-01	0	48	0	31981568	66	5635
2026-01-03 09:17:54.85	101.83	5.46	-51.4	-55.6	17.1	6.05e-01	0	49	0	34078720	66	5666
2026-01-03 09:17:55.84	101.77	5.53	-51.7	-56.3	16.4	6.06e-01	0	49	0	35651584	66	6174
2026-01-03 09:17:56.83	101.70	5.60	-51.5	-55.7	16.9	6.07e-01	0	49	0	37748736	66	5761
2026-01-03 09:17:57.81	101.63	5.67	-51.2	-55.1	17.2	6.06e-01	0	49	0	39321600	66	5389
2026-01-03 09:17:58.80	101.56	5.74	-50.8	-54.4	18.2	6.08e-01	0	49	0	41418752	65	5246
2026-01-03 09:17:59.79	101.49	5.81	-50.5	-53.7	18.9	6.09e-01	0	49	0	42991616	64	5142
2026-01-03 09:18:00.78	101.42	5.88	-50.3	-53.4	19.2	6.05e-01	0	49	0	45088768	64	4954
2026-01-03 09:18:01.77	101.34	5.95	-50.1	-53.0	19.7	6.06e-01	0	49	0	46661632	63	4994
2026-01-03 09:18:02.76	101.27	6.02	-50.0	-52.7	20.0	6.07e-01	0	49	0	48758784	63	4859
2026-01-03 09:18:03.75	101.20	6.09	-49.8	-52.5	20.2	6.07e-01	0	49	0	50855936	63	4725
2026-01-03 09:18:04.74	101.13	6.17	-49.7	-52.3	20.4	6.06e-01	0	49	0	52428800	63	4633
2026-01-03 09:18:05.73	101.05	6.24	-49.7	-52.2	20.4	6.08e-01	0	49	0	54525952	62	4869
2026-01-03 09:18:06.72	100.98	6.31	-49.6	-52.2	20.5	6.06e-01	0	49	0	56098816	62	4841
2026-01-03 09:18:07.71	100.91	6.38	-49.6	-52.2	20.6	6.07e-01	0	49	0	58195968	62	4827
2026-01-03 09:18:08.70	100.83	6.45	-49.8	-52.4	20.4	6.07e-01	0	49	0	59768832	62	4934
2026-01-03 09:18:09.70	100.76	6.52	-49.7	-52.4	20.4	6.06e-01	0	49	0	61865984	62	4929
2026-01-03 09:18:10.69	100.68	6.60	-49.6	-52.1	20.6	6.04e-01	0	49	0	63438848	62	4795
2026-01-03 09:18:11.68	100.61	6.67	-49.5	-52.0	20.8	6.06e-01	0	50	0	65536000	62	4714
2026-01-03 09:18:12.67	100.53	6.74	-49.5	-52.0	20.7	6.05e-01	0	50	0	67108864	62	4731
2026-01-03 09:18:13.66	100.45	6.81	-49.5	-52.0	20.8	6.08e-01	0	50	0	69206016	62	4728
2026-01-03 09:18:14.66	100.38	6.89	-49.6	-52.1	20.7	6.06e-01	0	50	0	70778880	62	4778
2026-01-03 09:18:15.65	100.30	6.96	-49.6	-52.0	20.7	6.08e-01	0	49	0	72876032	62	4748
2026-01-03 09:18:16.64	100.22	7.03	-49.5	-52.0	20.8	6.07e-01	0	50	0	74973184	62	4709
2026-01-03 09:18:17.63	100.14	7.11	-49.5	-51.9	20.9	6.05e-01	0	50	0	76546048	62	4660
2026-01-03 09:18:18.62	100.07	7.18	-49.6	-52.0	20.8	6.07e-01	0	50	0	78643200	62	4748
2026-01-03 09:18:19.60	99.99	7.25	-49.6	-52.1	20.7	6.06e-01	0	50	0	80216064	62	4785
2026-01-03 09:18:20.59	99.91	7.33	-49.6	-52.1	20.7	6.06e-01	0	50	0	82313216	62	4807
2026-01-03 09:18:21.59	99.83	7.40	-49.4	-51.8	21.0	6.07e-01	0	50	0	83886080	62	4636
2026-01-03 09:18:22.57	99.75	7.48	-49.6	-52.0	20.8	6.07e-01	0	50	0	85983232	62	4735
2026-01-03 09:18:23.56	99.67	7.55	-49.6	-52.0	20.8	6.08e-01	0	50	0	87556096	62	4758
2026-01-03 09:18:24.53	99.59	7.62	-49.6	-52.0	20.9	6.05e-01	0	50	0	89653248	62	4739
2026-01-03 09:18:25.52	99.50	7.70	-49.6	-52.0	20.9	6.08e-01	0	50	0	91226112	62	4728
2026-01-03 09:18:26.51	99.42	7.77	-49.6	-52.1	20.8	6.05e-01	0	50	0	93323264	62	4772
2026-01-03 09:18:27.50	99.34	7.85	-49.8	-52.3	20.6	6.05e-01	0	50	0	94896128	62	4901
2026-01-03 09:18:28.48	99.26	7.92	-49.8	-52.3	20.5	6.06e-01	0	50	0	96993280	62	4921
2026-01-03 09:18:29.46	99.17	8.00	-49.7	-52.2	20.7	6.07e-01	0	50	0	98566144	62	4851
2026-01-03 09:18:30.46	99.09	8.07	-49.7	-52.2	20.7	6.06e-01	0	50	0	100663296	62	4829
2026-01-03 09:18:31.45	99.00	8.15	-49.8	-52.3	20.6	6.06e-01	0	50	0	102760448	62	4892
2026-01-03 09:18:32.43	98.92	8.23	-49.7	-52.2	20.7	6.07e-01	0	50	0	104333312	62	4864
2026-01-03 09:18:33.42	98.83	8.30	-49.7	-52.3	20.7	6.05e-01	0	50	0	106430464	62	4872
2026-01-03 09:18:34.42	98.75	8.38	-49.8	-52.4	20.6	6.06e-01	0	50	0	108003328	62	4927
2026-01-03 09:18:35.41	98.66	8.46	-49.6	-52.1	20.9	6.08e-01	0	51	0	110100480	62	4780
2026-01-03 09:18:36.39	98.57	8.53	-49.5	-51.9	21.1	6.07e-01	0	50	0	111673344	62	4655
2026-01-03 09:18:37.39	98.49	8.61	-49.4	-51.7	21.2	6.06e-01	0	51	0	113770496	62	4590
2026-01-03 09:18:38.38	98.40	8.69	-49.4	-51.7	21.3	6.07e-01	0	50	0	115343360	62	4553
2026-01-03 09:18:39.37	98.31	8.77	-49.4	-51.7	21.3	6.06e-01	0	51	0	117440512	62	4563
2026-01-03 09:18:40.36	98.22	8.84	-49.5	-51.9	21.1	6.07e-01	0	51	0	119013376	62	4659
2026-01-03 09:18:41.35	98.13	8.92	-49.6	-52.0	21.0	6.05e-01	0	51	0	121110528	62	4756
2026-01-03 09:18:42.35	98.04	9.00	-49.4	-51.7	21.3	6.07e-01	0	51	0	123207680	62	4573
2026-01-03 09:18:43.33	97.95	9.08	-49.2	-51.4	21.5	6.08e-01	0	51	0	124780544	62	4434
2026-01-03 09:18:44.33	97.86	9.16	-49.1	-51.3	21.7	6.08e-01	0	51	0	126877696	61	4619
2026-01-03 09:18:45.32	97.76	9.24	-49.1	-51.2	21.6	6.08e-01	0	51	0	128450560	61	4593
2026-01-03 09:18:46.31	97.67	9.32	-49.1	-51.3	21.7	6.07e-01	0	51	0	130547712	61	4618
2026-01-03 09:18:47.30	97.58	9.40	-49.2	-51.3	21.6	6.06e-01	0	51	0	132120576	61	4641
2026-01-03 09:18:48.30	97.48	9.48	-49.0	-51.2	21.8	6.05e-01	0	51	0	134217728	61	4546
2026-01-03 09:18:49.29	97.39	9.56	-49.0	-51.1	21.9	6.07e-01	0	51	0	135790592	61	4543
2026-01-03 09:18:50.27	97.30	9.63	-49.1	-51.2	21.7	6.07e-01	0	51	0	137887744	61	4591
2026-01-03 09:18:51.27	97.20	9.72	-49.1	-51.3	21.7	6.06e-01	0	51	0	139460608	61	4616
2026-01-03 09:18:52.26	97.10	9.80	-49.1	-51.2	21.8	6.07e-01	0	51	0	141557760	61	4563
2026-01-03 09:18:53.24	97.01	9.88	-49.2	-51.4	21.6	6.06e-01	0	51	0	143654912	61	4674
2026-01-03 09:18:54.23	96.91	9.96	-49.3	-51.5	21.6	6.04e-01	0	51	0	145227776	61	4707
2026-01-03 09:18:55.22	96.81	10.04	-49.2	-51.3	21.7	6.07e-01	0	51	0	147324928	61	4638
2026-01-03 09:18:56.21	96.71	10.12	-49.1	-51.2	21.8	6.07e-01	0	51	0	148897792	61	4582
2026-01-03 09:18:57.21	96.61	10.20	-49.1	-51.3	21.8	6.07e-01	0	51	0	150994944	61	4599
2026-01-03 09:18:58.20	96.51	10.28	-49.3	-51.5	21.6	6.05e-01	0	51	0	152567808	61	4740
2026-01-03 09:18:59.18	96.41	10.36	-49.3	-51.5	21.6	6.05e-01	0	51	0	154664960	61	4722
2026-01-03 09:19:00.17	96.31	10.45	-49.2	-51.3	21.7	6.05e-01	0	51	0	156237824	61	4630
2026-01-03 09:19:01.16	96.21	10.53	-49.3	-51.5	21.6	6.04e-01	0	51	0	158334976	61	4738
2026-01-03 09:19:02.14	96.11	10.61	-49.5	-51.8	21.2	6.05e-01	0	52	0	159907840	61	4885
2026-01-03 09:19:03.13	96.01	10.69	-49.3	-51.5	21.6	6.08e-01	0	52	0	162004992	61	4721
2026-01-03 09:19:04.12	95.90	10.78	-49.3	-51.4	21.7	6.06e-01	0	51	0	163577856	61	4699
2026-01-03 09:19:05.12	95.80	10.86	-49.2	-51.4	21.7	6.03e-01	0	52	0	165675008	61	4658
2026-01-03 09:19:06.11	95.69	10.94	-49.2	-51.4	21.8	6.06e-01	0	51	0	167247872	61	4652
2026-01-03 09:19:07.10	95.59	11.03	-49.4	-51.6	21.4	6.07e-01	0	52	0	169345024	61	4811
2026-01-03 09:19:08.09	95.48	11.11	-49.2	-51.3	21.8	6.04e-01	0	52	0	171442176	61	4641
2026-01-03 09:19:09.08	95.38	11.19	-49.4	-51.6	21.5	6.05e-01	0	52	0	173015040	61	4776
2026-01-03 09:19:10.07	95.27	11.28	-49.1	-51.2	21.9	6.07e-01	0	52	0	175112192	61	4564
2026-01-03 09:19:11.06	95.16	11.36	-48.9	-50.9	22.2	6.04e-01	0	52	0	176685056	61	4399
2026-01-03 09:19:12.04	95.05	11.45	-48.8	-50.8	22.3	6.06e-01	0	52	0	178782208	61	4359
2026-01-03 09:19:13.04	94.94	11.53	-48.7	-50.7	22.4	6.04e-01	0	52	0	180355072	61	4299
2026-01-03 09:19:14.03	94.83	11.62	-48.7	-50.7	22.4	6.07e-01	0	52	0	182452224	61	4311
2026-01-03 09:19:15.02	94.72	11.70	-48.8	-50.8	22.3	6.08e-01	0	52	0	184025088	61	4352
2026-01-03 09:19:16.01	94.61	11.79	-49.0	-51.0	22.1	6.04e-01	0	52	0	186122240	61	4468
2026-01-03 09:19:17.00	94.50	11.88	-48.8	-50.7	22.4	6.07e-01	0	52	0	187695104	61	4331
2026-01-03 09:19:17.99	94.38	11.96	-48.7	-50.7	22.4	6.09e-01	0	52	0	189792256	61	4309
2026-01-03 09:19:18.99	94.27	12.05	-48.9	-50.9	22.2	6.07e-01	0	52	0	191889408	61	4395
2026-01-03 09:19:19.98	94.15	12.14	-49.0	-51.0	22.1	6.07e-01	0	52	0	193462272	61	4456
2026-01-03 09:19:20.97	94.04	12.22	-48.9	-51.0	22.2	6.06e-01	0	52	0	195559424	61	4443
2026-01-03 09:19:21.96	93.92	12.31	-48.9	-51.0	22.2	6.07e-01	0	52	0	197132288	61	4450
2026-01-03 09:19:22.95	93.81	12.40	-49.1	-51.1	22.0	6.06e-01	0	52	0	199229440	61	4545
2026-01-03 09:19:23.94	93.69	12.49	-49.3	-51.4	21.8	6.06e-01	0	52	0	200802304	61	4678
2026-01-03 09:19:24.93	93.57	12.57	-49.1	-51.2	21.9	6.06e-01	0	52	0	202899456	61	4568
2026-01-03 09:19:25.91	93.45	12.66	-49.0	-51.1	22.1	6.04e-01	0	52	0	204472320	61	4498
2026-01-03 09:19:26.91	93.33	12.75	-49.1	-51.2	22.0	6.06e-01	0	52	0	206569472	61	4554
2026-01-03 09:19:27.90	93.21	12.84	-48.9	-50.8	22.3	6.08e-01	0	52	0	208142336	61	4389
2026-01-03 09:19:28.88	93.09	12.93	-48.7	-50.6	22.5	6.07e-01	0	52	0	210239488	61	4282
2026-01-03 09:19:29.87	92.97	13.02	-48.7	-50.6	22.6	6.07e-01	0	52	0	211812352	61	4254
2026-01-03 09:19:30.86	92.84	13.10	-48.7	-50.6	22.6	6.07e-01	0	52	0	213909504	60	4504
2026-01-03 09:19:31.85	92.72	13.19	-48.6	-50.5	22.6	6.05e-01	0	52	0	216006656	60	4478
2026-01-03 09:19:32.84	92.60	13.28	-48.6	-50.5	22.6	6.06e-01	0	52	0	217579520	60	4463
2026-01-03 09:19:33.84	92.47	13.37	-48.7	-50.7	22.5	6.07e-01	0	52	0	219676672	60	4546
2026-01-03 09:19:34.83	92.34	13.46	-48.6	-50.5	22.7	6.06e-01	0	52	0	221249536	60	4445
2026-01-03 09:19:35.82	92.21	13.56	-48.5	-50.3	22.8	6.03e-01	0	52	0	223346688	60	4366
2026-01-03 09:19:36.82	92.08	13.65	-48.4	-50.2	22.9	6.05e-01	0	52	0	224919552	60	4331
2026-01-03 09:19:37.80	91.96	13.74	-48.4	-50.3	22.9	6.08e-01	0	53	0	227016704	60	4347
2026-01-03 09:19:38.79	91.83	13.83	-48.5	-50.4	22.8	6.05e-01	0	52	0	228589568	60	4410
2026-01-03 09:19:39.78	91.70	13.92	-48.5	-50.3	22.8	6.07e-01	0	53	0	230686720	60	4371
2026-01-03 09:19:40.76	91.57	14.01	-48.5	-50.4	22.8	6.04e-01	0	53	0	232259584	60	4401
2026-01-03 09:19:41.75	91.43	14.10	-48.5	-50.3	22.8	6.07e-01	0	53	0	234356736	60	4389
2026-01-03 09:19:42.74	91.30	14.19	-48.6	-50.5	22.7	6.05e-01	0	53	0	236453888	60	4459
2026-01-03 09:19:43.73	91.17	14.29	-48.8	-50.7	22.4	6.04e-01	0	53	0	238026752	60	4596
2026-01-03 09:19:44.72	91.03	14.38	-48.7	-50.6	22.5	6.08e-01	0	53	0	240123904	60	4543
2026-01-03 09:19:45.71	90.89	14.47	-48.6	-50.5	22.7	6.08e-01	0	53	0	241696768	60	4474
2026-01-03 09:19:46.70	90.76	14.56	-48.7	-50.6	22.6	6.07e-01	0	53	0	243793920	60	4524
2026-01-03 09:19:47.69	90.62	14.66	-48.9	-50.8	22.4	6.07e-01	0	53	0	245366784	60	4627
2026-01-03 09:19:48.69	90.48	14.75	-48.8	-50.7	22.5	6.06e-01	0	53	0	247463936	60	4551
2026-01-03 09:19:49.68	90.34	14.85	-48.7	-50.6	22.6	6.06e-01	0	53	0	249036800	60	4532
2026-01-03 09:19:50.66	90.20	14.94	-48.8	-50.7	22.6	6.05e-01	0	53	0	251133952	60	4552
2026-01-03 09:19:51.64	90.06	15.03	-48.8	-50.7	22.5	6.07e-01	0	53	0	252706816	60	4586
2026-01-03 09:19:52.64	89.91	15.13	-48.7	-50.6	22.6	6.06e-01	0	53	0	254803968	60	4529
2026-01-03 09:19:53.63	89.77	15.22	-48.7	-50.7	22.6	6.06e-01	0	53	0	256901120	60	4546
2026-01-03 09:19:54.62	89.62	15.32	-48.7	-50.6	22.7	6.06e-01	0	53	0	258473984	60	4499
2026-01-03 09:19:55.62	89.48	15.41	-48.5	-50.3	22.9	6.07e-01	0	53	0	260571136	60	4368
2026-01-03 09:19:56.61	89.33	15.51	-48.4	-50.2	23.1	6.05e-01	0	53	0	262144000	60	4295
2026-01-03 09:19:57.60	89.18	15.60	-48.3	-50.1	23.1	6.06e-01	0	53	0	264241152	60	4255
2026-01-03 09:19:58.59	89.03	15.70	-48.4	-50.2	23.0	5.99e-01	0	53	0	265814016	60	4306
2026-01-03 09:19:59.58	88.88	15.80	-48.4	-50.2	23.0	6.03e-01	0	53	0	267911168	60	4323
2026-01-03 09:20:00.57	88.73	15.89	-48.4	-50.2	23.0	6.02e-01	0	53	0	269484032	60	4315
2026-01-03 09:20:01.57	88.58	15.99	-48.8	-60.3	3.8	7.42e-01	0	53	104	270532608	60	13778
2026-01-03 09:20:02.56	88.43	16.09	-49.0	-60.4	3.9	7.43e-01	0	53	104	270532608	60	14024
2026-01-03 09:20:03.56	88.27	16.18	-49.2	-60.9	3.8	7.44e-01	0	53	104	270532608	60	14831
2026-01-03 09:20:04.55	88.11	16.28	-49.6	-61.2	3.9	7.42e-01	0	53	104	270532608	61	14451
2026-01-03 09:20:05.54	87.96	16.38	-49.9	-61.6	3.8	7.44e-01	0	53	104	270532608	61	15194
2026-01-03 09:20:06.53	87.80	16.48	-50.3	-62.3	3.9	7.43e-01	0	53	104	270532608	62	15465
2026-01-03 09:20:07.52	87.64	16.57	-50.6	-62.6	3.8	7.45e-01	0	53	104	270532608	63	15153
2026-01-03 09:20:08.51	87.48	16.67	-50.6	-62.9	3.8	7.49e-01	0	53	104	270532608	63	15589
2026-01-03 09:20:09.50	87.32	16.77	-50.7	-63.0	3.8	7.46e-01	0	53	104	270532608	63	15825
2026-01-03 09:20:10.48	87.16	16.87	-50.9	-63.2	3.9	7.42e-01	0	53	104	270532608	63	16197
2026-01-03 09:20:11.47	87.00	16.97	-51.0	-63.5	3.8	7.44e-01	0	53	104	270532608	64	15924
2026-01-03 09:20:12.46	86.83	17.07	-51.3	-64.0	3.8	7.45e-01	0	53	104	270532608	64	16774
2026-01-03 09:20:13.46	86.67	17.17	-51.6	-64.7	3.8	7.43e-01	0	53	104	270532608	65	17165
2026-01-03 09:20:14.45	86.50	17.27	-52.1	-65.4	4.1	7.33e-01	0	53	104	270532608	66	17673
2026-01-03 09:20:15.44	86.33	17.37	-52.2	-65.6	3.7	7.44e-01	0	54	104	270532608	66	17959
2026-01-03 09:20:16.43	86.16	17.46	-51.7	-64.7	3.8	7.47e-01	0	53	104	270532608	66	16222
2026-01-03 09:20:17.42	85.99	17.56	-51.3	-63.9	3.8	7.49e-01	0	54	104	270532608	66	14867
2026-01-03 09:20:18.42	85.82	17.67	-51.0	-63.3	3.7	7.48e-01	0	53	104	270532608	65	14612
2026-01-03 09:20:19.41	85.65	17.77	-50.9	-63.2	3.9	7.53e-01	0	53	104	270532608	65	14483
2026-01-03 09:20:20.39	85.47	17.87	-51.0	-63.5	3.8	7.49e-01	0	54	104	270532608	65	14900
2026-01-03 09:20:21.38	85.30	17.97	-50.6	-62.9	3.8	7.42e-01	0	54	104	270532608	64	14765
2026-01-03 09:20:22.36	85.12	18.07	-50.3	-62.5	3.8	7.43e-01	0	54	104	270532608	64	14072
2026-01-03 09:20:23.36	84.94	18.17	-50.2	-62.1	3.8	7.48e-01	0	54	104	270532608	63	14334
2026-01-03 09:20:24.35	84.77	18.27	-50.0	-61.8	3.8	7.44e-01	0	54	104	270532608	63	13830
2026-01-03 09:20:25.34	84.58	18.37	-49.7	-61.5	3.8	7.42e-01	0	54	104	270532608	63	13350
2026-01-03 09:20:26.33	84.40	18.47	-49.4	-61.1	3.8	7.45e-01	0	54	104	270532608	62	13472
2026-01-03 09:20:27.32	84.22	18.57	-49.2	-60.7	3.8	7.45e-01	0	54	104	270532608	62	12943
2026-01-03 09:20:28.30	84.04	18.67	-49.1	-60.6	3.8	7.46e-01	0	54	104	270532608	61	13512
2026-01-03 09:20:29.29	83.85	18.78	-49.2	-60.8	3.8	7.46e-01	0	54	104	270532608	61	13833
2026-01-03 09:20:30.26	83.67	18.88	-49.4	-61.1	3.8	7.46e-01	0	54	104	270532608	61	14297
2026-01-03 09:20:31.25	83.48	18.98	-49.8	-61.6	3.8	7.45e-01	0	54	104	270532608	61	15143
2026-01-03 09:20:32.24	83.29	19.08	-50.1	-62.0	3.8	7.45e-01	0	54	104	270532608	62	15030
2026-01-03 09:20:33.24	83.10	19.19	-50.1	-62.0	3.8	7.42e-01	0	54	104	270532608	62	14950
2026-01-03 09:20:34.23	82.91	19.29	-50.1	-62.0	3.8	7.45e-01	0	54	104	270532608	62	14933
2026-01-03 09:20:35.22	82.71	19.39	-50.2	-62.1	3.8	7.44e-01	0	54	104	270532608	62	15218
2026-01-03 09:20:36.21	82.52	19.49	-50.4	-62.5	3.8	7.47e-01	0	54	104	270532608	62	15777
2026-01-03 09:20:37.21	82.32	19.60	-50.6	-62.8	3.8	7.44e-01	0	54	104	270532608	63	15453
2026-01-03 09:20:38.19	82.12	19.70	-50.8	-63.2	3.8	7.44e-01	0	54	104	270532608	64	15347
2026-01-03 09:20:39.19	81.92	19.81	-51.2	-63.7	3.8	7.46e-01	0	54	104	270532608	64	16260
2026-01-03 09:20:40.18	81.72	19.91	-51.6	-64.5	3.8	7.44e-01	0	54	104	270532608	65	16823
2026-01-03 09:20:41.17	81.52	20.01	-52.1	-65.5	3.8	7.47e-01	0	54	104	270532608	66	17684
2026-01-03 09:20:42.15	81.32	20.12	-52.5	-66.4	3.8	7.47e-01	0	54	104	270532608	67	18669
2026-01-03 09:20:43.15	81.11	20.22	-53.1	-67.7	3.8	7.43e-01	0	54	104	270532608	68	20308
2026-01-03 09:20:44.13	80.91	20.32	-53.5	-68.9	3.8	7.47e-01	0	54	104	270532608	69	22183
2026-01-03 09:20:45.12	80.70	20.43	-53.6	-69.5	3.8	7.44e-01	0	54	104	270532608	69	23735
2026-01-03 09:20:46.11	80.49	20.53	-53.8	-70.0	3.8	7.47e-01	0	54	104	270532608	69	25058
2026-01-03 09:20:47.10	80.28	20.64	-53.6	-69.4	3.8	7.46e-01	0	54	104	270532608	69	23368
2026-01-03 09:20:48.10	80.06	20.74	-53.5	-69.0	3.8	7.44e-01	0	54	104	270532608	69	22273
2026-01-03 09:20:49.08	79.85	20.84	-53.4	-68.5	3.8	7.46e-01	0	54	104	270532608	69	21160
2026-01-03 09:20:50.06	79.64	20.95	-53.3	-68.1	3.8	7.45e-01	0	54	104	270532608	69	20173
2026-01-03 09:20:51.05	79.42	21.05	-53.7	-69.5	3.8	7.47e-01	0	54	104	270532608	69	23709
2026-01-03 09:20:52.04	79.20	21.16	-54.0	-70.8	3.8	7.46e-01	0	54	104	270532608	70	25926
2026-01-03 09:20:53.03	78.98	21.26	-53.7	-69.5	3.8	7.45e-01	0	54	104	270532608	70	22270
2026-01-03 09:20:54.01	78.76	21.37	-53.2	-68.1	3.8	7.44e-01	0	54	104	270532608	70	19064
2026-01-03 09:20:55.00	78.54	21.47	-52.7	-66.8	3.8	7.45e-01	0	54	104	270532608	69	17324
2026-01-03 09:20:55.99	78.31	21.57	-52.2	-65.7	3.8	7.43e-01	0	54	104	270532608	68	16182
2026-01-03 09:20:56.99	78.08	21.68	-51.7	-64.6	3.8	7.46e-01	0	55	104	270532608	67	15194
2026-01-03 09:20:57.97	77.85	21.78	-51.6	-64.5	3.8	7.42e-01	0	54	104	270532608	66	15853
2026-01-03 09:20:58.96	77.62	21.89	-51.5	-64.4	3.8	7.41e-01	0	54	104	270532608	66	15611
2026-01-03 09:20:59.94	77.40	21.99	-51.6	-64.4	3.8	7.45e-01	0	54	104	270532608	66	15687
2026-01-03 09:21:00.93	77.16	22.10	-51.6	-64.4	3.8	7.45e-01	0	54	104	270532608	66	15736
2026-01-03 09:21:01.91	76.93	22.20	-51.7	-64.6	3.8	7.48e-01	0	55	104	270532608	66	16082
2026-01-03 09:21:02.91	76.69	22.31	-51.9	-65.0	3.8	7.46e-01	0	54	104	270532608	66	16739
2026-01-03 09:21:03.89	76.45	22.41	-51.5	-64.3	3.8	7.42e-01	0	54	104	270532608	66	15451
2026-01-03 09:21:04.89	76.21	22.51	-51.0	-63.4	3.8	7.43e-01	0	55	104	270532608	65	14828
2026-01-03 09:21:05.88	75.97	22.62	-50.6	-62.7	3.8	7.44e-01	0	54	104	270532608	64	14384
2026-01-03 09:21:06.88	75.72	22.72	-50.2	-62.2	3.8	7.44e-01	0	54	104	270532608	64	13598
2026-01-03 09:21:07.87	75.48	22.83	-50.1	-62.0	3.8	7.46e-01	0	55	104	270532608	63	14066
2026-01-03 09:21:08.86	75.23	22.93	-49.9	-61.7	3.8	7.45e-01	0	54	104	270532608	63	13674
2026-01-03 09:21:09.86	74.98	23.04	-50.1	-62.0	3.8	7.44e-01	0	54	104	270532608	63	14155
2026-01-03 09:21:10.85	74.73	23.14	-50.5	-62.6	3.8	7.46e-01	0	54	104	270532608	63	15072
2026-01-03 09:21:11.84	74.48	23.25	-50.2	-62.1	3.8	7.48e-01	0	55	104	270532608	63	14312
2026-01-03 09:21:12.83	74.22	23.35	-49.9	-61.6	3.8	7.45e-01	0	54	104	270532608	63	13535
2026-01-03 09:21:13.82	73.97	23.45	-49.7	-61.4	3.8	7.41e-01	0	55	104	270532608	62	13915
2026-01-03 09:21:14.81	73.71	23.56	-49.5	-61.1	3.8	7.44e-01	0	54	104	270532608	62	13529
2026-01-03 09:21:15.80	73.45	23.66	-49.3	-60.8	3.8	7.47e-01	0	54	104	270532608	62	12982
2026-01-03 09:21:16.79	73.19	23.76	-49.3	-60.9	3.8	7.47e-01	0	55	104	270532608	62	13189
2026-01-03 09:21:17.77	72.93	23.86	-49.6	-61.3	3.8	7.43e-01	0	55	104	270532608	62	13821
2026-01-03 09:21:18.76	72.66	23.97	-49.9	-61.7	3.8	7.44e-01	0	55	104	270532608	62	14387
2026-01-03 09:21:19.75	72.40	24.07	-50.1	-62.0	3.8	7.42e-01	0	55	104	270532608	62	14939
2026-01-03 09:21:20.74	72.13	24.17	-50.4	-62.4	3.8	7.45e-01	0	55	104	270532608	62	15625
2026-01-03 09:21:21.73	71.86	24.27	-50.8	-63.1	3.8	7.42e-01	0	55	104	270532608	63	15956
2026-01-03 09:21:22.72	71.58	24.38	-50.9	-63.2	3.8	7.45e-01	0	55	104	270532608	64	15284
2026-01-03 09:21:23.70	71.31	24.48	-50.9	-63.2	3.8	7.43e-01	0	55	104	270532608	64	15238
2026-01-03 09:21:24.69	71.04	24.58	-50.9	-63.3	3.8	7.45e-01	0	55	104	270532608	64	15403
2026-01-03 09:21:25.68	70.76	24.68	-51.0	-63.3	3.8	7.45e-01	0	55	104	270532608	64	15573
2026-01-03 09:21:26.67	70.48	24.78	-51.2	-63.8	3.8	7.44e-01	0	55	104	270532608	64	16344
2026-01-03 09:21:27.66	70.20	24.88	-51.5	-64.2	3.8	7.46e-01	0	55	104	270532608	65	16268
2026-01-03 09:21:28.65	69.91	24.98	-51.8	-64.7	3.8	7.46e-01	0	55	104	270532608	65	17185
2026-01-03 09:21:29.63	69.63	25.08	-52.3	-65.6	3.8	7.45e-01	0	55	104	270532608	66	18092
2026-01-03 09:21:30.62	69.34	25.18	-52.7	-66.7	3.8	7.47e-01	0	55	104	270532608	67	19193
2026-01-03 09:21:31.61	69.05	25.28	-53.3	-68.0	3.8	7.49e-01	0	55	104	270532608	68	21230
2026-01-03 09:21:32.60	68.76	25.38	-53.7	-69.3	3.8	7.45e-01	0	55	104	270532608	69	23049
2026-01-03 09:21:33.59	68.47	25.47	-54.0	-70.5	3.8	7.43e-01	0	55	104	270532608	70	25135
2026-01-03 09:21:34.58	68.18	25.57	-54.2	-71.4	3.8	7.46e-01	0	55	104	270532608	70	27782
2026-01-03 09:21:35.57	67.88	25.67	-54.3	-71.9	3.8	7.40e-01	0	55	104	270532608	70	29607
2026-01-03 09:21:36.55	67.58	25.76	-54.3	-72.0	3.8	7.43e-01	0	55	104	270532608	70	29703
2026-01-03 09:21:37.54	67.28	25.86	-54.2	-71.3	3.8	7.42e-01	0	55	104	270532608	70	27618
2026-01-03 09:21:38.53	66.98	25.96	-54.1	-70.8	3.8	7.46e-01	0	55	104	270532608	70	26093
2026-01-03 09:21:39.52	66.68	26.05	-53.9	-70.3	3.8	7.45e-01	0	55	104	270532608	70	24507
2026-01-03 09:21:40.52	66.37	26.15	-53.7	-69.3	3.8	7.49e-01	0	55	104	270532608	70	21997
2026-01-03 09:21:41.50	66.06	26.24	-53.3	-68.0	3.8	7.45e-01	0	55	104	270532608	70	18909
2026-01-03 09:21:42.50	65.75	26.34	-52.8	-66.7	3.8	7.45e-01	0	55	104	270532608	69	17237
2026-01-03 09:21:43.49	65.44	26.43	-52.2	-65.5	3.8	7.45e-01	0	55	104	270532608	68	15869
2026-01-03 09:21:44.48	65.12	26.52	-51.6	-64.4	3.8	7.47e-01	0	55	104	270532608	66	15686
2026-01-03 09:21:45.46	64.81	26.61	-51.1	-63.5	3.8	7.46e-01	0	55	104	270532608	65	14991
2026-01-03 09:21:46.45	64.49	26.71	-50.6	-62.8	3.8	7.45e-01	0	55	104	270532608	64	14670
2026-01-03 09:21:47.44	64.17	26.80	-50.4	-62.4	3.8	7.48e-01	0	55	104	270532608	64	13976
2026-01-03 09:21:48.43	63.85	26.89	-50.2	-62.1	3.8	7.45e-01	0	55	104	270532608	63	14325
2026-01-03 09:21:49.43	63.52	26.98	-50.1	-61.9	3.8	7.45e-01	0	55	104	270532608	63	14020
2026-01-03 09:21:50.42	63.20	27.07	-50.2	-62.1	3.8	7.43e-01	0	55	104	270532608	63	14253
2026-01-03 09:21:51.41	62.87	27.16	-50.2	-62.1	3.8	7.47e-01	0	55	104	270532608	63	14343
2026-01-03 09:21:52.40	62.54	27.24	-50.4	-62.4	3.8	7.44e-01	0	55	104	270532608	63	14740
2026-01-03 09:21:53.38	62.21	27.33	-50.4	-62.4	3.8	7.48e-01	0	55	104	270532608	63	14837
2026-01-03 09:21:54.37	61.88	27.42	-50.1	-61.9	3.8	7.41e-01	0	55	104	270532608	63	14042
2026-01-03 09:21:55.37	61.54	27.50	-49.8	-61.5	3.8	7.44e-01	0	55	104	270532608	63	13276
2026-01-03 09:21:56.35	61.21	27.59	-49.5	-61.1	3.8	7.43e-01	0	55	104	270532608	62	13489
2026-01-03 09:21:57.34	60.87	27.67	-49.3	-60.8	3.8	7.43e-01	0	55	104	270532608	62	13091
2026-01-03 09:21:58.33	60.53	27.75	-49.2	-60.7	3.8	7.45e-01	0	55	104	270532608	62	12910
2026-01-03 09:21:59.32	60.19	27.84	-49.4	-60.9	3.8	7.44e-01	0	55	104	270532608	62	13248
2026-01-03 09:22:00.31	59.84	27.92	-49.8	-61.5	3.8	7.47e-01	0	55	104	270532608	62	14081
2026-01-03 09:22:01.30	59.50	28.00	-50.0	-61.8	3.8	7.48e-01	0	55	104	270532608	62	14707
2026-01-03 09:22:02.30	59.15	28.08	-49.6	-61.1	3.8	7.42e-01	0	55	104	270532608	62	13500
2026-01-03 09:22:03.28	58.80	28.16	-49.1	-60.5	3.8	7.42e-01	0	55	104	270532608	61	13316
2026-01-03 09:22:04.28	58.45	28.23	-48.9	-60.4	3.8	7.45e-01	0	55	104	270532608	61	13152
2026-01-03 09:22:05.27	58.09	28.31	-48.9	-60.3	3.8	7.44e-01	0	55	104	270532608	61	13030
2026-01-03 09:22:06.26	57.74	28.39	-49.1	-60.5	3.8	7.44e-01	0	55	104	270532608	61	13382
2026-01-03 09:22:07.24	57.38	28.46	-49.4	-60.9	3.8	7.45e-01	0	55	104	270532608	61	13993
2026-01-03 09:22:08.23	57.03	28.54	-49.6	-61.2	3.8	7.47e-01	0	55	104	270532608	61	14484
2026-01-03 09:22:09.22	56.67	28.61	-49.9	-61.6	3.8	7.44e-01	0	55	104	270532608	61	15169
2026-01-03 09:22:10.21	56.30	28.68	-50.4	-62.4	3.8	7.45e-01	0	55	104	270532608	62	15616
2026-01-03 09:22:11.19	55.94	28.75	-50.9	-63.1	3.8	7.46e-01	0	55	104	270532608	63	16099
2026-01-03 09:22:12.19	55.58	28.82	-51.2	-63.7	3.8	7.43e-01	0	55	104	270532608	64	16258
2026-01-03 09:22:13.18	55.21	28.89	-51.2	-63.6	3.8	7.47e-01	0	55	104	270532608	64	16082
2026-01-03 09:22:14.16	54.85	28.96	-51.1	-63.6	3.8	7.42e-01	0	55	104	270532608	64	15952
2026-01-03 09:22:15.16	54.47	29.02	-51.2	-63.7	3.8	7.48e-01	0	55	104	270532608	64	16277
2026-01-03 09:22:16.16	54.10	29.09	-51.4	-64.4	3.8	7.44e-01	0	56	104	270532608	65	16585
2026-01-03 09:22:17.14	53.73	29.15	-51.6	-64.4	3.8	7.44e-01	0	55	104	270532608	65	16520
2026-01-03 09:22:18.13	53.35	29.22	-51.9	-64.9	3.8	7.45e-01	0	55	104	270532608	65	17545
2026-01-03 09:22:19.11	52.98	29.28	-52.4	-66.3	3.8	7.46e-01	0	56	104	270532608	67	18372
2026-01-03 09:22:20.10	52.60	29.34	-53.0	-67.1	3.9	7.39e-01	0	56	104	270532608	68	19166
2026-01-03 09:22:21.09	52.22	29.40	-53.4	-68.4	3.8	7.45e-01	0	55	104	270532608	69	20826
2026-01-03 09:22:22.08	51.84	29.46	-53.8	-69.5	3.8	7.44e-01	0	55	104	270532608	69	23749
2026-01-03 09:22:23.07	51.46	29.51	-53.4	-68.3	3.8	7.43e-01	0	55	104	270532608	69	20774
2026-01-03 09:22:24.07	51.07	29.57	-52.9	-67.0	3.8	7.44e-01	0	55	104	270532608	69	17794
2026-01-03 09:22:25.05	50.69	29.62	-53.2	-67.7	3.8	7.45e-01	0	55	104	270532608	69	19292
2026-01-03 09:22:26.04	50.31	29.68	-53.5	-68.4	3.8	7.44e-01	0	55	104	270532608	69	20956
2026-01-03 09:22:27.03	49.92	29.73	-53.2	-67.6	3.8	7.45e-01	0	56	104	270532608	69	19077
2026-01-03 09:22:28.02	49.53	29.78	-52.9	-66.9	3.8	7.46e-01	0	55	104	270532608	69	17522
2026-01-03 09:22:29.00	49.15	29.83	-52.6	-66.4	3.8	7.42e-01	0	55	104	270532608	68	17513
2026-01-03 09:22:29.99	48.76	29.87	-52.4	-65.8	3.8	7.48e-01	0	55	104	270532608	68	16433
2026-01-03 09:22:30.98	48.36	29.92	-51.8	-64.6	3.8	7.47e-01	0	55	104	270532608	67	15225
2026-01-03 09:22:31.97	47.97	29.97	-51.2	-63.8	3.8	7.43e-01	0	55	104	270532608	66	14596
2026-01-03 09:22:32.96	47.58	30.01	-50.8	-63.0	3.8	7.46e-01	0	55	104	270532608	65	14088
2026-01-03 09:22:33.94	47.18	30.05	-50.3	-62.3	3.8	7.46e-01	0	55	104	270532608	64	13870
2026-01-03 09:22:34.93	46.79	30.09	-50.0	-61.8	3.8	7.44e-01	0	55	104	270532608	63	13782
2026-01-03 09:22:35.92	46.39	30.13	-49.8	-61.5	3.8	7.43e-01	0	56	104	270532608	63	13327
2026-01-03 09:22:36.92	45.99	30.17	-49.6	-61.2	3.8	7.44e-01	0	55	104	270532608	62	13581
2026-01-03 09:22:37.90	45.59	30.21	-49.2	-60.7	3.8	7.48e-01	0	55	104	270532608	62	12854
2026-01-03 09:22:38.88	45.20	30.24	-49.1	-60.5	3.8	7.43e-01	0	55	104	270532608	61	13324
2026-01-03 09:22:39.87	44.80	30.27	-49.1	-60.5	3.8	7.47e-01	0	56	104	270532608	61	13399
2026-01-03 09:22:40.86	44.39	30.31	-49.1	-60.6	3.8	7.44e-01	0	55	104	270532608	61	13415
2026-01-03 09:22:41.84	43.99	30.34	-49.2	-60.6	3.8	7.44e-01	0	56	104	270532608	61	13549
2026-01-03 09:22:42.83	43.59	30.36	-49.4	-61.0	3.8	7.44e-01	0	56	104	270532608	61	14086
2026-01-03 09:22:43.83	43.18	30.39	-49.4	-60.9	3.8	7.47e-01	0	56	104	270532608	61	13930
2026-01-03 09:22:44.81	42.78	30.42	-49.2	-60.7	3.8	7.47e-01	0	56	104	270532608	61	13650
2026-01-03 09:22:45.81	42.37	30.44	-49.1	-60.6	3.8	7.45e-01	0	56	104	270532608	61	13559
2026-01-03 09:22:46.79	41.97	30.46	-49.1	-60.5	3.8	7.45e-01	0	56	104	270532608	61	13387
2026-01-03 09:22:47.79	41.56	30.49	-49.2	-60.7	3.9	7.43e-01	0	56	104	270532608	61	13692
2026-01-03 09:22:48.78	41.15	30.51	-49.4	-61.0	3.8	7.44e-01	0	56	104	270532608	61	14208
2026-01-03 09:22:49.77	40.74	30.52	-49.8	-61.6	3.8	7.44e-01	0	56	104	270532608	61	15077
2026-01-03 09:22:50.76	40.34	30.54	-50.2	-62.1	3.8	7.47e-01	0	56	104	270532608	62	15180
2026-01-03 09:22:51.75	39.93	30.55	-49.9	-61.7	3.8	7.42e-01	0	56	104	270532608	62	14415
2026-01-03 09:22:52.75	39.51	30.57	-49.6	-61.3	3.8	7.45e-01	0	56	104	270532608	62	13730
2026-01-03 09:22:53.74	39.10	30.58	-49.4	-61.0	3.8	7.46e-01	0	56	104	270532608	62	13366
2026-01-03 09:22:54.72	38.70	30.59	-49.2	-60.6	3.9	7.43e-01	0	56	104	270532608	61	13517
2026-01-03 09:22:55.71	38.29	30.60	-49.2	-60.6	3.8	7.45e-01	0	56	104	270532608	61	13415
2026-01-03 09:22:56.70	37.88	30.61	-49.5	-61.1	3.9	7.47e-01	0	56	104	270532608	61	14278
2026-01-03 09:22:57.70	37.46	30.61	-49.9	-61.7	3.8	7.46e-01	0	56	104	270532608	61	15292
2026-01-03 09:22:58.68	37.06	30.61	-50.2	-62.0	3.8	7.44e-01	0	56	104	270532608	62	15031
2026-01-03 09:22:59.67	36.65	30.62	-50.6	-62.6	3.8	7.42e-01	0	56	104	270532608	63	15124
2026-01-03 09:23:00.65	36.24	30.62	-51.0	-63.3	3.8	7.47e-01	0	56	104	270532608	64	15509
2026-01-03 09:23:01.64	35.83	30.62	-51.5	-64.1	3.8	7.43e-01	0	56	104	270532608	65	16088
2026-01-03 09:23:02.63	35.42	30.61	-51.7	-64.5	3.8	7.45e-01	0	56	104	270532608	65	16847
2026-01-03 09:23:03.62	35.01	30.61	-51.6	-64.4	3.8	7.40e-01	0	56	104	270532608	65	16667
2026-01-03 09:23:04.60	34.61	30.60	-51.6	-64.3	3.8	7.45e-01	0	56	104	270532608	65	16457
2026-01-03 09:23:05.59	34.20	30.59	-51.7	-64.5	3.8	7.46e-01	0	56	104	270532608	65	16878
2026-01-03 09:23:06.58	33.79	30.59	-51.9	-65.0	3.8	7.47e-01	0	56	104	270532608	66	16773
2026-01-03 09:23:07.57	33.38	30.57	-52.2	-65.6	3.8	7.45e-01	0	56	104	270532608	66	18042
2026-01-03 09:23:08.56	32.97	30.56	-52.6	-66.2	3.8	7.45e-01	0	56	104	270532608	67	18208
2026-01-03 09:23:09.54	32.56	30.55	-53.0	-67.2	3.8	7.45e-01	0	56	104	270532608	68	19221
2026-01-03 09:23:10.53	32.15	30.53	-53.0	-67.2	3.9	7.42e-01	0	56	104	270532608	68	19261
2026-01-03 09:23:11.52	31.75	30.52	-52.6	-66.4	3.8	7.46e-01	0	56	104	270532608	68	17549
2026-01-03 09:23:12.51	31.34	30.50	-52.2	-65.5	3.8	7.43e-01	0	56	104	270532608	68	15915
2026-01-03 09:23:13.49	30.94	30.48	-51.6	-64.5	3.8	7.42e-01	0	56	104	270532608	66	15767
2026-01-03 09:23:14.48	30.53	30.45	-51.5	-64.1	3.8	7.45e-01	0	56	104	270532608	66	15188
2026-01-03 09:23:15.46	30.13	30.43	-51.9	-65.0	3.8	7.43e-01	0	56	104	270532608	66	16818
2026-01-03 09:23:16.45	29.72	30.41	-52.0	-65.3	3.8	7.45e-01	0	56	104	270532608	66	17299
2026-01-03 09:23:17.44	29.32	30.38	-51.6	-64.3	3.8	7.42e-01	0	56	104	270532608	66	15547
2026-01-03 09:23:18.43	28.91	30.35	-51.3	-63.9	3.8	7.44e-01	0	56	104	270532608	66	14752
2026-01-03 09:23:19.43	28.51	30.32	-50.9	-63.1	3.8	7.45e-01	0	56	104	270532608	65	14299
2026-01-03 09:23:20.42	28.11	30.29	-50.6	-62.7	3.8	7.48e-01	0	56	104	270532608	64	14450
2026-01-03 09:23:21.41	27.70	30.26	-50.3	-62.3	3.8	7.45e-01	0	56	104	270532608	64	13849
2026-01-03 09:23:22.40	27.30	30.22	-50.2	-62.1	3.8	7.42e-01	0	56	104	270532608	63	14210
2026-01-03 09:23:23.39	26.90	30.19	-50.0	-61.7	3.8	7.43e-01	0	56	104	270532608	63	13638
2026-01-03 09:23:24.38	26.51	30.15	-49.8	-61.4	3.8	7.46e-01	0	56	104	270532608	63	13128
2026-01-03 09:23:25.37	26.11	30.11	-49.8	-61.6	3.8	7.47e-01	0	56	104	270532608	63	13420
2026-01-03 09:23:26.36	25.71	30.07	-49.8	-61.5	3.8	7.48e-01	0	56	104	270532608	63	13276
2026-01-03 09:23:27.35	25.31	30.03	-49.8	-61.5	3.8	7.42e-01	0	56	104	270532608	63	13410
2026-01-03 09:23:28.34	24.92	29.99	-49.5	-61.1	3.8	7.44e-01	0	56	104	270532608	62	13476
2026-01-03 09:23:29.33	24.53	29.95	-49.3	-60.8	3.8	7.42e-01	0	56	104	270532608	62	12980
2026-01-03 09:23:30.31	24.14	29.90	-49.2	-60.7	3.8	7.45e-01	0	56	104	270532608	62	12866
2026-01-03 09:23:31.30	23.75	29.85	-49.2	-60.6	3.8	7.43e-01	0	56	104	270532608	61	13526
2026-01-03 09:23:32.29	23.36	29.81	-49.3	-61.0	3.8	7.46e-01	0	56	104	270532608	61	14139
2026-01-03 09:23:33.28	22.97	29.76	-49.3	-60.9	3.8	7.44e-01	0	56	104	270532608	61	14028
2026-01-03 09:23:34.27	22.58	29.70	-49.3	-60.8	3.8	7.43e-01	0	56	104	270532608	61	13883
2026-01-03 09:23:35.26	22.19	29.65	-49.3	-60.9	3.8	7.45e-01	0	56	104	270532608	61	13941
2026-01-03 09:23:36.25	21.81	29.60	-49.2	-60.6	3.8	7.44e-01	0	56	104	270532608	61	13473
2026-01-03 09:23:37.24	21.43	29.54	-49.3	-60.9	3.8	7.46e-01	0	56	104	270532608	61	13889
2026-01-03 09:23:38.23	21.04	29.49	-49.5	-61.3	3.8	7.43e-01	0	56	104	270532608	61	14542
2026-01-03 09:23:39.22	20.66	29.43	-49.7	-61.7	3.8	7.44e-01	0	56	104	270532608	61	15281
2026-01-03 09:23:40.20	20.29	29.37	-49.9	-61.8	3.8	7.45e-01	0	56	104	270532608	61	15527
2026-01-03 09:23:41.19	19.91	29.31	-50.1	-62.1	3.8	7.42e-01	0	56	104	270532608	62	15108
2026-01-03 09:23:42.18	19.53	29.25	-49.9	-61.9	3.8	7.45e-01	0	56	104	270532608	62	14715
2026-01-03 09:23:43.17	19.16	29.19	-49.8	-61.8	3.8	7.43e-01	0	56	104	270532608	62	14652
2026-01-03 09:23:44.16	18.79	29.13	-49.8	-62.0	3.8	7.40e-01	0	56	104	270532608	62	14966
2026-01-03 09:23:45.15	18.41	29.06	-49.8	-61.9	3.8	7.44e-01	0	56	104	270532608	62	14779
2026-01-03 09:23:46.14	18.04	28.99	-50.0	-62.1	3.8	7.43e-01	0	56	104	270532608	62	15152
2026-01-03 09:23:47.12	17.68	28.93	-50.3	-62.7	3.8	7.42e-01	0	56	104	270532608	62	16189
2026-01-03 09:23:48.11	17.31	28.86	-50.7	-63.4	3.8	7.43e-01	0	56	104	270532608	63	16540
2026-01-03 09:23:49.10	16.95	28.79	-51.1	-64.3	3.8	7.48e-01	0	56	104	270532608	64	17383
2026-01-03 09:23:50.10	16.58	28.72	-51.5	-65.5	3.8	7.44e-01	0	56	104	270532608	65	18873
2026-01-03 09:23:51.08	16.22	28.65	-51.9	-66.6	3.8	7.44e-01	0	56	104	270532608	66	20299
2026-01-03 09:23:52.07	15.86	28.58	-52.4	-68.1	3.8	7.40e-01	0	56	104	270532608	66	23930
2026-01-03 09:23:53.05	15.51	28.51	-52.4	-68.1	3.8	7.43e-01	0	56	104	270532608	67	22627
2026-01-03 09:23:54.04	15.15	28.43	-52.4	-68.4	3.8	7.44e-01	0	56	104	270532608	67	23572
2026-01-03 09:23:55.02	14.80	28.36	-52.5	-68.9	3.8	7.47e-01	0	56	104	270532608	67	24795
2026-01-03 09:23:56.01	14.44	28.28	-52.7	-69.5	3.8	7.48e-01	0	56	104	270532608	67	26693
2026-01-03 09:23:57.01	14.09	28.20	-53.0	-70.0	3.9	7.45e-01	0	56	104	270532608	68	26539
2026-01-03 09:23:58.00	13.74	28.12	-53.1	-70.3	3.8	7.44e-01	0	56	104	270532608	68	27641
2026-01-03 09:23:58.99	13.39	28.04	-53.0	-69.5	3.8	7.45e-01	0	56	104	270532608	68	25112
2026-01-03 09:23:59.98	13.04	27.97	-52.7	-68.5	3.8	7.43e-01	0	56	104	270532608	68	22346
2026-01-03 09:24:00.97	12.70	27.88	-52.6	-68.3	3.8	7.46e-01	0	56	104	270532608	68	21832
2026-01-03 09:24:01.97	12.35	27.80	-52.7	-68.5	3.8	7.43e-01	0	56	104	270532608	68	22369
2026-01-03 09:24:02.96	12.01	27.72	-52.7	-68.5	3.8	7.45e-01	0	56	104	270532608	68	22508
2026-01-03 09:24:03.94	11.68	27.64	-52.7	-68.2	3.8	7.47e-01	0	56	104	270532608	68	21534
2026-01-03 09:24:04.94	11.34	27.55	-52.7	-68.2	3.8	7.45e-01	0	56	104	270532608	68	21623
2026-01-03 09:24:05.93	11.00	27.47	-52.7	-67.9	3.8	7.48e-01	0	56	104	270532608	68	20893
2026-01-03 09:24:06.92	10.67	27.38	-52.4	-67.0	3.8	7.43e-01	0	56	104	270532608	68	18901
2026-01-03 09:24:07.90	10.34	27.30	-52.1	-66.2	3.8	7.46e-01	0	56	104	270532608	67	18235
2026-01-03 09:24:08.89	10.01	27.21	-51.7	-65.3	3.8	7.43e-01	0	56	104	270532608	67	16358
2026-01-03 09:24:09.88	9.68	27.12	-51.4	-64.5	3.8	7.48e-01	0	56	104	270532608	66	15767
2026-01-03 09:24:10.87	9.36	27.03	-51.1	-63.9	3.8	7.41e-01	0	56	104	270532608	65	15737
2026-01-03 09:24:11.86	9.03	26.94	-50.9	-63.5	3.8	7.45e-01	0	56	104	270532608	65	14942
2026-01-03 09:24:12.86	8.71	26.85	-50.6	-63.1	3.8	7.44e-01	0	56	104	270532608	64	15116
2026-01-03 09:24:13.86	8.38	26.76	-50.5	-63.0	3.8	7.44e-01	0	56	104	270532608	64	14970
2026-01-03 09:24:14.85	8.06	26.67	-50.3	-62.7	3.8	7.44e-01	0	56	104	270532608	64	14394
2026-01-03 09:24:15.83	7.75	26.58	-50.4	-62.6	3.8	7.40e-01	0	56	104	270532608	64	14233
2026-01-03 09:24:16.82	7.44	26.49	-50.3	-62.3	3.8	7.44e-01	0	56	104	270532608	64	13860
2026-01-03 09:24:17.81	7.12	26.39	-50.2	-62.3	3.8	7.44e-01	0	56	104	270532608	64	13810
2026-01-03 09:24:18.80	6.81	26.30	-50.2	-62.3	3.8	7.45e-01	0	56	104	270532608	64	13805
2026-01-03 09:24:19.79	6.51	26.21	-50.2	-62.2	3.8	7.45e-01	0	56	104	270532608	63	14421
2026-01-03 09:24:20.79	6.20	26.11	-50.0	-61.8	3.8	7.45e-01	0	56	104	270532608	63	13819
2026-01-03 09:24:21.78	5.89	26.02	-50.1	-62.0	3.8	7.43e-01	0	56	104	270532608	63	14113
2026-01-03 09:24:22.77	5.59	25.92	-50.2	-62.1	3.8	7.46e-01	0	56	104	270532608	63	14372
2026-01-03 09:24:23.75	5.29	25.83	-50.2	-62.3	3.8	7.47e-01	0	56	104	270532608	63	14619
2026-01-03 09:24:24.74	4.99	25.73	-50.6	-63.3	3.8	7.45e-01	0	56	104	270532608	63	16373
2026-01-03 09:24:25.74	4.69	25.63	-51.4	-65.2	3.8	7.47e-01	0	56	104	270532608	64	19362
2026-01-03 09:24:26.72	4.40	25.53	-52.0	-67.6	3.8	7.42e-01	0	56	104	270532608	66	22521
2026-01-03 09:24:27.71	4.10	25.44	-52.3	-68.5	3.8	7.45e-01	0	56	104	270532608	66	25034
2026-01-03 09:24:28.69	3.82	25.34	-52.4	-68.6	3.8	7.43e-01	0	56	104	270532608	66	25382
2026-01-03 09:24:29.68	3.53	25.24	-52.1	-67.0	3.8	7.50e-01	0	56	104	270532608	66	21063
2026-01-03 09:24:30.66	3.24	25.14	-51.6	-65.0	3.8	7.44e-01	0	56	104	270532608	66	16833
2026-01-03 09:24:31.65	2.96	25.04	-51.1	-63.9	3.8	7.44e-01	0	56	104	270532608	65	15710
2026-01-03 09:24:32.64	2.67	24.94	-50.4	-62.7	3.8	7.47e-01	0	56	104	270532608	64	14452
2026-01-03 09:24:33.64	2.39	24.84	-50.0	-61.8	3.8	7.43e-01	0	56	104	270532608	63	13742
2026-01-03 09:24:34.62	2.11	24.74	-49.9	-61.4	3.8	7.45e-01	0	56	104	270532608	63	13249
2026-01-03 09:24:35.60	1.83	24.64	-49.9	-61.9	3.8	7.45e-01	0	56	104	270532608	63	13902
2026-01-03 09:24:36.59	1.56	24.54	-50.3	-62.4	3.8	7.44e-01	0	56	104	270532608	63	14777
2026-01-03 09:24:37.58	1.28	24.44	-50.6	-62.7	3.8	7.45e-01	0	56	104	270532608	63	15355
2026-01-03 09:24:38.56	1.01	24.34	-50.8	-63.1	3.8	7.46e-01	0	56	104	270532608	63	16001
2026-01-03 09:24:39.55	0.74	24.24	-51.2	-63.9	3.8	7.47e-01	0	56	104	270532608	64	16620
2026-01-03 09:24:40.54	0.47	24.14	-51.2	-63.6	3.8	7.46e-01	0	56	104	270532608	65	15085
2026-01-03 09:24:41.53	0.21	24.04	-50.7	-63.0	3.8	7.42e-01	0	56	104	270532608	65	14073
2026-01-03 09:24:42.52	359.94	23.93	-50.6	-62.8	3.8	7.45e-01	0	56	104	270532608	64	14625
2026-01-03 09:24:43.51	359.68	23.83	-50.5	-62.6	3.8	7.43e-01	0	56	104	270532608	64	14220
2026-01-03 09:24:44.50	359.42	23.73	-50.6	-62.8	3.8	7.45e-01	0	56	104	270532608	64	14581
2026-01-03 09:24:45.49	359.16	23.63	-50.8	-63.2	3.8	7.44e-01	0	56	104	270532608	64	15278
2026-01-03 09:24:46.48	358.90	23.52	-51.1	-63.6	3.8	7.46e-01	0	56	104	270532608	64	16040
2026-01-03 09:24:47.47	358.64	23.42	-51.4	-64.1	3.8	7.46e-01	0	56	104	270532608	64	16973
2026-01-03 09:24:48.46	358.39	23.32	-51.4	-64.4	3.8	7.46e-01	0	56	104	270532608	65	16551
2026-01-03 09:24:49.45	358.13	23.21	-51.2	-63.8	3.8	7.47e-01	0	57	104	270532608	65	15493
2026-01-03 09:24:50.44	357.88	23.11	-51.1	-63.4	3.8	7.45e-01	0	56	104	270532608	65	14793
2026-01-03 09:24:51.44	357.63	23.00	-51.0	-63.2	3.8	7.44e-01	0	56	104	270532608	65	14481
2026-01-03 09:24:52.42	357.39	22.90	-51.0	-63.5	3.8	7.44e-01	0	56	104	270532608	65	14942
2026-01-03 09:24:53.42	357.14	22.80	-51.1	-63.9	3.8	7.46e-01	0	56	104	270532608	65	15658
2026-01-03 09:24:54.41	356.90	22.69	-51.3	-64.0	3.8	7.40e-01	0	56	104	270532608	65	15843
2026-01-03 09:24:55.40	356.65	22.59	-51.8	-65.0	3.8	7.45e-01	0	57	104	270532608	65	17821
2026-01-03 09:24:56.39	356.41	22.48	-51.8	-64.9	3.8	7.44e-01	0	56	104	270532608	66	16663
2026-01-03 09:24:57.39	356.17	22.38	-51.4	-63.9	3.8	7.45e-01	0	57	104	270532608	66	14710
2026-01-03 09:24:58.38	355.93	22.28	-51.0	-63.5	3.8	7.44e-01	0	56	104	270532608	65	15005
2026-01-03 09:24:59.37	355.70	22.17	-50.6	-62.9	3.8	7.45e-01	0	57	104	270532608	64	14781
2026-01-03 09:25:00.36	355.46	22.07	-50.4	-62.4	3.8	7.45e-01	0	56	104	270532608	64	13951
2026-01-03 09:25:01.36	355.23	21.96	-50.6	-63.4	3.8	7.46e-01	0	56	104	270532608	64	15595
2026-01-03 09:25:02.35	355.00	21.86	-50.8	-62.9	3.8	7.42e-01	0	57	104	270532608	64	14844
2026-01-03 09:25:03.33	354.77	21.75	-51.1	-63.6	3.8	7.41e-01	0	56	104	270532608	64	16122
2026-01-03 09:25:04.32	354.55	21.65	-51.2	-63.9	3.8	7.44e-01	0	56	104	270532608	64	16645
2026-01-03 09:25:05.30	354.32	21.55	-50.8	-62.7	3.8	7.46e-01	0	57	104	270532608	64	14517
2026-01-03 09:25:06.29	354.10	21.44	-50.6	-63.1	3.8	7.43e-01	0	56	104	270532608	64	15202
2026-01-03 09:25:07.28	353.88	21.34	-50.4	-62.8	3.8	7.47e-01	0	57	104	270532608	64	14557
2026-01-03 09:25:08.27	353.66	21.23	-50.2	-61.9	3.8	7.47e-01	0	56	104	270532608	63	14018
2026-01-03 09:25:09.25	353.44	21.13	-49.9	-62.6	3.8	7.42e-01	0	56	104	270532608	63	15098
2026-01-03 09:25:10.23	353.22	21.03	-49.7	-60.9	3.8	7.45e-01	0	56	104	270532608	63	12516
2026-01-03 09:25:11.22	353.01	20.92	-49.6	-61.8	3.8	7.42e-01	0	56	104	270532608	62	14614
2026-01-03 09:25:12.22	352.79	20.82	-49.6	-61.3	3.8	7.43e-01	0	57	104	270532608	62	13769
2026-01-03 09:25:13.22	352.58	20.71	-49.5	-60.7	3.8	7.43e-01	0	56	104	270532608	62	12921
2026-01-03 09:25:14.21	352.36	20.61	-49.4	-62.2	3.8	7.43e-01	0	56	104	270532608	62	15327
2026-01-03 09:25:15.21	352.15	20.50	-49.2	-59.9	3.8	7.44e-01	0	57	104	270532608	62	11719
2026-01-03 09:25:16.20	351.94	20.40	-49.3	-61.7	3.8	7.44e-01	0	57	104	270532608	62	14495
2026-01-03 09:25:17.18	351.74	20.30	-49.4	-60.5	3.8	7.46e-01	0	56	104	270532608	62	12637
2026-01-03 09:25:18.17	351.53	20.19	-49.5	-61.2	3.9	7.42e-01	0	56	104	270532608	62	13588
2026-01-03 09:25:19.17	351.33	20.09	-49.7	-61.8	3.8	7.46e-01	0	57	104	270532608	62	14583
2026-01-03 09:25:20.16	351.13	19.98	-49.9	-61.2	3.8	7.45e-01	0	57	104	270532608	62	13671
2026-01-03 09:25:21.16	350.92	19.88	-50.1	-63.0	3.8	7.48e-01	0	57	104	270532608	62	16728
2026-01-03 09:25:22.13	350.73	19.78	-49.9	-61.0	3.8	7.45e-01	0	56	104	270532608	62	13330
2026-01-03 09:25:23.12	350.53	19.68	-49.8	-62.6	3.8	7.44e-01	0	57	104	270532608	62	15980
2026-01-03 09:25:24.12	350.33	19.57	-49.7	-60.8	3.8	7.45e-01	0	57	104	270532608	62	13058
2026-01-03 09:25:25.11	350.14	19.47	-49.6	-62.1	3.8	7.45e-01	0	56	104	270532608	62	15197
2026-01-03 09:25:26.10	349.94	19.37	-49.9	-61.3	3.8	7.45e-01	0	56	104	270532608	62	13879
2026-01-03 09:25:27.09	349.75	19.26	-50.1	-62.3	3.8	7.44e-01	0	56	104	270532608	62	15552
2026-01-03 09:25:28.08	349.56	19.16	-50.5	-62.3	3.8	7.45e-01	0	56	104	270532608	63	14662
2026-01-03 09:25:29.05	349.37	19.06	-50.2	-62.4	3.8	7.45e-01	0	56	104	270532608	63	14875
2026-01-03 09:25:30.04	349.18	18.96	-49.8	-61.5	3.8	7.47e-01	0	56	104	270532608	63	13328
2026-01-03 09:25:31.03	349.00	18.86	-49.6	-61.9	3.8	7.43e-01	0	57	104	270532608	62	14731
2026-01-03 09:25:32.02	348.81	18.75	-49.5	-60.9	3.8	7.42e-01	0	57	104	270532608	62	13236
2026-01-03 09:25:33.01	348.63	18.65	-49.5	-61.7	3.8	7.44e-01	0	57	104	270532608	62	14451
2026-01-03 09:25:34.00	348.44	18.55	-49.6	-61.1	3.8	7.45e-01	0	57	104	270532608	62	13434
2026-01-03 09:25:34.99	348.26	18.45	-50.0	-62.4	3.8	7.44e-01	0	57	104	270532608	62	15642
2026-01-03 09:25:35.98	348.08	18.35	-50.3	-62.2	3.8	7.46e-01	0	56	104	270532608	62	15283
2026-01-03 09:25:36.97	347.90	18.25	-50.8	-63.8	3.8	7.45e-01	0	57	104	270532608	63	17390
2026-01-03 09:25:37.97	347.72	18.15	-51.3	-64.0	3.8	7.43e-01	0	57	104	270532608	64	16845
2026-01-03 09:25:38.94	347.55	18.05	-51.6	-65.3	3.8	7.45e-01	0	56	104	270532608	65	18429
2026-01-03 09:25:39.93	347.37	17.95	-51.9	-65.4	3.8	7.47e-01	0	57	104	270532608	65	18670
2026-01-03 09:25:40.93	347.20	17.85	-52.1	-66.8	3.8	7.47e-01	0	57	104	270532608	66	20566
2026-01-03 09:25:41.92	347.03	17.75	-52.3	-67.4	3.8	7.46e-01	0	56	104	270532608	66	22075
2026-01-03 09:25:42.91	346.85	17.65	-52.4	-68.3	3.8	7.45e-01	0	56	104	270532608	67	23228
2026-01-03 09:25:43.91	346.68	17.54	-52.4	-69.1	3.8	7.46e-01	0	57	104	270532608	67	25419
2026-01-03 09:25:44.89	346.51	17.45	-52.6	-70.0	3.8	7.45e-01	0	56	104	270532608	67	28312
2026-01-03 09:25:45.87	346.35	17.35	-52.7	-71.3	3.8	7.47e-01	0	56	104	270532608	67	32581
2026-01-03 09:25:46.86	346.18	17.25	-52.5	-71.0	3.8	7.43e-01	0	57	104	270532608	67	31577
2026-01-03 09:25:47.85	346.02	17.15	-52.0	-69.7	3.8	7.44e-01	0	57	104	270532608	67	27275
2026-01-03 09:25:48.84	345.85	17.05	-51.6	-68.2	3.8	7.45e-01	0	57	104	270532608	66	24292
2026-01-03 09:25:49.83	345.69	16.95	-51.1	-66.9	3.8	7.42e-01	0	57	104	270532608	65	22161
2026-01-03 09:25:50.82	345.53	16.85	-51.0	-66.6	3.8	7.46e-01	0	57	104	270532608	65	21491
2026-01-03 09:25:51.81	345.36	16.76	-51.1	-67.2	3.8	7.45e-01	0	57	104	270532608	65	22812
2026-01-03 09:25:52.79	345.21	16.66	-51.2	-67.5	3.8	7.46e-01	0	56	104	270532608	65	23616
2026-01-03 09:25:53.78	345.05	16.56	-50.9	-65.9	3.8	7.44e-01	0	57	104	270532608	65	19785
2026-01-03 09:25:54.76	344.89	16.47	-50.3	-64.3	3.8	7.46e-01	0	57	104	270532608	64	17295
2026-01-03 09:25:55.75	344.74	16.37	-49.7	-62.7	3.8	7.44e-01	0	57	104	270532608	63	15252
2026-01-03 09:25:56.74	344.58	16.27	-49.6	-62.2	3.8	7.44e-01	0	57	104	270532608	62	15298
2026-01-03 09:25:57.72	344.43	16.17	-49.5	-62.1	3.8	7.44e-01	0	57	104	270532608	62	15135
2026-01-03 09:25:58.71	344.27	16.08	-49.3	-61.6	3.8	7.43e-01	0	57	104	270532608	62	14310
2026-01-03 09:25:59.70	344.12	15.98	-49.0	-61.4	3.8	7.46e-01	0	57	104	270532608	61	14719
2026-01-03 09:26:00.70	343.97	15.88	-49.1	-61.6	3.8	7.45e-01	0	57	104	270532608	61	15157
2026-01-03 09:26:01.68	343.82	15.79	-49.3	-62.0	3.8	7.45e-01	0	57	104	270532608	61	15826
2026-01-03 09:26:02.67	343.67	15.69	-49.5	-62.7	3.8	7.45e-01	0	57	104	270532608	61	17248
2026-01-03 09:26:03.66	343.52	15.60	-49.6	-62.8	3.8	7.44e-01	0	57	104	270532608	61	17399
2026-01-03 09:26:04.65	343.38	15.50	-49.9	-63.3	3.8	7.46e-01	0	57	104	270532608	61	18514
2026-01-03 09:26:05.64	343.23	15.41	-50.1	-63.8	3.8	7.45e-01	0	57	104	270532608	62	18460
2026-01-03 09:26:06.64	343.08	15.31	-50.4	-64.2	3.8	7.42e-01	0	57	104	270532608	63	18251
2026-01-03 09:26:07.63	342.94	15.22	-50.8	-65.0	3.8	7.48e-01	0	57	104	270532608	63	20040
2026-01-03 09:26:08.62	342.80	15.12	-50.9	-65.6	3.8	7.46e-01	0	57	104	270532608	64	20286
2026-01-03 09:26:09.60	342.66	15.03	-51.1	-66.2	3.8	7.49e-01	0	57	104	270532608	64	21561
2026-01-03 09:26:10.59	342.51	14.94	-51.1	-66.6	3.8	7.44e-01	0	57	104	270532608	64	22648
2026-01-03 09:26:11.58	342.37	14.84	-51.1	-67.1	3.8	7.44e-01	0	57	104	270532608	64	23861
2026-01-03 09:26:12.57	342.24	14.75	-51.1	-67.2	3.8	7.45e-01	0	57	104	270532608	64	24287
2026-01-03 09:26:13.56	342.10	14.66	-51.2	-67.7	3.8	7.44e-01	0	57	104	270532608	64	25823
2026-01-03 09:26:14.54	341.96	14.56	-51.2	-68.1	3.8	7.46e-01	0	57	104	270532608	64	26924
2026-01-03 09:26:15.53	341.83	14.47	-51.3	-68.4	3.8	7.43e-01	0	57	104	270532608	64	27862
2026-01-03 09:26:16.53	341.69	14.38	-51.3	-68.7	3.8	7.44e-01	0	57	104	270532608	64	28943
2026-01-03 09:26:17.51	341.56	14.29	-51.2	-69.0	3.8	7.44e-01	0	57	104	270532608	64	29859
2026-01-03 09:26:18.50	341.42	14.19	-51.0	-69.1	3.8	7.44e-01	0	57	104	270532608	64	30108
2026-01-03 09:26:19.49	341.29	14.10	-50.9	-69.2	3.8	7.48e-01	0	57	104	270532608	64	30671
2026-01-03 09:26:20.48	341.16	14.01	-50.8	-69.3	3.8	7.47e-01	0	57	104	270532608	64	31086
2026-01-03 09:26:21.48	341.03	13.92	-50.7	-69.5	3.8	7.46e-01	0	57	104	270532608	64	31557
2026-01-03 09:26:22.47	340.90	13.83	-50.6	-69.6	3.8	7.44e-01	0	57	104	270532608	64	31851
2026-01-03 09:26:23.45	340.77	13.74	-50.6	-69.8	3.8	7.43e-01	0	57	104	270532608	64	32693
2026-01-03 09:26:24.44	340.64	13.65	-50.6	-69.9	3.8	7.46e-01	0	57	104	270532608	64	33244
2026-01-03 09:26:25.43	340.51	13.56	-50.6	-70.0	3.8	7.45e-01	0	57	104	270532608	64	33495
2026-01-03 09:26:26.41	340.39	13.47	-50.6	-70.1	3.8	7.46e-01	0	57	104	270532608	64	33851
2026-01-03 09:26:27.41	340.26	13.38	-50.5	-70.1	3.8	7.43e-01	0	57	104	270532608	64	33967
2026-01-03 09:26:28.40	340.14	13.29	-50.5	-70.1	3.8	7.43e-01	0	57	104	270532608	64	33953
2026-01-03 09:26:29.38	340.01	13.20	-50.4	-70.0	3.8	7.44e-01	0	57	104	270532608	64	33542
2026-01-03 09:26:30.37	339.89	13.11	-50.3	-70.0	3.8	7.46e-01	0	57	104	270532608	64	33445
2026-01-03 09:26:31.36	339.77	13.02	-50.3	-69.9	3.8	7.48e-01	0	57	104	270532608	64	33233
2026-01-03 09:26:32.35	339.65	12.93	-50.2	-69.7	3.8	7.42e-01	0	57	104	270532608	64	32425
2026-01-03 09:26:33.34	339.52	12.84	-50.2	-69.8	3.8	7.44e-01	0	57	104	270532608	64	32705
2026-01-03 09:26:34.33	339.40	12.76	-50.3	-69.9	3.8	7.46e-01	0	57	104	270532608	63	35222
2026-01-03 09:26:35.32	339.29	12.67	-50.2	-69.9	3.8	7.48e-01	0	57	104	270532608	63	35176
2026-01-03 09:26:36.31	339.17	12.58	-50.2	-69.8	3.8	7.47e-01	0	57	104	270532608	63	34739
2026-01-03 09:26:37.30	339.05	12.49	-50.2	-69.7	3.8	7.44e-01	0	57	104	270532608	63	34336
2026-01-03 09:26:38.30	338.93	12.40	-50.2	-69.6	3.8	7.42e-01	0	57	104	270532608	63	33837
2026-01-03 09:26:39.28	338.82	12.32	-50.2	-69.3	3.8	7.49e-01	0	57	104	270532608	63	32641
2026-01-03 09:26:40.28	338.70	12.23	-50.3	-68.7	3.8	7.44e-01	0	57	104	270532608	63	30386
2026-01-03 09:26:41.26	338.59	12.14	-50.4	-65.9	4.4	7.27e-01	0	57	104	270532608	63	22032
2026-01-03 09:26:42.26	338.47	12.06	-50.4	-62.3	6.7	6.69e-01	90	57	0	524288	63	14674
2026-01-03 09:26:43.24	338.36	11.97	-50.3	-59.3	10.2	6.22e-01	0	57	0	2097152	63	10313
2026-01-03 09:26:44.24	338.25	11.89	-50.1	-56.7	13.3	6.07e-01	0	57	0	4194304	63	7650
2026-01-03 09:26:45.23	338.13	11.80	-49.8	-54.7	15.9	6.04e-01	0	57	0	5767168	63	6074
2026-01-03 09:26:46.22	338.02	11.71	-49.5	-53.4	17.5	6.04e-01	0	57	0	7864320	62	5543
2026-01-03 09:26:47.21	337.91	11.63	-49.4	-52.6	18.7	6.04e-01	0	57	0	9437184	62	5087
2026-01-03 09:26:48.20	337.80	11.54	-49.5	-52.4	19.3	6.03e-01	0	57	0	11534336	62	4961
2026-01-03 09:26:49.19	337.70	11.46	-49.8	-52.7	19.4	6.02e-01	0	57	0	13107200	62	5142
2026-01-03 09:26:50.18	337.59	11.37	-49.9	-52.9	19.4	6.01e-01	0	57	0	15204352	62	5270
2026-01-03 09:26:51.17	337.48	11.29	-50.2	-53.3	19.0	6.00e-01	0	57	0	16777216	62	5505
2026-01-03 09:26:52.16	337.37	11.21	-49.9	-52.7	19.8	6.05e-01	0	57	0	18874368	62	5153
2026-01-03 09:26:53.15	337.27	11.12	-49.7	-52.3	20.4	6.04e-01	0	57	0	20447232	62	4892
2026-01-03 09:26:54.13	337.16	11.04	-49.5	-52.0	20.7	6.03e-01	0	57	0	22544384	62	4723
2026-01-03 09:26:55.12	337.06	10.96	-49.4	-51.9	20.9	6.01e-01	0	57	0	24117248	62	4653
2026-01-03 09:26:56.12	336.95	10.87	-49.3	-51.7	21.1	6.03e-01	0	57	0	26214400	62	4550
2026-01-03 09:26:57.11	336.85	10.79	-49.6	-52.0	20.7	6.01e-01	0	57	0	28311552	62	4755
2026-01-03 09:26:58.10	336.75	10.71	-49.6	-52.1	20.7	6.04e-01	0	57	0	29884416	62	4797
2026-01-03 09:26:59.09	336.64	10.62	-49.7	-52.2	20.6	6.03e-01	0	57	0	31981568	62	4841
2026-01-03 09:27:00.07	336.54	10.54	-49.6	-52.0	20.7	6.06e-01	0	57	0	33554432	62	4755
2026-01-03 09:27:01.06	336.44	10.46	-49.6	-52.1	20.7	6.05e-01	0	57	0	35651584	62	4802
2026-01-03 09:27:02.05	336.34	10.38	-49.6	-52.2	20.6	6.03e-01	0	57	0	37224448	62	4815
2026-01-03 09:27:03.05	336.24	10.30	-49.7	-52.3	20.5	6.03e-01	0	57	0	39321600	62	4896
2026-01-03 09:27:04.04	336.14	10.21	-49.6	-52.0	20.8	6.02e-01	0	57	0	40894464	62	4759
2026-01-03 09:27:05.03	336.05	10.13	-49.4	-51.7	21.0	6.01e-01	0	57	0	42991616	62	4576
2026-01-03 09:27:06.02	335.95	10.05	-49.4	-51.8	21.1	6.04e-01	0	57	0	44564480	62	4603
2026-01-03 09:27:07.02	335.85	9.97	-49.5	-51.9	20.9	6.04e-01	0	57	0	46661632	62	4670
2026-01-03 09:27:08.00	335.75	9.89	-49.5	-51.9	21.0	6.04e-01	0	56	0	48758784	62	4656
2026-01-03 09:27:08.99	335.66	9.81	-49.5	-51.9	20.9	6.01e-01	0	57	0	50331648	62	4670
2026-01-03 09:27:09.98	335.56	9.73	-49.5	-51.9	20.9	6.04e-01	0	57	0	52428800	62	4693
2026-01-03 09:27:10.96	335.47	9.65	-49.7	-52.2	20.6	6.03e-01	0	57	0	54001664	62	4868
2026-01-03 09:27:11.95	335.37	9.57	-49.6	-52.1	20.7	6.02e-01	0	57	0	56098816	62	4793
2026-01-03 09:27:12.93	335.28	9.49	-49.5	-51.9	20.9	6.01e-01	0	57	0	57671680	62	4705
2026-01-03 09:27:13.92	335.19	9.41	-49.5	-51.9	20.9	6.01e-01	0	57	0	59768832	62	4667
2026-01-03 09:27:14.90	335.10	9.34	-49.6	-52.0	20.8	6.03e-01	0	56	0	61341696	62	4747
2026-01-03 09:27:15.89	335.01	9.26	-49.5	-51.9	20.9	6.02e-01	0	57	0	63438848	62	4679
2026-01-03 09:27:16.87	334.91	9.18	-49.6	-52.0	20.8	6.04e-01	0	57	0	65011712	62	4740
2026-01-03 09:27:17.87	334.82	9.10	-49.8	-52.4	20.5	6.05e-01	0	57	0	67108864	62	4942
2026-01-03 09:27:18.85	334.73	9.02	-49.7	-52.2	20.6	6.04e-01	0	57	0	68681728	62	4866
2026-01-03 09:27:19.84	334.64	8.94	-49.6	-52.0	20.8	6.04e-01	0	57	0	70778880	62	4739
2026-01-03 09:27:20.83	334.55	8.87	-49.5	-51.9	20.8	6.02e-01	0	57	0	72876032	62	4705
2026-01-03 09:27:21.81	334.47	8.79	-49.7	-52.2	20.6	6.03e-01	0	57	0	74448896	62	4823
2026-01-03 09:27:22.81	334.38	8.71	-49.7	-52.2	20.6	6.05e-01	0	57	0	76546048	62	4830
2026-01-03 09:27:23.79	334.29	8.63	-49.7	-52.2	20.6	6.02e-01	0	57	0	78118912	62	4822
2026-01-03 09:27:24.78	334.20	8.56	-49.6	-52.1	20.6	6.04e-01	0	57	0	80216064	62	4792
2026-01-03 09:27:25.77	334.12	8.48	-49.7	-52.3	20.5	6.05e-01	0	57	0	81788928	62	4871
2026-01-03 09:27:26.76	334.03	8.40	-49.7	-52.2	20.6	6.03e-01	0	57	0	83886080	62	4831
2026-01-03 09:27:27.74	333.95	8.33	-49.8	-52.3	20.4	6.04e-01	0	57	0	85458944	62	4924
2026-01-03 09:27:28.72	333.86	8.25	-49.8	-52.5	20.3	6.01e-01	0	57	0	87556096	62	4990
2026-01-03 09:27:29.70	333.78	8.18	-49.8	-52.5	20.3	6.03e-01	0	57	0	89128960	62	4985
2026-01-03 09:27:30.69	333.70	8.10	-49.9	-52.6	20.2	6.02e-01	0	57	0	91226112	62	5077
2026-01-03 09:27:31.67	333.61	8.03	-50.0	-52.8	20.0	6.02e-01	0	57	0	92798976	62	5186
2026-01-03 09:27:32.66	333.53	7.95	-50.1	-52.9	19.8	6.05e-01	0	57	0	94896128	62	5238
2026-01-03 09:27:33.65	333.45	7.88	-50.1	-53.0	19.8	6.01e-01	0	57	0	96468992	62	5299
2026-01-03 09:27:34.64	333.36	7.80	-50.2	-53.2	19.6	6.00e-01	0	57	0	98566144	62	5414
2026-01-03 09:27:35.63	333.28	7.73	-50.1	-53.0	19.7	6.02e-01	0	57	0	100139008	62	5314
2026-01-03 09:27:36.61	333.20	7.65	-50.1	-52.9	19.9	6.03e-01	0	57	0	102236160	62	5243
2026-01-03 09:27:37.60	333.12	7.58	-50.0	-52.7	20.0	6.02e-01	0	57	0	103809024	62	5138
2026-01-03 09:27:38.59	333.04	7.50	-50.0	-52.8	19.9	6.04e-01	0	57	0	105906176	62	5171
2026-01-03 09:27:39.58	332.96	7.43	-50.2	-53.1	19.7	6.05e-01	0	57	0	108003328	62	5341
2026-01-03 09:27:40.57	332.88	7.36	-50.2	-53.0	19.7	6.03e-01	0	57	0	109576192	62	5334
2026-01-03 09:27:41.56	332.80	7.28	-50.2	-53.0	19.7	6.06e-01	0	56	0	111673344	62	5331
2026-01-03 09:27:42.55	332.73	7.21	-50.2	-53.1	19.7	6.02e-01	0	57	0	113246208	62	5371
2026-01-03 09:27:43.53	332.65	7.14	-50.0	-52.8	19.9	6.04e-01	0	56	0	115343360	62	5182
2026-01-03 09:27:44.52	332.57	7.06	-50.0	-52.7	20.0	6.04e-01	0	57	0	116916224	62	5140
2026-01-03 09:27:45.51	332.49	6.99	-49.9	-52.7	20.0	6.04e-01	0	57	0	119013376	62	5136
2026-01-03 09:27:46.50	332.42	6.92	-50.0	-52.9	19.8	6.01e-01	0	57	0	120586240	62	5221
2026-01-03 09:27:47.49	332.34	6.84	-50.0	-52.8	19.9	6.01e-01	0	57	0	122683392	62	5207
2026-01-03 09:27:48.48	332.27	6.77	-50.0	-52.9	19.8	6.03e-01	0	57	0	124256256	62	5238
2026-01-03 09:27:49.47	332.19	6.70	-50.2	-53.1	19.6	6.04e-01	0	57	0	126353408	62	5375
2026-01-03 09:27:50.46	332.12	6.63	-50.3	-53.3	19.4	6.02e-01	0	57	0	127926272	62	5488
2026-01-03 09:27:51.44	332.04	6.56	-50.1	-53.0	19.6	6.03e-01	0	57	0	130023424	62	5340
2026-01-03 09:27:52.44	331.97	6.48	-50.2	-53.2	19.5	6.04e-01	0	57	0	132120576	62	5403
2026-01-03 09:27:53.43	331.89	6.41	-50.1	-53.1	19.6	6.04e-01	0	57	0	133693440	62	5348
2026-01-03 09:27:54.41	331.82	6.34	-50.1	-53.0	19.7	6.02e-01	0	57	0	135790592	62	5281
2026-01-03 09:27:55.41	331.75	6.27	-50.1	-53.0	19.6	6.02e-01	0	57	0	137363456	62	5301
2026-01-03 09:27:56.40	331.67	6.20	-50.2	-53.1	19.5	6.03e-01	0	57	0	139460608	62	5396
2026-01-03 09:27:57.38	331.60	6.13	-50.3	-53.3	19.2	6.03e-01	0	57	0	141033472	62	5516
2026-01-03 09:27:58.37	331.53	6.06	-50.1	-53.1	19.5	6.01e-01	0	57	0	143130624	62	5369
2026-01-03 09:27:59.37	331.46	5.99	-50.3	-53.4	19.3	6.03e-01	0	57	0	144703488	62	5531
2026-01-03 09:28:00.35	331.39	5.92	-50.4	-53.6	18.9	6.04e-01	0	57	0	146800640	63	5395
2026-01-03 09:28:01.35	331.32	5.85	-50.3	-53.4	19.1	6.03e-01	0	57	0	148373504	63	5241
2026-01-03 09:28:02.34	331.25	5.78	-50.5	-53.8	18.8	6.02e-01	0	56	0	150470656	63	5500
2026-01-03 09:28:03.32	331.18	5.71	-50.6	-54.0	18.5	6.04e-01	0	57	0	152043520	63	5642
2026-01-03 09:28:04.30	331.11	5.64	-50.4	-53.7	18.8	6.03e-01	0	57	0	154140672	63	5430
2026-01-03 09:28:05.29	331.04	5.57	-50.3	-53.4	19.1	6.00e-01	0	56	0	156237824	63	5261
2026-01-03 09:28:06.29	330.97	5.50	-50.4	-53.5	19.0	6.05e-01	0	57	0	157810688	63	5330
2026-01-03 09:28:07.27	330.91	5.43	-50.3	-53.5	19.1	6.04e-01	0	57	0	159383552	63	5284
2026-01-03 09:28:08.26	330.84	5.36	-50.5	-53.8	18.7	6.04e-01	0	57	0	161480704	63	5503
2026-01-03 09:28:09.25	330.77	5.29	-50.4	-53.7	18.8	6.03e-01	0	57	0	163577856	63	5442
2026-01-03 09:28:10.24	330.70	5.22	-50.5	-53.8	18.7	6.05e-01	0	57	0	165150720	63	5495
2026-01-03 09:28:11.23	330.64	5.16	-50.7	-54.1	18.4	6.03e-01	0	57	0	167247872	63	5705
2026-01-03 09:28:12.22	330.57	5.09	-50.6	-53.9	18.5	6.03e-01	0	56	0	168820736	63	5591
2026-01-03 09:28:13.21	330.50	5.02	-52.7	-60.0	13.5	6.07e-01	0	57	0	170917888	67	8902
2026-01-03 09:28:14.20	330.44	4.95	-53.8	-68.5	4.3	7.11e-01	0	56	104	170917888	69	21131
2026-01-03 09:28:15.20	330.37	4.88	-54.1	-73.1	3.8	7.47e-01	0	57	104	170917888	70	33953
2026-01-03 09:28:16.18	330.31	4.81	-54.2	-74.1	3.8	7.44e-01	0	56	104	170917888	70	38085
2026-01-03 09:28:17.16	330.24	4.75	-54.3	-74.2	3.8	7.43e-01	0	57	104	170917888	70	38356
2026-01-03 09:28:18.15	330.18	4.68	-54.0	-73.9	3.8	7.41e-01	0	57	104	170917888	70	37332
2026-01-03 09:28:19.13	330.12	4.61	-54.4	-74.2	3.8	7.45e-01	0	57	104	170917888	70	38585
2026-01-03 09:28:20.12	330.05	4.55	-54.6	-74.5	3.8	7.43e-01	0	57	104	170917888	71	37628
2026-01-03 09:28:21.11	329.99	4.48	-54.7	-74.6	3.8	7.44e-01	0	57	104	170917888	71	37837
2026-01-03 09:28:22.10	329.93	4.41	-54.7	-74.6	3.8	7.48e-01	0	57	104	170917888	71	38076
2026-01-03 09:28:23.09	329.86	4.35	-54.7	-74.7	3.8	7.47e-01	0	57	104	170917888	71	38264
2026-01-03 09:28:24.08	329.80	4.28	-54.8	-74.7	3.8	7.48e-01	0	56	104	170917888	71	38428
2026-01-03 09:28:25.07	329.74	4.21	-54.8	-74.7	3.8	7.45e-01	0	57	104	170917888	71	38437
2026-01-03 09:28:26.06	329.68	4.15	-54.8	-74.7	3.8	7.47e-01	0	56	104	170917888	71	38650
2026-01-03 09:28:27.04	329.62	4.08	-54.9	-74.8	3.8	7.47e-01	0	57	104	170917888	71	38779
2026-01-03 09:28:28.03	329.56	4.02	-54.9	-74.8	3.8	7.45e-01	0	57	104	170917888	71	38957
2026-01-03 09:28:29.01	329.50	3.95	-54.9	-74.8	3.8	7.44e-01	0	57	104	170917888	71	39046
2026-01-03 09:28:29.99	329.44	3.89	-54.8	-74.8	3.8	7.48e-01	0	57	104	170917888	72	36634
2026-01-03 09:28:30.98	329.38	3.82	-54.8	-74.8	3.8	7.43e-01	0	57	104	170917888	72	36718
2026-01-03 09:28:31.97	329.32	3.76	-54.9	-74.8	3.8	7.47e-01	0	57	104	170917888	72	36650
2026-01-03 09:28:32.96	329.26	3.69	-54.9	-74.8	3.8	7.44e-01	0	57	104	170917888	72	36729
2026-01-03 09:28:33.95	329.20	3.63	-54.9	-74.8	3.8	7.43e-01	0	57	104	170917888	72	36822
2026-01-03 09:28:34.94	329.14	3.56	-54.9	-74.8	3.8	7.48e-01	0	57	104	170917888	72	36797
