passes_logs/2026/01/03/R3.0SM8_Murmansk_STILSPACE/R3.0SM8_Murmansk_STILSPACE__20260103_230741_NOAA_21_JPSS-2_rec.log

#Pass ID: 20260103_230741_NOAA 21 (JPSS-2)
#Satellite: NOAA 21 (JPSS-2)
#Configuration: NOAA-21
#almurnet v.1.7.20240730
#Start time: 2026-01-03 23:07:40

#Version: 2.2.20231116
#Station: R3.0SM8_Murmansk_STILSPACE
#Location: 33.092731 lon 68.902999 lat
#TLE: 1 54234U 22150A   26003.45311712  .00000198  00000+0  11468-3 0  9993
#TLE: 2 54234  98.7487 304.4932 0001159 347.5017  12.6130 14.19531745163172

#Time	Az	El	Level	Level2	SNR	BER	BlckErr	Temp	State	Recorded	gain1	gain2
2026-01-03 23:07:40.60	20.78	2.97	-52.1	-63.5	3.8	1.49e+00	0	45	0	0	66	13834
2026-01-03 23:07:41.58	20.82	3.04	-52.3	-63.8	3.8	1.49e+00	0	45	104	0	67	13462
2026-01-03 23:07:42.57	20.87	3.10	-52.3	-63.7	3.8	1.49e+00	0	46	104	0	67	13344
2026-01-03 23:07:43.56	20.92	3.16	-52.2	-63.6	3.8	1.49e+00	0	46	104	0	67	13226
2026-01-03 23:07:44.55	20.97	3.22	-52.1	-63.6	3.8	1.49e+00	0	46	104	0	67	13159
2026-01-03 23:07:45.54	21.02	3.28	-51.9	-63.5	3.8	1.49e+00	0	46	104	0	66	13738
2026-01-03 23:07:46.53	21.08	3.34	-51.8	-63.3	3.8	1.49e+00	0	46	104	0	66	13448
2026-01-03 23:07:47.52	21.13	3.40	-51.3	-62.6	3.8	1.49e+00	0	46	104	0	65	13223
2026-01-03 23:07:48.51	21.18	3.47	-50.1	-60.9	3.8	1.49e+00	0	46	104	0	63	12136
2026-01-03 23:07:49.50	21.23	3.53	-49.9	-59.8	3.8	1.49e+00	0	46	104	0	62	11334
2026-01-03 23:07:50.49	21.28	3.59	-49.8	-59.7	3.8	1.49e+00	0	46	104	0	62	11253
2026-01-03 23:07:51.48	21.33	3.65	-50.0	-60.3	3.8	1.48e+00	0	46	104	0	62	11986
2026-01-03 23:07:52.47	21.38	3.72	-50.0	-61.0	3.8	1.49e+00	0	46	104	0	62	13035
2026-01-03 23:07:53.46	21.44	3.78	-50.1	-61.4	3.8	1.49e+00	0	47	104	0	62	13689
2026-01-03 23:07:54.45	21.49	3.84	-50.1	-61.5	3.8	1.49e+00	0	47	104	0	62	13777
2026-01-03 23:07:55.44	21.54	3.90	-50.0	-61.3	3.8	1.49e+00	0	47	104	0	62	13510
2026-01-03 23:07:56.43	21.59	3.97	-50.0	-61.0	3.8	1.49e+00	0	47	104	0	62	12977
2026-01-03 23:07:57.42	21.65	4.03	-50.0	-60.8	3.8	1.49e+00	0	47	104	0	62	12728
2026-01-03 23:07:58.42	21.70	4.09	-50.0	-60.7	3.8	1.49e+00	0	47	104	0	62	12604
2026-01-03 23:07:59.41	21.75	4.16	-50.0	-60.8	3.8	1.49e+00	0	47	104	0	62	12688
2026-01-03 23:08:00.40	21.81	4.22	-50.0	-60.8	3.8	1.49e+00	0	47	104	0	62	12680
2026-01-03 23:08:01.38	21.86	4.28	-50.0	-60.6	3.8	1.49e+00	0	47	104	0	62	12402
2026-01-03 23:08:02.37	21.91	4.35	-49.9	-60.2	3.8	1.49e+00	0	47	104	0	62	11849
2026-01-03 23:08:03.36	21.97	4.41	-49.8	-59.1	3.9	1.47e+00	0	47	104	0	62	10465
2026-01-03 23:08:04.36	22.02	4.48	-49.5	-56.9	4.6	1.44e+00	0	47	104	0	62	8106
2026-01-03 23:08:05.34	22.08	4.54	-49.3	-56.0	5.1	7.23e-01	0	47	0	1048576	61	7752
2026-01-03 23:08:06.34	22.13	4.60	-49.4	-56.0	5.0	6.86e-01	0	48	0	4194304	61	7788
2026-01-03 23:08:07.34	22.19	4.67	-49.4	-56.9	4.1	1.39e+00	0	48	104	6291456	61	8623
2026-01-03 23:08:08.33	22.24	4.73	-49.1	-55.2	5.5	5.34e-01	0	48	0	2097152	61	7102
2026-01-03 23:08:09.32	22.30	4.80	-48.7	-53.6	6.8	2.46e-01	0	48	0	5242880	60	6236
2026-01-03 23:08:10.31	22.35	4.86	-48.4	-52.8	7.5	1.18e-01	0	48	0	8388608	60	5721
2026-01-03 23:08:11.30	22.41	4.93	-48.5	-52.8	7.5	1.05e-01	0	48	0	10485760	59	6056
2026-01-03 23:08:12.28	22.46	4.99	-48.8	-53.6	6.8	1.66e-01	0	48	0	13631488	59	6599
2026-01-03 23:08:13.28	22.52	5.06	-48.6	-53.3	7.1	1.72e-01	0	48	0	16777216	59	6374
2026-01-03 23:08:14.26	22.58	5.12	-48.5	-52.8	7.7	1.03e-01	0	48	0	19922944	59	5998
2026-01-03 23:08:15.24	22.63	5.19	-48.6	-52.8	7.8	7.75e-02	0	48	0	23068672	59	6004
2026-01-03 23:08:16.23	22.69	5.25	-48.7	-52.9	7.6	1.02e-01	0	48	0	26214400	59	6118
2026-01-03 23:08:17.22	22.75	5.32	-48.4	-52.2	8.5	5.72e-02	0	48	0	29360128	59	5594
2026-01-03 23:08:18.21	22.81	5.38	-48.3	-51.8	9.0	2.64e-02	0	48	0	32505856	59	5357
2026-01-03 23:08:19.21	22.86	5.45	-48.4	-51.8	9.1	2.22e-02	0	48	0	35651584	59	5372
2026-01-03 23:08:20.20	22.92	5.52	-48.5	-52.0	9.0	2.31e-02	0	48	0	38797312	59	5507
2026-01-03 23:08:21.19	22.98	5.58	-48.7	-52.3	8.7	3.84e-02	0	48	0	41943040	59	5707
2026-01-03 23:08:22.18	23.04	5.65	-48.3	-51.5	9.6	1.82e-02	0	48	0	45088768	59	5163
2026-01-03 23:08:23.17	23.10	5.72	-47.9	-50.7	10.5	5.51e-03	0	48	0	48234496	59	4731
2026-01-03 23:08:24.16	23.16	5.78	-47.6	-50.1	11.2	1.81e-03	0	48	0	51380224	58	4678
2026-01-03 23:08:25.15	23.22	5.85	-47.3	-49.7	11.7	5.64e-04	0	49	0	54525952	57	4707
2026-01-03 23:08:26.14	23.27	5.92	-47.0	-49.1	12.4	2.82e-04	0	49	0	57671680	57	4402
2026-01-03 23:08:27.13	23.33	5.99	-46.7	-48.7	12.9	8.39e-05	0	49	0	60817408	56	4463
2026-01-03 23:08:28.11	23.39	6.05	-46.4	-48.2	13.4	2.74e-05	0	49	0	63963136	56	4238
2026-01-03 23:08:29.10	23.45	6.12	-46.3	-48.0	13.6	7.60e-06	0	49	0	66060288	55	4369
2026-01-03 23:08:30.08	23.51	6.19	-46.3	-48.0	13.7	6.10e-06	0	49	0	69206016	55	4343
2026-01-03 23:08:31.07	23.57	6.25	-46.4	-48.1	13.6	1.06e-05	0	49	0	72351744	55	4395
2026-01-03 23:08:32.06	23.64	6.32	-46.5	-48.4	13.3	1.29e-05	0	49	0	75497472	55	4555
2026-01-03 23:08:33.05	23.70	6.39	-46.4	-48.1	13.6	8.30e-06	0	49	0	78643200	55	4433
2026-01-03 23:08:34.04	23.76	6.46	-46.5	-48.3	13.5	8.30e-06	0	49	0	81788928	55	4505
2026-01-03 23:08:35.03	23.82	6.53	-46.6	-48.4	13.4	1.29e-05	0	49	0	84934656	55	4567
2026-01-03 23:08:36.01	23.88	6.60	-46.3	-48.1	13.7	6.80e-06	0	49	0	88080384	55	4416
2026-01-03 23:08:37.01	23.94	6.67	-46.3	-48.0	13.8	1.06e-05	0	49	0	91226112	55	4364
2026-01-03 23:08:37.99	24.01	6.73	-46.2	-47.8	14.0	2.20e-06	0	49	0	94371840	55	4275
2026-01-03 23:08:38.98	24.07	6.80	-46.2	-47.8	14.2	3.80e-06	0	49	0	97517568	55	4251
2026-01-03 23:08:39.98	24.13	6.87	-46.2	-47.8	14.1	1.50e-06	0	49	0	100663296	55	4258
2026-01-03 23:08:40.97	24.20	6.94	-46.3	-47.9	14.0	4.50e-06	0	49	0	103809024	55	4293
2026-01-03 23:08:41.97	24.26	7.01	-46.2	-47.8	14.1	1.50e-06	0	49	0	106954752	55	4266
2026-01-03 23:08:42.96	24.33	7.08	-46.1	-47.7	14.3	7.00e-07	0	50	0	110100480	55	4202
2026-01-03 23:08:43.95	24.39	7.15	-46.2	-47.7	14.3	2.20e-06	0	50	0	113246208	55	4220
2026-01-03 23:08:44.94	24.45	7.22	-46.1	-47.7	14.3	2.20e-06	0	50	0	116391936	55	4213
2026-01-03 23:08:45.93	24.52	7.29	-46.3	-47.9	14.0	2.20e-06	0	50	0	119537664	55	4323
2026-01-03 23:08:46.92	24.58	7.36	-46.2	-47.7	14.2	1.50e-06	0	50	0	122683392	55	4216
2026-01-03 23:08:47.92	24.65	7.43	-46.1	-47.6	14.3	1.50e-06	0	50	0	125829120	55	4183
2026-01-03 23:08:48.91	24.72	7.50	-46.0	-47.5	14.4	7.00e-07	0	50	0	128974848	55	4128
2026-01-03 23:08:49.90	24.78	7.58	-46.1	-47.7	14.3	0.00e+00	0	50	0	131072000	55	4197
2026-01-03 23:08:50.89	24.85	7.65	-46.2	-47.7	14.3	0.00e+00	0	50	0	134217728	55	4226
2026-01-03 23:08:51.87	24.91	7.72	-46.2	-47.7	14.3	7.00e-07	0	50	0	137363456	55	4202
2026-01-03 23:08:52.86	24.98	7.79	-46.3	-47.8	14.2	7.00e-07	0	50	0	140509184	55	4270
2026-01-03 23:08:53.85	25.05	7.86	-46.1	-47.6	14.5	7.00e-07	0	50	0	143654912	55	4148
2026-01-03 23:08:54.83	25.12	7.93	-45.9	-47.3	14.7	0.00e+00	0	50	0	146800640	54	4250
2026-01-03 23:08:55.82	25.18	8.00	-45.8	-47.1	14.9	0.00e+00	0	50	0	149946368	54	4187
2026-01-03 23:08:56.80	25.25	8.07	-45.8	-47.2	14.9	0.00e+00	0	50	0	153092096	54	4207
2026-01-03 23:08:57.79	25.32	8.15	-45.8	-47.1	14.9	7.00e-07	0	50	0	156237824	54	4187
2026-01-03 23:08:58.78	25.39	8.22	-45.8	-47.2	14.8	0.00e+00	0	50	0	159383552	54	4219
2026-01-03 23:08:59.78	25.46	8.29	-45.8	-47.2	14.9	0.00e+00	0	50	0	162529280	54	4230
2026-01-03 23:09:00.77	25.53	8.37	-45.8	-47.3	14.8	0.00e+00	0	50	0	165675008	54	4258
2026-01-03 23:09:01.76	25.60	8.44	-46.0	-47.5	14.5	0.00e+00	0	50	0	168820736	54	4384
2026-01-03 23:09:02.75	25.67	8.51	-46.0	-47.5	14.6	7.00e-07	0	50	0	171966464	54	4357
2026-01-03 23:09:03.73	25.74	8.58	-46.0	-47.5	14.6	0.00e+00	0	50	0	175112192	54	4363
2026-01-03 23:09:04.72	25.81	8.66	-46.3	-47.8	14.3	7.00e-07	0	51	0	178257920	54	4516
2026-01-03 23:09:05.72	25.88	8.73	-46.2	-47.7	14.4	7.00e-07	0	51	0	181403648	54	4471
2026-01-03 23:09:06.71	25.95	8.81	-46.1	-47.5	14.5	7.00e-07	0	51	0	184549376	54	4390
2026-01-03 23:09:07.70	26.02	8.88	-46.1	-47.6	14.6	0.00e+00	0	50	0	186646528	54	4394
2026-01-03 23:09:08.68	26.09	8.95	-46.0	-47.5	14.6	0.00e+00	0	51	0	189792256	54	4362
2026-01-03 23:09:09.67	26.17	9.03	-46.1	-47.6	14.6	0.00e+00	0	51	0	192937984	54	4403
2026-01-03 23:09:10.65	26.24	9.10	-46.1	-47.6	14.5	0.00e+00	0	51	0	196083712	54	4421
2026-01-03 23:09:11.64	26.31	9.18	-46.1	-47.6	14.5	0.00e+00	0	51	0	199229440	54	4418
2026-01-03 23:09:12.63	26.38	9.25	-46.1	-47.5	14.6	0.00e+00	0	51	0	202375168	54	4367
2026-01-03 23:09:13.61	26.46	9.33	-45.9	-47.4	14.8	0.00e+00	0	51	0	205520896	54	4292
2026-01-03 23:09:14.60	26.53	9.40	-45.9	-47.2	14.9	0.00e+00	0	51	0	208666624	54	4232
2026-01-03 23:09:15.58	26.61	9.48	-45.8	-47.2	15.0	0.00e+00	0	51	0	211812352	54	4209
2026-01-03 23:09:16.58	26.68	9.55	-45.9	-47.3	14.9	0.00e+00	0	51	0	214958080	54	4253
2026-01-03 23:09:17.57	26.76	9.63	-46.0	-47.4	14.7	0.00e+00	0	51	0	218103808	54	4326
2026-01-03 23:09:18.56	26.83	9.70	-46.1	-47.5	14.7	0.00e+00	0	51	0	221249536	54	4358
2026-01-03 23:09:19.54	26.91	9.78	-46.0	-47.4	14.8	0.00e+00	0	51	0	224395264	54	4329
2026-01-03 23:09:20.53	26.98	9.86	-46.1	-47.6	14.6	0.00e+00	0	51	0	227540992	54	4414
2026-01-03 23:09:21.52	27.06	9.93	-46.1	-47.6	14.6	0.00e+00	0	51	0	230686720	54	4400
2026-01-03 23:09:22.51	27.14	10.01	-46.0	-47.4	14.8	7.00e-07	0	51	0	233832448	54	4302
2026-01-03 23:09:23.50	27.21	10.09	-45.9	-47.2	15.0	0.00e+00	0	51	0	236978176	54	4229
2026-01-03 23:09:24.49	27.29	10.16	-45.8	-47.1	15.1	0.00e+00	0	51	0	239075328	54	4171
2026-01-03 23:09:25.48	27.37	10.24	-45.9	-47.2	15.0	0.00e+00	0	51	0	242221056	54	4237
2026-01-03 23:09:26.47	27.45	10.32	-45.8	-47.3	15.0	7.00e-07	0	51	0	245366784	54	4243
2026-01-03 23:09:27.45	27.53	10.40	-45.6	-46.9	15.3	0.00e+00	0	51	0	248512512	54	4092
2026-01-03 23:09:28.43	27.61	10.47	-45.4	-46.7	15.5	7.00e-07	0	51	0	251658240	54	3971
2026-01-03 23:09:29.41	27.69	10.55	-45.3	-46.5	15.8	0.00e+00	0	51	0	254803968	53	4103
2026-01-03 23:09:30.39	27.77	10.63	-45.3	-46.4	15.8	0.00e+00	0	52	0	257949696	53	4092
2026-01-03 23:09:31.38	27.85	10.71	-45.2	-46.5	15.8	0.00e+00	0	52	0	261095424	53	4101
2026-01-03 23:09:32.37	27.93	10.79	-45.2	-46.4	15.9	0.00e+00	0	51	0	264241152	53	4062
2026-01-03 23:09:33.36	28.01	10.87	-45.4	-46.6	15.6	0.00e+00	0	52	0	267386880	53	4177
2026-01-03 23:09:34.35	28.09	10.95	-45.5	-46.7	15.5	0.00e+00	0	51	0	270532608	53	4238
2026-01-03 23:09:35.34	28.17	11.03	-45.3	-46.5	15.7	0.00e+00	0	51	0	273678336	53	4139
2026-01-03 23:09:36.33	28.26	11.11	-45.3	-46.5	15.8	0.00e+00	0	52	0	276824064	53	4105
2026-01-03 23:09:37.33	28.34	11.19	-45.4	-46.6	15.6	0.00e+00	0	52	0	279969792	53	4191
2026-01-03 23:09:38.32	28.42	11.27	-45.5	-46.8	15.5	0.00e+00	0	52	0	283115520	53	4243
2026-01-03 23:09:39.31	28.51	11.35	-45.5	-46.8	15.4	0.00e+00	0	52	0	286261248	53	4274
2026-01-03 23:09:40.30	28.59	11.43	-45.4	-46.7	15.6	0.00e+00	0	52	0	289406976	53	4209
2026-01-03 23:09:41.29	28.68	11.51	-45.5	-46.8	15.5	0.00e+00	0	52	0	292552704	53	4251
2026-01-03 23:09:42.28	28.76	11.59	-45.6	-46.9	15.4	0.00e+00	0	52	0	295698432	53	4311
2026-01-03 23:09:43.27	28.85	11.67	-45.6	-46.9	15.3	0.00e+00	0	52	0	298844160	53	4328
2026-01-03 23:09:44.25	28.93	11.75	-45.5	-46.8	15.5	0.00e+00	0	52	0	300941312	53	4266
2026-01-03 23:09:45.25	29.02	11.83	-45.7	-46.9	15.3	0.00e+00	0	52	0	304087040	53	4339
2026-01-03 23:09:46.23	29.11	11.91	-45.4	-46.6	15.6	0.00e+00	0	52	0	307232768	53	4182
2026-01-03 23:09:47.22	29.19	12.00	-45.3	-46.4	15.8	0.00e+00	0	52	0	310378496	53	4097
2026-01-03 23:09:48.21	29.28	12.08	-45.2	-46.3	16.0	0.00e+00	0	52	0	313524224	53	4038
2026-01-03 23:09:49.21	29.37	12.16	-45.3	-46.5	15.8	0.00e+00	0	52	0	316669952	53	4103
2026-01-03 23:09:50.20	29.46	12.25	-45.4	-46.6	15.7	0.00e+00	0	52	0	319815680	53	4165
2026-01-03 23:09:51.18	29.55	12.33	-45.2	-46.4	15.9	0.00e+00	0	52	0	322961408	53	4070
2026-01-03 23:09:52.18	29.64	12.41	-45.0	-46.1	16.2	0.00e+00	0	52	0	326107136	53	3957
2026-01-03 23:09:53.18	29.73	12.50	-44.9	-46.1	16.2	0.00e+00	0	52	0	329252864	53	3927
2026-01-03 23:09:54.17	29.82	12.58	-45.0	-46.1	16.2	0.00e+00	0	52	0	332398592	53	3927
2026-01-03 23:09:55.15	29.91	12.66	-45.0	-46.0	16.3	0.00e+00	0	52	0	335544320	53	3913
2026-01-03 23:09:56.14	30.00	12.75	-45.0	-46.1	16.2	0.00e+00	0	52	0	338690048	53	3921
2026-01-03 23:09:57.12	30.10	12.83	-45.1	-46.2	16.1	0.00e+00	0	52	0	341835776	53	4001
2026-01-03 23:09:58.12	30.19	12.92	-45.2	-46.4	15.9	0.00e+00	0	52	0	344981504	53	4072
2026-01-03 23:09:59.11	30.28	13.00	-45.0	-46.2	16.2	0.00e+00	0	52	0	348127232	53	3970
2026-01-03 23:10:00.10	30.38	13.09	-45.0	-46.1	16.2	0.00e+00	0	52	0	351272960	53	3952
2026-01-03 23:10:01.09	30.47	13.17	-45.0	-46.2	16.2	0.00e+00	0	52	0	354418688	53	3964
2026-01-03 23:10:02.08	30.57	13.26	-45.0	-46.1	16.2	0.00e+00	0	52	0	357564416	53	3952
2026-01-03 23:10:03.08	30.66	13.34	-45.1	-46.2	16.1	0.00e+00	0	53	0	360710144	53	4000
2026-01-03 23:10:04.07	30.76	13.43	-45.0	-46.1	16.3	0.00e+00	0	53	0	363855872	53	3923
2026-01-03 23:10:05.07	30.86	13.52	-44.9	-46.0	16.4	0.00e+00	0	52	0	367001600	52	4130
2026-01-03 23:10:06.06	30.95	13.60	-44.9	-46.0	16.4	0.00e+00	0	52	0	369098752	52	4132
2026-01-03 23:10:07.06	31.05	13.69	-45.0	-46.2	16.2	0.00e+00	0	53	0	372244480	52	4195
2026-01-03 23:10:08.05	31.15	13.78	-45.2	-46.3	16.1	0.00e+00	0	53	0	375390208	52	4271
2026-01-03 23:10:09.03	31.25	13.86	-44.9	-46.1	16.3	0.00e+00	0	53	0	378535936	52	4146
2026-01-03 23:10:10.03	31.35	13.95	-45.0	-46.2	16.2	0.00e+00	0	53	0	381681664	52	4216
2026-01-03 23:10:11.02	31.45	14.04	-44.9	-46.0	16.4	0.00e+00	0	53	0	384827392	52	4109
2026-01-03 23:10:12.01	31.55	14.13	-44.9	-45.9	16.5	0.00e+00	0	53	0	387973120	52	4095
2026-01-03 23:10:13.00	31.65	14.21	-44.9	-46.0	16.4	0.00e+00	0	53	0	391118848	52	4125
2026-01-03 23:10:13.99	31.75	14.30	-45.0	-46.1	16.3	0.00e+00	0	53	0	394264576	52	4173
2026-01-03 23:10:14.97	31.85	14.39	-45.3	-46.5	15.9	0.00e+00	0	53	0	397410304	52	4350
2026-01-03 23:10:15.96	31.96	14.48	-45.0	-46.2	16.2	0.00e+00	0	53	0	400556032	52	4201
2026-01-03 23:10:16.95	32.06	14.57	-44.9	-46.0	16.4	0.00e+00	0	53	0	403701760	52	4136
2026-01-03 23:10:17.94	32.16	14.66	-45.0	-46.1	16.3	0.00e+00	0	53	0	406847488	52	4146
2026-01-03 23:10:18.93	32.27	14.75	-45.1	-46.2	16.2	0.00e+00	0	53	0	409993216	52	4207
2026-01-03 23:10:19.92	32.37	14.84	-45.2	-46.3	16.1	0.00e+00	0	53	0	413138944	52	4274
2026-01-03 23:10:20.91	32.48	14.93	-45.1	-46.3	16.2	0.00e+00	0	53	0	416284672	52	4247
2026-01-03 23:10:21.90	32.58	15.02	-45.2	-46.4	16.0	0.00e+00	0	53	0	419430400	52	4305
2026-01-03 23:10:22.89	32.69	15.11	-45.1	-46.3	16.2	7.00e-07	0	53	0	422576128	52	4256
2026-01-03 23:10:23.87	32.80	15.20	-45.2	-46.4	16.0	0.00e+00	0	53	0	425721856	52	4299
2026-01-03 23:10:24.86	32.91	15.29	-45.1	-46.2	16.2	0.00e+00	0	53	0	428867584	52	4242
2026-01-03 23:10:25.85	33.01	15.38	-45.0	-46.2	16.3	0.00e+00	0	53	0	430964736	52	4195
2026-01-03 23:10:26.83	33.12	15.47	-45.0	-46.1	16.3	0.00e+00	0	53	0	434110464	52	4193
2026-01-03 23:10:27.81	33.23	15.56	-45.2	-46.3	16.1	0.00e+00	0	53	0	437256192	52	4282
2026-01-03 23:10:28.80	33.34	15.65	-45.1	-46.2	16.2	0.00e+00	0	53	0	440401920	52	4217
2026-01-03 23:10:29.79	33.45	15.75	-45.2	-46.3	16.1	0.00e+00	0	53	0	443547648	52	4270
2026-01-03 23:10:30.78	33.57	15.84	-45.5	-46.7	15.8	0.00e+00	0	53	0	446693376	52	4460
2026-01-03 23:10:31.78	33.68	15.93	-45.4	-46.5	15.9	0.00e+00	0	53	0	449839104	52	4390
2026-01-03 23:10:32.77	33.79	16.03	-45.1	-46.2	16.2	0.00e+00	0	53	0	452984832	52	4233
2026-01-03 23:10:33.76	33.91	16.12	-45.0	-46.1	16.4	0.00e+00	0	53	0	456130560	52	4146
2026-01-03 23:10:34.75	34.02	16.21	-45.0	-46.0	16.4	0.00e+00	0	53	0	459276288	52	4141
2026-01-03 23:10:35.74	34.14	16.31	-45.0	-46.1	16.3	0.00e+00	0	53	0	462422016	52	4183
2026-01-03 23:10:36.73	34.25	16.40	-45.1	-46.3	16.2	0.00e+00	0	53	0	465567744	52	4249
2026-01-03 23:10:37.71	34.37	16.49	-45.4	-46.6	15.9	0.00e+00	0	53	0	468713472	52	4413
2026-01-03 23:10:38.70	34.49	16.59	-45.3	-46.5	16.0	0.00e+00	0	53	0	471859200	52	4372
2026-01-03 23:10:39.69	34.60	16.68	-45.4	-46.6	15.9	0.00e+00	0	53	0	475004928	52	4408
2026-01-03 23:10:40.68	34.72	16.78	-45.4	-46.5	15.9	0.00e+00	0	54	0	478150656	52	4388
2026-01-03 23:10:41.67	34.84	16.87	-45.2	-46.3	16.2	0.00e+00	0	54	0	481296384	52	4266
2026-01-03 23:10:42.66	34.96	16.97	-45.1	-46.2	16.3	0.00e+00	0	53	0	484442112	52	4234
2026-01-03 23:10:43.65	35.08	17.07	-45.1	-46.3	16.2	0.00e+00	0	53	0	486539264	52	4246
2026-01-03 23:10:44.63	35.20	17.16	-45.1	-46.3	16.2	0.00e+00	0	54	0	489684992	52	4243
2026-01-03 23:10:45.62	35.33	17.26	-45.3	-46.4	16.0	0.00e+00	0	54	0	492830720	52	4340
2026-01-03 23:10:46.61	35.45	17.35	-45.2	-46.3	16.2	0.00e+00	0	54	0	495976448	52	4278
2026-01-03 23:10:47.60	35.58	17.45	-45.0	-46.1	16.4	0.00e+00	0	54	0	499122176	52	4177
2026-01-03 23:10:48.59	35.70	17.55	-44.9	-46.0	16.5	0.00e+00	0	53	0	502267904	52	4124
2026-01-03 23:10:49.59	35.83	17.65	-44.9	-46.0	16.5	0.00e+00	0	53	0	505413632	52	4120
2026-01-03 23:10:50.58	35.95	17.74	-45.1	-46.1	16.4	0.00e+00	0	54	0	508559360	52	4193
2026-01-03 23:10:51.56	36.08	17.84	-45.0	-46.1	16.4	0.00e+00	0	53	0	511705088	52	4192
2026-01-03 23:10:52.55	36.21	17.94	-44.9	-46.0	16.5	0.00e+00	0	54	0	514850816	52	4109
2026-01-03 23:10:53.54	36.34	18.04	-45.0	-46.1	16.5	0.00e+00	0	54	0	517996544	52	4150
2026-01-03 23:10:54.53	36.47	18.14	-45.0	-46.1	16.4	0.00e+00	0	54	0	521142272	52	4173
2026-01-03 23:10:55.52	36.60	18.24	-45.1	-46.2	16.3	0.00e+00	0	54	0	524288000	52	4199
2026-01-03 23:10:56.51	36.73	18.34	-45.2	-46.3	16.3	0.00e+00	0	54	0	527433728	52	4250
2026-01-03 23:10:57.51	36.86	18.44	-45.1	-46.2	16.3	0.00e+00	0	54	0	530579456	52	4208
2026-01-03 23:10:58.50	36.99	18.54	-45.1	-46.2	16.3	0.00e+00	0	54	0	533725184	52	4216
2026-01-03 23:10:59.49	37.13	18.64	-45.2	-46.3	16.2	0.00e+00	0	54	0	536870912	52	4265
2026-01-03 23:11:00.47	37.26	18.74	-45.3	-46.4	16.1	0.00e+00	0	54	0	540016640	52	4321
2026-01-03 23:11:01.45	37.40	18.83	-45.3	-46.4	16.1	0.00e+00	0	54	0	543162368	52	4306
2026-01-03 23:11:02.45	37.53	18.94	-45.2	-46.3	16.2	0.00e+00	0	54	0	545259520	52	4272
2026-01-03 23:11:03.45	37.67	19.04	-45.2	-46.3	16.2	0.00e+00	0	54	0	548405248	52	4286
2026-01-03 23:11:04.44	37.81	19.14	-45.0	-46.1	16.4	0.00e+00	0	54	0	551550976	52	4169
2026-01-03 23:11:05.42	37.95	19.24	-45.0	-46.0	16.5	0.00e+00	0	54	0	554696704	52	4141
2026-01-03 23:11:06.41	38.09	19.34	-45.0	-46.0	16.5	0.00e+00	0	54	0	557842432	52	4131
2026-01-03 23:11:07.40	38.23	19.44	-45.1	-46.2	16.3	0.00e+00	0	54	0	560988160	52	4218
2026-01-03 23:11:08.39	38.37	19.55	-45.1	-46.2	16.4	0.00e+00	0	54	0	564133888	52	4201
2026-01-03 23:11:09.38	38.51	19.65	-45.1	-46.2	16.4	0.00e+00	0	54	0	567279616	52	4197
2026-01-03 23:11:10.37	38.66	19.75	-45.3	-46.5	16.1	0.00e+00	0	54	0	570425344	52	4343
2026-01-03 23:11:11.37	38.80	19.86	-45.3	-46.5	16.1	0.00e+00	0	54	0	573571072	52	4350
2026-01-03 23:11:12.36	38.95	19.96	-44.9	-46.0	16.6	0.00e+00	0	54	0	576716800	52	4113
2026-01-03 23:11:13.34	39.09	20.06	-44.6	-45.6	16.9	0.00e+00	0	54	0	579862528	52	3948
2026-01-03 23:11:14.33	39.24	20.17	-44.4	-45.4	17.2	0.00e+00	0	54	0	583008256	51	4059
2026-01-03 23:11:15.32	39.39	20.27	-44.3	-45.3	17.4	0.00e+00	0	54	0	586153984	51	4008
2026-01-03 23:11:16.31	39.54	20.38	-44.4	-45.3	17.3	0.00e+00	0	54	0	589299712	51	4046
2026-01-03 23:11:17.30	39.69	20.48	-44.3	-45.3	17.3	0.00e+00	0	54	0	592445440	51	4016
2026-01-03 23:11:18.29	39.84	20.59	-44.3	-45.3	17.4	0.00e+00	0	54	0	595591168	51	4013
2026-01-03 23:11:19.28	39.99	20.69	-44.5	-45.4	17.2	0.00e+00	0	54	0	598736896	51	4091
2026-01-03 23:11:20.28	40.15	20.80	-44.4	-45.4	17.2	0.00e+00	0	54	0	601882624	51	4079
2026-01-03 23:11:21.26	40.30	20.90	-44.5	-45.4	17.2	0.00e+00	0	54	0	605028352	51	4098
2026-01-03 23:11:22.25	40.45	21.01	-44.5	-45.5	17.1	0.00e+00	0	54	0	607125504	51	4125
2026-01-03 23:11:23.23	40.61	21.11	-44.6	-45.6	17.0	0.00e+00	0	54	0	610271232	51	4170
2026-01-03 23:11:24.23	40.77	21.22	-44.6	-45.6	17.0	0.00e+00	0	54	0	613416960	51	4150
2026-01-03 23:11:25.21	40.93	21.33	-44.5	-45.4	17.2	0.00e+00	0	54	0	616562688	51	4089
2026-01-03 23:11:26.19	41.08	21.43	-44.3	-45.2	17.4	0.00e+00	0	54	0	619708416	51	3983
2026-01-03 23:11:27.18	41.24	21.54	-44.2	-45.1	17.5	0.00e+00	0	54	0	622854144	51	3956
2026-01-03 23:11:28.16	41.40	21.64	-44.3	-45.2	17.4	0.00e+00	0	54	0	625999872	51	3976
2026-01-03 23:11:29.15	41.57	21.75	-44.3	-45.2	17.5	0.00e+00	0	54	0	629145600	51	3964
2026-01-03 23:11:30.13	41.73	21.86	-44.6	-45.6	17.1	0.00e+00	0	54	0	632291328	51	4146
2026-01-03 23:11:31.12	41.89	21.97	-44.3	-45.2	17.4	0.00e+00	0	54	0	635437056	51	3996
2026-01-03 23:11:32.12	42.06	22.08	-44.2	-45.2	17.5	0.00e+00	0	54	0	638582784	51	3960
2026-01-03 23:11:33.11	42.23	22.18	-44.5	-45.4	17.2	0.00e+00	0	54	0	641728512	51	4097
2026-01-03 23:11:34.10	42.40	22.29	-44.8	-45.8	16.9	0.00e+00	0	54	0	644874240	51	4271
2026-01-03 23:11:35.09	42.57	22.40	-44.4	-45.3	17.3	0.00e+00	0	54	0	648019968	51	4023
2026-01-03 23:11:36.09	42.74	22.51	-44.0	-44.9	17.8	0.00e+00	0	55	0	651165696	51	3831
2026-01-03 23:11:37.08	42.91	22.62	-43.7	-44.5	18.1	0.00e+00	0	54	0	654311424	50	3884
2026-01-03 23:11:38.07	43.08	22.73	-43.6	-44.4	18.3	0.00e+00	0	54	0	657457152	50	3832
2026-01-03 23:11:39.05	43.26	22.84	-43.6	-44.4	18.3	0.00e+00	0	54	0	660602880	50	3831
2026-01-03 23:11:40.05	43.43	22.95	-43.7	-44.6	18.1	0.00e+00	0	54	0	662700032	50	3920
2026-01-03 23:11:41.04	43.61	23.06	-43.7	-44.5	18.2	0.00e+00	0	54	0	665845760	50	3875
2026-01-03 23:11:42.03	43.79	23.17	-43.9	-44.7	17.9	0.00e+00	0	54	0	668991488	50	3992
2026-01-03 23:11:43.01	43.97	23.28	-43.9	-44.7	17.9	0.00e+00	0	55	0	672137216	50	3986
2026-01-03 23:11:44.00	44.15	23.39	-44.0	-44.9	17.8	0.00e+00	0	54	0	675282944	50	4060
2026-01-03 23:11:44.99	44.33	23.50	-44.2	-45.1	17.5	0.00e+00	0	55	0	678428672	50	4186
2026-01-03 23:11:45.98	44.51	23.61	-43.9	-44.8	17.8	0.00e+00	0	54	0	681574400	50	4038
2026-01-03 23:11:46.97	44.69	23.72	-43.7	-44.5	18.1	0.00e+00	0	55	0	684720128	50	3894
2026-01-03 23:11:47.96	44.88	23.84	-43.5	-44.3	18.3	0.00e+00	0	55	0	687865856	50	3810
2026-01-03 23:11:48.95	45.07	23.95	-43.6	-44.3	18.3	0.00e+00	0	55	0	691011584	50	3822
2026-01-03 23:11:49.95	45.26	24.06	-43.4	-44.2	18.4	0.00e+00	0	55	0	694157312	50	3749
2026-01-03 23:11:50.93	45.44	24.17	-43.3	-44.0	18.6	0.00e+00	0	55	0	697303040	49	3908
2026-01-03 23:11:51.93	45.64	24.28	-43.4	-44.2	18.4	0.00e+00	0	55	0	700448768	49	3963
2026-01-03 23:11:52.91	45.83	24.40	-43.6	-44.5	18.2	0.00e+00	0	55	0	703594496	49	4102
2026-01-03 23:11:53.90	46.02	24.51	-43.6	-44.4	18.2	0.00e+00	0	55	0	706740224	49	4097
2026-01-03 23:11:54.89	46.21	24.62	-43.9	-44.7	17.9	0.00e+00	0	55	0	709885952	49	4231
2026-01-03 23:11:55.88	46.41	24.73	-43.7	-44.6	18.0	0.00e+00	0	55	0	713031680	49	4165
2026-01-03 23:11:56.87	46.61	24.85	-43.7	-44.6	18.0	0.00e+00	0	55	0	716177408	49	4167
2026-01-03 23:11:57.86	46.81	24.96	-43.8	-44.6	18.0	0.00e+00	0	55	0	719323136	49	4166
2026-01-03 23:11:58.85	47.01	25.07	-43.8	-44.7	17.9	0.00e+00	0	55	0	722468864	49	4213
2026-01-03 23:11:59.84	47.21	25.19	-43.7	-44.5	18.2	0.00e+00	0	55	0	724566016	49	4120
2026-01-03 23:12:00.83	47.41	25.30	-43.5	-44.3	18.3	0.00e+00	0	55	0	727711744	49	4045
2026-01-03 23:12:01.82	47.61	25.41	-43.5	-44.3	18.3	0.00e+00	0	55	0	730857472	49	4051
2026-01-03 23:12:02.81	47.82	25.53	-43.7	-44.5	18.1	0.00e+00	0	55	0	734003200	49	4131
2026-01-03 23:12:03.79	48.02	25.64	-44.0	-44.9	17.8	0.00e+00	0	55	0	737148928	49	4296
2026-01-03 23:12:04.78	48.23	25.75	-44.1	-45.0	17.7	0.00e+00	0	55	0	740294656	50	4110
2026-01-03 23:12:05.77	48.44	25.87	-44.4	-45.3	17.4	0.00e+00	0	55	0	743440384	50	4281
2026-01-03 23:12:06.76	48.66	25.98	-44.5	-45.5	17.2	0.00e+00	0	54	0	746586112	50	4349
2026-01-03 23:12:07.76	48.87	26.10	-44.6	-45.6	17.1	0.00e+00	0	55	0	749731840	51	4162
2026-01-03 23:12:08.74	49.08	26.21	-44.6	-45.6	17.1	0.00e+00	0	55	0	752877568	51	4155
2026-01-03 23:12:09.73	49.30	26.32	-44.5	-45.4	17.3	0.00e+00	0	55	0	756023296	51	4071
2026-01-03 23:12:10.72	49.52	26.44	-44.4	-45.4	17.3	0.00e+00	0	55	0	759169024	51	4052
2026-01-03 23:12:11.70	49.73	26.55	-44.5	-45.4	17.3	0.00e+00	0	55	0	762314752	51	4081
2026-01-03 23:12:12.70	49.96	26.67	-44.4	-45.4	17.4	0.00e+00	0	55	0	765460480	51	4059
2026-01-03 23:12:13.69	50.18	26.78	-44.5	-45.4	17.3	0.00e+00	0	55	0	768606208	51	4073
2026-01-03 23:12:14.67	50.40	26.89	-44.5	-45.4	17.3	0.00e+00	0	55	0	771751936	51	4084
2026-01-03 23:12:15.67	50.63	27.01	-44.6	-45.6	17.2	0.00e+00	0	55	0	774897664	51	4154
2026-01-03 23:12:16.65	50.85	27.12	-44.8	-45.8	17.0	0.00e+00	0	55	0	778043392	51	4244
2026-01-03 23:12:17.64	51.08	27.24	-44.8	-45.8	17.0	0.00e+00	0	55	0	781189120	51	4251
2026-01-03 23:12:18.63	51.31	27.35	-44.7	-45.7	17.0	0.00e+00	0	55	0	784334848	51	4212
2026-01-03 23:12:19.62	51.54	27.47	-44.5	-45.5	17.2	0.00e+00	0	55	0	786432000	51	4124
2026-01-03 23:12:20.61	51.78	27.58	-44.6	-45.5	17.2	0.00e+00	0	55	0	789577728	51	4124
2026-01-03 23:12:21.60	52.01	27.70	-44.7	-45.6	17.1	0.00e+00	0	55	0	792723456	51	4178
2026-01-03 23:12:22.59	52.25	27.81	-44.6	-45.6	17.1	0.00e+00	0	55	0	795869184	51	4165
2026-01-03 23:12:23.58	52.49	27.93	-44.6	-45.6	17.1	0.00e+00	0	55	0	799014912	51	4172
2026-01-03 23:12:24.57	52.73	28.04	-44.8	-45.8	16.9	0.00e+00	0	55	0	802160640	51	4281
2026-01-03 23:12:25.57	52.97	28.16	-45.0	-46.0	16.8	0.00e+00	0	55	0	805306368	51	4354
2026-01-03 23:12:26.55	53.21	28.27	-44.9	-46.0	16.7	0.00e+00	0	55	0	808452096	52	4101
2026-01-03 23:12:27.54	53.46	28.38	-44.7	-45.7	16.9	0.00e+00	0	55	0	811597824	52	3990
2026-01-03 23:12:28.52	53.70	28.50	-44.6	-45.6	17.1	0.00e+00	0	55	0	814743552	52	3916
2026-01-03 23:12:29.51	53.95	28.61	-44.5	-45.5	17.1	0.00e+00	0	55	0	817889280	52	3896
2026-01-03 23:12:30.49	54.20	28.72	-44.5	-45.5	17.2	0.00e+00	0	55	0	821035008	52	3876
2026-01-03 23:12:31.47	54.45	28.84	-44.4	-45.3	17.4	0.00e+00	0	55	0	824180736	51	4034
2026-01-03 23:12:32.45	54.70	28.95	-44.3	-45.2	17.5	0.00e+00	0	55	0	827326464	51	3980
2026-01-03 23:12:33.44	54.96	29.06	-44.3	-45.1	17.6	0.00e+00	0	55	0	830472192	51	3954
2026-01-03 23:12:34.43	55.21	29.17	-44.3	-45.2	17.5	0.00e+00	0	55	0	833617920	51	3997
2026-01-03 23:12:35.42	55.47	29.29	-44.4	-45.3	17.4	0.00e+00	0	55	0	836763648	51	4051
2026-01-03 23:12:36.42	55.74	29.40	-44.4	-45.3	17.5	0.00e+00	0	55	0	839909376	51	4021
2026-01-03 23:12:37.41	56.00	29.51	-44.2	-45.2	17.6	0.00e+00	0	55	0	843055104	51	3963
2026-01-03 23:12:38.39	56.26	29.63	-44.2	-45.0	17.7	0.00e+00	0	55	0	845152256	51	3912
2026-01-03 23:12:39.39	56.53	29.74	-44.2	-45.1	17.7	0.00e+00	0	55	0	848297984	51	3928
2026-01-03 23:12:40.37	56.80	29.85	-44.2	-45.1	17.7	0.00e+00	0	55	0	851443712	51	3923
2026-01-03 23:12:41.36	57.07	29.96	-44.4	-45.3	17.5	0.00e+00	0	55	0	854589440	51	4011
2026-01-03 23:12:42.35	57.34	30.07	-44.3	-45.3	17.5	0.00e+00	0	55	0	857735168	51	4010
2026-01-03 23:12:43.34	57.61	30.19	-44.5	-45.4	17.3	0.00e+00	0	55	0	860880896	51	4087
2026-01-03 23:12:44.33	57.89	30.30	-44.5	-45.4	17.3	0.00e+00	0	55	0	864026624	51	4088
2026-01-03 23:12:45.32	58.16	30.41	-44.6	-45.5	17.2	0.00e+00	0	55	0	867172352	51	4144
2026-01-03 23:12:46.31	58.44	30.52	-44.7	-45.7	17.1	0.00e+00	0	55	0	870318080	51	4203
2026-01-03 23:12:47.30	58.72	30.63	-44.7	-45.7	17.1	0.00e+00	0	55	0	873463808	51	4203
2026-01-03 23:12:48.29	59.01	30.74	-44.5	-45.5	17.3	0.00e+00	0	55	0	876609536	51	4115
2026-01-03 23:12:49.28	59.29	30.85	-44.4	-45.3	17.5	0.00e+00	0	55	0	879755264	51	4029
2026-01-03 23:12:50.27	59.58	30.96	-44.5	-45.4	17.4	0.00e+00	0	55	0	882900992	51	4067
2026-01-03 23:12:51.25	59.87	31.07	-44.4	-45.4	17.3	0.00e+00	0	55	0	886046720	51	4062
2026-01-03 23:12:52.25	60.16	31.18	-44.4	-45.3	17.5	0.00e+00	0	55	0	889192448	51	4013
2026-01-03 23:12:53.24	60.45	31.28	-44.5	-45.4	17.3	0.00e+00	0	55	0	892338176	51	4088
2026-01-03 23:12:54.23	60.75	31.39	-44.4	-45.3	17.5	0.00e+00	0	55	0	895483904	51	4021
2026-01-03 23:12:55.23	61.05	31.50	-44.4	-45.4	17.4	0.00e+00	0	55	0	898629632	51	4056
2026-01-03 23:12:56.21	61.34	31.61	-44.6	-45.6	17.2	0.00e+00	0	55	0	901775360	51	4151
2026-01-03 23:12:57.21	61.65	31.71	-44.6	-45.5	17.2	0.00e+00	0	55	0	904921088	51	4143
2026-01-03 23:12:58.20	61.95	31.82	-44.8	-45.8	17.0	0.00e+00	0	55	0	907018240	51	4257
2026-01-03 23:12:59.18	62.25	31.93	-45.0	-46.0	16.8	0.00e+00	0	55	0	910163968	51	4360
2026-01-03 23:13:00.17	62.56	32.03	-44.9	-45.9	16.9	0.00e+00	0	55	0	913309696	51	4299
2026-01-03 23:13:01.16	62.86	32.13	-45.0	-46.1	16.7	0.00e+00	0	55	0	916455424	51	4404
2026-01-03 23:13:02.15	63.17	32.24	-45.2	-46.3	16.3	0.00e+00	0	55	0	919601152	52	4279
2026-01-03 23:13:03.14	63.49	32.34	-45.0	-46.1	16.6	0.00e+00	0	55	0	922746880	52	4167
2026-01-03 23:13:04.13	63.80	32.45	-45.0	-46.0	16.7	0.00e+00	0	55	0	925892608	52	4114
2026-01-03 23:13:05.11	64.11	32.55	-45.2	-46.3	16.4	0.00e+00	0	55	0	929038336	52	4262
2026-01-03 23:13:06.10	64.43	32.65	-45.3	-46.4	16.3	0.00e+00	0	55	0	932184064	52	4304
2026-01-03 23:13:07.10	64.75	32.75	-45.2	-46.3	16.4	0.00e+00	0	55	0	935329792	52	4248
2026-01-03 23:13:08.09	65.08	32.85	-45.5	-46.6	16.1	0.00e+00	0	55	0	938475520	52	4423
2026-01-03 23:13:09.08	65.40	32.95	-45.4	-46.5	16.2	0.00e+00	0	55	0	941621248	52	4354
2026-01-03 23:13:10.06	65.72	33.05	-45.5	-46.6	16.1	0.00e+00	0	55	0	944766976	52	4410
2026-01-03 23:13:11.05	66.05	33.15	-45.7	-46.8	15.9	0.00e+00	0	55	0	947912704	53	4274
2026-01-03 23:13:12.04	66.38	33.24	-45.7	-46.8	15.9	0.00e+00	0	55	0	951058432	53	4284
2026-01-03 23:13:13.04	66.72	33.34	-45.8	-47.1	15.7	0.00e+00	0	55	0	954204160	53	4392
2026-01-03 23:13:14.03	67.05	33.44	-45.8	-47.1	15.7	0.00e+00	0	55	0	957349888	53	4405
2026-01-03 23:13:15.02	67.39	33.53	-45.9	-47.1	15.6	0.00e+00	0	56	0	960495616	53	4436
2026-01-03 23:13:16.00	67.72	33.63	-45.9	-47.2	15.5	0.00e+00	0	55	0	962592768	53	4449
2026-01-03 23:13:16.99	68.06	33.72	-46.1	-47.4	15.3	0.00e+00	0	55	0	965738496	53	4553
2026-01-03 23:13:17.98	68.40	33.82	-46.0	-47.3	15.4	0.00e+00	0	55	0	968884224	54	4255
2026-01-03 23:13:18.97	68.74	33.91	-46.1	-47.4	15.3	0.00e+00	0	55	0	972029952	54	4326
2026-01-03 23:13:19.95	69.09	34.00	-46.0	-47.3	15.5	0.00e+00	0	55	0	975175680	54	4251
2026-01-03 23:13:20.94	69.43	34.09	-46.0	-47.3	15.4	0.00e+00	0	55	0	978321408	54	4269
2026-01-03 23:13:21.92	69.78	34.18	-46.0	-47.3	15.5	0.00e+00	0	56	0	981467136	54	4251
2026-01-03 23:13:22.91	70.13	34.27	-45.9	-47.2	15.6	0.00e+00	0	55	0	984612864	54	4204
2026-01-03 23:13:23.89	70.48	34.35	-46.0	-47.3	15.5	0.00e+00	0	55	0	987758592	54	4252
2026-01-03 23:13:24.89	70.84	34.44	-46.3	-47.6	15.1	0.00e+00	0	55	0	990904320	54	4439
2026-01-03 23:13:25.88	71.19	34.53	-46.0	-47.3	15.4	0.00e+00	0	55	0	994050048	54	4253
2026-01-03 23:13:26.87	71.55	34.61	-45.9	-47.1	15.6	0.00e+00	0	56	0	997195776	54	4191
2026-01-03 23:13:27.86	71.91	34.70	-45.8	-47.0	15.8	0.00e+00	0	56	0	1000341504	54	4135
2026-01-03 23:13:28.85	72.27	34.78	-46.0	-47.3	15.5	0.00e+00	0	56	0	1003487232	54	4262
2026-01-03 23:13:29.84	72.64	34.86	-45.8	-47.1	15.7	0.00e+00	0	55	0	1006632960	54	4162
2026-01-03 23:13:30.82	73.00	34.94	-45.8	-47.1	15.7	0.00e+00	0	55	0	1009778688	54	4148
2026-01-03 23:13:31.81	73.37	35.02	-45.6	-46.8	16.0	0.00e+00	0	56	0	1012924416	54	4006
2026-01-03 23:13:32.80	73.74	35.10	-45.4	-46.5	16.2	0.00e+00	0	56	0	1016070144	54	3901
2026-01-03 23:13:33.79	74.11	35.18	-45.5	-46.6	16.1	0.00e+00	0	55	0	1018167296	53	4183
2026-01-03 23:13:34.77	74.48	35.25	-45.6	-46.7	16.0	0.00e+00	0	55	0	1021313024	53	4231
2026-01-03 23:13:35.77	74.86	35.33	-45.7	-46.8	15.9	0.00e+00	0	56	0	1024458752	53	4273
2026-01-03 23:13:36.76	75.23	35.40	-45.8	-47.0	15.7	0.00e+00	0	56	0	1027604480	53	4389
2026-01-03 23:13:37.75	75.61	35.48	-45.6	-46.7	16.0	0.00e+00	0	56	0	1030750208	53	4222
2026-01-03 23:13:38.74	75.99	35.55	-45.3	-46.3	16.4	0.00e+00	0	56	0	1033895936	53	4047
2026-01-03 23:13:39.73	76.37	35.62	-45.1	-46.2	16.6	0.00e+00	0	55	0	1037041664	53	3965
2026-01-03 23:13:40.72	76.75	35.69	-45.4	-46.6	16.2	0.00e+00	0	56	0	1040187392	53	4146
2026-01-03 23:13:41.71	77.14	35.76	-45.4	-46.5	16.3	0.00e+00	0	56	0	1043333120	53	4110
2026-01-03 23:13:42.71	77.53	35.82	-45.4	-46.5	16.3	0.00e+00	0	56	0	1046478848	53	4121
2026-01-03 23:13:43.69	77.91	35.89	-45.2	-46.4	16.4	0.00e+00	0	56	0	1049624576	53	4059
2026-01-03 23:13:44.68	78.30	35.95	-45.4	-46.5	16.2	0.00e+00	0	56	0	1052770304	53	4135
2026-01-03 23:13:45.67	78.69	36.01	-45.6	-46.8	15.9	0.00e+00	0	56	0	1055916032	53	4279
2026-01-03 23:13:46.66	79.08	36.08	-45.6	-46.7	16.0	0.00e+00	0	55	0	1059061760	53	4226
2026-01-03 23:13:47.66	79.48	36.14	-45.3	-46.5	16.2	0.00e+00	0	55	0	1062207488	53	4113
2026-01-03 23:13:48.65	79.88	36.20	-45.5	-46.6	16.1	0.00e+00	0	56	0	1065353216	53	4163
2026-01-03 23:13:49.63	80.27	36.25	-45.5	-46.6	16.2	0.00e+00	0	56	0	1068498944	53	4183
2026-01-03 23:13:50.62	80.67	36.31	-45.5	-46.6	16.1	0.00e+00	0	56	0	1071644672	53	4151
2026-01-03 23:13:51.61	81.06	36.36	-45.7	-46.8	15.9	0.00e+00	0	56	0	1074790400	53	4277
2026-01-03 23:13:52.61	81.47	36.42	-45.8	-47.0	15.7	0.00e+00	0	56	0	1077936128	53	4387
2026-01-03 23:13:53.59	81.87	36.47	-46.2	-47.5	15.3	0.00e+00	0	56	0	1080033280	54	4356
2026-01-03 23:13:54.58	82.27	36.52	-46.3	-47.7	15.1	0.00e+00	0	56	0	1083179008	54	4456
2026-01-03 23:13:55.57	82.67	36.57	-46.2	-47.6	15.2	0.00e+00	0	56	0	1086324736	54	4402
2026-01-03 23:13:56.56	83.08	36.61	-46.3	-47.7	15.1	0.00e+00	0	56	0	1089470464	54	4443
2026-01-03 23:13:57.55	83.48	36.66	-46.1	-47.4	15.3	0.00e+00	0	56	0	1092616192	54	4320
2026-01-03 23:13:58.55	83.90	36.70	-45.8	-46.9	15.8	0.00e+00	0	56	0	1095761920	54	4085
2026-01-03 23:13:59.54	84.30	36.75	-45.6	-46.7	16.0	0.00e+00	0	56	0	1098907648	54	3982
2026-01-03 23:14:00.52	84.71	36.79	-45.6	-46.7	16.0	0.00e+00	0	56	0	1102053376	54	3998
2026-01-03 23:14:01.52	85.13	36.83	-45.7	-46.8	15.9	0.00e+00	0	56	0	1105199104	54	4043
2026-01-03 23:14:02.51	85.54	36.86	-45.7	-46.9	15.9	0.00e+00	0	56	0	1108344832	54	4052
2026-01-03 23:14:03.49	85.95	36.90	-45.7	-46.8	15.9	0.00e+00	0	56	0	1111490560	54	4045
2026-01-03 23:14:04.48	86.36	36.93	-45.7	-46.9	15.9	0.00e+00	0	56	0	1114636288	54	4075
2026-01-03 23:14:05.48	86.78	36.97	-45.8	-47.0	15.8	0.00e+00	0	56	0	1117782016	54	4108
2026-01-03 23:14:06.47	87.19	37.00	-45.7	-46.9	15.9	0.00e+00	0	55	0	1120927744	54	4064
2026-01-03 23:14:07.46	87.61	37.03	-45.6	-46.7	16.0	0.00e+00	0	56	0	1124073472	54	4003
2026-01-03 23:14:08.44	88.02	37.06	-45.7	-46.9	15.9	0.00e+00	0	56	0	1127219200	54	4068
2026-01-03 23:14:09.43	88.44	37.08	-45.9	-47.1	15.6	0.00e+00	0	56	0	1130364928	54	4168
2026-01-03 23:14:10.42	88.86	37.11	-45.9	-47.1	15.6	0.00e+00	0	56	0	1133510656	54	4158
2026-01-03 23:14:11.41	89.27	37.13	-45.9	-47.1	15.6	0.00e+00	0	56	0	1136656384	54	4166
2026-01-03 23:14:12.40	89.69	37.15	-46.0	-47.3	15.5	0.00e+00	0	56	0	1139802112	54	4274
2026-01-03 23:14:13.39	90.11	37.17	-46.2	-47.4	15.3	0.00e+00	0	56	0	1142947840	54	4318
2026-01-03 23:14:14.38	90.53	37.19	-45.7	-46.9	15.9	0.00e+00	0	56	0	1145044992	54	4070
2026-01-03 23:14:15.37	90.95	37.21	-45.6	-46.8	15.9	0.00e+00	0	56	0	1148190720	54	4005
2026-01-03 23:14:16.36	91.38	37.22	-45.6	-46.8	16.0	0.00e+00	0	56	0	1151336448	54	4028
2026-01-03 23:14:17.36	91.80	37.24	-45.7	-46.9	15.8	0.00e+00	0	56	0	1154482176	54	4066
2026-01-03 23:14:18.35	92.22	37.25	-45.9	-47.2	15.6	0.00e+00	0	56	0	1157627904	54	4196
2026-01-03 23:14:19.33	92.64	37.26	-45.9	-47.2	15.6	0.00e+00	0	56	0	1160773632	54	4213
2026-01-03 23:14:20.32	93.06	37.27	-46.0	-47.2	15.5	0.00e+00	0	56	0	1163919360	54	4240
2026-01-03 23:14:21.31	93.48	37.27	-45.6	-46.7	16.0	0.00e+00	0	56	0	1167065088	54	3985
2026-01-03 23:14:22.30	93.91	37.28	-45.4	-46.6	16.2	0.00e+00	0	56	0	1170210816	54	3916
2026-01-03 23:14:23.29	94.33	37.28	-45.5	-46.6	16.2	0.00e+00	0	56	0	1173356544	54	3940
2026-01-03 23:14:24.28	94.75	37.28	-45.7	-46.9	15.9	0.00e+00	0	56	0	1176502272	54	4072
2026-01-03 23:14:25.27	95.18	37.28	-45.7	-46.9	15.8	0.00e+00	0	56	0	1179648000	54	4097
2026-01-03 23:14:26.26	95.60	37.28	-45.7	-46.8	15.9	0.00e+00	0	56	0	1182793728	54	4026
2026-01-03 23:14:27.24	96.02	37.27	-45.6	-46.7	16.0	0.00e+00	0	56	0	1185939456	54	4003
2026-01-03 23:14:28.23	96.44	37.27	-45.6	-46.7	16.1	0.00e+00	0	56	0	1189085184	54	3992
2026-01-03 23:14:29.21	96.86	37.26	-45.7	-46.9	15.8	0.00e+00	0	56	0	1192230912	54	4073
2026-01-03 23:14:30.20	97.28	37.25	-45.8	-47.0	15.7	0.00e+00	0	56	0	1195376640	54	4124
2026-01-03 23:14:31.18	97.70	37.24	-46.1	-47.3	15.4	0.00e+00	0	56	0	1198522368	54	4271
2026-01-03 23:14:32.17	98.12	37.23	-45.8	-46.9	15.8	0.00e+00	0	56	0	1201668096	54	4095
2026-01-03 23:14:33.16	98.54	37.21	-45.5	-46.6	16.2	0.00e+00	0	56	0	1204813824	54	3925
2026-01-03 23:14:34.16	98.97	37.20	-45.5	-46.7	16.1	0.00e+00	0	56	0	1206910976	54	3977
2026-01-03 23:14:35.14	99.38	37.18	-45.6	-46.8	15.9	0.00e+00	0	56	0	1210056704	54	4042
2026-01-03 23:14:36.13	99.80	37.16	-45.7	-46.9	15.9	0.00e+00	0	56	0	1213202432	54	4089
2026-01-03 23:14:37.11	100.22	37.14	-45.7	-46.9	15.9	0.00e+00	0	56	0	1216348160	54	4053
2026-01-03 23:14:38.10	100.64	37.12	-45.7	-46.8	15.9	0.00e+00	0	56	0	1219493888	54	4045
2026-01-03 23:14:39.10	101.06	37.09	-45.7	-46.9	15.9	0.00e+00	0	56	0	1222639616	54	4068
2026-01-03 23:14:40.09	101.48	37.07	-45.7	-46.8	15.9	0.00e+00	0	56	0	1225785344	54	4038
2026-01-03 23:14:41.08	101.89	37.04	-45.8	-47.0	15.8	0.00e+00	0	56	0	1228931072	54	4108
2026-01-03 23:14:42.07	102.31	37.01	-45.9	-47.1	15.6	0.00e+00	0	56	0	1232076800	54	4150
2026-01-03 23:14:43.06	102.73	36.98	-45.9	-47.2	15.6	0.00e+00	0	56	0	1235222528	54	4215
2026-01-03 23:14:44.06	103.15	36.95	-46.1	-47.3	15.5	0.00e+00	0	56	0	1238368256	54	4287
2026-01-03 23:14:45.05	103.56	36.91	-46.1	-47.3	15.5	0.00e+00	0	56	0	1241513984	54	4280
2026-01-03 23:14:46.03	103.97	36.88	-46.3	-47.6	15.2	0.00e+00	0	56	0	1244659712	54	4413
2026-01-03 23:14:47.02	104.38	36.84	-46.6	-48.0	14.8	0.00e+00	0	56	0	1247805440	55	4362
2026-01-03 23:14:48.01	104.79	36.80	-46.4	-47.7	15.1	0.00e+00	0	56	0	1250951168	55	4232
2026-01-03 23:14:49.00	105.20	36.76	-46.2	-47.6	15.2	0.00e+00	0	56	0	1254096896	55	4167
2026-01-03 23:14:49.98	105.61	36.72	-46.1	-47.4	15.4	0.00e+00	0	56	0	1257242624	55	4094
2026-01-03 23:14:50.98	106.02	36.68	-46.1	-47.4	15.4	0.00e+00	0	56	0	1260388352	55	4065
2026-01-03 23:14:51.96	106.42	36.63	-46.4	-47.7	15.1	0.00e+00	0	56	0	1263534080	55	4228
2026-01-03 23:14:52.96	106.83	36.58	-46.2	-47.5	15.3	0.00e+00	0	56	0	1266679808	55	4116
2026-01-03 23:14:53.94	107.23	36.54	-46.2	-47.5	15.3	0.00e+00	0	56	0	1268776960	55	4123
2026-01-03 23:14:54.92	107.63	36.49	-46.1	-47.4	15.4	0.00e+00	0	56	0	1271922688	55	4069
2026-01-03 23:14:55.91	108.04	36.44	-46.0	-47.3	15.5	0.00e+00	0	56	0	1275068416	55	4018
2026-01-03 23:14:56.91	108.44	36.38	-45.9	-47.2	15.6	0.00e+00	0	56	0	1278214144	55	3986
2026-01-03 23:14:57.89	108.84	36.33	-45.7	-46.9	15.8	0.00e+00	0	56	0	1281359872	54	4067
2026-01-03 23:14:58.88	109.24	36.27	-45.7	-46.9	15.8	0.00e+00	0	56	0	1284505600	54	4076
2026-01-03 23:14:59.87	109.63	36.22	-46.0	-47.3	15.5	0.00e+00	0	56	0	1287651328	54	4270
2026-01-03 23:15:00.85	110.03	36.16	-45.9	-47.2	15.6	0.00e+00	0	56	0	1290797056	54	4212
2026-01-03 23:15:01.84	110.42	36.10	-45.9	-47.2	15.6	0.00e+00	0	56	0	1293942784	54	4197
2026-01-03 23:15:02.83	110.81	36.04	-46.1	-47.4	15.4	0.00e+00	0	56	0	1297088512	54	4328
2026-01-03 23:15:03.81	111.20	35.98	-46.1	-47.4	15.4	0.00e+00	0	56	0	1300234240	54	4294
2026-01-03 23:15:04.80	111.59	35.91	-46.2	-47.4	15.4	0.00e+00	0	56	0	1303379968	54	4330
2026-01-03 23:15:05.79	111.98	35.85	-46.2	-47.5	15.2	0.00e+00	0	56	0	1306525696	54	4389
2026-01-03 23:15:06.78	112.37	35.78	-46.4	-47.8	15.0	7.00e-07	0	56	0	1309671424	54	4522
2026-01-03 23:15:07.78	112.76	35.71	-46.0	-47.3	15.5	0.00e+00	0	56	0	1312817152	54	4268
2026-01-03 23:15:08.77	113.14	35.64	-45.6	-46.7	16.0	0.00e+00	0	56	0	1315962880	54	3991
2026-01-03 23:15:09.75	113.52	35.57	-45.5	-46.6	16.2	0.00e+00	0	56	0	1319108608	54	3921
2026-01-03 23:15:10.75	113.91	35.50	-45.4	-46.5	16.2	0.00e+00	0	56	0	1322254336	54	3913
2026-01-03 23:15:11.73	114.28	35.43	-45.1	-46.2	16.5	0.00e+00	0	56	0	1324351488	53	3981
2026-01-03 23:15:12.72	114.66	35.36	-44.9	-45.9	16.8	0.00e+00	0	56	0	1327497216	53	3844
2026-01-03 23:15:13.71	115.03	35.28	-44.9	-45.9	16.9	0.00e+00	0	56	0	1330642944	52	4059
2026-01-03 23:15:14.71	115.41	35.20	-45.0	-46.0	16.7	0.00e+00	0	56	0	1333788672	52	4142
2026-01-03 23:15:15.70	115.78	35.13	-45.0	-46.1	16.6	0.00e+00	0	56	0	1336934400	52	4175
2026-01-03 23:15:16.68	116.15	35.05	-44.9	-45.9	16.8	0.00e+00	0	56	0	1340080128	52	4067
2026-01-03 23:15:17.67	116.52	34.97	-44.8	-45.7	17.0	0.00e+00	0	56	0	1343225856	52	4003
2026-01-03 23:15:18.66	116.89	34.89	-45.0	-46.0	16.7	0.00e+00	0	56	0	1346371584	52	4109
2026-01-03 23:15:19.65	117.25	34.81	-45.2	-46.3	16.5	0.00e+00	0	56	0	1349517312	52	4246
2026-01-03 23:15:20.64	117.62	34.73	-45.1	-46.1	16.6	0.00e+00	0	56	0	1352663040	52	4191
2026-01-03 23:15:21.63	117.98	34.64	-45.0	-46.0	16.7	0.00e+00	0	56	0	1355808768	52	4133
2026-01-03 23:15:22.62	118.34	34.56	-45.1	-46.1	16.6	0.00e+00	0	56	0	1358954496	52	4189
2026-01-03 23:15:23.61	118.70	34.47	-45.1	-46.1	16.7	0.00e+00	0	56	0	1362100224	52	4157
2026-01-03 23:15:24.60	119.05	34.38	-45.0	-46.0	16.7	0.00e+00	0	56	0	1365245952	52	4132
2026-01-03 23:15:25.59	119.41	34.30	-45.0	-46.0	16.7	0.00e+00	0	56	0	1368391680	52	4141
2026-01-03 23:15:26.58	119.76	34.21	-44.8	-45.8	16.9	0.00e+00	0	56	0	1371537408	52	4024
2026-01-03 23:15:27.57	120.11	34.12	-44.5	-45.4	17.3	0.00e+00	0	56	0	1374683136	52	3868
2026-01-03 23:15:28.55	120.46	34.03	-44.6	-45.5	17.2	0.00e+00	0	56	0	1377828864	52	3898
2026-01-03 23:15:29.54	120.80	33.94	-44.8	-45.8	17.0	0.00e+00	0	56	0	1380974592	52	4020
2026-01-03 23:15:30.53	121.15	33.84	-44.8	-45.7	17.0	0.00e+00	0	56	0	1383071744	52	4002
2026-01-03 23:15:31.51	121.49	33.75	-44.6	-45.5	17.2	0.00e+00	0	56	0	1386217472	52	3901
2026-01-03 23:15:32.50	121.83	33.66	-44.5	-45.5	17.2	0.00e+00	0	56	0	1389363200	52	3877
2026-01-03 23:15:33.49	122.17	33.56	-44.7	-45.6	17.0	0.00e+00	0	56	0	1392508928	52	3950
2026-01-03 23:15:34.48	122.50	33.47	-44.6	-45.6	17.1	0.00e+00	0	56	0	1395654656	52	3920
2026-01-03 23:15:35.46	122.84	33.37	-44.3	-45.2	17.5	0.00e+00	0	56	0	1398800384	51	3990
2026-01-03 23:15:36.44	123.17	33.28	-44.1	-45.0	17.8	0.00e+00	0	56	0	1401946112	51	3882
2026-01-03 23:15:37.43	123.50	33.18	-44.2	-45.1	17.7	0.00e+00	0	56	0	1405091840	51	3915
2026-01-03 23:15:38.42	123.83	33.08	-44.3	-45.2	17.6	0.00e+00	0	56	0	1408237568	51	3992
2026-01-03 23:15:39.41	124.15	32.98	-44.6	-45.5	17.3	0.00e+00	0	56	0	1411383296	51	4134
2026-01-03 23:15:40.40	124.48	32.88	-44.7	-45.7	17.1	0.00e+00	0	56	0	1414529024	51	4205
2026-01-03 23:15:41.39	124.80	32.78	-44.7	-45.7	17.2	0.00e+00	0	56	0	1417674752	51	4194
2026-01-03 23:15:42.38	125.12	32.68	-44.7	-45.6	17.1	0.00e+00	0	56	0	1420820480	51	4187
2026-01-03 23:15:43.37	125.44	32.58	-44.7	-45.7	17.1	0.00e+00	0	56	0	1423966208	51	4204
2026-01-03 23:15:44.35	125.76	32.48	-44.6	-45.5	17.3	0.00e+00	0	56	0	1427111936	51	4116
2026-01-03 23:15:45.34	126.07	32.37	-44.5	-45.5	17.3	0.00e+00	0	56	0	1430257664	51	4122
2026-01-03 23:15:46.34	126.39	32.27	-44.7	-45.7	17.1	0.00e+00	0	56	0	1433403392	51	4212
2026-01-03 23:15:47.33	126.70	32.16	-44.7	-45.7	17.1	0.00e+00	0	56	0	1435500544	51	4200
2026-01-03 23:15:48.31	127.01	32.06	-44.3	-45.1	17.6	0.00e+00	0	56	0	1438646272	51	3954
2026-01-03 23:15:49.31	127.32	31.95	-44.1	-44.9	17.8	0.00e+00	0	56	0	1441792000	51	3860
2026-01-03 23:15:50.30	127.63	31.85	-44.2	-45.1	17.7	0.00e+00	0	56	0	1444937728	51	3928
2026-01-03 23:15:51.28	127.93	31.74	-44.3	-45.2	17.6	0.00e+00	0	56	0	1448083456	51	3969
2026-01-03 23:15:52.27	128.23	31.64	-44.6	-45.6	17.2	0.00e+00	0	56	0	1451229184	51	4167
2026-01-03 23:15:53.26	128.53	31.53	-44.6	-45.6	17.2	0.00e+00	0	56	0	1454374912	51	4156
2026-01-03 23:15:54.26	128.83	31.42	-44.6	-45.5	17.3	0.00e+00	0	56	0	1457520640	51	4123
2026-01-03 23:15:55.25	129.13	31.31	-44.6	-45.5	17.3	0.00e+00	0	56	0	1460666368	51	4113
2026-01-03 23:15:56.23	129.42	31.20	-44.7	-45.6	17.2	0.00e+00	0	56	0	1463812096	51	4172
2026-01-03 23:15:57.22	129.71	31.10	-44.8	-45.8	17.0	0.00e+00	0	56	0	1466957824	51	4257
2026-01-03 23:15:58.21	130.00	30.99	-45.0	-46.0	16.7	0.00e+00	0	56	0	1470103552	52	4129
2026-01-03 23:15:59.20	130.29	30.88	-44.9	-46.0	16.8	0.00e+00	0	56	0	1473249280	52	4106
2026-01-03 23:16:00.19	130.58	30.77	-45.0	-46.1	16.7	0.00e+00	0	56	0	1476395008	52	4151
2026-01-03 23:16:01.18	130.86	30.66	-45.3	-46.3	16.4	0.00e+00	0	56	0	1479540736	52	4282
2026-01-03 23:16:02.17	131.14	30.54	-45.0	-46.0	16.7	0.00e+00	0	56	0	1482686464	52	4128
2026-01-03 23:16:03.16	131.42	30.43	-45.0	-46.0	16.7	0.00e+00	0	56	0	1485832192	52	4111
2026-01-03 23:16:04.15	131.70	30.32	-45.2	-46.3	16.4	0.00e+00	0	56	0	1488977920	52	4272
2026-01-03 23:16:05.14	131.98	30.21	-44.9	-46.0	16.8	0.00e+00	0	56	0	1492123648	52	4101
2026-01-03 23:16:06.13	132.26	30.10	-44.7	-45.7	17.0	0.00e+00	0	56	0	1495269376	52	3964
2026-01-03 23:16:07.13	132.53	29.99	-44.6	-45.6	17.2	0.00e+00	0	56	0	1498415104	52	3917
2026-01-03 23:16:08.12	132.80	29.87	-44.6	-45.5	17.2	0.00e+00	0	56	0	1500512256	52	3908
2026-01-03 23:16:09.11	133.07	29.76	-44.8	-45.9	16.8	0.00e+00	0	56	0	1503657984	52	4055
2026-01-03 23:16:10.09	133.34	29.65	-44.9	-46.0	16.7	0.00e+00	0	56	0	1506803712	52	4103
2026-01-03 23:16:11.09	133.61	29.53	-45.3	-46.3	16.4	0.00e+00	0	56	0	1509949440	52	4285
2026-01-03 23:16:12.07	133.87	29.42	-45.1	-46.2	16.5	0.00e+00	0	56	0	1513095168	52	4196
2026-01-03 23:16:13.07	134.13	29.31	-45.3	-46.4	16.3	0.00e+00	0	56	0	1516240896	52	4300
2026-01-03 23:16:14.06	134.39	29.19	-45.5	-46.6	16.1	0.00e+00	0	56	0	1519386624	52	4416
2026-01-03 23:16:15.05	134.65	29.08	-44.9	-45.9	16.8	0.00e+00	0	56	0	1522532352	52	4085
2026-01-03 23:16:16.04	134.91	28.97	-44.8	-45.8	16.9	0.00e+00	0	56	0	1525678080	52	4006
2026-01-03 23:16:17.03	135.16	28.85	-44.7	-45.6	17.0	0.00e+00	0	56	0	1528823808	52	3938
2026-01-03 23:16:18.02	135.42	28.74	-44.7	-45.7	17.0	0.00e+00	0	56	0	1531969536	52	3976
2026-01-03 23:16:19.01	135.67	28.62	-44.8	-45.8	16.9	0.00e+00	0	56	0	1535115264	52	4009
2026-01-03 23:16:20.00	135.92	28.51	-44.9	-45.9	16.7	0.00e+00	0	56	0	1538260992	52	4092
2026-01-03 23:16:20.99	136.17	28.39	-44.8	-45.8	16.9	0.00e+00	0	56	0	1541406720	52	4027
2026-01-03 23:16:21.99	136.42	28.28	-44.5	-45.5	17.2	0.00e+00	0	56	0	1544552448	52	3873
2026-01-03 23:16:22.98	136.66	28.16	-44.3	-45.2	17.5	0.00e+00	0	56	0	1547698176	51	3981
2026-01-03 23:16:23.96	136.90	28.05	-44.2	-45.1	17.7	0.00e+00	0	56	0	1550843904	51	3920
2026-01-03 23:16:24.95	137.14	27.93	-44.3	-45.2	17.5	0.00e+00	0	56	0	1553989632	51	3997
2026-01-03 23:16:25.93	137.38	27.82	-44.4	-45.3	17.4	0.00e+00	0	56	0	1557135360	51	4030
2026-01-03 23:16:26.92	137.62	27.70	-44.7	-45.7	17.0	0.00e+00	0	56	0	1560281088	51	4223
2026-01-03 23:16:27.91	137.85	27.59	-44.4	-45.3	17.5	0.00e+00	0	56	0	1562378240	51	4012
2026-01-03 23:16:28.91	138.09	27.47	-44.3	-45.2	17.5	0.00e+00	0	56	0	1565523968	51	3966
2026-01-03 23:16:29.89	138.32	27.36	-44.3	-45.2	17.5	0.00e+00	0	56	0	1568669696	51	3975
2026-01-03 23:16:30.87	138.55	27.25	-44.5	-45.4	17.3	0.00e+00	0	56	0	1571815424	51	4078
2026-01-03 23:16:31.86	138.78	27.13	-44.3	-45.3	17.5	0.00e+00	0	56	0	1574961152	51	4018
2026-01-03 23:16:32.84	139.01	27.02	-44.2	-45.1	17.6	0.00e+00	0	57	0	1578106880	51	3947
2026-01-03 23:16:33.83	139.23	26.90	-44.2	-45.1	17.6	0.00e+00	0	56	0	1581252608	51	3922
2026-01-03 23:16:34.82	139.46	26.79	-44.2	-45.1	17.6	0.00e+00	0	56	0	1584398336	51	3955
2026-01-03 23:16:35.82	139.68	26.67	-44.1	-44.9	17.8	0.00e+00	0	56	0	1587544064	51	3853
2026-01-03 23:16:36.80	139.90	26.56	-43.8	-44.7	18.0	0.00e+00	0	56	0	1590689792	50	3960
2026-01-03 23:16:37.79	140.12	26.44	-43.7	-44.5	18.1	0.00e+00	0	56	0	1593835520	50	3903
2026-01-03 23:16:38.78	140.34	26.33	-43.7	-44.5	18.2	0.00e+00	0	56	0	1596981248	50	3892
2026-01-03 23:16:39.76	140.56	26.21	-43.7	-44.5	18.2	0.00e+00	0	56	0	1600126976	50	3887
2026-01-03 23:16:40.75	140.77	26.10	-43.7	-44.5	18.2	0.00e+00	0	56	0	1603272704	50	3879
2026-01-03 23:16:41.74	140.99	25.98	-43.7	-44.5	18.1	0.00e+00	0	56	0	1606418432	50	3910
2026-01-03 23:16:42.73	141.20	25.87	-43.7	-44.6	18.1	0.00e+00	0	56	0	1609564160	50	3920
2026-01-03 23:16:43.72	141.41	25.75	-43.9	-44.8	17.9	0.00e+00	0	56	0	1612709888	50	4006
2026-01-03 23:16:44.71	141.62	25.64	-43.8	-44.7	18.0	0.00e+00	0	57	0	1615855616	50	3969
2026-01-03 23:16:45.70	141.83	25.52	-43.7	-44.5	18.2	0.00e+00	0	56	0	1619001344	50	3907
2026-01-03 23:16:46.68	142.03	25.41	-43.7	-44.5	18.2	0.00e+00	0	56	0	1621098496	50	3898
2026-01-03 23:16:47.67	142.24	25.30	-43.8	-44.6	18.1	0.00e+00	0	56	0	1624244224	50	3925
2026-01-03 23:16:48.66	142.44	25.18	-43.9	-44.7	18.0	0.00e+00	0	57	0	1627389952	50	3979
2026-01-03 23:16:49.65	142.64	25.07	-43.9	-44.7	18.0	0.00e+00	0	56	0	1630535680	50	3988
2026-01-03 23:16:50.63	142.84	24.96	-43.9	-44.7	17.9	0.00e+00	0	57	0	1633681408	50	4000
2026-01-03 23:16:51.62	143.04	24.84	-44.1	-45.0	17.7	0.00e+00	0	56	0	1636827136	50	4112
2026-01-03 23:16:52.61	143.24	24.73	-44.0	-44.9	17.8	0.00e+00	0	56	0	1639972864	50	4074
2026-01-03 23:16:53.60	143.44	24.62	-44.1	-45.0	17.7	0.00e+00	0	56	0	1643118592	50	4121
2026-01-03 23:16:54.59	143.63	24.50	-44.1	-44.9	17.8	0.00e+00	0	57	0	1646264320	50	4085
2026-01-03 23:16:55.58	143.83	24.39	-43.9	-44.7	17.9	0.00e+00	0	56	0	1649410048	50	3990
2026-01-03 23:16:56.58	144.02	24.27	-43.9	-44.7	18.0	0.00e+00	0	56	0	1652555776	50	3992
2026-01-03 23:16:57.57	144.21	24.16	-44.1	-45.0	17.7	0.00e+00	0	56	0	1655701504	50	4105
2026-01-03 23:16:58.56	144.40	24.05	-44.1	-45.0	17.7	0.00e+00	0	57	0	1658847232	50	4121
2026-01-03 23:16:59.56	144.59	23.94	-44.2	-45.1	17.6	0.00e+00	0	57	0	1661992960	50	4163
2026-01-03 23:17:00.54	144.78	23.82	-44.5	-45.4	17.3	0.00e+00	0	56	0	1665138688	50	4322
2026-01-03 23:17:01.53	144.97	23.71	-44.6	-45.6	17.1	0.00e+00	0	56	0	1668284416	51	4174
2026-01-03 23:17:02.52	145.15	23.60	-44.7	-45.7	17.1	0.00e+00	0	56	0	1671430144	51	4194
2026-01-03 23:17:03.51	145.33	23.49	-44.7	-45.7	17.0	0.00e+00	0	56	0	1674575872	51	4210
2026-01-03 23:17:04.50	145.52	23.38	-44.5	-45.4	17.3	0.00e+00	0	56	0	1677721600	51	4071
2026-01-03 23:17:05.49	145.70	23.27	-44.2	-45.1	17.6	0.00e+00	0	56	0	1680867328	51	3938
2026-01-03 23:17:06.48	145.88	23.15	-44.1	-45.0	17.7	0.00e+00	0	56	0	1682964480	51	3871
2026-01-03 23:17:07.48	146.06	23.04	-44.1	-45.0	17.7	0.00e+00	0	56	0	1686110208	51	3898
2026-01-03 23:17:08.47	146.24	22.93	-44.2	-45.0	17.6	0.00e+00	0	56	0	1689255936	51	3911
2026-01-03 23:17:09.46	146.41	22.82	-44.1	-45.0	17.7	0.00e+00	0	56	0	1692401664	51	3876
2026-01-03 23:17:10.45	146.59	22.71	-44.1	-45.0	17.7	0.00e+00	0	56	0	1695547392	51	3879
2026-01-03 23:17:11.44	146.76	22.60	-44.2	-45.1	17.6	0.00e+00	0	56	0	1698693120	51	3926
2026-01-03 23:17:12.43	146.93	22.49	-44.3	-45.2	17.5	0.00e+00	0	56	0	1701838848	51	3976
2026-01-03 23:17:13.43	147.11	22.38	-44.2	-45.1	17.6	0.00e+00	0	56	0	1704984576	51	3920
2026-01-03 23:17:14.41	147.27	22.27	-44.3	-45.2	17.5	0.00e+00	0	56	0	1708130304	51	3975
2026-01-03 23:17:15.40	147.44	22.16	-44.4	-45.3	17.4	0.00e+00	0	56	0	1711276032	51	4022
2026-01-03 23:17:16.39	147.61	22.05	-44.5	-45.4	17.3	0.00e+00	0	56	0	1714421760	51	4085
2026-01-03 23:17:17.39	147.78	21.94	-44.6	-45.5	17.2	0.00e+00	0	57	0	1717567488	51	4129
2026-01-03 23:17:18.38	147.95	21.83	-44.6	-45.5	17.2	0.00e+00	0	56	0	1720713216	51	4131
2026-01-03 23:17:19.37	148.11	21.73	-44.7	-45.6	17.1	0.00e+00	0	56	0	1723858944	51	4193
2026-01-03 23:17:20.36	148.27	21.62	-44.7	-45.7	17.0	0.00e+00	0	56	0	1727004672	51	4233
2026-01-03 23:17:21.35	148.44	21.51	-44.6	-45.6	17.1	0.00e+00	0	57	0	1730150400	51	4165
2026-01-03 23:17:22.33	148.59	21.40	-44.6	-45.6	17.1	0.00e+00	0	56	0	1733296128	51	4173
2026-01-03 23:17:23.32	148.75	21.30	-44.5	-45.4	17.2	0.00e+00	0	57	0	1736441856	51	4095
2026-01-03 23:17:24.31	148.91	21.19	-44.5	-45.5	17.2	0.00e+00	0	57	0	1739587584	51	4113
2026-01-03 23:17:25.30	149.07	21.08	-44.6	-45.6	17.1	0.00e+00	0	57	0	1742733312	51	4169
2026-01-03 23:17:26.29	149.23	20.97	-44.8	-45.8	16.9	0.00e+00	0	56	0	1744830464	51	4272
2026-01-03 23:17:27.28	149.38	20.87	-44.7	-45.7	17.0	0.00e+00	0	56	0	1747976192	51	4215
2026-01-03 23:17:28.27	149.54	20.76	-44.9	-45.9	16.8	0.00e+00	0	56	0	1751121920	51	4301
2026-01-03 23:17:29.25	149.69	20.66	-44.9	-45.9	16.8	0.00e+00	0	56	0	1754267648	51	4316
2026-01-03 23:17:30.23	149.84	20.55	-44.6	-45.5	17.1	0.00e+00	0	56	0	1757413376	51	4133
2026-01-03 23:17:31.21	149.99	20.45	-44.3	-45.2	17.4	0.00e+00	0	56	0	1760559104	51	3982
2026-01-03 23:17:32.20	150.14	20.34	-44.2	-45.1	17.6	0.00e+00	0	57	0	1763704832	51	3932
2026-01-03 23:17:33.20	150.29	20.24	-44.2	-45.1	17.5	0.00e+00	0	57	0	1766850560	51	3930
2026-01-03 23:17:34.19	150.44	20.13	-44.3	-45.2	17.4	0.00e+00	0	57	0	1769996288	51	3995
2026-01-03 23:17:35.18	150.59	20.03	-44.2	-45.1	17.5	0.00e+00	0	57	0	1773142016	51	3943
2026-01-03 23:17:36.17	150.74	19.92	-44.2	-45.1	17.6	0.00e+00	0	57	0	1776287744	51	3923
2026-01-03 23:17:37.16	150.88	19.82	-44.2	-45.1	17.5	0.00e+00	0	57	0	1779433472	51	3932
2026-01-03 23:17:38.14	151.03	19.72	-44.3	-45.2	17.5	0.00e+00	0	56	0	1782579200	51	3966
2026-01-03 23:17:39.13	151.17	19.61	-44.1	-45.0	17.6	0.00e+00	0	56	0	1785724928	51	3891
2026-01-03 23:17:40.13	151.32	19.51	-44.0	-44.9	17.7	0.00e+00	0	56	0	1788870656	51	3852
2026-01-03 23:17:41.11	151.46	19.41	-44.1	-44.9	17.7	0.00e+00	0	56	0	1792016384	51	3860
2026-01-03 23:17:42.10	151.60	19.30	-44.1	-45.0	17.6	0.00e+00	0	56	0	1795162112	51	3870
2026-01-03 23:17:43.09	151.74	19.20	-44.1	-45.0	17.6	0.00e+00	0	56	0	1797259264	51	3876
2026-01-03 23:17:44.08	151.88	19.10	-44.2	-45.1	17.6	0.00e+00	0	57	0	1800404992	51	3920
2026-01-03 23:17:45.08	152.02	19.00	-44.4	-45.3	17.3	0.00e+00	0	57	0	1803550720	51	4028
2026-01-03 23:17:46.07	152.16	18.89	-44.3	-45.2	17.4	0.00e+00	0	56	0	1806696448	51	3974
2026-01-03 23:17:47.05	152.29	18.79	-44.4	-45.3	17.3	0.00e+00	0	57	0	1809842176	51	4023
2026-01-03 23:17:48.04	152.43	18.69	-44.6	-45.5	17.1	0.00e+00	0	57	0	1812987904	51	4144
2026-01-03 23:17:49.03	152.56	18.59	-44.4	-45.3	17.3	0.00e+00	0	57	0	1816133632	51	4027
2026-01-03 23:17:50.02	152.70	18.49	-44.3	-45.3	17.3	0.00e+00	0	57	0	1819279360	51	4014
2026-01-03 23:17:51.01	152.83	18.39	-44.4	-45.4	17.3	0.00e+00	0	57	0	1822425088	51	4062
2026-01-03 23:17:52.00	152.96	18.29	-44.6	-45.6	17.0	0.00e+00	0	57	0	1825570816	51	4174
2026-01-03 23:17:52.99	153.09	18.19	-44.4	-45.4	17.2	0.00e+00	0	57	0	1828716544	51	4065
2026-01-03 23:17:53.98	153.22	18.09	-44.4	-45.4	17.2	0.00e+00	0	57	0	1831862272	51	4055
2026-01-03 23:17:54.96	153.35	17.99	-44.6	-45.6	17.0	0.00e+00	0	56	0	1835008000	51	4163
2026-01-03 23:17:55.95	153.48	17.89	-44.4	-45.4	17.2	0.00e+00	0	57	0	1838153728	51	4062
2026-01-03 23:17:56.94	153.61	17.79	-44.6	-45.6	17.0	0.00e+00	0	57	0	1841299456	51	4161
2026-01-03 23:17:57.93	153.74	17.69	-45.0	-46.0	16.6	0.00e+00	0	57	0	1844445184	51	4360
2026-01-03 23:17:58.93	153.86	17.60	-44.9	-45.9	16.7	0.00e+00	0	57	0	1847590912	51	4303
2026-01-03 23:17:59.91	153.99	17.50	-45.1	-46.2	16.3	0.00e+00	0	57	0	1850736640	52	4237
2026-01-03 23:18:00.91	154.12	17.40	-45.4	-46.6	16.0	0.00e+00	0	57	0	1853882368	52	4401
2026-01-03 23:18:01.90	154.24	17.30	-45.3	-46.4	16.1	0.00e+00	0	57	0	1857028096	52	4319
2026-01-03 23:18:02.89	154.36	17.20	-45.4	-46.5	16.0	0.00e+00	0	57	0	1860173824	52	4382
2026-01-03 23:18:03.88	154.49	17.11	-45.6	-46.8	15.8	0.00e+00	0	57	0	1862270976	52	4515
2026-01-03 23:18:04.87	154.61	17.01	-45.4	-46.6	15.9	0.00e+00	0	57	0	1865416704	53	4159
2026-01-03 23:18:05.86	154.73	16.91	-45.3	-46.4	16.1	0.00e+00	0	57	0	1868562432	53	4098
2026-01-03 23:18:06.85	154.85	16.82	-45.2	-46.4	16.1	0.00e+00	0	56	0	1871708160	53	4079
2026-01-03 23:18:07.84	154.97	16.72	-45.3	-46.4	16.1	0.00e+00	0	57	0	1874853888	53	4088
2026-01-03 23:18:08.84	155.09	16.63	-45.5	-46.7	15.8	0.00e+00	0	57	0	1877999616	53	4215
2026-01-03 23:18:09.83	155.21	16.53	-45.3	-46.5	16.0	0.00e+00	0	56	0	1881145344	53	4129
2026-01-03 23:18:10.82	155.33	16.44	-45.1	-46.2	16.3	0.00e+00	0	57	0	1884291072	53	4003
2026-01-03 23:18:11.81	155.44	16.34	-45.0	-46.0	16.4	0.00e+00	0	57	0	1887436800	53	3908
2026-01-03 23:18:12.80	155.56	16.25	-44.8	-45.8	16.7	0.00e+00	0	57	0	1890582528	52	4048
2026-01-03 23:18:13.79	155.67	16.15	-44.7	-45.7	16.8	0.00e+00	0	57	0	1893728256	52	3997
2026-01-03 23:18:14.78	155.79	16.06	-44.8	-45.9	16.6	0.00e+00	0	57	0	1896873984	52	4057
2026-01-03 23:18:15.76	155.90	15.96	-44.8	-45.8	16.7	0.00e+00	0	57	0	1900019712	52	4036
2026-01-03 23:18:16.74	156.02	15.87	-44.8	-45.9	16.6	0.00e+00	0	57	0	1903165440	52	4059
2026-01-03 23:18:17.74	156.13	15.78	-44.9	-46.0	16.5	0.00e+00	0	57	0	1906311168	52	4102
2026-01-03 23:18:18.73	156.24	15.68	-45.0	-46.1	16.4	0.00e+00	0	57	0	1909456896	52	4164
2026-01-03 23:18:19.72	156.35	15.59	-45.2	-46.4	16.2	0.00e+00	0	57	0	1912602624	52	4296
2026-01-03 23:18:20.71	156.46	15.50	-45.1	-46.2	16.2	0.00e+00	0	57	0	1915748352	52	4236
2026-01-03 23:18:21.69	156.57	15.41	-45.2	-46.3	16.2	0.00e+00	0	57	0	1918894080	52	4265
2026-01-03 23:18:22.68	156.68	15.31	-45.4	-46.6	15.9	0.00e+00	0	57	0	1920991232	52	4422
2026-01-03 23:18:23.67	156.79	15.22	-45.4	-46.5	15.9	0.00e+00	0	57	0	1924136960	52	4378
2026-01-03 23:18:24.66	156.90	15.13	-45.1	-46.3	16.2	0.00e+00	0	57	0	1927282688	52	4245
2026-01-03 23:18:25.65	157.01	15.04	-45.0	-46.1	16.3	0.00e+00	0	57	0	1930428416	52	4187
2026-01-03 23:18:26.65	157.11	14.95	-44.9	-46.0	16.5	0.00e+00	0	57	0	1933574144	52	4115
2026-01-03 23:18:27.64	157.22	14.86	-44.9	-46.0	16.4	0.00e+00	0	57	0	1936719872	52	4128
2026-01-03 23:18:28.61	157.32	14.77	-44.9	-46.0	16.5	0.00e+00	0	57	0	1939865600	52	4111
2026-01-03 23:18:29.60	157.43	14.68	-44.9	-46.0	16.4	0.00e+00	0	57	0	1943011328	52	4121
2026-01-03 23:18:30.58	157.53	14.59	-45.1	-46.2	16.2	0.00e+00	0	57	0	1946157056	52	4236
2026-01-03 23:18:31.56	157.64	14.50	-45.1	-46.2	16.2	0.00e+00	0	57	0	1949302784	52	4231
2026-01-03 23:18:32.55	157.74	14.41	-45.1	-46.3	16.2	0.00e+00	0	57	0	1952448512	52	4249
2026-01-03 23:18:33.54	157.84	14.32	-45.5	-46.8	15.7	0.00e+00	0	57	0	1955594240	52	4507
2026-01-03 23:18:34.53	157.94	14.23	-45.7	-46.9	15.5	0.00e+00	0	57	0	1958739968	53	4340
2026-01-03 23:18:35.52	158.05	14.14	-45.8	-47.1	15.4	0.00e+00	0	57	0	1961885696	53	4393
2026-01-03 23:18:36.52	158.15	14.05	-45.8	-47.1	15.3	0.00e+00	0	57	0	1965031424	53	4404
2026-01-03 23:18:37.51	158.25	13.96	-45.9	-47.2	15.2	0.00e+00	0	57	0	1968177152	53	4461
2026-01-03 23:18:38.51	158.35	13.88	-45.9	-47.2	15.2	0.00e+00	0	57	0	1971322880	53	4458
2026-01-03 23:18:39.49	158.45	13.79	-45.9	-47.2	15.3	0.00e+00	0	57	0	1974468608	53	4455
2026-01-03 23:18:40.48	158.55	13.70	-45.8	-47.2	15.2	0.00e+00	0	56	0	1977614336	53	4458
2026-01-03 23:18:41.47	158.64	13.61	-45.8	-47.0	15.4	0.00e+00	0	57	0	1979711488	53	4391
2026-01-03 23:18:42.46	158.74	13.53	-45.5	-46.7	15.7	0.00e+00	0	57	0	1982857216	53	4208
2026-01-03 23:18:43.45	158.84	13.44	-45.4	-46.5	15.9	0.00e+00	0	57	0	1986002944	53	4133
2026-01-03 23:18:44.44	158.93	13.35	-45.2	-46.3	16.1	0.00e+00	0	57	0	1989148672	53	4042
2026-01-03 23:18:45.44	159.03	13.27	-45.2	-46.4	16.0	0.00e+00	0	57	0	1992294400	53	4080
2026-01-03 23:18:46.42	159.13	13.18	-45.3	-46.5	16.0	0.00e+00	0	57	0	1995440128	53	4099
2026-01-03 23:18:47.41	159.22	13.09	-45.4	-46.6	15.7	0.00e+00	0	57	0	1998585856	53	4188
2026-01-03 23:18:48.39	159.31	13.01	-45.4	-46.7	15.7	0.00e+00	0	57	0	2001731584	53	4224
2026-01-03 23:18:49.39	159.41	12.92	-45.3	-46.5	15.9	0.00e+00	0	57	0	2004877312	53	4127
2026-01-03 23:18:50.38	159.50	12.84	-45.2	-46.4	16.0	0.00e+00	0	57	0	2008023040	53	4063
2026-01-03 23:18:51.36	159.59	12.75	-45.4	-46.6	15.8	0.00e+00	0	57	0	2011168768	53	4148
2026-01-03 23:18:52.35	159.69	12.67	-45.5	-46.7	15.6	0.00e+00	0	57	0	2014314496	53	4235
2026-01-03 23:18:53.34	159.78	12.58	-45.7	-46.9	15.4	0.00e+00	0	57	0	2017460224	53	4328
2026-01-03 23:18:54.34	159.87	12.50	-45.6	-46.9	15.5	0.00e+00	0	57	0	2020605952	53	4316
2026-01-03 23:18:55.32	159.96	12.41	-45.7	-46.9	15.4	0.00e+00	0	57	0	2023751680	53	4330
2026-01-03 23:18:56.32	160.05	12.33	-45.5	-46.7	15.6	0.00e+00	0	57	0	2026897408	53	4234
2026-01-03 23:18:57.32	160.14	12.25	-45.4	-46.6	15.8	0.00e+00	0	57	0	2030043136	53	4150
2026-01-03 23:18:58.31	160.23	12.16	-45.4	-46.6	15.7	0.00e+00	0	57	0	2033188864	53	4162
2026-01-03 23:18:59.30	160.32	12.08	-45.4	-46.6	15.7	0.00e+00	0	57	0	2036334592	53	4178
2026-01-03 23:19:00.28	160.41	12.00	-45.4	-46.6	15.8	0.00e+00	0	57	0	2039480320	53	4163
