passes_logs/2026/01/25/R2.0S_Moscow/R2.0S_Moscow__20260125_093746_SUOMI_NPP_rec.log

#Pass ID: 20260125_093746_SUOMI NPP
#Satellite: SUOMI NPP
#Configuration: NPP
#almurnet v.1.7.20251203
#Start time: 2026-01-25 09:37:47

#Version: 2.2.20231116
#Station: R2.0S_Moscow
#Location: 37.707566 lon 55.798166 lat
#TLE: 1 37849U 11061A   26024.54906732  .00000185  00000+0  10878-3 0  9990
#TLE: 2 37849  98.7821 326.5159 0002200  47.3746 312.7615 14.19529340738061

#Time	Az	El	Level	Level2	SNR	BER	BlckErr	Temp	State	Recorded	gain1	gain2
2026-01-25 09:37:47.18	149.86	2.03	-43.7	-58.3	3.8	1.49e+00	0	52	0	0	58	20058
2026-01-25 09:37:48.18	149.85	2.09	-43.7	-58.3	3.8	1.49e+00	0	52	104	0	59	18835
2026-01-25 09:37:49.19	149.83	2.16	-43.7	-58.3	3.8	1.49e+00	0	52	104	0	59	18787
2026-01-25 09:37:50.21	149.82	2.22	-43.7	-58.3	3.8	1.49e+00	0	52	104	0	59	18816
2026-01-25 09:37:51.22	149.80	2.29	-43.7	-58.3	3.8	1.49e+00	0	52	104	0	59	18828
2026-01-25 09:37:52.23	149.79	2.36	-43.6	-58.3	3.8	1.49e+00	0	52	104	0	59	18815
2026-01-25 09:37:53.24	149.78	2.42	-43.7	-58.3	3.8	1.49e+00	0	53	104	0	59	18805
2026-01-25 09:37:54.25	149.76	2.49	-43.7	-58.3	3.8	1.49e+00	0	53	104	0	59	18846
2026-01-25 09:37:55.26	149.75	2.55	-43.7	-58.3	3.8	1.49e+00	0	52	104	0	59	18784
2026-01-25 09:37:56.27	149.73	2.62	-43.7	-58.3	3.8	1.49e+00	0	53	104	0	59	18777
2026-01-25 09:37:57.28	149.72	2.68	-43.7	-58.3	3.8	1.49e+00	0	53	104	0	59	18767
2026-01-25 09:37:58.29	149.70	2.75	-43.7	-58.3	3.8	1.49e+00	0	53	104	0	59	18809
2026-01-25 09:37:59.30	149.69	2.82	-43.7	-58.3	3.8	1.49e+00	0	53	104	0	59	18836
2026-01-25 09:38:00.31	149.67	2.88	-43.7	-58.3	3.8	1.49e+00	0	53	104	0	58	19959
2026-01-25 09:38:01.32	149.66	2.95	-43.7	-58.3	3.8	1.49e+00	0	53	104	0	58	20015
2026-01-25 09:38:02.33	149.64	3.02	-43.7	-58.3	3.8	1.49e+00	0	53	104	0	58	20015
2026-01-25 09:38:03.35	149.63	3.09	-43.7	-58.3	3.8	1.49e+00	0	53	104	0	58	19894
2026-01-25 09:38:04.36	149.61	3.15	-43.7	-58.3	3.8	1.49e+00	0	53	104	0	58	19964
2026-01-25 09:38:05.37	149.60	3.22	-43.7	-58.3	3.8	1.49e+00	0	53	104	0	58	19985
2026-01-25 09:38:06.38	149.58	3.29	-43.7	-58.3	3.8	1.49e+00	0	53	104	0	58	19944
2026-01-25 09:38:07.39	149.56	3.36	-43.7	-58.3	3.8	1.49e+00	0	54	104	0	58	19964
2026-01-25 09:38:08.40	149.55	3.42	-43.7	-58.3	3.8	1.49e+00	0	54	104	0	58	19954
2026-01-25 09:38:09.41	149.53	3.49	-43.7	-58.3	3.8	1.49e+00	0	54	104	0	58	19912
2026-01-25 09:38:10.42	149.52	3.56	-43.7	-58.3	3.8	1.49e+00	0	54	104	0	58	19907
2026-01-25 09:38:11.43	149.50	3.63	-43.7	-58.3	3.8	1.49e+00	0	54	104	0	58	19892
2026-01-25 09:38:12.44	149.49	3.70	-43.7	-58.2	3.8	1.49e+00	0	54	104	0	58	19827
2026-01-25 09:38:13.45	149.47	3.77	-43.6	-58.3	3.8	1.49e+00	0	54	104	0	58	19846
2026-01-25 09:38:14.46	149.45	3.83	-43.6	-58.2	3.8	1.49e+00	0	54	104	0	58	19836
2026-01-25 09:38:15.47	149.44	3.90	-43.7	-58.3	3.8	1.49e+00	0	54	104	0	58	19980
2026-01-25 09:38:16.48	149.42	3.97	-43.4	-58.2	3.8	1.49e+00	0	54	104	0	58	19720
2026-01-25 09:38:17.49	149.40	4.04	-43.6	-58.2	3.8	1.49e+00	0	54	104	0	58	19791
2026-01-25 09:38:18.50	149.39	4.11	-43.6	-58.2	3.8	1.49e+00	0	54	104	0	58	19827
2026-01-25 09:38:19.51	149.37	4.18	-43.6	-58.2	3.8	1.49e+00	0	54	104	0	58	19801
2026-01-25 09:38:20.52	149.35	4.25	-43.6	-58.2	3.8	1.49e+00	0	55	104	0	58	19813
2026-01-25 09:38:21.54	149.34	4.32	-43.6	-58.2	3.8	1.49e+00	0	54	104	0	58	19756
2026-01-25 09:38:22.55	149.32	4.39	-43.6	-58.2	3.8	1.49e+00	0	54	104	0	58	19715
2026-01-25 09:38:23.56	149.30	4.46	-43.6	-58.2	3.8	1.49e+00	0	54	104	0	58	19731
2026-01-25 09:38:24.57	149.29	4.53	-43.6	-58.2	3.8	1.49e+00	0	55	104	0	58	19756
2026-01-25 09:38:25.58	149.27	4.61	-43.6	-58.2	3.8	1.49e+00	0	55	104	0	58	19784
2026-01-25 09:38:26.59	149.25	4.68	-43.6	-58.2	3.8	1.49e+00	0	55	104	0	58	19743
2026-01-25 09:38:27.60	149.24	4.75	-43.6	-58.2	3.8	1.49e+00	0	55	104	0	58	19711
2026-01-25 09:38:28.61	149.22	4.82	-43.6	-58.2	3.8	1.49e+00	0	55	104	0	58	19812
2026-01-25 09:38:29.62	149.20	4.89	-43.6	-58.2	3.8	1.49e+00	0	55	104	0	58	19710
2026-01-25 09:38:30.63	149.18	4.96	-43.6	-58.2	3.8	1.49e+00	0	55	104	0	58	19804
2026-01-25 09:38:31.64	149.16	5.04	-43.7	-58.2	3.8	1.49e+00	0	55	104	0	58	19757
2026-01-25 09:38:32.65	149.15	5.11	-43.6	-58.2	3.8	1.49e+00	0	55	104	0	58	19725
2026-01-25 09:38:33.66	149.13	5.18	-43.5	-58.1	3.8	1.49e+00	0	55	104	0	58	19612
2026-01-25 09:38:34.67	149.11	5.25	-43.6	-58.1	3.8	1.49e+00	0	55	104	0	58	19529
2026-01-25 09:38:35.68	149.09	5.33	-43.6	-58.1	3.8	1.49e+00	0	55	104	0	58	19453
2026-01-25 09:38:36.69	149.07	5.40	-43.6	-57.9	3.8	1.49e+00	0	55	104	0	58	19140
2026-01-25 09:38:37.70	149.06	5.47	-43.5	-57.8	3.8	1.49e+00	0	55	104	0	58	18912
2026-01-25 09:38:38.71	149.04	5.55	-43.6	-57.6	3.8	1.49e+00	0	55	104	0	58	18515
2026-01-25 09:38:39.72	149.02	5.62	-43.5	-57.4	3.8	1.49e+00	0	56	104	0	58	17890
2026-01-25 09:38:40.73	149.00	5.69	-43.5	-57.0	3.8	1.49e+00	0	55	104	0	58	17148
2026-01-25 09:38:41.74	148.98	5.77	-43.5	-56.5	3.8	1.49e+00	0	56	104	0	58	16278
2026-01-25 09:38:42.75	148.96	5.84	-43.5	-56.3	3.8	1.49e+00	0	55	104	0	58	15907
2026-01-25 09:38:43.77	148.94	5.92	-43.4	-55.8	3.9	1.48e+00	0	56	104	0	58	14973
2026-01-25 09:38:44.78	148.92	5.99	-43.4	-55.5	4.0	1.48e+00	0	56	0	0	58	14504
2026-01-25 09:38:45.79	148.91	6.07	-43.4	-55.1	4.1	1.47e+00	0	55	104	0	58	13787
2026-01-25 09:38:46.80	148.89	6.14	-43.3	-54.7	4.2	1.41e+00	0	56	0	0	58	13119
2026-01-25 09:38:47.81	148.87	6.22	-43.2	-54.3	4.3	1.37e+00	0	56	0	0	58	12619
2026-01-25 09:38:48.82	148.85	6.29	-43.3	-54.4	4.3	1.34e+00	0	56	0	0	57	13455
2026-01-25 09:38:49.83	148.83	6.37	-43.3	-54.4	4.2	1.36e+00	0	56	0	0	57	13530
2026-01-25 09:38:50.84	148.81	6.44	-43.3	-54.1	4.3	1.35e+00	0	56	0	0	57	13109
2026-01-25 09:38:51.85	148.79	6.52	-43.3	-54.1	4.3	1.25e+00	0	56	0	1048576	57	13077
2026-01-25 09:38:52.86	148.77	6.60	-43.3	-54.5	4.2	1.34e+00	0	56	0	2097152	57	13639
2026-01-25 09:38:53.87	148.75	6.67	-43.3	-54.9	4.1	1.41e+00	0	56	0	2097152	57	14313
2026-01-25 09:38:54.88	148.73	6.75	-43.4	-55.3	3.9	1.44e+00	0	56	104	2097152	57	15031
2026-01-25 09:38:55.89	148.71	6.83	-43.5	-56.3	3.8	1.47e+00	0	56	104	2097152	57	16858
2026-01-25 09:38:56.90	148.69	6.90	-43.5	-56.6	3.8	1.49e+00	0	56	104	2097152	57	17400
2026-01-25 09:38:57.91	148.67	6.98	-43.4	-57.2	3.8	1.49e+00	0	56	104	2097152	57	18519
2026-01-25 09:38:58.92	148.65	7.06	-43.5	-57.5	3.8	1.49e+00	0	56	104	2097152	57	19197
2026-01-25 09:38:59.93	148.62	7.14	-43.5	-57.0	3.8	1.49e+00	0	57	104	2097152	57	18162
2026-01-25 09:39:00.94	148.60	7.22	-43.5	-56.1	3.8	1.49e+00	0	56	104	2097152	57	16393
2026-01-25 09:39:01.95	148.58	7.29	-43.4	-54.8	4.1	1.46e+00	0	57	0	2097152	57	14064
2026-01-25 09:39:02.96	148.56	7.37	-43.2	-53.1	4.7	1.02e+00	0	57	0	3145728	57	11619
2026-01-25 09:39:03.97	148.54	7.45	-43.0	-51.9	5.4	5.65e-01	0	56	0	4194304	57	10083
2026-01-25 09:39:04.98	148.52	7.53	-42.8	-50.7	6.3	3.98e-01	0	57	0	6291456	57	8845
2026-01-25 09:39:05.99	148.50	7.61	-42.6	-49.7	7.2	1.60e-01	0	57	0	8388608	57	7822
2026-01-25 09:39:07.00	148.48	7.69	-42.3	-48.6	8.3	7.06e-02	0	57	0	10485760	56	7320
2026-01-25 09:39:08.01	148.45	7.77	-42.2	-48.0	8.8	3.96e-02	0	57	0	12582912	56	6867
2026-01-25 09:39:09.02	148.43	7.85	-41.8	-47.2	9.5	2.06e-02	0	57	0	13631488	55	6572
2026-01-25 09:39:10.03	148.41	7.93	-41.6	-46.8	9.9	9.47e-03	0	57	0	15728640	55	6288
2026-01-25 09:39:11.04	148.39	8.01	-41.5	-46.3	10.5	4.79e-03	0	57	0	17825792	54	6287
2026-01-25 09:39:12.05	148.36	8.09	-43.9	-55.3	4.2	7.35e-01	0	57	104	18874368	58	14069
2026-01-25 09:39:13.06	148.34	8.17	-43.9	-57.1	3.8	1.49e+00	0	57	104	18874368	58	17471
2026-01-25 09:39:14.07	148.32	8.26	-43.0	-53.2	4.7	3.06e-02	0	57	0	18874368	56	12445
2026-01-25 09:39:15.08	148.30	8.34	-43.3	-51.9	5.7	1.63e-01	0	57	0	20971520	57	10106
2026-01-25 09:39:16.09	148.27	8.42	-42.1	-48.1	8.5	1.50e-02	0	57	0	23068672	55	7310
2026-01-25 09:39:17.10	148.25	8.50	-41.2	-45.6	11.2	4.07e-03	0	57	0	25165824	54	5838
2026-01-25 09:39:18.11	148.23	8.58	-41.3	-45.9	11.0	1.29e-03	0	57	0	27262976	54	5993
2026-01-25 09:39:19.12	148.20	8.67	-41.2	-45.6	11.3	1.35e-03	0	57	0	28311552	54	5845
2026-01-25 09:39:20.13	148.18	8.75	-41.3	-45.7	11.2	1.13e-03	0	57	0	30408704	54	5921
2026-01-25 09:39:21.14	148.16	8.83	-41.3	-45.7	11.3	1.33e-03	0	57	0	32505856	54	5877
2026-01-25 09:39:22.15	148.13	8.92	-41.3	-45.6	11.4	9.64e-04	0	57	0	34603008	54	5825
2026-01-25 09:39:23.16	148.11	9.00	-41.2	-45.5	11.5	7.59e-04	0	57	0	36700160	54	5759
2026-01-25 09:39:24.17	148.08	9.09	-41.2	-45.4	11.7	7.03e-04	0	57	0	37748736	54	5664
2026-01-25 09:39:25.18	148.06	9.17	-41.1	-45.2	11.8	7.57e-04	0	57	0	39845888	53	5911
2026-01-25 09:39:26.19	148.03	9.25	-41.2	-45.3	11.7	5.66e-04	0	57	0	41943040	53	5988
2026-01-25 09:39:27.20	148.01	9.34	-41.2	-45.4	11.6	7.28e-04	0	57	0	44040192	53	6050
2026-01-25 09:39:28.21	147.99	9.42	-41.1	-45.2	11.8	5.39e-04	0	57	0	46137344	53	5910
2026-01-25 09:39:29.21	147.96	9.51	-41.2	-45.3	11.8	5.07e-04	0	57	0	47185920	53	5953
2026-01-25 09:39:30.22	147.94	9.60	-41.2	-45.3	11.8	5.42e-04	0	57	0	49283072	53	5992
2026-01-25 09:39:31.23	147.91	9.68	-41.2	-45.4	11.7	5.16e-04	0	58	0	51380224	53	6006
2026-01-25 09:39:32.24	147.88	9.77	-41.2	-45.2	11.9	3.92e-04	0	58	0	53477376	53	5908
2026-01-25 09:39:33.25	147.86	9.85	-41.2	-45.2	12.0	3.42e-04	0	57	0	55574528	53	5874
2026-01-25 09:39:34.26	147.83	9.94	-41.2	-45.3	11.9	3.14e-04	0	58	0	56623104	53	5930
2026-01-25 09:39:35.27	147.81	10.03	-41.1	-45.1	12.0	4.21e-04	0	58	0	58720256	53	5847
2026-01-25 09:39:36.28	147.78	10.12	-41.2	-45.3	11.9	3.03e-04	0	58	0	60817408	53	5954
2026-01-25 09:39:37.29	147.75	10.20	-41.2	-45.1	12.1	3.52e-04	0	57	0	62914560	53	5832
2026-01-25 09:39:38.30	147.73	10.29	-41.3	-45.3	12.0	2.40e-04	0	58	0	65011712	53	5952
2026-01-25 09:39:39.31	147.70	10.38	-41.3	-45.3	11.9	3.36e-04	0	58	0	66060288	53	5983
2026-01-25 09:39:40.32	147.67	10.47	-41.3	-45.4	11.8	7.04e-04	0	58	0	68157440	53	6049
2026-01-25 09:39:41.33	147.65	10.56	-41.3	-45.3	12.0	5.51e-04	0	58	0	70254592	53	5964
2026-01-25 09:39:42.34	147.62	10.65	-41.3	-45.4	11.9	2.70e-03	0	58	0	72351744	53	6013
2026-01-25 09:39:43.35	147.59	10.74	-40.8	-45.5	11.7	5.17e-03	0	58	0	74448896	53	6067
2026-01-25 09:39:44.36	147.57	10.83	-41.4	-45.6	11.7	5.25e-04	0	58	0	75497472	53	6164
2026-01-25 09:39:45.36	147.54	10.92	-41.2	-45.1	12.2	2.94e-04	0	58	0	77594624	53	5850
2026-01-25 09:39:46.37	147.51	11.01	-41.2	-45.1	12.2	2.01e-04	0	58	0	79691776	53	5836
2026-01-25 09:39:47.38	147.48	11.10	-41.2	-45.2	12.2	2.25e-04	0	58	0	81788928	53	5877
2026-01-25 09:39:48.39	147.45	11.19	-41.1	-44.9	12.5	1.31e-04	0	58	0	83886080	53	5684
2026-01-25 09:39:49.40	147.43	11.28	-41.1	-44.9	12.5	1.20e-04	0	58	0	85983232	53	5660
2026-01-25 09:39:50.41	147.40	11.38	-41.2	-45.1	12.4	2.95e-04	0	58	0	87031808	53	5790
2026-01-25 09:39:51.42	147.37	11.47	-41.1	-44.9	12.5	1.59e-04	0	58	0	89128960	53	5675
2026-01-25 09:39:52.43	147.34	11.56	-41.1	-44.9	12.5	9.00e-05	0	58	0	91226112	53	5684
2026-01-25 09:39:53.44	147.31	11.66	-41.0	-44.7	12.7	9.76e-05	0	58	0	93323264	53	5570
2026-01-25 09:39:54.45	147.28	11.75	-40.9	-44.4	13.0	5.95e-05	0	58	0	95420416	53	5387
2026-01-25 09:39:55.46	147.25	11.84	-40.9	-44.4	13.0	2.44e-05	0	58	0	96468992	53	5385
2026-01-25 09:39:56.47	147.22	11.94	-40.9	-44.4	13.1	3.35e-05	0	58	0	98566144	53	5363
2026-01-25 09:39:57.48	147.19	12.03	-40.8	-44.1	13.3	2.82e-05	0	58	0	100663296	53	5205
2026-01-25 09:39:58.49	147.16	12.13	-40.6	-43.8	13.8	9.90e-06	0	58	0	102760448	52	5298
2026-01-25 09:39:59.49	147.13	12.22	-40.6	-43.8	13.7	6.80e-06	0	58	0	104857600	52	5290
2026-01-25 09:40:00.50	147.10	12.32	-40.4	-43.5	14.0	5.30e-06	0	58	0	105906176	52	5144
2026-01-25 09:40:01.51	147.07	12.41	-40.5	-43.6	13.9	4.88e-05	0	58	0	108003328	52	5178
2026-01-25 09:40:02.53	147.04	12.51	-40.4	-43.5	14.2	7.93e-05	0	58	0	110100480	51	5406
2026-01-25 09:40:03.53	147.00	12.61	-40.5	-43.5	14.1	4.50e-06	0	59	0	112197632	51	5447
2026-01-25 09:40:04.54	146.97	12.70	-40.5	-43.6	14.1	1.35e-04	0	58	0	114294784	51	5487
2026-01-25 09:40:05.55	146.94	12.80	-40.6	-43.7	13.9	6.02e-05	0	58	0	115343360	51	5585
2026-01-25 09:40:06.56	146.91	12.90	-40.7	-43.8	13.8	1.29e-05	0	58	0	117440512	51	5656
2026-01-25 09:40:07.57	146.88	13.00	-40.7	-44.0	13.5	3.41e-04	0	58	0	119537664	52	5459
2026-01-25 09:40:08.58	146.84	13.10	-40.7	-44.0	13.6	7.09e-05	0	58	0	121634816	52	5453
2026-01-25 09:40:09.59	146.81	13.20	-40.6	-44.3	13.0	1.22e-05	0	58	0	123731968	52	5637
2026-01-25 09:40:10.60	146.78	13.29	-41.0	-44.5	13.1	2.44e-05	0	58	0	124780544	52	5779
2026-01-25 09:40:11.61	146.74	13.39	-41.0	-44.5	12.7	5.79e-05	0	58	0	126877696	52	5747
2026-01-25 09:40:12.62	146.71	13.50	-41.1	-44.6	13.0	2.51e-04	0	58	0	128974848	52	5849
2026-01-25 09:40:13.62	146.68	13.59	-40.9	-44.7	12.7	3.45e-03	0	58	0	131072000	52	5904
2026-01-25 09:40:14.63	146.64	13.70	-41.1	-44.6	13.0	3.50e-05	0	58	0	133169152	52	5843
2026-01-25 09:40:15.64	146.61	13.80	-41.1	-44.7	13.0	3.66e-05	0	58	0	134217728	52	5865
2026-01-25 09:40:16.65	146.58	13.90	-41.1	-44.7	13.0	2.43e-04	0	59	0	136314880	52	5887
2026-01-25 09:40:17.66	146.54	14.00	-40.9	-44.6	12.9	1.85e-04	0	59	0	138412032	52	5794
2026-01-25 09:40:18.67	146.51	14.10	-41.1	-44.6	13.1	9.91e-05	0	59	0	140509184	52	5853
2026-01-25 09:40:19.68	146.47	14.21	-41.1	-44.5	13.2	2.82e-05	0	59	0	142606336	52	5774
2026-01-25 09:40:20.69	146.43	14.31	-41.0	-44.5	13.0	2.68e-03	0	59	0	143654912	52	5752
2026-01-25 09:40:21.70	146.40	14.42	-40.6	-44.2	13.3	1.20e-03	0	59	0	145752064	52	5554
2026-01-25 09:40:22.71	146.36	14.52	-40.9	-44.2	13.5	9.41e-04	0	59	0	147849216	52	5567
2026-01-25 09:40:23.72	146.33	14.63	-40.9	-44.2	13.5	3.83e-04	0	59	0	149946368	52	5577
2026-01-25 09:40:24.73	146.29	14.73	-40.9	-44.2	13.5	1.97e-04	0	59	0	152043520	52	5590
2026-01-25 09:40:25.74	146.25	14.84	-40.8	-44.1	13.7	2.97e-05	0	59	0	154140672	52	5470
2026-01-25 09:40:26.75	146.21	14.94	-40.6	-44.1	13.4	7.47e-05	0	59	0	155189248	52	5522
2026-01-25 09:40:27.76	146.18	15.05	-40.8	-44.0	13.8	5.30e-06	0	59	0	157286400	52	5426
2026-01-25 09:40:28.77	146.14	15.16	-40.9	-44.1	13.6	3.89e-05	0	59	0	159383552	52	5526
2026-01-25 09:40:29.78	146.10	15.26	-40.8	-44.2	13.3	2.59e-05	0	59	0	161480704	52	5592
2026-01-25 09:40:30.79	146.06	15.37	-41.0	-44.3	13.5	8.30e-06	0	59	0	163577856	52	5640
2026-01-25 09:40:31.80	146.02	15.48	-41.2	-44.6	13.2	4.29e-04	0	59	0	164626432	52	5851
2026-01-25 09:40:32.81	145.99	15.59	-41.2	-44.8	13.0	1.88e-04	0	59	0	166723584	53	5607
2026-01-25 09:40:33.82	145.95	15.70	-41.2	-44.8	13.0	7.86e-04	0	59	0	168820736	53	5636
2026-01-25 09:40:34.83	145.91	15.81	-41.2	-44.8	13.1	3.89e-05	0	59	0	170917888	53	5617
2026-01-25 09:40:35.84	145.87	15.92	-41.2	-44.8	13.0	4.27e-05	0	59	0	173015040	53	5624
2026-01-25 09:40:36.85	145.83	16.03	-41.2	-44.8	13.1	3.20e-05	0	59	0	174063616	53	5603
2026-01-25 09:40:37.86	145.79	16.14	-41.2	-44.7	13.1	6.58e-04	0	59	0	176160768	53	5583
2026-01-25 09:40:38.87	145.74	16.26	-41.1	-44.5	13.3	5.87e-05	0	59	0	178257920	53	5415
2026-01-25 09:40:39.88	145.70	16.37	-41.0	-44.2	13.6	1.22e-05	0	59	0	180355072	53	5261
2026-01-25 09:40:40.89	145.66	16.48	-40.8	-43.9	14.0	4.27e-05	0	59	0	182452224	53	5047
2026-01-25 09:40:41.89	145.62	16.59	-40.8	-43.8	14.1	1.02e-04	0	59	0	183500800	53	5010
2026-01-25 09:40:42.90	145.58	16.71	-40.5	-43.5	14.4	7.00e-07	0	59	0	185597952	53	4820
2026-01-25 09:40:43.91	145.54	16.82	-40.4	-43.1	14.7	7.00e-07	0	59	0	187695104	52	4917
2026-01-25 09:40:44.92	145.49	16.94	-40.4	-43.2	14.8	2.20e-06	0	59	0	189792256	52	4927
2026-01-25 09:40:45.93	145.45	17.05	-40.4	-43.2	14.7	2.36e-05	0	59	0	191889408	52	4953
2026-01-25 09:40:46.94	145.41	17.17	-40.5	-43.3	14.6	2.20e-06	0	59	0	192937984	52	5007
2026-01-25 09:40:47.95	145.36	17.29	-40.7	-43.6	14.3	0.00e+00	0	59	0	195035136	52	5203
2026-01-25 09:40:48.96	145.32	17.40	-40.8	-43.9	14.0	7.00e-07	0	59	0	197132288	52	5345
2026-01-25 09:40:49.97	145.27	17.52	-41.0	-44.3	13.6	6.80e-06	0	59	0	199229440	52	5622
2026-01-25 09:40:50.98	145.23	17.64	-41.2	-44.7	13.2	1.83e-05	0	59	0	201326592	52	5868
2026-01-25 09:40:51.99	145.18	17.76	-41.3	-44.9	13.0	2.13e-05	0	59	0	202375168	53	5717
2026-01-25 09:40:53.00	145.14	17.88	-41.4	-45.0	13.0	3.05e-05	0	59	0	204472320	53	5737
2026-01-25 09:40:54.01	145.09	18.00	-41.4	-45.0	13.0	4.80e-05	0	59	0	206569472	53	5753
2026-01-25 09:40:55.02	145.04	18.12	-41.2	-44.6	13.4	1.83e-05	0	59	0	208666624	53	5485
2026-01-25 09:40:56.02	145.00	18.24	-41.1	-44.3	13.7	9.10e-06	0	59	0	210763776	53	5315
2026-01-25 09:40:57.04	144.95	18.36	-41.0	-44.3	13.7	3.00e-06	0	59	0	211812352	53	5287
2026-01-25 09:40:58.05	144.90	18.48	-40.9	-43.9	14.1	4.50e-06	0	59	0	213909504	53	5088
2026-01-25 09:40:59.05	144.85	18.60	-40.6	-43.4	14.5	2.20e-06	0	60	0	216006656	53	4814
2026-01-25 09:41:00.06	144.81	18.73	-40.6	-43.5	14.5	0.00e+00	0	59	0	218103808	52	5153
2026-01-25 09:41:01.07	144.76	18.85	-40.7	-43.8	14.2	4.50e-06	0	60	0	220200960	52	5296
2026-01-25 09:41:02.08	144.71	18.98	-40.8	-43.8	14.2	3.00e-06	0	60	0	221249536	52	5310
2026-01-25 09:41:03.09	144.66	19.10	-40.9	-44.0	14.0	6.10e-06	0	59	0	223346688	52	5412
2026-01-25 09:41:04.10	144.61	19.23	-41.2	-44.6	13.4	6.79e-05	0	59	0	225443840	53	5495
2026-01-25 09:41:05.11	144.56	19.35	-41.3	-44.9	13.1	3.20e-05	0	60	0	227540992	53	5669
2026-01-25 09:41:06.12	144.50	19.48	-41.4	-45.0	12.9	3.05e-05	0	59	0	229638144	53	5777
2026-01-25 09:41:07.13	144.45	19.61	-41.6	-45.4	12.6	7.40e-05	0	59	0	230686720	53	6017
2026-01-25 09:41:08.14	144.40	19.74	-41.6	-45.3	12.7	7.32e-05	0	60	0	232783872	53	5965
2026-01-25 09:41:09.15	144.35	19.87	-41.5	-45.1	12.9	6.10e-05	0	60	0	234881024	53	5811
2026-01-25 09:41:10.16	144.30	20.00	-41.2	-44.6	13.4	1.37e-05	0	59	0	236978176	53	5508
2026-01-25 09:41:11.17	144.24	20.13	-41.1	-44.3	13.7	6.80e-06	0	60	0	239075328	53	5336
2026-01-25 09:41:12.18	144.19	20.26	-41.0	-44.1	14.0	3.80e-06	0	59	0	240123904	53	5178
2026-01-25 09:41:13.19	144.13	20.39	-40.8	-43.7	14.3	2.20e-06	0	60	0	242221056	53	4960
2026-01-25 09:41:14.19	144.08	20.52	-40.8	-43.8	14.3	7.00e-07	0	60	0	244318208	53	5014
2026-01-25 09:41:15.20	144.02	20.65	-40.8	-43.8	14.2	0.00e+00	0	60	0	246415360	53	5028
2026-01-25 09:41:16.21	143.97	20.79	-40.7	-43.7	14.4	7.00e-07	0	60	0	248512512	53	4951
2026-01-25 09:41:17.22	143.91	20.92	-41.1	-44.2	13.8	1.50e-06	0	60	0	250609664	53	5268
2026-01-25 09:41:18.23	143.85	21.06	-41.2	-44.4	13.7	9.90e-06	0	60	0	251658240	53	5376
2026-01-25 09:41:19.24	143.80	21.19	-41.2	-44.5	13.6	9.10e-06	0	60	0	253755392	53	5412
2026-01-25 09:41:20.25	143.74	21.33	-41.3	-44.6	13.4	2.05e-05	0	60	0	255852544	53	5501
2026-01-25 09:41:21.26	143.68	21.47	-41.3	-44.6	13.5	1.29e-05	0	60	0	257949696	53	5495
2026-01-25 09:41:22.27	143.62	21.60	-41.1	-44.3	13.7	1.37e-05	0	60	0	260046848	53	5323
2026-01-25 09:41:23.28	143.56	21.74	-41.1	-44.3	13.8	2.20e-06	0	60	0	261095424	53	5337
2026-01-25 09:41:24.28	143.50	21.88	-41.1	-44.3	13.8	1.14e-05	0	60	0	263192576	53	5285
2026-01-25 09:41:25.29	143.44	22.02	-41.1	-44.2	13.9	7.60e-06	0	60	0	265289728	53	5266
2026-01-25 09:41:26.30	143.38	22.16	-41.1	-44.2	13.9	3.00e-06	0	60	0	267386880	53	5255
2026-01-25 09:41:27.31	143.32	22.30	-41.1	-44.3	13.8	2.20e-06	0	60	0	269484032	53	5286
2026-01-25 09:41:28.32	143.26	22.45	-41.2	-44.5	13.6	3.00e-06	0	60	0	270532608	53	5411
2026-01-25 09:41:29.33	143.19	22.59	-41.3	-44.7	13.4	1.98e-05	0	60	0	272629760	53	5531
2026-01-25 09:41:30.34	143.13	22.73	-41.4	-44.8	13.3	1.90e-05	0	60	0	274726912	53	5635
2026-01-25 09:41:31.35	143.06	22.88	-41.6	-45.2	12.9	4.11e-05	0	60	0	276824064	53	5906
2026-01-25 09:41:32.36	143.00	23.02	-41.5	-45.1	13.0	3.66e-05	0	60	0	278921216	53	5811
2026-01-25 09:41:33.37	142.93	23.17	-41.5	-44.9	13.2	3.35e-05	0	60	0	279969792	53	5718
2026-01-25 09:41:34.38	142.87	23.32	-41.4	-44.7	13.4	1.83e-05	0	60	0	282066944	53	5569
2026-01-25 09:41:35.39	142.80	23.46	-41.4	-44.7	13.4	6.10e-06	0	60	0	284164096	53	5552
2026-01-25 09:41:36.40	142.73	23.61	-41.3	-44.5	13.6	6.80e-06	0	60	0	286261248	53	5458
2026-01-25 09:41:37.41	142.66	23.76	-41.3	-44.6	13.6	7.60e-06	0	60	0	288358400	53	5470
2026-01-25 09:41:38.42	142.60	23.91	-41.4	-44.7	13.5	9.10e-06	0	60	0	289406976	53	5553
2026-01-25 09:41:39.43	142.53	24.06	-41.6	-45.2	12.9	2.74e-05	0	60	0	291504128	53	5886
2026-01-25 09:41:40.44	142.46	24.21	-41.9	-45.7	12.4	6.48e-05	0	60	0	293601280	54	5916
2026-01-25 09:41:41.45	142.38	24.37	-42.0	-46.0	12.1	1.11e-04	0	60	0	295698432	54	6101
2026-01-25 09:41:42.46	142.31	24.52	-42.3	-46.5	11.6	6.34e-04	0	60	0	297795584	55	6122
2026-01-25 09:41:43.47	142.24	24.67	-42.2	-46.3	11.9	7.97e-04	0	60	0	298844160	55	5964
2026-01-25 09:41:44.48	142.17	24.83	-42.3	-46.5	11.7	6.16e-04	0	60	0	300941312	55	6128
2026-01-25 09:41:45.49	142.09	24.99	-42.2	-46.4	11.7	5.83e-04	0	60	0	303038464	55	6027
2026-01-25 09:41:46.50	142.02	25.14	-42.2	-46.4	11.8	4.00e-04	0	60	0	305135616	55	6002
2026-01-25 09:41:47.51	141.94	25.30	-42.1	-46.0	12.2	2.59e-04	0	60	0	307232768	55	5730
2026-01-25 09:41:48.52	141.87	25.46	-42.1	-46.0	12.2	2.55e-04	0	60	0	308281344	55	5762
2026-01-25 09:41:49.52	141.79	25.62	-42.1	-46.1	12.0	2.40e-04	0	60	0	310378496	55	5829
2026-01-25 09:41:50.53	141.71	25.78	-42.1	-46.1	12.0	2.33e-04	0	60	0	312475648	55	5836
2026-01-25 09:41:51.54	141.63	25.94	-42.2	-46.2	11.8	2.97e-04	0	60	0	314572800	55	5905
2026-01-25 09:41:52.55	141.55	26.10	-42.4	-46.6	11.5	5.78e-04	0	60	0	316669952	55	6175
2026-01-25 09:41:53.56	141.47	26.27	-42.2	-46.2	12.0	6.91e-04	0	60	0	318767104	55	5906
2026-01-25 09:41:54.57	141.39	26.43	-42.1	-46.1	12.1	3.37e-04	0	60	0	319815680	55	5808
2026-01-25 09:41:55.58	141.31	26.59	-42.1	-46.0	12.1	2.49e-04	0	60	0	321912832	55	5778
2026-01-25 09:41:56.59	141.23	26.76	-42.0	-45.7	12.4	2.03e-04	0	60	0	324009984	55	5572
2026-01-25 09:41:57.60	141.14	26.93	-42.0	-45.9	12.3	1.27e-04	0	60	0	326107136	55	5662
2026-01-25 09:41:58.61	141.06	27.10	-42.0	-45.9	12.3	1.76e-04	0	60	0	328204288	55	5658
2026-01-25 09:41:59.62	140.97	27.26	-42.1	-45.9	12.3	2.12e-04	0	60	0	329252864	55	5696
2026-01-25 09:42:00.63	140.89	27.43	-42.2	-46.1	12.1	3.04e-04	0	60	0	331350016	55	5841
2026-01-25 09:42:01.64	140.80	27.61	-42.2	-46.2	12.0	4.29e-04	0	60	0	333447168	55	5918
2026-01-25 09:42:02.65	140.71	27.78	-42.2	-46.2	12.0	3.81e-04	0	60	0	335544320	55	5908
2026-01-25 09:42:03.66	140.62	27.95	-42.2	-46.2	12.0	2.74e-04	0	60	0	337641472	55	5892
2026-01-25 09:42:04.67	140.53	28.12	-42.0	-45.8	12.3	1.72e-04	0	60	0	338690048	55	5654
2026-01-25 09:42:05.68	140.44	28.30	-41.8	-45.3	12.9	6.25e-05	0	60	0	340787200	55	5310
2026-01-25 09:42:06.69	140.34	28.48	-41.8	-45.2	13.0	3.35e-05	0	60	0	342884352	55	5271
2026-01-25 09:42:07.70	140.25	28.65	-41.9	-45.5	12.8	3.66e-05	0	60	0	344981504	55	5406
2026-01-25 09:42:08.71	140.16	28.83	-41.7	-45.2	13.1	3.66e-05	0	60	0	347078656	55	5233
2026-01-25 09:42:09.72	140.06	29.01	-42.1	-45.8	12.4	7.09e-05	0	60	0	348127232	55	5648
2026-01-25 09:42:10.73	139.96	29.19	-42.4	-46.5	11.7	3.27e-04	0	60	0	350224384	55	6129
2026-01-25 09:42:11.74	139.87	29.37	-42.4	-46.7	11.5	5.00e-04	0	60	0	352321536	55	6216
2026-01-25 09:42:12.75	139.77	29.55	-42.5	-46.9	11.2	7.97e-04	0	60	0	354418688	55	6400
2026-01-25 09:42:13.76	139.67	29.74	-42.8	-47.3	11.1	2.01e-03	0	60	0	356515840	56	6313
2026-01-25 09:42:14.77	139.56	29.92	-42.8	-47.3	11.1	1.57e-03	0	60	0	357564416	56	6306
2026-01-25 09:42:15.77	139.46	30.10	-42.9	-47.4	10.9	1.26e-03	0	60	0	359661568	56	6412
2026-01-25 09:42:16.78	139.36	30.29	-42.9	-47.4	10.9	2.17e-03	0	60	0	361758720	56	6415
2026-01-25 09:42:17.79	139.25	30.48	-43.0	-47.9	10.4	3.33e-03	0	60	0	363855872	56	6750
2026-01-25 09:42:18.80	139.15	30.67	-43.1	-47.9	10.4	6.68e-03	0	60	0	365953024	57	6417
2026-01-25 09:42:19.81	139.04	30.86	-43.1	-48.1	10.3	4.95e-03	0	60	0	367001600	57	6542
2026-01-25 09:42:20.82	138.93	31.05	-43.1	-48.2	10.2	5.84e-03	0	60	0	369098752	57	6598
2026-01-25 09:42:21.83	138.82	31.24	-43.0	-47.7	10.6	5.48e-03	0	60	0	371195904	57	6259
2026-01-25 09:42:22.84	138.71	31.43	-43.0	-47.8	10.5	3.24e-03	0	60	0	373293056	57	6294
2026-01-25 09:42:23.85	138.59	31.63	-43.1	-48.0	10.3	4.16e-03	0	60	0	375390208	57	6462
2026-01-25 09:42:24.86	138.48	31.82	-43.1	-48.1	10.2	4.46e-03	0	60	0	376438784	57	6554
2026-01-25 09:42:25.87	138.36	32.02	-43.3	-48.6	9.7	8.68e-03	0	60	0	378535936	57	6889
2026-01-25 09:42:26.88	138.25	32.22	-43.4	-49.0	9.3	1.58e-02	0	61	0	380633088	57	7222
2026-01-25 09:42:27.89	138.13	32.42	-43.5	-49.3	9.0	2.38e-02	0	60	0	382730240	57	7519
2026-01-25 09:42:28.89	138.01	32.62	-43.5	-49.2	9.0	2.97e-02	0	61	0	384827392	57	7436
2026-01-25 09:42:29.90	137.89	32.82	-43.2	-48.5	9.7	1.77e-02	0	60	0	386924544	57	6852
2026-01-25 09:42:30.91	137.76	33.02	-43.0	-47.9	10.3	7.14e-03	0	60	0	387973120	57	6405
2026-01-25 09:42:31.93	137.64	33.23	-43.0	-47.8	10.5	4.93e-03	0	60	0	390070272	57	6330
2026-01-25 09:42:32.94	137.51	33.43	-43.1	-48.0	10.3	5.68e-03	0	60	0	392167424	57	6457
2026-01-25 09:42:33.95	137.38	33.64	-43.4	-49.0	9.3	1.39e-02	0	61	0	394264576	57	7211
2026-01-25 09:42:34.96	137.25	33.85	-43.8	-50.1	8.2	2.57e-02	0	60	0	396361728	58	7735
2026-01-25 09:42:35.97	137.12	34.06	-43.9	-50.6	7.6	7.65e-02	0	60	0	397410304	58	8244
2026-01-25 09:42:36.98	136.99	34.27	-43.7	-49.8	8.4	9.04e-02	0	60	0	399507456	58	7497
2026-01-25 09:42:37.99	136.85	34.48	-43.8	-50.0	8.3	5.99e-02	0	60	0	401604608	58	7659
2026-01-25 09:42:39.00	136.71	34.69	-43.7	-49.6	8.6	5.61e-02	0	61	0	403701760	58	7364
2026-01-25 09:42:40.01	136.57	34.90	-43.5	-48.9	9.4	3.05e-02	0	60	0	405798912	58	6793
2026-01-25 09:42:41.01	136.44	35.12	-43.7	-49.7	8.7	3.50e-02	0	60	0	406847488	58	7377
2026-01-25 09:42:42.02	136.29	35.33	-43.8	-50.2	8.1	5.26e-02	0	61	0	408944640	58	7826
2026-01-25 09:42:43.03	136.15	35.55	-44.0	-50.8	7.6	3.51e-02	0	61	0	411041792	58	8398
2026-01-25 09:42:44.04	136.00	35.77	-44.1	-51.2	7.1	1.35e-01	0	61	0	413138944	58	8846
2026-01-25 09:42:45.05	135.85	35.99	-43.9	-50.6	7.8	1.49e-01	0	61	0	415236096	58	8207
2026-01-25 09:42:46.06	135.70	36.21	-44.1	-51.4	6.9	1.39e-01	0	61	0	416284672	58	8998
2026-01-25 09:42:47.07	135.55	36.43	-43.9	-50.8	7.5	1.26e-01	0	60	0	418381824	58	8444
2026-01-25 09:42:48.08	135.39	36.66	-43.6	-49.6	8.7	4.23e-02	0	61	0	420478976	58	7368
2026-01-25 09:42:49.09	135.24	36.88	-43.5	-49.2	9.2	3.71e-02	0	61	0	422576128	58	6968
2026-01-25 09:42:50.10	135.08	37.11	-43.3	-48.5	9.8	1.61e-02	0	61	0	424673280	58	6483
2026-01-25 09:42:51.11	134.92	37.34	-43.0	-47.8	10.5	4.65e-03	0	61	0	425721856	57	6328
2026-01-25 09:42:52.12	134.75	37.57	-43.0	-47.8	10.5	2.52e-03	0	61	0	427819008	57	6306
2026-01-25 09:42:53.13	134.59	37.80	-42.9	-47.6	10.7	2.80e-03	0	61	0	429916160	57	6144
2026-01-25 09:42:54.14	134.42	38.03	-43.1	-48.0	10.3	4.41e-03	0	60	0	432013312	57	6472
2026-01-25 09:42:55.14	134.25	38.26	-43.1	-47.9	10.5	4.79e-03	0	61	0	434110464	57	6374
2026-01-25 09:42:56.15	134.08	38.50	-42.9	-47.5	10.8	3.81e-03	0	61	0	435159040	57	6131
2026-01-25 09:42:57.16	133.90	38.73	-42.8	-47.1	11.2	9.86e-04	0	61	0	437256192	57	5854
2026-01-25 09:42:58.17	133.72	38.97	-42.6	-46.7	11.6	7.38e-04	0	61	0	439353344	57	5586
2026-01-25 09:42:59.18	133.54	39.21	-42.7	-47.0	11.4	6.36e-04	0	61	0	441450496	57	5762
2026-01-25 09:43:00.19	133.35	39.45	-42.7	-47.1	11.3	8.92e-04	0	61	0	443547648	57	5807
2026-01-25 09:43:01.20	133.17	39.69	-42.7	-47.0	11.5	1.09e-03	0	60	0	444596224	57	5732
2026-01-25 09:43:02.21	132.98	39.93	-42.5	-46.5	11.9	5.39e-04	0	61	0	446693376	56	5769
2026-01-25 09:43:03.22	132.79	40.18	-42.2	-46.0	12.4	3.02e-04	0	61	0	448790528	56	5429
2026-01-25 09:43:04.23	132.59	40.42	-42.3	-46.2	12.2	1.88e-04	0	61	0	450887680	56	5540
2026-01-25 09:43:05.24	132.39	40.67	-42.5	-46.7	11.8	4.32e-04	0	61	0	452984832	56	5859
2026-01-25 09:43:06.25	132.19	40.91	-42.7	-46.9	11.4	6.26e-04	0	61	0	455081984	56	6057
2026-01-25 09:43:07.26	131.98	41.16	-42.7	-47.1	11.3	1.50e-03	0	61	0	456130560	56	6140
2026-01-25 09:43:08.27	131.78	41.41	-42.7	-46.9	11.5	1.11e-03	0	61	0	458227712	56	6016
2026-01-25 09:43:09.28	131.56	41.67	-42.9	-47.5	10.8	8.26e-04	0	61	0	460324864	56	6479
2026-01-25 09:43:10.29	131.35	41.92	-42.7	-46.9	11.5	8.83e-04	0	61	0	462422016	56	6037
2026-01-25 09:43:11.30	131.13	42.17	-42.8	-47.2	11.3	8.72e-04	0	61	0	464519168	56	6211
2026-01-25 09:43:12.31	130.91	42.43	-42.7	-47.1	11.3	1.75e-03	0	61	0	465567744	56	6133
2026-01-25 09:43:13.32	130.68	42.68	-42.7	-47.0	11.5	9.50e-04	0	61	0	467664896	56	6083
2026-01-25 09:43:14.33	130.46	42.94	-42.9	-47.3	11.1	8.67e-04	0	61	0	469762048	56	6336
2026-01-25 09:43:15.34	130.22	43.20	-42.9	-47.3	11.1	1.14e-03	0	61	0	471859200	56	6320
2026-01-25 09:43:16.34	129.99	43.46	-43.0	-47.7	10.8	2.02e-03	0	61	0	473956352	56	6571
2026-01-25 09:43:17.36	129.75	43.72	-42.7	-47.1	11.4	2.03e-03	0	61	0	475004928	56	6133
2026-01-25 09:43:18.37	129.50	43.99	-42.8	-47.2	11.1	1.58e-03	0	61	0	477102080	56	6252
2026-01-25 09:43:19.37	129.26	44.25	-42.7	-47.0	11.5	8.61e-04	0	61	0	479199232	56	6085
2026-01-25 09:43:20.38	129.00	44.51	-42.7	-47.0	11.5	3.51e-04	0	61	0	481296384	56	6101
2026-01-25 09:43:21.39	128.75	44.78	-42.8	-47.1	11.3	1.12e-03	0	61	0	483393536	56	6174
2026-01-25 09:43:22.40	128.48	45.05	-42.5	-46.5	11.9	9.69e-04	0	61	0	484442112	56	5773
2026-01-25 09:43:23.41	128.22	45.31	-42.4	-46.3	12.2	4.02e-04	0	61	0	486539264	56	5624
2026-01-25 09:43:24.42	127.95	45.58	-42.2	-46.0	12.5	1.36e-04	0	61	0	488636416	56	5446
2026-01-25 09:43:25.43	127.67	45.86	-42.4	-46.3	12.2	1.35e-04	0	61	0	490733568	56	5645
2026-01-25 09:43:26.44	127.39	46.13	-42.6	-46.7	11.8	3.97e-04	0	61	0	492830720	56	5893
2026-01-25 09:43:27.45	127.11	46.40	-42.6	-46.8	11.7	2.94e-04	0	61	0	493879296	56	5970
2026-01-25 09:43:28.46	126.82	46.67	-42.5	-46.5	12.0	5.27e-04	0	61	0	495976448	56	5729
2026-01-25 09:43:29.47	126.52	46.95	-42.4	-46.4	12.0	3.46e-04	0	61	0	498073600	56	5665
2026-01-25 09:43:30.48	126.22	47.22	-42.6	-46.9	11.6	6.39e-04	0	61	0	500170752	56	5997
2026-01-25 09:43:31.49	125.92	47.50	-42.4	-46.4	12.1	4.06e-04	0	61	0	502267904	56	5688
2026-01-25 09:43:32.50	125.60	47.78	-42.3	-46.1	12.5	1.27e-04	0	61	0	503316480	56	5468
2026-01-25 09:43:33.50	125.29	48.05	-42.1	-45.7	12.8	1.33e-04	0	61	0	505413632	56	5270
2026-01-25 09:43:34.51	124.97	48.33	-42.5	-46.5	12.0	1.79e-04	0	61	0	507510784	56	5747
2026-01-25 09:43:35.52	124.64	48.61	-42.7	-47.1	11.3	6.04e-04	0	61	0	509607936	56	6148
2026-01-25 09:43:36.53	124.30	48.89	-42.4	-46.5	12.0	5.10e-04	0	61	0	511705088	56	5730
2026-01-25 09:43:37.54	123.96	49.18	-42.4	-46.2	12.2	2.62e-04	0	61	0	512753664	56	5584
2026-01-25 09:43:38.55	123.61	49.46	-42.0	-45.6	12.7	9.76e-05	0	61	0	514850816	55	5495
2026-01-25 09:43:39.56	123.26	49.74	-42.1	-45.8	12.5	7.62e-05	0	61	0	516947968	55	5649
2026-01-25 09:43:40.57	122.90	50.02	-41.9	-45.5	12.9	1.06e-04	0	61	0	519045120	55	5415
2026-01-25 09:43:41.58	122.53	50.31	-41.8	-45.2	13.1	2.82e-05	0	61	0	521142272	55	5267
2026-01-25 09:43:42.59	122.16	50.59	-41.6	-44.9	13.4	8.30e-06	0	61	0	522190848	54	5363
2026-01-25 09:43:43.60	121.78	50.88	-41.7	-45.2	13.2	3.05e-05	0	61	0	524288000	54	5529
2026-01-25 09:43:44.61	121.39	51.16	-41.3	-44.4	14.0	6.10e-06	0	61	0	526385152	54	5048
2026-01-25 09:43:45.62	120.99	51.45	-40.8	-43.5	14.8	7.00e-07	0	61	0	528482304	53	4844
2026-01-25 09:43:46.63	120.59	51.73	-40.9	-43.8	14.5	0.00e+00	0	61	0	530579456	53	4998
2026-01-25 09:43:47.64	120.17	52.02	-41.7	-45.1	13.2	7.60e-06	0	61	0	532676608	53	5790
2026-01-25 09:43:48.65	119.75	52.30	-42.0	-45.7	12.7	5.56e-05	0	61	0	533725184	54	5868
2026-01-25 09:43:49.66	119.33	52.59	-41.5	-44.7	13.6	3.28e-05	0	61	0	535822336	54	5253
2026-01-25 09:43:50.67	118.89	52.87	-41.4	-44.7	13.7	3.80e-06	0	61	0	537919488	54	5220
2026-01-25 09:43:51.68	118.44	53.16	-41.6	-45.0	13.4	3.00e-06	0	61	0	540016640	54	5438
2026-01-25 09:43:52.69	117.99	53.45	-41.5	-44.7	13.6	9.10e-06	0	61	0	542113792	54	5245
2026-01-25 09:43:53.70	117.53	53.73	-41.3	-44.4	14.0	9.90e-06	0	61	0	543162368	54	5051
2026-01-25 09:43:54.71	117.05	54.02	-41.9	-45.5	12.9	1.06e-05	0	61	0	545259520	54	5761
2026-01-25 09:43:55.72	116.57	54.30	-42.2	-46.1	12.2	2.27e-04	0	61	0	547356672	55	5823
2026-01-25 09:43:56.73	116.08	54.58	-42.1	-45.8	12.4	1.78e-04	0	61	0	549453824	55	5631
2026-01-25 09:43:57.73	115.58	54.86	-42.1	-45.9	12.5	8.39e-05	0	61	0	551550976	55	5680
2026-01-25 09:43:58.74	115.07	55.15	-42.0	-45.7	12.6	1.40e-04	0	61	0	552599552	55	5549
2026-01-25 09:43:59.75	114.55	55.43	-41.7	-45.1	13.3	6.56e-05	0	61	0	554696704	55	5183
2026-01-25 09:44:00.76	114.02	55.71	-41.5	-44.8	13.5	1.98e-05	0	61	0	556793856	55	5014
2026-01-25 09:44:01.77	113.47	55.99	-41.7	-45.0	13.4	6.80e-06	0	61	0	558891008	55	5152
2026-01-25 09:44:02.78	112.92	56.27	-42.1	-45.9	12.5	8.62e-05	0	61	0	560988160	55	5663
2026-01-25 09:44:03.79	112.35	56.55	-41.5	-44.7	13.7	5.26e-05	0	61	0	562036736	54	5238
2026-01-25 09:44:04.80	111.78	56.82	-41.1	-44.1	14.2	5.30e-06	0	61	0	564133888	54	4898
2026-01-25 09:44:05.81	111.19	57.10	-41.4	-44.5	13.9	2.20e-06	0	61	0	566231040	54	5102
2026-01-25 09:44:06.82	110.59	57.37	-41.6	-44.8	13.5	9.10e-06	0	61	0	568328192	54	5322
2026-01-25 09:44:07.83	109.97	57.64	-41.3	-44.3	14.0	1.50e-06	0	61	0	570425344	54	5019
2026-01-25 09:44:08.83	109.36	57.91	-41.7	-45.1	13.2	9.90e-06	0	61	0	571473920	54	5501
2026-01-25 09:44:09.84	108.72	58.17	-42.1	-45.8	12.5	5.87e-05	0	61	0	573571072	54	5976
2026-01-25 09:44:10.85	108.07	58.44	-41.7	-45.1	13.2	1.14e-04	0	61	0	575668224	54	5502
2026-01-25 09:44:11.86	107.40	58.70	-41.6	-44.9	13.4	1.98e-05	0	61	0	577765376	54	5390
2026-01-25 09:44:12.87	106.73	58.96	-41.8	-45.2	13.2	2.74e-05	0	61	0	579862528	54	5575
2026-01-25 09:44:13.88	106.04	59.22	-41.8	-45.3	13.1	5.95e-05	0	61	0	580911104	54	5627
2026-01-25 09:44:14.89	105.33	59.47	-42.0	-45.6	12.7	4.27e-05	0	61	0	583008256	54	5851
2026-01-25 09:44:15.90	104.61	59.72	-41.9	-45.5	12.8	7.09e-05	0	61	0	585105408	54	5755
2026-01-25 09:44:16.91	103.88	59.97	-42.0	-45.6	12.7	8.54e-05	0	61	0	587202560	54	5814
2026-01-25 09:44:17.92	103.14	60.22	-41.7	-45.2	13.2	5.11e-05	0	61	0	589299712	54	5535
2026-01-25 09:44:18.93	102.38	60.46	-41.6	-45.0	13.4	1.67e-05	0	61	0	590348288	54	5410
2026-01-25 09:44:19.94	101.60	60.69	-41.7	-45.1	13.3	4.50e-05	0	61	0	592445440	54	5467
2026-01-25 09:44:20.95	100.81	60.93	-41.4	-44.6	13.7	1.83e-05	0	61	0	594542592	54	5181
2026-01-25 09:44:21.96	100.01	61.16	-41.2	-44.2	14.1	7.00e-07	0	61	0	596639744	54	4961
2026-01-25 09:44:22.97	99.19	61.38	-41.0	-43.9	14.5	0.00e+00	0	61	0	598736896	54	4796
2026-01-25 09:44:23.98	98.35	61.60	-40.9	-43.7	14.5	0.00e+00	0	61	0	599785472	53	4935
2026-01-25 09:44:24.99	97.51	61.82	-40.7	-43.5	14.9	0.00e+00	0	61	0	601882624	53	4822
2026-01-25 09:44:26.00	96.64	62.03	-40.6	-43.2	15.2	0.00e+00	0	61	0	603979776	53	4658
2026-01-25 09:44:27.01	95.76	62.24	-40.7	-43.4	15.0	0.00e+00	0	61	0	606076928	52	5063
2026-01-25 09:44:28.02	94.87	62.44	-41.0	-43.9	14.5	7.00e-07	0	61	0	608174080	52	5389
2026-01-25 09:44:29.03	93.96	62.63	-41.0	-43.9	14.4	1.50e-06	0	61	0	609222656	52	5379
2026-01-25 09:44:30.04	93.04	62.82	-40.8	-43.7	14.7	0.00e+00	0	61	0	611319808	52	5236
2026-01-25 09:44:31.05	92.10	63.01	-40.8	-43.6	14.8	0.00e+00	0	61	0	613416960	52	5185
2026-01-25 09:44:32.06	91.15	63.19	-40.8	-43.6	14.7	0.00e+00	0	61	0	615514112	52	5209
2026-01-25 09:44:33.06	90.19	63.36	-40.6	-43.2	15.2	0.00e+00	0	61	0	617611264	52	4955
2026-01-25 09:44:34.06	89.22	63.52	-40.6	-43.2	15.2	0.00e+00	0	61	0	618659840	52	4951
2026-01-25 09:44:35.07	88.23	63.68	-40.4	-42.9	15.4	7.00e-07	0	61	0	620756992	52	4792
2026-01-25 09:44:36.08	87.23	63.83	-40.0	-42.4	15.9	0.00e+00	0	61	0	622854144	52	4520
2026-01-25 09:44:37.09	86.21	63.98	-39.9	-42.2	16.2	0.00e+00	0	61	0	624951296	51	4701
2026-01-25 09:44:38.10	85.17	64.12	-40.0	-42.4	16.0	0.00e+00	0	61	0	627048448	51	4766
2026-01-25 09:44:39.11	84.13	64.25	-40.7	-43.3	15.1	0.00e+00	0	61	0	629145600	51	5339
2026-01-25 09:44:40.12	83.07	64.37	-41.1	-44.0	14.3	0.00e+00	0	61	0	630194176	53	5153
2026-01-25 09:44:41.13	82.01	64.48	-41.1	-44.1	14.2	0.00e+00	0	61	0	632291328	53	5184
2026-01-25 09:44:42.14	80.93	64.59	-41.3	-44.5	13.8	2.20e-06	0	61	0	634388480	53	5448
2026-01-25 09:44:43.15	79.84	64.69	-41.4	-44.6	13.7	8.30e-06	0	61	0	636485632	53	5520
2026-01-25 09:44:44.16	78.75	64.78	-40.9	-43.7	14.6	0.00e+00	0	61	0	638582784	53	4951
2026-01-25 09:44:45.17	77.64	64.87	-40.4	-43.0	15.4	0.00e+00	0	61	0	639631360	52	4838
2026-01-25 09:44:46.17	76.54	64.94	-40.3	-42.8	15.5	0.00e+00	0	61	0	641728512	52	4746
2026-01-25 09:44:47.18	75.42	65.01	-39.7	-41.9	16.5	0.00e+00	0	61	0	643825664	51	4506
2026-01-25 09:44:48.20	74.29	65.06	-39.8	-42.1	16.3	0.00e+00	0	61	0	645922816	50	4912
2026-01-25 09:44:49.21	73.16	65.11	-39.9	-42.3	16.1	0.00e+00	0	61	0	648019968	50	4987
2026-01-25 09:44:50.22	72.02	65.15	-39.6	-41.8	16.6	0.00e+00	0	61	0	649068544	50	4741
2026-01-25 09:44:51.23	70.88	65.18	-39.7	-41.9	16.5	0.00e+00	0	61	0	651165696	50	4781
2026-01-25 09:44:52.24	69.74	65.21	-40.0	-42.4	16.0	0.00e+00	0	61	0	653262848	50	5066
2026-01-25 09:44:53.25	68.60	65.22	-40.1	-42.5	15.8	0.00e+00	0	61	0	655360000	51	4869
2026-01-25 09:44:54.26	67.46	65.22	-40.4	-42.9	15.4	0.00e+00	0	61	0	657457152	51	5099
2026-01-25 09:44:55.27	66.31	65.22	-41.0	-43.9	14.4	0.00e+00	0	61	0	658505728	52	5369
2026-01-25 09:44:56.28	65.17	65.21	-40.7	-43.4	15.0	0.00e+00	0	61	0	660602880	52	5052
2026-01-25 09:44:57.29	64.03	65.18	-40.3	-42.7	15.6	0.00e+00	0	61	0	662700032	52	4694
2026-01-25 09:44:58.29	62.90	65.15	-40.1	-42.5	15.9	0.00e+00	0	61	0	664797184	51	4854
2026-01-25 09:44:59.30	61.77	65.11	-39.5	-41.7	16.7	0.00e+00	0	61	0	666894336	51	4412
2026-01-25 09:45:00.31	60.64	65.06	-40.2	-42.6	15.8	0.00e+00	0	61	0	667942912	51	4925
2026-01-25 09:45:01.32	59.51	65.01	-40.6	-43.2	15.0	0.00e+00	0	61	0	670040064	52	4964
2026-01-25 09:45:02.33	58.39	64.94	-40.3	-42.8	15.4	0.00e+00	0	61	0	672137216	52	4747
2026-01-25 09:45:03.34	57.28	64.87	-40.6	-43.2	15.1	0.00e+00	0	61	0	674234368	52	4958
2026-01-25 09:45:04.35	56.18	64.78	-40.8	-43.6	14.7	7.00e-07	0	61	0	676331520	52	5164
2026-01-25 09:45:05.36	55.08	64.69	-40.9	-43.7	14.6	0.00e+00	0	61	0	677380096	52	5238
2026-01-25 09:45:06.37	54.00	64.59	-41.1	-44.1	14.2	0.00e+00	0	61	0	679477248	52	5478
2026-01-25 09:45:07.38	52.92	64.49	-41.1	-44.0	14.2	7.00e-07	0	61	0	681574400	53	5151
2026-01-25 09:45:08.38	51.86	64.37	-41.0	-43.8	14.5	7.00e-07	0	61	0	683671552	53	5039
2026-01-25 09:45:09.39	50.81	64.25	-40.9	-43.7	14.6	1.50e-06	0	61	0	685768704	53	4932
2026-01-25 09:45:10.40	49.77	64.12	-40.7	-43.5	14.8	7.00e-07	0	61	0	686817280	53	4833
2026-01-25 09:45:11.41	48.74	63.98	-40.7	-43.4	14.9	0.00e+00	0	61	0	688914432	53	4760
2026-01-25 09:45:12.42	47.72	63.84	-40.5	-43.0	15.2	0.00e+00	0	61	0	691011584	52	4865
2026-01-25 09:45:13.43	46.71	63.69	-40.7	-43.4	14.9	0.00e+00	0	61	0	693108736	52	5059
2026-01-25 09:45:14.44	45.72	63.53	-40.4	-43.0	15.2	0.00e+00	0	61	0	695205888	52	4837
2026-01-25 09:45:15.45	44.74	63.36	-39.8	-41.9	16.4	0.00e+00	0	61	0	697303040	51	4536
2026-01-25 09:45:16.46	43.78	63.19	-40.3	-42.8	15.7	0.00e+00	0	61	0	698351616	51	4992
2026-01-25 09:45:17.47	42.82	63.01	-40.8	-43.7	14.6	7.00e-07	0	61	0	700448768	52	5236
2026-01-25 09:45:18.48	41.89	62.83	-40.9	-43.7	14.6	0.00e+00	0	61	0	702545920	52	5258
2026-01-25 09:45:19.49	40.97	62.64	-40.4	-43.0	15.1	0.00e+00	0	61	0	704643072	52	4841
2026-01-25 09:45:20.51	40.05	62.44	-40.9	-43.8	14.5	0.00e+00	0	61	0	706740224	52	5336
2026-01-25 09:45:21.51	39.17	62.24	-41.7	-45.1	13.2	3.00e-06	0	61	0	707788800	53	5818
2026-01-25 09:45:22.52	38.29	62.04	-42.5	-46.9	11.3	1.52e-04	0	61	0	709885952	55	6403
2026-01-25 09:45:23.53	37.43	61.83	-43.1	-47.8	10.5	2.77e-03	0	61	0	711983104	56	6720
2026-01-25 09:45:24.54	36.58	61.61	-43.0	-47.6	10.8	3.20e-03	0	61	0	714080256	56	6510
2026-01-25 09:45:25.55	35.75	61.39	-42.4	-46.2	12.2	7.54e-04	0	61	0	716177408	56	5577
2026-01-25 09:45:26.56	34.93	61.16	-41.6	-45.0	13.3	1.98e-05	0	61	0	717225984	55	5102
2026-01-25 09:45:27.57	34.13	60.94	-41.8	-45.2	13.2	9.90e-06	0	61	0	719323136	54	5585
2026-01-25 09:45:28.58	33.34	60.70	-42.3	-46.1	12.1	8.77e-05	0	61	0	721420288	55	5851
2026-01-25 09:45:29.59	32.57	60.47	-43.1	-47.9	10.5	1.79e-03	0	61	0	723517440	56	6741
2026-01-25 09:45:30.60	31.81	60.23	-43.3	-48.2	10.2	4.26e-03	0	61	0	725614592	57	6634
2026-01-25 09:45:31.61	31.06	59.98	-43.1	-47.7	10.6	5.46e-03	0	61	0	726663168	57	6247
2026-01-25 09:45:32.62	30.33	59.73	-42.8	-47.1	11.2	2.62e-03	0	61	0	728760320	57	5841
2026-01-25 09:45:33.63	29.61	59.48	-42.7	-46.9	11.4	1.08e-03	0	61	0	730857472	57	5692
2026-01-25 09:45:34.64	28.91	59.23	-42.3	-46.0	12.4	3.43e-04	0	61	0	732954624	56	5453
2026-01-25 09:45:35.65	28.22	58.97	-42.1	-45.7	12.8	7.47e-05	0	61	0	735051776	56	5236
2026-01-25 09:45:36.66	27.55	58.71	-42.5	-46.5	11.8	3.12e-04	0	61	0	736100352	56	5777
2026-01-25 09:45:37.67	26.88	58.45	-43.2	-48.1	10.2	3.95e-03	0	61	0	738197504	57	6538
2026-01-25 09:45:38.68	26.23	58.19	-43.2	-48.1	10.1	1.16e-02	0	61	0	740294656	57	6563
2026-01-25 09:45:39.69	25.60	57.92	-43.2	-48.2	10.2	5.82e-03	0	61	0	742391808	57	6598
2026-01-25 09:45:40.70	24.97	57.65	-42.8	-47.3	11.0	2.45e-03	0	61	0	744488960	57	5940
2026-01-25 09:45:41.71	24.36	57.38	-43.2	-48.2	10.0	2.29e-03	0	61	0	745537536	57	6620
2026-01-25 09:45:42.72	23.76	57.11	-43.4	-48.8	9.5	1.29e-02	0	61	0	747634688	57	7073
2026-01-25 09:45:43.73	23.17	56.84	-43.4	-48.7	9.6	1.13e-02	0	61	0	749731840	57	6971
2026-01-25 09:45:44.74	22.60	56.56	-43.0	-47.6	10.6	4.52e-03	0	61	0	751828992	57	6152
2026-01-25 09:45:45.75	22.03	56.29	-42.4	-46.3	12.1	5.29e-04	0	61	0	753926144	56	5607
2026-01-25 09:45:46.76	21.48	56.01	-42.5	-46.5	11.9	1.31e-04	0	61	0	754974720	56	5733
2026-01-25 09:45:47.77	20.94	55.73	-42.3	-46.1	12.4	3.44e-04	0	61	0	757071872	56	5471
2026-01-25 09:45:48.78	20.41	55.45	-41.6	-45.0	13.3	5.72e-05	0	61	0	759169024	55	5127
2026-01-25 09:45:49.79	19.88	55.17	-41.5	-44.7	13.6	3.80e-06	0	61	0	761266176	54	5219
2026-01-25 09:45:50.80	19.37	54.89	-41.9	-45.5	12.8	1.90e-05	0	61	0	763363328	54	5724
2026-01-25 09:45:51.81	18.87	54.61	-41.8	-45.2	13.0	1.64e-04	0	61	0	765460480	54	5557
2026-01-25 09:45:52.82	18.38	54.32	-41.3	-44.4	13.9	1.52e-05	0	61	0	766509056	54	5067
2026-01-25 09:45:53.83	17.90	54.04	-41.5	-44.7	13.5	3.80e-06	0	61	0	768606208	54	5267
2026-01-25 09:45:54.84	17.43	53.76	-42.1	-45.9	12.4	8.08e-05	0	61	0	770703360	54	6005
2026-01-25 09:45:55.85	16.97	53.47	-41.9	-45.5	12.7	6.71e-05	0	61	0	772800512	55	5450
2026-01-25 09:45:56.85	16.52	53.19	-42.1	-45.9	12.3	1.64e-04	0	61	0	774897664	55	5659
2026-01-25 09:45:57.86	16.07	52.91	-42.3	-46.3	12.0	1.48e-04	0	61	0	775946240	55	5936
2026-01-25 09:45:58.87	15.64	52.62	-42.4	-46.5	11.7	7.61e-04	0	61	0	778043392	55	6111
2026-01-25 09:45:59.88	15.21	52.34	-42.3	-46.2	12.0	3.43e-04	0	61	0	780140544	55	5872
2026-01-25 09:46:00.89	14.79	52.05	-41.9	-45.4	12.7	1.23e-04	0	61	0	782237696	55	5378
2026-01-25 09:46:01.90	14.38	51.77	-42.0	-45.7	12.5	1.04e-04	0	61	0	784334848	55	5570
2026-01-25 09:46:02.91	13.98	51.48	-42.1	-45.9	12.3	2.18e-04	0	61	0	785383424	55	5673
2026-01-25 09:46:03.92	13.58	51.20	-42.3	-46.2	12.0	2.62e-04	0	61	0	787480576	55	5870
2026-01-25 09:46:04.93	13.19	50.91	-42.1	-45.9	12.3	3.77e-04	0	61	0	789577728	55	5703
2026-01-25 09:46:05.94	12.81	50.63	-42.6	-46.9	11.2	4.69e-04	0	61	0	791674880	55	6403
2026-01-25 09:46:06.95	12.44	50.35	-42.6	-47.0	11.1	1.40e-03	0	61	0	793772032	55	6494
2026-01-25 09:46:07.97	12.07	50.06	-42.5	-46.7	11.5	9.20e-04	0	61	0	794820608	55	6226
2026-01-25 09:46:08.97	11.71	49.78	-42.4	-46.6	11.5	9.14e-04	0	61	0	796917760	55	6168
2026-01-25 09:46:09.98	11.36	49.50	-42.3	-46.4	11.9	6.08e-04	0	61	0	799014912	55	6014
2026-01-25 09:46:11.00	11.01	49.22	-41.7	-45.1	13.0	1.85e-04	0	61	0	801112064	55	5190
2026-01-25 09:46:12.01	10.67	48.94	-41.1	-44.1	14.1	1.50e-06	0	61	0	803209216	54	4888
2026-01-25 09:46:13.02	10.34	48.66	-41.2	-44.2	14.0	0.00e+00	0	61	0	804257792	53	5226
2026-01-25 09:46:14.03	10.01	48.38	-41.6	-45.0	13.2	6.10e-06	0	61	0	806354944	53	5782
2026-01-25 09:46:15.04	9.69	48.10	-41.8	-45.3	12.8	5.18e-05	0	61	0	808452096	54	5650
2026-01-25 09:46:16.05	9.37	47.82	-41.5	-44.7	13.5	1.98e-05	0	61	0	810549248	54	5270
2026-01-25 09:46:17.06	9.06	47.55	-41.6	-45.0	13.2	1.06e-05	0	61	0	812646400	54	5450
2026-01-25 09:46:18.06	8.76	47.27	-42.3	-46.3	11.9	4.11e-05	0	61	0	813694976	55	5975
2026-01-25 09:46:19.08	8.45	47.00	-43.0	-47.9	10.4	3.45e-03	0	61	0	815792128	56	6743
2026-01-25 09:46:20.09	8.16	46.72	-43.3	-48.7	9.5	9.15e-03	0	61	0	817889280	57	6994
2026-01-25 09:46:21.10	7.87	46.45	-43.4	-49.0	9.3	2.09e-02	0	61	0	819986432	57	7206
2026-01-25 09:46:22.11	7.59	46.18	-43.1	-48.1	10.1	1.37e-02	0	61	0	822083584	57	6542
2026-01-25 09:46:23.12	7.31	45.91	-42.2	-46.0	12.3	1.50e-03	0	61	0	823132160	56	5428
2026-01-25 09:46:24.13	7.03	45.64	-41.8	-45.3	12.9	1.14e-04	0	61	0	825229312	55	5340
2026-01-25 09:46:25.14	6.76	45.37	-41.9	-45.6	12.6	6.02e-05	0	61	0	827326464	55	5480
2026-01-25 09:46:26.15	6.50	45.10	-42.3	-46.4	11.7	4.65e-04	0	62	0	829423616	55	6061
2026-01-25 09:46:27.16	6.24	44.84	-42.4	-46.4	11.9	1.85e-03	0	61	0	831520768	56	5686
2026-01-25 09:46:28.16	5.98	44.57	-41.9	-45.5	12.7	1.14e-04	0	61	0	833617920	54	5751
2026-01-25 09:46:29.17	5.73	44.31	-41.5	-44.9	13.3	2.28e-05	0	61	0	834666496	53	5671
2026-01-25 09:46:30.18	5.48	44.05	-41.8	-45.4	12.8	3.20e-05	0	61	0	836763648	54	5696
2026-01-25 09:46:31.19	5.24	43.78	-42.0	-46.0	12.1	2.74e-04	0	61	0	838860800	55	5753
2026-01-25 09:46:32.20	5.00	43.52	-42.2	-46.1	12.0	3.17e-04	0	61	0	840957952	55	5843
2026-01-25 09:46:33.21	4.76	43.27	-42.4	-46.6	11.5	5.06e-04	0	61	0	843055104	55	6185
2026-01-25 09:46:34.22	4.53	43.01	-43.1	-48.1	10.1	1.62e-03	0	61	0	844103680	56	6895
2026-01-25 09:46:35.23	4.30	42.75	-43.5	-49.4	8.7	3.19e-02	0	61	0	846200832	57	7577
2026-01-25 09:46:36.24	4.08	42.49	-43.9	-50.5	7.6	5.30e-02	0	61	0	848297984	58	8160
2026-01-25 09:46:37.25	3.86	42.24	-44.1	-51.6	6.5	1.65e-01	0	61	0	850395136	59	8755
2026-01-25 09:46:38.26	3.64	41.99	-44.0	-51.1	7.1	1.54e-01	0	61	0	852492288	59	8206
2026-01-25 09:46:39.27	3.42	41.74	-43.9	-50.5	7.6	1.16e-01	0	61	0	853540864	59	7632
2026-01-25 09:46:40.28	3.21	41.48	-43.3	-48.6	9.5	2.56e-02	0	62	0	855638016	58	6551
2026-01-25 09:46:41.29	3.01	41.24	-43.2	-48.2	10.1	9.08e-03	0	61	0	857735168	58	6244
2026-01-25 09:46:42.30	2.80	40.99	-43.1	-48.2	10.0	4.63e-03	0	61	0	859832320	57	6574
2026-01-25 09:46:43.31	2.60	40.74	-42.9	-47.5	10.7	8.38e-03	0	61	0	861929472	57	6092
2026-01-25 09:46:44.32	2.40	40.50	-42.8	-47.4	10.8	2.59e-03	0	61	0	862978048	57	5995
2026-01-25 09:46:45.33	2.21	40.25	-43.1	-48.1	10.0	7.75e-03	0	61	0	865075200	57	6557
2026-01-25 09:46:46.34	2.02	40.01	-43.1	-48.2	10.0	5.36e-03	0	61	0	867172352	57	6606
2026-01-25 09:46:47.35	1.83	39.77	-43.4	-49.0	9.1	1.61e-02	0	61	0	869269504	57	7213
2026-01-25 09:46:48.36	1.64	39.53	-43.4	-48.9	9.2	1.46e-02	0	61	0	871366656	57	7204
2026-01-25 09:46:49.37	1.46	39.29	-43.7	-50.0	8.0	4.01e-02	0	62	0	872415232	57	8127
2026-01-25 09:46:50.38	1.28	39.05	-43.6	-49.6	8.5	6.59e-02	0	61	0	874512384	58	7323
2026-01-25 09:46:51.39	1.10	38.81	-43.5	-49.4	8.7	4.72e-02	0	61	0	876609536	58	7137
2026-01-25 09:46:52.40	0.92	38.58	-43.5	-49.2	8.8	3.48e-02	0	61	0	878706688	58	7001
2026-01-25 09:46:53.41	0.75	38.35	-43.7	-50.0	8.1	3.74e-02	0	61	0	880803840	58	7670
2026-01-25 09:46:54.41	0.58	38.12	-43.4	-49.1	8.8	2.45e-02	0	62	0	881852416	58	6929
2026-01-25 09:46:55.42	0.41	37.89	-43.8	-50.4	7.7	4.39e-02	0	61	0	883949568	58	8067
2026-01-25 09:46:56.43	0.25	37.66	-44.0	-51.0	7.1	1.08e-01	0	61	0	886046720	58	8575
2026-01-25 09:46:57.44	0.08	37.43	-43.9	-50.9	7.2	1.25e-01	0	61	0	888143872	58	8465
2026-01-25 09:46:58.45	359.92	37.20	-43.3	-48.6	9.5	5.70e-02	0	61	0	890241024	58	6503
2026-01-25 09:46:59.46	359.76	36.97	-43.0	-47.9	10.2	8.21e-03	0	61	0	891289600	58	6018
2026-01-25 09:47:00.47	359.61	36.75	-42.6	-46.9	11.2	3.00e-03	0	62	0	893386752	57	5704
2026-01-25 09:47:01.48	359.45	36.53	-42.3	-46.4	11.8	6.55e-04	0	61	0	895483904	56	5660
2026-01-25 09:47:02.49	359.30	36.30	-42.3	-46.4	11.8	3.88e-04	0	61	0	897581056	56	5680
2026-01-25 09:47:03.50	359.15	36.08	-42.3	-46.4	11.7	4.44e-04	0	61	0	899678208	56	5699
2026-01-25 09:47:04.51	359.00	35.86	-42.7	-47.2	11.0	1.75e-03	0	61	0	901775360	56	6243
2026-01-25 09:47:05.52	358.86	35.65	-42.7	-47.2	10.9	2.63e-03	0	61	0	902823936	56	6273
2026-01-25 09:47:06.53	358.71	35.43	-43.0	-47.9	10.2	3.24e-03	0	61	0	904921088	56	6797
2026-01-25 09:47:07.54	358.57	35.21	-43.1	-48.2	9.9	5.89e-03	0	61	0	907018240	56	6993
2026-01-25 09:47:08.55	358.43	35.00	-43.2	-48.6	9.5	1.08e-02	0	61	0	909115392	57	6922
2026-01-25 09:47:09.56	358.29	34.79	-43.1	-48.2	9.9	1.12e-02	0	61	0	911212544	57	6616
2026-01-25 09:47:10.57	358.16	34.58	-43.2	-48.4	9.6	8.56e-03	0	62	0	912261120	57	6743
2026-01-25 09:47:11.58	358.02	34.36	-42.4	-46.5	11.6	2.19e-03	0	61	0	914358272	56	5781
2026-01-25 09:47:12.58	357.89	34.16	-42.5	-46.6	11.5	7.11e-04	0	61	0	916455424	56	5836
2026-01-25 09:47:13.59	357.76	33.95	-42.4	-46.4	11.7	4.28e-04	0	61	0	918552576	56	5703
2026-01-25 09:47:14.60	357.63	33.74	-42.6	-47.0	11.1	1.14e-03	0	61	0	920649728	56	6094
2026-01-25 09:47:15.61	357.50	33.54	-42.8	-47.4	10.7	2.76e-03	0	61	0	921698304	56	6379
2026-01-25 09:47:16.62	357.38	33.33	-42.9	-47.7	10.4	5.08e-03	0	61	0	923795456	56	6601
2026-01-25 09:47:17.63	357.25	33.13	-43.0	-48.0	10.0	8.55e-03	0	62	0	925892608	56	6858
2026-01-25 09:47:18.64	357.13	32.93	-42.8	-47.5	10.6	5.56e-03	0	61	0	927989760	56	6475
2026-01-25 09:47:19.65	357.01	32.73	-42.8	-47.5	10.6	3.88e-03	0	61	0	930086912	56	6439
2026-01-25 09:47:20.66	356.89	32.53	-43.0	-48.0	10.0	6.81e-03	0	61	0	931135488	56	6823
2026-01-25 09:47:21.67	356.77	32.33	-43.1	-48.3	9.7	1.07e-02	0	61	0	933232640	56	7042
2026-01-25 09:47:22.68	356.65	32.13	-42.9	-47.9	10.2	1.00e-02	0	62	0	935329792	56	6747
2026-01-25 09:47:23.69	356.54	31.94	-42.9	-47.8	10.2	9.40e-03	0	61	0	937426944	56	6667
2026-01-25 09:47:24.70	356.42	31.74	-42.6	-47.1	10.9	3.31e-03	0	61	0	939524096	56	6180
2026-01-25 09:47:25.71	356.31	31.55	-42.6	-46.9	11.1	2.25e-03	0	61	0	940572672	56	6051
2026-01-25 09:47:26.72	356.20	31.35	-42.1	-46.0	12.1	4.05e-04	0	62	0	942669824	56	5408
2026-01-25 09:47:27.73	356.09	31.16	-42.1	-46.1	11.8	1.55e-04	0	61	0	944766976	55	5817
2026-01-25 09:47:28.74	355.98	30.97	-42.0	-45.9	11.9	3.77e-04	0	61	0	946864128	55	5675
2026-01-25 09:47:29.75	355.87	30.78	-42.3	-46.6	11.2	9.90e-04	0	61	0	948961280	55	6159
2026-01-25 09:47:30.76	355.77	30.60	-42.7	-47.5	10.3	3.36e-03	0	61	0	950009856	55	6849
2026-01-25 09:47:31.77	355.66	30.41	-43.2	-48.5	9.5	6.56e-03	0	62	0	952107008	56	7274
2026-01-25 09:47:32.78	355.56	30.22	-43.3	-49.0	9.0	2.33e-02	0	61	0	954204160	57	7239
2026-01-25 09:47:33.79	355.46	30.04	-43.2	-48.8	9.2	2.39e-02	0	61	0	956301312	57	7067
2026-01-25 09:47:34.80	355.36	29.85	-43.2	-48.7	9.2	2.48e-02	0	61	0	958398464	57	7000
2026-01-25 09:47:35.81	355.26	29.67	-43.1	-48.5	9.5	2.52e-02	0	61	0	959447040	57	6823
2026-01-25 09:47:36.82	355.16	29.49	-43.1	-48.3	9.5	1.74e-02	0	61	0	961544192	57	6716
2026-01-25 09:47:37.83	355.06	29.31	-43.1	-48.6	9.3	1.61e-02	0	61	0	963641344	57	6908
2026-01-25 09:47:38.84	354.96	29.13	-43.1	-48.4	9.6	1.38e-02	0	62	0	965738496	57	6740
2026-01-25 09:47:39.85	354.87	28.95	-43.2	-48.9	9.0	1.79e-02	0	61	0	967835648	57	7165
2026-01-25 09:47:40.86	354.77	28.77	-43.0	-48.3	9.2	3.10e-02	0	62	0	969932800	57	6709
2026-01-25 09:47:41.87	354.68	28.60	-43.2	-48.9	9.0	2.77e-02	0	61	0	970981376	57	7151
2026-01-25 09:47:42.88	354.59	28.42	-43.2	-48.9	9.0	2.58e-02	0	62	0	973078528	57	7183
2026-01-25 09:47:43.89	354.50	28.25	-43.2	-48.9	8.9	2.89e-02	0	61	0	975175680	57	7192
2026-01-25 09:47:44.89	354.41	28.08	-43.1	-48.7	9.1	2.61e-02	0	62	0	977272832	57	7010
2026-01-25 09:47:45.90	354.32	27.90	-43.1	-48.8	9.1	2.14e-02	0	62	0	979369984	57	7050
2026-01-25 09:47:46.92	354.23	27.73	-43.1	-48.7	9.2	2.18e-02	0	61	0	980418560	57	6974
2026-01-25 09:47:47.93	354.14	27.56	-43.0	-48.4	9.4	1.66e-02	0	61	0	982515712	57	6777
2026-01-25 09:47:48.93	354.06	27.39	-42.8	-48.0	9.8	1.01e-02	0	62	0	984612864	57	6437
2026-01-25 09:47:49.94	353.97	27.23	-42.9	-48.1	9.7	9.99e-03	0	61	0	986710016	57	6513
2026-01-25 09:47:50.95	353.89	27.06	-42.7	-47.8	10.0	7.96e-03	0	62	0	988807168	57	6296
2026-01-25 09:47:51.96	353.81	26.89	-42.7	-47.8	10.0	8.49e-03	0	62	0	989855744	57	6321
2026-01-25 09:47:52.97	353.72	26.73	-42.6	-47.4	10.4	7.57e-03	0	62	0	991952896	57	6001
2026-01-25 09:47:53.98	353.64	26.56	-42.5	-47.3	10.5	3.62e-03	0	62	0	994050048	57	5954
2026-01-25 09:47:54.99	353.56	26.40	-42.5	-47.2	10.6	3.11e-03	0	61	0	996147200	56	6234
2026-01-25 09:47:56.00	353.48	26.24	-42.4	-47.1	10.7	3.02e-03	0	62	0	998244352	56	6154
2026-01-25 09:47:57.01	353.40	26.07	-42.4	-46.9	10.8	3.51e-03	0	61	0	999292928	56	6057
2026-01-25 09:47:58.02	353.33	25.91	-42.3	-46.9	10.9	2.07e-03	0	61	0	1001390080	56	6002
2026-01-25 09:47:59.03	353.25	25.75	-42.2	-46.7	11.0	2.21e-03	0	61	0	1003487232	56	5876
2026-01-25 09:48:00.04	353.17	25.59	-41.8	-45.9	11.6	9.69e-04	0	62	0	1005584384	55	5675
2026-01-25 09:48:01.05	353.10	25.44	-41.8	-46.0	11.5	6.88e-04	0	61	0	1007681536	55	5761
2026-01-25 09:48:02.06	353.02	25.28	-41.8	-45.9	11.5	1.01e-03	0	62	0	1008730112	55	5698
2026-01-25 09:48:03.07	352.95	25.12	-41.8	-45.9	11.5	7.97e-04	0	62	0	1010827264	55	5700
2026-01-25 09:48:04.08	352.87	24.97	-41.8	-46.1	11.3	1.03e-03	0	62	0	1012924416	55	5838
2026-01-25 09:48:05.09	352.80	24.81	-42.0	-46.5	10.9	1.09e-03	0	62	0	1015021568	55	6084
2026-01-25 09:48:06.10	352.73	24.66	-42.0	-46.6	10.7	2.31e-03	0	62	0	1017118720	55	6177
2026-01-25 09:48:07.11	352.66	24.51	-42.3	-47.3	10.1	4.84e-03	0	61	0	1018167296	55	6665
2026-01-25 09:48:08.12	352.59	24.35	-42.5	-48.1	9.1	9.88e-03	0	62	0	1020264448	55	7338
2026-01-25 09:48:09.13	352.52	24.20	-42.6	-48.3	8.9	2.34e-02	0	62	0	1022361600	55	7523
2026-01-25 09:48:10.14	352.45	24.05	-42.7	-48.7	8.5	3.20e-02	0	61	0	1024458752	55	7878
2026-01-25 09:48:11.14	352.38	23.90	-42.9	-49.1	8.2	5.64e-02	0	61	0	1026555904	56	7800
2026-01-25 09:48:12.15	352.31	23.75	-42.8	-48.9	8.3	4.77e-02	0	62	0	1027604480	56	7579
2026-01-25 09:48:13.16	352.25	23.61	-42.8	-49.0	8.3	5.56e-02	0	62	0	1029701632	56	7648
2026-01-25 09:48:14.17	352.18	23.46	-42.8	-49.0	8.1	5.73e-02	0	62	0	1031798784	56	7716
2026-01-25 09:48:15.18	352.12	23.31	-42.6	-48.7	8.4	5.21e-02	0	62	0	1033895936	56	7402
2026-01-25 09:48:16.19	352.05	23.17	-42.3	-47.9	9.1	2.50e-02	0	62	0	1035993088	56	6762
2026-01-25 09:48:17.20	351.99	23.02	-42.2	-47.7	9.1	1.82e-02	0	62	0	1038090240	56	6639
2026-01-25 09:48:18.21	351.92	22.88	-42.0	-47.3	9.6	2.02e-02	0	62	0	1039138816	56	6288
2026-01-25 09:48:19.22	351.86	22.73	-42.0	-47.6	9.1	1.98e-02	0	62	0	1041235968	56	6502
2026-01-25 09:48:20.23	351.80	22.59	-41.7	-47.2	9.1	2.59e-02	0	62	0	1043333120	55	6578
2026-01-25 09:48:21.24	351.73	22.45	-41.3	-46.4	9.8	2.06e-02	0	62	0	1045430272	54	6417
2026-01-25 09:48:22.25	351.67	22.31	-41.2	-46.3	9.8	1.26e-02	0	62	0	1047527424	54	6291
2026-01-25 09:48:23.26	351.61	22.17	-41.1	-46.3	9.6	1.39e-02	0	61	0	1048576000	54	6336
2026-01-25 09:48:24.26	351.55	22.03	-41.1	-46.3	9.6	1.21e-02	0	62	0	1050673152	54	6317
2026-01-25 09:48:25.27	351.49	21.89	-41.0	-46.3	9.4	1.43e-02	0	61	0	1052770304	54	6341
2026-01-25 09:48:26.28	351.43	21.75	-41.0	-46.3	9.4	1.48e-02	0	61	0	1054867456	53	6704
2026-01-25 09:48:27.29	351.38	21.62	-41.0	-46.5	9.1	1.81e-02	0	61	0	1056964608	53	6876
2026-01-25 09:48:28.30	351.32	21.48	-41.1	-47.1	8.4	3.33e-02	0	62	0	1058013184	53	7350
2026-01-25 09:48:29.31	351.26	21.34	-41.2	-47.9	7.5	7.11e-02	0	61	0	1060110336	53	8059
2026-01-25 09:48:30.32	351.20	21.21	-41.3	-48.8	6.6	1.56e-01	0	62	0	1062207488	53	8889
2026-01-25 09:48:31.33	351.15	21.07	-41.4	-50.1	5.5	4.25e-01	0	61	0	1064304640	53	10385
2026-01-25 09:48:32.34	351.09	20.94	-41.5	-51.5	4.6	7.74e-01	0	61	0	1066401792	53	12198
2026-01-25 09:48:33.35	351.04	20.81	-41.4	-52.2	4.3	1.11e+00	0	61	0	1067450368	53	13172
2026-01-25 09:48:34.36	350.98	20.67	-41.4	-53.6	3.9	1.40e+00	0	61	104	1067450368	53	15506
2026-01-25 09:48:35.37	350.93	20.54	-41.3	-54.7	3.8	1.49e+00	0	62	104	1067450368	53	17661
2026-01-25 09:48:36.38	350.87	20.41	-41.2	-55.0	3.8	1.49e+00	0	61	104	1067450368	53	18120
2026-01-25 09:48:37.39	350.82	20.28	-41.1	-55.5	3.8	1.49e+00	0	61	104	1067450368	53	19388
2026-01-25 09:48:38.40	350.77	20.15	-41.1	-55.6	3.8	1.49e+00	0	62	104	1067450368	53	19477
2026-01-25 09:48:39.41	350.72	20.02	-41.5	-55.2	3.8	1.49e+00	0	62	104	1067450368	54	17573
2026-01-25 09:48:40.42	350.66	19.89	-41.1	-55.6	3.8	1.49e+00	0	62	104	1067450368	54	18369
2026-01-25 09:48:41.43	350.61	19.76	-41.1	-55.6	3.8	1.49e+00	0	62	104	1067450368	54	18349
2026-01-25 09:48:42.44	350.56	19.64	-41.0	-55.4	3.8	1.49e+00	0	61	104	1067450368	54	18041
2026-01-25 09:48:43.45	350.51	19.51	-40.9	-55.3	3.8	1.49e+00	0	62	104	1067450368	53	18937
2026-01-25 09:48:44.46	350.46	19.38	-41.0	-55.4	3.8	1.49e+00	0	62	104	1067450368	53	19114
2026-01-25 09:48:45.47	350.41	19.26	-40.7	-55.1	3.8	1.49e+00	0	62	104	1067450368	53	18446
2026-01-25 09:48:46.48	350.36	19.13	-40.8	-55.2	3.8	1.49e+00	0	62	104	1067450368	53	18614
2026-01-25 09:48:47.49	350.31	19.01	-41.0	-55.5	3.8	1.49e+00	0	62	104	1067450368	53	19357
2026-01-25 09:48:48.50	350.27	18.89	-40.7	-55.2	3.8	1.49e+00	0	62	104	1067450368	53	18683
2026-01-25 09:48:49.51	350.22	18.76	-40.8	-55.2	3.8	1.49e+00	0	62	104	1067450368	53	18728
2026-01-25 09:48:50.52	350.17	18.64	-40.7	-55.2	3.8	1.49e+00	0	62	104	1067450368	53	18563
2026-01-25 09:48:51.53	350.12	18.52	-40.9	-55.4	3.8	1.49e+00	0	62	104	1067450368	53	18955
2026-01-25 09:48:52.54	350.08	18.40	-40.7	-55.2	3.8	1.49e+00	0	61	104	1067450368	53	18649
2026-01-25 09:48:53.54	350.03	18.28	-40.9	-55.4	3.8	1.49e+00	0	62	104	1067450368	53	18962
2026-01-25 09:48:54.55	349.99	18.16	-40.7	-55.2	3.8	1.49e+00	0	62	104	1067450368	53	18720
2026-01-25 09:48:55.56	349.94	18.04	-40.7	-55.2	3.8	1.49e+00	0	62	104	1067450368	53	18689
2026-01-25 09:48:56.57	349.90	17.92	-40.8	-55.3	3.8	1.49e+00	0	62	104	1067450368	53	18800
2026-01-25 09:48:57.58	349.85	17.80	-40.7	-55.2	3.8	1.49e+00	0	61	104	1067450368	53	18650
2026-01-25 09:48:58.59	349.81	17.68	-40.8	-55.3	3.8	1.49e+00	0	62	104	1067450368	53	18768
2026-01-25 09:48:59.60	349.76	17.56	-40.7	-55.2	3.8	1.49e+00	0	61	104	1067450368	53	18602
2026-01-25 09:49:00.61	349.72	17.45	-40.8	-55.3	3.8	1.49e+00	0	62	104	1067450368	53	18829
2026-01-25 09:49:01.62	349.68	17.33	-40.6	-55.2	3.8	1.49e+00	0	61	104	1067450368	53	18528
2026-01-25 09:49:02.63	349.63	17.22	-40.7	-55.3	3.8	1.49e+00	0	62	104	1067450368	53	18778
2026-01-25 09:49:03.64	349.59	17.10	-40.8	-55.3	3.8	1.49e+00	0	61	104	1067450368	53	18876
2026-01-25 09:49:04.65	349.55	16.99	-40.6	-55.2	3.8	1.49e+00	0	62	104	1067450368	53	18535
2026-01-25 09:49:05.66	349.51	16.87	-40.7	-55.2	3.8	1.49e+00	0	62	104	1067450368	53	18707
2026-01-25 09:49:06.67	349.47	16.76	-40.7	-55.2	3.8	1.49e+00	0	61	104	1067450368	53	18683
2026-01-25 09:49:07.67	349.42	16.65	-41.1	-55.6	3.8	1.49e+00	0	62	104	1067450368	53	19396
2026-01-25 09:49:08.68	349.38	16.53	-40.6	-55.1	3.8	1.49e+00	0	62	104	1067450368	53	18516
2026-01-25 09:49:09.69	349.34	16.42	-40.8	-55.4	3.8	1.49e+00	0	62	104	1067450368	53	18954
2026-01-25 09:49:10.71	349.30	16.31	-40.6	-55.1	3.8	1.49e+00	0	61	104	1067450368	53	18440
2026-01-25 09:49:11.72	349.26	16.20	-40.6	-55.2	3.8	1.49e+00	0	62	104	1067450368	53	18532
2026-01-25 09:49:12.73	349.22	16.09	-40.7	-55.2	3.8	1.49e+00	0	62	104	1067450368	53	18680
2026-01-25 09:49:13.74	349.18	15.98	-40.7	-55.3	3.8	1.49e+00	0	61	104	1067450368	53	18747
2026-01-25 09:49:14.75	349.15	15.87	-40.7	-55.2	3.8	1.49e+00	0	61	104	1067450368	53	18689
2026-01-25 09:49:15.76	349.11	15.76	-40.7	-55.3	3.8	1.49e+00	0	62	104	1067450368	53	18865
2026-01-25 09:49:16.77	349.07	15.65	-41.1	-55.6	3.8	1.49e+00	0	62	104	1067450368	53	19477
2026-01-25 09:49:17.78	349.03	15.54	-41.1	-55.6	3.8	1.49e+00	0	62	104	1067450368	53	19550
2026-01-25 09:49:18.78	348.99	15.43	-40.8	-55.4	3.8	1.49e+00	0	62	104	1067450368	53	18980
2026-01-25 09:49:19.79	348.96	15.33	-41.2	-55.6	3.8	1.49e+00	0	62	104	1067450368	53	19576
2026-01-25 09:49:20.80	348.92	15.22	-40.8	-55.4	3.8	1.49e+00	0	61	104	1067450368	53	18971
2026-01-25 09:49:21.81	348.88	15.11	-41.0	-55.6	3.8	1.49e+00	0	61	104	1067450368	53	19488
2026-01-25 09:49:22.82	348.85	15.01	-40.9	-55.4	3.8	1.49e+00	0	62	104	1067450368	53	19153
2026-01-25 09:49:23.83	348.81	14.90	-41.2	-55.7	3.8	1.49e+00	0	62	104	1067450368	53	19742
2026-01-25 09:49:24.85	348.77	14.79	-40.8	-55.3	3.8	1.49e+00	0	61	104	1067450368	53	18844
