passes_logs/2026/01/25/R2.0S_Moscow/R2.0S_Moscow__20260125_054821_FENGYUN_3E_rec.log

#Pass ID: 20260125_054821_FENGYUN 3E
#Satellite: FENGYUN 3E
#Configuration: FENGYUN 3E
#almurnet v.1.7.20251203
#Start time: 2026-01-25 05:48:22

#Version: 2.2.20231116
#Station: R2.0S_Moscow
#Location: 37.707566 lon 55.798166 lat
#TLE: 1 49008U 21062A   26024.51886291 -.00000133  00000+0 -41802-4 0  9993
#TLE: 2 49008  98.7494  29.5356 0002407 118.1139 242.0281 14.19886269236195

#Time	Az	El	Level	Level2	SNR	BER	BlckErr	Temp	State	Recorded	gain1	gain2
2026-01-25 05:48:22.04	9.63	2.02	-40.2	-50.9	3.8	8.45e-01	0	52	0	0	51	12080
2026-01-25 05:48:23.04	9.56	2.08	-40.1	-50.9	3.8	8.46e-01	0	52	104	0	51	12060
2026-01-25 05:48:24.06	9.49	2.13	-40.1	-50.9	3.8	8.46e-01	0	52	104	0	51	12022
2026-01-25 05:48:25.07	9.41	2.19	-40.1	-50.9	3.8	8.46e-01	0	52	104	0	51	12029
2026-01-25 05:48:26.08	9.34	2.24	-40.1	-50.9	3.8	8.46e-01	0	52	104	0	51	12037
2026-01-25 05:48:27.09	9.27	2.30	-40.1	-50.9	3.8	8.46e-01	0	52	104	0	51	12063
2026-01-25 05:48:28.10	9.19	2.35	-40.1	-50.9	3.8	8.46e-01	0	53	104	0	51	12088
2026-01-25 05:48:29.11	9.12	2.41	-40.1	-50.9	3.8	8.45e-01	0	53	104	0	51	12046
2026-01-25 05:48:30.12	9.05	2.47	-40.1	-50.9	3.8	8.45e-01	0	53	104	0	51	12036
2026-01-25 05:48:31.13	8.97	2.52	-40.1	-50.9	3.8	8.46e-01	0	53	104	0	51	12058
2026-01-25 05:48:32.13	8.90	2.58	-40.1	-50.9	3.8	8.46e-01	0	53	104	0	51	11987
2026-01-25 05:48:33.14	8.82	2.63	-40.1	-50.9	3.8	8.46e-01	0	53	104	0	51	12008
2026-01-25 05:48:34.15	8.75	2.69	-40.1	-50.9	3.8	8.46e-01	0	53	104	0	51	11995
2026-01-25 05:48:35.17	8.67	2.74	-40.1	-50.9	3.8	8.45e-01	0	53	104	0	51	12039
2026-01-25 05:48:36.18	8.60	2.80	-40.1	-50.9	3.8	8.46e-01	0	53	104	0	51	11993
2026-01-25 05:48:37.19	8.52	2.86	-40.1	-50.9	3.8	8.47e-01	0	53	104	0	51	12043
2026-01-25 05:48:38.20	8.45	2.91	-40.1	-50.9	3.8	8.46e-01	0	53	104	0	51	11986
2026-01-25 05:48:39.21	8.37	2.97	-40.1	-50.9	3.8	8.47e-01	0	53	104	0	51	11981
2026-01-25 05:48:40.22	8.29	3.02	-40.1	-50.9	3.8	8.46e-01	0	54	104	0	51	11977
2026-01-25 05:48:41.23	8.21	3.08	-40.1	-50.9	3.8	8.47e-01	0	54	104	0	51	12052
2026-01-25 05:48:42.24	8.14	3.14	-40.1	-50.9	3.8	8.46e-01	0	54	104	0	51	11984
2026-01-25 05:48:43.25	8.06	3.19	-40.1	-50.9	3.8	8.45e-01	0	54	104	0	51	12040
2026-01-25 05:48:44.26	7.98	3.25	-40.1	-50.9	3.8	8.46e-01	0	54	104	0	51	11983
2026-01-25 05:48:45.27	7.90	3.31	-40.1	-50.9	3.8	8.46e-01	0	54	104	0	51	11986
2026-01-25 05:48:46.28	7.82	3.36	-40.1	-50.9	3.8	8.46e-01	0	54	104	0	51	11956
2026-01-25 05:48:47.29	7.74	3.42	-40.1	-50.9	3.8	8.46e-01	0	54	104	0	51	12008
2026-01-25 05:48:48.30	7.67	3.48	-40.1	-50.9	3.8	8.46e-01	0	54	104	0	51	12040
2026-01-25 05:48:49.32	7.58	3.53	-40.1	-50.9	3.8	8.47e-01	0	54	104	0	51	11985
2026-01-25 05:48:50.33	7.50	3.59	-40.1	-50.9	3.8	8.46e-01	0	54	104	0	51	12016
2026-01-25 05:48:51.34	7.42	3.65	-40.1	-50.9	3.8	8.47e-01	0	55	104	0	51	11989
2026-01-25 05:48:52.35	7.34	3.70	-40.1	-50.9	3.8	8.46e-01	0	54	104	0	51	11968
2026-01-25 05:48:53.36	7.26	3.76	-40.1	-50.9	3.8	8.46e-01	0	55	104	0	51	11998
2026-01-25 05:48:54.37	7.18	3.82	-40.1	-50.9	3.8	8.45e-01	0	54	104	0	51	11979
2026-01-25 05:48:55.38	7.10	3.88	-40.1	-50.9	3.8	8.46e-01	0	54	104	0	51	12000
2026-01-25 05:48:56.39	7.02	3.93	-40.1	-50.9	3.8	8.45e-01	0	54	104	0	51	11975
2026-01-25 05:48:57.40	6.94	3.99	-40.1	-50.9	3.8	8.46e-01	0	54	104	0	51	11964
2026-01-25 05:48:58.41	6.85	4.05	-40.1	-50.9	3.8	8.47e-01	0	55	104	0	51	12011
2026-01-25 05:48:59.43	6.77	4.11	-40.1	-50.9	3.8	8.47e-01	0	55	104	0	51	11974
2026-01-25 05:49:00.44	6.69	4.16	-40.1	-50.9	3.8	8.45e-01	0	55	104	0	51	12007
2026-01-25 05:49:01.45	6.60	4.22	-40.1	-50.8	3.8	8.46e-01	0	55	104	0	51	11955
2026-01-25 05:49:02.46	6.52	4.28	-40.1	-50.9	3.8	8.46e-01	0	55	104	0	51	11991
2026-01-25 05:49:03.47	6.43	4.34	-40.1	-50.8	3.8	8.47e-01	0	55	104	0	51	11949
2026-01-25 05:49:04.48	6.35	4.39	-40.1	-50.9	3.8	8.48e-01	0	55	104	0	51	11957
2026-01-25 05:49:05.49	6.26	4.45	-40.1	-50.9	3.8	8.45e-01	0	55	104	0	51	11968
2026-01-25 05:49:06.50	6.18	4.51	-40.1	-50.9	3.8	8.47e-01	0	55	104	0	51	12023
2026-01-25 05:49:07.51	6.09	4.57	-40.1	-50.9	3.8	8.47e-01	0	55	104	0	51	11987
2026-01-25 05:49:08.52	6.01	4.63	-40.1	-50.9	3.8	8.46e-01	0	55	104	0	51	12023
2026-01-25 05:49:09.53	5.92	4.68	-40.1	-50.8	3.8	8.45e-01	0	56	104	0	51	11933
2026-01-25 05:49:10.54	5.83	4.74	-40.1	-50.9	3.8	8.47e-01	0	55	104	0	51	11994
2026-01-25 05:49:11.55	5.74	4.80	-40.1	-50.9	3.8	8.45e-01	0	55	104	0	51	11960
2026-01-25 05:49:12.56	5.66	4.86	-40.1	-50.9	3.8	8.46e-01	0	55	104	0	51	12020
2026-01-25 05:49:13.57	5.57	4.92	-40.1	-50.9	3.8	8.48e-01	0	55	104	0	51	11957
2026-01-25 05:49:14.59	5.48	4.98	-40.1	-50.8	3.8	8.47e-01	0	56	104	0	51	11951
2026-01-25 05:49:15.60	5.39	5.03	-40.1	-50.9	3.8	8.47e-01	0	56	104	0	51	12001
2026-01-25 05:49:16.61	5.30	5.09	-40.1	-50.9	3.8	8.47e-01	0	56	104	0	51	11984
2026-01-25 05:49:17.62	5.21	5.15	-40.1	-50.9	3.8	8.47e-01	0	56	104	0	51	11981
2026-01-25 05:49:18.63	5.12	5.21	-40.1	-50.9	3.8	8.46e-01	0	56	104	0	51	12002
2026-01-25 05:49:19.64	5.03	5.27	-40.1	-50.9	3.8	8.46e-01	0	56	104	0	51	11988
2026-01-25 05:49:20.65	4.94	5.33	-40.1	-50.9	3.8	8.46e-01	0	56	104	0	51	11970
2026-01-25 05:49:21.66	4.85	5.39	-40.1	-50.8	3.8	8.46e-01	0	56	104	0	51	11955
2026-01-25 05:49:22.67	4.76	5.44	-40.1	-50.9	3.8	8.47e-01	0	56	104	0	51	11987
2026-01-25 05:49:23.68	4.67	5.50	-40.1	-50.9	3.8	8.46e-01	0	56	104	0	51	11965
2026-01-25 05:49:24.69	4.58	5.56	-40.1	-50.9	3.8	8.46e-01	0	56	104	0	51	11961
2026-01-25 05:49:25.70	4.48	5.62	-40.1	-50.8	3.8	8.46e-01	0	56	104	0	51	11936
2026-01-25 05:49:26.71	4.39	5.68	-40.1	-50.9	3.8	8.47e-01	0	56	104	0	51	11979
2026-01-25 05:49:27.72	4.30	5.74	-40.1	-50.8	3.8	8.46e-01	0	56	104	0	51	11934
2026-01-25 05:49:28.73	4.20	5.80	-40.1	-50.9	3.8	8.46e-01	0	56	104	0	51	11993
2026-01-25 05:49:29.74	4.11	5.86	-40.1	-50.9	3.8	8.45e-01	0	56	104	0	51	11978
2026-01-25 05:49:30.75	4.01	5.92	-40.1	-50.8	3.8	8.46e-01	0	56	104	0	51	11902
2026-01-25 05:49:31.76	3.92	5.98	-40.1	-50.8	3.8	8.46e-01	0	57	104	0	51	11928
2026-01-25 05:49:32.77	3.82	6.04	-40.1	-50.9	3.8	8.46e-01	0	57	104	0	51	12035
2026-01-25 05:49:33.78	3.73	6.10	-40.1	-50.9	3.8	8.46e-01	0	57	104	0	51	11981
2026-01-25 05:49:34.79	3.63	6.16	-40.1	-50.9	3.8	8.47e-01	0	57	104	0	51	11959
2026-01-25 05:49:35.80	3.54	6.22	-40.1	-50.9	3.8	8.47e-01	0	57	104	0	51	11961
2026-01-25 05:49:36.81	3.44	6.28	-40.1	-50.9	3.8	8.47e-01	0	57	104	0	51	11976
2026-01-25 05:49:37.82	3.34	6.34	-40.1	-50.9	3.8	8.46e-01	0	57	104	0	51	11982
2026-01-25 05:49:38.83	3.24	6.40	-40.1	-50.9	3.8	8.46e-01	0	57	104	0	51	11999
2026-01-25 05:49:39.84	3.14	6.46	-40.1	-50.9	3.8	8.45e-01	0	57	104	0	51	11977
2026-01-25 05:49:40.85	3.05	6.52	-40.1	-50.8	3.8	8.46e-01	0	57	104	0	51	11952
2026-01-25 05:49:41.86	2.95	6.58	-40.1	-50.8	3.8	8.47e-01	0	57	104	0	51	11929
2026-01-25 05:49:42.87	2.85	6.64	-40.1	-50.8	3.8	8.46e-01	0	57	104	0	51	11950
2026-01-25 05:49:43.88	2.75	6.70	-40.1	-50.8	3.8	8.44e-01	0	57	104	0	51	11942
2026-01-25 05:49:44.89	2.65	6.76	-40.1	-50.8	3.8	8.45e-01	0	57	104	0	51	11942
2026-01-25 05:49:45.90	2.55	6.82	-40.1	-50.8	3.8	8.46e-01	0	57	104	0	51	11938
2026-01-25 05:49:46.91	2.44	6.88	-40.1	-50.9	3.8	8.46e-01	0	57	104	0	51	11989
2026-01-25 05:49:47.92	2.34	6.94	-40.1	-50.9	3.8	8.47e-01	0	57	104	0	51	11971
2026-01-25 05:49:48.93	2.24	7.00	-40.1	-50.9	3.8	8.47e-01	0	57	104	0	51	11971
2026-01-25 05:49:49.95	2.14	7.06	-40.1	-50.8	3.8	8.44e-01	0	57	104	0	51	11906
2026-01-25 05:49:50.95	2.04	7.12	-40.1	-50.8	3.8	8.45e-01	0	57	104	0	51	11951
2026-01-25 05:49:51.96	1.93	7.18	-40.1	-50.8	3.8	8.46e-01	0	57	104	0	51	11933
2026-01-25 05:49:52.97	1.83	7.24	-40.1	-50.9	3.8	8.47e-01	0	57	104	0	51	11977
2026-01-25 05:49:53.98	1.72	7.30	-40.1	-50.8	3.8	8.47e-01	0	58	104	0	51	11910
2026-01-25 05:49:55.00	1.62	7.36	-40.1	-50.8	3.8	8.47e-01	0	57	104	0	51	11933
2026-01-25 05:49:56.01	1.51	7.42	-40.1	-50.8	3.8	8.46e-01	0	57	104	0	51	11953
2026-01-25 05:49:57.02	1.41	7.48	-40.1	-50.8	3.8	8.45e-01	0	58	104	0	51	11926
2026-01-25 05:49:58.03	1.30	7.54	-40.1	-50.9	3.8	8.46e-01	0	58	104	0	51	11971
2026-01-25 05:49:59.04	1.19	7.60	-40.1	-50.8	3.8	8.48e-01	0	58	104	0	51	11955
2026-01-25 05:50:00.05	1.09	7.67	-40.1	-50.8	3.8	8.46e-01	0	58	104	0	51	11929
2026-01-25 05:50:01.06	0.98	7.73	-40.1	-50.9	3.8	8.47e-01	0	58	104	0	51	11957
2026-01-25 05:50:02.07	0.87	7.79	-40.1	-50.8	3.8	8.46e-01	0	58	104	0	51	11939
2026-01-25 05:50:03.08	0.76	7.85	-40.1	-50.8	3.8	8.46e-01	0	58	104	0	51	11930
2026-01-25 05:50:04.09	0.65	7.91	-40.1	-50.8	3.8	8.45e-01	0	58	104	0	51	11935
2026-01-25 05:50:05.10	0.54	7.97	-40.1	-50.8	3.8	8.46e-01	0	58	104	0	51	11936
2026-01-25 05:50:06.11	0.43	8.03	-40.1	-50.8	3.8	8.46e-01	0	58	104	0	51	11945
2026-01-25 05:50:07.12	0.32	8.09	-40.3	-51.1	3.8	8.46e-01	0	58	104	0	51	12270
2026-01-25 05:50:08.13	0.21	8.16	-40.3	-51.1	3.8	8.46e-01	0	58	104	0	51	12260
2026-01-25 05:50:09.14	0.10	8.22	-40.2	-51.0	3.8	8.45e-01	0	58	104	0	51	12170
2026-01-25 05:50:10.15	359.99	8.28	-40.3	-51.1	3.8	8.46e-01	0	58	104	0	51	12310
2026-01-25 05:50:11.16	359.88	8.34	-40.2	-51.0	3.8	8.47e-01	0	58	104	0	51	12170
2026-01-25 05:50:12.17	359.77	8.40	-40.3	-51.1	3.8	8.47e-01	0	58	104	0	51	12301
2026-01-25 05:50:13.18	359.65	8.46	-40.3	-51.0	3.8	8.48e-01	0	58	104	0	51	12223
2026-01-25 05:50:14.19	359.54	8.52	-40.3	-51.1	3.8	8.46e-01	0	58	104	0	51	12326
2026-01-25 05:50:15.19	359.42	8.59	-40.2	-51.0	3.8	8.46e-01	0	58	104	0	51	12158
2026-01-25 05:50:16.20	359.31	8.65	-40.3	-51.0	3.8	8.45e-01	0	58	104	0	51	12171
2026-01-25 05:50:17.21	359.19	8.71	-40.3	-51.1	3.8	8.47e-01	0	58	104	0	51	12274
2026-01-25 05:50:18.22	359.08	8.77	-40.3	-51.0	3.8	8.47e-01	0	58	104	0	51	12213
2026-01-25 05:50:19.23	358.96	8.83	-40.2	-50.9	3.8	8.47e-01	0	58	104	0	51	12072
2026-01-25 05:50:20.25	358.84	8.90	-40.3	-51.0	3.8	8.46e-01	0	58	104	0	51	12229
2026-01-25 05:50:21.25	358.73	8.96	-40.3	-51.1	3.8	8.46e-01	0	59	104	0	51	12290
2026-01-25 05:50:22.26	358.61	9.02	-40.3	-51.0	3.8	8.46e-01	0	58	104	0	51	12207
2026-01-25 05:50:23.27	358.49	9.08	-40.2	-50.9	3.8	8.46e-01	0	58	104	0	51	12071
2026-01-25 05:50:24.28	358.37	9.14	-40.3	-51.0	3.8	8.47e-01	0	59	104	0	51	12160
2026-01-25 05:50:25.29	358.25	9.20	-40.2	-51.0	3.8	8.46e-01	0	58	104	0	51	12216
2026-01-25 05:50:26.30	358.13	9.27	-40.3	-51.0	3.8	8.45e-01	0	58	104	0	51	12193
2026-01-25 05:50:27.31	358.01	9.33	-40.2	-51.0	3.8	8.47e-01	0	59	104	0	51	12158
2026-01-25 05:50:28.32	357.89	9.39	-40.3	-51.0	3.8	8.46e-01	0	59	104	0	51	12213
2026-01-25 05:50:29.33	357.77	9.45	-40.2	-51.0	3.8	8.46e-01	0	59	104	0	51	12163
2026-01-25 05:50:30.34	357.65	9.52	-40.3	-51.1	3.8	8.46e-01	0	59	104	0	51	12251
2026-01-25 05:50:31.35	357.53	9.58	-40.2	-51.0	3.8	8.46e-01	0	59	104	0	51	12168
2026-01-25 05:50:32.36	357.40	9.64	-40.3	-51.0	3.8	8.46e-01	0	58	104	0	51	12232
2026-01-25 05:50:33.37	357.28	9.70	-40.2	-51.0	3.8	8.46e-01	0	59	104	0	51	12130
2026-01-25 05:50:34.38	357.15	9.77	-40.3	-51.1	3.8	8.46e-01	0	59	104	0	51	12256
2026-01-25 05:50:35.39	357.03	9.83	-40.2	-51.0	3.8	8.47e-01	0	59	104	0	51	12102
2026-01-25 05:50:36.40	356.90	9.89	-40.3	-51.1	3.8	8.47e-01	0	59	104	0	51	12252
2026-01-25 05:50:37.41	356.78	9.95	-40.3	-51.0	3.8	8.46e-01	0	59	104	0	51	12226
2026-01-25 05:50:38.42	356.65	10.01	-40.4	-51.1	3.8	8.47e-01	0	59	104	0	51	12307
2026-01-25 05:50:39.43	356.53	10.08	-40.2	-51.0	3.8	8.46e-01	0	59	104	0	51	12095
2026-01-25 05:50:40.44	356.40	10.14	-40.4	-51.2	3.8	8.46e-01	0	59	104	0	51	12394
2026-01-25 05:50:41.45	356.27	10.20	-40.4	-51.1	3.8	8.46e-01	0	59	104	0	51	12287
2026-01-25 05:50:42.46	356.14	10.26	-40.4	-51.2	3.8	8.46e-01	0	59	104	0	51	12411
2026-01-25 05:50:43.47	356.01	10.33	-40.4	-51.1	3.8	8.45e-01	0	59	104	0	51	12297
2026-01-25 05:50:44.48	355.88	10.39	-40.5	-51.2	3.8	8.46e-01	0	59	104	0	51	12468
2026-01-25 05:50:45.49	355.75	10.45	-40.5	-51.2	3.8	8.45e-01	0	59	104	0	51	12419
2026-01-25 05:50:46.50	355.62	10.51	-40.5	-51.2	3.8	8.46e-01	0	59	104	0	51	12499
2026-01-25 05:50:47.51	355.49	10.58	-40.5	-51.2	3.8	8.48e-01	0	59	104	0	51	12509
2026-01-25 05:50:48.52	355.36	10.64	-40.6	-51.3	3.8	8.45e-01	0	59	104	0	51	12643
2026-01-25 05:50:49.53	355.22	10.70	-40.6	-51.3	3.8	8.45e-01	0	59	104	0	51	12642
2026-01-25 05:50:50.54	355.09	10.77	-40.6	-51.3	3.8	8.46e-01	0	59	104	0	51	12579
2026-01-25 05:50:51.55	354.96	10.83	-40.6	-51.3	3.8	8.45e-01	0	59	104	0	51	12636
2026-01-25 05:50:52.56	354.82	10.89	-40.7	-51.3	3.8	8.48e-01	0	59	104	0	51	12649
2026-01-25 05:50:53.57	354.69	10.95	-40.8	-51.5	3.8	8.46e-01	0	59	104	0	51	12854
2026-01-25 05:50:54.58	354.55	11.02	-40.6	-51.3	3.8	8.46e-01	0	59	104	0	51	12610
2026-01-25 05:50:55.59	354.41	11.08	-40.6	-51.3	3.8	8.46e-01	0	59	104	0	51	12645
2026-01-25 05:50:56.60	354.28	11.14	-40.7	-51.4	3.8	8.47e-01	0	59	104	0	51	12742
2026-01-25 05:50:57.60	354.14	11.20	-40.8	-51.5	3.8	8.47e-01	0	59	104	0	51	12954
2026-01-25 05:50:58.61	354.00	11.27	-40.6	-51.3	3.8	8.45e-01	0	59	104	0	51	12589
2026-01-25 05:50:59.62	353.87	11.33	-40.7	-51.4	3.8	8.46e-01	0	59	104	0	51	12796
2026-01-25 05:51:00.63	353.73	11.39	-40.7	-51.4	3.8	8.46e-01	0	59	104	0	51	12766
2026-01-25 05:51:01.64	353.59	11.45	-40.8	-51.5	3.8	8.47e-01	0	59	104	0	51	12958
2026-01-25 05:51:02.65	353.45	11.52	-40.6	-51.4	3.8	8.46e-01	0	59	104	0	51	12716
2026-01-25 05:51:03.66	353.30	11.58	-41.0	-51.8	3.8	8.47e-01	0	59	104	0	51	13306
2026-01-25 05:51:04.67	353.16	11.64	-40.7	-51.5	3.8	8.45e-01	0	60	104	0	51	12873
2026-01-25 05:51:05.68	353.02	11.70	-40.8	-51.6	3.8	8.47e-01	0	59	104	0	51	12979
2026-01-25 05:51:06.69	352.88	11.77	-40.9	-51.7	3.8	8.45e-01	0	60	104	0	51	13131
2026-01-25 05:51:07.70	352.73	11.83	-41.1	-51.9	3.8	8.45e-01	0	59	104	0	51	13454
2026-01-25 05:51:08.71	352.59	11.89	-40.9	-51.7	3.8	8.46e-01	0	59	104	0	51	13123
2026-01-25 05:51:09.72	352.44	11.95	-40.9	-51.7	3.8	8.46e-01	0	60	104	0	51	13206
2026-01-25 05:51:10.73	352.30	12.02	-41.1	-51.9	3.8	8.47e-01	0	60	104	0	51	13474
2026-01-25 05:51:11.74	352.15	12.08	-41.0	-51.8	3.8	8.45e-01	0	60	104	0	51	13316
2026-01-25 05:51:12.75	352.01	12.14	-41.1	-51.8	3.8	8.46e-01	0	60	104	0	51	13410
2026-01-25 05:51:13.76	351.86	12.20	-41.1	-51.8	3.8	8.46e-01	0	60	104	0	51	13409
2026-01-25 05:51:14.77	351.71	12.27	-40.9	-51.8	3.8	8.46e-01	0	60	104	0	51	13264
2026-01-25 05:51:15.78	351.56	12.33	-41.1	-51.8	3.8	8.46e-01	0	59	104	0	51	13393
2026-01-25 05:51:16.79	351.41	12.39	-41.0	-51.8	3.8	8.46e-01	0	60	104	0	51	13334
2026-01-25 05:51:17.80	351.26	12.45	-41.0	-51.8	3.8	8.45e-01	0	60	104	0	51	13383
2026-01-25 05:51:18.81	351.11	12.52	-41.1	-51.8	3.8	8.46e-01	0	60	104	0	51	13389
2026-01-25 05:51:19.82	350.96	12.58	-41.1	-51.9	3.8	8.47e-01	0	60	104	0	51	13538
2026-01-25 05:51:20.83	350.81	12.64	-40.9	-51.7	3.8	8.45e-01	0	59	104	0	52	12456
2026-01-25 05:51:21.84	350.66	12.70	-41.2	-52.0	3.8	8.45e-01	0	60	104	0	52	12857
2026-01-25 05:51:22.85	350.50	12.76	-41.0	-51.8	3.8	8.46e-01	0	60	104	0	52	12620
2026-01-25 05:51:23.86	350.35	12.83	-41.1	-51.9	3.8	8.46e-01	0	60	104	0	52	12724
2026-01-25 05:51:24.87	350.19	12.89	-41.1	-51.9	3.8	8.46e-01	0	60	104	0	52	12747
2026-01-25 05:51:25.88	350.04	12.95	-41.2	-52.0	3.8	8.46e-01	0	60	104	0	52	12890
2026-01-25 05:51:26.89	349.88	13.01	-40.9	-51.7	3.8	8.45e-01	0	60	104	0	52	12468
2026-01-25 05:51:27.89	349.73	13.07	-41.3	-52.1	3.8	8.47e-01	0	60	104	0	52	13022
2026-01-25 05:51:28.90	349.57	13.14	-41.1	-51.9	3.8	8.46e-01	0	60	104	0	52	12776
2026-01-25 05:51:29.91	349.41	13.20	-41.1	-51.9	3.8	8.46e-01	0	60	104	0	52	12716
2026-01-25 05:51:30.92	349.25	13.26	-41.2	-52.0	3.8	8.48e-01	0	60	104	0	52	12902
2026-01-25 05:51:31.93	349.09	13.32	-41.5	-52.2	3.8	8.46e-01	0	60	104	0	52	13247
2026-01-25 05:51:32.94	348.93	13.38	-41.1	-52.0	3.8	8.46e-01	0	60	104	0	52	12837
2026-01-25 05:51:33.95	348.77	13.44	-41.4	-52.3	3.8	8.46e-01	0	60	104	0	52	13267
2026-01-25 05:51:34.96	348.61	13.51	-41.4	-52.2	3.8	8.45e-01	0	60	104	0	52	13250
2026-01-25 05:51:35.97	348.45	13.57	-41.5	-52.4	3.8	8.46e-01	0	60	104	0	52	13436
2026-01-25 05:51:36.98	348.29	13.63	-41.4	-52.1	3.8	8.46e-01	0	60	104	0	52	13063
2026-01-25 05:51:37.99	348.12	13.69	-41.6	-52.5	3.8	8.47e-01	0	60	104	0	52	13620
2026-01-25 05:51:39.00	347.96	13.75	-41.5	-52.3	3.8	8.47e-01	0	60	104	0	52	13313
2026-01-25 05:51:40.00	347.80	13.81	-41.6	-52.4	3.8	8.47e-01	0	60	104	0	52	13533
2026-01-25 05:51:41.01	347.63	13.87	-41.5	-52.3	3.8	8.45e-01	0	60	104	0	52	13339
2026-01-25 05:51:42.02	347.46	13.93	-41.7	-52.6	3.8	8.46e-01	0	60	104	0	52	13768
2026-01-25 05:51:43.03	347.30	13.99	-41.5	-52.3	3.8	8.46e-01	0	60	104	0	52	13400
2026-01-25 05:51:44.04	347.13	14.05	-41.5	-52.4	3.8	8.46e-01	0	60	104	0	52	13435
2026-01-25 05:51:45.05	346.96	14.11	-41.6	-52.4	3.8	8.46e-01	0	60	104	0	52	13452
2026-01-25 05:51:46.06	346.79	14.18	-41.8	-52.7	3.8	8.47e-01	0	60	104	0	53	13133
2026-01-25 05:51:47.07	346.62	14.24	-41.4	-52.2	3.8	8.46e-01	0	60	104	0	53	12415
2026-01-25 05:51:48.08	346.45	14.30	-41.2	-52.1	3.8	8.47e-01	0	60	104	0	53	12242
2026-01-25 05:51:49.09	346.28	14.36	-41.6	-52.5	3.8	8.47e-01	0	60	104	0	53	12840
2026-01-25 05:51:50.11	346.11	14.42	-41.6	-52.4	3.8	8.46e-01	0	60	104	0	53	12782
2026-01-25 05:51:51.11	345.94	14.48	-41.1	-51.9	3.8	8.47e-01	0	60	104	0	53	12090
2026-01-25 05:51:52.12	345.76	14.54	-41.2	-52.0	3.8	8.46e-01	0	60	104	0	53	12202
2026-01-25 05:51:53.13	345.59	14.60	-41.5	-52.4	3.8	8.46e-01	0	60	104	0	53	12677
2026-01-25 05:51:54.14	345.41	14.66	-41.2	-52.0	3.8	8.45e-01	0	60	104	0	53	12194
2026-01-25 05:51:55.15	345.24	14.71	-41.0	-51.8	3.8	8.46e-01	0	61	104	0	53	11873
2026-01-25 05:51:56.16	345.06	14.77	-41.2	-52.1	3.8	8.46e-01	0	60	104	0	53	12293
2026-01-25 05:51:57.17	344.89	14.83	-41.2	-52.0	3.8	8.46e-01	0	61	104	0	53	12204
2026-01-25 05:51:58.18	344.71	14.89	-41.2	-52.0	3.8	8.46e-01	0	60	104	0	53	12184
2026-01-25 05:51:59.19	344.53	14.95	-41.0	-51.8	3.8	8.46e-01	0	61	104	0	53	11936
2026-01-25 05:52:00.20	344.35	15.01	-41.0	-51.9	3.8	8.47e-01	0	60	104	0	52	12702
2026-01-25 05:52:01.21	344.17	15.07	-41.3	-52.1	3.8	8.46e-01	0	61	104	0	52	13001
2026-01-25 05:52:02.22	343.99	15.13	-41.1	-51.9	3.8	8.46e-01	0	61	104	0	52	12759
2026-01-25 05:52:03.23	343.81	15.19	-40.9	-51.7	3.8	8.46e-01	0	60	104	0	52	12419
2026-01-25 05:52:04.24	343.63	15.24	-41.0	-51.9	3.8	8.47e-01	0	60	104	0	52	12676
2026-01-25 05:52:05.25	343.45	15.30	-41.2	-52.0	3.8	8.46e-01	0	61	104	0	52	12956
2026-01-25 05:52:06.26	343.26	15.36	-40.9	-51.7	3.8	8.46e-01	0	61	104	0	52	12471
2026-01-25 05:52:07.27	343.08	15.42	-40.9	-51.7	3.8	8.46e-01	0	60	104	0	52	12503
2026-01-25 05:52:08.28	342.89	15.48	-41.0	-51.8	3.8	8.45e-01	0	60	104	0	52	12596
2026-01-25 05:52:09.29	342.71	15.53	-41.0	-51.8	3.8	8.45e-01	0	60	104	0	52	12603
2026-01-25 05:52:10.29	342.52	15.59	-40.9	-51.7	3.8	8.46e-01	0	61	104	0	52	12498
2026-01-25 05:52:11.30	342.34	15.65	-40.8	-51.5	3.8	8.45e-01	0	60	104	0	52	12221
2026-01-25 05:52:12.31	342.15	15.70	-40.9	-51.6	3.8	8.47e-01	0	61	104	0	52	12358
2026-01-25 05:52:13.32	341.96	15.76	-41.0	-51.9	3.8	8.47e-01	0	61	104	0	52	12681
2026-01-25 05:52:14.33	341.77	15.82	-40.8	-51.6	3.8	8.45e-01	0	61	104	0	52	12247
2026-01-25 05:52:15.34	341.58	15.87	-40.8	-51.5	3.8	8.46e-01	0	61	104	0	52	12174
2026-01-25 05:52:16.35	341.39	15.93	-41.0	-51.8	3.8	8.46e-01	0	61	104	0	52	12600
2026-01-25 05:52:17.36	341.20	15.99	-40.8	-51.6	3.8	8.46e-01	0	61	104	0	52	12347
2026-01-25 05:52:18.36	341.01	16.04	-40.9	-51.6	3.8	8.46e-01	0	61	104	0	52	12312
2026-01-25 05:52:19.38	340.81	16.10	-41.1	-51.8	3.8	8.47e-01	0	61	104	0	52	12569
2026-01-25 05:52:20.39	340.62	16.15	-41.2	-51.7	3.8	8.45e-01	0	61	104	0	52	12499
2026-01-25 05:52:21.40	340.43	16.21	-40.9	-51.6	3.8	8.46e-01	0	61	104	0	52	12333
2026-01-25 05:52:22.41	340.23	16.26	-41.1	-51.6	3.8	8.46e-01	0	61	104	0	52	12369
2026-01-25 05:52:23.42	340.04	16.32	-41.4	-51.5	3.8	8.47e-01	0	61	104	0	52	12144
2026-01-25 05:52:24.43	339.84	16.37	-41.2	-49.6	4.0	8.45e-01	0	61	104	0	52	9776
2026-01-25 05:52:25.44	339.64	16.43	-41.1	-48.1	4.5	8.29e-01	0	61	0	0	52	8253
2026-01-25 05:52:26.45	339.44	16.48	-40.9	-46.5	5.5	7.50e-01	0	61	0	0	52	6828
2026-01-25 05:52:27.45	339.25	16.53	-40.6	-45.2	6.9	2.05e-01	0	61	0	5242880	52	5859
2026-01-25 05:52:28.46	339.05	16.59	-40.4	-44.3	8.0	8.04e-02	0	61	0	12582912	51	5632
2026-01-25 05:52:29.47	338.85	16.64	-40.5	-44.2	8.4	4.74e-02	0	60	0	19922944	51	5582
2026-01-25 05:52:30.48	338.65	16.69	-40.0	-43.1	9.7	1.72e-02	0	61	0	27262976	51	4889
2026-01-25 05:52:31.49	338.45	16.75	-39.1	-41.6	11.4	1.89e-03	0	61	0	34603008	49	4637
2026-01-25 05:52:32.50	338.24	16.80	-38.2	-40.4	12.7	6.98e-05	0	61	0	41943040	47	4499
2026-01-25 05:52:33.51	338.04	16.85	-37.9	-40.0	13.2	3.89e-05	0	61	0	49283072	46	4576
2026-01-25 05:52:34.52	337.84	16.90	-37.4	-39.3	14.0	1.10e-06	0	61	0	56623104	45	4477
2026-01-25 05:52:35.53	337.63	16.96	-37.6	-39.6	13.9	2.20e-06	0	61	0	63963136	45	4610
2026-01-25 05:52:36.54	337.43	17.01	-37.5	-39.6	14.0	2.20e-06	0	61	0	71303168	45	4610
2026-01-25 05:52:37.55	337.22	17.06	-36.7	-38.5	15.3	0.00e+00	0	61	0	78643200	44	4323
2026-01-25 05:52:38.56	337.02	17.11	-36.6	-38.5	15.4	1.10e-06	0	61	0	85983232	44	4305
2026-01-25 05:52:39.57	336.81	17.16	-36.7	-38.6	15.4	0.00e+00	0	61	0	93323264	44	4358
2026-01-25 05:52:40.58	336.60	17.21	-36.2	-37.9	16.0	0.00e+00	0	61	0	100663296	43	4263
2026-01-25 05:52:41.59	336.39	17.26	-36.3	-38.0	15.9	0.00e+00	0	61	0	108003328	43	4338
2026-01-25 05:52:42.60	336.18	17.31	-36.2	-38.0	16.0	0.00e+00	0	61	0	115343360	43	4307
2026-01-25 05:52:43.61	335.97	17.36	-36.2	-37.9	16.1	0.00e+00	0	61	0	122683392	43	4267
2026-01-25 05:52:44.62	335.76	17.41	-36.1	-37.8	16.2	0.00e+00	0	61	0	130023424	43	4226
2026-01-25 05:52:45.63	335.55	17.46	-36.2	-37.9	16.1	0.00e+00	0	61	0	136314880	43	4264
2026-01-25 05:52:46.64	335.34	17.51	-36.2	-38.0	16.1	0.00e+00	0	61	0	143654912	43	4300
2026-01-25 05:52:47.65	335.12	17.56	-36.0	-37.7	16.4	0.00e+00	0	61	0	152043520	43	4167
2026-01-25 05:52:48.66	334.91	17.61	-36.0	-37.7	16.5	0.00e+00	0	61	0	158334976	43	4163
2026-01-25 05:52:49.67	334.70	17.65	-36.0	-37.7	16.5	0.00e+00	0	61	0	165675008	42	4423
2026-01-25 05:52:50.68	334.48	17.70	-36.0	-37.6	16.5	0.00e+00	0	61	0	173015040	42	4387
2026-01-25 05:52:51.69	334.27	17.75	-36.1	-37.7	16.5	0.00e+00	0	61	0	180355072	42	4441
2026-01-25 05:52:52.70	334.05	17.79	-35.9	-37.6	16.7	0.00e+00	0	61	0	187695104	42	4355
2026-01-25 05:52:53.71	333.83	17.84	-35.9	-37.6	16.7	0.00e+00	0	61	0	195035136	42	4355
2026-01-25 05:52:54.72	333.62	17.89	-35.9	-37.6	16.7	0.00e+00	0	61	0	202375168	42	4344
2026-01-25 05:52:55.73	333.40	17.93	-35.9	-37.6	16.6	0.00e+00	0	61	0	209715200	42	4386
2026-01-25 05:52:56.74	333.18	17.98	-36.0	-37.7	16.6	0.00e+00	0	61	0	217055232	42	4416
2026-01-25 05:52:57.75	332.96	18.02	-36.0	-37.7	16.6	0.00e+00	0	61	0	224395264	42	4429
2026-01-25 05:52:58.76	332.74	18.07	-36.1	-37.7	16.6	0.00e+00	0	61	0	231735296	42	4440
2026-01-25 05:52:59.77	332.52	18.11	-36.1	-37.8	16.5	0.00e+00	0	61	0	239075328	42	4476
2026-01-25 05:53:00.78	332.29	18.16	-36.1	-37.9	16.4	0.00e+00	0	61	0	246415360	42	4514
2026-01-25 05:53:01.79	332.07	18.20	-36.1	-37.8	16.5	0.00e+00	0	61	0	253755392	42	4479
2026-01-25 05:53:02.80	331.85	18.24	-36.0	-37.8	16.6	0.00e+00	0	61	0	261095424	42	4451
2026-01-25 05:53:03.81	331.63	18.29	-36.0	-37.7	16.6	0.00e+00	0	61	0	268435456	42	4423
2026-01-25 05:53:04.81	331.40	18.33	-36.0	-37.7	16.7	0.00e+00	0	61	0	275775488	42	4394
2026-01-25 05:53:05.82	331.18	18.37	-36.0	-37.7	16.7	0.00e+00	0	61	0	282066944	42	4408
2026-01-25 05:53:06.83	330.95	18.41	-36.0	-37.7	16.7	0.00e+00	0	61	0	289406976	42	4412
2026-01-25 05:53:07.84	330.73	18.45	-35.8	-37.5	16.9	0.00e+00	0	61	0	296747008	42	4316
2026-01-25 05:53:08.85	330.50	18.50	-35.8	-37.4	16.9	0.00e+00	0	61	0	304087040	42	4280
2026-01-25 05:53:09.86	330.27	18.54	-35.7	-37.4	17.0	0.00e+00	0	61	0	311427072	42	4252
2026-01-25 05:53:10.88	330.04	18.58	-35.8	-37.4	16.9	0.00e+00	0	61	0	318767104	42	4277
2026-01-25 05:53:11.89	329.81	18.62	-35.8	-37.4	17.0	0.00e+00	0	61	0	326107136	42	4261
2026-01-25 05:53:12.90	329.58	18.66	-35.7	-37.3	17.1	0.00e+00	0	61	0	333447168	42	4222
2026-01-25 05:53:13.91	329.35	18.70	-35.7	-37.3	17.1	0.00e+00	0	61	0	340787200	42	4199
2026-01-25 05:53:14.92	329.12	18.73	-35.7	-37.3	17.1	0.00e+00	0	61	0	348127232	42	4216
2026-01-25 05:53:15.93	328.89	18.77	-35.8	-37.4	17.1	0.00e+00	0	61	0	355467264	42	4247
2026-01-25 05:53:16.94	328.66	18.81	-35.8	-37.3	17.1	0.00e+00	0	61	0	362807296	42	4235
2026-01-25 05:53:17.95	328.43	18.85	-35.7	-37.2	17.2	0.00e+00	0	61	0	370147328	42	4173
2026-01-25 05:53:18.96	328.20	18.88	-35.7	-37.2	17.3	0.00e+00	0	61	0	377487360	42	4154
2026-01-25 05:53:19.96	327.97	18.92	-35.8	-37.2	17.2	0.00e+00	0	61	0	384827392	42	4185
2026-01-25 05:53:20.97	327.73	18.96	-35.7	-37.2	17.3	0.00e+00	0	61	0	392167424	42	4150
2026-01-25 05:53:21.98	327.50	18.99	-35.8	-37.2	17.2	0.00e+00	0	61	0	399507456	42	4177
2026-01-25 05:53:22.99	327.26	19.03	-35.8	-37.2	17.3	0.00e+00	0	61	0	406847488	42	4165
2026-01-25 05:53:24.00	327.03	19.06	-35.8	-37.2	17.3	0.00e+00	0	61	0	414187520	42	4161
2026-01-25 05:53:25.01	326.79	19.10	-35.8	-37.2	17.3	0.00e+00	0	61	0	421527552	42	4160
2026-01-25 05:53:26.02	326.55	19.13	-35.7	-37.1	17.4	0.00e+00	0	61	0	428867584	42	4121
2026-01-25 05:53:27.03	326.32	19.16	-35.8	-37.1	17.4	0.00e+00	0	61	0	435159040	42	4129
2026-01-25 05:53:28.04	326.08	19.20	-35.7	-37.1	17.5	0.00e+00	0	61	0	442499072	42	4105
2026-01-25 05:53:29.05	325.84	19.23	-35.6	-37.0	17.5	0.00e+00	0	61	0	450887680	42	4070
2026-01-25 05:53:30.06	325.60	19.26	-35.7	-37.0	17.5	0.00e+00	0	61	0	457179136	42	4093
2026-01-25 05:53:31.07	325.36	19.29	-35.6	-36.9	17.6	0.00e+00	0	61	0	464519168	42	4045
2026-01-25 05:53:32.08	325.12	19.32	-35.7	-37.1	17.5	0.00e+00	0	61	0	471859200	42	4105
2026-01-25 05:53:33.09	324.88	19.35	-35.7	-37.1	17.5	0.00e+00	0	61	0	479199232	42	4105
2026-01-25 05:53:34.10	324.64	19.38	-35.9	-37.2	17.3	0.00e+00	0	61	0	486539264	42	4186
2026-01-25 05:53:35.11	324.40	19.41	-35.9	-37.3	17.3	0.00e+00	0	61	0	493879296	42	4204
2026-01-25 05:53:36.12	324.16	19.44	-36.0	-37.4	17.2	0.00e+00	0	61	0	501219328	42	4257
2026-01-25 05:53:37.13	323.92	19.47	-36.0	-37.4	17.2	0.00e+00	0	61	0	508559360	42	4252
2026-01-25 05:53:38.14	323.67	19.50	-36.0	-37.3	17.2	0.00e+00	0	61	0	515899392	42	4242
2026-01-25 05:53:39.15	323.43	19.52	-36.0	-37.3	17.3	0.00e+00	0	61	0	523239424	42	4219
2026-01-25 05:53:40.16	323.19	19.55	-36.0	-37.3	17.3	0.00e+00	0	61	0	530579456	42	4213
2026-01-25 05:53:41.17	322.94	19.58	-35.9	-37.2	17.3	0.00e+00	0	61	0	537919488	42	4187
2026-01-25 05:53:42.19	322.70	19.60	-35.9	-37.2	17.4	0.00e+00	0	61	0	545259520	42	4180
2026-01-25 05:53:43.19	322.45	19.63	-36.0	-37.3	17.3	0.00e+00	0	61	0	552599552	42	4204
2026-01-25 05:53:44.20	322.21	19.65	-35.9	-37.2	17.4	0.00e+00	0	61	0	559939584	42	4158
2026-01-25 05:53:45.21	321.96	19.68	-35.9	-37.2	17.4	0.00e+00	0	61	0	567279616	42	4180
2026-01-25 05:53:46.23	321.71	19.70	-35.9	-37.2	17.4	0.00e+00	0	61	0	574619648	42	4170
2026-01-25 05:53:47.23	321.47	19.73	-35.9	-37.2	17.3	0.00e+00	0	61	0	580911104	42	4185
2026-01-25 05:53:48.24	321.22	19.75	-35.8	-37.2	17.3	0.00e+00	0	61	0	588251136	42	4168
2026-01-25 05:53:49.25	320.98	19.77	-35.8	-37.2	17.4	0.00e+00	0	61	0	596639744	42	4165
2026-01-25 05:53:50.26	320.73	19.79	-35.7	-37.1	17.5	0.00e+00	0	61	0	602931200	42	4118
2026-01-25 05:53:51.27	320.48	19.81	-35.8	-37.2	17.4	0.00e+00	0	61	0	610271232	42	4151
2026-01-25 05:53:52.28	320.23	19.83	-35.7	-37.1	17.5	0.00e+00	0	61	0	617611264	42	4117
2026-01-25 05:53:53.29	319.98	19.85	-35.7	-37.1	17.4	0.00e+00	0	61	0	624951296	42	4133
2026-01-25 05:53:54.30	319.74	19.87	-35.8	-37.1	17.4	0.00e+00	0	61	0	632291328	42	4135
2026-01-25 05:53:55.31	319.49	19.89	-35.9	-37.3	17.3	0.00e+00	0	61	0	639631360	42	4213
2026-01-25 05:53:56.32	319.24	19.91	-35.8	-37.2	17.4	0.00e+00	0	61	0	646971392	42	4171
2026-01-25 05:53:57.33	318.99	19.93	-35.7	-37.1	17.4	0.00e+00	0	61	0	654311424	42	4145
2026-01-25 05:53:58.34	318.74	19.95	-35.7	-37.1	17.5	0.00e+00	0	61	0	661651456	42	4106
2026-01-25 05:53:59.35	318.49	19.96	-35.6	-37.0	17.5	0.00e+00	0	61	0	668991488	42	4083
2026-01-25 05:54:00.36	318.24	19.98	-35.4	-36.9	17.6	0.00e+00	0	61	0	676331520	41	4249
2026-01-25 05:54:01.37	317.99	19.99	-35.4	-37.0	17.5	0.00e+00	0	61	0	683671552	41	4315
2026-01-25 05:54:02.38	317.73	20.01	-35.4	-37.0	17.4	0.00e+00	0	61	0	691011584	41	4315
2026-01-25 05:54:03.39	317.48	20.02	-35.5	-37.0	17.5	0.00e+00	0	61	0	698351616	41	4331
2026-01-25 05:54:04.40	317.23	20.04	-35.5	-37.1	17.4	0.00e+00	0	61	0	705691648	41	4341
2026-01-25 05:54:05.41	316.98	20.05	-35.3	-37.0	17.4	0.00e+00	0	61	0	713031680	41	4331
2026-01-25 05:54:06.42	316.73	20.06	-35.4	-37.0	17.4	0.00e+00	0	61	0	720371712	41	4337
2026-01-25 05:54:07.43	316.47	20.08	-35.3	-37.0	17.4	0.00e+00	0	61	0	727711744	41	4318
2026-01-25 05:54:08.44	316.22	20.09	-35.4	-37.1	17.3	0.00e+00	0	61	0	734003200	41	4355
2026-01-25 05:54:09.45	315.97	20.10	-35.5	-37.1	17.3	0.00e+00	0	61	0	742391808	41	4379
2026-01-25 05:54:10.46	315.72	20.11	-35.2	-37.1	17.3	0.00e+00	0	61	0	749731840	41	4347
2026-01-25 05:54:11.47	315.46	20.12	-35.3	-37.1	17.3	0.00e+00	0	61	0	756023296	41	4352
2026-01-25 05:54:12.48	315.21	20.13	-35.5	-37.2	17.3	0.00e+00	0	61	0	763363328	41	4400
2026-01-25 05:54:13.49	314.96	20.14	-35.3	-37.1	17.3	0.00e+00	0	61	0	770703360	41	4344
2026-01-25 05:54:14.50	314.70	20.14	-35.3	-37.0	17.4	0.00e+00	0	61	0	778043392	41	4325
2026-01-25 05:54:15.51	314.45	20.15	-35.1	-36.9	17.4	0.00e+00	0	61	0	785383424	41	4258
2026-01-25 05:54:16.52	314.20	20.16	-35.0	-37.0	17.3	0.00e+00	0	61	0	792723456	41	4294
2026-01-25 05:54:17.53	313.94	20.16	-35.0	-37.0	17.2	0.00e+00	0	61	0	800063488	41	4333
2026-01-25 05:54:18.54	313.69	20.17	-35.0	-37.1	17.2	0.00e+00	0	61	0	807403520	40	4600
2026-01-25 05:54:19.55	313.43	20.18	-35.1	-37.2	17.1	0.00e+00	0	61	0	814743552	40	4657
2026-01-25 05:54:20.56	313.18	20.18	-35.2	-37.1	17.2	0.00e+00	0	61	0	822083584	40	4615
2026-01-25 05:54:21.57	312.92	20.18	-35.4	-37.1	17.2	0.00e+00	0	61	0	829423616	40	4640
2026-01-25 05:54:22.58	312.67	20.19	-35.2	-37.0	17.4	0.00e+00	0	61	0	836763648	40	4563
2026-01-25 05:54:23.59	312.42	20.19	-35.2	-36.9	17.4	0.00e+00	0	61	0	844103680	40	4533
2026-01-25 05:54:24.60	312.16	20.19	-35.3	-37.0	17.3	0.00e+00	0	61	0	851443712	40	4586
2026-01-25 05:54:25.60	311.91	20.19	-35.1	-37.0	17.3	0.00e+00	0	61	0	858783744	40	4554
2026-01-25 05:54:26.61	311.66	20.20	-35.1	-37.0	17.2	0.00e+00	0	61	0	866123776	40	4589
2026-01-25 05:54:27.62	311.40	20.20	-35.1	-37.0	17.3	0.00e+00	0	62	0	873463808	40	4564
2026-01-25 05:54:28.63	311.15	20.20	-35.2	-37.1	17.3	0.00e+00	0	62	0	879755264	40	4626
2026-01-25 05:54:29.64	310.89	20.19	-35.2	-36.9	17.4	0.00e+00	0	61	0	887095296	40	4544
2026-01-25 05:54:30.65	310.64	20.19	-35.1	-36.8	17.5	0.00e+00	0	61	0	895483904	40	4490
2026-01-25 05:54:31.66	310.38	20.19	-35.3	-37.0	17.4	0.00e+00	0	61	0	901775360	40	4559
2026-01-25 05:54:32.67	310.13	20.19	-35.3	-36.9	17.5	0.00e+00	0	61	0	909115392	40	4537
2026-01-25 05:54:33.68	309.87	20.19	-35.2	-36.8	17.6	0.00e+00	0	61	0	916455424	40	4461
2026-01-25 05:54:34.69	309.62	20.18	-35.3	-36.9	17.5	0.00e+00	0	61	0	923795456	40	4513
2026-01-25 05:54:35.70	309.36	20.18	-35.3	-36.9	17.5	0.00e+00	0	61	0	931135488	40	4513
2026-01-25 05:54:36.71	309.11	20.17	-35.4	-37.0	17.5	0.00e+00	0	61	0	938475520	40	4554
2026-01-25 05:54:37.72	308.86	20.17	-35.3	-36.9	17.6	0.00e+00	0	61	0	945815552	40	4514
2026-01-25 05:54:38.73	308.60	20.16	-35.3	-36.9	17.5	0.00e+00	0	61	0	953155584	40	4526
2026-01-25 05:54:39.74	308.35	20.15	-35.3	-36.9	17.5	0.00e+00	0	62	0	960495616	40	4520
2026-01-25 05:54:40.75	308.09	20.15	-35.4	-36.9	17.5	0.00e+00	0	61	0	967835648	40	4539
2026-01-25 05:54:41.76	307.84	20.14	-35.5	-37.1	17.4	0.00e+00	0	61	0	975175680	40	4608
2026-01-25 05:54:42.78	307.58	20.13	-35.4	-37.0	17.4	0.00e+00	0	62	0	982515712	40	4593
2026-01-25 05:54:43.79	307.33	20.12	-35.4	-37.0	17.4	0.00e+00	0	61	0	989855744	40	4571
2026-01-25 05:54:44.80	307.08	20.11	-35.4	-37.0	17.5	0.00e+00	0	62	0	997195776	40	4570
2026-01-25 05:54:45.81	306.82	20.10	-35.4	-37.0	17.5	0.00e+00	0	61	0	1004535808	40	4558
2026-01-25 05:54:46.82	306.57	20.09	-35.4	-36.9	17.5	0.00e+00	0	61	0	1011875840	40	4528
2026-01-25 05:54:47.83	306.32	20.08	-35.3	-36.8	17.6	0.00e+00	0	61	0	1019215872	40	4465
2026-01-25 05:54:48.84	306.07	20.07	-35.3	-36.9	17.6	0.00e+00	0	61	0	1026555904	40	4499
2026-01-25 05:54:49.85	305.81	20.06	-35.3	-36.8	17.6	0.00e+00	0	62	0	1033895936	40	4476
2026-01-25 05:54:50.86	305.56	20.04	-35.3	-36.9	17.5	0.00e+00	0	61	0	1041235968	40	4528
2026-01-25 05:54:51.87	305.31	20.03	-35.3	-37.0	17.5	0.00e+00	0	62	0	1048576000	40	4552
2026-01-25 05:54:52.88	305.06	20.01	-35.4	-37.0	17.4	0.00e+00	0	62	0	1054867456	40	4585
2026-01-25 05:54:53.89	304.81	20.00	-35.4	-37.0	17.4	0.00e+00	0	61	0	1062207488	40	4582
2026-01-25 05:54:54.90	304.55	19.98	-35.4	-37.0	17.4	0.00e+00	0	61	0	1070596096	40	4581
2026-01-25 05:54:55.91	304.30	19.97	-35.4	-37.0	17.4	0.00e+00	0	61	0	1076887552	40	4561
2026-01-25 05:54:56.92	304.05	19.95	-35.4	-37.0	17.4	0.00e+00	0	62	0	1084227584	40	4587
2026-01-25 05:54:57.94	303.80	19.93	-35.3	-37.0	17.4	0.00e+00	0	61	0	1091567616	40	4555
2026-01-25 05:54:58.95	303.55	19.92	-35.3	-36.9	17.5	0.00e+00	0	62	0	1098907648	40	4494
2026-01-25 05:54:59.96	303.30	19.90	-35.1	-36.7	17.7	0.00e+00	0	61	0	1106247680	40	4419
2026-01-25 05:55:00.97	303.05	19.88	-35.3	-36.8	17.6	0.00e+00	0	62	0	1113587712	40	4473
2026-01-25 05:55:01.97	302.80	19.86	-35.2	-36.8	17.6	0.00e+00	0	62	0	1120927744	40	4467
2026-01-25 05:55:02.98	302.55	19.84	-35.4	-37.0	17.4	0.00e+00	0	61	0	1128267776	40	4569
2026-01-25 05:55:03.99	302.31	19.82	-35.4	-37.0	17.4	0.00e+00	0	62	0	1135607808	40	4557
2026-01-25 05:55:05.00	302.06	19.80	-35.5	-37.2	17.3	0.00e+00	0	61	0	1142947840	40	4679
2026-01-25 05:55:06.01	301.81	19.78	-35.5	-37.1	17.2	0.00e+00	0	62	0	1150287872	40	4651
2026-01-25 05:55:07.02	301.56	19.76	-35.4	-37.1	17.3	0.00e+00	0	61	0	1157627904	40	4615
2026-01-25 05:55:08.03	301.31	19.73	-35.5	-37.1	17.3	0.00e+00	0	61	0	1164967936	40	4636
2026-01-25 05:55:09.04	301.07	19.71	-35.4	-37.0	17.4	0.00e+00	0	62	0	1172307968	40	4578
2026-01-25 05:55:10.05	300.82	19.69	-35.3	-36.9	17.5	0.00e+00	0	62	0	1179648000	40	4502
2026-01-25 05:55:11.06	300.57	19.66	-35.3	-36.8	17.5	0.00e+00	0	61	0	1186988032	40	4491
2026-01-25 05:55:12.07	300.33	19.64	-35.4	-37.0	17.4	0.00e+00	0	62	0	1194328064	40	4564
2026-01-25 05:55:13.08	300.08	19.61	-35.4	-36.9	17.5	0.00e+00	0	61	0	1200619520	40	4515
2026-01-25 05:55:14.09	299.84	19.59	-35.4	-36.9	17.5	0.00e+00	0	62	0	1207959552	40	4521
2026-01-25 05:55:15.10	299.59	19.56	-35.5	-37.0	17.5	0.00e+00	0	62	0	1216348160	40	4546
2026-01-25 05:55:16.11	299.35	19.53	-35.5	-37.0	17.4	0.00e+00	0	62	0	1222639616	40	4598
2026-01-25 05:55:17.12	299.11	19.51	-35.5	-37.0	17.5	0.00e+00	0	62	0	1229979648	40	4565
2026-01-25 05:55:18.13	298.86	19.48	-35.5	-37.0	17.4	0.00e+00	0	62	0	1237319680	40	4570
2026-01-25 05:55:19.14	298.62	19.45	-35.5	-37.0	17.5	0.00e+00	0	61	0	1244659712	40	4572
2026-01-25 05:55:20.15	298.38	19.42	-35.5	-37.0	17.5	0.00e+00	0	61	0	1251999744	40	4573
2026-01-25 05:55:21.16	298.14	19.39	-35.5	-37.0	17.5	0.00e+00	0	61	0	1259339776	40	4550
2026-01-25 05:55:22.17	297.89	19.36	-35.4	-36.9	17.6	0.00e+00	0	61	0	1266679808	40	4497
2026-01-25 05:55:23.18	297.65	19.33	-35.5	-36.9	17.6	0.00e+00	0	62	0	1274019840	40	4527
2026-01-25 05:55:24.19	297.41	19.30	-35.5	-36.9	17.6	0.00e+00	0	62	0	1281359872	40	4510
2026-01-25 05:55:25.20	297.17	19.27	-35.6	-36.9	17.6	0.00e+00	0	62	0	1288699904	40	4541
2026-01-25 05:55:26.21	296.93	19.24	-35.7	-37.1	17.5	0.00e+00	0	61	0	1296039936	40	4601
2026-01-25 05:55:27.22	296.69	19.21	-35.7	-37.0	17.4	0.00e+00	0	62	0	1303379968	40	4593
2026-01-25 05:55:28.24	296.45	19.17	-35.7	-37.1	17.4	0.00e+00	0	62	0	1310720000	41	4377
2026-01-25 05:55:29.25	296.22	19.14	-35.7	-37.1	17.4	0.00e+00	0	61	0	1318060032	41	4348
2026-01-25 05:55:30.26	295.98	19.11	-35.7	-37.0	17.5	0.00e+00	0	61	0	1325400064	41	4331
2026-01-25 05:55:31.27	295.74	19.07	-35.7	-37.0	17.4	0.00e+00	0	62	0	1332740096	41	4337
2026-01-25 05:55:32.28	295.50	19.04	-35.7	-37.0	17.5	0.00e+00	0	61	0	1340080128	41	4322
2026-01-25 05:55:33.28	295.27	19.00	-35.6	-37.0	17.5	0.00e+00	0	62	0	1347420160	41	4305
2026-01-25 05:55:34.29	295.04	18.97	-35.6	-37.0	17.5	0.00e+00	0	62	0	1353711616	41	4297
2026-01-25 05:55:35.30	294.80	18.93	-35.8	-37.2	17.4	0.00e+00	0	62	0	1362100224	41	4392
2026-01-25 05:55:36.31	294.57	18.90	-35.9	-37.3	17.2	0.00e+00	0	61	0	1369440256	41	4471
2026-01-25 05:55:37.32	294.33	18.86	-36.1	-37.4	17.1	0.00e+00	0	62	0	1375731712	41	4545
2026-01-25 05:55:38.34	294.10	18.82	-36.2	-37.7	16.9	0.00e+00	0	62	0	1383071744	42	4393
2026-01-25 05:55:39.35	293.86	18.78	-36.3	-37.7	16.9	0.00e+00	0	62	0	1391460352	42	4400
2026-01-25 05:55:40.36	293.63	18.74	-36.3	-37.7	16.9	0.00e+00	0	62	0	1397751808	42	4415
2026-01-25 05:55:41.36	293.40	18.71	-36.2	-37.6	16.9	0.00e+00	0	61	0	1405091840	42	4353
2026-01-25 05:55:42.37	293.17	18.67	-36.2	-37.6	17.0	0.00e+00	0	61	0	1412431872	42	4349
2026-01-25 05:55:43.38	292.94	18.63	-36.3	-37.7	16.9	0.00e+00	0	62	0	1419771904	42	4395
2026-01-25 05:55:44.39	292.71	18.59	-36.1	-37.4	17.1	0.00e+00	0	62	0	1427111936	42	4289
2026-01-25 05:55:45.40	292.48	18.55	-36.1	-37.4	17.1	0.00e+00	0	62	0	1434451968	42	4273
2026-01-25 05:55:46.41	292.26	18.51	-36.0	-37.3	17.2	0.00e+00	0	62	0	1441792000	42	4227
2026-01-25 05:55:47.42	292.03	18.47	-35.9	-37.3	17.3	0.00e+00	0	62	0	1449132032	42	4204
2026-01-25 05:55:48.43	291.80	18.43	-36.0	-37.3	17.2	0.00e+00	0	62	0	1456472064	42	4229
2026-01-25 05:55:49.44	291.57	18.38	-36.0	-37.3	17.2	0.00e+00	0	62	0	1463812096	42	4234
2026-01-25 05:55:50.45	291.35	18.34	-36.1	-37.4	17.1	0.00e+00	0	61	0	1471152128	42	4273
2026-01-25 05:55:51.46	291.12	18.30	-36.2	-37.5	17.0	0.00e+00	0	62	0	1478492160	42	4325
2026-01-25 05:55:52.47	290.90	18.26	-36.2	-37.6	16.9	0.00e+00	0	62	0	1485832192	42	4362
2026-01-25 05:55:53.48	290.68	18.21	-36.2	-37.6	16.9	0.00e+00	0	62	0	1493172224	42	4384
2026-01-25 05:55:54.49	290.45	18.17	-36.2	-37.6	16.9	0.00e+00	0	62	0	1500512256	42	4370
2026-01-25 05:55:55.50	290.23	18.12	-36.2	-37.6	16.9	0.00e+00	0	62	0	1507852288	42	4353
2026-01-25 05:55:56.51	290.01	18.08	-36.1	-37.5	17.0	0.00e+00	0	62	0	1515192320	42	4318
2026-01-25 05:55:57.52	289.79	18.04	-36.2	-37.6	16.8	0.00e+00	0	62	0	1521483776	42	4375
2026-01-25 05:55:58.53	289.57	17.99	-36.2	-37.6	16.9	0.00e+00	0	62	0	1528823808	42	4348
2026-01-25 05:55:59.54	289.34	17.94	-36.3	-37.7	16.8	0.00e+00	0	62	0	1536163840	42	4408
2026-01-25 05:56:00.55	289.13	17.90	-36.3	-37.6	16.8	0.00e+00	0	61	0	1543503872	42	4389
2026-01-25 05:56:01.56	288.91	17.85	-36.2	-37.5	17.0	0.00e+00	0	61	0	1550843904	42	4330
2026-01-25 05:56:02.58	288.69	17.81	-36.1	-37.5	17.0	0.00e+00	0	62	0	1558183936	42	4308
2026-01-25 05:56:03.59	288.47	17.76	-36.1	-37.5	17.0	0.00e+00	0	62	0	1565523968	42	4311
2026-01-25 05:56:04.59	288.25	17.71	-36.3	-37.6	16.9	0.00e+00	0	62	0	1572864000	42	4377
2026-01-25 05:56:05.60	288.04	17.66	-36.3	-37.7	16.8	0.00e+00	0	61	0	1580204032	42	4398
2026-01-25 05:56:06.61	287.82	17.62	-36.3	-37.7	16.8	0.00e+00	0	61	0	1587544064	42	4412
2026-01-25 05:56:07.62	287.61	17.57	-36.2	-37.6	16.9	0.00e+00	0	62	0	1594884096	42	4347
2026-01-25 05:56:08.63	287.39	17.52	-36.3	-37.7	16.8	0.00e+00	0	62	0	1602224128	42	4407
2026-01-25 05:56:09.64	287.18	17.47	-36.3	-37.7	16.8	0.00e+00	0	62	0	1609564160	42	4395
2026-01-25 05:56:10.65	286.97	17.42	-36.4	-37.7	16.7	0.00e+00	0	62	0	1616904192	42	4429
2026-01-25 05:56:11.66	286.76	17.37	-36.4	-37.7	16.7	0.00e+00	0	61	0	1624244224	42	4425
2026-01-25 05:56:12.67	286.55	17.32	-36.4	-37.7	16.7	0.00e+00	0	62	0	1631584256	42	4433
2026-01-25 05:56:13.68	286.34	17.27	-36.2	-37.5	16.9	0.00e+00	0	62	0	1638924288	42	4337
2026-01-25 05:56:14.69	286.13	17.22	-36.2	-37.5	16.9	0.00e+00	0	62	0	1646264320	42	4335
2026-01-25 05:56:15.70	285.92	17.17	-36.3	-37.6	16.8	0.00e+00	0	62	0	1653604352	42	4379
2026-01-25 05:56:16.72	285.71	17.12	-36.3	-37.6	16.8	0.00e+00	0	62	0	1660944384	42	4374
2026-01-25 05:56:17.73	285.50	17.07	-36.3	-37.6	16.8	0.00e+00	0	61	0	1668284416	42	4376
2026-01-25 05:56:18.74	285.29	17.02	-36.3	-37.6	16.8	0.00e+00	0	62	0	1674575872	42	4382
2026-01-25 05:56:19.75	285.09	16.97	-36.3	-37.7	16.7	0.00e+00	0	62	0	1682964480	42	4414
2026-01-25 05:56:20.76	284.88	16.91	-36.4	-37.8	16.7	0.00e+00	0	62	0	1690304512	42	4449
2026-01-25 05:56:21.77	284.68	16.86	-36.4	-37.8	16.7	0.00e+00	0	62	0	1696595968	42	4449
2026-01-25 05:56:22.78	284.47	16.81	-36.5	-37.9	16.6	0.00e+00	0	62	0	1703936000	42	4497
2026-01-25 05:56:23.79	284.27	16.76	-36.4	-37.7	16.7	0.00e+00	0	62	0	1711276032	42	4427
2026-01-25 05:56:24.80	284.07	16.70	-36.3	-37.6	16.8	0.00e+00	0	62	0	1718616064	42	4375
2026-01-25 05:56:25.81	283.86	16.65	-36.3	-37.6	16.8	0.00e+00	0	62	0	1725956096	42	4376
2026-01-25 05:56:26.82	283.66	16.60	-36.3	-37.7	16.8	0.00e+00	0	62	0	1733296128	42	4397
2026-01-25 05:56:27.83	283.46	16.54	-36.2	-37.5	16.8	0.00e+00	0	62	0	1740636160	42	4340
2026-01-25 05:56:28.84	283.26	16.49	-36.3	-37.6	16.8	0.00e+00	0	62	0	1747976192	42	4385
2026-01-25 05:56:29.85	283.06	16.44	-36.3	-37.7	16.7	0.00e+00	0	62	0	1755316224	42	4413
2026-01-25 05:56:30.86	282.86	16.38	-36.4	-37.8	16.6	0.00e+00	0	62	0	1762656256	42	4447
2026-01-25 05:56:31.87	282.67	16.33	-36.5	-37.8	16.5	0.00e+00	0	62	0	1769996288	42	4489
2026-01-25 05:56:32.88	282.47	16.27	-36.5	-37.9	16.4	0.00e+00	0	62	0	1777336320	42	4542
2026-01-25 05:56:33.89	282.27	16.22	-36.6	-38.1	16.3	0.00e+00	0	62	0	1784676352	42	4611
2026-01-25 05:56:34.90	282.08	16.16	-36.7	-38.2	16.2	0.00e+00	0	62	0	1792016384	43	4395
2026-01-25 05:56:35.91	281.88	16.11	-36.8	-38.3	16.1	0.00e+00	0	62	0	1799356416	43	4442
2026-01-25 05:56:36.92	281.69	16.05	-36.8	-38.3	16.1	0.00e+00	0	62	0	1806696448	43	4471
2026-01-25 05:56:37.93	281.50	15.99	-36.9	-38.3	16.0	0.00e+00	0	62	0	1814036480	43	4480
2026-01-25 05:56:38.94	281.30	15.94	-36.9	-38.4	15.9	0.00e+00	0	62	0	1821376512	43	4510
2026-01-25 05:56:39.95	281.11	15.88	-36.8	-38.2	16.1	0.00e+00	0	62	0	1828716544	43	4417
2026-01-25 05:56:40.96	280.92	15.82	-36.8	-38.2	16.1	0.00e+00	0	62	0	1836056576	43	4412
2026-01-25 05:56:41.97	280.73	15.77	-36.7	-38.2	16.1	0.00e+00	0	62	0	1842348032	43	4414
2026-01-25 05:56:42.98	280.54	15.71	-36.8	-38.3	16.0	0.00e+00	0	62	0	1849688064	43	4466
2026-01-25 05:56:44.00	280.35	15.65	-36.7	-38.1	16.2	0.00e+00	0	62	0	1858076672	43	4385
2026-01-25 05:56:45.01	280.16	15.60	-36.7	-38.1	16.2	0.00e+00	0	61	0	1864368128	43	4384
2026-01-25 05:56:46.02	279.97	15.54	-36.7	-38.1	16.2	0.00e+00	0	62	0	1871708160	43	4378
2026-01-25 05:56:47.03	279.79	15.48	-36.7	-38.2	16.2	0.00e+00	0	62	0	1879048192	43	4405
2026-01-25 05:56:48.04	279.60	15.42	-36.7	-38.1	16.2	0.00e+00	0	62	0	1886388224	43	4391
2026-01-25 05:56:49.05	279.42	15.37	-36.7	-38.1	16.2	0.00e+00	0	62	0	1893728256	43	4375
2026-01-25 05:56:50.06	279.23	15.31	-36.8	-38.3	16.0	0.00e+00	0	62	0	1901068288	43	4448
2026-01-25 05:56:51.07	279.05	15.25	-36.9	-38.3	16.0	0.00e+00	0	62	0	1908408320	43	4474
2026-01-25 05:56:52.08	278.87	15.19	-36.9	-38.4	15.9	0.00e+00	0	62	0	1915748352	43	4507
2026-01-25 05:56:53.09	278.68	15.13	-37.0	-38.5	15.8	0.00e+00	0	62	0	1923088384	43	4598
2026-01-25 05:56:54.10	278.50	15.07	-37.0	-38.4	15.8	0.00e+00	0	62	0	1930428416	43	4539
2026-01-25 05:56:55.11	278.32	15.01	-37.0	-38.5	15.8	0.00e+00	0	62	0	1937768448	43	4573
2026-01-25 05:56:56.12	278.14	14.96	-37.0	-38.5	15.8	0.00e+00	0	62	0	1945108480	43	4571
2026-01-25 05:56:57.13	277.96	14.90	-37.0	-38.5	15.8	0.00e+00	0	62	0	1952448512	43	4554
2026-01-25 05:56:58.14	277.78	14.84	-36.9	-38.3	15.9	0.00e+00	0	62	0	1959788544	43	4488
2026-01-25 05:56:59.15	277.60	14.78	-36.9	-38.4	15.9	0.00e+00	0	62	0	1967128576	43	4526
2026-01-25 05:57:00.16	277.43	14.72	-36.9	-38.4	15.9	0.00e+00	0	62	0	1974468608	43	4514
2026-01-25 05:57:01.17	277.25	14.66	-36.8	-38.3	16.0	0.00e+00	0	62	0	1981808640	43	4458
2026-01-25 05:57:02.18	277.07	14.60	-36.9	-38.4	15.9	0.00e+00	0	62	0	1989148672	43	4514
2026-01-25 05:57:03.19	276.90	14.54	-37.0	-38.5	15.8	0.00e+00	0	62	0	1995440128	43	4562
2026-01-25 05:57:04.20	276.72	14.48	-37.0	-38.5	15.8	0.00e+00	0	62	0	2003828736	43	4565
2026-01-25 05:57:05.21	276.55	14.42	-36.9	-38.3	15.9	0.00e+00	0	62	0	2011168768	43	4491
2026-01-25 05:57:06.23	276.38	14.36	-36.9	-38.4	15.9	0.00e+00	0	62	0	2017460224	43	4503
2026-01-25 05:57:07.24	276.20	14.30	-36.9	-38.4	15.8	0.00e+00	0	62	0	2024800256	43	4539
2026-01-25 05:57:08.25	276.03	14.24	-36.9	-38.4	15.9	0.00e+00	0	62	0	2033188864	43	4501
2026-01-25 05:57:09.26	275.86	14.18	-36.9	-38.4	15.8	0.00e+00	0	62	0	2039480320	43	4498
2026-01-25 05:57:10.27	275.69	14.12	-37.0	-38.5	15.7	0.00e+00	0	62	0	2046820352	43	4567
2026-01-25 05:57:11.28	275.52	14.05	-37.0	-38.5	15.7	0.00e+00	0	62	0	2054160384	43	4558
2026-01-25 05:57:12.29	275.35	13.99	-36.9	-38.4	15.8	0.00e+00	0	62	0	2061500416	43	4510
2026-01-25 05:57:13.30	275.18	13.93	-37.0	-38.5	15.7	0.00e+00	0	62	0	2068840448	43	4578
2026-01-25 05:57:14.31	275.02	13.87	-36.9	-38.4	15.8	0.00e+00	0	62	0	2076180480	43	4511
2026-01-25 05:57:15.31	274.85	13.81	-36.9	-38.5	15.7	0.00e+00	0	62	0	2083520512	43	4546
2026-01-25 05:57:16.33	274.68	13.75	-37.0	-38.5	15.7	0.00e+00	0	62	0	2090860544	43	4554
2026-01-25 05:57:17.34	274.52	13.69	-37.1	-38.6	15.6	0.00e+00	0	62	0	2098200576	43	4632
2026-01-25 05:57:18.34	274.36	13.63	-37.1	-38.6	15.5	0.00e+00	0	62	0	2105540608	43	4635
2026-01-25 05:57:19.35	274.19	13.57	-37.1	-38.6	15.6	0.00e+00	0	62	0	2112880640	43	4628
2026-01-25 05:57:20.36	274.03	13.50	-37.1	-38.6	15.6	0.00e+00	0	62	0	2120220672	43	4622
2026-01-25 05:57:21.37	273.87	13.44	-37.3	-38.8	15.4	0.00e+00	0	62	0	2127560704	44	4487
2026-01-25 05:57:22.38	273.70	13.38	-37.4	-38.9	15.4	0.00e+00	0	62	0	2134900736	44	4537
2026-01-25 05:57:23.39	273.54	13.32	-37.3	-38.9	15.4	0.00e+00	0	62	0	2142240768	44	4499
2026-01-25 05:57:24.40	273.38	13.26	-37.3	-38.9	15.4	0.00e+00	0	62	0	2149580800	44	4519
2026-01-25 05:57:25.41	273.22	13.20	-37.3	-38.9	15.4	0.00e+00	0	62	0	2156920832	44	4530
2026-01-25 05:57:26.42	273.06	13.13	-37.5	-39.1	15.2	0.00e+00	0	62	0	2163212288	44	4610
2026-01-25 05:57:27.43	272.91	13.07	-37.5	-39.1	15.2	0.00e+00	0	62	0	2170552320	44	4619
2026-01-25 05:57:28.44	272.75	13.01	-37.6	-39.2	15.1	0.00e+00	0	62	0	2177892352	44	4678
2026-01-25 05:57:29.45	272.59	12.95	-37.6	-39.2	15.0	0.00e+00	0	62	0	2185232384	44	4705
2026-01-25 05:57:30.46	272.43	12.89	-37.6	-39.3	14.9	0.00e+00	0	62	0	2192572416	44	4732
2026-01-25 05:57:31.47	272.28	12.82	-37.6	-39.2	15.0	0.00e+00	0	62	0	2199912448	44	4680
2026-01-25 05:57:32.48	272.12	12.76	-37.6	-39.3	15.0	0.00e+00	0	62	0	2207252480	44	4725
2026-01-25 05:57:33.49	271.97	12.70	-37.7	-39.4	14.9	0.00e+00	0	62	0	2214592512	44	4774
2026-01-25 05:57:34.50	271.81	12.64	-37.8	-39.5	14.7	0.00e+00	0	62	0	2221932544	45	4563
2026-01-25 05:57:35.51	271.66	12.57	-37.7	-39.4	14.8	0.00e+00	0	62	0	2229272576	45	4533
2026-01-25 05:57:36.52	271.51	12.51	-37.7	-39.4	14.8	0.00e+00	0	62	0	2236612608	45	4513
2026-01-25 05:57:37.53	271.36	12.45	-37.7	-39.4	14.8	0.00e+00	0	62	0	2243952640	45	4513
2026-01-25 05:57:38.54	271.21	12.39	-37.6	-39.3	14.9	0.00e+00	0	62	0	2251292672	45	4467
2026-01-25 05:57:39.55	271.05	12.32	-37.5	-39.2	15.0	0.00e+00	0	62	0	2258632704	45	4398
2026-01-25 05:57:40.56	270.90	12.26	-37.5	-39.1	15.1	0.00e+00	0	62	0	2265972736	45	4353
2026-01-25 05:57:41.57	270.76	12.20	-37.4	-39.0	15.2	0.00e+00	0	62	0	2273312768	45	4294
2026-01-25 05:57:42.58	270.61	12.14	-37.3	-38.9	15.3	0.00e+00	0	62	0	2280652800	45	4258
2026-01-25 05:57:43.59	270.46	12.07	-37.5	-39.1	15.1	0.00e+00	0	62	0	2287992832	45	4343
2026-01-25 05:57:44.60	270.31	12.01	-37.4	-39.0	15.2	0.00e+00	0	62	0	2295332864	45	4305
2026-01-25 05:57:45.60	270.17	11.95	-37.4	-39.1	15.1	0.00e+00	0	62	0	2302672896	45	4344
2026-01-25 05:57:46.61	270.02	11.89	-37.5	-39.1	15.0	0.00e+00	0	62	0	2310012928	45	4386
2026-01-25 05:57:47.62	269.87	11.82	-37.6	-39.3	14.8	0.00e+00	0	62	0	2316304384	45	4451
2026-01-25 05:57:48.63	269.73	11.76	-37.7	-39.4	14.7	0.00e+00	0	62	0	2323644416	45	4497
2026-01-25 05:57:49.64	269.59	11.70	-37.8	-39.5	14.6	0.00e+00	0	62	0	2330984448	45	4584
2026-01-25 05:57:50.65	269.44	11.63	-37.8	-39.6	14.5	2.20e-06	0	62	0	2338324480	45	4606
2026-01-25 05:57:51.66	269.30	11.57	-37.8	-39.6	14.5	0.00e+00	0	62	0	2345664512	45	4612
2026-01-25 05:57:52.67	269.16	11.51	-37.8	-39.6	14.4	2.20e-06	0	62	0	2353004544	45	4632
2026-01-25 05:57:53.68	269.02	11.45	-37.9	-39.6	14.4	0.00e+00	0	62	0	2360344576	45	4632
2026-01-25 05:57:54.69	268.87	11.38	-37.8	-39.6	14.4	0.00e+00	0	62	0	2367684608	45	4608
2026-01-25 05:57:55.70	268.73	11.32	-37.9	-39.6	14.4	0.00e+00	0	62	0	2375024640	45	4632
2026-01-25 05:57:56.71	268.59	11.26	-37.9	-39.7	14.4	1.10e-06	0	62	0	2382364672	45	4658
2026-01-25 05:57:57.72	268.45	11.19	-37.8	-39.6	14.4	1.10e-06	0	62	0	2389704704	45	4610
2026-01-25 05:57:58.73	268.32	11.13	-37.9	-39.6	14.3	0.00e+00	0	62	0	2397044736	45	4639
2026-01-25 05:57:59.74	268.18	11.07	-37.7	-39.5	14.4	1.10e-06	0	62	0	2404384768	45	4554
2026-01-25 05:58:00.75	268.04	11.01	-37.7	-39.4	14.5	0.00e+00	0	62	0	2411724800	45	4514
2026-01-25 05:58:01.76	267.90	10.94	-37.6	-39.3	14.6	0.00e+00	0	62	0	2419064832	45	4459
2026-01-25 05:58:02.77	267.77	10.88	-37.5	-39.2	14.7	0.00e+00	0	62	0	2426404864	45	4412
2026-01-25 05:58:03.78	267.63	10.82	-37.6	-39.4	14.5	0.00e+00	0	62	0	2433744896	45	4505
2026-01-25 05:58:04.79	267.50	10.75	-37.6	-39.3	14.5	0.00e+00	0	62	0	2441084928	45	4473
2026-01-25 05:58:05.80	267.36	10.69	-37.6	-39.4	14.4	0.00e+00	0	62	0	2448424960	45	4503
2026-01-25 05:58:06.81	267.23	10.63	-37.5	-39.3	14.5	0.00e+00	0	62	0	2455764992	45	4449
2026-01-25 05:58:07.82	267.09	10.57	-37.5	-39.2	14.6	2.20e-06	0	62	0	2463105024	45	4416
2026-01-25 05:58:08.83	266.96	10.50	-37.6	-39.3	14.5	0.00e+00	0	62	0	2469396480	45	4468
2026-01-25 05:58:09.84	266.83	10.44	-37.6	-39.3	14.4	0.00e+00	0	62	0	2476736512	45	4479
2026-01-25 05:58:10.85	266.70	10.38	-37.6	-39.3	14.4	0.00e+00	0	62	0	2484076544	45	4474
2026-01-25 05:58:11.86	266.57	10.31	-37.6	-39.3	14.4	0.00e+00	0	62	0	2491416576	45	4478
2026-01-25 05:58:12.87	266.44	10.25	-37.5	-39.3	14.4	1.10e-06	0	62	0	2498756608	45	4461
2026-01-25 05:58:13.88	266.31	10.19	-37.7	-39.5	14.2	1.10e-06	0	62	0	2506096640	45	4555
2026-01-25 05:58:14.89	266.18	10.13	-37.7	-39.5	14.1	3.40e-06	0	62	0	2513436672	45	4592
2026-01-25 05:58:15.90	266.05	10.06	-37.8	-39.7	13.9	4.50e-06	0	62	0	2520776704	45	4673
2026-01-25 05:58:16.91	265.92	10.00	-37.9	-39.7	13.8	1.10e-06	0	62	0	2528116736	45	4705
2026-01-25 05:58:17.92	265.79	9.94	-38.0	-40.0	13.6	3.40e-06	0	62	0	2535456768	45	4817
2026-01-25 05:58:18.94	265.66	9.87	-38.0	-39.9	13.6	9.10e-06	0	62	0	2542796800	45	4792
2026-01-25 05:58:19.95	265.54	9.81	-38.0	-39.9	13.6	4.50e-06	0	62	0	2550136832	45	4807
2026-01-25 05:58:20.96	265.41	9.75	-38.0	-40.0	13.6	1.14e-05	0	62	0	2557476864	45	4818
2026-01-25 05:58:21.97	265.29	9.69	-38.0	-40.0	13.6	8.00e-06	0	62	0	2564816896	45	4817
2026-01-25 05:58:22.98	265.16	9.62	-38.0	-40.0	13.6	8.00e-06	0	62	0	2572156928	45	4815
2026-01-25 05:58:23.99	265.04	9.56	-37.9	-39.9	13.6	8.00e-06	0	62	0	2579496960	45	4772
2026-01-25 05:58:25.00	264.91	9.50	-38.0	-39.9	13.6	5.70e-06	0	62	0	2586836992	45	4785
2026-01-25 05:58:26.01	264.79	9.44	-38.0	-39.9	13.5	5.70e-06	0	62	0	2594177024	45	4801
2026-01-25 05:58:27.02	264.67	9.37	-38.0	-40.0	13.5	9.10e-06	0	62	0	2601517056	45	4816
2026-01-25 05:58:28.03	264.54	9.31	-38.0	-39.9	13.5	8.00e-06	0	62	0	2608857088	45	4801
2026-01-25 05:58:29.04	264.42	9.25	-37.9	-39.9	13.6	3.40e-06	0	62	0	2615148544	45	4780
2026-01-25 05:58:30.05	264.30	9.19	-38.1	-40.1	13.4	9.10e-06	0	62	0	2623537152	45	4878
2026-01-25 05:58:31.05	264.18	9.13	-38.1	-40.1	13.2	1.60e-05	0	62	0	2630877184	45	4921
2026-01-25 05:58:32.06	264.06	9.06	-38.3	-40.3	13.1	2.86e-05	0	62	0	2637168640	46	4745
2026-01-25 05:58:33.07	263.94	9.00	-38.3	-40.4	12.9	3.89e-05	0	62	0	2644508672	46	4801
2026-01-25 05:58:34.08	263.82	8.94	-38.4	-40.5	12.8	6.40e-05	0	62	0	2651848704	46	4865
2026-01-25 05:58:35.09	263.70	8.88	-38.4	-40.5	12.8	5.95e-05	0	62	0	2659188736	46	4839
2026-01-25 05:58:36.10	263.59	8.81	-38.4	-40.5	12.7	4.69e-05	0	62	0	2666528768	46	4858
2026-01-25 05:58:37.11	263.47	8.75	-38.4	-40.6	12.5	9.26e-05	0	62	0	2673868800	46	4918
2026-01-25 05:58:38.12	263.35	8.69	-38.4	-40.5	12.7	6.40e-05	0	62	0	2681208832	46	4850
2026-01-25 05:58:39.13	263.24	8.63	-38.3	-40.4	12.8	5.14e-05	0	62	0	2688548864	46	4801
2026-01-25 05:58:40.14	263.12	8.57	-38.2	-40.3	12.9	4.23e-05	0	62	0	2695888896	46	4754
2026-01-25 05:58:41.15	263.00	8.50	-38.3	-40.3	12.9	4.23e-05	0	62	0	2703228928	46	4749
2026-01-25 05:58:42.16	262.89	8.44	-38.2	-40.2	13.0	4.23e-05	0	62	0	2710568960	46	4699
2026-01-25 05:58:43.17	262.77	8.38	-38.1	-40.1	13.1	2.51e-05	0	62	0	2717908992	46	4623
2026-01-25 05:58:44.18	262.66	8.32	-38.1	-40.1	13.2	1.14e-05	0	62	0	2725249024	46	4605
2026-01-25 05:58:45.19	262.55	8.26	-38.0	-39.9	13.5	1.02e-05	0	62	0	2732589056	46	4512
2026-01-25 05:58:46.20	262.43	8.20	-38.0	-40.0	13.4	6.80e-06	0	62	0	2739929088	46	4552
2026-01-25 05:58:47.21	262.32	8.13	-38.1	-40.0	13.4	1.02e-05	0	62	0	2747269120	46	4590
2026-01-25 05:58:48.22	262.21	8.07	-38.0	-40.0	13.4	9.10e-06	0	62	0	2754609152	46	4573
2026-01-25 05:58:49.23	262.10	8.01	-38.1	-40.1	13.3	6.80e-06	0	62	0	2761949184	46	4638
2026-01-25 05:58:50.24	261.99	7.95	-44.6	-54.9	3.8	8.42e-01	0	62	104	2765094912	58	12709
2026-01-25 05:58:51.25	261.88	7.89	-45.1	-56.1	3.8	8.46e-01	0	62	104	2765094912	59	13836
2026-01-25 05:58:52.26	261.77	7.83	-45.2	-56.5	3.8	8.46e-01	0	62	104	2765094912	60	13719
2026-01-25 05:58:53.27	261.66	7.76	-45.3	-56.7	3.8	8.45e-01	0	62	104	2765094912	60	13993
2026-01-25 05:58:54.28	261.55	7.70	-45.4	-56.8	3.8	8.46e-01	0	62	104	2765094912	60	14161
2026-01-25 05:58:55.29	261.44	7.64	-45.5	-56.9	3.8	8.46e-01	0	62	104	2765094912	60	14257
2026-01-25 05:58:56.30	261.33	7.58	-45.5	-56.9	3.8	8.46e-01	0	62	104	2765094912	60	14239
2026-01-25 05:58:57.31	261.22	7.52	-45.5	-56.9	3.8	8.46e-01	0	62	104	2765094912	60	14239
2026-01-25 05:58:58.32	261.12	7.46	-45.4	-56.8	3.8	8.46e-01	0	62	104	2765094912	60	14131
2026-01-25 05:58:59.33	261.01	7.40	-45.4	-56.7	3.8	8.45e-01	0	62	104	2765094912	60	14017
2026-01-25 05:59:00.35	260.90	7.34	-45.4	-56.7	3.8	8.47e-01	0	62	104	2765094912	60	14017
2026-01-25 05:59:01.35	260.80	7.28	-45.4	-56.8	3.8	8.44e-01	0	62	104	2765094912	60	14061
2026-01-25 05:59:02.36	260.69	7.21	-45.4	-56.7	3.8	8.47e-01	0	62	104	2765094912	60	14042
2026-01-25 05:59:03.37	260.59	7.15	-45.4	-56.8	3.8	8.46e-01	0	62	104	2765094912	60	14081
2026-01-25 05:59:04.38	260.48	7.09	-45.4	-56.8	3.8	8.46e-01	0	62	104	2765094912	60	14158
2026-01-25 05:59:05.40	260.38	7.03	-45.5	-56.9	3.8	8.46e-01	0	62	104	2765094912	60	14234
2026-01-25 05:59:06.41	260.27	6.97	-45.5	-56.9	3.8	8.47e-01	0	62	104	2765094912	60	14220
2026-01-25 05:59:07.42	260.17	6.91	-45.5	-56.9	3.8	8.45e-01	0	62	104	2765094912	60	14253
2026-01-25 05:59:08.43	260.07	6.85	-45.5	-56.9	3.8	8.45e-01	0	62	104	2765094912	60	14288
2026-01-25 05:59:09.44	259.96	6.79	-45.4	-56.8	3.8	8.46e-01	0	62	104	2765094912	60	14170
2026-01-25 05:59:10.45	259.86	6.73	-45.4	-56.8	3.8	8.47e-01	0	62	104	2765094912	60	14112
2026-01-25 05:59:11.46	259.76	6.67	-45.4	-56.8	3.8	8.46e-01	0	62	104	2765094912	60	14153
2026-01-25 05:59:12.47	259.66	6.61	-45.5	-56.9	3.8	8.47e-01	0	62	104	2765094912	60	14237
2026-01-25 05:59:13.48	259.56	6.55	-45.4	-56.8	3.8	8.47e-01	0	62	104	2765094912	60	14048
2026-01-25 05:59:14.49	259.46	6.49	-45.4	-56.8	3.8	8.46e-01	0	62	104	2765094912	60	14083
2026-01-25 05:59:15.50	259.36	6.43	-45.4	-56.8	3.8	8.45e-01	0	62	104	2765094912	60	14099
2026-01-25 05:59:16.51	259.26	6.37	-45.4	-56.8	3.8	8.46e-01	0	62	104	2765094912	60	14128
2026-01-25 05:59:17.52	259.16	6.31	-45.4	-56.8	3.8	8.46e-01	0	62	104	2765094912	60	14047
2026-01-25 05:59:18.53	259.06	6.25	-45.4	-56.8	3.8	8.46e-01	0	62	104	2765094912	60	14088
2026-01-25 05:59:19.54	258.96	6.19	-45.4	-56.8	3.8	8.47e-01	0	62	104	2765094912	60	14094
2026-01-25 05:59:20.55	258.86	6.13	-45.4	-56.8	3.8	8.46e-01	0	62	104	2765094912	60	14092
2026-01-25 05:59:21.56	258.77	6.07	-45.4	-56.8	3.8	8.47e-01	0	62	104	2765094912	60	14094
2026-01-25 05:59:22.56	258.67	6.01	-45.4	-56.7	3.8	8.46e-01	0	62	104	2765094912	60	13987
2026-01-25 05:59:23.58	258.57	5.95	-45.4	-56.8	3.8	8.45e-01	0	62	104	2765094912	60	14059
2026-01-25 05:59:24.59	258.48	5.89	-45.4	-56.7	3.8	8.46e-01	0	62	104	2765094912	60	14036
2026-01-25 05:59:25.59	258.38	5.83	-45.4	-56.7	3.8	8.45e-01	0	62	104	2765094912	60	14002
2026-01-25 05:59:26.60	258.29	5.77	-45.4	-56.7	3.8	8.46e-01	0	62	104	2765094912	60	13978
2026-01-25 05:59:27.61	258.19	5.71	-45.4	-56.8	3.8	8.47e-01	0	62	104	2765094912	60	14060
2026-01-25 05:59:28.63	258.10	5.65	-45.4	-56.7	3.8	8.45e-01	0	62	104	2765094912	60	14041
2026-01-25 05:59:29.64	258.00	5.59	-45.4	-56.7	3.8	8.46e-01	0	62	104	2765094912	60	14020
2026-01-25 05:59:30.65	257.91	5.53	-45.4	-56.8	3.8	8.46e-01	0	62	104	2765094912	60	14081
2026-01-25 05:59:31.66	257.82	5.47	-45.3	-56.7	3.8	8.45e-01	0	62	104	2765094912	60	13998
2026-01-25 05:59:32.67	257.72	5.41	-45.4	-56.7	3.8	8.47e-01	0	62	104	2765094912	60	13950
2026-01-25 05:59:33.68	257.63	5.36	-45.4	-56.7	3.8	8.46e-01	0	62	104	2765094912	60	14022
2026-01-25 05:59:34.69	257.54	5.30	-45.4	-56.7	3.8	8.47e-01	0	62	104	2765094912	60	14039
2026-01-25 05:59:35.70	257.45	5.24	-45.4	-56.7	3.8	8.45e-01	0	62	104	2765094912	60	14030
2026-01-25 05:59:36.71	257.35	5.18	-45.4	-56.7	3.8	8.47e-01	0	62	104	2765094912	60	14010
2026-01-25 05:59:37.72	257.26	5.12	-45.4	-56.7	3.8	8.45e-01	0	62	104	2765094912	60	14046
2026-01-25 05:59:38.73	257.17	5.06	-45.4	-56.7	3.8	8.45e-01	0	62	104	2765094912	60	14038
2026-01-25 05:59:39.74	257.08	5.00	-45.4	-56.7	3.8	8.46e-01	0	62	104	2765094912	60	13949
2026-01-25 05:59:40.75	256.99	4.94	-45.4	-56.7	3.8	8.46e-01	0	62	104	2765094912	60	14000
2026-01-25 05:59:41.76	256.90	4.88	-45.4	-56.7	3.8	8.46e-01	0	62	104	2765094912	60	13965
2026-01-25 05:59:42.77	256.81	4.83	-45.4	-56.7	3.8	8.47e-01	0	62	104	2765094912	60	14030
2026-01-25 05:59:43.78	256.72	4.77	-45.4	-56.7	3.8	8.46e-01	0	62	104	2765094912	60	14035
2026-01-25 05:59:44.80	256.64	4.71	-45.4	-56.7	3.8	8.46e-01	0	62	104	2765094912	60	13961
2026-01-25 05:59:45.81	256.55	4.65	-45.4	-56.7	3.8	8.46e-01	0	62	104	2765094912	60	14008
2026-01-25 05:59:46.82	256.46	4.59	-45.4	-56.7	3.8	8.46e-01	0	62	104	2765094912	60	14026
2026-01-25 05:59:47.83	256.37	4.53	-45.4	-56.7	3.8	8.47e-01	0	62	104	2765094912	60	13974
2026-01-25 05:59:48.84	256.29	4.48	-45.4	-56.7	3.8	8.46e-01	0	62	104	2765094912	60	14006
2026-01-25 05:59:49.85	256.20	4.42	-45.4	-56.7	3.8	8.45e-01	0	62	104	2765094912	60	13966
2026-01-25 05:59:50.86	256.11	4.36	-45.4	-56.7	3.8	8.46e-01	0	62	104	2765094912	60	13972
2026-01-25 05:59:51.87	256.03	4.30	-45.3	-56.7	3.8	8.46e-01	0	62	104	2765094912	60	13986
2026-01-25 05:59:52.88	255.94	4.24	-45.4	-56.7	3.8	8.46e-01	0	62	104	2765094912	60	13977
2026-01-25 05:59:53.89	255.86	4.19	-45.4	-56.7	3.8	8.45e-01	0	62	104	2765094912	60	14035
2026-01-25 05:59:54.90	255.77	4.13	-45.4	-56.7	3.8	8.46e-01	0	62	104	2765094912	60	14024
2026-01-25 05:59:55.91	255.69	4.07	-45.4	-56.8	3.8	8.46e-01	0	62	104	2765094912	60	14070
2026-01-25 05:59:56.92	255.60	4.01	-45.4	-56.7	3.8	8.45e-01	0	62	104	2765094912	60	13980
2026-01-25 05:59:57.93	255.52	3.96	-45.4	-56.7	3.8	8.44e-01	0	62	104	2765094912	60	14036
2026-01-25 05:59:58.94	255.43	3.90	-45.3	-56.7	3.8	8.47e-01	0	62	104	2765094912	60	14005
2026-01-25 05:59:59.96	255.35	3.84	-45.4	-56.7	3.8	8.47e-01	0	62	104	2765094912	60	14020
2026-01-25 06:00:00.97	255.27	3.78	-45.4	-56.7	3.8	8.47e-01	0	62	104	2765094912	60	14046
2026-01-25 06:00:01.97	255.19	3.73	-45.4	-56.7	3.8	8.45e-01	0	62	104	2765094912	60	13984
2026-01-25 06:00:02.98	255.10	3.67	-45.4	-56.7	3.8	8.46e-01	0	62	104	2765094912	60	13998
2026-01-25 06:00:04.00	255.02	3.61	-45.4	-56.8	3.8	8.46e-01	0	62	104	2765094912	60	14072
2026-01-25 06:00:05.01	254.94	3.55	-45.4	-56.8	3.8	8.47e-01	0	62	104	2765094912	60	14052
2026-01-25 06:00:06.02	254.86	3.50	-45.4	-56.7	3.8	8.46e-01	0	62	104	2765094912	60	13985
2026-01-25 06:00:07.03	254.78	3.44	-45.4	-56.7	3.8	8.46e-01	0	62	104	2765094912	60	13989
2026-01-25 06:00:08.04	254.70	3.38	-45.4	-56.7	3.8	8.46e-01	0	62	104	2765094912	60	13991
2026-01-25 06:00:09.05	254.62	3.33	-45.3	-56.7	3.8	8.46e-01	0	62	104	2765094912	60	13954
