passes_logs/2026/01/25/R2.0S_Moscow/R2.0S_Moscow__20260125_191347_FENGYUN_3G_rec.log

#Pass ID: 20260125_191347_FENGYUN 3G
#Satellite: FENGYUN 3G
#Configuration: FENGYUN 3G
#almurnet v.1.7.20251203
#Start time: 2026-01-25 19:13:46

#Version: 2.2.20231116
#Station: R2.0S_Moscow
#Location: 37.707566 lon 55.798166 lat
#TLE: 1 56232U 23055A   26025.14527328  .00046082  00000+0  69370-3 0  9997
#TLE: 2 56232  49.9948   3.5622 0004071  80.7231 279.4197 15.54300718157774

#Time	Az	El	Level	Level2	SNR	BER	BlckErr	Temp	State	Recorded	gain1	gain2
2026-01-25 19:13:46.88	253.19	1.99	-44.2	-62.4	3.8	8.46e-01	0	52	0	0	60	28480
2026-01-25 19:13:47.89	253.12	2.06	-44.2	-62.4	3.8	8.44e-01	0	52	104	0	60	28451
2026-01-25 19:13:48.90	253.06	2.13	-44.2	-62.4	3.8	8.47e-01	0	52	104	0	60	28391
2026-01-25 19:13:49.91	253.00	2.19	-44.2	-62.4	3.8	8.46e-01	0	52	104	0	60	28363
2026-01-25 19:13:50.92	252.94	2.26	-44.2	-62.4	3.8	8.46e-01	0	52	104	0	60	28496
2026-01-25 19:13:51.93	252.87	2.33	-44.2	-62.4	3.8	8.45e-01	0	52	104	0	60	28400
2026-01-25 19:13:52.95	252.81	2.40	-44.2	-62.4	3.8	8.46e-01	0	52	104	0	60	28401
2026-01-25 19:13:53.95	252.74	2.46	-44.2	-62.3	3.8	8.46e-01	0	53	104	0	60	28273
2026-01-25 19:13:54.96	252.68	2.53	-44.2	-62.3	3.8	8.46e-01	0	52	104	0	60	28300
2026-01-25 19:13:55.98	252.61	2.60	-44.2	-62.3	3.8	8.46e-01	0	52	104	0	60	28296
2026-01-25 19:13:56.99	252.55	2.67	-44.2	-62.3	3.8	8.46e-01	0	53	104	0	60	28287
2026-01-25 19:13:58.00	252.48	2.73	-44.2	-62.3	3.8	8.46e-01	0	53	104	0	60	28278
2026-01-25 19:13:59.01	252.41	2.80	-44.2	-62.3	3.8	8.46e-01	0	53	104	0	60	28229
2026-01-25 19:14:00.02	252.35	2.87	-44.2	-62.3	3.8	8.46e-01	0	53	104	0	60	28048
2026-01-25 19:14:01.03	252.28	2.94	-44.2	-62.2	3.8	8.47e-01	0	53	104	0	60	27991
2026-01-25 19:14:02.04	252.21	3.01	-44.2	-62.2	3.8	8.46e-01	0	53	104	0	60	28012
2026-01-25 19:14:03.05	252.14	3.08	-44.2	-62.3	3.8	8.46e-01	0	53	104	0	60	28037
2026-01-25 19:14:04.06	252.07	3.15	-44.2	-62.3	3.8	8.46e-01	0	53	104	0	60	28277
2026-01-25 19:14:05.07	252.00	3.22	-44.2	-62.3	3.8	8.47e-01	0	53	104	0	60	28274
2026-01-25 19:14:06.08	251.93	3.29	-44.2	-62.3	3.8	8.46e-01	0	53	104	0	60	28249
2026-01-25 19:14:07.09	251.86	3.36	-44.2	-62.3	3.8	8.46e-01	0	53	104	0	60	28098
2026-01-25 19:14:08.10	251.79	3.43	-44.2	-62.3	3.8	8.46e-01	0	53	104	0	60	28133
2026-01-25 19:14:09.11	251.72	3.50	-44.2	-62.3	3.8	8.46e-01	0	54	104	0	60	28088
2026-01-25 19:14:10.12	251.65	3.57	-44.2	-62.3	3.8	8.46e-01	0	54	104	0	60	28029
2026-01-25 19:14:11.14	251.58	3.65	-44.2	-62.3	3.8	8.46e-01	0	54	104	0	60	28083
2026-01-25 19:14:12.15	251.50	3.72	-44.2	-62.3	3.8	8.46e-01	0	54	104	0	60	28164
2026-01-25 19:14:13.16	251.43	3.79	-44.2	-62.3	3.8	8.46e-01	0	54	104	0	60	28287
2026-01-25 19:14:14.17	251.35	3.86	-44.2	-62.3	3.8	8.46e-01	0	54	104	0	60	28276
2026-01-25 19:14:15.18	251.28	3.93	-44.2	-62.3	3.8	8.45e-01	0	54	104	0	60	28109
2026-01-25 19:14:16.19	251.20	4.01	-44.2	-62.1	3.8	8.46e-01	0	54	104	0	60	27614
2026-01-25 19:14:17.20	251.13	4.08	-44.2	-62.1	3.8	8.46e-01	0	54	104	0	60	27399
2026-01-25 19:14:18.21	251.05	4.15	-44.2	-61.8	3.8	8.47e-01	0	54	104	0	60	26555
2026-01-25 19:14:19.22	250.98	4.23	-44.2	-61.5	3.8	8.46e-01	0	54	104	0	60	25853
2026-01-25 19:14:20.23	250.90	4.30	-44.2	-61.4	3.8	8.46e-01	0	54	104	0	60	25538
2026-01-25 19:14:21.24	250.82	4.37	-44.2	-61.0	3.8	8.46e-01	0	54	104	0	60	24404
2026-01-25 19:14:22.25	250.74	4.45	-44.2	-61.1	3.8	8.46e-01	0	54	104	0	60	24678
2026-01-25 19:14:23.26	250.66	4.52	-44.2	-61.2	3.8	8.46e-01	0	54	104	0	60	24705
2026-01-25 19:14:24.27	250.58	4.60	-44.2	-61.2	3.8	8.46e-01	0	54	104	0	60	24769
2026-01-25 19:14:25.29	250.50	4.67	-44.2	-61.5	3.8	8.45e-01	0	54	104	0	60	25664
2026-01-25 19:14:26.30	250.42	4.75	-44.2	-61.7	3.8	8.46e-01	0	54	104	0	60	26336
2026-01-25 19:14:27.31	250.34	4.82	-44.2	-61.8	3.8	8.46e-01	0	55	104	0	60	26639
2026-01-25 19:14:28.32	250.26	4.90	-44.2	-61.9	3.8	8.47e-01	0	55	104	0	60	26781
2026-01-25 19:14:29.33	250.17	4.98	-44.2	-61.8	3.8	8.45e-01	0	54	104	0	60	26550
2026-01-25 19:14:30.34	250.09	5.05	-44.2	-61.5	3.8	8.45e-01	0	55	104	0	60	25577
2026-01-25 19:14:31.35	250.00	5.13	-44.2	-61.2	3.8	8.45e-01	0	55	104	0	60	24816
2026-01-25 19:14:32.36	249.92	5.21	-44.1	-60.6	3.8	8.46e-01	0	55	104	0	60	23128
2026-01-25 19:14:33.37	249.83	5.28	-44.1	-60.2	3.8	8.46e-01	0	55	104	0	60	22051
2026-01-25 19:14:34.38	249.75	5.36	-44.1	-59.7	4.0	8.43e-01	0	55	104	0	60	20902
2026-01-25 19:14:35.39	249.66	5.44	-44.1	-59.3	3.9	8.43e-01	0	55	104	0	60	19922
2026-01-25 19:14:36.40	249.57	5.52	-44.1	-58.8	4.2	8.43e-01	0	55	0	0	60	18909
2026-01-25 19:14:37.41	249.48	5.60	-44.1	-58.5	4.3	8.39e-01	0	55	0	0	60	18168
2026-01-25 19:14:38.42	249.40	5.68	-44.0	-58.1	4.3	8.34e-01	0	55	0	0	60	17476
2026-01-25 19:14:39.43	249.31	5.76	-44.0	-58.1	4.4	8.28e-01	0	55	0	0	60	17361
2026-01-25 19:14:40.44	249.22	5.84	-44.0	-57.9	4.5	8.28e-01	0	55	0	0	60	17032
2026-01-25 19:14:41.45	249.12	5.92	-44.0	-57.7	4.5	8.27e-01	0	55	0	0	60	16656
2026-01-25 19:14:42.46	249.03	6.00	-44.0	-57.4	4.6	8.18e-01	0	55	0	0	60	16122
2026-01-25 19:14:43.47	248.94	6.08	-44.0	-57.0	4.9	8.18e-01	0	55	0	0	60	15249
2026-01-25 19:14:44.48	248.85	6.16	-44.0	-56.3	5.3	7.96e-01	0	55	0	0	59	14941
2026-01-25 19:14:45.49	248.75	6.24	-43.9	-55.3	5.9	7.10e-01	0	55	0	0	59	13401
2026-01-25 19:14:46.51	248.66	6.32	-43.8	-54.1	6.9	7.10e-01	0	56	0	1048576	59	11655
2026-01-25 19:14:47.52	248.56	6.40	-43.7	-52.9	8.0	2.85e-01	0	56	0	2621440	59	10168
2026-01-25 19:14:48.53	248.46	6.49	-43.5	-51.9	9.1	8.89e-02	0	56	0	3670016	59	9019
2026-01-25 19:14:49.54	248.37	6.57	-43.4	-51.1	9.9	8.89e-02	0	56	0	4718592	58	8758
2026-01-25 19:14:50.55	248.27	6.65	-43.2	-50.4	10.7	2.12e-02	0	56	0	5767168	58	7995
2026-01-25 19:14:51.56	248.17	6.73	-43.1	-50.0	11.1	5.32e-03	0	56	0	6815744	58	7703
2026-01-25 19:14:52.57	248.07	6.82	-43.1	-50.2	11.0	2.29e-03	0	56	0	7864320	58	7832
2026-01-25 19:14:53.58	247.97	6.90	-43.2	-50.7	10.5	2.29e-03	0	56	0	9437184	58	8284
2026-01-25 19:14:54.59	247.87	6.99	-43.4	-51.5	9.6	4.54e-03	0	56	0	10485760	58	9126
2026-01-25 19:14:55.60	247.77	7.07	-43.7	-53.1	8.1	2.54e-02	0	56	0	11534336	58	10936
2026-01-25 19:14:56.61	247.66	7.16	-44.0	-55.6	5.8	2.54e-02	0	56	0	12582912	58	14651
2026-01-25 19:14:57.62	247.56	7.24	-44.1	-58.5	4.3	2.83e-01	0	56	0	12582912	58	20418
2026-01-25 19:14:58.63	247.46	7.33	-44.1	-58.5	4.2	8.21e-01	0	56	0	12582912	58	20418
2026-01-25 19:14:59.64	247.35	7.41	-43.9	-54.8	6.3	8.21e-01	0	56	0	13107200	58	13300
2026-01-25 19:15:00.65	247.24	7.50	-43.4	-51.4	9.5	6.77e-01	0	56	0	14155776	58	9045
2026-01-25 19:15:01.66	247.14	7.59	-42.8	-49.0	12.1	4.75e-02	0	56	0	15204352	57	7267
2026-01-25 19:15:02.67	247.03	7.67	-42.2	-47.3	13.9	4.75e-02	0	56	0	16252928	56	6299
2026-01-25 19:15:03.68	246.92	7.76	-41.5	-45.8	15.2	3.38e-04	0	56	0	17825792	54	5951
2026-01-25 19:15:04.69	246.81	7.85	-41.1	-45.1	16.0	1.10e-06	0	56	0	18874368	54	5509
2026-01-25 19:15:05.70	246.70	7.94	-41.0	-44.9	16.2	0.00e+00	0	57	0	19922944	54	5376
2026-01-25 19:15:06.71	246.59	8.03	-41.1	-45.1	16.0	0.00e+00	0	56	0	20971520	54	5523
2026-01-25 19:15:07.72	246.47	8.12	-41.6	-46.1	15.5	0.00e+00	0	56	0	22020096	53	6512
2026-01-25 19:15:08.74	246.36	8.21	-42.8	-49.0	12.3	1.20e-04	0	57	0	23592960	56	7707
2026-01-25 19:15:09.75	246.24	8.30	-42.7	-49.1	12.7	1.20e-04	0	56	0	24641536	55	8268
2026-01-25 19:15:10.76	246.13	8.39	-41.6	-45.9	15.5	8.14e-03	0	56	0	25690112	54	6040
2026-01-25 19:15:11.77	246.01	8.48	-43.3	-51.1	11.4	3.21e-02	0	56	0	26738688	57	9263
2026-01-25 19:15:12.78	245.89	8.57	-41.3	-45.5	15.4	3.21e-02	0	57	0	27787264	54	5768
2026-01-25 19:15:13.79	245.77	8.66	-40.7	-44.3	16.8	2.12e-01	0	57	0	28835840	53	5317
2026-01-25 19:15:14.80	245.65	8.75	-40.6	-44.2	17.0	0.00e+00	0	56	0	29884416	53	5228
2026-01-25 19:15:15.81	245.53	8.85	-40.6	-44.1	17.1	0.00e+00	0	57	0	30932992	53	5160
2026-01-25 19:15:16.82	245.41	8.94	-40.5	-43.9	17.3	0.00e+00	0	57	0	31981568	53	5099
2026-01-25 19:15:17.83	245.29	9.03	-40.5	-43.9	17.3	0.00e+00	0	57	0	33554432	52	5362
2026-01-25 19:15:18.84	245.16	9.13	-40.5	-43.9	17.3	0.00e+00	0	57	0	34603008	52	5347
2026-01-25 19:15:19.85	245.04	9.22	-40.4	-43.7	17.5	0.00e+00	0	57	0	35651584	52	5248
2026-01-25 19:15:20.85	244.91	9.31	-40.2	-43.5	17.8	0.00e+00	0	57	0	36700160	52	5110
2026-01-25 19:15:21.86	244.78	9.41	-40.3	-43.6	17.7	0.00e+00	0	57	0	37748736	52	5178
2026-01-25 19:15:22.88	244.65	9.51	-40.2	-43.3	17.9	0.00e+00	0	57	0	38797312	52	5023
2026-01-25 19:15:23.89	244.52	9.60	-40.0	-43.1	18.1	0.00e+00	0	57	0	40370176	52	4909
2026-01-25 19:15:24.89	244.39	9.70	-40.0	-43.1	18.2	0.00e+00	0	57	0	41418752	52	4887
2026-01-25 19:15:25.91	244.26	9.80	-40.1	-43.2	18.1	0.00e+00	0	57	0	42467328	52	4955
2026-01-25 19:15:26.92	244.12	9.89	-40.1	-43.3	18.0	0.00e+00	0	57	0	43515904	52	4991
2026-01-25 19:15:27.92	243.99	9.99	-40.2	-43.3	18.0	0.00e+00	0	57	0	44564480	52	5027
2026-01-25 19:15:28.94	243.85	10.09	-40.2	-43.4	17.9	0.00e+00	0	57	0	45613056	52	5061
2026-01-25 19:15:29.95	243.72	10.19	-40.3	-43.5	17.8	0.00e+00	0	57	0	47185920	52	5134
2026-01-25 19:15:30.95	243.58	10.29	-40.3	-43.5	17.9	0.00e+00	0	57	0	48234496	52	5104
2026-01-25 19:15:31.96	243.44	10.39	-40.3	-43.5	17.8	0.00e+00	0	57	0	49283072	52	5137
2026-01-25 19:15:32.97	243.30	10.49	-40.2	-43.3	18.1	0.00e+00	0	57	0	50331648	52	5002
2026-01-25 19:15:33.99	243.15	10.59	-40.0	-43.1	18.3	0.00e+00	0	57	0	51380224	52	4872
2026-01-25 19:15:34.99	243.01	10.69	-40.0	-43.0	18.4	0.00e+00	0	57	0	52428800	51	5123
2026-01-25 19:15:36.00	242.86	10.79	-39.9	-42.8	18.7	0.00e+00	0	57	0	54001664	51	4986
2026-01-25 19:15:37.01	242.72	10.89	-39.9	-42.7	18.7	0.00e+00	0	57	0	55050240	51	4974
2026-01-25 19:15:38.02	242.57	11.00	-40.0	-42.9	18.6	0.00e+00	0	57	0	56098816	51	5088
2026-01-25 19:15:39.04	242.42	11.10	-40.0	-42.9	18.5	0.00e+00	0	57	0	57147392	51	5096
2026-01-25 19:15:40.05	242.27	11.20	-40.0	-42.9	18.5	0.00e+00	0	57	0	58195968	51	5077
2026-01-25 19:15:41.06	242.11	11.31	-40.1	-43.1	18.4	0.00e+00	0	57	0	59244544	51	5164
2026-01-25 19:15:42.07	241.96	11.41	-40.0	-43.0	18.5	0.00e+00	0	57	0	60817408	51	5107
2026-01-25 19:15:43.07	241.81	11.52	-40.0	-42.9	18.5	0.00e+00	0	57	0	61865984	51	5097
2026-01-25 19:15:44.08	241.65	11.62	-40.0	-42.9	18.6	0.00e+00	0	57	0	62914560	51	5083
2026-01-25 19:15:45.09	241.49	11.73	-39.9	-42.8	18.7	0.00e+00	0	58	0	63963136	51	5031
2026-01-25 19:15:46.10	241.33	11.84	-39.9	-42.7	18.8	0.00e+00	0	57	0	65011712	51	4978
2026-01-25 19:15:47.11	241.17	11.94	-39.9	-42.7	18.8	0.00e+00	0	57	0	66060288	51	4965
2026-01-25 19:15:48.12	241.01	12.05	-39.9	-42.7	18.8	0.00e+00	0	58	0	67633152	51	4958
2026-01-25 19:15:49.13	240.84	12.16	-39.7	-42.5	19.0	0.00e+00	0	57	0	68681728	51	4847
2026-01-25 19:15:50.14	240.67	12.27	-39.6	-42.3	19.2	0.00e+00	0	58	0	69730304	51	4742
2026-01-25 19:15:51.15	240.51	12.38	-39.6	-42.2	19.3	0.00e+00	0	58	0	70778880	51	4704
2026-01-25 19:15:52.16	240.34	12.49	-39.5	-42.1	19.4	0.00e+00	0	57	0	71827456	50	4906
2026-01-25 19:15:53.17	240.16	12.60	-39.5	-42.1	19.4	0.00e+00	0	58	0	72876032	50	4925
2026-01-25 19:15:54.18	239.99	12.71	-39.4	-42.1	19.5	0.00e+00	0	58	0	74448896	50	4886
2026-01-25 19:15:55.19	239.82	12.82	-39.4	-42.0	19.6	0.00e+00	0	58	0	75497472	50	4846
2026-01-25 19:15:56.20	239.64	12.93	-39.6	-42.2	19.4	0.00e+00	0	58	0	76546048	50	4976
2026-01-25 19:15:57.21	239.46	13.05	-39.6	-42.4	19.3	0.00e+00	0	58	0	77594624	50	5043
2026-01-25 19:15:58.22	239.28	13.16	-39.6	-42.3	19.2	0.00e+00	0	58	0	78643200	50	5038
2026-01-25 19:15:59.23	239.10	13.27	-39.7	-42.4	19.2	0.00e+00	0	58	0	79691776	50	5056
2026-01-25 19:16:00.24	238.91	13.39	-39.6	-42.3	19.3	0.00e+00	0	58	0	81264640	50	5030
2026-01-25 19:16:01.25	238.73	13.50	-39.5	-42.2	19.5	0.00e+00	0	58	0	82313216	50	4929
2026-01-25 19:16:02.26	238.54	13.62	-39.4	-42.1	19.6	0.00e+00	0	58	0	83361792	50	4876
2026-01-25 19:16:03.27	238.35	13.73	-39.4	-41.9	19.6	0.00e+00	0	58	0	84410368	50	4814
2026-01-25 19:16:04.28	238.16	13.85	-39.3	-41.8	19.8	0.00e+00	0	58	0	85458944	50	4754
2026-01-25 19:16:05.29	237.97	13.97	-39.3	-41.8	19.8	0.00e+00	0	58	0	86507520	50	4749
2026-01-25 19:16:06.30	237.77	14.09	-39.1	-41.6	20.0	0.00e+00	0	58	0	88080384	50	4613
2026-01-25 19:16:07.31	237.57	14.20	-39.2	-41.7	19.9	0.00e+00	0	58	0	89128960	50	4686
2026-01-25 19:16:08.32	237.37	14.32	-39.3	-41.8	19.9	0.00e+00	0	58	0	90177536	50	4709
2026-01-25 19:16:09.33	237.17	14.44	-39.3	-41.9	19.8	0.00e+00	0	58	0	91226112	50	4778
2026-01-25 19:16:10.34	236.97	14.56	-39.4	-42.0	19.6	0.00e+00	0	58	0	92274688	50	4859
2026-01-25 19:16:11.35	236.76	14.68	-39.4	-41.9	19.7	0.00e+00	0	58	0	93323264	50	4800
2026-01-25 19:16:12.36	236.55	14.80	-39.3	-41.8	19.9	0.00e+00	0	58	0	94896128	50	4739
2026-01-25 19:16:13.37	236.34	14.93	-39.1	-41.6	20.1	0.00e+00	0	58	0	95944704	50	4607
2026-01-25 19:16:14.38	236.13	15.05	-39.1	-41.5	20.2	0.00e+00	0	58	0	96993280	50	4568
2026-01-25 19:16:15.38	235.92	15.17	-39.1	-41.5	20.2	0.00e+00	0	58	0	98041856	50	4559
2026-01-25 19:16:16.40	235.70	15.29	-39.1	-41.6	20.2	0.00e+00	0	58	0	99090432	50	4615
2026-01-25 19:16:17.41	235.48	15.42	-39.1	-41.5	20.2	0.00e+00	0	58	0	100139008	50	4575
2026-01-25 19:16:18.42	235.25	15.54	-38.8	-41.1	20.6	0.00e+00	0	58	0	101711872	49	4631
2026-01-25 19:16:19.43	235.03	15.67	-38.8	-41.1	20.6	0.00e+00	0	58	0	102760448	49	4624
2026-01-25 19:16:20.44	234.80	15.79	-38.8	-41.1	20.6	0.00e+00	0	58	0	103809024	49	4644
2026-01-25 19:16:21.45	234.57	15.92	-38.9	-41.2	20.5	0.00e+00	0	59	0	104857600	49	4684
2026-01-25 19:16:22.46	234.34	16.05	-38.9	-41.2	20.5	0.00e+00	0	58	0	105906176	49	4693
2026-01-25 19:16:23.47	234.11	16.17	-38.8	-41.1	20.6	0.00e+00	0	58	0	106954752	49	4611
2026-01-25 19:16:24.48	233.87	16.30	-38.8	-41.1	20.6	0.00e+00	0	58	0	108527616	49	4634
2026-01-25 19:16:25.49	233.63	16.43	-38.7	-41.0	20.7	0.00e+00	0	58	0	109576192	49	4598
2026-01-25 19:16:26.50	233.39	16.56	-38.6	-40.8	20.9	0.00e+00	0	58	0	110624768	49	4487
2026-01-25 19:16:27.51	233.15	16.69	-38.2	-40.4	21.3	0.00e+00	0	58	0	111673344	48	4512
2026-01-25 19:16:28.52	232.90	16.82	-38.3	-40.4	21.3	0.00e+00	0	58	0	112721920	48	4527
2026-01-25 19:16:29.53	232.65	16.95	-38.3	-40.5	21.3	0.00e+00	0	59	0	113770496	48	4548
2026-01-25 19:16:30.54	232.40	17.08	-38.5	-40.7	21.1	0.00e+00	0	59	0	115343360	48	4686
2026-01-25 19:16:31.55	232.14	17.21	-38.4	-40.6	21.1	0.00e+00	0	58	0	116391936	48	4636
2026-01-25 19:16:32.56	231.88	17.35	-38.5	-40.8	20.9	0.00e+00	0	59	0	117440512	48	4732
2026-01-25 19:16:33.57	231.62	17.48	-38.5	-40.7	21.1	0.00e+00	0	58	0	118489088	48	4673
2026-01-25 19:16:34.58	231.36	17.61	-38.6	-40.8	21.0	0.00e+00	0	58	0	119537664	48	4740
2026-01-25 19:16:35.59	231.09	17.75	-38.4	-40.6	21.1	0.00e+00	0	59	0	120586240	48	4647
2026-01-25 19:16:36.60	230.82	17.88	-38.5	-40.7	21.1	0.00e+00	0	59	0	122159104	48	4678
2026-01-25 19:16:37.61	230.55	18.01	-38.4	-40.5	21.3	0.00e+00	0	59	0	123207680	48	4582
2026-01-25 19:16:38.61	230.27	18.15	-38.5	-40.7	21.1	0.00e+00	0	59	0	124256256	48	4674
2026-01-25 19:16:39.62	229.99	18.28	-38.4	-40.6	21.2	0.00e+00	0	58	0	125304832	48	4617
2026-01-25 19:16:40.64	229.71	18.42	-38.2	-40.4	21.4	0.00e+00	0	59	0	126353408	48	4513
2026-01-25 19:16:41.65	229.42	18.56	-38.2	-40.4	21.4	0.00e+00	0	59	0	127401984	48	4511
2026-01-25 19:16:42.66	229.14	18.70	-38.3	-40.4	21.4	0.00e+00	0	58	0	128974848	48	4527
2026-01-25 19:16:43.67	228.84	18.83	-38.2	-40.3	21.4	0.00e+00	0	59	0	130023424	48	4490
2026-01-25 19:16:44.68	228.55	18.97	-38.0	-40.1	21.7	0.00e+00	0	58	0	131072000	48	4346
2026-01-25 19:16:45.68	228.25	19.11	-38.1	-40.2	21.6	0.00e+00	0	58	0	132120576	47	4678
2026-01-25 19:16:46.70	227.95	19.25	-38.1	-40.3	21.5	0.00e+00	0	59	0	133169152	47	4724
2026-01-25 19:16:47.71	227.64	19.39	-38.2	-40.4	21.4	0.00e+00	0	59	0	134217728	47	4772
2026-01-25 19:16:48.72	227.34	19.53	-38.2	-40.4	21.5	0.00e+00	0	59	0	135790592	47	4761
2026-01-25 19:16:49.73	227.02	19.67	-38.2	-40.4	21.4	0.00e+00	0	59	0	136839168	47	4761
2026-01-25 19:16:50.74	226.71	19.81	-38.1	-40.2	21.6	0.00e+00	0	59	0	137887744	47	4695
2026-01-25 19:16:51.75	226.39	19.95	-38.1	-40.3	21.5	0.00e+00	0	59	0	138936320	47	4724
2026-01-25 19:16:52.76	226.07	20.09	-37.8	-39.9	21.9	0.00e+00	0	59	0	139984896	47	4525
2026-01-25 19:16:53.77	225.74	20.23	-37.6	-39.6	22.1	0.00e+00	0	59	0	141033472	47	4382
2026-01-25 19:16:54.78	225.41	20.37	-37.5	-39.4	22.3	0.00e+00	0	59	0	142606336	46	4539
2026-01-25 19:16:55.79	225.08	20.51	-37.6	-39.6	22.2	0.00e+00	0	59	0	143654912	46	4639
2026-01-25 19:16:56.80	224.74	20.65	-37.7	-39.7	22.1	0.00e+00	0	59	0	144703488	46	4701
2026-01-25 19:16:57.81	224.40	20.80	-37.8	-39.8	22.0	0.00e+00	0	59	0	145752064	46	4755
2026-01-25 19:16:58.82	224.05	20.94	-37.9	-40.0	21.9	0.00e+00	0	59	0	146800640	46	4846
2026-01-25 19:16:59.83	223.71	21.08	-37.7	-39.7	22.2	0.00e+00	0	59	0	147849216	46	4678
2026-01-25 19:17:00.84	223.35	21.22	-37.7	-39.7	22.1	0.00e+00	0	59	0	149422080	46	4675
2026-01-25 19:17:01.85	223.00	21.37	-37.6	-39.6	22.2	0.00e+00	0	59	0	150470656	46	4608
2026-01-25 19:17:02.86	222.64	21.51	-37.4	-39.3	22.6	0.00e+00	0	59	0	151519232	46	4459
2026-01-25 19:17:03.87	222.27	21.65	-37.3	-39.3	22.6	0.00e+00	0	59	0	152567808	46	4449
2026-01-25 19:17:04.88	221.90	21.79	-37.4	-39.4	22.5	0.00e+00	0	59	0	153616384	46	4507
2026-01-25 19:17:05.89	221.53	21.94	-37.5	-39.4	22.5	0.00e+00	0	59	0	154664960	46	4513
2026-01-25 19:17:06.90	221.15	22.08	-37.5	-39.5	22.4	0.00e+00	0	59	0	156237824	46	4554
2026-01-25 19:17:07.90	220.78	22.22	-37.5	-39.4	22.4	0.00e+00	0	59	0	157286400	46	4543
2026-01-25 19:17:08.90	220.40	22.36	-37.7	-39.7	22.2	0.00e+00	0	59	0	158334976	46	4680
2026-01-25 19:17:09.91	220.01	22.50	-37.6	-39.6	22.3	0.00e+00	0	59	0	159383552	46	4636
2026-01-25 19:17:10.92	219.61	22.65	-37.8	-39.8	22.2	0.00e+00	0	59	0	160432128	46	4724
2026-01-25 19:17:11.94	219.21	22.79	-37.8	-39.8	22.2	0.00e+00	0	59	0	161480704	46	4726
2026-01-25 19:17:12.95	218.81	22.93	-37.6	-39.6	22.4	0.00e+00	0	59	0	163053568	46	4618
2026-01-25 19:17:13.95	218.41	23.07	-37.4	-39.3	22.6	0.00e+00	0	59	0	164102144	46	4489
2026-01-25 19:17:14.96	218.00	23.21	-37.1	-38.9	22.9	0.00e+00	0	59	0	165150720	46	4280
2026-01-25 19:17:15.97	217.58	23.35	-36.9	-38.7	23.2	0.00e+00	0	59	0	166199296	45	4438
2026-01-25 19:17:16.98	217.16	23.49	-37.0	-38.8	23.1	0.00e+00	0	59	0	167247872	45	4463
2026-01-25 19:17:17.99	216.74	23.63	-37.0	-38.8	23.1	0.00e+00	0	59	0	168296448	45	4460
2026-01-25 19:17:19.01	216.31	23.77	-37.0	-38.8	23.0	0.00e+00	0	59	0	169869312	45	4471
2026-01-25 19:17:20.02	215.87	23.91	-37.1	-38.9	22.9	0.00e+00	0	59	0	170917888	45	4536
2026-01-25 19:17:21.02	215.44	24.05	-37.0	-38.9	23.0	0.00e+00	0	59	0	171966464	45	4501
2026-01-25 19:17:22.03	215.00	24.19	-37.0	-38.8	23.0	0.00e+00	0	59	0	173015040	45	4492
2026-01-25 19:17:23.04	214.55	24.32	-37.2	-39.1	22.7	0.00e+00	0	59	0	174063616	45	4628
2026-01-25 19:17:24.05	214.10	24.46	-37.1	-39.0	22.9	0.00e+00	0	59	0	175112192	45	4555
2026-01-25 19:17:25.06	213.64	24.60	-37.2	-39.1	22.7	0.00e+00	0	59	0	176685056	45	4643
2026-01-25 19:17:26.07	213.18	24.73	-37.2	-39.0	22.8	0.00e+00	0	59	0	177733632	45	4593
2026-01-25 19:17:27.08	212.72	24.87	-37.1	-39.0	22.9	0.00e+00	0	59	0	178782208	45	4550
2026-01-25 19:17:28.09	212.25	25.00	-36.9	-38.7	23.2	0.00e+00	0	59	0	179830784	45	4414
2026-01-25 19:17:29.11	211.77	25.13	-36.8	-38.7	23.2	0.00e+00	0	59	0	180879360	45	4399
2026-01-25 19:17:30.11	211.30	25.26	-36.7	-38.5	23.4	0.00e+00	0	59	0	181927936	45	4321
2026-01-25 19:17:31.13	210.81	25.39	-36.8	-38.6	23.3	0.00e+00	0	59	0	183500800	45	4344
2026-01-25 19:17:32.13	210.33	25.52	-37.0	-38.8	23.0	0.00e+00	0	59	0	184549376	45	4490
2026-01-25 19:17:33.14	209.83	25.65	-36.9	-38.7	23.2	0.00e+00	0	59	0	185597952	45	4407
2026-01-25 19:17:34.15	209.34	25.77	-36.9	-38.8	23.1	0.00e+00	0	59	0	186646528	45	4443
2026-01-25 19:17:35.16	208.84	25.90	-36.8	-38.5	23.3	0.00e+00	0	59	0	187695104	45	4328
2026-01-25 19:17:36.17	208.33	26.02	-36.7	-38.5	23.3	0.00e+00	0	59	0	188743680	45	4310
2026-01-25 19:17:37.18	207.82	26.14	-36.7	-38.5	23.3	0.00e+00	0	59	0	190316544	45	4320
2026-01-25 19:17:38.19	207.30	26.27	-36.6	-38.3	23.5	0.00e+00	0	59	0	191365120	45	4237
2026-01-25 19:17:39.20	206.78	26.38	-36.6	-38.4	23.4	0.00e+00	0	59	0	192413696	45	4275
2026-01-25 19:17:40.21	206.26	26.50	-36.8	-38.6	23.3	0.00e+00	0	59	0	193462272	45	4346
2026-01-25 19:17:41.22	205.73	26.62	-36.7	-38.5	23.3	0.00e+00	0	59	0	194510848	45	4328
2026-01-25 19:17:42.23	205.20	26.73	-36.7	-38.5	23.3	0.00e+00	0	59	0	195559424	45	4312
2026-01-25 19:17:43.24	204.66	26.84	-36.6	-38.4	23.5	0.00e+00	0	60	0	197132288	45	4260
2026-01-25 19:17:44.25	204.12	26.95	-36.5	-38.2	23.6	0.00e+00	0	59	0	198180864	45	4183
2026-01-25 19:17:45.26	203.58	27.06	-36.3	-38.0	23.8	0.00e+00	0	60	0	199229440	44	4338
2026-01-25 19:17:46.27	203.03	27.17	-36.6	-38.3	23.5	0.00e+00	0	59	0	200278016	44	4481
2026-01-25 19:17:47.27	202.48	27.27	-36.6	-38.4	23.4	0.00e+00	0	59	0	201326592	44	4513
2026-01-25 19:17:48.28	201.92	27.37	-36.7	-38.5	23.4	0.00e+00	0	59	0	202375168	44	4562
2026-01-25 19:17:49.29	201.36	27.47	-36.4	-38.1	23.7	0.00e+00	0	59	0	203948032	44	4391
2026-01-25 19:17:50.30	200.79	27.57	-36.1	-37.8	24.0	0.00e+00	0	59	0	204996608	44	4206
2026-01-25 19:17:51.31	200.22	27.67	-36.3	-38.1	23.8	0.00e+00	0	59	0	206045184	44	4352
2026-01-25 19:17:52.32	199.65	27.76	-36.5	-38.3	23.6	0.00e+00	0	59	0	207093760	44	4465
2026-01-25 19:17:53.33	199.07	27.85	-36.7	-38.5	23.4	0.00e+00	0	59	0	208142336	44	4556
2026-01-25 19:17:54.34	198.49	27.94	-36.7	-38.5	23.4	0.00e+00	0	59	0	209190912	44	4547
2026-01-25 19:17:55.35	197.90	28.02	-36.4	-38.1	23.7	0.00e+00	0	59	0	210763776	44	4368
2026-01-25 19:17:56.36	197.31	28.10	-36.3	-38.0	23.8	0.00e+00	0	60	0	211812352	44	4312
2026-01-25 19:17:57.37	196.72	28.18	-36.4	-38.1	23.7	0.00e+00	0	59	0	212860928	44	4353
2026-01-25 19:17:58.38	196.13	28.26	-36.6	-38.3	23.4	0.00e+00	0	60	0	213909504	44	4484
2026-01-25 19:17:59.39	195.53	28.34	-36.3	-38.0	23.8	0.00e+00	0	60	0	214958080	44	4302
2026-01-25 19:18:00.40	194.93	28.41	-36.4	-38.1	23.7	0.00e+00	0	59	0	216006656	44	4383
2026-01-25 19:18:01.41	194.32	28.48	-36.3	-38.0	23.9	0.00e+00	0	60	0	217579520	44	4294
2026-01-25 19:18:02.42	193.72	28.54	-36.3	-38.0	23.8	0.00e+00	0	59	0	218628096	44	4295
2026-01-25 19:18:03.43	193.11	28.60	-36.5	-38.2	23.7	0.00e+00	0	60	0	219676672	44	4432
2026-01-25 19:18:04.44	192.49	28.66	-36.7	-38.5	23.4	0.00e+00	0	59	0	220725248	44	4552
2026-01-25 19:18:05.45	191.88	28.72	-37.0	-38.8	23.1	0.00e+00	0	60	0	221773824	44	4728
2026-01-25 19:18:06.46	191.26	28.77	-37.1	-38.9	22.9	0.00e+00	0	59	0	222822400	44	4794
2026-01-25 19:18:07.47	190.64	28.82	-37.2	-39.1	22.7	0.00e+00	0	59	0	224395264	45	4627
2026-01-25 19:18:08.48	190.02	28.87	-37.0	-38.8	23.0	0.00e+00	0	60	0	225443840	45	4489
2026-01-25 19:18:09.49	189.39	28.91	-37.1	-39.0	22.9	0.00e+00	0	59	0	226492416	45	4558
2026-01-25 19:18:10.50	188.77	28.95	-37.2	-39.1	22.8	0.00e+00	0	60	0	227540992	45	4607
2026-01-25 19:18:11.51	188.14	28.99	-37.1	-38.9	22.8	0.00e+00	0	60	0	228589568	45	4545
2026-01-25 19:18:12.52	187.51	29.02	-36.7	-38.5	23.3	0.00e+00	0	59	0	229638144	45	4334
2026-01-25 19:18:13.54	186.88	29.05	-36.7	-38.5	23.3	0.00e+00	0	60	0	231211008	45	4305
2026-01-25 19:18:14.55	186.25	29.08	-36.6	-38.4	23.4	0.00e+00	0	60	0	232259584	45	4277
2026-01-25 19:18:15.56	185.61	29.10	-36.5	-38.2	23.6	0.00e+00	0	60	0	233308160	44	4422
2026-01-25 19:18:16.57	184.98	29.12	-36.7	-38.4	23.4	0.00e+00	0	60	0	234356736	44	4533
2026-01-25 19:18:17.58	184.34	29.14	-36.8	-38.6	23.2	0.00e+00	0	60	0	235405312	44	4643
2026-01-25 19:18:18.59	183.71	29.15	-36.8	-38.6	23.2	0.00e+00	0	60	0	236453888	44	4635
2026-01-25 19:18:19.60	183.07	29.16	-36.9	-38.7	23.1	0.00e+00	0	60	0	238026752	44	4695
2026-01-25 19:18:20.61	182.44	29.16	-36.7	-38.5	23.3	0.00e+00	0	60	0	239075328	44	4580
2026-01-25 19:18:21.62	181.80	29.17	-36.6	-38.4	23.4	0.00e+00	0	60	0	240123904	44	4531
2026-01-25 19:18:22.63	181.17	29.16	-36.5	-38.3	23.5	0.00e+00	0	60	0	241172480	44	4461
2026-01-25 19:18:23.64	180.53	29.16	-36.8	-38.6	23.3	0.00e+00	0	60	0	242221056	44	4615
2026-01-25 19:18:24.65	179.90	29.15	-37.0	-38.8	23.1	0.00e+00	0	60	0	243269632	44	4738
2026-01-25 19:18:25.66	179.26	29.14	-36.8	-38.6	23.3	0.00e+00	0	60	0	244842496	44	4626
2026-01-25 19:18:26.67	178.63	29.12	-36.6	-38.4	23.4	0.00e+00	0	60	0	245891072	44	4498
2026-01-25 19:18:27.68	177.99	29.10	-36.9	-38.7	23.2	0.00e+00	0	60	0	246939648	44	4681
2026-01-25 19:18:28.69	177.36	29.08	-37.0	-38.8	23.1	0.00e+00	0	60	0	247988224	44	4721
2026-01-25 19:18:29.70	176.73	29.05	-36.9	-38.7	23.2	0.00e+00	0	60	0	249036800	44	4668
2026-01-25 19:18:30.71	176.10	29.02	-37.2	-39.0	23.2	0.00e+00	0	60	0	250085376	46	4314
2026-01-25 19:18:31.72	175.47	28.99	-37.0	-38.8	23.2	0.00e+00	0	60	0	251658240	46	4241
2026-01-25 19:18:32.73	174.84	28.95	-37.2	-39.1	23.0	0.00e+00	0	60	0	252706816	46	4358
2026-01-25 19:18:33.73	174.22	28.91	-37.2	-39.1	23.0	0.00e+00	0	60	0	253755392	46	4346
2026-01-25 19:18:34.74	173.60	28.87	-37.2	-39.0	22.9	0.00e+00	0	60	0	254803968	46	4320
2026-01-25 19:18:35.75	172.98	28.82	-36.6	-38.3	23.5	0.00e+00	0	60	0	255852544	45	4236
2026-01-25 19:18:36.76	172.36	28.77	-36.5	-38.3	23.5	0.00e+00	0	60	0	256901120	45	4210
2026-01-25 19:18:37.77	171.74	28.72	-36.6	-38.4	23.5	0.00e+00	0	60	0	258473984	45	4266
2026-01-25 19:18:38.78	171.13	28.66	-37.0	-38.9	23.1	0.00e+00	0	60	0	259522560	45	4514
2026-01-25 19:18:39.79	170.51	28.61	-36.8	-38.6	23.3	0.00e+00	0	60	0	260571136	44	4617
2026-01-25 19:18:40.80	169.90	28.54	-36.7	-38.5	23.4	0.00e+00	0	60	0	261619712	44	4579
2026-01-25 19:18:41.81	169.30	28.48	-37.0	-38.8	23.2	0.00e+00	0	60	0	262668288	44	4755
2026-01-25 19:18:42.82	168.69	28.41	-36.8	-38.6	23.4	0.00e+00	0	60	0	264241152	44	4625
2026-01-25 19:18:43.83	168.09	28.34	-36.8	-38.6	23.4	0.00e+00	0	60	0	265289728	44	4616
2026-01-25 19:18:44.84	167.49	28.26	-36.7	-38.4	23.5	0.00e+00	0	60	0	266338304	44	4539
2026-01-25 19:18:45.85	166.90	28.19	-36.8	-38.7	23.4	0.00e+00	0	60	0	267386880	44	4657
2026-01-25 19:18:46.86	166.30	28.11	-36.8	-38.5	23.5	0.00e+00	0	60	0	268435456	44	4593
2026-01-25 19:18:47.87	165.72	28.02	-36.7	-38.4	23.6	0.00e+00	0	60	0	269484032	44	4538
2026-01-25 19:18:48.88	165.13	27.94	-36.6	-38.3	23.7	0.00e+00	0	60	0	270532608	44	4492
2026-01-25 19:18:49.89	164.55	27.85	-36.6	-38.4	23.7	0.00e+00	0	60	0	272105472	44	4501
2026-01-25 19:18:50.90	163.97	27.76	-36.7	-38.5	23.6	0.00e+00	0	60	0	273154048	44	4553
2026-01-25 19:18:51.91	163.40	27.67	-36.4	-38.2	23.8	0.00e+00	0	60	0	274202624	44	4407
2026-01-25 19:18:52.92	162.83	27.57	-36.5	-38.2	23.8	0.00e+00	0	60	0	275251200	44	4430
2026-01-25 19:18:53.92	162.27	27.48	-36.4	-38.1	23.9	0.00e+00	0	60	0	276299776	44	4377
2026-01-25 19:18:54.93	161.70	27.38	-36.2	-37.9	24.2	0.00e+00	0	60	0	277348352	44	4268
2026-01-25 19:18:55.94	161.15	27.28	-36.3	-38.0	23.9	0.00e+00	0	60	0	278921216	44	4334
2026-01-25 19:18:56.96	160.59	27.17	-36.6	-38.4	23.7	0.00e+00	0	60	0	279969792	44	4503
2026-01-25 19:18:57.97	160.04	27.06	-37.0	-38.9	23.2	0.00e+00	0	60	0	281018368	44	4790
2026-01-25 19:18:58.98	159.49	26.96	-37.3	-39.2	22.9	0.00e+00	0	60	0	282066944	45	4665
2026-01-25 19:18:59.99	158.95	26.85	-37.3	-39.3	22.8	0.00e+00	0	60	0	283115520	45	4714
2026-01-25 19:19:01.00	158.41	26.73	-36.8	-38.6	23.4	0.00e+00	0	60	0	284164096	45	4361
2026-01-25 19:19:02.01	157.88	26.62	-36.6	-38.4	23.6	0.00e+00	0	60	0	285736960	45	4270
2026-01-25 19:19:03.02	157.35	26.50	-36.6	-38.4	23.7	0.00e+00	0	60	0	286785536	45	4262
2026-01-25 19:19:04.03	156.83	26.39	-36.7	-38.5	23.5	0.00e+00	0	60	0	287834112	45	4331
2026-01-25 19:19:05.04	156.31	26.27	-36.8	-38.6	23.4	0.00e+00	0	60	0	288882688	45	4375
2026-01-25 19:19:06.05	155.79	26.15	-36.9	-38.8	23.3	0.00e+00	0	60	0	289931264	45	4449
2026-01-25 19:19:07.06	155.28	26.02	-37.1	-38.9	23.2	0.00e+00	0	60	0	290979840	45	4534
2026-01-25 19:19:08.07	154.77	25.90	-37.4	-39.3	22.8	0.00e+00	0	60	0	292552704	45	4757
2026-01-25 19:19:09.08	154.27	25.78	-37.5	-39.5	22.6	0.00e+00	0	60	0	293601280	45	4820
2026-01-25 19:19:10.09	153.77	25.65	-37.5	-39.4	22.7	0.00e+00	0	60	0	294649856	45	4787
2026-01-25 19:19:11.10	153.28	25.52	-37.4	-39.3	22.8	0.00e+00	0	60	0	295698432	45	4731
2026-01-25 19:19:12.11	152.79	25.39	-37.3	-39.2	22.9	0.00e+00	0	60	0	296747008	45	4695
2026-01-25 19:19:13.12	152.31	25.26	-37.2	-39.1	23.0	0.00e+00	0	60	0	298319872	45	4633
2026-01-25 19:19:14.13	151.83	25.13	-37.3	-39.2	22.9	0.00e+00	0	60	0	299368448	45	4686
2026-01-25 19:19:15.14	151.36	25.00	-37.2	-39.1	23.1	0.00e+00	0	60	0	300417024	45	4606
2026-01-25 19:19:16.15	150.89	24.87	-37.4	-39.3	22.9	0.00e+00	0	60	0	301465600	45	4729
2026-01-25 19:19:17.16	150.42	24.73	-37.5	-39.5	22.6	0.00e+00	0	60	0	302514176	45	4830
2026-01-25 19:19:18.17	149.96	24.60	-37.2	-39.1	23.1	0.00e+00	0	60	0	303562752	45	4600
2026-01-25 19:19:19.18	149.51	24.46	-37.2	-39.1	23.1	0.00e+00	0	60	0	305135616	45	4604
2026-01-25 19:19:20.19	149.06	24.33	-36.9	-38.8	23.3	0.00e+00	0	60	0	306184192	45	4466
2026-01-25 19:19:21.20	148.61	24.19	-37.0	-38.8	23.3	0.00e+00	0	60	0	307232768	45	4480
2026-01-25 19:19:22.21	148.17	24.05	-37.2	-39.1	23.1	0.00e+00	0	60	0	308281344	45	4623
2026-01-25 19:19:23.22	147.73	23.91	-37.4	-39.3	22.8	0.00e+00	0	60	0	309329920	45	4724
2026-01-25 19:19:24.23	147.30	23.78	-37.8	-39.8	22.3	0.00e+00	0	60	0	310378496	46	4720
2026-01-25 19:19:25.24	146.87	23.64	-37.6	-39.6	22.5	0.00e+00	0	60	0	311427072	46	4632
2026-01-25 19:19:26.24	146.45	23.50	-37.5	-39.5	22.6	0.00e+00	0	60	0	312999936	46	4562
2026-01-25 19:19:27.25	146.03	23.36	-37.5	-39.5	22.6	0.00e+00	0	60	0	314048512	46	4579
2026-01-25 19:19:28.26	145.62	23.22	-37.3	-39.2	22.9	0.00e+00	0	60	0	315097088	46	4418
2026-01-25 19:19:29.27	145.20	23.07	-37.4	-39.3	22.9	0.00e+00	0	60	0	316145664	46	4461
2026-01-25 19:19:30.28	144.80	22.93	-37.5	-39.4	22.7	0.00e+00	0	60	0	317194240	46	4540
2026-01-25 19:19:31.29	144.40	22.79	-37.6	-39.5	22.6	0.00e+00	0	60	0	318242816	46	4593
2026-01-25 19:19:32.30	144.00	22.65	-37.7	-39.7	22.4	0.00e+00	0	60	0	319815680	46	4677
2026-01-25 19:19:33.31	143.60	22.51	-37.8	-39.8	22.3	0.00e+00	0	60	0	320864256	46	4736
2026-01-25 19:19:34.32	143.22	22.37	-37.8	-39.8	22.3	0.00e+00	0	60	0	321912832	46	4730
2026-01-25 19:19:35.33	142.83	22.22	-37.8	-39.9	22.3	0.00e+00	0	60	0	322961408	46	4767
2026-01-25 19:19:36.34	142.45	22.08	-37.9	-39.9	22.2	0.00e+00	0	60	0	324009984	46	4791
2026-01-25 19:19:37.35	142.07	21.94	-37.8	-39.9	22.2	0.00e+00	0	60	0	325058560	46	4791
2026-01-25 19:19:38.36	141.70	21.79	-37.7	-39.8	22.3	0.00e+00	0	60	0	326631424	46	4712
2026-01-25 19:19:39.37	141.33	21.65	-37.8	-39.9	22.2	0.00e+00	0	60	0	327680000	46	4761
2026-01-25 19:19:40.38	140.97	21.51	-37.9	-40.0	22.1	0.00e+00	0	60	0	328728576	46	4834
2026-01-25 19:19:41.39	140.61	21.37	-38.1	-40.2	21.9	0.00e+00	0	60	0	329777152	46	4954
2026-01-25 19:19:42.40	140.25	21.22	-38.2	-40.3	21.8	0.00e+00	0	60	0	330825728	46	5007
2026-01-25 19:19:43.41	139.90	21.08	-38.2	-40.4	21.7	0.00e+00	0	60	0	331874304	46	5047
2026-01-25 19:19:44.41	139.55	20.94	-38.2	-40.4	21.7	0.00e+00	0	60	0	333447168	47	4803
2026-01-25 19:19:45.42	139.21	20.80	-38.1	-40.2	21.9	0.00e+00	0	60	0	334495744	47	4659
2026-01-25 19:19:46.43	138.87	20.66	-38.0	-40.1	22.0	0.00e+00	0	60	0	335544320	47	4609
2026-01-25 19:19:47.44	138.53	20.51	-38.0	-40.2	21.9	0.00e+00	0	60	0	336592896	47	4652
2026-01-25 19:19:48.45	138.19	20.37	-38.0	-40.1	22.0	0.00e+00	0	60	0	337641472	47	4621
2026-01-25 19:19:49.46	137.86	20.23	-38.2	-40.4	21.7	0.00e+00	0	60	0	338690048	47	4772
2026-01-25 19:19:50.47	137.54	20.09	-38.1	-40.2	21.8	0.00e+00	0	60	0	340262912	47	4705
2026-01-25 19:19:51.48	137.22	19.95	-38.0	-40.1	21.8	0.00e+00	0	60	0	341311488	47	4650
2026-01-25 19:19:52.49	136.90	19.81	-38.0	-40.1	21.9	0.00e+00	0	60	0	342360064	47	4642
2026-01-25 19:19:53.50	136.58	19.67	-38.2	-40.4	21.7	0.00e+00	0	60	0	343408640	47	4774
2026-01-25 19:19:54.51	136.27	19.53	-38.3	-40.5	21.5	0.00e+00	0	60	0	344457216	47	4850
2026-01-25 19:19:55.52	135.96	19.39	-38.3	-40.5	21.5	0.00e+00	0	60	0	345505792	47	4866
2026-01-25 19:19:56.53	135.66	19.25	-38.4	-40.6	21.4	0.00e+00	0	60	0	347078656	47	4898
2026-01-25 19:19:57.54	135.35	19.11	-38.3	-40.6	21.5	0.00e+00	0	60	0	348127232	47	4886
2026-01-25 19:19:58.55	135.06	18.97	-38.2	-40.5	21.3	0.00e+00	0	60	0	349175808	47	4853
2026-01-25 19:19:59.56	134.76	18.84	-38.0	-40.4	21.5	0.00e+00	0	60	0	350224384	47	4769
2026-01-25 19:20:00.57	134.47	18.70	-38.4	-40.7	20.8	0.00e+00	0	60	0	351272960	46	5262
2026-01-25 19:20:01.58	134.18	18.56	-38.0	-40.7	20.5	5.70e-06	0	60	0	352321536	47	4951
2026-01-25 19:20:02.59	133.89	18.42	-38.5	-40.8	21.1	5.70e-06	0	60	0	353894400	47	5017
2026-01-25 19:20:03.60	133.61	18.29	-38.5	-40.9	21.1	1.10e-06	0	60	0	354942976	47	5044
2026-01-25 19:20:04.61	133.33	18.15	-38.3	-40.7	21.1	1.25e-05	0	60	0	355991552	47	4975
2026-01-25 19:20:05.62	133.06	18.02	-37.0	-40.8	19.5	2.05e-05	0	60	0	357040128	44	5948
2026-01-25 19:20:06.64	132.78	17.88	-38.5	-40.8	21.0	2.05e-05	0	60	0	358088704	47	5037
2026-01-25 19:20:07.65	132.51	17.75	-38.8	-41.2	20.6	2.52e-04	0	60	0	359137280	48	4945
2026-01-25 19:20:08.66	132.24	17.61	-38.6	-41.2	20.6	1.83e-05	0	60	0	360710144	48	4934
2026-01-25 19:20:09.67	131.98	17.48	-38.7	-41.0	20.7	1.83e-05	0	60	0	361758720	47	5155
2026-01-25 19:20:10.68	131.72	17.35	-38.6	-40.9	20.8	1.14e-05	0	60	0	362807296	47	5080
2026-01-25 19:20:11.69	131.46	17.22	-37.8	-41.0	20.6	2.20e-06	0	60	0	363855872	47	5158
2026-01-25 19:20:12.70	131.21	17.08	-38.4	-41.1	19.2	2.20e-06	0	60	0	364904448	47	5172
2026-01-25 19:20:13.70	130.95	16.95	-38.6	-41.1	20.6	8.69e-05	0	60	0	365953024	47	5163
2026-01-25 19:20:14.72	130.70	16.82	-38.7	-41.2	20.4	3.54e-05	0	60	0	367525888	48	4975
2026-01-25 19:20:15.72	130.46	16.69	-38.9	-41.3	20.5	3.54e-05	0	60	0	368574464	48	5011
2026-01-25 19:20:16.73	130.21	16.56	-38.9	-41.4	20.2	3.77e-05	0	61	0	369623040	48	5096
2026-01-25 19:20:17.74	129.97	16.43	-38.8	-41.3	20.3	1.01e-04	0	60	0	370671616	48	5040
2026-01-25 19:20:18.75	129.73	16.31	-38.6	-41.2	19.9	9.69e-04	0	60	0	371720192	48	4949
2026-01-25 19:20:19.76	129.49	16.18	-38.7	-41.2	19.8	9.69e-04	0	60	0	372768768	48	4950
2026-01-25 19:20:20.77	129.26	16.05	-38.7	-41.3	19.5	5.32e-04	0	60	0	374341632	48	5023
2026-01-25 19:20:21.78	129.03	15.92	-38.3	-41.2	19.7	2.54e-04	0	60	0	375390208	48	4951
2026-01-25 19:20:22.79	128.80	15.80	-38.6	-41.2	19.8	2.54e-04	0	60	0	376438784	47	5272
2026-01-25 19:20:23.80	128.57	15.67	-38.8	-41.5	19.1	1.00e-03	0	60	0	377487360	48	5132
2026-01-25 19:20:24.81	128.35	15.55	-37.1	-41.8	17.6	3.50e-04	0	60	0	378535936	46	5980
2026-01-25 19:20:25.82	128.13	15.42	-34.8	-41.5	16.6	3.50e-04	0	60	0	380108800	44	6430
2026-01-25 19:20:26.83	127.91	15.30	-36.2	-41.4	16.8	1.24e-03	0	60	0	381157376	46	5720
2026-01-25 19:20:27.84	127.69	15.17	-30.1	-41.9	15.4	3.05e-03	0	60	0	382205952	40	8559
2026-01-25 19:20:28.85	127.47	15.05	-36.3	-41.6	17.3	3.05e-03	0	60	0	383254528	46	5852
2026-01-25 19:20:29.86	127.26	14.93	-37.3	-42.0	17.2	1.09e-02	0	60	0	384303104	47	5746
2026-01-25 19:20:30.87	127.05	14.81	-34.7	-41.9	10.4	8.86e-03	0	60	0	385351680	41	8039
2026-01-25 19:20:31.88	126.84	14.69	-38.8	-42.0	15.9	2.39e-02	0	60	0	386400256	48	5432
2026-01-25 19:20:32.89	126.64	14.56	-38.1	-42.3	12.6	2.39e-02	0	60	0	387973120	37	10584
2026-01-25 19:20:33.90	126.43	14.44	-38.6	-41.9	17.1	6.57e-02	0	60	0	389021696	46	6017
2026-01-25 19:20:34.91	126.23	14.33	-34.1	-40.6	10.2	1.56e-02	0	60	0	390070272	32	11639
2026-01-25 19:20:35.92	126.03	14.21	-38.8	-42.4	16.7	1.56e-02	0	60	0	391118848	48	5658
2026-01-25 19:20:36.93	125.83	14.09	-38.9	-42.7	15.4	3.88e-02	0	61	0	392167424	48	5921
2026-01-25 19:20:37.94	125.64	13.97	-31.8	-41.8	12.4	5.86e-02	0	60	0	393216000	37	10028
2026-01-25 19:20:38.95	125.44	13.85	-39.5	-42.9	12.1	5.86e-02	0	61	0	394264576	43	7999
2026-01-25 19:20:39.96	125.25	13.74	-35.4	-42.5	16.1	1.55e-01	0	60	0	395313152	48	5729
2026-01-25 19:20:40.97	125.06	13.62	-37.5	-42.9	15.5	6.55e-02	0	60	0	396361728	47	6370
2026-01-25 19:20:41.98	124.87	13.50	-37.9	-42.1	15.6	6.55e-02	0	60	0	397410304	46	6142
2026-01-25 19:20:42.99	124.69	13.39	-32.9	-41.9	11.1	1.70e-01	0	60	0	398458880	36	10753
2026-01-25 19:20:44.00	124.50	13.28	-35.0	-42.1	7.5	6.13e-02	0	60	0	399507456	34	12332
2026-01-25 19:20:45.01	124.32	13.16	-36.9	-42.7	14.2	1.79e-01	0	60	0	400556032	47	6274
2026-01-25 19:20:46.02	124.14	13.05	-38.0	-42.7	16.3	1.79e-01	0	60	0	401604608	47	6257
2026-01-25 19:20:47.03	123.96	12.94	-37.2	-41.7	11.8	2.43e-02	0	61	0	402653184	33	12379
2026-01-25 19:20:48.04	123.79	12.82	-38.1	-42.7	15.7	1.91e-02	0	60	0	403701760	45	6994
2026-01-25 19:20:49.05	123.61	12.71	-30.1	-42.5	9.4	1.91e-02	0	61	0	404750336	30	16298
2026-01-25 19:20:50.06	123.44	12.60	-34.7	-42.7	9.5	1.50e-01	0	61	0	405798912	33	14028
2026-01-25 19:20:51.07	123.27	12.49	-24.4	-41.2	6.1	1.41e-01	0	60	0	406847488	20	24902
2026-01-25 19:20:52.08	123.10	12.38	-30.1	-41.9	8.4	1.41e-01	0	60	0	407896064	31	14354
2026-01-25 19:20:53.09	122.93	12.27	-29.1	-41.6	9.1	1.52e-01	0	60	0	408944640	29	15550
2026-01-25 19:20:54.10	122.76	12.16	-30.9	-42.2	9.7	8.96e-02	0	60	0	409993216	32	14040
2026-01-25 19:20:55.11	122.60	12.05	-26.4	-41.8	7.5	8.96e-02	0	61	0	411566080	25	19908
2026-01-25 19:20:56.12	122.43	11.95	-28.2	-41.9	9.1	1.03e-01	0	61	0	412614656	29	15974
2026-01-25 19:20:57.13	122.27	11.84	-30.9	-42.3	11.6	7.61e-02	0	60	0	413663232	35	11846
2026-01-25 19:20:58.14	122.11	11.73	-30.6	-42.1	9.0	6.90e-02	0	60	0	414711808	33	13052
2026-01-25 19:20:59.15	121.95	11.62	-29.7	-41.6	10.1	6.90e-02	0	61	0	415760384	31	13747
2026-01-25 19:21:00.16	121.80	11.52	-35.9	-43.4	10.4	6.70e-02	0	60	0	416808960	37	12052
2026-01-25 19:21:01.17	121.64	11.41	-31.7	-42.7	10.9	3.82e-02	0	60	0	418381824	36	11704
2026-01-25 19:21:02.18	121.49	11.31	-36.2	-43.8	11.0	3.82e-02	0	61	0	419430400	40	10629
2026-01-25 19:21:03.19	121.33	11.20	-31.0	-42.3	10.9	5.96e-02	0	60	0	420478976	35	11823
2026-01-25 19:21:04.20	121.18	11.10	-32.6	-43.7	10.7	7.40e-02	0	61	0	421527552	40	10442
2026-01-25 19:21:05.21	121.03	11.00	-29.9	-42.5	10.0	7.40e-02	0	61	0	422576128	34	12813
2026-01-25 19:21:06.22	120.88	10.90	-31.0	-43.8	8.8	6.04e-02	0	60	0	423624704	36	13373
2026-01-25 19:21:07.23	120.74	10.79	-33.8	-46.0	10.4	1.58e-01	0	60	0	424673280	38	15303
2026-01-25 19:21:08.24	120.59	10.69	-27.5	-43.5	10.2	1.02e-01	0	60	0	425721856	30	18242
2026-01-25 19:21:09.25	120.45	10.59	-32.8	-43.6	9.9	1.02e-01	0	60	0	426770432	33	15469
2026-01-25 19:21:10.26	120.30	10.49	-31.9	-44.2	11.3	1.06e-01	0	61	0	428343296	38	12472
2026-01-25 19:21:11.27	120.16	10.39	-30.6	-45.1	9.9	1.19e-01	0	60	0	429391872	34	17386
2026-01-25 19:21:12.28	120.02	10.29	-27.4	-44.2	6.7	1.19e-01	0	60	0	429916160	25	26211
2026-01-25 19:21:13.30	119.88	10.19	-28.0	-47.1	6.7	3.27e-01	0	61	0	430964736	28	30874
2026-01-25 19:21:14.30	119.75	10.09	-25.8	-45.3	7.7	5.17e-01	0	60	0	430964736	26	28164
2026-01-25 19:21:15.31	119.61	9.99	-27.7	-44.3	8.0	5.17e-01	0	60	0	432013312	25	26744
2026-01-25 19:21:16.32	119.48	9.89	-23.8	-45.5	6.1	4.67e-01	0	60	0	432537600	21	38678
2026-01-25 19:21:17.33	119.34	9.80	-22.1	-47.1	5.0	5.74e-01	0	61	104	432537600	18	54682
2026-01-25 19:21:18.34	119.21	9.70	-13.9	-40.6	3.7	5.74e-01	0	61	0	432537600	7	48975
2026-01-25 19:21:19.35	119.08	9.60	-22.2	-45.1	4.9	8.01e-01	0	60	104	432537600	17	46428
2026-01-25 19:21:20.37	118.95	9.51	-22.2	-44.3	5.7	8.13e-01	0	61	0	432537600	18	40005
2026-01-25 19:21:21.37	118.82	9.41	-21.8	-42.1	6.1	6.84e-01	0	60	0	432537600	15	36665
2026-01-25 19:21:22.38	118.69	9.32	-23.9	-41.8	5.5	6.84e-01	0	60	0	432537600	16	33508
2026-01-25 19:21:23.39	118.56	9.22	-21.7	-43.1	4.6	7.09e-01	0	61	0	432537600	15	41132
2026-01-25 19:21:24.40	118.44	9.13	-22.3	-42.7	4.4	8.12e-01	0	61	104	432537600	16	37250
2026-01-25 19:21:25.41	118.31	9.03	-25.0	-46.0	5.2	8.12e-01	0	60	0	432537600	18	48639
2026-01-25 19:21:26.43	118.19	8.94	-20.3	-43.0	4.2	7.84e-01	0	61	104	432537600	18	34425
2026-01-25 19:21:27.43	118.07	8.85	-20.3	-44.6	3.8	8.38e-01	0	61	104	432537600	18	41164
2026-01-25 19:21:28.45	117.95	8.75	-20.0	-42.3	4.3	8.38e-01	0	61	104	432537600	16	35451
2026-01-25 19:21:29.46	117.83	8.66	-20.0	-40.8	4.2	8.40e-01	0	61	0	432537600	14	33656
2026-01-25 19:21:30.47	117.71	8.57	-23.0	-42.1	3.9	8.33e-01	0	60	104	432537600	16	34824
2026-01-25 19:21:31.48	117.59	8.48	-24.0	-41.9	3.9	8.33e-01	0	60	104	432537600	16	33991
2026-01-25 19:21:32.49	117.47	8.39	-23.2	-42.4	4.2	8.38e-01	0	61	104	432537600	18	32107
2026-01-25 19:21:33.49	117.36	8.30	-22.7	-41.3	4.1	8.36e-01	0	60	104	432537600	15	33532
2026-01-25 19:21:34.50	117.24	8.21	-15.1	-40.7	3.8	8.40e-01	0	61	104	432537600	11	39314
2026-01-25 19:21:35.51	117.13	8.12	-22.5	-41.5	4.4	8.40e-01	0	60	104	432537600	15	34417
2026-01-25 19:21:36.52	117.01	8.03	-18.3	-41.2	4.3	8.37e-01	0	61	104	432537600	14	35271
2026-01-25 19:21:37.53	116.90	7.94	-41.6	-62.1	3.5	8.35e-01	0	61	104	432537600	55	36533
2026-01-25 19:21:38.54	116.79	7.85	-44.9	-63.2	3.8	8.35e-01	0	61	104	432537600	60	31233
2026-01-25 19:21:39.55	116.68	7.76	-45.1	-63.5	3.8	8.45e-01	0	61	104	432537600	60	32209
2026-01-25 19:21:40.56	116.57	7.68	-45.4	-63.5	3.8	8.46e-01	0	61	104	432537600	61	30657
2026-01-25 19:21:41.57	116.46	7.59	-45.5	-63.7	3.8	8.46e-01	0	61	104	432537600	61	31391
2026-01-25 19:21:42.58	116.36	7.50	-45.7	-63.9	3.8	8.47e-01	0	61	104	432537600	61	32004
2026-01-25 19:21:43.60	116.25	7.41	-45.8	-64.2	3.8	8.46e-01	0	61	104	432537600	62	31179
2026-01-25 19:21:44.61	116.14	7.33	-46.2	-64.5	3.8	8.46e-01	0	61	104	432537600	62	32407
2026-01-25 19:21:45.61	116.04	7.24	-46.0	-64.3	3.8	8.46e-01	0	61	104	432537600	62	31534
2026-01-25 19:21:46.62	115.94	7.16	-45.9	-64.2	3.8	8.47e-01	0	61	104	432537600	62	31261
2026-01-25 19:21:47.63	115.83	7.07	-45.8	-64.1	3.8	8.46e-01	0	61	104	432537600	62	30826
2026-01-25 19:21:48.65	115.73	6.99	-45.7	-63.9	3.8	8.46e-01	0	61	104	432537600	62	30284
2026-01-25 19:21:49.65	115.63	6.90	-45.6	-63.8	3.8	8.46e-01	0	61	104	432537600	62	29898
2026-01-25 19:21:50.67	115.53	6.82	-45.6	-63.7	3.8	8.46e-01	0	61	104	432537600	62	29559
2026-01-25 19:21:51.68	115.43	6.73	-45.5	-63.7	3.8	8.46e-01	0	61	104	432537600	62	29362
2026-01-25 19:21:52.69	115.33	6.65	-45.5	-63.6	3.8	8.46e-01	0	61	104	432537600	62	29232
2026-01-25 19:21:53.70	115.23	6.57	-45.4	-63.5	3.8	8.46e-01	0	61	104	432537600	62	28759
2026-01-25 19:21:54.71	115.13	6.49	-45.4	-63.5	3.8	8.46e-01	0	61	104	432537600	62	28807
2026-01-25 19:21:55.72	115.04	6.40	-45.4	-63.5	3.8	8.47e-01	0	61	104	432537600	62	28834
2026-01-25 19:21:56.73	114.94	6.32	-45.4	-63.5	3.8	8.46e-01	0	61	104	432537600	62	28729
2026-01-25 19:21:57.74	114.85	6.24	-45.4	-63.5	3.8	8.46e-01	0	61	104	432537600	62	28769
2026-01-25 19:21:58.75	114.75	6.16	-45.4	-63.5	3.8	8.46e-01	0	61	104	432537600	62	28778
2026-01-25 19:21:59.76	114.66	6.08	-45.4	-63.5	3.8	8.46e-01	0	61	104	432537600	62	28692
2026-01-25 19:22:00.77	114.57	6.00	-45.4	-63.5	3.8	8.47e-01	0	61	104	432537600	62	28724
2026-01-25 19:22:01.78	114.47	5.92	-45.4	-63.5	3.8	8.47e-01	0	61	104	432537600	62	28715
2026-01-25 19:22:02.79	114.38	5.84	-45.4	-63.5	3.8	8.46e-01	0	61	104	432537600	62	28770
2026-01-25 19:22:03.80	114.29	5.76	-45.4	-63.5	3.8	8.45e-01	0	61	104	432537600	62	28720
2026-01-25 19:22:04.81	114.20	5.68	-45.3	-63.5	3.8	8.45e-01	0	61	104	432537600	62	28728
2026-01-25 19:22:05.82	114.11	5.60	-45.3	-63.4	3.8	8.46e-01	0	61	104	432537600	62	28667
2026-01-25 19:22:06.83	114.03	5.52	-45.3	-63.5	3.8	8.47e-01	0	61	104	432537600	62	28734
2026-01-25 19:22:07.84	113.94	5.44	-45.3	-63.5	3.8	8.47e-01	0	61	104	432537600	62	28712
2026-01-25 19:22:08.85	113.85	5.36	-45.3	-63.4	3.8	8.46e-01	0	61	104	432537600	62	28605
2026-01-25 19:22:09.86	113.76	5.29	-45.3	-63.5	3.8	8.46e-01	0	61	104	432537600	62	28687
2026-01-25 19:22:10.87	113.68	5.21	-45.3	-63.4	3.8	8.46e-01	0	61	104	432537600	62	28670
2026-01-25 19:22:11.88	113.59	5.13	-45.3	-63.4	3.8	8.46e-01	0	61	104	432537600	62	28601
2026-01-25 19:22:12.89	113.51	5.05	-45.3	-63.4	3.8	8.47e-01	0	61	104	432537600	62	28640
2026-01-25 19:22:13.90	113.43	4.98	-45.3	-63.4	3.8	8.46e-01	0	61	104	432537600	62	28590
2026-01-25 19:22:14.91	113.34	4.90	-45.3	-63.4	3.8	8.46e-01	0	61	104	432537600	62	28677
2026-01-25 19:22:15.92	113.26	4.83	-45.3	-63.4	3.8	8.47e-01	0	61	104	432537600	62	28615
2026-01-25 19:22:16.93	113.18	4.75	-45.3	-63.4	3.8	8.46e-01	0	61	104	432537600	62	28658
2026-01-25 19:22:17.94	113.10	4.67	-45.3	-63.4	3.8	8.46e-01	0	61	104	432537600	62	28629
2026-01-25 19:22:18.96	113.02	4.60	-45.3	-63.4	3.8	8.47e-01	0	61	104	432537600	62	28517
2026-01-25 19:22:19.97	112.94	4.52	-45.3	-63.5	3.8	8.46e-01	0	61	104	432537600	62	28682
2026-01-25 19:22:20.98	112.86	4.45	-45.3	-63.5	3.8	8.46e-01	0	61	104	432537600	62	28683
2026-01-25 19:22:21.99	112.78	4.38	-45.3	-63.4	3.8	8.45e-01	0	61	104	432537600	62	28545
2026-01-25 19:22:23.00	112.70	4.30	-45.3	-63.4	3.8	8.46e-01	0	61	104	432537600	62	28554
2026-01-25 19:22:24.01	112.62	4.23	-45.3	-63.4	3.8	8.47e-01	0	61	104	432537600	62	28538
2026-01-25 19:22:25.02	112.55	4.15	-45.3	-63.4	3.8	8.47e-01	0	61	104	432537600	62	28572
2026-01-25 19:22:26.03	112.47	4.08	-45.3	-63.4	3.8	8.46e-01	0	61	104	432537600	62	28555
2026-01-25 19:22:27.04	112.39	4.01	-45.3	-63.4	3.8	8.45e-01	0	61	104	432537600	62	28502
2026-01-25 19:22:28.05	112.32	3.93	-45.3	-63.4	3.8	8.45e-01	0	61	104	432537600	62	28532
2026-01-25 19:22:29.06	112.24	3.86	-45.3	-63.4	3.8	8.46e-01	0	61	104	432537600	62	28648
2026-01-25 19:22:30.07	112.17	3.79	-45.3	-63.4	3.8	8.46e-01	0	61	104	432537600	62	28516
2026-01-25 19:22:31.08	112.09	3.72	-45.3	-63.4	3.8	8.46e-01	0	61	104	432537600	62	28569
2026-01-25 19:22:32.09	112.02	3.65	-45.3	-63.4	3.8	8.46e-01	0	61	104	432537600	62	28545
2026-01-25 19:22:33.10	111.95	3.58	-45.3	-63.4	3.8	8.45e-01	0	61	104	432537600	62	28577
2026-01-25 19:22:34.11	111.88	3.50	-45.3	-63.4	3.8	8.45e-01	0	61	104	432537600	62	28579
2026-01-25 19:22:35.12	111.81	3.43	-45.3	-63.4	3.8	8.47e-01	0	61	104	432537600	62	28432
2026-01-25 19:22:36.13	111.73	3.36	-45.3	-63.4	3.8	8.47e-01	0	61	104	432537600	62	28553
2026-01-25 19:22:37.14	111.66	3.29	-45.3	-63.4	3.8	8.46e-01	0	61	104	432537600	62	28471
2026-01-25 19:22:38.15	111.59	3.22	-45.3	-63.4	3.8	8.46e-01	0	61	104	432537600	62	28528
2026-01-25 19:22:39.16	111.52	3.15	-45.3	-63.4	3.8	8.45e-01	0	61	104	432537600	62	28462
2026-01-25 19:22:40.18	111.45	3.08	-45.3	-63.4	3.8	8.47e-01	0	61	104	432537600	62	28461
2026-01-25 19:22:41.19	111.39	3.01	-45.3	-63.4	3.8	8.47e-01	0	61	104	432537600	62	28495
2026-01-25 19:22:42.20	111.32	2.94	-45.3	-63.4	3.8	8.45e-01	0	61	104	432537600	62	28506
2026-01-25 19:22:43.21	111.25	2.87	-45.3	-63.4	3.8	8.45e-01	0	61	104	432537600	62	28459
2026-01-25 19:22:44.22	111.18	2.80	-45.3	-63.4	3.8	8.45e-01	0	61	104	432537600	62	28389
2026-01-25 19:22:45.23	111.12	2.74	-45.3	-63.4	3.8	8.45e-01	0	61	104	432537600	62	28501
2026-01-25 19:22:46.24	111.05	2.67	-45.3	-63.4	3.8	8.47e-01	0	61	104	432537600	62	28410
2026-01-25 19:22:47.25	110.98	2.60	-45.3	-63.4	3.8	8.47e-01	0	61	104	432537600	62	28462
2026-01-25 19:22:48.26	110.92	2.53	-45.3	-63.4	3.8	8.46e-01	0	61	104	432537600	62	28487
2026-01-25 19:22:49.27	110.85	2.46	-45.3	-63.4	3.8	8.47e-01	0	61	104	432537600	62	28463
2026-01-25 19:22:50.28	110.79	2.40	-45.3	-63.4	3.8	8.45e-01	0	61	104	432537600	62	28398
2026-01-25 19:22:51.29	110.72	2.33	-45.3	-63.4	3.8	8.45e-01	0	61	104	432537600	62	28457
2026-01-25 19:22:52.30	110.66	2.26	-45.3	-63.4	3.8	8.46e-01	0	61	104	432537600	62	28414
2026-01-25 19:22:53.31	110.60	2.20	-45.3	-63.4	3.8	8.46e-01	0	61	104	432537600	62	28456
2026-01-25 19:22:54.32	110.54	2.13	-45.3	-63.4	3.8	8.46e-01	0	61	104	432537600	62	28451
2026-01-25 19:22:55.33	110.47	2.06	-45.3	-63.4	3.8	8.47e-01	0	61	104	432537600	62	28380
2026-01-25 19:22:56.34	110.41	2.00	-45.3	-63.4	3.8	8.47e-01	0	61	104	432537600	62	28560
2026-01-25 19:22:57.35	110.35	1.93	-45.3	-63.4	3.8	8.47e-01	0	61	104	432537600	62	28420

#Closed at: 2026-01-25 19:22:57
#Recorded file [432 MB]: D:/lorett/data/31039_260125_221346.dat