passes_logs/2026/01/25/R2.0S_Moscow/R2.0S_Moscow__20260125_101124_AQUA_rec.log

#Pass ID: 20260125_101124_AQUA
#Satellite: AQUA
#Configuration: AQUA
#almurnet v.1.7.20251203
#Start time: 2026-01-25 10:12:49

#Version: 2.2.20231116
#Station: R2.0S_Moscow
#Location: 37.707566 lon 55.798166 lat
#TLE: 1 27424U 02022A   26024.53919639  .00001970  00000+0  40397-3 0  9996
#TLE: 2 27424  98.4098 351.1277 0001915  66.8561 358.4840 14.61855303262281

#Time	Az	El	Level	Level2	SNR	BER	BlckErr	Temp	State	Recorded	gain1	gain2
2026-01-25 10:12:49.91	106.49	7.34	-44.9	-59.5	3.8	1.49e+00	0	62	0	0	60	20405
2026-01-25 10:12:50.91	106.38	7.41	-46.6	-65.1	3.8	7.47e-01	0	62	104	0	63	32689
2026-01-25 10:12:51.92	106.27	7.47	-46.6	-65.1	3.8	7.44e-01	0	62	104	0	63	32925
2026-01-25 10:12:52.93	106.15	7.54	-46.6	-65.2	3.8	7.45e-01	0	62	104	0	63	32987
2026-01-25 10:12:53.94	106.04	7.61	-46.6	-65.1	3.8	7.43e-01	0	61	104	0	63	32900
2026-01-25 10:12:54.95	105.92	7.68	-46.6	-65.1	3.8	7.42e-01	0	62	104	0	63	32749
2026-01-25 10:12:55.96	105.80	7.74	-46.5	-64.9	3.8	7.48e-01	0	62	104	0	63	32128
2026-01-25 10:12:56.97	105.69	7.81	-46.4	-64.8	3.8	7.44e-01	0	62	104	0	63	31779
2026-01-25 10:12:57.98	105.57	7.88	-46.2	-64.7	3.8	7.41e-01	0	62	104	0	63	31367
2026-01-25 10:12:58.99	105.45	7.95	-46.0	-64.5	3.8	7.49e-01	0	62	104	0	63	30582
2026-01-25 10:13:00.00	105.33	8.01	-45.6	-63.9	3.8	7.48e-01	0	62	104	0	62	30149
2026-01-25 10:13:01.01	105.21	8.08	-43.2	-62.2	3.9	7.47e-01	0	62	104	0	59	29664
2026-01-25 10:13:02.02	105.09	8.15	-20.6	-37.4	3.4	7.47e-01	0	62	104	0	12	25544
2026-01-25 10:13:03.03	104.97	8.22	-25.9	-36.2	3.4	7.49e-01	0	62	104	0	9	26451
2026-01-25 10:13:04.04	104.84	8.29	-17.4	-35.3	3.6	7.51e-01	0	62	104	0	7	26584
2026-01-25 10:13:05.06	104.72	8.36	-22.2	-43.5	4.0	7.40e-01	0	62	104	0	18	36208
2026-01-25 10:13:06.07	104.60	8.43	-18.1	-34.5	3.9	7.47e-01	0	62	104	0	8	22832
2026-01-25 10:13:07.08	104.47	8.49	-18.7	-39.5	3.7	7.54e-01	0	62	104	0	9	38536
2026-01-25 10:13:08.09	104.35	8.56	-19.4	-37.6	4.0	7.58e-01	0	62	104	0	11	27661
2026-01-25 10:13:09.10	104.22	8.63	-21.7	-45.1	3.5	7.48e-01	0	62	104	0	14	55015
2026-01-25 10:13:10.11	104.10	8.70	-22.1	-41.8	3.4	7.46e-01	0	62	104	0	12	42406
2026-01-25 10:13:11.12	103.97	8.77	-26.2	-44.1	3.7	7.46e-01	0	62	104	0	22	30929
2026-01-25 10:13:12.13	103.85	8.84	-17.0	-40.3	3.6	7.50e-01	0	62	104	0	6	50044
2026-01-25 10:13:13.14	103.72	8.91	-18.5	-38.8	3.6	7.56e-01	0	62	104	0	10	33435
2026-01-25 10:13:14.15	103.59	8.98	-16.9	-36.3	3.8	7.50e-01	0	62	104	0	11	23717
2026-01-25 10:13:15.16	103.46	9.05	-21.8	-44.3	3.4	7.71e-01	0	62	104	0	18	40030
2026-01-25 10:13:16.17	103.33	9.12	-16.8	-33.6	3.8	7.49e-01	0	62	104	0	6	23299
2026-01-25 10:13:17.18	103.20	9.19	-18.4	-37.9	3.6	7.62e-01	0	62	104	0	6	38068
2026-01-25 10:13:18.19	103.07	9.26	-25.5	-34.6	3.9	7.54e-01	0	62	104	0	5	27689
2026-01-25 10:13:19.20	102.94	9.33	-18.8	-38.0	4.2	7.55e-01	0	61	104	0	7	36117
2026-01-25 10:13:20.21	102.80	9.40	-19.2	-38.5	3.7	7.61e-01	0	62	104	0	7	38637
2026-01-25 10:13:21.22	102.67	9.47	-20.2	-39.5	3.6	7.61e-01	0	62	104	0	7	43299
2026-01-25 10:13:22.24	102.54	9.54	-17.7	-39.7	3.6	7.51e-01	0	62	104	0	7	44161
2026-01-25 10:13:23.25	102.40	9.61	-17.7	-37.5	3.7	7.40e-01	0	62	104	0	9	30640
2026-01-25 10:13:24.26	102.27	9.68	-18.8	-37.8	4.0	7.69e-01	0	62	104	0	9	31692
2026-01-25 10:13:25.27	102.13	9.75	-18.4	-34.3	4.2	7.52e-01	0	62	104	0	6	25167
2026-01-25 10:13:26.28	101.99	9.82	-19.4	-37.9	4.0	7.63e-01	0	62	104	0	9	32086
2026-01-25 10:13:27.29	101.85	9.89	-18.7	-40.0	3.8	7.55e-01	0	62	104	0	8	43376
2026-01-25 10:13:28.30	101.72	9.96	-21.5	-39.7	3.9	7.45e-01	0	62	104	0	13	31261
2026-01-25 10:13:29.31	101.58	10.03	-17.9	-39.4	3.6	7.47e-01	0	62	104	0	10	35849
2026-01-25 10:13:30.32	101.44	10.10	-20.7	-45.6	3.9	7.52e-01	0	62	104	0	20	41277
2026-01-25 10:13:31.33	101.30	10.17	-25.9	-48.1	4.1	7.50e-01	0	62	104	0	20	54767
2026-01-25 10:13:32.34	101.16	10.24	-19.6	-43.0	3.8	7.67e-01	0	62	104	0	17	36115
2026-01-25 10:13:33.35	101.01	10.31	-26.6	-46.9	4.1	7.57e-01	0	62	104	0	21	45407
2026-01-25 10:13:34.36	100.87	10.38	-17.7	-38.8	3.7	7.52e-01	0	62	104	0	5	44457
2026-01-25 10:13:35.37	100.73	10.45	-24.1	-47.5	3.8	7.64e-01	0	62	104	0	16	64344
2026-01-25 10:13:36.38	100.58	10.52	-26.6	-47.0	3.9	7.49e-01	0	62	104	0	20	48259
2026-01-25 10:13:37.39	100.44	10.59	-23.5	-45.0	3.7	7.66e-01	0	62	104	0	15	51309
2026-01-25 10:13:38.40	100.29	10.67	-26.3	-44.6	3.7	7.44e-01	0	62	104	0	15	49208
2026-01-25 10:13:39.41	100.15	10.74	-27.3	-45.3	4.8	7.39e-01	0	62	104	0	23	33623
2026-01-25 10:13:40.42	100.00	10.81	-21.7	-39.7	3.7	7.42e-01	0	62	104	0	9	39419
2026-01-25 10:13:41.43	99.85	10.88	-19.7	-42.8	4.2	7.40e-01	0	62	104	0	12	47188
2026-01-25 10:13:42.43	99.70	10.95	-19.5	-41.8	3.9	7.60e-01	0	62	104	0	13	39925
2026-01-25 10:13:43.44	99.55	11.02	-22.8	-42.4	4.2	7.33e-01	0	62	104	0	18	32088
2026-01-25 10:13:44.45	99.40	11.09	-33.2	-46.6	3.6	7.55e-01	0	62	104	0	20	46063
2026-01-25 10:13:45.46	99.25	11.16	-42.4	-58.5	4.0	7.41e-01	0	62	104	0	55	24209
2026-01-25 10:13:46.47	99.10	11.24	-25.8	-44.5	4.6	7.27e-01	0	62	104	0	24	28894
2026-01-25 10:13:47.48	98.95	11.31	-19.7	-43.3	3.5	7.50e-01	0	62	104	0	10	56165
2026-01-25 10:13:48.49	98.79	11.38	-23.3	-47.2	3.8	7.40e-01	0	62	104	0	18	55893
2026-01-25 10:13:49.50	98.64	11.45	-24.8	-47.0	3.7	7.58e-01	0	62	104	0	18	54210
2026-01-25 10:13:50.51	98.48	11.52	-28.9	-48.5	4.6	7.39e-01	0	62	104	0	26	40716
2026-01-25 10:13:51.52	98.33	11.59	-21.0	-43.5	3.4	7.49e-01	0	62	104	0	12	51416
2026-01-25 10:13:52.53	98.17	11.66	-21.2	-45.8	3.9	7.25e-01	0	62	104	0	18	47175
2026-01-25 10:13:53.54	98.01	11.74	-26.6	-46.4	3.8	7.49e-01	0	62	104	0	19	47750
2026-01-25 10:13:54.55	97.85	11.81	-28.5	-44.2	4.4	7.14e-01	0	62	104	0	33	16507
2026-01-25 10:13:55.56	97.69	11.88	-34.9	-47.6	4.8	7.06e-01	0	62	104	524288	37	19502
2026-01-25 10:13:56.57	97.53	11.95	-27.8	-47.8	6.0	6.87e-01	0	62	104	524288	29	31469
2026-01-25 10:13:57.58	97.37	12.02	-22.9	-50.8	4.3	7.49e-01	0	62	104	524288	26	53190
2026-01-25 10:13:58.59	97.21	12.10	-30.1	-50.5	3.9	7.52e-01	0	62	104	524288	26	51079
2026-01-25 10:13:59.60	97.05	12.17	-26.9	-45.8	4.0	7.59e-01	0	62	104	524288	17	49907
2026-01-25 10:14:00.60	96.88	12.24	-26.2	-49.7	4.1	7.45e-01	0	62	104	524288	25	49325
2026-01-25 10:14:01.61	96.72	12.31	-28.5	-52.5	4.0	7.49e-01	0	62	104	524288	30	51563
2026-01-25 10:14:02.62	96.55	12.38	-39.9	-46.1	14.4	6.08e-01	0	62	0	524288	48	8725
2026-01-25 10:14:03.63	96.39	12.46	-43.4	-51.3	10.5	6.18e-01	1	62	0	2621440	57	9443
2026-01-25 10:14:04.64	96.22	12.53	-40.7	-45.7	15.1	6.09e-01	0	62	0	4194304	51	7034
2026-01-25 10:14:05.65	96.05	12.60	-36.8	-46.2	11.2	6.23e-01	12	62	104	5242880	44	11119
2026-01-25 10:14:06.66	95.88	12.67	-41.2	-46.3	15.4	6.08e-01	0	62	0	6815744	52	7050
2026-01-25 10:14:07.67	95.71	12.74	-41.6	-46.7	14.7	6.08e-01	0	62	0	8912896	54	6587
2026-01-25 10:14:08.68	95.54	12.82	-41.7	-46.4	15.7	6.04e-01	0	62	0	10485760	54	6380
2026-01-25 10:14:09.69	95.37	12.89	-41.7	-46.0	16.0	6.06e-01	0	62	0	12582912	54	6102
2026-01-25 10:14:10.70	95.20	12.96	-41.7	-45.8	16.2	6.05e-01	0	62	0	14680064	53	6306
2026-01-25 10:14:11.71	95.02	13.03	-41.4	-45.8	16.0	6.06e-01	0	62	0	16252928	53	6294
2026-01-25 10:14:12.72	94.85	13.10	-38.0	-45.1	15.5	6.04e-01	0	62	0	18350080	46	8732
2026-01-25 10:14:13.73	94.67	13.18	-41.5	-45.5	16.1	6.06e-01	0	62	0	19922944	53	6111
2026-01-25 10:14:14.74	94.50	13.25	-41.7	-45.7	15.9	6.06e-01	0	62	0	22020096	54	5918
2026-01-25 10:14:15.75	94.32	13.32	-41.5	-45.4	16.7	6.07e-01	0	62	0	24117248	53	6045
2026-01-25 10:14:16.75	94.14	13.39	-41.5	-45.7	16.3	6.06e-01	0	62	0	25690112	53	6210
2026-01-25 10:14:17.76	93.96	13.46	-41.8	-46.0	16.2	6.06e-01	0	62	0	27787264	54	6124
2026-01-25 10:14:18.77	93.78	13.53	-42.3	-47.3	15.0	6.08e-01	0	62	0	29360128	55	6658
2026-01-25 10:14:19.78	93.60	13.61	-42.2	-47.1	15.2	6.09e-01	0	62	0	31457280	55	6497
2026-01-25 10:14:20.79	93.42	13.68	-42.4	-47.4	14.8	6.06e-01	0	62	0	33554432	55	6784
2026-01-25 10:14:21.80	93.24	13.75	-42.4	-47.8	14.4	6.08e-01	0	62	0	35127296	55	7062
2026-01-25 10:14:22.81	93.05	13.82	-42.4	-47.4	14.7	6.08e-01	0	62	0	37224448	55	6799
2026-01-25 10:14:23.82	92.87	13.89	-42.0	-46.5	15.8	6.07e-01	0	62	0	39321600	55	6071
2026-01-25 10:14:24.83	92.68	13.97	-42.1	-46.7	15.6	6.10e-01	0	62	0	40894464	54	6599
2026-01-25 10:14:25.84	92.49	14.04	-42.2	-47.0	15.1	6.07e-01	0	62	0	42991616	55	6476
2026-01-25 10:14:26.85	92.31	14.11	-42.2	-46.9	15.3	6.06e-01	0	62	0	44564480	55	6404
2026-01-25 10:14:27.86	92.12	14.18	-42.3	-47.4	14.9	6.08e-01	0	62	0	46661632	55	6733
2026-01-25 10:14:28.87	91.93	14.25	-42.3	-47.3	14.8	6.05e-01	0	62	0	48758784	55	6723
2026-01-25 10:14:29.88	91.74	14.32	-42.5	-47.8	14.3	6.09e-01	0	62	0	50331648	55	7041
2026-01-25 10:14:30.89	91.54	14.39	-42.3	-47.5	14.6	6.06e-01	0	62	0	52428800	55	6816
2026-01-25 10:14:31.90	91.35	14.47	-42.2	-47.1	14.8	6.09e-01	0	62	0	54001664	55	6538
2026-01-25 10:14:32.90	91.16	14.54	-42.1	-47.0	15.1	6.07e-01	0	62	0	56098816	54	6845
2026-01-25 10:14:33.90	90.97	14.61	-42.0	-46.5	15.6	6.06e-01	0	62	0	58195968	54	6479
2026-01-25 10:14:34.91	90.77	14.68	-41.7	-46.0	16.1	6.08e-01	0	62	0	59768832	54	6083
2026-01-25 10:14:35.92	90.57	14.75	-41.5	-45.5	16.5	6.07e-01	0	62	0	61865984	54	5760
2026-01-25 10:14:36.93	90.38	14.82	-41.4	-45.3	16.8	6.06e-01	0	62	0	63438848	53	5951
2026-01-25 10:14:37.94	90.18	14.89	-41.5	-45.7	16.3	6.08e-01	0	62	0	65536000	53	6224
2026-01-25 10:14:38.95	89.98	14.96	-41.4	-45.5	16.4	6.07e-01	0	62	0	67633152	53	6100
2026-01-25 10:14:39.96	89.78	15.03	-41.4	-45.5	16.4	6.04e-01	0	62	0	69206016	53	6126
2026-01-25 10:14:40.97	89.57	15.10	-41.5	-45.9	15.9	6.08e-01	0	62	0	71303168	53	6415
2026-01-25 10:14:41.98	89.37	15.17	-41.5	-45.9	15.9	6.08e-01	0	62	0	72876032	53	6397
2026-01-25 10:14:42.99	89.17	15.24	-41.5	-46.0	15.9	6.05e-01	0	62	0	74973184	53	6426
2026-01-25 10:14:44.00	88.96	15.31	-41.5	-45.8	16.0	6.08e-01	0	62	0	77070336	53	6337
2026-01-25 10:14:45.01	88.76	15.38	-41.5	-45.8	16.1	6.06e-01	0	62	0	78643200	53	6302
2026-01-25 10:14:46.02	88.55	15.45	-41.6	-46.0	15.9	6.08e-01	0	62	0	80740352	53	6437
2026-01-25 10:14:47.02	88.34	15.52	-41.8	-46.5	15.3	6.08e-01	0	62	0	82837504	54	6465
2026-01-25 10:14:48.03	88.13	15.59	-41.8	-46.7	14.9	6.09e-01	0	62	0	84410368	54	6613
2026-01-25 10:14:49.04	87.92	15.66	-41.8	-46.6	15.0	6.08e-01	0	62	0	86507520	54	6560
2026-01-25 10:14:50.05	87.71	15.73	-41.7	-46.8	14.6	6.08e-01	0	62	0	88080384	54	6718
2026-01-25 10:14:51.06	87.50	15.80	-41.7	-47.0	14.4	6.08e-01	0	62	0	90177536	54	6802
2026-01-25 10:14:52.07	87.29	15.87	-41.7	-47.3	13.9	6.07e-01	0	62	0	92274688	54	7097
2026-01-25 10:14:53.08	87.07	15.93	-41.7	-47.5	13.6	6.10e-01	0	62	0	93847552	54	7237
2026-01-25 10:14:54.09	86.86	16.00	-41.7	-47.6	13.4	6.11e-01	0	62	0	95944704	54	7348
2026-01-25 10:14:55.10	86.64	16.07	-41.8	-47.8	13.2	6.08e-01	0	62	0	98041856	54	7526
2026-01-25 10:14:56.11	86.42	16.14	-41.8	-47.7	13.4	6.07e-01	0	62	0	99614720	54	7387
2026-01-25 10:14:57.12	86.20	16.21	-41.8	-47.5	13.7	6.10e-01	0	62	0	101711872	54	7255
2026-01-25 10:14:58.13	85.98	16.27	-41.8	-47.5	13.8	6.08e-01	0	62	0	103284736	54	7224
2026-01-25 10:14:59.14	85.76	16.34	-41.9	-47.7	13.6	6.06e-01	0	62	0	105381888	54	7430
2026-01-25 10:15:00.14	85.54	16.41	-41.9	-47.7	13.7	6.08e-01	0	62	0	106954752	54	7414
2026-01-25 10:15:01.16	85.32	16.48	-42.0	-47.7	13.6	6.08e-01	0	62	0	109051904	54	7442
2026-01-25 10:15:02.16	85.10	16.54	-42.0	-47.8	13.4	6.09e-01	0	62	0	111149056	54	7531
2026-01-25 10:15:03.17	84.87	16.61	-41.9	-47.6	13.6	6.10e-01	0	62	0	112721920	54	7367
2026-01-25 10:15:04.18	84.65	16.68	-41.8	-47.4	13.9	6.09e-01	0	62	0	114819072	54	7158
2026-01-25 10:15:05.19	84.42	16.74	-41.8	-47.2	14.2	6.06e-01	0	62	0	116391936	54	6988
2026-01-25 10:15:06.20	84.19	16.81	-41.9	-47.0	14.6	6.07e-01	0	62	0	118489088	54	6848
2026-01-25 10:15:07.21	83.96	16.87	-42.0	-47.1	14.6	6.08e-01	0	62	0	120586240	54	6891
2026-01-25 10:15:08.22	83.73	16.94	-42.0	-47.0	14.7	6.04e-01	0	62	0	122159104	54	6829
2026-01-25 10:15:09.23	83.50	17.00	-42.0	-47.1	14.7	6.07e-01	0	62	0	124256256	54	6888
2026-01-25 10:15:10.24	83.27	17.07	-42.0	-47.0	14.7	6.09e-01	0	62	0	126353408	54	6869
2026-01-25 10:15:11.25	83.03	17.13	-42.0	-47.0	14.6	6.07e-01	0	62	0	127926272	54	6878
2026-01-25 10:15:12.26	82.80	17.20	-41.8	-46.6	15.1	6.07e-01	0	62	0	130023424	54	6503
2026-01-25 10:15:13.27	82.56	17.26	-41.7	-46.4	15.2	6.08e-01	0	62	0	131596288	54	6359
2026-01-25 10:15:14.27	82.33	17.33	-41.7	-46.5	15.1	6.09e-01	0	62	0	133693440	54	6434
2026-01-25 10:15:15.28	82.09	17.39	-41.7	-46.6	15.0	6.07e-01	0	62	0	135790592	54	6527
2026-01-25 10:15:16.29	81.85	17.45	-41.8	-46.8	14.8	6.06e-01	0	62	0	137363456	54	6710
2026-01-25 10:15:17.30	81.61	17.52	-41.9	-47.0	14.7	6.07e-01	0	62	0	139460608	54	6818
2026-01-25 10:15:18.31	81.37	17.58	-41.9	-46.9	14.8	6.07e-01	0	62	0	141033472	54	6736
2026-01-25 10:15:19.32	81.13	17.64	-41.8	-46.6	15.1	6.08e-01	0	62	0	143130624	54	6522
2026-01-25 10:15:20.33	80.89	17.70	-41.7	-46.6	15.0	6.08e-01	0	62	0	145227776	54	6547
2026-01-25 10:15:21.34	80.64	17.76	-41.7	-46.9	14.6	6.05e-01	0	62	0	146800640	54	6738
2026-01-25 10:15:22.35	80.40	17.82	-41.8	-47.4	13.9	6.08e-01	0	62	0	148897792	54	7149
2026-01-25 10:15:23.36	80.15	17.89	-41.8	-47.6	13.5	6.09e-01	0	62	0	150994944	54	7363
2026-01-25 10:15:24.37	79.90	17.95	-41.8	-48.0	13.0	6.13e-01	0	62	0	152567808	54	7706
2026-01-25 10:15:25.38	79.66	18.01	-41.8	-48.3	12.6	6.10e-01	0	62	0	154664960	54	7962
2026-01-25 10:15:26.39	79.41	18.07	-41.8	-48.3	12.7	6.10e-01	0	62	0	156237824	54	7913
2026-01-25 10:15:27.39	79.16	18.13	-41.9	-48.4	12.5	6.12e-01	0	62	0	158334976	54	8013
2026-01-25 10:15:28.40	78.91	18.18	-41.8	-48.0	13.0	6.11e-01	0	62	0	160432128	54	7672
2026-01-25 10:15:29.41	78.65	18.24	-41.8	-47.8	13.3	6.10e-01	0	62	0	162004992	54	7488
2026-01-25 10:15:30.42	78.40	18.30	-41.8	-47.7	13.4	6.08e-01	0	62	0	164102144	54	7388
2026-01-25 10:15:31.43	78.15	18.36	-41.7	-47.4	13.8	6.08e-01	0	62	0	165675008	54	7138
2026-01-25 10:15:32.45	77.89	18.42	-41.7	-47.2	14.1	6.08e-01	0	62	0	167772160	54	6976
2026-01-25 10:15:33.45	77.63	18.47	-41.7	-47.0	14.3	6.09e-01	0	62	0	169869312	54	6809
2026-01-25 10:15:34.46	77.38	18.53	-41.7	-47.0	14.3	6.07e-01	0	62	0	171442176	54	6825
2026-01-25 10:15:35.47	77.12	18.59	-41.7	-47.1	14.3	6.07e-01	0	62	0	173539328	54	6890
2026-01-25 10:15:36.48	76.86	18.64	-41.7	-47.2	14.1	6.10e-01	0	62	0	175112192	54	6994
2026-01-25 10:15:37.49	76.60	18.70	-41.8	-47.4	13.9	6.07e-01	0	62	0	177209344	54	7178
2026-01-25 10:15:38.50	76.34	18.75	-41.8	-47.4	14.0	6.07e-01	0	62	0	179306496	54	7136
2026-01-25 10:15:39.51	76.07	18.81	-41.9	-47.5	13.9	6.09e-01	0	61	0	180879360	54	7225
2026-01-25 10:15:40.52	75.81	18.86	-41.8	-47.3	14.0	6.09e-01	0	62	0	182976512	54	7088
2026-01-25 10:15:41.53	75.54	18.91	-41.8	-47.4	14.0	6.09e-01	0	62	0	184549376	54	7135
2026-01-25 10:15:42.54	75.28	18.97	-41.9	-47.5	13.8	6.06e-01	0	62	0	186646528	54	7278
2026-01-25 10:15:43.55	75.01	19.02	-41.8	-47.4	13.9	6.08e-01	0	62	0	188743680	54	7180
2026-01-25 10:15:44.56	74.74	19.07	-41.9	-47.5	13.9	6.08e-01	0	62	0	190316544	54	7216
2026-01-25 10:15:45.57	74.48	19.12	-41.9	-47.4	14.0	6.07e-01	0	62	0	192413696	54	7159
2026-01-25 10:15:46.58	74.21	19.17	-41.9	-47.4	14.0	6.06e-01	0	62	0	193986560	54	7197
2026-01-25 10:15:47.59	73.94	19.22	-42.0	-47.5	14.1	6.09e-01	0	61	0	196083712	54	7233
2026-01-25 10:15:48.60	73.66	19.27	-42.0	-47.4	14.3	6.07e-01	0	62	0	198180864	54	7123
2026-01-25 10:15:49.60	73.39	19.32	-42.1	-47.2	14.5	6.08e-01	0	62	0	199753728	54	7022
2026-01-25 10:15:50.61	73.12	19.37	-42.1	-47.1	14.7	6.07e-01	0	62	0	201850880	54	6954
2026-01-25 10:15:51.62	72.85	19.42	-42.1	-47.1	14.8	6.08e-01	0	62	0	203948032	54	6933
2026-01-25 10:15:52.63	72.57	19.47	-42.1	-47.1	14.9	6.06e-01	0	62	0	205520896	54	6886
2026-01-25 10:15:53.64	72.30	19.51	-42.0	-46.9	15.1	6.09e-01	0	62	0	207618048	54	6750
2026-01-25 10:15:54.65	72.02	19.56	-42.0	-47.0	15.0	6.07e-01	0	62	0	209190912	54	6841
2026-01-25 10:15:55.66	71.74	19.61	-42.1	-47.1	15.0	6.07e-01	0	61	0	211288064	54	6892
2026-01-25 10:15:56.67	71.46	19.65	-42.2	-47.0	15.2	6.06e-01	0	62	0	213385216	54	6836
2026-01-25 10:15:57.69	71.18	19.70	-42.2	-46.8	15.5	6.05e-01	0	62	0	214958080	54	6677
2026-01-25 10:15:58.70	70.90	19.74	-42.3	-46.7	15.7	6.08e-01	0	62	0	217055232	55	6273
2026-01-25 10:15:59.71	70.62	19.79	-42.2	-46.5	16.1	6.05e-01	0	62	0	219152384	55	6064
2026-01-25 10:16:00.72	70.34	19.83	-42.1	-46.2	16.5	6.07e-01	0	62	0	220725248	55	5873
2026-01-25 10:16:01.73	70.05	19.87	-42.0	-46.0	16.7	6.06e-01	0	62	0	222822400	55	5757
2026-01-25 10:16:02.73	69.77	19.91	-42.0	-46.0	16.7	6.06e-01	0	62	0	224395264	55	5777
2026-01-25 10:16:03.74	69.49	19.95	-42.0	-46.0	16.8	6.05e-01	0	62	0	226492416	55	5725
2026-01-25 10:16:04.75	69.20	19.99	-42.1	-46.0	16.8	6.07e-01	0	62	0	228589568	55	5750
2026-01-25 10:16:05.76	68.92	20.03	-42.1	-46.1	16.8	6.06e-01	0	62	0	230162432	55	5794
2026-01-25 10:16:06.77	68.63	20.07	-42.1	-45.9	17.0	6.05e-01	0	62	0	232259584	55	5702
2026-01-25 10:16:07.78	68.34	20.11	-42.1	-45.8	17.2	6.05e-01	0	62	0	233832448	55	5649
2026-01-25 10:16:08.79	68.05	20.15	-42.1	-45.9	17.2	6.04e-01	0	62	0	235929600	55	5659
2026-01-25 10:16:09.80	67.77	20.19	-42.1	-45.8	17.3	6.07e-01	0	62	0	238026752	55	5611
2026-01-25 10:16:10.81	67.48	20.22	-42.1	-45.8	17.4	6.05e-01	0	61	0	239599616	55	5622
2026-01-25 10:16:11.82	67.19	20.26	-42.1	-45.7	17.4	6.06e-01	0	62	0	241696768	55	5589
2026-01-25 10:16:12.83	66.89	20.30	-42.1	-45.7	17.5	6.05e-01	0	62	0	243269632	55	5543
2026-01-25 10:16:13.84	66.60	20.33	-42.2	-45.8	17.4	6.06e-01	0	62	0	245366784	55	5651
2026-01-25 10:16:14.84	66.31	20.36	-42.2	-46.0	17.3	6.08e-01	0	62	0	247463936	55	5728
2026-01-25 10:16:15.85	66.02	20.40	-42.2	-45.9	17.3	6.06e-01	0	61	0	249036800	55	5675
2026-01-25 10:16:16.86	65.73	20.43	-42.2	-45.8	17.4	6.05e-01	0	62	0	251133952	55	5617
2026-01-25 10:16:17.87	65.43	20.46	-42.3	-46.0	17.3	6.08e-01	0	62	0	252706816	55	5733
2026-01-25 10:16:18.88	65.14	20.49	-42.2	-45.8	17.5	6.05e-01	0	62	0	254803968	55	5594
2026-01-25 10:16:19.89	64.84	20.52	-42.1	-45.7	17.6	6.07e-01	0	61	0	256901120	55	5553
2026-01-25 10:16:20.90	64.54	20.55	-42.1	-45.7	17.6	6.07e-01	0	62	0	258473984	55	5566
2026-01-25 10:16:21.91	64.25	20.58	-42.2	-45.8	17.5	6.08e-01	0	61	0	260571136	55	5607
2026-01-25 10:16:22.92	63.95	20.61	-42.2	-45.8	17.4	6.05e-01	0	62	0	262144000	55	5656
2026-01-25 10:16:23.93	63.65	20.64	-42.2	-45.7	17.6	6.06e-01	0	62	0	264241152	55	5583
2026-01-25 10:16:24.94	63.35	20.66	-42.2	-45.8	17.5	6.06e-01	0	62	0	266338304	55	5625
2026-01-25 10:16:25.95	63.05	20.69	-42.2	-45.8	17.5	6.05e-01	0	62	0	267911168	55	5612
2026-01-25 10:16:26.96	62.75	20.71	-42.2	-45.8	17.5	6.08e-01	0	62	0	270008320	55	5620
2026-01-25 10:16:27.97	62.45	20.74	-42.2	-45.8	17.5	6.06e-01	0	61	0	272105472	55	5613
2026-01-25 10:16:28.98	62.15	20.76	-42.2	-45.8	17.5	6.06e-01	0	62	0	273678336	55	5653
2026-01-25 10:16:29.99	61.85	20.78	-42.3	-46.0	17.3	6.06e-01	0	61	0	275775488	55	5784
2026-01-25 10:16:31.00	61.55	20.81	-42.2	-45.8	17.5	6.07e-01	0	61	0	277348352	55	5635
2026-01-25 10:16:32.00	61.25	20.83	-42.2	-45.8	17.5	6.05e-01	0	62	0	279445504	55	5653
2026-01-25 10:16:33.01	60.95	20.85	-42.1	-45.6	17.7	6.06e-01	0	62	0	281542656	55	5495
2026-01-25 10:16:34.02	60.64	20.87	-42.1	-45.6	17.7	6.06e-01	0	62	0	283115520	55	5509
2026-01-25 10:16:35.03	60.34	20.88	-42.2	-45.7	17.7	6.08e-01	0	62	0	285212672	55	5550
2026-01-25 10:16:36.04	60.04	20.90	-42.2	-45.7	17.6	6.07e-01	0	62	0	286785536	55	5585
2026-01-25 10:16:37.05	59.73	20.92	-42.2	-45.8	17.6	6.07e-01	0	61	0	288882688	55	5594
2026-01-25 10:16:38.06	59.43	20.94	-42.2	-45.8	17.6	6.07e-01	0	61	0	290979840	55	5607
2026-01-25 10:16:39.07	59.12	20.95	-42.2	-45.8	17.6	6.08e-01	0	62	0	292552704	55	5624
2026-01-25 10:16:40.08	58.82	20.97	-42.2	-45.7	17.6	6.06e-01	0	62	0	294649856	55	5586
2026-01-25 10:16:41.09	58.51	20.98	-42.2	-45.8	17.6	6.05e-01	0	62	0	296222720	55	5593
2026-01-25 10:16:42.10	58.21	20.99	-42.2	-45.8	17.5	6.07e-01	0	61	0	298319872	55	5629
2026-01-25 10:16:43.11	57.90	21.01	-42.3	-45.9	17.4	6.04e-01	0	62	0	300417024	55	5697
2026-01-25 10:16:44.12	57.60	21.02	-42.3	-45.9	17.4	6.05e-01	0	62	0	301989888	55	5681
2026-01-25 10:16:45.13	57.29	21.03	-42.2	-45.8	17.6	6.06e-01	0	62	0	304087040	55	5593
2026-01-25 10:16:46.14	56.98	21.04	-42.2	-45.7	17.6	6.06e-01	0	62	0	305659904	55	5576
2026-01-25 10:16:47.15	56.68	21.05	-42.2	-45.7	17.6	6.05e-01	0	62	0	307757056	55	5562
2026-01-25 10:16:48.16	56.37	21.06	-42.2	-45.8	17.5	6.07e-01	0	61	0	309854208	55	5604
2026-01-25 10:16:49.17	56.06	21.06	-42.3	-45.9	17.4	6.07e-01	0	62	0	311427072	55	5703
2026-01-25 10:16:50.17	55.76	21.07	-42.3	-45.8	17.5	6.06e-01	0	61	0	313524224	55	5641
2026-01-25 10:16:51.18	55.45	21.07	-42.3	-45.8	17.5	6.03e-01	0	62	0	315621376	55	5643
2026-01-25 10:16:52.19	55.14	21.08	-42.2	-45.8	17.5	6.05e-01	0	61	0	317194240	55	5614
2026-01-25 10:16:53.20	54.84	21.08	-42.2	-45.8	17.5	6.05e-01	0	62	0	319291392	55	5639
2026-01-25 10:16:54.21	54.53	21.09	-42.2	-45.8	17.5	6.05e-01	0	62	0	320864256	55	5630
2026-01-25 10:16:55.22	54.22	21.09	-42.2	-45.8	17.6	6.04e-01	0	62	0	322961408	55	5607
2026-01-25 10:16:56.23	53.91	21.09	-42.2	-45.8	17.6	6.07e-01	0	61	0	325058560	55	5626
2026-01-25 10:16:57.24	53.61	21.09	-42.3	-45.9	17.5	6.06e-01	0	61	0	326631424	55	5672
2026-01-25 10:16:58.25	53.30	21.09	-42.2	-45.8	17.6	6.06e-01	0	62	0	328728576	55	5594
2026-01-25 10:16:59.26	52.99	21.09	-42.3	-45.8	17.5	6.08e-01	0	62	0	330301440	55	5648
2026-01-25 10:17:00.26	52.69	21.09	-42.2	-45.8	17.6	6.04e-01	0	62	0	332398592	55	5617
2026-01-25 10:17:01.27	52.38	21.09	-42.3	-45.9	17.5	6.06e-01	0	62	0	334495744	55	5675
2026-01-25 10:17:02.28	52.07	21.08	-42.3	-45.9	17.4	6.07e-01	0	61	0	336068608	55	5713
2026-01-25 10:17:03.29	51.76	21.08	-42.3	-45.9	17.5	6.06e-01	0	61	0	338165760	55	5694
2026-01-25 10:17:04.30	51.46	21.07	-42.3	-45.9	17.4	6.05e-01	0	62	0	340262912	55	5699
2026-01-25 10:17:05.31	51.15	21.07	-42.3	-45.8	17.5	6.07e-01	0	62	0	341835776	55	5641
2026-01-25 10:17:06.32	50.84	21.06	-42.2	-45.7	17.5	6.05e-01	0	62	0	343932928	55	5588
2026-01-25 10:17:07.33	50.53	21.05	-42.2	-45.7	17.7	6.06e-01	0	61	0	345505792	55	5542
2026-01-25 10:17:08.34	50.23	21.04	-42.2	-45.7	17.6	6.06e-01	0	61	0	347602944	55	5581
2026-01-25 10:17:09.35	49.92	21.03	-42.2	-45.8	17.6	6.08e-01	0	62	0	349700096	55	5594
2026-01-25 10:17:10.36	49.62	21.02	-42.3	-46.0	17.4	6.05e-01	0	62	0	351272960	55	5726
2026-01-25 10:17:11.37	49.31	21.01	-42.3	-46.0	17.3	6.08e-01	0	62	0	353370112	55	5742
2026-01-25 10:17:12.38	49.00	21.00	-42.4	-46.0	17.3	6.05e-01	0	62	0	354942976	55	5760
2026-01-25 10:17:13.39	48.70	20.99	-42.4	-46.0	17.3	6.06e-01	0	62	0	357040128	55	5767
2026-01-25 10:17:14.40	48.39	20.98	-42.4	-46.0	17.3	6.07e-01	0	62	0	359137280	55	5786
2026-01-25 10:17:15.41	48.09	20.96	-42.2	-45.8	17.6	6.06e-01	0	62	0	360710144	55	5621
2026-01-25 10:17:16.42	47.78	20.95	-42.2	-45.7	17.6	6.04e-01	0	62	0	362807296	55	5579
2026-01-25 10:17:17.43	47.48	20.93	-42.2	-45.7	17.6	6.05e-01	0	62	0	364380160	55	5577
2026-01-25 10:17:18.44	47.18	20.91	-42.3	-45.8	17.5	6.07e-01	0	62	0	366477312	55	5625
2026-01-25 10:17:19.45	46.87	20.90	-42.3	-45.9	17.4	6.06e-01	0	62	0	368574464	55	5712
2026-01-25 10:17:20.46	46.57	20.88	-42.3	-45.9	17.5	6.07e-01	0	62	0	370147328	55	5693
2026-01-25 10:17:21.47	46.27	20.86	-42.3	-46.0	17.4	6.04e-01	0	61	0	372244480	55	5726
2026-01-25 10:17:22.48	45.96	20.84	-42.2	-45.8	17.6	6.06e-01	0	62	0	373817344	55	5618
2026-01-25 10:17:23.49	45.66	20.82	-42.2	-45.7	17.7	6.06e-01	0	62	0	375914496	55	5568
2026-01-25 10:17:24.50	45.36	20.80	-42.2	-45.8	17.6	6.05e-01	0	62	0	378011648	55	5619
2026-01-25 10:17:25.51	45.06	20.78	-42.2	-45.8	17.6	6.07e-01	0	62	0	379584512	55	5599
2026-01-25 10:17:26.52	44.76	20.75	-42.2	-45.7	17.7	6.04e-01	0	61	0	381681664	55	5571
2026-01-25 10:17:27.53	44.46	20.73	-42.1	-45.6	17.8	6.04e-01	0	61	0	383778816	55	5474
2026-01-25 10:17:28.54	44.16	20.70	-42.2	-45.6	17.7	6.08e-01	0	62	0	385351680	55	5523
2026-01-25 10:17:29.55	43.86	20.68	-42.2	-45.7	17.7	6.07e-01	0	62	0	387448832	55	5574
2026-01-25 10:17:30.56	43.56	20.65	-42.2	-45.7	17.7	6.07e-01	0	62	0	389021696	55	5577
2026-01-25 10:17:31.57	43.26	20.63	-42.1	-45.5	17.9	6.05e-01	0	61	0	391118848	55	5433
2026-01-25 10:17:32.58	42.97	20.60	-42.1	-45.6	17.8	6.03e-01	0	62	0	393216000	55	5504
2026-01-25 10:17:33.59	42.67	20.57	-42.2	-45.7	17.7	6.06e-01	0	62	0	394788864	55	5545
2026-01-25 10:17:34.60	42.37	20.54	-42.2	-45.6	17.8	6.04e-01	0	62	0	396886016	55	5513
2026-01-25 10:17:35.61	42.08	20.51	-42.2	-45.6	17.8	6.07e-01	0	62	0	398458880	55	5512
2026-01-25 10:17:36.62	41.78	20.48	-42.2	-45.8	17.6	6.07e-01	0	62	0	400556032	55	5600
2026-01-25 10:17:37.63	41.49	20.45	-42.2	-45.7	17.7	6.05e-01	0	61	0	402653184	55	5555
2026-01-25 10:17:38.64	41.19	20.42	-42.1	-45.6	17.8	6.07e-01	0	61	0	404226048	55	5507
2026-01-25 10:17:39.65	40.90	20.39	-42.2	-45.6	17.8	6.08e-01	0	61	0	406323200	55	5512
2026-01-25 10:17:40.66	40.61	20.35	-42.2	-45.7	17.7	6.05e-01	0	62	0	408420352	55	5548
2026-01-25 10:17:41.67	40.32	20.32	-42.2	-45.6	17.8	6.06e-01	0	61	0	409993216	55	5523
2026-01-25 10:17:42.68	40.03	20.28	-42.1	-45.5	17.9	6.04e-01	0	62	0	412090368	55	5435
2026-01-25 10:17:43.69	39.73	20.25	-42.2	-45.6	17.8	6.07e-01	0	61	0	413663232	55	5509
2026-01-25 10:17:44.70	39.45	20.21	-42.2	-45.6	17.8	6.06e-01	0	61	0	415760384	55	5513
2026-01-25 10:17:45.71	39.16	20.18	-42.1	-45.6	17.8	6.07e-01	0	62	0	417857536	55	5486
2026-01-25 10:17:46.71	38.87	20.14	-42.1	-45.6	17.8	6.07e-01	0	61	0	419430400	55	5491
2026-01-25 10:17:47.72	38.58	20.10	-42.1	-45.5	17.9	6.06e-01	0	62	0	421527552	55	5448
2026-01-25 10:17:48.73	38.30	20.06	-42.1	-45.5	17.9	6.08e-01	0	62	0	423100416	55	5448
2026-01-25 10:17:49.74	38.01	20.02	-42.1	-45.6	17.8	6.08e-01	0	62	0	425197568	55	5477
2026-01-25 10:17:50.75	37.73	19.98	-42.1	-45.6	17.8	6.07e-01	0	62	0	427294720	55	5478
2026-01-25 10:17:51.76	37.44	19.94	-42.2	-45.7	17.8	6.05e-01	0	61	0	428867584	55	5555
2026-01-25 10:17:52.77	37.16	19.90	-42.2	-45.7	17.8	6.06e-01	0	61	0	430964736	55	5547
2026-01-25 10:17:53.78	36.88	19.86	-42.1	-45.5	17.9	6.06e-01	0	62	0	432537600	55	5459
2026-01-25 10:17:54.79	36.59	19.82	-42.1	-45.5	18.0	6.05e-01	0	62	0	434634752	55	5419
2026-01-25 10:17:55.80	36.31	19.77	-42.2	-45.6	17.8	6.06e-01	0	62	0	436731904	55	5514
2026-01-25 10:17:56.81	36.03	19.73	-42.1	-45.5	18.0	6.05e-01	0	62	0	438304768	55	5406
2026-01-25 10:17:57.82	35.75	19.68	-42.0	-45.4	18.0	6.04e-01	0	61	0	440401920	55	5371
2026-01-25 10:17:58.82	35.48	19.64	-42.1	-45.5	17.5	6.08e-01	0	61	0	441974784	55	5433
2026-01-25 10:17:59.83	35.20	19.59	-42.1	-45.4	18.0	6.06e-01	0	62	0	444071936	55	5389
2026-01-25 10:18:00.84	34.92	19.55	-42.0	-45.4	18.0	6.07e-01	0	62	0	446169088	55	5399
2026-01-25 10:18:01.85	34.65	19.50	-42.1	-45.4	18.0	6.06e-01	0	61	0	447741952	55	5402
2026-01-25 10:18:02.86	34.37	19.45	-42.1	-45.5	18.0	6.07e-01	0	61	0	449839104	55	5405
2026-01-25 10:18:03.87	34.10	19.41	-42.1	-45.5	18.0	6.06e-01	0	62	0	451936256	55	5410
2026-01-25 10:18:04.88	33.83	19.36	-42.1	-45.5	17.9	6.04e-01	0	62	0	453509120	55	5434
2026-01-25 10:18:05.89	33.56	19.31	-42.1	-45.5	18.0	6.05e-01	0	61	0	455606272	55	5413
2026-01-25 10:18:06.90	33.28	19.26	-41.9	-45.2	18.2	6.07e-01	0	61	0	457179136	55	5278
2026-01-25 10:18:07.91	33.01	19.21	-42.0	-45.3	18.1	6.05e-01	0	61	0	459276288	55	5327
2026-01-25 10:18:08.92	32.75	19.16	-42.1	-45.5	18.0	6.08e-01	0	62	0	461373440	55	5417
2026-01-25 10:18:09.93	32.48	19.11	-42.1	-45.5	17.9	6.06e-01	0	61	0	462946304	55	5438
2026-01-25 10:18:10.94	32.21	19.06	-42.0	-45.4	18.0	6.06e-01	0	61	0	465043456	55	5348
2026-01-25 10:18:11.95	31.94	19.01	-42.0	-45.4	18.1	6.08e-01	0	61	0	466616320	55	5344
2026-01-25 10:18:12.96	31.68	18.95	-42.1	-45.5	18.0	6.06e-01	0	61	0	468713472	55	5406
2026-01-25 10:18:13.97	31.41	18.90	-42.0	-45.4	18.0	6.07e-01	0	62	0	470810624	55	5351
2026-01-25 10:18:14.98	31.15	18.85	-42.0	-45.4	18.0	6.05e-01	0	61	0	472383488	55	5393
2026-01-25 10:18:15.99	30.89	18.79	-42.1	-45.5	17.9	6.08e-01	0	61	0	474480640	55	5451
2026-01-25 10:18:16.99	30.63	18.74	-42.1	-45.6	17.9	6.05e-01	0	62	0	476053504	55	5469
2026-01-25 10:18:18.00	30.37	18.68	-42.2	-45.7	17.8	6.06e-01	0	61	0	478150656	55	5540
2026-01-25 10:18:19.01	30.11	18.63	-42.0	-45.4	18.0	6.07e-01	0	62	0	480247808	55	5386
2026-01-25 10:18:20.02	29.85	18.57	-42.0	-45.4	18.0	6.03e-01	0	61	0	481820672	55	5384
2026-01-25 10:18:21.03	29.59	18.52	-42.0	-45.3	18.1	6.07e-01	0	62	0	483917824	55	5333
2026-01-25 10:18:22.04	29.34	18.46	-42.0	-45.5	17.9	6.05e-01	0	62	0	485490688	55	5412
2026-01-25 10:18:23.05	29.08	18.40	-42.1	-45.5	17.8	6.08e-01	0	61	0	487587840	55	5461
2026-01-25 10:18:24.07	28.83	18.35	-42.0	-45.3	18.0	6.07e-01	0	62	0	489684992	55	5340
2026-01-25 10:18:25.07	28.58	18.29	-41.9	-45.2	18.2	6.03e-01	0	62	0	491257856	55	5249
2026-01-25 10:18:26.08	28.32	18.23	-41.9	-45.2	18.1	6.05e-01	0	62	0	493355008	55	5271
2026-01-25 10:18:27.09	28.07	18.17	-41.9	-45.3	18.1	6.06e-01	0	62	0	494927872	55	5286
2026-01-25 10:18:28.10	27.82	18.11	-42.0	-45.4	18.0	6.06e-01	0	62	0	497025024	55	5358
2026-01-25 10:18:29.11	27.57	18.05	-42.0	-45.5	17.9	6.05e-01	0	62	0	499122176	55	5404
2026-01-25 10:18:30.12	27.33	17.99	-42.0	-45.5	17.9	6.05e-01	0	61	0	500695040	55	5403
2026-01-25 10:18:31.13	27.08	17.93	-42.0	-45.5	17.8	6.06e-01	0	61	0	502792192	55	5432
2026-01-25 10:18:32.14	26.83	17.87	-41.9	-45.3	18.0	6.05e-01	0	61	0	504889344	55	5311
2026-01-25 10:18:33.15	26.59	17.81	-41.9	-45.3	18.1	6.02e-01	0	62	0	506462208	55	5280
2026-01-25 10:18:34.16	26.34	17.75	-41.9	-45.2	18.1	6.06e-01	0	62	0	508559360	55	5232
2026-01-25 10:18:35.17	26.10	17.69	-41.9	-45.3	18.0	6.06e-01	0	62	0	510132224	55	5300
2026-01-25 10:18:36.18	25.86	17.63	-41.9	-45.3	18.0	6.05e-01	0	61	0	512229376	55	5284
2026-01-25 10:18:37.19	25.62	17.57	-41.9	-45.3	18.0	6.06e-01	0	62	0	514326528	55	5321
2026-01-25 10:18:38.20	25.38	17.50	-41.9	-45.2	18.1	6.06e-01	0	61	0	515899392	55	5278
2026-01-25 10:18:39.21	25.14	17.44	-41.8	-45.1	18.3	6.03e-01	0	62	0	517996544	55	5166
2026-01-25 10:18:40.22	24.90	17.38	-41.8	-45.1	18.1	6.08e-01	0	62	0	520093696	55	5212
2026-01-25 10:18:41.23	24.67	17.31	-41.9	-45.3	18.1	6.04e-01	0	62	0	521666560	55	5281
2026-01-25 10:18:42.23	24.44	17.25	-42.0	-45.4	18.0	6.07e-01	0	61	0	523763712	55	5348
2026-01-25 10:18:43.24	24.20	17.19	-41.9	-45.3	18.1	6.08e-01	0	62	0	525336576	55	5285
2026-01-25 10:18:44.25	23.97	17.12	-41.9	-45.3	18.0	6.06e-01	0	61	0	527433728	55	5305
2026-01-25 10:18:45.26	23.74	17.06	-42.0	-45.4	17.9	6.07e-01	0	62	0	529530880	55	5364
2026-01-25 10:18:46.27	23.51	16.99	-42.0	-45.4	17.9	6.06e-01	0	61	0	531103744	55	5398
2026-01-25 10:18:47.28	23.28	16.93	-42.0	-45.4	17.9	6.07e-01	0	61	0	533200896	55	5355
2026-01-25 10:18:48.29	23.05	16.86	-41.9	-45.3	17.9	6.05e-01	0	61	0	534773760	55	5322
2026-01-25 10:18:49.30	22.82	16.80	-41.9	-45.3	17.9	6.06e-01	0	61	0	536870912	55	5327
2026-01-25 10:18:50.31	22.59	16.73	-42.0	-45.4	17.9	6.06e-01	0	61	0	538968064	55	5347
2026-01-25 10:18:51.32	22.37	16.67	-42.0	-45.4	17.8	6.05e-01	0	62	0	540540928	55	5369
2026-01-25 10:18:52.33	22.14	16.60	-42.0	-45.4	17.8	6.09e-01	0	61	0	542638080	55	5378
2026-01-25 10:18:53.34	21.92	16.53	-42.1	-45.6	17.6	6.09e-01	0	61	0	544210944	55	5478
2026-01-25 10:18:54.35	21.70	16.47	-42.0	-45.4	17.7	6.07e-01	0	61	0	546308096	55	5393
2026-01-25 10:18:55.36	21.48	16.40	-42.0	-45.5	17.6	6.07e-01	0	62	0	548405248	55	5435
2026-01-25 10:18:56.37	21.25	16.33	-42.0	-45.5	17.6	6.06e-01	0	61	0	549978112	55	5450
2026-01-25 10:18:57.38	21.04	16.27	-42.0	-45.5	17.7	6.06e-01	0	62	0	552075264	55	5406
2026-01-25 10:18:58.39	20.82	16.20	-41.9	-45.3	17.8	6.08e-01	0	61	0	553648128	55	5289
2026-01-25 10:18:59.39	20.60	16.13	-41.9	-45.3	17.8	6.05e-01	0	62	0	555745280	55	5292
2026-01-25 10:19:00.40	20.39	16.06	-41.9	-45.4	17.7	6.07e-01	0	62	0	557842432	55	5361
2026-01-25 10:19:01.41	20.17	16.00	-41.9	-45.3	17.7	6.04e-01	0	62	0	559415296	55	5332
2026-01-25 10:19:02.42	19.96	15.93	-41.9	-45.3	17.8	6.06e-01	0	62	0	561512448	55	5308
2026-01-25 10:19:03.43	19.75	15.86	-41.9	-45.3	17.8	6.07e-01	0	62	0	563085312	55	5295
2026-01-25 10:19:04.44	19.53	15.79	-41.9	-45.4	17.7	6.06e-01	0	62	0	565182464	55	5348
2026-01-25 10:19:05.45	19.32	15.72	-41.9	-45.3	17.8	6.06e-01	0	62	0	567279616	55	5317
2026-01-25 10:19:06.46	19.11	15.65	-41.9	-45.3	17.8	6.05e-01	0	61	0	568852480	55	5319
2026-01-25 10:19:07.47	18.90	15.58	-41.9	-45.3	17.8	6.07e-01	0	62	0	570949632	55	5320
2026-01-25 10:19:08.48	18.70	15.51	-41.9	-45.3	17.8	6.07e-01	0	61	0	573046784	55	5322
2026-01-25 10:19:09.48	18.49	15.45	-41.9	-45.3	17.8	6.08e-01	0	61	0	574619648	55	5338
2026-01-25 10:19:10.49	18.29	15.38	-41.9	-45.5	17.7	6.07e-01	0	62	0	576716800	55	5408
2026-01-25 10:19:11.50	18.08	15.31	-42.0	-45.5	17.6	6.07e-01	0	62	0	578289664	55	5446
2026-01-25 10:19:12.51	17.88	15.24	-41.9	-45.3	17.8	6.07e-01	0	62	0	580386816	55	5337
2026-01-25 10:19:13.52	17.68	15.17	-41.9	-45.3	17.8	6.09e-01	0	62	0	582483968	55	5340
2026-01-25 10:19:14.53	17.47	15.10	-41.8	-45.3	17.8	6.07e-01	0	62	0	584056832	55	5302
2026-01-25 10:19:15.54	17.27	15.03	-41.9	-45.3	17.8	6.04e-01	0	62	0	586153984	55	5328
2026-01-25 10:19:16.55	17.08	14.96	-41.8	-45.3	17.8	6.06e-01	0	62	0	587726848	55	5300
2026-01-25 10:19:17.56	16.88	14.89	-41.8	-45.3	17.7	6.06e-01	0	62	0	589824000	55	5323
2026-01-25 10:19:18.57	16.68	14.82	-41.8	-45.2	17.8	6.04e-01	0	62	0	591921152	55	5270
2026-01-25 10:19:19.57	16.49	14.75	-41.8	-45.2	17.8	6.08e-01	0	62	0	593494016	55	5243
2026-01-25 10:19:20.58	16.29	14.68	-41.8	-45.4	17.7	6.05e-01	0	61	0	595591168	55	5343
2026-01-25 10:19:21.59	16.10	14.61	-41.9	-45.5	17.6	6.08e-01	0	62	0	597164032	55	5429
2026-01-25 10:19:22.60	15.90	14.54	-41.9	-45.5	17.6	6.05e-01	0	62	0	599261184	55	5413
2026-01-25 10:19:23.61	15.71	14.46	-41.9	-45.4	17.6	6.07e-01	0	61	0	601358336	55	5370
2026-01-25 10:19:24.62	15.52	14.39	-41.8	-45.2	17.8	6.06e-01	0	61	0	602931200	55	5267
2026-01-25 10:19:25.63	15.33	14.32	-41.7	-45.2	17.8	6.06e-01	0	62	0	605028352	55	5226
2026-01-25 10:19:26.64	15.14	14.25	-41.7	-45.2	17.7	6.08e-01	0	62	0	606601216	55	5255
2026-01-25 10:19:27.65	14.95	14.18	-41.8	-45.4	17.6	6.06e-01	0	62	0	608698368	55	5342
2026-01-25 10:19:28.66	14.76	14.11	-41.8	-45.5	17.4	6.06e-01	0	62	0	610795520	55	5406
2026-01-25 10:19:29.67	14.58	14.04	-41.9	-45.5	17.3	6.06e-01	0	61	0	612368384	55	5443
2026-01-25 10:19:30.68	14.39	13.97	-41.8	-45.4	17.5	6.07e-01	0	62	0	614465536	55	5346
2026-01-25 10:19:31.69	14.21	13.90	-41.8	-45.4	17.5	6.06e-01	0	61	0	616562688	55	5365
2026-01-25 10:19:32.70	14.02	13.82	-41.8	-45.5	17.4	6.06e-01	0	62	0	618135552	55	5403
2026-01-25 10:19:33.71	13.84	13.75	-41.8	-45.5	17.3	6.06e-01	0	61	0	620232704	55	5437
2026-01-25 10:19:34.72	13.66	13.68	-41.8	-45.5	17.3	6.06e-01	0	61	0	621805568	55	5405
2026-01-25 10:19:35.73	13.48	13.61	-41.8	-45.6	17.1	6.04e-01	0	61	0	623902720	55	5487
2026-01-25 10:19:36.74	13.30	13.54	-41.8	-45.6	17.2	6.00e-01	0	61	0	625999872	55	5469
2026-01-25 10:19:37.75	13.12	13.47	-41.8	-45.5	17.2	6.03e-01	0	62	0	627572736	55	5453
2026-01-25 10:19:38.76	12.94	13.39	-41.7	-45.5	17.2	6.04e-01	0	61	0	629669888	55	5410
2026-01-25 10:19:39.77	12.77	13.32	-41.7	-45.5	17.1	6.01e-01	0	62	0	631242752	55	5410
2026-01-25 10:19:40.78	12.59	13.25	-41.7	-45.4	17.2	6.04e-01	0	62	0	633339904	55	5372
2026-01-25 10:19:41.79	12.42	13.18	-41.7	-45.4	17.1	6.03e-01	0	62	0	635437056	55	5381
2026-01-25 10:19:42.80	12.24	13.11	-41.7	-45.5	17.1	6.02e-01	0	61	0	637009920	55	5403
2026-01-25 10:19:43.81	12.07	13.04	-41.7	-45.6	16.8	6.02e-01	0	62	0	639107072	55	5505
2026-01-25 10:19:44.81	11.90	12.97	-41.8	-45.7	16.6	6.01e-01	0	62	0	641204224	55	5589
2026-01-25 10:19:45.82	11.73	12.89	-41.7	-45.6	16.8	6.04e-01	0	61	0	642777088	55	5499
2026-01-25 10:19:46.83	11.56	12.82	-41.6	-45.5	16.8	6.04e-01	0	61	0	644874240	55	5454
2026-01-25 10:19:47.84	11.39	12.75	-41.6	-45.5	16.8	6.02e-01	0	62	0	646447104	55	5411
2026-01-25 10:19:48.85	11.22	12.68	-41.6	-45.6	16.6	6.00e-01	0	62	0	648544256	55	5519
2026-01-25 10:19:49.86	11.05	12.61	-41.6	-45.7	16.4	6.05e-01	0	61	0	650641408	55	5563
2026-01-25 10:19:50.87	10.88	12.54	-41.6	-45.7	16.4	6.02e-01	0	61	0	652214272	55	5575
2026-01-25 10:19:51.88	10.72	12.46	-41.5	-45.6	16.3	6.04e-01	0	61	0	654311424	55	5518
2026-01-25 10:19:52.89	10.55	12.39	-41.4	-45.5	16.3	6.03e-01	0	62	0	655884288	54	5775
2026-01-25 10:19:53.90	10.39	12.32	-41.2	-45.3	16.3	6.02e-01	0	61	0	657981440	54	5653
2026-01-25 10:19:54.91	10.23	12.25	-41.1	-45.2	16.3	6.03e-01	0	62	0	660078592	54	5566
2026-01-25 10:19:55.92	10.06	12.18	-40.9	-45.0	16.5	6.04e-01	0	62	0	661651456	53	5738
2026-01-25 10:19:56.93	9.90	12.11	-40.9	-45.2	16.2	6.04e-01	0	62	0	663748608	53	5860
2026-01-25 10:19:57.94	9.74	12.03	-41.0	-45.5	15.8	6.01e-01	0	62	0	665321472	53	6066
2026-01-25 10:19:58.95	9.58	11.96	-41.0	-45.5	15.7	6.04e-01	0	61	0	667418624	53	6105
2026-01-25 10:19:59.96	9.42	11.89	-41.2	-45.9	15.3	6.03e-01	0	61	0	669515776	53	6355
2026-01-25 10:20:00.97	9.26	11.82	-41.2	-46.3	14.8	6.04e-01	0	61	0	671088640	53	6647
2026-01-25 10:20:01.97	9.11	11.75	-41.4	-47.0	13.9	6.04e-01	0	61	0	673185792	53	7246
2026-01-25 10:20:02.98	8.95	11.68	-41.5	-47.5	13.3	6.06e-01	0	62	0	674758656	53	7680
2026-01-25 10:20:03.99	8.80	11.61	-41.8	-48.8	11.8	6.12e-01	0	62	0	676855808	54	8389
2026-01-25 10:20:05.00	8.64	11.53	-41.8	-49.4	11.0	6.13e-01	0	61	0	678952960	54	9042
2026-01-25 10:20:06.01	8.49	11.46	-41.8	-50.1	10.2	6.23e-01	0	62	0	680525824	54	9744
2026-01-25 10:20:07.02	8.33	11.39	-41.9	-51.2	8.8	6.34e-01	0	61	0	682622976	54	11157
2026-01-25 10:20:08.03	8.18	11.32	-42.0	-52.5	7.5	6.53e-01	90	62	0	684720128	54	12917
2026-01-25 10:20:09.04	8.03	11.25	-42.0	-53.4	6.5	6.72e-01	92	62	0	686292992	54	14352
2026-01-25 10:20:10.05	7.88	11.18	-42.0	-53.7	6.2	6.80e-01	90	62	0	688390144	54	14846
2026-01-25 10:20:11.06	7.73	11.11	-41.9	-55.0	5.3	7.01e-01	10	62	0	689438720	54	17107
2026-01-25 10:20:12.07	7.58	11.04	-41.9	-56.8	4.0	7.37e-01	0	62	104	689438720	54	21124
2026-01-25 10:20:13.08	7.43	10.97	-41.8	-58.0	4.0	7.38e-01	0	62	104	689438720	54	24263
2026-01-25 10:20:14.09	7.29	10.89	-41.8	-59.5	3.8	7.44e-01	0	61	104	689438720	54	28776
2026-01-25 10:20:15.10	7.14	10.82	-42.2	-60.1	3.8	7.44e-01	0	62	104	689438720	55	29189
2026-01-25 10:20:16.11	6.99	10.75	-41.0	-59.8	3.8	7.46e-01	0	61	104	689438720	54	29964
2026-01-25 10:20:17.12	6.85	10.68	-40.8	-59.7	3.8	7.43e-01	0	62	104	689438720	53	31377
2026-01-25 10:20:18.13	6.70	10.61	-41.1	-60.0	3.8	7.46e-01	0	62	104	689438720	53	32541
2026-01-25 10:20:19.14	6.56	10.54	-40.8	-59.8	3.8	7.44e-01	0	62	104	689438720	53	31530
2026-01-25 10:20:20.15	6.42	10.47	-40.8	-59.8	3.8	7.43e-01	0	62	104	689438720	53	31506
2026-01-25 10:20:21.16	6.27	10.40	-40.8	-59.7	3.8	7.47e-01	0	62	104	689438720	53	31277
2026-01-25 10:20:22.17	6.13	10.33	-40.7	-59.7	3.8	7.45e-01	0	62	104	689438720	53	31106
2026-01-25 10:20:23.18	5.99	10.26	-40.8	-59.7	3.8	7.49e-01	0	62	104	689438720	53	31245
2026-01-25 10:20:24.19	5.85	10.19	-41.6	-60.5	3.8	7.42e-01	0	62	104	689438720	53	34355
2026-01-25 10:20:25.20	5.71	10.12	-40.8	-59.8	3.8	7.48e-01	0	62	104	689438720	53	31486
2026-01-25 10:20:26.21	5.58	10.05	-40.9	-59.9	3.8	7.43e-01	0	62	104	689438720	53	31827
2026-01-25 10:20:27.21	5.44	9.98	-40.8	-59.7	3.8	7.45e-01	0	62	104	689438720	53	31360
2026-01-25 10:20:28.22	5.30	9.91	-40.7	-59.7	3.8	7.43e-01	0	62	104	689438720	53	31186
2026-01-25 10:20:29.23	5.17	9.84	-40.7	-59.7	3.8	7.48e-01	0	62	104	689438720	53	31090
2026-01-25 10:20:30.24	5.03	9.77	-40.7	-59.6	3.8	7.48e-01	0	62	104	689438720	53	31030
2026-01-25 10:20:31.25	4.90	9.70	-40.7	-59.7	3.8	7.48e-01	0	61	104	689438720	53	31152
2026-01-25 10:20:32.26	4.76	9.63	-41.1	-60.0	3.8	7.43e-01	0	62	104	689438720	53	32492
2026-01-25 10:20:33.27	4.63	9.56	-40.8	-59.8	3.8	7.45e-01	0	62	104	689438720	53	31589
2026-01-25 10:20:34.28	4.50	9.49	-40.9	-59.9	3.8	7.44e-01	0	62	104	689438720	53	32024
2026-01-25 10:20:35.29	4.36	9.42	-41.0	-59.9	3.8	7.46e-01	0	62	104	689438720	53	32135
2026-01-25 10:20:36.30	4.23	9.35	-40.7	-59.7	3.8	7.45e-01	0	62	104	689438720	53	31264
2026-01-25 10:20:37.31	4.10	9.28	-40.7	-59.8	3.8	7.44e-01	0	62	104	689438720	53	31471
2026-01-25 10:20:38.32	3.97	9.21	-40.9	-59.8	3.8	7.46e-01	0	62	104	689438720	53	31691
2026-01-25 10:20:39.33	3.84	9.14	-40.9	-59.9	3.8	7.44e-01	0	62	104	689438720	53	31990
2026-01-25 10:20:40.34	3.72	9.07	-40.7	-59.7	3.8	7.44e-01	0	62	104	689438720	53	31404
2026-01-25 10:20:41.35	3.59	9.00	-40.7	-59.7	3.8	7.47e-01	0	62	104	689438720	53	31101
2026-01-25 10:20:42.36	3.46	8.94	-40.8	-59.8	3.8	7.45e-01	0	62	104	689438720	53	31752
2026-01-25 10:20:43.37	3.33	8.87	-40.8	-59.8	3.8	7.45e-01	0	62	104	689438720	53	31539
2026-01-25 10:20:44.38	3.21	8.80	-40.7	-59.7	3.8	7.46e-01	0	62	104	689438720	53	31171
2026-01-25 10:20:45.38	3.09	8.73	-40.7	-59.7	3.8	7.43e-01	0	62	104	689438720	53	31111
2026-01-25 10:20:46.39	2.96	8.66	-40.7	-59.8	3.8	7.48e-01	0	61	104	689438720	53	31548
2026-01-25 10:20:47.40	2.84	8.59	-40.7	-59.7	3.8	7.45e-01	0	62	104	689438720	53	31265
2026-01-25 10:20:48.41	2.71	8.52	-40.7	-59.7	3.8	7.45e-01	0	62	104	689438720	53	31217
2026-01-25 10:20:49.42	2.59	8.46	-40.7	-59.7	3.8	7.42e-01	0	62	104	689438720	53	31264
2026-01-25 10:20:50.43	2.47	8.39	-40.7	-59.7	3.8	7.46e-01	0	62	104	689438720	53	31148
2026-01-25 10:20:51.44	2.35	8.32	-40.8	-59.8	3.8	7.46e-01	0	61	104	689438720	53	31583
2026-01-25 10:20:52.45	2.23	8.25	-40.8	-59.7	3.8	7.45e-01	0	62	104	689438720	53	31323
2026-01-25 10:20:53.46	2.11	8.18	-40.8	-59.7	3.8	7.47e-01	0	61	104	689438720	53	31397
2026-01-25 10:20:54.47	1.99	8.11	-40.8	-59.7	3.8	7.45e-01	0	62	104	689438720	53	31410
2026-01-25 10:20:55.48	1.87	8.05	-40.8	-59.8	3.8	7.47e-01	0	62	104	689438720	53	31648
2026-01-25 10:20:56.49	1.75	7.98	-40.7	-59.7	3.8	7.45e-01	0	61	104	689438720	53	31234
2026-01-25 10:20:57.50	1.63	7.91	-41.7	-60.7	3.8	7.47e-01	0	62	104	689438720	53	34944
2026-01-25 10:20:58.51	1.52	7.84	-45.2	-63.7	3.8	7.44e-01	0	62	104	689438720	60	33253
2026-01-25 10:20:59.52	1.40	7.78	-45.9	-64.5	3.8	7.43e-01	0	62	104	689438720	62	32213
2026-01-25 10:21:00.53	1.29	7.71	-46.1	-64.7	3.8	7.46e-01	0	62	104	689438720	62	32993
2026-01-25 10:21:01.54	1.17	7.64	-46.2	-64.8	3.8	7.46e-01	0	62	104	689438720	63	31756
2026-01-25 10:21:02.56	1.06	7.57	-46.3	-64.8	3.8	7.45e-01	0	62	104	689438720	63	31653
2026-01-25 10:21:03.57	0.94	7.51	-46.4	-64.8	3.9	7.49e-01	0	62	104	689438720	63	31773
2026-01-25 10:21:04.58	0.83	7.44	-46.5	-65.0	3.8	7.46e-01	0	61	104	689438720	63	32410
2026-01-25 10:21:05.58	0.72	7.37	-46.5	-65.0	3.8	7.43e-01	0	62	104	689438720	63	32245
2026-01-25 10:21:06.60	0.60	7.31	-46.4	-65.0	3.8	7.45e-01	0	62	104	689438720	63	32338
2026-01-25 10:21:07.61	0.49	7.24	-46.2	-64.7	3.8	7.46e-01	0	62	104	689438720	63	31446
2026-01-25 10:21:08.62	0.38	7.17	-46.2	-64.7	3.8	7.46e-01	0	62	104	689438720	63	31331
2026-01-25 10:21:09.63	0.27	7.11	-46.3	-64.8	3.8	7.46e-01	0	62	104	689438720	63	31564
2026-01-25 10:21:10.64	0.16	7.04	-46.2	-64.8	3.8	7.43e-01	0	62	104	689438720	63	31628
2026-01-25 10:21:11.65	0.05	6.97	-46.2	-64.7	3.8	7.46e-01	0	62	104	689438720	63	31309
2026-01-25 10:21:12.66	359.94	6.91	-46.1	-64.6	3.8	7.47e-01	0	61	104	689438720	63	30949
2026-01-25 10:21:13.67	359.83	6.84	-46.1	-64.6	3.8	7.45e-01	0	62	104	689438720	63	30945
2026-01-25 10:21:14.68	359.73	6.78	-46.1	-64.6	3.8	7.48e-01	0	62	104	689438720	63	30974
2026-01-25 10:21:15.69	359.62	6.71	-46.0	-64.6	3.7	7.49e-01	0	62	104	689438720	62	32714
2026-01-25 10:21:16.70	359.51	6.64	-46.1	-64.6	3.8	7.46e-01	0	62	104	689438720	62	32802
2026-01-25 10:21:17.71	359.41	6.58	-46.1	-64.6	3.8	7.44e-01	0	62	104	689438720	62	32713
2026-01-25 10:21:18.72	359.30	6.51	-46.1	-64.6	3.8	7.45e-01	0	62	104	689438720	62	32790
2026-01-25 10:21:19.73	359.20	6.45	-46.1	-64.6	3.8	7.45e-01	0	62	104	689438720	62	32858
2026-01-25 10:21:20.74	359.09	6.38	-46.1	-64.6	3.8	7.43e-01	0	62	104	689438720	62	32784
2026-01-25 10:21:21.75	358.99	6.32	-46.1	-64.6	3.8	7.42e-01	0	62	104	689438720	62	32834
2026-01-25 10:21:22.76	358.89	6.25	-46.1	-64.6	3.8	7.47e-01	0	62	104	689438720	62	32795
2026-01-25 10:21:23.77	358.78	6.19	-46.1	-64.6	3.8	7.44e-01	0	62	104	689438720	62	32826
2026-01-25 10:21:24.78	358.68	6.12	-46.1	-64.6	3.8	7.42e-01	0	62	104	689438720	62	32776
2026-01-25 10:21:25.79	358.58	6.06	-46.1	-64.6	3.8	7.45e-01	0	62	104	689438720	62	32774
2026-01-25 10:21:26.81	358.48	5.99	-46.1	-64.6	3.8	7.44e-01	0	62	104	689438720	62	32747
2026-01-25 10:21:27.82	358.38	5.93	-46.1	-64.6	3.8	7.44e-01	0	62	104	689438720	62	32712
2026-01-25 10:21:28.83	358.28	5.86	-46.0	-64.6	3.8	7.43e-01	0	62	104	689438720	62	32695
2026-01-25 10:21:29.84	358.18	5.80	-46.1	-64.6	3.8	7.45e-01	0	62	104	689438720	62	32758
2026-01-25 10:21:30.85	358.08	5.73	-46.1	-64.6	3.8	7.47e-01	0	62	104	689438720	62	32742
2026-01-25 10:21:31.86	357.98	5.67	-46.1	-64.6	3.8	7.45e-01	0	62	104	689438720	62	32732
2026-01-25 10:21:32.87	357.88	5.60	-46.1	-64.6	3.8	7.43e-01	0	62	104	689438720	62	32675
2026-01-25 10:21:33.88	357.78	5.54	-46.1	-64.6	3.8	7.47e-01	0	62	104	689438720	62	32727
2026-01-25 10:21:34.89	357.68	5.48	-46.0	-64.6	3.8	7.46e-01	0	62	104	689438720	62	32708
2026-01-25 10:21:35.90	357.59	5.41	-46.1	-64.6	3.8	7.44e-01	0	62	104	689438720	62	32711
2026-01-25 10:21:36.91	357.49	5.35	-46.1	-64.6	3.8	7.46e-01	0	62	104	689438720	62	32720
2026-01-25 10:21:37.92	357.40	5.28	-46.1	-64.6	3.8	7.42e-01	0	62	104	689438720	62	32697
2026-01-25 10:21:38.93	357.30	5.22	-46.1	-64.6	3.8	7.49e-01	0	62	104	689438720	62	32692
2026-01-25 10:21:39.94	357.21	5.16	-46.0	-64.6	3.8	7.44e-01	0	62	104	689438720	62	32686
2026-01-25 10:21:40.95	357.11	5.09	-46.1	-64.6	3.8	7.45e-01	0	62	104	689438720	62	32670
2026-01-25 10:21:41.96	357.02	5.03	-46.1	-64.6	3.8	7.46e-01	0	62	104	689438720	62	32680
2026-01-25 10:21:42.97	356.92	4.97	-46.0	-64.6	3.8	7.43e-01	0	62	104	689438720	62	32657
2026-01-25 10:21:43.98	356.83	4.90	-46.1	-64.6	3.8	7.45e-01	0	62	104	689438720	62	32630
2026-01-25 10:21:45.00	356.74	4.84	-46.1	-64.6	3.8	7.44e-01	0	62	104	689438720	62	32635
2026-01-25 10:21:46.01	356.65	4.78	-46.0	-64.6	3.8	7.46e-01	0	62	104	689438720	62	32602
2026-01-25 10:21:47.02	356.55	4.71	-46.0	-64.6	3.8	7.42e-01	0	62	104	689438720	62	32562
2026-01-25 10:21:48.03	356.46	4.65	-46.0	-64.6	3.8	7.44e-01	0	62	104	689438720	62	32617
2026-01-25 10:21:49.04	356.37	4.59	-46.0	-64.6	3.8	7.46e-01	0	62	104	689438720	62	32599
2026-01-25 10:21:50.05	356.28	4.53	-46.0	-64.6	3.8	7.45e-01	0	62	104	689438720	62	32599
2026-01-25 10:21:51.06	356.19	4.46	-46.0	-64.6	3.8	7.43e-01	0	62	104	689438720	62	32611
2026-01-25 10:21:52.07	356.10	4.40	-46.0	-64.6	3.8	7.46e-01	0	62	104	689438720	62	32601
2026-01-25 10:21:53.08	356.01	4.34	-46.0	-64.6	3.8	7.46e-01	0	62	104	689438720	62	32564
2026-01-25 10:21:54.09	355.92	4.28	-46.0	-64.5	3.8	7.42e-01	0	62	104	689438720	62	32397
2026-01-25 10:21:55.10	355.84	4.22	-46.0	-64.5	3.8	7.46e-01	0	62	104	689438720	62	32400
2026-01-25 10:21:56.11	355.75	4.15	-46.0	-64.5	3.8	7.50e-01	0	62	104	689438720	62	32423
2026-01-25 10:21:57.12	355.66	4.09	-46.0	-64.5	3.8	7.46e-01	0	62	104	689438720	62	32480
2026-01-25 10:21:58.14	355.57	4.03	-46.0	-64.5	3.8	7.44e-01	0	62	104	689438720	62	32489
2026-01-25 10:21:59.15	355.49	3.97	-46.0	-64.5	3.8	7.43e-01	0	62	104	689438720	62	32500
2026-01-25 10:22:00.16	355.40	3.91	-46.0	-64.5	3.8	7.46e-01	0	62	104	689438720	62	32495
2026-01-25 10:22:01.16	355.32	3.85	-46.0	-64.5	3.8	7.44e-01	0	62	104	689438720	62	32433
2026-01-25 10:22:02.18	355.23	3.78	-46.0	-64.5	3.8	7.45e-01	0	62	104	689438720	62	32408
2026-01-25 10:22:03.19	355.15	3.72	-46.0	-64.5	3.8	7.45e-01	0	62	104	689438720	62	32309
2026-01-25 10:22:04.20	355.06	3.66	-46.0	-64.5	3.8	7.44e-01	0	62	104	689438720	62	32305
2026-01-25 10:22:05.21	354.98	3.60	-46.0	-64.5	3.8	7.45e-01	0	62	104	689438720	62	32359
2026-01-25 10:22:06.22	354.89	3.54	-46.0	-64.5	3.8	7.45e-01	0	62	104	689438720	62	32325
2026-01-25 10:22:07.23	354.81	3.48	-45.9	-64.5	3.8	7.47e-01	0	62	104	689438720	62	32266
2026-01-25 10:22:08.24	354.73	3.42	-46.0	-64.5	3.8	7.47e-01	0	62	104	689438720	62	32340
2026-01-25 10:22:09.25	354.65	3.36	-46.0	-64.5	3.8	7.44e-01	0	62	104	689438720	62	32359
2026-01-25 10:22:10.26	354.56	3.30	-46.0	-64.5	3.8	7.46e-01	0	62	104	689438720	62	32334
2026-01-25 10:22:11.27	354.48	3.24	-46.0	-64.5	3.8	7.46e-01	0	62	104	689438720	62	32290
2026-01-25 10:22:12.28	354.40	3.18	-46.0	-64.5	3.8	7.45e-01	0	62	104	689438720	62	32346
2026-01-25 10:22:13.29	354.32	3.12	-46.0	-64.5	3.8	7.42e-01	0	62	104	689438720	62	32343
2026-01-25 10:22:14.30	354.24	3.05	-46.0	-64.5	3.8	7.44e-01	0	62	104	689438720	62	32398
2026-01-25 10:22:15.31	354.16	2.99	-46.0	-64.5	3.8	7.45e-01	0	62	104	689438720	62	32394
2026-01-25 10:22:16.32	354.08	2.93	-46.0	-64.5	3.8	7.47e-01	0	62	104	689438720	62	32303
2026-01-25 10:22:17.33	354.00	2.87	-45.9	-64.5	3.8	7.47e-01	0	62	104	689438720	62	32347
2026-01-25 10:22:18.34	353.92	2.81	-46.0	-64.5	3.8	7.45e-01	0	62	104	689438720	62	32295
2026-01-25 10:22:19.35	353.84	2.76	-46.0	-64.5	3.8	7.45e-01	0	62	104	689438720	62	32289
2026-01-25 10:22:20.36	353.76	2.70	-46.0	-64.5	3.8	7.47e-01	0	62	104	689438720	62	32248
2026-01-25 10:22:21.37	353.69	2.64	-45.9	-64.5	3.8	7.44e-01	0	62	104	689438720	62	32229
2026-01-25 10:22:22.39	353.61	2.58	-45.9	-64.5	3.8	7.43e-01	0	62	104	689438720	62	32279
2026-01-25 10:22:23.40	353.53	2.52	-46.0	-64.5	3.8	7.47e-01	0	62	104	689438720	62	32218
2026-01-25 10:22:24.41	353.45	2.46	-45.9	-64.5	3.8	7.45e-01	0	62	104	689438720	62	32291
2026-01-25 10:22:25.42	353.38	2.40	-46.0	-64.5	3.8	7.46e-01	0	62	104	689438720	62	32261
2026-01-25 10:22:26.43	353.30	2.34	-45.9	-64.5	3.8	7.48e-01	0	62	104	689438720	62	32214
2026-01-25 10:22:27.44	353.23	2.28	-45.9	-64.5	3.8	7.45e-01	0	62	104	689438720	62	32222
2026-01-25 10:22:28.45	353.15	2.22	-45.9	-64.5	3.8	7.46e-01	0	62	104	689438720	62	32331
2026-01-25 10:22:29.46	353.07	2.16	-45.9	-64.5	3.8	7.42e-01	0	62	104	689438720	62	32219
2026-01-25 10:22:30.47	353.00	2.10	-45.9	-64.5	3.8	7.47e-01	0	62	104	689438720	62	32238
2026-01-25 10:22:31.48	352.93	2.05	-45.9	-64.5	3.8	7.47e-01	0	62	104	689438720	62	32220
2026-01-25 10:22:32.49	352.85	1.99	-45.9	-64.5	3.8	7.45e-01	0	62	104	689438720	62	32251
2026-01-25 10:22:33.50	352.78	1.93	-45.9	-64.5	3.8	7.47e-01	0	62	104	689438720	62	32229

#Closed at: 2026-01-25 10:22:34
#Recorded file [689 MB]: D:/lorett/data/31039_260125_131249.dat