passes_logs/2026/01/25/R2.0S_Moscow/R2.0S_Moscow__20260125_121515_FENGYUN_3D_rec.log

#Pass ID: 20260125_121515_FENGYUN 3D
#Satellite: FENGYUN 3D
#Configuration: FENGYUN 3D
#almurnet v.1.7.20251203
#Start time: 2026-01-25 12:15:15

#Version: 2.2.20231116
#Station: R2.0S_Moscow
#Location: 37.707566 lon 55.798166 lat
#TLE: 1 43010U 17072A   26024.51794477  .00000040  00000+0  40682-4 0  9990
#TLE: 2 43010  98.9961 356.4820 0002494  91.2631 268.8830 14.19699550424601

#Time	Az	El	Level	Level2	SNR	BER	BlckErr	Temp	State	Recorded	gain1	gain2
2026-01-25 12:15:15.45	168.28	2.00	-43.8	-55.5	3.8	8.46e-01	0	52	0	0	59	13604
2026-01-25 12:15:16.45	168.30	2.06	-43.8	-55.4	3.8	8.46e-01	0	52	104	0	59	13521
2026-01-25 12:15:17.46	168.31	2.13	-43.8	-55.4	3.8	8.47e-01	0	52	104	0	59	13493
2026-01-25 12:15:18.47	168.33	2.19	-43.8	-55.4	3.8	8.46e-01	0	52	104	0	59	13554
2026-01-25 12:15:19.48	168.34	2.26	-43.8	-55.4	3.8	8.47e-01	0	53	104	0	59	13529
2026-01-25 12:15:20.49	168.36	2.32	-43.8	-55.5	3.8	8.46e-01	0	53	104	0	59	13579
2026-01-25 12:15:21.51	168.37	2.39	-43.8	-55.5	3.8	8.45e-01	0	53	104	0	59	13595
2026-01-25 12:15:22.52	168.39	2.46	-43.8	-55.4	3.8	8.47e-01	0	53	104	0	59	13486
2026-01-25 12:15:23.53	168.40	2.52	-43.8	-55.4	3.8	8.46e-01	0	53	104	0	59	13512
2026-01-25 12:15:24.54	168.42	2.59	-43.8	-55.4	3.8	8.46e-01	0	53	104	0	59	13537
2026-01-25 12:15:25.55	168.43	2.65	-43.8	-55.4	3.8	8.47e-01	0	53	104	0	59	13497
2026-01-25 12:15:26.56	168.45	2.72	-43.8	-55.4	3.8	8.46e-01	0	53	104	0	59	13551
2026-01-25 12:15:27.57	168.47	2.79	-43.8	-55.4	3.8	8.45e-01	0	53	104	0	59	13546
2026-01-25 12:15:28.58	168.48	2.85	-43.8	-55.5	3.8	8.47e-01	0	53	104	0	59	13571
2026-01-25 12:15:29.59	168.50	2.92	-43.8	-55.4	3.8	8.46e-01	0	53	104	0	59	13544
2026-01-25 12:15:30.60	168.51	2.99	-43.8	-55.4	3.8	8.47e-01	0	53	104	0	59	13516
2026-01-25 12:15:31.61	168.53	3.05	-43.8	-55.4	3.8	8.45e-01	0	53	104	0	59	13509
2026-01-25 12:15:32.62	168.54	3.12	-43.8	-55.4	3.8	8.46e-01	0	54	104	0	59	13546
2026-01-25 12:15:33.63	168.56	3.19	-43.8	-55.4	3.8	8.46e-01	0	54	104	0	59	13493
2026-01-25 12:15:34.64	168.58	3.26	-43.8	-55.4	3.8	8.46e-01	0	54	104	0	59	13502
2026-01-25 12:15:35.66	168.59	3.32	-43.8	-55.4	3.8	8.46e-01	0	54	104	0	59	13475
2026-01-25 12:15:36.67	168.61	3.39	-43.8	-55.4	3.8	8.46e-01	0	54	104	0	59	13477
2026-01-25 12:15:37.68	168.63	3.46	-43.8	-55.4	3.8	8.46e-01	0	54	104	0	59	13499
2026-01-25 12:15:38.69	168.64	3.53	-43.8	-55.4	3.8	8.45e-01	0	54	104	0	59	13509
2026-01-25 12:15:39.70	168.66	3.60	-43.8	-55.4	3.8	8.45e-01	0	54	104	0	59	13436
2026-01-25 12:15:40.71	168.68	3.66	-43.8	-55.4	3.8	8.46e-01	0	54	104	0	59	13545
2026-01-25 12:15:41.72	168.69	3.73	-43.8	-55.4	3.8	8.46e-01	0	54	104	0	59	13487
2026-01-25 12:15:42.73	168.71	3.80	-43.8	-55.4	3.8	8.48e-01	0	54	104	0	59	13430
2026-01-25 12:15:43.74	168.73	3.87	-43.8	-55.4	3.8	8.46e-01	0	54	104	0	59	13467
2026-01-25 12:15:44.75	168.74	3.94	-43.8	-55.4	3.8	8.45e-01	0	54	104	0	59	13475
2026-01-25 12:15:45.76	168.76	4.01	-43.8	-55.4	3.8	8.46e-01	0	55	104	0	59	13439
2026-01-25 12:15:46.77	168.78	4.08	-43.8	-55.4	3.8	8.46e-01	0	55	104	0	59	13435
2026-01-25 12:15:47.78	168.79	4.15	-43.8	-55.3	3.8	8.47e-01	0	55	104	0	59	13371
2026-01-25 12:15:48.79	168.81	4.22	-43.8	-55.3	3.8	8.46e-01	0	55	104	0	59	13264
2026-01-25 12:15:49.80	168.83	4.29	-43.8	-55.2	3.8	8.45e-01	0	55	104	0	59	13166
2026-01-25 12:15:50.81	168.84	4.36	-43.7	-55.0	3.8	8.47e-01	0	55	104	0	59	12935
2026-01-25 12:15:51.83	168.86	4.43	-43.7	-54.9	3.8	8.46e-01	0	55	104	0	59	12669
2026-01-25 12:15:52.84	168.88	4.50	-43.7	-54.6	3.8	8.46e-01	0	55	104	0	59	12282
2026-01-25 12:15:53.85	168.90	4.57	-43.6	-54.2	3.8	8.46e-01	0	55	104	0	59	11701
2026-01-25 12:15:54.86	168.91	4.64	-43.6	-54.1	3.8	8.46e-01	0	55	104	0	59	11598
2026-01-25 12:15:55.87	168.93	4.71	-43.6	-53.8	3.8	8.46e-01	0	55	104	0	59	11224
2026-01-25 12:15:56.88	168.95	4.79	-43.5	-53.2	3.9	8.45e-01	0	55	104	0	59	10483
2026-01-25 12:15:57.89	168.97	4.86	-43.5	-53.1	3.8	8.46e-01	0	55	104	0	59	10412
2026-01-25 12:15:58.90	168.98	4.93	-43.5	-52.7	4.0	8.44e-01	0	55	104	0	58	10450
2026-01-25 12:15:59.91	169.00	5.00	-43.4	-52.4	4.1	8.42e-01	0	55	104	0	58	10151
2026-01-25 12:16:00.92	169.02	5.07	-43.3	-51.9	4.2	8.39e-01	0	56	0	0	58	9555
2026-01-25 12:16:01.93	169.04	5.15	-43.3	-51.9	4.2	8.37e-01	0	55	0	0	58	9534
2026-01-25 12:16:02.94	169.06	5.22	-43.2	-51.4	4.3	8.35e-01	0	55	0	0	58	8975
2026-01-25 12:16:03.95	169.07	5.29	-43.2	-51.4	4.3	8.31e-01	0	55	0	0	58	8981
2026-01-25 12:16:04.96	169.09	5.36	-43.1	-50.7	4.6	8.25e-01	0	56	0	0	58	8293
2026-01-25 12:16:05.97	169.11	5.44	-43.2	-50.9	4.5	8.14e-01	0	56	0	0	58	8531
2026-01-25 12:16:06.99	169.13	5.51	-43.0	-50.3	4.8	8.14e-01	0	56	0	0	58	7922
2026-01-25 12:16:07.99	169.15	5.58	-43.1	-50.5	4.7	8.05e-01	0	56	0	0	58	8163
2026-01-25 12:16:09.01	169.17	5.66	-43.0	-50.2	4.8	8.01e-01	0	56	0	0	58	7843
2026-01-25 12:16:10.02	169.18	5.73	-42.9	-50.0	4.9	7.84e-01	0	56	0	0	57	8100
2026-01-25 12:16:11.03	169.20	5.81	-42.9	-49.7	5.1	7.72e-01	0	56	0	0	57	7844
2026-01-25 12:16:12.04	169.22	5.88	-42.8	-49.6	5.1	7.52e-01	0	56	0	0	57	7778
2026-01-25 12:16:13.05	169.24	5.96	-42.9	-49.8	5.0	7.69e-01	0	56	0	0	57	7967
2026-01-25 12:16:14.06	169.26	6.03	-42.8	-49.5	5.2	7.55e-01	0	56	0	0	57	7680
2026-01-25 12:16:15.07	169.28	6.11	-42.8	-49.7	5.1	7.49e-01	0	56	0	0	57	7809
2026-01-25 12:16:16.08	169.30	6.18	-42.9	-50.1	4.9	7.85e-01	0	56	0	0	57	8179
2026-01-25 12:16:17.09	169.32	6.26	-42.9	-50.0	4.9	7.82e-01	0	56	0	0	57	8098
2026-01-25 12:16:18.10	169.34	6.33	-42.9	-50.0	4.9	7.83e-01	0	56	0	0	57	8136
2026-01-25 12:16:19.11	169.36	6.41	-43.0	-50.3	4.8	8.00e-01	0	56	0	0	57	8397
2026-01-25 12:16:20.12	169.38	6.48	-43.0	-50.3	4.8	7.95e-01	0	56	0	0	57	8371
2026-01-25 12:16:21.13	169.39	6.56	-43.1	-50.6	4.6	8.05e-01	0	56	0	0	57	8714
2026-01-25 12:16:22.14	169.41	6.64	-43.1	-50.8	4.5	8.20e-01	0	57	0	0	57	8922
2026-01-25 12:16:23.15	169.43	6.71	-43.1	-50.8	4.5	8.19e-01	0	57	0	0	57	8938
2026-01-25 12:16:24.16	169.45	6.79	-43.0	-50.5	4.6	8.18e-01	0	56	0	0	57	8652
2026-01-25 12:16:25.17	169.47	6.87	-42.9	-49.9	4.9	7.86e-01	0	56	0	0	57	8073
2026-01-25 12:16:26.18	169.49	6.95	-42.8	-49.5	5.2	7.51e-01	0	57	0	0	57	7692
2026-01-25 12:16:27.20	169.51	7.03	-42.6	-48.8	5.6	6.74e-01	0	57	0	0	57	7113
2026-01-25 12:16:28.21	169.53	7.10	-42.4	-48.1	6.1	4.09e-01	0	57	0	5242880	56	6884
2026-01-25 12:16:29.22	169.55	7.18	-42.1	-47.3	6.8	2.19e-01	0	57	0	10485760	56	6294
2026-01-25 12:16:30.23	169.57	7.26	-41.6	-46.2	7.7	1.24e-01	0	57	0	16777216	55	5875
2026-01-25 12:16:31.24	169.60	7.34	-41.3	-45.5	8.4	7.17e-02	0	57	0	22020096	54	5748
2026-01-25 12:16:32.25	169.62	7.42	-40.9	-44.8	9.1	3.70e-02	0	57	0	27262976	53	5639
2026-01-25 12:16:33.26	169.64	7.50	-40.5	-44.0	9.8	1.27e-02	0	57	0	33554432	53	5150
2026-01-25 12:16:34.27	169.66	7.58	-40.1	-43.2	10.7	5.15e-03	0	57	0	38797312	52	4974
2026-01-25 12:16:35.28	169.68	7.66	-39.9	-42.9	11.2	2.57e-03	0	57	0	45088768	51	5048
2026-01-25 12:16:36.29	169.70	7.74	-39.5	-42.4	11.7	9.73e-04	0	57	0	50331648	51	4761
2026-01-25 12:16:37.30	169.72	7.82	-39.3	-42.0	12.1	5.55e-04	0	57	0	56623104	50	4846
2026-01-25 12:16:38.32	169.74	7.90	-39.2	-41.8	12.2	3.03e-04	0	57	0	61865984	50	4752
2026-01-25 12:16:39.33	169.76	7.98	-39.2	-41.8	12.3	3.03e-04	0	57	0	67108864	50	4749
2026-01-25 12:16:40.34	169.78	8.06	-39.5	-42.2	12.0	2.54e-04	0	57	0	73400320	50	4938
2026-01-25 12:16:41.35	169.81	8.14	-42.3	-48.0	6.2	4.83e-01	0	57	0	78643200	55	7241
2026-01-25 12:16:42.36	169.83	8.22	-40.6	-44.1	9.7	3.05e-01	0	57	0	83886080	53	5194
2026-01-25 12:16:43.37	169.85	8.30	-40.2	-43.2	11.2	1.26e-03	0	57	0	90177536	51	5219
2026-01-25 12:16:44.38	169.87	8.39	-39.9	-42.8	11.4	5.51e-02	0	57	0	95420416	52	4735
2026-01-25 12:16:45.39	169.89	8.47	-41.6	-46.1	7.6	8.18e-01	0	57	0	99614720	55	5839
2026-01-25 12:16:46.40	169.91	8.55	-39.0	-41.5	12.8	2.40e-05	0	57	0	104857600	49	4826
2026-01-25 12:16:47.40	169.94	8.63	-39.1	-41.6	12.7	4.92e-05	0	57	0	111149056	49	4879
2026-01-25 12:16:48.41	169.96	8.72	-39.0	-41.4	12.8	3.89e-05	0	57	0	116391936	49	4809
2026-01-25 12:16:49.42	169.98	8.80	-38.9	-41.3	13.0	2.05e-05	0	57	0	121634816	49	4706
2026-01-25 12:16:50.43	170.00	8.88	-38.7	-41.1	13.2	1.37e-05	0	58	0	127926272	49	4603
2026-01-25 12:16:51.44	170.03	8.97	-38.8	-41.2	13.2	1.48e-05	0	58	0	133169152	49	4653
2026-01-25 12:16:52.45	170.05	9.05	-38.8	-41.1	13.2	1.37e-05	0	58	0	139460608	49	4635
2026-01-25 12:16:53.46	170.07	9.13	-38.8	-41.1	13.2	1.48e-05	0	58	0	144703488	49	4621
2026-01-25 12:16:54.47	170.09	9.22	-38.8	-41.1	13.2	1.14e-05	0	58	0	150994944	49	4619
2026-01-25 12:16:55.48	170.12	9.30	-38.6	-40.9	13.4	1.37e-05	0	58	0	156237824	49	4531
2026-01-25 12:16:56.49	170.14	9.39	-38.7	-41.0	13.4	1.02e-05	0	58	0	161480704	49	4562
2026-01-25 12:16:57.50	170.16	9.48	-38.6	-40.9	13.5	6.80e-06	0	58	0	167772160	49	4521
2026-01-25 12:16:58.51	170.19	9.56	-38.6	-40.8	13.5	6.80e-06	0	58	0	173015040	49	4485
2026-01-25 12:16:59.53	170.21	9.65	-38.6	-40.9	13.4	5.70e-06	0	58	0	179306496	49	4530
2026-01-25 12:17:00.54	170.23	9.74	-38.7	-40.9	13.4	6.80e-06	0	58	0	184549376	49	4539
2026-01-25 12:17:01.55	170.26	9.82	-38.6	-40.8	13.5	4.50e-06	0	58	0	189792256	49	4480
2026-01-25 12:17:02.55	170.28	9.91	-38.6	-40.8	13.6	4.50e-06	0	58	0	196083712	49	4465
2026-01-25 12:17:03.56	170.31	10.00	-38.6	-40.9	13.6	5.70e-06	0	58	0	201326592	49	4511
2026-01-25 12:17:04.57	170.33	10.08	-38.6	-40.8	13.6	3.40e-06	0	58	0	207618048	49	4463
2026-01-25 12:17:05.58	170.35	10.17	-38.6	-40.8	13.6	4.50e-06	0	58	0	212860928	49	4485
2026-01-25 12:17:06.59	170.38	10.26	-38.6	-40.8	13.6	8.00e-06	0	58	0	218103808	49	4467
2026-01-25 12:17:07.60	170.40	10.35	-38.6	-40.9	13.6	5.70e-06	0	58	0	224395264	49	4502
2026-01-25 12:17:08.61	170.43	10.44	-38.6	-40.8	13.7	5.70e-06	0	58	0	229638144	49	4459
2026-01-25 12:17:09.62	170.45	10.53	-38.6	-40.8	13.7	2.20e-06	0	58	0	235929600	49	4467
2026-01-25 12:17:10.63	170.48	10.62	-38.6	-40.8	13.7	4.50e-06	0	58	0	241172480	49	4488
2026-01-25 12:17:11.64	170.50	10.71	-38.6	-40.8	13.7	3.40e-06	0	58	0	247463936	49	4492
2026-01-25 12:17:12.65	170.53	10.80	-38.5	-40.8	13.8	4.50e-06	0	58	0	252706816	49	4443
2026-01-25 12:17:13.66	170.55	10.89	-38.5	-40.7	13.8	2.20e-06	0	58	0	258998272	49	4416
2026-01-25 12:17:14.67	170.58	10.98	-38.5	-40.7	13.8	3.40e-06	0	58	0	264241152	49	4436
2026-01-25 12:17:15.68	170.60	11.07	-38.6	-40.8	13.7	1.10e-06	0	58	0	269484032	49	4450
2026-01-25 12:17:16.69	170.63	11.16	-38.6	-40.8	13.7	3.40e-06	0	58	0	275775488	49	4454
2026-01-25 12:17:17.70	170.66	11.25	-38.6	-40.8	13.7	5.70e-06	0	59	0	281018368	49	4477
2026-01-25 12:17:18.71	170.68	11.35	-38.7	-40.9	13.6	5.70e-06	0	59	0	287309824	49	4517
2026-01-25 12:17:19.72	170.71	11.44	-38.5	-40.7	13.9	1.10e-06	0	59	0	292552704	49	4410
2026-01-25 12:17:20.73	170.73	11.53	-38.5	-40.6	13.9	1.10e-06	0	59	0	297795584	48	4629
2026-01-25 12:17:21.74	170.76	11.62	-38.5	-40.7	13.9	1.10e-06	0	58	0	304087040	48	4659
2026-01-25 12:17:22.75	170.79	11.72	-38.4	-40.6	14.0	3.40e-06	0	59	0	309329920	48	4611
2026-01-25 12:17:23.76	170.81	11.81	-38.5	-40.6	13.9	1.10e-06	0	58	0	315621376	48	4633
2026-01-25 12:17:24.77	170.84	11.91	-38.5	-40.6	14.0	2.20e-06	0	58	0	320864256	48	4646
2026-01-25 12:17:25.78	170.87	12.00	-38.4	-40.5	14.1	0.00e+00	0	59	0	326107136	48	4570
2026-01-25 12:17:26.79	170.90	12.10	-38.4	-40.5	14.1	1.10e-06	0	59	0	332398592	48	4586
2026-01-25 12:17:27.80	170.92	12.19	-38.4	-40.5	14.1	1.10e-06	0	59	0	337641472	48	4589
2026-01-25 12:17:28.81	170.95	12.29	-38.3	-40.4	14.1	0.00e+00	0	59	0	343932928	48	4544
2026-01-25 12:17:29.82	170.98	12.38	-38.4	-40.5	14.1	1.10e-06	0	59	0	349175808	48	4582
2026-01-25 12:17:30.83	171.01	12.48	-38.4	-40.5	14.1	0.00e+00	0	59	0	355467264	48	4570
2026-01-25 12:17:31.84	171.03	12.58	-38.3	-40.5	14.1	1.10e-06	0	59	0	360710144	48	4551
2026-01-25 12:17:32.85	171.06	12.68	-38.2	-40.3	14.3	0.00e+00	0	59	0	365953024	48	4479
2026-01-25 12:17:33.86	171.09	12.77	-38.3	-40.3	14.3	0.00e+00	0	59	0	372244480	48	4487
2026-01-25 12:17:34.86	171.12	12.87	-38.2	-40.3	14.3	0.00e+00	0	59	0	377487360	48	4463
2026-01-25 12:17:35.87	171.15	12.97	-38.3	-40.3	14.3	0.00e+00	0	59	0	383778816	48	4477
2026-01-25 12:17:36.88	171.18	13.07	-38.2	-40.3	14.4	0.00e+00	0	59	0	389021696	48	4459
2026-01-25 12:17:37.90	171.21	13.17	-38.3	-40.3	14.3	0.00e+00	0	59	0	394264576	48	4485
2026-01-25 12:17:38.91	171.23	13.27	-38.2	-40.3	14.4	0.00e+00	0	59	0	400556032	48	4452
2026-01-25 12:17:39.92	171.26	13.37	-38.2	-40.2	14.4	0.00e+00	0	59	0	405798912	48	4430
2026-01-25 12:17:40.93	171.29	13.47	-38.2	-40.2	14.5	1.10e-06	0	59	0	412090368	48	4418
2026-01-25 12:17:41.94	171.32	13.57	-38.1	-40.1	14.6	0.00e+00	0	59	0	417333248	48	4362
2026-01-25 12:17:42.95	171.35	13.67	-38.1	-40.1	14.6	0.00e+00	0	59	0	422576128	48	4370
2026-01-25 12:17:43.96	171.38	13.77	-38.0	-40.0	14.7	0.00e+00	0	59	0	428867584	48	4306
2026-01-25 12:17:44.97	171.41	13.88	-37.9	-39.9	14.7	0.00e+00	0	59	0	434110464	47	4523
2026-01-25 12:17:45.98	171.44	13.98	-37.9	-39.9	14.7	0.00e+00	0	59	0	440401920	47	4515
2026-01-25 12:17:46.99	171.48	14.08	-37.8	-39.8	14.8	0.00e+00	0	59	0	445644800	47	4442
2026-01-25 12:17:48.00	171.51	14.18	-37.8	-39.7	14.9	0.00e+00	0	59	0	451936256	47	4428
2026-01-25 12:17:49.01	171.54	14.29	-37.8	-39.8	14.8	0.00e+00	0	59	0	457179136	47	4470
2026-01-25 12:17:50.02	171.57	14.39	-37.8	-39.7	14.8	0.00e+00	0	59	0	463470592	47	4436
2026-01-25 12:17:51.03	171.60	14.50	-37.7	-39.6	15.0	0.00e+00	0	59	0	468713472	47	4370
2026-01-25 12:17:52.04	171.63	14.60	-37.7	-39.6	15.0	2.20e-06	0	59	0	473956352	47	4359
2026-01-25 12:17:53.05	171.66	14.71	-37.6	-39.6	15.0	0.00e+00	0	59	0	480247808	47	4354
2026-01-25 12:17:54.06	171.70	14.82	-37.6	-39.5	15.1	0.00e+00	0	59	0	485490688	47	4323
2026-01-25 12:17:55.07	171.73	14.92	-37.6	-39.5	15.1	0.00e+00	0	59	0	491782144	47	4319
2026-01-25 12:17:56.08	171.76	15.03	-37.6	-39.5	15.2	0.00e+00	0	59	0	497025024	47	4305
2026-01-25 12:17:57.09	171.79	15.14	-37.6	-39.6	15.1	0.00e+00	0	60	0	502267904	47	4344
2026-01-25 12:17:58.10	171.83	15.24	-37.5	-39.4	15.2	0.00e+00	0	59	0	508559360	47	4276
2026-01-25 12:17:59.11	171.86	15.35	-37.5	-39.4	15.3	0.00e+00	0	59	0	513802240	47	4263
2026-01-25 12:18:00.12	171.89	15.46	-37.6	-39.5	15.2	0.00e+00	0	59	0	520093696	47	4293
2026-01-25 12:18:01.12	171.93	15.57	-37.4	-39.3	15.4	0.00e+00	0	59	0	525336576	46	4445
2026-01-25 12:18:02.13	171.96	15.68	-37.4	-39.2	15.5	0.00e+00	0	59	0	530579456	46	4430
2026-01-25 12:18:03.14	171.99	15.79	-37.4	-39.2	15.5	0.00e+00	0	59	0	536870912	46	4413
2026-01-25 12:18:04.15	172.03	15.90	-37.3	-39.1	15.6	0.00e+00	0	59	0	542113792	46	4353
2026-01-25 12:18:05.16	172.06	16.01	-37.2	-39.0	15.6	0.00e+00	0	59	0	548405248	46	4335
2026-01-25 12:18:06.17	172.10	16.13	-37.1	-38.9	15.8	0.00e+00	0	59	0	553648128	46	4269
2026-01-25 12:18:07.18	172.13	16.24	-37.1	-38.9	15.8	0.00e+00	0	59	0	559939584	46	4279
2026-01-25 12:18:08.19	172.17	16.35	-37.1	-38.8	15.8	0.00e+00	0	60	0	565182464	46	4239
2026-01-25 12:18:09.20	172.20	16.47	-37.1	-38.8	15.9	0.00e+00	0	59	0	571473920	46	4219
2026-01-25 12:18:10.21	172.24	16.58	-37.1	-38.9	15.8	0.00e+00	0	59	0	576716800	46	4253
2026-01-25 12:18:11.23	172.28	16.70	-37.0	-38.8	15.9	0.00e+00	0	60	0	581959680	46	4219
2026-01-25 12:18:12.23	172.31	16.81	-37.0	-38.7	16.0	0.00e+00	0	60	0	588251136	46	4189
2026-01-25 12:18:13.24	172.35	16.92	-37.0	-38.7	16.0	0.00e+00	0	59	0	593494016	46	4184
2026-01-25 12:18:14.25	172.39	17.04	-36.9	-38.7	16.0	0.00e+00	0	60	0	599785472	45	4400
2026-01-25 12:18:15.26	172.42	17.16	-37.0	-38.7	16.0	0.00e+00	0	59	0	605028352	45	4429
2026-01-25 12:18:16.27	172.46	17.28	-37.0	-38.7	16.0	0.00e+00	0	60	0	610271232	45	4406
2026-01-25 12:18:17.28	172.50	17.39	-36.9	-38.6	16.1	0.00e+00	0	60	0	616562688	45	4364
2026-01-25 12:18:18.30	172.54	17.51	-36.9	-38.6	16.1	0.00e+00	0	60	0	621805568	45	4363
2026-01-25 12:18:19.30	172.57	17.63	-36.9	-38.6	16.1	0.00e+00	0	60	0	628097024	45	4386
2026-01-25 12:18:20.31	172.61	17.75	-36.9	-38.6	16.1	0.00e+00	0	60	0	633339904	45	4388
2026-01-25 12:18:21.32	172.65	17.87	-36.8	-38.5	16.2	0.00e+00	0	60	0	638582784	45	4316
2026-01-25 12:18:22.33	172.69	17.99	-36.7	-38.4	16.3	0.00e+00	0	60	0	644874240	45	4271
2026-01-25 12:18:23.34	172.73	18.11	-36.7	-38.4	16.3	0.00e+00	0	60	0	650117120	45	4278
2026-01-25 12:18:24.35	172.77	18.23	-36.7	-38.4	16.3	0.00e+00	0	60	0	656408576	45	4268
2026-01-25 12:18:25.36	172.81	18.36	-36.7	-38.4	16.3	0.00e+00	0	60	0	661651456	45	4269
2026-01-25 12:18:26.37	172.85	18.48	-36.7	-38.4	16.3	0.00e+00	0	60	0	667942912	45	4246
2026-01-25 12:18:27.38	172.89	18.60	-36.7	-38.3	16.4	0.00e+00	0	60	0	673185792	45	4240
2026-01-25 12:18:28.39	172.93	18.73	-36.6	-38.3	16.4	0.00e+00	0	60	0	678428672	45	4210
2026-01-25 12:18:29.40	172.97	18.85	-36.6	-38.2	16.5	0.00e+00	0	60	0	684720128	45	4190
2026-01-25 12:18:30.41	173.01	18.98	-36.6	-38.2	16.5	0.00e+00	0	60	0	689963008	45	4181
2026-01-25 12:18:31.42	173.05	19.10	-36.6	-38.2	16.5	0.00e+00	0	60	0	696254464	45	4183
2026-01-25 12:18:32.43	173.10	19.23	-36.6	-38.2	16.5	0.00e+00	0	60	0	701497344	45	4181
2026-01-25 12:18:33.44	173.14	19.36	-36.6	-38.2	16.5	0.00e+00	0	60	0	706740224	45	4166
2026-01-25 12:18:34.45	173.18	19.49	-36.5	-38.1	16.6	0.00e+00	0	60	0	713031680	44	4359
2026-01-25 12:18:35.45	173.22	19.61	-36.4	-38.0	16.7	0.00e+00	0	60	0	718274560	44	4327
2026-01-25 12:18:36.46	173.27	19.74	-36.4	-38.0	16.7	0.00e+00	0	60	0	724566016	44	4326
2026-01-25 12:18:37.47	173.31	19.87	-36.4	-38.0	16.7	0.00e+00	0	60	0	729808896	44	4326
2026-01-25 12:18:38.48	173.35	20.00	-36.3	-37.9	16.8	0.00e+00	0	60	0	735051776	44	4276
2026-01-25 12:18:39.49	173.40	20.14	-36.3	-37.9	16.8	0.00e+00	0	60	0	741343232	44	4275
2026-01-25 12:18:40.50	173.44	20.27	-36.3	-37.9	16.8	0.00e+00	0	60	0	746586112	44	4272
2026-01-25 12:18:41.51	173.49	20.40	-36.3	-37.8	16.9	0.00e+00	0	60	0	752877568	44	4241
2026-01-25 12:18:42.52	173.53	20.53	-36.2	-37.8	17.0	0.00e+00	0	60	0	758120448	44	4216
2026-01-25 12:18:43.53	173.58	20.67	-36.3	-37.8	16.9	0.00e+00	0	60	0	764411904	44	4235
2026-01-25 12:18:44.54	173.62	20.80	-36.3	-37.9	16.8	0.00e+00	0	60	0	769654784	44	4285
2026-01-25 12:18:45.55	173.67	20.94	-36.3	-37.9	16.8	0.00e+00	0	60	0	774897664	44	4281
2026-01-25 12:18:46.56	173.72	21.08	-36.3	-38.0	16.8	0.00e+00	0	60	0	781189120	44	4293
2026-01-25 12:18:47.57	173.77	21.21	-36.3	-37.9	16.8	0.00e+00	0	60	0	786432000	44	4283
2026-01-25 12:18:48.58	173.81	21.35	-36.4	-38.0	16.8	0.00e+00	0	60	0	792723456	44	4318
2026-01-25 12:18:49.59	173.86	21.49	-36.3	-37.9	16.8	0.00e+00	0	60	0	797966336	44	4290
2026-01-25 12:18:50.60	173.91	21.63	-36.3	-37.9	16.9	0.00e+00	0	60	0	803209216	44	4250
2026-01-25 12:18:51.61	173.96	21.77	-36.2	-37.8	17.0	0.00e+00	0	60	0	809500672	44	4199
2026-01-25 12:18:52.62	174.01	21.91	-36.2	-37.7	17.0	0.00e+00	0	60	0	814743552	44	4182
2026-01-25 12:18:53.63	174.06	22.05	-36.1	-37.7	17.0	0.00e+00	0	60	0	821035008	44	4171
2026-01-25 12:18:54.64	174.11	22.19	-36.1	-37.7	17.1	0.00e+00	0	60	0	826277888	44	4167
2026-01-25 12:18:55.65	174.16	22.34	-36.2	-37.7	17.0	0.00e+00	0	60	0	831520768	44	4192
2026-01-25 12:18:56.66	174.21	22.48	-36.2	-37.8	17.0	0.00e+00	0	60	0	837812224	44	4208
2026-01-25 12:18:57.67	174.26	22.63	-36.1	-37.7	17.1	0.00e+00	0	60	0	843055104	44	4157
2026-01-25 12:18:58.68	174.31	22.77	-36.1	-37.6	17.1	0.00e+00	0	60	0	849346560	44	4145
2026-01-25 12:18:59.69	174.37	22.92	-36.1	-37.7	17.1	0.00e+00	0	60	0	854589440	44	4147
2026-01-25 12:19:00.70	174.42	23.06	-36.1	-37.6	17.1	0.00e+00	0	60	0	860880896	44	4140
2026-01-25 12:19:01.71	174.47	23.21	-36.0	-37.6	17.2	0.00e+00	0	60	0	866123776	44	4102
2026-01-25 12:19:02.72	174.53	23.36	-36.1	-37.6	17.1	0.00e+00	0	60	0	872415232	44	4145
2026-01-25 12:19:03.74	174.58	23.51	-36.0	-37.6	17.2	0.00e+00	0	60	0	877658112	44	4120
2026-01-25 12:19:04.75	174.64	23.66	-36.1	-37.6	17.2	0.00e+00	0	60	0	882900992	44	4136
2026-01-25 12:19:05.76	174.69	23.81	-36.0	-37.5	17.2	0.00e+00	0	60	0	889192448	44	4096
2026-01-25 12:19:06.77	174.75	23.97	-35.8	-37.3	17.3	0.00e+00	0	60	0	894435328	43	4220
2026-01-25 12:19:07.78	174.80	24.12	-35.8	-37.3	17.4	0.00e+00	0	60	0	900726784	43	4205
2026-01-25 12:19:08.79	174.86	24.27	-35.7	-37.2	17.4	0.00e+00	0	60	0	905969664	43	4183
2026-01-25 12:19:09.80	174.92	24.43	-35.6	-37.2	17.5	0.00e+00	0	60	0	911212544	43	4149
2026-01-25 12:19:10.80	174.97	24.58	-35.6	-37.1	17.5	0.00e+00	0	60	0	917504000	43	4126
2026-01-25 12:19:11.81	175.03	24.74	-35.6	-37.1	17.5	0.00e+00	0	60	0	922746880	43	4143
2026-01-25 12:19:12.82	175.09	24.90	-35.6	-37.1	17.6	0.00e+00	0	60	0	929038336	43	4101
2026-01-25 12:19:13.83	175.15	25.05	-35.5	-37.0	17.6	0.00e+00	0	60	0	934281216	43	4088
2026-01-25 12:19:14.84	175.21	25.21	-35.6	-37.1	17.6	0.00e+00	0	60	0	939524096	43	4100
2026-01-25 12:19:15.85	175.27	25.37	-35.6	-37.1	17.5	0.00e+00	0	60	0	945815552	43	4143
2026-01-25 12:19:16.86	175.33	25.54	-35.7	-37.2	17.4	0.00e+00	0	60	0	951058432	43	4182
2026-01-25 12:19:17.87	175.40	25.70	-35.7	-37.2	17.4	0.00e+00	0	60	0	957349888	43	4180
2026-01-25 12:19:18.88	175.46	25.86	-35.7	-37.3	17.4	0.00e+00	0	60	0	962592768	43	4204
2026-01-25 12:19:19.89	175.52	26.03	-35.8	-37.4	17.3	0.00e+00	0	60	0	968884224	43	4249
2026-01-25 12:19:20.90	175.58	26.19	-35.7	-37.3	17.4	0.00e+00	0	60	0	974127104	43	4204
2026-01-25 12:19:21.91	175.65	26.36	-35.7	-37.3	17.4	0.00e+00	0	60	0	980418560	43	4210
2026-01-25 12:19:22.92	175.71	26.52	-35.8	-37.4	17.3	0.00e+00	0	60	0	985661440	43	4245
2026-01-25 12:19:23.93	175.78	26.69	-35.6	-37.2	17.5	0.00e+00	0	60	0	990904320	43	4156
2026-01-25 12:19:24.94	175.85	26.86	-35.6	-37.1	17.6	0.00e+00	0	60	0	997195776	43	4110
2026-01-25 12:19:25.95	175.91	27.03	-35.6	-37.1	17.5	0.00e+00	0	60	0	1002438656	43	4140
2026-01-25 12:19:26.96	175.98	27.20	-35.6	-37.1	17.5	0.00e+00	0	61	0	1008730112	43	4128
2026-01-25 12:19:27.97	176.05	27.37	-35.6	-37.1	17.6	0.00e+00	0	61	0	1013972992	43	4102
2026-01-25 12:19:28.98	176.12	27.55	-35.5	-37.0	17.6	0.00e+00	0	60	0	1019215872	43	4075
2026-01-25 12:19:29.99	176.19	27.72	-35.5	-37.0	17.7	0.00e+00	0	60	0	1025507328	43	4076
2026-01-25 12:19:31.00	176.26	27.90	-35.5	-37.0	17.7	0.00e+00	0	60	0	1030750208	43	4075
2026-01-25 12:19:32.01	176.33	28.07	-35.6	-37.1	17.6	0.00e+00	0	61	0	1037041664	43	4101
2026-01-25 12:19:33.02	176.40	28.25	-35.6	-37.1	17.6	0.00e+00	0	60	0	1042284544	43	4114
2026-01-25 12:19:34.03	176.47	28.43	-35.7	-37.2	17.5	0.00e+00	0	60	0	1047527424	43	4155
2026-01-25 12:19:35.04	176.55	28.61	-35.6	-37.1	17.5	0.00e+00	0	61	0	1053818880	43	4145
2026-01-25 12:19:36.05	176.62	28.79	-35.7	-37.2	17.5	0.00e+00	0	60	0	1059061760	43	4184
2026-01-25 12:19:37.06	176.70	28.97	-35.8	-37.3	17.4	0.00e+00	0	60	0	1065353216	43	4233
2026-01-25 12:19:38.07	176.77	29.16	-35.8	-37.3	17.4	0.00e+00	0	61	0	1070596096	43	4229
2026-01-25 12:19:39.08	176.85	29.34	-35.8	-37.3	17.4	0.00e+00	0	61	0	1076887552	43	4231
2026-01-25 12:19:40.09	176.93	29.53	-35.8	-37.3	17.4	0.00e+00	0	60	0	1082130432	43	4231
2026-01-25 12:19:41.10	177.01	29.71	-35.8	-37.4	17.3	0.00e+00	0	61	0	1087373312	43	4250
2026-01-25 12:19:42.11	177.09	29.90	-35.8	-37.4	17.3	0.00e+00	0	61	0	1093664768	43	4247
2026-01-25 12:19:43.12	177.17	30.09	-35.9	-37.5	17.2	0.00e+00	0	61	0	1098907648	43	4293
2026-01-25 12:19:44.13	177.25	30.28	-35.8	-37.3	17.3	0.00e+00	0	61	0	1105199104	43	4230
2026-01-25 12:19:45.14	177.33	30.47	-35.8	-37.3	17.4	0.00e+00	0	61	0	1110441984	43	4222
2026-01-25 12:19:46.15	177.41	30.66	-35.7	-37.3	17.4	0.00e+00	0	61	0	1115684864	43	4219
2026-01-25 12:19:47.16	177.50	30.86	-35.7	-37.2	17.4	0.00e+00	0	61	0	1121976320	43	4188
2026-01-25 12:19:48.17	177.58	31.05	-35.4	-36.9	17.7	0.00e+00	0	61	0	1127219200	42	4275
2026-01-25 12:19:49.18	177.67	31.25	-35.2	-36.6	18.1	0.00e+00	0	61	0	1133510656	42	4128
2026-01-25 12:19:50.19	177.75	31.45	-35.1	-36.5	18.2	0.00e+00	0	61	0	1138753536	42	4068
2026-01-25 12:19:51.20	177.84	31.65	-35.1	-36.6	18.1	0.00e+00	0	61	0	1143996416	42	4099
2026-01-25 12:19:52.21	177.93	31.85	-35.1	-36.5	18.1	0.00e+00	0	61	0	1150287872	42	4093
2026-01-25 12:19:53.22	178.02	32.05	-35.1	-36.6	18.1	0.00e+00	0	61	0	1155530752	42	4103
2026-01-25 12:19:54.23	178.11	32.25	-35.3	-36.8	17.9	0.00e+00	0	61	0	1161822208	42	4201
2026-01-25 12:19:55.24	178.21	32.45	-35.4	-36.9	17.8	0.00e+00	0	61	0	1167065088	42	4270
2026-01-25 12:19:56.25	178.30	32.66	-35.6	-37.1	17.6	0.00e+00	0	61	0	1173356544	42	4369
2026-01-25 12:19:57.26	178.39	32.87	-35.7	-37.3	17.4	0.00e+00	0	61	0	1178599424	42	4446
2026-01-25 12:19:58.27	178.49	33.07	-35.6	-37.2	17.5	0.00e+00	0	61	0	1184890880	42	4406
2026-01-25 12:19:59.28	178.59	33.28	-35.5	-37.0	17.6	0.00e+00	0	61	0	1190133760	42	4336
2026-01-25 12:20:00.29	178.68	33.49	-35.5	-37.0	17.7	0.00e+00	0	61	0	1195376640	42	4314
2026-01-25 12:20:01.30	178.78	33.71	-35.5	-37.0	17.7	0.00e+00	0	61	0	1201668096	42	4297
2026-01-25 12:20:02.31	178.88	33.92	-35.4	-36.9	17.8	0.00e+00	0	61	0	1206910976	42	4265
2026-01-25 12:20:03.32	178.99	34.14	-35.4	-36.9	17.9	0.00e+00	0	61	0	1213202432	42	4246
2026-01-25 12:20:04.33	179.09	34.35	-35.3	-36.8	18.0	0.00e+00	0	61	0	1218445312	42	4195
2026-01-25 12:20:05.34	179.19	34.57	-35.3	-36.7	18.0	0.00e+00	0	61	0	1223688192	42	4170
2026-01-25 12:20:06.35	179.30	34.79	-35.3	-36.8	18.0	0.00e+00	0	61	0	1229979648	42	4207
2026-01-25 12:20:07.36	179.41	35.01	-35.3	-36.8	17.9	0.00e+00	0	61	0	1235222528	42	4232
2026-01-25 12:20:08.37	179.52	35.23	-35.3	-36.8	17.9	0.00e+00	0	61	0	1241513984	42	4226
2026-01-25 12:20:09.38	179.63	35.45	-35.3	-36.7	17.9	0.00e+00	0	61	0	1246756864	42	4186
2026-01-25 12:20:10.39	179.74	35.68	-35.3	-36.7	18.0	0.00e+00	0	61	0	1251999744	42	4171
2026-01-25 12:20:11.40	179.85	35.91	-35.3	-36.7	18.0	0.00e+00	0	61	0	1258291200	42	4173
2026-01-25 12:20:12.42	179.97	36.14	-35.3	-36.7	18.0	0.00e+00	0	61	0	1263534080	42	4174
2026-01-25 12:20:13.43	180.08	36.37	-35.2	-36.6	18.1	0.00e+00	0	61	0	1269825536	42	4130
2026-01-25 12:20:14.43	180.20	36.59	-35.1	-36.5	18.2	0.00e+00	0	61	0	1275068416	42	4090
2026-01-25 12:20:15.44	180.32	36.83	-35.0	-36.5	18.3	0.00e+00	0	61	0	1281359872	42	4053
2026-01-25 12:20:16.45	180.44	37.06	-34.8	-36.2	18.5	0.00e+00	0	61	0	1286602752	41	4173
2026-01-25 12:20:17.46	180.56	37.30	-34.8	-36.2	18.5	0.00e+00	0	61	0	1292894208	41	4173
2026-01-25 12:20:18.47	180.69	37.53	-34.8	-36.2	18.5	0.00e+00	0	61	0	1298137088	41	4171
2026-01-25 12:20:19.48	180.81	37.77	-34.9	-36.2	18.5	0.00e+00	0	61	0	1303379968	41	4190
2026-01-25 12:20:20.49	180.94	38.01	-34.8	-36.2	18.6	0.00e+00	0	61	0	1309671424	41	4149
2026-01-25 12:20:21.50	181.07	38.25	-34.8	-36.1	18.6	0.00e+00	0	61	0	1314914304	41	4138
2026-01-25 12:20:22.51	181.20	38.50	-34.9	-36.2	18.5	0.00e+00	0	61	0	1321205760	41	4179
2026-01-25 12:20:23.52	181.34	38.74	-35.0	-36.4	18.4	0.00e+00	0	61	0	1326448640	41	4246
2026-01-25 12:20:24.53	181.47	38.99	-35.0	-36.4	18.3	0.00e+00	0	61	0	1331691520	41	4272
2026-01-25 12:20:25.54	181.61	39.24	-35.2	-36.6	18.1	0.00e+00	0	61	0	1337982976	41	4373
2026-01-25 12:20:26.55	181.75	39.49	-35.3	-36.8	18.0	0.00e+00	0	61	0	1343225856	41	4445
2026-01-25 12:20:27.56	181.89	39.74	-35.4	-36.9	17.9	0.00e+00	0	61	0	1349517312	41	4496
2026-01-25 12:20:28.58	182.04	39.99	-35.5	-36.9	17.8	0.00e+00	0	61	0	1354760192	41	4525
2026-01-25 12:20:29.58	182.18	40.25	-35.5	-37.0	17.8	0.00e+00	0	61	0	1360003072	41	4559
2026-01-25 12:20:30.59	182.33	40.50	-35.6	-37.0	17.8	0.00e+00	0	61	0	1366294528	41	4579
2026-01-25 12:20:31.60	182.48	40.76	-35.6	-37.0	17.8	0.00e+00	0	61	0	1371537408	41	4571
2026-01-25 12:20:32.61	182.64	41.02	-35.5	-36.9	17.9	0.00e+00	0	61	0	1377828864	41	4535
2026-01-25 12:20:33.62	182.79	41.28	-35.5	-36.9	17.9	0.00e+00	0	61	0	1383071744	41	4544
2026-01-25 12:20:34.63	182.95	41.55	-35.5	-37.0	17.8	0.00e+00	0	61	0	1389363200	41	4556
2026-01-25 12:20:35.64	183.11	41.81	-35.8	-37.3	17.5	0.00e+00	0	61	0	1394606080	42	4445
2026-01-25 12:20:36.65	183.28	42.08	-35.7	-37.2	17.6	0.00e+00	0	61	0	1399848960	42	4408
2026-01-25 12:20:37.66	183.44	42.34	-35.6	-37.1	17.7	0.00e+00	0	61	0	1406140416	42	4367
2026-01-25 12:20:38.67	183.61	42.61	-35.6	-37.1	17.7	0.00e+00	0	61	0	1411383296	42	4358
2026-01-25 12:20:39.68	183.78	42.89	-35.7	-37.2	17.6	0.00e+00	0	61	0	1417674752	42	4401
2026-01-25 12:20:40.69	183.96	43.16	-35.6	-37.1	17.7	0.00e+00	0	61	0	1422917632	42	4370
2026-01-25 12:20:41.70	184.14	43.43	-35.6	-37.1	17.7	0.00e+00	0	61	0	1428160512	42	4349
2026-01-25 12:20:42.71	184.32	43.71	-35.6	-37.1	17.7	0.00e+00	0	61	0	1434451968	42	4356
2026-01-25 12:20:43.71	184.50	43.98	-35.6	-37.1	17.7	0.00e+00	0	61	0	1439694848	42	4359
2026-01-25 12:20:44.73	184.69	44.27	-35.6	-37.1	17.7	0.00e+00	0	61	0	1445986304	42	4370
2026-01-25 12:20:45.74	184.88	44.55	-35.7	-37.1	17.7	0.00e+00	0	61	0	1451229184	42	4381
2026-01-25 12:20:46.75	185.07	44.83	-35.6	-37.0	17.8	0.00e+00	0	61	0	1456472064	42	4335
2026-01-25 12:20:47.75	185.26	45.11	-35.6	-37.0	17.8	0.00e+00	0	61	0	1462763520	42	4312
2026-01-25 12:20:48.76	185.46	45.40	-35.6	-37.0	17.8	0.00e+00	0	61	0	1468006400	42	4308
2026-01-25 12:20:49.77	185.67	45.69	-35.6	-37.1	17.8	0.00e+00	0	61	0	1474297856	42	4366
2026-01-25 12:20:50.78	185.88	45.98	-35.5	-37.0	17.9	0.00e+00	0	61	0	1479540736	42	4305
2026-01-25 12:20:51.79	186.09	46.27	-35.4	-36.8	18.1	0.00e+00	0	61	0	1485832192	42	4218
2026-01-25 12:20:52.80	186.30	46.56	-35.4	-36.8	18.1	0.00e+00	0	61	0	1491075072	42	4236
2026-01-25 12:20:53.81	186.52	46.86	-35.5	-36.9	18.0	0.00e+00	0	61	0	1497366528	42	4280
2026-01-25 12:20:54.82	186.74	47.15	-35.6	-37.1	17.9	0.00e+00	0	61	0	1502609408	42	4348
2026-01-25 12:20:55.83	186.97	47.45	-35.6	-37.0	17.9	0.00e+00	0	61	0	1507852288	42	4317
2026-01-25 12:20:56.84	187.20	47.75	-35.6	-37.0	17.9	0.00e+00	0	61	0	1514143744	42	4321
2026-01-25 12:20:57.84	187.44	48.05	-35.7	-37.1	17.8	0.00e+00	0	61	0	1519386624	42	4385
2026-01-25 12:20:58.86	187.68	48.36	-35.8	-37.2	17.7	0.00e+00	0	61	0	1525678080	42	4435
2026-01-25 12:20:59.86	187.92	48.66	-35.8	-37.3	17.6	0.00e+00	0	61	0	1530920960	42	4471
2026-01-25 12:21:00.88	188.18	48.97	-35.9	-37.4	17.5	0.00e+00	0	61	0	1536163840	42	4495
2026-01-25 12:21:01.88	188.43	49.27	-35.9	-37.4	17.5	0.00e+00	0	61	0	1542455296	42	4513
2026-01-25 12:21:02.90	188.69	49.58	-35.8	-37.2	17.7	0.00e+00	0	61	0	1547698176	42	4441
2026-01-25 12:21:03.91	188.96	49.89	-35.8	-37.3	17.6	0.00e+00	0	61	0	1553989632	42	4459
2026-01-25 12:21:04.91	189.23	50.20	-35.9	-37.4	17.6	0.00e+00	0	61	0	1559232512	42	4497
2026-01-25 12:21:05.92	189.50	50.52	-35.9	-37.4	17.6	0.00e+00	0	61	0	1564475392	42	4511
2026-01-25 12:21:06.94	189.79	50.83	-36.1	-37.7	17.3	0.00e+00	0	61	0	1570766848	42	4663
2026-01-25 12:21:07.95	190.08	51.15	-36.3	-37.8	17.1	0.00e+00	0	61	0	1576009728	43	4490
2026-01-25 12:21:08.96	190.37	51.47	-36.1	-37.6	17.3	0.00e+00	0	61	0	1582301184	43	4386
2026-01-25 12:21:09.97	190.67	51.79	-36.0	-37.4	17.5	0.00e+00	0	61	0	1587544064	43	4280
2026-01-25 12:21:10.98	190.98	52.11	-36.1	-37.6	17.4	0.00e+00	0	61	0	1593835520	43	4375
2026-01-25 12:21:11.99	191.29	52.43	-36.4	-38.0	17.0	0.00e+00	0	61	0	1599078400	43	4577
2026-01-25 12:21:13.00	191.61	52.75	-36.5	-38.0	16.9	0.00e+00	0	61	0	1604321280	43	4598
2026-01-25 12:21:14.01	191.94	53.08	-36.4	-37.9	17.0	0.00e+00	0	61	0	1610612736	43	4534
2026-01-25 12:21:15.02	192.28	53.40	-36.3	-37.8	17.2	0.00e+00	0	61	0	1615855616	43	4487
2026-01-25 12:21:16.03	192.62	53.73	-36.6	-38.2	16.8	0.00e+00	0	61	0	1622147072	43	4653
2026-01-25 12:21:17.04	192.97	54.05	-36.6	-38.2	16.8	0.00e+00	0	61	0	1627389952	43	4670
2026-01-25 12:21:18.05	193.33	54.38	-36.5	-38.1	16.9	0.00e+00	0	62	0	1632632832	43	4618
2026-01-25 12:21:19.06	193.69	54.71	-36.6	-38.2	16.7	0.00e+00	0	61	0	1638924288	43	4691
2026-01-25 12:21:20.06	194.06	55.04	-36.9	-38.5	16.6	0.00e+00	0	61	0	1644167168	44	4573
2026-01-25 12:21:21.07	194.45	55.37	-36.8	-38.4	16.7	0.00e+00	0	61	0	1650458624	44	4539
2026-01-25 12:21:22.08	194.84	55.70	-36.5	-38.0	17.0	0.00e+00	0	61	0	1655701504	44	4337
2026-01-25 12:21:23.09	195.24	56.04	-36.4	-38.0	17.1	0.00e+00	0	61	0	1660944384	44	4306
2026-01-25 12:21:24.11	195.66	56.37	-36.6	-38.2	16.9	0.00e+00	0	61	0	1667235840	44	4414
2026-01-25 12:21:25.12	196.08	56.71	-36.7	-38.4	16.8	0.00e+00	0	61	0	1672478720	44	4502
2026-01-25 12:21:26.13	196.51	57.04	-36.2	-37.7	17.4	0.00e+00	0	61	0	1678770176	44	4173
2026-01-25 12:21:27.13	196.95	57.37	-35.8	-37.2	17.8	0.00e+00	0	61	0	1684013056	43	4157
2026-01-25 12:21:28.15	197.40	57.71	-35.8	-37.2	17.7	0.00e+00	0	61	0	1690304512	43	4179
2026-01-25 12:21:29.16	197.87	58.05	-35.8	-37.3	17.7	0.00e+00	0	61	0	1695547392	43	4214
2026-01-25 12:21:30.17	198.35	58.38	-36.0	-37.5	17.4	0.00e+00	0	61	0	1701838848	43	4331
2026-01-25 12:21:31.18	198.83	58.72	-35.9	-37.5	17.5	0.00e+00	0	61	0	1707081728	43	4297
2026-01-25 12:21:32.19	199.33	59.05	-35.6	-37.0	17.9	0.00e+00	0	61	0	1712324608	43	4091
2026-01-25 12:21:33.20	199.85	59.39	-35.7	-37.1	18.1	0.00e+00	0	61	0	1718616064	42	4342
2026-01-25 12:21:34.21	200.37	59.72	-35.7	-37.1	18.0	0.00e+00	0	61	0	1723858944	42	4342
2026-01-25 12:21:35.22	200.91	60.06	-35.6	-37.0	18.1	0.00e+00	0	61	0	1730150400	42	4293
2026-01-25 12:21:36.23	201.47	60.39	-35.5	-36.8	18.2	0.00e+00	0	61	0	1735393280	42	4239
2026-01-25 12:21:37.23	202.03	60.72	-35.3	-36.6	18.4	0.00e+00	0	61	0	1740636160	42	4137
2026-01-25 12:21:38.24	202.62	61.05	-35.3	-36.6	18.4	0.00e+00	0	61	0	1746927616	42	4138
2026-01-25 12:21:39.25	203.21	61.38	-35.4	-36.9	18.2	0.00e+00	0	61	0	1752170496	42	4245
2026-01-25 12:21:40.26	203.83	61.71	-35.3	-36.7	18.3	0.00e+00	0	61	0	1758461952	42	4180
2026-01-25 12:21:41.27	204.46	62.04	-35.1	-36.5	18.5	0.00e+00	0	61	0	1763704832	42	4056
2026-01-25 12:21:42.28	205.11	62.37	-35.1	-36.5	18.5	0.00e+00	0	61	0	1768947712	42	4062
2026-01-25 12:21:43.29	205.78	62.70	-35.2	-36.6	18.4	0.00e+00	0	61	0	1775239168	42	4103
2026-01-25 12:21:44.30	206.46	63.02	-35.4	-36.8	18.2	0.00e+00	0	61	0	1780482048	42	4195
2026-01-25 12:21:45.31	207.17	63.34	-35.3	-36.7	18.2	0.00e+00	0	61	0	1786773504	42	4191
2026-01-25 12:21:46.32	207.89	63.66	-35.3	-36.7	18.3	0.00e+00	0	61	0	1792016384	42	4160
2026-01-25 12:21:47.33	208.63	63.98	-35.2	-36.6	18.4	0.00e+00	0	61	0	1798307840	42	4121
2026-01-25 12:21:48.34	209.39	64.30	-35.0	-36.4	18.5	0.00e+00	0	61	0	1803550720	42	4028
2026-01-25 12:21:49.35	210.18	64.61	-35.0	-36.3	18.6	0.00e+00	0	61	0	1808793600	41	4226
2026-01-25 12:21:50.36	210.98	64.92	-35.0	-36.3	18.6	0.00e+00	0	61	0	1815085056	41	4221
2026-01-25 12:21:51.37	211.81	65.23	-35.1	-36.4	18.5	0.00e+00	0	61	0	1820327936	41	4283
2026-01-25 12:21:52.38	212.66	65.53	-35.2	-36.7	18.2	0.00e+00	0	61	0	1826619392	41	4392
2026-01-25 12:21:53.39	213.54	65.83	-35.1	-36.5	18.5	0.00e+00	0	61	0	1831862272	41	4301
2026-01-25 12:21:54.40	214.43	66.12	-35.1	-36.4	18.5	0.00e+00	0	61	0	1837105152	41	4281
2026-01-25 12:21:55.41	215.36	66.41	-35.2	-36.7	18.3	0.00e+00	0	61	0	1843396608	41	4399
2026-01-25 12:21:56.42	216.30	66.70	-34.9	-36.2	18.6	0.00e+00	0	61	0	1848639488	41	4185
2026-01-25 12:21:57.43	217.28	66.98	-35.0	-36.4	18.5	0.00e+00	0	61	0	1854930944	41	4246
2026-01-25 12:21:58.44	218.28	67.25	-35.2	-36.6	18.2	0.00e+00	0	61	0	1860173824	41	4386
2026-01-25 12:21:59.45	219.30	67.52	-35.0	-36.4	18.4	0.00e+00	0	61	0	1865416704	41	4281
2026-01-25 12:22:00.46	220.35	67.79	-34.9	-36.3	18.5	0.00e+00	0	62	0	1871708160	41	4222
2026-01-25 12:22:01.46	221.42	68.04	-34.7	-36.0	18.8	0.00e+00	0	62	0	1876951040	41	4075
2026-01-25 12:22:02.48	222.54	68.30	-34.9	-36.3	18.5	0.00e+00	0	61	0	1883242496	41	4198
2026-01-25 12:22:03.49	223.67	68.54	-35.0	-36.4	18.4	0.00e+00	0	61	0	1888485376	41	4261
2026-01-25 12:22:04.50	224.83	68.78	-34.8	-36.2	18.7	0.00e+00	0	61	0	1894776832	41	4150
2026-01-25 12:22:05.51	226.02	69.01	-34.8	-36.1	18.8	0.00e+00	0	61	0	1900019712	41	4133
2026-01-25 12:22:06.52	227.24	69.23	-34.7	-36.0	18.9	0.00e+00	0	61	0	1906311168	41	4058
2026-01-25 12:22:07.53	228.48	69.44	-34.5	-35.8	19.0	0.00e+00	0	61	0	1911554048	41	3992
2026-01-25 12:22:08.54	229.76	69.65	-34.4	-35.7	19.1	0.00e+00	0	61	0	1916796928	40	4178
2026-01-25 12:22:09.55	231.05	69.84	-34.6	-35.9	18.9	0.00e+00	0	61	0	1923088384	40	4275
2026-01-25 12:22:10.56	232.38	70.03	-34.9	-36.4	18.5	0.00e+00	0	62	0	1928331264	40	4503
2026-01-25 12:22:11.57	233.73	70.20	-34.8	-36.2	18.6	0.00e+00	0	62	0	1934622720	40	4404
2026-01-25 12:22:12.58	235.11	70.37	-34.9	-36.2	18.6	0.00e+00	0	61	0	1939865600	40	4424
2026-01-25 12:22:13.59	236.51	70.53	-34.6	-36.0	18.9	0.00e+00	0	61	0	1945108480	40	4292
2026-01-25 12:22:14.60	237.93	70.67	-34.3	-35.5	19.3	0.00e+00	0	61	0	1951399936	40	4086
2026-01-25 12:22:15.61	239.38	70.80	-34.3	-35.6	19.2	0.00e+00	0	62	0	1956642816	40	4110
2026-01-25 12:22:16.62	240.84	70.93	-34.2	-35.5	19.3	0.00e+00	0	61	0	1962934272	40	4056
2026-01-25 12:22:17.62	242.31	71.04	-34.2	-35.5	19.3	0.00e+00	0	62	0	1968177152	40	4064
2026-01-25 12:22:18.63	243.81	71.13	-34.3	-35.6	19.2	0.00e+00	0	61	0	1973420032	40	4101
2026-01-25 12:22:19.64	245.33	71.22	-34.0	-35.3	19.4	0.00e+00	0	61	0	1979711488	40	3972
2026-01-25 12:22:20.65	246.86	71.29	-34.0	-35.2	19.5	0.00e+00	0	61	0	1984954368	39	4193
2026-01-25 12:22:21.66	248.41	71.36	-34.2	-35.5	19.3	0.00e+00	0	61	0	1991245824	39	4336
2026-01-25 12:22:22.67	249.96	71.40	-34.1	-35.4	19.3	0.00e+00	0	61	0	1996488704	39	4282
2026-01-25 12:22:23.68	251.52	71.44	-34.1	-35.3	19.4	0.00e+00	0	62	0	2002780160	39	4234
2026-01-25 12:22:24.69	253.09	71.46	-34.1	-35.4	19.4	0.00e+00	0	61	0	2008023040	39	4267
2026-01-25 12:22:25.70	254.65	71.47	-34.3	-35.6	19.3	0.00e+00	0	62	0	2014314496	39	4354
2026-01-25 12:22:26.71	256.22	71.47	-34.3	-35.7	19.2	0.00e+00	0	61	0	2019557376	39	4393
2026-01-25 12:22:27.72	257.79	71.45	-34.3	-35.6	19.2	0.00e+00	0	61	0	2024800256	39	4366
2026-01-25 12:22:28.73	259.35	71.43	-34.3	-35.6	19.2	0.00e+00	0	61	0	2031091712	39	4357
2026-01-25 12:22:29.74	260.91	71.38	-34.3	-35.6	19.2	0.00e+00	0	62	0	2036334592	39	4342
2026-01-25 12:22:30.75	262.46	71.33	-34.5	-35.8	18.9	0.00e+00	0	61	0	2041577472	39	4488
2026-01-25 12:22:31.76	264.00	71.26	-34.3	-35.6	19.1	0.00e+00	0	61	0	2047868928	39	4378
2026-01-25 12:22:32.77	265.52	71.18	-34.1	-35.4	19.4	0.00e+00	0	61	0	2053111808	39	4246
2026-01-25 12:22:33.78	267.03	71.09	-34.2	-35.5	19.3	0.00e+00	0	61	0	2059403264	39	4302
2026-01-25 12:22:34.79	268.52	70.98	-34.2	-35.5	19.3	0.00e+00	0	62	0	2064646144	39	4314
2026-01-25 12:22:35.80	270.00	70.87	-34.3	-35.6	19.2	0.00e+00	0	62	0	2069889024	39	4373
2026-01-25 12:22:36.81	271.45	70.74	-34.4	-35.7	19.1	0.00e+00	0	61	0	2076180480	39	4420
2026-01-25 12:22:37.82	272.89	70.60	-34.2	-35.5	19.3	0.00e+00	0	61	0	2081423360	39	4317
2026-01-25 12:22:38.83	274.30	70.45	-34.2	-35.5	19.3	0.00e+00	0	62	0	2087714816	39	4317
2026-01-25 12:22:39.84	275.69	70.29	-34.7	-36.0	18.8	0.00e+00	0	62	0	2092957696	39	4589
2026-01-25 12:22:40.85	277.05	70.12	-34.6	-36.0	18.8	0.00e+00	0	61	0	2099249152	39	4571
2026-01-25 12:22:41.86	278.39	69.94	-34.7	-36.1	18.7	0.00e+00	0	62	0	2104492032	39	4601
2026-01-25 12:22:42.86	279.69	69.75	-34.8	-36.1	18.6	0.00e+00	0	61	0	2110783488	40	4390
2026-01-25 12:22:43.87	280.97	69.55	-34.5	-35.9	18.9	0.00e+00	0	61	0	2116026368	40	4245
2026-01-25 12:22:44.89	282.24	69.34	-34.4	-35.7	19.1	0.00e+00	0	61	0	2121269248	40	4166
2026-01-25 12:22:45.90	283.47	69.13	-34.4	-35.7	19.0	0.00e+00	0	61	0	2127560704	40	4162
2026-01-25 12:22:46.90	284.66	68.90	-34.5	-35.8	19.0	0.00e+00	0	61	0	2132803584	40	4213
2026-01-25 12:22:47.91	285.84	68.67	-34.5	-35.8	19.0	0.00e+00	0	61	0	2139095040	40	4207
2026-01-25 12:22:48.92	286.99	68.43	-34.5	-35.8	18.9	0.00e+00	0	61	0	2144337920	40	4215
2026-01-25 12:22:49.93	288.10	68.18	-34.4	-35.7	19.0	0.00e+00	0	61	0	2149580800	40	4177
2026-01-25 12:22:50.94	289.20	67.93	-34.5	-35.9	18.9	0.00e+00	0	61	0	2155872256	40	4252
2026-01-25 12:22:51.95	290.26	67.67	-34.7	-36.0	18.7	0.00e+00	0	61	0	2161115136	40	4327
2026-01-25 12:22:52.96	291.30	67.40	-34.7	-36.0	18.8	0.00e+00	0	62	0	2167406592	40	4317
2026-01-25 12:22:53.97	292.31	67.13	-34.7	-36.0	18.8	0.00e+00	0	62	0	2172649472	40	4308
2026-01-25 12:22:54.98	293.30	66.85	-34.7	-36.1	18.7	0.00e+00	0	61	0	2177892352	40	4341
2026-01-25 12:22:55.99	294.26	66.57	-34.8	-36.2	18.6	0.00e+00	0	61	0	2184183808	40	4410
2026-01-25 12:22:57.00	295.19	66.28	-34.9	-36.3	18.5	0.00e+00	0	61	0	2189426688	40	4449
2026-01-25 12:22:58.01	296.10	65.99	-34.8	-36.1	18.6	0.00e+00	0	61	0	2195718144	40	4376
2026-01-25 12:22:59.02	296.99	65.70	-34.8	-36.2	18.6	0.00e+00	0	61	0	2200961024	40	4418
2026-01-25 12:23:00.03	297.85	65.40	-34.8	-36.2	18.6	0.00e+00	0	62	0	2207252480	40	4423
2026-01-25 12:23:01.04	298.69	65.09	-34.8	-36.2	18.6	0.00e+00	0	61	0	2212495360	40	4398
2026-01-25 12:23:02.05	299.50	64.78	-34.9	-36.2	18.6	0.00e+00	0	61	0	2217738240	40	4430
2026-01-25 12:23:03.06	300.30	64.47	-34.9	-36.2	18.6	0.00e+00	0	61	0	2224029696	40	4433
2026-01-25 12:23:04.07	301.07	64.16	-34.8	-36.1	18.7	0.00e+00	0	61	0	2229272576	40	4386
2026-01-25 12:23:05.08	301.82	63.85	-34.7	-36.0	18.8	0.00e+00	0	61	0	2235564032	40	4324
2026-01-25 12:23:06.09	302.56	63.53	-34.8	-36.2	18.7	0.00e+00	0	61	0	2240806912	40	4393
2026-01-25 12:23:07.10	303.27	63.21	-35.0	-36.3	18.6	0.00e+00	0	61	0	2246049792	40	4470
2026-01-25 12:23:08.11	303.96	62.89	-35.1	-36.5	18.4	0.00e+00	0	62	0	2252341248	40	4567
2026-01-25 12:23:09.11	304.63	62.56	-35.1	-36.4	18.4	0.00e+00	0	61	0	2257584128	40	4540
2026-01-25 12:23:10.13	305.30	62.23	-35.0	-36.3	18.5	0.00e+00	0	61	0	2263875584	40	4482
2026-01-25 12:23:11.14	305.94	61.91	-34.9	-36.3	18.5	0.00e+00	0	61	0	2269118464	40	4474
2026-01-25 12:23:12.14	306.55	61.58	-34.8	-36.1	18.8	0.00e+00	0	61	0	2274361344	40	4357
2026-01-25 12:23:13.16	307.17	61.25	-34.9	-36.2	18.7	0.00e+00	0	62	0	2280652800	40	4397
2026-01-25 12:23:14.17	307.76	60.92	-35.2	-36.6	18.4	0.00e+00	0	61	0	2285895680	40	4607
2026-01-25 12:23:15.18	308.33	60.59	-35.6	-37.0	17.9	0.00e+00	0	62	0	2292187136	41	4572
2026-01-25 12:23:16.18	308.89	60.26	-35.6	-37.1	17.8	0.00e+00	0	62	0	2297430016	41	4612
2026-01-25 12:23:17.20	309.44	59.92	-35.7	-37.1	17.8	0.00e+00	0	61	0	2303721472	41	4631
2026-01-25 12:23:18.21	309.98	59.59	-35.7	-37.1	17.8	0.00e+00	0	61	0	2308964352	42	4384
2026-01-25 12:23:19.21	310.49	59.26	-35.7	-37.2	17.8	0.00e+00	0	61	0	2315255808	42	4396
2026-01-25 12:23:20.22	311.00	58.92	-35.8	-37.2	17.7	0.00e+00	0	61	0	2320498688	42	4423
2026-01-25 12:23:21.23	311.49	58.59	-35.8	-37.3	17.7	0.00e+00	0	61	0	2325741568	42	4442
2026-01-25 12:23:22.24	311.97	58.25	-35.9	-37.4	17.5	0.00e+00	0	61	0	2332033024	42	4525
2026-01-25 12:23:23.25	312.44	57.92	-35.9	-37.4	17.5	0.00e+00	0	62	0	2337275904	42	4512
2026-01-25 12:23:24.26	312.90	57.58	-35.8	-37.3	17.7	0.00e+00	0	62	0	2343567360	42	4452
2026-01-25 12:23:25.27	313.35	57.25	-35.8	-37.3	17.6	0.00e+00	0	62	0	2348810240	42	4465
2026-01-25 12:23:26.28	313.79	56.92	-35.9	-37.3	17.6	0.00e+00	0	62	0	2354053120	42	4490
2026-01-25 12:23:27.29	314.21	56.58	-36.0	-37.4	17.5	0.00e+00	0	61	0	2360344576	42	4539
2026-01-25 12:23:28.31	314.63	56.25	-36.1	-37.6	17.4	0.00e+00	0	61	0	2365587456	42	4610
2026-01-25 12:23:29.32	315.04	55.92	-36.2	-37.7	17.2	0.00e+00	0	62	0	2371878912	42	4701
2026-01-25 12:23:30.33	315.44	55.58	-36.3	-37.9	17.1	0.00e+00	0	62	0	2377121792	43	4514
2026-01-25 12:23:31.34	315.83	55.25	-36.1	-37.7	17.3	0.00e+00	0	61	0	2382364672	43	4398
2026-01-25 12:23:32.35	316.20	54.92	-36.0	-37.4	17.5	0.00e+00	0	62	0	2388656128	43	4287
2026-01-25 12:23:33.36	316.58	54.60	-36.0	-37.4	17.5	0.00e+00	0	62	0	2393899008	43	4287
2026-01-25 12:23:34.37	316.94	54.27	-35.9	-37.4	17.5	0.00e+00	0	62	0	2400190464	43	4267
2026-01-25 12:23:35.38	317.29	53.94	-36.1	-37.6	17.3	0.00e+00	0	62	0	2405433344	43	4354
2026-01-25 12:23:36.39	317.64	53.62	-36.3	-37.8	17.4	0.00e+00	0	62	0	2411724800	43	4442
2026-01-25 12:23:37.40	317.98	53.29	-36.2	-37.6	17.6	0.00e+00	0	62	0	2416967680	43	4359
2026-01-25 12:23:38.41	318.31	52.97	-36.0	-37.3	17.8	0.00e+00	0	61	0	2423259136	43	4235
2026-01-25 12:23:39.42	318.63	52.65	-36.0	-37.3	17.8	0.00e+00	0	62	0	2428502016	43	4232
2026-01-25 12:23:40.42	318.95	52.33	-35.8	-37.2	18.0	0.00e+00	0	62	0	2433744896	43	4151
2026-01-25 12:23:41.43	319.26	52.01	-35.7	-37.0	18.1	0.00e+00	0	61	0	2440036352	43	4079
2026-01-25 12:23:42.44	319.56	51.69	-35.7	-37.0	18.2	0.00e+00	0	62	0	2445279232	43	4068
2026-01-25 12:23:43.45	319.86	51.37	-35.7	-37.1	18.1	0.00e+00	0	62	0	2451570688	43	4109
2026-01-25 12:23:44.46	320.15	51.06	-35.8	-37.2	18.0	0.00e+00	0	61	0	2456813568	43	4150
2026-01-25 12:23:45.47	320.43	50.74	-35.8	-37.1	18.0	0.00e+00	0	62	0	2462056448	43	4136
2026-01-25 12:23:46.48	320.71	50.43	-35.8	-37.1	18.0	0.00e+00	0	62	0	2468347904	43	4140
2026-01-25 12:23:47.49	320.99	50.12	-35.7	-37.0	18.2	0.00e+00	0	62	0	2473590784	43	4057
2026-01-25 12:23:48.50	321.26	49.81	-35.6	-36.9	18.3	0.00e+00	0	62	0	2479882240	43	4012
2026-01-25 12:23:49.51	321.52	49.50	-35.6	-36.9	18.3	0.00e+00	0	62	0	2485125120	43	4010
2026-01-25 12:23:50.52	321.78	49.19	-35.6	-36.9	18.3	0.00e+00	0	62	0	2490368000	43	4026
2026-01-25 12:23:51.53	322.03	48.89	-35.6	-36.9	18.2	0.00e+00	0	61	0	2496659456	43	4027
2026-01-25 12:23:52.54	322.28	48.58	-35.6	-36.9	18.2	0.00e+00	0	62	0	2501902336	43	4039
2026-01-25 12:23:53.55	322.52	48.28	-35.9	-37.2	17.9	0.00e+00	0	62	0	2508193792	43	4185
2026-01-25 12:23:54.56	322.76	47.98	-35.9	-37.3	17.9	0.00e+00	0	61	0	2513436672	43	4209
2026-01-25 12:23:55.57	323.00	47.68	-35.9	-37.2	17.9	0.00e+00	0	61	0	2519728128	43	4181
2026-01-25 12:23:56.58	323.23	47.38	-35.9	-37.2	17.9	0.00e+00	0	62	0	2524971008	43	4176
2026-01-25 12:23:57.58	323.45	47.09	-35.8	-37.2	18.0	0.00e+00	0	62	0	2530213888	43	4149
2026-01-25 12:23:58.59	323.67	46.79	-35.7	-37.0	18.1	0.00e+00	0	62	0	2536505344	43	4097
2026-01-25 12:23:59.60	323.89	46.50	-35.6	-36.9	18.3	0.00e+00	0	62	0	2541748224	43	4011
2026-01-25 12:24:00.61	324.10	46.21	-35.5	-36.7	18.4	0.00e+00	0	62	0	2548039680	42	4192
2026-01-25 12:24:01.63	324.31	45.92	-35.4	-36.7	18.5	0.00e+00	0	61	0	2553282560	42	4152
2026-01-25 12:24:02.64	324.52	45.63	-35.3	-36.6	18.6	0.00e+00	0	62	0	2558525440	42	4100
2026-01-25 12:24:03.65	324.72	45.34	-35.3	-36.6	18.5	0.00e+00	0	62	0	2564816896	42	4124
2026-01-25 12:24:04.65	324.92	45.06	-35.3	-36.6	18.6	0.00e+00	0	62	0	2570059776	42	4117
2026-01-25 12:24:05.67	325.12	44.77	-35.4	-36.6	18.5	0.00e+00	0	62	0	2576351232	42	4141
2026-01-25 12:24:06.68	325.31	44.49	-35.3	-36.5	18.6	0.00e+00	0	62	0	2581594112	42	4097
2026-01-25 12:24:07.69	325.50	44.21	-35.1	-36.4	18.7	0.00e+00	0	61	0	2586836992	42	4019
2026-01-25 12:24:08.69	325.68	43.94	-35.2	-36.4	18.7	0.00e+00	0	62	0	2593128448	42	4049
2026-01-25 12:24:09.71	325.86	43.66	-35.3	-36.6	18.6	0.00e+00	0	62	0	2598371328	42	4116
2026-01-25 12:24:10.72	326.04	43.39	-35.3	-36.6	18.5	0.00e+00	0	62	0	2604662784	42	4127
2026-01-25 12:24:11.73	326.22	43.11	-35.3	-36.6	18.5	0.00e+00	0	62	0	2609905664	42	4114
2026-01-25 12:24:12.74	326.39	42.84	-35.1	-36.4	18.7	0.00e+00	0	61	0	2615148544	42	4023
2026-01-25 12:24:13.75	326.56	42.57	-35.2	-36.4	18.7	0.00e+00	0	62	0	2621440000	42	4037
2026-01-25 12:24:14.76	326.73	42.30	-35.0	-36.2	18.9	0.00e+00	0	62	0	2626682880	42	3950
2026-01-25 12:24:15.77	326.90	42.04	-34.9	-36.2	18.9	0.00e+00	0	62	0	2632974336	41	4159
2026-01-25 12:24:16.78	327.06	41.77	-35.0	-36.3	18.8	0.00e+00	0	62	0	2638217216	41	4217
2026-01-25 12:24:17.79	327.22	41.51	-35.1	-36.4	18.7	0.00e+00	0	62	0	2644508672	41	4279
2026-01-25 12:24:18.80	327.38	41.25	-35.2	-36.5	18.6	0.00e+00	0	62	0	2649751552	41	4335
2026-01-25 12:24:19.81	327.53	40.99	-35.2	-36.5	18.6	0.00e+00	0	62	0	2656043008	41	4324
2026-01-25 12:24:20.82	327.68	40.73	-35.2	-36.5	18.6	0.00e+00	0	62	0	2661285888	41	4313
2026-01-25 12:24:21.83	327.83	40.48	-35.2	-36.5	18.6	0.00e+00	0	62	0	2666528768	41	4298
2026-01-25 12:24:22.84	327.98	40.22	-35.2	-36.5	18.6	0.00e+00	0	62	0	2672820224	41	4293
2026-01-25 12:24:23.85	328.13	39.97	-35.1	-36.3	18.8	0.00e+00	0	62	0	2678063104	41	4225
2026-01-25 12:24:24.86	328.27	39.72	-35.0	-36.3	18.8	0.00e+00	0	62	0	2684354560	41	4203
2026-01-25 12:24:25.87	328.41	39.47	-35.1	-36.3	18.7	0.00e+00	0	62	0	2689597440	41	4237
2026-01-25 12:24:26.88	328.55	39.22	-35.0	-36.3	18.8	0.00e+00	0	62	0	2694840320	41	4221
2026-01-25 12:24:27.89	328.69	38.97	-35.1	-36.4	18.7	0.00e+00	0	62	0	2701131776	41	4247
2026-01-25 12:24:28.90	328.82	38.73	-35.0	-36.3	18.8	0.00e+00	0	62	0	2706374656	41	4224
2026-01-25 12:24:29.91	328.96	38.49	-35.1	-36.4	18.7	0.00e+00	0	62	0	2712666112	41	4250
2026-01-25 12:24:30.92	329.09	38.24	-35.1	-36.4	18.6	0.00e+00	0	62	0	2717908992	41	4270
2026-01-25 12:24:31.93	329.22	38.00	-35.0	-36.2	18.8	0.00e+00	0	61	0	2723151872	41	4181
2026-01-25 12:24:32.94	329.34	37.77	-34.9	-36.2	18.8	0.00e+00	0	62	0	2729443328	41	4167
2026-01-25 12:24:33.95	329.47	37.53	-35.0	-36.2	18.8	0.00e+00	0	62	0	2734686208	41	4174
2026-01-25 12:24:34.96	329.59	37.29	-34.9	-36.1	18.9	0.00e+00	0	62	0	2740977664	41	4132
2026-01-25 12:24:35.97	329.72	37.06	-34.8	-36.0	19.1	0.00e+00	0	61	0	2746220544	41	4072
2026-01-25 12:24:36.98	329.84	36.83	-34.8	-36.0	19.0	0.00e+00	0	62	0	2752512000	41	4079
2026-01-25 12:24:37.99	329.96	36.60	-34.9	-36.2	18.9	0.00e+00	0	62	0	2757754880	41	4146
2026-01-25 12:24:39.00	330.07	36.37	-34.9	-36.2	18.8	0.00e+00	0	62	0	2762997760	41	4171
2026-01-25 12:24:40.01	330.19	36.14	-35.0	-36.2	18.8	0.00e+00	0	62	0	2769289216	41	4181
2026-01-25 12:24:41.02	330.30	35.91	-34.9	-36.2	18.8	0.00e+00	0	62	0	2774532096	41	4171
2026-01-25 12:24:42.03	330.42	35.69	-34.9	-36.1	18.9	0.00e+00	0	62	0	2780823552	41	4139
2026-01-25 12:24:43.04	330.53	35.46	-34.8	-36.0	19.0	0.00e+00	0	62	0	2786066432	41	4086
2026-01-25 12:24:44.04	330.64	35.24	-34.8	-36.0	18.9	0.00e+00	0	62	0	2791309312	41	4096
2026-01-25 12:24:45.05	330.75	35.02	-34.8	-36.0	18.9	0.00e+00	0	62	0	2797600768	41	4098
2026-01-25 12:24:46.06	330.85	34.80	-34.8	-36.0	19.0	0.00e+00	0	62	0	2802843648	41	4071
2026-01-25 12:24:47.07	330.96	34.59	-34.8	-36.1	18.9	0.00e+00	0	62	0	2809135104	41	4100
2026-01-25 12:24:48.09	331.06	34.37	-35.0	-36.2	18.8	0.00e+00	0	62	0	2814377984	41	4169
2026-01-25 12:24:49.10	331.17	34.15	-35.1	-36.3	18.7	0.00e+00	0	62	0	2819620864	41	4226
2026-01-25 12:24:50.11	331.27	33.94	-35.2	-36.5	18.5	0.00e+00	0	62	0	2825912320	41	4305
2026-01-25 12:24:51.12	331.37	33.73	-35.3	-36.6	18.4	0.00e+00	0	62	0	2831155200	41	4360
2026-01-25 12:24:52.13	331.47	33.52	-35.4	-36.7	18.3	0.00e+00	0	62	0	2837446656	41	4412
2026-01-25 12:24:53.14	331.57	33.31	-35.4	-36.7	18.3	0.00e+00	0	61	0	2842689536	41	4434
2026-01-25 12:24:54.15	331.66	33.10	-35.3	-36.7	18.3	0.00e+00	0	62	0	2848980992	41	4406
2026-01-25 12:24:55.16	331.76	32.89	-35.4	-36.7	18.3	0.00e+00	0	62	0	2854223872	41	4430
2026-01-25 12:24:56.17	331.85	32.69	-35.3	-36.7	18.3	0.00e+00	0	62	0	2860515328	41	4396
2026-01-25 12:24:57.18	331.95	32.48	-35.4	-36.7	18.2	0.00e+00	0	62	0	2865758208	41	4440
2026-01-25 12:24:58.19	332.04	32.28	-35.3	-36.6	18.4	0.00e+00	0	62	0	2871001088	41	4372
2026-01-25 12:24:59.19	332.13	32.08	-35.3	-36.6	18.3	0.00e+00	0	61	0	2877292544	41	4366
2026-01-25 12:25:00.20	332.22	31.88	-35.2	-36.5	18.5	0.00e+00	0	62	0	2882535424	41	4305
2026-01-25 12:25:01.21	332.31	31.68	-34.9	-36.2	18.8	0.00e+00	0	62	0	2888826880	41	4159
2026-01-25 12:25:02.22	332.40	31.48	-34.9	-36.1	18.8	0.00e+00	0	62	0	2894069760	41	4111
2026-01-25 12:25:03.23	332.48	31.29	-34.9	-36.1	18.8	0.00e+00	0	62	0	2899312640	41	4143
2026-01-25 12:25:04.24	332.57	31.09	-34.9	-36.2	18.8	0.00e+00	0	62	0	2905604096	41	4154
2026-01-25 12:25:05.25	332.65	30.90	-35.1	-36.3	18.6	0.00e+00	0	61	0	2910846976	41	4234
2026-01-25 12:25:06.26	332.74	30.71	-35.1	-36.3	18.6	0.00e+00	0	62	0	2917138432	41	4232
2026-01-25 12:25:07.27	332.82	30.52	-35.1	-36.4	18.6	0.00e+00	0	61	0	2922381312	41	4245
2026-01-25 12:25:08.28	332.90	30.33	-35.2	-36.5	18.4	0.00e+00	0	62	0	2927624192	41	4329
2026-01-25 12:25:09.29	332.98	30.14	-35.2	-36.5	18.4	0.00e+00	0	62	0	2933915648	41	4328
2026-01-25 12:25:10.30	333.06	29.95	-35.2	-36.5	18.4	0.00e+00	0	62	0	2939158528	41	4333
2026-01-25 12:25:11.31	333.14	29.76	-35.2	-36.5	18.4	0.00e+00	0	62	0	2945449984	41	4330
2026-01-25 12:25:12.32	333.22	29.58	-35.3	-36.6	18.3	0.00e+00	0	62	0	2950692864	41	4353
2026-01-25 12:25:13.33	333.30	29.39	-35.3	-36.6	18.3	0.00e+00	0	62	0	2956984320	41	4375
2026-01-25 12:25:14.34	333.38	29.21	-35.2	-36.5	18.4	0.00e+00	0	62	0	2962227200	41	4337
2026-01-25 12:25:15.35	333.45	29.03	-35.2	-36.5	18.4	0.00e+00	0	62	0	2967470080	41	4326
2026-01-25 12:25:16.36	333.53	28.85	-35.2	-36.5	18.4	0.00e+00	0	62	0	2973761536	41	4310
2026-01-25 12:25:17.37	333.60	28.67	-35.2	-36.5	18.3	0.00e+00	0	62	0	2979004416	41	4335
2026-01-25 12:25:18.37	333.68	28.49	-35.2	-36.5	18.4	0.00e+00	0	61	0	2985295872	41	4292
2026-01-25 12:25:19.39	333.75	28.31	-35.2	-36.5	18.4	0.00e+00	0	62	0	2990538752	41	4301
2026-01-25 12:25:20.40	333.82	28.13	-35.2	-36.5	18.4	0.00e+00	0	61	0	2995781632	41	4295
2026-01-25 12:25:21.41	333.89	27.96	-35.2	-36.6	18.3	0.00e+00	0	62	0	3002073088	41	4341
2026-01-25 12:25:22.42	333.96	27.78	-35.3	-36.6	18.2	0.00e+00	0	62	0	3007315968	41	4391
2026-01-25 12:25:23.43	334.03	27.61	-35.3	-36.7	18.2	0.00e+00	0	62	0	3013607424	41	4397
2026-01-25 12:25:24.44	334.10	27.44	-35.4	-36.7	18.2	0.00e+00	0	61	0	3018850304	41	4431
2026-01-25 12:25:25.44	334.17	27.27	-35.4	-36.8	18.1	0.00e+00	0	62	0	3024093184	41	4460
2026-01-25 12:25:26.45	334.24	27.10	-35.5	-36.9	18.0	0.00e+00	0	62	0	3030384640	41	4507
2026-01-25 12:25:27.46	334.31	26.93	-35.6	-36.9	17.9	0.00e+00	0	62	0	3035627520	41	4542
2026-01-25 12:25:28.48	334.37	26.76	-35.4	-36.8	18.0	0.00e+00	0	62	0	3041918976	41	4466
2026-01-25 12:25:29.49	334.44	26.59	-35.4	-36.8	18.1	0.00e+00	0	62	0	3047161856	41	4449
2026-01-25 12:25:30.49	334.50	26.43	-35.5	-36.8	18.0	0.00e+00	0	62	0	3053453312	41	4485
2026-01-25 12:25:31.50	334.57	26.26	-35.5	-36.8	18.0	0.00e+00	0	62	0	3058696192	41	4482
2026-01-25 12:25:32.51	334.63	26.10	-35.3	-36.7	18.1	0.00e+00	0	62	0	3064987648	41	4400
2026-01-25 12:25:33.52	334.70	25.94	-35.2	-36.6	18.2	0.00e+00	0	62	0	3070230528	41	4342
2026-01-25 12:25:34.53	334.76	25.77	-35.2	-36.5	18.3	0.00e+00	0	62	0	3075473408	41	4321
2026-01-25 12:25:35.54	334.82	25.61	-35.2	-36.5	18.3	0.00e+00	0	62	0	3081764864	41	4325
2026-01-25 12:25:36.55	334.88	25.45	-35.2	-36.5	18.2	0.00e+00	0	62	0	3087007744	41	4326
2026-01-25 12:25:37.56	334.94	25.29	-35.2	-36.5	18.2	0.00e+00	0	62	0	3093299200	41	4323
2026-01-25 12:25:38.57	335.00	25.14	-35.2	-36.5	18.2	0.00e+00	0	62	0	3098542080	41	4318
2026-01-25 12:25:39.58	335.06	24.98	-35.2	-36.5	18.2	0.00e+00	0	62	0	3103784960	41	4320
2026-01-25 12:25:40.59	335.12	24.82	-35.2	-36.5	18.2	0.00e+00	0	62	0	3110076416	41	4318
2026-01-25 12:25:41.60	335.18	24.67	-35.3	-36.6	18.1	0.00e+00	0	62	0	3115319296	41	4372
2026-01-25 12:25:42.61	335.24	24.51	-35.3	-36.6	18.1	0.00e+00	0	62	0	3121610752	41	4390
2026-01-25 12:25:43.62	335.30	24.36	-35.4	-36.7	18.0	0.00e+00	0	62	0	3126853632	41	4433
2026-01-25 12:25:44.63	335.35	24.20	-35.5	-36.9	17.8	0.00e+00	0	62	0	3132096512	41	4513
2026-01-25 12:25:45.64	335.41	24.05	-35.6	-37.0	17.8	0.00e+00	0	62	0	3138387968	41	4555
2026-01-25 12:25:46.65	335.47	23.90	-35.6	-37.0	17.7	0.00e+00	0	62	0	3143630848	41	4580
2026-01-25 12:25:47.66	335.52	23.75	-35.7	-37.2	17.6	0.00e+00	0	61	0	3149922304	42	4393
2026-01-25 12:25:48.67	335.58	23.60	-35.8	-37.2	17.5	0.00e+00	0	62	0	3155165184	42	4434
2026-01-25 12:25:49.68	335.63	23.45	-35.8	-37.2	17.5	0.00e+00	0	62	0	3161456640	42	4431
2026-01-25 12:25:50.69	335.69	23.30	-35.9	-37.3	17.4	0.00e+00	0	62	0	3166699520	42	4468
2026-01-25 12:25:51.70	335.74	23.16	-35.9	-37.4	17.3	0.00e+00	0	62	0	3171942400	42	4502
2026-01-25 12:25:52.71	335.79	23.01	-35.9	-37.4	17.3	0.00e+00	0	62	0	3178233856	42	4517
2026-01-25 12:25:53.72	335.85	22.87	-36.0	-37.5	17.1	0.00e+00	0	62	0	3183476736	42	4583
2026-01-25 12:25:54.73	335.90	22.72	-36.0	-37.5	17.1	0.00e+00	0	62	0	3189768192	42	4556
2026-01-25 12:25:55.74	335.95	22.58	-36.0	-37.5	17.1	0.00e+00	0	62	0	3195011072	42	4576
2026-01-25 12:25:56.75	336.00	22.43	-36.1	-37.6	17.0	0.00e+00	0	62	0	3200253952	42	4606
2026-01-25 12:25:57.76	336.05	22.29	-36.0	-37.4	17.1	0.00e+00	0	62	0	3206545408	42	4544
2026-01-25 12:25:58.77	336.10	22.15	-36.0	-37.5	17.0	0.00e+00	0	62	0	3211788288	42	4571
2026-01-25 12:25:59.78	336.16	22.01	-36.1	-37.5	16.9	0.00e+00	0	62	0	3218079744	42	4592
2026-01-25 12:26:00.79	336.20	21.87	-36.0	-37.5	16.9	0.00e+00	0	62	0	3223322624	42	4577
2026-01-25 12:26:01.80	336.25	21.73	-36.1	-37.6	16.9	0.00e+00	0	62	0	3228565504	42	4602
2026-01-25 12:26:02.81	336.30	21.59	-36.1	-37.6	16.8	0.00e+00	0	62	0	3234856960	42	4647
2026-01-25 12:26:03.82	336.35	21.45	-36.1	-37.6	16.8	0.00e+00	0	62	0	3240099840	42	4643
2026-01-25 12:26:04.83	336.40	21.32	-36.2	-37.7	16.7	0.00e+00	0	62	0	3246391296	42	4674
2026-01-25 12:26:05.83	336.45	21.18	-36.2	-37.8	16.6	0.00e+00	0	62	0	3251634176	43	4448
2026-01-25 12:26:06.84	336.49	21.05	-36.2	-37.7	16.6	0.00e+00	0	62	0	3257925632	43	4428
2026-01-25 12:26:07.85	336.54	20.91	-36.2	-37.7	16.6	0.00e+00	0	62	0	3263168512	43	4426
2026-01-25 12:26:08.86	336.59	20.78	-36.1	-37.6	16.7	0.00e+00	0	62	0	3269459968	43	4380
2026-01-25 12:26:09.87	336.63	20.64	-36.2	-37.7	16.6	0.00e+00	0	62	0	3274702848	43	4407
2026-01-25 12:26:10.88	336.68	20.51	-36.2	-37.7	16.6	0.00e+00	0	62	0	3279945728	43	4429
2026-01-25 12:26:11.89	336.73	20.38	-36.3	-37.8	16.4	0.00e+00	0	62	0	3286237184	43	4486
2026-01-25 12:26:12.90	336.77	20.25	-36.4	-38.0	16.3	0.00e+00	0	62	0	3291480064	43	4552
2026-01-25 12:26:13.91	336.82	20.12	-36.5	-38.1	16.2	0.00e+00	0	62	0	3297771520	43	4600
2026-01-25 12:26:14.92	336.86	19.99	-36.4	-38.0	16.2	0.00e+00	0	62	0	3303014400	43	4566
2026-01-25 12:26:15.93	336.91	19.86	-36.4	-38.0	16.2	0.00e+00	0	62	0	3308257280	43	4572
2026-01-25 12:26:16.94	336.95	19.73	-36.4	-38.0	16.2	0.00e+00	0	62	0	3314548736	43	4566
2026-01-25 12:26:17.95	336.99	19.60	-36.4	-38.0	16.2	0.00e+00	0	62	0	3319791616	43	4570
2026-01-25 12:26:18.96	337.04	19.47	-36.3	-37.9	16.2	0.00e+00	0	62	0	3326083072	43	4513
2026-01-25 12:26:19.97	337.08	19.35	-36.1	-37.7	16.3	0.00e+00	0	62	0	3331325952	43	4409
2026-01-25 12:26:20.98	337.12	19.22	-36.1	-37.7	16.2	0.00e+00	0	62	0	3336568832	43	4424
2026-01-25 12:26:21.99	337.16	19.09	-36.2	-37.7	16.2	0.00e+00	0	62	0	3342860288	43	4434
2026-01-25 12:26:23.00	337.21	18.97	-36.1	-37.7	16.2	0.00e+00	0	62	0	3348103168	43	4413
2026-01-25 12:26:24.01	337.25	18.85	-36.2	-37.8	16.0	0.00e+00	0	62	0	3354394624	43	4489
2026-01-25 12:26:25.02	337.29	18.72	-36.3	-38.0	15.9	0.00e+00	0	62	0	3359637504	43	4555
2026-01-25 12:26:26.03	337.33	18.60	-36.5	-38.2	15.7	0.00e+00	0	62	0	3365928960	43	4664
2026-01-25 12:26:27.04	337.37	18.48	-36.6	-38.3	15.4	0.00e+00	0	62	0	3371171840	43	4740
2026-01-25 12:26:28.05	337.41	18.35	-36.9	-38.6	15.3	0.00e+00	0	62	0	3376414720	44	4647
2026-01-25 12:26:29.06	337.45	18.23	-37.0	-38.8	15.1	0.00e+00	0	62	0	3382706176	44	4726
2026-01-25 12:26:30.07	337.49	18.11	-37.0	-38.9	15.0	0.00e+00	0	62	0	3387949056	44	4766
2026-01-25 12:26:31.08	337.53	17.99	-37.1	-38.9	14.9	0.00e+00	0	62	0	3394240512	44	4787
2026-01-25 12:26:32.10	337.57	17.87	-37.1	-38.9	14.8	0.00e+00	0	62	0	3399483392	44	4796
2026-01-25 12:26:33.10	337.61	17.75	-37.1	-38.9	14.9	0.00e+00	0	62	0	3405774848	44	4781
2026-01-25 12:26:34.11	337.65	17.63	-37.0	-38.9	14.9	0.00e+00	0	62	0	3411017728	44	4775
2026-01-25 12:26:35.13	337.69	17.52	-37.0	-38.9	14.9	0.00e+00	0	62	0	3416260608	44	4772
2026-01-25 12:26:36.14	337.72	17.40	-37.0	-38.9	14.9	0.00e+00	0	62	0	3422552064	44	4783
2026-01-25 12:26:37.14	337.76	17.28	-36.9	-38.6	15.1	0.00e+00	0	62	0	3427794944	44	4650
2026-01-25 12:26:38.15	337.80	17.17	-36.8	-38.6	15.2	0.00e+00	0	62	0	3434086400	44	4626
2026-01-25 12:26:39.17	337.84	17.05	-36.8	-38.6	15.1	0.00e+00	0	62	0	3439329280	44	4623
2026-01-25 12:26:40.18	337.88	16.94	-36.6	-38.4	15.2	0.00e+00	0	62	0	3444572160	44	4522
2026-01-25 12:26:41.19	337.91	16.82	-36.6	-38.3	15.3	0.00e+00	0	62	0	3450863616	44	4473
2026-01-25 12:26:42.19	337.95	16.71	-36.5	-38.3	15.3	0.00e+00	0	62	0	3456106496	44	4456
2026-01-25 12:26:43.20	337.98	16.59	-36.6	-38.3	15.2	0.00e+00	0	62	0	3462397952	44	4487
2026-01-25 12:26:44.22	338.02	16.48	-36.5	-38.3	15.3	0.00e+00	0	62	0	3467640832	44	4454
2026-01-25 12:26:45.22	338.06	16.37	-36.4	-38.2	15.2	0.00e+00	0	62	0	3473932288	44	4416
2026-01-25 12:26:46.23	338.09	16.26	-36.5	-38.3	15.1	0.00e+00	0	62	0	3479175168	44	4442
2026-01-25 12:26:47.24	338.13	16.15	-36.5	-38.3	15.1	0.00e+00	0	62	0	3484418048	44	4450
