passes_logs/2026/01/25/R2.0S_Moscow/R2.0S_Moscow__20260125_234851_NOAA_20_JPSS-1_rec.log

#Pass ID: 20260125_234851_NOAA 20 (JPSS-1)
#Satellite: NOAA 20 (JPSS-1)
#Configuration: NOAA 20
#almurnet v.1.7.20251203
#Start time: 2026-01-25 23:48:54

#Version: 2.2.20231116
#Station: R2.0S_Moscow
#Location: 37.707566 lon 55.798166 lat
#TLE: 1 43013U 17073A   26025.47986292  .00000161  00000+0  97249-4 0  9993
#TLE: 2 43013  98.7646 326.3091 0001052  24.2709 335.8516 14.19540188424225

#Time	Az	El	Level	Level2	SNR	BER	BlckErr	Temp	State	Recorded	gain1	gain2
2026-01-25 23:48:54.07	15.56	2.14	-42.8	-57.4	3.8	1.49e+00	0	53	0	0	57	19007
2026-01-25 23:48:55.07	15.55	2.20	-42.8	-57.4	3.8	1.49e+00	0	54	104	0	57	18956
2026-01-25 23:48:56.08	15.55	2.27	-42.8	-57.4	3.8	1.49e+00	0	53	104	0	57	18974
2026-01-25 23:48:57.09	15.55	2.33	-42.8	-57.3	3.8	1.49e+00	0	53	104	0	57	18924
2026-01-25 23:48:58.10	15.55	2.40	-42.8	-57.4	3.8	1.49e+00	0	54	104	0	57	18993
2026-01-25 23:48:59.11	15.54	2.46	-42.8	-57.4	3.8	1.49e+00	0	53	104	0	57	19013
2026-01-25 23:49:00.12	15.54	2.53	-42.8	-57.3	3.8	1.49e+00	0	54	104	0	57	18929
2026-01-25 23:49:01.13	15.54	2.59	-42.8	-57.4	3.8	1.49e+00	0	54	104	0	57	18974
2026-01-25 23:49:02.14	15.54	2.66	-42.8	-57.3	3.8	1.49e+00	0	54	104	0	57	18927
2026-01-25 23:49:03.15	15.53	2.73	-42.8	-57.4	3.8	1.49e+00	0	54	104	0	57	18966
2026-01-25 23:49:04.16	15.53	2.79	-42.8	-57.4	3.8	1.49e+00	0	54	104	0	57	18995
2026-01-25 23:49:05.17	15.53	2.86	-42.8	-57.3	3.8	1.49e+00	0	54	104	0	57	18909
2026-01-25 23:49:06.18	15.53	2.92	-42.8	-57.3	3.8	1.49e+00	0	54	104	0	57	18871
2026-01-25 23:49:07.19	15.52	2.99	-42.8	-57.4	3.8	1.49e+00	0	54	104	0	57	19033
2026-01-25 23:49:08.21	15.52	3.06	-42.8	-57.3	3.8	1.49e+00	0	54	104	0	57	18942
2026-01-25 23:49:09.22	15.52	3.13	-42.8	-57.4	3.8	1.49e+00	0	54	104	0	57	18965
2026-01-25 23:49:10.23	15.51	3.19	-42.8	-57.3	3.8	1.49e+00	0	54	104	0	57	18943
2026-01-25 23:49:11.23	15.51	3.26	-42.8	-57.3	3.8	1.49e+00	0	54	104	0	57	18923
2026-01-25 23:49:12.25	15.51	3.33	-42.8	-57.4	3.8	1.49e+00	0	54	104	0	57	18952
2026-01-25 23:49:13.25	15.51	3.39	-42.8	-57.3	3.8	1.49e+00	0	55	104	0	57	18938
2026-01-25 23:49:14.27	15.50	3.46	-42.8	-57.4	3.8	1.49e+00	0	55	104	0	57	18983
2026-01-25 23:49:15.28	15.50	3.53	-42.8	-57.3	3.8	1.49e+00	0	55	104	0	57	18889
2026-01-25 23:49:16.28	15.50	3.60	-42.8	-57.3	3.8	1.49e+00	0	55	104	0	57	18934
2026-01-25 23:49:17.30	15.49	3.67	-42.8	-57.3	3.8	1.49e+00	0	55	104	0	57	18918
2026-01-25 23:49:18.31	15.49	3.74	-42.8	-57.3	3.8	1.49e+00	0	55	104	0	57	18947
2026-01-25 23:49:19.32	15.49	3.80	-42.8	-57.3	3.8	1.49e+00	0	55	104	0	57	18859
2026-01-25 23:49:20.33	15.49	3.87	-42.8	-57.3	3.8	1.49e+00	0	55	104	0	57	18884
2026-01-25 23:49:21.34	15.48	3.94	-42.8	-57.3	3.8	1.49e+00	0	55	104	0	57	18906
2026-01-25 23:49:22.35	15.48	4.01	-42.8	-57.3	3.8	1.49e+00	0	55	104	0	57	18903
2026-01-25 23:49:23.36	15.48	4.08	-42.8	-57.3	3.8	1.49e+00	0	55	104	0	57	18870
2026-01-25 23:49:24.37	15.47	4.15	-42.8	-57.3	3.8	1.49e+00	0	55	104	0	57	18929
2026-01-25 23:49:25.38	15.47	4.22	-42.8	-57.3	3.8	1.49e+00	0	55	104	0	57	18860
2026-01-25 23:49:26.39	15.47	4.29	-42.7	-57.3	3.8	1.49e+00	0	55	104	0	57	18884
2026-01-25 23:49:27.40	15.46	4.36	-42.7	-57.3	3.8	1.49e+00	0	55	104	0	57	18863
2026-01-25 23:49:28.41	15.46	4.43	-42.8	-57.3	3.8	1.49e+00	0	55	104	0	57	18878
2026-01-25 23:49:29.42	15.46	4.50	-42.7	-57.3	3.8	1.49e+00	0	56	104	0	57	18882
2026-01-25 23:49:30.43	15.45	4.57	-42.8	-57.3	3.8	1.49e+00	0	56	104	0	57	18807
2026-01-25 23:49:31.44	15.45	4.64	-42.7	-57.3	3.8	1.49e+00	0	56	104	0	57	18868
2026-01-25 23:49:32.45	15.44	4.71	-42.8	-57.3	3.8	1.49e+00	0	56	104	0	57	18883
2026-01-25 23:49:33.46	15.44	4.78	-42.7	-57.3	3.8	1.49e+00	0	56	104	0	57	18816
2026-01-25 23:49:34.48	15.44	4.85	-42.7	-57.3	3.8	1.49e+00	0	56	104	0	57	18899
2026-01-25 23:49:35.49	15.43	4.93	-42.8	-57.3	3.8	1.49e+00	0	56	104	0	57	18837
2026-01-25 23:49:36.50	15.43	5.00	-42.7	-57.3	3.8	1.49e+00	0	56	104	0	57	18842
2026-01-25 23:49:37.51	15.43	5.07	-42.7	-57.3	3.8	1.49e+00	0	56	104	0	57	18856
2026-01-25 23:49:38.52	15.42	5.14	-42.7	-57.3	3.8	1.49e+00	0	56	104	0	57	18859
2026-01-25 23:49:39.53	15.42	5.21	-42.7	-57.3	3.8	1.49e+00	0	56	104	0	57	18833
2026-01-25 23:49:40.54	15.41	5.29	-42.7	-57.3	3.8	1.49e+00	0	56	104	0	57	18877
2026-01-25 23:49:41.55	15.41	5.36	-42.7	-57.3	3.8	1.49e+00	0	56	104	0	57	18807
2026-01-25 23:49:42.56	15.41	5.43	-42.7	-57.2	3.8	1.49e+00	0	56	104	0	57	18697
2026-01-25 23:49:43.57	15.40	5.51	-42.7	-57.3	3.8	1.49e+00	0	56	104	0	57	18790
2026-01-25 23:49:44.58	15.40	5.58	-42.7	-57.3	3.8	1.49e+00	0	57	104	0	57	18902
2026-01-25 23:49:45.59	15.39	5.65	-42.7	-57.3	3.8	1.49e+00	0	56	104	0	57	18768
2026-01-25 23:49:46.60	15.39	5.73	-42.7	-57.2	3.8	1.49e+00	0	56	104	0	57	18696
2026-01-25 23:49:47.61	15.39	5.80	-42.7	-57.3	3.8	1.49e+00	0	56	104	0	57	18816
2026-01-25 23:49:48.62	15.38	5.87	-42.7	-57.3	3.8	1.49e+00	0	57	104	0	57	18806
2026-01-25 23:49:49.64	15.38	5.95	-42.7	-57.3	3.8	1.49e+00	0	57	104	0	57	18744
2026-01-25 23:49:50.65	15.37	6.02	-42.7	-57.2	3.8	1.49e+00	0	57	104	0	57	18605
2026-01-25 23:49:51.66	15.37	6.10	-42.7	-57.2	3.8	1.49e+00	0	56	104	0	57	18546
2026-01-25 23:49:52.67	15.36	6.17	-42.7	-57.1	3.8	1.49e+00	0	57	104	0	57	18425
2026-01-25 23:49:53.68	15.36	6.25	-42.7	-57.2	3.8	1.49e+00	0	57	104	0	57	18563
2026-01-25 23:49:54.69	15.36	6.32	-42.7	-57.2	3.8	1.49e+00	0	57	104	0	57	18595
2026-01-25 23:49:55.70	15.35	6.40	-42.7	-57.2	3.8	1.49e+00	0	57	104	0	57	18530
2026-01-25 23:49:56.71	15.35	6.47	-42.7	-57.0	3.8	1.49e+00	0	57	104	0	57	18238
2026-01-25 23:49:57.72	15.34	6.55	-42.7	-56.8	3.8	1.49e+00	0	57	104	0	57	17875
2026-01-25 23:49:58.73	15.34	6.63	-42.7	-56.7	3.8	1.49e+00	0	57	104	0	57	17658
2026-01-25 23:49:59.74	15.33	6.70	-42.7	-56.4	3.8	1.49e+00	0	57	104	0	57	17030
2026-01-25 23:50:00.75	15.33	6.78	-42.7	-56.2	3.8	1.49e+00	0	57	104	0	57	16534
2026-01-25 23:50:01.76	15.32	6.86	-42.6	-55.8	3.8	1.49e+00	0	57	104	0	57	15790
2026-01-25 23:50:02.77	15.32	6.93	-42.6	-55.1	3.8	1.49e+00	0	57	104	0	57	14551
2026-01-25 23:50:03.78	15.31	7.01	-42.5	-54.2	4.1	1.47e+00	0	57	104	0	57	13143
2026-01-25 23:50:04.79	15.31	7.09	-42.4	-53.2	4.4	1.38e+00	61	57	0	0	56	12431
2026-01-25 23:50:05.80	15.30	7.17	-42.3	-51.9	4.9	9.91e-01	0	57	0	1048576	56	10668
2026-01-25 23:50:06.81	15.30	7.25	-42.2	-50.8	5.6	5.27e-01	0	57	0	3145728	56	9466
2026-01-25 23:50:07.82	15.29	7.32	-41.8	-49.6	6.4	3.28e-01	0	57	0	5242880	55	8665
2026-01-25 23:50:08.83	15.29	7.40	-41.6	-48.6	7.2	1.95e-01	0	57	0	7340032	55	7765
2026-01-25 23:50:09.84	15.28	7.48	-41.5	-48.1	7.7	9.53e-02	0	57	0	9437184	55	7321
2026-01-25 23:50:10.85	15.28	7.56	-41.4	-47.7	8.1	6.86e-02	0	57	0	10485760	54	7439
2026-01-25 23:50:11.86	15.27	7.64	-41.4	-47.9	8.0	5.41e-02	0	57	0	12582912	54	7554
2026-01-25 23:50:12.87	15.27	7.72	-41.6	-48.5	7.4	9.83e-02	0	58	0	14680064	54	8126
2026-01-25 23:50:13.88	15.26	7.80	-41.8	-49.5	6.4	1.93e-01	0	58	0	16777216	54	9173
2026-01-25 23:50:14.89	15.25	7.88	-41.9	-50.1	5.9	3.19e-01	0	57	0	18874368	54	9819
2026-01-25 23:50:15.90	15.25	7.96	-41.8	-49.8	6.2	3.28e-01	0	57	0	19922944	54	9422
2026-01-25 23:50:16.91	15.24	8.04	-41.8	-49.5	6.4	2.42e-01	0	58	0	22020096	54	9174
2026-01-25 23:50:17.92	15.24	8.12	-42.1	-49.1	7.1	1.94e-01	0	58	0	24117248	54	8736
2026-01-25 23:50:18.93	15.23	8.20	-42.5	-54.8	4.0	2.21e-01	0	58	0	26214400	55	15768
2026-01-25 23:50:19.95	15.23	8.28	-42.3	-51.7	5.1	4.68e-01	0	58	0	26214400	55	11095
2026-01-25 23:50:20.96	15.22	8.37	-42.5	-50.3	6.4	2.80e-01	0	58	0	28311552	55	9413
2026-01-25 23:50:21.97	15.21	8.45	-42.0	-55.3	3.8	1.40e-01	0	58	104	29360128	55	16765
2026-01-25 23:50:22.98	15.21	8.53	-42.0	-48.7	7.7	5.90e-01	0	58	0	29360128	55	7825
2026-01-25 23:50:23.99	15.20	8.61	-42.0	-48.7	7.6	9.23e-02	0	58	0	31457280	55	7849
2026-01-25 23:50:24.99	15.20	8.69	-42.0	-48.6	7.7	9.19e-02	0	58	0	33554432	55	7782
2026-01-25 23:50:26.00	15.19	8.78	-42.0	-48.7	7.7	9.66e-02	0	58	0	34603008	55	7866
2026-01-25 23:50:27.01	15.18	8.86	-42.0	-48.7	7.7	9.69e-02	0	58	0	36700160	55	7815
2026-01-25 23:50:28.02	15.18	8.94	-42.0	-48.4	8.0	7.18e-02	0	58	0	38797312	55	7579
2026-01-25 23:50:29.03	15.17	9.03	-42.1	-48.6	7.8	7.53e-02	0	58	0	40894464	55	7782
2026-01-25 23:50:30.04	15.17	9.11	-42.0	-48.1	8.4	6.54e-02	0	58	0	42991616	55	7370
2026-01-25 23:50:31.05	15.16	9.20	-42.1	-48.2	8.4	4.37e-02	0	58	0	44040192	55	7415
2026-01-25 23:50:32.06	15.15	9.28	-42.1	-48.2	8.3	5.24e-02	0	58	0	46137344	55	7442
2026-01-25 23:50:33.07	15.15	9.37	-42.1	-48.2	8.4	4.56e-02	0	58	0	48234496	55	7419
2026-01-25 23:50:34.08	15.14	9.45	-42.1	-48.1	8.5	4.56e-02	0	58	0	50331648	55	7349
2026-01-25 23:50:35.09	15.13	9.54	-42.1	-48.1	8.5	3.95e-02	0	58	0	52428800	55	7349
2026-01-25 23:50:36.10	15.13	9.62	-42.1	-48.0	8.6	4.23e-02	0	58	0	53477376	55	7285
2026-01-25 23:50:37.11	15.12	9.71	-42.1	-48.1	8.6	3.55e-02	0	58	0	55574528	55	7303
2026-01-25 23:50:38.11	15.11	9.79	-42.0	-47.9	8.8	3.33e-02	0	58	0	57671680	55	7163
2026-01-25 23:50:39.12	15.11	9.88	-42.0	-47.8	8.9	3.10e-02	0	58	0	59768832	55	7104
2026-01-25 23:50:40.14	15.10	9.97	-42.1	-47.9	8.9	2.75e-02	0	58	0	61865984	55	7131
2026-01-25 23:50:41.15	15.09	10.06	-42.1	-47.9	8.9	2.84e-02	0	58	0	62914560	55	7162
2026-01-25 23:50:42.15	15.08	10.14	-42.1	-47.9	8.8	2.92e-02	0	58	0	65011712	55	7157
2026-01-25 23:50:43.16	15.08	10.23	-42.1	-48.0	8.8	2.92e-02	0	58	0	67108864	55	7255
2026-01-25 23:50:44.17	15.07	10.32	-42.1	-47.8	8.9	2.89e-02	0	59	0	69206016	55	7098
2026-01-25 23:50:45.18	15.06	10.41	-42.0	-47.7	9.1	2.60e-02	0	58	0	71303168	55	6999
2026-01-25 23:50:46.19	15.06	10.50	-42.0	-47.6	9.3	1.93e-02	0	58	0	72351744	55	6909
2026-01-25 23:50:47.20	15.05	10.59	-42.0	-47.6	9.3	1.74e-02	0	59	0	74448896	55	6884
2026-01-25 23:50:48.21	15.04	10.68	-42.0	-47.6	9.3	1.79e-02	0	58	0	76546048	55	6891
2026-01-25 23:50:49.22	15.03	10.77	-42.1	-47.6	9.3	1.78e-02	0	59	0	78643200	55	6894
2026-01-25 23:50:50.23	15.02	10.86	-42.1	-47.5	9.3	1.77e-02	0	59	0	80740352	55	6879
2026-01-25 23:50:51.24	15.02	10.95	-42.1	-47.6	9.4	1.54e-02	0	58	0	81788928	55	6881
2026-01-25 23:50:52.25	15.01	11.04	-42.1	-47.5	9.4	1.64e-02	0	59	0	83886080	55	6870
2026-01-25 23:50:53.26	15.00	11.13	-42.1	-47.5	9.4	1.54e-02	0	58	0	85983232	55	6874
2026-01-25 23:50:54.27	14.99	11.22	-42.2	-47.7	9.3	1.68e-02	0	59	0	88080384	55	7025
2026-01-25 23:50:55.28	14.99	11.31	-42.1	-47.6	9.4	1.58e-02	0	59	0	90177536	55	6926
2026-01-25 23:50:56.29	14.98	11.40	-42.1	-47.6	9.4	1.73e-02	0	59	0	91226112	55	6908
2026-01-25 23:50:57.30	14.97	11.50	-42.1	-47.5	9.5	1.47e-02	0	59	0	93323264	55	6849
2026-01-25 23:50:58.31	14.96	11.59	-42.1	-47.4	9.6	1.29e-02	0	59	0	95420416	55	6753
2026-01-25 23:50:59.32	14.95	11.68	-42.0	-47.3	9.7	1.21e-02	0	59	0	97517568	55	6712
2026-01-25 23:51:00.33	14.94	11.78	-42.1	-47.4	9.7	1.15e-02	0	59	0	99614720	55	6734
2026-01-25 23:51:01.34	14.93	11.87	-42.1	-47.4	9.7	1.10e-02	0	59	0	101711872	55	6734
2026-01-25 23:51:02.35	14.93	11.97	-42.1	-47.4	9.6	1.06e-02	0	59	0	102760448	55	6776
2026-01-25 23:51:03.36	14.92	12.06	-42.1	-47.4	9.7	1.18e-02	0	59	0	104857600	55	6756
2026-01-25 23:51:04.37	14.91	12.16	-42.1	-47.4	9.7	1.24e-02	0	59	0	106954752	55	6762
2026-01-25 23:51:05.38	14.90	12.25	-42.1	-47.3	9.8	1.09e-02	0	59	0	109051904	55	6679
2026-01-25 23:51:06.39	14.89	12.35	-42.0	-47.2	10.0	8.65e-03	0	59	0	111149056	55	6595
2026-01-25 23:51:07.40	14.88	12.44	-42.1	-47.2	9.9	8.72e-03	0	59	0	112197632	55	6589
2026-01-25 23:51:08.41	14.87	12.54	-42.1	-47.2	9.9	8.79e-03	0	59	0	114294784	55	6643
2026-01-25 23:51:09.42	14.86	12.64	-42.1	-47.2	10.0	9.43e-03	0	59	0	116391936	55	6584
2026-01-25 23:51:10.43	14.85	12.73	-42.0	-47.0	10.1	7.83e-03	0	59	0	118489088	55	6489
2026-01-25 23:51:11.44	14.84	12.83	-42.0	-47.0	10.1	6.00e-03	0	59	0	120586240	55	6480
2026-01-25 23:51:12.45	14.84	12.93	-42.0	-47.0	10.2	6.62e-03	0	59	0	121634816	55	6493
2026-01-25 23:51:13.46	14.83	13.03	-42.0	-47.0	10.2	6.27e-03	0	59	0	123731968	55	6479
2026-01-25 23:51:14.47	14.82	13.13	-42.0	-46.9	10.3	5.35e-03	0	59	0	125829120	55	6411
2026-01-25 23:51:15.47	14.81	13.23	-42.0	-46.9	10.3	5.19e-03	0	59	0	127926272	55	6413
2026-01-25 23:51:16.48	14.80	13.33	-42.0	-46.9	10.3	5.44e-03	0	59	0	130023424	55	6415
2026-01-25 23:51:17.50	14.79	13.43	-42.0	-46.8	10.5	5.00e-03	0	59	0	131072000	55	6303
2026-01-25 23:51:18.51	14.78	13.53	-42.0	-46.8	10.5	4.17e-03	0	59	0	133169152	55	6320
2026-01-25 23:51:19.51	14.77	13.63	-42.1	-46.9	10.5	3.95e-03	0	59	0	135266304	55	6393
2026-01-25 23:51:20.52	14.76	13.73	-42.1	-46.9	10.5	4.47e-03	0	59	0	137363456	55	6369
2026-01-25 23:51:21.53	14.75	13.83	-42.0	-46.7	10.6	3.87e-03	0	59	0	139460608	55	6246
2026-01-25 23:51:22.54	14.74	13.93	-42.1	-46.8	10.5	3.27e-03	0	59	0	140509184	55	6338
2026-01-25 23:51:23.55	14.72	14.04	-42.1	-46.8	10.6	3.67e-03	0	59	0	142606336	55	6318
2026-01-25 23:51:24.56	14.71	14.14	-42.0	-46.7	10.8	3.00e-03	0	59	0	144703488	55	6232
2026-01-25 23:51:25.57	14.70	14.24	-42.0	-46.7	10.8	2.77e-03	0	59	0	146800640	55	6227
2026-01-25 23:51:26.58	14.69	14.35	-42.0	-46.6	10.8	2.41e-03	0	59	0	148897792	55	6187
2026-01-25 23:51:27.59	14.68	14.45	-42.0	-46.6	10.8	2.42e-03	0	59	0	149946368	55	6187
2026-01-25 23:51:28.60	14.67	14.56	-42.0	-46.5	11.0	2.25e-03	0	59	0	152043520	55	6088
2026-01-25 23:51:29.61	14.66	14.66	-42.0	-46.5	11.0	1.93e-03	0	59	0	154140672	55	6101
2026-01-25 23:51:30.62	14.65	14.77	-42.0	-46.5	11.0	1.91e-03	0	59	0	156237824	55	6070
2026-01-25 23:51:31.64	14.64	14.87	-42.0	-46.5	11.1	1.61e-03	0	59	0	158334976	55	6064
2026-01-25 23:51:32.65	14.62	14.98	-42.0	-46.5	11.1	1.69e-03	0	59	0	159383552	55	6074
2026-01-25 23:51:33.66	14.61	15.09	-42.0	-46.4	11.1	1.51e-03	0	60	0	161480704	55	6052
2026-01-25 23:51:34.67	14.60	15.20	-42.0	-46.5	11.1	1.62e-03	0	59	0	163577856	55	6077
2026-01-25 23:51:35.68	14.59	15.30	-42.0	-46.5	11.1	1.61e-03	0	59	0	165675008	55	6065
2026-01-25 23:51:36.69	14.58	15.41	-42.0	-46.4	11.2	1.51e-03	0	60	0	167772160	55	6042
2026-01-25 23:51:37.70	14.57	15.52	-41.9	-46.3	11.3	1.27e-03	0	60	0	169869312	55	5974
2026-01-25 23:51:38.71	14.55	15.63	-41.9	-46.3	11.3	1.17e-03	0	59	0	170917888	55	5954
2026-01-25 23:51:39.71	14.54	15.74	-42.0	-46.4	11.2	1.16e-03	0	60	0	173015040	55	6025
2026-01-25 23:51:40.72	14.53	15.85	-42.0	-46.4	11.3	1.29e-03	0	59	0	175112192	55	5997
2026-01-25 23:51:41.73	14.52	15.96	-42.0	-46.3	11.3	1.05e-03	0	59	0	177209344	55	5953
2026-01-25 23:51:42.74	14.50	16.07	-42.0	-46.3	11.3	1.06e-03	0	60	0	179306496	55	5979
2026-01-25 23:51:43.75	14.49	16.19	-42.0	-46.3	11.3	1.07e-03	0	59	0	180355072	55	5966
2026-01-25 23:51:44.76	14.48	16.30	-42.0	-46.3	11.3	1.03e-03	0	59	0	182452224	55	5978
2026-01-25 23:51:45.77	14.46	16.41	-41.9	-46.2	11.5	1.01e-03	0	60	0	184549376	55	5913
2026-01-25 23:51:46.78	14.45	16.53	-41.9	-46.1	11.6	8.44e-04	0	60	0	186646528	55	5846
2026-01-25 23:51:47.79	14.44	16.64	-41.9	-46.1	11.6	5.53e-04	0	60	0	188743680	55	5839
2026-01-25 23:51:48.80	14.42	16.76	-41.9	-46.2	11.6	7.30e-04	0	60	0	189792256	55	5873
2026-01-25 23:51:49.81	14.41	16.87	-41.9	-46.1	11.7	6.99e-04	0	60	0	191889408	55	5809
2026-01-25 23:51:50.82	14.40	16.99	-41.9	-46.0	11.8	5.13e-04	0	60	0	193986560	55	5746
2026-01-25 23:51:51.83	14.38	17.10	-41.9	-46.0	11.8	4.38e-04	0	60	0	196083712	55	5752
2026-01-25 23:51:52.84	14.37	17.22	-41.9	-46.0	11.8	4.57e-04	0	60	0	198180864	55	5767
2026-01-25 23:51:53.85	14.36	17.34	-41.8	-45.9	11.9	4.51e-04	0	60	0	199229440	55	5674
2026-01-25 23:51:54.86	14.34	17.46	-41.7	-45.7	12.1	2.96e-04	0	60	0	201326592	55	5538
2026-01-25 23:51:55.87	14.33	17.58	-41.8	-45.7	12.1	2.62e-04	0	60	0	203423744	55	5590
2026-01-25 23:51:56.88	14.31	17.69	-41.7	-45.7	12.1	2.75e-04	0	60	0	205520896	55	5553
2026-01-25 23:51:57.89	14.30	17.81	-41.8	-45.7	12.1	2.52e-04	0	60	0	207618048	55	5559
2026-01-25 23:51:58.90	14.28	17.93	-41.8	-45.7	12.0	2.64e-04	0	60	0	208666624	55	5577
2026-01-25 23:51:59.91	14.27	18.06	-41.7	-45.5	12.3	1.87e-04	0	60	0	210763776	55	5462
2026-01-25 23:52:00.92	14.25	18.18	-41.7	-45.5	12.3	1.70e-04	0	60	0	212860928	55	5459
2026-01-25 23:52:01.93	14.24	18.30	-41.7	-45.6	12.3	1.81e-04	0	60	0	214958080	55	5467
2026-01-25 23:52:02.94	14.22	18.42	-41.7	-45.5	12.3	1.58e-04	0	60	0	217055232	55	5464
2026-01-25 23:52:03.95	14.21	18.55	-41.7	-45.6	12.3	1.68e-04	0	60	0	218103808	55	5506
2026-01-25 23:52:04.95	14.19	18.67	-41.7	-45.6	12.3	1.98e-04	0	60	0	220200960	55	5488
2026-01-25 23:52:05.96	14.17	18.79	-41.8	-45.6	12.3	1.84e-04	0	60	0	222298112	55	5504
2026-01-25 23:52:06.97	14.16	18.92	-41.7	-45.5	12.4	1.78e-04	0	60	0	224395264	55	5458
2026-01-25 23:52:07.98	14.14	19.05	-41.7	-45.4	12.5	1.33e-04	0	60	0	226492416	55	5399
2026-01-25 23:52:08.99	14.13	19.17	-41.7	-45.4	12.5	1.02e-04	0	60	0	227540992	55	5374
2026-01-25 23:52:10.00	14.11	19.30	-41.7	-45.5	12.4	1.30e-04	0	60	0	229638144	55	5454
2026-01-25 23:52:11.01	14.09	19.43	-41.7	-45.4	12.6	1.42e-04	0	60	0	231735296	55	5373
2026-01-25 23:52:12.02	14.07	19.56	-41.6	-45.2	12.7	8.62e-05	0	60	0	233832448	55	5270
2026-01-25 23:52:13.03	14.06	19.69	-41.6	-45.3	12.7	8.39e-05	0	60	0	235929600	55	5315
2026-01-25 23:52:14.04	14.04	19.81	-41.7	-45.4	12.6	8.31e-05	0	60	0	238026752	55	5354
2026-01-25 23:52:15.05	14.02	19.95	-41.6	-45.3	12.7	9.15e-05	0	60	0	239075328	55	5309
2026-01-25 23:52:16.06	14.00	20.08	-41.6	-45.2	12.7	7.09e-05	0	60	0	241172480	55	5276
2026-01-25 23:52:17.07	13.99	20.21	-41.6	-45.3	12.7	7.62e-05	0	60	0	243269632	55	5289
2026-01-25 23:52:18.08	13.97	20.34	-41.7	-45.3	12.7	6.33e-05	0	60	0	245366784	55	5333
2026-01-25 23:52:19.09	13.95	20.48	-41.6	-45.2	12.8	8.01e-05	0	60	0	247463936	55	5252
2026-01-25 23:52:20.09	13.93	20.61	-41.6	-45.1	12.9	5.49e-05	0	60	0	248512512	55	5213
2026-01-25 23:52:21.10	13.91	20.74	-41.6	-45.2	12.9	5.56e-05	0	60	0	250609664	55	5233
2026-01-25 23:52:22.11	13.89	20.88	-41.6	-45.1	12.9	5.03e-05	0	60	0	252706816	55	5216
2026-01-25 23:52:23.12	13.88	21.01	-41.6	-45.2	12.9	5.41e-05	0	60	0	254803968	55	5229
2026-01-25 23:52:24.13	13.86	21.15	-41.6	-45.2	12.8	5.64e-05	0	60	0	256901120	55	5224
2026-01-25 23:52:25.14	13.84	21.29	-41.7	-45.3	12.7	6.25e-05	0	60	0	257949696	55	5315
2026-01-25 23:52:26.16	13.82	21.43	-41.7	-45.3	12.7	7.70e-05	0	60	0	260046848	55	5321
2026-01-25 23:52:27.16	13.80	21.57	-41.6	-45.2	12.8	7.40e-05	0	60	0	262144000	55	5246
2026-01-25 23:52:28.18	13.78	21.71	-41.6	-45.2	12.9	5.34e-05	0	60	0	264241152	55	5248
2026-01-25 23:52:29.19	13.76	21.85	-41.6	-45.2	12.9	5.64e-05	0	60	0	266338304	55	5223
2026-01-25 23:52:30.19	13.74	21.99	-41.6	-45.1	12.9	3.89e-05	0	60	0	267386880	55	5215
2026-01-25 23:52:31.20	13.72	22.13	-41.6	-45.2	12.9	4.50e-05	0	60	0	269484032	55	5259
2026-01-25 23:52:32.21	13.69	22.28	-41.7	-45.3	12.8	7.17e-05	0	60	0	271581184	55	5281
2026-01-25 23:52:33.22	13.67	22.42	-41.6	-45.2	12.9	5.72e-05	0	60	0	273678336	55	5266
2026-01-25 23:52:34.24	13.65	22.57	-41.6	-45.1	13.0	4.57e-05	0	60	0	275775488	55	5198
2026-01-25 23:52:35.25	13.63	22.71	-41.6	-45.1	13.0	3.89e-05	0	60	0	276824064	55	5166
2026-01-25 23:52:36.26	13.61	22.86	-41.5	-45.1	13.0	2.59e-05	0	60	0	278921216	55	5163
2026-01-25 23:52:37.27	13.59	23.01	-41.5	-45.0	13.1	3.58e-05	0	60	0	281018368	55	5113
2026-01-25 23:52:38.28	13.56	23.15	-41.5	-45.0	13.1	2.67e-05	0	60	0	283115520	55	5147
2026-01-25 23:52:39.29	13.54	23.30	-41.5	-45.0	13.1	2.89e-05	0	60	0	285212672	55	5140
2026-01-25 23:52:40.30	13.52	23.45	-41.5	-45.0	13.1	2.74e-05	0	61	0	286261248	55	5117
2026-01-25 23:52:41.31	13.49	23.60	-41.5	-44.9	13.2	2.74e-05	0	60	0	288358400	54	5359
2026-01-25 23:52:42.32	13.47	23.75	-41.5	-44.9	13.2	1.37e-05	0	60	0	290455552	54	5378
2026-01-25 23:52:43.33	13.45	23.91	-41.5	-44.9	13.2	1.98e-05	0	60	0	292552704	54	5360
2026-01-25 23:52:44.34	13.42	24.06	-41.4	-44.8	13.3	2.21e-05	0	60	0	294649856	54	5330
2026-01-25 23:52:45.34	13.40	24.21	-41.4	-44.8	13.3	1.90e-05	0	61	0	295698432	54	5316
2026-01-25 23:52:46.35	13.37	24.37	-41.4	-44.7	13.4	6.10e-06	0	61	0	297795584	54	5265
2026-01-25 23:52:47.36	13.35	24.52	-41.4	-44.7	13.4	1.37e-05	0	60	0	299892736	54	5276
2026-01-25 23:52:48.37	13.32	24.68	-41.4	-44.7	13.5	1.14e-05	0	60	0	301989888	54	5228
2026-01-25 23:52:49.39	13.30	24.84	-41.4	-44.6	13.5	1.14e-05	0	60	0	304087040	54	5217
2026-01-25 23:52:50.40	13.27	25.00	-41.4	-44.7	13.4	1.52e-05	0	60	0	306184192	54	5273
2026-01-25 23:52:51.40	13.25	25.16	-41.4	-44.6	13.5	1.75e-05	0	60	0	307232768	54	5214
2026-01-25 23:52:52.42	13.22	25.32	-41.4	-44.8	13.3	1.83e-05	0	60	0	309329920	54	5324
2026-01-25 23:52:53.42	13.19	25.48	-41.5	-44.9	13.3	1.75e-05	0	60	0	311427072	54	5348
2026-01-25 23:52:54.43	13.17	25.64	-41.5	-44.9	13.2	1.83e-05	0	61	0	313524224	54	5383
2026-01-25 23:52:55.44	13.14	25.81	-41.5	-44.9	13.3	2.05e-05	0	60	0	315621376	54	5357
2026-01-25 23:52:56.45	13.11	25.97	-41.5	-44.9	13.3	2.21e-05	0	60	0	316669952	54	5364
2026-01-25 23:52:57.46	13.08	26.14	-41.5	-44.9	13.2	1.98e-05	0	60	0	318767104	54	5402
2026-01-25 23:52:58.48	13.06	26.31	-41.6	-45.1	13.1	2.97e-05	0	60	0	320864256	54	5479
2026-01-25 23:52:59.49	13.03	26.48	-41.6	-45.1	13.1	4.19e-05	0	60	0	322961408	54	5478
2026-01-25 23:53:00.50	13.00	26.64	-41.7	-45.3	12.9	4.04e-05	0	60	0	325058560	54	5607
2026-01-25 23:53:01.51	12.97	26.81	-41.8	-45.5	12.7	6.79e-05	0	61	0	326107136	54	5740
2026-01-25 23:53:02.52	12.94	26.99	-41.8	-45.5	12.6	7.01e-05	0	60	0	328204288	54	5753
2026-01-25 23:53:03.53	12.91	27.16	-41.9	-45.5	12.6	9.46e-05	0	60	0	330301440	54	5783
2026-01-25 23:53:04.54	12.88	27.33	-41.9	-45.6	12.5	1.17e-04	0	61	0	332398592	54	5827
2026-01-25 23:53:05.54	12.85	27.50	-41.9	-45.7	12.4	1.28e-04	0	60	0	334495744	54	5913
2026-01-25 23:53:06.55	12.82	27.68	-42.0	-45.8	12.3	1.52e-04	0	60	0	335544320	54	5959
2026-01-25 23:53:07.56	12.79	27.86	-42.0	-45.9	12.3	1.75e-04	0	60	0	337641472	54	6005
2026-01-25 23:53:08.57	12.75	28.03	-42.2	-46.1	12.0	2.42e-04	0	60	0	339738624	54	6189
2026-01-25 23:53:09.58	12.72	28.21	-42.3	-46.5	11.6	4.55e-04	0	60	0	341835776	55	6083
2026-01-25 23:53:10.59	12.69	28.39	-42.4	-46.6	11.5	6.64e-04	0	60	0	343932928	55	6177
2026-01-25 23:53:11.60	12.66	28.57	-42.5	-46.8	11.3	1.13e-03	0	61	0	344981504	55	6334
2026-01-25 23:53:12.61	12.62	28.76	-42.6	-47.1	11.0	1.52e-03	0	60	0	347078656	55	6498
2026-01-25 23:53:13.62	12.59	28.94	-42.6	-47.3	10.8	1.73e-03	0	61	0	349175808	55	6651
2026-01-25 23:53:14.63	12.55	29.12	-42.9	-47.6	10.6	2.83e-03	0	61	0	351272960	56	6515
2026-01-25 23:53:15.64	12.52	29.31	-42.9	-47.6	10.7	3.43e-03	0	60	0	353370112	56	6524
2026-01-25 23:53:16.65	12.48	29.50	-43.0	-47.8	10.5	3.69e-03	0	61	0	354418688	56	6665
2026-01-25 23:53:17.66	12.45	29.69	-43.0	-48.0	10.3	4.70e-03	0	60	0	356515840	56	6814
2026-01-25 23:53:18.67	12.41	29.88	-43.1	-48.1	10.1	5.69e-03	0	61	0	358612992	56	6917
2026-01-25 23:53:19.68	12.37	30.07	-43.1	-48.1	10.1	7.13e-03	0	61	0	360710144	56	6906
2026-01-25 23:53:20.69	12.34	30.26	-43.1	-48.1	10.1	7.13e-03	0	61	0	362807296	56	6944
2026-01-25 23:53:21.70	12.30	30.45	-43.1	-48.1	10.1	6.99e-03	0	61	0	363855872	56	6914
2026-01-25 23:53:22.71	12.26	30.65	-43.1	-48.2	10.0	6.73e-03	0	61	0	365953024	56	6967
2026-01-25 23:53:23.72	12.22	30.84	-43.1	-48.1	10.1	6.06e-03	0	61	0	368050176	56	6929
2026-01-25 23:53:24.73	12.18	31.04	-43.1	-48.0	10.2	6.06e-03	0	61	0	370147328	56	6861
2026-01-25 23:53:25.73	12.14	31.24	-43.1	-48.0	10.3	5.92e-03	0	61	0	372244480	56	6811
2026-01-25 23:53:26.74	12.10	31.44	-43.1	-48.0	10.2	5.28e-03	0	61	0	374341632	56	6875
2026-01-25 23:53:27.75	12.06	31.64	-43.1	-48.1	10.1	6.37e-03	0	61	0	375390208	56	6935
2026-01-25 23:53:28.77	12.02	31.84	-43.2	-48.2	10.0	7.33e-03	0	61	0	377487360	56	7016
2026-01-25 23:53:29.77	11.98	32.05	-43.1	-48.2	10.1	7.65e-03	0	61	0	379584512	56	6976
2026-01-25 23:53:30.79	11.94	32.25	-43.7	-48.7	9.8	7.88e-03	0	60	0	381681664	57	7008
2026-01-25 23:53:31.80	11.89	32.46	-43.3	-48.5	9.8	9.70e-03	0	61	0	383778816	57	6822
2026-01-25 23:53:32.81	11.85	32.67	-43.2	-48.5	9.8	1.02e-02	0	61	0	384827392	57	6812
2026-01-25 23:53:33.82	11.81	32.88	-43.2	-48.4	9.9	8.99e-03	0	61	0	386924544	57	6750
2026-01-25 23:53:34.82	11.76	33.09	-43.2	-48.3	9.9	8.66e-03	0	61	0	389021696	57	6696
2026-01-25 23:53:35.83	11.71	33.30	-43.2	-48.3	9.9	8.14e-03	0	61	0	391118848	57	6695
2026-01-25 23:53:36.84	11.67	33.52	-43.2	-48.2	10.0	7.27e-03	0	61	0	393216000	57	6645
2026-01-25 23:53:37.85	11.62	33.73	-43.1	-48.1	10.2	6.10e-03	0	61	0	394264576	57	6519
2026-01-25 23:53:38.86	11.57	33.95	-43.0	-47.8	10.5	5.08e-03	0	61	0	396361728	57	6283
2026-01-25 23:53:39.87	11.53	34.17	-42.9	-47.6	10.7	3.88e-03	0	61	0	398458880	57	6190
2026-01-25 23:53:40.88	11.48	34.39	-42.9	-47.5	10.8	2.90e-03	0	61	0	400556032	57	6100
2026-01-25 23:53:41.89	11.43	34.61	-42.8	-47.3	11.1	2.20e-03	0	61	0	402653184	57	5939
2026-01-25 23:53:42.90	11.38	34.83	-42.6	-46.8	11.5	1.05e-03	0	61	0	403701760	57	5641
2026-01-25 23:53:43.91	11.33	35.06	-42.5	-46.6	11.8	5.17e-04	0	61	0	405798912	56	5802
2026-01-25 23:53:44.92	11.27	35.29	-42.3	-46.3	12.1	3.47e-04	0	61	0	407896064	56	5594
2026-01-25 23:53:45.93	11.22	35.51	-42.3	-46.2	12.2	2.31e-04	0	61	0	409993216	56	5560
2026-01-25 23:53:46.94	11.17	35.74	-42.2	-46.0	12.4	1.32e-04	0	61	0	412090368	56	5425
2026-01-25 23:53:47.95	11.11	35.97	-42.0	-45.6	12.8	7.32e-05	0	61	0	413138944	56	5196
2026-01-25 23:53:48.96	11.06	36.21	-41.6	-45.0	13.2	4.27e-05	0	61	0	415236096	55	5144
2026-01-25 23:53:49.97	11.00	36.44	-41.5	-44.7	13.6	1.29e-05	0	61	0	417333248	54	5266
2026-01-25 23:53:50.98	10.94	36.68	-41.4	-44.6	13.6	6.10e-06	0	61	0	419430400	54	5216
2026-01-25 23:53:51.98	10.89	36.92	-41.3	-44.5	13.8	7.60e-06	0	61	0	421527552	54	5118
2026-01-25 23:53:52.99	10.83	37.16	-41.3	-44.4	13.9	5.30e-06	0	61	0	422576128	54	5052
2026-01-25 23:53:54.00	10.77	37.40	-41.3	-44.4	13.9	6.10e-06	0	61	0	424673280	54	5069
2026-01-25 23:53:55.01	10.71	37.64	-41.2	-44.3	14.0	1.50e-06	0	60	0	426770432	54	4988
2026-01-25 23:53:56.02	10.65	37.89	-41.2	-44.3	14.1	0.00e+00	0	61	0	428867584	54	4991
2026-01-25 23:53:57.03	10.58	38.13	-41.2	-44.3	14.0	3.80e-06	0	61	0	430964736	54	4997
2026-01-25 23:53:58.04	10.52	38.38	-41.2	-44.3	14.0	3.00e-06	0	61	0	432013312	54	5019
2026-01-25 23:53:59.05	10.46	38.63	-41.2	-44.3	14.0	5.30e-06	0	61	0	434110464	54	5009
2026-01-25 23:54:00.06	10.39	38.88	-41.3	-44.4	13.9	7.60e-06	0	61	0	436207616	54	5084
2026-01-25 23:54:01.06	10.32	39.14	-41.4	-44.6	13.7	2.20e-06	0	61	0	438304768	54	5174
2026-01-25 23:54:02.07	10.26	39.39	-41.5	-44.7	13.6	5.30e-06	0	61	0	440401920	54	5246
2026-01-25 23:54:03.08	10.19	39.65	-41.5	-44.7	13.6	1.06e-05	0	61	0	442499072	54	5239
2026-01-25 23:54:04.09	10.12	39.91	-41.6	-44.9	13.4	1.14e-05	0	61	0	443547648	54	5357
2026-01-25 23:54:05.10	10.05	40.17	-41.7	-45.2	13.1	2.44e-05	0	61	0	445644800	54	5554
2026-01-25 23:54:06.11	9.97	40.43	-41.8	-45.4	12.9	4.95e-05	0	61	0	447741952	54	5690
2026-01-25 23:54:07.12	9.90	40.70	-42.0	-45.7	12.6	5.64e-05	0	61	0	449839104	54	5859
2026-01-25 23:54:08.13	9.82	40.97	-42.1	-45.8	12.5	1.04e-04	0	61	0	451936256	54	5935
2026-01-25 23:54:09.14	9.75	41.24	-42.2	-46.0	12.2	1.07e-04	0	61	0	452984832	54	6106
2026-01-25 23:54:10.15	9.67	41.51	-42.2	-46.0	12.3	1.89e-04	0	61	0	455081984	54	6111
2026-01-25 23:54:11.15	9.59	41.78	-42.2	-46.1	12.2	2.39e-04	0	61	0	457179136	55	5814
2026-01-25 23:54:12.16	9.51	42.05	-42.3	-46.2	12.0	2.39e-04	0	61	0	459276288	55	5906
2026-01-25 23:54:13.17	9.43	42.33	-42.1	-45.9	12.4	1.90e-04	0	61	0	461373440	55	5722
2026-01-25 23:54:14.18	9.34	42.61	-42.1	-45.9	12.4	2.04e-04	0	61	0	462422016	55	5677
2026-01-25 23:54:15.19	9.26	42.89	-42.1	-45.9	12.5	1.37e-04	0	61	0	464519168	55	5667
2026-01-25 23:54:16.20	9.17	43.17	-42.1	-45.8	12.4	1.34e-04	0	61	0	466616320	55	5656
2026-01-25 23:54:17.21	9.08	43.46	-42.2	-46.0	12.3	1.62e-04	0	61	0	468713472	55	5729
2026-01-25 23:54:18.22	8.99	43.75	-42.3	-46.2	12.1	1.79e-04	0	61	0	470810624	55	5864
2026-01-25 23:54:19.23	8.90	44.04	-42.4	-46.4	11.8	2.97e-04	0	61	0	471859200	55	6036
2026-01-25 23:54:20.24	8.81	44.33	-42.5	-46.7	11.5	7.03e-04	0	61	0	473956352	55	6241
2026-01-25 23:54:21.25	8.71	44.62	-42.5	-46.7	11.6	6.79e-04	0	61	0	476053504	55	6208
2026-01-25 23:54:22.26	8.62	44.92	-42.5	-46.7	11.5	7.29e-04	0	61	0	478150656	55	6234
2026-01-25 23:54:23.27	8.52	45.21	-42.7	-47.2	11.1	1.19e-03	0	61	0	480247808	55	6572
2026-01-25 23:54:24.29	8.42	45.52	-43.0	-47.6	10.8	2.10e-03	0	61	0	481296384	56	6528
2026-01-25 23:54:25.29	8.31	45.82	-43.1	-47.8	10.6	3.05e-03	0	61	0	483393536	56	6695
2026-01-25 23:54:26.31	8.21	46.12	-43.2	-48.0	10.3	4.73e-03	0	61	0	485490688	56	6869
2026-01-25 23:54:27.31	8.10	46.43	-43.3	-48.4	10.0	7.01e-03	0	61	0	487587840	57	6731
2026-01-25 23:54:28.32	7.99	46.74	-43.4	-48.7	9.7	7.06e-03	0	61	0	489684992	57	6966
2026-01-25 23:54:29.33	7.88	47.05	-43.5	-49.0	9.3	1.74e-02	0	61	0	490733568	57	7262
2026-01-25 23:54:30.34	7.77	47.36	-43.6	-49.2	9.0	2.59e-02	0	61	0	492830720	57	7433
2026-01-25 23:54:31.35	7.65	47.68	-43.6	-49.2	9.2	2.23e-02	0	61	0	494927872	57	7381
2026-01-25 23:54:32.36	7.53	47.99	-43.5	-49.0	9.3	1.78e-02	0	61	0	497025024	57	7267
2026-01-25 23:54:33.37	7.41	48.31	-43.5	-49.0	9.4	1.68e-02	0	61	0	499122176	57	7224
2026-01-25 23:54:34.38	7.29	48.64	-43.5	-48.8	9.5	1.55e-02	0	61	0	500170752	57	7109
2026-01-25 23:54:35.39	7.16	48.96	-43.4	-48.6	9.8	1.16e-02	0	61	0	502267904	57	6892
2026-01-25 23:54:36.40	7.03	49.29	-43.3	-48.3	10.1	8.98e-03	0	61	0	504365056	57	6651
2026-01-25 23:54:37.41	6.90	49.61	-43.0	-47.6	10.8	3.18e-03	0	61	0	506462208	57	6201
2026-01-25 23:54:38.43	6.76	49.95	-42.9	-47.3	11.2	1.70e-03	0	61	0	508559360	57	5931
2026-01-25 23:54:39.44	6.62	50.28	-42.7	-46.8	11.7	8.69e-04	0	61	0	510656512	57	5630
2026-01-25 23:54:40.44	6.48	50.61	-42.5	-46.4	12.0	3.71e-04	0	61	0	511705088	57	5388
2026-01-25 23:54:41.45	6.34	50.95	-42.3	-46.0	12.5	2.44e-04	0	61	0	513802240	56	5427
2026-01-25 23:54:42.46	6.19	51.29	-42.0	-45.5	13.0	4.73e-05	0	61	0	515899392	56	5145
2026-01-25 23:54:43.47	6.04	51.63	-41.6	-44.8	13.5	1.67e-05	0	61	0	517996544	55	5019
2026-01-25 23:54:44.48	5.88	51.98	-41.6	-44.8	13.5	9.90e-06	0	61	0	520093696	55	5013
2026-01-25 23:54:45.49	5.73	52.33	-41.5	-44.6	13.7	1.06e-05	0	61	0	521142272	55	4923
2026-01-25 23:54:46.51	5.56	52.68	-41.5	-44.7	13.7	7.60e-06	0	61	0	523239424	54	5262
2026-01-25 23:54:47.51	5.40	53.03	-41.5	-44.6	13.7	7.60e-06	0	61	0	525336576	54	5209
2026-01-25 23:54:48.52	5.22	53.38	-41.4	-44.5	13.9	7.00e-07	0	61	0	527433728	54	5133
2026-01-25 23:54:49.53	5.05	53.74	-41.4	-44.5	13.8	3.80e-06	0	61	0	529530880	54	5153
2026-01-25 23:54:50.54	4.87	54.09	-41.3	-44.3	14.0	1.50e-06	0	61	0	530579456	54	5039
2026-01-25 23:54:51.55	4.69	54.45	-41.3	-44.3	14.2	3.00e-06	0	61	0	532676608	54	4990
2026-01-25 23:54:52.56	4.50	54.82	-41.3	-44.3	14.1	1.50e-06	0	61	0	534773760	54	4989
2026-01-25 23:54:53.57	4.30	55.18	-41.4	-44.5	13.9	5.30e-06	0	61	0	536870912	54	5141
2026-01-25 23:54:54.58	4.10	55.55	-41.7	-45.1	13.3	1.14e-05	0	61	0	538968064	54	5495
2026-01-25 23:54:55.59	3.90	55.92	-41.9	-45.4	13.0	3.96e-05	0	61	0	540016640	54	5675
2026-01-25 23:54:56.60	3.69	56.29	-42.2	-45.9	12.5	8.77e-05	0	61	0	542113792	54	6020
2026-01-25 23:54:57.61	3.47	56.66	-42.6	-46.8	11.5	3.11e-04	0	61	0	544210944	55	6319
2026-01-25 23:54:58.62	3.25	57.04	-43.2	-48.0	10.5	2.79e-03	0	61	0	546308096	56	6872
2026-01-25 23:54:59.63	3.02	57.41	-43.4	-48.5	9.9	7.95e-03	0	61	0	548405248	57	6839
2026-01-25 23:55:00.63	2.79	57.79	-43.4	-48.7	9.7	1.03e-02	0	61	0	549453824	57	7000
2026-01-25 23:55:01.64	2.55	58.17	-43.5	-48.8	9.6	1.38e-02	0	61	0	551550976	57	7080
2026-01-25 23:55:02.66	2.29	58.56	-43.6	-49.1	9.2	2.10e-02	0	61	0	553648128	57	7323
2026-01-25 23:55:03.66	2.04	58.94	-43.7	-49.4	8.9	2.64e-02	0	61	0	555745280	58	7170
2026-01-25 23:55:04.67	1.78	59.33	-43.6	-49.1	9.2	1.99e-02	0	61	0	557842432	58	6902
2026-01-25 23:55:05.69	1.50	59.72	-43.3	-48.4	10.0	1.07e-02	0	61	0	558891008	58	6383
2026-01-25 23:55:06.70	1.22	60.11	-42.8	-47.0	11.4	2.51e-03	0	61	0	560988160	57	5779
2026-01-25 23:55:07.70	0.93	60.50	-42.3	-45.9	12.5	2.66e-04	0	61	0	563085312	56	5402
2026-01-25 23:55:08.72	0.63	60.90	-41.8	-45.2	13.2	3.58e-05	0	61	0	565182464	55	5253
2026-01-25 23:55:09.73	0.32	61.29	-41.6	-44.9	13.5	7.60e-06	0	61	0	567279616	55	5057
2026-01-25 23:55:10.74	0.00	61.69	-41.4	-44.5	13.8	5.30e-06	0	61	0	568328192	54	5152
2026-01-25 23:55:11.75	359.68	62.09	-41.3	-44.3	14.0	2.20e-06	0	61	0	570425344	54	5035
2026-01-25 23:55:12.76	359.33	62.49	-41.4	-44.6	13.8	2.20e-06	0	61	0	572522496	54	5162
2026-01-25 23:55:13.77	358.98	62.90	-41.3	-44.4	14.0	4.50e-06	0	61	0	574619648	54	5048
2026-01-25 23:55:14.78	358.62	63.30	-41.3	-44.3	14.1	1.50e-06	0	61	0	576716800	54	4985
2026-01-25 23:55:15.79	358.24	63.70	-41.2	-44.2	14.2	7.00e-07	0	61	0	578813952	54	4951
2026-01-25 23:55:16.80	357.85	64.11	-41.3	-44.4	14.0	7.00e-07	0	61	0	579862528	54	5068
2026-01-25 23:55:17.81	357.45	64.52	-41.4	-44.5	13.8	3.00e-06	0	61	0	581959680	54	5139
2026-01-25 23:55:18.81	357.03	64.92	-41.4	-44.6	13.7	6.10e-06	0	61	0	584056832	54	5202
2026-01-25 23:55:19.82	356.60	65.33	-41.6	-44.8	13.5	6.10e-06	0	61	0	586153984	54	5330
2026-01-25 23:55:20.83	356.15	65.74	-41.7	-45.0	13.3	1.29e-05	0	61	0	588251136	54	5434
2026-01-25 23:55:21.85	355.67	66.16	-41.9	-45.4	12.9	4.04e-05	0	61	0	589299712	54	5675
2026-01-25 23:55:22.86	355.19	66.57	-42.1	-45.9	12.4	7.17e-05	0	61	0	591396864	54	6011
2026-01-25 23:55:23.87	354.68	66.98	-42.3	-46.2	12.1	1.83e-04	0	61	0	593494016	55	5857
2026-01-25 23:55:24.88	354.15	67.39	-42.2	-46.1	12.2	2.55e-04	0	61	0	595591168	55	5817
2026-01-25 23:55:25.89	353.60	67.81	-42.2	-46.0	12.2	2.31e-04	0	61	0	597688320	55	5788
2026-01-25 23:55:26.90	353.03	68.22	-42.4	-46.4	11.9	3.84e-04	0	61	0	598736896	55	6000
2026-01-25 23:55:27.91	352.44	68.63	-42.1	-45.9	12.3	2.84e-04	0	61	0	600834048	55	5697
2026-01-25 23:55:28.92	351.82	69.04	-41.9	-45.4	12.9	7.85e-05	0	61	0	602931200	55	5357
2026-01-25 23:55:29.93	351.17	69.46	-41.8	-45.3	12.9	3.73e-05	0	61	0	605028352	55	5295
2026-01-25 23:55:30.94	350.49	69.87	-41.7	-45.1	13.1	2.97e-05	0	61	0	607125504	55	5215
2026-01-25 23:55:31.95	349.79	70.28	-41.3	-44.4	13.8	5.30e-06	0	61	0	608174080	54	5087
2026-01-25 23:55:32.96	349.05	70.69	-41.4	-44.6	13.7	2.20e-06	0	61	0	610271232	54	5172
2026-01-25 23:55:33.97	348.27	71.09	-41.7	-45.0	13.2	2.21e-05	0	61	0	612368384	54	5440
2026-01-25 23:55:34.98	347.47	71.50	-41.6	-44.8	13.4	2.36e-05	0	61	0	614465536	54	5336
2026-01-25 23:55:35.99	346.62	71.90	-41.3	-44.3	13.9	6.80e-06	0	61	0	616562688	54	5012
2026-01-25 23:55:37.00	345.73	72.30	-41.3	-44.5	13.8	3.00e-06	0	61	0	617611264	54	5109
2026-01-25 23:55:38.01	344.80	72.70	-41.8	-45.2	13.1	1.29e-05	0	61	0	619708416	54	5543
2026-01-25 23:55:39.02	343.82	73.09	-42.2	-46.0	12.3	7.17e-05	0	61	0	621805568	54	6079
2026-01-25 23:55:40.03	342.79	73.49	-42.5	-46.7	11.5	4.18e-04	0	61	0	623902720	55	6230
2026-01-25 23:55:41.04	341.71	73.87	-43.1	-47.8	10.5	2.83e-03	0	61	0	625999872	56	6699
2026-01-25 23:55:42.05	340.57	74.26	-43.3	-48.6	9.7	5.74e-03	0	61	0	627048448	57	6884
2026-01-25 23:55:43.06	339.38	74.63	-43.1	-47.9	10.4	8.42e-03	0	61	0	629145600	57	6362
2026-01-25 23:55:44.07	338.12	75.00	-42.9	-47.5	10.7	2.88e-03	0	61	0	631242752	57	6067
2026-01-25 23:55:45.08	336.80	75.37	-42.9	-47.3	11.0	2.39e-03	0	61	0	633339904	57	5963
2026-01-25 23:55:46.09	335.41	75.73	-42.8	-47.1	11.1	1.48e-03	0	61	0	635437056	57	5816
2026-01-25 23:55:47.10	333.94	76.08	-42.7	-46.9	11.3	1.30e-03	0	61	0	636485632	57	5688
2026-01-25 23:55:48.12	332.38	76.43	-42.8	-47.2	11.1	1.33e-03	0	61	0	638582784	57	5892
2026-01-25 23:55:49.13	330.75	76.76	-42.9	-47.3	10.9	2.16e-03	0	61	0	640679936	57	5977
2026-01-25 23:55:50.13	329.06	77.08	-42.7	-46.9	11.4	1.29e-03	0	61	0	642777088	57	5682
2026-01-25 23:55:51.14	327.26	77.39	-42.5	-46.6	11.7	7.22e-04	0	61	0	644874240	57	5501
2026-01-25 23:55:52.16	325.35	77.69	-42.6	-46.8	11.4	6.32e-04	0	61	0	646971392	57	5647
2026-01-25 23:55:53.17	323.36	77.98	-42.6	-46.7	11.6	1.02e-03	0	61	0	648019968	57	5582
2026-01-25 23:55:54.17	321.30	78.25	-42.2	-45.8	12.5	2.17e-04	0	61	0	650117120	56	5339
2026-01-25 23:55:55.18	319.12	78.50	-41.9	-45.4	12.7	6.56e-05	0	61	0	652214272	55	5388
2026-01-25 23:55:56.19	316.83	78.74	-42.2	-46.0	12.1	1.81e-04	0	61	0	654311424	55	5751
2026-01-25 23:55:57.20	314.46	78.97	-42.1	-45.8	12.3	1.65e-04	0	61	0	656408576	55	5627
2026-01-25 23:55:58.21	311.98	79.17	-41.9	-45.5	12.7	1.24e-04	0	61	0	657457152	55	5442
2026-01-25 23:55:59.22	309.42	79.35	-42.0	-45.7	12.5	1.57e-04	0	61	0	659554304	55	5549
2026-01-25 23:56:00.23	306.77	79.51	-41.8	-45.3	12.9	5.11e-05	0	61	0	661651456	55	5324
2026-01-25 23:56:01.24	304.04	79.65	-41.9	-45.4	12.7	6.33e-05	0	61	0	663748608	55	5383
2026-01-25 23:56:02.25	301.24	79.76	-42.5	-46.6	11.6	3.04e-04	0	61	0	665845760	55	6196
2026-01-25 23:56:03.26	298.38	79.85	-42.3	-46.3	11.8	6.50e-04	0	61	0	666894336	55	5978
2026-01-25 23:56:04.27	295.48	79.92	-42.0	-45.8	12.4	1.69e-04	0	61	0	668991488	55	5600
2026-01-25 23:56:05.28	292.55	79.96	-42.0	-45.6	12.5	1.31e-04	0	61	0	671088640	55	5509
2026-01-25 23:56:06.29	289.60	79.97	-41.9	-45.5	12.7	1.02e-04	0	61	0	673185792	55	5410
2026-01-25 23:56:07.30	286.66	79.96	-41.7	-45.1	13.1	3.43e-05	0	61	0	675282944	55	5188
2026-01-25 23:56:08.31	283.73	79.92	-41.6	-44.9	13.2	2.59e-05	0	61	0	676331520	55	5092
2026-01-25 23:56:09.32	280.83	79.85	-41.2	-44.2	14.0	9.10e-06	0	61	0	678428672	54	4945
2026-01-25 23:56:10.33	277.97	79.76	-41.1	-44.1	14.1	7.00e-07	0	61	0	680525824	54	4899
2026-01-25 23:56:11.34	275.17	79.65	-41.1	-44.1	14.1	7.00e-07	0	61	0	682622976	54	4891
2026-01-25 23:56:12.35	272.45	79.51	-41.1	-44.0	14.2	1.50e-06	0	61	0	684720128	54	4844
2026-01-25 23:56:13.36	269.79	79.35	-41.3	-44.5	13.7	3.00e-06	0	61	0	685768704	54	5103
2026-01-25 23:56:14.37	267.23	79.16	-41.8	-45.3	12.9	1.90e-05	0	61	0	687865856	54	5627
2026-01-25 23:56:15.38	264.76	78.96	-41.9	-45.6	12.5	9.46e-05	0	61	0	689963008	54	5797
2026-01-25 23:56:16.40	262.36	78.74	-41.9	-45.6	12.6	8.92e-05	0	61	0	692060160	54	5817
2026-01-25 23:56:17.41	260.08	78.50	-42.2	-46.0	12.2	2.40e-04	0	61	0	694157312	54	6111
2026-01-25 23:56:18.42	257.90	78.24	-42.4	-46.6	11.5	4.61e-04	0	61	0	696254464	55	6140
2026-01-25 23:56:19.43	255.81	77.97	-43.0	-47.7	10.5	2.68e-03	0	61	0	697303040	56	6618
2026-01-25 23:56:20.44	253.83	77.68	-43.5	-49.0	9.1	1.45e-02	0	61	0	699400192	57	7265
2026-01-25 23:56:21.45	251.94	77.38	-43.8	-49.9	8.2	3.48e-02	0	61	0	701497344	58	7555
2026-01-25 23:56:22.46	250.14	77.07	-44.0	-50.7	7.4	7.44e-02	0	61	0	703594496	58	8320
2026-01-25 23:56:23.47	248.43	76.74	-44.1	-51.3	6.9	1.77e-01	0	61	0	705691648	58	8896
2026-01-25 23:56:24.48	246.81	76.41	-43.9	-50.3	7.8	1.20e-01	0	61	0	706740224	58	7965
2026-01-25 23:56:25.49	245.26	76.07	-43.7	-49.8	8.2	5.58e-02	0	61	0	708837376	58	7466
2026-01-25 23:56:26.50	243.80	75.71	-43.7	-49.6	8.6	3.81e-02	0	61	0	710934528	58	7326
2026-01-25 23:56:27.51	242.41	75.36	-43.5	-49.2	8.9	3.40e-02	0	61	0	713031680	58	6964
2026-01-25 23:56:28.52	241.08	74.99	-43.4	-48.9	9.3	2.30e-02	0	61	0	715128832	58	6747
2026-01-25 23:56:29.53	239.83	74.62	-43.1	-47.9	10.4	8.88e-03	0	61	0	716177408	58	6019
2026-01-25 23:56:30.54	238.64	74.24	-42.7	-46.9	11.3	2.05e-03	0	61	0	718274560	57	5696
2026-01-25 23:56:31.55	237.50	73.86	-42.5	-46.6	11.7	7.84e-04	0	61	0	720371712	56	5833
2026-01-25 23:56:32.56	236.42	73.47	-42.5	-46.4	11.9	5.14e-04	0	61	0	722468864	56	5714
2026-01-25 23:56:33.57	235.39	73.08	-42.2	-45.9	12.5	3.51e-04	0	61	0	724566016	56	5359
2026-01-25 23:56:34.58	234.42	72.68	-41.4	-44.6	13.5	4.04e-05	0	61	0	725614592	54	5197
2026-01-25 23:56:35.59	233.48	72.28	-41.4	-44.6	13.7	3.80e-06	0	61	0	727711744	54	5176
2026-01-25 23:56:36.60	232.60	71.88	-41.5	-44.7	13.6	7.60e-06	0	61	0	729808896	54	5225
2026-01-25 23:56:37.61	231.75	71.48	-41.6	-44.8	13.4	1.75e-05	0	62	0	731906048	54	5332
2026-01-25 23:56:38.62	230.94	71.07	-41.7	-45.1	13.1	2.51e-05	0	61	0	734003200	54	5505
2026-01-25 23:56:39.63	230.17	70.66	-41.9	-45.5	12.7	3.28e-05	0	61	0	735051776	54	5734
2026-01-25 23:56:40.64	229.43	70.25	-42.2	-46.0	12.2	1.10e-04	0	61	0	737148928	54	6119
2026-01-25 23:56:41.65	228.72	69.84	-42.4	-46.5	11.6	3.14e-04	0	61	0	739246080	55	6092
2026-01-25 23:56:42.66	228.05	69.43	-42.3	-46.3	11.8	5.19e-04	0	61	0	741343232	55	5968
2026-01-25 23:56:43.67	227.40	69.02	-42.3	-46.2	12.0	3.55e-04	0	61	0	743440384	55	5874
2026-01-25 23:56:44.68	226.78	68.60	-42.4	-46.5	11.7	3.09e-04	0	61	0	744488960	55	6078
2026-01-25 23:56:45.69	226.18	68.19	-43.0	-47.5	10.8	1.53e-03	0	61	0	746586112	56	6489
2026-01-25 23:56:46.70	225.61	67.78	-43.5	-48.9	9.3	9.38e-03	0	61	0	748683264	57	7159
2026-01-25 23:56:47.71	225.06	67.36	-43.7	-49.7	8.5	2.83e-02	0	61	0	750780416	58	7431
2026-01-25 23:56:48.72	224.54	66.95	-43.6	-49.2	9.0	3.19e-02	0	61	0	752877568	58	7021
2026-01-25 23:56:49.73	224.03	66.54	-43.4	-48.6	9.6	1.94e-02	0	61	0	754974720	58	6551
2026-01-25 23:56:50.74	223.55	66.12	-43.1	-47.9	10.4	9.84e-03	0	61	0	756023296	58	6042
2026-01-25 23:56:51.75	223.08	65.71	-42.6	-46.8	11.5	1.36e-03	0	61	0	758120448	57	5634
2026-01-25 23:56:52.76	222.63	65.30	-42.0	-45.5	12.9	1.07e-04	0	61	0	760217600	56	5121
2026-01-25 23:56:53.77	222.19	64.89	-41.6	-45.0	13.3	2.21e-05	0	61	0	762314752	55	5102
2026-01-25 23:56:54.78	221.77	64.48	-41.4	-44.5	13.8	3.80e-06	0	61	0	764411904	54	5127
2026-01-25 23:56:55.79	221.37	64.07	-41.1	-44.1	14.2	1.50e-06	0	61	0	765460480	54	4899
2026-01-25 23:56:56.80	220.98	63.66	-41.0	-43.9	14.4	7.00e-07	0	61	0	767557632	53	5077
2026-01-25 23:56:57.81	220.60	63.26	-41.0	-43.9	14.3	7.00e-07	0	61	0	769654784	53	5078
2026-01-25 23:56:58.82	220.24	62.85	-41.1	-44.1	14.3	7.00e-07	0	61	0	771751936	53	5180
2026-01-25 23:56:59.83	219.88	62.45	-40.9	-43.7	14.6	7.00e-07	0	62	0	773849088	53	4940
2026-01-25 23:57:00.84	219.54	62.05	-41.1	-44.1	14.2	1.50e-06	0	61	0	774897664	53	5177
2026-01-25 23:57:01.85	219.21	61.65	-41.5	-44.8	13.5	6.80e-06	0	61	0	776994816	53	5618
2026-01-25 23:57:02.86	218.90	61.25	-41.9	-45.5	12.7	4.57e-05	0	61	0	779091968	54	5770
2026-01-25 23:57:03.87	218.59	60.85	-42.2	-46.0	12.2	1.10e-04	0	61	0	781189120	54	6103
2026-01-25 23:57:04.88	218.29	60.46	-42.4	-46.5	11.8	4.80e-04	0	61	0	783286272	55	6091
2026-01-25 23:57:05.89	218.00	60.06	-42.9	-47.3	11.1	1.11e-03	0	61	0	784334848	56	6294
2026-01-25 23:57:06.91	217.72	59.67	-42.9	-47.4	10.9	2.19e-03	0	61	0	786432000	56	6356
2026-01-25 23:57:07.91	217.45	59.28	-42.9	-47.4	10.9	2.20e-03	0	61	0	788529152	56	6382
2026-01-25 23:57:08.93	217.18	58.89	-43.0	-47.6	10.8	2.40e-03	0	61	0	790626304	56	6508
2026-01-25 23:57:09.93	216.93	58.50	-43.4	-48.6	9.6	5.47e-03	0	61	0	792723456	57	6952
2026-01-25 23:57:10.95	216.67	58.12	-43.8	-49.7	8.5	2.06e-02	0	61	0	793772032	58	7437
2026-01-25 23:57:11.95	216.43	57.74	-43.9	-50.3	7.9	6.82e-02	0	61	0	795869184	58	7974
2026-01-25 23:57:12.96	216.20	57.36	-43.9	-50.3	7.9	8.51e-02	0	61	0	797966336	58	7928
2026-01-25 23:57:13.98	215.97	56.97	-43.7	-49.5	8.8	5.33e-02	0	61	0	800063488	58	7214
2026-01-25 23:57:14.99	215.75	56.60	-43.2	-48.0	10.3	1.17e-02	0	61	0	802160640	58	6075
2026-01-25 23:57:16.00	215.53	56.22	-42.8	-47.0	11.2	2.78e-03	0	61	0	803209216	57	5780
2026-01-25 23:57:17.01	215.32	55.85	-42.3	-46.1	12.3	5.19e-04	0	61	0	805306368	56	5514
2026-01-25 23:57:18.02	215.11	55.48	-42.2	-45.9	12.6	1.91e-04	0	61	0	807403520	56	5355
2026-01-25 23:57:19.03	214.91	55.11	-42.0	-45.5	12.9	6.33e-05	0	61	0	809500672	56	5153
2026-01-25 23:57:20.04	214.72	54.75	-41.6	-45.0	13.3	3.89e-05	0	61	0	811597824	55	5108
2026-01-25 23:57:21.05	214.53	54.38	-41.3	-44.4	13.9	4.50e-06	0	61	0	812646400	54	5056
2026-01-25 23:57:22.06	214.35	54.02	-41.2	-44.2	14.1	4.50e-06	0	61	0	814743552	54	4972
2026-01-25 23:57:23.07	214.17	53.66	-41.4	-44.5	13.9	6.10e-06	0	61	0	816840704	54	5111
2026-01-25 23:57:24.08	213.99	53.31	-41.3	-44.4	13.9	3.00e-06	0	61	0	818937856	54	5082
2026-01-25 23:57:25.09	213.82	52.95	-41.3	-44.4	13.9	5.30e-06	0	61	0	821035008	54	5090
2026-01-25 23:57:26.10	213.65	52.60	-41.4	-44.5	13.8	1.50e-06	0	61	0	823132160	54	5154
2026-01-25 23:57:27.11	213.49	52.25	-41.7	-45.0	13.3	7.60e-06	0	61	0	824180736	54	5420
2026-01-25 23:57:28.12	213.33	51.90	-41.7	-45.1	13.2	2.82e-05	0	62	0	826277888	54	5492
2026-01-25 23:57:29.13	213.18	51.56	-41.7	-45.1	13.3	2.67e-05	0	61	0	828375040	54	5474
2026-01-25 23:57:30.14	213.02	51.21	-41.8	-45.2	13.2	2.28e-05	0	61	0	830472192	54	5542
2026-01-25 23:57:31.15	212.88	50.87	-42.0	-45.6	12.8	3.81e-05	0	61	0	832569344	54	5814
2026-01-25 23:57:32.16	212.73	50.53	-42.2	-46.1	12.3	1.30e-04	0	61	0	833617920	55	5791
2026-01-25 23:57:33.17	212.59	50.20	-42.6	-46.9	11.4	4.03e-04	0	62	0	835715072	55	6383
2026-01-25 23:57:34.18	212.45	49.86	-43.2	-48.1	10.3	3.33e-03	0	61	0	837812224	56	6918
2026-01-25 23:57:35.19	212.31	49.53	-43.6	-49.3	9.1	1.33e-02	0	61	0	839909376	57	7503
2026-01-25 23:57:36.20	212.18	49.20	-43.8	-49.7	8.6	3.39e-02	0	61	0	842006528	58	7446
2026-01-25 23:57:37.21	212.05	48.87	-43.7	-49.6	8.7	3.19e-02	0	62	0	843055104	58	7344
2026-01-25 23:57:38.22	211.93	48.55	-43.6	-49.1	9.2	2.25e-02	0	61	0	845152256	58	6905
2026-01-25 23:57:39.23	211.80	48.23	-43.4	-48.6	9.8	1.41e-02	0	61	0	847249408	58	6534
2026-01-25 23:57:40.23	211.68	47.91	-43.2	-48.1	10.2	6.79e-03	0	61	0	849346560	58	6190
2026-01-25 23:57:41.25	211.56	47.59	-43.2	-48.0	10.3	5.54e-03	0	61	0	851443712	58	6128
2026-01-25 23:57:42.25	211.45	47.27	-43.2	-48.2	10.1	5.44e-03	0	61	0	852492288	58	6232
2026-01-25 23:57:43.26	211.33	46.96	-43.4	-48.7	9.7	7.59e-03	0	61	0	854589440	58	6605
2026-01-25 23:57:44.27	211.22	46.65	-43.5	-49.0	9.3	2.04e-02	0	61	0	856686592	58	6848
2026-01-25 23:57:45.28	211.11	46.34	-43.6	-49.4	8.9	2.01e-02	0	61	0	858783744	58	7172
2026-01-25 23:57:46.30	211.00	46.03	-43.6	-49.2	9.1	2.76e-02	0	61	0	860880896	58	7030
2026-01-25 23:57:47.31	210.90	45.72	-43.4	-48.9	9.4	1.88e-02	0	61	0	861929472	58	6724
2026-01-25 23:57:48.32	210.79	45.42	-43.4	-48.7	9.5	1.60e-02	0	61	0	864026624	58	6637
2026-01-25 23:57:49.33	210.69	45.12	-43.4	-48.5	9.7	1.18e-02	0	61	0	866123776	58	6486
2026-01-25 23:57:50.34	210.59	44.82	-43.4	-48.6	9.7	1.20e-02	0	61	0	868220928	58	6501
2026-01-25 23:57:51.35	210.50	44.52	-43.3	-48.4	10.0	9.43e-03	0	61	0	870318080	58	6381
2026-01-25 23:57:52.36	210.40	44.23	-43.3	-48.4	9.9	8.43e-03	0	62	0	871366656	58	6400
2026-01-25 23:57:53.37	210.31	43.93	-43.4	-48.6	9.7	9.28e-03	0	61	0	873463808	58	6518
2026-01-25 23:57:54.38	210.21	43.64	-43.4	-48.7	9.6	1.48e-02	0	62	0	875560960	58	6629
2026-01-25 23:57:55.39	210.12	43.36	-43.3	-48.4	9.9	1.15e-02	0	62	0	877658112	58	6374
2026-01-25 23:57:56.40	210.04	43.07	-43.3	-48.4	9.9	9.95e-03	0	62	0	879755264	58	6412
2026-01-25 23:57:57.41	209.95	42.79	-43.3	-48.4	9.9	9.85e-03	0	61	0	880803840	58	6381
2026-01-25 23:57:58.42	209.86	42.50	-43.4	-48.6	9.6	1.10e-02	0	61	0	882900992	58	6548
2026-01-25 23:57:59.43	209.78	42.22	-43.3	-48.5	9.8	1.07e-02	0	61	0	884998144	58	6448
2026-01-25 23:58:00.44	209.70	41.95	-43.4	-48.8	9.5	1.12e-02	0	62	0	887095296	58	6684
2026-01-25 23:58:01.45	209.62	41.67	-43.4	-48.9	9.4	1.55e-02	0	61	0	889192448	58	6728
2026-01-25 23:58:02.46	209.54	41.40	-43.5	-49.1	9.1	1.80e-02	0	61	0	891289600	58	6923
2026-01-25 23:58:03.47	209.46	41.12	-43.5	-49.1	9.1	1.86e-02	0	61	0	892338176	58	6943
2026-01-25 23:58:04.48	209.38	40.85	-43.6	-49.5	8.8	2.64e-02	0	61	0	894435328	58	7215
2026-01-25 23:58:05.49	209.31	40.59	-43.7	-49.5	8.8	3.46e-02	0	61	0	896532480	58	7280
2026-01-25 23:58:06.50	209.23	40.32	-43.6	-49.3	9.0	2.70e-02	0	61	0	898629632	58	7082
2026-01-25 23:58:07.51	209.16	40.05	-43.6	-49.2	9.1	2.39e-02	0	61	0	900726784	58	7022
2026-01-25 23:58:08.52	209.09	39.79	-43.5	-49.1	9.2	2.08e-02	0	61	0	901775360	58	6939
2026-01-25 23:58:09.53	209.02	39.53	-43.5	-49.0	9.3	2.19e-02	0	61	0	903872512	58	6833
2026-01-25 23:58:10.54	208.95	39.27	-43.4	-48.8	9.5	1.62e-02	0	61	0	905969664	58	6693
2026-01-25 23:58:11.55	208.88	39.02	-43.3	-48.4	9.8	1.36e-02	0	61	0	908066816	58	6390
2026-01-25 23:58:12.56	208.81	38.76	-43.1	-48.0	10.4	7.52e-03	0	61	0	910163968	58	6072
2026-01-25 23:58:13.57	208.75	38.51	-42.9	-47.6	10.7	3.91e-03	0	61	0	911212544	57	6147
2026-01-25 23:58:14.58	208.68	38.26	-42.8	-47.3	11.0	2.36e-03	0	61	0	913309696	57	5949
2026-01-25 23:58:15.59	208.62	38.01	-42.8	-47.3	11.0	1.89e-03	0	62	0	915406848	57	5952
2026-01-25 23:58:16.60	208.55	37.76	-42.8	-47.1	11.2	1.57e-03	0	62	0	917504000	57	5824
2026-01-25 23:58:17.61	208.49	37.51	-42.8	-47.2	11.1	1.36e-03	0	61	0	919601152	57	5899
2026-01-25 23:58:18.62	208.43	37.27	-42.8	-47.3	11.1	1.53e-03	0	62	0	920649728	57	5926
2026-01-25 23:58:19.63	208.37	37.03	-42.8	-47.3	11.0	1.56e-03	0	62	0	922746880	57	5956
2026-01-25 23:58:20.64	208.31	36.79	-42.8	-47.3	11.0	2.05e-03	0	62	0	924844032	57	5976
2026-01-25 23:58:21.65	208.25	36.55	-42.9	-47.6	10.7	2.33e-03	0	62	0	926941184	57	6178
2026-01-25 23:58:22.66	208.20	36.31	-43.0	-47.7	10.5	3.52e-03	0	62	0	929038336	57	6254
2026-01-25 23:58:23.67	208.14	36.08	-43.0	-47.8	10.4	4.03e-03	0	62	0	931135488	57	6322
2026-01-25 23:58:24.69	208.08	35.84	-43.1	-48.1	10.1	4.34e-03	0	61	0	932184064	57	6523
2026-01-25 23:58:25.69	208.03	35.61	-43.1	-48.1	10.1	5.88e-03	0	61	0	934281216	57	6524
2026-01-25 23:58:26.70	207.98	35.38	-43.1	-48.1	10.2	6.49e-03	0	62	0	936378368	57	6556
2026-01-25 23:58:27.71	207.92	35.15	-43.0	-47.9	10.4	5.54e-03	0	61	0	938475520	57	6370
2026-01-25 23:58:28.72	207.87	34.92	-43.0	-47.8	10.4	4.38e-03	0	62	0	940572672	57	6313
2026-01-25 23:58:29.73	207.82	34.70	-42.9	-47.6	10.7	3.73e-03	0	61	0	941621248	57	6168
2026-01-25 23:58:30.74	207.77	34.47	-42.9	-47.5	10.8	2.94e-03	0	61	0	943718400	57	6072
2026-01-25 23:58:31.75	207.72	34.25	-42.7	-47.2	11.1	1.95e-03	0	61	0	945815552	57	5865
2026-01-25 23:58:32.76	207.67	34.03	-42.7	-47.1	11.1	1.45e-03	0	62	0	947912704	57	5850
2026-01-25 23:58:33.77	207.62	33.81	-42.7	-47.1	11.2	1.54e-03	0	61	0	950009856	57	5797
2026-01-25 23:58:34.78	207.57	33.59	-42.7	-47.0	11.2	1.41e-03	0	61	0	951058432	57	5778
2026-01-25 23:58:35.79	207.52	33.38	-42.8	-47.3	10.9	1.87e-03	0	61	0	953155584	57	5968
2026-01-25 23:58:36.80	207.48	33.16	-42.8	-47.3	10.9	1.77e-03	0	62	0	955252736	57	5948
2026-01-25 23:58:37.81	207.43	32.95	-42.9	-47.4	10.8	2.28e-03	0	61	0	957349888	57	6060
2026-01-25 23:58:38.82	207.39	32.74	-43.0	-47.7	10.5	3.84e-03	0	61	0	959447040	57	6252
2026-01-25 23:58:39.83	207.34	32.53	-43.0	-47.9	10.3	5.17e-03	0	62	0	960495616	57	6387
2026-01-25 23:58:40.84	207.30	32.32	-43.1	-47.9	10.3	5.39e-03	0	62	0	962592768	57	6419
2026-01-25 23:58:41.85	207.25	32.11	-43.1	-48.1	10.1	6.93e-03	0	62	0	964689920	57	6533
2026-01-25 23:58:42.86	207.21	31.90	-43.1	-48.1	10.1	6.98e-03	0	62	0	966787072	57	6499
2026-01-25 23:58:43.87	207.17	31.70	-43.1	-48.2	10.0	7.67e-03	0	62	0	968884224	57	6618
2026-01-25 23:58:44.88	207.13	31.50	-43.2	-48.4	9.9	8.96e-03	0	62	0	969932800	57	6731
2026-01-25 23:58:45.89	207.08	31.29	-43.2	-48.3	9.9	9.78e-03	0	62	0	972029952	57	6686
2026-01-25 23:58:46.90	207.04	31.09	-43.2	-48.3	9.8	9.66e-03	0	62	0	974127104	57	6711
2026-01-25 23:58:47.91	207.00	30.89	-43.2	-48.3	9.9	9.34e-03	0	62	0	976224256	57	6663
2026-01-25 23:58:48.92	206.96	30.70	-43.1	-48.3	10.0	8.48e-03	0	61	0	978321408	57	6647
2026-01-25 23:58:49.93	206.92	30.50	-43.1	-48.1	10.1	7.45e-03	0	61	0	979369984	57	6511
2026-01-25 23:58:50.94	206.89	30.30	-43.1	-48.1	10.0	6.03e-03	0	62	0	981467136	57	6558
2026-01-25 23:58:51.95	206.85	30.11	-43.1	-48.1	10.2	6.18e-03	0	62	0	983564288	57	6495
2026-01-25 23:58:52.96	206.81	29.92	-43.0	-47.9	10.3	5.54e-03	0	61	0	985661440	57	6401
2026-01-25 23:58:53.97	206.77	29.73	-43.0	-47.9	10.3	5.41e-03	0	62	0	987758592	57	6395
2026-01-25 23:58:54.98	206.74	29.54	-43.0	-48.0	10.2	5.59e-03	0	62	0	988807168	57	6428
2026-01-25 23:58:55.99	206.70	29.35	-43.0	-48.0	10.2	5.56e-03	0	62	0	990904320	57	6441
2026-01-25 23:58:57.00	206.66	29.16	-43.0	-47.9	10.3	5.23e-03	0	61	0	993001472	57	6370
2026-01-25 23:58:58.01	206.63	28.97	-43.0	-47.8	10.3	4.68e-03	0	62	0	995098624	57	6342
2026-01-25 23:58:59.02	206.59	28.79	-42.9	-47.6	10.6	4.30e-03	0	62	0	997195776	57	6189
2026-01-25 23:59:00.03	206.56	28.60	-42.9	-47.6	10.6	3.48e-03	0	62	0	999292928	57	6140
2026-01-25 23:59:01.04	206.53	28.42	-42.8	-47.5	10.7	3.08e-03	0	62	0	1000341504	57	6082
2026-01-25 23:59:02.05	206.49	28.24	-42.8	-47.4	10.8	2.83e-03	0	62	0	1002438656	57	6035
2026-01-25 23:59:03.06	206.46	28.06	-42.8	-47.4	10.8	2.67e-03	0	62	0	1004535808	57	6006
2026-01-25 23:59:04.07	206.43	27.88	-42.7	-47.2	11.0	2.22e-03	0	62	0	1006632960	57	5901
2026-01-25 23:59:05.08	206.39	27.70	-42.7	-47.2	11.0	1.97e-03	0	62	0	1008730112	57	5887
2026-01-25 23:59:06.09	206.36	27.52	-42.6	-47.1	11.1	1.52e-03	0	62	0	1009778688	57	5800
2026-01-25 23:59:07.10	206.33	27.35	-42.7	-47.2	11.0	1.54e-03	0	61	0	1011875840	57	5857
2026-01-25 23:59:08.11	206.30	27.17	-42.7	-47.1	11.1	1.80e-03	0	61	0	1013972992	57	5847
2026-01-25 23:59:09.12	206.27	27.00	-42.6	-47.1	11.1	1.53e-03	0	61	0	1016070144	57	5813
2026-01-25 23:59:10.12	206.24	26.83	-42.7	-47.1	11.1	1.68e-03	0	62	0	1018167296	57	5819
2026-01-25 23:59:11.13	206.21	26.66	-42.6	-47.1	11.1	1.78e-03	0	61	0	1019215872	57	5835
2026-01-25 23:59:12.14	206.18	26.49	-42.6	-47.1	11.0	1.85e-03	0	62	0	1021313024	57	5829
2026-01-25 23:59:13.15	206.15	26.32	-42.7	-47.2	11.0	1.80e-03	0	62	0	1023410176	57	5884
2026-01-25 23:59:14.16	206.12	26.15	-42.7	-47.2	11.0	1.87e-03	0	61	0	1025507328	57	5882
2026-01-25 23:59:15.18	206.09	25.98	-42.7	-47.2	11.0	1.92e-03	0	62	0	1027604480	57	5867
2026-01-25 23:59:16.19	206.06	25.81	-42.6	-47.1	11.1	1.53e-03	0	62	0	1028653056	57	5794
2026-01-25 23:59:17.20	206.03	25.65	-42.6	-47.0	11.2	1.59e-03	0	62	0	1030750208	57	5773
2026-01-25 23:59:18.20	206.00	25.48	-42.5	-46.8	11.4	1.05e-03	0	62	0	1032847360	57	5606
2026-01-25 23:59:19.21	205.98	25.32	-42.5	-46.7	11.5	8.71e-04	0	62	0	1034944512	56	5903
2026-01-25 23:59:20.22	205.95	25.16	-42.3	-46.5	11.7	7.61e-04	0	62	0	1037041664	56	5728
2026-01-25 23:59:21.23	205.92	25.00	-42.3	-46.3	11.9	4.36e-04	0	62	0	1038090240	56	5626
2026-01-25 23:59:22.24	205.90	24.84	-42.2	-46.1	12.1	3.71e-04	0	62	0	1040187392	56	5527
2026-01-25 23:59:23.25	205.87	24.68	-42.1	-46.0	12.3	2.30e-04	0	61	0	1042284544	56	5409
2026-01-25 23:59:24.26	205.84	24.52	-42.1	-46.0	12.2	2.17e-04	0	61	0	1044381696	56	5432
2026-01-25 23:59:25.27	205.82	24.36	-42.0	-45.8	12.4	1.55e-04	0	61	0	1046478848	56	5336
2026-01-25 23:59:26.28	205.79	24.21	-41.8	-45.4	12.6	1.27e-04	0	62	0	1047527424	55	5395
2026-01-25 23:59:27.29	205.77	24.05	-41.8	-45.4	12.6	1.01e-04	0	62	0	1049624576	55	5395
2026-01-25 23:59:28.30	205.74	23.90	-41.8	-45.5	12.5	9.00e-05	0	62	0	1051721728	55	5431
2026-01-25 23:59:29.31	205.72	23.74	-41.8	-45.4	12.6	8.77e-05	0	62	0	1053818880	55	5380
2026-01-25 23:59:30.32	205.69	23.59	-41.7	-45.3	12.7	6.79e-05	0	62	0	1055916032	55	5331
2026-01-25 23:59:31.33	205.67	23.44	-41.7	-45.4	12.6	8.46e-05	0	62	0	1056964608	55	5368
2026-01-25 23:59:32.34	205.65	23.29	-41.8	-45.5	12.6	1.17e-04	0	62	0	1059061760	55	5408
2026-01-25 23:59:33.35	205.62	23.14	-41.8	-45.5	12.6	8.16e-05	0	62	0	1061158912	55	5415
2026-01-25 23:59:34.36	205.60	22.99	-41.8	-45.5	12.5	9.30e-05	0	62	0	1063256064	55	5448
2026-01-25 23:59:35.37	205.58	22.84	-41.9	-45.6	12.4	1.25e-04	0	62	0	1065353216	55	5518
2026-01-25 23:59:36.38	205.55	22.69	-41.9	-45.8	12.2	1.75e-04	0	62	0	1067450368	55	5610
2026-01-25 23:59:37.39	205.53	22.54	-41.9	-45.7	12.4	1.53e-04	0	62	0	1068498944	55	5531
2026-01-25 23:59:38.40	205.51	22.40	-41.9	-45.7	12.3	1.59e-04	0	62	0	1070596096	55	5535
2026-01-25 23:59:39.40	205.49	22.25	-41.9	-45.8	12.2	1.65e-04	0	62	0	1072693248	55	5593
2026-01-25 23:59:40.41	205.46	22.11	-41.9	-45.8	12.2	2.03e-04	0	62	0	1074790400	55	5647
2026-01-25 23:59:41.42	205.44	21.97	-42.0	-45.9	12.1	2.53e-04	0	61	0	1076887552	55	5686
2026-01-25 23:59:42.44	205.42	21.82	-42.0	-45.9	12.1	2.55e-04	0	61	0	1077936128	55	5669
2026-01-25 23:59:43.45	205.40	21.68	-42.0	-45.9	12.1	3.00e-04	0	62	0	1080033280	55	5682
2026-01-25 23:59:44.46	205.38	21.54	-41.9	-45.8	12.2	2.40e-04	0	62	0	1082130432	55	5602
2026-01-25 23:59:45.47	205.36	21.40	-41.9	-45.8	12.1	2.45e-04	0	62	0	1084227584	55	5627
2026-01-25 23:59:46.48	205.34	21.26	-42.0	-45.9	12.1	2.46e-04	0	61	0	1086324736	55	5670
2026-01-25 23:59:47.48	205.32	21.12	-41.9	-45.9	12.1	2.72e-04	0	62	0	1087373312	55	5675
2026-01-25 23:59:48.50	205.30	20.98	-42.0	-46.0	12.0	3.48e-04	0	61	0	1089470464	55	5779
2026-01-25 23:59:49.51	205.28	20.84	-42.0	-46.0	12.0	3.46e-04	0	62	0	1091567616	55	5744
2026-01-25 23:59:50.51	205.26	20.71	-42.0	-45.9	12.0	3.42e-04	0	62	0	1093664768	55	5709
2026-01-25 23:59:51.53	205.24	20.57	-42.0	-46.0	11.9	3.59e-04	0	62	0	1095761920	55	5773
2026-01-25 23:59:52.54	205.22	20.44	-42.0	-46.1	11.9	4.70e-04	0	62	0	1096810496	55	5791
2026-01-25 23:59:53.55	205.20	20.30	-42.1	-46.2	11.8	4.65e-04	0	61	0	1098907648	55	5869
2026-01-25 23:59:54.56	205.18	20.17	-42.1	-46.2	11.7	5.04e-04	0	62	0	1101004800	55	5917
2026-01-25 23:59:55.57	205.16	20.04	-42.1	-46.2	11.7	5.84e-04	0	62	0	1103101952	55	5889
2026-01-25 23:59:56.58	205.14	19.90	-42.1	-46.3	11.6	6.88e-04	0	62	0	1105199104	55	5978
2026-01-25 23:59:57.59	205.12	19.77	-42.2	-46.4	11.5	7.41e-04	0	62	0	1106247680	55	6006
2026-01-25 23:59:58.60	205.11	19.64	-42.2	-46.4	11.5	8.55e-04	0	62	0	1108344832	55	6051
2026-01-25 23:59:59.61	205.09	19.51	-42.2	-46.5	11.4	8.96e-04	0	62	0	1110441984	55	6068
2026-01-26 00:00:00.62	205.07	19.38	-42.2	-46.5	11.4	9.64e-04	0	62	0	1112539136	55	6072
2026-01-26 00:00:01.63	205.05	19.25	-42.2	-46.5	11.3	9.35e-04	0	62	0	1114636288	55	6120
2026-01-26 00:00:02.64	205.03	19.12	-42.3	-46.6	11.3	1.08e-03	0	62	0	1115684864	55	6180
2026-01-26 00:00:03.65	205.02	19.00	-42.3	-46.6	11.3	1.26e-03	0	62	0	1117782016	55	6166
2026-01-26 00:00:04.66	205.00	18.87	-42.2	-46.6	11.3	1.19e-03	0	61	0	1119879168	55	6137
2026-01-26 00:00:05.67	204.98	18.74	-42.3	-46.7	11.2	1.01e-03	0	62	0	1121976320	55	6223
2026-01-26 00:00:06.68	204.97	18.62	-42.3	-46.6	11.2	1.33e-03	0	62	0	1124073472	55	6187
2026-01-26 00:00:07.69	204.95	18.49	-42.3	-46.6	11.2	1.28e-03	0	61	0	1125122048	55	6181
2026-01-26 00:00:08.70	204.93	18.37	-42.3	-46.8	11.1	1.52e-03	0	61	0	1127219200	55	6278
2026-01-26 00:00:09.72	204.92	18.24	-42.3	-46.9	11.0	1.89e-03	0	62	0	1129316352	55	6349
2026-01-26 00:00:10.72	204.90	18.12	-42.3	-46.7	11.1	1.76e-03	0	62	0	1131413504	55	6233
2026-01-26 00:00:11.74	204.88	18.00	-42.3	-46.8	11.1	1.84e-03	0	62	0	1133510656	55	6276
2026-01-26 00:00:12.75	204.87	17.88	-42.3	-46.8	10.9	2.09e-03	0	62	0	1134559232	55	6341
2026-01-26 00:00:13.75	204.85	17.76	-42.3	-46.9	10.9	1.85e-03	0	62	0	1136656384	55	6377
2026-01-26 00:00:14.77	204.84	17.63	-42.3	-46.8	10.9	2.03e-03	0	62	0	1138753536	55	6343
2026-01-26 00:00:15.78	204.82	17.51	-42.4	-46.9	10.8	2.48e-03	0	62	0	1140850688	55	6419
2026-01-26 00:00:16.79	204.81	17.39	-42.4	-47.0	10.8	2.69e-03	0	62	0	1142947840	55	6444
2026-01-26 00:00:17.80	204.79	17.27	-42.3	-46.9	10.9	2.30e-03	0	62	0	1145044992	55	6382
2026-01-26 00:00:18.81	204.78	17.16	-42.3	-46.8	10.9	2.18e-03	0	62	0	1146093568	55	6331
2026-01-26 00:00:19.82	204.76	17.04	-42.3	-46.9	10.9	2.21e-03	0	62	0	1148190720	55	6363
2026-01-26 00:00:20.83	204.75	16.92	-42.3	-47.0	10.8	2.40e-03	0	62	0	1150287872	55	6426
2026-01-26 00:00:21.84	204.73	16.80	-42.3	-46.9	10.8	2.80e-03	0	62	0	1152385024	55	6415
2026-01-26 00:00:22.85	204.72	16.69	-42.4	-47.0	10.7	2.77e-03	0	62	0	1154482176	55	6490
2026-01-26 00:00:23.86	204.70	16.57	-42.4	-47.0	10.7	3.04e-03	0	62	0	1155530752	55	6490
2026-01-26 00:00:24.87	204.69	16.46	-42.4	-47.1	10.6	2.76e-03	0	62	0	1157627904	55	6520
2026-01-26 00:00:25.88	204.67	16.34	-42.4	-47.1	10.6	3.30e-03	0	62	0	1159725056	55	6526
2026-01-26 00:00:26.89	204.66	16.23	-42.4	-47.1	10.6	3.31e-03	0	62	0	1161822208	55	6517
2026-01-26 00:00:27.90	204.65	16.12	-42.4	-47.2	10.5	3.59e-03	0	62	0	1163919360	55	6604
2026-01-26 00:00:28.91	204.63	16.00	-42.4	-47.2	10.5	4.20e-03	0	62	0	1164967936	55	6596
2026-01-26 00:00:29.92	204.62	15.89	-42.4	-47.1	10.6	3.56e-03	0	62	0	1167065088	55	6566
2026-01-26 00:00:30.93	204.60	15.78	-42.4	-47.2	10.5	3.79e-03	0	62	0	1169162240	55	6640
2026-01-26 00:00:31.94	204.59	15.67	-42.4	-47.2	10.5	4.30e-03	0	62	0	1171259392	55	6641
2026-01-26 00:00:32.95	204.58	15.56	-42.4	-47.3	10.4	4.17e-03	0	61	0	1173356544	55	6663
2026-01-26 00:00:33.96	204.56	15.45	-42.5	-47.3	10.3	4.49e-03	0	62	0	1174405120	55	6710
2026-01-26 00:00:34.97	204.55	15.34	-42.4	-47.3	10.4	5.00e-03	0	62	0	1176502272	55	6663
2026-01-26 00:00:35.98	204.54	15.23	-42.5	-47.4	10.2	4.88e-03	0	62	0	1178599424	55	6777
